passes_logs/2026/01/24/R4.6S_Anadyr/R4.6S_Anadyr__20260124_001025_NOAA_20_JPSS-1_rec.log

#Pass ID: 20260124_001025_NOAA 20 (JPSS-1)
#Satellite: NOAA 20 (JPSS-1)
#Configuration: NOAA 20
#almurnet v.1.7.20251203
#Start time: 2026-01-24 00:10:26

#Version: 2.2.20231116
#Station: R4.6S_Anadyr
#Location: 177.4865 lon 64.73178 lat
#TLE: 1 43013U 17073A   26023.57676825  .00000205  00000+0  11821-3 0  9990
#TLE: 2 43013  98.7645 324.4259 0001147  27.0566 333.0670 14.19539368423954

#Time	Az	El	Level	Level2	SNR	BER	BlckErr	Temp	State	Recorded	gain1	gain2
2026-01-24 00:10:26.31	155.08	0.07	-51.1	-66.0	3.5	1.51e+00	0	39	0	0	60	72175
2026-01-24 00:10:27.31	155.08	0.13	-51.1	-66.3	3.6	1.51e+00	0	40	104	0	60	74470
2026-01-24 00:10:28.32	155.09	0.19	-51.0	-66.2	3.6	1.51e+00	0	40	104	0	60	74108
2026-01-24 00:10:29.33	155.09	0.26	-51.1	-66.3	3.6	1.51e+00	0	40	104	0	60	74238
2026-01-24 00:10:30.34	155.09	0.32	-51.1	-66.3	3.6	1.51e+00	0	40	104	0	60	74581
2026-01-24 00:10:31.35	155.09	0.38	-51.1	-66.3	3.6	1.51e+00	0	40	104	0	60	74275
2026-01-24 00:10:32.36	155.10	0.44	-51.1	-66.2	3.6	1.51e+00	0	40	104	0	60	74195
2026-01-24 00:10:33.37	155.10	0.50	-51.0	-66.3	3.6	1.51e+00	0	40	104	0	60	74581
2026-01-24 00:10:34.38	155.10	0.56	-51.1	-66.2	3.6	1.51e+00	0	40	104	0	60	74170
2026-01-24 00:10:35.39	155.10	0.63	-51.1	-66.3	3.6	1.51e+00	0	40	104	0	60	74244
2026-01-24 00:10:36.40	155.10	0.69	-51.1	-66.3	3.6	1.51e+00	0	40	104	0	60	74230
2026-01-24 00:10:37.41	155.11	0.75	-51.0	-66.2	3.6	1.51e+00	0	40	104	0	60	74074
2026-01-24 00:10:38.42	155.11	0.81	-51.0	-66.2	3.6	1.51e+00	0	40	104	0	60	73755
2026-01-24 00:10:39.43	155.11	0.87	-50.9	-66.1	3.6	1.51e+00	0	40	104	0	60	72943
2026-01-24 00:10:40.43	155.11	0.94	-50.5	-66.1	3.6	1.51e+00	0	40	104	0	60	72648
2026-01-24 00:10:41.44	155.12	1.00	-50.7	-65.9	3.6	1.51e+00	0	40	104	0	60	71677
2026-01-24 00:10:42.45	155.12	1.06	-50.6	-65.8	3.6	1.51e+00	0	40	104	0	60	70252
2026-01-24 00:10:43.46	155.12	1.12	-50.4	-65.7	3.6	1.51e+00	0	40	104	0	60	69558
2026-01-24 00:10:44.47	155.12	1.19	-50.3	-65.6	3.6	1.51e+00	0	40	104	0	60	68677
2026-01-24 00:10:45.48	155.12	1.25	-49.7	-64.9	3.6	1.51e+00	0	40	104	0	60	63726
2026-01-24 00:10:46.49	155.13	1.31	-49.2	-64.4	3.6	1.51e+00	0	40	104	0	60	59776
2026-01-24 00:10:47.50	155.13	1.38	-48.8	-63.9	3.5	1.51e+00	0	40	104	0	60	56657
2026-01-24 00:10:48.51	155.13	1.44	-48.5	-63.8	3.6	1.51e+00	0	40	104	0	60	55767
2026-01-24 00:10:49.52	155.13	1.50	-48.4	-63.7	3.6	1.51e+00	0	41	104	0	60	55259
2026-01-24 00:10:50.53	155.14	1.57	-48.4	-63.6	3.6	1.51e+00	0	41	104	0	60	54749
2026-01-24 00:10:51.54	155.14	1.63	-48.3	-63.6	3.6	1.51e+00	0	40	104	0	60	54662
2026-01-24 00:10:52.55	155.14	1.70	-48.4	-63.6	3.6	1.51e+00	0	41	104	0	60	55014
2026-01-24 00:10:53.56	155.14	1.76	-48.4	-63.6	3.6	1.51e+00	0	40	104	0	60	54971
2026-01-24 00:10:54.57	155.14	1.83	-48.4	-63.6	3.6	1.51e+00	0	41	104	0	60	54843
2026-01-24 00:10:55.58	155.15	1.89	-48.4	-63.6	3.5	1.51e+00	0	41	104	0	60	55025
2026-01-24 00:10:56.59	155.15	1.95	-48.3	-63.6	3.5	1.51e+00	0	41	104	0	60	54565
2026-01-24 00:10:57.60	155.15	2.02	-48.3	-63.5	3.6	1.51e+00	0	40	104	0	60	54392
2026-01-24 00:10:58.61	155.15	2.08	-48.4	-63.5	3.6	1.51e+00	0	41	104	0	60	54371
2026-01-24 00:10:59.62	155.15	2.15	-48.4	-63.6	3.6	1.51e+00	0	40	104	0	60	54521
2026-01-24 00:11:00.63	155.16	2.22	-48.4	-63.7	3.6	1.51e+00	0	41	104	0	60	55283
2026-01-24 00:11:01.64	155.16	2.28	-48.3	-63.7	3.6	1.51e+00	0	41	104	0	60	55325
2026-01-24 00:11:02.65	155.16	2.35	-48.4	-63.7	3.6	1.51e+00	0	41	104	0	60	55229
2026-01-24 00:11:03.66	155.16	2.41	-48.4	-63.6	3.6	1.51e+00	0	41	104	0	60	54828
2026-01-24 00:11:04.67	155.17	2.48	-48.4	-63.7	3.6	1.51e+00	0	41	104	0	60	55149
2026-01-24 00:11:05.68	155.17	2.54	-48.4	-63.5	3.6	1.51e+00	0	41	104	0	60	54326
2026-01-24 00:11:06.68	155.17	2.61	-48.3	-63.3	3.6	1.51e+00	0	41	104	0	60	52928
2026-01-24 00:11:07.70	155.17	2.68	-48.3	-62.9	3.6	1.51e+00	0	41	104	0	60	50232
2026-01-24 00:11:08.71	155.17	2.74	-48.3	-62.5	3.6	1.51e+00	0	41	104	0	60	48405
2026-01-24 00:11:09.72	155.18	2.81	-48.3	-62.4	3.6	1.51e+00	0	41	104	0	60	47634
2026-01-24 00:11:10.73	155.18	2.88	-48.3	-62.5	3.6	1.51e+00	0	41	104	0	60	48106
2026-01-24 00:11:11.74	155.18	2.94	-48.3	-62.9	3.6	1.51e+00	0	41	104	0	60	50207
2026-01-24 00:11:12.75	155.18	3.01	-48.3	-63.3	3.6	1.51e+00	0	41	104	0	60	52762
2026-01-24 00:11:13.76	155.18	3.08	-48.3	-63.4	3.6	1.51e+00	0	41	104	0	60	53632
2026-01-24 00:11:14.77	155.19	3.15	-48.3	-62.9	3.6	1.51e+00	0	41	104	0	60	50585
2026-01-24 00:11:15.78	155.19	3.21	-48.3	-61.8	3.6	1.51e+00	0	41	104	0	60	44484
2026-01-24 00:11:16.79	155.19	3.28	-48.2	-60.3	3.8	1.45e+00	0	41	0	0	60	37393
2026-01-24 00:11:17.80	155.19	3.35	-48.1	-59.3	4.4	1.31e+00	33	41	104	0	60	33283
2026-01-24 00:11:18.81	155.19	3.42	-48.0	-57.3	4.6	8.80e-01	92	41	0	1048576	60	26338
2026-01-24 00:11:19.82	155.20	3.49	-47.9	-56.6	5.0	5.88e-01	92	41	0	3145728	60	24395
2026-01-24 00:11:20.83	155.20	3.56	-47.9	-56.1	5.4	5.86e-01	92	41	0	5242880	60	23048
2026-01-24 00:11:21.84	155.20	3.62	-47.9	-56.1	5.5	4.14e-01	92	41	0	6291456	60	22965
2026-01-24 00:11:22.85	155.20	3.69	-47.9	-56.0	5.5	4.44e-01	0	41	0	8388608	60	22811
2026-01-24 00:11:23.86	155.20	3.76	-47.9	-56.0	5.6	4.26e-01	93	41	0	10485760	60	22704
2026-01-24 00:11:24.87	155.21	3.83	-48.3	-62.0	3.6	1.38e+00	0	41	104	11534336	60	45538
2026-01-24 00:11:25.87	155.21	3.90	-46.7	-51.4	5.6	1.36e+00	0	41	104	11534336	60	13440
2026-01-24 00:11:26.88	155.21	3.97	-48.3	-61.9	3.6	9.24e-01	0	41	104	11534336	60	45118
2026-01-24 00:11:27.89	155.21	4.04	-48.2	-58.5	4.0	1.50e+00	0	41	104	11534336	60	30536
2026-01-24 00:11:28.90	155.21	4.11	-48.6	-62.0	3.6	4.59e-01	3	41	104	11534336	60	45524
2026-01-24 00:11:29.91	155.22	4.18	-47.3	-53.0	5.3	1.43e+00	61	41	104	11534336	60	16097
2026-01-24 00:11:30.92	155.22	4.25	-46.9	-51.7	11.1	3.43e-03	90	41	0	11534336	60	13840
2026-01-24 00:11:31.93	155.22	4.32	-46.7	-51.2	11.6	1.06e-03	27	41	0	13631488	60	13061
2026-01-24 00:11:32.94	155.22	4.39	-46.7	-51.2	11.5	9.09e-04	92	41	0	15728640	60	13133
2026-01-24 00:11:33.94	155.22	4.46	-46.7	-51.3	11.1	1.01e-03	92	41	0	16777216	60	13341
2026-01-24 00:11:34.95	155.23	4.53	-46.6	-51.1	11.4	1.28e-03	90	41	0	18874368	60	13043
2026-01-24 00:11:35.96	155.23	4.60	-46.8	-51.4	11.0	1.61e-03	92	41	0	20971520	60	13503
2026-01-24 00:11:36.97	155.23	4.68	-46.8	-51.5	11.2	2.04e-03	92	41	0	23068672	60	13613
2026-01-24 00:11:37.98	155.23	4.75	-46.9	-51.7	10.7	1.45e-03	92	41	0	25165824	60	13877
2026-01-24 00:11:38.99	155.23	4.82	-46.8	-51.6	11.1	1.87e-03	2	41	0	26214400	60	13748
2026-01-24 00:11:40.00	155.24	4.89	-46.9	-51.7	10.7	2.00e-03	91	41	0	28311552	60	13886
2026-01-24 00:11:41.01	155.24	4.96	-47.0	-51.8	11.0	2.41e-03	77	41	0	30408704	60	14022
2026-01-24 00:11:42.02	155.24	5.04	-46.9	-51.6	10.9	1.63e-03	90	41	0	32505856	60	13731
2026-01-24 00:11:43.03	155.24	5.11	-46.9	-51.5	11.1	1.83e-03	91	41	0	34603008	60	13623
2026-01-24 00:11:44.03	155.24	5.18	-46.8	-51.1	11.6	9.31e-04	91	41	0	36700160	60	13024
2026-01-24 00:11:45.04	155.25	5.25	-46.8	-51.0	11.7	7.85e-04	91	41	0	37748736	60	12864
2026-01-24 00:11:46.05	155.25	5.33	-46.8	-51.2	11.6	5.85e-04	7	41	0	39845888	60	13127
2026-01-24 00:11:47.06	155.25	5.40	-46.8	-51.1	11.7	5.55e-04	92	41	0	41943040	60	12915
2026-01-24 00:11:48.07	155.25	5.47	-46.6	-50.6	12.3	3.07e-04	0	41	0	44040192	60	12276
2026-01-24 00:11:49.08	155.25	5.55	-46.7	-50.7	12.2	2.37e-04	92	41	0	46137344	60	12407
2026-01-24 00:11:50.09	155.26	5.62	-46.6	-50.5	12.5	1.69e-04	92	41	0	47185920	60	12070
2026-01-24 00:11:51.10	155.26	5.70	-46.6	-50.6	12.5	9.68e-05	92	41	0	49283072	60	12195
2026-01-24 00:11:52.11	155.26	5.77	-46.5	-50.4	12.6	1.95e-04	92	41	0	51380224	60	11907
2026-01-24 00:11:53.12	155.26	5.84	-46.4	-50.2	12.8	6.40e-05	92	41	0	53477376	60	11743
2026-01-24 00:11:54.13	155.26	5.92	-46.4	-50.2	12.8	7.17e-05	92	41	0	55574528	60	11661
2026-01-24 00:11:55.14	155.26	5.99	-46.4	-50.1	12.8	6.33e-05	6	41	0	56623104	60	11592
2026-01-24 00:11:56.15	155.27	6.07	-46.4	-50.2	13.0	5.18e-05	92	41	0	58720256	60	11641
2026-01-24 00:11:57.16	155.27	6.15	-46.3	-49.9	13.2	2.74e-05	6	41	0	60817408	60	11283
2026-01-24 00:11:58.17	155.27	6.22	-46.3	-49.8	13.4	2.89e-05	92	41	0	62914560	60	11204
2026-01-24 00:11:59.18	155.27	6.30	-46.3	-49.7	13.4	1.22e-05	90	41	0	65011712	60	11082
2026-01-24 00:12:00.19	155.27	6.37	-46.3	-49.8	13.4	8.30e-06	92	41	0	66060288	60	11190
2026-01-24 00:12:01.20	155.28	6.45	-46.2	-49.5	13.7	1.44e-05	90	41	0	68157440	60	10778
2026-01-24 00:12:02.21	155.28	6.53	-46.1	-49.4	13.8	1.06e-05	0	41	0	70254592	60	10632
2026-01-24 00:12:03.22	155.28	6.60	-46.1	-49.5	13.8	7.60e-06	90	41	0	72351744	60	10739
2026-01-24 00:12:04.23	155.28	6.68	-45.9	-49.1	14.1	4.50e-06	0	41	0	74448896	60	10295
2026-01-24 00:12:05.24	155.28	6.76	-46.1	-49.4	13.9	3.80e-06	90	41	0	75497472	60	10635
2026-01-24 00:12:06.25	155.28	6.84	-45.9	-49.0	14.2	2.20e-06	92	41	0	77594624	60	10214
2026-01-24 00:12:07.26	155.29	6.91	-46.0	-49.1	14.1	7.00e-07	92	41	0	79691776	60	10347
2026-01-24 00:12:08.27	155.29	6.99	-45.9	-49.0	14.2	1.50e-06	91	41	0	81788928	60	10187
2026-01-24 00:12:09.28	155.29	7.07	-45.8	-48.8	14.6	0.00e+00	91	41	0	83886080	60	9996
2026-01-24 00:12:10.29	155.29	7.15	-45.9	-48.9	14.4	7.00e-07	91	41	0	84934656	60	10126
2026-01-24 00:12:11.30	155.29	7.23	-45.8	-48.8	14.5	0.00e+00	0	41	0	87031808	60	9903
2026-01-24 00:12:12.31	155.30	7.31	-45.8	-48.7	14.5	1.50e-06	92	41	0	89128960	60	9874
2026-01-24 00:12:13.32	155.30	7.39	-45.8	-48.8	14.6	0.00e+00	92	41	0	91226112	60	9911
2026-01-24 00:12:14.33	155.30	7.47	-45.8	-48.8	14.5	0.00e+00	90	41	0	93323264	60	9969
2026-01-24 00:12:15.34	155.30	7.55	-45.8	-48.7	14.6	7.00e-07	91	41	0	94371840	60	9881
2026-01-24 00:12:16.35	155.30	7.63	-45.9	-48.9	14.5	0.00e+00	92	41	0	96468992	60	10065
2026-01-24 00:12:17.36	155.30	7.71	-46.0	-49.1	14.3	1.50e-06	90	41	0	98566144	60	10321
2026-01-24 00:12:18.37	155.31	7.79	-45.8	-48.7	14.6	1.50e-06	11	41	0	100663296	60	9870
2026-01-24 00:12:19.38	155.31	7.87	-46.0	-49.0	14.3	7.00e-07	92	41	0	102760448	60	10191
2026-01-24 00:12:20.39	155.31	7.95	-45.9	-49.0	14.4	0.00e+00	22	41	0	104857600	60	10131
2026-01-24 00:12:21.40	155.31	8.03	-45.9	-49.0	14.3	7.00e-07	92	41	0	105906176	60	10203
2026-01-24 00:12:22.41	155.31	8.11	-46.0	-49.1	14.3	2.20e-06	92	41	0	108003328	60	10269
2026-01-24 00:12:23.42	155.31	8.19	-46.0	-49.1	14.1	0.00e+00	92	41	0	110100480	60	10362
2026-01-24 00:12:24.43	155.32	8.28	-45.8	-48.9	14.4	3.00e-06	92	41	0	112197632	60	10046
2026-01-24 00:12:25.44	155.32	8.36	-45.9	-49.0	14.3	0.00e+00	72	41	0	114294784	60	10196
2026-01-24 00:12:26.45	155.32	8.44	-45.9	-48.9	14.4	2.20e-06	92	41	0	115343360	60	10127
2026-01-24 00:12:27.45	155.32	8.52	-46.0	-49.1	14.2	1.50e-06	0	41	0	117440512	60	10257
2026-01-24 00:12:28.47	155.32	8.61	-46.0	-49.2	14.1	2.20e-06	92	41	0	119537664	60	10403
2026-01-24 00:12:29.47	155.32	8.69	-46.0	-49.1	14.2	1.50e-06	92	41	0	121634816	60	10313
2026-01-24 00:12:30.48	155.32	8.77	-45.9	-49.0	14.3	1.50e-06	92	41	0	123731968	60	10164
2026-01-24 00:12:31.49	155.33	8.86	-46.0	-49.1	14.1	2.20e-06	92	41	0	124780544	60	10328
2026-01-24 00:12:32.50	155.33	8.94	-46.0	-49.2	14.1	3.80e-06	86	41	0	126877696	60	10402
2026-01-24 00:12:33.51	155.33	9.03	-46.1	-49.4	13.9	3.00e-06	92	41	0	128974848	60	10629
2026-01-24 00:12:34.52	155.33	9.11	-46.0	-49.3	13.9	1.50e-06	73	41	0	131072000	60	10491
2026-01-24 00:12:35.53	155.33	9.20	-46.1	-49.3	13.9	6.10e-06	90	41	0	133169152	60	10591
2026-01-24 00:12:36.54	155.33	9.28	-46.1	-49.4	13.8	3.80e-06	92	41	0	134217728	60	10672
2026-01-24 00:12:37.55	155.34	9.37	-46.1	-49.4	13.9	5.30e-06	92	41	0	136314880	60	10624
2026-01-24 00:12:38.56	155.34	9.45	-46.1	-49.3	14.0	6.80e-06	92	41	0	138412032	60	10539
2026-01-24 00:12:39.57	155.34	9.54	-46.2	-49.4	14.0	2.20e-06	92	41	0	140509184	60	10707
2026-01-24 00:12:40.58	155.34	9.63	-46.1	-49.3	14.1	1.50e-06	92	41	0	142606336	60	10513
2026-01-24 00:12:41.59	155.34	9.71	-46.1	-49.2	14.2	7.00e-07	0	41	0	143654912	60	10466
2026-01-24 00:12:42.60	155.34	9.80	-45.9	-48.9	14.6	1.50e-06	92	41	0	145752064	60	10108
2026-01-24 00:12:43.61	155.34	9.89	-46.0	-48.9	14.6	0.00e+00	9	41	0	147849216	60	10110
2026-01-24 00:12:44.62	155.35	9.98	-46.0	-48.9	14.8	0.00e+00	92	41	0	149946368	60	10037
2026-01-24 00:12:45.63	155.35	10.06	-45.8	-48.6	15.0	0.00e+00	92	41	0	152043520	60	9716
2026-01-24 00:12:46.64	155.35	10.15	-45.8	-48.6	15.0	0.00e+00	92	41	0	153092096	60	9723
2026-01-24 00:12:47.64	155.35	10.24	-45.6	-48.3	15.4	0.00e+00	92	41	0	155189248	60	9365
2026-01-24 00:12:48.65	155.35	10.33	-45.6	-48.3	15.3	0.00e+00	0	41	0	157286400	60	9392
2026-01-24 00:12:49.66	155.35	10.42	-45.5	-48.1	15.6	0.00e+00	92	41	0	159383552	60	9190
2026-01-24 00:12:50.67	155.35	10.51	-45.4	-47.9	15.8	0.00e+00	12	41	0	161480704	60	8936
2026-01-24 00:12:51.68	155.36	10.60	-45.4	-47.8	15.9	0.00e+00	92	41	0	162529280	60	8906
2026-01-24 00:12:52.69	155.36	10.69	-45.4	-47.8	15.9	0.00e+00	91	41	0	164626432	60	8897
2026-01-24 00:12:53.70	155.36	10.78	-45.4	-47.9	15.8	0.00e+00	91	41	0	166723584	60	8971
2026-01-24 00:12:54.71	155.36	10.87	-45.3	-47.7	16.1	0.00e+00	91	41	0	168820736	60	8766
2026-01-24 00:12:55.72	155.36	10.96	-45.4	-47.8	15.9	0.00e+00	88	41	0	170917888	60	8872
2026-01-24 00:12:56.73	155.36	11.06	-45.3	-47.7	16.0	0.00e+00	91	41	0	173015040	60	8774
2026-01-24 00:12:57.74	155.36	11.15	-45.3	-47.7	16.1	0.00e+00	67	41	0	174063616	60	8746
2026-01-24 00:12:58.75	155.36	11.24	-45.2	-47.6	16.2	0.00e+00	92	41	0	176160768	60	8676
2026-01-24 00:12:59.75	155.37	11.33	-45.2	-47.5	16.3	0.00e+00	83	41	0	178257920	60	8616
2026-01-24 00:13:00.76	155.37	11.43	-45.2	-47.5	16.3	0.00e+00	92	41	0	180355072	60	8567
2026-01-24 00:13:01.77	155.37	11.52	-45.2	-47.6	16.2	0.00e+00	92	41	0	182452224	60	8633
2026-01-24 00:13:02.78	155.37	11.61	-45.1	-47.4	16.4	0.00e+00	92	41	0	183500800	60	8471
2026-01-24 00:13:03.79	155.37	11.71	-45.2	-47.5	16.4	0.00e+00	91	41	0	185597952	60	8604
2026-01-24 00:13:04.80	155.37	11.80	-45.1	-47.4	16.5	0.00e+00	0	41	0	187695104	60	8447
2026-01-24 00:13:05.81	155.37	11.90	-45.1	-47.3	16.5	0.00e+00	91	41	0	189792256	60	8399
2026-01-24 00:13:06.82	155.37	11.99	-45.1	-47.3	16.5	0.00e+00	84	41	0	191889408	60	8386
2026-01-24 00:13:07.83	155.38	12.09	-45.1	-47.3	16.5	0.00e+00	93	41	0	192937984	60	8387
2026-01-24 00:13:08.84	155.38	12.18	-45.1	-47.4	16.4	0.00e+00	92	41	0	195035136	60	8467
2026-01-24 00:13:09.85	155.38	12.28	-45.1	-47.5	16.3	0.00e+00	92	41	0	197132288	60	8539
2026-01-24 00:13:10.86	155.38	12.38	-45.2	-47.5	16.2	0.00e+00	92	41	0	199229440	60	8611
2026-01-24 00:13:11.86	155.38	12.47	-45.2	-47.6	16.3	0.00e+00	40	41	0	201326592	60	8631
2026-01-24 00:13:12.87	155.38	12.57	-45.1	-47.4	16.3	0.00e+00	90	41	0	202375168	60	8518
2026-01-24 00:13:13.88	155.38	12.67	-45.1	-47.5	16.3	0.00e+00	0	41	0	204472320	60	8531
2026-01-24 00:13:14.89	155.38	12.77	-45.1	-47.5	16.2	0.00e+00	90	41	0	206569472	60	8538
2026-01-24 00:13:15.90	155.38	12.87	-45.2	-47.5	16.2	0.00e+00	90	41	0	208666624	60	8605
2026-01-24 00:13:16.91	155.39	12.97	-45.1	-47.5	16.2	0.00e+00	92	41	0	210763776	60	8528
2026-01-24 00:13:17.92	155.39	13.07	-45.1	-47.5	16.2	0.00e+00	92	41	0	211812352	60	8570
2026-01-24 00:13:18.92	155.39	13.17	-45.2	-47.5	16.2	0.00e+00	92	41	0	213909504	60	8621
2026-01-24 00:13:19.93	155.39	13.27	-45.1	-47.5	16.1	0.00e+00	92	41	0	216006656	60	8545
2026-01-24 00:13:20.94	155.39	13.37	-45.2	-47.6	16.1	0.00e+00	25	41	0	218103808	60	8688
2026-01-24 00:13:21.95	155.39	13.47	-45.1	-47.5	16.1	0.00e+00	92	41	0	220200960	60	8551
2026-01-24 00:13:22.96	155.39	13.57	-45.1	-47.5	16.2	0.00e+00	30	41	0	221249536	60	8555
2026-01-24 00:13:23.97	155.39	13.67	-45.0	-47.3	16.5	0.00e+00	92	41	0	223346688	60	8346
2026-01-24 00:13:24.98	155.39	13.78	-45.1	-47.4	16.3	0.00e+00	92	41	0	225443840	60	8501
2026-01-24 00:13:25.99	155.39	13.88	-45.0	-47.3	16.5	0.00e+00	92	41	0	227540992	60	8346
2026-01-24 00:13:27.00	155.39	13.98	-44.9	-47.1	16.7	0.00e+00	92	41	0	229638144	60	8223
2026-01-24 00:13:28.01	155.40	14.09	-44.9	-47.1	16.8	0.00e+00	18	41	0	230686720	60	8215
2026-01-24 00:13:29.02	155.40	14.19	-44.9	-47.1	16.8	0.00e+00	92	41	0	232783872	60	8174
2026-01-24 00:13:30.03	155.40	14.30	-44.9	-47.1	16.7	0.00e+00	16	41	0	234881024	60	8208
2026-01-24 00:13:31.03	155.40	14.40	-44.8	-46.9	17.0	0.00e+00	92	41	0	236978176	60	8001
2026-01-24 00:13:32.04	155.40	14.51	-44.6	-46.7	17.2	0.00e+00	91	41	0	239075328	60	7824
2026-01-24 00:13:33.05	155.40	14.61	-44.7	-46.8	17.2	0.00e+00	92	41	0	240123904	60	7867
2026-01-24 00:13:34.06	155.40	14.72	-44.5	-46.6	17.3	0.00e+00	92	41	0	242221056	60	7747
2026-01-24 00:13:35.07	155.40	14.83	-44.6	-46.7	17.3	0.00e+00	62	41	0	244318208	60	7790
2026-01-24 00:13:36.08	155.40	14.93	-44.5	-46.6	17.3	0.00e+00	92	41	0	246415360	60	7749
2026-01-24 00:13:37.09	155.40	15.04	-44.5	-46.6	17.4	0.00e+00	0	41	0	248512512	60	7735
2026-01-24 00:13:38.10	155.40	15.15	-44.5	-46.6	17.3	0.00e+00	92	41	0	249561088	60	7724
2026-01-24 00:13:39.11	155.40	15.26	-44.7	-46.7	17.2	0.00e+00	92	41	0	251658240	60	7825
2026-01-24 00:13:40.12	155.40	15.37	-44.7	-46.7	17.2	0.00e+00	90	41	0	253755392	60	7850
2026-01-24 00:13:41.13	155.40	15.48	-44.7	-46.8	17.2	0.00e+00	90	41	0	255852544	60	7902
2026-01-24 00:13:42.14	155.41	15.59	-44.5	-46.5	17.5	0.00e+00	92	41	0	257949696	60	7648
2026-01-24 00:13:43.15	155.41	15.70	-44.5	-46.5	17.5	0.00e+00	91	41	0	258998272	60	7617
2026-01-24 00:13:44.15	155.41	15.81	-44.5	-46.5	17.5	0.00e+00	74	41	0	261095424	60	7651
2026-01-24 00:13:45.17	155.41	15.92	-44.4	-46.4	17.5	0.00e+00	91	41	0	263192576	60	7535
2026-01-24 00:13:46.17	155.41	16.04	-44.4	-46.4	17.5	0.00e+00	90	41	0	265289728	60	7528
2026-01-24 00:13:47.18	155.41	16.15	-44.4	-46.3	17.6	0.00e+00	91	41	0	267386880	60	7508
2026-01-24 00:13:48.19	155.41	16.26	-44.3	-46.3	17.6	0.00e+00	92	41	0	269484032	60	7474
2026-01-24 00:13:49.20	155.41	16.38	-44.3	-46.3	17.7	0.00e+00	92	41	0	270532608	60	7452
2026-01-24 00:13:50.21	155.41	16.49	-44.3	-46.2	17.7	0.00e+00	92	41	0	272629760	60	7401
2026-01-24 00:13:51.22	155.41	16.61	-44.2	-46.1	17.9	0.00e+00	88	41	0	274726912	60	7254
2026-01-24 00:13:52.23	155.41	16.72	-44.1	-46.0	17.9	0.00e+00	91	41	0	276824064	60	7217
2026-01-24 00:13:53.24	155.41	16.84	-44.1	-45.9	17.9	0.00e+00	0	41	0	278921216	60	7154
2026-01-24 00:13:54.25	155.41	16.96	-44.0	-45.9	18.0	0.00e+00	92	41	0	279969792	60	7123
2026-01-24 00:13:55.26	155.41	17.07	-43.9	-45.8	17.9	0.00e+00	90	41	0	282066944	60	7079
2026-01-24 00:13:56.27	155.41	17.19	-43.9	-45.8	18.0	0.00e+00	92	41	0	284164096	60	7026
2026-01-24 00:13:57.28	155.41	17.31	-43.8	-45.7	18.1	0.00e+00	90	41	0	286261248	60	6943
2026-01-24 00:13:58.29	155.41	17.43	-43.8	-45.6	18.0	0.00e+00	92	42	0	288358400	60	6881
2026-01-24 00:13:59.30	155.41	17.55	-43.8	-45.7	18.0	0.00e+00	90	41	0	289406976	60	6931
2026-01-24 00:14:00.31	155.41	17.67	-43.6	-45.4	18.3	0.00e+00	0	41	0	291504128	60	6706
2026-01-24 00:14:01.32	155.41	17.79	-43.5	-45.2	18.4	0.00e+00	90	41	0	293601280	60	6594
2026-01-24 00:14:02.33	155.41	17.91	-43.4	-45.1	18.6	0.00e+00	92	41	0	295698432	60	6528
2026-01-24 00:14:03.33	155.41	18.03	-43.2	-44.8	19.0	0.00e+00	92	41	0	297795584	60	6272
2026-01-24 00:14:04.34	155.41	18.16	-43.1	-44.7	19.1	0.00e+00	92	42	0	298844160	60	6238
2026-01-24 00:14:05.35	155.41	18.28	-42.9	-44.3	19.6	0.00e+00	92	42	0	300941312	60	5951
2026-01-24 00:14:06.36	155.41	18.40	-42.9	-44.4	19.8	0.00e+00	92	41	0	303038464	60	5979
2026-01-24 00:14:07.37	155.41	18.53	-42.4	-43.7	20.4	0.00e+00	54	42	0	305135616	58	6225
2026-01-24 00:14:08.38	155.41	18.65	-42.3	-43.6	20.4	0.00e+00	92	41	0	307232768	58	6159
2026-01-24 00:14:09.39	155.41	18.78	-42.2	-43.4	20.7	0.00e+00	92	41	0	308281344	58	6019
2026-01-24 00:14:10.40	155.41	18.91	-41.7	-42.9	21.5	0.00e+00	90	42	0	310378496	56	6333
2026-01-24 00:14:11.41	155.41	19.03	-41.5	-42.6	21.8	0.00e+00	92	42	0	312475648	56	6158
2026-01-24 00:14:12.41	155.41	19.16	-41.3	-42.4	22.0	0.00e+00	92	42	0	314572800	56	6015
2026-01-24 00:14:13.42	155.41	19.29	-41.2	-42.2	22.3	0.00e+00	92	41	0	316669952	56	5893
2026-01-24 00:14:14.43	155.41	19.42	-41.1	-42.2	22.4	0.00e+00	57	42	0	317718528	56	5843
2026-01-24 00:14:15.44	155.41	19.55	-40.8	-41.8	22.6	0.00e+00	92	42	0	319815680	56	5629
2026-01-24 00:14:16.45	155.41	19.68	-40.8	-41.7	22.7	0.00e+00	0	42	0	321912832	56	5566
2026-01-24 00:14:17.46	155.41	19.81	-40.5	-41.4	22.9	0.00e+00	92	42	0	324009984	54	6028
2026-01-24 00:14:18.47	155.41	19.94	-40.5	-41.5	23.0	0.00e+00	92	42	0	326107136	54	6045
2026-01-24 00:14:19.48	155.41	20.07	-40.3	-41.3	23.2	0.00e+00	90	42	0	327155712	54	5899
2026-01-24 00:14:20.49	155.41	20.21	-40.3	-41.2	23.2	0.00e+00	92	42	0	329252864	54	5886
2026-01-24 00:14:21.50	155.41	20.34	-40.4	-41.3	23.0	0.00e+00	91	42	0	331350016	54	5957
2026-01-24 00:14:22.51	155.41	20.48	-40.4	-41.3	23.2	0.00e+00	91	42	0	333447168	54	5952
2026-01-24 00:14:23.52	155.41	20.61	-40.2	-41.2	23.3	0.00e+00	87	42	0	335544320	54	5841
2026-01-24 00:14:24.53	155.41	20.75	-40.1	-41.0	23.4	0.00e+00	91	41	0	337641472	54	5733
2026-01-24 00:14:25.54	155.41	20.89	-40.1	-41.1	23.4	0.00e+00	90	41	0	338690048	54	5775
2026-01-24 00:14:26.55	155.41	21.02	-40.1	-41.0	23.4	0.00e+00	92	42	0	340787200	54	5733
2026-01-24 00:14:27.55	155.41	21.16	-40.0	-40.9	23.4	0.00e+00	92	41	0	342884352	54	5685
2026-01-24 00:14:28.56	155.41	21.30	-40.0	-40.9	23.4	0.00e+00	92	41	0	344981504	54	5695
2026-01-24 00:14:29.58	155.41	21.44	-40.1	-41.0	23.4	0.00e+00	92	41	0	347078656	54	5754
2026-01-24 00:14:30.59	155.40	21.58	-40.0	-40.9	23.5	0.00e+00	10	42	0	348127232	54	5679
2026-01-24 00:14:31.60	155.40	21.72	-40.2	-41.1	23.4	0.00e+00	92	41	0	350224384	54	5780
2026-01-24 00:14:32.61	155.40	21.87	-40.0	-40.9	23.5	0.00e+00	14	42	0	352321536	54	5688
2026-01-24 00:14:33.62	155.40	22.01	-40.1	-41.0	23.6	0.00e+00	92	42	0	354418688	54	5709
2026-01-24 00:14:34.62	155.40	22.15	-40.0	-41.0	23.5	0.00e+00	92	42	0	356515840	54	5696
2026-01-24 00:14:35.63	155.40	22.30	-39.9	-40.8	23.7	0.00e+00	0	42	0	357564416	54	5605
2026-01-24 00:14:36.64	155.40	22.44	-39.9	-40.8	23.7	0.00e+00	90	42	0	359661568	54	5621
2026-01-24 00:14:37.65	155.40	22.59	-40.0	-41.0	23.6	0.00e+00	0	41	0	361758720	54	5701
2026-01-24 00:14:38.66	155.40	22.74	-40.0	-40.9	23.6	0.00e+00	90	42	0	363855872	54	5683
2026-01-24 00:14:39.67	155.40	22.89	-40.1	-41.0	23.5	0.00e+00	28	42	0	365953024	54	5724
2026-01-24 00:14:40.68	155.39	23.03	-39.9	-40.7	23.8	0.00e+00	90	42	0	367001600	54	5566
2026-01-24 00:14:41.69	155.39	23.18	-39.9	-40.8	23.7	0.00e+00	92	42	0	369098752	54	5610
2026-01-24 00:14:42.70	155.39	23.34	-39.9	-40.8	23.7	0.00e+00	91	42	0	371195904	54	5605
2026-01-24 00:14:43.71	155.39	23.49	-39.9	-40.7	23.8	0.00e+00	92	42	0	373293056	54	5559
2026-01-24 00:14:44.71	155.39	23.64	-39.8	-40.6	23.9	0.00e+00	70	42	0	375390208	54	5501
2026-01-24 00:14:45.72	155.39	23.79	-39.8	-40.6	23.9	0.00e+00	90	41	0	376438784	54	5500
2026-01-24 00:14:46.73	155.39	23.95	-39.8	-40.6	24.0	0.00e+00	60	42	0	378535936	54	5499
2026-01-24 00:14:47.74	155.39	24.10	-39.8	-40.7	23.9	0.00e+00	90	42	0	380633088	52	6176
2026-01-24 00:14:48.75	155.38	24.26	-39.7	-40.6	24.0	0.00e+00	87	42	0	382730240	52	6115
2026-01-24 00:14:49.76	155.38	24.42	-39.8	-40.6	23.9	0.00e+00	92	42	0	384827392	52	6160
2026-01-24 00:14:50.77	155.38	24.57	-39.8	-40.6	23.9	0.00e+00	92	42	0	385875968	52	6158
2026-01-24 00:14:51.78	155.38	24.73	-39.9	-40.7	23.9	0.00e+00	91	42	0	387973120	52	6244
2026-01-24 00:14:52.79	155.38	24.89	-39.7	-40.5	24.1	0.00e+00	90	41	0	390070272	52	6091
2026-01-24 00:14:53.80	155.38	25.05	-39.8	-40.6	23.9	0.00e+00	48	42	0	392167424	52	6167
2026-01-24 00:14:54.81	155.37	25.22	-39.8	-40.7	23.9	0.00e+00	92	42	0	394264576	52	6182
2026-01-24 00:14:55.82	155.37	25.38	-39.9	-40.7	23.8	0.00e+00	91	42	0	395313152	52	6232
2026-01-24 00:14:56.82	155.37	25.54	-39.9	-40.7	23.8	0.00e+00	92	42	0	397410304	52	6242
2026-01-24 00:14:57.84	155.37	25.71	-40.0	-40.8	23.8	0.00e+00	92	42	0	399507456	52	6312
2026-01-24 00:14:58.85	155.37	25.87	-40.1	-41.0	23.6	0.00e+00	90	42	0	401604608	52	6451
2026-01-24 00:14:59.85	155.36	26.04	-40.1	-41.0	23.6	0.00e+00	91	42	0	403701760	52	6451
2026-01-24 00:15:00.86	155.36	26.21	-40.1	-41.0	23.6	0.00e+00	90	42	0	404750336	52	6455
2026-01-24 00:15:01.87	155.36	26.38	-40.3	-41.2	23.4	0.00e+00	92	42	0	406847488	52	6614
2026-01-24 00:15:02.88	155.36	26.55	-40.3	-41.2	23.5	0.00e+00	8	42	0	408944640	52	6559
2026-01-24 00:15:03.89	155.36	26.72	-40.4	-41.3	23.4	0.00e+00	92	42	0	411041792	52	6665
2026-01-24 00:15:04.90	155.35	26.89	-40.5	-41.4	23.3	0.00e+00	92	42	0	413138944	52	6726
2026-01-24 00:15:05.91	155.35	27.07	-40.6	-41.6	23.2	0.00e+00	90	42	0	414187520	52	6850
2026-01-24 00:15:06.92	155.35	27.24	-40.7	-41.6	23.0	0.00e+00	92	42	0	416284672	52	6898
2026-01-24 00:15:07.93	155.35	27.42	-40.7	-41.7	23.0	0.00e+00	28	42	0	418381824	54	6191
2026-01-24 00:15:08.94	155.34	27.59	-40.8	-41.8	22.9	0.00e+00	92	42	0	420478976	54	6287
2026-01-24 00:15:09.95	155.34	27.77	-41.1	-42.0	22.7	0.00e+00	60	42	0	422576128	54	6458
2026-01-24 00:15:10.96	155.34	27.95	-41.0	-42.0	22.8	0.00e+00	92	42	0	423624704	54	6398
2026-01-24 00:15:11.97	155.33	28.13	-41.1	-42.1	22.6	0.00e+00	92	42	0	425721856	54	6506
2026-01-24 00:15:12.98	155.33	28.31	-41.4	-42.4	22.4	0.00e+00	92	42	0	427819008	54	6738
2026-01-24 00:15:13.99	155.33	28.50	-41.5	-42.5	22.3	0.00e+00	90	42	0	429916160	54	6808
2026-01-24 00:15:14.99	155.32	28.68	-41.7	-42.8	21.9	0.00e+00	15	42	0	432013312	54	7056
2026-01-24 00:15:16.00	155.32	28.86	-42.0	-43.1	21.8	0.00e+00	90	42	0	434110464	56	6527
2026-01-24 00:15:17.01	155.32	29.05	-42.3	-43.4	21.6	0.00e+00	46	42	0	435159040	56	6729
2026-01-24 00:15:18.02	155.32	29.24	-42.6	-43.7	21.2	0.00e+00	92	42	0	437256192	56	6991
2026-01-24 00:15:19.03	155.31	29.43	-42.7	-43.9	21.0	0.00e+00	90	42	0	439353344	58	6389
2026-01-24 00:15:20.04	155.31	29.62	-43.0	-44.2	20.9	0.00e+00	92	42	0	441450496	58	6595
2026-01-24 00:15:21.05	155.30	29.81	-43.2	-44.5	20.5	0.00e+00	92	42	0	443547648	58	6810
2026-01-24 00:15:22.06	155.30	30.00	-43.3	-44.6	20.3	0.00e+00	92	42	0	444596224	58	6914
2026-01-24 00:15:23.07	155.30	30.19	-43.5	-44.9	20.2	0.00e+00	92	42	0	446693376	58	7090
2026-01-24 00:15:24.08	155.29	30.39	-43.6	-45.0	20.1	0.00e+00	0	42	0	448790528	58	7186
2026-01-24 00:15:25.09	155.29	30.59	-43.7	-45.1	20.0	0.00e+00	92	42	0	450887680	58	7269
2026-01-24 00:15:26.10	155.29	30.79	-43.7	-45.0	20.0	0.00e+00	0	42	0	452984832	58	7253
2026-01-24 00:15:27.10	155.28	30.98	-43.7	-45.1	19.9	0.00e+00	92	42	0	454033408	58	7278
2026-01-24 00:15:28.11	155.28	31.18	-43.6	-45.0	20.2	0.00e+00	92	42	0	456130560	60	6427
2026-01-24 00:15:29.12	155.27	31.39	-43.6	-45.0	20.2	0.00e+00	92	42	0	458227712	60	6407
2026-01-24 00:15:30.13	155.27	31.59	-43.6	-45.0	20.2	0.00e+00	92	42	0	460324864	60	6408
2026-01-24 00:15:31.14	155.26	31.79	-43.5	-44.9	20.4	0.00e+00	0	42	0	462422016	60	6325
2026-01-24 00:15:32.15	155.26	32.00	-43.4	-44.8	20.4	0.00e+00	91	42	0	463470592	60	6268
2026-01-24 00:15:33.16	155.25	32.21	-43.3	-44.6	20.5	0.00e+00	32	42	0	465567744	60	6171
2026-01-24 00:15:34.17	155.25	32.42	-43.3	-44.6	20.5	0.00e+00	91	42	0	467664896	60	6159
2026-01-24 00:15:35.18	155.25	32.63	-43.1	-44.4	20.8	0.00e+00	92	42	0	469762048	60	5971
2026-01-24 00:15:36.19	155.24	32.84	-42.9	-44.1	21.0	0.00e+00	92	42	0	471859200	60	5783
2026-01-24 00:15:37.19	155.23	33.05	-42.6	-43.8	21.2	0.00e+00	92	42	0	472907776	58	6260
2026-01-24 00:15:38.20	155.23	33.27	-42.4	-43.6	21.4	0.00e+00	71	42	0	475004928	58	6149
2026-01-24 00:15:39.22	155.22	33.49	-42.2	-43.3	21.6	0.00e+00	92	42	0	477102080	58	5956
2026-01-24 00:15:40.23	155.22	33.71	-42.1	-43.2	21.8	0.00e+00	9	42	0	479199232	58	5847
2026-01-24 00:15:41.23	155.21	33.92	-41.9	-42.9	22.0	0.00e+00	90	42	0	481296384	58	5691
2026-01-24 00:15:42.24	155.21	34.15	-41.7	-42.8	22.2	0.00e+00	10	42	0	482344960	56	6257
2026-01-24 00:15:43.25	155.20	34.37	-41.6	-42.6	22.3	0.00e+00	92	42	0	484442112	56	6166
2026-01-24 00:15:44.26	155.20	34.59	-41.4	-42.4	22.5	0.00e+00	92	42	0	486539264	56	5972
2026-01-24 00:15:45.27	155.19	34.82	-41.1	-42.1	22.9	0.00e+00	90	42	0	488636416	56	5765
2026-01-24 00:15:46.28	155.18	35.05	-40.7	-41.7	23.2	0.00e+00	92	42	0	490733568	56	5508
2026-01-24 00:15:47.29	155.18	35.28	-40.1	-41.0	23.7	0.00e+00	6	42	0	491782144	54	5753
2026-01-24 00:15:48.30	155.17	35.51	-39.9	-40.8	24.0	0.00e+00	92	42	0	493879296	54	5571
2026-01-24 00:15:49.31	155.16	35.74	-39.7	-40.6	24.1	0.00e+00	0	42	0	495976448	54	5478
2026-01-24 00:15:50.31	155.16	35.98	-39.4	-40.2	24.4	0.00e+00	92	42	0	498073600	52	5872
2026-01-24 00:15:51.33	155.15	36.21	-39.3	-40.1	24.5	0.00e+00	92	42	0	500170752	52	5802
2026-01-24 00:15:52.33	155.14	36.45	-39.0	-39.9	24.8	0.00e+00	90	42	0	502267904	52	5633
2026-01-24 00:15:53.34	155.14	36.69	-39.0	-39.8	24.7	0.00e+00	91	42	0	503316480	52	5591
2026-01-24 00:15:54.35	155.13	36.93	-38.9	-39.7	24.9	0.00e+00	0	42	0	505413632	52	5526
2026-01-24 00:15:55.36	155.12	37.18	-38.9	-39.7	24.8	0.00e+00	90	42	0	507510784	52	5558
2026-01-24 00:15:56.37	155.11	37.42	-38.9	-39.7	24.6	0.00e+00	0	42	0	509607936	52	5532
2026-01-24 00:15:57.38	155.10	37.67	-38.8	-39.6	24.9	0.00e+00	92	42	0	511705088	50	6113
2026-01-24 00:15:58.39	155.10	37.92	-38.8	-39.6	24.8	0.00e+00	16	42	0	512753664	50	6109
2026-01-24 00:15:59.40	155.09	38.17	-38.8	-39.6	24.9	0.00e+00	92	42	0	514850816	50	6154
2026-01-24 00:16:00.41	155.08	38.42	-38.9	-39.7	24.8	0.00e+00	90	42	0	516947968	50	6216
2026-01-24 00:16:01.42	155.07	38.68	-38.8	-39.6	25.0	0.00e+00	91	42	0	519045120	50	6132
2026-01-24 00:16:02.43	155.06	38.93	-38.9	-39.7	24.9	0.00e+00	92	42	0	521142272	50	6193
2026-01-24 00:16:03.44	155.05	39.19	-39.2	-40.0	24.7	0.00e+00	5	42	0	522190848	50	6458
2026-01-24 00:16:04.45	155.04	39.45	-39.0	-39.8	24.8	0.00e+00	92	42	0	524288000	50	6297
2026-01-24 00:16:05.46	155.03	39.71	-39.1	-39.9	24.7	0.00e+00	1	42	0	526385152	50	6345
2026-01-24 00:16:06.47	155.02	39.98	-39.2	-40.1	24.4	0.00e+00	92	42	0	528482304	50	6468
2026-01-24 00:16:07.48	155.01	40.24	-39.2	-40.1	24.6	0.00e+00	92	42	0	530579456	50	6465
2026-01-24 00:16:08.49	155.00	40.51	-39.3	-40.2	24.5	0.00e+00	92	42	0	531628032	50	6551
2026-01-24 00:16:09.50	154.99	40.78	-39.3	-40.1	24.5	0.00e+00	92	42	0	533725184	50	6496
2026-01-24 00:16:10.51	154.98	41.06	-39.4	-40.2	24.5	0.00e+00	30	42	0	535822336	50	6569
2026-01-24 00:16:11.52	154.97	41.33	-39.2	-40.1	24.5	0.00e+00	90	42	0	537919488	50	6470
2026-01-24 00:16:12.53	154.96	41.61	-39.6	-40.4	24.1	0.00e+00	0	42	0	540016640	50	6766
2026-01-24 00:16:13.53	154.95	41.88	-39.6	-40.4	24.3	0.00e+00	92	42	0	541065216	50	6745
2026-01-24 00:16:14.54	154.94	42.16	-39.8	-40.6	24.1	0.00e+00	92	42	0	543162368	52	6147
2026-01-24 00:16:15.55	154.93	42.45	-39.7	-40.6	24.1	0.00e+00	92	42	0	545259520	52	6106
2026-01-24 00:16:16.56	154.91	42.73	-39.7	-40.5	24.2	0.00e+00	92	42	0	547356672	52	6093
2026-01-24 00:16:17.57	154.90	43.02	-39.6	-40.5	24.2	0.00e+00	14	42	0	549453824	52	6064
2026-01-24 00:16:18.58	154.89	43.31	-39.5	-40.4	24.1	0.00e+00	90	42	0	550502400	52	5983
2026-01-24 00:16:19.59	154.88	43.60	-39.6	-40.4	24.4	0.00e+00	4	42	0	552599552	52	6009
2026-01-24 00:16:20.60	154.86	43.90	-39.3	-40.1	24.5	0.00e+00	92	42	0	554696704	52	5798
2026-01-24 00:16:21.61	154.85	44.19	-39.6	-40.4	24.2	0.00e+00	5	42	0	556793856	52	6002
2026-01-24 00:16:22.62	154.84	44.49	-40.0	-40.9	23.8	0.00e+00	92	42	0	558891008	52	6324
2026-01-24 00:16:23.63	154.82	44.79	-40.4	-41.3	23.4	0.00e+00	92	42	0	559939584	52	6641
2026-01-24 00:16:24.64	154.81	45.09	-41.0	-42.0	22.8	0.00e+00	92	42	0	562036736	54	6418
2026-01-24 00:16:25.65	154.79	45.40	-41.5	-42.5	22.4	0.00e+00	92	42	0	564133888	54	6818
2026-01-24 00:16:26.66	154.78	45.71	-42.3	-43.4	21.5	0.00e+00	0	42	0	566231040	56	6715
2026-01-24 00:16:27.67	154.76	46.02	-42.9	-44.1	21.0	0.00e+00	92	42	0	568328192	58	6497
2026-01-24 00:16:28.67	154.74	46.33	-43.1	-44.4	20.6	0.00e+00	3	42	0	570425344	58	6760
2026-01-24 00:16:29.68	154.73	46.64	-43.3	-44.7	20.4	0.00e+00	92	42	0	571473920	58	6946
2026-01-24 00:16:30.69	154.71	46.96	-43.5	-44.9	20.2	0.00e+00	92	42	0	573571072	58	7117
2026-01-24 00:16:31.70	154.69	47.28	-43.3	-44.6	20.5	0.00e+00	92	42	0	575668224	58	6888
2026-01-24 00:16:32.71	154.68	47.60	-43.1	-44.4	20.7	0.00e+00	92	42	0	577765376	58	6742
2026-01-24 00:16:33.72	154.66	47.92	-42.8	-44.0	21.0	0.00e+00	36	42	0	579862528	58	6433
2026-01-24 00:16:34.73	154.64	48.25	-42.6	-43.8	21.3	0.00e+00	92	42	0	580911104	58	6257
2026-01-24 00:16:35.74	154.62	48.58	-42.5	-43.7	21.3	0.00e+00	7	42	0	583008256	58	6176
2026-01-24 00:16:36.75	154.60	48.91	-42.7	-43.9	21.2	0.00e+00	90	42	0	585105408	58	6362
2026-01-24 00:16:37.75	154.58	49.24	-42.6	-43.8	21.3	0.00e+00	92	42	0	587202560	58	6248
2026-01-24 00:16:38.76	154.56	49.58	-42.7	-43.9	21.3	0.00e+00	92	42	0	588251136	58	6321
2026-01-24 00:16:39.77	154.54	49.92	-42.4	-43.5	21.5	0.00e+00	92	42	0	590348288	58	6078
2026-01-24 00:16:40.78	154.52	50.26	-42.2	-43.3	21.7	0.00e+00	44	42	0	592445440	58	5945
2026-01-24 00:16:41.79	154.49	50.61	-41.5	-42.5	22.5	0.00e+00	90	42	0	594542592	56	6099
2026-01-24 00:16:42.80	154.47	50.95	-40.2	-41.1	23.7	0.00e+00	6	42	0	596639744	54	5774
2026-01-24 00:16:43.81	154.45	51.30	-39.5	-40.4	24.3	0.00e+00	92	42	0	598736896	52	5994
2026-01-24 00:16:44.82	154.42	51.66	-39.4	-40.2	24.4	0.00e+00	92	42	0	599785472	52	5855
2026-01-24 00:16:45.83	154.40	52.01	-38.9	-39.7	24.8	0.00e+00	92	42	0	601882624	52	5543
2026-01-24 00:16:46.84	154.37	52.37	-38.9	-39.7	24.8	0.00e+00	92	42	0	603979776	52	5556
2026-01-24 00:16:47.85	154.35	52.73	-38.9	-39.7	24.9	0.00e+00	91	42	0	606076928	52	5545
2026-01-24 00:16:48.86	154.32	53.09	-38.8	-39.6	24.9	0.00e+00	92	42	0	608174080	52	5496
2026-01-24 00:16:49.87	154.29	53.46	-38.6	-39.4	25.1	0.00e+00	0	42	0	609222656	50	6020
2026-01-24 00:16:50.87	154.26	53.82	-38.6	-39.4	25.0	0.00e+00	90	42	0	611319808	50	5985
2026-01-24 00:16:51.89	154.23	54.19	-38.5	-39.3	25.1	0.00e+00	2	42	0	613416960	50	5956
2026-01-24 00:16:52.89	154.20	54.56	-38.5	-39.3	25.1	0.00e+00	92	42	0	615514112	50	5931
2026-01-24 00:16:53.90	154.17	54.94	-38.7	-39.5	24.9	0.00e+00	92	42	0	617611264	50	6094
2026-01-24 00:16:54.91	154.14	55.32	-39.3	-40.1	24.5	0.00e+00	92	42	0	618659840	50	6495
2026-01-24 00:16:55.92	154.11	55.70	-39.5	-40.4	24.2	0.00e+00	92	42	0	620756992	50	6698
2026-01-24 00:16:56.93	154.07	56.08	-40.3	-41.2	23.5	0.00e+00	44	42	0	622854144	52	6587
2026-01-24 00:16:57.94	154.04	56.47	-41.1	-42.1	22.8	0.00e+00	92	42	0	624951296	54	6489
2026-01-24 00:16:58.95	154.00	56.86	-41.8	-42.9	22.0	0.00e+00	0	42	0	627048448	54	7106
2026-01-24 00:16:59.96	153.96	57.25	-42.2	-43.3	21.6	0.00e+00	92	42	0	628097024	56	6649
2026-01-24 00:17:00.97	153.93	57.65	-42.6	-43.8	21.3	0.00e+00	92	42	0	630194176	56	7018
2026-01-24 00:17:01.98	153.89	58.04	-42.6	-43.8	21.3	0.00e+00	90	42	0	632291328	56	7019
2026-01-24 00:17:02.99	153.85	58.44	-42.7	-43.8	21.3	0.00e+00	92	42	0	634388480	56	7079
2026-01-24 00:17:04.00	153.80	58.85	-42.6	-43.8	21.3	0.00e+00	45	42	0	636485632	56	7051
2026-01-24 00:17:05.01	153.76	59.25	-42.4	-43.5	21.6	0.00e+00	92	42	0	637534208	56	6814
2026-01-24 00:17:06.02	153.71	59.66	-42.2	-43.3	21.9	0.00e+00	0	42	0	639631360	56	6687
2026-01-24 00:17:07.03	153.67	60.07	-40.8	-41.8	23.3	0.00e+00	92	42	0	641728512	56	5567
2026-01-24 00:17:08.04	153.62	60.48	-40.1	-41.0	23.9	0.00e+00	92	42	0	643825664	54	5741
2026-01-24 00:17:09.05	153.57	60.90	-39.8	-40.7	24.0	0.00e+00	92	42	0	645922816	52	6188
2026-01-24 00:17:10.06	153.51	61.32	-39.3	-40.2	24.4	0.00e+00	92	42	0	646971392	52	5838
2026-01-24 00:17:11.06	153.46	61.74	-39.3	-40.1	24.7	0.00e+00	15	42	0	649068544	52	5764
2026-01-24 00:17:12.07	153.40	62.16	-39.3	-40.1	24.5	0.00e+00	92	42	0	651165696	52	5770
2026-01-24 00:17:13.08	153.35	62.59	-39.0	-39.8	24.9	0.00e+00	33	42	0	653262848	52	5568
2026-01-24 00:17:14.09	153.29	63.02	-38.4	-39.2	25.2	0.00e+00	92	42	0	655360000	50	5852
2026-01-24 00:17:15.10	153.22	63.45	-38.5	-39.2	25.3	0.00e+00	0	42	0	656408576	50	5875
2026-01-24 00:17:16.11	153.16	63.88	-38.2	-38.9	25.5	0.00e+00	90	42	0	658505728	50	5681
2026-01-24 00:17:17.12	153.09	64.32	-38.4	-39.2	25.2	0.00e+00	92	42	0	660602880	50	5841
2026-01-24 00:17:18.13	153.02	64.76	-39.1	-39.9	24.5	0.00e+00	90	42	0	662700032	50	6369
2026-01-24 00:17:19.14	152.94	65.20	-40.3	-41.2	23.6	0.00e+00	92	42	0	664797184	52	6555
2026-01-24 00:17:20.15	152.87	65.65	-41.3	-42.3	22.5	0.00e+00	54	42	0	666894336	54	6617
2026-01-24 00:17:21.16	152.79	66.09	-41.7	-42.7	22.3	0.00e+00	91	42	0	667942912	54	6953
2026-01-24 00:17:22.17	152.70	66.54	-42.0	-43.0	22.0	0.00e+00	0	42	0	670040064	56	6449
2026-01-24 00:17:23.18	152.61	66.99	-42.0	-43.1	21.8	0.00e+00	92	42	0	672137216	56	6500
2026-01-24 00:17:24.19	152.52	67.45	-42.0	-43.1	22.0	0.00e+00	91	42	0	674234368	56	6479
2026-01-24 00:17:25.20	152.43	67.91	-42.3	-43.4	21.6	0.00e+00	92	42	0	676331520	56	6740
2026-01-24 00:17:26.21	152.33	68.36	-42.4	-43.6	21.5	0.00e+00	90	42	0	677380096	56	6872
2026-01-24 00:17:27.21	152.22	68.82	-42.5	-43.7	21.5	0.00e+00	55	42	0	679477248	56	6958
2026-01-24 00:17:28.22	152.11	69.28	-42.5	-43.6	21.4	0.00e+00	92	42	0	681574400	56	6886
2026-01-24 00:17:29.23	152.00	69.75	-42.6	-43.8	21.3	0.00e+00	0	42	0	683671552	58	6249
2026-01-24 00:17:30.24	151.87	70.22	-42.3	-43.5	21.5	0.00e+00	90	42	0	685768704	58	6052
2026-01-24 00:17:31.25	151.74	70.69	-42.1	-43.2	21.9	0.00e+00	40	42	0	686817280	58	5869
2026-01-24 00:17:32.26	151.61	71.16	-42.4	-43.5	21.6	0.00e+00	92	42	0	688914432	58	6071
2026-01-24 00:17:33.27	151.46	71.64	-42.5	-43.6	21.5	0.00e+00	92	42	0	691011584	58	6156
2026-01-24 00:17:34.28	151.31	72.11	-42.8	-44.1	21.0	0.00e+00	0	42	0	693108736	58	6476
2026-01-24 00:17:35.29	151.15	72.59	-43.1	-44.4	20.7	0.00e+00	92	42	0	695205888	58	6724
2026-01-24 00:17:36.30	150.98	73.07	-43.7	-45.0	19.9	0.00e+00	38	42	0	696254464	58	7245
2026-01-24 00:17:37.31	150.80	73.55	-44.0	-45.5	19.5	0.00e+00	90	42	0	698351616	60	6803
2026-01-24 00:17:38.32	150.61	74.04	-44.5	-46.1	19.3	0.00e+00	0	42	0	700448768	60	7296
2026-01-24 00:17:39.33	150.40	74.52	-44.5	-46.1	19.0	0.00e+00	90	42	0	702545920	60	7315
2026-01-24 00:17:40.34	150.18	75.01	-44.2	-45.6	19.6	0.00e+00	92	42	0	704643072	60	6919
2026-01-24 00:17:41.35	149.94	75.50	-43.8	-45.2	20.1	0.00e+00	92	42	0	705691648	60	6543
2026-01-24 00:17:42.36	149.69	75.99	-43.6	-45.0	20.3	0.00e+00	90	42	0	707788800	60	6442
2026-01-24 00:17:43.37	149.42	76.48	-43.5	-44.9	20.4	0.00e+00	5	42	0	709885952	60	6343
2026-01-24 00:17:44.38	149.12	76.97	-43.8	-45.2	20.0	0.00e+00	92	42	0	711983104	60	6573
2026-01-24 00:17:45.39	148.80	77.47	-44.9	-46.6	18.8	0.00e+00	0	42	0	714080256	60	7721
2026-01-24 00:17:46.40	148.46	77.96	-44.6	-46.2	19.0	0.00e+00	92	42	0	715128832	60	7412
2026-01-24 00:17:47.40	148.09	78.45	-44.1	-45.5	19.7	0.00e+00	92	42	0	717225984	60	6825
2026-01-24 00:17:48.41	147.67	78.95	-43.5	-44.8	20.4	0.00e+00	92	42	0	719323136	60	6276
2026-01-24 00:17:49.42	147.22	79.45	-42.1	-43.2	22.1	0.00e+00	92	42	0	721420288	58	5858
2026-01-24 00:17:50.43	146.73	79.95	-40.8	-41.8	23.2	0.00e+00	0	42	0	723517440	56	5573
2026-01-24 00:17:51.44	146.18	80.45	-41.0	-41.9	23.1	0.00e+00	92	42	0	724566016	56	5683
2026-01-24 00:17:52.45	145.56	80.95	-41.1	-42.0	23.0	0.00e+00	10	42	0	726663168	56	5761
2026-01-24 00:17:53.46	144.88	81.44	-42.2	-43.3	21.7	0.00e+00	92	42	0	728760320	56	6632
2026-01-24 00:17:54.47	144.11	81.94	-43.5	-44.8	20.4	0.00e+00	66	42	0	730857472	58	7017
2026-01-24 00:17:55.48	143.23	82.44	-43.3	-44.6	20.6	0.00e+00	77	42	0	732954624	60	6131
2026-01-24 00:17:56.49	142.23	82.94	-41.9	-43.0	22.1	0.00e+00	92	42	0	735051776	58	5696
2026-01-24 00:17:57.50	141.08	83.43	-40.8	-41.7	23.2	0.00e+00	32	42	0	736100352	56	5517
2026-01-24 00:17:58.51	139.73	83.93	-40.0	-40.9	24.0	0.00e+00	92	42	0	738197504	54	5638
2026-01-24 00:17:59.52	138.15	84.42	-38.2	-39.0	25.4	0.00e+00	0	42	0	740294656	50	5720
2026-01-24 00:18:00.53	136.26	84.90	-37.7	-38.5	25.9	0.00e+00	92	42	0	742391808	48	6042
2026-01-24 00:18:01.54	133.97	85.38	-38.0	-38.7	25.5	0.00e+00	0	42	0	744488960	48	6234
2026-01-24 00:18:02.55	131.16	85.85	-38.5	-39.3	25.3	0.00e+00	92	42	0	745537536	48	6636
2026-01-24 00:18:03.55	127.67	86.31	-38.9	-39.7	24.9	0.00e+00	92	42	0	747634688	50	6200
2026-01-24 00:18:04.56	123.17	86.75	-39.2	-40.0	24.7	0.00e+00	32	42	0	749731840	50	6458
2026-01-24 00:18:05.57	117.30	87.17	-39.8	-40.6	24.2	0.00e+00	92	42	0	751828992	50	6887
2026-01-24 00:18:06.58	109.52	87.54	-40.4	-41.3	24.0	0.00e+00	50	42	0	753926144	52	6631
2026-01-24 00:18:07.59	99.20	87.86	-39.6	-40.4	24.6	0.00e+00	90	42	0	754974720	52	6010
2026-01-24 00:18:08.60	85.92	88.08	-39.0	-39.8	25.1	0.00e+00	5	42	0	757071872	52	5606
2026-01-24 00:18:09.61	70.20	88.18	-38.5	-39.3	25.5	0.00e+00	92	42	0	759169024	50	5910
2026-01-24 00:18:10.62	54.02	88.14	-38.4	-39.1	25.3	0.00e+00	92	42	0	761266176	50	5816
2026-01-24 00:18:11.63	39.68	87.96	-38.9	-39.7	24.9	0.00e+00	0	42	0	763363328	50	6191
2026-01-24 00:18:12.64	28.26	87.67	-39.9	-40.7	24.1	0.00e+00	92	42	0	764411904	52	6232
2026-01-24 00:18:13.65	19.60	87.31	-41.4	-42.4	22.7	0.00e+00	6	42	0	766509056	54	6713
2026-01-24 00:18:14.66	13.08	86.91	-41.9	-42.9	22.4	0.00e+00	92	42	0	768606208	56	6389
2026-01-24 00:18:15.66	8.15	86.48	-40.9	-41.9	22.8	0.00e+00	6	42	0	770703360	56	5668
2026-01-24 00:18:16.67	4.29	86.03	-39.6	-40.4	24.2	0.00e+00	92	42	0	772800512	54	5365
2026-01-24 00:18:17.68	1.23	85.56	-39.6	-40.5	24.2	0.00e+00	14	42	0	773849088	52	6071
2026-01-24 00:18:18.69	358.77	85.09	-39.3	-40.1	24.4	0.00e+00	38	42	0	775946240	52	5788
2026-01-24 00:18:19.70	356.74	84.60	-38.4	-39.2	25.3	0.00e+00	90	42	0	778043392	50	5839
2026-01-24 00:18:20.71	355.05	84.12	-39.1	-39.9	24.7	0.00e+00	0	42	0	780140544	50	6359
2026-01-24 00:18:21.71	353.64	83.63	-40.1	-41.0	23.8	0.00e+00	92	42	0	782237696	52	6432
2026-01-24 00:18:22.72	352.41	83.13	-40.9	-41.8	23.1	0.00e+00	54	42	0	783286272	52	7058
2026-01-24 00:18:23.73	351.36	82.64	-42.5	-43.7	21.3	0.00e+00	90	42	0	785383424	56	6969
2026-01-24 00:18:24.74	350.44	82.14	-42.9	-44.1	21.0	0.00e+00	33	42	0	787480576	58	6533
2026-01-24 00:18:25.75	349.63	81.64	-42.1	-43.2	22.0	0.00e+00	92	42	0	789577728	58	5837
2026-01-24 00:18:26.76	348.91	81.14	-41.6	-42.6	22.7	0.00e+00	92	42	0	791674880	56	6168
2026-01-24 00:18:27.77	348.27	80.64	-40.4	-41.4	23.5	0.00e+00	7	42	0	792723456	54	5965
2026-01-24 00:18:28.78	347.70	80.15	-39.8	-40.7	23.8	0.00e+00	92	42	0	794820608	54	5539
2026-01-24 00:18:29.79	347.18	79.65	-39.8	-40.6	23.8	0.00e+00	7	42	0	796917760	54	5476
2026-01-24 00:18:30.80	346.71	79.15	-40.3	-41.2	23.5	0.00e+00	92	42	0	799014912	52	6548
2026-01-24 00:18:31.81	346.29	78.65	-39.9	-40.7	24.1	0.00e+00	0	42	0	801112064	52	6212
2026-01-24 00:18:32.82	345.90	78.16	-40.8	-41.7	23.3	0.00e+00	90	42	0	803209216	54	6197
2026-01-24 00:18:33.83	345.54	77.66	-41.9	-43.0	22.1	0.00e+00	92	42	0	804257792	56	6415
2026-01-24 00:18:34.83	345.22	77.17	-41.8	-42.8	22.4	0.00e+00	0	42	0	806354944	56	6278
2026-01-24 00:18:35.84	344.91	76.68	-41.9	-43.0	22.0	0.00e+00	92	42	0	808452096	56	6427
2026-01-24 00:18:36.85	344.63	76.19	-42.9	-44.1	21.0	0.00e+00	0	42	0	810549248	58	6514
2026-01-24 00:18:37.86	344.37	75.70	-42.8	-44.1	21.1	0.00e+00	92	42	0	811597824	58	6470
2026-01-24 00:18:38.87	344.13	75.21	-43.4	-44.7	20.4	0.00e+00	38	42	0	813694976	58	6982
2026-01-24 00:18:39.88	343.90	74.72	-43.3	-44.6	20.5	0.00e+00	92	42	0	815792128	60	6154
2026-01-24 00:18:40.89	343.69	74.24	-41.8	-42.9	22.2	0.00e+00	39	42	0	817889280	58	5648
2026-01-24 00:18:41.90	343.49	73.75	-41.9	-43.0	22.2	0.00e+00	76	42	0	819986432	56	6402
2026-01-24 00:18:42.91	343.31	73.27	-41.9	-43.0	22.2	0.00e+00	92	42	0	821035008	56	6422
2026-01-24 00:18:43.92	343.13	72.79	-41.6	-42.6	22.5	0.00e+00	43	42	0	823132160	56	6105
2026-01-24 00:18:44.93	342.97	72.31	-41.2	-42.2	22.7	0.00e+00	90	42	0	825229312	56	5859
2026-01-24 00:18:45.94	342.81	71.84	-41.0	-41.9	22.9	0.00e+00	38	42	0	827326464	56	5687
2026-01-24 00:18:46.95	342.67	71.36	-40.9	-41.8	23.0	0.00e+00	92	42	0	829423616	56	5605
2026-01-24 00:18:47.96	342.53	70.89	-41.8	-42.9	21.8	0.00e+00	0	42	0	831520768	56	6359
2026-01-24 00:18:48.97	342.40	70.42	-43.0	-44.3	20.8	0.00e+00	92	42	0	832569344	58	6644
2026-01-24 00:18:49.98	342.27	69.95	-43.3	-44.6	20.3	0.00e+00	92	42	0	834666496	58	6916
2026-01-24 00:18:50.99	342.15	69.49	-43.4	-44.7	20.2	0.00e+00	2	42	0	836763648	58	7000
2026-01-24 00:18:52.00	342.04	69.02	-44.6	-46.3	18.9	0.00e+00	92	42	0	838860800	60	7440
2026-01-24 00:18:53.01	341.93	68.56	-45.5	-47.4	17.9	0.00e+00	55	42	0	840957952	60	8460
2026-01-24 00:18:54.02	341.83	68.10	-45.6	-47.6	17.7	0.00e+00	90	42	0	842006528	60	8684
2026-01-24 00:18:55.03	341.73	67.65	-44.8	-46.5	18.7	0.00e+00	7	42	0	844103680	60	7632
2026-01-24 00:18:56.04	341.64	67.19	-43.6	-44.9	20.3	0.00e+00	92	42	0	846200832	60	6376
2026-01-24 00:18:57.05	341.55	66.74	-43.2	-44.5	20.6	0.00e+00	92	42	0	848297984	60	6064
2026-01-24 00:18:58.06	341.47	66.29	-43.1	-44.3	21.0	0.00e+00	92	42	0	850395136	60	5963
2026-01-24 00:18:59.07	341.38	65.84	-42.9	-44.2	21.0	0.00e+00	92	42	0	851443712	60	5854
2026-01-24 00:19:00.08	341.31	65.40	-41.5	-42.5	22.5	0.00e+00	31	42	0	853540864	58	5429
2026-01-24 00:19:01.09	341.23	64.96	-40.1	-41.0	23.8	0.00e+00	92	42	0	855638016	54	5721
2026-01-24 00:19:02.09	341.16	64.52	-39.7	-40.6	24.1	0.00e+00	33	42	0	857735168	54	5461
2026-01-24 00:19:03.10	341.09	64.08	-38.9	-39.7	24.9	0.00e+00	90	42	0	859832320	52	5520
2026-01-24 00:19:04.11	341.02	63.65	-38.5	-39.3	25.2	0.00e+00	0	42	0	860880896	50	5918
2026-01-24 00:19:05.12	340.96	63.22	-38.3	-39.1	25.3	0.00e+00	92	42	0	862978048	50	5780
2026-01-24 00:19:06.13	340.90	62.79	-38.0	-38.8	25.6	0.00e+00	91	42	0	865075200	50	5568
2026-01-24 00:19:07.14	340.84	62.36	-37.8	-38.5	25.7	0.00e+00	0	42	0	867172352	48	6091
2026-01-24 00:19:08.15	340.78	61.94	-37.6	-38.3	26.0	0.00e+00	91	42	0	869269504	48	5933
2026-01-24 00:19:09.16	340.73	61.52	-38.2	-38.9	25.1	0.00e+00	49	42	0	870318080	48	6374
2026-01-24 00:19:10.17	340.68	61.10	-39.8	-40.6	23.9	0.00e+00	92	42	0	872415232	50	6915
2026-01-24 00:19:11.18	340.62	60.68	-40.9	-41.9	23.0	0.00e+00	52	42	0	874512384	54	6362
2026-01-24 00:19:12.19	340.57	60.27	-41.2	-42.2	22.5	0.00e+00	91	42	0	876609536	54	6581
2026-01-24 00:19:13.19	340.53	59.86	-41.3	-42.3	22.6	0.00e+00	92	42	0	878706688	54	6683
2026-01-24 00:19:14.20	340.48	59.45	-41.3	-42.4	22.5	0.00e+00	0	42	0	879755264	54	6695
2026-01-24 00:19:15.21	340.44	59.05	-41.7	-42.8	22.2	0.00e+00	90	42	0	881852416	56	6265
2026-01-24 00:19:16.22	340.39	58.65	-42.4	-43.5	21.5	0.00e+00	0	42	0	883949568	56	6844
2026-01-24 00:19:17.23	340.35	58.25	-43.1	-44.4	20.6	0.00e+00	92	42	0	886046720	58	6701
2026-01-24 00:19:18.24	340.31	57.85	-44.2	-45.8	19.3	0.00e+00	0	42	0	888143872	60	7040
2026-01-24 00:19:19.25	340.27	57.45	-43.6	-45.0	20.3	0.00e+00	92	42	0	889192448	60	6462
2026-01-24 00:19:20.26	340.24	57.06	-41.8	-42.9	22.0	0.00e+00	90	42	0	891289600	58	5684
2026-01-24 00:19:21.27	340.20	56.67	-41.1	-42.0	22.8	0.00e+00	45	42	0	893386752	56	5732
2026-01-24 00:19:22.27	340.16	56.29	-40.4	-41.2	23.5	0.00e+00	92	42	0	895483904	54	5890
2026-01-24 00:19:23.28	340.13	55.91	-40.3	-41.1	23.5	0.00e+00	0	42	0	897581056	54	5828
2026-01-24 00:19:24.29	340.10	55.52	-40.2	-41.1	23.6	0.00e+00	92	42	0	899678208	54	5814
2026-01-24 00:19:25.30	340.06	55.15	-40.0	-40.9	23.8	0.00e+00	0	42	0	900726784	54	5635
2026-01-24 00:19:26.30	340.03	54.77	-40.1	-41.0	23.6	0.00e+00	92	42	0	902823936	54	5753
2026-01-24 00:19:27.31	340.00	54.40	-40.5	-41.5	23.2	0.00e+00	0	41	0	904921088	54	6067
2026-01-24 00:19:28.32	339.97	54.03	-40.5	-41.5	23.4	0.00e+00	92	42	0	907018240	54	6037
2026-01-24 00:19:29.33	339.94	53.66	-40.0	-40.9	23.8	0.00e+00	92	42	0	909115392	54	5688
2026-01-24 00:19:30.34	339.92	53.30	-38.9	-39.7	24.8	0.00e+00	0	41	0	910163968	52	5546
2026-01-24 00:19:31.35	339.89	52.93	-38.9	-39.7	24.8	0.00e+00	92	41	0	912261120	50	6232
2026-01-24 00:19:32.36	339.86	52.57	-39.9	-40.8	23.9	0.00e+00	30	41	0	914358272	52	6312
2026-01-24 00:19:33.37	339.84	52.22	-40.8	-41.8	23.0	0.00e+00	92	42	0	916455424	54	6272
2026-01-24 00:19:34.38	339.81	51.86	-41.5	-42.6	22.3	0.00e+00	48	41	0	918552576	54	6861
2026-01-24 00:19:35.39	339.79	51.51	-41.3	-42.3	22.5	0.00e+00	92	42	0	919601152	54	6637
2026-01-24 00:19:36.40	339.76	51.16	-41.5	-42.5	22.4	0.00e+00	90	41	0	921698304	54	6824
2026-01-24 00:19:37.41	339.74	50.81	-41.7	-42.7	22.2	0.00e+00	47	42	0	923795456	54	6998
2026-01-24 00:19:38.42	339.72	50.47	-41.9	-42.9	22.1	0.00e+00	90	41	0	925892608	56	6363
2026-01-24 00:19:39.43	339.70	50.13	-41.5	-42.5	22.4	0.00e+00	0	41	0	927989760	56	6096
2026-01-24 00:19:40.43	339.68	49.79	-41.6	-42.6	22.4	0.00e+00	92	41	0	929038336	56	6140
2026-01-24 00:19:41.45	339.65	49.45	-42.3	-43.4	21.5	0.00e+00	5	41	0	931135488	56	6712
2026-01-24 00:19:42.46	339.63	49.12	-44.1	-45.7	19.3	0.00e+00	92	41	0	933232640	60	6988
2026-01-24 00:19:43.47	339.61	48.78	-45.9	-48.2	16.9	0.00e+00	74	41	0	935329792	60	9241
2026-01-24 00:19:44.47	339.60	48.46	-46.1	-48.5	16.8	0.00e+00	35	41	0	937426944	60	9658
2026-01-24 00:19:45.48	339.58	48.13	-44.1	-45.7	19.5	0.00e+00	92	41	0	938475520	60	6971
2026-01-24 00:19:46.49	339.56	47.81	-43.1	-44.5	20.7	0.00e+00	0	41	0	940572672	60	6042
2026-01-24 00:19:47.50	339.54	47.48	-41.8	-42.9	22.2	0.00e+00	92	42	0	942669824	58	5646
2026-01-24 00:19:48.51	339.52	47.17	-41.8	-42.9	22.2	0.00e+00	36	42	0	944766976	56	6337
2026-01-24 00:19:49.52	339.51	46.85	-41.7	-42.7	22.5	0.00e+00	92	41	0	946864128	56	6198
2026-01-24 00:19:50.53	339.49	46.53	-41.8	-42.8	22.2	0.00e+00	0	41	0	947912704	56	6284
2026-01-24 00:19:51.54	339.47	46.22	-42.3	-43.4	21.7	0.00e+00	92	41	0	950009856	56	6721
2026-01-24 00:19:52.54	339.46	45.91	-42.9	-44.1	20.8	0.00e+00	92	41	0	952107008	58	6497
2026-01-24 00:19:53.55	339.44	45.61	-43.1	-44.3	20.8	0.00e+00	0	41	0	954204160	58	6686
2026-01-24 00:19:54.56	339.43	45.30	-42.7	-43.9	21.1	0.00e+00	92	42	0	956301312	58	6386
2026-01-24 00:19:55.57	339.41	45.00	-42.3	-43.5	21.6	0.00e+00	50	41	0	957349888	58	6077
2026-01-24 00:19:56.58	339.40	44.70	-41.8	-42.9	22.1	0.00e+00	92	41	0	959447040	58	5661
2026-01-24 00:19:57.59	339.39	44.40	-40.7	-41.6	23.4	0.00e+00	50	41	0	961544192	56	5473
2026-01-24 00:19:58.59	339.37	44.11	-40.3	-41.2	23.8	0.00e+00	92	41	0	963641344	54	5840
2026-01-24 00:19:59.60	339.36	43.81	-39.4	-40.2	24.5	0.00e+00	92	41	0	965738496	52	5859
2026-01-24 00:20:00.61	339.35	43.52	-39.4	-40.2	24.5	0.00e+00	52	41	0	966787072	52	5834
2026-01-24 00:20:01.62	339.33	43.23	-39.0	-39.8	24.7	0.00e+00	91	41	0	968884224	52	5606
2026-01-24 00:20:02.63	339.32	42.94	-39.7	-40.5	24.2	0.00e+00	7	41	0	970981376	52	6071
2026-01-24 00:20:03.64	339.31	42.66	-40.9	-41.9	22.9	0.00e+00	92	41	0	973078528	52	7110
2026-01-24 00:20:04.65	339.30	42.37	-42.1	-43.3	21.7	0.00e+00	0	41	0	975175680	56	6623
2026-01-24 00:20:05.66	339.29	42.09	-42.9	-44.2	20.8	0.00e+00	91	41	0	976224256	58	6597
2026-01-24 00:20:06.67	339.28	41.81	-43.1	-44.5	20.6	0.00e+00	0	41	0	978321408	58	6805
2026-01-24 00:20:07.68	339.27	41.54	-42.5	-43.7	21.3	0.00e+00	35	41	0	980418560	58	6229
2026-01-24 00:20:08.69	339.25	41.26	-42.0	-43.2	21.9	0.00e+00	92	41	0	982515712	58	5844
2026-01-24 00:20:09.69	339.24	40.99	-41.6	-42.7	22.4	0.00e+00	0	41	0	984612864	56	6194
2026-01-24 00:20:10.70	339.23	40.72	-41.2	-42.2	22.7	0.00e+00	92	41	0	985661440	56	5887
2026-01-24 00:20:11.71	339.22	40.45	-41.0	-42.0	22.8	0.00e+00	0	41	0	987758592	56	5736
2026-01-24 00:20:12.72	339.21	40.19	-41.0	-42.0	22.9	0.00e+00	92	41	0	989855744	56	5727
2026-01-24 00:20:13.73	339.20	39.92	-41.3	-42.3	22.6	0.00e+00	17	41	0	991952896	56	5944
2026-01-24 00:20:14.74	339.20	39.66	-41.9	-43.1	22.0	0.00e+00	45	41	0	994050048	56	6473
2026-01-24 00:20:15.75	339.19	39.40	-42.7	-43.9	21.1	0.00e+00	92	41	0	996147200	56	7165
2026-01-24 00:20:16.76	339.18	39.14	-43.8	-45.3	19.7	0.00e+00	46	41	0	997195776	58	7496
2026-01-24 00:20:17.77	339.17	38.89	-44.8	-46.6	18.6	0.00e+00	90	41	0	999292928	60	7708
2026-01-24 00:20:18.78	339.16	38.63	-45.5	-47.5	17.9	0.00e+00	0	41	0	1001390080	60	8554
2026-01-24 00:20:19.79	339.15	38.38	-45.4	-47.4	17.9	0.00e+00	92	41	0	1003487232	60	8464
2026-01-24 00:20:20.79	339.14	38.13	-45.3	-47.2	18.1	0.00e+00	44	41	0	1005584384	60	8268
2026-01-24 00:20:21.81	339.14	37.88	-44.9	-46.7	18.5	0.00e+00	92	41	0	1006632960	60	7820
2026-01-24 00:20:22.81	339.13	37.63	-44.5	-46.1	19.2	0.00e+00	91	41	0	1008730112	60	7264
2026-01-24 00:20:23.82	339.12	37.39	-43.3	-44.7	20.5	0.00e+00	0	41	0	1010827264	60	6194
2026-01-24 00:20:24.83	339.11	37.14	-42.9	-44.1	21.0	0.00e+00	91	41	0	1012924416	60	5788
2026-01-24 00:20:25.84	339.11	36.90	-42.5	-43.6	21.4	0.00e+00	0	41	0	1015021568	58	6134
2026-01-24 00:20:26.85	339.10	36.66	-42.2	-43.3	21.6	0.00e+00	92	41	0	1016070144	58	5938
2026-01-24 00:20:27.86	339.09	36.42	-42.3	-43.4	21.6	0.00e+00	0	41	0	1018167296	58	5998
2026-01-24 00:20:28.87	339.09	36.19	-42.4	-43.5	21.5	0.00e+00	92	41	0	1020264448	58	6072
2026-01-24 00:20:29.88	339.08	35.95	-42.7	-43.8	21.1	0.00e+00	0	41	0	1022361600	58	6313
2026-01-24 00:20:30.89	339.07	35.72	-42.9	-44.1	20.9	0.00e+00	34	41	0	1024458752	58	6495
2026-01-24 00:20:31.90	339.07	35.49	-43.4	-44.7	20.3	0.00e+00	92	41	0	1025507328	58	6970
2026-01-24 00:20:32.91	339.06	35.26	-44.0	-45.5	19.6	0.00e+00	0	41	0	1027604480	60	6807
2026-01-24 00:20:33.91	339.05	35.03	-44.8	-46.5	18.6	0.00e+00	92	41	0	1029701632	60	7665
2026-01-24 00:20:34.92	339.05	34.81	-45.4	-47.4	17.8	0.00e+00	0	41	0	1031798784	60	8433
2026-01-24 00:20:35.93	339.04	34.58	-46.2	-48.5	16.6	0.00e+00	92	41	0	1033895936	60	9665
2026-01-24 00:20:36.94	339.04	34.36	-46.8	-49.5	15.6	0.00e+00	23	41	0	1034944512	60	10795
2026-01-24 00:20:37.95	339.03	34.14	-46.8	-49.5	15.8	0.00e+00	35	41	0	1037041664	60	10780
2026-01-24 00:20:38.96	339.03	33.92	-46.7	-49.3	16.0	0.00e+00	92	41	0	1039138816	60	10569
2026-01-24 00:20:39.97	339.02	33.70	-46.1	-48.4	16.8	0.00e+00	48	41	0	1041235968	60	9461
2026-01-24 00:20:40.98	339.02	33.48	-45.7	-47.7	17.4	0.00e+00	92	41	0	1043333120	60	8763
2026-01-24 00:20:41.99	339.01	33.27	-45.1	-46.9	18.2	0.00e+00	0	41	0	1044381696	60	8030
2026-01-24 00:20:42.99	339.01	33.05	-44.9	-46.6	18.6	0.00e+00	90	41	0	1046478848	60	7758
2026-01-24 00:20:44.00	339.00	32.84	-44.1	-45.5	19.6	0.00e+00	0	41	0	1048576000	60	6831
2026-01-24 00:20:45.01	339.00	32.63	-43.8	-45.2	19.9	0.00e+00	93	41	0	1050673152	60	6602
2026-01-24 00:20:46.02	338.99	32.42	-43.4	-44.7	20.4	0.00e+00	87	41	0	1052770304	60	6244
2026-01-24 00:20:47.03	338.99	32.21	-43.3	-44.6	20.5	0.00e+00	0	41	0	1053818880	60	6133
2026-01-24 00:20:48.04	338.98	32.01	-43.2	-44.5	20.6	0.00e+00	92	41	0	1055916032	60	6063
2026-01-24 00:20:49.05	338.98	31.80	-43.3	-44.6	20.5	0.00e+00	0	41	0	1058013184	60	6122
2026-01-24 00:20:50.06	338.98	31.60	-43.5	-44.8	20.4	0.00e+00	92	41	0	1060110336	60	6308
2026-01-24 00:20:51.07	338.97	31.40	-43.2	-44.5	20.5	0.00e+00	0	41	0	1062207488	60	6074
2026-01-24 00:20:52.08	338.97	31.19	-43.4	-44.8	20.3	0.00e+00	92	41	0	1064304640	60	6246
2026-01-24 00:20:53.09	338.96	31.00	-43.9	-45.4	19.7	0.00e+00	35	41	0	1065353216	60	6697
2026-01-24 00:20:54.10	338.96	30.80	-44.1	-45.6	19.4	0.00e+00	34	41	0	1067450368	60	6912
2026-01-24 00:20:55.11	338.96	30.60	-44.6	-46.2	19.0	0.00e+00	92	41	0	1069547520	60	7363
2026-01-24 00:20:56.11	338.95	30.41	-44.7	-46.4	18.7	0.00e+00	0	41	0	1071644672	60	7582
2026-01-24 00:20:57.12	338.95	30.21	-44.9	-46.6	18.5	0.00e+00	92	41	0	1073741824	60	7748
2026-01-24 00:20:58.13	338.95	30.02	-44.8	-46.5	18.6	0.00e+00	0	41	0	1074790400	60	7627
2026-01-24 00:20:59.14	338.94	29.83	-44.9	-46.7	18.4	0.00e+00	90	41	0	1076887552	60	7824
2026-01-24 00:21:00.15	338.94	29.64	-44.9	-46.7	18.5	0.00e+00	12	41	0	1078984704	60	7809
2026-01-24 00:21:01.16	338.94	29.45	-44.5	-46.1	19.0	0.00e+00	87	41	0	1081081856	60	7336
2026-01-24 00:21:02.17	338.93	29.26	-44.1	-45.7	19.4	0.00e+00	92	41	0	1083179008	60	6933
2026-01-24 00:21:03.18	338.93	29.07	-44.1	-45.6	19.5	0.00e+00	2	41	0	1084227584	60	6891
2026-01-24 00:21:04.19	338.93	28.89	-43.6	-45.0	19.9	0.00e+00	92	41	0	1086324736	60	6425
2026-01-24 00:21:05.20	338.93	28.71	-43.5	-44.9	20.2	0.00e+00	47	41	0	1088421888	60	6343
2026-01-24 00:21:06.21	338.92	28.52	-43.1	-44.4	20.6	0.00e+00	92	41	0	1090519040	60	6016
2026-01-24 00:21:07.22	338.92	28.34	-42.8	-44.0	21.0	0.00e+00	0	41	0	1092616192	60	5716
2026-01-24 00:21:08.23	338.92	28.16	-42.4	-43.6	21.4	0.00e+00	0	41	0	1093664768	58	6126
2026-01-24 00:21:09.24	338.92	27.98	-42.1	-43.2	21.7	0.00e+00	92	41	0	1095761920	58	5847
2026-01-24 00:21:10.25	338.91	27.80	-41.7	-42.8	22.1	0.00e+00	0	41	0	1097859072	56	6265
2026-01-24 00:21:11.25	338.91	27.63	-41.6	-42.6	22.2	0.00e+00	92	41	0	1099956224	56	6162
2026-01-24 00:21:12.26	338.91	27.45	-41.1	-42.0	22.8	0.00e+00	0	41	0	1102053376	56	5750
2026-01-24 00:21:13.27	338.91	27.28	-41.0	-42.0	22.7	0.00e+00	92	41	0	1103101952	56	5742
2026-01-24 00:21:14.28	338.90	27.10	-41.0	-42.0	22.8	0.00e+00	0	41	0	1105199104	56	5718
2026-01-24 00:21:15.29	338.90	26.93	-40.9	-41.8	23.0	0.00e+00	38	41	0	1107296256	56	5602
2026-01-24 00:21:16.30	338.90	26.76	-40.7	-41.7	23.0	0.00e+00	0	41	0	1109393408	54	6192
2026-01-24 00:21:17.31	338.90	26.59	-40.6	-41.5	23.1	0.00e+00	34	41	0	1111490560	54	6078
2026-01-24 00:21:18.32	338.90	26.42	-40.5	-41.4	23.2	0.00e+00	92	41	0	1112539136	54	6028
2026-01-24 00:21:19.33	338.90	26.25	-40.5	-41.4	23.2	0.00e+00	50	41	0	1114636288	54	6019
2026-01-24 00:21:20.34	338.89	26.09	-40.5	-41.5	23.1	0.00e+00	92	41	0	1116733440	54	6057
2026-01-24 00:21:21.35	338.89	25.92	-40.7	-41.7	22.9	0.00e+00	49	41	0	1118830592	54	6188
2026-01-24 00:21:22.36	338.89	25.75	-40.6	-41.5	23.1	0.00e+00	92	41	0	1120927744	54	6088
2026-01-24 00:21:23.37	338.89	25.59	-40.7	-41.7	23.0	0.00e+00	0	41	0	1121976320	54	6180
2026-01-24 00:21:24.38	338.89	25.43	-40.8	-41.8	22.9	0.00e+00	48	41	0	1124073472	54	6258
2026-01-24 00:21:25.39	338.89	25.26	-40.7	-41.7	23.1	0.00e+00	91	41	0	1126170624	54	6187
2026-01-24 00:21:26.39	338.88	25.11	-40.7	-41.7	22.9	0.00e+00	6	41	0	1128267776	54	6227
2026-01-24 00:21:27.40	338.88	24.95	-40.7	-41.7	22.9	0.00e+00	91	41	0	1130364928	54	6217
2026-01-24 00:21:28.41	338.88	24.79	-40.7	-41.7	22.9	0.00e+00	49	41	0	1131413504	54	6179
2026-01-24 00:21:29.42	338.88	24.63	-40.7	-41.7	22.9	0.00e+00	92	41	0	1133510656	54	6191
2026-01-24 00:21:30.43	338.88	24.47	-40.7	-41.7	22.8	0.00e+00	0	41	0	1135607808	54	6181
2026-01-24 00:21:31.44	338.88	24.31	-40.4	-41.4	23.1	0.00e+00	0	41	0	1137704960	54	5976
2026-01-24 00:21:32.45	338.88	24.16	-40.4	-41.3	23.3	0.00e+00	92	41	0	1139802112	54	5929
2026-01-24 00:21:33.46	338.88	24.00	-40.2	-41.1	23.5	0.00e+00	0	41	0	1140850688	54	5791
2026-01-24 00:21:34.47	338.88	23.85	-39.9	-40.8	23.7	0.00e+00	91	41	0	1142947840	54	5617
2026-01-24 00:21:35.48	338.88	23.70	-39.8	-40.7	23.8	0.00e+00	32	41	0	1145044992	54	5517
2026-01-24 00:21:36.49	338.87	23.55	-39.6	-40.4	24.1	0.00e+00	55	41	0	1147142144	52	6031
2026-01-24 00:21:37.50	338.87	23.40	-39.6	-40.5	24.0	0.00e+00	5	41	0	1149239296	52	6076
2026-01-24 00:21:38.51	338.87	23.25	-39.5	-40.4	24.1	0.00e+00	29	41	0	1150287872	52	5999
2026-01-24 00:21:39.52	338.87	23.10	-39.5	-40.4	24.1	0.00e+00	0	41	0	1152385024	52	5998
2026-01-24 00:21:40.53	338.87	22.95	-39.4	-40.2	24.2	0.00e+00	56	41	0	1154482176	52	5886
2026-01-24 00:21:41.54	338.87	22.80	-39.5	-40.4	24.1	0.00e+00	92	41	0	1156579328	52	5975
2026-01-24 00:21:42.55	338.87	22.65	-39.4	-40.2	24.2	0.00e+00	57	41	0	1158676480	52	5885
2026-01-24 00:21:43.56	338.87	22.51	-39.4	-40.3	24.1	0.00e+00	92	41	0	1160773632	52	5905
2026-01-24 00:21:44.57	338.87	22.36	-39.5	-40.4	24.1	0.00e+00	31	41	0	1161822208	52	5983
2026-01-24 00:21:45.58	338.87	22.22	-39.4	-40.3	24.2	0.00e+00	0	41	0	1163919360	52	5912
2026-01-24 00:21:46.59	338.87	22.08	-39.3	-40.2	24.3	0.00e+00	0	41	0	1166016512	52	5841
2026-01-24 00:21:47.60	338.87	21.93	-39.3	-40.2	24.3	0.00e+00	7	41	0	1168113664	52	5851
2026-01-24 00:21:48.61	338.87	21.79	-39.5	-40.3	24.1	0.00e+00	92	41	0	1170210816	52	5936
2026-01-24 00:21:49.62	338.87	21.65	-39.4	-40.3	24.1	0.00e+00	0	41	0	1171259392	52	5920
2026-01-24 00:21:50.62	338.87	21.51	-39.5	-40.3	24.1	0.00e+00	92	41	0	1173356544	52	5960
2026-01-24 00:21:51.63	338.87	21.37	-39.5	-40.4	24.1	0.00e+00	0	41	0	1175453696	52	5984
2026-01-24 00:21:52.64	338.87	21.24	-39.5	-40.3	24.1	0.00e+00	0	41	0	1177550848	52	5964
2026-01-24 00:21:53.65	338.87	21.10	-39.5	-40.3	24.1	0.00e+00	5	41	0	1179648000	52	5956
