passes_logs/2026/01/24/R4.6S_Anadyr/R4.6S_Anadyr__20260124_193347_FENGYUN_3D_rec.log

#Pass ID: 20260124_193347_FENGYUN 3D
#Satellite: FENGYUN 3D
#Configuration: FENGYUN 3D
#almurnet v.1.7.20251203
#Start time: 2026-01-24 19:33:49

#Version: 2.2.20231116
#Station: R4.6S_Anadyr
#Location: 177.4865 lon 64.73178 lat
#TLE: 1 43010U 17072A   26024.16556041  .00000326  00000+0  17587-3 0  9998
#TLE: 2 43010  98.9960 356.1242 0002491  92.2506 267.8955 14.19700380424559

#Time	Az	El	Level	Level2	SNR	BER	BlckErr	Temp	State	Recorded	gain1	gain2
2026-01-24 19:33:49.69	32.72	0.11	-52.5	-67.5	3.5	1.51e+00	0	38	0	0	60	85834
2026-01-24 19:33:50.69	32.67	0.16	-53.7	-65.9	3.6	8.46e-01	0	39	104	0	60	71034
2026-01-24 19:33:51.70	32.61	0.21	-53.5	-65.6	3.6	8.46e-01	0	39	104	0	60	69208
2026-01-24 19:33:52.71	32.55	0.27	-53.1	-65.3	3.6	8.45e-01	0	39	104	0	60	66396
2026-01-24 19:33:53.72	32.49	0.32	-52.8	-65.0	3.6	8.45e-01	0	39	104	0	60	63964
2026-01-24 19:33:54.73	32.43	0.38	-53.5	-65.7	3.6	8.46e-01	0	39	104	0	60	69493
2026-01-24 19:33:55.74	32.37	0.43	-53.1	-65.4	3.6	8.44e-01	0	39	104	0	60	66973
2026-01-24 19:33:56.75	32.31	0.48	-52.9	-65.1	3.6	8.45e-01	0	39	104	0	60	64696
2026-01-24 19:33:57.76	32.25	0.54	-53.2	-65.4	3.6	8.45e-01	0	39	104	0	60	67608
2026-01-24 19:33:58.77	32.19	0.59	-53.2	-65.4	3.6	8.44e-01	0	39	104	0	60	67344
2026-01-24 19:33:59.78	32.12	0.65	-52.5	-64.7	3.6	8.46e-01	0	40	104	0	60	62089
2026-01-24 19:34:00.79	32.06	0.70	-52.3	-64.5	3.6	8.46e-01	0	40	104	0	60	60420
2026-01-24 19:34:01.80	32.00	0.76	-52.1	-64.2	3.6	8.45e-01	0	40	104	0	60	58874
2026-01-24 19:34:02.81	31.94	0.81	-52.0	-64.2	3.6	8.45e-01	0	40	104	0	60	58793
2026-01-24 19:34:03.82	31.88	0.87	-52.1	-64.3	3.6	8.45e-01	0	40	104	0	60	59188
2026-01-24 19:34:04.83	31.81	0.92	-52.1	-64.2	3.6	8.46e-01	0	40	104	0	60	58731
2026-01-24 19:34:05.83	31.75	0.98	-51.8	-64.0	3.6	8.45e-01	0	40	104	0	60	57222
2026-01-24 19:34:06.84	31.69	1.03	-51.7	-63.9	3.6	8.45e-01	0	40	104	0	60	56636
2026-01-24 19:34:07.85	31.63	1.09	-51.8	-64.0	3.6	8.46e-01	0	40	104	0	60	57098
2026-01-24 19:34:08.86	31.56	1.14	-51.7	-63.9	3.6	8.45e-01	0	40	104	0	60	56364
2026-01-24 19:34:09.87	31.50	1.20	-51.8	-63.9	3.6	8.46e-01	0	40	104	0	60	56777
2026-01-24 19:34:10.88	31.44	1.25	-51.6	-63.7	3.6	8.45e-01	0	40	104	0	60	55626
2026-01-24 19:34:11.89	31.37	1.31	-51.5	-63.6	3.6	8.45e-01	0	40	104	0	60	54830
2026-01-24 19:34:12.90	31.31	1.36	-51.3	-63.4	3.6	8.45e-01	0	40	104	0	60	53708
2026-01-24 19:34:13.91	31.24	1.42	-51.1	-63.2	3.6	8.47e-01	0	40	104	0	60	52263
2026-01-24 19:34:14.92	31.18	1.47	-50.5	-62.7	3.6	8.45e-01	0	40	104	0	60	49275
2026-01-24 19:34:15.93	31.11	1.53	-50.2	-62.0	3.6	8.45e-01	0	40	104	0	60	45479
2026-01-24 19:34:16.94	31.05	1.58	-50.2	-62.1	3.6	8.45e-01	0	40	104	0	60	46160
2026-01-24 19:34:17.95	30.98	1.64	-50.3	-62.4	3.6	8.45e-01	0	40	104	0	60	47575
2026-01-24 19:34:18.96	30.92	1.70	-50.3	-62.3	3.6	8.46e-01	0	40	104	0	60	47366
2026-01-24 19:34:19.97	30.85	1.75	-50.2	-62.4	3.6	8.45e-01	0	40	104	0	60	47526
2026-01-24 19:34:20.98	30.78	1.81	-50.3	-62.4	3.6	8.44e-01	0	40	104	0	60	47552
2026-01-24 19:34:21.99	30.72	1.86	-50.2	-62.4	3.6	8.44e-01	0	40	104	0	60	47648
2026-01-24 19:34:23.00	30.65	1.92	-50.2	-62.3	3.6	8.45e-01	0	40	104	0	60	47287
2026-01-24 19:34:24.01	30.58	1.98	-50.2	-62.3	3.6	8.45e-01	0	40	104	0	60	47169
2026-01-24 19:34:25.02	30.51	2.03	-50.1	-62.1	3.6	8.45e-01	0	40	104	0	60	45946
2026-01-24 19:34:26.03	30.45	2.09	-50.1	-61.9	3.6	8.45e-01	0	40	104	0	60	44883
2026-01-24 19:34:27.04	30.38	2.14	-50.0	-61.6	3.6	8.45e-01	0	40	104	0	60	43681
2026-01-24 19:34:28.05	30.31	2.20	-50.1	-61.4	3.6	8.44e-01	0	40	104	0	60	42355
2026-01-24 19:34:29.06	30.24	2.26	-50.1	-61.8	3.5	8.46e-01	0	40	104	0	60	44637
2026-01-24 19:34:30.07	30.17	2.31	-50.1	-61.8	3.6	8.45e-01	0	40	104	0	60	44543
2026-01-24 19:34:31.08	30.10	2.37	-50.2	-62.3	3.6	8.45e-01	0	40	104	0	60	46869
2026-01-24 19:34:32.09	30.03	2.43	-50.2	-62.3	3.6	8.45e-01	0	40	104	0	60	46989
2026-01-24 19:34:33.09	29.96	2.48	-50.2	-62.4	3.5	8.45e-01	0	40	104	0	60	47390
2026-01-24 19:34:34.10	29.89	2.54	-50.1	-62.3	3.6	8.45e-01	0	40	104	0	60	47023
2026-01-24 19:34:35.11	29.82	2.60	-50.1	-62.2	3.6	8.44e-01	0	40	104	0	60	46542
2026-01-24 19:34:36.12	29.75	2.65	-50.2	-62.1	3.6	8.45e-01	0	40	104	0	60	45877
2026-01-24 19:34:37.13	29.68	2.71	-50.1	-61.5	3.6	8.46e-01	0	40	104	0	60	43183
2026-01-24 19:34:38.14	29.61	2.77	-50.0	-60.8	3.6	8.46e-01	0	40	104	0	60	39773
2026-01-24 19:34:39.15	29.54	2.83	-50.0	-61.3	3.6	8.44e-01	0	40	104	0	60	42153
2026-01-24 19:34:40.16	29.47	2.88	-50.1	-61.2	3.6	8.46e-01	0	40	104	0	60	41728
2026-01-24 19:34:41.18	29.40	2.94	-50.2	-62.0	3.6	8.45e-01	0	40	104	0	60	45247
2026-01-24 19:34:42.18	29.32	3.00	-49.9	-59.3	3.8	8.44e-01	0	40	104	0	60	33181
2026-01-24 19:34:43.19	29.25	3.06	-49.6	-57.6	5.5	8.30e-01	0	40	104	0	60	27396
2026-01-24 19:34:44.20	29.18	3.11	-47.7	-51.0	9.5	1.01e-03	0	40	0	3145728	60	12792
2026-01-24 19:34:45.21	29.11	3.17	-44.9	-46.6	15.1	1.61e-04	0	40	0	9437184	60	7694
2026-01-24 19:34:46.22	29.03	3.23	-44.2	-45.8	15.1	0.00e+00	0	40	0	14680064	58	7950
2026-01-24 19:34:47.23	28.96	3.29	-43.1	-44.4	17.8	0.00e+00	0	40	0	19922944	60	6001
2026-01-24 19:34:48.24	28.88	3.35	-48.4	-52.3	8.4	3.74e-02	0	40	0	26214400	60	14928
2026-01-24 19:34:49.25	28.81	3.40	-48.2	-51.4	10.0	6.64e-01	0	40	0	29360128	60	13356
2026-01-24 19:34:50.26	28.73	3.46	-41.9	-42.9	18.8	3.40e-06	0	40	0	34603008	60	5076
2026-01-24 19:34:51.27	28.66	3.52	-41.0	-42.0	19.7	0.00e+00	0	40	0	40894464	56	5704
2026-01-24 19:34:52.28	28.58	3.58	-50.1	-61.3	3.6	8.44e-01	0	40	104	42991616	60	42218
2026-01-24 19:34:53.29	28.51	3.64	-40.5	-41.5	18.9	3.99e-02	0	40	104	42991616	54	6070
2026-01-24 19:34:54.29	28.43	3.69	-40.5	-41.5	19.9	0.00e+00	0	40	0	46137344	54	6037
2026-01-24 19:34:55.30	28.36	3.75	-40.4	-41.4	20.1	0.00e+00	0	40	0	52428800	54	6006
2026-01-24 19:34:56.31	28.28	3.81	-38.6	-39.4	21.9	0.00e+00	0	40	0	57671680	52	5350
2026-01-24 19:34:57.32	28.20	3.87	-40.2	-41.1	20.4	0.00e+00	0	40	0	62914560	52	6524
2026-01-24 19:34:58.33	28.13	3.93	-39.8	-40.7	20.5	0.00e+00	0	40	0	69206016	52	6189
2026-01-24 19:34:59.34	28.05	3.99	-38.8	-39.6	22.1	0.00e+00	0	40	0	74448896	52	5502
2026-01-24 19:35:00.33	27.97	4.04	-39.9	-40.8	20.8	0.00e+00	0	40	0	79691776	50	7023
2026-01-24 19:35:01.32	27.89	4.10	-38.9	-39.8	21.5	0.00e+00	0	40	0	85983232	50	6269
2026-01-24 19:35:02.33	27.82	4.16	-38.4	-39.2	22.4	0.00e+00	0	40	0	91226112	50	5877
2026-01-24 19:35:03.34	27.74	4.22	-39.2	-40.1	21.3	0.00e+00	0	40	0	96468992	50	6507
2026-01-24 19:35:04.35	27.66	4.28	-38.8	-39.7	21.7	0.00e+00	0	40	0	102760448	50	6177
2026-01-24 19:35:05.36	27.58	4.34	-40.9	-41.9	19.6	0.00e+00	0	40	0	108003328	54	6353
2026-01-24 19:35:06.37	27.50	4.40	-40.1	-41.0	20.2	0.00e+00	0	40	0	114294784	54	5753
2026-01-24 19:35:07.37	27.42	4.46	-38.9	-39.7	21.8	0.00e+00	0	40	0	119537664	50	6220
2026-01-24 19:35:08.39	27.34	4.52	-38.7	-39.5	21.9	0.00e+00	0	40	0	125829120	50	6077
2026-01-24 19:35:09.40	27.26	4.58	-39.7	-40.6	20.8	0.00e+00	0	40	0	131072000	52	6170
2026-01-24 19:35:10.41	27.17	4.64	-39.1	-39.9	21.7	0.00e+00	0	40	0	137363456	52	5671
2026-01-24 19:35:11.42	27.09	4.70	-38.9	-39.7	21.8	0.00e+00	0	40	0	142606336	52	5564
2026-01-24 19:35:12.43	27.01	4.76	-39.2	-40.0	21.6	0.00e+00	0	40	0	147849216	52	5730
2026-01-24 19:35:13.44	26.93	4.82	-40.1	-41.0	20.0	0.00e+00	0	40	0	154140672	52	6448
2026-01-24 19:35:14.45	26.85	4.88	-39.8	-40.7	21.1	0.00e+00	0	40	0	159383552	54	5506
2026-01-24 19:35:15.46	26.76	4.94	-39.7	-40.6	21.2	0.00e+00	0	40	0	165675008	52	6123
2026-01-24 19:35:16.46	26.68	5.00	-38.8	-39.6	22.0	0.00e+00	0	40	0	170917888	50	6147
2026-01-24 19:35:17.47	26.60	5.06	-39.8	-40.7	20.8	0.00e+00	0	40	0	176160768	52	6227
2026-01-24 19:35:18.48	26.51	5.12	-40.5	-41.5	20.1	0.00e+00	0	40	0	182452224	54	6035
2026-01-24 19:35:19.49	26.43	5.18	-39.9	-40.8	20.9	0.00e+00	0	40	0	187695104	52	6299
2026-01-24 19:35:20.50	26.34	5.24	-39.9	-40.8	21.3	0.00e+00	0	40	0	193986560	52	6248
2026-01-24 19:35:21.51	26.26	5.30	-39.7	-40.5	21.4	0.00e+00	0	40	0	199229440	52	6095
2026-01-24 19:35:22.52	26.17	5.36	-39.3	-40.2	21.6	0.00e+00	0	40	0	204472320	52	5867
2026-01-24 19:35:23.53	26.09	5.42	-41.0	-42.0	20.5	0.00e+00	0	40	0	210763776	54	6425
2026-01-24 19:35:24.54	26.00	5.48	-40.3	-41.2	21.0	0.00e+00	0	40	0	216006656	54	5838
2026-01-24 19:35:25.55	25.91	5.54	-40.1	-41.0	20.9	0.00e+00	0	40	0	222298112	54	5721
2026-01-24 19:35:26.56	25.82	5.60	-40.4	-41.3	20.6	0.00e+00	0	40	0	227540992	54	5952
2026-01-24 19:35:27.57	25.74	5.66	-40.0	-40.9	21.4	0.00e+00	0	40	0	233832448	52	6320
2026-01-24 19:35:28.58	25.65	5.72	-40.3	-41.2	21.1	0.00e+00	0	40	0	239075328	52	6551
2026-01-24 19:35:29.59	25.56	5.78	-40.6	-41.6	19.6	0.00e+00	0	40	0	244318208	54	6136
2026-01-24 19:35:30.60	25.47	5.85	-40.6	-41.6	20.5	0.00e+00	0	40	0	250609664	54	6107
2026-01-24 19:35:31.61	25.38	5.91	-40.5	-41.4	20.4	0.00e+00	0	40	0	255852544	54	5975
2026-01-24 19:35:32.62	25.29	5.97	-41.3	-42.3	19.4	0.00e+00	0	40	0	262144000	54	6661
2026-01-24 19:35:33.63	25.20	6.03	-42.0	-43.0	19.3	0.00e+00	0	40	0	267386880	56	6453
2026-01-24 19:35:34.63	25.11	6.09	-39.5	-40.4	21.4	0.00e+00	0	40	0	272629760	50	6699
2026-01-24 19:35:35.64	25.02	6.15	-39.5	-40.3	21.7	0.00e+00	0	40	0	278921216	54	5282
2026-01-24 19:35:36.65	24.93	6.21	-39.9	-40.8	20.9	0.00e+00	0	40	0	284164096	52	6283
2026-01-24 19:35:37.66	24.84	6.27	-39.2	-40.0	22.0	0.00e+00	0	40	0	290455552	52	5730
2026-01-24 19:35:38.67	24.75	6.34	-38.8	-39.6	22.1	0.00e+00	0	40	0	295698432	50	6151
2026-01-24 19:35:39.67	24.66	6.40	-38.9	-39.7	22.0	0.00e+00	0	40	0	300941312	50	6211
2026-01-24 19:35:40.68	24.57	6.46	-38.7	-39.5	22.1	0.00e+00	0	40	0	307232768	50	6078
2026-01-24 19:35:41.69	24.47	6.52	-38.8	-39.6	22.1	0.00e+00	0	40	0	312475648	50	6161
2026-01-24 19:35:42.70	24.38	6.58	-38.2	-39.0	22.4	0.00e+00	0	40	0	318767104	50	5696
2026-01-24 19:35:43.71	24.28	6.65	-38.5	-39.2	22.8	0.00e+00	0	40	0	324009984	50	5875
2026-01-24 19:35:44.72	24.19	6.71	-38.6	-39.5	22.4	0.00e+00	0	40	0	330301440	50	6037
2026-01-24 19:35:45.73	24.10	6.77	-38.2	-39.0	22.8	0.00e+00	0	40	0	335544320	50	5698
2026-01-24 19:35:46.74	24.00	6.83	-38.7	-39.5	22.5	0.00e+00	0	40	0	340787200	50	6069
2026-01-24 19:35:47.75	23.90	6.90	-38.2	-39.0	22.8	0.00e+00	0	41	0	347078656	50	5733
2026-01-24 19:35:48.75	23.81	6.96	-38.3	-39.1	22.7	0.00e+00	0	40	0	352321536	50	5813
2026-01-24 19:35:49.76	23.71	7.02	-38.3	-39.0	22.7	0.00e+00	0	40	0	358612992	50	5759
2026-01-24 19:35:50.77	23.62	7.08	-38.5	-39.3	22.6	0.00e+00	0	40	0	363855872	50	5955
2026-01-24 19:35:51.78	23.52	7.15	-38.3	-39.0	22.7	0.00e+00	0	41	0	369098752	50	5755
2026-01-24 19:35:52.79	23.42	7.21	-38.9	-39.8	22.2	0.00e+00	0	41	0	375390208	50	6262
2026-01-24 19:35:53.80	23.32	7.27	-38.2	-39.0	23.0	0.00e+00	0	41	0	380633088	48	6391
2026-01-24 19:35:54.81	23.22	7.33	-37.8	-38.5	23.3	0.00e+00	0	40	0	386924544	48	6073
2026-01-24 19:35:55.82	23.13	7.40	-38.1	-38.9	23.1	0.00e+00	0	40	0	392167424	48	6322
2026-01-24 19:35:56.83	23.03	7.46	-37.9	-38.7	23.2	0.00e+00	0	40	0	397410304	48	6197
2026-01-24 19:35:57.84	22.93	7.52	-38.6	-39.4	22.4	0.00e+00	0	41	0	403701760	48	6742
2026-01-24 19:35:58.85	22.83	7.59	-38.8	-39.7	22.3	0.00e+00	0	41	0	408944640	50	6180
2026-01-24 19:35:59.85	22.73	7.65	-38.5	-39.3	22.7	0.00e+00	0	41	0	415236096	50	5917
2026-01-24 19:36:00.86	22.62	7.71	-38.2	-39.0	22.9	0.00e+00	0	41	0	420478976	50	5743
2026-01-24 19:36:01.87	22.52	7.78	-38.0	-38.7	23.2	0.00e+00	0	41	0	426770432	50	5534
2026-01-24 19:36:02.88	22.42	7.84	-37.9	-38.7	23.2	0.00e+00	0	41	0	432013312	50	5515
2026-01-24 19:36:03.89	22.32	7.90	-38.2	-38.9	23.0	0.00e+00	0	41	0	437256192	50	5675
2026-01-24 19:36:04.90	22.21	7.97	-38.5	-39.3	22.7	0.00e+00	0	41	0	443547648	50	5942
2026-01-24 19:36:05.91	22.11	8.03	-38.2	-39.0	23.0	0.00e+00	0	41	0	448790528	50	5716
2026-01-24 19:36:06.91	22.01	8.09	-38.2	-39.0	23.2	0.00e+00	0	41	0	455081984	50	5710
2026-01-24 19:36:07.92	21.90	8.16	-38.4	-39.2	22.5	0.00e+00	0	41	0	460324864	48	6580
2026-01-24 19:36:08.92	21.80	8.22	-39.2	-40.0	22.1	0.00e+00	0	41	0	465567744	50	6459
2026-01-24 19:36:09.93	21.69	8.29	-38.7	-39.5	22.4	0.00e+00	0	41	0	471859200	50	6072
2026-01-24 19:36:10.94	21.59	8.35	-38.5	-39.2	22.9	0.00e+00	0	41	0	477102080	50	5877
2026-01-24 19:36:11.95	21.48	8.41	-38.4	-39.1	22.9	0.00e+00	0	41	0	483393536	50	5820
2026-01-24 19:36:12.96	21.37	8.48	-38.8	-39.6	22.4	0.00e+00	0	41	0	488636416	50	6119
2026-01-24 19:36:13.97	21.27	8.54	-38.8	-39.5	22.6	0.00e+00	0	41	0	493879296	50	6081
2026-01-24 19:36:14.98	21.16	8.61	-38.8	-39.6	22.4	0.00e+00	0	41	0	500170752	50	6110
2026-01-24 19:36:15.99	21.05	8.67	-38.3	-39.1	22.9	0.00e+00	0	41	0	505413632	50	5770
2026-01-24 19:36:16.99	20.94	8.74	-38.0	-38.7	23.3	0.00e+00	0	41	0	511705088	50	5566
2026-01-24 19:36:18.00	20.83	8.80	-39.0	-39.8	22.4	0.00e+00	0	41	0	516947968	50	6260
2026-01-24 19:36:19.01	20.72	8.86	-37.9	-38.7	23.3	0.00e+00	0	41	0	523239424	50	5512
2026-01-24 19:36:20.03	20.61	8.93	-38.2	-39.0	23.0	0.00e+00	0	41	0	528482304	50	5698
2026-01-24 19:36:21.03	20.50	8.99	-37.6	-38.4	23.6	0.00e+00	0	41	0	533725184	48	5987
2026-01-24 19:36:22.04	20.39	9.06	-37.8	-38.5	23.3	0.00e+00	0	41	0	540016640	48	6072
2026-01-24 19:36:23.05	20.28	9.12	-37.8	-38.5	23.4	0.00e+00	0	41	0	545259520	48	6084
2026-01-24 19:36:24.06	20.17	9.19	-37.8	-38.6	23.7	0.00e+00	0	41	0	551550976	48	6119
2026-01-24 19:36:25.07	20.05	9.25	-37.3	-38.1	23.8	0.00e+00	0	41	0	556793856	48	5764
2026-01-24 19:36:26.07	19.94	9.32	-37.3	-38.0	23.9	0.00e+00	0	41	0	562036736	48	5705
2026-01-24 19:36:27.08	19.83	9.38	-38.3	-39.1	23.6	0.00e+00	0	41	0	568328192	48	6520
2026-01-24 19:36:28.09	19.71	9.45	-37.8	-38.6	23.4	0.00e+00	0	41	0	573571072	48	6124
2026-01-24 19:36:29.10	19.60	9.51	-37.6	-38.3	23.8	0.00e+00	0	41	0	579862528	48	5927
2026-01-24 19:36:30.12	19.48	9.58	-37.9	-38.6	23.4	0.00e+00	0	41	0	585105408	48	6132
2026-01-24 19:36:31.13	19.36	9.65	-37.5	-38.2	23.8	0.00e+00	0	41	0	590348288	48	5881
2026-01-24 19:36:32.13	19.25	9.71	-37.6	-38.4	23.8	0.00e+00	0	41	0	596639744	48	5989
2026-01-24 19:36:33.14	19.13	9.78	-38.0	-38.8	23.4	0.00e+00	0	41	0	601882624	48	6274
2026-01-24 19:36:34.15	19.01	9.84	-37.9	-38.7	23.3	0.00e+00	0	41	0	608174080	48	6194
2026-01-24 19:36:35.16	18.89	9.91	-37.8	-38.6	23.6	0.00e+00	0	41	0	613416960	48	6117
2026-01-24 19:36:36.16	18.78	9.97	-37.7	-38.5	23.6	0.00e+00	0	41	0	619708416	48	6057
2026-01-24 19:36:37.17	18.66	10.04	-37.7	-38.4	23.7	0.00e+00	0	41	0	624951296	48	6033
2026-01-24 19:36:38.18	18.54	10.10	-37.6	-38.3	23.8	0.00e+00	0	41	0	630194176	48	5924
2026-01-24 19:36:39.19	18.42	10.17	-37.5	-38.3	23.8	0.00e+00	0	41	0	636485632	48	5906
2026-01-24 19:36:40.20	18.29	10.23	-37.3	-38.1	23.8	0.00e+00	0	41	0	641728512	48	5766
2026-01-24 19:36:41.21	18.17	10.30	-37.3	-38.0	24.0	0.00e+00	0	41	0	648019968	48	5713
2026-01-24 19:36:42.22	18.05	10.37	-37.2	-37.9	24.2	0.00e+00	0	41	0	653262848	48	5638
2026-01-24 19:36:43.23	17.93	10.43	-37.0	-37.7	24.3	0.00e+00	0	41	0	658505728	46	6195
2026-01-24 19:36:44.24	17.80	10.50	-37.6	-38.3	24.2	0.00e+00	0	41	0	664797184	46	6658
2026-01-24 19:36:45.24	17.68	10.56	-37.3	-38.0	24.3	0.00e+00	0	41	0	670040064	46	6433
2026-01-24 19:36:46.25	17.56	10.63	-37.1	-37.8	24.4	0.00e+00	0	41	0	676331520	46	6273
2026-01-24 19:36:47.26	17.43	10.70	-37.4	-38.1	24.0	0.00e+00	0	41	0	681574400	48	5803
2026-01-24 19:36:48.27	17.31	10.76	-37.1	-37.8	24.3	0.00e+00	0	41	0	686817280	48	5608
2026-01-24 19:36:49.28	17.18	10.83	-36.9	-37.6	24.3	0.00e+00	0	41	0	693108736	48	5502
2026-01-24 19:36:50.29	17.05	10.90	-37.1	-37.8	24.2	0.00e+00	0	41	0	698351616	48	5584
2026-01-24 19:36:51.29	16.93	10.96	-37.9	-38.6	23.4	0.00e+00	0	41	0	704643072	48	6172
2026-01-24 19:36:52.31	16.80	11.03	-38.8	-39.6	23.1	0.00e+00	0	41	0	709885952	52	5483
2026-01-24 19:36:53.31	16.67	11.09	-37.1	-37.8	24.3	0.00e+00	0	41	0	716177408	48	5624
2026-01-24 19:36:54.32	16.54	11.16	-37.3	-38.0	24.0	0.00e+00	0	41	0	721420288	48	5720
2026-01-24 19:36:55.33	16.41	11.23	-37.2	-37.9	24.1	0.00e+00	0	41	0	726663168	48	5687
2026-01-24 19:36:56.34	16.28	11.29	-36.8	-37.5	24.5	0.00e+00	0	41	0	732954624	48	5394
2026-01-24 19:36:57.35	16.15	11.36	-36.8	-37.5	24.6	0.00e+00	0	41	0	738197504	46	6067
2026-01-24 19:36:58.36	16.02	11.43	-36.8	-37.5	24.7	0.00e+00	0	41	0	744488960	46	6085
2026-01-24 19:36:59.36	15.89	11.49	-36.8	-37.5	24.6	0.00e+00	0	41	0	749731840	46	6051
2026-01-24 19:37:00.37	15.75	11.56	-37.2	-38.0	24.3	0.00e+00	0	41	0	754974720	46	6391
2026-01-24 19:37:01.38	15.62	11.63	-37.0	-37.6	24.6	0.00e+00	0	41	0	761266176	46	6171
2026-01-24 19:37:02.39	15.49	11.69	-36.9	-37.6	24.5	0.00e+00	0	41	0	766509056	46	6143
2026-01-24 19:37:03.40	15.35	11.76	-36.8	-37.5	24.7	0.00e+00	0	41	0	772800512	46	6100
2026-01-24 19:37:04.41	15.22	11.83	-37.1	-37.9	24.2	0.00e+00	0	41	0	778043392	46	6344
2026-01-24 19:37:05.41	15.08	11.89	-36.7	-37.5	24.7	0.00e+00	0	41	0	783286272	46	6039
2026-01-24 19:37:06.42	14.94	11.96	-36.4	-37.0	24.9	0.00e+00	0	41	0	789577728	46	5752
2026-01-24 19:37:07.43	14.81	12.03	-36.9	-37.7	24.5	0.00e+00	0	41	0	794820608	46	6177
2026-01-24 19:37:08.44	14.67	12.09	-36.5	-37.2	24.8	0.00e+00	0	41	0	801112064	46	5873
2026-01-24 19:37:09.45	14.53	12.16	-36.5	-37.2	24.8	0.00e+00	0	41	0	806354944	46	5832
2026-01-24 19:37:10.45	14.39	12.23	-36.8	-37.5	24.6	0.00e+00	0	41	0	812646400	46	6045
2026-01-24 19:37:11.46	14.25	12.29	-36.5	-37.2	24.8	0.00e+00	0	41	0	817889280	46	5859
2026-01-24 19:37:12.47	14.11	12.36	-36.7	-37.4	24.7	0.00e+00	0	41	0	823132160	46	5989
2026-01-24 19:37:13.48	13.97	12.43	-36.5	-37.2	24.9	0.00e+00	0	41	0	829423616	46	5854
2026-01-24 19:37:14.49	13.83	12.49	-36.3	-37.0	25.1	0.00e+00	0	41	0	834666496	46	5718
2026-01-24 19:37:15.50	13.69	12.56	-36.3	-37.0	25.1	0.00e+00	0	41	0	840957952	46	5704
2026-01-24 19:37:16.51	13.54	12.63	-37.0	-37.7	24.7	0.00e+00	0	41	0	846200832	46	6237
2026-01-24 19:37:17.52	13.40	12.69	-36.5	-37.2	25.0	0.00e+00	0	41	0	851443712	46	5873
2026-01-24 19:37:18.53	13.26	12.76	-36.8	-37.5	24.7	0.00e+00	0	41	0	857735168	46	6088
2026-01-24 19:37:19.54	13.11	12.83	-36.6	-37.3	25.0	0.00e+00	0	41	0	862978048	46	5911
2026-01-24 19:37:20.55	12.96	12.89	-37.0	-37.7	24.6	0.00e+00	0	41	0	869269504	46	6226
2026-01-24 19:37:21.56	12.82	12.96	-36.8	-37.5	24.7	0.00e+00	0	41	0	874512384	46	6065
2026-01-24 19:37:22.56	12.67	13.03	-36.9	-37.6	24.8	0.00e+00	0	41	0	879755264	46	6108
2026-01-24 19:37:23.57	12.52	13.10	-36.8	-37.5	24.9	0.00e+00	0	41	0	886046720	46	6055
2026-01-24 19:37:24.58	12.38	13.16	-37.0	-37.7	24.2	0.00e+00	0	41	0	891289600	46	6179
2026-01-24 19:37:25.59	12.23	13.23	-36.5	-37.2	24.9	0.00e+00	0	41	0	897581056	46	5887
2026-01-24 19:37:26.60	12.08	13.30	-36.7	-37.3	24.8	0.00e+00	0	41	0	902823936	46	5960
2026-01-24 19:37:27.61	11.93	13.36	-36.6	-37.3	24.9	0.00e+00	0	41	0	909115392	46	5906
2026-01-24 19:37:28.62	11.77	13.43	-36.4	-37.1	25.1	0.00e+00	0	41	0	914358272	46	5784
2026-01-24 19:37:29.63	11.62	13.50	-36.4	-37.1	25.1	0.00e+00	0	41	0	919601152	46	5786
2026-01-24 19:37:30.64	11.47	13.56	-36.9	-37.6	24.6	0.00e+00	0	41	0	925892608	46	6122
2026-01-24 19:37:31.65	11.32	13.63	-36.3	-37.0	25.3	0.00e+00	0	41	0	931135488	46	5725
2026-01-24 19:37:32.66	11.16	13.70	-36.2	-36.9	25.3	0.00e+00	0	41	0	937426944	46	5654
2026-01-24 19:37:33.67	11.01	13.76	-36.0	-36.6	25.4	0.00e+00	0	41	0	942669824	46	5488
2026-01-24 19:37:34.68	10.85	13.83	-36.0	-36.7	25.6	0.00e+00	0	41	0	947912704	46	5550
2026-01-24 19:37:35.69	10.69	13.90	-36.4	-37.1	25.3	0.00e+00	0	41	0	954204160	46	5783
2026-01-24 19:37:36.69	10.54	13.96	-36.6	-37.3	25.4	0.00e+00	0	41	0	959447040	46	5917
2026-01-24 19:37:37.70	10.38	14.03	-36.2	-36.9	25.6	0.00e+00	0	41	0	965738496	46	5642
2026-01-24 19:37:38.71	10.22	14.10	-36.5	-37.1	25.4	0.00e+00	0	41	0	970981376	46	5819
2026-01-24 19:37:39.72	10.06	14.16	-36.5	-37.2	25.1	0.00e+00	0	41	0	976224256	46	5886
2026-01-24 19:37:40.73	9.90	14.23	-36.5	-37.2	24.9	0.00e+00	0	41	0	982515712	46	5870
2026-01-24 19:37:41.74	9.74	14.30	-36.5	-37.2	25.2	0.00e+00	0	41	0	987758592	46	5873
2026-01-24 19:37:42.75	9.58	14.36	-36.6	-37.3	25.4	0.00e+00	0	41	0	994050048	46	5922
2026-01-24 19:37:43.76	9.42	14.43	-36.2	-36.9	25.5	0.00e+00	0	41	0	999292928	46	5651
2026-01-24 19:37:44.77	9.26	14.50	-36.3	-37.0	25.3	0.00e+00	0	41	0	1005584384	46	5710
2026-01-24 19:37:45.78	9.09	14.56	-35.8	-36.5	25.7	0.00e+00	0	41	0	1010827264	44	6036
2026-01-24 19:37:46.79	8.93	14.63	-35.7	-36.4	25.6	0.00e+00	0	41	0	1017118720	44	5981
2026-01-24 19:37:47.79	8.76	14.69	-35.5	-36.2	25.7	0.00e+00	0	41	0	1022361600	44	5844
2026-01-24 19:37:48.80	8.60	14.76	-35.8	-36.4	25.5	0.00e+00	0	41	0	1027604480	44	6019
2026-01-24 19:37:49.81	8.43	14.83	-36.1	-36.7	25.6	0.00e+00	0	41	0	1033895936	44	6240
2026-01-24 19:37:50.82	8.26	14.89	-35.9	-36.5	25.7	0.00e+00	0	41	0	1039138816	44	6096
2026-01-24 19:37:51.83	8.10	14.96	-36.0	-36.7	25.4	0.00e+00	0	41	0	1044381696	44	6210
2026-01-24 19:37:52.84	7.93	15.02	-36.0	-36.6	25.5	0.00e+00	0	41	0	1050673152	44	6170
2026-01-24 19:37:53.85	7.76	15.09	-36.6	-37.3	25.1	0.00e+00	0	41	0	1055916032	44	6639
2026-01-24 19:37:54.86	7.59	15.15	-36.3	-36.9	25.4	0.00e+00	0	41	0	1062207488	44	6382
2026-01-24 19:37:55.87	7.42	15.22	-36.2	-36.8	25.5	0.00e+00	0	41	0	1067450368	44	6308
2026-01-24 19:37:56.88	7.24	15.29	-36.4	-37.1	25.3	0.00e+00	0	41	0	1072693248	44	6489
2026-01-24 19:37:57.89	7.07	15.35	-36.2	-36.9	25.5	0.00e+00	0	41	0	1078984704	44	6332
2026-01-24 19:37:58.90	6.90	15.42	-36.3	-37.0	25.4	0.00e+00	0	41	0	1084227584	44	6463
2026-01-24 19:37:59.91	6.72	15.48	-35.8	-36.5	25.6	0.00e+00	0	41	0	1090519040	44	6038
2026-01-24 19:38:00.91	6.55	15.55	-35.6	-36.3	25.7	0.00e+00	0	41	0	1095761920	44	5928
2026-01-24 19:38:01.92	6.37	15.61	-35.9	-36.5	25.8	0.00e+00	0	41	0	1102053376	44	6099
2026-01-24 19:38:02.93	6.20	15.68	-35.8	-36.4	25.7	0.00e+00	0	41	0	1107296256	44	6030
2026-01-24 19:38:03.94	6.02	15.74	-35.7	-36.4	25.7	0.00e+00	0	41	0	1113587712	44	5991
2026-01-24 19:38:04.95	5.84	15.81	-35.8	-36.5	25.6	0.00e+00	0	41	0	1118830592	44	6055
2026-01-24 19:38:05.96	5.66	15.87	-36.1	-36.7	25.7	0.00e+00	0	41	0	1124073472	44	6224
2026-01-24 19:38:06.97	5.48	15.93	-36.2	-36.8	25.4	0.00e+00	0	41	0	1130364928	44	6317
2026-01-24 19:38:07.98	5.30	16.00	-35.8	-36.4	25.8	0.00e+00	0	41	0	1135607808	44	6007
2026-01-24 19:38:08.99	5.12	16.06	-35.8	-36.5	25.5	0.00e+00	0	41	0	1141899264	44	6064
2026-01-24 19:38:10.00	4.94	16.13	-35.8	-36.5	25.8	0.00e+00	0	41	0	1147142144	44	6051
2026-01-24 19:38:11.01	4.76	16.19	-36.0	-36.7	25.5	0.00e+00	0	41	0	1152385024	44	6208
2026-01-24 19:38:12.02	4.57	16.26	-35.8	-36.4	25.8	0.00e+00	0	41	0	1158676480	44	6008
2026-01-24 19:38:13.03	4.39	16.32	-35.8	-36.5	25.6	0.00e+00	0	41	0	1163919360	44	6083
2026-01-24 19:38:14.04	4.20	16.38	-35.8	-36.5	25.4	0.00e+00	0	41	0	1170210816	44	6056
2026-01-24 19:38:15.05	4.02	16.45	-36.3	-37.0	25.3	0.00e+00	0	41	0	1175453696	44	6414
2026-01-24 19:38:16.06	3.83	16.51	-36.6	-37.3	25.5	0.00e+00	0	41	0	1180696576	44	6631
2026-01-24 19:38:17.07	3.64	16.57	-36.0	-36.7	25.7	0.00e+00	0	41	0	1186988032	44	6183
2026-01-24 19:38:18.08	3.45	16.64	-36.6	-37.3	25.3	0.00e+00	0	41	0	1192230912	46	5944
2026-01-24 19:38:19.09	3.26	16.70	-36.1	-36.8	25.6	0.00e+00	0	41	0	1198522368	46	5613
2026-01-24 19:38:20.10	3.07	16.76	-36.1	-36.8	25.5	0.00e+00	0	41	0	1203765248	46	5617
2026-01-24 19:38:21.11	2.88	16.82	-35.9	-36.5	25.8	0.00e+00	0	41	0	1210056704	46	5436
2026-01-24 19:38:22.12	2.69	16.89	-35.7	-36.4	25.7	0.00e+00	0	41	0	1215299584	44	5998
2026-01-24 19:38:23.13	2.50	16.95	-35.7	-36.4	25.9	0.00e+00	0	41	0	1220542464	44	5972
2026-01-24 19:38:24.14	2.31	17.01	-35.6	-36.2	25.9	0.00e+00	0	41	0	1226833920	44	5870
2026-01-24 19:38:25.15	2.11	17.07	-35.6	-36.2	25.9	0.00e+00	0	41	0	1232076800	44	5873
2026-01-24 19:38:26.16	1.92	17.13	-35.6	-36.3	25.9	0.00e+00	0	41	0	1238368256	44	5899
2026-01-24 19:38:27.17	1.72	17.20	-35.6	-36.2	26.0	0.00e+00	0	41	0	1243611136	44	5874
2026-01-24 19:38:28.18	1.52	17.26	-35.3	-35.9	26.1	0.00e+00	0	41	0	1248854016	44	5685
2026-01-24 19:38:29.19	1.33	17.32	-35.8	-36.5	25.8	0.00e+00	0	41	0	1255145472	44	6062
2026-01-24 19:38:30.20	1.13	17.38	-35.8	-36.5	25.9	0.00e+00	0	41	0	1260388352	44	6090
2026-01-24 19:38:31.21	0.93	17.44	-35.7	-36.3	26.0	0.00e+00	0	41	0	1266679808	44	5932
2026-01-24 19:38:32.21	0.73	17.50	-35.7	-36.4	25.8	0.00e+00	0	41	0	1271922688	44	5998
2026-01-24 19:38:33.22	0.53	17.56	-35.7	-36.4	26.0	0.00e+00	0	41	0	1277165568	44	5990
2026-01-24 19:38:34.23	0.33	17.62	-35.7	-36.4	26.0	0.00e+00	0	41	0	1283457024	44	6012
2026-01-24 19:38:35.25	0.13	17.68	-35.6	-36.3	26.1	0.00e+00	0	41	0	1288699904	44	5900
2026-01-24 19:38:36.25	359.92	17.74	-35.4	-36.1	26.2	0.00e+00	0	41	0	1294991360	44	5786
2026-01-24 19:38:37.27	359.72	17.80	-35.1	-35.7	26.4	0.00e+00	0	41	0	1300234240	44	5552
2026-01-24 19:38:38.28	359.51	17.86	-35.0	-35.6	26.4	0.00e+00	0	41	0	1306525696	44	5485
2026-01-24 19:38:39.29	359.31	17.92	-34.8	-35.5	26.5	0.00e+00	0	41	0	1311768576	42	6054
2026-01-24 19:38:40.30	359.10	17.98	-35.3	-36.0	26.3	0.00e+00	0	41	0	1318060032	42	6393
2026-01-24 19:38:41.31	358.89	18.03	-35.3	-36.0	26.3	0.00e+00	0	41	0	1323302912	42	6448
2026-01-24 19:38:42.32	358.69	18.09	-35.2	-35.9	26.2	0.00e+00	0	41	0	1328545792	42	6351
2026-01-24 19:38:43.33	358.48	18.15	-35.1	-35.8	26.3	0.00e+00	0	41	0	1334837248	42	6256
2026-01-24 19:38:44.34	358.27	18.21	-35.2	-35.8	26.1	0.00e+00	0	41	0	1340080128	42	6294
2026-01-24 19:38:45.35	358.06	18.26	-35.1	-35.8	26.3	0.00e+00	0	41	0	1346371584	42	6265
2026-01-24 19:38:46.35	357.85	18.32	-35.3	-36.0	26.0	0.00e+00	0	41	0	1351614464	42	6401
2026-01-24 19:38:47.36	357.64	18.38	-35.0	-35.6	26.4	0.00e+00	0	41	0	1356857344	42	6135
2026-01-24 19:38:48.37	357.42	18.43	-35.2	-35.9	26.3	0.00e+00	0	41	0	1363148800	42	6336
2026-01-24 19:38:49.38	357.21	18.49	-35.5	-36.1	26.2	0.00e+00	0	41	0	1368391680	42	6498
2026-01-24 19:38:50.39	357.00	18.55	-35.7	-36.4	26.1	0.00e+00	0	41	0	1374683136	42	6711
2026-01-24 19:38:51.39	356.78	18.60	-35.5	-36.1	26.3	0.00e+00	0	41	0	1379926016	44	5811
2026-01-24 19:38:52.40	356.57	18.66	-35.3	-36.0	26.4	0.00e+00	0	41	0	1385168896	44	5728
2026-01-24 19:38:53.41	356.35	18.71	-35.0	-35.6	26.4	0.00e+00	0	41	0	1391460352	44	5476
2026-01-24 19:38:54.42	356.13	18.77	-34.8	-35.4	26.6	0.00e+00	0	41	0	1396703232	44	5377
2026-01-24 19:38:55.43	355.91	18.82	-34.7	-35.4	26.5	0.00e+00	0	41	0	1402994688	42	6010
2026-01-24 19:38:56.44	355.69	18.88	-34.6	-35.2	26.7	0.00e+00	0	41	0	1408237568	42	5878
2026-01-24 19:38:57.45	355.47	18.93	-34.6	-35.2	26.5	0.00e+00	0	41	0	1414529024	42	5893
2026-01-24 19:38:58.46	355.25	18.98	-34.7	-35.3	26.5	0.00e+00	0	41	0	1419771904	42	5922
2026-01-24 19:38:59.47	355.03	19.04	-35.0	-35.7	26.5	0.00e+00	0	41	0	1425014784	42	6179
2026-01-24 19:39:00.48	354.81	19.09	-34.6	-35.2	26.7	0.00e+00	0	41	0	1431306240	42	5872
2026-01-24 19:39:01.49	354.59	19.14	-34.4	-35.1	26.8	0.00e+00	0	41	0	1436549120	42	5780
2026-01-24 19:39:02.50	354.36	19.19	-34.4	-35.0	26.8	0.00e+00	0	41	0	1442840576	42	5732
2026-01-24 19:39:03.51	354.14	19.25	-34.3	-34.9	26.8	0.00e+00	0	41	0	1448083456	42	5687
2026-01-24 19:39:04.52	353.91	19.30	-34.4	-35.1	26.8	0.00e+00	0	41	0	1453326336	42	5801
2026-01-24 19:39:05.53	353.69	19.35	-34.6	-35.2	26.7	0.00e+00	0	41	0	1459617792	42	5884
2026-01-24 19:39:06.54	353.46	19.40	-34.7	-35.3	26.6	0.00e+00	0	41	0	1464860672	42	5957
2026-01-24 19:39:07.55	353.23	19.45	-34.4	-35.1	26.7	0.00e+00	0	41	0	1471152128	42	5766
2026-01-24 19:39:08.55	353.01	19.50	-34.6	-35.3	26.9	0.00e+00	0	41	0	1476395008	42	5943
2026-01-24 19:39:09.57	352.77	19.55	-34.6	-35.2	27.0	0.00e+00	0	41	0	1481637888	42	5856
2026-01-24 19:39:10.57	352.55	19.60	-34.5	-35.1	27.0	0.00e+00	0	41	0	1487929344	42	5793
2026-01-24 19:39:11.58	352.32	19.65	-34.4	-35.1	27.0	0.00e+00	0	41	0	1493172224	42	5787
2026-01-24 19:39:12.59	352.08	19.69	-34.8	-35.4	27.0	0.00e+00	0	41	0	1499463680	42	5995
2026-01-24 19:39:13.60	351.85	19.74	-34.6	-35.2	26.8	0.00e+00	0	41	0	1504706560	42	5885
2026-01-24 19:39:14.61	351.62	19.79	-34.7	-35.3	26.7	0.00e+00	0	41	0	1510998016	42	5949
2026-01-24 19:39:15.62	351.39	19.84	-34.4	-35.0	26.9	0.00e+00	0	41	0	1516240896	42	5760
2026-01-24 19:39:16.63	351.15	19.88	-34.4	-35.1	27.0	0.00e+00	0	41	0	1521483776	42	5777
2026-01-24 19:39:17.64	350.92	19.93	-34.4	-35.1	27.0	0.00e+00	0	41	0	1527775232	42	5785
2026-01-24 19:39:18.65	350.68	19.98	-34.4	-35.0	26.9	0.00e+00	0	41	0	1533018112	42	5750
2026-01-24 19:39:19.66	350.44	20.02	-34.4	-35.0	26.8	0.00e+00	0	41	0	1539309568	42	5722
2026-01-24 19:39:20.67	350.21	20.07	-34.9	-35.6	26.5	0.00e+00	0	41	0	1544552448	42	6108
2026-01-24 19:39:21.68	349.97	20.11	-35.2	-35.8	26.5	0.00e+00	0	41	0	1549795328	42	6307
2026-01-24 19:39:22.69	349.73	20.16	-35.1	-35.8	26.3	0.00e+00	0	41	0	1556086784	42	6271
2026-01-24 19:39:23.70	349.49	20.20	-34.8	-35.5	26.5	0.00e+00	0	41	0	1561329664	42	6078
2026-01-24 19:39:24.71	349.25	20.24	-34.7	-35.4	26.7	0.00e+00	0	41	0	1567621120	42	5991
2026-01-24 19:39:25.72	349.01	20.29	-35.0	-35.6	26.9	0.00e+00	0	41	0	1572864000	42	6173
2026-01-24 19:39:26.73	348.77	20.33	-35.1	-35.8	26.7	0.00e+00	0	41	0	1578106880	42	6254
2026-01-24 19:39:27.73	348.53	20.37	-35.5	-36.2	26.3	0.00e+00	0	41	0	1584398336	42	6544
2026-01-24 19:39:28.74	348.29	20.41	-35.4	-36.1	26.2	0.00e+00	0	41	0	1589641216	42	6485
2026-01-24 19:39:29.75	348.04	20.45	-34.8	-35.4	26.7	0.00e+00	0	41	0	1595932672	42	5989
2026-01-24 19:39:30.76	347.80	20.49	-34.9	-35.5	26.7	0.00e+00	0	41	0	1601175552	42	6064
2026-01-24 19:39:31.76	347.56	20.53	-35.0	-35.6	26.7	0.00e+00	0	41	0	1607467008	42	6112
2026-01-24 19:39:32.77	347.31	20.57	-34.8	-35.5	26.7	0.00e+00	0	41	0	1612709888	42	6068
2026-01-24 19:39:33.78	347.06	20.61	-34.8	-35.4	26.9	0.00e+00	0	41	0	1617952768	42	5999
2026-01-24 19:39:34.79	346.82	20.65	-34.7	-35.4	26.8	0.00e+00	0	41	0	1624244224	42	6007
2026-01-24 19:39:35.80	346.57	20.69	-34.7	-35.4	26.9	0.00e+00	0	41	0	1629487104	42	5977
2026-01-24 19:39:36.81	346.32	20.73	-34.7	-35.3	27.0	0.00e+00	0	41	0	1635778560	42	5944
2026-01-24 19:39:37.83	346.07	20.76	-34.5	-35.2	27.0	0.00e+00	0	41	0	1641021440	42	5863
2026-01-24 19:39:38.84	345.82	20.80	-34.6	-35.2	26.9	0.00e+00	0	41	0	1647312896	42	5882
2026-01-24 19:39:39.85	345.57	20.83	-35.0	-35.6	26.8	0.00e+00	0	41	0	1652555776	42	6135
2026-01-24 19:39:40.86	345.32	20.87	-35.3	-36.0	26.8	0.00e+00	0	41	0	1657798656	44	5725
2026-01-24 19:39:41.87	345.07	20.91	-35.0	-35.7	26.6	0.00e+00	0	41	0	1664090112	44	5513
2026-01-24 19:39:42.88	344.82	20.94	-35.0	-35.7	26.8	0.00e+00	0	41	0	1669332992	42	6175
2026-01-24 19:39:43.89	344.57	20.97	-35.4	-36.2	26.6	0.00e+00	0	41	0	1675624448	44	5833
2026-01-24 19:39:44.90	344.32	21.01	-36.4	-37.0	25.8	0.00e+00	0	41	0	1680867328	44	6428
2026-01-24 19:39:45.91	344.06	21.04	-35.3	-35.9	26.6	0.00e+00	0	41	0	1686110208	44	5682
2026-01-24 19:39:46.92	343.81	21.07	-35.0	-35.6	26.9	0.00e+00	0	41	0	1692401664	42	6129
2026-01-24 19:39:47.93	343.55	21.10	-35.3	-35.9	26.8	0.00e+00	0	41	0	1697644544	42	6364
2026-01-24 19:39:48.94	343.30	21.13	-35.2	-35.8	26.8	0.00e+00	0	41	0	1703936000	42	6313
2026-01-24 19:39:49.95	343.04	21.16	-35.3	-35.9	26.7	0.00e+00	0	41	0	1709178880	44	5685
2026-01-24 19:39:50.96	342.79	21.19	-35.0	-35.7	26.9	0.00e+00	0	41	0	1715470336	42	6210
2026-01-24 19:39:51.97	342.53	21.22	-35.3	-36.0	26.9	0.00e+00	0	41	0	1720713216	42	6414
2026-01-24 19:39:52.97	342.28	21.25	-35.1	-35.8	26.9	0.00e+00	0	41	0	1725956096	42	6270
2026-01-24 19:39:53.98	342.02	21.28	-35.4	-36.0	26.8	0.00e+00	0	41	0	1732247552	42	6439
2026-01-24 19:39:54.99	341.76	21.31	-34.9	-35.5	27.1	0.00e+00	0	41	0	1737490432	42	6078
2026-01-24 19:39:56.00	341.51	21.34	-35.6	-36.2	26.6	0.00e+00	0	41	0	1743781888	42	6586
2026-01-24 19:39:57.01	341.25	21.36	-35.6	-36.3	26.6	0.00e+00	0	41	0	1749024768	42	6665
2026-01-24 19:39:58.02	340.99	21.39	-35.9	-36.6	26.5	0.00e+00	0	41	0	1754267648	44	6107
2026-01-24 19:39:59.03	340.73	21.41	-35.5	-36.1	26.6	0.00e+00	0	41	0	1760559104	44	5807
2026-01-24 19:40:00.04	340.47	21.44	-35.0	-35.7	27.0	0.00e+00	0	41	0	1765801984	44	5513
2026-01-24 19:40:01.05	340.21	21.46	-34.8	-35.5	26.9	0.00e+00	0	41	0	1772093440	44	5388
2026-01-24 19:40:02.06	339.95	21.49	-35.4	-36.1	26.5	0.00e+00	0	41	0	1777336320	44	5778
2026-01-24 19:40:03.07	339.69	21.51	-35.4	-36.1	26.8	0.00e+00	0	41	0	1782579200	44	5813
2026-01-24 19:40:04.08	339.42	21.53	-34.9	-35.5	26.9	0.00e+00	0	41	0	1788870656	44	5392
2026-01-24 19:40:05.09	339.16	21.55	-34.6	-35.2	26.9	0.00e+00	0	41	0	1794113536	42	5887
2026-01-24 19:40:06.09	338.90	21.57	-34.3	-35.0	27.1	0.00e+00	0	41	0	1800404992	42	5699
2026-01-24 19:40:07.10	338.64	21.59	-34.4	-35.1	27.0	0.00e+00	0	41	0	1805647872	42	5769
2026-01-24 19:40:08.11	338.38	21.61	-34.8	-35.4	27.1	0.00e+00	0	41	0	1811939328	42	5983
2026-01-24 19:40:09.12	338.11	21.63	-34.9	-35.6	27.1	0.00e+00	0	41	0	1817182208	42	6104
2026-01-24 19:40:10.13	337.85	21.65	-35.0	-35.6	27.0	0.00e+00	0	41	0	1822425088	42	6148
2026-01-24 19:40:11.14	337.59	21.67	-35.5	-36.1	26.7	0.00e+00	0	41	0	1828716544	42	6519
2026-01-24 19:40:12.15	337.32	21.69	-35.3	-36.0	27.0	0.00e+00	0	41	0	1833959424	42	6396
2026-01-24 19:40:13.17	337.06	21.70	-35.1	-35.8	26.8	0.00e+00	0	41	0	1840250880	42	6264
2026-01-24 19:40:14.18	336.79	21.72	-34.5	-35.1	27.2	0.00e+00	0	41	0	1845493760	42	5782
2026-01-24 19:40:15.19	336.53	21.73	-34.4	-35.1	27.1	0.00e+00	0	41	0	1851785216	42	5785
2026-01-24 19:40:16.20	336.26	21.75	-34.6	-35.3	27.0	0.00e+00	0	41	0	1857028096	42	5948
2026-01-24 19:40:17.21	335.99	21.76	-34.5	-35.1	27.3	0.00e+00	0	41	0	1862270976	42	5814
2026-01-24 19:40:18.21	335.73	21.78	-34.5	-35.1	27.3	0.00e+00	0	41	0	1868562432	42	5814
2026-01-24 19:40:19.22	335.47	21.79	-34.5	-35.1	27.2	0.00e+00	0	41	0	1873805312	42	5825
2026-01-24 19:40:20.23	335.20	21.80	-34.8	-35.4	27.0	0.00e+00	0	41	0	1879048192	42	5997
2026-01-24 19:40:21.24	334.93	21.81	-34.6	-35.3	27.1	0.00e+00	0	41	0	1885339648	42	5915
2026-01-24 19:40:22.25	334.67	21.82	-34.2	-34.8	27.4	0.00e+00	0	41	0	1890582528	42	5571
2026-01-24 19:40:23.25	334.40	21.83	-34.2	-34.9	27.3	0.00e+00	0	41	0	1896873984	42	5660
2026-01-24 19:40:24.26	334.13	21.84	-34.4	-35.0	27.4	0.00e+00	0	41	0	1902116864	42	5718
2026-01-24 19:40:25.27	333.87	21.85	-34.3	-35.0	27.4	0.00e+00	0	41	0	1908408320	42	5703
2026-01-24 19:40:26.28	333.60	21.86	-34.4	-35.0	27.2	0.00e+00	0	41	0	1913651200	42	5708
2026-01-24 19:40:27.29	333.33	21.87	-34.3	-35.0	27.1	0.00e+00	0	41	0	1919942656	42	5708
2026-01-24 19:40:28.30	333.07	21.87	-34.3	-35.0	27.0	0.00e+00	0	41	0	1925185536	42	5736
2026-01-24 19:40:29.31	332.80	21.88	-34.8	-35.4	26.9	0.00e+00	0	41	0	1930428416	42	6017
2026-01-24 19:40:30.32	332.53	21.88	-34.8	-35.5	26.9	0.00e+00	0	41	0	1936719872	42	6056
2026-01-24 19:40:31.33	332.26	21.89	-34.5	-35.1	27.0	0.00e+00	0	41	0	1941962752	42	5802
2026-01-24 19:40:32.34	331.99	21.89	-34.7	-35.3	27.0	0.00e+00	0	41	0	1948254208	42	5944
2026-01-24 19:40:33.35	331.73	21.90	-34.9	-35.5	27.1	0.00e+00	0	41	0	1953497088	42	6068
2026-01-24 19:40:34.36	331.46	21.90	-34.8	-35.5	27.2	0.00e+00	0	41	0	1958739968	42	6039
2026-01-24 19:40:35.37	331.19	21.90	-34.7	-35.3	27.2	0.00e+00	0	41	0	1965031424	42	5922
2026-01-24 19:40:36.38	330.92	21.90	-34.3	-34.9	27.4	0.00e+00	0	41	0	1970274304	42	5668
2026-01-24 19:40:37.39	330.65	21.90	-34.3	-34.9	27.3	0.00e+00	0	41	0	1976565760	42	5652
2026-01-24 19:40:38.40	330.38	21.90	-34.5	-35.2	27.3	0.00e+00	0	41	0	1981808640	42	5856
2026-01-24 19:40:39.41	330.12	21.90	-34.4	-35.1	27.3	0.00e+00	0	41	0	1987051520	42	5788
2026-01-24 19:40:40.42	329.85	21.90	-34.7	-35.4	27.3	0.00e+00	0	41	0	1993342976	42	5995
2026-01-24 19:40:41.42	329.58	21.90	-34.9	-35.6	27.3	0.00e+00	0	41	0	1998585856	42	6106
2026-01-24 19:40:42.44	329.31	21.90	-34.8	-35.4	27.3	0.00e+00	0	41	0	2004877312	42	6003
2026-01-24 19:40:43.45	329.04	21.89	-34.7	-35.4	27.2	0.00e+00	0	41	0	2010120192	42	5967
2026-01-24 19:40:44.45	328.78	21.89	-34.8	-35.4	27.2	0.00e+00	0	41	0	2016411648	42	5977
2026-01-24 19:40:45.46	328.51	21.89	-34.4	-35.1	27.2	0.00e+00	0	41	0	2021654528	42	5762
2026-01-24 19:40:46.47	328.24	21.88	-35.0	-35.6	26.9	0.00e+00	0	41	0	2026897408	42	6142
2026-01-24 19:40:47.48	327.97	21.87	-35.5	-36.2	26.8	0.00e+00	0	41	0	2033188864	42	6546
2026-01-24 19:40:48.49	327.71	21.87	-35.2	-35.8	26.7	0.00e+00	0	41	0	2038431744	42	6315
2026-01-24 19:40:49.50	327.44	21.86	-35.2	-35.9	26.7	0.00e+00	0	41	0	2044723200	42	6326
2026-01-24 19:40:50.52	327.17	21.85	-35.1	-35.8	26.9	0.00e+00	0	41	0	2049966080	42	6249
2026-01-24 19:40:51.52	326.90	21.84	-35.6	-36.3	26.7	0.00e+00	0	41	0	2055208960	42	6617
2026-01-24 19:40:52.53	326.64	21.83	-35.4	-36.1	26.8	0.00e+00	0	41	0	2061500416	42	6480
2026-01-24 19:40:53.54	326.37	21.82	-35.3	-35.9	27.0	0.00e+00	0	41	0	2066743296	42	6360
2026-01-24 19:40:54.55	326.10	21.81	-35.4	-36.1	26.8	0.00e+00	0	41	0	2073034752	42	6482
2026-01-24 19:40:55.56	325.84	21.80	-35.4	-36.0	26.9	0.00e+00	0	41	0	2078277632	42	6445
2026-01-24 19:40:56.57	325.57	21.79	-35.4	-36.0	27.1	0.00e+00	0	41	0	2083520512	42	6399
2026-01-24 19:40:57.58	325.30	21.78	-35.0	-35.6	27.2	0.00e+00	0	41	0	2089811968	42	6167
2026-01-24 19:40:58.59	325.04	21.77	-35.2	-35.8	27.2	0.00e+00	0	41	0	2095054848	42	6247
2026-01-24 19:40:59.60	324.77	21.75	-35.2	-35.8	27.2	0.00e+00	0	41	0	2101346304	42	6311
2026-01-24 19:41:00.61	324.51	21.74	-34.8	-35.5	27.2	0.00e+00	0	41	0	2106589184	42	6045
2026-01-24 19:41:01.62	324.24	21.72	-34.6	-35.2	27.3	0.00e+00	0	41	0	2112880640	42	5871
2026-01-24 19:41:02.63	323.98	21.71	-34.6	-35.2	27.3	0.00e+00	0	41	0	2118123520	42	5880
2026-01-24 19:41:03.64	323.71	21.69	-34.4	-35.0	27.4	0.00e+00	0	41	0	2124414976	42	5757
2026-01-24 19:41:04.65	323.45	21.67	-34.6	-35.3	27.3	0.00e+00	0	41	0	2129657856	42	5900
2026-01-24 19:41:05.66	323.18	21.65	-34.7	-35.4	27.4	0.00e+00	0	41	0	2134900736	42	5971
2026-01-24 19:41:06.67	322.92	21.64	-35.2	-35.8	27.2	0.00e+00	0	41	0	2141192192	42	6300
2026-01-24 19:41:07.68	322.66	21.62	-34.9	-35.6	27.3	0.00e+00	0	41	0	2146435072	42	6125
2026-01-24 19:41:08.69	322.39	21.60	-34.8	-35.4	27.4	0.00e+00	0	41	0	2152726528	42	6007
2026-01-24 19:41:09.70	322.13	21.58	-34.6	-35.2	27.4	0.00e+00	0	41	0	2157969408	42	5854
2026-01-24 19:41:10.70	321.87	21.56	-34.8	-35.4	27.3	0.00e+00	0	41	0	2163212288	42	6020
2026-01-24 19:41:11.71	321.61	21.54	-34.7	-35.3	27.2	0.00e+00	0	41	0	2169503744	42	5944
2026-01-24 19:41:12.72	321.35	21.51	-35.1	-35.7	27.2	0.00e+00	0	41	0	2174746624	42	6236
2026-01-24 19:41:13.73	321.09	21.49	-34.7	-35.3	27.3	0.00e+00	0	41	0	2181038080	42	5953
2026-01-24 19:41:14.75	320.82	21.47	-34.3	-35.0	27.4	0.00e+00	0	41	0	2186280960	42	5697
2026-01-24 19:41:15.76	320.56	21.44	-34.2	-34.8	27.5	0.00e+00	0	41	0	2191523840	42	5589
2026-01-24 19:41:16.77	320.30	21.42	-34.2	-34.9	27.4	0.00e+00	0	41	0	2197815296	42	5661
2026-01-24 19:41:17.78	320.04	21.39	-34.0	-34.6	27.4	0.00e+00	0	41	0	2203058176	42	5493
2026-01-24 19:41:18.79	319.78	21.37	-34.0	-34.6	27.3	0.00e+00	0	41	0	2209349632	42	5478
2026-01-24 19:41:19.80	319.52	21.34	-34.2	-34.9	27.1	0.00e+00	0	41	0	2214592512	42	5652
2026-01-24 19:41:20.81	319.26	21.31	-34.8	-35.4	26.8	0.00e+00	0	41	0	2220883968	42	5994
2026-01-24 19:41:21.82	319.01	21.29	-34.4	-35.0	27.1	0.00e+00	0	41	0	2226126848	42	5709
2026-01-24 19:41:22.83	318.75	21.26	-34.5	-35.2	27.1	0.00e+00	0	41	0	2231369728	42	5840
2026-01-24 19:41:23.83	318.49	21.23	-35.0	-35.7	27.2	0.00e+00	0	41	0	2237661184	42	6194
2026-01-24 19:41:24.84	318.24	21.20	-34.8	-35.4	27.3	0.00e+00	0	41	0	2242904064	42	6029
2026-01-24 19:41:25.85	317.98	21.17	-34.5	-35.1	27.4	0.00e+00	0	41	0	2249195520	42	5767
2026-01-24 19:41:26.86	317.73	21.14	-34.4	-35.1	27.3	0.00e+00	0	41	0	2254438400	42	5799
2026-01-24 19:41:27.87	317.47	21.11	-34.4	-35.1	27.1	0.00e+00	0	41	0	2259681280	42	5793
2026-01-24 19:41:28.88	317.22	21.08	-34.2	-34.9	27.2	0.00e+00	0	41	0	2265972736	42	5674
2026-01-24 19:41:29.89	316.96	21.05	-34.3	-34.8	27.2	0.00e+00	0	41	0	2271215616	42	5625
2026-01-24 19:41:30.90	316.71	21.01	-34.2	-34.8	27.3	0.00e+00	0	41	0	2277507072	42	5571
2026-01-24 19:41:31.91	316.46	20.98	-34.1	-34.7	27.4	0.00e+00	0	41	0	2282749952	42	5551
2026-01-24 19:41:32.92	316.20	20.95	-33.9	-34.4	27.6	0.00e+00	0	41	0	2287992832	42	5375
2026-01-24 19:41:33.93	315.95	20.91	-34.0	-34.6	27.4	0.00e+00	0	41	0	2294284288	42	5495
2026-01-24 19:41:34.94	315.70	20.88	-34.1	-34.9	27.3	0.00e+00	0	41	0	2299527168	42	5639
2026-01-24 19:41:35.95	315.45	20.84	-34.3	-34.9	27.1	0.00e+00	0	41	0	2305818624	42	5654
2026-01-24 19:41:36.96	315.20	20.81	-34.5	-35.2	26.9	0.00e+00	0	41	0	2311061504	42	5835
2026-01-24 19:41:37.97	314.95	20.77	-34.2	-34.9	27.2	0.00e+00	0	41	0	2317352960	42	5667
2026-01-24 19:41:38.98	314.70	20.73	-34.5	-35.2	27.0	0.00e+00	0	41	0	2322595840	42	5873
2026-01-24 19:41:39.99	314.45	20.70	-34.5	-35.2	27.0	0.00e+00	0	41	0	2328887296	42	5895
2026-01-24 19:41:41.00	314.20	20.66	-34.8	-35.5	26.8	0.00e+00	0	41	0	2334130176	42	6059
2026-01-24 19:41:42.01	313.96	20.62	-34.9	-35.6	26.7	0.00e+00	0	41	0	2339373056	42	6156
2026-01-24 19:41:43.02	313.71	20.58	-35.0	-35.7	26.8	0.00e+00	0	41	0	2345664512	42	6209
2026-01-24 19:41:44.03	313.46	20.54	-34.9	-35.6	26.6	0.00e+00	0	41	0	2350907392	42	6152
2026-01-24 19:41:45.04	313.22	20.50	-34.8	-35.6	26.9	0.00e+00	0	41	0	2357198848	42	6112
2026-01-24 19:41:46.05	312.98	20.46	-34.9	-35.6	26.9	0.00e+00	0	41	0	2362441728	42	6140
2026-01-24 19:41:47.06	312.73	20.42	-34.9	-35.5	27.0	0.00e+00	0	41	0	2367684608	42	6063
2026-01-24 19:41:48.07	312.49	20.38	-34.8	-35.5	27.2	0.00e+00	0	41	0	2373976064	42	6056
2026-01-24 19:41:49.08	312.25	20.34	-35.0	-35.7	27.2	0.00e+00	0	41	0	2379218944	42	6176
2026-01-24 19:41:50.09	312.00	20.29	-34.8	-35.4	27.2	0.00e+00	0	41	0	2385510400	42	5977
2026-01-24 19:41:51.10	311.76	20.25	-34.8	-35.4	27.2	0.00e+00	0	41	0	2390753280	42	6007
2026-01-24 19:41:52.11	311.52	20.21	-34.8	-35.4	27.2	0.00e+00	0	41	0	2395996160	42	5995
2026-01-24 19:41:53.12	311.28	20.16	-35.0	-35.6	27.1	0.00e+00	0	41	0	2402287616	42	6130
2026-01-24 19:41:54.12	311.04	20.12	-34.8	-35.4	27.2	0.00e+00	0	41	0	2407530496	42	5995
2026-01-24 19:41:55.13	310.81	20.08	-34.8	-35.5	27.2	0.00e+00	0	41	0	2413821952	42	6068
2026-01-24 19:41:56.14	310.57	20.03	-34.9	-35.5	27.1	0.00e+00	0	41	0	2419064832	42	6098
2026-01-24 19:41:57.15	310.33	19.99	-34.9	-35.5	27.1	0.00e+00	0	41	0	2425356288	42	6048
2026-01-24 19:41:58.16	310.09	19.94	-34.9	-35.6	27.0	0.00e+00	0	41	0	2430599168	42	6109
2026-01-24 19:41:59.17	309.86	19.89	-35.0	-35.7	26.9	0.00e+00	0	41	0	2435842048	42	6184
2026-01-24 19:42:00.18	309.62	19.85	-34.9	-35.5	26.9	0.00e+00	0	41	0	2442133504	42	6081
2026-01-24 19:42:01.18	309.39	19.80	-34.8	-35.4	26.9	0.00e+00	0	41	0	2447376384	42	5975
2026-01-24 19:42:02.19	309.16	19.75	-34.7	-35.4	27.0	0.00e+00	0	41	0	2453667840	42	5972
2026-01-24 19:42:03.20	308.93	19.70	-34.8	-35.4	26.9	0.00e+00	0	41	0	2458910720	42	5992
2026-01-24 19:42:04.22	308.69	19.66	-34.9	-35.6	26.8	0.00e+00	0	41	0	2464153600	42	6157
2026-01-24 19:42:05.23	308.46	19.61	-35.1	-35.8	26.9	0.00e+00	0	41	0	2470445056	42	6276
2026-01-24 19:42:06.24	308.23	19.56	-35.0	-35.7	26.8	0.00e+00	0	41	0	2475687936	42	6211
2026-01-24 19:42:07.25	308.00	19.51	-35.0	-35.6	26.7	0.00e+00	0	41	0	2481979392	42	6172
2026-01-24 19:42:08.26	307.77	19.46	-34.8	-35.4	26.9	0.00e+00	0	41	0	2487222272	42	6032
2026-01-24 19:42:09.26	307.54	19.41	-34.9	-35.6	26.8	0.00e+00	0	41	0	2492465152	42	6156
2026-01-24 19:42:10.27	307.32	19.36	-34.6	-35.3	27.1	0.00e+00	0	41	0	2498756608	42	5912
2026-01-24 19:42:11.28	307.09	19.31	-34.8	-35.4	26.9	0.00e+00	0	41	0	2503999488	42	5986
2026-01-24 19:42:12.29	306.86	19.26	-34.6	-35.2	26.9	0.00e+00	0	41	0	2510290944	42	5887
2026-01-24 19:42:13.30	306.64	19.20	-34.5	-35.2	26.8	0.00e+00	0	41	0	2515533824	42	5872
2026-01-24 19:42:14.31	306.41	19.15	-34.9	-35.5	26.9	0.00e+00	0	41	0	2521825280	42	6080
2026-01-24 19:42:15.32	306.19	19.10	-34.9	-35.5	26.8	0.00e+00	0	41	0	2527068160	42	6052
2026-01-24 19:42:16.33	305.97	19.05	-35.1	-35.7	26.6	0.00e+00	0	41	0	2532311040	42	6242
2026-01-24 19:42:17.34	305.75	18.99	-35.5	-36.1	26.7	0.00e+00	0	41	0	2538602496	42	6536
2026-01-24 19:42:18.35	305.52	18.94	-35.3	-35.9	26.7	0.00e+00	0	41	0	2543845376	42	6346
2026-01-24 19:42:19.36	305.30	18.89	-35.3	-36.0	26.6	0.00e+00	0	41	0	2550136832	42	6442
2026-01-24 19:42:20.37	305.08	18.83	-35.1	-35.8	26.6	0.00e+00	0	41	0	2555379712	42	6258
2026-01-24 19:42:21.38	304.86	18.78	-35.6	-36.1	26.5	0.00e+00	0	41	0	2560622592	42	6528
2026-01-24 19:42:22.39	304.65	18.72	-35.7	-36.3	26.5	0.00e+00	0	41	0	2566914048	42	6637
2026-01-24 19:42:23.40	304.43	18.67	-35.6	-36.2	26.4	0.00e+00	0	41	0	2572156928	44	5859
2026-01-24 19:42:24.41	304.21	18.61	-35.8	-36.5	26.3	0.00e+00	0	41	0	2578448384	44	6060
2026-01-24 19:42:25.41	304.00	18.56	-35.6	-36.2	26.4	0.00e+00	0	41	0	2583691264	44	5857
2026-01-24 19:42:26.42	303.78	18.50	-35.4	-36.0	26.5	0.00e+00	0	41	0	2588934144	44	5743
2026-01-24 19:42:27.43	303.57	18.44	-35.5	-36.1	26.2	0.00e+00	0	41	0	2595225600	44	5827
2026-01-24 19:42:28.44	303.36	18.39	-35.3	-36.0	26.6	0.00e+00	0	41	0	2600468480	44	5723
2026-01-24 19:42:29.45	303.14	18.33	-35.3	-35.9	26.4	0.00e+00	0	41	0	2606759936	44	5663
2026-01-24 19:42:30.46	302.93	18.27	-35.3	-36.0	26.5	0.00e+00	0	41	0	2612002816	44	5702
2026-01-24 19:42:31.47	302.72	18.22	-35.3	-35.8	26.4	0.00e+00	0	41	0	2618294272	44	5620
2026-01-24 19:42:32.48	302.51	18.16	-35.4	-36.1	26.4	0.00e+00	0	41	0	2623537152	44	5813
2026-01-24 19:42:33.49	302.30	18.10	-35.7	-36.3	26.4	0.00e+00	0	41	0	2629828608	44	5937
2026-01-24 19:42:34.50	302.09	18.04	-35.5	-36.2	26.5	0.00e+00	0	41	0	2635071488	44	5843
2026-01-24 19:42:35.51	301.88	17.98	-35.5	-36.2	26.6	0.00e+00	0	41	0	2640314368	44	5845
2026-01-24 19:42:36.52	301.68	17.93	-35.1	-35.7	26.6	0.00e+00	0	41	0	2646605824	44	5528
2026-01-24 19:42:37.52	301.47	17.87	-34.9	-35.6	26.7	0.00e+00	0	41	0	2651848704	44	5452
2026-01-24 19:42:38.53	301.27	17.81	-34.9	-35.6	26.6	0.00e+00	0	41	0	2657091584	44	5443
2026-01-24 19:42:39.54	301.06	17.75	-34.9	-35.5	26.7	0.00e+00	0	41	0	2663383040	42	6093
2026-01-24 19:42:40.55	300.86	17.69	-34.9	-35.5	26.6	0.00e+00	0	41	0	2668625920	42	6052
2026-01-24 19:42:41.56	300.66	17.63	-34.9	-35.5	26.5	0.00e+00	0	41	0	2674917376	42	6046
2026-01-24 19:42:42.57	300.45	17.57	-34.9	-35.6	26.6	0.00e+00	0	41	0	2680160256	42	6172
2026-01-24 19:42:43.58	300.25	17.51	-34.9	-35.6	26.5	0.00e+00	0	41	0	2685403136	42	6159
2026-01-24 19:42:44.59	300.05	17.45	-34.9	-35.5	26.5	0.00e+00	0	41	0	2691694592	42	6057
2026-01-24 19:42:45.60	299.85	17.39	-35.0	-35.7	26.5	0.00e+00	0	41	0	2696937472	42	6199
2026-01-24 19:42:46.61	299.65	17.33	-35.1	-35.8	26.4	0.00e+00	0	41	0	2703228928	42	6291
2026-01-24 19:42:47.62	299.46	17.26	-35.4	-36.2	26.3	0.00e+00	0	41	0	2708471808	42	6552
2026-01-24 19:42:48.63	299.26	17.20	-35.7	-36.4	26.2	0.00e+00	0	41	0	2714763264	42	6750
2026-01-24 19:42:49.64	299.06	17.14	-35.5	-36.1	26.5	0.00e+00	0	41	0	2720006144	42	6491
2026-01-24 19:42:50.64	298.87	17.08	-35.4	-36.1	26.4	0.00e+00	0	41	0	2726297600	42	6484
2026-01-24 19:42:51.65	298.67	17.02	-35.6	-36.2	26.2	0.00e+00	0	41	0	2731540480	42	6575
2026-01-24 19:42:52.66	298.48	16.96	-35.5	-36.3	26.2	0.00e+00	0	41	0	2736783360	42	6626
2026-01-24 19:42:53.67	298.29	16.89	-35.5	-36.3	26.1	0.00e+00	0	41	0	2743074816	42	6623
2026-01-24 19:42:54.68	298.09	16.83	-35.5	-36.1	26.1	0.00e+00	0	41	0	2748317696	42	6487
2026-01-24 19:42:55.69	297.90	16.77	-35.4	-36.0	26.1	0.00e+00	0	41	0	2754609152	42	6459
2026-01-24 19:42:56.70	297.71	16.71	-35.3	-36.0	26.2	0.00e+00	0	41	0	2759852032	42	6426
2026-01-24 19:42:57.71	297.52	16.64	-35.4	-36.1	25.9	0.00e+00	0	41	0	2765094912	42	6465
2026-01-24 19:42:58.72	297.33	16.58	-35.3	-35.9	26.1	0.00e+00	0	41	0	2771386368	42	6383
2026-01-24 19:42:59.73	297.14	16.52	-35.5	-36.1	26.0	0.00e+00	0	41	0	2776629248	42	6532
2026-01-24 19:43:00.74	296.96	16.45	-35.5	-36.1	25.9	0.00e+00	0	41	0	2782920704	42	6514
2026-01-24 19:43:01.75	296.77	16.39	-35.6	-36.2	25.8	0.00e+00	0	41	0	2788163584	44	5853
2026-01-24 19:43:02.76	296.58	16.33	-35.5	-36.2	25.9	0.00e+00	0	41	0	2793406464	44	5874
2026-01-24 19:43:03.77	296.40	16.26	-35.4	-36.1	26.0	0.00e+00	0	41	0	2799697920	44	5805
2026-01-24 19:43:04.78	296.21	16.20	-35.3	-36.0	26.0	0.00e+00	0	41	0	2804940800	44	5716
2026-01-24 19:43:05.79	296.03	16.13	-35.1	-35.9	26.1	0.00e+00	0	41	0	2811232256	44	5632
2026-01-24 19:43:06.79	295.85	16.07	-35.4	-35.9	26.0	0.00e+00	0	41	0	2816475136	44	5682
2026-01-24 19:43:07.80	295.67	16.01	-35.8	-36.5	25.5	0.00e+00	0	41	0	2822766592	44	6063
2026-01-24 19:43:08.81	295.48	15.94	-35.9	-36.5	25.8	0.00e+00	0	41	0	2828009472	44	6080
2026-01-24 19:43:09.82	295.30	15.88	-36.0	-36.8	25.7	0.00e+00	0	41	0	2833252352	44	6278
2026-01-24 19:43:10.83	295.12	15.81	-35.5	-36.2	26.0	0.00e+00	0	41	0	2839543808	44	5843
2026-01-24 19:43:11.84	294.95	15.75	-35.6	-36.3	25.9	0.00e+00	0	41	0	2844786688	44	5934
2026-01-24 19:43:12.85	294.77	15.68	-35.6	-36.3	26.0	0.00e+00	0	41	0	2851078144	44	5929
2026-01-24 19:43:13.86	294.59	15.62	-35.5	-36.2	26.1	0.00e+00	0	41	0	2856321024	44	5895
2026-01-24 19:43:14.87	294.41	15.55	-35.6	-36.2	26.0	0.00e+00	0	41	0	2861563904	44	5848
2026-01-24 19:43:15.88	294.24	15.49	-36.1	-36.7	25.6	0.00e+00	0	41	0	2867855360	44	6221
2026-01-24 19:43:16.89	294.06	15.42	-36.3	-37.0	25.4	0.00e+00	0	41	0	2873098240	44	6418
2026-01-24 19:43:17.90	293.89	15.36	-36.0	-36.6	25.7	0.00e+00	0	41	0	2879389696	44	6168
2026-01-24 19:43:18.91	293.72	15.29	-36.0	-36.7	25.7	0.00e+00	0	41	0	2884632576	44	6196
2026-01-24 19:43:19.92	293.54	15.23	-35.7	-36.4	25.9	0.00e+00	0	41	0	2889875456	44	5965
2026-01-24 19:43:20.92	293.37	15.16	-35.7	-36.4	25.8	0.00e+00	0	41	0	2896166912	44	5975
2026-01-24 19:43:21.93	293.20	15.10	-35.8	-36.6	25.7	0.00e+00	0	41	0	2901409792	44	6115
2026-01-24 19:43:22.94	293.03	15.03	-35.7	-36.4	25.7	0.00e+00	0	41	0	2907701248	44	6030
2026-01-24 19:43:23.95	292.86	14.96	-36.2	-36.8	25.4	0.00e+00	0	41	0	2912944128	44	6316
2026-01-24 19:43:24.96	292.69	14.90	-36.6	-37.4	25.2	0.00e+00	0	41	0	2919235584	46	5976
2026-01-24 19:43:25.97	292.52	14.83	-36.5	-37.1	25.3	0.00e+00	0	41	0	2924478464	46	5773
2026-01-24 19:43:26.98	292.36	14.76	-36.4	-37.0	25.4	0.00e+00	0	41	0	2929721344	46	5745
2026-01-24 19:43:27.99	292.19	14.70	-36.7	-37.5	24.9	0.00e+00	0	41	0	2936012800	46	6066
2026-01-24 19:43:29.00	292.02	14.63	-36.2	-37.0	25.2	0.00e+00	0	41	0	2941255680	46	5728
2026-01-24 19:43:30.02	291.86	14.57	-36.0	-36.7	25.6	0.00e+00	0	41	0	2947547136	46	5508
2026-01-24 19:43:31.02	291.69	14.50	-35.7	-36.3	25.7	0.00e+00	0	41	0	2952790016	44	5934
2026-01-24 19:43:32.03	291.53	14.43	-35.8	-36.4	25.6	0.00e+00	0	41	0	2958032896	44	6025
2026-01-24 19:43:33.04	291.37	14.37	-36.2	-36.9	25.3	0.00e+00	0	41	0	2964324352	44	6387
2026-01-24 19:43:34.05	291.21	14.30	-36.2	-36.9	25.3	0.00e+00	0	41	0	2969567232	44	6376
2026-01-24 19:43:35.06	291.04	14.23	-36.1	-36.7	25.5	0.00e+00	0	41	0	2975858688	44	6186
2026-01-24 19:43:36.07	290.88	14.17	-36.0	-36.7	25.6	0.00e+00	0	41	0	2981101568	44	6222
2026-01-24 19:43:37.08	290.72	14.10	-35.9	-36.5	25.5	0.00e+00	0	41	0	2986344448	44	6059
2026-01-24 19:43:38.09	290.57	14.03	-36.1	-36.8	25.3	0.00e+00	0	41	0	2992635904	44	6298
2026-01-24 19:43:39.10	290.41	13.97	-36.0	-36.8	25.3	0.00e+00	0	41	0	2997878784	44	6246
2026-01-24 19:43:40.11	290.25	13.90	-36.1	-36.9	25.3	0.00e+00	0	41	0	3004170240	44	6353
2026-01-24 19:43:41.12	290.09	13.83	-36.1	-36.7	25.3	0.00e+00	0	41	0	3009413120	44	6239
2026-01-24 19:43:42.13	289.94	13.77	-36.2	-36.8	25.1	0.00e+00	0	41	0	3015704576	44	6295
2026-01-24 19:43:43.14	289.78	13.70	-36.3	-37.0	25.2	0.00e+00	0	41	0	3020947456	44	6408
2026-01-24 19:43:44.15	289.63	13.63	-36.3	-36.9	25.2	0.00e+00	0	41	0	3026190336	44	6363
2026-01-24 19:43:45.16	289.47	13.57	-36.4	-37.0	25.1	0.00e+00	0	41	0	3032481792	44	6440
2026-01-24 19:43:46.16	289.32	13.50	-36.5	-37.1	25.0	0.00e+00	0	41	0	3037724672	44	6512
2026-01-24 19:43:47.17	289.17	13.43	-36.2	-36.8	25.1	0.00e+00	0	41	0	3044016128	44	6286
2026-01-24 19:43:48.18	289.01	13.36	-36.3	-36.9	25.2	0.00e+00	0	41	0	3049259008	44	6329
2026-01-24 19:43:49.19	288.86	13.30	-36.3	-37.0	25.2	0.00e+00	0	41	0	3055550464	44	6417
2026-01-24 19:43:50.20	288.71	13.23	-36.3	-37.1	25.2	0.00e+00	0	41	0	3060793344	44	6490
2026-01-24 19:43:51.21	288.56	13.16	-36.4	-37.0	25.0	0.00e+00	0	41	0	3066036224	44	6432
2026-01-24 19:43:52.22	288.41	13.10	-36.2	-36.9	25.1	0.00e+00	0	41	0	3072327680	44	6385
2026-01-24 19:43:53.23	288.26	13.03	-36.2	-36.8	25.2	0.00e+00	0	41	0	3077570560	44	6297
2026-01-24 19:43:54.24	288.12	12.96	-36.5	-37.1	25.1	0.00e+00	0	41	0	3083862016	44	6510
2026-01-24 19:43:55.25	287.97	12.90	-36.2	-37.0	25.1	0.00e+00	0	41	0	3089104896	44	6416
2026-01-24 19:43:56.26	287.82	12.83	-36.5	-37.1	25.1	0.00e+00	0	41	0	3094347776	44	6518
2026-01-24 19:43:57.27	287.68	12.76	-37.0	-37.7	24.7	0.00e+00	0	41	0	3100639232	46	6224
2026-01-24 19:43:58.28	287.53	12.69	-37.0	-37.6	24.5	0.00e+00	0	41	0	3105882112	46	6153
2026-01-24 19:43:59.28	287.39	12.63	-37.2	-37.9	24.4	0.00e+00	0	41	0	3112173568	46	6336
2026-01-24 19:44:00.29	287.24	12.56	-37.5	-38.2	24.1	0.00e+00	0	41	0	3117416448	48	5876
2026-01-24 19:44:01.31	287.10	12.49	-37.4	-38.1	24.1	0.00e+00	0	41	0	3122659328	48	5772
2026-01-24 19:44:02.31	286.96	12.43	-37.6	-38.3	24.0	0.00e+00	0	41	0	3128950784	48	5963
2026-01-24 19:44:03.32	286.82	12.36	-37.6	-38.3	24.0	0.00e+00	0	41	0	3134193664	48	5935
2026-01-24 19:44:04.33	286.68	12.29	-37.1	-37.9	24.5	0.00e+00	0	41	0	3140485120	48	5631
2026-01-24 19:44:05.34	286.53	12.23	-37.4	-38.0	24.0	0.00e+00	0	41	0	3145728000	48	5742
2026-01-24 19:44:06.35	286.40	12.16	-37.6	-38.3	23.8	0.00e+00	0	41	0	3152019456	48	5907
2026-01-24 19:44:07.36	286.26	12.09	-38.0	-38.7	24.0	0.00e+00	0	41	0	3157262336	50	5531
2026-01-24 19:44:08.37	286.12	12.02	-37.1	-37.7	24.6	0.00e+00	0	41	0	3162505216	48	5551
2026-01-24 19:44:09.38	285.98	11.96	-37.3	-38.0	24.5	0.00e+00	0	41	0	3168796672	48	5716
2026-01-24 19:44:10.39	285.84	11.89	-37.1	-37.9	24.6	0.00e+00	0	41	0	3174039552	48	5631
2026-01-24 19:44:11.40	285.71	11.82	-37.2	-37.8	24.3	0.00e+00	0	41	0	3180331008	48	5629
2026-01-24 19:44:12.41	285.57	11.76	-37.1	-37.8	24.5	0.00e+00	0	42	0	3185573888	48	5616
2026-01-24 19:44:13.42	285.43	11.69	-37.0	-37.7	24.5	0.00e+00	0	41	0	3190816768	48	5520
2026-01-24 19:44:14.44	285.30	11.62	-36.7	-37.3	24.7	0.00e+00	0	41	0	3197108224	48	5262
2026-01-24 19:44:15.44	285.16	11.56	-37.0	-37.6	24.4	0.00e+00	0	41	0	3202351104	46	6151
2026-01-24 19:44:16.45	285.03	11.49	-36.7	-37.4	24.7	0.00e+00	0	41	0	3208642560	46	6013
2026-01-24 19:44:17.46	284.90	11.42	-36.8	-37.5	24.5	0.00e+00	0	41	0	3213885440	46	6063
2026-01-24 19:44:18.47	284.77	11.36	-36.6	-37.2	24.7	0.00e+00	0	41	0	3220176896	46	5888
2026-01-24 19:44:19.48	284.63	11.29	-36.8	-37.4	24.6	0.00e+00	0	41	0	3225419776	46	5990
2026-01-24 19:44:20.49	284.50	11.22	-36.8	-37.6	24.4	0.00e+00	0	42	0	3230662656	46	6110
2026-01-24 19:44:21.50	284.37	11.16	-36.6	-37.3	24.6	0.00e+00	0	41	0	3236954112	46	5906
2026-01-24 19:44:22.51	284.24	11.09	-36.9	-37.7	24.6	0.00e+00	0	42	0	3242196992	46	6184
2026-01-24 19:44:23.52	284.11	11.02	-37.1	-37.7	24.4	0.00e+00	0	42	0	3248488448	46	6235
2026-01-24 19:44:24.53	283.98	10.96	-37.1	-37.8	24.4	0.00e+00	0	41	0	3253731328	46	6299
2026-01-24 19:44:25.53	283.86	10.89	-37.1	-37.9	24.3	0.00e+00	0	41	0	3260022784	46	6345
2026-01-24 19:44:26.55	283.73	10.82	-37.2	-38.0	24.3	0.00e+00	0	41	0	3265265664	46	6427
2026-01-24 19:44:27.55	283.60	10.76	-37.1	-37.9	24.2	0.00e+00	0	42	0	3270508544	46	6356
2026-01-24 19:44:28.56	283.48	10.69	-37.1	-37.7	24.3	0.00e+00	0	41	0	3276800000	46	6227
2026-01-24 19:44:29.57	283.35	10.62	-37.2	-37.9	24.1	0.00e+00	0	41	0	3282042880	46	6332
2026-01-24 19:44:30.58	283.23	10.56	-37.1	-37.8	24.3	0.00e+00	0	41	0	3287285760	46	6252
2026-01-24 19:44:31.59	283.10	10.49	-37.2	-38.0	24.3	0.00e+00	0	41	0	3293577216	46	6452
2026-01-24 19:44:32.60	282.98	10.43	-37.4	-38.0	24.2	0.00e+00	0	41	0	3298820096	46	6437
2026-01-24 19:44:33.61	282.85	10.36	-37.4	-38.0	24.1	0.00e+00	0	41	0	3305111552	46	6422
2026-01-24 19:44:34.62	282.73	10.29	-37.2	-38.0	24.2	0.00e+00	0	41	0	3310354432	46	6427
2026-01-24 19:44:35.63	282.61	10.23	-37.0	-37.6	24.3	0.00e+00	0	41	0	3315597312	46	6160
2026-01-24 19:44:36.63	282.49	10.16	-37.2	-37.9	24.1	0.00e+00	0	41	0	3321888768	46	6366
2026-01-24 19:44:37.64	282.37	10.10	-37.1	-37.9	24.2	0.00e+00	0	41	0	3327131648	46	6341
2026-01-24 19:44:38.65	282.25	10.03	-37.2	-37.9	24.1	0.00e+00	0	41	0	3333423104	46	6330
2026-01-24 19:44:39.66	282.13	9.96	-37.3	-37.9	24.0	0.00e+00	0	41	0	3338665984	46	6388
2026-01-24 19:44:40.67	282.01	9.90	-37.3	-37.9	24.0	0.00e+00	0	42	0	3344957440	46	6379
2026-01-24 19:44:41.68	281.89	9.83	-37.5	-38.2	23.7	0.00e+00	0	42	0	3350200320	46	6565
2026-01-24 19:44:42.69	281.77	9.77	-37.7	-38.3	23.5	0.00e+00	0	42	0	3356491776	46	6691
2026-01-24 19:44:43.70	281.65	9.70	-37.7	-38.3	23.6	0.00e+00	0	41	0	3361734656	46	6668
2026-01-24 19:44:44.71	281.53	9.64	-37.8	-38.5	23.5	0.00e+00	0	42	0	3366977536	48	6041
2026-01-24 19:44:45.72	281.42	9.57	-37.8	-38.4	23.4	0.00e+00	0	41	0	3373268992	48	6003
2026-01-24 19:44:46.73	281.30	9.51	-38.1	-38.7	23.4	0.00e+00	0	41	0	3378511872	48	6242
2026-01-24 19:44:47.74	281.18	9.44	-37.7	-38.4	23.6	0.00e+00	0	42	0	3384803328	48	6006
2026-01-24 19:44:48.75	281.07	9.37	-37.8	-38.4	23.3	0.00e+00	0	42	0	3390046208	48	6030
2026-01-24 19:44:49.76	280.95	9.31	-37.5	-38.2	23.7	0.00e+00	0	41	0	3395289088	48	5837
2026-01-24 19:44:50.77	280.84	9.24	-37.3	-37.9	23.9	0.00e+00	0	41	0	3401580544	48	5686
2026-01-24 19:44:51.78	280.73	9.18	-37.7	-38.4	23.4	0.00e+00	0	42	0	3406823424	48	6013
2026-01-24 19:44:52.79	280.61	9.11	-37.5	-38.3	23.6	0.00e+00	0	42	0	3413114880	48	5959
2026-01-24 19:44:53.80	280.50	9.05	-37.7	-38.3	23.5	0.00e+00	0	41	0	3418357760	48	5960
2026-01-24 19:44:54.81	280.39	8.98	-37.4	-38.1	23.7	0.00e+00	0	41	0	3423600640	48	5776
2026-01-24 19:44:55.81	280.28	8.92	-38.0	-38.8	23.1	0.00e+00	0	41	0	3429892096	48	6299
2026-01-24 19:44:56.82	280.17	8.85	-38.3	-39.1	23.0	0.00e+00	0	41	0	3435134976	48	6524
2026-01-24 19:44:57.83	280.06	8.79	-37.7	-38.3	23.5	0.00e+00	0	41	0	3441426432	48	5961
2026-01-24 19:44:58.84	279.95	8.73	-37.7	-38.5	23.4	0.00e+00	0	42	0	3446669312	48	6087
2026-01-24 19:44:59.85	279.84	8.66	-36.9	-37.6	24.2	0.00e+00	0	42	0	3452960768	48	5440
2026-01-24 19:45:00.86	279.73	8.60	-37.5	-38.2	23.6	0.00e+00	0	42	0	3458203648	48	5848
2026-01-24 19:45:01.87	279.62	8.53	-37.9	-38.7	23.3	0.00e+00	0	41	0	3463446528	48	6190
2026-01-24 19:45:02.88	279.51	8.47	-37.8	-38.5	23.4	0.00e+00	0	41	0	3469737984	48	6068
2026-01-24 19:45:03.89	279.40	8.40	-38.4	-39.1	22.9	0.00e+00	0	41	0	3474980864	48	6535
2026-01-24 19:45:04.90	279.30	8.34	-38.2	-39.0	23.2	0.00e+00	0	41	0	3481272320	48	6405
2026-01-24 19:45:05.91	279.19	8.27	-38.3	-39.0	23.0	0.00e+00	0	41	0	3486515200	50	5708
2026-01-24 19:45:06.92	279.08	8.21	-38.2	-39.0	23.1	0.00e+00	0	42	0	3491758080	50	5729
2026-01-24 19:45:07.93	278.98	8.15	-38.3	-39.0	23.0	0.00e+00	0	41	0	3498049536	50	5703
2026-01-24 19:45:08.94	278.87	8.08	-38.0	-38.7	23.1	0.00e+00	0	42	0	3503292416	50	5556
2026-01-24 19:45:09.95	278.77	8.02	-38.3	-39.0	23.0	0.00e+00	0	42	0	3509583872	50	5745
2026-01-24 19:45:10.96	278.66	7.95	-38.1	-38.8	23.0	0.00e+00	0	41	0	3514826752	50	5624
2026-01-24 19:45:11.97	278.56	7.89	-37.8	-38.5	23.3	0.00e+00	0	41	0	3520069632	50	5433
2026-01-24 19:45:12.98	278.46	7.83	-38.1	-38.8	23.0	0.00e+00	0	42	0	3526361088	50	5608
2026-01-24 19:45:13.99	278.35	7.76	-38.0	-38.8	23.1	0.00e+00	0	42	0	3531603968	50	5568
2026-01-24 19:45:15.00	278.25	7.70	-38.1	-38.9	22.9	0.00e+00	0	42	0	3537895424	50	5648
2026-01-24 19:45:16.01	278.15	7.64	-38.1	-38.9	22.9	0.00e+00	0	42	0	3543138304	50	5664
2026-01-24 19:45:17.02	278.05	7.57	-38.1	-39.0	22.9	0.00e+00	0	41	0	3549429760	50	5713
2026-01-24 19:45:18.03	277.95	7.51	-38.1	-38.8	22.9	0.00e+00	0	41	0	3554672640	50	5610
2026-01-24 19:45:19.04	277.85	7.45	-37.8	-38.5	23.2	0.00e+00	0	42	0	3560964096	50	5428
2026-01-24 19:45:20.05	277.75	7.38	-37.8	-38.5	23.3	0.00e+00	0	42	0	3566206976	50	5402
2026-01-24 19:45:21.06	277.65	7.32	-38.1	-38.8	23.0	0.00e+00	0	41	0	3571449856	48	6289
2026-01-24 19:45:22.07	277.55	7.26	-38.1	-38.8	22.9	0.00e+00	0	42	0	3577741312	48	6303
2026-01-24 19:45:23.08	277.45	7.19	-37.7	-38.5	23.4	0.00e+00	0	42	0	3582984192	48	6041
2026-01-24 19:45:24.09	277.35	7.13	-38.1	-38.8	23.1	0.00e+00	0	42	0	3589275648	48	6255
