passes_logs/2026/01/24/R4.6S_Anadyr/R4.6S_Anadyr__20260124_133540_SUOMI_NPP_rec.log

#Pass ID: 20260124_133540_SUOMI NPP
#Satellite: SUOMI NPP
#Configuration: NPP
#almurnet v.1.7.20251203
#Start time: 2026-01-24 13:35:43

#Version: 2.2.20231116
#Station: R4.6S_Anadyr
#Location: 177.4865 lon 64.73178 lat
#TLE: 1 37849U 11061A   26024.12615439  .00000221  00000+0  12601-3 0  9992
#TLE: 2 37849  98.7821 326.0966 0002215  48.1259 312.0106 14.19529288738009

#Time	Az	El	Level	Level2	SNR	BER	BlckErr	Temp	State	Recorded	gain1	gain2
2026-01-24 13:35:43.01	19.01	0.14	-51.6	-64.1	3.4	1.52e+00	0	38	0	0	60	56240
2026-01-24 13:35:44.01	19.05	0.20	-52.3	-67.5	3.6	1.51e+00	0	39	104	0	60	85505
2026-01-24 13:35:45.03	19.09	0.25	-52.0	-67.2	3.6	1.51e+00	0	39	104	0	60	82699
2026-01-24 13:35:46.04	19.13	0.31	-52.2	-67.4	3.6	1.51e+00	0	40	104	0	60	84796
2026-01-24 13:35:47.04	19.17	0.37	-51.9	-67.1	3.6	1.51e+00	0	40	104	0	60	81921
2026-01-24 13:35:48.06	19.21	0.43	-51.7	-66.9	3.6	1.51e+00	0	40	104	0	60	80173
2026-01-24 13:35:49.06	19.25	0.48	-51.5	-66.8	3.6	1.51e+00	0	40	104	0	60	79129
2026-01-24 13:35:50.08	19.30	0.54	-51.6	-66.8	3.6	1.51e+00	0	40	104	0	60	79035
2026-01-24 13:35:51.09	19.34	0.60	-51.7	-66.8	3.6	1.51e+00	0	40	104	0	60	79314
2026-01-24 13:35:52.10	19.38	0.66	-51.5	-66.7	3.6	1.51e+00	0	40	104	0	60	78558
2026-01-24 13:35:53.11	19.42	0.72	-51.4	-66.6	3.6	1.51e+00	0	40	104	0	60	77377
2026-01-24 13:35:54.12	19.47	0.78	-51.3	-66.5	3.6	1.51e+00	0	40	104	0	60	76553
2026-01-24 13:35:55.13	19.51	0.83	-51.1	-66.5	3.6	1.51e+00	0	40	104	0	60	75995
2026-01-24 13:35:56.14	19.55	0.89	-51.2	-66.5	3.6	1.51e+00	0	40	104	0	60	76130
2026-01-24 13:35:57.15	19.59	0.95	-51.2	-66.4	3.6	1.51e+00	0	40	104	0	60	75560
2026-01-24 13:35:58.16	19.64	1.01	-51.1	-66.3	3.6	1.51e+00	0	40	104	0	60	74689
2026-01-24 13:35:59.17	19.68	1.07	-50.9	-66.2	3.6	1.51e+00	0	40	104	0	60	73928
2026-01-24 13:36:00.18	19.72	1.13	-50.8	-66.1	3.6	1.51e+00	0	40	104	0	60	72580
2026-01-24 13:36:01.19	19.77	1.19	-50.7	-65.9	3.6	1.51e+00	0	40	104	0	60	71558
2026-01-24 13:36:02.20	19.81	1.25	-50.6	-65.8	3.6	1.51e+00	0	40	104	0	60	70704
2026-01-24 13:36:03.21	19.85	1.31	-50.5	-65.7	3.6	1.51e+00	0	40	104	0	60	69603
2026-01-24 13:36:04.22	19.90	1.37	-50.3	-65.6	3.6	1.51e+00	0	40	104	0	60	68798
2026-01-24 13:36:05.23	19.94	1.43	-50.2	-65.4	3.6	1.51e+00	0	40	104	0	60	67026
2026-01-24 13:36:06.23	19.98	1.48	-49.9	-65.2	3.6	1.51e+00	0	40	104	0	60	65499
2026-01-24 13:36:07.25	20.03	1.54	-49.8	-65.0	3.6	1.51e+00	0	40	104	0	60	63978
2026-01-24 13:36:08.26	20.07	1.60	-49.7	-64.9	3.6	1.51e+00	0	40	104	0	60	63814
2026-01-24 13:36:09.27	20.12	1.66	-49.7	-64.9	3.6	1.51e+00	0	40	104	0	60	63536
2026-01-24 13:36:10.28	20.16	1.72	-49.7	-64.8	3.6	1.51e+00	0	40	104	0	60	63129
2026-01-24 13:36:11.29	20.21	1.79	-49.7	-64.9	3.6	1.51e+00	0	40	104	0	60	63476
2026-01-24 13:36:12.30	20.25	1.85	-49.7	-64.9	3.6	1.51e+00	0	40	104	0	60	63445
2026-01-24 13:36:13.31	20.30	1.91	-49.7	-64.9	3.6	1.51e+00	0	40	104	0	60	63413
2026-01-24 13:36:14.32	20.34	1.97	-49.7	-64.9	3.6	1.51e+00	0	40	104	0	60	63527
2026-01-24 13:36:15.33	20.39	2.03	-49.7	-64.9	3.6	1.51e+00	0	40	104	0	60	63813
2026-01-24 13:36:16.34	20.44	2.09	-49.7	-65.0	3.6	1.51e+00	0	40	104	0	60	64021
2026-01-24 13:36:17.35	20.48	2.15	-49.7	-64.9	3.6	1.51e+00	0	40	104	0	60	63605
2026-01-24 13:36:18.36	20.53	2.21	-49.7	-64.9	3.6	1.51e+00	0	40	104	0	60	63331
2026-01-24 13:36:19.37	20.57	2.27	-49.7	-64.9	3.6	1.51e+00	0	40	104	0	60	63406
2026-01-24 13:36:20.38	20.62	2.33	-49.7	-64.7	3.6	1.51e+00	0	40	104	0	60	62086
2026-01-24 13:36:21.39	20.67	2.39	-49.7	-64.5	3.6	1.51e+00	0	40	104	0	60	60581
2026-01-24 13:36:22.40	20.71	2.46	-49.7	-64.1	3.6	1.51e+00	0	40	104	0	60	58085
2026-01-24 13:36:23.41	20.76	2.52	-49.6	-63.6	3.6	1.51e+00	0	40	104	0	60	55007
2026-01-24 13:36:24.42	20.81	2.58	-49.6	-64.0	3.6	1.51e+00	0	40	104	0	60	57231
2026-01-24 13:36:25.43	20.86	2.64	-49.7	-64.4	3.6	1.51e+00	0	40	104	0	60	59695
2026-01-24 13:36:26.44	20.90	2.70	-49.7	-64.7	3.6	1.51e+00	0	40	104	0	60	62400
2026-01-24 13:36:27.45	20.95	2.77	-49.7	-63.6	3.6	1.51e+00	0	40	104	0	60	54716
2026-01-24 13:36:28.46	21.00	2.83	-49.4	-60.3	3.9	1.51e+00	0	40	104	0	60	37540
2026-01-24 13:36:29.48	21.05	2.89	-49.3	-58.1	5.6	7.16e-01	0	40	0	0	60	29042
2026-01-24 13:36:30.49	21.09	2.95	-48.7	-55.2	8.5	7.53e-02	0	40	0	2097152	60	20733
2026-01-24 13:36:31.50	21.14	3.02	-48.6	-54.5	8.9	3.60e-02	0	40	0	4194304	60	19219
2026-01-24 13:36:32.50	21.19	3.08	-46.2	-49.0	15.8	1.14e-04	0	40	0	5242880	60	10176
2026-01-24 13:36:33.51	21.24	3.14	-46.5	-49.6	14.4	6.86e-05	22	40	0	7340032	60	10895
2026-01-24 13:36:34.52	21.29	3.21	-46.0	-48.9	15.1	0.00e+00	0	40	0	9437184	60	10013
2026-01-24 13:36:35.52	21.34	3.27	-44.3	-46.3	17.4	0.00e+00	79	40	0	11534336	60	7500
2026-01-24 13:36:36.53	21.39	3.33	-45.2	-47.6	16.3	0.00e+00	0	40	0	13631488	60	8671
2026-01-24 13:36:37.54	21.44	3.39	-45.4	-47.9	16.0	0.00e+00	0	40	0	14680064	60	8940
2026-01-24 13:36:38.55	21.49	3.46	-45.8	-48.5	15.3	0.00e+00	0	40	0	16777216	60	9611
2026-01-24 13:36:39.56	21.54	3.52	-46.7	-50.0	13.8	7.60e-06	0	40	0	18874368	60	11451
2026-01-24 13:36:40.57	21.59	3.59	-48.0	-52.9	10.8	3.94e-04	7	40	0	20971520	60	15932
2026-01-24 13:36:41.58	21.64	3.65	-46.6	-49.6	14.5	4.03e-03	0	40	0	23068672	60	10974
2026-01-24 13:36:42.59	21.69	3.71	-45.4	-47.8	16.2	0.00e+00	90	40	0	24117248	60	8841
2026-01-24 13:36:43.60	21.74	3.78	-49.1	-57.7	4.3	0.00e+00	0	40	0	26214400	60	27671
2026-01-24 13:36:44.61	21.79	3.84	-48.3	-54.1	5.4	1.51e+00	0	40	104	26214400	60	18341
2026-01-24 13:36:45.62	21.84	3.91	-47.1	-50.8	9.4	3.81e-02	0	40	0	26214400	60	12597
2026-01-24 13:36:46.63	21.89	3.97	-45.8	-48.4	16.5	8.58e-01	0	40	104	26214400	60	9532
2026-01-24 13:36:47.64	21.94	4.04	-45.5	-47.9	15.5	0.00e+00	79	40	0	27262976	60	8985
2026-01-24 13:36:48.65	21.99	4.10	-45.8	-48.5	15.4	0.00e+00	0	40	0	29360128	60	9591
2026-01-24 13:36:49.65	22.05	4.17	-44.9	-47.1	16.9	0.00e+00	92	40	0	30408704	60	8141
2026-01-24 13:36:50.67	22.10	4.23	-43.9	-45.6	18.3	0.00e+00	0	40	0	32505856	60	6915
2026-01-24 13:36:51.67	22.15	4.30	-44.9	-47.0	17.1	0.00e+00	0	40	0	34603008	60	8074
2026-01-24 13:36:52.68	22.20	4.36	-45.0	-47.2	16.9	0.00e+00	0	40	0	36700160	60	8258
2026-01-24 13:36:53.69	22.26	4.43	-45.1	-47.3	16.6	0.00e+00	0	40	0	38797312	60	8420
2026-01-24 13:36:54.70	22.31	4.49	-45.4	-47.8	16.6	0.00e+00	14	40	0	39845888	60	8840
2026-01-24 13:36:55.71	22.36	4.56	-44.5	-46.4	17.3	0.00e+00	0	40	0	41943040	60	7543
2026-01-24 13:36:56.72	22.42	4.63	-45.1	-47.3	16.7	0.00e+00	75	40	0	44040192	60	8355
2026-01-24 13:36:57.73	22.47	4.69	-44.7	-46.7	17.2	0.00e+00	0	40	0	46137344	60	7834
2026-01-24 13:36:58.74	22.52	4.76	-45.3	-47.6	16.7	0.00e+00	46	40	0	48234496	60	8628
2026-01-24 13:36:59.75	22.58	4.83	-44.1	-45.9	17.9	0.00e+00	0	40	0	49283072	60	7146
2026-01-24 13:37:00.76	22.63	4.89	-45.8	-48.3	15.8	0.00e+00	0	40	0	51380224	60	9406
2026-01-24 13:37:01.77	22.69	4.96	-47.1	-50.5	12.1	0.00e+00	7	40	0	53477376	60	12100
2026-01-24 13:37:02.77	22.74	5.02	-44.5	-46.3	18.4	1.50e-06	0	40	0	55574528	60	7477
2026-01-24 13:37:03.78	22.80	5.09	-46.0	-48.5	15.1	0.00e+00	82	40	0	57671680	60	9633
2026-01-24 13:37:04.79	22.85	5.16	-45.1	-47.3	16.5	7.00e-07	0	40	0	58720256	60	8330
2026-01-24 13:37:05.80	22.91	5.23	-46.8	-49.9	15.2	0.00e+00	92	40	0	60817408	60	11357
2026-01-24 13:37:06.81	22.96	5.29	-45.3	-47.4	16.6	0.00e+00	0	40	0	62914560	60	8485
2026-01-24 13:37:07.81	23.02	5.36	-46.1	-48.6	15.7	0.00e+00	0	40	0	65011712	60	9780
2026-01-24 13:37:08.82	23.07	5.43	-46.1	-48.7	15.4	0.00e+00	0	40	0	67108864	60	9814
2026-01-24 13:37:09.83	23.13	5.50	-46.3	-49.0	15.0	0.00e+00	0	40	0	68157440	60	10166
2026-01-24 13:37:10.84	23.19	5.57	-46.5	-49.2	14.9	0.00e+00	5	40	0	70254592	60	10452
2026-01-24 13:37:11.84	23.24	5.63	-46.4	-49.1	14.8	3.00e-06	0	40	0	72351744	60	10291
2026-01-24 13:37:12.85	23.30	5.70	-47.2	-50.6	13.5	2.20e-06	92	40	0	74448896	60	12205
2026-01-24 13:37:13.86	23.36	5.77	-46.4	-49.0	15.0	9.90e-06	0	40	0	76546048	60	10194
2026-01-24 13:37:14.87	23.42	5.84	-47.0	-50.1	14.7	0.00e+00	0	40	0	77594624	60	11619
2026-01-24 13:37:15.88	23.47	5.91	-45.7	-47.9	16.5	3.00e-06	0	40	0	79691776	60	8981
2026-01-24 13:37:16.89	23.53	5.98	-46.3	-49.0	15.3	0.00e+00	0	40	0	81788928	60	10193
2026-01-24 13:37:17.90	23.59	6.05	-43.9	-45.6	18.6	0.00e+00	8	40	0	83886080	60	6879
2026-01-24 13:37:18.91	23.65	6.12	-45.8	-48.1	16.2	0.00e+00	0	41	0	85983232	60	9217
2026-01-24 13:37:19.91	23.71	6.19	-45.5	-47.7	16.7	0.00e+00	69	40	0	87031808	60	8721
2026-01-24 13:37:20.92	23.77	6.26	-44.3	-46.0	18.3	0.00e+00	0	40	0	89128960	60	7233
2026-01-24 13:37:21.93	23.83	6.33	-44.0	-45.7	18.6	0.00e+00	0	40	0	91226112	60	6980
2026-01-24 13:37:22.95	23.89	6.40	-43.8	-45.4	18.8	0.00e+00	0	40	0	93323264	60	6744
2026-01-24 13:37:23.95	23.95	6.47	-44.0	-45.7	18.6	0.00e+00	0	40	0	95420416	60	6946
2026-01-24 13:37:24.96	24.01	6.54	-44.2	-46.0	18.3	0.00e+00	0	40	0	97517568	60	7195
2026-01-24 13:37:25.97	24.07	6.61	-44.3	-46.1	18.4	0.00e+00	0	40	0	98566144	60	7307
2026-01-24 13:37:26.99	24.13	6.68	-43.9	-45.6	18.5	0.00e+00	90	40	0	100663296	60	6857
2026-01-24 13:37:27.99	24.19	6.75	-44.0	-45.6	18.8	0.00e+00	0	40	0	102760448	60	6900
2026-01-24 13:37:29.00	24.25	6.82	-43.1	-44.6	19.7	0.00e+00	0	40	0	104857600	60	6127
2026-01-24 13:37:30.01	24.31	6.89	-43.2	-44.6	19.6	0.00e+00	0	40	0	105906176	60	6159
2026-01-24 13:37:31.02	24.37	6.96	-43.3	-44.8	19.4	0.00e+00	0	40	0	108003328	60	6293
2026-01-24 13:37:32.03	24.44	7.03	-43.0	-44.4	19.7	0.00e+00	0	40	0	110100480	60	6015
2026-01-24 13:37:33.04	24.50	7.11	-43.0	-44.4	19.8	0.00e+00	0	41	0	112197632	60	5989
2026-01-24 13:37:34.05	24.56	7.18	-43.0	-44.4	19.8	0.00e+00	68	40	0	114294784	60	6011
2026-01-24 13:37:35.06	24.62	7.25	-42.9	-44.3	20.0	0.00e+00	0	40	0	115343360	60	5936
2026-01-24 13:37:36.07	24.69	7.32	-42.6	-43.9	20.4	0.00e+00	67	40	0	117440512	58	6322
2026-01-24 13:37:37.07	24.75	7.39	-42.5	-43.9	20.3	0.00e+00	0	40	0	119537664	58	6320
2026-01-24 13:37:38.08	24.81	7.47	-42.3	-43.5	20.7	0.00e+00	0	40	0	121634816	58	6087
2026-01-24 13:37:39.09	24.88	7.54	-42.5	-43.8	20.3	0.00e+00	0	40	0	123731968	58	6253
2026-01-24 13:37:40.10	24.94	7.61	-42.5	-43.9	20.4	0.00e+00	0	40	0	125829120	58	6323
2026-01-24 13:37:41.11	25.01	7.69	-42.7	-44.1	20.1	0.00e+00	75	40	0	126877696	58	6472
2026-01-24 13:37:42.12	25.07	7.76	-42.8	-44.2	20.2	0.00e+00	0	40	0	128974848	58	6564
2026-01-24 13:37:43.12	25.14	7.83	-43.0	-44.4	19.8	0.00e+00	91	40	0	131072000	58	6707
2026-01-24 13:37:44.13	25.20	7.91	-42.2	-43.4	20.7	0.00e+00	0	40	0	133169152	58	5998
2026-01-24 13:37:45.14	25.27	7.98	-42.3	-43.5	20.5	0.00e+00	5	40	0	135266304	58	6093
2026-01-24 13:37:46.15	25.34	8.06	-42.8	-44.1	20.1	0.00e+00	0	40	0	136314880	58	6509
2026-01-24 13:37:47.16	25.40	8.13	-42.7	-44.0	20.4	0.00e+00	0	40	0	138412032	58	6441
2026-01-24 13:37:48.17	25.47	8.20	-42.7	-44.0	20.0	0.00e+00	6	41	0	140509184	58	6460
2026-01-24 13:37:49.18	25.54	8.28	-42.6	-43.9	20.5	0.00e+00	0	41	0	142606336	58	6328
2026-01-24 13:37:50.19	25.60	8.35	-42.4	-43.7	20.7	0.00e+00	84	41	0	144703488	58	6206
2026-01-24 13:37:51.20	25.67	8.43	-42.8	-44.1	20.2	0.00e+00	25	40	0	145752064	56	7328
2026-01-24 13:37:52.20	25.74	8.50	-42.9	-44.3	20.0	0.00e+00	0	41	0	147849216	58	6662
2026-01-24 13:37:53.21	25.81	8.58	-42.2	-43.4	20.8	0.00e+00	0	40	0	149946368	58	6012
2026-01-24 13:37:54.22	25.88	8.66	-42.6	-43.9	20.4	0.00e+00	0	40	0	152043520	58	6371
2026-01-24 13:37:55.23	25.95	8.73	-42.2	-43.5	20.8	0.00e+00	74	40	0	154140672	58	6040
2026-01-24 13:37:56.24	26.02	8.81	-42.5	-43.8	20.5	0.00e+00	0	41	0	155189248	58	6289
2026-01-24 13:37:57.25	26.09	8.88	-42.9	-44.3	20.0	0.00e+00	55	41	0	157286400	58	6634
2026-01-24 13:37:58.26	26.16	8.96	-42.3	-43.5	20.8	0.00e+00	0	41	0	159383552	58	6098
2026-01-24 13:37:59.27	26.23	9.04	-42.7	-44.0	20.2	0.00e+00	0	40	0	161480704	58	6456
2026-01-24 13:38:00.28	26.30	9.11	-42.8	-44.1	20.2	0.00e+00	0	40	0	163577856	58	6539
2026-01-24 13:38:01.29	26.37	9.19	-42.3	-43.6	20.7	0.00e+00	0	40	0	164626432	58	6109
2026-01-24 13:38:02.30	26.44	9.27	-42.3	-43.6	20.6	0.00e+00	7	41	0	166723584	58	6155
2026-01-24 13:38:03.31	26.51	9.35	-42.4	-43.7	20.5	0.00e+00	0	41	0	168820736	58	6174
2026-01-24 13:38:04.32	26.58	9.42	-42.3	-43.6	20.7	0.00e+00	92	41	0	170917888	58	6133
2026-01-24 13:38:05.33	26.66	9.50	-42.0	-43.2	21.0	0.00e+00	0	40	0	173015040	58	5858
2026-01-24 13:38:06.34	26.73	9.58	-42.1	-43.4	20.7	0.00e+00	76	41	0	174063616	58	5978
2026-01-24 13:38:07.35	26.80	9.66	-42.6	-43.9	20.4	0.00e+00	0	41	0	176160768	58	6361
2026-01-24 13:38:08.35	26.88	9.74	-41.9	-43.1	21.1	0.00e+00	0	41	0	178257920	58	5806
2026-01-24 13:38:09.36	26.95	9.82	-42.0	-43.2	21.1	0.00e+00	0	41	0	180355072	58	5848
2026-01-24 13:38:10.37	27.03	9.89	-41.9	-43.1	21.1	0.00e+00	0	41	0	182452224	58	5823
2026-01-24 13:38:11.38	27.10	9.97	-42.0	-43.3	21.0	0.00e+00	63	41	0	183500800	56	6624
2026-01-24 13:38:12.39	27.18	10.05	-42.2	-43.4	20.9	0.00e+00	0	41	0	185597952	56	6768
2026-01-24 13:38:13.40	27.25	10.13	-41.9	-43.1	21.1	0.00e+00	92	40	0	187695104	56	6510
2026-01-24 13:38:14.41	27.33	10.21	-42.1	-43.3	21.0	0.00e+00	0	40	0	189792256	56	6650
2026-01-24 13:38:15.41	27.40	10.29	-42.1	-43.3	21.0	0.00e+00	0	41	0	191889408	56	6684
2026-01-24 13:38:16.43	27.48	10.37	-41.7	-42.8	21.3	0.00e+00	0	41	0	193986560	56	6317
2026-01-24 13:38:17.43	27.56	10.45	-41.5	-42.6	21.6	0.00e+00	0	41	0	195035136	56	6156
2026-01-24 13:38:18.44	27.64	10.53	-41.6	-42.7	21.5	0.00e+00	91	41	0	197132288	56	6214
2026-01-24 13:38:19.45	27.71	10.61	-41.6	-42.7	21.5	0.00e+00	0	41	0	199229440	56	6224
2026-01-24 13:38:20.46	27.79	10.70	-41.5	-42.6	21.6	0.00e+00	90	41	0	201326592	56	6156
2026-01-24 13:38:21.47	27.87	10.78	-41.4	-42.5	21.7	0.00e+00	0	41	0	203423744	56	6093
2026-01-24 13:38:22.48	27.95	10.86	-41.5	-42.6	21.7	0.00e+00	0	41	0	204472320	56	6108
2026-01-24 13:38:23.49	28.03	10.94	-41.2	-42.3	22.0	0.00e+00	0	41	0	206569472	56	5927
2026-01-24 13:38:24.49	28.11	11.02	-41.4	-42.5	21.8	0.00e+00	0	41	0	208666624	56	6044
2026-01-24 13:38:25.50	28.19	11.10	-41.3	-42.4	21.8	0.00e+00	4	41	0	210763776	56	5986
2026-01-24 13:38:26.51	28.27	11.19	-41.1	-42.2	21.9	0.00e+00	0	41	0	211812352	56	5830
2026-01-24 13:38:27.52	28.35	11.27	-41.8	-43.0	21.3	0.00e+00	52	41	0	213909504	56	6399
2026-01-24 13:38:28.53	28.43	11.35	-41.5	-42.6	21.7	0.00e+00	0	41	0	216006656	56	6104
2026-01-24 13:38:29.54	28.52	11.44	-41.3	-42.4	21.7	0.00e+00	0	41	0	218103808	56	6015
2026-01-24 13:38:30.55	28.60	11.52	-41.5	-42.6	21.8	0.00e+00	0	41	0	220200960	56	6127
2026-01-24 13:38:31.55	28.68	11.60	-41.4	-42.5	21.7	0.00e+00	0	41	0	222298112	56	6068
2026-01-24 13:38:32.56	28.77	11.69	-41.8	-42.9	21.3	0.00e+00	5	41	0	223346688	56	6386
2026-01-24 13:38:33.57	28.85	11.77	-41.5	-42.6	21.7	0.00e+00	0	41	0	225443840	56	6144
2026-01-24 13:38:34.58	28.93	11.86	-41.6	-42.7	21.5	0.00e+00	90	41	0	227540992	56	6238
2026-01-24 13:38:35.59	29.02	11.94	-41.6	-42.8	21.6	0.00e+00	12	41	0	229638144	56	6264
2026-01-24 13:38:36.60	29.10	12.02	-42.0	-43.2	21.2	0.00e+00	0	41	0	231735296	56	6552
2026-01-24 13:38:37.61	29.19	12.11	-41.5	-42.6	21.7	0.00e+00	0	41	0	232783872	56	6129
2026-01-24 13:38:38.62	29.28	12.20	-41.6	-42.7	21.6	0.00e+00	0	41	0	234881024	56	6200
2026-01-24 13:38:39.63	29.36	12.28	-41.1	-42.2	22.0	0.00e+00	58	41	0	236978176	56	5869
2026-01-24 13:38:40.63	29.45	12.37	-41.4	-42.6	21.6	0.00e+00	0	41	0	239075328	56	6110
2026-01-24 13:38:41.65	29.54	12.45	-41.2	-42.3	21.9	0.00e+00	90	41	0	241172480	56	5920
2026-01-24 13:38:42.66	29.63	12.54	-41.2	-42.3	21.9	0.00e+00	0	41	0	242221056	56	5930
2026-01-24 13:38:43.67	29.72	12.63	-41.4	-42.5	21.6	0.00e+00	2	41	0	244318208	56	6047
2026-01-24 13:38:44.67	29.80	12.71	-41.1	-42.1	22.2	0.00e+00	0	41	0	246415360	56	5803
2026-01-24 13:38:45.68	29.89	12.80	-41.1	-42.2	22.0	0.00e+00	0	40	0	248512512	56	5839
2026-01-24 13:38:46.69	29.98	12.89	-41.6	-42.7	21.8	0.00e+00	0	41	0	250609664	56	6195
2026-01-24 13:38:47.70	30.08	12.97	-40.8	-41.8	22.4	0.00e+00	0	41	0	251658240	56	5599
2026-01-24 13:38:48.71	30.17	13.06	-41.0	-42.1	22.1	0.00e+00	5	41	0	253755392	54	6485
2026-01-24 13:38:49.72	30.26	13.15	-40.8	-41.8	22.3	0.00e+00	0	41	0	255852544	54	6314
2026-01-24 13:38:50.73	30.35	13.24	-40.9	-41.9	22.2	0.00e+00	90	41	0	257949696	54	6385
2026-01-24 13:38:51.74	30.44	13.33	-41.0	-42.0	22.2	0.00e+00	0	41	0	260046848	54	6452
2026-01-24 13:38:52.75	30.54	13.42	-40.8	-41.9	22.3	0.00e+00	0	41	0	261095424	54	6320
2026-01-24 13:38:53.75	30.63	13.51	-41.1	-42.2	22.1	0.00e+00	0	41	0	263192576	54	6562
2026-01-24 13:38:54.76	30.73	13.59	-41.0	-42.1	22.2	0.00e+00	0	41	0	265289728	54	6488
2026-01-24 13:38:55.77	30.82	13.68	-41.0	-42.1	22.0	0.00e+00	7	41	0	267386880	54	6491
2026-01-24 13:38:56.78	30.92	13.77	-40.8	-41.8	22.4	0.00e+00	0	41	0	269484032	54	6254
2026-01-24 13:38:57.79	31.01	13.86	-40.6	-41.6	22.4	0.00e+00	92	41	0	270532608	54	6122
2026-01-24 13:38:58.80	31.11	13.96	-40.7	-41.7	22.4	0.00e+00	0	41	0	272629760	54	6233
2026-01-24 13:38:59.81	31.21	14.05	-40.7	-41.7	22.5	0.00e+00	0	41	0	274726912	54	6195
2026-01-24 13:39:00.82	31.30	14.14	-40.7	-41.7	22.5	0.00e+00	0	41	0	276824064	54	6229
2026-01-24 13:39:01.83	31.40	14.23	-40.7	-41.7	22.5	0.00e+00	0	41	0	278921216	54	6223
2026-01-24 13:39:02.83	31.50	14.32	-40.5	-41.5	22.6	0.00e+00	10	41	0	279969792	54	6091
2026-01-24 13:39:03.84	31.60	14.41	-40.6	-41.6	22.5	0.00e+00	0	41	0	282066944	54	6114
2026-01-24 13:39:04.85	31.70	14.50	-40.6	-41.6	22.5	0.00e+00	73	41	0	284164096	54	6152
2026-01-24 13:39:05.86	31.80	14.60	-40.6	-41.6	22.6	0.00e+00	0	41	0	286261248	54	6115
2026-01-24 13:39:06.87	31.90	14.69	-40.4	-41.4	22.7	0.00e+00	0	41	0	288358400	54	6006
2026-01-24 13:39:07.88	32.00	14.78	-40.7	-41.8	22.5	0.00e+00	0	41	0	290455552	54	6259
2026-01-24 13:39:08.89	32.11	14.87	-41.0	-42.0	22.2	0.00e+00	0	41	0	291504128	54	6462
2026-01-24 13:39:09.90	32.21	14.97	-40.6	-41.6	22.5	0.00e+00	0	41	0	293601280	54	6159
2026-01-24 13:39:10.91	32.31	15.06	-40.8	-41.8	22.5	0.00e+00	0	41	0	295698432	54	6316
2026-01-24 13:39:11.92	32.42	15.16	-40.9	-42.0	22.3	0.00e+00	92	41	0	297795584	54	6413
2026-01-24 13:39:12.93	32.52	15.25	-41.2	-42.3	22.1	0.00e+00	0	41	0	299892736	54	6655
2026-01-24 13:39:13.94	32.63	15.35	-41.0	-42.1	22.1	0.00e+00	36	41	0	300941312	54	6509
2026-01-24 13:39:14.95	32.74	15.44	-41.5	-42.7	21.7	0.00e+00	0	41	0	303038464	54	6944
2026-01-24 13:39:15.95	32.84	15.53	-41.1	-42.2	22.1	0.00e+00	0	41	0	305135616	54	6544
2026-01-24 13:39:16.96	32.95	15.63	-41.2	-42.3	21.8	0.00e+00	0	41	0	307232768	54	6652
2026-01-24 13:39:17.97	33.06	15.73	-41.1	-42.2	21.9	0.00e+00	0	41	0	309329920	54	6540
2026-01-24 13:39:18.98	33.17	15.82	-41.3	-42.4	21.9	0.00e+00	92	41	0	310378496	54	6739
2026-01-24 13:39:19.99	33.28	15.92	-41.0	-42.1	22.2	0.00e+00	0	41	0	312475648	54	6514
2026-01-24 13:39:21.00	33.39	16.02	-41.1	-42.2	22.2	0.00e+00	92	41	0	314572800	54	6571
2026-01-24 13:39:22.01	33.50	16.11	-40.9	-42.0	22.4	0.00e+00	0	41	0	316669952	54	6399
2026-01-24 13:39:23.02	33.61	16.21	-41.0	-42.1	22.2	0.00e+00	0	41	0	318767104	54	6503
2026-01-24 13:39:24.03	33.72	16.31	-40.8	-41.8	22.3	0.00e+00	0	41	0	319815680	54	6302
2026-01-24 13:39:25.04	33.83	16.40	-40.7	-41.7	22.4	0.00e+00	0	41	0	321912832	54	6195
2026-01-24 13:39:26.05	33.95	16.50	-40.9	-42.0	22.4	0.00e+00	73	41	0	324009984	54	6404
2026-01-24 13:39:27.05	34.06	16.60	-40.7	-41.7	22.5	0.00e+00	0	41	0	326107136	54	6237
2026-01-24 13:39:28.06	34.18	16.70	-40.5	-41.5	22.7	0.00e+00	90	41	0	328204288	54	6077
2026-01-24 13:39:29.07	34.29	16.80	-40.6	-41.6	22.5	0.00e+00	0	41	0	329252864	54	6139
2026-01-24 13:39:30.08	34.41	16.90	-40.7	-41.7	22.6	0.00e+00	0	41	0	331350016	54	6215
2026-01-24 13:39:31.09	34.53	17.00	-40.5	-41.5	22.7	0.00e+00	0	41	0	333447168	54	6068
2026-01-24 13:39:32.10	34.65	17.10	-40.6	-41.6	22.7	0.00e+00	13	41	0	335544320	54	6123
2026-01-24 13:39:33.11	34.76	17.20	-40.8	-41.8	22.5	0.00e+00	92	41	0	337641472	54	6256
2026-01-24 13:39:34.12	34.88	17.30	-40.7	-41.7	22.5	0.00e+00	0	41	0	338690048	54	6219
2026-01-24 13:39:35.13	35.00	17.40	-40.7	-41.7	22.6	0.00e+00	92	41	0	340787200	54	6212
2026-01-24 13:39:36.14	35.13	17.50	-40.7	-41.7	22.5	0.00e+00	0	41	0	342884352	54	6239
2026-01-24 13:39:37.15	35.25	17.60	-40.9	-42.0	22.4	0.00e+00	0	41	0	344981504	54	6412
2026-01-24 13:39:38.16	35.37	17.70	-41.0	-42.0	22.3	0.00e+00	24	41	0	347078656	54	6430
2026-01-24 13:39:39.16	35.49	17.80	-41.0	-42.0	22.3	0.00e+00	0	41	0	348127232	54	6451
2026-01-24 13:39:40.17	35.62	17.91	-41.1	-42.2	22.0	0.00e+00	57	41	0	350224384	54	6562
2026-01-24 13:39:41.18	35.74	18.01	-41.5	-42.6	21.7	0.00e+00	0	41	0	352321536	54	6863
2026-01-24 13:39:42.19	35.87	18.11	-41.5	-42.6	21.7	0.00e+00	92	41	0	354418688	54	6888
2026-01-24 13:39:43.19	35.99	18.21	-41.4	-42.5	21.9	0.00e+00	0	41	0	356515840	54	6783
2026-01-24 13:39:44.20	36.12	18.32	-41.4	-42.6	21.8	0.00e+00	15	41	0	357564416	54	6854
2026-01-24 13:39:45.21	36.25	18.42	-41.7	-42.9	21.7	0.00e+00	0	41	0	359661568	56	6331
2026-01-24 13:39:46.22	36.38	18.52	-41.4	-42.6	21.9	0.00e+00	0	41	0	361758720	56	6105
2026-01-24 13:39:47.23	36.51	18.63	-41.4	-42.5	22.0	0.00e+00	12	41	0	363855872	56	6039
2026-01-24 13:39:48.24	36.64	18.73	-41.2	-42.3	22.1	0.00e+00	0	41	0	365953024	56	5899
2026-01-24 13:39:49.25	36.77	18.84	-41.3	-42.4	22.0	0.00e+00	90	41	0	367001600	56	5986
2026-01-24 13:39:50.26	36.91	18.94	-41.1	-42.2	22.2	0.00e+00	0	41	0	369098752	56	5854
2026-01-24 13:39:51.27	37.04	19.05	-41.5	-42.6	22.0	0.00e+00	47	41	0	371195904	56	6105
2026-01-24 13:39:52.28	37.17	19.16	-41.2	-42.2	22.3	0.00e+00	0	41	0	373293056	56	5886
2026-01-24 13:39:53.29	37.31	19.26	-41.2	-42.3	22.1	0.00e+00	0	41	0	375390208	56	5916
2026-01-24 13:39:54.30	37.45	19.37	-41.4	-42.5	21.9	0.00e+00	0	41	0	376438784	56	6049
2026-01-24 13:39:55.31	37.58	19.48	-41.2	-42.3	22.3	0.00e+00	0	41	0	378535936	56	5909
2026-01-24 13:39:56.32	37.72	19.58	-41.2	-42.2	22.2	0.00e+00	92	41	0	380633088	56	5884
2026-01-24 13:39:57.33	37.86	19.69	-41.3	-42.4	22.1	0.00e+00	0	41	0	382730240	56	5979
2026-01-24 13:39:58.34	38.00	19.80	-41.4	-42.5	22.1	0.00e+00	73	41	0	384827392	56	6038
2026-01-24 13:39:59.35	38.14	19.91	-41.5	-42.6	22.0	0.00e+00	0	41	0	386924544	56	6107
2026-01-24 13:40:00.36	38.29	20.01	-41.5	-42.5	22.0	0.00e+00	0	41	0	387973120	56	6103
2026-01-24 13:40:01.37	38.43	20.12	-41.4	-42.5	22.0	0.00e+00	6	41	0	390070272	56	6080
2026-01-24 13:40:02.38	38.57	20.23	-41.3	-42.4	22.1	0.00e+00	0	41	0	392167424	56	5979
2026-01-24 13:40:03.39	38.72	20.34	-41.5	-42.6	21.9	0.00e+00	63	41	0	394264576	56	6138
2026-01-24 13:40:04.39	38.86	20.45	-41.2	-42.3	22.2	0.00e+00	0	41	0	396361728	56	5936
2026-01-24 13:40:05.40	39.01	20.56	-41.4	-42.4	22.0	0.00e+00	40	41	0	397410304	56	6033
2026-01-24 13:40:06.41	39.16	20.67	-41.7	-42.8	21.9	0.00e+00	0	41	0	399507456	56	6299
2026-01-24 13:40:07.42	39.31	20.78	-41.4	-42.5	22.0	0.00e+00	0	41	0	401604608	56	6076
2026-01-24 13:40:08.43	39.46	20.89	-41.4	-42.5	22.1	0.00e+00	0	41	0	403701760	56	6053
2026-01-24 13:40:09.44	39.61	21.00	-41.7	-42.9	21.6	0.00e+00	0	41	0	405798912	56	6324
2026-01-24 13:40:10.45	39.76	21.11	-41.5	-42.5	22.0	0.00e+00	67	41	0	406847488	56	6100
2026-01-24 13:40:11.46	39.91	21.23	-41.3	-42.4	22.1	0.00e+00	0	41	0	408944640	56	5996
2026-01-24 13:40:12.47	40.07	21.34	-41.3	-42.4	22.2	0.00e+00	39	41	0	411041792	56	5968
2026-01-24 13:40:13.47	40.22	21.45	-40.8	-41.8	22.4	0.00e+00	0	41	0	413138944	56	5614
2026-01-24 13:40:14.48	40.38	21.56	-40.9	-41.9	22.5	0.00e+00	12	41	0	415236096	54	6390
2026-01-24 13:40:15.49	40.54	21.67	-41.0	-42.0	22.2	0.00e+00	0	41	0	416284672	54	6447
2026-01-24 13:40:16.50	40.70	21.79	-41.0	-42.0	22.4	0.00e+00	0	41	0	418381824	54	6402
2026-01-24 13:40:17.51	40.86	21.90	-41.1	-42.1	22.3	0.00e+00	7	41	0	420478976	54	6488
2026-01-24 13:40:18.52	41.02	22.01	-40.4	-41.4	22.9	0.00e+00	0	41	0	422576128	54	5977
2026-01-24 13:40:19.53	41.18	22.13	-40.6	-41.6	22.8	0.00e+00	37	41	0	424673280	54	6129
2026-01-24 13:40:20.54	41.34	22.24	-40.7	-41.7	22.7	0.00e+00	0	41	0	425721856	54	6224
2026-01-24 13:40:21.55	41.51	22.36	-40.8	-41.8	22.5	0.00e+00	60	41	0	427819008	54	6297
2026-01-24 13:40:22.56	41.67	22.47	-40.7	-41.7	22.7	0.00e+00	0	41	0	429916160	54	6211
2026-01-24 13:40:23.57	41.84	22.59	-41.0	-42.0	22.5	0.00e+00	0	41	0	432013312	54	6422
2026-01-24 13:40:24.58	42.01	22.70	-41.1	-42.1	22.3	0.00e+00	4	41	0	434110464	54	6526
2026-01-24 13:40:25.59	42.18	22.82	-40.8	-41.9	22.6	0.00e+00	0	41	0	435159040	54	6323
2026-01-24 13:40:26.60	42.35	22.93	-41.0	-42.0	22.4	0.00e+00	92	41	0	437256192	54	6428
2026-01-24 13:40:27.61	42.52	23.05	-41.0	-42.1	22.4	0.00e+00	0	41	0	439353344	54	6471
2026-01-24 13:40:28.61	42.69	23.17	-40.8	-41.8	22.5	0.00e+00	66	41	0	441450496	54	6298
2026-01-24 13:40:29.62	42.87	23.28	-40.5	-41.5	22.9	0.00e+00	0	41	0	443547648	54	6043
2026-01-24 13:40:30.63	43.04	23.40	-40.4	-41.3	23.0	0.00e+00	0	41	0	444596224	54	5930
2026-01-24 13:40:31.64	43.22	23.52	-40.2	-41.2	23.1	0.00e+00	0	41	0	446693376	54	5832
2026-01-24 13:40:32.65	43.40	23.63	-40.2	-41.1	23.0	0.00e+00	0	41	0	448790528	54	5794
2026-01-24 13:40:33.66	43.58	23.75	-40.4	-41.4	22.9	0.00e+00	92	41	0	450887680	54	5973
2026-01-24 13:40:34.67	43.76	23.87	-40.5	-41.5	22.7	0.00e+00	0	41	0	452984832	54	6058
2026-01-24 13:40:35.68	43.94	23.99	-40.8	-41.8	22.6	0.00e+00	90	41	0	455081984	54	6261
2026-01-24 13:40:36.69	44.12	24.11	-40.9	-41.9	22.7	0.00e+00	0	41	0	456130560	54	6334
2026-01-24 13:40:37.70	44.31	24.23	-41.1	-42.2	22.3	0.00e+00	0	41	0	458227712	54	6549
2026-01-24 13:40:38.71	44.49	24.34	-41.0	-42.1	22.3	0.00e+00	0	41	0	460324864	54	6483
2026-01-24 13:40:39.71	44.68	24.46	-41.4	-42.5	22.1	0.00e+00	0	41	0	462422016	54	6841
2026-01-24 13:40:40.73	44.87	24.58	-41.1	-42.2	22.4	0.00e+00	10	41	0	464519168	54	6578
2026-01-24 13:40:41.74	45.06	24.70	-41.1	-42.2	22.3	0.00e+00	0	41	0	465567744	54	6545
2026-01-24 13:40:42.75	45.25	24.82	-40.9	-41.9	22.5	0.00e+00	90	41	0	467664896	54	6370
2026-01-24 13:40:43.76	45.45	24.94	-40.8	-41.8	22.7	0.00e+00	0	41	0	469762048	54	6247
2026-01-24 13:40:44.77	45.64	25.06	-40.9	-42.0	22.5	0.00e+00	0	41	0	471859200	54	6392
2026-01-24 13:40:45.78	45.84	25.18	-40.8	-41.7	22.8	0.00e+00	0	41	0	473956352	54	6239
2026-01-24 13:40:46.79	46.03	25.31	-40.1	-41.0	23.2	0.00e+00	0	41	0	475004928	54	5717
2026-01-24 13:40:47.80	46.23	25.43	-40.3	-41.2	23.0	0.00e+00	47	41	0	477102080	54	5869
2026-01-24 13:40:48.81	46.43	25.55	-40.2	-41.1	23.0	0.00e+00	0	41	0	479199232	54	5807
2026-01-24 13:40:49.82	46.64	25.67	-40.0	-40.9	23.1	0.00e+00	91	41	0	481296384	54	5676
2026-01-24 13:40:50.83	46.84	25.79	-40.4	-41.4	22.6	0.00e+00	0	41	0	483393536	54	5970
2026-01-24 13:40:51.84	47.05	25.91	-40.4	-41.4	22.9	0.00e+00	0	41	0	484442112	54	5995
2026-01-24 13:40:52.85	47.25	26.03	-40.3	-41.3	23.0	0.00e+00	0	41	0	486539264	54	5929
2026-01-24 13:40:53.86	47.46	26.16	-40.3	-41.2	23.1	0.00e+00	0	41	0	488636416	54	5874
2026-01-24 13:40:54.87	47.67	26.28	-40.3	-41.3	23.0	0.00e+00	13	41	0	490733568	54	5903
2026-01-24 13:40:55.88	47.88	26.40	-40.3	-41.2	23.1	0.00e+00	0	41	0	492830720	54	5859
2026-01-24 13:40:56.89	48.09	26.52	-40.1	-41.1	23.2	0.00e+00	79	41	0	493879296	54	5780
2026-01-24 13:40:57.90	48.31	26.65	-40.3	-41.2	23.0	0.00e+00	0	41	0	495976448	54	5884
2026-01-24 13:40:58.91	48.53	26.77	-40.2	-41.2	23.2	0.00e+00	92	41	0	498073600	54	5850
2026-01-24 13:40:59.92	48.74	26.89	-40.4	-41.3	23.0	0.00e+00	0	41	0	500170752	54	5957
2026-01-24 13:41:00.92	48.96	27.01	-40.1	-41.1	23.1	0.00e+00	0	41	0	502267904	54	5778
2026-01-24 13:41:01.93	49.18	27.14	-40.4	-41.3	23.0	0.00e+00	0	41	0	503316480	54	5959
2026-01-24 13:41:02.94	49.41	27.26	-40.1	-41.0	23.2	0.00e+00	0	41	0	505413632	54	5753
2026-01-24 13:41:03.96	49.63	27.39	-40.1	-41.1	23.2	0.00e+00	13	41	0	507510784	54	5773
2026-01-24 13:41:04.96	49.86	27.51	-40.1	-41.1	23.1	0.00e+00	0	41	0	509607936	54	5775
2026-01-24 13:41:05.97	50.08	27.63	-39.9	-40.8	23.4	0.00e+00	92	41	0	511705088	54	5607
2026-01-24 13:41:06.98	50.31	27.76	-39.9	-40.8	23.4	0.00e+00	0	41	0	512753664	52	6292
2026-01-24 13:41:07.99	50.55	27.88	-40.0	-40.9	23.4	0.00e+00	0	41	0	514850816	52	6327
2026-01-24 13:41:09.00	50.78	28.00	-39.9	-40.8	23.6	0.00e+00	0	41	0	516947968	52	6248
2026-01-24 13:41:10.01	51.01	28.13	-40.3	-41.3	23.2	0.00e+00	0	41	0	519045120	52	6616
2026-01-24 13:41:11.02	51.25	28.25	-40.2	-41.2	23.2	0.00e+00	73	41	0	521142272	52	6545
2026-01-24 13:41:12.03	51.49	28.38	-40.1	-41.0	23.3	0.00e+00	0	41	0	523239424	52	6464
2026-01-24 13:41:13.04	51.73	28.50	-40.4	-41.3	23.1	0.00e+00	41	41	0	524288000	54	5951
2026-01-24 13:41:14.05	51.97	28.62	-40.9	-42.0	22.9	0.00e+00	0	41	0	526385152	54	6399
2026-01-24 13:41:15.06	52.22	28.75	-40.4	-41.4	23.0	0.00e+00	0	41	0	528482304	54	5999
2026-01-24 13:41:16.07	52.46	28.87	-40.6	-41.6	22.9	0.00e+00	11	41	0	530579456	54	6129
2026-01-24 13:41:17.08	52.71	29.00	-40.9	-41.9	22.7	0.00e+00	0	41	0	532676608	54	6338
2026-01-24 13:41:18.09	52.96	29.12	-40.9	-42.0	22.5	0.00e+00	10	41	0	533725184	54	6393
2026-01-24 13:41:19.10	53.21	29.24	-41.3	-42.4	22.1	0.00e+00	0	41	0	535822336	54	6703
2026-01-24 13:41:20.11	53.47	29.37	-41.3	-42.3	22.2	0.00e+00	81	41	0	537919488	54	6653
2026-01-24 13:41:21.12	53.72	29.49	-41.2	-42.2	22.3	0.00e+00	0	41	0	540016640	54	6557
2026-01-24 13:41:22.13	53.98	29.62	-41.5	-42.6	22.0	0.00e+00	16	41	0	542113792	54	6888
2026-01-24 13:41:23.14	54.24	29.74	-41.8	-42.9	22.0	0.00e+00	0	41	0	543162368	54	7096
2026-01-24 13:41:24.15	54.50	29.86	-42.7	-44.0	21.0	0.00e+00	0	41	0	545259520	56	7177
2026-01-24 13:41:25.16	54.76	29.99	-41.9	-43.0	21.7	0.00e+00	76	41	0	547356672	58	5756
2026-01-24 13:41:26.17	55.03	30.11	-42.0	-43.1	21.7	0.00e+00	0	41	0	549453824	58	5803
2026-01-24 13:41:27.18	55.30	30.23	-42.0	-43.2	21.5	0.00e+00	83	41	0	551550976	58	5847
2026-01-24 13:41:28.19	55.56	30.36	-42.1	-43.2	21.4	0.00e+00	0	41	0	552599552	56	6583
2026-01-24 13:41:29.20	55.84	30.48	-41.9	-43.0	21.7	0.00e+00	92	41	0	554696704	56	6440
2026-01-24 13:41:30.21	56.11	30.60	-42.1	-43.3	21.1	0.00e+00	0	41	0	556793856	56	6623
2026-01-24 13:41:31.22	56.38	30.73	-42.4	-43.6	21.2	0.00e+00	0	41	0	558891008	56	6887
2026-01-24 13:41:32.23	56.66	30.85	-43.2	-44.5	20.4	0.00e+00	43	41	0	560988160	58	6823
2026-01-24 13:41:33.24	56.94	30.97	-43.8	-45.2	19.7	0.00e+00	0	41	0	562036736	58	7405
2026-01-24 13:41:34.25	57.22	31.09	-43.9	-45.4	19.6	0.00e+00	91	41	0	564133888	60	6757
2026-01-24 13:41:35.26	57.51	31.21	-44.4	-46.1	19.1	0.00e+00	0	41	0	566231040	60	7269
2026-01-24 13:41:36.27	57.79	31.34	-44.1	-45.7	19.4	0.00e+00	91	41	0	568328192	60	6932
2026-01-24 13:41:37.28	58.08	31.46	-44.4	-46.0	19.2	0.00e+00	0	41	0	570425344	60	7207
2026-01-24 13:41:38.29	58.37	31.58	-44.4	-46.0	19.1	0.00e+00	0	41	0	571473920	60	7173
2026-01-24 13:41:39.30	58.66	31.70	-44.4	-46.0	19.5	0.00e+00	0	41	0	573571072	60	7223
2026-01-24 13:41:40.31	58.96	31.82	-44.2	-45.7	19.5	0.00e+00	0	41	0	575668224	60	6957
2026-01-24 13:41:41.32	59.25	31.94	-43.9	-45.3	19.5	0.00e+00	92	41	0	577765376	60	6676
2026-01-24 13:41:42.33	59.55	32.06	-44.1	-45.7	19.4	0.00e+00	0	41	0	579862528	60	6940
2026-01-24 13:41:43.34	59.85	32.18	-44.6	-46.3	18.8	0.00e+00	92	41	0	580911104	60	7461
2026-01-24 13:41:44.35	60.16	32.30	-44.8	-46.6	18.4	0.00e+00	0	41	0	583008256	60	7696
2026-01-24 13:41:45.36	60.46	32.42	-44.8	-46.6	18.5	0.00e+00	0	41	0	585105408	60	7739
2026-01-24 13:41:46.37	60.77	32.54	-45.0	-46.9	18.2	0.00e+00	9	41	0	587202560	60	7998
2026-01-24 13:41:47.38	61.08	32.65	-44.5	-46.1	19.1	0.00e+00	0	41	0	589299712	60	7306
2026-01-24 13:41:48.39	61.39	32.77	-44.0	-45.5	19.4	0.00e+00	6	41	0	591396864	60	6841
2026-01-24 13:41:49.40	61.71	32.89	-44.0	-45.5	19.5	0.00e+00	0	41	0	592445440	60	6826
2026-01-24 13:41:50.41	62.02	33.00	-44.6	-46.3	19.0	0.00e+00	92	41	0	594542592	60	7430
2026-01-24 13:41:51.42	62.34	33.12	-44.8	-46.6	18.2	0.00e+00	0	41	0	596639744	60	7711
2026-01-24 13:41:52.43	62.66	33.24	-45.1	-47.1	18.3	0.00e+00	0	41	0	598736896	60	8140
2026-01-24 13:41:53.44	62.99	33.35	-45.5	-47.5	17.8	0.00e+00	0	41	0	600834048	60	8595
2026-01-24 13:41:54.45	63.31	33.46	-45.7	-47.8	17.6	0.00e+00	0	41	0	601882624	60	8849
2026-01-24 13:41:55.46	63.64	33.58	-45.2	-47.1	18.1	0.00e+00	9	41	0	603979776	60	8178
2026-01-24 13:41:56.47	63.97	33.69	-45.4	-47.3	17.9	0.00e+00	0	41	0	606076928	60	8412
2026-01-24 13:41:57.48	64.30	33.80	-44.9	-46.7	18.3	0.00e+00	38	41	0	608174080	60	7785
2026-01-24 13:41:58.49	64.63	33.92	-44.5	-46.1	19.3	0.00e+00	0	41	0	610271232	60	7327
2026-01-24 13:41:59.50	64.97	34.03	-43.8	-45.2	19.5	0.00e+00	0	41	0	611319808	60	6597
2026-01-24 13:42:00.51	65.31	34.14	-44.2	-45.8	19.2	0.00e+00	0	41	0	613416960	60	7011
2026-01-24 13:42:01.52	65.65	34.25	-44.0	-45.6	19.5	0.00e+00	0	41	0	615514112	60	6871
2026-01-24 13:42:02.53	66.00	34.36	-44.4	-46.0	19.2	0.00e+00	12	41	0	617611264	60	7232
2026-01-24 13:42:03.54	66.34	34.47	-44.8	-46.6	18.5	0.00e+00	0	41	0	619708416	60	7691
2026-01-24 13:42:04.55	66.69	34.57	-45.5	-47.5	17.7	0.00e+00	92	41	0	620756992	60	8548
2026-01-24 13:42:05.56	67.04	34.68	-45.3	-47.2	18.0	0.00e+00	0	41	0	622854144	60	8321
2026-01-24 13:42:06.57	67.39	34.79	-45.0	-46.9	18.4	0.00e+00	4	41	0	624951296	60	7974
2026-01-24 13:42:07.58	67.75	34.89	-44.1	-45.7	19.5	0.00e+00	0	41	0	627048448	60	6943
2026-01-24 13:42:08.59	68.10	34.99	-42.8	-44.1	21.0	0.00e+00	0	41	0	629145600	60	5763
2026-01-24 13:42:09.60	68.46	35.10	-41.8	-42.9	21.8	0.00e+00	14	41	0	630194176	58	5688
2026-01-24 13:42:10.61	68.82	35.20	-41.8	-42.9	21.8	0.00e+00	0	41	0	632291328	56	6364
2026-01-24 13:42:11.62	69.19	35.30	-42.4	-43.6	21.2	0.00e+00	70	41	0	634388480	56	6916
2026-01-24 13:42:12.63	69.55	35.40	-43.4	-44.8	19.8	0.00e+00	0	41	0	636485632	58	7071
2026-01-24 13:42:13.64	69.92	35.50	-43.8	-45.3	19.7	0.00e+00	90	41	0	638582784	60	6635
2026-01-24 13:42:14.65	70.29	35.60	-43.7	-45.1	19.9	0.00e+00	0	41	0	639631360	60	6519
2026-01-24 13:42:15.66	70.67	35.70	-43.2	-44.6	20.5	0.00e+00	0	41	0	641728512	60	6125
2026-01-24 13:42:16.67	71.04	35.80	-41.9	-43.0	21.7	0.00e+00	13	41	0	643825664	58	5745
2026-01-24 13:42:17.68	71.42	35.89	-41.5	-42.5	22.1	0.00e+00	0	41	0	645922816	56	6098
2026-01-24 13:42:18.69	71.80	35.99	-41.2	-42.3	22.2	0.00e+00	92	41	0	648019968	56	5915
2026-01-24 13:42:19.70	72.18	36.08	-41.2	-42.3	22.3	0.00e+00	0	41	0	649068544	56	5927
2026-01-24 13:42:20.71	72.56	36.17	-41.4	-42.4	22.2	0.00e+00	90	41	0	651165696	56	5999
2026-01-24 13:42:21.72	72.95	36.26	-41.4	-42.4	22.1	0.00e+00	0	41	0	653262848	56	6005
2026-01-24 13:42:22.73	73.34	36.35	-41.6	-42.7	21.9	0.00e+00	0	41	0	655360000	56	6226
2026-01-24 13:42:23.74	73.73	36.44	-41.8	-42.9	21.8	0.00e+00	0	41	0	657457152	56	6351
2026-01-24 13:42:24.75	74.12	36.53	-41.4	-42.4	22.2	0.00e+00	0	41	0	659554304	56	6012
2026-01-24 13:42:25.76	74.51	36.61	-40.9	-41.9	22.7	0.00e+00	37	41	0	660602880	56	5649
2026-01-24 13:42:26.77	74.91	36.70	-40.5	-41.5	22.7	0.00e+00	0	41	0	662700032	54	6044
2026-01-24 13:42:27.78	75.31	36.78	-39.8	-40.7	23.6	0.00e+00	92	41	0	664797184	54	5524
2026-01-24 13:42:28.79	75.71	36.86	-39.6	-40.5	23.5	0.00e+00	0	41	0	666894336	54	5386
2026-01-24 13:42:29.80	76.11	36.95	-40.2	-41.1	23.1	0.00e+00	0	41	0	668991488	52	6532
2026-01-24 13:42:30.81	76.51	37.03	-41.0	-42.1	22.5	0.00e+00	0	41	0	670040064	54	6472
2026-01-24 13:42:31.82	76.92	37.10	-41.9	-43.1	21.6	0.00e+00	0	41	0	672137216	54	7267
2026-01-24 13:42:32.83	77.33	37.18	-41.4	-42.5	22.1	0.00e+00	92	41	0	674234368	56	6054
2026-01-24 13:42:33.84	77.74	37.26	-41.5	-42.6	21.9	0.00e+00	0	41	0	676331520	56	6128
2026-01-24 13:42:34.85	78.15	37.33	-41.5	-42.5	22.1	0.00e+00	92	41	0	678428672	56	6102
2026-01-24 13:42:35.86	78.56	37.40	-42.1	-43.3	21.7	0.00e+00	0	41	0	679477248	56	6645
2026-01-24 13:42:36.87	78.98	37.47	-42.0	-43.2	21.5	0.00e+00	0	41	0	681574400	56	6566
2026-01-24 13:42:37.88	79.40	37.54	-41.4	-42.5	22.2	0.00e+00	0	41	0	683671552	56	6078
2026-01-24 13:42:38.89	79.82	37.61	-41.0	-42.0	22.5	0.00e+00	0	41	0	685768704	56	5735
2026-01-24 13:42:39.90	80.24	37.68	-40.6	-41.5	22.8	0.00e+00	25	41	0	687865856	54	6067
2026-01-24 13:42:40.91	80.66	37.74	-40.4	-41.4	23.0	0.00e+00	0	41	0	688914432	54	5988
2026-01-24 13:42:41.92	81.08	37.81	-40.5	-41.5	22.9	0.00e+00	92	41	0	691011584	54	6035
2026-01-24 13:42:42.92	81.50	37.87	-41.0	-42.0	22.5	0.00e+00	0	41	0	693108736	54	6443
2026-01-24 13:42:43.93	81.93	37.93	-41.2	-42.3	22.3	0.00e+00	0	41	0	695205888	54	6666
2026-01-24 13:42:44.94	82.36	37.98	-41.5	-42.7	21.8	0.00e+00	0	41	0	697303040	54	6954
2026-01-24 13:42:45.96	82.80	38.04	-41.9	-43.1	21.6	0.00e+00	0	41	0	698351616	56	6508
2026-01-24 13:42:46.97	83.23	38.10	-42.3	-43.6	21.1	0.00e+00	17	41	0	700448768	56	6869
2026-01-24 13:42:47.98	83.66	38.15	-42.4	-43.7	21.2	0.00e+00	0	41	0	702545920	56	6945
2026-01-24 13:42:48.99	84.09	38.20	-42.4	-43.7	21.1	0.00e+00	88	41	0	704643072	56	6936
2026-01-24 13:42:50.00	84.53	38.25	-42.6	-43.8	21.5	0.00e+00	0	41	0	706740224	58	6270
2026-01-24 13:42:51.01	84.97	38.30	-41.2	-42.2	22.3	0.00e+00	92	41	0	707788800	56	5855
2026-01-24 13:42:52.02	85.41	38.35	-40.9	-41.9	22.6	0.00e+00	0	41	0	709885952	56	5673
2026-01-24 13:42:53.03	85.85	38.39	-40.3	-41.3	23.0	0.00e+00	0	41	0	711983104	54	5923
2026-01-24 13:42:54.04	86.29	38.43	-40.9	-42.0	22.5	0.00e+00	0	41	0	714080256	54	6406
2026-01-24 13:42:55.05	86.73	38.47	-41.3	-42.4	22.1	0.00e+00	0	41	0	716177408	54	6704
2026-01-24 13:42:56.06	87.17	38.51	-41.7	-42.8	21.7	0.00e+00	82	41	0	717225984	54	7078
2026-01-24 13:42:57.07	87.62	38.55	-41.9	-43.0	21.7	0.00e+00	0	41	0	719323136	56	6452
2026-01-24 13:42:58.08	88.06	38.58	-42.5	-43.8	21.2	0.00e+00	91	41	0	721420288	56	7033
2026-01-24 13:42:59.09	88.51	38.62	-43.0	-44.3	20.6	0.00e+00	0	41	0	723517440	58	6640
2026-01-24 13:43:00.10	88.95	38.65	-43.0	-44.3	20.8	0.00e+00	17	41	0	725614592	58	6644
2026-01-24 13:43:01.11	89.40	38.68	-42.1	-43.2	21.6	0.00e+00	0	41	0	727711744	58	5861
2026-01-24 13:43:02.12	89.85	38.71	-41.6	-42.7	22.0	0.00e+00	0	41	0	728760320	56	6212
2026-01-24 13:43:03.14	90.30	38.73	-41.7	-42.8	21.9	0.00e+00	13	41	0	730857472	56	6298
2026-01-24 13:43:04.15	90.75	38.76	-41.7	-42.8	22.0	0.00e+00	0	41	0	732954624	56	6269
2026-01-24 13:43:05.16	91.21	38.78	-41.6	-42.7	22.0	0.00e+00	77	41	0	735051776	56	6190
2026-01-24 13:43:06.17	91.66	38.80	-41.8	-42.9	21.9	0.00e+00	0	41	0	737148928	56	6329
2026-01-24 13:43:07.18	92.11	38.82	-42.1	-43.3	21.4	0.00e+00	0	41	0	738197504	56	6623
2026-01-24 13:43:08.19	92.56	38.83	-43.7	-45.3	19.6	0.00e+00	0	41	0	740294656	58	7465
2026-01-24 13:43:09.20	93.01	38.85	-44.9	-46.9	18.3	0.00e+00	0	41	0	742391808	60	7970
2026-01-24 13:43:10.21	93.47	38.86	-44.9	-46.7	18.5	0.00e+00	60	41	0	744488960	60	7837
2026-01-24 13:43:11.21	93.92	38.87	-43.9	-45.4	19.9	0.00e+00	0	41	0	746586112	60	6705
2026-01-24 13:43:12.22	94.37	38.88	-42.0	-43.2	21.7	0.00e+00	90	41	0	747634688	58	5844
2026-01-24 13:43:13.23	94.82	38.88	-41.4	-42.4	22.3	0.00e+00	0	41	0	749731840	56	6011
2026-01-24 13:43:14.24	95.28	38.89	-41.4	-42.5	22.2	0.00e+00	0	41	0	751828992	56	6036
2026-01-24 13:43:15.25	95.73	38.89	-40.9	-41.9	22.7	0.00e+00	0	41	0	753926144	56	5655
2026-01-24 13:43:16.26	96.19	38.89	-40.4	-41.3	23.0	0.00e+00	0	41	0	756023296	54	5951
2026-01-24 13:43:17.27	96.64	38.89	-40.0	-40.9	23.4	0.00e+00	57	41	0	757071872	54	5679
2026-01-24 13:43:18.28	97.09	38.89	-39.8	-40.7	23.5	0.00e+00	0	41	0	759169024	52	6228
2026-01-24 13:43:19.29	97.55	38.88	-40.4	-41.4	23.0	0.00e+00	92	41	0	761266176	52	6721
2026-01-24 13:43:20.30	98.00	38.87	-40.7	-41.7	22.9	0.00e+00	0	41	0	763363328	54	6183
2026-01-24 13:43:21.31	98.45	38.86	-40.4	-41.4	23.0	0.00e+00	0	41	0	765460480	54	6000
2026-01-24 13:43:22.32	98.91	38.85	-40.4	-41.4	23.0	0.00e+00	0	41	0	766509056	54	5992
2026-01-24 13:43:23.33	99.36	38.84	-41.0	-42.0	22.5	0.00e+00	0	41	0	768606208	54	6399
2026-01-24 13:43:24.34	99.81	38.82	-41.5	-42.6	22.0	0.00e+00	49	41	0	770703360	54	6856
2026-01-24 13:43:25.35	100.27	38.80	-41.6	-42.7	21.8	0.00e+00	0	41	0	772800512	56	6228
2026-01-24 13:43:26.36	100.72	38.79	-41.5	-42.5	22.1	0.00e+00	91	41	0	774897664	56	6099
2026-01-24 13:43:27.37	101.17	38.76	-41.3	-42.3	22.3	0.00e+00	0	41	0	776994816	56	5947
2026-01-24 13:43:28.38	101.62	38.74	-40.6	-41.6	22.9	0.00e+00	0	41	0	778043392	54	6132
2026-01-24 13:43:29.39	102.07	38.72	-40.2	-41.1	23.2	0.00e+00	0	41	0	780140544	54	5816
2026-01-24 13:43:30.40	102.52	38.69	-40.1	-41.0	23.3	0.00e+00	0	41	0	782237696	54	5746
2026-01-24 13:43:31.41	102.97	38.66	-40.4	-41.4	23.0	0.00e+00	9	41	0	784334848	54	5983
2026-01-24 13:43:32.42	103.41	38.63	-41.1	-42.1	22.4	0.00e+00	0	41	0	786432000	54	6509
2026-01-24 13:43:33.42	103.86	38.60	-41.6	-42.7	21.5	0.00e+00	15	41	0	787480576	54	6992
2026-01-24 13:43:34.43	104.30	38.56	-41.7	-42.9	21.9	0.00e+00	0	41	0	789577728	56	6323
2026-01-24 13:43:35.44	104.75	38.52	-41.2	-42.3	22.2	0.00e+00	92	41	0	791674880	56	5906
2026-01-24 13:43:36.45	105.19	38.49	-40.9	-41.9	22.7	0.00e+00	0	41	0	793772032	56	5679
2026-01-24 13:43:37.46	105.63	38.45	-40.8	-41.8	22.6	0.00e+00	0	41	0	794820608	54	6298
2026-01-24 13:43:38.47	106.08	38.40	-40.7	-41.7	22.8	0.00e+00	9	41	0	796917760	54	6217
2026-01-24 13:43:39.48	106.52	38.36	-40.5	-41.5	22.8	0.00e+00	0	41	0	799014912	54	6040
2026-01-24 13:43:40.49	106.96	38.31	-40.4	-41.3	23.1	0.00e+00	6	41	0	801112064	54	5955
2026-01-24 13:43:41.50	107.39	38.27	-40.0	-41.0	23.3	0.00e+00	0	41	0	803209216	54	5709
2026-01-24 13:43:42.51	107.83	38.22	-40.8	-41.8	22.6	0.00e+00	92	41	0	805306368	54	6315
2026-01-24 13:43:43.52	108.27	38.17	-41.8	-42.9	21.6	0.00e+00	0	41	0	806354944	54	7161
2026-01-24 13:43:44.53	108.70	38.11	-42.0	-43.2	21.5	0.00e+00	0	41	0	808452096	56	6606
2026-01-24 13:43:45.54	109.13	38.06	-41.3	-42.4	22.5	0.00e+00	0	41	0	810549248	56	5983
2026-01-24 13:43:46.55	109.56	38.00	-39.8	-40.7	23.3	0.00e+00	0	41	0	812646400	54	5535
2026-01-24 13:43:47.56	109.99	37.94	-39.9	-40.8	23.5	0.00e+00	9	41	0	814743552	52	6279
2026-01-24 13:43:48.57	110.42	37.89	-40.7	-41.7	22.5	0.00e+00	0	41	0	815792128	54	6216
2026-01-24 13:43:49.58	110.85	37.82	-41.3	-42.3	22.1	0.00e+00	72	41	0	817889280	54	6664
2026-01-24 13:43:50.59	111.27	37.76	-41.4	-42.5	22.0	0.00e+00	0	41	0	819986432	54	6795
2026-01-24 13:43:51.60	111.70	37.70	-40.1	-41.1	23.4	0.00e+00	0	41	0	822083584	54	5783
2026-01-24 13:43:52.60	112.12	37.63	-39.6	-40.5	23.8	0.00e+00	0	41	0	824180736	52	6065
2026-01-24 13:43:53.61	112.54	37.56	-40.3	-41.2	23.0	0.00e+00	0	41	0	825229312	52	6611
2026-01-24 13:43:54.62	112.95	37.49	-41.6	-42.7	21.8	0.00e+00	4	41	0	827326464	54	6950
2026-01-24 13:43:55.63	113.37	37.42	-42.6	-44.0	20.9	0.00e+00	0	41	0	829423616	56	7175
2026-01-24 13:43:56.64	113.79	37.35	-42.2	-43.5	21.2	0.00e+00	90	41	0	831520768	58	6060
2026-01-24 13:43:57.65	114.20	37.28	-40.7	-41.7	22.9	0.00e+00	0	41	0	833617920	56	5507
2026-01-24 13:43:58.66	114.61	37.20	-39.9	-40.8	23.4	0.00e+00	8	41	0	834666496	54	5628
2026-01-24 13:43:59.67	115.02	37.13	-40.2	-41.2	23.2	0.00e+00	0	41	0	836763648	54	5834
2026-01-24 13:44:00.68	115.43	37.05	-40.5	-41.5	22.9	0.00e+00	0	41	0	838860800	54	6080
2026-01-24 13:44:01.69	115.83	36.97	-39.9	-40.8	23.4	0.00e+00	11	41	0	840957952	54	5617
2026-01-24 13:44:02.70	116.24	36.89	-38.8	-39.6	24.3	0.00e+00	0	41	0	843055104	52	5489
2026-01-24 13:44:03.71	116.64	36.81	-38.1	-38.9	24.7	0.00e+00	92	41	0	844103680	50	5657
2026-01-24 13:44:04.72	117.04	36.72	-37.7	-38.5	25.1	0.00e+00	0	41	0	846200832	48	6036
2026-01-24 13:44:05.73	117.44	36.64	-38.8	-39.7	24.2	0.00e+00	92	41	0	848297984	48	6933
2026-01-24 13:44:06.74	117.83	36.55	-40.2	-41.2	23.0	0.00e+00	0	41	0	850395136	52	6571
2026-01-24 13:44:07.75	118.23	36.46	-40.7	-41.7	22.6	0.00e+00	0	41	0	852492288	54	6206
2026-01-24 13:44:08.76	118.62	36.38	-40.5	-41.5	22.9	0.00e+00	0	41	0	853540864	54	6059
2026-01-24 13:44:09.76	119.00	36.29	-40.1	-41.0	23.3	0.00e+00	0	41	0	855638016	54	5716
2026-01-24 13:44:10.77	119.39	36.20	-39.3	-40.2	24.0	0.00e+00	92	41	0	857735168	52	5840
2026-01-24 13:44:11.78	119.77	36.10	-39.4	-40.3	23.9	0.00e+00	0	41	0	859832320	52	5924
2026-01-24 13:44:12.79	120.16	36.01	-39.0	-39.9	24.1	0.00e+00	90	41	0	861929472	52	5667
2026-01-24 13:44:13.80	120.54	35.92	-38.6	-39.5	24.5	0.00e+00	0	41	0	862978048	50	6039
2026-01-24 13:44:14.81	120.92	35.82	-37.7	-38.5	24.9	0.00e+00	0	41	0	865075200	48	6061
2026-01-24 13:44:15.82	121.29	35.72	-37.9	-38.7	24.9	0.00e+00	0	41	0	867172352	48	6230
2026-01-24 13:44:16.83	121.67	35.63	-38.7	-39.5	24.3	0.00e+00	0	41	0	869269504	48	6848
2026-01-24 13:44:17.84	122.04	35.53	-39.7	-40.5	23.6	0.00e+00	90	41	0	871366656	50	6845
2026-01-24 13:44:18.85	122.41	35.43	-40.7	-41.7	22.7	0.00e+00	0	41	0	873463808	52	6972
2026-01-24 13:44:19.86	122.78	35.33	-40.7	-41.7	22.7	0.00e+00	92	41	0	874512384	54	6185
2026-01-24 13:44:20.87	123.14	35.23	-40.8	-41.8	22.7	0.00e+00	0	41	0	876609536	54	6266
2026-01-24 13:44:21.88	123.51	35.12	-40.9	-41.9	22.7	0.00e+00	0	41	0	878706688	54	6362
2026-01-24 13:44:22.89	123.87	35.02	-41.1	-42.1	22.4	0.00e+00	0	41	0	880803840	54	6497
2026-01-24 13:44:23.90	124.23	34.92	-41.7	-42.8	21.9	0.00e+00	0	41	0	882900992	56	6273
2026-01-24 13:44:24.91	124.58	34.81	-42.3	-43.4	21.4	0.00e+00	90	41	0	883949568	56	6748
2026-01-24 13:44:25.92	124.94	34.70	-42.0	-43.1	21.6	0.00e+00	0	41	0	886046720	56	6508
2026-01-24 13:44:26.93	125.29	34.60	-41.4	-42.5	21.9	0.00e+00	73	41	0	888143872	56	6081
2026-01-24 13:44:27.94	125.64	34.49	-41.3	-42.3	22.0	0.00e+00	0	41	0	890241024	56	5933
2026-01-24 13:44:28.95	125.99	34.38	-41.9	-43.0	21.2	0.00e+00	0	41	0	892338176	56	6459
2026-01-24 13:44:29.96	126.33	34.27	-42.8	-44.1	20.7	0.00e+00	0	41	0	893386752	58	6485
2026-01-24 13:44:30.97	126.67	34.16	-43.9	-45.4	19.7	0.00e+00	0	41	0	895483904	60	6695
2026-01-24 13:44:31.98	127.01	34.05	-44.0	-45.5	19.6	0.00e+00	0	41	0	897581056	60	6789
2026-01-24 13:44:32.99	127.35	33.94	-43.5	-44.9	20.1	0.00e+00	0	41	0	899678208	60	6374
2026-01-24 13:44:34.00	127.69	33.83	-43.4	-44.8	20.2	0.00e+00	59	41	0	901775360	60	6264
2026-01-24 13:44:35.01	128.02	33.71	-43.5	-44.8	20.2	0.00e+00	0	41	0	902823936	60	6314
2026-01-24 13:44:36.02	128.35	33.60	-43.8	-45.3	19.4	0.00e+00	0	41	0	904921088	60	6653
2026-01-24 13:44:37.03	128.68	33.49	-45.4	-47.3	17.6	0.00e+00	0	41	0	907018240	60	8377
2026-01-24 13:44:38.04	129.01	33.37	-45.8	-48.0	17.3	0.00e+00	0	41	0	909115392	60	9030
2026-01-24 13:44:39.05	129.33	33.26	-44.4	-46.2	19.0	0.00e+00	0	41	0	911212544	60	7351
2026-01-24 13:44:40.05	129.65	33.14	-43.4	-44.8	20.2	0.00e+00	0	41	0	912261120	60	6283
2026-01-24 13:44:41.06	129.97	33.03	-42.2	-43.3	21.5	0.00e+00	72	41	0	914358272	58	5951
2026-01-24 13:44:42.07	130.29	32.91	-42.1	-43.3	21.3	0.00e+00	0	41	0	916455424	58	5911
2026-01-24 13:44:43.08	130.61	32.79	-42.9	-44.1	20.7	0.00e+00	86	41	0	918552576	58	6526
2026-01-24 13:44:44.09	130.92	32.67	-44.1	-45.7	19.3	0.00e+00	0	41	0	920649728	60	6934
2026-01-24 13:44:45.10	131.23	32.56	-44.6	-46.4	18.8	0.00e+00	0	41	0	921698304	60	7525
2026-01-24 13:44:46.11	131.54	32.44	-44.1	-45.8	19.3	0.00e+00	0	41	0	923795456	60	7009
2026-01-24 13:44:47.12	131.85	32.32	-44.6	-46.3	18.8	0.00e+00	22	41	0	925892608	60	7495
2026-01-24 13:44:48.13	132.15	32.20	-43.9	-45.5	19.5	0.00e+00	8	41	0	927989760	60	6797
2026-01-24 13:44:49.14	132.45	32.08	-44.1	-45.6	19.4	0.00e+00	0	41	0	930086912	60	6902
2026-01-24 13:44:50.14	132.75	31.96	-44.3	-46.0	18.9	0.00e+00	91	41	0	931135488	60	7231
2026-01-24 13:44:51.15	133.05	31.84	-43.6	-45.1	19.8	0.00e+00	0	41	0	933232640	60	6510
2026-01-24 13:44:52.16	133.35	31.72	-42.3	-43.5	21.3	0.00e+00	0	41	0	935329792	58	6040
2026-01-24 13:44:53.17	133.64	31.60	-41.5	-42.5	22.0	0.00e+00	0	41	0	937426944	58	5419
2026-01-24 13:44:54.18	133.93	31.48	-41.7	-42.7	22.1	0.00e+00	0	41	0	939524096	56	6239
2026-01-24 13:44:55.19	134.22	31.35	-41.7	-42.8	21.8	0.00e+00	62	41	0	941621248	56	6269
2026-01-24 13:44:56.20	134.51	31.23	-43.0	-44.3	20.4	0.00e+00	18	41	0	942669824	56	7450
2026-01-24 13:44:57.21	134.79	31.11	-43.3	-44.8	20.1	0.00e+00	92	41	0	944766976	58	7012
2026-01-24 13:44:58.22	135.08	30.99	-43.3	-44.7	20.5	0.00e+00	0	41	0	946864128	58	6973
2026-01-24 13:44:59.23	135.36	30.86	-42.8	-44.1	20.7	0.00e+00	0	41	0	948961280	58	6484
2026-01-24 13:45:00.24	135.64	30.74	-41.8	-43.0	21.6	0.00e+00	0	41	0	951058432	58	5698
2026-01-24 13:45:01.25	135.91	30.62	-41.9	-43.1	21.6	0.00e+00	0	41	0	952107008	58	5773
2026-01-24 13:45:02.25	136.18	30.49	-41.8	-43.0	21.6	0.00e+00	62	41	0	954204160	58	5720
2026-01-24 13:45:03.26	136.46	30.37	-42.8	-44.1	20.6	0.00e+00	0	41	0	956301312	58	6526
2026-01-24 13:45:04.27	136.73	30.25	-42.8	-44.1	20.6	0.00e+00	54	41	0	958398464	58	6530
2026-01-24 13:45:05.28	137.00	30.12	-42.3	-43.6	21.2	0.00e+00	0	41	0	960495616	58	6131
2026-01-24 13:45:06.29	137.26	30.00	-41.0	-42.1	22.6	0.00e+00	64	41	0	961544192	56	5783
2026-01-24 13:45:07.30	137.53	29.87	-39.5	-40.3	23.6	0.00e+00	0	41	0	963641344	52	5961
2026-01-24 13:45:08.31	137.79	29.75	-39.3	-40.1	23.9	0.00e+00	0	41	0	965738496	52	5797
2026-01-24 13:45:09.32	138.05	29.63	-39.8	-40.7	23.5	0.00e+00	61	41	0	967835648	52	6176
2026-01-24 13:45:10.33	138.31	29.50	-40.3	-41.3	22.8	0.00e+00	0	41	0	969932800	52	6643
2026-01-24 13:45:11.34	138.57	29.38	-41.7	-42.8	21.6	0.00e+00	92	41	0	970981376	54	7059
2026-01-24 13:45:12.35	138.82	29.25	-41.5	-42.6	22.0	0.00e+00	0	41	0	973078528	56	6149
2026-01-24 13:45:13.36	139.07	29.13	-40.6	-41.6	22.5	0.00e+00	70	42	0	975175680	54	6117
2026-01-24 13:45:14.37	139.33	29.00	-40.6	-41.6	22.9	0.00e+00	0	41	0	977272832	54	6126
2026-01-24 13:45:15.38	139.57	28.88	-40.0	-40.9	23.3	0.00e+00	0	41	0	979369984	54	5695
2026-01-24 13:45:16.39	139.82	28.75	-39.7	-40.5	23.4	0.00e+00	0	41	0	980418560	52	6100
2026-01-24 13:45:17.40	140.07	28.63	-40.3	-41.2	23.0	0.00e+00	0	41	0	982515712	52	6592
2026-01-24 13:45:18.41	140.31	28.50	-40.7	-41.7	22.4	0.00e+00	92	41	0	984612864	54	6201
2026-01-24 13:45:19.42	140.55	28.38	-41.3	-42.4	21.9	0.00e+00	0	41	0	986710016	54	6730
2026-01-24 13:45:20.43	140.79	28.25	-41.0	-42.1	22.6	0.00e+00	92	41	0	988807168	54	6499
2026-01-24 13:45:21.43	141.03	28.13	-39.8	-40.8	22.3	0.00e+00	0	41	0	989855744	54	5591
2026-01-24 13:45:22.44	141.26	28.01	-39.1	-40.0	23.9	0.00e+00	0	42	0	991952896	52	5739
2026-01-24 13:45:23.45	141.50	27.88	-38.9	-39.8	24.2	0.00e+00	0	41	0	994050048	52	5574
2026-01-24 13:45:24.46	141.73	27.76	-38.0	-38.8	24.7	0.00e+00	0	41	0	996147200	50	5595
2026-01-24 13:45:25.47	141.96	27.63	-38.3	-39.1	24.6	0.00e+00	36	41	0	998244352	50	5808
2026-01-24 13:45:26.48	142.19	27.51	-38.6	-39.4	24.3	0.00e+00	0	41	0	999292928	50	5987
2026-01-24 13:45:27.49	142.42	27.38	-39.0	-39.9	24.0	0.00e+00	72	41	0	1001390080	50	6329
2026-01-24 13:45:28.50	142.64	27.26	-39.2	-40.1	23.8	0.00e+00	0	42	0	1003487232	50	6471
2026-01-24 13:45:29.51	142.87	27.13	-39.2	-40.0	23.9	0.00e+00	0	41	0	1005584384	50	6451
2026-01-24 13:45:30.52	143.09	27.01	-38.6	-39.4	24.4	0.00e+00	0	41	0	1007681536	50	6023
2026-01-24 13:45:31.53	143.31	26.89	-38.3	-39.1	24.4	0.00e+00	0	41	0	1009778688	50	5812
2026-01-24 13:45:32.54	143.53	26.76	-38.0	-38.8	24.8	0.00e+00	8	41	0	1010827264	50	5576
2026-01-24 13:45:33.55	143.75	26.64	-37.6	-38.4	24.9	0.00e+00	0	41	0	1012924416	48	5987
2026-01-24 13:45:34.56	143.96	26.52	-38.0	-38.7	24.7	0.00e+00	91	41	0	1015021568	48	6237
2026-01-24 13:45:35.57	144.18	26.39	-38.5	-39.3	24.3	0.00e+00	0	41	0	1017118720	48	6674
2026-01-24 13:45:36.58	144.39	26.27	-39.1	-40.0	23.8	0.00e+00	0	41	0	1019215872	50	6443
2026-01-24 13:45:37.59	144.60	26.15	-39.4	-40.3	23.7	0.00e+00	0	41	0	1020264448	50	6640
2026-01-24 13:45:38.60	144.81	26.02	-39.4	-40.3	23.7	0.00e+00	0	41	0	1022361600	50	6655
2026-01-24 13:45:39.61	145.02	25.90	-38.8	-39.6	24.3	0.00e+00	8	42	0	1024458752	50	6138
2026-01-24 13:45:40.61	145.22	25.78	-38.1	-38.9	24.6	0.00e+00	0	41	0	1026555904	50	5667
2026-01-24 13:45:41.62	145.43	25.66	-38.0	-38.8	24.7	0.00e+00	80	42	0	1028653056	50	5587
2026-01-24 13:45:42.63	145.63	25.54	-37.5	-38.2	25.1	0.00e+00	0	41	0	1029701632	48	5868
2026-01-24 13:45:43.64	145.83	25.41	-37.8	-38.5	24.9	0.00e+00	22	42	0	1031798784	48	6087
2026-01-24 13:45:44.65	146.03	25.29	-38.1	-38.9	24.6	0.00e+00	0	42	0	1033895936	48	6365
2026-01-24 13:45:45.66	146.23	25.17	-38.4	-39.2	24.5	0.00e+00	0	42	0	1035993088	48	6560
2026-01-24 13:45:46.67	146.43	25.05	-38.7	-39.5	24.2	0.00e+00	3	41	0	1038090240	48	6843
2026-01-24 13:45:47.68	146.62	24.93	-38.8	-39.7	24.0	0.00e+00	0	42	0	1039138816	50	6178
2026-01-24 13:45:48.69	146.82	24.81	-38.6	-39.4	24.2	0.00e+00	92	42	0	1041235968	50	5991
2026-01-24 13:45:49.70	147.01	24.69	-38.1	-38.9	24.4	0.00e+00	0	41	0	1043333120	50	5661
2026-01-24 13:45:50.71	147.20	24.57	-37.7	-38.5	24.8	0.00e+00	92	41	0	1045430272	50	5421
2026-01-24 13:45:51.72	147.39	24.44	-37.6	-38.4	24.8	0.00e+00	0	42	0	1047527424	48	5999
2026-01-24 13:45:52.72	147.58	24.33	-37.8	-38.6	24.2	0.00e+00	0	42	0	1048576000	48	6139
2026-01-24 13:45:53.73	147.76	24.21	-37.8	-38.5	24.2	0.00e+00	0	42	0	1050673152	48	6101
2026-01-24 13:45:54.74	147.95	24.09	-38.0	-38.8	24.6	0.00e+00	0	41	0	1052770304	48	6302
2026-01-24 13:45:55.75	148.13	23.97	-37.7	-38.5	24.9	0.00e+00	10	42	0	1054867456	48	6044
2026-01-24 13:45:56.76	148.32	23.85	-38.0	-38.8	24.7	0.00e+00	0	42	0	1056964608	48	6249
2026-01-24 13:45:57.77	148.50	23.73	-38.0	-38.8	24.7	0.00e+00	91	41	0	1058013184	48	6278
2026-01-24 13:45:58.78	148.68	23.61	-38.5	-39.3	24.3	0.00e+00	0	42	0	1060110336	48	6672
2026-01-24 13:45:59.79	148.86	23.49	-38.6	-39.4	24.3	0.00e+00	0	41	0	1062207488	48	6726
2026-01-24 13:46:00.80	149.03	23.37	-38.5	-39.4	24.3	0.00e+00	0	42	0	1064304640	48	6711
2026-01-24 13:46:01.81	149.21	23.26	-38.5	-39.3	24.2	0.00e+00	0	42	0	1066401792	48	6688
2026-01-24 13:46:02.82	149.38	23.14	-38.9	-39.8	24.0	0.00e+00	11	42	0	1067450368	50	6247
2026-01-24 13:46:03.83	149.56	23.02	-39.0	-39.8	24.0	0.00e+00	0	42	0	1069547520	50	6300
2026-01-24 13:46:04.84	149.73	22.90	-38.9	-39.8	24.0	0.00e+00	92	42	0	1071644672	50	6273
2026-01-24 13:46:05.85	149.90	22.79	-38.9	-39.7	24.0	0.00e+00	0	42	0	1073741824	50	6214
2026-01-24 13:46:06.86	150.07	22.67	-39.0	-39.8	24.0	0.00e+00	0	42	0	1075838976	50	6294
2026-01-24 13:46:07.87	150.24	22.56	-38.6	-39.5	24.2	0.00e+00	0	42	0	1077936128	50	6036
2026-01-24 13:46:08.88	150.41	22.44	-38.3	-39.1	24.5	0.00e+00	0	42	0	1078984704	50	5813
2026-01-24 13:46:09.88	150.57	22.33	-38.4	-39.2	24.4	0.00e+00	12	42	0	1081081856	50	5869
2026-01-24 13:46:10.89	150.74	22.21	-38.3	-39.1	24.3	0.00e+00	0	41	0	1083179008	50	5765
2026-01-24 13:46:11.90	150.90	22.09	-38.6	-39.4	24.2	0.00e+00	92	42	0	1085276160	50	5998
2026-01-24 13:46:12.91	151.07	21.98	-38.8	-39.6	24.2	0.00e+00	0	42	0	1086324736	50	6127
2026-01-24 13:46:13.92	151.23	21.87	-38.7	-39.6	24.1	0.00e+00	0	42	0	1088421888	50	6123
2026-01-24 13:46:14.92	151.39	21.75	-39.2	-40.1	23.7	0.00e+00	0	42	0	1090519040	50	6469
2026-01-24 13:46:15.94	151.55	21.64	-39.4	-40.3	23.7	0.00e+00	0	42	0	1092616192	50	6617
2026-01-24 13:46:16.94	151.70	21.53	-39.3	-40.1	23.7	0.00e+00	47	42	0	1094713344	50	6523
2026-01-24 13:46:17.95	151.86	21.41	-39.2	-40.1	23.7	0.00e+00	0	42	0	1095761920	50	6496
2026-01-24 13:46:18.96	152.02	21.30	-39.2	-40.1	23.8	0.00e+00	77	42	0	1097859072	50	6518
2026-01-24 13:46:19.97	152.17	21.19	-38.8	-39.7	24.2	0.00e+00	0	42	0	1099956224	50	6174
2026-01-24 13:46:20.98	152.32	21.07	-38.7	-39.5	24.2	0.00e+00	0	42	0	1102053376	50	6052
2026-01-24 13:46:21.99	152.48	20.96	-38.9	-39.7	24.0	0.00e+00	0	42	0	1104150528	50	6202
2026-01-24 13:46:23.00	152.63	20.85	-39.2	-40.0	23.8	0.00e+00	0	42	0	1106247680	50	6443
2026-01-24 13:46:24.01	152.78	20.74	-39.3	-40.2	23.8	0.00e+00	0	42	0	1107296256	50	6545
2026-01-24 13:46:25.02	152.93	20.63	-39.6	-40.5	23.3	0.00e+00	0	42	0	1109393408	50	6822
2026-01-24 13:46:26.03	153.08	20.52	-40.4	-41.3	22.8	0.00e+00	27	42	0	1111490560	52	6688
2026-01-24 13:46:27.04	153.23	20.41	-40.6	-41.6	22.5	0.00e+00	0	42	0	1113587712	52	6861
2026-01-24 13:46:28.05	153.37	20.30	-40.9	-41.9	22.2	0.00e+00	83	42	0	1115684864	54	6374
2026-01-24 13:46:29.05	153.52	20.19	-40.9	-42.0	22.2	0.00e+00	0	42	0	1116733440	54	6420
2026-01-24 13:46:30.06	153.66	20.08	-40.8	-41.8	22.2	0.00e+00	0	42	0	1118830592	54	6306
2026-01-24 13:46:31.07	153.80	19.97	-41.1	-42.2	21.9	0.00e+00	5	42	0	1120927744	54	6587
2026-01-24 13:46:32.08	153.95	19.86	-40.9	-41.9	22.3	0.00e+00	0	42	0	1123024896	54	6373
2026-01-24 13:46:33.09	154.09	19.75	-40.8	-41.9	22.3	0.00e+00	78	42	0	1125122048	54	6335
2026-01-24 13:46:34.10	154.23	19.64	-40.8	-41.8	22.3	0.00e+00	0	42	0	1126170624	54	6296
2026-01-24 13:46:35.11	154.37	19.53	-40.5	-41.5	22.4	0.00e+00	84	42	0	1128267776	54	6057
2026-01-24 13:46:36.12	154.51	19.43	-40.7	-41.7	22.3	0.00e+00	0	42	0	1130364928	54	6243
2026-01-24 13:46:37.13	154.64	19.32	-41.0	-42.1	21.8	0.00e+00	7	42	0	1132462080	54	6509
2026-01-24 13:46:38.14	154.78	19.21	-41.4	-42.5	21.5	0.00e+00	0	41	0	1134559232	54	6813
2026-01-24 13:46:39.14	154.92	19.10	-41.6	-42.8	21.2	0.00e+00	0	42	0	1135607808	54	7050
2026-01-24 13:46:40.15	155.05	19.00	-42.0	-43.2	20.9	0.00e+00	88	41	0	1137704960	56	6572
2026-01-24 13:46:41.16	155.18	18.89	-42.2	-43.5	20.6	0.00e+00	0	42	0	1139802112	56	6826
2026-01-24 13:46:42.17	155.32	18.79	-42.1	-43.4	20.5	0.00e+00	52	41	0	1141899264	56	6709
2026-01-24 13:46:43.18	155.45	18.68	-42.3	-43.6	20.6	0.00e+00	0	41	0	1143996416	56	6924
2026-01-24 13:46:44.19	155.58	18.57	-42.2	-43.4	20.6	0.00e+00	0	42	0	1145044992	56	6748
2026-01-24 13:46:45.20	155.71	18.47	-42.2	-43.5	20.7	0.00e+00	0	42	0	1147142144	56	6774
2026-01-24 13:46:46.21	155.84	18.36	-41.6	-42.8	21.3	0.00e+00	0	42	0	1149239296	56	6247
2026-01-24 13:46:47.22	155.97	18.26	-41.4	-42.6	21.4	0.00e+00	8	42	0	1151336448	56	6120
2026-01-24 13:46:48.23	156.10	18.16	-41.0	-42.1	21.9	0.00e+00	0	42	0	1153433600	56	5823
2026-01-24 13:46:49.24	156.22	18.05	-40.7	-41.7	22.1	0.00e+00	92	42	0	1154482176	54	6239
2026-01-24 13:46:50.25	156.35	17.95	-40.4	-41.4	22.5	0.00e+00	0	41	0	1156579328	54	5973
2026-01-24 13:46:51.25	156.47	17.85	-40.5	-41.5	22.4	0.00e+00	37	42	0	1158676480	54	6052
2026-01-24 13:46:52.26	156.60	17.74	-40.2	-41.2	22.7	0.00e+00	0	42	0	1160773632	54	5888
2026-01-24 13:46:53.27	156.72	17.64	-40.6	-41.6	22.3	0.00e+00	0	42	0	1162870784	54	6142
2026-01-24 13:46:54.28	156.85	17.54	-40.3	-41.3	22.7	0.00e+00	8	42	0	1163919360	54	5922
2026-01-24 13:46:55.29	156.97	17.44	-40.4	-41.4	22.6	0.00e+00	0	42	0	1166016512	54	5981
2026-01-24 13:46:56.30	157.09	17.33	-40.3	-41.3	22.6	0.00e+00	90	42	0	1168113664	54	5943
2026-01-24 13:46:57.31	157.21	17.23	-40.3	-41.3	22.8	0.00e+00	0	42	0	1170210816	54	5908
2026-01-24 13:46:58.32	157.33	17.13	-40.3	-41.3	22.7	0.00e+00	92	42	0	1172307968	54	5956
2026-01-24 13:46:59.33	157.45	17.03	-40.2	-41.2	22.7	0.00e+00	0	42	0	1174405120	54	5864
2026-01-24 13:47:00.34	157.57	16.93	-39.9	-40.9	23.0	0.00e+00	0	42	0	1175453696	54	5655
2026-01-24 13:47:01.34	157.68	16.83	-40.2	-41.2	22.7	0.00e+00	0	41	0	1177550848	54	5884
2026-01-24 13:47:02.35	157.80	16.73	-40.1	-41.1	22.8	0.00e+00	0	42	0	1179648000	54	5782
2026-01-24 13:47:03.36	157.92	16.63	-39.9	-40.9	23.1	0.00e+00	8	42	0	1181745152	54	5660
2026-01-24 13:47:04.37	158.03	16.53	-40.2	-41.2	22.8	0.00e+00	0	42	0	1183842304	54	5848
2026-01-24 13:47:05.38	158.15	16.43	-39.6	-40.5	23.3	0.00e+00	92	42	0	1184890880	52	6080
2026-01-24 13:47:06.39	158.26	16.33	-39.8	-40.7	23.2	0.00e+00	0	42	0	1186988032	52	6239
2026-01-24 13:47:07.40	158.37	16.24	-39.6	-40.5	23.4	0.00e+00	0	42	0	1189085184	52	6084
2026-01-24 13:47:08.41	158.49	16.14	-39.6	-40.5	23.3	0.00e+00	0	42	0	1191182336	52	6080
2026-01-24 13:47:09.42	158.60	16.04	-40.1	-41.0	23.0	0.00e+00	0	41	0	1193279488	52	6437
2026-01-24 13:47:10.43	158.71	15.94	-40.0	-41.0	23.0	0.00e+00	2	42	0	1194328064	52	6418
2026-01-24 13:47:11.43	158.82	15.85	-40.2	-41.2	22.8	0.00e+00	0	42	0	1196425216	52	6561
2026-01-24 13:47:12.44	158.93	15.75	-40.7	-41.7	22.3	0.00e+00	92	42	0	1198522368	52	6996
2026-01-24 13:47:13.45	159.04	15.65	-40.6	-41.6	22.5	0.00e+00	0	42	0	1200619520	52	6880
2026-01-24 13:47:14.46	159.14	15.56	-41.0	-42.0	22.1	0.00e+00	0	42	0	1202716672	54	6454
2026-01-24 13:47:15.47	159.25	15.46	-41.3	-42.4	21.8	0.00e+00	0	42	0	1203765248	54	6714
2026-01-24 13:47:16.48	159.36	15.36	-41.1	-42.1	22.0	0.00e+00	0	42	0	1205862400	54	6528
2026-01-24 13:47:17.49	159.46	15.27	-41.2	-42.3	21.9	0.00e+00	65	42	0	1207959552	54	6656
2026-01-24 13:47:18.50	159.57	15.17	-41.0	-42.1	22.0	0.00e+00	0	42	0	1210056704	54	6485
2026-01-24 13:47:19.51	159.68	15.08	-40.9	-42.0	22.1	0.00e+00	75	42	0	1212153856	54	6406
