passes_logs/2026/01/24/R4.6S_Anadyr/R4.6S_Anadyr__20260124_215231_SUOMI_NPP_rec.log

#Pass ID: 20260124_215231_SUOMI NPP
#Satellite: SUOMI NPP
#Configuration: NPP
#almurnet v.1.7.20251203
#Start time: 2026-01-24 21:52:32

#Version: 2.2.20231116
#Station: R4.6S_Anadyr
#Location: 177.4865 lon 64.73178 lat
#TLE: 1 37849U 11061A   26024.54906732  .00000185  00000+0  10878-3 0  9990
#TLE: 2 37849  98.7821 326.5159 0002200  47.3746 312.7615 14.19529340738061

#Time	Az	El	Level	Level2	SNR	BER	BlckErr	Temp	State	Recorded	gain1	gain2
2026-01-24 21:52:32.96	98.42	0.08	-51.6	-64.1	3.4	1.52e+00	0	38	0	0	60	56586
2026-01-24 21:52:33.96	98.37	0.14	-52.3	-67.5	3.6	1.51e+00	0	39	104	0	60	86096
2026-01-24 21:52:34.97	98.31	0.19	-52.0	-67.2	3.6	1.51e+00	0	39	104	0	60	83210
2026-01-24 21:52:35.98	98.26	0.25	-51.6	-66.9	3.6	1.51e+00	0	39	104	0	60	79832
2026-01-24 21:52:36.99	98.20	0.30	-51.8	-67.0	3.6	1.51e+00	0	39	104	0	60	80643
2026-01-24 21:52:38.00	98.14	0.36	-51.7	-66.9	3.6	1.51e+00	0	40	104	0	60	79711
2026-01-24 21:52:39.01	98.09	0.41	-51.6	-66.8	3.6	1.51e+00	0	40	104	0	60	79039
2026-01-24 21:52:40.02	98.03	0.47	-51.4	-66.6	3.6	1.51e+00	0	40	104	0	60	77686
2026-01-24 21:52:41.03	97.97	0.52	-51.4	-66.6	3.6	1.51e+00	0	40	104	0	60	77683
2026-01-24 21:52:42.04	97.92	0.58	-51.4	-66.6	3.6	1.51e+00	0	40	104	0	60	77509
2026-01-24 21:52:43.05	97.86	0.63	-51.4	-66.6	3.6	1.51e+00	0	40	104	0	60	77109
2026-01-24 21:52:44.06	97.80	0.69	-51.3	-66.6	3.6	1.51e+00	0	40	104	0	60	77319
2026-01-24 21:52:45.07	97.74	0.75	-51.3	-66.5	3.6	1.51e+00	0	40	104	0	60	76333
2026-01-24 21:52:46.08	97.69	0.80	-51.3	-66.5	3.6	1.51e+00	0	40	104	0	60	76751
2026-01-24 21:52:47.09	97.63	0.86	-51.3	-66.6	3.6	1.51e+00	0	40	104	0	60	76965
2026-01-24 21:52:48.10	97.57	0.91	-51.2	-66.5	3.6	1.51e+00	0	40	104	0	60	76488
2026-01-24 21:52:49.11	97.51	0.97	-51.2	-66.5	3.6	1.51e+00	0	40	104	0	60	76019
2026-01-24 21:52:50.12	97.45	1.03	-51.2	-66.4	3.6	1.51e+00	0	40	104	0	60	75470
2026-01-24 21:52:51.13	97.39	1.08	-51.0	-66.4	3.6	1.51e+00	0	40	104	0	60	75179
2026-01-24 21:52:52.14	97.33	1.14	-51.0	-66.2	3.6	1.51e+00	0	40	104	0	60	73985
2026-01-24 21:52:53.15	97.27	1.20	-50.9	-66.2	3.6	1.51e+00	0	40	104	0	60	73573
2026-01-24 21:52:54.16	97.21	1.25	-50.9	-66.1	3.6	1.51e+00	0	40	104	0	60	72569
2026-01-24 21:52:55.17	97.15	1.31	-50.7	-66.0	3.6	1.51e+00	0	40	104	0	60	71905
2026-01-24 21:52:56.19	97.09	1.37	-50.6	-65.8	3.6	1.51e+00	0	40	104	0	60	70861
2026-01-24 21:52:57.20	97.03	1.42	-49.6	-65.4	3.6	1.51e+00	0	40	104	0	60	67072
2026-01-24 21:52:58.21	96.97	1.48	-49.3	-64.8	3.6	1.51e+00	0	40	104	0	60	62484
2026-01-24 21:52:59.22	96.91	1.54	-49.3	-64.4	3.6	1.51e+00	0	40	104	0	60	59731
2026-01-24 21:53:00.23	96.85	1.59	-49.3	-64.6	3.6	1.51e+00	0	40	104	0	60	61467
2026-01-24 21:53:01.23	96.79	1.65	-49.4	-64.5	3.6	1.51e+00	0	40	104	0	60	60876
2026-01-24 21:53:02.24	96.72	1.71	-49.3	-64.7	3.6	1.51e+00	0	40	104	0	60	62213
2026-01-24 21:53:03.25	96.66	1.76	-49.3	-64.6	3.6	1.51e+00	0	40	104	0	60	61374
2026-01-24 21:53:04.26	96.60	1.82	-49.3	-64.7	3.6	1.51e+00	0	40	104	0	60	62243
2026-01-24 21:53:05.27	96.54	1.88	-49.3	-64.6	3.6	1.51e+00	0	40	104	0	60	61341
2026-01-24 21:53:06.28	96.47	1.94	-49.3	-64.7	3.6	1.51e+00	0	40	104	0	60	61965
2026-01-24 21:53:07.29	96.41	1.99	-49.3	-64.6	3.6	1.51e+00	0	40	104	0	60	61219
2026-01-24 21:53:08.30	96.35	2.05	-49.4	-64.6	3.6	1.51e+00	0	40	104	0	60	61543
2026-01-24 21:53:09.31	96.28	2.11	-49.2	-64.6	3.6	1.51e+00	0	40	104	0	60	61618
2026-01-24 21:53:10.32	96.22	2.17	-49.3	-64.5	3.6	1.51e+00	0	40	104	0	60	61020
2026-01-24 21:53:11.33	96.15	2.22	-49.3	-64.5	3.6	1.51e+00	0	40	104	0	60	60410
2026-01-24 21:53:12.33	96.09	2.28	-49.3	-64.3	3.6	1.51e+00	0	40	104	0	60	59642
2026-01-24 21:53:13.34	96.03	2.34	-49.2	-64.5	3.6	1.51e+00	0	40	104	0	60	60901
2026-01-24 21:53:14.35	95.96	2.40	-49.3	-64.5	3.6	1.51e+00	0	40	104	0	60	60915
2026-01-24 21:53:15.36	95.89	2.46	-49.2	-64.6	3.6	1.51e+00	0	40	104	0	60	61280
2026-01-24 21:53:16.37	95.83	2.51	-49.2	-64.6	3.6	1.51e+00	0	40	104	0	60	61383
2026-01-24 21:53:17.38	95.76	2.57	-49.2	-64.7	3.6	1.51e+00	0	40	104	0	60	61782
2026-01-24 21:53:18.39	95.70	2.63	-49.3	-64.7	3.6	1.51e+00	0	40	104	0	60	61958
2026-01-24 21:53:19.40	95.63	2.69	-49.3	-64.6	3.6	1.51e+00	0	40	104	0	60	61441
2026-01-24 21:53:20.41	95.56	2.75	-49.3	-64.5	3.6	1.51e+00	0	40	104	0	60	60978
2026-01-24 21:53:21.42	95.50	2.81	-49.3	-64.5	3.6	1.51e+00	0	40	104	0	60	60685
2026-01-24 21:53:22.43	95.43	2.87	-49.2	-63.7	3.6	1.51e+00	0	40	104	0	60	55552
2026-01-24 21:53:23.44	95.36	2.93	-49.3	-64.3	3.6	1.51e+00	0	40	104	0	60	59143
2026-01-24 21:53:24.45	95.29	2.98	-49.3	-64.3	3.6	1.51e+00	0	40	104	0	60	59219
2026-01-24 21:53:25.46	95.23	3.04	-49.3	-64.6	3.6	1.51e+00	0	40	104	0	60	61452
2026-01-24 21:53:26.47	95.16	3.10	-49.2	-63.6	3.6	1.51e+00	0	40	104	0	60	54567
2026-01-24 21:53:27.48	95.09	3.16	-49.1	-61.1	3.8	1.50e+00	0	40	104	0	60	41067
2026-01-24 21:53:28.49	95.02	3.22	-48.5	-56.4	7.1	7.91e-01	0	40	104	0	60	23813
2026-01-24 21:53:29.50	94.95	3.28	-48.0	-53.4	9.8	6.17e-02	90	40	0	1048576	60	16922
2026-01-24 21:53:30.51	94.88	3.34	-46.7	-50.4	13.0	6.25e-05	92	40	0	3145728	60	11998
2026-01-24 21:53:31.52	94.81	3.40	-47.7	-52.8	10.1	7.62e-05	0	40	0	5242880	60	15856
2026-01-24 21:53:32.53	94.74	3.46	-49.5	-61.0	3.6	7.53e-02	51	40	104	6291456	60	40772
2026-01-24 21:53:33.54	94.67	3.52	-45.4	-48.2	6.0	1.48e+00	0	40	104	6291456	60	9288
2026-01-24 21:53:34.55	94.60	3.58	-44.4	-46.5	16.9	0.00e+00	71	40	0	6291456	60	7635
2026-01-24 21:53:35.56	94.53	3.64	-46.6	-50.4	11.1	6.10e-06	0	40	0	8388608	60	11953
2026-01-24 21:53:36.57	94.46	3.70	-47.6	-52.9	5.6	1.48e+00	0	40	104	8388608	60	16051
2026-01-24 21:53:37.58	94.39	3.76	-45.4	-48.1	15.3	8.53e-02	53	40	104	8388608	60	9196
2026-01-24 21:53:38.59	94.31	3.82	-46.0	-49.0	15.2	0.00e+00	81	40	0	9437184	60	10210
2026-01-24 21:53:39.60	94.24	3.88	-45.7	-48.4	15.2	0.00e+00	92	41	0	11534336	60	9541
2026-01-24 21:53:40.60	94.17	3.94	-46.1	-49.1	14.8	7.00e-07	0	40	0	13631488	60	10324
2026-01-24 21:53:41.61	94.10	4.00	-45.9	-48.7	15.1	0.00e+00	92	40	0	14680064	60	9824
2026-01-24 21:53:42.62	94.02	4.06	-46.0	-48.8	15.1	0.00e+00	0	41	0	16777216	60	10010
2026-01-24 21:53:43.63	93.95	4.12	-44.8	-46.9	17.0	0.00e+00	92	41	0	18874368	60	8038
2026-01-24 21:53:44.64	93.88	4.18	-45.5	-48.0	15.8	0.00e+00	12	41	0	20971520	60	9071
2026-01-24 21:53:45.65	93.80	4.24	-44.9	-47.1	16.8	0.00e+00	90	40	0	23068672	60	8204
2026-01-24 21:53:46.66	93.73	4.30	-44.6	-46.6	16.9	0.00e+00	92	41	0	24117248	60	7751
2026-01-24 21:53:47.67	93.65	4.36	-45.1	-47.2	16.9	0.00e+00	0	40	0	26214400	60	8316
2026-01-24 21:53:48.68	93.58	4.43	-44.5	-46.5	17.5	0.00e+00	92	41	0	28311552	60	7673
2026-01-24 21:53:49.69	93.50	4.49	-44.5	-46.4	17.6	0.00e+00	0	40	0	30408704	60	7581
2026-01-24 21:53:50.70	93.43	4.55	-44.2	-46.1	17.9	0.00e+00	92	41	0	32505856	60	7266
2026-01-24 21:53:51.71	93.35	4.61	-44.1	-45.9	18.1	0.00e+00	0	41	0	33554432	60	7126
2026-01-24 21:53:52.72	93.27	4.67	-44.0	-45.7	18.6	0.00e+00	92	40	0	35651584	60	6989
2026-01-24 21:53:53.73	93.20	4.73	-44.5	-46.4	17.2	0.00e+00	92	41	0	37748736	60	7576
2026-01-24 21:53:54.74	93.12	4.79	-46.0	-48.5	15.9	0.00e+00	0	41	0	39845888	60	9652
2026-01-24 21:53:55.75	93.04	4.86	-44.3	-46.2	17.8	0.00e+00	90	40	0	41943040	60	7349
2026-01-24 21:53:56.76	92.96	4.92	-45.0	-47.2	16.6	0.00e+00	0	41	0	44040192	60	8236
2026-01-24 21:53:57.77	92.89	4.98	-44.3	-46.2	17.8	0.00e+00	92	40	0	45088768	60	7418
2026-01-24 21:53:58.79	92.81	5.04	-43.8	-45.5	18.7	0.00e+00	0	41	0	47185920	60	6840
2026-01-24 21:53:59.80	92.73	5.11	-43.4	-45.0	18.7	0.00e+00	92	41	0	49283072	60	6411
2026-01-24 21:54:00.80	92.65	5.17	-43.0	-44.5	19.7	0.00e+00	92	41	0	51380224	60	6100
2026-01-24 21:54:01.81	92.57	5.23	-43.9	-45.6	18.5	0.00e+00	0	41	0	53477376	60	6907
2026-01-24 21:54:02.82	92.49	5.29	-43.5	-45.0	19.1	0.00e+00	92	40	0	54525952	60	6458
2026-01-24 21:54:03.83	92.41	5.35	-43.4	-44.9	19.1	0.00e+00	0	41	0	56623104	60	6375
2026-01-24 21:54:04.84	92.33	5.42	-43.4	-44.9	19.2	0.00e+00	90	41	0	58720256	60	6345
2026-01-24 21:54:05.85	92.25	5.48	-43.8	-45.4	18.8	0.00e+00	0	41	0	60817408	60	6743
2026-01-24 21:54:06.86	92.17	5.54	-43.6	-45.2	19.0	0.00e+00	92	41	0	62914560	60	6610
2026-01-24 21:54:07.87	92.08	5.61	-43.9	-45.7	18.4	0.00e+00	92	41	0	63963136	60	6928
2026-01-24 21:54:08.88	92.00	5.67	-44.1	-45.9	18.5	0.00e+00	5	41	0	66060288	60	7100
2026-01-24 21:54:09.89	91.92	5.73	-43.9	-45.7	18.5	0.00e+00	92	40	0	68157440	60	6966
2026-01-24 21:54:10.90	91.84	5.79	-43.7	-45.3	19.0	0.00e+00	0	41	0	70254592	60	6681
2026-01-24 21:54:11.91	91.75	5.86	-43.9	-45.7	18.6	0.00e+00	92	41	0	72351744	60	6935
2026-01-24 21:54:12.92	91.67	5.92	-43.7	-45.4	18.8	0.00e+00	0	41	0	73400320	60	6715
2026-01-24 21:54:13.93	91.59	5.99	-44.2	-46.0	18.3	0.00e+00	92	41	0	75497472	60	7184
2026-01-24 21:54:14.94	91.50	6.05	-44.7	-46.7	17.5	0.00e+00	90	41	0	77594624	60	7808
2026-01-24 21:54:15.95	91.42	6.11	-44.1	-45.9	18.3	0.00e+00	92	41	0	79691776	60	7093
2026-01-24 21:54:16.95	91.33	6.18	-44.5	-46.5	18.0	0.00e+00	92	41	0	81788928	60	7607
2026-01-24 21:54:17.97	91.25	6.24	-45.0	-47.0	17.3	0.00e+00	0	41	0	82837504	60	8104
2026-01-24 21:54:18.97	91.16	6.30	-44.3	-46.0	18.2	0.00e+00	57	41	0	84934656	60	7253
2026-01-24 21:54:19.98	91.08	6.37	-44.3	-46.1	18.2	0.00e+00	0	41	0	87031808	60	7275
2026-01-24 21:54:20.99	90.99	6.43	-44.6	-46.5	18.0	0.00e+00	92	41	0	89128960	60	7619
2026-01-24 21:54:22.00	90.90	6.50	-44.1	-45.9	18.5	0.00e+00	0	41	0	91226112	60	7128
2026-01-24 21:54:23.01	90.81	6.56	-44.2	-46.1	18.3	0.00e+00	93	41	0	92274688	60	7261
2026-01-24 21:54:24.02	90.73	6.62	-44.5	-46.5	17.9	0.00e+00	92	41	0	94371840	60	7622
2026-01-24 21:54:25.03	90.64	6.69	-44.0	-45.8	18.7	0.00e+00	0	41	0	96468992	60	7030
2026-01-24 21:54:26.05	90.55	6.75	-44.1	-46.0	18.1	0.00e+00	83	41	0	98566144	60	7200
2026-01-24 21:54:27.05	90.46	6.82	-43.2	-44.7	19.5	0.00e+00	0	41	0	100663296	60	6236
2026-01-24 21:54:28.07	90.37	6.88	-44.4	-46.2	18.1	0.00e+00	39	41	0	101711872	60	7391
2026-01-24 21:54:29.07	90.28	6.95	-44.5	-46.4	18.0	0.00e+00	13	41	0	103809024	60	7537
2026-01-24 21:54:30.08	90.19	7.01	-44.0	-45.7	18.6	0.00e+00	92	41	0	105906176	60	6981
2026-01-24 21:54:31.09	90.10	7.08	-44.0	-45.7	18.8	0.00e+00	80	41	0	108003328	60	6944
2026-01-24 21:54:32.10	90.01	7.14	-44.1	-45.7	18.6	0.00e+00	15	41	0	110100480	60	6992
2026-01-24 21:54:33.11	89.92	7.21	-44.1	-45.8	18.7	0.00e+00	90	41	0	112197632	60	7016
2026-01-24 21:54:34.12	89.83	7.27	-43.9	-45.5	18.9	0.00e+00	14	41	0	113246208	60	6825
2026-01-24 21:54:35.13	89.73	7.34	-43.6	-45.1	19.3	0.00e+00	92	41	0	115343360	60	6505
2026-01-24 21:54:36.14	89.64	7.41	-43.2	-44.7	19.7	0.00e+00	0	41	0	117440512	60	6199
2026-01-24 21:54:37.15	89.55	7.47	-43.3	-44.7	19.6	0.00e+00	92	41	0	119537664	60	6232
2026-01-24 21:54:38.16	89.45	7.54	-43.2	-44.6	19.8	0.00e+00	65	41	0	121634816	60	6117
2026-01-24 21:54:39.17	89.36	7.60	-43.1	-44.5	19.9	0.00e+00	0	41	0	122683392	60	6092
2026-01-24 21:54:40.18	89.26	7.67	-43.3	-44.7	19.7	0.00e+00	90	41	0	124780544	60	6226
2026-01-24 21:54:41.19	89.17	7.74	-43.4	-44.8	19.6	0.00e+00	15	41	0	126877696	60	6310
2026-01-24 21:54:42.20	89.07	7.80	-43.3	-44.7	19.6	0.00e+00	91	41	0	128974848	60	6242
2026-01-24 21:54:43.21	88.98	7.87	-43.4	-44.9	19.5	0.00e+00	0	41	0	131072000	60	6318
2026-01-24 21:54:44.22	88.88	7.93	-43.0	-44.4	19.9	0.00e+00	92	41	0	132120576	60	6010
2026-01-24 21:54:45.23	88.78	8.00	-42.7	-44.1	20.2	0.00e+00	91	41	0	134217728	60	5764
2026-01-24 21:54:46.23	88.69	8.07	-42.1	-43.3	20.8	0.00e+00	0	41	0	136314880	58	5961
2026-01-24 21:54:47.24	88.59	8.13	-42.5	-43.8	20.4	0.00e+00	90	41	0	138412032	58	6269
2026-01-24 21:54:48.25	88.49	8.20	-42.2	-43.4	20.7	0.00e+00	0	41	0	140509184	58	6004
2026-01-24 21:54:49.26	88.39	8.27	-42.4	-43.7	20.4	0.00e+00	73	41	0	141557760	58	6191
2026-01-24 21:54:50.27	88.29	8.33	-43.3	-44.8	19.6	0.00e+00	0	41	0	143654912	58	7035
2026-01-24 21:54:51.28	88.20	8.40	-42.9	-44.3	20.1	0.00e+00	92	41	0	145752064	58	6620
2026-01-24 21:54:52.29	88.10	8.47	-42.7	-44.0	20.3	0.00e+00	39	41	0	147849216	58	6433
2026-01-24 21:54:53.30	87.99	8.54	-42.9	-44.3	20.0	0.00e+00	63	41	0	149946368	58	6625
2026-01-24 21:54:54.31	87.89	8.60	-42.7	-44.0	20.3	0.00e+00	92	41	0	150994944	58	6431
2026-01-24 21:54:55.31	87.79	8.67	-42.8	-44.1	20.3	0.00e+00	0	41	0	153092096	58	6479
2026-01-24 21:54:56.32	87.69	8.74	-42.4	-43.6	20.6	0.00e+00	92	41	0	155189248	58	6167
2026-01-24 21:54:57.33	87.59	8.80	-42.7	-43.9	20.4	0.00e+00	0	41	0	157286400	58	6372
2026-01-24 21:54:58.34	87.49	8.87	-42.6	-43.9	20.5	0.00e+00	92	41	0	159383552	58	6332
2026-01-24 21:54:59.35	87.38	8.94	-42.9	-44.2	20.1	0.00e+00	16	41	0	160432128	58	6604
2026-01-24 21:55:00.36	87.28	9.01	-42.8	-44.2	20.2	0.00e+00	92	41	0	162529280	58	6547
2026-01-24 21:55:01.37	87.17	9.08	-42.9	-44.3	20.1	0.00e+00	90	41	0	164626432	58	6642
2026-01-24 21:55:02.38	87.07	9.14	-42.9	-44.3	20.1	0.00e+00	0	41	0	166723584	58	6650
2026-01-24 21:55:03.39	86.96	9.21	-43.1	-44.5	19.9	0.00e+00	92	41	0	168820736	58	6771
2026-01-24 21:55:04.40	86.86	9.28	-43.4	-44.8	19.5	0.00e+00	0	41	0	169869312	58	7085
2026-01-24 21:55:05.41	86.75	9.35	-43.5	-45.0	19.4	0.00e+00	90	41	0	171966464	58	7230
2026-01-24 21:55:06.42	86.64	9.42	-43.5	-45.0	19.5	0.00e+00	12	41	0	174063616	58	7211
2026-01-24 21:55:07.43	86.54	9.49	-43.5	-45.0	19.7	0.00e+00	92	41	0	176160768	58	7230
2026-01-24 21:55:08.43	86.43	9.55	-43.1	-44.5	19.8	0.00e+00	92	41	0	178257920	58	6823
2026-01-24 21:55:09.44	86.32	9.62	-43.3	-44.8	19.7	0.00e+00	0	41	0	180355072	58	7067
2026-01-24 21:55:10.45	86.21	9.69	-43.3	-44.8	19.6	0.00e+00	92	41	0	181403648	58	7021
2026-01-24 21:55:11.46	86.10	9.76	-44.1	-45.8	18.9	0.00e+00	0	41	0	183500800	60	7067
2026-01-24 21:55:12.47	85.99	9.83	-43.2	-44.7	19.9	0.00e+00	80	41	0	185597952	60	6218
2026-01-24 21:55:13.48	85.88	9.90	-43.3	-44.7	19.9	0.00e+00	0	41	0	187695104	60	6207
2026-01-24 21:55:14.49	85.77	9.97	-43.2	-44.6	20.0	0.00e+00	91	41	0	189792256	60	6119
2026-01-24 21:55:15.50	85.66	10.04	-43.1	-44.5	20.1	0.00e+00	91	41	0	190840832	60	6037
2026-01-24 21:55:16.51	85.55	10.11	-43.2	-44.6	19.9	0.00e+00	0	41	0	192937984	60	6168
2026-01-24 21:55:17.51	85.43	10.17	-43.0	-44.4	20.2	0.00e+00	91	41	0	195035136	60	5974
2026-01-24 21:55:18.52	85.32	10.24	-42.9	-44.2	20.3	0.00e+00	0	41	0	197132288	60	5862
2026-01-24 21:55:19.53	85.21	10.31	-43.0	-44.4	19.9	0.00e+00	91	41	0	199229440	60	6025
2026-01-24 21:55:20.54	85.09	10.38	-43.2	-44.6	19.9	0.00e+00	0	41	0	200278016	60	6131
2026-01-24 21:55:21.55	84.98	10.45	-43.2	-44.6	20.0	0.00e+00	92	41	0	202375168	60	6139
2026-01-24 21:55:22.56	84.86	10.52	-43.1	-44.4	20.1	0.00e+00	13	41	0	204472320	60	6022
2026-01-24 21:55:23.57	84.75	10.59	-43.0	-44.3	20.2	0.00e+00	91	41	0	206569472	60	5955
2026-01-24 21:55:24.58	84.63	10.66	-42.5	-43.7	20.7	0.00e+00	92	41	0	208666624	58	6244
2026-01-24 21:55:25.59	84.51	10.73	-42.5	-43.7	20.8	0.00e+00	0	41	0	209715200	58	6194
2026-01-24 21:55:26.60	84.39	10.80	-42.2	-43.4	21.0	0.00e+00	92	41	0	211812352	58	6000
2026-01-24 21:55:27.61	84.28	10.87	-43.6	-45.1	19.4	0.00e+00	0	41	0	213909504	58	7286
2026-01-24 21:55:28.62	84.16	10.94	-43.3	-44.7	19.7	0.00e+00	92	41	0	216006656	58	6985
2026-01-24 21:55:29.63	84.04	11.01	-43.4	-44.9	19.7	0.00e+00	15	41	0	218103808	58	7097
2026-01-24 21:55:30.64	83.92	11.08	-42.9	-44.2	20.3	0.00e+00	92	41	0	219152384	58	6598
2026-01-24 21:55:31.65	83.80	11.16	-43.0	-44.3	20.0	0.00e+00	92	41	0	221249536	58	6689
2026-01-24 21:55:32.66	83.67	11.23	-42.8	-44.1	20.2	0.00e+00	0	41	0	223346688	58	6465
2026-01-24 21:55:33.67	83.55	11.30	-42.5	-43.7	20.6	0.00e+00	92	41	0	225443840	58	6217
2026-01-24 21:55:34.68	83.43	11.37	-42.6	-43.8	20.3	0.00e+00	0	41	0	227540992	58	6308
2026-01-24 21:55:35.68	83.31	11.44	-43.2	-44.6	19.8	0.00e+00	92	41	0	228589568	58	6880
2026-01-24 21:55:36.70	83.18	11.51	-42.7	-44.0	20.2	0.00e+00	0	41	0	230686720	58	6447
2026-01-24 21:55:37.70	83.06	11.58	-42.4	-43.6	20.7	0.00e+00	92	41	0	232783872	58	6159
2026-01-24 21:55:38.72	82.93	11.65	-42.4	-43.6	20.7	0.00e+00	90	41	0	234881024	58	6152
2026-01-24 21:55:39.72	82.81	11.72	-42.7	-44.0	20.3	0.00e+00	0	41	0	236978176	58	6420
2026-01-24 21:55:40.73	82.68	11.79	-42.6	-43.8	20.7	0.00e+00	92	41	0	238026752	58	6309
2026-01-24 21:55:41.74	82.56	11.86	-42.0	-43.2	21.0	0.00e+00	0	41	0	240123904	58	5868
2026-01-24 21:55:42.75	82.43	11.94	-42.1	-43.3	21.0	0.00e+00	92	41	0	242221056	58	5908
2026-01-24 21:55:43.76	82.30	12.01	-42.3	-43.6	20.9	0.00e+00	0	41	0	244318208	58	6108
2026-01-24 21:55:44.77	82.17	12.08	-41.9	-43.1	21.2	0.00e+00	92	41	0	246415360	58	5811
2026-01-24 21:55:45.78	82.04	12.15	-41.9	-43.1	21.2	0.00e+00	90	41	0	248512512	58	5796
2026-01-24 21:55:46.79	81.91	12.22	-41.8	-43.0	21.4	0.00e+00	0	41	0	249561088	58	5708
2026-01-24 21:55:47.80	81.78	12.29	-41.8	-42.9	21.4	0.00e+00	92	41	0	251658240	58	5687
2026-01-24 21:55:48.81	81.65	12.37	-41.6	-42.7	21.6	0.00e+00	0	41	0	253755392	56	6237
2026-01-24 21:55:49.82	81.52	12.44	-41.7	-42.8	21.5	0.00e+00	92	41	0	255852544	56	6267
2026-01-24 21:55:50.83	81.39	12.51	-41.8	-43.0	21.4	0.00e+00	0	41	0	257949696	56	6414
2026-01-24 21:55:51.83	81.25	12.58	-41.6	-42.6	21.7	0.00e+00	92	41	0	258998272	56	6169
2026-01-24 21:55:52.85	81.12	12.65	-41.8	-42.9	21.4	0.00e+00	19	41	0	261095424	56	6362
2026-01-24 21:55:53.85	80.98	12.72	-41.9	-43.0	21.4	0.00e+00	92	41	0	263192576	56	6450
2026-01-24 21:55:54.86	80.85	12.80	-41.7	-42.8	21.5	0.00e+00	90	41	0	265289728	56	6276
2026-01-24 21:55:55.87	80.71	12.87	-41.8	-43.0	21.4	0.00e+00	0	41	0	267386880	56	6425
2026-01-24 21:55:56.88	80.58	12.94	-41.9	-43.1	21.2	0.00e+00	92	41	0	268435456	56	6479
2026-01-24 21:55:57.89	80.44	13.01	-41.9	-43.0	21.2	0.00e+00	0	41	0	270532608	56	6433
2026-01-24 21:55:58.90	80.30	13.09	-41.7	-42.8	21.5	0.00e+00	90	41	0	272629760	56	6291
2026-01-24 21:55:59.91	80.16	13.16	-41.6	-42.7	21.6	0.00e+00	19	41	0	274726912	56	6234
2026-01-24 21:56:00.91	80.02	13.23	-41.7	-42.8	21.6	0.00e+00	90	41	0	276824064	56	6315
2026-01-24 21:56:01.92	79.88	13.30	-42.0	-43.1	21.3	0.00e+00	92	41	0	277872640	56	6538
2026-01-24 21:56:02.93	79.74	13.37	-41.6	-42.8	21.6	0.00e+00	0	41	0	279969792	56	6263
2026-01-24 21:56:03.94	79.60	13.45	-41.9	-43.1	21.4	0.00e+00	91	41	0	282066944	56	6533
2026-01-24 21:56:04.95	79.46	13.52	-41.8	-43.0	21.2	0.00e+00	0	41	0	284164096	56	6451
2026-01-24 21:56:05.96	79.32	13.59	-41.8	-43.0	21.5	0.00e+00	92	41	0	286261248	56	6395
2026-01-24 21:56:06.97	79.17	13.66	-41.9	-43.0	21.4	0.00e+00	0	41	0	287309824	56	6457
2026-01-24 21:56:07.98	79.03	13.74	-41.8	-43.0	21.5	0.00e+00	92	41	0	289406976	56	6392
2026-01-24 21:56:08.99	78.88	13.81	-42.0	-43.1	21.4	0.00e+00	91	41	0	291504128	56	6534
2026-01-24 21:56:10.00	78.74	13.88	-42.0	-43.2	21.3	0.00e+00	0	41	0	293601280	56	6584
2026-01-24 21:56:11.01	78.59	13.96	-42.1	-43.3	21.2	0.00e+00	31	41	0	295698432	56	6649
2026-01-24 21:56:12.02	78.44	14.03	-42.3	-43.6	21.0	0.00e+00	0	41	0	296747008	56	6850
2026-01-24 21:56:13.03	78.30	14.10	-42.5	-43.8	20.9	0.00e+00	60	41	0	298844160	56	7026
2026-01-24 21:56:14.04	78.15	14.17	-42.5	-43.8	20.9	0.00e+00	0	41	0	300941312	56	7016
2026-01-24 21:56:15.05	78.00	14.25	-42.3	-43.5	21.0	0.00e+00	91	41	0	303038464	56	6836
2026-01-24 21:56:16.06	77.85	14.32	-42.3	-43.5	21.0	0.00e+00	92	41	0	305135616	56	6797
2026-01-24 21:56:17.07	77.70	14.39	-42.2	-43.4	21.0	0.00e+00	0	41	0	306184192	56	6732
2026-01-24 21:56:18.08	77.54	14.47	-42.2	-43.4	21.0	0.00e+00	88	41	0	308281344	56	6764
2026-01-24 21:56:19.09	77.39	14.54	-42.2	-43.4	20.6	0.00e+00	0	41	0	310378496	56	6717
2026-01-24 21:56:20.10	77.24	14.61	-42.5	-43.8	20.8	0.00e+00	77	41	0	312475648	56	7023
2026-01-24 21:56:21.11	77.08	14.68	-42.0	-43.2	21.2	0.00e+00	0	41	0	314572800	56	6552
2026-01-24 21:56:22.11	76.93	14.76	-42.1	-43.3	21.2	0.00e+00	78	41	0	315621376	56	6623
2026-01-24 21:56:23.12	76.77	14.83	-42.2	-43.4	21.2	0.00e+00	92	41	0	317718528	56	6714
2026-01-24 21:56:24.13	76.62	14.90	-42.3	-43.5	21.1	0.00e+00	16	41	0	319815680	56	6785
2026-01-24 21:56:25.14	76.46	14.98	-42.1	-43.3	21.2	0.00e+00	92	41	0	321912832	56	6652
2026-01-24 21:56:26.15	76.30	15.05	-42.4	-43.7	20.9	0.00e+00	0	41	0	324009984	56	6938
2026-01-24 21:56:27.16	76.14	15.12	-42.5	-43.8	20.8	0.00e+00	92	41	0	325058560	56	7034
2026-01-24 21:56:28.17	75.99	15.20	-42.7	-44.0	20.6	0.00e+00	0	41	0	327155712	56	7193
2026-01-24 21:56:29.18	75.82	15.27	-42.7	-44.0	20.6	0.00e+00	92	41	0	329252864	58	6416
2026-01-24 21:56:30.19	75.66	15.34	-42.8	-44.1	20.5	0.00e+00	55	41	0	331350016	58	6518
2026-01-24 21:56:31.20	75.50	15.41	-42.7	-44.0	20.6	0.00e+00	0	41	0	333447168	58	6427
2026-01-24 21:56:32.20	75.34	15.49	-42.8	-44.1	20.5	0.00e+00	90	41	0	334495744	58	6514
2026-01-24 21:56:33.21	75.18	15.56	-42.6	-43.8	20.7	0.00e+00	0	41	0	336592896	58	6292
2026-01-24 21:56:34.22	75.01	15.63	-42.9	-44.3	20.5	0.00e+00	92	41	0	338690048	58	6651
2026-01-24 21:56:35.23	74.85	15.70	-42.4	-43.6	20.8	0.00e+00	0	41	0	340787200	58	6151
2026-01-24 21:56:36.24	74.68	15.78	-42.3	-43.5	21.0	0.00e+00	92	41	0	342884352	58	6072
2026-01-24 21:56:37.25	74.51	15.85	-42.2	-43.4	21.2	0.00e+00	20	41	0	344981504	58	5989
2026-01-24 21:56:38.26	74.35	15.92	-42.2	-43.4	21.0	0.00e+00	0	41	0	346030080	58	5980
2026-01-24 21:56:39.27	74.18	16.00	-42.3	-43.5	20.9	0.00e+00	92	41	0	348127232	58	6097
2026-01-24 21:56:40.28	74.01	16.07	-42.2	-43.4	21.1	0.00e+00	0	41	0	350224384	58	5992
2026-01-24 21:56:41.29	73.84	16.14	-42.5	-43.8	20.8	0.00e+00	92	41	0	352321536	58	6269
2026-01-24 21:56:42.30	73.67	16.21	-42.2	-43.4	21.1	0.00e+00	0	41	0	354418688	58	5984
2026-01-24 21:56:43.31	73.50	16.29	-41.9	-43.1	21.4	0.00e+00	92	41	0	355467264	58	5776
2026-01-24 21:56:44.32	73.32	16.36	-42.1	-43.3	21.3	0.00e+00	20	41	0	357564416	58	5900
2026-01-24 21:56:45.33	73.15	16.43	-42.0	-43.2	21.4	0.00e+00	0	41	0	359661568	58	5863
2026-01-24 21:56:46.35	72.97	16.50	-42.1	-43.3	21.1	0.00e+00	92	41	0	361758720	58	5964
2026-01-24 21:56:47.36	72.80	16.58	-42.1	-43.3	21.2	0.00e+00	0	41	0	363855872	58	5949
2026-01-24 21:56:48.37	72.62	16.65	-41.9	-43.1	21.3	0.00e+00	29	41	0	364904448	58	5805
2026-01-24 21:56:49.38	72.45	16.72	-42.0	-43.2	21.4	0.00e+00	0	41	0	367001600	58	5839
2026-01-24 21:56:50.39	72.27	16.79	-41.9	-43.0	21.3	0.00e+00	92	41	0	369098752	58	5741
2026-01-24 21:56:51.40	72.09	16.87	-42.0	-43.1	21.3	0.00e+00	0	41	0	371195904	58	5818
2026-01-24 21:56:52.40	71.91	16.94	-41.9	-43.0	21.5	0.00e+00	0	41	0	373293056	58	5726
2026-01-24 21:56:53.42	71.73	17.01	-42.2	-43.4	21.1	0.00e+00	92	41	0	374341632	58	5975
2026-01-24 21:56:54.42	71.55	17.08	-42.5	-43.8	20.7	0.00e+00	0	41	0	376438784	58	6261
2026-01-24 21:56:55.43	71.37	17.15	-42.5	-43.8	20.7	0.00e+00	92	41	0	378535936	58	6249
2026-01-24 21:56:56.44	71.19	17.22	-42.8	-44.2	20.4	0.00e+00	0	41	0	380633088	58	6550
2026-01-24 21:56:57.45	71.00	17.30	-42.7	-44.0	20.5	0.00e+00	92	41	0	382730240	58	6454
2026-01-24 21:56:58.46	70.82	17.37	-42.8	-44.1	20.4	0.00e+00	0	41	0	383778816	58	6500
2026-01-24 21:56:59.47	70.63	17.44	-42.7	-44.1	20.6	0.00e+00	73	41	0	385875968	58	6472
2026-01-24 21:57:00.48	70.44	17.51	-42.2	-43.4	21.1	0.00e+00	92	41	0	387973120	58	6020
2026-01-24 21:57:01.48	70.26	17.58	-42.2	-43.4	21.1	0.00e+00	0	41	0	390070272	58	6012
2026-01-24 21:57:02.49	70.07	17.65	-41.9	-43.1	21.5	0.00e+00	90	41	0	392167424	58	5783
2026-01-24 21:57:03.50	69.88	17.72	-41.8	-43.0	21.6	0.00e+00	0	41	0	393216000	56	6430
2026-01-24 21:57:04.51	69.69	17.79	-41.7	-42.8	21.7	0.00e+00	90	41	0	395313152	56	6296
2026-01-24 21:57:05.52	69.50	17.86	-41.2	-42.3	22.2	0.00e+00	0	41	0	397410304	56	5909
2026-01-24 21:57:06.53	69.31	17.94	-41.5	-42.6	21.9	0.00e+00	90	41	0	399507456	56	6160
2026-01-24 21:57:07.54	69.12	18.01	-41.5	-42.6	21.9	0.00e+00	14	41	0	401604608	56	6151
2026-01-24 21:57:08.55	68.92	18.08	-41.4	-42.5	22.0	0.00e+00	0	41	0	402653184	56	6074
2026-01-24 21:57:09.56	68.73	18.15	-41.3	-42.4	22.0	0.00e+00	92	41	0	404750336	56	5975
2026-01-24 21:57:10.57	68.53	18.22	-41.6	-42.7	21.6	0.00e+00	0	41	0	406847488	56	6206
2026-01-24 21:57:11.58	68.34	18.29	-41.3	-42.4	21.9	0.00e+00	90	41	0	408944640	56	5990
2026-01-24 21:57:12.58	68.14	18.36	-41.4	-42.5	22.0	0.00e+00	0	41	0	411041792	56	6093
2026-01-24 21:57:13.59	67.94	18.42	-41.3	-42.4	22.0	0.00e+00	92	41	0	413138944	56	5985
2026-01-24 21:57:14.60	67.74	18.49	-41.0	-42.0	22.3	0.00e+00	11	41	0	414187520	56	5760
2026-01-24 21:57:15.61	67.54	18.56	-40.9	-41.9	22.5	0.00e+00	0	41	0	416284672	56	5684
2026-01-24 21:57:16.62	67.34	18.63	-40.7	-41.8	22.6	0.00e+00	92	41	0	418381824	56	5583
2026-01-24 21:57:17.63	67.14	18.70	-40.5	-41.6	22.7	0.00e+00	0	41	0	420478976	54	6110
2026-01-24 21:57:18.64	66.94	18.77	-40.6	-41.7	22.6	0.00e+00	72	41	0	422576128	54	6205
2026-01-24 21:57:19.65	66.73	18.84	-40.6	-41.6	22.7	0.00e+00	0	41	0	423624704	54	6160
2026-01-24 21:57:20.66	66.53	18.91	-40.4	-41.4	22.9	0.00e+00	92	41	0	425721856	54	6007
2026-01-24 21:57:21.67	66.32	18.98	-40.4	-41.4	22.8	0.00e+00	0	41	0	427819008	54	6025
2026-01-24 21:57:22.68	66.12	19.04	-40.4	-41.4	22.9	0.00e+00	0	41	0	429916160	54	5978
2026-01-24 21:57:23.68	65.91	19.11	-40.5	-41.4	22.8	0.00e+00	92	41	0	432013312	54	6027
2026-01-24 21:57:24.69	65.70	19.18	-40.5	-41.5	22.6	0.00e+00	0	41	0	433061888	54	6051
2026-01-24 21:57:25.70	65.49	19.25	-40.4	-41.4	22.8	0.00e+00	91	41	0	435159040	54	5984
2026-01-24 21:57:26.71	65.28	19.31	-40.2	-41.2	23.1	0.00e+00	0	41	0	437256192	54	5856
2026-01-24 21:57:27.72	65.07	19.38	-40.1	-41.1	23.1	0.00e+00	92	41	0	439353344	54	5805
2026-01-24 21:57:28.73	64.86	19.45	-40.1	-41.1	23.1	0.00e+00	0	41	0	441450496	54	5776
2026-01-24 21:57:29.74	64.65	19.51	-39.8	-40.8	23.3	0.00e+00	92	41	0	442499072	54	5575
2026-01-24 21:57:30.75	64.43	19.58	-39.9	-40.8	23.3	0.00e+00	91	41	0	444596224	54	5618
2026-01-24 21:57:31.76	64.22	19.64	-39.9	-40.8	23.3	0.00e+00	0	41	0	446693376	54	5612
2026-01-24 21:57:32.77	64.00	19.71	-39.7	-40.6	23.5	0.00e+00	34	41	0	448790528	52	6166
2026-01-24 21:57:33.78	63.79	19.78	-39.8	-40.7	23.4	0.00e+00	0	41	0	450887680	52	6188
2026-01-24 21:57:34.79	63.57	19.84	-40.1	-41.1	23.1	0.00e+00	92	41	0	451936256	52	6474
2026-01-24 21:57:35.79	63.35	19.90	-40.1	-41.1	23.1	0.00e+00	0	41	0	454033408	52	6485
2026-01-24 21:57:36.80	63.13	19.97	-40.2	-41.2	23.0	0.00e+00	92	41	0	456130560	52	6558
2026-01-24 21:57:37.81	62.91	20.03	-40.0	-41.0	23.2	0.00e+00	91	41	0	458227712	52	6396
2026-01-24 21:57:38.82	62.69	20.10	-40.1	-41.0	23.2	0.00e+00	0	41	0	460324864	52	6440
2026-01-24 21:57:39.83	62.47	20.16	-40.3	-41.3	23.0	0.00e+00	85	41	0	461373440	52	6626
2026-01-24 21:57:40.84	62.24	20.22	-40.0	-41.0	23.2	0.00e+00	0	41	0	463470592	52	6434
2026-01-24 21:57:41.85	62.02	20.29	-40.1	-41.1	23.1	0.00e+00	72	41	0	465567744	52	6491
2026-01-24 21:57:42.86	61.79	20.35	-40.1	-41.0	23.3	0.00e+00	0	41	0	467664896	52	6451
2026-01-24 21:57:43.87	61.57	20.41	-40.0	-40.9	23.2	0.00e+00	92	41	0	469762048	52	6384
2026-01-24 21:57:44.88	61.34	20.48	-39.9	-40.8	23.4	0.00e+00	91	41	0	470810624	52	6280
2026-01-24 21:57:45.89	61.11	20.54	-39.6	-40.5	23.5	0.00e+00	0	41	0	472907776	52	6084
2026-01-24 21:57:46.90	60.88	20.60	-39.8	-40.7	23.5	0.00e+00	74	41	0	475004928	52	6208
2026-01-24 21:57:47.91	60.65	20.66	-39.7	-40.6	23.6	0.00e+00	0	41	0	477102080	52	6122
2026-01-24 21:57:48.92	60.42	20.72	-39.8	-40.8	23.4	0.00e+00	76	41	0	479199232	52	6246
2026-01-24 21:57:49.92	60.19	20.78	-39.5	-40.4	23.3	0.00e+00	0	41	0	481296384	52	6020
2026-01-24 21:57:50.93	59.96	20.84	-39.7	-40.7	23.5	0.00e+00	90	41	0	482344960	52	6178
2026-01-24 21:57:51.94	59.73	20.90	-39.4	-40.3	23.8	0.00e+00	20	41	0	484442112	52	5921
2026-01-24 21:57:52.95	59.49	20.96	-39.5	-40.3	23.7	0.00e+00	0	41	0	486539264	52	5956
2026-01-24 21:57:53.96	59.26	21.02	-39.4	-40.3	23.8	0.00e+00	91	41	0	488636416	52	5954
2026-01-24 21:57:54.97	59.02	21.08	-39.2	-40.1	24.0	0.00e+00	0	41	0	490733568	52	5814
2026-01-24 21:57:55.98	58.79	21.14	-39.3	-40.2	23.8	0.00e+00	49	41	0	491782144	52	5848
2026-01-24 21:57:56.99	58.55	21.19	-39.3	-40.2	23.8	0.00e+00	0	41	0	493879296	52	5866
2026-01-24 21:57:58.00	58.31	21.25	-39.2	-40.0	23.9	0.00e+00	92	41	0	495976448	52	5743
2026-01-24 21:57:59.01	58.07	21.31	-39.2	-40.0	23.9	0.00e+00	0	41	0	498073600	52	5745
2026-01-24 21:58:00.02	57.83	21.37	-39.3	-40.2	23.8	0.00e+00	0	41	0	500170752	52	5866
2026-01-24 21:58:01.03	57.59	21.42	-39.2	-40.1	23.9	0.00e+00	82	41	0	501219328	52	5791
2026-01-24 21:58:02.04	57.34	21.48	-39.2	-40.1	23.8	0.00e+00	0	41	0	503316480	52	5790
2026-01-24 21:58:03.05	57.10	21.53	-39.2	-40.1	23.8	0.00e+00	87	41	0	505413632	52	5792
2026-01-24 21:58:04.06	56.86	21.59	-39.1	-39.9	23.9	0.00e+00	0	41	0	507510784	52	5690
2026-01-24 21:58:05.07	56.61	21.64	-39.3	-40.2	23.8	0.00e+00	40	41	0	509607936	52	5830
2026-01-24 21:58:06.08	56.37	21.70	-39.5	-40.4	23.7	0.00e+00	0	41	0	510656512	52	6019
2026-01-24 21:58:07.09	56.12	21.75	-39.7	-40.6	23.5	0.00e+00	65	41	0	512753664	52	6163
2026-01-24 21:58:08.10	55.87	21.80	-39.6	-40.5	23.5	0.00e+00	92	41	0	514850816	52	6077
2026-01-24 21:58:09.11	55.62	21.86	-39.8	-40.7	23.5	0.00e+00	0	41	0	516947968	52	6211
2026-01-24 21:58:10.11	55.38	21.91	-39.9	-40.8	23.3	0.00e+00	28	41	0	519045120	52	6304
2026-01-24 21:58:11.12	55.13	21.96	-39.8	-40.7	23.4	0.00e+00	0	41	0	520093696	52	6187
2026-01-24 21:58:12.14	54.87	22.01	-39.7	-40.6	23.5	0.00e+00	90	41	0	522190848	52	6163
2026-01-24 21:58:13.15	54.62	22.06	-39.6	-40.5	23.6	0.00e+00	0	41	0	524288000	52	6069
2026-01-24 21:58:14.15	54.37	22.11	-39.5	-40.4	23.7	0.00e+00	87	41	0	526385152	52	5997
2026-01-24 21:58:15.16	54.12	22.16	-39.6	-40.5	23.7	0.00e+00	19	41	0	528482304	52	6037
2026-01-24 21:58:16.17	53.86	22.21	-39.8	-40.7	23.5	0.00e+00	0	41	0	529530880	52	6192
2026-01-24 21:58:17.18	53.61	22.26	-39.7	-40.6	23.6	0.00e+00	22	41	0	531628032	52	6127
2026-01-24 21:58:18.19	53.35	22.31	-39.6	-40.5	23.6	0.00e+00	13	41	0	533725184	52	6053
2026-01-24 21:58:19.20	53.10	22.36	-39.3	-40.1	23.9	0.00e+00	92	41	0	535822336	52	5815
2026-01-24 21:58:20.21	52.84	22.40	-39.3	-40.1	23.9	0.00e+00	0	41	0	537919488	52	5810
2026-01-24 21:58:21.21	52.58	22.45	-39.0	-39.9	24.0	0.00e+00	92	41	0	538968064	52	5663
2026-01-24 21:58:22.22	52.32	22.50	-39.2	-40.1	23.8	0.00e+00	21	41	0	541065216	52	5785
2026-01-24 21:58:23.23	52.06	22.54	-39.3	-40.2	23.5	0.00e+00	0	41	0	543162368	52	5845
2026-01-24 21:58:24.24	51.80	22.59	-39.3	-40.2	23.9	0.00e+00	92	41	0	545259520	52	5858
2026-01-24 21:58:25.25	51.54	22.63	-39.0	-39.9	24.0	0.00e+00	0	41	0	547356672	52	5650
2026-01-24 21:58:26.26	51.28	22.68	-39.1	-40.0	24.1	0.00e+00	92	41	0	548405248	52	5730
2026-01-24 21:58:27.27	51.02	22.72	-39.1	-39.9	24.1	0.00e+00	0	41	0	550502400	52	5691
2026-01-24 21:58:28.28	50.75	22.76	-39.1	-40.0	24.0	0.00e+00	92	41	0	552599552	52	5702
2026-01-24 21:58:29.30	50.49	22.81	-39.2	-40.1	24.0	0.00e+00	0	41	0	554696704	52	5767
2026-01-24 21:58:30.30	50.22	22.85	-39.2	-40.0	24.0	0.00e+00	0	41	0	556793856	52	5757
2026-01-24 21:58:31.31	49.96	22.89	-39.4	-40.3	23.7	0.00e+00	92	41	0	557842432	52	5933
2026-01-24 21:58:32.32	49.69	22.93	-39.8	-40.7	23.5	0.00e+00	0	41	0	559939584	52	6213
2026-01-24 21:58:33.33	49.42	22.97	-40.0	-40.9	23.3	0.00e+00	50	41	0	562036736	52	6360
2026-01-24 21:58:34.34	49.16	23.01	-40.1	-41.1	23.2	0.00e+00	0	41	0	564133888	52	6480
2026-01-24 21:58:35.35	48.89	23.05	-40.5	-41.4	22.9	0.00e+00	82	41	0	566231040	52	6768
2026-01-24 21:58:36.36	48.62	23.08	-40.7	-41.7	22.7	0.00e+00	0	41	0	567279616	54	6201
2026-01-24 21:58:37.36	48.35	23.12	-40.9	-41.9	22.5	0.00e+00	0	41	0	569376768	54	6347
2026-01-24 21:58:38.38	48.08	23.16	-41.1	-42.2	22.3	0.00e+00	90	41	0	571473920	54	6549
2026-01-24 21:58:39.38	47.81	23.19	-41.1	-42.2	22.3	0.00e+00	0	41	0	573571072	54	6572
2026-01-24 21:58:40.39	47.54	23.23	-41.5	-42.6	21.9	0.00e+00	92	41	0	575668224	54	6907
2026-01-24 21:58:41.40	47.27	23.26	-41.4	-42.4	22.0	0.00e+00	0	41	0	577765376	54	6763
2026-01-24 21:58:42.41	46.99	23.30	-41.3	-42.3	22.1	0.00e+00	92	41	0	578813952	54	6672
2026-01-24 21:58:43.42	46.72	23.33	-41.2	-42.3	22.1	0.00e+00	0	41	0	580911104	54	6632
2026-01-24 21:58:44.43	46.45	23.37	-40.9	-41.9	22.6	0.00e+00	0	41	0	583008256	54	6335
2026-01-24 21:58:45.44	46.17	23.40	-40.4	-41.3	22.9	0.00e+00	90	41	0	585105408	54	5951
2026-01-24 21:58:46.45	45.90	23.43	-40.6	-41.6	22.8	0.00e+00	0	41	0	587202560	54	6124
2026-01-24 21:58:47.46	45.62	23.46	-40.6	-41.6	22.6	0.00e+00	91	41	0	588251136	54	6122
2026-01-24 21:58:48.47	45.35	23.49	-40.7	-41.7	22.7	0.00e+00	0	41	0	590348288	54	6199
2026-01-24 21:58:49.48	45.07	23.52	-40.6	-41.6	22.8	0.00e+00	92	41	0	592445440	54	6108
2026-01-24 21:58:50.49	44.79	23.55	-40.5	-41.5	22.9	0.00e+00	0	41	0	594542592	54	6043
2026-01-24 21:58:51.50	44.51	23.58	-40.5	-41.4	22.9	0.00e+00	22	41	0	596639744	54	6027
2026-01-24 21:58:52.51	44.23	23.60	-40.5	-41.5	22.8	0.00e+00	29	42	0	597688320	54	6080
2026-01-24 21:58:53.52	43.96	23.63	-41.0	-42.0	22.4	0.00e+00	0	41	0	599785472	54	6440
2026-01-24 21:58:54.53	43.68	23.66	-41.1	-42.1	22.2	0.00e+00	19	42	0	601882624	54	6526
2026-01-24 21:58:55.54	43.40	23.68	-41.0	-42.0	22.4	0.00e+00	0	42	0	603979776	54	6452
2026-01-24 21:58:56.54	43.12	23.71	-41.1	-42.2	22.4	0.00e+00	80	42	0	606076928	54	6545
2026-01-24 21:58:57.55	42.84	23.73	-40.9	-41.9	22.6	0.00e+00	0	42	0	607125504	54	6374
2026-01-24 21:58:58.56	42.56	23.75	-41.0	-42.0	22.5	0.00e+00	83	42	0	609222656	54	6413
2026-01-24 21:58:59.57	42.28	23.77	-41.3	-42.4	22.2	0.00e+00	17	42	0	611319808	54	6693
2026-01-24 21:59:00.58	42.00	23.80	-41.3	-42.3	22.2	0.00e+00	0	42	0	613416960	54	6672
2026-01-24 21:59:01.59	41.71	23.82	-41.3	-42.3	22.1	0.00e+00	73	42	0	615514112	54	6649
2026-01-24 21:59:02.60	41.43	23.84	-41.5	-42.6	21.8	0.00e+00	0	42	0	616562688	54	6907
2026-01-24 21:59:03.61	41.15	23.86	-42.0	-43.1	21.5	0.00e+00	92	42	0	618659840	56	6497
2026-01-24 21:59:04.62	40.86	23.88	-42.0	-43.1	21.6	0.00e+00	0	42	0	620756992	56	6512
2026-01-24 21:59:05.63	40.58	23.89	-41.9	-43.0	21.8	0.00e+00	91	42	0	622854144	56	6442
2026-01-24 21:59:06.64	40.30	23.91	-41.8	-42.9	21.8	0.00e+00	45	42	0	624951296	56	6331
2026-01-24 21:59:07.65	40.01	23.93	-41.4	-42.4	22.2	0.00e+00	0	42	0	625999872	56	6032
2026-01-24 21:59:08.66	39.73	23.94	-41.5	-42.6	22.1	0.00e+00	88	42	0	628097024	56	6117
2026-01-24 21:59:09.67	39.44	23.96	-42.0	-43.1	21.7	0.00e+00	0	42	0	630194176	56	6493
2026-01-24 21:59:10.68	39.16	23.97	-42.1	-43.2	21.6	0.00e+00	75	42	0	632291328	56	6583
2026-01-24 21:59:11.69	38.87	23.99	-42.1	-43.2	21.4	0.00e+00	0	42	0	634388480	56	6547
2026-01-24 21:59:12.70	38.59	24.00	-42.7	-43.9	21.0	0.00e+00	80	42	0	635437056	56	7122
2026-01-24 21:59:13.71	38.30	24.01	-42.3	-43.4	21.5	0.00e+00	17	42	0	637534208	56	6763
2026-01-24 21:59:14.72	38.02	24.02	-42.1	-43.2	21.6	0.00e+00	0	42	0	639631360	56	6581
2026-01-24 21:59:15.72	37.73	24.03	-42.0	-43.2	21.5	0.00e+00	92	42	0	641728512	56	6558
2026-01-24 21:59:16.73	37.45	24.04	-41.9	-43.1	21.8	0.00e+00	0	42	0	643825664	56	6475
2026-01-24 21:59:17.74	37.16	24.05	-41.5	-42.6	22.1	0.00e+00	35	42	0	645922816	56	6125
2026-01-24 21:59:18.75	36.87	24.06	-41.1	-42.1	22.5	0.00e+00	0	41	0	646971392	56	5822
2026-01-24 21:59:19.76	36.59	24.07	-40.8	-41.8	22.8	0.00e+00	92	42	0	649068544	54	6267
2026-01-24 21:59:20.78	36.30	24.07	-40.3	-41.2	23.0	0.00e+00	0	42	0	651165696	54	5888
2026-01-24 21:59:21.79	36.01	24.08	-40.4	-41.4	23.0	0.00e+00	0	42	0	653262848	54	5969
2026-01-24 21:59:22.80	35.72	24.08	-40.6	-41.6	22.7	0.00e+00	76	42	0	655360000	54	6120
2026-01-24 21:59:23.81	35.44	24.09	-41.0	-42.0	22.5	0.00e+00	0	42	0	656408576	54	6447
2026-01-24 21:59:24.82	35.15	24.09	-41.2	-42.2	22.3	0.00e+00	21	41	0	658505728	54	6595
2026-01-24 21:59:25.83	34.86	24.09	-41.5	-42.6	22.0	0.00e+00	0	42	0	660602880	54	6920
2026-01-24 21:59:26.84	34.57	24.09	-41.3	-42.4	22.1	0.00e+00	92	42	0	662700032	54	6735
2026-01-24 21:59:27.85	34.29	24.10	-41.2	-42.3	22.3	0.00e+00	0	41	0	664797184	54	6624
2026-01-24 21:59:28.86	34.00	24.10	-41.1	-42.1	22.4	0.00e+00	3	41	0	665845760	54	6499
2026-01-24 21:59:29.87	33.71	24.09	-41.4	-42.4	22.1	0.00e+00	22	42	0	667942912	54	6769
2026-01-24 21:59:30.87	33.43	24.09	-41.1	-42.1	22.4	0.00e+00	0	41	0	670040064	54	6499
2026-01-24 21:59:31.88	33.14	24.09	-41.2	-42.2	22.2	0.00e+00	58	42	0	672137216	54	6613
2026-01-24 21:59:32.89	32.85	24.09	-41.0	-42.0	22.5	0.00e+00	0	42	0	674234368	54	6409
2026-01-24 21:59:33.90	32.57	24.08	-40.7	-41.7	22.7	0.00e+00	90	41	0	675282944	54	6221
2026-01-24 21:59:34.91	32.28	24.08	-40.6	-41.5	22.9	0.00e+00	0	42	0	677380096	54	6087
2026-01-24 21:59:35.92	31.99	24.08	-40.6	-41.5	22.9	0.00e+00	19	41	0	679477248	54	6091
2026-01-24 21:59:36.93	31.71	24.07	-40.4	-41.4	22.9	0.00e+00	92	41	0	681574400	54	5986
2026-01-24 21:59:37.94	31.42	24.06	-40.5	-41.5	22.8	0.00e+00	0	41	0	683671552	54	6041
2026-01-24 21:59:38.95	31.13	24.05	-40.5	-41.5	22.7	0.00e+00	79	41	0	684720128	54	6037
2026-01-24 21:59:39.96	30.85	24.05	-40.2	-41.1	22.9	0.00e+00	0	41	0	686817280	54	5809
2026-01-24 21:59:40.97	30.56	24.04	-40.0	-40.9	23.4	0.00e+00	92	41	0	688914432	54	5677
2026-01-24 21:59:41.98	30.27	24.03	-40.0	-40.9	23.1	0.00e+00	0	41	0	691011584	54	5652
2026-01-24 21:59:42.99	29.99	24.02	-40.2	-41.2	23.1	0.00e+00	90	41	0	693108736	54	5852
2026-01-24 21:59:44.00	29.70	24.01	-40.2	-41.2	23.1	0.00e+00	0	42	0	694157312	54	5840
2026-01-24 21:59:45.01	29.42	23.99	-40.1	-41.0	23.2	0.00e+00	0	41	0	696254464	54	5724
2026-01-24 21:59:46.02	29.13	23.98	-39.8	-40.7	23.4	0.00e+00	50	41	0	698351616	54	5530
2026-01-24 21:59:47.03	28.85	23.97	-39.5	-40.4	23.9	0.00e+00	0	41	0	700448768	52	5992
2026-01-24 21:59:48.03	28.56	23.95	-39.1	-39.9	24.0	0.00e+00	77	41	0	702545920	52	5651
2026-01-24 21:59:49.04	28.28	23.94	-39.5	-40.4	23.7	0.00e+00	0	42	0	703594496	52	5975
2026-01-24 21:59:50.05	28.00	23.92	-39.2	-40.0	24.0	0.00e+00	85	41	0	705691648	52	5753
2026-01-24 21:59:51.06	27.71	23.90	-39.1	-40.0	24.0	0.00e+00	0	41	0	707788800	52	5726
2026-01-24 21:59:52.07	27.43	23.89	-39.1	-39.9	24.1	0.00e+00	0	41	0	709885952	52	5677
2026-01-24 21:59:53.08	27.15	23.87	-38.5	-39.3	24.4	0.00e+00	86	41	0	711983104	50	5961
2026-01-24 21:59:54.09	26.86	23.85	-38.2	-39.0	24.8	0.00e+00	0	42	0	714080256	50	5719
2026-01-24 21:59:55.10	26.58	23.83	-38.2	-38.9	24.7	0.00e+00	73	42	0	715128832	50	5679
2026-01-24 21:59:56.11	26.30	23.81	-38.4	-39.2	24.5	0.00e+00	0	41	0	717225984	50	5881
2026-01-24 21:59:57.12	26.02	23.79	-38.8	-39.6	24.3	0.00e+00	92	41	0	719323136	50	6170
2026-01-24 21:59:58.13	25.73	23.77	-38.9	-39.7	24.1	0.00e+00	0	42	0	721420288	50	6223
2026-01-24 21:59:59.14	25.45	23.74	-39.0	-39.9	24.1	0.00e+00	47	41	0	723517440	50	6336
2026-01-24 22:00:00.15	25.17	23.72	-39.2	-40.1	24.0	0.00e+00	75	42	0	724566016	50	6465
2026-01-24 22:00:01.16	24.89	23.70	-39.2	-40.0	23.9	0.00e+00	0	42	0	726663168	50	6454
2026-01-24 22:00:02.17	24.61	23.67	-39.3	-40.2	23.8	0.00e+00	19	42	0	728760320	50	6562
2026-01-24 22:00:03.18	24.33	23.65	-39.6	-40.5	23.4	0.00e+00	0	42	0	730857472	52	6066
2026-01-24 22:00:04.19	24.06	23.62	-39.7	-40.6	23.7	0.00e+00	92	41	0	732954624	52	6126
2026-01-24 22:00:05.19	23.78	23.59	-39.5	-40.4	23.5	0.00e+00	0	42	0	734003200	52	6012
2026-01-24 22:00:06.20	23.50	23.57	-39.6	-40.5	23.7	0.00e+00	92	42	0	736100352	52	6057
2026-01-24 22:00:07.21	23.23	23.54	-39.8	-40.7	23.5	0.00e+00	62	42	0	738197504	52	6185
2026-01-24 22:00:08.22	22.95	23.51	-39.7	-40.6	23.4	0.00e+00	0	42	0	740294656	52	6149
2026-01-24 22:00:09.23	22.67	23.48	-39.3	-40.1	24.0	0.00e+00	76	42	0	742391808	52	5803
2026-01-24 22:00:10.24	22.40	23.45	-39.0	-39.9	24.0	0.00e+00	0	42	0	743440384	52	5646
2026-01-24 22:00:11.25	22.12	23.42	-39.3	-40.2	23.9	0.00e+00	92	41	0	745537536	52	5846
2026-01-24 22:00:12.26	21.85	23.39	-39.6	-40.4	23.6	0.00e+00	0	42	0	747634688	52	6011
2026-01-24 22:00:13.27	21.57	23.35	-40.1	-41.0	23.3	0.00e+00	92	42	0	749731840	52	6456
2026-01-24 22:00:14.28	21.30	23.32	-40.1	-41.0	23.3	0.00e+00	21	41	0	751828992	52	6403
2026-01-24 22:00:15.29	21.03	23.29	-40.0	-40.9	23.4	0.00e+00	0	41	0	752877568	52	6332
2026-01-24 22:00:16.30	20.75	23.25	-39.6	-40.4	23.6	0.00e+00	21	42	0	754974720	52	6018
2026-01-24 22:00:17.31	20.48	23.22	-39.7	-40.6	23.4	0.00e+00	0	42	0	757071872	52	6144
2026-01-24 22:00:18.32	20.21	23.18	-39.5	-40.4	23.7	0.00e+00	92	42	0	759169024	52	5974
2026-01-24 22:00:19.33	19.94	23.14	-39.8	-40.7	23.5	0.00e+00	11	42	0	761266176	52	6174
2026-01-24 22:00:20.34	19.67	23.11	-40.1	-41.0	23.1	0.00e+00	0	42	0	762314752	52	6426
2026-01-24 22:00:21.35	19.40	23.07	-40.4	-41.3	23.0	0.00e+00	52	42	0	764411904	52	6675
2026-01-24 22:00:22.36	19.13	23.03	-40.6	-41.5	22.9	0.00e+00	0	42	0	766509056	54	6080
2026-01-24 22:00:23.37	18.87	22.99	-40.5	-41.4	22.8	0.00e+00	92	42	0	768606208	54	6011
2026-01-24 22:00:24.38	18.60	22.95	-40.9	-41.9	22.5	0.00e+00	0	42	0	770703360	54	6339
2026-01-24 22:00:25.39	18.33	22.91	-40.8	-41.8	22.7	0.00e+00	25	42	0	771751936	54	6261
2026-01-24 22:00:26.40	18.07	22.87	-40.9	-41.8	22.5	0.00e+00	0	42	0	773849088	54	6312
2026-01-24 22:00:27.41	17.80	22.83	-41.1	-42.2	22.3	0.00e+00	0	41	0	775946240	54	6569
2026-01-24 22:00:28.42	17.54	22.79	-41.5	-42.6	22.0	0.00e+00	25	42	0	778043392	54	6873
2026-01-24 22:00:29.43	17.27	22.75	-41.8	-42.9	21.7	0.00e+00	0	42	0	780140544	54	7152
2026-01-24 22:00:30.44	17.01	22.70	-41.8	-42.9	21.7	0.00e+00	13	42	0	782237696	56	6350
2026-01-24 22:00:31.45	16.75	22.66	-41.6	-42.7	21.8	0.00e+00	0	41	0	783286272	56	6225
2026-01-24 22:00:32.46	16.49	22.62	-41.5	-42.6	22.0	0.00e+00	79	42	0	785383424	56	6136
2026-01-24 22:00:33.46	16.23	22.57	-41.4	-42.5	22.2	0.00e+00	0	42	0	787480576	56	6064
2026-01-24 22:00:34.47	15.97	22.53	-41.5	-42.6	22.0	0.00e+00	0	42	0	789577728	56	6114
2026-01-24 22:00:35.48	15.71	22.48	-41.3	-42.3	22.3	0.00e+00	15	42	0	791674880	56	5931
2026-01-24 22:00:36.49	15.45	22.43	-41.4	-42.4	22.2	0.00e+00	0	42	0	792723456	56	6019
2026-01-24 22:00:37.50	15.20	22.39	-41.5	-42.6	22.1	0.00e+00	11	42	0	794820608	56	6126
2026-01-24 22:00:38.51	14.94	22.34	-42.0	-43.1	21.6	0.00e+00	0	42	0	796917760	56	6518
2026-01-24 22:00:39.52	14.68	22.29	-42.3	-43.5	21.3	0.00e+00	92	42	0	799014912	56	6770
2026-01-24 22:00:40.53	14.43	22.24	-42.0	-43.1	21.6	0.00e+00	0	42	0	801112064	56	6504
2026-01-24 22:00:41.54	14.17	22.20	-42.1	-43.2	21.5	0.00e+00	0	42	0	802160640	56	6574
2026-01-24 22:00:42.55	13.92	22.15	-41.9	-43.0	21.6	0.00e+00	0	42	0	804257792	56	6435
2026-01-24 22:00:43.55	13.67	22.10	-42.1	-43.3	21.5	0.00e+00	0	42	0	806354944	56	6627
2026-01-24 22:00:44.56	13.42	22.05	-41.1	-42.2	22.4	0.00e+00	74	42	0	808452096	56	5836
2026-01-24 22:00:45.57	13.17	21.99	-41.4	-42.5	22.1	0.00e+00	0	42	0	810549248	56	6049
2026-01-24 22:00:46.58	12.92	21.94	-41.0	-42.0	22.5	0.00e+00	92	42	0	811597824	56	5761
2026-01-24 22:00:47.59	12.67	21.89	-41.1	-42.2	22.4	0.00e+00	0	42	0	813694976	56	5848
2026-01-24 22:00:48.60	12.42	21.84	-40.9	-41.9	22.4	0.00e+00	0	42	0	815792128	56	5683
2026-01-24 22:00:49.61	12.17	21.79	-41.2	-42.2	22.3	0.00e+00	0	42	0	817889280	56	5881
2026-01-24 22:00:50.62	11.93	21.73	-41.3	-42.4	22.1	0.00e+00	0	42	0	819986432	56	5965
2026-01-24 22:00:51.63	11.68	21.68	-41.9	-43.0	21.5	0.00e+00	73	42	0	821035008	56	6450
2026-01-24 22:00:52.64	11.43	21.62	-42.2	-43.3	21.4	0.00e+00	0	42	0	823132160	56	6689
2026-01-24 22:00:53.65	11.19	21.57	-42.2	-43.4	21.3	0.00e+00	91	42	0	825229312	56	6733
2026-01-24 22:00:54.66	10.95	21.52	-42.1	-43.3	21.4	0.00e+00	0	42	0	827326464	56	6673
2026-01-24 22:00:55.67	10.71	21.46	-41.8	-42.9	21.8	0.00e+00	7	42	0	829423616	56	6371
2026-01-24 22:00:56.68	10.46	21.40	-41.5	-42.6	22.0	0.00e+00	0	42	0	830472192	56	6110
2026-01-24 22:00:57.68	10.23	21.35	-41.1	-42.2	22.5	0.00e+00	0	42	0	832569344	56	5835
2026-01-24 22:00:58.69	9.99	21.29	-41.2	-42.3	22.2	0.00e+00	19	42	0	834666496	56	5922
2026-01-24 22:00:59.71	9.74	21.23	-41.5	-42.6	21.9	0.00e+00	0	42	0	836763648	56	6156
2026-01-24 22:01:00.71	9.51	21.18	-41.7	-42.9	21.7	0.00e+00	36	42	0	838860800	56	6355
2026-01-24 22:01:01.72	9.27	21.12	-42.4	-43.6	21.0	0.00e+00	0	42	0	839909376	56	6927
2026-01-24 22:01:02.73	9.04	21.06	-43.1	-44.6	20.2	0.00e+00	92	42	0	842006528	58	6894
2026-01-24 22:01:03.74	8.80	21.00	-42.7	-44.1	20.4	0.00e+00	0	42	0	844103680	58	6465
2026-01-24 22:01:04.75	8.57	20.94	-43.0	-44.4	20.2	0.00e+00	0	42	0	846200832	58	6726
2026-01-24 22:01:05.76	8.33	20.88	-42.3	-43.6	21.1	0.00e+00	0	42	0	848297984	58	6149
2026-01-24 22:01:06.77	8.10	20.82	-42.1	-43.4	21.5	0.00e+00	0	42	0	849346560	58	5977
2026-01-24 22:01:07.77	7.87	20.76	-41.5	-42.6	22.0	0.00e+00	92	42	0	851443712	56	6155
2026-01-24 22:01:08.78	7.64	20.70	-41.0	-42.0	22.0	0.00e+00	0	42	0	853540864	56	5751
2026-01-24 22:01:09.79	7.41	20.64	-40.3	-41.3	23.0	0.00e+00	80	42	0	855638016	54	5951
2026-01-24 22:01:10.80	7.18	20.58	-40.4	-41.3	22.9	0.00e+00	0	42	0	857735168	54	5960
2026-01-24 22:01:11.80	6.96	20.52	-40.2	-41.2	23.0	0.00e+00	0	42	0	858783744	54	5835
2026-01-24 22:01:12.81	6.73	20.46	-40.5	-41.5	23.0	0.00e+00	0	42	0	860880896	54	6036
2026-01-24 22:01:13.82	6.50	20.40	-40.5	-41.5	22.8	0.00e+00	0	42	0	862978048	54	6080
2026-01-24 22:01:14.83	6.28	20.33	-40.5	-41.4	22.9	0.00e+00	18	42	0	865075200	54	6026
2026-01-24 22:01:15.84	6.05	20.27	-40.5	-41.5	22.8	0.00e+00	0	42	0	867172352	54	6080
2026-01-24 22:01:16.85	5.83	20.21	-40.3	-41.2	23.2	0.00e+00	91	42	0	868220928	54	5880
2026-01-24 22:01:17.86	5.61	20.14	-40.1	-41.0	23.2	0.00e+00	0	42	0	870318080	54	5744
2026-01-24 22:01:18.87	5.39	20.08	-40.0	-40.9	23.3	0.00e+00	0	42	0	872415232	54	5674
2026-01-24 22:01:19.88	5.17	20.02	-40.0	-40.9	23.5	0.00e+00	0	42	0	874512384	54	5679
2026-01-24 22:01:20.89	4.95	19.95	-39.9	-40.8	23.7	0.00e+00	0	42	0	876609536	52	6251
2026-01-24 22:01:21.90	4.73	19.89	-39.2	-40.0	23.9	0.00e+00	19	42	0	878706688	52	5734
2026-01-24 22:01:22.91	4.51	19.82	-39.3	-40.1	23.9	0.00e+00	0	42	0	879755264	52	5807
2026-01-24 22:01:23.92	4.29	19.76	-39.0	-39.9	24.1	0.00e+00	73	42	0	881852416	52	5654
2026-01-24 22:01:24.93	4.08	19.69	-39.3	-40.1	23.8	0.00e+00	0	42	0	883949568	52	5808
2026-01-24 22:01:25.94	3.86	19.63	-39.7	-40.6	23.6	0.00e+00	0	42	0	886046720	52	6151
2026-01-24 22:01:26.95	3.65	19.56	-40.1	-41.1	23.2	0.00e+00	0	42	0	888143872	52	6475
2026-01-24 22:01:27.95	3.44	19.50	-40.4	-41.4	22.8	0.00e+00	0	41	0	889192448	52	6712
2026-01-24 22:01:28.96	3.23	19.43	-40.9	-41.9	22.5	0.00e+00	22	42	0	891289600	54	6363
2026-01-24 22:01:29.97	3.02	19.36	-41.0	-42.0	22.4	0.00e+00	0	42	0	893386752	54	6455
2026-01-24 22:01:30.98	2.81	19.30	-41.0	-42.1	22.4	0.00e+00	92	42	0	895483904	54	6498
2026-01-24 22:01:31.99	2.60	19.23	-41.0	-42.1	22.4	0.00e+00	0	42	0	897581056	54	6496
2026-01-24 22:01:33.00	2.39	19.16	-41.2	-42.2	22.2	0.00e+00	78	42	0	898629632	54	6603
2026-01-24 22:01:34.01	2.18	19.09	-41.2	-42.2	22.2	0.00e+00	0	42	0	900726784	54	6605
2026-01-24 22:01:35.02	1.97	19.03	-40.8	-41.9	22.6	0.00e+00	0	42	0	902823936	54	6318
2026-01-24 22:01:36.03	1.77	18.96	-40.6	-41.6	22.8	0.00e+00	0	41	0	904921088	54	6123
2026-01-24 22:01:37.03	1.57	18.89	-40.4	-41.4	22.9	0.00e+00	0	42	0	907018240	54	5969
2026-01-24 22:01:38.04	1.36	18.82	-40.4	-41.5	22.8	0.00e+00	82	42	0	908066816	54	6038
2026-01-24 22:01:39.05	1.16	18.76	-40.4	-41.4	22.9	0.00e+00	0	41	0	910163968	54	6011
2026-01-24 22:01:40.06	0.96	18.69	-40.1	-41.1	23.1	0.00e+00	81	42	0	912261120	54	5784
2026-01-24 22:01:41.07	0.76	18.62	-39.8	-40.7	23.3	0.00e+00	0	42	0	914358272	54	5536
2026-01-24 22:01:42.08	0.56	18.55	-39.8	-40.7	23.3	0.00e+00	22	42	0	916455424	54	5507
2026-01-24 22:01:43.09	0.36	18.48	-39.5	-40.4	23.7	0.00e+00	0	42	0	917504000	52	5968
2026-01-24 22:01:44.10	0.16	18.41	-39.6	-40.5	23.6	0.00e+00	0	42	0	919601152	52	6039
2026-01-24 22:01:45.11	359.96	18.34	-39.8	-40.7	23.2	0.00e+00	81	42	0	921698304	52	6205
2026-01-24 22:01:46.12	359.77	18.27	-40.4	-41.3	22.9	0.00e+00	17	42	0	923795456	52	6667
2026-01-24 22:01:47.13	359.57	18.20	-40.6	-41.6	22.6	0.00e+00	79	42	0	925892608	52	6914
2026-01-24 22:01:48.14	359.38	18.13	-40.6	-41.6	22.8	0.00e+00	0	42	0	926941184	54	6119
2026-01-24 22:01:49.15	359.18	18.06	-40.5	-41.5	22.9	0.00e+00	21	42	0	929038336	54	6036
2026-01-24 22:01:50.16	358.99	17.99	-40.4	-41.4	22.9	0.00e+00	0	41	0	931135488	54	5972
2026-01-24 22:01:51.16	358.80	17.92	-40.1	-41.1	23.1	0.00e+00	0	42	0	933232640	54	5780
2026-01-24 22:01:52.17	358.61	17.85	-40.0	-41.0	23.1	0.00e+00	91	42	0	935329792	54	5696
2026-01-24 22:01:53.18	358.42	17.78	-40.3	-41.2	22.9	0.00e+00	0	42	0	936378368	54	5890
2026-01-24 22:01:54.19	358.23	17.71	-40.3	-41.2	22.9	0.00e+00	92	42	0	938475520	54	5877
2026-01-24 22:01:55.20	358.04	17.64	-40.6	-41.6	22.7	0.00e+00	0	42	0	940572672	54	6130
2026-01-24 22:01:56.21	357.85	17.57	-40.7	-41.7	22.6	0.00e+00	5	42	0	942669824	54	6202
2026-01-24 22:01:57.22	357.67	17.50	-40.7	-41.7	22.5	0.00e+00	0	42	0	944766976	54	6210
2026-01-24 22:01:58.23	357.48	17.43	-40.4	-41.4	22.8	0.00e+00	0	42	0	946864128	54	5983
2026-01-24 22:01:59.24	357.30	17.36	-40.3	-41.2	23.0	0.00e+00	18	42	0	947912704	54	5882
2026-01-24 22:02:00.25	357.11	17.28	-40.3	-41.2	22.8	0.00e+00	0	42	0	950009856	54	5891
2026-01-24 22:02:01.26	356.93	17.21	-40.2	-41.1	23.0	0.00e+00	57	42	0	952107008	54	5828
2026-01-24 22:02:02.27	356.75	17.14	-40.2	-41.1	23.0	0.00e+00	0	42	0	954204160	54	5820
2026-01-24 22:02:03.28	356.57	17.07	-40.2	-41.1	23.1	0.00e+00	21	42	0	956301312	54	5805
2026-01-24 22:02:04.28	356.39	17.00	-39.8	-40.7	23.3	0.00e+00	0	42	0	957349888	54	5549
2026-01-24 22:02:05.29	356.21	16.93	-39.9	-40.8	23.4	0.00e+00	0	42	0	959447040	52	6271
2026-01-24 22:02:06.30	356.03	16.85	-39.8	-40.7	23.2	0.00e+00	0	42	0	961544192	52	6244
2026-01-24 22:02:07.31	355.85	16.78	-40.0	-40.9	23.2	0.00e+00	0	41	0	963641344	52	6359
2026-01-24 22:02:08.32	355.68	16.71	-40.1	-41.1	23.0	0.00e+00	26	41	0	965738496	52	6471
2026-01-24 22:02:09.33	355.50	16.64	-40.5	-41.5	22.7	0.00e+00	0	41	0	966787072	52	6823
2026-01-24 22:02:10.34	355.33	16.57	-40.2	-41.2	22.9	0.00e+00	84	41	0	968884224	52	6572
2026-01-24 22:02:11.35	355.15	16.49	-40.4	-41.3	22.8	0.00e+00	0	41	0	970981376	52	6688
2026-01-24 22:02:12.35	354.98	16.42	-40.0	-40.9	23.2	0.00e+00	0	42	0	973078528	52	6373
2026-01-24 22:02:13.36	354.81	16.35	-39.6	-40.5	23.5	0.00e+00	0	42	0	975175680	52	6058
2026-01-24 22:02:14.38	354.64	16.28	-39.0	-39.9	24.0	0.00e+00	0	42	0	976224256	52	5634
2026-01-24 22:02:15.38	354.47	16.21	-38.9	-39.7	24.2	0.00e+00	29	42	0	978321408	52	5522
2026-01-24 22:02:16.40	354.29	16.13	-38.9	-39.7	24.0	0.00e+00	0	42	0	980418560	52	5559
2026-01-24 22:02:17.40	354.13	16.06	-38.8	-39.6	24.2	0.00e+00	65	42	0	982515712	50	6114
2026-01-24 22:02:18.41	353.96	15.99	-38.9	-39.7	24.1	0.00e+00	0	42	0	984612864	50	6229
2026-01-24 22:02:19.42	353.79	15.92	-39.2	-40.1	23.8	0.00e+00	0	41	0	985661440	50	6497
2026-01-24 22:02:20.43	353.63	15.84	-39.4	-40.3	23.7	0.00e+00	0	42	0	987758592	50	6674
2026-01-24 22:02:21.44	353.46	15.77	-39.2	-40.1	23.9	0.00e+00	0	41	0	989855744	50	6514
2026-01-24 22:02:22.45	353.29	15.70	-39.4	-40.3	23.6	0.00e+00	13	42	0	991952896	50	6678
2026-01-24 22:02:23.46	353.13	15.63	-39.7	-40.6	23.5	0.00e+00	0	42	0	994050048	50	6878
2026-01-24 22:02:24.47	352.97	15.55	-39.8	-40.7	23.4	0.00e+00	91	42	0	995098624	52	6205
2026-01-24 22:02:25.48	352.80	15.48	-39.7	-40.6	23.4	0.00e+00	0	41	0	997195776	52	6150
2026-01-24 22:02:26.48	352.64	15.41	-39.7	-40.6	23.4	0.00e+00	0	41	0	999292928	52	6140
2026-01-24 22:02:27.49	352.48	15.34	-39.8	-40.7	23.4	0.00e+00	0	41	0	1001390080	52	6210
2026-01-24 22:02:28.50	352.32	15.26	-39.5	-40.4	23.7	0.00e+00	0	41	0	1003487232	52	5972
2026-01-24 22:02:29.51	352.16	15.19	-39.3	-40.1	23.8	0.00e+00	62	42	0	1004535808	52	5797
2026-01-24 22:02:30.52	352.00	15.12	-38.9	-39.7	24.1	0.00e+00	0	41	0	1006632960	52	5563
2026-01-24 22:02:31.53	351.85	15.04	-39.0	-39.8	24.0	0.00e+00	92	42	0	1008730112	52	5597
2026-01-24 22:02:32.54	351.69	14.97	-39.0	-39.9	24.0	0.00e+00	0	42	0	1010827264	52	5640
2026-01-24 22:02:33.55	351.53	14.90	-39.3	-40.1	23.9	0.00e+00	0	41	0	1012924416	52	5796
2026-01-24 22:02:34.56	351.38	14.83	-39.5	-40.4	23.7	0.00e+00	0	42	0	1013972992	52	5981
2026-01-24 22:02:35.57	351.22	14.75	-39.9	-40.8	23.3	0.00e+00	0	42	0	1016070144	52	6285
2026-01-24 22:02:36.58	351.07	14.68	-40.3	-41.2	23.0	0.00e+00	35	41	0	1018167296	52	6610
2026-01-24 22:02:37.59	350.92	14.61	-40.6	-41.6	22.7	0.00e+00	0	41	0	1020264448	52	6858
2026-01-24 22:02:38.59	350.77	14.54	-40.6	-41.7	22.5	0.00e+00	92	41	0	1022361600	54	6176
2026-01-24 22:02:39.60	350.61	14.46	-40.9	-41.9	22.6	0.00e+00	0	41	0	1023410176	54	6367
2026-01-24 22:02:40.61	350.46	14.39	-40.6	-41.6	22.7	0.00e+00	92	42	0	1025507328	54	6161
2026-01-24 22:02:41.62	350.31	14.32	-40.5	-41.5	22.7	0.00e+00	0	42	0	1027604480	54	6086
2026-01-24 22:02:42.63	350.16	14.24	-40.7	-41.8	22.5	0.00e+00	0	42	0	1029701632	54	6249
2026-01-24 22:02:43.64	350.02	14.17	-40.4	-41.3	22.8	0.00e+00	0	42	0	1031798784	54	5961
2026-01-24 22:02:44.65	349.87	14.10	-40.5	-41.5	22.7	0.00e+00	0	41	0	1032847360	54	6080
2026-01-24 22:02:45.66	349.72	14.03	-40.2	-41.1	23.0	0.00e+00	92	42	0	1034944512	54	5786
2026-01-24 22:02:46.67	349.57	13.95	-40.0	-40.9	22.7	0.00e+00	0	42	0	1037041664	54	5679
2026-01-24 22:02:47.68	349.43	13.88	-40.0	-41.0	22.9	0.00e+00	62	41	0	1039138816	54	5724
2026-01-24 22:02:48.69	349.28	13.81	-40.0	-40.9	23.0	0.00e+00	0	42	0	1041235968	54	5685
2026-01-24 22:02:49.69	349.14	13.74	-40.1	-41.0	23.1	0.00e+00	0	42	0	1043333120	54	5754
2026-01-24 22:02:50.70	349.00	13.67	-39.9	-40.8	23.0	0.00e+00	0	42	0	1044381696	54	5589
2026-01-24 22:02:51.71	348.85	13.59	-40.2	-41.1	22.5	0.00e+00	0	42	0	1046478848	54	5814
2026-01-24 22:02:52.72	348.71	13.52	-40.2	-41.1	23.0	0.00e+00	14	42	0	1048576000	54	5805
2026-01-24 22:02:53.73	348.57	13.45	-40.6	-41.6	22.5	0.00e+00	0	41	0	1050673152	54	6162
2026-01-24 22:02:54.74	348.43	13.38	-40.9	-41.9	22.3	0.00e+00	92	42	0	1052770304	54	6380
2026-01-24 22:02:55.75	348.29	13.30	-41.0	-42.1	22.2	0.00e+00	0	41	0	1053818880	54	6498
2026-01-24 22:02:56.75	348.15	13.23	-41.5	-42.6	21.7	0.00e+00	0	42	0	1055916032	54	6872
2026-01-24 22:02:57.76	348.01	13.16	-42.0	-43.2	21.3	0.00e+00	0	42	0	1058013184	56	6548
2026-01-24 22:02:58.77	347.88	13.09	-41.9	-43.0	21.5	0.00e+00	0	41	0	1060110336	56	6447
2026-01-24 22:02:59.78	347.74	13.02	-41.6	-42.7	21.8	0.00e+00	14	41	0	1062207488	56	6209
2026-01-24 22:03:00.79	347.60	12.94	-41.4	-42.5	21.9	0.00e+00	0	41	0	1063256064	56	6057
2026-01-24 22:03:01.80	347.47	12.87	-41.0	-42.0	22.3	0.00e+00	45	42	0	1065353216	56	5749
2026-01-24 22:03:02.81	347.33	12.80	-40.9	-41.9	22.4	0.00e+00	0	41	0	1067450368	56	5689
2026-01-24 22:03:03.82	347.20	12.73	-40.5	-41.5	22.7	0.00e+00	0	41	0	1069547520	54	6059
2026-01-24 22:03:04.83	347.06	12.66	-40.5	-41.5	22.6	0.00e+00	0	41	0	1071644672	54	6097
2026-01-24 22:03:05.84	346.93	12.58	-40.7	-41.7	22.5	0.00e+00	0	41	0	1072693248	54	6199
2026-01-24 22:03:06.85	346.80	12.51	-40.3	-41.3	22.9	0.00e+00	56	41	0	1074790400	54	5913
2026-01-24 22:03:07.86	346.67	12.44	-40.2	-41.2	22.9	0.00e+00	0	41	0	1076887552	54	5836
2026-01-24 22:03:08.87	346.53	12.37	-40.3	-41.3	22.8	0.00e+00	92	41	0	1078984704	54	5902
2026-01-24 22:03:09.88	346.40	12.30	-40.4	-41.4	22.6	0.00e+00	0	42	0	1081081856	54	6025
2026-01-24 22:03:10.89	346.27	12.23	-40.6	-41.6	22.6	0.00e+00	48	41	0	1082130432	54	6146
2026-01-24 22:03:11.90	346.15	12.15	-40.3	-41.3	22.8	0.00e+00	0	41	0	1084227584	54	5952
2026-01-24 22:03:12.91	346.02	12.08	-40.3	-41.3	22.9	0.00e+00	0	41	0	1086324736	54	5925
2026-01-24 22:03:13.92	345.89	12.01	-40.6	-41.6	22.5	0.00e+00	16	41	0	1088421888	54	6160
2026-01-24 22:03:14.93	345.76	11.94	-40.6	-41.7	22.5	0.00e+00	0	41	0	1090519040	54	6175
2026-01-24 22:03:15.94	345.63	11.87	-40.5	-41.5	22.6	0.00e+00	92	41	0	1091567616	54	6099
2026-01-24 22:03:16.95	345.51	11.80	-40.9	-42.0	22.2	0.00e+00	0	41	0	1093664768	54	6421
2026-01-24 22:03:17.96	345.38	11.73	-40.8	-41.9	22.3	0.00e+00	69	41	0	1095761920	54	6319
2026-01-24 22:03:18.97	345.26	11.66	-40.9	-42.0	22.1	0.00e+00	0	41	0	1097859072	54	6432
2026-01-24 22:03:19.98	345.13	11.59	-41.1	-42.2	22.0	0.00e+00	0	41	0	1099956224	54	6557
2026-01-24 22:03:20.99	345.01	11.52	-41.2	-42.4	21.8	0.00e+00	0	41	0	1101004800	54	6730
2026-01-24 22:03:22.00	344.89	11.44	-41.3	-42.5	21.7	0.00e+00	0	41	0	1103101952	54	6803
2026-01-24 22:03:23.01	344.77	11.37	-41.3	-42.5	21.7	0.00e+00	92	41	0	1105199104	54	6771
2026-01-24 22:03:24.02	344.64	11.30	-41.5	-42.7	21.7	0.00e+00	0	41	0	1107296256	54	6951
2026-01-24 22:03:25.03	344.52	11.23	-41.5	-42.7	21.6	0.00e+00	81	41	0	1109393408	56	6209
2026-01-24 22:03:26.03	344.40	11.16	-41.6	-42.7	21.5	0.00e+00	0	41	0	1111490560	56	6232
2026-01-24 22:03:27.04	344.28	11.09	-41.6	-42.8	21.6	0.00e+00	0	41	0	1112539136	56	6248
2026-01-24 22:03:28.05	344.16	11.02	-41.4	-42.5	21.6	0.00e+00	0	41	0	1114636288	56	6093
2026-01-24 22:03:29.06	344.05	10.95	-41.8	-43.0	21.3	0.00e+00	0	41	0	1116733440	56	6412
2026-01-24 22:03:30.07	343.93	10.88	-42.1	-43.3	21.1	0.00e+00	35	41	0	1118830592	56	6692
2026-01-24 22:03:31.08	343.81	10.81	-42.0	-43.3	21.2	0.00e+00	0	41	0	1120927744	56	6640
2026-01-24 22:03:32.09	343.69	10.74	-41.9	-43.1	21.3	0.00e+00	74	41	0	1121976320	56	6485
2026-01-24 22:03:33.10	343.58	10.67	-42.2	-43.5	21.1	0.00e+00	0	41	0	1124073472	56	6776
2026-01-24 22:03:34.11	343.46	10.60	-42.2	-43.4	21.1	0.00e+00	0	41	0	1126170624	56	6767
2026-01-24 22:03:35.12	343.34	10.53	-42.2	-43.4	21.1	0.00e+00	0	41	0	1128267776	56	6768
2026-01-24 22:03:36.13	343.23	10.46	-42.3	-43.6	21.0	0.00e+00	19	41	0	1130364928	56	6891
2026-01-24 22:03:37.14	343.12	10.39	-42.2	-43.5	21.0	0.00e+00	65	41	0	1131413504	56	6783
2026-01-24 22:03:38.15	343.00	10.32	-42.1	-43.3	21.1	0.00e+00	0	41	0	1133510656	56	6661
2026-01-24 22:03:39.15	342.89	10.26	-42.0	-43.3	21.1	0.00e+00	88	41	0	1135607808	56	6631
2026-01-24 22:03:40.16	342.78	10.19	-41.8	-43.0	21.4	0.00e+00	0	41	0	1137704960	56	6419
2026-01-24 22:03:41.17	342.67	10.12	-41.2	-42.2	22.0	0.00e+00	0	41	0	1139802112	56	5882
2026-01-24 22:03:42.18	342.55	10.05	-41.4	-42.5	21.7	0.00e+00	21	41	0	1140850688	56	6072
2026-01-24 22:03:43.19	342.44	9.98	-41.9	-43.1	21.3	0.00e+00	0	41	0	1142947840	56	6483
2026-01-24 22:03:44.20	342.33	9.91	-41.1	-42.2	22.1	0.00e+00	16	41	0	1145044992	56	5851
2026-01-24 22:03:45.21	342.22	9.84	-41.7	-42.8	21.5	0.00e+00	0	41	0	1147142144	56	6311
2026-01-24 22:03:46.22	342.11	9.77	-41.7	-42.9	21.5	0.00e+00	91	41	0	1149239296	56	6325
2026-01-24 22:03:47.23	342.01	9.70	-41.3	-42.5	21.8	0.00e+00	0	41	0	1150287872	56	6039
2026-01-24 22:03:48.24	341.90	9.64	-41.7	-42.9	21.5	0.00e+00	0	41	0	1152385024	56	6347
2026-01-24 22:03:49.25	341.79	9.57	-42.1	-43.3	21.0	0.00e+00	0	41	0	1154482176	56	6686
2026-01-24 22:03:50.26	341.68	9.50	-42.1	-43.4	20.9	0.00e+00	0	41	0	1156579328	56	6700
2026-01-24 22:03:51.27	341.58	9.43	-42.6	-44.0	20.6	0.00e+00	0	41	0	1158676480	56	7186
2026-01-24 22:03:52.28	341.47	9.36	-42.8	-44.2	20.2	0.00e+00	0	41	0	1159725056	58	6573
2026-01-24 22:03:53.29	341.36	9.29	-42.8	-44.3	20.2	0.00e+00	92	41	0	1161822208	58	6620
2026-01-24 22:03:54.30	341.26	9.23	-42.6	-44.0	20.3	0.00e+00	0	41	0	1163919360	58	6412
2026-01-24 22:03:55.31	341.15	9.16	-42.3	-43.6	20.8	0.00e+00	90	41	0	1166016512	58	6144
2026-01-24 22:03:56.31	341.05	9.09	-42.2	-43.5	20.7	0.00e+00	0	41	0	1168113664	58	6103
2026-01-24 22:03:57.32	340.95	9.02	-42.4	-43.7	20.8	0.00e+00	0	41	0	1169162240	58	6214
2026-01-24 22:03:58.33	340.84	8.95	-41.6	-42.8	21.4	0.00e+00	0	41	0	1171259392	56	6287
2026-01-24 22:03:59.34	340.74	8.89	-43.0	-44.4	19.8	0.00e+00	0	41	0	1173356544	58	6766
2026-01-24 22:04:00.35	340.64	8.82	-42.6	-44.0	20.2	0.00e+00	15	41	0	1175453696	58	6448
2026-01-24 22:04:01.36	340.54	8.75	-42.0	-43.3	20.9	0.00e+00	0	41	0	1177550848	58	5899
2026-01-24 22:04:02.37	340.44	8.69	-42.1	-43.4	20.9	0.00e+00	92	41	0	1179648000	58	5991
2026-01-24 22:04:03.38	340.34	8.62	-41.9	-43.2	21.1	0.00e+00	0	41	0	1180696576	58	5843
2026-01-24 22:04:04.39	340.24	8.55	-42.2	-43.5	20.6	0.00e+00	0	41	0	1182793728	58	6087
2026-01-24 22:04:05.40	340.14	8.48	-41.7	-42.9	21.2	0.00e+00	0	41	0	1184890880	56	6369
2026-01-24 22:04:06.40	340.04	8.42	-42.2	-43.5	20.6	0.00e+00	0	41	0	1186988032	56	6783
2026-01-24 22:04:07.41	339.94	8.35	-42.7	-44.1	20.1	0.00e+00	57	41	0	1188036608	58	6483
2026-01-24 22:04:08.42	339.84	8.28	-42.4	-43.7	20.6	0.00e+00	0	41	0	1190133760	58	6217
2026-01-24 22:04:09.43	339.74	8.22	-42.5	-43.9	20.4	0.00e+00	92	41	0	1192230912	58	6336
2026-01-24 22:04:10.43	339.65	8.15	-43.0	-44.4	19.9	0.00e+00	0	41	0	1194328064	58	6748
2026-01-24 22:04:11.44	339.55	8.08	-42.9	-44.3	20.0	0.00e+00	0	41	0	1196425216	58	6640
