passes_logs/2026/01/24/R4.6S_Anadyr/R4.6S_Anadyr__20260124_203428_NOAA_20_JPSS-1_rec.log

#Pass ID: 20260124_203428_NOAA 20 (JPSS-1)
#Satellite: NOAA 20 (JPSS-1)
#Configuration: NOAA 20
#almurnet v.1.7.20251203
#Start time: 2026-01-24 20:34:28

#Version: 2.2.20231116
#Station: R4.6S_Anadyr
#Location: 177.4865 lon 64.73178 lat
#TLE: 1 43013U 17073A   26024.14064826  .00000217  00000+0  12382-3 0  9992
#TLE: 2 43013  98.7646 324.9839 0001118  26.6217 333.5016 14.19539758424032

#Time	Az	El	Level	Level2	SNR	BER	BlckErr	Temp	State	Recorded	gain1	gain2
2026-01-24 20:34:28.56	72.67	0.03	-52.8	-67.7	3.5	1.51e+00	0	39	0	0	60	87811
2026-01-24 20:34:29.57	72.60	0.08	-52.8	-68.0	3.6	1.51e+00	0	40	104	0	60	91130
2026-01-24 20:34:30.58	72.53	0.13	-52.9	-68.1	3.6	1.51e+00	0	40	104	0	60	91958
2026-01-24 20:34:31.59	72.45	0.18	-52.7	-67.9	3.6	1.51e+00	0	40	104	0	60	90084
2026-01-24 20:34:32.60	72.38	0.23	-52.4	-67.7	3.6	1.51e+00	0	40	104	0	60	87471
2026-01-24 20:34:33.61	72.31	0.28	-52.4	-67.6	3.6	1.51e+00	0	40	104	0	60	86796
2026-01-24 20:34:34.62	72.24	0.33	-52.4	-67.5	3.6	1.51e+00	0	40	104	0	60	85948
2026-01-24 20:34:35.63	72.16	0.38	-52.3	-67.4	3.6	1.51e+00	0	40	104	0	60	84832
2026-01-24 20:34:36.64	72.09	0.43	-52.1	-67.3	3.6	1.51e+00	0	40	104	0	60	83293
2026-01-24 20:34:37.65	72.02	0.48	-52.1	-67.2	3.6	1.51e+00	0	40	104	0	60	82586
2026-01-24 20:34:38.66	71.94	0.54	-52.0	-67.2	3.6	1.51e+00	0	40	104	0	60	82404
2026-01-24 20:34:39.67	71.87	0.59	-52.3	-67.5	3.6	1.51e+00	0	40	104	0	60	85776
2026-01-24 20:34:40.68	71.79	0.64	-52.2	-67.4	3.6	1.51e+00	0	40	104	0	60	84614
2026-01-24 20:34:41.69	71.72	0.69	-52.6	-67.8	3.6	1.51e+00	0	40	104	0	60	88490
2026-01-24 20:34:42.70	71.64	0.74	-52.1	-67.2	3.6	1.51e+00	0	40	104	0	60	82646
2026-01-24 20:34:43.71	71.57	0.79	-51.9	-67.1	3.6	1.51e+00	0	40	104	0	60	82166
2026-01-24 20:34:44.72	71.49	0.84	-51.7	-66.9	3.6	1.51e+00	0	40	104	0	60	79701
2026-01-24 20:34:45.73	71.42	0.89	-51.6	-66.7	3.6	1.51e+00	0	40	104	0	60	78384
2026-01-24 20:34:46.74	71.34	0.94	-51.4	-66.7	3.6	1.51e+00	0	40	104	0	60	77740
2026-01-24 20:34:47.75	71.27	0.99	-51.5	-66.7	3.6	1.51e+00	0	40	104	0	60	77914
2026-01-24 20:34:48.77	71.19	1.05	-51.4	-66.6	3.6	1.51e+00	0	40	104	0	60	77145
2026-01-24 20:34:49.78	71.11	1.10	-51.1	-66.4	3.6	1.51e+00	0	40	104	0	60	75094
2026-01-24 20:34:50.79	71.03	1.15	-50.9	-66.3	3.6	1.51e+00	0	40	104	0	60	74644
2026-01-24 20:34:51.79	70.96	1.20	-51.0	-66.2	3.6	1.51e+00	0	40	104	0	60	73903
2026-01-24 20:34:52.81	70.88	1.25	-50.8	-66.0	3.6	1.51e+00	0	40	104	0	60	71826
2026-01-24 20:34:53.82	70.80	1.30	-50.4	-65.6	3.6	1.51e+00	0	40	104	0	60	68698
2026-01-24 20:34:54.83	70.72	1.35	-50.0	-65.2	3.6	1.51e+00	0	40	104	0	60	65826
2026-01-24 20:34:55.84	70.65	1.41	-50.0	-65.2	3.6	1.51e+00	0	40	104	0	60	65656
2026-01-24 20:34:56.85	70.57	1.46	-49.9	-65.2	3.6	1.51e+00	0	40	104	0	60	65528
2026-01-24 20:34:57.86	70.49	1.51	-49.9	-65.1	3.6	1.51e+00	0	40	104	0	60	64973
2026-01-24 20:34:58.87	70.41	1.56	-49.9	-65.1	3.6	1.51e+00	0	40	104	0	60	65261
2026-01-24 20:34:59.88	70.33	1.61	-49.9	-65.1	3.6	1.51e+00	0	40	104	0	60	65051
2026-01-24 20:35:00.86	70.25	1.66	-49.9	-65.0	3.6	1.51e+00	0	40	104	0	60	64426
2026-01-24 20:35:01.87	70.17	1.71	-49.9	-65.1	3.6	1.51e+00	0	40	104	0	60	65261
2026-01-24 20:35:02.88	70.09	1.77	-49.9	-65.1	3.6	1.51e+00	0	40	104	0	60	65352
2026-01-24 20:35:03.89	70.01	1.82	-49.9	-65.1	3.6	1.51e+00	0	40	104	0	60	64989
2026-01-24 20:35:04.90	69.93	1.87	-50.0	-65.2	3.6	1.51e+00	0	40	104	0	60	65953
2026-01-24 20:35:05.91	69.85	1.92	-50.0	-65.2	3.6	1.51e+00	0	40	104	0	60	65798
2026-01-24 20:35:06.92	69.77	1.97	-50.0	-65.2	3.6	1.51e+00	0	40	104	0	60	65656
2026-01-24 20:35:07.93	69.68	2.03	-49.9	-65.1	3.6	1.51e+00	0	40	104	0	60	64713
2026-01-24 20:35:08.94	69.60	2.08	-49.9	-65.1	3.6	1.51e+00	0	40	104	0	60	64724
2026-01-24 20:35:09.95	69.52	2.13	-49.9	-64.9	3.6	1.51e+00	0	40	104	0	60	63580
2026-01-24 20:35:10.96	69.44	2.18	-49.9	-64.8	3.6	1.51e+00	0	40	104	0	60	62900
2026-01-24 20:35:11.97	69.35	2.23	-49.9	-65.0	3.6	1.51e+00	0	40	104	0	60	64493
2026-01-24 20:35:12.98	69.27	2.29	-49.9	-65.0	3.6	1.51e+00	0	40	104	0	60	64578
2026-01-24 20:35:13.99	69.18	2.34	-49.9	-65.1	3.6	1.51e+00	0	40	104	0	60	65345
2026-01-24 20:35:15.00	69.10	2.39	-49.9	-65.1	3.6	1.51e+00	0	40	104	0	60	65380
2026-01-24 20:35:16.01	69.02	2.44	-49.9	-65.1	3.6	1.51e+00	0	40	104	0	60	65304
2026-01-24 20:35:17.02	68.93	2.50	-49.9	-65.1	3.6	1.51e+00	0	40	104	0	60	65258
2026-01-24 20:35:18.03	68.85	2.55	-49.9	-65.1	3.6	1.51e+00	0	40	104	0	60	65279
2026-01-24 20:35:19.04	68.76	2.60	-49.9	-65.1	3.6	1.51e+00	0	40	104	0	60	64688
2026-01-24 20:35:20.05	68.68	2.65	-49.9	-64.9	3.6	1.51e+00	0	40	104	0	60	63236
2026-01-24 20:35:21.06	68.59	2.71	-49.8	-64.0	3.6	1.51e+00	0	40	104	0	60	57585
2026-01-24 20:35:22.07	68.50	2.76	-49.9	-65.1	3.6	1.51e+00	0	40	104	0	60	65004
2026-01-24 20:35:23.08	68.42	2.81	-49.8	-62.3	3.6	1.51e+00	0	40	104	0	60	46978
2026-01-24 20:35:24.09	68.33	2.86	-49.7	-61.3	4.1	1.13e+00	90	40	104	0	60	41846
2026-01-24 20:35:25.10	68.24	2.92	-49.5	-58.4	5.5	4.23e-01	91	40	0	1048576	60	30226
2026-01-24 20:35:26.11	68.15	2.97	-49.6	-59.0	5.2	6.55e-02	0	40	0	3145728	60	32183
2026-01-24 20:35:27.12	68.07	3.02	-46.2	-48.9	14.5	0.00e+00	92	40	0	4194304	60	10089
2026-01-24 20:35:28.13	67.98	3.08	-48.4	-53.3	11.8	7.51e-03	92	40	0	6291456	60	16692
2026-01-24 20:35:29.14	67.89	3.13	-49.3	-56.0	9.0	1.39e-02	91	40	0	7340032	60	22882
2026-01-24 20:35:30.15	67.80	3.18	-49.9	-65.0	3.6	1.55e+00	0	40	104	8388608	60	64045
2026-01-24 20:35:31.16	67.71	3.23	-50.0	-64.4	3.6	1.51e+00	0	40	104	8388608	60	60099
2026-01-24 20:35:32.17	67.62	3.29	-45.7	-48.2	15.4	9.62e-01	90	41	104	8388608	60	9289
2026-01-24 20:35:33.18	67.53	3.34	-46.8	-49.8	14.6	3.00e-06	0	40	0	9437184	60	11214
2026-01-24 20:35:34.19	67.44	3.39	-47.3	-50.8	13.7	1.60e-05	92	40	0	11534336	60	12498
2026-01-24 20:35:35.20	67.35	3.45	-47.2	-50.6	13.4	1.06e-05	13	40	0	12582912	60	12257
2026-01-24 20:35:36.21	67.26	3.50	-46.1	-48.6	15.4	3.00e-06	92	40	0	14680064	60	9769
2026-01-24 20:35:37.22	67.17	3.55	-47.4	-51.0	13.4	7.62e-05	92	41	0	16777216	60	12784
2026-01-24 20:35:38.22	67.08	3.60	-45.4	-47.6	16.8	0.00e+00	9	40	0	18874368	60	8684
2026-01-24 20:35:39.23	66.99	3.66	-46.1	-48.6	15.9	0.00e+00	92	40	0	20971520	60	9712
2026-01-24 20:35:40.24	66.89	3.71	-46.4	-49.0	16.0	0.00e+00	0	40	0	22020096	60	10200
2026-01-24 20:35:41.25	66.80	3.76	-44.7	-46.5	17.7	0.00e+00	92	40	0	24117248	60	7681
2026-01-24 20:35:42.26	66.71	3.82	-46.7	-49.6	16.5	0.00e+00	0	40	0	26214400	60	10936
2026-01-24 20:35:43.27	66.62	3.87	-47.0	-50.1	13.6	4.50e-06	92	40	0	28311552	60	11597
2026-01-24 20:35:44.28	66.52	3.92	-46.3	-48.8	15.6	2.20e-06	92	41	0	30408704	60	9944
2026-01-24 20:35:45.29	66.43	3.98	-47.1	-50.1	14.3	0.00e+00	92	40	0	31457280	60	11558
2026-01-24 20:35:46.30	66.33	4.03	-46.6	-49.3	15.2	0.00e+00	92	40	0	33554432	60	10519
2026-01-24 20:35:47.31	66.24	4.08	-46.4	-49.0	15.4	0.00e+00	6	41	0	35651584	60	10173
2026-01-24 20:35:48.32	66.14	4.14	-46.2	-48.6	16.0	0.00e+00	90	40	0	37748736	60	9709
2026-01-24 20:35:49.33	66.05	4.19	-46.2	-48.7	15.7	0.00e+00	19	40	0	39845888	60	9827
2026-01-24 20:35:50.34	65.95	4.24	-45.7	-47.9	17.1	0.00e+00	92	40	0	40894464	60	8984
2026-01-24 20:35:51.35	65.86	4.30	-44.7	-46.6	17.6	0.00e+00	82	40	0	42991616	60	7707
2026-01-24 20:35:52.36	65.76	4.35	-45.7	-47.9	16.6	0.00e+00	92	40	0	45088768	60	8981
2026-01-24 20:35:53.37	65.66	4.41	-46.1	-48.5	16.4	0.00e+00	92	40	0	47185920	60	9628
2026-01-24 20:35:54.38	65.57	4.46	-45.8	-48.0	16.3	0.00e+00	0	40	0	49283072	60	9039
2026-01-24 20:35:55.39	65.47	4.51	-44.9	-46.7	18.0	0.00e+00	92	40	0	51380224	60	7856
2026-01-24 20:35:56.40	65.37	4.57	-44.5	-46.2	18.1	0.00e+00	49	40	0	52428800	60	7411
2026-01-24 20:35:57.41	65.27	4.62	-44.7	-46.5	18.2	0.00e+00	91	40	0	54525952	60	7606
2026-01-24 20:35:58.41	65.17	4.67	-44.6	-46.4	18.1	0.00e+00	76	41	0	56623104	60	7523
2026-01-24 20:35:59.42	65.07	4.73	-45.2	-47.2	17.4	0.00e+00	91	40	0	58720256	60	8242
2026-01-24 20:36:00.43	64.97	4.78	-45.3	-47.2	17.5	0.00e+00	92	40	0	60817408	60	8327
2026-01-24 20:36:01.44	64.87	4.84	-45.4	-47.5	17.1	0.00e+00	0	40	0	61865984	60	8554
2026-01-24 20:36:02.45	64.77	4.89	-45.2	-47.2	17.5	0.00e+00	92	40	0	63963136	60	8273
2026-01-24 20:36:03.46	64.67	4.94	-45.2	-47.2	17.5	0.00e+00	5	40	0	66060288	60	8259
2026-01-24 20:36:04.47	64.57	5.00	-44.7	-46.5	18.0	0.00e+00	92	41	0	68157440	60	7623
2026-01-24 20:36:05.48	64.47	5.05	-45.1	-46.9	17.6	0.00e+00	0	41	0	70254592	60	8036
2026-01-24 20:36:06.49	64.37	5.10	-45.4	-47.4	17.3	0.00e+00	92	41	0	71303168	60	8513
2026-01-24 20:36:07.50	64.27	5.16	-45.0	-46.8	17.8	0.00e+00	92	41	0	73400320	60	7905
2026-01-24 20:36:08.51	64.16	5.21	-44.7	-46.5	18.2	0.00e+00	92	41	0	75497472	60	7670
2026-01-24 20:36:09.52	64.06	5.27	-44.7	-46.5	18.2	0.00e+00	92	41	0	77594624	60	7673
2026-01-24 20:36:10.53	63.96	5.32	-45.0	-46.9	18.3	0.00e+00	35	40	0	79691776	60	8009
2026-01-24 20:36:11.54	63.85	5.38	-44.6	-46.4	17.8	0.00e+00	92	40	0	80740352	60	7527
2026-01-24 20:36:12.55	63.75	5.43	-46.0	-48.3	16.4	0.00e+00	28	40	0	82837504	60	9432
2026-01-24 20:36:13.56	63.65	5.48	-45.4	-47.4	17.5	0.00e+00	92	40	0	84934656	60	8456
2026-01-24 20:36:14.57	63.54	5.54	-45.6	-47.6	17.2	0.00e+00	90	41	0	87031808	60	8699
2026-01-24 20:36:15.58	63.44	5.59	-45.6	-47.7	17.0	0.00e+00	92	40	0	89128960	60	8816
2026-01-24 20:36:16.59	63.33	5.65	-45.7	-47.9	16.9	0.00e+00	92	41	0	90177536	60	8933
2026-01-24 20:36:17.60	63.22	5.70	-46.1	-48.5	16.3	0.00e+00	13	40	0	92274688	60	9568
2026-01-24 20:36:18.61	63.12	5.75	-45.0	-46.9	17.9	0.00e+00	92	41	0	94371840	60	8012
2026-01-24 20:36:19.62	63.01	5.81	-44.0	-45.5	19.3	0.00e+00	65	40	0	96468992	60	6815
2026-01-24 20:36:20.63	62.90	5.86	-43.8	-45.3	19.3	0.00e+00	92	40	0	98566144	60	6623
2026-01-24 20:36:21.64	62.79	5.92	-45.1	-46.9	17.9	0.00e+00	90	41	0	99614720	60	8042
2026-01-24 20:36:22.65	62.69	5.97	-44.7	-46.3	18.8	0.00e+00	92	40	0	101711872	60	7505
2026-01-24 20:36:23.66	62.58	6.03	-44.1	-45.7	19.1	0.00e+00	90	40	0	103809024	60	6980
2026-01-24 20:36:24.67	62.47	6.08	-44.3	-45.9	19.0	0.00e+00	0	40	0	105906176	60	7131
2026-01-24 20:36:25.68	62.36	6.13	-44.8	-46.6	18.1	0.00e+00	92	40	0	108003328	60	7700
2026-01-24 20:36:26.69	62.25	6.19	-44.4	-46.1	19.2	0.00e+00	28	40	0	109051904	60	7266
2026-01-24 20:36:27.70	62.14	6.24	-44.3	-45.9	19.0	0.00e+00	90	41	0	111149056	60	7125
2026-01-24 20:36:28.71	62.03	6.30	-45.6	-47.6	17.2	0.00e+00	0	41	0	113246208	60	8663
2026-01-24 20:36:29.72	61.92	6.35	-43.7	-45.2	19.7	0.00e+00	91	41	0	115343360	60	6544
2026-01-24 20:36:30.72	61.81	6.41	-44.6	-46.3	18.4	0.00e+00	92	41	0	117440512	60	7486
2026-01-24 20:36:31.73	61.69	6.46	-44.4	-46.0	18.7	0.00e+00	40	41	0	119537664	60	7239
2026-01-24 20:36:32.74	61.58	6.52	-44.5	-46.1	18.8	0.00e+00	91	41	0	120586240	60	7303
2026-01-24 20:36:33.75	61.47	6.57	-43.8	-45.3	19.2	0.00e+00	29	41	0	122683392	60	6644
2026-01-24 20:36:34.76	61.36	6.62	-44.7	-46.5	18.6	0.00e+00	91	41	0	124780544	60	7605
2026-01-24 20:36:35.76	61.24	6.68	-44.7	-46.4	18.7	0.00e+00	44	41	0	126877696	60	7563
2026-01-24 20:36:36.76	61.13	6.73	-44.1	-45.7	19.2	0.00e+00	92	40	0	127926272	60	6958
2026-01-24 20:36:37.77	61.02	6.79	-44.5	-46.1	18.8	0.00e+00	90	41	0	130023424	60	7314
2026-01-24 20:36:38.78	60.90	6.84	-44.4	-46.0	18.8	0.00e+00	92	41	0	132120576	60	7213
2026-01-24 20:36:39.79	60.79	6.90	-44.3	-45.9	19.1	0.00e+00	92	41	0	134217728	60	7092
2026-01-24 20:36:40.80	60.67	6.95	-43.9	-45.4	19.5	0.00e+00	0	41	0	136314880	60	6702
2026-01-24 20:36:41.81	60.55	7.00	-43.6	-45.0	19.9	0.00e+00	90	41	0	137363456	60	6401
2026-01-24 20:36:42.82	60.44	7.06	-43.7	-45.1	19.7	0.00e+00	0	41	0	139460608	60	6486
2026-01-24 20:36:43.83	60.32	7.11	-44.0	-45.5	19.4	0.00e+00	90	41	0	141557760	60	6790
2026-01-24 20:36:44.84	60.20	7.17	-44.3	-45.8	19.1	0.00e+00	15	41	0	143654912	60	7084
2026-01-24 20:36:45.85	60.08	7.22	-44.0	-45.5	19.3	0.00e+00	92	41	0	145752064	60	6805
2026-01-24 20:36:46.86	59.96	7.28	-44.0	-45.5	19.5	0.00e+00	92	41	0	147849216	60	6789
2026-01-24 20:36:47.87	59.85	7.33	-43.9	-45.4	19.5	0.00e+00	0	41	0	148897792	60	6709
2026-01-24 20:36:48.88	59.73	7.39	-43.9	-45.3	19.6	0.00e+00	92	41	0	150994944	60	6675
2026-01-24 20:36:49.89	59.61	7.44	-43.8	-45.3	19.7	0.00e+00	35	41	0	153092096	60	6642
2026-01-24 20:36:50.90	59.49	7.49	-43.9	-45.4	19.5	0.00e+00	92	41	0	155189248	60	6743
2026-01-24 20:36:51.91	59.36	7.55	-43.8	-45.3	19.5	0.00e+00	0	41	0	157286400	60	6656
2026-01-24 20:36:52.92	59.24	7.60	-43.8	-45.2	19.6	0.00e+00	92	41	0	158334976	60	6609
2026-01-24 20:36:53.92	59.12	7.66	-43.7	-45.1	19.7	0.00e+00	92	41	0	160432128	60	6519
2026-01-24 20:36:54.94	59.00	7.71	-43.7	-45.1	19.8	0.00e+00	33	41	0	162529280	60	6532
2026-01-24 20:36:55.95	58.88	7.77	-44.1	-45.6	19.2	0.00e+00	92	41	0	164626432	60	6926
2026-01-24 20:36:56.96	58.75	7.82	-44.1	-45.6	19.3	0.00e+00	59	41	0	166723584	60	6879
2026-01-24 20:36:57.97	58.63	7.88	-43.7	-45.1	19.9	0.00e+00	92	41	0	167772160	60	6509
2026-01-24 20:36:58.98	58.50	7.93	-43.5	-44.9	20.0	0.00e+00	0	41	0	169869312	60	6338
2026-01-24 20:36:59.99	58.38	7.99	-44.0	-45.5	19.4	0.00e+00	92	41	0	171966464	60	6835
2026-01-24 20:37:00.99	58.26	8.04	-43.8	-45.2	19.7	0.00e+00	92	41	0	174063616	60	6597
2026-01-24 20:37:02.00	58.13	8.09	-43.6	-45.1	19.9	0.00e+00	92	41	0	176160768	60	6477
2026-01-24 20:37:03.01	58.00	8.15	-43.5	-44.9	20.1	0.00e+00	92	41	0	177209344	60	6348
2026-01-24 20:37:04.02	57.88	8.20	-44.0	-45.4	19.5	0.00e+00	7	41	0	179306496	60	6769
2026-01-24 20:37:05.03	57.75	8.26	-43.8	-45.2	19.7	0.00e+00	90	41	0	181403648	60	6583
2026-01-24 20:37:06.04	57.62	8.31	-43.6	-45.0	20.0	0.00e+00	0	41	0	183500800	60	6410
2026-01-24 20:37:07.05	57.50	8.37	-43.8	-45.2	19.7	0.00e+00	92	41	0	185597952	60	6582
2026-01-24 20:37:08.05	57.37	8.42	-43.3	-44.7	20.3	0.00e+00	0	41	0	186646528	60	6188
2026-01-24 20:37:09.07	57.24	8.47	-43.4	-44.8	20.1	0.00e+00	92	41	0	188743680	60	6275
2026-01-24 20:37:10.08	57.11	8.53	-43.6	-45.0	20.0	0.00e+00	90	41	0	190840832	60	6417
2026-01-24 20:37:11.09	56.98	8.58	-43.6	-45.0	20.0	0.00e+00	36	41	0	192937984	60	6405
2026-01-24 20:37:12.10	56.85	8.64	-43.6	-44.9	20.1	0.00e+00	90	41	0	195035136	60	6383
2026-01-24 20:37:13.11	56.72	8.69	-43.3	-44.6	20.4	0.00e+00	0	41	0	196083712	60	6163
2026-01-24 20:37:14.12	56.59	8.74	-44.1	-45.6	19.4	0.00e+00	92	41	0	198180864	60	6884
2026-01-24 20:37:15.13	56.45	8.80	-43.9	-45.3	19.7	0.00e+00	0	41	0	200278016	60	6672
2026-01-24 20:37:16.14	56.32	8.85	-43.7	-45.1	20.0	0.00e+00	90	41	0	202375168	60	6485
2026-01-24 20:37:17.14	56.19	8.91	-44.0	-45.4	19.7	0.00e+00	90	41	0	204472320	60	6737
2026-01-24 20:37:18.15	56.06	8.96	-44.0	-45.5	19.4	0.00e+00	43	41	0	205520896	60	6805
2026-01-24 20:37:19.16	55.92	9.01	-43.0	-44.3	20.7	0.00e+00	91	41	0	207618048	60	5916
2026-01-24 20:37:20.17	55.79	9.07	-43.4	-44.7	20.3	0.00e+00	43	41	0	209715200	60	6188
2026-01-24 20:37:21.18	55.65	9.12	-44.3	-45.8	19.1	0.00e+00	91	41	0	211812352	60	7041
2026-01-24 20:37:22.19	55.52	9.18	-44.1	-45.6	19.6	0.00e+00	0	41	0	213909504	60	6864
2026-01-24 20:37:23.20	55.38	9.23	-44.4	-46.0	19.2	0.00e+00	92	41	0	216006656	60	7180
2026-01-24 20:37:24.21	55.24	9.28	-43.8	-45.3	19.8	0.00e+00	15	41	0	217055232	60	6619
2026-01-24 20:37:25.22	55.11	9.34	-43.9	-45.3	19.7	0.00e+00	92	41	0	219152384	60	6646
2026-01-24 20:37:26.23	54.97	9.39	-44.4	-45.9	19.1	0.00e+00	92	41	0	221249536	60	7160
2026-01-24 20:37:27.24	54.83	9.45	-44.6	-46.2	18.9	0.00e+00	7	41	0	223346688	60	7360
2026-01-24 20:37:28.25	54.69	9.50	-44.7	-46.4	18.8	0.00e+00	92	41	0	225443840	60	7558
2026-01-24 20:37:29.26	54.55	9.55	-44.4	-46.0	19.0	0.00e+00	0	41	0	226492416	60	7210
2026-01-24 20:37:30.27	54.41	9.61	-44.1	-45.7	19.5	0.00e+00	92	41	0	228589568	60	6930
2026-01-24 20:37:31.28	54.27	9.66	-43.7	-45.2	19.9	0.00e+00	0	41	0	230686720	60	6541
2026-01-24 20:37:32.29	54.13	9.71	-43.8	-45.3	19.8	0.00e+00	28	41	0	232783872	60	6629
2026-01-24 20:37:33.29	53.99	9.77	-43.9	-45.4	19.6	0.00e+00	92	41	0	234881024	60	6722
2026-01-24 20:37:34.31	53.85	9.82	-44.0	-45.4	19.7	0.00e+00	0	41	0	235929600	60	6755
2026-01-24 20:37:35.31	53.71	9.87	-43.6	-45.0	20.1	0.00e+00	90	41	0	238026752	60	6432
2026-01-24 20:37:36.32	53.57	9.93	-43.6	-44.9	20.3	0.00e+00	45	41	0	240123904	60	6367
2026-01-24 20:37:37.33	53.42	9.98	-43.3	-44.6	20.4	0.00e+00	91	41	0	242221056	60	6159
2026-01-24 20:37:38.34	53.28	10.03	-43.5	-44.8	20.3	0.00e+00	0	41	0	244318208	60	6310
2026-01-24 20:37:39.34	53.14	10.08	-43.3	-44.6	20.4	0.00e+00	68	41	0	245366784	60	6160
2026-01-24 20:37:40.35	52.99	10.14	-43.5	-44.8	20.3	0.00e+00	90	41	0	247463936	60	6291
2026-01-24 20:37:41.36	52.85	10.19	-43.3	-44.6	20.4	0.00e+00	36	41	0	249561088	60	6172
2026-01-24 20:37:42.37	52.70	10.24	-43.4	-44.7	20.3	0.00e+00	91	41	0	251658240	60	6244
2026-01-24 20:37:43.38	52.55	10.30	-43.4	-44.8	20.3	0.00e+00	45	41	0	253755392	60	6254
2026-01-24 20:37:44.39	52.41	10.35	-43.8	-45.2	19.9	0.00e+00	90	41	0	254803968	60	6582
2026-01-24 20:37:45.40	52.26	10.40	-43.5	-44.9	20.0	0.00e+00	46	41	0	256901120	60	6350
2026-01-24 20:37:46.41	52.11	10.45	-43.5	-44.9	20.2	0.00e+00	91	41	0	258998272	60	6352
2026-01-24 20:37:47.42	51.96	10.51	-43.6	-45.0	20.1	0.00e+00	22	41	0	261095424	60	6392
2026-01-24 20:37:48.43	51.81	10.56	-43.6	-44.9	20.2	0.00e+00	0	41	0	263192576	60	6373
2026-01-24 20:37:49.44	51.66	10.61	-43.9	-45.3	19.9	0.00e+00	92	41	0	264241152	60	6666
2026-01-24 20:37:50.45	51.51	10.66	-43.8	-45.3	19.8	0.00e+00	0	41	0	266338304	60	6629
2026-01-24 20:37:51.46	51.36	10.72	-43.9	-45.3	20.0	0.00e+00	92	41	0	268435456	60	6680
2026-01-24 20:37:52.47	51.21	10.77	-43.4	-44.7	20.4	0.00e+00	36	41	0	270532608	60	6211
2026-01-24 20:37:53.48	51.06	10.82	-43.3	-44.6	20.6	0.00e+00	92	41	0	272629760	60	6110
2026-01-24 20:37:54.49	50.91	10.87	-43.2	-44.5	20.5	0.00e+00	5	41	0	273678336	60	6056
2026-01-24 20:37:55.50	50.75	10.92	-43.6	-44.9	20.3	0.00e+00	0	41	0	275775488	60	6363
2026-01-24 20:37:56.51	50.60	10.97	-43.5	-44.8	20.5	0.00e+00	92	41	0	277872640	60	6274
2026-01-24 20:37:57.51	50.45	11.03	-43.1	-44.4	20.8	0.00e+00	37	41	0	279969792	60	5965
2026-01-24 20:37:58.52	50.29	11.08	-43.0	-44.2	20.8	0.00e+00	90	41	0	282066944	60	5872
2026-01-24 20:37:59.53	50.14	11.13	-42.6	-43.8	21.3	0.00e+00	49	41	0	284164096	58	6299
2026-01-24 20:38:00.54	49.98	11.18	-42.8	-44.0	21.1	0.00e+00	92	41	0	285212672	58	6438
2026-01-24 20:38:01.55	49.82	11.23	-42.8	-44.0	21.0	0.00e+00	0	41	0	287309824	58	6463
2026-01-24 20:38:02.56	49.67	11.28	-42.7	-43.9	21.2	0.00e+00	48	41	0	289406976	58	6348
2026-01-24 20:38:03.57	49.51	11.33	-42.5	-43.6	21.5	0.00e+00	92	41	0	291504128	58	6142
2026-01-24 20:38:04.58	49.35	11.38	-42.4	-43.6	21.3	0.00e+00	51	41	0	293601280	58	6115
2026-01-24 20:38:05.59	49.19	11.44	-42.4	-43.5	21.5	0.00e+00	92	41	0	294649856	58	6080
2026-01-24 20:38:06.60	49.03	11.49	-42.4	-43.6	21.5	0.00e+00	51	41	0	296747008	58	6135
2026-01-24 20:38:07.61	48.87	11.54	-42.2	-43.3	21.8	0.00e+00	92	41	0	298844160	58	5906
2026-01-24 20:38:08.62	48.71	11.59	-42.4	-43.5	21.7	0.00e+00	5	41	0	300941312	58	6081
2026-01-24 20:38:09.63	48.55	11.64	-42.0	-43.1	22.0	0.00e+00	32	41	0	303038464	58	5769
2026-01-24 20:38:10.64	48.39	11.69	-42.0	-43.1	21.9	0.00e+00	90	41	0	304087040	58	5783
2026-01-24 20:38:11.65	48.23	11.74	-42.1	-43.2	21.9	0.00e+00	6	41	0	306184192	58	5889
2026-01-24 20:38:12.66	48.07	11.79	-42.1	-43.2	21.8	0.00e+00	90	41	0	308281344	58	5890
2026-01-24 20:38:13.67	47.90	11.84	-42.0	-43.1	21.9	0.00e+00	38	41	0	310378496	58	5781
2026-01-24 20:38:14.68	47.74	11.89	-41.8	-42.9	22.0	0.00e+00	92	41	0	312475648	58	5653
2026-01-24 20:38:15.69	47.58	11.94	-42.0	-43.0	22.1	0.00e+00	37	41	0	313524224	58	5750
2026-01-24 20:38:16.69	47.41	11.99	-41.9	-43.0	22.1	0.00e+00	90	41	0	315621376	58	5732
2026-01-24 20:38:17.70	47.25	12.04	-42.2	-43.3	21.8	0.00e+00	0	41	0	317718528	58	5963
2026-01-24 20:38:18.71	47.08	12.08	-42.1	-43.2	21.9	0.00e+00	36	41	0	319815680	58	5855
2026-01-24 20:38:19.72	46.92	12.13	-42.1	-43.2	22.0	0.00e+00	90	41	0	321912832	58	5836
2026-01-24 20:38:20.73	46.75	12.18	-41.7	-42.7	22.3	0.00e+00	37	41	0	322961408	56	6243
2026-01-24 20:38:21.74	46.58	12.23	-42.0	-43.1	22.0	0.00e+00	92	41	0	325058560	56	6507
2026-01-24 20:38:22.75	46.41	12.28	-41.9	-42.9	22.0	0.00e+00	37	41	0	327155712	56	6384
2026-01-24 20:38:23.76	46.24	12.33	-41.9	-43.0	22.2	0.00e+00	90	41	0	329252864	56	6427
2026-01-24 20:38:24.77	46.08	12.38	-41.7	-42.7	22.3	0.00e+00	0	41	0	331350016	56	6224
2026-01-24 20:38:25.78	45.91	12.43	-41.6	-42.6	22.4	0.00e+00	2	41	0	332398592	56	6147
2026-01-24 20:38:26.79	45.74	12.47	-41.6	-42.6	22.5	0.00e+00	91	41	0	334495744	56	6137
2026-01-24 20:38:27.80	45.56	12.52	-41.5	-42.6	22.5	0.00e+00	44	41	0	336592896	56	6119
2026-01-24 20:38:28.81	45.39	12.57	-41.4	-42.5	22.7	0.00e+00	91	41	0	338690048	56	6034
2026-01-24 20:38:29.82	45.22	12.62	-41.2	-42.2	22.8	0.00e+00	0	41	0	340787200	56	5878
2026-01-24 20:38:30.82	45.05	12.66	-41.4	-42.4	22.6	0.00e+00	91	41	0	341835776	56	5994
2026-01-24 20:38:31.83	44.88	12.71	-41.7	-42.7	22.4	0.00e+00	0	41	0	343932928	56	6216
2026-01-24 20:38:32.84	44.70	12.76	-41.4	-42.4	22.6	0.00e+00	90	41	0	346030080	56	6025
2026-01-24 20:38:33.85	44.53	12.80	-41.4	-42.5	22.5	0.00e+00	92	41	0	348127232	56	6034
2026-01-24 20:38:34.86	44.35	12.85	-41.3	-42.3	22.8	0.00e+00	0	41	0	350224384	56	5910
2026-01-24 20:38:35.87	44.18	12.90	-41.5	-42.5	22.6	0.00e+00	92	41	0	352321536	56	6089
2026-01-24 20:38:36.88	44.00	12.94	-41.4	-42.4	22.7	0.00e+00	38	41	0	353370112	56	5988
2026-01-24 20:38:37.89	43.83	12.99	-41.5	-42.5	22.6	0.00e+00	90	41	0	355467264	56	6060
2026-01-24 20:38:38.90	43.65	13.04	-41.1	-42.0	22.9	0.00e+00	37	41	0	357564416	56	5756
2026-01-24 20:38:39.91	43.47	13.08	-41.3	-42.2	22.8	0.00e+00	92	41	0	359661568	56	5892
2026-01-24 20:38:40.91	43.29	13.13	-41.1	-42.1	22.8	0.00e+00	0	41	0	361758720	56	5794
2026-01-24 20:38:41.92	43.12	13.17	-41.2	-42.2	22.8	0.00e+00	37	41	0	362807296	56	5884
2026-01-24 20:38:42.93	42.94	13.22	-41.3	-42.3	22.6	0.00e+00	92	41	0	364904448	56	5932
2026-01-24 20:38:43.95	42.75	13.26	-41.1	-42.1	22.9	0.00e+00	44	41	0	367001600	56	5815
2026-01-24 20:38:44.95	42.58	13.31	-41.0	-41.9	23.1	0.00e+00	92	41	0	369098752	56	5681
2026-01-24 20:38:45.96	42.39	13.35	-41.0	-42.0	23.0	0.00e+00	44	41	0	371195904	56	5725
2026-01-24 20:38:46.97	42.21	13.40	-41.0	-42.0	22.9	0.00e+00	92	41	0	372244480	56	5734
2026-01-24 20:38:47.98	42.03	13.44	-41.1	-42.1	23.0	0.00e+00	45	41	0	374341632	56	5800
2026-01-24 20:38:49.00	41.85	13.49	-41.4	-42.4	22.7	0.00e+00	0	41	0	376438784	56	6007
2026-01-24 20:38:50.01	41.66	13.53	-41.4	-42.4	22.7	0.00e+00	90	41	0	378535936	56	5982
2026-01-24 20:38:51.02	41.48	13.57	-41.6	-42.6	22.4	0.00e+00	0	41	0	380633088	56	6123
2026-01-24 20:38:52.03	41.30	13.62	-41.4	-42.4	22.6	0.00e+00	92	41	0	381681664	56	6022
2026-01-24 20:38:53.04	41.11	13.66	-41.8	-42.9	22.2	0.00e+00	2	41	0	383778816	56	6320
2026-01-24 20:38:54.05	40.93	13.70	-41.6	-42.7	22.5	0.00e+00	92	41	0	385875968	56	6178
2026-01-24 20:38:55.06	40.74	13.75	-41.2	-42.2	22.9	0.00e+00	2	41	0	387973120	56	5866
2026-01-24 20:38:56.07	40.55	13.79	-41.5	-42.5	22.6	0.00e+00	92	41	0	390070272	56	6055
2026-01-24 20:38:57.08	40.37	13.83	-41.4	-42.3	22.7	0.00e+00	76	41	0	391118848	56	5963
2026-01-24 20:38:58.09	40.18	13.87	-41.4	-42.4	22.7	0.00e+00	2	41	0	393216000	56	6007
2026-01-24 20:38:59.09	39.99	13.91	-41.6	-42.6	22.5	0.00e+00	92	41	0	395313152	56	6128
2026-01-24 20:39:00.10	39.80	13.96	-41.6	-42.6	22.5	0.00e+00	0	41	0	397410304	56	6161
2026-01-24 20:39:01.11	39.61	14.00	-41.7	-42.7	22.5	0.00e+00	92	41	0	399507456	56	6207
2026-01-24 20:39:02.12	39.42	14.04	-41.4	-42.4	22.8	0.00e+00	38	41	0	400556032	56	5966
2026-01-24 20:39:03.13	39.23	14.08	-41.4	-42.3	22.7	0.00e+00	92	41	0	402653184	56	5962
2026-01-24 20:39:04.14	39.04	14.12	-41.5	-42.5	22.7	0.00e+00	16	41	0	404750336	56	6057
2026-01-24 20:39:05.15	38.85	14.16	-41.6	-42.6	22.6	0.00e+00	38	41	0	406847488	56	6136
2026-01-24 20:39:06.16	38.66	14.20	-41.3	-42.3	22.8	0.00e+00	90	41	0	408944640	56	5945
2026-01-24 20:39:07.17	38.47	14.24	-41.7	-42.7	22.0	0.00e+00	0	41	0	409993216	56	6211
2026-01-24 20:39:08.18	38.28	14.28	-41.9	-43.0	22.3	0.00e+00	92	41	0	412090368	56	6411
2026-01-24 20:39:09.19	38.08	14.32	-41.3	-42.3	22.9	0.00e+00	44	41	0	414187520	56	5931
2026-01-24 20:39:10.20	37.89	14.36	-41.2	-42.2	22.9	0.00e+00	90	41	0	416284672	56	5840
2026-01-24 20:39:11.20	37.70	14.40	-41.3	-42.3	22.8	0.00e+00	2	41	0	418381824	56	5920
2026-01-24 20:39:12.21	37.50	14.43	-41.1	-42.1	22.9	0.00e+00	92	41	0	419430400	56	5764
2026-01-24 20:39:13.22	37.31	14.47	-41.1	-42.1	23.0	0.00e+00	92	41	0	421527552	56	5794
2026-01-24 20:39:14.23	37.11	14.51	-41.2	-42.1	23.0	0.00e+00	0	41	0	423624704	56	5813
2026-01-24 20:39:15.24	36.91	14.55	-41.1	-42.1	23.1	0.00e+00	92	41	0	425721856	56	5770
2026-01-24 20:39:16.24	36.72	14.59	-41.0	-42.0	23.1	0.00e+00	2	41	0	427819008	56	5723
2026-01-24 20:39:17.25	36.52	14.62	-41.0	-42.0	22.9	0.00e+00	90	41	0	428867584	56	5712
2026-01-24 20:39:18.26	36.32	14.66	-41.4	-42.4	22.8	0.00e+00	0	41	0	430964736	56	5997
2026-01-24 20:39:19.27	36.12	14.70	-41.2	-42.2	23.0	0.00e+00	92	41	0	433061888	56	5842
2026-01-24 20:39:20.28	35.93	14.73	-41.0	-42.0	23.3	0.00e+00	0	41	0	435159040	56	5715
2026-01-24 20:39:21.29	35.73	14.77	-41.0	-42.0	23.2	0.00e+00	36	41	0	437256192	56	5709
2026-01-24 20:39:22.30	35.53	14.80	-41.1	-42.1	23.0	0.00e+00	92	41	0	438304768	56	5795
2026-01-24 20:39:23.31	35.33	14.84	-40.9	-41.9	23.2	0.00e+00	0	41	0	440401920	56	5637
2026-01-24 20:39:24.32	35.13	14.87	-41.1	-42.1	23.0	0.00e+00	92	41	0	442499072	56	5764
2026-01-24 20:39:25.33	34.92	14.91	-41.0	-42.0	23.2	0.00e+00	43	41	0	444596224	56	5702
2026-01-24 20:39:26.34	34.72	14.94	-41.4	-42.4	23.0	0.00e+00	92	41	0	446693376	56	5992
2026-01-24 20:39:27.34	34.52	14.98	-40.7	-41.7	23.4	0.00e+00	31	41	0	448790528	56	5506
2026-01-24 20:39:28.36	34.32	15.01	-40.8	-41.7	23.4	0.00e+00	43	41	0	449839104	54	6222
2026-01-24 20:39:29.36	34.12	15.05	-40.6	-41.5	23.5	0.00e+00	90	41	0	451936256	54	6084
2026-01-24 20:39:30.37	33.91	15.08	-40.8	-41.7	23.4	0.00e+00	0	41	0	454033408	54	6220
2026-01-24 20:39:31.38	33.71	15.11	-40.9	-41.8	23.3	0.00e+00	92	41	0	456130560	54	6287
2026-01-24 20:39:32.39	33.50	15.14	-40.7	-41.6	23.4	0.00e+00	7	41	0	458227712	54	6152
2026-01-24 20:39:33.40	33.30	15.18	-40.7	-41.6	23.3	0.00e+00	92	41	0	459276288	54	6136
2026-01-24 20:39:34.40	33.10	15.21	-40.6	-41.5	23.4	0.00e+00	45	41	0	461373440	54	6072
2026-01-24 20:39:35.41	32.89	15.24	-40.7	-41.6	23.4	0.00e+00	92	41	0	463470592	54	6159
2026-01-24 20:39:36.42	32.68	15.27	-41.0	-41.9	23.1	0.00e+00	92	41	0	465567744	54	6371
2026-01-24 20:39:37.43	32.48	15.30	-41.0	-42.0	23.1	0.00e+00	0	41	0	467664896	54	6412
2026-01-24 20:39:38.44	32.27	15.33	-41.1	-42.0	23.1	0.00e+00	77	41	0	468713472	54	6436
2026-01-24 20:39:39.45	32.06	15.36	-41.0	-41.9	23.2	0.00e+00	4	41	0	470810624	54	6384
2026-01-24 20:39:40.46	31.85	15.39	-40.9	-41.8	23.3	0.00e+00	0	41	0	472907776	54	6289
2026-01-24 20:39:41.47	31.65	15.42	-41.0	-41.9	23.1	0.00e+00	38	41	0	475004928	54	6384
2026-01-24 20:39:42.48	31.44	15.45	-41.1	-42.1	23.0	0.00e+00	0	41	0	477102080	54	6466
2026-01-24 20:39:43.49	31.23	15.48	-41.0	-42.0	23.0	0.00e+00	2	41	0	478150656	54	6392
2026-01-24 20:39:44.50	31.02	15.51	-41.1	-42.1	23.1	0.00e+00	37	41	0	480247808	54	6503
2026-01-24 20:39:45.51	30.81	15.54	-41.1	-42.0	23.1	0.00e+00	92	41	0	482344960	54	6424
2026-01-24 20:39:46.51	30.60	15.56	-41.0	-41.9	23.1	0.00e+00	36	41	0	484442112	54	6363
2026-01-24 20:39:47.52	30.39	15.59	-40.9	-41.9	23.2	0.00e+00	34	41	0	486539264	54	6333
2026-01-24 20:39:48.53	30.18	15.62	-41.0	-41.9	23.2	0.00e+00	48	41	0	487587840	54	6387
2026-01-24 20:39:49.54	29.97	15.64	-41.0	-42.0	23.0	0.00e+00	38	41	0	489684992	54	6411
2026-01-24 20:39:50.55	29.75	15.67	-41.1	-42.1	23.0	0.00e+00	32	41	0	491782144	54	6484
2026-01-24 20:39:51.56	29.54	15.70	-41.1	-42.0	23.1	0.00e+00	37	41	0	493879296	54	6459
2026-01-24 20:39:52.57	29.33	15.72	-41.1	-42.1	23.0	0.00e+00	90	41	0	495976448	54	6483
2026-01-24 20:39:53.58	29.12	15.75	-41.0	-42.0	23.1	0.00e+00	0	41	0	497025024	54	6408
2026-01-24 20:39:54.59	28.90	15.77	-41.1	-42.0	23.0	0.00e+00	92	41	0	499122176	54	6437
2026-01-24 20:39:55.60	28.69	15.80	-41.4	-42.4	22.7	0.00e+00	7	41	0	501219328	54	6697
2026-01-24 20:39:56.61	28.47	15.82	-41.5	-42.5	22.7	0.00e+00	6	41	0	503316480	54	6785
2026-01-24 20:39:57.62	28.26	15.85	-41.4	-42.3	22.7	0.00e+00	0	41	0	505413632	54	6688
2026-01-24 20:39:58.63	28.04	15.87	-41.5	-42.5	22.5	0.00e+00	0	41	0	506462208	54	6790
2026-01-24 20:39:59.64	27.83	15.89	-41.6	-42.7	22.5	0.00e+00	92	41	0	508559360	54	6928
2026-01-24 20:40:00.64	27.62	15.91	-41.9	-42.9	22.4	0.00e+00	0	41	0	510656512	56	6349
2026-01-24 20:40:01.65	27.40	15.94	-41.7	-42.8	22.4	0.00e+00	92	41	0	512753664	56	6249
2026-01-24 20:40:02.66	27.18	15.96	-41.6	-42.6	22.6	0.00e+00	6	41	0	514850816	56	6157
2026-01-24 20:40:03.67	26.97	15.98	-41.8	-42.9	22.4	0.00e+00	0	41	0	516947968	56	6336
2026-01-24 20:40:04.68	26.75	16.00	-41.7	-42.7	22.5	0.00e+00	39	41	0	517996544	56	6194
2026-01-24 20:40:05.69	26.53	16.02	-41.6	-42.6	22.6	0.00e+00	0	41	0	520093696	56	6120
2026-01-24 20:40:06.70	26.32	16.04	-41.4	-42.4	22.7	0.00e+00	4	41	0	522190848	56	6023
2026-01-24 20:40:07.71	26.10	16.06	-41.2	-42.2	22.9	0.00e+00	37	41	0	524288000	56	5856
2026-01-24 20:40:08.72	25.88	16.08	-41.5	-42.5	22.7	0.00e+00	92	41	0	526385152	56	6047
2026-01-24 20:40:09.73	25.66	16.10	-41.6	-42.6	22.5	0.00e+00	39	41	0	527433728	56	6120
2026-01-24 20:40:10.74	25.44	16.12	-41.4	-42.3	22.8	0.00e+00	47	41	0	529530880	56	5960
2026-01-24 20:40:11.75	25.23	16.14	-41.3	-42.3	22.9	0.00e+00	43	41	0	531628032	56	5928
2026-01-24 20:40:12.76	25.01	16.15	-41.4	-42.3	22.8	0.00e+00	43	41	0	533725184	56	5964
2026-01-24 20:40:13.77	24.79	16.17	-41.3	-42.2	22.9	0.00e+00	0	41	0	535822336	56	5890
2026-01-24 20:40:14.77	24.57	16.19	-41.4	-42.4	22.8	0.00e+00	0	41	0	536870912	56	6000
2026-01-24 20:40:15.78	24.35	16.20	-41.7	-42.7	22.5	0.00e+00	90	41	0	538968064	56	6224
2026-01-24 20:40:16.79	24.13	16.22	-41.4	-42.4	22.8	0.00e+00	2	41	0	541065216	56	5992
2026-01-24 20:40:17.80	23.91	16.24	-41.6	-42.6	22.6	0.00e+00	92	41	0	543162368	56	6108
2026-01-24 20:40:18.81	23.69	16.25	-41.5	-42.5	22.8	0.00e+00	43	41	0	545259520	56	6050
2026-01-24 20:40:19.82	23.47	16.27	-41.3	-42.3	22.7	0.00e+00	0	41	0	546308096	56	5919
2026-01-24 20:40:20.83	23.25	16.28	-41.4	-42.4	22.7	0.00e+00	0	41	0	548405248	56	6007
2026-01-24 20:40:21.84	23.03	16.29	-41.5	-42.5	22.5	0.00e+00	0	41	0	550502400	56	6047
2026-01-24 20:40:22.85	22.81	16.31	-41.6	-42.7	22.6	0.00e+00	92	41	0	552599552	56	6179
2026-01-24 20:40:23.86	22.58	16.32	-41.6	-42.6	22.6	0.00e+00	2	41	0	554696704	56	6128
2026-01-24 20:40:24.87	22.36	16.33	-41.6	-42.6	22.5	0.00e+00	90	41	0	555745280	56	6161
2026-01-24 20:40:25.88	22.14	16.35	-41.6	-42.6	22.6	0.00e+00	39	41	0	557842432	56	6146
2026-01-24 20:40:26.89	21.92	16.36	-41.5	-42.5	22.6	0.00e+00	22	41	0	559939584	56	6088
2026-01-24 20:40:27.90	21.70	16.37	-41.6	-42.6	22.5	0.00e+00	37	41	0	562036736	56	6149
2026-01-24 20:40:28.91	21.47	16.38	-41.7	-42.7	22.5	0.00e+00	0	41	0	564133888	56	6214
2026-01-24 20:40:29.92	21.25	16.39	-41.9	-42.9	22.4	0.00e+00	26	41	0	565182464	56	6349
2026-01-24 20:40:30.93	21.03	16.40	-41.7	-42.8	22.5	0.00e+00	44	41	0	567279616	56	6259
2026-01-24 20:40:31.94	20.81	16.41	-41.7	-42.7	22.5	0.00e+00	92	41	0	569376768	56	6239
2026-01-24 20:40:32.95	20.58	16.42	-41.9	-42.9	22.3	0.00e+00	35	41	0	571473920	56	6354
2026-01-24 20:40:33.96	20.36	16.43	-42.1	-43.2	22.0	0.00e+00	47	41	0	573571072	56	6573
2026-01-24 20:40:34.97	20.14	16.44	-42.5	-43.6	21.9	0.00e+00	0	41	0	574619648	56	6876
2026-01-24 20:40:35.98	19.91	16.44	-42.4	-43.5	21.9	0.00e+00	43	41	0	576716800	56	6803
2026-01-24 20:40:36.99	19.69	16.45	-42.3	-43.4	21.8	0.00e+00	0	41	0	578813952	56	6768
2026-01-24 20:40:38.00	19.47	16.46	-42.7	-43.9	21.7	0.00e+00	43	41	0	580911104	58	6334
2026-01-24 20:40:39.01	19.24	16.46	-42.1	-43.2	22.3	0.00e+00	92	41	0	583008256	58	5857
2026-01-24 20:40:40.02	19.02	16.47	-42.0	-43.1	22.3	0.00e+00	2	41	0	585105408	58	5797
2026-01-24 20:40:41.03	18.79	16.48	-42.3	-43.3	21.8	0.00e+00	92	41	0	586153984	56	6688
2026-01-24 20:40:42.04	18.57	16.48	-41.9	-43.0	22.3	0.00e+00	0	41	0	588251136	58	5705
2026-01-24 20:40:43.04	18.35	16.49	-41.3	-42.3	22.8	0.00e+00	0	41	0	590348288	56	5935
2026-01-24 20:40:44.06	18.12	16.49	-41.4	-42.4	22.8	0.00e+00	0	41	0	592445440	56	5998
2026-01-24 20:40:45.06	17.90	16.49	-41.6	-42.6	22.6	0.00e+00	0	41	0	594542592	56	6159
2026-01-24 20:40:46.08	17.67	16.50	-41.7	-42.7	22.6	0.00e+00	92	41	0	595591168	56	6197
2026-01-24 20:40:47.09	17.45	16.50	-41.7	-42.7	22.5	0.00e+00	0	41	0	597688320	56	6192
2026-01-24 20:40:48.10	17.23	16.50	-41.7	-42.8	22.4	0.00e+00	90	41	0	599785472	56	6266
2026-01-24 20:40:49.11	17.00	16.51	-41.7	-42.7	22.5	0.00e+00	0	41	0	601882624	56	6204
2026-01-24 20:40:50.12	16.78	16.51	-41.7	-42.7	22.4	0.00e+00	0	41	0	603979776	56	6214
2026-01-24 20:40:51.13	16.55	16.51	-42.0	-43.0	22.3	0.00e+00	0	41	0	605028352	56	6436
2026-01-24 20:40:52.14	16.33	16.51	-41.9	-43.0	22.3	0.00e+00	39	41	0	607125504	56	6412
2026-01-24 20:40:53.15	16.10	16.51	-42.1	-43.1	22.0	0.00e+00	10	41	0	609222656	56	6529
2026-01-24 20:40:54.16	15.88	16.51	-41.7	-42.7	22.4	0.00e+00	40	41	0	611319808	56	6216
2026-01-24 20:40:55.17	15.65	16.51	-41.6	-42.6	22.7	0.00e+00	92	41	0	613416960	56	6157
2026-01-24 20:40:56.18	15.43	16.51	-41.4	-42.4	22.0	0.00e+00	0	41	0	614465536	56	5968
2026-01-24 20:40:57.19	15.21	16.51	-41.7	-42.7	22.6	0.00e+00	92	41	0	616562688	56	6210
2026-01-24 20:40:58.19	14.98	16.50	-41.3	-42.3	23.0	0.00e+00	0	41	0	618659840	56	5903
2026-01-24 20:40:59.20	14.76	16.50	-41.7	-42.8	22.3	0.00e+00	0	41	0	620756992	56	6252
2026-01-24 20:41:00.21	14.54	16.50	-41.5	-42.5	22.7	0.00e+00	43	41	0	622854144	56	6042
2026-01-24 20:41:01.22	14.31	16.50	-41.6	-42.6	22.6	0.00e+00	0	41	0	623902720	56	6143
2026-01-24 20:41:02.23	14.09	16.49	-41.8	-42.8	22.4	0.00e+00	92	41	0	625999872	56	6269
2026-01-24 20:41:03.24	13.86	16.49	-41.8	-42.8	22.4	0.00e+00	2	41	0	628097024	56	6296
2026-01-24 20:41:04.25	13.64	16.48	-41.8	-42.8	22.4	0.00e+00	92	41	0	630194176	56	6313
2026-01-24 20:41:05.26	13.41	16.48	-41.7	-42.7	22.5	0.00e+00	2	41	0	632291328	56	6241
2026-01-24 20:41:06.27	13.19	16.47	-41.7	-42.7	22.5	0.00e+00	0	41	0	633339904	56	6214
2026-01-24 20:41:07.28	12.97	16.47	-41.7	-42.7	22.6	0.00e+00	2	41	0	635437056	56	6188
2026-01-24 20:41:08.29	12.74	16.46	-41.6	-42.6	22.6	0.00e+00	0	41	0	637534208	56	6151
2026-01-24 20:41:09.30	12.52	16.45	-41.6	-42.7	22.6	0.00e+00	24	41	0	639631360	56	6187
2026-01-24 20:41:10.31	12.30	16.45	-41.6	-42.6	22.6	0.00e+00	37	41	0	641728512	56	6137
2026-01-24 20:41:11.32	12.07	16.44	-41.6	-42.7	22.5	0.00e+00	92	41	0	642777088	56	6174
2026-01-24 20:41:12.33	11.85	16.43	-41.5	-42.5	22.7	0.00e+00	45	41	0	644874240	56	6087
2026-01-24 20:41:13.33	11.63	16.42	-41.5	-42.5	22.7	0.00e+00	45	41	0	646971392	56	6049
2026-01-24 20:41:14.35	11.40	16.41	-41.4	-42.4	22.8	0.00e+00	0	41	0	649068544	56	5973
2026-01-24 20:41:15.36	11.18	16.40	-41.2	-42.2	23.0	0.00e+00	0	41	0	651165696	56	5868
2026-01-24 20:41:16.36	10.96	16.39	-41.2	-42.2	23.0	0.00e+00	89	41	0	653262848	56	5859
2026-01-24 20:41:17.38	10.74	16.38	-41.3	-42.3	23.0	0.00e+00	5	41	0	654311424	56	5903
2026-01-24 20:41:18.38	10.52	16.37	-41.5	-42.5	22.9	0.00e+00	92	41	0	656408576	56	6041
2026-01-24 20:41:19.39	10.29	16.36	-41.6	-42.6	22.5	0.00e+00	6	41	0	658505728	56	6106
2026-01-24 20:41:20.40	10.07	16.35	-41.6	-42.7	22.6	0.00e+00	92	41	0	660602880	56	6175
2026-01-24 20:41:21.41	9.85	16.34	-41.7	-42.8	22.6	0.00e+00	46	41	0	661651456	56	6260
2026-01-24 20:41:22.42	9.63	16.32	-42.0	-43.1	22.3	0.00e+00	6	41	0	663748608	56	6473
2026-01-24 20:41:23.43	9.41	16.31	-41.6	-42.6	22.8	0.00e+00	5	41	0	665845760	56	6166
2026-01-24 20:41:24.44	9.19	16.30	-42.2	-43.2	22.2	0.00e+00	5	41	0	667942912	56	6613
2026-01-24 20:41:25.44	8.97	16.28	-42.3	-43.4	22.2	0.00e+00	92	41	0	670040064	56	6751
2026-01-24 20:41:26.45	8.75	16.27	-41.5	-42.5	22.9	0.00e+00	8	41	0	671088640	56	6061
2026-01-24 20:41:27.46	8.52	16.26	-41.2	-42.1	23.0	0.00e+00	92	41	0	673185792	56	5826
2026-01-24 20:41:28.47	8.30	16.24	-41.6	-42.6	22.9	0.00e+00	0	41	0	675282944	56	6116
2026-01-24 20:41:29.48	8.08	16.22	-40.8	-41.8	23.4	0.00e+00	4	41	0	677380096	56	5588
2026-01-24 20:41:30.49	7.86	16.21	-40.7	-41.6	23.4	0.00e+00	0	41	0	679477248	54	6137
2026-01-24 20:41:31.50	7.64	16.19	-40.8	-41.8	23.3	0.00e+00	35	41	0	681574400	54	6257
2026-01-24 20:41:32.51	7.43	16.18	-40.9	-41.9	23.0	0.00e+00	83	41	0	682622976	54	6321
2026-01-24 20:41:33.52	7.21	16.16	-41.2	-42.1	23.1	0.00e+00	47	41	0	684720128	54	6531
2026-01-24 20:41:34.53	6.99	16.14	-40.9	-41.8	23.2	0.00e+00	92	41	0	686817280	54	6296
2026-01-24 20:41:35.53	6.77	16.12	-40.9	-41.9	23.4	0.00e+00	36	41	0	688914432	54	6318
2026-01-24 20:41:36.54	6.55	16.10	-40.6	-41.5	23.5	0.00e+00	48	41	0	691011584	54	6103
2026-01-24 20:41:37.55	6.33	16.09	-40.8	-41.7	23.5	0.00e+00	0	41	0	692060160	54	6202
2026-01-24 20:41:38.56	6.12	16.07	-40.7	-41.6	23.4	0.00e+00	38	41	0	694157312	54	6152
2026-01-24 20:41:39.57	5.90	16.05	-40.8	-41.7	23.3	0.00e+00	91	41	0	696254464	54	6244
2026-01-24 20:41:40.58	5.68	16.03	-41.0	-41.9	23.3	0.00e+00	6	41	0	698351616	54	6390
2026-01-24 20:41:41.59	5.46	16.01	-41.1	-42.0	23.2	0.00e+00	90	41	0	700448768	54	6464
2026-01-24 20:41:42.60	5.25	15.99	-41.1	-42.0	22.9	0.00e+00	50	41	0	701497344	54	6432
2026-01-24 20:41:43.61	5.03	15.96	-41.1	-42.0	23.1	0.00e+00	92	41	0	703594496	54	6460
2026-01-24 20:41:44.62	4.81	15.94	-41.3	-42.2	23.0	0.00e+00	0	41	0	705691648	54	6604
2026-01-24 20:41:45.63	4.60	15.92	-41.0	-42.0	23.0	0.00e+00	0	41	0	707788800	54	6406
2026-01-24 20:41:46.64	4.38	15.90	-41.1	-42.0	23.1	0.00e+00	0	41	0	709885952	54	6454
2026-01-24 20:41:47.65	4.17	15.88	-41.0	-42.0	23.1	0.00e+00	0	41	0	710934528	54	6441
2026-01-24 20:41:48.66	3.95	15.85	-41.2	-42.1	22.9	0.00e+00	92	41	0	713031680	54	6524
2026-01-24 20:41:49.67	3.74	15.83	-41.3	-42.3	22.7	0.00e+00	0	41	0	715128832	54	6636
2026-01-24 20:41:50.68	3.53	15.80	-41.1	-42.1	23.0	0.00e+00	92	41	0	717225984	54	6479
2026-01-24 20:41:51.68	3.31	15.78	-41.2	-42.1	22.9	0.00e+00	0	41	0	719323136	54	6532
2026-01-24 20:41:52.70	3.10	15.76	-41.1	-42.1	22.9	0.00e+00	0	41	0	720371712	54	6467
2026-01-24 20:41:53.70	2.89	15.73	-41.3	-42.2	22.9	0.00e+00	0	41	0	722468864	54	6613
2026-01-24 20:41:54.71	2.67	15.71	-41.0	-41.9	23.1	0.00e+00	32	41	0	724566016	54	6375
2026-01-24 20:41:55.72	2.46	15.68	-41.2	-42.1	23.0	0.00e+00	39	41	0	726663168	54	6523
2026-01-24 20:41:56.73	2.25	15.65	-41.1	-42.1	22.9	0.00e+00	51	41	0	728760320	54	6520
2026-01-24 20:41:57.74	2.04	15.63	-41.5	-42.5	22.7	0.00e+00	90	41	0	729808896	54	6797
2026-01-24 20:41:58.75	1.83	15.60	-41.5	-42.5	22.8	0.00e+00	37	41	0	731906048	54	6787
2026-01-24 20:41:59.76	1.62	15.57	-41.4	-42.4	22.7	0.00e+00	58	41	0	734003200	54	6769
2026-01-24 20:42:00.77	1.41	15.55	-41.7	-42.7	22.5	0.00e+00	0	41	0	736100352	54	6950
2026-01-24 20:42:01.78	1.20	15.52	-41.7	-42.7	22.5	0.00e+00	43	41	0	738197504	54	6999
2026-01-24 20:42:02.79	0.99	15.49	-41.7	-42.7	22.5	0.00e+00	0	41	0	739246080	54	6964
2026-01-24 20:42:03.80	0.78	15.46	-41.7	-42.7	22.5	0.00e+00	2	41	0	741343232	56	6233
2026-01-24 20:42:04.80	0.57	15.43	-41.8	-42.8	22.5	0.00e+00	92	41	0	743440384	56	6290
2026-01-24 20:42:05.81	0.36	15.40	-41.7	-42.7	22.7	0.00e+00	0	41	0	745537536	56	6184
2026-01-24 20:42:06.82	0.16	15.37	-41.4	-42.4	22.7	0.00e+00	90	41	0	747634688	56	5991
2026-01-24 20:42:07.83	359.95	15.34	-41.4	-42.4	22.8	0.00e+00	0	41	0	749731840	56	5981
2026-01-24 20:42:08.84	359.74	15.31	-41.5	-42.4	22.8	0.00e+00	0	41	0	750780416	56	6031
2026-01-24 20:42:09.85	359.53	15.28	-41.2	-42.2	23.0	0.00e+00	0	41	0	752877568	56	5872
2026-01-24 20:42:10.85	359.33	15.25	-41.4	-42.4	22.8	0.00e+00	0	41	0	754974720	56	6001
2026-01-24 20:42:11.86	359.12	15.22	-41.4	-42.4	22.8	0.00e+00	90	41	0	757071872	56	6016
2026-01-24 20:42:12.87	358.92	15.19	-41.3	-42.2	22.9	0.00e+00	0	41	0	759169024	56	5884
2026-01-24 20:42:13.88	358.71	15.15	-41.3	-42.3	22.9	0.00e+00	92	41	0	760217600	56	5947
2026-01-24 20:42:14.89	358.51	15.12	-41.3	-42.3	22.9	0.00e+00	38	41	0	762314752	56	5945
2026-01-24 20:42:15.90	358.31	15.09	-41.6	-42.6	22.7	0.00e+00	30	41	0	764411904	56	6148
2026-01-24 20:42:16.90	358.10	15.06	-41.7	-42.7	22.7	0.00e+00	37	41	0	766509056	56	6191
2026-01-24 20:42:17.91	357.90	15.02	-41.6	-42.6	22.9	0.00e+00	45	41	0	768606208	56	6111
2026-01-24 20:42:18.92	357.70	14.99	-41.8	-42.9	22.3	0.00e+00	92	41	0	769654784	56	6346
2026-01-24 20:42:19.93	357.50	14.96	-42.0	-43.0	22.2	0.00e+00	51	41	0	771751936	56	6413
2026-01-24 20:42:20.94	357.29	14.92	-42.1	-43.2	22.2	0.00e+00	92	41	0	773849088	56	6544
2026-01-24 20:42:21.96	357.09	14.89	-41.8	-42.9	22.4	0.00e+00	50	41	0	775946240	56	6326
2026-01-24 20:42:22.96	356.89	14.85	-41.4	-42.4	22.4	0.00e+00	92	41	0	778043392	56	5996
2026-01-24 20:42:23.97	356.69	14.82	-41.3	-42.2	22.7	0.00e+00	0	41	0	779091968	56	5896
2026-01-24 20:42:24.98	356.49	14.78	-41.5	-42.5	22.6	0.00e+00	51	41	0	781189120	56	6102
2026-01-24 20:42:25.99	356.29	14.75	-41.2	-42.2	23.0	0.00e+00	57	41	0	783286272	56	5849
2026-01-24 20:42:27.00	356.09	14.71	-41.2	-42.2	22.9	0.00e+00	0	41	0	785383424	56	5852
2026-01-24 20:42:28.01	355.90	14.67	-41.4	-42.4	22.7	0.00e+00	92	41	0	787480576	56	6008
2026-01-24 20:42:29.02	355.70	14.64	-41.3	-42.3	23.0	0.00e+00	0	41	0	788529152	56	5929
2026-01-24 20:42:30.03	355.50	14.60	-41.3	-42.3	22.8	0.00e+00	92	41	0	790626304	56	5916
2026-01-24 20:42:31.04	355.30	14.56	-41.3	-42.3	22.9	0.00e+00	0	41	0	792723456	56	5921
2026-01-24 20:42:32.05	355.11	14.52	-41.2	-42.2	22.9	0.00e+00	0	41	0	794820608	56	5865
2026-01-24 20:42:33.06	354.91	14.49	-41.3	-42.3	22.5	0.00e+00	0	41	0	796917760	56	5956
2026-01-24 20:42:34.06	354.72	14.45	-41.4	-42.4	22.8	0.00e+00	0	41	0	797966336	56	5994
2026-01-24 20:42:35.07	354.52	14.41	-41.1	-42.0	23.1	0.00e+00	91	41	0	800063488	56	5733
2026-01-24 20:42:36.08	354.33	14.37	-41.1	-42.1	23.0	0.00e+00	37	41	0	802160640	56	5792
2026-01-24 20:42:37.10	354.13	14.33	-41.2	-42.2	22.9	0.00e+00	91	41	0	804257792	56	5844
2026-01-24 20:42:38.11	353.94	14.29	-41.2	-42.2	22.8	0.00e+00	0	41	0	806354944	56	5858
2026-01-24 20:42:39.12	353.75	14.25	-41.4	-42.4	22.8	0.00e+00	45	41	0	807403520	56	5983
2026-01-24 20:42:40.12	353.56	14.21	-41.5	-42.5	22.7	0.00e+00	38	41	0	809500672	56	6055
2026-01-24 20:42:41.13	353.37	14.17	-41.5	-42.5	22.7	0.00e+00	45	41	0	811597824	56	6045
2026-01-24 20:42:42.14	353.17	14.13	-41.7	-42.8	22.4	0.00e+00	22	41	0	813694976	56	6255
2026-01-24 20:42:43.15	352.98	14.09	-41.6	-42.6	22.6	0.00e+00	2	41	0	815792128	56	6140
2026-01-24 20:42:44.16	352.79	14.05	-41.7	-42.7	22.5	0.00e+00	92	41	0	816840704	56	6211
2026-01-24 20:42:45.17	352.60	14.01	-41.3	-42.2	22.9	0.00e+00	46	41	0	818937856	56	5893
2026-01-24 20:42:46.18	352.42	13.97	-41.2	-42.1	23.0	0.00e+00	11	41	0	821035008	56	5822
2026-01-24 20:42:47.19	352.23	13.93	-41.4	-42.3	22.9	0.00e+00	2	41	0	823132160	56	5955
2026-01-24 20:42:48.20	352.04	13.89	-41.4	-42.4	22.6	0.00e+00	0	41	0	825229312	56	5982
2026-01-24 20:42:49.21	351.85	13.85	-41.3	-42.3	22.9	0.00e+00	0	41	0	826277888	56	5908
2026-01-24 20:42:50.22	351.66	13.80	-41.2	-42.2	22.8	0.00e+00	0	41	0	828375040	56	5861
2026-01-24 20:42:51.23	351.48	13.76	-41.6	-42.6	22.7	0.00e+00	92	41	0	830472192	56	6107
2026-01-24 20:42:52.24	351.29	13.72	-41.7	-42.7	22.5	0.00e+00	0	41	0	832569344	56	6229
2026-01-24 20:42:53.24	351.11	13.68	-41.7	-42.7	22.5	0.00e+00	90	41	0	834666496	56	6231
2026-01-24 20:42:54.25	350.92	13.63	-41.8	-42.9	22.4	0.00e+00	0	41	0	835715072	56	6331
2026-01-24 20:42:55.26	350.74	13.59	-41.9	-43.0	22.2	0.00e+00	0	41	0	837812224	56	6413
2026-01-24 20:42:56.27	350.56	13.55	-42.1	-43.1	22.1	0.00e+00	0	41	0	839909376	56	6533
2026-01-24 20:42:57.28	350.37	13.50	-42.0	-43.0	22.2	0.00e+00	0	41	0	842006528	56	6433
2026-01-24 20:42:58.29	350.19	13.46	-42.1	-43.1	22.1	0.00e+00	92	41	0	844103680	56	6539
2026-01-24 20:42:59.30	350.01	13.41	-42.2	-43.3	22.0	0.00e+00	0	41	0	846200832	56	6623
2026-01-24 20:43:00.31	349.83	13.37	-42.2	-43.3	21.9	0.00e+00	92	41	0	847249408	56	6670
2026-01-24 20:43:01.32	349.65	13.33	-42.2	-43.3	21.9	0.00e+00	36	41	0	849346560	56	6641
2026-01-24 20:43:02.33	349.47	13.28	-42.4	-43.5	21.8	0.00e+00	33	41	0	851443712	56	6816
2026-01-24 20:43:03.34	349.29	13.24	-42.5	-43.7	21.5	0.00e+00	36	41	0	853540864	56	6956
2026-01-24 20:43:04.35	349.11	13.19	-42.6	-43.8	21.4	0.00e+00	35	41	0	855638016	56	7062
2026-01-24 20:43:05.36	348.93	13.15	-42.4	-43.6	21.7	0.00e+00	16	41	0	856686592	56	6856
2026-01-24 20:43:06.37	348.75	13.10	-42.3	-43.5	21.7	0.00e+00	0	41	0	858783744	56	6792
2026-01-24 20:43:07.38	348.57	13.05	-42.5	-43.7	21.5	0.00e+00	92	41	0	860880896	56	6940
2026-01-24 20:43:08.39	348.40	13.01	-42.5	-43.7	21.5	0.00e+00	7	41	0	862978048	56	6973
2026-01-24 20:43:09.40	348.22	12.96	-42.6	-43.8	21.3	0.00e+00	91	41	0	865075200	56	7042
2026-01-24 20:43:10.40	348.05	12.92	-42.9	-44.1	21.0	0.00e+00	6	41	0	866123776	58	6513
2026-01-24 20:43:11.41	347.87	12.87	-43.4	-44.6	20.5	0.00e+00	5	41	0	868220928	58	6903
2026-01-24 20:43:12.42	347.70	12.82	-43.4	-44.7	20.8	0.00e+00	7	41	0	870318080	58	6931
2026-01-24 20:43:13.43	347.52	12.78	-43.3	-44.5	20.8	0.00e+00	5	41	0	872415232	58	6836
2026-01-24 20:43:14.44	347.35	12.73	-43.1	-44.4	21.0	0.00e+00	91	41	0	874512384	58	6742
2026-01-24 20:43:15.45	347.18	12.68	-43.3	-44.5	20.7	0.00e+00	5	41	0	875560960	58	6847
2026-01-24 20:43:16.46	347.00	12.63	-43.2	-44.5	20.8	0.00e+00	91	41	0	877658112	58	6820
2026-01-24 20:43:17.47	346.83	12.59	-43.5	-44.9	20.5	0.00e+00	36	41	0	879755264	58	7095
2026-01-24 20:43:18.48	346.66	12.54	-43.2	-44.5	20.8	0.00e+00	0	41	0	881852416	58	6804
2026-01-24 20:43:19.49	346.49	12.49	-43.2	-44.5	20.8	0.00e+00	20	41	0	883949568	58	6814
2026-01-24 20:43:20.49	346.32	12.44	-42.7	-44.0	21.2	0.00e+00	0	41	0	884998144	58	6416
2026-01-24 20:43:21.50	346.15	12.40	-43.1	-44.4	20.8	0.00e+00	28	41	0	887095296	58	6719
2026-01-24 20:43:22.51	345.98	12.35	-43.0	-44.3	20.9	0.00e+00	0	41	0	889192448	58	6636
2026-01-24 20:43:23.52	345.81	12.30	-43.1	-44.4	20.8	0.00e+00	92	41	0	891289600	58	6765
2026-01-24 20:43:24.53	345.65	12.25	-43.5	-44.9	20.4	0.00e+00	57	41	0	893386752	58	7116
2026-01-24 20:43:25.54	345.48	12.20	-43.4	-44.8	20.4	0.00e+00	58	41	0	894435328	58	7062
2026-01-24 20:43:26.55	345.31	12.15	-43.6	-45.1	20.2	0.00e+00	57	41	0	896532480	58	7278
2026-01-24 20:43:27.56	345.14	12.10	-43.6	-45.0	20.2	0.00e+00	29	41	0	898629632	58	7241
2026-01-24 20:43:28.57	344.98	12.06	-43.4	-44.9	20.3	0.00e+00	92	41	0	900726784	58	7109
2026-01-24 20:43:29.58	344.81	12.01	-43.5	-44.9	20.2	0.00e+00	0	41	0	902823936	58	7164
2026-01-24 20:43:30.59	344.65	11.96	-43.4	-44.9	20.3	0.00e+00	92	41	0	903872512	58	7120
2026-01-24 20:43:31.60	344.49	11.91	-43.8	-45.2	20.1	0.00e+00	7	41	0	905969664	60	6612
2026-01-24 20:43:32.60	344.32	11.86	-43.6	-45.1	20.4	0.00e+00	92	41	0	908066816	60	6509
2026-01-24 20:43:33.61	344.16	11.81	-43.7	-45.1	20.3	0.00e+00	6	41	0	910163968	60	6532
2026-01-24 20:43:34.62	344.00	11.76	-43.6	-45.0	20.3	0.00e+00	0	41	0	912261120	60	6442
2026-01-24 20:43:35.63	343.84	11.71	-44.2	-45.8	19.7	0.00e+00	6	41	0	914358272	60	7061
2026-01-24 20:43:36.64	343.67	11.66	-44.3	-45.9	19.6	0.00e+00	0	41	0	915406848	60	7098
2026-01-24 20:43:37.65	343.51	11.61	-44.2	-45.8	19.7	0.00e+00	91	41	0	917504000	60	7019
2026-01-24 20:43:38.66	343.35	11.56	-44.1	-45.6	19.8	0.00e+00	6	41	0	919601152	60	6887
2026-01-24 20:43:39.67	343.19	11.51	-44.1	-45.6	19.9	0.00e+00	90	41	0	921698304	60	6855
2026-01-24 20:43:40.68	343.04	11.46	-44.0	-45.5	19.9	0.00e+00	0	41	0	923795456	60	6794
2026-01-24 20:43:41.69	342.88	11.41	-44.0	-45.5	19.7	0.00e+00	0	41	0	924844032	60	6808
2026-01-24 20:43:42.70	342.72	11.36	-44.0	-45.5	19.8	0.00e+00	35	41	0	926941184	60	6838
2026-01-24 20:43:43.71	342.56	11.30	-43.8	-45.2	20.0	0.00e+00	34	41	0	929038336	60	6601
2026-01-24 20:43:44.72	342.41	11.25	-44.0	-45.5	19.8	0.00e+00	92	41	0	931135488	60	6839
2026-01-24 20:43:45.73	342.25	11.20	-43.9	-45.4	19.9	0.00e+00	47	42	0	933232640	60	6696
2026-01-24 20:43:46.74	342.09	11.15	-44.1	-45.5	19.8	0.00e+00	92	42	0	934281216	60	6842
2026-01-24 20:43:47.75	341.94	11.10	-44.0	-45.5	19.9	0.00e+00	36	41	0	936378368	60	6815
2026-01-24 20:43:48.75	341.79	11.05	-44.0	-45.5	19.8	0.00e+00	45	42	0	938475520	60	6817
2026-01-24 20:43:49.76	341.63	11.00	-44.1	-45.6	19.8	0.00e+00	31	42	0	940572672	60	6860
2026-01-24 20:43:50.77	341.48	10.95	-44.5	-46.1	19.3	0.00e+00	52	41	0	942669824	60	7297
2026-01-24 20:43:51.78	341.33	10.89	-43.9	-45.3	20.0	0.00e+00	31	41	0	943718400	60	6673
2026-01-24 20:43:52.79	341.17	10.84	-43.7	-45.1	20.1	0.00e+00	2	42	0	945815552	60	6525
2026-01-24 20:43:53.80	341.02	10.79	-44.0	-45.4	20.0	0.00e+00	91	41	0	947912704	60	6738
2026-01-24 20:43:54.81	340.87	10.74	-43.9	-45.4	20.0	0.00e+00	52	42	0	950009856	60	6705
2026-01-24 20:43:55.82	340.72	10.69	-43.7	-45.0	20.3	0.00e+00	91	41	0	952107008	60	6459
2026-01-24 20:43:56.83	340.57	10.63	-43.6	-45.0	20.3	0.00e+00	2	42	0	953155584	60	6413
2026-01-24 20:43:57.84	340.42	10.58	-43.8	-45.3	20.2	0.00e+00	0	41	0	955252736	60	6619
2026-01-24 20:43:58.85	340.27	10.53	-43.5	-44.8	20.6	0.00e+00	0	41	0	957349888	60	6297
2026-01-24 20:43:59.85	340.12	10.48	-43.5	-44.9	20.4	0.00e+00	0	41	0	959447040	60	6376
2026-01-24 20:44:00.86	339.98	10.43	-43.4	-44.8	20.5	0.00e+00	91	42	0	961544192	60	6276
2026-01-24 20:44:01.87	339.83	10.37	-43.2	-44.5	20.7	0.00e+00	33	42	0	962592768	60	6093
2026-01-24 20:44:02.88	339.68	10.32	-43.2	-44.5	20.7	0.00e+00	92	41	0	964689920	60	6072
2026-01-24 20:44:03.89	339.53	10.27	-43.4	-44.7	20.4	0.00e+00	35	41	0	966787072	60	6237
2026-01-24 20:44:04.90	339.39	10.21	-43.4	-44.7	20.5	0.00e+00	24	41	0	968884224	60	6229
2026-01-24 20:44:05.90	339.24	10.16	-43.4	-44.7	20.6	0.00e+00	34	41	0	970981376	60	6240
2026-01-24 20:44:06.91	339.10	10.11	-43.3	-44.6	20.8	0.00e+00	33	41	0	972029952	60	6115
2026-01-24 20:44:07.92	338.96	10.06	-43.1	-44.3	20.9	0.00e+00	35	41	0	974127104	60	5959
2026-01-24 20:44:08.93	338.81	10.00	-43.4	-44.7	20.8	0.00e+00	47	41	0	976224256	60	6199
2026-01-24 20:44:09.94	338.67	9.95	-43.3	-44.5	21.0	0.00e+00	92	41	0	978321408	60	6094
2026-01-24 20:44:10.95	338.53	9.90	-43.2	-44.5	21.0	0.00e+00	3	41	0	980418560	60	6067
2026-01-24 20:44:11.96	338.38	9.84	-43.1	-44.3	21.0	0.00e+00	92	41	0	981467136	60	5943
2026-01-24 20:44:12.97	338.24	9.79	-43.4	-44.7	20.8	0.00e+00	49	41	0	983564288	60	6204
2026-01-24 20:44:13.98	338.10	9.74	-43.1	-44.3	21.1	0.00e+00	47	41	0	985661440	60	5963
2026-01-24 20:44:14.98	337.96	9.68	-42.8	-44.0	21.3	0.00e+00	0	42	0	987758592	60	5708
2026-01-24 20:44:16.00	337.82	9.63	-42.8	-44.0	21.3	0.00e+00	48	42	0	989855744	60	5731
2026-01-24 20:44:17.01	337.68	9.58	-43.0	-44.2	21.2	0.00e+00	92	41	0	990904320	60	5861
2026-01-24 20:44:18.02	337.54	9.52	-42.8	-44.0	21.3	0.00e+00	0	41	0	993001472	60	5714
2026-01-24 20:44:19.03	337.40	9.47	-42.7	-43.9	21.4	0.00e+00	49	41	0	995098624	60	5658
2026-01-24 20:44:20.04	337.27	9.42	-42.5	-43.7	21.5	0.00e+00	0	41	0	997195776	58	6204
2026-01-24 20:44:21.05	337.13	9.36	-42.7	-43.9	21.4	0.00e+00	0	41	0	999292928	58	6350
2026-01-24 20:44:22.06	336.99	9.31	-42.4	-43.5	21.7	0.00e+00	0	41	0	1000341504	58	6095
2026-01-24 20:44:23.07	336.86	9.26	-42.4	-43.6	21.6	0.00e+00	0	41	0	1002438656	58	6106
2026-01-24 20:44:24.07	336.72	9.20	-42.9	-44.1	21.1	0.00e+00	92	41	0	1004535808	58	6517
2026-01-24 20:44:25.08	336.59	9.15	-42.3	-43.5	21.6	0.00e+00	0	41	0	1006632960	58	6038
2026-01-24 20:44:26.09	336.45	9.09	-42.1	-43.2	22.0	0.00e+00	90	42	0	1008730112	58	5843
2026-01-24 20:44:27.10	336.32	9.04	-41.9	-42.9	22.1	0.00e+00	0	41	0	1010827264	58	5692
2026-01-24 20:44:28.11	336.18	8.99	-42.2	-43.4	21.7	0.00e+00	34	42	0	1011875840	58	5975
2026-01-24 20:44:29.12	336.05	8.93	-42.2	-43.3	21.7	0.00e+00	29	42	0	1013972992	58	5903
2026-01-24 20:44:30.13	335.92	8.88	-42.1	-43.2	21.9	0.00e+00	47	42	0	1016070144	58	5856
2026-01-24 20:44:31.14	335.78	8.83	-42.1	-43.3	21.6	0.00e+00	35	42	0	1018167296	58	5899
2026-01-24 20:44:32.15	335.65	8.77	-41.8	-42.9	22.2	0.00e+00	35	41	0	1020264448	58	5654
2026-01-24 20:44:33.16	335.52	8.72	-42.0	-43.1	22.0	0.00e+00	92	41	0	1021313024	56	6516
2026-01-24 20:44:34.17	335.39	8.66	-42.1	-43.2	21.9	0.00e+00	0	41	0	1023410176	56	6563
2026-01-24 20:44:35.18	335.26	8.61	-42.2	-43.3	21.7	0.00e+00	0	42	0	1025507328	56	6639
2026-01-24 20:44:36.18	335.13	8.56	-42.0	-43.1	21.9	0.00e+00	53	41	0	1027604480	56	6466
2026-01-24 20:44:37.19	335.00	8.50	-41.9	-43.0	22.0	0.00e+00	52	42	0	1029701632	56	6405
2026-01-24 20:44:38.20	334.87	8.45	-41.8	-42.8	22.1	0.00e+00	0	41	0	1030750208	56	6304
2026-01-24 20:44:39.21	334.75	8.39	-41.8	-42.8	22.0	0.00e+00	2	41	0	1032847360	56	6303
2026-01-24 20:44:40.22	334.62	8.34	-42.2	-43.3	21.8	0.00e+00	92	41	0	1034944512	56	6651
2026-01-24 20:44:41.23	334.49	8.28	-42.3	-43.5	21.0	0.00e+00	0	42	0	1037041664	56	6777
2026-01-24 20:44:42.24	334.36	8.23	-42.4	-43.5	21.6	0.00e+00	57	41	0	1039138816	56	6825
2026-01-24 20:44:43.25	334.24	8.18	-42.4	-43.5	21.5	0.00e+00	0	42	0	1040187392	56	6799
2026-01-24 20:44:44.26	334.11	8.12	-42.3	-43.4	21.9	0.00e+00	0	42	0	1042284544	56	6750
2026-01-24 20:44:45.27	333.99	8.07	-42.7	-43.9	21.4	0.00e+00	0	41	0	1044381696	56	7146
2026-01-24 20:44:46.28	333.86	8.01	-42.2	-43.3	21.9	0.00e+00	0	41	0	1046478848	56	6667
2026-01-24 20:44:47.29	333.74	7.96	-42.4	-43.5	21.6	0.00e+00	92	41	0	1048576000	56	6795
2026-01-24 20:44:48.30	333.61	7.90	-42.3	-43.4	21.8	0.00e+00	32	42	0	1049624576	56	6742
2026-01-24 20:44:49.31	333.49	7.85	-42.5	-43.6	21.6	0.00e+00	92	42	0	1051721728	56	6901
2026-01-24 20:44:50.31	333.37	7.80	-42.2	-43.3	22.1	0.00e+00	0	42	0	1053818880	56	6640
2026-01-24 20:44:51.32	333.24	7.74	-42.6	-43.8	21.5	0.00e+00	0	42	0	1055916032	58	6265
2026-01-24 20:44:52.33	333.12	7.69	-42.7	-43.8	21.4	0.00e+00	59	42	0	1058013184	58	6304
2026-01-24 20:44:53.34	333.00	7.63	-42.1	-43.2	22.2	0.00e+00	54	42	0	1059061760	58	5830
2026-01-24 20:44:54.35	332.88	7.58	-42.0	-43.1	21.8	0.00e+00	17	42	0	1061158912	56	6496
2026-01-24 20:44:55.36	332.76	7.52	-44.5	-46.0	19.5	0.00e+00	32	42	0	1063256064	60	7226
2026-01-24 20:44:56.36	332.64	7.47	-42.5	-43.7	21.5	0.00e+00	92	42	0	1065353216	58	6191
2026-01-24 20:44:57.37	332.52	7.42	-42.5	-43.6	21.3	0.00e+00	8	42	0	1067450368	58	6155
2026-01-24 20:44:58.38	332.40	7.36	-43.5	-44.8	20.5	0.00e+00	7	42	0	1068498944	58	7064
2026-01-24 20:44:59.39	332.28	7.31	-43.3	-44.6	20.6	0.00e+00	5	42	0	1070596096	58	6924
2026-01-24 20:45:00.40	332.16	7.25	-43.9	-45.2	20.0	0.00e+00	5	42	0	1072693248	60	6600
2026-01-24 20:45:01.41	332.05	7.20	-43.6	-44.9	20.7	0.00e+00	0	42	0	1074790400	60	6332
2026-01-24 20:45:02.42	331.93	7.14	-44.0	-45.4	20.0	0.00e+00	0	42	0	1076887552	60	6702
2026-01-24 20:45:03.43	331.81	7.09	-43.6	-45.0	20.1	0.00e+00	90	42	0	1078984704	60	6432
2026-01-24 20:45:04.43	331.70	7.04	-43.6	-44.9	20.3	0.00e+00	0	42	0	1080033280	60	6380
2026-01-24 20:45:05.44	331.58	6.98	-43.8	-45.1	20.2	0.00e+00	90	42	0	1082130432	60	6505
2026-01-24 20:45:06.45	331.46	6.93	-43.9	-45.3	20.1	0.00e+00	0	42	0	1084227584	60	6664
2026-01-24 20:45:07.46	331.35	6.87	-43.3	-44.5	20.8	0.00e+00	6	42	0	1086324736	60	6087
2026-01-24 20:45:08.47	331.23	6.82	-43.9	-45.4	19.9	0.00e+00	10	42	0	1088421888	60	6696
2026-01-24 20:45:09.48	331.12	6.76	-43.7	-45.0	20.4	0.00e+00	26	42	0	1089470464	60	6427
2026-01-24 20:45:10.49	331.00	6.71	-43.2	-44.5	20.8	0.00e+00	92	41	0	1091567616	60	6069
2026-01-24 20:45:11.50	330.89	6.65	-43.2	-44.4	20.6	0.00e+00	0	42	0	1093664768	60	6007
2026-01-24 20:45:12.51	330.78	6.60	-43.6	-45.0	20.3	0.00e+00	91	42	0	1095761920	60	6402
2026-01-24 20:45:13.52	330.67	6.55	-43.4	-44.6	20.9	0.00e+00	6	42	0	1097859072	60	6167
2026-01-24 20:45:14.52	330.55	6.49	-43.0	-44.2	20.9	0.00e+00	55	42	0	1098907648	60	5882
2026-01-24 20:45:15.53	330.44	6.44	-43.5	-44.8	20.4	0.00e+00	63	42	0	1101004800	60	6294
2026-01-24 20:45:16.54	330.33	6.38	-43.8	-45.1	20.3	0.00e+00	61	42	0	1103101952	60	6504
2026-01-24 20:45:17.55	330.22	6.33	-43.0	-44.2	21.0	0.00e+00	0	42	0	1105199104	60	5889
2026-01-24 20:45:18.56	330.11	6.27	-43.4	-44.6	20.8	0.00e+00	56	42	0	1107296256	60	6159
2026-01-24 20:45:19.56	330.00	6.22	-43.4	-44.7	20.4	0.00e+00	92	42	0	1108344832	60	6218
2026-01-24 20:45:20.57	329.89	6.17	-43.4	-44.7	20.6	0.00e+00	54	42	0	1110441984	60	6206
2026-01-24 20:45:21.58	329.78	6.11	-43.8	-45.2	20.2	0.00e+00	84	42	0	1112539136	60	6547
2026-01-24 20:45:22.59	329.67	6.06	-43.1	-44.3	20.9	0.00e+00	6	42	0	1114636288	60	5931
2026-01-24 20:45:23.60	329.56	6.00	-43.5	-44.8	20.5	0.00e+00	63	42	0	1116733440	60	6285
2026-01-24 20:45:24.61	329.46	5.95	-43.2	-44.4	20.5	0.00e+00	0	42	0	1117782016	58	6765
2026-01-24 20:45:25.62	329.35	5.89	-43.4	-44.7	20.2	0.00e+00	0	42	0	1119879168	60	6243
2026-01-24 20:45:26.63	329.24	5.84	-44.4	-45.9	19.3	0.00e+00	92	42	0	1121976320	60	7166
2026-01-24 20:45:27.64	329.14	5.79	-44.2	-45.6	19.6	0.00e+00	0	42	0	1124073472	60	6917
2026-01-24 20:45:28.64	329.03	5.73	-43.7	-45.1	20.1	0.00e+00	90	42	0	1126170624	60	6498
2026-01-24 20:45:29.65	328.92	5.68	-43.4	-44.8	20.3	0.00e+00	8	42	0	1127219200	60	6258
2026-01-24 20:45:30.66	328.82	5.62	-44.2	-45.7	19.5	0.00e+00	0	42	0	1129316352	60	6947
2026-01-24 20:45:31.67	328.71	5.57	-43.7	-45.1	20.1	0.00e+00	22	42	0	1131413504	60	6465
2026-01-24 20:45:32.68	328.61	5.52	-44.4	-45.9	19.0	0.00e+00	26	42	0	1133510656	60	7163
2026-01-24 20:45:33.69	328.50	5.46	-44.8	-46.4	19.0	0.00e+00	0	42	0	1135607808	60	7541
2026-01-24 20:45:34.70	328.40	5.41	-44.4	-45.9	19.3	0.00e+00	0	42	0	1136656384	60	7141
2026-01-24 20:45:35.71	328.30	5.35	-44.8	-46.4	18.4	0.00e+00	92	42	0	1138753536	60	7583
2026-01-24 20:45:36.72	328.19	5.30	-44.8	-46.4	18.7	0.00e+00	49	42	0	1140850688	60	7552
2026-01-24 20:45:37.73	328.09	5.25	-44.5	-46.1	19.2	0.00e+00	50	42	0	1142947840	60	7286
2026-01-24 20:45:38.74	327.99	5.19	-43.6	-44.9	20.2	0.00e+00	32	42	0	1145044992	60	6384
2026-01-24 20:45:39.75	327.89	5.14	-44.3	-45.8	19.8	0.00e+00	25	42	0	1146093568	60	7082
2026-01-24 20:45:40.76	327.78	5.08	-44.7	-46.4	18.6	0.00e+00	25	42	0	1148190720	60	7515
2026-01-24 20:45:41.77	327.68	5.03	-43.9	-45.3	19.4	0.00e+00	0	42	0	1150287872	60	6687
2026-01-24 20:45:42.77	327.58	4.98	-44.8	-46.6	18.4	0.00e+00	92	42	0	1152385024	60	7684
2026-01-24 20:45:43.78	327.48	4.92	-44.0	-45.4	19.5	0.00e+00	0	42	0	1154482176	60	6761
2026-01-24 20:45:44.79	327.38	4.87	-44.6	-46.2	18.7	0.00e+00	92	42	0	1155530752	60	7421
2026-01-24 20:45:45.80	327.28	4.82	-45.0	-46.8	18.4	0.00e+00	50	42	0	1157627904	60	7885
2026-01-24 20:45:46.81	327.18	4.76	-45.0	-46.8	18.0	0.00e+00	50	42	0	1159725056	60	7896
2026-01-24 20:45:47.82	327.09	4.71	-42.8	-44.1	20.8	0.00e+00	0	42	0	1161822208	60	5795
2026-01-24 20:45:48.83	326.99	4.65	-45.4	-47.3	17.3	0.00e+00	0	42	0	1163919360	60	8377
2026-01-24 20:45:49.84	326.89	4.60	-45.8	-47.9	16.8	0.00e+00	91	42	0	1164967936	60	9024
2026-01-24 20:45:50.85	326.79	4.55	-46.4	-48.8	16.0	0.00e+00	2	42	0	1167065088	60	9916
2026-01-24 20:45:51.86	326.69	4.49	-46.1	-48.3	16.6	0.00e+00	91	42	0	1169162240	60	9428
2026-01-24 20:45:52.87	326.60	4.44	-44.8	-46.5	18.6	0.00e+00	32	42	0	1171259392	60	7664
2026-01-24 20:45:53.88	326.50	4.39	-46.0	-48.2	16.4	0.00e+00	30	42	0	1173356544	60	9257
2026-01-24 20:45:54.89	326.40	4.33	-45.3	-47.2	18.0	0.00e+00	0	42	0	1175453696	60	8284
2026-01-24 20:45:55.90	326.31	4.28	-45.8	-47.9	17.0	0.00e+00	0	42	0	1176502272	60	8930
2026-01-24 20:45:56.91	326.21	4.23	-45.7	-47.8	16.9	0.00e+00	0	42	0	1178599424	60	8861
2026-01-24 20:45:57.92	326.12	4.17	-46.2	-48.4	16.6	0.00e+00	55	42	0	1180696576	60	9554
2026-01-24 20:45:58.93	326.02	4.12	-44.6	-46.3	18.6	0.00e+00	92	42	0	1182793728	60	7486
2026-01-24 20:45:59.94	325.93	4.07	-45.2	-47.2	17.7	0.00e+00	29	42	0	1184890880	60	8267
2026-01-24 20:46:00.95	325.83	4.01	-46.3	-48.6	16.4	0.00e+00	78	42	0	1185939456	60	9721
2026-01-24 20:46:01.96	325.74	3.96	-46.3	-48.6	16.4	0.00e+00	53	42	0	1188036608	60	9689
2026-01-24 20:46:02.97	325.65	3.91	-45.4	-47.3	17.5	0.00e+00	0	42	0	1190133760	60	8399
2026-01-24 20:46:03.98	325.55	3.85	-44.8	-46.6	17.8	0.00e+00	76	42	0	1192230912	60	7701
2026-01-24 20:46:04.99	325.46	3.80	-45.7	-47.8	17.3	0.00e+00	57	42	0	1194328064	60	8822
2026-01-24 20:46:05.99	325.37	3.75	-43.6	-45.0	19.5	0.00e+00	92	42	0	1195376640	60	6457
