passes_logs/2026/01/24/R4.6S_Anadyr/R4.6S_Anadyr__20260124_165619_SUOMI_NPP_rec.log

#Pass ID: 20260124_165619_SUOMI NPP
#Satellite: SUOMI NPP
#Configuration: NPP
#almurnet v.1.7.20251203
#Start time: 2026-01-24 16:56:20

#Version: 2.2.20231116
#Station: R4.6S_Anadyr
#Location: 177.4865 lon 64.73178 lat
#TLE: 1 37849U 11061A   26024.12615439  .00000221  00000+0  12601-3 0  9992
#TLE: 2 37849  98.7821 326.0966 0002215  48.1259 312.0106 14.19529288738009

#Time	Az	El	Level	Level2	SNR	BER	BlckErr	Temp	State	Recorded	gain1	gain2
2026-01-24 16:56:20.36	28.30	0.06	-52.6	-70.3	3.5	3.02e+01	0	39	0	0	60	125377
2026-01-24 16:56:21.36	28.25	0.11	-53.2	-68.5	3.6	1.51e+00	0	40	104	0	60	95729
2026-01-24 16:56:22.37	28.20	0.17	-53.3	-68.6	3.6	1.51e+00	0	40	104	0	60	97043
2026-01-24 16:56:23.38	28.15	0.22	-52.8	-68.1	3.6	1.51e+00	0	40	104	0	60	91894
2026-01-24 16:56:24.39	28.10	0.28	-52.4	-67.6	3.6	1.51e+00	0	40	104	0	60	86438
2026-01-24 16:56:25.40	28.05	0.34	-52.2	-67.4	3.6	1.51e+00	0	40	104	0	60	84491
2026-01-24 16:56:26.41	28.00	0.39	-52.0	-67.3	3.6	1.51e+00	0	40	104	0	60	83739
2026-01-24 16:56:27.42	27.95	0.45	-52.0	-67.3	3.6	1.51e+00	0	40	104	0	60	83333
2026-01-24 16:56:28.43	27.90	0.51	-51.9	-67.1	3.6	1.51e+00	0	40	104	0	60	82146
2026-01-24 16:56:29.44	27.85	0.56	-52.0	-67.2	3.6	1.51e+00	0	40	104	0	60	82838
2026-01-24 16:56:30.45	27.80	0.62	-51.9	-67.2	3.6	1.51e+00	0	40	104	0	60	82561
2026-01-24 16:56:31.46	27.75	0.68	-51.8	-67.0	3.6	1.51e+00	0	40	104	0	60	81302
2026-01-24 16:56:32.47	27.70	0.73	-51.9	-67.1	3.6	1.51e+00	0	40	104	0	60	82186
2026-01-24 16:56:33.48	27.65	0.79	-52.0	-67.2	3.6	1.51e+00	0	40	104	0	60	82865
2026-01-24 16:56:34.49	27.60	0.85	-51.9	-67.2	3.6	1.51e+00	0	40	104	0	60	82399
2026-01-24 16:56:35.50	27.55	0.90	-51.6	-66.8	3.6	1.51e+00	0	40	104	0	60	79268
2026-01-24 16:56:36.51	27.49	0.96	-51.5	-66.7	3.6	1.51e+00	0	40	104	0	60	78118
2026-01-24 16:56:37.52	27.44	1.02	-51.4	-66.7	3.6	1.51e+00	0	40	104	0	60	77960
2026-01-24 16:56:38.54	27.39	1.08	-51.3	-66.6	3.6	1.51e+00	0	40	104	0	60	77588
2026-01-24 16:56:39.55	27.34	1.13	-51.5	-66.8	3.6	1.51e+00	0	40	104	0	60	78862
2026-01-24 16:56:40.56	27.28	1.19	-51.5	-66.7	3.6	1.51e+00	0	40	104	0	60	78570
2026-01-24 16:56:41.57	27.23	1.25	-51.3	-66.5	3.6	1.51e+00	0	40	104	0	60	76380
2026-01-24 16:56:42.58	27.18	1.31	-50.9	-66.2	3.6	1.51e+00	0	40	104	0	60	73589
2026-01-24 16:56:43.59	27.13	1.37	-50.7	-65.8	3.6	1.51e+00	0	40	104	0	60	70871
2026-01-24 16:56:44.60	27.07	1.42	-50.4	-65.5	3.6	1.51e+00	0	40	104	0	60	67807
2026-01-24 16:56:45.61	27.02	1.48	-50.3	-65.3	3.6	1.51e+00	0	40	104	0	60	66912
2026-01-24 16:56:46.62	26.96	1.54	-50.3	-65.4	3.6	1.51e+00	0	40	104	0	60	67633
2026-01-24 16:56:47.63	26.91	1.60	-50.2	-65.4	3.6	1.51e+00	0	40	104	0	60	67205
2026-01-24 16:56:48.64	26.86	1.66	-50.2	-65.3	3.6	1.51e+00	0	40	104	0	60	66822
2026-01-24 16:56:49.65	26.80	1.71	-50.2	-65.4	3.6	1.51e+00	0	40	104	0	60	67548
2026-01-24 16:56:50.66	26.75	1.77	-50.2	-65.4	3.6	1.51e+00	0	40	104	0	60	67053
2026-01-24 16:56:51.67	26.69	1.83	-50.2	-65.4	3.6	1.51e+00	0	40	104	0	60	67109
2026-01-24 16:56:52.68	26.64	1.89	-50.1	-65.4	3.6	1.51e+00	0	40	104	0	60	66995
2026-01-24 16:56:53.69	26.58	1.95	-50.1	-65.2	3.6	1.51e+00	0	40	104	0	60	65974
2026-01-24 16:56:54.70	26.52	2.01	-50.1	-64.9	3.6	1.51e+00	0	41	104	0	60	63563
2026-01-24 16:56:55.71	26.47	2.07	-50.2	-65.2	3.6	1.51e+00	0	40	104	0	60	65525
2026-01-24 16:56:56.72	26.41	2.13	-50.1	-65.0	3.6	1.51e+00	0	40	104	0	60	64644
2026-01-24 16:56:57.73	26.35	2.19	-50.2	-64.8	3.6	1.51e+00	0	40	104	0	60	63119
2026-01-24 16:56:58.74	26.30	2.24	-50.1	-65.1	3.6	1.51e+00	0	41	104	0	60	65029
2026-01-24 16:56:59.75	26.24	2.30	-50.2	-65.3	3.6	1.51e+00	0	41	104	0	60	66645
2026-01-24 16:57:00.76	26.18	2.36	-50.2	-65.4	3.6	1.51e+00	0	41	104	0	60	66927
2026-01-24 16:57:01.77	26.13	2.42	-50.3	-65.5	3.6	1.51e+00	0	41	104	0	60	68062
2026-01-24 16:57:02.78	26.07	2.48	-50.2	-65.4	3.6	1.51e+00	0	41	104	0	60	67549
2026-01-24 16:57:03.79	26.01	2.54	-50.2	-65.3	3.6	1.51e+00	0	41	104	0	60	66709
2026-01-24 16:57:04.80	25.95	2.60	-50.2	-65.3	3.6	1.51e+00	0	40	104	0	60	66511
2026-01-24 16:57:05.81	25.89	2.66	-50.2	-65.4	3.6	1.51e+00	0	41	104	0	60	67090
2026-01-24 16:57:06.82	25.83	2.72	-50.3	-65.1	3.6	1.51e+00	0	41	104	0	60	65195
2026-01-24 16:57:07.83	25.78	2.78	-50.4	-65.2	3.6	1.51e+00	0	41	104	0	60	65802
2026-01-24 16:57:08.84	25.72	2.84	-50.3	-64.8	3.6	1.51e+00	0	41	104	0	60	62895
2026-01-24 16:57:09.85	25.66	2.90	-50.3	-65.1	3.6	1.51e+00	0	41	104	0	60	65392
2026-01-24 16:57:10.86	25.60	2.96	-50.2	-64.9	3.6	1.51e+00	0	41	104	0	60	63546
2026-01-24 16:57:11.87	25.54	3.02	-50.2	-64.7	3.6	1.51e+00	0	41	104	0	60	62206
2026-01-24 16:57:12.88	25.48	3.08	-50.1	-63.4	3.6	1.51e+00	0	41	104	0	60	53202
2026-01-24 16:57:13.89	25.42	3.15	-49.7	-59.5	5.3	1.48e+00	6	41	104	0	60	33963
2026-01-24 16:57:14.91	25.35	3.21	-49.2	-55.8	7.8	1.25e-01	0	41	0	1048576	60	22189
2026-01-24 16:57:15.92	25.29	3.27	-49.2	-55.7	9.0	1.01e-01	92	41	0	2097152	60	22124
2026-01-24 16:57:16.93	25.23	3.33	-49.1	-54.9	9.7	5.40e-04	0	41	0	4194304	60	20186
2026-01-24 16:57:17.94	25.17	3.39	-48.7	-53.5	10.3	8.48e-03	0	41	0	6291456	60	17161
2026-01-24 16:57:18.95	25.11	3.45	-50.2	-64.5	3.6	1.53e+00	0	41	104	7340032	60	60361
2026-01-24 16:57:19.96	25.05	3.51	-50.2	-64.4	3.6	1.51e+00	0	41	104	7340032	60	59797
2026-01-24 16:57:20.96	24.98	3.57	-49.0	-55.4	8.2	1.02e+00	67	41	104	7340032	60	21190
2026-01-24 16:57:21.97	24.92	3.64	-46.5	-49.2	15.3	1.49e-02	0	41	0	8388608	60	10401
2026-01-24 16:57:22.98	24.86	3.70	-50.1	-64.9	3.6	6.75e-01	0	41	104	9437184	60	63321
2026-01-24 16:57:23.99	24.79	3.76	-49.0	-54.9	9.2	1.50e+00	0	41	104	9437184	60	20119
2026-01-24 16:57:25.00	24.73	3.82	-47.6	-51.3	13.1	4.91e-03	0	41	0	9437184	60	13241
2026-01-24 16:57:26.01	24.67	3.88	-48.4	-53.1	11.3	1.58e-03	0	41	0	11534336	60	16298
2026-01-24 16:57:27.02	24.60	3.94	-46.8	-49.8	14.5	1.50e-06	0	41	0	13631488	60	11129
2026-01-24 16:57:28.03	24.54	4.01	-47.2	-50.3	13.9	1.50e-06	67	41	0	15728640	60	11895
2026-01-24 16:57:29.04	24.47	4.07	-46.5	-49.2	15.5	1.50e-06	0	41	0	16777216	60	10392
2026-01-24 16:57:30.05	24.41	4.13	-47.3	-50.5	14.3	0.00e+00	70	41	0	18874368	60	12162
2026-01-24 16:57:31.06	24.34	4.19	-46.6	-49.2	14.6	0.00e+00	0	41	0	20971520	60	10449
2026-01-24 16:57:32.07	24.28	4.26	-46.7	-49.5	15.1	0.00e+00	0	41	0	23068672	60	10732
2026-01-24 16:57:33.08	24.21	4.32	-46.1	-48.5	16.1	0.00e+00	0	41	0	25165824	60	9618
2026-01-24 16:57:34.09	24.14	4.38	-44.8	-46.6	17.8	0.00e+00	0	41	0	26214400	60	7767
2026-01-24 16:57:35.10	24.08	4.45	-45.6	-47.7	16.9	0.00e+00	42	41	0	28311552	60	8765
2026-01-24 16:57:36.11	24.01	4.51	-45.5	-47.7	17.0	0.00e+00	0	41	0	30408704	60	8777
2026-01-24 16:57:37.12	23.94	4.57	-46.0	-48.4	16.0	0.00e+00	46	41	0	32505856	60	9507
2026-01-24 16:57:38.12	23.88	4.63	-45.4	-47.5	17.4	0.00e+00	0	41	0	34603008	60	8591
2026-01-24 16:57:39.13	23.81	4.70	-44.5	-46.2	18.5	0.00e+00	9	41	0	35651584	60	7368
2026-01-24 16:57:40.14	23.74	4.76	-44.7	-46.5	18.6	0.00e+00	0	41	0	37748736	60	7648
2026-01-24 16:57:41.15	23.67	4.82	-44.5	-46.2	18.6	0.00e+00	0	41	0	39845888	60	7402
2026-01-24 16:57:42.16	23.60	4.89	-43.6	-45.1	19.4	0.00e+00	0	41	0	41943040	60	6469
2026-01-24 16:57:43.17	23.53	4.95	-45.7	-47.8	16.4	0.00e+00	0	41	0	44040192	60	8895
2026-01-24 16:57:44.18	23.46	5.02	-45.6	-47.7	17.1	0.00e+00	92	41	0	45088768	60	8745
2026-01-24 16:57:45.19	23.40	5.08	-45.0	-46.9	18.3	0.00e+00	33	41	0	47185920	60	8001
2026-01-24 16:57:46.20	23.33	5.14	-44.5	-46.2	18.6	0.00e+00	92	41	0	49283072	60	7419
2026-01-24 16:57:47.21	23.25	5.21	-45.0	-46.9	17.0	0.00e+00	0	41	0	51380224	60	7994
2026-01-24 16:57:48.22	23.18	5.27	-44.5	-46.2	18.4	0.00e+00	33	41	0	53477376	60	7376
2026-01-24 16:57:49.23	23.11	5.34	-44.9	-46.8	17.8	0.00e+00	0	41	0	54525952	60	7924
2026-01-24 16:57:50.24	23.04	5.40	-43.5	-44.9	19.7	0.00e+00	0	41	0	56623104	60	6373
2026-01-24 16:57:51.25	22.97	5.47	-44.2	-45.8	18.8	0.00e+00	59	41	0	58720256	60	7082
2026-01-24 16:57:52.26	22.90	5.53	-44.3	-46.0	18.7	0.00e+00	0	41	0	60817408	60	7200
2026-01-24 16:57:53.27	22.83	5.60	-43.7	-45.2	19.3	0.00e+00	92	41	0	62914560	60	6608
2026-01-24 16:57:54.28	22.75	5.66	-44.6	-46.4	18.0	0.00e+00	0	41	0	63963136	60	7536
2026-01-24 16:57:55.29	22.68	5.73	-44.0	-45.6	19.0	0.00e+00	0	41	0	66060288	60	6882
2026-01-24 16:57:56.31	22.61	5.79	-44.1	-45.7	18.9	0.00e+00	0	41	0	68157440	60	6946
2026-01-24 16:57:57.32	22.53	5.86	-44.5	-46.2	18.5	0.00e+00	0	41	0	70254592	60	7384
2026-01-24 16:57:58.33	22.46	5.92	-44.4	-46.1	18.5	0.00e+00	67	41	0	72351744	60	7311
2026-01-24 16:57:59.34	22.38	5.99	-44.4	-46.1	18.5	0.00e+00	0	41	0	74448896	60	7316
2026-01-24 16:58:00.35	22.31	6.06	-44.2	-45.9	19.2	0.00e+00	92	41	0	75497472	60	7089
2026-01-24 16:58:01.36	22.23	6.12	-43.8	-45.3	19.4	0.00e+00	0	41	0	77594624	60	6654
2026-01-24 16:58:02.37	22.16	6.19	-44.3	-46.0	18.7	0.00e+00	0	41	0	79691776	60	7188
2026-01-24 16:58:03.38	22.08	6.25	-44.4	-46.0	18.8	0.00e+00	0	41	0	81788928	60	7200
2026-01-24 16:58:04.39	22.01	6.32	-43.9	-45.5	19.3	0.00e+00	0	41	0	83886080	60	6782
2026-01-24 16:58:05.40	21.93	6.39	-44.8	-46.5	18.4	0.00e+00	68	41	0	84934656	60	7680
2026-01-24 16:58:06.41	21.85	6.45	-43.9	-45.4	19.3	0.00e+00	0	41	0	87031808	60	6741
2026-01-24 16:58:07.42	21.77	6.52	-44.2	-45.7	19.2	0.00e+00	80	41	0	89128960	60	6988
2026-01-24 16:58:08.43	21.70	6.59	-44.0	-45.6	19.3	0.00e+00	0	41	0	91226112	60	6852
2026-01-24 16:58:09.45	21.62	6.65	-44.2	-45.8	19.0	0.00e+00	0	41	0	93323264	60	7008
2026-01-24 16:58:10.46	21.54	6.72	-44.8	-46.6	18.2	0.00e+00	0	41	0	94371840	60	7702
2026-01-24 16:58:11.47	21.46	6.79	-44.2	-45.8	19.1	0.00e+00	0	41	0	96468992	60	7036
2026-01-24 16:58:12.48	21.38	6.85	-44.0	-45.5	19.2	0.00e+00	57	41	0	98566144	60	6831
2026-01-24 16:58:13.49	21.30	6.92	-44.9	-46.6	18.3	0.00e+00	0	41	0	100663296	60	7767
2026-01-24 16:58:14.50	21.22	6.99	-44.4	-46.0	18.8	0.00e+00	83	41	0	102760448	60	7196
2026-01-24 16:58:15.51	21.14	7.06	-43.9	-45.4	19.4	0.00e+00	0	41	0	103809024	60	6745
2026-01-24 16:58:16.52	21.06	7.12	-44.4	-46.0	18.7	0.00e+00	0	41	0	105906176	60	7240
2026-01-24 16:58:17.53	20.98	7.19	-43.9	-45.4	19.3	0.00e+00	0	41	0	108003328	60	6751
2026-01-24 16:58:18.53	20.90	7.26	-43.7	-45.2	19.6	0.00e+00	0	41	0	110100480	60	6564
2026-01-24 16:58:19.54	20.82	7.33	-43.5	-44.9	19.9	0.00e+00	0	41	0	112197632	60	6347
2026-01-24 16:58:20.55	20.73	7.40	-43.7	-45.1	19.8	0.00e+00	0	41	0	113246208	60	6504
2026-01-24 16:58:21.56	20.65	7.46	-43.5	-45.0	19.8	0.00e+00	92	41	0	115343360	60	6396
2026-01-24 16:58:22.57	20.57	7.53	-43.6	-44.9	19.9	0.00e+00	0	41	0	117440512	60	6390
2026-01-24 16:58:23.58	20.48	7.60	-43.6	-45.0	20.0	0.00e+00	89	41	0	119537664	60	6421
2026-01-24 16:58:24.59	20.40	7.67	-43.6	-45.0	19.9	0.00e+00	0	41	0	121634816	60	6399
2026-01-24 16:58:25.60	20.32	7.74	-43.2	-44.5	20.1	0.00e+00	0	41	0	122683392	60	6092
2026-01-24 16:58:26.61	20.23	7.81	-43.3	-44.6	20.2	0.00e+00	17	41	0	124780544	60	6163
2026-01-24 16:58:27.62	20.15	7.88	-43.6	-45.0	19.8	0.00e+00	0	41	0	126877696	60	6392
2026-01-24 16:58:28.63	20.06	7.95	-43.2	-44.5	20.2	0.00e+00	65	41	0	128974848	60	6060
2026-01-24 16:58:29.64	19.97	8.02	-43.0	-44.4	20.4	0.00e+00	0	41	0	131072000	60	5970
2026-01-24 16:58:30.65	19.89	8.09	-43.3	-44.6	20.2	0.00e+00	63	41	0	132120576	60	6150
2026-01-24 16:58:31.66	19.80	8.15	-43.1	-44.5	20.3	0.00e+00	0	41	0	134217728	60	6039
2026-01-24 16:58:32.67	19.71	8.22	-43.1	-44.4	20.4	0.00e+00	0	41	0	136314880	60	5977
2026-01-24 16:58:33.68	19.62	8.29	-43.2	-44.5	20.4	0.00e+00	0	41	0	138412032	60	6069
2026-01-24 16:58:34.68	19.54	8.36	-43.4	-44.7	20.2	0.00e+00	0	41	0	140509184	60	6231
2026-01-24 16:58:35.69	19.45	8.43	-42.7	-43.9	20.8	0.00e+00	66	41	0	142606336	58	6365
2026-01-24 16:58:36.70	19.36	8.50	-42.8	-44.1	20.7	0.00e+00	0	41	0	143654912	58	6484
2026-01-24 16:58:37.71	19.27	8.57	-43.2	-44.5	20.3	0.00e+00	71	41	0	145752064	58	6810
2026-01-24 16:58:38.72	19.18	8.64	-43.1	-44.4	20.4	0.00e+00	0	41	0	147849216	58	6740
2026-01-24 16:58:39.73	19.09	8.72	-43.1	-44.4	20.3	0.00e+00	0	41	0	149946368	58	6759
2026-01-24 16:58:40.74	19.00	8.79	-43.4	-44.8	20.2	0.00e+00	0	41	0	152043520	58	7049
2026-01-24 16:58:41.75	18.91	8.86	-43.2	-44.5	20.2	0.00e+00	0	41	0	153092096	58	6803
2026-01-24 16:58:42.76	18.81	8.93	-43.5	-44.9	19.8	0.00e+00	62	41	0	155189248	58	7164
2026-01-24 16:58:43.77	18.72	9.00	-43.5	-44.9	19.7	0.00e+00	0	41	0	157286400	58	7095
2026-01-24 16:58:44.78	18.63	9.07	-43.5	-44.9	20.0	0.00e+00	69	41	0	159383552	58	7115
2026-01-24 16:58:45.79	18.54	9.14	-43.3	-44.6	20.2	0.00e+00	0	41	0	161480704	58	6867
2026-01-24 16:58:46.80	18.44	9.21	-43.4	-44.7	20.1	0.00e+00	0	41	0	162529280	58	7003
2026-01-24 16:58:47.81	18.35	9.29	-43.2	-44.5	20.5	0.00e+00	0	41	0	164626432	58	6798
2026-01-24 16:58:48.82	18.25	9.36	-42.3	-43.5	21.2	0.00e+00	0	41	0	166723584	58	6070
2026-01-24 16:58:49.83	18.16	9.43	-43.4	-44.8	20.1	0.00e+00	0	41	0	168820736	58	7024
2026-01-24 16:58:50.84	18.06	9.50	-43.2	-44.5	20.2	0.00e+00	0	41	0	170917888	58	6842
2026-01-24 16:58:51.85	17.97	9.57	-43.0	-44.3	20.6	0.00e+00	67	41	0	171966464	58	6678
2026-01-24 16:58:52.86	17.87	9.65	-43.1	-44.5	20.3	0.00e+00	0	41	0	174063616	58	6776
2026-01-24 16:58:53.87	17.77	9.72	-43.1	-44.4	20.4	0.00e+00	82	41	0	176160768	58	6719
2026-01-24 16:58:54.88	17.67	9.79	-43.0	-44.3	20.4	0.00e+00	0	41	0	178257920	58	6676
2026-01-24 16:58:55.89	17.58	9.86	-43.2	-44.6	20.0	0.00e+00	0	41	0	180355072	58	6850
2026-01-24 16:58:56.90	17.48	9.94	-43.0	-44.4	20.3	0.00e+00	0	41	0	181403648	58	6708
2026-01-24 16:58:57.91	17.38	10.01	-43.1	-44.4	20.3	0.00e+00	0	41	0	183500800	58	6734
2026-01-24 16:58:58.92	17.28	10.08	-43.2	-44.5	20.3	0.00e+00	44	41	0	185597952	58	6829
2026-01-24 16:58:59.92	17.18	10.15	-42.8	-44.0	20.8	0.00e+00	0	41	0	187695104	58	6444
2026-01-24 16:59:00.94	17.08	10.23	-43.2	-44.5	20.5	0.00e+00	9	41	0	189792256	58	6832
2026-01-24 16:59:01.95	16.97	10.30	-43.2	-44.5	20.6	0.00e+00	0	41	0	190840832	58	6804
2026-01-24 16:59:02.96	16.87	10.38	-43.1	-44.4	20.5	0.00e+00	0	41	0	192937984	58	6758
2026-01-24 16:59:03.97	16.77	10.45	-43.1	-44.4	20.5	0.00e+00	0	41	0	195035136	58	6693
2026-01-24 16:59:04.98	16.67	10.52	-42.7	-44.0	20.8	0.00e+00	0	41	0	197132288	58	6413
2026-01-24 16:59:05.99	16.56	10.60	-42.9	-44.2	20.5	0.00e+00	16	41	0	199229440	58	6592
2026-01-24 16:59:06.99	16.46	10.67	-43.0	-44.4	20.5	0.00e+00	0	41	0	200278016	58	6707
2026-01-24 16:59:08.00	16.36	10.74	-42.9	-44.2	20.5	0.00e+00	92	41	0	202375168	58	6597
2026-01-24 16:59:09.01	16.25	10.82	-43.0	-44.3	20.7	0.00e+00	0	41	0	204472320	58	6666
2026-01-24 16:59:10.02	16.15	10.89	-43.3	-44.6	20.2	0.00e+00	0	41	0	206569472	58	6920
2026-01-24 16:59:11.03	16.04	10.97	-43.5	-44.9	20.0	0.00e+00	0	41	0	208666624	58	7140
2026-01-24 16:59:12.04	15.93	11.04	-42.9	-44.2	20.7	0.00e+00	0	41	0	210763776	58	6551
2026-01-24 16:59:13.05	15.83	11.12	-42.8	-44.1	20.7	0.00e+00	69	41	0	211812352	58	6467
2026-01-24 16:59:14.06	15.72	11.19	-42.8	-44.1	20.8	0.00e+00	0	41	0	213909504	58	6524
2026-01-24 16:59:15.07	15.61	11.27	-43.0	-44.3	20.5	0.00e+00	82	41	0	216006656	58	6668
2026-01-24 16:59:16.08	15.50	11.34	-43.1	-44.4	20.4	0.00e+00	0	41	0	218103808	58	6760
2026-01-24 16:59:17.09	15.39	11.42	-43.0	-44.2	20.5	0.00e+00	0	41	0	220200960	58	6609
2026-01-24 16:59:18.10	15.28	11.49	-43.2	-44.5	20.4	0.00e+00	0	41	0	221249536	58	6817
2026-01-24 16:59:19.11	15.17	11.57	-43.4	-44.8	20.1	0.00e+00	0	41	0	223346688	58	7048
2026-01-24 16:59:20.12	15.06	11.64	-43.6	-45.0	20.0	0.00e+00	49	41	0	225443840	58	7248
2026-01-24 16:59:21.13	14.95	11.72	-43.6	-45.0	19.9	0.00e+00	0	41	0	227540992	60	6391
2026-01-24 16:59:22.14	14.83	11.80	-43.6	-45.0	19.9	0.00e+00	52	41	0	229638144	60	6451
2026-01-24 16:59:23.15	14.72	11.87	-43.4	-44.7	20.5	0.00e+00	0	41	0	230686720	60	6228
2026-01-24 16:59:24.16	14.61	11.95	-43.1	-44.4	20.5	0.00e+00	5	41	0	232783872	60	6009
2026-01-24 16:59:25.17	14.49	12.03	-43.1	-44.4	20.6	0.00e+00	0	41	0	234881024	60	5989
2026-01-24 16:59:26.18	14.38	12.10	-43.6	-45.0	20.0	0.00e+00	0	41	0	236978176	60	6419
2026-01-24 16:59:27.19	14.26	12.18	-42.9	-44.1	20.7	0.00e+00	0	41	0	239075328	60	5819
2026-01-24 16:59:28.20	14.14	12.26	-42.8	-44.0	20.8	0.00e+00	0	41	0	240123904	58	6444
2026-01-24 16:59:29.21	14.03	12.33	-43.1	-44.4	20.5	0.00e+00	92	41	0	242221056	58	6743
2026-01-24 16:59:30.22	13.91	12.41	-42.6	-43.9	21.0	0.00e+00	0	41	0	244318208	58	6334
2026-01-24 16:59:31.23	13.79	12.49	-42.7	-43.9	21.0	0.00e+00	0	41	0	246415360	58	6357
2026-01-24 16:59:32.24	13.67	12.56	-42.5	-43.7	21.1	0.00e+00	33	41	0	248512512	58	6235
2026-01-24 16:59:33.25	13.55	12.64	-42.2	-43.3	21.4	0.00e+00	0	41	0	249561088	58	5921
2026-01-24 16:59:34.26	13.43	12.72	-42.6	-43.8	21.1	0.00e+00	0	41	0	251658240	58	6263
2026-01-24 16:59:35.27	13.31	12.80	-42.3	-43.5	21.3	0.00e+00	33	41	0	253755392	58	6060
2026-01-24 16:59:36.28	13.19	12.87	-42.3	-43.5	21.3	0.00e+00	68	41	0	255852544	58	6049
2026-01-24 16:59:37.29	13.07	12.95	-42.4	-43.5	21.3	0.00e+00	0	41	0	257949696	58	6094
2026-01-24 16:59:38.30	12.95	13.03	-42.3	-43.4	21.6	0.00e+00	65	41	0	258998272	58	6028
2026-01-24 16:59:39.31	12.82	13.11	-42.3	-43.4	21.4	0.00e+00	0	41	0	261095424	58	6012
2026-01-24 16:59:40.32	12.70	13.19	-42.7	-43.9	21.0	0.00e+00	0	41	0	263192576	58	6337
2026-01-24 16:59:41.33	12.57	13.26	-42.4	-43.5	21.2	0.00e+00	0	41	0	265289728	58	6084
2026-01-24 16:59:42.34	12.45	13.34	-42.7	-44.0	21.0	0.00e+00	0	41	0	267386880	58	6393
2026-01-24 16:59:43.35	12.32	13.42	-42.9	-44.1	20.8	0.00e+00	81	41	0	268435456	58	6508
2026-01-24 16:59:44.36	12.20	13.50	-42.9	-44.2	20.7	0.00e+00	0	41	0	270532608	58	6581
2026-01-24 16:59:45.37	12.07	13.58	-42.9	-44.1	20.6	0.00e+00	79	41	0	272629760	58	6511
2026-01-24 16:59:46.38	11.94	13.66	-42.5	-43.7	21.2	0.00e+00	0	41	0	274726912	58	6208
2026-01-24 16:59:47.39	11.81	13.74	-42.8	-44.0	20.7	0.00e+00	0	41	0	276824064	58	6409
2026-01-24 16:59:48.40	11.68	13.81	-42.7	-43.9	20.6	0.00e+00	0	41	0	278921216	58	6332
2026-01-24 16:59:49.41	11.55	13.89	-42.6	-43.9	20.8	0.00e+00	0	41	0	279969792	58	6339
2026-01-24 16:59:50.42	11.42	13.97	-42.9	-44.2	20.6	0.00e+00	51	41	0	282066944	58	6596
2026-01-24 16:59:51.43	11.29	14.05	-43.1	-44.4	20.8	0.00e+00	0	41	0	284164096	58	6747
2026-01-24 16:59:52.44	11.16	14.13	-43.1	-44.3	20.8	0.00e+00	92	41	0	286261248	58	6681
2026-01-24 16:59:53.45	11.02	14.21	-43.1	-44.3	20.7	0.00e+00	0	41	0	288358400	58	6687
2026-01-24 16:59:54.46	10.89	14.29	-42.7	-43.9	21.3	0.00e+00	0	41	0	289406976	58	6349
2026-01-24 16:59:55.47	10.75	14.37	-43.2	-44.5	20.6	0.00e+00	0	41	0	291504128	58	6780
2026-01-24 16:59:56.48	10.62	14.45	-42.7	-44.0	21.1	0.00e+00	0	41	0	293601280	58	6393
2026-01-24 16:59:57.49	10.48	14.53	-42.3	-43.4	21.4	0.00e+00	59	41	0	295698432	58	6023
2026-01-24 16:59:58.50	10.35	14.61	-42.2	-43.3	21.5	0.00e+00	0	41	0	297795584	58	5960
2026-01-24 16:59:59.51	10.21	14.69	-42.2	-43.3	21.6	0.00e+00	92	41	0	298844160	58	5928
2026-01-24 17:00:00.52	10.07	14.77	-42.0	-43.1	21.7	0.00e+00	0	41	0	300941312	58	5813
2026-01-24 17:00:01.53	9.93	14.85	-42.3	-43.5	21.4	0.00e+00	0	41	0	303038464	58	6063
2026-01-24 17:00:02.54	9.79	14.93	-41.9	-43.0	21.8	0.00e+00	0	41	0	305135616	56	6411
2026-01-24 17:00:03.55	9.65	15.01	-42.1	-43.2	21.8	0.00e+00	0	41	0	307232768	56	6606
2026-01-24 17:00:04.56	9.51	15.09	-42.2	-43.3	21.6	0.00e+00	57	41	0	308281344	56	6641
2026-01-24 17:00:05.57	9.37	15.17	-41.9	-43.0	21.9	0.00e+00	0	41	0	310378496	56	6398
2026-01-24 17:00:06.58	9.22	15.26	-41.7	-42.7	22.1	0.00e+00	81	41	0	312475648	56	6222
2026-01-24 17:00:07.59	9.08	15.34	-41.7	-42.7	22.4	0.00e+00	0	41	0	314572800	56	6189
2026-01-24 17:00:08.60	8.93	15.42	-41.8	-42.8	22.1	0.00e+00	0	41	0	316669952	56	6306
2026-01-24 17:00:09.61	8.79	15.50	-41.2	-42.2	22.5	0.00e+00	0	41	0	317718528	56	5858
2026-01-24 17:00:10.62	8.64	15.58	-41.3	-42.3	22.4	0.00e+00	0	41	0	319815680	56	5938
2026-01-24 17:00:11.62	8.50	15.66	-42.0	-43.0	21.8	0.00e+00	33	41	0	321912832	56	6463
2026-01-24 17:00:12.63	8.35	15.74	-41.9	-43.0	22.0	0.00e+00	0	41	0	324009984	56	6411
2026-01-24 17:00:13.64	8.20	15.82	-42.0	-43.1	21.8	0.00e+00	90	41	0	326107136	56	6501
2026-01-24 17:00:14.65	8.05	15.90	-41.6	-42.6	22.3	0.00e+00	0	41	0	327155712	56	6134
2026-01-24 17:00:15.66	7.90	15.99	-41.6	-42.7	22.1	0.00e+00	68	41	0	329252864	56	6196
2026-01-24 17:00:16.67	7.75	16.07	-41.7	-42.7	22.2	0.00e+00	0	41	0	331350016	56	6234
2026-01-24 17:00:17.68	7.60	16.15	-41.6	-42.6	22.1	0.00e+00	0	41	0	333447168	56	6166
2026-01-24 17:00:18.69	7.44	16.23	-41.6	-42.7	22.2	0.00e+00	9	41	0	335544320	56	6197
2026-01-24 17:00:19.70	7.29	16.31	-41.6	-42.7	22.3	0.00e+00	0	41	0	336592896	56	6188
2026-01-24 17:00:20.71	7.13	16.39	-41.3	-42.3	22.5	0.00e+00	0	41	0	338690048	56	5907
2026-01-24 17:00:21.72	6.98	16.48	-41.3	-42.3	22.5	0.00e+00	0	41	0	340787200	56	5909
2026-01-24 17:00:22.73	6.82	16.56	-41.5	-42.6	22.2	0.00e+00	82	41	0	342884352	56	6118
2026-01-24 17:00:23.74	6.66	16.64	-41.5	-42.6	22.2	0.00e+00	0	41	0	344981504	56	6115
2026-01-24 17:00:24.75	6.51	16.72	-42.0	-43.1	22.1	0.00e+00	0	41	0	347078656	56	6519
2026-01-24 17:00:25.76	6.35	16.80	-41.8	-42.9	22.3	0.00e+00	0	41	0	348127232	56	6338
2026-01-24 17:00:26.77	6.19	16.89	-41.7	-42.8	22.1	0.00e+00	0	41	0	350224384	56	6259
2026-01-24 17:00:27.78	6.03	16.97	-41.6	-42.6	22.3	0.00e+00	12	41	0	352321536	56	6159
2026-01-24 17:00:28.79	5.86	17.05	-41.6	-42.6	22.3	0.00e+00	0	41	0	354418688	56	6152
2026-01-24 17:00:29.80	5.70	17.13	-41.7	-42.8	22.1	0.00e+00	72	41	0	356515840	56	6266
2026-01-24 17:00:30.81	5.54	17.22	-41.7	-42.7	21.9	0.00e+00	0	41	0	357564416	56	6212
2026-01-24 17:00:31.82	5.37	17.30	-41.7	-42.8	21.4	0.00e+00	0	41	0	359661568	56	6277
2026-01-24 17:00:32.83	5.21	17.38	-41.9	-43.0	21.9	0.00e+00	0	41	0	361758720	56	6457
2026-01-24 17:00:33.85	5.04	17.46	-42.0	-43.1	21.9	0.00e+00	0	41	0	363855872	56	6497
2026-01-24 17:00:34.85	4.87	17.55	-41.9	-43.0	21.9	0.00e+00	12	41	0	365953024	56	6460
2026-01-24 17:00:35.86	4.71	17.63	-41.8	-42.8	22.2	0.00e+00	0	41	0	367001600	56	6290
2026-01-24 17:00:36.87	4.54	17.71	-41.7	-42.8	22.1	0.00e+00	76	41	0	369098752	56	6260
2026-01-24 17:00:37.88	4.37	17.79	-41.8	-42.8	22.2	0.00e+00	0	41	0	371195904	56	6278
2026-01-24 17:00:38.89	4.20	17.87	-42.0	-43.0	22.1	0.00e+00	0	41	0	373293056	56	6447
2026-01-24 17:00:39.90	4.02	17.96	-42.0	-43.0	21.8	0.00e+00	0	41	0	375390208	56	6463
2026-01-24 17:00:40.91	3.85	18.04	-42.4	-43.5	21.6	0.00e+00	0	41	0	376438784	56	6824
2026-01-24 17:00:41.93	3.68	18.12	-43.1	-44.3	21.1	0.00e+00	0	41	0	378535936	58	6682
2026-01-24 17:00:42.94	3.50	18.21	-42.5	-43.7	21.5	0.00e+00	0	41	0	380633088	58	6213
2026-01-24 17:00:43.94	3.33	18.29	-42.4	-43.6	21.4	0.00e+00	92	41	0	382730240	58	6160
2026-01-24 17:00:44.95	3.15	18.37	-42.1	-43.3	21.9	0.00e+00	0	41	0	384827392	58	5928
2026-01-24 17:00:45.96	2.97	18.45	-42.0	-43.1	21.9	0.00e+00	70	41	0	385875968	58	5821
2026-01-24 17:00:46.97	2.79	18.53	-42.0	-43.2	21.7	0.00e+00	0	41	0	387973120	58	5832
2026-01-24 17:00:47.98	2.61	18.62	-42.2	-43.3	21.7	0.00e+00	0	41	0	390070272	58	5938
2026-01-24 17:00:48.99	2.43	18.70	-42.5	-43.7	21.4	0.00e+00	65	41	0	392167424	58	6188
2026-01-24 17:00:50.00	2.25	18.78	-42.7	-43.9	21.3	0.00e+00	0	41	0	394264576	58	6373
2026-01-24 17:00:51.01	2.07	18.86	-42.3	-43.4	21.6	0.00e+00	49	41	0	395313152	58	6024
2026-01-24 17:00:52.02	1.88	18.95	-42.2	-43.3	21.6	0.00e+00	0	41	0	397410304	58	5943
2026-01-24 17:00:53.03	1.70	19.03	-42.3	-43.5	21.5	0.00e+00	23	41	0	399507456	58	6060
2026-01-24 17:00:54.04	1.51	19.11	-42.0	-43.1	21.9	0.00e+00	0	41	0	401604608	58	5777
2026-01-24 17:00:55.05	1.33	19.19	-42.1	-43.2	21.8	0.00e+00	0	41	0	403701760	58	5871
2026-01-24 17:00:56.06	1.14	19.28	-41.9	-43.0	21.9	0.00e+00	0	41	0	404750336	56	6447
2026-01-24 17:00:57.07	0.95	19.36	-41.8	-42.9	22.0	0.00e+00	0	41	0	406847488	56	6370
2026-01-24 17:00:58.08	0.76	19.44	-41.9	-42.9	22.0	0.00e+00	29	41	0	408944640	56	6384
2026-01-24 17:00:59.09	0.57	19.52	-41.7	-42.7	22.0	0.00e+00	0	41	0	411041792	56	6245
2026-01-24 17:01:00.10	0.38	19.60	-42.1	-43.2	21.7	0.00e+00	54	41	0	413138944	56	6558
2026-01-24 17:01:01.11	0.18	19.69	-41.9	-43.0	21.8	0.00e+00	0	41	0	415236096	56	6443
2026-01-24 17:01:02.12	359.99	19.77	-42.1	-43.2	21.8	0.00e+00	0	41	0	416284672	56	6578
2026-01-24 17:01:03.13	359.80	19.85	-41.9	-42.9	22.0	0.00e+00	0	41	0	418381824	56	6370
2026-01-24 17:01:04.13	359.60	19.93	-41.9	-43.0	21.9	0.00e+00	0	41	0	420478976	56	6433
2026-01-24 17:01:05.15	359.40	20.01	-42.0	-43.2	21.8	0.00e+00	40	41	0	422576128	56	6544
2026-01-24 17:01:06.16	359.20	20.09	-42.0	-43.1	22.0	0.00e+00	0	41	0	424673280	56	6513
2026-01-24 17:01:07.16	359.01	20.17	-42.4	-43.5	21.5	0.00e+00	92	41	0	425721856	56	6810
2026-01-24 17:01:08.17	358.81	20.26	-42.1	-43.2	21.9	0.00e+00	0	41	0	427819008	56	6547
2026-01-24 17:01:09.18	358.60	20.34	-41.7	-42.7	22.2	0.00e+00	0	41	0	429916160	56	6212
2026-01-24 17:01:10.19	358.40	20.42	-41.4	-42.4	22.5	0.00e+00	0	41	0	432013312	56	5967
2026-01-24 17:01:11.20	358.20	20.50	-41.3	-42.3	22.5	0.00e+00	0	41	0	434110464	56	5924
2026-01-24 17:01:12.21	357.99	20.58	-41.5	-42.6	22.5	0.00e+00	57	41	0	435159040	56	6106
2026-01-24 17:01:13.22	357.79	20.66	-41.0	-41.9	22.9	0.00e+00	33	41	0	437256192	56	5683
2026-01-24 17:01:14.23	357.58	20.74	-41.0	-42.0	22.6	0.00e+00	80	41	0	439353344	54	6417
2026-01-24 17:01:15.24	357.37	20.82	-41.0	-42.0	22.7	0.00e+00	0	41	0	441450496	54	6431
2026-01-24 17:01:16.25	357.16	20.90	-41.3	-42.3	22.3	0.00e+00	33	41	0	443547648	54	6686
2026-01-24 17:01:17.26	356.95	20.98	-41.5	-42.6	22.3	0.00e+00	0	41	0	444596224	56	6131
2026-01-24 17:01:18.27	356.74	21.06	-41.9	-42.9	21.9	0.00e+00	0	41	0	446693376	56	6390
2026-01-24 17:01:19.28	356.53	21.14	-42.1	-43.2	21.8	0.00e+00	74	41	0	448790528	56	6563
2026-01-24 17:01:20.29	356.32	21.22	-42.0	-43.1	22.1	0.00e+00	0	41	0	450887680	56	6498
2026-01-24 17:01:21.30	356.10	21.30	-42.0	-43.1	21.9	0.00e+00	92	41	0	452984832	56	6512
2026-01-24 17:01:22.31	355.88	21.38	-42.0	-43.1	21.6	0.00e+00	0	41	0	454033408	56	6493
2026-01-24 17:01:23.32	355.67	21.46	-42.1	-43.2	21.9	0.00e+00	92	41	0	456130560	56	6604
2026-01-24 17:01:24.33	355.45	21.54	-42.0	-43.1	21.9	0.00e+00	0	41	0	458227712	56	6514
2026-01-24 17:01:25.34	355.23	21.62	-41.3	-42.3	22.5	0.00e+00	33	41	0	460324864	56	5931
2026-01-24 17:01:26.35	355.01	21.69	-41.0	-42.0	22.7	0.00e+00	0	41	0	462422016	56	5722
2026-01-24 17:01:27.36	354.79	21.77	-40.5	-41.5	23.2	0.00e+00	0	41	0	463470592	54	6066
2026-01-24 17:01:28.37	354.57	21.85	-40.2	-41.1	23.4	0.00e+00	70	41	0	465567744	54	5791
2026-01-24 17:01:29.38	354.34	21.93	-39.8	-40.7	23.7	0.00e+00	0	41	0	467664896	54	5542
2026-01-24 17:01:30.39	354.12	22.01	-40.0	-40.9	23.6	0.00e+00	92	41	0	469762048	54	5689
2026-01-24 17:01:31.40	353.89	22.08	-40.3	-41.2	23.2	0.00e+00	0	41	0	471859200	54	5892
2026-01-24 17:01:32.41	353.66	22.16	-40.5	-41.4	23.0	0.00e+00	0	41	0	472907776	54	6020
2026-01-24 17:01:33.42	353.44	22.24	-40.9	-42.0	22.7	0.00e+00	0	41	0	475004928	54	6393
2026-01-24 17:01:34.43	353.21	22.31	-41.0	-42.0	22.8	0.00e+00	0	41	0	477102080	54	6433
2026-01-24 17:01:35.44	352.98	22.39	-40.8	-41.8	22.9	0.00e+00	91	41	0	479199232	54	6293
2026-01-24 17:01:36.45	352.74	22.46	-40.7	-41.7	23.3	0.00e+00	0	41	0	481296384	54	6176
2026-01-24 17:01:37.46	352.51	22.54	-40.5	-41.4	23.2	0.00e+00	92	41	0	483393536	54	6008
2026-01-24 17:01:38.47	352.28	22.62	-40.8	-41.8	22.8	0.00e+00	0	41	0	484442112	54	6305
2026-01-24 17:01:39.48	352.04	22.69	-40.9	-41.9	23.0	0.00e+00	0	41	0	486539264	54	6372
2026-01-24 17:01:40.49	351.80	22.77	-41.1	-42.1	22.7	0.00e+00	0	41	0	488636416	54	6476
2026-01-24 17:01:41.50	351.57	22.84	-40.4	-41.4	23.3	0.00e+00	0	41	0	490733568	54	5965
2026-01-24 17:01:42.51	351.33	22.91	-41.0	-41.9	22.9	0.00e+00	7	41	0	492830720	54	6367
2026-01-24 17:01:43.52	351.09	22.99	-39.7	-40.5	23.9	0.00e+00	0	41	0	493879296	54	5426
2026-01-24 17:01:44.53	350.85	23.06	-39.5	-40.4	24.0	0.00e+00	92	41	0	495976448	52	5979
2026-01-24 17:01:45.54	350.61	23.13	-39.7	-40.6	23.9	0.00e+00	0	41	0	498073600	52	6151
2026-01-24 17:01:46.55	350.36	23.21	-40.4	-41.3	23.4	0.00e+00	0	41	0	500170752	52	6644
2026-01-24 17:01:47.56	350.12	23.28	-40.6	-41.5	23.3	0.00e+00	0	41	0	502267904	52	6828
2026-01-24 17:01:48.57	349.87	23.35	-40.6	-41.6	23.2	0.00e+00	0	41	0	503316480	54	6104
2026-01-24 17:01:49.58	349.63	23.42	-40.3	-41.2	23.5	0.00e+00	0	41	0	505413632	54	5831
2026-01-24 17:01:50.59	349.38	23.49	-40.0	-40.9	23.7	0.00e+00	0	41	0	507510784	54	5667
2026-01-24 17:01:51.60	349.13	23.57	-39.2	-40.0	24.5	0.00e+00	74	41	0	509607936	52	5698
2026-01-24 17:01:52.61	348.88	23.64	-39.1	-39.9	24.4	0.00e+00	0	41	0	511705088	52	5689
2026-01-24 17:01:53.62	348.63	23.71	-39.4	-40.2	24.2	0.00e+00	0	41	0	512753664	52	5851
2026-01-24 17:01:54.63	348.37	23.78	-39.5	-40.3	24.0	0.00e+00	0	41	0	514850816	52	5958
2026-01-24 17:01:55.64	348.12	23.85	-39.9	-40.8	23.3	0.00e+00	0	41	0	516947968	52	6279
2026-01-24 17:01:56.65	347.87	23.91	-39.9	-40.7	23.9	0.00e+00	0	41	0	519045120	52	6245
2026-01-24 17:01:57.66	347.61	23.98	-39.9	-40.7	24.0	0.00e+00	0	41	0	521142272	52	6211
2026-01-24 17:01:58.67	347.35	24.05	-39.8	-40.6	24.0	0.00e+00	65	40	0	522190848	52	6148
2026-01-24 17:01:59.68	347.10	24.12	-39.9	-40.8	23.9	0.00e+00	0	40	0	524288000	52	6287
2026-01-24 17:02:00.69	346.84	24.19	-39.7	-40.6	24.1	0.00e+00	0	41	0	526385152	52	6129
2026-01-24 17:02:01.70	346.58	24.25	-40.3	-41.1	23.7	0.00e+00	0	41	0	528482304	52	6531
2026-01-24 17:02:02.71	346.31	24.32	-40.3	-41.2	23.5	0.00e+00	0	41	0	530579456	52	6595
2026-01-24 17:02:03.72	346.05	24.38	-40.7	-41.6	23.2	0.00e+00	0	41	0	531628032	52	6881
2026-01-24 17:02:04.73	345.79	24.45	-40.7	-41.6	23.2	0.00e+00	0	41	0	533725184	54	6162
2026-01-24 17:02:05.74	345.52	24.51	-40.4	-41.3	23.2	0.00e+00	67	41	0	535822336	54	5949
2026-01-24 17:02:06.75	345.26	24.58	-40.6	-41.5	23.1	0.00e+00	0	41	0	537919488	54	6103
2026-01-24 17:02:07.76	344.99	24.64	-40.1	-41.0	23.4	0.00e+00	71	41	0	540016640	54	5723
2026-01-24 17:02:08.76	344.73	24.70	-40.3	-41.2	23.3	0.00e+00	0	40	0	541065216	54	5870
2026-01-24 17:02:09.77	344.46	24.77	-40.9	-41.9	23.0	0.00e+00	0	41	0	543162368	54	6359
2026-01-24 17:02:10.78	344.19	24.83	-41.3	-42.3	22.6	0.00e+00	0	40	0	545259520	54	6690
2026-01-24 17:02:11.80	343.91	24.89	-40.7	-41.6	23.3	0.00e+00	0	41	0	547356672	54	6171
2026-01-24 17:02:12.81	343.64	24.95	-40.3	-41.2	23.6	0.00e+00	13	41	0	549453824	54	5862
2026-01-24 17:02:13.81	343.37	25.01	-40.0	-40.9	23.7	0.00e+00	0	41	0	551550976	54	5638
2026-01-24 17:02:14.83	343.09	25.07	-39.9	-40.8	23.7	0.00e+00	73	41	0	552599552	52	6273
2026-01-24 17:02:15.84	342.82	25.13	-40.2	-41.1	23.5	0.00e+00	0	40	0	554696704	52	6475
2026-01-24 17:02:16.85	342.54	25.19	-40.3	-41.2	23.3	0.00e+00	0	40	0	556793856	52	6583
2026-01-24 17:02:17.86	342.26	25.25	-40.9	-41.9	23.1	0.00e+00	0	40	0	558891008	54	6331
2026-01-24 17:02:18.87	341.98	25.30	-40.7	-41.7	23.1	0.00e+00	0	41	0	560988160	54	6183
2026-01-24 17:02:19.88	341.70	25.36	-40.4	-41.4	23.4	0.00e+00	9	41	0	562036736	54	5966
2026-01-24 17:02:20.89	341.42	25.42	-40.1	-41.0	23.8	0.00e+00	0	41	0	564133888	54	5722
2026-01-24 17:02:21.90	341.14	25.47	-39.9	-40.8	23.7	0.00e+00	74	41	0	566231040	54	5570
2026-01-24 17:02:22.91	340.86	25.53	-40.2	-41.1	23.7	0.00e+00	0	41	0	568328192	54	5764
2026-01-24 17:02:23.92	340.58	25.58	-40.7	-41.6	23.2	0.00e+00	0	41	0	570425344	54	6139
2026-01-24 17:02:24.92	340.29	25.63	-41.1	-42.1	22.9	0.00e+00	0	41	0	571473920	54	6478
2026-01-24 17:02:25.93	340.01	25.69	-41.1	-42.1	22.7	0.00e+00	0	41	0	573571072	54	6483
2026-01-24 17:02:26.94	339.72	25.74	-40.3	-41.1	23.5	0.00e+00	9	41	0	575668224	54	5820
2026-01-24 17:02:27.96	339.43	25.79	-40.1	-40.9	23.8	0.00e+00	0	41	0	577765376	54	5675
2026-01-24 17:02:28.96	339.15	25.84	-39.7	-40.5	24.0	0.00e+00	72	41	0	579862528	54	5430
2026-01-24 17:02:29.97	338.86	25.89	-39.6	-40.5	24.0	0.00e+00	0	41	0	580911104	52	6047
2026-01-24 17:02:30.99	338.56	25.94	-39.8	-40.7	23.8	0.00e+00	0	40	0	583008256	52	6215
2026-01-24 17:02:32.00	338.27	25.99	-40.2	-41.1	23.7	0.00e+00	0	41	0	585105408	52	6498
2026-01-24 17:02:33.00	337.98	26.04	-40.2	-41.1	23.6	0.00e+00	0	41	0	587202560	52	6500
2026-01-24 17:02:34.01	337.69	26.08	-39.7	-40.6	24.0	0.00e+00	65	41	0	589299712	52	6128
2026-01-24 17:02:35.03	337.39	26.13	-39.6	-40.4	24.1	0.00e+00	0	41	0	591396864	52	6026
2026-01-24 17:02:36.03	337.10	26.18	-39.3	-40.2	24.0	0.00e+00	71	41	0	592445440	52	5832
2026-01-24 17:02:37.05	336.80	26.22	-39.9	-40.8	23.7	0.00e+00	0	41	0	594542592	52	6259
2026-01-24 17:02:38.05	336.51	26.26	-40.1	-41.0	23.7	0.00e+00	0	41	0	596639744	52	6427
2026-01-24 17:02:39.07	336.21	26.31	-40.4	-41.3	23.4	0.00e+00	0	41	0	598736896	52	6665
2026-01-24 17:02:40.08	335.91	26.35	-40.9	-41.8	23.1	0.00e+00	0	41	0	600834048	54	6280
2026-01-24 17:02:41.09	335.61	26.39	-40.8	-41.8	23.0	0.00e+00	0	41	0	601882624	54	6248
2026-01-24 17:02:42.10	335.31	26.43	-41.0	-42.0	23.0	0.00e+00	0	41	0	603979776	54	6441
2026-01-24 17:02:43.11	335.01	26.47	-41.1	-42.1	22.9	0.00e+00	24	41	0	606076928	54	6481
2026-01-24 17:02:44.11	334.72	26.51	-41.3	-42.3	22.7	0.00e+00	0	41	0	608174080	54	6680
2026-01-24 17:02:45.13	334.41	26.55	-41.6	-42.6	22.0	0.00e+00	32	41	0	610271232	54	6900
2026-01-24 17:02:46.14	334.11	26.59	-42.3	-43.4	21.8	0.00e+00	0	41	0	611319808	56	6743
2026-01-24 17:02:47.14	333.81	26.63	-42.4	-43.5	21.8	0.00e+00	0	41	0	613416960	56	6784
2026-01-24 17:02:48.16	333.50	26.66	-42.3	-43.4	21.8	0.00e+00	0	41	0	615514112	56	6746
2026-01-24 17:02:49.16	333.20	26.70	-42.2	-43.4	21.8	0.00e+00	0	41	0	617611264	56	6708
2026-01-24 17:02:50.17	332.89	26.73	-41.8	-42.9	22.3	0.00e+00	60	41	0	619708416	56	6359
2026-01-24 17:02:51.18	332.59	26.76	-41.0	-42.0	22.9	0.00e+00	0	41	0	620756992	56	5708
2026-01-24 17:02:52.19	332.28	26.80	-41.3	-42.3	22.7	0.00e+00	92	41	0	622854144	56	5898
2026-01-24 17:02:53.20	331.97	26.83	-41.3	-42.3	22.7	0.00e+00	33	41	0	624951296	56	5906
2026-01-24 17:02:54.21	331.67	26.86	-41.8	-42.8	22.3	0.00e+00	0	41	0	627048448	56	6289
2026-01-24 17:02:55.22	331.36	26.89	-42.2	-43.3	21.9	0.00e+00	0	41	0	629145600	56	6622
2026-01-24 17:02:56.23	331.05	26.92	-42.3	-43.4	21.9	0.00e+00	0	41	0	630194176	56	6703
2026-01-24 17:02:57.24	330.74	26.95	-42.2	-43.2	22.1	0.00e+00	71	41	0	632291328	56	6606
2026-01-24 17:02:58.25	330.43	26.97	-42.1	-43.1	22.4	0.00e+00	0	41	0	634388480	56	6528
2026-01-24 17:02:59.26	330.12	27.00	-42.2	-43.3	21.8	0.00e+00	92	41	0	636485632	56	6629
2026-01-24 17:03:00.27	329.81	27.03	-42.4	-43.5	21.8	0.00e+00	0	41	0	638582784	56	6795
2026-01-24 17:03:01.28	329.50	27.05	-42.4	-43.5	21.8	0.00e+00	0	41	0	639631360	56	6836
2026-01-24 17:03:02.29	329.18	27.07	-42.6	-43.7	21.4	0.00e+00	0	41	0	641728512	58	6227
2026-01-24 17:03:03.30	328.87	27.10	-42.2	-43.3	21.8	0.00e+00	0	41	0	643825664	58	5939
2026-01-24 17:03:04.31	328.56	27.12	-41.7	-42.7	22.4	0.00e+00	74	41	0	645922816	56	6200
2026-01-24 17:03:05.32	328.24	27.14	-41.4	-42.4	22.6	0.00e+00	0	41	0	648019968	56	5969
2026-01-24 17:03:06.33	327.93	27.16	-41.5	-42.5	22.5	0.00e+00	90	41	0	649068544	56	6068
2026-01-24 17:03:07.34	327.62	27.18	-41.7	-42.7	22.5	0.00e+00	0	41	0	651165696	56	6242
2026-01-24 17:03:08.35	327.30	27.20	-42.0	-43.0	22.1	0.00e+00	0	41	0	653262848	56	6443
2026-01-24 17:03:09.36	326.99	27.21	-42.1	-43.2	21.9	0.00e+00	0	41	0	655360000	56	6578
2026-01-24 17:03:10.37	326.67	27.23	-42.2	-43.3	21.8	0.00e+00	0	41	0	657457152	56	6643
2026-01-24 17:03:11.38	326.36	27.24	-41.9	-42.9	22.1	0.00e+00	0	41	0	659554304	56	6353
2026-01-24 17:03:12.39	326.04	27.26	-41.5	-42.5	22.6	0.00e+00	0	41	0	660602880	56	6078
2026-01-24 17:03:13.40	325.72	27.27	-41.2	-42.2	22.8	0.00e+00	68	41	0	662700032	56	5867
2026-01-24 17:03:14.41	325.41	27.28	-40.9	-41.9	23.0	0.00e+00	0	41	0	664797184	56	5643
2026-01-24 17:03:15.42	325.09	27.30	-41.0	-42.0	23.0	0.00e+00	5	41	0	666894336	56	5696
2026-01-24 17:03:16.43	324.77	27.31	-41.6	-42.6	22.4	0.00e+00	0	40	0	668991488	56	6153
2026-01-24 17:03:17.44	324.46	27.31	-42.3	-43.4	21.9	0.00e+00	0	41	0	670040064	56	6704
2026-01-24 17:03:18.45	324.14	27.32	-42.8	-44.0	21.3	0.00e+00	0	41	0	672137216	56	7238
2026-01-24 17:03:19.46	323.82	27.33	-43.3	-44.5	20.7	0.00e+00	0	41	0	674234368	58	6835
2026-01-24 17:03:20.47	323.50	27.34	-43.1	-44.4	20.9	0.00e+00	92	41	0	676331520	58	6725
2026-01-24 17:03:21.48	323.19	27.34	-42.6	-43.8	21.4	0.00e+00	0	41	0	678428672	58	6275
2026-01-24 17:03:22.49	322.87	27.35	-42.5	-43.6	21.7	0.00e+00	23	41	0	679477248	58	6162
2026-01-24 17:03:23.50	322.55	27.35	-41.8	-42.9	22.2	0.00e+00	0	41	0	681574400	58	5674
2026-01-24 17:03:24.51	322.23	27.35	-41.4	-42.4	22.7	0.00e+00	0	41	0	683671552	56	5977
2026-01-24 17:03:25.52	321.91	27.35	-41.1	-42.0	22.8	0.00e+00	0	41	0	685768704	56	5750
2026-01-24 17:03:26.53	321.59	27.36	-41.2	-42.2	22.7	0.00e+00	0	41	0	687865856	56	5831
2026-01-24 17:03:27.54	321.28	27.36	-41.0	-42.0	22.9	0.00e+00	92	41	0	688914432	56	5706
2026-01-24 17:03:28.55	320.96	27.35	-41.3	-42.3	22.6	0.00e+00	0	41	0	691011584	56	5952
2026-01-24 17:03:29.56	320.64	27.35	-41.4	-42.4	22.6	0.00e+00	92	41	0	693108736	56	6014
2026-01-24 17:03:30.57	320.32	27.35	-41.6	-42.6	22.5	0.00e+00	0	41	0	695205888	56	6140
2026-01-24 17:03:31.58	320.00	27.34	-41.3	-42.3	22.8	0.00e+00	0	41	0	697303040	56	5932
2026-01-24 17:03:32.59	319.69	27.34	-41.5	-42.5	22.5	0.00e+00	0	41	0	698351616	56	6095
2026-01-24 17:03:33.60	319.37	27.33	-41.7	-42.7	22.4	0.00e+00	0	41	0	700448768	56	6212
2026-01-24 17:03:34.61	319.05	27.33	-41.9	-43.0	22.2	0.00e+00	67	41	0	702545920	56	6434
2026-01-24 17:03:35.62	318.73	27.32	-41.7	-42.7	22.3	0.00e+00	0	41	0	704643072	56	6234
2026-01-24 17:03:36.63	318.42	27.31	-41.4	-42.4	22.5	0.00e+00	92	41	0	706740224	56	6020
2026-01-24 17:03:37.64	318.10	27.30	-41.6	-42.6	21.9	0.00e+00	0	40	0	707788800	56	6130
2026-01-24 17:03:38.65	317.78	27.29	-41.4	-42.4	22.7	0.00e+00	0	41	0	709885952	56	5972
2026-01-24 17:03:39.66	317.47	27.27	-41.0	-42.0	22.8	0.00e+00	0	41	0	711983104	56	5715
2026-01-24 17:03:40.67	317.15	27.26	-40.8	-41.8	23.1	0.00e+00	0	41	0	714080256	56	5587
2026-01-24 17:03:41.68	316.83	27.25	-40.5	-41.4	23.3	0.00e+00	72	41	0	716177408	54	5996
2026-01-24 17:03:42.69	316.52	27.23	-40.8	-41.7	23.2	0.00e+00	0	40	0	717225984	54	6243
2026-01-24 17:03:43.70	316.20	27.22	-41.2	-42.2	22.9	0.00e+00	84	41	0	719323136	54	6587
2026-01-24 17:03:44.71	315.89	27.20	-41.4	-42.5	22.6	0.00e+00	0	41	0	721420288	54	6783
2026-01-24 17:03:45.72	315.57	27.18	-41.9	-42.9	22.2	0.00e+00	0	40	0	723517440	56	6371
2026-01-24 17:03:46.73	315.26	27.16	-42.2	-43.4	21.9	0.00e+00	0	41	0	725614592	56	6718
2026-01-24 17:03:47.74	314.94	27.14	-42.0	-43.0	22.2	0.00e+00	0	41	0	727711744	56	6452
2026-01-24 17:03:48.75	314.63	27.12	-41.8	-42.8	22.4	0.00e+00	57	41	0	728760320	56	6286
2026-01-24 17:03:49.76	314.32	27.10	-41.2	-42.2	22.9	0.00e+00	0	41	0	730857472	56	5864
2026-01-24 17:03:50.77	314.00	27.08	-40.1	-41.0	23.7	0.00e+00	92	41	0	732954624	54	5707
2026-01-24 17:03:51.78	313.69	27.06	-39.5	-40.3	24.3	0.00e+00	0	41	0	735051776	52	5898
2026-01-24 17:03:52.79	313.38	27.03	-38.9	-39.6	24.8	0.00e+00	27	40	0	737148928	52	5478
2026-01-24 17:03:53.80	313.07	27.01	-39.2	-39.9	24.5	0.00e+00	0	41	0	738197504	52	5695
2026-01-24 17:03:54.81	312.76	26.98	-39.5	-40.3	23.9	0.00e+00	0	41	0	740294656	52	5950
2026-01-24 17:03:55.82	312.45	26.95	-39.7	-40.6	24.0	0.00e+00	0	41	0	742391808	52	6127
2026-01-24 17:03:56.83	312.14	26.92	-39.9	-40.8	23.8	0.00e+00	0	41	0	744488960	52	6260
2026-01-24 17:03:57.84	311.83	26.90	-40.1	-40.9	23.8	0.00e+00	90	41	0	746586112	52	6369
2026-01-24 17:03:58.85	311.52	26.87	-39.9	-40.8	23.9	0.00e+00	0	41	0	747634688	52	6259
2026-01-24 17:03:59.86	311.21	26.84	-40.4	-41.4	23.7	0.00e+00	92	41	0	749731840	52	6695
2026-01-24 17:04:00.87	310.90	26.80	-40.1	-41.0	23.7	0.00e+00	0	40	0	751828992	52	6416
2026-01-24 17:04:01.88	310.59	26.77	-40.4	-41.3	23.5	0.00e+00	0	41	0	753926144	52	6672
2026-01-24 17:04:02.89	310.29	26.74	-40.4	-41.2	23.5	0.00e+00	25	41	0	756023296	52	6611
2026-01-24 17:04:03.90	309.98	26.70	-40.2	-41.1	23.3	0.00e+00	0	41	0	757071872	52	6496
2026-01-24 17:04:04.91	309.68	26.67	-40.1	-41.0	23.8	0.00e+00	16	41	0	759169024	52	6403
2026-01-24 17:04:05.92	309.37	26.63	-40.5	-41.4	23.3	0.00e+00	0	41	0	761266176	52	6752
2026-01-24 17:04:06.93	309.07	26.60	-40.5	-41.4	23.4	0.00e+00	81	41	0	763363328	52	6747
2026-01-24 17:04:07.94	308.77	26.56	-40.3	-41.2	23.6	0.00e+00	0	41	0	765460480	52	6563
2026-01-24 17:04:08.95	308.46	26.52	-40.6	-41.6	23.3	0.00e+00	0	41	0	766509056	52	6858
2026-01-24 17:04:09.96	308.16	26.48	-41.3	-42.3	22.8	0.00e+00	0	41	0	768606208	54	6617
2026-01-24 17:04:10.97	307.86	26.44	-41.6	-42.6	22.3	0.00e+00	0	41	0	770703360	54	6927
2026-01-24 17:04:11.98	307.56	26.40	-41.5	-42.5	22.5	0.00e+00	0	41	0	772800512	56	6100
2026-01-24 17:04:12.99	307.26	26.36	-41.5	-42.5	22.5	0.00e+00	0	41	0	774897664	56	6076
2026-01-24 17:04:14.00	306.96	26.32	-41.5	-42.4	22.8	0.00e+00	75	41	0	775946240	56	6029
2026-01-24 17:04:15.01	306.67	26.27	-41.2	-42.2	22.9	0.00e+00	0	41	0	778043392	56	5866
2026-01-24 17:04:16.02	306.37	26.23	-41.4	-42.4	23.0	0.00e+00	0	41	0	780140544	56	5977
2026-01-24 17:04:17.03	306.07	26.18	-41.1	-42.0	23.1	0.00e+00	0	41	0	782237696	56	5746
2026-01-24 17:04:18.04	305.78	26.14	-40.5	-41.3	23.5	0.00e+00	0	41	0	784334848	54	5959
2026-01-24 17:04:19.05	305.48	26.09	-40.4	-41.3	23.8	0.00e+00	16	41	0	785383424	54	5935
2026-01-24 17:04:20.06	305.19	26.05	-40.4	-41.3	23.6	0.00e+00	0	41	0	787480576	54	5901
2026-01-24 17:04:21.07	304.90	26.00	-40.8	-41.7	23.3	0.00e+00	78	41	0	789577728	54	6223
2026-01-24 17:04:22.08	304.61	25.95	-41.2	-42.2	22.9	0.00e+00	0	41	0	791674880	54	6563
2026-01-24 17:04:23.09	304.31	25.90	-41.6	-42.6	22.7	0.00e+00	0	41	0	793772032	54	6869
2026-01-24 17:04:24.10	304.02	25.85	-41.6	-42.5	22.6	0.00e+00	0	41	0	795869184	54	6833
2026-01-24 17:04:25.10	303.74	25.80	-41.6	-42.6	22.5	0.00e+00	0	41	0	796917760	54	6900
2026-01-24 17:04:26.11	303.45	25.75	-41.8	-42.8	22.4	0.00e+00	0	41	0	799014912	56	6283
2026-01-24 17:04:27.12	303.16	25.70	-41.6	-42.6	22.6	0.00e+00	0	41	0	801112064	56	6116
2026-01-24 17:04:28.13	302.88	25.64	-41.7	-42.8	22.5	0.00e+00	92	41	0	803209216	56	6247
2026-01-24 17:04:29.14	302.59	25.59	-41.8	-42.9	22.4	0.00e+00	0	41	0	805306368	56	6331
2026-01-24 17:04:30.15	302.31	25.54	-41.8	-42.9	22.3	0.00e+00	2	41	0	806354944	56	6335
2026-01-24 17:04:31.16	302.02	25.48	-42.2	-43.4	21.9	0.00e+00	0	41	0	808452096	56	6696
2026-01-24 17:04:32.17	301.74	25.43	-42.2	-43.3	22.0	0.00e+00	0	41	0	810549248	56	6648
2026-01-24 17:04:33.18	301.46	25.37	-42.3	-43.4	21.8	0.00e+00	57	41	0	812646400	56	6768
2026-01-24 17:04:34.19	301.18	25.31	-42.3	-43.4	22.0	0.00e+00	33	41	0	814743552	56	6759
2026-01-24 17:04:35.20	300.90	25.26	-42.2	-43.3	22.0	0.00e+00	74	41	0	815792128	56	6674
2026-01-24 17:04:36.21	300.62	25.20	-42.2	-43.3	21.9	0.00e+00	0	41	0	817889280	56	6666
2026-01-24 17:04:37.22	300.35	25.14	-42.4	-43.5	22.0	0.00e+00	87	41	0	819986432	56	6821
2026-01-24 17:04:38.23	300.07	25.08	-42.0	-43.1	22.1	0.00e+00	0	41	0	822083584	56	6491
2026-01-24 17:04:39.24	299.79	25.02	-42.0	-43.1	22.1	0.00e+00	0	41	0	824180736	56	6466
2026-01-24 17:04:40.25	299.52	24.96	-42.2	-43.3	21.9	0.00e+00	0	41	0	825229312	56	6633
2026-01-24 17:04:41.26	299.25	24.90	-42.3	-43.4	21.7	0.00e+00	0	41	0	827326464	56	6751
2026-01-24 17:04:42.27	298.98	24.84	-42.3	-43.4	21.8	0.00e+00	76	41	0	829423616	56	6693
2026-01-24 17:04:43.28	298.70	24.78	-42.3	-43.3	22.0	0.00e+00	0	41	0	831520768	56	6667
2026-01-24 17:04:44.29	298.43	24.72	-41.7	-42.7	22.5	0.00e+00	90	41	0	833617920	56	6175
2026-01-24 17:04:45.30	298.17	24.65	-41.7	-42.7	22.5	0.00e+00	0	41	0	834666496	56	6200
2026-01-24 17:04:46.31	297.90	24.59	-41.7	-42.7	22.5	0.00e+00	0	41	0	836763648	56	6216
2026-01-24 17:04:47.32	297.63	24.52	-41.7	-42.7	22.5	0.00e+00	0	41	0	838860800	56	6189
2026-01-24 17:04:48.33	297.37	24.46	-41.9	-42.9	22.4	0.00e+00	0	41	0	840957952	56	6384
2026-01-24 17:04:49.34	297.10	24.39	-41.8	-42.7	22.3	0.00e+00	13	41	0	843055104	56	6245
2026-01-24 17:04:50.35	296.84	24.33	-41.5	-42.5	22.6	0.00e+00	0	41	0	844103680	56	6037
2026-01-24 17:04:51.36	296.58	24.26	-41.9	-42.9	22.3	0.00e+00	90	41	0	846200832	56	6320
2026-01-24 17:04:52.37	296.32	24.20	-42.0	-43.0	21.9	0.00e+00	0	41	0	848297984	56	6459
2026-01-24 17:04:53.38	296.06	24.13	-41.9	-42.9	22.4	0.00e+00	0	41	0	850395136	56	6350
2026-01-24 17:04:54.39	295.80	24.06	-41.2	-42.1	22.9	0.00e+00	0	41	0	852492288	56	5785
2026-01-24 17:04:55.40	295.54	23.99	-40.8	-41.7	23.1	0.00e+00	0	41	0	853540864	56	5528
2026-01-24 17:04:56.41	295.28	23.93	-40.6	-41.5	23.5	0.00e+00	0	41	0	855638016	54	6055
2026-01-24 17:04:57.42	295.03	23.86	-41.0	-41.9	23.0	0.00e+00	0	41	0	857735168	54	6355
2026-01-24 17:04:58.43	294.77	23.79	-41.4	-42.4	22.8	0.00e+00	79	41	0	859832320	54	6708
2026-01-24 17:04:59.44	294.52	23.72	-42.2	-43.2	22.1	0.00e+00	0	41	0	861929472	56	6584
2026-01-24 17:05:00.45	294.27	23.65	-42.6	-43.7	21.7	0.00e+00	0	41	0	862978048	56	6993
2026-01-24 17:05:01.46	294.02	23.58	-42.4	-43.4	21.9	0.00e+00	0	41	0	865075200	56	6755
2026-01-24 17:05:02.47	293.77	23.51	-43.2	-44.4	21.5	0.00e+00	0	41	0	867172352	58	6734
2026-01-24 17:05:03.48	293.52	23.43	-43.0	-44.1	21.2	0.00e+00	69	41	0	869269504	58	6516
2026-01-24 17:05:04.49	293.27	23.36	-42.7	-43.9	21.7	0.00e+00	0	41	0	871366656	58	6330
2026-01-24 17:05:05.50	293.02	23.29	-42.3	-43.3	22.1	0.00e+00	81	41	0	873463808	58	5961
2026-01-24 17:05:06.51	292.78	23.22	-42.0	-43.0	22.3	0.00e+00	0	41	0	874512384	58	5751
2026-01-24 17:05:07.52	292.54	23.14	-41.8	-42.8	22.5	0.00e+00	0	41	0	876609536	56	6311
2026-01-24 17:05:08.53	292.29	23.07	-41.3	-42.2	23.0	0.00e+00	0	41	0	878706688	56	5870
2026-01-24 17:05:09.54	292.05	23.00	-41.0	-41.9	23.2	0.00e+00	0	41	0	880803840	56	5676
2026-01-24 17:05:10.55	291.81	22.92	-41.2	-42.1	23.0	0.00e+00	0	41	0	882900992	56	5820
2026-01-24 17:05:11.56	291.57	22.85	-41.1	-42.0	22.9	0.00e+00	0	41	0	883949568	56	5756
2026-01-24 17:05:12.57	291.33	22.78	-41.6	-42.7	22.4	0.00e+00	92	41	0	886046720	56	6196
2026-01-24 17:05:13.58	291.09	22.70	-42.3	-43.4	21.9	0.00e+00	0	41	0	888143872	56	6736
2026-01-24 17:05:14.59	290.86	22.63	-42.4	-43.6	21.8	0.00e+00	9	41	0	890241024	56	6867
2026-01-24 17:05:15.60	290.62	22.55	-42.4	-43.6	21.6	0.00e+00	0	41	0	892338176	56	6872
2026-01-24 17:05:16.61	290.39	22.47	-42.3	-43.4	22.0	0.00e+00	0	41	0	893386752	56	6710
2026-01-24 17:05:17.62	290.16	22.40	-42.0	-43.0	22.3	0.00e+00	0	41	0	895483904	56	6458
2026-01-24 17:05:18.63	289.93	22.32	-41.5	-42.5	22.7	0.00e+00	0	41	0	897581056	56	6073
2026-01-24 17:05:19.64	289.70	22.25	-41.0	-41.9	23.3	0.00e+00	67	41	0	899678208	56	5662
2026-01-24 17:05:20.65	289.47	22.17	-40.5	-41.3	23.4	0.00e+00	0	41	0	901775360	54	5956
2026-01-24 17:05:21.66	289.24	22.09	-40.2	-41.0	23.8	0.00e+00	92	41	0	902823936	54	5736
2026-01-24 17:05:22.67	289.01	22.01	-40.1	-41.0	23.8	0.00e+00	0	41	0	904921088	54	5707
2026-01-24 17:05:23.68	288.79	21.94	-40.1	-40.9	23.9	0.00e+00	0	41	0	907018240	54	5691
2026-01-24 17:05:24.69	288.56	21.86	-40.0	-40.9	23.9	0.00e+00	0	41	0	909115392	54	5658
2026-01-24 17:05:25.70	288.34	21.78	-39.9	-40.8	23.8	0.00e+00	0	41	0	911212544	54	5584
2026-01-24 17:05:26.71	288.12	21.70	-40.0	-40.9	23.7	0.00e+00	5	41	0	912261120	54	5655
2026-01-24 17:05:27.72	287.89	21.62	-40.0	-40.8	23.7	0.00e+00	0	41	0	914358272	52	6315
2026-01-24 17:05:28.73	287.67	21.55	-39.7	-40.6	24.0	0.00e+00	90	41	0	916455424	52	6111
2026-01-24 17:05:29.74	287.46	21.47	-39.7	-40.5	24.1	0.00e+00	0	41	0	918552576	52	6055
2026-01-24 17:05:30.75	287.24	21.39	-39.7	-40.5	23.8	0.00e+00	0	41	0	920649728	52	6088
2026-01-24 17:05:31.76	287.02	21.31	-39.7	-40.5	24.0	0.00e+00	0	41	0	921698304	52	6100
2026-01-24 17:05:32.77	286.81	21.23	-39.7	-40.5	24.0	0.00e+00	0	41	0	923795456	52	6091
2026-01-24 17:05:33.78	286.59	21.15	-39.6	-40.5	24.0	0.00e+00	71	41	0	925892608	52	6040
2026-01-24 17:05:34.79	286.38	21.07	-39.6	-40.4	24.0	0.00e+00	0	41	0	927989760	52	6005
2026-01-24 17:05:35.80	286.17	20.99	-39.6	-40.5	24.0	0.00e+00	78	41	0	930086912	52	6048
2026-01-24 17:05:36.81	285.95	20.91	-39.8	-40.7	23.9	0.00e+00	0	41	0	931135488	52	6175
2026-01-24 17:05:37.82	285.74	20.83	-40.2	-41.1	23.6	0.00e+00	0	41	0	933232640	52	6498
2026-01-24 17:05:38.84	285.53	20.75	-40.6	-41.5	23.5	0.00e+00	0	41	0	935329792	52	6827
2026-01-24 17:05:39.85	285.33	20.67	-40.6	-41.5	23.4	0.00e+00	0	41	0	937426944	52	6796
2026-01-24 17:05:40.86	285.12	20.59	-40.8	-41.7	23.1	0.00e+00	57	41	0	939524096	52	6995
2026-01-24 17:05:41.87	284.91	20.50	-40.7	-41.6	23.1	0.00e+00	0	41	0	941621248	54	6170
2026-01-24 17:05:42.88	284.71	20.42	-40.9	-41.8	23.0	0.00e+00	92	41	0	942669824	54	6296
2026-01-24 17:05:43.89	284.51	20.34	-41.1	-42.0	22.9	0.00e+00	0	41	0	944766976	54	6460
2026-01-24 17:05:44.90	284.30	20.26	-41.3	-42.3	22.5	0.00e+00	17	41	0	946864128	54	6687
2026-01-24 17:05:45.91	284.10	20.18	-41.3	-42.4	22.6	0.00e+00	0	41	0	948961280	54	6695
2026-01-24 17:05:46.92	283.90	20.10	-40.9	-41.8	22.9	0.00e+00	0	41	0	951058432	54	6299
2026-01-24 17:05:47.93	283.70	20.02	-40.6	-41.5	23.3	0.00e+00	57	41	0	952107008	54	6085
2026-01-24 17:05:48.94	283.50	19.93	-40.1	-40.9	23.7	0.00e+00	0	41	0	954204160	54	5674
2026-01-24 17:05:49.95	283.31	19.85	-40.3	-41.2	23.4	0.00e+00	72	41	0	956301312	54	5873
2026-01-24 17:05:50.96	283.11	19.77	-40.5	-41.4	23.4	0.00e+00	0	41	0	958398464	54	5976
2026-01-24 17:05:51.97	282.92	19.69	-40.6	-41.5	23.2	0.00e+00	79	41	0	960495616	54	6056
2026-01-24 17:05:52.98	282.72	19.61	-40.7	-41.7	23.2	0.00e+00	0	41	0	961544192	54	6184
2026-01-24 17:05:53.99	282.53	19.53	-40.5	-41.4	23.3	0.00e+00	0	41	0	963641344	54	6020
2026-01-24 17:05:55.00	282.34	19.44	-40.4	-41.3	23.3	0.00e+00	41	41	0	965738496	54	5903
2026-01-24 17:05:56.01	282.15	19.36	-40.0	-40.8	23.5	0.00e+00	0	41	0	967835648	54	5616
2026-01-24 17:05:57.02	281.96	19.28	-39.8	-40.6	23.9	0.00e+00	90	41	0	969932800	52	6162
2026-01-24 17:05:58.03	281.77	19.20	-39.5	-40.3	24.0	0.00e+00	0	41	0	970981376	52	5930
2026-01-24 17:05:59.04	281.58	19.11	-39.2	-40.0	24.3	0.00e+00	88	41	0	973078528	52	5727
2026-01-24 17:06:00.05	281.40	19.03	-39.2	-40.0	24.3	0.00e+00	0	41	0	975175680	52	5740
2026-01-24 17:06:01.06	281.21	18.95	-39.4	-40.2	24.3	0.00e+00	0	41	0	977272832	52	5844
2026-01-24 17:06:02.07	281.03	18.87	-39.4	-40.2	24.0	0.00e+00	0	41	0	979369984	52	5896
2026-01-24 17:06:03.08	280.84	18.78	-39.5	-40.4	24.1	0.00e+00	0	41	0	981467136	52	5968
2026-01-24 17:06:04.09	280.66	18.70	-39.5	-40.3	24.1	0.00e+00	0	41	0	982515712	52	5917
2026-01-24 17:06:05.10	280.48	18.62	-39.9	-40.7	23.8	0.00e+00	0	41	0	984612864	52	6243
2026-01-24 17:06:06.11	280.30	18.54	-40.2	-41.1	23.6	0.00e+00	87	41	0	986710016	52	6502
2026-01-24 17:06:07.12	280.12	18.45	-40.4	-41.2	23.5	0.00e+00	0	41	0	988807168	52	6615
2026-01-24 17:06:08.13	279.94	18.37	-40.3	-41.2	23.6	0.00e+00	0	41	0	990904320	52	6589
2026-01-24 17:06:09.14	279.76	18.29	-40.4	-41.3	23.4	0.00e+00	0	41	0	991952896	52	6691
2026-01-24 17:06:10.15	279.58	18.20	-40.2	-41.1	23.8	0.00e+00	0	41	0	994050048	52	6468
2026-01-24 17:06:11.16	279.41	18.12	-40.0	-40.8	23.9	0.00e+00	53	41	0	996147200	52	6294
2026-01-24 17:06:12.17	279.23	18.04	-39.9	-40.8	23.8	0.00e+00	0	41	0	998244352	52	6273
2026-01-24 17:06:13.18	279.06	17.96	-39.9	-40.7	23.9	0.00e+00	69	41	0	1000341504	52	6216
2026-01-24 17:06:14.19	278.89	17.87	-40.1	-41.0	23.6	0.00e+00	0	41	0	1001390080	52	6427
2026-01-24 17:06:15.20	278.72	17.79	-40.4	-41.3	23.4	0.00e+00	0	41	0	1003487232	52	6665
2026-01-24 17:06:16.21	278.55	17.71	-40.1	-41.0	23.5	0.00e+00	0	41	0	1005584384	52	6456
2026-01-24 17:06:17.22	278.38	17.63	-40.2	-41.1	23.4	0.00e+00	0	41	0	1007681536	52	6520
2026-01-24 17:06:18.23	278.21	17.54	-40.5	-41.5	23.3	0.00e+00	71	41	0	1009778688	52	6776
2026-01-24 17:06:19.24	278.04	17.46	-40.3	-41.2	23.3	0.00e+00	0	41	0	1010827264	52	6602
2026-01-24 17:06:20.25	277.87	17.38	-40.4	-41.3	23.3	0.00e+00	84	41	0	1012924416	52	6639
2026-01-24 17:06:21.26	277.71	17.30	-40.6	-41.5	23.1	0.00e+00	33	41	0	1015021568	52	6824
2026-01-24 17:06:22.27	277.54	17.21	-40.4	-41.4	23.2	0.00e+00	0	41	0	1017118720	52	6705
2026-01-24 17:06:23.28	277.38	17.13	-40.3	-41.3	23.3	0.00e+00	0	41	0	1019215872	52	6620
2026-01-24 17:06:24.29	277.21	17.05	-40.2	-41.1	23.5	0.00e+00	0	41	0	1020264448	52	6518
2026-01-24 17:06:25.30	277.05	16.97	-39.9	-40.8	23.7	0.00e+00	0	41	0	1022361600	52	6257
2026-01-24 17:06:26.31	276.89	16.88	-39.6	-40.5	23.9	0.00e+00	0	41	0	1024458752	52	6050
2026-01-24 17:06:27.32	276.73	16.80	-39.6	-40.5	23.9	0.00e+00	91	41	0	1026555904	52	6060
2026-01-24 17:06:28.33	276.57	16.72	-39.6	-40.4	23.9	0.00e+00	0	41	0	1028653056	52	6032
2026-01-24 17:06:29.34	276.41	16.64	-39.5	-40.4	23.9	0.00e+00	0	41	0	1029701632	52	5966
2026-01-24 17:06:30.35	276.25	16.55	-40.0	-40.8	23.3	0.00e+00	0	41	0	1031798784	52	6308
2026-01-24 17:06:31.36	276.09	16.47	-40.5	-41.4	23.0	0.00e+00	0	41	0	1033895936	52	6723
2026-01-24 17:06:32.37	275.94	16.39	-41.1	-42.1	22.7	0.00e+00	64	41	0	1035993088	54	6480
2026-01-24 17:06:33.38	275.78	16.31	-41.3	-42.3	22.5	0.00e+00	0	41	0	1038090240	54	6658
2026-01-24 17:06:34.39	275.63	16.23	-41.2	-42.2	22.7	0.00e+00	43	41	0	1039138816	54	6592
2026-01-24 17:06:35.40	275.47	16.14	-41.2	-42.2	22.2	0.00e+00	0	41	0	1041235968	54	6561
2026-01-24 17:06:36.41	275.32	16.06	-40.9	-41.9	22.7	0.00e+00	92	41	0	1043333120	54	6345
2026-01-24 17:06:37.42	275.17	15.98	-40.9	-41.9	22.7	0.00e+00	0	41	0	1045430272	54	6347
2026-01-24 17:06:38.43	275.02	15.90	-40.8	-41.8	22.9	0.00e+00	0	41	0	1047527424	54	6269
2026-01-24 17:06:39.44	274.87	15.82	-40.5	-41.4	23.3	0.00e+00	0	41	0	1049624576	54	5983
2026-01-24 17:06:40.45	274.72	15.74	-40.4	-41.3	23.2	0.00e+00	33	41	0	1050673152	54	5920
2026-01-24 17:06:41.46	274.57	15.65	-40.4	-41.3	23.3	0.00e+00	48	41	0	1052770304	54	5962
2026-01-24 17:06:42.47	274.42	15.57	-40.4	-41.3	23.3	0.00e+00	0	41	0	1054867456	54	5934
2026-01-24 17:06:43.48	274.27	15.49	-40.6	-41.5	23.1	0.00e+00	90	41	0	1056964608	54	6061
2026-01-24 17:06:44.49	274.13	15.41	-40.5	-41.4	23.2	0.00e+00	0	41	0	1059061760	54	5996
2026-01-24 17:06:45.50	273.98	15.33	-40.1	-41.0	23.5	0.00e+00	0	41	0	1060110336	54	5701
2026-01-24 17:06:46.51	273.84	15.25	-40.3	-41.2	23.3	0.00e+00	0	41	0	1062207488	54	5853
2026-01-24 17:06:47.52	273.69	15.17	-40.7	-41.6	22.9	0.00e+00	0	41	0	1064304640	54	6172
2026-01-24 17:06:48.53	273.55	15.09	-41.0	-41.9	22.8	0.00e+00	63	41	0	1066401792	54	6365
2026-01-24 17:06:49.54	273.41	15.00	-41.3	-42.3	22.5	0.00e+00	0	41	0	1068498944	54	6632
2026-01-24 17:06:50.55	273.27	14.92	-41.9	-43.0	22.2	0.00e+00	92	41	0	1069547520	56	6398
2026-01-24 17:06:51.56	273.13	14.84	-42.0	-43.1	22.1	0.00e+00	0	41	0	1071644672	56	6485
2026-01-24 17:06:52.57	272.99	14.76	-42.2	-43.3	21.8	0.00e+00	0	41	0	1073741824	56	6681
2026-01-24 17:06:53.58	272.85	14.68	-42.3	-43.4	21.8	0.00e+00	0	41	0	1075838976	56	6752
2026-01-24 17:06:54.59	272.71	14.60	-42.2	-43.3	22.0	0.00e+00	0	41	0	1077936128	56	6642
2026-01-24 17:06:55.60	272.57	14.52	-41.9	-42.9	22.5	0.00e+00	57	41	0	1078984704	56	6371
2026-01-24 17:06:56.61	272.43	14.44	-41.9	-42.9	22.5	0.00e+00	0	41	0	1081081856	56	6332
2026-01-24 17:06:57.62	272.30	14.36	-41.2	-42.2	22.9	0.00e+00	92	41	0	1083179008	56	5830
2026-01-24 17:06:58.63	272.16	14.28	-40.5	-41.4	23.3	0.00e+00	0	41	0	1085276160	54	5986
2026-01-24 17:06:59.64	272.03	14.20	-40.7	-41.6	23.1	0.00e+00	0	41	0	1087373312	54	6148
2026-01-24 17:07:00.65	271.89	14.12	-40.9	-41.8	23.1	0.00e+00	0	41	0	1088421888	54	6315
2026-01-24 17:07:01.66	271.76	14.04	-40.7	-41.6	23.3	0.00e+00	0	41	0	1090519040	54	6155
2026-01-24 17:07:02.67	271.63	13.96	-40.8	-41.7	23.1	0.00e+00	66	41	0	1092616192	54	6218
2026-01-24 17:07:03.68	271.50	13.88	-40.9	-41.8	23.2	0.00e+00	0	41	0	1094713344	54	6312
2026-01-24 17:07:04.69	271.36	13.80	-41.2	-42.1	22.8	0.00e+00	83	41	0	1096810496	54	6523
2026-01-24 17:07:05.70	271.23	13.72	-41.0	-41.9	22.8	0.00e+00	0	41	0	1097859072	54	6357
2026-01-24 17:07:06.71	271.10	13.65	-41.4	-42.4	22.5	0.00e+00	63	41	0	1099956224	54	6741
2026-01-24 17:07:07.72	270.98	13.57	-41.2	-42.2	22.6	0.00e+00	0	41	0	1102053376	54	6575
2026-01-24 17:07:08.73	270.85	13.49	-41.0	-41.9	22.7	0.00e+00	0	41	0	1104150528	54	6350
2026-01-24 17:07:09.74	270.72	13.41	-41.4	-42.4	22.6	0.00e+00	0	41	0	1106247680	54	6706
2026-01-24 17:07:10.75	270.59	13.33	-40.9	-41.8	23.1	0.00e+00	0	41	0	1107296256	54	6277
2026-01-24 17:07:11.76	270.47	13.25	-40.9	-41.8	23.0	0.00e+00	65	41	0	1109393408	54	6301
2026-01-24 17:07:12.77	270.34	13.17	-41.0	-42.0	22.9	0.00e+00	0	41	0	1111490560	54	6393
2026-01-24 17:07:13.78	270.22	13.09	-41.2	-42.2	22.6	0.00e+00	92	41	0	1113587712	54	6575
2026-01-24 17:07:14.79	270.09	13.02	-40.9	-41.9	22.9	0.00e+00	0	41	0	1115684864	54	6340
2026-01-24 17:07:15.80	269.97	12.94	-41.1	-42.0	22.8	0.00e+00	0	41	0	1117782016	54	6442
2026-01-24 17:07:16.81	269.85	12.86	-41.3	-42.3	22.5	0.00e+00	0	41	0	1118830592	54	6616
2026-01-24 17:07:17.82	269.72	12.78	-41.3	-42.2	22.6	0.00e+00	0	41	0	1120927744	54	6608
2026-01-24 17:07:18.83	269.60	12.70	-41.4	-42.4	22.5	0.00e+00	67	41	0	1123024896	54	6700
2026-01-24 17:07:19.84	269.48	12.63	-41.4	-42.4	22.4	0.00e+00	0	41	0	1125122048	54	6710
2026-01-24 17:07:20.85	269.36	12.55	-41.8	-42.8	22.2	0.00e+00	67	41	0	1127219200	56	6285
2026-01-24 17:07:21.86	269.24	12.47	-41.7	-42.7	22.2	0.00e+00	0	41	0	1128267776	56	6212
2026-01-24 17:07:22.87	269.12	12.39	-42.8	-44.0	21.1	0.00e+00	0	41	0	1130364928	58	6407
2026-01-24 17:07:23.88	269.00	12.32	-41.9	-42.9	22.0	0.00e+00	0	41	0	1132462080	56	6378
2026-01-24 17:07:24.89	268.89	12.24	-42.1	-43.2	21.7	0.00e+00	0	41	0	1134559232	56	6584
2026-01-24 17:07:25.90	268.77	12.16	-42.4	-43.5	21.5	0.00e+00	66	41	0	1136656384	56	6798
2026-01-24 17:07:26.91	268.65	12.09	-42.6	-43.7	21.4	0.00e+00	0	41	0	1137704960	58	6214
2026-01-24 17:07:27.92	268.54	12.01	-42.6	-43.8	21.3	0.00e+00	92	41	0	1139802112	58	6258
2026-01-24 17:07:28.93	268.42	11.93	-43.0	-44.1	21.2	0.00e+00	0	41	0	1141899264	58	6525
2026-01-24 17:07:29.94	268.31	11.86	-42.7	-43.8	21.4	0.00e+00	0	41	0	1143996416	58	6300
2026-01-24 17:07:30.95	268.19	11.78	-42.2	-43.3	22.0	0.00e+00	0	41	0	1146093568	58	5926
2026-01-24 17:07:31.96	268.08	11.70	-42.1	-43.1	22.0	0.00e+00	0	41	0	1147142144	58	5799
2026-01-24 17:07:32.97	267.97	11.63	-42.3	-43.4	21.9	0.00e+00	28	41	0	1149239296	58	6013
2026-01-24 17:07:33.98	267.86	11.55	-41.6	-42.5	22.4	0.00e+00	0	41	0	1151336448	56	6100
2026-01-24 17:07:34.99	267.74	11.48	-41.8	-42.9	21.9	0.00e+00	90	41	0	1153433600	56	6336
2026-01-24 17:07:36.00	267.63	11.40	-41.7	-42.7	22.0	0.00e+00	0	41	0	1155530752	56	6203
2026-01-24 17:07:37.01	267.52	11.33	-41.9	-42.9	21.9	0.00e+00	0	41	0	1156579328	56	6341
2026-01-24 17:07:38.02	267.41	11.25	-41.2	-42.2	22.5	0.00e+00	0	41	0	1158676480	56	5860
2026-01-24 17:07:39.03	267.30	11.17	-42.4	-43.5	21.4	0.00e+00	0	41	0	1160773632	56	6817
2026-01-24 17:07:40.04	267.20	11.10	-41.6	-42.6	22.1	0.00e+00	0	41	0	1162870784	56	6128
2026-01-24 17:07:41.05	267.09	11.02	-42.0	-43.1	22.0	0.00e+00	0	41	0	1164967936	56	6470
2026-01-24 17:07:42.06	266.98	10.95	-42.3	-43.4	21.7	0.00e+00	92	41	0	1166016512	56	6719
2026-01-24 17:07:43.07	266.87	10.87	-42.5	-43.7	21.3	0.00e+00	0	41	0	1168113664	56	6953
2026-01-24 17:07:44.08	266.77	10.80	-42.6	-43.7	21.0	0.00e+00	0	41	0	1170210816	56	6993
2026-01-24 17:07:45.09	266.66	10.73	-42.5	-43.6	21.2	0.00e+00	0	41	0	1172307968	58	6163
2026-01-24 17:07:46.10	266.56	10.65	-42.8	-44.0	21.1	0.00e+00	0	41	0	1174405120	58	6391
2026-01-24 17:07:47.11	266.45	10.58	-42.2	-43.3	21.4	0.00e+00	33	41	0	1175453696	58	5953
2026-01-24 17:07:48.12	266.35	10.50	-42.4	-43.5	21.3	0.00e+00	0	41	0	1177550848	58	6064
2026-01-24 17:07:49.13	266.24	10.43	-41.9	-43.0	21.8	0.00e+00	33	41	0	1179648000	58	5721
2026-01-24 17:07:50.14	266.14	10.35	-41.8	-42.9	21.9	0.00e+00	0	41	0	1181745152	56	6333
2026-01-24 17:07:51.15	266.04	10.28	-42.0	-43.0	21.7	0.00e+00	41	41	0	1183842304	56	6455
2026-01-24 17:07:52.16	265.94	10.21	-41.4	-42.4	22.2	0.00e+00	0	41	0	1185939456	56	6032
2026-01-24 17:07:53.17	265.83	10.13	-41.6	-42.6	22.1	0.00e+00	0	41	0	1186988032	56	6168
2026-01-24 17:07:54.18	265.73	10.06	-41.2	-42.2	22.2	0.00e+00	0	41	0	1189085184	56	5896
2026-01-24 17:07:55.19	265.63	9.99	-41.3	-42.3	22.2	0.00e+00	0	41	0	1191182336	56	5904
2026-01-24 17:07:56.20	265.53	9.91	-41.6	-42.6	22.0	0.00e+00	50	41	0	1193279488	56	6153
2026-01-24 17:07:57.21	265.43	9.84	-41.4	-42.4	22.1	0.00e+00	0	41	0	1195376640	56	6021
