passes_logs/2026/01/24/R4.6S_Anadyr/R4.6S_Anadyr__20260124_171646_NOAA_20_JPSS-1_rec.log

#Pass ID: 20260124_171646_NOAA 20 (JPSS-1)
#Satellite: NOAA 20 (JPSS-1)
#Configuration: NOAA 20
#almurnet v.1.7.20251203
#Start time: 2026-01-24 17:16:50

#Version: 2.2.20231116
#Station: R4.6S_Anadyr
#Location: 177.4865 lon 64.73178 lat
#TLE: 1 43013U 17073A   26024.14064826  .00000217  00000+0  12382-3 0  9992
#TLE: 2 43013  98.7646 324.9839 0001118  26.6217 333.5016 14.19539758424032

#Time	Az	El	Level	Level2	SNR	BER	BlckErr	Temp	State	Recorded	gain1	gain2
2026-01-24 17:16:50.37	30.68	0.19	-53.7	-67.4	3.3	1.54e+00	0	40	0	0	60	84768
2026-01-24 17:16:51.38	30.62	0.24	-53.8	-69.0	3.6	1.51e+00	0	40	104	0	60	102101
2026-01-24 17:16:52.39	30.57	0.30	-53.0	-68.2	3.6	1.51e+00	0	40	104	0	60	92861
2026-01-24 17:16:53.40	30.51	0.35	-52.4	-67.6	3.6	1.51e+00	0	40	104	0	60	87029
2026-01-24 17:16:54.41	30.45	0.41	-52.5	-67.7	3.6	1.51e+00	0	40	104	0	60	87637
2026-01-24 17:16:55.42	30.39	0.46	-52.2	-67.4	3.6	1.51e+00	0	40	104	0	60	84312
2026-01-24 17:16:56.43	30.34	0.52	-52.0	-67.2	3.6	1.51e+00	0	40	104	0	60	82721
2026-01-24 17:16:57.44	30.28	0.57	-51.8	-67.1	3.6	1.51e+00	0	40	104	0	60	81525
2026-01-24 17:16:58.45	30.22	0.63	-52.1	-67.3	3.6	1.51e+00	0	40	104	0	60	83828
2026-01-24 17:16:59.46	30.16	0.68	-51.9	-67.1	3.6	1.51e+00	0	40	104	0	60	81863
2026-01-24 17:17:00.47	30.10	0.74	-51.9	-67.1	3.6	1.51e+00	0	40	104	0	60	82017
2026-01-24 17:17:01.48	30.04	0.79	-51.7	-66.9	3.6	1.51e+00	0	40	104	0	60	80165
2026-01-24 17:17:02.49	29.98	0.85	-51.6	-66.8	3.6	1.51e+00	0	40	104	0	60	78938
2026-01-24 17:17:03.50	29.92	0.90	-51.5	-66.6	3.6	1.51e+00	0	40	104	0	60	77664
2026-01-24 17:17:04.51	29.86	0.96	-51.4	-66.6	3.6	1.51e+00	0	40	104	0	60	77051
2026-01-24 17:17:05.52	29.80	1.01	-51.3	-66.5	3.6	1.51e+00	0	40	104	0	60	76487
2026-01-24 17:17:06.53	29.74	1.07	-51.2	-66.4	3.6	1.51e+00	0	40	104	0	60	75607
2026-01-24 17:17:07.54	29.68	1.12	-51.2	-66.4	3.6	1.51e+00	0	40	104	0	60	75450
2026-01-24 17:17:08.55	29.62	1.18	-51.1	-66.3	3.6	1.51e+00	0	41	104	0	60	74329
2026-01-24 17:17:09.56	29.56	1.24	-50.9	-66.2	3.6	1.51e+00	0	41	104	0	60	73417
2026-01-24 17:17:10.57	29.50	1.29	-50.7	-65.9	3.6	1.51e+00	0	41	104	0	60	71618
2026-01-24 17:17:11.58	29.44	1.35	-50.5	-65.7	3.6	1.51e+00	0	40	104	0	60	69633
2026-01-24 17:17:12.59	29.37	1.40	-50.1	-65.3	3.6	1.51e+00	0	40	104	0	60	66365
2026-01-24 17:17:13.60	29.31	1.46	-50.0	-65.1	3.6	1.51e+00	0	41	104	0	60	64834
2026-01-24 17:17:14.61	29.25	1.52	-50.0	-65.1	3.6	1.51e+00	0	41	104	0	60	65135
2026-01-24 17:17:15.62	29.19	1.57	-50.0	-65.2	3.6	1.51e+00	0	41	104	0	60	65661
2026-01-24 17:17:16.63	29.13	1.63	-50.0	-65.2	3.6	1.51e+00	0	41	104	0	60	65618
2026-01-24 17:17:17.64	29.06	1.68	-50.0	-65.2	3.6	1.51e+00	0	41	104	0	60	65759
2026-01-24 17:17:18.65	29.00	1.74	-50.0	-65.2	3.6	1.51e+00	0	41	104	0	60	65850
2026-01-24 17:17:19.66	28.94	1.80	-50.0	-65.2	3.6	1.51e+00	0	41	104	0	60	65887
2026-01-24 17:17:20.67	28.87	1.85	-50.0	-65.2	3.6	1.51e+00	0	40	104	0	60	65751
2026-01-24 17:17:21.68	28.81	1.91	-50.0	-65.2	3.6	1.51e+00	0	41	104	0	60	65435
2026-01-24 17:17:22.69	28.74	1.97	-50.0	-65.2	3.6	1.51e+00	0	41	104	0	60	65579
2026-01-24 17:17:23.70	28.68	2.03	-50.1	-65.2	3.6	1.51e+00	0	40	104	0	60	66036
2026-01-24 17:17:24.71	28.61	2.08	-50.2	-65.2	3.6	1.51e+00	0	41	104	0	60	65406
2026-01-24 17:17:25.72	28.55	2.14	-50.2	-65.0	3.6	1.51e+00	0	41	104	0	60	64513
2026-01-24 17:17:26.73	28.48	2.20	-50.1	-65.1	3.6	1.51e+00	0	41	104	0	60	64983
2026-01-24 17:17:27.74	28.42	2.25	-50.1	-65.2	3.6	1.51e+00	0	41	104	0	60	65619
2026-01-24 17:17:28.75	28.35	2.31	-50.1	-65.2	3.6	1.51e+00	0	41	104	0	60	66076
2026-01-24 17:17:29.76	28.28	2.37	-50.3	-65.6	3.6	1.51e+00	0	41	104	0	60	68494
2026-01-24 17:17:30.77	28.22	2.43	-50.3	-65.5	3.6	1.51e+00	0	41	104	0	60	67904
2026-01-24 17:17:31.78	28.15	2.48	-50.2	-65.3	3.6	1.51e+00	0	41	104	0	60	66718
2026-01-24 17:17:32.79	28.08	2.54	-50.1	-65.3	3.6	1.51e+00	0	41	104	0	60	66193
2026-01-24 17:17:33.80	28.02	2.60	-50.1	-65.3	3.6	1.51e+00	0	41	104	0	60	66295
2026-01-24 17:17:34.81	27.95	2.66	-50.1	-65.2	3.6	1.51e+00	0	41	104	0	60	65659
2026-01-24 17:17:35.82	27.88	2.71	-50.1	-65.1	3.6	1.51e+00	0	41	104	0	60	65330
2026-01-24 17:17:36.83	27.81	2.77	-50.1	-64.6	3.6	1.51e+00	0	41	104	0	60	61709
2026-01-24 17:17:37.84	27.74	2.83	-50.0	-64.3	3.6	1.51e+00	0	41	104	0	60	59607
2026-01-24 17:17:38.85	27.68	2.89	-50.0	-64.9	3.6	1.51e+00	0	41	104	0	60	63472
2026-01-24 17:17:39.86	27.61	2.95	-50.1	-64.7	3.6	1.51e+00	0	41	104	0	60	62267
2026-01-24 17:17:40.87	27.54	3.00	-50.0	-63.0	3.6	1.51e+00	0	41	104	0	60	50804
2026-01-24 17:17:41.88	27.47	3.06	-49.7	-59.4	4.9	1.02e+00	92	41	104	0	60	33854
2026-01-24 17:17:42.89	27.40	3.12	-49.2	-55.6	8.0	1.23e-01	2	41	0	1048576	60	21763
2026-01-24 17:17:43.90	27.33	3.18	-47.5	-51.1	13.0	3.97e-03	54	41	0	3145728	60	12909
2026-01-24 17:17:44.91	27.26	3.24	-46.0	-48.4	16.0	4.34e-05	0	41	0	5242880	60	9539
2026-01-24 17:17:45.92	27.19	3.30	-49.9	-59.2	4.9	1.00e-01	0	41	0	7340032	60	33026
2026-01-24 17:17:46.93	27.11	3.36	-46.1	-48.4	16.2	1.09e-02	0	41	0	8388608	60	9561
2026-01-24 17:17:47.94	27.04	3.41	-49.9	-64.8	3.6	7.79e-03	0	41	104	10485760	60	62511
2026-01-24 17:17:48.95	26.97	3.47	-50.2	-62.5	3.9	1.47e+00	0	41	104	10485760	60	48096
2026-01-24 17:17:49.96	26.90	3.53	-47.0	-50.2	13.8	4.55e-04	0	41	0	10485760	60	11693
2026-01-24 17:17:50.97	26.83	3.59	-45.5	-47.6	16.8	3.80e-06	13	41	0	12582912	60	8686
2026-01-24 17:17:51.97	26.76	3.65	-46.1	-48.5	15.9	0.00e+00	2	41	0	14680064	60	9606
2026-01-24 17:17:52.98	26.68	3.71	-45.3	-47.3	16.5	0.00e+00	8	41	0	16777216	60	8421
2026-01-24 17:17:53.99	26.61	3.77	-45.8	-48.0	15.9	0.00e+00	0	41	0	17825792	60	9119
2026-01-24 17:17:55.00	26.54	3.83	-44.6	-46.4	18.1	0.00e+00	0	41	0	19922944	60	7526
2026-01-24 17:17:56.01	26.46	3.89	-46.2	-48.7	15.4	0.00e+00	92	41	0	22020096	60	9873
2026-01-24 17:17:57.02	26.39	3.95	-46.3	-48.9	15.8	7.00e-07	69	41	0	24117248	60	10076
2026-01-24 17:17:58.03	26.31	4.01	-45.4	-47.5	16.8	0.00e+00	92	41	0	25165824	60	8573
2026-01-24 17:17:59.04	26.24	4.07	-46.0	-48.4	16.2	0.00e+00	0	41	0	27262976	60	9511
2026-01-24 17:18:00.04	26.16	4.13	-45.2	-47.2	17.4	0.00e+00	69	41	0	29360128	60	8309
2026-01-24 17:18:01.05	26.09	4.19	-46.3	-48.8	15.8	0.00e+00	69	41	0	31457280	60	9974
2026-01-24 17:18:02.06	26.01	4.25	-45.0	-46.9	17.7	0.00e+00	70	41	0	33554432	60	8041
2026-01-24 17:18:03.07	25.94	4.31	-45.2	-47.1	18.0	0.00e+00	92	41	0	35651584	60	8215
2026-01-24 17:18:04.09	25.86	4.37	-44.9	-46.7	17.8	0.00e+00	0	41	0	36700160	60	7817
2026-01-24 17:18:05.10	25.78	4.43	-45.4	-47.5	17.3	0.00e+00	92	41	0	38797312	60	8548
2026-01-24 17:18:06.11	25.71	4.49	-46.2	-48.6	16.1	0.00e+00	0	41	0	40894464	60	9719
2026-01-24 17:18:07.12	25.63	4.55	-44.5	-46.2	18.5	0.00e+00	44	41	0	42991616	60	7413
2026-01-24 17:18:08.13	25.55	4.61	-46.4	-48.9	15.8	0.00e+00	0	41	0	45088768	60	10084
2026-01-24 17:18:09.14	25.47	4.67	-44.9	-46.7	18.5	0.00e+00	7	41	0	46137344	60	7807
2026-01-24 17:18:10.15	25.39	4.73	-45.8	-47.9	16.5	0.00e+00	0	41	0	48234496	60	8981
2026-01-24 17:18:11.16	25.31	4.79	-44.9	-46.7	18.4	0.00e+00	0	41	0	50331648	60	7829
2026-01-24 17:18:12.17	25.24	4.85	-44.8	-46.6	18.2	0.00e+00	90	41	0	52428800	60	7732
2026-01-24 17:18:13.18	25.16	4.91	-46.0	-48.3	16.3	0.00e+00	2	41	0	54525952	60	9392
2026-01-24 17:18:14.19	25.08	4.97	-46.1	-48.3	16.5	0.00e+00	83	41	0	55574528	60	9431
2026-01-24 17:18:15.20	25.00	5.03	-45.8	-47.8	17.8	0.00e+00	14	40	0	57671680	60	8920
2026-01-24 17:18:16.21	24.92	5.09	-45.7	-47.8	17.4	0.00e+00	14	41	0	59768832	60	8860
2026-01-24 17:18:17.22	24.83	5.16	-45.5	-47.6	17.2	0.00e+00	0	41	0	61865984	60	8630
2026-01-24 17:18:18.22	24.75	5.22	-45.1	-47.0	17.5	0.00e+00	2	41	0	63963136	60	8079
2026-01-24 17:18:19.23	24.67	5.28	-45.5	-47.5	17.8	0.00e+00	91	41	0	65011712	60	8573
2026-01-24 17:18:20.24	24.59	5.34	-45.0	-46.9	17.9	0.00e+00	0	40	0	67108864	60	7973
2026-01-24 17:18:21.25	24.51	5.40	-44.9	-46.7	18.1	0.00e+00	91	41	0	69206016	60	7844
2026-01-24 17:18:22.26	24.43	5.46	-45.4	-47.3	17.3	0.00e+00	67	40	0	71303168	60	8403
2026-01-24 17:18:23.27	24.34	5.52	-45.4	-47.4	17.3	0.00e+00	0	40	0	73400320	60	8484
2026-01-24 17:18:24.28	24.26	5.59	-44.3	-45.8	19.2	0.00e+00	0	41	0	74448896	60	7070
2026-01-24 17:18:25.29	24.18	5.65	-45.3	-47.2	17.6	0.00e+00	0	41	0	76546048	60	8288
2026-01-24 17:18:26.30	24.09	5.71	-45.2	-47.1	17.9	0.00e+00	84	40	0	78643200	60	8181
2026-01-24 17:18:27.31	24.01	5.77	-44.0	-45.4	19.4	0.00e+00	0	41	0	80740352	60	6765
2026-01-24 17:18:28.32	23.92	5.84	-44.3	-45.8	19.3	0.00e+00	90	41	0	82837504	60	7057
2026-01-24 17:18:29.33	23.84	5.90	-44.7	-46.4	18.7	0.00e+00	0	41	0	83886080	60	7528
2026-01-24 17:18:30.34	23.75	5.96	-44.4	-46.0	18.9	0.00e+00	0	40	0	85983232	60	7238
2026-01-24 17:18:31.35	23.66	6.02	-44.4	-46.0	18.9	0.00e+00	13	40	0	88080384	60	7229
2026-01-24 17:18:32.36	23.58	6.08	-44.3	-45.8	18.9	0.00e+00	11	40	0	90177536	60	7087
2026-01-24 17:18:33.37	23.49	6.15	-44.9	-46.7	18.3	0.00e+00	0	40	0	92274688	60	7776
2026-01-24 17:18:34.37	23.40	6.21	-45.2	-47.0	18.1	0.00e+00	0	40	0	93323264	60	8101
2026-01-24 17:18:35.38	23.32	6.27	-44.1	-45.6	19.4	0.00e+00	90	41	0	95420416	60	6910
2026-01-24 17:18:36.39	23.23	6.34	-44.1	-45.6	19.4	0.00e+00	13	41	0	97517568	60	6900
2026-01-24 17:18:37.40	23.14	6.40	-44.1	-45.6	19.5	0.00e+00	92	40	0	99614720	60	6872
2026-01-24 17:18:38.41	23.05	6.46	-44.3	-45.8	19.1	0.00e+00	12	41	0	101711872	60	7079
2026-01-24 17:18:39.42	22.96	6.52	-44.2	-45.8	19.3	0.00e+00	68	41	0	103809024	60	7030
2026-01-24 17:18:40.43	22.87	6.59	-44.6	-46.2	18.8	0.00e+00	81	41	0	104857600	60	7371
2026-01-24 17:18:41.44	22.78	6.65	-44.7	-46.3	18.9	0.00e+00	68	41	0	106954752	60	7477
2026-01-24 17:18:42.45	22.69	6.71	-44.3	-45.9	19.1	0.00e+00	92	41	0	109051904	60	7128
2026-01-24 17:18:43.46	22.60	6.78	-44.7	-46.4	18.4	0.00e+00	0	41	0	111149056	60	7582
2026-01-24 17:18:44.47	22.51	6.84	-44.7	-46.4	18.7	0.00e+00	90	41	0	113246208	60	7526
2026-01-24 17:18:45.48	22.42	6.91	-43.5	-44.9	20.1	0.00e+00	0	41	0	114294784	60	6343
2026-01-24 17:18:46.49	22.33	6.97	-44.5	-46.1	18.7	0.00e+00	0	41	0	116391936	60	7317
2026-01-24 17:18:47.50	22.23	7.03	-44.7	-46.3	18.8	0.00e+00	5	40	0	118489088	60	7487
2026-01-24 17:18:48.51	22.14	7.10	-44.4	-46.0	19.1	0.00e+00	5	41	0	120586240	60	7192
2026-01-24 17:18:49.52	22.05	7.16	-44.5	-46.1	19.1	0.00e+00	92	41	0	122683392	60	7299
2026-01-24 17:18:50.53	21.95	7.23	-44.2	-45.7	19.3	0.00e+00	5	41	0	123731968	60	6993
2026-01-24 17:18:51.54	21.86	7.29	-44.1	-45.6	19.5	0.00e+00	90	40	0	125829120	60	6913
2026-01-24 17:18:52.55	21.76	7.35	-44.8	-46.4	18.9	0.00e+00	8	40	0	127926272	60	7535
2026-01-24 17:18:53.56	21.67	7.42	-44.5	-46.1	19.0	0.00e+00	8	41	0	130023424	60	7312
2026-01-24 17:18:54.57	21.57	7.48	-45.1	-46.8	18.4	0.00e+00	9	41	0	132120576	60	7915
2026-01-24 17:18:55.58	21.48	7.55	-45.2	-47.1	18.0	0.00e+00	81	40	0	133169152	60	8143
2026-01-24 17:18:56.59	21.38	7.61	-44.5	-46.0	19.3	0.00e+00	9	40	0	135266304	60	7229
2026-01-24 17:18:57.60	21.28	7.68	-44.9	-46.5	18.7	0.00e+00	0	40	0	137363456	60	7683
2026-01-24 17:18:58.61	21.19	7.74	-44.4	-45.9	19.1	0.00e+00	92	41	0	139460608	60	7151
2026-01-24 17:18:59.62	21.09	7.81	-45.1	-46.8	18.3	0.00e+00	14	41	0	141557760	60	7942
2026-01-24 17:19:00.63	20.99	7.87	-44.4	-46.0	19.1	0.00e+00	90	41	0	142606336	60	7212
2026-01-24 17:19:01.64	20.89	7.94	-45.2	-47.0	18.0	0.00e+00	72	40	0	144703488	60	8099
2026-01-24 17:19:02.65	20.79	8.00	-44.6	-46.1	19.2	0.00e+00	0	41	0	146800640	60	7311
2026-01-24 17:19:03.66	20.69	8.07	-44.7	-46.3	19.0	0.00e+00	82	41	0	148897792	60	7467
2026-01-24 17:19:04.67	20.59	8.13	-44.4	-46.0	19.4	0.00e+00	72	40	0	150994944	60	7186
2026-01-24 17:19:05.68	20.49	8.20	-44.7	-46.3	18.7	0.00e+00	92	40	0	152043520	60	7469
2026-01-24 17:19:06.69	20.39	8.26	-43.6	-45.0	20.1	0.00e+00	5	41	0	154140672	60	6396
2026-01-24 17:19:07.70	20.29	8.33	-43.8	-45.2	19.9	0.00e+00	92	40	0	156237824	60	6575
2026-01-24 17:19:08.71	20.19	8.39	-43.7	-45.1	19.9	0.00e+00	6	40	0	158334976	60	6505
2026-01-24 17:19:09.71	20.09	8.46	-43.6	-45.0	19.8	0.00e+00	5	40	0	160432128	60	6440
2026-01-24 17:19:10.72	19.98	8.53	-43.6	-45.0	20.0	0.00e+00	5	40	0	161480704	60	6421
2026-01-24 17:19:11.73	19.88	8.59	-44.0	-45.4	20.0	0.00e+00	1	40	0	163577856	60	6718
2026-01-24 17:19:12.74	19.78	8.66	-43.8	-45.1	20.1	0.00e+00	92	41	0	165675008	60	6508
2026-01-24 17:19:13.75	19.67	8.72	-43.5	-44.8	20.3	0.00e+00	7	40	0	167772160	60	6301
2026-01-24 17:19:14.76	19.57	8.79	-43.6	-44.9	20.2	0.00e+00	92	40	0	169869312	60	6387
2026-01-24 17:19:15.77	19.46	8.86	-43.9	-45.4	19.9	0.00e+00	14	40	0	171966464	60	6715
2026-01-24 17:19:16.78	19.36	8.92	-43.5	-44.8	20.6	0.00e+00	14	40	0	173015040	60	6255
2026-01-24 17:19:17.79	19.25	8.99	-43.5	-44.8	20.5	0.00e+00	14	41	0	175112192	60	6289
2026-01-24 17:19:18.80	19.14	9.05	-43.7	-45.1	20.2	0.00e+00	15	40	0	177209344	60	6501
2026-01-24 17:19:19.81	19.04	9.12	-43.5	-44.8	20.4	0.00e+00	0	40	0	179306496	60	6268
2026-01-24 17:19:20.81	18.93	9.19	-43.3	-44.6	20.7	0.00e+00	71	40	0	181403648	60	6152
2026-01-24 17:19:21.82	18.82	9.25	-43.8	-45.1	20.2	0.00e+00	91	41	0	182452224	60	6533
2026-01-24 17:19:22.83	18.71	9.32	-43.6	-44.9	20.5	0.00e+00	0	40	0	184549376	60	6378
2026-01-24 17:19:23.84	18.60	9.39	-43.5	-44.9	20.6	0.00e+00	0	40	0	186646528	60	6321
2026-01-24 17:19:24.85	18.49	9.45	-43.9	-45.3	20.0	0.00e+00	72	40	0	188743680	60	6660
2026-01-24 17:19:25.86	18.38	9.52	-43.3	-44.5	20.8	0.00e+00	0	40	0	190840832	60	6086
2026-01-24 17:19:26.87	18.27	9.59	-43.5	-44.8	20.5	0.00e+00	0	40	0	191889408	60	6305
2026-01-24 17:19:27.88	18.16	9.66	-43.6	-44.9	20.3	0.00e+00	0	41	0	193986560	60	6369
2026-01-24 17:19:28.89	18.05	9.72	-43.5	-44.9	20.3	0.00e+00	92	40	0	196083712	60	6331
2026-01-24 17:19:29.90	17.94	9.79	-43.8	-45.2	20.2	0.00e+00	0	41	0	198180864	60	6552
2026-01-24 17:19:30.91	17.82	9.86	-43.1	-44.4	20.7	0.00e+00	92	40	0	200278016	60	5987
2026-01-24 17:19:31.92	17.71	9.92	-43.5	-44.9	20.4	0.00e+00	0	40	0	201326592	60	6324
2026-01-24 17:19:32.93	17.60	9.99	-43.5	-44.9	20.3	0.00e+00	0	40	0	203423744	60	6341
2026-01-24 17:19:33.94	17.48	10.06	-43.4	-44.8	20.4	0.00e+00	0	40	0	205520896	60	6247
2026-01-24 17:19:34.95	17.37	10.13	-43.3	-44.6	20.5	0.00e+00	9	40	0	207618048	60	6113
2026-01-24 17:19:35.96	17.25	10.20	-43.3	-44.6	20.5	0.00e+00	92	41	0	209715200	60	6165
2026-01-24 17:19:36.97	17.13	10.26	-43.4	-44.7	20.4	0.00e+00	0	40	0	210763776	60	6244
2026-01-24 17:19:37.98	17.02	10.33	-43.5	-44.9	20.4	0.00e+00	92	40	0	212860928	60	6325
2026-01-24 17:19:38.99	16.90	10.40	-43.4	-44.7	20.5	0.00e+00	0	40	0	214958080	60	6241
2026-01-24 17:19:40.00	16.78	10.47	-43.6	-44.9	20.4	0.00e+00	16	40	0	217055232	60	6327
2026-01-24 17:19:41.01	16.66	10.54	-43.6	-44.9	20.2	0.00e+00	66	40	0	219152384	60	6379
2026-01-24 17:19:42.02	16.54	10.60	-43.6	-44.9	20.3	0.00e+00	66	41	0	220200960	60	6388
2026-01-24 17:19:43.02	16.43	10.67	-43.8	-45.1	20.4	0.00e+00	0	40	0	222298112	60	6508
2026-01-24 17:19:44.04	16.30	10.74	-43.4	-44.7	20.6	0.00e+00	67	40	0	224395264	60	6202
2026-01-24 17:19:45.05	16.18	10.81	-43.0	-44.2	21.0	0.00e+00	92	40	0	226492416	60	5867
2026-01-24 17:19:46.06	16.06	10.88	-43.1	-44.3	20.9	0.00e+00	67	40	0	228589568	60	5943
2026-01-24 17:19:47.07	15.94	10.94	-43.2	-44.5	20.7	0.00e+00	92	40	0	229638144	60	6080
2026-01-24 17:19:48.08	15.82	11.01	-43.5	-44.9	20.4	0.00e+00	67	40	0	231735296	60	6334
2026-01-24 17:19:49.09	15.69	11.08	-43.7	-45.1	20.3	0.00e+00	2	41	0	233832448	60	6488
2026-01-24 17:19:50.10	15.57	11.15	-43.3	-44.5	20.8	0.00e+00	0	41	0	235929600	60	6081
2026-01-24 17:19:51.11	15.45	11.22	-43.3	-44.5	20.7	0.00e+00	0	41	0	238026752	60	6090
2026-01-24 17:19:52.12	15.32	11.29	-43.3	-44.6	20.7	0.00e+00	92	41	0	240123904	60	6105
2026-01-24 17:19:53.13	15.19	11.36	-43.4	-44.7	20.6	0.00e+00	0	40	0	241172480	60	6196
2026-01-24 17:19:54.13	15.07	11.43	-43.1	-44.4	20.8	0.00e+00	90	40	0	243269632	60	5981
2026-01-24 17:19:55.14	14.94	11.49	-43.0	-44.2	21.1	0.00e+00	0	40	0	245366784	60	5836
2026-01-24 17:19:56.15	14.82	11.56	-43.1	-44.4	20.9	0.00e+00	2	40	0	247463936	60	5987
2026-01-24 17:19:57.16	14.69	11.63	-43.0	-44.2	21.1	0.00e+00	2	41	0	249561088	60	5882
2026-01-24 17:19:58.17	14.56	11.70	-43.1	-44.3	20.9	0.00e+00	15	41	0	250609664	60	5931
2026-01-24 17:19:59.18	14.43	11.77	-42.9	-44.1	21.3	0.00e+00	78	41	0	252706816	60	5778
2026-01-24 17:20:00.19	14.30	11.84	-43.0	-44.2	21.0	0.00e+00	18	41	0	254803968	60	5875
2026-01-24 17:20:01.20	14.17	11.91	-43.4	-44.6	20.7	0.00e+00	92	41	0	256901120	60	6163
2026-01-24 17:20:02.21	14.04	11.98	-43.1	-44.3	21.0	0.00e+00	0	41	0	258998272	60	5941
2026-01-24 17:20:03.22	13.91	12.05	-42.8	-43.9	21.2	0.00e+00	0	41	0	260046848	58	6376
2026-01-24 17:20:04.23	13.77	12.12	-42.9	-44.1	21.1	0.00e+00	15	40	0	262144000	58	6515
2026-01-24 17:20:05.24	13.64	12.19	-42.7	-43.9	21.2	0.00e+00	65	41	0	264241152	58	6351
2026-01-24 17:20:06.24	13.51	12.25	-43.0	-44.2	20.9	0.00e+00	2	40	0	266338304	58	6562
2026-01-24 17:20:07.25	13.37	12.32	-42.9	-44.1	20.5	0.00e+00	64	40	0	268435456	58	6501
2026-01-24 17:20:08.26	13.24	12.39	-42.5	-43.6	21.5	0.00e+00	90	40	0	269484032	58	6162
2026-01-24 17:20:09.27	13.10	12.46	-42.5	-43.7	21.3	0.00e+00	66	40	0	271581184	58	6199
2026-01-24 17:20:10.28	12.97	12.53	-43.2	-44.5	20.7	0.00e+00	47	40	0	273678336	58	6816
2026-01-24 17:20:11.29	12.83	12.60	-42.5	-43.7	21.6	0.00e+00	0	40	0	275775488	58	6179
2026-01-24 17:20:12.30	12.69	12.67	-42.8	-43.9	21.3	0.00e+00	1	40	0	277872640	58	6382
2026-01-24 17:20:13.31	12.55	12.74	-42.8	-43.9	21.2	0.00e+00	2	40	0	278921216	58	6387
2026-01-24 17:20:14.32	12.41	12.81	-42.8	-43.9	21.4	0.00e+00	0	41	0	281018368	58	6386
2026-01-24 17:20:15.33	12.28	12.88	-42.4	-43.5	21.7	0.00e+00	92	40	0	283115520	58	6078
2026-01-24 17:20:16.34	12.13	12.95	-42.4	-43.6	21.6	0.00e+00	0	41	0	285212672	58	6110
2026-01-24 17:20:17.35	11.99	13.02	-42.5	-43.7	21.5	0.00e+00	92	41	0	287309824	58	6193
2026-01-24 17:20:18.36	11.85	13.09	-42.6	-43.7	21.4	0.00e+00	0	41	0	288358400	58	6224
2026-01-24 17:20:19.37	11.71	13.16	-42.3	-43.4	21.6	0.00e+00	0	40	0	290455552	58	5967
2026-01-24 17:20:20.38	11.57	13.23	-42.2	-43.2	22.0	0.00e+00	2	40	0	292552704	58	5890
2026-01-24 17:20:21.38	11.42	13.30	-42.0	-43.1	22.1	0.00e+00	11	41	0	294649856	58	5783
2026-01-24 17:20:22.39	11.28	13.37	-42.2	-43.3	21.7	0.00e+00	22	41	0	296747008	58	5962
2026-01-24 17:20:23.40	11.13	13.44	-42.2	-43.3	21.8	0.00e+00	10	41	0	297795584	58	5938
2026-01-24 17:20:24.41	10.99	13.51	-42.2	-43.3	21.8	0.00e+00	92	41	0	299892736	58	5958
2026-01-24 17:20:25.42	10.84	13.58	-42.4	-43.5	21.6	0.00e+00	70	41	0	301989888	58	6052
2026-01-24 17:20:26.43	10.69	13.65	-42.5	-43.6	21.7	0.00e+00	2	41	0	304087040	58	6138
2026-01-24 17:20:27.44	10.55	13.72	-42.2	-43.3	21.8	0.00e+00	0	41	0	306184192	58	5927
2026-01-24 17:20:28.45	10.40	13.79	-42.3	-43.4	21.8	0.00e+00	66	40	0	308281344	58	6005
2026-01-24 17:20:29.46	10.25	13.86	-42.1	-43.2	21.8	0.00e+00	74	41	0	309329920	58	5845
2026-01-24 17:20:30.47	10.10	13.93	-42.3	-43.4	21.7	0.00e+00	65	40	0	311427072	58	5999
2026-01-24 17:20:31.48	9.95	14.00	-42.5	-43.6	21.6	0.00e+00	92	40	0	313524224	58	6122
2026-01-24 17:20:32.49	9.80	14.07	-42.7	-43.9	21.5	0.00e+00	6	40	0	315621376	58	6329
2026-01-24 17:20:33.50	9.64	14.14	-42.7	-43.9	21.3	0.00e+00	90	41	0	317718528	58	6343
2026-01-24 17:20:34.51	9.49	14.21	-43.1	-44.2	21.3	0.00e+00	6	41	0	318767104	58	6613
2026-01-24 17:20:35.52	9.34	14.28	-43.0	-44.2	21.3	0.00e+00	4	40	0	320864256	58	6587
2026-01-24 17:20:36.53	9.18	14.35	-42.7	-43.9	21.4	0.00e+00	0	40	0	322961408	58	6343
2026-01-24 17:20:37.54	9.03	14.42	-42.7	-43.8	21.6	0.00e+00	16	41	0	325058560	58	6284
2026-01-24 17:20:38.55	8.87	14.49	-42.6	-43.8	21.6	0.00e+00	88	40	0	327155712	58	6260
2026-01-24 17:20:39.56	8.71	14.56	-42.7	-43.8	21.5	0.00e+00	6	41	0	328204288	58	6291
2026-01-24 17:20:40.57	8.56	14.63	-43.1	-44.3	21.2	0.00e+00	90	41	0	330301440	58	6621
2026-01-24 17:20:41.58	8.40	14.70	-42.8	-43.9	21.4	0.00e+00	5	41	0	332398592	58	6379
2026-01-24 17:20:42.59	8.24	14.77	-42.6	-43.8	21.5	0.00e+00	16	41	0	334495744	58	6272
2026-01-24 17:20:43.60	8.08	14.84	-42.7	-43.9	21.3	0.00e+00	14	41	0	336592896	58	6347
2026-01-24 17:20:44.61	7.92	14.91	-42.9	-44.1	21.2	0.00e+00	15	41	0	337641472	58	6509
2026-01-24 17:20:45.62	7.76	14.98	-42.8	-44.0	21.4	0.00e+00	17	41	0	339738624	58	6419
2026-01-24 17:20:46.63	7.59	15.05	-43.0	-44.2	21.1	0.00e+00	71	41	0	341835776	58	6583
2026-01-24 17:20:47.64	7.43	15.12	-42.9	-44.1	21.0	0.00e+00	91	41	0	343932928	58	6531
2026-01-24 17:20:48.65	7.27	15.19	-43.2	-44.5	21.0	0.00e+00	3	41	0	346030080	58	6787
2026-01-24 17:20:49.66	7.10	15.26	-43.0	-44.2	21.0	0.00e+00	26	41	0	347078656	58	6597
2026-01-24 17:20:50.67	6.94	15.33	-43.4	-44.6	20.8	0.00e+00	0	41	0	349175808	58	6893
2026-01-24 17:20:51.68	6.77	15.40	-42.8	-43.9	21.3	0.00e+00	0	41	0	351272960	58	6379
2026-01-24 17:20:52.69	6.61	15.47	-42.9	-44.1	21.2	0.00e+00	0	41	0	353370112	58	6494
2026-01-24 17:20:53.70	6.44	15.54	-42.8	-44.0	21.3	0.00e+00	0	41	0	355467264	58	6403
2026-01-24 17:20:54.71	6.27	15.61	-42.5	-43.6	21.7	0.00e+00	90	41	0	356515840	58	6129
2026-01-24 17:20:55.72	6.10	15.68	-42.7	-43.8	21.5	0.00e+00	6	41	0	358612992	58	6293
2026-01-24 17:20:56.73	5.93	15.75	-42.6	-43.8	21.5	0.00e+00	64	40	0	360710144	58	6260
2026-01-24 17:20:57.73	5.76	15.81	-42.7	-43.8	21.5	0.00e+00	13	41	0	362807296	58	6285
2026-01-24 17:20:58.74	5.59	15.88	-42.6	-43.8	21.5	0.00e+00	3	41	0	364904448	58	6247
2026-01-24 17:20:59.75	5.42	15.95	-42.8	-43.9	21.3	0.00e+00	0	40	0	365953024	58	6370
2026-01-24 17:21:00.76	5.24	16.02	-42.9	-44.0	21.4	0.00e+00	11	41	0	368050176	58	6433
2026-01-24 17:21:01.77	5.07	16.09	-42.6	-43.7	21.6	0.00e+00	92	41	0	370147328	58	6184
2026-01-24 17:21:02.78	4.89	16.16	-42.7	-43.8	21.5	0.00e+00	4	41	0	372244480	58	6281
2026-01-24 17:21:03.79	4.72	16.23	-42.8	-43.9	21.2	0.00e+00	92	41	0	374341632	58	6372
2026-01-24 17:21:04.80	4.54	16.30	-42.8	-44.0	21.4	0.00e+00	17	41	0	376438784	58	6424
2026-01-24 17:21:05.81	4.36	16.37	-42.7	-43.8	21.3	0.00e+00	65	41	0	377487360	58	6292
2026-01-24 17:21:06.82	4.19	16.43	-43.1	-44.3	21.2	0.00e+00	64	41	0	379584512	58	6656
2026-01-24 17:21:07.83	4.01	16.50	-43.2	-44.3	21.3	0.00e+00	66	41	0	381681664	58	6662
2026-01-24 17:21:08.84	3.83	16.57	-43.2	-44.3	21.2	0.00e+00	13	41	0	383778816	58	6684
2026-01-24 17:21:09.85	3.65	16.64	-42.9	-44.1	21.3	0.00e+00	0	41	0	385875968	58	6480
2026-01-24 17:21:10.85	3.47	16.71	-42.7	-43.9	21.5	0.00e+00	92	41	0	386924544	58	6341
2026-01-24 17:21:11.86	3.28	16.77	-43.0	-44.2	21.3	0.00e+00	0	41	0	389021696	58	6577
2026-01-24 17:21:12.88	3.10	16.84	-43.4	-44.6	20.9	0.00e+00	44	41	0	391118848	58	6889
2026-01-24 17:21:13.89	2.92	16.91	-43.1	-44.3	21.2	0.00e+00	0	41	0	393216000	58	6633
2026-01-24 17:21:14.89	2.73	16.98	-43.0	-44.2	21.3	0.00e+00	2	41	0	395313152	58	6548
2026-01-24 17:21:15.91	2.54	17.05	-42.9	-44.1	21.3	0.00e+00	0	41	0	396361728	58	6509
2026-01-24 17:21:16.91	2.36	17.11	-42.8	-43.9	21.4	0.00e+00	0	41	0	398458880	58	6374
2026-01-24 17:21:17.92	2.17	17.18	-42.7	-43.9	21.5	0.00e+00	92	41	0	400556032	58	6332
2026-01-24 17:21:18.93	1.98	17.25	-42.8	-43.9	21.4	0.00e+00	0	41	0	402653184	58	6384
2026-01-24 17:21:19.94	1.80	17.31	-43.1	-44.4	21.2	0.00e+00	89	41	0	404750336	58	6707
2026-01-24 17:21:20.95	1.61	17.38	-42.6	-43.7	21.6	0.00e+00	11	41	0	405798912	58	6209
2026-01-24 17:21:21.96	1.41	17.45	-42.4	-43.5	21.8	0.00e+00	2	41	0	407896064	58	6061
2026-01-24 17:21:22.97	1.22	17.52	-42.4	-43.5	21.9	0.00e+00	0	41	0	409993216	58	6051
2026-01-24 17:21:23.98	1.03	17.58	-42.5	-43.5	21.9	0.00e+00	17	41	0	412090368	58	6103
2026-01-24 17:21:24.99	0.84	17.65	-42.7	-43.8	21.8	0.00e+00	92	41	0	414187520	58	6252
2026-01-24 17:21:26.00	0.64	17.71	-42.3	-43.4	22.2	0.00e+00	17	41	0	415236096	58	5993
2026-01-24 17:21:27.01	0.45	17.78	-42.1	-43.2	22.4	0.00e+00	92	41	0	417333248	58	5843
2026-01-24 17:21:28.03	0.25	17.85	-42.3	-43.3	22.5	0.00e+00	12	41	0	419430400	58	5921
2026-01-24 17:21:29.03	0.05	17.91	-42.2	-43.2	22.5	0.00e+00	0	41	0	421527552	58	5867
2026-01-24 17:21:30.04	359.86	17.98	-42.2	-43.2	22.4	0.00e+00	65	41	0	423624704	58	5863
2026-01-24 17:21:31.05	359.66	18.04	-42.1	-43.1	22.5	0.00e+00	0	41	0	424673280	58	5786
2026-01-24 17:21:32.06	359.46	18.11	-41.8	-42.8	22.6	0.00e+00	85	41	0	426770432	58	5621
2026-01-24 17:21:33.07	359.26	18.17	-42.2	-43.2	22.4	0.00e+00	65	41	0	428867584	58	5856
2026-01-24 17:21:34.09	359.05	18.24	-41.5	-42.5	23.1	0.00e+00	92	41	0	430964736	56	6043
2026-01-24 17:21:35.09	358.85	18.30	-41.1	-42.0	23.4	0.00e+00	0	41	0	433061888	56	5747
2026-01-24 17:21:36.11	358.65	18.37	-40.9	-41.8	23.4	0.00e+00	90	41	0	434110464	56	5591
2026-01-24 17:21:37.11	358.45	18.43	-40.9	-41.8	23.6	0.00e+00	0	41	0	436207616	54	6289
2026-01-24 17:21:38.12	358.24	18.49	-40.9	-41.8	23.5	0.00e+00	0	41	0	438304768	54	6304
2026-01-24 17:21:39.13	358.04	18.56	-40.8	-41.7	23.6	0.00e+00	0	41	0	440401920	54	6231
2026-01-24 17:21:40.14	357.83	18.62	-40.6	-41.4	23.7	0.00e+00	18	41	0	442499072	54	6024
2026-01-24 17:21:41.15	357.62	18.68	-40.5	-41.4	23.7	0.00e+00	91	41	0	444596224	54	5974
2026-01-24 17:21:42.16	357.42	18.75	-40.7	-41.6	23.6	0.00e+00	0	41	0	445644800	54	6126
2026-01-24 17:21:43.17	357.21	18.81	-40.5	-41.4	23.7	0.00e+00	90	41	0	447741952	54	6023
2026-01-24 17:21:44.18	357.00	18.87	-40.4	-41.2	23.8	0.00e+00	13	41	0	449839104	54	5896
2026-01-24 17:21:45.19	356.79	18.94	-40.4	-41.3	23.9	0.00e+00	69	41	0	451936256	54	5927
2026-01-24 17:21:46.20	356.57	19.00	-40.3	-41.2	24.0	0.00e+00	0	41	0	454033408	54	5833
2026-01-24 17:21:47.21	356.36	19.06	-40.4	-41.3	23.8	0.00e+00	2	41	0	455081984	54	5919
2026-01-24 17:21:48.22	356.15	19.12	-40.5	-41.4	23.7	0.00e+00	91	41	0	457179136	54	5976
2026-01-24 17:21:49.23	355.93	19.18	-40.2	-41.0	23.5	0.00e+00	61	41	0	459276288	54	5734
2026-01-24 17:21:50.24	355.72	19.24	-40.0	-40.8	24.2	0.00e+00	91	41	0	461373440	54	5628
2026-01-24 17:21:51.25	355.50	19.30	-39.9	-40.8	24.1	0.00e+00	68	41	0	463470592	54	5594
2026-01-24 17:21:52.26	355.28	19.36	-40.2	-41.1	24.0	0.00e+00	0	41	0	464519168	54	5764
2026-01-24 17:21:53.27	355.07	19.42	-40.4	-41.3	23.9	0.00e+00	67	41	0	466616320	54	5923
2026-01-24 17:21:54.28	354.85	19.48	-40.1	-41.0	24.1	0.00e+00	0	41	0	468713472	54	5710
2026-01-24 17:21:55.29	354.63	19.54	-40.2	-41.1	23.9	0.00e+00	19	41	0	470810624	54	5777
2026-01-24 17:21:56.30	354.41	19.60	-39.9	-40.7	24.3	0.00e+00	2	41	0	472907776	54	5533
2026-01-24 17:21:57.31	354.19	19.66	-39.9	-40.7	24.2	0.00e+00	92	41	0	473956352	54	5537
2026-01-24 17:21:58.32	353.96	19.72	-39.9	-40.7	24.4	0.00e+00	0	41	0	476053504	54	5542
2026-01-24 17:21:59.33	353.74	19.78	-40.7	-41.5	23.8	0.00e+00	53	41	0	478150656	54	6102
2026-01-24 17:22:00.34	353.52	19.84	-40.6	-41.5	23.8	0.00e+00	0	41	0	480247808	54	6038
2026-01-24 17:22:01.35	353.29	19.89	-40.0	-40.9	24.2	0.00e+00	12	41	0	482344960	54	5649
2026-01-24 17:22:02.36	353.07	19.95	-40.5	-41.3	23.9	0.00e+00	18	41	0	483393536	54	5954
2026-01-24 17:22:03.37	352.84	20.01	-40.4	-41.3	24.0	0.00e+00	0	41	0	485490688	54	5899
2026-01-24 17:22:04.37	352.62	20.06	-40.2	-41.0	24.1	0.00e+00	92	41	0	487587840	54	5761
2026-01-24 17:22:05.38	352.39	20.12	-40.2	-41.0	24.1	0.00e+00	63	41	0	489684992	54	5738
2026-01-24 17:22:06.39	352.16	20.18	-40.2	-41.0	24.1	0.00e+00	92	41	0	491782144	54	5749
2026-01-24 17:22:07.40	351.93	20.23	-40.2	-41.1	24.1	0.00e+00	11	41	0	492830720	54	5764
2026-01-24 17:22:08.41	351.70	20.29	-40.2	-41.0	24.0	0.00e+00	13	41	0	494927872	54	5758
2026-01-24 17:22:09.42	351.47	20.34	-40.5	-41.3	24.0	0.00e+00	74	41	0	497025024	54	5958
2026-01-24 17:22:10.43	351.23	20.40	-41.1	-41.9	23.6	0.00e+00	0	41	0	499122176	54	6389
2026-01-24 17:22:11.44	351.00	20.45	-40.6	-41.5	24.0	0.00e+00	92	41	0	501219328	54	6055
2026-01-24 17:22:12.45	350.77	20.50	-40.5	-41.4	23.9	0.00e+00	63	41	0	502267904	54	6004
2026-01-24 17:22:13.46	350.53	20.56	-40.4	-41.3	23.9	0.00e+00	90	41	0	504365056	54	5904
2026-01-24 17:22:14.47	350.30	20.61	-40.4	-41.3	23.8	0.00e+00	0	41	0	506462208	54	5923
2026-01-24 17:22:15.48	350.06	20.66	-40.4	-41.2	24.0	0.00e+00	0	41	0	508559360	54	5884
2026-01-24 17:22:16.48	349.83	20.72	-40.4	-41.2	23.9	0.00e+00	3	41	0	510656512	54	5892
2026-01-24 17:22:17.49	349.59	20.77	-40.2	-41.1	24.0	0.00e+00	6	41	0	512753664	54	5790
2026-01-24 17:22:18.50	349.35	20.82	-40.3	-41.2	24.0	0.00e+00	6	41	0	513802240	54	5835
2026-01-24 17:22:19.51	349.11	20.87	-40.8	-41.6	23.9	0.00e+00	4	41	0	515899392	54	6147
2026-01-24 17:22:20.52	348.87	20.92	-40.7	-41.6	24.1	0.00e+00	92	41	0	517996544	54	6134
2026-01-24 17:22:21.53	348.63	20.97	-40.5	-41.4	24.1	0.00e+00	17	41	0	520093696	54	5969
2026-01-24 17:22:22.54	348.38	21.02	-40.3	-41.2	24.1	0.00e+00	83	41	0	522190848	54	5832
2026-01-24 17:22:23.55	348.14	21.07	-40.3	-41.1	24.1	0.00e+00	11	41	0	523239424	54	5802
2026-01-24 17:22:24.56	347.90	21.12	-40.7	-41.5	23.8	0.00e+00	7	41	0	525336576	54	6087
2026-01-24 17:22:25.57	347.65	21.16	-40.4	-41.3	23.3	0.00e+00	0	41	0	527433728	54	5915
2026-01-24 17:22:26.58	347.41	21.21	-40.0	-40.8	24.3	0.00e+00	74	41	0	529530880	54	5591
2026-01-24 17:22:27.59	347.16	21.26	-40.0	-40.9	24.3	0.00e+00	92	41	0	531628032	54	5640
2026-01-24 17:22:28.60	346.92	21.31	-40.1	-41.0	24.2	0.00e+00	68	41	0	532676608	54	5699
2026-01-24 17:22:29.61	346.67	21.35	-40.1	-41.0	24.1	0.00e+00	92	41	0	534773760	54	5737
2026-01-24 17:22:30.62	346.42	21.40	-40.2	-41.1	24.1	0.00e+00	17	41	0	536870912	54	5765
2026-01-24 17:22:31.63	346.17	21.44	-39.9	-40.7	24.4	0.00e+00	76	41	0	538968064	54	5555
2026-01-24 17:22:32.64	345.92	21.49	-39.7	-40.5	24.6	0.00e+00	72	41	0	541065216	52	6071
2026-01-24 17:22:33.65	345.67	21.53	-39.5	-40.4	24.7	0.00e+00	0	41	0	542113792	52	5968
2026-01-24 17:22:34.66	345.42	21.58	-39.4	-40.2	24.8	0.00e+00	90	41	0	544210944	52	5856
2026-01-24 17:22:35.67	345.17	21.62	-39.4	-40.2	24.7	0.00e+00	3	41	0	546308096	52	5835
2026-01-24 17:22:36.68	344.92	21.66	-39.8	-40.6	24.4	0.00e+00	90	41	0	548405248	52	6154
2026-01-24 17:22:37.68	344.66	21.70	-40.6	-41.4	24.3	0.00e+00	4	41	0	550502400	52	6759
2026-01-24 17:22:38.69	344.41	21.75	-40.3	-41.2	24.2	0.00e+00	2	41	0	551550976	52	6578
2026-01-24 17:22:39.71	344.15	21.79	-40.3	-41.2	24.4	0.00e+00	5	41	0	553648128	52	6543
2026-01-24 17:22:40.71	343.90	21.83	-39.9	-40.7	24.6	0.00e+00	0	41	0	555745280	52	6202
2026-01-24 17:22:41.72	343.64	21.87	-39.8	-40.6	24.6	0.00e+00	2	41	0	557842432	52	6161
2026-01-24 17:22:42.73	343.39	21.91	-39.6	-40.4	24.8	0.00e+00	1	41	0	559939584	52	5983
2026-01-24 17:22:43.74	343.13	21.95	-39.6	-40.4	24.7	0.00e+00	92	41	0	560988160	52	6022
2026-01-24 17:22:44.75	342.87	21.98	-39.7	-40.5	24.6	0.00e+00	2	41	0	563085312	52	6056
2026-01-24 17:22:45.76	342.61	22.02	-40.0	-40.9	24.6	0.00e+00	63	41	0	565182464	52	6321
2026-01-24 17:22:46.77	342.35	22.06	-40.2	-41.0	24.5	0.00e+00	3	41	0	567279616	52	6446
2026-01-24 17:22:47.78	342.09	22.10	-40.3	-41.1	24.6	0.00e+00	6	41	0	569376768	52	6505
2026-01-24 17:22:48.79	341.83	22.13	-40.5	-41.4	24.4	0.00e+00	0	41	0	570425344	52	6703
2026-01-24 17:22:49.80	341.57	22.17	-40.2	-41.0	24.4	0.00e+00	69	41	0	572522496	52	6432
2026-01-24 17:22:50.81	341.31	22.20	-40.2	-41.0	24.4	0.00e+00	90	41	0	574619648	52	6455
2026-01-24 17:22:51.82	341.05	22.24	-40.2	-41.0	24.4	0.00e+00	18	41	0	576716800	52	6449
2026-01-24 17:22:52.83	340.79	22.27	-40.5	-41.3	24.0	0.00e+00	91	41	0	578813952	52	6676
2026-01-24 17:22:53.84	340.52	22.30	-40.3	-41.1	24.5	0.00e+00	63	41	0	580911104	54	5806
2026-01-24 17:22:54.85	340.26	22.34	-40.6	-41.4	24.3	0.00e+00	62	41	0	581959680	54	6009
2026-01-24 17:22:55.86	339.99	22.37	-40.4	-41.2	24.2	0.00e+00	67	41	0	584056832	54	5866
2026-01-24 17:22:56.87	339.73	22.40	-40.5	-41.4	23.8	0.00e+00	0	41	0	586153984	54	5987
2026-01-24 17:22:57.88	339.46	22.43	-40.8	-41.7	23.6	0.00e+00	91	41	0	588251136	54	6232
2026-01-24 17:22:58.88	339.20	22.46	-41.4	-42.4	23.2	0.00e+00	0	41	0	590348288	54	6695
2026-01-24 17:22:59.90	338.93	22.49	-41.6	-42.6	22.9	0.00e+00	91	41	0	591396864	54	6894
2026-01-24 17:23:00.90	338.67	22.52	-41.8	-42.8	22.9	0.00e+00	0	41	0	593494016	56	6274
2026-01-24 17:23:01.92	338.40	22.55	-41.3	-42.2	23.2	0.00e+00	0	41	0	595591168	56	5892
2026-01-24 17:23:02.93	338.13	22.57	-41.4	-42.4	23.2	0.00e+00	0	41	0	597688320	56	5991
2026-01-24 17:23:03.94	337.86	22.60	-41.5	-42.4	23.1	0.00e+00	13	41	0	599785472	56	6015
2026-01-24 17:23:04.94	337.59	22.63	-41.5	-42.4	23.1	0.00e+00	0	41	0	600834048	56	6033
2026-01-24 17:23:05.95	337.32	22.65	-41.8	-42.7	22.7	0.00e+00	17	41	0	602931200	56	6227
2026-01-24 17:23:06.96	337.05	22.68	-41.8	-42.8	22.7	0.00e+00	92	41	0	605028352	56	6279
2026-01-24 17:23:07.97	336.78	22.70	-42.0	-43.0	22.5	0.00e+00	19	41	0	607125504	56	6416
2026-01-24 17:23:08.98	336.51	22.73	-42.0	-43.0	22.7	0.00e+00	90	41	0	609222656	56	6399
2026-01-24 17:23:09.99	336.24	22.75	-41.8	-42.7	23.0	0.00e+00	20	41	0	610271232	56	6225
2026-01-24 17:23:11.00	335.97	22.77	-41.5	-42.4	23.2	0.00e+00	18	41	0	612368384	56	5997
2026-01-24 17:23:12.01	335.70	22.79	-41.5	-42.4	23.1	0.00e+00	9	41	0	614465536	56	6028
2026-01-24 17:23:13.02	335.42	22.81	-41.6	-42.6	23.0	0.00e+00	70	41	0	616562688	56	6130
2026-01-24 17:23:14.03	335.15	22.83	-41.9	-42.9	22.7	0.00e+00	92	41	0	618659840	56	6368
2026-01-24 17:23:15.04	334.88	22.85	-42.0	-43.0	22.6	0.00e+00	0	41	0	619708416	56	6450
2026-01-24 17:23:16.05	334.60	22.87	-42.6	-43.7	22.0	0.00e+00	90	41	0	621805568	56	6939
2026-01-24 17:23:17.06	334.33	22.89	-42.5	-43.6	22.1	0.00e+00	64	41	0	623902720	56	6910
2026-01-24 17:23:18.06	334.06	22.91	-42.4	-43.4	22.3	0.00e+00	63	41	0	625999872	56	6769
2026-01-24 17:23:19.07	333.78	22.92	-42.5	-43.5	22.1	0.00e+00	0	40	0	628097024	56	6823
2026-01-24 17:23:20.08	333.51	22.94	-42.3	-43.3	22.3	0.00e+00	0	41	0	629145600	56	6662
2026-01-24 17:23:21.09	333.23	22.95	-42.4	-43.4	22.2	0.00e+00	90	41	0	631242752	56	6734
2026-01-24 17:23:22.10	332.96	22.97	-42.4	-43.4	22.2	0.00e+00	0	41	0	633339904	56	6762
2026-01-24 17:23:23.11	332.68	22.98	-42.5	-43.6	22.1	0.00e+00	92	41	0	635437056	56	6879
2026-01-24 17:23:24.12	332.41	23.00	-42.4	-43.4	22.4	0.00e+00	0	41	0	637534208	56	6760
2026-01-24 17:23:25.12	332.13	23.01	-42.3	-43.3	22.5	0.00e+00	56	41	0	638582784	56	6648
2026-01-24 17:23:26.13	331.86	23.02	-42.2	-43.2	22.4	0.00e+00	19	41	0	640679936	56	6583
2026-01-24 17:23:27.14	331.58	23.03	-41.9	-42.9	22.6	0.00e+00	0	41	0	642777088	56	6333
2026-01-24 17:23:28.15	331.30	23.04	-41.8	-42.8	22.8	0.00e+00	0	41	0	644874240	56	6300
2026-01-24 17:23:29.16	331.03	23.05	-42.0	-43.0	22.8	0.00e+00	13	41	0	646971392	56	6412
2026-01-24 17:23:30.17	330.75	23.06	-42.1	-43.1	22.7	0.00e+00	92	41	0	648019968	56	6480
2026-01-24 17:23:31.18	330.47	23.07	-42.2	-43.2	22.5	0.00e+00	0	41	0	650117120	56	6580
2026-01-24 17:23:32.19	330.20	23.08	-42.3	-43.3	22.5	0.00e+00	81	41	0	652214272	56	6668
2026-01-24 17:23:33.20	329.92	23.08	-42.2	-43.2	22.5	0.00e+00	61	41	0	654311424	56	6586
2026-01-24 17:23:34.21	329.64	23.09	-42.1	-43.1	22.6	0.00e+00	20	41	0	656408576	56	6494
2026-01-24 17:23:35.22	329.36	23.10	-42.0	-43.0	22.6	0.00e+00	0	41	0	657457152	56	6425
2026-01-24 17:23:36.23	329.09	23.10	-42.1	-43.2	22.4	0.00e+00	67	41	0	659554304	56	6548
2026-01-24 17:23:37.24	328.81	23.10	-41.8	-42.7	22.9	0.00e+00	92	41	0	661651456	56	6237
2026-01-24 17:23:38.25	328.53	23.11	-41.9	-42.9	22.6	0.00e+00	0	41	0	663748608	56	6386
2026-01-24 17:23:39.26	328.25	23.11	-42.0	-43.0	22.6	0.00e+00	0	41	0	665845760	56	6419
2026-01-24 17:23:40.27	327.97	23.11	-42.3	-43.4	22.2	0.00e+00	63	41	0	666894336	56	6706
2026-01-24 17:23:41.28	327.70	23.11	-42.4	-43.4	22.4	0.00e+00	2	41	0	668991488	56	6739
2026-01-24 17:23:42.29	327.42	23.11	-42.9	-44.1	21.7	0.00e+00	0	41	0	671088640	56	7267
2026-01-24 17:23:43.30	327.14	23.11	-43.0	-44.1	21.9	0.00e+00	0	41	0	673185792	58	6533
2026-01-24 17:23:44.31	326.86	23.11	-42.6	-43.7	22.3	0.00e+00	92	41	0	675282944	58	6191
2026-01-24 17:23:45.32	326.58	23.11	-41.8	-42.8	21.9	0.00e+00	0	41	0	677380096	58	5618
2026-01-24 17:23:46.33	326.31	23.11	-42.0	-43.0	22.8	0.00e+00	90	41	0	678428672	56	6418
2026-01-24 17:23:47.34	326.03	23.10	-41.8	-42.8	22.7	0.00e+00	0	41	0	680525824	56	6283
2026-01-24 17:23:48.35	325.75	23.10	-41.9	-42.9	22.9	0.00e+00	17	41	0	682622976	56	6340
2026-01-24 17:23:49.36	325.47	23.09	-42.0	-43.0	23.0	0.00e+00	18	41	0	684720128	56	6399
2026-01-24 17:23:50.37	325.19	23.09	-41.7	-42.6	23.2	0.00e+00	0	41	0	686817280	56	6138
2026-01-24 17:23:51.38	324.92	23.08	-41.5	-42.4	23.3	0.00e+00	13	41	0	687865856	56	6011
2026-01-24 17:23:52.38	324.64	23.08	-41.5	-42.5	23.3	0.00e+00	7	41	0	689963008	56	6042
2026-01-24 17:23:53.39	324.36	23.07	-41.5	-42.5	23.3	0.00e+00	91	41	0	692060160	56	6049
2026-01-24 17:23:54.40	324.09	23.06	-41.6	-42.6	23.1	0.00e+00	0	41	0	694157312	56	6111
2026-01-24 17:23:55.41	323.81	23.05	-41.6	-42.5	23.1	0.00e+00	0	41	0	696254464	56	6092
2026-01-24 17:23:56.42	323.53	23.04	-41.0	-41.9	23.8	0.00e+00	65	41	0	697303040	56	5688
2026-01-24 17:23:57.43	323.26	23.03	-40.8	-41.7	23.8	0.00e+00	64	41	0	699400192	56	5535
2026-01-24 17:23:58.44	322.98	23.02	-40.7	-41.6	24.0	0.00e+00	0	41	0	701497344	56	5470
2026-01-24 17:23:59.45	322.70	23.01	-40.5	-41.3	24.0	0.00e+00	0	41	0	703594496	54	5961
2026-01-24 17:24:00.46	322.43	22.99	-40.6	-41.4	23.9	0.00e+00	92	41	0	705691648	54	6029
2026-01-24 17:24:01.47	322.15	22.98	-40.7	-41.5	24.0	0.00e+00	71	41	0	706740224	54	6101
2026-01-24 17:24:02.48	321.88	22.97	-40.8	-41.7	23.9	0.00e+00	63	41	0	708837376	54	6232
2026-01-24 17:24:03.49	321.60	22.95	-40.5	-41.3	24.2	0.00e+00	2	41	0	710934528	54	5946
2026-01-24 17:24:04.50	321.33	22.94	-40.4	-41.3	23.8	0.00e+00	6	41	0	713031680	54	5918
2026-01-24 17:24:05.51	321.05	22.92	-40.0	-40.8	24.6	0.00e+00	6	41	0	715128832	54	5605
2026-01-24 17:24:06.52	320.78	22.90	-39.9	-40.8	24.6	0.00e+00	1	41	0	716177408	54	5572
2026-01-24 17:24:07.53	320.50	22.88	-40.0	-40.8	24.5	0.00e+00	91	41	0	718274560	54	5582
2026-01-24 17:24:08.54	320.23	22.87	-40.3	-41.1	24.5	0.00e+00	2	41	0	720371712	54	5822
2026-01-24 17:24:09.55	319.95	22.85	-40.0	-40.8	24.7	0.00e+00	91	41	0	722468864	54	5611
2026-01-24 17:24:10.56	319.68	22.83	-39.8	-40.6	24.7	0.00e+00	4	41	0	724566016	54	5496
2026-01-24 17:24:11.57	319.41	22.81	-39.6	-40.4	25.0	0.00e+00	4	41	0	725614592	52	5975
2026-01-24 17:24:12.58	319.14	22.79	-39.5	-40.3	25.0	0.00e+00	17	41	0	727711744	52	5937
2026-01-24 17:24:13.59	318.86	22.76	-39.4	-40.2	24.9	0.00e+00	69	41	0	729808896	52	5863
2026-01-24 17:24:14.60	318.59	22.74	-39.6	-40.4	24.8	0.00e+00	8	41	0	731906048	52	5988
2026-01-24 17:24:15.61	318.32	22.72	-39.7	-40.5	24.8	0.00e+00	16	41	0	734003200	52	6057
2026-01-24 17:24:16.62	318.05	22.70	-39.3	-40.1	25.1	0.00e+00	91	41	0	735051776	52	5776
2026-01-24 17:24:17.63	317.78	22.67	-39.3	-40.1	25.3	0.00e+00	0	41	0	737148928	52	5775
2026-01-24 17:24:18.64	317.51	22.65	-39.2	-40.0	25.3	0.00e+00	67	41	0	739246080	52	5739
2026-01-24 17:24:19.65	317.24	22.62	-39.1	-39.9	25.5	0.00e+00	4	41	0	741343232	52	5639
2026-01-24 17:24:20.66	316.97	22.59	-39.1	-39.9	25.4	0.00e+00	69	41	0	743440384	52	5668
2026-01-24 17:24:21.67	316.70	22.57	-39.2	-40.0	25.4	0.00e+00	69	41	0	745537536	52	5699
2026-01-24 17:24:22.68	316.43	22.54	-39.3	-40.1	25.3	0.00e+00	3	41	0	746586112	52	5798
2026-01-24 17:24:23.69	316.17	22.51	-39.5	-40.3	25.2	0.00e+00	92	41	0	748683264	52	5940
2026-01-24 17:24:24.70	315.90	22.48	-39.7	-40.5	25.0	0.00e+00	2	41	0	750780416	52	6046
2026-01-24 17:24:25.71	315.63	22.45	-40.3	-41.2	24.5	0.00e+00	91	41	0	752877568	52	6545
2026-01-24 17:24:26.72	315.36	22.42	-40.1	-40.9	24.5	0.00e+00	3	41	0	754974720	52	6390
2026-01-24 17:24:27.72	315.10	22.39	-39.9	-40.7	24.8	0.00e+00	4	41	0	756023296	52	6187
2026-01-24 17:24:28.73	314.84	22.36	-40.3	-41.1	24.3	0.00e+00	0	41	0	758120448	52	6516
2026-01-24 17:24:29.74	314.57	22.33	-39.8	-40.6	24.8	0.00e+00	18	41	0	760217600	52	6123
2026-01-24 17:24:30.75	314.31	22.29	-39.9	-40.7	24.8	0.00e+00	92	41	0	762314752	52	6197
2026-01-24 17:24:31.76	314.04	22.26	-39.9	-40.7	24.6	0.00e+00	17	41	0	764411904	52	6227
2026-01-24 17:24:32.76	313.78	22.23	-39.9	-40.7	24.5	0.00e+00	91	41	0	765460480	52	6238
2026-01-24 17:24:33.77	313.52	22.19	-40.1	-40.9	24.3	0.00e+00	3	41	0	767557632	52	6388
2026-01-24 17:24:34.78	313.26	22.16	-40.1	-41.0	24.3	0.00e+00	18	41	0	769654784	52	6404
2026-01-24 17:24:35.79	313.00	22.12	-40.6	-41.5	24.1	0.00e+00	66	41	0	771751936	52	6793
2026-01-24 17:24:36.80	312.74	22.09	-40.6	-41.4	24.1	0.00e+00	17	41	0	773849088	54	6011
2026-01-24 17:24:37.81	312.48	22.05	-40.6	-41.4	24.0	0.00e+00	0	41	0	774897664	54	6011
2026-01-24 17:24:38.82	312.22	22.01	-40.6	-41.4	24.1	0.00e+00	17	41	0	776994816	54	6014
2026-01-24 17:24:39.83	311.96	21.97	-40.8	-41.7	23.8	0.00e+00	90	41	0	779091968	54	6221
2026-01-24 17:24:40.84	311.70	21.94	-40.9	-41.8	23.7	0.00e+00	63	41	0	781189120	54	6264
2026-01-24 17:24:41.85	311.44	21.90	-41.2	-42.2	23.6	0.00e+00	59	41	0	783286272	54	6547
2026-01-24 17:24:42.86	311.19	21.86	-41.8	-42.7	23.3	0.00e+00	2	41	0	784334848	56	6213
2026-01-24 17:24:43.87	310.93	21.82	-41.2	-42.1	23.6	0.00e+00	63	41	0	786432000	56	5820
2026-01-24 17:24:44.88	310.67	21.78	-41.1	-41.9	23.8	0.00e+00	64	41	0	788529152	56	5690
2026-01-24 17:24:45.89	310.42	21.73	-41.2	-42.1	23.6	0.00e+00	0	41	0	790626304	56	5801
2026-01-24 17:24:46.90	310.17	21.69	-41.5	-42.4	23.3	0.00e+00	92	41	0	792723456	56	5978
2026-01-24 17:24:47.91	309.91	21.65	-41.5	-42.4	23.4	0.00e+00	1	41	0	793772032	56	5996
2026-01-24 17:24:48.92	309.66	21.61	-41.7	-42.7	23.2	0.00e+00	92	41	0	795869184	56	6176
2026-01-24 17:24:49.93	309.41	21.56	-41.7	-42.6	23.1	0.00e+00	0	41	0	797966336	56	6150
2026-01-24 17:24:50.94	309.16	21.52	-41.8	-42.8	22.9	0.00e+00	5	41	0	800063488	56	6282
2026-01-24 17:24:51.95	308.91	21.47	-41.9	-42.9	22.8	0.00e+00	2	41	0	802160640	56	6340
2026-01-24 17:24:52.96	308.66	21.43	-42.1	-43.0	22.5	0.00e+00	2	41	0	803209216	56	6463
2026-01-24 17:24:53.96	308.41	21.38	-41.8	-42.8	23.2	0.00e+00	6	41	0	805306368	56	6256
2026-01-24 17:24:54.97	308.16	21.34	-42.1	-43.0	22.7	0.00e+00	2	41	0	807403520	56	6436
2026-01-24 17:24:55.98	307.91	21.29	-41.8	-42.7	23.1	0.00e+00	92	41	0	809500672	56	6231
2026-01-24 17:24:56.99	307.67	21.25	-42.2	-43.2	22.6	0.00e+00	71	41	0	811597824	56	6545
2026-01-24 17:24:58.00	307.42	21.20	-42.0	-43.0	22.5	0.00e+00	66	41	0	813694976	56	6443
2026-01-24 17:24:59.01	307.17	21.15	-42.1	-43.0	22.9	0.00e+00	0	41	0	814743552	56	6444
2026-01-24 17:25:00.02	306.93	21.10	-41.8	-42.8	23.0	0.00e+00	16	41	0	816840704	56	6257
2026-01-24 17:25:01.03	306.69	21.05	-42.0	-43.0	22.7	0.00e+00	0	41	0	818937856	56	6421
2026-01-24 17:25:02.04	306.44	21.00	-42.3	-43.3	22.3	0.00e+00	65	41	0	821035008	56	6631
2026-01-24 17:25:03.05	306.20	20.95	-42.0	-42.9	22.8	0.00e+00	92	41	0	823132160	56	6378
2026-01-24 17:25:04.06	305.96	20.90	-42.1	-43.0	22.8	0.00e+00	63	41	0	824180736	56	6464
2026-01-24 17:25:05.07	305.72	20.85	-42.0	-43.0	22.9	0.00e+00	92	41	0	826277888	56	6444
2026-01-24 17:25:06.08	305.48	20.80	-42.0	-43.0	22.6	0.00e+00	2	41	0	828375040	56	6423
2026-01-24 17:25:07.08	305.24	20.75	-41.9	-42.9	22.9	0.00e+00	0	41	0	830472192	56	6337
2026-01-24 17:25:08.10	305.00	20.70	-42.1	-43.1	22.4	0.00e+00	0	41	0	832569344	56	6493
2026-01-24 17:25:09.11	304.76	20.65	-42.4	-43.4	22.2	0.00e+00	2	41	0	833617920	56	6730
2026-01-24 17:25:10.11	304.53	20.59	-41.9	-42.9	22.9	0.00e+00	92	41	0	835715072	56	6365
2026-01-24 17:25:11.12	304.29	20.54	-41.8	-42.7	23.2	0.00e+00	2	41	0	837812224	56	6215
2026-01-24 17:25:12.13	304.06	20.49	-41.5	-42.4	23.2	0.00e+00	92	41	0	839909376	56	6029
2026-01-24 17:25:13.14	303.82	20.43	-41.4	-42.3	23.3	0.00e+00	0	41	0	842006528	56	5961
2026-01-24 17:25:14.15	303.59	20.38	-41.7	-42.7	23.0	0.00e+00	0	41	0	843055104	56	6175
2026-01-24 17:25:15.16	303.36	20.33	-41.9	-42.9	22.7	0.00e+00	0	41	0	845152256	56	6378
2026-01-24 17:25:16.16	303.13	20.27	-42.1	-43.1	22.5	0.00e+00	19	41	0	847249408	56	6488
2026-01-24 17:25:17.17	302.90	20.22	-41.9	-42.9	22.7	0.00e+00	0	41	0	849346560	56	6376
2026-01-24 17:25:18.18	302.67	20.16	-41.8	-42.8	22.9	0.00e+00	68	41	0	851443712	56	6270
2026-01-24 17:25:19.19	302.44	20.10	-41.7	-42.7	22.9	0.00e+00	92	41	0	852492288	56	6217
2026-01-24 17:25:20.20	302.21	20.05	-41.6	-42.6	23.1	0.00e+00	69	41	0	854589440	56	6126
2026-01-24 17:25:21.21	301.98	19.99	-41.8	-42.7	23.0	0.00e+00	92	41	0	856686592	56	6227
2026-01-24 17:25:22.22	301.76	19.93	-41.6	-42.5	23.1	0.00e+00	2	41	0	858783744	56	6098
2026-01-24 17:25:23.23	301.53	19.88	-41.9	-42.9	22.9	0.00e+00	0	41	0	860880896	56	6330
2026-01-24 17:25:24.24	301.30	19.82	-41.6	-42.5	23.2	0.00e+00	1	41	0	861929472	56	6068
2026-01-24 17:25:25.25	301.08	19.76	-41.7	-42.6	23.1	0.00e+00	68	41	0	864026624	56	6165
2026-01-24 17:25:26.26	300.86	19.70	-41.6	-42.5	23.0	0.00e+00	92	41	0	866123776	56	6084
2026-01-24 17:25:27.27	300.63	19.64	-41.9	-42.9	22.7	0.00e+00	0	41	0	868220928	56	6372
2026-01-24 17:25:28.28	300.41	19.58	-41.6	-42.6	23.0	0.00e+00	92	41	0	870318080	56	6117
2026-01-24 17:25:29.29	300.19	19.52	-41.8	-42.7	23.0	0.00e+00	2	41	0	871366656	56	6220
2026-01-24 17:25:30.30	299.97	19.46	-41.8	-42.8	22.8	0.00e+00	0	41	0	873463808	56	6281
2026-01-24 17:25:31.31	299.75	19.40	-41.9	-42.9	22.7	0.00e+00	0	41	0	875560960	56	6367
2026-01-24 17:25:32.31	299.54	19.34	-41.7	-42.7	23.0	0.00e+00	0	41	0	877658112	56	6213
2026-01-24 17:25:33.33	299.32	19.28	-41.5	-42.4	23.2	0.00e+00	91	41	0	879755264	56	6014
2026-01-24 17:25:34.33	299.10	19.22	-41.5	-42.4	23.1	0.00e+00	0	41	0	881852416	56	6020
2026-01-24 17:25:35.34	298.89	19.16	-41.6	-42.6	23.0	0.00e+00	92	41	0	882900992	56	6145
2026-01-24 17:25:36.35	298.67	19.10	-41.6	-42.6	22.9	0.00e+00	0	41	0	884998144	56	6113
2026-01-24 17:25:37.36	298.46	19.04	-41.7	-42.7	23.0	0.00e+00	3	41	0	887095296	56	6207
2026-01-24 17:25:38.37	298.25	18.98	-41.5	-42.5	23.1	0.00e+00	2	41	0	889192448	56	6048
2026-01-24 17:25:39.38	298.04	18.91	-41.4	-42.3	23.2	0.00e+00	0	41	0	890241024	56	5938
2026-01-24 17:25:40.39	297.82	18.85	-41.5	-42.4	23.0	0.00e+00	15	41	0	892338176	56	6029
2026-01-24 17:25:41.40	297.61	18.79	-41.6	-42.5	23.1	0.00e+00	16	41	0	894435328	56	6081
2026-01-24 17:25:42.41	297.40	18.73	-41.6	-42.6	22.9	0.00e+00	92	41	0	896532480	56	6128
2026-01-24 17:25:43.42	297.20	18.66	-41.5	-42.4	23.0	0.00e+00	17	41	0	898629632	56	6015
2026-01-24 17:25:44.43	296.99	18.60	-41.5	-42.4	23.0	0.00e+00	65	41	0	899678208	56	6005
2026-01-24 17:25:45.44	296.78	18.54	-41.5	-42.4	23.0	0.00e+00	66	41	0	901775360	56	6022
2026-01-24 17:25:46.45	296.58	18.47	-41.5	-42.4	22.9	0.00e+00	0	41	0	903872512	56	6003
2026-01-24 17:25:47.46	296.37	18.41	-41.4	-42.3	23.2	0.00e+00	0	41	0	905969664	56	5945
2026-01-24 17:25:48.47	296.17	18.34	-41.6	-42.5	23.1	0.00e+00	0	41	0	908066816	56	6074
2026-01-24 17:25:49.48	295.96	18.28	-41.8	-42.7	22.8	0.00e+00	91	41	0	910163968	56	6242
2026-01-24 17:25:50.49	295.76	18.21	-41.4	-42.4	23.1	0.00e+00	0	41	0	911212544	56	5983
2026-01-24 17:25:51.50	295.56	18.15	-41.5	-42.4	23.0	0.00e+00	92	41	0	913309696	56	6008
2026-01-24 17:25:52.51	295.36	18.08	-41.8	-42.7	22.8	0.00e+00	6	41	0	915406848	56	6226
2026-01-24 17:25:53.52	295.16	18.02	-41.8	-42.7	22.8	0.00e+00	6	41	0	917504000	56	6240
2026-01-24 17:25:54.53	294.96	17.95	-41.5	-42.4	23.1	0.00e+00	7	41	0	919601152	56	6024
2026-01-24 17:25:55.54	294.76	17.89	-41.8	-42.8	22.8	0.00e+00	13	41	0	920649728	56	6278
2026-01-24 17:25:56.55	294.57	17.82	-41.9	-42.9	22.7	0.00e+00	92	41	0	922746880	56	6353
2026-01-24 17:25:57.56	294.37	17.76	-41.8	-42.8	22.8	0.00e+00	10	41	0	924844032	56	6263
2026-01-24 17:25:58.56	294.18	17.69	-41.8	-42.7	22.8	0.00e+00	92	41	0	926941184	56	6245
2026-01-24 17:25:59.57	293.98	17.62	-41.8	-42.8	22.6	0.00e+00	6	41	0	929038336	56	6303
2026-01-24 17:26:00.58	293.79	17.56	-41.7	-42.6	22.6	0.00e+00	69	41	0	930086912	56	6168
2026-01-24 17:26:01.59	293.59	17.49	-41.8	-42.8	22.6	0.00e+00	0	41	0	932184064	56	6294
2026-01-24 17:26:02.60	293.40	17.42	-41.8	-42.8	22.6	0.00e+00	16	41	0	934281216	56	6272
2026-01-24 17:26:03.61	293.21	17.36	-41.9	-42.9	22.7	0.00e+00	92	41	0	936378368	56	6338
2026-01-24 17:26:04.62	293.02	17.29	-41.9	-42.8	22.7	0.00e+00	72	41	0	938475520	56	6315
2026-01-24 17:26:05.63	292.83	17.22	-42.0	-43.0	22.5	0.00e+00	92	41	0	939524096	56	6417
2026-01-24 17:26:06.64	292.64	17.16	-41.7	-42.6	22.9	0.00e+00	72	41	0	941621248	56	6163
2026-01-24 17:26:07.65	292.45	17.09	-41.8	-42.8	22.7	0.00e+00	92	41	0	943718400	56	6303
2026-01-24 17:26:08.66	292.27	17.02	-41.7	-42.7	22.9	0.00e+00	0	41	0	945815552	56	6192
2026-01-24 17:26:09.67	292.08	16.95	-41.9	-42.9	22.6	0.00e+00	2	41	0	947912704	56	6351
2026-01-24 17:26:10.68	291.90	16.88	-41.8	-42.8	22.7	0.00e+00	0	41	0	948961280	56	6270
2026-01-24 17:26:11.69	291.71	16.82	-41.9	-42.9	22.6	0.00e+00	1	41	0	951058432	56	6383
2026-01-24 17:26:12.70	291.53	16.75	-41.8	-42.8	22.7	0.00e+00	92	41	0	953155584	56	6280
2026-01-24 17:26:13.71	291.35	16.68	-41.7	-42.7	22.9	0.00e+00	2	41	0	955252736	56	6192
2026-01-24 17:26:14.72	291.16	16.61	-41.9	-42.9	22.6	0.00e+00	90	41	0	957349888	56	6336
2026-01-24 17:26:15.73	290.98	16.54	-41.9	-42.9	22.6	0.00e+00	1	41	0	958398464	56	6366
2026-01-24 17:26:16.74	290.80	16.47	-42.1	-43.1	22.6	0.00e+00	4	41	0	960495616	56	6506
2026-01-24 17:26:17.75	290.62	16.41	-42.2	-43.2	22.3	0.00e+00	6	41	0	962592768	56	6611
2026-01-24 17:26:18.76	290.44	16.34	-42.0	-43.0	22.5	0.00e+00	4	41	0	964689920	56	6449
2026-01-24 17:26:19.76	290.27	16.27	-41.6	-42.5	22.9	0.00e+00	92	41	0	966787072	56	6100
2026-01-24 17:26:20.77	290.09	16.20	-41.5	-42.5	22.9	0.00e+00	10	41	0	967835648	56	6050
2026-01-24 17:26:21.78	289.92	16.13	-41.6	-42.5	22.9	0.00e+00	92	41	0	969932800	56	6087
2026-01-24 17:26:22.79	289.74	16.06	-41.4	-42.4	23.0	0.00e+00	72	41	0	972029952	56	5992
2026-01-24 17:26:23.80	289.57	15.99	-41.5	-42.5	23.0	0.00e+00	71	41	0	974127104	56	6056
2026-01-24 17:26:24.81	289.39	15.92	-41.4	-42.4	23.1	0.00e+00	10	41	0	976224256	56	5986
2026-01-24 17:26:25.82	289.22	15.85	-41.5	-42.4	23.0	0.00e+00	70	41	0	978321408	56	6024
2026-01-24 17:26:26.83	289.05	15.79	-41.4	-42.4	23.1	0.00e+00	0	41	0	979369984	56	5980
2026-01-24 17:26:27.84	288.88	15.72	-41.4	-42.4	23.1	0.00e+00	0	41	0	981467136	56	5980
2026-01-24 17:26:28.85	288.71	15.65	-42.7	-43.8	21.8	0.00e+00	90	41	0	983564288	56	7044
2026-01-24 17:26:29.86	288.54	15.58	-41.5	-42.5	22.8	0.00e+00	66	41	0	985661440	56	6040
2026-01-24 17:26:30.87	288.37	15.51	-41.5	-42.4	23.2	0.00e+00	65	41	0	987758592	56	6030
2026-01-24 17:26:31.88	288.20	15.44	-41.5	-42.4	23.2	0.00e+00	0	41	0	988807168	56	6033
2026-01-24 17:26:32.89	288.03	15.37	-41.5	-42.4	23.2	0.00e+00	0	41	0	990904320	56	6032
2026-01-24 17:26:33.90	287.87	15.30	-41.9	-42.9	22.9	0.00e+00	0	41	0	993001472	56	6337
2026-01-24 17:26:34.91	287.70	15.23	-41.5	-42.5	23.2	0.00e+00	0	41	0	995098624	56	6066
2026-01-24 17:26:35.92	287.54	15.16	-41.7	-42.6	23.2	0.00e+00	92	41	0	997195776	56	6156
2026-01-24 17:26:36.93	287.37	15.09	-41.3	-42.2	23.4	0.00e+00	0	41	0	998244352	56	5859
2026-01-24 17:26:37.94	287.21	15.02	-41.3	-42.2	23.4	0.00e+00	92	41	0	1000341504	56	5881
2026-01-24 17:26:38.95	287.05	14.95	-41.6	-42.5	23.1	0.00e+00	0	41	0	1002438656	56	6086
2026-01-24 17:26:39.96	286.88	14.88	-41.3	-42.2	23.3	0.00e+00	0	41	0	1004535808	56	5895
2026-01-24 17:26:40.97	286.72	14.81	-41.1	-42.0	23.6	0.00e+00	0	41	0	1006632960	56	5738
2026-01-24 17:26:41.98	286.56	14.74	-41.1	-42.0	23.6	0.00e+00	2	41	0	1007681536	56	5742
2026-01-24 17:26:42.98	286.41	14.67	-41.2	-42.2	23.4	0.00e+00	92	41	0	1009778688	56	5830
2026-01-24 17:26:43.99	286.25	14.60	-41.3	-42.2	23.5	0.00e+00	73	41	0	1011875840	56	5875
2026-01-24 17:26:45.00	286.09	14.53	-41.7	-42.6	23.3	0.00e+00	92	41	0	1013972992	56	6145
2026-01-24 17:26:46.01	285.93	14.46	-41.4	-42.3	23.1	0.00e+00	15	41	0	1016070144	56	5911
2026-01-24 17:26:47.02	285.77	14.39	-41.7	-42.6	22.7	0.00e+00	67	41	0	1017118720	56	6153
2026-01-24 17:26:48.03	285.62	14.32	-41.7	-42.7	23.0	0.00e+00	15	41	0	1019215872	56	6182
2026-01-24 17:26:49.04	285.46	14.25	-41.8	-42.7	22.8	0.00e+00	0	41	0	1021313024	56	6216
2026-01-24 17:26:50.05	285.31	14.18	-41.6	-42.5	23.3	0.00e+00	0	41	0	1023410176	56	6089
2026-01-24 17:26:51.06	285.16	14.11	-40.9	-41.8	23.7	0.00e+00	0	41	0	1025507328	56	5606
2026-01-24 17:26:52.07	285.00	14.04	-41.0	-41.9	23.7	0.00e+00	92	41	0	1026555904	56	5683
2026-01-24 17:26:53.08	284.85	13.97	-41.0	-41.9	23.3	0.00e+00	72	41	0	1028653056	56	5676
2026-01-24 17:26:54.09	284.70	13.90	-41.0	-41.9	23.7	0.00e+00	79	41	0	1030750208	56	5678
2026-01-24 17:26:55.10	284.55	13.83	-41.1	-42.0	23.8	0.00e+00	2	41	0	1032847360	56	5757
2026-01-24 17:26:56.10	284.40	13.76	-41.0	-41.9	23.5	0.00e+00	2	41	0	1034944512	56	5680
2026-01-24 17:26:57.11	284.25	13.69	-41.0	-41.9	23.7	0.00e+00	0	41	0	1035993088	56	5675
2026-01-24 17:26:58.12	284.10	13.62	-41.1	-42.0	23.7	0.00e+00	0	41	0	1038090240	56	5732
2026-01-24 17:26:59.14	283.96	13.55	-41.6	-42.6	23.0	0.00e+00	92	41	0	1040187392	56	6105
2026-01-24 17:27:00.14	283.81	13.48	-41.1	-42.0	23.7	0.00e+00	0	41	0	1042284544	56	5702
2026-01-24 17:27:01.16	283.66	13.41	-41.0	-41.9	23.9	0.00e+00	92	41	0	1044381696	56	5637
2026-01-24 17:27:02.17	283.52	13.34	-41.2	-42.1	23.6	0.00e+00	0	41	0	1046478848	56	5787
2026-01-24 17:27:03.18	283.37	13.27	-41.4	-42.4	23.4	0.00e+00	0	41	0	1047527424	56	5966
2026-01-24 17:27:04.18	283.23	13.20	-41.5	-42.5	23.5	0.00e+00	73	41	0	1049624576	56	6036
2026-01-24 17:27:05.19	283.09	13.13	-41.3	-42.3	23.4	0.00e+00	15	41	0	1051721728	56	5898
2026-01-24 17:27:06.20	282.94	13.06	-41.2	-42.1	23.6	0.00e+00	92	41	0	1053818880	56	5808
2026-01-24 17:27:07.21	282.80	12.99	-41.2	-42.1	23.6	0.00e+00	2	41	0	1055916032	56	5807
2026-01-24 17:27:08.22	282.66	12.92	-41.0	-41.9	23.5	0.00e+00	92	41	0	1056964608	56	5660
2026-01-24 17:27:09.23	282.52	12.85	-41.0	-41.9	23.5	0.00e+00	66	41	0	1059061760	56	5643
2026-01-24 17:27:10.24	282.38	12.78	-41.0	-41.9	23.5	0.00e+00	0	41	0	1061158912	56	5680
2026-01-24 17:27:11.25	282.24	12.71	-40.9	-41.8	23.5	0.00e+00	67	41	0	1063256064	56	5592
2026-01-24 17:27:12.26	282.10	12.64	-41.0	-41.9	23.4	0.00e+00	0	41	0	1065353216	56	5691
2026-01-24 17:27:13.27	281.96	12.57	-41.1	-42.1	23.2	0.00e+00	2	41	0	1066401792	56	5772
2026-01-24 17:27:14.28	281.82	12.50	-41.2	-42.1	23.1	0.00e+00	0	41	0	1068498944	56	5828
2026-01-24 17:27:15.29	281.69	12.43	-41.5	-42.5	22.7	0.00e+00	92	41	0	1070596096	56	6077
2026-01-24 17:27:16.30	281.55	12.36	-42.0	-43.0	22.4	0.00e+00	0	41	0	1072693248	56	6419
2026-01-24 17:27:17.31	281.42	12.29	-41.7	-42.7	22.8	0.00e+00	82	41	0	1074790400	56	6189
2026-01-24 17:27:18.32	281.28	12.22	-41.4	-42.4	23.1	0.00e+00	0	41	0	1075838976	56	5989
2026-01-24 17:27:19.33	281.15	12.15	-41.8	-42.8	22.6	0.00e+00	0	41	0	1077936128	56	6265
2026-01-24 17:27:20.34	281.01	12.08	-41.5	-42.5	22.8	0.00e+00	0	41	0	1080033280	56	6087
2026-01-24 17:27:21.35	280.88	12.01	-41.6	-42.6	22.8	0.00e+00	0	41	0	1082130432	56	6140
2026-01-24 17:27:22.36	280.75	11.94	-41.5	-42.4	22.8	0.00e+00	91	41	0	1084227584	56	6020
2026-01-24 17:27:23.37	280.62	11.87	-41.6	-42.6	23.0	0.00e+00	0	41	0	1085276160	56	6143
2026-01-24 17:27:24.38	280.49	11.80	-41.2	-42.2	23.2	0.00e+00	90	41	0	1087373312	56	5844
2026-01-24 17:27:25.39	280.36	11.73	-41.1	-42.1	23.2	0.00e+00	72	41	0	1089470464	56	5768
2026-01-24 17:27:26.40	280.23	11.66	-41.7	-42.6	22.7	0.00e+00	5	41	0	1091567616	56	6171
2026-01-24 17:27:27.41	280.10	11.59	-41.2	-42.1	23.2	0.00e+00	75	41	0	1093664768	56	5801
2026-01-24 17:27:28.42	279.97	11.53	-41.4	-42.3	22.9	0.00e+00	12	41	0	1094713344	56	5946
2026-01-24 17:27:29.43	279.84	11.46	-41.4	-42.4	22.9	0.00e+00	40	41	0	1096810496	56	5970
2026-01-24 17:27:30.44	279.71	11.39	-42.1	-43.1	22.4	0.00e+00	0	41	0	1098907648	56	6484
2026-01-24 17:27:31.45	279.59	11.32	-41.8	-42.8	22.7	0.00e+00	92	41	0	1101004800	56	6305
2026-01-24 17:27:32.46	279.46	11.25	-41.7	-42.7	22.6	0.00e+00	0	41	0	1103101952	56	6241
2026-01-24 17:27:33.47	279.34	11.18	-42.4	-43.5	22.1	0.00e+00	9	41	0	1104150528	56	6814
2026-01-24 17:27:34.48	279.21	11.11	-42.0	-43.0	22.4	0.00e+00	70	41	0	1106247680	56	6458
2026-01-24 17:27:35.49	279.09	11.04	-41.9	-42.9	22.7	0.00e+00	6	41	0	1108344832	56	6362
2026-01-24 17:27:36.50	278.96	10.97	-42.0	-43.1	22.4	0.00e+00	75	41	0	1110441984	56	6478
2026-01-24 17:27:37.51	278.84	10.91	-42.3	-43.3	22.3	0.00e+00	5	41	0	1112539136	56	6669
2026-01-24 17:27:38.52	278.72	10.84	-42.2	-43.2	22.3	0.00e+00	92	41	0	1114636288	56	6597
2026-01-24 17:27:39.53	278.60	10.77	-41.7	-42.7	22.7	0.00e+00	0	41	0	1115684864	56	6188
2026-01-24 17:27:40.54	278.48	10.70	-42.0	-43.0	22.5	0.00e+00	16	41	0	1117782016	56	6449
2026-01-24 17:27:41.55	278.35	10.63	-42.5	-43.6	21.9	0.00e+00	5	41	0	1119879168	56	6851
2026-01-24 17:27:42.56	278.23	10.56	-42.2	-43.3	22.2	0.00e+00	6	41	0	1121976320	56	6634
2026-01-24 17:27:43.57	278.11	10.49	-42.3	-43.3	22.1	0.00e+00	0	41	0	1124073472	56	6664
2026-01-24 17:27:44.58	278.00	10.43	-42.3	-43.3	22.0	0.00e+00	5	41	0	1125122048	56	6689
2026-01-24 17:27:45.59	277.88	10.36	-42.3	-43.3	22.1	0.00e+00	92	41	0	1127219200	56	6659
2026-01-24 17:27:46.60	277.76	10.29	-42.4	-43.4	22.0	0.00e+00	13	41	0	1129316352	56	6750
2026-01-24 17:27:47.60	277.64	10.22	-42.3	-43.3	22.2	0.00e+00	92	41	0	1131413504	56	6692
2026-01-24 17:27:48.61	277.53	10.16	-42.5	-43.6	22.0	0.00e+00	12	41	0	1133510656	56	6860
2026-01-24 17:27:49.62	277.41	10.09	-42.8	-43.9	21.7	0.00e+00	6	41	0	1134559232	58	6360
2026-01-24 17:27:50.63	277.30	10.02	-42.7	-43.8	21.8	0.00e+00	0	41	0	1136656384	58	6262
2026-01-24 17:27:51.64	277.18	9.95	-42.8	-43.9	21.9	0.00e+00	0	41	0	1138753536	58	6349
2026-01-24 17:27:52.65	277.07	9.88	-42.8	-44.0	21.7	0.00e+00	92	41	0	1140850688	58	6397
2026-01-24 17:27:53.66	276.95	9.82	-42.6	-43.7	21.7	0.00e+00	1	41	0	1142947840	58	6243
2026-01-24 17:27:54.68	276.84	9.75	-42.8	-43.9	21.7	0.00e+00	92	41	0	1143996416	58	6353
2026-01-24 17:27:55.69	276.72	9.68	-42.3	-43.4	21.9	0.00e+00	8	41	0	1146093568	58	5982
2026-01-24 17:27:56.70	276.61	9.61	-42.9	-44.0	21.5	0.00e+00	7	41	0	1148190720	58	6451
2026-01-24 17:27:57.70	276.50	9.55	-43.1	-44.4	21.0	0.00e+00	0	41	0	1150287872	58	6695
2026-01-24 17:27:58.72	276.39	9.48	-43.0	-44.2	21.2	0.00e+00	8	41	0	1152385024	58	6575
2026-01-24 17:27:59.72	276.28	9.41	-42.7	-43.8	21.4	0.00e+00	0	41	0	1153433600	58	6283
2026-01-24 17:28:00.74	276.17	9.35	-42.7	-43.8	21.4	0.00e+00	6	41	0	1155530752	58	6311
2026-01-24 17:28:01.75	276.06	9.28	-42.6	-43.7	21.6	0.00e+00	92	41	0	1157627904	58	6235
2026-01-24 17:28:02.76	275.95	9.21	-43.1	-44.3	21.0	0.00e+00	7	41	0	1159725056	58	6641
2026-01-24 17:28:03.76	275.84	9.15	-42.5	-43.6	21.7	0.00e+00	12	41	0	1161822208	58	6159
2026-01-24 17:28:04.77	275.73	9.08	-42.9	-44.0	21.3	0.00e+00	13	41	0	1162870784	58	6458
2026-01-24 17:28:05.78	275.62	9.01	-42.8	-44.0	21.3	0.00e+00	13	41	0	1164967936	58	6416
2026-01-24 17:28:06.79	275.52	8.95	-42.6	-43.7	21.6	0.00e+00	0	41	0	1167065088	58	6215
2026-01-24 17:28:07.80	275.41	8.88	-42.8	-43.9	21.4	0.00e+00	12	41	0	1169162240	58	6388
2026-01-24 17:28:08.81	275.30	8.81	-42.9	-44.1	21.3	0.00e+00	92	41	0	1171259392	58	6517
2026-01-24 17:28:09.82	275.20	8.75	-42.8	-43.9	21.3	0.00e+00	5	41	0	1172307968	58	6376
2026-01-24 17:28:10.83	275.09	8.68	-43.1	-44.3	21.2	0.00e+00	92	41	0	1174405120	58	6640
2026-01-24 17:28:11.84	274.99	8.61	-42.9	-44.0	21.3	0.00e+00	0	41	0	1176502272	58	6412
2026-01-24 17:28:12.85	274.88	8.55	-43.1	-44.3	21.3	0.00e+00	0	41	0	1178599424	58	6629
2026-01-24 17:28:13.86	274.78	8.48	-43.4	-44.6	21.0	0.00e+00	70	41	0	1180696576	58	6880
2026-01-24 17:28:14.87	274.68	8.42	-42.9	-44.0	21.6	0.00e+00	0	41	0	1182793728	58	6438
2026-01-24 17:28:15.88	274.57	8.35	-43.2	-44.4	21.1	0.00e+00	4	41	0	1183842304	58	6716
2026-01-24 17:28:16.89	274.47	8.28	-43.9	-45.2	20.4	0.00e+00	0	41	0	1185939456	60	6582
2026-01-24 17:28:17.90	274.37	8.22	-43.6	-44.8	20.8	0.00e+00	92	41	0	1188036608	60	6308
2026-01-24 17:28:18.91	274.27	8.15	-43.8	-45.1	20.4	0.00e+00	0	41	0	1190133760	60	6479
2026-01-24 17:28:19.92	274.17	8.09	-44.2	-45.5	20.0	0.00e+00	2	41	0	1192230912	60	6816
2026-01-24 17:28:20.93	274.07	8.02	-43.9	-45.2	20.3	0.00e+00	0	41	0	1193279488	60	6569
2026-01-24 17:28:21.94	273.97	7.96	-44.0	-45.4	20.1	0.00e+00	7	41	0	1195376640	60	6712
2026-01-24 17:28:22.95	273.87	7.89	-44.4	-45.8	19.4	0.00e+00	0	41	0	1197473792	60	7074
2026-01-24 17:28:23.96	273.77	7.83	-44.7	-46.2	19.2	0.00e+00	8	41	0	1199570944	60	7380
2026-01-24 17:28:24.97	273.67	7.76	-44.4	-45.8	19.5	0.00e+00	92	41	0	1201668096	60	7064
