passes_logs/2026/01/24/R4.6S_Anadyr/R4.6S_Anadyr__20260124_185606_NOAA_20_JPSS-1_rec.log

#Pass ID: 20260124_185606_NOAA 20 (JPSS-1)
#Satellite: NOAA 20 (JPSS-1)
#Configuration: NOAA 20
#almurnet v.1.7.20251203
#Start time: 2026-01-24 18:56:09

#Version: 2.2.20231116
#Station: R4.6S_Anadyr
#Location: 177.4865 lon 64.73178 lat
#TLE: 1 43013U 17073A   26024.14064826  .00000217  00000+0  12382-3 0  9992
#TLE: 2 43013  98.7646 324.9839 0001118  26.6217 333.5016 14.19539758424032

#Time	Az	El	Level	Level2	SNR	BER	BlckErr	Temp	State	Recorded	gain1	gain2
2026-01-24 18:56:09.11	46.22	0.15	-53.1	-66.9	3.3	1.54e+00	0	40	0	0	60	80072
2026-01-24 18:56:10.11	46.15	0.19	-52.9	-68.1	3.6	1.51e+00	0	40	104	0	60	91631
2026-01-24 18:56:11.13	46.07	0.24	-52.6	-67.8	3.6	1.51e+00	0	40	104	0	60	88570
2026-01-24 18:56:12.14	46.00	0.29	-52.7	-67.9	3.6	1.51e+00	0	40	104	0	60	89759
2026-01-24 18:56:13.15	45.92	0.34	-53.0	-68.2	3.6	1.51e+00	0	40	104	0	60	93076
2026-01-24 18:56:14.16	45.84	0.39	-52.7	-68.0	3.6	1.51e+00	0	40	104	0	60	90972
2026-01-24 18:56:15.17	45.77	0.44	-53.1	-68.3	3.6	1.51e+00	0	40	104	0	60	94294
2026-01-24 18:56:16.18	45.69	0.49	-53.1	-68.4	3.6	1.51e+00	0	40	104	0	60	94582
2026-01-24 18:56:17.19	45.61	0.54	-52.4	-67.6	3.6	1.51e+00	0	40	104	0	60	86986
2026-01-24 18:56:18.20	45.53	0.59	-52.2	-67.4	3.6	1.51e+00	0	40	104	0	60	85019
2026-01-24 18:56:19.21	45.46	0.64	-52.2	-67.5	3.6	1.51e+00	0	40	104	0	60	85805
2026-01-24 18:56:20.22	45.38	0.69	-52.1	-67.4	3.6	1.51e+00	0	40	104	0	60	84420
2026-01-24 18:56:21.22	45.30	0.74	-52.2	-67.4	3.6	1.51e+00	0	40	104	0	60	85150
2026-01-24 18:56:22.23	45.22	0.79	-51.9	-67.2	3.6	1.51e+00	0	40	104	0	60	82935
2026-01-24 18:56:23.24	45.14	0.84	-51.7	-67.0	3.6	1.51e+00	0	40	104	0	60	80685
2026-01-24 18:56:24.25	45.07	0.89	-51.7	-66.9	3.6	1.51e+00	0	40	104	0	60	80331
2026-01-24 18:56:25.26	44.99	0.94	-51.6	-66.8	3.6	1.51e+00	0	40	104	0	60	79020
2026-01-24 18:56:26.27	44.91	0.99	-51.5	-66.8	3.6	1.51e+00	0	40	104	0	60	78654
2026-01-24 18:56:27.28	44.83	1.04	-51.5	-66.7	3.6	1.51e+00	0	40	104	0	60	78410
2026-01-24 18:56:28.30	44.75	1.09	-51.3	-66.5	3.6	1.51e+00	0	40	104	0	60	76547
2026-01-24 18:56:29.31	44.67	1.14	-51.1	-66.3	3.6	1.51e+00	0	40	104	0	60	74962
2026-01-24 18:56:30.32	44.58	1.19	-50.9	-66.1	3.6	1.51e+00	0	40	104	0	60	73299
2026-01-24 18:56:31.33	44.50	1.24	-50.6	-65.8	3.6	1.51e+00	0	40	104	0	60	70611
2026-01-24 18:56:32.34	44.42	1.29	-50.3	-65.5	3.6	1.51e+00	0	40	104	0	60	68115
2026-01-24 18:56:33.35	44.34	1.34	-50.2	-65.4	3.6	1.51e+00	0	40	104	0	60	67361
2026-01-24 18:56:34.35	44.26	1.39	-50.2	-65.4	3.5	1.51e+00	0	40	104	0	60	67616
2026-01-24 18:56:35.36	44.18	1.44	-50.2	-65.4	3.6	1.51e+00	0	40	104	0	60	67587
2026-01-24 18:56:36.37	44.10	1.49	-50.2	-65.4	3.6	1.51e+00	0	40	104	0	60	67315
2026-01-24 18:56:37.38	44.01	1.54	-50.2	-65.4	3.6	1.51e+00	0	40	104	0	60	67575
2026-01-24 18:56:38.39	43.93	1.59	-50.3	-65.4	3.6	1.51e+00	0	40	104	0	60	67664
2026-01-24 18:56:39.41	43.85	1.64	-50.3	-65.5	3.6	1.51e+00	0	40	104	0	60	67833
2026-01-24 18:56:40.42	43.76	1.69	-50.2	-65.3	3.6	1.51e+00	0	40	104	0	60	66753
2026-01-24 18:56:41.43	43.68	1.74	-50.2	-65.4	3.6	1.51e+00	0	40	104	0	60	67426
2026-01-24 18:56:42.44	43.59	1.79	-50.1	-65.3	3.6	1.51e+00	0	40	104	0	60	66904
2026-01-24 18:56:43.45	43.51	1.84	-50.1	-65.4	3.6	1.51e+00	0	41	104	0	60	66932
2026-01-24 18:56:44.46	43.42	1.89	-50.1	-65.3	3.6	1.51e+00	0	40	104	0	60	66771
2026-01-24 18:56:45.47	43.34	1.94	-50.3	-65.6	3.6	1.51e+00	0	41	104	0	60	68559
2026-01-24 18:56:46.48	43.25	1.99	-50.5	-65.7	3.6	1.51e+00	0	41	104	0	60	69420
2026-01-24 18:56:47.49	43.17	2.04	-50.6	-65.8	3.6	1.51e+00	0	41	104	0	60	70389
2026-01-24 18:56:48.50	43.08	2.10	-50.4	-65.5	3.6	1.51e+00	0	41	104	0	60	68187
2026-01-24 18:56:49.51	43.00	2.15	-50.3	-65.1	3.6	1.51e+00	0	41	104	0	60	64850
2026-01-24 18:56:50.52	42.91	2.20	-50.2	-65.3	3.6	1.51e+00	0	41	104	0	60	66575
2026-01-24 18:56:51.53	42.82	2.25	-50.3	-65.4	3.6	1.51e+00	0	41	104	0	60	67134
2026-01-24 18:56:52.54	42.73	2.30	-50.2	-65.4	3.6	1.51e+00	0	41	104	0	60	67033
2026-01-24 18:56:53.55	42.65	2.35	-50.4	-65.6	3.6	1.51e+00	0	41	104	0	60	69156
2026-01-24 18:56:54.56	42.56	2.40	-50.4	-65.6	3.6	1.51e+00	0	41	104	0	60	69051
2026-01-24 18:56:55.57	42.47	2.45	-50.4	-65.6	3.6	1.51e+00	0	41	104	0	60	68684
2026-01-24 18:56:56.58	42.38	2.50	-50.6	-65.8	3.6	1.51e+00	0	41	104	0	60	70785
2026-01-24 18:56:57.59	42.29	2.55	-50.5	-65.7	3.6	1.51e+00	0	41	104	0	60	69520
2026-01-24 18:56:58.60	42.20	2.60	-50.5	-65.3	3.6	1.51e+00	0	41	104	0	60	66479
2026-01-24 18:56:59.60	42.12	2.65	-50.3	-65.1	3.6	1.51e+00	0	41	104	0	60	64972
2026-01-24 18:57:00.61	42.03	2.70	-50.4	-65.1	3.6	1.51e+00	0	41	104	0	60	65046
2026-01-24 18:57:01.62	41.94	2.76	-50.4	-65.3	3.6	1.51e+00	0	41	104	0	60	66577
2026-01-24 18:57:02.63	41.85	2.81	-50.3	-64.9	3.6	1.51e+00	0	41	104	0	60	63739
2026-01-24 18:57:03.64	41.76	2.86	-50.3	-62.8	3.6	1.51e+00	0	41	104	0	60	49635
2026-01-24 18:57:04.65	41.66	2.91	-49.8	-59.1	5.5	7.08e-01	0	41	104	0	60	32559
2026-01-24 18:57:05.66	41.57	2.96	-48.6	-53.5	10.6	5.01e-02	0	41	0	1048576	60	17031
2026-01-24 18:57:06.67	41.48	3.01	-48.4	-53.1	11.7	1.35e-03	0	41	0	3145728	60	16292
2026-01-24 18:57:07.68	41.39	3.06	-49.1	-55.0	9.1	1.25e-02	0	41	0	5242880	60	20263
2026-01-24 18:57:08.69	41.30	3.11	-50.0	-60.9	3.7	6.04e-02	31	41	0	7340032	60	40233
2026-01-24 18:57:09.70	41.20	3.16	-47.2	-50.7	13.1	1.02e+00	0	41	104	7340032	60	12371
2026-01-24 18:57:10.71	41.11	3.21	-46.6	-49.4	14.6	7.00e-07	0	41	0	8388608	60	10706
2026-01-24 18:57:11.72	41.02	3.27	-49.9	-61.7	3.6	2.72e-04	26	41	0	10485760	60	44155
2026-01-24 18:57:12.72	40.92	3.32	-46.8	-49.8	5.9	1.50e+00	21	41	104	10485760	60	11178
2026-01-24 18:57:13.73	40.83	3.37	-45.1	-46.9	17.9	3.91e-02	0	41	0	10485760	60	7965
2026-01-24 18:57:14.74	40.74	3.42	-46.1	-48.4	16.6	0.00e+00	0	41	0	12582912	60	9541
2026-01-24 18:57:15.75	40.64	3.47	-46.7	-49.3	16.0	0.00e+00	0	41	0	13631488	60	10498
2026-01-24 18:57:16.76	40.55	3.52	-45.7	-47.9	16.6	0.00e+00	0	41	0	15728640	60	8952
2026-01-24 18:57:17.77	40.45	3.57	-46.6	-49.0	15.8	0.00e+00	0	41	0	17825792	60	10221
2026-01-24 18:57:18.79	40.35	3.63	-45.1	-47.0	17.7	0.00e+00	0	41	0	19922944	60	8065
2026-01-24 18:57:19.80	40.26	3.68	-46.4	-48.9	15.8	0.00e+00	0	41	0	22020096	60	10083
2026-01-24 18:57:20.81	40.16	3.73	-45.7	-47.9	16.8	0.00e+00	0	41	0	23068672	60	8928
2026-01-24 18:57:21.81	40.07	3.78	-47.1	-50.1	14.4	0.00e+00	0	41	0	25165824	60	11557
2026-01-24 18:57:22.82	39.97	3.83	-46.0	-48.3	16.4	0.00e+00	0	41	0	27262976	60	9433
2026-01-24 18:57:23.82	39.87	3.88	-46.3	-48.7	16.0	0.00e+00	0	41	0	29360128	60	9875
2026-01-24 18:57:24.83	39.77	3.93	-46.3	-48.7	16.3	0.00e+00	0	41	0	31457280	60	9834
2026-01-24 18:57:25.84	39.68	3.98	-46.0	-48.2	16.4	0.00e+00	0	41	0	32505856	60	9334
2026-01-24 18:57:26.85	39.58	4.04	-47.9	-51.3	13.5	0.00e+00	0	41	0	34603008	60	13293
2026-01-24 18:57:27.86	39.48	4.09	-46.6	-49.0	16.2	1.50e-06	0	41	0	36700160	60	10245
2026-01-24 18:57:28.87	39.38	4.14	-46.4	-48.8	15.6	0.00e+00	0	41	0	38797312	60	9909
2026-01-24 18:57:29.88	39.28	4.19	-46.4	-48.7	16.3	0.00e+00	0	41	0	40894464	60	9848
2026-01-24 18:57:30.89	39.18	4.24	-45.7	-47.8	16.9	0.00e+00	0	41	0	41943040	60	8854
2026-01-24 18:57:31.90	39.08	4.29	-45.7	-47.8	17.1	0.00e+00	0	41	0	44040192	60	8856
2026-01-24 18:57:32.91	38.98	4.35	-46.3	-48.6	16.5	0.00e+00	0	41	0	46137344	60	9729
2026-01-24 18:57:33.92	38.88	4.40	-46.4	-48.8	15.8	0.00e+00	0	41	0	48234496	60	9948
2026-01-24 18:57:34.93	38.77	4.45	-45.8	-47.9	17.2	0.00e+00	0	41	0	50331648	60	8935
2026-01-24 18:57:35.94	38.67	4.50	-45.5	-47.5	17.3	0.00e+00	0	41	0	51380224	60	8565
2026-01-24 18:57:36.95	38.57	4.55	-45.0	-46.7	18.2	0.00e+00	0	41	0	53477376	60	7853
2026-01-24 18:57:37.96	38.47	4.60	-45.4	-47.4	17.7	0.00e+00	0	41	0	55574528	60	8456
2026-01-24 18:57:38.96	38.37	4.65	-46.1	-48.2	16.8	0.00e+00	0	41	0	57671680	60	9324
2026-01-24 18:57:39.97	38.26	4.71	-46.7	-49.2	16.0	0.00e+00	0	41	0	59768832	60	10373
2026-01-24 18:57:40.98	38.16	4.76	-45.5	-47.5	17.4	0.00e+00	0	41	0	60817408	60	8594
2026-01-24 18:57:41.99	38.05	4.81	-45.4	-47.4	17.6	0.00e+00	0	41	0	62914560	60	8507
2026-01-24 18:57:43.00	37.95	4.86	-45.0	-46.8	18.1	0.00e+00	0	41	0	65011712	60	7900
2026-01-24 18:57:44.01	37.85	4.91	-45.9	-47.9	17.4	0.00e+00	0	41	0	67108864	60	8983
2026-01-24 18:57:45.02	37.74	4.97	-45.3	-47.2	18.0	0.00e+00	0	41	0	69206016	60	8267
2026-01-24 18:57:46.03	37.63	5.02	-45.9	-48.0	17.5	0.00e+00	0	41	0	70254592	60	9028
2026-01-24 18:57:47.04	37.53	5.07	-45.7	-47.7	17.6	0.00e+00	0	41	0	72351744	60	8768
2026-01-24 18:57:48.05	37.42	5.12	-45.7	-47.7	17.3	0.00e+00	0	41	0	74448896	60	8812
2026-01-24 18:57:49.06	37.31	5.17	-45.5	-47.3	18.1	0.00e+00	0	41	0	76546048	60	8348
2026-01-24 18:57:50.06	37.21	5.22	-45.2	-46.9	18.4	0.00e+00	0	41	0	78643200	60	8031
2026-01-24 18:57:51.07	37.10	5.28	-44.8	-46.4	18.8	0.00e+00	0	41	0	80740352	60	7554
2026-01-24 18:57:52.08	36.99	5.33	-45.3	-47.1	18.3	0.00e+00	0	41	0	81788928	60	8162
2026-01-24 18:57:53.09	36.88	5.38	-45.1	-46.8	18.4	0.00e+00	0	41	0	83886080	60	7942
2026-01-24 18:57:54.10	36.78	5.43	-45.2	-47.0	18.4	0.00e+00	0	41	0	85983232	60	8056
2026-01-24 18:57:55.11	36.67	5.48	-45.2	-46.9	18.3	0.00e+00	0	41	0	88080384	60	8021
2026-01-24 18:57:56.12	36.56	5.54	-44.9	-46.6	18.6	0.00e+00	0	41	0	90177536	60	7719
2026-01-24 18:57:57.13	36.45	5.59	-45.4	-47.2	17.9	0.00e+00	0	41	0	91226112	60	8305
2026-01-24 18:57:58.14	36.34	5.64	-45.7	-47.7	17.4	0.00e+00	0	41	0	93323264	60	8782
2026-01-24 18:57:59.15	36.23	5.69	-44.8	-46.4	18.7	0.00e+00	0	41	0	95420416	60	7594
2026-01-24 18:58:00.16	36.11	5.74	-44.9	-46.6	18.5	0.00e+00	0	41	0	97517568	60	7710
2026-01-24 18:58:01.17	36.00	5.79	-44.7	-46.3	18.5	0.00e+00	0	41	0	99614720	60	7494
2026-01-24 18:58:02.18	35.89	5.85	-45.1	-46.9	18.2	0.00e+00	0	41	0	100663296	60	8024
2026-01-24 18:58:03.19	35.78	5.90	-44.0	-45.5	19.4	0.00e+00	0	41	0	102760448	60	6821
2026-01-24 18:58:04.20	35.67	5.95	-45.1	-46.9	18.2	0.00e+00	0	41	0	104857600	60	7982
2026-01-24 18:58:05.21	35.55	6.00	-44.4	-45.9	19.2	0.00e+00	0	41	0	106954752	60	7156
2026-01-24 18:58:06.22	35.44	6.05	-44.7	-46.4	18.6	0.00e+00	0	41	0	109051904	60	7559
2026-01-24 18:58:07.23	35.32	6.11	-44.7	-46.3	18.8	0.00e+00	0	41	0	110100480	60	7462
2026-01-24 18:58:08.23	35.21	6.16	-44.6	-46.3	18.7	0.00e+00	0	41	0	112197632	60	7429
2026-01-24 18:58:09.24	35.10	6.21	-44.3	-45.8	19.4	0.00e+00	0	41	0	114294784	60	7064
2026-01-24 18:58:10.25	34.98	6.26	-44.3	-45.9	19.1	0.00e+00	0	41	0	116391936	60	7098
2026-01-24 18:58:11.26	34.86	6.31	-44.5	-46.1	18.9	0.00e+00	0	41	0	118489088	60	7302
2026-01-24 18:58:12.27	34.75	6.36	-44.2	-45.8	19.2	0.00e+00	0	41	0	119537664	60	7035
2026-01-24 18:58:13.28	34.63	6.42	-44.5	-46.1	18.9	0.00e+00	0	41	0	121634816	60	7302
2026-01-24 18:58:14.29	34.51	6.47	-44.3	-45.9	19.3	0.00e+00	0	41	0	123731968	60	7109
2026-01-24 18:58:15.30	34.40	6.52	-44.6	-46.3	18.8	0.00e+00	0	41	0	125829120	60	7439
2026-01-24 18:58:16.31	34.28	6.57	-44.6	-46.2	18.7	0.00e+00	0	41	0	127926272	60	7398
2026-01-24 18:58:17.32	34.16	6.62	-44.7	-46.5	18.5	0.00e+00	0	41	0	128974848	60	7605
2026-01-24 18:58:18.33	34.04	6.67	-44.1	-45.6	19.4	0.00e+00	0	41	0	131072000	60	6883
2026-01-24 18:58:19.34	33.92	6.73	-43.7	-45.1	19.8	0.00e+00	0	41	0	133169152	60	6524
2026-01-24 18:58:20.35	33.80	6.78	-44.1	-45.6	19.2	0.00e+00	0	41	0	135266304	60	6900
2026-01-24 18:58:21.36	33.68	6.83	-44.4	-46.0	18.9	0.00e+00	0	41	0	137363456	60	7202
2026-01-24 18:58:22.37	33.56	6.88	-44.3	-45.9	19.1	0.00e+00	0	41	0	138412032	60	7139
2026-01-24 18:58:23.38	33.44	6.93	-44.1	-45.6	19.2	0.00e+00	0	41	0	140509184	60	6902
2026-01-24 18:58:24.39	33.32	6.98	-44.9	-46.6	18.2	0.00e+00	0	41	0	142606336	60	7763
2026-01-24 18:58:25.40	33.20	7.04	-44.4	-46.0	19.1	0.00e+00	0	41	0	144703488	60	7239
2026-01-24 18:58:26.41	33.08	7.09	-44.0	-45.6	19.4	0.00e+00	0	41	0	146800640	60	6853
2026-01-24 18:58:27.42	32.95	7.14	-44.1	-45.6	19.4	0.00e+00	0	41	0	147849216	60	6880
2026-01-24 18:58:28.43	32.83	7.19	-44.0	-45.4	19.5	0.00e+00	0	41	0	149946368	60	6763
2026-01-24 18:58:29.43	32.71	7.24	-44.2	-45.7	19.3	0.00e+00	0	41	0	152043520	60	6999
2026-01-24 18:58:30.44	32.58	7.29	-44.3	-45.9	19.2	0.00e+00	0	41	0	154140672	60	7116
2026-01-24 18:58:31.45	32.46	7.35	-44.5	-46.1	19.6	0.00e+00	0	41	0	156237824	60	7258
2026-01-24 18:58:32.46	32.33	7.40	-44.0	-45.4	19.7	0.00e+00	0	41	0	157286400	60	6747
2026-01-24 18:58:33.47	32.21	7.45	-44.1	-45.6	19.5	0.00e+00	0	41	0	159383552	60	6859
2026-01-24 18:58:34.48	32.08	7.50	-44.2	-45.6	19.9	0.00e+00	0	41	0	161480704	60	6926
2026-01-24 18:58:35.49	31.96	7.55	-44.4	-45.8	19.7	0.00e+00	0	41	0	163577856	60	7080
2026-01-24 18:58:36.50	31.83	7.60	-44.2	-45.6	19.6	0.00e+00	0	41	0	165675008	60	6895
2026-01-24 18:58:37.51	31.70	7.65	-44.9	-46.5	18.8	0.00e+00	0	41	0	166723584	60	7600
2026-01-24 18:58:38.52	31.57	7.70	-44.1	-45.5	19.9	0.00e+00	0	41	0	168820736	60	6815
2026-01-24 18:58:39.53	31.45	7.76	-44.2	-45.7	19.6	0.00e+00	0	41	0	170917888	60	6932
2026-01-24 18:58:40.54	31.32	7.81	-44.8	-46.3	19.2	0.00e+00	0	41	0	173015040	60	7503
2026-01-24 18:58:41.55	31.19	7.86	-44.6	-46.1	19.3	0.00e+00	0	41	0	175112192	60	7309
2026-01-24 18:58:42.56	31.06	7.91	-44.5	-46.1	19.3	0.00e+00	0	41	0	177209344	60	7271
2026-01-24 18:58:43.57	30.93	7.96	-43.8	-45.2	20.1	0.00e+00	0	41	0	178257920	60	6555
2026-01-24 18:58:44.58	30.80	8.01	-44.3	-45.7	19.6	0.00e+00	0	41	0	180355072	60	6997
2026-01-24 18:58:45.59	30.67	8.06	-44.4	-45.9	19.7	0.00e+00	0	41	0	182452224	60	7133
2026-01-24 18:58:46.60	30.54	8.11	-45.2	-47.0	19.3	0.00e+00	0	41	0	184549376	60	8050
2026-01-24 18:58:47.61	30.40	8.16	-45.2	-46.9	19.1	0.00e+00	0	41	0	186646528	60	7958
2026-01-24 18:58:48.62	30.27	8.22	-44.4	-45.8	19.6	0.00e+00	0	41	0	187695104	60	7058
2026-01-24 18:58:49.63	30.14	8.27	-45.7	-47.4	18.6	0.00e+00	0	41	0	189792256	60	8512
2026-01-24 18:58:50.64	30.01	8.32	-46.4	-48.5	17.4	0.00e+00	0	41	0	191889408	60	9672
2026-01-24 18:58:51.65	29.87	8.37	-45.0	-46.6	18.9	0.00e+00	0	41	0	193986560	60	7749
2026-01-24 18:58:52.66	29.74	8.42	-44.4	-45.9	19.5	0.00e+00	0	41	0	196083712	60	7151
2026-01-24 18:58:53.67	29.60	8.47	-44.7	-46.3	19.0	0.00e+00	0	41	0	197132288	60	7480
2026-01-24 18:58:54.68	29.47	8.52	-44.3	-45.7	19.5	0.00e+00	0	41	0	199229440	60	7001
2026-01-24 18:58:55.68	29.33	8.57	-44.2	-45.7	19.6	0.00e+00	0	41	0	201326592	60	6972
2026-01-24 18:58:56.69	29.20	8.62	-44.3	-45.8	19.7	0.00e+00	0	41	0	203423744	60	7067
2026-01-24 18:58:57.70	29.06	8.67	-44.4	-45.9	19.6	0.00e+00	0	41	0	205520896	60	7157
2026-01-24 18:58:58.71	28.92	8.72	-44.0	-45.4	20.0	0.00e+00	0	41	0	206569472	60	6705
2026-01-24 18:58:59.72	28.79	8.77	-44.7	-46.2	19.7	0.00e+00	0	41	0	208666624	60	7362
2026-01-24 18:59:00.73	28.65	8.82	-44.7	-46.3	19.1	0.00e+00	0	41	0	210763776	60	7478
2026-01-24 18:59:01.74	28.51	8.87	-44.1	-45.6	20.0	0.00e+00	0	41	0	212860928	60	6869
2026-01-24 18:59:02.75	28.37	8.92	-44.5	-46.0	19.7	0.00e+00	0	41	0	214958080	60	7194
2026-01-24 18:59:03.76	28.23	8.97	-44.6	-46.2	19.5	0.00e+00	0	41	0	216006656	60	7347
2026-01-24 18:59:04.77	28.09	9.02	-43.9	-45.3	20.1	0.00e+00	0	41	0	218103808	60	6667
2026-01-24 18:59:05.78	27.95	9.07	-44.1	-45.6	19.7	0.00e+00	0	41	0	220200960	60	6886
2026-01-24 18:59:06.79	27.81	9.12	-43.9	-45.3	20.0	0.00e+00	0	41	0	222298112	60	6636
2026-01-24 18:59:07.80	27.67	9.17	-43.9	-45.3	19.8	0.00e+00	0	41	0	224395264	60	6618
2026-01-24 18:59:08.81	27.52	9.22	-43.8	-45.2	20.1	0.00e+00	0	41	0	225443840	60	6547
2026-01-24 18:59:09.82	27.38	9.27	-44.4	-46.0	19.2	0.00e+00	0	41	0	227540992	60	7196
2026-01-24 18:59:10.83	27.24	9.32	-43.7	-45.0	20.5	0.00e+00	0	41	0	229638144	60	6395
2026-01-24 18:59:11.84	27.09	9.37	-44.2	-45.7	19.8	0.00e+00	0	41	0	231735296	60	6961
2026-01-24 18:59:12.85	26.95	9.42	-44.0	-45.3	20.0	0.00e+00	0	41	0	233832448	60	6692
2026-01-24 18:59:13.86	26.81	9.47	-44.2	-45.6	19.8	0.00e+00	0	41	0	234881024	60	6890
2026-01-24 18:59:14.87	26.66	9.52	-44.1	-45.6	19.9	0.00e+00	0	41	0	236978176	60	6852
2026-01-24 18:59:15.88	26.52	9.57	-43.9	-45.3	20.2	0.00e+00	0	41	0	239075328	60	6663
2026-01-24 18:59:16.89	26.37	9.62	-43.9	-45.3	20.1	0.00e+00	0	41	0	241172480	60	6646
2026-01-24 18:59:17.90	26.22	9.67	-43.6	-45.0	20.3	0.00e+00	0	41	0	243269632	60	6410
2026-01-24 18:59:18.91	26.08	9.72	-43.7	-45.0	20.1	0.00e+00	0	41	0	245366784	60	6462
2026-01-24 18:59:19.92	25.93	9.76	-43.6	-44.9	20.5	0.00e+00	0	41	0	246415360	60	6348
2026-01-24 18:59:20.93	25.78	9.81	-43.6	-44.9	20.5	0.00e+00	0	41	0	248512512	60	6373
2026-01-24 18:59:21.94	25.63	9.86	-43.5	-44.8	20.5	0.00e+00	0	41	0	250609664	60	6315
2026-01-24 18:59:22.95	25.48	9.91	-44.0	-45.4	20.0	0.00e+00	0	41	0	252706816	60	6725
2026-01-24 18:59:23.96	25.33	9.96	-43.5	-44.8	20.6	0.00e+00	0	41	0	254803968	60	6276
2026-01-24 18:59:24.97	25.18	10.01	-43.3	-44.6	20.7	0.00e+00	0	41	0	255852544	60	6131
2026-01-24 18:59:25.98	25.03	10.06	-43.6	-44.9	20.3	0.00e+00	0	41	0	257949696	60	6372
2026-01-24 18:59:26.98	24.88	10.10	-43.5	-44.8	20.4	0.00e+00	0	41	0	260046848	60	6289
2026-01-24 18:59:27.99	24.73	10.15	-43.6	-45.0	20.3	0.00e+00	0	41	0	262144000	60	6392
2026-01-24 18:59:29.00	24.58	10.20	-43.6	-44.9	20.6	0.00e+00	0	41	0	264241152	60	6336
2026-01-24 18:59:30.01	24.43	10.25	-43.3	-44.6	20.8	0.00e+00	0	41	0	265289728	60	6131
2026-01-24 18:59:31.02	24.27	10.30	-42.9	-44.0	21.1	0.00e+00	0	41	0	267386880	60	5756
2026-01-24 18:59:32.03	24.12	10.34	-42.9	-44.1	21.2	0.00e+00	0	41	0	269484032	60	5816
2026-01-24 18:59:33.04	23.97	10.39	-42.9	-44.1	21.3	0.00e+00	0	41	0	271581184	60	5807
2026-01-24 18:59:34.05	23.81	10.44	-42.7	-43.9	21.3	0.00e+00	0	41	0	273678336	58	6350
2026-01-24 18:59:35.06	23.66	10.49	-42.7	-43.8	21.5	0.00e+00	0	41	0	274726912	58	6279
2026-01-24 18:59:36.07	23.50	10.53	-42.6	-43.7	21.5	0.00e+00	0	41	0	276824064	58	6223
2026-01-24 18:59:37.08	23.34	10.58	-42.5	-43.6	21.5	0.00e+00	0	41	0	278921216	58	6162
2026-01-24 18:59:38.09	23.19	10.63	-42.4	-43.5	21.7	0.00e+00	0	41	0	281018368	58	6055
2026-01-24 18:59:39.10	23.03	10.68	-43.3	-44.5	20.8	0.00e+00	0	41	0	283115520	58	6824
2026-01-24 18:59:40.11	22.87	10.72	-43.2	-44.5	20.9	0.00e+00	0	41	0	284164096	58	6800
2026-01-24 18:59:41.12	22.71	10.77	-42.8	-44.0	21.4	0.00e+00	0	41	0	286261248	58	6407
2026-01-24 18:59:42.13	22.55	10.82	-42.5	-43.6	21.6	0.00e+00	0	41	0	288358400	58	6138
2026-01-24 18:59:43.14	22.40	10.86	-42.4	-43.5	21.8	0.00e+00	0	41	0	290455552	58	6054
2026-01-24 18:59:44.14	22.24	10.91	-42.1	-43.2	22.0	0.00e+00	0	41	0	292552704	58	5856
2026-01-24 18:59:45.15	22.08	10.95	-42.1	-43.2	21.9	0.00e+00	0	41	0	293601280	58	5871
2026-01-24 18:59:46.16	21.92	11.00	-42.2	-43.3	21.9	0.00e+00	0	41	0	295698432	58	5903
2026-01-24 18:59:47.17	21.75	11.05	-42.3	-43.4	22.0	0.00e+00	0	41	0	297795584	58	6010
2026-01-24 18:59:48.18	21.59	11.09	-42.3	-43.4	21.8	0.00e+00	0	41	0	299892736	58	6015
2026-01-24 18:59:49.19	21.43	11.14	-42.2	-43.3	21.8	0.00e+00	0	41	0	301989888	58	5908
2026-01-24 18:59:50.21	21.27	11.18	-42.4	-43.6	21.7	0.00e+00	0	41	0	303038464	58	6131
2026-01-24 18:59:51.21	21.10	11.23	-42.2	-43.3	22.0	0.00e+00	0	41	0	305135616	58	5939
2026-01-24 18:59:52.23	20.94	11.27	-41.9	-43.0	22.1	0.00e+00	0	41	0	307232768	58	5706
2026-01-24 18:59:53.24	20.77	11.32	-41.8	-42.8	21.8	0.00e+00	0	41	0	309329920	58	5626
2026-01-24 18:59:54.25	20.61	11.36	-41.9	-43.0	22.5	0.00e+00	0	41	0	311427072	56	6416
2026-01-24 18:59:55.25	20.45	11.41	-42.0	-43.1	22.2	0.00e+00	0	41	0	313524224	56	6484
2026-01-24 18:59:56.26	20.28	11.45	-41.8	-42.9	22.4	0.00e+00	0	41	0	314572800	56	6322
2026-01-24 18:59:57.27	20.11	11.50	-42.0	-43.1	22.2	0.00e+00	0	41	0	316669952	56	6471
2026-01-24 18:59:58.27	19.95	11.54	-41.6	-42.6	22.5	0.00e+00	0	41	0	318767104	56	6159
2026-01-24 18:59:59.28	19.78	11.58	-41.6	-42.6	22.4	0.00e+00	0	41	0	320864256	56	6168
2026-01-24 19:00:00.30	19.61	11.63	-41.4	-42.4	22.6	0.00e+00	0	41	0	322961408	56	6028
2026-01-24 19:00:01.31	19.44	11.67	-41.4	-42.4	22.6	0.00e+00	0	41	0	324009984	56	5977
2026-01-24 19:00:02.31	19.27	11.72	-41.3	-42.4	22.7	0.00e+00	0	41	0	326107136	56	5968
2026-01-24 19:00:03.32	19.10	11.76	-41.6	-42.6	22.2	0.00e+00	0	41	0	328204288	56	6148
2026-01-24 19:00:04.33	18.93	11.80	-41.6	-42.6	22.6	0.00e+00	0	41	0	330301440	56	6150
2026-01-24 19:00:05.34	18.76	11.85	-41.2	-42.2	23.0	0.00e+00	0	41	0	332398592	56	5841
2026-01-24 19:00:06.35	18.59	11.89	-41.2	-42.2	22.9	0.00e+00	0	41	0	333447168	56	5866
2026-01-24 19:00:07.36	18.42	11.93	-41.2	-42.1	23.0	0.00e+00	0	41	0	335544320	56	5811
2026-01-24 19:00:08.37	18.25	11.97	-41.1	-42.0	23.1	0.00e+00	0	41	0	337641472	56	5748
2026-01-24 19:00:09.38	18.08	12.02	-41.3	-42.3	23.0	0.00e+00	0	41	0	339738624	56	5923
2026-01-24 19:00:10.39	17.90	12.06	-41.2	-42.2	23.0	0.00e+00	0	41	0	341835776	56	5847
2026-01-24 19:00:11.40	17.73	12.10	-41.1	-42.1	23.0	0.00e+00	0	41	0	342884352	56	5767
2026-01-24 19:00:12.41	17.56	12.14	-41.3	-42.2	23.0	0.00e+00	0	41	0	344981504	56	5872
2026-01-24 19:00:13.41	17.38	12.18	-41.5	-42.5	22.8	0.00e+00	0	41	0	347078656	56	6075
2026-01-24 19:00:14.42	17.21	12.23	-41.3	-42.3	22.9	0.00e+00	0	41	0	349175808	56	5906
2026-01-24 19:00:15.43	17.03	12.27	-41.5	-42.4	22.8	0.00e+00	0	41	0	351272960	56	6028
2026-01-24 19:00:16.44	16.86	12.31	-41.6	-42.7	22.6	0.00e+00	0	41	0	352321536	56	6180
2026-01-24 19:00:17.45	16.68	12.35	-41.6	-42.6	22.6	0.00e+00	0	41	0	354418688	56	6112
2026-01-24 19:00:18.46	16.50	12.39	-42.0	-43.0	22.2	0.00e+00	0	41	0	356515840	56	6426
2026-01-24 19:00:19.47	16.32	12.43	-41.7	-42.7	22.6	0.00e+00	0	41	0	358612992	56	6223
2026-01-24 19:00:20.48	16.15	12.47	-41.8	-42.8	22.5	0.00e+00	0	41	0	360710144	56	6288
2026-01-24 19:00:21.49	15.97	12.51	-41.8	-42.8	22.5	0.00e+00	0	41	0	361758720	56	6302
2026-01-24 19:00:22.50	15.79	12.55	-42.0	-43.1	22.2	0.00e+00	0	41	0	363855872	56	6469
2026-01-24 19:00:23.51	15.61	12.59	-41.8	-42.8	22.5	0.00e+00	0	41	0	365953024	56	6312
2026-01-24 19:00:24.52	15.43	12.63	-41.6	-42.6	22.6	0.00e+00	0	41	0	368050176	56	6152
2026-01-24 19:00:25.53	15.25	12.67	-41.6	-42.7	22.5	0.00e+00	0	41	0	370147328	56	6177
2026-01-24 19:00:26.54	15.07	12.71	-41.5	-42.5	22.6	0.00e+00	0	41	0	371195904	56	6091
2026-01-24 19:00:27.55	14.89	12.75	-41.6	-42.6	22.6	0.00e+00	0	41	0	373293056	56	6160
2026-01-24 19:00:28.56	14.70	12.79	-41.6	-42.6	22.6	0.00e+00	0	41	0	375390208	56	6153
2026-01-24 19:00:29.57	14.52	12.82	-41.7	-42.7	22.4	0.00e+00	0	41	0	377487360	56	6194
2026-01-24 19:00:30.58	14.34	12.86	-41.6	-42.6	22.5	0.00e+00	0	41	0	379584512	56	6157
2026-01-24 19:00:31.59	14.15	12.90	-41.7	-42.7	22.5	0.00e+00	0	41	0	381681664	56	6211
2026-01-24 19:00:32.59	13.97	12.94	-41.4	-42.4	22.5	0.00e+00	0	41	0	382730240	56	6027
2026-01-24 19:00:33.60	13.79	12.97	-41.6	-42.6	22.3	0.00e+00	0	41	0	384827392	56	6152
2026-01-24 19:00:34.61	13.60	13.01	-41.7	-42.7	22.5	0.00e+00	0	41	0	386924544	56	6210
2026-01-24 19:00:35.62	13.42	13.05	-41.6	-42.6	22.6	0.00e+00	0	41	0	389021696	56	6152
2026-01-24 19:00:36.63	13.23	13.09	-42.3	-43.4	22.0	0.00e+00	0	41	0	391118848	56	6704
2026-01-24 19:00:37.64	13.05	13.12	-42.1	-43.1	22.1	0.00e+00	0	41	0	392167424	56	6528
2026-01-24 19:00:38.65	12.86	13.16	-41.9	-42.9	22.4	0.00e+00	0	41	0	394264576	56	6380
2026-01-24 19:00:39.66	12.67	13.19	-41.9	-42.9	22.4	0.00e+00	0	41	0	396361728	56	6379
2026-01-24 19:00:40.67	12.48	13.23	-41.8	-42.8	22.4	0.00e+00	0	41	0	398458880	56	6311
2026-01-24 19:00:41.68	12.30	13.27	-42.0	-43.0	22.2	0.00e+00	0	41	0	400556032	56	6456
2026-01-24 19:00:42.68	12.11	13.30	-42.3	-43.4	21.5	0.00e+00	0	41	0	401604608	56	6708
2026-01-24 19:00:43.69	11.92	13.34	-41.9	-42.9	22.4	0.00e+00	0	41	0	403701760	56	6340
2026-01-24 19:00:44.71	11.73	13.37	-41.6	-42.7	22.6	0.00e+00	0	41	0	405798912	56	6179
2026-01-24 19:00:45.71	11.54	13.40	-41.4	-42.4	22.8	0.00e+00	0	41	0	407896064	56	5975
2026-01-24 19:00:46.72	11.35	13.44	-41.5	-42.5	22.6	0.00e+00	0	41	0	409993216	56	6051
2026-01-24 19:00:47.73	11.16	13.47	-41.3	-42.3	22.2	0.00e+00	0	41	0	411041792	56	5951
2026-01-24 19:00:48.74	10.97	13.51	-41.4	-42.4	22.9	0.00e+00	0	41	0	413138944	56	5992
2026-01-24 19:00:49.75	10.78	13.54	-41.3	-42.2	23.0	0.00e+00	0	41	0	415236096	56	5871
2026-01-24 19:00:50.76	10.58	13.57	-41.2	-42.1	23.1	0.00e+00	0	41	0	417333248	56	5804
2026-01-24 19:00:51.77	10.39	13.60	-41.4	-42.4	22.9	0.00e+00	0	41	0	419430400	56	5984
2026-01-24 19:00:52.78	10.20	13.64	-41.7	-42.8	22.7	0.00e+00	0	41	0	420478976	56	6249
2026-01-24 19:00:53.78	10.01	13.67	-41.7	-42.7	22.7	0.00e+00	0	41	0	422576128	56	6235
2026-01-24 19:00:54.79	9.81	13.70	-41.6	-42.6	22.8	0.00e+00	0	41	0	424673280	56	6137
2026-01-24 19:00:55.81	9.62	13.73	-42.1	-43.2	22.3	0.00e+00	0	41	0	426770432	56	6552
2026-01-24 19:00:56.81	9.42	13.76	-41.6	-42.6	22.9	0.00e+00	0	41	0	428867584	56	6160
2026-01-24 19:00:57.82	9.23	13.80	-41.4	-42.3	22.9	0.00e+00	0	41	0	429916160	56	5959
2026-01-24 19:00:58.83	9.03	13.83	-41.3	-42.3	23.1	0.00e+00	0	41	0	432013312	56	5933
2026-01-24 19:00:59.84	8.84	13.86	-41.2	-42.2	23.0	0.00e+00	0	41	0	434110464	56	5861
2026-01-24 19:01:00.85	8.64	13.89	-41.2	-42.2	23.0	0.00e+00	0	41	0	436207616	56	5829
2026-01-24 19:01:01.86	8.44	13.92	-41.1	-42.1	23.1	0.00e+00	0	41	0	438304768	56	5787
2026-01-24 19:01:02.87	8.25	13.95	-41.2	-42.1	23.3	0.00e+00	0	41	0	439353344	56	5802
2026-01-24 19:01:03.88	8.05	13.98	-41.0	-42.0	23.2	0.00e+00	0	41	0	441450496	56	5707
2026-01-24 19:01:04.89	7.85	14.00	-41.3	-42.2	23.1	0.00e+00	0	41	0	443547648	56	5876
2026-01-24 19:01:05.90	7.65	14.03	-41.3	-42.2	23.1	0.00e+00	0	41	0	445644800	56	5892
2026-01-24 19:01:06.91	7.45	14.06	-41.5	-42.4	22.8	0.00e+00	0	41	0	447741952	56	6031
2026-01-24 19:01:07.92	7.26	14.09	-41.5	-42.4	22.8	0.00e+00	0	41	0	448790528	56	6031
2026-01-24 19:01:08.93	7.06	14.12	-41.2	-42.1	23.1	0.00e+00	0	41	0	450887680	56	5814
2026-01-24 19:01:09.93	6.86	14.14	-41.1	-42.1	23.0	0.00e+00	0	41	0	452984832	56	5789
2026-01-24 19:01:10.94	6.66	14.17	-41.3	-42.2	23.1	0.00e+00	0	40	0	455081984	56	5884
2026-01-24 19:01:11.95	6.46	14.20	-41.1	-42.1	23.2	0.00e+00	0	40	0	457179136	56	5769
2026-01-24 19:01:12.96	6.26	14.23	-41.0	-42.0	23.2	0.00e+00	0	41	0	458227712	56	5696
2026-01-24 19:01:13.97	6.05	14.25	-41.0	-42.0	22.8	0.00e+00	0	41	0	460324864	56	5732
2026-01-24 19:01:14.98	5.85	14.28	-41.1	-42.1	23.1	0.00e+00	0	41	0	462422016	56	5769
2026-01-24 19:01:15.99	5.65	14.30	-41.3	-42.3	23.0	0.00e+00	0	41	0	464519168	56	5906
2026-01-24 19:01:17.00	5.45	14.33	-41.1	-42.1	23.1	0.00e+00	0	41	0	466616320	56	5776
2026-01-24 19:01:18.01	5.25	14.35	-41.2	-42.1	23.0	0.00e+00	0	41	0	467664896	56	5813
2026-01-24 19:01:19.02	5.04	14.38	-41.3	-42.2	23.0	0.00e+00	0	41	0	469762048	56	5882
2026-01-24 19:01:20.03	4.84	14.40	-41.2	-42.2	22.9	0.00e+00	0	41	0	471859200	56	5858
2026-01-24 19:01:21.04	4.64	14.43	-41.4	-42.4	22.8	0.00e+00	0	40	0	473956352	56	6008
2026-01-24 19:01:22.05	4.43	14.45	-41.6	-42.6	22.6	0.00e+00	0	41	0	476053504	56	6139
2026-01-24 19:01:23.06	4.23	14.47	-41.8	-42.8	22.7	0.00e+00	0	41	0	478150656	56	6274
2026-01-24 19:01:24.06	4.02	14.49	-41.6	-42.6	22.7	0.00e+00	0	41	0	479199232	56	6140
2026-01-24 19:01:25.07	3.82	14.52	-41.7	-42.7	22.6	0.00e+00	0	41	0	481296384	56	6212
2026-01-24 19:01:26.08	3.61	14.54	-41.1	-42.1	23.1	0.00e+00	0	41	0	483393536	56	5767
2026-01-24 19:01:27.09	3.41	14.56	-41.3	-42.3	22.9	0.00e+00	0	41	0	485490688	56	5941
2026-01-24 19:01:28.10	3.20	14.58	-41.8	-42.9	22.9	0.00e+00	0	41	0	487587840	56	6337
2026-01-24 19:01:29.11	3.00	14.60	-41.8	-42.8	22.6	0.00e+00	0	41	0	488636416	56	6308
2026-01-24 19:01:30.12	2.79	14.62	-41.8	-42.8	22.6	0.00e+00	0	41	0	490733568	56	6259
2026-01-24 19:01:31.13	2.58	14.64	-41.9	-43.0	22.4	0.00e+00	0	41	0	492830720	56	6398
2026-01-24 19:01:32.14	2.38	14.66	-42.0	-43.0	22.4	0.00e+00	0	41	0	494927872	56	6443
2026-01-24 19:01:33.15	2.17	14.68	-42.1	-43.2	22.1	0.00e+00	0	41	0	497025024	56	6583
2026-01-24 19:01:34.16	1.96	14.70	-41.9	-42.9	22.5	0.00e+00	0	41	0	498073600	56	6359
2026-01-24 19:01:35.18	1.75	14.72	-41.6	-42.6	22.6	0.00e+00	0	41	0	500170752	56	6165
2026-01-24 19:01:36.19	1.54	14.74	-41.8	-42.8	22.5	0.00e+00	0	41	0	502267904	56	6316
2026-01-24 19:01:37.19	1.34	14.76	-41.8	-42.8	22.5	0.00e+00	0	41	0	504365056	56	6315
2026-01-24 19:01:38.20	1.13	14.78	-41.7	-42.8	22.6	0.00e+00	0	41	0	506462208	56	6256
2026-01-24 19:01:39.21	0.92	14.79	-42.0	-43.1	22.2	0.00e+00	0	41	0	507510784	56	6482
2026-01-24 19:01:40.22	0.71	14.81	-41.7	-42.7	22.7	0.00e+00	0	41	0	509607936	56	6191
2026-01-24 19:01:41.23	0.50	14.83	-41.3	-42.2	23.0	0.00e+00	0	41	0	511705088	56	5883
2026-01-24 19:01:42.24	0.29	14.84	-41.1	-42.1	23.0	0.00e+00	0	41	0	513802240	56	5776
2026-01-24 19:01:43.25	0.08	14.86	-41.2	-42.1	23.1	0.00e+00	0	41	0	515899392	56	5820
2026-01-24 19:01:44.26	359.87	14.88	-41.4	-42.4	22.9	0.00e+00	0	41	0	516947968	56	5988
2026-01-24 19:01:45.27	359.66	14.89	-41.3	-42.2	23.0	0.00e+00	0	41	0	519045120	56	5889
2026-01-24 19:01:46.28	359.45	14.91	-41.6	-42.5	22.8	0.00e+00	0	41	0	521142272	56	6099
2026-01-24 19:01:47.29	359.24	14.92	-41.6	-42.6	22.7	0.00e+00	0	41	0	523239424	56	6173
2026-01-24 19:01:48.30	359.03	14.93	-41.4	-42.4	23.0	0.00e+00	0	41	0	525336576	56	5999
2026-01-24 19:01:49.31	358.82	14.95	-41.4	-42.3	23.1	0.00e+00	0	41	0	526385152	56	5957
2026-01-24 19:01:50.32	358.60	14.96	-41.6	-42.6	22.9	0.00e+00	0	41	0	528482304	56	6135
2026-01-24 19:01:51.33	358.39	14.97	-41.4	-42.3	23.0	0.00e+00	0	41	0	530579456	56	5963
2026-01-24 19:01:52.34	358.18	14.99	-41.4	-42.3	22.9	0.00e+00	0	41	0	532676608	56	5959
2026-01-24 19:01:53.35	357.97	15.00	-41.4	-42.4	22.9	0.00e+00	0	41	0	534773760	56	5995
2026-01-24 19:01:54.36	357.76	15.01	-41.7	-42.7	22.7	0.00e+00	0	41	0	535822336	56	6187
2026-01-24 19:01:55.37	357.54	15.02	-41.6	-42.6	22.7	0.00e+00	0	41	0	537919488	56	6114
2026-01-24 19:01:56.38	357.33	15.03	-41.9	-42.9	22.4	0.00e+00	0	41	0	540016640	56	6369
2026-01-24 19:01:57.39	357.12	15.04	-42.0	-43.1	22.3	0.00e+00	0	41	0	542113792	56	6483
2026-01-24 19:01:58.40	356.91	15.05	-41.8	-42.8	22.7	0.00e+00	0	41	0	544210944	56	6256
2026-01-24 19:01:59.41	356.69	15.06	-42.0	-43.0	22.7	0.00e+00	0	41	0	546308096	56	6442
2026-01-24 19:02:00.42	356.48	15.07	-41.8	-42.8	22.8	0.00e+00	0	41	0	547356672	56	6295
2026-01-24 19:02:01.43	356.27	15.08	-41.9	-42.9	22.6	0.00e+00	0	41	0	549453824	56	6340
2026-01-24 19:02:02.44	356.05	15.09	-41.8	-42.8	22.5	0.00e+00	0	41	0	551550976	56	6300
2026-01-24 19:02:03.44	355.84	15.10	-41.9	-43.0	22.5	0.00e+00	0	41	0	553648128	56	6397
2026-01-24 19:02:04.45	355.63	15.11	-42.2	-43.3	22.4	0.00e+00	0	41	0	555745280	56	6621
2026-01-24 19:02:05.46	355.42	15.11	-41.8	-42.9	22.5	0.00e+00	0	41	0	556793856	56	6350
2026-01-24 19:02:06.46	355.20	15.12	-41.5	-42.5	22.8	0.00e+00	0	41	0	558891008	56	6065
2026-01-24 19:02:07.47	354.99	15.13	-41.5	-42.5	22.9	0.00e+00	0	41	0	560988160	56	6093
2026-01-24 19:02:08.48	354.78	15.13	-41.6	-42.6	22.7	0.00e+00	0	41	0	563085312	56	6122
2026-01-24 19:02:09.49	354.56	15.14	-41.9	-42.9	22.8	0.00e+00	0	41	0	565182464	56	6349
2026-01-24 19:02:10.50	354.35	15.14	-41.7	-42.7	22.9	0.00e+00	0	41	0	566231040	56	6191
2026-01-24 19:02:11.51	354.13	15.15	-42.1	-43.1	22.4	0.00e+00	0	41	0	568328192	56	6516
2026-01-24 19:02:12.52	353.92	15.15	-41.8	-42.8	22.6	0.00e+00	0	41	0	570425344	56	6246
2026-01-24 19:02:13.53	353.71	15.16	-41.9	-42.9	22.8	0.00e+00	0	41	0	572522496	56	6345
2026-01-24 19:02:14.54	353.49	15.16	-41.8	-42.9	22.7	0.00e+00	0	41	0	574619648	56	6324
2026-01-24 19:02:15.55	353.28	15.16	-41.8	-42.8	22.7	0.00e+00	0	41	0	575668224	56	6307
2026-01-24 19:02:16.56	353.06	15.17	-41.7	-42.8	22.9	0.00e+00	0	41	0	577765376	56	6252
2026-01-24 19:02:17.57	352.85	15.17	-41.6	-42.6	22.9	0.00e+00	0	41	0	579862528	56	6106
2026-01-24 19:02:18.58	352.63	15.17	-41.9	-42.9	22.8	0.00e+00	0	41	0	581959680	56	6318
2026-01-24 19:02:19.59	352.42	15.17	-41.6	-42.5	22.9	0.00e+00	0	40	0	584056832	56	6089
2026-01-24 19:02:20.60	352.20	15.18	-41.7	-42.7	22.7	0.00e+00	0	41	0	585105408	56	6222
2026-01-24 19:02:21.60	351.99	15.18	-41.8	-42.8	22.7	0.00e+00	0	41	0	587202560	56	6299
2026-01-24 19:02:22.61	351.78	15.18	-41.7	-42.7	22.6	0.00e+00	0	41	0	589299712	56	6205
2026-01-24 19:02:23.62	351.56	15.18	-41.6	-42.6	22.7	0.00e+00	0	41	0	591396864	56	6158
2026-01-24 19:02:24.63	351.35	15.18	-41.8	-42.8	22.7	0.00e+00	0	41	0	593494016	56	6250
2026-01-24 19:02:25.64	351.13	15.18	-41.9	-42.9	22.6	0.00e+00	0	41	0	594542592	56	6323
2026-01-24 19:02:26.65	350.92	15.18	-41.9	-42.9	22.3	0.00e+00	0	41	0	596639744	56	6335
2026-01-24 19:02:27.66	350.70	15.17	-41.6	-42.6	22.7	0.00e+00	0	41	0	598736896	56	6120
2026-01-24 19:02:28.67	350.49	15.17	-41.3	-42.2	23.1	0.00e+00	0	41	0	600834048	56	5880
2026-01-24 19:02:29.68	350.27	15.17	-41.2	-42.1	23.1	0.00e+00	0	41	0	602931200	56	5824
2026-01-24 19:02:30.69	350.06	15.17	-41.2	-42.2	23.1	0.00e+00	0	41	0	603979776	56	5864
2026-01-24 19:02:31.70	349.85	15.16	-41.3	-42.3	22.9	0.00e+00	0	41	0	606076928	56	5933
2026-01-24 19:02:32.71	349.63	15.16	-41.4	-42.4	22.9	0.00e+00	0	41	0	608174080	56	6015
2026-01-24 19:02:33.72	349.42	15.16	-41.4	-42.3	23.0	0.00e+00	0	41	0	610271232	56	5961
2026-01-24 19:02:34.72	349.20	15.15	-41.7	-42.6	22.9	0.00e+00	0	41	0	612368384	56	6157
2026-01-24 19:02:35.73	348.99	15.15	-41.9	-42.9	22.6	0.00e+00	0	41	0	614465536	56	6340
2026-01-24 19:02:36.74	348.78	15.14	-41.8	-42.8	22.8	0.00e+00	0	41	0	615514112	56	6260
2026-01-24 19:02:37.75	348.56	15.14	-41.7	-42.7	22.7	0.00e+00	0	41	0	617611264	56	6180
2026-01-24 19:02:38.76	348.35	15.13	-42.0	-43.0	22.6	0.00e+00	0	41	0	619708416	56	6393
2026-01-24 19:02:39.77	348.13	15.12	-42.1	-43.1	22.5	0.00e+00	0	41	0	621805568	56	6494
2026-01-24 19:02:40.78	347.92	15.12	-42.1	-43.2	22.4	0.00e+00	0	41	0	623902720	56	6544
2026-01-24 19:02:41.79	347.71	15.11	-42.2	-43.3	22.2	0.00e+00	0	41	0	624951296	56	6641
2026-01-24 19:02:42.80	347.49	15.10	-42.2	-43.3	22.1	0.00e+00	0	41	0	627048448	56	6667
2026-01-24 19:02:43.81	347.28	15.10	-42.2	-43.3	22.4	0.00e+00	0	41	0	629145600	56	6627
2026-01-24 19:02:44.82	347.07	15.09	-42.2	-43.3	22.2	0.00e+00	0	41	0	631242752	56	6623
2026-01-24 19:02:45.83	346.85	15.08	-42.2	-43.2	22.3	0.00e+00	0	41	0	633339904	56	6611
2026-01-24 19:02:46.84	346.64	15.07	-42.3	-43.4	22.1	0.00e+00	0	41	0	634388480	56	6767
2026-01-24 19:02:47.85	346.43	15.06	-41.7	-42.7	22.7	0.00e+00	0	41	0	636485632	56	6241
2026-01-24 19:02:48.86	346.21	15.05	-41.7	-42.7	22.8	0.00e+00	0	41	0	638582784	56	6238
2026-01-24 19:02:49.87	346.00	15.04	-41.7	-42.7	22.9	0.00e+00	0	41	0	640679936	56	6185
2026-01-24 19:02:50.88	345.79	15.03	-41.7	-42.7	22.5	0.00e+00	0	41	0	642777088	56	6234
2026-01-24 19:02:51.89	345.58	15.02	-41.9	-42.9	22.7	0.00e+00	0	41	0	643825664	56	6351
2026-01-24 19:02:52.90	345.36	15.01	-42.0	-43.0	22.6	0.00e+00	0	41	0	645922816	56	6448
2026-01-24 19:02:53.90	345.15	14.99	-42.2	-43.3	22.2	0.00e+00	0	41	0	648019968	56	6618
2026-01-24 19:02:54.91	344.94	14.98	-42.1	-43.2	22.3	0.00e+00	0	41	0	650117120	56	6555
2026-01-24 19:02:55.92	344.73	14.97	-42.4	-43.5	22.1	0.00e+00	0	41	0	652214272	56	6811
2026-01-24 19:02:56.93	344.52	14.96	-42.4	-43.5	22.2	0.00e+00	0	41	0	653262848	56	6817
2026-01-24 19:02:57.94	344.31	14.94	-42.2	-43.3	22.4	0.00e+00	0	41	0	655360000	56	6646
2026-01-24 19:02:58.95	344.10	14.93	-42.7	-43.8	22.1	0.00e+00	0	41	0	657457152	56	7087
2026-01-24 19:02:59.96	343.88	14.92	-42.3	-43.4	22.3	0.00e+00	0	41	0	659554304	56	6736
2026-01-24 19:03:00.97	343.67	14.90	-42.2	-43.3	22.2	0.00e+00	0	41	0	661651456	56	6650
2026-01-24 19:03:01.98	343.46	14.89	-42.1	-43.1	22.8	0.00e+00	0	41	0	662700032	58	5795
2026-01-24 19:03:02.99	343.25	14.87	-42.6	-43.7	22.2	0.00e+00	0	41	0	664797184	58	6182
2026-01-24 19:03:04.00	343.04	14.86	-42.0	-43.0	22.9	0.00e+00	0	41	0	666894336	58	5729
2026-01-24 19:03:05.01	342.83	14.84	-41.8	-42.8	22.8	0.00e+00	0	41	0	668991488	58	5611
2026-01-24 19:03:06.02	342.62	14.82	-41.9	-42.9	22.7	0.00e+00	0	41	0	671088640	58	5683
2026-01-24 19:03:07.03	342.41	14.81	-41.9	-43.0	22.8	0.00e+00	0	41	0	672137216	58	5710
2026-01-24 19:03:08.04	342.20	14.79	-41.8	-42.8	22.6	0.00e+00	0	41	0	674234368	56	6308
2026-01-24 19:03:09.05	342.00	14.77	-41.9	-43.0	22.8	0.00e+00	0	41	0	676331520	56	6426
2026-01-24 19:03:10.06	341.79	14.75	-41.7	-42.8	22.9	0.00e+00	0	41	0	678428672	56	6287
2026-01-24 19:03:11.07	341.58	14.73	-41.8	-42.8	22.9	0.00e+00	0	41	0	680525824	56	6284
2026-01-24 19:03:12.08	341.37	14.72	-41.8	-42.9	23.0	0.00e+00	0	41	0	682622976	56	6339
2026-01-24 19:03:13.09	341.16	14.70	-41.9	-43.0	23.1	0.00e+00	0	41	0	683671552	56	6415
2026-01-24 19:03:14.10	340.96	14.68	-41.9	-43.0	23.0	0.00e+00	0	41	0	685768704	56	6415
2026-01-24 19:03:15.11	340.75	14.66	-42.0	-43.0	22.9	0.00e+00	0	41	0	687865856	56	6452
2026-01-24 19:03:16.12	340.54	14.64	-41.8	-42.9	23.0	0.00e+00	0	41	0	689963008	56	6365
2026-01-24 19:03:17.12	340.34	14.62	-41.9	-42.9	22.9	0.00e+00	0	41	0	692060160	56	6378
2026-01-24 19:03:18.13	340.13	14.60	-41.8	-42.9	22.7	0.00e+00	0	41	0	693108736	56	6351
2026-01-24 19:03:19.14	339.92	14.58	-41.7	-42.8	22.8	0.00e+00	0	41	0	695205888	56	6280
2026-01-24 19:03:20.15	339.72	14.55	-41.9	-43.0	22.6	0.00e+00	0	41	0	697303040	56	6397
2026-01-24 19:03:21.16	339.51	14.53	-41.7	-42.7	22.9	0.00e+00	0	41	0	699400192	56	6218
2026-01-24 19:03:22.17	339.31	14.51	-41.7	-42.7	22.8	0.00e+00	0	41	0	701497344	56	6242
2026-01-24 19:03:23.18	339.10	14.49	-41.4	-42.4	22.9	0.00e+00	0	41	0	702545920	56	5985
2026-01-24 19:03:24.19	338.90	14.46	-41.6	-42.6	22.8	0.00e+00	0	41	0	704643072	56	6122
2026-01-24 19:03:25.20	338.69	14.44	-41.7	-42.7	22.9	0.00e+00	0	41	0	706740224	56	6233
2026-01-24 19:03:26.21	338.49	14.42	-41.7	-42.8	22.7	0.00e+00	0	41	0	708837376	56	6252
2026-01-24 19:03:27.22	338.28	14.39	-41.9	-42.9	22.6	0.00e+00	0	41	0	710934528	56	6355
2026-01-24 19:03:28.23	338.08	14.37	-41.8	-42.8	22.6	0.00e+00	0	41	0	711983104	56	6306
2026-01-24 19:03:29.24	337.88	14.35	-41.9	-43.0	22.6	0.00e+00	0	41	0	714080256	56	6395
2026-01-24 19:03:30.25	337.68	14.32	-42.1	-43.1	22.6	0.00e+00	0	41	0	716177408	56	6512
2026-01-24 19:03:31.26	337.47	14.30	-42.1	-43.2	22.3	0.00e+00	0	41	0	718274560	56	6570
2026-01-24 19:03:32.27	337.27	14.27	-42.3	-43.4	22.2	0.00e+00	0	41	0	720371712	56	6717
2026-01-24 19:03:33.28	337.07	14.24	-42.2	-43.2	22.2	0.00e+00	0	41	0	721420288	56	6596
2026-01-24 19:03:34.29	336.87	14.22	-42.2	-43.2	22.2	0.00e+00	0	41	0	723517440	56	6595
2026-01-24 19:03:35.30	336.67	14.19	-42.0	-43.1	22.5	0.00e+00	0	41	0	725614592	56	6476
2026-01-24 19:03:36.30	336.47	14.16	-42.0	-43.0	22.5	0.00e+00	0	41	0	727711744	56	6413
2026-01-24 19:03:37.31	336.27	14.14	-42.0	-43.0	22.5	0.00e+00	0	41	0	729808896	56	6462
2026-01-24 19:03:38.32	336.07	14.11	-42.1	-43.2	22.3	0.00e+00	0	41	0	730857472	56	6554
2026-01-24 19:03:39.33	335.87	14.08	-42.1	-43.2	22.4	0.00e+00	0	41	0	732954624	56	6543
2026-01-24 19:03:40.34	335.67	14.05	-42.3	-43.4	22.2	0.00e+00	0	41	0	735051776	56	6707
2026-01-24 19:03:41.35	335.47	14.02	-42.1	-43.2	22.4	0.00e+00	0	41	0	737148928	56	6546
2026-01-24 19:03:42.36	335.27	14.00	-42.1	-43.2	22.4	0.00e+00	0	41	0	739246080	56	6561
2026-01-24 19:03:43.37	335.08	13.97	-42.2	-43.3	22.2	0.00e+00	0	41	0	740294656	56	6637
2026-01-24 19:03:44.38	334.88	13.94	-42.3	-43.4	22.1	0.00e+00	0	41	0	742391808	56	6751
2026-01-24 19:03:45.39	334.68	13.91	-42.0	-43.0	22.4	0.00e+00	0	41	0	744488960	56	6428
2026-01-24 19:03:46.40	334.48	13.88	-42.3	-43.4	22.0	0.00e+00	0	41	0	746586112	56	6722
2026-01-24 19:03:47.41	334.29	13.85	-42.6	-43.8	21.9	0.00e+00	0	41	0	748683264	56	7010
2026-01-24 19:03:48.41	334.09	13.82	-42.5	-43.7	22.0	0.00e+00	0	41	0	749731840	58	6183
2026-01-24 19:03:49.43	333.90	13.79	-42.3	-43.4	22.2	0.00e+00	0	41	0	751828992	58	5978
2026-01-24 19:03:50.44	333.70	13.75	-42.3	-43.4	22.3	0.00e+00	0	41	0	753926144	58	6011
2026-01-24 19:03:51.44	333.51	13.72	-42.2	-43.2	22.3	0.00e+00	0	41	0	756023296	58	5864
2026-01-24 19:03:52.45	333.31	13.69	-41.9	-43.0	22.5	0.00e+00	0	41	0	758120448	58	5696
2026-01-24 19:03:53.46	333.12	13.66	-42.0	-43.0	22.4	0.00e+00	0	41	0	759169024	58	5756
2026-01-24 19:03:54.47	332.93	13.63	-41.8	-42.8	22.5	0.00e+00	0	41	0	761266176	58	5615
2026-01-24 19:03:55.48	332.73	13.60	-41.8	-42.8	22.7	0.00e+00	0	41	0	763363328	56	6258
2026-01-24 19:03:56.49	332.54	13.56	-41.7	-42.7	22.7	0.00e+00	0	41	0	765460480	56	6187
2026-01-24 19:03:57.50	332.35	13.53	-41.7	-42.6	22.7	0.00e+00	0	41	0	767557632	56	6168
2026-01-24 19:03:58.51	332.16	13.50	-41.7	-42.7	22.6	0.00e+00	0	41	0	768606208	56	6186
2026-01-24 19:03:59.52	331.97	13.46	-42.0	-43.0	22.5	0.00e+00	0	41	0	770703360	56	6463
2026-01-24 19:04:00.53	331.78	13.43	-42.1	-43.1	22.4	0.00e+00	0	41	0	772800512	56	6522
2026-01-24 19:04:01.54	331.59	13.39	-42.1	-43.1	22.7	0.00e+00	0	41	0	774897664	56	6466
2026-01-24 19:04:02.54	331.40	13.36	-42.2	-43.2	22.4	0.00e+00	0	41	0	776994816	56	6561
2026-01-24 19:04:03.56	331.21	13.32	-41.9	-42.9	22.6	0.00e+00	0	41	0	779091968	56	6374
2026-01-24 19:04:04.56	331.02	13.29	-41.7	-42.7	22.7	0.00e+00	0	41	0	780140544	56	6214
2026-01-24 19:04:05.57	330.83	13.25	-41.7	-42.7	22.7	0.00e+00	0	41	0	782237696	56	6237
2026-01-24 19:04:06.58	330.64	13.22	-41.6	-42.6	22.8	0.00e+00	0	41	0	784334848	56	6147
2026-01-24 19:04:07.59	330.45	13.18	-41.4	-42.4	22.6	0.00e+00	0	41	0	786432000	56	5999
2026-01-24 19:04:08.60	330.27	13.15	-41.5	-42.5	22.8	0.00e+00	0	41	0	788529152	56	6092
2026-01-24 19:04:09.61	330.08	13.11	-41.8	-42.8	22.6	0.00e+00	0	41	0	789577728	56	6256
2026-01-24 19:04:10.62	329.89	13.07	-41.6	-42.6	22.7	0.00e+00	0	41	0	791674880	56	6167
2026-01-24 19:04:11.63	329.71	13.04	-41.6	-42.6	22.6	0.00e+00	0	41	0	793772032	56	6137
2026-01-24 19:04:12.64	329.52	13.00	-41.5	-42.5	22.8	0.00e+00	0	41	0	795869184	56	6059
2026-01-24 19:04:13.65	329.34	12.96	-41.6	-42.6	22.8	0.00e+00	0	41	0	797966336	56	6131
2026-01-24 19:04:14.66	329.15	12.93	-41.8	-42.8	22.7	0.00e+00	0	41	0	799014912	56	6306
2026-01-24 19:04:15.67	328.97	12.89	-41.5	-42.5	22.9	0.00e+00	0	41	0	801112064	56	6079
2026-01-24 19:04:16.68	328.79	12.85	-41.4	-42.4	22.9	0.00e+00	0	41	0	803209216	56	5992
2026-01-24 19:04:17.69	328.60	12.81	-41.6	-42.6	22.8	0.00e+00	0	41	0	805306368	56	6129
2026-01-24 19:04:18.70	328.42	12.77	-41.3	-42.3	23.1	0.00e+00	0	41	0	807403520	56	5924
2026-01-24 19:04:19.71	328.24	12.73	-41.2	-42.1	23.2	0.00e+00	0	41	0	808452096	56	5807
2026-01-24 19:04:20.72	328.06	12.70	-41.3	-42.2	23.1	0.00e+00	0	41	0	810549248	56	5866
2026-01-24 19:04:21.73	327.88	12.66	-41.3	-42.3	23.0	0.00e+00	0	41	0	812646400	56	5902
2026-01-24 19:04:22.74	327.70	12.62	-41.3	-42.3	23.0	0.00e+00	0	41	0	814743552	56	5917
2026-01-24 19:04:23.75	327.52	12.58	-41.4	-42.4	22.9	0.00e+00	0	41	0	816840704	56	5986
2026-01-24 19:04:24.76	327.34	12.54	-41.3	-42.3	22.9	0.00e+00	0	41	0	817889280	56	5936
2026-01-24 19:04:25.77	327.16	12.50	-41.4	-42.4	23.0	0.00e+00	0	41	0	819986432	56	5967
2026-01-24 19:04:26.78	326.98	12.46	-41.6	-42.6	22.8	0.00e+00	0	41	0	822083584	56	6126
2026-01-24 19:04:27.79	326.80	12.42	-41.6	-42.6	22.8	0.00e+00	0	41	0	824180736	56	6120
2026-01-24 19:04:28.80	326.62	12.38	-41.8	-42.7	22.7	0.00e+00	0	41	0	826277888	56	6241
2026-01-24 19:04:29.81	326.45	12.34	-41.7	-42.7	22.7	0.00e+00	0	41	0	827326464	56	6214
2026-01-24 19:04:30.82	326.27	12.30	-42.1	-43.1	22.4	0.00e+00	0	41	0	829423616	56	6494
2026-01-24 19:04:31.83	326.09	12.25	-42.4	-43.4	22.3	0.00e+00	0	41	0	831520768	56	6731
2026-01-24 19:04:32.84	325.92	12.21	-42.5	-43.5	22.2	0.00e+00	0	41	0	833617920	56	6825
2026-01-24 19:04:33.85	325.74	12.17	-42.5	-43.6	22.1	0.00e+00	0	41	0	835715072	56	6894
2026-01-24 19:04:34.86	325.57	12.13	-43.0	-44.2	21.9	0.00e+00	0	41	0	836763648	56	7353
2026-01-24 19:04:35.87	325.40	12.09	-42.5	-43.5	22.2	0.00e+00	0	41	0	838860800	58	6090
2026-01-24 19:04:36.88	325.22	12.05	-42.8	-43.9	21.9	0.00e+00	0	41	0	840957952	58	6358
2026-01-24 19:04:37.89	325.05	12.00	-42.9	-44.0	21.7	0.00e+00	0	41	0	843055104	58	6435
2026-01-24 19:04:38.89	324.88	11.96	-42.6	-43.6	21.9	0.00e+00	0	41	0	845152256	58	6168
2026-01-24 19:04:39.90	324.71	11.92	-42.5	-43.6	21.8	0.00e+00	0	41	0	847249408	58	6148
2026-01-24 19:04:40.91	324.53	11.88	-42.6	-43.7	21.8	0.00e+00	0	41	0	848297984	58	6182
2026-01-24 19:04:41.92	324.36	11.83	-42.7	-43.8	21.8	0.00e+00	0	41	0	850395136	58	6256
2026-01-24 19:04:42.93	324.19	11.79	-42.9	-44.0	21.7	0.00e+00	0	41	0	852492288	58	6444
2026-01-24 19:04:43.94	324.02	11.75	-42.8	-44.0	21.7	0.00e+00	0	41	0	854589440	58	6408
2026-01-24 19:04:44.95	323.85	11.70	-43.0	-44.1	21.5	0.00e+00	0	41	0	856686592	58	6505
2026-01-24 19:04:45.96	323.68	11.66	-43.1	-44.3	21.2	0.00e+00	0	41	0	857735168	58	6664
2026-01-24 19:04:46.97	323.52	11.61	-43.3	-44.5	21.1	0.00e+00	0	41	0	859832320	58	6838
2026-01-24 19:04:47.98	323.35	11.57	-43.5	-44.7	21.2	0.00e+00	0	41	0	861929472	58	6969
2026-01-24 19:04:48.99	323.18	11.53	-43.5	-44.7	21.3	0.00e+00	0	41	0	864026624	60	6209
2026-01-24 19:04:50.00	323.01	11.48	-43.5	-44.7	21.1	0.00e+00	0	41	0	866123776	60	6217
2026-01-24 19:04:51.01	322.85	11.44	-43.4	-44.6	21.1	0.00e+00	0	41	0	867172352	60	6134
2026-01-24 19:04:52.02	322.68	11.39	-43.7	-45.0	20.7	0.00e+00	0	41	0	869269504	60	6396
2026-01-24 19:04:53.03	322.52	11.35	-43.5	-44.7	20.9	0.00e+00	0	41	0	871366656	60	6222
2026-01-24 19:04:54.04	322.35	11.30	-43.5	-44.7	20.9	0.00e+00	0	41	0	873463808	60	6237
2026-01-24 19:04:55.05	322.19	11.26	-43.6	-44.8	20.9	0.00e+00	0	41	0	875560960	60	6307
2026-01-24 19:04:56.05	322.02	11.21	-43.7	-44.9	20.8	0.00e+00	0	41	0	876609536	60	6365
2026-01-24 19:04:57.06	321.86	11.17	-43.5	-44.8	20.9	0.00e+00	0	41	0	878706688	60	6267
2026-01-24 19:04:58.07	321.70	11.12	-43.6	-44.8	20.5	0.00e+00	0	41	0	880803840	60	6314
2026-01-24 19:04:59.08	321.54	11.08	-43.7	-45.0	20.6	0.00e+00	0	41	0	882900992	60	6405
2026-01-24 19:05:00.09	321.37	11.03	-43.6	-44.9	20.8	0.00e+00	0	41	0	884998144	60	6322
2026-01-24 19:05:01.10	321.21	10.98	-43.7	-44.9	20.8	0.00e+00	0	41	0	886046720	60	6373
2026-01-24 19:05:02.11	321.05	10.94	-44.1	-45.5	20.1	0.00e+00	0	41	0	888143872	60	6783
2026-01-24 19:05:03.12	320.89	10.89	-44.4	-45.8	20.4	0.00e+00	0	41	0	890241024	60	7010
2026-01-24 19:05:04.13	320.73	10.85	-44.0	-45.3	20.6	0.00e+00	0	41	0	892338176	60	6659
2026-01-24 19:05:05.14	320.57	10.80	-44.2	-45.5	20.3	0.00e+00	0	41	0	894435328	60	6828
2026-01-24 19:05:06.15	320.41	10.75	-44.3	-45.7	20.1	0.00e+00	0	41	0	895483904	60	6997
2026-01-24 19:05:07.16	320.26	10.71	-44.4	-45.8	20.0	0.00e+00	0	41	0	897581056	60	7030
2026-01-24 19:05:08.18	320.10	10.66	-44.6	-46.0	19.6	0.00e+00	0	41	0	899678208	60	7236
2026-01-24 19:05:09.19	319.94	10.61	-44.4	-45.8	20.0	0.00e+00	0	41	0	901775360	60	7046
2026-01-24 19:05:10.20	319.78	10.57	-44.5	-45.9	19.9	0.00e+00	0	41	0	903872512	60	7161
2026-01-24 19:05:11.21	319.63	10.52	-44.4	-45.8	20.0	0.00e+00	0	41	0	904921088	60	7043
2026-01-24 19:05:12.22	319.47	10.47	-44.4	-45.8	20.2	0.00e+00	0	41	0	907018240	60	7037
2026-01-24 19:05:13.23	319.32	10.42	-44.3	-45.7	20.2	0.00e+00	0	41	0	909115392	60	6942
2026-01-24 19:05:14.24	319.16	10.38	-44.2	-45.5	20.2	0.00e+00	0	41	0	911212544	60	6800
2026-01-24 19:05:15.24	319.01	10.33	-44.6	-46.0	19.9	0.00e+00	0	41	0	913309696	60	7249
2026-01-24 19:05:16.25	318.85	10.28	-44.5	-45.9	19.8	0.00e+00	0	41	0	915406848	60	7155
2026-01-24 19:05:17.26	318.70	10.23	-44.6	-46.1	19.6	0.00e+00	0	41	0	916455424	60	7254
2026-01-24 19:05:18.27	318.55	10.18	-44.8	-46.3	19.7	0.00e+00	0	41	0	918552576	60	7427
2026-01-24 19:05:19.28	318.40	10.14	-45.0	-46.5	19.6	0.00e+00	0	41	0	920649728	60	7639
2026-01-24 19:05:20.29	318.25	10.09	-44.9	-46.4	19.6	0.00e+00	0	41	0	922746880	60	7529
2026-01-24 19:05:21.30	318.09	10.04	-45.0	-46.6	19.3	0.00e+00	0	41	0	924844032	60	7694
2026-01-24 19:05:22.31	317.94	9.99	-45.3	-46.8	19.4	0.00e+00	0	41	0	925892608	60	7880
2026-01-24 19:05:23.31	317.80	9.94	-45.2	-46.7	19.4	0.00e+00	0	41	0	927989760	60	7858
2026-01-24 19:05:24.32	317.65	9.89	-45.2	-46.7	19.3	0.00e+00	0	41	0	930086912	60	7837
2026-01-24 19:05:25.33	317.50	9.85	-45.1	-46.7	19.3	0.00e+00	0	41	0	932184064	60	7811
2026-01-24 19:05:26.34	317.35	9.80	-45.3	-46.9	19.2	0.00e+00	0	41	0	934281216	60	7986
2026-01-24 19:05:27.35	317.20	9.75	-45.2	-46.8	19.0	0.00e+00	0	41	0	935329792	60	7893
2026-01-24 19:05:28.35	317.05	9.70	-44.6	-46.0	19.8	0.00e+00	0	41	0	937426944	60	7236
2026-01-24 19:05:29.36	316.91	9.65	-44.4	-45.9	19.7	0.00e+00	0	41	0	939524096	60	7100
2026-01-24 19:05:30.37	316.76	9.60	-44.7	-46.2	19.3	0.00e+00	0	41	0	941621248	60	7383
2026-01-24 19:05:31.39	316.61	9.55	-44.5	-45.9	19.7	0.00e+00	0	41	0	943718400	60	7134
2026-01-24 19:05:32.40	316.47	9.50	-44.6	-46.0	19.6	0.00e+00	0	41	0	944766976	60	7240
2026-01-24 19:05:33.41	316.32	9.45	-44.9	-46.4	19.2	0.00e+00	0	41	0	946864128	60	7579
2026-01-24 19:05:34.41	316.18	9.40	-44.8	-46.3	19.4	0.00e+00	0	41	0	948961280	60	7472
2026-01-24 19:05:35.42	316.04	9.36	-44.4	-45.9	19.7	0.00e+00	0	41	0	951058432	60	7095
2026-01-24 19:05:36.43	315.89	9.31	-44.6	-46.0	19.7	0.00e+00	0	41	0	953155584	60	7229
2026-01-24 19:05:37.44	315.75	9.26	-44.8	-46.3	19.6	0.00e+00	0	41	0	954204160	60	7460
2026-01-24 19:05:38.45	315.61	9.21	-44.2	-45.6	20.1	0.00e+00	0	41	0	956301312	60	6855
2026-01-24 19:05:39.46	315.46	9.16	-44.4	-45.8	19.7	0.00e+00	0	41	0	958398464	60	7063
2026-01-24 19:05:40.47	315.32	9.11	-44.5	-45.9	19.9	0.00e+00	0	41	0	960495616	60	7119
2026-01-24 19:05:41.48	315.18	9.06	-44.2	-45.6	19.8	0.00e+00	0	41	0	962592768	60	6893
2026-01-24 19:05:42.49	315.04	9.01	-44.3	-45.6	20.1	0.00e+00	0	41	0	963641344	60	6887
2026-01-24 19:05:43.50	314.90	8.96	-44.1	-45.4	20.3	0.00e+00	0	41	0	965738496	60	6747
2026-01-24 19:05:44.51	314.76	8.91	-44.6	-46.0	19.8	0.00e+00	0	41	0	967835648	60	7253
2026-01-24 19:05:45.52	314.62	8.86	-44.6	-46.0	19.7	0.00e+00	0	41	0	969932800	60	7253
2026-01-24 19:05:46.53	314.48	8.81	-44.5	-45.9	19.9	0.00e+00	0	41	0	972029952	60	7150
2026-01-24 19:05:47.54	314.35	8.76	-44.9	-46.4	19.5	0.00e+00	0	41	0	973078528	60	7559
2026-01-24 19:05:48.55	314.21	8.71	-44.8	-46.2	19.8	0.00e+00	0	41	0	975175680	60	7419
2026-01-24 19:05:49.56	314.07	8.65	-45.1	-46.6	19.8	0.00e+00	0	41	0	977272832	60	7713
2026-01-24 19:05:50.56	313.94	8.60	-43.8	-45.1	20.7	0.00e+00	0	41	0	979369984	60	6469
2026-01-24 19:05:51.57	313.80	8.55	-44.0	-45.3	20.4	0.00e+00	0	41	0	981467136	60	6640
2026-01-24 19:05:52.58	313.66	8.50	-43.8	-45.1	20.5	0.00e+00	0	41	0	983564288	60	6475
2026-01-24 19:05:53.59	313.53	8.45	-43.8	-45.1	20.6	0.00e+00	0	41	0	984612864	60	6507
2026-01-24 19:05:54.60	313.39	8.40	-43.8	-45.1	20.6	0.00e+00	0	41	0	986710016	60	6488
2026-01-24 19:05:55.61	313.26	8.35	-43.8	-45.1	20.6	0.00e+00	0	41	0	988807168	60	6484
2026-01-24 19:05:56.62	313.13	8.30	-43.8	-45.1	20.5	0.00e+00	0	41	0	990904320	60	6482
2026-01-24 19:05:57.63	312.99	8.25	-44.2	-45.6	20.3	0.00e+00	0	41	0	993001472	60	6863
2026-01-24 19:05:58.64	312.86	8.20	-43.9	-45.2	20.6	0.00e+00	0	41	0	994050048	60	6543
2026-01-24 19:05:59.65	312.73	8.15	-43.9	-45.2	20.5	0.00e+00	0	41	0	996147200	60	6579
2026-01-24 19:06:00.66	312.60	8.10	-43.8	-45.1	20.6	0.00e+00	0	41	0	998244352	60	6508
2026-01-24 19:06:01.67	312.46	8.05	-43.3	-44.5	21.0	0.00e+00	0	41	0	1000341504	60	6051
2026-01-24 19:06:02.68	312.33	8.00	-43.5	-44.7	20.9	0.00e+00	0	41	0	1002438656	60	6235
2026-01-24 19:06:03.69	312.20	7.94	-44.0	-45.4	20.1	0.00e+00	0	41	0	1003487232	60	6759
2026-01-24 19:06:04.70	312.07	7.89	-42.9	-44.1	21.3	0.00e+00	0	41	0	1005584384	60	5780
2026-01-24 19:06:05.71	311.94	7.84	-43.1	-44.3	21.1	0.00e+00	0	41	0	1007681536	60	5934
2026-01-24 19:06:06.72	311.81	7.79	-44.0	-45.3	20.0	0.00e+00	0	41	0	1009778688	60	6681
2026-01-24 19:06:07.73	311.69	7.74	-43.7	-45.0	20.9	0.00e+00	0	41	0	1011875840	60	6393
2026-01-24 19:06:08.74	311.56	7.69	-42.5	-43.6	21.9	0.00e+00	0	41	0	1012924416	58	6105
2026-01-24 19:06:09.75	311.43	7.64	-43.0	-44.1	21.5	0.00e+00	0	41	0	1015021568	58	6517
2026-01-24 19:06:10.76	311.30	7.59	-43.1	-44.3	21.1	0.00e+00	0	41	0	1017118720	58	6677
2026-01-24 19:06:11.77	311.18	7.53	-43.3	-44.5	20.7	0.00e+00	0	41	0	1019215872	58	6799
2026-01-24 19:06:12.78	311.05	7.48	-43.4	-44.7	20.9	0.00e+00	0	41	0	1021313024	60	6188
2026-01-24 19:06:13.79	310.92	7.43	-42.8	-44.0	21.4	0.00e+00	0	41	0	1022361600	60	5713
2026-01-24 19:06:14.80	310.80	7.38	-43.1	-44.3	21.0	0.00e+00	0	41	0	1024458752	60	5916
2026-01-24 19:06:15.81	310.67	7.33	-43.2	-44.4	21.6	0.00e+00	0	41	0	1026555904	60	5977
2026-01-24 19:06:16.81	310.55	7.28	-43.8	-45.1	20.8	0.00e+00	0	41	0	1028653056	60	6467
2026-01-24 19:06:17.82	310.43	7.23	-43.9	-45.2	20.6	0.00e+00	0	41	0	1030750208	60	6557
2026-01-24 19:06:18.83	310.30	7.17	-43.5	-44.7	20.9	0.00e+00	0	41	0	1031798784	60	6212
2026-01-24 19:06:19.84	310.18	7.12	-43.2	-44.4	21.0	0.00e+00	0	41	0	1033895936	60	6016
2026-01-24 19:06:20.86	310.05	7.07	-43.3	-44.5	21.2	0.00e+00	0	41	0	1035993088	60	6072
2026-01-24 19:06:21.86	309.93	7.02	-42.8	-43.9	21.2	0.00e+00	0	41	0	1038090240	58	6358
2026-01-24 19:06:22.87	309.81	6.97	-43.0	-44.2	21.2	0.00e+00	0	41	0	1040187392	58	6546
2026-01-24 19:06:23.88	309.69	6.92	-42.8	-44.0	21.3	0.00e+00	0	41	0	1041235968	58	6436
2026-01-24 19:06:24.89	309.57	6.86	-42.9	-44.1	21.2	0.00e+00	0	41	0	1043333120	58	6521
2026-01-24 19:06:25.90	309.45	6.81	-43.5	-44.8	20.7	0.00e+00	0	41	0	1045430272	58	7058
2026-01-24 19:06:26.91	309.33	6.76	-43.3	-44.6	21.1	0.00e+00	0	41	0	1047527424	58	6853
2026-01-24 19:06:27.92	309.21	6.71	-43.8	-45.1	20.9	0.00e+00	0	41	0	1049624576	58	7313
2026-01-24 19:06:28.93	309.09	6.66	-42.7	-43.9	21.5	0.00e+00	0	41	0	1051721728	58	6346
2026-01-24 19:06:29.94	308.97	6.61	-42.5	-43.6	21.9	0.00e+00	0	41	0	1052770304	58	6132
2026-01-24 19:06:30.95	308.85	6.55	-42.8	-44.0	21.6	0.00e+00	0	41	0	1054867456	58	6404
2026-01-24 19:06:31.96	308.73	6.50	-43.2	-44.4	21.1	0.00e+00	0	41	0	1056964608	58	6722
2026-01-24 19:06:32.97	308.62	6.45	-43.4	-44.6	20.7	0.00e+00	0	41	0	1059061760	58	6898
2026-01-24 19:06:33.98	308.50	6.40	-43.0	-44.2	21.3	0.00e+00	0	41	0	1061158912	58	6547
2026-01-24 19:06:34.99	308.38	6.35	-41.8	-42.8	22.3	0.00e+00	0	41	0	1062207488	56	6294
2026-01-24 19:06:35.99	308.27	6.30	-42.8	-43.9	21.5	0.00e+00	0	41	0	1064304640	58	6368
2026-01-24 19:06:37.00	308.15	6.24	-43.1	-44.4	21.0	0.00e+00	0	41	0	1066401792	58	6696
2026-01-24 19:06:38.01	308.04	6.19	-42.0	-43.1	22.3	0.00e+00	0	41	0	1068498944	58	5767
2026-01-24 19:06:39.02	307.92	6.14	-42.6	-43.7	21.4	0.00e+00	0	41	0	1070596096	58	6242
2026-01-24 19:06:40.03	307.81	6.09	-43.4	-44.7	20.5	0.00e+00	0	41	0	1071644672	58	6960
2026-01-24 19:06:41.04	307.69	6.04	-43.8	-45.2	20.2	0.00e+00	0	41	0	1073741824	60	6552
2026-01-24 19:06:42.05	307.58	5.98	-42.2	-43.3	21.7	0.00e+00	0	41	0	1075838976	58	5960
2026-01-24 19:06:43.06	307.47	5.93	-42.2	-43.3	21.7	0.00e+00	0	41	0	1077936128	56	6667
2026-01-24 19:06:44.07	307.35	5.88	-43.7	-45.0	20.0	0.00e+00	0	41	0	1080033280	58	7236
2026-01-24 19:06:45.08	307.24	5.83	-42.9	-44.1	21.2	0.00e+00	0	41	0	1081081856	58	6492
2026-01-24 19:06:46.09	307.13	5.78	-42.6	-43.8	21.5	0.00e+00	0	41	0	1083179008	58	6275
2026-01-24 19:06:47.10	307.02	5.73	-43.2	-44.4	20.8	0.00e+00	0	41	0	1085276160	58	6736
2026-01-24 19:06:48.11	306.91	5.67	-43.0	-44.2	21.1	0.00e+00	0	41	0	1087373312	58	6559
2026-01-24 19:06:49.12	306.80	5.62	-42.5	-43.7	21.1	0.00e+00	0	41	0	1089470464	58	6194
2026-01-24 19:06:50.13	306.69	5.57	-44.0	-45.4	19.7	0.00e+00	0	41	0	1090519040	60	6728
2026-01-24 19:06:51.14	306.58	5.52	-43.6	-45.0	20.1	0.00e+00	0	41	0	1092616192	60	6428
2026-01-24 19:06:52.15	306.47	5.47	-42.7	-43.9	21.2	0.00e+00	0	41	0	1094713344	60	5654
2026-01-24 19:06:53.16	306.36	5.41	-43.1	-44.4	20.5	0.00e+00	0	41	0	1096810496	58	6745
2026-01-24 19:06:54.16	306.25	5.36	-42.8	-44.1	21.1	0.00e+00	0	41	0	1098907648	58	6476
2026-01-24 19:06:55.17	306.14	5.31	-42.9	-44.1	20.8	0.00e+00	0	41	0	1099956224	56	7317
2026-01-24 19:06:56.19	306.03	5.26	-42.8	-44.0	21.0	0.00e+00	0	41	0	1102053376	58	6418
2026-01-24 19:06:57.20	305.92	5.21	-42.8	-44.1	20.9	0.00e+00	0	41	0	1104150528	58	6475
2026-01-24 19:06:58.21	305.82	5.15	-43.6	-44.9	20.1	0.00e+00	0	41	0	1106247680	58	7167
2026-01-24 19:06:59.21	305.71	5.10	-42.6	-43.8	21.1	0.00e+00	0	41	0	1108344832	58	6305
2026-01-24 19:07:00.22	305.60	5.05	-42.2	-43.3	21.4	0.00e+00	0	41	0	1109393408	58	5962
2026-01-24 19:07:01.23	305.50	5.00	-43.2	-44.5	20.3	0.00e+00	0	41	0	1111490560	58	6833
2026-01-24 19:07:02.24	305.39	4.95	-43.8	-45.2	19.7	0.00e+00	0	41	0	1113587712	60	6579
2026-01-24 19:07:03.25	305.29	4.90	-43.8	-45.1	20.1	0.00e+00	0	41	0	1115684864	60	6539
2026-01-24 19:07:04.26	305.18	4.84	-43.7	-45.1	20.2	0.00e+00	0	41	0	1117782016	60	6484
2026-01-24 19:07:05.27	305.08	4.79	-42.8	-44.0	21.3	0.00e+00	0	41	0	1119879168	60	5742
2026-01-24 19:07:06.28	304.97	4.74	-43.6	-45.0	20.1	0.00e+00	0	41	0	1120927744	58	7177
2026-01-24 19:07:07.29	304.87	4.69	-43.5	-44.8	20.3	0.00e+00	0	41	0	1123024896	60	6306
2026-01-24 19:07:08.30	304.77	4.64	-42.7	-43.9	21.7	0.00e+00	0	41	0	1125122048	60	5642
2026-01-24 19:07:09.31	304.66	4.59	-42.3	-43.4	21.6	0.00e+00	0	41	0	1127219200	58	6000
2026-01-24 19:07:10.32	304.56	4.53	-44.6	-46.1	19.2	0.00e+00	0	41	0	1129316352	60	7337
2026-01-24 19:07:11.33	304.46	4.48	-43.8	-45.1	20.2	0.00e+00	0	41	0	1130364928	60	6513
2026-01-24 19:07:12.34	304.36	4.43	-43.6	-45.0	20.2	0.00e+00	0	41	0	1132462080	60	6415
2026-01-24 19:07:13.35	304.25	4.38	-44.0	-45.4	19.5	0.00e+00	0	41	0	1134559232	60	6725
2026-01-24 19:07:14.36	304.15	4.33	-43.8	-45.1	20.0	0.00e+00	0	41	0	1136656384	60	6535
2026-01-24 19:07:15.36	304.05	4.28	-45.0	-46.6	18.6	0.00e+00	0	41	0	1137704960	60	7768
2026-01-24 19:07:16.37	303.95	4.22	-43.8	-45.2	20.2	0.00e+00	0	41	0	1139802112	60	6560
2026-01-24 19:07:17.38	303.85	4.17	-44.2	-45.7	19.4	0.00e+00	0	41	0	1141899264	60	6974
2026-01-24 19:07:18.39	303.75	4.12	-44.4	-46.0	18.8	0.00e+00	0	41	0	1143996416	60	7204
2026-01-24 19:07:19.40	303.65	4.07	-43.0	-44.2	20.8	0.00e+00	0	41	0	1146093568	60	5875
2026-01-24 19:07:20.41	303.56	4.02	-46.2	-48.5	16.6	0.00e+00	0	41	0	1148190720	60	9565
2026-01-24 19:07:21.42	303.46	3.97	-45.6	-47.5	18.2	0.00e+00	0	41	0	1149239296	60	8536
2026-01-24 19:07:22.43	303.36	3.92	-43.3	-44.7	20.7	0.00e+00	0	41	0	1151336448	60	6179
2026-01-24 19:07:23.44	303.26	3.86	-44.6	-46.2	19.1	0.00e+00	0	41	0	1153433600	60	7348
2026-01-24 19:07:24.45	303.16	3.81	-43.8	-45.2	19.9	0.00e+00	0	41	0	1155530752	60	6581
2026-01-24 19:07:25.46	303.07	3.76	-45.2	-46.8	18.7	0.00e+00	0	41	0	1157627904	60	7916
2026-01-24 19:07:26.47	302.97	3.71	-44.4	-45.9	19.6	0.00e+00	0	41	0	1158676480	60	7091
2026-01-24 19:07:27.48	302.87	3.66	-43.6	-45.0	20.1	0.00e+00	0	41	0	1160773632	60	6403
2026-01-24 19:07:28.49	302.78	3.61	-44.6	-46.1	19.0	0.00e+00	0	41	0	1162870784	60	7323
2026-01-24 19:07:29.50	302.68	3.56	-46.4	-48.6	16.6	0.00e+00	0	41	0	1164967936	60	9781
2026-01-24 19:07:30.51	302.58	3.50	-44.9	-46.5	18.7	0.00e+00	0	41	0	1167065088	60	7675
2026-01-24 19:07:31.52	302.49	3.45	-45.4	-47.3	18.0	0.00e+00	0	41	0	1168113664	60	8359
2026-01-24 19:07:32.53	302.39	3.40	-46.4	-48.7	16.4	0.00e+00	0	41	0	1170210816	60	9831
2026-01-24 19:07:33.54	302.30	3.35	-44.5	-46.1	19.0	0.00e+00	0	41	0	1172307968	60	7325
2026-01-24 19:07:34.55	302.21	3.30	-45.5	-47.4	17.8	0.00e+00	0	41	0	1174405120	60	8490
2026-01-24 19:07:35.56	302.11	3.25	-45.4	-47.3	17.9	0.00e+00	0	41	0	1176502272	60	8367
2026-01-24 19:07:36.57	302.02	3.20	-44.8	-46.5	19.0	0.00e+00	0	41	0	1177550848	60	7615
2026-01-24 19:07:37.58	301.93	3.15	-44.5	-46.1	18.8	0.00e+00	0	41	0	1179648000	60	7317
2026-01-24 19:07:38.59	301.83	3.09	-44.2	-45.7	19.1	0.00e+00	0	41	0	1181745152	60	6941
2026-01-24 19:07:39.60	301.74	3.04	-44.7	-46.3	19.0	0.00e+00	0	41	0	1183842304	60	7480
2026-01-24 19:07:40.61	301.65	2.99	-51.2	-66.3	3.6	6.00e-01	0	41	104	1184890880	60	74479
2026-01-24 19:07:41.62	301.56	2.94	-51.7	-66.9	3.6	1.51e+00	0	41	104	1184890880	60	80088
2026-01-24 19:07:42.63	301.47	2.89	-52.0	-67.2	3.6	1.51e+00	0	41	104	1184890880	60	82910
2026-01-24 19:07:43.64	301.37	2.84	-52.1	-67.3	3.6	1.51e+00	0	41	104	1184890880	60	83292
2026-01-24 19:07:44.65	301.28	2.79	-52.2	-67.4	3.6	1.51e+00	0	41	104	1184890880	60	84728
2026-01-24 19:07:45.66	301.19	2.74	-52.3	-67.5	3.6	1.51e+00	0	41	104	1184890880	60	86061
2026-01-24 19:07:46.66	301.10	2.69	-52.3	-67.5	3.6	1.51e+00	0	41	104	1184890880	60	85663
2026-01-24 19:07:47.67	301.01	2.64	-52.2	-67.4	3.6	1.51e+00	0	41	104	1184890880	60	84694
2026-01-24 19:07:48.68	300.92	2.58	-52.3	-67.5	3.6	1.51e+00	0	41	104	1184890880	60	85966
2026-01-24 19:07:49.69	300.84	2.53	-52.4	-67.6	3.6	1.51e+00	0	41	104	1184890880	60	86914
