passes_logs/2026/01/24/R4.6S_Anadyr/R4.6S_Anadyr__20260124_221939_TY-42_rec.log

#Pass ID: 20260124_221939_TY-42
#Satellite: TY-42
#Configuration: TY-42_900M
#almurnet v.1.7.20251203
#Start time: 2026-01-24 22:20:09

#Version: 2.2.20231116
#Station: R4.6S_Anadyr
#Location: 177.4865 lon 64.73178 lat
#TLE: 1 64048U 25103A   26024.51782867  .00000755  00000+0  39102-4 0  9996
#TLE: 2 64048  97.4121  99.7564 0001738  90.7706 269.3727 15.19168577 38261

#Time	Az	El	Level	Level2	SNR	BER	BlckErr	Temp	State	Recorded	gain1	gain2
2026-01-24 22:20:09.75	22.40	1.85	-51.5	-66.4	3.5	1.51e+00	0	39	0	0	60	75590
2026-01-24 22:20:10.76	22.47	1.91	-49.8	-52.3	6.1	0.00e+00	0	40	104	0	60	50252
2026-01-24 22:20:11.77	22.54	1.98	-49.8	-52.3	6.1	0.00e+00	0	40	104	0	60	50358
2026-01-24 22:20:12.78	22.62	2.04	-49.8	-52.3	6.1	0.00e+00	0	40	104	0	60	50546
2026-01-24 22:20:13.79	22.69	2.11	-49.8	-52.3	6.1	0.00e+00	0	40	104	0	60	50417
2026-01-24 22:20:14.80	22.76	2.17	-49.8	-52.3	6.1	0.00e+00	0	40	104	0	60	50646
2026-01-24 22:20:15.81	22.84	2.24	-49.8	-52.3	6.1	0.00e+00	0	40	104	0	60	50408
2026-01-24 22:20:16.82	22.91	2.30	-49.8	-52.3	6.1	0.00e+00	0	40	104	0	60	50449
2026-01-24 22:20:17.83	22.99	2.37	-49.8	-52.3	6.1	0.00e+00	0	40	104	0	60	50303
2026-01-24 22:20:18.84	23.06	2.43	-49.8	-52.3	6.1	0.00e+00	0	40	104	0	60	50418
2026-01-24 22:20:19.85	23.14	2.50	-49.8	-52.3	6.1	0.00e+00	0	40	104	0	60	50632
2026-01-24 22:20:20.86	23.22	2.56	-49.8	-52.3	6.1	0.00e+00	0	40	104	0	60	50408
2026-01-24 22:20:21.87	23.29	2.63	-49.8	-52.3	6.1	0.00e+00	0	40	104	0	60	50406
2026-01-24 22:20:22.88	23.37	2.70	-49.8	-52.2	6.1	0.00e+00	0	40	104	0	60	50160
2026-01-24 22:20:23.89	23.45	2.76	-49.8	-52.3	6.1	0.00e+00	0	40	104	0	60	50282
2026-01-24 22:20:24.90	23.52	2.83	-49.8	-52.2	6.1	0.00e+00	0	41	104	0	60	50161
2026-01-24 22:20:25.91	23.60	2.90	-49.8	-52.3	6.1	0.00e+00	0	40	104	0	60	50369
2026-01-24 22:20:26.92	23.68	2.96	-49.8	-52.3	6.1	0.00e+00	0	40	104	0	60	50211
2026-01-24 22:20:27.93	23.76	3.03	-49.8	-52.2	6.1	0.00e+00	0	40	104	0	60	50033
2026-01-24 22:20:28.94	23.84	3.10	-49.8	-52.3	6.1	0.00e+00	0	41	104	0	60	50344
2026-01-24 22:20:29.95	23.92	3.16	-49.8	-52.2	6.1	0.00e+00	0	41	104	0	60	50134
2026-01-24 22:20:30.96	24.00	3.23	-49.8	-52.2	6.1	0.00e+00	0	41	104	0	60	50058
2026-01-24 22:20:31.97	24.08	3.30	-49.8	-52.3	6.1	0.00e+00	0	41	104	0	60	50370
2026-01-24 22:20:32.98	24.16	3.37	-49.8	-52.2	6.1	0.00e+00	0	41	104	0	60	50132
2026-01-24 22:20:33.99	24.24	3.43	-49.8	-52.3	6.1	0.00e+00	0	41	104	0	60	50415
2026-01-24 22:20:35.00	24.32	3.50	-49.8	-52.2	6.1	0.00e+00	0	41	104	0	60	50176
2026-01-24 22:20:36.01	24.41	3.57	-49.8	-52.3	6.1	0.00e+00	0	41	104	0	60	50523
2026-01-24 22:20:37.02	24.49	3.64	-49.8	-52.3	6.1	0.00e+00	0	41	104	0	60	50336
2026-01-24 22:20:38.03	24.57	3.71	-50.2	-52.7	6.1	0.00e+00	0	41	104	0	60	52724
2026-01-24 22:20:39.04	24.66	3.78	-49.8	-52.2	6.1	0.00e+00	0	41	104	0	60	50027
2026-01-24 22:20:40.05	24.74	3.85	-50.0	-52.5	6.1	0.00e+00	0	41	104	0	60	51677
2026-01-24 22:20:41.06	24.83	3.91	-49.9	-52.4	6.1	0.00e+00	0	41	104	0	60	51194
2026-01-24 22:20:42.07	24.91	3.98	-49.9	-52.4	6.1	0.00e+00	0	41	104	0	60	50771
2026-01-24 22:20:43.08	25.00	4.05	-49.8	-52.3	6.1	0.00e+00	0	41	104	0	60	50453
2026-01-24 22:20:44.09	25.08	4.12	-50.2	-52.7	6.1	0.00e+00	0	41	104	0	60	52646
2026-01-24 22:20:45.10	25.17	4.19	-50.2	-52.6	6.1	0.00e+00	0	41	104	0	60	52370
2026-01-24 22:20:46.10	25.26	4.26	-49.9	-52.4	6.1	0.00e+00	0	41	104	0	60	50765
2026-01-24 22:20:47.11	25.35	4.33	-49.9	-52.4	6.1	0.00e+00	0	41	104	0	60	50919
2026-01-24 22:20:48.12	25.43	4.40	-50.1	-52.6	6.1	0.00e+00	0	41	104	0	60	52291
2026-01-24 22:20:49.13	25.52	4.48	-50.2	-52.7	6.1	0.00e+00	0	41	104	0	60	52557
2026-01-24 22:20:50.14	25.61	4.55	-49.9	-52.4	6.1	0.00e+00	0	41	104	0	60	51274
2026-01-24 22:20:51.15	25.70	4.62	-50.0	-52.4	6.1	0.00e+00	0	41	104	0	60	51197
2026-01-24 22:20:52.16	25.79	4.69	-50.2	-52.7	6.1	0.00e+00	0	41	104	0	60	52622
2026-01-24 22:20:53.17	25.88	4.76	-50.1	-52.6	6.1	0.00e+00	0	41	104	0	60	52236
2026-01-24 22:20:54.18	25.98	4.83	-50.2	-52.6	6.1	0.00e+00	0	41	104	0	60	52348
2026-01-24 22:20:55.19	26.07	4.90	-50.0	-52.5	6.1	0.00e+00	0	41	104	0	60	51641
2026-01-24 22:20:56.20	26.16	4.98	-50.3	-52.8	6.1	0.00e+00	0	41	104	0	60	53401
2026-01-24 22:20:57.21	26.25	5.05	-50.3	-52.7	6.1	0.00e+00	0	41	104	0	60	52827
2026-01-24 22:20:58.22	26.35	5.12	-50.1	-52.6	6.1	0.00e+00	0	41	104	0	60	52395
2026-01-24 22:20:59.23	26.44	5.19	-50.1	-52.6	6.1	0.00e+00	0	41	104	0	60	52127
2026-01-24 22:21:00.24	26.54	5.27	-50.3	-52.8	6.1	0.00e+00	0	41	104	0	60	53510
2026-01-24 22:21:01.25	26.63	5.34	-50.3	-52.8	6.1	0.00e+00	0	42	104	0	60	53203
2026-01-24 22:21:02.26	26.73	5.41	-50.2	-52.6	6.1	0.00e+00	0	42	104	0	60	52481
2026-01-24 22:21:03.27	26.82	5.49	-50.2	-52.7	6.1	0.00e+00	0	42	104	0	60	52618
2026-01-24 22:21:04.28	26.92	5.56	-50.4	-52.8	6.1	0.00e+00	0	42	104	0	60	53508
2026-01-24 22:21:05.29	27.02	5.64	-50.2	-52.7	6.1	0.00e+00	0	42	104	0	60	53131
2026-01-24 22:21:06.30	27.12	5.71	-50.3	-52.8	6.1	0.00e+00	0	42	104	0	60	53180
2026-01-24 22:21:07.31	27.22	5.79	-44.5	-45.3	10.1	0.00e+00	0	42	104	0	60	22423
2026-01-24 22:21:08.32	27.32	5.86	-44.8	-45.5	8.8	0.00e+00	0	41	104	0	60	23112
2026-01-24 22:21:09.33	27.42	5.94	-36.0	-36.4	11.9	0.00e+00	4885	42	104	0	48	16114
2026-01-24 22:21:10.34	27.52	6.01	-49.4	-51.5	6.1	6.31e-02	0	41	104	0	60	45977
2026-01-24 22:21:11.35	27.62	6.09	-38.1	-38.4	10.6	0.00e+00	75	42	104	0	50	18185
2026-01-24 22:21:12.36	27.72	6.16	-38.2	-38.5	12.2	0.00e+00	1	42	0	25165824	52	16321
2026-01-24 22:21:13.37	27.82	6.24	-37.5	-37.8	11.9	1.00e-01	0	42	0	134217728	50	16999
2026-01-24 22:21:14.38	27.93	6.31	-36.5	-36.9	12.9	1.00e-01	0	42	0	243269632	46	19177
2026-01-24 22:21:15.39	28.03	6.39	-37.0	-37.3	12.6	1.00e-01	0	42	0	360710144	48	17919
2026-01-24 22:21:16.40	28.13	6.47	-37.0	-37.4	12.2	1.11e-01	0	42	0	469762048	48	18021
2026-01-24 22:21:17.41	28.24	6.55	-37.3	-37.6	12.7	1.11e-01	0	42	0	587202560	48	18554
2026-01-24 22:21:18.42	28.35	6.62	-36.4	-36.8	13.1	8.08e-02	0	42	0	704643072	48	16845
2026-01-24 22:21:19.43	28.45	6.70	-35.1	-35.5	13.9	8.08e-02	0	42	0	813694976	46	16344
2026-01-24 22:21:20.44	28.56	6.78	-36.5	-36.8	12.9	4.16e-02	0	42	0	931135488	46	18922
2026-01-24 22:21:21.45	28.67	6.86	-33.6	-34.0	14.8	4.16e-02	0	42	0	1040187392	42	17232
2026-01-24 22:21:22.46	28.78	6.93	-33.7	-34.0	14.4	2.17e-02	0	42	0	1149239296	42	17393
2026-01-24 22:21:23.47	28.89	7.01	-34.1	-34.5	14.6	2.17e-02	0	42	0	1266679808	42	18331
2026-01-24 22:21:24.48	29.00	7.09	-33.5	-33.9	14.7	2.17e-02	0	42	0	1384120320	42	17040
2026-01-24 22:21:25.49	29.11	7.17	-34.1	-34.5	14.5	1.23e-02	0	42	0	1493172224	42	18320
2026-01-24 22:21:26.49	29.22	7.25	-34.4	-34.8	14.4	1.23e-02	0	42	0	1610612736	42	18926
2026-01-24 22:21:27.50	29.33	7.33	-33.5	-33.8	14.7	1.23e-02	0	42	0	1719664640	42	16955
2026-01-24 22:21:28.51	29.44	7.41	-33.4	-33.8	14.9	1.35e-02	0	42	0	1837105152	42	16913
2026-01-24 22:21:29.52	29.56	7.49	-32.9	-33.3	15.0	9.26e-03	0	42	0	1954545664	40	17848
2026-01-24 22:21:30.53	29.67	7.57	-32.9	-33.3	15.0	9.26e-03	0	42	0	2063597568	40	17933
2026-01-24 22:21:31.54	29.79	7.65	-32.7	-33.1	15.0	9.26e-03	0	42	0	2172649472	40	17563
2026-01-24 22:21:32.55	29.90	7.73	-32.6	-33.0	15.3	6.27e-03	0	42	0	2290089984	40	17227
2026-01-24 22:21:33.56	30.02	7.81	-32.6	-33.0	15.1	5.35e-03	0	42	0	2399141888	40	17363
2026-01-24 22:21:34.57	30.14	7.89	-32.4	-32.8	15.2	5.35e-03	0	43	0	2516582400	40	16952
2026-01-24 22:21:35.58	30.25	7.97	-32.3	-32.7	15.0	5.35e-03	0	42	0	2634022912	40	16717
2026-01-24 22:21:36.59	30.37	8.05	-32.7	-33.1	15.0	4.40e-03	0	43	0	2743074816	40	17414
2026-01-24 22:21:37.60	30.49	8.14	-32.3	-32.7	15.1	4.40e-03	0	42	0	2860515328	40	16733
2026-01-24 22:21:38.61	30.61	8.22	-31.4	-31.8	15.6	5.41e-03	0	42	0	2977955840	38	16937
2026-01-24 22:21:39.62	30.73	8.30	-31.7	-32.1	15.5	5.41e-03	0	42	0	3087007744	38	17489
2026-01-24 22:21:40.63	30.86	8.38	-31.1	-31.5	15.7	5.41e-03	0	43	0	3196059648	38	16343
2026-01-24 22:21:41.64	30.98	8.47	-29.6	-30.0	16.2	2.31e-03	0	42	0	3313500160	34	17375
2026-01-24 22:21:42.65	31.10	8.55	-29.6	-30.0	16.2	2.31e-03	0	43	0	3422552064	34	17331
2026-01-24 22:21:43.67	31.23	8.63	-29.5	-29.9	16.2	2.40e-04	0	43	0	3539992576	34	17149
2026-01-24 22:21:44.68	31.36	8.72	-29.2	-29.6	16.3	2.40e-04	0	43	0	3657433088	34	16535
2026-01-24 22:21:45.69	31.48	8.80	-29.7	-30.1	16.1	2.34e-04	0	43	0	3766484992	34	17551
2026-01-24 22:21:46.70	31.61	8.89	-29.1	-29.6	16.3	2.34e-04	0	43	0	3883925504	34	16485
2026-01-24 22:21:47.71	31.74	8.97	-28.6	-29.0	16.5	2.34e-04	0	43	0	3992977408	32	17399
2026-01-24 22:21:48.72	31.87	9.06	-28.6	-29.1	16.4	1.14e-04	0	43	0	4110417920	32	17423
2026-01-24 22:21:49.73	32.00	9.14	-28.4	-28.9	16.5	1.14e-04	0	43	0	4219469824	32	17025
2026-01-24 22:21:50.74	32.13	9.23	-28.5	-29.0	16.5	1.14e-04	0	43	0	4336910336	32	17225
2026-01-24 22:21:51.75	32.26	9.31	-28.3	-28.8	16.5	4.90e-05	0	43	0	4445962240	32	16868
2026-01-24 22:21:52.76	32.39	9.40	-28.7	-29.1	16.4	4.90e-05	0	43	0	4563402752	32	17468
2026-01-24 22:21:53.77	32.53	9.49	-28.3	-28.8	16.3	2.72e-05	0	43	0	4680843264	32	16859
2026-01-24 22:21:54.78	32.66	9.57	-28.2	-28.7	16.3	2.72e-05	0	43	0	4789895168	32	16660
2026-01-24 22:21:55.79	32.80	9.66	-28.3	-28.7	16.2	9.26e-05	0	43	0	4907335680	32	16761
2026-01-24 22:21:56.80	32.93	9.75	-28.1	-28.6	16.3	5.44e-05	0	43	0	5016387584	32	16476
2026-01-24 22:21:57.81	33.07	9.83	-28.3	-28.7	16.3	5.44e-05	0	43	0	5125439488	32	16711
2026-01-24 22:21:58.82	33.21	9.92	-28.1	-28.5	16.4	5.44e-05	0	43	0	5242880000	32	16272
2026-01-24 22:21:59.83	33.35	10.01	-28.0	-28.5	16.5	4.90e-05	0	43	0	5360320512	32	16274
2026-01-24 22:22:00.84	33.49	10.10	-28.1	-28.5	16.5	4.90e-05	0	43	0	5469372416	32	16394
2026-01-24 22:22:01.85	33.63	10.19	-28.6	-29.0	16.5	4.90e-05	0	43	0	5586812928	32	17391
2026-01-24 22:22:02.86	33.77	10.28	-28.5	-28.9	16.5	1.63e-05	0	43	0	5704253440	32	17111
2026-01-24 22:22:03.87	33.92	10.36	-28.0	-28.5	16.6	1.63e-05	0	43	0	5813305344	32	16251
2026-01-24 22:22:04.88	34.06	10.45	-28.3	-28.8	16.5	2.17e-05	0	43	0	5930745856	32	16816
2026-01-24 22:22:05.89	34.21	10.54	-28.0	-28.5	16.6	2.17e-05	0	43	0	6039797760	32	16309
2026-01-24 22:22:06.90	34.36	10.63	-28.0	-28.4	16.6	4.35e-05	0	43	0	6148849664	32	16166
2026-01-24 22:22:07.91	34.50	10.72	-28.1	-28.6	16.6	4.35e-05	0	43	0	6266290176	32	16514
2026-01-24 22:22:08.92	34.65	10.82	-28.0	-28.5	16.6	2.72e-05	0	43	0	6383730688	32	16258
2026-01-24 22:22:09.93	34.80	10.91	-28.3	-28.8	16.5	2.72e-05	0	43	0	6492782592	32	16856
2026-01-24 22:22:10.94	34.95	11.00	-28.1	-28.5	16.5	1.63e-05	0	43	0	6610223104	32	16398
2026-01-24 22:22:11.94	35.10	11.09	-28.2	-28.6	16.5	1.63e-05	0	43	0	6719275008	32	16583
2026-01-24 22:22:12.95	35.26	11.18	-27.7	-28.2	16.6	3.81e-05	0	43	0	6836715520	32	15762
2026-01-24 22:22:13.96	35.41	11.27	-27.8	-28.3	16.7	3.81e-05	0	43	0	6954156032	30	17880
2026-01-24 22:22:14.97	35.57	11.36	-27.7	-28.2	16.7	0.00e+00	0	43	0	7063207936	30	17664
2026-01-24 22:22:15.98	35.72	11.46	-27.9	-28.3	16.7	0.00e+00	0	43	0	7172259840	30	17923
2026-01-24 22:22:16.99	35.88	11.55	-27.7	-28.1	16.7	0.00e+00	0	43	0	7289700352	30	17532
2026-01-24 22:22:18.00	36.04	11.64	-27.9	-28.4	16.6	2.72e-05	0	43	0	7398752256	30	18049
2026-01-24 22:22:19.01	36.20	11.74	-27.9	-28.3	16.7	2.72e-05	0	43	0	7516192768	30	17998
2026-01-24 22:22:20.02	36.36	11.83	-27.7	-28.1	16.7	1.08e-05	0	43	0	7633633280	30	17564
2026-01-24 22:22:21.03	36.53	11.93	-27.5	-28.0	16.8	1.08e-05	0	43	0	7742685184	30	17207
2026-01-24 22:22:22.04	36.69	12.02	-27.5	-27.9	16.8	1.08e-05	0	43	0	7860125696	30	17137
2026-01-24 22:22:23.05	36.85	12.12	-27.5	-27.9	16.7	5.40e-06	0	43	0	7969177600	30	17115
2026-01-24 22:22:24.06	37.02	12.21	-27.4	-27.9	16.7	5.40e-06	0	43	0	8078229504	30	17057
2026-01-24 22:22:25.07	37.19	12.31	-27.4	-27.9	16.7	1.08e-05	0	43	0	8204058624	30	17047
2026-01-24 22:22:26.08	37.36	12.40	-27.4	-27.8	16.6	1.08e-05	0	43	0	8313110528	30	16915
2026-01-24 22:22:27.09	37.53	12.50	-27.3	-27.7	16.7	0.00e+00	0	43	0	8422162432	30	16730
2026-01-24 22:22:28.10	37.70	12.59	-27.2	-27.6	16.8	0.00e+00	0	43	0	8539602944	30	16525
2026-01-24 22:22:29.11	37.87	12.69	-27.4	-27.8	16.8	0.00e+00	0	43	0	8648654848	30	16969
2026-01-24 22:22:30.12	38.05	12.79	-27.2	-27.6	16.9	0.00e+00	0	43	0	8766095360	30	16575
2026-01-24 22:22:31.13	38.22	12.89	-27.1	-27.5	16.8	0.00e+00	0	43	0	8883535872	30	16402
2026-01-24 22:22:32.14	38.40	12.98	-27.2	-27.7	16.8	0.00e+00	0	43	0	8992587776	30	16751
2026-01-24 22:22:33.15	38.58	13.08	-27.1	-27.6	16.9	0.00e+00	0	44	0	9110028288	30	16462
2026-01-24 22:22:34.16	38.76	13.18	-26.8	-27.2	16.9	0.00e+00	0	43	0	9219080192	28	17743
2026-01-24 22:22:35.17	38.94	13.28	-26.8	-27.2	17.0	0.00e+00	0	43	0	9336520704	28	17778
2026-01-24 22:22:36.18	39.12	13.38	-26.9	-27.4	16.9	0.00e+00	0	43	0	9445572608	28	18044
2026-01-24 22:22:37.19	39.31	13.48	-26.6	-27.1	16.9	0.00e+00	0	43	0	9563013120	28	17477
2026-01-24 22:22:38.19	39.49	13.57	-26.6	-27.1	17.0	0.00e+00	0	43	0	9672065024	28	17513
2026-01-24 22:22:39.20	39.68	13.67	-26.8	-27.3	16.9	0.00e+00	0	43	0	9789505536	28	17850
2026-01-24 22:22:40.22	39.87	13.77	-26.6	-27.1	16.8	0.00e+00	0	43	0	9906946048	28	17477
2026-01-24 22:22:41.22	40.05	13.87	-26.6	-27.1	16.9	0.00e+00	0	43	0	10015997952	28	17439
2026-01-24 22:22:42.23	40.25	13.97	-26.7	-27.1	16.9	0.00e+00	0	43	0	10133438464	28	17577
2026-01-24 22:22:43.24	40.44	14.08	-26.3	-26.8	17.0	0.00e+00	0	43	0	10242490368	28	16822
2026-01-24 22:22:44.25	40.63	14.18	-26.4	-26.9	17.0	0.00e+00	0	43	0	10351542272	28	17059
2026-01-24 22:22:45.26	40.83	14.28	-26.4	-26.8	17.0	0.00e+00	0	43	0	10468982784	28	16966
2026-01-24 22:22:46.27	41.03	14.38	-26.4	-26.9	17.0	0.00e+00	0	43	0	10586423296	28	17050
2026-01-24 22:22:47.28	41.22	14.48	-26.4	-26.8	17.0	0.00e+00	0	43	0	10695475200	28	16985
2026-01-24 22:22:48.29	41.43	14.58	-26.3	-26.7	17.1	0.00e+00	0	43	0	10812915712	28	16806
2026-01-24 22:22:49.30	41.63	14.69	-26.3	-26.8	17.0	0.00e+00	0	43	0	10921967616	28	16833
2026-01-24 22:22:50.31	41.83	14.79	-26.3	-26.8	17.0	0.00e+00	0	44	0	11039408128	28	16824
2026-01-24 22:22:51.32	42.04	14.89	-26.1	-26.6	16.9	0.00e+00	0	43	0	11156848640	28	16530
2026-01-24 22:22:52.33	42.24	14.99	-26.1	-26.5	16.9	0.00e+00	0	43	0	11265900544	28	16426
2026-01-24 22:22:53.34	42.45	15.10	-25.9	-26.4	16.8	0.00e+00	0	44	0	11374952448	28	16083
2026-01-24 22:22:54.35	42.66	15.20	-26.0	-26.5	16.9	0.00e+00	0	44	0	11492392960	28	16263
2026-01-24 22:22:55.36	42.88	15.31	-26.1	-26.5	16.8	0.00e+00	0	44	0	11609833472	28	16411
2026-01-24 22:22:56.37	43.09	15.41	-25.9	-26.4	17.0	0.00e+00	0	44	0	11718885376	28	16176
2026-01-24 22:22:57.39	43.31	15.52	-25.8	-26.3	17.2	0.00e+00	0	44	0	11836325888	28	15909
2026-01-24 22:22:58.40	43.52	15.62	-25.9	-26.4	17.2	0.00e+00	0	44	0	11945377792	26	18162
2026-01-24 22:22:59.41	43.74	15.73	-25.8	-26.2	17.2	0.00e+00	0	44	0	12062818304	26	17751
2026-01-24 22:23:00.42	43.96	15.83	-25.5	-26.0	17.2	0.00e+00	0	44	0	12180258816	26	17246
2026-01-24 22:23:01.43	44.19	15.94	-26.1	-26.6	17.2	0.00e+00	0	44	0	12289310720	26	18466
2026-01-24 22:23:02.44	44.41	16.04	-26.0	-26.5	17.2	0.00e+00	0	44	0	12398362624	26	18351
2026-01-24 22:23:03.45	44.64	16.15	-26.3	-26.7	17.1	0.00e+00	0	44	0	12515803136	26	18857
2026-01-24 22:23:04.46	44.87	16.25	-26.5	-26.9	17.0	0.00e+00	0	44	0	12624855040	28	17183
2026-01-24 22:23:05.47	45.10	16.36	-26.7	-27.2	16.9	0.00e+00	0	44	0	12742295552	28	17707
2026-01-24 22:23:06.48	45.33	16.47	-26.7	-27.2	17.1	0.00e+00	0	44	0	12859736064	28	17702
2026-01-24 22:23:07.49	45.56	16.57	-26.1	-26.5	17.2	0.00e+00	0	44	0	12968787968	28	16414
2026-01-24 22:23:08.50	45.80	16.68	-26.0	-26.5	17.2	0.00e+00	0	44	0	13086228480	26	18349
2026-01-24 22:23:09.51	46.03	16.79	-25.6	-26.1	17.2	0.00e+00	0	44	0	13195280384	26	17462
2026-01-24 22:23:10.52	46.27	16.90	-25.6	-26.1	17.3	0.00e+00	0	44	0	13312720896	26	17426
2026-01-24 22:23:11.53	46.52	17.00	-25.5	-26.0	17.3	0.00e+00	0	44	0	13430161408	26	17207
2026-01-24 22:23:12.54	46.76	17.11	-25.3	-25.8	17.3	0.00e+00	0	44	0	13539213312	26	16838
2026-01-24 22:23:13.54	47.00	17.22	-25.0	-25.5	17.3	0.00e+00	0	44	0	13648265216	26	16290
2026-01-24 22:23:14.55	47.25	17.33	-25.1	-25.6	17.4	0.00e+00	0	44	0	13765705728	26	16503
2026-01-24 22:23:15.57	47.50	17.44	-25.1	-25.5	17.3	0.00e+00	0	44	0	13883146240	26	16424
2026-01-24 22:23:16.58	47.75	17.54	-24.8	-25.3	17.3	0.00e+00	0	44	0	13992198144	26	15954
2026-01-24 22:23:17.58	48.00	17.65	-25.0	-25.5	17.3	0.00e+00	0	44	0	14109638656	26	16419
2026-01-24 22:23:18.59	48.26	17.76	-24.9	-25.4	17.4	0.00e+00	0	44	0	14218690560	26	16109
2026-01-24 22:23:19.60	48.52	17.87	-24.7	-25.2	17.4	0.00e+00	0	44	0	14327742464	24	17663
2026-01-24 22:23:20.61	48.78	17.98	-24.8	-25.3	17.4	0.00e+00	0	44	0	14453571584	24	17924
2026-01-24 22:23:21.62	49.04	18.09	-24.8	-25.3	17.4	0.00e+00	0	44	0	14562623488	24	17827
2026-01-24 22:23:22.63	49.30	18.19	-25.0	-25.5	17.4	0.00e+00	0	44	0	14671675392	24	18305
2026-01-24 22:23:23.64	49.57	18.30	-24.6	-25.1	17.3	0.00e+00	0	44	0	14789115904	24	17538
2026-01-24 22:23:24.65	49.84	18.41	-24.7	-25.1	17.3	0.00e+00	0	44	0	14898167808	24	17596
2026-01-24 22:23:25.66	50.11	18.52	-24.5	-25.0	17.3	0.00e+00	0	44	0	15015608320	24	17347
2026-01-24 22:23:26.67	50.38	18.63	-24.5	-25.0	17.4	0.00e+00	0	44	0	15133048832	24	17272
2026-01-24 22:23:27.68	50.66	18.74	-24.5	-25.0	17.4	0.00e+00	0	44	0	15242100736	24	17348
2026-01-24 22:23:28.69	50.94	18.85	-24.3	-24.9	17.4	0.00e+00	0	44	0	15359541248	24	17009
2026-01-24 22:23:29.70	51.22	18.96	-24.4	-24.9	17.4	0.00e+00	0	44	0	15468593152	24	17100
2026-01-24 22:23:30.71	51.50	19.07	-24.3	-24.8	17.4	0.00e+00	0	44	0	15577645056	24	16842
2026-01-24 22:23:31.72	51.78	19.18	-24.3	-24.8	17.4	0.00e+00	0	44	0	15695085568	24	16908
2026-01-24 22:23:32.73	52.07	19.29	-24.2	-24.7	17.4	0.00e+00	0	44	0	15812526080	24	16772
2026-01-24 22:23:33.74	52.36	19.40	-24.2	-24.7	17.4	0.00e+00	0	44	0	15921577984	24	16771
2026-01-24 22:23:34.75	52.65	19.51	-24.3	-24.7	17.4	0.00e+00	0	44	0	16039018496	24	16774
2026-01-24 22:23:35.76	52.94	19.62	-24.3	-24.8	17.4	0.00e+00	0	44	0	16148070400	24	16885
2026-01-24 22:23:36.77	53.24	19.72	-24.0	-24.5	17.4	0.00e+00	0	44	0	16265510912	24	16401
2026-01-24 22:23:37.78	53.54	19.83	-24.1	-24.5	17.4	0.00e+00	0	44	0	16382951424	24	16411
2026-01-24 22:23:38.79	53.84	19.94	-23.9	-24.4	17.4	0.00e+00	0	44	0	16492003328	24	16151
2026-01-24 22:23:39.80	54.14	20.05	-24.2	-24.7	17.4	0.00e+00	0	44	0	16601055232	24	16698
2026-01-24 22:23:40.81	54.45	20.16	-24.0	-24.5	17.4	0.00e+00	0	44	0	16718495744	24	16340
2026-01-24 22:23:41.82	54.75	20.27	-24.2	-24.6	17.4	0.00e+00	0	44	0	16835936256	24	16607
2026-01-24 22:23:42.83	55.06	20.38	-23.8	-24.3	17.3	0.00e+00	0	44	0	16944988160	24	15929
2026-01-24 22:23:43.84	55.38	20.49	-49.2	-51.9	6.2	0.00e+00	0	44	104	17003708416	60	48290
2026-01-24 22:23:44.85	55.69	20.59	-49.8	-52.4	6.1	0.00e+00	0	44	104	17003708416	60	51336
2026-01-24 22:23:45.86	56.01	20.70	-50.7	-53.3	6.1	0.00e+00	0	44	104	17003708416	60	56490
2026-01-24 22:23:46.87	56.33	20.81	-50.8	-53.4	6.1	0.00e+00	0	44	104	17003708416	60	57019
2026-01-24 22:23:47.88	56.65	20.92	-50.6	-53.1	6.1	0.00e+00	0	44	104	17003708416	60	55639
2026-01-24 22:23:48.89	56.98	21.02	-50.7	-53.2	6.1	0.00e+00	0	44	104	17003708416	60	56247
2026-01-24 22:23:49.90	57.31	21.13	-51.0	-53.5	6.1	0.00e+00	0	44	104	17003708416	60	57996
2026-01-24 22:23:50.91	57.64	21.24	-51.1	-53.6	6.1	0.00e+00	0	44	104	17003708416	60	58452
2026-01-24 22:23:51.92	57.97	21.34	-51.0	-53.5	6.1	0.00e+00	0	44	104	17003708416	60	57945
2026-01-24 22:23:52.93	58.31	21.45	-50.9	-53.4	6.1	0.00e+00	0	44	104	17003708416	60	57604
2026-01-24 22:23:53.94	58.65	21.55	-49.6	-52.3	6.1	0.00e+00	0	43	104	17003708416	60	50337
2026-01-24 22:23:54.95	58.99	21.66	-49.4	-52.1	6.1	0.00e+00	0	44	104	17003708416	60	49448
2026-01-24 22:23:55.96	59.33	21.76	-50.2	-52.8	6.1	0.00e+00	0	44	104	17003708416	60	53566
2026-01-24 22:23:56.97	59.68	21.87	-50.8	-53.3	6.1	0.00e+00	0	44	104	17003708416	60	56831
2026-01-24 22:23:57.97	60.02	21.97	-50.8	-53.3	6.1	0.00e+00	0	44	104	17003708416	60	56837
2026-01-24 22:23:58.98	60.37	22.08	-50.6	-53.2	6.1	0.00e+00	0	44	104	17003708416	60	55758
2026-01-24 22:23:59.99	60.73	22.18	-50.7	-53.2	6.1	0.00e+00	0	44	104	17003708416	60	55961
2026-01-24 22:24:01.00	61.08	22.28	-51.0	-53.4	6.1	0.00e+00	0	44	104	17003708416	60	57608
2026-01-24 22:24:02.01	61.44	22.38	-51.1	-53.5	6.1	0.00e+00	0	43	104	17003708416	60	58272
2026-01-24 22:24:03.02	61.80	22.48	-50.9	-53.4	6.1	0.00e+00	0	43	104	17003708416	60	57442
2026-01-24 22:24:04.02	62.16	22.58	-51.1	-53.6	6.1	0.00e+00	0	44	104	17003708416	60	58487
2026-01-24 22:24:05.03	62.53	22.68	-50.7	-53.2	6.1	0.00e+00	0	43	104	17003708416	60	56023
2026-01-24 22:24:06.04	62.90	22.78	-50.7	-53.3	6.1	0.00e+00	0	44	104	17003708416	60	56425
2026-01-24 22:24:07.05	63.27	22.88	-50.8	-53.3	6.1	0.00e+00	0	44	104	17003708416	60	56953
2026-01-24 22:24:08.06	63.65	22.98	-51.1	-53.6	6.1	0.00e+00	0	44	104	17003708416	60	58406
2026-01-24 22:24:09.07	64.02	23.08	-50.1	-52.8	6.1	0.00e+00	0	43	104	17003708416	60	53401
2026-01-24 22:24:10.08	64.40	23.18	-50.6	-53.2	6.1	0.00e+00	0	44	104	17003708416	60	55900
2026-01-24 22:24:11.09	64.79	23.27	-49.9	-52.6	6.1	0.00e+00	0	44	104	17003708416	60	52428
2026-01-24 22:24:12.10	65.17	23.37	-50.2	-52.9	6.1	0.00e+00	0	44	104	17003708416	60	54039
2026-01-24 22:24:13.11	65.56	23.46	-50.9	-53.4	6.1	0.00e+00	0	44	104	17003708416	60	57524
2026-01-24 22:24:14.12	65.95	23.56	-50.1	-52.8	6.1	0.00e+00	0	44	104	17003708416	60	53285
2026-01-24 22:24:15.13	66.34	23.65	-50.9	-53.4	6.1	0.00e+00	0	44	104	17003708416	60	57580
2026-01-24 22:24:16.14	66.74	23.74	-50.8	-53.4	6.1	0.00e+00	0	44	104	17003708416	60	57042
2026-01-24 22:24:17.15	67.14	23.83	-50.8	-53.3	6.1	0.00e+00	0	44	104	17003708416	60	56858
2026-01-24 22:24:18.16	67.54	23.92	-51.1	-53.6	6.1	0.00e+00	0	43	104	17003708416	60	58488
2026-01-24 22:24:19.17	67.94	24.01	-51.1	-53.7	6.0	0.00e+00	0	44	104	17003708416	60	58973
2026-01-24 22:24:20.18	68.35	24.10	-50.8	-53.4	6.1	0.00e+00	0	44	104	17003708416	60	57022
2026-01-24 22:24:21.19	68.75	24.19	-50.8	-53.3	6.1	0.00e+00	0	44	104	17003708416	60	56883
2026-01-24 22:24:22.20	69.17	24.27	-51.2	-53.6	6.1	0.00e+00	0	44	104	17003708416	60	58728
2026-01-24 22:24:23.21	69.58	24.36	-50.5	-53.1	6.1	0.00e+00	0	44	104	17003708416	60	55401
2026-01-24 22:24:24.22	69.99	24.44	-50.4	-53.0	6.1	0.00e+00	0	44	104	17003708416	60	54957
2026-01-24 22:24:25.23	70.41	24.53	-51.1	-53.5	6.1	0.00e+00	0	43	104	17003708416	60	58195
2026-01-24 22:24:26.23	70.83	24.61	-51.2	-53.7	6.1	0.00e+00	0	44	104	17003708416	60	59185
2026-01-24 22:24:27.24	71.25	24.69	-51.0	-53.5	6.1	0.00e+00	0	44	104	17003708416	60	58074
2026-01-24 22:24:28.25	71.68	24.77	-50.7	-53.2	6.1	0.00e+00	0	44	104	17003708416	60	56216
2026-01-24 22:24:29.26	72.11	24.85	-51.1	-53.6	6.1	0.00e+00	0	44	104	17003708416	60	58335
2026-01-24 22:24:30.27	72.54	24.92	-50.9	-53.5	6.1	0.00e+00	0	44	104	17003708416	60	57765
2026-01-24 22:24:31.28	72.97	25.00	-50.7	-53.2	6.1	0.00e+00	0	44	104	17003708416	60	56302
2026-01-24 22:24:32.29	73.40	25.07	-50.8	-53.3	6.1	0.00e+00	0	44	104	17003708416	60	56919
2026-01-24 22:24:33.30	73.84	25.15	-50.9	-53.4	6.1	0.00e+00	0	44	104	17003708416	60	57346
2026-01-24 22:24:34.31	74.28	25.22	-51.2	-53.7	6.1	0.00e+00	0	44	104	17003708416	60	59160
2026-01-24 22:24:35.32	74.72	25.29	-49.9	-52.5	6.1	0.00e+00	0	44	104	17003708416	60	51654
2026-01-24 22:24:36.33	75.16	25.36	-50.3	-53.0	6.1	0.00e+00	0	44	104	17003708416	60	54440
2026-01-24 22:24:37.34	75.61	25.42	-49.8	-52.6	6.1	0.00e+00	0	44	104	17003708416	60	52017
2026-01-24 22:24:38.35	76.06	25.49	-49.9	-52.6	6.1	0.00e+00	0	44	104	17003708416	60	52126
2026-01-24 22:24:39.36	76.51	25.55	-50.8	-53.3	6.1	0.00e+00	0	44	104	17003708416	60	56838
2026-01-24 22:24:40.37	76.96	25.62	-51.2	-53.7	6.1	0.00e+00	0	44	104	17003708416	60	58967
2026-01-24 22:24:41.37	77.41	25.68	-51.2	-53.7	6.1	0.00e+00	0	43	104	17003708416	60	59251
2026-01-24 22:24:42.39	77.87	25.74	-50.9	-53.5	6.0	0.00e+00	0	44	104	17003708416	60	57663
2026-01-24 22:24:43.39	78.32	25.80	-50.9	-53.4	6.1	0.00e+00	0	44	104	17003708416	60	57306
2026-01-24 22:24:44.40	78.78	25.85	-51.0	-53.5	6.1	0.00e+00	0	44	104	17003708416	60	57678
2026-01-24 22:24:45.41	79.24	25.91	-51.1	-53.5	6.1	0.00e+00	0	44	104	17003708416	60	58261
2026-01-24 22:24:46.42	79.70	25.96	-51.2	-53.7	6.1	0.00e+00	0	44	104	17003708416	60	59402
2026-01-24 22:24:47.43	80.17	26.01	-51.1	-53.6	6.1	0.00e+00	0	44	104	17003708416	60	58531
2026-01-24 22:24:48.44	80.63	26.06	-51.1	-53.6	6.1	0.00e+00	0	44	104	17003708416	60	58518
2026-01-24 22:24:49.45	81.10	26.11	-51.0	-53.5	6.1	0.00e+00	0	44	104	17003708416	60	58108
2026-01-24 22:24:50.46	81.57	26.16	-51.2	-53.7	6.1	0.00e+00	0	44	104	17003708416	60	59049
2026-01-24 22:24:51.47	82.04	26.20	-51.2	-53.7	6.1	0.00e+00	0	43	104	17003708416	60	59184
2026-01-24 22:24:52.48	82.51	26.24	-50.8	-53.4	6.1	0.00e+00	0	44	104	17003708416	60	57207
2026-01-24 22:24:53.49	82.98	26.29	-50.8	-53.3	6.1	0.00e+00	0	44	104	17003708416	60	56573
2026-01-24 22:24:54.50	83.46	26.32	-50.4	-53.0	6.1	0.00e+00	0	44	104	17003708416	60	54686
2026-01-24 22:24:55.51	83.93	26.36	-50.1	-52.7	6.1	0.00e+00	0	44	104	17003708416	60	53128
2026-01-24 22:24:56.51	84.41	26.40	-50.9	-53.4	6.1	0.00e+00	0	44	104	17003708416	60	57445
2026-01-24 22:24:57.52	84.89	26.43	-50.9	-53.5	6.1	0.00e+00	0	44	104	17003708416	60	57796
2026-01-24 22:24:58.53	85.36	26.46	-51.2	-53.7	6.1	0.00e+00	0	44	104	17003708416	60	58973
2026-01-24 22:24:59.55	85.85	26.49	-51.2	-53.6	6.1	0.00e+00	0	44	104	17003708416	60	58741
2026-01-24 22:25:00.55	86.33	26.52	-50.9	-53.4	6.1	0.00e+00	0	44	104	17003708416	60	57432
2026-01-24 22:25:01.56	86.81	26.54	-51.1	-53.6	6.1	0.00e+00	0	44	104	17003708416	60	58535
2026-01-24 22:25:02.57	87.29	26.57	-51.1	-53.6	6.1	0.00e+00	0	44	104	17003708416	60	58693
2026-01-24 22:25:03.58	87.78	26.59	-51.1	-53.6	6.1	0.00e+00	0	44	104	17003708416	60	58439
2026-01-24 22:25:04.59	88.26	26.61	-51.0	-53.5	6.1	0.00e+00	0	44	104	17003708416	60	57761
2026-01-24 22:25:05.60	88.75	26.63	-51.1	-53.6	6.1	0.00e+00	0	44	104	17003708416	60	58367
2026-01-24 22:25:06.61	89.23	26.64	-51.1	-53.6	6.1	0.00e+00	0	44	104	17003708416	60	58530
2026-01-24 22:25:07.62	89.72	26.66	-51.0	-53.6	6.1	0.00e+00	0	44	104	17003708416	60	58289
2026-01-24 22:25:08.63	90.20	26.67	-51.1	-53.6	6.1	0.00e+00	0	44	104	17003708416	60	58731
2026-01-24 22:25:09.64	90.69	26.68	-51.1	-53.6	6.1	0.00e+00	0	43	104	17003708416	60	58558
2026-01-24 22:25:10.65	91.18	26.69	-51.0	-53.6	6.1	0.00e+00	0	44	104	17003708416	60	58350
2026-01-24 22:25:11.66	91.67	26.69	-50.9	-53.4	6.1	0.00e+00	0	43	104	17003708416	60	57527
2026-01-24 22:25:12.67	92.15	26.69	-51.0	-53.5	6.1	0.00e+00	0	44	104	17003708416	60	57801
2026-01-24 22:25:13.67	92.64	26.70	-51.2	-53.7	6.1	0.00e+00	0	44	104	17003708416	60	59023
2026-01-24 22:25:14.68	93.12	26.70	-50.9	-53.5	6.1	0.00e+00	0	44	104	17003708416	60	57721
2026-01-24 22:25:15.69	93.61	26.69	-50.7	-53.3	6.1	0.00e+00	0	44	104	17003708416	60	56705
2026-01-24 22:25:16.70	94.10	26.69	-50.7	-53.3	6.1	0.00e+00	0	44	104	17003708416	60	56435
2026-01-24 22:25:17.71	94.59	26.68	-51.2	-53.6	6.1	0.00e+00	0	44	104	17003708416	60	58676
2026-01-24 22:25:18.72	95.08	26.67	-51.0	-53.5	6.1	0.00e+00	0	44	104	17003708416	60	58036
2026-01-24 22:25:19.73	95.56	26.66	-51.2	-53.7	6.1	0.00e+00	0	44	104	17003708416	60	59026
2026-01-24 22:25:20.74	96.05	26.65	-50.0	-52.7	6.1	0.00e+00	0	44	104	17003708416	60	52624
2026-01-24 22:25:21.75	96.54	26.64	-50.9	-53.4	6.1	0.00e+00	0	44	104	17003708416	60	57347
2026-01-24 22:25:22.76	97.02	26.62	-49.4	-52.2	6.1	0.00e+00	0	44	104	17003708416	60	49967
2026-01-24 22:25:23.77	97.51	26.60	-50.9	-53.4	6.1	0.00e+00	0	44	104	17003708416	60	57012
2026-01-24 22:25:24.78	97.99	26.58	-51.0	-53.5	6.1	0.00e+00	0	44	104	17003708416	60	57741
2026-01-24 22:25:25.79	98.48	26.56	-50.5	-53.0	6.1	0.00e+00	0	44	104	17003708416	60	54969
2026-01-24 22:25:26.80	98.96	26.53	-51.0	-53.5	6.1	0.00e+00	0	44	104	17003708416	60	57841
2026-01-24 22:25:27.81	99.44	26.51	-51.1	-53.6	6.1	0.00e+00	0	44	104	17003708416	60	58789
2026-01-24 22:25:28.82	99.92	26.48	-51.0	-53.5	6.1	0.00e+00	0	44	104	17003708416	60	58256
2026-01-24 22:25:29.83	100.40	26.45	-50.8	-53.4	6.1	0.00e+00	0	44	104	17003708416	60	57246
2026-01-24 22:25:30.84	100.88	26.41	-51.0	-53.5	6.1	0.00e+00	0	44	104	17003708416	60	58163
2026-01-24 22:25:31.85	101.36	26.38	-51.2	-53.6	6.1	0.00e+00	0	44	104	17003708416	60	58721
2026-01-24 22:25:32.86	101.84	26.34	-51.2	-53.6	6.1	0.00e+00	0	44	104	17003708416	60	58941
2026-01-24 22:25:33.87	102.31	26.30	-51.1	-53.6	6.1	0.00e+00	0	44	104	17003708416	60	58618
2026-01-24 22:25:34.87	102.78	26.27	-51.0	-53.5	6.1	0.00e+00	0	44	104	17003708416	60	58216
2026-01-24 22:25:35.88	103.26	26.22	-51.1	-53.6	6.1	0.00e+00	0	44	104	17003708416	60	58569
2026-01-24 22:25:36.89	103.73	26.18	-51.0	-53.5	6.1	0.00e+00	0	44	104	17003708416	60	58127
2026-01-24 22:25:37.90	104.20	26.13	-51.1	-53.6	6.0	0.00e+00	0	44	104	17003708416	60	58359
2026-01-24 22:25:38.91	104.67	26.09	-51.0	-53.5	6.1	0.00e+00	0	44	104	17003708416	60	58045
2026-01-24 22:25:39.92	105.14	26.04	-51.0	-53.5	6.1	0.00e+00	0	44	104	17003708416	60	57761
2026-01-24 22:25:40.93	105.60	25.99	-51.1	-53.6	6.1	0.00e+00	0	44	104	17003708416	60	58593
2026-01-24 22:25:41.94	106.07	25.93	-51.1	-53.6	6.1	0.00e+00	0	44	104	17003708416	60	58466
2026-01-24 22:25:42.95	106.53	25.88	-51.1	-53.6	6.1	0.00e+00	0	44	104	17003708416	60	58327
2026-01-24 22:25:43.96	106.99	25.82	-51.1	-53.5	6.1	0.00e+00	0	44	104	17003708416	60	58209
2026-01-24 22:25:44.97	107.45	25.77	-51.1	-53.6	6.1	0.00e+00	0	44	104	17003708416	60	58446
2026-01-24 22:25:45.98	107.91	25.71	-51.1	-53.6	6.1	0.00e+00	0	44	104	17003708416	60	58560
2026-01-24 22:25:46.99	108.36	25.65	-51.1	-53.6	6.1	0.00e+00	0	44	104	17003708416	60	58537
2026-01-24 22:25:48.00	108.82	25.59	-51.1	-53.6	6.1	0.00e+00	0	44	104	17003708416	60	58750
2026-01-24 22:25:49.00	109.27	25.52	-51.1	-53.5	6.1	0.00e+00	0	44	104	17003708416	60	58242
2026-01-24 22:25:50.02	109.72	25.46	-51.1	-53.6	6.1	0.00e+00	0	44	104	17003708416	60	58394
2026-01-24 22:25:51.02	110.16	25.39	-50.9	-53.4	6.1	0.00e+00	0	44	104	17003708416	60	57431
2026-01-24 22:25:52.03	110.61	25.32	-51.1	-53.5	6.1	0.00e+00	0	44	104	17003708416	60	57955
2026-01-24 22:25:53.04	111.05	25.25	-51.1	-53.6	6.0	0.00e+00	0	44	104	17003708416	60	58811
2026-01-24 22:25:54.05	111.49	25.18	-51.1	-53.5	6.1	0.00e+00	0	44	104	17003708416	60	58163
2026-01-24 22:25:55.06	111.93	25.11	-51.1	-53.6	6.1	0.00e+00	0	44	104	17003708416	60	58371
2026-01-24 22:25:56.07	112.37	25.03	-51.2	-53.6	6.1	0.00e+00	0	44	104	17003708416	60	58640
2026-01-24 22:25:57.08	112.81	24.96	-51.1	-53.5	6.1	0.00e+00	0	44	104	17003708416	60	58216
2026-01-24 22:25:58.09	113.24	24.88	-51.1	-53.6	6.1	0.00e+00	0	44	104	17003708416	60	58301
2026-01-24 22:25:59.10	113.67	24.80	-51.0	-53.6	6.1	0.00e+00	0	44	104	17003708416	60	58290
2026-01-24 22:26:00.11	114.10	24.72	-51.2	-53.6	6.1	0.00e+00	0	44	104	17003708416	60	58793
2026-01-24 22:26:01.12	114.52	24.64	-50.9	-53.5	6.1	0.00e+00	0	44	104	17003708416	60	57870
2026-01-24 22:26:02.13	114.94	24.56	-51.0	-53.5	6.1	0.00e+00	0	44	104	17003708416	60	58043
2026-01-24 22:26:03.14	115.37	24.48	-51.0	-53.5	6.1	0.00e+00	0	44	104	17003708416	60	57769
2026-01-24 22:26:04.15	115.78	24.40	-51.0	-53.5	6.1	0.00e+00	0	44	104	17003708416	60	57679
2026-01-24 22:26:05.16	116.20	24.31	-51.0	-53.5	6.1	0.00e+00	0	44	104	17003708416	60	57944
2026-01-24 22:26:06.17	116.61	24.22	-51.1	-53.6	6.1	0.00e+00	0	44	104	17003708416	60	58353
2026-01-24 22:26:07.18	117.02	24.14	-51.0	-53.5	6.1	0.00e+00	0	44	104	17003708416	60	57861
2026-01-24 22:26:08.19	117.43	24.05	-51.1	-53.5	6.1	0.00e+00	0	44	104	17003708416	60	58262
2026-01-24 22:26:09.19	117.83	23.96	-51.1	-53.6	6.1	0.00e+00	0	43	104	17003708416	60	58610
2026-01-24 22:26:10.21	118.24	23.87	-51.1	-53.6	6.1	0.00e+00	0	44	104	17003708416	60	58333
2026-01-24 22:26:11.21	118.64	23.78	-51.1	-53.5	6.1	0.00e+00	0	44	104	17003708416	60	57956
2026-01-24 22:26:12.22	119.04	23.69	-51.1	-53.6	6.1	0.00e+00	0	44	104	17003708416	60	58409
2026-01-24 22:26:13.23	119.43	23.59	-51.1	-53.5	6.1	0.00e+00	0	44	104	17003708416	60	58170
2026-01-24 22:26:14.24	119.83	23.50	-51.0	-53.6	6.1	0.00e+00	0	44	104	17003708416	60	58343
2026-01-24 22:26:15.25	120.22	23.40	-50.9	-53.5	6.1	0.00e+00	0	44	104	17003708416	60	57750
2026-01-24 22:26:16.26	120.61	23.31	-51.1	-53.6	6.1	0.00e+00	0	44	104	17003708416	60	58818
2026-01-24 22:26:17.27	120.99	23.21	-51.0	-53.5	6.1	0.00e+00	0	44	104	17003708416	60	58053
2026-01-24 22:26:18.28	121.37	23.12	-51.0	-53.5	6.1	0.00e+00	0	44	104	17003708416	60	57625
2026-01-24 22:26:19.29	121.75	23.02	-50.8	-53.3	6.1	0.00e+00	0	44	104	17003708416	60	56731
2026-01-24 22:26:20.29	122.13	22.92	-51.0	-53.4	6.1	0.00e+00	0	44	104	17003708416	60	57461
2026-01-24 22:26:21.31	122.51	22.82	-51.0	-53.5	6.1	0.00e+00	0	44	104	17003708416	60	58038
2026-01-24 22:26:22.32	122.88	22.72	-51.0	-53.5	6.1	0.00e+00	0	44	104	17003708416	60	57963
2026-01-24 22:26:23.32	123.24	22.62	-51.0	-53.5	6.1	0.00e+00	0	44	104	17003708416	60	57737
2026-01-24 22:26:24.34	123.62	22.52	-51.1	-53.5	6.1	0.00e+00	0	44	104	17003708416	60	58258
2026-01-24 22:26:25.34	123.98	22.42	-51.0	-53.4	6.1	0.00e+00	0	44	104	17003708416	60	57606
2026-01-24 22:26:26.36	124.34	22.31	-50.8	-53.4	6.1	0.00e+00	0	44	104	17003708416	60	57185
2026-01-24 22:26:27.37	124.70	22.21	-50.9	-53.5	6.1	0.00e+00	0	44	104	17003708416	60	57683
2026-01-24 22:26:28.37	125.05	22.11	-51.1	-53.5	6.1	0.00e+00	0	44	104	17003708416	60	58107
2026-01-24 22:26:29.38	125.41	22.00	-51.0	-53.5	6.1	0.00e+00	0	44	104	17003708416	60	57879
2026-01-24 22:26:30.39	125.76	21.90	-51.0	-53.5	6.1	0.00e+00	0	44	104	17003708416	60	58131
2026-01-24 22:26:31.40	126.11	21.80	-51.0	-53.5	6.0	0.00e+00	0	44	104	17003708416	60	58160
2026-01-24 22:26:32.41	126.45	21.69	-51.0	-53.5	6.1	0.00e+00	0	44	104	17003708416	60	57906
2026-01-24 22:26:33.42	126.80	21.58	-51.0	-53.5	6.1	0.00e+00	0	44	104	17003708416	60	57910
2026-01-24 22:26:34.42	127.14	21.48	-51.0	-53.5	6.1	0.00e+00	0	44	104	17003708416	60	57852
2026-01-24 22:26:35.43	127.47	21.37	-51.0	-53.5	6.1	0.00e+00	0	44	104	17003708416	60	57937
2026-01-24 22:26:36.44	127.81	21.27	-51.0	-53.5	6.1	0.00e+00	0	44	104	17003708416	60	58109
2026-01-24 22:26:37.45	128.14	21.16	-51.0	-53.5	6.1	0.00e+00	0	44	104	17003708416	60	58024
2026-01-24 22:26:38.46	128.47	21.05	-51.0	-53.5	6.1	0.00e+00	0	44	104	17003708416	60	58228
2026-01-24 22:26:39.47	128.80	20.94	-51.0	-53.5	6.1	0.00e+00	0	44	104	17003708416	60	57784
2026-01-24 22:26:40.48	129.13	20.84	-51.0	-53.5	6.1	0.00e+00	0	44	104	17003708416	60	58015
2026-01-24 22:26:41.49	129.45	20.73	-51.0	-53.5	6.1	0.00e+00	0	44	104	17003708416	60	57899
2026-01-24 22:26:42.50	129.77	20.62	-51.0	-53.5	6.1	0.00e+00	0	44	104	17003708416	60	57678
2026-01-24 22:26:43.51	130.09	20.51	-51.0	-53.4	6.1	0.00e+00	0	44	104	17003708416	60	57332
2026-01-24 22:26:44.52	130.41	20.40	-51.0	-53.5	6.1	0.00e+00	0	44	104	17003708416	60	57817
2026-01-24 22:26:45.53	130.72	20.29	-51.0	-53.5	6.1	0.00e+00	0	44	104	17003708416	60	57734
2026-01-24 22:26:46.54	131.03	20.18	-50.9	-53.4	6.1	0.00e+00	0	44	104	17003708416	60	57471
2026-01-24 22:26:47.55	131.34	20.07	-51.0	-53.5	6.1	0.00e+00	0	44	104	17003708416	60	57700
2026-01-24 22:26:48.56	131.64	19.96	-51.0	-53.4	6.1	0.00e+00	0	44	104	17003708416	60	57576
2026-01-24 22:26:49.57	131.95	19.85	-50.9	-53.4	6.1	0.00e+00	0	44	104	17003708416	60	57122
2026-01-24 22:26:50.58	132.25	19.74	-51.0	-53.4	6.1	0.00e+00	0	44	104	17003708416	60	57541
2026-01-24 22:26:51.58	132.54	19.64	-50.9	-53.4	6.1	0.00e+00	0	44	104	17003708416	60	56963
2026-01-24 22:26:52.59	132.84	19.53	-51.0	-53.5	6.1	0.00e+00	0	44	104	17003708416	60	57781
2026-01-24 22:26:53.60	133.13	19.42	-51.0	-53.4	6.1	0.00e+00	0	44	104	17003708416	60	57286
2026-01-24 22:26:54.61	133.42	19.31	-50.8	-53.3	6.1	0.00e+00	0	44	104	17003708416	60	56724
2026-01-24 22:26:55.62	133.71	19.20	-51.0	-53.5	6.1	0.00e+00	0	44	104	17003708416	60	57930
2026-01-24 22:26:56.63	134.00	19.08	-51.0	-53.5	6.1	0.00e+00	0	44	104	17003708416	60	57814
2026-01-24 22:26:57.64	134.28	18.97	-51.0	-53.5	6.1	0.00e+00	0	44	104	17003708416	60	57766
2026-01-24 22:26:58.65	134.57	18.86	-50.9	-53.4	6.1	0.00e+00	0	44	104	17003708416	60	57102
2026-01-24 22:26:59.66	134.85	18.75	-51.0	-53.4	6.1	0.00e+00	0	44	104	17003708416	60	57592
2026-01-24 22:27:00.66	135.12	18.65	-51.0	-53.5	6.1	0.00e+00	0	44	104	17003708416	60	57724
2026-01-24 22:27:01.67	135.40	18.54	-50.8	-53.3	6.1	0.00e+00	0	44	104	17003708416	60	56697
2026-01-24 22:27:02.68	135.67	18.43	-50.8	-53.3	6.1	0.00e+00	0	44	104	17003708416	60	56702
2026-01-24 22:27:03.69	135.94	18.32	-51.0	-53.4	6.1	0.00e+00	0	44	104	17003708416	60	57618
2026-01-24 22:27:04.70	136.21	18.21	-50.9	-53.4	6.1	0.00e+00	0	44	104	17003708416	60	57144
2026-01-24 22:27:05.71	136.47	18.10	-50.9	-53.4	6.1	0.00e+00	0	44	104	17003708416	60	56968
2026-01-24 22:27:06.72	136.74	17.99	-50.9	-53.4	6.1	0.00e+00	0	44	104	17003708416	60	57077
2026-01-24 22:27:07.74	137.00	17.87	-50.8	-53.4	6.1	0.00e+00	0	44	104	17003708416	60	57068
2026-01-24 22:27:08.74	137.26	17.77	-50.9	-53.4	6.1	0.00e+00	0	44	104	17003708416	60	56973
2026-01-24 22:27:09.75	137.52	17.66	-50.9	-53.4	6.1	0.00e+00	0	44	104	17003708416	60	57168
2026-01-24 22:27:10.76	137.77	17.55	-50.9	-53.3	6.1	0.00e+00	0	44	104	17003708416	60	56840
2026-01-24 22:27:11.76	138.03	17.44	-50.9	-53.4	6.1	0.00e+00	0	44	104	17003708416	60	57229
2026-01-24 22:27:12.77	138.28	17.33	-50.8	-53.3	6.1	0.00e+00	0	44	104	17003708416	60	56766
2026-01-24 22:27:13.78	138.53	17.22	-50.8	-53.3	6.1	0.00e+00	0	44	104	17003708416	60	56356
2026-01-24 22:27:14.79	138.77	17.11	-50.8	-53.3	6.1	0.00e+00	0	44	104	17003708416	60	56488
2026-01-24 22:27:15.80	139.02	17.00	-50.8	-53.4	6.1	0.00e+00	0	44	104	17003708416	60	57126
2026-01-24 22:27:16.81	139.26	16.90	-50.8	-53.3	6.1	0.00e+00	0	44	104	17003708416	60	56831
2026-01-24 22:27:17.82	139.51	16.79	-50.7	-53.2	6.1	0.00e+00	0	44	104	17003708416	60	56286
2026-01-24 22:27:18.83	139.74	16.68	-50.9	-53.3	6.1	0.00e+00	0	44	104	17003708416	60	56555
2026-01-24 22:27:19.83	139.98	16.57	-50.8	-53.3	6.1	0.00e+00	0	44	104	17003708416	60	56591
2026-01-24 22:27:20.84	140.22	16.47	-50.9	-53.4	6.1	0.00e+00	0	44	104	17003708416	60	57032
2026-01-24 22:27:21.85	140.45	16.36	-50.9	-53.3	6.1	0.00e+00	0	44	104	17003708416	60	56550
2026-01-24 22:27:22.86	140.68	16.25	-50.8	-53.3	6.1	0.00e+00	0	44	104	17003708416	60	56602
2026-01-24 22:27:23.87	140.91	16.14	-50.8	-53.3	6.1	0.00e+00	0	44	104	17003708416	60	56413
2026-01-24 22:27:24.88	141.14	16.04	-50.9	-53.3	6.1	0.00e+00	0	44	104	17003708416	60	56785
2026-01-24 22:27:25.89	141.37	15.93	-50.8	-53.3	6.1	0.00e+00	0	44	104	17003708416	60	56668
2026-01-24 22:27:26.89	141.59	15.82	-50.8	-53.3	6.1	0.00e+00	0	44	104	17003708416	60	56479
2026-01-24 22:27:27.90	141.81	15.72	-50.8	-53.3	6.1	0.00e+00	0	44	104	17003708416	60	56665
2026-01-24 22:27:28.91	142.03	15.61	-50.8	-53.3	6.1	0.00e+00	0	44	104	17003708416	60	56536
2026-01-24 22:27:29.92	142.25	15.51	-50.8	-53.3	6.1	0.00e+00	0	44	104	17003708416	60	56819
2026-01-24 22:27:30.93	142.47	15.40	-50.7	-53.2	6.1	0.00e+00	0	44	104	17003708416	60	55739
2026-01-24 22:27:31.94	142.68	15.30	-50.8	-53.3	6.1	0.00e+00	0	44	104	17003708416	60	56472
2026-01-24 22:27:32.95	142.90	15.19	-50.8	-53.3	6.1	0.00e+00	0	44	104	17003708416	60	56556
2026-01-24 22:27:33.96	143.11	15.09	-50.8	-53.3	6.1	0.00e+00	0	44	104	17003708416	60	56600
2026-01-24 22:27:34.97	143.32	14.98	-50.7	-53.2	6.1	0.00e+00	0	44	104	17003708416	60	55708
2026-01-24 22:27:35.98	143.53	14.88	-50.8	-53.3	6.1	0.00e+00	0	44	104	17003708416	60	56395
2026-01-24 22:27:36.99	143.74	14.77	-50.8	-53.3	6.1	0.00e+00	0	44	104	17003708416	60	56339
2026-01-24 22:27:38.00	143.94	14.67	-50.8	-53.3	6.1	0.00e+00	0	44	104	17003708416	60	56403
2026-01-24 22:27:39.01	144.15	14.57	-50.7	-53.1	6.1	0.00e+00	0	44	104	17003708416	60	55620
2026-01-24 22:27:40.02	144.35	14.46	-50.8	-53.3	6.1	0.00e+00	0	44	104	17003708416	60	56660
2026-01-24 22:27:41.03	144.55	14.36	-50.8	-53.2	6.1	0.00e+00	0	44	104	17003708416	60	56183
2026-01-24 22:27:42.04	144.75	14.26	-50.8	-53.2	6.1	0.00e+00	0	44	104	17003708416	60	55997
2026-01-24 22:27:43.05	144.94	14.16	-50.6	-53.1	6.1	0.00e+00	0	44	104	17003708416	60	55311
2026-01-24 22:27:44.06	145.14	14.05	-50.8	-53.2	6.1	0.00e+00	0	44	104	17003708416	60	56203
2026-01-24 22:27:45.07	145.33	13.95	-50.8	-53.2	6.1	0.00e+00	0	44	104	17003708416	60	56121
2026-01-24 22:27:46.08	145.53	13.85	-50.7	-53.2	6.1	0.00e+00	0	44	104	17003708416	60	55919
2026-01-24 22:27:47.09	145.72	13.75	-50.7	-53.2	6.1	0.00e+00	0	44	104	17003708416	60	55691
2026-01-24 22:27:48.10	145.91	13.65	-50.8	-53.3	6.1	0.00e+00	0	44	104	17003708416	60	56414
2026-01-24 22:27:49.11	146.10	13.55	-50.7	-53.1	6.1	0.00e+00	0	44	104	17003708416	60	55659
2026-01-24 22:27:50.12	146.28	13.45	-50.7	-53.2	6.1	0.00e+00	0	44	104	17003708416	60	56104
2026-01-24 22:27:51.13	146.47	13.35	-50.7	-53.2	6.1	0.00e+00	0	44	104	17003708416	60	55770
2026-01-24 22:27:52.14	146.65	13.25	-50.8	-53.2	6.1	0.00e+00	0	44	104	17003708416	60	56279
2026-01-24 22:27:53.15	146.83	13.15	-50.7	-53.2	6.1	0.00e+00	0	44	104	17003708416	60	55814
2026-01-24 22:27:54.16	147.02	13.05	-50.7	-53.1	6.1	0.00e+00	0	44	104	17003708416	60	55580
2026-01-24 22:27:55.17	147.19	12.95	-50.7	-53.2	6.1	0.00e+00	0	44	104	17003708416	60	55842
2026-01-24 22:27:56.18	147.37	12.85	-50.8	-53.2	6.1	0.00e+00	0	44	104	17003708416	60	56234
2026-01-24 22:27:57.18	147.55	12.76	-50.7	-53.1	6.1	0.00e+00	0	44	104	17003708416	60	55622
2026-01-24 22:27:58.19	147.72	12.66	-50.7	-53.2	6.1	0.00e+00	0	44	104	17003708416	60	55826
2026-01-24 22:27:59.20	147.90	12.56	-50.7	-53.2	6.1	0.00e+00	0	44	104	17003708416	60	55824
2026-01-24 22:28:00.22	148.07	12.46	-50.7	-53.2	6.1	0.00e+00	0	44	104	17003708416	60	56208
2026-01-24 22:28:01.22	148.24	12.37	-50.7	-53.1	6.1	0.00e+00	0	44	104	17003708416	60	55494
2026-01-24 22:28:02.24	148.41	12.27	-50.7	-53.1	6.1	0.00e+00	0	44	104	17003708416	60	55397
2026-01-24 22:28:03.25	148.58	12.17	-50.6	-53.1	6.1	0.00e+00	0	44	104	17003708416	60	55501
2026-01-24 22:28:04.26	148.75	12.08	-50.7	-53.2	6.1	0.00e+00	0	44	104	17003708416	60	55715
2026-01-24 22:28:05.27	148.92	11.98	-50.7	-53.2	6.1	0.00e+00	0	44	104	17003708416	60	55679
2026-01-24 22:28:06.28	149.08	11.89	-50.7	-53.1	6.1	0.00e+00	0	44	104	17003708416	60	55439
2026-01-24 22:28:07.29	149.24	11.79	-50.6	-53.1	6.1	0.00e+00	0	44	104	17003708416	60	55380
2026-01-24 22:28:08.29	149.41	11.70	-50.7	-53.2	6.1	0.00e+00	0	44	104	17003708416	60	55852
2026-01-24 22:28:09.31	149.57	11.60	-50.6	-53.1	6.1	0.00e+00	0	44	104	17003708416	60	55386
2026-01-24 22:28:10.31	149.73	11.51	-50.7	-53.1	6.1	0.00e+00	0	44	104	17003708416	60	55453
2026-01-24 22:28:11.32	149.89	11.41	-50.6	-53.1	6.1	0.00e+00	0	44	104	17003708416	60	55336
2026-01-24 22:28:12.33	150.04	11.32	-50.7	-53.2	6.1	0.00e+00	0	44	104	17003708416	60	55825
2026-01-24 22:28:13.34	150.20	11.23	-50.7	-53.1	6.1	0.00e+00	0	44	104	17003708416	60	55607
2026-01-24 22:28:14.35	150.36	11.13	-50.6	-53.1	6.1	0.00e+00	0	44	104	17003708416	60	55245
2026-01-24 22:28:15.36	150.51	11.04	-50.6	-53.1	6.1	0.00e+00	0	44	104	17003708416	60	55234
2026-01-24 22:28:16.37	150.66	10.95	-50.7	-53.1	6.1	0.00e+00	0	44	104	17003708416	60	55639
2026-01-24 22:28:17.38	150.81	10.86	-50.6	-53.1	6.1	0.00e+00	0	44	104	17003708416	60	55162
2026-01-24 22:28:18.39	150.97	10.76	-50.6	-52.9	6.1	0.00e+00	0	44	104	17003708416	60	53815
2026-01-24 22:28:19.40	151.12	10.67	-50.6	-53.0	6.1	0.00e+00	0	44	104	17003708416	60	54999
2026-01-24 22:28:20.41	151.26	10.58	-50.6	-53.1	6.1	0.00e+00	0	44	104	17003708416	60	55201
2026-01-24 22:28:21.41	151.41	10.49	-50.6	-53.0	6.1	0.00e+00	0	44	104	17003708416	60	54958
2026-01-24 22:28:22.42	151.56	10.40	-50.6	-53.0	6.1	0.00e+00	0	44	104	17003708416	60	54814
2026-01-24 22:28:23.43	151.70	10.31	-50.6	-53.1	6.1	0.00e+00	0	44	104	17003708416	60	55250
2026-01-24 22:28:24.44	151.85	10.22	-50.6	-53.0	6.1	0.00e+00	0	44	104	17003708416	60	54862
2026-01-24 22:28:25.45	151.99	10.13	-50.6	-53.0	6.1	0.00e+00	0	44	104	17003708416	60	54991
2026-01-24 22:28:26.46	152.13	10.04	-50.6	-53.1	6.1	0.00e+00	0	44	104	17003708416	60	55094
2026-01-24 22:28:27.47	152.27	9.95	-50.5	-53.0	6.1	0.00e+00	0	44	104	17003708416	60	54824
2026-01-24 22:28:28.48	152.41	9.86	-50.5	-53.0	6.1	0.00e+00	0	44	104	17003708416	60	54964
2026-01-24 22:28:29.49	152.55	9.78	-50.5	-52.9	6.1	0.00e+00	0	44	104	17003708416	60	54105
2026-01-24 22:28:30.50	152.69	9.69	-50.5	-53.0	6.1	0.00e+00	0	44	104	17003708416	60	54499
2026-01-24 22:28:31.51	152.83	9.60	-50.5	-52.9	6.1	0.00e+00	0	44	104	17003708416	60	54186
2026-01-24 22:28:32.52	152.96	9.51	-50.2	-52.7	6.1	0.00e+00	0	44	104	17003708416	60	52780
2026-01-24 22:28:33.53	153.10	9.42	-50.3	-52.8	6.1	0.00e+00	0	44	104	17003708416	60	53415
2026-01-24 22:28:34.54	153.23	9.34	-50.3	-52.8	6.1	0.00e+00	0	44	104	17003708416	60	53576
2026-01-24 22:28:35.54	153.37	9.25	-50.1	-52.6	6.1	0.00e+00	0	44	104	17003708416	60	52164
2026-01-24 22:28:36.56	153.50	9.16	-49.8	-52.3	6.1	0.00e+00	0	44	104	17003708416	60	50230
2026-01-24 22:28:37.57	153.63	9.08	-49.9	-52.4	6.1	0.00e+00	0	44	104	17003708416	60	50791
2026-01-24 22:28:38.58	153.76	8.99	-50.0	-52.5	6.1	0.00e+00	0	44	104	17003708416	60	51479
2026-01-24 22:28:39.59	153.89	8.91	-49.6	-52.1	6.1	0.00e+00	0	44	104	17003708416	60	49061
2026-01-24 22:28:40.60	154.02	8.82	-49.3	-51.8	6.1	0.00e+00	0	44	104	17003708416	60	47925
2026-01-24 22:28:41.61	154.15	8.74	-49.5	-52.0	6.1	0.00e+00	0	44	104	17003708416	60	48502
2026-01-24 22:28:42.62	154.28	8.65	-49.7	-52.1	6.1	0.00e+00	0	44	104	17003708416	60	49422
2026-01-24 22:28:43.63	154.40	8.57	-49.3	-51.8	6.1	0.00e+00	0	44	104	17003708416	60	47533
2026-01-24 22:28:44.64	154.53	8.48	-49.3	-51.8	6.1	0.00e+00	0	44	104	17003708416	60	47509
2026-01-24 22:28:45.65	154.65	8.40	-49.3	-51.8	6.1	0.00e+00	0	44	104	17003708416	60	47589
2026-01-24 22:28:46.66	154.78	8.31	-49.5	-51.9	6.1	0.00e+00	0	44	104	17003708416	60	48336
2026-01-24 22:28:47.67	154.90	8.23	-49.3	-51.8	6.1	0.00e+00	0	44	104	17003708416	60	47439
2026-01-24 22:28:48.68	155.02	8.15	-49.5	-52.0	6.1	0.00e+00	0	44	104	17003708416	60	48764
2026-01-24 22:28:49.69	155.14	8.06	-49.4	-51.9	6.1	0.00e+00	0	44	104	17003708416	60	47992
2026-01-24 22:28:50.70	155.26	7.98	-49.3	-51.7	6.1	0.00e+00	0	44	104	17003708416	60	47372
2026-01-24 22:28:51.70	155.38	7.90	-49.6	-52.1	6.1	0.00e+00	0	44	104	17003708416	60	49180
2026-01-24 22:28:52.71	155.50	7.82	-49.8	-52.3	6.1	0.00e+00	0	44	104	17003708416	60	50226
2026-01-24 22:28:53.72	155.62	7.74	-49.4	-51.9	6.1	0.00e+00	0	44	104	17003708416	60	48472
2026-01-24 22:28:54.73	155.73	7.65	-49.5	-51.9	6.1	0.00e+00	0	44	104	17003708416	60	48290
2026-01-24 22:28:55.74	155.85	7.57	-49.8	-52.3	6.1	0.00e+00	0	44	104	17003708416	60	50369
2026-01-24 22:28:56.75	155.97	7.49	-49.9	-52.3	6.1	0.00e+00	0	44	104	17003708416	60	50707
2026-01-24 22:28:57.76	156.08	7.41	-49.7	-52.2	6.1	0.00e+00	0	44	104	17003708416	60	49867
2026-01-24 22:28:58.77	156.19	7.33	-49.5	-51.9	6.1	0.00e+00	0	44	104	17003708416	60	48361
2026-01-24 22:28:59.78	156.31	7.25	-50.0	-52.5	6.1	0.00e+00	0	44	104	17003708416	60	51425
2026-01-24 22:29:00.79	156.42	7.17	-50.1	-52.6	6.1	0.00e+00	0	44	104	17003708416	60	52153
2026-01-24 22:29:01.80	156.53	7.09	-49.8	-52.2	6.1	0.00e+00	0	44	104	17003708416	60	50182
2026-01-24 22:29:02.81	156.64	7.01	-49.7	-52.2	6.1	0.00e+00	0	44	104	17003708416	60	49955
2026-01-24 22:29:03.82	156.75	6.93	-50.2	-52.6	6.1	0.00e+00	0	44	104	17003708416	60	52499
2026-01-24 22:29:04.83	156.86	6.85	-50.2	-52.7	6.1	0.00e+00	0	44	104	17003708416	60	52700
2026-01-24 22:29:05.83	156.97	6.77	-50.0	-52.5	6.1	0.00e+00	0	44	104	17003708416	60	51635
2026-01-24 22:29:06.84	157.08	6.70	-49.9	-52.3	6.1	0.00e+00	0	44	104	17003708416	60	50619
2026-01-24 22:29:07.85	157.19	6.62	-50.3	-52.8	6.1	0.00e+00	0	44	104	17003708416	60	53623
2026-01-24 22:29:08.86	157.29	6.54	-50.2	-52.7	6.1	0.00e+00	0	44	104	17003708416	60	52915
2026-01-24 22:29:09.87	157.40	6.46	-50.1	-52.5	6.1	0.00e+00	0	44	104	17003708416	60	51856
2026-01-24 22:29:10.88	157.50	6.38	-50.1	-52.6	6.1	0.00e+00	0	44	104	17003708416	60	52049
2026-01-24 22:29:11.89	157.61	6.31	-50.4	-52.8	6.1	0.00e+00	0	44	104	17003708416	60	53652
2026-01-24 22:29:12.90	157.71	6.23	-50.2	-52.7	6.1	0.00e+00	0	44	104	17003708416	60	52952
2026-01-24 22:29:13.91	157.82	6.15	-50.2	-52.7	6.1	0.00e+00	0	44	104	17003708416	60	52560
2026-01-24 22:29:14.92	157.92	6.08	-50.1	-52.6	6.1	0.00e+00	0	44	104	17003708416	60	52534
2026-01-24 22:29:15.93	158.02	6.00	-50.3	-52.7	6.1	0.00e+00	0	44	104	17003708416	60	53145
2026-01-24 22:29:16.94	158.12	5.92	-50.1	-52.6	6.0	0.00e+00	0	44	104	17003708416	60	52321
2026-01-24 22:29:17.95	158.22	5.85	-50.2	-52.7	6.1	0.00e+00	0	44	104	17003708416	60	52793
2026-01-24 22:29:18.96	158.32	5.77	-50.2	-52.6	6.1	0.00e+00	0	44	104	17003708416	60	52358
2026-01-24 22:29:19.97	158.42	5.70	-50.3	-52.8	6.1	0.00e+00	0	44	104	17003708416	60	53193
2026-01-24 22:29:20.98	158.52	5.62	-50.1	-52.6	6.1	0.00e+00	0	44	104	17003708416	60	51966
2026-01-24 22:29:21.99	158.62	5.55	-50.2	-52.7	6.1	0.00e+00	0	44	104	17003708416	60	52770
2026-01-24 22:29:23.00	158.72	5.47	-50.1	-52.6	6.1	0.00e+00	0	44	104	17003708416	60	52102
2026-01-24 22:29:24.01	158.82	5.40	-50.2	-52.7	6.1	0.00e+00	0	44	104	17003708416	60	52580
2026-01-24 22:29:25.02	158.91	5.32	-50.1	-52.6	6.1	0.00e+00	0	44	104	17003708416	60	52318
2026-01-24 22:29:26.03	159.01	5.25	-50.2	-52.6	6.1	0.00e+00	0	44	104	17003708416	60	52539
2026-01-24 22:29:27.04	159.10	5.17	-50.0	-52.5	6.1	0.00e+00	0	44	104	17003708416	60	51607
2026-01-24 22:29:28.05	159.20	5.10	-50.2	-52.7	6.1	0.00e+00	0	44	104	17003708416	60	53054
2026-01-24 22:29:29.05	159.29	5.03	-50.0	-52.5	6.1	0.00e+00	0	44	104	17003708416	60	51495
2026-01-24 22:29:30.06	159.39	4.96	-50.1	-52.6	6.1	0.00e+00	0	44	104	17003708416	60	52147
2026-01-24 22:29:31.07	159.48	4.88	-50.0	-52.5	6.1	0.00e+00	0	44	104	17003708416	60	51533
2026-01-24 22:29:32.08	159.57	4.81	-50.2	-52.7	6.1	0.00e+00	0	44	104	17003708416	60	52941
2026-01-24 22:29:33.09	159.66	4.74	-50.0	-52.5	6.1	0.00e+00	0	44	104	17003708416	60	51802
2026-01-24 22:29:34.10	159.76	4.66	-50.0	-52.5	6.1	0.00e+00	0	44	104	17003708416	60	51500
2026-01-24 22:29:35.11	159.85	4.59	-49.9	-52.4	6.1	0.00e+00	0	44	104	17003708416	60	51026
2026-01-24 22:29:36.12	159.94	4.52	-50.2	-52.6	6.1	0.00e+00	0	44	104	17003708416	60	52364
2026-01-24 22:29:37.13	160.03	4.45	-50.0	-52.5	6.1	0.00e+00	0	44	104	17003708416	60	51424
2026-01-24 22:29:38.14	160.12	4.38	-50.0	-52.5	6.1	0.00e+00	0	44	104	17003708416	60	51399
2026-01-24 22:29:39.15	160.20	4.31	-49.8	-52.2	6.1	0.00e+00	0	44	104	17003708416	60	50158
2026-01-24 22:29:40.16	160.29	4.23	-50.2	-52.6	6.1	0.00e+00	0	44	104	17003708416	60	52282
2026-01-24 22:29:41.17	160.38	4.16	-49.9	-52.4	6.1	0.00e+00	0	44	104	17003708416	60	51050
2026-01-24 22:29:42.18	160.47	4.09	-50.0	-52.5	6.1	0.00e+00	0	44	104	17003708416	60	51460
2026-01-24 22:29:43.19	160.55	4.02	-49.7	-52.2	6.1	0.00e+00	0	44	104	17003708416	60	49989
2026-01-24 22:29:44.19	160.64	3.95	-50.1	-52.5	6.1	0.00e+00	0	44	104	17003708416	60	51817
2026-01-24 22:29:45.20	160.73	3.88	-49.8	-52.3	6.1	0.00e+00	0	44	104	17003708416	60	50645
2026-01-24 22:29:46.21	160.81	3.81	-49.9	-52.4	6.1	0.00e+00	0	44	104	17003708416	60	51056
2026-01-24 22:29:47.22	160.90	3.74	-49.7	-52.2	6.1	0.00e+00	0	44	104	17003708416	60	49810
2026-01-24 22:29:48.23	160.98	3.67	-49.9	-52.4	6.1	0.00e+00	0	44	104	17003708416	60	51059
2026-01-24 22:29:49.24	161.06	3.60	-49.8	-52.3	6.1	0.00e+00	0	44	104	17003708416	60	50219
2026-01-24 22:29:50.25	161.15	3.53	-49.8	-52.3	6.1	0.00e+00	0	44	104	17003708416	60	50610
2026-01-24 22:29:51.26	161.23	3.47	-49.8	-52.2	6.1	0.00e+00	0	44	104	17003708416	60	49995
2026-01-24 22:29:52.27	161.31	3.40	-49.9	-52.3	6.1	0.00e+00	0	44	104	17003708416	60	50670
2026-01-24 22:29:53.28	161.39	3.33	-49.7	-52.1	6.1	0.00e+00	0	44	104	17003708416	60	49342
2026-01-24 22:29:54.29	161.48	3.26	-49.8	-52.3	6.1	0.00e+00	0	44	104	17003708416	60	50311
2026-01-24 22:29:55.30	161.56	3.19	-49.6	-52.1	6.1	0.00e+00	0	44	104	17003708416	60	49537
2026-01-24 22:29:56.31	161.64	3.12	-49.8	-52.3	6.1	0.00e+00	0	44	104	17003708416	60	50333
2026-01-24 22:29:57.32	161.72	3.06	-49.6	-52.1	6.1	0.00e+00	0	44	104	17003708416	60	49251
2026-01-24 22:29:58.33	161.80	2.99	-49.8	-52.2	6.1	0.00e+00	0	44	104	17003708416	60	50158
2026-01-24 22:29:59.34	161.88	2.92	-50.1	-52.6	6.1	0.00e+00	0	44	104	17003708416	60	52083
2026-01-24 22:30:00.35	161.96	2.85	-49.5	-52.0	6.1	0.00e+00	0	44	104	17003708416	60	48772
2026-01-24 22:30:01.36	162.03	2.79	-50.4	-52.9	6.1	0.00e+00	0	44	104	17003708416	60	54151
2026-01-24 22:30:02.37	162.11	2.72	-50.7	-53.2	6.1	0.00e+00	0	44	104	17003708416	60	56123
2026-01-24 22:30:03.38	162.19	2.65	-50.7	-53.2	6.1	0.00e+00	0	44	104	17003708416	60	55875
2026-01-24 22:30:04.39	162.27	2.59	-50.9	-53.4	6.1	0.00e+00	0	44	104	17003708416	60	57320
2026-01-24 22:30:05.40	162.34	2.52	-51.0	-53.5	6.1	0.00e+00	0	44	104	17003708416	60	58107
2026-01-24 22:30:06.41	162.42	2.45	-51.1	-53.6	6.1	0.00e+00	0	44	104	17003708416	60	58440
2026-01-24 22:30:07.42	162.49	2.39	-51.2	-53.7	6.1	0.00e+00	0	44	104	17003708416	60	59029
2026-01-24 22:30:08.44	162.57	2.32	-51.2	-53.7	6.1	0.00e+00	0	44	104	17003708416	60	59263
2026-01-24 22:30:09.45	162.65	2.25	-51.3	-53.8	6.1	0.00e+00	0	44	104	17003708416	60	59775
2026-01-24 22:30:10.46	162.72	2.19	-51.3	-53.8	6.1	0.00e+00	0	44	104	17003708416	60	60189
2026-01-24 22:30:11.47	162.79	2.12	-51.3	-53.8	6.1	0.00e+00	0	44	104	17003708416	60	59926
2026-01-24 22:30:12.48	162.87	2.06	-51.4	-53.8	6.1	0.00e+00	0	44	104	17003708416	60	60330
2026-01-24 22:30:13.49	162.94	1.99	-51.4	-53.9	6.1	0.00e+00	0	44	104	17003708416	60	60407
2026-01-24 22:30:14.50	163.01	1.93	-51.4	-53.8	6.1	0.00e+00	0	44	104	17003708416	60	60158
2026-01-24 22:30:15.51	163.09	1.86	-51.4	-53.8	6.1	0.00e+00	0	44	104	17003708416	60	60054
2026-01-24 22:30:16.52	163.16	1.80	-51.4	-53.8	6.0	0.00e+00	0	44	104	17003708416	60	60247
2026-01-24 22:30:17.53	163.23	1.73	-51.4	-53.9	6.1	0.00e+00	0	44	104	17003708416	60	60637
2026-01-24 22:30:18.53	163.30	1.67	-51.4	-53.9	6.0	0.00e+00	0	44	104	17003708416	60	60931
2026-01-24 22:30:19.54	163.37	1.61	-51.4	-53.9	6.1	0.00e+00	0	44	104	17003708416	60	60512
2026-01-24 22:30:20.55	163.44	1.54	-51.4	-53.8	6.1	0.00e+00	0	44	104	17003708416	60	60240
2026-01-24 22:30:21.57	163.51	1.48	-51.5	-54.0	6.1	0.00e+00	0	44	104	17003708416	60	61136
2026-01-24 22:30:22.58	163.58	1.41	-51.5	-53.9	6.1	0.00e+00	0	44	104	17003708416	60	60948
2026-01-24 22:30:23.59	163.65	1.35	-51.5	-53.9	6.1	0.00e+00	0	44	104	17003708416	60	61021
2026-01-24 22:30:24.60	163.72	1.29	-51.5	-54.0	6.1	0.00e+00	0	44	104	17003708416	60	61197
2026-01-24 22:30:25.61	163.79	1.22	-51.5	-54.0	6.1	0.00e+00	0	44	104	17003708416	60	61117
2026-01-24 22:30:26.62	163.86	1.16	-51.5	-54.0	6.1	0.00e+00	0	44	104	17003708416	60	61144
2026-01-24 22:30:27.62	163.93	1.10	-51.5	-54.0	6.1	0.00e+00	0	44	104	17003708416	60	61135
2026-01-24 22:30:28.63	164.00	1.04	-51.5	-54.0	6.1	0.00e+00	0	44	104	17003708416	60	61330
2026-01-24 22:30:29.65	164.06	0.97	-51.5	-54.0	6.1	0.00e+00	0	44	104	17003708416	60	61099
2026-01-24 22:30:30.65	164.13	0.91	-51.5	-54.0	6.1	0.00e+00	0	44	104	17003708416	60	61220
2026-01-24 22:30:31.66	164.20	0.85	-51.5	-54.0	6.1	0.00e+00	0	44	104	17003708416	60	61620
2026-01-24 22:30:32.68	164.27	0.79	-51.5	-54.0	6.1	0.00e+00	0	44	104	17003708416	60	61150
2026-01-24 22:30:33.69	164.33	0.72	-51.5	-54.0	6.1	0.00e+00	0	44	104	17003708416	60	61337
2026-01-24 22:30:34.70	164.40	0.66	-51.5	-54.0	6.1	0.00e+00	0	44	104	17003708416	60	61118
2026-01-24 22:30:35.71	164.46	0.60	-51.5	-54.0	6.1	0.00e+00	0	44	104	17003708416	60	61368
2026-01-24 22:30:36.72	164.53	0.54	-51.5	-54.0	6.1	0.00e+00	0	44	104	17003708416	60	61423
2026-01-24 22:30:37.72	164.59	0.48	-51.5	-54.0	6.1	0.00e+00	0	44	104	17003708416	60	61422
2026-01-24 22:30:38.74	164.66	0.41	-51.5	-54.0	6.1	0.00e+00	0	44	104	17003708416	60	61353
2026-01-24 22:30:39.74	164.72	0.35	-51.5	-54.0	6.1	0.00e+00	0	44	104	17003708416	60	61304
2026-01-24 22:30:40.75	164.78	0.29	-51.5	-54.0	6.1	0.00e+00	0	44	104	17003708416	60	61366
2026-01-24 22:30:41.76	164.85	0.23	-51.5	-54.0	6.1	0.00e+00	0	44	104	17003708416	60	61258
2026-01-24 22:30:42.77	164.91	0.17	-51.5	-54.0	6.1	0.00e+00	0	44	104	17003708416	60	61683
2026-01-24 22:30:43.78	164.97	0.11	-51.6	-54.0	6.1	0.00e+00	0	44	104	17003708416	60	61654
2026-01-24 22:30:44.79	165.04	0.05	-51.6	-54.0	6.1	0.00e+00	0	44	104	17003708416	60	61465
2026-01-24 22:30:45.80	165.10	-0.01	-51.6	-54.0	6.1	0.00e+00	0	44	104	17003708416	60	61578

#Closed at: 2026-01-24 22:30:46
#Recorded file [17003 MB]: D:/lorett/data/35029_260125_102009.dat