passes_logs/2026/01/24/R4.6S_Anadyr/R4.6S_Anadyr__20260124_040917_FENGYUN_3D_rec.log

#Pass ID: 20260124_040917_FENGYUN 3D
#Satellite: FENGYUN 3D
#Configuration: FENGYUN 3D
#almurnet v.1.7.20251203
#Start time: 2026-01-24 04:09:20

#Version: 2.2.20231116
#Station: R4.6S_Anadyr
#Location: 177.4865 lon 64.73178 lat
#TLE: 1 43010U 17072A   26023.60174628  .00000324  00000+0  17481-3 0  9994
#TLE: 2 43010  98.9958 355.5514 0002482  93.7422 266.4037 14.19699955424476

#Time	Az	El	Level	Level2	SNR	BER	BlckErr	Temp	State	Recorded	gain1	gain2
2026-01-24 04:09:20.30	204.81	0.15	-51.4	-66.4	3.5	1.51e+00	0	39	0	0	60	75107
2026-01-24 04:09:21.31	204.87	0.21	-52.1	-64.4	3.6	8.45e-01	0	40	104	0	60	59648
2026-01-24 04:09:22.32	204.93	0.26	-51.9	-64.1	3.6	8.46e-01	0	40	104	0	60	57898
2026-01-24 04:09:23.33	204.99	0.31	-51.6	-63.9	3.6	8.46e-01	0	40	104	0	60	56489
2026-01-24 04:09:24.34	205.06	0.37	-51.5	-63.6	3.6	8.45e-01	0	40	104	0	60	54708
2026-01-24 04:09:25.35	205.12	0.42	-51.4	-63.5	3.6	8.45e-01	0	40	104	0	60	54205
2026-01-24 04:09:26.36	205.18	0.48	-51.3	-63.5	3.6	8.45e-01	0	40	104	0	60	53925
2026-01-24 04:09:27.37	205.24	0.53	-51.3	-63.4	3.6	8.45e-01	0	40	104	0	60	53723
2026-01-24 04:09:28.38	205.30	0.59	-51.0	-63.4	3.6	8.46e-01	0	40	104	0	60	53311
2026-01-24 04:09:29.39	205.37	0.64	-51.0	-63.3	3.6	8.45e-01	0	40	104	0	60	52826
2026-01-24 04:09:30.40	205.43	0.69	-51.1	-63.3	3.6	8.44e-01	0	40	104	0	60	53140
2026-01-24 04:09:31.41	205.49	0.75	-51.2	-63.4	3.6	8.46e-01	0	40	104	0	60	53158
2026-01-24 04:09:32.42	205.56	0.80	-51.2	-63.3	3.6	8.46e-01	0	40	104	0	60	53096
2026-01-24 04:09:33.43	205.62	0.86	-51.2	-63.3	3.6	8.44e-01	0	40	104	0	60	52884
2026-01-24 04:09:34.44	205.68	0.91	-51.0	-63.2	3.6	8.46e-01	0	40	104	0	60	52130
2026-01-24 04:09:35.45	205.75	0.97	-51.0	-63.1	3.6	8.44e-01	0	40	104	0	60	51791
2026-01-24 04:09:36.46	205.81	1.02	-51.0	-63.2	3.6	8.46e-01	0	40	104	0	60	52402
2026-01-24 04:09:37.47	205.88	1.08	-50.9	-63.1	3.6	8.45e-01	0	40	104	0	60	51452
2026-01-24 04:09:38.48	205.94	1.13	-50.8	-63.1	3.6	8.45e-01	0	40	104	0	60	51696
2026-01-24 04:09:39.49	206.00	1.19	-50.8	-63.0	3.6	8.45e-01	0	40	104	0	60	51099
2026-01-24 04:09:40.50	206.07	1.25	-50.7	-62.8	3.5	8.44e-01	0	40	104	0	60	50048
2026-01-24 04:09:41.51	206.13	1.30	-50.5	-62.7	3.6	8.45e-01	0	40	104	0	60	49172
2026-01-24 04:09:42.52	206.20	1.36	-50.3	-62.5	3.6	8.45e-01	0	40	104	0	60	47948
2026-01-24 04:09:43.53	206.27	1.41	-50.1	-62.2	3.6	8.46e-01	0	40	104	0	60	46594
2026-01-24 04:09:44.54	206.33	1.47	-49.7	-61.6	3.6	8.45e-01	0	40	104	0	60	43704
2026-01-24 04:09:45.55	206.40	1.52	-49.6	-61.6	3.6	8.45e-01	0	40	104	0	60	43337
2026-01-24 04:09:46.56	206.46	1.58	-49.6	-61.7	3.6	8.46e-01	0	40	104	0	60	44087
2026-01-24 04:09:47.57	206.53	1.64	-49.7	-61.8	3.6	8.46e-01	0	40	104	0	60	44294
2026-01-24 04:09:48.58	206.60	1.69	-49.6	-61.8	3.6	8.45e-01	0	40	104	0	60	44235
2026-01-24 04:09:49.59	206.67	1.75	-49.6	-61.8	3.6	8.45e-01	0	40	104	0	60	44220
2026-01-24 04:09:50.60	206.73	1.80	-49.6	-61.7	3.6	8.44e-01	0	40	104	0	60	44050
2026-01-24 04:09:51.61	206.80	1.86	-49.6	-61.7	3.6	8.45e-01	0	40	104	0	60	44080
2026-01-24 04:09:52.62	206.87	1.92	-49.6	-61.7	3.6	8.46e-01	0	40	104	0	60	44110
2026-01-24 04:09:53.63	206.94	1.97	-49.6	-61.7	3.6	8.45e-01	0	40	104	0	60	44050
2026-01-24 04:09:54.64	207.00	2.03	-49.6	-61.7	3.6	8.44e-01	0	40	104	0	60	43970
2026-01-24 04:09:55.65	207.07	2.09	-49.6	-61.6	3.6	8.44e-01	0	40	104	0	60	43551
2026-01-24 04:09:56.66	207.14	2.14	-49.6	-61.6	3.6	8.45e-01	0	40	104	0	60	43309
2026-01-24 04:09:57.67	207.21	2.20	-49.6	-61.6	3.6	8.44e-01	0	40	104	0	60	43276
2026-01-24 04:09:58.68	207.28	2.26	-49.6	-61.4	3.6	8.45e-01	0	40	104	0	60	42661
2026-01-24 04:09:59.69	207.35	2.31	-49.5	-61.3	3.6	8.45e-01	0	40	104	0	60	41844
2026-01-24 04:10:00.69	207.42	2.37	-49.5	-61.3	3.6	8.45e-01	0	40	104	0	60	41973
2026-01-24 04:10:01.70	207.49	2.43	-49.5	-61.4	3.6	8.45e-01	0	40	104	0	60	42517
2026-01-24 04:10:02.71	207.56	2.48	-49.5	-61.5	3.6	8.47e-01	0	40	104	0	60	43069
2026-01-24 04:10:03.72	207.63	2.54	-49.6	-61.7	3.6	8.45e-01	0	40	104	0	60	43792
2026-01-24 04:10:04.73	207.70	2.60	-49.5	-61.4	3.6	8.46e-01	0	40	104	0	60	42709
2026-01-24 04:10:05.74	207.77	2.66	-49.4	-60.3	3.6	8.45e-01	0	40	104	0	60	37528
2026-01-24 04:10:06.76	207.84	2.71	-49.2	-58.4	4.0	8.45e-01	0	41	104	0	60	30059
2026-01-24 04:10:07.76	207.92	2.77	-49.1	-56.3	4.0	8.29e-01	0	40	0	0	60	23505
2026-01-24 04:10:08.77	207.99	2.83	-49.1	-57.8	4.1	8.35e-01	0	41	104	0	60	28104
2026-01-24 04:10:09.79	208.06	2.89	-49.3	-59.0	3.7	8.40e-01	0	41	104	0	60	32065
2026-01-24 04:10:10.80	208.13	2.95	-49.4	-60.2	3.6	8.45e-01	0	41	104	0	60	36989
2026-01-24 04:10:11.80	208.21	3.00	-49.1	-57.8	4.3	8.43e-01	0	41	104	0	60	27969
2026-01-24 04:10:12.81	208.28	3.06	-47.8	-51.9	8.2	1.99e-01	0	41	0	2097152	60	14298
2026-01-24 04:10:13.82	208.35	3.12	-46.4	-49.2	11.2	1.41e-02	0	40	0	8388608	60	10395
2026-01-24 04:10:14.83	208.43	3.18	-44.4	-46.2	14.4	1.06e-04	0	41	0	13631488	60	7403
2026-01-24 04:10:15.84	208.50	3.24	-44.0	-45.7	15.0	0.00e+00	0	40	0	19922944	60	6945
2026-01-24 04:10:16.85	208.57	3.29	-43.5	-45.1	15.6	0.00e+00	0	40	0	25165824	60	6494
2026-01-24 04:10:17.86	208.65	3.35	-44.1	-45.9	15.0	1.10e-06	0	41	0	30408704	60	7105
2026-01-24 04:10:18.87	208.72	3.41	-43.9	-45.6	15.3	1.10e-06	0	41	0	36700160	60	6918
2026-01-24 04:10:19.88	208.80	3.47	-49.3	-59.7	3.6	8.44e-01	0	41	104	39845888	60	34949
2026-01-24 04:10:20.89	208.87	3.53	-39.2	-40.1	19.3	7.91e-01	0	41	104	39845888	52	5773
2026-01-24 04:10:21.90	208.95	3.59	-46.3	-49.0	11.0	0.00e+00	0	41	0	41943040	60	10241
2026-01-24 04:10:22.91	209.02	3.65	-42.1	-43.3	17.2	0.00e+00	0	41	0	47185920	54	7500
2026-01-24 04:10:23.92	209.10	3.71	-39.8	-40.8	20.1	0.00e+00	0	41	0	53477376	54	5580
2026-01-24 04:10:24.93	209.18	3.76	-40.2	-41.2	19.8	0.00e+00	0	41	0	58720256	54	5877
2026-01-24 04:10:25.94	209.25	3.82	-39.5	-40.4	20.3	0.00e+00	0	41	0	65011712	54	5325
2026-01-24 04:10:26.95	209.33	3.88	-40.6	-41.6	19.4	0.00e+00	0	41	0	70254592	52	6914
2026-01-24 04:10:27.96	209.41	3.94	-41.1	-42.3	18.6	0.00e+00	0	41	0	75497472	54	6617
2026-01-24 04:10:28.97	209.49	4.00	-40.2	-41.2	19.7	0.00e+00	0	40	0	81788928	52	6565
2026-01-24 04:10:29.98	209.56	4.06	-40.4	-41.4	19.5	0.00e+00	0	41	0	87031808	52	6743
2026-01-24 04:10:30.99	209.64	4.12	-41.1	-42.2	18.9	0.00e+00	0	41	0	93323264	54	6577
2026-01-24 04:10:32.00	209.72	4.18	-40.0	-40.9	20.1	0.00e+00	0	41	0	98566144	54	5680
2026-01-24 04:10:33.01	209.80	4.24	-39.4	-40.3	21.2	0.00e+00	0	40	0	103809024	52	5933
2026-01-24 04:10:34.02	209.88	4.30	-40.1	-41.1	20.1	0.00e+00	0	41	0	110100480	52	6466
2026-01-24 04:10:35.03	209.96	4.36	-39.3	-40.2	20.9	0.00e+00	0	41	0	115343360	52	5850
2026-01-24 04:10:36.03	210.04	4.42	-38.8	-39.7	21.6	0.00e+00	0	41	0	121634816	52	5507
2026-01-24 04:10:37.04	210.12	4.48	-39.7	-40.7	20.4	0.00e+00	0	41	0	126877696	50	6931
2026-01-24 04:10:38.05	210.20	4.54	-39.3	-40.3	20.7	0.00e+00	0	41	0	132120576	50	6619
2026-01-24 04:10:39.06	210.28	4.60	-38.7	-39.6	21.5	0.00e+00	0	41	0	138412032	52	5460
2026-01-24 04:10:40.07	210.36	4.66	-40.1	-41.0	20.5	0.00e+00	0	41	0	143654912	52	6437
2026-01-24 04:10:41.08	210.44	4.72	-38.1	-39.0	22.2	0.00e+00	0	41	0	149946368	50	5699
2026-01-24 04:10:42.08	210.52	4.78	-38.8	-39.6	21.6	0.00e+00	0	41	0	155189248	50	6141
2026-01-24 04:10:43.09	210.60	4.84	-37.6	-38.4	22.8	0.00e+00	0	41	0	161480704	50	5322
2026-01-24 04:10:44.11	210.69	4.90	-38.0	-38.7	22.5	0.00e+00	0	41	0	166723584	50	5560
2026-01-24 04:10:45.12	210.77	4.96	-38.1	-38.9	22.2	0.00e+00	0	41	0	173015040	48	6388
2026-01-24 04:10:46.13	210.85	5.03	-37.7	-38.5	22.9	0.00e+00	0	41	0	178257920	48	6063
2026-01-24 04:10:47.13	210.93	5.09	-37.8	-38.6	22.5	0.00e+00	0	41	0	183500800	48	6128
2026-01-24 04:10:48.14	211.02	5.15	-38.1	-38.8	22.1	0.00e+00	0	41	0	189792256	48	6312
2026-01-24 04:10:49.15	211.10	5.21	-37.8	-38.5	22.9	0.00e+00	0	41	0	195035136	48	6089
2026-01-24 04:10:50.16	211.19	5.27	-38.1	-38.9	22.4	0.00e+00	0	41	0	200278016	48	6323
2026-01-24 04:10:51.17	211.27	5.33	-37.3	-38.0	23.1	0.00e+00	0	41	0	206569472	48	5742
2026-01-24 04:10:52.18	211.36	5.39	-37.9	-38.6	22.5	0.00e+00	0	41	0	211812352	48	6155
2026-01-24 04:10:53.19	211.44	5.45	-38.2	-39.0	22.1	0.00e+00	0	41	0	218103808	48	6436
2026-01-24 04:10:54.20	211.53	5.52	-38.2	-39.0	22.3	0.00e+00	0	41	0	223346688	48	6401
2026-01-24 04:10:55.21	211.61	5.58	-37.2	-37.9	23.2	0.00e+00	0	41	0	228589568	48	5663
2026-01-24 04:10:56.22	211.70	5.64	-37.6	-38.3	22.7	0.00e+00	0	41	0	234881024	48	5951
2026-01-24 04:10:57.23	211.79	5.70	-37.3	-38.0	23.1	0.00e+00	0	41	0	240123904	48	5750
2026-01-24 04:10:58.24	211.87	5.76	-37.7	-38.4	22.9	0.00e+00	0	41	0	246415360	48	6032
2026-01-24 04:10:59.25	211.96	5.83	-37.5	-38.2	22.9	0.00e+00	0	41	0	251658240	48	5881
2026-01-24 04:11:00.26	212.05	5.89	-38.1	-38.9	22.4	0.00e+00	0	41	0	257949696	48	6360
2026-01-24 04:11:01.27	212.14	5.95	-37.8	-38.6	22.7	0.00e+00	0	41	0	263192576	48	6125
2026-01-24 04:11:02.28	212.23	6.01	-37.9	-38.7	22.4	0.00e+00	0	41	0	269484032	48	6179
2026-01-24 04:11:03.29	212.31	6.08	-37.2	-38.0	23.1	0.00e+00	0	41	0	274726912	48	5725
2026-01-24 04:11:04.29	212.40	6.14	-38.0	-38.7	22.7	0.00e+00	0	41	0	279969792	48	6220
2026-01-24 04:11:05.30	212.49	6.20	-37.3	-38.1	23.1	0.00e+00	0	41	0	286261248	48	5771
2026-01-24 04:11:06.31	212.58	6.26	-37.8	-38.6	22.7	0.00e+00	0	41	0	291504128	48	6135
2026-01-24 04:11:07.32	212.67	6.33	-37.4	-38.2	23.0	0.00e+00	0	41	0	297795584	48	5833
2026-01-24 04:11:08.33	212.76	6.39	-38.2	-39.0	22.3	0.00e+00	0	41	0	303038464	48	6424
2026-01-24 04:11:09.34	212.85	6.45	-37.7	-38.5	22.7	0.00e+00	0	41	0	308281344	48	6073
2026-01-24 04:11:10.36	212.95	6.52	-37.7	-38.4	22.9	0.00e+00	0	41	0	314572800	48	6023
2026-01-24 04:11:11.37	213.04	6.58	-37.6	-38.4	22.9	0.00e+00	0	41	0	319815680	48	6019
2026-01-24 04:11:12.37	213.13	6.64	-38.1	-38.9	22.5	0.00e+00	0	41	0	326107136	48	6346
2026-01-24 04:11:13.38	213.22	6.71	-37.7	-38.5	22.8	0.00e+00	0	41	0	331350016	48	6059
2026-01-24 04:11:14.39	213.32	6.77	-38.0	-38.7	22.6	0.00e+00	0	41	0	336592896	48	6240
2026-01-24 04:11:15.41	213.41	6.83	-37.5	-38.3	22.9	0.00e+00	0	41	0	342884352	48	5905
2026-01-24 04:11:16.42	213.50	6.90	-37.4	-38.2	23.1	0.00e+00	0	41	0	348127232	48	5868
2026-01-24 04:11:17.43	213.60	6.96	-37.4	-38.2	22.8	0.00e+00	0	41	0	354418688	48	5851
2026-01-24 04:11:18.44	213.69	7.03	-38.3	-39.1	22.2	0.00e+00	0	41	0	359661568	48	6507
2026-01-24 04:11:19.44	213.79	7.09	-37.9	-38.7	22.6	0.00e+00	0	41	0	365953024	48	6192
2026-01-24 04:11:20.46	213.88	7.15	-37.0	-37.7	23.3	0.00e+00	0	41	0	371195904	48	5562
2026-01-24 04:11:21.47	213.98	7.22	-37.4	-38.2	23.0	0.00e+00	0	41	0	377487360	48	5863
2026-01-24 04:11:22.48	214.07	7.28	-37.6	-38.4	22.9	0.00e+00	0	41	0	382730240	48	5965
2026-01-24 04:11:23.49	214.17	7.35	-37.3	-38.0	23.2	0.00e+00	0	41	0	387973120	48	5720
2026-01-24 04:11:24.50	214.27	7.41	-37.1	-37.8	23.2	0.00e+00	0	41	0	394264576	48	5599
2026-01-24 04:11:25.51	214.37	7.48	-37.1	-37.8	23.3	0.00e+00	0	41	0	399507456	48	5607
2026-01-24 04:11:26.52	214.46	7.54	-37.1	-37.9	23.1	0.00e+00	0	41	0	405798912	48	5631
2026-01-24 04:11:27.53	214.56	7.61	-36.9	-37.7	23.6	0.00e+00	0	41	0	411041792	48	5508
2026-01-24 04:11:28.54	214.66	7.67	-37.2	-37.9	23.2	0.00e+00	0	41	0	416284672	48	5685
2026-01-24 04:11:29.55	214.76	7.74	-37.7	-38.5	22.7	0.00e+00	0	41	0	422576128	48	6080
2026-01-24 04:11:30.56	214.86	7.80	-36.9	-37.6	23.6	0.00e+00	0	41	0	427819008	48	5483
2026-01-24 04:11:31.57	214.96	7.87	-37.0	-37.8	23.4	0.00e+00	0	41	0	434110464	48	5588
2026-01-24 04:11:32.58	215.06	7.93	-36.8	-37.5	23.6	0.00e+00	0	41	0	439353344	48	5433
2026-01-24 04:11:33.59	215.16	8.00	-36.8	-37.5	23.6	0.00e+00	0	41	0	444596224	46	6047
2026-01-24 04:11:34.59	215.26	8.06	-36.6	-37.3	23.9	0.00e+00	0	41	0	450887680	46	5919
2026-01-24 04:11:35.60	215.36	8.13	-36.5	-37.3	23.8	0.00e+00	0	41	0	456130560	46	5915
2026-01-24 04:11:36.61	215.46	8.19	-36.9	-37.7	23.5	0.00e+00	0	41	0	462422016	46	6193
2026-01-24 04:11:37.62	215.57	8.26	-37.1	-37.9	23.3	0.00e+00	0	41	0	467664896	46	6318
2026-01-24 04:11:38.63	215.67	8.32	-37.1	-37.8	23.4	0.00e+00	0	41	0	473956352	46	6268
2026-01-24 04:11:39.64	215.77	8.39	-36.7	-37.5	23.7	0.00e+00	0	41	0	479199232	46	6044
2026-01-24 04:11:40.65	215.88	8.46	-36.8	-37.6	23.6	0.00e+00	0	41	0	484442112	46	6104
2026-01-24 04:11:41.66	215.98	8.52	-36.8	-37.5	23.8	0.00e+00	0	41	0	490733568	46	6083
2026-01-24 04:11:42.67	216.09	8.59	-36.4	-37.1	24.0	0.00e+00	0	41	0	495976448	46	5795
2026-01-24 04:11:43.68	216.19	8.66	-36.6	-37.3	23.8	0.00e+00	0	41	0	502267904	46	5911
2026-01-24 04:11:44.69	216.30	8.72	-36.9	-37.7	23.6	0.00e+00	0	41	0	507510784	46	6183
2026-01-24 04:11:45.70	216.40	8.79	-36.4	-37.1	24.0	0.00e+00	0	41	0	512753664	46	5812
2026-01-24 04:11:46.71	216.51	8.86	-36.7	-37.5	23.8	0.00e+00	0	41	0	519045120	46	6052
2026-01-24 04:11:47.72	216.62	8.92	-36.7	-37.4	23.8	0.00e+00	0	41	0	524288000	46	6014
2026-01-24 04:11:48.73	216.73	8.99	-36.9	-37.7	23.5	0.00e+00	0	41	0	530579456	46	6188
2026-01-24 04:11:49.74	216.83	9.06	-37.2	-37.9	23.3	0.00e+00	0	41	0	535822336	46	6389
2026-01-24 04:11:50.75	216.94	9.12	-37.0	-37.7	23.5	0.00e+00	0	41	0	541065216	46	6201
2026-01-24 04:11:51.76	217.05	9.19	-37.8	-38.6	22.7	0.00e+00	0	41	0	547356672	46	6897
2026-01-24 04:11:52.77	217.16	9.26	-36.9	-37.6	23.6	0.00e+00	0	41	0	552599552	48	5461
2026-01-24 04:11:53.78	217.27	9.32	-36.6	-37.3	23.9	0.00e+00	0	41	0	558891008	46	5927
2026-01-24 04:11:54.79	217.38	9.39	-36.9	-37.6	23.8	0.00e+00	0	41	0	564133888	46	6135
2026-01-24 04:11:55.80	217.49	9.46	-36.9	-37.6	23.8	0.00e+00	0	41	0	570425344	46	6146
2026-01-24 04:11:56.81	217.60	9.53	-37.0	-37.8	23.7	0.00e+00	0	41	0	575668224	46	6259
2026-01-24 04:11:57.82	217.72	9.59	-36.9	-37.6	23.7	0.00e+00	0	41	0	581959680	46	6139
2026-01-24 04:11:58.83	217.83	9.66	-36.7	-37.4	23.9	0.00e+00	0	41	0	587202560	46	5992
2026-01-24 04:11:59.84	217.94	9.73	-36.8	-37.5	23.8	0.00e+00	0	41	0	592445440	46	6092
2026-01-24 04:12:00.85	218.05	9.80	-37.0	-37.7	23.7	0.00e+00	0	41	0	598736896	46	6228
2026-01-24 04:12:01.86	218.17	9.87	-36.7	-37.4	23.9	0.00e+00	0	41	0	603979776	46	6001
2026-01-24 04:12:02.87	218.28	9.93	-36.8	-37.6	23.7	0.00e+00	0	41	0	610271232	46	6126
2026-01-24 04:12:03.88	218.40	10.00	-36.9	-37.6	23.8	0.00e+00	0	41	0	615514112	46	6130
2026-01-24 04:12:04.89	218.51	10.07	-36.2	-37.0	24.3	0.00e+00	0	41	0	620756992	46	5697
2026-01-24 04:12:05.90	218.63	10.14	-36.3	-37.0	24.2	0.00e+00	0	41	0	627048448	46	5752
2026-01-24 04:12:06.91	218.75	10.21	-36.1	-36.8	24.4	0.00e+00	0	41	0	632291328	46	5626
2026-01-24 04:12:07.92	218.86	10.28	-36.0	-36.7	24.5	0.00e+00	0	41	0	638582784	46	5542
2026-01-24 04:12:08.93	218.98	10.34	-36.4	-37.1	24.1	0.00e+00	0	41	0	643825664	46	5823
2026-01-24 04:12:09.94	219.10	10.41	-36.5	-37.2	24.2	0.00e+00	0	41	0	649068544	46	5876
2026-01-24 04:12:10.95	219.22	10.48	-36.3	-37.0	24.2	0.00e+00	0	41	0	655360000	46	5755
2026-01-24 04:12:11.96	219.34	10.55	-36.5	-37.2	24.1	0.00e+00	0	41	0	660602880	46	5856
2026-01-24 04:12:12.97	219.46	10.62	-36.3	-37.0	24.2	0.00e+00	0	41	0	666894336	46	5729
2026-01-24 04:12:13.98	219.58	10.69	-36.2	-36.9	24.3	0.00e+00	0	41	0	672137216	46	5695
2026-01-24 04:12:14.99	219.70	10.76	-36.4	-37.1	24.1	0.00e+00	0	41	0	678428672	46	5799
2026-01-24 04:12:16.00	219.82	10.83	-36.3	-37.0	24.3	0.00e+00	0	41	0	683671552	46	5737
2026-01-24 04:12:17.01	219.94	10.90	-36.5	-37.2	24.1	0.00e+00	0	41	0	688914432	46	5856
2026-01-24 04:12:18.02	220.06	10.97	-36.2	-36.9	24.3	0.00e+00	0	41	0	695205888	46	5659
2026-01-24 04:12:19.03	220.19	11.04	-36.2	-36.9	24.4	0.00e+00	0	41	0	700448768	46	5638
2026-01-24 04:12:20.04	220.31	11.11	-35.8	-36.5	24.6	0.00e+00	0	41	0	706740224	46	5414
2026-01-24 04:12:21.05	220.44	11.18	-35.9	-36.7	24.6	0.00e+00	0	41	0	711983104	46	5507
2026-01-24 04:12:22.06	220.56	11.24	-35.9	-36.6	24.7	0.00e+00	0	41	0	717225984	46	5440
2026-01-24 04:12:23.07	220.69	11.31	-35.9	-36.6	24.8	0.00e+00	0	41	0	723517440	46	5451
2026-01-24 04:12:24.08	220.81	11.38	-35.8	-36.5	24.7	0.00e+00	0	41	0	728760320	44	6087
2026-01-24 04:12:25.09	220.94	11.45	-36.1	-36.8	24.6	0.00e+00	0	41	0	735051776	44	6247
2026-01-24 04:12:26.10	221.07	11.52	-36.1	-36.8	24.5	0.00e+00	0	41	0	740294656	44	6284
2026-01-24 04:12:27.11	221.19	11.59	-36.2	-36.9	24.4	0.00e+00	0	41	0	746586112	44	6361
2026-01-24 04:12:28.12	221.32	11.66	-35.7	-36.4	24.8	0.00e+00	0	41	0	751828992	44	6028
2026-01-24 04:12:29.13	221.45	11.74	-36.0	-36.7	24.6	0.00e+00	0	41	0	757071872	44	6238
2026-01-24 04:12:30.14	221.58	11.81	-36.1	-36.8	24.5	0.00e+00	0	41	0	763363328	44	6287
2026-01-24 04:12:31.15	221.71	11.88	-36.0	-36.7	24.5	0.00e+00	0	41	0	768606208	44	6240
2026-01-24 04:12:32.16	221.84	11.95	-35.8	-36.5	24.9	0.00e+00	0	41	0	774897664	44	6046
2026-01-24 04:12:33.18	221.97	12.02	-35.9	-36.6	24.7	0.00e+00	0	41	0	780140544	44	6150
2026-01-24 04:12:34.18	222.10	12.09	-35.9	-36.6	24.7	0.00e+00	0	41	0	786432000	44	6121
2026-01-24 04:12:35.20	222.24	12.16	-36.0	-36.7	24.6	0.00e+00	0	41	0	791674880	44	6182
2026-01-24 04:12:36.21	222.37	12.23	-36.0	-36.7	24.6	0.00e+00	0	41	0	796917760	44	6226
2026-01-24 04:12:37.22	222.50	12.30	-36.6	-37.3	24.2	0.00e+00	0	41	0	803209216	44	6676
2026-01-24 04:12:38.23	222.64	12.37	-36.4	-37.1	24.2	0.00e+00	0	41	0	808452096	44	6518
2026-01-24 04:12:39.24	222.77	12.44	-36.5	-37.2	24.3	0.00e+00	0	41	0	814743552	44	6575
2026-01-24 04:12:40.25	222.91	12.51	-36.1	-36.9	24.5	0.00e+00	0	41	0	819986432	44	6327
2026-01-24 04:12:41.26	223.05	12.58	-36.3	-37.0	24.2	0.00e+00	0	41	0	825229312	44	6462
2026-01-24 04:12:42.27	223.18	12.66	-36.2	-36.9	24.5	0.00e+00	0	41	0	831520768	44	6350
2026-01-24 04:12:43.27	223.32	12.73	-36.2	-36.9	24.5	0.00e+00	0	41	0	836763648	44	6330
2026-01-24 04:12:44.28	223.46	12.80	-35.6	-36.3	25.0	0.00e+00	0	41	0	843055104	44	5907
2026-01-24 04:12:45.29	223.60	12.87	-35.6	-36.3	25.0	0.00e+00	0	41	0	848297984	44	5941
2026-01-24 04:12:46.30	223.74	12.94	-35.5	-36.2	25.1	0.00e+00	0	41	0	853540864	44	5878
2026-01-24 04:12:47.31	223.88	13.01	-35.6	-36.3	24.9	0.00e+00	0	41	0	859832320	44	5954
2026-01-24 04:12:48.32	224.02	13.08	-35.5	-36.2	25.0	0.00e+00	0	41	0	865075200	44	5861
2026-01-24 04:12:49.33	224.16	13.15	-35.5	-36.2	25.0	0.00e+00	0	41	0	871366656	44	5890
2026-01-24 04:12:50.34	224.30	13.23	-35.7	-36.3	24.9	0.00e+00	0	41	0	876609536	44	5955
2026-01-24 04:12:51.35	224.44	13.30	-35.5	-36.2	25.1	0.00e+00	0	41	0	882900992	44	5867
2026-01-24 04:12:52.36	224.59	13.37	-35.5	-36.2	25.1	0.00e+00	0	41	0	888143872	44	5852
2026-01-24 04:12:53.37	224.73	13.44	-35.7	-36.3	24.9	0.00e+00	0	41	0	894435328	44	5964
2026-01-24 04:12:54.38	224.88	13.51	-36.0	-36.7	24.6	0.00e+00	0	41	0	899678208	44	6180
2026-01-24 04:12:55.39	225.02	13.59	-35.7	-36.3	24.9	0.00e+00	0	41	0	904921088	44	5959
2026-01-24 04:12:56.40	225.17	13.66	-35.5	-36.2	25.1	0.00e+00	0	41	0	911212544	44	5881
2026-01-24 04:12:57.41	225.31	13.73	-35.3	-36.0	25.3	0.00e+00	0	41	0	916455424	44	5720
2026-01-24 04:12:58.42	225.46	13.80	-35.5	-36.2	25.1	0.00e+00	0	41	0	922746880	44	5860
2026-01-24 04:12:59.43	225.61	13.87	-35.4	-36.1	25.2	0.00e+00	0	41	0	927989760	44	5771
2026-01-24 04:13:00.44	225.76	13.95	-35.5	-36.2	25.1	0.00e+00	0	41	0	933232640	44	5850
2026-01-24 04:13:01.44	225.91	14.02	-35.4	-36.1	25.2	0.00e+00	0	41	0	939524096	44	5807
2026-01-24 04:13:02.45	226.06	14.09	-35.4	-36.1	25.2	0.00e+00	0	41	0	944766976	44	5800
2026-01-24 04:13:03.46	226.21	14.16	-35.4	-36.1	25.2	0.00e+00	0	41	0	950009856	44	5774
2026-01-24 04:13:04.47	226.36	14.23	-35.4	-36.1	25.1	0.00e+00	0	41	0	956301312	44	5784
2026-01-24 04:13:05.48	226.51	14.31	-35.3	-36.0	25.3	0.00e+00	0	41	0	961544192	44	5701
2026-01-24 04:13:06.49	226.67	14.38	-35.2	-35.8	25.4	0.00e+00	0	41	0	967835648	44	5616
2026-01-24 04:13:07.50	226.82	14.45	-35.0	-35.7	25.5	0.00e+00	0	41	0	973078528	44	5518
2026-01-24 04:13:08.51	226.97	14.52	-35.2	-35.9	25.4	0.00e+00	0	41	0	979369984	44	5643
2026-01-24 04:13:09.52	227.13	14.59	-34.8	-35.5	25.8	0.00e+00	0	41	0	984612864	44	5417
2026-01-24 04:13:10.53	227.29	14.67	-34.8	-35.5	25.8	0.00e+00	0	41	0	990904320	42	6062
2026-01-24 04:13:11.54	227.44	14.74	-35.0	-35.7	25.6	0.00e+00	0	41	0	996147200	42	6183
2026-01-24 04:13:12.55	227.60	14.81	-34.8	-35.5	25.7	0.00e+00	0	41	0	1001390080	42	6050
2026-01-24 04:13:13.56	227.76	14.88	-34.9	-35.6	25.7	0.00e+00	0	41	0	1007681536	42	6115
2026-01-24 04:13:14.57	227.92	14.96	-34.9	-35.5	25.7	0.00e+00	0	41	0	1012924416	42	6075
2026-01-24 04:13:15.58	228.08	15.03	-34.9	-35.6	25.7	0.00e+00	0	41	0	1019215872	42	6130
2026-01-24 04:13:16.59	228.24	15.10	-35.1	-35.7	25.6	0.00e+00	0	41	0	1024458752	42	6234
2026-01-24 04:13:17.60	228.40	15.17	-35.2	-35.8	25.5	0.00e+00	0	41	0	1029701632	42	6316
2026-01-24 04:13:18.61	228.56	15.25	-35.0	-35.6	25.6	0.00e+00	0	41	0	1035993088	42	6158
2026-01-24 04:13:19.62	228.73	15.32	-34.9	-35.5	25.7	0.00e+00	0	41	0	1041235968	42	6101
2026-01-24 04:13:20.63	228.89	15.39	-34.9	-35.5	25.7	0.00e+00	0	41	0	1047527424	42	6083
2026-01-24 04:13:21.63	229.05	15.46	-35.0	-35.7	25.6	0.00e+00	0	41	0	1052770304	42	6187
2026-01-24 04:13:22.64	229.22	15.54	-34.9	-35.6	25.7	0.00e+00	0	41	0	1058013184	42	6128
2026-01-24 04:13:23.65	229.38	15.61	-35.1	-35.7	25.6	0.00e+00	0	41	0	1064304640	42	6216
2026-01-24 04:13:24.66	229.55	15.68	-35.2	-35.9	25.5	0.00e+00	0	41	0	1069547520	42	6372
2026-01-24 04:13:25.67	229.72	15.75	-35.1	-35.8	25.6	0.00e+00	0	41	0	1075838976	42	6262
2026-01-24 04:13:26.68	229.89	15.82	-35.1	-35.8	25.5	0.00e+00	0	41	0	1081081856	42	6264
2026-01-24 04:13:27.69	230.05	15.90	-35.0	-35.7	25.6	0.00e+00	0	41	0	1087373312	42	6212
2026-01-24 04:13:28.70	230.22	15.97	-34.9	-35.5	25.8	0.00e+00	0	41	0	1092616192	42	6090
2026-01-24 04:13:29.71	230.40	16.04	-34.8	-35.5	25.8	0.00e+00	0	41	0	1097859072	42	6038
2026-01-24 04:13:30.72	230.57	16.11	-34.7	-35.3	26.0	0.00e+00	0	41	0	1104150528	42	5949
2026-01-24 04:13:31.73	230.74	16.19	-34.7	-35.3	25.9	0.00e+00	0	41	0	1109393408	42	5960
2026-01-24 04:13:32.74	230.91	16.26	-34.6	-35.3	26.1	0.00e+00	0	41	0	1115684864	42	5917
2026-01-24 04:13:33.75	231.09	16.33	-34.8	-35.4	25.9	0.00e+00	0	41	0	1120927744	42	6031
2026-01-24 04:13:34.76	231.26	16.40	-34.9	-35.5	25.8	0.00e+00	0	41	0	1126170624	42	6087
2026-01-24 04:13:35.77	231.44	16.48	-34.7	-35.3	26.0	0.00e+00	0	41	0	1132462080	42	5921
2026-01-24 04:13:36.78	231.61	16.55	-34.8	-35.4	25.8	0.00e+00	0	41	0	1137704960	42	6020
2026-01-24 04:13:37.79	231.79	16.62	-34.9	-35.6	25.7	0.00e+00	0	41	0	1143996416	42	6145
2026-01-24 04:13:38.80	231.97	16.69	-34.7	-35.3	25.9	0.00e+00	0	41	0	1149239296	42	5955
2026-01-24 04:13:39.80	232.14	16.76	-34.8	-35.4	25.9	0.00e+00	0	41	0	1154482176	42	6024
2026-01-24 04:13:40.82	232.33	16.84	-34.7	-35.3	25.9	0.00e+00	0	41	0	1160773632	42	5939
2026-01-24 04:13:41.82	232.51	16.91	-34.9	-35.5	25.8	0.00e+00	0	41	0	1166016512	42	6084
2026-01-24 04:13:42.83	232.69	16.98	-34.6	-35.3	26.0	0.00e+00	0	41	0	1172307968	42	5921
2026-01-24 04:13:43.84	232.87	17.05	-34.4	-35.1	26.2	0.00e+00	0	41	0	1177550848	42	5772
2026-01-24 04:13:44.85	233.05	17.12	-34.4	-35.1	26.2	0.00e+00	0	41	0	1183842304	42	5790
2026-01-24 04:13:45.86	233.24	17.19	-34.5	-35.1	26.1	0.00e+00	0	41	0	1189085184	42	5824
2026-01-24 04:13:46.87	233.42	17.27	-34.4	-35.0	26.2	0.00e+00	0	41	0	1195376640	42	5751
2026-01-24 04:13:47.88	233.61	17.34	-34.5	-35.1	26.2	0.00e+00	0	41	0	1200619520	42	5795
2026-01-24 04:13:48.89	233.79	17.41	-34.5	-35.1	26.1	0.00e+00	0	41	0	1205862400	42	5812
2026-01-24 04:13:49.90	233.98	17.48	-34.4	-35.0	26.2	0.00e+00	0	41	0	1212153856	42	5746
2026-01-24 04:13:50.91	234.17	17.55	-34.4	-35.0	26.2	0.00e+00	0	41	0	1217396736	42	5748
2026-01-24 04:13:51.92	234.36	17.62	-34.4	-35.0	26.2	0.00e+00	0	41	0	1223688192	42	5732
2026-01-24 04:13:52.93	234.55	17.69	-34.6	-35.3	26.1	0.00e+00	0	41	0	1228931072	42	5905
2026-01-24 04:13:53.94	234.74	17.76	-34.6	-35.2	26.1	0.00e+00	0	41	0	1234173952	42	5896
2026-01-24 04:13:54.95	234.93	17.83	-34.5	-35.1	26.1	0.00e+00	0	41	0	1240465408	42	5819
2026-01-24 04:13:55.96	235.12	17.91	-34.5	-35.2	26.2	0.00e+00	0	41	0	1245708288	42	5836
2026-01-24 04:13:56.97	235.32	17.98	-34.3	-35.0	26.3	0.00e+00	0	41	0	1251999744	42	5716
2026-01-24 04:13:57.98	235.51	18.05	-34.3	-34.9	26.4	0.00e+00	0	41	0	1257242624	42	5678
2026-01-24 04:13:58.99	235.70	18.12	-34.3	-35.0	26.3	0.00e+00	0	41	0	1262485504	42	5721
2026-01-24 04:14:00.00	235.90	18.19	-34.3	-34.9	26.3	0.00e+00	0	41	0	1268776960	42	5687
2026-01-24 04:14:01.01	236.10	18.26	-34.4	-35.0	26.3	0.00e+00	0	41	0	1274019840	42	5736
2026-01-24 04:14:02.01	236.29	18.33	-34.4	-35.1	26.3	0.00e+00	0	41	0	1280311296	42	5765
2026-01-24 04:14:03.03	236.49	18.40	-34.3	-34.9	26.3	0.00e+00	0	41	0	1285554176	42	5681
2026-01-24 04:14:04.04	236.69	18.47	-34.5	-35.2	26.1	0.00e+00	0	41	0	1291845632	42	5846
2026-01-24 04:14:05.04	236.89	18.54	-34.6	-35.2	26.1	0.00e+00	0	41	0	1297088512	42	5889
2026-01-24 04:14:06.06	237.10	18.61	-34.3	-35.0	26.4	0.00e+00	0	42	0	1302331392	42	5697
2026-01-24 04:14:07.06	237.30	18.67	-34.3	-34.9	26.4	0.00e+00	0	41	0	1308622848	42	5661
2026-01-24 04:14:08.07	237.50	18.74	-34.1	-34.7	26.6	0.00e+00	0	41	0	1313865728	42	5504
2026-01-24 04:14:09.08	237.70	18.81	-34.1	-34.8	26.4	0.00e+00	0	41	0	1320157184	42	5577
2026-01-24 04:14:10.09	237.91	18.88	-34.2	-34.8	26.4	0.00e+00	0	41	0	1325400064	42	5615
2026-01-24 04:14:11.10	238.11	18.95	-34.2	-34.8	26.5	0.00e+00	0	41	0	1330642944	42	5580
2026-01-24 04:14:12.10	238.32	19.02	-34.4	-35.0	26.4	0.00e+00	0	41	0	1336934400	42	5711
2026-01-24 04:14:13.11	238.53	19.09	-34.1	-34.7	26.5	0.00e+00	0	41	0	1342177280	42	5562
2026-01-24 04:14:14.12	238.73	19.15	-34.2	-34.8	26.4	0.00e+00	0	42	0	1348468736	42	5608
2026-01-24 04:14:15.13	238.94	19.22	-34.0	-34.6	26.6	0.00e+00	0	41	0	1353711616	42	5495
2026-01-24 04:14:16.14	239.15	19.29	-34.0	-34.7	26.5	0.00e+00	0	41	0	1358954496	42	5515
2026-01-24 04:14:17.15	239.36	19.36	-34.0	-34.6	26.6	0.00e+00	0	41	0	1365245952	42	5469
2026-01-24 04:14:18.16	239.58	19.43	-34.1	-34.7	26.6	0.00e+00	0	41	0	1370488832	42	5532
2026-01-24 04:14:19.17	239.79	19.49	-34.0	-34.6	26.6	0.00e+00	0	41	0	1376780288	42	5479
2026-01-24 04:14:20.18	240.00	19.56	-34.1	-34.7	26.5	0.00e+00	0	41	0	1382023168	42	5546
2026-01-24 04:14:21.19	240.22	19.63	-34.1	-34.7	26.5	0.00e+00	0	41	0	1388314624	42	5560
2026-01-24 04:14:22.20	240.43	19.69	-34.0	-34.6	26.5	0.00e+00	0	41	0	1393557504	42	5459
2026-01-24 04:14:23.21	240.65	19.76	-34.1	-34.8	26.4	0.00e+00	0	41	0	1398800384	42	5586
2026-01-24 04:14:24.22	240.87	19.83	-34.2	-34.8	26.4	0.00e+00	0	41	0	1405091840	42	5602
2026-01-24 04:14:25.23	241.09	19.89	-34.2	-34.8	26.4	0.00e+00	0	41	0	1410334720	42	5624
2026-01-24 04:14:26.24	241.31	19.96	-34.0	-34.6	26.5	0.00e+00	0	41	0	1416626176	42	5479
2026-01-24 04:14:27.25	241.53	20.02	-34.0	-34.6	26.4	0.00e+00	0	41	0	1421869056	42	5491
2026-01-24 04:14:28.26	241.75	20.09	-34.2	-34.9	26.4	0.00e+00	0	41	0	1427111936	42	5636
2026-01-24 04:14:29.27	241.97	20.15	-34.0	-34.6	26.5	0.00e+00	0	41	0	1433403392	42	5489
2026-01-24 04:14:30.28	242.19	20.22	-34.2	-34.8	26.4	0.00e+00	0	42	0	1438646272	42	5608
2026-01-24 04:14:31.29	242.42	20.28	-34.0	-34.6	26.6	0.00e+00	0	42	0	1444937728	42	5461
2026-01-24 04:14:32.30	242.64	20.35	-33.9	-34.6	26.6	0.00e+00	0	41	0	1450180608	42	5471
2026-01-24 04:14:33.31	242.87	20.41	-34.0	-34.6	26.6	0.00e+00	0	42	0	1455423488	42	5496
2026-01-24 04:14:34.32	243.10	20.47	-33.9	-34.5	26.6	0.00e+00	0	42	0	1461714944	42	5401
2026-01-24 04:14:35.33	243.32	20.54	-33.9	-34.6	26.7	0.00e+00	0	41	0	1466957824	42	5473
2026-01-24 04:14:36.34	243.55	20.60	-33.8	-34.4	26.8	0.00e+00	0	42	0	1473249280	42	5351
2026-01-24 04:14:37.35	243.78	20.66	-33.8	-34.4	26.8	0.00e+00	0	42	0	1478492160	42	5327
2026-01-24 04:14:38.36	244.01	20.72	-33.6	-34.3	26.8	0.00e+00	0	42	0	1484783616	40	5924
2026-01-24 04:14:39.37	244.24	20.79	-33.9	-34.5	26.6	0.00e+00	0	41	0	1490026496	40	6097
2026-01-24 04:14:40.38	244.48	20.85	-34.1	-34.7	26.5	0.00e+00	0	41	0	1496317952	40	6208
2026-01-24 04:14:41.39	244.71	20.91	-33.9	-34.6	26.6	0.00e+00	0	41	0	1501560832	40	6132
2026-01-24 04:14:42.40	244.94	20.97	-33.9	-34.5	26.7	0.00e+00	0	41	0	1506803712	40	6072
2026-01-24 04:14:43.41	245.18	21.03	-33.7	-34.4	26.8	0.00e+00	0	42	0	1513095168	40	5982
2026-01-24 04:14:44.42	245.41	21.09	-33.6	-34.2	26.9	0.00e+00	0	41	0	1518338048	40	5853
2026-01-24 04:14:45.43	245.65	21.15	-33.6	-34.2	27.0	0.00e+00	0	41	0	1524629504	40	5843
2026-01-24 04:14:46.44	245.89	21.21	-33.3	-33.9	27.2	0.00e+00	0	42	0	1529872384	40	5657
2026-01-24 04:14:47.45	246.13	21.27	-33.4	-34.0	27.1	0.00e+00	0	42	0	1535115264	40	5747
2026-01-24 04:14:48.46	246.37	21.33	-33.6	-34.2	26.9	0.00e+00	0	41	0	1541406720	40	5874
2026-01-24 04:14:49.47	246.61	21.39	-33.8	-34.4	26.8	0.00e+00	0	42	0	1546649600	40	6013
2026-01-24 04:14:50.48	246.85	21.45	-34.0	-34.7	26.6	0.00e+00	0	42	0	1552941056	40	6174
2026-01-24 04:14:51.49	247.09	21.50	-33.9	-34.5	26.6	0.00e+00	0	41	0	1558183936	40	6102
2026-01-24 04:14:52.50	247.33	21.56	-33.7	-34.3	26.8	0.00e+00	0	42	0	1563426816	40	5927
2026-01-24 04:14:53.51	247.58	21.62	-33.6	-34.2	26.9	0.00e+00	0	41	0	1569718272	40	5871
2026-01-24 04:14:54.52	247.82	21.68	-33.7	-34.3	26.9	0.00e+00	0	42	0	1574961152	40	5935
2026-01-24 04:14:55.52	248.06	21.73	-33.8	-34.5	26.7	0.00e+00	0	41	0	1581252608	40	6068
2026-01-24 04:14:56.53	248.31	21.79	-33.9	-34.6	26.6	0.00e+00	0	41	0	1586495488	40	6111
2026-01-24 04:14:57.55	248.56	21.84	-33.7	-34.4	26.8	0.00e+00	0	41	0	1592786944	40	5973
2026-01-24 04:14:58.56	248.81	21.90	-33.4	-34.1	27.0	0.00e+00	0	42	0	1598029824	40	5766
2026-01-24 04:14:59.57	249.06	21.95	-33.6	-34.3	26.9	0.00e+00	0	41	0	1604321280	40	5905
2026-01-24 04:15:00.58	249.31	22.01	-33.4	-34.0	27.1	0.00e+00	0	41	0	1609564160	40	5704
2026-01-24 04:15:01.58	249.56	22.06	-33.4	-34.0	27.0	0.00e+00	0	41	0	1614807040	40	5747
2026-01-24 04:15:02.60	249.81	22.12	-33.6	-34.2	26.9	0.00e+00	0	42	0	1621098496	40	5854
2026-01-24 04:15:03.61	250.06	22.17	-33.6	-34.2	27.0	0.00e+00	0	42	0	1626341376	40	5858
2026-01-24 04:15:04.62	250.31	22.22	-33.6	-34.2	26.9	0.00e+00	0	42	0	1632632832	40	5875
2026-01-24 04:15:05.63	250.57	22.27	-33.2	-33.8	27.2	0.00e+00	0	42	0	1637875712	40	5590
2026-01-24 04:15:06.63	250.82	22.32	-33.1	-33.7	27.4	0.00e+00	0	42	0	1643118592	40	5548
2026-01-24 04:15:07.64	251.08	22.38	-32.9	-33.5	27.4	0.00e+00	0	42	0	1649410048	40	5430
2026-01-24 04:15:08.66	251.34	22.43	-33.1	-33.7	27.2	0.00e+00	0	42	0	1654652928	40	5557
2026-01-24 04:15:09.66	251.59	22.48	-33.1	-33.7	27.3	0.00e+00	0	42	0	1660944384	40	5562
2026-01-24 04:15:10.67	251.85	22.53	-33.4	-34.0	27.1	0.00e+00	0	42	0	1666187264	40	5726
2026-01-24 04:15:11.68	252.11	22.58	-33.2	-33.8	27.2	0.00e+00	0	42	0	1671430144	40	5628
2026-01-24 04:15:12.70	252.37	22.62	-33.1	-33.8	27.3	0.00e+00	0	42	0	1677721600	40	5573
2026-01-24 04:15:13.70	252.63	22.67	-33.2	-33.8	27.2	0.00e+00	0	42	0	1682964480	40	5591
2026-01-24 04:15:14.71	252.89	22.72	-33.3	-34.0	27.1	0.00e+00	0	42	0	1689255936	40	5708
2026-01-24 04:15:15.72	253.15	22.77	-33.4	-34.0	27.1	0.00e+00	0	42	0	1694498816	40	5741
2026-01-24 04:15:16.73	253.41	22.81	-33.3	-33.9	27.1	0.00e+00	0	42	0	1700790272	40	5645
2026-01-24 04:15:17.74	253.68	22.86	-33.4	-34.0	27.1	0.00e+00	0	42	0	1706033152	40	5698
2026-01-24 04:15:18.75	253.94	22.91	-33.2	-33.9	27.2	0.00e+00	0	41	0	1711276032	40	5645
2026-01-24 04:15:19.76	254.21	22.95	-33.1	-33.8	27.2	0.00e+00	0	42	0	1717567488	40	5575
2026-01-24 04:15:20.77	254.47	22.99	-33.3	-34.0	27.2	0.00e+00	0	42	0	1722810368	40	5712
2026-01-24 04:15:21.78	254.74	23.04	-33.2	-33.8	27.2	0.00e+00	0	42	0	1729101824	40	5628
2026-01-24 04:15:22.79	255.01	23.08	-33.3	-33.9	27.1	0.00e+00	0	42	0	1734344704	40	5673
2026-01-24 04:15:23.80	255.28	23.12	-33.3	-33.9	27.1	0.00e+00	0	42	0	1739587584	40	5689
2026-01-24 04:15:24.81	255.54	23.17	-33.2	-33.8	27.3	0.00e+00	0	42	0	1745879040	40	5613
2026-01-24 04:15:25.82	255.81	23.21	-33.2	-33.8	27.3	0.00e+00	0	42	0	1751121920	40	5617
2026-01-24 04:15:26.83	256.08	23.25	-33.2	-33.8	27.3	0.00e+00	0	42	0	1757413376	40	5620
2026-01-24 04:15:27.84	256.35	23.29	-33.1	-33.6	27.4	0.00e+00	0	42	0	1762656256	40	5501
2026-01-24 04:15:28.86	256.63	23.33	-33.1	-33.7	27.4	0.00e+00	0	42	0	1767899136	40	5544
2026-01-24 04:15:29.86	256.90	23.37	-33.2	-33.8	27.3	0.00e+00	0	42	0	1774190592	40	5587
2026-01-24 04:15:30.87	257.17	23.41	-33.2	-33.9	27.3	0.00e+00	0	42	0	1779433472	40	5650
2026-01-24 04:15:31.88	257.44	23.45	-33.1	-33.7	27.3	0.00e+00	0	42	0	1785724928	40	5534
2026-01-24 04:15:32.89	257.72	23.48	-33.0	-33.6	27.4	0.00e+00	0	41	0	1790967808	40	5476
2026-01-24 04:15:33.90	257.99	23.52	-33.0	-33.6	27.5	0.00e+00	0	42	0	1797259264	40	5471
2026-01-24 04:15:34.91	258.27	23.56	-32.9	-33.5	27.5	0.00e+00	0	42	0	1802502144	40	5395
2026-01-24 04:15:35.92	258.54	23.59	-32.9	-33.6	27.4	0.00e+00	0	42	0	1808793600	40	5464
2026-01-24 04:15:36.93	258.82	23.63	-32.9	-33.5	27.4	0.00e+00	0	42	0	1814036480	40	5415
2026-01-24 04:15:37.94	259.10	23.66	-32.8	-33.4	27.5	0.00e+00	0	42	0	1819279360	40	5374
2026-01-24 04:15:38.95	259.38	23.70	-32.8	-33.5	27.5	0.00e+00	0	42	0	1825570816	40	5381
2026-01-24 04:15:39.96	259.65	23.73	-32.8	-33.4	27.5	0.00e+00	0	41	0	1830813696	40	5375
2026-01-24 04:15:40.97	259.93	23.76	-32.9	-33.5	27.5	0.00e+00	0	42	0	1837105152	40	5384
2026-01-24 04:15:41.98	260.21	23.79	-32.9	-33.5	27.5	0.00e+00	0	42	0	1842348032	40	5409
2026-01-24 04:15:42.99	260.49	23.82	-33.0	-33.6	27.4	0.00e+00	0	42	0	1847590912	40	5448
2026-01-24 04:15:44.00	260.77	23.85	-33.1	-33.8	27.3	0.00e+00	0	42	0	1853882368	40	5584
2026-01-24 04:15:45.01	261.05	23.88	-33.1	-33.8	27.3	0.00e+00	0	42	0	1859125248	40	5586
2026-01-24 04:15:46.02	261.34	23.91	-33.1	-33.7	27.3	0.00e+00	0	42	0	1865416704	40	5551
2026-01-24 04:15:47.03	261.62	23.94	-33.0	-33.7	27.4	0.00e+00	0	42	0	1870659584	40	5517
2026-01-24 04:15:48.04	261.90	23.97	-32.8	-33.4	27.6	0.00e+00	0	42	0	1875902464	40	5359
2026-01-24 04:15:49.05	262.18	24.00	-32.8	-33.4	27.6	0.00e+00	0	42	0	1882193920	40	5326
2026-01-24 04:15:50.06	262.47	24.02	-32.9	-33.5	27.5	0.00e+00	0	42	0	1887436800	38	6039
2026-01-24 04:15:51.07	262.75	24.05	-32.7	-33.3	27.7	0.00e+00	0	42	0	1893728256	38	5955
2026-01-24 04:15:52.08	263.04	24.07	-32.9	-33.5	27.5	0.00e+00	0	42	0	1898971136	38	6056
2026-01-24 04:15:53.08	263.32	24.10	-32.8	-33.4	27.6	0.00e+00	0	42	0	1905262592	38	5986
2026-01-24 04:15:54.10	263.61	24.12	-32.9	-33.5	27.5	0.00e+00	0	42	0	1910505472	38	6090
2026-01-24 04:15:55.10	263.89	24.14	-32.8	-33.4	27.5	0.00e+00	0	42	0	1915748352	38	6027
2026-01-24 04:15:56.11	264.17	24.16	-32.8	-33.4	27.6	0.00e+00	0	42	0	1922039808	38	5989
2026-01-24 04:15:57.12	264.46	24.19	-32.9	-33.5	27.6	0.00e+00	0	41	0	1927282688	38	6066
2026-01-24 04:15:58.13	264.75	24.21	-33.2	-33.8	27.4	0.00e+00	0	42	0	1933574144	38	6276
2026-01-24 04:15:59.14	265.04	24.23	-33.2	-33.8	27.4	0.00e+00	0	42	0	1938817024	38	6306
2026-01-24 04:16:00.15	265.32	24.25	-33.0	-33.6	27.5	0.00e+00	0	42	0	1944059904	38	6136
2026-01-24 04:16:01.16	265.61	24.26	-33.0	-33.6	27.5	0.00e+00	0	42	0	1950351360	38	6140
2026-01-24 04:16:02.17	265.90	24.28	-32.8	-33.4	27.6	0.00e+00	0	42	0	1955594240	38	6028
2026-01-24 04:16:03.18	266.19	24.30	-32.8	-33.3	27.6	0.00e+00	0	42	0	1961885696	38	5954
2026-01-24 04:16:04.19	266.48	24.32	-32.8	-33.4	27.6	0.00e+00	0	42	0	1967128576	38	6019
2026-01-24 04:16:05.20	266.77	24.33	-32.9	-33.5	27.4	0.00e+00	0	42	0	1972371456	38	6091
2026-01-24 04:16:06.21	267.05	24.35	-33.2	-33.8	27.3	0.00e+00	0	42	0	1978662912	38	6306
2026-01-24 04:16:07.22	267.34	24.36	-33.3	-33.9	27.2	0.00e+00	0	42	0	1983905792	38	6341
2026-01-24 04:16:08.23	267.63	24.37	-33.1	-33.7	27.3	0.00e+00	0	42	0	1990197248	38	6201
2026-01-24 04:16:09.24	267.92	24.39	-33.2	-33.9	27.2	0.00e+00	0	42	0	1995440128	38	6331
2026-01-24 04:16:10.25	268.21	24.40	-32.9	-33.6	27.5	0.00e+00	0	42	0	2001731584	38	6105
2026-01-24 04:16:11.26	268.50	24.41	-33.0	-33.5	27.5	0.00e+00	0	42	0	2006974464	38	6102
2026-01-24 04:16:12.27	268.80	24.42	-32.9	-33.5	27.6	0.00e+00	0	42	0	2013265920	38	6067
2026-01-24 04:16:13.28	269.09	24.43	-33.0	-33.6	27.4	0.00e+00	0	42	0	2018508800	38	6141
2026-01-24 04:16:14.29	269.38	24.44	-33.1	-33.7	27.4	0.00e+00	0	42	0	2023751680	38	6197
2026-01-24 04:16:15.30	269.67	24.45	-33.0	-33.6	27.4	0.00e+00	0	42	0	2030043136	38	6133
2026-01-24 04:16:16.31	269.96	24.45	-33.0	-33.6	27.3	0.00e+00	0	42	0	2035286016	38	6168
2026-01-24 04:16:17.32	270.25	24.46	-32.8	-33.5	27.6	0.00e+00	0	42	0	2041577472	38	6035
2026-01-24 04:16:18.33	270.54	24.47	-32.9	-33.5	27.6	0.00e+00	0	42	0	2046820352	38	6047
2026-01-24 04:16:19.34	270.83	24.47	-32.8	-33.4	27.6	0.00e+00	0	42	0	2052063232	38	6004
2026-01-24 04:16:20.35	271.13	24.47	-32.8	-33.3	27.7	0.00e+00	0	42	0	2058354688	38	5947
2026-01-24 04:16:21.36	271.42	24.48	-32.7	-33.3	27.7	0.00e+00	0	42	0	2063597568	38	5920
2026-01-24 04:16:22.37	271.71	24.48	-32.7	-33.3	27.7	0.00e+00	0	42	0	2069889024	38	5943
2026-01-24 04:16:23.38	272.00	24.48	-32.8	-33.4	27.6	0.00e+00	0	42	0	2075131904	38	6013
2026-01-24 04:16:24.39	272.29	24.48	-33.0	-33.7	27.4	0.00e+00	0	42	0	2080374784	38	6174
2026-01-24 04:16:25.40	272.58	24.48	-32.8	-33.4	27.6	0.00e+00	0	42	0	2086666240	38	6028
2026-01-24 04:16:26.41	272.88	24.48	-32.9	-33.5	27.6	0.00e+00	0	42	0	2091909120	38	6084
2026-01-24 04:16:27.42	273.17	24.48	-32.9	-33.6	27.5	0.00e+00	0	42	0	2098200576	38	6116
2026-01-24 04:16:28.43	273.46	24.48	-33.0	-33.6	27.4	0.00e+00	0	42	0	2103443456	38	6159
2026-01-24 04:16:29.44	273.75	24.48	-33.0	-33.6	27.4	0.00e+00	0	41	0	2109734912	38	6149
2026-01-24 04:16:30.45	274.04	24.47	-32.8	-33.4	27.6	0.00e+00	0	42	0	2114977792	38	5993
2026-01-24 04:16:31.46	274.33	24.47	-32.8	-33.4	27.6	0.00e+00	0	42	0	2120220672	38	5999
2026-01-24 04:16:32.47	274.63	24.47	-33.1	-33.7	27.3	0.00e+00	0	42	0	2126512128	38	6234
2026-01-24 04:16:33.48	274.92	24.46	-32.8	-33.4	27.5	0.00e+00	0	42	0	2131755008	38	6032
2026-01-24 04:16:34.49	275.21	24.45	-32.8	-33.5	27.5	0.00e+00	0	42	0	2138046464	38	6037
2026-01-24 04:16:35.50	275.50	24.45	-33.2	-33.8	27.3	0.00e+00	0	42	0	2143289344	38	6287
2026-01-24 04:16:36.51	275.79	24.44	-33.0	-33.6	27.3	0.00e+00	0	42	0	2148532224	38	6156
2026-01-24 04:16:37.52	276.08	24.43	-32.8	-33.3	27.6	0.00e+00	0	42	0	2154823680	38	5934
2026-01-24 04:16:38.53	276.37	24.42	-32.8	-33.4	27.6	0.00e+00	0	42	0	2160066560	38	5990
2026-01-24 04:16:39.54	276.66	24.41	-32.6	-33.3	27.6	0.00e+00	0	42	0	2166358016	38	5904
2026-01-24 04:16:40.54	276.95	24.40	-32.7	-33.2	27.7	0.00e+00	0	42	0	2171600896	38	5892
2026-01-24 04:16:41.55	277.24	24.39	-32.7	-33.3	27.6	0.00e+00	0	42	0	2176843776	38	5926
2026-01-24 04:16:42.56	277.53	24.37	-32.9	-33.5	27.6	0.00e+00	0	42	0	2183135232	38	6068
2026-01-24 04:16:43.57	277.82	24.36	-32.9	-33.5	27.5	0.00e+00	0	42	0	2188378112	38	6078
2026-01-24 04:16:44.58	278.11	24.35	-32.9	-33.5	27.5	0.00e+00	0	42	0	2194669568	38	6076
2026-01-24 04:16:45.60	278.40	24.33	-33.1	-33.7	27.5	0.00e+00	0	42	0	2199912448	38	6236
2026-01-24 04:16:46.60	278.69	24.32	-32.9	-33.5	27.6	0.00e+00	0	42	0	2206203904	38	6097
2026-01-24 04:16:47.61	278.98	24.30	-32.9	-33.5	27.5	0.00e+00	0	42	0	2211446784	38	6043
2026-01-24 04:16:48.63	279.27	24.28	-33.0	-33.7	27.4	0.00e+00	0	42	0	2217738240	38	6185
2026-01-24 04:16:49.63	279.55	24.27	-33.0	-33.6	27.4	0.00e+00	0	42	0	2222981120	38	6157
2026-01-24 04:16:50.64	279.84	24.25	-33.0	-33.6	27.5	0.00e+00	0	42	0	2228224000	38	6128
2026-01-24 04:16:51.65	280.13	24.23	-32.9	-33.5	27.6	0.00e+00	0	42	0	2234515456	38	6073
2026-01-24 04:16:52.66	280.41	24.21	-32.9	-33.5	27.5	0.00e+00	0	42	0	2239758336	38	6073
2026-01-24 04:16:53.67	280.70	24.19	-32.8	-33.4	27.6	0.00e+00	0	42	0	2246049792	38	5985
2026-01-24 04:16:54.68	280.99	24.17	-32.8	-33.4	27.6	0.00e+00	0	42	0	2251292672	38	5996
2026-01-24 04:16:55.69	281.27	24.14	-32.8	-33.4	27.6	0.00e+00	0	42	0	2256535552	38	5975
2026-01-24 04:16:56.70	281.56	24.12	-32.8	-33.5	27.6	0.00e+00	0	42	0	2262827008	38	6062
2026-01-24 04:16:57.71	281.84	24.10	-32.9	-33.5	27.5	0.00e+00	0	42	0	2268069888	38	6090
2026-01-24 04:16:58.72	282.13	24.07	-32.8	-33.4	27.5	0.00e+00	0	42	0	2274361344	38	6018
2026-01-24 04:16:59.73	282.41	24.05	-32.8	-33.5	27.6	0.00e+00	0	42	0	2279604224	38	6048
2026-01-24 04:17:00.74	282.69	24.02	-32.8	-33.4	27.6	0.00e+00	0	42	0	2284847104	38	5999
2026-01-24 04:17:01.74	282.97	24.00	-33.0	-33.7	27.5	0.00e+00	0	42	0	2291138560	38	6206
2026-01-24 04:17:02.75	283.26	23.97	-33.1	-33.8	27.3	0.00e+00	0	42	0	2296381440	38	6270
2026-01-24 04:17:03.76	283.54	23.94	-32.9	-33.5	27.5	0.00e+00	0	42	0	2302672896	38	6103
2026-01-24 04:17:04.78	283.82	23.91	-33.0	-33.6	27.4	0.00e+00	0	42	0	2307915776	38	6162
2026-01-24 04:17:05.78	284.10	23.89	-33.1	-33.7	27.4	0.00e+00	0	42	0	2314207232	38	6229
2026-01-24 04:17:06.79	284.38	23.86	-32.8	-33.5	27.5	0.00e+00	0	42	0	2319450112	38	6067
2026-01-24 04:17:07.80	284.66	23.83	-33.0	-33.6	27.5	0.00e+00	0	42	0	2324692992	38	6160
2026-01-24 04:17:08.81	284.94	23.80	-32.9	-33.5	27.5	0.00e+00	0	42	0	2330984448	38	6098
2026-01-24 04:17:09.82	285.22	23.76	-32.9	-33.5	27.6	0.00e+00	0	42	0	2336227328	38	6069
2026-01-24 04:17:10.83	285.50	23.73	-33.1	-33.6	27.4	0.00e+00	0	42	0	2342518784	38	6168
2026-01-24 04:17:11.84	285.78	23.70	-33.2	-33.8	27.3	0.00e+00	0	42	0	2347761664	38	6258
2026-01-24 04:17:12.85	286.05	23.66	-33.2	-33.8	27.4	0.00e+00	0	42	0	2353004544	38	6305
2026-01-24 04:17:13.86	286.33	23.63	-33.1	-33.7	27.3	0.00e+00	0	42	0	2359296000	38	6223
2026-01-24 04:17:14.87	286.61	23.60	-33.3	-33.8	27.3	0.00e+00	0	42	0	2364538880	38	6305
2026-01-24 04:17:15.88	286.88	23.56	-33.2	-33.9	27.2	0.00e+00	0	42	0	2370830336	38	6384
2026-01-24 04:17:16.89	287.16	23.52	-33.3	-33.8	27.2	0.00e+00	0	42	0	2376073216	38	6308
2026-01-24 04:17:17.90	287.43	23.49	-33.4	-34.1	27.1	0.00e+00	0	42	0	2381316096	38	6525
2026-01-24 04:17:18.91	287.71	23.45	-33.6	-34.3	27.1	0.00e+00	0	42	0	2387607552	38	6636
2026-01-24 04:17:19.92	287.98	23.41	-33.5	-34.2	27.1	0.00e+00	0	42	0	2392850432	38	6573
2026-01-24 04:17:20.93	288.25	23.37	-33.5	-34.2	27.1	0.00e+00	0	42	0	2399141888	38	6606
2026-01-24 04:17:21.94	288.52	23.33	-33.4	-34.1	27.1	0.00e+00	0	42	0	2404384768	38	6499
2026-01-24 04:17:22.95	288.79	23.30	-33.4	-34.1	27.2	0.00e+00	0	42	0	2410676224	38	6467
2026-01-24 04:17:23.96	289.06	23.25	-33.2	-33.9	27.3	0.00e+00	0	42	0	2415919104	38	6322
2026-01-24 04:17:24.97	289.33	23.21	-33.1	-33.7	27.3	0.00e+00	0	42	0	2422210560	38	6186
2026-01-24 04:17:25.98	289.60	23.17	-33.1	-33.6	27.3	0.00e+00	0	42	0	2427453440	38	6159
2026-01-24 04:17:26.99	289.87	23.13	-33.1	-33.8	27.4	0.00e+00	0	42	0	2432696320	38	6247
2026-01-24 04:17:28.00	290.14	23.09	-33.1	-33.7	27.3	0.00e+00	0	42	0	2438987776	38	6188
2026-01-24 04:17:29.01	290.40	23.04	-33.2	-33.8	27.2	0.00e+00	0	42	0	2444230656	38	6266
2026-01-24 04:17:30.02	290.67	23.00	-33.3	-33.9	27.2	0.00e+00	0	42	0	2450522112	38	6388
2026-01-24 04:17:31.03	290.93	22.96	-33.3	-33.9	27.2	0.00e+00	0	42	0	2455764992	38	6338
2026-01-24 04:17:32.04	291.20	22.91	-33.3	-34.0	27.2	0.00e+00	0	42	0	2461007872	38	6402
2026-01-24 04:17:33.05	291.46	22.87	-33.3	-34.0	27.2	0.00e+00	0	42	0	2467299328	38	6445
2026-01-24 04:17:34.06	291.73	22.82	-33.3	-33.9	27.1	0.00e+00	0	42	0	2472542208	38	6347
2026-01-24 04:17:35.06	291.99	22.77	-33.5	-34.2	27.0	0.00e+00	0	42	0	2478833664	38	6548
2026-01-24 04:17:36.07	292.25	22.73	-33.6	-34.2	26.9	0.00e+00	0	42	0	2484076544	38	6587
2026-01-24 04:17:37.08	292.51	22.68	-33.6	-34.1	27.0	0.00e+00	0	42	0	2489319424	38	6526
2026-01-24 04:17:38.09	292.77	22.63	-33.3	-34.0	27.1	0.00e+00	0	42	0	2495610880	38	6462
2026-01-24 04:17:39.10	293.03	22.58	-33.4	-34.0	27.3	0.00e+00	0	42	0	2500853760	38	6427
2026-01-24 04:17:40.11	293.28	22.54	-33.5	-34.1	27.3	0.00e+00	0	42	0	2507145216	38	6469
2026-01-24 04:17:41.12	293.54	22.49	-33.4	-34.0	27.3	0.00e+00	0	42	0	2512388096	38	6405
2026-01-24 04:17:42.13	293.80	22.44	-33.4	-34.1	27.4	0.00e+00	0	42	0	2518679552	38	6475
2026-01-24 04:17:43.14	294.05	22.39	-33.5	-34.0	27.3	0.00e+00	0	42	0	2523922432	38	6436
2026-01-24 04:17:44.15	294.31	22.33	-33.5	-34.2	27.2	0.00e+00	0	42	0	2529165312	38	6603
2026-01-24 04:17:45.16	294.56	22.28	-33.7	-34.3	27.1	0.00e+00	0	42	0	2535456768	38	6689
2026-01-24 04:17:46.17	294.82	22.23	-33.7	-34.4	27.1	0.00e+00	0	42	0	2540699648	40	5975
2026-01-24 04:17:47.18	295.07	22.18	-33.8	-34.4	26.9	0.00e+00	0	42	0	2546991104	40	6001
2026-01-24 04:17:48.19	295.32	22.13	-33.6	-34.2	27.2	0.00e+00	0	42	0	2552233984	40	5870
2026-01-24 04:17:49.20	295.57	22.07	-33.4	-34.0	27.4	0.00e+00	0	42	0	2557476864	40	5748
2026-01-24 04:17:50.21	295.82	22.02	-33.5	-34.2	27.2	0.00e+00	0	42	0	2563768320	40	5845
2026-01-24 04:17:51.22	296.07	21.97	-33.5	-34.0	27.2	0.00e+00	0	42	0	2569011200	40	5726
2026-01-24 04:17:52.23	296.32	21.91	-33.5	-34.1	27.2	0.00e+00	0	42	0	2575302656	40	5824
2026-01-24 04:17:53.24	296.57	21.86	-33.5	-34.1	27.2	0.00e+00	0	42	0	2580545536	40	5819
2026-01-24 04:17:54.25	296.81	21.80	-33.5	-34.2	27.2	0.00e+00	0	42	0	2585788416	40	5865
2026-01-24 04:17:55.26	297.06	21.75	-33.6	-34.2	27.1	0.00e+00	0	42	0	2592079872	40	5851
2026-01-24 04:17:56.26	297.30	21.69	-33.6	-34.3	27.1	0.00e+00	0	42	0	2597322752	40	5939
2026-01-24 04:17:57.27	297.55	21.63	-33.7	-34.3	27.0	0.00e+00	0	42	0	2603614208	40	5938
2026-01-24 04:17:58.28	297.79	21.58	-33.8	-34.3	27.0	0.00e+00	0	42	0	2608857088	40	5960
2026-01-24 04:17:59.29	298.03	21.52	-33.7	-34.4	27.1	0.00e+00	0	42	0	2615148544	40	6000
2026-01-24 04:18:00.30	298.27	21.46	-33.7	-34.3	27.0	0.00e+00	0	42	0	2620391424	40	5947
2026-01-24 04:18:01.31	298.51	21.40	-33.9	-34.5	26.8	0.00e+00	0	42	0	2625634304	40	6051
2026-01-24 04:18:02.32	298.75	21.35	-33.6	-34.3	27.0	0.00e+00	0	42	0	2631925760	40	5939
2026-01-24 04:18:03.33	298.99	21.29	-33.9	-34.4	26.9	0.00e+00	0	42	0	2637168640	40	6031
2026-01-24 04:18:04.34	299.23	21.23	-33.8	-34.5	26.9	0.00e+00	0	42	0	2643460096	40	6042
2026-01-24 04:18:05.35	299.47	21.17	-33.7	-34.4	26.9	0.00e+00	0	42	0	2648702976	40	5975
2026-01-24 04:18:06.36	299.70	21.11	-33.7	-34.2	27.0	0.00e+00	0	42	0	2653945856	40	5891
2026-01-24 04:18:07.37	299.94	21.05	-33.9	-34.6	26.9	0.00e+00	0	42	0	2660237312	40	6116
2026-01-24 04:18:08.38	300.17	20.99	-34.1	-34.7	26.7	0.00e+00	0	42	0	2665480192	40	6200
2026-01-24 04:18:09.38	300.40	20.93	-33.9	-34.6	26.9	0.00e+00	0	42	0	2671771648	40	6110
2026-01-24 04:18:10.39	300.64	20.87	-33.9	-34.6	26.8	0.00e+00	0	42	0	2677014528	40	6124
2026-01-24 04:18:11.40	300.87	20.81	-33.8	-34.4	26.9	0.00e+00	0	42	0	2682257408	40	6002
2026-01-24 04:18:12.41	301.10	20.74	-33.7	-34.4	27.0	0.00e+00	0	42	0	2688548864	40	5998
2026-01-24 04:18:13.42	301.33	20.68	-33.6	-34.2	27.1	0.00e+00	0	42	0	2693791744	40	5888
2026-01-24 04:18:14.43	301.56	20.62	-33.6	-34.3	27.0	0.00e+00	0	42	0	2700083200	40	5923
2026-01-24 04:18:15.44	301.78	20.56	-33.7	-34.3	27.0	0.00e+00	0	42	0	2705326080	40	5900
2026-01-24 04:18:16.45	302.01	20.50	-33.8	-34.4	26.9	0.00e+00	0	42	0	2711617536	40	5967
2026-01-24 04:18:17.46	302.24	20.43	-33.9	-34.4	26.8	0.00e+00	0	42	0	2716860416	40	6006
2026-01-24 04:18:18.47	302.46	20.37	-34.0	-34.6	26.8	0.00e+00	0	42	0	2723151872	40	6138
2026-01-24 04:18:19.48	302.69	20.31	-34.1	-34.8	26.7	0.00e+00	0	42	0	2728394752	40	6308
2026-01-24 04:18:20.49	302.91	20.24	-34.3	-35.0	26.5	0.00e+00	0	42	0	2733637632	40	6421
2026-01-24 04:18:21.50	303.13	20.18	-34.0	-34.6	26.7	0.00e+00	0	42	0	2739929088	40	6158
2026-01-24 04:18:22.51	303.35	20.11	-34.1	-34.7	26.6	0.00e+00	0	42	0	2745171968	40	6214
2026-01-24 04:18:23.52	303.57	20.05	-34.0	-34.6	26.7	0.00e+00	0	42	0	2751463424	40	6154
2026-01-24 04:18:24.54	303.80	19.98	-34.1	-34.8	26.7	0.00e+00	0	42	0	2756706304	40	6256
2026-01-24 04:18:25.54	304.01	19.92	-33.9	-34.4	26.8	0.00e+00	0	42	0	2761949184	40	6020
2026-01-24 04:18:26.55	304.23	19.85	-34.1	-34.8	26.6	0.00e+00	0	42	0	2768240640	40	6248
2026-01-24 04:18:27.56	304.45	19.79	-34.0	-34.6	26.7	0.00e+00	0	42	0	2773483520	40	6128
2026-01-24 04:18:28.57	304.66	19.72	-34.1	-34.6	26.6	0.00e+00	0	42	0	2779774976	40	6172
2026-01-24 04:18:29.58	304.88	19.65	-34.1	-34.7	26.6	0.00e+00	0	42	0	2785017856	40	6216
2026-01-24 04:18:30.59	305.09	19.59	-34.1	-34.8	26.5	0.00e+00	0	42	0	2790260736	40	6274
2026-01-24 04:18:31.60	305.31	19.52	-34.1	-34.8	26.6	0.00e+00	0	42	0	2796552192	40	6264
2026-01-24 04:18:32.61	305.52	19.45	-34.3	-34.9	26.5	0.00e+00	0	42	0	2801795072	40	6322
2026-01-24 04:18:33.62	305.73	19.39	-34.0	-34.7	26.7	0.00e+00	0	42	0	2808086528	40	6175
2026-01-24 04:18:34.63	305.94	19.32	-34.4	-35.1	26.3	0.00e+00	0	42	0	2813329408	40	6532
2026-01-24 04:18:35.64	306.15	19.25	-34.7	-35.4	26.1	0.00e+00	0	42	0	2819620864	40	6754
2026-01-24 04:18:36.65	306.36	19.19	-34.6	-35.2	26.2	0.00e+00	0	42	0	2824863744	40	6584
2026-01-24 04:18:37.66	306.57	19.12	-34.7	-35.3	26.2	0.00e+00	0	42	0	2830106624	42	5904
2026-01-24 04:18:38.67	306.77	19.05	-34.6	-35.2	26.2	0.00e+00	0	42	0	2836398080	42	5888
2026-01-24 04:18:39.68	306.98	18.98	-34.5	-35.1	26.3	0.00e+00	0	42	0	2841640960	42	5799
2026-01-24 04:18:40.69	307.19	18.91	-34.4	-35.0	26.4	0.00e+00	0	42	0	2847932416	42	5724
2026-01-24 04:18:41.70	307.39	18.85	-34.4	-35.0	26.4	0.00e+00	0	42	0	2853175296	42	5729
2026-01-24 04:18:42.71	307.59	18.78	-34.5	-35.0	26.3	0.00e+00	0	42	0	2858418176	42	5742
2026-01-24 04:18:43.72	307.80	18.71	-34.5	-35.2	26.2	0.00e+00	0	42	0	2864709632	42	5847
2026-01-24 04:18:44.73	308.00	18.64	-34.9	-35.6	26.0	0.00e+00	0	42	0	2869952512	42	6108
2026-01-24 04:18:45.74	308.20	18.57	-34.7	-35.3	26.2	0.00e+00	0	42	0	2876243968	42	5926
2026-01-24 04:18:46.75	308.40	18.50	-34.8	-35.5	26.0	0.00e+00	0	42	0	2881486848	42	6035
2026-01-24 04:18:47.76	308.60	18.43	-34.8	-35.5	25.9	0.00e+00	0	42	0	2886729728	42	6061
2026-01-24 04:18:48.77	308.80	18.36	-34.7	-35.3	26.1	0.00e+00	0	42	0	2893021184	42	5919
2026-01-24 04:18:49.78	308.99	18.29	-34.5	-35.1	26.3	0.00e+00	0	42	0	2898264064	42	5768
2026-01-24 04:18:50.79	309.19	18.22	-34.5	-35.2	26.2	0.00e+00	0	42	0	2904555520	42	5876
2026-01-24 04:18:51.80	309.38	18.15	-34.6	-35.2	26.1	0.00e+00	0	42	0	2909798400	42	5871
2026-01-24 04:18:52.81	309.58	18.08	-34.7	-35.5	25.8	0.00e+00	0	42	0	2916089856	42	6035
2026-01-24 04:18:53.82	309.77	18.01	-34.9	-35.5	25.8	0.00e+00	0	42	0	2921332736	42	6088
2026-01-24 04:18:54.83	309.97	17.94	-34.8	-35.5	25.9	0.00e+00	0	42	0	2927624192	42	6036
2026-01-24 04:18:55.84	310.16	17.87	-34.9	-35.6	25.6	0.00e+00	0	42	0	2932867072	42	6167
2026-01-24 04:18:56.85	310.35	17.80	-34.7	-35.4	26.0	0.00e+00	0	42	0	2938109952	42	6017
2026-01-24 04:18:57.86	310.54	17.73	-34.7	-35.4	25.8	0.00e+00	0	42	0	2944401408	42	5996
2026-01-24 04:18:58.86	310.73	17.66	-34.7	-35.4	25.9	0.00e+00	0	42	0	2949644288	42	6005
2026-01-24 04:18:59.88	310.92	17.59	-34.7	-35.3	25.9	0.00e+00	0	42	0	2955935744	42	5936
2026-01-24 04:19:00.89	311.10	17.52	-34.7	-35.4	25.9	0.00e+00	0	42	0	2961178624	42	6019
2026-01-24 04:19:01.90	311.29	17.45	-34.8	-35.4	25.9	0.00e+00	0	42	0	2966421504	42	5968
2026-01-24 04:19:02.91	311.48	17.38	-34.7	-35.3	26.0	0.00e+00	0	42	0	2972712960	42	5947
2026-01-24 04:19:03.92	311.66	17.31	-35.0	-35.7	25.9	0.00e+00	0	42	0	2977955840	42	6221
2026-01-24 04:19:04.93	311.85	17.24	-35.0	-35.7	25.8	0.00e+00	0	42	0	2984247296	42	6174
2026-01-24 04:19:05.94	312.03	17.17	-35.1	-35.8	25.7	0.00e+00	0	42	0	2989490176	42	6249
2026-01-24 04:19:06.95	312.21	17.10	-34.9	-35.5	25.9	0.00e+00	0	42	0	2994733056	42	6070
2026-01-24 04:19:07.96	312.39	17.02	-35.1	-35.7	25.7	0.00e+00	0	42	0	3001024512	42	6201
2026-01-24 04:19:08.97	312.57	16.95	-34.9	-35.5	25.9	0.00e+00	0	42	0	3006267392	42	6088
2026-01-24 04:19:09.98	312.75	16.88	-34.9	-35.6	25.9	0.00e+00	0	42	0	3012558848	42	6137
2026-01-24 04:19:10.98	312.93	16.81	-34.8	-35.3	26.0	0.00e+00	0	42	0	3017801728	42	5946
2026-01-24 04:19:11.99	313.11	16.74	-34.8	-35.5	25.9	0.00e+00	0	42	0	3024093184	42	6099
2026-01-24 04:19:13.01	313.29	16.67	-34.8	-35.4	26.0	0.00e+00	0	42	0	3029336064	42	5980
2026-01-24 04:19:14.02	313.47	16.60	-35.1	-35.8	25.7	0.00e+00	0	42	0	3034578944	42	6263
2026-01-24 04:19:15.03	313.64	16.52	-35.1	-35.8	25.8	0.00e+00	0	42	0	3040870400	42	6309
2026-01-24 04:19:16.04	313.82	16.45	-35.2	-36.0	25.6	0.00e+00	0	42	0	3046113280	42	6392
2026-01-24 04:19:17.04	313.99	16.38	-35.4	-36.0	25.4	0.00e+00	0	42	0	3052404736	42	6445
2026-01-24 04:19:18.06	314.17	16.31	-35.4	-36.2	25.4	0.00e+00	0	42	0	3057647616	42	6572
2026-01-24 04:19:19.06	314.34	16.24	-35.5	-36.2	25.4	0.00e+00	0	42	0	3063939072	42	6567
2026-01-24 04:19:20.07	314.51	16.17	-35.5	-36.3	25.3	0.00e+00	0	42	0	3069181952	42	6634
2026-01-24 04:19:21.08	314.68	16.10	-35.4	-36.2	25.4	0.00e+00	0	42	0	3074424832	44	5830
2026-01-24 04:19:22.09	314.85	16.02	-35.1	-35.8	25.6	0.00e+00	0	42	0	3080716288	44	5588
2026-01-24 04:19:23.10	315.02	15.95	-35.2	-35.8	25.6	0.00e+00	0	42	0	3085959168	44	5580
2026-01-24 04:19:24.11	315.19	15.88	-35.1	-35.8	25.7	0.00e+00	0	42	0	3091202048	44	5584
2026-01-24 04:19:25.12	315.36	15.81	-35.0	-35.7	25.8	0.00e+00	0	42	0	3097493504	44	5516
2026-01-24 04:19:26.13	315.52	15.74	-35.2	-35.8	25.6	0.00e+00	0	42	0	3102736384	44	5571
2026-01-24 04:19:27.14	315.69	15.66	-35.2	-35.8	25.6	0.00e+00	0	42	0	3109027840	44	5615
2026-01-24 04:19:28.15	315.86	15.59	-35.3	-36.0	25.5	0.00e+00	0	42	0	3114270720	44	5745
2026-01-24 04:19:29.16	316.02	15.52	-35.4	-36.1	25.4	0.00e+00	0	42	0	3120562176	44	5812
2026-01-24 04:19:30.17	316.18	15.45	-35.6	-36.3	25.3	0.00e+00	0	42	0	3125805056	44	5939
2026-01-24 04:19:31.18	316.35	15.38	-35.4	-36.2	25.4	0.00e+00	0	42	0	3131047936	44	5833
2026-01-24 04:19:32.18	316.51	15.31	-35.5	-36.2	25.3	0.00e+00	0	42	0	3137339392	44	5877
2026-01-24 04:19:33.19	316.67	15.23	-35.3	-36.0	25.5	0.00e+00	0	42	0	3142582272	44	5732
2026-01-24 04:19:34.21	316.83	15.16	-35.5	-36.2	25.3	0.00e+00	0	42	0	3148873728	44	5875
2026-01-24 04:19:35.21	316.99	15.09	-35.4	-36.0	25.4	0.00e+00	0	42	0	3154116608	44	5750
2026-01-24 04:19:36.22	317.15	15.02	-35.4	-36.2	25.3	0.00e+00	0	42	0	3160408064	44	5838
2026-01-24 04:19:37.23	317.31	14.95	-35.4	-36.0	25.4	0.00e+00	0	42	0	3165650944	44	5744
2026-01-24 04:19:38.24	317.47	14.87	-35.3	-36.1	25.4	0.00e+00	0	42	0	3170893824	44	5790
2026-01-24 04:19:39.26	317.63	14.80	-35.6	-36.2	25.2	0.00e+00	0	42	0	3177185280	44	5871
2026-01-24 04:19:40.26	317.78	14.73	-35.4	-36.2	25.3	0.00e+00	0	42	0	3182428160	44	5831
2026-01-24 04:19:41.27	317.94	14.66	-35.5	-36.0	25.3	0.00e+00	0	42	0	3188719616	44	5757
2026-01-24 04:19:42.28	318.09	14.59	-35.4	-36.1	25.3	0.00e+00	0	42	0	3193962496	44	5765
2026-01-24 04:19:43.29	318.25	14.52	-36.0	-36.7	25.1	0.00e+00	0	42	0	3199205376	44	6178
2026-01-24 04:19:44.30	318.40	14.44	-35.5	-36.1	25.3	0.00e+00	0	42	0	3205496832	44	5778
2026-01-24 04:19:45.31	318.55	14.37	-35.2	-35.9	25.4	0.00e+00	0	42	0	3210739712	44	5642
2026-01-24 04:19:46.32	318.71	14.30	-35.6	-36.2	25.2	0.00e+00	0	42	0	3217031168	44	5890
2026-01-24 04:19:47.33	318.86	14.23	-35.8	-36.5	25.0	0.00e+00	0	42	0	3222274048	44	6087
2026-01-24 04:19:48.34	319.01	14.16	-35.9	-36.5	24.9	0.00e+00	0	42	0	3227516928	44	6098
2026-01-24 04:19:49.34	319.16	14.09	-35.5	-36.2	25.2	0.00e+00	0	42	0	3233808384	44	5854
2026-01-24 04:19:50.35	319.31	14.01	-35.7	-36.4	25.0	0.00e+00	0	42	0	3239051264	44	6025
2026-01-24 04:19:51.37	319.46	13.94	-35.8	-36.4	25.0	0.00e+00	0	42	0	3245342720	44	6032
2026-01-24 04:19:52.38	319.60	13.87	-35.6	-36.2	25.2	0.00e+00	0	42	0	3250585600	44	5846
2026-01-24 04:19:53.39	319.75	13.80	-35.3	-35.9	25.4	0.00e+00	0	42	0	3256877056	44	5686
2026-01-24 04:19:54.40	319.90	13.73	-35.5	-36.1	25.2	0.00e+00	0	42	0	3262119936	44	5814
2026-01-24 04:19:55.41	320.04	13.66	-35.6	-36.2	25.1	0.00e+00	0	42	0	3267362816	44	5861
2026-01-24 04:19:56.42	320.19	13.59	-35.5	-36.1	25.2	0.00e+00	0	42	0	3273654272	44	5823
2026-01-24 04:19:57.43	320.33	13.51	-35.6	-36.3	25.0	0.00e+00	0	42	0	3278897152	44	5945
2026-01-24 04:19:58.44	320.48	13.44	-35.7	-36.3	25.1	0.00e+00	0	42	0	3285188608	44	5917
2026-01-24 04:19:59.45	320.62	13.37	-35.6	-36.2	25.1	0.00e+00	0	42	0	3290431488	44	5852
2026-01-24 04:20:00.46	320.76	13.30	-35.7	-36.5	25.1	0.00e+00	0	42	0	3295674368	44	6062
2026-01-24 04:20:01.47	320.91	13.23	-35.8	-36.4	24.9	0.00e+00	0	42	0	3301965824	44	6024
2026-01-24 04:20:02.47	321.05	13.16	-36.0	-36.7	24.7	0.00e+00	0	42	0	3307208704	44	6179
2026-01-24 04:20:03.48	321.19	13.09	-36.1	-36.8	24.6	0.00e+00	0	42	0	3313500160	44	6281
2026-01-24 04:20:04.49	321.33	13.02	-35.8	-36.4	24.9	0.00e+00	0	42	0	3318743040	44	6015
2026-01-24 04:20:05.50	321.47	12.95	-36.2	-36.9	24.5	0.00e+00	0	42	0	3323985920	44	6380
2026-01-24 04:20:06.51	321.60	12.88	-36.0	-36.7	24.7	0.00e+00	0	42	0	3330277376	44	6177
2026-01-24 04:20:07.52	321.74	12.81	-36.0	-36.6	24.7	0.00e+00	0	42	0	3335520256	44	6152
2026-01-24 04:20:08.53	321.88	12.73	-35.9	-36.5	24.8	0.00e+00	0	42	0	3341811712	44	6096
2026-01-24 04:20:09.54	322.02	12.66	-36.3	-37.0	24.4	0.00e+00	0	42	0	3347054592	44	6397
2026-01-24 04:20:10.55	322.15	12.59	-36.5	-37.3	24.2	0.00e+00	0	42	0	3353346048	44	6644
2026-01-24 04:20:11.56	322.29	12.52	-36.3	-36.9	24.6	0.00e+00	0	41	0	3358588928	44	6372
2026-01-24 04:20:12.57	322.42	12.45	-36.1	-36.9	24.6	0.00e+00	0	42	0	3364880384	44	6339
2026-01-24 04:20:13.58	322.56	12.38	-36.1	-36.8	24.6	0.00e+00	0	42	0	3370123264	44	6277
2026-01-24 04:20:14.59	322.69	12.31	-36.5	-37.3	24.3	0.00e+00	0	42	0	3375366144	44	6654
2026-01-24 04:20:15.60	322.82	12.24	-36.4	-37.0	24.3	0.00e+00	0	42	0	3381657600	44	6416
2026-01-24 04:20:16.61	322.96	12.17	-36.0	-36.7	24.7	0.00e+00	0	42	0	3386900480	44	6195
2026-01-24 04:20:17.62	323.09	12.10	-36.2	-36.9	24.5	0.00e+00	0	42	0	3393191936	44	6374
2026-01-24 04:20:18.63	323.22	12.03	-36.4	-37.1	24.3	0.00e+00	0	42	0	3398434816	44	6518
2026-01-24 04:20:19.64	323.35	11.96	-36.6	-37.3	24.1	0.00e+00	0	42	0	3403677696	44	6640
2026-01-24 04:20:20.65	323.48	11.89	-36.4	-37.2	24.3	0.00e+00	0	42	0	3409969152	44	6555
2026-01-24 04:20:21.66	323.61	11.82	-36.2	-36.9	24.4	0.00e+00	0	42	0	3415212032	44	6379
2026-01-24 04:20:22.67	323.74	11.75	-36.6	-37.2	24.1	0.00e+00	0	42	0	3421503488	44	6599
2026-01-24 04:20:23.68	323.87	11.68	-36.5	-37.3	24.2	0.00e+00	0	42	0	3426746368	44	6623
2026-01-24 04:20:24.69	324.00	11.61	-36.6	-37.3	24.1	0.00e+00	0	41	0	3431989248	44	6628
2026-01-24 04:20:25.70	324.12	11.54	-36.4	-37.2	24.2	0.00e+00	0	42	0	3438280704	44	6571
2026-01-24 04:20:26.71	324.25	11.47	-36.6	-37.3	24.1	0.00e+00	0	41	0	3443523584	44	6692
2026-01-24 04:20:27.72	324.38	11.40	-36.5	-37.3	24.3	0.00e+00	0	41	0	3449815040	44	6654
2026-01-24 04:20:28.73	324.50	11.34	-36.3	-37.0	24.4	0.00e+00	0	41	0	3455057920	44	6401
2026-01-24 04:20:29.74	324.63	11.27	-36.4	-37.2	24.2	0.00e+00	0	41	0	3461349376	44	6568
2026-01-24 04:20:30.75	324.75	11.20	-36.6	-37.2	24.1	0.00e+00	0	41	0	3466592256	44	6570
2026-01-24 04:20:31.76	324.87	11.13	-36.3	-37.0	24.4	0.00e+00	0	41	0	3471835136	46	5760
2026-01-24 04:20:32.77	325.00	11.06	-36.1	-36.7	24.6	0.00e+00	0	41	0	3478126592	46	5523
2026-01-24 04:20:33.79	325.12	10.99	-36.3	-36.9	24.4	0.00e+00	0	41	0	3483369472	46	5669
2026-01-24 04:20:34.80	325.24	10.92	-36.9	-37.7	23.8	0.00e+00	0	41	0	3489660928	46	6191
2026-01-24 04:20:35.81	325.36	10.85	-36.9	-37.7	23.9	0.00e+00	0	41	0	3494903808	46	6225
2026-01-24 04:20:36.82	325.48	10.78	-36.6	-37.2	24.2	0.00e+00	0	41	0	3501195264	46	5851
2026-01-24 04:20:37.83	325.61	10.71	-36.7	-37.3	24.1	0.00e+00	0	41	0	3506438144	46	5941
2026-01-24 04:20:38.84	325.73	10.65	-36.8	-37.5	23.9	0.00e+00	0	41	0	3511681024	46	6051
2026-01-24 04:20:39.85	325.84	10.58	-36.9	-37.5	23.7	0.00e+00	0	41	0	3517972480	46	6088
2026-01-24 04:20:40.86	325.96	10.51	-37.3	-37.9	23.4	0.00e+00	0	41	0	3523215360	46	6387
2026-01-24 04:20:41.87	326.08	10.44	-37.1	-37.8	23.6	0.00e+00	0	41	0	3529506816	46	6258
2026-01-24 04:20:42.88	326.20	10.37	-37.1	-37.8	23.6	0.00e+00	0	41	0	3534749696	46	6299
2026-01-24 04:20:43.89	326.32	10.31	-37.3	-37.9	23.4	0.00e+00	0	41	0	3539992576	46	6389
2026-01-24 04:20:44.90	326.43	10.24	-36.7	-37.3	24.0	0.00e+00	0	41	0	3546284032	46	5935
2026-01-24 04:20:45.91	326.55	10.17	-37.0	-37.6	23.7	0.00e+00	0	42	0	3551526912	46	6161
2026-01-24 04:20:46.92	326.66	10.10	-37.4	-38.1	23.3	0.00e+00	0	41	0	3557818368	46	6474
2026-01-24 04:20:47.93	326.78	10.03	-36.9	-37.6	23.7	0.00e+00	0	41	0	3563061248	46	6159
2026-01-24 04:20:48.94	326.89	9.97	-36.9	-37.7	23.9	0.00e+00	0	41	0	3569352704	46	6191
2026-01-24 04:20:49.95	327.01	9.90	-36.7	-37.3	24.0	0.00e+00	0	41	0	3574595584	46	5951
