passes_logs/2026/01/24/R4.6S_Anadyr/R4.6S_Anadyr__20260124_230147_NOAA_21_JPSS-2_rec.log

#Pass ID: 20260124_230147_NOAA 21 (JPSS-2)
#Satellite: NOAA 21 (JPSS-2)
#Configuration: NOAA-21
#almurnet v.1.7.20251203
#Start time: 2026-01-24 23:01:52

#Version: 2.2.20231116
#Station: R4.6S_Anadyr
#Location: 177.4865 lon 64.73178 lat
#TLE: 1 54234U 22150A   26024.45772595  .00000201  00000+0  11607-3 0  9996
#TLE: 2 54234  98.7508 325.2435 0000728 220.7365 139.3757 14.19538765166156

#Time	Az	El	Level	Level2	SNR	BER	BlckErr	Temp	State	Recorded	gain1	gain2
2026-01-24 23:01:52.84	127.09	0.31	-51.5	-53.2	5.7	0.00e+00	0	39	0	0	60	55801
2026-01-24 23:01:53.84	127.06	0.37	-52.2	-65.0	3.5	1.52e+00	0	41	104	0	60	62602
2026-01-24 23:01:54.85	127.03	0.43	-52.1	-64.9	3.5	1.52e+00	0	41	104	0	60	61492
2026-01-24 23:01:55.86	127.00	0.49	-52.0	-64.9	3.5	1.52e+00	0	41	104	0	60	61871
2026-01-24 23:01:56.87	126.97	0.55	-52.0	-64.8	3.5	1.52e+00	0	41	104	0	60	60995
2026-01-24 23:01:57.88	126.94	0.61	-52.0	-64.8	3.5	1.52e+00	0	41	104	0	60	60669
2026-01-24 23:01:58.89	126.91	0.67	-52.0	-64.8	3.5	1.52e+00	0	41	104	0	60	60746
2026-01-24 23:01:59.90	126.88	0.73	-51.8	-64.6	3.5	1.52e+00	0	41	104	0	60	59473
2026-01-24 23:02:00.91	126.85	0.79	-51.7	-64.5	3.5	1.52e+00	0	41	104	0	60	58917
2026-01-24 23:02:01.92	126.82	0.85	-52.1	-64.9	3.5	1.52e+00	0	41	104	0	60	61557
2026-01-24 23:02:02.93	126.79	0.91	-52.0	-64.8	3.5	1.52e+00	0	41	104	0	60	61028
2026-01-24 23:02:03.94	126.76	0.97	-52.0	-64.9	3.5	1.52e+00	0	41	104	0	60	61481
2026-01-24 23:02:04.95	126.73	1.03	-52.1	-64.9	3.5	1.51e+00	0	41	104	0	60	61381
2026-01-24 23:02:05.96	126.69	1.09	-51.9	-64.8	3.5	1.52e+00	0	41	104	0	60	61056
2026-01-24 23:02:06.97	126.66	1.15	-51.8	-64.6	3.5	1.52e+00	0	41	104	0	60	59773
2026-01-24 23:02:07.98	126.63	1.22	-51.9	-64.7	3.5	1.52e+00	0	41	104	0	60	60280
2026-01-24 23:02:08.99	126.60	1.28	-52.2	-65.0	3.5	1.52e+00	0	41	104	0	60	62553
2026-01-24 23:02:10.00	126.57	1.34	-52.0	-64.9	3.5	1.52e+00	0	41	104	0	60	61515
2026-01-24 23:02:11.01	126.54	1.40	-51.8	-64.7	3.5	1.51e+00	0	41	104	0	60	60013
2026-01-24 23:02:12.02	126.51	1.46	-51.7	-64.6	3.5	1.52e+00	0	41	104	0	60	59406
2026-01-24 23:02:13.03	126.47	1.52	-52.0	-64.9	3.5	1.52e+00	0	41	104	0	60	61409
2026-01-24 23:02:14.04	126.44	1.59	-51.8	-64.6	3.5	1.52e+00	0	41	104	0	60	59583
2026-01-24 23:02:15.05	126.41	1.65	-51.9	-64.7	3.5	1.52e+00	0	41	104	0	60	60181
2026-01-24 23:02:16.06	126.38	1.71	-51.7	-64.5	3.5	1.52e+00	0	41	104	0	60	58900
2026-01-24 23:02:17.07	126.34	1.77	-51.6	-64.5	3.5	1.52e+00	0	41	104	0	60	58651
2026-01-24 23:02:18.08	126.31	1.84	-51.9	-64.7	3.5	1.52e+00	0	41	104	0	60	60249
2026-01-24 23:02:19.09	126.28	1.90	-51.7	-64.5	3.5	1.52e+00	0	41	104	0	60	59235
2026-01-24 23:02:20.10	126.25	1.96	-51.8	-64.6	3.5	1.51e+00	0	41	104	0	60	59751
2026-01-24 23:02:21.11	126.21	2.02	-51.7	-64.5	3.5	1.52e+00	0	41	104	0	60	58928
2026-01-24 23:02:22.12	126.18	2.09	-51.8	-64.6	3.5	1.52e+00	0	41	104	0	60	59490
2026-01-24 23:02:23.13	126.15	2.15	-51.7	-64.5	3.5	1.52e+00	0	41	104	0	60	59183
2026-01-24 23:02:24.14	126.11	2.21	-51.8	-64.6	3.5	1.52e+00	0	41	104	0	60	59556
2026-01-24 23:02:25.15	126.08	2.28	-51.7	-64.6	3.5	1.51e+00	0	41	104	0	60	59374
2026-01-24 23:02:26.16	126.04	2.34	-51.8	-64.6	3.5	1.52e+00	0	41	104	0	60	59814
2026-01-24 23:02:27.17	126.01	2.40	-51.9	-64.7	3.5	1.52e+00	0	41	104	0	60	60350
2026-01-24 23:02:28.18	125.98	2.47	-51.7	-64.6	3.5	1.52e+00	0	41	104	0	60	59316
2026-01-24 23:02:29.19	125.94	2.53	-51.6	-64.5	3.5	1.52e+00	0	41	104	0	60	58767
2026-01-24 23:02:30.20	125.91	2.60	-51.6	-64.4	3.5	1.52e+00	0	41	104	0	60	58121
2026-01-24 23:02:31.21	125.87	2.66	-51.5	-64.3	3.5	1.52e+00	0	41	104	0	60	57298
2026-01-24 23:02:32.22	125.84	2.73	-51.5	-64.3	3.5	1.52e+00	0	41	104	0	60	57770
2026-01-24 23:02:33.23	125.80	2.79	-51.5	-64.3	3.5	1.52e+00	0	41	104	0	60	57551
2026-01-24 23:02:34.24	125.77	2.85	-51.5	-64.3	3.5	1.52e+00	0	41	104	0	60	57507
2026-01-24 23:02:35.25	125.73	2.92	-51.5	-64.4	3.5	1.52e+00	0	41	104	0	60	57963
2026-01-24 23:02:36.26	125.70	2.98	-51.5	-64.3	3.5	1.52e+00	0	41	104	0	60	57439
2026-01-24 23:02:37.27	125.66	3.05	-51.4	-64.2	3.5	1.52e+00	0	41	104	0	60	56909
2026-01-24 23:02:38.28	125.62	3.11	-51.6	-64.4	3.5	1.52e+00	0	41	104	0	60	58363
2026-01-24 23:02:39.29	125.59	3.18	-51.5	-64.3	3.5	1.51e+00	0	41	104	0	60	57492
2026-01-24 23:02:40.30	125.55	3.25	-51.5	-64.3	3.5	1.52e+00	0	41	104	0	60	57381
2026-01-24 23:02:41.31	125.52	3.31	-51.6	-64.4	3.5	1.52e+00	0	41	104	0	60	58125
2026-01-24 23:02:42.32	125.48	3.38	-51.4	-64.3	3.5	1.52e+00	0	41	104	0	60	57406
2026-01-24 23:02:43.33	125.44	3.44	-51.4	-64.2	3.5	1.51e+00	0	41	104	0	60	57105
2026-01-24 23:02:44.34	125.41	3.51	-51.7	-64.5	3.5	1.52e+00	0	41	104	0	60	58917
2026-01-24 23:02:45.35	125.37	3.58	-51.5	-64.3	3.5	1.52e+00	0	41	104	0	60	57698
2026-01-24 23:02:46.36	125.33	3.64	-51.5	-64.4	3.5	1.52e+00	0	41	104	0	60	57934
2026-01-24 23:02:47.37	125.29	3.71	-51.5	-64.3	3.5	1.52e+00	0	42	104	0	60	57691
2026-01-24 23:02:48.38	125.26	3.78	-51.6	-64.4	3.5	1.52e+00	0	41	104	0	60	58262
2026-01-24 23:02:49.39	125.22	3.84	-51.5	-64.3	3.5	1.52e+00	0	41	104	0	60	57441
2026-01-24 23:02:50.40	125.18	3.91	-51.6	-64.4	3.5	1.52e+00	0	42	104	0	60	58195
2026-01-24 23:02:51.41	125.14	3.98	-51.4	-64.3	3.5	1.52e+00	0	42	104	0	60	57404
2026-01-24 23:02:52.42	125.10	4.04	-51.5	-64.3	3.5	1.52e+00	0	42	104	0	60	57797
2026-01-24 23:02:53.43	125.06	4.11	-51.3	-64.1	3.5	1.52e+00	0	42	104	0	60	56254
2026-01-24 23:02:54.44	125.03	4.18	-51.3	-64.2	3.5	1.51e+00	0	42	104	0	60	56889
2026-01-24 23:02:55.45	124.99	4.25	-51.3	-64.1	3.5	1.52e+00	0	42	104	0	60	56517
2026-01-24 23:02:56.46	124.95	4.31	-51.4	-64.2	3.5	1.52e+00	0	42	104	0	60	56920
2026-01-24 23:02:57.47	124.91	4.38	-51.2	-64.0	3.5	1.52e+00	0	42	104	0	60	55828
2026-01-24 23:02:58.48	124.87	4.45	-51.3	-64.1	3.5	1.52e+00	0	42	104	0	60	56209
2026-01-24 23:02:59.49	124.83	4.52	-51.3	-64.1	3.5	1.52e+00	0	42	104	0	60	56143
2026-01-24 23:03:00.50	124.79	4.59	-51.3	-64.1	3.5	1.51e+00	0	42	104	0	60	56428
2026-01-24 23:03:01.51	124.75	4.66	-51.3	-64.1	3.5	1.51e+00	0	42	104	0	60	56480
2026-01-24 23:03:02.51	124.71	4.72	-51.3	-64.1	3.5	1.52e+00	0	41	104	0	60	56570
2026-01-24 23:03:03.52	124.67	4.79	-51.3	-64.2	3.5	1.52e+00	0	42	104	0	60	56622
2026-01-24 23:03:04.53	124.63	4.86	-51.5	-64.3	3.5	1.52e+00	0	41	104	0	60	57616
2026-01-24 23:03:05.54	124.58	4.93	-51.3	-64.2	3.5	1.52e+00	0	42	104	0	60	56889
2026-01-24 23:03:06.55	124.54	5.00	-51.4	-64.2	3.5	1.52e+00	0	42	104	0	60	57237
2026-01-24 23:03:07.56	124.50	5.07	-51.4	-64.2	3.5	1.52e+00	0	42	104	0	60	57099
2026-01-24 23:03:08.57	124.46	5.14	-51.4	-64.2	3.5	1.52e+00	0	42	104	0	60	57196
2026-01-24 23:03:09.58	124.42	5.21	-51.3	-64.1	3.5	1.52e+00	0	42	104	0	60	56142
2026-01-24 23:03:10.59	124.38	5.28	-51.3	-64.2	3.5	1.51e+00	0	42	104	0	60	56792
2026-01-24 23:03:11.60	124.33	5.35	-51.3	-64.2	3.5	1.52e+00	0	42	104	0	60	56624
2026-01-24 23:03:12.61	124.29	5.42	-51.4	-64.2	3.5	1.52e+00	0	42	104	0	60	57152
2026-01-24 23:03:13.62	124.25	5.49	-51.4	-64.3	3.5	1.52e+00	0	42	104	0	60	57482
2026-01-24 23:03:14.63	124.21	5.56	-51.3	-64.1	3.5	1.52e+00	0	42	104	0	60	56550
2026-01-24 23:03:15.64	124.16	5.64	-51.4	-64.2	3.5	1.52e+00	0	42	104	0	60	56845
2026-01-24 23:03:16.65	124.12	5.71	-51.3	-64.1	3.5	1.52e+00	0	42	104	0	60	56475
2026-01-24 23:03:17.66	124.08	5.78	-51.3	-64.2	3.5	1.52e+00	0	42	104	0	60	56641
2026-01-24 23:03:18.67	124.03	5.85	-51.3	-64.1	3.5	1.52e+00	0	42	104	0	60	56295
2026-01-24 23:03:19.68	123.99	5.92	-51.3	-64.2	3.5	1.52e+00	0	42	104	0	60	56655
2026-01-24 23:03:20.69	123.94	5.99	-51.3	-64.1	3.5	1.52e+00	0	42	104	0	60	56467
2026-01-24 23:03:21.70	123.90	6.07	-51.3	-64.1	3.5	1.52e+00	0	42	104	0	60	56483
2026-01-24 23:03:22.71	123.85	6.14	-51.3	-64.1	3.5	1.52e+00	0	42	104	0	60	56242
2026-01-24 23:03:23.72	123.81	6.21	-51.2	-64.1	3.5	1.52e+00	0	42	104	0	60	55978
2026-01-24 23:03:24.73	123.76	6.28	-51.2	-64.0	3.5	1.52e+00	0	42	104	0	60	55944
2026-01-24 23:03:25.74	123.72	6.36	-51.2	-64.1	3.5	1.52e+00	0	42	104	0	60	56201
2026-01-24 23:03:26.75	123.67	6.43	-51.2	-64.1	3.5	1.52e+00	0	42	104	0	60	56039
2026-01-24 23:03:27.76	123.63	6.50	-51.2	-64.1	3.5	1.52e+00	0	42	104	0	60	56287
2026-01-24 23:03:28.77	123.58	6.58	-51.2	-64.0	3.5	1.52e+00	0	42	104	0	60	55738
2026-01-24 23:03:29.78	123.53	6.65	-51.2	-64.0	3.5	1.52e+00	0	42	104	0	60	55809
2026-01-24 23:03:30.79	123.49	6.72	-51.2	-64.0	3.5	1.52e+00	0	42	104	0	60	55792
2026-01-24 23:03:31.80	123.44	6.80	-51.2	-64.0	3.5	1.52e+00	0	42	104	0	60	55946
2026-01-24 23:03:32.81	123.39	6.87	-51.2	-64.0	3.5	1.52e+00	0	42	104	0	60	55565
2026-01-24 23:03:33.82	123.34	6.95	-51.2	-64.1	3.5	1.52e+00	0	42	104	0	60	55973
2026-01-24 23:03:34.83	123.30	7.02	-51.2	-64.1	3.5	1.52e+00	0	42	104	0	60	56134
2026-01-24 23:03:35.84	123.25	7.10	-51.2	-64.0	3.5	1.52e+00	0	42	104	0	60	55747
2026-01-24 23:03:36.85	123.20	7.17	-51.2	-64.0	3.5	1.51e+00	0	42	104	0	60	55853
2026-01-24 23:03:37.86	123.15	7.25	-51.2	-64.0	3.5	1.52e+00	0	42	104	0	60	55639
2026-01-24 23:03:38.87	123.10	7.32	-51.2	-64.1	3.5	1.52e+00	0	42	104	0	60	55967
2026-01-24 23:03:39.88	123.05	7.40	-51.2	-64.0	3.5	1.52e+00	0	42	104	0	60	55886
2026-01-24 23:03:40.89	123.00	7.47	-51.2	-64.0	3.5	1.52e+00	0	42	104	0	60	55546
2026-01-24 23:03:41.90	122.95	7.55	-51.2	-64.0	3.5	1.52e+00	0	42	104	0	60	55496
2026-01-24 23:03:42.90	122.90	7.62	-51.2	-64.0	3.5	1.51e+00	0	42	104	0	60	55482
2026-01-24 23:03:43.92	122.85	7.70	-51.2	-64.0	3.5	1.52e+00	0	42	104	0	60	55657
2026-01-24 23:03:44.93	122.80	7.78	-51.2	-64.0	3.5	1.52e+00	0	42	104	0	60	55946
2026-01-24 23:03:45.93	122.75	7.85	-51.2	-64.0	3.5	1.52e+00	0	42	104	0	60	55877
2026-01-24 23:03:46.95	122.70	7.93	-51.2	-64.0	3.5	1.52e+00	0	42	104	0	60	55928
2026-01-24 23:03:47.96	122.65	8.01	-51.2	-64.1	3.5	1.52e+00	0	42	104	0	60	55976
2026-01-24 23:03:48.97	122.60	8.09	-51.2	-64.1	3.5	1.52e+00	0	42	104	0	60	56094
2026-01-24 23:03:49.98	122.55	8.17	-51.2	-64.0	3.5	1.52e+00	0	42	104	0	60	55903
2026-01-24 23:03:50.99	122.49	8.24	-51.2	-64.0	3.5	1.52e+00	0	42	104	0	60	55864
2026-01-24 23:03:52.00	122.44	8.32	-51.2	-64.1	3.5	1.52e+00	0	42	104	0	60	56069
2026-01-24 23:03:53.01	122.39	8.40	-51.3	-64.1	3.5	1.52e+00	0	42	104	0	60	56102
2026-01-24 23:03:54.02	122.34	8.48	-51.2	-64.1	3.5	1.51e+00	0	42	104	0	60	56031
2026-01-24 23:03:55.03	122.28	8.56	-51.2	-64.1	3.5	1.52e+00	0	42	104	0	60	56052
2026-01-24 23:03:56.04	122.23	8.64	-51.3	-64.1	3.5	1.52e+00	0	42	104	0	60	56506
2026-01-24 23:03:57.05	122.17	8.72	-51.3	-64.2	3.5	1.52e+00	0	42	104	0	60	56602
2026-01-24 23:03:58.06	122.12	8.80	-51.3	-64.1	3.5	1.52e+00	0	42	104	0	60	56189
2026-01-24 23:03:59.07	122.07	8.87	-51.2	-64.0	3.5	1.52e+00	0	42	104	0	60	55942
2026-01-24 23:04:00.08	122.01	8.95	-51.2	-64.0	3.5	1.52e+00	0	42	104	0	60	55491
2026-01-24 23:04:01.09	121.96	9.03	-51.2	-64.0	3.5	1.52e+00	0	42	104	0	60	55632
2026-01-24 23:04:02.10	121.90	9.12	-51.2	-64.1	3.5	1.52e+00	0	42	104	0	60	55960
2026-01-24 23:04:03.11	121.84	9.20	-51.2	-64.0	3.5	1.52e+00	0	42	104	0	60	55843
2026-01-24 23:04:04.12	121.79	9.28	-51.2	-64.0	3.5	1.51e+00	0	42	104	0	60	55774
2026-01-24 23:04:05.13	121.73	9.36	-51.2	-64.0	3.5	1.52e+00	0	42	104	0	60	55803
2026-01-24 23:04:06.14	121.67	9.44	-51.2	-64.0	3.5	1.52e+00	0	42	104	0	60	55663
2026-01-24 23:04:07.15	121.62	9.52	-51.2	-64.0	3.5	1.52e+00	0	42	104	0	60	55539
2026-01-24 23:04:08.16	121.56	9.60	-51.2	-64.0	3.5	1.52e+00	0	42	104	0	60	55638
2026-01-24 23:04:09.17	121.50	9.68	-51.2	-64.1	3.5	1.52e+00	0	42	104	0	60	56039
2026-01-24 23:04:10.18	121.44	9.77	-51.2	-64.1	3.5	1.52e+00	0	42	104	0	60	55979
2026-01-24 23:04:11.19	121.38	9.85	-51.2	-64.0	3.5	1.51e+00	0	42	104	0	60	55805
2026-01-24 23:04:12.20	121.32	9.93	-51.2	-64.0	3.5	1.52e+00	0	42	104	0	60	55609
2026-01-24 23:04:13.21	121.27	10.02	-51.2	-64.0	3.5	1.52e+00	0	42	104	0	60	55883
2026-01-24 23:04:14.22	121.21	10.10	-51.2	-64.0	3.5	1.52e+00	0	42	104	0	60	55816
2026-01-24 23:04:15.23	121.15	10.18	-51.3	-64.1	3.5	1.51e+00	0	42	104	0	60	56533
2026-01-24 23:04:16.23	121.09	10.27	-51.2	-64.0	3.5	1.52e+00	0	42	104	0	60	55716
2026-01-24 23:04:17.25	121.02	10.35	-51.3	-64.2	3.5	1.52e+00	0	42	104	0	60	56672
2026-01-24 23:04:18.26	120.96	10.43	-51.2	-64.0	3.5	1.52e+00	0	42	104	0	60	55854
2026-01-24 23:04:19.26	120.90	10.52	-51.2	-64.1	3.5	1.52e+00	0	42	104	0	60	56207
2026-01-24 23:04:20.27	120.84	10.60	-51.2	-64.0	3.5	1.52e+00	0	42	104	0	60	55888
2026-01-24 23:04:21.28	120.78	10.69	-51.2	-64.0	3.5	1.52e+00	0	42	104	0	60	55948
2026-01-24 23:04:22.29	120.72	10.77	-51.2	-64.1	3.5	1.52e+00	0	42	104	0	60	56121
2026-01-24 23:04:23.30	120.65	10.86	-51.2	-64.0	3.5	1.51e+00	0	42	104	0	60	55513
2026-01-24 23:04:24.31	120.59	10.94	-51.2	-64.0	3.5	1.52e+00	0	42	104	0	60	55798
2026-01-24 23:04:25.32	120.53	11.03	-51.2	-64.0	3.5	1.52e+00	0	42	104	0	60	55705
2026-01-24 23:04:26.34	120.46	11.12	-51.2	-64.0	3.5	1.52e+00	0	42	104	0	60	55754
2026-01-24 23:04:27.35	120.40	11.20	-51.2	-64.0	3.5	1.51e+00	0	42	104	0	60	55833
2026-01-24 23:04:28.36	120.33	11.29	-51.2	-64.0	3.5	1.52e+00	0	42	104	0	60	55631
2026-01-24 23:04:29.36	120.27	11.38	-51.2	-64.0	3.5	1.52e+00	0	42	104	0	60	55609
2026-01-24 23:04:30.37	120.20	11.47	-51.1	-64.0	3.5	1.52e+00	0	42	104	0	60	55668
2026-01-24 23:04:31.38	120.13	11.55	-51.2	-64.0	3.5	1.52e+00	0	42	104	0	60	55444
2026-01-24 23:04:32.39	120.07	11.64	-51.2	-64.0	3.5	1.51e+00	0	42	104	0	60	55613
2026-01-24 23:04:33.41	120.00	11.73	-51.2	-64.0	3.5	1.52e+00	0	42	104	0	60	55317
2026-01-24 23:04:34.41	119.93	11.82	-51.2	-64.0	3.5	1.52e+00	0	42	104	0	60	55520
2026-01-24 23:04:35.43	119.86	11.91	-51.2	-64.0	3.5	1.52e+00	0	42	104	0	60	55702
2026-01-24 23:04:36.43	119.80	12.00	-51.2	-64.0	3.5	1.51e+00	0	42	104	0	60	55650
2026-01-24 23:04:37.44	119.73	12.09	-51.2	-64.0	3.5	1.52e+00	0	42	104	0	60	55712
2026-01-24 23:04:38.46	119.66	12.18	-51.1	-64.0	3.5	1.51e+00	0	42	104	0	60	55315
2026-01-24 23:04:39.46	119.59	12.27	-51.1	-64.0	3.5	1.52e+00	0	42	104	0	60	55689
2026-01-24 23:04:40.48	119.52	12.36	-51.2	-64.0	3.5	1.52e+00	0	42	104	0	60	55550
2026-01-24 23:04:41.49	119.45	12.45	-51.2	-64.0	3.5	1.52e+00	0	42	104	0	60	55897
2026-01-24 23:04:42.50	119.38	12.54	-51.2	-64.0	3.5	1.52e+00	0	42	104	0	60	55783
2026-01-24 23:04:43.51	119.30	12.63	-51.2	-64.0	3.5	1.52e+00	0	42	104	0	60	55647
2026-01-24 23:04:44.52	119.23	12.72	-51.2	-64.0	3.5	1.52e+00	0	42	104	0	60	55327
2026-01-24 23:04:45.53	119.16	12.81	-51.2	-63.9	3.5	1.52e+00	0	42	104	0	60	55278
2026-01-24 23:04:46.54	119.09	12.90	-51.2	-64.0	3.5	1.52e+00	0	42	104	0	60	55804
2026-01-24 23:04:47.55	119.01	13.00	-51.1	-63.9	3.5	1.52e+00	0	42	104	0	60	55121
2026-01-24 23:04:48.56	118.94	13.09	-51.2	-64.0	3.5	1.52e+00	0	42	104	0	60	55518
2026-01-24 23:04:49.57	118.87	13.18	-51.1	-64.0	3.5	1.51e+00	0	42	104	0	60	55486
2026-01-24 23:04:50.58	118.79	13.28	-51.2	-64.0	3.5	1.52e+00	0	42	104	0	60	55860
2026-01-24 23:04:51.59	118.72	13.37	-51.2	-64.0	3.5	1.52e+00	0	42	104	0	60	55683
2026-01-24 23:04:52.60	118.64	13.46	-51.2	-64.0	3.5	1.52e+00	0	42	104	0	60	55533
2026-01-24 23:04:53.61	118.56	13.56	-51.2	-64.0	3.5	1.51e+00	0	42	104	0	60	55439
2026-01-24 23:04:54.62	118.49	13.65	-51.2	-64.0	3.5	1.52e+00	0	42	104	0	60	55558
2026-01-24 23:04:55.63	118.41	13.75	-51.2	-64.0	3.5	1.52e+00	0	42	104	0	60	55559
2026-01-24 23:04:56.65	118.33	13.84	-51.2	-64.0	3.5	1.52e+00	0	42	104	0	60	55668
2026-01-24 23:04:57.66	118.25	13.94	-51.2	-63.9	3.5	1.52e+00	0	42	104	0	60	55302
2026-01-24 23:04:58.67	118.17	14.03	-51.2	-63.9	3.5	1.51e+00	0	42	104	0	60	55278
2026-01-24 23:04:59.67	118.10	14.13	-51.2	-63.9	3.5	1.51e+00	0	42	104	0	60	55187
2026-01-24 23:05:00.68	118.02	14.23	-51.1	-63.9	3.5	1.52e+00	0	42	104	0	60	55244
2026-01-24 23:05:01.69	117.94	14.32	-51.1	-64.0	3.5	1.52e+00	0	42	104	0	60	55435
2026-01-24 23:05:02.71	117.85	14.42	-51.1	-64.0	3.5	1.52e+00	0	42	104	0	60	55403
2026-01-24 23:05:03.71	117.77	14.52	-51.2	-64.0	3.5	1.52e+00	0	42	104	0	60	55590
2026-01-24 23:05:04.72	117.69	14.61	-51.2	-64.0	3.5	1.52e+00	0	42	104	0	60	55528
2026-01-24 23:05:05.73	117.61	14.71	-51.2	-64.0	3.5	1.52e+00	0	42	104	0	60	55427
2026-01-24 23:05:06.74	117.53	14.81	-51.1	-64.0	3.5	1.51e+00	0	42	104	0	60	55415
2026-01-24 23:05:07.75	117.44	14.91	-51.1	-64.0	3.5	1.52e+00	0	42	104	0	60	55576
2026-01-24 23:05:08.76	117.36	15.01	-51.1	-64.0	3.5	1.52e+00	0	42	104	0	60	55326
2026-01-24 23:05:09.77	117.27	15.11	-51.1	-63.9	3.5	1.52e+00	0	42	104	0	60	55008
2026-01-24 23:05:10.78	117.19	15.21	-51.1	-63.9	3.5	1.52e+00	0	42	104	0	60	55142
2026-01-24 23:05:11.79	117.10	15.31	-51.2	-64.0	3.5	1.51e+00	0	42	104	0	60	55697
2026-01-24 23:05:12.80	117.01	15.41	-51.2	-63.9	3.5	1.52e+00	0	42	104	0	60	55286
2026-01-24 23:05:13.81	116.93	15.51	-51.2	-63.9	3.5	1.52e+00	0	42	104	0	60	55211
2026-01-24 23:05:14.82	116.84	15.61	-51.1	-64.0	3.5	1.52e+00	0	42	104	0	60	55550
2026-01-24 23:05:15.83	116.75	15.71	-51.1	-64.0	3.5	1.52e+00	0	42	104	0	60	55439
2026-01-24 23:05:16.84	116.66	15.81	-51.1	-64.0	3.5	1.52e+00	0	42	104	0	60	55473
2026-01-24 23:05:17.85	116.57	15.92	-51.2	-64.0	3.5	1.52e+00	0	42	104	0	60	55557
2026-01-24 23:05:18.86	116.48	16.02	-51.1	-64.0	3.5	1.52e+00	0	42	104	0	60	55378
2026-01-24 23:05:19.87	116.39	16.12	-51.1	-64.0	3.5	1.52e+00	0	42	104	0	60	55476
2026-01-24 23:05:20.88	116.30	16.22	-51.2	-64.0	3.5	1.52e+00	0	42	104	0	60	55477
2026-01-24 23:05:21.89	116.21	16.33	-51.1	-64.0	3.5	1.52e+00	0	42	104	0	60	55345
2026-01-24 23:05:22.90	116.11	16.43	-51.1	-64.0	3.5	1.52e+00	0	42	104	0	60	55431
2026-01-24 23:05:23.91	116.02	16.54	-51.1	-63.9	3.5	1.52e+00	0	42	104	0	60	55266
2026-01-24 23:05:24.92	115.92	16.64	-51.1	-64.0	3.5	1.52e+00	0	42	104	0	60	55460
2026-01-24 23:05:25.93	115.83	16.75	-51.1	-64.0	3.5	1.52e+00	0	42	104	0	60	55488
2026-01-24 23:05:26.94	115.73	16.85	-51.1	-64.0	3.5	1.52e+00	0	42	104	0	60	55557
2026-01-24 23:05:27.95	115.64	16.96	-51.1	-64.0	3.5	1.52e+00	0	42	104	0	60	55417
2026-01-24 23:05:28.96	115.54	17.06	-51.1	-64.0	3.5	1.52e+00	0	42	104	0	60	55321
2026-01-24 23:05:29.97	115.44	17.17	-51.1	-64.0	3.5	1.52e+00	0	42	104	0	60	55331
2026-01-24 23:05:30.98	115.34	17.28	-51.1	-64.0	3.5	1.52e+00	0	42	104	0	60	55583
2026-01-24 23:05:31.98	115.25	17.38	-51.1	-64.0	3.5	1.52e+00	0	42	104	0	60	55412
2026-01-24 23:05:32.99	115.15	17.49	-51.1	-64.0	3.5	1.52e+00	0	42	104	0	60	55400
2026-01-24 23:05:34.00	115.04	17.60	-51.1	-63.9	3.5	1.52e+00	0	42	104	0	60	55307
2026-01-24 23:05:35.01	114.94	17.71	-51.1	-64.0	3.5	1.52e+00	0	42	104	0	60	55400
2026-01-24 23:05:36.02	114.84	17.82	-51.1	-64.0	3.5	1.52e+00	0	42	104	0	60	55335
2026-01-24 23:05:37.03	114.74	17.92	-51.1	-63.9	3.5	1.52e+00	0	42	104	0	60	55304
2026-01-24 23:05:38.04	114.63	18.03	-51.1	-64.0	3.5	1.52e+00	0	42	104	0	60	55535
2026-01-24 23:05:39.05	114.53	18.14	-51.1	-64.0	3.5	1.52e+00	0	42	104	0	60	55560
2026-01-24 23:05:40.05	114.43	18.25	-51.1	-64.0	3.5	1.52e+00	0	42	104	0	60	55334
2026-01-24 23:05:41.06	114.32	18.36	-51.1	-64.0	3.5	1.52e+00	0	42	104	0	60	55359
2026-01-24 23:05:42.07	114.21	18.48	-51.1	-63.9	3.5	1.52e+00	0	42	104	0	60	55135
2026-01-24 23:05:43.08	114.10	18.59	-51.1	-64.0	3.5	1.52e+00	0	42	104	0	60	55457
2026-01-24 23:05:44.09	114.00	18.70	-51.1	-63.9	3.5	1.51e+00	0	42	104	0	60	55230
2026-01-24 23:05:45.10	113.89	18.81	-51.1	-63.9	3.5	1.51e+00	0	42	104	0	60	55205
2026-01-24 23:05:46.11	113.78	18.92	-51.2	-64.0	3.5	1.52e+00	0	42	104	0	60	55772
2026-01-24 23:05:47.12	113.67	19.04	-51.1	-63.9	3.5	1.52e+00	0	42	104	0	60	55218
2026-01-24 23:05:48.13	113.55	19.15	-51.1	-64.0	3.5	1.52e+00	0	42	104	0	60	55420
2026-01-24 23:05:49.14	113.44	19.26	-51.1	-63.9	3.5	1.52e+00	0	42	104	0	60	55059
2026-01-24 23:05:50.15	113.33	19.38	-51.1	-63.9	3.5	1.52e+00	0	42	104	0	60	55190
2026-01-24 23:05:51.16	113.21	19.49	-51.1	-63.9	3.5	1.51e+00	0	42	104	0	60	55238
2026-01-24 23:05:52.17	113.10	19.61	-51.1	-64.0	3.5	1.52e+00	0	42	104	0	60	55643
2026-01-24 23:05:53.18	112.98	19.72	-51.1	-64.0	3.5	1.52e+00	0	42	104	0	60	55333
2026-01-24 23:05:54.19	112.86	19.84	-51.1	-64.0	3.5	1.51e+00	0	42	104	0	60	55351
2026-01-24 23:05:55.20	112.75	19.96	-51.1	-64.0	3.5	1.52e+00	0	42	104	0	60	55451
2026-01-24 23:05:56.21	112.63	20.07	-51.1	-63.9	3.5	1.52e+00	0	42	104	0	60	54839
2026-01-24 23:05:57.22	112.51	20.19	-51.1	-63.9	3.5	1.52e+00	0	42	104	0	60	54812
2026-01-24 23:05:58.24	112.39	20.31	-51.1	-63.9	3.5	1.52e+00	0	42	104	0	60	55135
2026-01-24 23:05:59.25	112.26	20.43	-51.1	-63.9	3.5	1.52e+00	0	42	104	0	60	54875
2026-01-24 23:06:00.26	112.14	20.55	-51.1	-63.9	3.5	1.52e+00	0	42	104	0	60	55040
2026-01-24 23:06:01.27	112.02	20.67	-51.1	-63.9	3.5	1.52e+00	0	42	104	0	60	55108
2026-01-24 23:06:02.28	111.89	20.78	-51.1	-63.9	3.5	1.52e+00	0	42	104	0	60	55013
2026-01-24 23:06:03.29	111.77	20.90	-51.1	-64.0	3.5	1.52e+00	0	42	104	0	60	55525
2026-01-24 23:06:04.30	111.64	21.02	-51.1	-64.0	3.5	1.51e+00	0	42	104	0	60	55398
2026-01-24 23:06:05.31	111.51	21.15	-51.1	-64.0	3.5	1.52e+00	0	42	104	0	60	55501
2026-01-24 23:06:06.32	111.38	21.27	-51.2	-64.0	3.5	1.52e+00	0	42	104	0	60	55471
2026-01-24 23:06:07.33	111.25	21.39	-51.2	-64.0	3.5	1.51e+00	0	42	104	0	60	55798
2026-01-24 23:06:08.34	111.12	21.51	-51.2	-64.0	3.5	1.52e+00	0	42	104	0	60	55735
2026-01-24 23:06:09.35	110.99	21.63	-51.1	-63.9	3.5	1.52e+00	0	42	104	0	60	55199
2026-01-24 23:06:10.36	110.86	21.75	-51.2	-64.0	3.5	1.52e+00	0	42	104	0	60	55615
2026-01-24 23:06:11.37	110.73	21.88	-51.1	-64.0	3.5	1.52e+00	0	42	104	0	60	55421
2026-01-24 23:06:12.38	110.59	22.00	-51.1	-64.0	3.5	1.52e+00	0	42	104	0	60	55330
2026-01-24 23:06:13.39	110.45	22.13	-51.2	-64.0	3.5	1.51e+00	0	42	104	0	60	55367
2026-01-24 23:06:14.40	110.32	22.25	-51.2	-63.9	3.5	1.52e+00	0	42	104	0	60	55225
2026-01-24 23:06:15.41	110.18	22.37	-51.1	-64.0	3.5	1.52e+00	0	42	104	0	60	55348
2026-01-24 23:06:16.42	110.04	22.50	-51.1	-63.9	3.5	1.52e+00	0	42	104	0	60	55276
2026-01-24 23:06:17.43	109.90	22.63	-51.1	-63.9	3.5	1.51e+00	0	42	104	0	60	55140
2026-01-24 23:06:18.44	109.76	22.75	-51.1	-63.9	3.5	1.52e+00	0	42	104	0	60	55006
2026-01-24 23:06:19.45	109.61	22.88	-51.1	-63.9	3.5	1.52e+00	0	42	104	0	60	55217
2026-01-24 23:06:20.46	109.47	23.01	-51.1	-64.0	3.5	1.52e+00	0	42	104	0	60	55557
2026-01-24 23:06:21.47	109.32	23.13	-51.1	-63.9	3.5	1.52e+00	0	42	104	0	60	55048
2026-01-24 23:06:22.48	109.18	23.26	-51.1	-63.9	3.5	1.52e+00	0	42	104	0	60	55281
2026-01-24 23:06:23.49	109.03	23.39	-51.1	-63.9	3.5	1.51e+00	0	42	104	0	60	55005
2026-01-24 23:06:24.50	108.88	23.52	-51.1	-64.0	3.5	1.52e+00	0	42	104	0	60	55564
2026-01-24 23:06:25.51	108.73	23.65	-51.1	-63.9	3.5	1.52e+00	0	42	104	0	60	55199
2026-01-24 23:06:26.52	108.58	23.78	-51.1	-63.9	3.5	1.52e+00	0	42	104	0	60	55178
2026-01-24 23:06:27.53	108.43	23.91	-51.1	-64.0	3.5	1.52e+00	0	42	104	0	60	55623
2026-01-24 23:06:28.54	108.27	24.04	-51.1	-64.0	3.5	1.52e+00	0	42	104	0	60	55335
2026-01-24 23:06:29.55	108.12	24.17	-51.1	-63.9	3.5	1.52e+00	0	42	104	0	60	55208
2026-01-24 23:06:30.55	107.96	24.30	-51.1	-63.9	3.5	1.52e+00	0	42	104	0	60	55110
2026-01-24 23:06:31.56	107.80	24.43	-51.1	-63.9	3.5	1.52e+00	0	42	104	0	60	55187
2026-01-24 23:06:32.57	107.64	24.56	-51.1	-63.9	3.5	1.52e+00	0	42	104	0	60	55293
2026-01-24 23:06:33.58	107.48	24.69	-51.1	-63.9	3.5	1.52e+00	0	42	104	0	60	55143
2026-01-24 23:06:34.59	107.32	24.83	-51.1	-63.9	3.5	1.52e+00	0	42	104	0	60	55032
2026-01-24 23:06:35.60	107.16	24.96	-51.1	-63.9	3.5	1.52e+00	0	42	104	0	60	54800
2026-01-24 23:06:36.61	106.99	25.09	-51.1	-64.0	3.5	1.51e+00	0	42	104	0	60	55327
2026-01-24 23:06:37.62	106.83	25.23	-51.1	-63.9	3.5	1.52e+00	0	42	104	0	60	54973
2026-01-24 23:06:38.63	106.66	25.36	-51.1	-63.9	3.5	1.52e+00	0	42	104	0	60	54982
2026-01-24 23:06:39.64	106.49	25.50	-51.1	-63.9	3.5	1.52e+00	0	42	104	0	60	55127
2026-01-24 23:06:40.65	106.32	25.63	-51.1	-63.9	3.5	1.52e+00	0	42	104	0	60	54908
2026-01-24 23:06:41.66	106.15	25.77	-51.1	-63.9	3.5	1.52e+00	0	42	104	0	60	55002
2026-01-24 23:06:42.67	105.97	25.90	-51.1	-63.9	3.5	1.52e+00	0	42	104	0	60	55011
2026-01-24 23:06:43.68	105.80	26.04	-51.1	-63.9	3.5	1.52e+00	0	42	104	0	60	55217
2026-01-24 23:06:44.69	105.62	26.18	-51.1	-63.9	3.5	1.51e+00	0	42	104	0	60	55049
2026-01-24 23:06:45.70	105.44	26.31	-51.1	-63.9	3.5	1.52e+00	0	42	104	0	60	54856
2026-01-24 23:06:46.71	105.26	26.45	-51.1	-63.9	3.5	1.51e+00	0	42	104	0	60	54995
2026-01-24 23:06:47.72	105.08	26.59	-51.1	-63.9	3.5	1.52e+00	0	42	104	0	60	54947
2026-01-24 23:06:48.73	104.90	26.73	-51.1	-63.9	3.5	1.52e+00	0	42	104	0	60	55304
2026-01-24 23:06:49.74	104.71	26.87	-51.1	-63.9	3.5	1.52e+00	0	42	104	0	60	55238
2026-01-24 23:06:50.75	104.52	27.01	-51.1	-64.0	3.5	1.52e+00	0	42	104	0	60	55349
2026-01-24 23:06:51.76	104.34	27.15	-51.1	-63.9	3.5	1.52e+00	0	42	104	0	60	55014
2026-01-24 23:06:52.77	104.15	27.29	-51.1	-63.9	3.5	1.52e+00	0	42	104	0	60	55158
2026-01-24 23:06:53.78	103.96	27.43	-51.1	-63.9	3.5	1.52e+00	0	42	104	0	60	54884
2026-01-24 23:06:54.79	103.76	27.57	-51.1	-63.9	3.5	1.52e+00	0	42	104	0	60	54838
2026-01-24 23:06:55.80	103.57	27.71	-51.0	-63.8	3.5	1.51e+00	0	42	104	0	60	54608
2026-01-24 23:06:56.81	103.37	27.85	-51.0	-63.9	3.5	1.52e+00	0	42	104	0	60	54894
2026-01-24 23:06:57.82	103.17	27.99	-51.0	-63.9	3.5	1.52e+00	0	42	104	0	60	54908
2026-01-24 23:06:58.83	102.97	28.13	-51.0	-63.9	3.5	1.52e+00	0	42	104	0	60	55003
2026-01-24 23:06:59.84	102.77	28.28	-51.0	-63.9	3.5	1.51e+00	0	42	104	0	60	54940
2026-01-24 23:07:00.85	102.57	28.42	-51.0	-63.8	3.5	1.52e+00	0	42	104	0	60	54657
2026-01-24 23:07:01.86	102.36	28.56	-51.1	-63.9	3.5	1.52e+00	0	42	104	0	60	55051
2026-01-24 23:07:02.87	102.15	28.70	-51.1	-63.9	3.5	1.52e+00	0	42	104	0	60	54814
2026-01-24 23:07:03.88	101.94	28.85	-51.1	-63.9	3.5	1.52e+00	0	42	104	0	60	54741
2026-01-24 23:07:04.89	101.73	28.99	-51.1	-63.9	3.5	1.51e+00	0	42	104	0	60	54984
2026-01-24 23:07:05.90	101.52	29.14	-51.0	-63.9	3.5	1.52e+00	0	42	104	0	60	54868
2026-01-24 23:07:06.91	101.30	29.28	-51.1	-63.9	3.5	1.52e+00	0	42	104	0	60	55013
2026-01-24 23:07:07.92	101.09	29.43	-51.0	-63.9	3.5	1.52e+00	0	42	104	0	60	54701
2026-01-24 23:07:08.93	100.87	29.57	-51.1	-63.9	3.5	1.52e+00	0	42	104	0	60	55058
2026-01-24 23:07:09.94	100.65	29.72	-51.0	-63.8	3.5	1.52e+00	0	42	104	0	60	54608
2026-01-24 23:07:10.95	100.42	29.86	-51.0	-63.9	3.5	1.52e+00	0	42	104	0	60	54868
2026-01-24 23:07:11.96	100.20	30.01	-51.0	-63.9	3.5	1.52e+00	0	42	104	0	60	54768
2026-01-24 23:07:12.97	99.97	30.15	-51.0	-63.9	3.5	1.52e+00	0	42	104	0	60	54784
2026-01-24 23:07:13.98	99.74	30.30	-51.0	-63.9	3.5	1.52e+00	0	42	104	0	60	54773
2026-01-24 23:07:14.99	99.51	30.45	-51.0	-63.8	3.5	1.52e+00	0	42	104	0	60	54448
2026-01-24 23:07:16.00	99.28	30.59	-51.0	-63.9	3.5	1.52e+00	0	42	104	0	60	54732
2026-01-24 23:07:17.01	99.04	30.74	-51.0	-63.8	3.5	1.51e+00	0	42	104	0	60	54224
2026-01-24 23:07:18.02	98.80	30.89	-51.0	-63.9	3.5	1.52e+00	0	42	104	0	60	54848
2026-01-24 23:07:19.03	98.56	31.04	-51.0	-63.8	3.5	1.52e+00	0	42	104	0	60	54570
2026-01-24 23:07:20.04	98.32	31.18	-51.0	-63.9	3.5	1.52e+00	0	42	104	0	60	54678
2026-01-24 23:07:21.05	98.08	31.33	-51.0	-63.9	3.5	1.52e+00	0	42	104	0	60	54897
2026-01-24 23:07:22.05	97.83	31.48	-51.0	-63.9	3.5	1.52e+00	0	42	104	0	60	54753
2026-01-24 23:07:23.07	97.58	31.63	-51.0	-63.8	3.5	1.52e+00	0	42	104	0	60	54578
2026-01-24 23:07:24.08	97.33	31.77	-51.0	-63.8	3.5	1.52e+00	0	42	104	0	60	54311
2026-01-24 23:07:25.09	97.08	31.92	-51.0	-63.9	3.5	1.52e+00	0	42	104	0	60	54721
2026-01-24 23:07:26.10	96.82	32.07	-51.0	-63.8	3.5	1.52e+00	0	42	104	0	60	54340
2026-01-24 23:07:27.11	96.56	32.22	-51.0	-63.9	3.5	1.52e+00	0	42	104	0	60	54684
2026-01-24 23:07:28.12	96.30	32.37	-51.0	-63.8	3.5	1.52e+00	0	42	104	0	60	54579
2026-01-24 23:07:29.13	96.04	32.52	-51.0	-63.9	3.5	1.52e+00	0	42	104	0	60	54724
2026-01-24 23:07:30.14	95.77	32.66	-51.0	-63.8	3.5	1.51e+00	0	42	104	0	60	54533
2026-01-24 23:07:31.15	95.50	32.81	-51.0	-63.9	3.5	1.52e+00	0	42	104	0	60	54945
2026-01-24 23:07:32.16	95.23	32.96	-51.0	-63.8	3.5	1.52e+00	0	42	104	0	60	54673
2026-01-24 23:07:33.17	94.96	33.11	-51.0	-63.8	3.5	1.51e+00	0	42	104	0	60	54332
2026-01-24 23:07:34.18	94.68	33.26	-51.0	-63.8	3.5	1.52e+00	0	42	104	0	60	54450
2026-01-24 23:07:35.18	94.41	33.40	-51.0	-63.9	3.5	1.52e+00	0	42	104	0	60	54860
2026-01-24 23:07:36.19	94.13	33.55	-51.0	-63.9	3.5	1.52e+00	0	42	104	0	60	54707
2026-01-24 23:07:37.20	93.84	33.70	-51.0	-63.9	3.5	1.51e+00	0	42	104	0	60	54734
2026-01-24 23:07:38.21	93.56	33.85	-51.0	-63.8	3.5	1.52e+00	0	42	104	0	60	54395
2026-01-24 23:07:39.22	93.27	34.00	-51.0	-63.8	3.5	1.52e+00	0	42	104	0	60	54500
2026-01-24 23:07:40.23	92.98	34.15	-51.0	-63.8	3.5	1.51e+00	0	42	104	0	60	54587
2026-01-24 23:07:41.24	92.69	34.29	-51.0	-63.8	3.5	1.52e+00	0	42	104	0	60	54199
2026-01-24 23:07:42.25	92.39	34.44	-51.0	-63.8	3.5	1.51e+00	0	42	104	0	60	54137
2026-01-24 23:07:43.26	92.09	34.59	-51.0	-63.8	3.5	1.52e+00	0	42	104	0	60	54416
2026-01-24 23:07:44.27	91.79	34.74	-51.0	-63.8	3.5	1.52e+00	0	42	104	0	60	54618
2026-01-24 23:07:45.28	91.48	34.88	-51.0	-63.8	3.5	1.52e+00	0	42	104	0	60	54577
2026-01-24 23:07:46.29	91.18	35.03	-51.0	-63.8	3.5	1.52e+00	0	42	104	0	60	54523
2026-01-24 23:07:47.30	90.87	35.18	-51.0	-63.8	3.5	1.52e+00	0	42	104	0	60	54350
2026-01-24 23:07:48.31	90.55	35.32	-51.0	-63.8	3.5	1.52e+00	0	42	104	0	60	54434
2026-01-24 23:07:49.31	90.24	35.47	-51.0	-63.8	3.5	1.51e+00	0	42	104	0	60	54616
2026-01-24 23:07:50.33	89.92	35.61	-51.0	-63.9	3.5	1.52e+00	0	42	104	0	60	54703
2026-01-24 23:07:51.34	89.60	35.76	-51.0	-63.8	3.5	1.52e+00	0	42	104	0	60	54614
2026-01-24 23:07:52.34	89.27	35.90	-51.0	-63.9	3.5	1.52e+00	0	42	104	0	60	54937
2026-01-24 23:07:53.35	88.95	36.05	-51.0	-63.8	3.5	1.52e+00	0	42	104	0	60	54556
2026-01-24 23:07:54.37	88.61	36.19	-51.0	-63.8	3.5	1.52e+00	0	42	104	0	60	54663
2026-01-24 23:07:55.37	88.28	36.33	-51.0	-63.9	3.5	1.52e+00	0	42	104	0	60	54794
2026-01-24 23:07:56.38	87.95	36.48	-51.0	-63.8	3.5	1.52e+00	0	42	104	0	60	54496
2026-01-24 23:07:57.39	87.61	36.62	-51.0	-63.8	3.5	1.52e+00	0	42	104	0	60	54561
2026-01-24 23:07:58.40	87.27	36.76	-51.0	-63.8	3.5	1.52e+00	0	42	104	0	60	54642
2026-01-24 23:07:59.41	86.92	36.90	-51.0	-63.8	3.5	1.52e+00	0	42	104	0	60	54652
2026-01-24 23:08:00.42	86.57	37.04	-51.0	-63.8	3.5	1.51e+00	0	42	104	0	60	54480
2026-01-24 23:08:01.43	86.22	37.18	-51.0	-63.8	3.5	1.52e+00	0	42	104	0	60	54405
2026-01-24 23:08:02.44	85.87	37.32	-51.0	-63.8	3.5	1.52e+00	0	42	104	0	60	54476
2026-01-24 23:08:03.45	85.51	37.46	-51.0	-63.8	3.5	1.51e+00	0	42	104	0	60	54531
2026-01-24 23:08:04.46	85.15	37.60	-51.0	-63.8	3.5	1.52e+00	0	42	104	0	60	54611
2026-01-24 23:08:05.47	84.79	37.74	-51.0	-63.8	3.5	1.52e+00	0	42	104	0	60	54333
2026-01-24 23:08:06.48	84.42	37.87	-51.0	-63.8	3.5	1.52e+00	0	42	104	0	60	54430
2026-01-24 23:08:07.49	84.05	38.01	-51.0	-63.8	3.5	1.52e+00	0	42	104	0	60	54205
2026-01-24 23:08:08.50	83.68	38.14	-51.0	-63.8	3.5	1.52e+00	0	42	104	0	60	54155
2026-01-24 23:08:09.51	83.30	38.28	-51.0	-63.8	3.5	1.52e+00	0	42	104	0	60	54057
2026-01-24 23:08:10.52	82.92	38.41	-51.0	-63.8	3.5	1.52e+00	0	42	104	0	60	54371
2026-01-24 23:08:11.53	82.54	38.54	-51.0	-63.8	3.5	1.52e+00	0	42	104	0	60	54206
2026-01-24 23:08:12.53	82.16	38.67	-51.0	-63.8	3.5	1.52e+00	0	42	104	0	60	54292
2026-01-24 23:08:13.54	81.77	38.80	-51.0	-63.8	3.5	1.52e+00	0	42	104	0	60	54280
2026-01-24 23:08:14.55	81.38	38.93	-51.0	-63.8	3.5	1.52e+00	0	42	104	0	60	54427
2026-01-24 23:08:15.56	80.99	39.06	-50.9	-63.8	3.5	1.52e+00	0	42	104	0	60	54189
2026-01-24 23:08:16.57	80.59	39.19	-50.9	-63.7	3.5	1.51e+00	0	42	104	0	60	54026
2026-01-24 23:08:17.58	80.19	39.31	-50.9	-63.8	3.5	1.52e+00	0	42	104	0	60	54207
2026-01-24 23:08:18.59	79.78	39.44	-50.9	-63.8	3.5	1.52e+00	0	42	104	0	60	54251
2026-01-24 23:08:19.60	79.38	39.56	-50.9	-63.8	3.5	1.52e+00	0	42	104	0	60	54378
2026-01-24 23:08:20.61	78.97	39.68	-50.9	-63.8	3.5	1.52e+00	0	42	104	0	60	54402
2026-01-24 23:08:21.62	78.55	39.81	-50.9	-63.8	3.5	1.52e+00	0	42	104	0	60	54359
2026-01-24 23:08:22.64	78.13	39.93	-50.9	-63.8	3.5	1.52e+00	0	42	104	0	60	54050
2026-01-24 23:08:23.64	77.72	40.04	-50.9	-63.8	3.5	1.52e+00	0	42	104	0	60	54108
2026-01-24 23:08:24.65	77.30	40.16	-50.9	-63.7	3.5	1.52e+00	0	42	104	0	60	53997
2026-01-24 23:08:25.66	76.87	40.28	-50.9	-63.8	3.5	1.52e+00	0	42	104	0	60	54250
2026-01-24 23:08:26.68	76.44	40.39	-50.9	-63.7	3.5	1.51e+00	0	42	104	0	60	54003
2026-01-24 23:08:27.68	76.01	40.50	-50.9	-63.8	3.5	1.52e+00	0	42	104	0	60	54383
2026-01-24 23:08:28.69	75.58	40.61	-50.9	-63.8	3.5	1.52e+00	0	42	104	0	60	54061
2026-01-24 23:08:29.70	75.14	40.72	-50.9	-63.8	3.5	1.52e+00	0	42	104	0	60	54065
2026-01-24 23:08:30.72	74.69	40.83	-50.9	-63.8	3.5	1.52e+00	0	42	104	0	60	54135
2026-01-24 23:08:31.72	74.25	40.94	-50.9	-63.7	3.5	1.52e+00	0	42	104	0	60	53900
2026-01-24 23:08:32.73	73.81	41.04	-50.9	-63.7	3.5	1.52e+00	0	42	104	0	60	53932
2026-01-24 23:08:33.74	73.36	41.15	-50.9	-63.8	3.5	1.51e+00	0	42	104	0	60	54087
2026-01-24 23:08:34.75	72.91	41.25	-50.9	-63.7	3.5	1.52e+00	0	42	104	0	60	53717
2026-01-24 23:08:35.76	72.45	41.35	-50.9	-63.7	3.5	1.52e+00	0	42	104	0	60	53901
2026-01-24 23:08:36.77	72.00	41.45	-50.9	-63.7	3.5	1.52e+00	0	42	104	0	60	53854
2026-01-24 23:08:37.78	71.53	41.54	-50.9	-63.7	3.5	1.52e+00	0	42	104	0	60	53865
2026-01-24 23:08:38.79	71.07	41.64	-50.9	-63.7	3.5	1.52e+00	0	42	104	0	60	53835
2026-01-24 23:08:39.80	70.61	41.73	-50.9	-63.8	3.5	1.52e+00	0	42	104	0	60	54129
2026-01-24 23:08:40.81	70.14	41.82	-50.9	-63.8	3.5	1.52e+00	0	42	104	0	60	54118
2026-01-24 23:08:41.83	69.66	41.91	-50.9	-63.7	3.5	1.52e+00	0	42	104	0	60	53897
2026-01-24 23:08:42.84	69.19	42.00	-50.9	-63.8	3.5	1.52e+00	0	42	104	0	60	54180
2026-01-24 23:08:43.84	68.72	42.08	-50.9	-63.8	3.5	1.52e+00	0	42	104	0	60	54372
2026-01-24 23:08:44.86	68.23	42.16	-50.9	-63.7	3.5	1.52e+00	0	42	104	0	60	53693
2026-01-24 23:08:45.87	67.75	42.24	-50.9	-63.7	3.5	1.52e+00	0	42	104	0	60	53980
2026-01-24 23:08:46.87	67.27	42.32	-50.9	-63.7	3.5	1.52e+00	0	42	104	0	60	54014
2026-01-24 23:08:47.88	66.79	42.40	-50.9	-63.7	3.5	1.52e+00	0	42	104	0	60	53876
2026-01-24 23:08:48.89	66.30	42.47	-50.9	-63.7	3.5	1.52e+00	0	42	104	0	60	54029
2026-01-24 23:08:49.91	65.81	42.54	-50.9	-63.7	3.5	1.52e+00	0	42	104	0	60	53591
2026-01-24 23:08:50.91	65.32	42.61	-50.9	-63.8	3.5	1.52e+00	0	42	104	0	60	54171
2026-01-24 23:08:51.92	64.82	42.68	-50.9	-63.7	3.5	1.52e+00	0	42	104	0	60	53989
2026-01-24 23:08:52.93	64.33	42.74	-50.9	-63.7	3.5	1.52e+00	0	42	104	0	60	53683
2026-01-24 23:08:53.94	63.83	42.81	-50.8	-63.7	3.5	1.52e+00	0	42	104	0	60	53690
2026-01-24 23:08:54.95	63.33	42.87	-50.8	-63.7	3.5	1.52e+00	0	42	104	0	60	53994
2026-01-24 23:08:55.96	62.83	42.92	-50.8	-63.6	3.5	1.51e+00	0	42	104	0	60	53227
2026-01-24 23:08:56.97	62.32	42.98	-50.7	-63.6	3.5	1.52e+00	0	42	104	0	60	52935
2026-01-24 23:08:57.98	61.82	43.03	-50.7	-63.5	3.5	1.51e+00	0	42	104	0	60	52805
2026-01-24 23:08:58.99	61.31	43.08	-50.7	-63.5	3.5	1.51e+00	0	42	104	0	60	52633
2026-01-24 23:09:00.00	60.80	43.13	-50.7	-63.5	3.5	1.52e+00	0	42	104	0	60	52773
2026-01-24 23:09:01.01	60.29	43.18	-50.7	-63.5	3.5	1.52e+00	0	42	104	0	60	52741
2026-01-24 23:09:02.02	59.78	43.22	-50.7	-63.6	3.5	1.52e+00	0	42	104	0	60	52881
2026-01-24 23:09:03.03	59.27	43.26	-50.6	-63.6	3.5	1.52e+00	0	42	104	0	60	52861
2026-01-24 23:09:04.04	58.75	43.30	-50.6	-63.6	3.5	1.52e+00	0	42	104	0	60	53147
2026-01-24 23:09:05.05	58.24	43.33	-50.6	-63.6	3.5	1.52e+00	0	42	104	0	60	53229
2026-01-24 23:09:06.06	57.72	43.37	-50.6	-63.6	3.5	1.52e+00	0	42	104	0	60	53415
2026-01-24 23:09:07.07	57.20	43.40	-50.6	-63.6	3.5	1.52e+00	0	42	104	0	60	53268
2026-01-24 23:09:08.08	56.68	43.42	-50.6	-63.6	3.5	1.51e+00	0	42	104	0	60	53225
2026-01-24 23:09:09.09	56.16	43.45	-50.6	-63.6	3.5	1.52e+00	0	42	104	0	60	53250
2026-01-24 23:09:10.10	55.64	43.47	-50.5	-63.6	3.6	1.52e+00	0	42	104	0	60	53059
2026-01-24 23:09:11.11	55.12	43.49	-50.5	-63.6	3.5	1.52e+00	0	42	104	0	60	53206
2026-01-24 23:09:12.12	54.60	43.51	-50.5	-63.6	3.5	1.52e+00	0	42	104	0	60	53373
2026-01-24 23:09:13.13	54.08	43.52	-50.6	-63.6	3.5	1.52e+00	0	42	104	0	60	53274
2026-01-24 23:09:14.14	53.56	43.53	-50.7	-63.6	3.5	1.52e+00	0	42	104	0	60	53398
2026-01-24 23:09:15.15	53.03	43.54	-50.7	-63.6	3.5	1.52e+00	0	42	104	0	60	53079
2026-01-24 23:09:16.16	52.51	43.55	-50.7	-63.6	3.5	1.52e+00	0	42	104	0	60	53032
2026-01-24 23:09:17.17	51.99	43.55	-50.7	-63.6	3.5	1.52e+00	0	42	104	0	60	53032
2026-01-24 23:09:18.18	51.47	43.55	-50.6	-63.6	3.5	1.52e+00	0	42	104	0	60	53172
2026-01-24 23:09:19.19	50.94	43.55	-50.6	-63.6	3.5	1.52e+00	0	42	104	0	60	53345
2026-01-24 23:09:20.20	50.42	43.55	-50.7	-63.6	3.5	1.52e+00	0	42	104	0	60	53226
2026-01-24 23:09:21.21	49.90	43.54	-50.7	-63.6	3.5	1.52e+00	0	42	104	0	60	52938
2026-01-24 23:09:22.22	49.37	43.53	-50.7	-63.6	3.5	1.52e+00	0	42	104	0	60	52958
2026-01-24 23:09:23.23	48.85	43.52	-50.8	-63.6	3.5	1.52e+00	0	42	104	0	60	53051
2026-01-24 23:09:24.24	48.33	43.50	-50.8	-63.6	3.5	1.52e+00	0	42	104	0	60	53208
2026-01-24 23:09:25.25	47.81	43.48	-50.8	-63.6	3.5	1.52e+00	0	42	104	0	60	53094
2026-01-24 23:09:26.26	47.29	43.46	-50.8	-63.6	3.5	1.52e+00	0	42	104	0	60	52932
2026-01-24 23:09:27.27	46.77	43.44	-50.8	-63.6	3.5	1.52e+00	0	42	104	0	60	52918
2026-01-24 23:09:28.28	46.25	43.42	-50.8	-63.6	3.5	1.52e+00	0	42	104	0	60	52918
2026-01-24 23:09:29.29	45.73	43.39	-50.8	-63.5	3.5	1.52e+00	0	42	104	0	60	52596
2026-01-24 23:09:30.30	45.22	43.36	-50.8	-63.6	3.5	1.52e+00	0	42	104	0	60	53163
2026-01-24 23:09:31.31	44.70	43.32	-50.8	-63.6	3.5	1.52e+00	0	42	104	0	60	53103
2026-01-24 23:09:32.32	44.18	43.29	-50.8	-63.5	3.5	1.51e+00	0	42	104	0	60	52742
2026-01-24 23:09:33.33	43.67	43.25	-50.8	-63.5	3.5	1.52e+00	0	42	104	0	60	52678
2026-01-24 23:09:34.34	43.16	43.21	-50.8	-63.6	3.5	1.52e+00	0	42	104	0	60	53012
2026-01-24 23:09:35.34	42.65	43.16	-50.8	-63.5	3.5	1.52e+00	0	42	104	0	60	52670
2026-01-24 23:09:36.35	42.14	43.12	-50.8	-63.6	3.5	1.52e+00	0	42	104	0	60	53119
2026-01-24 23:09:37.36	41.64	43.07	-50.7	-63.6	3.5	1.52e+00	0	42	104	0	60	53119
2026-01-24 23:09:38.37	41.13	43.02	-50.7	-63.5	3.5	1.51e+00	0	42	104	0	60	52764
2026-01-24 23:09:39.38	40.62	42.97	-50.7	-63.5	3.5	1.52e+00	0	42	104	0	60	52626
2026-01-24 23:09:40.39	40.12	42.91	-50.6	-63.6	3.5	1.52e+00	0	42	104	0	60	52943
2026-01-24 23:09:41.40	39.62	42.85	-50.5	-63.5	3.5	1.52e+00	0	42	104	0	60	52619
2026-01-24 23:09:42.41	39.12	42.79	-50.5	-63.6	3.5	1.52e+00	0	42	104	0	60	52960
2026-01-24 23:09:43.42	38.62	42.73	-50.5	-63.5	3.5	1.52e+00	0	42	104	0	60	52743
2026-01-24 23:09:44.43	38.13	42.66	-50.4	-63.5	3.5	1.52e+00	0	42	104	0	60	52687
2026-01-24 23:09:45.44	37.63	42.59	-50.5	-63.5	3.5	1.52e+00	0	42	104	0	60	52783
2026-01-24 23:09:46.45	37.14	42.52	-50.5	-63.6	3.5	1.52e+00	0	42	104	0	60	52951
2026-01-24 23:09:47.46	36.65	42.45	-50.5	-63.6	3.5	1.51e+00	0	42	104	0	60	52861
2026-01-24 23:09:48.47	36.17	42.38	-50.4	-63.5	3.5	1.52e+00	0	42	104	0	60	52678
2026-01-24 23:09:49.48	35.68	42.30	-50.3	-63.5	3.5	1.52e+00	0	42	104	0	60	52479
2026-01-24 23:09:50.49	35.20	42.22	-50.3	-63.5	3.5	1.52e+00	0	42	104	0	60	52420
2026-01-24 23:09:51.50	34.72	42.14	-50.2	-63.5	3.5	1.52e+00	0	42	104	0	60	52642
2026-01-24 23:09:52.51	34.24	42.06	-50.3	-63.4	3.5	1.52e+00	0	42	104	0	60	52079
2026-01-24 23:09:53.52	33.77	41.97	-50.3	-63.5	3.5	1.52e+00	0	42	104	0	60	52400
2026-01-24 23:09:54.53	33.30	41.89	-50.3	-63.5	3.5	1.51e+00	0	42	104	0	60	52381
2026-01-24 23:09:55.54	32.83	41.80	-50.3	-63.5	3.5	1.51e+00	0	42	104	0	60	52569
2026-01-24 23:09:56.55	32.36	41.71	-50.4	-63.5	3.5	1.52e+00	0	42	104	0	60	52662
2026-01-24 23:09:57.56	31.89	41.62	-50.4	-63.5	3.5	1.52e+00	0	42	104	0	60	52573
2026-01-24 23:09:58.57	31.43	41.52	-50.5	-63.5	3.5	1.51e+00	0	42	104	0	60	52589
2026-01-24 23:09:59.58	30.97	41.42	-50.5	-63.5	3.5	1.52e+00	0	42	104	0	60	52372
2026-01-24 23:10:00.59	30.52	41.33	-50.6	-63.5	3.5	1.52e+00	0	42	104	0	60	52631
2026-01-24 23:10:01.60	30.06	41.23	-50.6	-63.5	3.5	1.51e+00	0	42	104	0	60	52545
2026-01-24 23:10:02.61	29.61	41.12	-50.7	-63.5	3.5	1.52e+00	0	42	104	0	60	52566
2026-01-24 23:10:03.62	29.17	41.02	-50.7	-63.5	3.5	1.52e+00	0	42	104	0	60	52629
2026-01-24 23:10:04.63	28.72	40.92	-50.6	-63.5	3.5	1.52e+00	0	42	104	0	60	52624
2026-01-24 23:10:05.64	28.28	40.81	-50.6	-63.5	3.5	1.52e+00	0	42	104	0	60	52357
2026-01-24 23:10:06.65	27.84	40.70	-50.6	-63.5	3.5	1.52e+00	0	42	104	0	60	52709
2026-01-24 23:10:07.66	27.41	40.59	-50.7	-63.5	3.5	1.51e+00	0	42	104	0	60	52308
2026-01-24 23:10:08.67	26.97	40.48	-50.7	-63.5	3.5	1.52e+00	0	42	104	0	60	52559
2026-01-24 23:10:09.68	26.54	40.37	-50.7	-63.5	3.5	1.52e+00	0	42	104	0	60	52651
2026-01-24 23:10:10.68	26.12	40.25	-50.7	-63.5	3.5	1.52e+00	0	42	104	0	60	52391
2026-01-24 23:10:11.69	25.70	40.14	-50.7	-63.5	3.5	1.52e+00	0	42	104	0	60	52238
2026-01-24 23:10:12.70	25.28	40.02	-50.7	-63.5	3.5	1.52e+00	0	42	104	0	60	52418
2026-01-24 23:10:13.71	24.86	39.90	-50.7	-63.5	3.5	1.52e+00	0	42	104	0	60	52281
2026-01-24 23:10:14.72	24.44	39.78	-50.7	-63.5	3.5	1.52e+00	0	42	104	0	60	52644
2026-01-24 23:10:15.73	24.03	39.66	-50.7	-63.5	3.5	1.52e+00	0	42	104	0	60	52347
2026-01-24 23:10:16.74	23.62	39.54	-50.7	-63.5	3.5	1.52e+00	0	42	104	0	60	52435
2026-01-24 23:10:17.75	23.22	39.42	-50.7	-63.5	3.5	1.51e+00	0	42	104	0	60	52217
2026-01-24 23:10:18.76	22.82	39.29	-50.7	-63.5	3.5	1.51e+00	0	42	104	0	60	52373
2026-01-24 23:10:19.77	22.42	39.16	-50.7	-63.5	3.5	1.52e+00	0	42	104	0	60	52317
2026-01-24 23:10:20.79	22.02	39.04	-50.7	-63.5	3.5	1.52e+00	0	42	104	0	60	52510
2026-01-24 23:10:21.80	21.62	38.91	-50.7	-63.5	3.5	1.52e+00	0	42	104	0	60	52476
2026-01-24 23:10:22.81	21.23	38.78	-50.7	-63.5	3.5	1.52e+00	0	42	104	0	60	52244
2026-01-24 23:10:23.81	20.85	38.65	-50.7	-63.4	3.5	1.52e+00	0	42	104	0	60	52062
2026-01-24 23:10:24.82	20.47	38.52	-50.7	-63.5	3.5	1.52e+00	0	42	104	0	60	52331
2026-01-24 23:10:25.84	20.08	38.39	-50.7	-63.4	3.5	1.52e+00	0	42	104	0	60	52198
2026-01-24 23:10:26.85	19.71	38.25	-50.7	-63.4	3.5	1.52e+00	0	42	104	0	60	52005
2026-01-24 23:10:27.86	19.33	38.12	-50.7	-63.5	3.5	1.52e+00	0	42	104	0	60	52311
2026-01-24 23:10:28.87	18.96	37.98	-50.7	-63.5	3.5	1.52e+00	0	42	104	0	60	52265
2026-01-24 23:10:29.88	18.59	37.85	-50.7	-63.4	3.5	1.52e+00	0	42	104	0	60	51991
2026-01-24 23:10:30.88	18.23	37.71	-50.7	-63.4	3.5	1.52e+00	0	42	104	0	60	51881
2026-01-24 23:10:31.89	17.87	37.58	-50.7	-63.4	3.5	1.51e+00	0	42	104	0	60	52086
2026-01-24 23:10:32.90	17.51	37.44	-50.6	-63.4	3.5	1.52e+00	0	42	104	0	60	51971
2026-01-24 23:10:33.91	17.16	37.30	-50.6	-63.4	3.5	1.51e+00	0	42	104	0	60	52127
2026-01-24 23:10:34.92	16.80	37.16	-50.6	-63.4	3.5	1.52e+00	0	42	104	0	60	51848
2026-01-24 23:10:35.93	16.45	37.02	-50.6	-63.4	3.5	1.52e+00	0	42	104	0	60	51785
2026-01-24 23:10:36.94	16.11	36.88	-50.5	-63.4	3.5	1.52e+00	0	42	104	0	60	51815
2026-01-24 23:10:37.95	15.76	36.74	-50.6	-63.3	3.5	1.51e+00	0	42	104	0	60	51598
2026-01-24 23:10:38.96	15.42	36.60	-50.6	-63.4	3.5	1.52e+00	0	42	104	0	60	51740
2026-01-24 23:10:39.97	15.08	36.46	-50.6	-63.4	3.5	1.52e+00	0	42	104	0	60	51703
2026-01-24 23:10:40.98	14.75	36.31	-50.6	-63.4	3.5	1.51e+00	0	42	104	0	60	51885
2026-01-24 23:10:41.99	14.42	36.17	-50.5	-63.3	3.5	1.52e+00	0	42	104	0	60	51563
2026-01-24 23:10:43.00	14.09	36.03	-50.5	-63.4	3.5	1.52e+00	0	42	104	0	60	51756
2026-01-24 23:10:44.01	13.76	35.88	-50.4	-63.4	3.5	1.52e+00	0	42	104	0	60	51830
2026-01-24 23:10:45.02	13.44	35.74	-50.2	-63.4	3.5	1.52e+00	0	42	104	0	60	51676
2026-01-24 23:10:46.03	13.12	35.59	-50.1	-63.3	3.5	1.52e+00	0	42	104	0	60	51543
2026-01-24 23:10:47.04	12.80	35.45	-50.0	-63.4	3.5	1.52e+00	0	42	104	0	60	51729
2026-01-24 23:10:48.05	12.49	35.30	-50.0	-63.3	3.5	1.52e+00	0	42	104	0	60	51576
2026-01-24 23:10:49.06	12.18	35.16	-50.0	-63.4	3.5	1.52e+00	0	42	104	0	60	51655
2026-01-24 23:10:50.07	11.87	35.01	-50.0	-63.3	3.5	1.52e+00	0	42	104	0	60	51308
2026-01-24 23:10:51.08	11.56	34.86	-50.0	-63.4	3.5	1.52e+00	0	42	104	0	60	51857
2026-01-24 23:10:52.08	11.26	34.72	-50.0	-63.3	3.5	1.52e+00	0	42	104	0	60	51586
2026-01-24 23:10:53.09	10.96	34.57	-50.0	-63.4	3.5	1.52e+00	0	42	104	0	60	51723
2026-01-24 23:10:54.11	10.66	34.42	-50.0	-63.3	3.5	1.52e+00	0	42	104	0	60	51581
2026-01-24 23:10:55.12	10.37	34.28	-50.0	-63.3	3.5	1.52e+00	0	42	104	0	60	51528
2026-01-24 23:10:56.13	10.07	34.13	-50.0	-63.3	3.5	1.51e+00	0	42	104	0	60	51336
2026-01-24 23:10:57.14	9.78	33.98	-50.0	-63.3	3.5	1.52e+00	0	42	104	0	60	51577
2026-01-24 23:10:58.15	9.50	33.83	-50.1	-63.3	3.5	1.52e+00	0	42	104	0	60	51485
2026-01-24 23:10:59.16	9.21	33.69	-50.2	-63.3	3.5	1.52e+00	0	42	104	0	60	51491
2026-01-24 23:11:00.17	8.93	33.54	-50.3	-63.3	3.5	1.52e+00	0	42	104	0	60	51372
2026-01-24 23:11:01.18	8.65	33.39	-50.3	-63.3	3.5	1.52e+00	0	42	104	0	60	51222
2026-01-24 23:11:02.18	8.38	33.24	-50.4	-63.3	3.5	1.52e+00	0	42	104	0	60	51205
2026-01-24 23:11:03.19	8.10	33.10	-50.5	-63.3	3.5	1.52e+00	0	42	104	0	60	51607
2026-01-24 23:11:04.20	7.83	32.95	-50.5	-63.3	3.5	1.52e+00	0	42	104	0	60	51468
2026-01-24 23:11:05.21	7.56	32.80	-50.5	-63.3	3.5	1.52e+00	0	42	104	0	60	51601
2026-01-24 23:11:06.22	7.30	32.65	-50.5	-63.3	3.5	1.52e+00	0	42	104	0	60	51368
2026-01-24 23:11:07.23	7.03	32.51	-50.5	-63.3	3.5	1.52e+00	0	42	104	0	60	51316
2026-01-24 23:11:08.25	6.77	32.36	-50.5	-63.3	3.5	1.52e+00	0	42	104	0	60	51381
2026-01-24 23:11:09.26	6.51	32.21	-50.5	-63.3	3.5	1.51e+00	0	42	104	0	60	51276
2026-01-24 23:11:10.27	6.25	32.06	-50.5	-63.3	3.5	1.52e+00	0	42	104	0	60	51482
2026-01-24 23:11:11.28	6.00	31.91	-50.5	-63.3	3.5	1.52e+00	0	42	104	0	60	51605
2026-01-24 23:11:12.29	5.74	31.76	-50.5	-63.4	3.5	1.52e+00	0	42	104	0	60	51695
2026-01-24 23:11:13.30	5.49	31.62	-50.5	-63.3	3.5	1.52e+00	0	42	104	0	60	51295
2026-01-24 23:11:14.31	5.25	31.47	-50.5	-63.3	3.5	1.52e+00	0	42	104	0	60	51240
2026-01-24 23:11:15.31	5.00	31.32	-50.5	-63.3	3.5	1.52e+00	0	42	104	0	60	51194
2026-01-24 23:11:16.33	4.76	31.18	-50.5	-63.3	3.5	1.52e+00	0	42	104	0	60	51255
2026-01-24 23:11:17.33	4.52	31.03	-50.5	-63.2	3.5	1.52e+00	0	42	104	0	60	50998
2026-01-24 23:11:18.34	4.28	30.88	-50.5	-63.3	3.5	1.52e+00	0	42	104	0	60	51299
2026-01-24 23:11:19.35	4.04	30.74	-50.5	-63.3	3.5	1.51e+00	0	42	104	0	60	51134
2026-01-24 23:11:20.36	3.81	30.59	-50.4	-63.3	3.5	1.52e+00	0	42	104	0	60	51048
2026-01-24 23:11:21.37	3.58	30.44	-50.4	-63.3	3.5	1.52e+00	0	42	104	0	60	51293
2026-01-24 23:11:22.38	3.35	30.30	-50.4	-63.3	3.5	1.52e+00	0	42	104	0	60	51288
2026-01-24 23:11:23.39	3.12	30.15	-50.4	-63.3	3.5	1.52e+00	0	42	104	0	60	51284
2026-01-24 23:11:24.40	2.89	30.01	-50.4	-63.3	3.5	1.52e+00	0	42	104	0	60	51097
2026-01-24 23:11:25.41	2.67	29.86	-50.5	-63.2	3.5	1.52e+00	0	42	104	0	60	50979
2026-01-24 23:11:26.42	2.45	29.72	-50.5	-63.2	3.5	1.52e+00	0	42	104	0	60	50796
2026-01-24 23:11:27.43	2.23	29.57	-50.5	-63.3	3.5	1.52e+00	0	42	104	0	60	51165
2026-01-24 23:11:28.44	2.01	29.43	-50.5	-63.2	3.5	1.52e+00	0	42	104	0	60	50959
2026-01-24 23:11:29.45	1.79	29.28	-50.5	-63.2	3.5	1.51e+00	0	42	104	0	60	50865
2026-01-24 23:11:30.46	1.58	29.14	-50.5	-63.3	3.5	1.52e+00	0	42	104	0	60	51028
2026-01-24 23:11:31.47	1.37	29.00	-50.4	-63.2	3.5	1.52e+00	0	42	104	0	60	50657
2026-01-24 23:11:32.48	1.16	28.85	-50.4	-63.2	3.5	1.52e+00	0	42	104	0	60	50594
2026-01-24 23:11:33.49	0.95	28.71	-50.4	-63.2	3.5	1.52e+00	0	42	104	0	60	50785
2026-01-24 23:11:34.50	0.74	28.57	-50.4	-63.2	3.5	1.51e+00	0	42	104	0	60	50750
2026-01-24 23:11:35.51	0.54	28.42	-50.4	-63.2	3.5	1.52e+00	0	42	104	0	60	51005
2026-01-24 23:11:36.52	0.34	28.28	-50.4	-63.2	3.5	1.52e+00	0	42	104	0	60	50918
2026-01-24 23:11:37.53	0.13	28.14	-50.5	-63.2	3.5	1.52e+00	0	42	104	0	60	50770
2026-01-24 23:11:38.53	359.94	28.00	-50.5	-63.2	3.5	1.52e+00	0	42	104	0	60	50981
2026-01-24 23:11:39.54	359.74	27.86	-50.5	-63.2	3.5	1.52e+00	0	42	104	0	60	50745
2026-01-24 23:11:40.55	359.54	27.72	-50.4	-63.2	3.5	1.52e+00	0	42	104	0	60	50654
2026-01-24 23:11:41.57	359.35	27.58	-50.4	-63.2	3.5	1.52e+00	0	42	104	0	60	50711
2026-01-24 23:11:42.58	359.16	27.44	-50.4	-63.2	3.5	1.52e+00	0	42	104	0	60	50736
2026-01-24 23:11:43.59	358.97	27.30	-50.4	-63.2	3.5	1.52e+00	0	42	104	0	60	50786
2026-01-24 23:11:44.60	358.78	27.16	-50.4	-63.1	3.5	1.51e+00	0	42	104	0	60	50430
2026-01-24 23:11:45.61	358.59	27.02	-50.4	-63.2	3.5	1.52e+00	0	42	104	0	60	50495
2026-01-24 23:11:46.62	358.41	26.88	-50.4	-63.2	3.5	1.52e+00	0	42	104	0	60	50541
2026-01-24 23:11:47.63	358.22	26.74	-50.4	-63.2	3.5	1.51e+00	0	42	104	0	60	50639
2026-01-24 23:11:48.64	358.04	26.60	-50.4	-63.1	3.5	1.52e+00	0	42	104	0	60	50343
2026-01-24 23:11:49.65	357.86	26.47	-50.4	-63.2	3.5	1.52e+00	0	42	104	0	60	50701
2026-01-24 23:11:50.66	357.68	26.33	-50.4	-63.1	3.5	1.52e+00	0	42	104	0	60	50400
2026-01-24 23:11:51.67	357.50	26.19	-50.4	-63.2	3.5	1.52e+00	0	42	104	0	60	50496
2026-01-24 23:11:52.68	357.33	26.06	-50.4	-63.2	3.5	1.52e+00	0	42	104	0	60	50816
2026-01-24 23:11:53.69	357.15	25.92	-50.4	-63.2	3.5	1.52e+00	0	42	104	0	60	50840
2026-01-24 23:11:54.70	356.98	25.78	-50.4	-63.2	3.5	1.52e+00	0	42	104	0	60	50605
2026-01-24 23:11:55.71	356.81	25.65	-50.4	-63.2	3.5	1.52e+00	0	42	104	0	60	50573
2026-01-24 23:11:56.72	356.64	25.51	-50.4	-63.2	3.5	1.51e+00	0	42	104	0	60	50940
2026-01-24 23:11:57.73	356.47	25.38	-50.4	-63.2	3.5	1.52e+00	0	42	104	0	60	50731
2026-01-24 23:11:58.74	356.30	25.25	-50.4	-63.2	3.5	1.52e+00	0	42	104	0	60	50788
2026-01-24 23:11:59.75	356.14	25.11	-50.4	-63.2	3.5	1.52e+00	0	42	104	0	60	50813
2026-01-24 23:12:00.75	355.98	24.98	-50.4	-63.2	3.5	1.52e+00	0	42	104	0	60	50693
2026-01-24 23:12:01.77	355.81	24.85	-50.4	-63.2	3.5	1.52e+00	0	42	104	0	60	50590
2026-01-24 23:12:02.78	355.65	24.71	-50.4	-63.2	3.5	1.52e+00	0	42	104	0	60	50602
2026-01-24 23:12:03.79	355.49	24.58	-50.4	-63.2	3.5	1.52e+00	0	42	104	0	60	50664
2026-01-24 23:12:04.80	355.33	24.45	-50.3	-63.2	3.5	1.52e+00	0	42	104	0	60	50535
2026-01-24 23:12:05.80	355.18	24.32	-50.3	-63.2	3.5	1.52e+00	0	42	104	0	60	50475
2026-01-24 23:12:06.81	355.02	24.19	-50.3	-63.1	3.5	1.52e+00	0	42	104	0	60	50272
2026-01-24 23:12:07.82	354.87	24.06	-50.3	-63.2	3.5	1.52e+00	0	42	104	0	60	50790
2026-01-24 23:12:08.83	354.71	23.93	-50.3	-63.2	3.5	1.52e+00	0	42	104	0	60	50500
2026-01-24 23:12:09.84	354.56	23.80	-50.3	-63.1	3.5	1.52e+00	0	42	104	0	60	50434
2026-01-24 23:12:10.85	354.41	23.67	-50.3	-63.2	3.5	1.51e+00	0	42	104	0	60	50486
2026-01-24 23:12:11.86	354.26	23.54	-50.3	-63.2	3.5	1.52e+00	0	42	104	0	60	50609
2026-01-24 23:12:12.87	354.11	23.41	-50.3	-63.1	3.6	1.51e+00	0	42	104	0	60	50417
2026-01-24 23:12:13.88	353.97	23.29	-50.3	-63.1	3.5	1.51e+00	0	42	104	0	60	50432
2026-01-24 23:12:14.89	353.82	23.16	-50.2	-63.1	3.5	1.52e+00	0	42	104	0	60	50049
2026-01-24 23:12:15.90	353.68	23.03	-50.2	-63.1	3.5	1.52e+00	0	42	104	0	60	50203
2026-01-24 23:12:16.91	353.53	22.91	-50.1	-63.1	3.5	1.52e+00	0	42	104	0	60	49983
2026-01-24 23:12:17.92	353.39	22.78	-50.1	-63.0	3.5	1.52e+00	0	42	104	0	60	49681
2026-01-24 23:12:18.93	353.25	22.66	-50.1	-63.0	3.5	1.52e+00	0	42	104	0	60	49502
2026-01-24 23:12:19.94	353.11	22.53	-50.1	-63.0	3.5	1.52e+00	0	42	104	0	60	49840
2026-01-24 23:12:20.95	352.97	22.41	-50.1	-63.1	3.5	1.52e+00	0	42	104	0	60	49874
2026-01-24 23:12:21.96	352.83	22.28	-50.2	-63.0	3.5	1.52e+00	0	42	104	0	60	49846
2026-01-24 23:12:22.97	352.70	22.16	-50.2	-63.1	3.5	1.52e+00	0	42	104	0	60	49959
2026-01-24 23:12:23.98	352.56	22.03	-50.2	-63.1	3.5	1.52e+00	0	42	104	0	60	49951
2026-01-24 23:12:24.99	352.43	21.91	-50.2	-63.1	3.5	1.52e+00	0	42	104	0	60	50082
2026-01-24 23:12:26.00	352.30	21.79	-50.2	-63.0	3.5	1.52e+00	0	42	104	0	60	49811
2026-01-24 23:12:27.01	352.16	21.67	-50.2	-63.0	3.5	1.52e+00	0	42	104	0	60	49721
2026-01-24 23:12:28.02	352.03	21.54	-50.1	-63.0	3.5	1.52e+00	0	42	104	0	60	49668
2026-01-24 23:12:29.03	351.90	21.42	-50.1	-63.0	3.5	1.52e+00	0	42	104	0	60	49655
2026-01-24 23:12:30.04	351.77	21.30	-50.1	-63.0	3.5	1.52e+00	0	42	104	0	60	49559
2026-01-24 23:12:31.05	351.65	21.18	-50.0	-62.9	3.5	1.52e+00	0	42	104	0	60	49205
2026-01-24 23:12:32.06	351.52	21.06	-50.1	-63.0	3.5	1.52e+00	0	42	104	0	60	49468
2026-01-24 23:12:33.07	351.39	20.94	-50.0	-63.0	3.5	1.52e+00	0	42	104	0	60	49378
2026-01-24 23:12:34.08	351.27	20.82	-50.1	-62.9	3.5	1.52e+00	0	42	104	0	60	49060
2026-01-24 23:12:35.09	351.14	20.70	-50.1	-62.9	3.5	1.52e+00	0	42	104	0	60	49175
2026-01-24 23:12:36.10	351.02	20.58	-50.0	-62.9	3.5	1.52e+00	0	42	104	0	60	48829
2026-01-24 23:12:37.11	350.90	20.47	-50.0	-62.9	3.5	1.52e+00	0	42	104	0	60	48893
2026-01-24 23:12:38.12	350.78	20.35	-50.0	-62.8	3.5	1.52e+00	0	42	104	0	60	48696
2026-01-24 23:12:39.13	350.66	20.23	-49.9	-62.9	3.5	1.52e+00	0	42	104	0	60	48900
2026-01-24 23:12:40.14	350.54	20.12	-49.9	-62.9	3.5	1.52e+00	0	42	104	0	60	49079
2026-01-24 23:12:41.14	350.42	20.00	-49.9	-62.9	3.5	1.52e+00	0	42	104	0	60	49102
2026-01-24 23:12:42.15	350.31	19.88	-49.9	-62.9	3.5	1.51e+00	0	42	104	0	60	49102
2026-01-24 23:12:43.17	350.19	19.77	-49.9	-62.9	3.5	1.52e+00	0	42	104	0	60	48951
2026-01-24 23:12:44.18	350.07	19.65	-49.9	-62.9	3.5	1.52e+00	0	42	104	0	60	49064
2026-01-24 23:12:45.19	349.96	19.54	-49.9	-62.9	3.5	1.52e+00	0	42	104	0	60	48874
2026-01-24 23:12:46.19	349.85	19.42	-49.9	-62.9	3.5	1.52e+00	0	42	104	0	60	48768
2026-01-24 23:12:47.20	349.73	19.31	-49.9	-62.8	3.5	1.52e+00	0	42	104	0	60	48543
2026-01-24 23:12:48.21	349.62	19.20	-49.9	-62.9	3.5	1.51e+00	0	42	104	0	60	48919
2026-01-24 23:12:49.22	349.51	19.08	-49.9	-62.8	3.5	1.52e+00	0	42	104	0	60	48500
2026-01-24 23:12:50.23	349.40	18.97	-49.9	-62.8	3.5	1.52e+00	0	42	104	0	60	48482
2026-01-24 23:12:51.24	349.29	18.86	-49.9	-62.8	3.5	1.52e+00	0	42	104	0	60	48653
2026-01-24 23:12:52.25	349.18	18.75	-49.9	-62.8	3.5	1.52e+00	0	42	104	0	60	48179
2026-01-24 23:12:53.26	349.08	18.64	-49.9	-62.8	3.5	1.51e+00	0	42	104	0	60	48290
2026-01-24 23:12:54.27	348.97	18.52	-49.8	-62.8	3.5	1.52e+00	0	42	104	0	60	48179
2026-01-24 23:12:55.28	348.86	18.41	-49.8	-62.7	3.5	1.52e+00	0	42	104	0	60	48088
2026-01-24 23:12:56.29	348.76	18.30	-49.8	-62.7	3.5	1.52e+00	0	42	104	0	60	47854
2026-01-24 23:12:57.30	348.65	18.19	-49.8	-62.7	3.5	1.52e+00	0	42	104	0	60	47870
2026-01-24 23:12:58.31	348.55	18.08	-49.8	-62.7	3.5	1.52e+00	0	42	104	0	60	47723
2026-01-24 23:12:59.32	348.45	17.97	-49.8	-62.7	3.5	1.52e+00	0	42	104	0	60	47836
2026-01-24 23:13:00.33	348.34	17.87	-49.8	-62.7	3.5	1.52e+00	0	42	104	0	60	47716
2026-01-24 23:13:01.34	348.24	17.76	-49.8	-62.7	3.5	1.52e+00	0	42	104	0	60	47826
2026-01-24 23:13:02.35	348.14	17.65	-49.8	-62.6	3.5	1.52e+00	0	42	104	0	60	47571
2026-01-24 23:13:03.36	348.04	17.54	-49.8	-62.6	3.5	1.52e+00	0	42	104	0	60	47587
2026-01-24 23:13:04.37	347.94	17.43	-49.8	-62.6	3.5	1.52e+00	0	42	104	0	60	47245
2026-01-24 23:13:05.38	347.84	17.33	-49.7	-62.6	3.5	1.52e+00	0	42	104	0	60	47305
2026-01-24 23:13:06.39	347.75	17.22	-49.7	-62.6	3.5	1.52e+00	0	42	104	0	60	47107
2026-01-24 23:13:07.40	347.65	17.11	-49.7	-62.5	3.5	1.52e+00	0	42	104	0	60	46944
2026-01-24 23:13:08.41	347.55	17.01	-49.6	-62.5	3.5	1.52e+00	0	42	104	0	60	46978
2026-01-24 23:13:09.42	347.46	16.90	-49.6	-62.5	3.5	1.52e+00	0	42	104	0	60	46899
2026-01-24 23:13:10.43	347.36	16.80	-49.5	-62.5	3.5	1.52e+00	0	42	104	0	60	46805
2026-01-24 23:13:11.44	347.27	16.69	-49.6	-62.6	3.5	1.52e+00	0	42	104	0	60	47234
2026-01-24 23:13:12.45	347.17	16.59	-50.2	-63.0	3.5	1.52e+00	0	42	104	0	60	49697
2026-01-24 23:13:13.46	347.08	16.49	-50.4	-63.3	3.5	1.52e+00	0	42	104	0	60	51230
2026-01-24 23:13:14.47	346.99	16.38	-50.4	-63.4	3.5	1.52e+00	0	42	104	0	60	52030
2026-01-24 23:13:15.48	346.90	16.28	-50.6	-63.4	3.5	1.52e+00	0	42	104	0	60	51862
2026-01-24 23:13:16.49	346.81	16.18	-50.7	-63.6	3.5	1.52e+00	0	42	104	0	60	53125
2026-01-24 23:13:17.51	346.72	16.07	-50.6	-63.6	3.5	1.52e+00	0	42	104	0	60	53278
2026-01-24 23:13:18.52	346.63	15.97	-50.9	-63.7	3.5	1.52e+00	0	42	104	0	60	54046
2026-01-24 23:13:19.53	346.54	15.87	-51.0	-63.8	3.5	1.52e+00	0	42	104	0	60	54627
2026-01-24 23:13:20.54	346.45	15.77	-51.0	-63.8	3.5	1.52e+00	0	42	104	0	60	54598
2026-01-24 23:13:21.54	346.36	15.67	-50.9	-63.9	3.5	1.52e+00	0	42	104	0	60	54824
2026-01-24 23:13:22.55	346.27	15.57	-51.1	-63.9	3.5	1.52e+00	0	42	104	0	60	54976
2026-01-24 23:13:23.56	346.19	15.47	-51.1	-64.0	3.5	1.52e+00	0	42	104	0	60	55545
2026-01-24 23:13:24.57	346.10	15.37	-51.1	-64.0	3.5	1.52e+00	0	42	104	0	60	55607
2026-01-24 23:13:25.58	346.02	15.27	-51.1	-64.0	3.5	1.52e+00	0	42	104	0	60	55396
2026-01-24 23:13:26.59	345.93	15.17	-51.2	-64.0	3.5	1.52e+00	0	42	104	0	60	55628
2026-01-24 23:13:27.60	345.85	15.07	-51.2	-64.1	3.5	1.52e+00	0	42	104	0	60	56102
2026-01-24 23:13:28.61	345.76	14.97	-51.2	-64.1	3.5	1.51e+00	0	42	104	0	60	56297
2026-01-24 23:13:29.62	345.68	14.87	-51.2	-64.1	3.5	1.52e+00	0	42	104	0	60	56240
2026-01-24 23:13:30.63	345.60	14.77	-51.3	-64.1	3.5	1.52e+00	0	42	104	0	60	56306
2026-01-24 23:13:31.64	345.52	14.67	-51.3	-64.1	3.5	1.52e+00	0	42	104	0	60	56565
2026-01-24 23:13:32.65	345.44	14.58	-51.3	-64.1	3.5	1.52e+00	0	42	104	0	60	56467
2026-01-24 23:13:33.66	345.35	14.48	-51.3	-64.2	3.5	1.52e+00	0	42	104	0	60	56640
2026-01-24 23:13:34.67	345.27	14.38	-51.3	-64.1	3.5	1.52e+00	0	42	104	0	60	56326
2026-01-24 23:13:35.68	345.19	14.29	-51.2	-64.1	3.5	1.52e+00	0	42	104	0	60	56517
2026-01-24 23:13:36.69	345.12	14.19	-51.3	-64.1	3.5	1.51e+00	0	42	104	0	60	56102
2026-01-24 23:13:37.70	345.04	14.10	-51.2	-64.0	3.5	1.51e+00	0	42	104	0	60	55944
2026-01-24 23:13:38.71	344.96	14.00	-51.2	-64.1	3.5	1.52e+00	0	42	104	0	60	56116
2026-01-24 23:13:39.72	344.88	13.90	-51.1	-64.0	3.5	1.52e+00	0	42	104	0	60	55494
2026-01-24 23:13:40.73	344.80	13.81	-51.1	-64.0	3.5	1.52e+00	0	42	104	0	60	55464
2026-01-24 23:13:41.74	344.73	13.72	-51.1	-64.0	3.5	1.52e+00	0	42	104	0	60	55351
2026-01-24 23:13:42.75	344.65	13.62	-51.0	-63.9	3.5	1.52e+00	0	42	104	0	60	54909
2026-01-24 23:13:43.75	344.58	13.53	-50.8	-63.8	3.5	1.52e+00	0	42	104	0	60	54122
2026-01-24 23:13:44.76	344.50	13.43	-50.7	-63.5	3.5	1.52e+00	0	42	104	0	60	52787
2026-01-24 23:13:45.77	344.43	13.34	-50.3	-63.1	3.5	1.51e+00	0	42	104	0	60	50091
2026-01-24 23:13:46.78	344.35	13.25	-49.9	-60.3	4.0	1.49e+00	0	42	104	0	60	36390
2026-01-24 23:13:47.79	344.28	13.16	-38.7	-39.8	22.4	0.00e+00	0	42	0	1048576	52	5416
2026-01-24 23:13:48.80	344.21	13.06	-38.6	-39.6	22.5	0.00e+00	0	42	0	5242880	50	5954
2026-01-24 23:13:49.81	344.13	12.97	-48.2	-53.1	5.7	3.29e-03	0	42	0	7340032	60	15855
2026-01-24 23:13:50.82	344.06	12.88	-49.6	-60.0	4.1	1.04e+00	0	42	104	8388608	60	35173
2026-01-24 23:13:51.83	343.99	12.79	-38.8	-40.1	21.9	2.85e-04	0	42	0	8388608	50	6313
2026-01-24 23:13:52.84	343.92	12.70	-42.9	-44.5	17.6	0.00e+00	0	42	0	11534336	54	8305
2026-01-24 23:13:53.85	343.85	12.61	-44.3	-46.4	13.1	0.00e+00	0	42	0	14680064	56	9221
2026-01-24 23:13:54.86	343.78	12.52	-39.4	-40.5	21.9	0.00e+00	0	42	0	17825792	54	5264
2026-01-24 23:13:55.86	343.71	12.43	-39.2	-40.3	22.0	0.00e+00	0	42	0	20971520	52	5766
2026-01-24 23:13:56.87	343.64	12.34	-39.1	-40.2	22.0	0.00e+00	0	42	0	24117248	52	5688
2026-01-24 23:13:57.88	343.57	12.25	-38.9	-40.0	22.2	0.00e+00	0	42	0	27262976	52	5542
2026-01-24 23:13:58.89	343.50	12.16	-38.9	-40.0	22.3	0.00e+00	0	42	0	30408704	52	5550
2026-01-24 23:13:59.90	343.44	12.07	-39.2	-40.4	22.0	0.00e+00	0	42	0	33554432	52	5794
2026-01-24 23:14:00.90	343.37	11.98	-39.0	-40.1	22.2	0.00e+00	0	42	0	36700160	52	5642
2026-01-24 23:14:01.91	343.30	11.89	-39.1	-40.2	22.1	0.00e+00	0	42	0	39845888	52	5691
2026-01-24 23:14:02.92	343.23	11.80	-39.1	-40.3	21.0	0.00e+00	0	42	0	42991616	52	5763
2026-01-24 23:14:03.93	343.17	11.72	-39.2	-40.5	19.2	0.00e+00	0	42	0	46137344	52	5921
2026-01-24 23:14:04.94	343.10	11.63	-38.7	-40.2	17.8	0.00e+00	0	42	0	49283072	50	6413
2026-01-24 23:14:05.95	343.04	11.54	-38.8	-40.5	17.1	0.00e+00	0	42	0	52428800	50	6625
2026-01-24 23:14:06.96	342.97	11.45	-38.9	-40.5	17.9	0.00e+00	0	42	0	55574528	50	6577
2026-01-24 23:14:07.97	342.91	11.37	-39.1	-40.4	20.2	0.00e+00	0	42	0	58720256	50	6501
2026-01-24 23:14:08.98	342.84	11.28	-39.0	-40.2	21.9	0.00e+00	0	42	0	61865984	50	6354
2026-01-24 23:14:09.99	342.78	11.19	-39.1	-40.2	22.0	0.00e+00	0	42	0	65011712	50	6380
2026-01-24 23:14:11.00	342.72	11.11	-39.1	-40.2	21.9	0.00e+00	0	42	0	68157440	50	6406
2026-01-24 23:14:12.01	342.65	11.02	-39.2	-40.3	21.8	0.00e+00	0	42	0	71303168	50	6485
2026-01-24 23:14:13.02	342.59	10.94	-39.2	-40.3	21.7	0.00e+00	0	42	0	74448896	50	6494
2026-01-24 23:14:14.03	342.53	10.85	-39.3	-40.4	21.9	0.00e+00	0	42	0	77594624	50	6511
2026-01-24 23:14:15.03	342.47	10.77	-39.2	-40.3	21.7	0.00e+00	0	42	0	80740352	50	6481
2026-01-24 23:14:16.04	342.40	10.68	-39.3	-40.4	21.7	0.00e+00	0	42	0	83886080	50	6569
2026-01-24 23:14:17.05	342.34	10.60	-39.1	-40.1	21.8	0.00e+00	0	42	0	87031808	50	6346
