passes_logs/2026/01/24/R4.6S_Anadyr/R4.6S_Anadyr__20260124_075416_TY-42_rec.log

#Pass ID: 20260124_075416_TY-42
#Satellite: TY-42
#Configuration: TY-42_900M
#almurnet v.1.7.20251203
#Start time: 2026-01-24 07:54:48

#Version: 2.2.20231116
#Station: R4.6S_Anadyr
#Location: 177.4865 lon 64.73178 lat
#TLE: 1 64048U 25103A   26023.66790509  .00008008  00000-0  38191-3 0 09999
#TLE: 2 64048 097.4117 098.9223 0001893 091.9782 302.8981 15.19160197 38139

#Time	Az	El	Level	Level2	SNR	BER	BlckErr	Temp	State	Recorded	gain1	gain2
2026-01-24 07:54:48.97	115.58	2.00	-51.9	-69.5	3.6	3.02e+01	0	39	0	0	60	115436
2026-01-24 07:54:49.97	115.50	2.07	-49.0	-51.7	6.1	0.00e+00	0	40	104	0	60	46948
2026-01-24 07:54:50.98	115.43	2.13	-49.0	-51.6	6.1	0.00e+00	0	40	104	0	60	46764
2026-01-24 07:54:52.00	115.35	2.20	-49.0	-51.7	6.1	0.00e+00	0	40	104	0	60	47010
2026-01-24 07:54:53.00	115.27	2.26	-49.1	-51.7	6.1	0.00e+00	0	41	104	0	60	47073
2026-01-24 07:54:54.02	115.19	2.33	-49.0	-51.7	6.1	0.00e+00	0	41	104	0	60	46902
2026-01-24 07:54:55.03	115.12	2.39	-49.1	-51.7	6.1	0.00e+00	0	41	104	0	60	47118
2026-01-24 07:54:56.04	115.04	2.46	-49.1	-51.7	6.1	0.00e+00	0	41	104	0	60	47158
2026-01-24 07:54:57.05	114.96	2.52	-49.0	-51.7	6.1	0.00e+00	0	41	104	0	60	46835
2026-01-24 07:54:58.06	114.88	2.59	-49.1	-51.7	6.1	0.00e+00	0	41	104	0	60	47107
2026-01-24 07:54:59.07	114.80	2.66	-49.1	-51.7	6.1	0.00e+00	0	41	104	0	60	46938
2026-01-24 07:55:00.08	114.72	2.72	-49.0	-51.7	6.1	0.00e+00	0	41	104	0	60	47000
2026-01-24 07:55:01.09	114.64	2.79	-49.0	-51.6	6.1	0.00e+00	0	41	104	0	60	46791
2026-01-24 07:55:02.10	114.56	2.86	-49.0	-51.7	6.1	0.00e+00	0	41	104	0	60	46871
2026-01-24 07:55:03.11	114.47	2.92	-49.1	-51.7	6.1	0.00e+00	0	41	104	0	60	47235
2026-01-24 07:55:04.12	114.39	2.99	-49.1	-51.7	6.1	0.00e+00	0	41	104	0	60	47169
2026-01-24 07:55:05.13	114.31	3.06	-49.0	-51.7	6.1	0.00e+00	0	41	104	0	60	46896
2026-01-24 07:55:06.14	114.23	3.12	-49.1	-51.7	6.1	0.00e+00	0	41	104	0	60	47000
2026-01-24 07:55:07.15	114.14	3.19	-49.0	-51.7	6.1	0.00e+00	0	41	104	0	60	46988
2026-01-24 07:55:08.16	114.06	3.26	-49.0	-51.7	6.1	0.00e+00	0	41	104	0	60	46950
2026-01-24 07:55:09.17	113.97	3.33	-49.0	-51.6	6.1	0.00e+00	0	41	104	0	60	46740
2026-01-24 07:55:10.18	113.89	3.39	-49.0	-51.6	6.1	0.00e+00	0	41	104	0	60	46786
2026-01-24 07:55:11.19	113.80	3.46	-49.0	-51.6	6.1	0.00e+00	0	41	104	0	60	46709
2026-01-24 07:55:12.20	113.72	3.53	-49.0	-51.5	6.1	0.00e+00	0	41	104	0	60	46297
2026-01-24 07:55:13.21	113.63	3.60	-49.0	-51.7	6.1	0.00e+00	0	41	104	0	60	46942
2026-01-24 07:55:14.22	113.54	3.67	-49.0	-51.6	6.1	0.00e+00	0	41	104	0	60	46748
2026-01-24 07:55:15.23	113.45	3.74	-49.0	-51.6	6.1	0.00e+00	0	41	104	0	60	46793
2026-01-24 07:55:16.24	113.37	3.80	-49.1	-51.7	6.1	0.00e+00	0	41	104	0	60	47092
2026-01-24 07:55:17.24	113.28	3.87	-48.9	-51.7	6.1	0.00e+00	0	41	104	0	60	46964
2026-01-24 07:55:18.26	113.19	3.94	-49.4	-52.1	6.0	0.00e+00	0	41	104	0	60	49477
2026-01-24 07:55:19.27	113.10	4.01	-49.1	-51.7	6.1	0.00e+00	0	41	104	0	60	47276
2026-01-24 07:55:20.28	113.01	4.08	-50.2	-52.8	6.1	0.00e+00	0	41	104	0	60	53323
2026-01-24 07:55:21.28	112.92	4.15	-49.3	-51.9	6.1	0.00e+00	0	41	104	0	60	48428
2026-01-24 07:55:22.29	112.82	4.22	-49.0	-51.7	6.1	0.00e+00	0	41	104	0	60	47241
2026-01-24 07:55:23.30	112.73	4.29	-48.8	-51.6	6.1	0.00e+00	0	41	104	0	60	46608
2026-01-24 07:55:24.31	112.64	4.36	-49.0	-51.7	6.1	0.00e+00	0	41	104	0	60	47281
2026-01-24 07:55:25.32	112.55	4.43	-49.3	-52.0	6.1	0.00e+00	0	41	104	0	60	48808
2026-01-24 07:55:26.33	112.45	4.50	-49.8	-52.4	6.1	0.00e+00	0	41	104	0	60	50770
2026-01-24 07:55:27.34	112.36	4.57	-49.7	-52.2	6.1	0.00e+00	0	41	104	0	60	50033
2026-01-24 07:55:28.35	112.26	4.64	-50.3	-52.9	6.1	0.00e+00	0	41	104	0	60	53885
2026-01-24 07:55:29.36	112.17	4.72	-50.2	-52.7	6.1	0.00e+00	0	41	104	0	60	53041
2026-01-24 07:55:30.37	112.07	4.79	-49.5	-52.1	6.1	0.00e+00	0	41	104	0	60	49456
2026-01-24 07:55:31.38	111.97	4.86	-49.8	-52.4	6.1	0.00e+00	0	41	104	0	60	50892
2026-01-24 07:55:32.39	111.87	4.93	-49.9	-52.4	6.1	0.00e+00	0	42	104	0	60	50827
2026-01-24 07:55:33.40	111.78	5.00	-50.0	-52.5	6.1	0.00e+00	0	41	104	0	60	51749
2026-01-24 07:55:34.41	111.68	5.08	-50.0	-52.5	6.1	0.00e+00	0	42	104	0	60	51574
2026-01-24 07:55:35.42	111.58	5.15	-50.1	-52.6	6.1	0.00e+00	0	41	104	0	60	52438
2026-01-24 07:55:36.42	111.48	5.22	-50.2	-52.8	6.1	0.00e+00	0	42	104	0	60	53599
2026-01-24 07:55:37.43	111.38	5.29	-50.4	-53.0	6.1	0.00e+00	0	42	104	0	60	54403
2026-01-24 07:55:38.44	111.28	5.37	-50.3	-52.9	6.1	0.00e+00	0	41	104	0	60	53917
2026-01-24 07:55:39.45	111.17	5.44	-50.3	-52.8	6.1	0.00e+00	0	41	104	0	60	53232
2026-01-24 07:55:40.46	111.07	5.51	-50.4	-52.9	6.1	0.00e+00	0	41	104	0	60	54283
2026-01-24 07:55:41.47	110.97	5.59	-50.4	-52.9	6.1	0.00e+00	0	42	104	0	60	54032
2026-01-24 07:55:42.48	110.86	5.66	-46.6	-47.6	7.8	0.00e+00	0	42	104	0	60	29412
2026-01-24 07:55:43.49	110.76	5.73	-49.4	-51.4	6.2	0.00e+00	0	42	104	0	60	45589
2026-01-24 07:55:44.50	110.65	5.81	-37.1	-37.3	12.2	0.00e+00	4948	41	104	0	50	16000
2026-01-24 07:55:45.51	110.55	5.88	-37.1	-37.6	12.7	0.00e+00	0	42	0	109051904	50	16506
2026-01-24 07:55:46.52	110.44	5.96	-34.9	-35.4	14.1	1.68e-01	0	42	0	218103808	46	16064
2026-01-24 07:55:47.53	110.33	6.03	-35.0	-35.5	14.1	1.68e-01	0	42	0	327155712	44	18298
2026-01-24 07:55:48.54	110.22	6.11	-34.4	-35.0	14.1	2.17e-02	0	42	0	452984832	42	19303
2026-01-24 07:55:49.54	110.11	6.18	-32.8	-33.3	14.9	2.17e-02	0	42	0	562036736	42	16022
2026-01-24 07:55:50.55	110.00	6.26	-32.9	-33.4	14.9	1.29e-02	0	42	0	671088640	40	18206
2026-01-24 07:55:51.56	109.89	6.33	-31.5	-32.0	15.5	1.29e-02	0	42	0	788529152	40	15439
2026-01-24 07:55:52.57	109.78	6.41	-31.1	-31.6	15.6	3.86e-03	0	42	0	897581056	38	16546
2026-01-24 07:55:53.58	109.67	6.48	-30.5	-31.1	15.8	3.86e-03	0	42	0	1015021568	36	17462
2026-01-24 07:55:54.59	109.56	6.56	-30.3	-30.9	16.0	8.12e-04	0	42	0	1132462080	36	17095
2026-01-24 07:55:55.60	109.44	6.64	-30.1	-30.6	16.1	8.12e-04	0	42	0	1241513984	36	16519
2026-01-24 07:55:56.61	109.33	6.71	-30.3	-30.8	16.0	3.43e-04	0	42	0	1350565888	34	18965
2026-01-24 07:55:57.62	109.21	6.79	-30.3	-30.9	15.9	3.43e-04	0	42	0	1468006400	34	19109
2026-01-24 07:55:58.63	109.10	6.87	-30.5	-31.0	15.9	2.34e-04	0	42	0	1585446912	34	19488
2026-01-24 07:55:59.64	108.98	6.94	-30.2	-30.8	16.0	2.34e-04	0	42	0	1694498816	34	18958
2026-01-24 07:56:00.65	108.86	7.02	-30.0	-30.6	15.9	5.12e-04	0	42	0	1811939328	34	18540
2026-01-24 07:56:01.66	108.75	7.10	-30.2	-30.7	16.0	5.12e-04	0	42	0	1920991232	34	18830
2026-01-24 07:56:02.67	108.63	7.18	-29.8	-30.3	16.1	2.56e-04	0	42	0	2038431744	34	17981
2026-01-24 07:56:03.68	108.51	7.26	-29.3	-29.9	16.2	2.56e-04	0	42	0	2155872256	34	17030
2026-01-24 07:56:04.69	108.39	7.33	-30.0	-30.5	16.0	1.63e-04	0	42	0	2264924160	34	18411
2026-01-24 07:56:05.70	108.27	7.41	-29.7	-30.3	16.2	2.89e-04	0	42	0	2382364672	34	17878
2026-01-24 07:56:06.71	108.14	7.49	-29.6	-30.1	16.3	2.89e-04	0	42	0	2491416576	34	17579
2026-01-24 07:56:07.72	108.02	7.57	-29.7	-30.3	16.2	7.08e-05	0	43	0	2600468480	34	17810
2026-01-24 07:56:08.73	107.90	7.65	-30.0	-30.5	16.2	7.08e-05	0	42	0	2717908992	34	18412
2026-01-24 07:56:09.74	107.77	7.73	-29.2	-29.8	16.4	1.25e-04	0	42	0	2835349504	34	16829
2026-01-24 07:56:10.75	107.64	7.81	-29.5	-30.0	16.3	1.25e-04	0	42	0	2944401408	34	17316
2026-01-24 07:56:11.76	107.52	7.89	-29.2	-29.7	16.3	8.17e-05	0	42	0	3061841920	34	16755
2026-01-24 07:56:12.76	107.39	7.97	-29.6	-30.1	16.2	8.17e-05	0	43	0	3170893824	34	17540
2026-01-24 07:56:13.77	107.26	8.05	-29.5	-30.0	16.2	9.80e-05	0	42	0	3279945728	34	17352
2026-01-24 07:56:14.78	107.13	8.13	-29.3	-29.9	16.3	9.80e-05	0	43	0	3405774848	34	17016
2026-01-24 07:56:15.79	107.00	8.21	-29.8	-30.3	16.3	8.17e-05	0	43	0	3514826752	34	17894
2026-01-24 07:56:16.80	106.87	8.29	-29.5	-30.0	16.3	8.17e-05	0	43	0	3623878656	34	17279
2026-01-24 07:56:17.81	106.74	8.37	-29.9	-30.4	16.2	9.26e-05	0	43	0	3741319168	34	18085
2026-01-24 07:56:18.83	106.61	8.45	-29.8	-30.3	16.2	9.26e-05	0	43	0	3850371072	34	17947
2026-01-24 07:56:19.84	106.47	8.54	-29.7	-30.2	16.3	1.47e-04	0	43	0	3967811584	34	17739
2026-01-24 07:56:20.84	106.34	8.62	-29.2	-29.8	16.4	1.47e-04	0	42	0	4085252096	34	16829
2026-01-24 07:56:21.85	106.20	8.70	-29.7	-30.2	16.3	1.20e-04	0	43	0	4194304000	34	17663
2026-01-24 07:56:22.86	106.07	8.78	-29.4	-29.9	16.4	1.20e-04	0	42	0	4311744512	34	17072
2026-01-24 07:56:23.88	105.93	8.86	-28.7	-29.2	16.6	5.44e-05	0	43	0	4420796416	34	15848
2026-01-24 07:56:24.89	105.79	8.95	-29.1	-29.6	16.5	5.44e-05	0	43	0	4538236928	32	18539
2026-01-24 07:56:25.90	105.65	9.03	-28.5	-29.1	16.5	2.72e-05	0	43	0	4647288832	32	17449
2026-01-24 07:56:26.91	105.51	9.11	-28.9	-29.4	16.4	4.35e-05	0	43	0	4764729344	32	18209
2026-01-24 07:56:27.92	105.37	9.20	-28.8	-29.3	16.5	4.35e-05	0	43	0	4873781248	32	18009
2026-01-24 07:56:28.93	105.22	9.28	-28.6	-29.1	16.5	4.35e-05	0	43	0	4991221760	32	17585
2026-01-24 07:56:29.94	105.08	9.36	-28.3	-28.8	16.7	4.35e-05	0	43	0	5108662272	32	16863
2026-01-24 07:56:30.94	104.94	9.45	-28.8	-29.3	16.6	2.72e-05	0	43	0	5217714176	32	18000
2026-01-24 07:56:31.96	104.79	9.53	-28.5	-29.0	16.7	2.72e-05	0	43	0	5335154688	32	17295
2026-01-24 07:56:32.97	104.64	9.62	-28.7	-29.2	16.6	5.40e-06	0	43	0	5444206592	32	17680
2026-01-24 07:56:33.98	104.49	9.70	-28.8	-29.3	16.6	5.40e-06	0	43	0	5553258496	32	17874
2026-01-24 07:56:34.99	104.34	9.79	-28.9	-29.4	16.6	1.63e-05	0	43	0	5670699008	32	18027
2026-01-24 07:56:36.00	104.19	9.87	-28.8	-29.3	16.5	1.63e-05	0	43	0	5788139520	32	17842
2026-01-24 07:56:37.01	104.04	9.96	-28.8	-29.3	16.6	3.81e-05	0	43	0	5897191424	32	17971
2026-01-24 07:56:38.02	103.89	10.04	-28.5	-29.0	16.7	3.81e-05	0	43	0	6014631936	32	17311
2026-01-24 07:56:39.02	103.74	10.13	-28.4	-28.9	16.7	1.63e-05	0	43	0	6123683840	32	17114
2026-01-24 07:56:40.03	103.58	10.22	-28.4	-28.9	16.7	1.63e-05	0	43	0	6241124352	32	17099
2026-01-24 07:56:41.04	103.43	10.30	-28.6	-29.0	16.7	5.40e-06	0	43	0	6358564864	32	17397
2026-01-24 07:56:42.05	103.27	10.39	-28.7	-29.2	16.7	5.40e-06	0	43	0	6467616768	32	17651
2026-01-24 07:56:43.06	103.11	10.48	-28.7	-29.2	16.7	1.08e-05	0	43	0	6576668672	32	17715
2026-01-24 07:56:44.07	102.95	10.56	-29.0	-29.5	16.6	1.08e-05	0	43	0	6694109184	32	18238
2026-01-24 07:56:45.09	102.79	10.65	-28.7	-29.1	16.7	4.35e-05	0	43	0	6811549696	32	17588
2026-01-24 07:56:46.10	102.63	10.74	-28.8	-29.3	16.6	4.90e-05	0	43	0	6920601600	32	17914
2026-01-24 07:56:47.11	102.47	10.83	-28.7	-29.2	16.6	4.90e-05	0	43	0	7038042112	32	17630
2026-01-24 07:56:48.12	102.30	10.91	-28.4	-28.9	16.7	1.63e-05	0	43	0	7147094016	32	17115
2026-01-24 07:56:49.13	102.14	11.00	-28.6	-29.1	16.8	1.63e-05	0	43	0	7264534528	32	17433
2026-01-24 07:56:50.14	101.97	11.09	-28.8	-29.2	16.8	1.63e-05	0	43	0	7381975040	32	17800
2026-01-24 07:56:51.15	101.80	11.18	-28.3	-28.7	16.9	1.63e-05	0	43	0	7491026944	32	16778
2026-01-24 07:56:52.16	101.63	11.27	-28.0	-28.5	17.0	1.08e-05	0	43	0	7600078848	32	16278
2026-01-24 07:56:53.17	101.46	11.36	-28.1	-28.6	17.0	1.08e-05	0	43	0	7717519360	32	16496
2026-01-24 07:56:54.18	101.29	11.45	-28.0	-28.5	17.0	5.40e-06	0	43	0	7834959872	32	16367
2026-01-24 07:56:55.19	101.12	11.54	-27.9	-28.4	17.0	5.40e-06	0	43	0	7944011776	32	16188
2026-01-24 07:56:56.20	100.95	11.63	-27.8	-28.2	17.0	5.40e-06	0	43	0	8061452288	32	15820
2026-01-24 07:56:57.20	100.77	11.71	-27.8	-28.3	17.0	5.40e-06	0	43	0	8170504192	30	17915
2026-01-24 07:56:58.21	100.60	11.80	-27.8	-28.3	17.1	5.40e-06	0	43	0	8287944704	30	17897
2026-01-24 07:56:59.22	100.42	11.90	-28.0	-28.5	17.0	5.40e-06	0	43	0	8396996608	30	18334
2026-01-24 07:57:00.23	100.24	11.99	-27.7	-28.2	17.1	0.00e+00	0	43	0	8514437120	30	17677
2026-01-24 07:57:01.24	100.06	12.08	-27.7	-28.1	17.1	0.00e+00	0	43	0	8631877632	30	17555
2026-01-24 07:57:02.25	99.88	12.17	-27.7	-28.1	17.0	0.00e+00	0	43	0	8740929536	30	17585
2026-01-24 07:57:03.25	99.69	12.26	-27.6	-28.0	17.0	0.00e+00	0	43	0	8849981440	30	17394
2026-01-24 07:57:04.26	99.51	12.35	-27.6	-28.0	17.0	0.00e+00	0	43	0	8967421952	30	17366
2026-01-24 07:57:05.27	99.32	12.44	-27.6	-28.1	17.0	0.00e+00	0	43	0	9076473856	30	17530
2026-01-24 07:57:06.28	99.14	12.53	-27.4	-27.9	17.1	0.00e+00	0	43	0	9193914368	30	17130
2026-01-24 07:57:07.29	98.95	12.62	-27.5	-28.0	17.2	0.00e+00	0	43	0	9311354880	30	17331
2026-01-24 07:57:08.30	98.76	12.72	-27.4	-27.9	17.2	0.00e+00	0	43	0	9420406784	30	17012
2026-01-24 07:57:09.31	98.56	12.81	-27.4	-27.9	17.2	0.00e+00	0	43	0	9529458688	30	17160
2026-01-24 07:57:10.32	98.37	12.90	-27.4	-27.9	17.1	0.00e+00	0	43	0	9646899200	30	17111
2026-01-24 07:57:11.33	98.18	12.99	-27.5	-28.0	17.1	0.00e+00	0	43	0	9755951104	30	17307
2026-01-24 07:57:12.34	97.98	13.09	-27.2	-27.6	17.2	0.00e+00	0	43	0	9873391616	30	16590
2026-01-24 07:57:13.35	97.78	13.18	-27.1	-27.5	17.2	0.00e+00	0	43	0	9990832128	30	16422
2026-01-24 07:57:14.36	97.58	13.27	-26.9	-27.4	17.3	5.40e-06	0	43	0	10099884032	30	16217
2026-01-24 07:57:15.37	97.38	13.36	-27.0	-27.5	17.3	5.40e-06	0	43	0	10217324544	30	16370
2026-01-24 07:57:16.38	97.18	13.46	-27.1	-27.6	17.2	0.00e+00	0	43	0	10326376448	30	16524
2026-01-24 07:57:17.38	96.98	13.55	-27.0	-27.5	17.2	0.00e+00	0	43	0	10443816960	30	16339
2026-01-24 07:57:18.39	96.77	13.64	-27.1	-27.6	17.2	0.00e+00	0	43	0	10561257472	30	16551
2026-01-24 07:57:19.40	96.56	13.74	-27.2	-27.7	17.2	0.00e+00	0	43	0	10670309376	30	16665
2026-01-24 07:57:20.41	96.36	13.83	-26.9	-27.4	17.2	5.40e-06	0	43	0	10779361280	30	16223
2026-01-24 07:57:21.42	96.15	13.93	-27.0	-27.5	17.3	5.40e-06	0	43	0	10896801792	30	16319
2026-01-24 07:57:22.43	95.93	14.02	-26.7	-27.2	17.2	0.00e+00	0	43	0	11014242304	28	17684
2026-01-24 07:57:23.44	95.72	14.12	-26.9	-27.4	17.2	0.00e+00	0	43	0	11123294208	28	18034
2026-01-24 07:57:24.45	95.50	14.21	-26.7	-27.2	17.2	0.00e+00	0	43	0	11240734720	28	17774
2026-01-24 07:57:25.46	95.29	14.30	-26.7	-27.2	17.3	0.00e+00	0	43	0	11349786624	28	17742
2026-01-24 07:57:26.47	95.07	14.40	-26.7	-27.2	17.2	0.00e+00	0	43	0	11458838528	28	17726
2026-01-24 07:57:27.48	94.85	14.49	-26.7	-27.2	17.2	0.00e+00	0	43	0	11584667648	28	17712
2026-01-24 07:57:28.49	94.63	14.59	-26.5	-27.0	17.2	0.00e+00	0	43	0	11693719552	28	17321
2026-01-24 07:57:29.50	94.40	14.68	-26.5	-27.0	17.3	0.00e+00	0	43	0	11802771456	28	17344
2026-01-24 07:57:30.51	94.18	14.78	-26.6	-27.1	17.2	0.00e+00	0	43	0	11920211968	28	17483
2026-01-24 07:57:31.52	93.95	14.88	-26.8	-27.3	17.2	0.00e+00	0	43	0	12029263872	28	17834
2026-01-24 07:57:32.53	93.72	14.97	-26.5	-27.0	17.1	0.00e+00	0	43	0	12146704384	28	17215
2026-01-24 07:57:33.54	93.49	15.07	-26.5	-27.0	17.1	0.00e+00	0	43	0	12264144896	28	17349
2026-01-24 07:57:34.55	93.26	15.16	-26.4	-26.9	17.2	0.00e+00	0	43	0	12373196800	28	17167
2026-01-24 07:57:35.56	93.03	15.26	-26.5	-27.0	17.2	0.00e+00	0	43	0	12490637312	28	17272
2026-01-24 07:57:36.57	92.79	15.35	-26.4	-26.9	17.2	0.00e+00	0	43	0	12599689216	28	17109
2026-01-24 07:57:37.58	92.55	15.45	-26.2	-26.7	17.3	0.00e+00	0	43	0	12708741120	28	16636
2026-01-24 07:57:38.59	92.31	15.54	-26.3	-26.8	17.2	0.00e+00	0	43	0	12826181632	28	16838
2026-01-24 07:57:39.60	92.07	15.64	-26.1	-26.6	17.3	0.00e+00	0	43	0	12943622144	28	16543
2026-01-24 07:57:40.61	91.83	15.74	-26.2	-26.6	17.3	0.00e+00	0	43	0	13052674048	28	16595
2026-01-24 07:57:41.62	91.59	15.83	-26.0	-26.5	17.2	0.00e+00	0	43	0	13170114560	28	16270
2026-01-24 07:57:42.63	91.34	15.93	-25.9	-26.4	17.1	0.00e+00	0	43	0	13279166464	28	16126
2026-01-24 07:57:43.64	91.09	16.02	-26.1	-26.5	17.2	0.00e+00	0	43	0	13396606976	28	16403
2026-01-24 07:57:44.64	90.84	16.12	-25.8	-26.3	17.3	0.00e+00	0	43	0	13514047488	28	16014
2026-01-24 07:57:45.65	90.59	16.21	-25.9	-26.4	17.3	0.00e+00	0	43	0	13623099392	28	16188
2026-01-24 07:57:46.66	90.34	16.31	-25.8	-26.3	17.3	0.00e+00	0	43	0	13732151296	28	16041
2026-01-24 07:57:47.67	90.08	16.41	-25.7	-26.2	17.3	0.00e+00	0	43	0	13849591808	26	17648
2026-01-24 07:57:48.68	89.82	16.50	-25.7	-26.2	17.3	0.00e+00	0	43	0	13967032320	26	17730
2026-01-24 07:57:49.69	89.56	16.60	-25.9	-26.3	17.3	0.00e+00	0	43	0	14076084224	26	17979
2026-01-24 07:57:50.70	89.30	16.69	-25.7	-26.2	17.3	0.00e+00	0	43	0	14193524736	26	17632
2026-01-24 07:57:51.71	89.04	16.79	-25.9	-26.4	17.3	0.00e+00	0	43	0	14302576640	26	18145
2026-01-24 07:57:52.72	88.77	16.88	-25.6	-26.0	17.4	0.00e+00	0	43	0	14420017152	26	17392
2026-01-24 07:57:53.73	88.50	16.98	-25.6	-26.1	17.3	0.00e+00	0	43	0	14537457664	26	17478
2026-01-24 07:57:54.74	88.23	17.08	-25.7	-26.2	17.2	0.00e+00	0	43	0	14646509568	26	17613
2026-01-24 07:57:55.75	87.96	17.17	-25.6	-26.0	17.3	0.00e+00	0	43	0	14755561472	26	17371
2026-01-24 07:57:56.76	87.69	17.27	-25.6	-26.1	17.3	0.00e+00	0	43	0	14873001984	26	17453
2026-01-24 07:57:57.77	87.41	17.36	-25.6	-26.0	17.2	0.00e+00	0	43	0	14982053888	26	17288
2026-01-24 07:57:58.78	87.13	17.46	-25.4	-25.8	17.3	0.00e+00	0	43	0	15099494400	26	16999
2026-01-24 07:57:59.79	86.85	17.55	-25.3	-25.7	17.4	0.00e+00	0	43	0	15216934912	26	16750
2026-01-24 07:58:00.80	86.57	17.65	-25.3	-25.8	17.3	0.00e+00	0	43	0	15325986816	26	16859
2026-01-24 07:58:01.81	86.29	17.74	-25.5	-25.9	17.4	0.00e+00	0	43	0	15443427328	26	17156
2026-01-24 07:58:02.82	86.00	17.83	-25.4	-25.9	17.4	0.00e+00	0	43	0	15552479232	26	17041
2026-01-24 07:58:03.83	85.71	17.93	-25.2	-25.6	17.4	0.00e+00	0	43	0	15669919744	26	16494
2026-01-24 07:58:04.84	85.42	18.02	-25.7	-26.2	17.3	0.00e+00	0	43	0	15778971648	26	17606
2026-01-24 07:58:05.85	85.13	18.12	-25.4	-25.8	17.4	0.00e+00	0	43	0	15896412160	26	16907
2026-01-24 07:58:06.86	84.84	18.21	-25.5	-26.0	17.4	0.00e+00	0	43	0	16005464064	26	17211
2026-01-24 07:58:07.87	84.54	18.30	-25.2	-25.6	17.3	0.00e+00	0	43	0	16122904576	26	16543
2026-01-24 07:58:08.88	84.24	18.39	-25.2	-25.6	17.0	0.00e+00	0	43	0	16240345088	26	16593
2026-01-24 07:58:09.89	83.94	18.49	-25.4	-25.9	17.1	0.00e+00	0	43	0	16349396992	26	17018
2026-01-24 07:58:10.90	83.64	18.58	-25.2	-25.6	17.2	0.00e+00	0	43	0	16466837504	26	16613
2026-01-24 07:58:11.91	83.33	18.67	-25.2	-25.7	17.2	0.00e+00	0	43	0	16575889408	26	16637
2026-01-24 07:58:12.92	83.03	18.76	-25.1	-25.6	17.3	0.00e+00	0	43	0	16684941312	26	16443
2026-01-24 07:58:13.93	82.72	18.85	-25.1	-25.5	17.3	0.00e+00	0	43	0	16810770432	26	16411
2026-01-24 07:58:14.94	82.40	18.94	-25.1	-25.6	17.4	0.00e+00	0	43	0	16919822336	26	16464
2026-01-24 07:58:15.95	82.09	19.04	-25.0	-25.4	17.4	0.00e+00	0	43	0	17028874240	26	16219
2026-01-24 07:58:16.96	81.78	19.13	-25.1	-25.6	17.3	0.00e+00	0	43	0	17146314752	26	16444
2026-01-24 07:58:17.97	81.46	19.22	-24.9	-25.4	17.4	0.00e+00	0	43	0	17255366656	26	16085
2026-01-24 07:58:18.98	81.14	19.30	-25.2	-25.7	17.4	0.00e+00	0	43	0	17372807168	26	16636
2026-01-24 07:58:19.99	80.82	19.39	-25.0	-25.4	17.4	0.00e+00	0	43	0	17490247680	26	16218
2026-01-24 07:58:21.00	80.49	19.48	-25.1	-25.5	17.4	0.00e+00	0	43	0	17599299584	26	16408
2026-01-24 07:58:22.01	80.17	19.57	-24.9	-25.4	17.4	0.00e+00	0	43	0	17708351488	26	16088
2026-01-24 07:58:23.02	79.84	19.66	-25.2	-25.7	17.4	0.00e+00	0	43	0	17825792000	26	16629
2026-01-24 07:58:24.03	79.51	19.74	-24.8	-25.2	17.3	0.00e+00	0	43	0	17934843904	24	17745
2026-01-24 07:58:25.04	79.17	19.83	-24.8	-25.2	17.2	0.00e+00	0	43	0	18052284416	24	17740
2026-01-24 07:58:26.05	78.84	19.92	-24.7	-25.1	17.1	0.00e+00	0	43	0	18169724928	24	17593
2026-01-24 07:58:27.06	78.50	20.00	-24.7	-25.2	17.2	0.00e+00	0	43	0	18278776832	24	17639
2026-01-24 07:58:28.07	78.16	20.09	-24.9	-25.3	17.3	0.00e+00	0	43	0	18396217344	24	17950
2026-01-24 07:58:29.08	77.82	20.17	-24.7	-25.1	17.3	0.00e+00	0	43	0	18505269248	24	17583
2026-01-24 07:58:30.09	77.48	20.25	-24.6	-25.0	17.4	0.00e+00	0	43	0	18622709760	24	17395
2026-01-24 07:58:31.10	77.13	20.34	-24.7	-25.1	17.4	0.00e+00	0	43	0	18740150272	24	17571
2026-01-24 07:58:32.10	76.79	20.42	-24.7	-25.1	17.4	0.00e+00	0	43	0	18849202176	24	17509
2026-01-24 07:58:33.11	76.44	20.50	-24.5	-25.0	17.4	0.00e+00	0	43	0	18958254080	24	17248
2026-01-24 07:58:34.12	76.08	20.58	-24.4	-24.9	17.4	0.00e+00	0	43	0	19075694592	24	17025
2026-01-24 07:58:35.13	75.73	20.66	-24.6	-25.0	17.3	0.00e+00	0	43	0	19193135104	24	17395
2026-01-24 07:58:36.14	75.37	20.74	-24.6	-25.0	17.4	0.00e+00	0	43	0	19302187008	24	17344
2026-01-24 07:58:37.15	75.01	20.82	-24.4	-24.8	17.4	0.00e+00	0	43	0	19419627520	24	16971
2026-01-24 07:58:38.16	74.65	20.90	-24.6	-25.1	17.3	0.00e+00	0	43	0	19528679424	24	17473
2026-01-24 07:58:39.17	74.29	20.98	-24.3	-24.8	17.4	0.00e+00	0	43	0	19637731328	24	16824
2026-01-24 07:58:40.18	73.93	21.05	-24.5	-24.9	17.3	0.00e+00	0	43	0	19755171840	24	17104
2026-01-24 07:58:41.19	73.56	21.13	-24.2	-24.7	17.1	0.00e+00	0	43	0	19872612352	24	16648
2026-01-24 07:58:42.20	73.19	21.20	-24.3	-24.7	17.0	0.00e+00	0	43	0	19981664256	24	16795
2026-01-24 07:58:43.21	72.82	21.28	-24.5	-24.9	17.2	0.00e+00	0	43	0	20099104768	24	17188
2026-01-24 07:58:44.21	72.45	21.35	-24.3	-24.7	17.2	0.00e+00	0	43	0	20208156672	24	16712
2026-01-24 07:58:45.23	72.07	21.42	-24.2	-24.6	17.3	0.00e+00	0	43	0	20325597184	24	16578
2026-01-24 07:58:46.24	71.70	21.49	-24.2	-24.6	17.3	0.00e+00	0	43	0	20443037696	24	16535
2026-01-24 07:58:47.25	71.32	21.56	-24.2	-24.6	17.2	0.00e+00	0	43	0	20552089600	24	16508
2026-01-24 07:58:48.26	70.94	21.63	-24.2	-24.6	17.3	0.00e+00	0	43	0	20669530112	24	16510
2026-01-24 07:58:49.27	70.56	21.70	-24.5	-24.9	17.2	0.00e+00	0	44	0	20778582016	24	17150
2026-01-24 07:58:50.28	70.17	21.77	-24.1	-24.5	17.3	0.00e+00	0	43	0	20887633920	24	16424
2026-01-24 07:58:51.29	69.79	21.83	-24.0	-24.4	17.3	0.00e+00	0	43	0	21005074432	24	16183
2026-01-24 07:58:52.30	69.40	21.90	-24.1	-24.6	17.2	0.00e+00	0	44	0	21122514944	24	16482
2026-01-24 07:58:53.30	69.01	21.96	-24.1	-24.5	17.2	0.00e+00	0	43	0	21231566848	24	16346
2026-01-24 07:58:54.31	68.62	22.03	-24.1	-24.5	17.2	0.00e+00	0	43	0	21349007360	24	16372
2026-01-24 07:58:55.32	68.23	22.09	-24.1	-24.5	17.2	0.00e+00	0	43	0	21458059264	24	16324
2026-01-24 07:58:56.33	67.83	22.15	-24.1	-24.5	17.2	0.00e+00	0	43	0	21567111168	24	16390
2026-01-24 07:58:57.34	67.43	22.21	-24.0	-24.5	17.3	0.00e+00	0	43	0	21692940288	24	16251
2026-01-24 07:58:58.34	67.04	22.27	-24.0	-24.4	17.2	0.00e+00	0	43	0	21801992192	24	16184
2026-01-24 07:58:59.35	66.64	22.32	-23.9	-24.4	17.1	0.00e+00	0	43	0	21911044096	24	16102
2026-01-24 07:59:00.36	66.24	22.38	-24.3	-24.7	17.2	0.00e+00	0	43	0	22028484608	24	16750
2026-01-24 07:59:01.37	65.83	22.44	-24.1	-24.6	17.1	0.00e+00	0	43	0	22137536512	24	16441
2026-01-24 07:59:02.38	65.43	22.49	-24.0	-24.5	17.1	0.00e+00	0	43	0	22254977024	24	16277
2026-01-24 07:59:03.39	65.02	22.54	-24.1	-24.6	17.0	0.00e+00	0	43	0	22372417536	24	16499
2026-01-24 07:59:04.40	64.61	22.59	-23.9	-24.4	17.0	0.00e+00	0	43	0	22481469440	24	16090
2026-01-24 07:59:05.41	64.20	22.64	-23.9	-24.4	17.1	0.00e+00	0	44	0	22598909952	24	16102
2026-01-24 07:59:06.42	63.79	22.69	-24.0	-24.5	17.1	0.00e+00	0	43	0	22707961856	24	16253
2026-01-24 07:59:07.43	63.38	22.74	-23.8	-24.3	17.1	0.00e+00	0	43	0	22817013760	24	15875
2026-01-24 07:59:08.44	62.97	22.78	-23.9	-24.3	17.1	0.00e+00	0	43	0	22934454272	24	15937
2026-01-24 07:59:09.44	62.56	22.83	-23.9	-24.4	17.1	0.00e+00	0	44	0	23051894784	24	16074
2026-01-24 07:59:10.45	62.14	22.87	-23.8	-24.3	17.1	0.00e+00	0	43	0	23160946688	24	15935
2026-01-24 07:59:11.46	61.72	22.91	-23.9	-24.3	17.0	0.00e+00	0	43	0	23278387200	24	15969
2026-01-24 07:59:12.47	61.30	22.95	-24.1	-24.5	17.0	0.00e+00	0	44	0	23387439104	24	16322
2026-01-24 07:59:13.49	60.88	22.99	-24.0	-24.4	17.0	0.00e+00	0	43	0	23504879616	24	16132
2026-01-24 07:59:14.50	60.46	23.03	-23.8	-24.2	17.0	0.00e+00	0	43	0	23622320128	24	15823
2026-01-24 07:59:15.51	60.04	23.07	-23.9	-24.3	16.9	0.00e+00	0	43	0	23731372032	24	15996
2026-01-24 07:59:16.52	59.61	23.10	-24.0	-24.4	16.9	0.00e+00	0	43	0	23840423936	24	16151
2026-01-24 07:59:17.53	59.19	23.13	-23.9	-24.3	16.9	0.00e+00	0	43	0	23957864448	24	15998
2026-01-24 07:59:18.54	58.76	23.17	-24.0	-24.4	16.9	0.00e+00	0	43	0	24075304960	24	16090
2026-01-24 07:59:19.54	58.34	23.20	-23.9	-24.3	16.7	0.00e+00	0	43	0	24184356864	24	16012
2026-01-24 07:59:20.55	57.91	23.22	-23.9	-24.3	16.5	0.00e+00	0	43	0	24301797376	24	16037
2026-01-24 07:59:21.56	57.48	23.25	-24.0	-24.4	16.6	0.00e+00	0	43	0	24410849280	24	16215
2026-01-24 07:59:22.57	57.05	23.28	-24.2	-24.6	16.8	0.00e+00	0	43	0	24528289792	24	16590
2026-01-24 07:59:23.58	56.63	23.30	-24.2	-24.7	16.8	0.00e+00	0	43	0	24645730304	24	16649
2026-01-24 07:59:24.59	56.19	23.32	-24.2	-24.6	16.8	0.00e+00	0	44	0	24754782208	24	16517
2026-01-24 07:59:25.60	55.76	23.34	-24.0	-24.4	16.8	0.00e+00	0	44	0	24863834112	24	16125
2026-01-24 07:59:26.61	55.33	23.36	-24.1	-24.5	16.9	0.00e+00	0	43	0	24981274624	24	16339
2026-01-24 07:59:27.62	54.90	23.38	-24.1	-24.5	16.9	0.00e+00	0	44	0	25090326528	24	16304
2026-01-24 07:59:28.63	54.47	23.40	-24.3	-24.7	16.8	0.00e+00	0	43	0	25207767040	24	16686
2026-01-24 07:59:29.64	54.03	23.41	-24.2	-24.6	16.9	0.00e+00	0	44	0	25325207552	24	16559
2026-01-24 07:59:30.65	53.60	23.43	-24.1	-24.5	16.9	0.00e+00	0	43	0	25434259456	24	16294
2026-01-24 07:59:31.65	53.17	23.44	-24.0	-24.4	16.8	0.00e+00	0	44	0	25551699968	24	16144
2026-01-24 07:59:32.66	52.74	23.45	-24.0	-24.4	16.7	0.00e+00	0	44	0	25660751872	24	16117
2026-01-24 07:59:33.67	52.30	23.46	-24.0	-24.4	16.6	0.00e+00	0	44	0	25769803776	24	16155
2026-01-24 07:59:34.68	51.87	23.46	-24.0	-24.4	16.8	0.00e+00	0	44	0	25887244288	24	16167
2026-01-24 07:59:35.70	51.43	23.47	-24.1	-24.6	16.9	0.00e+00	0	44	0	26004684800	24	16438
2026-01-24 07:59:36.71	50.99	23.47	-24.0	-24.4	16.9	0.00e+00	0	44	0	26113736704	24	16087
2026-01-24 07:59:37.72	50.56	23.47	-24.0	-24.4	16.9	0.00e+00	0	43	0	26231177216	24	16238
2026-01-24 07:59:38.72	50.13	23.47	-23.9	-24.4	17.0	0.00e+00	0	44	0	26340229120	24	16090
2026-01-24 07:59:39.73	49.69	23.47	-24.0	-24.5	16.9	0.00e+00	0	44	0	26457669632	24	16244
2026-01-24 07:59:40.74	49.26	23.47	-24.0	-24.4	17.0	0.00e+00	0	44	0	26575110144	24	16115
2026-01-24 07:59:41.75	48.82	23.46	-24.1	-24.5	17.0	0.00e+00	0	44	0	26684162048	24	16335
2026-01-24 07:59:42.76	48.39	23.46	-24.0	-24.4	17.0	0.00e+00	0	44	0	26793213952	24	16183
2026-01-24 07:59:43.77	47.95	23.45	-24.1	-24.5	17.0	0.00e+00	0	44	0	26910654464	24	16389
2026-01-24 07:59:44.78	47.52	23.44	-24.0	-24.4	17.1	0.00e+00	0	44	0	27028094976	24	16195
2026-01-24 07:59:45.79	47.08	23.43	-24.1	-24.5	17.1	0.00e+00	0	44	0	27137146880	24	16410
2026-01-24 07:59:46.80	46.65	23.42	-24.0	-24.5	17.1	0.00e+00	0	44	0	27254587392	24	16251
2026-01-24 07:59:47.81	46.22	23.40	-24.0	-24.4	17.1	0.00e+00	0	44	0	27363639296	24	16169
2026-01-24 07:59:48.82	45.78	23.39	-23.9	-24.4	17.1	0.00e+00	0	44	0	27481079808	24	16146
2026-01-24 07:59:49.83	45.35	23.37	-24.2	-24.7	17.1	0.00e+00	0	44	0	27590131712	24	16631
2026-01-24 07:59:50.84	44.92	23.35	-24.0	-24.4	17.1	0.00e+00	0	44	0	27707572224	24	16206
2026-01-24 07:59:51.85	44.49	23.33	-24.0	-24.5	17.1	0.00e+00	0	44	0	27816624128	24	16244
2026-01-24 07:59:52.86	44.06	23.31	-23.9	-24.4	17.2	0.00e+00	0	44	0	27934064640	24	16151
2026-01-24 07:59:53.87	43.63	23.28	-23.9	-24.4	17.3	0.00e+00	0	44	0	28043116544	24	16194
2026-01-24 07:59:54.88	43.20	23.26	-23.9	-24.4	17.2	0.00e+00	0	44	0	28160557056	24	16121
2026-01-24 07:59:55.89	42.77	23.23	-23.9	-24.4	17.2	0.00e+00	0	44	0	28277997568	24	16152
2026-01-24 07:59:56.90	42.35	23.20	-23.9	-24.4	17.3	0.00e+00	0	44	0	28387049472	24	16132
2026-01-24 07:59:57.91	41.92	23.17	-24.0	-24.5	17.2	0.00e+00	0	44	0	28504489984	24	16402
2026-01-24 07:59:58.92	41.49	23.14	-24.1	-24.6	17.3	0.00e+00	0	44	0	28613541888	24	16478
2026-01-24 07:59:59.93	41.07	23.11	-24.3	-24.8	17.3	0.00e+00	0	44	0	28730982400	24	16880
2026-01-24 08:00:00.94	40.65	23.07	-24.4	-24.9	17.3	0.00e+00	0	44	0	28840034304	24	17195
2026-01-24 08:00:01.95	40.23	23.04	-51.4	-53.9	6.0	0.00e+00	0	44	104	28915531776	60	60690
2026-01-24 08:00:02.96	39.80	23.00	-51.5	-53.9	6.1	0.00e+00	0	44	104	28915531776	60	60943
2026-01-24 08:00:03.97	39.38	22.96	-51.3	-53.8	6.1	0.00e+00	0	43	104	28915531776	60	60267
2026-01-24 08:00:04.98	38.97	22.92	-51.3	-53.8	6.1	0.00e+00	0	43	104	28915531776	60	60115
2026-01-24 08:00:05.99	38.55	22.88	-51.5	-54.0	6.1	0.00e+00	0	43	104	28915531776	60	61034
2026-01-24 08:00:07.00	38.13	22.84	-51.2	-53.7	6.1	0.00e+00	0	44	104	28915531776	60	58976
2026-01-24 08:00:08.01	37.72	22.79	-51.1	-53.7	6.1	0.00e+00	0	43	104	28915531776	60	59026
2026-01-24 08:00:09.02	37.30	22.75	-51.3	-53.8	6.1	0.00e+00	0	44	104	28915531776	60	60002
2026-01-24 08:00:10.03	36.89	22.70	-51.2	-53.7	6.1	0.00e+00	0	43	104	28915531776	60	59487
2026-01-24 08:00:11.04	36.48	22.65	-51.4	-53.9	6.1	0.00e+00	0	43	104	28915531776	60	60559
2026-01-24 08:00:12.05	36.07	22.60	-51.2	-53.7	6.1	0.00e+00	0	43	104	28915531776	60	59531
2026-01-24 08:00:13.05	35.67	22.55	-51.2	-53.8	6.1	0.00e+00	0	43	104	28915531776	60	59852
2026-01-24 08:00:14.06	35.26	22.50	-51.5	-54.0	6.1	0.00e+00	0	43	104	28915531776	60	61095
2026-01-24 08:00:15.08	34.85	22.45	-51.5	-53.9	6.1	0.00e+00	0	43	104	28915531776	60	60912
2026-01-24 08:00:16.09	34.45	22.39	-51.4	-53.9	6.1	0.00e+00	0	44	104	28915531776	60	60477
2026-01-24 08:00:17.10	34.05	22.34	-51.5	-54.0	6.1	0.00e+00	0	43	104	28915531776	60	61437
2026-01-24 08:00:18.10	33.65	22.28	-51.5	-54.0	6.1	0.00e+00	0	43	104	28915531776	60	61530
2026-01-24 08:00:19.11	33.26	22.22	-51.6	-54.1	6.1	0.00e+00	0	43	104	28915531776	60	62073
2026-01-24 08:00:20.12	32.86	22.16	-51.4	-53.9	6.1	0.00e+00	0	43	104	28915531776	60	60707
2026-01-24 08:00:21.13	32.47	22.10	-51.6	-54.1	6.1	0.00e+00	0	43	104	28915531776	60	61808
2026-01-24 08:00:22.14	32.07	22.04	-51.5	-54.0	6.1	0.00e+00	0	43	104	28915531776	60	61237
2026-01-24 08:00:23.15	31.68	21.98	-51.6	-54.1	6.1	0.00e+00	0	43	104	28915531776	60	61782
2026-01-24 08:00:24.16	31.29	21.91	-51.5	-54.0	6.1	0.00e+00	0	43	104	28915531776	60	61153
2026-01-24 08:00:25.17	30.91	21.85	-51.6	-54.1	6.1	0.00e+00	0	43	104	28915531776	60	61835
2026-01-24 08:00:26.18	30.52	21.78	-51.6	-54.0	6.1	0.00e+00	0	43	104	28915531776	60	61607
2026-01-24 08:00:27.19	30.14	21.72	-51.6	-54.0	6.1	0.00e+00	0	43	104	28915531776	60	61681
2026-01-24 08:00:28.20	29.75	21.65	-51.6	-54.1	6.1	0.00e+00	0	43	104	28915531776	60	61815
2026-01-24 08:00:29.21	29.37	21.58	-51.6	-54.1	6.1	0.00e+00	0	43	104	28915531776	60	62068
2026-01-24 08:00:30.22	29.00	21.51	-51.5	-53.9	6.1	0.00e+00	0	43	104	28915531776	60	60937
2026-01-24 08:00:31.23	28.62	21.44	-51.5	-54.0	6.1	0.00e+00	0	43	104	28915531776	60	61282
2026-01-24 08:00:32.24	28.25	21.37	-51.6	-54.1	6.1	0.00e+00	0	43	104	28915531776	60	62176
2026-01-24 08:00:33.25	27.87	21.30	-51.6	-54.0	6.1	0.00e+00	0	43	104	28915531776	60	61488
2026-01-24 08:00:34.26	27.50	21.22	-51.4	-54.0	6.0	0.00e+00	0	43	104	28915531776	60	61186
2026-01-24 08:00:35.27	27.14	21.15	-51.6	-54.0	6.1	0.00e+00	0	43	104	28915531776	60	61396
2026-01-24 08:00:36.28	26.77	21.07	-51.5	-54.0	6.1	0.00e+00	0	43	104	28915531776	60	61315
2026-01-24 08:00:37.29	26.41	21.00	-51.5	-54.0	6.1	0.00e+00	0	43	104	28915531776	60	61128
2026-01-24 08:00:38.30	26.05	20.92	-51.6	-54.0	6.1	0.00e+00	0	43	104	28915531776	60	61377
2026-01-24 08:00:39.31	25.69	20.84	-51.5	-54.0	6.1	0.00e+00	0	43	104	28915531776	60	61366
2026-01-24 08:00:40.32	25.33	20.76	-51.5	-54.0	6.1	0.00e+00	0	43	104	28915531776	60	61521
2026-01-24 08:00:41.33	24.97	20.68	-51.5	-54.0	6.1	0.00e+00	0	43	104	28915531776	60	61515
2026-01-24 08:00:42.34	24.62	20.60	-51.6	-54.0	6.1	0.00e+00	0	43	104	28915531776	60	61255
2026-01-24 08:00:43.35	24.27	20.52	-51.5	-54.0	6.1	0.00e+00	0	43	104	28915531776	60	61405
2026-01-24 08:00:44.36	23.92	20.44	-51.6	-54.0	6.1	0.00e+00	0	43	104	28915531776	60	61603
2026-01-24 08:00:45.37	23.57	20.36	-51.5	-54.0	6.1	0.00e+00	0	43	104	28915531776	60	61113
2026-01-24 08:00:46.38	23.23	20.28	-51.4	-53.8	6.1	0.00e+00	0	43	104	28915531776	60	60325
2026-01-24 08:00:47.38	22.89	20.20	-51.5	-54.0	6.1	0.00e+00	0	43	104	28915531776	60	61441
2026-01-24 08:00:48.40	22.54	20.11	-51.5	-54.0	6.1	0.00e+00	0	43	104	28915531776	60	61064
2026-01-24 08:00:49.40	22.21	20.03	-51.6	-54.0	6.1	0.00e+00	0	43	104	28915531776	60	61268
2026-01-24 08:00:50.41	21.87	19.94	-51.5	-54.0	6.1	0.00e+00	0	43	104	28915531776	60	61162
2026-01-24 08:00:51.43	21.53	19.86	-51.4	-53.9	6.1	0.00e+00	0	43	104	28915531776	60	60627
2026-01-24 08:00:52.44	21.20	19.77	-51.5	-54.0	6.1	0.00e+00	0	43	104	28915531776	60	61169
2026-01-24 08:00:53.45	20.87	19.68	-51.5	-54.0	6.1	0.00e+00	0	43	104	28915531776	60	61325
2026-01-24 08:00:54.45	20.55	19.60	-51.3	-53.9	6.1	0.00e+00	0	43	104	28915531776	60	60488
2026-01-24 08:00:55.47	20.22	19.51	-51.5	-53.9	6.1	0.00e+00	0	43	104	28915531776	60	61018
2026-01-24 08:00:56.47	19.90	19.42	-51.5	-54.0	6.1	0.00e+00	0	43	104	28915531776	60	61148
2026-01-24 08:00:57.49	19.57	19.33	-51.5	-54.0	6.1	0.00e+00	0	43	104	28915531776	60	61120
2026-01-24 08:00:58.50	19.25	19.24	-51.4	-53.9	6.1	0.00e+00	0	43	104	28915531776	60	60819
2026-01-24 08:00:59.50	18.94	19.16	-51.5	-54.0	6.1	0.00e+00	0	43	104	28915531776	60	61156
2026-01-24 08:01:00.51	18.63	19.07	-51.4	-53.9	6.1	0.00e+00	0	43	104	28915531776	60	60652
2026-01-24 08:01:01.52	18.31	18.98	-51.5	-54.0	6.1	0.00e+00	0	43	104	28915531776	60	61130
2026-01-24 08:01:02.53	18.00	18.89	-51.5	-54.0	6.1	0.00e+00	0	43	104	28915531776	60	61113
2026-01-24 08:01:03.54	17.69	18.79	-51.5	-54.0	6.1	0.00e+00	0	43	104	28915531776	60	61123
2026-01-24 08:01:04.54	17.39	18.70	-51.5	-54.0	6.0	0.00e+00	0	43	104	28915531776	60	61081
2026-01-24 08:01:05.55	17.09	18.61	-51.5	-54.0	6.1	0.00e+00	0	43	104	28915531776	60	61556
2026-01-24 08:01:06.56	16.78	18.52	-51.4	-53.8	6.1	0.00e+00	0	43	104	28915531776	60	60232
2026-01-24 08:01:07.57	16.48	18.43	-51.4	-53.9	6.1	0.00e+00	0	43	104	28915531776	60	60366
2026-01-24 08:01:08.58	16.19	18.34	-51.5	-53.9	6.1	0.00e+00	0	43	104	28915531776	60	60830
2026-01-24 08:01:09.59	15.89	18.24	-51.5	-53.9	6.1	0.00e+00	0	43	104	28915531776	60	60990
2026-01-24 08:01:10.60	15.60	18.15	-51.4	-53.9	6.1	0.00e+00	0	43	104	28915531776	60	60606
2026-01-24 08:01:11.61	15.31	18.06	-51.4	-53.9	6.1	0.00e+00	0	43	104	28915531776	60	60779
2026-01-24 08:01:12.62	15.02	17.96	-51.5	-53.9	6.0	0.00e+00	0	43	104	28915531776	60	60839
2026-01-24 08:01:13.62	14.73	17.87	-51.5	-54.0	6.1	0.00e+00	0	43	104	28915531776	60	61069
2026-01-24 08:01:14.63	14.45	17.78	-51.4	-53.9	6.1	0.00e+00	0	43	104	28915531776	60	60594
2026-01-24 08:01:15.64	14.16	17.68	-51.5	-54.0	6.1	0.00e+00	0	43	104	28915531776	60	61084
2026-01-24 08:01:16.65	13.88	17.59	-51.4	-53.9	6.1	0.00e+00	0	43	104	28915531776	60	60550
2026-01-24 08:01:17.65	13.61	17.50	-51.4	-53.9	6.1	0.00e+00	0	43	104	28915531776	60	60990
2026-01-24 08:01:18.66	13.33	17.40	-51.4	-53.8	6.1	0.00e+00	0	43	104	28915531776	60	60005
2026-01-24 08:01:19.67	13.05	17.31	-51.4	-53.9	6.1	0.00e+00	0	43	104	28915531776	60	60449
2026-01-24 08:01:20.68	12.78	17.21	-51.4	-53.9	6.1	0.00e+00	0	43	104	28915531776	60	60686
2026-01-24 08:01:21.69	12.51	17.12	-51.4	-53.9	6.1	0.00e+00	0	43	104	28915531776	60	60515
2026-01-24 08:01:22.70	12.24	17.02	-51.3	-53.8	6.1	0.00e+00	0	43	104	28915531776	60	60262
2026-01-24 08:01:23.71	11.97	16.93	-51.4	-53.9	6.1	0.00e+00	0	43	104	28915531776	60	60707
2026-01-24 08:01:24.72	11.71	16.83	-51.5	-53.9	6.1	0.00e+00	0	43	104	28915531776	60	61014
2026-01-24 08:01:25.73	11.45	16.74	-51.4	-53.9	6.1	0.00e+00	0	43	104	28915531776	60	60704
2026-01-24 08:01:26.74	11.18	16.64	-51.4	-53.9	6.1	0.00e+00	0	43	104	28915531776	60	60517
2026-01-24 08:01:27.75	10.93	16.55	-51.4	-53.9	6.1	0.00e+00	0	43	104	28915531776	60	60781
2026-01-24 08:01:28.76	10.67	16.45	-51.4	-53.9	6.1	0.00e+00	0	43	104	28915531776	60	60406
2026-01-24 08:01:29.77	10.41	16.36	-51.4	-53.8	6.1	0.00e+00	0	43	104	28915531776	60	60210
2026-01-24 08:01:30.78	10.16	16.26	-51.3	-53.8	6.1	0.00e+00	0	43	104	28915531776	60	60078
2026-01-24 08:01:31.79	9.91	16.17	-51.4	-53.8	6.1	0.00e+00	0	43	104	28915531776	60	60150
2026-01-24 08:01:32.80	9.66	16.07	-51.3	-53.8	6.1	0.00e+00	0	43	104	28915531776	60	60322
2026-01-24 08:01:33.81	9.41	15.98	-51.4	-53.8	6.1	0.00e+00	0	43	104	28915531776	60	60171
2026-01-24 08:01:34.82	9.16	15.88	-51.3	-53.8	6.1	0.00e+00	0	43	104	28915531776	60	60105
2026-01-24 08:01:35.82	8.92	15.79	-51.3	-53.7	6.1	0.00e+00	0	43	104	28915531776	60	59252
2026-01-24 08:01:36.83	8.68	15.69	-51.4	-53.8	6.1	0.00e+00	0	43	104	28915531776	60	60136
2026-01-24 08:01:37.84	8.44	15.59	-51.3	-53.8	6.1	0.00e+00	0	43	104	28915531776	60	59998
2026-01-24 08:01:38.85	8.20	15.50	-51.4	-53.9	6.1	0.00e+00	0	43	104	28915531776	60	60727
2026-01-24 08:01:39.86	7.96	15.40	-51.4	-53.9	6.1	0.00e+00	0	43	104	28915531776	60	60380
2026-01-24 08:01:40.86	7.73	15.31	-51.3	-53.8	6.1	0.00e+00	0	43	104	28915531776	60	60094
2026-01-24 08:01:41.87	7.50	15.21	-51.2	-53.7	6.1	0.00e+00	0	43	104	28915531776	60	59421
2026-01-24 08:01:42.88	7.27	15.12	-51.3	-53.7	6.1	0.00e+00	0	43	104	28915531776	60	59317
2026-01-24 08:01:43.89	7.04	15.02	-51.3	-53.7	6.1	0.00e+00	0	43	104	28915531776	60	59531
2026-01-24 08:01:44.90	6.81	14.93	-51.3	-53.7	6.1	0.00e+00	0	43	104	28915531776	60	59614
2026-01-24 08:01:45.91	6.58	14.83	-51.3	-53.7	6.1	0.00e+00	0	43	104	28915531776	60	59612
2026-01-24 08:01:46.92	6.36	14.74	-51.3	-53.8	6.1	0.00e+00	0	43	104	28915531776	60	59789
2026-01-24 08:01:47.93	6.14	14.65	-51.3	-53.8	6.1	0.00e+00	0	43	104	28915531776	60	59919
2026-01-24 08:01:48.94	5.92	14.55	-51.3	-53.8	6.1	0.00e+00	0	43	104	28915531776	60	59828
2026-01-24 08:01:49.95	5.70	14.46	-51.3	-53.7	6.1	0.00e+00	0	43	104	28915531776	60	59587
2026-01-24 08:01:50.96	5.48	14.36	-51.2	-53.7	6.0	0.00e+00	0	43	104	28915531776	60	59357
2026-01-24 08:01:51.97	5.26	14.27	-51.3	-53.7	6.1	0.00e+00	0	43	104	28915531776	60	59439
2026-01-24 08:01:52.97	5.05	14.17	-51.3	-53.8	6.1	0.00e+00	0	43	104	28915531776	60	59861
2026-01-24 08:01:53.98	4.84	14.08	-51.3	-53.8	6.1	0.00e+00	0	43	104	28915531776	60	59752
2026-01-24 08:01:54.99	4.63	13.99	-51.3	-53.8	6.1	0.00e+00	0	43	104	28915531776	60	59963
2026-01-24 08:01:56.00	4.42	13.89	-51.3	-53.7	6.1	0.00e+00	0	43	104	28915531776	60	59457
2026-01-24 08:01:57.01	4.21	13.80	-51.3	-53.8	6.1	0.00e+00	0	43	104	28915531776	60	59738
2026-01-24 08:01:58.03	4.00	13.70	-51.3	-53.7	6.1	0.00e+00	0	43	104	28915531776	60	59483
2026-01-24 08:01:59.04	3.80	13.61	-51.3	-53.7	6.1	0.00e+00	0	43	104	28915531776	60	59477
2026-01-24 08:02:00.04	3.59	13.52	-51.3	-53.8	6.0	0.00e+00	0	43	104	28915531776	60	59879
2026-01-24 08:02:01.05	3.39	13.43	-51.3	-53.8	6.1	0.00e+00	0	43	104	28915531776	60	59757
2026-01-24 08:02:02.06	3.19	13.33	-51.3	-53.7	6.1	0.00e+00	0	43	104	28915531776	60	59639
2026-01-24 08:02:03.07	2.99	13.24	-51.2	-53.7	6.1	0.00e+00	0	43	104	28915531776	60	59132
2026-01-24 08:02:04.08	2.80	13.15	-51.2	-53.7	6.1	0.00e+00	0	43	104	28915531776	60	59193
2026-01-24 08:02:05.09	2.60	13.06	-51.3	-53.7	6.1	0.00e+00	0	43	104	28915531776	60	59477
2026-01-24 08:02:06.10	2.41	12.96	-51.2	-53.6	6.1	0.00e+00	0	43	104	28915531776	60	58672
2026-01-24 08:02:07.11	2.21	12.87	-51.2	-53.7	6.1	0.00e+00	0	43	104	28915531776	60	59262
2026-01-24 08:02:08.12	2.02	12.78	-51.2	-53.6	6.1	0.00e+00	0	43	104	28915531776	60	58908
2026-01-24 08:02:09.13	1.83	12.69	-51.3	-53.8	6.1	0.00e+00	0	43	104	28915531776	60	59820
2026-01-24 08:02:10.14	1.64	12.60	-51.2	-53.6	6.1	0.00e+00	0	43	104	28915531776	60	58694
2026-01-24 08:02:11.15	1.46	12.51	-51.2	-53.7	6.1	0.00e+00	0	43	104	28915531776	60	59044
2026-01-24 08:02:12.16	1.27	12.41	-51.2	-53.7	6.1	0.00e+00	0	43	104	28915531776	60	59220
2026-01-24 08:02:13.17	1.09	12.32	-51.3	-53.8	6.1	0.00e+00	0	43	104	28915531776	60	59720
2026-01-24 08:02:14.18	0.91	12.23	-51.1	-53.6	6.1	0.00e+00	0	43	104	28915531776	60	58654
2026-01-24 08:02:15.19	0.72	12.14	-51.2	-53.7	6.1	0.00e+00	0	43	104	28915531776	60	59072
2026-01-24 08:02:16.20	0.54	12.05	-51.2	-53.6	6.1	0.00e+00	0	43	104	28915531776	60	58940
2026-01-24 08:02:17.20	0.37	11.96	-51.2	-53.7	6.1	0.00e+00	0	43	104	28915531776	60	59130
2026-01-24 08:02:18.22	0.19	11.87	-51.2	-53.6	6.1	0.00e+00	0	43	104	28915531776	60	58934
2026-01-24 08:02:19.22	0.01	11.78	-51.2	-53.7	6.1	0.00e+00	0	43	104	28915531776	60	59219
2026-01-24 08:02:20.23	359.84	11.69	-51.2	-53.7	6.1	0.00e+00	0	43	104	28915531776	60	59251
2026-01-24 08:02:21.24	359.67	11.60	-51.1	-53.6	6.1	0.00e+00	0	43	104	28915531776	60	58628
2026-01-24 08:02:22.25	359.49	11.51	-51.2	-53.6	6.1	0.00e+00	0	43	104	28915531776	60	58944
2026-01-24 08:02:23.26	359.32	11.43	-51.0	-53.6	6.1	0.00e+00	0	43	104	28915531776	60	58286
2026-01-24 08:02:24.27	359.15	11.34	-51.2	-53.6	6.1	0.00e+00	0	43	104	28915531776	60	58698
2026-01-24 08:02:25.28	358.99	11.25	-51.1	-53.6	6.1	0.00e+00	0	43	104	28915531776	60	58427
2026-01-24 08:02:26.29	358.82	11.16	-51.1	-53.6	6.1	0.00e+00	0	43	104	28915531776	60	58657
2026-01-24 08:02:27.30	358.65	11.07	-51.1	-53.5	6.1	0.00e+00	0	43	104	28915531776	60	58259
2026-01-24 08:02:28.31	358.49	10.98	-51.0	-53.5	6.1	0.00e+00	0	43	104	28915531776	60	58283
2026-01-24 08:02:29.32	358.32	10.90	-51.1	-53.5	6.1	0.00e+00	0	43	104	28915531776	60	58214
2026-01-24 08:02:30.33	358.16	10.81	-51.0	-53.5	6.1	0.00e+00	0	43	104	28915531776	60	58154
2026-01-24 08:02:31.34	358.00	10.72	-51.0	-53.5	6.1	0.00e+00	0	43	104	28915531776	60	57926
2026-01-24 08:02:32.35	357.84	10.64	-51.1	-53.6	6.1	0.00e+00	0	43	104	28915531776	60	58448
2026-01-24 08:02:33.36	357.68	10.55	-51.1	-53.6	6.1	0.00e+00	0	43	104	28915531776	60	58547
2026-01-24 08:02:34.37	357.53	10.46	-51.0	-53.4	6.1	0.00e+00	0	43	104	28915531776	60	57294
2026-01-24 08:02:35.38	357.37	10.38	-51.0	-53.4	6.1	0.00e+00	0	43	104	28915531776	60	57569
2026-01-24 08:02:36.39	357.21	10.29	-51.0	-53.5	6.1	0.00e+00	0	43	104	28915531776	60	58043
2026-01-24 08:02:37.40	357.06	10.20	-51.0	-53.5	6.1	0.00e+00	0	43	104	28915531776	60	57786
2026-01-24 08:02:38.41	356.91	10.12	-51.0	-53.4	6.1	0.00e+00	0	43	104	28915531776	60	57287
2026-01-24 08:02:39.42	356.76	10.03	-51.0	-53.5	6.1	0.00e+00	0	43	104	28915531776	60	57822
2026-01-24 08:02:40.43	356.61	9.95	-51.0	-53.4	6.1	0.00e+00	0	43	104	28915531776	60	57385
2026-01-24 08:02:41.44	356.46	9.86	-51.0	-53.4	6.1	0.00e+00	0	43	104	28915531776	60	57616
2026-01-24 08:02:42.45	356.31	9.78	-50.9	-53.4	6.1	0.00e+00	0	43	104	28915531776	60	56964
2026-01-24 08:02:43.47	356.16	9.69	-51.0	-53.5	6.1	0.00e+00	0	43	104	28915531776	60	57662
2026-01-24 08:02:44.48	356.01	9.61	-51.0	-53.5	6.1	0.00e+00	0	43	104	28915531776	60	57878
2026-01-24 08:02:45.49	355.87	9.52	-51.0	-53.5	6.1	0.00e+00	0	43	104	28915531776	60	57751
2026-01-24 08:02:46.50	355.72	9.44	-50.8	-53.3	6.1	0.00e+00	0	43	104	28915531776	60	56944
2026-01-24 08:02:47.51	355.58	9.36	-51.0	-53.4	6.1	0.00e+00	0	43	104	28915531776	60	57394
2026-01-24 08:02:48.52	355.44	9.27	-51.0	-53.4	6.1	0.00e+00	0	43	104	28915531776	60	57482
2026-01-24 08:02:49.52	355.30	9.19	-51.0	-53.4	6.1	0.00e+00	0	43	104	28915531776	60	57463
2026-01-24 08:02:50.54	355.16	9.11	-50.8	-53.3	6.1	0.00e+00	0	43	104	28915531776	60	56579
2026-01-24 08:02:51.54	355.02	9.02	-50.8	-53.3	6.1	0.00e+00	0	43	104	28915531776	60	56826
2026-01-24 08:02:52.55	354.88	8.94	-50.9	-53.4	6.0	0.00e+00	0	43	104	28915531776	60	57070
2026-01-24 08:02:53.56	354.74	8.86	-50.9	-53.4	6.1	0.00e+00	0	43	104	28915531776	60	57154
2026-01-24 08:02:54.57	354.61	8.78	-50.8	-53.3	6.1	0.00e+00	0	43	104	28915531776	60	56564
2026-01-24 08:02:55.58	354.47	8.70	-50.8	-53.3	6.1	0.00e+00	0	43	104	28915531776	60	56316
2026-01-24 08:02:56.59	354.34	8.61	-50.9	-53.3	6.1	0.00e+00	0	43	104	28915531776	60	56763
2026-01-24 08:02:57.60	354.20	8.53	-50.8	-53.3	6.1	0.00e+00	0	43	104	28915531776	60	56331
2026-01-24 08:02:58.61	354.07	8.45	-50.8	-53.3	6.1	0.00e+00	0	43	104	28915531776	60	56359
2026-01-24 08:02:59.62	353.94	8.37	-50.9	-53.3	6.1	0.00e+00	0	43	104	28915531776	60	56857
2026-01-24 08:03:00.63	353.81	8.29	-50.8	-53.3	6.1	0.00e+00	0	43	104	28915531776	60	56368
2026-01-24 08:03:01.64	353.68	8.21	-50.9	-53.4	6.1	0.00e+00	0	43	104	28915531776	60	57043
2026-01-24 08:03:02.65	353.55	8.13	-50.8	-53.2	6.1	0.00e+00	0	43	104	28915531776	60	56182
2026-01-24 08:03:03.66	353.42	8.05	-50.8	-53.3	6.1	0.00e+00	0	43	104	28915531776	60	56890
2026-01-24 08:03:04.67	353.30	7.97	-50.9	-53.4	6.0	0.00e+00	0	43	104	28915531776	60	57154
2026-01-24 08:03:05.67	353.17	7.89	-50.9	-53.4	6.1	0.00e+00	0	43	104	28915531776	60	57235
2026-01-24 08:03:06.68	353.05	7.81	-50.8	-53.2	6.1	0.00e+00	0	43	104	28915531776	60	55933
2026-01-24 08:03:07.69	352.92	7.73	-50.8	-53.3	6.1	0.00e+00	0	43	104	28915531776	60	56471
2026-01-24 08:03:08.70	352.80	7.65	-50.9	-53.4	6.1	0.00e+00	0	43	104	28915531776	60	57047
2026-01-24 08:03:09.71	352.68	7.57	-50.8	-53.3	6.1	0.00e+00	0	43	104	28915531776	60	56393
2026-01-24 08:03:10.72	352.55	7.50	-50.7	-53.2	6.1	0.00e+00	0	43	104	28915531776	60	55672
2026-01-24 08:03:11.73	352.43	7.42	-50.8	-53.2	6.1	0.00e+00	0	43	104	28915531776	60	56275
2026-01-24 08:03:12.74	352.31	7.34	-50.8	-53.3	6.1	0.00e+00	0	43	104	28915531776	60	56419
2026-01-24 08:03:13.75	352.19	7.26	-50.8	-53.2	6.1	0.00e+00	0	43	104	28915531776	60	56285
2026-01-24 08:03:14.76	352.08	7.18	-50.7	-53.2	6.1	0.00e+00	0	43	104	28915531776	60	56053
2026-01-24 08:03:15.77	351.96	7.11	-50.8	-53.2	6.1	0.00e+00	0	43	104	28915531776	60	56291
2026-01-24 08:03:16.78	351.84	7.03	-50.8	-53.2	6.1	0.00e+00	0	43	104	28915531776	60	56178
2026-01-24 08:03:17.79	351.73	6.95	-50.7	-53.2	6.1	0.00e+00	0	43	104	28915531776	60	55781
2026-01-24 08:03:18.80	351.61	6.87	-50.7	-53.2	6.1	0.00e+00	0	43	104	28915531776	60	55688
2026-01-24 08:03:19.81	351.50	6.80	-50.6	-53.1	6.1	0.00e+00	0	43	104	28915531776	60	55248
2026-01-24 08:03:20.82	351.38	6.72	-50.7	-53.2	6.1	0.00e+00	0	43	104	28915531776	60	55745
2026-01-24 08:03:21.83	351.27	6.65	-50.7	-53.2	6.1	0.00e+00	0	43	104	28915531776	60	56085
2026-01-24 08:03:22.84	351.16	6.57	-50.7	-53.2	6.1	0.00e+00	0	43	104	28915531776	60	55923
2026-01-24 08:03:23.85	351.05	6.49	-50.7	-53.2	6.1	0.00e+00	0	43	104	28915531776	60	55701
2026-01-24 08:03:24.86	350.94	6.42	-50.7	-53.2	6.1	0.00e+00	0	43	104	28915531776	60	56130
2026-01-24 08:03:25.86	350.83	6.34	-50.8	-53.2	6.1	0.00e+00	0	43	104	28915531776	60	56046
2026-01-24 08:03:26.87	350.72	6.27	-50.7	-53.2	6.1	0.00e+00	0	44	104	28915531776	60	55893
2026-01-24 08:03:27.88	350.61	6.19	-50.7	-53.1	6.1	0.00e+00	0	43	104	28915531776	60	55548
2026-01-24 08:03:28.89	350.50	6.12	-50.8	-53.2	6.1	0.00e+00	0	43	104	28915531776	60	56288
2026-01-24 08:03:29.90	350.39	6.04	-50.7	-53.1	6.1	0.00e+00	0	43	104	28915531776	60	55601
2026-01-24 08:03:30.91	350.29	5.97	-50.6	-53.1	6.1	0.00e+00	0	44	104	28915531776	60	55328
2026-01-24 08:03:31.92	350.18	5.90	-50.7	-53.2	6.1	0.00e+00	0	43	104	28915531776	60	55781
2026-01-24 08:03:32.93	350.08	5.82	-50.7	-53.2	6.1	0.00e+00	0	43	104	28915531776	60	56009
2026-01-24 08:03:33.94	349.97	5.75	-50.7	-53.2	6.1	0.00e+00	0	43	104	28915531776	60	55774
2026-01-24 08:03:34.95	349.87	5.67	-50.6	-53.1	6.1	0.00e+00	0	43	104	28915531776	60	55455
2026-01-24 08:03:35.96	349.77	5.60	-50.7	-53.1	6.1	0.00e+00	0	43	104	28915531776	60	55402
2026-01-24 08:03:36.96	349.67	5.53	-50.7	-53.2	6.1	0.00e+00	0	43	104	28915531776	60	55790
2026-01-24 08:03:37.97	349.56	5.46	-50.7	-53.2	6.1	0.00e+00	0	43	104	28915531776	60	55692
2026-01-24 08:03:38.98	349.46	5.38	-50.6	-53.1	6.1	0.00e+00	0	43	104	28915531776	60	55192
2026-01-24 08:03:39.99	349.36	5.31	-50.7	-53.2	6.1	0.00e+00	0	44	104	28915531776	60	55687
2026-01-24 08:03:41.00	349.26	5.24	-50.8	-53.2	6.1	0.00e+00	0	43	104	28915531776	60	56172
2026-01-24 08:03:42.01	349.16	5.17	-50.6	-53.1	6.1	0.00e+00	0	44	104	28915531776	60	55253
2026-01-24 08:03:43.02	349.07	5.09	-50.4	-53.0	6.1	0.00e+00	0	43	104	28915531776	60	54412
2026-01-24 08:03:44.03	348.97	5.02	-50.7	-53.1	6.1	0.00e+00	0	43	104	28915531776	60	55323
2026-01-24 08:03:45.04	348.87	4.95	-50.7	-53.1	6.1	0.00e+00	0	43	104	28915531776	60	55526
2026-01-24 08:03:46.05	348.77	4.88	-50.5	-52.9	6.1	0.00e+00	0	44	104	28915531776	60	54329
2026-01-24 08:03:47.05	348.68	4.81	-50.1	-52.7	6.1	0.00e+00	0	43	104	28915531776	60	52616
2026-01-24 08:03:48.07	348.58	4.74	-50.4	-52.9	6.1	0.00e+00	0	43	104	28915531776	60	53906
2026-01-24 08:03:49.07	348.49	4.67	-50.4	-52.9	6.1	0.00e+00	0	43	104	28915531776	60	54134
2026-01-24 08:03:50.09	348.39	4.59	-50.1	-52.6	6.1	0.00e+00	0	43	104	28915531776	60	52184
2026-01-24 08:03:51.09	348.30	4.52	-49.5	-52.0	6.1	0.00e+00	0	43	104	28915531776	60	48815
2026-01-24 08:03:52.10	348.21	4.45	-50.4	-52.9	6.1	0.00e+00	0	43	104	28915531776	60	54155
2026-01-24 08:03:53.11	348.12	4.38	-49.7	-52.2	6.1	0.00e+00	0	43	104	28915531776	60	50092
2026-01-24 08:03:54.12	348.03	4.31	-48.7	-51.2	6.1	0.00e+00	0	43	104	28915531776	60	44549
2026-01-24 08:03:55.13	347.93	4.24	-48.5	-51.0	6.1	0.00e+00	0	43	104	28915531776	60	43606
2026-01-24 08:03:56.14	347.84	4.17	-48.2	-50.7	6.1	0.00e+00	0	43	104	28915531776	60	42172
2026-01-24 08:03:57.15	347.75	4.11	-48.1	-50.6	6.1	0.00e+00	0	43	104	28915531776	60	41411
2026-01-24 08:03:58.16	347.66	4.04	-47.9	-50.4	6.1	0.00e+00	0	43	104	28915531776	60	40596
2026-01-24 08:03:59.17	347.58	3.97	-47.5	-50.0	6.1	0.00e+00	0	44	104	28915531776	60	38617
2026-01-24 08:04:00.18	347.49	3.90	-48.3	-50.8	6.1	0.00e+00	0	44	104	28915531776	60	42424
2026-01-24 08:04:01.19	347.40	3.83	-48.7	-51.1	6.1	0.00e+00	0	43	104	28915531776	60	44179
2026-01-24 08:04:02.20	347.31	3.76	-47.5	-50.0	6.1	0.00e+00	0	43	104	28915531776	60	38515
2026-01-24 08:04:03.21	347.23	3.69	-48.7	-51.2	6.1	0.00e+00	0	44	104	28915531776	60	44319
2026-01-24 08:04:04.22	347.14	3.62	-47.3	-49.8	6.1	0.00e+00	0	44	104	28915531776	60	37767
2026-01-24 08:04:05.23	347.05	3.56	-47.0	-49.5	6.1	0.00e+00	0	44	104	28915531776	60	36398
2026-01-24 08:04:06.24	346.97	3.49	-46.9	-49.4	6.1	0.00e+00	0	44	104	28915531776	60	36085
2026-01-24 08:04:07.25	346.88	3.42	-46.9	-49.4	6.1	0.00e+00	0	43	104	28915531776	60	36003
2026-01-24 08:04:08.26	346.80	3.35	-46.8	-49.3	6.1	0.00e+00	0	44	104	28915531776	60	35632
2026-01-24 08:04:09.27	346.72	3.29	-46.8	-49.3	6.0	0.00e+00	0	43	104	28915531776	60	35832
2026-01-24 08:04:10.28	346.63	3.22	-47.4	-49.9	6.1	0.00e+00	0	43	104	28915531776	60	38383
2026-01-24 08:04:11.29	346.55	3.15	-47.1	-49.5	6.1	0.00e+00	0	44	104	28915531776	60	36730
2026-01-24 08:04:12.30	346.47	3.08	-46.7	-49.2	6.1	0.00e+00	0	44	104	28915531776	60	35513
2026-01-24 08:04:13.31	346.39	3.02	-46.8	-49.3	6.1	0.00e+00	0	44	104	28915531776	60	35761
2026-01-24 08:04:14.32	346.31	2.95	-47.3	-49.7	6.1	0.00e+00	0	44	104	28915531776	60	37614
2026-01-24 08:04:15.33	346.23	2.88	-50.2	-52.7	6.1	0.00e+00	0	44	104	28915531776	60	53157
2026-01-24 08:04:16.34	346.15	2.82	-51.0	-53.5	6.1	0.00e+00	0	44	104	28915531776	60	57649
2026-01-24 08:04:17.35	346.07	2.75	-51.1	-53.7	6.1	0.00e+00	0	43	104	28915531776	60	59131
2026-01-24 08:04:18.36	345.99	2.69	-51.3	-53.9	6.1	0.00e+00	0	44	104	28915531776	60	60558
2026-01-24 08:04:19.37	345.91	2.62	-51.5	-53.9	6.1	0.00e+00	0	43	104	28915531776	60	60938
2026-01-24 08:04:20.38	345.83	2.56	-51.7	-54.1	6.1	0.00e+00	0	44	104	28915531776	60	62321
2026-01-24 08:04:21.39	345.75	2.49	-51.6	-54.1	6.0	0.00e+00	0	43	104	28915531776	60	62109
2026-01-24 08:04:22.40	345.68	2.42	-51.7	-54.2	6.1	0.00e+00	0	44	104	28915531776	60	63096
2026-01-24 08:04:23.41	345.60	2.36	-51.8	-54.2	6.1	0.00e+00	0	44	104	28915531776	60	63173
2026-01-24 08:04:24.42	345.52	2.29	-51.5	-54.0	6.1	0.00e+00	0	44	104	28915531776	60	61585
2026-01-24 08:04:25.43	345.45	2.23	-51.9	-54.3	6.1	0.00e+00	0	44	104	28915531776	60	63906
2026-01-24 08:04:26.44	345.37	2.17	-51.9	-54.4	6.1	0.00e+00	0	43	104	28915531776	60	64045
2026-01-24 08:04:27.45	345.30	2.10	-51.8	-54.3	6.1	0.00e+00	0	44	104	28915531776	60	63221
2026-01-24 08:04:28.46	345.22	2.04	-51.8	-54.3	6.1	0.00e+00	0	44	104	28915531776	60	63476
2026-01-24 08:04:29.47	345.15	1.97	-51.8	-54.3	6.1	0.00e+00	0	44	104	28915531776	60	63333
2026-01-24 08:04:30.48	345.07	1.91	-51.8	-54.2	6.1	0.00e+00	0	44	104	28915531776	60	63163
2026-01-24 08:04:31.49	345.00	1.84	-51.7	-54.2	6.1	0.00e+00	0	44	104	28915531776	60	62718
2026-01-24 08:04:32.50	344.93	1.78	-51.4	-54.0	6.1	0.00e+00	0	44	104	28915531776	60	61156
2026-01-24 08:04:33.51	344.85	1.72	-51.9	-54.4	6.1	0.00e+00	0	44	104	28915531776	60	64217
2026-01-24 08:04:34.52	344.78	1.65	-51.9	-54.3	6.1	0.00e+00	0	44	104	28915531776	60	63901
2026-01-24 08:04:35.53	344.71	1.59	-52.0	-54.4	6.1	0.00e+00	0	44	104	28915531776	60	64436
2026-01-24 08:04:36.54	344.64	1.53	-52.0	-54.4	6.1	0.00e+00	0	44	104	28915531776	60	64339
2026-01-24 08:04:37.55	344.57	1.46	-52.0	-54.5	6.1	0.00e+00	0	44	104	28915531776	60	65113
2026-01-24 08:04:38.56	344.50	1.40	-52.0	-54.4	6.1	0.00e+00	0	44	104	28915531776	60	64488
2026-01-24 08:04:39.57	344.43	1.34	-52.1	-54.6	6.1	0.00e+00	0	44	104	28915531776	60	65750
2026-01-24 08:04:40.58	344.36	1.28	-52.0	-54.4	6.1	0.00e+00	0	44	104	28915531776	60	64452
2026-01-24 08:04:41.59	344.29	1.21	-51.9	-54.4	6.1	0.00e+00	0	44	104	28915531776	60	64089
2026-01-24 08:04:42.59	344.22	1.15	-51.9	-54.4	6.1	0.00e+00	0	44	104	28915531776	60	64340
2026-01-24 08:04:43.60	344.15	1.09	-52.0	-54.5	6.1	0.00e+00	0	44	104	28915531776	60	64738
2026-01-24 08:04:44.62	344.08	1.03	-52.2	-54.7	6.1	0.00e+00	0	44	104	28915531776	60	66370
2026-01-24 08:04:45.62	344.02	0.97	-52.2	-54.6	6.1	0.00e+00	0	44	104	28915531776	60	66066
2026-01-24 08:04:46.64	343.95	0.90	-52.0	-54.5	6.1	0.00e+00	0	44	104	28915531776	60	64671
2026-01-24 08:04:47.65	343.88	0.84	-51.9	-54.4	6.1	0.00e+00	0	44	104	28915531776	60	64236
2026-01-24 08:04:48.65	343.82	0.78	-51.9	-54.4	6.1	0.00e+00	0	44	104	28915531776	60	64150
2026-01-24 08:04:49.66	343.75	0.72	-51.9	-54.4	6.1	0.00e+00	0	44	104	28915531776	60	64057
2026-01-24 08:04:50.67	343.68	0.66	-51.9	-54.4	6.1	0.00e+00	0	44	104	28915531776	60	63944
2026-01-24 08:04:51.68	343.62	0.60	-52.0	-54.4	6.1	0.00e+00	0	43	104	28915531776	60	64549
2026-01-24 08:04:52.69	343.55	0.54	-52.0	-54.5	6.1	0.00e+00	0	44	104	28915531776	60	64946
2026-01-24 08:04:53.70	343.49	0.48	-52.0	-54.5	6.1	0.00e+00	0	44	104	28915531776	60	64686
2026-01-24 08:04:54.71	343.43	0.41	-51.9	-54.4	6.1	0.00e+00	0	43	104	28915531776	60	64107
2026-01-24 08:04:55.72	343.36	0.35	-51.9	-54.3	6.1	0.00e+00	0	44	104	28915531776	60	63836
2026-01-24 08:04:56.74	343.30	0.29	-51.9	-54.4	6.1	0.00e+00	0	43	104	28915531776	60	64062
2026-01-24 08:04:57.74	343.23	0.23	-51.9	-54.4	6.1	0.00e+00	0	44	104	28915531776	60	64388
2026-01-24 08:04:58.75	343.17	0.17	-51.9	-54.4	6.1	0.00e+00	0	44	104	28915531776	60	63964
2026-01-24 08:04:59.76	343.11	0.11	-51.9	-54.3	6.1	0.00e+00	0	43	104	28915531776	60	63685
2026-01-24 08:05:00.77	343.05	0.05	-51.9	-54.4	6.1	0.00e+00	0	44	104	28915531776	60	64335
2026-01-24 08:05:01.78	342.98	-0.01	-51.9	-54.4	6.1	0.00e+00	0	44	104	28915531776	60	64356
2026-01-24 08:05:02.79	342.92	-0.07	-52.1	-54.6	6.1	0.00e+00	0	44	104	28915531776	60	65518
2026-01-24 08:05:03.80	342.86	-0.13	-52.0	-54.4	6.1	0.00e+00	0	44	104	28915531776	60	64591

#Closed at: 2026-01-24 08:05:04
#Recorded file [28915 MB]: D:/lorett/data/35029_260124_195448.dat