passes_logs/2026/01/24/R4.6S_Anadyr/R4.6S_Anadyr__20260124_135617_NOAA_20_JPSS-1_rec.log

#Pass ID: 20260124_135617_NOAA 20 (JPSS-1)
#Satellite: NOAA 20 (JPSS-1)
#Configuration: NOAA 20
#almurnet v.1.7.20251203
#Start time: 2026-01-24 13:56:20

#Version: 2.2.20231116
#Station: R4.6S_Anadyr
#Location: 177.4865 lon 64.73178 lat
#TLE: 1 43013U 17073A   26024.14064826  .00000217  00000+0  12382-3 0  9992
#TLE: 2 43013  98.7646 324.9839 0001118  26.6217 333.5016 14.19539758424032

#Time	Az	El	Level	Level2	SNR	BER	BlckErr	Temp	State	Recorded	gain1	gain2
2026-01-24 13:56:20.23	19.32	0.18	-51.6	-65.4	3.3	1.54e+00	0	40	0	0	60	67190
2026-01-24 13:56:21.24	19.35	0.24	-51.4	-66.6	3.6	1.51e+00	0	40	104	0	60	77347
2026-01-24 13:56:22.25	19.38	0.30	-51.3	-66.6	3.6	1.51e+00	0	40	104	0	60	77140
2026-01-24 13:56:23.26	19.41	0.35	-51.2	-66.5	3.6	1.51e+00	0	40	104	0	60	76750
2026-01-24 13:56:24.27	19.44	0.41	-51.3	-66.5	3.6	1.51e+00	0	40	104	0	60	76536
2026-01-24 13:56:25.28	19.47	0.47	-51.3	-66.5	3.6	1.51e+00	0	40	104	0	60	76782
2026-01-24 13:56:26.29	19.49	0.53	-51.4	-66.6	3.6	1.51e+00	0	40	104	0	60	77592
2026-01-24 13:56:27.30	19.52	0.59	-51.3	-66.5	3.6	1.51e+00	0	40	104	0	60	76566
2026-01-24 13:56:28.31	19.55	0.65	-51.3	-66.5	3.6	1.51e+00	0	40	104	0	60	76185
2026-01-24 13:56:29.32	19.58	0.71	-51.1	-66.4	3.6	1.51e+00	0	40	104	0	60	75632
2026-01-24 13:56:30.34	19.61	0.77	-51.1	-66.3	3.6	1.51e+00	0	40	104	0	60	74758
2026-01-24 13:56:31.35	19.64	0.83	-51.0	-66.3	3.6	1.51e+00	0	40	104	0	60	74258
2026-01-24 13:56:32.36	19.67	0.89	-51.0	-66.2	3.6	1.51e+00	0	40	104	0	60	74023
2026-01-24 13:56:33.37	19.70	0.96	-50.8	-66.1	3.6	1.51e+00	0	40	104	0	60	72590
2026-01-24 13:56:34.38	19.73	1.02	-50.7	-66.0	3.6	1.51e+00	0	40	104	0	60	71849
2026-01-24 13:56:35.39	19.76	1.08	-50.6	-65.8	3.6	1.51e+00	0	40	104	0	60	70720
2026-01-24 13:56:36.40	19.79	1.14	-50.5	-65.7	3.6	1.51e+00	0	40	104	0	60	69847
2026-01-24 13:56:37.41	19.82	1.20	-50.4	-65.6	3.6	1.51e+00	0	40	104	0	60	69260
2026-01-24 13:56:38.42	19.85	1.26	-50.3	-65.5	3.6	1.51e+00	0	40	104	0	60	67779
2026-01-24 13:56:39.43	19.88	1.32	-50.1	-65.2	3.6	1.51e+00	0	40	104	0	60	66082
2026-01-24 13:56:40.44	19.91	1.38	-49.9	-65.0	3.6	1.51e+00	0	40	104	0	60	64409
2026-01-24 13:56:41.45	19.94	1.44	-49.7	-64.9	3.6	1.51e+00	0	40	104	0	60	63547
2026-01-24 13:56:42.46	19.97	1.51	-49.7	-64.9	3.6	1.51e+00	0	40	104	0	60	63277
2026-01-24 13:56:43.47	20.00	1.57	-49.7	-64.9	3.6	1.51e+00	0	40	104	0	60	63477
2026-01-24 13:56:44.48	20.03	1.63	-49.7	-64.9	3.6	1.51e+00	0	40	104	0	60	63242
2026-01-24 13:56:45.49	20.06	1.69	-49.7	-64.9	3.6	1.51e+00	0	40	104	0	60	63543
2026-01-24 13:56:46.50	20.09	1.75	-49.7	-64.9	3.6	1.51e+00	0	40	104	0	60	63426
2026-01-24 13:56:47.51	20.12	1.82	-49.7	-64.9	3.6	1.51e+00	0	40	104	0	60	63809
2026-01-24 13:56:48.52	20.15	1.88	-49.7	-64.9	3.6	1.51e+00	0	40	104	0	60	63367
2026-01-24 13:56:49.53	20.18	1.94	-49.7	-64.9	3.6	1.51e+00	0	41	104	0	60	63693
2026-01-24 13:56:50.54	20.21	2.00	-49.7	-64.9	3.6	1.51e+00	0	41	104	0	60	63404
2026-01-24 13:56:51.55	20.24	2.07	-49.7	-64.8	3.6	1.51e+00	0	41	104	0	60	63085
2026-01-24 13:56:52.56	20.27	2.13	-49.7	-64.8	3.6	1.51e+00	0	41	104	0	60	62689
2026-01-24 13:56:53.57	20.31	2.19	-49.7	-64.1	3.6	1.51e+00	0	41	104	0	60	57677
2026-01-24 13:56:54.58	20.34	2.26	-49.6	-64.2	3.6	1.51e+00	0	40	104	0	60	58378
2026-01-24 13:56:55.59	20.37	2.32	-49.6	-63.9	3.6	1.51e+00	0	41	104	0	60	56552
2026-01-24 13:56:56.60	20.40	2.38	-49.6	-63.5	3.6	1.51e+00	0	41	104	0	60	54241
2026-01-24 13:56:57.61	20.43	2.45	-49.6	-63.0	3.6	1.51e+00	0	41	104	0	60	50846
2026-01-24 13:56:58.62	20.46	2.51	-49.6	-63.2	3.6	1.51e+00	0	41	104	0	60	52097
2026-01-24 13:56:59.63	20.50	2.57	-49.6	-63.2	3.6	1.51e+00	0	41	104	0	60	52002
2026-01-24 13:57:00.64	20.53	2.64	-49.6	-63.3	3.6	1.51e+00	0	41	104	0	60	53087
2026-01-24 13:57:01.65	20.56	2.70	-49.6	-62.5	3.6	1.50e+00	0	41	104	0	60	48189
2026-01-24 13:57:02.66	20.59	2.77	-49.3	-58.1	4.8	3.70e-01	7	41	0	0	60	29092
2026-01-24 13:57:03.67	20.63	2.83	-48.1	-52.9	10.3	8.02e-02	92	41	0	2097152	60	16046
2026-01-24 13:57:04.68	20.66	2.89	-47.3	-51.1	12.6	4.03e-04	0	41	0	4194304	60	13018
2026-01-24 13:57:05.69	20.69	2.96	-44.1	-45.9	18.4	2.69e-04	0	41	0	6291456	60	7093
2026-01-24 13:57:06.70	20.72	3.02	-46.5	-49.6	14.4	0.00e+00	0	41	0	8388608	60	10921
2026-01-24 13:57:07.71	20.76	3.09	-46.3	-49.3	15.2	1.06e-05	82	41	0	9437184	60	10523
2026-01-24 13:57:08.72	20.79	3.15	-43.7	-45.4	18.2	0.00e+00	0	41	0	11534336	60	6769
2026-01-24 13:57:09.73	20.82	3.22	-44.2	-46.1	17.9	0.00e+00	0	41	0	13631488	60	7308
2026-01-24 13:57:10.74	20.86	3.29	-46.0	-48.8	14.7	0.00e+00	91	41	0	15728640	60	9905
2026-01-24 13:57:11.75	20.89	3.35	-45.0	-47.2	16.8	0.00e+00	82	41	0	17825792	60	8234
2026-01-24 13:57:12.76	20.93	3.42	-46.2	-49.0	14.8	0.00e+00	89	41	0	18874368	60	10236
2026-01-24 13:57:13.77	20.96	3.48	-45.7	-48.3	15.5	7.00e-07	81	41	0	20971520	60	9392
2026-01-24 13:57:14.78	20.99	3.55	-46.9	-50.4	13.5	1.14e-05	0	41	0	23068672	60	11942
2026-01-24 13:57:15.79	21.03	3.61	-43.8	-45.5	18.5	0.00e+00	0	41	0	25165824	60	6821
2026-01-24 13:57:16.80	21.06	3.68	-44.8	-46.9	17.2	0.00e+00	2	41	0	27262976	60	7990
2026-01-24 13:57:17.81	21.10	3.75	-49.7	-64.9	3.6	0.00e+00	0	41	104	28311552	60	63184
2026-01-24 13:57:18.82	21.13	3.81	-47.4	-51.6	5.7	1.48e+00	90	41	104	28311552	60	13687
2026-01-24 13:57:19.83	21.16	3.88	-49.2	-56.6	6.2	7.00e-07	91	41	0	28311552	60	24465
2026-01-24 13:57:20.84	21.20	3.95	-45.6	-47.9	16.3	1.61e-01	2	41	0	30408704	60	8949
2026-01-24 13:57:21.85	21.23	4.02	-44.3	-46.1	18.3	0.00e+00	0	41	0	32505856	60	7317
2026-01-24 13:57:22.86	21.27	4.08	-44.6	-46.6	16.9	0.00e+00	0	41	0	33554432	60	7727
2026-01-24 13:57:23.86	21.30	4.15	-46.7	-49.9	14.2	0.00e+00	2	41	0	35651584	60	11275
2026-01-24 13:57:24.87	21.34	4.22	-45.8	-48.2	16.6	5.95e-05	0	41	0	37748736	60	9240
2026-01-24 13:57:25.88	21.38	4.29	-42.2	-43.5	19.6	0.00e+00	0	41	0	39845888	56	6816
2026-01-24 13:57:26.89	21.41	4.35	-45.2	-47.4	16.6	0.00e+00	90	41	0	41943040	60	8487
2026-01-24 13:57:27.90	21.45	4.42	-44.7	-46.7	17.5	0.00e+00	0	41	0	42991616	60	7784
2026-01-24 13:57:28.91	21.48	4.49	-44.7	-46.7	17.5	0.00e+00	92	41	0	45088768	60	7783
2026-01-24 13:57:29.92	21.52	4.56	-45.9	-48.5	15.8	0.00e+00	0	41	0	47185920	60	9571
2026-01-24 13:57:30.93	21.55	4.63	-45.0	-47.0	17.0	0.00e+00	4	41	0	49283072	60	8113
2026-01-24 13:57:31.94	21.59	4.70	-44.1	-45.8	18.9	0.00e+00	0	41	0	51380224	60	7058
2026-01-24 13:57:32.95	21.63	4.76	-43.3	-44.8	19.3	0.00e+00	82	41	0	52428800	58	7049
2026-01-24 13:57:33.96	21.66	4.83	-44.7	-46.6	17.5	0.00e+00	90	41	0	54525952	60	7734
2026-01-24 13:57:34.97	21.70	4.90	-44.7	-46.6	17.8	0.00e+00	0	41	0	56623104	60	7766
2026-01-24 13:57:35.98	21.74	4.97	-44.5	-46.4	18.0	0.00e+00	90	41	0	58720256	60	7524
2026-01-24 13:57:36.99	21.78	5.04	-44.9	-46.8	17.5	0.00e+00	82	41	0	60817408	60	7928
2026-01-24 13:57:37.99	21.81	5.11	-44.2	-46.0	18.5	0.00e+00	81	41	0	61865984	60	7181
2026-01-24 13:57:39.00	21.85	5.18	-43.7	-45.2	18.9	0.00e+00	0	41	0	63963136	60	6615
2026-01-24 13:57:40.01	21.89	5.25	-45.7	-48.0	16.6	0.00e+00	0	41	0	66060288	60	9106
2026-01-24 13:57:41.02	21.92	5.32	-44.5	-46.3	18.2	0.00e+00	57	41	0	68157440	60	7431
2026-01-24 13:57:42.03	21.96	5.39	-42.2	-43.4	20.9	0.00e+00	0	41	0	70254592	58	6027
2026-01-24 13:57:43.04	22.00	5.46	-43.3	-44.8	19.8	0.00e+00	92	41	0	71303168	58	7038
2026-01-24 13:57:44.05	22.04	5.53	-44.1	-45.7	19.1	0.00e+00	0	41	0	73400320	60	6996
2026-01-24 13:57:45.06	22.08	5.60	-43.4	-44.9	19.9	0.00e+00	65	41	0	75497472	60	6341
2026-01-24 13:57:46.07	22.12	5.68	-44.1	-45.8	18.7	0.00e+00	0	41	0	77594624	60	7032
2026-01-24 13:57:47.08	22.15	5.75	-43.9	-45.5	18.6	0.00e+00	0	41	0	79691776	60	6806
2026-01-24 13:57:48.09	22.19	5.82	-44.1	-45.8	19.0	0.00e+00	0	41	0	80740352	60	7027
2026-01-24 13:57:49.10	22.23	5.89	-43.4	-44.9	19.5	0.00e+00	80	41	0	82837504	60	6336
2026-01-24 13:57:50.11	22.27	5.96	-42.5	-43.8	20.6	0.00e+00	92	41	0	84934656	60	5597
2026-01-24 13:57:51.12	22.31	6.04	-44.2	-45.8	18.7	0.00e+00	81	41	0	87031808	60	7060
2026-01-24 13:57:52.13	22.35	6.11	-43.8	-45.4	19.0	0.00e+00	90	41	0	89128960	60	6737
2026-01-24 13:57:53.14	22.39	6.18	-43.3	-44.7	19.6	0.00e+00	80	41	0	90177536	58	6979
2026-01-24 13:57:54.15	22.43	6.25	-44.4	-46.1	18.4	0.00e+00	2	41	0	92274688	60	7318
2026-01-24 13:57:55.15	22.47	6.33	-42.4	-43.6	20.4	0.00e+00	0	41	0	94371840	58	6157
2026-01-24 13:57:56.16	22.51	6.40	-44.3	-46.0	18.6	0.00e+00	1	41	0	96468992	60	7194
2026-01-24 13:57:57.17	22.55	6.47	-44.0	-45.6	19.1	0.00e+00	92	41	0	98566144	60	6921
2026-01-24 13:57:58.19	22.59	6.55	-43.7	-45.2	19.2	0.00e+00	81	41	0	99614720	60	6575
2026-01-24 13:57:59.20	22.63	6.62	-42.7	-44.0	20.6	0.00e+00	92	41	0	101711872	60	5707
2026-01-24 13:58:00.21	22.67	6.69	-43.6	-45.1	19.9	0.00e+00	0	41	0	103809024	60	6476
2026-01-24 13:58:01.21	22.71	6.77	-43.7	-45.2	18.0	0.00e+00	0	41	0	105906176	56	8280
2026-01-24 13:58:02.23	22.76	6.84	-44.0	-45.5	19.7	0.00e+00	0	41	0	108003328	60	6847
2026-01-24 13:58:03.24	22.80	6.92	-43.0	-44.4	20.0	0.00e+00	0	41	0	110100480	58	6725
2026-01-24 13:58:04.24	22.84	6.99	-42.6	-43.9	20.6	0.00e+00	91	41	0	111149056	58	6370
2026-01-24 13:58:05.26	22.88	7.07	-42.3	-43.5	20.8	0.00e+00	2	41	0	113246208	58	6071
2026-01-24 13:58:06.27	22.92	7.14	-43.1	-44.5	20.1	0.00e+00	93	41	0	115343360	58	6788
2026-01-24 13:58:07.28	22.97	7.22	-42.8	-44.2	20.3	0.00e+00	0	41	0	117440512	58	6540
2026-01-24 13:58:08.29	23.01	7.29	-43.0	-44.4	20.2	0.00e+00	0	41	0	119537664	58	6705
2026-01-24 13:58:09.30	23.05	7.37	-43.4	-44.8	19.7	0.00e+00	0	41	0	120586240	58	7064
2026-01-24 13:58:10.30	23.09	7.44	-43.2	-44.6	19.8	0.00e+00	2	41	0	122683392	58	6889
2026-01-24 13:58:11.31	23.14	7.52	-43.1	-44.4	20.1	0.00e+00	0	41	0	124780544	58	6752
2026-01-24 13:58:12.32	23.18	7.60	-43.2	-44.6	20.1	0.00e+00	81	41	0	126877696	58	6875
2026-01-24 13:58:13.33	23.22	7.67	-43.5	-45.0	19.7	0.00e+00	92	41	0	128974848	58	7171
2026-01-24 13:58:14.34	23.27	7.75	-43.2	-44.6	20.0	0.00e+00	81	41	0	130023424	58	6905
2026-01-24 13:58:15.35	23.31	7.83	-41.8	-42.9	21.5	0.00e+00	43	41	0	132120576	56	6353
2026-01-24 13:58:16.36	23.36	7.91	-43.6	-45.0	19.6	0.00e+00	0	41	0	134217728	58	7252
2026-01-24 13:58:17.37	23.40	7.98	-42.4	-43.7	20.5	0.00e+00	82	41	0	136314880	58	6192
2026-01-24 13:58:18.38	23.44	8.06	-42.7	-43.9	20.5	0.00e+00	0	41	0	138412032	58	6378
2026-01-24 13:58:19.39	23.49	8.14	-43.5	-44.9	19.6	0.00e+00	0	41	0	139460608	58	7143
2026-01-24 13:58:20.40	23.53	8.22	-42.4	-43.6	20.9	0.00e+00	91	41	0	141557760	58	6123
2026-01-24 13:58:21.41	23.58	8.30	-42.6	-43.8	20.8	0.00e+00	0	41	0	143654912	58	6308
2026-01-24 13:58:22.42	23.62	8.37	-42.7	-44.0	20.6	0.00e+00	91	41	0	145752064	58	6423
2026-01-24 13:58:23.43	23.67	8.45	-42.3	-43.5	21.1	0.00e+00	0	41	0	147849216	58	6068
2026-01-24 13:58:24.44	23.72	8.53	-42.8	-44.1	20.6	0.00e+00	0	41	0	148897792	58	6519
2026-01-24 13:58:25.45	23.76	8.61	-42.0	-43.2	21.4	0.00e+00	6	41	0	150994944	58	5846
2026-01-24 13:58:26.46	23.81	8.69	-43.4	-44.8	19.8	0.00e+00	6	41	0	153092096	58	7057
2026-01-24 13:58:27.47	23.85	8.77	-42.2	-43.4	21.1	0.00e+00	80	41	0	155189248	58	6026
2026-01-24 13:58:28.47	23.90	8.85	-43.5	-45.0	19.6	0.00e+00	6	41	0	157286400	58	7194
2026-01-24 13:58:29.49	23.95	8.93	-43.4	-44.8	20.0	0.00e+00	90	41	0	158334976	60	6253
2026-01-24 13:58:30.50	24.00	9.01	-42.4	-43.6	20.9	0.00e+00	0	41	0	160432128	58	6168
2026-01-24 13:58:31.51	24.04	9.09	-43.4	-44.8	20.0	0.00e+00	85	41	0	162529280	58	7011
2026-01-24 13:58:32.51	24.09	9.17	-43.2	-44.6	20.2	0.00e+00	0	41	0	164626432	58	6887
2026-01-24 13:58:33.52	24.14	9.26	-41.8	-43.0	21.5	0.00e+00	6	41	0	166723584	58	5716
2026-01-24 13:58:34.53	24.19	9.34	-42.3	-43.5	21.0	0.00e+00	0	41	0	167772160	58	6088
2026-01-24 13:58:35.54	24.23	9.42	-42.5	-43.7	20.9	0.00e+00	0	41	0	169869312	58	6242
2026-01-24 13:58:36.55	24.28	9.50	-42.4	-43.6	21.1	0.00e+00	92	41	0	171966464	58	6123
2026-01-24 13:58:37.56	24.33	9.58	-41.8	-43.0	21.2	0.00e+00	85	41	0	174063616	58	5710
2026-01-24 13:58:38.57	24.38	9.67	-42.0	-43.2	20.9	0.00e+00	92	41	0	176160768	56	6544
2026-01-24 13:58:39.58	24.43	9.75	-42.3	-43.6	21.1	0.00e+00	85	41	0	178257920	58	6104
2026-01-24 13:58:40.59	24.48	9.83	-42.8	-44.0	20.9	0.00e+00	85	41	0	179306496	58	6460
2026-01-24 13:58:41.60	24.53	9.92	-42.7	-43.9	20.8	0.00e+00	0	41	0	181403648	58	6357
2026-01-24 13:58:42.60	24.58	10.00	-42.7	-44.0	20.6	0.00e+00	6	41	0	183500800	58	6442
2026-01-24 13:58:43.61	24.63	10.08	-42.1	-43.3	21.4	0.00e+00	91	41	0	185597952	58	5904
2026-01-24 13:58:44.62	24.68	10.17	-42.5	-43.7	21.0	0.00e+00	6	41	0	187695104	58	6204
2026-01-24 13:58:45.64	24.73	10.25	-41.8	-43.0	21.7	0.00e+00	92	41	0	188743680	56	6396
2026-01-24 13:58:46.64	24.78	10.34	-41.8	-42.9	21.8	0.00e+00	6	41	0	190840832	56	6319
2026-01-24 13:58:47.65	24.84	10.42	-41.8	-42.9	21.8	0.00e+00	0	41	0	192937984	56	6389
2026-01-24 13:58:48.67	24.89	10.51	-42.0	-43.1	21.6	0.00e+00	0	41	0	195035136	56	6508
2026-01-24 13:58:49.68	24.94	10.59	-42.0	-43.1	21.5	0.00e+00	0	41	0	197132288	56	6523
2026-01-24 13:58:50.68	24.99	10.68	-42.0	-43.1	21.6	0.00e+00	65	41	0	198180864	56	6518
2026-01-24 13:58:51.69	25.04	10.77	-41.9	-43.1	21.7	0.00e+00	0	41	0	200278016	56	6470
2026-01-24 13:58:52.70	25.10	10.85	-42.2	-43.3	21.5	0.00e+00	90	41	0	202375168	56	6682
2026-01-24 13:58:53.71	25.15	10.94	-41.8	-42.9	21.7	0.00e+00	81	41	0	204472320	56	6320
2026-01-24 13:58:54.72	25.20	11.03	-42.3	-43.5	21.3	0.00e+00	0	41	0	206569472	56	6830
2026-01-24 13:58:55.73	25.26	11.11	-42.3	-43.4	21.5	0.00e+00	0	41	0	207618048	56	6752
2026-01-24 13:58:56.74	25.31	11.20	-42.1	-43.3	21.6	0.00e+00	0	41	0	209715200	56	6637
2026-01-24 13:58:57.75	25.37	11.29	-41.8	-42.9	21.9	0.00e+00	73	41	0	211812352	56	6324
2026-01-24 13:58:58.76	25.42	11.38	-41.5	-42.5	22.2	0.00e+00	81	41	0	213909504	56	6070
2026-01-24 13:58:59.77	25.48	11.47	-41.4	-42.5	22.2	0.00e+00	92	41	0	216006656	56	6038
2026-01-24 13:59:00.77	25.53	11.55	-41.6	-42.6	22.1	0.00e+00	81	41	0	217055232	56	6161
2026-01-24 13:59:01.78	25.59	11.64	-42.0	-43.1	21.6	0.00e+00	92	41	0	219152384	56	6503
2026-01-24 13:59:02.79	25.64	11.73	-41.6	-42.6	22.2	0.00e+00	0	41	0	221249536	56	6168
2026-01-24 13:59:03.80	25.70	11.82	-41.4	-42.4	22.3	0.00e+00	2	41	0	223346688	56	6028
2026-01-24 13:59:04.81	25.75	11.91	-41.8	-42.9	22.0	0.00e+00	0	41	0	225443840	56	6342
2026-01-24 13:59:05.82	25.81	12.00	-41.1	-42.1	22.7	0.00e+00	0	41	0	226492416	56	5827
2026-01-24 13:59:06.83	25.87	12.09	-41.1	-42.1	22.6	0.00e+00	80	41	0	228589568	56	5805
2026-01-24 13:59:07.84	25.93	12.18	-41.3	-42.4	22.4	0.00e+00	1	41	0	230686720	56	5969
2026-01-24 13:59:08.85	25.98	12.28	-41.1	-42.1	22.6	0.00e+00	90	41	0	232783872	56	5793
2026-01-24 13:59:09.86	26.04	12.37	-41.3	-42.3	22.5	0.00e+00	0	41	0	234881024	56	5933
2026-01-24 13:59:10.87	26.10	12.46	-41.1	-42.1	22.7	0.00e+00	0	41	0	235929600	56	5796
2026-01-24 13:59:11.88	26.16	12.55	-41.5	-42.5	22.3	0.00e+00	2	41	0	238026752	56	6083
2026-01-24 13:59:12.89	26.22	12.64	-40.9	-41.9	22.8	0.00e+00	0	41	0	240123904	56	5686
2026-01-24 13:59:13.90	26.28	12.74	-41.2	-42.2	22.6	0.00e+00	12	41	0	242221056	56	5834
2026-01-24 13:59:14.91	26.34	12.83	-41.0	-42.0	22.7	0.00e+00	0	41	0	244318208	56	5735
2026-01-24 13:59:15.91	26.40	12.92	-41.0	-42.0	22.7	0.00e+00	91	41	0	246415360	56	5717
2026-01-24 13:59:16.92	26.46	13.02	-40.7	-41.7	22.9	0.00e+00	81	41	0	247463936	54	6196
2026-01-24 13:59:17.93	26.52	13.11	-40.5	-41.5	23.2	0.00e+00	87	41	0	249561088	54	6058
2026-01-24 13:59:18.94	26.58	13.21	-40.5	-41.5	23.2	0.00e+00	81	41	0	251658240	54	6043
2026-01-24 13:59:19.95	26.64	13.30	-40.5	-41.5	23.2	0.00e+00	0	41	0	253755392	54	6054
2026-01-24 13:59:20.96	26.70	13.40	-40.5	-41.4	23.2	0.00e+00	82	41	0	255852544	54	6032
2026-01-24 13:59:21.97	26.77	13.49	-40.5	-41.5	23.2	0.00e+00	82	41	0	256901120	54	6060
2026-01-24 13:59:22.98	26.83	13.59	-40.6	-41.6	23.0	0.00e+00	92	41	0	258998272	54	6126
2026-01-24 13:59:23.99	26.89	13.68	-40.6	-41.6	23.1	0.00e+00	81	41	0	261095424	54	6122
2026-01-24 13:59:25.00	26.96	13.78	-40.5	-41.4	23.2	0.00e+00	88	41	0	263192576	54	6003
2026-01-24 13:59:26.00	27.02	13.88	-40.3	-41.2	23.4	0.00e+00	0	41	0	265289728	54	5878
2026-01-24 13:59:27.01	27.08	13.98	-40.1	-41.0	23.5	0.00e+00	0	41	0	266338304	54	5755
2026-01-24 13:59:28.03	27.15	14.07	-40.3	-41.2	23.4	0.00e+00	2	41	0	268435456	54	5841
2026-01-24 13:59:29.03	27.21	14.17	-40.2	-41.1	23.5	0.00e+00	2	41	0	270532608	54	5780
2026-01-24 13:59:30.04	27.28	14.27	-40.1	-41.0	23.6	0.00e+00	64	41	0	272629760	54	5746
2026-01-24 13:59:31.05	27.34	14.37	-40.1	-41.0	23.6	0.00e+00	0	41	0	274726912	54	5717
2026-01-24 13:59:32.06	27.41	14.47	-40.1	-41.0	23.5	0.00e+00	92	41	0	275775488	54	5758
2026-01-24 13:59:33.07	27.48	14.57	-40.2	-41.1	23.4	0.00e+00	0	41	0	277872640	54	5805
2026-01-24 13:59:34.08	27.54	14.67	-40.2	-41.1	23.6	0.00e+00	64	41	0	279969792	54	5772
2026-01-24 13:59:35.09	27.61	14.77	-40.1	-41.0	23.6	0.00e+00	0	41	0	282066944	54	5712
2026-01-24 13:59:36.10	27.68	14.87	-40.2	-41.1	23.6	0.00e+00	0	41	0	284164096	54	5771
2026-01-24 13:59:37.11	27.75	14.97	-40.1	-41.0	23.6	0.00e+00	0	41	0	285212672	54	5710
2026-01-24 13:59:38.12	27.82	15.07	-40.0	-40.9	23.7	0.00e+00	0	41	0	287309824	54	5679
2026-01-24 13:59:39.13	27.89	15.17	-40.0	-40.9	23.7	0.00e+00	91	41	0	289406976	54	5662
2026-01-24 13:59:40.14	27.96	15.28	-40.0	-40.9	23.7	0.00e+00	81	41	0	291504128	54	5682
2026-01-24 13:59:41.15	28.03	15.38	-40.0	-40.9	23.7	0.00e+00	24	41	0	293601280	54	5640
2026-01-24 13:59:42.16	28.10	15.48	-40.1	-41.0	23.6	0.00e+00	82	41	0	294649856	54	5747
2026-01-24 13:59:43.17	28.17	15.59	-40.0	-40.9	23.7	0.00e+00	0	41	0	296747008	54	5685
2026-01-24 13:59:44.18	28.24	15.69	-40.1	-41.0	23.7	0.00e+00	77	41	0	298844160	54	5748
2026-01-24 13:59:45.19	28.31	15.79	-39.9	-40.8	23.8	0.00e+00	82	41	0	300941312	54	5611
2026-01-24 13:59:46.20	28.38	15.90	-40.0	-40.9	23.7	0.00e+00	92	41	0	303038464	54	5645
2026-01-24 13:59:47.20	28.46	16.00	-39.9	-40.8	23.8	0.00e+00	0	41	0	304087040	54	5583
2026-01-24 13:59:48.21	28.53	16.11	-39.8	-40.7	23.9	0.00e+00	92	41	0	306184192	54	5537
2026-01-24 13:59:49.22	28.60	16.21	-39.9	-40.8	23.7	0.00e+00	0	41	0	308281344	54	5619
2026-01-24 13:59:50.23	28.68	16.32	-39.8	-40.7	23.9	0.00e+00	0	41	0	310378496	54	5531
2026-01-24 13:59:51.24	28.75	16.43	-39.8	-40.7	23.9	0.00e+00	0	41	0	312475648	54	5541
2026-01-24 13:59:52.25	28.83	16.54	-40.1	-41.0	23.7	0.00e+00	0	41	0	314572800	54	5705
2026-01-24 13:59:53.26	28.90	16.64	-40.0	-40.9	23.7	0.00e+00	92	41	0	315621376	54	5683
2026-01-24 13:59:54.26	28.98	16.75	-39.9	-40.8	23.9	0.00e+00	0	41	0	317718528	54	5586
2026-01-24 13:59:55.27	29.06	16.86	-39.9	-40.7	23.8	0.00e+00	92	41	0	319815680	54	5557
2026-01-24 13:59:56.28	29.14	16.97	-40.1	-41.0	23.7	0.00e+00	0	41	0	321912832	54	5732
2026-01-24 13:59:57.29	29.21	17.08	-40.0	-40.9	23.8	0.00e+00	66	41	0	322961408	54	5641
2026-01-24 13:59:58.30	29.29	17.19	-39.8	-40.6	24.0	0.00e+00	0	41	0	325058560	52	6161
2026-01-24 13:59:59.31	29.37	17.30	-39.8	-40.7	24.0	0.00e+00	81	41	0	327155712	52	6184
2026-01-24 14:00:00.32	29.45	17.41	-39.9	-40.7	23.9	0.00e+00	0	41	0	329252864	52	6243
2026-01-24 14:00:01.33	29.53	17.52	-39.8	-40.7	24.0	0.00e+00	0	41	0	331350016	52	6188
2026-01-24 14:00:02.34	29.61	17.63	-39.8	-40.7	24.0	0.00e+00	91	41	0	332398592	52	6180
2026-01-24 14:00:03.35	29.69	17.74	-39.8	-40.7	24.0	0.00e+00	0	41	0	334495744	52	6194
2026-01-24 14:00:04.36	29.77	17.86	-39.7	-40.5	24.1	0.00e+00	91	41	0	336592896	52	6101
2026-01-24 14:00:05.37	29.86	17.97	-39.7	-40.6	24.0	0.00e+00	81	41	0	338690048	52	6127
2026-01-24 14:00:06.38	29.94	18.08	-39.7	-40.6	24.1	0.00e+00	81	41	0	340787200	52	6112
2026-01-24 14:00:07.39	30.02	18.20	-39.7	-40.6	24.1	0.00e+00	81	41	0	342884352	52	6135
2026-01-24 14:00:08.40	30.11	18.31	-39.8	-40.6	24.1	0.00e+00	0	41	0	343932928	52	6156
2026-01-24 14:00:09.40	30.19	18.43	-39.7	-40.6	24.0	0.00e+00	92	41	0	346030080	52	6137
2026-01-24 14:00:10.41	30.28	18.54	-39.9	-40.8	23.8	0.00e+00	7	41	0	348127232	52	6290
2026-01-24 14:00:11.42	30.36	18.66	-39.8	-40.7	24.0	0.00e+00	29	41	0	350224384	52	6209
2026-01-24 14:00:12.43	30.45	18.77	-39.8	-40.7	24.0	0.00e+00	0	41	0	352321536	52	6208
2026-01-24 14:00:13.44	30.54	18.89	-39.9	-40.7	24.0	0.00e+00	0	41	0	353370112	52	6240
2026-01-24 14:00:14.45	30.63	19.01	-40.0	-40.9	23.9	0.00e+00	0	41	0	355467264	52	6354
2026-01-24 14:00:15.46	30.71	19.13	-40.0	-40.9	23.9	0.00e+00	4	41	0	357564416	52	6376
2026-01-24 14:00:16.47	30.80	19.24	-40.1	-40.9	23.9	0.00e+00	78	41	0	359661568	52	6382
2026-01-24 14:00:17.48	30.89	19.36	-40.0	-40.9	23.9	0.00e+00	6	41	0	361758720	52	6318
2026-01-24 14:00:18.49	30.98	19.48	-40.0	-40.9	23.8	0.00e+00	91	41	0	362807296	52	6364
2026-01-24 14:00:19.50	31.08	19.60	-40.0	-40.9	23.6	0.00e+00	0	41	0	364904448	52	6318
2026-01-24 14:00:20.51	31.17	19.72	-39.9	-40.7	23.8	0.00e+00	83	41	0	367001600	52	6224
2026-01-24 14:00:21.52	31.26	19.85	-40.0	-40.9	23.7	0.00e+00	85	41	0	369098752	52	6355
2026-01-24 14:00:22.53	31.35	19.97	-39.8	-40.7	24.0	0.00e+00	85	41	0	371195904	52	6202
2026-01-24 14:00:23.54	31.45	20.09	-39.8	-40.7	24.1	0.00e+00	0	41	0	372244480	52	6192
2026-01-24 14:00:24.55	31.54	20.21	-39.6	-40.5	24.2	0.00e+00	86	41	0	374341632	52	6064
2026-01-24 14:00:25.56	31.64	20.33	-39.7	-40.5	24.2	0.00e+00	90	41	0	376438784	52	6096
2026-01-24 14:00:26.57	31.73	20.46	-39.9	-40.8	24.0	0.00e+00	84	41	0	378535936	52	6257
2026-01-24 14:00:27.58	31.83	20.58	-39.9	-40.7	24.0	0.00e+00	82	41	0	380633088	52	6228
2026-01-24 14:00:28.59	31.93	20.71	-39.9	-40.8	24.0	0.00e+00	83	41	0	381681664	52	6272
2026-01-24 14:00:29.60	32.03	20.83	-40.0	-40.9	23.9	0.00e+00	0	41	0	383778816	52	6333
2026-01-24 14:00:30.61	32.13	20.96	-39.8	-40.7	24.1	0.00e+00	0	41	0	385875968	52	6220
2026-01-24 14:00:31.62	32.23	21.09	-39.9	-40.8	24.0	0.00e+00	0	41	0	387973120	52	6264
2026-01-24 14:00:32.63	32.33	21.21	-40.0	-40.9	23.8	0.00e+00	92	41	0	390070272	52	6361
2026-01-24 14:00:33.64	32.43	21.34	-39.9	-40.8	24.0	0.00e+00	7	41	0	391118848	52	6273
2026-01-24 14:00:34.65	32.53	21.47	-39.8	-40.7	24.0	0.00e+00	68	41	0	393216000	52	6211
2026-01-24 14:00:35.66	32.63	21.60	-39.9	-40.8	23.9	0.00e+00	0	41	0	395313152	52	6268
2026-01-24 14:00:36.66	32.74	21.72	-40.2	-41.1	23.8	0.00e+00	0	41	0	397410304	52	6468
2026-01-24 14:00:37.67	32.84	21.85	-39.8	-40.7	24.1	0.00e+00	5	41	0	399507456	52	6176
2026-01-24 14:00:38.68	32.95	21.98	-39.8	-40.6	24.1	0.00e+00	6	41	0	400556032	52	6163
2026-01-24 14:00:39.69	33.05	22.12	-39.7	-40.6	24.1	0.00e+00	76	41	0	402653184	52	6111
2026-01-24 14:00:40.70	33.16	22.25	-39.8	-40.7	24.1	0.00e+00	81	41	0	404750336	52	6200
2026-01-24 14:00:41.71	33.27	22.38	-39.7	-40.6	24.1	0.00e+00	92	41	0	406847488	52	6132
2026-01-24 14:00:42.72	33.38	22.51	-39.7	-40.6	24.1	0.00e+00	0	41	0	408944640	52	6123
2026-01-24 14:00:43.73	33.49	22.65	-40.0	-40.9	23.8	0.00e+00	82	41	0	411041792	52	6329
2026-01-24 14:00:44.74	33.60	22.78	-39.7	-40.6	24.1	0.00e+00	82	41	0	412090368	52	6112
2026-01-24 14:00:45.75	33.71	22.91	-39.9	-40.7	24.1	0.00e+00	81	41	0	414187520	52	6233
2026-01-24 14:00:46.77	33.83	23.05	-39.8	-40.6	24.1	0.00e+00	0	41	0	416284672	52	6165
2026-01-24 14:00:47.78	33.94	23.19	-39.9	-40.8	24.0	0.00e+00	81	41	0	418381824	52	6248
2026-01-24 14:00:48.78	34.05	23.32	-39.8	-40.7	24.0	0.00e+00	90	41	0	420478976	52	6214
2026-01-24 14:00:49.79	34.17	23.46	-40.0	-40.8	23.9	0.00e+00	81	41	0	421527552	52	6303
2026-01-24 14:00:50.80	34.29	23.60	-40.0	-40.9	23.7	0.00e+00	24	41	0	423624704	52	6343
2026-01-24 14:00:51.81	34.40	23.73	-40.0	-40.9	23.7	0.00e+00	2	41	0	425721856	52	6366
2026-01-24 14:00:52.82	34.52	23.87	-40.3	-41.2	23.6	0.00e+00	0	41	0	427819008	52	6576
2026-01-24 14:00:53.83	34.64	24.01	-40.0	-40.8	23.9	0.00e+00	0	41	0	429916160	52	6315
2026-01-24 14:00:54.84	34.76	24.15	-40.0	-40.8	24.0	0.00e+00	0	41	0	430964736	52	6300
2026-01-24 14:00:55.85	34.88	24.29	-39.9	-40.7	24.1	0.00e+00	90	41	0	433061888	52	6240
2026-01-24 14:00:56.86	35.01	24.43	-40.0	-40.9	24.0	0.00e+00	0	41	0	435159040	52	6334
2026-01-24 14:00:57.87	35.13	24.58	-39.9	-40.7	24.0	0.00e+00	64	41	0	437256192	52	6240
2026-01-24 14:00:58.88	35.26	24.72	-40.0	-40.9	23.9	0.00e+00	0	41	0	439353344	52	6334
2026-01-24 14:00:59.89	35.38	24.86	-40.1	-41.0	23.8	0.00e+00	0	41	0	440401920	52	6417
2026-01-24 14:01:00.90	35.51	25.01	-40.4	-41.3	23.7	0.00e+00	81	41	0	442499072	52	6620
2026-01-24 14:01:01.91	35.64	25.15	-40.0	-40.9	23.9	0.00e+00	0	41	0	444596224	52	6364
2026-01-24 14:01:02.92	35.77	25.30	-40.2	-41.0	23.7	0.00e+00	92	42	0	446693376	52	6463
2026-01-24 14:01:03.93	35.90	25.44	-40.2	-41.1	23.8	0.00e+00	0	41	0	448790528	52	6470
2026-01-24 14:01:04.94	36.03	25.59	-40.1	-41.0	23.8	0.00e+00	92	41	0	449839104	52	6391
2026-01-24 14:01:05.95	36.16	25.74	-40.3	-41.2	23.6	0.00e+00	0	41	0	451936256	52	6609
2026-01-24 14:01:06.95	36.30	25.88	-40.4	-41.3	23.6	0.00e+00	3	42	0	454033408	52	6692
2026-01-24 14:01:07.96	36.43	26.03	-40.3	-41.2	23.7	0.00e+00	82	41	0	456130560	52	6582
2026-01-24 14:01:08.97	36.57	26.18	-40.2	-41.1	23.8	0.00e+00	81	42	0	458227712	52	6488
2026-01-24 14:01:09.98	36.71	26.33	-40.2	-41.0	23.7	0.00e+00	75	42	0	459276288	52	6464
2026-01-24 14:01:10.99	36.84	26.48	-40.4	-41.3	23.6	0.00e+00	81	41	0	461373440	52	6646
2026-01-24 14:01:12.00	36.99	26.63	-40.3	-41.2	23.7	0.00e+00	92	41	0	463470592	52	6566
2026-01-24 14:01:13.01	37.13	26.78	-40.5	-41.5	23.4	0.00e+00	0	41	0	465567744	52	6783
2026-01-24 14:01:14.02	37.27	26.94	-40.7	-41.7	23.3	0.00e+00	82	41	0	467664896	52	6935
2026-01-24 14:01:15.03	37.41	27.09	-40.9	-41.8	22.5	0.00e+00	0	41	0	468713472	54	6306
2026-01-24 14:01:16.04	37.56	27.24	-40.7	-41.7	23.1	0.00e+00	2	41	0	470810624	54	6183
2026-01-24 14:01:17.05	37.71	27.40	-41.1	-42.0	22.9	0.00e+00	2	41	0	472907776	54	6463
2026-01-24 14:01:18.05	37.85	27.55	-40.9	-41.9	23.0	0.00e+00	0	41	0	475004928	54	6357
2026-01-24 14:01:19.06	38.00	27.71	-41.3	-42.3	22.7	0.00e+00	92	42	0	477102080	54	6620
2026-01-24 14:01:20.07	38.15	27.86	-41.3	-42.3	22.7	0.00e+00	0	42	0	479199232	54	6672
2026-01-24 14:01:21.08	38.31	28.02	-41.2	-42.2	22.8	0.00e+00	91	41	0	480247808	54	6570
2026-01-24 14:01:22.09	38.46	28.18	-41.2	-42.2	22.8	0.00e+00	0	41	0	482344960	54	6566
2026-01-24 14:01:23.10	38.62	28.34	-41.5	-42.5	22.5	0.00e+00	0	41	0	484442112	54	6840
2026-01-24 14:01:24.11	38.77	28.50	-41.2	-42.2	22.8	0.00e+00	1	41	0	486539264	54	6588
2026-01-24 14:01:25.12	38.93	28.66	-41.2	-42.2	22.8	0.00e+00	81	41	0	488636416	54	6559
2026-01-24 14:01:26.13	39.09	28.82	-41.4	-42.4	22.6	0.00e+00	12	41	0	489684992	54	6731
2026-01-24 14:01:27.14	39.26	28.98	-41.6	-42.6	22.4	0.00e+00	83	41	0	491782144	54	6885
2026-01-24 14:01:28.15	39.42	29.14	-42.0	-43.1	22.0	0.00e+00	90	41	0	493879296	56	6495
2026-01-24 14:01:29.16	39.58	29.30	-42.1	-43.2	22.0	0.00e+00	81	41	0	495976448	56	6551
2026-01-24 14:01:30.17	39.75	29.47	-42.1	-43.3	21.8	0.00e+00	0	41	0	498073600	56	6622
2026-01-24 14:01:31.18	39.92	29.63	-42.4	-43.5	21.6	0.00e+00	0	41	0	499122176	56	6791
2026-01-24 14:01:32.19	40.09	29.80	-42.4	-43.5	21.7	0.00e+00	81	41	0	501219328	56	6833
2026-01-24 14:01:33.20	40.26	29.96	-42.5	-43.6	21.5	0.00e+00	81	41	0	503316480	56	6916
2026-01-24 14:01:34.21	40.43	30.13	-42.5	-43.7	21.4	0.00e+00	0	41	0	505413632	56	6955
2026-01-24 14:01:35.22	40.61	30.30	-42.6	-43.7	21.4	0.00e+00	92	41	0	507510784	56	6984
2026-01-24 14:01:36.23	40.79	30.46	-42.7	-43.9	20.5	0.00e+00	0	41	0	508559360	56	7111
2026-01-24 14:01:37.24	40.97	30.63	-42.7	-43.8	21.4	0.00e+00	92	42	0	510656512	58	6304
2026-01-24 14:01:38.25	41.15	30.80	-42.7	-43.8	21.4	0.00e+00	0	42	0	512753664	58	6286
2026-01-24 14:01:39.26	41.33	30.97	-42.7	-43.8	21.4	0.00e+00	0	41	0	514850816	58	6300
2026-01-24 14:01:40.27	41.51	31.14	-42.6	-43.7	21.5	0.00e+00	0	41	0	516947968	58	6237
2026-01-24 14:01:41.28	41.70	31.31	-42.6	-43.8	21.4	0.00e+00	0	41	0	517996544	58	6280
2026-01-24 14:01:42.29	41.89	31.48	-42.4	-43.5	21.7	0.00e+00	91	41	0	520093696	58	6067
2026-01-24 14:01:43.30	42.08	31.66	-42.4	-43.6	21.6	0.00e+00	82	42	0	522190848	58	6118
2026-01-24 14:01:44.31	42.27	31.83	-42.2	-43.3	21.8	0.00e+00	90	42	0	524288000	58	5920
2026-01-24 14:01:45.32	42.46	32.00	-42.1	-43.2	21.9	0.00e+00	82	42	0	526385152	58	5882
2026-01-24 14:01:46.33	42.66	32.18	-42.3	-43.4	21.8	0.00e+00	0	41	0	527433728	58	5981
2026-01-24 14:01:47.34	42.86	32.35	-42.6	-43.8	21.4	0.00e+00	0	41	0	529530880	58	6267
2026-01-24 14:01:48.35	43.06	32.53	-42.5	-43.7	21.4	0.00e+00	0	41	0	531628032	58	6180
2026-01-24 14:01:49.35	43.26	32.71	-42.6	-43.7	21.6	0.00e+00	92	42	0	533725184	58	6212
2026-01-24 14:01:50.36	43.46	32.88	-42.3	-43.4	21.6	0.00e+00	0	42	0	535822336	58	6019
2026-01-24 14:01:51.37	43.67	33.06	-42.1	-43.2	22.0	0.00e+00	92	41	0	536870912	58	5869
2026-01-24 14:01:52.38	43.88	33.24	-41.6	-42.7	22.5	0.00e+00	0	41	0	538968064	56	6179
2026-01-24 14:01:53.39	44.09	33.42	-41.6	-42.6	22.6	0.00e+00	92	42	0	541065216	56	6131
2026-01-24 14:01:54.40	44.30	33.60	-41.2	-42.2	22.9	0.00e+00	7	42	0	543162368	56	5839
2026-01-24 14:01:55.42	44.52	33.78	-41.2	-42.2	22.9	0.00e+00	5	42	0	545259520	56	5868
2026-01-24 14:01:56.42	44.74	33.96	-41.2	-42.2	22.9	0.00e+00	0	42	0	547356672	56	5860
2026-01-24 14:01:57.43	44.96	34.14	-41.5	-42.5	22.7	0.00e+00	6	41	0	548405248	56	6037
2026-01-24 14:01:58.44	45.18	34.32	-41.3	-42.2	22.8	0.00e+00	92	42	0	550502400	56	5888
2026-01-24 14:01:59.44	45.41	34.50	-41.2	-42.2	23.0	0.00e+00	0	41	0	552599552	56	5864
2026-01-24 14:02:00.45	45.63	34.69	-41.3	-42.3	22.8	0.00e+00	92	41	0	554696704	56	5948
2026-01-24 14:02:01.46	45.86	34.87	-40.9	-41.9	23.2	0.00e+00	0	41	0	556793856	56	5655
2026-01-24 14:02:02.47	46.10	35.06	-40.8	-41.8	23.2	0.00e+00	6	41	0	557842432	56	5585
2026-01-24 14:02:03.48	46.33	35.24	-40.7	-41.6	23.3	0.00e+00	5	42	0	559939584	54	6170
2026-01-24 14:02:04.49	46.57	35.43	-40.7	-41.7	23.3	0.00e+00	7	42	0	562036736	54	6180
2026-01-24 14:02:05.50	46.81	35.61	-40.8	-41.7	23.2	0.00e+00	92	42	0	564133888	54	6227
2026-01-24 14:02:06.51	47.06	35.80	-40.9	-41.9	23.1	0.00e+00	0	42	0	566231040	54	6336
2026-01-24 14:02:07.52	47.30	35.99	-40.9	-41.8	23.2	0.00e+00	91	41	0	567279616	54	6307
2026-01-24 14:02:08.52	47.55	36.17	-40.4	-41.3	23.7	0.00e+00	0	42	0	569376768	54	5937
2026-01-24 14:02:09.53	47.80	36.36	-40.2	-41.1	23.9	0.00e+00	44	41	0	571473920	54	5808
2026-01-24 14:02:10.54	48.06	36.55	-39.6	-40.5	24.4	0.00e+00	85	41	0	573571072	52	6046
2026-01-24 14:02:11.55	48.32	36.74	-39.4	-40.2	24.6	0.00e+00	0	41	0	575668224	52	5882
2026-01-24 14:02:12.56	48.58	36.93	-39.4	-40.2	24.6	0.00e+00	73	41	0	576716800	52	5847
2026-01-24 14:02:13.56	48.84	37.12	-39.7	-40.5	24.4	0.00e+00	0	41	0	578813952	52	6084
2026-01-24 14:02:14.57	49.11	37.31	-39.9	-40.8	24.1	0.00e+00	89	42	0	580911104	52	6279
2026-01-24 14:02:15.58	49.38	37.50	-40.2	-41.1	23.9	0.00e+00	86	41	0	583008256	52	6491
2026-01-24 14:02:16.59	49.65	37.69	-40.4	-41.4	23.6	0.00e+00	92	41	0	585105408	52	6700
2026-01-24 14:02:17.60	49.93	37.89	-40.4	-41.3	23.6	0.00e+00	8	41	0	586153984	52	6666
2026-01-24 14:02:18.61	50.20	38.08	-40.2	-41.0	24.0	0.00e+00	0	41	0	588251136	52	6458
2026-01-24 14:02:19.62	50.49	38.27	-40.0	-40.9	24.0	0.00e+00	0	42	0	590348288	52	6355
2026-01-24 14:02:20.63	50.77	38.46	-39.9	-40.7	24.1	0.00e+00	2	41	0	592445440	52	6217
2026-01-24 14:02:21.63	51.06	38.66	-39.7	-40.5	24.3	0.00e+00	92	41	0	594542592	52	6084
2026-01-24 14:02:22.65	51.36	38.85	-40.0	-40.8	24.0	0.00e+00	6	42	0	595591168	52	6305
2026-01-24 14:02:23.66	51.65	39.04	-40.0	-40.8	24.0	0.00e+00	92	42	0	597688320	52	6314
2026-01-24 14:02:24.67	51.95	39.24	-40.1	-41.0	24.0	0.00e+00	7	41	0	599785472	52	6391
2026-01-24 14:02:25.67	52.25	39.43	-40.3	-41.2	23.6	0.00e+00	8	41	0	601882624	52	6613
2026-01-24 14:02:26.68	52.56	39.63	-40.5	-41.4	23.7	0.00e+00	0	41	0	603979776	52	6712
2026-01-24 14:02:27.69	52.87	39.82	-40.6	-41.5	23.4	0.00e+00	7	41	0	605028352	52	6815
2026-01-24 14:02:28.70	53.19	40.02	-40.6	-41.5	23.5	0.00e+00	92	41	0	607125504	52	6823
2026-01-24 14:02:29.71	53.50	40.21	-40.6	-41.5	23.3	0.00e+00	1	41	0	609222656	52	6825
2026-01-24 14:02:30.73	53.83	40.41	-40.5	-41.4	23.5	0.00e+00	92	42	0	611319808	52	6745
2026-01-24 14:02:31.73	54.15	40.60	-40.5	-41.4	23.6	0.00e+00	1	41	0	613416960	52	6745
2026-01-24 14:02:32.74	54.48	40.80	-40.3	-41.2	23.8	0.00e+00	29	42	0	614465536	52	6594
2026-01-24 14:02:33.75	54.82	40.99	-40.3	-41.2	23.8	0.00e+00	0	41	0	616562688	52	6570
2026-01-24 14:02:34.76	55.15	41.19	-40.3	-41.2	23.7	0.00e+00	0	42	0	618659840	52	6570
2026-01-24 14:02:35.78	55.50	41.38	-40.5	-41.4	23.6	0.00e+00	72	42	0	620756992	52	6707
2026-01-24 14:02:36.78	55.84	41.58	-40.5	-41.4	23.6	0.00e+00	81	42	0	622854144	52	6758
2026-01-24 14:02:37.79	56.19	41.77	-40.7	-41.7	23.3	0.00e+00	92	42	0	623902720	54	6191
2026-01-24 14:02:38.80	56.55	41.97	-40.8	-41.7	23.3	0.00e+00	0	42	0	625999872	54	6233
2026-01-24 14:02:39.81	56.90	42.16	-40.8	-41.7	23.2	0.00e+00	88	42	0	628097024	54	6214
2026-01-24 14:02:40.82	57.27	42.36	-40.9	-41.8	23.1	0.00e+00	2	42	0	630194176	54	6303
2026-01-24 14:02:41.83	57.63	42.55	-40.7	-41.6	23.4	0.00e+00	0	41	0	632291328	54	6129
2026-01-24 14:02:42.84	58.01	42.75	-40.4	-41.3	23.5	0.00e+00	0	42	0	633339904	54	5938
2026-01-24 14:02:43.85	58.38	42.94	-40.5	-41.4	23.3	0.00e+00	2	42	0	635437056	54	6009
2026-01-24 14:02:44.86	58.76	43.13	-41.0	-42.0	23.0	0.00e+00	92	42	0	637534208	54	6421
2026-01-24 14:02:45.87	59.15	43.33	-41.4	-42.4	22.7	0.00e+00	2	42	0	639631360	54	6706
2026-01-24 14:02:46.88	59.54	43.52	-41.4	-42.4	22.4	0.00e+00	92	42	0	641728512	54	6694
2026-01-24 14:02:47.88	59.93	43.71	-41.4	-42.4	22.7	0.00e+00	1	42	0	643825664	54	6741
2026-01-24 14:02:48.89	60.33	43.90	-41.1	-42.1	23.0	0.00e+00	0	42	0	644874240	54	6471
2026-01-24 14:02:49.90	60.73	44.09	-40.5	-41.4	23.6	0.00e+00	0	42	0	646971392	54	5983
2026-01-24 14:02:50.91	61.14	44.28	-40.3	-41.2	23.7	0.00e+00	3	42	0	649068544	54	5853
2026-01-24 14:02:51.92	61.55	44.47	-40.7	-41.6	23.4	0.00e+00	92	42	0	651165696	54	6136
2026-01-24 14:02:52.93	61.97	44.66	-41.3	-42.2	22.7	0.00e+00	81	42	0	653262848	54	6609
2026-01-24 14:02:53.94	62.39	44.85	-42.0	-43.0	22.2	0.00e+00	92	42	0	654311424	56	6457
2026-01-24 14:02:54.95	62.82	45.04	-42.2	-43.3	21.9	0.00e+00	0	42	0	656408576	56	6650
2026-01-24 14:02:55.96	63.25	45.22	-42.3	-43.5	21.9	0.00e+00	82	42	0	658505728	56	6772
2026-01-24 14:02:56.97	63.69	45.41	-42.2	-43.3	21.9	0.00e+00	0	42	0	660602880	56	6630
2026-01-24 14:02:57.98	64.14	45.59	-41.8	-42.9	22.3	0.00e+00	81	42	0	662700032	56	6319
2026-01-24 14:02:58.99	64.59	45.78	-41.9	-42.9	22.3	0.00e+00	6	42	0	663748608	56	6357
2026-01-24 14:03:00.00	65.04	45.96	-41.8	-42.8	22.1	0.00e+00	0	42	0	665845760	56	6278
2026-01-24 14:03:01.00	65.49	46.14	-42.0	-43.0	22.1	0.00e+00	92	42	0	667942912	56	6460
2026-01-24 14:03:02.02	65.96	46.32	-42.0	-43.1	22.0	0.00e+00	0	42	0	670040064	56	6513
2026-01-24 14:03:03.03	66.43	46.50	-42.0	-43.1	22.0	0.00e+00	91	42	0	672137216	56	6483
2026-01-24 14:03:04.03	66.90	46.68	-41.9	-42.9	22.3	0.00e+00	0	41	0	673185792	56	6361
2026-01-24 14:03:05.04	67.38	46.85	-41.8	-42.9	22.4	0.00e+00	2	42	0	675282944	56	6342
2026-01-24 14:03:06.05	67.87	47.03	-41.5	-42.5	22.7	0.00e+00	0	42	0	677380096	56	6041
2026-01-24 14:03:07.06	68.36	47.20	-41.3	-42.3	22.6	0.00e+00	1	42	0	679477248	56	5940
2026-01-24 14:03:08.07	68.85	47.37	-41.4	-42.4	22.7	0.00e+00	92	42	0	681574400	56	6026
2026-01-24 14:03:09.08	69.36	47.54	-41.6	-42.6	22.6	0.00e+00	2	41	0	682622976	56	6159
2026-01-24 14:03:10.09	69.86	47.71	-41.9	-42.9	22.3	0.00e+00	92	42	0	684720128	56	6357
2026-01-24 14:03:11.10	70.38	47.88	-41.3	-42.3	22.8	0.00e+00	81	42	0	686817280	56	5939
2026-01-24 14:03:12.11	70.89	48.04	-41.2	-42.1	23.0	0.00e+00	79	42	0	688914432	56	5802
2026-01-24 14:03:13.12	71.42	48.21	-41.0	-42.0	23.1	0.00e+00	82	42	0	691011584	56	5723
2026-01-24 14:03:14.13	71.95	48.37	-41.0	-41.9	22.3	0.00e+00	0	42	0	692060160	56	5660
2026-01-24 14:03:15.14	72.48	48.53	-40.5	-41.4	23.6	0.00e+00	92	42	0	694157312	54	5967
2026-01-24 14:03:16.15	73.02	48.69	-40.4	-41.3	23.6	0.00e+00	78	41	0	696254464	54	5915
2026-01-24 14:03:17.16	73.57	48.84	-40.6	-41.5	23.3	0.00e+00	92	41	0	698351616	54	6089
2026-01-24 14:03:18.17	74.12	48.99	-40.9	-41.8	23.2	0.00e+00	78	41	0	700448768	54	6290
2026-01-24 14:03:19.18	74.68	49.14	-40.7	-41.6	23.4	0.00e+00	92	42	0	701497344	54	6130
2026-01-24 14:03:20.19	75.24	49.29	-40.4	-41.3	23.7	0.00e+00	81	41	0	703594496	54	5900
2026-01-24 14:03:21.20	75.80	49.44	-40.4	-41.3	23.6	0.00e+00	0	42	0	705691648	54	5925
2026-01-24 14:03:22.21	76.38	49.58	-40.4	-41.3	23.6	0.00e+00	3	42	0	707788800	54	5898
2026-01-24 14:03:23.22	76.96	49.72	-40.6	-41.5	23.4	0.00e+00	0	41	0	709885952	54	6085
2026-01-24 14:03:24.23	77.54	49.86	-40.9	-41.9	23.0	0.00e+00	92	41	0	711983104	54	6347
2026-01-24 14:03:25.24	78.13	50.00	-41.1	-42.1	22.9	0.00e+00	0	42	0	713031680	54	6509
2026-01-24 14:03:26.25	78.72	50.13	-41.2	-42.2	22.8	0.00e+00	88	41	0	715128832	54	6588
2026-01-24 14:03:27.26	79.32	50.26	-41.1	-42.1	22.9	0.00e+00	0	42	0	717225984	54	6519
2026-01-24 14:03:28.26	79.92	50.38	-40.8	-41.8	23.2	0.00e+00	2	41	0	719323136	54	6259
2026-01-24 14:03:29.27	80.53	50.51	-41.1	-42.1	23.0	0.00e+00	2	42	0	721420288	54	6467
2026-01-24 14:03:30.28	81.14	50.63	-41.3	-42.3	22.8	0.00e+00	0	41	0	722468864	54	6643
2026-01-24 14:03:31.29	81.76	50.75	-41.7	-42.7	22.3	0.00e+00	92	42	0	724566016	56	6245
2026-01-24 14:03:32.30	82.38	50.86	-41.7	-42.7	22.6	0.00e+00	80	42	0	726663168	56	6189
2026-01-24 14:03:33.31	83.01	50.97	-41.4	-42.4	22.7	0.00e+00	90	42	0	728760320	56	5970
2026-01-24 14:03:34.32	83.64	51.08	-41.1	-42.0	23.2	0.00e+00	2	42	0	730857472	56	5735
2026-01-24 14:03:35.33	84.28	51.18	-40.4	-41.3	23.7	0.00e+00	1	42	0	731906048	54	5927
2026-01-24 14:03:36.34	84.92	51.29	-40.4	-41.3	23.5	0.00e+00	79	42	0	734003200	54	5958
2026-01-24 14:03:37.35	85.57	51.38	-40.6	-41.5	23.5	0.00e+00	80	41	0	736100352	54	6069
2026-01-24 14:03:38.36	86.22	51.48	-40.9	-41.8	23.2	0.00e+00	91	42	0	738197504	54	6296
2026-01-24 14:03:39.37	86.87	51.57	-40.6	-41.5	23.6	0.00e+00	0	41	0	740294656	54	6055
2026-01-24 14:03:40.38	87.53	51.65	-40.3	-41.1	23.8	0.00e+00	92	41	0	741343232	54	5821
2026-01-24 14:03:41.39	88.19	51.74	-40.5	-41.4	23.6	0.00e+00	0	42	0	743440384	54	5982
2026-01-24 14:03:42.40	88.85	51.82	-40.6	-41.5	23.4	0.00e+00	49	42	0	745537536	54	6088
2026-01-24 14:03:43.41	89.52	51.89	-40.9	-41.8	23.1	0.00e+00	0	41	0	747634688	54	6308
2026-01-24 14:03:44.42	90.19	51.96	-40.7	-41.6	23.5	0.00e+00	0	42	0	749731840	54	6147
2026-01-24 14:03:45.43	90.87	52.03	-40.2	-41.1	23.8	0.00e+00	11	42	0	750780416	54	5792
2026-01-24 14:03:46.44	91.55	52.10	-39.6	-40.4	24.5	0.00e+00	0	42	0	752877568	52	5984
2026-01-24 14:03:47.45	92.23	52.16	-39.7	-40.5	24.4	0.00e+00	95	41	0	754974720	52	6075
2026-01-24 14:03:48.46	92.91	52.21	-40.3	-41.2	23.8	0.00e+00	0	41	0	757071872	52	6574
2026-01-24 14:03:49.46	93.59	52.26	-40.3	-41.2	23.7	0.00e+00	92	41	0	759169024	52	6596
2026-01-24 14:03:50.47	94.28	52.31	-39.9	-40.7	24.2	0.00e+00	0	41	0	760217600	52	6228
2026-01-24 14:03:51.48	94.97	52.35	-39.6	-40.5	24.3	0.00e+00	5	42	0	762314752	52	6051
2026-01-24 14:03:52.49	95.66	52.39	-39.1	-39.9	24.9	0.00e+00	5	42	0	764411904	52	5659
2026-01-24 14:03:53.50	96.36	52.43	-39.2	-40.0	24.7	0.00e+00	0	42	0	766509056	52	5699
2026-01-24 14:03:54.51	97.05	52.46	-39.6	-40.4	24.3	0.00e+00	92	42	0	768606208	52	6000
2026-01-24 14:03:55.52	97.75	52.48	-39.8	-40.7	24.3	0.00e+00	85	42	0	769654784	52	6203
2026-01-24 14:03:56.53	98.45	52.51	-39.1	-39.9	24.7	0.00e+00	91	42	0	771751936	52	5691
2026-01-24 14:03:57.54	99.15	52.52	-38.9	-39.7	24.9	0.00e+00	85	42	0	773849088	52	5551
2026-01-24 14:03:58.55	99.85	52.54	-39.1	-39.9	24.7	0.00e+00	0	42	0	775946240	52	5681
2026-01-24 14:03:59.56	100.55	52.55	-39.7	-40.6	24.2	0.00e+00	85	41	0	778043392	52	6136
2026-01-24 14:04:00.57	101.25	52.55	-39.7	-40.5	24.3	0.00e+00	0	41	0	780140544	52	6056
2026-01-24 14:04:01.58	101.95	52.55	-39.3	-40.1	24.6	0.00e+00	92	41	0	781189120	52	5821
2026-01-24 14:04:02.58	102.64	52.55	-39.6	-40.5	24.4	0.00e+00	0	42	0	783286272	52	6047
2026-01-24 14:04:03.59	103.34	52.54	-39.4	-40.2	24.5	0.00e+00	92	42	0	785383424	52	5882
2026-01-24 14:04:04.60	104.04	52.53	-39.8	-40.7	23.9	0.00e+00	6	41	0	787480576	52	6199
2026-01-24 14:04:05.61	104.74	52.51	-40.2	-41.1	23.9	0.00e+00	6	42	0	789577728	52	6487
2026-01-24 14:04:06.62	105.44	52.49	-39.6	-40.4	24.5	0.00e+00	4	41	0	790626304	52	5993
2026-01-24 14:04:07.63	106.14	52.47	-39.1	-39.9	25.0	0.00e+00	7	42	0	792723456	52	5649
2026-01-24 14:04:08.64	106.83	52.44	-39.1	-39.9	24.8	0.00e+00	3	41	0	794820608	52	5657
2026-01-24 14:04:09.65	107.53	52.40	-39.3	-40.1	24.8	0.00e+00	8	41	0	796917760	52	5811
2026-01-24 14:04:10.66	108.22	52.36	-38.7	-39.4	25.2	0.00e+00	92	42	0	799014912	50	6033
2026-01-24 14:04:11.67	108.91	52.32	-38.4	-39.1	25.5	0.00e+00	1	42	0	800063488	50	5800
2026-01-24 14:04:12.68	109.60	52.28	-38.5	-39.3	25.4	0.00e+00	92	42	0	802160640	50	5935
2026-01-24 14:04:13.69	110.29	52.22	-38.8	-39.6	24.9	0.00e+00	7	42	0	804257792	50	6167
2026-01-24 14:04:14.70	110.97	52.17	-39.5	-40.3	24.4	0.00e+00	79	42	0	806354944	50	6649
2026-01-24 14:04:15.71	111.66	52.11	-39.2	-40.0	24.8	0.00e+00	0	42	0	808452096	50	6423
2026-01-24 14:04:16.72	112.33	52.05	-39.6	-40.5	24.5	0.00e+00	80	42	0	809500672	50	6795
2026-01-24 14:04:17.73	113.01	51.98	-39.8	-40.7	24.3	0.00e+00	92	41	0	811597824	52	6192
2026-01-24 14:04:18.74	113.68	51.91	-39.9	-40.8	24.2	0.00e+00	0	41	0	813694976	52	6282
2026-01-24 14:04:19.75	114.35	51.84	-40.7	-41.6	23.5	0.00e+00	92	41	0	815792128	52	6919
2026-01-24 14:04:20.76	115.02	51.76	-40.2	-41.1	23.6	0.00e+00	0	42	0	817889280	52	6504
2026-01-24 14:04:21.77	115.68	51.68	-39.9	-40.7	24.2	0.00e+00	0	41	0	818937856	52	6245
2026-01-24 14:04:22.78	116.34	51.59	-40.1	-41.0	24.1	0.00e+00	81	41	0	821035008	52	6419
2026-01-24 14:04:23.79	117.00	51.50	-41.0	-41.9	23.1	0.00e+00	82	41	0	823132160	54	6383
2026-01-24 14:04:24.80	117.65	51.41	-41.4	-42.4	22.7	0.00e+00	87	42	0	825229312	54	6749
2026-01-24 14:04:25.81	118.30	51.31	-41.1	-42.1	22.9	0.00e+00	0	41	0	827326464	54	6519
2026-01-24 14:04:26.82	118.94	51.21	-41.3	-42.2	23.1	0.00e+00	92	41	0	828375040	54	6604
2026-01-24 14:04:27.83	119.58	51.10	-41.6	-42.6	22.6	0.00e+00	0	41	0	830472192	54	6860
2026-01-24 14:04:28.84	120.21	51.00	-42.2	-43.3	21.8	0.00e+00	90	42	0	832569344	56	6671
2026-01-24 14:04:29.84	120.84	50.89	-42.4	-43.5	21.9	0.00e+00	0	41	0	834666496	56	6816
2026-01-24 14:04:30.85	121.46	50.77	-41.7	-42.7	22.5	0.00e+00	0	42	0	836763648	56	6235
2026-01-24 14:04:31.86	122.08	50.66	-40.9	-41.9	23.3	0.00e+00	2	42	0	837812224	56	5631
2026-01-24 14:04:32.87	122.70	50.54	-41.3	-42.3	23.0	0.00e+00	1	42	0	839909376	56	5923
2026-01-24 14:04:33.88	123.31	50.41	-41.6	-42.6	22.5	0.00e+00	92	42	0	842006528	56	6113
2026-01-24 14:04:34.89	123.92	50.29	-42.4	-43.4	22.0	0.00e+00	3	42	0	844103680	56	6763
2026-01-24 14:04:35.90	124.52	50.16	-42.3	-43.4	22.0	0.00e+00	92	41	0	846200832	56	6738
2026-01-24 14:04:36.90	125.11	50.03	-41.8	-42.8	22.5	0.00e+00	81	42	0	848297984	56	6270
2026-01-24 14:04:37.92	125.70	49.89	-41.7	-42.7	22.6	0.00e+00	80	41	0	849346560	56	6182
2026-01-24 14:04:38.92	126.28	49.75	-42.3	-43.3	21.8	0.00e+00	0	41	0	851443712	56	6691
2026-01-24 14:04:39.93	126.86	49.61	-43.5	-44.8	20.5	0.00e+00	1	42	0	853540864	58	7077
2026-01-24 14:04:40.94	127.44	49.47	-44.0	-45.4	20.2	0.00e+00	90	41	0	855638016	60	6706
2026-01-24 14:04:41.95	128.01	49.32	-44.1	-45.5	19.8	0.00e+00	80	41	0	857735168	60	6827
2026-01-24 14:04:42.96	128.57	49.18	-44.3	-45.8	19.8	0.00e+00	92	42	0	858783744	60	7033
2026-01-24 14:04:43.97	129.13	49.03	-44.7	-46.3	19.4	0.00e+00	0	42	0	860880896	60	7447
2026-01-24 14:04:44.98	129.68	48.87	-44.9	-46.5	19.0	0.00e+00	80	41	0	862978048	60	7630
2026-01-24 14:04:45.99	130.23	48.72	-44.8	-46.4	19.1	0.00e+00	0	41	0	865075200	60	7545
2026-01-24 14:04:47.00	130.77	48.56	-44.0	-45.4	20.0	0.00e+00	0	41	0	867172352	60	6743
2026-01-24 14:04:48.01	131.31	48.40	-43.4	-44.8	20.6	0.00e+00	89	42	0	868220928	60	6250
2026-01-24 14:04:49.02	131.84	48.24	-43.4	-44.7	20.6	0.00e+00	0	42	0	870318080	60	6189
2026-01-24 14:04:50.03	132.37	48.08	-44.2	-45.7	19.6	0.00e+00	92	41	0	872415232	60	6938
2026-01-24 14:04:51.04	132.89	47.91	-44.5	-46.1	19.2	0.00e+00	0	41	0	874512384	60	7284
2026-01-24 14:04:52.05	133.40	47.75	-44.4	-45.9	19.4	0.00e+00	12	41	0	876609536	60	7110
2026-01-24 14:04:53.06	133.91	47.58	-43.4	-44.6	20.7	0.00e+00	0	41	0	877658112	60	6169
2026-01-24 14:04:54.07	134.42	47.41	-43.1	-44.4	20.9	0.00e+00	0	41	0	879755264	60	5966
2026-01-24 14:04:55.08	134.92	47.23	-43.5	-44.8	20.6	0.00e+00	0	41	0	881852416	60	6311
2026-01-24 14:04:56.09	135.41	47.06	-44.1	-45.5	19.9	0.00e+00	0	41	0	883949568	60	6843
2026-01-24 14:04:57.10	135.90	46.89	-44.8	-46.4	18.8	0.00e+00	92	41	0	886046720	60	7565
2026-01-24 14:04:58.11	136.38	46.71	-45.2	-46.9	18.8	0.00e+00	0	41	0	887095296	60	7993
2026-01-24 14:04:59.12	136.86	46.53	-43.8	-45.2	20.3	0.00e+00	0	41	0	889192448	60	6545
2026-01-24 14:05:00.13	137.33	46.35	-43.4	-44.7	20.6	0.00e+00	2	41	0	891289600	60	6235
2026-01-24 14:05:01.14	137.79	46.17	-43.7	-45.0	20.5	0.00e+00	1	41	0	893386752	60	6403
2026-01-24 14:05:02.15	138.26	45.99	-43.7	-45.1	20.6	0.00e+00	81	41	0	895483904	60	6479
2026-01-24 14:05:03.16	138.71	45.81	-43.1	-44.3	21.1	0.00e+00	0	41	0	896532480	60	5928
2026-01-24 14:05:04.17	139.16	45.62	-41.9	-43.0	22.4	0.00e+00	92	41	0	898629632	58	5729
2026-01-24 14:05:05.18	139.61	45.44	-41.0	-41.9	23.2	0.00e+00	0	41	0	900726784	56	5660
2026-01-24 14:05:06.19	140.05	45.25	-40.8	-41.7	23.4	0.00e+00	91	41	0	902823936	56	5546
2026-01-24 14:05:07.20	140.48	45.06	-40.8	-41.7	23.1	0.00e+00	0	42	0	904921088	54	6231
2026-01-24 14:05:08.21	140.91	44.88	-41.3	-42.3	22.7	0.00e+00	2	41	0	905969664	54	6646
2026-01-24 14:05:09.21	141.34	44.69	-42.3	-43.4	21.8	0.00e+00	0	41	0	908066816	56	6734
2026-01-24 14:05:10.22	141.76	44.50	-42.2	-43.3	21.9	0.00e+00	0	41	0	910163968	56	6692
2026-01-24 14:05:11.23	142.17	44.31	-41.9	-42.9	22.3	0.00e+00	70	41	0	912261120	56	6378
2026-01-24 14:05:12.24	142.58	44.12	-41.3	-42.3	22.8	0.00e+00	0	41	0	914358272	56	5947
2026-01-24 14:05:13.25	142.99	43.93	-40.9	-41.8	23.2	0.00e+00	91	41	0	916455424	56	5626
2026-01-24 14:05:14.26	143.39	43.73	-41.2	-42.1	22.9	0.00e+00	0	41	0	917504000	56	5813
2026-01-24 14:05:15.27	143.78	43.54	-42.0	-43.0	21.9	0.00e+00	0	41	0	919601152	56	6433
2026-01-24 14:05:16.28	144.18	43.35	-42.6	-43.8	21.4	0.00e+00	0	41	0	921698304	56	7035
2026-01-24 14:05:17.29	144.56	43.15	-42.5	-43.7	21.4	0.00e+00	0	41	0	923795456	56	6956
2026-01-24 14:05:18.30	144.94	42.96	-42.5	-43.7	21.5	0.00e+00	0	41	0	924844032	56	6969
2026-01-24 14:05:19.30	145.32	42.77	-41.5	-42.5	22.6	0.00e+00	0	41	0	926941184	56	6086
2026-01-24 14:05:20.31	145.69	42.57	-41.4	-42.3	22.9	0.00e+00	91	41	0	929038336	56	5948
2026-01-24 14:05:21.32	146.06	42.38	-41.2	-42.1	22.9	0.00e+00	0	41	0	931135488	56	5811
2026-01-24 14:05:22.33	146.43	42.18	-42.6	-43.7	21.4	0.00e+00	2	41	0	933232640	56	6998
2026-01-24 14:05:23.34	146.79	41.99	-44.4	-46.0	19.3	0.00e+00	0	41	0	934281216	60	7177
2026-01-24 14:05:24.35	147.14	41.79	-46.0	-48.0	17.4	0.00e+00	82	41	0	936378368	60	9107
2026-01-24 14:05:25.36	147.49	41.59	-44.8	-46.4	19.0	0.00e+00	0	41	0	938475520	60	7561
2026-01-24 14:05:26.37	147.84	41.40	-43.3	-44.5	20.8	0.00e+00	0	41	0	940572672	60	6088
2026-01-24 14:05:27.38	148.18	41.20	-43.0	-44.2	21.2	0.00e+00	92	41	0	942669824	60	5833
2026-01-24 14:05:28.39	148.52	41.01	-42.9	-44.1	21.2	0.00e+00	0	41	0	944766976	60	5766
2026-01-24 14:05:29.40	148.86	40.81	-44.2	-45.6	19.7	0.00e+00	92	41	0	945815552	60	6911
2026-01-24 14:05:30.41	149.19	40.61	-45.5	-47.3	18.0	0.00e+00	5	41	0	947912704	60	8369
2026-01-24 14:05:31.42	149.52	40.42	-45.8	-47.8	17.7	0.00e+00	0	41	0	950009856	60	8868
2026-01-24 14:05:32.43	149.84	40.22	-44.0	-45.4	20.0	0.00e+00	0	41	0	952107008	60	6740
2026-01-24 14:05:33.44	150.16	40.03	-43.1	-44.3	21.0	0.00e+00	5	41	0	954204160	60	5918
2026-01-24 14:05:34.45	150.48	39.83	-42.4	-43.5	21.8	0.00e+00	78	41	0	955252736	58	6047
2026-01-24 14:05:35.46	150.79	39.63	-42.8	-44.0	21.4	0.00e+00	5	41	0	957349888	58	6423
2026-01-24 14:05:36.46	151.09	39.44	-44.0	-45.4	19.7	0.00e+00	92	41	0	959447040	60	6751
2026-01-24 14:05:37.47	151.40	39.24	-46.6	-48.9	16.1	0.00e+00	6	41	0	961544192	60	10118
2026-01-24 14:05:38.48	151.70	39.05	-47.8	-51.0	14.1	7.00e-07	0	41	0	963641344	60	12802
2026-01-24 14:05:39.49	152.00	38.85	-45.4	-47.3	18.4	0.00e+00	0	41	0	964689920	60	8350
2026-01-24 14:05:40.50	152.29	38.66	-42.8	-43.9	21.3	0.00e+00	0	41	0	966787072	60	5683
2026-01-24 14:05:41.51	152.58	38.47	-41.7	-42.7	22.6	0.00e+00	0	41	0	968884224	56	6204
2026-01-24 14:05:42.52	152.87	38.27	-41.5	-42.5	22.7	0.00e+00	86	41	0	970981376	56	6045
2026-01-24 14:05:43.53	153.16	38.08	-41.8	-42.8	22.2	0.00e+00	92	41	0	973078528	56	6289
2026-01-24 14:05:44.54	153.44	37.88	-42.8	-44.0	21.1	0.00e+00	85	41	0	974127104	58	6435
2026-01-24 14:05:45.55	153.71	37.69	-43.9	-45.3	19.9	0.00e+00	92	41	0	976224256	60	6674
2026-01-24 14:05:46.56	153.99	37.50	-44.2	-45.7	19.7	0.00e+00	85	41	0	978321408	60	6977
2026-01-24 14:05:47.57	154.26	37.31	-43.7	-45.1	20.3	0.00e+00	0	41	0	980418560	60	6474
2026-01-24 14:05:48.58	154.53	37.12	-42.7	-43.8	21.4	0.00e+00	1	41	0	982515712	60	5627
2026-01-24 14:05:49.59	154.79	36.92	-42.0	-43.0	22.1	0.00e+00	85	41	0	983564288	58	5736
2026-01-24 14:05:50.60	155.05	36.73	-41.4	-42.4	22.7	0.00e+00	84	41	0	985661440	56	6001
2026-01-24 14:05:51.60	155.31	36.54	-41.3	-42.2	22.8	0.00e+00	8	41	0	987758592	56	5886
2026-01-24 14:05:52.62	155.57	36.35	-42.0	-43.1	22.0	0.00e+00	90	41	0	989855744	56	6484
2026-01-24 14:05:53.63	155.82	36.16	-42.7	-43.9	21.2	0.00e+00	0	41	0	991952896	56	7147
2026-01-24 14:05:54.63	156.07	35.98	-44.0	-45.4	19.8	0.00e+00	0	41	0	993001472	60	6737
2026-01-24 14:05:55.64	156.32	35.79	-43.6	-44.9	20.4	0.00e+00	7	41	0	995098624	60	6382
2026-01-24 14:05:56.65	156.56	35.60	-43.0	-44.2	21.1	0.00e+00	8	41	0	997195776	60	5889
2026-01-24 14:05:57.66	156.81	35.41	-42.2	-43.3	21.9	0.00e+00	0	41	0	999292928	58	5927
2026-01-24 14:05:58.67	157.04	35.23	-42.0	-43.0	22.2	0.00e+00	0	41	0	1001390080	58	5741
2026-01-24 14:05:59.68	157.28	35.04	-41.8	-42.8	22.3	0.00e+00	92	41	0	1002438656	56	6265
2026-01-24 14:06:00.69	157.52	34.85	-41.7	-42.7	22.4	0.00e+00	0	41	0	1004535808	56	6181
2026-01-24 14:06:01.70	157.75	34.67	-41.9	-43.0	21.8	0.00e+00	43	41	0	1006632960	56	6425
2026-01-24 14:06:02.70	157.97	34.49	-42.1	-43.2	21.9	0.00e+00	80	41	0	1008730112	56	6569
2026-01-24 14:06:03.71	158.20	34.30	-43.1	-44.3	20.8	0.00e+00	82	41	0	1010827264	58	6691
2026-01-24 14:06:04.72	158.42	34.12	-43.8	-45.1	20.2	0.00e+00	0	41	0	1012924416	60	6537
2026-01-24 14:06:05.73	158.65	33.94	-44.1	-45.5	19.8	0.00e+00	1	41	0	1013972992	60	6824
2026-01-24 14:06:06.74	158.86	33.75	-43.7	-45.1	20.2	0.00e+00	92	41	0	1016070144	60	6536
2026-01-24 14:06:07.75	159.08	33.57	-42.8	-44.0	21.3	0.00e+00	81	41	0	1018167296	60	5706
2026-01-24 14:06:08.76	159.30	33.39	-41.3	-42.3	22.9	0.00e+00	91	41	0	1020264448	56	5922
2026-01-24 14:06:09.77	159.51	33.21	-40.8	-41.8	23.2	0.00e+00	81	41	0	1022361600	56	5568
2026-01-24 14:06:10.78	159.72	33.03	-41.0	-41.9	23.1	0.00e+00	0	41	0	1023410176	56	5695
2026-01-24 14:06:11.79	159.92	32.85	-41.6	-42.6	22.5	0.00e+00	81	41	0	1025507328	56	6126
2026-01-24 14:06:12.80	160.13	32.68	-42.8	-44.0	21.1	0.00e+00	0	41	0	1027604480	56	7224
2026-01-24 14:06:13.81	160.33	32.50	-44.4	-45.9	19.6	0.00e+00	92	41	0	1029701632	60	7112
2026-01-24 14:06:14.82	160.53	32.32	-45.2	-47.0	18.3	0.00e+00	0	41	0	1031798784	60	8131
2026-01-24 14:06:15.83	160.73	32.14	-45.9	-47.9	17.6	0.00e+00	92	41	0	1032847360	60	8966
2026-01-24 14:06:16.84	160.93	31.97	-45.2	-47.0	18.5	0.00e+00	0	41	0	1034944512	60	8081
2026-01-24 14:06:17.85	161.12	31.79	-44.4	-45.9	19.6	0.00e+00	0	41	0	1037041664	60	7132
2026-01-24 14:06:18.86	161.32	31.62	-43.0	-44.2	21.2	0.00e+00	0	41	0	1039138816	60	5894
2026-01-24 14:06:19.87	161.51	31.45	-42.2	-43.3	21.8	0.00e+00	0	41	0	1041235968	58	5959
2026-01-24 14:06:20.88	161.70	31.27	-41.8	-42.8	21.7	0.00e+00	32	41	0	1042284544	58	5587
2026-01-24 14:06:21.89	161.88	31.10	-41.8	-42.9	22.4	0.00e+00	0	41	0	1044381696	56	6318
2026-01-24 14:06:22.90	162.07	30.93	-42.2	-43.2	22.0	0.00e+00	92	41	0	1046478848	56	6596
2026-01-24 14:06:23.91	162.25	30.76	-42.4	-43.5	21.6	0.00e+00	81	41	0	1048576000	56	6837
2026-01-24 14:06:24.92	162.43	30.59	-43.0	-44.2	20.9	0.00e+00	92	41	0	1050673152	58	6563
2026-01-24 14:06:25.93	162.61	30.42	-43.2	-44.5	20.7	0.00e+00	0	41	0	1051721728	58	6776
2026-01-24 14:06:26.94	162.79	30.25	-43.3	-44.6	20.6	0.00e+00	4	41	0	1053818880	58	6860
2026-01-24 14:06:27.95	162.96	30.08	-43.3	-44.5	20.6	0.00e+00	0	41	0	1055916032	58	6846
2026-01-24 14:06:28.95	163.14	29.92	-42.8	-43.9	21.4	0.00e+00	82	41	0	1058013184	58	6370
2026-01-24 14:06:29.96	163.31	29.75	-42.5	-43.6	21.5	0.00e+00	91	41	0	1060110336	58	6159
2026-01-24 14:06:30.97	163.48	29.59	-42.0	-43.1	22.1	0.00e+00	81	41	0	1061158912	58	5784
2026-01-24 14:06:31.98	163.65	29.42	-41.8	-42.8	22.3	0.00e+00	92	41	0	1063256064	56	6271
2026-01-24 14:06:32.99	163.81	29.26	-41.7	-42.7	22.4	0.00e+00	81	41	0	1065353216	56	6236
2026-01-24 14:06:34.00	163.98	29.09	-41.5	-42.5	22.4	0.00e+00	0	41	0	1067450368	56	6099
2026-01-24 14:06:35.01	164.14	28.93	-41.3	-42.3	22.7	0.00e+00	0	41	0	1069547520	56	5936
2026-01-24 14:06:36.02	164.31	28.77	-41.3	-42.3	22.8	0.00e+00	2	41	0	1070596096	56	5920
2026-01-24 14:06:37.03	164.47	28.60	-41.7	-42.6	22.5	0.00e+00	59	41	0	1072693248	56	6171
2026-01-24 14:06:38.04	164.62	28.44	-41.2	-42.2	22.8	0.00e+00	0	41	0	1074790400	56	5838
2026-01-24 14:06:39.05	164.78	28.28	-41.8	-42.8	22.4	0.00e+00	92	41	0	1076887552	56	6297
2026-01-24 14:06:40.05	164.94	28.13	-42.2	-43.3	21.8	0.00e+00	0	41	0	1078984704	56	6668
2026-01-24 14:06:41.06	165.09	27.97	-42.3	-43.4	21.8	0.00e+00	0	41	0	1081081856	56	6759
2026-01-24 14:06:42.07	165.24	27.81	-42.8	-44.0	21.1	0.00e+00	0	41	0	1082130432	58	6452
2026-01-24 14:06:43.08	165.40	27.65	-42.7	-43.9	21.1	0.00e+00	0	41	0	1084227584	58	6353
2026-01-24 14:06:44.09	165.55	27.49	-43.4	-44.7	20.3	0.00e+00	2	41	0	1086324736	58	7000
2026-01-24 14:06:45.10	165.69	27.34	-43.3	-44.6	20.6	0.00e+00	0	41	0	1088421888	58	6884
2026-01-24 14:06:46.11	165.84	27.18	-42.8	-44.1	21.1	0.00e+00	90	41	0	1090519040	58	6481
2026-01-24 14:06:47.13	165.99	27.03	-42.5	-43.6	21.5	0.00e+00	0	41	0	1091567616	58	6160
2026-01-24 14:06:48.13	166.13	26.87	-42.0	-43.1	22.0	0.00e+00	92	41	0	1093664768	58	5789
2026-01-24 14:06:49.14	166.28	26.72	-41.7	-42.7	22.4	0.00e+00	82	41	0	1095761920	56	6201
2026-01-24 14:06:50.15	166.42	26.57	-41.4	-42.4	22.7	0.00e+00	0	41	0	1097859072	56	6021
2026-01-24 14:06:51.16	166.56	26.42	-41.1	-42.1	23.1	0.00e+00	0	41	0	1099956224	56	5803
2026-01-24 14:06:52.17	166.70	26.26	-41.0	-41.9	23.1	0.00e+00	0	41	0	1101004800	56	5675
2026-01-24 14:06:53.18	166.83	26.11	-41.1	-42.1	22.9	0.00e+00	90	41	0	1103101952	56	5796
2026-01-24 14:06:54.19	166.97	25.96	-41.3	-42.3	22.7	0.00e+00	81	41	0	1105199104	56	5913
2026-01-24 14:06:55.20	167.11	25.81	-41.6	-42.6	22.3	0.00e+00	92	41	0	1107296256	56	6155
2026-01-24 14:06:56.21	167.24	25.67	-41.9	-43.0	22.0	0.00e+00	0	41	0	1109393408	56	6399
2026-01-24 14:06:57.21	167.37	25.52	-42.1	-43.2	21.9	0.00e+00	2	41	0	1110441984	56	6542
2026-01-24 14:06:58.22	167.50	25.37	-42.3	-43.5	21.7	0.00e+00	2	41	0	1112539136	56	6789
2026-01-24 14:06:59.24	167.64	25.22	-42.4	-43.5	21.6	0.00e+00	2	41	0	1114636288	56	6820
2026-01-24 14:07:00.24	167.77	25.08	-42.3	-43.5	21.7	0.00e+00	56	41	0	1116733440	56	6773
2026-01-24 14:07:01.25	167.89	24.93	-42.3	-43.4	21.7	0.00e+00	0	41	0	1118830592	56	6746
2026-01-24 14:07:02.26	168.02	24.79	-42.2	-43.3	21.8	0.00e+00	92	41	0	1119879168	56	6661
2026-01-24 14:07:03.27	168.15	24.65	-42.1	-43.2	21.9	0.00e+00	0	41	0	1121976320	56	6561
2026-01-24 14:07:04.28	168.27	24.50	-42.0	-43.1	22.0	0.00e+00	91	41	0	1124073472	56	6517
2026-01-24 14:07:05.29	168.40	24.36	-42.0	-43.1	21.9	0.00e+00	0	41	0	1126170624	56	6465
2026-01-24 14:07:06.30	168.52	24.22	-41.8	-42.8	22.2	0.00e+00	0	41	0	1128267776	56	6287
2026-01-24 14:07:07.31	168.64	24.08	-41.7	-42.8	22.3	0.00e+00	0	41	0	1129316352	56	6271
2026-01-24 14:07:08.32	168.76	23.93	-41.7	-42.8	22.3	0.00e+00	0	41	0	1131413504	56	6250
2026-01-24 14:07:09.33	168.88	23.79	-41.3	-42.3	22.7	0.00e+00	92	41	0	1133510656	56	5904
2026-01-24 14:07:10.34	169.00	23.65	-41.2	-42.2	22.8	0.00e+00	81	41	0	1135607808	56	5838
2026-01-24 14:07:11.35	169.12	23.52	-41.2	-42.2	22.6	0.00e+00	89	41	0	1137704960	56	5893
2026-01-24 14:07:12.35	169.23	23.38	-41.3	-42.3	22.7	0.00e+00	81	41	0	1138753536	56	5907
2026-01-24 14:07:13.36	169.35	23.24	-41.2	-42.2	22.7	0.00e+00	82	41	0	1140850688	56	5836
2026-01-24 14:07:14.37	169.46	23.10	-41.0	-42.0	22.9	0.00e+00	0	41	0	1142947840	56	5731
2026-01-24 14:07:15.38	169.58	22.97	-41.2	-42.2	22.7	0.00e+00	0	41	0	1145044992	56	5872
2026-01-24 14:07:16.39	169.69	22.83	-41.4	-42.4	22.5	0.00e+00	91	41	0	1147142144	56	5981
2026-01-24 14:07:17.40	169.80	22.70	-41.6	-42.7	22.3	0.00e+00	6	41	0	1149239296	56	6213
2026-01-24 14:07:18.41	169.91	22.56	-41.8	-42.9	22.0	0.00e+00	90	41	0	1150287872	56	6385
2026-01-24 14:07:19.42	170.02	22.43	-42.0	-43.1	22.0	0.00e+00	6	41	0	1152385024	56	6490
2026-01-24 14:07:20.43	170.13	22.29	-42.0	-43.2	21.9	0.00e+00	39	41	0	1154482176	56	6554
2026-01-24 14:07:21.43	170.24	22.16	-41.9	-43.1	22.0	0.00e+00	6	41	0	1156579328	56	6469
2026-01-24 14:07:22.44	170.35	22.03	-41.9	-43.0	22.1	0.00e+00	6	41	0	1157627904	56	6452
2026-01-24 14:07:23.45	170.45	21.90	-41.9	-42.9	22.1	0.00e+00	71	41	0	1159725056	56	6389
2026-01-24 14:07:24.46	170.56	21.77	-41.6	-42.7	22.3	0.00e+00	0	41	0	1161822208	56	6210
2026-01-24 14:07:25.47	170.66	21.64	-41.3	-42.3	22.6	0.00e+00	92	41	0	1163919360	56	5905
2026-01-24 14:07:26.49	170.77	21.51	-41.3	-42.3	22.7	0.00e+00	6	41	0	1166016512	56	5930
2026-01-24 14:07:27.49	170.87	21.38	-40.7	-41.6	23.2	0.00e+00	92	41	0	1167065088	54	6172
2026-01-24 14:07:28.50	170.97	21.25	-40.7	-41.6	23.3	0.00e+00	86	41	0	1169162240	54	6131
2026-01-24 14:07:29.51	171.07	21.12	-40.4	-41.3	23.5	0.00e+00	6	41	0	1171259392	54	5938
2026-01-24 14:07:30.52	171.17	20.99	-40.6	-41.5	23.3	0.00e+00	0	41	0	1173356544	54	6065
2026-01-24 14:07:31.53	171.27	20.87	-40.5	-41.4	23.4	0.00e+00	85	41	0	1175453696	54	5983
2026-01-24 14:07:32.54	171.37	20.74	-40.6	-41.6	23.2	0.00e+00	92	41	0	1177550848	54	6135
2026-01-24 14:07:33.55	171.47	20.61	-40.8	-41.8	23.0	0.00e+00	85	41	0	1178599424	54	6252
2026-01-24 14:07:34.56	171.57	20.49	-40.6	-41.6	23.2	0.00e+00	91	41	0	1180696576	54	6105
2026-01-24 14:07:35.56	171.66	20.36	-40.8	-41.8	22.9	0.00e+00	0	41	0	1182793728	54	6290
2026-01-24 14:07:36.58	171.76	20.24	-41.0	-42.0	22.8	0.00e+00	86	41	0	1184890880	54	6395
2026-01-24 14:07:37.59	171.86	20.12	-41.1	-42.1	22.7	0.00e+00	0	41	0	1186988032	54	6526
2026-01-24 14:07:38.59	171.95	19.99	-41.2	-42.2	22.6	0.00e+00	0	41	0	1188036608	54	6597
2026-01-24 14:07:39.60	172.04	19.87	-41.1	-42.1	22.7	0.00e+00	92	41	0	1190133760	54	6504
2026-01-24 14:07:40.61	172.14	19.75	-41.2	-42.2	22.6	0.00e+00	0	41	0	1192230912	54	6566
2026-01-24 14:07:41.62	172.23	19.63	-41.0	-41.9	22.8	0.00e+00	92	41	0	1194328064	54	6390
2026-01-24 14:07:42.63	172.32	19.51	-40.8	-41.8	23.0	0.00e+00	0	41	0	1196425216	54	6265
2026-01-24 14:07:43.64	172.41	19.38	-40.8	-41.8	23.0	0.00e+00	7	41	0	1197473792	54	6272
2026-01-24 14:07:44.65	172.50	19.26	-40.6	-41.6	23.2	0.00e+00	0	41	0	1199570944	54	6141
2026-01-24 14:07:45.66	172.59	19.14	-40.3	-41.3	23.4	0.00e+00	8	41	0	1201668096	54	5910
2026-01-24 14:07:46.67	172.68	19.03	-40.1	-41.0	23.6	0.00e+00	79	41	0	1203765248	54	5745
2026-01-24 14:07:47.68	172.77	18.91	-39.9	-40.8	23.8	0.00e+00	0	41	0	1205862400	54	5602
2026-01-24 14:07:48.69	172.86	18.79	-39.7	-40.6	23.8	0.00e+00	92	41	0	1206910976	54	5482
2026-01-24 14:07:49.70	172.95	18.67	-39.6	-40.4	24.1	0.00e+00	81	41	0	1209008128	52	6003
2026-01-24 14:07:50.71	173.03	18.55	-39.6	-40.5	24.1	0.00e+00	51	41	0	1211105280	52	6044
2026-01-24 14:07:51.72	173.12	18.44	-39.4	-40.2	24.3	0.00e+00	80	41	0	1213202432	52	5871
2026-01-24 14:07:52.73	173.20	18.32	-39.3	-40.1	24.4	0.00e+00	81	41	0	1215299584	52	5813
2026-01-24 14:07:53.74	173.29	18.21	-39.2	-40.0	24.5	0.00e+00	0	41	0	1216348160	52	5714
2026-01-24 14:07:54.75	173.37	18.09	-39.2	-40.1	24.5	0.00e+00	0	41	0	1218445312	52	5768
