passes_logs/2026/01/24/R4.6S_Anadyr/R4.6S_Anadyr__20260124_183552_SUOMI_NPP_rec.log

#Pass ID: 20260124_183552_SUOMI NPP
#Satellite: SUOMI NPP
#Configuration: NPP
#almurnet v.1.7.20251203
#Start time: 2026-01-24 18:35:53

#Version: 2.2.20231116
#Station: R4.6S_Anadyr
#Location: 177.4865 lon 64.73178 lat
#TLE: 1 37849U 11061A   26024.12615439  .00000221  00000+0  12601-3 0  9992
#TLE: 2 37849  98.7821 326.0966 0002215  48.1259 312.0106 14.19529288738009

#Time	Az	El	Level	Level2	SNR	BER	BlckErr	Temp	State	Recorded	gain1	gain2
2026-01-24 18:35:53.90	41.53	0.08	-53.1	-64.8	3.5	8.45e-01	0	38	0	0	60	62721
2026-01-24 18:35:54.90	41.46	0.13	-53.4	-68.5	3.6	1.51e+00	0	40	104	0	60	96646
2026-01-24 18:35:55.92	41.39	0.18	-53.6	-68.8	3.6	1.51e+00	0	39	104	0	60	99926
2026-01-24 18:35:56.93	41.31	0.23	-53.2	-68.4	3.6	1.51e+00	0	40	104	0	60	95522
2026-01-24 18:35:57.94	41.24	0.28	-53.7	-68.9	3.6	1.51e+00	0	40	104	0	60	101064
2026-01-24 18:35:58.95	41.17	0.33	-53.3	-68.5	3.6	1.51e+00	0	40	104	0	60	96425
2026-01-24 18:35:59.96	41.09	0.38	-52.8	-68.0	3.6	1.51e+00	0	40	104	0	60	91011
2026-01-24 18:36:00.97	41.02	0.43	-52.9	-68.1	3.6	1.51e+00	0	40	104	0	60	91935
2026-01-24 18:36:01.98	40.94	0.48	-52.6	-67.8	3.6	1.51e+00	0	40	104	0	60	89075
2026-01-24 18:36:02.99	40.87	0.53	-52.2	-67.5	3.6	1.51e+00	0	40	104	0	60	85437
2026-01-24 18:36:04.00	40.80	0.58	-52.3	-67.5	3.6	1.51e+00	0	40	104	0	60	86053
2026-01-24 18:36:05.01	40.72	0.63	-52.2	-67.4	3.6	1.51e+00	0	40	104	0	60	84619
2026-01-24 18:36:06.02	40.65	0.68	-51.9	-67.2	3.6	1.51e+00	0	40	104	0	60	82482
2026-01-24 18:36:07.03	40.57	0.73	-51.9	-67.1	3.6	1.51e+00	0	40	104	0	60	81786
2026-01-24 18:36:08.04	40.49	0.78	-51.8	-67.1	3.6	1.51e+00	0	40	104	0	60	81989
2026-01-24 18:36:09.05	40.42	0.83	-51.8	-67.0	3.6	1.51e+00	0	40	104	0	60	80771
2026-01-24 18:36:10.06	40.34	0.89	-51.7	-66.9	3.6	1.51e+00	0	40	104	0	60	79755
2026-01-24 18:36:11.07	40.27	0.94	-51.8	-67.0	3.6	1.51e+00	0	40	104	0	60	80952
2026-01-24 18:36:12.08	40.19	0.99	-51.9	-67.1	3.6	1.51e+00	0	40	104	0	60	82078
2026-01-24 18:36:13.09	40.11	1.04	-51.5	-66.7	3.6	1.51e+00	0	40	104	0	60	78545
2026-01-24 18:36:14.10	40.03	1.09	-51.4	-66.6	3.6	1.51e+00	0	40	104	0	60	77545
2026-01-24 18:36:15.11	39.96	1.14	-51.4	-66.6	3.6	1.51e+00	0	40	104	0	60	77323
2026-01-24 18:36:16.13	39.88	1.19	-51.2	-66.4	3.6	1.51e+00	0	40	104	0	60	75876
2026-01-24 18:36:17.14	39.80	1.24	-51.1	-66.3	3.6	1.51e+00	0	40	104	0	60	74777
2026-01-24 18:36:18.15	39.72	1.29	-50.7	-65.9	3.6	1.51e+00	0	40	104	0	60	71460
2026-01-24 18:36:19.16	39.64	1.34	-50.5	-65.7	3.6	1.51e+00	0	40	104	0	60	69979
2026-01-24 18:36:20.17	39.56	1.40	-50.2	-65.3	3.6	1.51e+00	0	40	104	0	60	66793
2026-01-24 18:36:21.18	39.48	1.45	-50.1	-65.3	3.6	1.51e+00	0	40	104	0	60	66623
2026-01-24 18:36:22.19	39.41	1.50	-50.1	-65.3	3.6	1.51e+00	0	40	104	0	60	66369
2026-01-24 18:36:23.20	39.33	1.55	-50.1	-65.3	3.6	1.51e+00	0	40	104	0	60	66201
2026-01-24 18:36:24.21	39.25	1.60	-50.1	-65.3	3.6	1.51e+00	0	40	104	0	60	66324
2026-01-24 18:36:25.22	39.16	1.65	-50.1	-65.3	3.6	1.51e+00	0	40	104	0	60	66510
2026-01-24 18:36:26.23	39.08	1.70	-50.1	-65.3	3.6	1.51e+00	0	40	104	0	60	66374
2026-01-24 18:36:27.24	39.00	1.76	-50.1	-65.3	3.6	1.51e+00	0	40	104	0	60	66651
2026-01-24 18:36:28.25	38.92	1.81	-50.1	-65.3	3.6	1.51e+00	0	40	104	0	60	66698
2026-01-24 18:36:29.26	38.84	1.86	-50.1	-65.3	3.6	1.51e+00	0	40	104	0	60	66739
2026-01-24 18:36:30.27	38.76	1.91	-50.1	-65.2	3.6	1.51e+00	0	40	104	0	60	66040
2026-01-24 18:36:31.28	38.68	1.96	-50.1	-65.2	3.6	1.51e+00	0	40	104	0	60	66114
2026-01-24 18:36:32.29	38.59	2.01	-50.2	-65.4	3.6	1.51e+00	0	40	104	0	60	67218
2026-01-24 18:36:33.30	38.51	2.06	-50.4	-65.5	3.6	1.51e+00	0	40	104	0	60	67958
2026-01-24 18:36:34.31	38.43	2.12	-50.4	-65.3	3.6	1.51e+00	0	40	104	0	60	66917
2026-01-24 18:36:35.32	38.34	2.17	-50.2	-64.9	3.5	1.51e+00	0	40	104	0	60	63477
2026-01-24 18:36:36.27	38.27	2.22	-50.2	-64.9	3.6	1.51e+00	0	40	104	0	60	63610
2026-01-24 18:36:37.28	38.18	2.27	-50.3	-65.5	3.6	1.51e+00	0	40	104	0	60	67909
2026-01-24 18:36:38.29	38.10	2.32	-50.4	-65.6	3.6	1.51e+00	0	40	104	0	60	68633
2026-01-24 18:36:39.30	38.01	2.37	-50.4	-65.6	3.6	1.51e+00	0	40	104	0	60	68836
2026-01-24 18:36:40.31	37.93	2.42	-50.3	-65.5	3.6	1.51e+00	0	40	104	0	60	68140
2026-01-24 18:36:41.32	37.84	2.48	-50.2	-65.4	3.6	1.51e+00	0	40	104	0	60	67363
2026-01-24 18:36:42.33	37.76	2.53	-50.2	-65.5	3.6	1.51e+00	0	40	104	0	60	68024
2026-01-24 18:36:43.34	37.67	2.58	-50.2	-65.2	3.6	1.51e+00	0	40	104	0	60	66032
2026-01-24 18:36:44.35	37.58	2.63	-50.1	-64.2	3.6	1.51e+00	0	40	104	0	60	58286
2026-01-24 18:36:45.36	37.50	2.68	-50.1	-64.7	3.6	1.51e+00	0	40	104	0	60	62035
2026-01-24 18:36:46.37	37.41	2.74	-50.1	-64.8	3.6	1.51e+00	0	41	104	0	60	62625
2026-01-24 18:36:47.38	37.32	2.79	-50.1	-64.5	3.6	1.51e+00	0	40	104	0	60	60936
2026-01-24 18:36:48.39	37.24	2.84	-50.0	-63.3	3.6	1.51e+00	0	40	104	0	60	52771
2026-01-24 18:36:49.41	37.15	2.89	-49.6	-58.5	6.1	1.08e+00	0	40	104	0	60	30514
2026-01-24 18:36:50.42	37.06	2.95	-48.6	-53.8	10.2	1.63e-02	0	41	0	1048576	60	17715
2026-01-24 18:36:51.43	36.97	3.00	-47.6	-51.2	12.9	2.78e-04	0	40	0	3145728	60	13127
2026-01-24 18:36:52.44	36.88	3.05	-48.0	-52.1	11.6	3.17e-04	0	40	0	5242880	60	14504
2026-01-24 18:36:53.45	36.79	3.10	-49.4	-56.0	8.0	2.77e-01	0	40	0	7340032	60	22797
2026-01-24 18:36:54.46	36.70	3.16	-45.8	-48.1	12.8	1.43e-04	0	40	0	8388608	60	9204
2026-01-24 18:36:55.47	36.61	3.21	-50.1	-63.9	3.8	1.51e+00	0	40	104	9437184	60	56494
2026-01-24 18:36:56.48	36.52	3.26	-48.5	-53.4	5.9	1.49e+00	0	40	104	9437184	60	16926
2026-01-24 18:36:57.49	36.43	3.31	-45.3	-47.4	17.0	0.00e+00	0	40	0	9437184	60	8440
2026-01-24 18:36:58.50	36.34	3.37	-46.3	-48.9	15.5	0.00e+00	0	40	0	10485760	60	10055
2026-01-24 18:36:59.51	36.25	3.42	-46.0	-48.3	16.1	0.00e+00	0	41	0	12582912	60	9439
2026-01-24 18:37:00.52	36.16	3.47	-44.7	-46.6	17.8	0.00e+00	0	41	0	14680064	60	7733
2026-01-24 18:37:01.53	36.07	3.52	-46.4	-49.0	15.6	0.00e+00	0	40	0	16777216	60	10139
2026-01-24 18:37:02.54	35.98	3.58	-45.5	-47.7	16.8	0.00e+00	0	41	0	18874368	60	8739
2026-01-24 18:37:03.55	35.88	3.63	-45.9	-48.3	16.0	0.00e+00	0	41	0	19922944	60	9409
2026-01-24 18:37:04.56	35.79	3.68	-44.6	-46.5	18.0	0.00e+00	0	41	0	22020096	60	7602
2026-01-24 18:37:05.57	35.70	3.73	-46.2	-48.6	15.8	0.00e+00	0	40	0	24117248	60	9767
2026-01-24 18:37:06.58	35.60	3.79	-46.3	-48.7	16.0	0.00e+00	0	41	0	26214400	60	9852
2026-01-24 18:37:07.59	35.51	3.84	-44.1	-45.8	18.5	0.00e+00	0	40	0	28311552	60	7043
2026-01-24 18:37:08.59	35.42	3.89	-45.2	-47.1	17.1	0.00e+00	0	41	0	29360128	60	8232
2026-01-24 18:37:09.61	35.32	3.95	-45.2	-47.1	17.7	0.00e+00	0	41	0	31457280	60	8226
2026-01-24 18:37:10.62	35.23	4.00	-43.8	-45.4	18.5	0.00e+00	0	40	0	33554432	60	6737
2026-01-24 18:37:11.63	35.13	4.05	-44.7	-46.5	17.8	0.00e+00	0	40	0	35651584	60	7611
2026-01-24 18:37:12.64	35.04	4.11	-45.9	-48.2	16.3	0.00e+00	0	40	0	37748736	60	9282
2026-01-24 18:37:13.65	34.94	4.16	-44.5	-46.2	18.3	0.00e+00	0	41	0	39845888	60	7402
2026-01-24 18:37:14.66	34.84	4.21	-45.0	-46.9	17.7	0.00e+00	0	41	0	40894464	60	8022
2026-01-24 18:37:15.66	34.75	4.26	-44.5	-46.2	18.3	0.00e+00	0	41	0	42991616	60	7346
2026-01-24 18:37:16.67	34.65	4.32	-44.4	-46.1	18.4	0.00e+00	0	41	0	45088768	60	7261
2026-01-24 18:37:17.68	34.55	4.37	-44.0	-45.6	18.7	0.00e+00	0	41	0	47185920	60	6919
2026-01-24 18:37:18.69	34.45	4.42	-45.4	-47.4	16.9	0.00e+00	0	41	0	48234496	60	8514
2026-01-24 18:37:19.70	34.36	4.48	-45.2	-47.2	17.3	0.00e+00	0	40	0	50331648	60	8235
2026-01-24 18:37:20.71	34.26	4.53	-44.7	-46.6	18.1	0.00e+00	0	40	0	52428800	60	7691
2026-01-24 18:37:21.72	34.16	4.58	-45.0	-46.8	17.9	0.00e+00	0	41	0	54525952	60	7906
2026-01-24 18:37:22.73	34.06	4.64	-45.3	-47.3	17.3	0.00e+00	0	40	0	56623104	60	8351
2026-01-24 18:37:23.74	33.96	4.69	-45.0	-46.8	18.1	0.00e+00	0	41	0	57671680	60	7914
2026-01-24 18:37:24.75	33.86	4.74	-44.7	-46.4	17.9	0.00e+00	0	41	0	59768832	60	7589
2026-01-24 18:37:25.76	33.76	4.80	-45.9	-48.2	16.3	0.00e+00	0	41	0	61865984	60	9316
2026-01-24 18:37:26.77	33.66	4.85	-45.2	-47.2	17.5	0.00e+00	0	41	0	63963136	60	8309
2026-01-24 18:37:27.78	33.56	4.90	-45.0	-46.9	17.9	0.00e+00	0	41	0	66060288	60	7992
2026-01-24 18:37:28.79	33.46	4.96	-45.0	-46.8	17.9	0.00e+00	0	41	0	68157440	60	7947
2026-01-24 18:37:29.80	33.35	5.01	-45.3	-47.4	17.3	0.00e+00	0	41	0	69206016	60	8436
2026-01-24 18:37:30.81	33.25	5.06	-45.3	-47.3	17.5	0.00e+00	0	41	0	71303168	60	8343
2026-01-24 18:37:31.82	33.15	5.12	-45.5	-47.6	17.3	0.00e+00	0	41	0	73400320	60	8663
2026-01-24 18:37:32.83	33.05	5.17	-45.0	-46.9	17.8	0.00e+00	0	40	0	75497472	60	7971
2026-01-24 18:37:33.84	32.94	5.22	-45.0	-46.8	17.7	0.00e+00	0	41	0	77594624	60	7946
2026-01-24 18:37:34.85	32.84	5.28	-45.0	-46.9	17.7	0.00e+00	0	41	0	78643200	60	8036
2026-01-24 18:37:35.86	32.73	5.33	-44.9	-46.8	18.0	0.00e+00	0	41	0	80740352	60	7888
2026-01-24 18:37:36.87	32.63	5.38	-44.8	-46.6	18.1	0.00e+00	0	41	0	82837504	60	7742
2026-01-24 18:37:37.88	32.52	5.44	-44.8	-46.6	18.1	0.00e+00	0	41	0	84934656	60	7714
2026-01-24 18:37:38.89	32.42	5.49	-44.6	-46.4	18.2	0.00e+00	0	40	0	87031808	60	7562
2026-01-24 18:37:39.90	32.31	5.54	-44.7	-46.5	18.2	0.00e+00	0	41	0	88080384	60	7623
2026-01-24 18:37:40.90	32.21	5.60	-44.9	-46.8	18.0	0.00e+00	0	41	0	90177536	60	7904
2026-01-24 18:37:41.91	32.10	5.65	-45.1	-47.0	17.9	0.00e+00	0	41	0	92274688	60	8090
2026-01-24 18:37:42.92	31.99	5.71	-44.7	-46.5	18.1	0.00e+00	0	41	0	94371840	60	7660
2026-01-24 18:37:43.93	31.89	5.76	-45.5	-47.6	17.3	0.00e+00	0	41	0	96468992	60	8643
2026-01-24 18:37:44.94	31.78	5.81	-45.2	-47.1	17.6	0.00e+00	0	41	0	97517568	60	8231
2026-01-24 18:37:45.95	31.67	5.87	-44.9	-46.8	18.0	0.00e+00	0	41	0	99614720	60	7869
2026-01-24 18:37:46.96	31.56	5.92	-44.6	-46.3	18.7	0.00e+00	0	41	0	101711872	60	7468
2026-01-24 18:37:47.97	31.45	5.97	-44.9	-46.7	18.1	0.00e+00	0	41	0	103809024	60	7795
2026-01-24 18:37:48.98	31.34	6.03	-44.7	-46.5	18.5	0.00e+00	0	41	0	105906176	60	7630
2026-01-24 18:37:49.99	31.23	6.08	-44.4	-46.1	18.6	0.00e+00	0	41	0	108003328	60	7254
2026-01-24 18:37:51.00	31.12	6.13	-44.5	-46.2	18.7	0.00e+00	0	41	0	109051904	60	7351
2026-01-24 18:37:52.01	31.01	6.19	-44.5	-46.2	18.5	0.00e+00	0	41	0	111149056	60	7368
2026-01-24 18:37:53.02	30.90	6.24	-44.6	-46.3	18.5	0.00e+00	0	41	0	113246208	60	7503
2026-01-24 18:37:54.03	30.79	6.30	-45.7	-47.9	17.1	0.00e+00	0	41	0	115343360	60	8944
2026-01-24 18:37:55.04	30.68	6.35	-44.5	-46.2	18.7	0.00e+00	0	41	0	117440512	60	7358
2026-01-24 18:37:56.05	30.56	6.40	-45.2	-47.1	18.0	0.00e+00	0	41	0	118489088	60	8148
2026-01-24 18:37:57.06	30.45	6.46	-44.5	-46.2	18.7	0.00e+00	0	41	0	120586240	60	7415
2026-01-24 18:37:58.07	30.34	6.51	-44.2	-45.9	19.0	0.00e+00	0	41	0	122683392	60	7091
2026-01-24 18:37:59.08	30.22	6.57	-44.6	-46.3	18.5	0.00e+00	0	41	0	124780544	60	7459
2026-01-24 18:38:00.09	30.11	6.62	-44.9	-46.7	18.2	0.00e+00	0	41	0	125829120	60	7811
2026-01-24 18:38:01.10	29.99	6.67	-44.9	-46.7	18.3	0.00e+00	0	41	0	127926272	60	7841
2026-01-24 18:38:02.11	29.88	6.73	-44.7	-46.4	18.2	0.00e+00	0	41	0	130023424	60	7584
2026-01-24 18:38:03.12	29.76	6.78	-44.0	-45.6	19.0	0.00e+00	0	41	0	132120576	60	6881
2026-01-24 18:38:04.13	29.65	6.83	-44.2	-45.9	19.1	0.00e+00	0	41	0	134217728	60	7100
2026-01-24 18:38:05.14	29.53	6.89	-44.4	-46.0	18.7	0.00e+00	0	41	0	136314880	60	7240
2026-01-24 18:38:06.15	29.41	6.94	-44.3	-45.9	18.9	0.00e+00	0	41	0	137363456	60	7166
2026-01-24 18:38:07.16	29.30	7.00	-44.5	-46.2	18.7	0.00e+00	0	41	0	139460608	60	7377
2026-01-24 18:38:08.17	29.18	7.05	-44.5	-46.1	18.6	0.00e+00	0	41	0	141557760	60	7334
2026-01-24 18:38:09.18	29.06	7.10	-44.2	-45.8	19.0	0.00e+00	0	41	0	143654912	60	7067
2026-01-24 18:38:10.19	28.94	7.16	-44.1	-45.6	19.2	0.00e+00	0	41	0	145752064	60	6902
2026-01-24 18:38:11.20	28.82	7.21	-44.4	-46.1	18.9	0.00e+00	0	41	0	146800640	60	7262
2026-01-24 18:38:12.21	28.70	7.26	-44.2	-45.8	19.1	0.00e+00	0	41	0	148897792	60	7065
2026-01-24 18:38:13.22	28.58	7.32	-44.4	-46.0	18.8	0.00e+00	0	41	0	150994944	60	7238
2026-01-24 18:38:14.23	28.46	7.37	-44.1	-45.7	19.0	0.00e+00	0	41	0	153092096	60	6980
2026-01-24 18:38:15.24	28.34	7.43	-43.7	-45.2	19.6	0.00e+00	0	41	0	155189248	60	6573
2026-01-24 18:38:16.25	28.22	7.48	-43.5	-45.0	20.1	0.00e+00	0	41	0	156237824	60	6391
2026-01-24 18:38:17.26	28.10	7.53	-43.4	-44.8	20.0	0.00e+00	0	41	0	158334976	60	6246
2026-01-24 18:38:18.27	27.98	7.59	-43.6	-45.1	19.5	0.00e+00	0	41	0	160432128	60	6466
2026-01-24 18:38:19.28	27.85	7.64	-43.6	-45.1	19.3	0.00e+00	0	41	0	162529280	60	6482
2026-01-24 18:38:20.29	27.73	7.69	-43.4	-44.8	19.8	0.00e+00	0	41	0	164626432	60	6290
2026-01-24 18:38:21.30	27.61	7.75	-43.9	-45.5	19.4	0.00e+00	0	41	0	165675008	60	6771
2026-01-24 18:38:22.31	27.48	7.80	-43.6	-45.1	19.7	0.00e+00	0	41	0	167772160	60	6469
2026-01-24 18:38:23.32	27.36	7.86	-43.6	-45.1	19.7	0.00e+00	0	41	0	169869312	60	6495
2026-01-24 18:38:24.33	27.23	7.91	-43.7	-45.1	19.7	0.00e+00	0	41	0	171966464	60	6522
2026-01-24 18:38:25.34	27.11	7.96	-43.8	-45.2	19.6	0.00e+00	0	41	0	174063616	60	6600
2026-01-24 18:38:26.35	26.98	8.02	-44.1	-45.6	19.6	0.00e+00	0	41	0	176160768	60	6859
2026-01-24 18:38:27.36	26.85	8.07	-43.6	-45.0	19.9	0.00e+00	0	41	0	177209344	60	6436
2026-01-24 18:38:28.37	26.73	8.12	-43.7	-45.1	19.9	0.00e+00	0	41	0	179306496	60	6502
2026-01-24 18:38:29.38	26.60	8.18	-43.9	-45.4	19.7	0.00e+00	0	41	0	181403648	60	6703
2026-01-24 18:38:30.39	26.47	8.23	-43.9	-45.4	19.5	0.00e+00	0	41	0	183500800	60	6699
2026-01-24 18:38:31.40	26.34	8.28	-43.6	-45.1	19.9	0.00e+00	0	41	0	185597952	60	6478
2026-01-24 18:38:32.41	26.21	8.34	-43.6	-45.1	19.6	0.00e+00	0	41	0	186646528	60	6502
2026-01-24 18:38:33.42	26.08	8.39	-43.9	-45.4	19.4	0.00e+00	0	41	0	188743680	60	6742
2026-01-24 18:38:34.42	25.96	8.44	-43.8	-45.3	19.7	0.00e+00	0	41	0	190840832	60	6671
2026-01-24 18:38:35.43	25.82	8.50	-43.5	-45.0	19.8	0.00e+00	0	41	0	192937984	60	6420
2026-01-24 18:38:36.44	25.69	8.55	-43.9	-45.4	19.3	0.00e+00	0	41	0	193986560	60	6755
2026-01-24 18:38:37.45	25.56	8.60	-43.7	-45.1	19.8	0.00e+00	0	41	0	196083712	60	6525
2026-01-24 18:38:38.46	25.43	8.66	-43.7	-45.2	19.7	0.00e+00	0	41	0	198180864	60	6566
2026-01-24 18:38:39.47	25.30	8.71	-43.9	-45.4	19.5	0.00e+00	0	41	0	200278016	60	6723
2026-01-24 18:38:40.48	25.17	8.76	-43.6	-45.1	19.8	0.00e+00	0	41	0	202375168	60	6490
2026-01-24 18:38:41.49	25.03	8.82	-43.6	-45.0	19.9	0.00e+00	0	41	0	204472320	60	6451
2026-01-24 18:38:42.50	24.90	8.87	-43.5	-44.9	19.9	0.00e+00	0	41	0	205520896	60	6376
2026-01-24 18:38:43.51	24.76	8.92	-43.6	-45.0	19.8	0.00e+00	0	41	0	207618048	60	6413
2026-01-24 18:38:44.52	24.63	8.98	-43.7	-45.2	19.7	0.00e+00	0	41	0	209715200	60	6543
2026-01-24 18:38:45.53	24.49	9.03	-43.6	-45.0	19.9	0.00e+00	0	41	0	211812352	60	6429
2026-01-24 18:38:46.54	24.36	9.08	-43.5	-44.9	20.0	0.00e+00	0	41	0	213909504	60	6372
2026-01-24 18:38:47.55	24.22	9.14	-43.7	-45.1	19.8	0.00e+00	0	41	0	214958080	60	6536
2026-01-24 18:38:48.56	24.08	9.19	-43.5	-44.9	19.9	0.00e+00	0	41	0	217055232	60	6386
2026-01-24 18:38:49.57	23.95	9.24	-43.4	-44.8	20.1	0.00e+00	0	41	0	219152384	60	6277
2026-01-24 18:38:50.58	23.81	9.29	-43.4	-44.8	20.1	0.00e+00	0	41	0	221249536	60	6252
2026-01-24 18:38:51.59	23.67	9.35	-43.3	-44.7	20.1	0.00e+00	0	41	0	223346688	60	6206
2026-01-24 18:38:52.60	23.53	9.40	-43.5	-44.9	20.0	0.00e+00	0	41	0	224395264	60	6343
2026-01-24 18:38:53.61	23.39	9.45	-43.5	-44.8	20.2	0.00e+00	0	41	0	226492416	60	6299
2026-01-24 18:38:54.62	23.25	9.51	-43.5	-44.8	20.0	0.00e+00	0	41	0	228589568	60	6310
2026-01-24 18:38:55.62	23.11	9.56	-43.8	-45.3	19.7	0.00e+00	0	41	0	230686720	60	6620
2026-01-24 18:38:56.63	22.97	9.61	-43.6	-44.9	20.2	0.00e+00	0	41	0	232783872	60	6378
2026-01-24 18:38:57.64	22.83	9.66	-43.5	-44.9	20.1	0.00e+00	0	41	0	233832448	60	6327
2026-01-24 18:38:58.65	22.69	9.72	-43.2	-44.6	20.3	0.00e+00	0	41	0	235929600	60	6115
2026-01-24 18:38:59.66	22.54	9.77	-43.3	-44.6	20.3	0.00e+00	0	41	0	238026752	60	6167
2026-01-24 18:39:00.67	22.40	9.82	-43.3	-44.6	20.3	0.00e+00	0	41	0	240123904	60	6166
2026-01-24 18:39:01.68	22.26	9.87	-43.9	-45.4	19.7	0.00e+00	0	41	0	242221056	60	6710
2026-01-24 18:39:02.69	22.11	9.92	-43.8	-45.3	19.8	0.00e+00	0	41	0	243269632	60	6631
2026-01-24 18:39:03.70	21.97	9.98	-44.2	-45.7	19.5	0.00e+00	0	41	0	245366784	60	6963
2026-01-24 18:39:04.71	21.82	10.03	-43.9	-45.4	19.5	0.00e+00	0	41	0	247463936	60	6718
2026-01-24 18:39:05.72	21.68	10.08	-44.1	-45.7	19.5	0.00e+00	0	41	0	249561088	60	6968
2026-01-24 18:39:06.73	21.53	10.13	-44.0	-45.5	19.5	0.00e+00	0	41	0	251658240	60	6810
2026-01-24 18:39:07.74	21.39	10.18	-43.9	-45.5	19.7	0.00e+00	0	41	0	252706816	60	6770
2026-01-24 18:39:08.75	21.24	10.24	-44.1	-45.6	19.6	0.00e+00	0	41	0	254803968	60	6872
2026-01-24 18:39:09.76	21.09	10.29	-44.1	-45.6	19.6	0.00e+00	0	41	0	256901120	60	6871
2026-01-24 18:39:10.77	20.94	10.34	-44.1	-45.6	19.3	0.00e+00	0	41	0	258998272	60	6916
2026-01-24 18:39:11.78	20.79	10.39	-44.4	-46.0	19.2	0.00e+00	0	41	0	261095424	60	7212
2026-01-24 18:39:12.79	20.64	10.44	-44.4	-46.0	19.0	0.00e+00	0	41	0	262144000	60	7228
2026-01-24 18:39:13.80	20.49	10.49	-44.2	-45.7	19.4	0.00e+00	0	41	0	264241152	60	6957
2026-01-24 18:39:14.81	20.34	10.54	-43.4	-44.7	20.3	0.00e+00	0	41	0	266338304	60	6236
2026-01-24 18:39:15.82	20.19	10.60	-43.3	-44.7	20.2	0.00e+00	0	41	0	268435456	60	6209
2026-01-24 18:39:16.83	20.04	10.65	-43.0	-44.3	20.6	0.00e+00	0	41	0	270532608	60	5940
2026-01-24 18:39:17.84	19.89	10.70	-43.1	-44.4	20.5	0.00e+00	0	41	0	272629760	60	5974
2026-01-24 18:39:18.85	19.73	10.75	-43.3	-44.7	20.2	0.00e+00	0	41	0	273678336	60	6206
2026-01-24 18:39:19.86	19.58	10.80	-43.1	-44.4	20.6	0.00e+00	0	41	0	275775488	60	5997
2026-01-24 18:39:20.87	19.43	10.85	-42.7	-43.9	20.9	0.00e+00	0	41	0	277872640	60	5669
2026-01-24 18:39:21.88	19.27	10.90	-42.7	-44.0	20.9	0.00e+00	0	41	0	279969792	58	6418
2026-01-24 18:39:22.89	19.12	10.95	-42.7	-43.9	20.9	0.00e+00	0	41	0	282066944	58	6376
2026-01-24 18:39:23.90	18.96	11.00	-42.5	-43.7	20.8	0.00e+00	0	41	0	283115520	58	6240
2026-01-24 18:39:24.91	18.81	11.05	-42.5	-43.7	21.2	0.00e+00	0	41	0	285212672	58	6185
2026-01-24 18:39:25.92	18.65	11.10	-42.3	-43.4	21.2	0.00e+00	0	41	0	287309824	58	6015
2026-01-24 18:39:26.93	18.49	11.15	-42.3	-43.5	21.1	0.00e+00	0	41	0	289406976	58	6080
2026-01-24 18:39:27.94	18.34	11.20	-42.4	-43.6	21.1	0.00e+00	0	41	0	291504128	58	6147
2026-01-24 18:39:28.95	18.18	11.25	-42.2	-43.4	21.4	0.00e+00	0	41	0	292552704	58	6003
2026-01-24 18:39:29.96	18.02	11.30	-42.0	-43.1	21.5	0.00e+00	0	41	0	294649856	58	5828
2026-01-24 18:39:30.96	17.86	11.35	-42.2	-43.4	21.4	0.00e+00	0	41	0	296747008	58	5965
2026-01-24 18:39:31.97	17.70	11.40	-42.0	-43.2	21.5	0.00e+00	0	41	0	298844160	58	5850
2026-01-24 18:39:32.99	17.54	11.45	-41.9	-43.0	21.6	0.00e+00	0	41	0	300941312	58	5745
2026-01-24 18:39:33.99	17.38	11.50	-42.3	-43.5	21.2	0.00e+00	0	41	0	301989888	58	6040
2026-01-24 18:39:35.00	17.22	11.55	-41.7	-42.8	21.9	0.00e+00	0	41	0	304087040	56	6291
2026-01-24 18:39:36.01	17.06	11.60	-41.7	-42.8	21.9	0.00e+00	0	41	0	306184192	56	6278
2026-01-24 18:39:37.02	16.89	11.65	-41.4	-42.5	22.2	0.00e+00	0	41	0	308281344	56	6065
2026-01-24 18:39:38.03	16.73	11.69	-41.5	-42.6	22.0	0.00e+00	0	41	0	310378496	56	6151
2026-01-24 18:39:39.04	16.57	11.74	-41.8	-42.9	21.9	0.00e+00	0	41	0	311427072	56	6372
2026-01-24 18:39:40.05	16.40	11.79	-41.8	-42.9	21.8	0.00e+00	0	41	0	313524224	56	6357
2026-01-24 18:39:41.06	16.24	11.84	-42.0	-43.2	21.5	0.00e+00	0	41	0	315621376	56	6544
2026-01-24 18:39:42.07	16.07	11.89	-42.1	-43.3	21.4	0.00e+00	0	41	0	317718528	56	6621
2026-01-24 18:39:43.08	15.91	11.94	-42.0	-43.1	21.7	0.00e+00	0	41	0	319815680	56	6513
2026-01-24 18:39:44.09	15.74	11.98	-41.9	-43.0	21.8	0.00e+00	0	41	0	320864256	56	6415
2026-01-24 18:39:45.10	15.57	12.03	-41.4	-42.5	22.2	0.00e+00	0	41	0	322961408	56	6053
2026-01-24 18:39:46.11	15.41	12.08	-41.6	-42.6	22.1	0.00e+00	0	41	0	325058560	56	6173
2026-01-24 18:39:47.12	15.24	12.13	-41.3	-42.3	22.3	0.00e+00	0	41	0	327155712	56	5955
2026-01-24 18:39:48.13	15.07	12.17	-41.5	-42.5	22.2	0.00e+00	0	41	0	329252864	56	6081
2026-01-24 18:39:49.14	14.90	12.22	-41.6	-42.7	22.1	0.00e+00	0	41	0	330301440	56	6222
2026-01-24 18:39:50.15	14.73	12.27	-41.5	-42.5	22.2	0.00e+00	0	41	0	332398592	56	6066
2026-01-24 18:39:51.16	14.56	12.31	-41.7	-42.8	22.1	0.00e+00	0	41	0	334495744	56	6257
2026-01-24 18:39:52.17	14.39	12.36	-41.2	-42.2	22.5	0.00e+00	0	41	0	336592896	56	5886
2026-01-24 18:39:53.17	14.22	12.41	-41.1	-42.1	22.6	0.00e+00	0	41	0	338690048	56	5786
2026-01-24 18:39:54.18	14.05	12.45	-41.4	-42.5	22.3	0.00e+00	0	41	0	340787200	56	6040
2026-01-24 18:39:55.19	13.88	12.50	-41.7	-42.7	22.1	0.00e+00	0	41	0	341835776	56	6225
2026-01-24 18:39:56.20	13.70	12.55	-42.0	-43.1	21.7	0.00e+00	0	41	0	343932928	56	6520
2026-01-24 18:39:57.21	13.53	12.59	-42.2	-43.3	21.5	0.00e+00	0	41	0	346030080	56	6658
2026-01-24 18:39:58.22	13.36	12.64	-42.9	-44.1	20.8	0.00e+00	0	41	0	348127232	56	7304
2026-01-24 18:39:59.23	13.18	12.68	-43.1	-44.4	20.7	0.00e+00	0	41	0	350224384	58	6757
2026-01-24 18:40:00.24	13.01	12.73	-42.8	-44.0	21.1	0.00e+00	0	41	0	351272960	58	6432
2026-01-24 18:40:01.25	12.83	12.77	-42.2	-43.4	21.6	0.00e+00	0	41	0	353370112	58	5970
2026-01-24 18:40:02.26	12.65	12.82	-42.2	-43.3	21.6	0.00e+00	0	41	0	355467264	58	5928
2026-01-24 18:40:03.27	12.48	12.86	-41.9	-43.0	22.0	0.00e+00	0	41	0	357564416	56	6422
2026-01-24 18:40:04.28	12.30	12.91	-42.0	-43.1	21.5	0.00e+00	0	41	0	359661568	56	6489
2026-01-24 18:40:05.29	12.12	12.95	-42.1	-43.2	21.6	0.00e+00	0	41	0	360710144	56	6605
2026-01-24 18:40:06.30	11.94	13.00	-41.1	-42.1	22.6	0.00e+00	0	41	0	362807296	56	5820
2026-01-24 18:40:07.31	11.76	13.04	-40.7	-41.7	22.9	0.00e+00	0	41	0	364904448	54	6176
2026-01-24 18:40:08.32	11.58	13.08	-40.2	-41.1	23.3	0.00e+00	0	41	0	367001600	54	5807
2026-01-24 18:40:09.33	11.40	13.13	-40.4	-41.3	23.2	0.00e+00	0	41	0	369098752	54	5944
2026-01-24 18:40:10.34	11.22	13.17	-40.1	-41.0	23.4	0.00e+00	0	41	0	370147328	54	5736
2026-01-24 18:40:11.35	11.04	13.21	-40.2	-41.2	23.2	0.00e+00	0	41	0	372244480	54	5848
2026-01-24 18:40:12.36	10.86	13.26	-40.4	-41.3	23.0	0.00e+00	0	41	0	374341632	54	5959
2026-01-24 18:40:13.37	10.68	13.30	-40.5	-41.4	22.5	0.00e+00	0	41	0	376438784	54	6029
2026-01-24 18:40:14.38	10.50	13.34	-40.8	-41.8	22.5	0.00e+00	0	41	0	378535936	54	6262
2026-01-24 18:40:15.38	10.31	13.39	-40.9	-41.9	22.5	0.00e+00	0	41	0	379584512	54	6341
2026-01-24 18:40:16.39	10.13	13.43	-41.1	-42.2	22.5	0.00e+00	0	41	0	381681664	54	6547
2026-01-24 18:40:17.40	9.95	13.47	-41.5	-42.6	22.2	0.00e+00	0	41	0	383778816	54	6859
2026-01-24 18:40:18.41	9.76	13.51	-41.6	-42.7	22.1	0.00e+00	0	41	0	385875968	54	6945
2026-01-24 18:40:19.42	9.58	13.55	-41.4	-42.5	22.2	0.00e+00	0	41	0	387973120	54	6799
2026-01-24 18:40:20.43	9.39	13.59	-41.5	-42.5	22.0	0.00e+00	0	41	0	389021696	54	6835
2026-01-24 18:40:21.44	9.20	13.63	-41.8	-42.9	22.1	0.00e+00	0	41	0	391118848	56	6318
2026-01-24 18:40:22.45	9.02	13.68	-41.6	-42.6	22.2	0.00e+00	0	41	0	393216000	56	6164
2026-01-24 18:40:23.46	8.83	13.72	-41.6	-42.7	22.2	0.00e+00	0	41	0	395313152	56	6189
2026-01-24 18:40:24.47	8.64	13.76	-41.4	-42.4	22.4	0.00e+00	0	41	0	397410304	56	6010
2026-01-24 18:40:25.48	8.45	13.80	-41.5	-42.6	22.3	0.00e+00	0	41	0	398458880	56	6124
2026-01-24 18:40:26.49	8.26	13.84	-42.0	-43.1	21.7	0.00e+00	0	41	0	400556032	56	6490
2026-01-24 18:40:27.50	8.07	13.88	-42.1	-43.3	21.6	0.00e+00	0	41	0	402653184	56	6653
2026-01-24 18:40:28.51	7.88	13.91	-42.4	-43.6	21.3	0.00e+00	0	41	0	404750336	56	6907
2026-01-24 18:40:29.52	7.69	13.95	-41.9	-43.1	21.8	0.00e+00	0	41	0	406847488	56	6501
2026-01-24 18:40:30.52	7.50	13.99	-41.8	-42.9	22.0	0.00e+00	0	41	0	408944640	56	6372
2026-01-24 18:40:31.53	7.31	14.03	-41.7	-42.8	21.9	0.00e+00	0	41	0	409993216	56	6314
2026-01-24 18:40:32.54	7.12	14.07	-41.7	-42.8	22.0	0.00e+00	0	41	0	412090368	56	6290
2026-01-24 18:40:33.55	6.93	14.11	-41.7	-42.8	22.0	0.00e+00	0	41	0	414187520	56	6274
2026-01-24 18:40:34.56	6.73	14.14	-41.4	-42.5	22.2	0.00e+00	0	41	0	416284672	56	6049
2026-01-24 18:40:35.57	6.54	14.18	-41.4	-42.5	22.3	0.00e+00	0	41	0	418381824	56	6040
2026-01-24 18:40:36.58	6.35	14.22	-41.4	-42.4	22.5	0.00e+00	0	41	0	419430400	56	6030
2026-01-24 18:40:37.59	6.15	14.26	-41.0	-42.0	22.7	0.00e+00	0	41	0	421527552	56	5719
2026-01-24 18:40:38.60	5.96	14.29	-40.9	-41.9	22.8	0.00e+00	0	41	0	423624704	56	5678
2026-01-24 18:40:39.61	5.76	14.33	-41.1	-42.1	22.6	0.00e+00	0	41	0	425721856	56	5803
2026-01-24 18:40:40.62	5.56	14.37	-41.1	-42.1	22.7	0.00e+00	0	41	0	427819008	56	5819
2026-01-24 18:40:41.63	5.37	14.40	-41.4	-42.4	22.5	0.00e+00	0	41	0	428867584	56	6003
2026-01-24 18:40:42.64	5.17	14.44	-41.2	-42.2	22.5	0.00e+00	0	41	0	430964736	56	5865
2026-01-24 18:40:43.65	4.97	14.47	-41.3	-42.3	22.7	0.00e+00	0	41	0	433061888	56	5926
2026-01-24 18:40:44.66	4.77	14.51	-41.2	-42.2	22.6	0.00e+00	0	41	0	435159040	56	5835
2026-01-24 18:40:45.66	4.58	14.54	-41.0	-41.9	22.9	0.00e+00	0	41	0	437256192	56	5692
2026-01-24 18:40:46.67	4.38	14.58	-40.8	-41.8	22.9	0.00e+00	0	41	0	438304768	56	5606
2026-01-24 18:40:47.68	4.18	14.61	-40.8	-41.8	22.9	0.00e+00	0	41	0	440401920	54	6249
2026-01-24 18:40:48.69	3.98	14.64	-41.2	-42.2	22.5	0.00e+00	0	41	0	442499072	54	6574
2026-01-24 18:40:49.70	3.78	14.68	-41.2	-42.3	22.3	0.00e+00	0	41	0	444596224	54	6620
2026-01-24 18:40:50.71	3.58	14.71	-41.2	-42.2	22.4	0.00e+00	0	41	0	446693376	54	6581
2026-01-24 18:40:51.72	3.38	14.74	-41.4	-42.5	22.2	0.00e+00	0	41	0	447741952	54	6832
2026-01-24 18:40:52.73	3.18	14.78	-41.1	-42.2	22.5	0.00e+00	0	41	0	449839104	54	6562
2026-01-24 18:40:53.74	2.97	14.81	-41.6	-42.7	22.3	0.00e+00	0	41	0	451936256	54	6928
2026-01-24 18:40:54.75	2.77	14.84	-41.0	-41.9	22.2	0.00e+00	0	41	0	454033408	54	6385
2026-01-24 18:40:55.76	2.57	14.87	-40.8	-41.8	22.7	0.00e+00	0	41	0	456130560	54	6272
2026-01-24 18:40:56.77	2.36	14.90	-40.6	-41.5	23.1	0.00e+00	0	41	0	457179136	54	6080
2026-01-24 18:40:57.78	2.16	14.93	-40.3	-41.3	23.2	0.00e+00	0	41	0	459276288	54	5911
2026-01-24 18:40:58.79	1.96	14.96	-40.3	-41.2	23.4	0.00e+00	0	41	0	461373440	54	5858
2026-01-24 18:40:59.80	1.75	14.99	-40.1	-41.0	23.5	0.00e+00	0	41	0	463470592	54	5716
2026-01-24 18:41:00.81	1.55	15.02	-40.2	-41.1	23.3	0.00e+00	0	41	0	465567744	54	5815
2026-01-24 18:41:01.81	1.34	15.05	-40.3	-41.3	23.3	0.00e+00	0	41	0	466616320	54	5904
2026-01-24 18:41:02.82	1.14	15.08	-40.6	-41.5	23.0	0.00e+00	0	41	0	468713472	54	6087
2026-01-24 18:41:03.83	0.93	15.11	-40.8	-41.7	22.9	0.00e+00	0	41	0	470810624	54	6223
2026-01-24 18:41:04.84	0.72	15.14	-40.9	-41.9	22.9	0.00e+00	0	41	0	472907776	54	6363
2026-01-24 18:41:05.85	0.52	15.17	-40.8	-41.8	23.0	0.00e+00	0	41	0	475004928	54	6254
2026-01-24 18:41:06.86	0.31	15.20	-40.6	-41.6	23.0	0.00e+00	0	41	0	477102080	54	6120
2026-01-24 18:41:07.87	0.10	15.22	-40.7	-41.7	22.9	0.00e+00	0	41	0	478150656	54	6175
2026-01-24 18:41:08.88	359.89	15.25	-40.6	-41.5	23.2	0.00e+00	0	41	0	480247808	54	6080
2026-01-24 18:41:09.89	359.68	15.28	-40.5	-41.5	23.1	0.00e+00	0	41	0	482344960	54	6049
2026-01-24 18:41:10.90	359.47	15.30	-40.6	-41.5	23.1	0.00e+00	0	41	0	484442112	54	6076
2026-01-24 18:41:11.91	359.27	15.33	-40.6	-41.5	23.1	0.00e+00	0	41	0	486539264	54	6095
2026-01-24 18:41:12.92	359.06	15.36	-40.6	-41.6	22.9	0.00e+00	0	41	0	487587840	54	6123
2026-01-24 18:41:13.93	358.85	15.38	-40.8	-41.8	22.7	0.00e+00	0	41	0	489684992	54	6257
2026-01-24 18:41:14.94	358.63	15.41	-41.0	-42.1	22.6	0.00e+00	0	41	0	491782144	54	6468
2026-01-24 18:41:15.95	358.42	15.43	-41.1	-42.1	22.6	0.00e+00	0	41	0	493879296	54	6519
2026-01-24 18:41:16.95	358.21	15.46	-41.3	-42.3	22.4	0.00e+00	0	41	0	495976448	54	6674
2026-01-24 18:41:17.96	358.00	15.48	-41.3	-42.3	22.4	0.00e+00	0	41	0	497025024	54	6652
2026-01-24 18:41:18.97	357.79	15.50	-41.4	-42.5	22.2	0.00e+00	0	41	0	499122176	54	6779
2026-01-24 18:41:19.98	357.58	15.53	-41.4	-42.5	22.0	0.00e+00	0	41	0	501219328	54	6786
2026-01-24 18:41:20.99	357.37	15.55	-41.5	-42.5	22.3	0.00e+00	0	41	0	503316480	54	6825
2026-01-24 18:41:22.00	357.15	15.57	-41.1	-42.2	22.6	0.00e+00	0	41	0	505413632	54	6540
2026-01-24 18:41:23.01	356.94	15.59	-41.2	-42.2	22.4	0.00e+00	0	41	0	506462208	54	6555
2026-01-24 18:41:24.02	356.73	15.62	-41.1	-42.1	22.6	0.00e+00	0	41	0	508559360	54	6490
2026-01-24 18:41:25.03	356.51	15.64	-41.1	-42.1	22.4	0.00e+00	0	41	0	510656512	54	6510
2026-01-24 18:41:26.04	356.30	15.66	-41.4	-42.5	22.3	0.00e+00	0	41	0	512753664	54	6800
2026-01-24 18:41:27.05	356.08	15.68	-41.3	-42.4	22.4	0.00e+00	0	41	0	514850816	54	6715
2026-01-24 18:41:28.05	355.87	15.70	-41.3	-42.4	22.4	0.00e+00	0	41	0	515899392	54	6721
2026-01-24 18:41:29.06	355.66	15.72	-41.2	-42.2	22.6	0.00e+00	0	41	0	517996544	54	6585
2026-01-24 18:41:30.07	355.44	15.74	-41.0	-42.0	22.8	0.00e+00	0	41	0	520093696	54	6416
2026-01-24 18:41:31.08	355.22	15.76	-40.8	-41.7	22.9	0.00e+00	0	41	0	522190848	54	6244
2026-01-24 18:41:32.09	355.01	15.78	-41.1	-42.1	22.5	0.00e+00	0	41	0	524288000	54	6511
2026-01-24 18:41:33.10	354.79	15.79	-41.1	-42.1	22.6	0.00e+00	0	41	0	525336576	54	6484
2026-01-24 18:41:34.11	354.58	15.81	-41.1	-42.1	22.6	0.00e+00	0	41	0	527433728	54	6531
2026-01-24 18:41:35.12	354.36	15.83	-41.3	-42.4	22.4	0.00e+00	0	41	0	529530880	54	6707
2026-01-24 18:41:36.13	354.14	15.85	-40.9	-41.9	22.9	0.00e+00	0	41	0	531628032	54	6324
2026-01-24 18:41:37.14	353.92	15.86	-40.8	-41.8	22.9	0.00e+00	0	41	0	533725184	54	6276
2026-01-24 18:41:38.15	353.71	15.88	-41.0	-42.0	23.0	0.00e+00	0	41	0	534773760	54	6403
2026-01-24 18:41:39.16	353.49	15.89	-40.6	-41.5	23.0	0.00e+00	0	41	0	536870912	54	6092
2026-01-24 18:41:40.17	353.27	15.91	-40.7	-41.7	22.9	0.00e+00	0	41	0	538968064	54	6197
2026-01-24 18:41:41.18	353.05	15.92	-40.5	-41.5	23.0	0.00e+00	0	41	0	541065216	54	6041
2026-01-24 18:41:42.19	352.83	15.94	-40.8	-41.8	22.8	0.00e+00	0	41	0	543162368	54	6281
2026-01-24 18:41:43.20	352.62	15.95	-41.0	-42.0	22.6	0.00e+00	0	41	0	545259520	54	6410
2026-01-24 18:41:44.21	352.40	15.97	-41.0	-42.1	22.6	0.00e+00	0	41	0	546308096	54	6467
2026-01-24 18:41:45.22	352.18	15.98	-41.0	-42.0	22.6	0.00e+00	0	41	0	548405248	54	6416
2026-01-24 18:41:46.23	351.96	15.99	-41.1	-42.1	22.4	0.00e+00	0	41	0	550502400	54	6499
2026-01-24 18:41:47.23	351.74	16.00	-41.2	-42.2	22.5	0.00e+00	0	41	0	552599552	54	6576
2026-01-24 18:41:48.24	351.52	16.02	-41.2	-42.2	22.6	0.00e+00	0	41	0	553648128	54	6558
2026-01-24 18:41:49.25	351.30	16.03	-41.3	-42.3	22.4	0.00e+00	0	41	0	555745280	54	6672
2026-01-24 18:41:50.26	351.08	16.04	-41.7	-42.7	22.1	0.00e+00	0	41	0	557842432	54	7004
2026-01-24 18:41:51.27	350.86	16.05	-42.0	-43.1	21.9	0.00e+00	0	41	0	559939584	56	6475
2026-01-24 18:41:52.28	350.64	16.06	-42.2	-43.4	21.6	0.00e+00	0	41	0	562036736	56	6722
2026-01-24 18:41:53.29	350.42	16.07	-42.0	-43.2	21.8	0.00e+00	0	41	0	563085312	56	6563
2026-01-24 18:41:54.30	350.20	16.08	-41.8	-42.9	22.2	0.00e+00	0	41	0	565182464	56	6332
2026-01-24 18:41:55.31	349.98	16.09	-41.8	-42.9	22.0	0.00e+00	0	41	0	567279616	56	6324
2026-01-24 18:41:56.32	349.76	16.10	-41.5	-42.5	22.5	0.00e+00	0	41	0	569376768	56	6092
2026-01-24 18:41:57.33	349.54	16.11	-41.3	-42.4	22.5	0.00e+00	0	41	0	571473920	56	5989
2026-01-24 18:41:58.34	349.32	16.11	-41.3	-42.3	22.5	0.00e+00	0	41	0	573571072	56	5951
2026-01-24 18:41:59.35	349.10	16.12	-41.2	-42.2	22.5	0.00e+00	0	41	0	574619648	56	5874
2026-01-24 18:42:00.36	348.88	16.13	-41.4	-42.5	22.3	0.00e+00	0	41	0	576716800	56	6047
2026-01-24 18:42:01.37	348.65	16.13	-41.5	-42.5	22.2	0.00e+00	0	41	0	578813952	56	6085
2026-01-24 18:42:02.38	348.43	16.14	-41.7	-42.8	22.0	0.00e+00	0	41	0	580911104	56	6305
2026-01-24 18:42:03.39	348.21	16.15	-41.5	-42.5	22.4	0.00e+00	0	41	0	583008256	56	6076
2026-01-24 18:42:04.40	347.99	16.15	-41.4	-42.4	22.4	0.00e+00	0	41	0	584056832	56	6021
2026-01-24 18:42:05.41	347.77	16.16	-41.4	-42.4	22.3	0.00e+00	0	41	0	586153984	56	6016
2026-01-24 18:42:06.42	347.55	16.16	-41.0	-42.0	22.8	0.00e+00	0	41	0	588251136	56	5735
2026-01-24 18:42:07.42	347.33	16.16	-40.9	-41.9	22.8	0.00e+00	0	41	0	590348288	56	5641
2026-01-24 18:42:08.43	347.10	16.17	-41.2	-42.3	22.7	0.00e+00	0	41	0	592445440	56	5909
2026-01-24 18:42:09.44	346.88	16.17	-41.2	-42.2	22.6	0.00e+00	0	41	0	593494016	56	5892
2026-01-24 18:42:10.45	346.66	16.17	-41.3	-42.3	22.5	0.00e+00	0	41	0	595591168	56	5928
2026-01-24 18:42:11.46	346.44	16.17	-41.4	-42.4	22.5	0.00e+00	0	41	0	597688320	56	6002
2026-01-24 18:42:12.47	346.22	16.18	-41.5	-42.6	22.3	0.00e+00	0	41	0	599785472	56	6149
2026-01-24 18:42:13.48	345.99	16.18	-41.6	-42.7	22.2	0.00e+00	0	41	0	601882624	56	6204
2026-01-24 18:42:14.49	345.77	16.18	-41.6	-42.7	22.3	0.00e+00	0	41	0	602931200	56	6199
2026-01-24 18:42:15.50	345.55	16.18	-41.6	-42.6	22.3	0.00e+00	0	41	0	605028352	56	6168
2026-01-24 18:42:16.51	345.33	16.18	-41.5	-42.6	22.3	0.00e+00	0	41	0	607125504	56	6132
2026-01-24 18:42:17.52	345.11	16.18	-41.5	-42.6	22.4	0.00e+00	0	41	0	609222656	56	6131
2026-01-24 18:42:18.53	344.88	16.18	-41.6	-42.7	22.3	0.00e+00	0	41	0	611319808	56	6198
2026-01-24 18:42:19.54	344.66	16.18	-41.5	-42.5	22.6	0.00e+00	0	41	0	612368384	56	6057
2026-01-24 18:42:20.55	344.44	16.17	-41.3	-42.3	22.7	0.00e+00	0	41	0	614465536	56	5953
2026-01-24 18:42:21.56	344.22	16.17	-41.4	-42.4	22.6	0.00e+00	0	41	0	616562688	56	6001
2026-01-24 18:42:22.57	344.00	16.17	-40.6	-41.5	23.1	0.00e+00	0	41	0	618659840	54	6071
2026-01-24 18:42:23.58	343.77	16.17	-40.4	-41.4	23.2	0.00e+00	0	41	0	620756992	54	5969
2026-01-24 18:42:24.58	343.55	16.16	-41.0	-42.0	22.9	0.00e+00	0	41	0	621805568	54	6435
2026-01-24 18:42:25.59	343.33	16.16	-40.7	-41.7	23.0	0.00e+00	0	41	0	623902720	54	6176
2026-01-24 18:42:26.60	343.11	16.15	-41.2	-42.2	22.8	0.00e+00	0	41	0	625999872	54	6568
2026-01-24 18:42:27.61	342.89	16.15	-41.1	-42.1	22.7	0.00e+00	0	41	0	628097024	54	6481
2026-01-24 18:42:28.62	342.67	16.14	-41.5	-42.6	22.3	0.00e+00	0	41	0	630194176	54	6855
2026-01-24 18:42:29.63	342.45	16.14	-41.3	-42.3	22.0	0.00e+00	0	41	0	631242752	54	6664
2026-01-24 18:42:30.64	342.22	16.13	-41.6	-42.7	22.0	0.00e+00	0	41	0	633339904	54	6961
2026-01-24 18:42:31.65	342.00	16.13	-41.5	-42.6	22.3	0.00e+00	0	41	0	635437056	54	6895
2026-01-24 18:42:32.66	341.78	16.12	-41.8	-42.9	21.9	0.00e+00	0	41	0	637534208	56	6377
2026-01-24 18:42:33.67	341.56	16.11	-41.8	-42.9	22.0	0.00e+00	0	41	0	639631360	56	6383
2026-01-24 18:42:34.68	341.34	16.10	-41.7	-42.9	22.0	0.00e+00	0	41	0	641728512	56	6345
2026-01-24 18:42:35.69	341.12	16.09	-42.0	-43.2	21.8	0.00e+00	0	41	0	642777088	56	6551
2026-01-24 18:42:36.70	340.90	16.09	-42.1	-43.3	21.9	0.00e+00	0	41	0	644874240	56	6689
2026-01-24 18:42:37.70	340.68	16.08	-41.9	-43.0	22.1	0.00e+00	0	41	0	646971392	56	6449
2026-01-24 18:42:38.71	340.46	16.07	-41.7	-42.9	22.2	0.00e+00	0	41	0	649068544	56	6325
2026-01-24 18:42:39.72	340.24	16.06	-41.8	-43.0	22.2	0.00e+00	0	41	0	651165696	56	6406
2026-01-24 18:42:40.73	340.02	16.05	-41.8	-42.9	22.3	0.00e+00	0	41	0	652214272	56	6370
2026-01-24 18:42:41.74	339.80	16.04	-41.7	-42.8	22.2	0.00e+00	0	41	0	654311424	56	6297
2026-01-24 18:42:42.75	339.58	16.02	-41.5	-42.6	22.4	0.00e+00	0	41	0	656408576	56	6135
2026-01-24 18:42:43.76	339.36	16.01	-41.6	-42.7	22.3	0.00e+00	0	41	0	658505728	56	6245
2026-01-24 18:42:44.77	339.14	16.00	-41.3	-42.4	22.6	0.00e+00	0	41	0	660602880	56	5971
2026-01-24 18:42:45.78	338.92	15.99	-41.4	-42.5	22.6	0.00e+00	0	41	0	661651456	56	6058
2026-01-24 18:42:46.79	338.70	15.97	-41.3	-42.4	22.6	0.00e+00	0	41	0	663748608	56	5985
2026-01-24 18:42:47.80	338.48	15.96	-41.7	-42.9	22.2	0.00e+00	0	41	0	665845760	56	6320
2026-01-24 18:42:48.81	338.26	15.95	-41.7	-42.8	22.3	0.00e+00	0	41	0	667942912	56	6265
2026-01-24 18:42:49.82	338.04	15.93	-41.6	-42.7	22.2	0.00e+00	0	41	0	670040064	56	6187
2026-01-24 18:42:50.83	337.83	15.92	-41.7	-42.8	22.4	0.00e+00	0	41	0	671088640	56	6308
2026-01-24 18:42:51.83	337.61	15.90	-41.4	-42.5	22.5	0.00e+00	0	41	0	673185792	56	6088
2026-01-24 18:42:52.84	337.39	15.89	-41.5	-42.5	22.4	0.00e+00	0	41	0	675282944	56	6080
2026-01-24 18:42:53.85	337.18	15.87	-41.0	-42.0	22.8	0.00e+00	0	41	0	677380096	56	5701
2026-01-24 18:42:54.86	336.96	15.86	-40.7	-41.6	23.0	0.00e+00	0	41	0	679477248	56	5488
2026-01-24 18:42:55.87	336.74	15.84	-40.3	-41.3	23.1	0.00e+00	0	41	0	680525824	54	5909
2026-01-24 18:42:56.88	336.52	15.82	-40.5	-41.5	23.1	0.00e+00	0	41	0	682622976	54	6056
2026-01-24 18:42:57.89	336.31	15.80	-40.7	-41.7	23.0	0.00e+00	0	41	0	684720128	54	6180
2026-01-24 18:42:58.90	336.09	15.79	-40.7	-41.7	22.9	0.00e+00	0	41	0	686817280	54	6185
2026-01-24 18:42:59.91	335.87	15.77	-40.7	-41.7	23.0	0.00e+00	0	41	0	688914432	54	6212
2026-01-24 18:43:00.92	335.66	15.75	-40.6	-41.5	23.1	0.00e+00	0	41	0	689963008	54	6091
2026-01-24 18:43:01.93	335.44	15.73	-41.2	-42.2	22.5	0.00e+00	0	41	0	692060160	54	6573
2026-01-24 18:43:02.94	335.23	15.71	-40.9	-41.9	22.7	0.00e+00	0	41	0	694157312	54	6381
2026-01-24 18:43:03.94	335.01	15.69	-41.1	-42.1	22.6	0.00e+00	0	41	0	696254464	54	6498
2026-01-24 18:43:04.95	334.80	15.67	-41.1	-42.1	22.3	0.00e+00	0	41	0	698351616	54	6532
2026-01-24 18:43:05.96	334.58	15.65	-41.1	-42.1	22.6	0.00e+00	0	41	0	699400192	54	6484
2026-01-24 18:43:06.97	334.37	15.63	-41.3	-42.3	22.5	0.00e+00	0	41	0	701497344	54	6675
2026-01-24 18:43:07.98	334.16	15.61	-41.3	-42.3	22.4	0.00e+00	0	41	0	703594496	54	6684
2026-01-24 18:43:08.99	333.94	15.59	-41.3	-42.4	22.5	0.00e+00	0	41	0	705691648	54	6723
2026-01-24 18:43:10.00	333.73	15.56	-41.2	-42.3	22.5	0.00e+00	0	41	0	707788800	54	6621
2026-01-24 18:43:11.01	333.52	15.54	-41.4	-42.4	22.2	0.00e+00	0	41	0	709885952	54	6755
2026-01-24 18:43:12.02	333.30	15.52	-41.5	-42.6	22.3	0.00e+00	0	41	0	710934528	54	6860
2026-01-24 18:43:13.03	333.09	15.49	-42.0	-43.1	21.8	0.00e+00	0	41	0	713031680	56	6511
2026-01-24 18:43:14.04	332.88	15.47	-42.0	-43.1	22.0	0.00e+00	0	41	0	715128832	56	6495
2026-01-24 18:43:15.05	332.67	15.45	-41.8	-42.9	22.2	0.00e+00	0	41	0	717225984	56	6352
2026-01-24 18:43:16.06	332.46	15.42	-41.7	-42.8	22.4	0.00e+00	0	41	0	719323136	56	6280
2026-01-24 18:43:17.07	332.25	15.40	-41.4	-42.4	22.4	0.00e+00	0	41	0	720371712	56	6007
2026-01-24 18:43:18.08	332.04	15.37	-41.3	-42.3	22.6	0.00e+00	0	41	0	722468864	56	5922
2026-01-24 18:43:19.09	331.83	15.35	-41.2	-42.1	22.7	0.00e+00	0	41	0	724566016	56	5827
2026-01-24 18:43:20.10	331.62	15.32	-41.2	-42.1	22.7	0.00e+00	0	41	0	726663168	56	5819
2026-01-24 18:43:21.11	331.41	15.29	-40.9	-41.9	22.9	0.00e+00	0	41	0	728760320	56	5648
2026-01-24 18:43:22.11	331.20	15.27	-41.0	-41.9	22.8	0.00e+00	0	41	0	729808896	56	5690
2026-01-24 18:43:23.12	330.99	15.24	-40.8	-41.7	23.0	0.00e+00	0	41	0	731906048	56	5560
2026-01-24 18:43:24.13	330.78	15.21	-40.6	-41.5	23.1	0.00e+00	0	41	0	734003200	54	6088
2026-01-24 18:43:25.14	330.57	15.19	-40.6	-41.6	23.1	0.00e+00	0	41	0	736100352	54	6104
2026-01-24 18:43:26.15	330.37	15.16	-40.6	-41.5	23.1	0.00e+00	0	41	0	738197504	54	6079
2026-01-24 18:43:27.16	330.16	15.13	-40.7	-41.6	23.0	0.00e+00	0	41	0	739246080	54	6166
2026-01-24 18:43:28.17	329.95	15.10	-40.7	-41.7	22.9	0.00e+00	0	41	0	741343232	54	6197
2026-01-24 18:43:29.18	329.75	15.07	-41.4	-42.4	22.5	0.00e+00	0	41	0	743440384	54	6764
2026-01-24 18:43:30.19	329.54	15.04	-41.6	-42.6	22.5	0.00e+00	0	41	0	745537536	56	6126
2026-01-24 18:43:31.20	329.34	15.01	-41.9	-43.0	22.4	0.00e+00	0	41	0	747634688	56	6395
2026-01-24 18:43:32.21	329.13	14.98	-41.9	-42.9	22.3	0.00e+00	0	41	0	748683264	56	6383
2026-01-24 18:43:33.22	328.93	14.95	-42.0	-43.0	22.1	0.00e+00	0	41	0	750780416	56	6451
2026-01-24 18:43:34.23	328.72	14.92	-42.0	-43.0	22.2	0.00e+00	0	41	0	752877568	56	6435
2026-01-24 18:43:35.24	328.52	14.89	-41.9	-43.0	22.3	0.00e+00	0	41	0	754974720	56	6396
2026-01-24 18:43:36.25	328.31	14.86	-42.1	-43.2	22.0	0.00e+00	0	41	0	757071872	56	6563
2026-01-24 18:43:37.26	328.11	14.83	-42.4	-43.5	21.9	0.00e+00	0	41	0	758120448	56	6828
2026-01-24 18:43:38.27	327.91	14.80	-42.5	-43.7	21.7	0.00e+00	0	41	0	760217600	56	6929
2026-01-24 18:43:39.28	327.71	14.76	-42.7	-43.8	21.6	0.00e+00	0	41	0	762314752	56	7053
2026-01-24 18:43:40.29	327.51	14.73	-42.5	-43.7	21.7	0.00e+00	0	41	0	764411904	56	6953
2026-01-24 18:43:41.30	327.30	14.70	-42.4	-43.5	21.8	0.00e+00	0	41	0	766509056	58	6073
2026-01-24 18:43:42.31	327.10	14.66	-42.3	-43.4	22.0	0.00e+00	0	41	0	767557632	58	6012
2026-01-24 18:43:43.32	326.90	14.63	-42.2	-43.3	22.0	0.00e+00	0	41	0	769654784	58	5940
2026-01-24 18:43:44.32	326.71	14.60	-41.9	-43.0	22.4	0.00e+00	0	41	0	771751936	58	5711
2026-01-24 18:43:45.33	326.51	14.56	-41.8	-42.8	22.4	0.00e+00	0	41	0	773849088	56	6292
2026-01-24 18:43:46.34	326.31	14.53	-41.6	-42.6	22.5	0.00e+00	0	41	0	775946240	56	6132
2026-01-24 18:43:47.35	326.11	14.49	-41.5	-42.5	22.6	0.00e+00	0	41	0	778043392	56	6096
2026-01-24 18:43:48.36	325.91	14.46	-41.5	-42.5	22.5	0.00e+00	0	41	0	779091968	56	6060
2026-01-24 18:43:49.37	325.71	14.42	-41.6	-42.6	22.7	0.00e+00	0	41	0	781189120	56	6108
2026-01-24 18:43:50.38	325.52	14.39	-41.4	-42.4	22.7	0.00e+00	0	40	0	783286272	56	6006
2026-01-24 18:43:51.39	325.32	14.35	-41.3	-42.2	22.9	0.00e+00	0	40	0	785383424	56	5870
2026-01-24 18:43:52.39	325.13	14.32	-41.4	-42.4	22.6	0.00e+00	0	40	0	787480576	56	6023
2026-01-24 18:43:53.41	324.93	14.28	-41.1	-42.1	22.9	0.00e+00	0	41	0	788529152	56	5766
2026-01-24 18:43:54.41	324.74	14.24	-41.0	-42.0	23.0	0.00e+00	0	40	0	790626304	56	5715
2026-01-24 18:43:55.42	324.54	14.21	-41.2	-42.1	22.7	0.00e+00	0	41	0	792723456	56	5808
2026-01-24 18:43:56.43	324.35	14.17	-40.8	-41.7	22.4	0.00e+00	0	41	0	794820608	56	5518
2026-01-24 18:43:57.44	324.15	14.13	-40.5	-41.4	23.4	0.00e+00	0	40	0	795869184	54	5995
2026-01-24 18:43:58.45	323.96	14.09	-40.8	-41.7	23.2	0.00e+00	0	40	0	797966336	54	6233
2026-01-24 18:43:59.46	323.77	14.05	-40.7	-41.6	23.1	0.00e+00	0	41	0	800063488	54	6108
2026-01-24 18:44:00.47	323.58	14.02	-41.0	-41.9	23.2	0.00e+00	0	41	0	802160640	54	6370
2026-01-24 18:44:01.48	323.38	13.98	-41.2	-42.1	23.1	0.00e+00	0	40	0	804257792	54	6488
2026-01-24 18:44:02.49	323.19	13.94	-41.4	-42.4	22.8	0.00e+00	0	41	0	806354944	54	6706
2026-01-24 18:44:03.50	323.00	13.90	-41.6	-42.5	22.7	0.00e+00	0	40	0	807403520	54	6829
2026-01-24 18:44:04.51	322.81	13.86	-41.5	-42.4	22.5	0.00e+00	0	41	0	809500672	54	6758
2026-01-24 18:44:05.52	322.62	13.82	-41.6	-42.6	22.4	0.00e+00	0	41	0	811597824	56	6165
2026-01-24 18:44:06.53	322.43	13.78	-41.8	-42.8	22.3	0.00e+00	0	40	0	813694976	56	6276
2026-01-24 18:44:07.54	322.24	13.74	-42.2	-43.2	22.0	0.00e+00	0	41	0	815792128	56	6611
2026-01-24 18:44:08.55	322.06	13.70	-42.3	-43.4	21.8	0.00e+00	0	41	0	816840704	56	6727
2026-01-24 18:44:09.56	321.87	13.66	-42.5	-43.6	21.6	0.00e+00	0	41	0	818937856	56	6856
2026-01-24 18:44:10.57	321.68	13.62	-42.7	-43.8	21.5	0.00e+00	0	41	0	821035008	56	7034
2026-01-24 18:44:11.58	321.50	13.58	-42.8	-44.0	21.4	0.00e+00	0	41	0	823132160	58	6399
2026-01-24 18:44:12.59	321.31	13.54	-42.7	-43.9	21.5	0.00e+00	0	40	0	825229312	58	6340
2026-01-24 18:44:13.60	321.12	13.49	-42.8	-43.9	21.5	0.00e+00	0	41	0	826277888	58	6325
2026-01-24 18:44:14.61	320.94	13.45	-42.9	-44.1	21.4	0.00e+00	0	41	0	828375040	58	6504
2026-01-24 18:44:15.61	320.76	13.41	-42.7	-43.8	21.6	0.00e+00	0	41	0	830472192	58	6278
2026-01-24 18:44:16.62	320.57	13.37	-42.8	-43.9	21.5	0.00e+00	0	40	0	832569344	58	6368
2026-01-24 18:44:17.63	320.39	13.33	-42.7	-43.8	21.6	0.00e+00	0	41	0	834666496	58	6287
2026-01-24 18:44:18.64	320.21	13.28	-42.8	-43.9	21.4	0.00e+00	0	41	0	835715072	58	6355
2026-01-24 18:44:19.65	320.03	13.24	-42.7	-43.8	21.5	0.00e+00	0	41	0	837812224	58	6304
2026-01-24 18:44:20.66	319.84	13.20	-42.5	-43.6	21.6	0.00e+00	0	41	0	839909376	58	6125
2026-01-24 18:44:21.67	319.66	13.15	-42.8	-44.0	21.5	0.00e+00	0	41	0	842006528	58	6412
2026-01-24 18:44:22.68	319.48	13.11	-42.4	-43.5	21.8	0.00e+00	0	41	0	844103680	58	6091
2026-01-24 18:44:23.69	319.30	13.07	-42.6	-43.8	21.7	0.00e+00	0	41	0	845152256	58	6260
2026-01-24 18:44:24.70	319.12	13.02	-42.6	-43.7	21.7	0.00e+00	0	41	0	847249408	58	6204
2026-01-24 18:44:25.71	318.94	12.98	-42.3	-43.4	21.7	0.00e+00	0	41	0	849346560	58	6000
2026-01-24 18:44:26.72	318.76	12.93	-42.6	-43.7	21.7	0.00e+00	0	41	0	851443712	58	6202
2026-01-24 18:44:27.73	318.59	12.89	-42.8	-43.9	21.8	0.00e+00	0	40	0	853540864	58	6366
2026-01-24 18:44:28.74	318.41	12.85	-42.6	-43.7	21.9	0.00e+00	0	41	0	854589440	58	6174
2026-01-24 18:44:29.75	318.23	12.80	-42.8	-43.9	21.6	0.00e+00	0	41	0	856686592	58	6377
2026-01-24 18:44:30.76	318.06	12.76	-42.9	-44.0	21.4	0.00e+00	0	41	0	858783744	58	6458
2026-01-24 18:44:31.77	317.88	12.71	-42.2	-43.3	22.0	0.00e+00	0	41	0	860880896	58	5914
2026-01-24 18:44:32.78	317.71	12.66	-42.1	-43.2	22.1	0.00e+00	0	41	0	862978048	58	5846
2026-01-24 18:44:33.79	317.53	12.62	-41.9	-42.9	22.3	0.00e+00	0	41	0	864026624	58	5635
2026-01-24 18:44:34.80	317.36	12.57	-41.9	-42.9	22.1	0.00e+00	0	41	0	866123776	58	5681
2026-01-24 18:44:35.80	317.19	12.53	-41.4	-42.4	22.6	0.00e+00	0	41	0	868220928	56	5992
2026-01-24 18:44:36.81	317.01	12.48	-41.4	-42.4	22.5	0.00e+00	0	41	0	870318080	56	6004
2026-01-24 18:44:37.82	316.84	12.44	-41.3	-42.3	22.6	0.00e+00	0	41	0	872415232	56	5926
2026-01-24 18:44:38.83	316.67	12.39	-41.5	-42.4	22.6	0.00e+00	0	41	0	874512384	56	6015
2026-01-24 18:44:39.84	316.50	12.34	-41.8	-42.8	22.3	0.00e+00	0	41	0	875560960	56	6294
2026-01-24 18:44:40.86	316.32	12.30	-42.1	-43.1	22.0	0.00e+00	0	41	0	877658112	56	6539
2026-01-24 18:44:41.86	316.16	12.25	-42.7	-43.8	21.6	0.00e+00	0	41	0	879755264	56	7049
2026-01-24 18:44:42.87	315.99	12.20	-42.9	-44.0	21.5	0.00e+00	0	41	0	881852416	58	6419
2026-01-24 18:44:43.88	315.82	12.15	-43.0	-44.2	21.2	0.00e+00	0	41	0	883949568	58	6546
2026-01-24 18:44:44.89	315.65	12.11	-42.9	-44.0	21.3	0.00e+00	0	41	0	884998144	58	6436
2026-01-24 18:44:45.90	315.48	12.06	-43.0	-44.2	21.1	0.00e+00	0	41	0	887095296	58	6564
2026-01-24 18:44:46.91	315.31	12.01	-43.0	-44.1	21.1	0.00e+00	0	41	0	889192448	58	6537
2026-01-24 18:44:47.92	315.15	11.96	-42.9	-44.0	21.1	0.00e+00	0	41	0	891289600	58	6452
2026-01-24 18:44:48.93	314.98	11.92	-42.4	-43.5	21.6	0.00e+00	0	41	0	893386752	58	6088
2026-01-24 18:44:49.93	314.82	11.87	-42.3	-43.3	21.8	0.00e+00	0	41	0	894435328	58	5959
2026-01-24 18:44:50.94	314.65	11.82	-42.3	-43.4	21.8	0.00e+00	0	41	0	896532480	58	5984
2026-01-24 18:44:51.95	314.49	11.77	-42.7	-43.8	21.4	0.00e+00	0	40	0	898629632	58	6295
2026-01-24 18:44:52.96	314.32	11.72	-42.8	-44.0	21.2	0.00e+00	0	41	0	900726784	58	6393
2026-01-24 18:44:53.97	314.16	11.67	-43.0	-44.2	20.9	0.00e+00	0	41	0	902823936	58	6594
2026-01-24 18:44:54.98	313.99	11.63	-43.4	-44.7	20.6	0.00e+00	0	41	0	903872512	58	6948
2026-01-24 18:44:55.99	313.83	11.58	-44.2	-45.6	19.8	0.00e+00	0	41	0	905969664	60	6883
2026-01-24 18:44:57.00	313.67	11.53	-45.0	-46.6	18.7	0.00e+00	0	41	0	908066816	60	7757
2026-01-24 18:44:58.01	313.51	11.48	-45.7	-47.5	18.1	0.00e+00	0	41	0	910163968	60	8613
2026-01-24 18:44:59.02	313.35	11.43	-46.2	-48.2	17.6	0.00e+00	0	41	0	912261120	60	9340
2026-01-24 18:45:00.03	313.19	11.38	-46.3	-48.4	17.4	0.00e+00	0	41	0	913309696	60	9465
2026-01-24 18:45:01.04	313.03	11.33	-46.1	-48.0	17.7	0.00e+00	0	41	0	915406848	60	9097
2026-01-24 18:45:02.05	312.87	11.28	-45.8	-47.7	18.0	0.00e+00	0	41	0	917504000	60	8751
2026-01-24 18:45:03.06	312.71	11.23	-45.7	-47.4	18.3	0.00e+00	0	41	0	919601152	60	8522
2026-01-24 18:45:04.07	312.55	11.18	-45.3	-46.9	18.7	0.00e+00	0	41	0	921698304	60	8021
2026-01-24 18:45:05.08	312.39	11.13	-45.2	-46.9	18.7	0.00e+00	0	41	0	922746880	60	8013
2026-01-24 18:45:06.09	312.24	11.08	-45.2	-46.9	18.3	0.00e+00	0	41	0	924844032	60	7986
2026-01-24 18:45:07.10	312.08	11.03	-45.0	-46.5	19.2	0.00e+00	0	41	0	926941184	60	7663
2026-01-24 18:45:08.11	311.92	10.98	-44.7	-46.2	19.7	0.00e+00	0	41	0	929038336	60	7387
2026-01-24 18:45:09.11	311.77	10.93	-44.6	-46.0	19.6	0.00e+00	0	41	0	931135488	60	7237
2026-01-24 18:45:10.12	311.62	10.88	-44.8	-46.2	19.4	0.00e+00	0	41	0	932184064	60	7378
2026-01-24 18:45:11.13	311.46	10.83	-44.4	-45.8	19.9	0.00e+00	0	40	0	934281216	60	7011
2026-01-24 18:45:12.13	311.31	10.78	-44.2	-45.5	20.0	0.00e+00	0	41	0	936378368	60	6813
2026-01-24 18:45:13.14	311.16	10.73	-43.8	-45.1	20.6	0.00e+00	0	41	0	938475520	60	6471
2026-01-24 18:45:14.15	311.00	10.68	-43.9	-45.2	20.3	0.00e+00	0	41	0	940572672	60	6565
2026-01-24 18:45:15.16	310.85	10.63	-44.2	-45.5	20.1	0.00e+00	0	41	0	942669824	60	6835
2026-01-24 18:45:16.17	310.70	10.57	-44.2	-45.5	19.9	0.00e+00	0	41	0	943718400	60	6819
2026-01-24 18:45:17.18	310.55	10.52	-44.0	-45.3	20.3	0.00e+00	0	41	0	945815552	60	6677
2026-01-24 18:45:18.19	310.40	10.47	-44.1	-45.5	20.1	0.00e+00	0	41	0	947912704	60	6775
2026-01-24 18:45:19.20	310.25	10.42	-43.7	-44.9	20.7	0.00e+00	0	40	0	950009856	60	6378
2026-01-24 18:45:20.21	310.10	10.37	-43.8	-45.1	20.6	0.00e+00	0	41	0	952107008	60	6483
2026-01-24 18:45:21.22	309.95	10.32	-44.2	-45.5	20.1	0.00e+00	0	40	0	953155584	60	6789
2026-01-24 18:45:22.23	309.80	10.27	-44.3	-45.8	20.0	0.00e+00	0	40	0	955252736	60	7012
2026-01-24 18:45:23.23	309.66	10.21	-44.0	-45.3	20.2	0.00e+00	0	41	0	957349888	60	6620
2026-01-24 18:45:24.24	309.51	10.16	-43.6	-44.9	20.7	0.00e+00	0	41	0	959447040	60	6345
2026-01-24 18:45:25.25	309.36	10.11	-43.2	-44.4	21.2	0.00e+00	0	40	0	961544192	60	5966
2026-01-24 18:45:26.26	309.21	10.06	-43.1	-44.2	21.4	0.00e+00	0	41	0	962592768	60	5895
2026-01-24 18:45:27.27	309.07	10.01	-43.1	-44.3	21.3	0.00e+00	0	41	0	964689920	60	5932
2026-01-24 18:45:28.28	308.92	9.96	-43.4	-44.6	21.0	0.00e+00	0	41	0	966787072	60	6153
2026-01-24 18:45:29.29	308.78	9.90	-43.1	-44.2	21.2	0.00e+00	0	40	0	968884224	60	5872
2026-01-24 18:45:30.30	308.64	9.85	-43.0	-44.1	21.1	0.00e+00	0	41	0	970981376	60	5812
2026-01-24 18:45:31.31	308.49	9.80	-43.0	-44.2	21.3	0.00e+00	0	41	0	972029952	60	5847
2026-01-24 18:45:32.32	308.35	9.75	-43.2	-44.4	21.1	0.00e+00	0	40	0	974127104	60	5973
2026-01-24 18:45:33.33	308.21	9.69	-43.4	-44.6	20.8	0.00e+00	0	41	0	976224256	60	6127
2026-01-24 18:45:34.34	308.06	9.64	-43.9	-45.2	20.2	0.00e+00	0	41	0	978321408	60	6614
2026-01-24 18:45:35.35	307.92	9.59	-43.9	-45.2	20.5	0.00e+00	0	41	0	980418560	60	6553
2026-01-24 18:45:36.36	307.78	9.54	-43.4	-44.6	20.5	0.00e+00	0	41	0	981467136	60	6127
2026-01-24 18:45:37.37	307.64	9.48	-43.8	-45.1	20.1	0.00e+00	0	41	0	983564288	60	6510
2026-01-24 18:45:38.38	307.50	9.43	-43.9	-45.2	20.1	0.00e+00	0	41	0	985661440	60	6578
2026-01-24 18:45:39.39	307.36	9.38	-44.0	-45.3	20.0	0.00e+00	0	41	0	987758592	60	6672
2026-01-24 18:45:40.39	307.22	9.33	-43.6	-44.9	20.4	0.00e+00	0	41	0	989855744	60	6323
2026-01-24 18:45:41.40	307.08	9.27	-43.4	-44.7	20.4	0.00e+00	0	40	0	990904320	60	6191
2026-01-24 18:45:42.41	306.95	9.22	-42.8	-44.1	21.0	0.00e+00	0	40	0	993001472	60	5764
2026-01-24 18:45:43.42	306.81	9.17	-42.7	-44.0	21.0	0.00e+00	0	41	0	995098624	58	6391
2026-01-24 18:45:44.43	306.67	9.11	-43.1	-44.4	20.6	0.00e+00	0	41	0	997195776	58	6733
2026-01-24 18:45:45.44	306.54	9.06	-43.1	-44.4	20.6	0.00e+00	0	40	0	999292928	58	6716
2026-01-24 18:45:46.45	306.40	9.01	-43.3	-44.6	20.5	0.00e+00	0	41	0	1000341504	58	6862
2026-01-24 18:45:47.46	306.26	8.96	-43.2	-44.5	20.6	0.00e+00	0	41	0	1002438656	58	6797
2026-01-24 18:45:48.47	306.13	8.90	-43.0	-44.3	20.7	0.00e+00	0	41	0	1004535808	58	6621
2026-01-24 18:45:49.48	306.00	8.85	-42.8	-44.1	20.9	0.00e+00	0	41	0	1006632960	58	6477
2026-01-24 18:45:50.49	305.86	8.80	-42.7	-43.9	21.1	0.00e+00	0	41	0	1008730112	58	6330
2026-01-24 18:45:51.50	305.73	8.74	-42.2	-43.4	21.5	0.00e+00	0	41	0	1010827264	58	6008
2026-01-24 18:45:52.51	305.60	8.69	-42.2	-43.3	21.6	0.00e+00	0	41	0	1011875840	58	5934
2026-01-24 18:45:53.51	305.46	8.64	-42.3	-43.5	21.4	0.00e+00	0	41	0	1013972992	58	6054
2026-01-24 18:45:54.52	305.33	8.58	-42.4	-43.5	21.3	0.00e+00	0	41	0	1016070144	58	6060
2026-01-24 18:45:55.53	305.20	8.53	-42.2	-43.3	21.6	0.00e+00	0	41	0	1018167296	58	5930
2026-01-24 18:45:56.54	305.07	8.48	-42.2	-43.3	21.6	0.00e+00	0	41	0	1019215872	56	6681
2026-01-24 18:45:57.55	304.94	8.42	-41.9	-43.0	21.9	0.00e+00	0	41	0	1021313024	56	6398
2026-01-24 18:45:58.56	304.81	8.37	-41.6	-42.6	22.2	0.00e+00	0	41	0	1023410176	56	6157
2026-01-24 18:45:59.57	304.68	8.32	-41.1	-42.0	22.8	0.00e+00	0	41	0	1025507328	56	5748
2026-01-24 18:46:00.58	304.55	8.26	-41.8	-42.8	22.1	0.00e+00	0	41	0	1027604480	56	6309
2026-01-24 18:46:01.59	304.42	8.21	-42.2	-43.3	21.6	0.00e+00	0	41	0	1028653056	56	6682
2026-01-24 18:46:02.60	304.29	8.16	-42.3	-43.5	21.5	0.00e+00	0	41	0	1030750208	56	6789
2026-01-24 18:46:03.61	304.17	8.10	-41.9	-43.0	21.7	0.00e+00	0	40	0	1032847360	56	6431
2026-01-24 18:46:04.61	304.04	8.05	-42.2	-43.3	21.4	0.00e+00	0	41	0	1034944512	56	6651
2026-01-24 18:46:05.62	303.91	8.00	-42.2	-43.3	21.6	0.00e+00	0	41	0	1037041664	56	6653
2026-01-24 18:46:06.63	303.79	7.94	-41.4	-42.4	22.4	0.00e+00	0	40	0	1039138816	56	5988
2026-01-24 18:46:07.64	303.66	7.89	-41.4	-42.4	22.5	0.00e+00	0	40	0	1040187392	56	6004
2026-01-24 18:46:08.65	303.54	7.83	-42.1	-43.2	21.7	0.00e+00	0	40	0	1042284544	56	6564
2026-01-24 18:46:09.66	303.41	7.78	-41.8	-42.8	22.0	0.00e+00	0	41	0	1044381696	56	6284
2026-01-24 18:46:10.67	303.29	7.73	-41.1	-42.1	22.6	0.00e+00	0	41	0	1046478848	56	5771
2026-01-24 18:46:11.68	303.16	7.67	-41.8	-42.9	21.9	0.00e+00	0	40	0	1048576000	56	6333
2026-01-24 18:46:12.69	303.04	7.62	-41.9	-42.9	21.8	0.00e+00	0	41	0	1049624576	56	6377
2026-01-24 18:46:13.70	302.92	7.57	-42.6	-43.7	21.3	0.00e+00	0	41	0	1051721728	56	7000
2026-01-24 18:46:14.71	302.80	7.51	-42.5	-43.6	21.4	0.00e+00	0	41	0	1053818880	56	6892
2026-01-24 18:46:15.71	302.67	7.46	-41.9	-43.0	21.9	0.00e+00	0	41	0	1055916032	56	6430
2026-01-24 18:46:16.72	302.55	7.41	-42.1	-43.2	21.5	0.00e+00	0	41	0	1058013184	56	6603
2026-01-24 18:46:17.73	302.43	7.35	-42.5	-43.7	21.2	0.00e+00	0	41	0	1059061760	56	6932
2026-01-24 18:46:18.74	302.31	7.30	-42.5	-43.6	21.1	0.00e+00	0	41	0	1061158912	56	6914
2026-01-24 18:46:19.75	302.19	7.24	-42.8	-44.0	20.9	0.00e+00	0	41	0	1063256064	58	6413
2026-01-24 18:46:20.76	302.07	7.19	-42.8	-44.1	20.8	0.00e+00	0	41	0	1065353216	58	6487
2026-01-24 18:46:21.77	301.95	7.14	-42.6	-43.8	21.1	0.00e+00	0	41	0	1067450368	58	6281
2026-01-24 18:46:22.78	301.83	7.08	-42.2	-43.3	21.4	0.00e+00	0	41	0	1068498944	58	5951
2026-01-24 18:46:23.79	301.72	7.03	-42.5	-43.7	20.9	0.00e+00	0	41	0	1070596096	58	6209
2026-01-24 18:46:24.80	301.60	6.97	-42.5	-43.7	21.0	0.00e+00	0	41	0	1072693248	58	6178
2026-01-24 18:46:25.81	301.48	6.92	-42.7	-43.9	20.8	0.00e+00	0	41	0	1074790400	58	6384
2026-01-24 18:46:26.82	301.36	6.87	-42.7	-44.0	20.8	0.00e+00	0	41	0	1076887552	58	6402
2026-01-24 18:46:27.83	301.25	6.81	-42.8	-44.0	20.6	0.00e+00	0	41	0	1077936128	58	6455
2026-01-24 18:46:28.84	301.13	6.76	-42.7	-44.0	21.1	0.00e+00	0	40	0	1080033280	58	6392
2026-01-24 18:46:29.85	301.02	6.71	-42.5	-43.7	20.8	0.00e+00	0	41	0	1082130432	58	6184
2026-01-24 18:46:30.86	300.90	6.65	-42.8	-44.1	20.3	0.00e+00	0	41	0	1084227584	58	6497
2026-01-24 18:46:31.87	300.79	6.60	-42.3	-43.5	20.8	0.00e+00	0	41	0	1086324736	58	6058
2026-01-24 18:46:32.87	300.67	6.54	-43.0	-44.2	20.5	0.00e+00	0	41	0	1087373312	58	6614
2026-01-24 18:46:33.89	300.56	6.49	-42.8	-44.0	20.8	0.00e+00	0	41	0	1089470464	58	6417
2026-01-24 18:46:34.89	300.44	6.44	-43.0	-44.2	20.6	0.00e+00	0	41	0	1091567616	58	6612
2026-01-24 18:46:35.90	300.33	6.38	-42.4	-43.5	21.1	0.00e+00	0	41	0	1093664768	58	6095
2026-01-24 18:46:36.91	300.22	6.33	-41.4	-42.4	22.1	0.00e+00	0	41	0	1095761920	56	5998
2026-01-24 18:46:37.92	300.11	6.28	-42.2	-43.4	21.3	0.00e+00	0	41	0	1096810496	56	6716
2026-01-24 18:46:38.93	300.00	6.22	-42.6	-43.8	20.8	0.00e+00	0	41	0	1098907648	58	6278
2026-01-24 18:46:39.94	299.88	6.17	-41.8	-42.9	21.8	0.00e+00	0	41	0	1101004800	56	6321
2026-01-24 18:46:40.95	299.77	6.11	-42.9	-44.2	20.6	0.00e+00	0	41	0	1103101952	58	6572
2026-01-24 18:46:41.96	299.66	6.06	-42.4	-43.6	21.2	0.00e+00	0	41	0	1105199104	58	6109
2026-01-24 18:46:42.97	299.55	6.01	-41.5	-42.6	21.9	0.00e+00	0	41	0	1107296256	56	6132
2026-01-24 18:46:43.97	299.44	5.95	-42.4	-43.5	21.2	0.00e+00	0	41	0	1108344832	56	6831
2026-01-24 18:46:44.98	299.33	5.90	-42.4	-43.6	21.0	0.00e+00	0	41	0	1110441984	58	6151
2026-01-24 18:46:45.99	299.23	5.85	-42.7	-43.9	20.8	0.00e+00	0	41	0	1112539136	58	6384
2026-01-24 18:46:47.00	299.12	5.79	-42.3	-43.4	21.3	0.00e+00	0	41	0	1114636288	58	6012
2026-01-24 18:46:48.01	299.01	5.74	-41.4	-42.4	22.2	0.00e+00	0	41	0	1116733440	56	6031
2026-01-24 18:46:49.02	298.90	5.68	-42.3	-43.4	21.1	0.00e+00	0	41	0	1117782016	56	6755
2026-01-24 18:46:50.03	298.79	5.63	-42.9	-44.2	20.3	0.00e+00	0	41	0	1119879168	58	6605
2026-01-24 18:46:51.04	298.69	5.58	-43.1	-44.4	20.2	0.00e+00	0	41	0	1121976320	58	6734
2026-01-24 18:46:52.05	298.58	5.52	-43.3	-44.7	20.1	0.00e+00	0	41	0	1124073472	58	6961
2026-01-24 18:46:53.06	298.47	5.47	-44.3	-45.9	19.1	0.00e+00	0	41	0	1126170624	60	7095
2026-01-24 18:46:54.07	298.37	5.42	-43.9	-45.3	19.7	0.00e+00	0	41	0	1127219200	60	6688
2026-01-24 18:46:55.08	298.26	5.36	-42.6	-43.8	21.2	0.00e+00	0	41	0	1129316352	58	6252
2026-01-24 18:46:56.09	298.16	5.31	-42.7	-43.9	20.6	0.00e+00	0	41	0	1131413504	58	6364
2026-01-24 18:46:57.09	298.06	5.26	-43.6	-44.9	20.0	0.00e+00	0	41	0	1133510656	60	6371
2026-01-24 18:46:58.10	297.95	5.20	-42.7	-43.9	21.0	0.00e+00	0	41	0	1135607808	58	6331
2026-01-24 18:46:59.11	297.85	5.15	-42.9	-44.2	20.7	0.00e+00	0	41	0	1136656384	58	6551
2026-01-24 18:47:00.12	297.75	5.10	-42.2	-43.3	21.5	0.00e+00	0	41	0	1138753536	58	5916
2026-01-24 18:47:01.13	297.64	5.04	-43.3	-44.7	20.2	0.00e+00	0	41	0	1140850688	58	6942
2026-01-24 18:47:02.13	297.54	4.99	-42.8	-44.0	20.8	0.00e+00	0	41	0	1142947840	58	6423
2026-01-24 18:47:03.15	297.44	4.94	-42.9	-44.1	20.9	0.00e+00	0	41	0	1145044992	58	6487
2026-01-24 18:47:04.16	297.34	4.88	-42.4	-43.5	21.1	0.00e+00	0	41	0	1146093568	58	6100
2026-01-24 18:47:05.16	297.24	4.83	-42.4	-43.6	21.2	0.00e+00	0	41	0	1148190720	58	6124
2026-01-24 18:47:06.17	297.13	4.78	-41.9	-43.0	21.4	0.00e+00	0	41	0	1150287872	58	5712
2026-01-24 18:47:07.18	297.03	4.72	-42.5	-43.7	20.8	0.00e+00	0	41	0	1152385024	58	6241
2026-01-24 18:47:08.19	296.93	4.67	-42.6	-43.8	21.0	0.00e+00	0	41	0	1154482176	58	6272
2026-01-24 18:47:09.20	296.83	4.62	-43.1	-44.4	20.2	0.00e+00	0	41	0	1155530752	58	6747
2026-01-24 18:47:10.21	296.73	4.56	-42.5	-43.7	21.1	0.00e+00	0	41	0	1157627904	58	6225
2026-01-24 18:47:11.22	296.64	4.51	-42.7	-43.9	20.6	0.00e+00	0	41	0	1159725056	58	6369
2026-01-24 18:47:12.23	296.54	4.46	-42.9	-44.2	20.2	0.00e+00	0	41	0	1161822208	58	6591
2026-01-24 18:47:13.24	296.44	4.40	-43.4	-44.8	20.1	0.00e+00	0	41	0	1163919360	58	7016
2026-01-24 18:47:14.25	296.34	4.35	-44.1	-45.6	19.4	0.00e+00	0	41	0	1164967936	60	6897
2026-01-24 18:47:15.26	296.24	4.30	-43.3	-44.7	19.9	0.00e+00	0	41	0	1167065088	60	6222
2026-01-24 18:47:16.27	296.15	4.24	-45.5	-47.5	17.3	0.00e+00	0	41	0	1169162240	60	8552
2026-01-24 18:47:17.28	296.05	4.19	-44.4	-46.1	18.7	0.00e+00	0	41	0	1171259392	60	7263
2026-01-24 18:47:18.29	295.95	4.14	-45.0	-46.7	18.1	0.00e+00	0	41	0	1173356544	60	7840
2026-01-24 18:47:19.30	295.86	4.08	-45.9	-48.0	17.4	0.00e+00	0	41	0	1175453696	60	9101
2026-01-24 18:47:20.31	295.76	4.03	-43.9	-45.4	19.7	0.00e+00	0	41	0	1176502272	60	6764
2026-01-24 18:47:21.32	295.67	3.98	-44.4	-46.1	18.1	0.00e+00	0	41	0	1178599424	58	8166
2026-01-24 18:47:22.33	295.57	3.93	-44.8	-46.6	18.2	0.00e+00	0	41	0	1180696576	60	7737
2026-01-24 18:47:23.34	295.48	3.87	-43.1	-44.5	19.7	0.00e+00	0	41	0	1182793728	60	6066
2026-01-24 18:47:24.35	295.38	3.82	-44.5	-46.2	19.0	0.00e+00	0	41	0	1184890880	60	7370
2026-01-24 18:47:25.36	295.29	3.77	-43.5	-45.0	19.4	0.00e+00	0	41	0	1185939456	60	6393
2026-01-24 18:47:26.37	295.19	3.71	-44.6	-46.4	17.8	0.00e+00	0	41	0	1188036608	60	7549
2026-01-24 18:47:27.37	295.10	3.66	-43.2	-44.6	19.3	0.00e+00	0	41	0	1190133760	58	6864
2026-01-24 18:47:28.38	295.01	3.61	-46.0	-48.2	17.0	0.00e+00	0	41	0	1192230912	60	9326
2026-01-24 18:47:29.39	294.92	3.56	-43.5	-45.0	18.8	0.00e+00	0	41	0	1193279488	58	7197
2026-01-24 18:47:30.40	294.82	3.50	-44.1	-45.7	19.1	0.00e+00	0	41	0	1195376640	60	6959
2026-01-24 18:47:31.41	294.73	3.45	-44.5	-46.2	18.4	0.00e+00	0	41	0	1197473792	60	7368
2026-01-24 18:47:32.42	294.64	3.40	-44.3	-45.9	18.7	0.00e+00	0	41	0	1199570944	60	7136
2026-01-24 18:47:33.43	294.55	3.35	-44.0	-45.6	19.1	0.00e+00	0	41	0	1201668096	60	6872
2026-01-24 18:47:34.44	294.46	3.29	-44.2	-45.9	18.7	0.00e+00	0	41	0	1203765248	60	7099
