passes_logs/2026/01/24/R4.6S_Anadyr/R4.6S_Anadyr__20260124_161957_AQUA_rec.log

#Pass ID: 20260124_161957_AQUA
#Satellite: AQUA
#Configuration: AQUA
#almurnet v.1.7.20251203
#Start time: 2026-01-24 16:20:00

#Version: 2.2.20231116
#Station: R4.6S_Anadyr
#Location: 177.4865 lon 64.73178 lat
#TLE: 1 27424U 02022A   26024.20619094  .00002210  00000+0  45203-3 0  9991
#TLE: 2 27424  98.4098 350.7890 0001920  67.0508  46.8248 14.61855013262230

#Time	Az	El	Level	Level2	SNR	BER	BlckErr	Temp	State	Recorded	gain1	gain2
2026-01-24 16:20:00.83	19.78	0.19	-54.0	-70.3	3.3	3.02e+01	0	40	0	0	60	126162
2026-01-24 16:20:01.83	19.79	0.25	-53.1	-71.0	3.5	3.02e+01	0	40	104	0	60	136038
2026-01-24 16:20:02.84	19.80	0.32	-52.8	-70.7	3.5	3.02e+01	0	40	104	0	60	131540
2026-01-24 16:20:03.85	19.80	0.38	-52.5	-70.4	3.5	3.02e+01	0	40	104	0	60	127294
2026-01-24 16:20:04.86	19.81	0.44	-52.4	-70.3	3.5	3.02e+01	0	40	104	0	60	125318
2026-01-24 16:20:05.88	19.82	0.50	-52.5	-70.2	3.5	3.02e+01	0	40	104	0	60	125029
2026-01-24 16:20:06.89	19.82	0.57	-52.4	-70.2	3.5	3.02e+01	0	40	104	0	60	124044
2026-01-24 16:20:07.89	19.83	0.63	-52.6	-70.4	3.5	3.02e+01	0	40	104	0	60	127929
2026-01-24 16:20:08.90	19.84	0.69	-52.6	-70.4	3.5	3.02e+01	0	40	104	0	60	127007
2026-01-24 16:20:09.91	19.85	0.76	-52.3	-70.2	3.5	3.02e+01	0	40	104	0	60	124030
2026-01-24 16:20:10.92	19.85	0.82	-52.3	-70.5	3.5	3.02e+01	0	40	104	0	60	129615
2026-01-24 16:20:11.93	19.86	0.88	-52.3	-70.1	3.5	3.02e+01	0	40	104	0	60	122771
2026-01-24 16:20:12.94	19.87	0.95	-52.3	-70.1	3.5	3.02e+01	0	40	104	0	60	122637
2026-01-24 16:20:13.95	19.88	1.01	-52.1	-70.0	3.5	3.02e+01	0	40	104	0	60	121887
2026-01-24 16:20:14.96	19.88	1.08	-51.9	-69.8	3.5	3.02e+01	0	40	104	0	60	119354
2026-01-24 16:20:15.97	19.89	1.14	-51.7	-69.4	3.5	3.02e+01	0	40	104	0	60	113830
2026-01-24 16:20:16.98	19.90	1.21	-51.6	-69.2	3.5	3.02e+01	0	40	104	0	60	111326
2026-01-24 16:20:17.99	19.90	1.27	-51.5	-68.7	3.5	3.02e+01	0	40	104	0	60	105004
2026-01-24 16:20:19.00	19.91	1.34	-51.3	-68.1	3.5	3.02e+01	0	40	104	0	60	98058
2026-01-24 16:20:20.01	19.92	1.40	-51.1	-67.8	3.5	3.02e+01	0	40	104	0	60	94491
2026-01-24 16:20:21.02	19.93	1.47	-50.9	-68.5	3.5	3.02e+01	0	40	104	0	60	102512
2026-01-24 16:20:22.03	19.93	1.53	-50.8	-68.5	3.5	3.02e+01	0	40	104	0	60	102775
2026-01-24 16:20:23.04	19.94	1.60	-50.7	-68.2	3.5	3.02e+01	0	40	104	0	60	98436
2026-01-24 16:20:24.05	19.95	1.66	-50.7	-68.3	3.5	3.02e+01	0	40	104	0	60	100174
2026-01-24 16:20:25.06	19.96	1.73	-50.7	-68.1	3.5	3.02e+01	0	40	104	0	60	97431
2026-01-24 16:20:26.07	19.96	1.79	-50.7	-68.3	3.5	3.02e+01	0	40	104	0	60	99890
2026-01-24 16:20:27.08	19.97	1.86	-50.7	-68.3	3.5	3.02e+01	0	40	104	0	60	99782
2026-01-24 16:20:28.09	19.98	1.93	-50.7	-68.4	3.5	3.02e+01	0	40	104	0	60	101231
2026-01-24 16:20:29.10	19.99	1.99	-50.9	-68.6	3.5	3.02e+01	0	40	104	0	60	104034
2026-01-24 16:20:30.11	19.99	2.06	-50.8	-68.6	3.5	3.02e+01	0	40	104	0	60	103472
2026-01-24 16:20:31.12	20.00	2.13	-50.8	-68.6	3.5	3.02e+01	0	40	104	0	60	103309
2026-01-24 16:20:32.13	20.01	2.19	-50.8	-68.5	3.5	3.02e+01	0	40	104	0	60	102527
2026-01-24 16:20:33.14	20.02	2.26	-50.8	-68.6	3.5	3.02e+01	0	40	104	0	60	103562
2026-01-24 16:20:34.15	20.02	2.33	-50.8	-68.5	3.5	3.02e+01	0	40	104	0	60	102384
2026-01-24 16:20:35.16	20.03	2.40	-50.8	-68.4	3.5	3.02e+01	0	40	104	0	60	100894
2026-01-24 16:20:36.17	20.04	2.46	-50.7	-68.2	3.5	3.02e+01	0	40	104	0	60	98621
2026-01-24 16:20:37.18	20.05	2.53	-50.5	-67.0	3.5	3.02e+01	0	40	104	0	60	85791
2026-01-24 16:20:38.19	20.05	2.60	-50.8	-68.2	3.5	3.02e+01	0	40	104	0	60	98385
2026-01-24 16:20:39.20	20.06	2.67	-50.5	-66.7	3.5	3.02e+01	0	40	104	0	60	83525
2026-01-24 16:20:40.21	20.07	2.74	-50.6	-67.3	3.5	3.02e+01	0	41	104	0	60	89488
2026-01-24 16:20:41.22	20.08	2.81	-50.4	-66.9	3.5	3.02e+01	0	40	104	0	60	84783
2026-01-24 16:20:42.22	20.09	2.87	-50.5	-66.8	3.5	3.02e+01	0	40	104	0	60	84125
2026-01-24 16:20:43.23	20.09	2.94	-50.2	-65.7	3.5	3.02e+01	0	41	104	0	60	74151
2026-01-24 16:20:44.24	20.10	3.01	-49.9	-64.9	3.5	3.02e+01	0	41	104	0	60	67467
2026-01-24 16:20:45.25	20.11	3.08	-50.0	-65.2	3.5	3.02e+01	0	40	104	0	60	70145
2026-01-24 16:20:46.26	20.12	3.15	-46.7	-58.5	3.5	3.02e+01	0	40	104	0	60	32510
2026-01-24 16:20:47.27	20.12	3.22	-47.4	-59.5	3.5	3.02e+01	0	40	104	0	60	36292
2026-01-24 16:20:48.28	20.13	3.29	-47.7	-60.0	3.5	3.02e+01	0	40	104	0	60	38504
2026-01-24 16:20:49.29	20.14	3.36	-46.2	-57.7	3.5	3.02e+01	0	41	104	0	60	29529
2026-01-24 16:20:50.30	20.15	3.43	-44.8	-55.9	3.6	3.02e+01	0	40	104	0	60	23891
2026-01-24 16:20:51.31	20.16	3.50	-46.3	-57.8	3.5	3.02e+01	0	40	104	0	60	30028
2026-01-24 16:20:52.32	20.16	3.57	-46.6	-58.2	3.5	3.02e+01	0	41	104	0	60	31432
2026-01-24 16:20:53.33	20.17	3.64	-45.1	-56.2	3.5	3.02e+01	0	40	104	0	60	24940
2026-01-24 16:20:54.34	20.18	3.72	-45.1	-56.2	3.5	3.02e+01	0	40	104	0	60	24778
2026-01-24 16:20:55.35	20.19	3.79	-44.7	-55.7	3.5	3.02e+01	0	41	104	0	60	23446
2026-01-24 16:20:56.36	20.19	3.86	-48.2	-60.9	3.5	3.02e+01	0	41	104	0	60	42863
2026-01-24 16:20:57.37	20.20	3.93	-40.1	-50.4	3.5	3.02e+01	0	40	104	0	54	17934
2026-01-24 16:20:58.38	20.21	4.00	-45.2	-56.2	3.5	3.02e+01	0	40	104	0	60	24936
2026-01-24 16:20:59.39	20.22	4.08	-50.5	-68.1	3.5	3.02e+01	0	41	104	0	60	97995
2026-01-24 16:21:00.40	20.23	4.15	-42.4	-53.0	3.5	3.02e+01	0	41	104	0	60	17094
2026-01-24 16:21:01.41	20.23	4.22	-50.4	-65.7	3.5	3.02e+01	0	41	104	0	60	74509
2026-01-24 16:21:02.41	20.24	4.29	-45.2	-56.3	3.5	3.02e+01	0	41	104	0	60	25026
2026-01-24 16:21:03.42	20.25	4.37	-46.4	-57.8	3.5	3.02e+01	0	41	104	0	60	29944
2026-01-24 16:21:04.43	20.26	4.44	-43.2	-53.9	3.5	3.02e+01	0	41	104	0	60	19030
2026-01-24 16:21:05.44	20.27	4.51	-40.6	-51.0	3.5	3.02e+01	0	41	104	0	56	17177
2026-01-24 16:21:06.45	20.28	4.59	-45.9	-57.3	3.5	3.02e+01	0	41	104	0	60	28186
2026-01-24 16:21:07.46	20.28	4.66	-48.8	-61.5	3.6	3.02e+01	0	41	104	0	60	45715
2026-01-24 16:21:08.47	20.29	4.74	-41.6	-52.0	3.5	3.02e+01	0	41	104	0	60	15327
2026-01-24 16:21:09.47	20.30	4.81	-50.6	-67.1	3.5	3.02e+01	0	41	104	0	60	87398
2026-01-24 16:21:10.48	20.31	4.88	-43.3	-53.9	3.5	3.02e+01	0	41	104	0	60	19128
2026-01-24 16:21:11.49	20.32	4.96	-41.7	-52.1	3.4	3.02e+01	0	41	104	0	56	19610
2026-01-24 16:21:12.50	20.32	5.03	-45.6	-56.7	3.5	3.02e+01	0	41	104	0	60	26397
2026-01-24 16:21:13.51	20.33	5.11	-41.8	-52.3	3.5	3.02e+01	0	41	104	0	60	15826
2026-01-24 16:21:14.52	20.34	5.19	-44.5	-55.3	3.5	3.02e+01	0	41	104	0	60	22479
2026-01-24 16:21:15.53	20.35	5.26	-48.2	-60.6	3.6	3.02e+01	0	41	104	0	60	41235
2026-01-24 16:21:16.54	20.36	5.34	-41.4	-51.9	3.5	3.02e+01	0	41	104	0	54	21351
2026-01-24 16:21:17.55	20.37	5.41	-49.5	-63.5	3.6	3.02e+01	0	41	104	0	60	57738
2026-01-24 16:21:18.56	20.37	5.49	-43.1	-53.7	3.5	3.02e+01	0	41	104	0	60	18738
2026-01-24 16:21:19.57	20.38	5.57	-42.8	-53.3	3.5	3.02e+01	0	41	104	0	60	17883
2026-01-24 16:21:20.58	20.39	5.65	-41.6	-52.0	3.5	3.02e+01	0	41	104	0	58	17234
2026-01-24 16:21:21.59	20.40	5.72	-40.8	-51.2	3.5	3.02e+01	0	41	104	0	56	17611
2026-01-24 16:21:22.60	20.41	5.80	-46.9	-58.5	3.5	3.02e+01	0	41	104	0	60	32290
2026-01-24 16:21:23.60	20.42	5.88	-43.9	-54.7	3.5	3.02e+01	0	41	104	0	60	20827
2026-01-24 16:21:24.61	20.42	5.96	-43.3	-53.9	3.5	3.02e+01	0	41	104	0	58	21445
2026-01-24 16:21:25.63	20.43	6.04	-50.3	-65.7	3.5	3.02e+01	0	41	104	0	60	73794
2026-01-24 16:21:26.63	20.44	6.11	-45.5	-56.6	3.5	3.02e+01	0	41	104	0	60	26031
2026-01-24 16:21:27.65	20.45	6.19	-44.8	-55.8	3.6	3.02e+01	0	41	104	0	60	23694
2026-01-24 16:21:28.66	20.46	6.27	-41.2	-51.6	3.5	3.02e+01	0	41	104	0	58	16492
2026-01-24 16:21:29.66	20.47	6.35	-40.6	-51.0	3.5	3.02e+01	0	41	104	0	54	19222
2026-01-24 16:21:30.67	20.48	6.43	-48.1	-60.4	3.5	3.02e+01	0	41	104	0	60	40089
2026-01-24 16:21:31.68	20.49	6.51	-43.8	-54.5	3.5	3.02e+01	0	41	104	0	60	20374
2026-01-24 16:21:32.68	20.49	6.59	-44.2	-55.0	3.5	3.02e+01	0	41	104	0	56	27176
2026-01-24 16:21:33.69	20.50	6.67	-47.7	-59.9	3.6	3.02e+01	0	41	104	0	60	37951
2026-01-24 16:21:34.70	20.51	6.75	-40.4	-50.8	3.6	3.02e+01	0	41	104	0	56	16719
2026-01-24 16:21:35.71	20.52	6.83	-41.2	-51.6	3.5	3.02e+01	0	41	104	0	56	18408
2026-01-24 16:21:36.72	20.53	6.91	-44.9	-55.7	3.5	3.02e+01	0	41	104	0	60	23588
2026-01-24 16:21:37.73	20.54	7.00	-39.9	-50.2	3.5	3.02e+01	0	41	104	0	54	17618
2026-01-24 16:21:38.74	20.55	7.08	-50.6	-65.4	3.5	3.02e+01	0	41	104	0	60	71544
2026-01-24 16:21:39.75	20.56	7.16	-42.0	-52.5	3.5	3.02e+01	0	41	104	0	60	16221
2026-01-24 16:21:40.75	20.56	7.24	-48.7	-61.1	3.5	3.02e+01	0	41	104	0	60	43667
2026-01-24 16:21:41.76	20.57	7.33	-42.9	-53.5	3.5	3.02e+01	0	41	104	0	60	18225
2026-01-24 16:21:42.77	20.58	7.41	-42.1	-52.5	3.5	3.02e+01	0	41	104	0	58	18282
2026-01-24 16:21:43.78	20.59	7.49	-40.9	-51.2	3.5	3.02e+01	0	41	104	0	58	15673
2026-01-24 16:21:44.79	20.60	7.58	-42.4	-52.8	3.5	3.02e+01	0	41	104	0	56	21134
2026-01-24 16:21:45.80	20.61	7.66	-40.8	-51.2	3.5	3.02e+01	0	41	104	0	56	17567
2026-01-24 16:21:46.81	20.62	7.75	-48.2	-60.2	3.4	3.02e+01	0	41	104	0	60	39382
2026-01-24 16:21:47.81	20.63	7.83	-47.5	-59.3	3.5	3.02e+01	0	41	104	0	60	35313
2026-01-24 16:21:48.83	20.64	7.92	-49.0	-61.6	3.4	3.02e+01	0	41	104	0	60	46436
2026-01-24 16:21:49.83	20.65	8.00	-46.0	-57.1	3.5	3.02e+01	0	41	104	0	60	27679
2026-01-24 16:21:50.84	20.66	8.09	-44.9	-55.8	3.5	3.02e+01	0	41	104	0	60	23685
2026-01-24 16:21:51.85	20.66	8.17	-46.3	-57.6	3.5	3.02e+01	0	41	104	0	60	29035
2026-01-24 16:21:52.86	20.67	8.26	-49.7	-62.9	3.5	3.02e+01	0	41	104	0	60	53723
2026-01-24 16:21:53.87	20.68	8.35	-51.4	-69.1	3.5	3.02e+01	0	41	104	0	60	109944
2026-01-24 16:21:54.88	20.69	8.43	-44.0	-54.7	3.5	3.02e+01	0	41	104	0	60	21007
2026-01-24 16:21:55.88	20.70	8.52	-43.3	-53.8	3.5	3.02e+01	0	41	104	0	60	18928
2026-01-24 16:21:56.89	20.71	8.61	-51.5	-68.9	3.5	3.02e+01	0	41	104	0	60	107395
2026-01-24 16:21:57.90	20.72	8.70	-41.9	-52.3	3.6	3.02e+01	0	41	104	0	60	15820
2026-01-24 16:21:58.91	20.73	8.78	-42.6	-53.2	3.5	3.02e+01	0	41	104	0	58	19658
2026-01-24 16:21:59.92	20.74	8.87	-41.4	-51.8	3.5	3.02e+01	0	41	104	0	58	16780
2026-01-24 16:22:00.92	20.75	8.96	-51.5	-69.3	3.5	3.02e+01	0	41	104	0	60	111764
2026-01-24 16:22:01.93	20.76	9.05	-48.7	-61.3	3.5	3.02e+01	0	41	104	0	60	44712
2026-01-24 16:22:02.94	20.77	9.14	-51.4	-68.9	3.5	3.02e+01	0	41	104	0	60	107561
2026-01-24 16:22:03.95	20.78	9.23	-45.2	-56.3	3.5	3.02e+01	0	41	104	0	60	25045
2026-01-24 16:22:04.96	20.79	9.32	-51.1	-67.2	3.5	3.02e+01	0	41	104	0	60	87909
2026-01-24 16:22:05.97	20.80	9.41	-44.6	-55.4	3.5	3.02e+01	0	41	104	0	60	22539
2026-01-24 16:22:06.98	20.81	9.50	-44.0	-54.7	3.5	3.02e+01	0	41	104	0	60	21011
2026-01-24 16:22:07.99	20.82	9.60	-45.0	-56.0	3.5	3.02e+01	0	41	104	0	60	24332
2026-01-24 16:22:08.99	20.83	9.69	-51.3	-67.9	3.5	3.02e+01	0	41	104	0	60	95113
2026-01-24 16:22:10.00	20.84	9.78	-40.9	-51.2	3.6	3.02e+01	0	41	104	0	58	15762
2026-01-24 16:22:11.01	20.85	9.87	-51.5	-68.7	3.5	3.02e+01	0	41	104	0	60	104400
2026-01-24 16:22:12.02	20.86	9.97	-46.6	-57.9	3.5	3.02e+01	0	41	104	0	60	30233
2026-01-24 16:22:13.03	20.87	10.06	-51.5	-68.6	3.5	3.02e+01	0	41	104	0	60	103282
2026-01-24 16:22:14.04	20.88	10.15	-41.4	-51.7	3.5	3.02e+01	0	41	104	0	58	16607
2026-01-24 16:22:15.05	20.89	10.25	-41.3	-51.6	3.6	3.02e+01	0	41	104	0	56	18519
2026-01-24 16:22:16.06	20.90	10.34	-40.7	-51.0	3.5	3.02e+01	0	41	104	0	56	17193
2026-01-24 16:22:17.07	20.91	10.44	-50.1	-64.3	3.5	3.02e+01	0	41	104	0	60	63173
2026-01-24 16:22:18.07	20.92	10.53	-40.8	-51.1	3.5	3.02e+01	0	41	104	0	58	15494
2026-01-24 16:22:19.08	20.93	10.63	-50.4	-68.6	3.5	3.02e+01	0	41	104	0	60	104164
2026-01-24 16:22:20.09	20.94	10.73	-47.8	-59.8	3.5	3.02e+01	0	41	104	0	60	37808
2026-01-24 16:22:21.10	20.95	10.82	-51.5	-68.9	3.5	3.02e+01	0	41	104	0	60	106988
2026-01-24 16:22:22.11	20.96	10.92	-46.6	-58.2	3.5	3.02e+01	0	41	104	0	60	31153
2026-01-24 16:22:23.11	20.97	11.02	-47.1	-59.2	3.5	3.02e+01	0	41	104	0	60	35037
2026-01-24 16:22:24.12	20.98	11.11	-46.8	-58.5	3.5	3.02e+01	0	41	104	0	60	32316
2026-01-24 16:22:25.13	20.99	11.21	-46.7	-58.1	3.5	3.02e+01	0	41	104	0	60	30814
2026-01-24 16:22:26.14	21.00	11.31	-50.9	-68.6	3.5	3.02e+01	0	41	104	0	60	103710
2026-01-24 16:22:27.15	21.01	11.41	-48.8	-61.4	3.5	3.02e+01	0	41	104	0	60	45001
2026-01-24 16:22:28.15	21.02	11.51	-39.3	-49.5	3.6	3.02e+01	0	41	104	0	54	16240
2026-01-24 16:22:29.16	21.03	11.61	-51.6	-68.9	3.5	3.02e+01	0	41	104	0	60	107076
2026-01-24 16:22:30.17	21.04	11.71	-40.8	-51.1	3.5	3.02e+01	0	41	104	0	56	17400
2026-01-24 16:22:31.18	21.05	11.81	-40.5	-50.8	3.6	3.02e+01	0	41	104	0	56	16758
2026-01-24 16:22:32.19	21.06	11.92	-40.5	-50.8	3.6	3.02e+01	0	41	104	0	54	18786
2026-01-24 16:22:33.20	21.07	12.02	-48.6	-60.9	3.5	3.02e+01	0	41	104	0	60	42802
2026-01-24 16:22:34.21	21.09	12.12	-40.4	-50.7	3.5	3.02e+01	0	41	104	0	56	16622
2026-01-24 16:22:35.22	21.10	12.22	-51.6	-68.8	3.5	3.02e+01	0	41	104	0	60	106464
2026-01-24 16:22:36.22	21.11	12.33	-44.1	-54.9	3.6	3.02e+01	0	41	104	0	60	21284
2026-01-24 16:22:37.23	21.12	12.43	-51.4	-69.1	3.5	3.02e+01	0	41	104	0	60	109409
2026-01-24 16:22:38.24	21.13	12.54	-40.7	-51.0	3.5	3.02e+01	0	41	104	0	56	17113
2026-01-24 16:22:39.25	21.14	12.64	-39.6	-49.8	3.5	3.02e+01	0	41	104	0	54	16775
2026-01-24 16:22:40.26	21.15	12.75	-39.5	-49.8	3.6	3.02e+01	0	41	104	0	54	16738
2026-01-24 16:22:41.27	21.16	12.85	-46.0	-57.1	3.6	3.02e+01	0	41	104	0	60	27417
2026-01-24 16:22:42.28	21.17	12.96	-39.9	-50.2	3.5	3.02e+01	0	41	104	0	54	17525
2026-01-24 16:22:43.29	21.19	13.07	-51.8	-69.0	3.5	3.02e+01	0	41	104	0	60	107906
2026-01-24 16:22:44.30	21.20	13.18	-42.2	-52.7	3.5	3.02e+01	0	41	104	0	60	16622
2026-01-24 16:22:45.30	21.21	13.28	-51.7	-69.4	3.5	3.02e+01	0	41	104	0	60	113972
2026-01-24 16:22:46.31	21.22	13.39	-43.5	-54.0	3.6	3.02e+01	0	41	104	0	60	19308
2026-01-24 16:22:47.32	21.23	13.50	-43.7	-54.3	3.5	3.02e+01	0	41	104	0	60	19989
2026-01-24 16:22:48.33	21.24	13.61	-44.1	-54.8	3.5	3.02e+01	0	41	104	0	60	21154
2026-01-24 16:22:49.34	21.26	13.72	-46.2	-57.3	3.6	3.02e+01	0	41	104	0	60	28289
2026-01-24 16:22:50.35	21.27	13.83	-40.9	-51.2	3.5	3.02e+01	0	41	104	0	56	17558
2026-01-24 16:22:51.36	21.28	13.95	-51.4	-67.0	3.5	3.02e+01	0	41	104	0	60	86121
2026-01-24 16:22:52.37	21.29	14.06	-42.0	-52.3	3.6	3.02e+01	0	41	104	0	60	15871
2026-01-24 16:22:53.38	21.30	14.17	-51.4	-68.4	3.5	3.02e+01	0	41	104	0	60	100975
2026-01-24 16:22:54.39	21.31	14.28	-43.4	-53.9	3.5	3.02e+01	0	41	104	0	60	19177
2026-01-24 16:22:55.40	21.33	14.40	-43.2	-53.7	3.6	3.02e+01	0	41	104	0	60	18619
2026-01-24 16:22:56.41	21.34	14.51	-41.9	-52.2	3.4	3.02e+01	0	41	104	0	60	15732
2026-01-24 16:22:57.42	21.35	14.63	-39.3	-49.4	3.6	3.02e+01	0	41	104	0	54	16125
2026-01-24 16:22:58.42	21.36	14.74	-39.7	-49.9	3.5	3.02e+01	0	41	104	0	54	16928
2026-01-24 16:22:59.43	21.38	14.86	-51.6	-68.3	3.5	3.02e+01	0	41	104	0	60	100188
2026-01-24 16:23:00.44	21.39	14.98	-38.9	-49.1	3.5	3.02e+01	0	41	104	0	56	13852
2026-01-24 16:23:01.45	21.40	15.09	-49.9	-63.4	3.6	3.02e+01	0	41	104	0	60	56790
2026-01-24 16:23:02.46	21.41	15.21	-39.7	-49.9	3.5	3.02e+01	0	41	104	0	54	16961
2026-01-24 16:23:03.47	21.43	15.33	-38.8	-49.0	3.5	3.02e+01	0	41	104	0	52	17284
2026-01-24 16:23:04.48	21.44	15.45	-40.3	-50.6	3.5	3.02e+01	0	41	104	0	54	18397
2026-01-24 16:23:05.49	21.45	15.57	-43.2	-53.7	3.5	3.02e+01	0	41	104	0	60	18717
2026-01-24 16:23:06.49	21.46	15.69	-40.5	-50.8	3.5	3.02e+01	0	41	104	0	54	18813
2026-01-24 16:23:07.50	21.48	15.81	-50.0	-63.4	3.5	3.02e+01	0	41	104	0	60	56766
2026-01-24 16:23:08.51	21.49	15.94	-39.1	-49.3	3.6	3.02e+01	0	41	104	0	56	14082
2026-01-24 16:23:09.52	21.50	16.06	-51.4	-68.3	3.6	3.02e+01	0	41	104	0	60	99571
2026-01-24 16:23:10.53	21.52	16.18	-42.3	-52.8	3.5	3.02e+01	0	41	104	0	60	16738
2026-01-24 16:23:11.54	21.53	16.31	-42.9	-53.3	3.5	3.02e+01	0	41	104	0	58	20062
2026-01-24 16:23:12.55	21.54	16.43	-44.9	-55.6	3.5	3.02e+01	0	41	104	0	60	23060
2026-01-24 16:23:13.56	21.56	16.56	-44.7	-55.4	3.5	3.02e+01	0	41	104	0	60	22597
2026-01-24 16:23:14.56	21.57	16.68	-41.0	-51.3	3.5	3.02e+01	0	41	104	0	52	22405
2026-01-24 16:23:15.58	21.58	16.81	-49.9	-62.9	3.5	3.02e+01	0	41	104	0	60	53971
2026-01-24 16:23:16.59	21.60	16.94	-39.4	-49.6	3.5	3.02e+01	0	41	104	0	56	14637
2026-01-24 16:23:17.59	21.61	17.07	-49.6	-62.4	3.6	3.02e+01	0	41	104	0	60	50483
2026-01-24 16:23:18.60	21.62	17.20	-44.0	-54.5	3.5	3.02e+01	0	41	104	0	60	20496
2026-01-24 16:23:19.61	21.64	17.33	-43.4	-53.9	3.5	3.02e+01	0	41	104	0	60	19088
2026-01-24 16:23:20.62	21.65	17.46	-40.5	-50.7	3.5	3.02e+01	0	41	104	0	58	14844
2026-01-24 16:23:21.63	21.67	17.59	-38.9	-49.1	3.5	3.02e+01	0	41	104	0	52	17379
2026-01-24 16:23:22.64	21.68	17.72	-45.9	-56.9	3.6	3.02e+01	0	41	104	0	58	30344
2026-01-24 16:23:23.65	21.69	17.85	-46.7	-58.0	3.5	3.02e+01	0	41	104	0	60	30569
2026-01-24 16:23:24.66	21.71	17.99	-41.4	-51.7	3.5	3.02e+01	0	41	104	0	54	20925
2026-01-24 16:23:25.66	21.72	18.12	-48.6	-61.0	3.6	3.02e+01	0	41	104	0	60	43152
2026-01-24 16:23:26.67	21.74	18.26	-43.1	-53.6	3.5	3.02e+01	0	41	104	0	60	18351
2026-01-24 16:23:27.68	21.75	18.40	-42.3	-52.7	3.5	3.02e+01	0	41	104	0	60	16565
2026-01-24 16:23:28.69	21.77	18.53	-39.7	-50.0	3.5	3.02e+01	0	41	104	0	56	15284
2026-01-24 16:23:29.70	21.78	18.67	-38.4	-48.6	3.5	3.02e+01	0	41	104	0	52	16432
2026-01-24 16:23:30.70	21.80	18.81	-47.3	-58.7	3.5	3.02e+01	0	41	104	0	60	33089
2026-01-24 16:23:31.72	21.81	18.95	-44.4	-55.2	3.5	3.02e+01	0	41	104	0	60	22132
2026-01-24 16:23:32.73	21.83	19.09	-43.4	-54.0	3.5	3.02e+01	0	41	104	0	52	30510
2026-01-24 16:23:33.74	21.84	19.23	-43.1	-53.6	3.5	3.02e+01	0	41	104	0	60	18491
2026-01-24 16:23:34.75	21.86	19.38	-38.6	-48.8	3.6	3.02e+01	0	41	104	0	52	16744
2026-01-24 16:23:35.75	21.87	19.52	-38.8	-49.0	3.5	3.02e+01	0	41	104	0	52	17235
2026-01-24 16:23:36.76	21.89	19.66	-48.5	-60.4	3.5	3.02e+01	0	41	104	0	60	40290
2026-01-24 16:23:37.77	21.90	19.81	-39.6	-49.8	3.5	3.02e+01	0	41	104	0	54	16830
2026-01-24 16:23:38.78	21.92	19.95	-51.6	-67.6	3.5	3.02e+01	0	41	104	0	60	92578
2026-01-24 16:23:39.79	21.94	20.10	-46.4	-57.6	3.5	3.02e+01	0	41	104	0	60	29292
2026-01-24 16:23:40.80	21.95	20.25	-49.4	-62.1	3.5	3.02e+01	0	41	104	0	60	49104
2026-01-24 16:23:41.81	21.97	20.40	-45.8	-56.8	3.5	3.02e+01	0	41	104	0	60	26532
2026-01-24 16:23:42.81	21.98	20.55	-44.3	-55.0	3.5	3.02e+01	0	41	104	0	60	21521
2026-01-24 16:23:43.82	22.00	20.70	-44.1	-54.7	3.5	3.02e+01	0	42	104	0	60	21000
2026-01-24 16:23:44.83	22.02	20.85	-39.1	-49.3	3.5	3.02e+01	0	41	104	0	52	17752
2026-01-24 16:23:45.84	22.03	21.00	-39.1	-49.3	3.5	3.02e+01	0	41	104	0	52	17873
2026-01-24 16:23:46.85	22.05	21.16	-51.8	-68.5	3.5	3.02e+01	0	41	104	0	60	102236
2026-01-24 16:23:47.86	22.07	21.31	-46.1	-57.1	3.5	3.02e+01	0	41	104	0	60	27697
2026-01-24 16:23:48.86	22.08	21.47	-50.4	-64.2	3.5	3.02e+01	0	42	104	0	60	62164
2026-01-24 16:23:49.87	22.10	21.63	-45.2	-56.1	3.5	3.02e+01	0	41	104	0	60	24665
2026-01-24 16:23:50.88	22.12	21.78	-42.9	-53.4	3.5	3.02e+01	0	41	104	0	60	18084
2026-01-24 16:23:51.89	22.14	21.94	-43.4	-53.9	3.5	3.02e+01	0	41	104	0	58	21491
2026-01-24 16:23:52.90	22.15	22.10	-41.1	-51.4	3.6	3.02e+01	0	41	104	0	56	17947
2026-01-24 16:23:53.91	22.17	22.27	-39.3	-49.5	3.5	3.02e+01	0	41	104	0	52	18136
2026-01-24 16:23:54.92	22.19	22.43	-51.9	-68.7	3.5	3.02e+01	0	41	104	0	60	105340
2026-01-24 16:23:55.93	22.21	22.59	-46.1	-57.2	3.5	3.02e+01	0	41	104	0	60	28033
2026-01-24 16:23:56.93	22.23	22.76	-51.0	-65.6	3.5	3.02e+01	0	41	104	0	60	73581
2026-01-24 16:23:57.94	22.24	22.92	-40.2	-50.4	3.6	3.02e+01	0	41	104	0	56	16021
2026-01-24 16:23:58.95	22.26	23.09	-39.8	-50.1	3.5	3.02e+01	0	41	104	0	54	17441
2026-01-24 16:23:59.96	22.28	23.26	-39.4	-49.6	3.5	3.02e+01	0	41	104	0	54	16439
2026-01-24 16:24:00.96	22.30	23.43	-48.7	-60.9	3.5	3.02e+01	0	41	104	0	60	42779
2026-01-24 16:24:01.97	22.32	23.60	-40.0	-50.2	3.5	3.02e+01	0	41	104	0	54	17679
2026-01-24 16:24:02.98	22.34	23.77	-52.1	-69.7	3.5	3.02e+01	0	41	104	0	60	117272
2026-01-24 16:24:03.99	22.36	23.94	-47.3	-58.8	3.5	3.02e+01	0	41	104	0	60	33444
2026-01-24 16:24:05.00	22.38	24.12	-52.1	-69.5	3.5	3.02e+01	0	41	104	0	60	115178
2026-01-24 16:24:06.01	22.40	24.30	-41.2	-51.4	3.5	3.02e+01	0	41	104	0	58	16127
2026-01-24 16:24:07.02	22.42	24.47	-40.9	-51.2	3.6	3.02e+01	0	41	104	0	56	17541
2026-01-24 16:24:08.03	22.44	24.65	-40.1	-50.4	3.5	3.02e+01	0	41	104	0	54	17958
2026-01-24 16:24:09.04	22.46	24.83	-49.5	-62.2	3.5	3.02e+01	0	41	104	0	60	49742
2026-01-24 16:24:10.05	22.48	25.01	-40.7	-51.0	3.5	3.02e+01	0	41	104	0	54	19357
2026-01-24 16:24:11.05	22.50	25.19	-51.9	-69.2	3.5	3.02e+01	0	41	104	0	60	111523
2026-01-24 16:24:12.06	22.52	25.38	-49.4	-62.0	3.5	3.02e+01	0	41	104	0	60	48240
2026-01-24 16:24:13.07	22.54	25.56	-52.1	-69.4	3.5	3.02e+01	0	41	104	0	60	113251
2026-01-24 16:24:14.08	22.56	25.75	-43.3	-53.8	3.5	3.02e+01	0	41	104	0	60	18826
2026-01-24 16:24:15.09	22.58	25.94	-45.6	-56.5	3.5	3.02e+01	0	41	104	0	60	25638
2026-01-24 16:24:16.10	22.61	26.13	-44.7	-55.4	3.5	3.02e+01	0	41	104	0	60	22593
2026-01-24 16:24:17.11	22.63	26.32	-42.7	-53.1	3.5	3.02e+01	0	41	104	0	60	17327
2026-01-24 16:24:18.11	22.65	26.51	-40.5	-50.9	3.5	3.02e+01	0	41	104	0	54	18964
2026-01-24 16:24:19.12	22.67	26.71	-52.0	-69.1	3.5	3.02e+01	0	41	104	0	60	109741
2026-01-24 16:24:20.13	22.70	26.90	-47.1	-58.5	3.6	3.02e+01	0	41	104	0	60	32303
2026-01-24 16:24:21.14	22.72	27.10	-52.3	-70.1	3.5	3.02e+01	0	41	104	0	60	123700
2026-01-24 16:24:22.15	22.74	27.30	-42.5	-52.9	3.5	3.02e+01	0	41	104	0	60	16978
2026-01-24 16:24:23.15	22.76	27.50	-41.2	-51.5	3.5	3.02e+01	0	41	104	0	58	16269
2026-01-24 16:24:24.16	22.79	27.70	-41.9	-52.2	3.6	3.02e+01	0	41	104	0	58	17687
2026-01-24 16:24:25.17	22.81	27.90	-40.5	-50.8	3.5	3.02e+01	0	41	104	0	56	16878
2026-01-24 16:24:26.18	22.84	28.11	-40.3	-50.6	3.5	3.02e+01	0	41	104	0	54	18346
2026-01-24 16:24:27.19	22.86	28.31	-52.1	-69.1	3.5	3.02e+01	0	41	104	0	60	109783
2026-01-24 16:24:28.19	22.89	28.52	-48.2	-60.0	3.5	3.02e+01	0	41	104	0	60	38475
2026-01-24 16:24:29.20	22.91	28.73	-52.2	-69.4	3.5	3.02e+01	0	41	104	0	60	114172
2026-01-24 16:24:30.21	22.94	28.94	-38.7	-48.9	3.5	3.02e+01	0	42	104	0	52	16956
2026-01-24 16:24:31.22	22.96	29.16	-38.9	-49.1	3.5	3.02e+01	0	41	104	0	52	17380
2026-01-24 16:24:32.23	22.99	29.37	-38.9	-49.0	3.5	3.02e+01	0	42	104	0	52	17131
2026-01-24 16:24:33.24	23.01	29.59	-49.8	-62.9	3.5	3.02e+01	0	42	104	0	60	54008
2026-01-24 16:24:34.25	23.04	29.81	-39.8	-50.1	3.5	3.02e+01	0	41	104	0	52	19547
2026-01-24 16:24:35.25	23.07	30.03	-52.0	-69.1	3.5	3.02e+01	0	41	104	0	60	109551
2026-01-24 16:24:36.26	23.09	30.25	-45.3	-56.2	3.5	3.02e+01	0	41	104	0	60	24762
2026-01-24 16:24:37.27	23.12	30.47	-51.9	-69.0	3.5	3.02e+01	0	41	104	0	60	108200
2026-01-24 16:24:38.28	23.15	30.70	-43.0	-53.4	3.5	3.02e+01	0	42	104	0	60	18057
2026-01-24 16:24:39.29	23.18	30.93	-43.3	-53.8	3.5	3.02e+01	0	42	104	0	60	18774
2026-01-24 16:24:40.30	23.21	31.16	-42.6	-53.0	3.6	3.02e+01	0	42	104	0	60	17202
2026-01-24 16:24:41.31	23.23	31.39	-40.0	-50.2	3.6	3.02e+01	0	42	104	0	56	15665
2026-01-24 16:24:42.32	23.26	31.63	-39.3	-49.4	3.6	3.02e+01	0	42	104	0	52	18090
2026-01-24 16:24:43.33	23.29	31.86	-52.4	-70.0	3.5	3.02e+01	0	42	104	0	60	121174
2026-01-24 16:24:44.34	23.32	32.10	-44.9	-55.6	3.5	3.02e+01	0	42	104	0	60	23229
2026-01-24 16:24:45.35	23.35	32.34	-52.5	-70.1	3.5	3.02e+01	0	42	104	0	60	122406
2026-01-24 16:24:46.35	23.38	32.58	-42.1	-52.5	3.5	3.02e+01	0	42	104	0	60	16259
2026-01-24 16:24:47.36	23.42	32.82	-42.3	-52.7	3.5	3.02e+01	0	42	104	0	58	18564
2026-01-24 16:24:48.37	23.45	33.07	-41.3	-51.5	3.6	3.02e+01	0	42	104	0	58	16217
2026-01-24 16:24:49.38	23.48	33.32	-39.6	-49.8	3.5	3.02e+01	0	42	104	0	54	16862
2026-01-24 16:24:50.39	23.51	33.57	-40.4	-50.6	3.5	3.02e+01	0	41	104	0	56	16503
2026-01-24 16:24:51.40	23.54	33.82	-52.3	-69.8	3.5	3.02e+01	0	41	104	0	60	119022
2026-01-24 16:24:52.41	23.58	34.08	-44.4	-55.1	3.5	3.02e+01	0	42	104	0	60	21840
2026-01-24 16:24:53.41	23.61	34.33	-52.0	-68.5	3.5	3.02e+01	0	42	104	0	60	102275
2026-01-24 16:24:54.42	23.65	34.59	-46.0	-57.0	3.5	3.02e+01	0	41	104	0	60	27097
2026-01-24 16:24:55.43	23.68	34.86	-46.3	-57.2	3.5	3.02e+01	0	41	104	0	60	27942
2026-01-24 16:24:56.44	23.72	35.12	-44.3	-54.8	3.5	3.02e+01	0	42	104	0	60	21256
2026-01-24 16:24:57.45	23.75	35.39	-46.6	-57.6	3.5	3.02e+01	0	41	104	0	60	29124
2026-01-24 16:24:58.46	23.79	35.66	-49.0	-61.2	3.6	3.02e+01	0	42	104	0	60	44307
2026-01-24 16:24:59.47	23.83	35.93	-45.6	-56.5	3.6	3.02e+01	0	42	104	0	60	25784
2026-01-24 16:25:00.48	23.86	36.20	-41.7	-52.0	3.4	3.02e+01	0	41	104	0	56	19270
2026-01-24 16:25:01.49	23.90	36.48	-52.0	-68.2	3.5	3.02e+01	0	42	104	0	60	98555
2026-01-24 16:25:02.50	23.94	36.76	-43.4	-53.9	3.5	3.02e+01	0	41	104	0	60	19032
2026-01-24 16:25:03.51	23.98	37.04	-43.2	-53.7	3.5	3.02e+01	0	42	104	0	60	18686
2026-01-24 16:25:04.52	24.02	37.33	-45.8	-56.7	3.5	3.02e+01	0	41	104	0	60	26226
2026-01-24 16:25:05.53	24.06	37.61	-52.1	-68.5	3.5	3.02e+01	0	41	104	0	60	102337
2026-01-24 16:25:06.54	24.10	37.90	-46.1	-56.9	3.5	3.02e+01	0	42	104	0	60	27067
2026-01-24 16:25:07.54	24.14	38.19	-51.9	-68.3	3.6	3.02e+01	0	42	104	0	60	100172
2026-01-24 16:25:08.55	24.19	38.49	-43.9	-54.4	3.5	3.02e+01	0	42	104	0	60	20136
2026-01-24 16:25:09.56	24.23	38.79	-52.4	-69.7	3.6	3.02e+01	0	42	104	0	60	118093
2026-01-24 16:25:10.57	24.27	39.09	-45.6	-56.5	3.5	3.02e+01	0	41	104	0	60	25860
2026-01-24 16:25:11.57	24.32	39.39	-45.2	-56.0	3.5	3.02e+01	0	42	104	0	60	24269
2026-01-24 16:25:12.58	24.36	39.69	-41.8	-52.2	3.5	3.02e+01	0	41	104	0	60	15677
2026-01-24 16:25:13.59	24.41	40.00	-41.4	-51.7	3.5	3.02e+01	0	42	104	0	60	14744
2026-01-24 16:25:14.60	24.46	40.31	-44.9	-55.5	3.5	3.02e+01	0	42	104	0	58	25869
2026-01-24 16:25:15.61	24.51	40.63	-51.1	-65.3	3.5	3.02e+01	0	42	104	0	60	71006
2026-01-24 16:25:16.62	24.56	40.94	-41.5	-51.9	3.5	3.02e+01	0	42	104	0	58	17039
2026-01-24 16:25:17.63	24.61	41.27	-50.2	-63.3	3.5	3.02e+01	0	42	104	0	60	56200
2026-01-24 16:25:18.64	24.66	41.59	-44.2	-54.7	3.5	3.02e+01	0	42	104	0	60	20814
2026-01-24 16:25:19.65	24.71	41.92	-42.7	-53.0	3.5	3.02e+01	0	42	104	0	60	17265
2026-01-24 16:25:20.66	24.76	42.25	-39.7	-49.9	3.5	3.02e+01	0	42	104	0	54	17078
2026-01-24 16:25:21.67	24.82	42.58	-39.8	-50.0	3.5	3.02e+01	0	42	104	0	54	17126
2026-01-24 16:25:22.68	24.87	42.91	-50.1	-63.5	3.5	3.02e+01	0	41	104	0	60	57325
2026-01-24 16:25:23.69	24.93	43.25	-48.8	-60.8	3.5	3.02e+01	0	41	104	0	60	42274
2026-01-24 16:25:24.70	24.99	43.59	-43.9	-54.4	3.5	3.02e+01	0	42	104	0	56	25387
2026-01-24 16:25:25.71	25.04	43.94	-44.0	-54.4	3.6	3.02e+01	0	41	104	0	60	20297
2026-01-24 16:25:26.72	25.10	44.29	-39.4	-49.6	3.5	3.02e+01	0	42	104	0	54	16431
2026-01-24 16:25:27.72	25.16	44.64	-40.7	-50.9	3.6	3.02e+01	0	41	104	0	56	17046
2026-01-24 16:25:28.73	25.23	44.99	-44.2	-54.8	3.5	3.02e+01	0	41	104	0	58	23749
2026-01-24 16:25:29.74	25.29	45.35	-39.6	-49.8	3.5	3.02e+01	0	42	104	0	54	16847
2026-01-24 16:25:30.75	25.35	45.71	-51.9	-66.7	3.5	3.02e+01	0	42	104	0	60	83186
2026-01-24 16:25:31.76	25.42	46.08	-44.0	-54.4	3.5	3.02e+01	0	42	104	0	60	20298
2026-01-24 16:25:32.77	25.49	46.45	-44.3	-55.0	3.5	3.02e+01	0	42	104	0	54	30588
2026-01-24 16:25:33.78	25.56	46.82	-47.1	-58.5	3.5	3.02e+01	0	42	104	0	60	32200
2026-01-24 16:25:34.79	25.63	47.20	-43.2	-53.7	3.5	3.02e+01	0	42	104	0	60	18572
2026-01-24 16:25:35.80	25.70	47.57	-43.2	-53.7	3.5	3.02e+01	0	41	104	0	60	18607
2026-01-24 16:25:36.81	25.78	47.96	-40.5	-50.8	3.5	3.02e+01	0	42	104	0	56	16748
2026-01-24 16:25:37.82	25.85	48.34	-40.6	-50.9	3.5	3.02e+01	0	41	104	0	54	19157
2026-01-24 16:25:38.83	25.93	48.73	-52.5	-69.2	3.5	3.02e+01	0	41	104	0	60	111353
2026-01-24 16:25:39.83	26.01	49.12	-48.9	-60.8	3.5	3.02e+01	0	42	104	0	60	42199
2026-01-24 16:25:40.84	26.09	49.52	-49.2	-61.2	3.5	3.02e+01	0	42	104	0	60	44094
2026-01-24 16:25:41.85	26.18	49.92	-43.3	-53.8	3.6	3.02e+01	0	42	104	0	60	18856
2026-01-24 16:25:42.86	26.26	50.33	-42.0	-52.2	3.5	3.02e+01	0	41	104	0	58	17692
2026-01-24 16:25:43.87	26.35	50.73	-42.1	-52.4	3.5	3.02e+01	0	42	104	0	58	18084
2026-01-24 16:25:44.88	26.44	51.14	-43.2	-53.8	3.5	3.02e+01	0	41	104	0	56	23694
2026-01-24 16:25:45.89	26.54	51.56	-39.0	-49.1	3.5	3.02e+01	0	42	104	0	52	17488
2026-01-24 16:25:46.90	26.63	51.98	-52.2	-68.5	3.5	3.02e+01	0	41	104	0	60	102001
2026-01-24 16:25:47.91	26.73	52.40	-50.1	-62.9	3.5	3.02e+01	0	41	104	0	60	53867
2026-01-24 16:25:48.92	26.83	52.83	-50.0	-62.8	3.5	3.02e+01	0	41	104	0	60	52819
2026-01-24 16:25:49.93	26.94	53.26	-38.9	-49.0	3.5	3.02e+01	0	41	104	0	54	15285
2026-01-24 16:25:50.94	27.04	53.69	-39.2	-49.4	3.5	3.02e+01	0	42	104	0	52	18065
2026-01-24 16:25:51.94	27.15	54.13	-38.8	-48.9	3.5	3.02e+01	0	41	104	0	52	17063
2026-01-24 16:25:52.95	27.27	54.57	-52.0	-68.3	3.5	3.02e+01	0	41	104	0	60	99601
2026-01-24 16:25:53.96	27.39	55.02	-39.8	-50.0	3.5	3.02e+01	0	41	104	0	54	17148
2026-01-24 16:25:54.97	27.51	55.47	-52.4	-68.6	3.5	3.02e+01	0	41	104	0	60	103118
2026-01-24 16:25:55.98	27.63	55.92	-49.8	-62.2	3.5	3.02e+01	0	42	104	0	60	49654
2026-01-24 16:25:56.99	27.76	56.38	-52.6	-69.7	3.5	3.02e+01	0	41	104	0	60	118083
2026-01-24 16:25:58.00	27.89	56.84	-42.4	-52.6	3.5	3.02e+01	0	41	104	0	60	16488
2026-01-24 16:25:59.01	28.03	57.30	-43.0	-53.4	3.5	3.02e+01	0	41	104	0	60	17940
2026-01-24 16:26:00.02	28.17	57.77	-43.5	-53.9	3.5	3.02e+01	0	41	104	0	60	19172
2026-01-24 16:26:01.03	28.32	58.24	-45.5	-56.3	3.5	3.02e+01	0	41	104	0	60	25238
2026-01-24 16:26:02.04	28.47	58.72	-41.5	-51.7	3.5	3.02e+01	0	41	104	0	56	18721
2026-01-24 16:26:03.05	28.63	59.20	-52.4	-68.6	3.5	3.02e+01	0	41	104	0	60	104024
2026-01-24 16:26:04.06	28.80	59.68	-49.5	-61.8	3.5	3.02e+01	0	41	104	0	60	47322
2026-01-24 16:26:05.07	28.97	60.17	-52.8	-69.9	3.5	3.02e+01	0	41	104	0	60	120784
2026-01-24 16:26:06.07	29.14	60.66	-43.5	-53.9	3.6	3.02e+01	0	41	104	0	60	19004
2026-01-24 16:26:07.08	29.32	61.15	-44.2	-54.6	3.5	3.02e+01	0	41	104	0	60	20670
2026-01-24 16:26:08.09	29.51	61.65	-45.4	-56.0	3.5	3.02e+01	0	41	104	0	60	24249
2026-01-24 16:26:09.10	29.71	62.16	-49.2	-61.3	3.5	3.02e+01	0	41	104	0	60	44937
2026-01-24 16:26:10.11	29.92	62.66	-42.9	-53.2	3.5	3.02e+01	0	41	104	0	60	17504
2026-01-24 16:26:11.12	30.13	63.17	-52.5	-69.7	3.5	3.02e+01	0	41	104	0	60	116897
2026-01-24 16:26:12.13	30.36	63.68	-51.5	-65.7	3.5	3.02e+01	0	41	104	0	60	74264
2026-01-24 16:26:13.14	30.59	64.20	-52.6	-70.1	3.5	3.02e+01	0	41	104	0	60	122522
2026-01-24 16:26:14.15	30.84	64.72	-46.5	-57.5	3.5	3.02e+01	0	41	104	0	60	28800
2026-01-24 16:26:15.16	31.10	65.24	-44.9	-55.6	3.5	3.02e+01	0	41	104	0	60	23116
2026-01-24 16:26:16.17	31.37	65.77	-45.0	-55.5	3.5	3.02e+01	0	41	104	0	60	23001
2026-01-24 16:26:17.18	31.65	66.30	-51.3	-64.9	3.5	3.02e+01	0	41	104	0	60	67814
2026-01-24 16:26:18.18	31.94	66.83	-45.3	-56.0	3.5	3.02e+01	0	41	104	0	60	24254
2026-01-24 16:26:19.19	32.25	67.36	-52.3	-69.5	3.5	3.02e+01	0	41	104	0	60	115190
2026-01-24 16:26:20.20	32.58	67.90	-49.9	-62.4	3.6	3.02e+01	0	41	104	0	60	50498
2026-01-24 16:26:21.21	32.93	68.44	-52.4	-70.1	3.5	3.02e+01	0	41	104	0	60	122791
2026-01-24 16:26:22.22	33.29	68.99	-44.4	-55.0	3.5	3.02e+01	0	41	104	0	60	21641
2026-01-24 16:26:23.23	33.68	69.53	-44.8	-55.4	3.6	3.02e+01	0	41	104	0	60	22781
2026-01-24 16:26:24.23	34.08	70.08	-44.6	-55.2	3.5	3.02e+01	0	41	104	0	60	22096
2026-01-24 16:26:25.24	34.51	70.63	-53.1	-70.6	3.5	3.02e+01	0	41	104	0	60	130647
2026-01-24 16:26:26.25	34.97	71.18	-45.1	-55.6	3.5	3.02e+01	0	41	104	0	60	23306
2026-01-24 16:26:27.26	35.46	71.74	-52.4	-69.7	3.5	3.02e+01	0	41	104	0	60	117517
2026-01-24 16:26:28.27	35.98	72.29	-49.2	-61.6	3.5	3.02e+01	0	41	104	0	60	46139
2026-01-24 16:26:29.28	36.54	72.85	-52.7	-70.2	3.5	3.02e+01	0	41	104	0	60	124960
2026-01-24 16:26:30.28	37.13	73.41	-44.7	-55.1	3.6	3.02e+01	0	41	104	0	60	21869
2026-01-24 16:26:31.29	37.77	73.97	-45.4	-47.6	5.2	3.02e+01	0	41	104	0	60	9262
2026-01-24 16:26:32.30	38.46	74.53	-43.8	-45.4	25.0	3.02e+01	59	41	0	0	60	7146
2026-01-24 16:26:33.31	39.20	75.09	-46.0	-47.9	22.6	3.02e+01	49	41	0	2097152	60	9607
2026-01-24 16:26:34.32	40.00	75.65	-44.7	-46.4	23.7	3.02e+01	57	41	0	3670016	60	8082
2026-01-24 16:26:35.33	40.87	76.21	-43.3	-44.8	25.5	3.02e+01	61	41	0	5767168	60	6697
2026-01-24 16:26:36.34	41.81	76.77	-44.9	-46.7	24.2	3.02e+01	57	41	0	7340032	60	8292
2026-01-24 16:26:37.34	42.83	77.33	-43.4	-44.9	25.0	3.02e+01	61	41	0	9437184	60	6800
2026-01-24 16:26:38.35	43.96	77.88	-42.4	-43.8	26.1	3.02e+01	55	41	0	11534336	60	5985
2026-01-24 16:26:39.36	45.20	78.43	-42.5	-43.9	26.2	3.02e+01	55	41	0	13107200	60	6052
2026-01-24 16:26:40.37	46.56	78.98	-42.0	-43.4	26.6	3.02e+01	56	41	0	15204352	58	6407
2026-01-24 16:26:41.38	48.07	79.53	-42.3	-43.7	26.1	3.02e+01	42	41	0	17301504	58	6605
2026-01-24 16:26:42.39	49.75	80.07	-41.0	-42.4	27.3	3.02e+01	59	41	0	18874368	58	5661
2026-01-24 16:26:43.40	51.62	80.60	-40.8	-42.1	27.7	3.02e+01	56	41	0	20971520	56	6153
2026-01-24 16:26:44.41	53.72	81.12	-40.8	-42.1	27.8	3.02e+01	58	41	0	22544384	56	6152
2026-01-24 16:26:45.41	56.05	81.62	-40.8	-42.1	27.9	3.02e+01	61	41	0	24641536	56	6155
2026-01-24 16:26:46.42	58.71	82.12	-40.1	-41.3	28.1	3.02e+01	53	41	0	26738688	54	6326
2026-01-24 16:26:47.43	61.72	82.59	-40.5	-41.8	27.8	3.02e+01	61	41	0	28311552	54	6664
2026-01-24 16:26:48.44	65.13	83.05	-39.7	-40.9	28.5	3.02e+01	58	41	0	30408704	54	6063
2026-01-24 16:26:49.45	69.02	83.47	-39.7	-40.9	28.4	3.02e+01	48	41	0	31981568	54	6061
2026-01-24 16:26:50.46	73.42	83.87	-40.2	-41.5	28.4	3.02e+01	60	41	0	34078720	54	6468
2026-01-24 16:26:51.47	78.40	84.22	-39.9	-41.1	28.4	3.02e+01	61	41	0	36175872	54	6204
2026-01-24 16:26:52.48	83.99	84.53	-39.9	-41.1	28.5	3.02e+01	59	41	0	37748736	54	6180
2026-01-24 16:26:53.48	90.11	84.77	-40.1	-41.4	28.1	3.02e+01	62	41	0	39845888	54	6374
2026-01-24 16:26:54.49	96.82	84.95	-39.9	-41.2	28.2	3.02e+01	49	41	0	41943040	54	6210
2026-01-24 16:26:55.51	104.00	85.06	-39.7	-40.9	28.1	3.02e+01	58	41	0	43515904	54	6064
2026-01-24 16:26:56.51	111.24	85.09	-40.4	-41.6	28.0	3.02e+01	59	41	0	45613056	54	6553
2026-01-24 16:26:57.52	118.53	85.05	-39.3	-40.6	28.7	3.02e+01	56	41	0	47185920	54	5794
2026-01-24 16:26:58.53	125.57	84.92	-39.5	-40.8	28.4	3.02e+01	58	41	0	49283072	54	5937
2026-01-24 16:26:59.54	132.17	84.72	-39.0	-40.2	28.9	3.02e+01	47	41	0	51380224	52	6220
2026-01-24 16:27:00.55	138.22	84.46	-39.1	-40.3	28.9	3.02e+01	62	41	0	52953088	52	6321
2026-01-24 16:27:01.56	143.67	84.14	-39.0	-40.2	29.1	3.02e+01	58	41	0	55050240	52	6220
2026-01-24 16:27:02.57	148.51	83.78	-39.5	-40.8	28.6	3.02e+01	48	41	0	56623104	52	6660
2026-01-24 16:27:03.58	152.79	83.38	-38.9	-40.1	28.9	3.02e+01	59	41	0	58720256	52	6188
2026-01-24 16:27:04.59	156.56	82.94	-39.5	-40.7	28.4	3.02e+01	59	41	0	60817408	52	6639
2026-01-24 16:27:05.60	159.88	82.48	-39.8	-41.1	27.9	3.02e+01	60	41	0	62390272	52	6912
2026-01-24 16:27:06.61	162.81	82.00	-39.6	-40.9	28.2	3.02e+01	59	41	0	64487424	52	6769
2026-01-24 16:27:07.62	165.39	81.50	-38.9	-40.1	28.9	3.02e+01	53	41	0	66060288	52	6196
2026-01-24 16:27:08.63	167.68	80.99	-39.6	-40.8	28.4	3.02e+01	60	41	0	68157440	52	6709
2026-01-24 16:27:09.64	169.72	80.47	-40.3	-41.6	28.3	3.02e+01	60	41	0	70254592	54	6533
2026-01-24 16:27:10.64	171.52	79.94	-39.5	-40.8	28.7	3.02e+01	53	41	0	71827456	54	5933
2026-01-24 16:27:11.65	173.16	79.40	-40.2	-41.5	27.9	3.02e+01	59	41	0	73924608	54	6435
2026-01-24 16:27:12.66	174.64	78.85	-39.8	-41.1	28.3	3.02e+01	58	41	0	75497472	54	6157
2026-01-24 16:27:13.67	175.97	78.30	-40.5	-41.9	27.5	3.02e+01	59	41	0	77594624	54	6734
2026-01-24 16:27:14.68	177.18	77.75	-40.7	-42.0	27.6	3.02e+01	59	41	0	79691776	56	6112
2026-01-24 16:27:15.69	178.28	77.19	-41.6	-43.0	27.0	3.02e+01	59	41	0	81264640	56	6829
2026-01-24 16:27:16.70	179.29	76.63	-42.1	-43.5	26.6	3.02e+01	58	41	0	83361792	58	6452
2026-01-24 16:27:17.71	180.22	76.07	-42.3	-43.7	26.2	3.02e+01	56	41	0	85458944	58	6602
2026-01-24 16:27:18.72	181.07	75.51	-42.2	-43.5	26.4	3.02e+01	51	41	0	87031808	60	5788
2026-01-24 16:27:19.73	181.86	74.95	-42.4	-43.8	26.2	3.02e+01	51	41	0	89128960	58	6686
2026-01-24 16:27:20.74	182.59	74.38	-43.8	-45.3	25.2	3.02e+01	58	41	0	90701824	60	7119
2026-01-24 16:27:21.75	183.26	73.82	-43.2	-44.7	25.5	3.02e+01	59	41	0	92798976	60	6603
2026-01-24 16:27:22.76	183.89	73.26	-41.8	-43.2	26.6	3.02e+01	60	41	0	94896128	58	6208
2026-01-24 16:27:23.77	184.48	72.70	-42.5	-43.9	26.0	3.02e+01	51	41	0	96468992	58	6772
2026-01-24 16:27:24.78	185.02	72.14	-43.4	-44.9	25.6	3.02e+01	61	41	0	98566144	60	6738
2026-01-24 16:27:25.79	185.54	71.58	-42.8	-44.2	25.8	3.02e+01	59	41	0	100139008	60	6220
2026-01-24 16:27:26.79	186.01	71.03	-43.5	-45.0	25.2	3.02e+01	53	41	0	102236160	60	6855
2026-01-24 16:27:27.80	186.47	70.48	-43.7	-45.2	25.2	3.02e+01	58	41	0	104333312	60	7039
2026-01-24 16:27:28.81	186.89	69.93	-43.0	-44.5	25.4	3.02e+01	59	41	0	105906176	60	6476
2026-01-24 16:27:29.82	187.30	69.38	-43.0	-44.4	25.6	3.02e+01	63	41	0	108003328	60	6408
2026-01-24 16:27:30.83	187.68	68.83	-42.8	-44.3	25.0	3.02e+01	57	41	0	109576192	60	6317
2026-01-24 16:27:31.83	188.03	68.29	-44.5	-46.2	24.3	3.02e+01	53	41	0	111673344	60	7873
2026-01-24 16:27:32.84	188.37	67.75	-43.4	-45.0	24.9	3.02e+01	62	41	0	113770496	60	6841
2026-01-24 16:27:33.85	188.70	67.21	-43.6	-45.1	25.0	3.02e+01	61	41	0	115343360	60	6940
2026-01-24 16:27:34.86	189.00	66.68	-42.7	-44.1	25.8	3.02e+01	55	41	0	117440512	60	6156
2026-01-24 16:27:35.87	189.30	66.14	-42.7	-44.2	25.6	3.02e+01	58	41	0	119013376	60	6243
2026-01-24 16:27:36.88	189.58	65.61	-42.9	-44.4	25.5	3.02e+01	44	41	0	121110528	60	6385
2026-01-24 16:27:37.88	189.84	65.09	-42.9	-44.3	26.0	3.02e+01	58	41	0	123207680	60	6334
2026-01-24 16:27:38.89	190.09	64.57	-41.7	-43.1	26.3	3.02e+01	58	41	0	124780544	58	6183
2026-01-24 16:27:39.90	190.34	64.05	-41.1	-42.4	27.1	3.02e+01	53	41	0	126877696	58	5694
2026-01-24 16:27:40.91	190.57	63.53	-41.0	-42.3	27.3	3.02e+01	61	41	0	128450560	56	6327
2026-01-24 16:27:41.92	190.79	63.02	-41.1	-42.4	27.5	3.02e+01	58	41	0	130547712	56	6376
2026-01-24 16:27:42.93	191.00	62.51	-41.0	-42.3	27.2	3.02e+01	60	41	0	132644864	56	6340
2026-01-24 16:27:43.94	191.21	62.00	-40.5	-41.8	27.4	3.02e+01	57	41	0	134217728	56	5947
2026-01-24 16:27:44.95	191.40	61.50	-40.4	-41.6	27.8	3.02e+01	55	41	0	136314880	56	5830
2026-01-24 16:27:45.96	191.59	61.00	-40.7	-42.0	27.5	3.02e+01	59	41	0	138412032	56	6127
2026-01-24 16:27:46.97	191.77	60.50	-40.3	-41.6	28.1	3.02e+01	57	41	0	139984896	56	5806
2026-01-24 16:27:47.98	191.95	60.01	-41.0	-42.3	27.6	3.02e+01	45	41	0	142082048	54	7056
2026-01-24 16:27:48.99	192.12	59.52	-42.3	-43.7	26.5	3.02e+01	59	41	0	143654912	56	7459
2026-01-24 16:27:49.99	192.28	59.05	-40.0	-41.3	28.3	3.02e+01	60	41	0	145752064	56	5611
2026-01-24 16:27:51.00	192.43	58.56	-39.4	-40.6	28.5	3.02e+01	60	41	0	147849216	54	5841
2026-01-24 16:27:52.01	192.59	58.09	-39.8	-41.0	28.5	3.02e+01	56	41	0	149422080	54	6111
2026-01-24 16:27:53.02	192.73	57.62	-39.6	-40.9	28.4	3.02e+01	57	41	0	151519232	54	6005
2026-01-24 16:27:54.03	192.87	57.15	-40.3	-41.6	28.1	3.02e+01	60	41	0	153092096	56	5794
2026-01-24 16:27:55.04	193.01	56.68	-39.2	-40.5	28.9	3.02e+01	58	41	0	155189248	54	5732
2026-01-24 16:27:56.05	193.14	56.22	-38.8	-40.0	29.0	3.02e+01	47	41	0	157286400	52	6090
2026-01-24 16:27:57.06	193.27	55.76	-38.3	-39.4	29.5	3.02e+01	64	41	0	158859264	52	5704
2026-01-24 16:27:58.07	193.39	55.31	-38.0	-39.1	29.9	3.02e+01	56	41	0	160956416	50	6186
2026-01-24 16:27:59.08	193.51	54.86	-38.2	-39.4	29.9	3.02e+01	63	41	0	162529280	50	6364
2026-01-24 16:28:00.09	193.63	54.41	-38.2	-39.4	29.8	3.02e+01	61	41	0	164626432	50	6385
2026-01-24 16:28:01.09	193.74	53.97	-37.9	-39.1	29.7	3.02e+01	40	41	0	166723584	50	6195
2026-01-24 16:28:02.10	193.85	53.54	-37.8	-38.9	29.8	3.02e+01	57	41	0	168296448	50	6064
2026-01-24 16:28:03.10	193.96	53.11	-37.5	-38.6	30.1	3.02e+01	61	41	0	170393600	50	5840
2026-01-24 16:28:04.12	194.06	52.67	-37.5	-38.6	29.8	3.02e+01	46	41	0	171966464	50	5845
2026-01-24 16:28:05.12	194.16	52.25	-37.8	-39.0	29.8	3.02e+01	61	41	0	174063616	50	6081
2026-01-24 16:28:06.13	194.26	51.82	-37.7	-38.9	29.9	3.02e+01	59	41	0	176160768	50	6031
2026-01-24 16:28:07.14	194.35	51.41	-38.2	-39.4	29.5	3.02e+01	58	41	0	177733632	50	6380
2026-01-24 16:28:08.15	194.45	50.99	-38.7	-39.9	29.0	3.02e+01	58	41	0	179830784	50	6776
2026-01-24 16:28:09.16	194.54	50.58	-38.8	-40.0	29.1	3.02e+01	53	41	0	181927936	52	6123
2026-01-24 16:28:10.17	194.62	50.17	-38.9	-40.2	28.8	3.02e+01	59	41	0	183500800	52	6206
2026-01-24 16:28:11.18	194.71	49.76	-38.2	-39.4	29.5	3.02e+01	58	41	0	185597952	52	5685
2026-01-24 16:28:12.19	194.79	49.36	-39.3	-40.5	29.2	3.02e+01	44	41	0	187170816	52	6472
2026-01-24 16:28:13.19	194.87	48.97	-38.8	-40.0	29.0	3.02e+01	57	41	0	189267968	52	6087
2026-01-24 16:28:14.20	194.95	48.58	-38.9	-40.1	29.0	3.02e+01	54	41	0	191365120	52	6176
2026-01-24 16:28:15.21	195.03	48.19	-39.2	-40.4	29.1	3.02e+01	58	41	0	192937984	52	6392
2026-01-24 16:28:16.22	195.11	47.80	-39.6	-40.8	28.7	3.02e+01	58	41	0	195035136	52	6679
2026-01-24 16:28:17.22	195.18	47.42	-39.5	-40.7	29.0	3.02e+01	52	41	0	196608000	52	6643
2026-01-24 16:28:18.23	195.25	47.04	-38.7	-39.9	29.3	3.02e+01	60	41	0	198705152	52	6028
2026-01-24 16:28:19.24	195.32	46.67	-39.6	-40.8	28.8	3.02e+01	59	41	0	200802304	54	5979
2026-01-24 16:28:20.25	195.39	46.29	-39.6	-40.9	29.0	3.02e+01	62	41	0	202375168	54	6007
2026-01-24 16:28:21.26	195.46	45.92	-39.4	-40.6	29.0	3.02e+01	61	41	0	204472320	54	5844
2026-01-24 16:28:22.27	195.53	45.56	-39.7	-40.9	28.4	3.02e+01	46	41	0	206045184	54	6060
2026-01-24 16:28:23.28	195.59	45.20	-39.5	-40.7	29.1	3.02e+01	58	41	0	208142336	54	5889
2026-01-24 16:28:24.29	195.65	44.84	-38.9	-40.1	29.4	3.02e+01	60	41	0	210239488	52	6190
2026-01-24 16:28:25.30	195.72	44.48	-40.0	-41.2	29.2	3.02e+01	51	41	0	211812352	52	7010
2026-01-24 16:28:26.30	195.77	44.13	-39.8	-41.1	28.9	3.02e+01	62	41	0	213909504	54	6139
2026-01-24 16:28:27.31	195.83	43.78	-40.4	-41.6	28.5	3.02e+01	59	41	0	215482368	54	6565
2026-01-24 16:28:28.32	195.89	43.44	-39.7	-41.0	28.4	3.02e+01	59	41	0	217579520	54	6117
2026-01-24 16:28:29.33	195.95	43.10	-40.2	-41.5	28.7	3.02e+01	59	41	0	219676672	54	6443
2026-01-24 16:28:30.34	196.00	42.76	-39.1	-40.3	29.3	3.02e+01	64	41	0	221249536	54	5624
2026-01-24 16:28:31.35	196.06	42.42	-39.7	-40.9	29.1	3.02e+01	57	41	0	223346688	54	6053
2026-01-24 16:28:32.36	196.11	42.09	-39.6	-40.8	28.8	3.02e+01	60	41	0	224919552	54	5971
2026-01-24 16:28:33.36	196.17	41.76	-40.3	-41.6	28.5	3.02e+01	51	41	0	227016704	54	6525
2026-01-24 16:28:34.37	196.22	41.43	-40.4	-41.7	28.3	3.02e+01	56	41	0	229113856	54	6647
2026-01-24 16:28:35.38	196.27	41.11	-40.6	-41.9	28.2	3.02e+01	61	41	0	230686720	54	6777
2026-01-24 16:28:36.39	196.32	40.79	-40.2	-41.5	28.1	3.02e+01	60	41	0	232783872	54	6446
2026-01-24 16:28:37.40	196.37	40.47	-40.0	-41.3	28.0	3.02e+01	59	41	0	234881024	54	6312
2026-01-24 16:28:38.41	196.41	40.16	-40.2	-41.5	28.1	3.02e+01	55	41	0	236453888	54	6427
2026-01-24 16:28:39.42	196.46	39.85	-40.0	-41.3	28.3	3.02e+01	63	41	0	238551040	54	6317
2026-01-24 16:28:40.43	196.51	39.54	-40.2	-41.5	28.2	3.02e+01	58	41	0	240123904	54	6435
2026-01-24 16:28:41.44	196.55	39.23	-40.0	-41.3	28.1	3.02e+01	48	41	0	242221056	54	6285
2026-01-24 16:28:42.45	196.60	38.93	-40.5	-41.8	27.7	3.02e+01	53	41	0	244318208	54	6726
2026-01-24 16:28:43.46	196.64	38.63	-40.8	-42.1	27.8	3.02e+01	57	41	0	245891072	54	6896
2026-01-24 16:28:44.46	196.68	38.33	-40.7	-42.0	27.8	3.02e+01	59	41	0	247988224	56	6100
2026-01-24 16:28:45.47	196.73	38.04	-40.6	-41.9	27.6	3.02e+01	58	41	0	249561088	56	6033
2026-01-24 16:28:46.48	196.77	37.74	-41.9	-43.3	27.2	3.02e+01	59	41	0	251658240	56	7076
2026-01-24 16:28:47.49	196.81	37.45	-42.4	-43.8	26.4	3.02e+01	60	41	0	253755392	58	6702
2026-01-24 16:28:48.50	196.85	37.17	-40.7	-42.0	27.7	3.02e+01	61	41	0	255328256	56	6095
2026-01-24 16:28:49.51	196.89	36.88	-41.1	-42.4	27.8	3.02e+01	43	41	0	257425408	56	6406
2026-01-24 16:28:50.52	196.93	36.60	-40.8	-42.1	27.8	3.02e+01	60	41	0	258998272	56	6183
2026-01-24 16:28:51.53	196.97	36.32	-41.0	-42.3	27.5	3.02e+01	49	41	0	261095424	56	6338
2026-01-24 16:28:52.54	197.00	36.04	-40.7	-42.0	27.5	3.02e+01	57	41	0	263192576	56	6131
2026-01-24 16:28:53.55	197.04	35.77	-39.7	-41.0	28.4	3.02e+01	61	41	0	264765440	54	6065
2026-01-24 16:28:54.55	197.08	35.50	-39.2	-40.4	28.8	3.02e+01	49	41	0	266862592	54	5694
2026-01-24 16:28:55.57	197.11	35.23	-39.1	-40.3	29.0	3.02e+01	58	41	0	268435456	52	6301
2026-01-24 16:28:56.57	197.15	34.96	-38.7	-39.9	29.2	3.02e+01	59	41	0	270532608	52	6015
2026-01-24 16:28:57.59	197.18	34.69	-38.8	-40.0	29.1	3.02e+01	57	41	0	272629760	52	6119
2026-01-24 16:28:58.59	197.22	34.44	-38.6	-39.8	29.1	3.02e+01	61	41	0	274202624	52	5956
2026-01-24 16:28:59.60	197.25	34.17	-38.2	-39.4	29.3	3.02e+01	46	41	0	276299776	52	5675
2026-01-24 16:29:00.61	197.29	33.92	-37.8	-38.9	29.6	3.02e+01	64	41	0	277872640	50	6054
2026-01-24 16:29:01.62	197.32	33.66	-37.9	-39.1	29.6	3.02e+01	57	41	0	279969792	50	6163
2026-01-24 16:29:02.63	197.35	33.41	-37.8	-39.0	29.8	3.02e+01	47	41	0	282066944	50	6080
2026-01-24 16:29:03.64	197.38	33.16	-37.7	-38.9	29.8	3.02e+01	60	41	0	283639808	50	6035
2026-01-24 16:29:04.65	197.42	32.91	-38.3	-39.4	29.8	3.02e+01	58	41	0	285736960	50	6423
2026-01-24 16:29:05.66	197.45	32.66	-38.2	-39.4	29.6	3.02e+01	61	41	0	287834112	50	6351
2026-01-24 16:29:06.67	197.48	32.42	-38.2	-39.4	29.4	3.02e+01	57	41	0	289406976	50	6386
2026-01-24 16:29:07.68	197.51	32.17	-37.9	-39.1	29.9	3.02e+01	58	41	0	291504128	50	6180
2026-01-24 16:29:08.69	197.54	31.93	-37.6	-38.7	30.1	3.02e+01	58	41	0	293076992	50	5909
2026-01-24 16:29:09.70	197.57	31.70	-38.0	-39.2	29.7	3.02e+01	58	41	0	295174144	50	6207
2026-01-24 16:29:10.71	197.60	31.46	-37.9	-39.1	29.9	3.02e+01	45	41	0	297271296	50	6164
2026-01-24 16:29:11.71	197.62	31.23	-38.3	-39.5	29.6	3.02e+01	61	41	0	298844160	50	6458
2026-01-24 16:29:12.72	197.65	30.99	-38.1	-39.3	29.6	3.02e+01	59	41	0	300941312	50	6284
2026-01-24 16:29:13.73	197.68	30.76	-37.9	-39.1	29.7	3.02e+01	56	41	0	302514176	50	6192
2026-01-24 16:29:14.74	197.71	30.54	-38.4	-39.6	29.8	3.02e+01	58	41	0	304611328	50	6524
2026-01-24 16:29:15.75	197.74	30.31	-38.1	-39.3	29.6	3.02e+01	53	41	0	306708480	50	6286
2026-01-24 16:29:16.76	197.76	30.08	-38.3	-39.5	29.8	3.02e+01	60	41	0	308281344	50	6435
2026-01-24 16:29:17.77	197.79	29.86	-38.4	-39.6	29.7	3.02e+01	58	41	0	310378496	50	6514
2026-01-24 16:29:18.78	197.82	29.64	-38.0	-39.2	29.7	3.02e+01	45	41	0	311951360	50	6234
2026-01-24 16:29:19.79	197.84	29.42	-38.2	-39.4	29.5	3.02e+01	60	41	0	314048512	50	6370
2026-01-24 16:29:20.80	197.87	29.20	-38.3	-39.5	29.2	3.02e+01	60	41	0	316145664	50	6461
2026-01-24 16:29:21.81	197.89	28.99	-38.4	-39.6	29.4	3.02e+01	61	41	0	317718528	50	6531
2026-01-24 16:29:22.82	197.92	28.77	-38.1	-39.3	29.6	3.02e+01	59	41	0	319815680	50	6292
2026-01-24 16:29:23.83	197.94	28.56	-38.2	-39.3	29.6	3.02e+01	55	41	0	321388544	50	6350
2026-01-24 16:29:24.84	197.97	28.35	-38.3	-39.5	29.3	3.02e+01	61	41	0	323485696	50	6439
2026-01-24 16:29:25.85	197.99	28.14	-38.3	-39.5	29.6	3.02e+01	62	41	0	325582848	50	6432
2026-01-24 16:29:26.86	198.02	27.94	-38.4	-39.6	29.5	3.02e+01	55	41	0	327155712	50	6540
2026-01-24 16:29:27.87	198.04	27.73	-38.6	-39.8	29.5	3.02e+01	57	41	0	329252864	50	6662
2026-01-24 16:29:28.88	198.06	27.53	-38.6	-39.8	29.5	3.02e+01	44	41	0	331350016	50	6670
2026-01-24 16:29:29.89	198.09	27.32	-38.6	-39.8	29.5	3.02e+01	64	41	0	332922880	50	6652
2026-01-24 16:29:30.90	198.11	27.12	-38.4	-39.7	29.4	3.02e+01	57	41	0	335020032	50	6577
2026-01-24 16:29:31.91	198.13	26.93	-38.2	-39.4	29.4	3.02e+01	46	41	0	336592896	50	6403
2026-01-24 16:29:32.91	198.16	26.73	-38.8	-40.0	29.0	3.02e+01	59	41	0	338690048	50	6862
2026-01-24 16:29:33.92	198.18	26.53	-38.7	-39.9	29.1	3.02e+01	60	41	0	340787200	52	6047
2026-01-24 16:29:34.93	198.20	26.34	-38.8	-40.0	29.2	3.02e+01	57	41	0	342360064	52	6080
2026-01-24 16:29:35.94	198.22	26.15	-38.9	-40.1	29.0	3.02e+01	59	41	0	344457216	52	6167
2026-01-24 16:29:36.95	198.24	25.96	-38.8	-40.0	29.2	3.02e+01	44	41	0	346030080	52	6074
2026-01-24 16:29:37.96	198.26	25.77	-38.8	-40.0	29.2	3.02e+01	58	41	0	348127232	52	6117
2026-01-24 16:29:38.97	198.29	25.58	-39.0	-40.2	28.9	3.02e+01	58	41	0	350224384	52	6244
2026-01-24 16:29:39.98	198.31	25.39	-39.2	-40.4	28.6	3.02e+01	46	41	0	351797248	52	6396
2026-01-24 16:29:40.99	198.33	25.20	-39.2	-40.5	28.7	3.02e+01	56	41	0	353894400	52	6434
2026-01-24 16:29:42.00	198.35	25.02	-39.3	-40.6	28.5	3.02e+01	60	41	0	355991552	52	6526
2026-01-24 16:29:43.01	198.37	24.84	-39.6	-40.8	28.3	3.02e+01	52	41	0	357564416	52	6710
2026-01-24 16:29:44.02	198.39	24.66	-39.2	-40.5	28.5	3.02e+01	60	41	0	359661568	52	6431
2026-01-24 16:29:45.03	198.41	24.48	-39.1	-40.3	28.7	3.02e+01	53	41	0	361234432	52	6350
2026-01-24 16:29:46.04	198.43	24.30	-39.3	-40.5	28.8	3.02e+01	61	41	0	363331584	52	6477
2026-01-24 16:29:47.04	198.45	24.12	-39.4	-40.6	28.6	3.02e+01	59	41	0	365428736	52	6558
2026-01-24 16:29:48.06	198.47	23.94	-39.3	-40.6	28.6	3.02e+01	47	41	0	367001600	52	6500
2026-01-24 16:29:49.06	198.49	23.77	-39.1	-40.3	28.7	3.02e+01	59	41	0	369098752	52	6343
2026-01-24 16:29:50.07	198.50	23.60	-38.9	-40.2	28.9	3.02e+01	58	41	0	370671616	52	6215
2026-01-24 16:29:51.08	198.52	23.42	-38.8	-40.0	29.0	3.02e+01	61	41	0	372768768	52	6125
2026-01-24 16:29:52.09	198.54	23.25	-38.9	-40.2	28.9	3.02e+01	61	41	0	374865920	52	6222
2026-01-24 16:29:53.10	198.56	23.08	-39.0	-40.2	28.8	3.02e+01	53	41	0	376438784	52	6251
2026-01-24 16:29:54.11	198.58	22.91	-39.3	-40.6	28.7	3.02e+01	59	41	0	378535936	52	6526
2026-01-24 16:29:55.11	198.60	22.75	-39.5	-40.7	28.9	3.02e+01	60	41	0	380108800	52	6635
2026-01-24 16:29:56.12	198.61	22.58	-39.1	-40.4	28.9	3.02e+01	47	41	0	382205952	52	6375
2026-01-24 16:29:57.13	198.63	22.42	-38.9	-40.1	29.0	3.02e+01	59	41	0	384303104	52	6201
2026-01-24 16:29:58.14	198.65	22.25	-38.9	-40.1	28.9	3.02e+01	58	41	0	385875968	52	6161
2026-01-24 16:29:59.14	198.67	22.09	-38.7	-39.9	29.0	3.02e+01	56	41	0	387973120	52	6035
2026-01-24 16:30:00.15	198.68	21.93	-38.7	-40.0	29.0	3.02e+01	59	41	0	389545984	52	6072
2026-01-24 16:30:01.16	198.70	21.77	-38.7	-39.9	28.9	3.02e+01	52	41	0	391643136	52	6048
2026-01-24 16:30:02.17	198.72	21.61	-38.8	-40.0	28.9	3.02e+01	57	41	0	393740288	52	6088
2026-01-24 16:30:03.18	198.74	21.45	-38.7	-39.9	29.1	3.02e+01	59	41	0	395313152	52	6043
2026-01-24 16:30:04.19	198.75	21.29	-38.9	-40.1	29.0	3.02e+01	54	41	0	397410304	52	6192
2026-01-24 16:30:05.20	198.77	21.14	-38.8	-40.0	28.9	3.02e+01	60	41	0	399507456	52	6104
2026-01-24 16:30:06.21	198.79	20.98	-38.9	-40.1	28.9	3.02e+01	47	41	0	401080320	52	6181
2026-01-24 16:30:07.22	198.80	20.83	-38.9	-40.1	29.1	3.02e+01	59	41	0	403177472	52	6164
2026-01-24 16:30:08.23	198.82	20.67	-38.7	-39.9	29.3	3.02e+01	57	41	0	404750336	52	6009
2026-01-24 16:30:09.23	198.83	20.52	-39.1	-40.3	28.9	3.02e+01	53	41	0	406847488	52	6290
2026-01-24 16:30:10.24	198.85	20.37	-38.8	-40.0	29.1	3.02e+01	57	41	0	408944640	52	6131
2026-01-24 16:30:11.25	198.87	20.22	-38.8	-40.0	29.1	3.02e+01	58	41	0	410517504	52	6085
2026-01-24 16:30:12.26	198.88	20.07	-38.9	-40.1	29.1	3.02e+01	60	41	0	412614656	52	6204
2026-01-24 16:30:13.27	198.90	19.92	-39.0	-40.2	29.0	3.02e+01	60	41	0	414187520	52	6229
2026-01-24 16:30:14.28	198.91	19.78	-39.1	-40.3	28.7	3.02e+01	46	41	0	416284672	52	6324
2026-01-24 16:30:15.29	198.93	19.63	-38.8	-40.0	29.1	3.02e+01	58	41	0	418381824	52	6119
2026-01-24 16:30:16.30	198.94	19.48	-38.8	-40.0	29.0	3.02e+01	59	41	0	419954688	52	6087
2026-01-24 16:30:17.31	198.96	19.34	-39.2	-40.4	28.9	3.02e+01	46	41	0	422051840	52	6407
2026-01-24 16:30:18.32	198.97	19.20	-38.9	-40.1	29.1	3.02e+01	58	41	0	423624704	52	6186
2026-01-24 16:30:19.33	198.99	19.05	-39.1	-40.3	28.9	3.02e+01	57	41	0	425721856	52	6316
2026-01-24 16:30:20.34	199.00	18.91	-39.0	-40.3	28.8	3.02e+01	57	41	0	427819008	52	6288
2026-01-24 16:30:21.35	199.02	18.77	-39.1	-40.4	29.0	3.02e+01	56	41	0	429391872	52	6362
2026-01-24 16:30:22.36	199.03	18.63	-39.4	-40.6	28.7	3.02e+01	54	41	0	431489024	52	6535
2026-01-24 16:30:23.37	199.05	18.49	-38.9	-40.1	29.1	3.02e+01	58	41	0	433061888	52	6174
2026-01-24 16:30:24.37	199.06	18.35	-39.3	-40.6	28.6	3.02e+01	57	41	0	435159040	52	6534
2026-01-24 16:30:25.38	199.07	18.22	-39.0	-40.2	28.8	3.02e+01	44	41	0	437256192	52	6223
2026-01-24 16:30:26.39	199.09	18.08	-38.8	-40.0	28.9	3.02e+01	58	41	0	438829056	52	6114
2026-01-24 16:30:27.40	199.10	17.94	-38.8	-40.0	28.8	3.02e+01	62	41	0	440926208	52	6132
2026-01-24 16:30:28.41	199.12	17.81	-38.7	-39.9	28.9	3.02e+01	60	41	0	442499072	52	6040
2026-01-24 16:30:29.42	199.13	17.68	-38.9	-40.2	28.8	3.02e+01	61	41	0	444596224	52	6223
2026-01-24 16:30:30.43	199.14	17.54	-38.9	-40.1	28.8	3.02e+01	49	41	0	446693376	52	6170
2026-01-24 16:30:31.43	199.16	17.41	-38.6	-39.8	29.0	3.02e+01	60	41	0	448266240	52	5975
2026-01-24 16:30:32.44	199.17	17.28	-38.7	-39.9	28.7	3.02e+01	57	41	0	450363392	52	6061
2026-01-24 16:30:33.45	199.18	17.15	-38.5	-39.8	28.9	3.02e+01	47	41	0	452460544	52	5927
2026-01-24 16:30:34.47	199.20	17.02	-38.4	-39.6	28.8	3.02e+01	61	41	0	454033408	52	5820
2026-01-24 16:30:35.47	199.21	16.89	-38.2	-39.4	29.0	3.02e+01	58	41	0	456130560	52	5693
2026-01-24 16:30:36.48	199.22	16.76	-38.5	-39.8	28.8	3.02e+01	61	41	0	457703424	52	5936
2026-01-24 16:30:37.49	199.24	16.63	-38.4	-39.6	29.0	3.02e+01	60	41	0	459800576	52	5857
2026-01-24 16:30:38.50	199.25	16.50	-38.4	-39.7	28.9	3.02e+01	58	41	0	461897728	52	5866
2026-01-24 16:30:39.51	199.26	16.38	-38.6	-39.9	28.7	3.02e+01	59	41	0	463470592	52	6014
2026-01-24 16:30:40.52	199.28	16.25	-38.2	-39.5	29.2	3.02e+01	61	41	0	465567744	52	5734
2026-01-24 16:30:41.53	199.29	16.13	-38.3	-39.5	29.0	3.02e+01	45	41	0	467140608	52	5751
2026-01-24 16:30:42.54	199.30	16.00	-38.3	-39.5	29.0	3.02e+01	61	41	0	469237760	52	5741
2026-01-24 16:30:43.54	199.31	15.88	-38.0	-39.2	29.3	3.02e+01	48	41	0	471334912	52	5568
2026-01-24 16:30:44.55	199.33	15.76	-38.3	-39.5	29.1	3.02e+01	58	41	0	472907776	50	6498
2026-01-24 16:30:45.56	199.34	15.63	-38.3	-39.5	29.2	3.02e+01	58	41	0	475004928	50	6455
2026-01-24 16:30:46.57	199.35	15.51	-38.4	-39.6	28.9	3.02e+01	45	41	0	476577792	50	6538
2026-01-24 16:30:47.58	199.36	15.39	-38.4	-39.6	28.9	3.02e+01	63	41	0	478674944	50	6537
2026-01-24 16:30:48.59	199.38	15.27	-38.7	-39.9	28.7	3.02e+01	57	41	0	480772096	50	6763
2026-01-24 16:30:49.60	199.39	15.15	-39.1	-40.4	28.4	3.02e+01	59	41	0	482344960	50	7140
2026-01-24 16:30:50.61	199.40	15.03	-38.4	-39.7	28.9	3.02e+01	56	41	0	484442112	52	5867
2026-01-24 16:30:51.62	199.41	14.91	-38.3	-39.5	29.1	3.02e+01	51	41	0	486014976	52	5752
2026-01-24 16:30:52.63	199.42	14.80	-38.6	-39.8	28.7	3.02e+01	60	41	0	488112128	52	5989
2026-01-24 16:30:53.64	199.44	14.68	-38.0	-39.2	29.2	3.02e+01	58	41	0	490209280	52	5592
2026-01-24 16:30:54.65	199.45	14.56	-38.6	-39.8	28.7	3.02e+01	46	41	0	491782144	52	5988
2026-01-24 16:30:55.66	199.46	14.45	-38.4	-39.6	29.0	3.02e+01	60	41	0	493879296	52	5850
2026-01-24 16:30:56.66	199.47	14.33	-38.6	-39.9	29.0	3.02e+01	56	41	0	495976448	52	5995
2026-01-24 16:30:57.67	199.48	14.22	-39.0	-40.2	28.8	3.02e+01	59	41	0	497549312	52	6246
2026-01-24 16:30:58.68	199.49	14.10	-38.8	-40.0	28.7	3.02e+01	58	41	0	499646464	52	6089
2026-01-24 16:30:59.69	199.50	13.99	-38.8	-40.0	28.7	3.02e+01	51	41	0	501219328	52	6107
2026-01-24 16:31:00.70	199.52	13.88	-39.0	-40.2	28.4	3.02e+01	57	41	0	503316480	52	6264
2026-01-24 16:31:01.71	199.53	13.76	-38.2	-39.4	29.1	3.02e+01	59	41	0	505413632	52	5688
2026-01-24 16:31:02.72	199.54	13.65	-38.1	-39.3	29.2	3.02e+01	46	41	0	506986496	52	5600
2026-01-24 16:31:03.73	199.55	13.54	-38.1	-39.3	29.2	3.02e+01	59	41	0	509083648	52	5633
2026-01-24 16:31:04.74	199.56	13.43	-38.1	-39.3	29.2	3.02e+01	58	41	0	510656512	52	5609
2026-01-24 16:31:05.74	199.57	13.32	-38.2	-39.5	29.1	3.02e+01	59	41	0	512753664	52	5730
2026-01-24 16:31:06.75	199.58	13.21	-38.3	-39.5	29.1	3.02e+01	59	41	0	514850816	52	5756
2026-01-24 16:31:07.76	199.59	13.10	-38.3	-39.5	29.1	3.02e+01	49	41	0	516423680	52	5735
2026-01-24 16:31:08.77	199.60	12.99	-38.7	-39.9	29.0	3.02e+01	60	41	0	518520832	52	6036
2026-01-24 16:31:09.78	199.62	12.89	-39.0	-40.2	29.0	3.02e+01	58	41	0	520093696	52	6249
2026-01-24 16:31:10.78	199.63	12.78	-38.6	-39.8	29.1	3.02e+01	44	41	0	522190848	52	5965
2026-01-24 16:31:11.79	199.64	12.67	-38.4	-39.6	29.1	3.02e+01	60	41	0	524288000	52	5829
2026-01-24 16:31:12.80	199.65	12.57	-39.1	-40.3	28.7	3.02e+01	59	41	0	525860864	52	6344
2026-01-24 16:31:13.81	199.66	12.46	-38.9	-40.2	28.8	3.02e+01	56	41	0	527958016	52	6209
2026-01-24 16:31:14.82	199.67	12.36	-38.6	-39.9	28.9	3.02e+01	59	41	0	529530880	52	6004
2026-01-24 16:31:15.83	199.68	12.25	-38.7	-39.9	28.9	3.02e+01	49	41	0	531628032	52	6023
2026-01-24 16:31:16.84	199.69	12.15	-38.8	-40.1	28.8	3.02e+01	62	41	0	533725184	52	6149
2026-01-24 16:31:17.85	199.70	12.04	-38.6	-39.8	28.9	3.02e+01	60	41	0	535298048	52	5978
2026-01-24 16:31:18.86	199.71	11.94	-38.8	-40.0	28.8	3.02e+01	52	41	0	537395200	52	6130
2026-01-24 16:31:19.86	199.72	11.84	-38.7	-40.0	28.8	3.02e+01	58	41	0	538968064	52	6086
2026-01-24 16:31:20.87	199.73	11.73	-39.0	-40.3	28.6	3.02e+01	61	41	0	541065216	52	6279
2026-01-24 16:31:21.88	199.74	11.63	-38.9	-40.2	28.6	3.02e+01	58	41	0	543162368	52	6223
2026-01-24 16:31:22.89	199.75	11.53	-38.7	-39.9	28.9	3.02e+01	58	41	0	544735232	52	6021
2026-01-24 16:31:23.90	199.76	11.43	-38.7	-39.9	28.7	3.02e+01	45	41	0	546832384	52	6045
2026-01-24 16:31:24.91	199.77	11.33	-38.8	-40.0	28.6	3.02e+01	58	41	0	548929536	52	6115
2026-01-24 16:31:25.92	199.78	11.23	-38.6	-39.8	28.7	3.02e+01	61	41	0	550502400	52	5973
2026-01-24 16:31:26.93	199.79	11.13	-38.3	-39.5	28.8	3.02e+01	58	41	0	552599552	52	5777
2026-01-24 16:31:27.94	199.80	11.03	-38.8	-40.0	28.6	3.02e+01	59	41	0	554172416	52	6099
2026-01-24 16:31:28.95	199.81	10.93	-38.9	-40.1	28.5	3.02e+01	56	41	0	556269568	52	6170
2026-01-24 16:31:29.96	199.82	10.83	-39.3	-40.5	28.6	3.02e+01	61	41	0	558366720	52	6449
2026-01-24 16:31:30.97	199.83	10.74	-39.3	-40.6	28.5	3.02e+01	60	41	0	559939584	52	6502
2026-01-24 16:31:31.98	199.84	10.64	-39.0	-40.3	28.6	3.02e+01	44	41	0	562036736	52	6299
2026-01-24 16:31:32.99	199.85	10.54	-39.1	-40.4	28.5	3.02e+01	63	41	0	563609600	52	6371
2026-01-24 16:31:34.00	199.86	10.44	-39.5	-40.7	28.3	3.02e+01	60	41	0	565706752	52	6646
2026-01-24 16:31:35.00	199.87	10.35	-39.2	-40.5	28.6	3.02e+01	58	41	0	567803904	52	6434
2026-01-24 16:31:36.01	199.88	10.25	-39.2	-40.5	28.2	3.02e+01	60	41	0	569376768	52	6458
2026-01-24 16:31:37.02	199.89	10.16	-39.4	-40.7	28.3	3.02e+01	58	41	0	571473920	52	6586
2026-01-24 16:31:38.03	199.90	10.06	-39.3	-40.6	28.3	3.02e+01	56	41	0	573046784	52	6527
2026-01-24 16:31:39.04	199.91	9.97	-38.8	-40.0	28.6	3.02e+01	61	41	0	575143936	52	6122
2026-01-24 16:31:40.05	199.91	9.87	-39.6	-40.8	28.1	3.02e+01	51	41	0	577241088	52	6725
2026-01-24 16:31:41.06	199.92	9.78	-39.1	-40.4	28.6	3.02e+01	59	41	0	578813952	52	6370
2026-01-24 16:31:42.07	199.93	9.69	-39.4	-40.6	28.3	3.02e+01	61	41	0	580911104	52	6569
2026-01-24 16:31:43.08	199.94	9.59	-39.3	-40.6	28.3	3.02e+01	60	41	0	582483968	52	6507
2026-01-24 16:31:44.09	199.95	9.50	-39.1	-40.4	28.3	3.02e+01	60	41	0	584581120	52	6367
2026-01-24 16:31:45.10	199.96	9.41	-39.0	-40.2	28.3	3.02e+01	49	41	0	586678272	52	6254
2026-01-24 16:31:46.11	199.97	9.32	-39.1	-40.4	28.3	3.02e+01	60	41	0	588251136	52	6352
2026-01-24 16:31:47.12	199.98	9.23	-39.6	-40.8	28.2	3.02e+01	58	41	0	590348288	52	6707
2026-01-24 16:31:48.13	199.99	9.14	-39.5	-40.8	28.2	3.02e+01	44	41	0	592445440	52	6694
2026-01-24 16:31:49.14	200.00	9.05	-39.1	-40.4	28.2	3.02e+01	60	41	0	594018304	52	6395
2026-01-24 16:31:50.14	200.01	8.96	-39.5	-40.8	28.0	3.02e+01	61	41	0	596115456	52	6698
2026-01-24 16:31:51.15	200.01	8.87	-39.6	-40.9	28.2	3.02e+01	57	41	0	597688320	52	6748
2026-01-24 16:31:52.16	200.02	8.78	-39.4	-40.6	28.0	3.02e+01	60	41	0	599785472	52	6568
2026-01-24 16:31:53.17	200.03	8.69	-39.4	-40.6	28.0	3.02e+01	53	41	0	601882624	52	6560
2026-01-24 16:31:54.18	200.04	8.60	-39.4	-40.7	27.9	3.02e+01	60	41	0	603455488	52	6600
2026-01-24 16:31:55.19	200.05	8.51	-39.2	-40.4	28.1	3.02e+01	59	41	0	605552640	52	6409
2026-01-24 16:31:56.20	200.06	8.42	-39.4	-40.7	28.0	3.02e+01	53	41	0	607125504	52	6626
2026-01-24 16:31:57.21	200.07	8.33	-39.5	-40.8	28.0	3.02e+01	59	41	0	609222656	52	6657
2026-01-24 16:31:58.22	200.08	8.25	-39.6	-40.9	27.9	3.02e+01	46	41	0	611319808	52	6740
2026-01-24 16:31:59.23	200.08	8.16	-39.8	-41.1	27.7	3.02e+01	56	41	0	612892672	52	6891
2026-01-24 16:32:00.24	200.09	8.07	-39.4	-40.6	28.1	3.02e+01	58	41	0	614989824	52	6554
