passes_logs/2026/01/24/R4.6S_Anadyr/R4.6S_Anadyr__20260124_012021_AQUA_rec.log

#Pass ID: 20260124_012021_AQUA
#Satellite: AQUA
#Configuration: AQUA
#almurnet v.1.7.20251203
#Start time: 2026-01-24 01:20:22

#Version: 2.2.20231116
#Station: R4.6S_Anadyr
#Location: 177.4865 lon 64.73178 lat
#TLE: 1 27424U 02022A   26023.58972979  .00001888  00000+0  38753-3 0  9997
#TLE: 2 27424  98.4100 350.1620 0001948  68.5331  43.0280 14.61852003262140

#Time	Az	El	Level	Level2	SNR	BER	BlckErr	Temp	State	Recorded	gain1	gain2
2026-01-24 01:20:22.59	140.13	0.10	-51.3	-63.9	3.4	1.52e+00	0	39	0	0	60	54882
2026-01-24 01:20:23.59	140.11	0.16	-51.7	-69.5	3.5	3.03e+01	0	40	104	0	60	114732
2026-01-24 01:20:24.60	140.09	0.22	-51.7	-69.4	3.5	3.03e+01	0	40	104	0	60	114226
2026-01-24 01:20:25.61	140.07	0.28	-51.7	-69.5	3.5	3.03e+01	0	40	104	0	60	114616
2026-01-24 01:20:26.62	140.05	0.35	-51.7	-69.5	3.5	3.03e+01	0	40	104	0	60	115110
2026-01-24 01:20:27.63	140.03	0.41	-51.7	-69.6	3.5	3.03e+01	0	40	104	0	60	115558
2026-01-24 01:20:28.64	140.01	0.47	-51.7	-69.5	3.5	3.03e+01	0	40	104	0	60	114633
2026-01-24 01:20:29.65	139.99	0.53	-51.7	-69.5	3.5	3.03e+01	0	40	104	0	60	114488
2026-01-24 01:20:30.66	139.97	0.60	-51.7	-69.5	3.5	3.03e+01	0	40	104	0	60	114768
2026-01-24 01:20:31.67	139.95	0.66	-51.7	-69.5	3.5	3.03e+01	0	40	104	0	60	114347
2026-01-24 01:20:32.68	139.93	0.72	-51.6	-69.5	3.5	3.03e+01	0	40	104	0	60	115174
2026-01-24 01:20:33.69	139.91	0.79	-51.6	-69.5	3.5	3.03e+01	0	40	104	0	60	114694
2026-01-24 01:20:34.70	139.89	0.85	-51.6	-69.4	3.5	3.03e+01	0	40	104	0	60	113794
2026-01-24 01:20:35.71	139.87	0.91	-51.6	-69.4	3.5	3.03e+01	0	40	104	0	60	113063
2026-01-24 01:20:36.72	139.85	0.98	-51.5	-69.3	3.5	3.03e+01	0	40	104	0	60	112100
2026-01-24 01:20:37.73	139.83	1.04	-51.5	-69.3	3.5	3.03e+01	0	40	104	0	60	112007
2026-01-24 01:20:38.74	139.81	1.11	-51.4	-69.2	3.5	3.03e+01	0	40	104	0	60	110756
2026-01-24 01:20:39.75	139.79	1.17	-51.3	-69.0	3.5	3.03e+01	0	40	104	0	60	108984
2026-01-24 01:20:40.76	139.77	1.24	-51.1	-69.0	3.5	3.03e+01	0	40	104	0	60	108260
2026-01-24 01:20:41.77	139.75	1.30	-51.0	-68.7	3.5	3.03e+01	0	40	104	0	60	105308
2026-01-24 01:20:42.78	139.73	1.37	-50.5	-68.4	3.5	3.03e+01	0	41	104	0	60	101328
2026-01-24 01:20:43.79	139.71	1.43	-50.6	-68.4	3.5	3.03e+01	0	40	104	0	60	101045
2026-01-24 01:20:44.80	139.68	1.50	-50.7	-68.5	3.5	3.03e+01	0	40	104	0	60	102336
2026-01-24 01:20:45.81	139.66	1.56	-50.3	-68.1	3.5	3.03e+01	0	40	104	0	60	98059
2026-01-24 01:20:46.81	139.64	1.63	-50.1	-67.7	3.5	3.03e+01	0	41	104	0	60	93895
2026-01-24 01:20:47.82	139.62	1.69	-49.9	-67.5	3.5	3.03e+01	0	40	104	0	60	91103
2026-01-24 01:20:48.83	139.60	1.76	-49.9	-66.9	3.5	3.03e+01	0	40	104	0	60	85607
2026-01-24 01:20:49.84	139.58	1.82	-49.9	-67.8	3.5	3.03e+01	0	40	104	0	60	94396
2026-01-24 01:20:50.85	139.55	1.89	-49.9	-67.7	3.5	3.03e+01	0	41	104	0	60	93454
2026-01-24 01:20:51.86	139.53	1.96	-49.9	-67.7	3.5	3.03e+01	0	41	104	0	60	93241
2026-01-24 01:20:52.87	139.51	2.02	-49.9	-67.6	3.5	3.03e+01	0	40	104	0	60	92362
2026-01-24 01:20:53.88	139.49	2.09	-49.9	-67.0	3.5	3.03e+01	0	41	104	0	60	86166
2026-01-24 01:20:54.89	139.46	2.16	-49.9	-66.6	3.5	3.03e+01	0	41	104	0	60	82451
2026-01-24 01:20:55.90	139.44	2.22	-49.8	-66.5	3.5	3.03e+01	0	41	104	0	60	81585
2026-01-24 01:20:56.91	139.42	2.29	-49.8	-66.2	3.5	3.03e+01	0	41	104	0	60	78453
2026-01-24 01:20:57.92	139.40	2.36	-49.9	-66.9	3.5	3.03e+01	0	41	104	0	60	85321
2026-01-24 01:20:58.93	139.37	2.43	-49.9	-66.9	3.5	3.03e+01	0	41	104	0	60	85188
2026-01-24 01:20:59.94	139.35	2.49	-49.9	-67.1	3.5	3.03e+01	0	41	104	0	60	87230
2026-01-24 01:21:00.95	139.33	2.56	-49.9	-67.1	3.5	3.03e+01	0	41	104	0	60	87028
2026-01-24 01:21:01.96	139.30	2.63	-49.9	-67.1	3.5	3.03e+01	0	41	104	0	60	86999
2026-01-24 01:21:02.97	139.28	2.70	-49.8	-67.0	3.5	3.03e+01	0	41	104	0	60	86158
2026-01-24 01:21:03.98	139.25	2.77	-49.8	-67.2	3.5	3.03e+01	0	41	104	0	60	88177
2026-01-24 01:21:04.99	139.23	2.84	-49.8	-67.3	3.5	3.03e+01	0	41	104	0	60	88915
2026-01-24 01:21:06.00	139.21	2.90	-49.8	-67.3	3.5	3.03e+01	0	41	104	0	60	89046
2026-01-24 01:21:07.01	139.18	2.97	-49.9	-67.1	3.5	3.03e+01	0	41	104	0	60	87259
2026-01-24 01:21:08.02	139.16	3.04	-49.8	-66.8	3.5	3.03e+01	0	41	104	0	60	84222
2026-01-24 01:21:09.02	139.13	3.11	-49.9	-66.4	3.6	3.03e+01	0	41	104	0	60	80077
2026-01-24 01:21:10.03	139.11	3.18	-49.8	-66.2	3.5	3.03e+01	0	41	104	0	60	78252
2026-01-24 01:21:11.04	139.08	3.25	-49.9	-66.8	3.5	3.03e+01	0	41	104	0	60	84396
2026-01-24 01:21:12.05	139.06	3.32	-49.9	-66.9	3.5	3.03e+01	0	41	104	0	60	85490
2026-01-24 01:21:13.06	139.03	3.39	-49.8	-64.8	3.7	3.03e+01	0	41	104	0	60	66857
2026-01-24 01:21:14.07	139.01	3.46	-49.6	-60.9	6.1	3.03e+01	73	41	0	0	60	42867
2026-01-24 01:21:15.08	138.98	3.53	-49.0	-56.5	10.1	3.03e+01	92	41	0	2097152	60	25865
2026-01-24 01:21:16.10	138.96	3.60	-48.3	-54.0	13.1	3.03e+01	90	41	0	3670016	60	19279
2026-01-24 01:21:17.11	138.93	3.67	-47.5	-51.9	15.4	3.03e+01	92	41	0	5767168	60	15196
2026-01-24 01:21:18.12	138.91	3.75	-46.8	-50.5	16.8	3.03e+01	92	41	0	7864320	60	12849
2026-01-24 01:21:19.13	138.88	3.82	-45.7	-48.7	18.9	3.03e+01	92	41	0	9437184	60	10474
2026-01-24 01:21:20.14	138.85	3.89	-45.5	-48.4	18.6	3.03e+01	92	41	0	11534336	60	10099
2026-01-24 01:21:21.15	138.83	3.96	-50.3	-67.8	3.5	3.03e+01	0	41	104	12058624	60	94794
2026-01-24 01:21:22.15	138.80	4.03	-50.1	-63.3	5.8	3.03e+01	0	41	104	12058624	60	56134
2026-01-24 01:21:23.16	138.77	4.10	-48.5	-54.5	13.5	3.03e+01	90	41	0	13107200	60	20355
2026-01-24 01:21:24.17	138.75	4.18	-41.2	-42.8	24.2	3.03e+01	92	41	0	15204352	58	5990
2026-01-24 01:21:25.18	138.72	4.25	-49.9	-64.6	4.0	3.03e+01	0	41	104	16252928	60	65157
2026-01-24 01:21:26.19	138.69	4.32	-41.5	-43.1	24.1	3.03e+01	92	41	0	16777216	58	6180
2026-01-24 01:21:27.20	138.67	4.39	-41.1	-42.7	24.5	3.03e+01	90	41	0	18874368	58	5910
2026-01-24 01:21:28.22	138.64	4.47	-41.3	-42.9	24.5	3.03e+01	92	41	0	20447232	58	6034
2026-01-24 01:21:29.22	138.61	4.54	-41.2	-42.9	24.5	3.03e+01	89	41	0	22544384	56	6730
2026-01-24 01:21:30.23	138.58	4.61	-41.0	-42.6	24.9	3.03e+01	92	41	0	24641536	56	6503
2026-01-24 01:21:31.24	138.56	4.69	-40.9	-42.5	24.9	3.03e+01	91	41	0	26214400	56	6447
2026-01-24 01:21:32.25	138.53	4.76	-40.9	-42.5	25.2	3.03e+01	89	41	0	28311552	56	6425
2026-01-24 01:21:33.26	138.50	4.84	-40.6	-42.2	25.2	3.03e+01	92	41	0	29884416	56	6226
2026-01-24 01:21:34.27	138.47	4.91	-40.5	-42.0	25.4	3.03e+01	91	41	0	31981568	56	6099
2026-01-24 01:21:35.28	138.44	4.99	-40.5	-42.0	25.6	3.03e+01	91	41	0	34078720	56	6069
2026-01-24 01:21:36.29	138.41	5.06	-40.2	-41.6	25.9	3.03e+01	92	41	0	35651584	56	5846
2026-01-24 01:21:37.30	138.38	5.14	-40.5	-42.0	25.5	3.03e+01	91	41	0	37748736	56	6086
2026-01-24 01:21:38.31	138.35	5.21	-40.0	-41.4	26.1	3.03e+01	92	41	0	39321600	56	5702
2026-01-24 01:21:39.32	138.33	5.29	-40.0	-41.4	26.0	3.03e+01	92	41	0	41418752	54	6409
2026-01-24 01:21:40.33	138.30	5.36	-39.9	-41.4	26.1	3.03e+01	92	41	0	43515904	54	6365
2026-01-24 01:21:41.34	138.27	5.44	-40.0	-41.4	26.1	3.03e+01	92	41	0	45088768	54	6389
2026-01-24 01:21:42.35	138.24	5.52	-39.8	-41.2	26.4	3.03e+01	91	41	0	47185920	54	6262
2026-01-24 01:21:43.36	138.21	5.59	-39.8	-41.2	26.3	3.03e+01	91	41	0	49283072	54	6274
2026-01-24 01:21:44.37	138.18	5.67	-39.6	-41.0	26.4	3.03e+01	91	41	0	50855936	54	6129
2026-01-24 01:21:45.38	138.15	5.75	-39.6	-41.0	26.6	3.03e+01	92	41	0	52953088	54	6104
2026-01-24 01:21:46.39	138.11	5.82	-39.8	-41.1	26.3	3.03e+01	92	41	0	54525952	54	6202
2026-01-24 01:21:47.40	138.08	5.90	-39.6	-41.0	26.6	3.03e+01	92	41	0	56623104	54	6090
2026-01-24 01:21:48.41	138.05	5.98	-40.0	-41.4	26.3	3.03e+01	90	41	0	58720256	54	6381
2026-01-24 01:21:49.42	138.02	6.06	-39.8	-41.2	26.4	3.03e+01	92	41	0	60293120	54	6264
2026-01-24 01:21:50.43	137.99	6.14	-39.8	-41.2	26.5	3.03e+01	91	41	0	62390272	54	6268
2026-01-24 01:21:51.44	137.96	6.21	-39.4	-40.8	26.9	3.03e+01	90	41	0	63963136	54	5938
2026-01-24 01:21:52.45	137.93	6.29	-39.4	-40.8	26.8	3.03e+01	91	41	0	66060288	54	5972
2026-01-24 01:21:53.46	137.89	6.37	-39.4	-40.8	26.8	3.03e+01	92	41	0	68157440	54	5969
2026-01-24 01:21:54.47	137.86	6.45	-39.6	-40.9	26.7	3.03e+01	92	41	0	69730304	54	6059
2026-01-24 01:21:55.48	137.83	6.53	-39.4	-40.7	26.9	3.03e+01	92	41	0	71827456	54	5904
2026-01-24 01:21:56.49	137.80	6.61	-39.2	-40.5	27.1	3.03e+01	92	41	0	73400320	54	5769
2026-01-24 01:21:57.50	137.76	6.69	-39.4	-40.7	26.9	3.03e+01	92	41	0	75497472	54	5903
2026-01-24 01:21:58.51	137.73	6.77	-39.2	-40.6	27.0	3.03e+01	92	41	0	77594624	54	5828
2026-01-24 01:21:59.52	137.70	6.85	-39.2	-40.6	27.1	3.03e+01	92	41	0	79167488	54	5824
2026-01-24 01:22:00.53	137.66	6.93	-38.9	-40.3	27.4	3.03e+01	92	41	0	81264640	54	5598
2026-01-24 01:22:01.54	137.63	7.02	-39.2	-40.5	27.2	3.03e+01	91	41	0	82837504	52	6483
2026-01-24 01:22:02.55	137.60	7.10	-39.2	-40.5	27.2	3.03e+01	92	41	0	84934656	52	6469
2026-01-24 01:22:03.56	137.56	7.18	-39.1	-40.4	27.4	3.03e+01	90	41	0	87031808	52	6408
2026-01-24 01:22:04.57	137.53	7.26	-38.9	-40.3	27.5	3.03e+01	91	41	0	88604672	52	6280
2026-01-24 01:22:05.58	137.49	7.34	-38.9	-40.2	27.4	3.03e+01	92	41	0	90701824	52	6246
2026-01-24 01:22:06.59	137.46	7.43	-39.1	-40.4	27.3	3.03e+01	92	41	0	92798976	52	6408
2026-01-24 01:22:07.60	137.42	7.51	-39.0	-40.3	27.4	3.03e+01	92	41	0	94371840	52	6311
2026-01-24 01:22:08.61	137.39	7.59	-38.9	-40.3	27.5	3.03e+01	92	41	0	96468992	52	6291
2026-01-24 01:22:09.62	137.35	7.68	-39.1	-40.4	27.4	3.03e+01	90	41	0	98041856	52	6393
2026-01-24 01:22:10.62	137.31	7.76	-39.0	-40.3	27.5	3.03e+01	87	41	0	100139008	52	6333
2026-01-24 01:22:11.63	137.28	7.84	-38.9	-40.2	27.6	3.03e+01	90	41	0	102236160	52	6223
2026-01-24 01:22:12.64	137.24	7.93	-38.9	-40.2	27.6	3.03e+01	92	41	0	103809024	52	6228
2026-01-24 01:22:13.65	137.21	8.01	-38.8	-40.1	27.7	3.03e+01	92	41	0	105906176	52	6200
2026-01-24 01:22:14.66	137.17	8.10	-38.8	-40.1	27.6	3.03e+01	92	41	0	107479040	52	6167
2026-01-24 01:22:15.67	137.13	8.18	-39.0	-40.4	27.4	3.03e+01	92	41	0	109576192	52	6362
2026-01-24 01:22:16.68	137.09	8.27	-38.7	-40.0	27.8	3.03e+01	90	41	0	111673344	52	6120
2026-01-24 01:22:17.69	137.06	8.36	-38.7	-40.0	27.8	3.03e+01	92	41	0	113246208	52	6117
2026-01-24 01:22:18.70	137.02	8.44	-38.9	-40.2	27.7	3.03e+01	92	41	0	115343360	52	6226
2026-01-24 01:22:19.71	136.98	8.53	-38.8	-40.1	27.7	3.03e+01	92	41	0	117440512	52	6204
2026-01-24 01:22:20.72	136.94	8.62	-38.7	-40.0	27.8	3.03e+01	92	41	0	119013376	52	6123
2026-01-24 01:22:21.73	136.90	8.70	-38.7	-40.0	27.9	3.03e+01	92	41	0	121110528	52	6074
2026-01-24 01:22:22.74	136.86	8.79	-38.7	-40.0	27.8	3.03e+01	90	41	0	122683392	52	6101
2026-01-24 01:22:23.75	136.82	8.88	-38.9	-40.2	27.8	3.03e+01	92	41	0	124780544	52	6216
2026-01-24 01:22:24.76	136.78	8.97	-38.9	-40.2	27.6	3.03e+01	91	41	0	126877696	52	6265
2026-01-24 01:22:25.76	136.74	9.05	-39.0	-40.3	27.6	3.03e+01	90	41	0	128450560	52	6289
2026-01-24 01:22:26.77	136.70	9.14	-38.7	-40.0	27.8	3.03e+01	91	41	0	130547712	52	6120
2026-01-24 01:22:27.79	136.66	9.23	-38.7	-40.0	28.0	3.03e+01	92	41	0	132120576	52	6104
2026-01-24 01:22:28.79	136.62	9.32	-38.7	-40.0	27.9	3.03e+01	91	41	0	134217728	52	6095
2026-01-24 01:22:29.80	136.58	9.41	-38.7	-40.0	27.9	3.03e+01	92	41	0	136314880	52	6092
2026-01-24 01:22:30.81	136.54	9.50	-38.6	-39.9	28.0	3.03e+01	92	41	0	137887744	52	6016
2026-01-24 01:22:31.82	136.50	9.59	-38.6	-39.9	27.9	3.03e+01	90	41	0	139984896	52	6042
2026-01-24 01:22:32.83	136.46	9.68	-38.7	-40.0	27.9	3.03e+01	90	41	0	141557760	52	6067
2026-01-24 01:22:33.84	136.42	9.78	-38.5	-39.8	28.1	3.03e+01	92	41	0	143654912	52	5938
2026-01-24 01:22:34.85	136.37	9.87	-38.6	-39.9	28.0	3.03e+01	89	41	0	145752064	52	6034
2026-01-24 01:22:35.86	136.33	9.96	-38.5	-39.7	28.2	3.03e+01	90	41	0	147324928	52	5916
2026-01-24 01:22:36.87	136.29	10.05	-38.5	-39.8	28.1	3.03e+01	91	41	0	149422080	52	5941
2026-01-24 01:22:37.88	136.24	10.15	-38.4	-39.7	28.3	3.03e+01	90	41	0	150994944	52	5871
2026-01-24 01:22:38.89	136.20	10.24	-38.4	-39.7	28.2	3.03e+01	89	41	0	153092096	52	5888
2026-01-24 01:22:39.90	136.16	10.33	-38.4	-39.7	28.2	3.03e+01	92	41	0	155189248	52	5876
2026-01-24 01:22:40.91	136.11	10.43	-38.3	-39.6	28.3	3.03e+01	91	41	0	156762112	52	5829
2026-01-24 01:22:41.92	136.07	10.52	-38.3	-39.6	28.3	3.03e+01	89	41	0	158859264	52	5815
2026-01-24 01:22:42.93	136.02	10.62	-38.2	-39.5	28.4	3.03e+01	90	41	0	160956416	52	5745
2026-01-24 01:22:43.94	135.98	10.71	-38.4	-39.6	28.3	3.03e+01	89	41	0	162529280	52	5848
2026-01-24 01:22:44.95	135.93	10.81	-38.3	-39.5	28.4	3.03e+01	91	41	0	164626432	52	5765
2026-01-24 01:22:45.96	135.88	10.90	-38.1	-39.4	28.5	3.03e+01	92	41	0	166199296	52	5696
2026-01-24 01:22:46.97	135.84	11.00	-38.1	-39.3	28.6	3.03e+01	92	41	0	168296448	52	5638
2026-01-24 01:22:47.98	135.79	11.10	-38.1	-39.3	28.6	3.03e+01	92	41	0	170393600	52	5647
2026-01-24 01:22:48.99	135.74	11.19	-38.0	-39.3	28.6	3.03e+01	92	41	0	171966464	52	5625
2026-01-24 01:22:50.00	135.70	11.29	-38.0	-39.3	28.6	3.03e+01	91	41	0	174063616	52	5620
2026-01-24 01:22:51.01	135.65	11.39	-38.0	-39.2	28.7	3.03e+01	91	41	0	175636480	50	6271
2026-01-24 01:22:52.01	135.60	11.49	-37.7	-39.0	29.0	3.03e+01	91	41	0	177733632	50	6065
2026-01-24 01:22:53.02	135.55	11.58	-37.7	-39.0	28.8	3.03e+01	91	41	0	179830784	50	6080
2026-01-24 01:22:54.03	135.50	11.68	-37.7	-39.0	28.9	3.03e+01	89	41	0	181403648	50	6072
2026-01-24 01:22:55.04	135.45	11.78	-37.6	-38.8	29.0	3.03e+01	91	41	0	183500800	50	5987
2026-01-24 01:22:56.05	135.40	11.88	-37.7	-39.0	28.9	3.03e+01	92	41	0	185597952	50	6065
2026-01-24 01:22:57.06	135.35	11.98	-37.6	-38.8	29.0	3.03e+01	92	41	0	187170816	50	5952
2026-01-24 01:22:58.07	135.30	12.09	-37.6	-38.8	29.0	3.03e+01	91	41	0	189267968	50	5945
2026-01-24 01:22:59.08	135.25	12.19	-37.5	-38.7	29.0	3.03e+01	91	41	0	190840832	50	5918
2026-01-24 01:23:00.09	135.20	12.29	-37.4	-38.6	29.2	3.03e+01	92	41	0	192937984	50	5823
2026-01-24 01:23:01.10	135.15	12.39	-37.5	-38.7	29.1	3.03e+01	92	41	0	194510848	50	5907
2026-01-24 01:23:02.11	135.10	12.49	-37.4	-38.6	29.2	3.03e+01	92	41	0	196608000	50	5852
2026-01-24 01:23:03.12	135.04	12.60	-37.4	-38.6	29.3	3.03e+01	92	41	0	198705152	50	5816
2026-01-24 01:23:04.13	134.99	12.70	-37.4	-38.7	29.2	3.03e+01	92	41	0	200278016	50	5861
2026-01-24 01:23:05.14	134.94	12.81	-37.3	-38.5	29.3	3.03e+01	92	41	0	202375168	50	5778
2026-01-24 01:23:06.15	134.88	12.91	-37.3	-38.5	29.4	3.03e+01	90	41	0	203948032	50	5743
2026-01-24 01:23:07.15	134.83	13.01	-37.5	-38.7	29.3	3.03e+01	92	41	0	206045184	50	5860
2026-01-24 01:23:08.16	134.77	13.12	-37.3	-38.5	29.4	3.03e+01	90	41	0	208142336	50	5775
2026-01-24 01:23:09.18	134.72	13.23	-37.4	-38.6	29.3	3.03e+01	92	41	0	209715200	50	5835
2026-01-24 01:23:10.18	134.66	13.33	-37.4	-38.6	29.3	3.03e+01	90	41	0	211812352	50	5836
2026-01-24 01:23:11.19	134.61	13.44	-37.6	-38.8	29.1	3.03e+01	88	41	0	213909504	50	5981
2026-01-24 01:23:12.20	134.55	13.55	-37.5	-38.8	29.2	3.03e+01	92	41	0	215482368	50	5933
2026-01-24 01:23:13.21	134.49	13.66	-37.6	-38.8	29.1	3.03e+01	92	41	0	217579520	50	5984
2026-01-24 01:23:14.22	134.44	13.76	-37.6	-38.8	29.1	3.03e+01	92	41	0	219152384	50	5970
2026-01-24 01:23:15.23	134.38	13.87	-37.7	-38.9	29.1	3.03e+01	92	41	0	221249536	50	6016
2026-01-24 01:23:16.24	134.32	13.98	-37.6	-38.8	29.1	3.03e+01	92	41	0	223346688	50	5989
2026-01-24 01:23:17.25	134.26	14.09	-37.7	-38.9	29.1	3.03e+01	92	41	0	224919552	50	6013
2026-01-24 01:23:18.26	134.20	14.20	-37.5	-38.8	29.2	3.03e+01	92	41	0	227016704	50	5940
2026-01-24 01:23:19.27	134.14	14.32	-37.6	-38.8	29.2	3.03e+01	92	41	0	229113856	50	5951
2026-01-24 01:23:20.28	134.08	14.43	-37.5	-38.7	29.3	3.03e+01	90	41	0	230686720	50	5891
2026-01-24 01:23:21.29	134.02	14.54	-37.6	-38.9	29.1	3.03e+01	92	41	0	232783872	50	5995
2026-01-24 01:23:22.29	133.96	14.65	-37.4	-38.6	29.4	3.03e+01	92	41	0	234356736	50	5817
2026-01-24 01:23:23.30	133.90	14.76	-37.5	-38.8	29.3	3.03e+01	92	41	0	236453888	50	5928
2026-01-24 01:23:24.31	133.83	14.88	-37.3	-38.5	29.4	3.03e+01	92	41	0	238551040	50	5779
2026-01-24 01:23:25.32	133.77	14.99	-37.4	-38.6	29.4	3.03e+01	92	41	0	240123904	50	5805
2026-01-24 01:23:26.33	133.71	15.11	-37.3	-38.4	29.5	3.03e+01	92	41	0	242221056	50	5720
2026-01-24 01:23:27.34	133.64	15.22	-37.2	-38.4	29.6	3.03e+01	92	41	0	243793920	50	5664
2026-01-24 01:23:28.35	133.58	15.34	-37.2	-38.4	29.5	3.03e+01	92	41	0	245891072	50	5721
2026-01-24 01:23:29.36	133.51	15.46	-37.2	-38.4	29.5	3.03e+01	92	41	0	247988224	50	5704
2026-01-24 01:23:30.37	133.45	15.57	-37.2	-38.4	29.5	3.03e+01	92	41	0	249561088	50	5701
2026-01-24 01:23:31.38	133.38	15.69	-37.2	-38.4	29.6	3.03e+01	92	41	0	251658240	50	5699
2026-01-24 01:23:32.39	133.31	15.81	-37.3	-38.5	29.5	3.03e+01	90	41	0	253231104	50	5734
2026-01-24 01:23:33.40	133.24	15.93	-37.3	-38.5	29.5	3.03e+01	87	41	0	255328256	50	5738
2026-01-24 01:23:34.41	133.18	16.05	-37.1	-38.3	29.6	3.03e+01	90	41	0	257425408	50	5622
2026-01-24 01:23:35.42	133.11	16.17	-37.2	-38.4	29.6	3.03e+01	92	41	0	258998272	50	5679
2026-01-24 01:23:36.43	133.04	16.29	-37.1	-38.4	29.6	3.03e+01	90	41	0	261095424	50	5660
2026-01-24 01:23:37.43	132.97	16.41	-37.2	-38.4	29.6	3.03e+01	90	41	0	262668288	50	5691
2026-01-24 01:23:38.44	132.90	16.53	-37.2	-38.3	29.6	3.03e+01	92	41	0	264765440	50	5654
2026-01-24 01:23:39.45	132.83	16.66	-37.3	-38.5	29.5	3.03e+01	92	41	0	266862592	50	5749
2026-01-24 01:23:40.46	132.75	16.78	-37.4	-38.6	29.5	3.03e+01	90	41	0	268435456	50	5805
2026-01-24 01:23:41.47	132.68	16.90	-37.3	-38.5	29.4	3.03e+01	92	41	0	270532608	50	5789
2026-01-24 01:23:42.48	132.61	17.03	-37.2	-38.4	29.6	3.03e+01	92	41	0	272105472	50	5687
2026-01-24 01:23:43.48	132.53	17.15	-37.3	-38.4	29.5	3.03e+01	90	41	0	274202624	50	5720
2026-01-24 01:23:44.49	132.46	17.28	-37.2	-38.4	29.5	3.03e+01	92	41	0	276299776	50	5686
2026-01-24 01:23:45.50	132.38	17.41	-37.4	-38.6	29.4	3.03e+01	91	41	0	277872640	50	5850
2026-01-24 01:23:46.51	132.31	17.53	-37.2	-38.4	29.6	3.03e+01	91	41	0	279969792	50	5700
2026-01-24 01:23:47.52	132.23	17.66	-37.3	-38.4	29.6	3.03e+01	90	41	0	282066944	50	5720
2026-01-24 01:23:48.53	132.15	17.79	-37.3	-38.5	29.5	3.03e+01	91	41	0	283639808	50	5767
2026-01-24 01:23:49.54	132.08	17.92	-37.3	-38.5	29.5	3.03e+01	92	41	0	285736960	50	5780
2026-01-24 01:23:50.55	132.00	18.05	-37.4	-38.6	29.4	3.03e+01	92	41	0	287309824	50	5818
2026-01-24 01:23:51.56	131.92	18.18	-37.4	-38.6	29.4	3.03e+01	92	41	0	289406976	50	5832
2026-01-24 01:23:52.57	131.84	18.31	-37.4	-38.6	29.5	3.03e+01	88	41	0	291504128	50	5797
2026-01-24 01:23:53.58	131.76	18.45	-37.5	-38.7	29.5	3.03e+01	92	41	0	293076992	50	5875
2026-01-24 01:23:54.59	131.67	18.58	-37.3	-38.5	29.5	3.03e+01	91	41	0	295174144	50	5765
2026-01-24 01:23:55.60	131.59	18.71	-37.4	-38.6	29.4	3.03e+01	90	41	0	296747008	50	5836
2026-01-24 01:23:56.61	131.51	18.85	-37.6	-38.8	29.3	3.03e+01	92	41	0	298844160	50	5974
2026-01-24 01:23:57.62	131.42	18.98	-37.4	-38.6	29.4	3.03e+01	92	41	0	300941312	50	5830
2026-01-24 01:23:58.62	131.34	19.12	-37.5	-38.7	29.4	3.03e+01	91	41	0	302514176	50	5907
2026-01-24 01:23:59.63	131.25	19.25	-37.3	-38.5	29.5	3.03e+01	92	41	0	304611328	50	5744
2026-01-24 01:24:00.64	131.16	19.39	-37.4	-38.6	29.5	3.03e+01	91	41	0	306184192	50	5813
2026-01-24 01:24:01.65	131.08	19.53	-37.3	-38.5	29.6	3.03e+01	92	41	0	308281344	50	5743
2026-01-24 01:24:02.66	130.99	19.67	-37.3	-38.5	29.6	3.03e+01	92	41	0	310378496	50	5757
2026-01-24 01:24:03.67	130.90	19.81	-37.3	-38.5	29.6	3.03e+01	92	41	0	311951360	50	5734
2026-01-24 01:24:04.68	130.81	19.95	-37.3	-38.5	29.6	3.03e+01	92	41	0	314048512	50	5764
2026-01-24 01:24:05.69	130.72	20.09	-37.4	-38.6	29.5	3.03e+01	92	41	0	315621376	50	5802
2026-01-24 01:24:06.70	130.62	20.23	-37.3	-38.5	29.5	3.03e+01	92	41	0	317718528	50	5763
2026-01-24 01:24:07.71	130.53	20.38	-37.5	-38.7	29.4	3.03e+01	90	41	0	319815680	50	5901
2026-01-24 01:24:08.72	130.44	20.52	-37.5	-38.7	29.4	3.03e+01	92	41	0	321388544	50	5876
2026-01-24 01:24:09.73	130.34	20.66	-37.7	-38.9	29.3	3.03e+01	92	41	0	323485696	50	6027
2026-01-24 01:24:10.74	130.24	20.81	-37.5	-38.7	29.4	3.03e+01	92	41	0	325582848	50	5907
2026-01-24 01:24:11.75	130.15	20.96	-37.6	-38.8	29.4	3.03e+01	91	41	0	327155712	50	5945
2026-01-24 01:24:12.76	130.05	21.10	-37.6	-38.8	29.3	3.03e+01	92	41	0	329252864	50	5988
2026-01-24 01:24:13.77	129.95	21.25	-37.6	-38.7	29.4	3.03e+01	92	41	0	330825728	50	5922
2026-01-24 01:24:14.78	129.85	21.40	-37.6	-38.8	29.3	3.03e+01	90	41	0	332922880	50	5983
2026-01-24 01:24:15.79	129.75	21.55	-37.5	-38.7	29.4	3.03e+01	92	41	0	335020032	50	5918
2026-01-24 01:24:16.80	129.65	21.70	-37.4	-38.6	29.5	3.03e+01	92	41	0	336592896	50	5820
2026-01-24 01:24:17.81	129.54	21.85	-37.5	-38.7	29.5	3.03e+01	92	41	0	338690048	50	5872
2026-01-24 01:24:18.82	129.44	22.01	-37.4	-38.6	29.5	3.03e+01	92	41	0	340262912	50	5812
2026-01-24 01:24:19.83	129.33	22.16	-37.4	-38.6	29.4	3.03e+01	90	41	0	342360064	50	5853
2026-01-24 01:24:20.84	129.23	22.31	-37.5	-38.7	29.4	3.03e+01	92	41	0	344457216	50	5890
2026-01-24 01:24:21.85	129.12	22.47	-37.6	-38.8	29.3	3.03e+01	90	41	0	346030080	50	5938
2026-01-24 01:24:22.86	129.01	22.62	-37.6	-38.8	29.4	3.03e+01	92	41	0	348127232	50	5933
2026-01-24 01:24:23.87	128.90	22.78	-37.7	-38.9	29.2	3.03e+01	90	41	0	350224384	50	6003
2026-01-24 01:24:24.88	128.79	22.94	-37.8	-39.0	29.3	3.03e+01	90	41	0	351797248	50	6085
2026-01-24 01:24:25.89	128.67	23.10	-37.7	-38.9	29.3	3.03e+01	92	41	0	353894400	50	6039
2026-01-24 01:24:26.90	128.56	23.26	-37.9	-39.1	29.1	3.03e+01	91	41	0	355467264	50	6171
2026-01-24 01:24:27.90	128.45	23.42	-37.8	-39.0	29.2	3.03e+01	91	41	0	357564416	50	6112
2026-01-24 01:24:28.91	128.33	23.58	-37.8	-39.0	29.2	3.03e+01	90	41	0	359661568	50	6127
2026-01-24 01:24:29.92	128.21	23.74	-37.8	-39.0	29.2	3.03e+01	91	41	0	361234432	50	6091
2026-01-24 01:24:30.93	128.09	23.91	-37.9	-39.1	29.1	3.03e+01	87	41	0	363331584	50	6176
2026-01-24 01:24:31.94	127.97	24.07	-37.7	-38.9	29.3	3.03e+01	91	41	0	364904448	50	6004
2026-01-24 01:24:32.95	127.85	24.24	-37.6	-38.8	29.4	3.03e+01	92	41	0	367001600	50	5930
2026-01-24 01:24:33.96	127.73	24.40	-37.5	-38.7	29.4	3.03e+01	91	41	0	369098752	50	5898
2026-01-24 01:24:34.97	127.60	24.57	-37.4	-38.6	29.5	3.03e+01	92	41	0	370671616	50	5828
2026-01-24 01:24:35.98	127.48	24.74	-37.4	-38.6	29.6	3.03e+01	90	41	0	372768768	50	5837
2026-01-24 01:24:36.99	127.35	24.91	-37.6	-38.8	29.4	3.03e+01	92	41	0	374341632	50	5940
2026-01-24 01:24:38.00	127.22	25.08	-37.6	-38.9	29.4	3.03e+01	92	41	0	376438784	50	5995
2026-01-24 01:24:39.01	127.09	25.25	-37.7	-38.9	29.3	3.03e+01	90	41	0	378535936	50	6062
2026-01-24 01:24:40.02	126.96	25.42	-37.9	-39.1	29.1	3.03e+01	92	41	0	380108800	50	6189
2026-01-24 01:24:41.03	126.82	25.60	-37.8	-39.1	29.2	3.03e+01	92	41	0	382205952	50	6136
2026-01-24 01:24:42.04	126.69	25.77	-37.8	-39.0	29.2	3.03e+01	91	41	0	383778816	50	6084
2026-01-24 01:24:43.05	126.55	25.95	-37.7	-38.9	29.3	3.03e+01	92	41	0	385875968	50	6039
2026-01-24 01:24:44.06	126.41	26.13	-37.7	-38.8	29.4	3.03e+01	92	41	0	387973120	50	5994
2026-01-24 01:24:45.07	126.27	26.31	-37.3	-38.5	29.8	3.03e+01	90	41	0	389545984	50	5761
2026-01-24 01:24:46.08	126.13	26.48	-37.1	-38.3	29.9	3.03e+01	90	41	0	391643136	50	5595
2026-01-24 01:24:47.09	125.99	26.67	-37.2	-38.4	29.8	3.03e+01	90	41	0	393740288	50	5688
2026-01-24 01:24:48.09	125.85	26.84	-37.2	-38.4	29.8	3.03e+01	89	41	0	395313152	50	5674
2026-01-24 01:24:49.10	125.70	27.03	-37.3	-38.5	29.7	3.03e+01	92	41	0	397410304	50	5772
2026-01-24 01:24:50.11	125.55	27.21	-37.4	-38.5	29.8	3.03e+01	89	41	0	398983168	50	5783
2026-01-24 01:24:51.12	125.40	27.40	-37.2	-38.4	29.9	3.03e+01	92	41	0	401080320	50	5687
2026-01-24 01:24:52.13	125.25	27.58	-37.3	-38.5	29.8	3.03e+01	90	41	0	403177472	50	5752
2026-01-24 01:24:53.14	125.09	27.77	-37.3	-38.5	29.8	3.03e+01	87	41	0	404750336	50	5727
2026-01-24 01:24:54.15	124.94	27.96	-37.2	-38.4	29.9	3.03e+01	92	41	0	406847488	50	5663
2026-01-24 01:24:55.16	124.78	28.15	-37.1	-38.3	30.0	3.03e+01	92	41	0	408420352	50	5605
2026-01-24 01:24:56.17	124.62	28.34	-37.2	-38.4	29.9	3.03e+01	90	41	0	410517504	50	5692
2026-01-24 01:24:57.18	124.46	28.53	-37.4	-38.6	29.7	3.03e+01	92	41	0	412614656	50	5817
2026-01-24 01:24:58.19	124.29	28.72	-37.3	-38.5	29.8	3.03e+01	90	41	0	414187520	50	5735
2026-01-24 01:24:59.20	124.13	28.92	-37.2	-38.4	29.9	3.03e+01	92	41	0	416284672	50	5677
2026-01-24 01:25:00.21	123.96	29.11	-37.0	-38.1	30.1	3.03e+01	92	41	0	418381824	50	5525
2026-01-24 01:25:01.22	123.79	29.31	-37.0	-38.1	30.0	3.03e+01	93	41	0	419954688	48	6183
2026-01-24 01:25:02.23	123.62	29.51	-36.9	-38.1	30.1	3.03e+01	92	41	0	422051840	48	6151
2026-01-24 01:25:03.23	123.44	29.70	-36.9	-38.1	30.1	3.03e+01	90	41	0	423624704	48	6171
2026-01-24 01:25:04.24	123.27	29.90	-37.0	-38.1	30.1	3.03e+01	92	41	0	425721856	48	6195
2026-01-24 01:25:05.25	123.09	30.10	-36.9	-38.1	30.1	3.03e+01	92	41	0	427819008	48	6186
2026-01-24 01:25:06.27	122.90	30.31	-37.1	-38.3	30.0	3.03e+01	92	41	0	429391872	48	6282
2026-01-24 01:25:07.27	122.72	30.51	-37.0	-38.2	30.1	3.03e+01	90	41	0	431489024	48	6218
2026-01-24 01:25:08.28	122.53	30.72	-37.0	-38.2	30.0	3.03e+01	92	41	0	433061888	48	6243
2026-01-24 01:25:09.29	122.34	30.92	-36.9	-38.0	30.1	3.03e+01	92	41	0	435159040	48	6131
2026-01-24 01:25:10.30	122.15	31.13	-36.9	-38.1	30.1	3.03e+01	92	41	0	437256192	48	6162
2026-01-24 01:25:11.31	121.96	31.34	-36.9	-38.1	30.1	3.03e+01	90	41	0	438829056	48	6138
2026-01-24 01:25:12.32	121.76	31.55	-36.8	-38.0	30.2	3.03e+01	92	42	0	440926208	48	6100
2026-01-24 01:25:13.33	121.56	31.76	-36.9	-38.1	30.1	3.03e+01	92	42	0	442499072	48	6175
2026-01-24 01:25:14.34	121.36	31.97	-37.1	-38.3	30.0	3.03e+01	92	41	0	444596224	48	6330
2026-01-24 01:25:15.35	121.15	32.18	-37.2	-38.4	29.8	3.03e+01	92	42	0	446693376	48	6373
2026-01-24 01:25:16.36	120.94	32.40	-37.2	-38.4	30.0	3.03e+01	92	41	0	448266240	48	6389
2026-01-24 01:25:17.37	120.73	32.61	-37.0	-38.1	30.1	3.03e+01	90	41	0	450363392	48	6198
2026-01-24 01:25:18.38	120.52	32.83	-37.1	-38.2	30.1	3.03e+01	91	41	0	451936256	48	6277
2026-01-24 01:25:19.39	120.30	33.05	-37.2	-38.4	29.8	3.03e+01	92	42	0	454033408	48	6402
2026-01-24 01:25:20.40	120.08	33.27	-37.6	-38.8	29.6	3.03e+01	92	41	0	456130560	48	6660
2026-01-24 01:25:21.41	119.86	33.49	-37.8	-39.0	29.5	3.03e+01	90	42	0	457703424	48	6817
2026-01-24 01:25:22.41	119.64	33.71	-37.7	-38.9	29.4	3.03e+01	92	41	0	459800576	48	6774
2026-01-24 01:25:23.42	119.41	33.93	-37.6	-38.8	29.6	3.03e+01	90	41	0	461897728	48	6710
2026-01-24 01:25:24.43	119.17	34.16	-37.7	-38.9	29.5	3.03e+01	91	41	0	463470592	48	6750
2026-01-24 01:25:25.44	118.94	34.38	-37.7	-38.9	29.5	3.03e+01	92	42	0	465567744	48	6746
2026-01-24 01:25:26.45	118.70	34.61	-37.9	-39.1	29.3	3.03e+01	91	41	0	467140608	48	6928
2026-01-24 01:25:27.46	118.45	34.84	-38.2	-39.4	29.1	3.03e+01	92	41	0	469237760	50	6384
2026-01-24 01:25:28.47	118.21	35.07	-38.2	-39.5	29.0	3.03e+01	92	41	0	471334912	50	6433
2026-01-24 01:25:29.48	117.96	35.30	-38.5	-39.7	28.9	3.03e+01	92	41	0	472907776	50	6605
2026-01-24 01:25:30.49	117.70	35.53	-38.4	-39.7	28.8	3.03e+01	92	41	0	475004928	50	6594
2026-01-24 01:25:31.50	117.45	35.76	-38.3	-39.5	29.0	3.03e+01	92	41	0	476577792	50	6476
2026-01-24 01:25:32.50	117.19	35.99	-38.4	-39.6	28.9	3.03e+01	91	41	0	478674944	50	6539
2026-01-24 01:25:33.51	116.92	36.23	-38.6	-39.9	28.7	3.03e+01	90	41	0	480772096	50	6754
2026-01-24 01:25:34.52	116.65	36.46	-38.8	-40.1	28.5	3.03e+01	91	41	0	482344960	50	6907
2026-01-24 01:25:35.53	116.38	36.70	-39.0	-40.2	28.4	3.03e+01	92	41	0	484442112	52	6270
2026-01-24 01:25:36.54	116.10	36.94	-39.1	-40.3	28.3	3.03e+01	92	42	0	486014976	52	6341
2026-01-24 01:25:37.55	115.82	37.18	-39.0	-40.3	28.4	3.03e+01	91	41	0	488112128	52	6282
2026-01-24 01:25:38.56	115.53	37.42	-39.4	-40.6	28.1	3.03e+01	90	41	0	490209280	52	6569
2026-01-24 01:25:39.57	115.24	37.66	-39.5	-40.7	27.9	3.03e+01	92	41	0	491782144	52	6633
2026-01-24 01:25:40.58	114.95	37.90	-39.6	-40.9	27.8	3.03e+01	91	41	0	493879296	52	6793
2026-01-24 01:25:41.59	114.65	38.14	-39.4	-40.7	28.0	3.03e+01	92	41	0	495452160	52	6635
2026-01-24 01:25:42.60	114.34	38.39	-39.3	-40.6	28.1	3.03e+01	92	41	0	497549312	52	6510
2026-01-24 01:25:43.61	114.03	38.63	-39.5	-40.8	28.0	3.03e+01	92	41	0	499646464	52	6665
2026-01-24 01:25:44.62	113.72	38.88	-39.7	-41.0	27.7	3.03e+01	92	41	0	501219328	52	6871
2026-01-24 01:25:45.63	113.40	39.13	-39.5	-40.8	27.9	3.03e+01	92	41	0	503316480	52	6684
2026-01-24 01:25:46.64	113.08	39.38	-39.6	-40.9	27.9	3.03e+01	92	41	0	504889344	52	6759
2026-01-24 01:25:47.65	112.75	39.62	-39.8	-41.1	27.7	3.03e+01	92	41	0	506986496	52	6960
2026-01-24 01:25:48.66	112.42	39.87	-39.4	-40.7	28.0	3.03e+01	91	41	0	509083648	52	6641
2026-01-24 01:25:49.66	112.08	40.12	-39.4	-40.7	28.0	3.03e+01	92	41	0	510656512	52	6623
2026-01-24 01:25:50.67	111.74	40.37	-39.3	-40.6	28.1	3.03e+01	85	41	0	512753664	52	6546
2026-01-24 01:25:51.68	111.39	40.62	-39.3	-40.6	28.2	3.03e+01	92	42	0	514850816	52	6545
2026-01-24 01:25:52.69	111.03	40.88	-39.2	-40.5	28.2	3.03e+01	92	41	0	516423680	52	6482
2026-01-24 01:25:53.70	110.67	41.13	-39.3	-40.6	28.1	3.03e+01	90	41	0	518520832	52	6562
2026-01-24 01:25:54.71	110.30	41.38	-39.5	-40.8	28.0	3.03e+01	92	41	0	520093696	52	6708
2026-01-24 01:25:55.72	109.93	41.64	-39.0	-40.2	28.4	3.03e+01	91	41	0	522190848	52	6255
2026-01-24 01:25:56.73	109.55	41.89	-38.9	-40.1	28.6	3.03e+01	91	42	0	524288000	52	6193
2026-01-24 01:25:57.74	109.16	42.14	-39.0	-40.3	28.4	3.03e+01	92	41	0	525860864	52	6288
2026-01-24 01:25:58.76	108.77	42.40	-39.1	-40.4	28.3	3.03e+01	95	41	0	527958016	52	6382
2026-01-24 01:25:59.76	108.37	42.66	-39.0	-40.2	28.4	3.03e+01	91	41	0	530055168	52	6261
2026-01-24 01:26:00.77	107.97	42.91	-39.0	-40.3	28.5	3.03e+01	92	42	0	531628032	52	6278
2026-01-24 01:26:01.78	107.56	43.17	-38.5	-39.7	28.9	3.03e+01	92	41	0	533725184	52	5918
2026-01-24 01:26:02.79	107.14	43.42	-38.7	-39.9	28.7	3.03e+01	92	41	0	535298048	52	6031
2026-01-24 01:26:03.80	106.71	43.68	-38.9	-40.2	28.5	3.03e+01	92	42	0	537395200	52	6221
2026-01-24 01:26:04.81	106.28	43.93	-38.8	-40.0	28.6	3.03e+01	92	41	0	539492352	52	6092
2026-01-24 01:26:05.82	105.84	44.19	-38.7	-39.9	28.7	3.03e+01	91	42	0	541065216	52	6042
2026-01-24 01:26:06.82	105.40	44.44	-38.3	-39.5	29.1	3.03e+01	92	42	0	543162368	52	5754
2026-01-24 01:26:07.84	104.94	44.70	-38.7	-39.9	28.7	3.03e+01	92	41	0	544735232	52	6030
2026-01-24 01:26:08.85	104.48	44.96	-38.8	-40.1	28.6	3.03e+01	91	41	0	546832384	52	6146
2026-01-24 01:26:09.85	104.02	45.21	-38.5	-39.7	28.9	3.03e+01	87	42	0	548929536	52	5883
2026-01-24 01:26:10.86	103.54	45.47	-38.6	-39.8	28.8	3.03e+01	91	42	0	550502400	52	5986
2026-01-24 01:26:11.87	103.05	45.72	-38.8	-40.0	28.6	3.03e+01	90	42	0	552599552	52	6115
2026-01-24 01:26:12.88	102.56	45.97	-38.8	-40.0	28.6	3.03e+01	88	42	0	554172416	52	6130
2026-01-24 01:26:13.89	102.06	46.23	-38.8	-40.0	28.6	3.03e+01	89	41	0	556269568	52	6132
2026-01-24 01:26:14.90	101.55	46.48	-38.6	-39.8	28.9	3.03e+01	91	41	0	558366720	52	5960
2026-01-24 01:26:15.91	101.04	46.73	-38.5	-39.7	28.9	3.03e+01	90	41	0	559939584	52	5916
2026-01-24 01:26:16.92	100.51	46.98	-39.0	-40.3	28.4	3.03e+01	91	41	0	562036736	52	6302
2026-01-24 01:26:17.92	99.98	47.22	-39.0	-40.2	28.5	3.03e+01	90	42	0	563609600	52	6252
2026-01-24 01:26:18.93	99.44	47.47	-38.7	-39.9	28.8	3.03e+01	90	42	0	565706752	52	6022
2026-01-24 01:26:19.94	98.89	47.72	-38.7	-40.0	28.6	3.03e+01	89	42	0	567803904	52	6082
2026-01-24 01:26:20.95	98.33	47.96	-39.2	-40.4	28.3	3.03e+01	92	42	0	569376768	52	6418
2026-01-24 01:26:21.96	97.76	48.21	-39.5	-40.7	27.9	3.03e+01	92	41	0	571473920	52	6635
2026-01-24 01:26:22.97	97.18	48.45	-39.1	-40.4	28.3	3.03e+01	92	41	0	573046784	52	6365
2026-01-24 01:26:23.98	96.59	48.69	-39.3	-40.6	28.2	3.03e+01	92	41	0	575143936	52	6542
2026-01-24 01:26:24.99	95.99	48.93	-39.1	-40.3	28.4	3.03e+01	92	42	0	577241088	52	6340
2026-01-24 01:26:26.00	95.39	49.16	-39.1	-40.3	28.4	3.03e+01	92	42	0	578813952	52	6330
2026-01-24 01:26:27.01	94.77	49.40	-38.6	-39.8	28.9	3.03e+01	91	42	0	580911104	52	5970
2026-01-24 01:26:28.02	94.14	49.63	-38.8	-40.1	28.7	3.03e+01	92	41	0	583008256	52	6136
2026-01-24 01:26:29.03	93.51	49.86	-39.0	-40.3	28.4	3.03e+01	92	41	0	584581120	52	6279
2026-01-24 01:26:30.04	92.86	50.08	-38.6	-39.8	28.9	3.03e+01	92	42	0	586678272	52	5983
2026-01-24 01:26:31.05	92.21	50.31	-38.5	-39.7	28.7	3.03e+01	91	42	0	588251136	52	5908
2026-01-24 01:26:32.05	91.55	50.52	-39.0	-40.3	28.5	3.03e+01	88	42	0	590348288	52	6286
2026-01-24 01:26:33.06	90.88	50.74	-38.5	-39.7	28.8	3.03e+01	91	42	0	592445440	52	5919
2026-01-24 01:26:34.07	90.19	50.96	-37.9	-39.1	29.4	3.03e+01	91	42	0	594018304	50	6168
2026-01-24 01:26:35.08	89.50	51.17	-38.2	-39.4	29.2	3.03e+01	87	42	0	596115456	50	6375
2026-01-24 01:26:36.09	88.79	51.38	-38.5	-39.8	28.9	3.03e+01	91	42	0	597688320	50	6663
2026-01-24 01:26:37.10	88.08	51.58	-38.2	-39.4	29.1	3.03e+01	92	42	0	599785472	50	6373
2026-01-24 01:26:38.11	87.36	51.78	-38.6	-39.8	28.8	3.03e+01	92	42	0	601882624	50	6684
2026-01-24 01:26:39.12	86.62	51.98	-38.6	-39.9	28.9	3.03e+01	92	42	0	603455488	50	6742
2026-01-24 01:26:40.13	85.88	52.17	-38.0	-39.2	29.3	3.03e+01	92	42	0	605552640	50	6223
2026-01-24 01:26:41.14	85.13	52.36	-37.9	-39.1	29.4	3.03e+01	92	42	0	607125504	50	6153
2026-01-24 01:26:42.15	84.36	52.54	-37.9	-39.1	29.4	3.03e+01	92	42	0	609222656	50	6147
2026-01-24 01:26:43.16	83.59	52.72	-37.9	-39.1	29.5	3.03e+01	92	42	0	611319808	50	6152
2026-01-24 01:26:44.17	82.81	52.89	-38.0	-39.2	29.4	3.03e+01	90	42	0	612892672	50	6230
2026-01-24 01:26:45.18	82.02	53.06	-37.9	-39.1	29.4	3.03e+01	92	42	0	614989824	50	6158
2026-01-24 01:26:46.18	81.23	53.22	-37.5	-38.6	29.8	3.03e+01	91	42	0	616562688	50	5853
2026-01-24 01:26:47.19	80.42	53.38	-38.1	-39.3	29.3	3.03e+01	92	42	0	618659840	50	6289
2026-01-24 01:26:48.20	79.60	53.54	-37.9	-39.1	29.3	3.03e+01	92	42	0	620756992	50	6182
2026-01-24 01:26:49.21	78.77	53.69	-37.5	-38.7	29.8	3.03e+01	92	42	0	622329856	50	5904
2026-01-24 01:26:50.22	77.94	53.83	-38.1	-39.4	29.2	3.03e+01	92	42	0	624427008	50	6357
2026-01-24 01:26:51.23	77.10	53.97	-38.1	-39.3	29.3	3.03e+01	92	42	0	626524160	50	6290
2026-01-24 01:26:52.24	76.25	54.10	-38.1	-39.3	29.3	3.03e+01	90	42	0	628097024	50	6341
2026-01-24 01:26:53.25	75.39	54.22	-38.2	-39.4	29.1	3.03e+01	92	42	0	630194176	50	6415
2026-01-24 01:26:54.26	74.52	54.34	-38.5	-39.7	28.8	3.03e+01	92	42	0	631767040	50	6617
2026-01-24 01:26:55.27	73.65	54.45	-38.7	-39.9	28.8	3.03e+01	92	42	0	633864192	50	6780
2026-01-24 01:26:56.28	72.77	54.56	-38.0	-39.2	29.4	3.03e+01	92	42	0	635961344	50	6212
2026-01-24 01:26:57.29	71.88	54.66	-38.2	-39.4	29.2	3.03e+01	92	42	0	637534208	50	6372
2026-01-24 01:26:58.30	70.99	54.75	-38.2	-39.4	29.2	3.03e+01	90	42	0	639631360	50	6366
2026-01-24 01:26:59.31	70.09	54.84	-38.2	-39.4	29.2	3.03e+01	91	42	0	641204224	50	6407
2026-01-24 01:27:00.32	69.19	54.92	-38.1	-39.3	29.3	3.03e+01	90	42	0	643301376	50	6318
2026-01-24 01:27:01.33	68.28	54.99	-38.3	-39.5	29.1	3.03e+01	92	42	0	645398528	50	6449
2026-01-24 01:27:02.34	67.37	55.05	-38.7	-39.9	28.7	3.03e+01	90	42	0	646971392	50	6774
2026-01-24 01:27:03.34	66.46	55.11	-38.1	-39.3	29.3	3.03e+01	92	42	0	649068544	50	6334
2026-01-24 01:27:04.35	65.54	55.16	-38.8	-40.0	28.7	3.03e+01	90	42	0	651165696	50	6870
2026-01-24 01:27:05.36	64.62	55.20	-38.8	-40.0	28.7	3.03e+01	92	42	0	652738560	52	6110
2026-01-24 01:27:06.37	63.69	55.24	-38.6	-39.8	28.9	3.03e+01	90	42	0	654835712	52	5968
2026-01-24 01:27:07.38	62.76	55.27	-38.6	-39.8	29.0	3.03e+01	92	42	0	656408576	52	5964
2026-01-24 01:27:08.39	61.83	55.29	-38.9	-40.2	28.7	3.03e+01	92	42	0	658505728	52	6221
2026-01-24 01:27:09.40	60.90	55.30	-38.6	-39.8	28.9	3.03e+01	90	42	0	660602880	52	5983
2026-01-24 01:27:10.41	59.97	55.31	-38.2	-39.4	29.2	3.03e+01	92	42	0	662175744	52	5707
2026-01-24 01:27:11.42	59.04	55.31	-39.2	-40.4	28.3	3.03e+01	92	42	0	664272896	52	6419
2026-01-24 01:27:12.43	58.11	55.30	-38.1	-39.3	29.2	3.03e+01	92	42	0	665845760	52	5641
2026-01-24 01:27:13.44	57.18	55.29	-38.5	-39.7	29.0	3.03e+01	90	42	0	667942912	52	5889
2026-01-24 01:27:14.45	56.25	55.26	-38.3	-39.5	29.0	3.03e+01	92	42	0	669515776	52	5765
2026-01-24 01:27:15.46	55.32	55.23	-38.5	-39.8	28.9	3.03e+01	92	42	0	671612928	52	5928
2026-01-24 01:27:16.47	54.40	55.19	-38.4	-39.6	29.1	3.03e+01	92	42	0	673710080	52	5822
2026-01-24 01:27:17.48	53.48	55.15	-38.5	-39.8	28.9	3.03e+01	92	42	0	675282944	52	5933
2026-01-24 01:27:18.49	52.56	55.10	-38.8	-40.0	28.7	3.03e+01	90	42	0	677380096	52	6090
2026-01-24 01:27:19.50	51.64	55.04	-38.7	-39.9	28.8	3.03e+01	92	42	0	679477248	52	6020
2026-01-24 01:27:20.50	50.74	54.97	-38.4	-39.6	29.1	3.03e+01	91	42	0	681050112	52	5831
2026-01-24 01:27:21.51	49.84	54.90	-38.4	-39.6	29.0	3.03e+01	92	42	0	683147264	52	5816
2026-01-24 01:27:22.52	48.93	54.82	-38.7	-39.9	28.8	3.03e+01	92	42	0	684720128	52	6036
2026-01-24 01:27:23.53	48.04	54.73	-38.2	-39.4	29.3	3.03e+01	91	42	0	686817280	52	5699
2026-01-24 01:27:24.54	47.15	54.64	-38.3	-39.5	29.2	3.03e+01	91	42	0	688914432	52	5765
2026-01-24 01:27:25.55	46.26	54.53	-38.4	-39.6	29.1	3.03e+01	91	42	0	690487296	52	5806
2026-01-24 01:27:26.56	45.39	54.43	-38.5	-39.7	28.9	3.03e+01	92	42	0	692584448	52	5896
2026-01-24 01:27:27.57	44.52	54.31	-37.8	-39.0	29.5	3.03e+01	91	42	0	694681600	50	6076
2026-01-24 01:27:28.58	43.65	54.19	-38.4	-39.6	29.1	3.03e+01	92	42	0	696254464	50	6566
2026-01-24 01:27:29.59	42.80	54.07	-38.6	-39.8	28.8	3.03e+01	89	42	0	698351616	50	6688
2026-01-24 01:27:30.60	41.95	53.94	-38.4	-39.6	29.0	3.03e+01	92	42	0	699924480	50	6524
2026-01-24 01:27:31.61	41.11	53.80	-37.8	-39.0	29.6	3.03e+01	91	42	0	702021632	50	6103
2026-01-24 01:27:32.63	40.27	53.65	-38.5	-39.7	29.0	3.03e+01	86	42	0	704118784	50	6634
2026-01-24 01:27:33.63	39.45	53.50	-38.0	-39.2	29.4	3.03e+01	92	42	0	705691648	50	6219
2026-01-24 01:27:34.64	38.64	53.35	-37.4	-38.6	29.9	3.03e+01	92	42	0	707788800	50	5801
2026-01-24 01:27:35.65	37.83	53.19	-37.8	-39.0	29.5	3.03e+01	92	42	0	709361664	50	6118
2026-01-24 01:27:36.66	37.03	53.02	-38.2	-39.4	29.2	3.03e+01	92	42	0	711458816	50	6392
2026-01-24 01:27:37.67	36.25	52.85	-37.7	-38.9	29.5	3.03e+01	90	42	0	713555968	50	6031
2026-01-24 01:27:38.68	35.47	52.68	-38.1	-39.3	29.3	3.03e+01	92	42	0	715128832	50	6300
2026-01-24 01:27:39.69	34.70	52.50	-37.8	-39.0	29.7	3.03e+01	92	42	0	717225984	50	6093
2026-01-24 01:27:40.70	33.94	52.32	-37.9	-39.1	29.5	3.03e+01	92	42	0	719323136	50	6163
2026-01-24 01:27:41.72	33.18	52.12	-37.6	-38.8	29.7	3.03e+01	92	42	0	720896000	50	5943
2026-01-24 01:27:42.73	32.44	51.93	-37.5	-38.7	29.8	3.03e+01	92	42	0	722993152	50	5893
2026-01-24 01:27:43.73	31.72	51.74	-37.6	-38.8	29.7	3.03e+01	90	42	0	724566016	50	5962
2026-01-24 01:27:44.74	31.00	51.54	-37.5	-38.7	29.9	3.03e+01	92	42	0	726663168	50	5863
2026-01-24 01:27:45.75	30.29	51.33	-37.6	-38.8	29.7	3.03e+01	92	42	0	728760320	50	5957
2026-01-24 01:27:46.76	29.59	51.12	-37.4	-38.6	29.8	3.03e+01	92	42	0	730333184	50	5816
2026-01-24 01:27:47.77	28.90	50.91	-37.7	-38.9	29.5	3.03e+01	90	42	0	732430336	50	6017
2026-01-24 01:27:48.78	28.22	50.70	-38.5	-39.8	28.8	3.03e+01	91	42	0	734003200	50	6676
2026-01-24 01:27:49.79	27.55	50.48	-37.7	-38.8	29.6	3.03e+01	90	42	0	736100352	50	5984
2026-01-24 01:27:50.80	26.89	50.26	-37.5	-38.7	29.8	3.03e+01	91	42	0	738197504	50	5871
2026-01-24 01:27:51.81	26.24	50.04	-37.9	-39.1	29.4	3.03e+01	89	42	0	739770368	50	6138
2026-01-24 01:27:52.82	25.59	49.81	-37.9	-39.1	29.6	3.03e+01	92	42	0	741867520	50	6152
2026-01-24 01:27:53.83	24.96	49.58	-38.0	-39.2	29.5	3.03e+01	90	42	0	743440384	50	6208
2026-01-24 01:27:54.84	24.34	49.35	-37.7	-38.9	29.7	3.03e+01	87	42	0	745537536	50	6031
2026-01-24 01:27:55.85	23.73	49.12	-37.8	-39.0	29.5	3.03e+01	92	42	0	747634688	50	6065
2026-01-24 01:27:56.86	23.12	48.88	-38.0	-39.2	29.4	3.03e+01	91	42	0	749207552	50	6261
2026-01-24 01:27:57.86	22.54	48.64	-38.0	-39.2	29.3	3.03e+01	90	42	0	751304704	50	6218
2026-01-24 01:27:58.87	21.95	48.40	-37.8	-39.0	29.6	3.03e+01	90	42	0	752877568	50	6079
2026-01-24 01:27:59.88	21.38	48.16	-37.7	-38.9	29.7	3.03e+01	92	42	0	754974720	50	6046
2026-01-24 01:28:00.89	20.81	47.92	-38.0	-39.2	29.3	3.03e+01	92	42	0	757071872	50	6271
2026-01-24 01:28:01.90	20.25	47.68	-37.9	-39.1	29.5	3.03e+01	92	42	0	758644736	50	6176
2026-01-24 01:28:02.91	19.70	47.43	-38.0	-39.2	29.4	3.03e+01	92	42	0	760741888	50	6223
2026-01-24 01:28:03.92	19.17	47.18	-37.5	-38.6	29.9	3.03e+01	92	42	0	762839040	50	5834
2026-01-24 01:28:04.93	18.63	46.93	-37.2	-38.4	30.0	3.03e+01	92	42	0	764411904	50	5693
2026-01-24 01:28:05.94	18.11	46.68	-37.5	-38.7	29.8	3.03e+01	91	42	0	766509056	50	5887
2026-01-24 01:28:06.95	17.60	46.43	-38.0	-39.2	29.4	3.03e+01	90	42	0	768081920	50	6239
2026-01-24 01:28:07.96	17.09	46.18	-37.8	-39.0	29.5	3.03e+01	91	42	0	770179072	50	6124
2026-01-24 01:28:08.97	16.59	45.93	-37.3	-38.5	30.0	3.03e+01	90	42	0	772276224	50	5758
2026-01-24 01:28:09.98	16.11	45.68	-37.3	-38.4	30.0	3.03e+01	91	42	0	773849088	50	5721
2026-01-24 01:28:10.99	15.62	45.42	-37.8	-39.0	29.6	3.03e+01	92	42	0	775946240	50	6107
2026-01-24 01:28:12.00	15.15	45.17	-37.9	-39.1	29.5	3.03e+01	90	42	0	777519104	50	6147
2026-01-24 01:28:13.01	14.68	44.92	-38.0	-39.2	29.3	3.03e+01	59	42	0	779616256	50	6229
2026-01-24 01:28:14.02	14.23	44.66	-37.7	-38.9	29.7	3.03e+01	60	42	0	781713408	50	6036
2026-01-24 01:28:15.03	13.77	44.41	-38.0	-39.2	29.3	3.03e+01	59	42	0	783286272	50	6238
2026-01-24 01:28:16.04	13.33	44.15	-38.2	-39.4	29.2	3.03e+01	56	42	0	785383424	50	6397
2026-01-24 01:28:17.05	12.89	43.90	-38.4	-39.6	29.1	3.03e+01	48	42	0	786956288	50	6550
2026-01-24 01:28:18.05	12.47	43.64	-38.1	-39.3	29.3	3.03e+01	60	42	0	789053440	50	6295
2026-01-24 01:28:19.06	12.05	43.39	-38.2	-39.3	29.3	3.03e+01	58	42	0	791150592	50	6349
2026-01-24 01:28:20.07	11.63	43.13	-38.3	-39.5	29.1	3.03e+01	48	42	0	792723456	50	6458
2026-01-24 01:28:21.08	11.22	42.88	-38.4	-39.6	29.1	3.03e+01	61	42	0	794820608	50	6505
2026-01-24 01:28:22.09	10.82	42.62	-38.5	-39.8	28.9	3.03e+01	58	42	0	796393472	50	6659
2026-01-24 01:28:23.10	10.42	42.37	-38.5	-39.8	28.9	3.03e+01	62	42	0	798490624	50	6665
2026-01-24 01:28:24.11	10.04	42.12	-38.9	-40.1	28.6	3.03e+01	63	42	0	800587776	50	6920
2026-01-24 01:28:25.12	9.65	41.86	-38.9	-40.2	28.5	3.03e+01	51	42	0	802160640	52	6246
2026-01-24 01:28:26.13	9.28	41.61	-38.6	-39.8	28.9	3.03e+01	58	42	0	804257792	52	5967
2026-01-24 01:28:27.14	8.90	41.36	-38.6	-39.8	28.8	3.03e+01	59	42	0	805830656	52	5990
2026-01-24 01:28:28.14	8.54	41.11	-39.3	-40.6	28.2	3.03e+01	58	42	0	807927808	52	6551
2026-01-24 01:28:29.15	8.18	40.85	-39.5	-40.8	27.9	3.03e+01	62	42	0	810024960	52	6693
2026-01-24 01:28:30.16	7.83	40.60	-39.2	-40.5	28.2	3.03e+01	44	42	0	811597824	52	6430
2026-01-24 01:28:31.17	7.48	40.35	-39.1	-40.3	28.4	3.03e+01	60	42	0	813694976	52	6305
2026-01-24 01:28:32.18	7.14	40.10	-39.6	-40.9	27.9	3.03e+01	59	42	0	815792128	52	6800
2026-01-24 01:28:33.19	6.80	39.85	-39.6	-40.9	27.8	3.03e+01	54	42	0	817364992	52	6734
2026-01-24 01:28:34.20	6.47	39.61	-39.2	-40.4	28.3	3.03e+01	57	42	0	819462144	52	6392
2026-01-24 01:28:35.21	6.14	39.36	-40.0	-41.3	27.6	3.03e+01	60	42	0	821035008	52	7098
2026-01-24 01:28:36.22	5.82	39.11	-40.2	-41.6	27.3	3.03e+01	58	42	0	823132160	54	6501
2026-01-24 01:28:37.23	5.50	38.87	-39.8	-41.1	27.6	3.03e+01	58	42	0	825229312	54	6155
2026-01-24 01:28:38.24	5.19	38.62	-39.6	-40.8	27.9	3.03e+01	44	42	0	826802176	54	5990
2026-01-24 01:28:39.25	4.89	38.38	-39.5	-40.7	28.0	3.03e+01	59	42	0	828899328	54	5921
2026-01-24 01:28:40.26	4.58	38.13	-39.5	-40.8	28.0	3.03e+01	59	42	0	830996480	54	5947
2026-01-24 01:28:41.26	4.29	37.89	-39.7	-41.0	27.8	3.03e+01	45	42	0	832569344	54	6114
2026-01-24 01:28:42.27	4.00	37.65	-39.5	-40.8	27.9	3.03e+01	59	42	0	834666496	54	5954
2026-01-24 01:28:43.28	3.71	37.41	-39.7	-41.1	27.7	3.03e+01	58	42	0	836239360	54	6140
2026-01-24 01:28:44.29	3.42	37.17	-39.8	-41.1	27.7	3.03e+01	60	42	0	838336512	54	6196
2026-01-24 01:28:45.30	3.14	36.94	-39.9	-41.2	27.6	3.03e+01	61	42	0	840433664	54	6221
2026-01-24 01:28:46.31	2.87	36.70	-39.6	-40.9	27.9	3.03e+01	46	42	0	842006528	54	6017
2026-01-24 01:28:47.32	2.59	36.46	-39.5	-40.8	28.0	3.03e+01	59	42	0	844103680	54	5953
2026-01-24 01:28:48.33	2.33	36.23	-39.5	-40.7	28.0	3.03e+01	58	42	0	845676544	54	5922
2026-01-24 01:28:49.34	2.06	35.99	-39.2	-40.5	28.2	3.03e+01	45	42	0	847773696	54	5752
2026-01-24 01:28:50.35	1.80	35.76	-39.0	-40.3	28.4	3.03e+01	58	42	0	849870848	54	5601
2026-01-24 01:28:51.36	1.55	35.53	-39.4	-40.7	28.1	3.03e+01	58	42	0	851443712	52	6622
2026-01-24 01:28:52.37	1.29	35.30	-39.3	-40.6	28.1	3.03e+01	58	42	0	853540864	52	6562
2026-01-24 01:28:53.38	1.05	35.07	-39.1	-40.3	28.3	3.03e+01	60	42	0	855113728	52	6334
2026-01-24 01:28:54.39	0.80	34.84	-38.9	-40.1	28.5	3.03e+01	57	42	0	857210880	52	6160
2026-01-24 01:28:55.40	0.56	34.62	-38.4	-39.6	28.9	3.03e+01	60	42	0	859308032	52	5853
2026-01-24 01:28:56.41	0.32	34.39	-38.6	-39.8	28.8	3.03e+01	62	42	0	860880896	52	5993
2026-01-24 01:28:57.42	0.09	34.17	-38.7	-39.9	28.7	3.03e+01	44	42	0	862978048	52	6039
2026-01-24 01:28:58.43	359.86	33.94	-38.3	-39.5	29.0	3.03e+01	61	42	0	864550912	52	5777
2026-01-24 01:28:59.44	359.63	33.72	-38.3	-39.5	29.1	3.03e+01	53	42	0	866648064	52	5771
2026-01-24 01:29:00.45	359.40	33.50	-38.3	-39.5	29.1	3.03e+01	63	42	0	868745216	52	5770
2026-01-24 01:29:01.45	359.18	33.28	-38.4	-39.6	29.0	3.03e+01	57	42	0	870318080	52	5836
2026-01-24 01:29:02.46	358.96	33.06	-38.4	-39.6	29.0	3.03e+01	47	42	0	872415232	52	5833
2026-01-24 01:29:03.47	358.75	32.85	-38.2	-39.4	29.1	3.03e+01	60	42	0	873988096	52	5686
2026-01-24 01:29:04.48	358.54	32.63	-38.1	-39.3	29.2	3.03e+01	58	42	0	876085248	52	5628
2026-01-24 01:29:05.49	358.33	32.42	-38.0	-39.2	29.3	3.03e+01	57	42	0	878182400	52	5593
2026-01-24 01:29:06.50	358.12	32.20	-38.0	-39.2	29.2	3.03e+01	63	42	0	879755264	52	5580
2026-01-24 01:29:07.51	357.92	31.99	-37.9	-39.1	29.3	3.03e+01	45	42	0	881852416	50	6174
2026-01-24 01:29:08.52	357.71	31.78	-37.6	-38.8	29.6	3.03e+01	61	42	0	883949568	50	5957
2026-01-24 01:29:09.53	357.52	31.57	-37.7	-38.9	29.5	3.03e+01	60	42	0	885522432	50	6009
2026-01-24 01:29:10.54	357.32	31.36	-37.6	-38.8	29.5	3.03e+01	46	42	0	887619584	50	5978
2026-01-24 01:29:11.55	357.13	31.15	-37.7	-38.9	29.6	3.03e+01	50	42	0	889192448	50	6005
2026-01-24 01:29:12.56	356.94	30.95	-37.5	-38.7	29.7	3.03e+01	57	42	0	891289600	50	5882
2026-01-24 01:29:13.56	356.75	30.74	-37.7	-38.9	29.5	3.03e+01	58	42	0	893386752	50	5998
2026-01-24 01:29:14.57	356.56	30.54	-37.7	-38.9	29.5	3.03e+01	53	42	0	894959616	50	5997
2026-01-24 01:29:15.58	356.38	30.34	-37.8	-39.0	29.4	3.03e+01	46	42	0	897056768	50	6122
2026-01-24 01:29:16.60	356.20	30.13	-37.8	-39.0	29.3	3.03e+01	56	42	0	898629632	50	6102
2026-01-24 01:29:17.60	356.02	29.93	-37.7	-38.9	29.5	3.03e+01	60	42	0	900726784	50	6007
2026-01-24 01:29:18.61	355.85	29.74	-37.6	-38.8	29.5	3.03e+01	48	42	0	902823936	50	5936
2026-01-24 01:29:19.63	355.67	29.54	-37.7	-38.8	29.5	3.03e+01	56	42	0	904396800	50	5992
2026-01-24 01:29:20.63	355.50	29.34	-37.5	-38.7	29.6	3.03e+01	57	42	0	906493952	50	5880
2026-01-24 01:29:21.64	355.33	29.15	-37.5	-38.7	29.6	3.03e+01	60	42	0	908066816	50	5877
2026-01-24 01:29:22.65	355.16	28.95	-37.6	-38.8	29.5	3.03e+01	57	42	0	910163968	50	5927
2026-01-24 01:29:23.66	355.00	28.76	-37.8	-39.0	29.3	3.03e+01	47	42	0	912261120	50	6065
2026-01-24 01:29:24.68	354.83	28.56	-37.7	-38.9	29.3	3.03e+01	58	42	0	913833984	50	6051
2026-01-24 01:29:25.68	354.67	28.38	-37.8	-39.0	29.2	3.03e+01	56	41	0	915931136	50	6097
2026-01-24 01:29:26.70	354.51	28.18	-37.8	-39.0	29.2	3.03e+01	50	42	0	917504000	50	6129
2026-01-24 01:29:27.70	354.36	28.00	-37.8	-39.0	29.3	3.03e+01	61	42	0	919601152	50	6116
2026-01-24 01:29:28.71	354.20	27.81	-37.8	-39.0	29.2	3.03e+01	62	42	0	921698304	50	6103
2026-01-24 01:29:29.72	354.05	27.62	-37.8	-39.0	29.3	3.03e+01	59	42	0	923271168	50	6094
2026-01-24 01:29:30.73	353.90	27.44	-37.8	-39.0	29.3	3.03e+01	58	42	0	925368320	50	6122
2026-01-24 01:29:31.74	353.75	27.25	-37.9	-39.1	29.3	3.03e+01	59	42	0	927465472	50	6152
2026-01-24 01:29:32.75	353.60	27.07	-37.8	-39.0	29.3	3.03e+01	59	42	0	929038336	50	6091
2026-01-24 01:29:33.76	353.46	26.89	-37.8	-39.0	29.2	3.03e+01	55	42	0	931135488	50	6115
2026-01-24 01:29:34.77	353.31	26.71	-37.8	-39.0	29.3	3.03e+01	58	42	0	932708352	50	6094
2026-01-24 01:29:35.78	353.17	26.53	-37.8	-38.9	29.3	3.03e+01	60	42	0	934805504	50	6062
2026-01-24 01:29:36.78	353.03	26.35	-37.9	-39.1	29.3	3.03e+01	51	42	0	936902656	50	6139
2026-01-24 01:29:37.79	352.89	26.17	-37.9	-39.1	29.3	3.03e+01	58	42	0	938475520	50	6192
2026-01-24 01:29:38.81	352.75	26.00	-38.0	-39.2	29.2	3.03e+01	57	42	0	940572672	50	6258
2026-01-24 01:29:39.81	352.62	25.82	-37.9	-39.1	29.2	3.03e+01	54	42	0	942145536	50	6203
2026-01-24 01:29:40.82	352.48	25.65	-38.1	-39.3	29.0	3.03e+01	59	42	0	944242688	50	6324
2026-01-24 01:29:41.83	352.35	25.48	-38.3	-39.5	28.9	3.03e+01	61	42	0	946339840	50	6455
2026-01-24 01:29:42.84	352.22	25.30	-38.3	-39.5	28.9	3.03e+01	58	42	0	947912704	50	6459
2026-01-24 01:29:43.85	352.09	25.13	-38.5	-39.7	28.7	3.03e+01	58	42	0	950009856	50	6630
2026-01-24 01:29:44.86	351.96	24.96	-38.5	-39.8	28.6	3.03e+01	50	42	0	952107008	50	6686
2026-01-24 01:29:45.87	351.84	24.79	-38.6	-39.9	28.5	3.03e+01	59	42	0	953679872	50	6749
2026-01-24 01:29:46.88	351.71	24.63	-38.4	-39.6	28.7	3.03e+01	59	42	0	955777024	50	6564
2026-01-24 01:29:47.89	351.59	24.46	-38.4	-39.7	28.7	3.03e+01	44	42	0	957349888	50	6584
2026-01-24 01:29:48.90	351.46	24.29	-38.2	-39.4	28.9	3.03e+01	59	42	0	959447040	50	6400
2026-01-24 01:29:49.91	351.34	24.13	-38.1	-39.3	29.0	3.03e+01	56	41	0	961544192	50	6332
2026-01-24 01:29:50.92	351.22	23.96	-38.2	-39.4	28.9	3.03e+01	55	41	0	963117056	50	6384
2026-01-24 01:29:51.93	351.11	23.80	-38.2	-39.4	28.9	3.03e+01	62	42	0	965214208	50	6384
2026-01-24 01:29:52.93	350.99	23.64	-38.2	-39.5	28.9	3.03e+01	50	41	0	966787072	50	6435
2026-01-24 01:29:53.94	350.87	23.48	-38.3	-39.5	28.8	3.03e+01	60	41	0	968884224	50	6466
2026-01-24 01:29:54.95	350.76	23.32	-38.3	-39.5	28.8	3.03e+01	59	42	0	970457088	50	6480
2026-01-24 01:29:55.96	350.65	23.16	-38.3	-39.5	28.8	3.03e+01	48	41	0	972554240	50	6459
2026-01-24 01:29:56.97	350.53	23.00	-38.3	-39.6	28.8	3.03e+01	58	42	0	974651392	50	6507
2026-01-24 01:29:57.98	350.42	22.84	-38.1	-39.3	29.0	3.03e+01	57	42	0	976224256	50	6314
2026-01-24 01:29:58.99	350.31	22.69	-38.2	-39.4	28.9	3.03e+01	63	41	0	978321408	50	6402
2026-01-24 01:30:00.00	350.21	22.53	-38.2	-39.4	28.9	3.03e+01	60	41	0	980418560	50	6415
2026-01-24 01:30:01.01	350.10	22.38	-38.3	-39.5	28.8	3.03e+01	51	42	0	981991424	50	6457
2026-01-24 01:30:02.02	349.99	22.22	-38.3	-39.5	28.7	3.03e+01	56	42	0	984088576	50	6490
2026-01-24 01:30:03.02	349.89	22.07	-38.4	-39.7	28.6	3.03e+01	57	42	0	985661440	50	6607
2026-01-24 01:30:04.03	349.78	21.92	-38.5	-39.7	28.7	3.03e+01	47	42	0	987758592	50	6643
2026-01-24 01:30:05.04	349.68	21.77	-38.5	-39.8	28.6	3.03e+01	62	41	0	989855744	50	6665
2026-01-24 01:30:06.05	349.58	21.62	-38.5	-39.7	28.7	3.03e+01	60	42	0	991428608	50	6632
2026-01-24 01:30:07.06	349.48	21.47	-38.4	-39.6	28.7	3.03e+01	60	42	0	993525760	50	6571
2026-01-24 01:30:08.07	349.38	21.32	-38.3	-39.5	28.7	3.03e+01	56	41	0	995622912	50	6484
2026-01-24 01:30:09.08	349.28	21.18	-38.2	-39.5	28.8	3.03e+01	50	42	0	997195776	50	6426
2026-01-24 01:30:10.09	349.18	21.03	-38.3	-39.5	28.8	3.03e+01	56	41	0	999292928	50	6450
2026-01-24 01:30:11.10	349.09	20.88	-38.2	-39.4	28.9	3.03e+01	61	41	0	1000865792	50	6354
2026-01-24 01:30:12.11	348.99	20.74	-38.1	-39.3	28.9	3.03e+01	50	42	0	1002962944	50	6348
2026-01-24 01:30:13.12	348.90	20.59	-38.1	-39.3	28.9	3.03e+01	57	42	0	1005060096	50	6321
2026-01-24 01:30:14.13	348.80	20.45	-38.2	-39.4	28.9	3.03e+01	46	41	0	1006632960	50	6415
2026-01-24 01:30:15.14	348.71	20.31	-38.1	-39.3	29.0	3.03e+01	60	42	0	1008730112	50	6308
2026-01-24 01:30:16.15	348.62	20.17	-38.1	-39.4	28.9	3.03e+01	61	42	0	1010302976	50	6362
2026-01-24 01:30:17.16	348.53	20.03	-38.2	-39.4	28.8	3.03e+01	53	41	0	1012400128	50	6398
2026-01-24 01:30:18.17	348.44	19.89	-38.3	-39.5	28.7	3.03e+01	59	41	0	1014497280	50	6472
2026-01-24 01:30:19.18	348.35	19.75	-38.4	-39.6	28.6	3.03e+01	59	41	0	1016070144	50	6522
2026-01-24 01:30:20.18	348.26	19.61	-38.4	-39.6	28.6	3.03e+01	58	41	0	1018167296	50	6552
2026-01-24 01:30:21.20	348.18	19.47	-38.2	-39.4	28.8	3.03e+01	60	41	0	1019740160	50	6416
2026-01-24 01:30:22.20	348.09	19.34	-38.2	-39.5	28.8	3.03e+01	56	41	0	1021837312	50	6457
2026-01-24 01:30:23.21	348.01	19.20	-38.2	-39.5	28.7	3.03e+01	58	41	0	1023934464	50	6453
2026-01-24 01:30:24.22	347.92	19.06	-38.1	-39.3	28.8	3.03e+01	58	42	0	1025507328	50	6337
2026-01-24 01:30:25.23	347.84	18.93	-38.1	-39.3	28.8	3.03e+01	43	42	0	1027604480	50	6341
2026-01-24 01:30:26.24	347.75	18.79	-38.1	-39.3	28.8	3.03e+01	58	41	0	1029177344	50	6331
2026-01-24 01:30:27.25	347.67	18.66	-38.1	-39.3	28.9	3.03e+01	58	42	0	1031274496	50	6327
2026-01-24 01:30:28.26	347.59	18.53	-38.1	-39.4	28.9	3.03e+01	59	42	0	1033371648	50	6361
2026-01-24 01:30:29.27	347.51	18.40	-38.2	-39.4	28.8	3.03e+01	60	41	0	1034944512	50	6421
2026-01-24 01:30:30.28	347.43	18.27	-38.2	-39.5	28.8	3.03e+01	62	41	0	1037041664	50	6450
2026-01-24 01:30:31.29	347.35	18.14	-38.4	-39.6	28.6	3.03e+01	59	41	0	1038614528	50	6540
2026-01-24 01:30:32.30	347.27	18.01	-38.3	-39.5	28.7	3.03e+01	59	41	0	1040711680	50	6475
2026-01-24 01:30:33.31	347.19	17.88	-38.3	-39.5	28.7	3.03e+01	54	41	0	1042808832	50	6486
2026-01-24 01:30:34.32	347.12	17.75	-38.4	-39.6	28.6	3.03e+01	55	41	0	1044381696	50	6542
2026-01-24 01:30:35.33	347.04	17.62	-38.2	-39.5	28.8	3.03e+01	59	41	0	1046478848	50	6424
2026-01-24 01:30:36.34	346.97	17.49	-38.4	-39.6	28.6	3.03e+01	59	41	0	1048576000	50	6535
2026-01-24 01:30:37.35	346.89	17.37	-38.2	-39.4	28.8	3.03e+01	61	41	0	1050148864	50	6405
2026-01-24 01:30:38.36	346.82	17.24	-38.3	-39.5	28.7	3.03e+01	46	41	0	1052246016	50	6487
2026-01-24 01:30:39.37	346.74	17.12	-38.2	-39.4	28.8	3.03e+01	58	41	0	1053818880	50	6403
2026-01-24 01:30:40.38	346.67	16.99	-38.2	-39.5	28.7	3.03e+01	59	41	0	1055916032	50	6446
2026-01-24 01:30:41.39	346.60	16.87	-38.3	-39.5	28.7	3.03e+01	46	41	0	1058013184	50	6493
2026-01-24 01:30:42.40	346.53	16.75	-38.2	-39.4	28.8	3.03e+01	60	41	0	1059586048	50	6374
2026-01-24 01:30:43.41	346.46	16.62	-38.3	-39.6	28.6	3.03e+01	58	41	0	1061683200	50	6519
2026-01-24 01:30:44.42	346.39	16.50	-38.2	-39.4	28.7	3.03e+01	56	41	0	1063780352	50	6383
2026-01-24 01:30:45.43	346.32	16.38	-38.2	-39.4	28.8	3.03e+01	61	41	0	1065353216	50	6379
2026-01-24 01:30:46.44	346.25	16.26	-38.1	-39.4	28.8	3.03e+01	52	41	0	1067450368	50	6364
2026-01-24 01:30:47.45	346.18	16.14	-38.1	-39.4	28.8	3.03e+01	59	41	0	1069023232	50	6358
2026-01-24 01:30:48.46	346.11	16.02	-38.0	-39.2	28.9	3.03e+01	59	41	0	1071120384	50	6266
2026-01-24 01:30:49.47	346.05	15.90	-38.0	-39.2	28.9	3.03e+01	53	41	0	1073217536	50	6275
2026-01-24 01:30:50.48	345.98	15.78	-38.0	-39.2	28.8	3.03e+01	59	41	0	1074790400	50	6264
2026-01-24 01:30:51.49	345.91	15.67	-38.1	-39.3	28.9	3.03e+01	46	41	0	1076887552	50	6304
2026-01-24 01:30:52.50	345.85	15.55	-38.1	-39.4	28.8	3.03e+01	63	41	0	1078460416	50	6356
2026-01-24 01:30:53.51	345.78	15.43	-38.0	-39.3	28.9	3.03e+01	55	41	0	1080557568	50	6279
2026-01-24 01:30:54.52	345.72	15.32	-38.0	-39.3	28.9	3.03e+01	47	41	0	1082654720	50	6279
2026-01-24 01:30:55.53	345.66	15.20	-38.0	-39.2	28.9	3.03e+01	60	41	0	1084227584	50	6271
2026-01-24 01:30:56.54	345.59	15.09	-38.0	-39.2	28.9	3.03e+01	61	41	0	1086324736	50	6274
2026-01-24 01:30:57.55	345.53	14.97	-38.1	-39.3	28.9	3.03e+01	60	41	0	1087897600	50	6306
2026-01-24 01:30:58.56	345.47	14.86	-38.0	-39.3	28.9	3.03e+01	60	41	0	1089994752	50	6283
2026-01-24 01:30:59.57	345.41	14.75	-38.2	-39.4	28.8	3.03e+01	59	41	0	1092091904	50	6417
2026-01-24 01:31:00.58	345.35	14.64	-38.1	-39.3	28.9	3.03e+01	60	41	0	1093664768	50	6303
2026-01-24 01:31:01.59	345.29	14.52	-38.1	-39.4	28.8	3.03e+01	61	41	0	1095761920	50	6364
2026-01-24 01:31:02.60	345.23	14.41	-38.1	-39.3	28.8	3.03e+01	45	41	0	1097334784	50	6316
2026-01-24 01:31:03.61	345.17	14.30	-38.3	-39.5	28.6	3.03e+01	57	41	0	1099431936	50	6481
2026-01-24 01:31:04.62	345.11	14.19	-38.2	-39.4	28.7	3.03e+01	60	41	0	1101529088	50	6385
2026-01-24 01:31:05.63	345.05	14.08	-38.2	-39.5	28.6	3.03e+01	62	41	0	1103101952	50	6433
2026-01-24 01:31:06.64	344.99	13.97	-38.3	-39.5	28.7	3.03e+01	60	41	0	1105199104	50	6449
2026-01-24 01:31:07.65	344.94	13.86	-38.3	-39.5	28.6	3.03e+01	53	41	0	1106771968	50	6481
2026-01-24 01:31:08.66	344.88	13.75	-38.2	-39.5	28.7	3.03e+01	58	41	0	1108869120	50	6442
2026-01-24 01:31:09.67	344.82	13.65	-38.3	-39.6	28.5	3.03e+01	59	41	0	1110966272	50	6505
2026-01-24 01:31:10.68	344.77	13.54	-38.3	-39.6	28.6	3.03e+01	44	41	0	1112539136	50	6508
2026-01-24 01:31:11.69	344.71	13.43	-38.4	-39.6	28.6	3.03e+01	58	41	0	1114636288	50	6536
2026-01-24 01:31:12.69	344.66	13.33	-38.4	-39.6	28.5	3.03e+01	60	41	0	1116733440	50	6542
2026-01-24 01:31:13.70	344.60	13.22	-38.6	-39.8	28.3	3.03e+01	59	41	0	1118306304	50	6719
2026-01-24 01:31:14.71	344.55	13.12	-38.3	-39.6	28.5	3.03e+01	60	41	0	1120403456	50	6528
2026-01-24 01:31:15.72	344.49	13.01	-38.3	-39.5	28.5	3.03e+01	38	41	0	1121976320	50	6497
2026-01-24 01:31:16.73	344.44	12.91	-38.3	-39.5	28.6	3.03e+01	60	41	0	1124073472	50	6471
2026-01-24 01:31:17.74	344.39	12.80	-38.4	-39.6	28.4	3.03e+01	58	41	0	1126170624	50	6567
2026-01-24 01:31:18.75	344.34	12.70	-38.4	-39.6	28.4	3.03e+01	45	41	0	1127743488	50	6537
2026-01-24 01:31:19.76	344.28	12.60	-38.3	-39.5	28.4	3.03e+01	60	41	0	1129840640	50	6484
2026-01-24 01:31:20.77	344.23	12.49	-39.0	-49.0	3.6	3.03e+01	0	41	104	1130364928	50	19334
2026-01-24 01:31:21.78	344.18	12.39	-38.8	-48.8	3.6	3.03e+01	0	41	104	1130364928	52	16895
2026-01-24 01:31:22.79	344.13	12.29	-38.7	-48.8	3.6	3.03e+01	0	41	104	1130364928	52	16768
2026-01-24 01:31:23.80	344.08	12.19	-41.5	-51.8	3.4	3.03e+01	0	41	104	1130364928	54	21031
2026-01-24 01:31:24.81	344.03	12.09	-40.6	-50.9	3.6	3.03e+01	0	41	104	1130364928	54	19079
2026-01-24 01:31:25.81	343.98	11.99	-51.1	-68.3	3.5	3.03e+01	0	41	104	1130364928	60	99951
2026-01-24 01:31:26.82	343.93	11.89	-51.1	-68.6	3.5	3.03e+01	0	41	104	1130364928	60	104163
2026-01-24 01:31:27.83	343.88	11.79	-39.6	-49.8	3.5	3.03e+01	0	41	104	1130364928	54	16876
2026-01-24 01:31:28.84	343.84	11.69	-40.2	-50.5	3.6	3.03e+01	0	41	104	1130364928	56	16159
2026-01-24 01:31:29.85	343.79	11.59	-40.1	-50.5	3.6	3.03e+01	0	41	104	1130364928	56	16300
2026-01-24 01:31:30.86	343.74	11.50	-39.7	-50.0	3.6	3.03e+01	0	41	104	1130364928	54	17212
2026-01-24 01:31:31.87	343.69	11.40	-40.3	-50.6	3.6	3.03e+01	0	41	104	1130364928	54	18482
2026-01-24 01:31:32.88	343.65	11.30	-40.1	-50.4	3.6	3.03e+01	0	41	104	1130364928	54	17980
2026-01-24 01:31:33.89	343.60	11.20	-42.9	-53.4	3.4	3.03e+01	0	41	104	1130364928	58	20181
2026-01-24 01:31:34.90	343.55	11.11	-51.0	-68.2	3.5	3.03e+01	0	41	104	1130364928	60	98722
2026-01-24 01:31:35.91	343.51	11.01	-41.0	-51.3	4.1	3.03e+01	0	41	104	1130364928	56	17861
2026-01-24 01:31:36.91	343.46	10.92	-50.9	-67.4	3.5	3.03e+01	0	41	104	1130364928	60	90627
2026-01-24 01:31:37.93	343.42	10.82	-40.8	-51.1	4.1	3.03e+01	0	41	104	1130364928	56	17374
2026-01-24 01:31:38.94	343.37	10.73	-40.0	-50.2	4.1	3.03e+01	0	41	104	1130364928	56	15748
2026-01-24 01:31:39.94	343.33	10.63	-39.3	-49.5	3.4	3.03e+01	0	41	104	1130364928	54	16272
2026-01-24 01:31:40.95	343.28	10.54	-39.3	-49.5	3.5	3.03e+01	0	41	104	1130364928	54	16192
2026-01-24 01:31:41.96	343.24	10.44	-46.8	-58.2	3.5	3.03e+01	0	41	104	1130364928	60	31292
2026-01-24 01:31:42.98	343.20	10.35	-41.4	-51.7	3.5	3.03e+01	0	41	104	1130364928	58	16589
2026-01-24 01:31:43.98	343.15	10.26	-50.8	-67.4	3.5	3.03e+01	0	41	104	1130364928	60	90405
2026-01-24 01:31:44.99	343.11	10.16	-50.9	-67.9	3.5	3.03e+01	0	41	104	1130364928	60	95114
2026-01-24 01:31:46.00	343.07	10.07	-43.3	-53.8	3.6	3.03e+01	0	41	104	1130364928	58	21249
2026-01-24 01:31:47.01	343.03	9.98	-39.6	-49.6	3.5	3.03e+01	0	41	104	1130364928	54	16502
2026-01-24 01:31:48.02	342.98	9.89	-39.5	-49.6	3.5	3.03e+01	0	41	104	1130364928	54	16498
2026-01-24 01:31:49.02	342.94	9.80	-39.4	-49.5	3.5	3.03e+01	0	41	104	1130364928	54	16321
2026-01-24 01:31:50.03	342.90	9.71	-39.4	-49.5	3.5	3.03e+01	0	41	104	1130364928	54	16311
2026-01-24 01:31:51.04	342.86	9.62	-39.4	-49.5	3.5	3.03e+01	0	41	104	1130364928	54	16301
