passes_logs/2026/01/24/R4.6S_Anadyr/R4.6S_Anadyr__20260124_043802_AQUA_rec.log

#Pass ID: 20260124_043802_AQUA
#Satellite: AQUA
#Configuration: AQUA
#almurnet v.1.7.20251203
#Start time: 2026-01-24 04:38:03

#Version: 2.2.20231116
#Station: R4.6S_Anadyr
#Location: 177.4865 lon 64.73178 lat
#TLE: 1 27424U 02022A   26023.58972979  .00001888  00000+0  38753-3 0  9997
#TLE: 2 27424  98.4100 350.1620 0001948  68.5331  43.0280 14.61852003262140

#Time	Az	El	Level	Level2	SNR	BER	BlckErr	Temp	State	Recorded	gain1	gain2
2026-01-24 04:38:03.95	231.23	0.06	-51.6	-63.3	3.5	8.45e-01	0	39	0	0	60	52597
2026-01-24 04:38:04.96	231.33	0.11	-52.3	-70.5	3.5	3.02e+01	0	40	104	0	60	128800
2026-01-24 04:38:05.97	231.43	0.16	-52.4	-70.2	3.5	3.02e+01	0	40	104	0	60	124920
2026-01-24 04:38:06.98	231.53	0.20	-52.0	-70.0	3.5	3.02e+01	0	40	104	0	60	121500
2026-01-24 04:38:07.99	231.62	0.25	-52.0	-69.8	3.5	3.02e+01	0	40	104	0	60	118787
2026-01-24 04:38:09.00	231.72	0.30	-52.0	-69.9	3.5	3.02e+01	0	40	104	0	60	119720
2026-01-24 04:38:10.01	231.82	0.34	-51.7	-69.7	3.5	3.02e+01	0	40	104	0	60	118087
2026-01-24 04:38:11.02	231.92	0.39	-51.7	-69.7	3.5	3.02e+01	0	40	104	0	60	117342
2026-01-24 04:38:12.03	232.02	0.44	-51.7	-69.6	3.5	3.02e+01	0	40	104	0	60	116693
2026-01-24 04:38:13.03	232.12	0.48	-51.7	-69.6	3.5	3.02e+01	0	40	104	0	60	116654
2026-01-24 04:38:14.04	232.22	0.53	-51.7	-69.6	3.5	3.02e+01	0	40	104	0	60	115850
2026-01-24 04:38:15.05	232.32	0.57	-51.8	-69.6	3.5	3.02e+01	0	40	104	0	60	116890
2026-01-24 04:38:16.06	232.42	0.62	-51.9	-69.7	3.5	3.02e+01	0	40	104	0	60	117966
2026-01-24 04:38:17.08	232.52	0.67	-52.0	-69.9	3.5	3.02e+01	0	40	104	0	60	119630
2026-01-24 04:38:18.08	232.62	0.71	-52.2	-70.0	3.5	3.02e+01	0	40	104	0	60	121397
2026-01-24 04:38:19.09	232.73	0.76	-52.0	-69.8	3.5	3.02e+01	0	40	104	0	60	119319
2026-01-24 04:38:20.10	232.83	0.81	-51.9	-69.7	3.5	3.02e+01	0	40	104	0	60	117978
2026-01-24 04:38:21.11	232.93	0.85	-51.8	-69.7	3.5	3.02e+01	0	40	104	0	60	117517
2026-01-24 04:38:22.12	233.03	0.90	-51.9	-69.8	3.5	3.02e+01	0	40	104	0	60	118407
2026-01-24 04:38:23.13	233.14	0.95	-51.7	-69.6	3.5	3.02e+01	0	40	104	0	60	115706
2026-01-24 04:38:24.14	233.24	0.99	-51.6	-69.4	3.5	3.02e+01	0	40	104	0	60	114037
2026-01-24 04:38:25.15	233.35	1.04	-51.4	-69.3	3.5	3.02e+01	0	40	104	0	60	111752
2026-01-24 04:38:26.16	233.45	1.09	-51.2	-69.0	3.5	3.02e+01	0	40	104	0	60	107999
2026-01-24 04:38:27.17	233.55	1.13	-50.5	-68.7	3.5	3.02e+01	0	40	104	0	60	104544
2026-01-24 04:38:28.18	233.66	1.18	-49.5	-68.2	3.5	3.02e+01	0	40	104	0	60	98986
2026-01-24 04:38:29.20	233.77	1.23	-48.1	-67.3	3.5	3.02e+01	0	40	104	0	60	89065
2026-01-24 04:38:30.20	233.87	1.27	-48.2	-67.3	3.5	3.02e+01	0	40	104	0	60	88675
2026-01-24 04:38:31.21	233.98	1.32	-48.1	-67.2	3.5	3.02e+01	0	40	104	0	60	88103
2026-01-24 04:38:32.22	234.08	1.37	-48.2	-67.3	3.5	3.02e+01	0	40	104	0	60	88684
2026-01-24 04:38:33.23	234.19	1.41	-48.1	-67.2	3.5	3.02e+01	0	40	104	0	60	88598
2026-01-24 04:38:34.24	234.30	1.46	-48.1	-67.2	3.5	3.02e+01	0	40	104	0	60	88182
2026-01-24 04:38:35.25	234.40	1.51	-48.0	-67.1	3.5	3.02e+01	0	41	104	0	60	87264
2026-01-24 04:38:36.26	234.51	1.55	-48.1	-67.2	3.5	3.02e+01	0	41	104	0	60	87759
2026-01-24 04:38:37.27	234.62	1.60	-48.0	-67.2	3.5	3.02e+01	0	40	104	0	60	88064
2026-01-24 04:38:38.28	234.73	1.65	-48.0	-67.1	3.5	3.02e+01	0	41	104	0	60	87545
2026-01-24 04:38:39.29	234.84	1.69	-48.0	-67.1	3.5	3.02e+01	0	40	104	0	60	87247
2026-01-24 04:38:40.30	234.95	1.74	-48.0	-67.2	3.5	3.02e+01	0	41	104	0	60	87765
2026-01-24 04:38:41.31	235.06	1.79	-48.0	-67.1	3.5	3.02e+01	0	41	104	0	60	87500
2026-01-24 04:38:42.32	235.17	1.83	-48.0	-67.2	3.5	3.02e+01	0	40	104	0	60	87698
2026-01-24 04:38:43.33	235.28	1.88	-48.0	-67.1	3.5	3.02e+01	0	41	104	0	60	86770
2026-01-24 04:38:44.34	235.39	1.93	-48.0	-67.1	3.5	3.02e+01	0	41	104	0	60	87479
2026-01-24 04:38:45.35	235.50	1.97	-48.0	-67.2	3.5	3.02e+01	0	41	104	0	60	87735
2026-01-24 04:38:46.36	235.61	2.02	-48.0	-67.1	3.5	3.02e+01	0	41	104	0	60	87094
2026-01-24 04:38:47.37	235.72	2.07	-48.0	-67.1	3.5	3.02e+01	0	41	104	0	60	86941
2026-01-24 04:38:48.38	235.83	2.11	-48.0	-67.0	3.5	3.02e+01	0	41	104	0	60	86430
2026-01-24 04:38:49.39	235.95	2.16	-48.0	-67.1	3.5	3.02e+01	0	41	104	0	60	87194
2026-01-24 04:38:50.40	236.06	2.21	-48.0	-67.1	3.5	3.02e+01	0	41	104	0	60	86766
2026-01-24 04:38:51.41	236.17	2.25	-48.0	-67.1	3.5	3.02e+01	0	41	104	0	60	86842
2026-01-24 04:38:52.42	236.29	2.30	-48.0	-67.1	3.5	3.02e+01	0	41	104	0	60	87074
2026-01-24 04:38:53.43	236.40	2.35	-48.0	-67.1	3.5	3.02e+01	0	41	104	0	60	86944
2026-01-24 04:38:54.44	236.52	2.39	-48.0	-67.1	3.5	3.02e+01	0	41	104	0	60	86879
2026-01-24 04:38:55.45	236.63	2.44	-48.0	-67.1	3.5	3.02e+01	0	41	104	0	60	87241
2026-01-24 04:38:56.46	236.75	2.49	-48.0	-67.1	3.5	3.02e+01	0	41	104	0	60	87263
2026-01-24 04:38:57.47	236.86	2.54	-48.0	-67.1	3.5	3.02e+01	0	41	104	0	60	86863
2026-01-24 04:38:58.48	236.98	2.58	-47.9	-67.1	3.5	3.02e+01	0	41	104	0	60	86932
2026-01-24 04:38:59.49	237.09	2.63	-48.0	-67.0	3.5	3.02e+01	0	41	104	0	60	86597
2026-01-24 04:39:00.50	237.21	2.68	-48.0	-67.1	3.5	3.02e+01	0	41	104	0	60	87061
2026-01-24 04:39:01.51	237.33	2.72	-47.9	-67.1	3.5	3.02e+01	0	41	104	0	60	87223
2026-01-24 04:39:02.52	237.45	2.77	-48.0	-67.1	3.5	3.02e+01	0	41	104	0	60	87152
2026-01-24 04:39:03.53	237.56	2.82	-47.9	-67.1	3.5	3.02e+01	0	41	104	0	60	87409
2026-01-24 04:39:04.54	237.68	2.86	-48.0	-67.1	3.5	3.02e+01	0	41	104	0	60	87132
2026-01-24 04:39:05.55	237.80	2.91	-47.9	-67.1	3.5	3.02e+01	0	41	104	0	60	86871
2026-01-24 04:39:06.56	237.92	2.96	-47.9	-67.0	3.5	3.02e+01	0	41	104	0	60	85701
2026-01-24 04:39:07.57	238.04	3.00	-47.9	-66.9	3.5	3.02e+01	0	41	104	0	60	84990
2026-01-24 04:39:08.58	238.16	3.05	-48.9	-65.8	3.5	3.02e+01	0	41	104	0	60	75318
2026-01-24 04:39:09.59	238.28	3.10	-48.7	-64.4	3.5	3.02e+01	0	41	104	0	60	63908
2026-01-24 04:39:10.60	238.40	3.14	-47.5	-66.8	3.5	3.02e+01	0	41	104	0	60	83983
2026-01-24 04:39:11.61	238.52	3.19	-47.5	-66.9	3.5	3.02e+01	0	41	104	0	60	85384
2026-01-24 04:39:12.62	238.64	3.24	-48.0	-65.6	3.5	3.02e+01	0	41	104	0	60	73144
2026-01-24 04:39:13.63	238.77	3.28	-48.7	-64.8	3.8	3.02e+01	0	41	104	0	60	66703
2026-01-24 04:39:14.63	238.89	3.33	-48.8	-64.2	4.0	3.02e+01	0	41	104	0	60	62640
2026-01-24 04:39:15.64	239.01	3.38	-48.8	-62.2	5.1	3.02e+01	0	41	104	0	60	49669
2026-01-24 04:39:16.66	239.13	3.42	-48.9	-61.7	5.5	3.02e+01	22	41	104	0	60	47041
2026-01-24 04:39:17.66	239.26	3.47	-48.8	-60.1	5.7	3.02e+01	43	41	0	1048576	60	39013
2026-01-24 04:39:18.67	239.38	3.52	-48.8	-61.5	5.6	3.02e+01	91	41	104	1048576	60	45750
2026-01-24 04:39:19.68	239.50	3.56	-48.5	-59.8	6.3	3.02e+01	91	41	0	1572864	60	37600
2026-01-24 04:39:20.69	239.63	3.61	-48.4	-59.4	6.5	3.02e+01	90	41	0	3670016	60	35871
2026-01-24 04:39:21.70	239.75	3.66	-48.1	-58.3	7.5	3.02e+01	91	41	0	5242880	60	31655
2026-01-24 04:39:22.71	239.88	3.70	-48.2	-58.0	7.9	3.02e+01	90	41	0	7340032	60	30582
2026-01-24 04:39:23.72	240.01	3.75	-48.6	-58.9	7.1	3.02e+01	92	41	0	9437184	60	34052
2026-01-24 04:39:24.73	240.13	3.80	-48.6	-56.8	9.3	3.02e+01	91	41	0	11010048	60	26582
2026-01-24 04:39:25.74	240.26	3.84	-48.6	-56.4	9.6	3.02e+01	92	41	0	13107200	60	25384
2026-01-24 04:39:26.74	240.39	3.89	-48.3	-56.8	9.6	3.02e+01	85	41	0	14680064	60	26533
2026-01-24 04:39:27.76	240.52	3.94	-47.8	-56.5	9.5	3.02e+01	92	41	0	16777216	60	25809
2026-01-24 04:39:28.77	240.64	3.98	-47.9	-56.9	9.5	3.02e+01	90	41	0	18874368	60	26861
2026-01-24 04:39:29.77	240.77	4.03	-47.6	-54.7	11.7	3.02e+01	91	41	0	20447232	60	21025
2026-01-24 04:39:30.78	240.90	4.07	-48.1	-54.9	11.7	3.02e+01	91	41	0	22544384	60	21493
2026-01-24 04:39:31.79	241.03	4.12	-48.0	-54.0	12.8	3.02e+01	90	41	0	24117248	60	19387
2026-01-24 04:39:32.80	241.16	4.17	-47.9	-54.1	12.9	3.02e+01	92	41	0	26214400	60	19561
2026-01-24 04:39:33.81	241.29	4.21	-47.4	-53.1	13.9	3.02e+01	91	41	0	28311552	60	17439
2026-01-24 04:39:34.82	241.42	4.26	-47.5	-53.6	13.3	3.02e+01	92	41	0	29884416	60	18370
2026-01-24 04:39:35.83	241.55	4.31	-47.1	-52.1	15.0	3.02e+01	92	41	0	31981568	60	15554
2026-01-24 04:39:36.84	241.68	4.35	-47.1	-52.2	14.9	3.02e+01	91	41	0	34078720	60	15597
2026-01-24 04:39:37.85	241.82	4.40	-46.9	-51.7	15.5	3.02e+01	90	41	0	35651584	60	14745
2026-01-24 04:39:38.86	241.95	4.44	-46.5	-51.0	16.2	3.02e+01	90	41	0	37748736	60	13685
2026-01-24 04:39:39.87	242.08	4.49	-46.4	-50.7	16.5	3.02e+01	92	41	0	39321600	60	13176
2026-01-24 04:39:40.88	242.22	4.54	-46.5	-50.4	16.7	3.02e+01	92	41	0	41418752	60	12790
2026-01-24 04:39:41.89	242.35	4.58	-46.4	-50.0	17.5	3.02e+01	92	41	0	43515904	60	12149
2026-01-24 04:39:42.90	242.48	4.63	-46.5	-50.0	17.4	3.02e+01	90	41	0	45088768	60	12148
2026-01-24 04:39:43.91	242.62	4.67	-46.5	-50.1	17.4	3.02e+01	90	41	0	47185920	60	12288
2026-01-24 04:39:44.92	242.75	4.72	-45.8	-48.8	18.5	3.02e+01	92	41	0	49283072	60	10624
2026-01-24 04:39:45.93	242.89	4.77	-45.9	-49.0	18.6	3.02e+01	91	41	0	50855936	60	10831
2026-01-24 04:39:46.93	243.02	4.81	-45.8	-48.9	18.4	3.02e+01	92	41	0	52953088	60	10730
2026-01-24 04:39:47.94	243.16	4.86	-45.7	-48.8	18.8	3.02e+01	92	41	0	54525952	60	10609
2026-01-24 04:39:48.95	243.30	4.90	-45.3	-48.2	19.2	3.02e+01	92	41	0	56623104	60	9933
2026-01-24 04:39:49.96	243.44	4.95	-45.3	-48.2	19.2	3.02e+01	95	41	0	58195968	60	9890
2026-01-24 04:39:50.97	243.57	5.00	-44.7	-47.1	20.4	3.02e+01	91	41	0	60293120	60	8711
2026-01-24 04:39:51.98	243.71	5.04	-44.7	-47.1	20.4	3.02e+01	90	41	0	62390272	60	8684
2026-01-24 04:39:52.99	243.85	5.09	-45.0	-47.5	20.0	3.02e+01	92	41	0	63963136	60	9132
2026-01-24 04:39:54.00	243.99	5.13	-45.0	-47.5	20.0	3.02e+01	90	41	0	66060288	60	9174
2026-01-24 04:39:55.01	244.13	5.18	-44.5	-46.8	20.4	3.02e+01	91	41	0	67633152	60	8416
2026-01-24 04:39:56.02	244.27	5.22	-44.6	-46.9	20.5	3.02e+01	92	41	0	69730304	60	8564
2026-01-24 04:39:57.03	244.41	5.27	-44.2	-46.4	21.2	3.02e+01	91	41	0	71827456	60	8041
2026-01-24 04:39:58.03	244.55	5.31	-44.8	-47.3	20.3	3.02e+01	92	41	0	73400320	60	8901
2026-01-24 04:39:59.04	244.69	5.36	-44.2	-46.4	21.2	3.02e+01	92	41	0	75497472	60	8027
2026-01-24 04:40:00.05	244.83	5.40	-44.0	-46.2	21.4	3.02e+01	91	41	0	77594624	60	7830
2026-01-24 04:40:01.06	244.98	5.45	-44.0	-46.2	21.5	3.02e+01	89	41	0	79167488	60	7852
2026-01-24 04:40:02.07	245.12	5.50	-43.7	-45.8	22.1	3.02e+01	92	41	0	81264640	60	7510
2026-01-24 04:40:03.07	245.26	5.54	-43.1	-45.0	22.6	3.02e+01	92	41	0	82837504	60	6821
2026-01-24 04:40:04.08	245.41	5.59	-42.4	-44.2	23.3	3.02e+01	92	41	0	84934656	60	6243
2026-01-24 04:40:05.09	245.55	5.63	-42.4	-44.1	23.4	3.02e+01	92	41	0	87031808	60	6184
2026-01-24 04:40:06.10	245.70	5.68	-42.7	-44.5	23.1	3.02e+01	92	41	0	88604672	60	6448
2026-01-24 04:40:07.11	245.84	5.72	-43.2	-45.1	22.5	3.02e+01	92	41	0	90701824	60	6933
2026-01-24 04:40:08.12	245.99	5.77	-42.5	-44.3	23.4	3.02e+01	86	41	0	92274688	60	6286
2026-01-24 04:40:09.13	246.13	5.81	-41.9	-43.6	24.1	3.02e+01	92	41	0	94371840	58	6524
2026-01-24 04:40:10.14	246.28	5.85	-42.0	-43.6	24.1	3.02e+01	92	41	0	96468992	58	6547
2026-01-24 04:40:11.15	246.43	5.90	-41.3	-42.9	24.7	3.02e+01	92	41	0	98041856	58	5997
2026-01-24 04:40:12.16	246.58	5.94	-41.4	-43.0	24.5	3.02e+01	92	41	0	100139008	58	6113
2026-01-24 04:40:13.16	246.72	5.99	-41.9	-43.6	24.1	3.02e+01	92	41	0	102236160	58	6504
2026-01-24 04:40:14.18	246.87	6.03	-41.9	-43.5	24.1	3.02e+01	92	41	0	103809024	58	6459
2026-01-24 04:40:15.18	247.02	6.08	-41.6	-43.2	24.5	3.02e+01	92	41	0	105906176	58	6210
2026-01-24 04:40:16.19	247.17	6.12	-41.6	-43.1	24.6	3.02e+01	92	41	0	107479040	58	6202
2026-01-24 04:40:17.20	247.32	6.17	-41.5	-43.0	24.6	3.02e+01	92	41	0	109576192	58	6124
2026-01-24 04:40:18.21	247.47	6.21	-41.0	-42.6	25.2	3.02e+01	92	41	0	111149056	58	5794
2026-01-24 04:40:19.21	247.62	6.25	-41.4	-43.0	24.7	3.02e+01	90	41	0	113246208	56	6839
2026-01-24 04:40:20.22	247.77	6.30	-41.3	-42.9	24.9	3.02e+01	92	41	0	115343360	56	6737
2026-01-24 04:40:21.23	247.92	6.34	-40.8	-42.3	25.6	3.02e+01	92	41	0	116916224	56	6297
2026-01-24 04:40:22.24	248.08	6.39	-41.2	-42.7	25.0	3.02e+01	92	41	0	119013376	56	6641
2026-01-24 04:40:23.25	248.23	6.43	-41.0	-42.6	25.2	3.02e+01	91	41	0	120586240	56	6507
2026-01-24 04:40:24.26	248.38	6.47	-40.6	-42.0	25.8	3.02e+01	91	41	0	122683392	56	6107
2026-01-24 04:40:25.27	248.54	6.52	-40.2	-41.6	26.1	3.02e+01	92	41	0	124780544	56	5836
2026-01-24 04:40:26.28	248.69	6.56	-40.4	-41.8	26.0	3.02e+01	92	41	0	126353408	56	5941
2026-01-24 04:40:27.29	248.85	6.60	-40.2	-41.6	26.1	3.02e+01	84	41	0	128450560	56	5858
2026-01-24 04:40:28.30	249.00	6.65	-40.7	-42.2	25.7	3.02e+01	92	41	0	130547712	56	6219
2026-01-24 04:40:29.31	249.16	6.69	-40.6	-42.0	25.9	3.02e+01	92	41	0	132120576	56	6122
2026-01-24 04:40:30.32	249.31	6.74	-40.7	-42.1	25.8	3.02e+01	90	41	0	134217728	56	6177
2026-01-24 04:40:31.33	249.47	6.78	-40.1	-41.5	26.4	3.02e+01	92	41	0	135790592	56	5746
2026-01-24 04:40:32.34	249.63	6.82	-39.8	-41.1	26.6	3.02e+01	90	41	0	137887744	54	6198
2026-01-24 04:40:33.35	249.79	6.86	-40.3	-41.7	26.0	3.02e+01	90	41	0	139984896	54	6609
2026-01-24 04:40:34.36	249.94	6.91	-40.6	-42.0	25.8	3.02e+01	92	41	0	141557760	54	6854
2026-01-24 04:40:35.37	250.10	6.95	-40.1	-41.5	26.3	3.02e+01	91	41	0	143654912	54	6431
2026-01-24 04:40:36.38	250.26	6.99	-39.9	-41.3	26.5	3.02e+01	90	41	0	145752064	54	6332
2026-01-24 04:40:37.39	250.42	7.04	-40.1	-41.5	26.4	3.02e+01	92	41	0	147324928	54	6448
2026-01-24 04:40:38.40	250.58	7.08	-40.2	-41.6	26.2	3.02e+01	90	41	0	149422080	54	6519
2026-01-24 04:40:39.41	250.74	7.12	-40.1	-41.6	26.3	3.02e+01	91	41	0	150994944	54	6500
2026-01-24 04:40:40.42	250.91	7.16	-39.9	-41.3	26.5	3.02e+01	90	41	0	153092096	54	6340
2026-01-24 04:40:41.43	251.07	7.20	-39.8	-41.2	26.6	3.02e+01	91	41	0	155189248	54	6248
2026-01-24 04:40:42.44	251.23	7.25	-39.7	-41.1	26.7	3.02e+01	91	41	0	156762112	54	6179
2026-01-24 04:40:43.45	251.39	7.29	-39.8	-41.1	26.7	3.02e+01	90	41	0	158859264	54	6193
2026-01-24 04:40:44.46	251.56	7.33	-39.9	-41.2	26.6	3.02e+01	92	41	0	160432128	54	6250
2026-01-24 04:40:45.47	251.72	7.37	-40.2	-41.6	26.2	3.02e+01	92	41	0	162529280	54	6561
2026-01-24 04:40:46.48	251.88	7.41	-40.1	-41.6	26.3	3.02e+01	92	41	0	164626432	54	6499
2026-01-24 04:40:47.49	252.05	7.46	-40.3	-41.7	26.2	3.02e+01	90	41	0	166199296	54	6642
2026-01-24 04:40:48.50	252.21	7.50	-39.8	-41.2	26.7	3.02e+01	90	41	0	168296448	54	6238
2026-01-24 04:40:49.51	252.38	7.54	-39.9	-41.3	26.6	3.02e+01	90	41	0	169869312	54	6299
2026-01-24 04:40:50.52	252.55	7.58	-39.8	-41.1	26.6	3.02e+01	91	41	0	171966464	54	6202
2026-01-24 04:40:51.53	252.71	7.62	-39.7	-41.0	26.8	3.02e+01	91	41	0	174063616	54	6132
2026-01-24 04:40:52.53	252.88	7.66	-39.8	-41.2	26.7	3.02e+01	92	41	0	175636480	54	6212
2026-01-24 04:40:53.54	253.05	7.70	-40.2	-41.6	26.3	3.02e+01	91	41	0	177733632	54	6513
2026-01-24 04:40:54.55	253.21	7.74	-40.3	-41.7	26.1	3.02e+01	90	41	0	179306496	54	6618
2026-01-24 04:40:55.56	253.38	7.78	-39.8	-41.2	26.7	3.02e+01	92	41	0	181403648	54	6224
2026-01-24 04:40:56.58	253.55	7.82	-39.8	-41.1	26.7	3.02e+01	90	41	0	183500800	54	6201
2026-01-24 04:40:57.59	253.72	7.87	-39.5	-40.9	26.9	3.02e+01	92	41	0	185073664	54	6024
2026-01-24 04:40:58.60	253.89	7.91	-40.1	-41.5	26.5	3.02e+01	92	41	0	187170816	54	6467
2026-01-24 04:40:59.60	254.06	7.94	-40.2	-41.6	26.2	3.02e+01	90	41	0	188743680	54	6522
2026-01-24 04:41:00.61	254.23	7.98	-40.3	-41.7	26.1	3.02e+01	92	41	0	190840832	54	6620
2026-01-24 04:41:01.63	254.41	8.03	-40.8	-42.3	25.7	3.02e+01	92	41	0	192937984	54	7067
2026-01-24 04:41:02.63	254.58	8.06	-39.9	-41.3	26.7	3.02e+01	92	41	0	194510848	54	6327
2026-01-24 04:41:03.64	254.75	8.10	-39.7	-41.0	26.8	3.02e+01	92	41	0	196608000	54	6116
2026-01-24 04:41:04.65	254.92	8.14	-39.8	-41.1	26.7	3.02e+01	90	41	0	198705152	54	6191
2026-01-24 04:41:05.66	255.10	8.18	-39.6	-41.0	26.8	3.02e+01	92	41	0	200278016	54	6086
2026-01-24 04:41:06.67	255.27	8.22	-39.8	-41.1	26.7	3.02e+01	92	41	0	202375168	54	6190
2026-01-24 04:41:07.68	255.45	8.26	-39.8	-41.1	26.8	3.02e+01	92	41	0	203948032	54	6182
2026-01-24 04:41:08.69	255.62	8.30	-39.5	-40.8	27.0	3.02e+01	92	41	0	206045184	54	5979
2026-01-24 04:41:09.70	255.80	8.34	-39.4	-40.7	27.1	3.02e+01	92	41	0	208142336	54	5898
2026-01-24 04:41:10.71	255.97	8.38	-39.8	-41.1	26.8	3.02e+01	92	41	0	209715200	54	6204
2026-01-24 04:41:11.72	256.15	8.41	-39.8	-41.2	26.8	3.02e+01	92	41	0	211812352	54	6210
2026-01-24 04:41:12.73	256.33	8.45	-39.7	-41.0	26.9	3.02e+01	92	41	0	213909504	54	6106
2026-01-24 04:41:13.74	256.50	8.49	-40.1	-41.5	26.2	3.02e+01	92	41	0	215482368	54	6489
2026-01-24 04:41:14.75	256.68	8.53	-39.6	-41.0	27.0	3.02e+01	90	41	0	217579520	54	6086
2026-01-24 04:41:15.76	256.86	8.57	-39.3	-40.7	27.3	3.02e+01	92	41	0	219152384	54	5862
2026-01-24 04:41:16.77	257.04	8.60	-39.5	-40.8	27.1	3.02e+01	92	41	0	221249536	54	5986
2026-01-24 04:41:17.77	257.22	8.64	-39.5	-40.9	27.2	3.02e+01	92	41	0	223346688	54	6007
2026-01-24 04:41:18.78	257.40	8.68	-39.5	-40.8	27.0	3.02e+01	92	41	0	224919552	54	5991
2026-01-24 04:41:19.79	257.58	8.71	-39.6	-41.0	26.9	3.02e+01	92	41	0	227016704	54	6083
2026-01-24 04:41:20.80	257.76	8.75	-39.5	-40.8	27.2	3.02e+01	92	41	0	228589568	54	5945
2026-01-24 04:41:21.81	257.94	8.79	-39.4	-40.7	27.2	3.02e+01	92	41	0	230686720	54	5911
2026-01-24 04:41:22.82	258.12	8.82	-39.7	-41.0	26.9	3.02e+01	92	41	0	232783872	54	6095
2026-01-24 04:41:23.83	258.30	8.86	-39.6	-40.9	26.9	3.02e+01	91	41	0	234356736	54	6061
2026-01-24 04:41:24.84	258.49	8.90	-39.6	-41.0	26.9	3.02e+01	90	41	0	236453888	54	6085
2026-01-24 04:41:25.85	258.67	8.93	-39.6	-40.9	27.0	3.02e+01	90	41	0	238026752	54	6061
2026-01-24 04:41:26.86	258.85	8.97	-39.7	-41.0	27.0	3.02e+01	91	41	0	240123904	54	6108
2026-01-24 04:41:27.87	259.04	9.00	-39.5	-40.9	27.1	3.02e+01	86	41	0	242221056	54	6013
2026-01-24 04:41:28.88	259.22	9.04	-39.7	-41.1	27.0	3.02e+01	90	41	0	243793920	54	6146
2026-01-24 04:41:29.89	259.41	9.08	-39.5	-40.9	27.0	3.02e+01	88	41	0	245891072	54	6019
2026-01-24 04:41:30.90	259.59	9.11	-39.5	-40.8	27.1	3.02e+01	90	41	0	247463936	54	5959
2026-01-24 04:41:31.90	259.78	9.14	-39.7	-41.0	26.9	3.02e+01	90	41	0	249561088	54	6133
2026-01-24 04:41:32.91	259.97	9.18	-39.7	-41.0	27.0	3.02e+01	92	41	0	251658240	54	6109
2026-01-24 04:41:33.92	260.15	9.21	-39.6	-40.9	27.1	3.02e+01	92	41	0	253231104	54	6037
2026-01-24 04:41:34.93	260.34	9.25	-39.6	-40.9	27.0	3.02e+01	92	41	0	255328256	54	6030
2026-01-24 04:41:35.94	260.53	9.28	-39.5	-40.8	27.1	3.02e+01	90	41	0	256901120	54	5946
2026-01-24 04:41:36.95	260.72	9.32	-39.3	-40.6	27.4	3.02e+01	92	41	0	258998272	54	5805
2026-01-24 04:41:37.96	260.90	9.35	-39.3	-40.6	27.3	3.02e+01	92	41	0	261095424	54	5806
2026-01-24 04:41:38.97	261.09	9.38	-39.4	-40.7	27.2	3.02e+01	92	41	0	262668288	54	5923
2026-01-24 04:41:39.97	261.28	9.42	-39.2	-40.5	27.5	3.02e+01	92	41	0	264765440	54	5737
2026-01-24 04:41:40.98	261.47	9.45	-39.2	-40.5	27.4	3.02e+01	92	41	0	266862592	54	5777
2026-01-24 04:41:42.00	261.66	9.48	-39.0	-40.3	27.6	3.02e+01	92	41	0	268435456	54	5640
2026-01-24 04:41:43.00	261.85	9.51	-39.1	-40.4	27.5	3.02e+01	91	41	0	270532608	54	5717
2026-01-24 04:41:44.01	262.05	9.55	-39.4	-40.7	27.3	3.02e+01	91	41	0	272105472	54	5898
2026-01-24 04:41:45.02	262.24	9.58	-39.3	-40.6	27.3	3.02e+01	91	41	0	274202624	54	5845
2026-01-24 04:41:46.03	262.43	9.61	-39.1	-40.3	27.6	3.02e+01	90	41	0	276299776	54	5657
2026-01-24 04:41:47.04	262.62	9.64	-39.0	-40.3	27.6	3.02e+01	92	41	0	277872640	54	5649
2026-01-24 04:41:48.05	262.82	9.67	-39.1	-40.4	27.5	3.02e+01	92	41	0	279969792	52	6419
2026-01-24 04:41:49.06	263.01	9.70	-39.3	-40.6	27.3	3.02e+01	91	41	0	281542656	52	6567
2026-01-24 04:41:50.07	263.20	9.74	-39.5	-40.9	27.2	3.02e+01	92	41	0	283639808	52	6730
2026-01-24 04:41:51.08	263.40	9.77	-39.2	-40.5	27.4	3.02e+01	92	41	0	285736960	52	6481
2026-01-24 04:41:52.09	263.59	9.80	-39.3	-40.6	27.4	3.02e+01	92	41	0	287309824	52	6530
2026-01-24 04:41:53.10	263.79	9.83	-38.9	-40.2	27.8	3.02e+01	92	41	0	289406976	52	6254
2026-01-24 04:41:54.11	263.98	9.86	-39.0	-40.2	27.7	3.02e+01	92	41	0	290979840	52	6277
2026-01-24 04:41:55.12	264.18	9.89	-39.2	-40.5	27.5	3.02e+01	92	41	0	293076992	52	6441
2026-01-24 04:41:56.13	264.38	9.92	-39.2	-40.5	27.5	3.02e+01	92	41	0	295174144	52	6463
2026-01-24 04:41:57.14	264.57	9.95	-39.0	-40.3	27.5	3.02e+01	90	41	0	296747008	52	6320
2026-01-24 04:41:58.14	264.77	9.97	-39.4	-40.8	27.8	3.02e+01	92	41	0	298844160	52	6652
2026-01-24 04:41:59.15	264.97	10.00	-39.1	-40.4	27.8	3.02e+01	92	41	0	300417024	52	6356
2026-01-24 04:42:00.16	265.17	10.03	-39.2	-40.5	27.7	3.02e+01	92	41	0	302514176	52	6435
2026-01-24 04:42:01.17	265.37	10.06	-39.1	-40.4	27.6	3.02e+01	90	41	0	304611328	52	6373
2026-01-24 04:42:02.18	265.56	10.09	-39.2	-40.4	27.6	3.02e+01	90	41	0	306184192	52	6421
2026-01-24 04:42:03.19	265.76	10.12	-39.3	-40.6	27.4	3.02e+01	92	41	0	308281344	52	6553
2026-01-24 04:42:04.20	265.96	10.14	-39.5	-40.8	27.2	3.02e+01	92	41	0	310378496	52	6708
2026-01-24 04:42:05.20	266.16	10.17	-39.2	-40.5	27.6	3.02e+01	92	41	0	311951360	52	6478
2026-01-24 04:42:06.21	266.36	10.20	-39.1	-40.4	27.8	3.02e+01	92	41	0	314048512	52	6384
2026-01-24 04:42:07.22	266.56	10.23	-39.1	-40.4	27.7	3.02e+01	92	41	0	315621376	52	6384
2026-01-24 04:42:08.23	266.77	10.25	-39.3	-40.6	27.6	3.02e+01	90	41	0	317718528	52	6500
2026-01-24 04:42:09.24	266.97	10.28	-39.3	-40.6	27.6	3.02e+01	86	41	0	319815680	52	6532
2026-01-24 04:42:10.25	267.17	10.30	-39.2	-40.5	27.6	3.02e+01	88	41	0	321388544	52	6442
2026-01-24 04:42:11.26	267.37	10.33	-39.0	-40.3	27.7	3.02e+01	92	41	0	323485696	52	6329
2026-01-24 04:42:12.27	267.58	10.36	-39.2	-40.5	27.6	3.02e+01	92	41	0	325058560	52	6488
2026-01-24 04:42:13.28	267.78	10.38	-39.1	-40.4	27.6	3.02e+01	90	41	0	327155712	52	6374
2026-01-24 04:42:14.29	267.98	10.41	-39.2	-40.5	27.6	3.02e+01	92	41	0	329252864	52	6444
2026-01-24 04:42:15.30	268.19	10.43	-39.1	-40.4	27.6	3.02e+01	92	41	0	330825728	52	6391
2026-01-24 04:42:16.31	268.39	10.45	-39.1	-40.4	27.7	3.02e+01	92	41	0	332922880	52	6357
2026-01-24 04:42:17.32	268.60	10.48	-39.0	-40.3	27.8	3.02e+01	92	41	0	335020032	52	6314
2026-01-24 04:42:18.33	268.80	10.50	-39.1	-40.3	27.7	3.02e+01	92	41	0	336592896	52	6344
2026-01-24 04:42:19.33	269.00	10.53	-39.4	-40.7	27.5	3.02e+01	92	41	0	338690048	52	6612
2026-01-24 04:42:20.35	269.21	10.55	-39.3	-40.6	27.5	3.02e+01	91	41	0	340262912	52	6502
2026-01-24 04:42:21.36	269.42	10.57	-39.3	-40.6	27.5	3.02e+01	92	41	0	342360064	52	6566
2026-01-24 04:42:22.37	269.62	10.59	-38.9	-40.1	27.9	3.02e+01	91	41	0	344457216	52	6204
2026-01-24 04:42:23.37	269.83	10.62	-38.9	-40.2	27.8	3.02e+01	91	41	0	346030080	52	6233
2026-01-24 04:42:24.38	270.04	10.64	-39.0	-40.3	27.8	3.02e+01	90	41	0	348127232	52	6293
2026-01-24 04:42:25.39	270.24	10.66	-39.1	-40.4	27.6	3.02e+01	92	41	0	349700096	52	6403
2026-01-24 04:42:26.40	270.45	10.68	-39.0	-40.3	27.8	3.02e+01	90	41	0	351797248	52	6298
2026-01-24 04:42:27.41	270.66	10.70	-38.9	-40.1	27.9	3.02e+01	92	41	0	353370112	52	6203
2026-01-24 04:42:28.42	270.87	10.72	-39.1	-40.4	27.7	3.02e+01	92	41	0	355467264	52	6415
2026-01-24 04:42:29.43	271.08	10.74	-39.0	-40.3	27.8	3.02e+01	92	41	0	357564416	52	6295
2026-01-24 04:42:30.44	271.29	10.77	-38.9	-40.1	27.9	3.02e+01	90	41	0	359137280	52	6202
2026-01-24 04:42:31.45	271.49	10.79	-38.8	-40.1	28.0	3.02e+01	92	41	0	361234432	52	6147
2026-01-24 04:42:32.46	271.70	10.80	-38.9	-40.2	27.9	3.02e+01	92	41	0	363331584	52	6217
2026-01-24 04:42:33.47	271.91	10.82	-39.1	-40.4	27.7	3.02e+01	92	41	0	364904448	52	6405
2026-01-24 04:42:34.47	272.12	10.84	-39.0	-40.3	27.8	3.02e+01	91	41	0	367001600	52	6326
2026-01-24 04:42:35.48	272.33	10.86	-39.1	-40.4	27.8	3.02e+01	92	41	0	368574464	52	6353
2026-01-24 04:42:36.49	272.54	10.88	-39.2	-40.5	27.7	3.02e+01	91	41	0	370671616	52	6464
2026-01-24 04:42:37.50	272.75	10.90	-39.0	-40.2	27.8	3.02e+01	90	41	0	372768768	52	6260
2026-01-24 04:42:38.51	272.97	10.92	-38.7	-40.0	28.0	3.02e+01	91	41	0	374341632	52	6070
2026-01-24 04:42:39.52	273.18	10.93	-39.0	-40.3	27.8	3.02e+01	90	41	0	376438784	52	6347
2026-01-24 04:42:40.53	273.39	10.95	-38.8	-40.1	27.9	3.02e+01	90	41	0	378535936	52	6169
2026-01-24 04:42:41.54	273.60	10.97	-38.8	-40.0	28.0	3.02e+01	89	41	0	380108800	52	6111
2026-01-24 04:42:42.55	273.81	10.98	-38.8	-40.0	28.0	3.02e+01	91	41	0	382205952	52	6118
2026-01-24 04:42:43.56	274.03	11.00	-38.8	-40.0	28.1	3.02e+01	91	41	0	383778816	52	6118
2026-01-24 04:42:44.57	274.24	11.02	-38.8	-40.0	28.0	3.02e+01	90	41	0	385875968	52	6116
2026-01-24 04:42:45.58	274.45	11.03	-38.8	-40.1	27.9	3.02e+01	91	41	0	387973120	52	6166
2026-01-24 04:42:46.59	274.66	11.05	-39.1	-40.4	27.6	3.02e+01	92	41	0	389545984	52	6352
2026-01-24 04:42:47.60	274.88	11.06	-39.0	-40.3	27.8	3.02e+01	91	41	0	391643136	52	6283
2026-01-24 04:42:48.61	275.09	11.08	-39.1	-40.4	27.7	3.02e+01	90	41	0	393216000	52	6387
2026-01-24 04:42:49.62	275.31	11.09	-38.9	-40.2	27.9	3.02e+01	92	41	0	395313152	52	6250
2026-01-24 04:42:50.63	275.52	11.11	-39.0	-40.3	27.8	3.02e+01	90	41	0	397410304	52	6312
2026-01-24 04:42:51.64	275.73	11.12	-38.8	-40.1	27.9	3.02e+01	92	41	0	398983168	52	6169
2026-01-24 04:42:52.65	275.95	11.13	-38.8	-40.1	28.0	3.02e+01	90	41	0	401080320	52	6140
2026-01-24 04:42:53.65	276.16	11.15	-38.9	-40.2	27.9	3.02e+01	92	41	0	402653184	52	6228
2026-01-24 04:42:54.66	276.38	11.16	-38.8	-40.1	28.0	3.02e+01	92	41	0	404750336	52	6177
2026-01-24 04:42:55.67	276.59	11.17	-38.8	-40.0	28.0	3.02e+01	90	41	0	406847488	52	6133
2026-01-24 04:42:56.68	276.81	11.18	-38.7	-39.9	28.1	3.02e+01	92	41	0	408420352	52	6064
2026-01-24 04:42:57.69	277.02	11.19	-39.0	-40.2	27.8	3.02e+01	92	41	0	410517504	52	6256
2026-01-24 04:42:58.71	277.24	11.21	-39.0	-40.3	27.8	3.02e+01	92	41	0	412090368	52	6285
2026-01-24 04:42:59.71	277.45	11.22	-38.9	-40.2	27.9	3.02e+01	92	41	0	414187520	52	6248
2026-01-24 04:43:00.72	277.67	11.23	-38.9	-40.1	27.8	3.02e+01	92	41	0	416284672	52	6178
2026-01-24 04:43:01.73	277.89	11.24	-39.0	-40.2	27.9	3.02e+01	91	41	0	417857536	52	6273
2026-01-24 04:43:02.74	278.10	11.25	-38.9	-40.2	27.9	3.02e+01	91	41	0	419954688	52	6257
2026-01-24 04:43:03.75	278.32	11.26	-38.7	-39.9	28.2	3.02e+01	92	41	0	421527552	52	6041
2026-01-24 04:43:04.76	278.53	11.27	-38.5	-39.7	28.3	3.02e+01	91	41	0	423624704	52	5917
2026-01-24 04:43:05.77	278.75	11.27	-38.5	-39.7	28.3	3.02e+01	92	41	0	425721856	52	5896
2026-01-24 04:43:06.78	278.97	11.28	-38.7	-40.0	28.1	3.02e+01	90	41	0	427294720	52	6098
2026-01-24 04:43:07.79	279.19	11.29	-38.7	-40.0	28.0	3.02e+01	91	41	0	429391872	52	6089
2026-01-24 04:43:08.80	279.40	11.30	-38.7	-39.9	28.2	3.02e+01	92	41	0	431489024	52	6041
2026-01-24 04:43:09.80	279.62	11.31	-38.8	-40.1	27.9	3.02e+01	91	41	0	433061888	52	6152
2026-01-24 04:43:10.82	279.84	11.31	-38.5	-39.7	28.3	3.02e+01	91	41	0	435159040	52	5922
2026-01-24 04:43:11.83	280.05	11.32	-38.6	-39.8	28.2	3.02e+01	91	41	0	436731904	52	5990
2026-01-24 04:43:12.84	280.27	11.33	-38.6	-39.9	28.2	3.02e+01	91	41	0	438829056	52	6003
2026-01-24 04:43:13.85	280.49	11.33	-38.6	-39.8	28.2	3.02e+01	91	41	0	440926208	52	5972
2026-01-24 04:43:14.86	280.71	11.34	-38.6	-39.9	28.1	3.02e+01	90	41	0	442499072	52	6035
2026-01-24 04:43:15.86	280.92	11.34	-38.4	-39.6	28.4	3.02e+01	91	41	0	444596224	52	5841
2026-01-24 04:43:16.87	281.14	11.35	-38.4	-39.7	28.4	3.02e+01	88	41	0	446693376	52	5864
2026-01-24 04:43:17.88	281.36	11.35	-38.3	-39.6	28.5	3.02e+01	90	41	0	448266240	52	5809
2026-01-24 04:43:18.89	281.58	11.36	-38.4	-39.7	28.4	3.02e+01	89	41	0	450363392	52	5869
2026-01-24 04:43:19.90	281.79	11.36	-38.6	-39.9	28.1	3.02e+01	92	41	0	451936256	52	6009
2026-01-24 04:43:20.91	282.01	11.37	-38.6	-39.8	28.2	3.02e+01	92	41	0	454033408	52	5992
2026-01-24 04:43:21.91	282.23	11.37	-38.6	-39.9	28.1	3.02e+01	92	41	0	455606272	52	6032
2026-01-24 04:43:22.92	282.45	11.37	-38.4	-39.7	28.4	3.02e+01	90	41	0	457703424	52	5860
2026-01-24 04:43:23.93	282.66	11.38	-38.4	-39.6	28.4	3.02e+01	91	41	0	459800576	52	5846
2026-01-24 04:43:24.94	282.88	11.38	-38.5	-39.8	28.4	3.02e+01	92	41	0	461373440	52	5929
2026-01-24 04:43:25.95	283.10	11.38	-38.6	-39.8	28.2	3.02e+01	90	41	0	463470592	52	5991
2026-01-24 04:43:26.96	283.32	11.38	-38.6	-39.9	28.2	3.02e+01	91	41	0	465043456	52	6003
2026-01-24 04:43:27.97	283.54	11.38	-38.8	-40.0	28.0	3.02e+01	86	41	0	467140608	52	6132
2026-01-24 04:43:28.98	283.76	11.38	-38.7	-40.0	28.1	3.02e+01	86	41	0	469237760	52	6098
2026-01-24 04:43:29.99	283.97	11.38	-38.7	-40.0	28.1	3.02e+01	92	41	0	470810624	52	6074
2026-01-24 04:43:31.00	284.19	11.38	-38.7	-40.0	28.1	3.02e+01	92	41	0	472907776	52	6087
2026-01-24 04:43:32.01	284.41	11.38	-38.7	-39.9	28.2	3.02e+01	91	41	0	475004928	52	6056
2026-01-24 04:43:33.02	284.63	11.38	-38.7	-40.0	28.1	3.02e+01	92	41	0	476577792	52	6070
2026-01-24 04:43:34.02	284.85	11.38	-38.4	-39.6	28.4	3.02e+01	91	41	0	478674944	52	5847
2026-01-24 04:43:35.03	285.06	11.38	-38.4	-39.6	28.4	3.02e+01	91	41	0	480247808	52	5845
2026-01-24 04:43:36.04	285.28	11.38	-38.5	-39.7	28.3	3.02e+01	92	41	0	482344960	52	5913
2026-01-24 04:43:37.05	285.50	11.38	-38.5	-39.8	28.3	3.02e+01	91	41	0	484442112	52	5942
2026-01-24 04:43:38.06	285.72	11.38	-38.5	-39.7	28.3	3.02e+01	91	41	0	486014976	52	5906
2026-01-24 04:43:39.07	285.94	11.37	-38.3	-39.6	28.4	3.02e+01	89	41	0	488112128	52	5795
2026-01-24 04:43:40.08	286.15	11.37	-38.4	-39.7	28.3	3.02e+01	92	41	0	489684992	52	5865
2026-01-24 04:43:41.09	286.37	11.37	-38.4	-39.6	28.3	3.02e+01	92	41	0	491782144	52	5852
2026-01-24 04:43:42.10	286.59	11.36	-38.4	-39.6	28.4	3.02e+01	92	41	0	493879296	52	5845
2026-01-24 04:43:43.11	286.81	11.36	-38.3	-39.6	28.4	3.02e+01	92	41	0	495452160	52	5800
2026-01-24 04:43:44.12	287.03	11.35	-38.5	-39.8	28.3	3.02e+01	92	41	0	497549312	52	5952
2026-01-24 04:43:45.13	287.24	11.35	-38.8	-40.0	28.1	3.02e+01	92	41	0	499646464	52	6111
2026-01-24 04:43:46.14	287.46	11.34	-38.9	-40.2	27.9	3.02e+01	90	41	0	501219328	52	6231
2026-01-24 04:43:47.15	287.68	11.34	-38.9	-40.2	28.0	3.02e+01	92	41	0	503316480	52	6227
2026-01-24 04:43:48.16	287.90	11.33	-38.9	-40.1	28.0	3.02e+01	90	41	0	504889344	52	6201
2026-01-24 04:43:49.17	288.11	11.33	-39.0	-40.3	27.8	3.02e+01	92	41	0	506986496	52	6313
2026-01-24 04:43:50.18	288.33	11.32	-38.8	-40.1	27.9	3.02e+01	92	41	0	509083648	52	6168
2026-01-24 04:43:51.19	288.55	11.31	-38.8	-40.0	28.0	3.02e+01	92	41	0	510656512	52	6127
2026-01-24 04:43:52.20	288.77	11.31	-38.8	-40.0	28.1	3.02e+01	92	41	0	512753664	52	6117
2026-01-24 04:43:53.21	288.98	11.30	-38.8	-40.0	28.1	3.02e+01	90	41	0	514326528	52	6114
2026-01-24 04:43:54.22	289.20	11.29	-38.8	-40.1	28.0	3.02e+01	92	41	0	516423680	52	6166
2026-01-24 04:43:55.23	289.42	11.28	-38.5	-39.8	28.3	3.02e+01	92	41	0	518520832	52	5959
2026-01-24 04:43:56.24	289.63	11.27	-38.4	-39.6	28.4	3.02e+01	92	41	0	520093696	52	5851
2026-01-24 04:43:57.25	289.85	11.27	-38.8	-40.1	28.1	3.02e+01	92	41	0	522190848	52	6145
2026-01-24 04:43:58.26	290.07	11.26	-38.8	-40.0	28.1	3.02e+01	92	41	0	523763712	52	6131
2026-01-24 04:43:59.27	290.28	11.25	-38.7	-40.0	28.1	3.02e+01	92	41	0	525860864	52	6080
2026-01-24 04:44:00.27	290.50	11.24	-38.6	-39.9	28.3	3.02e+01	92	41	0	527958016	52	6001
2026-01-24 04:44:01.29	290.71	11.23	-38.9	-40.1	27.9	3.02e+01	92	41	0	529530880	52	6202
2026-01-24 04:44:02.30	290.93	11.22	-38.9	-40.2	27.9	3.02e+01	92	41	0	531628032	52	6245
2026-01-24 04:44:03.31	291.14	11.21	-39.0	-40.3	27.9	3.02e+01	92	42	0	533200896	52	6328
2026-01-24 04:44:04.32	291.36	11.19	-39.1	-40.4	27.7	3.02e+01	92	42	0	535298048	52	6357
2026-01-24 04:44:05.33	291.57	11.18	-39.1	-40.4	27.8	3.02e+01	89	41	0	537395200	52	6421
2026-01-24 04:44:06.34	291.79	11.17	-39.0	-40.3	27.8	3.02e+01	91	41	0	538968064	52	6330
2026-01-24 04:44:07.35	292.00	11.16	-38.9	-40.1	28.0	3.02e+01	88	41	0	541065216	52	6183
2026-01-24 04:44:08.36	292.22	11.15	-38.6	-39.9	28.1	3.02e+01	91	41	0	543162368	52	6034
2026-01-24 04:44:09.37	292.43	11.13	-38.9	-40.1	27.9	3.02e+01	92	42	0	544735232	52	6185
2026-01-24 04:44:10.38	292.65	11.12	-39.1	-40.4	27.8	3.02e+01	87	42	0	546832384	52	6375
2026-01-24 04:44:11.39	292.86	11.11	-39.1	-40.3	27.8	3.02e+01	91	41	0	548405248	52	6348
2026-01-24 04:44:12.40	293.07	11.09	-38.9	-40.2	27.9	3.02e+01	90	41	0	550502400	52	6226
2026-01-24 04:44:13.41	293.29	11.08	-39.1	-40.4	27.7	3.02e+01	90	41	0	552599552	52	6379
2026-01-24 04:44:14.42	293.50	11.06	-39.0	-40.3	27.8	3.02e+01	92	41	0	554172416	52	6289
2026-01-24 04:44:15.43	293.71	11.05	-38.8	-40.1	28.0	3.02e+01	91	42	0	556269568	52	6148
2026-01-24 04:44:16.43	293.93	11.03	-39.0	-40.3	27.9	3.02e+01	92	41	0	557842432	52	6297
2026-01-24 04:44:17.44	294.14	11.02	-38.8	-40.1	28.1	3.02e+01	90	42	0	559939584	52	6142
2026-01-24 04:44:18.45	294.35	11.00	-38.8	-40.1	28.0	3.02e+01	92	42	0	562036736	52	6149
2026-01-24 04:44:19.46	294.56	10.99	-39.1	-40.4	27.6	3.02e+01	92	41	0	563609600	52	6416
2026-01-24 04:44:20.47	294.77	10.97	-38.9	-40.2	27.9	3.02e+01	92	42	0	565706752	52	6242
2026-01-24 04:44:21.48	294.99	10.95	-38.5	-39.8	28.2	3.02e+01	92	41	0	567803904	52	5932
2026-01-24 04:44:22.49	295.20	10.93	-38.5	-39.8	28.2	3.02e+01	92	41	0	569376768	52	5970
2026-01-24 04:44:23.50	295.41	10.92	-38.5	-39.7	28.2	3.02e+01	91	41	0	571473920	52	5914
2026-01-24 04:44:24.51	295.62	10.90	-38.6	-39.9	28.2	3.02e+01	92	41	0	573046784	52	5998
2026-01-24 04:44:25.52	295.83	10.88	-38.6	-39.9	28.2	3.02e+01	91	41	0	575143936	52	6007
2026-01-24 04:44:26.53	296.04	10.86	-38.7	-40.0	28.2	3.02e+01	91	41	0	577241088	52	6069
2026-01-24 04:44:27.54	296.25	10.84	-39.0	-40.3	27.7	3.02e+01	91	41	0	578813952	52	6342
2026-01-24 04:44:28.55	296.46	10.83	-39.0	-40.3	27.8	3.02e+01	92	41	0	580911104	52	6345
2026-01-24 04:44:29.56	296.67	10.81	-38.9	-40.2	27.9	3.02e+01	91	41	0	582483968	52	6256
2026-01-24 04:44:30.57	296.88	10.79	-39.0	-40.3	27.8	3.02e+01	92	42	0	584581120	52	6293
2026-01-24 04:44:31.57	297.08	10.77	-39.0	-40.3	27.8	3.02e+01	90	41	0	586678272	52	6324
2026-01-24 04:44:32.58	297.29	10.75	-39.1	-40.3	27.7	3.02e+01	92	42	0	588251136	52	6340
2026-01-24 04:44:33.59	297.50	10.73	-38.8	-40.1	28.1	3.02e+01	92	42	0	590348288	52	6144
2026-01-24 04:44:34.60	297.71	10.71	-38.6	-39.9	28.1	3.02e+01	92	41	0	591921152	52	6041
2026-01-24 04:44:35.61	297.92	10.68	-38.6	-39.8	28.2	3.02e+01	92	42	0	594018304	52	5983
2026-01-24 04:44:36.62	298.12	10.66	-38.7	-39.9	28.1	3.02e+01	90	41	0	596115456	52	6052
2026-01-24 04:44:37.63	298.33	10.64	-38.8	-40.0	28.0	3.02e+01	92	41	0	597688320	52	6134
2026-01-24 04:44:38.64	298.54	10.62	-38.8	-40.0	28.0	3.02e+01	89	41	0	599785472	52	6125
2026-01-24 04:44:39.65	298.74	10.60	-38.5	-39.7	28.3	3.02e+01	92	41	0	601358336	52	5920
2026-01-24 04:44:40.66	298.95	10.57	-38.8	-40.1	28.0	3.02e+01	92	41	0	603455488	52	6137
2026-01-24 04:44:41.67	299.15	10.55	-39.1	-40.4	27.6	3.02e+01	92	41	0	605552640	52	6418
2026-01-24 04:44:42.68	299.36	10.53	-39.4	-40.7	27.5	3.02e+01	92	41	0	607125504	52	6604
2026-01-24 04:44:43.69	299.56	10.50	-39.0	-40.3	27.7	3.02e+01	92	42	0	609222656	52	6339
2026-01-24 04:44:44.70	299.77	10.48	-38.9	-40.2	27.8	3.02e+01	92	41	0	611319808	52	6234
2026-01-24 04:44:45.71	299.97	10.46	-38.7	-40.0	28.1	3.02e+01	92	41	0	612892672	52	6099
2026-01-24 04:44:46.71	300.17	10.43	-38.4	-39.6	28.3	3.02e+01	92	41	0	614989824	52	5851
2026-01-24 04:44:47.73	300.38	10.41	-38.3	-39.6	28.4	3.02e+01	90	42	0	616562688	52	5821
2026-01-24 04:44:48.73	300.58	10.38	-38.9	-40.2	27.8	3.02e+01	92	41	0	618659840	52	6257
2026-01-24 04:44:49.74	300.78	10.36	-38.9	-40.2	27.9	3.02e+01	92	41	0	620756992	52	6254
2026-01-24 04:44:50.75	300.99	10.33	-38.7	-40.0	28.0	3.02e+01	90	42	0	622329856	52	6115
2026-01-24 04:44:51.76	301.19	10.31	-38.8	-40.0	28.0	3.02e+01	92	41	0	624427008	52	6128
2026-01-24 04:44:52.77	301.39	10.28	-38.6	-39.9	28.2	3.02e+01	92	41	0	625999872	52	5996
2026-01-24 04:44:53.78	301.59	10.26	-38.8	-40.1	28.0	3.02e+01	92	41	0	628097024	52	6201
2026-01-24 04:44:54.79	301.79	10.23	-38.9	-40.2	27.9	3.02e+01	92	41	0	630194176	52	6262
2026-01-24 04:44:55.80	301.99	10.20	-39.1	-40.4	27.7	3.02e+01	91	42	0	631767040	52	6407
2026-01-24 04:44:56.81	302.19	10.18	-39.0	-40.3	27.7	3.02e+01	91	41	0	633864192	52	6304
2026-01-24 04:44:57.82	302.39	10.15	-39.0	-40.3	27.8	3.02e+01	91	41	0	635961344	52	6318
2026-01-24 04:44:58.83	302.59	10.12	-39.1	-40.4	27.7	3.02e+01	90	42	0	637534208	52	6365
2026-01-24 04:44:59.83	302.79	10.09	-39.0	-40.3	27.7	3.02e+01	92	41	0	639631360	52	6337
2026-01-24 04:45:00.84	302.98	10.07	-38.7	-40.0	28.1	3.02e+01	90	41	0	641204224	52	6095
2026-01-24 04:45:01.85	303.18	10.04	-38.9	-40.2	27.9	3.02e+01	92	41	0	643301376	52	6232
2026-01-24 04:45:02.87	303.38	10.01	-39.1	-40.4	27.6	3.02e+01	90	41	0	645398528	52	6417
2026-01-24 04:45:03.88	303.58	9.98	-39.2	-40.5	27.5	3.02e+01	92	41	0	646971392	52	6462
2026-01-24 04:45:04.89	303.78	9.95	-39.2	-40.5	27.7	3.02e+01	92	42	0	649068544	52	6456
2026-01-24 04:45:05.90	303.97	9.92	-39.1	-40.4	27.6	3.02e+01	89	41	0	650641408	52	6397
2026-01-24 04:45:06.91	304.17	9.89	-39.0	-40.3	27.7	3.02e+01	90	42	0	652738560	52	6337
2026-01-24 04:45:07.92	304.36	9.86	-39.5	-40.9	27.2	3.02e+01	92	42	0	654835712	52	6738
2026-01-24 04:45:08.93	304.56	9.83	-39.0	-40.3	27.9	3.02e+01	92	42	0	656408576	52	6323
2026-01-24 04:45:09.94	304.75	9.80	-38.8	-40.2	27.9	3.02e+01	93	42	0	658505728	52	6222
2026-01-24 04:45:10.95	304.95	9.77	-38.8	-40.1	27.9	3.02e+01	87	42	0	660078592	52	6168
2026-01-24 04:45:11.96	305.14	9.74	-39.1	-40.5	27.6	3.02e+01	92	41	0	662175744	52	6436
2026-01-24 04:45:12.97	305.34	9.71	-39.2	-40.6	27.5	3.02e+01	91	42	0	664272896	52	6521
2026-01-24 04:45:13.98	305.53	9.68	-39.2	-40.6	27.4	3.02e+01	92	42	0	665845760	52	6529
2026-01-24 04:45:14.98	305.72	9.65	-38.9	-40.2	27.8	3.02e+01	91	42	0	667942912	52	6270
2026-01-24 04:45:15.99	305.91	9.62	-38.9	-40.2	27.8	3.02e+01	91	42	0	669515776	52	6271
2026-01-24 04:45:17.00	306.10	9.59	-38.9	-40.2	27.8	3.02e+01	92	42	0	671612928	52	6254
2026-01-24 04:45:18.01	306.29	9.55	-38.9	-40.2	27.7	3.02e+01	92	41	0	673710080	52	6273
2026-01-24 04:45:19.02	306.48	9.52	-38.9	-40.3	27.8	3.02e+01	91	42	0	675282944	52	6289
2026-01-24 04:45:20.03	306.68	9.49	-39.1	-40.5	27.5	3.02e+01	60	41	0	677380096	52	6437
2026-01-24 04:45:21.04	306.86	9.46	-39.1	-40.4	27.7	3.02e+01	56	42	0	679477248	52	6379
2026-01-24 04:45:22.05	307.05	9.42	-38.8	-40.1	28.0	3.02e+01	59	42	0	681050112	52	6164
2026-01-24 04:45:23.06	307.24	9.39	-38.8	-40.1	27.9	3.02e+01	64	42	0	683147264	52	6149
2026-01-24 04:45:24.07	307.43	9.36	-39.0	-40.3	27.6	3.02e+01	56	42	0	684720128	52	6334
2026-01-24 04:45:25.08	307.62	9.33	-39.3	-40.6	27.5	3.02e+01	57	42	0	686817280	52	6540
2026-01-24 04:45:26.09	307.81	9.29	-39.0	-40.3	27.8	3.02e+01	60	42	0	688914432	52	6295
2026-01-24 04:45:27.10	307.99	9.26	-39.1	-40.4	27.6	3.02e+01	60	41	0	690487296	52	6393
2026-01-24 04:45:28.11	308.18	9.22	-39.0	-40.3	27.6	3.02e+01	58	42	0	692584448	52	6313
2026-01-24 04:45:29.12	308.37	9.19	-39.2	-40.5	27.6	3.02e+01	49	42	0	694157312	52	6457
2026-01-24 04:45:30.13	308.55	9.16	-39.0	-40.3	27.7	3.02e+01	60	42	0	696254464	52	6341
2026-01-24 04:45:31.14	308.74	9.12	-39.1	-40.4	27.6	3.02e+01	59	42	0	698351616	52	6379
2026-01-24 04:45:32.15	308.92	9.09	-39.2	-40.5	27.6	3.02e+01	57	42	0	699924480	52	6436
2026-01-24 04:45:33.16	309.11	9.05	-39.4	-40.8	27.3	3.02e+01	62	42	0	702021632	52	6657
2026-01-24 04:45:34.17	309.29	9.02	-39.1	-40.4	27.7	3.02e+01	47	42	0	704118784	52	6376
2026-01-24 04:45:35.17	309.47	8.98	-39.2	-40.5	27.5	3.02e+01	60	42	0	705691648	52	6425
2026-01-24 04:45:36.18	309.66	8.95	-39.7	-41.0	27.1	3.02e+01	62	41	0	707788800	52	6879
2026-01-24 04:45:37.19	309.84	8.91	-39.3	-40.6	27.5	3.02e+01	49	41	0	709361664	52	6516
2026-01-24 04:45:38.20	310.02	8.87	-39.2	-40.5	27.6	3.02e+01	59	42	0	711458816	52	6465
2026-01-24 04:45:39.21	310.20	8.84	-39.0	-40.3	27.7	3.02e+01	60	42	0	713031680	52	6299
2026-01-24 04:45:40.22	310.38	8.80	-39.2	-40.5	27.5	3.02e+01	58	42	0	715128832	52	6491
2026-01-24 04:45:41.23	310.56	8.77	-39.3	-40.6	27.5	3.02e+01	60	41	0	717225984	52	6543
2026-01-24 04:45:42.23	310.74	8.73	-39.4	-40.7	27.5	3.02e+01	47	41	0	718798848	52	6592
2026-01-24 04:45:43.25	310.92	8.69	-39.1	-40.4	27.6	3.02e+01	58	42	0	720896000	52	6392
2026-01-24 04:45:44.26	311.10	8.66	-39.2	-40.5	27.5	3.02e+01	58	42	0	722468864	52	6456
2026-01-24 04:45:45.27	311.28	8.62	-38.7	-40.0	28.0	3.02e+01	52	42	0	724566016	52	6080
2026-01-24 04:45:46.27	311.46	8.58	-39.3	-40.6	27.4	3.02e+01	59	42	0	726663168	52	6572
2026-01-24 04:45:47.28	311.64	8.54	-39.4	-40.8	27.3	3.02e+01	61	42	0	728236032	52	6688
2026-01-24 04:45:48.29	311.81	8.51	-39.4	-40.7	27.3	3.02e+01	60	42	0	730333184	52	6649
2026-01-24 04:45:49.30	311.99	8.47	-39.8	-41.2	27.1	3.02e+01	55	42	0	732430336	52	6970
2026-01-24 04:45:50.31	312.17	8.43	-38.7	-40.0	27.9	3.02e+01	55	42	0	734003200	52	6127
2026-01-24 04:45:51.32	312.34	8.39	-38.7	-40.0	27.9	3.02e+01	61	42	0	736100352	52	6109
2026-01-24 04:45:52.33	312.52	8.35	-38.5	-39.8	28.2	3.02e+01	56	42	0	737673216	52	5950
2026-01-24 04:45:53.34	312.69	8.32	-38.8	-40.1	27.8	3.02e+01	50	42	0	739770368	52	6199
2026-01-24 04:45:54.35	312.87	8.28	-39.2	-40.5	27.5	3.02e+01	58	41	0	741867520	52	6492
2026-01-24 04:45:55.36	313.04	8.24	-39.5	-40.8	27.2	3.02e+01	61	42	0	743440384	52	6709
2026-01-24 04:45:56.37	313.21	8.20	-39.6	-40.9	27.2	3.02e+01	60	42	0	745537536	52	6804
2026-01-24 04:45:57.37	313.38	8.16	-39.4	-40.8	27.2	3.02e+01	59	42	0	747634688	52	6665
2026-01-24 04:45:58.38	313.56	8.12	-39.4	-40.7	27.4	3.02e+01	58	42	0	749207552	52	6621
2026-01-24 04:45:59.39	313.73	8.08	-39.5	-40.9	27.0	3.02e+01	60	42	0	751304704	52	6762
2026-01-24 04:46:00.40	313.90	8.04	-39.5	-40.9	27.1	3.02e+01	59	42	0	752877568	52	6745
2026-01-24 04:46:01.41	314.07	8.00	-39.6	-41.0	27.0	3.02e+01	45	42	0	754974720	52	6808
2026-01-24 04:46:02.42	314.24	7.97	-39.4	-40.7	27.3	3.02e+01	61	42	0	757071872	52	6635
2026-01-24 04:46:03.43	314.41	7.93	-38.9	-40.2	27.7	3.02e+01	51	42	0	758644736	52	6231
2026-01-24 04:46:04.44	314.58	7.89	-39.1	-40.4	27.6	3.02e+01	58	42	0	760741888	52	6382
2026-01-24 04:46:05.45	314.75	7.85	-39.6	-41.0	26.9	3.02e+01	58	42	0	762314752	52	6850
2026-01-24 04:46:06.46	314.92	7.81	-39.1	-40.5	27.5	3.02e+01	52	42	0	764411904	52	6445
2026-01-24 04:46:07.47	315.09	7.77	-39.3	-40.7	27.3	3.02e+01	58	42	0	766509056	52	6594
2026-01-24 04:46:08.48	315.25	7.73	-39.5	-40.9	27.2	3.02e+01	59	42	0	768081920	52	6727
2026-01-24 04:46:09.48	315.42	7.69	-39.6	-41.0	27.1	3.02e+01	60	42	0	770179072	52	6819
2026-01-24 04:46:10.49	315.59	7.64	-39.4	-40.8	27.3	3.02e+01	63	42	0	771751936	52	6652
2026-01-24 04:46:11.50	315.75	7.60	-39.5	-40.8	27.2	3.02e+01	48	42	0	773849088	52	6701
2026-01-24 04:46:12.51	315.92	7.56	-39.4	-40.8	27.1	3.02e+01	56	42	0	775946240	52	6659
2026-01-24 04:46:13.52	316.08	7.52	-39.0	-40.3	27.6	3.02e+01	58	42	0	777519104	52	6306
2026-01-24 04:46:14.53	316.25	7.48	-39.6	-40.9	27.0	3.02e+01	44	42	0	779616256	52	6781
2026-01-24 04:46:15.54	316.41	7.44	-39.5	-40.8	27.2	3.02e+01	59	42	0	781189120	52	6704
2026-01-24 04:46:16.55	316.57	7.40	-40.3	-41.7	26.3	3.02e+01	62	42	0	783286272	54	6623
2026-01-24 04:46:17.56	316.74	7.36	-39.2	-40.5	27.3	3.02e+01	59	42	0	785383424	54	5762
2026-01-24 04:46:18.57	316.90	7.32	-39.7	-41.0	26.9	3.02e+01	57	42	0	786956288	54	6132
2026-01-24 04:46:19.58	317.06	7.27	-40.1	-41.4	26.5	3.02e+01	52	42	0	789053440	54	6408
2026-01-24 04:46:20.59	317.22	7.23	-39.5	-40.8	27.0	3.02e+01	59	42	0	790626304	54	5990
2026-01-24 04:46:21.60	317.38	7.19	-40.7	-42.1	26.2	3.02e+01	59	42	0	792723456	54	6943
2026-01-24 04:46:22.61	317.54	7.15	-39.8	-41.1	26.9	3.02e+01	52	42	0	794820608	54	6179
2026-01-24 04:46:23.62	317.70	7.11	-39.9	-41.3	26.7	3.02e+01	59	42	0	796393472	54	6319
2026-01-24 04:46:24.62	317.86	7.06	-40.1	-41.5	26.5	3.02e+01	59	42	0	798490624	54	6473
2026-01-24 04:46:25.63	318.02	7.02	-39.7	-41.1	26.9	3.02e+01	58	42	0	800587776	54	6164
2026-01-24 04:46:26.64	318.18	6.98	-39.4	-40.7	27.2	3.02e+01	60	42	0	802160640	54	5916
2026-01-24 04:46:27.65	318.34	6.94	-39.9	-41.3	26.6	3.02e+01	49	42	0	804257792	54	6324
2026-01-24 04:46:28.66	318.50	6.89	-39.6	-40.9	27.0	3.02e+01	60	42	0	805830656	54	6053
2026-01-24 04:46:29.67	318.65	6.85	-39.4	-40.8	27.0	3.02e+01	60	42	0	807927808	54	5944
2026-01-24 04:46:30.68	318.81	6.81	-40.9	-42.4	25.6	3.02e+01	37	42	0	810024960	54	7193
2026-01-24 04:46:31.69	318.97	6.77	-39.5	-40.8	27.0	3.02e+01	60	42	0	811597824	54	5989
2026-01-24 04:46:32.70	319.12	6.72	-40.0	-41.5	26.4	3.02e+01	60	42	0	813694976	54	6433
2026-01-24 04:46:33.71	319.28	6.68	-39.5	-40.9	27.0	3.02e+01	57	42	0	815267840	54	6019
2026-01-24 04:46:34.72	319.43	6.64	-39.6	-40.9	27.0	3.02e+01	56	42	0	817364992	54	6032
2026-01-24 04:46:35.73	319.59	6.59	-39.7	-41.1	26.8	3.02e+01	54	42	0	819462144	54	6147
2026-01-24 04:46:36.74	319.74	6.55	-39.8	-41.2	26.7	3.02e+01	59	42	0	821035008	54	6259
2026-01-24 04:46:37.75	319.89	6.51	-39.6	-41.0	27.0	3.02e+01	59	42	0	823132160	54	6090
2026-01-24 04:46:38.76	320.05	6.46	-40.1	-41.5	26.5	3.02e+01	45	42	0	824705024	54	6480
2026-01-24 04:46:39.77	320.20	6.42	-39.9	-41.3	26.6	3.02e+01	59	42	0	826802176	54	6301
2026-01-24 04:46:40.78	320.35	6.38	-39.5	-40.9	27.0	3.02e+01	45	42	0	828899328	54	6002
2026-01-24 04:46:41.78	320.50	6.33	-40.6	-42.0	25.9	3.02e+01	60	42	0	830472192	54	6865
2026-01-24 04:46:42.79	320.65	6.29	-39.7	-41.1	26.6	3.02e+01	57	42	0	832569344	54	6147
2026-01-24 04:46:43.81	320.80	6.25	-40.5	-42.0	26.0	3.02e+01	53	42	0	834142208	54	6838
2026-01-24 04:46:44.81	320.95	6.20	-40.1	-41.5	26.1	3.02e+01	63	42	0	836239360	54	6497
2026-01-24 04:46:45.82	321.10	6.16	-40.4	-41.8	26.0	3.02e+01	60	42	0	838336512	54	6726
2026-01-24 04:46:46.83	321.25	6.12	-39.4	-40.7	26.9	3.02e+01	61	42	0	839909376	54	5914
2026-01-24 04:46:47.84	321.40	6.07	-40.0	-41.4	26.5	3.02e+01	60	42	0	842006528	54	6357
2026-01-24 04:46:48.85	321.55	6.03	-39.9	-41.3	26.5	3.02e+01	46	42	0	844103680	54	6333
2026-01-24 04:46:49.86	321.70	5.98	-39.5	-40.9	26.9	3.02e+01	58	42	0	845676544	54	6000
2026-01-24 04:46:50.87	321.84	5.94	-39.6	-41.0	26.9	3.02e+01	61	42	0	847773696	54	6081
2026-01-24 04:46:51.88	321.99	5.89	-39.5	-40.9	26.7	3.02e+01	47	42	0	849346560	54	6030
2026-01-24 04:46:52.89	322.14	5.85	-41.2	-42.7	25.5	3.02e+01	57	42	0	851443712	56	6579
2026-01-24 04:46:53.90	322.28	5.81	-40.2	-41.6	26.1	3.02e+01	59	42	0	853540864	56	5849
2026-01-24 04:46:54.91	322.43	5.76	-39.5	-40.8	26.8	3.02e+01	59	42	0	855113728	54	5966
2026-01-24 04:46:55.91	322.57	5.72	-39.9	-41.3	26.4	3.02e+01	61	42	0	857210880	54	6281
2026-01-24 04:46:56.92	322.71	5.67	-39.8	-41.2	26.7	3.02e+01	58	42	0	858783744	54	6224
2026-01-24 04:46:57.93	322.86	5.63	-39.6	-41.0	26.5	3.02e+01	57	42	0	860880896	54	6070
2026-01-24 04:46:58.94	323.00	5.58	-40.1	-41.5	26.1	3.02e+01	57	42	0	862978048	54	6451
2026-01-24 04:46:59.95	323.14	5.54	-39.3	-40.7	27.0	3.02e+01	53	42	0	864550912	54	5900
2026-01-24 04:47:00.96	323.29	5.49	-40.2	-41.6	26.0	3.02e+01	60	42	0	866648064	54	6566
2026-01-24 04:47:01.97	323.43	5.45	-40.8	-42.3	25.6	3.02e+01	59	42	0	868745216	56	6294
2026-01-24 04:47:02.98	323.57	5.40	-40.1	-41.5	26.3	3.02e+01	59	42	0	870318080	56	5768
2026-01-24 04:47:03.99	323.71	5.36	-41.0	-42.5	25.3	3.02e+01	60	42	0	872415232	56	6474
2026-01-24 04:47:05.00	323.85	5.31	-39.6	-41.0	26.6	3.02e+01	61	42	0	873988096	54	6098
2026-01-24 04:47:06.01	323.99	5.27	-40.2	-41.7	25.9	3.02e+01	58	42	0	876085248	54	6611
2026-01-24 04:47:07.02	324.13	5.22	-40.1	-41.5	26.1	3.02e+01	62	42	0	878182400	54	6451
2026-01-24 04:47:08.03	324.27	5.18	-39.8	-41.2	26.6	3.02e+01	45	42	0	879755264	54	6234
2026-01-24 04:47:09.04	324.41	5.13	-39.3	-40.7	26.8	3.02e+01	59	42	0	881852416	52	6601
2026-01-24 04:47:10.05	324.55	5.09	-40.3	-41.8	25.9	3.02e+01	63	42	0	883425280	54	6670
2026-01-24 04:47:11.06	324.69	5.04	-40.6	-42.1	25.7	3.02e+01	60	42	0	885522432	56	6170
2026-01-24 04:47:12.07	324.82	5.00	-40.6	-42.1	25.6	3.02e+01	59	42	0	887619584	54	6922
2026-01-24 04:47:13.08	324.96	4.95	-39.0	-40.3	27.5	3.02e+01	57	42	0	889192448	54	5632
2026-01-24 04:47:14.09	325.10	4.91	-40.0	-41.4	26.1	3.02e+01	59	42	0	891289600	52	7177
2026-01-24 04:47:15.10	325.23	4.86	-40.1	-41.5	25.8	3.02e+01	57	42	0	892862464	54	6490
2026-01-24 04:47:16.11	325.37	4.82	-40.0	-41.5	26.4	3.02e+01	44	42	0	894959616	54	6426
2026-01-24 04:47:17.12	325.50	4.77	-39.9	-41.3	26.4	3.02e+01	55	42	0	897056768	54	6321
2026-01-24 04:47:18.13	325.64	4.72	-40.8	-42.3	25.4	3.02e+01	56	42	0	898629632	56	6319
2026-01-24 04:47:19.14	325.77	4.68	-42.0	-43.7	23.9	3.02e+01	61	42	0	900726784	56	7431
2026-01-24 04:47:20.15	325.91	4.63	-41.3	-42.8	24.8	3.02e+01	57	42	0	902299648	58	5984
2026-01-24 04:47:21.16	326.04	4.59	-41.9	-43.6	24.1	3.02e+01	53	42	0	904396800	58	6517
2026-01-24 04:47:22.17	326.17	4.54	-40.4	-41.8	25.6	3.02e+01	63	42	0	906493952	56	5982
2026-01-24 04:47:23.18	326.31	4.50	-40.7	-42.2	25.8	3.02e+01	60	42	0	908066816	56	6232
2026-01-24 04:47:24.19	326.44	4.45	-41.5	-43.1	24.3	3.02e+01	59	42	0	910163968	54	7738
2026-01-24 04:47:25.20	326.57	4.41	-42.7	-44.5	23.1	3.02e+01	62	42	0	911736832	56	8170
2026-01-24 04:47:26.21	326.70	4.36	-39.9	-41.4	26.1	3.02e+01	44	42	0	913833984	54	6363
2026-01-24 04:47:27.22	326.83	4.31	-41.6	-43.2	24.5	3.02e+01	56	42	0	915931136	56	6998
2026-01-24 04:47:28.23	326.96	4.27	-40.9	-42.4	25.0	3.02e+01	58	42	0	917504000	56	6380
2026-01-24 04:47:29.24	327.09	4.22	-41.4	-43.0	24.5	3.02e+01	47	42	0	919601152	56	6828
2026-01-24 04:47:30.25	327.22	4.18	-41.7	-43.3	24.5	3.02e+01	59	42	0	921698304	56	7070
2026-01-24 04:47:31.26	327.35	4.13	-41.3	-42.9	24.7	3.02e+01	53	42	0	923271168	56	6751
2026-01-24 04:47:32.26	327.48	4.08	-40.9	-42.5	25.1	3.02e+01	59	42	0	925368320	56	6436
2026-01-24 04:47:33.27	327.61	4.04	-40.7	-42.2	25.3	3.02e+01	58	42	0	926941184	56	6243
2026-01-24 04:47:34.28	327.73	3.99	-39.8	-41.2	25.1	3.02e+01	53	42	0	929038336	56	5590
2026-01-24 04:47:35.29	327.86	3.95	-41.0	-42.5	24.6	3.02e+01	57	42	0	931135488	54	7261
2026-01-24 04:47:36.30	327.99	3.90	-44.3	-46.5	21.1	3.02e+01	59	42	0	932708352	60	8176
2026-01-24 04:47:37.31	328.12	3.85	-40.7	-42.2	25.7	3.02e+01	49	42	0	934805504	58	5574
2026-01-24 04:47:38.32	328.24	3.81	-40.3	-41.7	25.6	3.02e+01	59	42	0	936902656	54	6648
2026-01-24 04:47:39.33	328.37	3.76	-40.2	-41.7	25.4	3.02e+01	62	42	0	938475520	54	6600
2026-01-24 04:47:40.34	328.49	3.72	-41.7	-43.3	24.6	3.02e+01	61	42	0	940572672	58	6322
2026-01-24 04:47:41.35	328.62	3.67	-40.6	-42.1	25.5	3.02e+01	59	42	0	942145536	56	6165
2026-01-24 04:47:42.36	328.74	3.62	-41.0	-42.6	24.5	3.02e+01	57	42	0	944242688	54	7360
2026-01-24 04:47:43.37	328.87	3.58	-39.7	-41.1	26.1	3.02e+01	61	42	0	946339840	54	6160
2026-01-24 04:47:44.38	328.99	3.53	-41.4	-43.1	23.8	3.02e+01	61	42	0	947912704	56	6894
2026-01-24 04:47:45.39	329.11	3.49	-42.2	-43.9	23.3	3.02e+01	47	42	0	950009856	58	6797
2026-01-24 04:47:46.40	329.24	3.44	-41.3	-43.0	24.3	3.02e+01	59	42	0	951582720	58	6086
2026-01-24 04:47:47.41	329.36	3.39	-39.7	-41.2	25.9	3.02e+01	57	42	0	953679872	54	6220
2026-01-24 04:47:48.42	329.48	3.35	-41.8	-43.6	23.4	3.02e+01	56	42	0	955777024	58	6533
2026-01-24 04:47:49.43	329.60	3.30	-42.1	-44.0	22.9	3.02e+01	59	42	0	957349888	58	6824
2026-01-24 04:47:50.44	329.72	3.25	-42.8	-44.8	22.1	3.02e+01	53	42	0	959447040	60	6698
2026-01-24 04:47:51.45	329.85	3.21	-41.5	-43.3	23.5	3.02e+01	62	42	0	961019904	58	6303
2026-01-24 04:47:52.46	329.97	3.16	-42.2	-44.1	22.1	3.02e+01	56	42	0	963117056	58	6955
2026-01-24 04:47:53.47	330.09	3.12	-40.3	-41.9	24.6	3.02e+01	59	42	0	965214208	56	6046
2026-01-24 04:47:54.48	330.21	3.07	-45.7	-49.1	17.9	3.02e+01	60	42	0	966787072	60	10984
2026-01-24 04:47:55.49	330.32	3.02	-45.1	-48.2	18.5	3.02e+01	51	42	0	968884224	60	9875
2026-01-24 04:47:56.49	330.44	2.98	-49.9	-65.9	3.5	3.02e+01	68	42	104	970457088	60	76078
2026-01-24 04:47:57.50	330.56	2.93	-50.5	-68.5	3.5	3.02e+01	0	42	104	970457088	60	102660
2026-01-24 04:47:58.51	330.68	2.89	-50.9	-68.8	3.5	3.02e+01	0	42	104	970457088	60	106489
2026-01-24 04:47:59.52	330.80	2.84	-51.1	-69.0	3.5	3.02e+01	0	42	104	970457088	60	108670
2026-01-24 04:48:00.53	330.91	2.79	-51.3	-69.2	3.5	3.02e+01	0	42	104	970457088	60	111583
2026-01-24 04:48:01.54	331.03	2.75	-51.4	-69.3	3.5	3.02e+01	0	42	104	970457088	60	112627
2026-01-24 04:48:02.55	331.15	2.70	-51.4	-69.4	3.5	3.02e+01	0	42	104	970457088	60	113420
2026-01-24 04:48:03.56	331.26	2.65	-51.6	-69.5	3.5	3.02e+01	0	42	104	970457088	60	114275
2026-01-24 04:48:04.57	331.38	2.61	-51.3	-69.5	3.5	3.02e+01	0	42	104	970457088	60	114778
2026-01-24 04:48:05.58	331.50	2.56	-51.7	-69.6	3.5	3.02e+01	0	42	104	970457088	60	116056
2026-01-24 04:48:06.59	331.61	2.51	-51.7	-69.6	3.5	3.02e+01	0	42	104	970457088	60	116357
2026-01-24 04:48:07.60	331.72	2.47	-51.7	-69.6	3.5	3.02e+01	0	42	104	970457088	60	116694
2026-01-24 04:48:08.61	331.84	2.42	-51.6	-69.6	3.5	3.02e+01	0	42	104	970457088	60	116723
2026-01-24 04:48:09.62	331.95	2.38	-51.7	-69.7	3.5	3.02e+01	0	42	104	970457088	60	118027
2026-01-24 04:48:10.63	332.07	2.33	-51.5	-69.6	3.5	3.02e+01	0	42	104	970457088	60	116516
2026-01-24 04:48:11.64	332.18	2.28	-51.6	-69.6	3.5	3.02e+01	0	42	104	970457088	60	116166
2026-01-24 04:48:12.65	332.29	2.24	-51.7	-69.6	3.5	3.02e+01	0	42	104	970457088	60	115896
2026-01-24 04:48:13.66	332.40	2.19	-51.5	-69.5	3.5	3.02e+01	0	42	104	970457088	60	115446
2026-01-24 04:48:14.67	332.52	2.14	-51.6	-69.5	3.5	3.02e+01	0	42	104	970457088	60	115038
2026-01-24 04:48:15.68	332.63	2.10	-51.5	-69.5	3.5	3.02e+01	0	42	104	970457088	60	115075
2026-01-24 04:48:16.69	332.74	2.05	-51.8	-69.5	3.5	3.02e+01	0	42	104	970457088	60	115516
2026-01-24 04:48:17.70	332.85	2.01	-51.8	-69.6	3.5	3.02e+01	0	42	104	970457088	60	115837
2026-01-24 04:48:18.71	332.96	1.96	-51.5	-69.6	3.5	3.02e+01	0	42	104	970457088	60	115844
2026-01-24 04:48:19.72	333.07	1.91	-51.7	-69.7	3.5	3.02e+01	0	42	104	970457088	60	117009
2026-01-24 04:48:20.73	333.18	1.87	-51.8	-69.6	3.5	3.02e+01	0	42	104	970457088	60	116674
2026-01-24 04:48:21.74	333.29	1.82	-51.9	-69.7	3.5	3.02e+01	0	42	104	970457088	60	117012
2026-01-24 04:48:22.75	333.40	1.77	-51.9	-69.6	3.5	3.02e+01	0	42	104	970457088	60	116855
2026-01-24 04:48:23.76	333.51	1.73	-51.9	-69.7	3.5	3.02e+01	0	42	104	970457088	60	117461
2026-01-24 04:48:24.77	333.62	1.68	-51.8	-69.6	3.5	3.02e+01	0	42	104	970457088	60	116616
2026-01-24 04:48:25.77	333.72	1.64	-51.8	-69.6	3.5	3.02e+01	0	42	104	970457088	60	116309
2026-01-24 04:48:26.78	333.83	1.59	-51.8	-69.6	3.5	3.02e+01	0	42	104	970457088	60	116833
2026-01-24 04:48:27.79	333.94	1.54	-51.8	-69.7	3.5	3.02e+01	0	42	104	970457088	60	117171
2026-01-24 04:48:28.80	334.05	1.50	-51.9	-69.7	3.5	3.02e+01	0	42	104	970457088	60	117417
2026-01-24 04:48:29.81	334.15	1.45	-52.0	-69.7	3.5	3.02e+01	0	42	104	970457088	60	118142
2026-01-24 04:48:30.82	334.26	1.40	-51.9	-69.6	3.5	3.02e+01	0	42	104	970457088	60	116891
2026-01-24 04:48:31.83	334.37	1.36	-52.0	-69.8	3.5	3.02e+01	0	42	104	970457088	60	118346
2026-01-24 04:48:32.84	334.47	1.31	-52.0	-69.8	3.5	3.02e+01	0	42	104	970457088	60	119138
2026-01-24 04:48:33.85	334.58	1.27	-52.0	-69.8	3.5	3.02e+01	0	42	104	970457088	60	118370
2026-01-24 04:48:34.86	334.68	1.22	-51.9	-69.8	3.5	3.02e+01	0	42	104	970457088	60	118455
2026-01-24 04:48:35.87	334.79	1.17	-51.9	-69.7	3.5	3.02e+01	0	42	104	970457088	60	117953
2026-01-24 04:48:36.88	334.89	1.13	-51.9	-69.7	3.5	3.02e+01	0	42	104	970457088	60	117753
2026-01-24 04:48:37.89	334.99	1.08	-51.9	-69.6	3.5	3.02e+01	0	42	104	970457088	60	116695
2026-01-24 04:48:38.90	335.10	1.04	-51.9	-69.7	3.5	3.02e+01	0	42	104	970457088	60	117293
2026-01-24 04:48:39.92	335.20	0.99	-51.9	-69.7	3.5	3.02e+01	0	42	104	970457088	60	117197
2026-01-24 04:48:40.93	335.31	0.94	-51.9	-69.7	3.5	3.02e+01	0	42	104	970457088	60	117046
2026-01-24 04:48:41.93	335.41	0.90	-51.8	-69.6	3.5	3.02e+01	0	42	104	970457088	60	116743
2026-01-24 04:48:42.95	335.51	0.85	-51.8	-69.6	3.5	3.02e+01	0	42	104	970457088	60	116101
2026-01-24 04:48:43.95	335.61	0.81	-51.9	-69.7	3.5	3.02e+01	0	42	104	970457088	60	117336
2026-01-24 04:48:44.96	335.71	0.76	-51.9	-69.7	3.5	3.02e+01	0	42	104	970457088	60	117641
2026-01-24 04:48:45.97	335.81	0.71	-51.9	-69.7	3.5	3.02e+01	0	42	104	970457088	60	117786
2026-01-24 04:48:46.98	335.92	0.67	-51.9	-69.7	3.5	3.02e+01	0	42	104	970457088	60	118031
2026-01-24 04:48:47.99	336.02	0.62	-52.0	-69.8	3.6	3.02e+01	0	42	104	970457088	60	118478
2026-01-24 04:48:49.00	336.12	0.58	-51.9	-69.8	3.5	3.02e+01	0	42	104	970457088	60	118336
2026-01-24 04:48:50.01	336.22	0.53	-51.9	-69.7	3.5	3.02e+01	0	42	104	970457088	60	116903
2026-01-24 04:48:51.02	336.32	0.48	-51.9	-69.7	3.5	3.02e+01	0	42	104	970457088	60	117555
2026-01-24 04:48:52.03	336.42	0.44	-51.9	-69.7	3.5	3.02e+01	0	42	104	970457088	60	118243
2026-01-24 04:48:53.05	336.52	0.39	-51.9	-69.7	3.5	3.02e+01	0	42	104	970457088	60	117499
2026-01-24 04:48:54.05	336.61	0.35	-51.9	-69.6	3.5	3.02e+01	0	42	104	970457088	60	116523
2026-01-24 04:48:55.06	336.71	0.30	-51.8	-69.6	3.5	3.02e+01	0	42	104	970457088	60	116892
2026-01-24 04:48:56.07	336.81	0.25	-51.8	-69.6	3.5	3.02e+01	0	42	104	970457088	60	116880
2026-01-24 04:48:57.08	336.91	0.21	-51.8	-69.7	3.5	3.02e+01	0	42	104	970457088	60	117131
2026-01-24 04:48:58.09	337.00	0.16	-51.8	-69.6	3.5	3.02e+01	0	42	104	970457088	60	116336
2026-01-24 04:48:59.11	337.10	0.12	-51.8	-69.6	3.5	3.02e+01	0	42	104	970457088	60	116689
2026-01-24 04:49:00.12	337.20	0.07	-51.8	-69.7	3.5	3.02e+01	0	42	104	970457088	60	116896
2026-01-24 04:49:01.13	337.30	0.02	-51.9	-69.7	3.5	3.02e+01	0	42	104	970457088	60	117465

#Closed at: 2026-01-24 04:49:01
#Recorded file [970 MB]: D:/lorett/data/35029_260124_163803.dat