passes_logs/2026/01/24/R4.6S_Anadyr/R4.6S_Anadyr__20260124_212319_NOAA_21_JPSS-2_rec.log

#Pass ID: 20260124_212319_NOAA 21 (JPSS-2)
#Satellite: NOAA 21 (JPSS-2)
#Configuration: NOAA-21
#almurnet v.1.7.20251203
#Start time: 2026-01-24 21:23:22

#Version: 2.2.20231116
#Station: R4.6S_Anadyr
#Location: 177.4865 lon 64.73178 lat
#TLE: 1 54234U 22150A   26024.45772595  .00000201  00000+0  11607-3 0  9996
#TLE: 2 54234  98.7508 325.2435 0000728 220.7365 139.3757 14.19538765166156

#Time	Az	El	Level	Level2	SNR	BER	BlckErr	Temp	State	Recorded	gain1	gain2
2026-01-24 21:23:22.32	89.33	0.14	-52.3	-67.2	3.5	1.51e+00	0	39	0	0	60	83150
2026-01-24 21:23:23.33	89.27	0.19	-52.6	-65.5	3.5	1.52e+00	0	40	104	0	60	65869
2026-01-24 21:23:24.34	89.21	0.24	-52.9	-65.7	3.5	1.52e+00	0	40	104	0	60	67824
2026-01-24 21:23:25.35	89.15	0.30	-52.8	-65.8	3.5	1.52e+00	0	40	104	0	60	68145
2026-01-24 21:23:26.36	89.08	0.35	-52.5	-65.3	3.5	1.52e+00	0	40	104	0	60	64739
2026-01-24 21:23:27.37	89.02	0.40	-52.3	-65.2	3.5	1.52e+00	0	40	104	0	60	64084
2026-01-24 21:23:28.38	88.96	0.46	-52.0	-64.9	3.5	1.52e+00	0	40	104	0	60	61823
2026-01-24 21:23:29.39	88.89	0.51	-51.8	-64.7	3.5	1.52e+00	0	40	104	0	60	60534
2026-01-24 21:23:30.40	88.83	0.56	-51.8	-64.7	3.5	1.52e+00	0	40	104	0	60	60374
2026-01-24 21:23:31.41	88.76	0.62	-51.7	-64.6	3.5	1.52e+00	0	40	104	0	60	59901
2026-01-24 21:23:32.42	88.70	0.67	-51.8	-64.6	3.5	1.52e+00	0	40	104	0	60	59658
2026-01-24 21:23:33.43	88.64	0.73	-51.7	-64.5	3.5	1.52e+00	0	40	104	0	60	59019
2026-01-24 21:23:34.44	88.57	0.78	-51.6	-64.5	3.5	1.52e+00	0	40	104	0	60	58693
2026-01-24 21:23:35.45	88.51	0.83	-51.7	-64.5	3.5	1.52e+00	0	40	104	0	60	59259
2026-01-24 21:23:36.46	88.44	0.89	-51.8	-64.6	3.5	1.52e+00	0	40	104	0	60	59853
2026-01-24 21:23:37.47	88.37	0.94	-51.7	-64.5	3.5	1.52e+00	0	40	104	0	60	59084
2026-01-24 21:23:38.48	88.31	1.00	-51.4	-64.4	3.5	1.52e+00	0	40	104	0	60	58256
2026-01-24 21:23:39.49	88.24	1.05	-51.4	-64.3	3.5	1.52e+00	0	40	104	0	60	57372
2026-01-24 21:23:40.50	88.18	1.11	-51.5	-64.3	3.5	1.52e+00	0	40	104	0	60	57572
2026-01-24 21:23:41.51	88.11	1.16	-51.3	-64.1	3.5	1.52e+00	0	40	104	0	60	56413
2026-01-24 21:23:42.52	88.04	1.21	-51.1	-64.0	3.5	1.52e+00	0	40	104	0	60	55785
2026-01-24 21:23:43.53	87.97	1.27	-51.1	-63.9	3.5	1.52e+00	0	40	104	0	60	55253
2026-01-24 21:23:44.54	87.91	1.32	-50.7	-63.8	3.5	1.52e+00	0	40	104	0	60	54157
2026-01-24 21:23:45.55	87.84	1.38	-50.7	-63.8	3.5	1.52e+00	0	40	104	0	60	54160
2026-01-24 21:23:46.56	87.77	1.43	-50.7	-63.6	3.5	1.52e+00	0	40	104	0	60	52886
2026-01-24 21:23:47.57	87.70	1.49	-50.3	-63.3	3.5	1.52e+00	0	40	104	0	60	51034
2026-01-24 21:23:48.58	87.63	1.54	-49.8	-62.6	3.5	1.52e+00	0	40	104	0	60	47570
2026-01-24 21:23:49.59	87.56	1.60	-49.8	-62.6	3.5	1.51e+00	0	40	104	0	60	47316
2026-01-24 21:23:50.60	87.50	1.65	-49.8	-62.6	3.5	1.52e+00	0	40	104	0	60	47280
2026-01-24 21:23:51.61	87.43	1.71	-49.9	-62.6	3.5	1.52e+00	0	40	104	0	60	47436
2026-01-24 21:23:52.62	87.36	1.76	-49.8	-62.7	3.5	1.52e+00	0	40	104	0	60	47651
2026-01-24 21:23:53.63	87.29	1.82	-49.8	-62.6	3.5	1.52e+00	0	41	104	0	60	47460
2026-01-24 21:23:54.64	87.22	1.87	-49.8	-62.6	3.5	1.52e+00	0	40	104	0	60	47393
2026-01-24 21:23:55.65	87.15	1.93	-49.8	-62.6	3.5	1.52e+00	0	40	104	0	60	47405
2026-01-24 21:23:56.66	87.08	1.98	-49.8	-62.7	3.5	1.52e+00	0	41	104	0	60	47857
2026-01-24 21:23:57.67	87.00	2.04	-49.8	-62.6	3.5	1.52e+00	0	41	104	0	60	47492
2026-01-24 21:23:58.68	86.93	2.10	-49.8	-62.6	3.5	1.52e+00	0	41	104	0	60	47258
2026-01-24 21:23:59.69	86.86	2.15	-49.8	-62.5	3.5	1.52e+00	0	41	104	0	60	46843
2026-01-24 21:24:00.70	86.79	2.21	-49.8	-62.4	3.5	1.52e+00	0	41	104	0	60	46521
2026-01-24 21:24:01.71	86.72	2.26	-49.9	-62.5	3.5	1.51e+00	0	41	104	0	60	46914
2026-01-24 21:24:02.72	86.65	2.32	-49.9	-62.5	3.5	1.52e+00	0	41	104	0	60	46779
2026-01-24 21:24:03.73	86.57	2.37	-49.8	-62.3	3.5	1.52e+00	0	41	104	0	60	45671
2026-01-24 21:24:04.74	86.50	2.43	-49.8	-62.4	3.5	1.52e+00	0	41	104	0	60	46360
2026-01-24 21:24:05.75	86.43	2.49	-49.8	-62.6	3.5	1.51e+00	0	41	104	0	60	47410
2026-01-24 21:24:06.76	86.35	2.54	-49.8	-62.6	3.5	1.52e+00	0	41	104	0	60	47503
2026-01-24 21:24:07.77	86.28	2.60	-49.8	-62.6	3.5	1.52e+00	0	41	104	0	60	47374
2026-01-24 21:24:08.78	86.20	2.66	-49.7	-62.6	3.5	1.52e+00	0	41	104	0	60	47117
2026-01-24 21:24:09.79	86.13	2.71	-49.8	-62.6	3.5	1.52e+00	0	41	104	0	60	47196
2026-01-24 21:24:10.80	86.06	2.77	-49.7	-62.3	3.5	1.52e+00	0	41	104	0	60	45759
2026-01-24 21:24:11.81	85.98	2.82	-49.7	-61.8	3.5	1.52e+00	0	41	104	0	60	43250
2026-01-24 21:24:12.83	85.90	2.88	-49.7	-61.7	3.5	1.52e+00	0	41	104	0	60	42809
2026-01-24 21:24:13.83	85.83	2.94	-49.7	-62.0	3.5	1.52e+00	0	41	104	0	60	44252
2026-01-24 21:24:14.84	85.75	2.99	-49.7	-62.3	3.5	1.52e+00	0	41	104	0	60	45772
2026-01-24 21:24:15.85	85.68	3.05	-49.6	-60.7	3.5	1.51e+00	0	41	104	0	60	37917
2026-01-24 21:24:16.86	85.60	3.11	-49.2	-57.6	5.0	1.03e+00	0	41	104	0	60	26476
2026-01-24 21:24:17.88	85.52	3.17	-47.9	-52.2	9.0	6.14e-02	0	41	0	2097152	60	14316
2026-01-24 21:24:18.89	85.45	3.22	-46.3	-49.2	12.3	2.21e-04	0	41	0	5242880	60	10143
2026-01-24 21:24:19.90	85.37	3.28	-43.7	-45.6	16.2	0.00e+00	0	41	0	8388608	60	6656
2026-01-24 21:24:20.90	85.29	3.34	-46.1	-48.8	13.1	3.80e-06	0	41	0	11534336	60	9621
2026-01-24 21:24:21.91	85.21	3.39	-48.8	-54.5	6.6	3.53e-03	0	41	0	14680064	60	18599
2026-01-24 21:24:22.92	85.13	3.45	-49.5	-61.9	3.5	2.78e-01	0	41	104	16777216	60	43680
2026-01-24 21:24:23.93	85.06	3.51	-49.9	-62.5	3.5	1.51e+00	0	41	104	16777216	60	46596
2026-01-24 21:24:24.94	84.98	3.56	-41.2	-42.8	18.5	1.06e+00	0	41	104	16777216	56	6128
2026-01-24 21:24:25.95	84.90	3.62	-42.5	-44.0	17.9	0.00e+00	0	41	0	17825792	56	7013
2026-01-24 21:24:26.96	84.82	3.68	-41.4	-42.8	19.0	0.00e+00	0	41	0	20971520	56	6073
2026-01-24 21:24:27.97	84.74	3.74	-41.5	-42.8	18.9	0.00e+00	0	41	0	24117248	56	6101
2026-01-24 21:24:28.98	84.66	3.79	-41.6	-43.0	19.1	0.00e+00	0	41	0	27262976	56	6211
2026-01-24 21:24:29.99	84.58	3.85	-41.2	-42.5	19.3	0.00e+00	0	41	0	30408704	56	5916
2026-01-24 21:24:31.00	84.50	3.91	-41.5	-42.8	19.1	0.00e+00	0	41	0	33554432	56	6095
2026-01-24 21:24:32.01	84.41	3.97	-41.8	-43.2	18.7	0.00e+00	0	41	0	36700160	56	6380
2026-01-24 21:24:33.02	84.33	4.03	-41.9	-43.3	18.6	0.00e+00	0	41	0	39845888	56	6428
2026-01-24 21:24:34.03	84.25	4.08	-41.0	-42.2	15.5	0.00e+00	0	41	0	42991616	60	4541
2026-01-24 21:24:35.04	84.17	4.14	-43.1	-44.6	19.2	0.00e+00	0	41	0	46137344	58	6704
2026-01-24 21:24:36.05	84.09	4.20	-40.9	-42.0	20.2	0.00e+00	0	41	0	49283072	52	7034
2026-01-24 21:24:37.06	84.00	4.26	-43.9	-45.7	16.5	0.00e+00	0	41	0	52428800	60	6734
2026-01-24 21:24:38.07	83.92	4.32	-42.1	-43.6	18.5	0.00e+00	0	41	0	55574528	58	5932
2026-01-24 21:24:39.08	83.84	4.37	-41.9	-43.3	19.1	0.00e+00	0	41	0	58720256	56	6427
2026-01-24 21:24:40.09	83.75	4.43	-42.0	-43.3	18.5	0.00e+00	0	41	0	61865984	56	6487
2026-01-24 21:24:41.09	83.67	4.49	-42.4	-43.9	18.5	0.00e+00	0	41	0	65011712	56	6919
2026-01-24 21:24:42.10	83.58	4.55	-40.8	-42.0	20.0	0.00e+00	0	41	0	68157440	56	5571
2026-01-24 21:24:43.11	83.50	4.61	-42.0	-43.4	18.3	0.00e+00	0	41	0	71303168	56	6544
2026-01-24 21:24:44.12	83.41	4.67	-42.0	-43.4	18.8	0.00e+00	0	41	0	74448896	58	5813
2026-01-24 21:24:45.13	83.33	4.73	-42.5	-43.9	18.4	0.00e+00	0	41	0	77594624	56	6962
2026-01-24 21:24:46.14	83.24	4.78	-42.2	-43.6	18.5	0.00e+00	0	41	0	80740352	56	6700
2026-01-24 21:24:47.15	83.15	4.84	-42.3	-43.8	18.6	0.00e+00	0	41	0	83886080	56	6822
2026-01-24 21:24:48.16	83.07	4.90	-41.6	-42.9	19.0	0.00e+00	0	41	0	87031808	58	5499
2026-01-24 21:24:49.17	82.98	4.96	-42.0	-43.4	18.8	0.00e+00	0	41	0	90177536	56	6504
2026-01-24 21:24:50.18	82.89	5.02	-41.1	-42.3	19.9	0.00e+00	0	41	0	93323264	56	5785
2026-01-24 21:24:51.19	82.80	5.08	-40.4	-41.7	20.3	0.00e+00	0	41	0	96468992	54	5995
2026-01-24 21:24:52.20	82.72	5.14	-40.9	-42.2	19.9	0.00e+00	0	41	0	99614720	54	6358
2026-01-24 21:24:53.20	82.63	5.20	-41.0	-42.2	19.8	0.00e+00	0	41	0	102760448	54	6416
2026-01-24 21:24:54.21	82.54	5.26	-40.2	-41.4	20.6	0.00e+00	0	41	0	105906176	54	5835
2026-01-24 21:24:55.22	82.45	5.32	-40.2	-41.3	20.6	0.00e+00	0	41	0	109051904	54	5777
2026-01-24 21:24:56.23	82.36	5.38	-40.2	-41.3	20.6	0.00e+00	0	41	0	112197632	54	5786
2026-01-24 21:24:57.24	82.27	5.43	-40.3	-41.5	20.5	0.00e+00	0	41	0	115343360	54	5877
2026-01-24 21:24:58.25	82.18	5.49	-40.3	-41.5	20.5	0.00e+00	0	41	0	118489088	54	5903
2026-01-24 21:24:59.26	82.09	5.55	-40.4	-41.6	20.5	0.00e+00	0	41	0	121634816	54	5928
2026-01-24 21:25:00.27	82.00	5.61	-40.2	-41.3	20.6	0.00e+00	0	41	0	124780544	54	5789
2026-01-24 21:25:01.28	81.90	5.67	-40.0	-41.1	21.0	0.00e+00	0	41	0	127926272	54	5623
2026-01-24 21:25:02.29	81.81	5.73	-39.9	-41.0	20.9	0.00e+00	0	41	0	131072000	54	5575
2026-01-24 21:25:03.30	81.72	5.79	-39.8	-41.0	21.0	0.00e+00	0	41	0	134217728	54	5538
2026-01-24 21:25:04.30	81.63	5.85	-39.9	-41.0	20.8	0.00e+00	0	41	0	137363456	54	5572
2026-01-24 21:25:05.31	81.53	5.91	-39.8	-40.9	21.1	0.00e+00	0	41	0	140509184	54	5518
2026-01-24 21:25:06.33	81.44	5.97	-40.0	-41.2	20.8	0.00e+00	0	41	0	143654912	54	5680
2026-01-24 21:25:07.33	81.35	6.03	-40.2	-41.3	20.7	0.00e+00	0	41	0	146800640	54	5791
2026-01-24 21:25:08.34	81.25	6.09	-40.0	-41.2	21.0	0.00e+00	0	41	0	149946368	54	5669
2026-01-24 21:25:09.36	81.16	6.15	-39.9	-41.0	21.1	0.00e+00	0	41	0	153092096	54	5555
2026-01-24 21:25:10.37	81.06	6.21	-40.4	-41.5	20.6	0.00e+00	0	41	0	156237824	54	5914
2026-01-24 21:25:11.38	80.96	6.27	-39.7	-40.8	21.2	0.00e+00	0	41	0	159383552	54	5467
2026-01-24 21:25:12.38	80.87	6.33	-40.1	-41.2	21.0	0.00e+00	0	41	0	162529280	52	6418
2026-01-24 21:25:13.39	80.77	6.40	-39.9	-41.0	21.2	0.00e+00	0	41	0	165675008	52	6236
2026-01-24 21:25:14.40	80.68	6.46	-39.9	-41.1	21.1	0.00e+00	0	41	0	168820736	52	6303
2026-01-24 21:25:15.41	80.58	6.52	-39.9	-41.0	21.1	0.00e+00	0	41	0	171966464	52	6270
2026-01-24 21:25:16.42	80.48	6.58	-39.5	-40.6	21.5	0.00e+00	0	41	0	175112192	52	5978
2026-01-24 21:25:17.43	80.38	6.64	-39.9	-41.1	21.1	0.00e+00	0	41	0	178257920	52	6292
2026-01-24 21:25:18.44	80.28	6.70	-39.8	-41.0	21.2	0.00e+00	0	41	0	181403648	52	6210
2026-01-24 21:25:19.45	80.18	6.76	-39.7	-40.8	21.3	0.00e+00	0	41	0	184549376	52	6115
2026-01-24 21:25:20.46	80.08	6.82	-39.5	-40.5	21.6	0.00e+00	0	41	0	187695104	52	5915
2026-01-24 21:25:21.47	79.98	6.88	-39.4	-40.5	21.5	0.00e+00	0	41	0	190840832	52	5902
2026-01-24 21:25:22.48	79.88	6.94	-39.5	-40.6	21.5	0.00e+00	0	41	0	193986560	52	5936
2026-01-24 21:25:23.48	79.78	7.00	-39.5	-40.5	21.4	0.00e+00	0	41	0	197132288	52	5919
2026-01-24 21:25:24.49	79.68	7.07	-39.5	-40.6	21.4	0.00e+00	0	41	0	200278016	52	5937
2026-01-24 21:25:25.50	79.58	7.13	-40.0	-41.2	20.9	0.00e+00	0	41	0	203423744	52	6360
2026-01-24 21:25:26.52	79.48	7.19	-39.9	-41.0	21.1	0.00e+00	0	41	0	206569472	52	6223
2026-01-24 21:25:27.53	79.38	7.25	-39.8	-40.9	21.5	0.00e+00	0	41	0	209715200	52	6163
2026-01-24 21:25:28.54	79.27	7.31	-40.1	-41.2	21.0	0.00e+00	0	41	0	212860928	52	6375
2026-01-24 21:25:29.54	79.17	7.37	-40.1	-41.3	21.0	0.00e+00	0	41	0	216006656	52	6429
2026-01-24 21:25:30.55	79.07	7.43	-40.0	-41.1	21.1	0.00e+00	0	41	0	219152384	52	6298
2026-01-24 21:25:31.57	78.96	7.50	-40.5	-41.6	20.6	0.00e+00	0	41	0	222298112	52	6699
2026-01-24 21:25:32.57	78.86	7.56	-40.2	-41.4	20.9	0.00e+00	0	41	0	225443840	54	5823
2026-01-24 21:25:33.58	78.75	7.62	-40.1	-41.2	20.9	0.00e+00	0	41	0	229638144	54	5701
2026-01-24 21:25:34.59	78.65	7.68	-40.8	-42.0	20.6	0.00e+00	0	41	0	232783872	54	6247
2026-01-24 21:25:35.60	78.54	7.74	-40.7	-41.9	20.5	0.00e+00	0	41	0	235929600	54	6160
2026-01-24 21:25:36.61	78.43	7.80	-40.3	-41.4	20.7	0.00e+00	0	41	0	238026752	54	5849
2026-01-24 21:25:37.62	78.33	7.87	-39.7	-40.8	21.3	0.00e+00	0	41	0	241172480	52	6078
2026-01-24 21:25:38.63	78.22	7.93	-39.7	-40.8	21.4	0.00e+00	0	41	0	244318208	52	6133
2026-01-24 21:25:39.64	78.11	7.99	-39.8	-40.9	21.3	0.00e+00	0	41	0	248512512	52	6162
2026-01-24 21:25:40.65	78.00	8.05	-39.5	-40.7	21.5	0.00e+00	0	41	0	251658240	52	5998
2026-01-24 21:25:41.66	77.89	8.12	-39.5	-40.6	21.6	0.00e+00	0	41	0	254803968	52	5949
2026-01-24 21:25:42.67	77.78	8.18	-39.4	-40.5	21.6	0.00e+00	0	41	0	257949696	52	5865
2026-01-24 21:25:43.68	77.67	8.24	-39.6	-40.7	21.5	0.00e+00	0	41	0	260046848	52	6009
2026-01-24 21:25:44.69	77.56	8.30	-39.6	-40.7	21.5	0.00e+00	0	41	0	264241152	52	6045
2026-01-24 21:25:45.70	77.45	8.36	-39.2	-40.2	21.9	0.00e+00	0	41	0	267386880	52	5712
2026-01-24 21:25:46.71	77.34	8.43	-39.1	-40.2	21.9	0.00e+00	0	41	0	270532608	52	5679
2026-01-24 21:25:47.72	77.23	8.49	-39.2	-40.3	21.8	0.00e+00	0	41	0	273678336	52	5744
2026-01-24 21:25:48.73	77.12	8.55	-39.3	-40.4	21.8	0.00e+00	0	41	0	276824064	52	5804
2026-01-24 21:25:49.74	77.00	8.61	-39.2	-40.3	21.8	0.00e+00	0	41	0	279969792	52	5727
2026-01-24 21:25:50.75	76.89	8.68	-39.3	-40.4	21.7	0.00e+00	0	41	0	283115520	52	5803
2026-01-24 21:25:51.76	76.78	8.74	-39.2	-40.3	21.8	0.00e+00	0	41	0	286261248	52	5770
2026-01-24 21:25:52.77	76.66	8.80	-39.0	-40.1	22.0	0.00e+00	0	41	0	289406976	52	5640
2026-01-24 21:25:53.78	76.55	8.87	-39.2	-40.3	21.8	0.00e+00	0	41	0	292552704	52	5732
2026-01-24 21:25:54.79	76.43	8.93	-39.3	-40.4	21.6	0.00e+00	0	41	0	295698432	52	5793
2026-01-24 21:25:55.80	76.32	8.99	-39.6	-40.7	21.5	0.00e+00	0	41	0	298844160	52	6041
2026-01-24 21:25:56.81	76.20	9.05	-39.1	-40.2	21.9	0.00e+00	0	41	0	301989888	52	5686
2026-01-24 21:25:57.82	76.08	9.12	-39.4	-40.6	21.7	0.00e+00	0	41	0	305135616	52	5934
2026-01-24 21:25:58.83	75.96	9.18	-39.4	-40.5	21.7	0.00e+00	0	41	0	308281344	52	5895
2026-01-24 21:25:59.84	75.85	9.24	-39.1	-40.2	22.0	0.00e+00	0	41	0	311427072	52	5687
2026-01-24 21:26:00.85	75.73	9.31	-38.9	-40.0	22.1	0.00e+00	0	41	0	314572800	52	5561
2026-01-24 21:26:01.86	75.61	9.37	-39.1	-40.1	22.0	0.00e+00	0	41	0	317718528	52	5647
2026-01-24 21:26:02.87	75.49	9.43	-39.1	-40.1	22.1	0.00e+00	0	41	0	320864256	52	5654
2026-01-24 21:26:03.88	75.37	9.50	-39.0	-40.0	22.2	0.00e+00	0	41	0	324009984	52	5593
2026-01-24 21:26:04.89	75.25	9.56	-38.7	-39.7	22.3	0.00e+00	0	41	0	327155712	50	6014
2026-01-24 21:26:05.90	75.13	9.62	-39.0	-40.0	22.0	0.00e+00	0	41	0	330301440	50	6270
2026-01-24 21:26:06.91	75.01	9.69	-38.5	-39.5	22.4	0.00e+00	0	41	0	333447168	50	5923
2026-01-24 21:26:07.92	74.88	9.75	-38.4	-39.4	22.4	0.00e+00	0	41	0	336592896	50	5857
2026-01-24 21:26:08.93	74.76	9.81	-38.6	-39.6	22.4	0.00e+00	0	41	0	339738624	50	5986
2026-01-24 21:26:09.94	74.64	9.88	-38.6	-39.6	22.4	0.00e+00	0	41	0	342884352	50	5965
2026-01-24 21:26:10.95	74.51	9.94	-38.7	-39.8	22.2	0.00e+00	0	41	0	346030080	50	6069
2026-01-24 21:26:11.96	74.39	10.00	-38.7	-39.8	22.3	0.00e+00	0	41	0	349175808	50	6099
2026-01-24 21:26:12.97	74.26	10.07	-38.6	-39.7	22.4	0.00e+00	0	41	0	352321536	50	6003
2026-01-24 21:26:13.98	74.14	10.13	-38.7	-39.8	22.4	0.00e+00	0	41	0	355467264	50	6068
2026-01-24 21:26:14.99	74.01	10.19	-38.8	-39.9	22.2	0.00e+00	0	41	0	358612992	50	6159
2026-01-24 21:26:16.00	73.89	10.26	-38.7	-39.7	22.4	0.00e+00	0	41	0	361758720	50	6058
2026-01-24 21:26:17.00	73.76	10.32	-38.7	-39.7	22.5	0.00e+00	0	41	0	364904448	50	6031
2026-01-24 21:26:18.01	73.63	10.38	-38.6	-39.6	22.5	0.00e+00	0	41	0	368050176	50	5962
2026-01-24 21:26:19.02	73.50	10.45	-38.3	-39.3	22.8	0.00e+00	0	41	0	371195904	50	5738
2026-01-24 21:26:20.03	73.37	10.51	-38.4	-39.3	22.7	0.00e+00	0	41	0	374341632	50	5779
2026-01-24 21:26:21.04	73.25	10.58	-38.3	-39.3	22.8	0.00e+00	0	41	0	377487360	50	5767
2026-01-24 21:26:22.05	73.11	10.64	-38.0	-39.0	23.0	0.00e+00	0	41	0	380633088	50	5578
2026-01-24 21:26:23.06	72.98	10.70	-38.1	-39.0	22.9	0.00e+00	0	41	0	383778816	50	5584
2026-01-24 21:26:24.07	72.85	10.77	-38.0	-39.0	23.1	0.00e+00	0	41	0	386924544	50	5538
2026-01-24 21:26:25.08	72.72	10.83	-38.1	-39.1	23.0	0.00e+00	0	41	0	390070272	50	5614
2026-01-24 21:26:26.09	72.59	10.90	-38.0	-39.0	22.9	0.00e+00	0	41	0	393216000	50	5594
2026-01-24 21:26:27.10	72.46	10.96	-38.1	-39.1	22.9	0.00e+00	0	41	0	396361728	50	5657
2026-01-24 21:26:28.11	72.32	11.02	-38.1	-39.1	22.9	0.00e+00	0	42	0	399507456	50	5599
2026-01-24 21:26:29.12	72.19	11.09	-38.1	-39.1	22.9	0.00e+00	0	41	0	402653184	50	5659
2026-01-24 21:26:30.13	72.05	11.15	-38.0	-38.9	23.1	0.00e+00	0	41	0	405798912	50	5526
2026-01-24 21:26:31.14	71.92	11.21	-37.9	-38.9	23.1	0.00e+00	0	42	0	408944640	50	5492
2026-01-24 21:26:32.15	71.78	11.28	-37.9	-38.9	23.2	0.00e+00	0	42	0	412090368	50	5488
2026-01-24 21:26:33.16	71.65	11.34	-38.0	-38.9	23.1	0.00e+00	0	41	0	415236096	50	5505
2026-01-24 21:26:34.17	71.51	11.41	-37.9	-38.9	23.1	0.00e+00	0	42	0	418381824	50	5491
2026-01-24 21:26:35.18	71.37	11.47	-37.6	-38.6	23.4	0.00e+00	0	41	0	421527552	48	5930
2026-01-24 21:26:36.19	71.23	11.53	-37.7	-38.7	23.3	0.00e+00	0	42	0	424673280	48	6022
2026-01-24 21:26:37.20	71.09	11.60	-37.8	-38.8	23.1	0.00e+00	0	41	0	427819008	48	6071
2026-01-24 21:26:38.21	70.95	11.66	-37.8	-38.7	23.1	0.00e+00	0	42	0	430964736	48	6044
2026-01-24 21:26:39.22	70.81	11.73	-37.9	-38.8	23.0	0.00e+00	0	41	0	434110464	48	6133
2026-01-24 21:26:40.23	70.67	11.79	-38.0	-38.9	23.0	0.00e+00	0	41	0	437256192	48	6196
2026-01-24 21:26:41.23	70.53	11.85	-37.9	-38.9	23.0	0.00e+00	0	42	0	440401920	48	6171
2026-01-24 21:26:42.24	70.39	11.92	-37.9	-38.9	23.1	0.00e+00	0	42	0	443547648	48	6172
2026-01-24 21:26:43.25	70.25	11.98	-38.0	-39.0	23.0	0.00e+00	0	42	0	446693376	48	6223
2026-01-24 21:26:44.26	70.10	12.05	-37.9	-38.9	23.1	0.00e+00	0	41	0	449839104	48	6141
2026-01-24 21:26:45.27	69.96	12.11	-38.0	-38.9	23.1	0.00e+00	0	41	0	452984832	48	6185
2026-01-24 21:26:46.29	69.81	12.17	-37.9	-38.8	23.2	0.00e+00	0	42	0	456130560	48	6133
2026-01-24 21:26:47.30	69.67	12.24	-37.9	-38.9	23.2	0.00e+00	0	42	0	459276288	48	6170
2026-01-24 21:26:48.31	69.52	12.30	-38.1	-39.1	23.0	0.00e+00	0	42	0	462422016	48	6295
2026-01-24 21:26:49.32	69.38	12.37	-38.1	-39.1	22.9	0.00e+00	0	42	0	465567744	48	6343
2026-01-24 21:26:50.33	69.23	12.43	-38.2	-39.2	23.0	0.00e+00	0	42	0	468713472	48	6365
2026-01-24 21:26:51.34	69.08	12.49	-38.2	-39.2	23.0	0.00e+00	0	42	0	471859200	48	6368
2026-01-24 21:26:52.35	68.93	12.56	-38.6	-39.6	22.6	0.00e+00	0	42	0	475004928	48	6681
2026-01-24 21:26:53.35	68.78	12.62	-38.1	-39.1	23.1	0.00e+00	0	42	0	478150656	48	6300
2026-01-24 21:26:54.36	68.63	12.68	-38.2	-39.1	23.0	0.00e+00	0	42	0	481296384	48	6338
2026-01-24 21:26:55.37	68.48	12.75	-38.0	-38.9	23.3	0.00e+00	0	42	0	484442112	48	6202
2026-01-24 21:26:56.38	68.33	12.81	-37.9	-38.9	23.3	0.00e+00	0	41	0	487587840	48	6168
2026-01-24 21:26:57.39	68.18	12.87	-37.9	-38.8	23.3	0.00e+00	0	41	0	490733568	48	6131
2026-01-24 21:26:58.40	68.03	12.94	-37.7	-38.7	23.4	0.00e+00	0	41	0	493879296	48	5999
2026-01-24 21:26:59.41	67.87	13.00	-37.9	-38.9	23.2	0.00e+00	0	41	0	497025024	48	6144
2026-01-24 21:27:00.42	67.72	13.07	-38.0	-39.0	23.0	0.00e+00	0	42	0	500170752	48	6221
2026-01-24 21:27:01.43	67.57	13.13	-37.9	-38.9	23.2	0.00e+00	0	41	0	503316480	48	6172
2026-01-24 21:27:02.44	67.41	13.19	-38.0	-38.9	23.1	0.00e+00	0	42	0	506462208	48	6192
2026-01-24 21:27:03.45	67.26	13.26	-38.1	-39.0	23.0	0.00e+00	0	42	0	509607936	48	6277
2026-01-24 21:27:04.46	67.10	13.32	-38.2	-39.2	22.9	0.00e+00	0	41	0	512753664	48	6393
2026-01-24 21:27:05.46	66.94	13.38	-38.1	-39.1	23.0	0.00e+00	0	42	0	515899392	48	6310
2026-01-24 21:27:06.47	66.79	13.44	-38.0	-38.9	23.1	0.00e+00	0	42	0	519045120	48	6183
2026-01-24 21:27:07.48	66.63	13.51	-38.1	-39.1	23.1	0.00e+00	0	42	0	522190848	48	6336
2026-01-24 21:27:08.49	66.47	13.57	-38.2	-39.2	23.1	0.00e+00	0	42	0	525336576	48	6362
2026-01-24 21:27:09.50	66.31	13.63	-38.1	-39.1	23.2	0.00e+00	0	42	0	528482304	48	6303
2026-01-24 21:27:10.51	66.15	13.70	-38.0	-39.0	23.1	0.00e+00	0	41	0	531628032	48	6222
2026-01-24 21:27:11.52	65.99	13.76	-38.0	-39.0	23.2	0.00e+00	0	41	0	534773760	48	6245
2026-01-24 21:27:12.53	65.82	13.82	-38.0	-39.0	23.2	0.00e+00	0	42	0	537919488	48	6240
2026-01-24 21:27:13.54	65.66	13.89	-38.2	-39.2	22.9	0.00e+00	0	42	0	541065216	48	6393
2026-01-24 21:27:14.55	65.50	13.95	-38.1	-39.1	23.1	0.00e+00	0	41	0	544210944	48	6320
2026-01-24 21:27:15.56	65.33	14.01	-38.1	-39.1	23.1	0.00e+00	0	41	0	547356672	48	6304
2026-01-24 21:27:16.57	65.17	14.07	-38.1	-39.0	23.2	0.00e+00	0	41	0	550502400	48	6251
2026-01-24 21:27:17.58	65.00	14.14	-37.9	-38.8	23.3	0.00e+00	0	42	0	553648128	48	6100
2026-01-24 21:27:18.59	64.84	14.20	-37.7	-38.7	23.5	0.00e+00	0	42	0	556793856	48	6009
2026-01-24 21:27:19.60	64.67	14.26	-37.5	-38.5	23.6	0.00e+00	0	42	0	559939584	48	5875
2026-01-24 21:27:20.61	64.50	14.32	-37.6	-38.6	23.6	0.00e+00	0	42	0	563085312	48	5939
2026-01-24 21:27:21.62	64.33	14.39	-37.5	-38.4	23.6	0.00e+00	0	42	0	566231040	48	5851
2026-01-24 21:27:22.63	64.16	14.45	-37.4	-38.4	23.6	0.00e+00	0	42	0	569376768	48	5807
2026-01-24 21:27:23.64	63.99	14.51	-37.4	-38.4	23.6	0.00e+00	0	42	0	573571072	48	5807
2026-01-24 21:27:24.65	63.82	14.57	-37.6	-38.5	23.5	0.00e+00	0	42	0	576716800	48	5902
2026-01-24 21:27:25.66	63.65	14.63	-37.6	-38.6	23.5	0.00e+00	0	42	0	578813952	48	5959
2026-01-24 21:27:26.67	63.48	14.69	-37.7	-38.6	23.4	0.00e+00	0	42	0	581959680	48	5990
2026-01-24 21:27:27.68	63.31	14.76	-37.7	-38.6	23.5	0.00e+00	0	42	0	586153984	48	5968
2026-01-24 21:27:28.69	63.13	14.82	-37.7	-38.7	23.4	0.00e+00	0	42	0	589299712	48	6013
2026-01-24 21:27:29.70	62.96	14.88	-37.7	-38.7	23.4	0.00e+00	0	42	0	592445440	48	5998
2026-01-24 21:27:30.71	62.79	14.94	-37.7	-38.7	23.4	0.00e+00	0	42	0	595591168	48	6014
2026-01-24 21:27:31.72	62.61	15.00	-37.9	-38.8	23.3	0.00e+00	0	42	0	598736896	48	6110
2026-01-24 21:27:32.73	62.43	15.06	-37.8	-38.8	23.3	0.00e+00	0	42	0	600834048	48	6095
2026-01-24 21:27:33.74	62.26	15.12	-37.8	-38.8	23.3	0.00e+00	0	42	0	605028352	48	6068
2026-01-24 21:27:34.75	62.08	15.18	-38.0	-38.9	23.2	0.00e+00	0	42	0	608174080	48	6203
2026-01-24 21:27:35.76	61.90	15.24	-38.1	-39.0	23.1	0.00e+00	0	42	0	611319808	48	6267
2026-01-24 21:27:36.77	61.72	15.31	-38.1	-39.1	23.0	0.00e+00	0	42	0	614465536	48	6320
2026-01-24 21:27:37.78	61.54	15.37	-38.1	-39.1	23.1	0.00e+00	0	42	0	617611264	48	6303
2026-01-24 21:27:38.79	61.36	15.43	-38.2	-39.1	23.1	0.00e+00	0	42	0	620756992	48	6334
2026-01-24 21:27:39.80	61.18	15.49	-38.3	-39.2	23.0	0.00e+00	0	42	0	623902720	48	6403
2026-01-24 21:27:40.81	61.00	15.55	-38.2	-39.2	22.9	0.00e+00	0	42	0	627048448	48	6380
2026-01-24 21:27:41.82	60.81	15.61	-38.3	-39.2	23.0	0.00e+00	0	42	0	630194176	48	6419
2026-01-24 21:27:42.83	60.63	15.67	-38.2	-39.2	23.1	0.00e+00	0	42	0	633339904	48	6360
2026-01-24 21:27:43.84	60.45	15.72	-38.2	-39.2	22.9	0.00e+00	0	42	0	636485632	48	6363
2026-01-24 21:27:44.85	60.26	15.78	-38.2	-39.2	23.1	0.00e+00	0	42	0	639631360	48	6367
2026-01-24 21:27:45.86	60.07	15.84	-38.4	-39.3	23.0	0.00e+00	0	42	0	642777088	48	6498
2026-01-24 21:27:46.87	59.89	15.90	-38.1	-39.1	23.1	0.00e+00	0	42	0	645922816	48	6296
2026-01-24 21:27:47.88	59.70	15.96	-38.2	-39.1	23.1	0.00e+00	0	42	0	649068544	48	6322
2026-01-24 21:27:48.89	59.51	16.02	-38.2	-39.1	23.1	0.00e+00	0	42	0	652214272	48	6350
2026-01-24 21:27:49.90	59.32	16.08	-38.2	-39.2	23.1	0.00e+00	0	42	0	655360000	48	6394
2026-01-24 21:27:50.91	59.13	16.14	-38.2	-39.2	23.0	0.00e+00	0	42	0	658505728	48	6355
2026-01-24 21:27:51.92	58.94	16.19	-38.1	-39.1	23.1	0.00e+00	0	42	0	661651456	48	6305
2026-01-24 21:27:52.93	58.75	16.25	-38.1	-39.1	23.1	0.00e+00	0	42	0	664797184	48	6302
2026-01-24 21:27:53.94	58.56	16.31	-38.1	-39.1	23.2	0.00e+00	0	42	0	667942912	48	6288
2026-01-24 21:27:54.95	58.37	16.37	-38.1	-39.0	23.1	0.00e+00	0	42	0	671088640	48	6251
2026-01-24 21:27:55.96	58.17	16.43	-38.1	-39.1	23.1	0.00e+00	0	42	0	674234368	48	6284
2026-01-24 21:27:56.97	57.98	16.48	-38.2	-39.2	23.1	0.00e+00	0	42	0	677380096	48	6366
2026-01-24 21:27:57.98	57.78	16.54	-38.3	-39.3	23.0	0.00e+00	0	42	0	680525824	48	6480
2026-01-24 21:27:58.99	57.59	16.60	-38.2	-39.2	23.1	0.00e+00	0	42	0	683671552	48	6365
2026-01-24 21:28:00.00	57.39	16.65	-38.1	-39.1	23.2	0.00e+00	0	42	0	686817280	48	6280
2026-01-24 21:28:01.01	57.20	16.71	-38.3	-39.2	23.0	0.00e+00	0	42	0	689963008	48	6419
2026-01-24 21:28:02.02	57.00	16.76	-38.1	-39.1	23.2	0.00e+00	0	42	0	693108736	48	6307
2026-01-24 21:28:03.03	56.80	16.82	-38.0	-39.0	23.3	0.00e+00	0	42	0	696254464	48	6222
2026-01-24 21:28:04.04	56.60	16.88	-38.0	-39.0	23.3	0.00e+00	0	42	0	699400192	48	6222
2026-01-24 21:28:05.05	56.40	16.93	-38.1	-39.0	23.4	0.00e+00	0	42	0	702545920	48	6269
2026-01-24 21:28:06.06	56.20	16.99	-38.0	-39.0	23.3	0.00e+00	0	42	0	705691648	48	6227
2026-01-24 21:28:07.07	56.00	17.04	-38.0	-39.0	23.3	0.00e+00	0	42	0	708837376	48	6231
2026-01-24 21:28:08.08	55.80	17.10	-37.9	-38.8	23.5	0.00e+00	0	42	0	711983104	48	6098
2026-01-24 21:28:09.09	55.59	17.15	-38.0	-38.9	23.4	0.00e+00	0	42	0	715128832	48	6170
2026-01-24 21:28:10.10	55.39	17.21	-37.8	-38.8	23.6	0.00e+00	0	42	0	718274560	48	6073
2026-01-24 21:28:11.11	55.18	17.26	-37.8	-38.7	23.6	0.00e+00	0	42	0	721420288	48	6042
2026-01-24 21:28:12.12	54.98	17.31	-37.7	-38.6	23.7	0.00e+00	0	42	0	724566016	48	5963
2026-01-24 21:28:13.13	54.77	17.37	-37.4	-38.3	23.7	0.00e+00	0	42	0	727711744	48	5791
2026-01-24 21:28:14.14	54.57	17.42	-37.5	-38.4	23.7	0.00e+00	0	42	0	730857472	48	5841
2026-01-24 21:28:15.14	54.36	17.47	-37.6	-38.5	23.7	0.00e+00	0	42	0	734003200	48	5872
2026-01-24 21:28:16.15	54.15	17.52	-37.6	-38.5	23.6	0.00e+00	0	42	0	737148928	48	5871
2026-01-24 21:28:17.16	53.94	17.58	-37.5	-38.4	23.7	0.00e+00	0	42	0	740294656	48	5856
2026-01-24 21:28:18.17	53.73	17.63	-37.6	-38.5	23.6	0.00e+00	0	42	0	743440384	48	5888
2026-01-24 21:28:19.18	53.52	17.68	-37.4	-38.3	23.8	0.00e+00	0	42	0	746586112	48	5737
2026-01-24 21:28:20.19	53.31	17.73	-37.3	-38.3	23.8	0.00e+00	0	42	0	749731840	48	5728
2026-01-24 21:28:21.20	53.10	17.78	-37.4	-38.3	23.6	0.00e+00	0	42	0	752877568	48	5764
2026-01-24 21:28:22.21	52.89	17.83	-37.5	-38.4	23.6	0.00e+00	0	42	0	756023296	48	5832
2026-01-24 21:28:23.22	52.67	17.88	-37.5	-38.4	23.6	0.00e+00	0	42	0	759169024	48	5819
2026-01-24 21:28:24.23	52.46	17.93	-37.4	-38.4	23.6	0.00e+00	0	42	0	762314752	48	5796
2026-01-24 21:28:25.24	52.25	17.98	-37.5	-38.4	23.6	0.00e+00	0	42	0	765460480	48	5832
2026-01-24 21:28:26.25	52.03	18.03	-37.5	-38.5	23.6	0.00e+00	0	42	0	768606208	48	5875
2026-01-24 21:28:27.26	51.81	18.08	-37.6	-38.6	23.6	0.00e+00	0	42	0	771751936	48	5937
2026-01-24 21:28:28.27	51.60	18.13	-37.5	-38.5	23.7	0.00e+00	0	42	0	774897664	48	5864
2026-01-24 21:28:29.28	51.38	18.18	-37.6	-38.6	23.6	0.00e+00	0	42	0	778043392	48	5939
2026-01-24 21:28:30.29	51.16	18.23	-37.7	-38.6	23.6	0.00e+00	0	42	0	781189120	48	5954
2026-01-24 21:28:31.30	50.94	18.28	-37.5	-38.5	23.8	0.00e+00	0	42	0	784334848	48	5877
2026-01-24 21:28:32.31	50.72	18.32	-37.6	-38.5	23.8	0.00e+00	0	42	0	787480576	48	5893
2026-01-24 21:28:33.32	50.50	18.37	-37.3	-38.2	24.0	0.00e+00	0	42	0	790626304	48	5724
2026-01-24 21:28:34.32	50.28	18.42	-37.4	-38.4	23.9	0.00e+00	0	42	0	793772032	48	5802
2026-01-24 21:28:35.33	50.06	18.47	-37.2	-38.1	24.1	0.00e+00	0	42	0	796917760	48	5631
2026-01-24 21:28:36.34	49.84	18.51	-37.0	-38.0	24.1	0.00e+00	0	42	0	800063488	48	5544
2026-01-24 21:28:37.35	49.62	18.56	-37.0	-37.9	24.2	0.00e+00	0	42	0	803209216	48	5482
2026-01-24 21:28:38.36	49.39	18.60	-37.0	-37.9	24.1	0.00e+00	0	42	0	806354944	48	5474
2026-01-24 21:28:39.38	49.17	18.65	-36.9	-37.8	24.2	0.00e+00	0	42	0	809500672	48	5464
2026-01-24 21:28:40.38	48.94	18.69	-37.0	-37.9	24.2	0.00e+00	0	42	0	812646400	48	5522
2026-01-24 21:28:41.40	48.72	18.74	-36.8	-37.7	24.3	0.00e+00	0	42	0	815792128	48	5392
2026-01-24 21:28:42.40	48.49	18.78	-36.8	-37.7	24.4	0.00e+00	0	42	0	818937856	46	6056
2026-01-24 21:28:43.42	48.26	18.82	-37.0	-37.9	24.1	0.00e+00	0	42	0	822083584	46	6150
2026-01-24 21:28:44.43	48.04	18.87	-37.1	-38.0	24.0	0.00e+00	0	42	0	825229312	46	6245
2026-01-24 21:28:45.44	47.81	18.91	-37.3	-38.2	23.8	0.00e+00	0	42	0	828375040	46	6379
2026-01-24 21:28:46.44	47.58	18.95	-37.2	-38.1	23.9	0.00e+00	0	42	0	831520768	46	6308
2026-01-24 21:28:47.46	47.35	19.00	-37.0	-37.9	24.0	0.00e+00	0	42	0	834666496	46	6195
2026-01-24 21:28:48.47	47.12	19.04	-37.3	-38.2	23.8	0.00e+00	0	42	0	837812224	46	6380
2026-01-24 21:28:49.48	46.89	19.08	-37.1	-38.0	23.9	0.00e+00	0	42	0	840957952	46	6237
2026-01-24 21:28:50.48	46.66	19.12	-37.2	-38.1	23.9	0.00e+00	0	42	0	844103680	46	6328
2026-01-24 21:28:51.50	46.42	19.16	-37.1	-38.0	24.1	0.00e+00	0	42	0	847249408	46	6257
2026-01-24 21:28:52.50	46.19	19.20	-37.1	-38.1	24.1	0.00e+00	0	42	0	850395136	46	6280
2026-01-24 21:28:53.52	45.96	19.24	-37.1	-38.0	24.1	0.00e+00	0	42	0	853540864	46	6249
2026-01-24 21:28:54.53	45.72	19.28	-37.0	-37.9	24.2	0.00e+00	0	42	0	856686592	46	6165
2026-01-24 21:28:55.54	45.49	19.32	-36.9	-37.9	24.2	0.00e+00	0	42	0	859832320	46	6137
2026-01-24 21:28:56.55	45.25	19.35	-36.9	-37.8	24.4	0.00e+00	0	42	0	862978048	46	6106
2026-01-24 21:28:57.56	45.02	19.39	-37.0	-37.9	24.3	0.00e+00	0	42	0	866123776	46	6148
2026-01-24 21:28:58.57	44.78	19.43	-36.9	-37.8	24.3	0.00e+00	0	42	0	869269504	46	6065
2026-01-24 21:28:59.58	44.55	19.47	-36.9	-37.8	24.2	0.00e+00	0	42	0	872415232	46	6070
2026-01-24 21:29:00.59	44.31	19.50	-36.8	-37.7	24.3	0.00e+00	0	42	0	875560960	46	6058
2026-01-24 21:29:01.60	44.07	19.54	-36.8	-37.7	24.3	0.00e+00	0	42	0	878706688	46	6040
2026-01-24 21:29:02.60	43.83	19.57	-37.0	-37.9	24.2	0.00e+00	0	42	0	881852416	46	6150
2026-01-24 21:29:03.61	43.59	19.61	-37.1	-38.0	24.1	0.00e+00	0	42	0	884998144	46	6237
2026-01-24 21:29:04.62	43.35	19.64	-37.0	-37.9	24.1	0.00e+00	0	42	0	888143872	46	6169
2026-01-24 21:29:05.63	43.11	19.68	-36.9	-37.8	24.2	0.00e+00	0	42	0	891289600	46	6132
2026-01-24 21:29:06.64	42.87	19.71	-37.0	-37.9	24.1	0.00e+00	0	42	0	894435328	46	6194
2026-01-24 21:29:07.65	42.63	19.74	-37.0	-37.9	24.1	0.00e+00	0	42	0	897581056	46	6156
2026-01-24 21:29:08.66	42.39	19.77	-37.1	-38.1	24.0	0.00e+00	0	42	0	900726784	46	6292
2026-01-24 21:29:09.67	42.15	19.81	-37.4	-38.3	23.9	0.00e+00	0	42	0	903872512	46	6455
2026-01-24 21:29:10.68	41.91	19.84	-37.4	-38.3	23.8	0.00e+00	0	42	0	907018240	46	6472
2026-01-24 21:29:11.69	41.66	19.87	-37.0	-37.9	24.1	0.00e+00	0	42	0	911212544	46	6136
2026-01-24 21:29:12.70	41.42	19.90	-37.0	-37.8	24.2	0.00e+00	0	42	0	914358272	46	6133
2026-01-24 21:29:13.71	41.17	19.93	-37.0	-37.9	24.2	0.00e+00	0	42	0	916455424	46	6176
2026-01-24 21:29:14.72	40.93	19.96	-37.2	-38.1	24.0	0.00e+00	0	42	0	919601152	46	6302
2026-01-24 21:29:15.73	40.68	19.99	-37.1	-38.1	24.0	0.00e+00	0	42	0	922746880	46	6284
2026-01-24 21:29:16.74	40.44	20.02	-37.1	-38.0	24.1	0.00e+00	0	42	0	926941184	46	6207
2026-01-24 21:29:17.75	40.19	20.04	-37.2	-38.2	24.0	0.00e+00	0	42	0	930086912	46	6351
2026-01-24 21:29:18.76	39.95	20.07	-37.1	-38.0	24.0	0.00e+00	0	42	0	933232640	46	6232
2026-01-24 21:29:19.77	39.70	20.10	-37.1	-38.0	24.2	0.00e+00	0	42	0	936378368	46	6219
2026-01-24 21:29:20.78	39.45	20.12	-37.1	-38.0	24.2	0.00e+00	0	42	0	939524096	46	6260
2026-01-24 21:29:21.79	39.20	20.15	-37.1	-38.0	24.1	0.00e+00	0	42	0	942669824	46	6233
2026-01-24 21:29:22.80	38.96	20.18	-37.1	-38.0	24.1	0.00e+00	0	42	0	945815552	46	6261
2026-01-24 21:29:23.81	38.71	20.20	-37.0	-37.9	24.1	0.00e+00	0	42	0	948961280	46	6169
2026-01-24 21:29:24.82	38.46	20.22	-36.9	-37.8	24.2	0.00e+00	0	42	0	952107008	46	6083
2026-01-24 21:29:25.83	38.21	20.25	-37.0	-37.9	24.2	0.00e+00	0	42	0	955252736	46	6135
2026-01-24 21:29:26.84	37.96	20.27	-37.1	-38.0	24.1	0.00e+00	0	42	0	958398464	46	6243
2026-01-24 21:29:27.85	37.71	20.29	-37.1	-38.0	24.1	0.00e+00	0	42	0	961544192	46	6249
2026-01-24 21:29:28.86	37.46	20.32	-37.1	-38.0	24.1	0.00e+00	0	42	0	964689920	46	6271
2026-01-24 21:29:29.87	37.21	20.34	-37.3	-38.2	23.9	0.00e+00	0	42	0	967835648	46	6385
2026-01-24 21:29:30.88	36.96	20.36	-37.2	-38.1	24.0	0.00e+00	0	42	0	970981376	46	6314
2026-01-24 21:29:31.89	36.70	20.38	-37.2	-38.1	23.9	0.00e+00	0	42	0	974127104	46	6338
2026-01-24 21:29:32.90	36.45	20.40	-37.1	-38.1	24.1	0.00e+00	0	42	0	977272832	46	6282
2026-01-24 21:29:33.91	36.20	20.42	-37.4	-38.3	23.9	0.00e+00	0	42	0	980418560	46	6457
2026-01-24 21:29:34.92	35.95	20.44	-37.2	-38.1	24.0	0.00e+00	0	42	0	983564288	46	6332
2026-01-24 21:29:35.93	35.69	20.45	-37.1	-38.0	24.1	0.00e+00	0	42	0	986710016	46	6243
2026-01-24 21:29:36.94	35.44	20.47	-37.2	-38.1	23.9	0.00e+00	0	42	0	989855744	46	6350
2026-01-24 21:29:37.95	35.19	20.49	-37.3	-38.2	23.9	0.00e+00	0	42	0	993001472	46	6368
2026-01-24 21:29:38.96	34.93	20.50	-37.2	-38.2	24.0	0.00e+00	0	42	0	996147200	46	6357
2026-01-24 21:29:39.97	34.68	20.52	-37.2	-38.1	24.1	0.00e+00	0	42	0	999292928	46	6322
2026-01-24 21:29:40.98	34.43	20.53	-37.1	-38.0	24.2	0.00e+00	0	42	0	1002438656	46	6210
2026-01-24 21:29:41.99	34.17	20.55	-37.2	-38.1	24.0	0.00e+00	0	42	0	1005584384	46	6294
2026-01-24 21:29:43.00	33.92	20.56	-37.1	-38.0	24.0	0.00e+00	0	42	0	1008730112	46	6266
2026-01-24 21:29:44.00	33.66	20.58	-37.3	-38.2	23.9	0.00e+00	0	42	0	1011875840	46	6421
2026-01-24 21:29:45.02	33.41	20.59	-37.3	-38.2	23.9	0.00e+00	0	42	0	1015021568	46	6367
2026-01-24 21:29:46.03	33.15	20.60	-37.2	-38.2	24.0	0.00e+00	0	42	0	1018167296	46	6354
2026-01-24 21:29:47.03	32.90	20.61	-37.2	-38.0	24.1	0.00e+00	0	42	0	1021313024	46	6275
2026-01-24 21:29:48.04	32.64	20.62	-37.1	-38.0	24.2	0.00e+00	0	42	0	1024458752	46	6258
2026-01-24 21:29:49.05	32.39	20.63	-37.2	-38.1	24.0	0.00e+00	0	42	0	1027604480	46	6298
2026-01-24 21:29:50.06	32.13	20.64	-37.0	-37.9	24.2	0.00e+00	0	42	0	1030750208	46	6162
2026-01-24 21:29:51.07	31.88	20.65	-36.9	-37.8	24.2	0.00e+00	0	42	0	1033895936	46	6089
2026-01-24 21:29:52.08	31.62	20.66	-36.9	-37.8	24.3	0.00e+00	0	42	0	1037041664	46	6108
2026-01-24 21:29:53.09	31.36	20.67	-37.0	-37.9	24.2	0.00e+00	0	42	0	1040187392	46	6174
2026-01-24 21:29:54.10	31.11	20.68	-37.1	-38.0	24.2	0.00e+00	0	42	0	1043333120	46	6250
2026-01-24 21:29:55.11	30.85	20.68	-37.1	-38.0	24.1	0.00e+00	0	42	0	1046478848	46	6260
2026-01-24 21:29:56.12	30.59	20.69	-37.3	-38.2	24.0	0.00e+00	0	42	0	1049624576	46	6389
2026-01-24 21:29:57.13	30.34	20.69	-37.3	-38.2	24.0	0.00e+00	0	42	0	1052770304	46	6408
2026-01-24 21:29:58.14	30.08	20.70	-37.0	-37.9	24.2	0.00e+00	0	42	0	1055916032	46	6186
2026-01-24 21:29:59.15	29.82	20.70	-37.1	-38.0	24.1	0.00e+00	0	42	0	1059061760	46	6211
2026-01-24 21:30:00.15	29.57	20.71	-37.1	-38.0	24.0	0.00e+00	0	42	0	1062207488	46	6253
2026-01-24 21:30:01.16	29.31	20.71	-37.1	-38.0	24.0	0.00e+00	0	42	0	1065353216	46	6255
2026-01-24 21:30:02.17	29.05	20.71	-37.1	-38.0	24.1	0.00e+00	0	42	0	1068498944	46	6243
2026-01-24 21:30:03.18	28.80	20.71	-37.3	-38.2	24.1	0.00e+00	0	42	0	1071644672	46	6417
2026-01-24 21:30:04.19	28.54	20.72	-37.3	-38.2	24.0	0.00e+00	0	42	0	1074790400	46	6415
2026-01-24 21:30:05.20	28.28	20.72	-37.2	-38.2	23.9	0.00e+00	0	42	0	1077936128	46	6357
2026-01-24 21:30:06.21	28.02	20.72	-37.4	-38.3	23.9	0.00e+00	0	42	0	1081081856	46	6485
2026-01-24 21:30:07.22	27.77	20.72	-37.6	-38.5	23.8	0.00e+00	0	42	0	1084227584	46	6607
2026-01-24 21:30:08.23	27.51	20.71	-37.4	-38.3	24.0	0.00e+00	0	42	0	1087373312	46	6443
2026-01-24 21:30:09.24	27.25	20.71	-37.6	-38.5	23.8	0.00e+00	0	42	0	1090519040	46	6621
2026-01-24 21:30:10.25	26.99	20.71	-37.7	-38.7	23.7	0.00e+00	0	42	0	1093664768	46	6732
2026-01-24 21:30:11.26	26.74	20.71	-37.5	-38.5	23.8	0.00e+00	0	42	0	1096810496	48	5884
2026-01-24 21:30:12.27	26.48	20.70	-37.4	-38.3	23.9	0.00e+00	0	42	0	1099956224	48	5774
2026-01-24 21:30:13.28	26.22	20.70	-37.5	-38.4	23.9	0.00e+00	0	42	0	1103101952	48	5807
2026-01-24 21:30:14.29	25.97	20.69	-37.3	-38.2	24.1	0.00e+00	0	42	0	1106247680	48	5691
2026-01-24 21:30:15.30	25.71	20.69	-37.1	-38.1	24.1	0.00e+00	0	42	0	1109393408	48	5603
2026-01-24 21:30:16.31	25.45	20.68	-37.0	-37.9	24.3	0.00e+00	0	42	0	1112539136	48	5530
2026-01-24 21:30:17.32	25.20	20.68	-36.8	-37.7	24.3	0.00e+00	0	42	0	1115684864	48	5402
2026-01-24 21:30:18.33	24.94	20.67	-36.8	-37.8	24.3	0.00e+00	0	42	0	1118830592	48	5411
2026-01-24 21:30:19.34	24.68	20.66	-36.9	-37.8	24.4	0.00e+00	0	42	0	1121976320	48	5417
2026-01-24 21:30:20.35	24.43	20.65	-36.9	-37.8	24.3	0.00e+00	0	42	0	1125122048	48	5414
2026-01-24 21:30:21.36	24.17	20.64	-36.9	-37.8	24.3	0.00e+00	0	42	0	1128267776	48	5445
2026-01-24 21:30:22.37	23.91	20.63	-36.9	-37.8	24.2	0.00e+00	0	42	0	1131413504	48	5426
2026-01-24 21:30:23.38	23.66	20.62	-37.0	-37.9	24.2	0.00e+00	0	42	0	1134559232	48	5481
2026-01-24 21:30:24.39	23.40	20.61	-36.9	-37.8	24.3	0.00e+00	0	42	0	1137704960	48	5456
2026-01-24 21:30:25.40	23.15	20.60	-37.1	-38.0	24.2	0.00e+00	0	42	0	1140850688	48	5552
2026-01-24 21:30:26.41	22.89	20.59	-37.0	-37.9	24.2	0.00e+00	0	42	0	1143996416	48	5515
2026-01-24 21:30:27.42	22.64	20.57	-37.1	-38.0	24.1	0.00e+00	0	42	0	1147142144	48	5542
2026-01-24 21:30:28.43	22.38	20.56	-37.1	-38.0	23.9	0.00e+00	0	42	0	1150287872	48	5593
2026-01-24 21:30:29.44	22.13	20.55	-37.3	-38.2	24.0	0.00e+00	0	42	0	1153433600	48	5681
2026-01-24 21:30:30.45	21.87	20.53	-37.4	-38.3	23.8	0.00e+00	0	42	0	1156579328	48	5780
2026-01-24 21:30:31.46	21.62	20.52	-37.2	-38.1	24.1	0.00e+00	0	42	0	1159725056	48	5605
2026-01-24 21:30:32.47	21.37	20.50	-37.1	-38.0	24.1	0.00e+00	0	42	0	1162870784	48	5571
2026-01-24 21:30:33.48	21.11	20.49	-37.3	-38.2	24.1	0.00e+00	0	42	0	1166016512	48	5695
2026-01-24 21:30:34.49	20.86	20.47	-37.2	-38.1	24.0	0.00e+00	0	42	0	1169162240	48	5624
2026-01-24 21:30:35.50	20.61	20.45	-37.2	-38.1	24.1	0.00e+00	0	42	0	1172307968	48	5620
2026-01-24 21:30:36.51	20.35	20.43	-37.1	-38.0	24.2	0.00e+00	0	42	0	1175453696	48	5539
2026-01-24 21:30:37.52	20.10	20.42	-36.9	-37.8	24.3	0.00e+00	0	42	0	1178599424	48	5426
2026-01-24 21:30:38.53	19.85	20.40	-37.0	-37.9	24.1	0.00e+00	0	42	0	1181745152	48	5488
2026-01-24 21:30:39.54	19.60	20.38	-37.0	-37.9	24.2	0.00e+00	0	42	0	1184890880	48	5498
2026-01-24 21:30:40.55	19.35	20.36	-37.1	-38.1	24.1	0.00e+00	0	42	0	1188036608	48	5605
2026-01-24 21:30:41.56	19.10	20.34	-37.0	-37.9	24.2	0.00e+00	0	42	0	1191182336	48	5483
2026-01-24 21:30:42.57	18.84	20.31	-37.1	-38.0	24.1	0.00e+00	0	42	0	1194328064	48	5585
2026-01-24 21:30:43.58	18.59	20.29	-37.1	-38.0	24.0	0.00e+00	0	42	0	1197473792	48	5557
2026-01-24 21:30:44.59	18.34	20.27	-37.3	-38.3	23.8	0.00e+00	0	42	0	1200619520	48	5732
2026-01-24 21:30:45.60	18.09	20.25	-37.0	-38.0	24.0	0.00e+00	0	42	0	1203765248	48	5545
2026-01-24 21:30:46.61	17.85	20.22	-37.1	-38.0	23.9	0.00e+00	0	42	0	1206910976	48	5589
2026-01-24 21:30:47.62	17.60	20.20	-37.3	-38.2	23.8	0.00e+00	0	42	0	1210056704	48	5702
2026-01-24 21:30:48.63	17.35	20.17	-37.2	-38.1	24.0	0.00e+00	0	42	0	1213202432	48	5656
2026-01-24 21:30:49.64	17.10	20.15	-37.1	-38.1	24.1	0.00e+00	0	42	0	1216348160	48	5597
2026-01-24 21:30:50.65	16.85	20.12	-37.2	-38.1	24.1	0.00e+00	0	42	0	1219493888	48	5654
2026-01-24 21:30:51.66	16.61	20.10	-36.9	-37.8	24.3	0.00e+00	0	42	0	1222639616	48	5453
2026-01-24 21:30:52.67	16.36	20.07	-36.9	-37.8	24.3	0.00e+00	0	42	0	1225785344	48	5440
2026-01-24 21:30:53.68	16.11	20.04	-36.9	-37.8	24.3	0.00e+00	0	42	0	1228931072	48	5430
2026-01-24 21:30:54.69	15.87	20.01	-36.8	-37.7	24.3	0.00e+00	0	42	0	1233125376	48	5363
2026-01-24 21:30:55.70	15.62	19.99	-37.0	-38.0	24.2	0.00e+00	0	42	0	1235222528	48	5541
2026-01-24 21:30:56.71	15.38	19.96	-37.0	-37.9	24.3	0.00e+00	0	42	0	1238368256	48	5510
2026-01-24 21:30:57.72	15.13	19.93	-37.0	-37.9	24.2	0.00e+00	0	42	0	1241513984	48	5529
2026-01-24 21:30:58.73	14.89	19.90	-37.1	-38.0	24.2	0.00e+00	0	42	0	1244659712	48	5576
2026-01-24 21:30:59.74	14.64	19.87	-37.1	-38.1	24.1	0.00e+00	0	42	0	1248854016	48	5602
2026-01-24 21:31:00.75	14.40	19.84	-37.4	-38.3	24.0	0.00e+00	0	42	0	1251999744	48	5748
2026-01-24 21:31:01.76	14.16	19.80	-37.7	-38.6	23.7	0.00e+00	0	42	0	1255145472	48	5968
2026-01-24 21:31:02.77	13.92	19.77	-37.7	-38.7	23.6	0.00e+00	0	42	0	1257242624	48	6007
2026-01-24 21:31:03.78	13.68	19.74	-37.8	-38.8	23.6	0.00e+00	0	42	0	1260388352	48	6071
2026-01-24 21:31:04.78	13.44	19.71	-37.7	-38.6	23.8	0.00e+00	0	42	0	1264582656	48	5966
2026-01-24 21:31:05.79	13.20	19.67	-37.7	-38.6	23.7	0.00e+00	0	42	0	1267728384	48	5977
2026-01-24 21:31:06.80	12.96	19.64	-37.8	-38.7	23.6	0.00e+00	0	42	0	1270874112	48	6037
2026-01-24 21:31:07.81	12.72	19.61	-37.8	-38.7	23.6	0.00e+00	0	42	0	1274019840	48	6024
2026-01-24 21:31:08.82	12.48	19.57	-37.8	-38.8	23.7	0.00e+00	0	42	0	1277165568	48	6079
2026-01-24 21:31:09.83	12.24	19.54	-37.6	-38.5	23.8	0.00e+00	0	42	0	1280311296	48	5918
2026-01-24 21:31:10.84	12.00	19.50	-37.5	-38.4	23.9	0.00e+00	0	42	0	1283457024	48	5814
2026-01-24 21:31:11.85	11.77	19.46	-37.3	-38.2	24.1	0.00e+00	0	42	0	1286602752	48	5723
2026-01-24 21:31:12.86	11.53	19.43	-37.3	-38.2	24.0	0.00e+00	0	42	0	1289748480	48	5710
2026-01-24 21:31:13.87	11.29	19.39	-37.3	-38.2	24.0	0.00e+00	0	42	0	1292894208	48	5701
2026-01-24 21:31:14.88	11.06	19.35	-37.3	-38.2	24.0	0.00e+00	0	42	0	1296039936	48	5717
2026-01-24 21:31:15.89	10.82	19.31	-37.3	-38.2	24.0	0.00e+00	0	42	0	1299185664	48	5705
2026-01-24 21:31:16.90	10.59	19.28	-37.1	-38.0	24.2	0.00e+00	0	42	0	1302331392	48	5589
2026-01-24 21:31:17.91	10.36	19.24	-37.3	-38.2	24.0	0.00e+00	0	42	0	1305477120	48	5708
2026-01-24 21:31:18.92	10.12	19.20	-37.4	-38.3	23.9	0.00e+00	0	42	0	1308622848	48	5789
2026-01-24 21:31:19.93	9.89	19.16	-37.2	-38.1	24.2	0.00e+00	0	42	0	1311768576	48	5642
2026-01-24 21:31:20.94	9.66	19.12	-37.2	-38.1	24.0	0.00e+00	0	42	0	1314914304	48	5656
2026-01-24 21:31:21.95	9.43	19.08	-37.2	-38.1	24.1	0.00e+00	0	42	0	1318060032	48	5645
2026-01-24 21:31:22.96	9.20	19.04	-37.4	-38.3	23.9	0.00e+00	0	42	0	1321205760	48	5765
2026-01-24 21:31:23.97	8.97	18.99	-37.2	-38.1	24.1	0.00e+00	0	42	0	1324351488	48	5606
2026-01-24 21:31:24.98	8.74	18.95	-37.2	-38.1	24.0	0.00e+00	0	42	0	1327497216	48	5638
2026-01-24 21:31:25.99	8.51	18.91	-36.9	-37.8	24.2	0.00e+00	0	42	0	1330642944	48	5458
2026-01-24 21:31:27.00	8.28	18.87	-37.0	-37.9	24.1	0.00e+00	0	42	0	1333788672	48	5500
2026-01-24 21:31:28.01	8.05	18.82	-37.2	-38.1	23.9	0.00e+00	0	42	0	1336934400	48	5608
2026-01-24 21:31:29.02	7.83	18.78	-37.4	-38.3	23.7	0.00e+00	0	42	0	1340080128	48	5765
2026-01-24 21:31:30.03	7.60	18.74	-37.4	-38.3	23.8	0.00e+00	0	42	0	1343225856	48	5764
2026-01-24 21:31:31.04	7.38	18.69	-37.4	-38.4	23.8	0.00e+00	0	42	0	1346371584	48	5811
2026-01-24 21:31:32.05	7.15	18.65	-37.6	-38.5	23.7	0.00e+00	0	42	0	1349517312	48	5909
2026-01-24 21:31:33.06	6.93	18.60	-37.4	-38.4	23.8	0.00e+00	0	42	0	1352663040	48	5797
2026-01-24 21:31:34.07	6.70	18.56	-37.5	-38.5	23.7	0.00e+00	0	42	0	1355808768	48	5867
2026-01-24 21:31:35.08	6.48	18.51	-37.5	-38.5	23.8	0.00e+00	0	42	0	1358954496	48	5882
2026-01-24 21:31:36.10	6.26	18.46	-37.5	-38.4	23.8	0.00e+00	0	42	0	1362100224	48	5835
2026-01-24 21:31:37.10	6.04	18.42	-37.7	-38.6	23.7	0.00e+00	0	42	0	1365245952	48	5994
2026-01-24 21:31:38.11	5.82	18.37	-37.5	-38.4	23.8	0.00e+00	0	42	0	1368391680	48	5831
2026-01-24 21:31:39.12	5.60	18.32	-37.3	-38.2	23.9	0.00e+00	0	42	0	1371537408	48	5704
2026-01-24 21:31:40.13	5.38	18.28	-37.3	-38.3	23.9	0.00e+00	0	42	0	1374683136	48	5732
2026-01-24 21:31:41.14	5.16	18.23	-37.4	-38.3	23.9	0.00e+00	0	42	0	1377828864	48	5770
2026-01-24 21:31:42.15	4.94	18.18	-37.4	-38.4	23.8	0.00e+00	0	42	0	1380974592	48	5810
2026-01-24 21:31:43.16	4.73	18.13	-37.4	-38.4	23.8	0.00e+00	0	42	0	1384120320	48	5804
2026-01-24 21:31:44.17	4.51	18.08	-37.5	-38.4	23.8	0.00e+00	0	42	0	1387266048	48	5846
2026-01-24 21:31:45.18	4.29	18.03	-37.5	-38.4	23.6	0.00e+00	0	42	0	1390411776	48	5825
2026-01-24 21:31:46.19	4.08	17.98	-37.5	-38.4	23.7	0.00e+00	0	42	0	1393557504	48	5817
2026-01-24 21:31:47.20	3.86	17.93	-37.4	-38.3	23.8	0.00e+00	0	42	0	1396703232	48	5777
2026-01-24 21:31:48.21	3.65	17.88	-37.3	-38.2	24.0	0.00e+00	0	42	0	1399848960	48	5688
2026-01-24 21:31:49.22	3.44	17.83	-37.0	-37.9	24.2	0.00e+00	0	42	0	1402994688	48	5507
2026-01-24 21:31:50.23	3.23	17.78	-37.1	-38.0	24.1	0.00e+00	0	42	0	1406140416	48	5572
2026-01-24 21:31:51.24	3.01	17.73	-37.1	-38.0	24.2	0.00e+00	0	42	0	1409286144	48	5538
2026-01-24 21:31:52.25	2.80	17.68	-37.2	-38.1	24.1	0.00e+00	0	42	0	1412431872	48	5619
2026-01-24 21:31:53.26	2.59	17.63	-37.4	-38.3	23.9	0.00e+00	0	42	0	1415577600	48	5747
2026-01-24 21:31:54.27	2.39	17.58	-37.5	-38.4	23.8	0.00e+00	0	42	0	1418723328	48	5837
2026-01-24 21:31:55.28	2.18	17.52	-37.5	-38.4	23.9	0.00e+00	0	42	0	1421869056	48	5846
2026-01-24 21:31:56.29	1.97	17.47	-37.4	-38.3	23.8	0.00e+00	0	42	0	1425014784	48	5785
2026-01-24 21:31:57.30	1.76	17.42	-37.5	-38.4	23.8	0.00e+00	0	42	0	1428160512	48	5819
2026-01-24 21:31:58.31	1.56	17.37	-37.5	-38.5	23.8	0.00e+00	0	42	0	1431306240	48	5883
2026-01-24 21:31:59.32	1.35	17.31	-37.3	-38.2	24.0	0.00e+00	0	42	0	1434451968	48	5702
2026-01-24 21:32:00.33	1.15	17.26	-37.3	-38.2	23.9	0.00e+00	0	42	0	1437597696	48	5685
2026-01-24 21:32:01.34	0.94	17.20	-37.2	-38.1	23.9	0.00e+00	0	42	0	1440743424	48	5627
2026-01-24 21:32:02.35	0.74	17.15	-37.1	-38.0	23.9	0.00e+00	0	42	0	1443889152	48	5556
2026-01-24 21:32:03.36	0.54	17.10	-37.1	-38.1	23.9	0.00e+00	0	42	0	1447034880	48	5595
2026-01-24 21:32:04.36	0.34	17.04	-37.2	-38.1	23.9	0.00e+00	0	42	0	1450180608	48	5605
2026-01-24 21:32:05.37	0.14	16.99	-37.1	-38.1	23.9	0.00e+00	0	42	0	1453326336	48	5597
2026-01-24 21:32:06.38	359.93	16.93	-37.1	-38.0	24.0	0.00e+00	0	42	0	1456472064	48	5554
2026-01-24 21:32:07.39	359.74	16.88	-37.0	-37.9	24.2	0.00e+00	0	42	0	1459617792	48	5492
2026-01-24 21:32:08.40	359.54	16.82	-37.2	-38.1	24.0	0.00e+00	0	42	0	1462763520	48	5598
2026-01-24 21:32:09.41	359.34	16.77	-37.2	-38.1	24.0	0.00e+00	0	42	0	1465909248	48	5632
2026-01-24 21:32:10.42	359.14	16.71	-37.2	-38.2	24.0	0.00e+00	0	42	0	1469054976	48	5662
2026-01-24 21:32:11.43	358.94	16.65	-37.3	-38.3	23.9	0.00e+00	0	42	0	1472200704	48	5730
2026-01-24 21:32:12.44	358.75	16.60	-37.4	-38.3	23.9	0.00e+00	0	42	0	1475346432	48	5786
2026-01-24 21:32:13.45	358.55	16.54	-37.5	-38.4	23.8	0.00e+00	0	42	0	1478492160	48	5823
2026-01-24 21:32:14.46	358.36	16.48	-37.4	-38.4	23.8	0.00e+00	0	42	0	1481637888	48	5806
2026-01-24 21:32:15.47	358.17	16.43	-37.5	-38.4	23.7	0.00e+00	0	42	0	1484783616	48	5844
2026-01-24 21:32:16.48	357.97	16.37	-37.6	-38.5	23.5	0.00e+00	0	42	0	1487929344	48	5910
2026-01-24 21:32:17.49	357.78	16.31	-37.6	-38.5	23.5	0.00e+00	0	42	0	1491075072	48	5909
2026-01-24 21:32:18.50	357.59	16.25	-37.4	-38.4	23.6	0.00e+00	0	42	0	1494220800	48	5816
2026-01-24 21:32:19.51	357.40	16.20	-37.6	-38.5	23.6	0.00e+00	0	42	0	1497366528	48	5885
2026-01-24 21:32:20.52	357.21	16.14	-37.5	-38.4	23.7	0.00e+00	0	42	0	1500512256	48	5828
2026-01-24 21:32:21.53	357.02	16.08	-37.6	-38.5	23.6	0.00e+00	0	42	0	1503657984	48	5911
2026-01-24 21:32:22.54	356.83	16.02	-37.6	-38.5	23.6	0.00e+00	0	42	0	1506803712	48	5879
2026-01-24 21:32:23.55	356.64	15.96	-37.6	-38.5	23.6	0.00e+00	0	42	0	1509949440	48	5882
2026-01-24 21:32:24.55	356.46	15.90	-37.8	-38.7	23.5	0.00e+00	0	42	0	1513095168	48	6048
2026-01-24 21:32:25.56	356.27	15.85	-37.8	-38.8	23.5	0.00e+00	0	42	0	1516240896	48	6105
2026-01-24 21:32:26.58	356.08	15.79	-37.9	-38.9	23.3	0.00e+00	0	42	0	1519386624	48	6175
2026-01-24 21:32:27.58	355.90	15.73	-37.9	-38.9	23.4	0.00e+00	0	42	0	1522532352	48	6146
2026-01-24 21:32:28.59	355.72	15.67	-37.9	-38.9	23.4	0.00e+00	0	42	0	1525678080	48	6142
2026-01-24 21:32:29.60	355.54	15.61	-37.8	-38.7	23.5	0.00e+00	0	42	0	1528823808	48	6064
2026-01-24 21:32:30.61	355.35	15.55	-37.9	-38.9	23.4	0.00e+00	0	42	0	1531969536	48	6159
2026-01-24 21:32:31.62	355.17	15.49	-37.7	-38.7	23.5	0.00e+00	0	42	0	1535115264	48	6022
2026-01-24 21:32:32.63	354.99	15.43	-37.9	-38.9	23.4	0.00e+00	0	42	0	1538260992	48	6151
2026-01-24 21:32:33.64	354.81	15.37	-37.7	-38.6	23.6	0.00e+00	0	42	0	1541406720	48	5959
2026-01-24 21:32:34.65	354.63	15.31	-37.8	-38.7	23.5	0.00e+00	0	42	0	1544552448	48	6034
2026-01-24 21:32:35.66	354.45	15.25	-37.8	-38.7	23.5	0.00e+00	0	42	0	1547698176	48	6034
2026-01-24 21:32:36.67	354.27	15.19	-37.7	-38.7	23.5	0.00e+00	0	42	0	1550843904	48	6008
2026-01-24 21:32:37.68	354.10	15.13	-37.9	-38.9	23.4	0.00e+00	0	42	0	1553989632	48	6168
2026-01-24 21:32:38.68	353.92	15.07	-37.8	-38.7	23.4	0.00e+00	0	42	0	1557135360	48	6041
2026-01-24 21:32:39.70	353.74	15.01	-37.7	-38.7	23.4	0.00e+00	0	42	0	1560281088	48	6016
2026-01-24 21:32:40.70	353.57	14.95	-37.5	-38.5	23.6	0.00e+00	0	42	0	1563426816	48	5864
2026-01-24 21:32:41.71	353.40	14.88	-37.5	-38.4	23.6	0.00e+00	0	42	0	1566572544	48	5827
2026-01-24 21:32:42.72	353.22	14.82	-37.6	-38.5	23.6	0.00e+00	0	42	0	1569718272	48	5899
2026-01-24 21:32:43.73	353.05	14.76	-37.2	-38.2	23.8	0.00e+00	0	42	0	1572864000	48	5672
2026-01-24 21:32:44.74	352.88	14.70	-37.3	-38.3	23.8	0.00e+00	0	42	0	1576009728	48	5729
2026-01-24 21:32:45.75	352.71	14.64	-37.5	-38.5	23.7	0.00e+00	0	42	0	1579155456	48	5860
2026-01-24 21:32:46.76	352.54	14.58	-37.6	-38.5	23.7	0.00e+00	0	42	0	1582301184	48	5883
2026-01-24 21:32:47.77	352.37	14.52	-37.7	-38.6	23.6	0.00e+00	0	42	0	1585446912	48	5976
2026-01-24 21:32:48.78	352.20	14.45	-37.7	-38.6	23.6	0.00e+00	0	42	0	1588592640	48	5981
2026-01-24 21:32:49.78	352.03	14.39	-37.7	-38.6	23.6	0.00e+00	0	42	0	1592786944	48	5971
2026-01-24 21:32:50.79	351.86	14.33	-37.8	-38.7	23.5	0.00e+00	0	42	0	1595932672	48	6030
2026-01-24 21:32:51.80	351.69	14.27	-37.8	-38.8	23.5	0.00e+00	0	42	0	1598029824	48	6066
2026-01-24 21:32:52.82	351.53	14.20	-37.9	-38.9	23.4	0.00e+00	0	42	0	1601175552	48	6143
2026-01-24 21:32:53.82	351.36	14.14	-37.8	-38.8	23.5	0.00e+00	0	42	0	1604321280	48	6093
2026-01-24 21:32:54.83	351.20	14.08	-37.7	-38.6	23.5	0.00e+00	0	42	0	1608515584	48	5962
2026-01-24 21:32:55.84	351.03	14.02	-37.8	-38.7	23.5	0.00e+00	0	42	0	1611661312	48	6044
2026-01-24 21:32:56.85	350.87	13.96	-37.8	-38.7	23.6	0.00e+00	0	42	0	1614807040	48	6034
2026-01-24 21:32:57.86	350.71	13.89	-37.5	-38.4	23.7	0.00e+00	0	42	0	1617952768	48	5849
2026-01-24 21:32:58.87	350.54	13.83	-37.5	-38.4	23.7	0.00e+00	0	42	0	1620049920	48	5839
2026-01-24 21:32:59.88	350.38	13.77	-37.7	-38.6	23.5	0.00e+00	0	42	0	1623195648	48	5964
2026-01-24 21:33:00.89	350.22	13.70	-37.9	-38.8	23.4	0.00e+00	0	42	0	1627389952	48	6111
2026-01-24 21:33:01.90	350.06	13.64	-37.8	-38.7	23.5	0.00e+00	0	42	0	1630535680	48	6057
2026-01-24 21:33:02.90	349.90	13.58	-37.8	-38.7	23.4	0.00e+00	0	42	0	1633681408	48	6028
2026-01-24 21:33:03.91	349.74	13.52	-37.8	-38.8	23.5	0.00e+00	0	42	0	1636827136	48	6071
2026-01-24 21:33:04.92	349.59	13.45	-38.1	-39.0	23.2	0.00e+00	0	42	0	1639972864	48	6251
2026-01-24 21:33:05.93	349.43	13.39	-38.0	-38.9	23.3	0.00e+00	0	42	0	1643118592	48	6168
2026-01-24 21:33:06.94	349.27	13.33	-38.0	-39.0	23.3	0.00e+00	0	42	0	1646264320	48	6213
2026-01-24 21:33:07.95	349.12	13.26	-37.8	-38.8	23.5	0.00e+00	0	42	0	1649410048	48	6074
2026-01-24 21:33:08.96	348.96	13.20	-37.8	-38.7	23.4	0.00e+00	0	42	0	1652555776	48	6064
2026-01-24 21:33:09.97	348.81	13.14	-38.0	-38.9	23.3	0.00e+00	0	42	0	1655701504	48	6191
2026-01-24 21:33:10.98	348.65	13.07	-37.7	-38.7	23.4	0.00e+00	0	42	0	1658847232	48	6026
2026-01-24 21:33:11.99	348.50	13.01	-37.8	-38.8	23.3	0.00e+00	0	42	0	1661992960	48	6075
2026-01-24 21:33:13.00	348.35	12.95	-37.9	-38.9	23.2	0.00e+00	0	42	0	1665138688	48	6163
2026-01-24 21:33:14.01	348.19	12.88	-38.0	-38.9	23.1	0.00e+00	0	42	0	1668284416	48	6178
2026-01-24 21:33:15.02	348.04	12.82	-38.2	-39.1	23.0	0.00e+00	0	42	0	1671430144	48	6334
2026-01-24 21:33:16.02	347.89	12.76	-38.1	-39.1	23.0	0.00e+00	0	42	0	1674575872	48	6318
2026-01-24 21:33:17.04	347.74	12.69	-38.1	-39.0	23.1	0.00e+00	0	42	0	1677721600	48	6271
2026-01-24 21:33:18.04	347.59	12.63	-38.1	-39.1	23.0	0.00e+00	0	42	0	1680867328	48	6342
2026-01-24 21:33:19.05	347.45	12.57	-38.1	-39.1	23.0	0.00e+00	0	42	0	1684013056	48	6300
2026-01-24 21:33:20.06	347.30	12.50	-37.9	-38.9	23.2	0.00e+00	0	42	0	1687158784	48	6161
2026-01-24 21:33:21.07	347.15	12.44	-38.1	-39.1	23.1	0.00e+00	0	42	0	1690304512	48	6315
2026-01-24 21:33:22.08	347.00	12.38	-38.0	-39.0	23.2	0.00e+00	0	42	0	1693450240	48	6223
2026-01-24 21:33:23.09	346.86	12.31	-38.0	-39.0	23.1	0.00e+00	0	42	0	1696595968	48	6257
2026-01-24 21:33:24.10	346.71	12.25	-38.2	-39.2	22.9	0.00e+00	0	42	0	1699741696	48	6388
2026-01-24 21:33:25.11	346.57	12.18	-38.4	-39.4	22.8	0.00e+00	0	42	0	1702887424	48	6513
2026-01-24 21:33:26.12	346.42	12.12	-38.4	-39.4	22.7	0.00e+00	0	42	0	1706033152	48	6570
2026-01-24 21:33:27.13	346.28	12.06	-38.4	-39.4	22.7	0.00e+00	0	42	0	1709178880	48	6549
2026-01-24 21:33:28.14	346.14	11.99	-38.7	-39.7	22.4	0.00e+00	0	42	0	1712324608	48	6771
2026-01-24 21:33:29.15	345.99	11.93	-38.6	-39.6	22.5	0.00e+00	0	42	0	1715470336	50	5963
2026-01-24 21:33:30.16	345.85	11.87	-38.9	-39.9	22.3	0.00e+00	0	42	0	1718616064	50	6186
2026-01-24 21:33:31.17	345.71	11.80	-38.6	-39.7	22.5	0.00e+00	0	41	0	1721761792	50	6001
2026-01-24 21:33:32.18	345.57	11.74	-38.6	-39.7	22.6	0.00e+00	0	42	0	1724907520	50	6010
2026-01-24 21:33:33.19	345.43	11.67	-38.8	-39.8	22.4	0.00e+00	0	41	0	1728053248	50	6130
2026-01-24 21:33:34.20	345.29	11.61	-38.5	-39.5	22.6	0.00e+00	0	41	0	1731198976	50	5913
2026-01-24 21:33:35.20	345.16	11.55	-38.3	-39.3	22.8	0.00e+00	0	42	0	1734344704	50	5759
2026-01-24 21:33:36.21	345.02	11.48	-38.2	-39.2	22.9	0.00e+00	0	42	0	1737490432	50	5722
2026-01-24 21:33:37.22	344.88	11.42	-38.3	-39.3	22.9	0.00e+00	0	41	0	1740636160	50	5786
2026-01-24 21:33:38.23	344.74	11.36	-38.3	-39.3	22.9	0.00e+00	0	42	0	1743781888	50	5774
2026-01-24 21:33:39.24	344.61	11.29	-38.5	-39.5	22.8	0.00e+00	0	42	0	1746927616	50	5907
2026-01-24 21:33:40.25	344.47	11.23	-38.5	-39.5	22.8	0.00e+00	0	42	0	1750073344	50	5871
2026-01-24 21:33:41.26	344.34	11.16	-38.6	-39.6	22.7	0.00e+00	0	42	0	1753219072	50	5980
2026-01-24 21:33:42.27	344.20	11.10	-39.0	-40.1	22.5	0.00e+00	0	42	0	1756364800	50	6285
2026-01-24 21:33:43.28	344.07	11.04	-38.9	-40.0	22.5	0.00e+00	0	42	0	1759510528	50	6213
2026-01-24 21:33:44.29	343.94	10.97	-39.1	-40.2	22.2	0.00e+00	0	42	0	1762656256	50	6398
2026-01-24 21:33:45.30	343.80	10.91	-39.2	-40.3	22.3	0.00e+00	0	41	0	1765801984	50	6444
2026-01-24 21:33:46.31	343.67	10.85	-39.4	-40.5	22.1	0.00e+00	0	41	0	1768947712	50	6613
2026-01-24 21:33:47.32	343.54	10.78	-39.2	-40.2	22.2	0.00e+00	0	41	0	1772093440	50	6415
2026-01-24 21:33:48.33	343.41	10.72	-39.3	-40.4	21.9	0.00e+00	0	42	0	1775239168	50	6543
2026-01-24 21:33:49.34	343.28	10.65	-39.6	-40.7	21.8	0.00e+00	0	42	0	1778384896	50	6749
2026-01-24 21:33:50.35	343.15	10.59	-39.1	-40.1	22.2	0.00e+00	0	41	0	1781530624	50	6343
2026-01-24 21:33:51.36	343.02	10.53	-39.1	-40.2	22.2	0.00e+00	0	42	0	1784676352	50	6393
2026-01-24 21:33:52.37	342.89	10.46	-38.9	-40.0	22.3	0.00e+00	0	41	0	1787822080	50	6242
2026-01-24 21:33:53.38	342.76	10.40	-39.2	-40.3	22.1	0.00e+00	0	41	0	1790967808	50	6466
2026-01-24 21:33:54.39	342.64	10.34	-39.4	-40.5	22.0	0.00e+00	0	42	0	1794113536	50	6602
2026-01-24 21:33:55.40	342.51	10.27	-39.1	-40.1	22.2	0.00e+00	0	42	0	1797259264	50	6343
2026-01-24 21:33:56.41	342.38	10.21	-39.5	-40.6	21.7	0.00e+00	0	41	0	1800404992	50	6710
2026-01-24 21:33:57.42	342.26	10.15	-39.2	-40.2	22.2	0.00e+00	0	42	0	1803550720	50	6408
2026-01-24 21:33:58.43	342.13	10.08	-39.6	-40.7	21.7	0.00e+00	0	41	0	1806696448	50	6776
2026-01-24 21:33:59.44	342.01	10.02	-40.0	-41.1	21.7	0.00e+00	0	41	0	1809842176	52	6323
2026-01-24 21:34:00.45	341.89	9.96	-39.7	-40.8	21.6	0.00e+00	0	41	0	1812987904	52	6089
2026-01-24 21:34:01.46	341.76	9.89	-39.9	-41.0	21.5	0.00e+00	0	41	0	1816133632	52	6251
2026-01-24 21:34:02.47	341.64	9.83	-40.0	-41.1	21.4	0.00e+00	0	41	0	1819279360	52	6329
2026-01-24 21:34:03.48	341.52	9.77	-39.8	-40.9	21.4	0.00e+00	0	41	0	1822425088	52	6176
2026-01-24 21:34:04.49	341.40	9.70	-40.1	-41.2	21.2	0.00e+00	0	41	0	1825570816	52	6400
2026-01-24 21:34:05.49	341.28	9.64	-40.0	-41.2	21.4	0.00e+00	0	41	0	1828716544	52	6355
2026-01-24 21:34:06.50	341.15	9.58	-39.8	-40.9	21.5	0.00e+00	0	41	0	1831862272	52	6192
2026-01-24 21:34:07.51	341.03	9.51	-39.3	-40.4	21.9	0.00e+00	0	41	0	1835008000	52	5795
2026-01-24 21:34:08.52	340.92	9.45	-39.5	-40.7	21.6	0.00e+00	0	41	0	1838153728	52	6007
2026-01-24 21:34:09.53	340.80	9.39	-39.5	-40.6	21.7	0.00e+00	0	41	0	1841299456	52	5987
2026-01-24 21:34:10.54	340.68	9.32	-39.5	-40.6	21.7	0.00e+00	0	41	0	1844445184	52	5965
2026-01-24 21:34:11.55	340.56	9.26	-39.6	-40.8	21.7	0.00e+00	0	41	0	1847590912	52	6082
2026-01-24 21:34:12.56	340.44	9.20	-39.8	-40.9	21.6	0.00e+00	0	41	0	1850736640	52	6168
2026-01-24 21:34:13.58	340.32	9.13	-39.6	-40.7	21.6	0.00e+00	0	41	0	1853882368	52	6038
2026-01-24 21:34:14.58	340.21	9.07	-39.4	-40.4	22.0	0.00e+00	0	41	0	1857028096	52	5852
2026-01-24 21:34:15.59	340.09	9.01	-39.8	-40.9	21.6	0.00e+00	0	41	0	1860173824	52	6151
2026-01-24 21:34:16.60	339.98	8.95	-39.5	-40.6	22.0	0.00e+00	0	41	0	1863319552	52	5962
2026-01-24 21:34:17.61	339.86	8.88	-39.7	-40.8	21.7	0.00e+00	0	41	0	1866465280	52	6117
2026-01-24 21:34:18.62	339.75	8.82	-39.8	-40.9	21.5	0.00e+00	0	41	0	1869611008	52	6182
2026-01-24 21:34:19.63	339.63	8.76	-39.8	-40.9	21.5	0.00e+00	0	41	0	1872756736	52	6189
2026-01-24 21:34:20.64	339.52	8.70	-39.7	-40.8	21.6	0.00e+00	0	41	0	1875902464	52	6084
2026-01-24 21:34:21.65	339.41	8.63	-40.0	-41.1	21.2	0.00e+00	0	41	0	1879048192	52	6319
2026-01-24 21:34:22.66	339.30	8.57	-40.2	-41.3	21.2	0.00e+00	0	41	0	1882193920	52	6473
2026-01-24 21:34:23.67	339.18	8.51	-39.8	-40.9	21.5	0.00e+00	0	41	0	1885339648	52	6177
2026-01-24 21:34:24.68	339.07	8.45	-39.7	-40.8	21.6	0.00e+00	0	41	0	1888485376	52	6082
2026-01-24 21:34:25.69	338.96	8.38	-39.9	-41.0	21.4	0.00e+00	0	41	0	1891631104	52	6256
2026-01-24 21:34:26.70	338.85	8.32	-39.6	-40.6	21.6	0.00e+00	0	41	0	1894776832	52	5983
2026-01-24 21:34:27.71	338.74	8.26	-39.9	-41.0	21.3	0.00e+00	0	41	0	1897922560	52	6243
2026-01-24 21:34:28.71	338.63	8.20	-39.9	-41.0	21.3	0.00e+00	0	41	0	1901068288	52	6263
2026-01-24 21:34:29.72	338.52	8.13	-39.5	-40.6	21.8	0.00e+00	0	41	0	1904214016	52	5929
2026-01-24 21:34:30.73	338.42	8.07	-39.8	-40.9	21.4	0.00e+00	0	41	0	1907359744	52	6178
2026-01-24 21:34:31.74	338.31	8.01	-39.5	-40.5	21.7	0.00e+00	0	41	0	1910505472	52	5923
2026-01-24 21:34:32.75	338.20	7.95	-39.6	-40.7	21.7	0.00e+00	0	41	0	1913651200	52	6006
2026-01-24 21:34:33.76	338.09	7.89	-39.6	-40.6	21.6	0.00e+00	0	41	0	1916796928	52	5981
2026-01-24 21:34:34.77	337.99	7.82	-39.7	-40.8	21.6	0.00e+00	0	41	0	1919942656	52	6086
2026-01-24 21:34:35.78	337.88	7.76	-40.0	-41.1	21.2	0.00e+00	0	41	0	1923088384	52	6338
2026-01-24 21:34:36.78	337.78	7.70	-40.2	-41.3	21.0	0.00e+00	0	41	0	1926234112	52	6450
2026-01-24 21:34:37.79	337.67	7.64	-40.2	-41.4	20.9	0.00e+00	0	41	0	1929379840	52	6532
2026-01-24 21:34:38.80	337.57	7.58	-40.1	-41.2	21.1	0.00e+00	0	41	0	1932525568	52	6408
2026-01-24 21:34:39.82	337.46	7.52	-40.3	-41.4	20.8	0.00e+00	0	41	0	1935671296	52	6555
2026-01-24 21:34:40.83	337.36	7.45	-40.6	-41.8	20.5	0.00e+00	0	41	0	1938817024	52	6842
2026-01-24 21:34:41.84	337.25	7.39	-40.3	-41.5	20.7	0.00e+00	0	41	0	1941962752	52	6587
2026-01-24 21:34:42.84	337.15	7.33	-40.7	-41.9	20.2	0.00e+00	0	41	0	1945108480	52	6962
2026-01-24 21:34:43.85	337.05	7.27	-40.3	-41.4	20.5	0.00e+00	0	41	0	1948254208	54	5854
2026-01-24 21:34:44.86	336.95	7.21	-40.4	-41.6	20.5	0.00e+00	0	41	0	1951399936	54	5933
2026-01-24 21:34:45.87	336.84	7.15	-40.2	-41.4	20.6	0.00e+00	0	41	0	1954545664	54	5803
2026-01-24 21:34:46.88	336.74	7.09	-40.0	-41.1	20.9	0.00e+00	0	41	0	1957691392	54	5638
2026-01-24 21:34:47.89	336.64	7.03	-39.9	-41.0	21.0	0.00e+00	0	41	0	1960837120	54	5567
2026-01-24 21:34:48.90	336.54	6.96	-40.2	-41.4	20.6	0.00e+00	0	41	0	1963982848	54	5819
2026-01-24 21:34:49.91	336.44	6.90	-39.8	-40.9	21.0	0.00e+00	0	41	0	1967128576	54	5496
2026-01-24 21:34:50.92	336.34	6.84	-39.6	-40.7	21.3	0.00e+00	0	41	0	1970274304	52	6020
2026-01-24 21:34:51.93	336.24	6.78	-39.9	-41.0	20.9	0.00e+00	0	41	0	1973420032	52	6245
2026-01-24 21:34:52.94	336.15	6.72	-40.2	-41.3	20.8	0.00e+00	0	41	0	1977614336	52	6469
2026-01-24 21:34:53.95	336.05	6.66	-40.3	-41.4	20.7	0.00e+00	0	41	0	1980760064	52	6521
2026-01-24 21:34:54.96	335.95	6.60	-40.0	-41.1	20.9	0.00e+00	0	41	0	1982857216	52	6302
2026-01-24 21:34:55.97	335.85	6.54	-39.8	-40.9	21.1	0.00e+00	0	41	0	1986002944	52	6186
2026-01-24 21:34:56.98	335.76	6.48	-39.6	-40.7	21.3	0.00e+00	0	41	0	1989148672	52	6045
2026-01-24 21:34:57.99	335.66	6.42	-39.7	-40.8	21.0	0.00e+00	0	41	0	1993342976	52	6114
2026-01-24 21:34:59.00	335.56	6.36	-40.5	-41.6	20.3	0.00e+00	0	41	0	1996488704	52	6712
2026-01-24 21:35:00.01	335.47	6.30	-40.3	-41.5	20.3	0.00e+00	0	41	0	1999634432	52	6621
2026-01-24 21:35:00.99	335.37	6.24	-41.6	-42.9	19.1	0.00e+00	0	41	0	2002780160	54	6938
