passes_logs/2026/01/24/R4.6S_Anadyr/R4.6S_Anadyr__20260124_151607_SUOMI_NPP_rec.log

#Pass ID: 20260124_151607_SUOMI NPP
#Satellite: SUOMI NPP
#Configuration: NPP
#almurnet v.1.7.20251203
#Start time: 2026-01-24 15:16:09

#Version: 2.2.20231116
#Station: R4.6S_Anadyr
#Location: 177.4865 lon 64.73178 lat
#TLE: 1 37849U 11061A   26024.12615439  .00000221  00000+0  12601-3 0  9992
#TLE: 2 37849  98.7821 326.0966 0002215  48.1259 312.0106 14.19529288738009

#Time	Az	El	Level	Level2	SNR	BER	BlckErr	Temp	State	Recorded	gain1	gain2
2026-01-24 15:16:09.46	21.64	0.12	-51.8	-64.2	3.4	1.52e+00	0	39	0	0	60	57100
2026-01-24 15:16:10.46	21.63	0.18	-53.2	-68.5	3.6	1.51e+00	0	40	104	0	60	95792
2026-01-24 15:16:11.47	21.62	0.24	-53.6	-68.9	3.6	1.51e+00	0	40	104	0	60	100920
2026-01-24 15:16:12.48	21.61	0.30	-53.6	-68.8	3.6	1.51e+00	0	40	104	0	60	100101
2026-01-24 15:16:13.49	21.60	0.36	-53.2	-68.4	3.6	1.51e+00	0	40	104	0	60	95205
2026-01-24 15:16:14.50	21.59	0.42	-52.8	-67.9	3.6	1.51e+00	0	40	104	0	60	90067
2026-01-24 15:16:15.52	21.58	0.48	-52.1	-67.3	3.6	1.51e+00	0	40	104	0	60	83844
2026-01-24 15:16:16.53	21.57	0.54	-52.0	-67.3	3.6	1.51e+00	0	40	104	0	60	83883
2026-01-24 15:16:17.54	21.57	0.60	-52.0	-67.2	3.6	1.51e+00	0	40	104	0	60	82864
2026-01-24 15:16:18.54	21.56	0.66	-51.9	-67.2	3.6	1.51e+00	0	40	104	0	60	82539
2026-01-24 15:16:19.55	21.55	0.72	-51.8	-67.1	3.6	1.51e+00	0	40	104	0	60	81428
2026-01-24 15:16:20.57	21.54	0.79	-51.8	-67.0	3.6	1.51e+00	0	40	104	0	60	81134
2026-01-24 15:16:21.57	21.53	0.85	-51.7	-66.9	3.6	1.51e+00	0	40	104	0	60	80363
2026-01-24 15:16:22.58	21.52	0.91	-51.5	-66.8	3.6	1.51e+00	0	40	104	0	60	78853
2026-01-24 15:16:23.59	21.51	0.97	-51.5	-66.7	3.6	1.51e+00	0	40	104	0	60	78391
2026-01-24 15:16:24.61	21.50	1.03	-51.4	-66.7	3.6	1.51e+00	0	40	104	0	60	77952
2026-01-24 15:16:25.61	21.49	1.10	-51.4	-66.6	3.6	1.51e+00	0	40	104	0	60	77335
2026-01-24 15:16:26.63	21.48	1.16	-51.3	-66.4	3.6	1.51e+00	0	40	104	0	60	75841
2026-01-24 15:16:27.64	21.47	1.22	-51.2	-66.3	3.6	1.51e+00	0	40	104	0	60	74966
2026-01-24 15:16:28.65	21.46	1.28	-51.0	-66.2	3.6	1.51e+00	0	40	104	0	60	73885
2026-01-24 15:16:29.66	21.45	1.35	-50.9	-66.1	3.6	1.51e+00	0	40	104	0	60	72814
2026-01-24 15:16:30.66	21.44	1.41	-50.8	-66.0	3.6	1.51e+00	0	40	104	0	60	71916
2026-01-24 15:16:31.67	21.43	1.47	-50.7	-65.8	3.6	1.51e+00	0	40	104	0	60	70716
2026-01-24 15:16:32.68	21.42	1.54	-50.5	-65.7	3.6	1.51e+00	0	40	104	0	60	69374
2026-01-24 15:16:33.69	21.41	1.60	-50.3	-65.5	3.6	1.51e+00	0	40	104	0	60	67789
2026-01-24 15:16:34.70	21.40	1.66	-50.1	-65.2	3.6	1.51e+00	0	40	104	0	60	65700
2026-01-24 15:16:35.71	21.39	1.73	-50.1	-64.6	3.6	1.51e+00	0	40	104	0	60	61674
2026-01-24 15:16:36.72	21.38	1.79	-50.1	-64.7	3.6	1.51e+00	0	40	104	0	60	62178
2026-01-24 15:16:37.74	21.37	1.85	-50.1	-65.0	3.6	1.51e+00	0	40	104	0	60	64459
2026-01-24 15:16:38.74	21.36	1.92	-50.1	-65.2	3.6	1.51e+00	0	41	104	0	60	65788
2026-01-24 15:16:39.75	21.35	1.98	-50.1	-65.1	3.6	1.51e+00	0	40	104	0	60	64745
2026-01-24 15:16:40.77	21.34	2.05	-50.1	-65.3	3.6	1.51e+00	0	41	104	0	60	66693
2026-01-24 15:16:41.78	21.33	2.11	-50.1	-65.4	3.6	1.51e+00	0	41	104	0	60	66977
2026-01-24 15:16:42.79	21.32	2.18	-50.1	-65.3	3.5	1.51e+00	0	41	104	0	60	66508
2026-01-24 15:16:43.80	21.31	2.24	-50.0	-65.2	3.6	1.51e+00	0	40	104	0	60	65924
2026-01-24 15:16:44.81	21.30	2.30	-50.1	-65.2	3.6	1.51e+00	0	41	104	0	60	66152
2026-01-24 15:16:45.82	21.29	2.37	-50.1	-65.0	3.6	1.51e+00	0	41	104	0	60	64324
2026-01-24 15:16:46.83	21.28	2.44	-50.1	-65.1	3.6	1.51e+00	0	41	104	0	60	64994
2026-01-24 15:16:47.84	21.27	2.50	-50.2	-64.8	3.6	1.51e+00	0	41	104	0	60	63119
2026-01-24 15:16:48.85	21.26	2.57	-50.0	-64.0	3.6	1.51e+00	0	41	104	0	60	57556
2026-01-24 15:16:49.86	21.25	2.63	-50.0	-64.0	3.6	1.51e+00	0	41	104	0	60	57452
2026-01-24 15:16:50.87	21.24	2.70	-50.0	-64.3	3.6	1.51e+00	0	41	104	0	60	59398
2026-01-24 15:16:51.88	21.23	2.76	-50.0	-63.1	3.6	1.51e+00	0	41	104	0	60	51939
2026-01-24 15:16:52.89	21.21	2.83	-50.0	-63.5	3.6	1.51e+00	0	41	104	0	60	53812
2026-01-24 15:16:53.90	21.20	2.90	-50.1	-65.0	3.5	1.51e+00	0	41	104	0	60	63971
2026-01-24 15:16:54.91	21.19	2.96	-50.1	-64.6	3.6	1.51e+00	0	41	104	0	60	61274
2026-01-24 15:16:55.92	21.18	3.03	-50.0	-63.4	3.6	1.51e+00	0	41	104	0	60	53566
2026-01-24 15:16:56.93	21.17	3.10	-49.8	-60.6	4.5	1.47e+00	38	41	104	0	60	38697
2026-01-24 15:16:57.94	21.16	3.16	-49.6	-57.7	5.8	6.92e-01	0	41	0	1048576	60	27730
2026-01-24 15:16:58.95	21.15	3.23	-49.5	-56.5	6.1	2.12e-01	0	41	0	2097152	60	24140
2026-01-24 15:16:59.96	21.14	3.30	-49.2	-55.7	7.7	4.44e-02	0	41	0	4194304	60	22049
2026-01-24 15:17:00.97	21.12	3.36	-48.6	-53.6	10.3	1.11e-02	0	41	0	6291456	60	17326
2026-01-24 15:17:01.98	21.11	3.43	-45.9	-48.3	15.9	8.11e-04	37	41	0	8388608	60	9371
2026-01-24 15:17:02.99	21.10	3.50	-47.9	-52.0	12.0	1.03e-03	0	41	0	10485760	60	14436
2026-01-24 15:17:04.00	21.09	3.57	-48.0	-52.1	11.9	2.66e-03	63	41	0	11534336	60	14573
2026-01-24 15:17:05.02	21.08	3.64	-47.9	-52.0	12.1	7.01e-05	0	41	0	13631488	60	14334
2026-01-24 15:17:06.03	21.06	3.70	-47.7	-51.6	13.0	1.68e-04	0	41	0	15728640	60	13771
2026-01-24 15:17:07.04	21.05	3.77	-46.9	-50.1	13.9	0.00e+00	0	41	0	17825792	60	11540
2026-01-24 15:17:08.05	21.04	3.84	-49.6	-57.8	5.2	1.91e-04	0	41	0	19922944	60	27983
2026-01-24 15:17:09.06	21.03	3.91	-49.7	-57.6	5.6	6.92e-01	30	41	0	20971520	60	27419
2026-01-24 15:17:10.06	21.02	3.98	-49.9	-61.7	3.5	3.97e-03	0	41	0	23068672	60	43818
2026-01-24 15:17:11.07	21.00	4.05	-45.6	-47.9	6.0	1.50e+00	0	41	104	23068672	60	8991
2026-01-24 15:17:12.08	20.99	4.12	-50.0	-63.8	3.6	2.86e-01	0	41	104	23068672	60	56011
2026-01-24 15:17:13.09	20.98	4.18	-46.0	-48.6	6.0	1.50e+00	0	41	104	23068672	60	9748
2026-01-24 15:17:14.10	20.96	4.25	-45.1	-47.1	17.2	0.00e+00	0	41	0	23068672	60	8171
2026-01-24 15:17:15.11	20.95	4.32	-44.7	-46.6	17.5	0.00e+00	0	41	0	25165824	60	7725
2026-01-24 15:17:16.12	20.94	4.39	-46.2	-48.8	15.7	0.00e+00	62	41	0	26214400	60	9934
2026-01-24 15:17:17.13	20.93	4.46	-45.7	-47.9	16.6	0.00e+00	0	41	0	28311552	60	9010
2026-01-24 15:17:18.14	20.91	4.53	-44.4	-46.1	18.1	0.00e+00	91	41	0	30408704	60	7333
2026-01-24 15:17:19.15	20.90	4.60	-45.7	-48.0	16.6	0.00e+00	0	41	0	32505856	60	9063
2026-01-24 15:17:20.16	20.89	4.68	-46.4	-49.1	15.9	0.00e+00	0	41	0	34603008	60	10269
2026-01-24 15:17:21.17	20.87	4.75	-44.7	-46.6	17.9	0.00e+00	0	41	0	36700160	60	7704
2026-01-24 15:17:22.18	20.86	4.82	-44.5	-46.3	18.2	0.00e+00	0	41	0	37748736	60	7428
2026-01-24 15:17:23.19	20.85	4.89	-44.7	-46.5	17.7	0.00e+00	32	41	0	39845888	60	7671
2026-01-24 15:17:24.20	20.83	4.96	-44.4	-46.2	18.2	0.00e+00	0	41	0	41943040	60	7405
2026-01-24 15:17:25.20	20.82	5.03	-44.2	-45.9	18.5	0.00e+00	64	41	0	44040192	60	7163
2026-01-24 15:17:26.21	20.81	5.10	-44.0	-45.6	18.8	0.00e+00	0	41	0	45088768	60	6884
2026-01-24 15:17:27.22	20.79	5.17	-43.8	-45.4	19.2	0.00e+00	0	41	0	47185920	60	6742
2026-01-24 15:17:28.23	20.78	5.25	-44.1	-45.7	18.6	0.00e+00	0	41	0	49283072	60	6984
2026-01-24 15:17:29.24	20.76	5.32	-44.5	-46.3	18.1	0.00e+00	0	41	0	51380224	60	7498
2026-01-24 15:17:30.25	20.75	5.39	-42.7	-44.1	20.1	0.00e+00	35	41	0	53477376	60	5794
2026-01-24 15:17:31.26	20.74	5.46	-43.7	-45.2	19.1	0.00e+00	0	41	0	54525952	60	6575
2026-01-24 15:17:32.27	20.72	5.54	-43.6	-45.1	19.3	0.00e+00	44	41	0	56623104	60	6537
2026-01-24 15:17:33.28	20.71	5.61	-43.3	-44.8	19.7	0.00e+00	0	41	0	58720256	60	6249
2026-01-24 15:17:34.29	20.69	5.68	-43.6	-45.2	19.2	0.00e+00	0	41	0	60817408	60	6563
2026-01-24 15:17:35.30	20.68	5.76	-43.1	-44.4	20.1	0.00e+00	0	41	0	62914560	60	6029
2026-01-24 15:17:36.31	20.66	5.83	-44.4	-46.1	18.6	0.00e+00	0	41	0	65011712	60	7330
2026-01-24 15:17:37.32	20.65	5.90	-43.1	-44.4	19.8	0.00e+00	0	41	0	66060288	60	6031
2026-01-24 15:17:38.33	20.63	5.98	-44.6	-46.4	18.2	0.00e+00	0	41	0	68157440	60	7566
2026-01-24 15:17:39.34	20.62	6.05	-43.1	-44.4	20.1	0.00e+00	0	41	0	70254592	60	6008
2026-01-24 15:17:40.34	20.60	6.13	-44.8	-46.7	18.0	0.00e+00	0	41	0	72351744	60	7779
2026-01-24 15:17:41.36	20.59	6.20	-43.2	-44.7	19.9	0.00e+00	90	41	0	74448896	60	6179
2026-01-24 15:17:42.37	20.57	6.28	-43.3	-44.8	19.5	0.00e+00	0	41	0	75497472	56	7908
2026-01-24 15:17:43.38	20.56	6.35	-44.4	-46.1	18.2	0.00e+00	0	41	0	77594624	60	7281
2026-01-24 15:17:44.39	20.54	6.43	-43.8	-45.3	19.1	0.00e+00	0	41	0	79691776	60	6688
2026-01-24 15:17:45.40	20.53	6.50	-43.0	-44.4	20.3	0.00e+00	31	41	0	81788928	58	6707
2026-01-24 15:17:46.40	20.51	6.58	-43.1	-44.4	20.4	0.00e+00	57	41	0	83886080	58	6764
2026-01-24 15:17:47.41	20.50	6.65	-43.0	-44.4	20.0	0.00e+00	0	41	0	84934656	58	6734
2026-01-24 15:17:48.42	20.48	6.73	-43.4	-44.8	19.5	0.00e+00	92	41	0	87031808	58	7044
2026-01-24 15:17:49.43	20.47	6.81	-43.3	-44.7	19.8	0.00e+00	0	41	0	89128960	58	6987
2026-01-24 15:17:50.44	20.45	6.88	-43.1	-44.5	20.4	0.00e+00	0	41	0	91226112	58	6788
2026-01-24 15:17:51.45	20.43	6.96	-43.1	-44.4	20.1	0.00e+00	33	41	0	93323264	58	6714
2026-01-24 15:17:52.46	20.42	7.04	-42.5	-43.8	20.8	0.00e+00	0	41	0	94371840	58	6253
2026-01-24 15:17:53.47	20.40	7.12	-43.1	-44.5	20.1	0.00e+00	36	41	0	96468992	58	6776
2026-01-24 15:17:54.48	20.38	7.19	-42.4	-43.6	20.7	0.00e+00	0	41	0	98566144	58	6170
2026-01-24 15:17:55.49	20.37	7.27	-42.3	-43.5	20.9	0.00e+00	92	41	0	100663296	58	6044
2026-01-24 15:17:56.50	20.35	7.35	-42.6	-43.8	20.6	0.00e+00	0	41	0	102760448	58	6304
2026-01-24 15:17:57.51	20.33	7.43	-43.2	-44.6	20.0	0.00e+00	0	41	0	103809024	58	6897
2026-01-24 15:17:58.52	20.32	7.51	-42.9	-44.2	20.2	0.00e+00	0	41	0	105906176	58	6598
2026-01-24 15:17:59.53	20.30	7.59	-42.9	-44.2	20.2	0.00e+00	0	41	0	108003328	58	6580
2026-01-24 15:18:00.54	20.28	7.66	-42.8	-44.1	20.4	0.00e+00	36	41	0	110100480	58	6538
2026-01-24 15:18:01.55	20.27	7.74	-42.8	-44.1	20.4	0.00e+00	0	41	0	112197632	58	6482
2026-01-24 15:18:02.56	20.25	7.82	-43.1	-44.5	19.9	0.00e+00	39	41	0	113246208	58	6818
2026-01-24 15:18:03.57	20.23	7.90	-42.5	-43.7	20.7	0.00e+00	0	41	0	115343360	58	6241
2026-01-24 15:18:04.58	20.21	7.98	-42.0	-43.1	21.6	0.00e+00	5	41	0	117440512	58	5798
2026-01-24 15:18:05.59	20.19	8.06	-43.1	-44.4	20.2	0.00e+00	0	41	0	119537664	58	6768
2026-01-24 15:18:06.59	20.18	8.14	-42.3	-43.6	20.9	0.00e+00	0	41	0	121634816	58	6111
2026-01-24 15:18:07.61	20.16	8.23	-42.7	-43.9	20.8	0.00e+00	35	41	0	122683392	58	6374
2026-01-24 15:18:08.61	20.14	8.31	-42.0	-43.2	21.3	0.00e+00	0	41	0	124780544	58	5829
2026-01-24 15:18:09.62	20.12	8.39	-42.4	-43.6	20.9	0.00e+00	92	41	0	126877696	58	6141
2026-01-24 15:18:10.63	20.10	8.47	-41.7	-42.8	21.6	0.00e+00	0	41	0	128974848	58	5629
2026-01-24 15:18:11.65	20.09	8.55	-42.0	-43.2	21.3	0.00e+00	29	41	0	131072000	56	6570
2026-01-24 15:18:12.65	20.07	8.63	-43.1	-44.5	20.1	0.00e+00	0	41	0	133169152	58	6770
2026-01-24 15:18:13.66	20.05	8.71	-44.1	-45.6	19.1	0.00e+00	0	41	0	134217728	60	6907
2026-01-24 15:18:14.67	20.03	8.80	-41.4	-42.5	21.6	0.00e+00	29	41	0	136314880	56	6049
2026-01-24 15:18:15.68	20.01	8.88	-42.1	-43.3	21.3	0.00e+00	0	41	0	138412032	56	6623
2026-01-24 15:18:16.69	19.99	8.96	-43.1	-44.4	20.0	0.00e+00	77	41	0	140509184	58	6736
2026-01-24 15:18:17.71	19.97	9.05	-42.7	-44.0	20.6	0.00e+00	0	41	0	142606336	58	6447
2026-01-24 15:18:18.71	19.95	9.13	-43.1	-44.4	20.2	0.00e+00	72	41	0	143654912	58	6720
2026-01-24 15:18:19.72	19.93	9.21	-42.2	-43.4	20.9	0.00e+00	0	41	0	145752064	58	6021
2026-01-24 15:18:20.73	19.91	9.30	-43.0	-44.3	20.3	0.00e+00	0	41	0	147849216	58	6673
2026-01-24 15:18:21.74	19.89	9.38	-43.2	-44.5	20.4	0.00e+00	0	41	0	149946368	60	6098
2026-01-24 15:18:22.75	19.87	9.47	-42.4	-43.6	21.0	0.00e+00	0	41	0	152043520	58	6126
2026-01-24 15:18:23.76	19.85	9.55	-42.8	-44.1	20.6	0.00e+00	69	41	0	153092096	58	6499
2026-01-24 15:18:24.77	19.83	9.64	-42.5	-43.7	21.0	0.00e+00	0	41	0	155189248	58	6195
2026-01-24 15:18:25.78	19.81	9.73	-41.6	-42.7	21.7	0.00e+00	92	41	0	157286400	56	6184
2026-01-24 15:18:26.79	19.79	9.81	-42.5	-43.7	20.8	0.00e+00	0	41	0	159383552	56	6953
2026-01-24 15:18:27.80	19.77	9.90	-41.4	-42.5	21.9	0.00e+00	0	41	0	161480704	56	6049
2026-01-24 15:18:28.81	19.75	9.98	-41.6	-42.6	21.8	0.00e+00	0	41	0	162529280	56	6168
2026-01-24 15:18:29.82	19.73	10.07	-42.0	-43.1	21.6	0.00e+00	0	41	0	164626432	56	6528
2026-01-24 15:18:30.82	19.71	10.16	-42.1	-43.3	21.4	0.00e+00	33	41	0	166723584	56	6629
2026-01-24 15:18:31.83	19.69	10.24	-41.6	-42.7	21.8	0.00e+00	0	41	0	168820736	56	6216
2026-01-24 15:18:32.84	19.67	10.33	-42.0	-43.1	21.5	0.00e+00	76	41	0	170917888	56	6477
2026-01-24 15:18:33.85	19.64	10.42	-42.3	-43.5	21.3	0.00e+00	0	41	0	171966464	56	6787
2026-01-24 15:18:34.86	19.62	10.51	-41.7	-42.8	21.9	0.00e+00	0	41	0	174063616	56	6271
2026-01-24 15:18:35.87	19.60	10.60	-42.1	-43.3	21.5	0.00e+00	0	41	0	176160768	56	6630
2026-01-24 15:18:36.88	19.58	10.69	-41.8	-43.0	21.6	0.00e+00	0	41	0	178257920	56	6402
2026-01-24 15:18:37.89	19.56	10.78	-42.4	-43.6	21.1	0.00e+00	33	41	0	180355072	56	6881
2026-01-24 15:18:38.90	19.53	10.87	-41.1	-42.1	22.3	0.00e+00	0	41	0	181403648	56	5774
2026-01-24 15:18:39.91	19.51	10.96	-41.3	-42.3	22.0	0.00e+00	75	41	0	183500800	56	5941
2026-01-24 15:18:40.92	19.49	11.05	-41.7	-42.8	21.8	0.00e+00	0	41	0	185597952	56	6250
2026-01-24 15:18:41.92	19.47	11.14	-41.6	-42.7	21.9	0.00e+00	0	41	0	187695104	56	6219
2026-01-24 15:18:42.93	19.44	11.23	-42.0	-43.2	21.4	0.00e+00	0	41	0	189792256	56	6564
2026-01-24 15:18:43.94	19.42	11.32	-41.9	-43.0	21.7	0.00e+00	0	41	0	190840832	56	6400
2026-01-24 15:18:44.95	19.40	11.41	-41.3	-42.3	22.1	0.00e+00	0	41	0	192937984	56	5957
2026-01-24 15:18:45.96	19.37	11.50	-41.3	-42.4	22.1	0.00e+00	0	41	0	195035136	56	5979
2026-01-24 15:18:46.97	19.35	11.60	-41.4	-42.5	22.1	0.00e+00	92	41	0	197132288	56	6035
2026-01-24 15:18:47.98	19.32	11.69	-41.4	-42.5	22.0	0.00e+00	0	41	0	199229440	56	6074
2026-01-24 15:18:48.99	19.30	11.78	-41.3	-42.4	22.2	0.00e+00	92	41	0	201326592	56	5998
2026-01-24 15:18:50.00	19.28	11.87	-41.5	-42.6	22.0	0.00e+00	0	41	0	202375168	56	6123
2026-01-24 15:18:51.01	19.25	11.97	-41.3	-42.3	22.2	0.00e+00	0	41	0	204472320	56	5951
2026-01-24 15:18:52.02	19.23	12.06	-41.5	-42.6	21.9	0.00e+00	0	41	0	206569472	56	6134
2026-01-24 15:18:53.03	19.20	12.16	-41.4	-42.5	22.0	0.00e+00	0	41	0	208666624	56	6050
2026-01-24 15:18:54.04	19.18	12.25	-41.8	-42.9	21.8	0.00e+00	90	41	0	210763776	56	6327
2026-01-24 15:18:55.05	19.15	12.35	-41.4	-42.5	22.2	0.00e+00	0	41	0	211812352	56	6034
2026-01-24 15:18:56.06	19.13	12.44	-41.0	-42.0	22.4	0.00e+00	92	41	0	213909504	56	5753
2026-01-24 15:18:57.07	19.10	12.54	-41.3	-42.3	22.1	0.00e+00	0	41	0	216006656	56	5942
2026-01-24 15:18:58.08	19.08	12.63	-41.3	-42.4	22.2	0.00e+00	0	41	0	218103808	56	5993
2026-01-24 15:18:59.09	19.05	12.73	-41.0	-42.1	22.3	0.00e+00	0	41	0	220200960	56	5767
2026-01-24 15:19:00.10	19.02	12.83	-41.3	-42.3	22.3	0.00e+00	0	41	0	221249536	56	5964
2026-01-24 15:19:01.11	19.00	12.93	-41.2	-42.3	22.2	0.00e+00	30	41	0	223346688	56	5897
2026-01-24 15:19:02.12	18.97	13.02	-41.4	-42.5	22.1	0.00e+00	0	41	0	225443840	56	6058
2026-01-24 15:19:03.12	18.94	13.12	-41.2	-42.2	22.3	0.00e+00	58	41	0	227540992	56	5873
2026-01-24 15:19:04.13	18.92	13.22	-41.4	-42.4	21.9	0.00e+00	0	41	0	229638144	56	6016
2026-01-24 15:19:05.14	18.89	13.32	-41.1	-42.2	22.1	0.00e+00	0	41	0	230686720	56	5835
2026-01-24 15:19:06.15	18.86	13.42	-40.8	-41.8	22.3	0.00e+00	0	41	0	232783872	56	5581
2026-01-24 15:19:07.16	18.83	13.52	-40.9	-41.9	22.2	0.00e+00	0	41	0	234881024	56	5664
2026-01-24 15:19:08.17	18.81	13.62	-41.3	-42.3	22.1	0.00e+00	25	41	0	236978176	56	5948
2026-01-24 15:19:09.18	18.78	13.72	-41.2	-42.2	22.2	0.00e+00	0	41	0	239075328	56	5843
2026-01-24 15:19:10.19	18.75	13.82	-40.9	-41.9	22.5	0.00e+00	55	41	0	240123904	56	5694
2026-01-24 15:19:11.20	18.72	13.92	-40.8	-41.8	22.6	0.00e+00	0	41	0	242221056	56	5603
2026-01-24 15:19:12.21	18.69	14.02	-40.9	-41.9	22.5	0.00e+00	0	41	0	244318208	54	6368
2026-01-24 15:19:13.22	18.66	14.13	-40.9	-41.9	22.5	0.00e+00	0	41	0	246415360	54	6376
2026-01-24 15:19:14.23	18.63	14.23	-41.0	-42.0	22.4	0.00e+00	0	41	0	248512512	54	6444
2026-01-24 15:19:15.24	18.61	14.33	-40.5	-41.5	22.8	0.00e+00	20	41	0	249561088	54	6063
2026-01-24 15:19:16.25	18.58	14.43	-40.7	-41.7	22.8	0.00e+00	0	41	0	251658240	54	6220
2026-01-24 15:19:17.27	18.55	14.54	-40.2	-41.1	23.1	0.00e+00	91	41	0	253755392	54	5816
2026-01-24 15:19:18.27	18.52	14.64	-40.2	-41.2	23.1	0.00e+00	0	41	0	255852544	54	5847
2026-01-24 15:19:19.28	18.49	14.75	-40.4	-41.3	23.1	0.00e+00	26	41	0	257949696	54	5926
2026-01-24 15:19:20.29	18.45	14.85	-40.1	-41.0	23.3	0.00e+00	0	41	0	258998272	54	5731
2026-01-24 15:19:21.30	18.42	14.96	-40.4	-41.4	23.1	0.00e+00	0	41	0	261095424	54	5973
2026-01-24 15:19:22.31	18.39	15.07	-40.1	-41.0	23.3	0.00e+00	11	41	0	263192576	54	5725
2026-01-24 15:19:23.32	18.36	15.17	-40.2	-41.1	23.3	0.00e+00	0	41	0	265289728	54	5783
2026-01-24 15:19:24.33	18.33	15.28	-39.8	-40.7	23.5	0.00e+00	6	41	0	267386880	52	6207
2026-01-24 15:19:25.34	18.30	15.39	-40.0	-40.9	23.4	0.00e+00	0	41	0	269484032	52	6360
2026-01-24 15:19:26.35	18.27	15.50	-40.1	-41.0	23.3	0.00e+00	78	41	0	270532608	52	6464
2026-01-24 15:19:27.36	18.23	15.60	-40.1	-41.0	23.4	0.00e+00	0	41	0	272629760	52	6412
2026-01-24 15:19:28.37	18.20	15.71	-39.8	-40.7	23.6	0.00e+00	0	41	0	274726912	52	6191
2026-01-24 15:19:29.38	18.17	15.82	-40.1	-41.0	23.4	0.00e+00	0	41	0	276824064	52	6459
2026-01-24 15:19:30.39	18.13	15.93	-39.9	-40.8	23.5	0.00e+00	0	41	0	278921216	52	6254
2026-01-24 15:19:31.40	18.10	16.04	-40.0	-41.0	23.4	0.00e+00	36	41	0	279969792	52	6397
2026-01-24 15:19:32.41	18.07	16.15	-39.4	-40.2	23.9	0.00e+00	0	41	0	282066944	52	5896
2026-01-24 15:19:33.42	18.03	16.27	-39.6	-40.5	23.8	0.00e+00	91	41	0	284164096	52	6062
2026-01-24 15:19:34.43	18.00	16.38	-39.8	-40.7	23.6	0.00e+00	0	41	0	286261248	52	6208
2026-01-24 15:19:35.44	17.96	16.49	-39.5	-40.4	23.9	0.00e+00	0	41	0	288358400	52	5971
2026-01-24 15:19:36.45	17.93	16.60	-39.4	-40.2	23.9	0.00e+00	0	41	0	289406976	52	5872
2026-01-24 15:19:37.46	17.89	16.72	-39.8	-40.7	23.6	0.00e+00	0	41	0	291504128	52	6234
2026-01-24 15:19:38.47	17.86	16.83	-39.7	-40.5	23.7	0.00e+00	36	41	0	293601280	52	6093
2026-01-24 15:19:39.48	17.82	16.94	-39.6	-40.5	23.8	0.00e+00	0	41	0	295698432	52	6058
2026-01-24 15:19:40.48	17.79	17.06	-40.0	-40.9	23.4	0.00e+00	92	41	0	297795584	52	6378
2026-01-24 15:19:41.49	17.75	17.17	-39.9	-40.8	23.4	0.00e+00	0	41	0	298844160	52	6312
2026-01-24 15:19:42.50	17.71	17.29	-39.5	-40.4	23.7	0.00e+00	0	41	0	300941312	52	6003
2026-01-24 15:19:43.51	17.68	17.41	-39.8	-40.7	23.6	0.00e+00	0	41	0	303038464	52	6182
2026-01-24 15:19:44.52	17.64	17.52	-39.8	-40.7	23.4	0.00e+00	0	41	0	305135616	52	6241
2026-01-24 15:19:45.53	17.60	17.64	-39.8	-40.7	23.5	0.00e+00	41	41	0	307232768	52	6212
2026-01-24 15:19:46.54	17.56	17.76	-39.7	-40.5	23.7	0.00e+00	0	41	0	308281344	52	6100
2026-01-24 15:19:47.55	17.53	17.88	-39.7	-40.6	23.7	0.00e+00	92	41	0	310378496	52	6153
2026-01-24 15:19:48.56	17.49	18.00	-39.9	-40.8	23.5	0.00e+00	0	41	0	312475648	52	6286
2026-01-24 15:19:49.57	17.45	18.12	-40.4	-41.3	23.1	0.00e+00	0	41	0	314572800	52	6663
2026-01-24 15:19:50.58	17.41	18.24	-40.0	-40.9	23.4	0.00e+00	0	41	0	316669952	52	6387
2026-01-24 15:19:51.59	17.37	18.36	-40.3	-41.3	23.2	0.00e+00	0	41	0	317718528	52	6647
2026-01-24 15:19:52.60	17.33	18.48	-40.3	-41.2	23.3	0.00e+00	41	41	0	319815680	52	6579
2026-01-24 15:19:53.61	17.29	18.60	-40.2	-41.1	23.5	0.00e+00	0	41	0	321912832	52	6496
2026-01-24 15:19:54.62	17.25	18.73	-40.2	-41.2	23.3	0.00e+00	91	41	0	324009984	52	6543
2026-01-24 15:19:55.63	17.21	18.85	-40.1	-41.0	23.4	0.00e+00	0	41	0	326107136	52	6436
2026-01-24 15:19:56.65	17.16	18.98	-40.1	-41.0	23.4	0.00e+00	10	41	0	327155712	52	6459
2026-01-24 15:19:57.66	17.12	19.10	-39.6	-40.5	23.7	0.00e+00	0	41	0	329252864	52	6089
2026-01-24 15:19:58.66	17.08	19.22	-39.6	-40.5	23.8	0.00e+00	0	41	0	331350016	52	6055
2026-01-24 15:19:59.67	17.04	19.35	-39.7	-40.6	23.7	0.00e+00	0	41	0	333447168	52	6138
2026-01-24 15:20:00.68	16.99	19.48	-39.8	-40.7	23.6	0.00e+00	0	41	0	335544320	52	6205
2026-01-24 15:20:01.69	16.95	19.60	-39.7	-40.6	23.7	0.00e+00	51	41	0	337641472	52	6143
2026-01-24 15:20:02.70	16.91	19.73	-39.7	-40.5	23.7	0.00e+00	0	41	0	338690048	52	6099
2026-01-24 15:20:03.71	16.86	19.86	-40.0	-40.9	23.6	0.00e+00	72	41	0	340787200	52	6326
2026-01-24 15:20:04.73	16.82	19.99	-39.8	-40.7	23.7	0.00e+00	0	41	0	342884352	52	6214
2026-01-24 15:20:05.74	16.77	20.12	-39.9	-40.8	23.6	0.00e+00	0	41	0	344981504	52	6250
2026-01-24 15:20:06.74	16.73	20.25	-40.2	-41.1	23.4	0.00e+00	0	41	0	347078656	52	6480
2026-01-24 15:20:07.75	16.68	20.38	-39.6	-40.5	23.9	0.00e+00	0	41	0	348127232	52	6070
2026-01-24 15:20:08.76	16.64	20.51	-39.8	-40.7	23.7	0.00e+00	92	41	0	350224384	52	6228
2026-01-24 15:20:09.77	16.59	20.65	-39.7	-40.5	23.8	0.00e+00	0	41	0	352321536	52	6086
2026-01-24 15:20:10.78	16.54	20.78	-39.5	-40.3	23.9	0.00e+00	92	41	0	354418688	52	5923
2026-01-24 15:20:11.79	16.49	20.91	-39.5	-40.3	23.9	0.00e+00	0	41	0	356515840	52	5949
2026-01-24 15:20:12.80	16.45	21.05	-39.4	-40.3	24.1	0.00e+00	0	41	0	357564416	52	5906
2026-01-24 15:20:13.81	16.40	21.18	-39.2	-40.1	24.1	0.00e+00	0	41	0	359661568	52	5763
2026-01-24 15:20:14.82	16.35	21.32	-39.2	-40.1	24.2	0.00e+00	0	41	0	361758720	52	5772
2026-01-24 15:20:15.83	16.30	21.45	-39.6	-40.5	24.0	0.00e+00	70	41	0	363855872	52	6046
2026-01-24 15:20:16.84	16.25	21.59	-39.4	-40.2	24.2	0.00e+00	0	41	0	365953024	52	5882
2026-01-24 15:20:17.85	16.20	21.73	-39.3	-40.1	24.0	0.00e+00	92	41	0	367001600	52	5800
2026-01-24 15:20:18.86	16.15	21.87	-39.2	-40.1	24.1	0.00e+00	0	41	0	369098752	52	5775
2026-01-24 15:20:19.86	16.10	22.01	-39.5	-40.3	24.0	0.00e+00	0	42	0	371195904	52	5964
2026-01-24 15:20:20.87	16.05	22.15	-39.5	-40.4	23.9	0.00e+00	0	41	0	373293056	52	5987
2026-01-24 15:20:21.88	15.99	22.29	-39.7	-40.6	23.7	0.00e+00	0	41	0	375390208	52	6130
2026-01-24 15:20:22.89	15.94	22.43	-39.7	-40.6	23.7	0.00e+00	28	41	0	376438784	52	6146
2026-01-24 15:20:23.90	15.89	22.57	-39.8	-40.7	23.6	0.00e+00	0	41	0	378535936	52	6208
2026-01-24 15:20:24.91	15.83	22.72	-39.9	-40.8	23.6	0.00e+00	92	41	0	380633088	52	6278
2026-01-24 15:20:25.92	15.78	22.86	-39.9	-40.8	23.7	0.00e+00	0	41	0	382730240	52	6260
2026-01-24 15:20:26.93	15.72	23.00	-39.8	-40.7	23.8	0.00e+00	0	41	0	384827392	52	6183
2026-01-24 15:20:27.94	15.67	23.15	-40.6	-41.5	23.1	0.00e+00	0	41	0	385875968	52	6817
2026-01-24 15:20:28.95	15.61	23.30	-40.5	-41.5	23.1	0.00e+00	0	41	0	387973120	54	6063
2026-01-24 15:20:29.96	15.55	23.44	-40.3	-41.3	23.3	0.00e+00	33	41	0	390070272	54	5899
2026-01-24 15:20:30.97	15.50	23.59	-40.4	-41.4	23.3	0.00e+00	0	41	0	392167424	54	5977
2026-01-24 15:20:31.97	15.44	23.74	-39.8	-40.6	23.9	0.00e+00	72	41	0	394264576	54	5492
2026-01-24 15:20:32.98	15.38	23.89	-39.9	-40.8	23.7	0.00e+00	0	41	0	395313152	52	6276
2026-01-24 15:20:33.99	15.32	24.04	-39.7	-40.6	23.9	0.00e+00	0	41	0	397410304	52	6125
2026-01-24 15:20:35.00	15.26	24.19	-39.2	-40.0	24.2	0.00e+00	0	41	0	399507456	52	5745
2026-01-24 15:20:36.01	15.20	24.34	-39.6	-40.4	23.9	0.00e+00	0	41	0	401604608	52	6010
2026-01-24 15:20:37.02	15.14	24.50	-39.6	-40.5	23.9	0.00e+00	9	41	0	403701760	52	6059
2026-01-24 15:20:38.03	15.08	24.65	-40.1	-41.0	23.5	0.00e+00	0	41	0	405798912	52	6447
2026-01-24 15:20:39.04	15.02	24.81	-40.4	-41.3	23.3	0.00e+00	36	41	0	406847488	52	6682
2026-01-24 15:20:40.05	14.95	24.96	-40.1	-41.0	23.5	0.00e+00	0	41	0	408944640	52	6457
2026-01-24 15:20:41.06	14.89	25.12	-40.5	-41.4	23.2	0.00e+00	69	41	0	411041792	52	6751
2026-01-24 15:20:42.07	14.83	25.27	-40.4	-41.3	23.3	0.00e+00	0	41	0	413138944	52	6632
2026-01-24 15:20:43.08	14.76	25.43	-40.3	-41.3	23.3	0.00e+00	0	42	0	415236096	52	6616
2026-01-24 15:20:44.09	14.70	25.59	-40.7	-41.6	23.1	0.00e+00	0	41	0	416284672	52	6900
2026-01-24 15:20:45.10	14.63	25.75	-40.6	-41.5	23.1	0.00e+00	0	41	0	418381824	52	6811
2026-01-24 15:20:46.11	14.56	25.91	-40.8	-41.8	22.9	0.00e+00	47	41	0	420478976	54	6247
2026-01-24 15:20:47.12	14.50	26.08	-40.9	-41.9	22.8	0.00e+00	0	41	0	422576128	54	6352
2026-01-24 15:20:48.13	14.43	26.24	-40.5	-41.4	23.2	0.00e+00	92	41	0	424673280	54	5987
2026-01-24 15:20:49.14	14.36	26.40	-40.7	-41.6	22.9	0.00e+00	0	41	0	425721856	54	6167
2026-01-24 15:20:50.15	14.29	26.57	-40.8	-41.8	22.8	0.00e+00	0	41	0	427819008	54	6291
2026-01-24 15:20:51.16	14.22	26.73	-41.0	-42.0	22.7	0.00e+00	0	41	0	429916160	54	6444
2026-01-24 15:20:52.17	14.15	26.90	-41.2	-42.2	22.6	0.00e+00	0	41	0	432013312	54	6592
2026-01-24 15:20:53.18	14.07	27.07	-41.2	-42.2	22.6	0.00e+00	56	41	0	434110464	54	6563
2026-01-24 15:20:54.19	14.00	27.24	-41.4	-42.5	22.2	0.00e+00	0	41	0	435159040	54	6792
2026-01-24 15:20:55.20	13.93	27.41	-42.4	-43.5	21.8	0.00e+00	43	41	0	437256192	56	6813
2026-01-24 15:20:56.21	13.85	27.58	-41.6	-42.6	22.2	0.00e+00	0	41	0	439353344	56	6168
2026-01-24 15:20:57.22	13.78	27.75	-42.6	-43.8	21.4	0.00e+00	0	41	0	441450496	56	7023
2026-01-24 15:20:58.22	13.70	27.92	-42.6	-43.8	21.3	0.00e+00	0	41	0	443547648	58	6271
2026-01-24 15:20:59.23	13.62	28.09	-42.1	-43.2	21.8	0.00e+00	0	41	0	444596224	56	6579
2026-01-24 15:21:00.24	13.55	28.27	-42.3	-43.5	21.6	0.00e+00	21	41	0	446693376	56	6778
2026-01-24 15:21:01.25	13.47	28.44	-42.2	-43.3	21.7	0.00e+00	0	41	0	448790528	56	6656
2026-01-24 15:21:02.26	13.39	28.62	-41.8	-42.9	22.1	0.00e+00	43	41	0	450887680	56	6349
2026-01-24 15:21:03.27	13.31	28.80	-41.9	-43.0	22.0	0.00e+00	0	41	0	452984832	56	6401
2026-01-24 15:21:04.28	13.22	28.98	-41.7	-42.8	22.1	0.00e+00	15	41	0	454033408	56	6252
2026-01-24 15:21:05.29	13.14	29.16	-42.0	-43.1	22.0	0.00e+00	0	41	0	456130560	56	6508
2026-01-24 15:21:06.30	13.06	29.34	-42.4	-43.6	21.7	0.00e+00	0	41	0	458227712	56	6863
2026-01-24 15:21:07.31	12.97	29.52	-43.1	-44.4	20.9	0.00e+00	0	41	0	460324864	58	6735
2026-01-24 15:21:08.32	12.89	29.71	-42.4	-43.6	21.4	0.00e+00	0	41	0	462422016	58	6137
2026-01-24 15:21:09.33	12.80	29.89	-42.7	-43.9	21.4	0.00e+00	92	41	0	463470592	58	6364
2026-01-24 15:21:10.34	12.71	30.08	-42.8	-44.0	21.0	0.00e+00	0	41	0	465567744	58	6442
2026-01-24 15:21:11.35	12.62	30.26	-42.8	-44.0	21.0	0.00e+00	65	41	0	467664896	58	6428
2026-01-24 15:21:12.36	12.53	30.45	-42.6	-43.7	21.3	0.00e+00	0	41	0	469762048	58	6236
2026-01-24 15:21:13.37	12.44	30.64	-42.5	-43.7	21.4	0.00e+00	0	41	0	471859200	58	6187
2026-01-24 15:21:14.38	12.35	30.83	-42.6	-43.7	21.2	0.00e+00	39	41	0	473956352	58	6231
2026-01-24 15:21:15.39	12.25	31.02	-42.7	-43.9	21.5	0.00e+00	0	41	0	475004928	58	6319
2026-01-24 15:21:16.39	12.16	31.21	-42.4	-43.5	21.6	0.00e+00	75	41	0	477102080	58	6073
2026-01-24 15:21:17.40	12.07	31.41	-42.6	-43.7	21.7	0.00e+00	0	42	0	479199232	58	6221
2026-01-24 15:21:18.41	11.97	31.60	-42.9	-44.1	21.3	0.00e+00	92	41	0	481296384	58	6521
2026-01-24 15:21:19.42	11.87	31.80	-42.8	-44.1	21.1	0.00e+00	0	41	0	483393536	58	6470
2026-01-24 15:21:20.43	11.77	32.00	-43.4	-44.7	20.6	0.00e+00	0	41	0	484442112	58	6984
2026-01-24 15:21:21.44	11.67	32.19	-43.3	-44.5	20.8	0.00e+00	0	41	0	486539264	58	6846
2026-01-24 15:21:22.45	11.57	32.39	-43.6	-44.8	20.2	0.00e+00	0	41	0	488636416	58	7082
2026-01-24 15:21:23.46	11.46	32.60	-43.4	-44.7	20.7	0.00e+00	49	41	0	490733568	60	6197
2026-01-24 15:21:24.46	11.36	32.80	-43.8	-45.1	20.4	0.00e+00	0	41	0	491782144	60	6484
2026-01-24 15:21:25.48	11.25	33.00	-43.3	-44.5	20.6	0.00e+00	92	41	0	493879296	60	6081
2026-01-24 15:21:26.49	11.15	33.21	-43.6	-44.9	20.5	0.00e+00	0	41	0	495976448	60	6373
2026-01-24 15:21:27.50	11.04	33.41	-43.6	-44.9	20.6	0.00e+00	0	41	0	498073600	60	6359
2026-01-24 15:21:28.51	10.93	33.62	-44.0	-45.4	20.2	0.00e+00	0	41	0	500170752	60	6727
2026-01-24 15:21:29.52	10.82	33.83	-44.0	-45.4	20.0	0.00e+00	0	41	0	502267904	60	6727
2026-01-24 15:21:30.53	10.70	34.04	-44.2	-45.6	19.5	0.00e+00	39	41	0	503316480	60	6917
2026-01-24 15:21:31.54	10.59	34.25	-44.3	-45.8	19.3	0.00e+00	0	41	0	505413632	60	7017
2026-01-24 15:21:32.54	10.47	34.46	-44.4	-45.9	19.5	0.00e+00	92	41	0	507510784	60	7104
2026-01-24 15:21:33.55	10.35	34.67	-43.9	-45.2	20.1	0.00e+00	0	41	0	509607936	60	6611
2026-01-24 15:21:34.56	10.24	34.89	-44.3	-45.8	19.7	0.00e+00	0	41	0	511705088	60	7057
2026-01-24 15:21:35.57	10.11	35.11	-43.8	-45.1	20.3	0.00e+00	0	41	0	512753664	60	6520
2026-01-24 15:21:36.58	9.99	35.32	-43.9	-45.2	20.3	0.00e+00	0	41	0	514850816	60	6593
2026-01-24 15:21:37.59	9.87	35.54	-43.4	-44.7	20.7	0.00e+00	0	41	0	516947968	60	6221
2026-01-24 15:21:38.60	9.74	35.76	-43.4	-44.6	20.6	0.00e+00	0	41	0	519045120	60	6172
2026-01-24 15:21:39.61	9.61	35.99	-44.0	-45.5	19.9	0.00e+00	66	41	0	521142272	60	6795
2026-01-24 15:21:40.62	9.48	36.21	-44.8	-46.4	19.1	0.00e+00	0	41	0	522190848	60	7560
2026-01-24 15:21:41.63	9.35	36.43	-44.2	-45.6	19.4	0.00e+00	0	41	0	524288000	60	6893
2026-01-24 15:21:42.64	9.22	36.66	-45.2	-46.9	18.4	0.00e+00	0	41	0	526385152	60	8042
2026-01-24 15:21:43.65	9.08	36.89	-46.0	-47.9	17.9	0.00e+00	0	41	0	528482304	60	8975
2026-01-24 15:21:44.66	8.94	37.12	-45.3	-47.1	18.4	0.00e+00	9	41	0	530579456	60	8172
2026-01-24 15:21:45.67	8.81	37.35	-45.1	-46.8	18.7	0.00e+00	0	41	0	531628032	60	7866
2026-01-24 15:21:46.68	8.66	37.58	-44.1	-45.5	19.9	0.00e+00	64	41	0	533725184	60	6819
2026-01-24 15:21:47.69	8.52	37.81	-44.0	-45.4	19.9	0.00e+00	0	42	0	535822336	60	6708
2026-01-24 15:21:48.70	8.37	38.05	-44.0	-45.4	20.1	0.00e+00	92	41	0	537919488	60	6741
2026-01-24 15:21:49.71	8.23	38.28	-43.5	-44.8	20.4	0.00e+00	0	41	0	540016640	60	6248
2026-01-24 15:21:50.72	8.08	38.52	-44.0	-45.3	20.2	0.00e+00	0	41	0	542113792	60	6684
2026-01-24 15:21:51.73	7.92	38.76	-43.9	-45.3	19.9	0.00e+00	0	41	0	543162368	60	6659
2026-01-24 15:21:52.74	7.77	39.00	-44.6	-46.1	19.4	0.00e+00	0	41	0	545259520	60	7319
2026-01-24 15:21:53.75	7.61	39.24	-45.1	-46.7	18.8	0.00e+00	92	41	0	547356672	60	7860
2026-01-24 15:21:54.75	7.45	39.48	-45.3	-47.2	18.3	0.00e+00	0	41	0	549453824	60	8254
2026-01-24 15:21:55.76	7.29	39.73	-45.0	-46.7	18.3	0.00e+00	90	41	0	550502400	60	7846
2026-01-24 15:21:56.77	7.13	39.97	-44.2	-45.8	19.8	0.00e+00	0	41	0	552599552	60	7030
2026-01-24 15:21:57.78	6.96	40.22	-44.3	-45.8	19.7	0.00e+00	0	41	0	554696704	60	7066
2026-01-24 15:21:58.79	6.79	40.47	-44.2	-45.8	19.8	0.00e+00	0	41	0	556793856	60	7031
2026-01-24 15:21:59.80	6.62	40.72	-44.0	-45.5	20.0	0.00e+00	0	41	0	558891008	60	6837
2026-01-24 15:22:00.81	6.44	40.97	-43.6	-45.0	20.5	0.00e+00	38	41	0	559939584	60	6431
2026-01-24 15:22:01.82	6.27	41.23	-43.2	-44.4	20.9	0.00e+00	0	41	0	562036736	60	6023
2026-01-24 15:22:02.83	6.09	41.48	-43.3	-44.6	20.7	0.00e+00	69	41	0	564133888	60	6131
2026-01-24 15:22:03.84	5.90	41.74	-43.0	-44.2	20.9	0.00e+00	0	41	0	566231040	60	5858
2026-01-24 15:22:04.85	5.72	42.00	-42.4	-43.5	21.5	0.00e+00	0	41	0	568328192	58	6044
2026-01-24 15:22:05.86	5.53	42.26	-42.2	-43.3	21.7	0.00e+00	0	41	0	570425344	58	5934
2026-01-24 15:22:06.87	5.33	42.52	-42.6	-43.7	21.5	0.00e+00	0	41	0	571473920	58	6200
2026-01-24 15:22:07.88	5.14	42.78	-42.6	-43.7	21.3	0.00e+00	40	41	0	573571072	58	6243
2026-01-24 15:22:08.89	4.94	43.04	-42.2	-43.4	21.7	0.00e+00	0	41	0	575668224	58	5965
2026-01-24 15:22:09.90	4.73	43.31	-42.0	-43.1	22.0	0.00e+00	79	41	0	577765376	58	5781
2026-01-24 15:22:10.90	4.53	43.57	-42.4	-43.5	21.0	0.00e+00	0	41	0	579862528	58	6101
2026-01-24 15:22:11.91	4.32	43.84	-42.3	-43.4	21.8	0.00e+00	0	41	0	580911104	58	5969
2026-01-24 15:22:12.92	4.11	44.11	-42.2	-43.3	21.9	0.00e+00	0	41	0	583008256	58	5918
2026-01-24 15:22:13.93	3.89	44.38	-41.7	-42.8	22.4	0.00e+00	0	41	0	585105408	58	5567
2026-01-24 15:22:14.94	3.67	44.65	-41.3	-42.3	22.6	0.00e+00	44	41	0	587202560	56	5934
2026-01-24 15:22:15.95	3.44	44.93	-41.7	-42.7	22.3	0.00e+00	0	41	0	589299712	56	6227
2026-01-24 15:22:16.96	3.21	45.20	-41.5	-42.5	22.5	0.00e+00	43	41	0	590348288	56	6068
2026-01-24 15:22:17.97	2.98	45.48	-42.0	-43.1	22.2	0.00e+00	0	41	0	592445440	56	6502
2026-01-24 15:22:18.98	2.74	45.76	-41.8	-42.9	22.1	0.00e+00	61	41	0	594542592	56	6342
2026-01-24 15:22:19.99	2.50	46.04	-42.4	-43.6	21.4	0.00e+00	0	41	0	596639744	56	6888
2026-01-24 15:22:21.00	2.26	46.32	-42.5	-43.6	21.7	0.00e+00	0	41	0	598736896	58	6147
2026-01-24 15:22:22.01	2.01	46.60	-42.2	-43.3	21.9	0.00e+00	41	41	0	599785472	56	6652
2026-01-24 15:22:23.02	1.75	46.88	-41.6	-42.6	22.5	0.00e+00	0	41	0	601882624	56	6159
2026-01-24 15:22:24.03	1.49	47.17	-41.0	-42.0	23.0	0.00e+00	35	41	0	603979776	56	5727
2026-01-24 15:22:25.04	1.23	47.45	-41.2	-42.3	22.5	0.00e+00	0	41	0	606076928	56	5919
2026-01-24 15:22:26.05	0.96	47.74	-41.4	-42.4	22.1	0.00e+00	84	41	0	608174080	56	6003
2026-01-24 15:22:27.06	0.68	48.03	-42.1	-43.3	21.9	0.00e+00	0	41	0	609222656	56	6663
2026-01-24 15:22:28.07	0.40	48.32	-41.8	-42.9	22.1	0.00e+00	0	41	0	611319808	56	6387
2026-01-24 15:22:29.08	0.12	48.61	-41.0	-42.0	22.8	0.00e+00	17	41	0	613416960	56	5742
2026-01-24 15:22:30.09	359.83	48.90	-40.5	-41.5	23.1	0.00e+00	0	41	0	615514112	54	6045
2026-01-24 15:22:31.10	359.53	49.19	-40.3	-41.2	23.4	0.00e+00	23	41	0	617611264	54	5873
2026-01-24 15:22:32.11	359.23	49.48	-40.1	-40.9	23.5	0.00e+00	0	41	0	618659840	54	5686
2026-01-24 15:22:33.11	358.93	49.78	-40.3	-41.1	23.5	0.00e+00	47	41	0	620756992	54	5827
2026-01-24 15:22:34.13	358.61	50.08	-40.0	-40.9	23.7	0.00e+00	0	41	0	622854144	54	5642
2026-01-24 15:22:35.14	358.29	50.37	-39.5	-40.3	24.2	0.00e+00	0	41	0	624951296	52	5935
2026-01-24 15:22:36.14	357.96	50.67	-39.3	-40.2	24.2	0.00e+00	0	41	0	627048448	52	5847
2026-01-24 15:22:37.15	357.63	50.97	-39.9	-40.7	23.9	0.00e+00	0	41	0	628097024	52	6243
2026-01-24 15:22:38.16	357.29	51.27	-39.9	-40.8	23.2	0.00e+00	45	41	0	630194176	52	6276
2026-01-24 15:22:39.17	356.94	51.57	-40.7	-41.7	23.1	0.00e+00	0	41	0	632291328	52	6996
2026-01-24 15:22:40.18	356.59	51.87	-40.9	-42.0	22.9	0.00e+00	45	41	0	634388480	54	6392
2026-01-24 15:22:41.19	356.23	52.17	-40.4	-41.3	23.4	0.00e+00	0	41	0	636485632	54	5932
2026-01-24 15:22:42.20	355.86	52.47	-40.2	-41.1	23.6	0.00e+00	0	41	0	638582784	54	5812
2026-01-24 15:22:43.21	355.48	52.78	-40.1	-41.0	23.7	0.00e+00	0	41	0	639631360	52	6436
2026-01-24 15:22:44.22	355.10	53.08	-40.2	-41.1	23.4	0.00e+00	0	41	0	641728512	52	6472
2026-01-24 15:22:45.23	354.70	53.38	-40.5	-41.4	23.3	0.00e+00	44	41	0	643825664	54	6008
2026-01-24 15:22:46.24	354.30	53.69	-41.4	-42.4	22.5	0.00e+00	0	41	0	645922816	54	6724
2026-01-24 15:22:47.25	353.89	53.99	-41.0	-42.0	22.8	0.00e+00	78	41	0	648019968	54	6444
2026-01-24 15:22:48.26	353.47	54.30	-40.5	-41.4	23.4	0.00e+00	0	41	0	649068544	54	5981
2026-01-24 15:22:49.27	353.05	54.60	-40.4	-41.3	23.3	0.00e+00	0	41	0	651165696	54	5956
2026-01-24 15:22:50.28	352.61	54.91	-40.9	-41.8	22.8	0.00e+00	0	41	0	653262848	54	6297
2026-01-24 15:22:51.29	352.16	55.22	-41.5	-42.5	22.4	0.00e+00	0	41	0	655360000	54	6839
2026-01-24 15:22:52.30	351.71	55.52	-42.3	-43.5	21.7	0.00e+00	0	41	0	657457152	56	6814
2026-01-24 15:22:53.31	351.24	55.83	-42.3	-43.4	21.7	0.00e+00	0	41	0	658505728	56	6766
2026-01-24 15:22:54.32	350.76	56.13	-41.8	-42.9	22.3	0.00e+00	92	41	0	660602880	56	6379
2026-01-24 15:22:55.32	350.28	56.44	-42.3	-43.5	21.9	0.00e+00	0	41	0	662700032	56	6810
2026-01-24 15:22:56.33	349.78	56.74	-42.9	-44.3	20.9	0.00e+00	87	41	0	664797184	58	6620
2026-01-24 15:22:57.34	349.27	57.04	-43.4	-44.8	20.4	0.00e+00	0	41	0	666894336	58	7047
2026-01-24 15:22:58.35	348.75	57.35	-43.3	-44.7	20.8	0.00e+00	0	41	0	667942912	58	6936
2026-01-24 15:22:59.36	348.21	57.65	-42.9	-44.2	20.6	0.00e+00	0	41	0	670040064	58	6570
2026-01-24 15:23:00.37	347.67	57.95	-42.1	-43.2	21.7	0.00e+00	0	41	0	672137216	58	5864
2026-01-24 15:23:01.38	347.11	58.25	-41.5	-42.6	22.4	0.00e+00	75	41	0	674234368	56	6128
2026-01-24 15:23:02.39	346.54	58.55	-41.3	-42.3	22.6	0.00e+00	0	41	0	676331520	56	5926
2026-01-24 15:23:03.40	345.96	58.85	-40.7	-41.6	23.0	0.00e+00	91	41	0	677380096	56	5494
2026-01-24 15:23:04.41	345.36	59.15	-41.1	-42.1	22.6	0.00e+00	0	41	0	679477248	54	6521
2026-01-24 15:23:05.42	344.75	59.45	-41.8	-42.9	21.8	0.00e+00	0	41	0	681574400	56	6356
2026-01-24 15:23:06.43	344.12	59.74	-42.3	-43.5	21.4	0.00e+00	33	41	0	683671552	56	6843
2026-01-24 15:23:07.43	343.49	60.03	-41.8	-42.9	22.0	0.00e+00	0	41	0	685768704	56	6371
2026-01-24 15:23:08.44	342.83	60.32	-42.1	-43.2	21.7	0.00e+00	76	41	0	686817280	56	6586
2026-01-24 15:23:09.45	342.17	60.61	-41.6	-42.7	22.3	0.00e+00	33	41	0	688914432	56	6208
2026-01-24 15:23:10.46	341.48	60.90	-41.2	-42.1	22.7	0.00e+00	92	41	0	691011584	56	5826
2026-01-24 15:23:11.47	340.78	61.18	-40.0	-40.9	23.3	0.00e+00	0	41	0	693108736	54	5671
2026-01-24 15:23:12.48	340.06	61.46	-39.9	-40.7	23.8	0.00e+00	0	41	0	695205888	52	6239
2026-01-24 15:23:13.49	339.33	61.74	-39.9	-40.7	24.0	0.00e+00	0	41	0	696254464	52	6226
2026-01-24 15:23:14.50	338.58	62.02	-39.6	-40.4	24.0	0.00e+00	0	41	0	698351616	52	5990
2026-01-24 15:23:15.51	337.81	62.29	-39.8	-40.7	23.7	0.00e+00	46	41	0	700448768	52	6210
2026-01-24 15:23:16.52	337.03	62.56	-39.8	-40.7	23.6	0.00e+00	0	41	0	702545920	52	6183
2026-01-24 15:23:17.53	336.23	62.82	-39.6	-40.5	24.0	0.00e+00	76	41	0	704643072	52	6057
2026-01-24 15:23:18.54	335.41	63.08	-39.4	-40.3	24.1	0.00e+00	0	41	0	706740224	52	5905
2026-01-24 15:23:19.55	334.57	63.34	-39.7	-40.6	24.0	0.00e+00	0	41	0	707788800	52	6107
2026-01-24 15:23:20.56	333.71	63.59	-40.0	-40.9	23.7	0.00e+00	0	41	0	709885952	52	6380
2026-01-24 15:23:21.57	332.84	63.84	-39.9	-40.8	23.8	0.00e+00	0	41	0	711983104	52	6307
2026-01-24 15:23:22.58	331.94	64.09	-39.3	-40.2	24.2	0.00e+00	26	41	0	714080256	52	5840
2026-01-24 15:23:23.59	331.03	64.32	-39.2	-40.0	24.4	0.00e+00	0	41	0	716177408	52	5713
2026-01-24 15:23:24.60	330.10	64.56	-39.7	-40.6	23.9	0.00e+00	90	41	0	717225984	52	6119
2026-01-24 15:23:25.61	329.15	64.79	-40.0	-41.0	23.6	0.00e+00	0	41	0	719323136	52	6403
2026-01-24 15:23:26.63	328.17	65.01	-39.6	-40.5	23.9	0.00e+00	0	41	0	721420288	52	6042
2026-01-24 15:23:27.63	327.19	65.23	-38.9	-39.7	24.3	0.00e+00	0	41	0	723517440	52	5562
2026-01-24 15:23:28.64	326.18	65.44	-39.2	-40.0	24.3	0.00e+00	0	41	0	725614592	52	5759
2026-01-24 15:23:29.65	325.15	65.64	-39.3	-40.2	24.0	0.00e+00	25	41	0	726663168	52	5838
2026-01-24 15:23:30.66	324.11	65.84	-39.8	-40.7	23.7	0.00e+00	0	41	0	728760320	52	6210
2026-01-24 15:23:31.67	323.04	66.03	-40.2	-41.1	23.4	0.00e+00	90	41	0	730857472	52	6520
2026-01-24 15:23:32.68	321.96	66.21	-40.2	-41.1	23.3	0.00e+00	0	41	0	732954624	52	6476
2026-01-24 15:23:33.69	320.86	66.38	-40.6	-41.5	23.1	0.00e+00	39	41	0	735051776	52	6798
2026-01-24 15:23:34.69	319.75	66.55	-41.6	-42.7	22.3	0.00e+00	0	41	0	736100352	54	6964
2026-01-24 15:23:35.70	318.61	66.71	-42.6	-43.9	21.3	0.00e+00	0	41	0	738197504	56	7111
2026-01-24 15:23:36.71	317.46	66.86	-42.0	-43.2	22.2	0.00e+00	0	41	0	740294656	58	5831
2026-01-24 15:23:37.72	316.29	67.00	-41.6	-42.8	22.3	0.00e+00	0	41	0	742391808	56	6260
2026-01-24 15:23:38.73	315.10	67.14	-43.0	-44.5	20.8	0.00e+00	92	41	0	744488960	58	6799
2026-01-24 15:23:39.74	313.90	67.26	-44.1	-45.8	19.6	0.00e+00	0	41	0	745537536	60	7037
2026-01-24 15:23:40.75	312.69	67.38	-43.6	-45.0	20.2	0.00e+00	92	41	0	747634688	60	6450
2026-01-24 15:23:41.76	311.46	67.49	-42.0	-43.1	21.9	0.00e+00	0	41	0	749731840	58	5808
2026-01-24 15:23:42.77	310.22	67.58	-41.3	-42.3	22.7	0.00e+00	0	41	0	751828992	56	5903
2026-01-24 15:23:43.78	308.97	67.67	-40.9	-41.9	22.5	0.00e+00	0	41	0	753926144	56	5642
2026-01-24 15:23:44.79	307.71	67.75	-41.5	-42.5	22.7	0.00e+00	0	41	0	754974720	56	6065
2026-01-24 15:23:45.80	306.44	67.82	-41.2	-42.1	23.0	0.00e+00	51	41	0	757071872	56	5805
2026-01-24 15:23:46.81	305.16	67.87	-41.4	-42.4	22.5	0.00e+00	0	41	0	759169024	56	5997
2026-01-24 15:23:47.82	303.87	67.92	-42.3	-43.5	21.9	0.00e+00	78	41	0	761266176	56	6773
2026-01-24 15:23:48.83	302.58	67.96	-42.4	-43.5	21.4	0.00e+00	0	41	0	763363328	58	6084
2026-01-24 15:23:49.83	301.30	67.99	-41.9	-43.0	22.0	0.00e+00	0	41	0	764411904	56	6393
2026-01-24 15:23:50.84	300.01	68.00	-41.6	-42.6	22.2	0.00e+00	0	41	0	766509056	56	6119
2026-01-24 15:23:51.85	298.71	68.01	-41.8	-42.9	22.0	0.00e+00	0	41	0	768606208	56	6334
2026-01-24 15:23:52.86	297.41	68.00	-42.2	-43.3	21.7	0.00e+00	42	41	0	770703360	56	6645
2026-01-24 15:23:53.87	296.11	67.99	-42.0	-43.1	22.0	0.00e+00	0	41	0	772800512	56	6493
2026-01-24 15:23:54.88	294.82	67.96	-40.7	-41.7	23.1	0.00e+00	90	41	0	773849088	56	5516
2026-01-24 15:23:55.89	293.52	67.93	-40.9	-41.8	22.9	0.00e+00	0	41	0	775946240	54	6285
2026-01-24 15:23:56.90	292.24	67.88	-41.4	-42.4	22.6	0.00e+00	0	41	0	778043392	54	6756
2026-01-24 15:23:57.91	290.96	67.83	-41.2	-42.1	22.6	0.00e+00	0	41	0	780140544	54	6524
2026-01-24 15:23:58.92	289.69	67.76	-42.2	-43.4	21.7	0.00e+00	0	41	0	782237696	56	6732
2026-01-24 15:23:59.93	288.42	67.68	-42.6	-43.9	21.4	0.00e+00	11	41	0	784334848	58	6334
2026-01-24 15:24:00.94	287.17	67.60	-42.2	-43.4	21.6	0.00e+00	0	41	0	785383424	58	5967
2026-01-24 15:24:01.95	285.93	67.50	-42.5	-43.6	21.6	0.00e+00	43	41	0	787480576	58	6172
2026-01-24 15:24:02.95	284.71	67.40	-43.7	-45.0	20.5	0.00e+00	0	41	0	789577728	58	7243
2026-01-24 15:24:03.96	283.49	67.28	-44.9	-46.8	18.7	0.00e+00	92	41	0	791674880	60	7879
2026-01-24 15:24:04.97	282.29	67.16	-44.5	-46.2	19.3	0.00e+00	0	41	0	793772032	60	7356
2026-01-24 15:24:05.98	281.10	67.03	-43.9	-45.3	20.4	0.00e+00	0	41	0	794820608	60	6685
2026-01-24 15:24:06.99	279.93	66.89	-43.9	-45.4	20.0	0.00e+00	45	41	0	796917760	60	6729
2026-01-24 15:24:08.00	278.77	66.74	-43.5	-44.9	20.6	0.00e+00	0	41	0	799014912	60	6385
2026-01-24 15:24:09.01	277.63	66.58	-42.8	-44.1	21.2	0.00e+00	76	41	0	801112064	60	5791
2026-01-24 15:24:10.02	276.51	66.41	-42.0	-43.2	21.9	0.00e+00	0	41	0	803209216	58	5844
2026-01-24 15:24:11.03	275.40	66.24	-40.9	-41.9	23.0	0.00e+00	44	41	0	804257792	56	5647
2026-01-24 15:24:12.04	274.31	66.05	-39.4	-40.3	24.2	0.00e+00	0	41	0	806354944	52	5908
2026-01-24 15:24:13.05	273.24	65.87	-40.4	-41.3	23.3	0.00e+00	0	41	0	808452096	52	6642
2026-01-24 15:24:14.05	272.20	65.67	-40.8	-41.8	23.0	0.00e+00	0	41	0	810549248	54	6268
2026-01-24 15:24:15.06	271.17	65.47	-40.6	-41.6	23.0	0.00e+00	0	41	0	812646400	54	6128
2026-01-24 15:24:16.07	270.16	65.26	-39.7	-40.6	23.9	0.00e+00	42	41	0	813694976	54	5446
2026-01-24 15:24:17.08	269.17	65.04	-38.7	-39.5	24.8	0.00e+00	0	41	0	815792128	52	5392
2026-01-24 15:24:18.09	268.19	64.82	-37.7	-38.4	25.3	0.00e+00	83	41	0	817889280	50	5369
2026-01-24 15:24:19.10	267.24	64.60	-37.6	-38.4	24.9	0.00e+00	0	41	0	819986432	48	5971
2026-01-24 15:24:20.11	266.30	64.36	-38.8	-39.7	24.5	0.00e+00	0	41	0	822083584	48	6931
2026-01-24 15:24:21.12	265.38	64.12	-38.8	-39.6	24.6	0.00e+00	0	41	0	823132160	50	6104
2026-01-24 15:24:22.13	264.49	63.88	-38.8	-39.6	24.6	0.00e+00	0	41	0	825229312	50	6140
2026-01-24 15:24:23.14	263.61	63.63	-39.3	-40.2	24.2	0.00e+00	35	41	0	827326464	50	6545
2026-01-24 15:24:24.15	262.75	63.38	-39.1	-40.0	24.2	0.00e+00	0	41	0	829423616	50	6404
2026-01-24 15:24:25.16	261.90	63.12	-39.5	-40.4	24.0	0.00e+00	74	41	0	831520768	50	6712
2026-01-24 15:24:26.17	261.08	62.86	-40.1	-41.1	23.7	0.00e+00	0	41	0	832569344	52	6495
2026-01-24 15:24:27.18	260.28	62.60	-39.9	-40.8	23.8	0.00e+00	0	41	0	834666496	52	6267
2026-01-24 15:24:28.19	259.49	62.33	-40.6	-41.6	23.1	0.00e+00	0	41	0	836763648	52	6852
2026-01-24 15:24:29.20	258.72	62.06	-41.7	-42.8	22.3	0.00e+00	0	41	0	838860800	56	6307
2026-01-24 15:24:30.20	257.97	61.78	-41.6	-42.7	22.2	0.00e+00	0	41	0	840957952	56	6239
2026-01-24 15:24:31.21	257.23	61.51	-41.4	-42.4	22.7	0.00e+00	0	41	0	842006528	56	5986
2026-01-24 15:24:32.22	256.51	61.22	-41.4	-42.4	22.7	0.00e+00	92	41	0	844103680	56	6000
2026-01-24 15:24:33.23	255.81	60.94	-42.1	-43.3	21.8	0.00e+00	0	41	0	846200832	56	6631
2026-01-24 15:24:34.24	255.12	60.65	-41.2	-42.2	22.6	0.00e+00	7	41	0	848297984	56	5886
2026-01-24 15:24:35.25	254.45	60.36	-40.8	-41.7	23.0	0.00e+00	0	41	0	850395136	56	5556
2026-01-24 15:24:36.26	253.79	60.07	-41.7	-42.8	22.0	0.00e+00	0	41	0	851443712	56	6263
2026-01-24 15:24:37.27	253.15	59.78	-43.0	-44.4	20.9	0.00e+00	28	41	0	853540864	58	6696
2026-01-24 15:24:38.28	252.52	59.49	-43.1	-44.4	20.7	0.00e+00	0	41	0	855638016	58	6766
2026-01-24 15:24:39.29	251.90	59.19	-42.5	-43.7	21.3	0.00e+00	71	41	0	857735168	58	6220
2026-01-24 15:24:40.30	251.30	58.89	-42.2	-43.3	21.6	0.00e+00	0	41	0	859832320	58	5959
2026-01-24 15:24:41.31	250.72	58.59	-41.8	-42.9	22.0	0.00e+00	92	41	0	860880896	58	5668
2026-01-24 15:24:42.32	250.14	58.29	-42.1	-43.2	21.8	0.00e+00	0	41	0	862978048	56	6609
2026-01-24 15:24:43.32	249.59	57.99	-42.4	-43.6	21.4	0.00e+00	0	41	0	865075200	58	6150
2026-01-24 15:24:44.33	249.04	57.69	-41.6	-42.7	22.3	0.00e+00	0	41	0	867172352	56	6227
2026-01-24 15:24:45.34	248.50	57.39	-40.5	-41.4	23.1	0.00e+00	0	41	0	869269504	54	6021
2026-01-24 15:24:46.35	247.98	57.08	-39.9	-40.8	23.6	0.00e+00	91	41	0	871366656	54	5569
2026-01-24 15:24:47.36	247.47	56.78	-38.9	-39.7	24.5	0.00e+00	0	41	0	872415232	52	5564
2026-01-24 15:24:48.37	246.96	56.47	-38.8	-39.7	24.5	0.00e+00	91	41	0	874512384	50	6177
2026-01-24 15:24:49.38	246.47	56.17	-39.3	-40.2	24.1	0.00e+00	0	41	0	876609536	50	6544
2026-01-24 15:24:50.39	245.99	55.86	-40.1	-41.0	23.7	0.00e+00	0	41	0	878706688	50	7195
2026-01-24 15:24:51.40	245.53	55.55	-40.4	-41.3	23.4	0.00e+00	0	41	0	880803840	52	6639
2026-01-24 15:24:52.41	245.07	55.25	-40.3	-41.2	23.4	0.00e+00	0	41	0	881852416	52	6608
2026-01-24 15:24:53.42	244.62	54.94	-40.0	-40.9	23.8	0.00e+00	41	41	0	883949568	52	6353
2026-01-24 15:24:54.42	244.18	54.64	-39.9	-40.7	23.7	0.00e+00	0	41	0	886046720	52	6233
2026-01-24 15:24:55.43	243.75	54.33	-40.8	-41.7	22.8	0.00e+00	92	41	0	888143872	54	6242
2026-01-24 15:24:56.44	243.33	54.03	-40.3	-41.2	23.5	0.00e+00	0	41	0	890241024	54	5853
2026-01-24 15:24:57.45	242.92	53.72	-40.7	-41.7	23.0	0.00e+00	0	41	0	891289600	54	6195
2026-01-24 15:24:58.46	242.52	53.41	-41.0	-42.0	22.7	0.00e+00	0	41	0	893386752	54	6398
2026-01-24 15:24:59.47	242.12	53.11	-41.0	-41.9	23.2	0.00e+00	0	41	0	895483904	54	6375
2026-01-24 15:25:00.48	241.73	52.80	-40.6	-41.5	23.0	0.00e+00	59	41	0	897581056	54	6086
2026-01-24 15:25:01.49	241.35	52.50	-41.1	-42.1	23.0	0.00e+00	0	41	0	899678208	54	6496
2026-01-24 15:25:02.50	240.98	52.20	-41.9	-43.0	22.0	0.00e+00	71	41	0	900726784	54	7239
2026-01-24 15:25:03.51	240.62	51.89	-41.9	-42.9	22.2	0.00e+00	0	41	0	902823936	56	6384
2026-01-24 15:25:04.52	240.26	51.59	-40.9	-41.8	23.0	0.00e+00	0	41	0	904921088	56	5624
2026-01-24 15:25:05.53	239.92	51.29	-41.3	-42.3	22.7	0.00e+00	0	41	0	907018240	56	5929
2026-01-24 15:25:06.54	239.57	50.99	-41.9	-43.0	22.3	0.00e+00	0	41	0	909115392	56	6409
2026-01-24 15:25:07.54	239.24	50.69	-42.0	-43.1	22.0	0.00e+00	19	41	0	910163968	56	6505
2026-01-24 15:25:08.55	238.91	50.39	-41.5	-42.5	22.7	0.00e+00	0	41	0	912261120	56	6070
2026-01-24 15:25:09.56	238.59	50.10	-41.3	-42.3	22.8	0.00e+00	92	41	0	914358272	56	5949
2026-01-24 15:25:10.57	238.28	49.80	-41.0	-42.0	23.1	0.00e+00	0	41	0	916455424	56	5700
2026-01-24 15:25:11.58	237.97	49.50	-39.6	-40.4	24.2	0.00e+00	41	41	0	918552576	52	5982
2026-01-24 15:25:12.59	237.66	49.21	-38.7	-39.5	24.7	0.00e+00	0	41	0	919601152	52	5404
2026-01-24 15:25:13.60	237.37	48.91	-39.1	-39.9	24.5	0.00e+00	0	41	0	921698304	50	6336
2026-01-24 15:25:14.61	237.07	48.62	-39.9	-40.8	23.7	0.00e+00	0	41	0	923795456	52	6287
2026-01-24 15:25:15.62	236.79	48.33	-40.5	-41.5	23.5	0.00e+00	0	41	0	925892608	54	6039
2026-01-24 15:25:16.63	236.51	48.04	-39.8	-40.7	23.9	0.00e+00	34	41	0	927989760	54	5516
2026-01-24 15:25:17.64	236.23	47.75	-40.2	-41.1	23.4	0.00e+00	0	41	0	929038336	52	6532
2026-01-24 15:25:18.65	235.96	47.46	-41.3	-42.3	22.2	0.00e+00	55	41	0	931135488	54	6687
2026-01-24 15:25:19.66	235.69	47.18	-43.0	-44.3	21.0	0.00e+00	0	41	0	933232640	58	6631
2026-01-24 15:25:20.67	235.43	46.89	-43.5	-44.9	20.2	0.00e+00	0	41	0	935329792	58	7145
2026-01-24 15:25:21.67	235.18	46.61	-43.8	-45.2	20.3	0.00e+00	36	41	0	937426944	60	6569
2026-01-24 15:25:22.68	234.93	46.33	-42.7	-44.0	21.3	0.00e+00	0	41	0	939524096	60	5711
2026-01-24 15:25:23.69	234.68	46.05	-41.9	-43.0	22.4	0.00e+00	31	41	0	940572672	58	5704
2026-01-24 15:25:24.70	234.44	45.76	-41.1	-42.1	22.7	0.00e+00	0	41	0	942669824	56	5769
2026-01-24 15:25:25.71	234.20	45.49	-41.9	-42.9	22.0	0.00e+00	92	41	0	944766976	56	6365
2026-01-24 15:25:26.72	233.97	45.21	-41.8	-42.9	22.2	0.00e+00	0	41	0	946864128	56	6346
2026-01-24 15:25:27.73	233.74	44.93	-41.8	-42.8	21.9	0.00e+00	0	41	0	948961280	56	6298
2026-01-24 15:25:28.74	233.51	44.66	-41.2	-42.2	22.7	0.00e+00	0	41	0	950009856	56	5839
2026-01-24 15:25:29.75	233.29	44.38	-40.5	-41.3	23.3	0.00e+00	0	41	0	952107008	54	5963
2026-01-24 15:25:30.76	233.07	44.11	-40.7	-41.7	23.0	0.00e+00	35	41	0	954204160	54	6176
2026-01-24 15:25:31.77	232.85	43.84	-40.9	-41.8	22.8	0.00e+00	0	41	0	956301312	54	6308
2026-01-24 15:25:32.78	232.64	43.57	-41.8	-42.8	22.2	0.00e+00	92	41	0	958398464	54	7045
2026-01-24 15:25:33.79	232.44	43.31	-41.7	-42.7	22.5	0.00e+00	0	41	0	959447040	56	6231
2026-01-24 15:25:34.80	232.23	43.04	-42.3	-43.4	21.8	0.00e+00	0	41	0	961544192	56	6720
2026-01-24 15:25:35.81	232.03	42.77	-43.7	-45.0	20.2	0.00e+00	0	41	0	963641344	58	7248
2026-01-24 15:25:36.82	231.84	42.51	-45.0	-46.6	19.0	0.00e+00	0	41	0	965738496	60	7753
2026-01-24 15:25:37.82	231.64	42.25	-45.4	-47.3	18.4	0.00e+00	37	41	0	967835648	60	8361
2026-01-24 15:25:38.83	231.45	41.99	-45.5	-47.2	17.9	0.00e+00	0	41	0	968884224	60	8315
2026-01-24 15:25:39.84	231.26	41.73	-45.3	-47.0	18.5	0.00e+00	76	41	0	970981376	60	8049
2026-01-24 15:25:40.85	231.08	41.48	-44.9	-46.4	19.1	0.00e+00	0	41	0	973078528	60	7556
2026-01-24 15:25:41.86	230.90	41.22	-43.7	-45.0	20.3	0.00e+00	0	41	0	975175680	60	6430
2026-01-24 15:25:42.87	230.72	40.97	-43.6	-44.8	20.7	0.00e+00	0	41	0	977272832	60	6303
2026-01-24 15:25:43.88	230.54	40.71	-42.6	-43.7	21.5	0.00e+00	0	41	0	978321408	58	6218
2026-01-24 15:25:44.89	230.37	40.46	-42.2	-43.2	22.0	0.00e+00	0	41	0	980418560	58	5895
2026-01-24 15:25:45.90	230.20	40.21	-42.0	-43.1	22.0	0.00e+00	0	41	0	982515712	58	5781
2026-01-24 15:25:46.91	230.03	39.96	-42.9	-44.1	21.1	0.00e+00	55	41	0	984612864	58	6497
2026-01-24 15:25:47.92	229.87	39.71	-42.8	-44.0	21.3	0.00e+00	0	41	0	986710016	58	6396
2026-01-24 15:25:48.92	229.71	39.47	-43.8	-45.2	20.3	0.00e+00	90	41	0	987758592	58	7342
2026-01-24 15:25:49.93	229.55	39.23	-44.0	-45.4	19.8	0.00e+00	0	41	0	989855744	60	6767
2026-01-24 15:25:50.93	229.39	38.99	-44.8	-46.5	18.9	0.00e+00	0	41	0	991952896	60	7661
2026-01-24 15:25:51.94	229.23	38.75	-44.6	-46.2	19.3	0.00e+00	0	41	0	994050048	60	7383
2026-01-24 15:25:52.95	229.08	38.51	-44.8	-46.5	19.0	0.00e+00	0	41	0	996147200	60	7659
2026-01-24 15:25:53.96	228.93	38.27	-44.6	-46.3	19.1	0.00e+00	92	41	0	997195776	60	7448
2026-01-24 15:25:54.97	228.78	38.03	-44.6	-46.2	19.4	0.00e+00	0	41	0	999292928	60	7343
2026-01-24 15:25:55.98	228.63	37.79	-44.2	-45.7	19.4	0.00e+00	91	41	0	1001390080	60	6938
2026-01-24 15:25:56.99	228.49	37.56	-45.0	-46.7	18.9	0.00e+00	0	41	0	1003487232	60	7775
2026-01-24 15:25:58.00	228.35	37.33	-45.9	-48.0	18.1	0.00e+00	0	41	0	1005584384	60	9086
2026-01-24 15:25:59.01	228.21	37.10	-45.4	-47.2	18.2	0.00e+00	0	41	0	1006632960	60	8262
2026-01-24 15:26:00.02	228.07	36.87	-44.1	-45.6	20.0	0.00e+00	0	41	0	1008730112	60	6851
2026-01-24 15:26:01.03	227.93	36.64	-43.4	-44.7	20.7	0.00e+00	90	41	0	1010827264	60	6176
2026-01-24 15:26:02.04	227.80	36.41	-43.1	-44.3	21.1	0.00e+00	0	41	0	1012924416	60	5949
2026-01-24 15:26:03.05	227.67	36.19	-41.9	-42.9	22.3	0.00e+00	80	41	0	1015021568	58	5674
2026-01-24 15:26:04.06	227.54	35.96	-42.2	-43.2	22.0	0.00e+00	0	41	0	1016070144	58	5893
2026-01-24 15:26:05.07	227.41	35.74	-41.9	-43.0	22.2	0.00e+00	0	41	0	1018167296	58	5716
2026-01-24 15:26:06.08	227.28	35.52	-41.8	-42.9	22.3	0.00e+00	0	41	0	1020264448	56	6343
2026-01-24 15:26:07.09	227.15	35.30	-41.6	-42.6	22.6	0.00e+00	0	41	0	1022361600	56	6151
2026-01-24 15:26:08.10	227.03	35.08	-41.8	-42.9	22.3	0.00e+00	26	41	0	1024458752	56	6328
2026-01-24 15:26:09.11	226.91	34.86	-41.8	-43.0	22.1	0.00e+00	0	41	0	1025507328	56	6393
2026-01-24 15:26:10.12	226.79	34.64	-42.7	-44.0	21.1	0.00e+00	74	41	0	1027604480	56	7228
2026-01-24 15:26:11.13	226.67	34.43	-44.5	-46.2	19.4	0.00e+00	0	41	0	1029701632	60	7378
2026-01-24 15:26:12.14	226.55	34.22	-44.9	-46.6	18.8	0.00e+00	0	41	0	1031798784	60	7746
2026-01-24 15:26:13.15	226.44	34.00	-45.4	-47.3	19.1	0.00e+00	0	41	0	1033895936	60	8383
2026-01-24 15:26:14.16	226.32	33.79	-44.3	-45.8	19.6	0.00e+00	0	41	0	1035993088	60	7088
2026-01-24 15:26:15.17	226.21	33.58	-43.4	-44.7	20.7	0.00e+00	40	41	0	1037041664	60	6232
2026-01-24 15:26:16.18	226.10	33.37	-43.2	-44.5	21.0	0.00e+00	0	41	0	1039138816	60	6103
2026-01-24 15:26:17.19	225.99	33.17	-43.1	-44.3	20.7	0.00e+00	81	41	0	1041235968	58	6692
2026-01-24 15:26:18.19	225.88	32.96	-43.6	-45.0	20.5	0.00e+00	0	41	0	1043333120	58	7221
2026-01-24 15:26:19.20	225.78	32.76	-43.7	-45.2	20.1	0.00e+00	77	41	0	1045430272	60	6575
2026-01-24 15:26:20.21	225.67	32.56	-43.2	-44.5	20.7	0.00e+00	0	41	0	1046478848	60	6087
2026-01-24 15:26:21.21	225.57	32.36	-43.3	-44.7	20.4	0.00e+00	0	41	0	1048576000	60	6187
2026-01-24 15:26:22.22	225.47	32.16	-43.2	-44.6	20.6	0.00e+00	0	41	0	1050673152	60	6114
2026-01-24 15:26:23.23	225.37	31.96	-42.9	-44.3	20.9	0.00e+00	0	41	0	1052770304	60	5903
2026-01-24 15:26:24.24	225.27	31.76	-43.4	-44.8	20.4	0.00e+00	38	41	0	1054867456	60	6293
2026-01-24 15:26:25.25	225.17	31.56	-43.5	-45.0	20.3	0.00e+00	0	41	0	1055916032	60	6430
2026-01-24 15:26:26.26	225.07	31.37	-43.6	-45.0	20.2	0.00e+00	92	41	0	1058013184	60	6451
2026-01-24 15:26:27.27	224.97	31.17	-43.0	-44.4	20.7	0.00e+00	0	41	0	1060110336	60	5972
2026-01-24 15:26:28.28	224.88	30.98	-42.5	-43.8	21.4	0.00e+00	0	41	0	1062207488	58	6255
2026-01-24 15:26:29.29	224.78	30.79	-42.2	-43.3	21.8	0.00e+00	0	41	0	1064304640	58	5964
2026-01-24 15:26:30.30	224.69	30.59	-42.3	-43.4	21.7	0.00e+00	0	41	0	1065353216	58	6031
2026-01-24 15:26:31.31	224.60	30.40	-42.5	-43.6	21.4	0.00e+00	10	41	0	1067450368	58	6167
2026-01-24 15:26:32.32	224.51	30.22	-42.9	-44.1	21.1	0.00e+00	0	41	0	1069547520	58	6522
2026-01-24 15:26:33.32	224.42	30.03	-44.2	-45.7	19.6	0.00e+00	92	41	0	1071644672	60	6974
2026-01-24 15:26:34.33	224.33	29.84	-45.1	-46.9	18.6	0.00e+00	0	41	0	1073741824	60	8006
2026-01-24 15:26:35.34	224.24	29.66	-45.7	-47.7	18.1	0.00e+00	0	41	0	1074790400	60	8762
2026-01-24 15:26:36.35	224.16	29.47	-45.9	-48.0	17.4	0.00e+00	0	41	0	1076887552	60	9118
2026-01-24 15:26:37.36	224.07	29.29	-45.4	-47.4	18.0	0.00e+00	0	41	0	1078984704	60	8492
2026-01-24 15:26:38.37	223.99	29.11	-45.0	-46.9	18.6	0.00e+00	37	41	0	1081081856	60	7968
2026-01-24 15:26:39.38	223.90	28.93	-44.3	-45.9	19.6	0.00e+00	0	41	0	1083179008	60	7106
2026-01-24 15:26:40.39	223.82	28.75	-44.1	-45.6	19.8	0.00e+00	92	41	0	1084227584	60	6924
2026-01-24 15:26:41.40	223.74	28.57	-44.3	-45.8	19.6	0.00e+00	0	41	0	1086324736	60	7067
2026-01-24 15:26:42.41	223.66	28.39	-44.2	-45.8	19.3	0.00e+00	0	41	0	1088421888	60	7035
2026-01-24 15:26:43.42	223.58	28.22	-44.7	-46.3	19.1	0.00e+00	0	41	0	1090519040	60	7470
2026-01-24 15:26:44.42	223.50	28.04	-44.8	-46.4	19.1	0.00e+00	0	41	0	1092616192	60	7581
2026-01-24 15:26:45.43	223.42	27.87	-45.1	-46.8	18.8	0.00e+00	34	41	0	1093664768	60	7892
2026-01-24 15:26:46.44	223.35	27.69	-44.6	-46.2	19.5	0.00e+00	0	41	0	1095761920	60	7356
2026-01-24 15:26:47.45	223.27	27.52	-44.6	-46.1	19.8	0.00e+00	90	41	0	1097859072	60	7289
2026-01-24 15:26:48.46	223.19	27.35	-44.1	-45.5	20.1	0.00e+00	0	41	0	1099956224	60	6838
2026-01-24 15:26:49.47	223.12	27.18	-44.0	-45.3	20.5	0.00e+00	92	41	0	1102053376	60	6668
2026-01-24 15:26:50.48	223.05	27.01	-43.0	-44.2	20.8	0.00e+00	0	41	0	1104150528	60	5857
2026-01-24 15:26:51.48	222.97	26.84	-43.3	-44.6	21.1	0.00e+00	0	41	0	1105199104	60	6160
2026-01-24 15:26:52.49	222.90	26.68	-43.1	-44.4	21.0	0.00e+00	0	41	0	1107296256	60	5983
2026-01-24 15:26:53.50	222.83	26.51	-43.0	-44.3	21.1	0.00e+00	0	41	0	1109393408	60	5908
2026-01-24 15:26:54.51	222.76	26.34	-43.0	-44.3	21.2	0.00e+00	91	41	0	1111490560	60	5944
2026-01-24 15:26:55.52	222.69	26.18	-43.0	-44.3	21.1	0.00e+00	0	41	0	1113587712	58	6626
2026-01-24 15:26:56.53	222.62	26.02	-42.7	-43.9	21.3	0.00e+00	46	41	0	1114636288	58	6356
2026-01-24 15:26:57.54	222.55	25.85	-42.9	-44.2	21.1	0.00e+00	0	41	0	1116733440	58	6588
2026-01-24 15:26:58.55	222.48	25.69	-43.1	-44.5	20.7	0.00e+00	0	41	0	1118830592	58	6781
2026-01-24 15:26:59.56	222.42	25.53	-43.9	-45.4	20.0	0.00e+00	0	41	0	1120927744	58	7557
2026-01-24 15:27:00.57	222.35	25.37	-44.3	-45.9	19.6	0.00e+00	0	41	0	1123024896	60	7146
2026-01-24 15:27:01.58	222.29	25.21	-44.6	-46.2	19.1	0.00e+00	92	41	0	1124073472	60	7399
2026-01-24 15:27:02.59	222.22	25.05	-44.7	-46.3	19.2	0.00e+00	0	41	0	1126170624	60	7508
2026-01-24 15:27:03.59	222.16	24.90	-45.0	-46.7	18.9	0.00e+00	92	41	0	1128267776	60	7815
2026-01-24 15:27:04.60	222.09	24.74	-44.8	-46.5	19.0	0.00e+00	0	41	0	1130364928	60	7648
2026-01-24 15:27:05.61	222.03	24.59	-44.7	-46.3	19.2	0.00e+00	0	41	0	1132462080	60	7496
2026-01-24 15:27:06.62	221.97	24.43	-44.0	-45.5	20.0	0.00e+00	0	41	0	1133510656	60	6813
2026-01-24 15:27:07.63	221.91	24.28	-43.6	-45.0	20.3	0.00e+00	0	41	0	1135607808	60	6412
2026-01-24 15:27:08.64	221.85	24.13	-43.8	-45.2	20.5	0.00e+00	39	41	0	1137704960	60	6570
2026-01-24 15:27:09.65	221.79	23.97	-43.0	-44.3	21.1	0.00e+00	0	41	0	1139802112	60	5915
2026-01-24 15:27:10.66	221.73	23.82	-42.8	-44.1	21.1	0.00e+00	92	41	0	1141899264	58	6495
2026-01-24 15:27:11.66	221.67	23.67	-42.9	-44.1	21.0	0.00e+00	0	41	0	1142947840	58	6503
2026-01-24 15:27:12.67	221.61	23.53	-42.5	-43.7	21.4	0.00e+00	0	41	0	1145044992	58	6221
2026-01-24 15:27:13.68	221.55	23.38	-42.7	-43.9	21.3	0.00e+00	0	41	0	1147142144	58	6342
2026-01-24 15:27:14.69	221.50	23.23	-42.9	-44.2	20.9	0.00e+00	0	41	0	1149239296	58	6545
2026-01-24 15:27:15.70	221.44	23.08	-43.0	-44.3	21.0	0.00e+00	19	41	0	1151336448	58	6647
2026-01-24 15:27:16.71	221.38	22.94	-43.1	-44.4	20.8	0.00e+00	0	41	0	1152385024	58	6732
2026-01-24 15:27:17.72	221.33	22.79	-43.4	-44.7	20.6	0.00e+00	92	41	0	1154482176	58	6999
2026-01-24 15:27:18.73	221.27	22.65	-43.2	-44.4	20.9	0.00e+00	0	41	0	1156579328	58	6767
2026-01-24 15:27:19.74	221.22	22.50	-42.8	-44.0	20.8	0.00e+00	0	41	0	1158676480	58	6461
2026-01-24 15:27:20.75	221.16	22.36	-43.0	-44.3	21.0	0.00e+00	0	41	0	1160773632	58	6632
2026-01-24 15:27:21.76	221.11	22.22	-42.5	-43.7	21.5	0.00e+00	0	41	0	1161822208	58	6185
2026-01-24 15:27:22.77	221.06	22.08	-42.4	-43.6	21.5	0.00e+00	27	41	0	1163919360	58	6155
2026-01-24 15:27:23.78	221.00	21.93	-42.5	-43.6	21.6	0.00e+00	0	41	0	1166016512	58	6170
2026-01-24 15:27:24.79	220.95	21.79	-42.2	-43.3	21.7	0.00e+00	90	41	0	1168113664	58	5948
2026-01-24 15:27:25.80	220.90	21.66	-42.1	-43.3	21.8	0.00e+00	0	41	0	1170210816	58	5909
2026-01-24 15:27:26.81	220.85	21.52	-41.9	-43.0	22.1	0.00e+00	92	41	0	1171259392	58	5747
2026-01-24 15:27:27.82	220.80	21.38	-42.1	-43.2	21.8	0.00e+00	0	41	0	1173356544	58	5871
2026-01-24 15:27:28.83	220.75	21.24	-42.5	-43.6	21.7	0.00e+00	0	41	0	1175453696	58	6135
2026-01-24 15:27:29.84	220.70	21.11	-42.8	-44.0	21.4	0.00e+00	32	41	0	1177550848	58	6416
2026-01-24 15:27:30.85	220.65	20.97	-42.7	-43.9	21.4	0.00e+00	0	41	0	1179648000	58	6390
2026-01-24 15:27:31.86	220.60	20.84	-43.1	-44.4	20.9	0.00e+00	30	41	0	1180696576	58	6758
2026-01-24 15:27:32.87	220.55	20.70	-43.5	-44.8	20.6	0.00e+00	0	41	0	1182793728	58	7042
2026-01-24 15:27:33.88	220.51	20.57	-43.2	-44.5	20.8	0.00e+00	70	41	0	1184890880	58	6810
2026-01-24 15:27:34.89	220.46	20.43	-43.3	-44.6	20.7	0.00e+00	0	41	0	1186988032	58	6861
2026-01-24 15:27:35.90	220.41	20.30	-43.1	-44.4	20.8	0.00e+00	0	41	0	1189085184	58	6749
2026-01-24 15:27:36.91	220.36	20.17	-43.2	-44.5	20.9	0.00e+00	0	41	0	1190133760	58	6772
2026-01-24 15:27:37.91	220.32	20.04	-43.1	-44.4	20.9	0.00e+00	0	41	0	1192230912	58	6698
2026-01-24 15:27:38.92	220.27	19.91	-43.0	-44.3	20.9	0.00e+00	92	41	0	1194328064	58	6656
2026-01-24 15:27:39.93	220.23	19.78	-43.0	-44.2	20.9	0.00e+00	0	41	0	1196425216	58	6615
2026-01-24 15:27:40.94	220.18	19.65	-42.9	-44.1	21.1	0.00e+00	55	41	0	1198522368	58	6495
2026-01-24 15:27:41.95	220.14	19.52	-42.4	-43.6	21.5	0.00e+00	0	41	0	1200619520	58	6135
2026-01-24 15:27:42.96	220.09	19.40	-42.8	-44.0	21.3	0.00e+00	0	41	0	1201668096	58	6398
2026-01-24 15:27:43.97	220.05	19.27	-42.5	-43.7	21.5	0.00e+00	0	41	0	1203765248	58	6187
2026-01-24 15:27:44.98	220.01	19.14	-42.7	-43.8	21.3	0.00e+00	0	41	0	1205862400	58	6295
2026-01-24 15:27:45.99	219.97	19.02	-42.9	-44.0	21.1	0.00e+00	53	41	0	1207959552	58	6450
