passes_logs/2026/01/24/R4.6S_Anadyr/R4.6S_Anadyr__20260124_112541_NOAA_21_JPSS-2_rec.log

#Pass ID: 20260124_112541_NOAA 21 (JPSS-2)
#Satellite: NOAA 21 (JPSS-2)
#Configuration: NOAA-21
#almurnet v.1.7.20251203
#Start time: 2026-01-24 11:25:46

#Version: 2.2.20231116
#Station: R4.6S_Anadyr
#Location: 177.4865 lon 64.73178 lat
#TLE: 1 54234U 22150A   26024.10530052  .00000243  00000+0  13599-3 0  9996
#TLE: 2 54234  98.7508 324.8953 0000717 223.3896 136.7224 14.19538773166106

#Time	Az	El	Level	Level2	SNR	BER	BlckErr	Temp	State	Recorded	gain1	gain2
2026-01-24 11:25:46.52	21.51	0.18	-52.0	-53.5	5.7	0.00e+00	0	39	0	0	60	58040
2026-01-24 11:25:47.53	21.61	0.22	-52.0	-64.9	3.5	1.52e+00	0	40	104	0	60	61410
2026-01-24 11:25:48.53	21.71	0.25	-51.8	-64.7	3.5	1.52e+00	0	40	104	0	60	60469
2026-01-24 11:25:49.54	21.81	0.29	-51.8	-64.7	3.5	1.52e+00	0	40	104	0	60	60161
2026-01-24 11:25:50.55	21.91	0.33	-51.8	-64.7	3.5	1.52e+00	0	40	104	0	60	60122
2026-01-24 11:25:51.56	22.02	0.37	-51.8	-64.6	3.5	1.52e+00	0	40	104	0	60	59709
2026-01-24 11:25:52.57	22.12	0.40	-51.7	-64.6	3.5	1.52e+00	0	40	104	0	60	59265
2026-01-24 11:25:53.58	22.22	0.44	-51.7	-64.5	3.5	1.52e+00	0	40	104	0	60	59133
2026-01-24 11:25:54.59	22.32	0.48	-51.6	-64.5	3.5	1.52e+00	0	40	104	0	60	58929
2026-01-24 11:25:55.60	22.43	0.52	-51.5	-64.4	3.5	1.52e+00	0	40	104	0	60	58338
2026-01-24 11:25:56.61	22.53	0.55	-51.4	-64.3	3.5	1.52e+00	0	40	104	0	60	57713
2026-01-24 11:25:57.62	22.63	0.59	-51.6	-64.4	3.5	1.52e+00	0	40	104	0	60	58433
2026-01-24 11:25:58.63	22.73	0.63	-51.4	-64.3	3.5	1.52e+00	0	40	104	0	60	57390
2026-01-24 11:25:59.64	22.84	0.67	-51.2	-64.1	3.5	1.52e+00	0	40	104	0	60	56089
2026-01-24 11:26:00.65	22.94	0.71	-51.1	-64.0	3.5	1.51e+00	0	40	104	0	60	55611
2026-01-24 11:26:01.66	23.05	0.74	-51.0	-63.9	3.5	1.52e+00	0	40	104	0	60	55054
2026-01-24 11:26:02.67	23.15	0.78	-51.0	-63.8	3.5	1.52e+00	0	40	104	0	60	54502
2026-01-24 11:26:03.68	23.26	0.82	-50.9	-63.7	3.5	1.52e+00	0	40	104	0	60	53906
2026-01-24 11:26:04.69	23.36	0.86	-50.7	-63.6	3.5	1.51e+00	0	40	104	0	60	53219
2026-01-24 11:26:05.70	23.47	0.89	-50.6	-63.5	3.5	1.52e+00	0	41	104	0	60	52428
2026-01-24 11:26:06.71	23.57	0.93	-50.3	-63.1	3.5	1.52e+00	0	40	104	0	60	50421
2026-01-24 11:26:07.72	23.68	0.97	-49.9	-62.7	3.5	1.52e+00	0	40	104	0	60	48119
2026-01-24 11:26:08.73	23.78	1.01	-49.9	-62.7	3.5	1.52e+00	0	40	104	0	60	48025
2026-01-24 11:26:09.74	23.89	1.04	-49.9	-62.7	3.5	1.52e+00	0	41	104	0	60	48135
2026-01-24 11:26:10.75	24.00	1.08	-49.9	-62.7	3.5	1.52e+00	0	40	104	0	60	47952
2026-01-24 11:26:11.76	24.10	1.12	-50.0	-62.8	3.5	1.52e+00	0	41	104	0	60	48609
2026-01-24 11:26:12.76	24.21	1.15	-49.9	-62.7	3.5	1.52e+00	0	40	104	0	60	48084
2026-01-24 11:26:13.77	24.32	1.19	-49.8	-62.7	3.5	1.52e+00	0	41	104	0	60	47959
2026-01-24 11:26:14.78	24.42	1.23	-49.8	-62.7	3.5	1.52e+00	0	41	104	0	60	47831
2026-01-24 11:26:15.79	24.53	1.27	-49.8	-62.6	3.5	1.52e+00	0	40	104	0	60	47535
2026-01-24 11:26:16.80	24.64	1.30	-49.8	-62.7	3.5	1.52e+00	0	41	104	0	60	47739
2026-01-24 11:26:17.81	24.75	1.34	-49.8	-62.6	3.5	1.52e+00	0	41	104	0	60	47577
2026-01-24 11:26:18.82	24.86	1.38	-49.8	-62.6	3.5	1.52e+00	0	41	104	0	60	47392
2026-01-24 11:26:19.83	24.97	1.41	-49.8	-62.6	3.5	1.52e+00	0	41	104	0	60	47355
2026-01-24 11:26:20.84	25.07	1.45	-49.8	-62.6	3.5	1.52e+00	0	41	104	0	60	47300
2026-01-24 11:26:21.85	25.18	1.49	-49.8	-62.6	3.5	1.52e+00	0	41	104	0	60	47471
2026-01-24 11:26:22.86	25.29	1.53	-49.8	-62.6	3.5	1.52e+00	0	41	104	0	60	47520
2026-01-24 11:26:23.87	25.40	1.56	-49.8	-62.6	3.5	1.52e+00	0	41	104	0	60	47464
2026-01-24 11:26:24.88	25.51	1.60	-49.8	-62.6	3.5	1.52e+00	0	41	104	0	60	47252
2026-01-24 11:26:25.89	25.62	1.64	-49.7	-62.6	3.5	1.52e+00	0	41	104	0	60	47508
2026-01-24 11:26:26.90	25.73	1.67	-49.8	-62.6	3.5	1.52e+00	0	41	104	0	60	47229
2026-01-24 11:26:27.91	25.85	1.71	-49.7	-62.6	3.5	1.52e+00	0	41	104	0	60	47241
2026-01-24 11:26:28.92	25.96	1.75	-49.7	-62.6	3.5	1.52e+00	0	41	104	0	60	47275
2026-01-24 11:26:29.93	26.07	1.78	-49.7	-62.6	3.5	1.52e+00	0	41	104	0	60	47474
2026-01-24 11:26:30.94	26.18	1.82	-49.7	-62.6	3.5	1.52e+00	0	41	104	0	60	47543
2026-01-24 11:26:31.95	26.29	1.86	-49.7	-62.6	3.5	1.52e+00	0	41	104	0	60	47095
2026-01-24 11:26:32.96	26.40	1.89	-49.7	-62.5	3.5	1.52e+00	0	41	104	0	60	46994
2026-01-24 11:26:33.97	26.52	1.93	-49.7	-62.1	3.5	1.52e+00	0	41	104	0	60	44564
2026-01-24 11:26:34.98	26.63	1.97	-49.7	-62.5	3.5	1.51e+00	0	41	104	0	60	46811
2026-01-24 11:26:35.99	26.74	2.00	-49.8	-62.6	3.5	1.52e+00	0	41	104	0	60	47119
2026-01-24 11:26:37.00	26.86	2.04	-49.7	-62.6	3.5	1.52e+00	0	41	104	0	60	47414
2026-01-24 11:26:38.01	26.97	2.08	-49.8	-62.7	3.5	1.51e+00	0	41	104	0	60	47653
2026-01-24 11:26:39.02	27.08	2.11	-49.8	-62.6	3.5	1.52e+00	0	41	104	0	60	47275
2026-01-24 11:26:40.03	27.20	2.15	-49.8	-62.6	3.5	1.52e+00	0	41	104	0	60	47505
2026-01-24 11:26:41.04	27.31	2.18	-49.8	-62.6	3.5	1.52e+00	0	41	104	0	60	47134
2026-01-24 11:26:42.05	27.43	2.22	-49.8	-62.6	3.5	1.52e+00	0	41	104	0	60	47401
2026-01-24 11:26:43.06	27.54	2.26	-49.8	-62.6	3.5	1.52e+00	0	41	104	0	60	47416
2026-01-24 11:26:44.07	27.66	2.29	-49.8	-62.6	3.5	1.52e+00	0	41	104	0	60	47340
2026-01-24 11:26:45.08	27.77	2.33	-49.8	-62.6	3.5	1.52e+00	0	41	104	0	60	47213
2026-01-24 11:26:46.09	27.89	2.37	-49.7	-62.5	3.5	1.52e+00	0	41	104	0	60	46891
2026-01-24 11:26:47.09	28.00	2.40	-49.7	-62.4	3.5	1.52e+00	0	41	104	0	60	46485
2026-01-24 11:26:48.10	28.12	2.44	-49.8	-62.5	3.5	1.51e+00	0	41	104	0	60	46783
2026-01-24 11:26:49.11	28.23	2.47	-49.8	-62.4	3.5	1.51e+00	0	41	104	0	60	46514
2026-01-24 11:26:50.12	28.35	2.51	-49.7	-62.4	3.5	1.52e+00	0	41	104	0	60	46515
2026-01-24 11:26:51.13	28.47	2.54	-49.8	-62.6	3.5	1.51e+00	0	41	104	0	60	47405
2026-01-24 11:26:52.14	28.59	2.58	-49.8	-62.6	3.5	1.52e+00	0	41	104	0	60	47085
2026-01-24 11:26:53.15	28.70	2.62	-49.7	-61.9	3.5	1.51e+00	0	41	104	0	60	43544
2026-01-24 11:26:54.16	28.82	2.65	-49.6	-60.8	3.6	1.51e+00	0	41	104	0	60	38454
2026-01-24 11:26:55.17	28.94	2.69	-49.7	-62.0	3.5	1.52e+00	0	41	104	0	60	44122
2026-01-24 11:26:56.18	29.06	2.72	-49.4	-59.1	3.6	1.51e+00	0	41	104	0	60	31538
2026-01-24 11:26:57.19	29.18	2.76	-48.2	-53.9	9.0	3.15e-01	122	41	104	0	60	17445
2026-01-24 11:26:58.20	29.30	2.79	-46.9	-50.1	11.9	4.38e-03	123	41	0	2097152	60	11284
2026-01-24 11:26:59.21	29.41	2.83	-44.9	-47.2	15.5	7.00e-07	120	41	0	5242880	60	8011
2026-01-24 11:27:00.22	29.53	2.87	-41.2	-42.5	18.7	0.00e+00	123	41	0	8388608	56	5884
2026-01-24 11:27:01.23	29.65	2.90	-42.9	-44.5	17.7	0.00e+00	123	41	0	11534336	58	6625
2026-01-24 11:27:02.24	29.77	2.94	-42.7	-44.4	17.5	0.00e+00	123	41	0	14680064	58	6504
2026-01-24 11:27:03.25	29.89	2.97	-44.4	-46.4	15.4	0.00e+00	116	41	0	17825792	60	7348
2026-01-24 11:27:04.26	30.02	3.01	-45.9	-48.6	13.2	5.41e-05	121	41	0	20971520	60	9476
2026-01-24 11:27:05.27	30.14	3.04	-47.0	-50.4	11.6	2.31e-02	123	41	0	24117248	60	11556
2026-01-24 11:27:06.28	30.26	3.08	-49.9	-61.1	3.7	1.51e+00	0	41	104	25165824	60	39934
2026-01-24 11:27:07.29	30.38	3.11	-49.7	-62.2	3.5	1.52e+00	0	41	104	25165824	60	45221
2026-01-24 11:27:08.30	30.50	3.15	-49.7	-59.2	5.4	1.40e+00	92	41	104	25165824	60	31913
2026-01-24 11:27:09.31	30.62	3.18	-43.6	-45.3	16.4	0.00e+00	123	41	0	27262976	60	6480
2026-01-24 11:27:10.31	30.74	3.22	-49.8	-61.5	3.5	1.51e+00	0	41	104	28311552	60	41934
2026-01-24 11:27:11.33	30.87	3.25	-40.3	-41.9	19.4	0.00e+00	122	41	104	28311552	54	6144
2026-01-24 11:27:12.33	30.99	3.29	-42.9	-44.5	17.3	0.00e+00	123	41	0	30408704	60	5872
2026-01-24 11:27:13.34	31.11	3.32	-45.4	-47.8	13.8	7.00e-07	120	41	0	33554432	60	8582
2026-01-24 11:27:14.35	31.24	3.35	-45.3	-47.5	15.2	4.50e-06	122	41	0	36700160	60	8348
2026-01-24 11:27:15.36	31.36	3.39	-45.1	-47.3	14.7	0.00e+00	123	41	0	39845888	60	8120
2026-01-24 11:27:16.37	31.48	3.42	-44.9	-47.0	14.9	7.00e-07	122	41	0	42991616	60	7836
2026-01-24 11:27:17.38	31.61	3.46	-44.3	-46.2	15.8	0.00e+00	123	41	0	46137344	60	7207
2026-01-24 11:27:18.39	31.73	3.49	-45.1	-47.3	15.0	0.00e+00	123	41	0	49283072	60	8146
2026-01-24 11:27:19.40	31.86	3.53	-45.4	-47.7	14.2	7.00e-07	121	41	0	52428800	60	8516
2026-01-24 11:27:20.41	31.98	3.56	-46.3	-49.1	13.0	4.50e-05	122	41	0	55574528	60	10037
2026-01-24 11:27:21.42	32.11	3.59	-44.5	-46.4	15.9	5.30e-06	120	41	0	58720256	60	7337
2026-01-24 11:27:22.43	32.23	3.63	-42.9	-44.5	17.9	0.00e+00	123	41	0	61865984	60	5861
2026-01-24 11:27:23.44	32.36	3.66	-43.4	-45.0	17.0	0.00e+00	123	41	0	65011712	58	7028
2026-01-24 11:27:24.45	32.48	3.70	-44.0	-45.8	16.6	0.00e+00	123	41	0	68157440	60	6858
2026-01-24 11:27:25.46	32.61	3.73	-43.7	-45.5	16.8	0.00e+00	123	41	0	71303168	60	6581
2026-01-24 11:27:26.47	32.74	3.76	-43.3	-44.9	17.4	0.00e+00	122	41	0	74448896	60	6187
2026-01-24 11:27:27.48	32.86	3.80	-43.9	-45.7	16.9	0.00e+00	123	41	0	77594624	60	6750
2026-01-24 11:27:28.49	32.99	3.83	-43.5	-45.2	17.2	0.00e+00	123	41	0	80740352	60	6394
2026-01-24 11:27:29.50	33.12	3.87	-42.2	-43.6	19.1	0.00e+00	120	41	0	83886080	56	6667
2026-01-24 11:27:30.51	33.25	3.90	-43.1	-44.7	17.5	0.00e+00	123	41	0	87031808	58	6736
2026-01-24 11:27:31.52	33.38	3.93	-41.9	-43.3	19.2	0.00e+00	122	41	0	90177536	58	5757
2026-01-24 11:27:32.53	33.50	3.97	-40.5	-41.6	19.9	0.00e+00	123	41	0	93323264	54	5976
2026-01-24 11:27:33.54	33.63	4.00	-41.5	-42.8	19.3	0.00e+00	122	41	0	96468992	54	6858
2026-01-24 11:27:34.54	33.76	4.03	-40.2	-41.4	20.5	0.00e+00	123	41	0	99614720	54	5807
2026-01-24 11:27:35.55	33.89	4.06	-41.2	-42.5	19.7	0.00e+00	122	41	0	102760448	54	6584
2026-01-24 11:27:36.56	34.02	4.10	-41.4	-42.7	19.5	0.00e+00	122	41	0	105906176	54	6734
2026-01-24 11:27:37.57	34.15	4.13	-40.7	-41.9	20.0	0.00e+00	123	41	0	109051904	54	6158
2026-01-24 11:27:38.58	34.28	4.16	-41.9	-43.2	18.4	0.00e+00	123	41	0	112197632	54	7204
2026-01-24 11:27:39.59	34.41	4.20	-42.6	-44.1	18.0	0.00e+00	123	41	0	115343360	58	6293
2026-01-24 11:27:40.60	34.54	4.23	-42.9	-44.4	18.0	0.00e+00	122	41	0	118489088	58	6547
2026-01-24 11:27:41.61	34.67	4.26	-42.1	-43.5	18.7	0.00e+00	123	41	0	121634816	58	5908
2026-01-24 11:27:42.62	34.80	4.29	-40.9	-42.2	19.9	0.00e+00	123	41	0	124780544	56	5661
2026-01-24 11:27:43.63	34.93	4.33	-40.5	-41.7	20.4	0.00e+00	123	41	0	127926272	54	6023
2026-01-24 11:27:44.64	35.07	4.36	-41.0	-42.2	19.4	0.00e+00	120	41	0	131072000	54	6413
2026-01-24 11:27:45.64	35.20	4.39	-41.0	-42.3	19.8	0.00e+00	123	41	0	134217728	56	5744
2026-01-24 11:27:46.65	35.33	4.42	-41.8	-43.1	19.3	0.00e+00	123	41	0	137363456	56	6324
2026-01-24 11:27:47.66	35.46	4.46	-42.6	-44.1	18.1	0.00e+00	123	41	0	140509184	58	6303
2026-01-24 11:27:48.67	35.59	4.49	-39.9	-41.1	20.9	0.00e+00	123	41	0	143654912	54	5610
2026-01-24 11:27:49.68	35.73	4.52	-41.4	-42.7	19.4	0.00e+00	123	41	0	146800640	54	6752
2026-01-24 11:27:50.70	35.86	4.55	-42.0	-43.4	18.8	0.00e+00	122	41	0	149946368	56	6515
2026-01-24 11:27:51.70	35.99	4.58	-42.1	-43.5	18.7	0.00e+00	123	41	0	153092096	56	6602
2026-01-24 11:27:52.71	36.13	4.62	-43.2	-44.9	17.4	0.00e+00	122	41	0	156237824	58	6884
2026-01-24 11:27:53.72	36.26	4.65	-41.5	-42.8	19.6	0.00e+00	122	41	0	159383552	58	5432
2026-01-24 11:27:54.73	36.40	4.68	-42.3	-43.7	18.8	0.00e+00	123	41	0	162529280	58	6028
2026-01-24 11:27:55.74	36.53	4.71	-40.7	-41.9	20.1	0.00e+00	120	41	0	165675008	54	6170
2026-01-24 11:27:56.75	36.67	4.74	-38.8	-39.9	22.2	0.00e+00	122	41	0	168820736	52	5491
2026-01-24 11:27:57.76	36.80	4.77	-40.1	-41.2	20.7	0.00e+00	120	41	0	171966464	52	6407
2026-01-24 11:27:58.77	36.94	4.80	-40.8	-42.0	19.9	0.00e+00	123	41	0	175112192	54	6263
2026-01-24 11:27:59.78	37.07	4.83	-42.2	-43.6	18.9	0.00e+00	122	41	0	178257920	56	6676
2026-01-24 11:28:00.79	37.21	4.87	-41.3	-42.6	19.4	0.00e+00	123	41	0	181403648	56	5944
2026-01-24 11:28:01.79	37.35	4.90	-40.4	-41.5	20.4	0.00e+00	120	41	0	184549376	54	5920
2026-01-24 11:28:02.80	37.48	4.93	-38.8	-39.8	22.3	0.00e+00	120	41	0	187695104	52	5436
2026-01-24 11:28:03.80	37.62	4.96	-39.2	-40.3	21.3	0.00e+00	122	41	0	190840832	48	7255
2026-01-24 11:28:04.81	37.76	4.99	-39.0	-40.1	21.6	0.00e+00	122	41	0	193986560	52	5625
2026-01-24 11:28:05.82	37.89	5.02	-40.2	-41.4	20.5	0.00e+00	122	41	0	197132288	52	6522
2026-01-24 11:28:06.83	38.03	5.05	-41.1	-42.3	19.7	0.00e+00	120	41	0	200278016	54	6471
2026-01-24 11:28:07.84	38.17	5.08	-41.8	-43.2	19.0	0.00e+00	122	41	0	203423744	54	7140
2026-01-24 11:28:08.85	38.31	5.11	-41.6	-42.9	19.5	0.00e+00	120	41	0	206569472	56	6202
2026-01-24 11:28:09.86	38.45	5.14	-40.9	-42.1	20.3	0.00e+00	120	41	0	209715200	56	5607
2026-01-24 11:28:10.87	38.59	5.17	-39.5	-40.6	21.6	0.00e+00	122	41	0	212860928	52	5959
2026-01-24 11:28:11.88	38.73	5.20	-39.5	-40.5	21.6	0.00e+00	123	41	0	216006656	52	5918
2026-01-24 11:28:12.89	38.86	5.23	-40.7	-41.8	20.4	0.00e+00	122	41	0	219152384	52	6882
2026-01-24 11:28:13.90	39.00	5.26	-40.1	-41.2	20.9	0.00e+00	120	41	0	222298112	52	6405
2026-01-24 11:28:14.91	39.14	5.29	-39.5	-40.5	21.5	0.00e+00	123	41	0	225443840	52	5903
2026-01-24 11:28:15.92	39.28	5.32	-41.3	-42.5	19.8	0.00e+00	122	41	0	228589568	56	5904
2026-01-24 11:28:16.92	39.42	5.35	-39.6	-40.7	21.5	0.00e+00	122	42	0	231735296	52	6017
2026-01-24 11:28:17.93	39.57	5.38	-41.1	-42.4	19.5	0.00e+00	120	41	0	234881024	52	7315
2026-01-24 11:28:18.95	39.71	5.41	-38.3	-39.3	22.8	0.00e+00	123	41	0	238026752	50	5731
2026-01-24 11:28:19.95	39.85	5.43	-38.3	-39.3	22.4	0.00e+00	122	41	0	241172480	48	6480
2026-01-24 11:28:20.97	39.99	5.46	-39.2	-40.2	21.6	0.00e+00	123	41	0	244318208	50	6415
2026-01-24 11:28:21.97	40.13	5.49	-39.7	-40.9	21.0	0.00e+00	123	41	0	247463936	50	6888
2026-01-24 11:28:22.98	40.27	5.52	-40.6	-41.8	20.7	0.00e+00	120	41	0	250609664	54	6097
2026-01-24 11:28:24.00	40.42	5.55	-39.0	-40.0	21.9	0.00e+00	122	41	0	253755392	52	5591
2026-01-24 11:28:25.01	40.56	5.58	-40.7	-41.9	19.9	0.00e+00	123	41	0	256901120	52	6951
2026-01-24 11:28:26.02	40.70	5.61	-41.7	-43.0	19.1	0.00e+00	122	41	0	260046848	54	6974
2026-01-24 11:28:27.02	40.85	5.63	-41.3	-42.6	19.8	0.00e+00	122	41	0	263192576	56	5928
2026-01-24 11:28:28.04	40.99	5.66	-40.1	-41.3	20.7	0.00e+00	123	41	0	266338304	54	5752
2026-01-24 11:28:29.05	41.13	5.69	-41.3	-42.5	19.8	0.00e+00	122	41	0	269484032	54	6630
2026-01-24 11:28:30.05	41.28	5.72	-41.1	-42.3	19.8	0.00e+00	122	41	0	272629760	54	6490
2026-01-24 11:28:31.06	41.42	5.75	-41.5	-42.9	19.3	0.00e+00	116	41	0	275775488	54	6897
2026-01-24 11:28:32.07	41.57	5.77	-39.9	-41.0	21.1	0.00e+00	122	41	0	278921216	52	6272
2026-01-24 11:28:33.09	41.71	5.80	-41.2	-42.5	19.8	0.00e+00	122	41	0	282066944	54	6600
2026-01-24 11:28:34.10	41.86	5.83	-41.7	-43.0	19.5	0.00e+00	122	41	0	285212672	56	6261
2026-01-24 11:28:35.11	42.00	5.86	-39.8	-41.0	21.4	0.00e+00	122	41	0	288358400	52	6210
2026-01-24 11:28:36.11	42.15	5.88	-40.0	-41.1	21.2	0.00e+00	120	41	0	291504128	52	6302
2026-01-24 11:28:37.12	42.29	5.91	-41.5	-42.7	19.4	0.00e+00	123	41	0	294649856	54	6789
2026-01-24 11:28:38.13	42.44	5.94	-41.2	-42.4	19.5	0.00e+00	120	42	0	298844160	54	6572
2026-01-24 11:28:39.14	42.59	5.96	-41.4	-42.7	19.4	0.00e+00	120	41	0	301989888	56	6035
2026-01-24 11:28:40.15	42.73	5.99	-40.9	-42.1	20.3	0.00e+00	123	41	0	304087040	56	5647
2026-01-24 11:28:41.16	42.88	6.02	-40.9	-42.1	20.0	0.00e+00	120	41	0	307232768	54	6289
2026-01-24 11:28:42.17	43.03	6.04	-41.8	-43.1	19.4	0.00e+00	123	42	0	310378496	56	6314
2026-01-24 11:28:43.18	43.18	6.07	-39.8	-40.9	21.2	0.00e+00	122	42	0	313524224	52	6161
2026-01-24 11:28:44.19	43.32	6.10	-41.0	-42.3	20.0	0.00e+00	123	42	0	317718528	54	6438
2026-01-24 11:28:45.20	43.47	6.12	-41.1	-42.3	19.9	0.00e+00	123	41	0	320864256	54	6451
2026-01-24 11:28:46.21	43.62	6.15	-40.7	-41.9	20.3	0.00e+00	122	42	0	324009984	54	6202
2026-01-24 11:28:47.22	43.77	6.17	-40.9	-42.0	20.3	0.00e+00	123	41	0	326107136	54	6277
2026-01-24 11:28:48.23	43.92	6.20	-40.7	-41.9	20.3	0.00e+00	123	41	0	329252864	54	6157
2026-01-24 11:28:49.24	44.07	6.22	-40.7	-41.9	20.3	0.00e+00	120	41	0	333447168	54	6162
2026-01-24 11:28:50.25	44.22	6.25	-40.4	-41.6	20.8	0.00e+00	123	41	0	336592896	54	5971
2026-01-24 11:28:51.26	44.37	6.27	-41.3	-42.6	19.7	0.00e+00	123	41	0	339738624	54	6676
2026-01-24 11:28:52.26	44.51	6.30	-40.2	-41.3	20.9	0.00e+00	123	41	0	342884352	54	5756
2026-01-24 11:28:53.27	44.66	6.32	-40.6	-41.8	20.5	0.00e+00	123	41	0	346030080	54	6066
2026-01-24 11:28:54.28	44.81	6.35	-39.8	-40.9	21.0	0.00e+00	120	41	0	349175808	54	5528
2026-01-24 11:28:55.29	44.97	6.37	-40.9	-42.1	20.3	0.00e+00	123	41	0	352321536	54	6296
2026-01-24 11:28:56.30	45.12	6.40	-40.5	-41.7	20.5	0.00e+00	120	41	0	355467264	54	6031
2026-01-24 11:28:57.31	45.27	6.42	-41.1	-42.4	19.9	0.00e+00	123	42	0	358612992	54	6510
2026-01-24 11:28:58.32	45.42	6.45	-41.4	-42.7	19.5	0.00e+00	120	41	0	361758720	54	6766
2026-01-24 11:28:59.33	45.57	6.47	-41.7	-43.1	19.3	0.00e+00	122	42	0	364904448	56	6278
2026-01-24 11:29:00.34	45.72	6.49	-40.7	-41.9	20.6	0.00e+00	122	41	0	368050176	56	5488
2026-01-24 11:29:01.34	45.87	6.52	-40.4	-41.6	20.6	0.00e+00	122	42	0	371195904	54	5928
2026-01-24 11:29:02.36	46.03	6.54	-40.4	-41.6	20.7	0.00e+00	123	41	0	374341632	54	5938
2026-01-24 11:29:03.36	46.18	6.56	-40.0	-41.1	20.7	0.00e+00	122	41	0	377487360	52	6342
2026-01-24 11:29:04.37	46.33	6.59	-40.2	-41.3	20.9	0.00e+00	122	42	0	380633088	52	6440
2026-01-24 11:29:05.38	46.48	6.61	-41.1	-42.3	19.9	0.00e+00	123	42	0	383778816	54	6486
2026-01-24 11:29:06.40	46.64	6.63	-40.1	-41.2	21.0	0.00e+00	122	42	0	386924544	54	5697
2026-01-24 11:29:07.41	46.79	6.66	-39.9	-41.0	21.6	0.00e+00	123	41	0	390070272	54	5543
2026-01-24 11:29:08.42	46.95	6.68	-39.6	-40.7	21.5	0.00e+00	123	42	0	393216000	52	6001
2026-01-24 11:29:09.42	47.10	6.70	-39.7	-40.8	21.3	0.00e+00	122	42	0	396361728	52	6123
2026-01-24 11:29:10.43	47.25	6.72	-39.9	-41.0	20.9	0.00e+00	121	42	0	399507456	52	6230
2026-01-24 11:29:11.45	47.41	6.75	-39.8	-40.9	21.4	0.00e+00	123	42	0	402653184	52	6155
2026-01-24 11:29:12.46	47.56	6.77	-39.4	-40.5	21.6	0.00e+00	122	41	0	405798912	52	5891
2026-01-24 11:29:13.46	47.72	6.79	-39.5	-40.5	21.6	0.00e+00	123	42	0	408944640	52	5907
2026-01-24 11:29:14.47	47.87	6.81	-40.0	-41.1	21.4	0.00e+00	120	42	0	412090368	52	6323
2026-01-24 11:29:15.48	48.03	6.83	-40.3	-41.4	21.1	0.00e+00	123	42	0	415236096	52	6524
2026-01-24 11:29:16.49	48.18	6.86	-39.9	-41.0	21.4	0.00e+00	123	42	0	418381824	52	6268
2026-01-24 11:29:17.50	48.34	6.88	-40.4	-41.6	20.4	0.00e+00	120	41	0	421527552	52	6685
2026-01-24 11:29:18.51	48.49	6.90	-40.2	-41.3	20.7	0.00e+00	123	41	0	424673280	52	6462
2026-01-24 11:29:19.52	48.65	6.92	-39.9	-41.0	21.0	0.00e+00	123	42	0	427819008	52	6220
2026-01-24 11:29:20.53	48.81	6.94	-39.5	-40.6	21.6	0.00e+00	122	42	0	430964736	52	5931
2026-01-24 11:29:21.54	48.96	6.96	-39.8	-40.8	21.4	0.00e+00	122	42	0	434110464	52	6124
2026-01-24 11:29:22.55	49.12	6.98	-40.4	-41.6	20.5	0.00e+00	123	42	0	437256192	52	6664
2026-01-24 11:29:23.56	49.28	7.00	-41.4	-42.6	19.9	0.00e+00	123	42	0	440401920	54	6714
2026-01-24 11:29:24.57	49.43	7.02	-40.8	-42.0	20.3	0.00e+00	123	41	0	443547648	54	6234
2026-01-24 11:29:25.58	49.59	7.04	-40.4	-41.5	20.8	0.00e+00	123	41	0	446693376	54	5917
2026-01-24 11:29:26.58	49.75	7.06	-40.2	-41.4	20.9	0.00e+00	120	41	0	449839104	54	5795
2026-01-24 11:29:27.60	49.91	7.08	-39.9	-40.9	21.4	0.00e+00	123	42	0	452984832	54	5524
2026-01-24 11:29:28.61	50.07	7.10	-39.4	-40.4	21.8	0.00e+00	122	41	0	456130560	52	5827
2026-01-24 11:29:29.61	50.22	7.12	-40.0	-41.1	21.2	0.00e+00	123	42	0	459276288	52	6336
2026-01-24 11:29:30.62	50.38	7.14	-39.4	-40.4	21.7	0.00e+00	123	42	0	462422016	52	5855
2026-01-24 11:29:31.63	50.54	7.16	-39.4	-40.5	21.7	0.00e+00	120	41	0	465567744	52	5886
2026-01-24 11:29:32.64	50.70	7.18	-39.8	-40.9	21.3	0.00e+00	122	42	0	468713472	52	6159
2026-01-24 11:29:33.65	50.86	7.20	-39.5	-40.5	21.7	0.00e+00	120	41	0	471859200	52	5907
2026-01-24 11:29:34.65	51.02	7.21	-39.5	-40.5	21.6	0.00e+00	122	41	0	475004928	52	5914
2026-01-24 11:29:35.66	51.17	7.23	-40.4	-41.6	20.7	0.00e+00	122	42	0	478150656	52	6669
2026-01-24 11:29:36.67	51.33	7.25	-39.8	-40.9	21.2	0.00e+00	123	42	0	481296384	52	6161
2026-01-24 11:29:37.69	51.50	7.27	-40.4	-41.5	20.8	0.00e+00	123	42	0	484442112	52	6628
2026-01-24 11:29:38.69	51.65	7.29	-40.3	-41.5	20.8	0.00e+00	122	42	0	487587840	52	6595
2026-01-24 11:29:39.70	51.82	7.30	-40.6	-41.8	20.6	0.00e+00	123	42	0	490733568	54	6089
2026-01-24 11:29:40.71	51.98	7.32	-40.3	-41.5	20.7	0.00e+00	123	42	0	493879296	54	5880
2026-01-24 11:29:41.72	52.14	7.34	-39.7	-40.8	21.4	0.00e+00	122	42	0	497025024	52	6105
2026-01-24 11:29:42.73	52.30	7.36	-40.4	-41.6	20.7	0.00e+00	122	42	0	500170752	52	6656
2026-01-24 11:29:43.74	52.46	7.37	-39.8	-41.0	21.2	0.00e+00	123	42	0	503316480	52	6206
2026-01-24 11:29:44.74	52.62	7.39	-39.8	-40.8	21.4	0.00e+00	122	42	0	506462208	52	6133
2026-01-24 11:29:45.75	52.78	7.41	-39.4	-40.4	21.7	0.00e+00	123	42	0	509607936	52	5835
2026-01-24 11:29:46.77	52.94	7.42	-39.2	-40.3	21.9	0.00e+00	123	42	0	512753664	52	5746
2026-01-24 11:29:47.78	53.10	7.44	-39.4	-40.4	21.8	0.00e+00	123	42	0	515899392	52	5842
2026-01-24 11:29:48.78	53.26	7.45	-40.2	-41.4	20.9	0.00e+00	122	42	0	519045120	52	6514
2026-01-24 11:29:49.79	53.43	7.47	-39.8	-40.9	21.3	0.00e+00	122	42	0	522190848	52	6196
2026-01-24 11:29:50.80	53.59	7.49	-39.7	-40.8	21.8	0.00e+00	123	42	0	525336576	52	6085
2026-01-24 11:29:51.81	53.75	7.50	-39.3	-40.4	21.7	0.00e+00	123	42	0	528482304	52	5819
2026-01-24 11:29:52.82	53.91	7.52	-39.3	-40.4	22.0	0.00e+00	123	42	0	531628032	52	5796
2026-01-24 11:29:53.83	54.08	7.53	-39.3	-40.4	21.8	0.00e+00	123	42	0	534773760	52	5793
2026-01-24 11:29:54.84	54.24	7.55	-39.6	-40.7	21.5	0.00e+00	123	42	0	537919488	52	6026
2026-01-24 11:29:55.85	54.40	7.56	-39.7	-40.8	21.0	0.00e+00	123	42	0	541065216	52	6133
2026-01-24 11:29:56.86	54.57	7.58	-40.5	-41.7	21.0	0.00e+00	122	42	0	544210944	52	6751
2026-01-24 11:29:57.87	54.73	7.59	-39.5	-40.6	21.7	0.00e+00	121	42	0	547356672	52	5954
2026-01-24 11:29:58.88	54.89	7.60	-39.6	-40.7	21.4	0.00e+00	122	42	0	550502400	52	6052
2026-01-24 11:29:59.89	55.06	7.62	-39.4	-40.4	21.8	0.00e+00	122	42	0	553648128	52	5857
2026-01-24 11:30:00.89	55.22	7.63	-39.4	-40.4	21.8	0.00e+00	123	42	0	556793856	52	5831
2026-01-24 11:30:01.90	55.38	7.65	-40.1	-41.2	21.1	0.00e+00	123	42	0	559939584	52	6372
2026-01-24 11:30:02.91	55.55	7.66	-39.7	-40.8	21.4	0.00e+00	120	42	0	563085312	52	6067
2026-01-24 11:30:03.92	55.71	7.67	-39.8	-40.9	21.5	0.00e+00	122	42	0	566231040	52	6140
2026-01-24 11:30:04.93	55.88	7.68	-40.0	-41.1	21.0	0.00e+00	123	42	0	569376768	52	6312
2026-01-24 11:30:05.94	56.04	7.70	-39.9	-41.0	21.3	0.00e+00	120	42	0	572522496	52	6227
2026-01-24 11:30:06.95	56.21	7.71	-40.1	-41.3	20.9	0.00e+00	122	42	0	575668224	52	6424
2026-01-24 11:30:07.96	56.37	7.72	-40.5	-41.7	20.6	0.00e+00	120	42	0	578813952	52	6729
2026-01-24 11:30:08.97	56.54	7.73	-40.2	-41.3	21.0	0.00e+00	123	42	0	581959680	52	6478
2026-01-24 11:30:09.98	56.70	7.75	-40.2	-41.3	20.9	0.00e+00	123	42	0	585105408	52	6483
2026-01-24 11:30:10.99	56.87	7.76	-40.2	-41.4	20.9	0.00e+00	123	42	0	588251136	52	6518
2026-01-24 11:30:12.00	57.03	7.77	-39.7	-40.8	21.5	0.00e+00	123	42	0	591396864	52	6067
2026-01-24 11:30:13.00	57.20	7.78	-39.2	-40.2	21.9	0.00e+00	123	42	0	594542592	52	5706
2026-01-24 11:30:14.01	57.36	7.79	-40.3	-41.4	20.9	0.00e+00	118	42	0	597688320	52	6532
2026-01-24 11:30:15.02	57.53	7.80	-39.2	-40.3	22.2	0.00e+00	122	42	0	600834048	52	5734
2026-01-24 11:30:16.03	57.69	7.81	-40.1	-41.2	21.2	0.00e+00	123	42	0	603979776	52	6369
2026-01-24 11:30:17.04	57.86	7.82	-39.7	-40.8	21.5	0.00e+00	122	42	0	607125504	52	6097
2026-01-24 11:30:18.05	58.03	7.84	-39.0	-40.0	22.1	0.00e+00	122	42	0	610271232	52	5592
2026-01-24 11:30:19.06	58.19	7.85	-40.0	-41.1	21.3	0.00e+00	123	42	0	613416960	52	6305
2026-01-24 11:30:20.07	58.36	7.86	-39.8	-40.9	21.4	0.00e+00	120	42	0	616562688	52	6162
2026-01-24 11:30:21.08	58.52	7.87	-39.3	-40.3	21.9	0.00e+00	123	42	0	619708416	52	5786
2026-01-24 11:30:22.09	58.69	7.88	-40.1	-41.2	21.3	0.00e+00	123	42	0	622854144	52	6379
2026-01-24 11:30:23.10	58.86	7.88	-39.7	-40.8	21.5	0.00e+00	122	42	0	625999872	52	6124
2026-01-24 11:30:24.11	59.03	7.89	-40.0	-41.1	21.3	0.00e+00	120	42	0	629145600	52	6302
2026-01-24 11:30:25.12	59.19	7.90	-40.4	-41.5	20.9	0.00e+00	123	42	0	632291328	52	6634
2026-01-24 11:30:26.13	59.36	7.91	-39.6	-40.6	21.5	0.00e+00	123	42	0	635437056	52	5990
2026-01-24 11:30:27.14	59.53	7.92	-39.7	-40.8	21.3	0.00e+00	120	42	0	638582784	52	6100
2026-01-24 11:30:28.15	59.69	7.93	-40.2	-41.3	21.2	0.00e+00	122	42	0	641728512	52	6487
2026-01-24 11:30:29.16	59.86	7.94	-40.0	-41.1	21.0	0.00e+00	121	42	0	644874240	52	6287
2026-01-24 11:30:30.17	60.03	7.94	-39.6	-40.7	21.6	0.00e+00	123	42	0	648019968	52	6046
2026-01-24 11:30:31.17	60.19	7.95	-39.0	-40.1	22.3	0.00e+00	121	42	0	651165696	52	5598
2026-01-24 11:30:32.18	60.36	7.96	-38.6	-39.6	22.4	0.00e+00	123	42	0	654311424	50	5969
2026-01-24 11:30:33.19	60.53	7.97	-40.0	-41.1	21.2	0.00e+00	123	42	0	657457152	52	6316
2026-01-24 11:30:34.20	60.70	7.97	-40.0	-41.1	21.1	0.00e+00	122	42	0	660602880	52	6332
2026-01-24 11:30:35.21	60.87	7.98	-40.5	-41.7	20.3	0.00e+00	120	42	0	663748608	52	6735
2026-01-24 11:30:36.22	61.03	7.99	-39.4	-40.5	21.4	0.00e+00	120	42	0	666894336	52	5903
2026-01-24 11:30:37.23	61.20	7.99	-39.3	-40.4	21.9	0.00e+00	122	42	0	670040064	52	5794
2026-01-24 11:30:38.24	61.37	8.00	-39.7	-40.8	21.4	0.00e+00	120	42	0	673185792	52	6102
2026-01-24 11:30:39.25	61.54	8.01	-39.5	-40.6	21.5	0.00e+00	122	42	0	676331520	52	5959
2026-01-24 11:30:40.26	61.71	8.01	-39.4	-40.5	21.6	0.00e+00	120	42	0	679477248	52	5900
2026-01-24 11:30:41.27	61.87	8.02	-38.9	-40.0	22.0	0.00e+00	123	42	0	682622976	50	6223
2026-01-24 11:30:42.28	62.04	8.02	-39.5	-40.6	21.7	0.00e+00	123	42	0	686817280	50	6697
2026-01-24 11:30:43.29	62.21	8.03	-40.0	-41.1	21.1	0.00e+00	122	42	0	689963008	52	6314
2026-01-24 11:30:44.30	62.38	8.03	-39.8	-40.9	21.4	0.00e+00	122	42	0	692060160	52	6141
2026-01-24 11:30:45.31	62.55	8.04	-39.4	-40.5	21.5	0.00e+00	122	42	0	695205888	52	5904
2026-01-24 11:30:46.32	62.72	8.04	-38.7	-39.7	22.5	0.00e+00	123	42	0	698351616	50	6041
2026-01-24 11:30:47.32	62.88	8.05	-39.1	-40.2	21.8	0.00e+00	123	42	0	701497344	50	6388
2026-01-24 11:30:48.33	63.05	8.05	-39.3	-40.3	21.9	0.00e+00	123	42	0	705691648	50	6480
2026-01-24 11:30:49.34	63.22	8.06	-39.0	-40.1	22.0	0.00e+00	123	42	0	708837376	50	6300
2026-01-24 11:30:50.35	63.39	8.06	-38.8	-39.8	22.2	0.00e+00	123	42	0	711983104	50	6134
2026-01-24 11:30:51.36	63.56	8.06	-39.7	-40.8	21.5	0.00e+00	123	42	0	714080256	52	6118
2026-01-24 11:30:52.37	63.73	8.07	-39.4	-40.4	21.6	0.00e+00	123	42	0	717225984	52	5856
2026-01-24 11:30:53.38	63.90	8.07	-40.1	-41.2	21.1	0.00e+00	123	42	0	721420288	52	6387
2026-01-24 11:30:54.39	64.07	8.07	-39.8	-40.9	21.3	0.00e+00	122	42	0	724566016	52	6192
2026-01-24 11:30:55.40	64.24	8.08	-39.3	-40.4	21.7	0.00e+00	123	42	0	727711744	52	5832
2026-01-24 11:30:56.41	64.40	8.08	-39.7	-40.8	21.3	0.00e+00	123	42	0	730857472	52	6120
2026-01-24 11:30:57.42	64.57	8.08	-40.1	-41.3	21.1	0.00e+00	123	42	0	734003200	52	6425
2026-01-24 11:30:58.43	64.74	8.08	-40.0	-41.1	21.1	0.00e+00	123	42	0	737148928	52	6314
2026-01-24 11:30:59.44	64.91	8.09	-39.8	-40.9	21.4	0.00e+00	123	42	0	740294656	52	6151
2026-01-24 11:31:00.45	65.08	8.09	-40.1	-41.3	20.9	0.00e+00	122	42	0	743440384	52	6440
2026-01-24 11:31:01.47	65.25	8.09	-39.9	-41.0	21.2	0.00e+00	123	42	0	746586112	52	6246
2026-01-24 11:31:02.48	65.42	8.09	-39.9	-41.0	21.2	0.00e+00	123	42	0	749731840	52	6266
2026-01-24 11:31:03.48	65.59	8.09	-39.6	-40.7	21.4	0.00e+00	122	42	0	752877568	52	6006
2026-01-24 11:31:04.49	65.76	8.09	-40.0	-41.1	21.1	0.00e+00	122	42	0	756023296	52	6298
2026-01-24 11:31:05.50	65.93	8.09	-39.8	-40.9	21.3	0.00e+00	120	42	0	759169024	52	6141
2026-01-24 11:31:06.51	66.10	8.09	-39.5	-40.6	21.6	0.00e+00	123	42	0	762314752	52	5974
2026-01-24 11:31:07.52	66.27	8.09	-39.6	-40.7	21.5	0.00e+00	122	42	0	765460480	52	6038
2026-01-24 11:31:08.54	66.44	8.09	-39.8	-40.9	21.3	0.00e+00	123	42	0	768606208	52	6159
2026-01-24 11:31:09.55	66.61	8.09	-39.3	-40.3	21.8	0.00e+00	122	42	0	771751936	52	5768
2026-01-24 11:31:10.56	66.77	8.09	-39.1	-40.2	21.9	0.00e+00	120	42	0	774897664	52	5668
2026-01-24 11:31:11.56	66.94	8.09	-39.1	-40.1	21.9	0.00e+00	123	42	0	778043392	52	5632
2026-01-24 11:31:12.57	67.11	8.09	-39.3	-40.3	21.8	0.00e+00	123	42	0	781189120	52	5783
2026-01-24 11:31:13.58	67.28	8.09	-39.1	-40.2	22.0	0.00e+00	122	42	0	784334848	52	5672
2026-01-24 11:31:14.59	67.45	8.09	-39.4	-40.5	21.6	0.00e+00	123	42	0	787480576	52	5895
2026-01-24 11:31:15.61	67.62	8.09	-39.5	-40.6	21.6	0.00e+00	122	42	0	790626304	52	5934
2026-01-24 11:31:16.61	67.79	8.08	-39.1	-40.1	22.0	0.00e+00	123	42	0	793772032	52	5641
2026-01-24 11:31:17.62	67.96	8.08	-38.9	-39.9	22.1	0.00e+00	123	42	0	796917760	52	5510
2026-01-24 11:31:18.63	68.13	8.08	-39.2	-40.2	21.9	0.00e+00	122	42	0	800063488	52	5722
2026-01-24 11:31:19.64	68.30	8.08	-39.2	-40.2	21.7	0.00e+00	120	42	0	803209216	52	5708
2026-01-24 11:31:20.65	68.47	8.08	-38.9	-39.9	22.2	0.00e+00	123	42	0	806354944	52	5516
2026-01-24 11:31:21.66	68.63	8.07	-39.2	-40.2	21.9	0.00e+00	123	42	0	809500672	50	6382
2026-01-24 11:31:22.67	68.80	8.07	-38.8	-39.8	22.3	0.00e+00	121	42	0	812646400	50	6078
2026-01-24 11:31:23.68	68.97	8.07	-39.6	-40.7	21.4	0.00e+00	123	42	0	815792128	50	6760
2026-01-24 11:31:24.70	69.14	8.06	-39.3	-40.4	21.7	0.00e+00	123	42	0	818937856	52	5829
2026-01-24 11:31:25.70	69.31	8.06	-39.6	-40.7	21.5	0.00e+00	122	42	0	822083584	52	6027
2026-01-24 11:31:26.72	69.48	8.06	-39.4	-40.5	21.6	0.00e+00	120	42	0	825229312	52	5871
2026-01-24 11:31:27.73	69.65	8.05	-39.1	-40.1	22.0	0.00e+00	123	42	0	828375040	52	5643
2026-01-24 11:31:28.74	69.82	8.05	-39.9	-41.0	21.3	0.00e+00	122	42	0	831520768	52	6247
2026-01-24 11:31:29.75	69.99	8.04	-39.2	-40.3	21.9	0.00e+00	123	42	0	834666496	52	5737
2026-01-24 11:31:30.75	70.15	8.04	-38.6	-39.6	22.5	0.00e+00	122	42	0	837812224	50	5967
2026-01-24 11:31:31.76	70.32	8.03	-38.5	-39.5	22.5	0.00e+00	120	42	0	840957952	50	5905
2026-01-24 11:31:32.78	70.49	8.03	-39.1	-40.1	22.0	0.00e+00	122	42	0	844103680	50	6350
2026-01-24 11:31:33.79	70.66	8.02	-39.0	-40.1	22.1	0.00e+00	120	42	0	847249408	50	6292
2026-01-24 11:31:34.80	70.83	8.02	-38.8	-39.9	22.2	0.00e+00	122	42	0	850395136	50	6146
2026-01-24 11:31:35.80	71.00	8.01	-39.6	-40.6	21.4	0.00e+00	122	42	0	853540864	50	6719
2026-01-24 11:31:36.81	71.17	8.01	-40.2	-41.3	21.0	0.00e+00	124	42	0	856686592	52	6468
2026-01-24 11:31:37.82	71.33	8.00	-39.5	-40.6	21.6	0.00e+00	123	42	0	859832320	52	5939
2026-01-24 11:31:38.83	71.50	7.99	-38.9	-39.9	22.1	0.00e+00	122	42	0	862978048	52	5528
2026-01-24 11:31:39.84	71.67	7.99	-38.5	-39.5	22.5	0.00e+00	123	42	0	866123776	50	5866
2026-01-24 11:31:40.85	71.84	7.98	-39.1	-40.2	21.9	0.00e+00	122	42	0	869269504	50	6374
2026-01-24 11:31:41.86	72.01	7.97	-39.5	-40.5	21.6	0.00e+00	123	42	0	872415232	50	6648
2026-01-24 11:31:42.87	72.17	7.97	-39.4	-40.4	21.8	0.00e+00	122	42	0	875560960	50	6552
2026-01-24 11:31:43.88	72.34	7.96	-39.5	-40.6	21.5	0.00e+00	123	42	0	878706688	50	6655
2026-01-24 11:31:44.89	72.51	7.95	-39.7	-40.8	21.5	0.00e+00	123	42	0	881852416	50	6856
2026-01-24 11:31:45.90	72.68	7.94	-39.5	-40.6	21.5	0.00e+00	122	42	0	884998144	50	6680
2026-01-24 11:31:46.91	72.85	7.93	-39.3	-40.3	21.8	0.00e+00	122	42	0	888143872	50	6496
2026-01-24 11:31:47.92	73.01	7.93	-39.6	-40.7	21.5	0.00e+00	123	42	0	891289600	50	6743
2026-01-24 11:31:48.93	73.18	7.92	-39.5	-40.5	21.6	0.00e+00	123	42	0	894435328	50	6632
2026-01-24 11:31:49.94	73.35	7.91	-39.6	-40.7	21.5	0.00e+00	123	42	0	897581056	50	6755
2026-01-24 11:31:50.95	73.52	7.90	-39.5	-40.6	21.6	0.00e+00	120	42	0	900726784	50	6670
2026-01-24 11:31:51.96	73.68	7.89	-39.5	-40.6	21.6	0.00e+00	122	42	0	903872512	50	6659
2026-01-24 11:31:52.97	73.85	7.88	-39.2	-40.3	21.9	0.00e+00	122	42	0	907018240	50	6428
2026-01-24 11:31:53.98	74.02	7.87	-39.1	-40.2	21.9	0.00e+00	122	42	0	910163968	50	6364
2026-01-24 11:31:54.99	74.18	7.86	-39.4	-40.5	21.6	0.00e+00	123	42	0	913309696	50	6582
2026-01-24 11:31:56.00	74.35	7.85	-39.6	-40.6	21.3	0.00e+00	123	42	0	916455424	50	6716
2026-01-24 11:31:57.01	74.52	7.84	-39.6	-40.7	21.3	0.00e+00	122	42	0	919601152	52	6051
2026-01-24 11:31:58.02	74.68	7.83	-39.8	-40.9	21.3	0.00e+00	123	42	0	922746880	52	6163
2026-01-24 11:31:59.03	74.85	7.82	-39.6	-40.7	21.5	0.00e+00	123	42	0	925892608	52	6017
2026-01-24 11:32:00.04	75.02	7.81	-39.6	-40.7	21.5	0.00e+00	122	42	0	929038336	52	6024
2026-01-24 11:32:01.02	75.18	7.80	-39.7	-40.8	21.4	0.00e+00	123	42	0	932184064	52	6068
2026-01-24 11:32:02.02	75.34	7.79	-39.6	-40.7	21.3	0.00e+00	123	42	0	935329792	52	6055
2026-01-24 11:32:03.03	75.51	7.78	-39.6	-40.6	21.5	0.00e+00	123	42	0	938475520	52	5984
2026-01-24 11:32:04.04	75.67	7.77	-39.6	-40.7	21.5	0.00e+00	123	42	0	941621248	52	6010
2026-01-24 11:32:05.05	75.84	7.75	-39.7	-40.8	21.3	0.00e+00	122	42	0	944766976	52	6133
2026-01-24 11:32:06.07	76.01	7.74	-39.8	-40.9	21.3	0.00e+00	122	42	0	947912704	52	6203
2026-01-24 11:32:07.08	76.17	7.73	-39.8	-41.0	21.2	0.00e+00	123	42	0	951058432	52	6208
2026-01-24 11:32:08.09	76.34	7.72	-39.8	-40.9	21.4	0.00e+00	123	42	0	954204160	52	6148
2026-01-24 11:32:09.10	76.50	7.71	-40.0	-41.1	21.2	0.00e+00	122	42	0	957349888	52	6333
2026-01-24 11:32:10.11	76.67	7.69	-39.9	-41.1	21.1	0.00e+00	123	42	0	960495616	52	6306
2026-01-24 11:32:11.12	76.83	7.68	-40.3	-41.4	20.9	0.00e+00	123	42	0	963641344	52	6543
2026-01-24 11:32:12.13	77.00	7.67	-39.9	-41.0	21.2	0.00e+00	123	42	0	966787072	52	6238
2026-01-24 11:32:13.14	77.16	7.65	-39.9	-41.0	21.2	0.00e+00	120	42	0	969932800	52	6248
2026-01-24 11:32:14.15	77.33	7.64	-39.8	-41.0	21.2	0.00e+00	123	42	0	973078528	52	6218
2026-01-24 11:32:15.16	77.49	7.63	-39.8	-40.9	21.4	0.00e+00	120	42	0	976224256	52	6158
2026-01-24 11:32:16.17	77.66	7.61	-39.7	-40.8	21.4	0.00e+00	123	42	0	979369984	52	6114
2026-01-24 11:32:17.18	77.82	7.60	-39.7	-40.8	21.4	0.00e+00	122	42	0	982515712	52	6127
2026-01-24 11:32:18.19	77.98	7.58	-39.7	-40.8	21.3	0.00e+00	123	42	0	985661440	52	6108
2026-01-24 11:32:19.20	78.15	7.57	-39.7	-40.8	21.4	0.00e+00	123	42	0	988807168	52	6082
2026-01-24 11:32:20.21	78.31	7.56	-39.8	-40.9	21.3	0.00e+00	122	42	0	991952896	52	6155
2026-01-24 11:32:21.22	78.48	7.54	-39.7	-40.8	21.4	0.00e+00	122	42	0	995098624	52	6112
2026-01-24 11:32:22.23	78.64	7.53	-39.6	-40.7	21.4	0.00e+00	123	42	0	998244352	52	6014
2026-01-24 11:32:23.24	78.80	7.51	-39.8	-40.9	21.3	0.00e+00	123	42	0	1001390080	52	6137
2026-01-24 11:32:24.24	78.96	7.50	-39.6	-40.7	21.4	0.00e+00	123	42	0	1004535808	52	6054
2026-01-24 11:32:25.25	79.13	7.48	-39.7	-40.8	21.3	0.00e+00	122	42	0	1007681536	52	6087
2026-01-24 11:32:26.26	79.29	7.46	-39.7	-40.8	21.3	0.00e+00	122	42	0	1010827264	52	6104
2026-01-24 11:32:27.26	79.45	7.45	-39.7	-40.9	21.2	0.00e+00	123	42	0	1013972992	52	6136
2026-01-24 11:32:28.27	79.61	7.43	-39.8	-40.9	21.2	0.00e+00	123	42	0	1017118720	52	6190
2026-01-24 11:32:29.29	79.78	7.42	-39.6	-40.7	21.4	0.00e+00	122	42	0	1020264448	52	6024
2026-01-24 11:32:30.30	79.94	7.40	-39.6	-40.7	21.4	0.00e+00	122	42	0	1023410176	52	6032
2026-01-24 11:32:31.31	80.10	7.38	-39.7	-40.8	21.5	0.00e+00	122	42	0	1026555904	52	6132
2026-01-24 11:32:32.32	80.26	7.37	-39.7	-40.8	21.4	0.00e+00	123	42	0	1029701632	52	6101
2026-01-24 11:32:33.32	80.42	7.35	-39.4	-40.5	21.7	0.00e+00	120	42	0	1032847360	52	5863
2026-01-24 11:32:34.33	80.58	7.33	-39.4	-40.5	21.5	0.00e+00	120	42	0	1035993088	52	5925
2026-01-24 11:32:35.34	80.74	7.31	-39.4	-40.5	21.6	0.00e+00	123	42	0	1039138816	52	5905
2026-01-24 11:32:36.35	80.90	7.30	-39.6	-40.8	21.4	0.00e+00	120	42	0	1042284544	52	6079
2026-01-24 11:32:37.36	81.06	7.28	-40.1	-41.3	21.1	0.00e+00	122	42	0	1045430272	52	6440
2026-01-24 11:32:38.37	81.23	7.26	-40.1	-41.3	20.8	0.00e+00	120	42	0	1048576000	52	6440
2026-01-24 11:32:39.39	81.39	7.24	-39.8	-40.9	21.2	0.00e+00	123	42	0	1052770304	52	6181
2026-01-24 11:32:40.40	81.55	7.22	-39.7	-40.8	21.3	0.00e+00	123	42	0	1054867456	52	6085
2026-01-24 11:32:41.41	81.71	7.21	-40.2	-41.4	20.7	0.00e+00	123	42	0	1058013184	52	6526
2026-01-24 11:32:42.42	81.87	7.19	-40.0	-41.2	21.0	0.00e+00	123	42	0	1061158912	52	6377
2026-01-24 11:32:43.43	82.03	7.17	-39.3	-40.4	21.8	0.00e+00	122	42	0	1064304640	52	5822
2026-01-24 11:32:44.44	82.19	7.15	-39.4	-40.5	21.6	0.00e+00	122	42	0	1068498944	52	5876
2026-01-24 11:32:45.45	82.35	7.13	-39.6	-40.7	21.4	0.00e+00	123	42	0	1071644672	52	6062
2026-01-24 11:32:46.46	82.50	7.11	-39.4	-40.5	21.7	0.00e+00	123	42	0	1074790400	52	5898
2026-01-24 11:32:47.46	82.66	7.09	-39.3	-40.4	21.7	0.00e+00	121	42	0	1077936128	52	5799
2026-01-24 11:32:48.47	82.82	7.07	-39.2	-40.2	21.8	0.00e+00	122	42	0	1080033280	52	5707
2026-01-24 11:32:49.48	82.98	7.05	-39.5	-40.6	21.6	0.00e+00	123	42	0	1084227584	52	5932
2026-01-24 11:32:50.49	83.14	7.03	-40.0	-41.2	21.0	0.00e+00	122	42	0	1087373312	52	6354
2026-01-24 11:32:51.50	83.29	7.01	-39.5	-40.5	21.6	0.00e+00	123	42	0	1090519040	52	5926
2026-01-24 11:32:52.51	83.45	6.99	-39.7	-40.8	21.3	0.00e+00	123	42	0	1093664768	52	6115
2026-01-24 11:32:53.52	83.61	6.97	-40.0	-41.1	21.2	0.00e+00	123	42	0	1096810496	52	6295
2026-01-24 11:32:54.53	83.77	6.95	-39.6	-40.6	21.5	0.00e+00	123	42	0	1099956224	52	5991
2026-01-24 11:32:55.54	83.92	6.93	-39.1	-40.2	21.8	0.00e+00	123	42	0	1103101952	52	5660
2026-01-24 11:32:56.55	84.08	6.91	-39.8	-40.9	21.3	0.00e+00	123	42	0	1106247680	52	6150
2026-01-24 11:32:57.56	84.24	6.89	-39.3	-40.3	21.7	0.00e+00	122	42	0	1109393408	52	5787
2026-01-24 11:32:58.57	84.39	6.87	-40.0	-41.1	21.4	0.00e+00	123	42	0	1112539136	52	6336
2026-01-24 11:32:59.58	84.55	6.84	-39.4	-40.4	21.4	0.00e+00	123	42	0	1115684864	52	5857
2026-01-24 11:33:00.59	84.71	6.82	-40.0	-41.1	21.1	0.00e+00	120	42	0	1118830592	52	6320
2026-01-24 11:33:01.60	84.86	6.80	-39.9	-41.0	21.3	0.00e+00	122	42	0	1121976320	52	6248
2026-01-24 11:33:02.61	85.02	6.78	-39.7	-40.8	21.5	0.00e+00	123	42	0	1125122048	52	6117
2026-01-24 11:33:03.62	85.17	6.76	-39.6	-40.7	21.3	0.00e+00	122	42	0	1128267776	52	6046
2026-01-24 11:33:04.63	85.33	6.73	-40.1	-41.2	21.0	0.00e+00	123	42	0	1131413504	52	6376
2026-01-24 11:33:05.63	85.48	6.71	-39.9	-41.0	21.1	0.00e+00	122	42	0	1134559232	52	6244
2026-01-24 11:33:06.65	85.64	6.69	-40.5	-41.7	20.7	0.00e+00	123	42	0	1137704960	52	6731
2026-01-24 11:33:07.66	85.79	6.67	-39.7	-40.8	21.4	0.00e+00	120	42	0	1140850688	52	6124
2026-01-24 11:33:08.67	85.95	6.64	-38.8	-39.9	21.8	0.00e+00	123	42	0	1143996416	52	5478
2026-01-24 11:33:09.68	86.10	6.62	-40.1	-41.3	20.7	0.00e+00	122	42	0	1147142144	52	6427
2026-01-24 11:33:10.68	86.25	6.60	-39.5	-40.7	21.1	0.00e+00	122	42	0	1150287872	52	6001
2026-01-24 11:33:11.69	86.41	6.57	-39.7	-40.8	20.9	0.00e+00	123	42	0	1153433600	52	6096
2026-01-24 11:33:12.70	86.56	6.55	-39.5	-40.7	21.1	0.00e+00	122	42	0	1156579328	52	6001
2026-01-24 11:33:13.71	86.71	6.53	-39.9	-41.1	20.8	0.00e+00	122	42	0	1159725056	52	6286
2026-01-24 11:33:14.72	86.86	6.50	-39.5	-40.7	21.1	0.00e+00	125	42	0	1162870784	52	6011
2026-01-24 11:33:15.73	87.02	6.48	-39.7	-40.8	21.0	0.00e+00	122	42	0	1166016512	52	6115
2026-01-24 11:33:16.74	87.17	6.46	-39.9	-41.1	20.8	0.00e+00	120	42	0	1169162240	52	6285
2026-01-24 11:33:17.75	87.32	6.43	-39.8	-40.9	20.8	0.00e+00	123	42	0	1172307968	52	6172
2026-01-24 11:33:18.76	87.47	6.41	-39.7	-40.8	21.1	0.00e+00	120	42	0	1175453696	52	6113
2026-01-24 11:33:19.77	87.63	6.38	-39.7	-40.8	21.3	0.00e+00	123	42	0	1178599424	52	6074
2026-01-24 11:33:20.78	87.78	6.36	-39.3	-40.3	21.8	0.00e+00	120	42	0	1181745152	52	5781
2026-01-24 11:33:21.79	87.93	6.33	-39.7	-40.8	21.1	0.00e+00	124	42	0	1184890880	52	6103
2026-01-24 11:33:22.80	88.08	6.31	-39.7	-40.8	21.3	0.00e+00	122	42	0	1188036608	52	6080
2026-01-24 11:33:23.81	88.23	6.28	-39.5	-40.6	21.4	0.00e+00	123	42	0	1191182336	52	5984
2026-01-24 11:33:24.82	88.38	6.26	-39.9	-41.1	20.9	0.00e+00	123	42	0	1194328064	52	6280
2026-01-24 11:33:25.83	88.53	6.23	-39.6	-40.7	21.1	0.00e+00	121	42	0	1197473792	52	6059
2026-01-24 11:33:26.84	88.68	6.21	-39.9	-41.0	20.8	0.00e+00	123	42	0	1200619520	52	6268
2026-01-24 11:33:27.85	88.83	6.18	-40.1	-41.3	20.7	0.00e+00	123	42	0	1203765248	52	6445
2026-01-24 11:33:28.86	88.98	6.15	-40.3	-41.5	20.5	0.00e+00	123	42	0	1206910976	52	6627
2026-01-24 11:33:29.87	89.13	6.13	-40.0	-41.1	20.9	0.00e+00	122	42	0	1210056704	52	6324
2026-01-24 11:33:30.88	89.28	6.10	-39.7	-40.8	21.2	0.00e+00	120	42	0	1213202432	52	6072
2026-01-24 11:33:31.89	89.42	6.08	-40.4	-41.6	20.5	0.00e+00	116	42	0	1216348160	52	6654
2026-01-24 11:33:32.90	89.57	6.05	-40.1	-41.3	20.7	0.00e+00	122	42	0	1219493888	52	6428
2026-01-24 11:33:33.91	89.72	6.02	-39.6	-40.7	21.2	0.00e+00	123	42	0	1222639616	52	6037
2026-01-24 11:33:34.92	89.87	6.00	-39.4	-40.5	21.4	0.00e+00	123	42	0	1225785344	52	5880
2026-01-24 11:33:35.93	90.02	5.97	-39.8	-40.9	21.1	0.00e+00	122	42	0	1228931072	52	6204
2026-01-24 11:33:36.94	90.16	5.94	-39.8	-40.9	21.1	0.00e+00	123	42	0	1232076800	52	6180
2026-01-24 11:33:37.95	90.31	5.92	-39.8	-41.0	21.0	0.00e+00	121	42	0	1235222528	52	6211
2026-01-24 11:33:38.96	90.46	5.89	-39.7	-40.7	21.3	0.00e+00	123	42	0	1238368256	52	6058
2026-01-24 11:33:39.97	90.60	5.86	-39.5	-40.6	21.4	0.00e+00	120	42	0	1241513984	52	5993
2026-01-24 11:33:40.98	90.75	5.83	-39.4	-40.5	21.4	0.00e+00	122	42	0	1244659712	52	5884
2026-01-24 11:33:41.99	90.90	5.81	-39.4	-40.5	21.4	0.00e+00	120	42	0	1247805440	52	5888
2026-01-24 11:33:43.00	91.04	5.78	-39.6	-40.7	21.3	0.00e+00	123	42	0	1250951168	52	6000
2026-01-24 11:33:44.01	91.19	5.75	-39.8	-40.9	21.1	0.00e+00	122	42	0	1254096896	52	6153
2026-01-24 11:33:45.02	91.33	5.72	-39.6	-40.7	21.3	0.00e+00	123	42	0	1257242624	52	6060
2026-01-24 11:33:46.03	91.48	5.70	-39.8	-41.0	21.0	0.00e+00	123	42	0	1260388352	52	6215
2026-01-24 11:33:47.04	91.62	5.67	-40.9	-42.1	19.9	0.00e+00	123	42	0	1263534080	54	6331
2026-01-24 11:33:48.05	91.77	5.64	-41.0	-42.2	19.9	0.00e+00	123	42	0	1266679808	54	6400
2026-01-24 11:33:49.06	91.91	5.61	-40.5	-41.7	20.3	0.00e+00	120	42	0	1269825536	54	6049
2026-01-24 11:33:50.07	92.05	5.58	-40.3	-41.5	20.6	0.00e+00	122	42	0	1272971264	54	5866
2026-01-24 11:33:51.08	92.20	5.55	-40.0	-41.2	20.9	0.00e+00	123	42	0	1276116992	54	5660
2026-01-24 11:33:52.09	92.34	5.53	-40.4	-41.6	20.5	0.00e+00	123	42	0	1279262720	54	5933
2026-01-24 11:33:53.10	92.48	5.50	-39.5	-40.6	21.4	0.00e+00	120	42	0	1282408448	52	5987
2026-01-24 11:33:54.11	92.63	5.47	-40.4	-41.5	20.4	0.00e+00	122	42	0	1285554176	52	6644
2026-01-24 11:33:55.12	92.77	5.44	-40.5	-41.7	20.3	0.00e+00	122	42	0	1288699904	52	6755
2026-01-24 11:33:56.13	92.91	5.41	-40.0	-41.2	20.8	0.00e+00	122	42	0	1291845632	54	5695
2026-01-24 11:33:57.14	93.05	5.38	-39.2	-40.3	21.6	0.00e+00	123	41	0	1294991360	52	5775
2026-01-24 11:33:58.14	93.19	5.35	-40.2	-41.4	20.7	0.00e+00	120	42	0	1298137088	52	6501
2026-01-24 11:33:59.15	93.34	5.32	-39.0	-40.1	21.9	0.00e+00	122	42	0	1301282816	52	5642
2026-01-24 11:34:00.16	93.48	5.29	-39.4	-40.5	21.2	0.00e+00	123	41	0	1304428544	50	6624
2026-01-24 11:34:01.18	93.62	5.26	-40.1	-41.3	20.9	0.00e+00	123	42	0	1307574272	52	6444
2026-01-24 11:34:02.18	93.76	5.23	-39.4	-40.6	21.3	0.00e+00	123	42	0	1310720000	52	5954
2026-01-24 11:34:03.19	93.90	5.20	-39.7	-40.9	21.1	0.00e+00	123	41	0	1313865728	52	6172
2026-01-24 11:34:04.20	94.04	5.17	-39.6	-40.8	21.1	0.00e+00	123	41	0	1317011456	52	6095
2026-01-24 11:34:05.21	94.18	5.14	-40.1	-41.3	20.6	0.00e+00	123	42	0	1320157184	52	6426
2026-01-24 11:34:06.22	94.32	5.11	-40.9	-42.2	19.7	0.00e+00	123	42	0	1323302912	54	6361
2026-01-24 11:34:07.23	94.46	5.08	-40.2	-41.4	20.4	0.00e+00	123	42	0	1326448640	54	5841
2026-01-24 11:34:08.24	94.60	5.05	-41.5	-42.8	19.2	0.00e+00	122	41	0	1329594368	54	6863
2026-01-24 11:34:09.25	94.74	5.02	-41.4	-42.8	19.3	0.00e+00	123	42	0	1332740096	54	6816
2026-01-24 11:34:10.25	94.87	4.99	-40.6	-41.8	20.2	0.00e+00	120	41	0	1335885824	54	6091
2026-01-24 11:34:11.26	95.01	4.96	-41.0	-42.3	19.4	0.00e+00	122	42	0	1339031552	54	6464
2026-01-24 11:34:12.27	95.15	4.93	-41.3	-42.6	19.6	0.00e+00	121	41	0	1342177280	56	5947
2026-01-24 11:34:13.28	95.29	4.90	-40.0	-41.2	20.6	0.00e+00	123	42	0	1345323008	54	5700
2026-01-24 11:34:14.29	95.42	4.87	-40.6	-41.9	19.8	0.00e+00	122	42	0	1348468736	54	6170
2026-01-24 11:34:15.30	95.56	4.83	-40.2	-41.5	20.5	0.00e+00	123	42	0	1351614464	54	5893
2026-01-24 11:34:16.31	95.70	4.80	-39.9	-41.1	20.6	0.00e+00	123	41	0	1354760192	54	5658
2026-01-24 11:34:17.32	95.83	4.77	-40.2	-41.5	20.4	0.00e+00	123	41	0	1357905920	54	5872
2026-01-24 11:34:18.33	95.97	4.74	-40.1	-41.4	20.6	0.00e+00	123	41	0	1361051648	54	5796
2026-01-24 11:34:19.34	96.11	4.71	-39.8	-41.0	20.7	0.00e+00	122	41	0	1364197376	54	5569
2026-01-24 11:34:20.35	96.24	4.68	-39.8	-40.9	20.8	0.00e+00	123	41	0	1367343104	54	5524
2026-01-24 11:34:21.36	96.38	4.65	-41.1	-42.4	19.5	0.00e+00	122	41	0	1370488832	54	6547
2026-01-24 11:34:22.37	96.51	4.61	-40.7	-42.1	19.9	0.00e+00	120	41	0	1373634560	54	6301
2026-01-24 11:34:23.38	96.65	4.58	-40.5	-41.9	19.9	0.00e+00	120	41	0	1376780288	54	6162
2026-01-24 11:34:24.39	96.78	4.55	-41.2	-42.6	19.0	0.00e+00	122	41	0	1379926016	54	6716
2026-01-24 11:34:25.40	96.91	4.52	-40.2	-41.5	20.2	0.00e+00	123	41	0	1383071744	54	5894
2026-01-24 11:34:26.41	97.05	4.48	-40.7	-42.0	19.7	0.00e+00	120	41	0	1386217472	54	6241
2026-01-24 11:34:27.42	97.18	4.45	-41.3	-42.6	19.4	0.00e+00	123	41	0	1389363200	54	6691
2026-01-24 11:34:28.43	97.32	4.42	-40.5	-41.8	20.2	0.00e+00	121	41	0	1393557504	54	6094
2026-01-24 11:34:29.44	97.45	4.39	-40.1	-41.3	20.6	0.00e+00	123	41	0	1395654656	54	5770
2026-01-24 11:34:30.45	97.58	4.36	-40.4	-41.7	19.9	0.00e+00	121	41	0	1398800384	54	6002
2026-01-24 11:34:31.46	97.71	4.32	-41.2	-42.5	18.8	0.00e+00	123	41	0	1401946112	54	6609
2026-01-24 11:34:32.47	97.85	4.29	-40.1	-41.3	20.1	0.00e+00	123	41	0	1405091840	54	5730
2026-01-24 11:34:33.48	97.98	4.26	-41.2	-42.5	19.3	0.00e+00	122	41	0	1409286144	54	6609
2026-01-24 11:34:34.49	98.11	4.22	-40.9	-42.2	19.6	0.00e+00	123	41	0	1412431872	54	6374
2026-01-24 11:34:35.50	98.24	4.19	-41.2	-42.6	19.2	0.00e+00	122	41	0	1415577600	54	6659
2026-01-24 11:34:36.51	98.37	4.16	-40.9	-42.3	19.5	0.00e+00	123	41	0	1417674752	54	6460
2026-01-24 11:34:37.52	98.50	4.12	-41.4	-43.0	18.7	0.00e+00	123	41	0	1420820480	54	7017
2026-01-24 11:34:38.53	98.63	4.09	-41.4	-43.1	18.3	0.00e+00	123	41	0	1425014784	54	7120
2026-01-24 11:34:39.54	98.76	4.06	-40.5	-42.1	19.1	0.00e+00	123	41	0	1428160512	54	6283
2026-01-24 11:34:40.55	98.89	4.02	-40.5	-42.0	19.5	0.00e+00	123	41	0	1431306240	54	6260
2026-01-24 11:34:41.56	99.02	3.99	-41.2	-42.7	19.1	0.00e+00	123	41	0	1434451968	54	6764
2026-01-24 11:34:42.57	99.15	3.96	-40.3	-41.6	20.0	0.00e+00	120	41	0	1437597696	54	5947
2026-01-24 11:34:43.58	99.28	3.92	-41.4	-42.8	18.6	0.00e+00	123	41	0	1440743424	54	6810
2026-01-24 11:34:44.59	99.41	3.89	-41.1	-42.5	18.7	0.00e+00	122	41	0	1443889152	54	6581
2026-01-24 11:34:45.60	99.54	3.86	-40.9	-42.4	18.8	0.00e+00	123	41	0	1447034880	54	6513
2026-01-24 11:34:46.61	99.67	3.82	-41.5	-43.0	18.2	0.00e+00	123	41	0	1450180608	54	7026
2026-01-24 11:34:47.62	99.79	3.79	-40.7	-42.1	19.5	0.00e+00	122	41	0	1453326336	54	6325
2026-01-24 11:34:48.63	99.92	3.75	-40.9	-42.3	19.3	0.00e+00	122	41	0	1456472064	54	6484
2026-01-24 11:34:49.64	100.05	3.72	-42.0	-43.7	17.7	0.00e+00	122	41	0	1459617792	56	6760
2026-01-24 11:34:50.65	100.18	3.69	-41.8	-43.4	17.8	0.00e+00	123	41	0	1462763520	58	5806
2026-01-24 11:34:51.66	100.30	3.65	-40.0	-41.2	20.1	0.00e+00	123	41	0	1465909248	54	5662
2026-01-24 11:34:52.67	100.43	3.62	-40.8	-42.1	19.5	0.00e+00	122	41	0	1469054976	54	6300
2026-01-24 11:34:53.68	100.56	3.58	-40.2	-41.4	20.2	0.00e+00	122	41	0	1472200704	54	5840
2026-01-24 11:34:54.69	100.68	3.55	-41.2	-42.7	19.2	0.00e+00	122	41	0	1475346432	54	6794
2026-01-24 11:34:55.70	100.81	3.51	-39.1	-40.4	21.1	0.00e+00	122	41	0	1478492160	52	5793
2026-01-24 11:34:56.71	100.93	3.48	-38.8	-40.4	20.8	0.00e+00	122	41	0	1481637888	50	6500
2026-01-24 11:34:57.72	101.06	3.45	-39.8	-42.2	19.2	0.00e+00	122	41	0	1484783616	52	7184
2026-01-24 11:34:58.73	101.18	3.41	-40.7	-44.2	17.5	0.00e+00	120	41	0	1487929344	52	8983
2026-01-24 11:34:59.74	101.31	3.38	-39.6	-42.3	19.2	0.00e+00	123	41	0	1491075072	52	7270
2026-01-24 11:35:00.75	101.43	3.34	-40.1	-43.1	18.3	0.00e+00	120	41	0	1494220800	52	7926
2026-01-24 11:35:01.76	101.56	3.31	-40.1	-42.4	19.4	0.00e+00	123	41	0	1497366528	54	6535
2026-01-24 11:35:02.77	101.68	3.27	-40.2	-41.8	19.8	0.00e+00	122	41	0	1500512256	54	6078
2026-01-24 11:35:03.78	101.80	3.24	-40.8	-42.2	19.2	0.00e+00	122	41	0	1503657984	54	6421
2026-01-24 11:35:04.79	101.93	3.20	-41.2	-42.7	18.6	0.00e+00	123	41	0	1506803712	54	6759
2026-01-24 11:35:05.80	102.05	3.17	-40.9	-42.4	18.8	0.00e+00	123	41	0	1509949440	54	6504
2026-01-24 11:35:06.81	102.17	3.13	-41.4	-43.0	18.3	0.00e+00	122	41	0	1513095168	54	6983
2026-01-24 11:35:07.82	102.29	3.10	-41.7	-43.3	17.7	0.00e+00	120	41	0	1516240896	56	6471
2026-01-24 11:35:08.83	102.42	3.06	-42.9	-44.7	16.9	0.00e+00	122	41	0	1519386624	56	7573
2026-01-24 11:35:09.84	102.54	3.02	-42.2	-43.7	18.2	0.00e+00	122	41	0	1522532352	58	6042
2026-01-24 11:35:10.85	102.66	2.99	-49.6	-62.7	3.5	1.09e+00	0	41	104	1524629504	60	48049
2026-01-24 11:35:11.86	102.78	2.95	-50.3	-63.3	3.5	1.52e+00	0	41	104	1524629504	60	51305
2026-01-24 11:35:12.87	102.90	2.92	-50.8	-63.6	3.5	1.52e+00	0	41	104	1524629504	60	53248
2026-01-24 11:35:13.88	103.02	2.88	-50.7	-63.8	3.5	1.52e+00	0	41	104	1524629504	60	54075
2026-01-24 11:35:14.89	103.14	2.85	-51.0	-63.9	3.5	1.52e+00	0	41	104	1524629504	60	54958
2026-01-24 11:35:15.90	103.26	2.81	-51.1	-64.0	3.5	1.51e+00	0	41	104	1524629504	60	55495
2026-01-24 11:35:16.91	103.38	2.78	-51.1	-64.0	3.5	1.52e+00	0	41	104	1524629504	60	55829
2026-01-24 11:35:17.92	103.50	2.74	-51.2	-64.0	3.5	1.52e+00	0	41	104	1524629504	60	55909
2026-01-24 11:35:18.93	103.62	2.70	-51.2	-64.1	3.5	1.52e+00	0	41	104	1524629504	60	56152
2026-01-24 11:35:19.94	103.74	2.67	-51.3	-64.1	3.5	1.52e+00	0	41	104	1524629504	60	56524
2026-01-24 11:35:20.95	103.86	2.63	-51.2	-64.1	3.5	1.52e+00	0	41	104	1524629504	60	56558
2026-01-24 11:35:21.96	103.98	2.60	-51.3	-64.2	3.5	1.52e+00	0	41	104	1524629504	60	56878
2026-01-24 11:35:22.97	104.10	2.56	-51.3	-64.2	3.5	1.52e+00	0	41	104	1524629504	60	56772
2026-01-24 11:35:23.98	104.21	2.52	-51.3	-64.2	3.5	1.52e+00	0	41	104	1524629504	60	56881
2026-01-24 11:35:24.99	104.33	2.49	-51.3	-64.2	3.5	1.52e+00	0	41	104	1524629504	60	57072
2026-01-24 11:35:26.00	104.45	2.45	-51.3	-64.2	3.5	1.51e+00	0	41	104	1524629504	60	57168
2026-01-24 11:35:27.00	104.56	2.42	-51.3	-64.2	3.5	1.52e+00	0	41	104	1524629504	60	56856
2026-01-24 11:35:28.01	104.68	2.38	-51.3	-64.2	3.5	1.52e+00	0	41	104	1524629504	60	56598
2026-01-24 11:35:29.02	104.80	2.34	-51.2	-64.2	3.5	1.52e+00	0	41	104	1524629504	60	57121
2026-01-24 11:35:30.03	104.91	2.31	-51.3	-64.2	3.5	1.52e+00	0	41	104	1524629504	60	56859
2026-01-24 11:35:31.04	105.03	2.27	-51.3	-64.2	3.5	1.52e+00	0	41	104	1524629504	60	56683
2026-01-24 11:35:32.05	105.15	2.23	-51.4	-64.3	3.5	1.52e+00	0	41	104	1524629504	60	57708
2026-01-24 11:35:33.06	105.26	2.20	-51.4	-64.3	3.5	1.52e+00	0	41	104	1524629504	60	57330
2026-01-24 11:35:34.07	105.38	2.16	-51.4	-64.2	3.5	1.52e+00	0	41	104	1524629504	60	56951
2026-01-24 11:35:35.08	105.49	2.12	-51.4	-64.3	3.5	1.52e+00	0	41	104	1524629504	60	57364
2026-01-24 11:35:36.09	105.61	2.09	-51.5	-64.4	3.5	1.52e+00	0	41	104	1524629504	60	58037
2026-01-24 11:35:37.10	105.72	2.05	-51.5	-64.4	3.5	1.52e+00	0	41	104	1524629504	60	58145
2026-01-24 11:35:38.11	105.83	2.01	-51.5	-64.4	3.5	1.52e+00	0	41	104	1524629504	60	58321
2026-01-24 11:35:39.12	105.95	1.98	-51.4	-64.3	3.5	1.52e+00	0	41	104	1524629504	60	57672
2026-01-24 11:35:40.13	106.06	1.94	-51.5	-64.4	3.5	1.52e+00	0	41	104	1524629504	60	58266
2026-01-24 11:35:41.13	106.17	1.90	-51.6	-64.5	3.5	1.52e+00	0	41	104	1524629504	60	58722
2026-01-24 11:35:42.14	106.29	1.87	-51.8	-64.6	3.5	1.52e+00	0	41	104	1524629504	60	59774
2026-01-24 11:35:43.15	106.40	1.83	-51.8	-64.7	3.5	1.52e+00	0	41	104	1524629504	60	60200
2026-01-24 11:35:44.17	106.51	1.79	-51.6	-64.4	3.5	1.52e+00	0	41	104	1524629504	60	58538
2026-01-24 11:35:45.17	106.62	1.75	-51.7	-64.6	3.5	1.52e+00	0	41	104	1524629504	60	59607
2026-01-24 11:35:46.19	106.74	1.72	-51.8	-64.7	3.5	1.52e+00	0	41	104	1524629504	60	60004
2026-01-24 11:35:47.19	106.85	1.68	-51.6	-64.5	3.5	1.52e+00	0	41	104	1524629504	60	58690
2026-01-24 11:35:48.20	106.96	1.64	-51.8	-64.6	3.5	1.52e+00	0	41	104	1524629504	60	59907
2026-01-24 11:35:49.21	107.07	1.61	-51.9	-64.8	3.5	1.52e+00	0	41	104	1524629504	60	61010
2026-01-24 11:35:50.22	107.18	1.57	-51.8	-64.7	3.5	1.52e+00	0	41	104	1524629504	60	60437
2026-01-24 11:35:51.23	107.29	1.53	-51.7	-64.6	3.5	1.52e+00	0	41	104	1524629504	60	59539
2026-01-24 11:35:52.24	107.40	1.49	-51.6	-64.5	3.5	1.51e+00	0	41	104	1524629504	60	58922
2026-01-24 11:35:53.25	107.51	1.46	-51.7	-64.5	3.5	1.52e+00	0	41	104	1524629504	60	59170
2026-01-24 11:35:54.26	107.62	1.42	-52.1	-64.9	3.5	1.51e+00	0	41	104	1524629504	60	62040
2026-01-24 11:35:55.27	107.73	1.38	-51.9	-64.8	3.5	1.52e+00	0	41	104	1524629504	60	60940
2026-01-24 11:35:56.28	107.84	1.34	-51.8	-64.6	3.5	1.52e+00	0	41	104	1524629504	60	59723
2026-01-24 11:35:57.29	107.95	1.31	-51.7	-64.7	3.5	1.52e+00	0	41	104	1524629504	60	60242
2026-01-24 11:35:58.30	108.06	1.27	-51.8	-64.7	3.5	1.52e+00	0	41	104	1524629504	60	60326
2026-01-24 11:35:59.31	108.17	1.23	-51.6	-64.5	3.5	1.52e+00	0	41	104	1524629504	60	58689
2026-01-24 11:36:00.32	108.27	1.19	-51.6	-64.5	3.5	1.52e+00	0	41	104	1524629504	60	58826
2026-01-24 11:36:01.33	108.38	1.16	-51.8	-64.7	3.5	1.52e+00	0	41	104	1524629504	60	59988
2026-01-24 11:36:02.34	108.49	1.12	-51.6	-64.5	3.5	1.52e+00	0	41	104	1524629504	60	59078
2026-01-24 11:36:03.35	108.60	1.08	-51.6	-64.4	3.5	1.51e+00	0	41	104	1524629504	60	58522
2026-01-24 11:36:04.36	108.70	1.04	-51.5	-64.4	3.5	1.52e+00	0	41	104	1524629504	60	58102
2026-01-24 11:36:05.37	108.81	1.01	-51.5	-64.3	3.5	1.52e+00	0	41	104	1524629504	60	57754
2026-01-24 11:36:06.37	108.92	0.97	-51.4	-64.3	3.5	1.52e+00	0	41	104	1524629504	60	57574
2026-01-24 11:36:07.38	109.02	0.93	-51.5	-64.3	3.5	1.51e+00	0	41	104	1524629504	60	57892
2026-01-24 11:36:08.39	109.13	0.89	-51.5	-64.3	3.5	1.52e+00	0	41	104	1524629504	60	57639
2026-01-24 11:36:09.41	109.24	0.85	-51.6	-64.5	3.5	1.52e+00	0	41	104	1524629504	60	58694
2026-01-24 11:36:10.41	109.34	0.82	-52.0	-64.8	3.5	1.52e+00	0	41	104	1524629504	60	61098
2026-01-24 11:36:11.42	109.45	0.78	-51.8	-64.7	3.5	1.52e+00	0	41	104	1524629504	60	60237
2026-01-24 11:36:12.43	109.55	0.74	-52.0	-64.9	3.5	1.52e+00	0	41	104	1524629504	60	61674
2026-01-24 11:36:13.44	109.66	0.70	-52.2	-65.1	3.5	1.52e+00	0	41	104	1524629504	60	62794
2026-01-24 11:36:14.45	109.76	0.66	-51.9	-64.8	3.5	1.52e+00	0	41	104	1524629504	60	61186
2026-01-24 11:36:15.46	109.86	0.63	-52.1	-64.9	3.5	1.52e+00	0	41	104	1524629504	60	61700
2026-01-24 11:36:16.47	109.97	0.59	-51.9	-64.8	3.5	1.52e+00	0	41	104	1524629504	60	61199
2026-01-24 11:36:17.48	110.07	0.55	-52.4	-65.3	3.5	1.52e+00	0	41	104	1524629504	60	64554
2026-01-24 11:36:18.49	110.18	0.51	-52.0	-64.8	3.5	1.52e+00	0	41	104	1524629504	60	61312
2026-01-24 11:36:19.49	110.28	0.47	-52.2	-65.1	3.5	1.52e+00	0	41	104	1524629504	60	63218
2026-01-24 11:36:20.50	110.38	0.44	-52.0	-64.9	3.5	1.52e+00	0	41	104	1524629504	60	61458
2026-01-24 11:36:21.51	110.48	0.40	-51.9	-64.7	3.5	1.52e+00	0	41	104	1524629504	60	60613
2026-01-24 11:36:22.52	110.59	0.36	-51.9	-64.7	3.5	1.52e+00	0	41	104	1524629504	60	60560
2026-01-24 11:36:23.53	110.69	0.32	-52.1	-65.0	3.5	1.52e+00	0	41	104	1524629504	60	62363
2026-01-24 11:36:24.54	110.79	0.28	-52.2	-65.0	3.5	1.52e+00	0	41	104	1524629504	60	62738
2026-01-24 11:36:25.55	110.89	0.25	-52.1	-64.9	3.5	1.51e+00	0	41	104	1524629504	60	61984
2026-01-24 11:36:26.56	111.00	0.21	-52.2	-65.1	3.5	1.52e+00	0	41	104	1524629504	60	62933
2026-01-24 11:36:27.57	111.10	0.17	-52.1	-64.9	3.5	1.52e+00	0	41	104	1524629504	60	62008
2026-01-24 11:36:28.58	111.20	0.13	-52.2	-65.1	3.5	1.52e+00	0	41	104	1524629504	60	62843
2026-01-24 11:36:29.59	111.30	0.09	-52.1	-64.9	3.5	1.52e+00	0	41	104	1524629504	60	61738
2026-01-24 11:36:30.60	111.40	0.05	-52.1	-65.0	3.5	1.51e+00	0	41	104	1524629504	60	62157
2026-01-24 11:36:31.61	111.50	0.02	-52.1	-65.0	3.5	1.52e+00	0	41	104	1524629504	60	62197
2026-01-24 11:36:32.62	111.60	-0.02	-51.9	-64.8	3.5	1.52e+00	0	41	104	1524629504	60	61153
2026-01-24 11:36:33.63	111.70	-0.06	-52.2	-65.1	3.5	1.52e+00	0	41	104	1524629504	60	63042

#Closed at: 2026-01-24 11:36:33
#Recorded file [1524 MB]: D:/lorett/data/35029_260124_232546.dat