passes_logs/2026/01/24/R4.6S_Anadyr/R4.6S_Anadyr__20260124_121552_NOAA_20_JPSS-1_rec.log

#Pass ID: 20260124_121552_NOAA 20 (JPSS-1)
#Satellite: NOAA 20 (JPSS-1)
#Configuration: NOAA 20
#almurnet v.1.7.20251203
#Start time: 2026-01-24 12:15:53

#Version: 2.2.20231116
#Station: R4.6S_Anadyr
#Location: 177.4865 lon 64.73178 lat
#TLE: 1 43013U 17073A   26024.14064826  .00000217  00000+0  12382-3 0  9992
#TLE: 2 43013  98.7646 324.9839 0001118  26.6217 333.5016 14.19539758424032

#Time	Az	El	Level	Level2	SNR	BER	BlckErr	Temp	State	Recorded	gain1	gain2
2026-01-24 12:15:53.77	19.23	0.06	-51.8	-66.7	3.5	1.51e+00	0	39	0	0	60	78261
2026-01-24 12:15:54.78	19.30	0.11	-52.4	-67.6	3.6	1.51e+00	0	40	104	0	60	86930
2026-01-24 12:15:55.78	19.38	0.15	-52.3	-67.5	3.6	1.51e+00	0	40	104	0	60	85600
2026-01-24 12:15:56.79	19.46	0.20	-52.1	-67.3	3.6	1.51e+00	0	40	104	0	60	83771
2026-01-24 12:15:57.80	19.54	0.25	-51.9	-67.0	3.6	1.51e+00	0	40	104	0	60	81070
2026-01-24 12:15:58.81	19.62	0.30	-51.7	-66.9	3.6	1.51e+00	0	40	104	0	60	80196
2026-01-24 12:15:59.82	19.69	0.35	-51.6	-66.8	3.6	1.51e+00	0	40	104	0	60	79523
2026-01-24 12:16:00.83	19.77	0.39	-51.8	-67.0	3.6	1.51e+00	0	40	104	0	60	80970
2026-01-24 12:16:01.84	19.85	0.44	-51.7	-66.9	3.6	1.51e+00	0	40	104	0	60	79622
2026-01-24 12:16:02.85	19.93	0.49	-51.6	-66.8	3.6	1.51e+00	0	40	104	0	60	79508
2026-01-24 12:16:03.86	20.01	0.54	-51.6	-66.8	3.6	1.51e+00	0	41	104	0	60	78949
2026-01-24 12:16:04.87	20.09	0.59	-51.5	-66.7	3.6	1.51e+00	0	40	104	0	60	78461
2026-01-24 12:16:05.88	20.17	0.64	-51.5	-66.7	3.6	1.51e+00	0	40	104	0	60	78034
2026-01-24 12:16:06.89	20.25	0.69	-51.4	-66.6	3.6	1.51e+00	0	41	104	0	60	77723
2026-01-24 12:16:07.89	20.33	0.73	-51.4	-66.6	3.6	1.51e+00	0	41	104	0	60	77053
2026-01-24 12:16:08.90	20.41	0.78	-51.3	-66.6	3.6	1.51e+00	0	41	104	0	60	76879
2026-01-24 12:16:09.91	20.50	0.83	-51.2	-66.4	3.5	1.51e+00	0	41	104	0	60	75737
2026-01-24 12:16:10.92	20.58	0.88	-51.1	-66.3	3.6	1.51e+00	0	41	104	0	60	74561
2026-01-24 12:16:11.93	20.66	0.93	-51.0	-66.2	3.6	1.51e+00	0	41	104	0	60	73785
2026-01-24 12:16:12.94	20.74	0.98	-50.9	-66.1	3.6	1.51e+00	0	41	104	0	60	72892
2026-01-24 12:16:13.95	20.82	1.03	-50.8	-66.0	3.6	1.51e+00	0	41	104	0	60	72210
2026-01-24 12:16:14.96	20.91	1.08	-50.7	-65.9	3.6	1.51e+00	0	41	104	0	60	71570
2026-01-24 12:16:15.96	20.99	1.12	-50.6	-65.7	3.6	1.51e+00	0	41	104	0	60	69800
2026-01-24 12:16:16.97	21.07	1.17	-50.3	-65.5	3.6	1.51e+00	0	41	104	0	60	68070
2026-01-24 12:16:17.98	21.15	1.22	-50.0	-65.2	3.6	1.51e+00	0	41	104	0	60	65517
2026-01-24 12:16:18.99	21.24	1.27	-49.8	-65.0	3.6	1.51e+00	0	41	104	0	60	64130
2026-01-24 12:16:20.00	21.32	1.32	-49.8	-65.0	3.6	1.51e+00	0	41	104	0	60	64156
2026-01-24 12:16:21.01	21.40	1.37	-49.8	-64.9	3.6	1.51e+00	0	41	104	0	60	63903
2026-01-24 12:16:22.02	21.49	1.42	-49.8	-65.0	3.6	1.51e+00	0	41	104	0	60	64260
2026-01-24 12:16:23.03	21.57	1.47	-49.8	-65.0	3.6	1.51e+00	0	41	104	0	60	64114
2026-01-24 12:16:24.04	21.66	1.52	-49.8	-65.0	3.6	1.51e+00	0	41	104	0	60	64122
2026-01-24 12:16:25.05	21.74	1.57	-49.8	-64.9	3.6	1.51e+00	0	41	104	0	60	63619
2026-01-24 12:16:26.06	21.83	1.61	-49.8	-64.9	3.6	1.51e+00	0	41	104	0	60	63876
2026-01-24 12:16:27.07	21.91	1.66	-49.8	-64.9	3.6	1.51e+00	0	41	104	0	60	63704
2026-01-24 12:16:28.08	22.00	1.71	-49.8	-65.0	3.6	1.51e+00	0	41	104	0	60	63947
2026-01-24 12:16:29.09	22.09	1.76	-49.7	-65.0	3.6	1.51e+00	0	41	104	0	60	63995
2026-01-24 12:16:30.10	22.17	1.81	-49.7	-64.8	3.6	1.51e+00	0	41	104	0	60	62984
2026-01-24 12:16:31.11	22.26	1.86	-49.7	-64.9	3.6	1.51e+00	0	41	104	0	60	63394
2026-01-24 12:16:32.12	22.35	1.91	-49.7	-64.8	3.6	1.51e+00	0	41	104	0	60	62696
2026-01-24 12:16:33.13	22.43	1.96	-49.7	-64.8	3.6	1.51e+00	0	41	104	0	60	62805
2026-01-24 12:16:34.14	22.52	2.01	-49.7	-64.7	3.6	1.51e+00	0	41	104	0	60	62284
2026-01-24 12:16:35.15	22.61	2.06	-49.7	-65.0	3.6	1.51e+00	0	41	104	0	60	64207
2026-01-24 12:16:36.16	22.70	2.11	-49.7	-64.9	3.6	1.51e+00	0	41	104	0	60	63460
2026-01-24 12:16:37.17	22.79	2.16	-49.7	-64.9	3.6	1.51e+00	0	41	104	0	60	63893
2026-01-24 12:16:38.18	22.88	2.21	-49.7	-64.9	3.6	1.51e+00	0	41	104	0	60	63573
2026-01-24 12:16:39.19	22.96	2.26	-49.7	-64.8	3.6	1.51e+00	0	41	104	0	60	62722
2026-01-24 12:16:40.20	23.05	2.31	-49.7	-64.4	3.6	1.51e+00	0	41	104	0	60	59690
2026-01-24 12:16:41.21	23.14	2.36	-49.7	-64.0	3.6	1.51e+00	0	41	104	0	60	57261
2026-01-24 12:16:42.22	23.23	2.41	-49.7	-64.0	3.6	1.51e+00	0	41	104	0	60	57377
2026-01-24 12:16:43.23	23.32	2.46	-49.7	-64.1	3.6	1.51e+00	0	41	104	0	60	57876
2026-01-24 12:16:44.24	23.41	2.51	-49.6	-62.0	3.8	1.51e+00	0	41	104	0	60	45652
2026-01-24 12:16:45.25	23.50	2.56	-48.8	-55.6	8.4	4.10e-01	0	41	0	0	60	21888
2026-01-24 12:16:46.26	23.59	2.61	-47.8	-52.1	12.4	7.64e-03	0	41	0	2097152	60	14579
2026-01-24 12:16:47.27	23.69	2.66	-45.9	-48.6	15.0	0.00e+00	0	41	0	3145728	60	9737
2026-01-24 12:16:48.28	23.78	2.71	-46.5	-49.6	14.8	1.44e-05	0	41	0	5242880	60	10867
2026-01-24 12:16:49.28	23.87	2.76	-44.7	-46.8	17.3	0.00e+00	0	41	0	7340032	60	7864
2026-01-24 12:16:50.29	23.96	2.81	-44.5	-46.4	17.6	0.00e+00	0	41	0	9437184	60	7566
2026-01-24 12:16:51.30	24.05	2.86	-44.5	-46.5	17.4	0.00e+00	0	41	0	11534336	60	7653
2026-01-24 12:16:52.31	24.15	2.91	-45.7	-48.2	15.6	0.00e+00	0	41	0	12582912	60	9283
2026-01-24 12:16:53.32	24.24	2.96	-46.3	-49.2	14.4	7.00e-07	0	41	0	14680064	60	10473
2026-01-24 12:16:54.33	24.33	3.01	-48.3	-53.8	9.9	4.74e-04	0	41	0	16777216	60	17645
2026-01-24 12:16:55.34	24.43	3.06	-48.7	-54.7	8.6	4.94e-03	0	41	0	18874368	60	19642
2026-01-24 12:16:56.35	24.52	3.11	-48.1	-53.0	10.0	3.01e-04	0	41	0	20971520	60	16105
2026-01-24 12:16:57.36	24.61	3.16	-49.5	-61.8	4.0	1.51e+00	0	41	104	20971520	60	44524
2026-01-24 12:16:58.37	24.71	3.21	-49.4	-58.1	6.7	1.40e+00	0	41	104	20971520	60	29025
2026-01-24 12:16:59.37	24.80	3.26	-47.4	-51.2	12.4	7.79e-04	0	41	0	22020096	60	13109
2026-01-24 12:17:00.38	24.90	3.31	-49.9	-64.6	3.6	1.51e+00	0	41	104	22020096	60	61405
2026-01-24 12:17:01.39	24.99	3.36	-47.1	-50.6	13.0	3.66e-01	0	41	104	22020096	60	12249
2026-01-24 12:17:02.40	25.09	3.41	-46.1	-48.7	15.3	1.22e-05	0	41	0	23068672	60	9868
2026-01-24 12:17:03.41	25.18	3.46	-44.8	-46.8	17.1	0.00e+00	0	41	0	25165824	60	7943
2026-01-24 12:17:04.42	25.28	3.51	-46.0	-48.5	15.6	0.00e+00	0	41	0	27262976	60	9648
2026-01-24 12:17:05.43	25.38	3.56	-46.8	-49.8	14.5	0.00e+00	0	41	0	28311552	60	11213
2026-01-24 12:17:06.44	25.47	3.61	-45.5	-47.8	16.7	0.00e+00	0	41	0	30408704	60	8838
2026-01-24 12:17:07.45	25.57	3.66	-44.9	-46.8	17.5	0.00e+00	0	41	0	32505856	60	7939
2026-01-24 12:17:08.46	25.67	3.71	-43.8	-45.4	18.8	0.00e+00	0	41	0	34603008	60	6711
2026-01-24 12:17:09.47	25.77	3.77	-44.9	-46.9	16.5	0.00e+00	0	41	0	36700160	60	7970
2026-01-24 12:17:10.47	25.87	3.82	-45.9	-48.4	16.3	0.00e+00	0	41	0	37748736	60	9470
2026-01-24 12:17:11.48	25.96	3.87	-44.2	-45.9	18.2	0.00e+00	0	41	0	39845888	60	7151
2026-01-24 12:17:12.49	26.06	3.92	-44.8	-46.7	17.5	0.00e+00	0	41	0	41943040	60	7853
2026-01-24 12:17:13.50	26.16	3.97	-45.4	-47.7	16.5	0.00e+00	0	41	0	44040192	60	8724
2026-01-24 12:17:14.51	26.26	4.02	-45.8	-48.3	16.0	0.00e+00	0	41	0	46137344	60	9346
2026-01-24 12:17:15.52	26.36	4.07	-44.7	-46.6	17.6	0.00e+00	0	41	0	47185920	60	7762
2026-01-24 12:17:16.53	26.46	4.12	-45.0	-47.0	17.4	0.00e+00	0	41	0	49283072	60	8076
2026-01-24 12:17:17.54	26.56	4.17	-44.3	-46.1	18.3	0.00e+00	0	41	0	51380224	60	7299
2026-01-24 12:17:18.55	26.66	4.22	-44.6	-46.4	18.0	0.00e+00	0	41	0	53477376	60	7557
2026-01-24 12:17:19.56	26.76	4.27	-44.4	-46.2	18.1	0.00e+00	0	41	0	55574528	60	7354
2026-01-24 12:17:20.57	26.87	4.32	-44.8	-46.7	17.9	0.00e+00	0	41	0	57671680	60	7787
2026-01-24 12:17:21.57	26.97	4.38	-41.0	-42.1	21.7	0.00e+00	0	41	0	58720256	54	6493
2026-01-24 12:17:22.58	27.07	4.43	-43.3	-44.8	19.5	0.00e+00	0	41	0	60817408	58	7063
2026-01-24 12:17:23.59	27.17	4.48	-41.5	-42.6	21.9	0.00e+00	0	41	0	62914560	56	6124
2026-01-24 12:17:24.60	27.27	4.53	-42.9	-44.3	19.6	0.00e+00	0	41	0	65011712	56	7451
2026-01-24 12:17:25.61	27.38	4.58	-42.9	-44.2	20.1	0.00e+00	0	41	0	67108864	60	5889
2026-01-24 12:17:26.62	27.48	4.63	-44.1	-45.7	18.8	0.00e+00	0	41	0	68157440	60	7000
2026-01-24 12:17:27.63	27.59	4.68	-44.1	-45.7	18.6	0.00e+00	0	41	0	70254592	60	6981
2026-01-24 12:17:28.64	27.69	4.73	-43.1	-44.5	19.9	0.00e+00	0	41	0	72351744	60	6071
2026-01-24 12:17:29.65	27.79	4.78	-43.5	-45.0	19.4	0.00e+00	0	41	0	74448896	58	7175
2026-01-24 12:17:30.66	27.90	4.84	-43.2	-44.6	19.9	0.00e+00	0	41	0	76546048	60	6119
2026-01-24 12:17:31.67	28.00	4.89	-44.3	-46.0	18.5	0.00e+00	0	41	0	77594624	60	7178
2026-01-24 12:17:32.68	28.11	4.94	-43.3	-44.7	19.7	0.00e+00	0	41	0	79691776	60	6238
2026-01-24 12:17:33.68	28.22	4.99	-42.9	-44.2	20.3	0.00e+00	0	41	0	81788928	58	6606
2026-01-24 12:17:34.69	28.32	5.04	-44.5	-46.2	18.1	0.00e+00	0	41	0	83886080	60	7387
2026-01-24 12:17:35.70	28.43	5.09	-44.0	-45.6	19.1	0.00e+00	0	41	0	85983232	60	6861
2026-01-24 12:17:36.71	28.54	5.14	-43.3	-44.8	19.9	0.00e+00	0	41	0	87031808	60	6247
2026-01-24 12:17:37.72	28.64	5.19	-44.1	-45.7	18.9	0.00e+00	0	41	0	89128960	60	6975
2026-01-24 12:17:38.73	28.75	5.25	-44.7	-46.5	18.2	0.00e+00	0	41	0	91226112	60	7652
2026-01-24 12:17:39.73	28.86	5.30	-43.9	-45.4	18.8	0.00e+00	0	41	0	93323264	60	6754
2026-01-24 12:17:40.74	28.97	5.35	-43.0	-44.3	20.2	0.00e+00	0	41	0	95420416	60	5935
2026-01-24 12:17:41.76	29.08	5.40	-41.3	-42.4	22.1	0.00e+00	0	41	0	96468992	56	5990
2026-01-24 12:17:42.76	29.19	5.45	-43.5	-44.9	19.5	0.00e+00	0	41	0	98566144	58	7163
2026-01-24 12:17:43.77	29.29	5.50	-43.5	-44.9	19.3	0.00e+00	0	41	0	100663296	58	7135
2026-01-24 12:17:44.78	29.40	5.55	-43.2	-44.5	20.3	0.00e+00	0	41	0	102760448	60	6063
2026-01-24 12:17:45.79	29.52	5.61	-43.3	-44.7	19.9	0.00e+00	0	41	0	104857600	60	6216
2026-01-24 12:17:46.80	29.63	5.66	-43.2	-44.5	20.3	0.00e+00	0	41	0	105906176	60	6091
2026-01-24 12:17:47.81	29.74	5.71	-43.0	-44.4	20.2	0.00e+00	0	41	0	108003328	60	5970
2026-01-24 12:17:48.82	29.85	5.76	-42.5	-43.8	20.6	0.00e+00	0	41	0	110100480	58	6248
2026-01-24 12:17:49.83	29.96	5.81	-43.5	-44.9	19.9	0.00e+00	0	41	0	112197632	58	7155
2026-01-24 12:17:50.83	30.07	5.86	-43.6	-45.0	20.0	0.00e+00	0	41	0	114294784	60	6447
2026-01-24 12:17:51.84	30.18	5.91	-43.2	-44.6	19.9	0.00e+00	0	41	0	115343360	60	6144
2026-01-24 12:17:52.85	30.30	5.97	-43.3	-44.7	19.8	0.00e+00	0	41	0	117440512	60	6205
2026-01-24 12:17:53.86	30.41	6.02	-43.5	-45.0	19.5	0.00e+00	0	41	0	119537664	60	6392
2026-01-24 12:17:54.87	30.52	6.07	-43.6	-45.0	19.6	0.00e+00	0	41	0	121634816	60	6452
2026-01-24 12:17:55.88	30.64	6.12	-43.0	-44.4	20.2	0.00e+00	0	41	0	123731968	60	5968
2026-01-24 12:17:56.89	30.75	6.17	-42.4	-43.7	21.0	0.00e+00	0	41	0	125829120	58	6187
2026-01-24 12:17:57.90	30.87	6.22	-43.3	-44.7	19.5	0.00e+00	0	41	0	126877696	58	6987
2026-01-24 12:17:58.91	30.98	6.28	-43.5	-45.0	19.8	0.00e+00	0	41	0	128974848	60	6423
2026-01-24 12:17:59.92	31.10	6.33	-44.2	-45.8	18.8	0.00e+00	0	41	0	131072000	60	7067
2026-01-24 12:18:00.93	31.22	6.38	-43.2	-44.5	19.8	0.00e+00	0	41	0	133169152	56	7672
2026-01-24 12:18:01.94	31.33	6.43	-41.3	-42.4	22.6	0.00e+00	0	41	0	135266304	56	5983
2026-01-24 12:18:02.95	31.45	6.48	-41.8	-43.0	21.3	0.00e+00	0	41	0	136314880	54	7180
2026-01-24 12:18:03.96	31.57	6.53	-42.4	-43.7	21.0	0.00e+00	0	41	0	138412032	58	6181
2026-01-24 12:18:04.97	31.68	6.59	-42.6	-43.8	20.8	0.00e+00	0	41	0	140509184	58	6295
2026-01-24 12:18:05.98	31.80	6.64	-43.3	-44.7	20.4	0.00e+00	0	41	0	142606336	60	6212
2026-01-24 12:18:06.99	31.92	6.69	-42.0	-43.1	21.3	0.00e+00	0	41	0	144703488	56	6523
2026-01-24 12:18:08.00	32.04	6.74	-42.7	-44.0	20.7	0.00e+00	0	41	0	145752064	58	6424
2026-01-24 12:18:09.01	32.16	6.79	-42.1	-43.2	21.3	0.00e+00	0	41	0	147849216	58	5891
2026-01-24 12:18:10.02	32.28	6.85	-42.9	-44.3	20.4	0.00e+00	0	41	0	149946368	58	6624
2026-01-24 12:18:11.03	32.40	6.90	-43.1	-44.5	20.3	0.00e+00	0	41	0	152043520	58	6790
2026-01-24 12:18:12.04	32.52	6.95	-43.1	-44.4	20.3	0.00e+00	0	41	0	154140672	58	6716
2026-01-24 12:18:13.05	32.64	7.00	-43.4	-44.9	19.8	0.00e+00	0	41	0	155189248	58	7116
2026-01-24 12:18:14.05	32.76	7.05	-43.2	-44.6	20.3	0.00e+00	0	41	0	157286400	58	6863
2026-01-24 12:18:15.07	32.88	7.10	-42.2	-43.4	21.3	0.00e+00	0	41	0	159383552	58	6007
2026-01-24 12:18:16.07	33.01	7.16	-42.0	-43.1	21.5	0.00e+00	0	41	0	161480704	58	5808
2026-01-24 12:18:17.08	33.13	7.21	-42.5	-43.7	20.9	0.00e+00	0	41	0	163577856	58	6211
2026-01-24 12:18:18.09	33.25	7.26	-42.9	-44.2	20.3	0.00e+00	0	41	0	164626432	58	6566
2026-01-24 12:18:19.10	33.37	7.31	-42.4	-43.6	20.9	0.00e+00	0	41	0	166723584	58	6170
2026-01-24 12:18:20.11	33.50	7.36	-42.6	-43.8	21.1	0.00e+00	0	41	0	168820736	58	6304
2026-01-24 12:18:21.12	33.62	7.41	-41.6	-42.7	21.9	0.00e+00	0	41	0	170917888	58	5523
2026-01-24 12:18:22.13	33.75	7.47	-41.8	-42.9	21.5	0.00e+00	0	41	0	173015040	56	6330
2026-01-24 12:18:23.14	33.87	7.52	-43.8	-45.3	19.4	0.00e+00	0	41	0	174063616	58	7462
2026-01-24 12:18:24.15	34.00	7.57	-44.6	-46.3	18.6	0.00e+00	0	41	0	176160768	60	7426
2026-01-24 12:18:25.16	34.12	7.62	-43.7	-45.1	19.7	0.00e+00	0	41	0	178257920	60	6507
2026-01-24 12:18:26.17	34.25	7.67	-42.7	-43.9	20.9	0.00e+00	0	41	0	180355072	60	5669
2026-01-24 12:18:27.18	34.38	7.72	-42.5	-43.7	20.9	0.00e+00	0	41	0	182452224	58	6230
2026-01-24 12:18:28.19	34.50	7.78	-42.5	-43.7	21.1	0.00e+00	0	41	0	183500800	58	6196
2026-01-24 12:18:29.20	34.63	7.83	-41.9	-43.0	21.6	0.00e+00	0	41	0	185597952	58	5732
2026-01-24 12:18:30.21	34.76	7.88	-42.0	-43.1	21.6	0.00e+00	0	41	0	187695104	58	5796
2026-01-24 12:18:31.22	34.89	7.93	-41.8	-43.0	21.7	0.00e+00	0	41	0	189792256	56	6402
2026-01-24 12:18:32.23	35.02	7.98	-42.3	-43.5	21.1	0.00e+00	0	41	0	191889408	56	6835
2026-01-24 12:18:33.24	35.15	8.03	-42.3	-43.5	21.2	0.00e+00	0	41	0	193986560	56	6800
2026-01-24 12:18:34.26	35.28	8.09	-42.4	-43.6	21.1	0.00e+00	0	41	0	195035136	56	6854
2026-01-24 12:18:35.26	35.41	8.14	-42.2	-43.4	21.4	0.00e+00	0	41	0	197132288	56	6703
2026-01-24 12:18:36.27	35.54	8.19	-42.3	-43.5	21.3	0.00e+00	0	41	0	199229440	56	6804
2026-01-24 12:18:37.28	35.67	8.24	-42.4	-43.6	21.2	0.00e+00	0	41	0	201326592	56	6853
2026-01-24 12:18:38.30	35.80	8.29	-42.0	-43.2	21.5	0.00e+00	0	41	0	203423744	56	6567
2026-01-24 12:18:39.31	35.94	8.34	-42.5	-43.7	21.1	0.00e+00	0	41	0	204472320	56	6939
2026-01-24 12:18:40.32	36.07	8.39	-42.2	-43.4	21.4	0.00e+00	0	41	0	206569472	56	6733
2026-01-24 12:18:41.33	36.20	8.45	-42.5	-43.7	21.1	0.00e+00	0	41	0	208666624	56	6988
2026-01-24 12:18:42.34	36.34	8.50	-42.2	-43.4	21.5	0.00e+00	0	41	0	210763776	56	6696
2026-01-24 12:18:43.34	36.47	8.55	-41.8	-42.9	21.9	0.00e+00	0	41	0	212860928	56	6351
2026-01-24 12:18:44.35	36.60	8.60	-41.6	-42.7	21.9	0.00e+00	0	41	0	213909504	56	6230
2026-01-24 12:18:45.36	36.74	8.65	-41.8	-42.9	21.8	0.00e+00	0	41	0	216006656	56	6367
2026-01-24 12:18:46.37	36.87	8.70	-41.7	-42.8	21.9	0.00e+00	0	41	0	218103808	56	6259
2026-01-24 12:18:47.38	37.01	8.75	-41.4	-42.4	22.3	0.00e+00	0	41	0	220200960	56	6001
2026-01-24 12:18:48.39	37.14	8.80	-41.5	-42.6	22.0	0.00e+00	0	41	0	222298112	56	6117
2026-01-24 12:18:49.40	37.28	8.86	-41.6	-42.7	22.1	0.00e+00	0	41	0	223346688	56	6175
2026-01-24 12:18:50.41	37.42	8.91	-41.2	-42.3	22.4	0.00e+00	0	41	0	225443840	56	5902
2026-01-24 12:18:51.42	37.56	8.96	-41.5	-42.6	22.1	0.00e+00	0	41	0	227540992	56	6115
2026-01-24 12:18:52.43	37.69	9.01	-41.4	-42.4	22.3	0.00e+00	0	41	0	229638144	56	5995
2026-01-24 12:18:53.44	37.83	9.06	-41.4	-42.5	22.2	0.00e+00	0	41	0	231735296	56	6062
2026-01-24 12:18:54.45	37.97	9.11	-41.5	-42.6	22.1	0.00e+00	0	41	0	232783872	56	6123
2026-01-24 12:18:55.46	38.11	9.16	-41.3	-42.3	22.4	0.00e+00	0	41	0	234881024	56	5947
2026-01-24 12:18:56.47	38.25	9.21	-41.3	-42.3	22.6	0.00e+00	0	41	0	236978176	56	5916
2026-01-24 12:18:57.48	38.39	9.26	-41.1	-42.1	22.5	0.00e+00	0	41	0	239075328	56	5805
2026-01-24 12:18:58.49	38.53	9.32	-41.4	-42.5	22.3	0.00e+00	0	41	0	241172480	56	6070
2026-01-24 12:18:59.50	38.67	9.37	-40.8	-41.7	22.9	0.00e+00	0	41	0	242221056	56	5565
2026-01-24 12:19:00.51	38.82	9.42	-41.1	-42.1	22.4	0.00e+00	0	41	0	244318208	54	6538
2026-01-24 12:19:01.52	38.96	9.47	-40.8	-41.8	22.8	0.00e+00	0	41	0	246415360	54	6289
2026-01-24 12:19:02.52	39.10	9.52	-41.0	-42.0	22.5	0.00e+00	0	41	0	248512512	54	6431
2026-01-24 12:19:03.53	39.24	9.57	-41.0	-42.0	22.6	0.00e+00	0	41	0	250609664	54	6414
2026-01-24 12:19:04.54	39.39	9.62	-40.8	-41.7	22.5	0.00e+00	0	41	0	251658240	54	6238
2026-01-24 12:19:05.55	39.53	9.67	-41.2	-42.2	22.3	0.00e+00	0	41	0	253755392	54	6595
2026-01-24 12:19:06.56	39.68	9.72	-41.1	-42.1	22.5	0.00e+00	0	41	0	255852544	54	6514
2026-01-24 12:19:07.57	39.82	9.77	-41.0	-42.0	22.7	0.00e+00	0	41	0	257949696	54	6419
2026-01-24 12:19:08.58	39.97	9.82	-41.2	-42.2	22.4	0.00e+00	0	41	0	260046848	54	6598
2026-01-24 12:19:09.59	40.11	9.87	-41.4	-42.4	22.2	0.00e+00	0	41	0	262144000	54	6725
2026-01-24 12:19:10.60	40.26	9.92	-41.0	-42.0	22.7	0.00e+00	0	41	0	263192576	54	6391
2026-01-24 12:19:11.61	40.41	9.97	-41.0	-42.0	22.7	0.00e+00	0	41	0	265289728	54	6428
2026-01-24 12:19:12.62	40.55	10.02	-40.9	-41.9	22.8	0.00e+00	0	41	0	267386880	54	6328
2026-01-24 12:19:13.63	40.70	10.07	-40.9	-41.9	22.7	0.00e+00	0	41	0	269484032	54	6330
2026-01-24 12:19:14.64	40.85	10.12	-40.9	-41.8	22.8	0.00e+00	0	41	0	271581184	54	6315
2026-01-24 12:19:15.65	41.00	10.17	-40.8	-41.8	22.9	0.00e+00	0	41	0	272629760	54	6291
2026-01-24 12:19:16.66	41.15	10.22	-40.9	-41.8	22.8	0.00e+00	0	41	0	274726912	54	6314
2026-01-24 12:19:17.67	41.30	10.27	-40.9	-41.8	22.9	0.00e+00	0	41	0	276824064	54	6310
2026-01-24 12:19:18.68	41.45	10.32	-40.9	-41.8	22.9	0.00e+00	0	41	0	278921216	54	6299
2026-01-24 12:19:19.68	41.60	10.37	-41.0	-42.0	22.7	0.00e+00	0	41	0	279969792	54	6424
2026-01-24 12:19:20.69	41.75	10.42	-41.0	-42.0	22.7	0.00e+00	0	41	0	282066944	54	6461
2026-01-24 12:19:21.70	41.90	10.47	-40.9	-41.9	22.7	0.00e+00	0	41	0	284164096	54	6371
2026-01-24 12:19:22.71	42.06	10.52	-40.9	-41.9	22.8	0.00e+00	0	41	0	286261248	54	6343
2026-01-24 12:19:23.72	42.21	10.57	-40.8	-41.8	22.8	0.00e+00	0	41	0	288358400	54	6298
2026-01-24 12:19:24.73	42.36	10.62	-41.0	-42.0	22.6	0.00e+00	0	41	0	290455552	54	6462
2026-01-24 12:19:25.74	42.52	10.67	-41.2	-42.2	22.6	0.00e+00	0	41	0	291504128	54	6612
2026-01-24 12:19:26.75	42.67	10.71	-41.0	-41.9	22.6	0.00e+00	0	41	0	293601280	54	6387
2026-01-24 12:19:27.75	42.83	10.76	-41.1	-42.1	22.6	0.00e+00	0	41	0	295698432	54	6533
2026-01-24 12:19:28.76	42.98	10.81	-41.0	-42.0	22.7	0.00e+00	0	41	0	297795584	54	6413
2026-01-24 12:19:29.77	43.14	10.86	-41.1	-42.1	22.6	0.00e+00	0	41	0	299892736	54	6519
2026-01-24 12:19:30.78	43.29	10.91	-41.0	-42.0	22.8	0.00e+00	0	41	0	300941312	54	6444
2026-01-24 12:19:31.79	43.45	10.96	-41.0	-42.0	22.7	0.00e+00	0	41	0	303038464	54	6440
2026-01-24 12:19:32.80	43.61	11.01	-40.8	-41.8	22.9	0.00e+00	0	41	0	305135616	54	6262
2026-01-24 12:19:33.81	43.77	11.06	-41.0	-42.0	22.7	0.00e+00	0	41	0	307232768	54	6451
2026-01-24 12:19:34.82	43.93	11.10	-40.9	-41.9	22.8	0.00e+00	0	41	0	309329920	54	6354
2026-01-24 12:19:35.83	44.09	11.15	-41.3	-42.3	22.4	0.00e+00	0	41	0	310378496	54	6677
2026-01-24 12:19:36.84	44.24	11.20	-41.4	-42.4	22.4	0.00e+00	0	41	0	312475648	54	6764
2026-01-24 12:19:37.85	44.41	11.25	-41.0	-42.0	22.7	0.00e+00	0	41	0	314572800	54	6448
2026-01-24 12:19:38.86	44.57	11.30	-41.2	-42.2	22.5	0.00e+00	0	41	0	316669952	54	6604
2026-01-24 12:19:39.87	44.73	11.34	-41.4	-42.4	22.3	0.00e+00	0	41	0	318767104	54	6755
2026-01-24 12:19:40.87	44.89	11.39	-41.9	-43.0	21.9	0.00e+00	0	41	0	319815680	56	6411
2026-01-24 12:19:41.89	45.05	11.44	-41.4	-42.4	22.4	0.00e+00	0	41	0	321912832	56	6021
2026-01-24 12:19:42.89	45.21	11.49	-41.1	-42.1	22.7	0.00e+00	0	41	0	324009984	56	5802
2026-01-24 12:19:43.90	45.38	11.53	-41.1	-42.1	22.6	0.00e+00	0	41	0	326107136	56	5798
2026-01-24 12:19:44.91	45.54	11.58	-41.1	-42.1	22.6	0.00e+00	0	41	0	328204288	56	5815
2026-01-24 12:19:45.92	45.70	11.63	-41.3	-42.3	22.5	0.00e+00	0	41	0	329252864	56	5912
2026-01-24 12:19:46.93	45.87	11.68	-41.3	-42.3	22.5	0.00e+00	0	41	0	331350016	56	5935
2026-01-24 12:19:47.94	46.03	11.72	-41.6	-42.7	22.2	0.00e+00	0	41	0	333447168	56	6200
2026-01-24 12:19:48.96	46.20	11.77	-41.5	-42.6	22.3	0.00e+00	0	41	0	335544320	56	6136
2026-01-24 12:19:49.97	46.37	11.82	-41.5	-42.5	22.3	0.00e+00	0	41	0	337641472	56	6100
2026-01-24 12:19:50.97	46.53	11.86	-41.5	-42.6	22.3	0.00e+00	0	41	0	338690048	56	6116
2026-01-24 12:19:51.98	46.70	11.91	-41.6	-42.6	22.3	0.00e+00	0	41	0	340787200	56	6153
2026-01-24 12:19:52.99	46.87	11.96	-41.7	-42.8	22.1	0.00e+00	0	41	0	342884352	56	6255
2026-01-24 12:19:54.00	47.04	12.00	-41.7	-42.8	22.1	0.00e+00	0	41	0	344981504	56	6250
2026-01-24 12:19:55.01	47.20	12.05	-41.8	-42.8	22.1	0.00e+00	0	41	0	347078656	56	6313
2026-01-24 12:19:56.02	47.37	12.09	-41.7	-42.8	22.1	0.00e+00	0	41	0	348127232	56	6273
2026-01-24 12:19:57.03	47.54	12.14	-41.8	-42.8	22.1	0.00e+00	0	41	0	350224384	56	6306
2026-01-24 12:19:58.04	47.71	12.18	-41.9	-43.0	21.9	0.00e+00	0	41	0	352321536	56	6428
2026-01-24 12:19:59.05	47.89	12.23	-41.9	-43.0	22.0	0.00e+00	0	41	0	354418688	56	6412
2026-01-24 12:20:00.06	48.06	12.28	-41.9	-43.0	21.8	0.00e+00	0	41	0	356515840	56	6407
2026-01-24 12:20:01.07	48.23	12.32	-42.1	-43.2	21.7	0.00e+00	0	41	0	358612992	56	6596
2026-01-24 12:20:02.08	48.40	12.37	-42.3	-43.4	21.6	0.00e+00	0	41	0	359661568	56	6749
2026-01-24 12:20:03.09	48.57	12.41	-42.1	-43.3	21.6	0.00e+00	0	41	0	361758720	56	6636
2026-01-24 12:20:04.10	48.75	12.46	-42.4	-43.6	21.4	0.00e+00	0	41	0	363855872	56	6864
2026-01-24 12:20:05.10	48.92	12.50	-42.5	-43.7	21.4	0.00e+00	0	41	0	365953024	56	6972
2026-01-24 12:20:06.11	49.09	12.54	-42.5	-43.7	21.3	0.00e+00	0	41	0	368050176	56	6946
2026-01-24 12:20:07.12	49.27	12.59	-42.6	-43.8	21.3	0.00e+00	0	41	0	369098752	56	7009
2026-01-24 12:20:08.12	49.44	12.63	-42.5	-43.7	21.3	0.00e+00	0	41	0	371195904	56	6971
2026-01-24 12:20:09.13	49.62	12.68	-42.9	-44.2	20.9	0.00e+00	0	41	0	373293056	58	6553
2026-01-24 12:20:10.14	49.80	12.72	-42.7	-43.9	21.0	0.00e+00	0	41	0	375390208	58	6370
2026-01-24 12:20:11.15	49.97	12.76	-42.4	-43.6	21.4	0.00e+00	0	41	0	377487360	58	6149
2026-01-24 12:20:12.16	50.15	12.81	-42.5	-43.7	21.3	0.00e+00	0	41	0	378535936	58	6232
2026-01-24 12:20:13.17	50.33	12.85	-42.4	-43.6	21.3	0.00e+00	0	41	0	380633088	58	6120
2026-01-24 12:20:14.18	50.51	12.89	-42.5	-43.7	21.3	0.00e+00	0	41	0	382730240	58	6209
2026-01-24 12:20:15.19	50.69	12.94	-42.7	-43.9	21.1	0.00e+00	0	41	0	384827392	58	6343
2026-01-24 12:20:16.19	50.86	12.98	-42.7	-43.9	21.1	0.00e+00	0	41	0	386924544	58	6349
2026-01-24 12:20:17.20	51.04	13.02	-42.8	-44.1	20.9	0.00e+00	0	41	0	387973120	58	6494
2026-01-24 12:20:18.21	51.22	13.06	-42.9	-44.1	20.9	0.00e+00	0	41	0	390070272	58	6497
2026-01-24 12:20:19.22	51.41	13.11	-42.6	-43.9	21.1	0.00e+00	0	41	0	392167424	58	6328
2026-01-24 12:20:20.23	51.59	13.15	-42.7	-43.9	21.0	0.00e+00	0	41	0	394264576	58	6363
2026-01-24 12:20:21.24	51.77	13.19	-42.7	-43.9	20.9	0.00e+00	0	41	0	396361728	58	6366
2026-01-24 12:20:22.24	51.95	13.23	-42.6	-43.8	21.2	0.00e+00	0	41	0	397410304	58	6312
2026-01-24 12:20:23.25	52.13	13.27	-42.6	-43.8	21.1	0.00e+00	0	41	0	399507456	58	6300
2026-01-24 12:20:24.26	52.32	13.31	-42.7	-43.9	21.1	0.00e+00	0	41	0	401604608	58	6359
2026-01-24 12:20:25.27	52.50	13.36	-42.9	-44.1	20.9	0.00e+00	0	41	0	403701760	58	6518
2026-01-24 12:20:26.28	52.69	13.40	-42.9	-44.1	20.9	0.00e+00	0	41	0	405798912	58	6513
2026-01-24 12:20:27.29	52.87	13.44	-43.1	-44.4	20.6	0.00e+00	0	41	0	406847488	58	6720
2026-01-24 12:20:28.30	53.06	13.48	-43.2	-44.5	20.6	0.00e+00	0	41	0	408944640	58	6776
2026-01-24 12:20:29.31	53.24	13.52	-42.8	-44.1	20.9	0.00e+00	0	41	0	411041792	58	6500
2026-01-24 12:20:30.32	53.43	13.56	-42.9	-44.2	20.9	0.00e+00	0	41	0	413138944	58	6540
2026-01-24 12:20:31.33	53.62	13.60	-42.9	-44.2	20.8	0.00e+00	0	41	0	415236096	58	6577
2026-01-24 12:20:32.34	53.80	13.64	-43.2	-44.5	20.5	0.00e+00	0	41	0	416284672	58	6842
2026-01-24 12:20:33.35	53.99	13.68	-43.5	-44.8	20.1	0.00e+00	0	41	0	418381824	58	7061
2026-01-24 12:20:34.36	54.18	13.72	-43.3	-44.6	20.4	0.00e+00	0	41	0	420478976	58	6900
2026-01-24 12:20:35.37	54.37	13.75	-43.4	-44.7	20.4	0.00e+00	0	41	0	422576128	58	6967
2026-01-24 12:20:36.38	54.56	13.79	-43.1	-44.3	20.6	0.00e+00	0	41	0	424673280	58	6690
2026-01-24 12:20:37.39	54.75	13.83	-43.1	-44.4	20.4	0.00e+00	0	41	0	425721856	58	6763
2026-01-24 12:20:38.39	54.94	13.87	-42.9	-44.2	20.8	0.00e+00	0	41	0	427819008	58	6542
2026-01-24 12:20:39.40	55.13	13.91	-42.9	-44.2	20.7	0.00e+00	0	41	0	429916160	58	6556
2026-01-24 12:20:40.41	55.32	13.95	-42.9	-44.1	20.9	0.00e+00	0	41	0	432013312	58	6489
2026-01-24 12:20:41.42	55.51	13.98	-42.7	-43.9	21.1	0.00e+00	0	41	0	434110464	58	6355
2026-01-24 12:20:42.43	55.71	14.02	-42.9	-44.1	20.8	0.00e+00	0	41	0	435159040	58	6539
2026-01-24 12:20:43.45	55.90	14.06	-42.6	-43.8	21.2	0.00e+00	0	41	0	437256192	58	6310
2026-01-24 12:20:44.45	56.09	14.10	-42.5	-43.7	21.3	0.00e+00	0	41	0	439353344	58	6194
2026-01-24 12:20:45.46	56.29	14.13	-42.3	-43.5	21.5	0.00e+00	0	41	0	441450496	58	6061
2026-01-24 12:20:46.47	56.48	14.17	-42.5	-43.7	21.3	0.00e+00	0	41	0	443547648	58	6180
2026-01-24 12:20:47.48	56.67	14.20	-42.5	-43.7	21.2	0.00e+00	0	41	0	445644800	58	6177
2026-01-24 12:20:48.49	56.87	14.24	-42.5	-43.6	21.3	0.00e+00	0	41	0	446693376	58	6165
2026-01-24 12:20:49.50	57.07	14.28	-42.5	-43.7	21.3	0.00e+00	0	41	0	448790528	58	6224
2026-01-24 12:20:50.51	57.26	14.31	-42.6	-43.8	21.2	0.00e+00	0	41	0	450887680	58	6283
2026-01-24 12:20:51.52	57.46	14.35	-42.4	-43.5	21.4	0.00e+00	0	41	0	452984832	58	6078
2026-01-24 12:20:52.53	57.65	14.38	-42.2	-43.4	21.6	0.00e+00	0	41	0	455081984	58	5968
2026-01-24 12:20:53.54	57.85	14.42	-42.1	-43.2	21.6	0.00e+00	0	41	0	456130560	58	5846
2026-01-24 12:20:54.55	58.05	14.45	-41.9	-43.0	21.9	0.00e+00	0	41	0	458227712	56	6450
2026-01-24 12:20:55.56	58.25	14.48	-41.9	-42.9	22.1	0.00e+00	0	41	0	460324864	56	6379
2026-01-24 12:20:56.57	58.45	14.52	-41.5	-42.5	22.4	0.00e+00	0	41	0	462422016	56	6084
2026-01-24 12:20:57.58	58.65	14.55	-41.5	-42.5	22.4	0.00e+00	0	41	0	464519168	56	6074
2026-01-24 12:20:58.59	58.85	14.59	-41.1	-42.1	22.8	0.00e+00	0	41	0	465567744	56	5764
2026-01-24 12:20:59.59	59.04	14.62	-41.1	-42.0	22.8	0.00e+00	0	41	0	467664896	56	5747
2026-01-24 12:21:00.60	59.25	14.65	-41.2	-42.2	22.7	0.00e+00	0	41	0	469762048	56	5845
2026-01-24 12:21:01.61	59.45	14.68	-41.3	-42.4	22.6	0.00e+00	0	41	0	471859200	56	5974
2026-01-24 12:21:02.62	59.65	14.72	-41.3	-42.4	22.5	0.00e+00	0	41	0	473956352	56	5965
2026-01-24 12:21:03.63	59.85	14.75	-41.4	-42.4	22.4	0.00e+00	0	41	0	475004928	56	6022
2026-01-24 12:21:04.64	60.05	14.78	-41.5	-42.5	22.5	0.00e+00	0	41	0	477102080	56	6079
2026-01-24 12:21:05.65	60.25	14.81	-41.0	-42.0	22.9	0.00e+00	0	41	0	479199232	56	5720
2026-01-24 12:21:06.66	60.46	14.84	-41.3	-42.3	22.5	0.00e+00	0	41	0	481296384	56	5950
2026-01-24 12:21:07.66	60.66	14.87	-41.4	-42.4	22.6	0.00e+00	0	41	0	483393536	56	5976
2026-01-24 12:21:08.67	60.86	14.90	-41.3	-42.3	22.6	0.00e+00	0	41	0	484442112	56	5935
2026-01-24 12:21:09.68	61.07	14.93	-41.2	-42.2	22.6	0.00e+00	0	41	0	486539264	56	5863
2026-01-24 12:21:10.69	61.27	14.96	-41.3	-42.3	22.7	0.00e+00	0	41	0	488636416	56	5926
2026-01-24 12:21:11.70	61.48	14.99	-41.1	-42.1	22.6	0.00e+00	0	41	0	490733568	56	5791
2026-01-24 12:21:12.71	61.68	15.02	-41.4	-42.4	22.4	0.00e+00	0	41	0	492830720	56	5992
2026-01-24 12:21:13.72	61.89	15.05	-41.5	-42.5	22.3	0.00e+00	0	41	0	493879296	56	6065
2026-01-24 12:21:14.73	62.10	15.08	-41.4	-42.5	22.3	0.00e+00	0	41	0	495976448	56	6048
2026-01-24 12:21:15.74	62.30	15.11	-41.5	-42.5	22.4	0.00e+00	0	41	0	498073600	56	6079
2026-01-24 12:21:16.75	62.51	15.13	-41.4	-42.4	22.4	0.00e+00	0	41	0	500170752	56	5987
2026-01-24 12:21:17.76	62.72	15.16	-41.5	-42.5	22.3	0.00e+00	0	41	0	502267904	56	6090
2026-01-24 12:21:18.76	62.92	15.19	-41.5	-42.5	22.4	0.00e+00	0	41	0	503316480	56	6058
2026-01-24 12:21:19.78	63.13	15.22	-41.6	-42.7	22.2	0.00e+00	0	41	0	505413632	56	6183
2026-01-24 12:21:20.78	63.34	15.24	-41.7	-42.8	22.1	0.00e+00	0	41	0	507510784	56	6279
2026-01-24 12:21:21.79	63.55	15.27	-41.8	-42.9	22.1	0.00e+00	0	41	0	509607936	56	6320
2026-01-24 12:21:22.81	63.76	15.30	-41.8	-42.9	22.0	0.00e+00	0	41	0	511705088	56	6339
2026-01-24 12:21:23.81	63.97	15.32	-41.9	-43.0	21.9	0.00e+00	0	41	0	513802240	56	6429
2026-01-24 12:21:24.82	64.18	15.35	-42.0	-43.0	21.9	0.00e+00	0	41	0	514850816	56	6460
2026-01-24 12:21:25.83	64.39	15.37	-41.9	-43.0	21.8	0.00e+00	0	41	0	516947968	56	6448
2026-01-24 12:21:26.84	64.60	15.40	-41.9	-43.0	22.0	0.00e+00	0	41	0	519045120	56	6401
2026-01-24 12:21:27.85	64.81	15.42	-42.1	-43.2	21.8	0.00e+00	0	41	0	521142272	56	6563
2026-01-24 12:21:28.86	65.02	15.44	-42.3	-43.4	21.7	0.00e+00	0	41	0	523239424	56	6718
2026-01-24 12:21:29.87	65.23	15.47	-42.0	-43.1	21.8	0.00e+00	0	41	0	524288000	56	6512
2026-01-24 12:21:30.88	65.45	15.49	-41.8	-42.9	22.0	0.00e+00	0	41	0	526385152	56	6375
2026-01-24 12:21:31.89	65.66	15.51	-42.1	-43.3	21.8	0.00e+00	0	41	0	528482304	56	6628
2026-01-24 12:21:32.90	65.87	15.54	-41.9	-43.0	21.9	0.00e+00	0	41	0	530579456	56	6442
2026-01-24 12:21:33.91	66.08	15.56	-42.0	-43.2	21.9	0.00e+00	0	41	0	532676608	56	6563
2026-01-24 12:21:34.92	66.30	15.58	-42.1	-43.3	21.7	0.00e+00	0	41	0	533725184	56	6648
2026-01-24 12:21:35.93	66.51	15.60	-41.8	-43.0	21.9	0.00e+00	0	41	0	535822336	56	6416
2026-01-24 12:21:36.94	66.72	15.62	-41.8	-42.9	22.0	0.00e+00	0	41	0	537919488	56	6384
2026-01-24 12:21:37.95	66.94	15.65	-41.8	-42.9	22.1	0.00e+00	0	41	0	540016640	56	6344
2026-01-24 12:21:38.95	67.15	15.67	-41.9	-43.1	21.9	0.00e+00	0	41	0	542113792	56	6505
2026-01-24 12:21:39.96	67.37	15.69	-41.7	-42.8	22.1	0.00e+00	0	41	0	543162368	56	6278
2026-01-24 12:21:40.97	67.58	15.71	-41.7	-42.8	22.0	0.00e+00	0	41	0	545259520	56	6314
2026-01-24 12:21:41.98	67.80	15.73	-41.8	-42.9	22.1	0.00e+00	0	41	0	547356672	56	6342
2026-01-24 12:21:42.99	68.01	15.74	-41.9	-43.0	21.9	0.00e+00	0	41	0	549453824	56	6459
2026-01-24 12:21:44.00	68.23	15.76	-41.8	-43.0	22.0	0.00e+00	0	41	0	551550976	56	6392
2026-01-24 12:21:45.01	68.44	15.78	-42.0	-43.1	22.0	0.00e+00	0	41	0	552599552	56	6492
2026-01-24 12:21:46.02	68.66	15.80	-41.9	-43.0	21.8	0.00e+00	0	41	0	554696704	56	6464
2026-01-24 12:21:47.03	68.88	15.82	-41.7	-42.8	22.2	0.00e+00	0	41	0	556793856	56	6254
2026-01-24 12:21:48.04	69.10	15.83	-41.6	-42.7	22.3	0.00e+00	0	41	0	558891008	56	6214
2026-01-24 12:21:49.05	69.31	15.85	-41.5	-42.6	22.3	0.00e+00	0	41	0	560988160	56	6130
2026-01-24 12:21:50.06	69.53	15.87	-41.5	-42.6	22.2	0.00e+00	0	41	0	562036736	56	6131
2026-01-24 12:21:51.06	69.75	15.88	-41.4	-42.5	22.3	0.00e+00	0	41	0	564133888	56	6068
2026-01-24 12:21:52.08	69.97	15.90	-41.6	-42.7	22.2	0.00e+00	0	41	0	566231040	56	6212
2026-01-24 12:21:53.08	70.18	15.92	-41.6	-42.7	22.2	0.00e+00	0	41	0	568328192	56	6193
2026-01-24 12:21:54.09	70.40	15.93	-41.7	-42.7	22.1	0.00e+00	0	41	0	570425344	56	6238
2026-01-24 12:21:55.10	70.62	15.94	-41.7	-42.8	22.1	0.00e+00	0	41	0	571473920	56	6275
2026-01-24 12:21:56.11	70.84	15.96	-41.5	-42.5	22.3	0.00e+00	0	41	0	573571072	56	6095
2026-01-24 12:21:57.12	71.06	15.97	-41.7	-42.8	22.1	0.00e+00	0	41	0	575668224	56	6257
2026-01-24 12:21:58.13	71.28	15.99	-41.8	-42.9	21.8	0.00e+00	0	41	0	577765376	56	6366
2026-01-24 12:21:59.14	71.49	16.00	-41.8	-42.9	21.9	0.00e+00	0	41	0	579862528	56	6333
2026-01-24 12:22:00.15	71.71	16.01	-41.8	-42.8	22.0	0.00e+00	0	41	0	581959680	56	6310
2026-01-24 12:22:01.16	71.93	16.02	-41.8	-42.9	22.0	0.00e+00	0	41	0	583008256	56	6360
2026-01-24 12:22:02.17	72.15	16.04	-41.7	-42.8	22.2	0.00e+00	0	41	0	585105408	56	6256
2026-01-24 12:22:03.18	72.37	16.05	-41.7	-42.8	22.2	0.00e+00	0	41	0	587202560	56	6267
2026-01-24 12:22:04.19	72.59	16.06	-41.6	-42.7	22.3	0.00e+00	0	41	0	589299712	56	6199
2026-01-24 12:22:05.20	72.82	16.07	-41.7	-42.7	22.2	0.00e+00	0	41	0	591396864	56	6215
2026-01-24 12:22:06.21	73.04	16.08	-41.8	-42.9	22.2	0.00e+00	0	41	0	592445440	56	6349
2026-01-24 12:22:07.22	73.26	16.09	-41.5	-42.6	22.4	0.00e+00	0	41	0	594542592	56	6105
2026-01-24 12:22:08.23	73.48	16.10	-41.6	-42.6	22.3	0.00e+00	0	41	0	596639744	56	6154
2026-01-24 12:22:09.24	73.70	16.11	-41.6	-42.7	22.3	0.00e+00	0	41	0	598736896	56	6195
2026-01-24 12:22:10.25	73.92	16.12	-41.5	-42.5	22.5	0.00e+00	0	41	0	600834048	56	6071
2026-01-24 12:22:11.26	74.14	16.13	-41.5	-42.5	22.3	0.00e+00	0	41	0	601882624	56	6079
2026-01-24 12:22:12.27	74.36	16.13	-41.5	-42.6	22.3	0.00e+00	0	41	0	603979776	56	6112
2026-01-24 12:22:13.28	74.58	16.14	-41.5	-42.5	22.5	0.00e+00	0	41	0	606076928	56	6069
2026-01-24 12:22:14.29	74.81	16.15	-41.6	-42.7	22.4	0.00e+00	0	41	0	608174080	56	6176
2026-01-24 12:22:15.29	75.03	16.15	-41.5	-42.6	22.3	0.00e+00	0	41	0	610271232	56	6115
2026-01-24 12:22:16.30	75.25	16.16	-41.5	-42.5	22.4	0.00e+00	0	41	0	611319808	56	6059
2026-01-24 12:22:17.31	75.47	16.17	-41.7	-42.7	22.2	0.00e+00	0	41	0	613416960	56	6225
2026-01-24 12:22:18.32	75.69	16.17	-41.6	-42.7	22.3	0.00e+00	0	41	0	615514112	56	6198
2026-01-24 12:22:19.33	75.91	16.18	-41.5	-42.5	22.5	0.00e+00	0	41	0	617611264	56	6054
2026-01-24 12:22:20.34	76.14	16.18	-41.5	-42.6	22.4	0.00e+00	0	41	0	619708416	56	6130
2026-01-24 12:22:21.35	76.36	16.19	-41.6	-42.7	22.4	0.00e+00	0	41	0	620756992	56	6176
2026-01-24 12:22:22.36	76.58	16.19	-41.8	-42.8	22.0	0.00e+00	0	41	0	622854144	56	6295
2026-01-24 12:22:23.37	76.80	16.19	-41.6	-42.7	22.2	0.00e+00	0	41	0	624951296	56	6205
2026-01-24 12:22:24.38	77.02	16.20	-41.8	-42.9	22.2	0.00e+00	0	41	0	627048448	56	6343
2026-01-24 12:22:25.39	77.25	16.20	-41.4	-42.4	22.6	0.00e+00	0	41	0	629145600	56	5989
2026-01-24 12:22:26.40	77.47	16.20	-41.4	-42.4	22.6	0.00e+00	0	41	0	630194176	56	5996
2026-01-24 12:22:27.41	77.69	16.20	-41.1	-42.1	22.7	0.00e+00	0	41	0	632291328	56	5806
2026-01-24 12:22:28.42	77.91	16.21	-41.1	-42.1	22.8	0.00e+00	0	41	0	634388480	56	5823
2026-01-24 12:22:29.43	78.14	16.21	-41.3	-42.3	22.5	0.00e+00	0	41	0	636485632	56	5956
2026-01-24 12:22:30.44	78.36	16.21	-41.2	-42.3	22.6	0.00e+00	0	41	0	638582784	56	5913
2026-01-24 12:22:31.45	78.58	16.21	-41.5	-42.6	22.4	0.00e+00	0	41	0	639631360	56	6135
2026-01-24 12:22:32.46	78.81	16.21	-41.1	-42.1	22.8	0.00e+00	0	41	0	641728512	56	5784
2026-01-24 12:22:33.47	79.03	16.21	-41.4	-42.4	22.6	0.00e+00	0	41	0	643825664	56	6004
2026-01-24 12:22:34.48	79.25	16.21	-41.4	-42.5	22.5	0.00e+00	0	41	0	645922816	56	6056
2026-01-24 12:22:35.49	79.47	16.20	-41.4	-42.4	22.4	0.00e+00	0	41	0	648019968	56	6020
2026-01-24 12:22:36.50	79.70	16.20	-41.1	-42.2	22.8	0.00e+00	0	41	0	649068544	56	5837
2026-01-24 12:22:37.51	79.92	16.20	-41.1	-42.1	22.8	0.00e+00	0	41	0	651165696	56	5824
2026-01-24 12:22:38.52	80.14	16.20	-41.2	-42.2	22.8	0.00e+00	0	41	0	653262848	56	5857
2026-01-24 12:22:39.53	80.36	16.19	-41.2	-42.3	22.7	0.00e+00	0	41	0	655360000	56	5897
2026-01-24 12:22:40.54	80.59	16.19	-41.2	-42.2	22.7	0.00e+00	0	41	0	657457152	56	5848
2026-01-24 12:22:41.55	80.81	16.19	-41.0	-41.9	23.0	0.00e+00	0	41	0	659554304	56	5679
2026-01-24 12:22:42.56	81.03	16.18	-41.1	-42.1	22.9	0.00e+00	0	41	0	660602880	56	5804
2026-01-24 12:22:43.57	81.25	16.18	-41.0	-42.0	22.9	0.00e+00	0	41	0	662700032	56	5714
2026-01-24 12:22:44.58	81.47	16.17	-41.2	-42.2	22.8	0.00e+00	0	41	0	664797184	56	5841
2026-01-24 12:22:45.59	81.70	16.17	-41.3	-42.4	22.5	0.00e+00	0	41	0	666894336	56	5969
2026-01-24 12:22:46.60	81.92	16.16	-41.2	-42.2	22.7	0.00e+00	0	41	0	668991488	56	5853
2026-01-24 12:22:47.61	82.14	16.16	-41.3	-42.3	22.6	0.00e+00	0	41	0	670040064	56	5937
2026-01-24 12:22:48.61	82.36	16.15	-41.4	-42.4	22.5	0.00e+00	0	41	0	672137216	56	5970
2026-01-24 12:22:49.62	82.58	16.14	-41.4	-42.4	22.4	0.00e+00	0	41	0	674234368	56	5994
2026-01-24 12:22:50.63	82.80	16.13	-41.6	-42.7	22.3	0.00e+00	0	41	0	676331520	56	6205
2026-01-24 12:22:51.64	83.03	16.13	-41.4	-42.4	22.4	0.00e+00	0	41	0	678428672	56	5990
2026-01-24 12:22:52.65	83.25	16.12	-41.2	-42.2	22.7	0.00e+00	0	41	0	679477248	56	5890
2026-01-24 12:22:53.66	83.47	16.11	-41.4	-42.4	22.5	0.00e+00	0	41	0	681574400	56	6029
2026-01-24 12:22:54.67	83.69	16.10	-41.1	-42.2	22.8	0.00e+00	0	41	0	683671552	56	5837
2026-01-24 12:22:55.68	83.91	16.09	-41.1	-42.2	22.9	0.00e+00	0	41	0	685768704	56	5839
2026-01-24 12:22:56.69	84.13	16.08	-40.6	-41.6	23.1	0.00e+00	0	41	0	687865856	56	5472
2026-01-24 12:22:57.70	84.35	16.07	-40.5	-41.6	23.3	0.00e+00	0	41	0	688914432	54	6105
2026-01-24 12:22:58.71	84.57	16.06	-40.6	-41.6	23.2	0.00e+00	0	41	0	691011584	54	6140
2026-01-24 12:22:59.72	84.79	16.05	-40.8	-41.8	23.0	0.00e+00	0	41	0	693108736	54	6299
2026-01-24 12:23:00.73	85.01	16.04	-41.0	-42.1	22.7	0.00e+00	0	41	0	695205888	54	6466
2026-01-24 12:23:01.74	85.23	16.03	-40.8	-41.7	23.1	0.00e+00	0	41	0	697303040	54	6218
2026-01-24 12:23:02.75	85.46	16.01	-40.8	-41.8	23.0	0.00e+00	0	41	0	698351616	54	6258
2026-01-24 12:23:03.76	85.67	16.00	-40.7	-41.6	23.1	0.00e+00	0	41	0	700448768	54	6154
2026-01-24 12:23:04.77	85.89	15.99	-40.7	-41.6	23.2	0.00e+00	0	41	0	702545920	54	6163
2026-01-24 12:23:05.78	86.11	15.97	-40.7	-41.6	23.0	0.00e+00	0	41	0	704643072	54	6146
2026-01-24 12:23:06.79	86.33	15.96	-40.6	-41.6	23.1	0.00e+00	0	41	0	706740224	54	6132
2026-01-24 12:23:07.80	86.55	15.95	-40.7	-41.6	23.2	0.00e+00	0	41	0	707788800	54	6165
2026-01-24 12:23:08.81	86.77	15.93	-40.6	-41.6	23.2	0.00e+00	0	41	0	709885952	54	6113
2026-01-24 12:23:09.81	86.99	15.92	-40.6	-41.6	23.2	0.00e+00	0	41	0	711983104	54	6126
2026-01-24 12:23:10.82	87.21	15.90	-40.6	-41.5	23.2	0.00e+00	0	41	0	714080256	54	6069
2026-01-24 12:23:11.83	87.42	15.89	-40.7	-41.7	23.2	0.00e+00	0	41	0	716177408	54	6182
2026-01-24 12:23:12.84	87.64	15.87	-40.6	-41.6	23.1	0.00e+00	0	41	0	718274560	54	6112
2026-01-24 12:23:13.85	87.86	15.85	-40.5	-41.5	23.2	0.00e+00	0	41	0	719323136	54	6046
2026-01-24 12:23:14.86	88.08	15.84	-40.4	-41.3	23.4	0.00e+00	0	41	0	721420288	54	5964
2026-01-24 12:23:15.87	88.30	15.82	-40.5	-41.4	23.3	0.00e+00	0	41	0	723517440	54	6015
2026-01-24 12:23:16.88	88.51	15.80	-40.7	-41.6	23.1	0.00e+00	0	41	0	725614592	54	6160
2026-01-24 12:23:17.89	88.73	15.78	-40.8	-41.8	22.9	0.00e+00	0	41	0	727711744	54	6268
2026-01-24 12:23:18.90	88.95	15.77	-41.0	-42.0	22.7	0.00e+00	0	41	0	728760320	54	6444
2026-01-24 12:23:19.91	89.16	15.75	-40.7	-41.7	23.2	0.00e+00	0	41	0	730857472	54	6199
2026-01-24 12:23:20.92	89.38	15.73	-40.2	-41.1	23.6	0.00e+00	0	41	0	732954624	54	5775
2026-01-24 12:23:21.93	89.60	15.71	-40.2	-41.1	23.6	0.00e+00	0	41	0	735051776	54	5825
2026-01-24 12:23:22.94	89.81	15.69	-40.0	-40.8	23.8	0.00e+00	0	41	0	736100352	54	5629
2026-01-24 12:23:23.95	90.03	15.67	-40.0	-40.9	23.7	0.00e+00	0	41	0	738197504	54	5695
2026-01-24 12:23:24.95	90.24	15.65	-40.1	-41.1	23.6	0.00e+00	0	41	0	740294656	54	5777
2026-01-24 12:23:25.96	90.45	15.63	-40.3	-41.3	23.2	0.00e+00	0	41	0	742391808	54	5900
2026-01-24 12:23:26.97	90.67	15.61	-40.5	-41.5	23.2	0.00e+00	0	41	0	744488960	54	6069
2026-01-24 12:23:27.98	90.88	15.58	-40.7	-41.6	23.1	0.00e+00	0	41	0	746586112	54	6166
2026-01-24 12:23:28.99	91.10	15.56	-40.6	-41.6	23.2	0.00e+00	0	41	0	747634688	54	6168
2026-01-24 12:23:30.00	91.31	15.54	-40.7	-41.7	23.1	0.00e+00	0	41	0	749731840	54	6175
2026-01-24 12:23:31.01	91.52	15.52	-40.5	-41.5	23.2	0.00e+00	0	41	0	751828992	54	6071
2026-01-24 12:23:32.02	91.74	15.49	-40.4	-41.4	23.4	0.00e+00	0	41	0	753926144	54	5967
2026-01-24 12:23:33.03	91.95	15.47	-40.1	-41.0	23.6	0.00e+00	0	41	0	756023296	54	5756
2026-01-24 12:23:34.04	92.16	15.45	-40.2	-41.1	23.6	0.00e+00	0	41	0	757071872	54	5800
2026-01-24 12:23:35.05	92.37	15.42	-40.1	-41.0	23.7	0.00e+00	0	41	0	759169024	54	5716
2026-01-24 12:23:36.06	92.58	15.40	-40.0	-40.9	23.8	0.00e+00	0	41	0	761266176	54	5639
2026-01-24 12:23:37.07	92.80	15.37	-39.7	-40.5	24.1	0.00e+00	0	41	0	763363328	52	6102
2026-01-24 12:23:38.07	93.00	15.35	-39.7	-40.6	24.1	0.00e+00	0	41	0	765460480	52	6127
2026-01-24 12:23:39.08	93.22	15.32	-39.8	-40.7	24.0	0.00e+00	0	41	0	766509056	52	6205
2026-01-24 12:23:40.09	93.43	15.30	-39.7	-40.5	24.1	0.00e+00	0	41	0	768606208	52	6092
2026-01-24 12:23:41.10	93.64	15.27	-39.7	-40.6	24.0	0.00e+00	0	41	0	770703360	52	6148
2026-01-24 12:23:42.11	93.84	15.24	-39.5	-40.4	24.2	0.00e+00	0	41	0	772800512	52	5970
2026-01-24 12:23:43.12	94.05	15.22	-39.7	-40.6	24.0	0.00e+00	0	41	0	774897664	52	6140
2026-01-24 12:23:44.13	94.26	15.19	-39.6	-40.5	24.1	0.00e+00	0	41	0	775946240	52	6045
2026-01-24 12:23:45.14	94.47	15.16	-39.7	-40.6	24.0	0.00e+00	0	41	0	778043392	52	6109
2026-01-24 12:23:46.15	94.68	15.14	-39.8	-40.7	23.9	0.00e+00	0	41	0	780140544	52	6175
2026-01-24 12:23:47.16	94.89	15.11	-39.9	-40.8	23.9	0.00e+00	0	41	0	782237696	52	6283
2026-01-24 12:23:48.17	95.09	15.08	-40.0	-41.0	23.7	0.00e+00	0	41	0	784334848	52	6392
2026-01-24 12:23:49.18	95.30	15.05	-40.1	-41.0	23.7	0.00e+00	0	41	0	785383424	52	6424
2026-01-24 12:23:50.19	95.51	15.02	-40.0	-40.9	23.9	0.00e+00	0	41	0	787480576	52	6337
2026-01-24 12:23:51.19	95.71	14.99	-39.9	-40.8	23.9	0.00e+00	0	41	0	789577728	52	6267
2026-01-24 12:23:52.20	95.92	14.96	-39.8	-40.7	24.0	0.00e+00	0	41	0	791674880	52	6216
2026-01-24 12:23:53.21	96.12	14.93	-39.8	-40.6	23.9	0.00e+00	0	41	0	793772032	52	6163
2026-01-24 12:23:54.22	96.33	14.90	-39.5	-40.4	24.2	0.00e+00	0	41	0	794820608	52	5968
2026-01-24 12:23:55.23	96.53	14.87	-39.5	-40.4	24.1	0.00e+00	0	41	0	796917760	52	5983
2026-01-24 12:23:56.24	96.74	14.84	-39.5	-40.4	24.2	0.00e+00	0	41	0	799014912	52	5981
2026-01-24 12:23:57.25	96.94	14.81	-39.4	-40.2	24.3	0.00e+00	0	41	0	801112064	52	5885
2026-01-24 12:23:58.26	97.14	14.78	-39.5	-40.4	24.3	0.00e+00	0	41	0	803209216	52	6000
2026-01-24 12:23:59.27	97.35	14.75	-39.6	-40.5	24.2	0.00e+00	0	41	0	804257792	52	6056
2026-01-24 12:24:00.28	97.55	14.71	-39.8	-40.7	24.0	0.00e+00	0	41	0	806354944	52	6189
2026-01-24 12:24:01.29	97.75	14.68	-39.9	-40.7	23.9	0.00e+00	0	41	0	808452096	52	6242
2026-01-24 12:24:02.30	97.95	14.65	-40.0	-40.9	23.7	0.00e+00	0	41	0	810549248	52	6379
2026-01-24 12:24:03.31	98.15	14.62	-40.3	-41.3	23.4	0.00e+00	0	41	0	812646400	52	6621
2026-01-24 12:24:04.32	98.36	14.58	-40.4	-41.3	23.4	0.00e+00	0	41	0	814743552	52	6636
2026-01-24 12:24:05.33	98.56	14.55	-40.5	-41.4	23.3	0.00e+00	0	41	0	815792128	52	6729
2026-01-24 12:24:06.34	98.76	14.52	-40.5	-41.5	23.1	0.00e+00	0	41	0	817889280	52	6774
2026-01-24 12:24:07.34	98.95	14.48	-40.5	-41.4	23.1	0.00e+00	0	41	0	819986432	52	6744
2026-01-24 12:24:08.35	99.15	14.45	-40.4	-41.3	23.3	0.00e+00	0	41	0	822083584	52	6676
2026-01-24 12:24:09.36	99.35	14.41	-40.4	-41.3	23.4	0.00e+00	0	41	0	824180736	52	6640
2026-01-24 12:24:10.37	99.55	14.38	-40.2	-41.1	23.1	0.00e+00	0	41	0	825229312	52	6536
2026-01-24 12:24:11.38	99.75	14.34	-40.3	-41.2	23.4	0.00e+00	0	41	0	827326464	52	6594
2026-01-24 12:24:12.39	99.94	14.31	-40.4	-41.4	23.3	0.00e+00	0	41	0	829423616	52	6701
2026-01-24 12:24:13.39	100.14	14.27	-40.5	-41.4	23.3	0.00e+00	0	41	0	831520768	52	6755
2026-01-24 12:24:14.40	100.34	14.24	-40.5	-41.4	23.3	0.00e+00	0	41	0	833617920	52	6761
2026-01-24 12:24:15.41	100.53	14.20	-40.5	-41.4	23.2	0.00e+00	0	41	0	834666496	52	6769
2026-01-24 12:24:16.42	100.73	14.17	-40.4	-41.4	23.3	0.00e+00	0	41	0	836763648	52	6708
2026-01-24 12:24:17.43	100.92	14.13	-40.5	-41.4	23.2	0.00e+00	0	41	0	838860800	52	6744
2026-01-24 12:24:18.44	101.12	14.09	-40.4	-41.3	23.2	0.00e+00	0	41	0	840957952	52	6678
2026-01-24 12:24:19.45	101.31	14.05	-40.6	-41.6	22.9	0.00e+00	0	41	0	843055104	52	6876
2026-01-24 12:24:20.46	101.50	14.02	-40.6	-41.6	22.8	0.00e+00	0	41	0	844103680	52	6899
2026-01-24 12:24:21.47	101.70	13.98	-40.8	-41.8	22.4	0.00e+00	0	41	0	846200832	54	6271
2026-01-24 12:24:22.48	101.89	13.94	-41.2	-42.2	22.4	0.00e+00	0	41	0	848297984	54	6576
2026-01-24 12:24:23.48	102.08	13.90	-41.4	-42.5	22.2	0.00e+00	0	41	0	850395136	54	6787
2026-01-24 12:24:24.49	102.27	13.87	-41.8	-42.9	21.9	0.00e+00	0	41	0	852492288	54	7106
2026-01-24 12:24:25.50	102.46	13.83	-42.1	-43.2	21.7	0.00e+00	0	41	0	853540864	56	6563
2026-01-24 12:24:26.51	102.65	13.79	-42.2	-43.3	21.6	0.00e+00	0	41	0	855638016	56	6687
2026-01-24 12:24:27.52	102.84	13.75	-42.3	-43.5	21.4	0.00e+00	0	41	0	857735168	56	6785
2026-01-24 12:24:28.53	103.03	13.71	-42.4	-43.6	21.4	0.00e+00	0	41	0	859832320	56	6853
2026-01-24 12:24:29.54	103.22	13.67	-42.6	-43.8	21.2	0.00e+00	0	41	0	861929472	56	7039
2026-01-24 12:24:30.55	103.41	13.63	-42.5	-43.7	21.2	0.00e+00	0	41	0	862978048	56	6990
2026-01-24 12:24:31.56	103.60	13.59	-42.5	-43.7	21.2	0.00e+00	0	41	0	865075200	56	6986
2026-01-24 12:24:32.57	103.79	13.55	-42.6	-43.8	21.1	0.00e+00	0	41	0	867172352	56	7026
2026-01-24 12:24:33.58	103.98	13.51	-42.6	-43.9	21.1	0.00e+00	0	41	0	869269504	58	6327
2026-01-24 12:24:34.59	104.16	13.47	-42.4	-43.6	21.3	0.00e+00	0	41	0	871366656	58	6155
2026-01-24 12:24:35.60	104.35	13.43	-42.3	-43.5	21.3	0.00e+00	0	41	0	872415232	58	6093
2026-01-24 12:24:36.61	104.53	13.39	-42.2	-43.4	21.5	0.00e+00	0	41	0	874512384	58	5983
2026-01-24 12:24:37.62	104.72	13.35	-42.0	-43.2	21.6	0.00e+00	0	41	0	876609536	58	5855
2026-01-24 12:24:38.63	104.91	13.31	-42.0	-43.2	21.7	0.00e+00	0	41	0	878706688	58	5837
2026-01-24 12:24:39.64	105.09	13.26	-41.8	-42.9	21.9	0.00e+00	0	41	0	880803840	58	5664
2026-01-24 12:24:40.64	105.27	13.22	-41.8	-42.9	22.0	0.00e+00	0	41	0	881852416	56	6354
2026-01-24 12:24:41.65	105.45	13.18	-41.9	-43.0	21.8	0.00e+00	0	41	0	883949568	56	6404
2026-01-24 12:24:42.66	105.64	13.14	-41.9	-43.0	21.8	0.00e+00	0	41	0	886046720	56	6462
2026-01-24 12:24:43.67	105.82	13.10	-41.8	-42.9	21.9	0.00e+00	0	41	0	888143872	56	6376
2026-01-24 12:24:44.68	106.00	13.05	-42.0	-43.1	21.7	0.00e+00	0	41	0	890241024	56	6534
2026-01-24 12:24:45.69	106.18	13.01	-42.1	-43.3	21.6	0.00e+00	0	41	0	892338176	56	6668
2026-01-24 12:24:46.70	106.36	12.97	-42.4	-43.6	21.3	0.00e+00	0	41	0	893386752	56	6888
2026-01-24 12:24:47.71	106.54	12.93	-42.4	-43.6	21.2	0.00e+00	0	41	0	895483904	56	6883
2026-01-24 12:24:48.71	106.72	12.88	-42.7	-43.9	20.8	0.00e+00	0	41	0	897581056	56	7162
2026-01-24 12:24:49.72	106.90	12.84	-42.7	-44.0	20.8	0.00e+00	0	41	0	899678208	58	6444
2026-01-24 12:24:50.74	107.08	12.80	-42.7	-44.0	20.8	0.00e+00	0	41	0	900726784	58	6445
2026-01-24 12:24:51.74	107.26	12.75	-42.9	-44.2	20.5	0.00e+00	0	41	0	902823936	58	6598
2026-01-24 12:24:52.75	107.44	12.71	-42.8	-44.0	20.7	0.00e+00	0	41	0	904921088	58	6455
2026-01-24 12:24:53.76	107.61	12.66	-42.6	-43.8	20.6	0.00e+00	0	41	0	907018240	58	6307
2026-01-24 12:24:54.77	107.79	12.62	-42.5	-43.7	20.9	0.00e+00	0	41	0	909115392	58	6207
2026-01-24 12:24:55.78	107.97	12.58	-42.6	-43.8	21.1	0.00e+00	0	41	0	910163968	58	6285
2026-01-24 12:24:56.79	108.14	12.53	-42.3	-43.5	21.3	0.00e+00	0	41	0	912261120	58	6051
2026-01-24 12:24:57.80	108.32	12.49	-42.1	-43.2	21.6	0.00e+00	0	41	0	914358272	58	5867
2026-01-24 12:24:58.81	108.49	12.44	-42.1	-43.2	21.6	0.00e+00	0	41	0	916455424	58	5895
2026-01-24 12:24:59.82	108.67	12.40	-42.1	-43.3	21.5	0.00e+00	0	41	0	918552576	58	5929
2026-01-24 12:25:00.83	108.84	12.35	-42.2	-43.3	21.4	0.00e+00	0	41	0	920649728	58	5963
2026-01-24 12:25:01.84	109.01	12.31	-42.3	-43.5	21.2	0.00e+00	0	41	0	921698304	58	6034
2026-01-24 12:25:02.85	109.19	12.26	-42.0	-43.2	21.4	0.00e+00	0	41	0	923795456	58	5844
2026-01-24 12:25:03.86	109.36	12.21	-42.2	-43.3	21.3	0.00e+00	0	41	0	925892608	58	5940
2026-01-24 12:25:04.87	109.53	12.17	-42.0	-43.1	21.4	0.00e+00	0	41	0	927989760	58	5813
2026-01-24 12:25:05.88	109.70	12.12	-41.9	-43.0	21.5	0.00e+00	0	41	0	930086912	58	5737
2026-01-24 12:25:06.89	109.87	12.08	-41.7	-42.8	21.9	0.00e+00	0	41	0	931135488	56	6317
2026-01-24 12:25:07.90	110.04	12.03	-41.5	-42.5	22.1	0.00e+00	0	41	0	933232640	56	6086
2026-01-24 12:25:08.91	110.21	11.98	-41.7	-42.8	21.7	0.00e+00	0	41	0	935329792	56	6302
2026-01-24 12:25:09.92	110.38	11.94	-41.8	-42.9	21.8	0.00e+00	0	41	0	937426944	56	6376
2026-01-24 12:25:10.93	110.55	11.89	-42.0	-43.1	21.6	0.00e+00	0	41	0	939524096	56	6513
2026-01-24 12:25:11.94	110.72	11.84	-41.9	-43.0	21.7	0.00e+00	0	41	0	940572672	56	6455
2026-01-24 12:25:12.95	110.88	11.80	-41.7	-42.8	21.9	0.00e+00	0	41	0	942669824	56	6308
2026-01-24 12:25:13.96	111.05	11.75	-41.8	-43.0	21.8	0.00e+00	0	41	0	944766976	56	6403
2026-01-24 12:25:14.97	111.22	11.70	-41.9	-43.1	21.5	0.00e+00	0	41	0	946864128	56	6504
2026-01-24 12:25:15.98	111.38	11.65	-42.0	-43.2	21.5	0.00e+00	0	41	0	948961280	56	6569
2026-01-24 12:25:16.99	111.55	11.61	-42.0	-43.1	21.6	0.00e+00	0	41	0	950009856	56	6529
2026-01-24 12:25:17.99	111.71	11.56	-42.1	-43.2	21.5	0.00e+00	0	41	0	952107008	56	6599
2026-01-24 12:25:19.00	111.88	11.51	-42.2	-43.5	21.3	0.00e+00	0	41	0	954204160	56	6789
2026-01-24 12:25:20.01	112.04	11.46	-42.3	-43.6	21.1	0.00e+00	0	41	0	956301312	56	6918
2026-01-24 12:25:21.02	112.20	11.42	-42.3	-43.6	21.3	0.00e+00	0	41	0	958398464	56	6876
2026-01-24 12:25:22.03	112.37	11.37	-42.2	-43.4	21.4	0.00e+00	0	41	0	959447040	56	6764
2026-01-24 12:25:23.04	112.53	11.32	-42.1	-43.3	21.5	0.00e+00	0	41	0	961544192	56	6644
2026-01-24 12:25:24.05	112.69	11.27	-41.9	-43.0	21.7	0.00e+00	0	41	0	963641344	56	6442
2026-01-24 12:25:25.06	112.85	11.22	-41.4	-42.5	22.2	0.00e+00	0	41	0	965738496	56	6092
2026-01-24 12:25:26.07	113.01	11.18	-41.4	-42.5	22.3	0.00e+00	0	41	0	967835648	56	6056
2026-01-24 12:25:27.08	113.17	11.13	-41.0	-42.0	22.8	0.00e+00	0	41	0	968884224	56	5697
2026-01-24 12:25:28.09	113.33	11.08	-40.6	-41.6	22.8	0.00e+00	0	41	0	970981376	54	6159
2026-01-24 12:25:29.09	113.49	11.03	-40.8	-41.8	22.7	0.00e+00	0	41	0	973078528	54	6297
2026-01-24 12:25:30.10	113.65	10.98	-40.8	-41.8	22.7	0.00e+00	0	41	0	975175680	54	6298
2026-01-24 12:25:31.11	113.81	10.93	-40.8	-41.9	22.7	0.00e+00	0	41	0	977272832	54	6354
2026-01-24 12:25:32.13	113.97	10.88	-41.0	-42.1	22.5	0.00e+00	0	41	0	978321408	54	6473
2026-01-24 12:25:33.14	114.12	10.83	-41.1	-42.2	22.3	0.00e+00	0	41	0	980418560	54	6545
2026-01-24 12:25:34.15	114.28	10.78	-41.5	-42.6	21.9	0.00e+00	0	41	0	982515712	54	6891
2026-01-24 12:25:35.16	114.44	10.74	-41.3	-42.4	22.2	0.00e+00	0	41	0	984612864	54	6719
2026-01-24 12:25:36.17	114.59	10.69	-41.3	-42.5	22.2	0.00e+00	0	41	0	986710016	54	6787
2026-01-24 12:25:37.17	114.75	10.64	-41.2	-42.3	22.3	0.00e+00	0	41	0	988807168	54	6689
2026-01-24 12:25:38.19	114.90	10.59	-41.3	-42.4	22.2	0.00e+00	0	41	0	989855744	54	6718
2026-01-24 12:25:39.20	115.06	10.54	-41.4	-42.5	22.1	0.00e+00	0	41	0	991952896	54	6776
2026-01-24 12:25:40.20	115.21	10.49	-41.3	-42.3	22.3	0.00e+00	0	41	0	994050048	54	6666
2026-01-24 12:25:41.21	115.36	10.44	-41.0	-42.1	22.5	0.00e+00	0	41	0	996147200	54	6473
2026-01-24 12:25:42.22	115.51	10.39	-41.0	-42.0	22.5	0.00e+00	0	41	0	998244352	54	6443
2026-01-24 12:25:43.23	115.67	10.34	-41.2	-42.2	22.4	0.00e+00	0	41	0	999292928	54	6583
2026-01-24 12:25:44.24	115.82	10.29	-41.3	-42.3	22.3	0.00e+00	0	41	0	1001390080	54	6665
2026-01-24 12:25:45.25	115.97	10.24	-41.7	-42.8	21.9	0.00e+00	0	41	0	1003487232	54	7014
2026-01-24 12:25:46.26	116.12	10.19	-41.4	-42.5	22.0	0.00e+00	0	41	0	1005584384	54	6795
2026-01-24 12:25:47.27	116.27	10.14	-41.3	-42.3	22.3	0.00e+00	0	41	0	1007681536	54	6660
2026-01-24 12:25:48.28	116.42	10.09	-41.1	-42.2	22.4	0.00e+00	0	41	0	1008730112	54	6557
2026-01-24 12:25:49.29	116.57	10.04	-40.9	-41.9	22.7	0.00e+00	0	41	0	1010827264	54	6322
2026-01-24 12:25:50.30	116.72	9.99	-40.7	-41.7	22.8	0.00e+00	0	41	0	1012924416	54	6217
2026-01-24 12:25:51.31	116.87	9.94	-40.8	-41.8	22.7	0.00e+00	0	41	0	1015021568	54	6287
2026-01-24 12:25:52.32	117.01	9.89	-40.7	-41.7	22.6	0.00e+00	0	41	0	1017118720	54	6226
2026-01-24 12:25:53.33	117.16	9.83	-40.9	-42.0	22.5	0.00e+00	0	41	0	1018167296	54	6392
2026-01-24 12:25:54.33	117.31	9.78	-41.2	-42.2	22.2	0.00e+00	0	41	0	1020264448	54	6614
2026-01-24 12:25:55.34	117.45	9.73	-41.3	-42.4	22.2	0.00e+00	0	41	0	1022361600	54	6737
2026-01-24 12:25:56.35	117.60	9.68	-41.4	-42.5	22.0	0.00e+00	0	41	0	1024458752	54	6843
2026-01-24 12:25:57.36	117.74	9.63	-41.8	-43.0	21.7	0.00e+00	0	41	0	1026555904	56	6429
2026-01-24 12:25:58.37	117.89	9.58	-42.0	-43.1	21.6	0.00e+00	0	41	0	1027604480	56	6536
2026-01-24 12:25:59.38	118.03	9.53	-41.6	-42.7	21.8	0.00e+00	0	41	0	1029701632	56	6238
2026-01-24 12:26:00.39	118.18	9.48	-41.6	-42.7	21.9	0.00e+00	0	41	0	1031798784	56	6219
2026-01-24 12:26:01.40	118.32	9.43	-41.7	-42.8	21.8	0.00e+00	0	41	0	1033895936	56	6302
2026-01-24 12:26:02.41	118.46	9.38	-41.7	-42.8	21.7	0.00e+00	0	41	0	1035993088	56	6280
2026-01-24 12:26:03.41	118.60	9.33	-41.8	-42.9	21.9	0.00e+00	0	41	0	1037041664	56	6352
2026-01-24 12:26:04.42	118.75	9.27	-41.7	-42.8	21.7	0.00e+00	0	41	0	1039138816	56	6305
2026-01-24 12:26:05.43	118.89	9.22	-41.6	-42.7	21.9	0.00e+00	0	41	0	1041235968	56	6226
2026-01-24 12:26:06.44	119.03	9.17	-41.7	-42.8	21.8	0.00e+00	0	41	0	1043333120	56	6278
2026-01-24 12:26:07.45	119.17	9.12	-42.0	-43.1	21.5	0.00e+00	0	41	0	1045430272	56	6506
2026-01-24 12:26:08.46	119.31	9.07	-42.0	-43.1	21.6	0.00e+00	0	41	0	1046478848	56	6500
2026-01-24 12:26:09.47	119.45	9.02	-41.5	-42.6	22.1	0.00e+00	0	41	0	1048576000	56	6110
2026-01-24 12:26:10.48	119.59	8.97	-41.9	-43.1	21.6	0.00e+00	0	41	0	1050673152	56	6490
2026-01-24 12:26:11.49	119.73	8.91	-42.0	-43.1	21.6	0.00e+00	0	41	0	1052770304	56	6515
2026-01-24 12:26:12.50	119.86	8.86	-41.6	-42.7	21.9	0.00e+00	0	41	0	1054867456	56	6215
2026-01-24 12:26:13.51	120.00	8.81	-41.8	-42.9	21.7	0.00e+00	0	41	0	1056964608	56	6354
2026-01-24 12:26:14.52	120.14	8.76	-41.7	-42.8	21.7	0.00e+00	0	41	0	1058013184	56	6313
2026-01-24 12:26:15.53	120.27	8.71	-41.6	-42.7	21.9	0.00e+00	0	41	0	1060110336	56	6192
2026-01-24 12:26:16.54	120.41	8.66	-41.3	-42.4	22.2	0.00e+00	0	41	0	1062207488	56	5986
2026-01-24 12:26:17.55	120.55	8.61	-41.3	-42.4	22.1	0.00e+00	0	41	0	1064304640	56	6007
2026-01-24 12:26:18.56	120.68	8.55	-41.3	-42.4	22.0	0.00e+00	0	41	0	1066401792	56	6008
2026-01-24 12:26:19.57	120.82	8.50	-41.6	-42.7	21.9	0.00e+00	0	41	0	1067450368	56	6182
2026-01-24 12:26:20.58	120.95	8.45	-41.7	-42.8	21.7	0.00e+00	0	41	0	1069547520	56	6296
2026-01-24 12:26:21.59	121.09	8.40	-41.6	-42.7	21.8	0.00e+00	0	41	0	1071644672	56	6193
2026-01-24 12:26:22.60	121.22	8.35	-41.9	-43.0	21.5	0.00e+00	0	41	0	1073741824	56	6463
2026-01-24 12:26:23.61	121.35	8.29	-41.7	-42.8	21.7	0.00e+00	0	41	0	1075838976	56	6266
2026-01-24 12:26:24.62	121.48	8.24	-42.0	-43.1	21.4	0.00e+00	0	41	0	1076887552	56	6536
2026-01-24 12:26:25.63	121.62	8.19	-42.1	-43.3	21.3	0.00e+00	0	41	0	1078984704	56	6620
2026-01-24 12:26:26.64	121.75	8.14	-41.9	-43.1	21.5	0.00e+00	0	41	0	1081081856	56	6476
2026-01-24 12:26:27.65	121.88	8.09	-42.0	-43.2	21.4	0.00e+00	0	41	0	1083179008	56	6570
2026-01-24 12:26:28.66	122.01	8.03	-42.4	-43.7	20.9	0.00e+00	0	41	0	1085276160	56	6945
2026-01-24 12:26:29.67	122.14	7.98	-42.0	-43.2	21.4	0.00e+00	0	41	0	1086324736	56	6581
2026-01-24 12:26:30.68	122.27	7.93	-42.1	-43.3	21.3	0.00e+00	0	41	0	1088421888	56	6652
2026-01-24 12:26:31.69	122.40	7.88	-41.9	-43.0	21.5	0.00e+00	0	41	0	1090519040	56	6428
2026-01-24 12:26:32.70	122.53	7.83	-42.2	-43.3	21.2	0.00e+00	0	41	0	1092616192	56	6692
2026-01-24 12:26:33.70	122.66	7.77	-42.2	-43.4	21.2	0.00e+00	0	41	0	1094713344	56	6741
2026-01-24 12:26:34.71	122.78	7.72	-41.7	-42.9	21.6	0.00e+00	0	41	0	1095761920	56	6337
2026-01-24 12:26:35.72	122.91	7.67	-42.2	-43.4	21.1	0.00e+00	0	41	0	1097859072	56	6723
2026-01-24 12:26:36.73	123.04	7.62	-42.6	-43.9	20.7	0.00e+00	0	41	0	1099956224	56	7100
2026-01-24 12:26:37.74	123.16	7.57	-42.2	-43.4	21.0	0.00e+00	0	41	0	1102053376	58	6033
2026-01-24 12:26:38.75	123.29	7.51	-42.5	-43.8	20.5	0.00e+00	0	41	0	1104150528	58	6252
2026-01-24 12:26:39.76	123.42	7.46	-42.4	-43.7	20.8	0.00e+00	0	41	0	1105199104	58	6179
2026-01-24 12:26:40.77	123.54	7.41	-42.7	-44.1	20.3	0.00e+00	0	41	0	1107296256	58	6489
2026-01-24 12:26:41.78	123.67	7.36	-42.7	-44.1	20.4	0.00e+00	0	41	0	1109393408	58	6477
2026-01-24 12:26:42.78	123.79	7.31	-42.4	-43.6	20.8	0.00e+00	0	41	0	1111490560	58	6164
2026-01-24 12:26:43.79	123.91	7.25	-42.2	-43.5	20.8	0.00e+00	0	41	0	1113587712	58	6047
2026-01-24 12:26:44.80	124.04	7.20	-42.2	-43.5	20.9	0.00e+00	0	41	0	1114636288	58	6054
2026-01-24 12:26:45.81	124.16	7.15	-42.6	-43.9	20.1	0.00e+00	0	41	0	1116733440	58	6359
2026-01-24 12:26:46.82	124.28	7.10	-42.9	-44.3	20.2	0.00e+00	0	41	0	1118830592	58	6621
2026-01-24 12:26:47.83	124.41	7.04	-42.4	-43.6	20.6	0.00e+00	0	41	0	1120927744	58	6173
2026-01-24 12:26:48.84	124.53	6.99	-43.0	-44.3	20.0	0.00e+00	0	41	0	1123024896	58	6682
2026-01-24 12:26:49.85	124.65	6.94	-42.6	-43.9	20.4	0.00e+00	0	41	0	1125122048	58	6327
2026-01-24 12:26:50.86	124.77	6.89	-42.8	-44.1	20.1	0.00e+00	0	41	0	1126170624	58	6506
2026-01-24 12:26:51.87	124.89	6.84	-42.6	-43.9	20.3	0.00e+00	0	41	0	1128267776	58	6361
2026-01-24 12:26:52.88	125.01	6.78	-42.6	-43.9	20.4	0.00e+00	0	41	0	1130364928	58	6368
2026-01-24 12:26:53.89	125.13	6.73	-42.8	-44.1	20.3	0.00e+00	0	41	0	1132462080	58	6507
2026-01-24 12:26:54.90	125.25	6.68	-42.8	-44.2	20.1	0.00e+00	0	41	0	1134559232	58	6558
2026-01-24 12:26:55.91	125.37	6.63	-42.8	-44.1	20.2	0.00e+00	0	41	0	1135607808	58	6518
2026-01-24 12:26:56.91	125.49	6.57	-42.4	-43.8	20.6	0.00e+00	0	41	0	1137704960	58	6248
2026-01-24 12:26:57.92	125.61	6.52	-43.3	-44.8	19.6	0.00e+00	0	41	0	1139802112	58	7070
2026-01-24 12:26:58.93	125.73	6.47	-42.7	-44.0	20.3	0.00e+00	0	41	0	1141899264	58	6409
2026-01-24 12:26:59.94	125.84	6.42	-42.8	-44.1	20.3	0.00e+00	0	41	0	1143996416	58	6529
2026-01-24 12:27:00.95	125.96	6.37	-42.9	-44.3	20.1	0.00e+00	0	41	0	1145044992	58	6643
2026-01-24 12:27:01.96	126.08	6.31	-43.0	-44.4	19.9	0.00e+00	0	41	0	1147142144	58	6755
2026-01-24 12:27:02.97	126.19	6.26	-42.7	-44.0	20.3	0.00e+00	0	41	0	1149239296	58	6442
2026-01-24 12:27:03.98	126.31	6.21	-42.9	-44.3	20.1	0.00e+00	0	41	0	1151336448	58	6647
2026-01-24 12:27:04.99	126.42	6.16	-43.0	-44.4	20.1	0.00e+00	0	41	0	1153433600	58	6708
2026-01-24 12:27:06.00	126.54	6.10	-43.2	-44.6	19.7	0.00e+00	0	41	0	1154482176	58	6887
2026-01-24 12:27:07.01	126.65	6.05	-42.9	-44.3	20.2	0.00e+00	0	41	0	1156579328	58	6633
2026-01-24 12:27:08.02	126.77	6.00	-43.3	-44.8	19.5	0.00e+00	0	41	0	1158676480	58	7037
2026-01-24 12:27:09.03	126.88	5.95	-43.2	-44.8	19.6	0.00e+00	0	41	0	1160773632	58	7008
2026-01-24 12:27:10.04	127.00	5.90	-43.4	-45.0	19.4	0.00e+00	0	41	0	1162870784	58	7189
2026-01-24 12:27:11.05	127.11	5.84	-43.4	-45.0	19.5	0.00e+00	0	41	0	1163919360	58	7197
2026-01-24 12:27:12.05	127.22	5.79	-43.3	-44.9	19.5	0.00e+00	0	41	0	1166016512	58	7128
2026-01-24 12:27:13.06	127.33	5.74	-43.1	-44.6	19.8	0.00e+00	0	41	0	1168113664	58	6872
2026-01-24 12:27:14.07	127.45	5.69	-42.6	-44.1	20.1	0.00e+00	0	41	0	1170210816	58	6472
2026-01-24 12:27:15.08	127.56	5.64	-43.3	-44.8	19.6	0.00e+00	0	41	0	1172307968	58	7072
2026-01-24 12:27:16.09	127.67	5.58	-43.1	-44.6	19.7	0.00e+00	0	41	0	1173356544	58	6918
2026-01-24 12:27:17.10	127.78	5.53	-43.3	-44.9	19.5	0.00e+00	0	41	0	1175453696	58	7105
2026-01-24 12:27:18.11	127.89	5.48	-43.3	-44.9	19.5	0.00e+00	0	41	0	1177550848	58	7116
2026-01-24 12:27:19.12	128.00	5.43	-42.9	-44.4	19.9	0.00e+00	0	41	0	1179648000	58	6721
2026-01-24 12:27:20.13	128.11	5.38	-43.6	-45.2	19.1	0.00e+00	0	41	0	1181745152	58	7377
2026-01-24 12:27:21.14	128.22	5.32	-43.0	-44.6	19.7	0.00e+00	0	41	0	1182793728	58	6856
2026-01-24 12:27:22.14	128.33	5.27	-44.0	-45.8	18.7	0.00e+00	0	41	0	1184890880	60	7014
2026-01-24 12:27:23.15	128.44	5.22	-44.6	-46.6	17.9	0.00e+00	0	41	0	1186988032	60	7739
2026-01-24 12:27:24.16	128.54	5.17	-43.7	-45.3	19.1	0.00e+00	0	41	0	1189085184	60	6622
2026-01-24 12:27:25.17	128.65	5.12	-43.6	-45.1	19.3	0.00e+00	0	41	0	1191182336	60	6536
2026-01-24 12:27:26.18	128.76	5.07	-43.7	-45.3	19.2	0.00e+00	0	41	0	1192230912	60	6635
2026-01-24 12:27:27.19	128.87	5.01	-43.1	-44.5	19.8	0.00e+00	0	41	0	1194328064	60	6101
2026-01-24 12:27:28.19	128.97	4.96	-44.1	-45.8	18.6	0.00e+00	0	41	0	1196425216	60	7055
2026-01-24 12:27:29.20	129.08	4.91	-43.8	-45.5	18.9	0.00e+00	0	41	0	1198522368	60	6772
2026-01-24 12:27:30.21	129.18	4.86	-43.4	-44.9	19.3	0.00e+00	0	41	0	1200619520	60	6374
2026-01-24 12:27:31.22	129.29	4.81	-43.5	-45.0	19.5	0.00e+00	0	41	0	1201668096	60	6433
2026-01-24 12:27:32.23	129.40	4.75	-42.9	-44.4	19.8	0.00e+00	0	41	0	1203765248	60	5967
2026-01-24 12:27:33.23	129.50	4.70	-43.4	-45.0	19.2	0.00e+00	0	41	0	1205862400	60	6399
2026-01-24 12:27:34.24	129.60	4.65	-43.7	-45.3	19.0	0.00e+00	0	41	0	1207959552	60	6651
2026-01-24 12:27:35.25	129.71	4.60	-43.8	-45.5	18.8	0.00e+00	0	41	0	1210056704	60	6802
