passes_logs/2026/01/24/R4.6S_Anadyr/R4.6S_Anadyr__20260124_033549_NOAA_20_JPSS-1_rec.log

#Pass ID: 20260124_033549_NOAA 20 (JPSS-1)
#Satellite: NOAA 20 (JPSS-1)
#Configuration: NOAA 20
#almurnet v.1.7.20251203
#Start time: 2026-01-24 03:35:53

#Version: 2.2.20231116
#Station: R4.6S_Anadyr
#Location: 177.4865 lon 64.73178 lat
#TLE: 1 43013U 17073A   26023.57676825  .00000205  00000+0  11821-3 0  9990
#TLE: 2 43013  98.7645 324.4259 0001147  27.0566 333.0670 14.19539368423954

#Time	Az	El	Level	Level2	SNR	BER	BlckErr	Temp	State	Recorded	gain1	gain2
2026-01-24 03:35:53.43	249.06	0.13	-51.9	-65.7	3.3	1.54e+00	0	40	0	0	60	69466
2026-01-24 03:35:54.44	249.16	0.17	-51.9	-67.2	3.6	1.51e+00	0	40	104	0	60	82488
2026-01-24 03:35:55.45	249.26	0.21	-51.6	-67.0	3.6	1.51e+00	0	40	104	0	60	81079
2026-01-24 03:35:56.46	249.37	0.25	-52.1	-67.3	3.6	1.51e+00	0	41	104	0	60	83756
2026-01-24 03:35:57.47	249.47	0.29	-51.6	-66.9	3.6	1.51e+00	0	41	104	0	60	79925
2026-01-24 03:35:58.48	249.57	0.32	-51.9	-67.1	3.6	1.51e+00	0	40	104	0	60	82166
2026-01-24 03:35:59.48	249.67	0.36	-51.7	-67.0	3.6	1.51e+00	0	41	104	0	60	80587
2026-01-24 03:36:00.49	249.78	0.40	-51.5	-67.1	3.6	1.51e+00	0	41	104	0	60	81432
2026-01-24 03:36:01.50	249.88	0.44	-51.5	-66.9	3.6	1.51e+00	0	41	104	0	60	80257
2026-01-24 03:36:02.51	249.98	0.48	-51.6	-66.9	3.6	1.51e+00	0	41	104	0	60	80270
2026-01-24 03:36:03.52	250.09	0.51	-51.7	-67.0	3.6	1.51e+00	0	41	104	0	60	80943
2026-01-24 03:36:04.53	250.19	0.55	-51.7	-67.0	3.6	1.51e+00	0	41	104	0	60	80817
2026-01-24 03:36:05.54	250.29	0.59	-51.6	-66.8	3.6	1.51e+00	0	41	104	0	60	79493
2026-01-24 03:36:06.55	250.40	0.63	-51.5	-66.7	3.6	1.51e+00	0	41	104	0	60	78244
2026-01-24 03:36:07.56	250.50	0.67	-51.6	-66.8	3.6	1.51e+00	0	41	104	0	60	79274
2026-01-24 03:36:08.57	250.61	0.70	-51.4	-66.6	3.6	1.51e+00	0	41	104	0	60	77615
2026-01-24 03:36:09.58	250.71	0.74	-51.4	-66.5	3.5	1.51e+00	0	41	104	0	60	76572
2026-01-24 03:36:10.59	250.82	0.78	-51.3	-66.5	3.6	1.51e+00	0	41	104	0	60	76165
2026-01-24 03:36:11.60	250.92	0.82	-51.2	-66.4	3.6	1.51e+00	0	41	104	0	60	75728
2026-01-24 03:36:12.61	251.03	0.85	-51.1	-66.3	3.6	1.51e+00	0	41	104	0	60	74535
2026-01-24 03:36:13.62	251.14	0.89	-51.0	-66.2	3.6	1.51e+00	0	41	104	0	60	73628
2026-01-24 03:36:14.63	251.24	0.93	-50.7	-65.8	3.6	1.51e+00	0	41	104	0	60	70837
2026-01-24 03:36:15.64	251.35	0.97	-50.3	-65.5	3.6	1.51e+00	0	41	104	0	60	67727
2026-01-24 03:36:16.65	251.46	1.01	-49.7	-64.9	3.6	1.51e+00	0	41	104	0	60	63289
2026-01-24 03:36:17.66	251.56	1.04	-49.6	-64.8	3.6	1.51e+00	0	41	104	0	60	62588
2026-01-24 03:36:18.66	251.67	1.08	-49.6	-64.8	3.6	1.51e+00	0	41	104	0	60	62530
2026-01-24 03:36:19.67	251.78	1.12	-49.5	-64.6	3.6	1.51e+00	0	41	104	0	60	61623
2026-01-24 03:36:20.68	251.89	1.16	-49.5	-64.6	3.6	1.51e+00	0	41	104	0	60	61398
2026-01-24 03:36:21.69	251.99	1.19	-49.4	-64.6	3.6	1.51e+00	0	41	104	0	60	61502
2026-01-24 03:36:22.70	252.10	1.23	-49.5	-64.6	3.6	1.51e+00	0	41	104	0	60	61303
2026-01-24 03:36:23.71	252.21	1.27	-49.6	-64.8	3.6	1.51e+00	0	41	104	0	60	62641
2026-01-24 03:36:24.72	252.32	1.31	-49.6	-64.9	3.6	1.51e+00	0	41	104	0	60	63224
2026-01-24 03:36:25.73	252.43	1.34	-49.6	-64.7	3.6	1.51e+00	0	41	104	0	60	62299
2026-01-24 03:36:26.74	252.54	1.38	-49.5	-64.7	3.6	1.51e+00	0	41	104	0	60	62087
2026-01-24 03:36:27.75	252.65	1.42	-49.5	-64.6	3.6	1.51e+00	0	41	104	0	60	61638
2026-01-24 03:36:28.76	252.76	1.45	-49.4	-64.6	3.6	1.51e+00	0	41	104	0	60	61269
2026-01-24 03:36:29.77	252.87	1.49	-49.4	-64.6	3.6	1.51e+00	0	41	104	0	60	61179
2026-01-24 03:36:30.78	252.98	1.53	-49.4	-64.6	3.6	1.51e+00	0	41	104	0	60	61158
2026-01-24 03:36:31.79	253.09	1.57	-49.4	-64.6	3.6	1.51e+00	0	41	104	0	60	61287
2026-01-24 03:36:32.80	253.20	1.60	-49.4	-64.6	3.6	1.51e+00	0	41	104	0	60	61418
2026-01-24 03:36:33.75	253.31	1.64	-49.5	-64.7	3.6	1.51e+00	0	41	104	0	60	62302
2026-01-24 03:36:34.76	253.42	1.67	-49.5	-64.6	3.6	1.51e+00	0	41	104	0	60	61554
2026-01-24 03:36:35.77	253.53	1.71	-49.5	-64.7	3.6	1.51e+00	0	41	104	0	60	61917
2026-01-24 03:36:36.78	253.64	1.75	-49.5	-64.7	3.6	1.51e+00	0	41	104	0	60	62379
2026-01-24 03:36:37.79	253.75	1.79	-49.4	-64.6	3.6	1.51e+00	0	41	104	0	60	61167
2026-01-24 03:36:38.80	253.87	1.82	-49.4	-64.5	3.6	1.51e+00	0	41	104	0	60	61019
2026-01-24 03:36:39.81	253.98	1.86	-49.4	-64.5	3.6	1.51e+00	0	41	104	0	60	60855
2026-01-24 03:36:40.82	254.09	1.90	-49.4	-64.5	3.6	1.51e+00	0	41	104	0	60	60955
2026-01-24 03:36:41.83	254.21	1.93	-49.4	-64.6	3.6	1.51e+00	0	41	104	0	60	61654
2026-01-24 03:36:42.84	254.32	1.97	-49.4	-64.6	3.6	1.51e+00	0	41	104	0	60	61349
2026-01-24 03:36:43.85	254.43	2.01	-49.4	-64.6	3.6	1.51e+00	0	41	104	0	60	61119
2026-01-24 03:36:44.86	254.55	2.04	-49.4	-64.5	3.6	1.51e+00	0	41	104	0	60	60417
2026-01-24 03:36:45.87	254.66	2.08	-49.4	-64.6	3.6	1.51e+00	0	41	104	0	60	61208
2026-01-24 03:36:46.88	254.78	2.12	-49.5	-64.7	3.6	1.51e+00	0	41	104	0	60	61846
2026-01-24 03:36:47.89	254.89	2.15	-49.4	-64.6	3.6	1.51e+00	0	41	104	0	60	61478
2026-01-24 03:36:48.90	255.01	2.19	-49.4	-64.6	3.6	1.51e+00	0	41	104	0	60	61287
2026-01-24 03:36:49.91	255.12	2.23	-49.4	-64.6	3.6	1.51e+00	0	41	104	0	60	61202
2026-01-24 03:36:50.92	255.24	2.26	-49.4	-64.6	3.6	1.51e+00	0	41	104	0	60	61213
2026-01-24 03:36:51.93	255.36	2.30	-49.4	-64.6	3.6	1.51e+00	0	41	104	0	60	61218
2026-01-24 03:36:52.94	255.47	2.33	-49.4	-64.5	3.6	1.51e+00	0	41	104	0	60	60840
2026-01-24 03:36:53.95	255.59	2.37	-49.3	-64.4	3.6	1.51e+00	0	41	104	0	60	59762
2026-01-24 03:36:54.96	255.71	2.41	-49.3	-64.3	3.6	1.51e+00	0	41	104	0	60	59239
2026-01-24 03:36:55.97	255.82	2.44	-49.3	-64.2	3.6	1.51e+00	0	41	104	0	60	58437
2026-01-24 03:36:56.98	255.94	2.48	-49.3	-64.3	3.6	1.51e+00	0	41	104	0	60	59094
2026-01-24 03:36:58.00	256.06	2.52	-49.3	-64.4	3.6	1.51e+00	0	41	104	0	60	59938
2026-01-24 03:36:59.00	256.18	2.55	-49.3	-64.5	3.6	1.51e+00	0	41	104	0	60	60671
2026-01-24 03:37:00.01	256.30	2.59	-49.3	-64.4	3.6	1.51e+00	0	41	104	0	60	60149
2026-01-24 03:37:01.03	256.42	2.62	-49.3	-64.4	3.6	1.51e+00	0	41	104	0	60	59842
2026-01-24 03:37:02.04	256.54	2.66	-49.3	-64.4	3.6	1.51e+00	0	41	104	0	60	59771
2026-01-24 03:37:03.05	256.65	2.69	-49.3	-64.5	3.6	1.51e+00	0	41	104	0	60	60426
2026-01-24 03:37:04.06	256.77	2.73	-49.3	-64.4	3.6	1.51e+00	0	41	104	0	60	59721
2026-01-24 03:37:05.06	256.89	2.77	-49.3	-63.9	3.6	1.51e+00	0	41	104	0	60	56740
2026-01-24 03:37:06.07	257.01	2.80	-49.3	-63.5	3.6	1.51e+00	0	41	104	0	60	53883
2026-01-24 03:37:07.08	257.13	2.84	-49.3	-64.1	3.6	1.51e+00	0	41	104	0	60	57824
2026-01-24 03:37:08.09	257.25	2.87	-49.3	-64.4	3.6	1.51e+00	0	41	104	0	60	59673
2026-01-24 03:37:09.10	257.38	2.91	-49.2	-61.7	3.8	1.51e+00	0	41	104	0	60	44154
2026-01-24 03:37:10.11	257.50	2.94	-49.0	-57.9	4.7	8.25e-01	38	41	0	0	60	28420
2026-01-24 03:37:11.12	257.62	2.98	-48.8	-56.7	5.7	3.97e-01	92	41	0	2097152	60	24661
2026-01-24 03:37:12.13	257.74	3.01	-48.8	-56.9	5.8	5.46e-01	39	41	0	4194304	60	25358
2026-01-24 03:37:13.14	257.86	3.05	-49.4	-63.9	3.6	3.84e-01	0	41	104	5242880	60	56728
2026-01-24 03:37:14.15	257.98	3.08	-49.2	-62.0	3.8	1.51e+00	0	41	104	5242880	60	45251
2026-01-24 03:37:15.16	258.11	3.12	-49.2	-61.6	3.7	1.37e+00	0	41	104	5242880	60	43668
2026-01-24 03:37:16.16	258.23	3.15	-49.1	-64.0	3.6	1.50e+00	0	41	104	5242880	60	57271
2026-01-24 03:37:17.18	258.35	3.19	-43.9	-45.8	17.4	1.61e-01	90	41	104	5242880	60	7010
2026-01-24 03:37:18.18	258.47	3.22	-42.8	-44.3	19.6	0.00e+00	91	41	0	6291456	60	5914
2026-01-24 03:37:19.19	258.60	3.26	-43.5	-45.2	18.6	0.00e+00	68	41	0	8388608	60	6606
2026-01-24 03:37:20.20	258.72	3.29	-42.5	-43.9	19.6	0.00e+00	90	41	0	10485760	58	6359
2026-01-24 03:37:21.21	258.85	3.33	-43.5	-45.2	19.0	0.00e+00	91	41	0	11534336	60	6555
2026-01-24 03:37:22.22	258.97	3.36	-42.9	-44.4	19.6	0.00e+00	90	41	0	13631488	60	6023
2026-01-24 03:37:23.23	259.10	3.40	-43.5	-45.2	18.4	0.00e+00	91	41	0	15728640	58	7415
2026-01-24 03:37:24.24	259.22	3.43	-42.5	-43.9	19.7	0.00e+00	33	41	0	17825792	58	6334
2026-01-24 03:37:25.25	259.35	3.47	-44.6	-46.6	17.3	0.00e+00	90	41	0	19922944	60	7718
2026-01-24 03:37:26.26	259.47	3.50	-44.4	-46.3	17.7	0.00e+00	0	41	0	20971520	60	7477
2026-01-24 03:37:27.27	259.60	3.53	-43.1	-44.6	19.3	0.00e+00	90	41	0	23068672	60	6140
2026-01-24 03:37:28.28	259.72	3.57	-42.7	-44.2	19.6	0.00e+00	81	41	0	25165824	58	6563
2026-01-24 03:37:29.28	259.85	3.60	-42.4	-43.8	19.9	0.00e+00	91	41	0	27262976	58	6307
2026-01-24 03:37:30.29	259.98	3.64	-42.8	-44.2	19.7	0.00e+00	92	41	0	29360128	58	6589
2026-01-24 03:37:31.30	260.10	3.67	-43.4	-45.0	18.8	0.00e+00	86	41	0	30408704	58	7196
2026-01-24 03:37:32.31	260.23	3.70	-42.4	-43.8	19.7	0.00e+00	92	41	0	32505856	58	6277
2026-01-24 03:37:33.32	260.36	3.74	-43.4	-45.1	18.6	0.00e+00	92	41	0	34603008	58	7275
2026-01-24 03:37:34.33	260.49	3.77	-43.7	-45.4	18.7	0.00e+00	92	41	0	36700160	60	6705
2026-01-24 03:37:35.34	260.61	3.81	-44.6	-46.6	17.7	0.00e+00	92	41	0	38797312	60	7709
2026-01-24 03:37:36.35	260.74	3.84	-42.4	-43.8	19.7	0.00e+00	92	41	0	39845888	58	6283
2026-01-24 03:37:37.36	260.87	3.87	-42.7	-44.1	19.7	0.00e+00	90	41	0	41943040	58	6482
2026-01-24 03:37:38.37	261.00	3.91	-43.4	-45.0	18.8	0.00e+00	92	41	0	44040192	58	7248
2026-01-24 03:37:39.38	261.13	3.94	-42.9	-44.3	19.4	0.00e+00	92	41	0	46137344	58	6690
2026-01-24 03:37:40.39	261.26	3.97	-43.8	-45.5	18.4	0.00e+00	67	41	0	48234496	58	7667
2026-01-24 03:37:41.40	261.39	4.01	-44.3	-46.1	17.8	0.00e+00	92	41	0	49283072	60	7321
2026-01-24 03:37:42.41	261.52	4.04	-43.9	-45.6	18.5	0.00e+00	0	41	0	51380224	60	6911
2026-01-24 03:37:43.42	261.65	4.07	-44.2	-46.0	18.0	0.00e+00	92	41	0	53477376	60	7250
2026-01-24 03:37:44.43	261.78	4.11	-44.0	-45.8	18.3	0.00e+00	92	41	0	55574528	60	7038
2026-01-24 03:37:45.44	261.91	4.14	-44.3	-46.1	17.8	0.00e+00	92	41	0	57671680	60	7272
2026-01-24 03:37:46.45	262.04	4.17	-42.9	-44.4	19.7	0.00e+00	92	41	0	58720256	60	5981
2026-01-24 03:37:47.46	262.18	4.21	-43.0	-44.4	19.7	0.00e+00	6	41	0	60817408	60	6018
2026-01-24 03:37:48.47	262.31	4.24	-43.1	-44.6	19.3	0.00e+00	91	41	0	62914560	58	6926
2026-01-24 03:37:49.48	262.44	4.27	-43.5	-45.1	18.9	0.00e+00	6	41	0	65011712	58	7304
2026-01-24 03:37:50.49	262.57	4.30	-43.0	-44.5	19.4	0.00e+00	92	41	0	67108864	58	6814
2026-01-24 03:37:51.50	262.70	4.34	-43.4	-45.0	19.1	0.00e+00	91	41	0	69206016	58	7174
2026-01-24 03:37:52.51	262.84	4.37	-43.8	-45.5	18.4	0.00e+00	91	41	0	70254592	58	7615
2026-01-24 03:37:53.52	262.97	4.40	-44.5	-46.4	17.7	0.00e+00	92	41	0	72351744	60	7516
2026-01-24 03:37:54.53	263.10	4.43	-44.3	-46.0	17.9	0.00e+00	69	41	0	74448896	60	7248
2026-01-24 03:37:55.54	263.24	4.46	-44.3	-46.1	18.5	0.00e+00	91	41	0	76546048	60	7302
2026-01-24 03:37:56.55	263.37	4.50	-43.6	-45.2	19.0	0.00e+00	25	41	0	78643200	60	6542
2026-01-24 03:37:57.56	263.51	4.53	-44.8	-46.8	17.3	0.00e+00	92	41	0	79691776	60	7893
2026-01-24 03:37:58.56	263.64	4.56	-43.6	-45.1	19.1	0.00e+00	91	41	0	81788928	60	6524
2026-01-24 03:37:59.57	263.77	4.59	-42.8	-44.2	19.8	0.00e+00	91	41	0	83886080	60	5863
2026-01-24 03:38:00.58	263.91	4.62	-43.5	-45.1	19.0	0.00e+00	92	41	0	85983232	60	6471
2026-01-24 03:38:01.59	264.05	4.65	-43.8	-45.4	18.8	0.00e+00	92	41	0	88080384	60	6715
2026-01-24 03:38:02.60	264.18	4.69	-44.2	-46.0	18.4	0.00e+00	92	41	0	89128960	60	7192
2026-01-24 03:38:03.61	264.32	4.72	-43.7	-45.3	18.9	0.00e+00	59	41	0	91226112	60	6692
2026-01-24 03:38:04.62	264.45	4.75	-43.6	-45.2	18.9	0.00e+00	92	41	0	93323264	60	6606
2026-01-24 03:38:05.63	264.59	4.78	-42.9	-44.3	19.8	0.00e+00	71	41	0	95420416	60	5960
2026-01-24 03:38:06.64	264.73	4.81	-48.2	-52.8	14.5	1.08e+00	92	41	104	95420416	60	15756
2026-01-24 03:38:07.65	264.86	4.84	-44.8	-46.6	19.9	0.00e+00	92	41	0	96468992	60	7740
2026-01-24 03:38:08.66	265.00	4.87	-43.0	-44.4	20.1	0.00e+00	92	41	0	97517568	60	5978
2026-01-24 03:38:09.67	265.14	4.90	-42.5	-43.8	20.5	0.00e+00	92	41	0	99614720	60	5606
2026-01-24 03:38:10.68	265.28	4.93	-42.9	-44.2	19.5	0.00e+00	5	41	0	101711872	58	6615
2026-01-24 03:38:11.69	265.42	4.96	-43.9	-45.5	18.8	0.00e+00	92	41	0	103809024	60	6790
2026-01-24 03:38:12.70	265.55	5.00	-43.3	-44.8	19.7	0.00e+00	2	41	0	105906176	60	6271
2026-01-24 03:38:13.71	265.69	5.03	-43.1	-44.5	19.8	0.00e+00	92	41	0	106954752	60	6083
2026-01-24 03:38:14.72	265.83	5.06	-42.9	-44.3	19.6	0.00e+00	92	41	0	109051904	60	5964
2026-01-24 03:38:15.73	265.97	5.09	-43.0	-44.4	19.6	0.00e+00	92	41	0	111149056	60	5995
2026-01-24 03:38:16.74	266.11	5.12	-43.9	-45.5	18.7	0.00e+00	92	41	0	113246208	60	6837
2026-01-24 03:38:17.75	266.25	5.15	-43.7	-45.3	19.1	0.00e+00	92	41	0	115343360	60	6637
2026-01-24 03:38:18.76	266.39	5.18	-43.3	-44.8	19.3	0.00e+00	92	41	0	116391936	60	6312
2026-01-24 03:38:19.77	266.53	5.21	-43.4	-45.0	19.3	0.00e+00	21	41	0	118489088	60	6396
2026-01-24 03:38:20.78	266.67	5.24	-43.9	-45.5	18.8	0.00e+00	92	41	0	120586240	60	6809
2026-01-24 03:38:21.79	266.81	5.26	-43.6	-45.2	19.1	0.00e+00	15	41	0	122683392	60	6588
2026-01-24 03:38:22.80	266.96	5.29	-43.7	-45.2	19.2	0.00e+00	92	41	0	124780544	60	6603
2026-01-24 03:38:23.81	267.10	5.32	-42.7	-44.0	20.0	0.00e+00	92	41	0	125829120	58	6461
2026-01-24 03:38:24.82	267.24	5.35	-42.5	-43.8	20.4	0.00e+00	92	41	0	127926272	58	6269
2026-01-24 03:38:25.83	267.38	5.38	-43.2	-44.7	19.3	0.00e+00	92	41	0	130023424	58	6947
2026-01-24 03:38:26.84	267.52	5.41	-43.3	-44.8	19.2	0.00e+00	55	41	0	132120576	58	7080
2026-01-24 03:38:27.85	267.67	5.44	-42.9	-44.3	20.0	0.00e+00	91	41	0	134217728	58	6689
2026-01-24 03:38:28.86	267.81	5.47	-42.8	-44.2	19.7	0.00e+00	0	41	0	135266304	58	6575
2026-01-24 03:38:29.87	267.95	5.50	-43.6	-45.2	19.1	0.00e+00	92	41	0	137363456	58	7342
2026-01-24 03:38:30.88	268.10	5.52	-43.6	-45.1	19.3	0.00e+00	92	41	0	139460608	58	7320
2026-01-24 03:38:31.89	268.24	5.55	-43.6	-45.2	19.0	0.00e+00	92	41	0	141557760	58	7361
2026-01-24 03:38:32.90	268.38	5.58	-43.3	-44.8	19.4	0.00e+00	90	41	0	143654912	58	7045
2026-01-24 03:38:33.91	268.53	5.61	-43.0	-44.4	19.8	0.00e+00	92	41	0	144703488	58	6729
2026-01-24 03:38:34.92	268.67	5.64	-44.1	-45.8	18.5	0.00e+00	92	41	0	146800640	60	7074
2026-01-24 03:38:35.93	268.82	5.67	-44.7	-46.6	17.6	0.00e+00	3	41	0	148897792	60	7733
2026-01-24 03:38:36.94	268.96	5.69	-44.0	-45.7	18.7	0.00e+00	92	41	0	150994944	60	6963
2026-01-24 03:38:37.95	269.11	5.72	-44.2	-45.9	18.3	0.00e+00	74	41	0	153092096	60	7143
2026-01-24 03:38:38.96	269.25	5.75	-43.4	-44.9	19.4	0.00e+00	90	41	0	155189248	60	6385
2026-01-24 03:38:39.97	269.40	5.78	-43.3	-44.8	19.4	0.00e+00	92	41	0	156237824	60	6257
2026-01-24 03:38:40.98	269.55	5.80	-43.6	-45.1	19.3	0.00e+00	90	41	0	158334976	60	6505
2026-01-24 03:38:41.99	269.69	5.83	-43.0	-44.4	20.0	0.00e+00	92	41	0	160432128	60	6016
2026-01-24 03:38:43.00	269.84	5.86	-43.6	-45.2	19.1	0.00e+00	6	41	0	162529280	60	6557
2026-01-24 03:38:44.01	269.99	5.88	-43.5	-45.1	19.1	0.00e+00	92	41	0	164626432	60	6484
2026-01-24 03:38:45.02	270.13	5.91	-43.9	-45.5	18.7	0.00e+00	13	41	0	165675008	60	6811
2026-01-24 03:38:46.03	270.28	5.94	-43.9	-45.5	19.0	0.00e+00	92	41	0	167772160	60	6784
2026-01-24 03:38:47.04	270.43	5.96	-43.2	-44.7	19.6	0.00e+00	92	41	0	169869312	60	6178
2026-01-24 03:38:48.05	270.58	5.99	-42.9	-44.3	19.9	0.00e+00	90	41	0	171966464	58	6626
2026-01-24 03:38:49.06	270.72	6.02	-42.3	-43.6	20.6	0.00e+00	92	41	0	174063616	58	6127
2026-01-24 03:38:50.07	270.87	6.04	-43.0	-44.3	19.9	0.00e+00	0	41	0	175112192	58	6688
2026-01-24 03:38:51.08	271.02	6.07	-43.4	-44.8	19.4	0.00e+00	92	41	0	177209344	58	7083
2026-01-24 03:38:52.09	271.17	6.09	-44.6	-46.5	17.8	0.00e+00	0	41	0	179306496	60	7628
2026-01-24 03:38:53.09	271.32	6.12	-44.8	-46.7	17.8	0.00e+00	92	41	0	181403648	60	7811
2026-01-24 03:38:54.10	271.47	6.15	-44.2	-45.8	18.4	0.00e+00	92	41	0	183500800	60	7079
2026-01-24 03:38:55.11	271.62	6.17	-44.6	-46.4	18.1	0.00e+00	92	41	0	184549376	60	7531
2026-01-24 03:38:56.12	271.77	6.20	-45.6	-47.9	16.4	0.00e+00	92	41	0	186646528	60	8929
2026-01-24 03:38:57.13	271.92	6.22	-44.6	-46.5	17.9	0.00e+00	67	41	0	188743680	60	7621
2026-01-24 03:38:58.14	272.07	6.25	-44.5	-46.3	18.0	0.00e+00	90	41	0	190840832	60	7457
2026-01-24 03:38:59.15	272.22	6.27	-44.5	-46.2	18.1	0.00e+00	0	41	0	192937984	60	7422
2026-01-24 03:39:00.16	272.37	6.30	-44.2	-46.0	18.5	0.00e+00	92	41	0	193986560	60	7200
2026-01-24 03:39:01.17	272.52	6.32	-43.8	-45.4	19.0	0.00e+00	81	41	0	196083712	60	6700
2026-01-24 03:39:02.18	272.67	6.34	-43.7	-45.2	18.8	0.00e+00	92	41	0	198180864	60	6612
2026-01-24 03:39:03.19	272.82	6.37	-44.0	-45.7	19.0	0.00e+00	90	41	0	200278016	60	6929
2026-01-24 03:39:04.19	272.97	6.39	-43.7	-45.3	19.1	0.00e+00	90	41	0	202375168	60	6621
2026-01-24 03:39:05.20	273.13	6.42	-43.7	-45.2	19.1	0.00e+00	92	41	0	203423744	60	6596
2026-01-24 03:39:06.21	273.28	6.44	-43.6	-45.1	19.2	0.00e+00	0	41	0	205520896	60	6505
2026-01-24 03:39:07.22	273.43	6.46	-43.5	-45.0	19.3	0.00e+00	89	41	0	207618048	60	6415
2026-01-24 03:39:08.23	273.58	6.49	-43.4	-44.9	19.5	0.00e+00	12	41	0	209715200	60	6354
2026-01-24 03:39:09.24	273.74	6.51	-43.9	-45.5	19.0	0.00e+00	90	41	0	211812352	60	6785
2026-01-24 03:39:10.25	273.89	6.53	-43.9	-45.5	19.0	0.00e+00	90	41	0	212860928	60	6799
2026-01-24 03:39:11.26	274.04	6.56	-44.0	-45.6	18.8	0.00e+00	92	41	0	214958080	60	6915
2026-01-24 03:39:12.27	274.20	6.58	-44.0	-45.6	18.9	0.00e+00	90	41	0	217055232	60	6877
2026-01-24 03:39:13.28	274.35	6.60	-43.9	-45.5	18.9	0.00e+00	1	41	0	219152384	60	6803
2026-01-24 03:39:14.29	274.51	6.63	-43.7	-45.3	19.1	0.00e+00	90	41	0	221249536	60	6656
2026-01-24 03:39:15.29	274.66	6.65	-43.3	-44.8	19.5	0.00e+00	0	41	0	223346688	60	6258
2026-01-24 03:39:16.30	274.81	6.67	-43.5	-45.1	19.2	0.00e+00	92	41	0	224395264	60	6479
2026-01-24 03:39:17.31	274.97	6.69	-43.7	-45.3	19.0	0.00e+00	90	41	0	226492416	60	6671
2026-01-24 03:39:18.32	275.12	6.71	-43.9	-45.6	19.0	0.00e+00	92	41	0	228589568	60	6857
2026-01-24 03:39:19.33	275.28	6.74	-44.2	-46.0	18.2	0.00e+00	91	41	0	230686720	60	7181
2026-01-24 03:39:20.34	275.43	6.76	-43.8	-45.4	19.0	0.00e+00	91	41	0	231735296	60	6759
2026-01-24 03:39:21.34	275.59	6.78	-44.0	-45.7	18.7	0.00e+00	91	41	0	233832448	60	6958
2026-01-24 03:39:22.36	275.75	6.80	-43.5	-45.0	19.4	0.00e+00	0	41	0	235929600	60	6425
2026-01-24 03:39:23.37	275.90	6.82	-43.7	-45.3	19.1	0.00e+00	92	41	0	238026752	60	6658
2026-01-24 03:39:24.37	276.06	6.84	-44.0	-45.6	18.9	0.00e+00	92	41	0	240123904	60	6907
2026-01-24 03:39:25.38	276.21	6.86	-43.5	-45.0	19.3	0.00e+00	92	41	0	241172480	60	6461
2026-01-24 03:39:26.39	276.37	6.88	-43.2	-44.7	19.5	0.00e+00	92	41	0	243269632	60	6177
2026-01-24 03:39:27.40	276.53	6.91	-43.1	-44.5	19.9	0.00e+00	92	41	0	245366784	60	6036
2026-01-24 03:39:28.41	276.69	6.93	-42.6	-43.9	20.5	0.00e+00	92	41	0	247463936	58	6323
2026-01-24 03:39:29.42	276.84	6.95	-43.2	-44.7	19.6	0.00e+00	54	41	0	249561088	58	6952
2026-01-24 03:39:30.43	277.00	6.97	-43.2	-44.6	19.7	0.00e+00	92	41	0	251658240	58	6919
2026-01-24 03:39:31.44	277.16	6.99	-43.4	-44.9	19.4	0.00e+00	0	41	0	252706816	58	7123
2026-01-24 03:39:32.45	277.32	7.01	-43.6	-45.1	19.3	0.00e+00	92	41	0	254803968	58	7283
2026-01-24 03:39:33.46	277.48	7.02	-44.0	-45.6	18.9	0.00e+00	92	41	0	256901120	60	6907
2026-01-24 03:39:34.47	277.63	7.04	-43.7	-45.2	19.0	0.00e+00	92	41	0	258998272	60	6599
2026-01-24 03:39:35.48	277.79	7.06	-44.0	-45.7	18.8	0.00e+00	92	41	0	261095424	60	6944
2026-01-24 03:39:36.49	277.95	7.08	-44.0	-45.6	18.9	0.00e+00	8	41	0	262144000	60	6895
2026-01-24 03:39:37.50	278.11	7.10	-44.0	-45.6	18.9	0.00e+00	92	41	0	264241152	60	6893
2026-01-24 03:39:38.50	278.27	7.12	-43.7	-45.3	19.1	0.00e+00	0	41	0	266338304	60	6653
2026-01-24 03:39:39.51	278.43	7.14	-44.0	-45.6	18.9	0.00e+00	92	41	0	268435456	60	6865
2026-01-24 03:39:40.52	278.59	7.16	-43.7	-45.2	19.4	0.00e+00	92	41	0	270532608	60	6607
2026-01-24 03:39:41.53	278.75	7.17	-44.5	-46.2	18.4	0.00e+00	90	41	0	271581184	60	7375
2026-01-24 03:39:42.54	278.91	7.19	-44.2	-45.9	18.5	0.00e+00	92	41	0	273678336	60	7119
2026-01-24 03:39:43.55	279.07	7.21	-43.9	-45.5	18.9	0.00e+00	92	41	0	275775488	60	6841
2026-01-24 03:39:44.56	279.23	7.23	-44.6	-46.3	18.1	0.00e+00	92	41	0	277872640	60	7504
2026-01-24 03:39:45.57	279.39	7.25	-43.9	-45.5	19.0	0.00e+00	11	41	0	279969792	60	6809
2026-01-24 03:39:46.58	279.55	7.26	-44.0	-45.6	18.9	0.00e+00	92	41	0	281018368	60	6882
2026-01-24 03:39:47.59	279.71	7.28	-43.5	-45.0	19.5	0.00e+00	92	41	0	283115520	60	6418
2026-01-24 03:39:48.60	279.87	7.30	-43.6	-45.1	19.3	0.00e+00	92	41	0	285212672	60	6521
2026-01-24 03:39:49.61	280.03	7.31	-43.7	-45.3	19.2	0.00e+00	92	41	0	287309824	60	6619
2026-01-24 03:39:50.62	280.20	7.33	-44.2	-45.9	18.6	0.00e+00	92	41	0	289406976	60	7146
2026-01-24 03:39:51.63	280.36	7.35	-44.3	-45.9	18.6	0.00e+00	92	41	0	290455552	60	7146
2026-01-24 03:39:52.64	280.52	7.36	-44.2	-45.9	18.6	0.00e+00	69	41	0	292552704	60	7145
2026-01-24 03:39:53.65	280.68	7.38	-44.1	-45.7	18.9	0.00e+00	92	41	0	294649856	60	6985
2026-01-24 03:39:54.66	280.84	7.39	-44.2	-45.8	18.7	0.00e+00	14	41	0	296747008	60	7057
2026-01-24 03:39:55.67	281.01	7.41	-44.2	-45.9	18.5	0.00e+00	92	41	0	298844160	60	7116
2026-01-24 03:39:56.68	281.17	7.43	-44.1	-45.7	18.9	0.00e+00	92	41	0	299892736	60	7003
2026-01-24 03:39:57.69	281.33	7.44	-44.1	-45.7	18.8	0.00e+00	92	41	0	301989888	60	6968
2026-01-24 03:39:58.70	281.49	7.46	-43.9	-45.5	19.0	0.00e+00	92	41	0	304087040	60	6790
2026-01-24 03:39:59.70	281.66	7.47	-44.0	-45.7	18.9	0.00e+00	25	41	0	306184192	60	6947
2026-01-24 03:40:00.71	281.82	7.49	-43.9	-45.5	19.0	0.00e+00	92	41	0	308281344	60	6812
2026-01-24 03:40:01.72	281.98	7.50	-43.8	-45.3	19.2	0.00e+00	0	41	0	309329920	60	6648
2026-01-24 03:40:02.73	282.15	7.51	-43.7	-45.3	19.4	0.00e+00	92	41	0	311427072	60	6623
2026-01-24 03:40:03.74	282.31	7.53	-43.8	-45.4	19.2	0.00e+00	92	41	0	313524224	60	6702
2026-01-24 03:40:04.75	282.47	7.54	-43.9	-45.5	19.1	0.00e+00	92	41	0	315621376	60	6801
2026-01-24 03:40:05.75	282.64	7.56	-44.0	-45.6	19.0	0.00e+00	92	41	0	317718528	60	6925
2026-01-24 03:40:06.77	282.80	7.57	-44.1	-45.7	18.8	0.00e+00	92	41	0	319815680	60	6944
2026-01-24 03:40:07.77	282.96	7.58	-44.1	-45.7	19.0	0.00e+00	92	41	0	320864256	60	6951
2026-01-24 03:40:08.79	283.13	7.60	-43.8	-45.4	19.1	0.00e+00	54	41	0	322961408	60	6695
2026-01-24 03:40:09.79	283.29	7.61	-43.4	-44.9	19.7	0.00e+00	90	41	0	325058560	60	6329
2026-01-24 03:40:10.80	283.46	7.62	-43.7	-45.3	19.2	0.00e+00	92	41	0	327155712	60	6619
2026-01-24 03:40:11.81	283.62	7.63	-44.3	-46.0	18.6	0.00e+00	92	41	0	329252864	60	7210
2026-01-24 03:40:12.83	283.79	7.65	-44.1	-45.7	18.8	0.00e+00	92	41	0	330301440	60	6948
2026-01-24 03:40:13.84	283.95	7.66	-44.1	-45.7	19.0	0.00e+00	92	41	0	332398592	60	6978
2026-01-24 03:40:14.85	284.12	7.67	-44.0	-45.5	19.0	0.00e+00	90	41	0	334495744	60	6842
2026-01-24 03:40:15.86	284.29	7.68	-43.4	-44.9	19.7	0.00e+00	0	41	0	336592896	60	6343
2026-01-24 03:40:16.86	284.45	7.69	-43.9	-45.4	19.1	0.00e+00	92	41	0	338690048	60	6749
2026-01-24 03:40:17.87	284.61	7.71	-43.8	-45.3	19.2	0.00e+00	0	41	0	339738624	60	6684
2026-01-24 03:40:18.88	284.78	7.72	-43.7	-45.2	19.3	0.00e+00	92	41	0	341835776	60	6612
2026-01-24 03:40:19.89	284.95	7.73	-43.8	-45.3	19.2	0.00e+00	92	41	0	343932928	60	6680
2026-01-24 03:40:20.90	285.11	7.74	-43.7	-45.3	19.2	0.00e+00	92	41	0	346030080	60	6633
2026-01-24 03:40:21.91	285.28	7.75	-43.7	-45.2	19.3	0.00e+00	92	41	0	348127232	60	6578
2026-01-24 03:40:22.92	285.44	7.76	-43.7	-45.2	19.3	0.00e+00	49	41	0	349175808	60	6592
2026-01-24 03:40:23.93	285.61	7.77	-43.8	-45.3	19.2	0.00e+00	92	41	0	351272960	60	6658
2026-01-24 03:40:24.94	285.78	7.78	-43.7	-45.2	19.4	0.00e+00	0	41	0	353370112	60	6557
2026-01-24 03:40:25.95	285.94	7.79	-43.7	-45.1	19.5	0.00e+00	92	41	0	355467264	60	6538
2026-01-24 03:40:26.96	286.11	7.80	-43.4	-44.9	19.6	0.00e+00	90	41	0	357564416	60	6330
2026-01-24 03:40:27.97	286.28	7.81	-43.6	-45.1	19.4	0.00e+00	92	41	0	358612992	60	6487
2026-01-24 03:40:28.97	286.44	7.82	-44.0	-45.6	19.0	0.00e+00	90	41	0	360710144	60	6918
2026-01-24 03:40:29.98	286.61	7.83	-44.1	-45.7	18.8	0.00e+00	92	41	0	362807296	60	6986
2026-01-24 03:40:30.99	286.78	7.84	-43.7	-45.2	19.2	0.00e+00	92	41	0	364904448	60	6592
2026-01-24 03:40:32.00	286.94	7.84	-43.9	-45.4	19.2	0.00e+00	66	41	0	367001600	60	6752
2026-01-24 03:40:33.01	287.11	7.85	-43.9	-45.5	19.1	0.00e+00	92	42	0	368050176	60	6813
2026-01-24 03:40:34.02	287.28	7.86	-44.2	-45.8	18.7	0.00e+00	90	41	0	370147328	60	7060
2026-01-24 03:40:35.03	287.45	7.87	-44.8	-46.6	17.8	0.00e+00	92	41	0	372244480	60	7725
2026-01-24 03:40:36.04	287.61	7.88	-44.6	-46.4	18.3	0.00e+00	92	41	0	374341632	60	7568
2026-01-24 03:40:37.05	287.78	7.88	-44.6	-46.3	18.3	0.00e+00	92	41	0	376438784	60	7507
2026-01-24 03:40:38.06	287.95	7.89	-44.4	-46.1	18.4	0.00e+00	92	41	0	377487360	60	7318
2026-01-24 03:40:39.07	288.12	7.90	-44.6	-46.3	18.3	0.00e+00	0	41	0	379584512	60	7479
2026-01-24 03:40:40.08	288.28	7.91	-44.5	-46.3	18.3	0.00e+00	92	41	0	381681664	60	7440
2026-01-24 03:40:41.09	288.45	7.91	-44.4	-46.1	18.5	0.00e+00	0	41	0	383778816	60	7268
2026-01-24 03:40:42.10	288.62	7.92	-44.0	-45.6	18.9	0.00e+00	92	41	0	385875968	60	6863
2026-01-24 03:40:43.11	288.79	7.93	-43.9	-45.4	19.2	0.00e+00	92	41	0	387973120	60	6746
2026-01-24 03:40:44.12	288.96	7.93	-44.0	-45.7	18.9	0.00e+00	27	41	0	389021696	60	6928
2026-01-24 03:40:45.13	289.12	7.94	-44.2	-45.9	18.7	0.00e+00	92	41	0	391118848	60	7115
2026-01-24 03:40:46.14	289.29	7.94	-44.6	-46.3	18.3	0.00e+00	29	41	0	393216000	60	7472
2026-01-24 03:40:47.14	289.46	7.95	-44.2	-45.8	19.0	0.00e+00	90	41	0	395313152	60	7033
2026-01-24 03:40:48.16	289.63	7.95	-44.4	-46.1	18.5	0.00e+00	16	41	0	397410304	60	7317
2026-01-24 03:40:49.17	289.80	7.96	-44.7	-46.4	18.4	0.00e+00	92	41	0	398458880	60	7590
2026-01-24 03:40:50.18	289.96	7.96	-44.4	-46.1	18.2	0.00e+00	92	41	0	400556032	60	7286
2026-01-24 03:40:51.19	290.13	7.97	-44.8	-46.6	18.1	0.00e+00	62	41	0	402653184	60	7720
2026-01-24 03:40:52.20	290.30	7.97	-44.6	-46.4	18.3	0.00e+00	92	41	0	404750336	60	7526
2026-01-24 03:40:53.21	290.47	7.98	-44.8	-46.6	18.1	0.00e+00	54	41	0	406847488	60	7734
2026-01-24 03:40:54.22	290.64	7.98	-44.8	-46.6	18.1	0.00e+00	92	41	0	407896064	60	7705
2026-01-24 03:40:55.23	290.81	7.99	-45.0	-46.9	17.6	0.00e+00	7	41	0	409993216	60	8020
2026-01-24 03:40:56.24	290.98	7.99	-44.8	-46.6	18.0	0.00e+00	92	41	0	412090368	60	7701
2026-01-24 03:40:57.25	291.15	7.99	-44.6	-46.4	18.2	0.00e+00	90	41	0	414187520	60	7566
2026-01-24 03:40:58.26	291.31	8.00	-44.8	-46.6	18.0	0.00e+00	92	41	0	416284672	60	7728
2026-01-24 03:40:59.27	291.48	8.00	-44.7	-46.4	18.1	0.00e+00	92	41	0	417333248	60	7585
2026-01-24 03:41:00.28	291.65	8.00	-44.7	-46.5	18.0	0.00e+00	7	41	0	419430400	60	7665
2026-01-24 03:41:01.29	291.82	8.00	-44.9	-46.7	18.0	0.00e+00	90	41	0	421527552	60	7862
2026-01-24 03:41:02.30	291.99	8.01	-45.2	-47.2	17.6	0.00e+00	1	41	0	423624704	60	8263
2026-01-24 03:41:03.30	292.16	8.01	-45.0	-46.9	17.7	0.00e+00	90	41	0	425721856	60	7984
2026-01-24 03:41:04.31	292.33	8.01	-44.7	-46.5	18.1	0.00e+00	0	41	0	426770432	60	7674
2026-01-24 03:41:05.32	292.49	8.01	-44.2	-45.8	18.9	0.00e+00	92	41	0	428867584	60	7088
2026-01-24 03:41:06.33	292.66	8.01	-44.0	-45.5	19.2	0.00e+00	92	41	0	430964736	60	6829
2026-01-24 03:41:07.34	292.83	8.01	-44.2	-45.8	18.8	0.00e+00	0	41	0	433061888	60	7067
2026-01-24 03:41:08.35	293.00	8.02	-43.9	-45.4	19.2	0.00e+00	90	41	0	435159040	60	6747
2026-01-24 03:41:09.36	293.17	8.02	-44.3	-46.0	18.7	0.00e+00	60	41	0	436207616	60	7176
2026-01-24 03:41:10.37	293.34	8.02	-43.9	-45.5	19.1	0.00e+00	92	41	0	438304768	60	6779
2026-01-24 03:41:11.38	293.51	8.02	-44.2	-45.8	18.9	0.00e+00	56	41	0	440401920	60	7028
2026-01-24 03:41:12.39	293.68	8.02	-44.5	-46.3	18.4	0.00e+00	91	41	0	442499072	60	7427
2026-01-24 03:41:13.40	293.85	8.02	-44.1	-45.7	19.0	0.00e+00	90	41	0	444596224	60	6953
2026-01-24 03:41:14.41	294.01	8.02	-44.7	-46.4	18.1	0.00e+00	5	41	0	445644800	60	7568
2026-01-24 03:41:15.42	294.18	8.02	-44.0	-45.5	19.2	0.00e+00	92	41	0	447741952	60	6845
2026-01-24 03:41:16.43	294.35	8.02	-43.6	-45.0	19.3	0.00e+00	5	41	0	449839104	60	6455
2026-01-24 03:41:17.43	294.52	8.02	-43.8	-45.4	19.3	0.00e+00	92	41	0	451936256	60	6697
2026-01-24 03:41:18.44	294.69	8.01	-43.9	-45.4	19.3	0.00e+00	0	41	0	454033408	60	6719
2026-01-24 03:41:19.45	294.86	8.01	-43.8	-45.4	19.1	0.00e+00	92	41	0	456130560	60	6710
2026-01-24 03:41:20.46	295.03	8.01	-43.8	-45.3	19.4	0.00e+00	75	41	0	457179136	60	6680
2026-01-24 03:41:21.47	295.20	8.01	-43.8	-45.2	19.5	0.00e+00	92	41	0	459276288	60	6612
2026-01-24 03:41:22.48	295.36	8.01	-43.4	-44.9	19.8	0.00e+00	92	41	0	461373440	60	6323
2026-01-24 03:41:23.49	295.53	8.01	-43.0	-44.3	20.3	0.00e+00	0	41	0	463470592	60	5944
2026-01-24 03:41:24.50	295.70	8.00	-43.4	-44.8	19.9	0.00e+00	92	41	0	465567744	60	6260
2026-01-24 03:41:25.51	295.87	8.00	-43.7	-45.1	19.5	0.00e+00	7	41	0	466616320	60	6535
2026-01-24 03:41:26.52	296.04	8.00	-43.7	-45.2	19.6	0.00e+00	92	41	0	468713472	60	6593
2026-01-24 03:41:27.53	296.21	7.99	-43.7	-45.2	19.2	0.00e+00	8	41	0	470810624	60	6552
2026-01-24 03:41:28.54	296.38	7.99	-43.5	-45.0	19.8	0.00e+00	90	41	0	472907776	60	6407
2026-01-24 03:41:29.54	296.54	7.99	-43.8	-45.3	19.5	0.00e+00	92	41	0	475004928	60	6618
2026-01-24 03:41:30.55	296.71	7.98	-43.1	-44.5	20.2	0.00e+00	72	41	0	476053504	60	6053
2026-01-24 03:41:31.56	296.88	7.98	-43.5	-45.0	19.6	0.00e+00	92	41	0	478150656	60	6405
2026-01-24 03:41:32.57	297.05	7.98	-43.8	-45.3	19.3	0.00e+00	73	41	0	480247808	60	6668
2026-01-24 03:41:33.58	297.22	7.97	-43.9	-45.5	19.2	0.00e+00	92	41	0	482344960	60	6800
2026-01-24 03:41:34.59	297.39	7.97	-44.3	-45.9	18.9	0.00e+00	19	41	0	484442112	60	7111
2026-01-24 03:41:35.60	297.55	7.96	-44.3	-45.9	18.6	0.00e+00	92	41	0	485490688	60	7135
2026-01-24 03:41:36.61	297.72	7.96	-43.7	-45.1	19.5	0.00e+00	92	41	0	487587840	60	6518
2026-01-24 03:41:37.62	297.89	7.95	-42.8	-44.0	20.6	0.00e+00	92	41	0	489684992	60	5757
2026-01-24 03:41:38.63	298.06	7.95	-42.9	-44.2	20.4	0.00e+00	92	42	0	491782144	60	5866
2026-01-24 03:41:39.64	298.23	7.94	-42.7	-44.0	20.6	0.00e+00	75	41	0	493879296	58	6397
2026-01-24 03:41:40.65	298.39	7.94	-42.4	-43.6	20.8	0.00e+00	92	41	0	494927872	58	6127
2026-01-24 03:41:41.66	298.56	7.93	-42.8	-44.0	20.6	0.00e+00	0	41	0	497025024	58	6458
2026-01-24 03:41:42.67	298.73	7.92	-42.8	-44.1	20.4	0.00e+00	90	41	0	499122176	58	6507
2026-01-24 03:41:43.68	298.90	7.92	-42.7	-43.9	20.6	0.00e+00	0	41	0	501219328	58	6384
2026-01-24 03:41:44.69	299.07	7.91	-42.8	-44.0	20.5	0.00e+00	92	41	0	503316480	58	6463
2026-01-24 03:41:45.70	299.23	7.91	-43.0	-44.3	20.3	0.00e+00	92	41	0	504365056	58	6650
2026-01-24 03:41:46.71	299.40	7.90	-42.8	-44.1	20.4	0.00e+00	20	41	0	506462208	58	6523
2026-01-24 03:41:47.72	299.57	7.89	-42.6	-43.8	20.6	0.00e+00	92	41	0	508559360	58	6314
2026-01-24 03:41:48.73	299.74	7.88	-42.8	-44.2	20.3	0.00e+00	0	41	0	510656512	58	6548
2026-01-24 03:41:49.74	299.90	7.88	-43.2	-44.6	19.9	0.00e+00	92	41	0	512753664	58	6852
2026-01-24 03:41:50.74	300.07	7.87	-43.1	-44.4	20.2	0.00e+00	18	41	0	513802240	58	6769
2026-01-24 03:41:51.75	300.24	7.86	-42.8	-44.1	20.4	0.00e+00	90	41	0	515899392	58	6524
2026-01-24 03:41:52.77	300.41	7.85	-42.4	-43.6	20.8	0.00e+00	92	41	0	517996544	58	6169
2026-01-24 03:41:53.77	300.57	7.84	-42.4	-43.6	20.9	0.00e+00	55	41	0	520093696	58	6165
2026-01-24 03:41:54.78	300.74	7.84	-42.3	-43.5	21.0	0.00e+00	92	42	0	522190848	58	6082
2026-01-24 03:41:55.79	300.90	7.83	-42.7	-44.0	20.5	0.00e+00	27	41	0	523239424	58	6422
2026-01-24 03:41:56.80	301.07	7.82	-42.4	-43.6	20.9	0.00e+00	92	41	0	525336576	58	6128
2026-01-24 03:41:57.81	301.24	7.81	-42.7	-44.0	20.3	0.00e+00	0	41	0	527433728	58	6420
2026-01-24 03:41:58.82	301.40	7.80	-42.5	-43.7	20.8	0.00e+00	90	41	0	529530880	58	6222
2026-01-24 03:41:59.83	301.57	7.79	-42.7	-44.0	20.5	0.00e+00	92	41	0	531628032	58	6443
2026-01-24 03:42:00.84	301.74	7.78	-42.7	-44.1	20.4	0.00e+00	92	41	0	532676608	58	6467
2026-01-24 03:42:01.85	301.90	7.77	-42.6	-43.9	20.5	0.00e+00	92	41	0	534773760	58	6340
2026-01-24 03:42:02.86	302.07	7.76	-42.7	-43.9	20.6	0.00e+00	7	41	0	536870912	58	6384
2026-01-24 03:42:03.86	302.23	7.75	-42.7	-44.0	20.4	0.00e+00	92	41	0	538968064	58	6440
2026-01-24 03:42:04.87	302.40	7.74	-42.8	-44.1	20.3	0.00e+00	3	41	0	541065216	58	6530
2026-01-24 03:42:05.88	302.56	7.73	-43.0	-44.3	20.2	0.00e+00	90	41	0	542113792	58	6662
2026-01-24 03:42:06.89	302.73	7.72	-42.4	-43.7	20.9	0.00e+00	0	41	0	544210944	58	6188
2026-01-24 03:42:07.90	302.89	7.71	-42.6	-43.9	20.5	0.00e+00	92	41	0	546308096	58	6354
2026-01-24 03:42:08.91	303.06	7.69	-42.5	-43.7	20.7	0.00e+00	90	41	0	548405248	58	6211
2026-01-24 03:42:09.92	303.23	7.68	-42.6	-43.8	20.6	0.00e+00	21	41	0	550502400	58	6298
2026-01-24 03:42:10.93	303.39	7.67	-42.8	-44.1	20.3	0.00e+00	90	41	0	552599552	58	6476
2026-01-24 03:42:11.94	303.56	7.66	-42.8	-44.1	20.4	0.00e+00	20	41	0	553648128	58	6508
2026-01-24 03:42:12.95	303.72	7.65	-42.6	-43.9	20.4	0.00e+00	90	41	0	555745280	58	6376
2026-01-24 03:42:13.96	303.88	7.63	-42.8	-44.1	20.3	0.00e+00	23	41	0	557842432	58	6526
2026-01-24 03:42:14.96	304.05	7.62	-43.0	-44.4	20.1	0.00e+00	90	41	0	559939584	58	6736
2026-01-24 03:42:15.97	304.21	7.61	-43.0	-44.3	20.1	0.00e+00	92	41	0	562036736	58	6679
2026-01-24 03:42:16.98	304.38	7.60	-43.0	-44.3	20.2	0.00e+00	21	41	0	563085312	58	6683
2026-01-24 03:42:18.00	304.54	7.58	-43.0	-44.4	20.1	0.00e+00	92	41	0	565182464	58	6723
2026-01-24 03:42:19.00	304.70	7.57	-43.0	-44.3	20.2	0.00e+00	0	41	0	567279616	58	6662
2026-01-24 03:42:20.01	304.87	7.56	-43.1	-44.5	20.1	0.00e+00	92	41	0	569376768	58	6795
2026-01-24 03:42:21.02	305.03	7.54	-43.0	-44.4	20.1	0.00e+00	0	41	0	571473920	58	6697
2026-01-24 03:42:22.03	305.19	7.53	-42.8	-44.1	20.3	0.00e+00	92	41	0	572522496	58	6493
2026-01-24 03:42:23.04	305.36	7.51	-42.9	-44.3	20.2	0.00e+00	0	41	0	574619648	58	6656
2026-01-24 03:42:24.05	305.52	7.50	-43.3	-44.8	19.7	0.00e+00	92	41	0	576716800	58	7011
2026-01-24 03:42:25.06	305.68	7.49	-43.6	-45.1	19.5	0.00e+00	92	41	0	578813952	58	7262
2026-01-24 03:42:26.07	305.85	7.47	-43.6	-45.1	19.4	0.00e+00	0	41	0	580911104	58	7280
2026-01-24 03:42:27.08	306.01	7.46	-43.5	-44.9	19.5	0.00e+00	92	41	0	581959680	58	7162
2026-01-24 03:42:28.09	306.17	7.44	-43.4	-44.9	19.7	0.00e+00	0	41	0	584056832	58	7119
2026-01-24 03:42:29.10	306.33	7.43	-43.1	-44.5	20.0	0.00e+00	92	41	0	586153984	58	6841
2026-01-24 03:42:30.11	306.50	7.41	-43.1	-44.5	19.8	0.00e+00	27	41	0	588251136	58	6833
2026-01-24 03:42:31.12	306.66	7.39	-43.5	-45.0	19.5	0.00e+00	92	41	0	590348288	58	7230
2026-01-24 03:42:32.12	306.82	7.38	-43.8	-45.3	19.3	0.00e+00	90	41	0	591396864	60	6660
2026-01-24 03:42:33.13	306.98	7.36	-43.8	-45.4	19.1	0.00e+00	27	41	0	593494016	60	6718
2026-01-24 03:42:34.14	307.14	7.35	-43.5	-45.0	19.7	0.00e+00	92	41	0	595591168	60	6423
2026-01-24 03:42:35.15	307.30	7.33	-43.0	-44.3	20.2	0.00e+00	0	41	0	597688320	60	5945
2026-01-24 03:42:36.16	307.46	7.31	-43.1	-44.4	20.0	0.00e+00	92	41	0	599785472	60	6029
2026-01-24 03:42:37.17	307.63	7.30	-43.1	-44.5	20.0	0.00e+00	3	41	0	600834048	60	6059
2026-01-24 03:42:38.18	307.79	7.28	-42.8	-44.1	20.3	0.00e+00	92	42	0	602931200	60	5826
2026-01-24 03:42:39.19	307.95	7.26	-42.7	-44.0	20.5	0.00e+00	92	41	0	605028352	58	6409
2026-01-24 03:42:40.20	308.11	7.25	-42.9	-44.2	20.2	0.00e+00	53	41	0	607125504	58	6564
2026-01-24 03:42:41.21	308.27	7.23	-43.2	-44.6	19.9	0.00e+00	91	41	0	609222656	58	6884
2026-01-24 03:42:42.22	308.43	7.21	-43.2	-44.6	19.8	0.00e+00	0	41	0	610271232	58	6897
2026-01-24 03:42:43.23	308.59	7.19	-43.2	-44.6	19.8	0.00e+00	92	41	0	612368384	58	6919
2026-01-24 03:42:44.24	308.75	7.18	-43.4	-44.9	19.5	0.00e+00	0	41	0	614465536	58	7095
2026-01-24 03:42:45.25	308.91	7.16	-43.4	-44.8	19.5	0.00e+00	90	42	0	616562688	58	7086
2026-01-24 03:42:46.26	309.07	7.14	-43.2	-44.6	19.8	0.00e+00	91	41	0	618659840	58	6920
2026-01-24 03:42:47.27	309.22	7.12	-43.0	-44.4	20.0	0.00e+00	0	41	0	620756992	58	6730
2026-01-24 03:42:48.28	309.38	7.10	-43.4	-44.9	19.6	0.00e+00	92	41	0	621805568	58	7096
2026-01-24 03:42:49.29	309.54	7.08	-43.2	-44.6	20.0	0.00e+00	0	41	0	623902720	58	6856
2026-01-24 03:42:50.30	309.70	7.06	-42.7	-44.0	20.5	0.00e+00	90	42	0	625999872	58	6424
2026-01-24 03:42:51.31	309.86	7.05	-42.5	-43.8	20.5	0.00e+00	0	41	0	628097024	58	6279
2026-01-24 03:42:52.32	310.02	7.03	-42.7	-44.1	20.3	0.00e+00	91	41	0	630194176	58	6479
2026-01-24 03:42:53.33	310.17	7.01	-42.9	-44.3	20.0	0.00e+00	0	41	0	631242752	58	6616
2026-01-24 03:42:54.34	310.33	6.99	-43.0	-44.4	20.1	0.00e+00	24	41	0	633339904	58	6716
2026-01-24 03:42:55.35	310.49	6.97	-42.8	-44.2	20.1	0.00e+00	92	41	0	635437056	58	6578
2026-01-24 03:42:56.36	310.65	6.95	-42.6	-43.9	20.5	0.00e+00	17	41	0	637534208	58	6347
2026-01-24 03:42:57.37	310.80	6.93	-42.4	-43.6	20.7	0.00e+00	92	42	0	639631360	58	6151
2026-01-24 03:42:58.38	310.96	6.91	-42.8	-44.1	20.2	0.00e+00	0	41	0	640679936	58	6500
2026-01-24 03:42:59.39	311.12	6.89	-42.2	-43.4	20.9	0.00e+00	91	41	0	642777088	58	6024
2026-01-24 03:43:00.40	311.27	6.87	-41.6	-42.8	21.5	0.00e+00	68	41	0	644874240	56	6265
2026-01-24 03:43:01.41	311.43	6.85	-41.8	-42.9	21.3	0.00e+00	92	41	0	646971392	56	6359
2026-01-24 03:43:02.42	311.59	6.82	-42.5	-43.8	20.5	0.00e+00	90	41	0	649068544	56	7052
2026-01-24 03:43:03.43	311.74	6.80	-42.8	-44.1	20.3	0.00e+00	56	41	0	650117120	58	6492
2026-01-24 03:43:04.44	311.90	6.78	-42.9	-44.2	20.2	0.00e+00	92	41	0	652214272	58	6591
2026-01-24 03:43:05.45	312.05	6.76	-42.4	-43.7	20.5	0.00e+00	5	41	0	654311424	58	6218
2026-01-24 03:43:06.46	312.21	6.74	-42.3	-43.6	20.8	0.00e+00	92	41	0	656408576	58	6130
2026-01-24 03:43:07.47	312.36	6.72	-41.8	-43.0	21.4	0.00e+00	5	41	0	658505728	56	6408
2026-01-24 03:43:08.47	312.52	6.70	-42.0	-43.2	21.1	0.00e+00	92	41	0	659554304	56	6581
2026-01-24 03:43:09.48	312.67	6.67	-42.5	-43.7	20.6	0.00e+00	91	41	0	661651456	56	6979
2026-01-24 03:43:10.49	312.82	6.65	-42.9	-44.3	20.0	0.00e+00	0	41	0	663748608	58	6625
2026-01-24 03:43:11.50	312.98	6.63	-43.0	-44.4	19.9	0.00e+00	92	41	0	665845760	58	6751
2026-01-24 03:43:12.51	313.13	6.61	-43.0	-44.4	19.9	0.00e+00	0	41	0	667942912	58	6711
2026-01-24 03:43:13.52	313.29	6.58	-43.1	-44.5	19.8	0.00e+00	92	41	0	668991488	58	6811
2026-01-24 03:43:14.53	313.44	6.56	-42.6	-43.9	20.4	0.00e+00	0	41	0	671088640	58	6343
2026-01-24 03:43:15.54	313.59	6.54	-42.4	-43.7	20.6	0.00e+00	77	41	0	673185792	58	6195
2026-01-24 03:43:16.55	313.74	6.52	-42.5	-43.8	20.4	0.00e+00	0	41	0	675282944	58	6261
2026-01-24 03:43:17.56	313.90	6.49	-42.1	-43.3	20.8	0.00e+00	60	41	0	677380096	58	5945
2026-01-24 03:43:18.57	314.05	6.47	-42.4	-43.6	20.6	0.00e+00	92	41	0	678428672	58	6149
2026-01-24 03:43:19.58	314.20	6.45	-42.5	-43.8	20.5	0.00e+00	24	41	0	680525824	58	6292
2026-01-24 03:43:20.59	314.35	6.42	-42.6	-44.0	20.3	0.00e+00	92	41	0	682622976	58	6404
2026-01-24 03:43:21.60	314.50	6.40	-42.7	-44.0	20.3	0.00e+00	0	41	0	684720128	58	6456
2026-01-24 03:43:22.61	314.66	6.37	-42.8	-44.2	20.0	0.00e+00	92	42	0	686817280	58	6550
2026-01-24 03:43:23.62	314.81	6.35	-42.5	-43.8	20.3	0.00e+00	66	41	0	688914432	58	6293
2026-01-24 03:43:24.63	314.96	6.33	-42.2	-43.4	20.8	0.00e+00	92	41	0	689963008	58	6000
2026-01-24 03:43:25.64	315.11	6.30	-42.1	-43.3	20.9	0.00e+00	92	41	0	692060160	58	5964
2026-01-24 03:43:26.65	315.26	6.28	-42.1	-43.3	20.9	0.00e+00	7	42	0	694157312	58	5936
2026-01-24 03:43:27.65	315.41	6.25	-42.5	-43.8	20.4	0.00e+00	92	41	0	696254464	58	6315
2026-01-24 03:43:28.66	315.56	6.23	-42.3	-43.5	20.8	0.00e+00	0	42	0	698351616	58	6085
2026-01-24 03:43:29.67	315.71	6.20	-42.0	-43.2	20.9	0.00e+00	92	41	0	699400192	58	5885
2026-01-24 03:43:30.68	315.86	6.18	-42.5	-43.8	20.3	0.00e+00	0	42	0	701497344	58	6286
2026-01-24 03:43:31.69	316.01	6.15	-42.4	-43.6	20.6	0.00e+00	25	41	0	703594496	58	6160
2026-01-24 03:43:32.70	316.15	6.13	-43.2	-44.6	19.5	0.00e+00	92	41	0	705691648	58	6885
2026-01-24 03:43:33.71	316.30	6.10	-43.1	-44.5	19.8	0.00e+00	0	41	0	707788800	58	6801
2026-01-24 03:43:34.72	316.45	6.08	-43.2	-44.7	19.6	0.00e+00	92	42	0	708837376	58	6961
2026-01-24 03:43:35.73	316.60	6.05	-43.4	-44.9	19.4	0.00e+00	0	41	0	710934528	58	7096
2026-01-24 03:43:36.74	316.75	6.02	-44.0	-45.7	18.7	0.00e+00	92	42	0	713031680	60	6963
2026-01-24 03:43:37.75	316.89	6.00	-43.8	-45.4	19.0	0.00e+00	25	42	0	715128832	60	6703
2026-01-24 03:43:38.76	317.04	5.97	-44.0	-45.7	18.5	0.00e+00	90	42	0	717225984	60	6929
2026-01-24 03:43:39.77	317.19	5.95	-44.0	-45.7	18.9	0.00e+00	0	42	0	718274560	60	6951
2026-01-24 03:43:40.78	317.34	5.92	-43.6	-45.1	19.3	0.00e+00	26	42	0	720371712	60	6528
2026-01-24 03:43:41.78	317.48	5.89	-43.5	-45.1	19.2	0.00e+00	90	42	0	722468864	60	6480
2026-01-24 03:43:42.79	317.63	5.87	-43.3	-44.7	19.4	0.00e+00	2	42	0	724566016	60	6240
2026-01-24 03:43:43.80	317.77	5.84	-43.0	-44.4	19.8	0.00e+00	92	41	0	726663168	60	5989
2026-01-24 03:43:44.81	317.92	5.81	-43.3	-44.8	19.6	0.00e+00	55	42	0	727711744	60	6304
2026-01-24 03:43:45.82	318.06	5.78	-43.7	-45.3	19.2	0.00e+00	92	41	0	729808896	60	6640
2026-01-24 03:43:46.83	318.21	5.76	-43.7	-45.3	18.9	0.00e+00	0	42	0	731906048	60	6631
2026-01-24 03:43:47.84	318.35	5.73	-43.4	-44.9	19.4	0.00e+00	0	41	0	734003200	60	6329
2026-01-24 03:43:48.85	318.50	5.70	-43.1	-44.6	19.8	0.00e+00	91	42	0	736100352	60	6127
2026-01-24 03:43:49.86	318.64	5.68	-42.9	-44.3	20.0	0.00e+00	0	42	0	737148928	60	5919
2026-01-24 03:43:50.87	318.79	5.65	-42.5	-43.8	20.3	0.00e+00	92	42	0	739246080	58	6294
2026-01-24 03:43:51.88	318.93	5.62	-43.1	-44.5	19.8	0.00e+00	0	41	0	741343232	58	6833
2026-01-24 03:43:52.89	319.08	5.59	-43.3	-44.8	19.4	0.00e+00	92	41	0	743440384	58	7064
2026-01-24 03:43:53.90	319.22	5.56	-44.3	-46.0	18.2	3.00e-06	7	42	0	745537536	60	7203
2026-01-24 03:43:54.90	319.36	5.54	-44.0	-45.7	18.9	0.00e+00	0	42	0	746586112	60	6959
2026-01-24 03:43:55.91	319.50	5.51	-42.9	-44.3	20.0	0.00e+00	0	42	0	748683264	60	5952
2026-01-24 03:43:56.92	319.65	5.48	-42.6	-44.0	20.2	0.00e+00	0	42	0	750780416	60	5709
2026-01-24 03:43:57.93	319.79	5.45	-43.4	-45.0	19.2	0.00e+00	91	42	0	752877568	58	7184
2026-01-24 03:43:58.94	319.93	5.42	-44.2	-45.9	18.4	0.00e+00	26	42	0	754974720	60	7133
2026-01-24 03:43:59.95	320.07	5.39	-44.4	-46.3	18.0	0.00e+00	92	42	0	757071872	60	7427
2026-01-24 03:44:00.96	320.21	5.37	-44.4	-46.2	18.2	0.00e+00	57	41	0	758120448	60	7401
2026-01-24 03:44:01.97	320.36	5.34	-45.2	-47.4	16.9	0.00e+00	91	42	0	760217600	60	8436
2026-01-24 03:44:02.98	320.50	5.31	-44.5	-46.3	18.0	0.00e+00	2	42	0	762314752	60	7468
2026-01-24 03:44:03.99	320.64	5.28	-44.1	-45.8	18.5	0.00e+00	59	42	0	764411904	60	7035
2026-01-24 03:44:05.00	320.78	5.25	-45.4	-47.6	16.7	0.00e+00	92	42	0	766509056	60	8636
2026-01-24 03:44:06.01	320.92	5.22	-45.3	-47.5	16.8	0.00e+00	56	42	0	767557632	60	8534
2026-01-24 03:44:07.02	321.06	5.19	-45.3	-47.5	16.7	0.00e+00	91	42	0	769654784	60	8559
2026-01-24 03:44:08.03	321.20	5.16	-45.6	-47.9	16.3	0.00e+00	0	42	0	771751936	60	9017
2026-01-24 03:44:09.04	321.34	5.13	-45.5	-47.8	16.4	0.00e+00	92	42	0	773849088	60	8884
2026-01-24 03:44:10.05	321.48	5.10	-43.7	-45.3	19.0	0.00e+00	0	42	0	775946240	60	6646
2026-01-24 03:44:11.06	321.61	5.07	-44.6	-46.5	17.7	0.00e+00	0	42	0	776994816	60	7627
2026-01-24 03:44:12.07	321.75	5.04	-44.3	-46.2	17.9	0.00e+00	92	42	0	779091968	60	7351
2026-01-24 03:44:13.08	321.89	5.01	-45.5	-47.8	16.4	0.00e+00	2	42	0	781189120	60	8879
2026-01-24 03:44:14.08	322.03	4.98	-46.5	-49.3	14.9	0.00e+00	92	42	0	783286272	60	10564
2026-01-24 03:44:15.09	322.17	4.95	-45.2	-47.4	17.0	0.00e+00	0	42	0	785383424	60	8468
2026-01-24 03:44:16.10	322.30	4.92	-43.8	-45.5	18.7	0.00e+00	92	42	0	786432000	60	6830
2026-01-24 03:44:17.12	322.44	4.89	-44.3	-46.1	17.9	0.00e+00	23	42	0	788529152	60	7261
2026-01-24 03:44:18.12	322.58	4.86	-44.5	-46.4	17.8	0.00e+00	82	42	0	790626304	60	7558
2026-01-24 03:44:19.13	322.71	4.83	-44.2	-46.0	18.6	0.00e+00	2	42	0	792723456	60	7178
2026-01-24 03:44:20.14	322.85	4.80	-45.2	-47.4	16.8	0.00e+00	26	42	0	794820608	60	8500
2026-01-24 03:44:21.15	322.99	4.77	-44.9	-46.9	17.3	0.00e+00	92	42	0	795869184	60	7965
2026-01-24 03:44:22.16	323.12	4.74	-45.4	-47.6	16.6	0.00e+00	20	42	0	797966336	60	8635
2026-01-24 03:44:23.17	323.26	4.70	-44.8	-46.8	17.3	0.00e+00	92	42	0	800063488	60	7926
2026-01-24 03:44:24.18	323.39	4.67	-44.9	-46.9	17.1	0.00e+00	55	42	0	802160640	60	8039
2026-01-24 03:44:25.19	323.53	4.64	-45.3	-47.5	16.7	0.00e+00	92	42	0	804257792	60	8531
2026-01-24 03:44:26.20	323.66	4.61	-46.0	-48.5	15.7	0.00e+00	0	42	0	805306368	60	9658
2026-01-24 03:44:27.21	323.80	4.58	-45.7	-48.1	16.2	0.00e+00	0	42	0	807403520	60	9148
2026-01-24 03:44:28.22	323.93	4.55	-45.9	-48.4	15.7	0.00e+00	92	42	0	809500672	60	9466
2026-01-24 03:44:29.23	324.07	4.52	-45.4	-47.6	16.6	0.00e+00	56	42	0	811597824	60	8714
2026-01-24 03:44:30.24	324.20	4.48	-46.1	-48.8	15.3	0.00e+00	92	42	0	813694976	60	9966
2026-01-24 03:44:31.25	324.33	4.45	-46.8	-49.9	14.1	7.00e-07	2	42	0	814743552	60	11312
2026-01-24 03:44:32.26	324.47	4.42	-45.9	-48.5	15.4	0.00e+00	92	42	0	816840704	60	9635
2026-01-24 03:44:33.26	324.60	4.39	-45.4	-47.7	16.2	0.00e+00	0	42	0	818937856	60	8800
2026-01-24 03:44:34.27	324.73	4.36	-46.9	-50.1	14.4	6.80e-06	0	42	0	821035008	60	11510
2026-01-24 03:44:35.28	324.86	4.33	-45.9	-48.4	15.7	0.00e+00	92	42	0	823132160	60	9544
2026-01-24 03:44:36.29	324.99	4.29	-45.7	-48.2	15.8	0.00e+00	0	42	0	825229312	60	9269
2026-01-24 03:44:37.30	325.12	4.26	-45.4	-47.6	16.4	0.00e+00	92	42	0	826277888	60	8717
2026-01-24 03:44:38.31	325.26	4.23	-45.3	-47.6	16.4	0.00e+00	0	42	0	828375040	60	8641
2026-01-24 03:44:39.32	325.39	4.20	-46.0	-48.7	15.3	0.00e+00	23	42	0	830472192	60	9813
2026-01-24 03:44:40.33	325.52	4.16	-46.1	-48.9	14.8	0.00e+00	24	42	0	832569344	60	10047
2026-01-24 03:44:41.34	325.65	4.13	-46.0	-48.6	15.4	0.00e+00	22	42	0	833617920	60	9736
2026-01-24 03:44:42.35	325.78	4.10	-44.8	-46.9	17.2	0.00e+00	24	42	0	835715072	60	7977
2026-01-24 03:44:43.36	325.91	4.07	-45.1	-47.3	16.6	0.00e+00	0	42	0	837812224	60	8417
2026-01-24 03:44:44.37	326.04	4.03	-46.2	-48.9	15.1	0.00e+00	92	42	0	839909376	60	10114
2026-01-24 03:44:45.38	326.17	4.00	-45.3	-47.6	16.4	0.00e+00	60	42	0	842006528	60	8647
2026-01-24 03:44:46.39	326.30	3.97	-45.2	-47.5	16.7	0.00e+00	68	42	0	844103680	60	8547
2026-01-24 03:44:47.40	326.43	3.93	-46.0	-48.6	15.5	0.00e+00	59	42	0	845152256	60	9769
2026-01-24 03:44:48.41	326.55	3.90	-45.3	-47.7	16.1	0.00e+00	5	42	0	847249408	60	8731
2026-01-24 03:44:49.42	326.68	3.87	-45.7	-48.2	15.5	0.00e+00	85	42	0	849346560	60	9247
2026-01-24 03:44:50.43	326.81	3.83	-45.5	-47.9	16.2	0.00e+00	0	42	0	851443712	60	9007
2026-01-24 03:44:51.44	326.94	3.80	-45.3	-47.7	16.3	0.00e+00	92	42	0	853540864	60	8737
2026-01-24 03:44:52.45	327.07	3.77	-45.7	-48.3	15.7	0.00e+00	0	42	0	854589440	60	9347
2026-01-24 03:44:53.46	327.19	3.73	-45.3	-47.6	16.1	0.00e+00	68	42	0	856686592	60	8651
2026-01-24 03:44:54.47	327.32	3.70	-45.6	-48.1	15.9	0.00e+00	0	42	0	858783744	60	9146
2026-01-24 03:44:55.48	327.45	3.67	-45.3	-47.6	16.3	0.00e+00	5	42	0	860880896	60	8715
2026-01-24 03:44:56.49	327.57	3.63	-45.0	-47.2	16.6	0.00e+00	0	42	0	862978048	60	8315
2026-01-24 03:44:57.50	327.70	3.60	-44.8	-46.9	17.1	0.00e+00	6	42	0	864026624	60	7993
2026-01-24 03:44:58.51	327.82	3.56	-43.5	-45.1	18.7	0.00e+00	90	42	0	866123776	60	6529
2026-01-24 03:44:59.51	327.95	3.53	-45.0	-47.2	16.4	0.00e+00	23	42	0	868220928	60	8299
2026-01-24 03:45:00.52	328.07	3.50	-45.2	-47.4	16.5	0.00e+00	92	42	0	870318080	60	8503
2026-01-24 03:45:01.53	328.20	3.46	-43.5	-45.2	18.7	0.00e+00	23	42	0	872415232	60	6541
2026-01-24 03:45:02.54	328.32	3.43	-42.7	-44.2	19.5	0.00e+00	61	42	0	873463808	58	6574
2026-01-24 03:45:03.55	328.45	3.39	-45.3	-47.7	15.6	0.00e+00	22	42	0	875560960	60	8775
2026-01-24 03:45:04.56	328.57	3.36	-46.1	-49.0	14.9	2.82e-05	62	42	0	877658112	60	10245
2026-01-24 03:45:05.57	328.69	3.33	-46.0	-48.9	14.7	0.00e+00	22	42	0	879755264	60	10126
2026-01-24 03:45:06.58	328.82	3.29	-45.3	-47.8	15.6	0.00e+00	61	42	0	881852416	60	8824
2026-01-24 03:45:07.59	328.94	3.26	-46.6	-50.2	13.0	0.00e+00	92	42	0	882900992	60	11755
2026-01-24 03:45:08.60	329.06	3.22	-47.0	-51.0	12.3	2.39e-04	7	42	0	884998144	60	12848
2026-01-24 03:45:09.61	329.19	3.19	-46.9	-50.9	12.9	1.18e-03	32	42	0	887095296	60	12717
2026-01-24 03:45:10.62	329.31	3.15	-44.6	-46.9	16.1	0.00e+00	5	42	0	889192448	60	7987
2026-01-24 03:45:11.63	329.43	3.12	-48.0	-54.3	8.5	3.42e-03	7	42	0	891289600	60	18699
2026-01-24 03:45:12.64	329.55	3.08	-47.4	-52.2	10.4	1.58e-02	0	42	0	892338176	60	14801
2026-01-24 03:45:13.65	329.68	3.05	-46.0	-49.3	13.9	6.88e-04	8	42	0	894435328	60	10537
2026-01-24 03:45:14.66	329.80	3.01	-45.8	-49.0	14.0	0.00e+00	92	42	0	896532480	60	10157
2026-01-24 03:45:15.67	329.92	2.98	-49.7	-64.9	3.6	3.28e-03	0	42	104	897581056	60	63531
2026-01-24 03:45:16.67	330.04	2.94	-50.1	-65.4	3.6	1.51e+00	0	42	104	897581056	60	67040
2026-01-24 03:45:17.69	330.16	2.91	-50.5	-65.7	3.6	1.51e+00	0	42	104	897581056	60	69310
2026-01-24 03:45:18.70	330.28	2.87	-50.7	-65.8	3.6	1.51e+00	0	42	104	897581056	60	70728
2026-01-24 03:45:19.71	330.40	2.84	-50.9	-66.1	3.6	1.51e+00	0	42	104	897581056	60	72547
2026-01-24 03:45:20.71	330.52	2.80	-51.0	-66.2	3.6	1.51e+00	0	42	104	897581056	60	73614
2026-01-24 03:45:21.73	330.64	2.77	-51.1	-66.3	3.6	1.51e+00	0	42	104	897581056	60	74643
2026-01-24 03:45:22.73	330.76	2.73	-51.2	-66.4	3.6	1.51e+00	0	42	104	897581056	60	75288
2026-01-24 03:45:23.75	330.88	2.70	-51.2	-66.5	3.6	1.51e+00	0	42	104	897581056	60	76179
2026-01-24 03:45:24.75	330.99	2.66	-51.3	-66.5	3.6	1.51e+00	0	42	104	897581056	60	76435
2026-01-24 03:45:25.77	331.11	2.63	-51.3	-66.5	3.6	1.51e+00	0	42	104	897581056	60	75981
2026-01-24 03:45:26.78	331.23	2.59	-51.3	-66.5	3.6	1.51e+00	0	42	104	897581056	60	76426
2026-01-24 03:45:27.79	331.35	2.56	-51.3	-66.5	3.5	1.51e+00	0	42	104	897581056	60	76739
2026-01-24 03:45:28.80	331.47	2.52	-51.3	-66.5	3.6	1.51e+00	0	42	104	897581056	60	76478
2026-01-24 03:45:29.81	331.58	2.48	-51.3	-66.5	3.6	1.51e+00	0	42	104	897581056	60	76544
2026-01-24 03:45:30.81	331.70	2.45	-51.2	-66.4	3.6	1.51e+00	0	42	104	897581056	60	75885
2026-01-24 03:45:31.83	331.82	2.41	-51.2	-66.5	3.6	1.51e+00	0	42	104	897581056	60	76086
2026-01-24 03:45:32.84	331.93	2.38	-51.1	-66.4	3.5	1.51e+00	0	42	104	897581056	60	75550
2026-01-24 03:45:33.84	332.05	2.34	-51.2	-66.5	3.6	1.51e+00	0	42	104	897581056	60	76167
2026-01-24 03:45:34.86	332.17	2.30	-51.2	-66.5	3.6	1.51e+00	0	42	104	897581056	60	76695
2026-01-24 03:45:35.87	332.28	2.27	-51.2	-66.4	3.6	1.51e+00	0	42	104	897581056	60	75955
2026-01-24 03:45:36.88	332.40	2.23	-51.2	-66.5	3.6	1.51e+00	0	42	104	897581056	60	76325
2026-01-24 03:45:37.89	332.51	2.20	-51.2	-66.4	3.6	1.51e+00	0	42	104	897581056	60	75497
2026-01-24 03:45:38.90	332.63	2.16	-51.2	-66.5	3.6	1.51e+00	0	42	104	897581056	60	76705
2026-01-24 03:45:39.91	332.74	2.12	-51.3	-66.4	3.6	1.51e+00	0	42	104	897581056	60	75855
2026-01-24 03:45:40.92	332.85	2.09	-51.2	-66.4	3.6	1.51e+00	0	42	104	897581056	60	75394
2026-01-24 03:45:41.93	332.97	2.05	-51.2	-66.4	3.6	1.51e+00	0	42	104	897581056	60	75802
2026-01-24 03:45:42.93	333.08	2.02	-51.4	-66.6	3.6	1.51e+00	0	42	104	897581056	60	77376
2026-01-24 03:45:43.95	333.20	1.98	-51.3	-66.4	3.6	1.51e+00	0	42	104	897581056	60	75947
2026-01-24 03:45:44.95	333.31	1.94	-51.4	-66.6	3.6	1.51e+00	0	42	104	897581056	60	77367
2026-01-24 03:45:45.96	333.42	1.91	-51.4	-66.6	3.6	1.51e+00	0	42	104	897581056	60	77007
2026-01-24 03:45:46.97	333.53	1.87	-51.3	-66.5	3.6	1.51e+00	0	42	104	897581056	60	76145
2026-01-24 03:45:47.98	333.65	1.83	-51.3	-66.5	3.6	1.51e+00	0	42	104	897581056	60	76112
2026-01-24 03:45:48.99	333.76	1.80	-51.3	-66.4	3.6	1.51e+00	0	42	104	897581056	60	75894
2026-01-24 03:45:50.00	333.87	1.76	-51.3	-66.5	3.6	1.51e+00	0	42	104	897581056	60	76701
2026-01-24 03:45:51.01	333.98	1.72	-51.3	-66.5	3.6	1.51e+00	0	42	104	897581056	60	76100
2026-01-24 03:45:52.02	334.09	1.69	-51.3	-66.5	3.6	1.51e+00	0	42	104	897581056	60	76165
2026-01-24 03:45:53.03	334.20	1.65	-51.3	-66.4	3.6	1.51e+00	0	42	104	897581056	60	75728
2026-01-24 03:45:54.04	334.31	1.61	-51.3	-66.5	3.6	1.51e+00	0	42	104	897581056	60	76089
2026-01-24 03:45:55.05	334.43	1.58	-51.3	-66.4	3.6	1.51e+00	0	42	104	897581056	60	75942
2026-01-24 03:45:56.06	334.54	1.54	-51.4	-66.6	3.6	1.51e+00	0	42	104	897581056	60	76939
2026-01-24 03:45:57.07	334.65	1.50	-51.3	-66.5	3.6	1.51e+00	0	42	104	897581056	60	76071
2026-01-24 03:45:58.08	334.76	1.47	-51.3	-66.4	3.6	1.51e+00	0	42	104	897581056	60	75759
2026-01-24 03:45:59.09	334.86	1.43	-51.3	-66.5	3.6	1.51e+00	0	42	104	897581056	60	76356
2026-01-24 03:46:00.10	334.97	1.39	-51.4	-66.6	3.6	1.51e+00	0	42	104	897581056	60	77389
2026-01-24 03:46:01.11	335.08	1.36	-51.4	-66.6	3.6	1.51e+00	0	42	104	897581056	60	77415
2026-01-24 03:46:02.12	335.19	1.32	-51.4	-66.7	3.6	1.51e+00	0	42	104	897581056	60	77755
2026-01-24 03:46:03.13	335.30	1.28	-51.3	-66.5	3.6	1.51e+00	0	42	104	897581056	60	76068
2026-01-24 03:46:04.15	335.41	1.25	-51.3	-66.4	3.6	1.51e+00	0	42	104	897581056	60	75867
2026-01-24 03:46:05.15	335.52	1.21	-51.2	-66.5	3.6	1.51e+00	0	42	104	897581056	60	76060
2026-01-24 03:46:06.16	335.62	1.17	-51.2	-66.4	3.6	1.51e+00	0	42	104	897581056	60	75615
2026-01-24 03:46:07.17	335.73	1.13	-51.4	-66.5	3.6	1.51e+00	0	42	104	897581056	60	76722
2026-01-24 03:46:08.18	335.84	1.10	-51.4	-66.6	3.6	1.51e+00	0	42	104	897581056	60	77054
2026-01-24 03:46:09.19	335.95	1.06	-51.4	-66.6	3.6	1.51e+00	0	42	104	897581056	60	77367
2026-01-24 03:46:10.20	336.05	1.02	-51.3	-66.5	3.6	1.51e+00	0	42	104	897581056	60	76253
2026-01-24 03:46:11.22	336.16	0.99	-51.3	-66.5	3.6	1.51e+00	0	42	104	897581056	60	76676
2026-01-24 03:46:12.23	336.27	0.95	-51.4	-66.6	3.6	1.51e+00	0	42	104	897581056	60	77311
2026-01-24 03:46:13.24	336.37	0.91	-51.4	-66.7	3.6	1.51e+00	0	42	104	897581056	60	77903
2026-01-24 03:46:14.25	336.48	0.87	-51.3	-66.5	3.6	1.51e+00	0	42	104	897581056	60	76805
2026-01-24 03:46:15.26	336.58	0.84	-51.4	-66.6	3.6	1.51e+00	0	42	104	897581056	60	77315
2026-01-24 03:46:16.27	336.69	0.80	-51.4	-66.6	3.6	1.51e+00	0	42	104	897581056	60	76975
2026-01-24 03:46:17.28	336.79	0.76	-51.4	-66.7	3.6	1.51e+00	0	42	104	897581056	60	77803
2026-01-24 03:46:18.29	336.90	0.72	-51.4	-66.6	3.6	1.51e+00	0	42	104	897581056	60	77270
2026-01-24 03:46:19.30	337.00	0.69	-51.3	-66.5	3.6	1.51e+00	0	42	104	897581056	60	76620
2026-01-24 03:46:20.31	337.11	0.65	-51.3	-66.4	3.6	1.51e+00	0	42	104	897581056	60	75822
2026-01-24 03:46:21.32	337.21	0.61	-51.2	-66.5	3.6	1.51e+00	0	42	104	897581056	60	76092
2026-01-24 03:46:22.33	337.31	0.57	-51.4	-66.6	3.6	1.51e+00	0	42	104	897581056	60	77665
2026-01-24 03:46:23.33	337.42	0.54	-51.4	-66.6	3.6	1.51e+00	0	42	104	897581056	60	77508
2026-01-24 03:46:24.34	337.52	0.50	-51.5	-66.7	3.6	1.51e+00	0	42	104	897581056	60	78383
2026-01-24 03:46:25.35	337.62	0.46	-51.4	-66.6	3.6	1.51e+00	0	42	104	897581056	60	77416
2026-01-24 03:46:26.36	337.73	0.42	-51.3	-66.5	3.6	1.51e+00	0	42	104	897581056	60	76332
2026-01-24 03:46:27.37	337.83	0.39	-51.4	-66.7	3.6	1.51e+00	0	42	104	897581056	60	77768
2026-01-24 03:46:28.39	337.93	0.35	-51.5	-66.7	3.6	1.51e+00	0	42	104	897581056	60	77870
2026-01-24 03:46:29.40	338.03	0.31	-51.5	-66.7	3.6	1.51e+00	0	42	104	897581056	60	78600
2026-01-24 03:46:30.41	338.13	0.27	-51.5	-66.7	3.6	1.51e+00	0	42	104	897581056	60	78557
2026-01-24 03:46:31.42	338.24	0.24	-51.5	-66.6	3.6	1.51e+00	0	42	104	897581056	60	77287
2026-01-24 03:46:32.43	338.34	0.20	-51.4	-66.6	3.6	1.51e+00	0	42	104	897581056	60	77153
2026-01-24 03:46:33.44	338.44	0.16	-51.4	-66.6	3.6	1.51e+00	0	42	104	897581056	60	77274
2026-01-24 03:46:34.45	338.54	0.12	-51.4	-66.6	3.6	1.51e+00	0	42	104	897581056	60	77710
2026-01-24 03:46:35.46	338.64	0.08	-51.4	-66.6	3.6	1.51e+00	0	42	104	897581056	60	77382
2026-01-24 03:46:36.47	338.74	0.05	-51.6	-66.7	3.6	1.51e+00	0	42	104	897581056	60	78517
2026-01-24 03:46:37.48	338.84	0.01	-51.5	-66.8	3.6	1.51e+00	0	42	104	897581056	60	78778
2026-01-24 03:46:38.49	338.94	-0.03	-51.4	-66.6	3.6	1.51e+00	0	42	104	897581056	60	77369

#Closed at: 2026-01-24 03:46:39
#Recorded file [897 MB]: D:/lorett/data/35029_260124_153553.dat