passes_logs/2026/01/24/R4.6S_Anadyr/R4.6S_Anadyr__20260124_144622_NOAA_21_JPSS-2_rec.log

#Pass ID: 20260124_144622_NOAA 21 (JPSS-2)
#Satellite: NOAA 21 (JPSS-2)
#Configuration: NOAA-21
#almurnet v.1.7.20251203
#Start time: 2026-01-24 14:46:25

#Version: 2.2.20231116
#Station: R4.6S_Anadyr
#Location: 177.4865 lon 64.73178 lat
#TLE: 1 54234U 22150A   26024.10530052  .00000243  00000+0  13599-3 0  9996
#TLE: 2 54234  98.7508 324.8953 0000717 223.3896 136.7224 14.19538773166106

#Time	Az	El	Level	Level2	SNR	BER	BlckErr	Temp	State	Recorded	gain1	gain2
2026-01-24 14:46:25.48	20.59	0.20	-53.1	-64.5	3.3	1.54e+00	0	40	0	0	60	58757
2026-01-24 14:46:26.49	20.60	0.26	-52.4	-65.2	3.5	1.51e+00	0	40	104	0	60	64105
2026-01-24 14:46:27.50	20.60	0.32	-52.3	-65.2	3.5	1.51e+00	0	40	104	0	60	63664
2026-01-24 14:46:28.51	20.60	0.38	-52.1	-65.0	3.5	1.52e+00	0	40	104	0	60	62188
2026-01-24 14:46:29.52	20.61	0.44	-51.6	-64.6	3.5	1.51e+00	0	40	104	0	60	59779
2026-01-24 14:46:30.53	20.61	0.50	-51.6	-64.5	3.5	1.52e+00	0	40	104	0	60	59211
2026-01-24 14:46:31.54	20.61	0.56	-51.6	-64.5	3.5	1.51e+00	0	40	104	0	60	58596
2026-01-24 14:46:32.55	20.62	0.62	-51.5	-64.4	3.5	1.52e+00	0	40	104	0	60	58426
2026-01-24 14:46:33.56	20.62	0.69	-51.5	-64.4	3.5	1.52e+00	0	40	104	0	60	58565
2026-01-24 14:46:34.57	20.62	0.75	-51.5	-64.4	3.5	1.52e+00	0	40	104	0	60	58036
2026-01-24 14:46:35.58	20.63	0.81	-51.4	-64.3	3.5	1.51e+00	0	40	104	0	60	57757
2026-01-24 14:46:36.59	20.63	0.87	-51.4	-64.2	3.5	1.52e+00	0	40	104	0	60	57059
2026-01-24 14:46:37.60	20.63	0.93	-51.3	-64.2	3.5	1.52e+00	0	41	104	0	60	56774
2026-01-24 14:46:38.61	20.63	0.99	-51.2	-64.1	3.5	1.52e+00	0	41	104	0	60	56111
2026-01-24 14:46:39.62	20.64	1.06	-51.2	-64.0	3.5	1.52e+00	0	41	104	0	60	55844
2026-01-24 14:46:40.63	20.64	1.12	-51.1	-64.0	3.5	1.51e+00	0	41	104	0	60	55422
2026-01-24 14:46:41.64	20.64	1.18	-50.9	-63.7	3.5	1.52e+00	0	41	104	0	60	53836
2026-01-24 14:46:42.65	20.65	1.24	-50.7	-63.6	3.5	1.51e+00	0	41	104	0	60	52939
2026-01-24 14:46:43.66	20.65	1.31	-50.7	-63.5	3.5	1.52e+00	0	41	104	0	60	52508
2026-01-24 14:46:44.66	20.65	1.37	-50.5	-63.3	3.5	1.52e+00	0	41	104	0	60	51463
2026-01-24 14:46:45.68	20.66	1.43	-50.3	-63.1	3.5	1.52e+00	0	41	104	0	60	50148
2026-01-24 14:46:46.69	20.66	1.50	-50.1	-62.9	3.5	1.51e+00	0	41	104	0	60	48749
2026-01-24 14:46:47.70	20.66	1.56	-49.9	-62.6	3.5	1.52e+00	0	41	104	0	60	47130
2026-01-24 14:46:48.71	20.66	1.62	-49.9	-62.4	3.5	1.52e+00	0	41	104	0	60	46505
2026-01-24 14:46:49.72	20.67	1.69	-49.9	-62.7	3.5	1.52e+00	0	41	104	0	60	47896
2026-01-24 14:46:50.73	20.67	1.75	-49.9	-62.7	3.5	1.52e+00	0	41	104	0	60	47779
2026-01-24 14:46:51.74	20.67	1.81	-49.9	-62.8	3.5	1.52e+00	0	41	104	0	60	48175
2026-01-24 14:46:52.75	20.68	1.88	-49.9	-62.7	3.5	1.52e+00	0	41	104	0	60	48092
2026-01-24 14:46:53.76	20.68	1.94	-49.9	-62.7	3.5	1.51e+00	0	41	104	0	60	48074
2026-01-24 14:46:54.77	20.68	2.01	-49.9	-62.7	3.5	1.52e+00	0	41	104	0	60	47845
2026-01-24 14:46:55.78	20.69	2.07	-49.9	-62.6	3.5	1.52e+00	0	41	104	0	60	47465
2026-01-24 14:46:56.79	20.69	2.14	-49.9	-62.7	3.5	1.52e+00	0	41	104	0	60	47912
2026-01-24 14:46:57.80	20.69	2.20	-49.9	-62.6	3.5	1.52e+00	0	41	104	0	60	47252
2026-01-24 14:46:58.81	20.69	2.27	-49.9	-62.2	3.5	1.52e+00	0	41	104	0	60	45042
2026-01-24 14:46:59.82	20.70	2.33	-49.8	-62.1	3.5	1.52e+00	0	41	104	0	60	44541
2026-01-24 14:47:00.83	20.70	2.40	-49.8	-61.7	3.5	1.52e+00	0	41	104	0	60	42717
2026-01-24 14:47:01.84	20.70	2.46	-49.4	-58.5	4.4	1.51e+00	120	41	104	0	60	29684
2026-01-24 14:47:02.85	20.71	2.53	-49.7	-60.7	3.5	1.51e+00	0	41	104	0	60	38088
2026-01-24 14:47:03.86	20.71	2.59	-49.6	-59.7	4.0	1.47e+00	0	41	104	0	60	34082
2026-01-24 14:47:04.87	20.71	2.66	-49.7	-61.1	3.6	1.51e+00	0	41	104	0	60	39890
2026-01-24 14:47:05.88	20.71	2.72	-49.6	-60.4	3.5	1.51e+00	0	41	104	0	60	36939
2026-01-24 14:47:06.89	20.72	2.79	-49.6	-60.2	3.9	1.51e+00	0	41	104	0	60	35960
2026-01-24 14:47:07.90	20.72	2.86	-49.4	-58.5	4.5	1.32e+00	123	41	104	0	60	29523
2026-01-24 14:47:08.91	20.72	2.92	-49.0	-56.1	6.8	8.47e-01	120	41	104	0	60	22418
2026-01-24 14:47:09.92	20.73	2.99	-47.4	-51.2	10.7	7.58e-03	123	41	0	2097152	60	12679
2026-01-24 14:47:10.93	20.73	3.06	-46.8	-49.8	12.4	1.18e-03	123	41	0	5242880	60	10904
2026-01-24 14:47:11.94	20.73	3.12	-47.6	-51.4	10.5	4.21e-03	123	41	0	8388608	60	13075
2026-01-24 14:47:12.95	20.73	3.19	-45.6	-48.0	13.3	3.00e-06	120	41	0	11534336	60	8865
2026-01-24 14:47:13.96	20.74	3.26	-43.9	-45.8	15.8	0.00e+00	123	41	0	14680064	60	6826
2026-01-24 14:47:14.97	20.74	3.32	-44.2	-46.1	15.6	0.00e+00	123	41	0	17825792	60	7123
2026-01-24 14:47:15.98	20.74	3.39	-44.9	-47.0	15.4	6.80e-06	123	41	0	20971520	60	7861
2026-01-24 14:47:16.99	20.74	3.46	-44.4	-46.3	15.6	0.00e+00	123	41	0	24117248	60	7280
2026-01-24 14:47:18.01	20.75	3.53	-44.0	-45.8	16.3	0.00e+00	122	41	0	27262976	60	6827
2026-01-24 14:47:19.02	20.75	3.60	-44.1	-46.1	16.2	0.00e+00	123	41	0	30408704	60	7046
2026-01-24 14:47:20.03	20.75	3.66	-43.9	-45.7	16.4	0.00e+00	120	41	0	33554432	60	6745
2026-01-24 14:47:21.04	20.76	3.73	-40.7	-41.9	20.0	0.00e+00	123	41	0	36700160	56	5516
2026-01-24 14:47:22.05	20.76	3.80	-42.1	-43.5	18.0	0.00e+00	123	41	0	39845888	54	7416
2026-01-24 14:47:23.06	20.76	3.87	-49.7	-60.1	3.5	5.43e-03	51	41	104	42991616	60	35684
2026-01-24 14:47:24.07	20.76	3.94	-42.7	-44.6	5.2	1.44e+00	0	41	104	42991616	58	6671
2026-01-24 14:47:25.08	20.77	4.01	-49.7	-60.5	3.5	1.62e-01	0	41	104	42991616	60	36992
2026-01-24 14:47:26.09	20.77	4.08	-42.6	-44.2	18.6	1.40e-04	122	41	0	42991616	60	5682
2026-01-24 14:47:27.10	20.77	4.15	-42.6	-44.1	17.8	0.00e+00	122	41	0	46137344	56	7099
2026-01-24 14:47:28.11	20.77	4.22	-41.2	-42.5	19.9	0.00e+00	121	41	0	49283072	56	5895
2026-01-24 14:47:29.12	20.78	4.29	-41.5	-42.9	19.2	0.00e+00	123	41	0	52428800	54	6886
2026-01-24 14:47:30.13	20.78	4.36	-41.0	-42.3	19.5	0.00e+00	123	41	0	55574528	54	6447
2026-01-24 14:47:31.14	20.78	4.43	-41.7	-43.1	19.1	0.00e+00	123	41	0	58720256	56	6318
2026-01-24 14:47:32.15	20.79	4.50	-41.1	-42.4	19.5	0.00e+00	120	41	0	61865984	54	6521
2026-01-24 14:47:33.16	20.79	4.57	-40.4	-41.6	20.1	0.00e+00	123	41	0	65011712	50	7507
2026-01-24 14:47:34.17	20.79	4.64	-39.5	-40.6	21.4	0.00e+00	122	41	0	68157440	54	5307
2026-01-24 14:47:35.18	20.79	4.71	-42.7	-44.3	18.0	0.00e+00	123	41	0	71303168	56	7210
2026-01-24 14:47:36.19	20.80	4.78	-43.7	-45.4	17.1	0.00e+00	123	41	0	74448896	58	7355
2026-01-24 14:47:37.20	20.80	4.85	-41.6	-42.9	19.4	0.00e+00	123	41	0	77594624	56	6158
2026-01-24 14:47:38.21	20.80	4.92	-39.7	-40.9	21.1	0.00e+00	123	41	0	80740352	52	6150
2026-01-24 14:47:39.22	20.80	4.99	-41.6	-42.9	19.2	0.00e+00	123	41	0	83886080	54	6931
2026-01-24 14:47:40.23	20.81	5.07	-40.1	-41.3	20.7	0.00e+00	123	41	0	87031808	54	5736
2026-01-24 14:47:41.24	20.81	5.14	-40.1	-41.2	20.9	0.00e+00	123	41	0	90177536	52	6404
2026-01-24 14:47:42.25	20.81	5.21	-41.4	-42.7	19.2	0.00e+00	123	41	0	93323264	54	6796
2026-01-24 14:47:43.26	20.81	5.28	-41.1	-42.4	19.9	0.00e+00	123	41	0	96468992	54	6526
2026-01-24 14:47:44.27	20.82	5.36	-40.8	-42.0	20.1	0.00e+00	122	41	0	99614720	54	6241
2026-01-24 14:47:45.28	20.82	5.43	-40.1	-41.3	20.8	0.00e+00	123	41	0	102760448	54	5740
2026-01-24 14:47:46.29	20.82	5.50	-40.2	-41.3	20.9	0.00e+00	120	41	0	105906176	54	5770
2026-01-24 14:47:47.29	20.82	5.57	-39.8	-40.9	21.2	0.00e+00	123	41	0	109051904	54	5530
2026-01-24 14:47:48.30	20.83	5.65	-40.2	-41.4	20.7	0.00e+00	121	41	0	112197632	52	6530
2026-01-24 14:47:49.31	20.83	5.72	-40.0	-41.1	21.1	0.00e+00	123	41	0	115343360	52	6286
2026-01-24 14:47:50.32	20.83	5.79	-39.7	-40.8	21.2	0.00e+00	123	41	0	118489088	52	6116
2026-01-24 14:47:51.34	20.83	5.87	-40.4	-41.6	20.5	0.00e+00	123	41	0	121634816	52	6662
2026-01-24 14:47:52.35	20.84	5.94	-40.5	-41.7	20.6	0.00e+00	120	41	0	124780544	52	6773
2026-01-24 14:47:53.36	20.84	6.02	-41.0	-42.2	20.1	0.00e+00	122	41	0	127926272	54	6402
2026-01-24 14:47:54.37	20.84	6.09	-41.6	-42.9	19.2	0.00e+00	123	41	0	131072000	54	6916
2026-01-24 14:47:55.38	20.84	6.17	-39.9	-41.0	21.2	0.00e+00	122	41	0	134217728	54	5566
2026-01-24 14:47:56.39	20.85	6.24	-40.0	-41.1	21.1	0.00e+00	121	41	0	137363456	54	5609
2026-01-24 14:47:57.40	20.85	6.32	-38.9	-40.0	22.0	0.00e+00	123	41	0	140509184	52	5545
2026-01-24 14:47:58.41	20.85	6.39	-40.7	-41.8	20.5	0.00e+00	123	41	0	143654912	54	6126
2026-01-24 14:47:59.41	20.85	6.47	-39.1	-40.2	21.8	0.00e+00	123	42	0	146800640	52	5683
2026-01-24 14:48:00.42	20.86	6.55	-40.3	-41.4	20.8	0.00e+00	122	41	0	149946368	52	6545
2026-01-24 14:48:01.43	20.86	6.62	-40.0	-41.1	21.1	0.00e+00	123	41	0	153092096	52	6317
2026-01-24 14:48:02.44	20.86	6.70	-40.9	-42.2	20.1	0.00e+00	120	41	0	156237824	54	6358
2026-01-24 14:48:03.45	20.86	6.77	-40.3	-41.4	20.8	0.00e+00	122	41	0	159383552	54	5855
2026-01-24 14:48:04.46	20.86	6.85	-40.0	-41.1	21.4	0.00e+00	120	42	0	162529280	54	5608
2026-01-24 14:48:05.47	20.87	6.93	-40.5	-41.6	20.7	0.00e+00	123	41	0	165675008	54	5993
2026-01-24 14:48:06.48	20.87	7.01	-41.2	-42.5	19.9	0.00e+00	123	41	0	168820736	54	6601
2026-01-24 14:48:07.49	20.87	7.08	-40.6	-41.8	20.5	0.00e+00	123	41	0	171966464	56	5413
2026-01-24 14:48:08.50	20.87	7.16	-40.9	-42.0	20.6	0.00e+00	120	41	0	175112192	54	6272
2026-01-24 14:48:09.51	20.88	7.24	-40.2	-41.3	20.9	0.00e+00	122	41	0	178257920	54	5786
2026-01-24 14:48:10.52	20.88	7.32	-40.2	-41.4	21.1	0.00e+00	120	41	0	181403648	52	6512
2026-01-24 14:48:11.53	20.88	7.40	-39.1	-40.1	22.0	0.00e+00	122	41	0	184549376	52	5640
2026-01-24 14:48:12.54	20.88	7.48	-39.1	-40.1	22.0	0.00e+00	122	41	0	187695104	52	5630
2026-01-24 14:48:13.55	20.88	7.55	-39.1	-40.1	22.0	0.00e+00	123	41	0	190840832	52	5628
2026-01-24 14:48:14.55	20.89	7.63	-40.1	-41.3	21.1	0.00e+00	120	41	0	193986560	52	6430
2026-01-24 14:48:15.56	20.89	7.71	-39.0	-40.0	22.2	0.00e+00	123	41	0	197132288	52	5548
2026-01-24 14:48:16.57	20.89	7.79	-39.6	-40.7	21.4	0.00e+00	122	41	0	200278016	52	6033
2026-01-24 14:48:17.58	20.89	7.87	-39.0	-40.1	22.1	0.00e+00	120	42	0	203423744	52	5622
2026-01-24 14:48:18.59	20.90	7.95	-39.5	-40.5	21.8	0.00e+00	122	41	0	206569472	52	5911
2026-01-24 14:48:19.60	20.90	8.03	-38.9	-39.9	22.1	0.00e+00	123	41	0	209715200	52	5512
2026-01-24 14:48:20.61	20.90	8.11	-39.7	-40.7	21.5	0.00e+00	122	42	0	212860928	52	6061
2026-01-24 14:48:21.62	20.90	8.20	-39.3	-40.4	22.0	0.00e+00	122	42	0	216006656	52	5820
2026-01-24 14:48:22.63	20.90	8.28	-38.9	-39.9	22.1	0.00e+00	123	41	0	219152384	50	6172
2026-01-24 14:48:23.64	20.91	8.36	-39.3	-40.3	22.0	0.00e+00	120	42	0	222298112	50	6476
2026-01-24 14:48:24.64	20.91	8.44	-39.5	-40.6	21.8	0.00e+00	123	42	0	225443840	50	6671
2026-01-24 14:48:25.65	20.91	8.52	-39.2	-40.2	22.1	0.00e+00	121	42	0	228589568	50	6374
2026-01-24 14:48:26.66	20.91	8.60	-38.9	-39.9	22.2	0.00e+00	123	41	0	231735296	50	6162
2026-01-24 14:48:27.67	20.91	8.69	-39.1	-40.1	22.1	0.00e+00	123	41	0	234881024	50	6328
2026-01-24 14:48:28.68	20.92	8.77	-39.0	-40.1	22.2	0.00e+00	121	41	0	238026752	50	6288
2026-01-24 14:48:29.69	20.92	8.85	-39.0	-40.1	22.2	0.00e+00	123	42	0	241172480	50	6295
2026-01-24 14:48:30.70	20.92	8.94	-38.8	-39.8	22.3	0.00e+00	120	42	0	244318208	50	6130
2026-01-24 14:48:31.71	20.92	9.02	-38.6	-39.5	22.6	0.00e+00	123	41	0	247463936	50	5923
2026-01-24 14:48:32.72	20.92	9.10	-38.7	-39.7	22.4	0.00e+00	123	42	0	250609664	50	6061
2026-01-24 14:48:33.73	20.93	9.19	-38.9	-39.9	22.3	0.00e+00	122	42	0	253755392	50	6204
2026-01-24 14:48:34.74	20.93	9.27	-38.4	-39.4	22.8	0.00e+00	122	42	0	256901120	50	5826
2026-01-24 14:48:35.75	20.93	9.36	-39.3	-40.3	22.0	0.00e+00	123	41	0	260046848	50	6473
2026-01-24 14:48:36.76	20.93	9.44	-38.6	-39.6	22.5	0.00e+00	123	42	0	263192576	50	5961
2026-01-24 14:48:37.77	20.93	9.53	-38.5	-39.5	22.7	0.00e+00	122	42	0	266338304	50	5901
2026-01-24 14:48:38.78	20.94	9.62	-38.5	-39.5	22.7	0.00e+00	121	42	0	269484032	50	5865
2026-01-24 14:48:39.79	20.94	9.70	-38.4	-39.3	22.8	0.00e+00	120	42	0	272629760	50	5785
2026-01-24 14:48:40.80	20.94	9.79	-38.4	-39.4	22.8	0.00e+00	123	42	0	275775488	50	5833
2026-01-24 14:48:41.80	20.94	9.87	-38.6	-39.6	22.6	0.00e+00	120	42	0	278921216	50	5950
2026-01-24 14:48:42.81	20.94	9.96	-38.5	-39.5	22.7	0.00e+00	121	42	0	282066944	50	5907
2026-01-24 14:48:43.82	20.94	10.05	-38.3	-39.3	22.8	0.00e+00	123	42	0	285212672	50	5780
2026-01-24 14:48:44.83	20.95	10.14	-38.3	-39.3	22.9	0.00e+00	123	42	0	288358400	50	5740
2026-01-24 14:48:45.84	20.95	10.22	-38.4	-39.4	22.8	0.00e+00	120	42	0	291504128	50	5828
2026-01-24 14:48:46.85	20.95	10.31	-38.2	-39.2	23.0	0.00e+00	123	42	0	294649856	50	5700
2026-01-24 14:48:47.86	20.95	10.40	-38.5	-39.5	22.8	0.00e+00	121	42	0	297795584	50	5904
2026-01-24 14:48:48.87	20.95	10.49	-38.4	-39.4	22.9	0.00e+00	122	42	0	300941312	50	5844
2026-01-24 14:48:49.88	20.95	10.58	-37.8	-38.8	23.3	0.00e+00	123	42	0	304087040	50	5428
2026-01-24 14:48:50.89	20.96	10.67	-38.7	-39.7	22.6	0.00e+00	123	42	0	307232768	50	6036
2026-01-24 14:48:51.90	20.96	10.76	-38.6	-39.6	22.8	0.00e+00	123	42	0	310378496	50	5928
2026-01-24 14:48:52.91	20.96	10.85	-38.4	-39.4	22.8	0.00e+00	122	42	0	313524224	50	5841
2026-01-24 14:48:53.92	20.96	10.94	-38.3	-39.3	23.0	0.00e+00	123	42	0	316669952	50	5760
2026-01-24 14:48:54.93	20.96	11.03	-38.3	-39.3	22.9	0.00e+00	123	42	0	319815680	50	5755
2026-01-24 14:48:55.93	20.96	11.12	-38.2	-39.1	23.0	0.00e+00	122	42	0	322961408	50	5653
2026-01-24 14:48:56.94	20.97	11.21	-38.3	-39.2	22.9	0.00e+00	122	42	0	326107136	50	5713
2026-01-24 14:48:57.95	20.97	11.30	-38.1	-39.0	23.1	0.00e+00	120	42	0	329252864	50	5589
2026-01-24 14:48:58.96	20.97	11.40	-38.3	-39.3	22.9	0.00e+00	122	42	0	332398592	50	5768
2026-01-24 14:48:59.97	20.97	11.49	-38.1	-39.1	23.2	0.00e+00	123	42	0	335544320	50	5625
2026-01-24 14:49:00.98	20.97	11.58	-38.1	-39.1	23.0	0.00e+00	120	42	0	338690048	50	5598
2026-01-24 14:49:01.99	20.97	11.67	-38.2	-39.1	23.1	0.00e+00	123	42	0	342884352	50	5655
2026-01-24 14:49:03.00	20.98	11.77	-37.8	-38.7	23.4	0.00e+00	121	42	0	346030080	48	6052
2026-01-24 14:49:04.02	20.98	11.86	-37.9	-38.9	23.3	0.00e+00	123	42	0	349175808	48	6151
2026-01-24 14:49:05.03	20.98	11.96	-37.8	-38.7	23.4	0.00e+00	123	42	0	351272960	48	6041
2026-01-24 14:49:06.04	20.98	12.05	-38.1	-39.1	23.2	0.00e+00	123	42	0	354418688	48	6292
2026-01-24 14:49:07.05	20.98	12.15	-38.0	-38.9	23.2	0.00e+00	120	42	0	358612992	48	6190
2026-01-24 14:49:08.06	20.98	12.24	-38.3	-39.3	23.0	0.00e+00	122	42	0	361758720	48	6479
2026-01-24 14:49:09.06	20.98	12.34	-38.0	-39.0	23.2	0.00e+00	122	42	0	364904448	48	6244
2026-01-24 14:49:10.08	20.99	12.43	-38.0	-38.9	23.2	0.00e+00	122	42	0	368050176	48	6171
2026-01-24 14:49:11.08	20.99	12.53	-38.0	-38.9	23.3	0.00e+00	120	42	0	371195904	48	6182
2026-01-24 14:49:12.09	20.99	12.63	-37.9	-38.8	23.4	0.00e+00	122	42	0	374341632	48	6104
2026-01-24 14:49:13.11	20.99	12.73	-37.6	-38.6	23.6	0.00e+00	122	42	0	377487360	48	5937
2026-01-24 14:49:14.11	20.99	12.82	-38.0	-38.9	23.3	0.00e+00	121	42	0	380633088	48	6179
2026-01-24 14:49:15.12	20.99	12.92	-37.8	-38.8	23.4	0.00e+00	123	42	0	383778816	48	6080
2026-01-24 14:49:16.13	20.99	13.02	-37.7	-38.6	23.5	0.00e+00	123	42	0	386924544	48	5981
2026-01-24 14:49:17.14	20.99	13.12	-37.6	-38.6	23.6	0.00e+00	122	42	0	390070272	48	5932
2026-01-24 14:49:18.16	20.99	13.22	-37.9	-38.9	23.3	0.00e+00	120	42	0	393216000	48	6147
2026-01-24 14:49:19.16	21.00	13.32	-37.9	-38.8	23.4	0.00e+00	123	42	0	396361728	48	6095
2026-01-24 14:49:20.18	21.00	13.42	-37.7	-38.6	23.5	0.00e+00	120	42	0	399507456	48	5981
2026-01-24 14:49:21.19	21.00	13.52	-37.5	-38.5	23.6	0.00e+00	123	42	0	402653184	48	5872
2026-01-24 14:49:22.20	21.00	13.62	-37.9	-38.8	23.3	0.00e+00	123	42	0	405798912	48	6099
2026-01-24 14:49:23.21	21.00	13.72	-37.7	-38.6	23.4	0.00e+00	122	42	0	408944640	48	5984
2026-01-24 14:49:24.22	21.00	13.82	-38.1	-39.0	23.2	0.00e+00	122	42	0	412090368	48	6257
2026-01-24 14:49:25.23	21.00	13.93	-38.2	-39.2	23.2	0.00e+00	123	42	0	415236096	48	6395
2026-01-24 14:49:26.24	21.00	14.03	-37.5	-38.5	23.7	0.00e+00	122	42	0	418381824	48	5876
2026-01-24 14:49:27.25	21.00	14.13	-37.6	-38.5	23.6	0.00e+00	122	42	0	421527552	48	5906
2026-01-24 14:49:28.26	21.01	14.24	-37.5	-38.4	23.7	0.00e+00	123	42	0	424673280	48	5854
2026-01-24 14:49:29.27	21.01	14.34	-37.9	-38.8	23.5	0.00e+00	120	42	0	427819008	48	6092
2026-01-24 14:49:30.28	21.01	14.44	-37.7	-38.7	23.6	0.00e+00	123	42	0	430964736	48	5998
2026-01-24 14:49:31.28	21.01	14.55	-37.9	-38.8	23.5	0.00e+00	123	42	0	434110464	48	6115
2026-01-24 14:49:32.29	21.01	14.65	-38.1	-39.0	23.2	0.00e+00	122	42	0	437256192	48	6265
2026-01-24 14:49:33.30	21.01	14.76	-37.6	-38.5	23.7	0.00e+00	122	42	0	440401920	48	5912
2026-01-24 14:49:34.31	21.01	14.87	-37.7	-38.6	23.6	0.00e+00	120	42	0	443547648	48	5969
2026-01-24 14:49:35.32	21.01	14.97	-37.5	-38.4	23.7	0.00e+00	122	42	0	446693376	48	5842
2026-01-24 14:49:36.33	21.01	15.08	-38.0	-39.0	23.3	0.00e+00	122	42	0	449839104	48	6207
2026-01-24 14:49:37.34	21.01	15.19	-37.8	-38.8	23.5	0.00e+00	122	42	0	452984832	48	6086
2026-01-24 14:49:38.35	21.01	15.30	-37.6	-38.5	23.6	0.00e+00	120	42	0	456130560	48	5881
2026-01-24 14:49:39.36	21.01	15.40	-37.6	-38.6	23.7	0.00e+00	123	42	0	459276288	48	5932
2026-01-24 14:49:40.37	21.02	15.51	-37.6	-38.6	23.6	0.00e+00	121	42	0	462422016	48	5941
2026-01-24 14:49:41.38	21.02	15.62	-37.5	-38.4	23.8	0.00e+00	123	42	0	465567744	48	5804
2026-01-24 14:49:42.39	21.02	15.73	-37.7	-38.6	23.6	0.00e+00	123	42	0	468713472	48	5960
2026-01-24 14:49:43.40	21.02	15.84	-37.6	-38.6	23.6	0.00e+00	123	42	0	471859200	48	5936
2026-01-24 14:49:44.41	21.02	15.96	-37.6	-38.5	23.7	0.00e+00	120	42	0	475004928	48	5876
2026-01-24 14:49:45.42	21.02	16.07	-37.5	-38.5	23.7	0.00e+00	120	42	0	478150656	48	5876
2026-01-24 14:49:46.43	21.02	16.18	-37.4	-38.4	23.8	0.00e+00	122	42	0	481296384	48	5803
2026-01-24 14:49:47.44	21.02	16.29	-37.7	-38.6	23.6	0.00e+00	122	42	0	484442112	48	5974
2026-01-24 14:49:48.45	21.02	16.41	-37.8	-38.8	23.5	0.00e+00	123	42	0	487587840	48	6093
2026-01-24 14:49:49.46	21.02	16.52	-37.7	-38.6	23.6	0.00e+00	122	42	0	490733568	48	5959
2026-01-24 14:49:50.47	21.02	16.63	-37.7	-38.6	23.6	0.00e+00	123	42	0	493879296	48	5984
2026-01-24 14:49:51.48	21.02	16.75	-37.7	-38.6	23.7	0.00e+00	123	42	0	497025024	48	5959
2026-01-24 14:49:52.49	21.02	16.86	-37.8	-38.7	23.6	0.00e+00	123	42	0	500170752	48	6055
2026-01-24 14:49:53.50	21.02	16.98	-37.7	-38.7	23.6	0.00e+00	122	42	0	503316480	48	6004
2026-01-24 14:49:54.51	21.02	17.10	-37.7	-38.6	23.6	0.00e+00	120	42	0	506462208	48	5987
2026-01-24 14:49:55.52	21.02	17.21	-37.9	-38.9	23.4	0.00e+00	123	42	0	509607936	48	6143
2026-01-24 14:49:56.53	21.02	17.33	-37.7	-38.6	23.7	0.00e+00	123	42	0	512753664	48	5963
2026-01-24 14:49:57.54	21.02	17.45	-37.7	-38.7	23.4	0.00e+00	122	42	0	515899392	48	6002
2026-01-24 14:49:58.55	21.02	17.57	-37.5	-38.5	23.7	0.00e+00	123	42	0	519045120	48	5877
2026-01-24 14:49:59.56	21.02	17.69	-37.7	-38.6	23.6	0.00e+00	124	42	0	522190848	48	5972
2026-01-24 14:50:00.57	21.02	17.81	-37.7	-38.7	23.6	0.00e+00	123	42	0	525336576	48	6029
2026-01-24 14:50:01.58	21.02	17.93	-37.8	-38.8	23.5	0.00e+00	122	42	0	528482304	48	6107
2026-01-24 14:50:02.59	21.02	18.05	-37.7	-38.6	23.6	0.00e+00	123	42	0	531628032	48	5991
2026-01-24 14:50:03.60	21.02	18.17	-37.8	-38.8	23.6	0.00e+00	122	42	0	534773760	48	6071
2026-01-24 14:50:04.61	21.02	18.29	-37.7	-38.7	23.6	0.00e+00	123	42	0	537919488	48	6006
2026-01-24 14:50:05.62	21.02	18.42	-37.9	-38.9	23.5	0.00e+00	122	42	0	541065216	48	6166
2026-01-24 14:50:06.63	21.02	18.54	-37.8	-38.8	23.5	0.00e+00	121	42	0	544210944	48	6093
2026-01-24 14:50:07.64	21.02	18.66	-37.7	-38.7	23.6	0.00e+00	121	42	0	547356672	48	6019
2026-01-24 14:50:08.65	21.02	18.79	-37.7	-38.6	23.6	0.00e+00	122	42	0	550502400	48	5979
2026-01-24 14:50:09.66	21.02	18.91	-37.8	-38.7	23.5	0.00e+00	123	42	0	553648128	48	6031
2026-01-24 14:50:10.67	21.02	19.04	-37.7	-38.6	23.6	0.00e+00	123	42	0	556793856	48	5983
2026-01-24 14:50:11.68	21.02	19.17	-38.2	-39.1	23.4	0.00e+00	123	42	0	559939584	48	6321
2026-01-24 14:50:12.69	21.02	19.30	-37.8	-38.7	23.6	0.00e+00	122	42	0	563085312	48	6057
2026-01-24 14:50:13.70	21.02	19.42	-37.6	-38.6	23.7	0.00e+00	123	42	0	566231040	48	5960
2026-01-24 14:50:14.71	21.02	19.55	-37.8	-38.7	23.6	0.00e+00	123	42	0	569376768	48	6021
2026-01-24 14:50:15.72	21.02	19.68	-37.7	-38.7	23.6	0.00e+00	123	42	0	572522496	48	6014
2026-01-24 14:50:16.73	21.02	19.81	-37.4	-38.4	23.9	0.00e+00	123	42	0	575668224	48	5813
2026-01-24 14:50:17.74	21.02	19.94	-37.5	-38.4	23.8	0.00e+00	122	42	0	578813952	48	5842
2026-01-24 14:50:18.75	21.02	20.07	-37.5	-38.4	23.8	0.00e+00	123	42	0	581959680	48	5825
2026-01-24 14:50:19.76	21.02	20.21	-37.5	-38.4	23.8	0.00e+00	123	42	0	585105408	48	5841
2026-01-24 14:50:20.77	21.02	20.34	-37.2	-38.1	24.1	0.00e+00	123	42	0	588251136	48	5630
2026-01-24 14:50:21.78	21.02	20.47	-37.3	-38.2	24.0	0.00e+00	123	42	0	591396864	48	5676
2026-01-24 14:50:22.79	21.01	20.61	-37.2	-38.1	24.0	0.00e+00	123	42	0	594542592	48	5652
2026-01-24 14:50:23.80	21.01	20.74	-37.1	-38.0	24.2	0.00e+00	121	42	0	597688320	48	5582
2026-01-24 14:50:24.80	21.01	20.88	-37.0	-38.0	24.2	0.00e+00	121	42	0	600834048	48	5532
2026-01-24 14:50:25.81	21.01	21.01	-37.2	-38.1	24.1	0.00e+00	122	42	0	603979776	48	5603
2026-01-24 14:50:26.82	21.01	21.15	-36.8	-37.7	24.3	0.00e+00	127	42	0	607125504	48	5392
2026-01-24 14:50:27.83	21.01	21.29	-37.0	-37.9	24.2	0.00e+00	123	42	0	610271232	48	5522
2026-01-24 14:50:28.84	21.01	21.43	-36.9	-37.8	24.2	0.00e+00	123	42	0	613416960	48	5432
2026-01-24 14:50:29.85	21.01	21.57	-37.1	-38.0	24.2	0.00e+00	123	42	0	616562688	48	5585
2026-01-24 14:50:30.86	21.01	21.71	-36.6	-37.5	24.5	0.00e+00	123	41	0	619708416	46	5887
2026-01-24 14:50:31.87	21.01	21.85	-36.7	-37.6	24.5	0.00e+00	123	42	0	622854144	46	5940
2026-01-24 14:50:32.88	21.00	21.99	-36.8	-37.7	24.3	0.00e+00	123	42	0	625999872	46	6043
2026-01-24 14:50:33.89	21.00	22.13	-36.9	-37.7	24.4	0.00e+00	127	42	0	629145600	46	6064
2026-01-24 14:50:34.90	21.00	22.28	-36.4	-37.3	24.7	0.00e+00	121	41	0	632291328	46	5778
2026-01-24 14:50:35.91	21.00	22.42	-36.6	-37.4	24.7	0.00e+00	122	42	0	635437056	46	5852
2026-01-24 14:50:36.92	21.00	22.56	-36.2	-37.1	24.9	0.00e+00	120	41	0	638582784	46	5645
2026-01-24 14:50:37.93	21.00	22.71	-36.4	-37.2	24.8	0.00e+00	122	42	0	641728512	46	5720
2026-01-24 14:50:38.94	21.00	22.86	-36.3	-37.2	24.8	0.00e+00	123	42	0	644874240	46	5670
2026-01-24 14:50:39.95	20.99	23.01	-36.2	-37.0	24.9	0.00e+00	122	42	0	648019968	46	5594
2026-01-24 14:50:40.96	20.99	23.15	-36.4	-37.3	24.8	0.00e+00	123	41	0	651165696	46	5740
2026-01-24 14:50:41.97	20.99	23.30	-36.2	-37.1	24.8	0.00e+00	122	41	0	654311424	46	5638
2026-01-24 14:50:42.98	20.99	23.45	-36.4	-37.3	24.7	0.00e+00	123	41	0	657457152	46	5739
2026-01-24 14:50:43.99	20.99	23.60	-36.5	-37.4	24.7	0.00e+00	123	41	0	660602880	46	5796
2026-01-24 14:50:45.00	20.99	23.76	-36.0	-36.9	25.0	0.00e+00	123	41	0	664797184	46	5469
2026-01-24 14:50:46.01	20.98	23.91	-36.2	-37.0	24.9	0.00e+00	123	41	0	666894336	46	5571
2026-01-24 14:50:47.02	20.98	24.06	-36.1	-36.9	24.9	0.00e+00	120	41	0	670040064	46	5529
2026-01-24 14:50:48.03	20.98	24.22	-36.1	-36.9	25.0	0.00e+00	123	42	0	673185792	46	5522
2026-01-24 14:50:49.04	20.98	24.37	-36.1	-37.0	24.9	0.00e+00	123	41	0	676331520	46	5547
2026-01-24 14:50:50.05	20.97	24.53	-36.2	-37.1	24.9	0.00e+00	122	41	0	680525824	46	5604
2026-01-24 14:50:51.06	20.97	24.69	-36.0	-36.8	25.0	0.00e+00	122	41	0	683671552	46	5465
2026-01-24 14:50:52.07	20.97	24.85	-36.2	-37.1	24.9	0.00e+00	123	41	0	686817280	46	5624
2026-01-24 14:50:53.08	20.97	25.01	-36.1	-37.0	24.9	0.00e+00	120	41	0	689963008	46	5569
2026-01-24 14:50:54.09	20.97	25.17	-36.1	-37.0	25.0	0.00e+00	122	41	0	692060160	46	5560
2026-01-24 14:50:55.10	20.96	25.33	-36.2	-37.1	24.9	0.00e+00	120	41	0	696254464	46	5598
2026-01-24 14:50:56.11	20.96	25.49	-36.4	-37.3	24.8	0.00e+00	123	41	0	699400192	46	5735
2026-01-24 14:50:57.12	20.96	25.65	-36.5	-37.4	24.7	0.00e+00	122	42	0	702545920	46	5804
2026-01-24 14:50:58.13	20.96	25.82	-36.5	-37.4	24.7	0.00e+00	120	42	0	705691648	46	5843
2026-01-24 14:50:59.14	20.95	25.98	-36.6	-37.4	24.7	0.00e+00	123	41	0	708837376	46	5853
2026-01-24 14:51:00.15	20.95	26.15	-37.0	-37.9	24.4	0.00e+00	121	42	0	711983104	46	6185
2026-01-24 14:51:01.16	20.95	26.32	-36.9	-37.7	24.5	0.00e+00	123	41	0	715128832	46	6051
2026-01-24 14:51:02.17	20.94	26.48	-36.9	-37.8	24.4	0.00e+00	123	41	0	718274560	46	6109
2026-01-24 14:51:03.18	20.94	26.65	-36.9	-37.8	24.4	0.00e+00	123	41	0	721420288	46	6117
2026-01-24 14:51:04.19	20.94	26.82	-37.1	-38.0	24.2	0.00e+00	123	41	0	724566016	46	6247
2026-01-24 14:51:05.20	20.93	27.00	-37.1	-38.0	24.1	0.00e+00	122	41	0	727711744	46	6266
2026-01-24 14:51:06.21	20.93	27.17	-37.3	-38.3	24.0	0.00e+00	123	41	0	730857472	46	6435
2026-01-24 14:51:07.21	20.93	27.34	-37.5	-38.4	23.9	0.00e+00	120	41	0	734003200	46	6516
2026-01-24 14:51:08.22	20.92	27.52	-37.7	-38.6	23.8	0.00e+00	122	41	0	737148928	48	5964
2026-01-24 14:51:09.24	20.92	27.69	-37.7	-38.6	23.8	0.00e+00	122	41	0	740294656	48	5958
2026-01-24 14:51:10.24	20.92	27.87	-37.8	-38.8	23.7	0.00e+00	123	41	0	743440384	48	6066
2026-01-24 14:51:11.25	20.91	28.05	-37.7	-38.6	23.8	0.00e+00	123	41	0	746586112	48	5983
2026-01-24 14:51:12.26	20.91	28.23	-37.8	-38.8	23.7	0.00e+00	123	41	0	749731840	48	6067
2026-01-24 14:51:13.27	20.91	28.41	-37.8	-38.7	23.6	0.00e+00	122	41	0	752877568	48	6047
2026-01-24 14:51:14.28	20.90	28.59	-38.0	-39.0	23.5	0.00e+00	122	41	0	756023296	48	6210
2026-01-24 14:51:15.29	20.90	28.77	-38.0	-38.9	23.5	0.00e+00	123	41	0	759169024	48	6191
2026-01-24 14:51:16.30	20.89	28.96	-38.0	-38.9	23.6	0.00e+00	123	41	0	762314752	48	6176
2026-01-24 14:51:17.31	20.89	29.14	-37.8	-38.7	23.8	0.00e+00	123	41	0	765460480	48	6060
2026-01-24 14:51:18.32	20.88	29.33	-37.8	-38.7	23.8	0.00e+00	120	41	0	768606208	48	6046
2026-01-24 14:51:19.33	20.88	29.52	-37.8	-38.8	23.8	0.00e+00	122	41	0	771751936	48	6082
2026-01-24 14:51:20.34	20.88	29.71	-37.6	-38.5	24.0	0.00e+00	122	41	0	774897664	48	5917
2026-01-24 14:51:21.35	20.87	29.90	-37.5	-38.4	23.9	0.00e+00	121	41	0	778043392	48	5843
2026-01-24 14:51:22.36	20.87	30.09	-37.6	-38.6	24.0	0.00e+00	123	41	0	781189120	48	5929
2026-01-24 14:51:23.37	20.86	30.28	-37.7	-38.6	23.8	0.00e+00	120	41	0	784334848	48	5991
2026-01-24 14:51:24.38	20.86	30.48	-37.3	-38.2	24.2	0.00e+00	122	41	0	787480576	48	5713
2026-01-24 14:51:25.39	20.85	30.67	-37.2	-38.1	24.3	0.00e+00	122	41	0	790626304	48	5652
2026-01-24 14:51:26.40	20.85	30.87	-37.0	-37.8	24.4	0.00e+00	124	41	0	793772032	48	5459
2026-01-24 14:51:27.40	20.84	31.07	-37.0	-37.8	24.5	0.00e+00	123	41	0	796917760	48	5460
2026-01-24 14:51:28.41	20.83	31.27	-37.9	-38.9	23.7	0.00e+00	123	41	0	800063488	48	6144
2026-01-24 14:51:29.42	20.83	31.47	-37.3	-38.1	24.3	0.00e+00	123	41	0	803209216	48	5658
2026-01-24 14:51:30.43	20.82	31.67	-37.2	-38.1	24.5	0.00e+00	122	41	0	806354944	48	5596
2026-01-24 14:51:31.44	20.82	31.87	-37.0	-37.9	24.6	0.00e+00	122	41	0	809500672	48	5490
2026-01-24 14:51:32.45	20.81	32.08	-36.9	-37.8	24.5	0.00e+00	122	41	0	812646400	48	5423
2026-01-24 14:51:33.46	20.81	32.29	-36.9	-37.8	24.5	0.00e+00	124	41	0	815792128	48	5425
2026-01-24 14:51:34.47	20.80	32.49	-37.0	-37.9	24.4	0.00e+00	120	41	0	818937856	48	5475
2026-01-24 14:51:35.48	20.79	32.70	-37.4	-38.3	24.1	0.00e+00	122	41	0	822083584	48	5758
2026-01-24 14:51:36.49	20.79	32.92	-37.2	-38.1	24.3	0.00e+00	120	41	0	825229312	48	5628
2026-01-24 14:51:37.50	20.78	33.13	-37.5	-38.4	24.1	0.00e+00	123	41	0	828375040	48	5854
2026-01-24 14:51:38.51	20.77	33.34	-37.6	-38.5	23.9	0.00e+00	122	41	0	831520768	48	5889
2026-01-24 14:51:39.52	20.77	33.56	-37.9	-38.8	23.7	0.00e+00	122	41	0	834666496	48	6134
2026-01-24 14:51:40.53	20.76	33.78	-37.8	-38.7	23.8	0.00e+00	123	41	0	837812224	48	6059
2026-01-24 14:51:41.54	20.75	33.99	-38.0	-38.9	23.6	0.00e+00	122	41	0	840957952	48	6194
2026-01-24 14:51:42.55	20.74	34.22	-38.1	-39.1	23.5	0.00e+00	122	41	0	844103680	48	6281
2026-01-24 14:51:43.56	20.74	34.44	-38.3	-39.3	23.2	0.00e+00	122	41	0	847249408	48	6451
2026-01-24 14:51:44.57	20.73	34.66	-38.4	-39.3	23.3	0.00e+00	123	41	0	850395136	48	6462
2026-01-24 14:51:45.58	20.72	34.89	-38.6	-39.6	23.1	0.00e+00	122	41	0	853540864	48	6672
2026-01-24 14:51:46.59	20.71	35.11	-39.0	-40.0	22.9	0.00e+00	123	41	0	856686592	50	6207
2026-01-24 14:51:47.60	20.71	35.34	-39.3	-40.3	22.6	0.00e+00	122	41	0	859832320	50	6475
2026-01-24 14:51:48.61	20.70	35.57	-39.4	-40.5	22.5	0.00e+00	125	41	0	862978048	50	6582
2026-01-24 14:51:49.62	20.69	35.80	-39.4	-40.4	22.5	0.00e+00	122	41	0	866123776	50	6571
2026-01-24 14:51:50.63	20.68	36.04	-39.5	-40.5	22.4	0.00e+00	122	41	0	869269504	50	6619
2026-01-24 14:51:51.64	20.67	36.27	-39.6	-40.7	22.3	0.00e+00	122	41	0	872415232	50	6728
2026-01-24 14:51:52.65	20.66	36.51	-39.6	-40.7	22.3	0.00e+00	123	41	0	875560960	50	6750
2026-01-24 14:51:53.66	20.65	36.75	-39.7	-40.7	22.2	0.00e+00	123	41	0	878706688	50	6768
2026-01-24 14:51:54.67	20.64	36.99	-39.7	-40.7	22.4	0.00e+00	123	41	0	881852416	52	6021
2026-01-24 14:51:55.68	20.63	37.23	-40.0	-41.0	22.2	0.00e+00	122	41	0	884998144	52	6237
2026-01-24 14:51:56.68	20.62	37.47	-39.5	-40.4	22.6	0.00e+00	123	41	0	888143872	52	5857
2026-01-24 14:51:57.69	20.61	37.72	-39.4	-40.4	22.7	0.00e+00	122	41	0	891289600	52	5802
2026-01-24 14:51:58.70	20.60	37.97	-39.1	-40.0	22.9	0.00e+00	122	41	0	894435328	52	5594
2026-01-24 14:51:59.71	20.59	38.21	-39.0	-39.9	23.0	0.00e+00	123	41	0	897581056	52	5513
2026-01-24 14:52:00.72	20.58	38.47	-38.9	-39.9	23.0	0.00e+00	123	41	0	900726784	52	5486
2026-01-24 14:52:01.73	20.57	38.72	-38.9	-39.8	23.0	0.00e+00	123	41	0	903872512	52	5464
2026-01-24 14:52:02.74	20.56	38.97	-39.0	-39.9	22.9	0.00e+00	122	41	0	907018240	52	5530
2026-01-24 14:52:03.75	20.55	39.23	-39.1	-40.1	22.7	0.00e+00	123	41	0	910163968	52	5615
2026-01-24 14:52:04.76	20.54	39.49	-39.2	-40.2	22.5	0.00e+00	122	41	0	913309696	52	5677
2026-01-24 14:52:05.77	20.53	39.75	-39.0	-39.9	22.7	0.00e+00	123	41	0	916455424	52	5526
2026-01-24 14:52:06.78	20.51	40.01	-38.8	-39.8	22.8	0.00e+00	123	41	0	919601152	50	6080
2026-01-24 14:52:07.79	20.50	40.28	-39.0	-40.0	22.5	0.00e+00	120	41	0	922746880	50	6237
2026-01-24 14:52:08.80	20.49	40.55	-38.9	-39.9	22.7	0.00e+00	123	41	0	925892608	50	6158
2026-01-24 14:52:09.81	20.48	40.81	-38.8	-39.8	22.9	0.00e+00	120	41	0	929038336	50	6105
2026-01-24 14:52:10.82	20.46	41.09	-39.2	-40.2	22.8	0.00e+00	122	41	0	932184064	50	6375
2026-01-24 14:52:11.83	20.45	41.36	-39.5	-40.5	22.6	0.00e+00	122	41	0	935329792	50	6606
2026-01-24 14:52:12.84	20.43	41.63	-39.5	-40.5	22.6	0.00e+00	123	41	0	938475520	50	6623
2026-01-24 14:52:13.84	20.42	41.91	-39.6	-40.7	21.2	0.00e+00	122	41	0	941621248	50	6742
2026-01-24 14:52:14.85	20.41	42.19	-39.8	-40.9	22.2	0.00e+00	123	41	0	944766976	52	6156
2026-01-24 14:52:15.87	20.39	42.47	-40.0	-41.1	22.1	0.00e+00	120	41	0	947912704	52	6296
2026-01-24 14:52:16.88	20.38	42.75	-40.0	-41.0	22.2	0.00e+00	121	41	0	951058432	52	6267
2026-01-24 14:52:17.89	20.36	43.04	-39.9	-40.9	22.2	0.00e+00	123	41	0	954204160	52	6175
2026-01-24 14:52:18.90	20.34	43.33	-40.2	-41.3	22.1	0.00e+00	122	41	0	957349888	52	6435
2026-01-24 14:52:19.91	20.33	43.62	-40.2	-41.2	22.1	0.00e+00	123	41	0	960495616	52	6378
2026-01-24 14:52:20.92	20.31	43.91	-40.0	-41.0	22.1	0.00e+00	123	41	0	963641344	52	6232
2026-01-24 14:52:21.93	20.30	44.20	-40.2	-41.2	22.0	0.00e+00	123	41	0	966787072	52	6418
2026-01-24 14:52:22.93	20.28	44.50	-40.2	-41.3	21.9	0.00e+00	123	41	0	969932800	52	6456
2026-01-24 14:52:23.95	20.26	44.80	-40.5	-41.6	21.6	0.00e+00	123	41	0	973078528	52	6662
2026-01-24 14:52:24.96	20.24	45.10	-40.5	-41.6	21.7	0.00e+00	123	41	0	976224256	52	6655
2026-01-24 14:52:25.97	20.22	45.40	-40.6	-41.8	21.5	0.00e+00	123	41	0	979369984	52	6806
2026-01-24 14:52:26.98	20.20	45.71	-40.6	-41.8	21.5	0.00e+00	123	41	0	982515712	54	6068
2026-01-24 14:52:27.99	20.18	46.02	-40.8	-41.9	21.3	0.00e+00	122	41	0	985661440	54	6197
2026-01-24 14:52:29.00	20.16	46.33	-40.6	-41.7	21.3	0.00e+00	123	41	0	988807168	54	6064
2026-01-24 14:52:30.01	20.14	46.64	-40.7	-41.8	21.4	0.00e+00	122	41	0	991952896	54	6116
2026-01-24 14:52:31.02	20.12	46.96	-40.8	-41.9	21.4	0.00e+00	120	41	0	995098624	54	6177
2026-01-24 14:52:32.03	20.10	47.27	-39.9	-40.9	22.2	0.00e+00	122	41	0	998244352	54	5505
2026-01-24 14:52:33.04	20.08	47.59	-39.9	-40.9	22.1	0.00e+00	120	41	0	1001390080	52	6203
2026-01-24 14:52:34.05	20.06	47.92	-39.3	-40.4	22.6	0.00e+00	123	41	0	1005584384	52	5792
2026-01-24 14:52:35.06	20.03	48.24	-39.3	-40.3	22.6	0.00e+00	122	41	0	1008730112	52	5777
2026-01-24 14:52:36.07	20.01	48.57	-39.3	-40.3	22.7	0.00e+00	122	41	0	1010827264	52	5789
2026-01-24 14:52:37.08	19.99	48.90	-39.4	-40.4	22.6	0.00e+00	122	41	0	1013972992	52	5817
2026-01-24 14:52:38.09	19.96	49.23	-39.2	-40.2	22.8	0.00e+00	122	41	0	1017118720	52	5703
2026-01-24 14:52:39.10	19.94	49.57	-38.9	-39.9	23.1	0.00e+00	124	41	0	1021313024	52	5481
2026-01-24 14:52:40.11	19.91	49.90	-38.8	-39.8	23.1	0.00e+00	123	41	0	1024458752	50	6087
2026-01-24 14:52:41.12	19.88	50.24	-38.8	-39.7	23.3	0.00e+00	121	41	0	1027604480	50	6047
2026-01-24 14:52:42.13	19.86	50.59	-38.8	-39.7	23.2	0.00e+00	123	41	0	1030750208	50	6063
2026-01-24 14:52:43.14	19.83	50.93	-39.1	-40.0	23.0	0.00e+00	123	41	0	1032847360	50	6262
2026-01-24 14:52:44.15	19.80	51.28	-39.2	-40.2	22.8	0.00e+00	123	41	0	1037041664	50	6399
2026-01-24 14:52:45.16	19.77	51.63	-39.4	-40.4	22.7	0.00e+00	123	41	0	1040187392	50	6562
2026-01-24 14:52:46.17	19.74	51.98	-39.4	-40.4	22.7	0.00e+00	123	41	0	1043333120	50	6536
2026-01-24 14:52:47.18	19.71	52.34	-39.2	-40.2	22.8	0.00e+00	123	41	0	1046478848	50	6364
2026-01-24 14:52:48.19	19.68	52.69	-39.0	-40.0	23.1	0.00e+00	123	41	0	1049624576	50	6247
2026-01-24 14:52:49.20	19.64	53.05	-38.7	-39.7	23.3	0.00e+00	123	41	0	1052770304	50	6014
2026-01-24 14:52:50.21	19.61	53.42	-38.1	-38.9	23.9	0.00e+00	122	41	0	1055916032	50	5530
2026-01-24 14:52:51.22	19.57	53.78	-38.3	-39.2	23.6	0.00e+00	123	41	0	1059061760	50	5719
2026-01-24 14:52:52.23	19.54	54.15	-38.0	-38.9	23.8	0.00e+00	123	41	0	1062207488	50	5500
2026-01-24 14:52:53.24	19.50	54.52	-38.3	-39.2	23.7	0.00e+00	123	41	0	1065353216	50	5672
2026-01-24 14:52:54.25	19.46	54.90	-38.0	-38.9	23.8	0.00e+00	122	41	0	1068498944	50	5522
2026-01-24 14:52:55.26	19.42	55.27	-37.8	-38.7	24.0	0.00e+00	122	41	0	1071644672	50	5360
2026-01-24 14:52:56.27	19.38	55.65	-37.5	-38.4	24.3	0.00e+00	120	41	0	1074790400	48	5807
2026-01-24 14:52:57.28	19.34	56.03	-37.5	-38.4	24.2	0.00e+00	123	41	0	1077936128	48	5845
2026-01-24 14:52:58.29	19.30	56.42	-37.5	-38.4	24.2	0.00e+00	122	41	0	1081081856	48	5829
2026-01-24 14:52:59.30	19.25	56.80	-37.7	-38.6	24.2	0.00e+00	122	41	0	1084227584	48	5982
2026-01-24 14:53:00.31	19.21	57.19	-37.7	-38.6	24.1	0.00e+00	122	41	0	1087373312	48	5982
2026-01-24 14:53:01.32	19.16	57.59	-37.6	-38.5	24.2	0.00e+00	123	41	0	1090519040	48	5874
2026-01-24 14:53:02.33	19.11	57.98	-37.2	-38.1	24.4	0.00e+00	123	41	0	1093664768	48	5606
2026-01-24 14:53:03.34	19.06	58.38	-37.3	-38.2	24.5	0.00e+00	123	41	0	1096810496	48	5696
2026-01-24 14:53:04.34	19.01	58.77	-36.9	-37.8	24.6	0.00e+00	123	41	0	1099956224	48	5414
2026-01-24 14:53:05.35	18.96	59.18	-37.0	-37.9	24.6	0.00e+00	121	41	0	1103101952	48	5481
2026-01-24 14:53:06.36	18.90	59.58	-36.9	-37.7	24.9	0.00e+00	122	41	0	1106247680	46	6048
2026-01-24 14:53:07.37	18.84	59.99	-36.5	-37.4	24.9	0.00e+00	123	41	0	1109393408	46	5822
2026-01-24 14:53:08.38	18.79	60.40	-36.5	-37.4	24.9	0.00e+00	123	41	0	1112539136	46	5824
2026-01-24 14:53:09.39	18.72	60.82	-36.4	-37.2	25.0	0.00e+00	122	41	0	1115684864	46	5719
2026-01-24 14:53:10.40	18.66	61.23	-36.7	-37.6	24.7	0.00e+00	123	41	0	1118830592	46	5931
2026-01-24 14:53:11.41	18.60	61.65	-36.7	-37.5	24.6	0.00e+00	122	41	0	1121976320	46	5926
2026-01-24 14:53:12.42	18.53	62.07	-36.6	-37.6	24.5	0.00e+00	123	41	0	1125122048	46	5928
2026-01-24 14:53:13.43	18.46	62.50	-36.6	-37.5	24.6	0.00e+00	123	41	0	1128267776	46	5919
2026-01-24 14:53:14.44	18.38	62.92	-36.0	-36.8	25.1	0.00e+00	122	41	0	1131413504	46	5458
2026-01-24 14:53:15.44	18.31	63.35	-36.0	-36.8	25.0	0.00e+00	123	41	0	1134559232	46	5466
2026-01-24 14:53:16.46	18.23	63.78	-36.0	-36.8	25.0	0.00e+00	122	41	0	1137704960	46	5463
2026-01-24 14:53:17.47	18.15	64.22	-35.9	-36.8	25.0	0.00e+00	123	41	0	1140850688	46	5444
2026-01-24 14:53:18.47	18.06	64.65	-36.0	-36.8	25.0	0.00e+00	120	41	0	1143996416	46	5464
2026-01-24 14:53:19.48	17.97	65.09	-35.9	-36.8	25.0	0.00e+00	123	41	0	1147142144	46	5445
2026-01-24 14:53:20.49	17.88	65.53	-36.0	-36.8	25.2	0.00e+00	120	41	0	1150287872	46	5466
2026-01-24 14:53:21.50	17.78	65.98	-35.7	-36.6	25.5	0.00e+00	122	41	0	1153433600	44	5928
2026-01-24 14:53:22.51	17.68	66.42	-35.6	-36.4	25.6	0.00e+00	120	41	0	1156579328	44	5845
2026-01-24 14:53:23.52	17.58	66.87	-35.7	-36.5	25.5	0.00e+00	122	41	0	1159725056	44	5889
2026-01-24 14:53:24.53	17.47	67.32	-35.9	-36.7	25.2	0.00e+00	123	41	0	1162870784	44	6056
2026-01-24 14:53:25.54	17.35	67.78	-36.1	-37.0	25.2	0.00e+00	122	41	0	1166016512	44	6244
2026-01-24 14:53:26.55	17.23	68.23	-35.9	-36.7	25.3	0.00e+00	123	41	0	1169162240	44	6037
2026-01-24 14:53:27.56	17.10	68.69	-35.6	-36.4	25.6	0.00e+00	121	41	0	1172307968	44	5825
2026-01-24 14:53:28.57	16.97	69.15	-35.5	-36.3	25.6	0.00e+00	123	41	0	1175453696	44	5769
2026-01-24 14:53:29.58	16.83	69.62	-35.7	-36.6	25.3	0.00e+00	122	41	0	1178599424	44	5932
2026-01-24 14:53:30.58	16.69	70.08	-36.0	-36.9	25.2	0.00e+00	123	41	0	1181745152	44	6151
2026-01-24 14:53:31.60	16.53	70.55	-36.0	-36.9	25.5	0.00e+00	123	41	0	1184890880	44	6147
2026-01-24 14:53:32.61	16.37	71.02	-35.6	-36.5	25.7	0.00e+00	120	41	0	1188036608	44	5863
2026-01-24 14:53:33.62	16.20	71.49	-35.8	-36.6	25.4	0.00e+00	122	41	0	1191182336	44	5970
2026-01-24 14:53:34.62	16.02	71.96	-35.9	-36.8	25.2	0.00e+00	122	41	0	1194328064	44	6084
2026-01-24 14:53:35.63	15.83	72.43	-36.1	-37.0	25.1	0.00e+00	122	41	0	1197473792	44	6258
2026-01-24 14:53:36.64	15.62	72.91	-36.0	-36.8	25.5	0.00e+00	122	41	0	1200619520	44	6129
2026-01-24 14:53:37.65	15.41	73.39	-35.8	-36.6	25.5	0.00e+00	120	41	0	1203765248	44	5965
2026-01-24 14:53:38.66	15.18	73.87	-35.7	-36.5	25.3	0.00e+00	121	41	0	1206910976	44	5897
2026-01-24 14:53:39.67	14.93	74.35	-35.8	-36.7	25.5	0.00e+00	123	41	0	1210056704	44	6006
2026-01-24 14:53:40.68	14.67	74.83	-35.5	-36.3	25.5	0.00e+00	121	41	0	1213202432	44	5778
2026-01-24 14:53:41.69	14.39	75.32	-35.5	-36.3	25.5	0.00e+00	123	41	0	1216348160	44	5747
2026-01-24 14:53:42.70	14.09	75.81	-35.6	-36.4	25.5	0.00e+00	123	41	0	1219493888	44	5849
2026-01-24 14:53:43.71	13.77	76.29	-35.8	-36.6	25.4	0.00e+00	122	41	0	1222639616	44	5992
2026-01-24 14:53:44.72	13.43	76.78	-36.0	-36.8	25.2	0.00e+00	123	41	0	1225785344	44	6091
2026-01-24 14:53:45.73	13.05	77.27	-36.1	-36.9	25.2	0.00e+00	123	42	0	1228931072	44	6167
2026-01-24 14:53:46.74	12.65	77.76	-36.0	-36.9	25.0	0.00e+00	120	41	0	1232076800	44	6164
2026-01-24 14:53:47.75	12.21	78.26	-36.6	-37.5	24.9	0.00e+00	123	42	0	1235222528	44	6577
2026-01-24 14:53:48.76	11.72	78.75	-35.8	-36.6	25.4	0.00e+00	123	41	0	1238368256	44	5959
2026-01-24 14:53:49.77	11.20	79.24	-36.7	-37.5	24.8	0.00e+00	122	41	0	1241513984	46	5914
2026-01-24 14:53:50.78	10.62	79.74	-36.5	-37.4	25.0	0.00e+00	123	41	0	1244659712	46	5818
2026-01-24 14:53:51.79	9.98	80.23	-36.2	-37.1	25.2	0.00e+00	123	41	0	1247805440	46	5599
2026-01-24 14:53:52.80	9.27	80.73	-36.4	-37.3	25.1	0.00e+00	122	41	0	1250951168	46	5757
2026-01-24 14:53:53.81	8.49	81.22	-36.8	-37.7	25.1	0.00e+00	123	41	0	1254096896	46	6016
2026-01-24 14:53:54.82	7.60	81.71	-36.8	-37.6	25.2	0.00e+00	121	41	0	1257242624	46	5979
2026-01-24 14:53:55.83	6.60	82.20	-36.9	-37.8	24.9	0.00e+00	123	41	0	1260388352	46	6084
2026-01-24 14:53:56.84	5.47	82.69	-36.7	-37.6	24.8	0.00e+00	120	41	0	1263534080	46	5985
2026-01-24 14:53:57.85	4.17	83.18	-36.5	-37.4	25.1	0.00e+00	123	41	0	1266679808	46	5830
2026-01-24 14:53:58.86	2.67	83.66	-36.3	-37.2	25.1	0.00e+00	122	41	0	1269825536	46	5697
2026-01-24 14:53:59.87	0.92	84.14	-36.5	-37.4	24.6	0.00e+00	123	41	0	1272971264	46	5830
2026-01-24 14:54:00.88	358.86	84.62	-36.4	-37.3	24.7	0.00e+00	123	42	0	1276116992	46	5728
2026-01-24 14:54:01.89	356.39	85.08	-37.1	-38.0	24.2	0.00e+00	122	42	0	1279262720	46	6238
2026-01-24 14:54:02.90	353.42	85.54	-37.0	-37.9	24.5	0.00e+00	123	41	0	1282408448	46	6169
2026-01-24 14:54:03.91	349.78	85.98	-37.1	-38.0	24.6	0.00e+00	122	42	0	1285554176	46	6242
2026-01-24 14:54:04.92	345.25	86.40	-37.2	-38.1	24.8	0.00e+00	123	41	0	1288699904	46	6311
2026-01-24 14:54:05.93	339.57	86.80	-36.6	-37.5	25.0	0.00e+00	123	41	0	1291845632	46	5875
2026-01-24 14:54:06.94	332.38	87.15	-36.9	-37.8	24.9	0.00e+00	123	42	0	1294991360	46	6087
2026-01-24 14:54:07.95	323.33	87.45	-37.7	-38.6	24.8	0.00e+00	120	42	0	1298137088	46	6668
2026-01-24 14:54:08.96	312.25	87.67	-37.1	-37.9	25.1	0.00e+00	123	41	0	1301282816	46	6204
2026-01-24 14:54:09.97	299.47	87.79	-36.9	-37.7	25.0	0.00e+00	122	41	0	1304428544	46	6055
2026-01-24 14:54:10.98	286.01	87.78	-36.6	-37.4	25.2	0.00e+00	123	41	0	1307574272	46	5832
2026-01-24 14:54:11.99	273.27	87.66	-36.3	-37.2	25.1	0.00e+00	122	41	0	1310720000	46	5665
2026-01-24 14:54:13.00	262.25	87.44	-37.0	-37.9	24.9	0.00e+00	120	42	0	1313865728	46	6190
2026-01-24 14:54:14.01	253.27	87.14	-37.3	-38.2	24.9	0.00e+00	120	41	0	1317011456	46	6402
2026-01-24 14:54:15.02	246.14	86.79	-37.1	-37.9	24.9	0.00e+00	123	42	0	1320157184	46	6190
2026-01-24 14:54:16.03	240.50	86.39	-36.7	-37.6	25.0	0.00e+00	123	41	0	1323302912	46	5945
2026-01-24 14:54:17.04	236.01	85.97	-36.6	-37.4	25.3	0.00e+00	122	41	0	1326448640	46	5838
2026-01-24 14:54:18.05	232.39	85.53	-36.7	-37.6	25.1	0.00e+00	120	41	0	1329594368	46	5955
2026-01-24 14:54:19.06	229.43	85.07	-37.5	-38.4	24.6	0.00e+00	123	41	0	1332740096	46	6542
2026-01-24 14:54:20.07	226.99	84.60	-37.6	-38.6	24.6	0.00e+00	122	42	0	1335885824	48	5929
2026-01-24 14:54:21.08	224.94	84.13	-37.4	-38.3	24.7	0.00e+00	122	41	0	1339031552	48	5772
2026-01-24 14:54:22.09	223.20	83.65	-36.6	-37.4	25.3	0.00e+00	120	41	0	1342177280	46	5848
2026-01-24 14:54:23.10	221.70	83.16	-36.7	-37.6	24.8	0.00e+00	123	41	0	1346371584	46	5947
2026-01-24 14:54:24.11	220.41	82.67	-37.4	-38.2	24.6	0.00e+00	123	41	0	1348468736	46	6421
2026-01-24 14:54:25.12	219.28	82.18	-37.2	-38.0	25.0	0.00e+00	120	41	0	1351614464	46	6273
2026-01-24 14:54:26.13	218.29	81.69	-37.0	-37.9	24.9	0.00e+00	123	41	0	1354760192	46	6171
2026-01-24 14:54:27.14	217.40	81.20	-36.9	-37.8	24.6	0.00e+00	123	41	0	1357905920	46	6115
2026-01-24 14:54:28.15	216.62	80.70	-36.5	-37.3	25.1	0.00e+00	122	41	0	1362100224	46	5754
2026-01-24 14:54:29.16	215.91	80.21	-37.3	-38.1	25.1	0.00e+00	123	41	0	1365245952	46	6345
2026-01-24 14:54:30.17	215.28	79.72	-37.7	-38.6	24.5	0.00e+00	120	41	0	1368391680	48	5937
2026-01-24 14:54:31.18	214.70	79.22	-37.3	-38.2	25.0	0.00e+00	123	41	0	1371537408	48	5664
2026-01-24 14:54:32.19	214.18	78.73	-37.2	-38.0	25.0	0.00e+00	122	41	0	1373634560	48	5594
2026-01-24 14:54:33.20	213.70	78.23	-37.4	-38.3	24.5	0.00e+00	123	42	0	1377828864	46	6471
2026-01-24 14:54:34.21	213.26	77.74	-36.8	-37.7	24.6	0.00e+00	123	41	0	1380974592	46	5995
2026-01-24 14:54:35.22	212.85	77.25	-37.2	-38.0	25.1	0.00e+00	122	41	0	1384120320	46	6251
2026-01-24 14:54:36.23	212.48	76.76	-37.4	-38.3	24.9	0.00e+00	123	41	0	1387266048	46	6446
2026-01-24 14:54:37.24	212.13	76.27	-37.5	-38.4	24.6	0.00e+00	123	41	0	1390411776	46	6536
2026-01-24 14:54:38.25	211.81	75.78	-36.7	-37.6	24.5	0.00e+00	121	41	0	1393557504	46	5966
2026-01-24 14:54:39.26	211.51	75.29	-36.5	-37.3	24.3	0.00e+00	122	42	0	1396703232	46	5789
2026-01-24 14:54:40.27	211.23	74.81	-37.1	-38.0	24.4	0.00e+00	123	41	0	1399848960	46	6265
2026-01-24 14:54:41.28	210.97	74.32	-36.6	-37.5	24.9	0.00e+00	123	42	0	1402994688	46	5868
2026-01-24 14:54:42.29	210.73	73.84	-37.1	-38.0	24.9	0.00e+00	123	41	0	1406140416	46	6233
2026-01-24 14:54:43.30	210.50	73.36	-37.2	-38.1	24.6	0.00e+00	122	41	0	1409286144	46	6318
2026-01-24 14:54:44.31	210.29	72.88	-37.5	-38.4	24.4	0.00e+00	123	41	0	1412431872	46	6565
2026-01-24 14:54:45.32	210.08	72.40	-37.6	-38.6	24.2	0.00e+00	123	41	0	1415577600	48	5946
2026-01-24 14:54:46.33	209.89	71.92	-37.2	-38.2	24.4	0.00e+00	123	41	0	1418723328	48	5682
2026-01-24 14:54:47.34	209.71	71.45	-36.6	-37.5	25.1	0.00e+00	120	41	0	1421869056	46	5868
2026-01-24 14:54:48.35	209.54	70.98	-37.1	-38.0	24.9	0.00e+00	123	41	0	1425014784	46	6209
2026-01-24 14:54:49.36	209.38	70.51	-36.9	-37.8	24.7	0.00e+00	123	42	0	1428160512	46	6113
2026-01-24 14:54:50.37	209.22	70.04	-36.8	-37.7	24.6	0.00e+00	122	41	0	1431306240	46	6062
2026-01-24 14:54:51.38	209.08	69.57	-36.6	-37.5	25.0	0.00e+00	120	41	0	1434451968	46	5897
2026-01-24 14:54:52.39	208.94	69.11	-36.3	-37.2	25.1	0.00e+00	122	41	0	1437597696	46	5690
2026-01-24 14:54:53.40	208.81	68.65	-36.3	-37.2	25.0	0.00e+00	123	41	0	1440743424	46	5703
2026-01-24 14:54:54.41	208.68	68.19	-35.4	-36.2	25.3	0.00e+00	122	41	0	1443889152	44	5700
2026-01-24 14:54:55.42	208.56	67.73	-35.3	-36.1	25.4	0.00e+00	122	41	0	1447034880	44	5655
2026-01-24 14:54:56.43	208.44	67.28	-36.4	-37.3	25.5	0.00e+00	122	41	0	1450180608	44	6448
2026-01-24 14:54:57.44	208.33	66.83	-37.0	-37.9	24.6	0.00e+00	123	41	0	1453326336	46	6192
2026-01-24 14:54:58.45	208.23	66.38	-37.5	-38.4	24.6	0.00e+00	122	41	0	1456472064	46	6503
2026-01-24 14:54:59.46	208.13	65.93	-37.5	-38.4	24.3	0.00e+00	123	41	0	1459617792	46	6549
2026-01-24 14:55:00.47	208.03	65.48	-37.5	-38.4	24.1	0.00e+00	123	41	0	1462763520	48	5826
2026-01-24 14:55:01.47	207.94	65.05	-36.5	-37.3	24.8	0.00e+00	120	41	0	1465909248	46	5790
2026-01-24 14:55:02.48	207.85	64.61	-35.8	-36.7	24.8	0.00e+00	122	41	0	1469054976	46	5354
2026-01-24 14:55:03.49	207.76	64.17	-36.1	-36.9	24.9	0.00e+00	120	41	0	1472200704	44	6189
2026-01-24 14:55:04.50	207.68	63.73	-36.7	-37.6	25.0	0.00e+00	123	41	0	1475346432	44	6650
2026-01-24 14:55:05.51	207.60	63.30	-37.6	-38.5	24.4	0.00e+00	123	41	0	1478492160	46	6613
2026-01-24 14:55:06.52	207.53	62.87	-39.1	-40.2	22.9	0.00e+00	123	41	0	1481637888	50	6351
2026-01-24 14:55:07.53	207.45	62.44	-40.0	-41.1	21.8	0.00e+00	120	41	0	1484783616	52	6346
2026-01-24 14:55:08.54	207.38	62.02	-39.7	-40.8	22.3	0.00e+00	120	41	0	1487929344	52	6068
2026-01-24 14:55:09.55	207.32	61.59	-38.9	-39.8	22.7	0.00e+00	122	41	0	1491075072	52	5467
2026-01-24 14:55:10.56	207.25	61.17	-37.7	-38.6	23.8	0.00e+00	120	41	0	1494220800	50	5301
2026-01-24 14:55:11.57	207.19	60.76	-37.8	-38.7	24.2	0.00e+00	122	41	0	1497366528	48	6011
2026-01-24 14:55:12.58	207.13	60.34	-37.7	-38.6	24.4	0.00e+00	121	41	0	1500512256	48	5955
2026-01-24 14:55:13.59	207.07	59.93	-37.5	-38.4	24.4	0.00e+00	123	41	0	1503657984	48	5848
2026-01-24 14:55:14.60	207.01	59.52	-38.1	-39.0	23.9	0.00e+00	123	42	0	1506803712	48	6218
2026-01-24 14:55:15.61	206.95	59.12	-38.9	-39.9	23.1	0.00e+00	120	42	0	1509949440	50	6151
2026-01-24 14:55:16.62	206.90	58.71	-39.1	-40.2	22.7	0.00e+00	122	41	0	1513095168	50	6364
2026-01-24 14:55:17.63	206.85	58.31	-38.6	-39.7	22.7	0.00e+00	120	41	0	1516240896	50	5999
2026-01-24 14:55:18.64	206.80	57.91	-37.2	-38.1	23.7	0.00e+00	122	42	0	1519386624	48	5640
2026-01-24 14:55:19.65	206.75	57.52	-36.3	-37.2	24.4	0.00e+00	123	41	0	1522532352	46	5679
2026-01-24 14:55:20.66	206.70	57.12	-36.2	-37.1	25.0	0.00e+00	122	42	0	1525678080	46	5600
2026-01-24 14:55:21.67	206.66	56.73	-36.9	-37.7	24.5	0.00e+00	120	42	0	1528823808	46	6060
2026-01-24 14:55:22.68	206.61	56.34	-37.9	-38.8	24.0	0.00e+00	123	41	0	1531969536	46	6847
2026-01-24 14:55:23.69	206.57	55.96	-38.8	-39.8	23.4	0.00e+00	123	41	0	1535115264	50	6070
2026-01-24 14:55:24.70	206.53	55.58	-38.9	-39.8	23.0	0.00e+00	122	41	0	1538260992	50	6128
2026-01-24 14:55:25.71	206.49	55.20	-39.1	-40.1	22.7	0.00e+00	120	42	0	1541406720	50	6297
2026-01-24 14:55:26.72	206.45	54.82	-39.2	-40.2	22.4	0.00e+00	122	42	0	1544552448	50	6420
2026-01-24 14:55:27.73	206.41	54.44	-38.9	-39.9	22.0	0.00e+00	120	42	0	1547698176	50	6184
2026-01-24 14:55:28.74	206.37	54.07	-38.9	-40.0	21.7	0.00e+00	122	41	0	1550843904	50	6223
2026-01-24 14:55:29.75	206.34	53.70	-38.3	-39.3	22.8	0.00e+00	120	42	0	1553989632	50	5741
2026-01-24 14:55:30.76	206.30	53.34	-37.7	-38.6	23.9	0.00e+00	123	41	0	1557135360	50	5326
2026-01-24 14:55:31.77	206.27	52.97	-38.0	-38.9	23.9	0.00e+00	123	41	0	1560281088	48	6199
2026-01-24 14:55:32.78	206.23	52.61	-37.0	-37.9	24.5	0.00e+00	122	41	0	1563426816	48	5484
2026-01-24 14:55:33.79	206.20	52.25	-38.0	-38.9	23.8	0.00e+00	120	42	0	1566572544	48	6164
2026-01-24 14:55:34.80	206.17	51.90	-38.9	-39.9	22.9	0.00e+00	122	41	0	1569718272	50	6171
2026-01-24 14:55:35.81	206.14	51.54	-39.5	-40.6	22.4	0.00e+00	120	41	0	1572864000	50	6668
2026-01-24 14:55:36.82	206.11	51.19	-39.6	-40.6	22.1	0.00e+00	123	42	0	1576009728	50	6671
2026-01-24 14:55:37.83	206.08	50.84	-39.8	-40.9	21.6	0.00e+00	120	41	0	1579155456	50	6925
2026-01-24 14:55:38.84	206.05	50.50	-39.6	-40.6	21.5	0.00e+00	123	41	0	1582301184	52	5991
2026-01-24 14:55:39.85	206.02	50.15	-39.6	-40.6	21.6	0.00e+00	120	41	0	1585446912	52	5977
2026-01-24 14:55:40.86	206.00	49.81	-39.8	-40.9	21.1	0.00e+00	123	41	0	1588592640	52	6176
2026-01-24 14:55:41.87	205.97	49.48	-39.6	-40.7	21.3	0.00e+00	122	41	0	1591738368	52	6061
2026-01-24 14:55:42.88	205.94	49.14	-39.5	-40.6	21.7	0.00e+00	123	41	0	1594884096	52	5947
2026-01-24 14:55:43.90	205.92	48.80	-39.1	-40.1	22.4	0.00e+00	120	42	0	1598029824	52	5650
2026-01-24 14:55:44.90	205.90	48.48	-38.8	-39.8	22.9	0.00e+00	122	41	0	1601175552	52	5411
2026-01-24 14:55:45.92	205.87	48.15	-39.0	-40.0	23.0	0.00e+00	120	42	0	1604321280	52	5534
2026-01-24 14:55:46.92	205.85	47.82	-39.2	-40.2	22.7	0.00e+00	123	42	0	1607467008	52	5683
2026-01-24 14:55:47.94	205.83	47.50	-40.0	-41.0	22.3	0.00e+00	120	42	0	1610612736	52	6239
2026-01-24 14:55:48.95	205.80	47.18	-40.5	-41.6	21.7	0.00e+00	122	41	0	1613758464	52	6706
2026-01-24 14:55:49.96	205.78	46.86	-41.2	-42.4	20.9	0.00e+00	122	41	0	1616904192	54	6536
2026-01-24 14:55:50.97	205.76	46.54	-41.7	-42.9	20.3	0.00e+00	120	42	0	1620049920	54	6931
2026-01-24 14:55:51.98	205.74	46.23	-41.7	-42.9	20.3	0.00e+00	123	42	0	1623195648	56	6190
2026-01-24 14:55:52.99	205.72	45.92	-41.7	-42.9	20.4	0.00e+00	123	42	0	1626341376	56	6135
2026-01-24 14:55:54.00	205.70	45.61	-40.8	-41.9	21.3	0.00e+00	123	42	0	1629487104	56	5510
2026-01-24 14:55:55.00	205.68	45.30	-40.7	-41.8	21.3	0.00e+00	122	42	0	1632632832	54	6082
2026-01-24 14:55:56.01	205.66	45.00	-40.2	-41.3	21.5	0.00e+00	122	42	0	1635778560	54	5760
2026-01-24 14:55:57.02	205.64	44.70	-40.9	-42.0	20.9	0.00e+00	123	42	0	1638924288	54	6271
2026-01-24 14:55:58.03	205.63	44.40	-41.2	-42.4	20.7	0.00e+00	120	42	0	1642070016	54	6543
2026-01-24 14:55:59.04	205.61	44.10	-40.9	-42.0	20.9	0.00e+00	123	42	0	1645215744	54	6274
2026-01-24 14:56:00.05	205.59	43.80	-40.5	-41.6	21.2	0.00e+00	120	42	0	1648361472	54	5993
2026-01-24 14:56:01.06	205.57	43.51	-40.1	-41.2	21.7	0.00e+00	123	41	0	1651507200	54	5674
2026-01-24 14:56:02.07	205.56	43.22	-39.6	-40.6	22.4	0.00e+00	120	42	0	1654652928	54	5335
2026-01-24 14:56:03.08	205.54	42.93	-39.6	-40.5	22.5	0.00e+00	122	42	0	1657798656	52	5916
2026-01-24 14:56:04.09	205.53	42.65	-39.0	-40.0	23.1	0.00e+00	120	41	0	1660944384	52	5548
2026-01-24 14:56:05.10	205.51	42.36	-38.7	-39.6	23.1	0.00e+00	122	42	0	1664090112	50	5987
2026-01-24 14:56:06.11	205.50	42.08	-39.0	-40.0	22.9	0.00e+00	122	42	0	1667235840	50	6208
2026-01-24 14:56:07.12	205.48	41.80	-39.5	-40.5	22.6	0.00e+00	123	42	0	1670381568	50	6611
2026-01-24 14:56:08.14	205.47	41.52	-40.0	-41.0	22.3	0.00e+00	123	42	0	1673527296	52	6230
2026-01-24 14:56:09.14	205.45	41.25	-40.3	-41.4	21.9	0.00e+00	123	41	0	1677721600	52	6517
2026-01-24 14:56:10.15	205.44	40.97	-40.6	-41.7	21.6	0.00e+00	123	42	0	1680867328	52	6764
2026-01-24 14:56:11.16	205.43	40.70	-40.7	-41.8	21.7	0.00e+00	123	42	0	1684013056	52	6851
2026-01-24 14:56:12.17	205.41	40.43	-40.5	-41.6	21.9	0.00e+00	123	42	0	1687158784	52	6660
2026-01-24 14:56:13.18	205.40	40.16	-40.6	-41.7	21.5	0.00e+00	123	42	0	1689255936	52	6774
2026-01-24 14:56:14.19	205.39	39.90	-40.8	-41.9	21.5	0.00e+00	122	42	0	1692401664	54	6162
2026-01-24 14:56:15.20	205.37	39.63	-40.9	-42.0	21.5	0.00e+00	123	42	0	1696595968	54	6255
2026-01-24 14:56:16.21	205.36	39.37	-40.3	-41.4	21.9	0.00e+00	122	42	0	1699741696	54	5811
2026-01-24 14:56:17.22	205.35	39.11	-40.4	-41.5	21.8	0.00e+00	120	42	0	1702887424	54	5869
2026-01-24 14:56:18.23	205.34	38.86	-40.4	-41.4	21.9	0.00e+00	123	42	0	1706033152	54	5857
2026-01-24 14:56:19.24	205.33	38.60	-40.0	-41.1	22.2	0.00e+00	120	42	0	1709178880	54	5615
2026-01-24 14:56:20.25	205.32	38.35	-40.1	-41.1	22.3	0.00e+00	122	42	0	1712324608	54	5625
2026-01-24 14:56:21.26	205.30	38.09	-40.1	-41.1	22.2	0.00e+00	123	42	0	1715470336	54	5626
2026-01-24 14:56:22.27	205.29	37.84	-39.8	-40.8	22.5	0.00e+00	122	42	0	1718616064	54	5467
2026-01-24 14:56:23.27	205.28	37.60	-39.6	-40.6	22.6	0.00e+00	122	42	0	1721761792	52	5940
2026-01-24 14:56:24.29	205.27	37.35	-39.4	-40.4	22.7	0.00e+00	122	42	0	1724907520	52	5808
2026-01-24 14:56:25.29	205.26	37.11	-39.1	-40.0	22.9	0.00e+00	123	42	0	1728053248	52	5593
2026-01-24 14:56:26.31	205.25	36.86	-39.2	-40.2	22.9	0.00e+00	122	42	0	1731198976	52	5677
2026-01-24 14:56:27.32	205.24	36.62	-38.7	-39.7	23.2	0.00e+00	123	42	0	1734344704	50	6010
2026-01-24 14:56:28.32	205.23	36.38	-39.2	-40.1	23.0	0.00e+00	122	42	0	1737490432	50	6328
2026-01-24 14:56:29.33	205.22	36.15	-39.0	-40.0	23.1	0.00e+00	123	42	0	1740636160	50	6222
2026-01-24 14:56:30.34	205.21	35.91	-38.8	-39.7	23.3	0.00e+00	122	42	0	1743781888	50	6045
2026-01-24 14:56:31.35	205.21	35.68	-38.8	-39.7	23.5	0.00e+00	123	42	0	1746927616	50	6019
2026-01-24 14:56:32.36	205.20	35.44	-38.8	-39.7	23.1	0.00e+00	123	42	0	1750073344	50	6023
2026-01-24 14:56:33.37	205.19	35.21	-39.3	-40.3	22.9	0.00e+00	123	42	0	1753219072	50	6433
2026-01-24 14:56:34.38	205.18	34.98	-38.5	-39.5	23.1	0.00e+00	123	42	0	1756364800	50	5882
2026-01-24 14:56:35.39	205.17	34.76	-38.6	-39.6	23.0	0.00e+00	123	42	0	1759510528	50	5959
2026-01-24 14:56:36.40	205.16	34.53	-38.4	-39.3	23.2	0.00e+00	123	42	0	1762656256	50	5786
2026-01-24 14:56:37.41	205.16	34.31	-38.2	-39.1	23.4	0.00e+00	123	42	0	1765801984	50	5629
2026-01-24 14:56:38.42	205.15	34.08	-38.2	-39.2	23.3	0.00e+00	122	42	0	1768947712	50	5679
2026-01-24 14:56:39.43	205.14	33.86	-38.1	-39.1	23.6	0.00e+00	122	42	0	1772093440	50	5612
2026-01-24 14:56:40.44	205.13	33.64	-38.2	-39.2	23.5	0.00e+00	120	42	0	1775239168	50	5672
2026-01-24 14:56:41.45	205.13	33.43	-38.1	-39.1	23.7	0.00e+00	123	42	0	1778384896	50	5615
2026-01-24 14:56:42.46	205.12	33.21	-38.0	-38.9	23.8	0.00e+00	123	42	0	1781530624	50	5485
2026-01-24 14:56:43.47	205.11	33.00	-37.9	-38.8	24.0	0.00e+00	123	42	0	1784676352	48	6079
2026-01-24 14:56:44.47	205.10	32.78	-38.5	-39.4	23.8	0.00e+00	123	42	0	1787822080	48	6570
2026-01-24 14:56:45.48	205.10	32.57	-38.4	-39.3	23.6	0.00e+00	122	42	0	1790967808	50	5778
2026-01-24 14:56:46.49	205.09	32.36	-38.4	-39.3	23.7	0.00e+00	123	42	0	1794113536	50	5783
2026-01-24 14:56:47.51	205.08	32.15	-38.4	-39.4	23.7	0.00e+00	122	42	0	1797259264	50	5809
2026-01-24 14:56:48.51	205.08	31.95	-38.2	-39.2	23.8	0.00e+00	122	42	0	1800404992	50	5663
2026-01-24 14:56:49.52	205.07	31.74	-38.1	-39.0	23.9	0.00e+00	120	42	0	1803550720	50	5585
2026-01-24 14:56:50.53	205.06	31.54	-37.9	-38.8	24.0	0.00e+00	123	42	0	1806696448	50	5428
2026-01-24 14:56:51.54	205.06	31.33	-37.9	-38.9	23.9	0.00e+00	123	42	0	1809842176	50	5475
2026-01-24 14:56:52.55	205.05	31.13	-38.0	-38.9	23.8	0.00e+00	122	42	0	1812987904	50	5509
2026-01-24 14:56:53.56	205.05	30.93	-37.9	-38.9	23.9	0.00e+00	122	42	0	1816133632	50	5474
2026-01-24 14:56:54.57	205.04	30.73	-37.9	-38.9	23.8	0.00e+00	122	42	0	1819279360	50	5484
2026-01-24 14:56:55.58	205.04	30.53	-38.0	-38.9	23.8	0.00e+00	123	42	0	1822425088	50	5511
2026-01-24 14:56:56.59	205.03	30.34	-38.0	-38.9	23.9	0.00e+00	123	42	0	1825570816	50	5502
2026-01-24 14:56:57.60	205.02	30.14	-38.0	-39.0	23.9	0.00e+00	123	42	0	1828716544	50	5543
2026-01-24 14:56:58.61	205.02	29.95	-37.9	-38.9	23.8	0.00e+00	123	42	0	1831862272	50	5478
2026-01-24 14:56:59.62	205.01	29.76	-38.1	-39.0	23.7	0.00e+00	122	42	0	1835008000	50	5557
2026-01-24 14:57:00.63	205.01	29.57	-38.0	-38.9	23.6	0.00e+00	122	42	0	1838153728	50	5498
2026-01-24 14:57:01.64	205.00	29.38	-37.9	-38.8	23.7	0.00e+00	123	42	0	1841299456	50	5443
2026-01-24 14:57:02.65	205.00	29.19	-37.8	-38.8	23.6	0.00e+00	123	42	0	1844445184	50	5414
2026-01-24 14:57:03.66	204.99	29.00	-37.5	-38.5	23.8	0.00e+00	123	42	0	1847590912	48	5860
2026-01-24 14:57:04.67	204.99	28.81	-37.4	-38.3	23.9	0.00e+00	123	42	0	1850736640	48	5785
2026-01-24 14:57:05.68	204.99	28.63	-37.5	-38.4	23.6	0.00e+00	123	42	0	1853882368	48	5816
2026-01-24 14:57:06.69	204.98	28.45	-37.3	-38.2	23.7	0.00e+00	123	42	0	1857028096	48	5709
2026-01-24 14:57:07.70	204.98	28.26	-37.1	-38.1	23.7	0.00e+00	123	42	0	1860173824	48	5606
2026-01-24 14:57:08.71	204.97	28.08	-37.0	-38.0	23.6	0.00e+00	123	42	0	1863319552	48	5542
2026-01-24 14:57:09.72	204.97	27.90	-37.0	-37.9	23.5	0.00e+00	123	42	0	1866465280	48	5522
2026-01-24 14:57:10.73	204.96	27.72	-37.1	-38.1	23.5	0.00e+00	122	42	0	1869611008	48	5600
2026-01-24 14:57:11.74	204.96	27.55	-37.1	-38.1	23.5	0.00e+00	122	42	0	1872756736	48	5610
2026-01-24 14:57:12.75	204.96	27.37	-37.2	-38.2	23.5	0.00e+00	120	42	0	1875902464	48	5670
2026-01-24 14:57:13.76	204.95	27.19	-37.4	-38.3	23.4	0.00e+00	123	42	0	1879048192	48	5766
2026-01-24 14:57:14.77	204.95	27.02	-37.4	-38.3	23.5	0.00e+00	123	42	0	1882193920	48	5776
2026-01-24 14:57:15.78	204.94	26.85	-37.3	-38.2	23.5	0.00e+00	120	42	0	1885339648	48	5712
2026-01-24 14:57:16.79	204.94	26.67	-37.4	-38.4	23.6	0.00e+00	123	42	0	1888485376	48	5811
2026-01-24 14:57:17.80	204.94	26.50	-37.3	-38.3	23.6	0.00e+00	120	42	0	1891631104	48	5741
2026-01-24 14:57:18.81	204.93	26.33	-37.5	-38.5	23.6	0.00e+00	122	42	0	1894776832	48	5882
2026-01-24 14:57:19.82	204.93	26.16	-37.4	-38.4	23.7	0.00e+00	120	42	0	1897922560	48	5797
2026-01-24 14:57:20.83	204.93	26.00	-37.4	-38.4	23.8	0.00e+00	122	42	0	1901068288	48	5799
2026-01-24 14:57:21.84	204.92	25.83	-37.6	-38.6	24.0	0.00e+00	122	42	0	1904214016	48	5941
2026-01-24 14:57:22.85	204.92	25.66	-37.4	-38.3	24.2	0.00e+00	123	42	0	1907359744	48	5778
2026-01-24 14:57:23.86	204.92	25.50	-37.5	-38.5	24.1	0.00e+00	122	42	0	1910505472	48	5860
2026-01-24 14:57:24.87	204.91	25.34	-37.3	-38.2	24.2	0.00e+00	123	42	0	1913651200	48	5708
2026-01-24 14:57:25.88	204.91	25.17	-37.4	-38.4	24.2	0.00e+00	120	42	0	1916796928	48	5803
2026-01-24 14:57:26.89	204.91	25.01	-37.3	-38.3	24.2	0.00e+00	128	42	0	1919942656	48	5731
2026-01-24 14:57:27.90	204.91	24.85	-37.3	-38.2	24.4	0.00e+00	123	42	0	1923088384	48	5718
2026-01-24 14:57:28.91	204.90	24.69	-37.2	-38.1	24.4	0.00e+00	123	42	0	1926234112	48	5642
2026-01-24 14:57:29.92	204.90	24.53	-37.2	-38.1	24.5	0.00e+00	123	42	0	1929379840	48	5622
2026-01-24 14:57:30.93	204.90	24.37	-37.1	-38.1	24.4	0.00e+00	122	42	0	1932525568	48	5605
2026-01-24 14:57:31.94	204.89	24.22	-36.9	-37.8	24.7	0.00e+00	123	42	0	1935671296	48	5441
2026-01-24 14:57:32.95	204.89	24.06	-36.9	-37.8	24.5	0.00e+00	123	42	0	1938817024	48	5445
2026-01-24 14:57:33.96	204.89	23.91	-36.8	-37.7	24.7	0.00e+00	123	42	0	1941962752	46	6050
2026-01-24 14:57:34.97	204.89	23.75	-36.8	-37.7	24.8	0.00e+00	122	42	0	1945108480	46	6034
2026-01-24 14:57:35.98	204.88	23.60	-36.8	-37.6	24.7	0.00e+00	122	42	0	1948254208	46	5994
2026-01-24 14:57:36.99	204.88	23.45	-36.7	-37.6	24.8	0.00e+00	123	42	0	1951399936	46	5972
2026-01-24 14:57:38.00	204.88	23.30	-36.7	-37.6	24.8	0.00e+00	122	42	0	1954545664	46	5960
2026-01-24 14:57:39.01	204.88	23.14	-36.8	-37.7	24.7	0.00e+00	122	42	0	1957691392	46	6019
2026-01-24 14:57:40.02	204.88	23.00	-36.9	-37.8	24.4	0.00e+00	123	42	0	1960837120	46	6122
2026-01-24 14:57:41.03	204.87	22.85	-36.8	-37.6	24.7	0.00e+00	123	42	0	1963982848	46	5975
2026-01-24 14:57:42.04	204.87	22.70	-36.9	-37.7	24.8	0.00e+00	123	42	0	1967128576	46	6061
2026-01-24 14:57:43.05	204.87	22.55	-37.0	-37.9	24.6	0.00e+00	123	42	0	1970274304	46	6148
2026-01-24 14:57:44.06	204.87	22.41	-36.8	-37.7	24.7	0.00e+00	123	42	0	1973420032	46	6027
2026-01-24 14:57:45.07	204.87	22.26	-37.0	-37.8	24.7	0.00e+00	123	42	0	1976565760	46	6122
2026-01-24 14:57:46.09	204.86	22.11	-36.9	-37.8	24.7	0.00e+00	122	42	0	1979711488	46	6069
2026-01-24 14:57:47.10	204.86	21.97	-37.0	-37.8	24.7	0.00e+00	122	42	0	1982857216	46	6122
