passes_logs/2026/01/24/R4.6S_Anadyr/R4.6S_Anadyr__20260124_015144_NOAA_20_JPSS-1_rec.log

#Pass ID: 20260124_015144_NOAA 20 (JPSS-1)
#Satellite: NOAA 20 (JPSS-1)
#Configuration: NOAA 20
#almurnet v.1.7.20251203
#Start time: 2026-01-24 01:51:45

#Version: 2.2.20231116
#Station: R4.6S_Anadyr
#Location: 177.4865 lon 64.73178 lat
#TLE: 1 43013U 17073A   26023.57676825  .00000205  00000+0  11821-3 0  9990
#TLE: 2 43013  98.7645 324.4259 0001147  27.0566 333.0670 14.19539368423954

#Time	Az	El	Level	Level2	SNR	BER	BlckErr	Temp	State	Recorded	gain1	gain2
2026-01-24 01:51:45.62	198.46	0.06	-51.4	-66.3	3.6	1.51e+00	0	39	0	0	60	74870
2026-01-24 01:51:46.63	198.51	0.11	-51.5	-66.7	3.6	1.51e+00	0	40	104	0	60	78365
2026-01-24 01:51:47.64	198.57	0.17	-51.4	-66.7	3.6	1.51e+00	0	40	104	0	60	78197
2026-01-24 01:51:48.65	198.62	0.22	-51.4	-66.7	3.6	1.51e+00	0	40	104	0	60	77778
2026-01-24 01:51:49.66	198.67	0.28	-51.5	-66.7	3.6	1.51e+00	0	40	104	0	60	78068
2026-01-24 01:51:50.67	198.73	0.34	-51.4	-66.6	3.6	1.51e+00	0	40	104	0	60	77614
2026-01-24 01:51:51.68	198.78	0.39	-51.5	-66.7	3.6	1.51e+00	0	40	104	0	60	78043
2026-01-24 01:51:52.68	198.84	0.45	-51.5	-66.7	3.6	1.51e+00	0	40	104	0	60	77743
2026-01-24 01:51:53.70	198.89	0.50	-51.3	-66.6	3.6	1.51e+00	0	40	104	0	60	77387
2026-01-24 01:51:54.70	198.95	0.56	-51.4	-66.6	3.6	1.51e+00	0	41	104	0	60	77372
2026-01-24 01:51:55.71	199.00	0.62	-51.3	-66.5	3.6	1.51e+00	0	40	104	0	60	76789
2026-01-24 01:51:56.72	199.05	0.67	-51.3	-66.5	3.6	1.51e+00	0	40	104	0	60	76812
2026-01-24 01:51:57.73	199.11	0.73	-51.2	-66.5	3.6	1.51e+00	0	40	104	0	60	76717
2026-01-24 01:51:58.74	199.17	0.79	-51.2	-66.4	3.6	1.51e+00	0	40	104	0	60	75804
2026-01-24 01:51:59.75	199.22	0.84	-51.1	-66.4	3.6	1.51e+00	0	41	104	0	60	75956
2026-01-24 01:52:00.76	199.28	0.90	-51.1	-66.4	3.5	1.51e+00	0	41	104	0	60	75165
2026-01-24 01:52:01.76	199.33	0.96	-51.0	-66.3	3.6	1.51e+00	0	41	104	0	60	74281
2026-01-24 01:52:02.78	199.39	1.01	-50.9	-66.1	3.6	1.51e+00	0	41	104	0	60	73278
2026-01-24 01:52:03.79	199.44	1.07	-50.8	-66.0	3.6	1.51e+00	0	41	104	0	60	72428
2026-01-24 01:52:04.80	199.50	1.13	-50.7	-65.9	3.6	1.51e+00	0	41	104	0	60	71174
2026-01-24 01:52:05.81	199.56	1.18	-50.6	-65.9	3.6	1.51e+00	0	41	104	0	60	70953
2026-01-24 01:52:06.82	199.61	1.24	-50.4	-65.7	3.6	1.51e+00	0	41	104	0	60	69364
2026-01-24 01:52:07.83	199.67	1.30	-50.2	-65.5	3.6	1.51e+00	0	41	104	0	60	68031
2026-01-24 01:52:08.84	199.73	1.36	-45.5	-60.6	3.6	1.51e+00	0	41	104	0	60	38709
2026-01-24 01:52:09.85	199.79	1.41	-49.1	-64.3	3.6	1.51e+00	0	41	104	0	60	59260
2026-01-24 01:52:10.86	199.84	1.47	-49.1	-64.3	3.6	1.51e+00	0	41	104	0	60	59335
2026-01-24 01:52:11.87	199.90	1.53	-49.1	-64.3	3.6	1.51e+00	0	41	104	0	60	59176
2026-01-24 01:52:12.88	199.96	1.59	-49.0	-64.3	3.6	1.51e+00	0	41	104	0	60	59130
2026-01-24 01:52:13.89	200.02	1.65	-49.0	-64.2	3.6	1.51e+00	0	41	104	0	60	58816
2026-01-24 01:52:14.90	200.08	1.70	-49.0	-64.3	3.6	1.51e+00	0	41	104	0	60	59131
2026-01-24 01:52:15.91	200.14	1.76	-49.0	-64.2	3.6	1.51e+00	0	41	104	0	60	58894
2026-01-24 01:52:16.92	200.20	1.82	-49.0	-64.2	3.6	1.51e+00	0	41	104	0	60	58660
2026-01-24 01:52:17.93	200.25	1.88	-49.0	-64.2	3.6	1.51e+00	0	41	104	0	60	58733
2026-01-24 01:52:18.94	200.31	1.94	-49.0	-64.2	3.6	1.51e+00	0	41	104	0	60	58665
2026-01-24 01:52:19.95	200.37	2.00	-49.0	-64.1	3.6	1.51e+00	0	41	104	0	60	58032
2026-01-24 01:52:20.96	200.43	2.05	-49.0	-64.1	3.6	1.51e+00	0	41	104	0	60	58232
2026-01-24 01:52:21.97	200.49	2.11	-49.0	-64.2	3.6	1.51e+00	0	41	104	0	60	58451
2026-01-24 01:52:22.98	200.55	2.17	-49.0	-64.2	3.6	1.51e+00	0	41	104	0	60	58374
2026-01-24 01:52:23.99	200.61	2.23	-48.9	-64.1	3.6	1.51e+00	0	41	104	0	60	57895
2026-01-24 01:52:25.00	200.68	2.29	-48.9	-64.1	3.6	1.51e+00	0	41	104	0	60	57888
2026-01-24 01:52:26.01	200.74	2.35	-48.9	-64.1	3.6	1.51e+00	0	41	104	0	60	58116
2026-01-24 01:52:27.02	200.80	2.41	-48.9	-64.1	3.6	1.51e+00	0	41	104	0	60	57984
2026-01-24 01:52:28.03	200.86	2.47	-48.9	-64.1	3.6	1.51e+00	0	41	104	0	60	57737
2026-01-24 01:52:29.04	200.92	2.53	-48.9	-63.9	3.6	1.51e+00	0	41	104	0	60	56333
2026-01-24 01:52:30.04	200.98	2.59	-48.9	-63.5	3.6	1.51e+00	0	41	104	0	60	54123
2026-01-24 01:52:31.06	201.05	2.65	-48.8	-63.2	3.6	1.51e+00	0	41	104	0	60	52463
2026-01-24 01:52:32.07	201.11	2.71	-48.8	-62.9	3.6	1.51e+00	0	41	104	0	60	50560
2026-01-24 01:52:33.07	201.17	2.77	-48.8	-63.3	3.6	1.51e+00	0	41	104	0	60	52709
2026-01-24 01:52:34.09	201.23	2.83	-48.9	-63.8	3.6	1.51e+00	0	41	104	0	60	56132
2026-01-24 01:52:35.09	201.30	2.89	-48.8	-63.9	3.6	1.51e+00	0	41	104	0	60	56408
2026-01-24 01:52:36.10	201.36	2.95	-48.8	-62.2	3.6	1.51e+00	0	41	104	0	60	46503
2026-01-24 01:52:37.11	201.42	3.01	-48.6	-59.7	4.5	1.48e+00	0	41	104	0	60	35113
2026-01-24 01:52:38.12	201.49	3.07	-48.2	-55.7	6.8	5.34e-01	92	41	0	0	60	22040
2026-01-24 01:52:39.13	201.55	3.13	-47.7	-53.4	9.0	5.11e-02	92	41	0	2097152	60	16930
2026-01-24 01:52:40.14	201.62	3.19	-47.4	-52.8	9.8	1.54e-02	92	41	0	4194304	60	15712
2026-01-24 01:52:41.15	201.68	3.25	-47.0	-51.7	11.0	4.35e-03	41	41	0	6291456	60	13919
2026-01-24 01:52:42.16	201.74	3.31	-47.0	-51.5	11.2	2.24e-03	92	41	0	7340032	60	13631
2026-01-24 01:52:43.17	201.81	3.37	-47.1	-51.8	11.6	1.90e-03	92	41	0	9437184	60	14054
2026-01-24 01:52:44.18	201.88	3.43	-45.9	-60.6	3.6	9.31e-01	0	41	104	10485760	60	38744
2026-01-24 01:52:45.19	201.94	3.49	-48.0	-54.5	9.2	5.46e-01	92	41	104	10485760	60	19116
2026-01-24 01:52:46.20	202.01	3.55	-48.5	-62.0	3.6	9.84e-01	0	41	104	10485760	60	45746
2026-01-24 01:52:47.21	202.07	3.61	-48.5	-62.8	3.6	1.51e+00	0	41	104	10485760	60	49840
2026-01-24 01:52:48.22	202.14	3.68	-43.8	-48.3	11.3	1.48e+00	0	41	104	10485760	60	9391
2026-01-24 01:52:49.23	202.21	3.74	-43.9	-47.4	13.2	1.29e-05	92	41	0	10485760	60	8515
2026-01-24 01:52:50.24	202.27	3.80	-44.4	-47.4	13.9	1.60e-05	90	41	0	12582912	60	8474
2026-01-24 01:52:51.25	202.34	3.86	-44.8	-48.1	14.3	2.20e-06	92	41	0	14680064	60	9181
2026-01-24 01:52:52.26	202.41	3.92	-44.8	-47.6	14.8	7.00e-07	92	41	0	16777216	60	8705
2026-01-24 01:52:53.27	202.48	3.98	-45.0	-47.6	15.2	7.00e-07	90	41	0	18874368	60	8692
2026-01-24 01:52:54.27	202.54	4.05	-44.9	-47.3	16.0	0.00e+00	92	41	0	19922944	60	8395
2026-01-24 01:52:55.28	202.61	4.11	-44.4	-46.5	16.9	0.00e+00	0	41	0	22020096	60	7657
2026-01-24 01:52:56.29	202.68	4.17	-44.2	-46.2	17.4	0.00e+00	90	41	0	24117248	60	7339
2026-01-24 01:52:57.30	202.75	4.23	-44.4	-46.5	17.3	0.00e+00	20	41	0	26214400	60	7610
2026-01-24 01:52:58.31	202.82	4.30	-44.4	-46.3	17.5	0.00e+00	92	41	0	28311552	60	7490
2026-01-24 01:52:59.32	202.89	4.36	-44.6	-46.6	17.4	0.00e+00	92	41	0	30408704	60	7724
2026-01-24 01:53:00.33	202.96	4.42	-44.7	-46.7	17.3	0.00e+00	92	41	0	31457280	60	7854
2026-01-24 01:53:01.34	203.03	4.48	-44.2	-46.1	18.1	0.00e+00	92	41	0	33554432	60	7254
2026-01-24 01:53:02.35	203.10	4.55	-44.1	-45.9	18.1	0.00e+00	24	41	0	35651584	60	7161
2026-01-24 01:53:03.36	203.17	4.61	-44.4	-46.3	17.8	0.00e+00	91	41	0	37748736	60	7472
2026-01-24 01:53:04.37	203.24	4.67	-44.2	-46.0	18.3	0.00e+00	53	41	0	39845888	60	7190
2026-01-24 01:53:05.38	203.31	4.74	-44.2	-46.0	18.2	0.00e+00	91	41	0	40894464	60	7225
2026-01-24 01:53:06.39	203.38	4.80	-44.2	-46.0	18.3	0.00e+00	89	41	0	42991616	60	7193
2026-01-24 01:53:07.40	203.45	4.86	-44.3	-46.1	18.2	0.00e+00	82	41	0	45088768	60	7277
2026-01-24 01:53:08.40	203.53	4.93	-44.4	-46.2	18.2	0.00e+00	92	41	0	47185920	60	7356
2026-01-24 01:53:09.41	203.60	4.99	-44.4	-46.1	18.2	0.00e+00	90	41	0	49283072	60	7333
2026-01-24 01:53:10.42	203.67	5.05	-44.4	-46.1	18.2	0.00e+00	92	41	0	50331648	60	7319
2026-01-24 01:53:11.43	203.74	5.12	-44.5	-46.3	18.1	0.00e+00	24	41	0	52428800	60	7438
2026-01-24 01:53:12.44	203.82	5.18	-44.0	-45.7	18.6	0.00e+00	92	41	0	54525952	60	6955
2026-01-24 01:53:13.45	203.89	5.25	-43.8	-45.4	18.9	0.00e+00	92	41	0	56623104	60	6761
2026-01-24 01:53:14.46	203.96	5.31	-43.8	-45.4	18.9	0.00e+00	92	41	0	58720256	60	6714
2026-01-24 01:53:15.47	204.04	5.38	-44.0	-45.7	18.7	0.00e+00	90	41	0	59768832	60	6944
2026-01-24 01:53:16.48	204.11	5.44	-44.0	-45.6	18.8	0.00e+00	92	41	0	61865984	60	6888
2026-01-24 01:53:17.49	204.19	5.50	-43.8	-45.4	18.9	0.00e+00	90	41	0	63963136	60	6763
2026-01-24 01:53:18.50	204.26	5.57	-44.1	-45.8	18.6	0.00e+00	57	41	0	66060288	60	7019
2026-01-24 01:53:19.50	204.34	5.63	-44.2	-45.9	18.4	0.00e+00	90	41	0	68157440	60	7158
2026-01-24 01:53:20.51	204.41	5.70	-44.0	-45.6	18.8	0.00e+00	12	41	0	69206016	60	6888
2026-01-24 01:53:21.52	204.49	5.76	-43.8	-45.5	19.0	0.00e+00	92	41	0	71303168	60	6777
2026-01-24 01:53:22.53	204.57	5.83	-43.9	-45.5	19.0	0.00e+00	92	41	0	73400320	60	6803
2026-01-24 01:53:23.54	204.64	5.89	-43.7	-45.3	19.1	0.00e+00	62	41	0	75497472	60	6662
2026-01-24 01:53:24.56	204.72	5.96	-43.7	-45.3	19.2	0.00e+00	92	41	0	77594624	60	6661
2026-01-24 01:53:25.56	204.80	6.03	-43.8	-45.3	19.0	0.00e+00	90	41	0	78643200	60	6683
2026-01-24 01:53:26.57	204.87	6.09	-43.7	-45.3	19.2	0.00e+00	92	41	0	80740352	60	6624
2026-01-24 01:53:27.58	204.95	6.16	-43.5	-45.0	19.4	0.00e+00	49	41	0	82837504	60	6437
2026-01-24 01:53:28.59	205.03	6.22	-43.6	-45.1	19.4	0.00e+00	92	41	0	84934656	60	6494
2026-01-24 01:53:29.60	205.11	6.29	-43.4	-44.9	19.5	0.00e+00	90	41	0	87031808	60	6389
2026-01-24 01:53:30.61	205.19	6.36	-43.4	-44.9	19.5	0.00e+00	90	41	0	88080384	60	6351
2026-01-24 01:53:31.62	205.27	6.42	-43.5	-45.0	19.4	0.00e+00	91	41	0	90177536	60	6436
2026-01-24 01:53:32.63	205.35	6.49	-43.5	-44.9	19.6	0.00e+00	90	41	0	92274688	60	6383
2026-01-24 01:53:33.64	205.43	6.56	-43.1	-44.5	19.9	0.00e+00	92	41	0	94371840	60	6102
2026-01-24 01:53:34.65	205.51	6.62	-43.2	-44.6	19.8	0.00e+00	0	41	0	96468992	60	6152
2026-01-24 01:53:35.66	205.59	6.69	-43.2	-44.7	19.8	0.00e+00	92	41	0	98566144	60	6198
2026-01-24 01:53:36.67	205.67	6.76	-43.0	-44.4	20.1	0.00e+00	92	41	0	99614720	60	6025
2026-01-24 01:53:37.68	205.75	6.82	-43.2	-44.6	19.9	0.00e+00	90	41	0	101711872	60	6146
2026-01-24 01:53:38.69	205.83	6.89	-43.2	-44.6	19.8	0.00e+00	92	41	0	103809024	60	6128
2026-01-24 01:53:39.70	205.92	6.96	-43.2	-44.7	19.8	0.00e+00	56	41	0	105906176	60	6185
2026-01-24 01:53:40.71	206.00	7.03	-43.0	-44.4	20.2	0.00e+00	92	41	0	108003328	60	5980
2026-01-24 01:53:41.72	206.08	7.09	-42.9	-44.2	20.4	0.00e+00	67	41	0	109051904	60	5878
2026-01-24 01:53:42.72	206.16	7.16	-42.8	-44.1	20.3	0.00e+00	90	41	0	111149056	58	6526
2026-01-24 01:53:43.73	206.25	7.23	-42.6	-43.9	20.6	0.00e+00	23	41	0	113246208	58	6361
2026-01-24 01:53:44.74	206.33	7.30	-42.6	-43.9	20.6	0.00e+00	92	41	0	115343360	58	6335
2026-01-24 01:53:45.75	206.42	7.37	-42.3	-43.5	21.0	0.00e+00	92	41	0	117440512	58	6073
2026-01-24 01:53:46.76	206.50	7.43	-42.3	-43.6	20.8	0.00e+00	92	41	0	118489088	58	6126
2026-01-24 01:53:47.77	206.59	7.50	-42.4	-43.7	20.8	0.00e+00	92	41	0	120586240	58	6179
2026-01-24 01:53:48.78	206.67	7.57	-42.3	-43.6	20.9	0.00e+00	92	41	0	122683392	58	6105
2026-01-24 01:53:49.79	206.76	7.64	-42.0	-43.2	21.2	0.00e+00	92	41	0	124780544	58	5892
2026-01-24 01:53:50.80	206.84	7.71	-42.2	-43.5	21.0	0.00e+00	58	41	0	126877696	58	6044
2026-01-24 01:53:51.81	206.93	7.78	-42.0	-43.2	21.1	0.00e+00	92	42	0	127926272	58	5864
2026-01-24 01:53:52.82	207.02	7.85	-42.4	-43.7	20.8	0.00e+00	91	41	0	130023424	58	6180
2026-01-24 01:53:53.83	207.11	7.92	-42.3	-43.5	20.9	0.00e+00	91	41	0	132120576	58	6072
2026-01-24 01:53:54.84	207.19	7.99	-42.3	-43.5	20.9	0.00e+00	91	41	0	134217728	58	6074
2026-01-24 01:53:55.85	207.28	8.06	-42.5	-43.8	20.7	0.00e+00	25	41	0	136314880	58	6293
2026-01-24 01:53:56.86	207.37	8.13	-42.6	-43.9	20.7	0.00e+00	92	41	0	137363456	58	6331
2026-01-24 01:53:57.87	207.46	8.20	-42.7	-44.0	20.5	0.00e+00	0	41	0	139460608	58	6399
2026-01-24 01:53:58.88	207.55	8.27	-42.7	-44.0	20.5	0.00e+00	92	41	0	141557760	58	6454
2026-01-24 01:53:59.88	207.64	8.34	-42.4	-43.6	21.1	0.00e+00	92	41	0	143654912	58	6131
2026-01-24 01:54:00.89	207.73	8.41	-41.9	-43.0	21.4	0.00e+00	90	41	0	145752064	58	5758
2026-01-24 01:54:01.90	207.82	8.48	-41.9	-43.0	21.5	0.00e+00	90	41	0	146800640	58	5743
2026-01-24 01:54:02.91	207.91	8.55	-42.0	-43.2	21.3	0.00e+00	92	41	0	148897792	58	5852
2026-01-24 01:54:03.92	208.00	8.62	-41.9	-43.1	21.5	0.00e+00	92	41	0	150994944	58	5788
2026-01-24 01:54:04.93	208.09	8.69	-42.0	-43.1	21.4	0.00e+00	0	42	0	153092096	58	5811
2026-01-24 01:54:05.94	208.19	8.76	-41.7	-42.8	21.7	0.00e+00	90	42	0	155189248	58	5620
2026-01-24 01:54:06.95	208.28	8.83	-41.9	-43.1	21.5	0.00e+00	92	42	0	156237824	56	6477
2026-01-24 01:54:07.96	208.37	8.90	-41.9	-43.0	21.6	0.00e+00	92	42	0	158334976	56	6430
2026-01-24 01:54:08.96	208.47	8.97	-41.7	-42.8	21.8	0.00e+00	90	42	0	160432128	56	6273
2026-01-24 01:54:09.97	208.56	9.04	-41.8	-42.9	21.7	0.00e+00	91	42	0	162529280	56	6336
2026-01-24 01:54:10.98	208.65	9.12	-41.7	-42.8	21.7	0.00e+00	92	42	0	164626432	56	6312
2026-01-24 01:54:12.00	208.75	9.19	-41.8	-42.9	21.6	0.00e+00	16	42	0	166723584	56	6345
2026-01-24 01:54:13.00	208.85	9.26	-41.8	-42.9	21.7	0.00e+00	92	42	0	167772160	56	6333
2026-01-24 01:54:14.01	208.94	9.33	-41.5	-42.6	22.0	0.00e+00	0	42	0	169869312	56	6135
2026-01-24 01:54:15.02	209.04	9.40	-41.5	-42.6	21.9	0.00e+00	91	42	0	171966464	56	6134
2026-01-24 01:54:16.03	209.13	9.48	-41.5	-42.6	21.9	0.00e+00	91	42	0	174063616	56	6122
2026-01-24 01:54:17.04	209.23	9.55	-41.6	-42.7	21.9	0.00e+00	91	41	0	176160768	56	6203
2026-01-24 01:54:18.05	209.33	9.62	-41.6	-42.7	21.8	0.00e+00	92	42	0	177209344	56	6231
2026-01-24 01:54:19.06	209.43	9.69	-41.4	-42.5	22.0	0.00e+00	63	42	0	179306496	56	6080
2026-01-24 01:54:20.07	209.53	9.77	-41.5	-42.6	22.0	0.00e+00	92	41	0	181403648	56	6131
2026-01-24 01:54:21.08	209.63	9.84	-41.4	-42.5	22.0	0.00e+00	16	41	0	183500800	56	6077
2026-01-24 01:54:22.09	209.73	9.91	-41.5	-42.5	22.0	0.00e+00	92	42	0	185597952	56	6103
2026-01-24 01:54:23.10	209.83	9.99	-41.5	-42.6	22.1	0.00e+00	92	42	0	186646528	56	6119
2026-01-24 01:54:24.11	209.93	10.06	-41.4	-42.5	22.1	0.00e+00	92	42	0	188743680	56	6055
2026-01-24 01:54:25.12	210.03	10.13	-41.6	-42.6	22.0	0.00e+00	90	41	0	190840832	56	6168
2026-01-24 01:54:26.13	210.13	10.21	-41.5	-42.5	22.0	0.00e+00	92	42	0	192937984	56	6101
2026-01-24 01:54:27.14	210.23	10.28	-41.4	-42.5	22.1	0.00e+00	92	42	0	195035136	56	6069
2026-01-24 01:54:28.15	210.34	10.36	-41.5	-42.6	22.1	0.00e+00	26	42	0	196083712	56	6143
2026-01-24 01:54:29.16	210.44	10.43	-41.4	-42.5	22.1	0.00e+00	92	42	0	198180864	56	6052
2026-01-24 01:54:30.17	210.54	10.50	-41.5	-42.6	22.1	0.00e+00	0	42	0	200278016	56	6109
2026-01-24 01:54:31.18	210.65	10.58	-41.5	-42.5	22.0	0.00e+00	90	42	0	202375168	56	6087
2026-01-24 01:54:32.19	210.75	10.65	-41.3	-42.4	22.2	0.00e+00	92	42	0	204472320	56	5988
2026-01-24 01:54:33.20	210.86	10.73	-41.2	-42.2	22.4	0.00e+00	90	42	0	205520896	56	5870
2026-01-24 01:54:34.21	210.96	10.80	-41.1	-42.1	22.4	0.00e+00	92	42	0	207618048	56	5820
2026-01-24 01:54:35.22	211.07	10.88	-41.2	-42.2	22.5	0.00e+00	0	42	0	209715200	56	5856
2026-01-24 01:54:36.23	211.17	10.95	-41.3	-42.3	22.3	0.00e+00	92	42	0	211812352	56	5958
2026-01-24 01:54:37.24	211.28	11.03	-41.1	-42.1	22.5	0.00e+00	13	42	0	213909504	56	5827
2026-01-24 01:54:38.25	211.39	11.10	-41.1	-42.1	22.6	0.00e+00	92	42	0	214958080	56	5789
2026-01-24 01:54:39.26	211.50	11.18	-41.1	-42.2	22.5	0.00e+00	92	42	0	217055232	56	5839
2026-01-24 01:54:40.27	211.61	11.26	-41.0	-42.0	22.6	0.00e+00	92	42	0	219152384	56	5757
2026-01-24 01:54:41.28	211.72	11.33	-41.1	-42.1	22.5	0.00e+00	92	42	0	221249536	56	5768
2026-01-24 01:54:42.29	211.83	11.41	-41.1	-42.1	22.5	0.00e+00	0	42	0	223346688	56	5828
2026-01-24 01:54:43.30	211.94	11.48	-41.1	-42.1	22.6	0.00e+00	92	42	0	224395264	56	5798
2026-01-24 01:54:44.31	212.05	11.56	-41.2	-42.2	22.5	0.00e+00	0	42	0	226492416	56	5838
2026-01-24 01:54:45.32	212.16	11.64	-41.1	-42.1	22.7	0.00e+00	92	42	0	228589568	56	5771
2026-01-24 01:54:46.33	212.27	11.71	-41.0	-42.0	22.6	0.00e+00	91	42	0	230686720	56	5719
2026-01-24 01:54:47.34	212.39	11.79	-40.9	-41.9	22.7	0.00e+00	91	42	0	232783872	56	5666
2026-01-24 01:54:48.35	212.50	11.87	-40.9	-41.9	22.7	0.00e+00	92	42	0	234881024	56	5691
2026-01-24 01:54:49.36	212.61	11.94	-41.0	-42.0	22.7	0.00e+00	92	42	0	235929600	56	5711
2026-01-24 01:54:50.37	212.73	12.02	-41.0	-42.0	22.7	0.00e+00	92	42	0	238026752	56	5697
2026-01-24 01:54:51.38	212.84	12.10	-41.0	-42.0	22.7	0.00e+00	0	42	0	240123904	56	5698
2026-01-24 01:54:52.39	212.96	12.18	-41.0	-42.0	22.6	0.00e+00	91	42	0	242221056	56	5734
2026-01-24 01:54:53.40	213.07	12.25	-41.1	-42.1	22.6	0.00e+00	91	42	0	244318208	56	5771
2026-01-24 01:54:54.41	213.19	12.33	-41.1	-42.1	22.7	0.00e+00	91	42	0	245366784	56	5769
2026-01-24 01:54:55.42	213.31	12.41	-41.2	-42.2	22.5	0.00e+00	92	42	0	247463936	56	5896
2026-01-24 01:54:56.43	213.43	12.49	-41.3	-42.3	22.5	0.00e+00	91	42	0	249561088	56	5956
2026-01-24 01:54:57.44	213.55	12.57	-41.2	-42.3	22.5	0.00e+00	91	42	0	251658240	56	5903
2026-01-24 01:54:58.45	213.66	12.64	-41.3	-42.3	22.4	0.00e+00	12	42	0	253755392	56	5960
2026-01-24 01:54:59.46	213.78	12.72	-41.3	-42.3	22.4	0.00e+00	92	42	0	254803968	56	5935
2026-01-24 01:55:00.47	213.90	12.80	-41.3	-42.3	22.5	0.00e+00	0	42	0	256901120	56	5918
2026-01-24 01:55:01.48	214.03	12.88	-41.3	-42.4	22.4	0.00e+00	90	42	0	258998272	56	5970
2026-01-24 01:55:02.48	214.15	12.96	-41.4	-42.4	22.3	0.00e+00	92	42	0	261095424	56	5997
2026-01-24 01:55:03.49	214.27	13.04	-41.3	-42.4	22.4	0.00e+00	92	42	0	263192576	56	5983
2026-01-24 01:55:04.50	214.39	13.12	-41.3	-42.4	22.4	0.00e+00	92	42	0	264241152	56	5986
2026-01-24 01:55:05.51	214.52	13.20	-41.4	-42.4	22.4	0.00e+00	90	42	0	266338304	56	6016
2026-01-24 01:55:06.52	214.64	13.28	-41.4	-42.4	22.3	0.00e+00	92	42	0	268435456	56	6016
2026-01-24 01:55:07.53	214.76	13.36	-41.4	-42.4	22.3	0.00e+00	49	42	0	270532608	56	6001
2026-01-24 01:55:08.54	214.89	13.44	-41.4	-42.4	22.4	0.00e+00	92	42	0	272629760	56	6006
2026-01-24 01:55:09.55	215.02	13.52	-41.3	-42.4	22.4	0.00e+00	92	42	0	273678336	56	5965
2026-01-24 01:55:10.56	215.14	13.60	-41.3	-42.4	22.4	0.00e+00	92	42	0	275775488	56	5978
2026-01-24 01:55:11.57	215.27	13.68	-41.2	-42.2	22.5	0.00e+00	92	42	0	277872640	56	5891
2026-01-24 01:55:12.58	215.40	13.76	-41.3	-42.3	22.5	0.00e+00	92	42	0	279969792	56	5927
2026-01-24 01:55:13.59	215.53	13.84	-41.4	-42.4	22.4	0.00e+00	92	42	0	282066944	56	6001
2026-01-24 01:55:14.60	215.66	13.92	-41.4	-42.5	22.3	0.00e+00	6	42	0	283115520	56	6048
2026-01-24 01:55:15.61	215.79	14.00	-41.4	-42.5	22.4	0.00e+00	92	42	0	285212672	56	6051
2026-01-24 01:55:16.62	215.92	14.08	-41.4	-42.5	22.4	0.00e+00	92	42	0	287309824	56	6038
2026-01-24 01:55:17.63	216.05	14.16	-41.5	-42.6	22.4	0.00e+00	92	42	0	289406976	56	6114
2026-01-24 01:55:18.64	216.18	14.24	-41.4	-42.4	22.3	0.00e+00	92	42	0	291504128	56	6026
2026-01-24 01:55:19.65	216.32	14.32	-41.4	-42.5	22.3	0.00e+00	92	42	0	292552704	56	6047
2026-01-24 01:55:20.66	216.45	14.40	-41.4	-42.4	22.4	0.00e+00	92	42	0	294649856	56	6032
2026-01-24 01:55:21.67	216.58	14.49	-41.3	-42.3	22.5	0.00e+00	31	42	0	296747008	56	5956
2026-01-24 01:55:22.68	216.72	14.57	-41.4	-42.4	22.4	0.00e+00	91	42	0	298844160	56	5982
2026-01-24 01:55:23.68	216.85	14.65	-41.6	-42.6	22.3	0.00e+00	0	42	0	300941312	56	6144
2026-01-24 01:55:24.69	216.99	14.73	-41.3	-42.3	22.4	0.00e+00	91	42	0	303038464	56	5963
2026-01-24 01:55:25.70	217.13	14.81	-41.4	-42.5	22.4	0.00e+00	91	42	0	304087040	56	6041
2026-01-24 01:55:26.71	217.27	14.89	-41.4	-42.4	22.4	0.00e+00	91	42	0	306184192	56	6000
2026-01-24 01:55:27.72	217.40	14.98	-41.4	-42.5	22.3	0.00e+00	92	42	0	308281344	56	6049
2026-01-24 01:55:28.73	217.54	15.06	-41.5	-42.6	22.3	0.00e+00	92	42	0	310378496	56	6111
2026-01-24 01:55:29.74	217.68	15.14	-41.6	-42.6	22.3	0.00e+00	92	42	0	312475648	56	6145
2026-01-24 01:55:30.75	217.82	15.22	-41.6	-42.6	22.3	0.00e+00	25	42	0	313524224	56	6149
2026-01-24 01:55:31.76	217.97	15.31	-41.5	-42.5	22.2	0.00e+00	90	42	0	315621376	56	6094
2026-01-24 01:55:32.77	218.11	15.39	-41.6	-42.7	22.2	0.00e+00	92	42	0	317718528	56	6180
2026-01-24 01:55:33.78	218.25	15.47	-41.5	-42.5	22.4	0.00e+00	90	42	0	319815680	56	6057
2026-01-24 01:55:34.79	218.40	15.56	-41.6	-42.6	22.3	0.00e+00	92	42	0	321912832	56	6145
2026-01-24 01:55:35.80	218.54	15.64	-41.5	-42.6	22.3	0.00e+00	90	42	0	322961408	56	6109
2026-01-24 01:55:36.81	218.69	15.72	-41.4	-42.4	22.4	0.00e+00	92	42	0	325058560	56	6032
2026-01-24 01:55:37.82	218.83	15.81	-41.3	-42.3	22.5	0.00e+00	24	42	0	327155712	56	5955
2026-01-24 01:55:38.83	218.98	15.89	-41.4	-42.4	22.5	0.00e+00	92	42	0	329252864	56	5988
2026-01-24 01:55:39.84	219.13	15.97	-41.3	-42.3	22.6	0.00e+00	69	42	0	331350016	56	5939
2026-01-24 01:55:40.85	219.28	16.06	-41.3	-42.3	22.5	0.00e+00	92	42	0	332398592	56	5948
2026-01-24 01:55:41.86	219.43	16.14	-41.3	-42.2	22.6	0.00e+00	90	42	0	334495744	56	5894
2026-01-24 01:55:42.87	219.58	16.23	-41.3	-42.4	22.5	0.00e+00	92	42	0	336592896	56	5965
2026-01-24 01:55:43.87	219.73	16.31	-41.5	-42.5	22.3	0.00e+00	92	42	0	338690048	56	6081
2026-01-24 01:55:44.88	219.88	16.39	-41.4	-42.5	22.4	0.00e+00	0	42	0	340787200	56	6044
2026-01-24 01:55:45.89	220.03	16.48	-41.4	-42.4	22.5	0.00e+00	92	42	0	341835776	56	6023
2026-01-24 01:55:46.90	220.19	16.56	-41.3	-42.4	22.4	0.00e+00	0	42	0	343932928	56	5978
2026-01-24 01:55:47.91	220.34	16.65	-41.4	-42.4	22.4	0.00e+00	91	42	0	346030080	56	6022
2026-01-24 01:55:48.92	220.50	16.73	-41.3	-42.3	22.6	0.00e+00	91	42	0	348127232	56	5938
2026-01-24 01:55:49.93	220.65	16.82	-41.3	-42.4	22.5	0.00e+00	91	42	0	350224384	56	5976
2026-01-24 01:55:50.94	220.81	16.90	-41.2	-42.2	22.7	0.00e+00	91	42	0	351272960	56	5851
2026-01-24 01:55:51.95	220.97	16.99	-41.3	-42.3	22.5	0.00e+00	91	42	0	353370112	56	5947
2026-01-24 01:55:52.96	221.13	17.07	-41.3	-42.3	22.6	0.00e+00	90	42	0	355467264	56	5924
2026-01-24 01:55:53.97	221.29	17.16	-41.2	-42.2	22.7	0.00e+00	69	42	0	357564416	56	5832
2026-01-24 01:55:54.98	221.45	17.24	-41.0	-42.0	22.8	0.00e+00	90	42	0	359661568	56	5756
2026-01-24 01:55:55.99	221.61	17.33	-40.9	-41.9	22.9	0.00e+00	91	42	0	360710144	56	5670
2026-01-24 01:55:57.00	221.77	17.41	-41.0	-42.0	22.9	0.00e+00	92	42	0	362807296	56	5707
2026-01-24 01:55:58.01	221.93	17.50	-40.9	-41.9	22.9	0.00e+00	92	42	0	364904448	56	5669
2026-01-24 01:55:59.02	222.10	17.58	-40.9	-41.9	23.0	0.00e+00	92	42	0	367001600	56	5688
2026-01-24 01:56:00.03	222.26	17.67	-40.9	-41.9	22.9	0.00e+00	92	42	0	369098752	56	5656
2026-01-24 01:56:01.04	222.43	17.75	-40.9	-41.8	23.1	0.00e+00	0	42	0	371195904	56	5627
2026-01-24 01:56:02.05	222.60	17.84	-40.4	-41.4	23.4	0.00e+00	92	42	0	372244480	54	5967
2026-01-24 01:56:03.06	222.76	17.92	-40.4	-41.3	23.5	0.00e+00	43	42	0	374341632	54	5931
2026-01-24 01:56:04.07	222.93	18.01	-40.3	-41.2	23.5	0.00e+00	92	42	0	376438784	54	5871
2026-01-24 01:56:05.08	223.10	18.10	-40.2	-41.1	23.6	0.00e+00	92	42	0	378535936	54	5779
2026-01-24 01:56:06.09	223.27	18.18	-39.9	-40.9	23.8	0.00e+00	92	42	0	380633088	54	5632
2026-01-24 01:56:07.10	223.44	18.27	-40.0	-41.0	23.7	0.00e+00	90	42	0	381681664	54	5696
2026-01-24 01:56:08.11	223.62	18.35	-40.0	-40.9	23.8	0.00e+00	66	42	0	383778816	54	5688
2026-01-24 01:56:09.12	223.79	18.44	-40.0	-40.9	23.8	0.00e+00	90	42	0	385875968	54	5679
2026-01-24 01:56:10.13	223.96	18.53	-40.1	-41.0	23.7	0.00e+00	0	42	0	387973120	54	5716
2026-01-24 01:56:11.14	224.14	18.61	-40.1	-41.1	23.6	0.00e+00	92	42	0	390070272	54	5769
2026-01-24 01:56:12.15	224.32	18.70	-40.1	-41.0	23.7	0.00e+00	90	42	0	391118848	54	5740
2026-01-24 01:56:13.16	224.49	18.79	-39.9	-40.8	23.9	0.00e+00	90	42	0	393216000	54	5595
2026-01-24 01:56:14.16	224.67	18.87	-40.0	-40.9	23.8	0.00e+00	92	42	0	395313152	54	5667
2026-01-24 01:56:15.17	224.85	18.96	-40.0	-40.9	23.8	0.00e+00	92	42	0	397410304	54	5658
2026-01-24 01:56:16.18	225.03	19.04	-39.9	-40.8	24.0	0.00e+00	92	42	0	399507456	54	5568
2026-01-24 01:56:17.19	225.21	19.13	-39.9	-40.8	23.9	0.00e+00	7	42	0	400556032	54	5617
2026-01-24 01:56:18.20	225.39	19.22	-39.9	-40.8	23.9	0.00e+00	92	42	0	402653184	54	5623
2026-01-24 01:56:19.21	225.57	19.30	-40.1	-41.0	23.7	0.00e+00	92	42	0	404750336	54	5744
2026-01-24 01:56:20.22	225.76	19.39	-40.1	-41.1	23.7	0.00e+00	92	42	0	406847488	54	5766
2026-01-24 01:56:21.23	225.94	19.48	-40.0	-41.0	23.7	0.00e+00	92	42	0	408944640	54	5703
2026-01-24 01:56:22.24	226.13	19.56	-40.1	-41.0	23.7	0.00e+00	92	42	0	409993216	54	5712
2026-01-24 01:56:23.25	226.32	19.65	-39.8	-40.7	23.9	0.00e+00	92	42	0	412090368	54	5536
2026-01-24 01:56:24.26	226.51	19.74	-39.9	-40.8	24.0	0.00e+00	0	42	0	414187520	54	5592
2026-01-24 01:56:25.27	226.70	19.82	-39.9	-40.8	24.0	0.00e+00	92	42	0	416284672	54	5610
2026-01-24 01:56:26.28	226.89	19.91	-39.9	-40.8	24.0	0.00e+00	0	42	0	418381824	54	5615
2026-01-24 01:56:27.28	227.08	19.99	-39.8	-40.7	24.1	0.00e+00	91	42	0	419430400	52	6180
2026-01-24 01:56:28.30	227.27	20.08	-39.8	-40.7	24.1	0.00e+00	92	42	0	421527552	52	6209
2026-01-24 01:56:29.31	227.46	20.17	-39.7	-40.6	24.1	0.00e+00	91	42	0	423624704	52	6141
2026-01-24 01:56:30.32	227.66	20.25	-39.7	-40.6	24.1	0.00e+00	92	42	0	425721856	52	6131
2026-01-24 01:56:31.33	227.85	20.34	-39.7	-40.5	24.2	0.00e+00	92	42	0	427819008	52	6103
2026-01-24 01:56:32.34	228.05	20.43	-39.6	-40.4	24.2	0.00e+00	90	42	0	428867584	52	6011
2026-01-24 01:56:33.35	228.25	20.51	-39.4	-40.3	24.4	0.00e+00	0	42	0	430964736	52	5918
2026-01-24 01:56:34.36	228.45	20.60	-39.4	-40.2	24.4	0.00e+00	90	42	0	433061888	52	5875
2026-01-24 01:56:35.37	228.65	20.69	-39.3	-40.1	24.5	0.00e+00	92	42	0	435159040	52	5785
2026-01-24 01:56:36.38	228.85	20.77	-39.3	-40.2	24.5	0.00e+00	92	42	0	437256192	52	5846
2026-01-24 01:56:37.39	229.05	20.86	-39.2	-40.0	24.6	0.00e+00	92	42	0	439353344	52	5732
2026-01-24 01:56:38.40	229.25	20.94	-39.3	-40.1	24.4	0.00e+00	92	42	0	440401920	52	5799
2026-01-24 01:56:39.41	229.46	21.03	-39.1	-39.9	24.8	0.00e+00	92	42	0	442499072	52	5656
2026-01-24 01:56:40.42	229.66	21.12	-39.2	-40.1	24.5	0.00e+00	10	42	0	444596224	52	5767
2026-01-24 01:56:41.42	229.87	21.20	-39.0	-39.8	24.8	0.00e+00	92	42	0	446693376	52	5629
2026-01-24 01:56:42.43	230.07	21.29	-38.9	-39.7	24.9	0.00e+00	60	42	0	447741952	52	5543
2026-01-24 01:56:43.44	230.28	21.37	-38.9	-39.7	24.9	0.00e+00	92	42	0	449839104	52	5517
2026-01-24 01:56:44.45	230.49	21.46	-38.9	-39.7	24.9	0.00e+00	92	42	0	451936256	52	5566
2026-01-24 01:56:45.46	230.70	21.54	-38.7	-39.5	25.1	0.00e+00	92	42	0	454033408	50	6062
2026-01-24 01:56:46.47	230.92	21.63	-38.7	-39.5	25.0	0.00e+00	90	42	0	456130560	50	6094
2026-01-24 01:56:47.48	231.13	21.71	-38.8	-39.6	24.9	0.00e+00	13	42	0	457179136	50	6168
2026-01-24 01:56:48.49	231.34	21.80	-38.8	-39.6	24.9	0.00e+00	92	42	0	459276288	50	6169
2026-01-24 01:56:49.50	231.56	21.88	-39.0	-39.8	24.8	0.00e+00	6	42	0	461373440	50	6275
2026-01-24 01:56:50.51	231.78	21.97	-39.1	-39.9	24.7	0.00e+00	90	42	0	463470592	50	6361
2026-01-24 01:56:51.52	232.00	22.05	-39.2	-40.0	24.5	0.00e+00	92	42	0	465567744	50	6464
2026-01-24 01:56:52.52	232.21	22.14	-39.4	-40.2	24.5	0.00e+00	90	42	0	467664896	50	6603
2026-01-24 01:56:53.54	232.43	22.22	-39.5	-40.3	24.4	0.00e+00	92	42	0	468713472	50	6653
2026-01-24 01:56:54.54	232.65	22.31	-39.6	-40.4	24.2	0.00e+00	75	42	0	470810624	50	6761
2026-01-24 01:56:55.55	232.88	22.39	-39.6	-40.4	24.3	0.00e+00	90	42	0	472907776	50	6744
2026-01-24 01:56:56.56	233.10	22.47	-39.8	-40.7	24.1	0.00e+00	50	42	0	475004928	52	6200
2026-01-24 01:56:57.57	233.33	22.56	-39.7	-40.6	24.2	0.00e+00	92	42	0	477102080	52	6139
2026-01-24 01:56:58.58	233.55	22.64	-39.8	-40.6	24.1	0.00e+00	91	42	0	478150656	52	6154
2026-01-24 01:56:59.59	233.78	22.73	-39.8	-40.7	24.1	0.00e+00	91	42	0	480247808	52	6197
2026-01-24 01:57:00.60	234.01	22.81	-39.8	-40.7	24.1	0.00e+00	92	42	0	482344960	52	6205
2026-01-24 01:57:01.61	234.24	22.89	-39.8	-40.6	24.2	0.00e+00	90	42	0	484442112	52	6172
2026-01-24 01:57:02.62	234.47	22.97	-39.7	-40.5	24.2	0.00e+00	92	42	0	486539264	52	6098
2026-01-24 01:57:03.62	234.70	23.06	-39.7	-40.6	24.3	0.00e+00	16	42	0	487587840	52	6115
2026-01-24 01:57:04.63	234.93	23.14	-39.8	-40.7	24.2	0.00e+00	92	42	0	489684992	52	6175
2026-01-24 01:57:05.64	235.17	23.22	-39.6	-40.5	24.2	0.00e+00	92	42	0	491782144	52	6059
2026-01-24 01:57:06.65	235.40	23.30	-39.7	-40.5	24.2	0.00e+00	92	42	0	493879296	52	6103
2026-01-24 01:57:07.66	235.64	23.39	-39.8	-40.7	24.1	0.00e+00	90	42	0	495976448	52	6195
2026-01-24 01:57:08.67	235.88	23.47	-39.9	-40.8	24.1	0.00e+00	92	42	0	497025024	52	6269
2026-01-24 01:57:09.68	236.12	23.55	-39.9	-40.8	24.0	0.00e+00	92	42	0	499122176	52	6285
2026-01-24 01:57:10.69	236.36	23.63	-40.0	-40.9	24.0	0.00e+00	65	42	0	501219328	52	6338
2026-01-24 01:57:11.69	236.59	23.71	-40.0	-40.9	23.9	0.00e+00	92	42	0	503316480	52	6358
2026-01-24 01:57:12.70	236.84	23.79	-40.1	-40.9	24.0	0.00e+00	65	42	0	505413632	52	6383
2026-01-24 01:57:13.71	237.08	23.87	-40.0	-40.9	23.9	0.00e+00	92	42	0	506462208	52	6335
2026-01-24 01:57:14.73	237.33	23.95	-40.2	-41.1	23.8	0.00e+00	92	42	0	508559360	52	6510
2026-01-24 01:57:15.73	237.57	24.03	-40.4	-41.3	23.6	0.00e+00	89	42	0	510656512	52	6652
2026-01-24 01:57:16.74	237.82	24.11	-40.4	-41.3	23.5	0.00e+00	92	42	0	512753664	52	6688
2026-01-24 01:57:17.75	238.07	24.19	-40.4	-41.4	23.6	0.00e+00	66	42	0	514850816	52	6695
2026-01-24 01:57:18.76	238.32	24.27	-40.5	-41.4	23.5	0.00e+00	92	42	0	515899392	52	6760
2026-01-24 01:57:19.77	238.57	24.35	-40.6	-41.5	23.1	0.00e+00	57	42	0	517996544	52	6784
2026-01-24 01:57:20.78	238.83	24.42	-40.6	-41.6	23.4	0.00e+00	92	42	0	520093696	52	6851
2026-01-24 01:57:21.79	239.08	24.50	-40.4	-41.3	23.5	0.00e+00	92	42	0	522190848	52	6685
2026-01-24 01:57:22.80	239.33	24.58	-40.5	-41.4	23.5	0.00e+00	92	42	0	524288000	52	6720
2026-01-24 01:57:23.81	239.59	24.66	-40.6	-41.5	23.4	0.00e+00	92	42	0	525336576	52	6837
2026-01-24 01:57:24.82	239.85	24.73	-40.5	-41.4	23.5	0.00e+00	29	42	0	527433728	52	6761
2026-01-24 01:57:25.83	240.11	24.81	-40.5	-41.4	23.6	0.00e+00	92	42	0	529530880	52	6698
2026-01-24 01:57:26.84	240.37	24.88	-40.3	-41.2	23.8	0.00e+00	0	42	0	531628032	52	6542
2026-01-24 01:57:27.85	240.63	24.96	-40.3	-41.2	23.7	0.00e+00	92	42	0	533725184	52	6591
2026-01-24 01:57:28.86	240.89	25.04	-40.6	-41.5	23.4	0.00e+00	75	42	0	535822336	52	6787
2026-01-24 01:57:29.87	241.15	25.11	-40.8	-41.7	23.3	0.00e+00	92	42	0	536870912	54	6216
2026-01-24 01:57:30.88	241.42	25.18	-40.9	-41.9	23.1	0.00e+00	90	42	0	538968064	54	6326
2026-01-24 01:57:31.89	241.69	25.26	-41.0	-41.9	23.1	0.00e+00	0	42	0	541065216	54	6368
2026-01-24 01:57:32.90	241.95	25.33	-41.0	-42.0	23.0	0.00e+00	92	42	0	543162368	54	6404
2026-01-24 01:57:33.91	242.22	25.40	-41.2	-42.2	22.9	0.00e+00	0	42	0	545259520	54	6556
2026-01-24 01:57:34.92	242.49	25.48	-41.2	-42.2	22.8	0.00e+00	92	42	0	546308096	54	6569
2026-01-24 01:57:35.93	242.76	25.55	-41.4	-42.4	22.6	0.00e+00	0	42	0	548405248	54	6714
2026-01-24 01:57:36.94	243.03	25.62	-41.5	-42.5	22.6	0.00e+00	92	42	0	550502400	54	6772
2026-01-24 01:57:37.95	243.31	25.69	-41.7	-42.7	22.4	0.00e+00	92	42	0	552599552	54	6976
2026-01-24 01:57:38.96	243.58	25.76	-41.9	-43.0	22.3	0.00e+00	0	42	0	554696704	56	6393
2026-01-24 01:57:39.96	243.86	25.83	-42.0	-43.1	22.1	0.00e+00	92	42	0	555745280	56	6509
2026-01-24 01:57:40.97	244.13	25.90	-42.2	-43.3	21.9	0.00e+00	70	42	0	557842432	56	6659
2026-01-24 01:57:41.99	244.41	25.97	-42.3	-43.4	21.7	0.00e+00	92	42	0	559939584	56	6738
2026-01-24 01:57:43.00	244.69	26.04	-42.4	-43.5	21.8	0.00e+00	0	42	0	562036736	56	6801
2026-01-24 01:57:44.00	244.97	26.11	-42.4	-43.6	21.7	0.00e+00	90	42	0	564133888	56	6865
2026-01-24 01:57:45.01	245.25	26.17	-42.4	-43.5	21.7	0.00e+00	92	42	0	565182464	56	6779
2026-01-24 01:57:46.02	245.53	26.24	-42.5	-43.6	21.6	0.00e+00	92	42	0	567279616	56	6926
2026-01-24 01:57:47.03	245.82	26.31	-42.5	-43.6	21.7	0.00e+00	92	42	0	569376768	56	6874
2026-01-24 01:57:48.04	246.10	26.37	-42.6	-43.7	21.7	0.00e+00	8	42	0	571473920	56	6960
2026-01-24 01:57:49.05	246.39	26.44	-42.6	-43.8	21.5	0.00e+00	90	42	0	573571072	56	7008
2026-01-24 01:57:50.05	246.67	26.50	-42.8	-43.9	21.3	0.00e+00	7	42	0	574619648	56	7169
2026-01-24 01:57:51.06	246.96	26.57	-42.9	-44.1	21.1	0.00e+00	92	42	0	576716800	58	6523
2026-01-24 01:57:52.07	247.25	26.63	-43.0	-44.3	21.1	0.00e+00	75	42	0	578813952	58	6617
2026-01-24 01:57:53.08	247.54	26.69	-42.8	-43.9	21.3	0.00e+00	92	42	0	580911104	58	6379
2026-01-24 01:57:54.09	247.84	26.75	-42.8	-44.0	21.3	0.00e+00	92	42	0	583008256	58	6393
2026-01-24 01:57:55.10	248.13	26.81	-42.8	-43.9	21.3	0.00e+00	6	42	0	584056832	58	6370
2026-01-24 01:57:56.11	248.42	26.88	-42.8	-44.0	21.3	0.00e+00	92	42	0	586153984	58	6395
2026-01-24 01:57:57.12	248.72	26.94	-42.6	-43.8	21.5	0.00e+00	0	42	0	588251136	58	6250
2026-01-24 01:57:58.13	249.01	27.00	-42.6	-43.8	21.5	0.00e+00	92	42	0	590348288	58	6247
2026-01-24 01:57:59.14	249.31	27.05	-42.7	-43.8	21.4	0.00e+00	48	42	0	592445440	58	6284
2026-01-24 01:58:00.15	249.61	27.11	-42.6	-43.7	21.5	0.00e+00	90	42	0	593494016	58	6222
2026-01-24 01:58:01.16	249.91	27.17	-42.5	-43.7	21.5	0.00e+00	92	42	0	595591168	58	6178
2026-01-24 01:58:02.16	250.21	27.23	-42.5	-43.6	21.5	0.00e+00	45	42	0	597688320	58	6160
2026-01-24 01:58:03.17	250.51	27.28	-42.4	-43.5	21.7	0.00e+00	92	42	0	599785472	58	6079
2026-01-24 01:58:04.18	250.81	27.34	-42.3	-43.4	21.8	0.00e+00	10	42	0	601882624	58	5980
2026-01-24 01:58:05.19	251.11	27.39	-42.3	-43.3	21.9	0.00e+00	92	42	0	603979776	58	5963
2026-01-24 01:58:06.20	251.42	27.44	-42.3	-43.4	21.9	0.00e+00	9	42	0	605028352	58	5975
2026-01-24 01:58:07.21	251.72	27.50	-42.2	-43.3	21.8	0.00e+00	90	42	0	607125504	58	5953
2026-01-24 01:58:08.22	252.03	27.55	-42.4	-43.5	21.7	0.00e+00	92	42	0	609222656	58	6063
2026-01-24 01:58:09.23	252.34	27.60	-42.4	-43.5	21.6	0.00e+00	92	42	0	611319808	58	6102
2026-01-24 01:58:10.24	252.65	27.65	-42.5	-43.7	21.6	0.00e+00	92	42	0	613416960	58	6192
2026-01-24 01:58:11.25	252.96	27.70	-42.6	-43.8	21.4	0.00e+00	0	42	0	614465536	58	6269
2026-01-24 01:58:12.26	253.27	27.75	-42.7	-43.8	21.5	0.00e+00	92	42	0	616562688	58	6312
2026-01-24 01:58:13.27	253.58	27.80	-42.5	-43.6	21.7	0.00e+00	0	42	0	618659840	58	6128
2026-01-24 01:58:14.28	253.89	27.85	-42.3	-43.5	21.7	0.00e+00	92	42	0	620756992	58	6035
2026-01-24 01:58:15.28	254.20	27.89	-42.6	-43.7	21.6	0.00e+00	34	42	0	621805568	58	6200
2026-01-24 01:58:16.29	254.51	27.94	-42.8	-44.0	21.3	0.00e+00	92	42	0	623902720	58	6441
2026-01-24 01:58:17.30	254.83	27.98	-43.3	-44.5	20.8	0.00e+00	91	42	0	625999872	58	6839
2026-01-24 01:58:18.31	255.14	28.03	-43.6	-44.9	20.3	0.00e+00	0	42	0	628097024	58	7164
2026-01-24 01:58:19.32	255.46	28.07	-44.0	-45.4	20.0	0.00e+00	91	42	0	630194176	60	6757
2026-01-24 01:58:20.33	255.78	28.11	-44.3	-45.7	19.7	0.00e+00	64	42	0	632291328	60	6999
2026-01-24 01:58:21.34	256.10	28.15	-44.3	-45.7	19.7	0.00e+00	91	42	0	633339904	60	6999
2026-01-24 01:58:22.35	256.41	28.20	-44.3	-45.8	19.8	0.00e+00	0	42	0	635437056	60	7008
2026-01-24 01:58:23.36	256.73	28.24	-44.1	-45.5	19.9	0.00e+00	92	42	0	637534208	60	6844
2026-01-24 01:58:24.36	257.05	28.27	-44.1	-45.6	19.8	0.00e+00	93	42	0	639631360	60	6856
2026-01-24 01:58:25.37	257.37	28.31	-43.9	-45.3	20.2	0.00e+00	91	42	0	641728512	60	6664
2026-01-24 01:58:26.38	257.69	28.35	-43.5	-44.8	20.6	0.00e+00	90	42	0	642777088	60	6268
2026-01-24 01:58:27.39	258.02	28.38	-43.4	-44.6	20.8	0.00e+00	0	42	0	644874240	60	6172
2026-01-24 01:58:28.40	258.34	28.42	-43.2	-44.5	20.9	0.00e+00	91	42	0	646971392	60	6041
2026-01-24 01:58:29.41	258.66	28.45	-43.2	-44.5	20.9	0.00e+00	10	42	0	649068544	60	6036
2026-01-24 01:58:30.42	258.99	28.49	-43.1	-44.3	21.0	0.00e+00	91	42	0	651165696	60	5936
2026-01-24 01:58:31.43	259.31	28.52	-43.0	-44.2	21.1	0.00e+00	51	42	0	652214272	60	5881
2026-01-24 01:58:32.44	259.64	28.55	-43.2	-44.4	21.0	0.00e+00	92	42	0	654311424	60	5997
2026-01-24 01:58:33.45	259.97	28.58	-43.2	-44.4	20.9	0.00e+00	92	42	0	656408576	60	6027
2026-01-24 01:58:34.46	260.29	28.61	-43.1	-44.3	21.0	0.00e+00	0	42	0	658505728	60	5945
2026-01-24 01:58:35.47	260.62	28.64	-43.3	-44.5	20.9	0.00e+00	91	42	0	660602880	60	6067
2026-01-24 01:58:36.48	260.95	28.67	-43.4	-44.7	20.8	0.00e+00	0	42	0	661651456	60	6200
2026-01-24 01:58:37.49	261.28	28.69	-43.6	-44.9	20.5	0.00e+00	92	42	0	663748608	60	6359
2026-01-24 01:58:38.50	261.61	28.72	-43.8	-45.2	20.3	0.00e+00	29	42	0	665845760	60	6548
2026-01-24 01:58:39.51	261.94	28.74	-43.9	-45.2	20.2	0.00e+00	92	42	0	667942912	60	6595
2026-01-24 01:58:40.52	262.27	28.77	-44.0	-45.3	20.1	0.00e+00	92	42	0	670040064	60	6675
2026-01-24 01:58:41.53	262.60	28.79	-43.7	-45.0	20.5	0.00e+00	91	42	0	671088640	60	6423
2026-01-24 01:58:42.53	262.93	28.81	-43.7	-45.0	20.4	0.00e+00	92	42	0	673185792	60	6423
2026-01-24 01:58:43.54	263.26	28.83	-43.7	-45.0	20.4	0.00e+00	70	42	0	675282944	60	6463
2026-01-24 01:58:44.55	263.59	28.85	-43.6	-44.9	20.6	0.00e+00	91	42	0	677380096	60	6328
2026-01-24 01:58:45.56	263.92	28.87	-43.5	-44.8	20.7	0.00e+00	0	42	0	679477248	60	6306
2026-01-24 01:58:46.57	264.26	28.89	-43.2	-44.4	21.0	0.00e+00	91	42	0	680525824	60	6008
2026-01-24 01:58:47.58	264.59	28.91	-43.1	-44.3	21.1	0.00e+00	92	42	0	682622976	60	5922
2026-01-24 01:58:48.59	264.92	28.92	-43.0	-44.2	21.2	0.00e+00	91	42	0	684720128	60	5830
2026-01-24 01:58:49.60	265.26	28.94	-42.9	-44.1	21.3	0.00e+00	91	42	0	686817280	60	5801
2026-01-24 01:58:50.61	265.59	28.95	-42.7	-43.8	21.5	0.00e+00	26	42	0	688914432	58	6306
2026-01-24 01:58:51.62	265.93	28.96	-42.7	-43.9	21.4	0.00e+00	92	42	0	689963008	58	6356
2026-01-24 01:58:52.63	266.26	28.97	-42.6	-43.7	21.6	0.00e+00	27	42	0	692060160	58	6192
2026-01-24 01:58:53.64	266.59	28.98	-42.8	-44.0	21.2	0.00e+00	91	42	0	694157312	58	6444
2026-01-24 01:58:54.65	266.93	28.99	-42.9	-44.1	21.1	0.00e+00	92	42	0	696254464	58	6519
2026-01-24 01:58:55.66	267.26	29.00	-43.0	-44.2	21.1	0.00e+00	92	42	0	698351616	58	6553
2026-01-24 01:58:56.67	267.60	29.01	-42.8	-44.0	21.3	0.00e+00	92	42	0	700448768	58	6432
2026-01-24 01:58:57.68	267.94	29.02	-42.6	-43.7	21.6	0.00e+00	0	42	0	701497344	58	6228
2026-01-24 01:58:58.69	268.27	29.02	-41.9	-43.0	22.2	0.00e+00	92	42	0	703594496	58	5728
2026-01-24 01:58:59.69	268.60	29.02	-41.9	-43.0	22.2	0.00e+00	65	42	0	705691648	58	5707
2026-01-24 01:59:00.70	268.94	29.03	-42.0	-43.0	22.2	0.00e+00	91	42	0	707788800	58	5761
2026-01-24 01:59:01.71	269.27	29.03	-42.4	-43.6	21.6	0.00e+00	66	42	0	709885952	58	6107
2026-01-24 01:59:02.72	269.61	29.03	-42.8	-43.9	21.3	0.00e+00	91	42	0	710934528	58	6379
2026-01-24 01:59:03.73	269.95	29.03	-43.1	-44.4	21.0	0.00e+00	91	42	0	713031680	58	6700
2026-01-24 01:59:04.74	270.28	29.03	-43.4	-44.6	20.5	0.00e+00	45	42	0	715128832	58	6906
2026-01-24 01:59:05.75	270.62	29.03	-43.3	-44.5	20.8	0.00e+00	92	42	0	717225984	58	6848
2026-01-24 01:59:06.76	270.95	29.02	-42.9	-44.1	21.1	0.00e+00	15	41	0	719323136	58	6514
2026-01-24 01:59:07.77	271.29	29.02	-42.5	-43.7	21.7	0.00e+00	92	41	0	720371712	58	6190
2026-01-24 01:59:08.78	271.62	29.01	-41.9	-43.0	22.3	0.00e+00	26	42	0	722468864	58	5699
2026-01-24 01:59:09.79	271.96	29.01	-41.8	-42.9	22.4	0.00e+00	92	42	0	724566016	58	5638
2026-01-24 01:59:10.80	272.29	29.00	-41.5	-42.5	22.7	0.00e+00	90	41	0	726663168	56	6074
2026-01-24 01:59:11.81	272.63	28.99	-41.5	-42.5	22.7	0.00e+00	92	41	0	728760320	56	6049
2026-01-24 01:59:12.82	272.96	28.98	-41.8	-42.8	22.5	0.00e+00	92	42	0	729808896	56	6273
2026-01-24 01:59:13.82	273.30	28.97	-41.9	-43.0	22.3	0.00e+00	11	42	0	731906048	56	6392
2026-01-24 01:59:14.83	273.63	28.96	-42.0	-43.0	22.3	0.00e+00	92	41	0	734003200	56	6430
2026-01-24 01:59:15.84	273.96	28.95	-42.2	-43.3	22.0	0.00e+00	4	41	0	736100352	56	6634
2026-01-24 01:59:16.85	274.30	28.94	-42.5	-43.6	21.8	0.00e+00	90	42	0	738197504	56	6886
2026-01-24 01:59:17.86	274.63	28.92	-42.5	-43.6	21.8	0.00e+00	89	41	0	739246080	56	6874
2026-01-24 01:59:18.87	274.96	28.90	-42.3	-43.4	21.8	0.00e+00	92	41	0	741343232	56	6718
2026-01-24 01:59:19.87	275.29	28.89	-42.3	-43.4	21.9	0.00e+00	92	42	0	743440384	56	6720
2026-01-24 01:59:20.88	275.63	28.87	-41.9	-43.0	22.3	0.00e+00	14	41	0	745537536	56	6415
2026-01-24 01:59:21.90	275.96	28.85	-41.8	-42.8	22.4	0.00e+00	92	41	0	747634688	56	6317
2026-01-24 01:59:22.90	276.29	28.83	-41.8	-42.8	22.3	0.00e+00	11	41	0	748683264	56	6285
2026-01-24 01:59:23.92	276.62	28.81	-42.3	-43.4	21.9	0.00e+00	92	41	0	750780416	56	6693
2026-01-24 01:59:24.92	276.95	28.79	-42.6	-43.7	21.4	0.00e+00	9	41	0	752877568	56	7003
2026-01-24 01:59:25.93	277.28	28.77	-42.9	-44.1	21.2	0.00e+00	92	41	0	754974720	58	6496
2026-01-24 01:59:26.94	277.61	28.74	-43.2	-44.4	20.9	0.00e+00	92	41	0	757071872	58	6767
2026-01-24 01:59:27.95	277.94	28.72	-43.1	-44.3	21.0	0.00e+00	90	41	0	758120448	58	6690
2026-01-24 01:59:28.96	278.27	28.69	-42.9	-44.0	21.3	0.00e+00	92	42	0	760217600	58	6458
2026-01-24 01:59:29.97	278.60	28.67	-42.4	-43.5	21.8	0.00e+00	23	41	0	762314752	58	6056
2026-01-24 01:59:30.98	278.93	28.64	-42.1	-43.2	22.0	0.00e+00	92	41	0	764411904	58	5881
2026-01-24 01:59:31.99	279.25	28.61	-41.9	-43.0	22.3	0.00e+00	29	41	0	766509056	58	5704
2026-01-24 01:59:33.00	279.58	28.58	-42.2	-43.3	21.9	0.00e+00	92	41	0	768606208	58	5904
2026-01-24 01:59:34.01	279.91	28.55	-42.7	-43.8	21.5	0.00e+00	90	41	0	769654784	58	6298
2026-01-24 01:59:35.02	280.23	28.52	-43.3	-44.6	20.7	0.00e+00	91	41	0	771751936	58	6855
2026-01-24 01:59:36.03	280.56	28.49	-44.1	-45.5	19.9	0.00e+00	91	41	0	773849088	60	6823
2026-01-24 01:59:37.04	280.88	28.45	-44.4	-45.9	19.5	0.00e+00	7	41	0	775946240	60	7160
2026-01-24 01:59:38.04	281.20	28.42	-44.5	-46.0	19.5	0.00e+00	91	41	0	778043392	60	7233
2026-01-24 01:59:39.05	281.52	28.38	-44.2	-45.6	19.9	0.00e+00	0	41	0	779091968	60	6905
2026-01-24 01:59:40.06	281.85	28.35	-44.2	-45.6	20.0	0.00e+00	90	41	0	781189120	60	6870
2026-01-24 01:59:41.07	282.17	28.31	-43.6	-44.9	20.5	0.00e+00	92	41	0	783286272	60	6369
2026-01-24 01:59:42.08	282.49	28.27	-43.2	-44.4	21.1	0.00e+00	92	41	0	785383424	60	5977
2026-01-24 01:59:43.09	282.81	28.23	-43.0	-44.2	21.2	0.00e+00	92	41	0	787480576	60	5838
2026-01-24 01:59:44.10	283.13	28.19	-43.1	-44.3	21.1	0.00e+00	0	41	0	788529152	60	5932
2026-01-24 01:59:45.11	283.45	28.15	-42.9	-44.0	21.3	0.00e+00	91	41	0	790626304	60	5748
2026-01-24 01:59:46.12	283.76	28.11	-42.5	-43.6	21.6	0.00e+00	2	41	0	792723456	58	6154
2026-01-24 01:59:47.13	284.08	28.07	-42.4	-43.5	21.8	0.00e+00	90	41	0	794820608	58	6040
2026-01-24 01:59:48.14	284.40	28.03	-42.1	-43.2	22.0	0.00e+00	0	41	0	796917760	58	5837
2026-01-24 01:59:49.15	284.71	27.98	-42.0	-43.1	22.2	0.00e+00	91	41	0	797966336	58	5771
2026-01-24 01:59:50.16	285.02	27.94	-42.2	-43.3	22.0	0.00e+00	92	41	0	800063488	58	5902
2026-01-24 01:59:51.17	285.34	27.89	-42.3	-43.4	21.9	0.00e+00	90	41	0	802160640	58	5971
2026-01-24 01:59:52.18	285.65	27.85	-42.3	-43.5	21.7	0.00e+00	91	41	0	804257792	58	6036
2026-01-24 01:59:53.19	285.96	27.80	-42.4	-43.5	21.8	0.00e+00	12	41	0	806354944	58	6065
2026-01-24 01:59:54.20	286.27	27.75	-42.3	-43.4	21.8	0.00e+00	92	41	0	807403520	58	6028
2026-01-24 01:59:55.21	286.58	27.70	-42.2	-43.2	22.0	0.00e+00	0	41	0	809500672	58	5885
2026-01-24 01:59:56.21	286.89	27.65	-42.1	-43.2	22.0	0.00e+00	92	41	0	811597824	58	5875
2026-01-24 01:59:57.22	287.19	27.60	-41.9	-42.9	22.3	0.00e+00	92	41	0	813694976	58	5695
2026-01-24 01:59:58.23	287.50	27.55	-41.5	-42.5	22.8	0.00e+00	92	41	0	815792128	56	6054
2026-01-24 01:59:59.24	287.81	27.50	-40.9	-41.8	23.4	0.00e+00	92	41	0	816840704	56	5595
2026-01-24 02:00:00.25	288.11	27.45	-40.8	-41.7	23.5	0.00e+00	0	41	0	818937856	56	5542
2026-01-24 02:00:01.26	288.42	27.39	-40.7	-41.6	23.5	0.00e+00	92	41	0	821035008	54	6118
2026-01-24 02:00:02.27	288.72	27.34	-40.7	-41.6	23.5	0.00e+00	8	41	0	823132160	54	6168
2026-01-24 02:00:03.27	289.02	27.28	-40.5	-41.4	23.5	0.00e+00	92	41	0	825229312	54	5999
2026-01-24 02:00:04.28	289.32	27.23	-40.5	-41.4	23.6	0.00e+00	91	41	0	826277888	54	6019
2026-01-24 02:00:05.29	289.62	27.17	-40.7	-41.6	23.5	0.00e+00	92	41	0	828375040	54	6114
2026-01-24 02:00:06.30	289.92	27.11	-40.7	-41.6	23.5	0.00e+00	91	41	0	830472192	54	6137
2026-01-24 02:00:07.31	290.21	27.06	-40.9	-41.8	23.2	0.00e+00	0	41	0	832569344	54	6298
2026-01-24 02:00:08.32	290.51	27.00	-41.0	-42.0	23.1	0.00e+00	92	41	0	834666496	54	6411
2026-01-24 02:00:09.33	290.80	26.94	-40.8	-41.8	23.3	0.00e+00	63	41	0	835715072	54	6269
2026-01-24 02:00:10.34	291.10	26.88	-40.8	-41.7	23.3	0.00e+00	92	41	0	837812224	54	6244
2026-01-24 02:00:11.35	291.39	26.82	-40.5	-41.4	23.2	0.00e+00	0	41	0	839909376	54	6004
2026-01-24 02:00:12.36	291.68	26.76	-40.6	-41.5	23.5	0.00e+00	92	41	0	842006528	54	6078
2026-01-24 02:00:13.37	291.98	26.70	-40.6	-41.5	23.5	0.00e+00	92	41	0	844103680	54	6084
2026-01-24 02:00:14.38	292.27	26.63	-40.8	-41.7	23.3	0.00e+00	19	41	0	845152256	54	6206
2026-01-24 02:00:15.39	292.55	26.57	-40.9	-41.9	23.2	0.00e+00	92	41	0	847249408	54	6329
2026-01-24 02:00:16.40	292.84	26.51	-40.8	-41.7	23.3	0.00e+00	6	41	0	849346560	54	6196
2026-01-24 02:00:17.41	293.13	26.44	-40.8	-41.8	23.2	0.00e+00	92	41	0	851443712	54	6273
2026-01-24 02:00:18.42	293.41	26.38	-40.9	-41.8	23.2	0.00e+00	0	41	0	853540864	54	6303
2026-01-24 02:00:19.43	293.70	26.31	-41.0	-42.0	23.1	0.00e+00	86	41	0	854589440	54	6405
2026-01-24 02:00:20.44	293.98	26.25	-41.0	-42.0	23.1	0.00e+00	92	41	0	856686592	54	6396
2026-01-24 02:00:21.45	294.26	26.18	-41.0	-41.9	22.9	0.00e+00	0	41	0	858783744	54	6377
2026-01-24 02:00:22.45	294.54	26.11	-40.8	-41.8	23.2	0.00e+00	92	41	0	860880896	54	6275
2026-01-24 02:00:23.47	294.82	26.05	-40.9	-41.9	23.2	0.00e+00	0	41	0	862978048	54	6352
2026-01-24 02:00:24.48	295.10	25.98	-41.0	-42.0	23.1	0.00e+00	92	41	0	865075200	54	6391
2026-01-24 02:00:25.49	295.38	25.91	-41.0	-42.0	23.1	0.00e+00	10	41	0	866123776	54	6395
2026-01-24 02:00:26.50	295.65	25.84	-41.1	-42.1	22.9	0.00e+00	90	41	0	868220928	54	6508
2026-01-24 02:00:27.50	295.93	25.77	-41.3	-42.3	22.8	0.00e+00	5	41	0	870318080	54	6624
2026-01-24 02:00:28.51	296.20	25.70	-41.2	-42.2	22.9	0.00e+00	92	41	0	872415232	54	6591
2026-01-24 02:00:29.52	296.47	25.63	-41.3	-42.3	22.9	0.00e+00	90	41	0	874512384	54	6637
2026-01-24 02:00:30.53	296.74	25.56	-41.3	-42.3	22.8	0.00e+00	67	41	0	875560960	54	6664
2026-01-24 02:00:31.54	297.01	25.49	-41.1	-42.1	23.0	0.00e+00	90	41	0	877658112	54	6487
2026-01-24 02:00:32.55	297.28	25.41	-40.8	-41.8	23.3	0.00e+00	63	41	0	879755264	54	6252
2026-01-24 02:00:33.56	297.55	25.34	-40.5	-41.4	23.6	0.00e+00	92	41	0	881852416	54	5984
2026-01-24 02:00:34.57	297.82	25.27	-40.4	-41.3	23.6	0.00e+00	0	41	0	883949568	54	5939
2026-01-24 02:00:35.58	298.08	25.20	-40.6	-41.5	23.6	0.00e+00	23	41	0	884998144	54	6052
2026-01-24 02:00:36.59	298.34	25.12	-40.9	-41.8	23.2	0.00e+00	92	41	0	887095296	54	6284
2026-01-24 02:00:37.60	298.61	25.05	-41.2	-42.1	22.9	0.00e+00	27	41	0	889192448	54	6536
2026-01-24 02:00:38.61	298.87	24.97	-41.3	-42.3	22.8	0.00e+00	92	41	0	891289600	54	6664
2026-01-24 02:00:39.62	299.13	24.90	-41.4	-42.4	22.7	0.00e+00	29	41	0	893386752	54	6753
2026-01-24 02:00:40.63	299.39	24.82	-41.5	-42.5	22.6	0.00e+00	92	41	0	894435328	54	6772
2026-01-24 02:00:41.64	299.65	24.75	-41.5	-42.5	22.6	0.00e+00	0	41	0	896532480	54	6818
2026-01-24 02:00:42.66	299.90	24.67	-41.5	-42.5	22.6	0.00e+00	90	41	0	898629632	54	6836
2026-01-24 02:00:43.67	300.16	24.59	-41.5	-42.5	22.6	0.00e+00	90	41	0	900726784	54	6797
2026-01-24 02:00:44.68	300.41	24.52	-41.4	-42.4	22.7	0.00e+00	0	41	0	902823936	54	6724
2026-01-24 02:00:45.68	300.67	24.44	-41.3	-42.3	22.8	0.00e+00	90	41	0	904921088	54	6621
2026-01-24 02:00:46.69	300.92	24.36	-41.0	-42.0	23.0	0.00e+00	64	41	0	905969664	54	6406
2026-01-24 02:00:47.70	301.17	24.28	-40.9	-41.9	23.2	0.00e+00	90	41	0	908066816	54	6347
2026-01-24 02:00:48.71	301.42	24.21	-40.9	-41.8	23.2	0.00e+00	68	41	0	910163968	54	6290
2026-01-24 02:00:49.72	301.66	24.13	-40.4	-41.3	23.6	0.00e+00	90	41	0	912261120	54	5962
2026-01-24 02:00:50.73	301.91	24.05	-40.4	-41.3	23.6	0.00e+00	24	41	0	913309696	54	5939
2026-01-24 02:00:51.74	302.16	23.97	-40.5	-41.5	23.5	0.00e+00	63	41	0	915406848	54	6041
2026-01-24 02:00:52.76	302.40	23.89	-40.5	-41.4	23.5	0.00e+00	92	41	0	917504000	54	6004
2026-01-24 02:00:53.76	302.64	23.81	-40.7	-41.6	23.3	0.00e+00	70	41	0	919601152	54	6121
2026-01-24 02:00:54.77	302.89	23.73	-40.6	-41.5	23.4	0.00e+00	90	41	0	921698304	54	6084
2026-01-24 02:00:55.78	303.13	23.65	-40.8	-41.7	23.1	0.00e+00	11	41	0	922746880	54	6210
2026-01-24 02:00:56.79	303.37	23.57	-41.0	-41.9	23.0	0.00e+00	91	41	0	924844032	54	6375
2026-01-24 02:00:57.80	303.61	23.49	-41.1	-42.1	22.9	0.00e+00	63	41	0	926941184	54	6465
2026-01-24 02:00:58.81	303.84	23.41	-41.2	-42.2	22.8	0.00e+00	0	41	0	929038336	54	6591
2026-01-24 02:00:59.82	304.08	23.33	-40.9	-41.9	23.1	0.00e+00	91	41	0	931135488	54	6359
2026-01-24 02:01:00.83	304.31	23.25	-40.6	-41.5	23.5	0.00e+00	0	41	0	933232640	54	6091
2026-01-24 02:01:01.84	304.55	23.16	-40.5	-41.4	23.4	0.00e+00	92	41	0	934281216	54	6023
2026-01-24 02:01:02.85	304.78	23.08	-40.4	-41.3	23.6	0.00e+00	0	41	0	936378368	54	5910
2026-01-24 02:01:03.85	305.01	23.00	-40.2	-41.1	23.8	0.00e+00	92	41	0	938475520	54	5773
2026-01-24 02:01:04.86	305.24	22.92	-40.6	-41.5	23.5	0.00e+00	0	41	0	940572672	54	6046
2026-01-24 02:01:05.87	305.47	22.84	-40.8	-41.7	23.1	0.00e+00	90	41	0	942669824	54	6220
2026-01-24 02:01:06.88	305.69	22.75	-40.8	-41.8	23.2	0.00e+00	91	41	0	943718400	54	6265
2026-01-24 02:01:07.89	305.92	22.67	-41.0	-41.9	23.1	0.00e+00	0	41	0	945815552	54	6356
2026-01-24 02:01:08.90	306.15	22.59	-40.8	-41.8	23.2	0.00e+00	91	41	0	947912704	54	6271
2026-01-24 02:01:09.91	306.37	22.50	-40.9	-41.8	23.1	0.00e+00	69	41	0	950009856	54	6280
2026-01-24 02:01:10.92	306.59	22.42	-40.6	-41.5	23.4	0.00e+00	91	41	0	952107008	54	6097
2026-01-24 02:01:11.93	306.82	22.34	-40.8	-41.8	23.1	0.00e+00	0	41	0	953155584	54	6256
2026-01-24 02:01:12.94	307.04	22.25	-41.5	-42.5	22.5	0.00e+00	92	41	0	955252736	54	6812
2026-01-24 02:01:13.95	307.26	22.17	-41.9	-43.0	22.2	0.00e+00	69	41	0	957349888	56	6419
2026-01-24 02:01:14.96	307.47	22.08	-42.2	-43.3	22.0	0.00e+00	0	41	0	959447040	56	6616
2026-01-24 02:01:15.97	307.69	22.00	-42.2	-43.4	21.8	0.00e+00	90	41	0	961544192	56	6694
2026-01-24 02:01:16.98	307.91	21.92	-42.0	-43.0	22.2	0.00e+00	13	41	0	962592768	56	6453
2026-01-24 02:01:17.99	308.12	21.83	-41.9	-42.9	22.3	0.00e+00	92	41	0	964689920	56	6370
2026-01-24 02:01:19.00	308.33	21.75	-41.5	-42.5	22.6	0.00e+00	0	41	0	966787072	56	6069
2026-01-24 02:01:20.01	308.55	21.66	-41.6	-42.6	22.5	0.00e+00	92	41	0	968884224	56	6112
2026-01-24 02:01:21.02	308.76	21.58	-41.8	-42.8	22.3	0.00e+00	0	41	0	970981376	56	6280
2026-01-24 02:01:22.03	308.97	21.49	-42.3	-43.4	21.8	0.00e+00	68	41	0	972029952	56	6726
2026-01-24 02:01:23.04	309.18	21.41	-42.6	-43.8	21.4	0.00e+00	92	41	0	974127104	56	7026
2026-01-24 02:01:24.05	309.39	21.32	-42.7	-43.9	21.3	0.00e+00	0	41	0	976224256	56	7091
2026-01-24 02:01:25.06	309.59	21.24	-42.6	-43.8	21.3	0.00e+00	90	42	0	978321408	56	7036
2026-01-24 02:01:26.07	309.80	21.15	-42.3	-43.5	21.7	0.00e+00	0	41	0	980418560	56	6784
2026-01-24 02:01:27.08	310.00	21.07	-42.0	-43.0	22.1	0.00e+00	90	42	0	981467136	56	6439
2026-01-24 02:01:28.09	310.21	20.98	-41.7	-42.7	22.4	0.00e+00	0	41	0	983564288	56	6207
2026-01-24 02:01:29.10	310.41	20.90	-41.7	-42.8	22.4	0.00e+00	92	41	0	985661440	56	6247
2026-01-24 02:01:30.11	310.61	20.81	-41.8	-42.8	22.3	0.00e+00	92	41	0	987758592	56	6295
2026-01-24 02:01:31.12	310.81	20.73	-42.1	-43.1	22.0	0.00e+00	0	41	0	989855744	56	6539
2026-01-24 02:01:32.13	311.01	20.64	-42.3	-43.4	21.8	0.00e+00	92	41	0	990904320	56	6714
2026-01-24 02:01:33.14	311.21	20.55	-42.1	-43.2	22.0	0.00e+00	11	41	0	993001472	56	6575
2026-01-24 02:01:34.15	311.41	20.47	-41.9	-43.0	22.2	0.00e+00	92	41	0	995098624	56	6399
2026-01-24 02:01:35.16	311.60	20.38	-41.5	-42.5	22.6	0.00e+00	13	41	0	997195776	56	6075
2026-01-24 02:01:36.16	311.79	20.30	-41.2	-42.2	22.8	0.00e+00	92	41	0	999292928	56	5876
2026-01-24 02:01:37.17	311.99	20.21	-41.1	-42.0	23.0	0.00e+00	69	41	0	1001390080	56	5726
2026-01-24 02:01:38.18	312.18	20.13	-41.1	-42.1	23.0	0.00e+00	0	41	0	1002438656	56	5767
2026-01-24 02:01:39.19	312.37	20.04	-41.6	-42.6	22.4	0.00e+00	92	42	0	1004535808	56	6168
2026-01-24 02:01:40.20	312.56	19.96	-42.2	-43.3	21.7	0.00e+00	0	41	0	1006632960	56	6677
2026-01-24 02:01:41.21	312.75	19.87	-42.5	-43.6	21.5	0.00e+00	92	42	0	1008730112	56	6913
2026-01-24 02:01:42.22	312.94	19.78	-42.7	-44.0	21.3	0.00e+00	0	41	0	1010827264	58	6392
2026-01-24 02:01:43.23	313.13	19.70	-42.3	-43.4	21.7	0.00e+00	92	41	0	1011875840	58	6002
2026-01-24 02:01:44.24	313.32	19.61	-42.2	-43.3	21.8	0.00e+00	12	41	0	1013972992	58	5925
2026-01-24 02:01:45.25	313.50	19.53	-41.6	-42.6	22.5	0.00e+00	9	41	0	1016070144	56	6154
2026-01-24 02:01:46.26	313.69	19.44	-41.3	-42.3	22.7	0.00e+00	92	41	0	1018167296	56	5958
2026-01-24 02:01:47.27	313.87	19.35	-41.4	-42.4	22.7	0.00e+00	0	41	0	1020264448	56	5979
2026-01-24 02:01:48.28	314.05	19.27	-41.5	-42.6	22.5	0.00e+00	91	41	0	1021313024	56	6107
2026-01-24 02:01:49.28	314.23	19.18	-41.6	-42.6	22.4	0.00e+00	67	41	0	1023410176	56	6173
2026-01-24 02:01:50.30	314.42	19.10	-42.0	-43.1	22.0	0.00e+00	92	41	0	1025507328	56	6488
2026-01-24 02:01:51.30	314.59	19.01	-42.4	-43.5	21.6	0.00e+00	0	41	0	1027604480	56	6813
2026-01-24 02:01:52.31	314.77	18.93	-42.5	-43.7	21.4	0.00e+00	67	42	0	1029701632	56	6972
2026-01-24 02:01:53.32	314.95	18.84	-42.3	-43.5	21.6	0.00e+00	92	41	0	1030750208	56	6802
2026-01-24 02:01:54.33	315.13	18.76	-42.1	-43.2	21.9	0.00e+00	0	41	0	1032847360	56	6552
2026-01-24 02:01:55.34	315.30	18.67	-41.8	-42.8	22.3	0.00e+00	92	41	0	1034944512	56	6295
2026-01-24 02:01:56.35	315.48	18.58	-41.3	-42.3	22.7	0.00e+00	66	41	0	1037041664	56	5910
2026-01-24 02:01:57.36	315.65	18.50	-41.2	-42.2	22.8	0.00e+00	92	41	0	1039138816	56	5834
2026-01-24 02:01:58.37	315.82	18.41	-41.3	-42.3	22.5	0.00e+00	66	41	0	1040187392	56	5903
2026-01-24 02:01:59.38	315.99	18.33	-41.2	-42.2	22.7	0.00e+00	92	41	0	1042284544	56	5855
2026-01-24 02:02:00.39	316.17	18.24	-41.4	-42.4	22.6	0.00e+00	24	41	0	1044381696	56	6007
2026-01-24 02:02:01.40	316.34	18.16	-41.5	-42.6	22.4	0.00e+00	6	41	0	1046478848	56	6105
2026-01-24 02:02:02.41	316.51	18.07	-41.5	-42.6	22.5	0.00e+00	92	41	0	1048576000	56	6117
2026-01-24 02:02:03.42	316.67	17.99	-41.5	-42.6	22.5	0.00e+00	6	41	0	1049624576	56	6126
2026-01-24 02:02:04.43	316.84	17.90	-41.3	-42.2	22.7	0.00e+00	92	41	0	1051721728	56	5885
2026-01-24 02:02:05.43	317.01	17.82	-41.3	-42.3	22.7	0.00e+00	0	42	0	1053818880	56	5927
2026-01-24 02:02:06.44	317.17	17.73	-41.6	-42.6	22.5	0.00e+00	92	41	0	1055916032	56	6122
2026-01-24 02:02:07.45	317.34	17.65	-41.5	-42.5	22.5	0.00e+00	0	41	0	1058013184	56	6103
2026-01-24 02:02:08.46	317.50	17.56	-41.5	-42.5	22.4	0.00e+00	6	41	0	1059061760	56	6098
2026-01-24 02:02:09.47	317.66	17.48	-41.5	-42.5	22.4	0.00e+00	92	41	0	1061158912	56	6100
2026-01-24 02:02:10.48	317.82	17.39	-41.7	-42.8	22.2	0.00e+00	0	41	0	1063256064	56	6256
2026-01-24 02:02:11.49	317.98	17.31	-41.7	-42.7	22.3	0.00e+00	91	42	0	1065353216	56	6229
2026-01-24 02:02:12.50	318.15	17.22	-41.7	-42.7	22.4	0.00e+00	0	41	0	1067450368	56	6215
2026-01-24 02:02:13.51	318.30	17.14	-41.7	-42.7	22.3	0.00e+00	91	41	0	1069547520	56	6203
2026-01-24 02:02:14.52	318.46	17.06	-41.5	-42.5	22.5	0.00e+00	44	42	0	1070596096	56	6079
2026-01-24 02:02:15.53	318.62	16.97	-41.4	-42.4	22.5	0.00e+00	92	41	0	1072693248	56	5990
2026-01-24 02:02:16.54	318.78	16.89	-41.4	-42.4	22.6	0.00e+00	92	41	0	1074790400	56	5991
2026-01-24 02:02:17.55	318.93	16.80	-41.3	-42.3	22.6	0.00e+00	5	41	0	1076887552	56	5939
2026-01-24 02:02:18.56	319.09	16.72	-40.9	-41.9	23.0	0.00e+00	92	41	0	1078984704	56	5661
2026-01-24 02:02:19.57	319.24	16.64	-40.7	-41.7	23.2	0.00e+00	66	41	0	1080033280	56	5517
2026-01-24 02:02:20.58	319.40	16.55	-40.7	-41.6	23.2	0.00e+00	91	41	0	1082130432	54	6157
2026-01-24 02:02:21.59	319.55	16.47	-40.7	-41.6	23.2	0.00e+00	20	41	0	1084227584	54	6160
2026-01-24 02:02:22.60	319.70	16.38	-40.9	-41.8	23.0	0.00e+00	76	41	0	1086324736	54	6299
2026-01-24 02:02:23.61	319.85	16.30	-40.9	-41.9	22.9	0.00e+00	90	41	0	1088421888	54	6329
2026-01-24 02:02:24.62	320.00	16.22	-40.9	-41.9	23.0	0.00e+00	6	42	0	1089470464	54	6342
2026-01-24 02:02:25.62	320.15	16.14	-40.9	-41.8	23.0	0.00e+00	92	42	0	1091567616	54	6315
2026-01-24 02:02:26.63	320.30	16.05	-41.0	-41.9	22.9	0.00e+00	0	41	0	1093664768	54	6382
2026-01-24 02:02:27.64	320.45	15.97	-40.9	-41.8	23.0	0.00e+00	92	41	0	1095761920	54	6290
2026-01-24 02:02:28.65	320.59	15.89	-40.8	-41.8	23.1	0.00e+00	0	41	0	1097859072	54	6278
2026-01-24 02:02:29.66	320.74	15.80	-40.9	-41.9	22.9	0.00e+00	90	41	0	1098907648	54	6367
2026-01-24 02:02:30.67	320.88	15.72	-40.8	-41.8	23.0	0.00e+00	0	41	0	1101004800	54	6258
2026-01-24 02:02:31.68	321.03	15.64	-40.8	-41.7	23.1	0.00e+00	6	41	0	1103101952	54	6216
2026-01-24 02:02:32.69	321.17	15.56	-40.8	-41.7	23.0	0.00e+00	92	41	0	1105199104	54	6223
2026-01-24 02:02:33.70	321.31	15.47	-40.8	-41.8	23.0	0.00e+00	66	41	0	1107296256	54	6260
2026-01-24 02:02:34.71	321.46	15.39	-40.6	-41.6	23.2	0.00e+00	92	41	0	1108344832	54	6104
2026-01-24 02:02:35.72	321.60	15.31	-40.7	-41.7	23.1	0.00e+00	0	41	0	1110441984	54	6195
2026-01-24 02:02:36.73	321.74	15.23	-40.9	-41.8	23.0	0.00e+00	92	41	0	1112539136	54	6317
2026-01-24 02:02:37.74	321.88	15.14	-40.9	-41.8	22.9	0.00e+00	57	41	0	1114636288	54	6293
2026-01-24 02:02:38.75	322.02	15.06	-40.9	-41.9	22.9	0.00e+00	14	41	0	1116733440	54	6338
2026-01-24 02:02:39.75	322.16	14.98	-41.0	-42.0	22.8	0.00e+00	91	42	0	1117782016	54	6445
2026-01-24 02:02:40.77	322.30	14.90	-41.1	-42.1	22.7	0.00e+00	14	41	0	1119879168	54	6499
2026-01-24 02:02:41.77	322.43	14.82	-41.2	-42.2	22.6	0.00e+00	90	41	0	1121976320	54	6556
2026-01-24 02:02:42.78	322.57	14.74	-41.2	-42.2	22.5	0.00e+00	2	41	0	1124073472	54	6609
2026-01-24 02:02:43.79	322.70	14.66	-41.3	-42.3	22.5	0.00e+00	91	41	0	1126170624	54	6659
2026-01-24 02:02:44.80	322.84	14.58	-41.3	-42.4	22.5	0.00e+00	2	41	0	1127219200	54	6699
2026-01-24 02:02:45.81	322.97	14.49	-41.4	-42.4	22.5	0.00e+00	91	41	0	1129316352	54	6726
2026-01-24 02:02:46.82	323.11	14.41	-41.3	-42.4	22.4	0.00e+00	87	41	0	1131413504	54	6694
2026-01-24 02:02:47.83	323.24	14.33	-41.2	-42.2	22.6	0.00e+00	0	41	0	1133510656	54	6601
2026-01-24 02:02:48.85	323.37	14.25	-41.3	-42.3	22.5	0.00e+00	92	41	0	1135607808	54	6662
2026-01-24 02:02:49.86	323.50	14.17	-41.3	-42.3	22.5	0.00e+00	0	41	0	1137704960	54	6625
2026-01-24 02:02:50.87	323.63	14.09	-41.5	-42.5	22.3	0.00e+00	92	42	0	1138753536	54	6799
2026-01-24 02:02:51.88	323.76	14.01	-41.3	-42.3	22.5	0.00e+00	0	42	0	1140850688	54	6663
2026-01-24 02:02:52.89	323.89	13.93	-41.4	-42.4	22.3	0.00e+00	92	41	0	1142947840	54	6748
2026-01-24 02:02:53.90	324.02	13.85	-41.3	-42.3	22.5	0.00e+00	0	42	0	1145044992	54	6688
2026-01-24 02:02:54.91	324.15	13.77	-41.2	-42.2	22.5	0.00e+00	66	41	0	1147142144	54	6598
2026-01-24 02:02:55.92	324.28	13.69	-41.3	-42.4	22.4	0.00e+00	92	41	0	1148190720	54	6700
2026-01-24 02:02:56.93	324.41	13.61	-41.4	-42.4	22.3	0.00e+00	0	41	0	1150287872	54	6736
2026-01-24 02:02:57.94	324.53	13.53	-41.4	-42.5	22.2	0.00e+00	90	41	0	1152385024	54	6789
2026-01-24 02:02:58.95	324.66	13.45	-41.4	-42.4	22.4	0.00e+00	0	42	0	1154482176	54	6757
2026-01-24 02:02:59.95	324.78	13.38	-41.1	-42.2	22.6	0.00e+00	92	41	0	1156579328	54	6544
2026-01-24 02:03:00.96	324.90	13.30	-41.4	-42.4	22.4	0.00e+00	64	41	0	1157627904	54	6716
2026-01-24 02:03:01.97	325.03	13.22	-41.4	-42.4	22.4	0.00e+00	83	41	0	1159725056	54	6754
2026-01-24 02:03:02.98	325.15	13.14	-41.4	-42.5	22.3	0.00e+00	92	41	0	1161822208	54	6770
2026-01-24 02:03:03.99	325.27	13.06	-41.6	-42.7	22.1	0.00e+00	15	41	0	1163919360	54	6940
2026-01-24 02:03:05.00	325.40	12.98	-41.7	-42.8	21.9	0.00e+00	92	41	0	1166016512	54	7077
2026-01-24 02:03:06.01	325.52	12.90	-42.1	-43.2	21.7	0.00e+00	0	41	0	1167065088	56	6609
2026-01-24 02:03:07.02	325.64	12.83	-42.0	-43.2	21.7	0.00e+00	0	41	0	1169162240	56	6544
2026-01-24 02:03:08.03	325.76	12.75	-42.2	-43.4	21.5	0.00e+00	15	41	0	1171259392	56	6700
2026-01-24 02:03:09.04	325.88	12.67	-42.5	-43.7	21.2	0.00e+00	0	41	0	1173356544	56	6952
2026-01-24 02:03:10.05	325.99	12.59	-42.4	-43.6	21.3	0.00e+00	82	41	0	1175453696	56	6905
2026-01-24 02:03:11.06	326.11	12.52	-42.7	-43.9	21.0	0.00e+00	0	41	0	1176502272	56	7154
2026-01-24 02:03:12.07	326.23	12.44	-42.8	-44.1	20.8	0.00e+00	92	41	0	1178599424	58	6509
2026-01-24 02:03:13.07	326.35	12.36	-42.8	-44.1	20.7	0.00e+00	0	41	0	1180696576	58	6505
2026-01-24 02:03:14.09	326.46	12.28	-42.9	-44.2	20.6	0.00e+00	2	41	0	1182793728	58	6610
