passes_logs/2026/01/24/R4.6S_Anadyr/R4.6S_Anadyr__20260124_201427_SUOMI_NPP_rec.log

#Pass ID: 20260124_201427_SUOMI NPP
#Satellite: SUOMI NPP
#Configuration: NPP
#almurnet v.1.7.20251203
#Start time: 2026-01-24 20:14:27

#Version: 2.2.20231116
#Station: R4.6S_Anadyr
#Location: 177.4865 lon 64.73178 lat
#TLE: 1 37849U 11061A   26024.12615439  .00000221  00000+0  12601-3 0  9992
#TLE: 2 37849  98.7821 326.0966 0002215  48.1259 312.0106 14.19529288738009

#Time	Az	El	Level	Level2	SNR	BER	BlckErr	Temp	State	Recorded	gain1	gain2
2026-01-24 20:14:27.76	65.11	0.03	-53.0	-64.7	3.5	8.46e-01	0	39	0	0	60	61747
2026-01-24 20:14:28.76	65.04	0.08	-53.7	-68.9	3.6	1.51e+00	0	40	104	0	60	100581
2026-01-24 20:14:29.77	64.96	0.13	-53.8	-69.0	3.6	1.51e+00	0	40	104	0	60	102217
2026-01-24 20:14:30.78	64.89	0.18	-53.2	-68.4	3.6	1.51e+00	0	40	104	0	60	94997
2026-01-24 20:14:31.79	64.81	0.23	-53.7	-68.8	3.6	1.51e+00	0	40	104	0	60	99781
2026-01-24 20:14:32.80	64.74	0.28	-53.8	-69.0	3.6	1.51e+00	0	40	104	0	60	102083
2026-01-24 20:14:33.81	64.66	0.33	-53.7	-68.9	3.6	1.51e+00	0	40	104	0	60	100953
2026-01-24 20:14:34.82	64.58	0.38	-53.6	-68.8	3.6	1.51e+00	0	40	104	0	60	99814
2026-01-24 20:14:35.83	64.51	0.43	-53.4	-68.6	3.6	1.51e+00	0	40	104	0	60	97734
2026-01-24 20:14:36.84	64.43	0.48	-53.3	-68.5	3.6	1.51e+00	0	40	104	0	60	96205
2026-01-24 20:14:37.85	64.36	0.53	-53.2	-68.4	3.6	1.51e+00	0	40	104	0	60	94803
2026-01-24 20:14:38.86	64.28	0.58	-53.0	-68.2	3.6	1.51e+00	0	40	104	0	60	92807
2026-01-24 20:14:39.88	64.20	0.63	-52.5	-67.6	3.6	1.51e+00	0	40	104	0	60	87206
2026-01-24 20:14:40.88	64.12	0.68	-52.1	-67.3	3.6	1.51e+00	0	40	104	0	60	84201
2026-01-24 20:14:41.89	64.05	0.73	-52.1	-67.3	3.6	1.51e+00	0	40	104	0	60	83318
2026-01-24 20:14:42.90	63.97	0.78	-51.9	-67.1	3.6	1.51e+00	0	40	104	0	60	81706
2026-01-24 20:14:43.92	63.89	0.83	-51.9	-67.1	3.6	1.51e+00	0	40	104	0	60	81944
2026-01-24 20:14:44.93	63.81	0.88	-51.7	-66.9	3.6	1.51e+00	0	40	104	0	60	80314
2026-01-24 20:14:45.94	63.73	0.93	-51.6	-66.8	3.6	1.51e+00	0	40	104	0	60	78787
2026-01-24 20:14:46.95	63.65	0.98	-51.5	-66.7	3.6	1.51e+00	0	40	104	0	60	78285
2026-01-24 20:14:47.96	63.57	1.03	-51.4	-66.6	3.6	1.51e+00	0	40	104	0	60	76929
2026-01-24 20:14:48.97	63.49	1.08	-51.4	-66.7	3.6	1.51e+00	0	40	104	0	60	78209
2026-01-24 20:14:49.98	63.41	1.13	-51.2	-66.5	3.6	1.51e+00	0	40	104	0	60	75996
2026-01-24 20:14:50.99	63.33	1.18	-51.1	-66.3	3.6	1.51e+00	0	41	104	0	60	74715
2026-01-24 20:14:51.99	63.25	1.23	-50.9	-66.0	3.6	1.51e+00	0	40	104	0	60	72410
2026-01-24 20:14:53.00	63.17	1.28	-50.4	-65.5	3.6	1.51e+00	0	40	104	0	60	68429
2026-01-24 20:14:54.01	63.09	1.33	-50.1	-65.3	3.6	1.51e+00	0	41	104	0	60	66195
2026-01-24 20:14:55.02	63.01	1.38	-50.2	-65.4	3.6	1.51e+00	0	40	104	0	60	67243
2026-01-24 20:14:56.03	62.93	1.43	-50.3	-65.4	3.6	1.51e+00	0	40	104	0	60	67391
2026-01-24 20:14:57.04	62.84	1.48	-50.2	-65.4	3.6	1.51e+00	0	41	104	0	60	67092
2026-01-24 20:14:58.05	62.76	1.53	-50.3	-65.4	3.6	1.51e+00	0	40	104	0	60	67187
2026-01-24 20:14:59.06	62.68	1.58	-50.3	-65.4	3.6	1.51e+00	0	41	104	0	60	67415
2026-01-24 20:15:00.07	62.60	1.63	-50.3	-65.3	3.6	1.51e+00	0	41	104	0	60	66648
2026-01-24 20:15:01.08	62.51	1.68	-50.2	-65.4	3.6	1.51e+00	0	41	104	0	60	67087
2026-01-24 20:15:02.09	62.43	1.73	-50.2	-65.3	3.6	1.51e+00	0	41	104	0	60	66564
2026-01-24 20:15:03.10	62.35	1.79	-50.1	-65.2	3.6	1.51e+00	0	41	104	0	60	65613
2026-01-24 20:15:04.11	62.26	1.84	-50.1	-65.2	3.6	1.51e+00	0	41	104	0	60	66065
2026-01-24 20:15:05.12	62.18	1.89	-50.1	-65.3	3.6	1.51e+00	0	41	104	0	60	66610
2026-01-24 20:15:06.13	62.09	1.94	-50.2	-65.3	3.6	1.51e+00	0	41	104	0	60	66671
2026-01-24 20:15:07.14	62.01	1.99	-50.1	-65.2	3.6	1.51e+00	0	41	104	0	60	65850
2026-01-24 20:15:08.15	61.92	2.04	-50.1	-65.2	3.6	1.51e+00	0	41	104	0	60	65963
2026-01-24 20:15:09.16	61.84	2.09	-50.0	-65.1	3.6	1.51e+00	0	41	104	0	60	65084
2026-01-24 20:15:10.17	61.75	2.14	-50.0	-64.9	3.6	1.51e+00	0	41	104	0	60	63438
2026-01-24 20:15:11.18	61.66	2.19	-50.1	-65.0	3.6	1.51e+00	0	41	104	0	60	64253
2026-01-24 20:15:12.19	61.58	2.24	-50.0	-64.9	3.6	1.51e+00	0	41	104	0	60	63815
2026-01-24 20:15:13.20	61.49	2.29	-50.0	-65.1	3.6	1.51e+00	0	41	104	0	60	65321
2026-01-24 20:15:14.21	61.40	2.35	-50.0	-65.1	3.6	1.51e+00	0	41	104	0	60	65243
2026-01-24 20:15:15.22	61.32	2.40	-50.0	-65.2	3.6	1.51e+00	0	41	104	0	60	65496
2026-01-24 20:15:16.23	61.23	2.45	-50.0	-65.1	3.6	1.51e+00	0	41	104	0	60	65232
2026-01-24 20:15:17.24	61.14	2.50	-50.0	-65.2	3.6	1.51e+00	0	41	104	0	60	65747
2026-01-24 20:15:18.25	61.05	2.55	-50.0	-65.1	3.6	1.51e+00	0	41	104	0	60	65094
2026-01-24 20:15:19.26	60.96	2.60	-50.1	-65.3	3.6	1.51e+00	0	41	104	0	60	66284
2026-01-24 20:15:20.27	60.87	2.65	-50.0	-65.1	3.6	1.51e+00	0	41	104	0	60	64666
2026-01-24 20:15:21.28	60.79	2.70	-50.0	-63.9	3.6	1.51e+00	0	41	104	0	60	56945
2026-01-24 20:15:22.29	60.70	2.75	-50.0	-64.4	3.6	1.51e+00	0	41	104	0	60	60043
2026-01-24 20:15:23.30	60.61	2.81	-50.0	-65.0	3.6	1.51e+00	0	41	104	0	60	64111
2026-01-24 20:15:24.31	60.51	2.86	-49.9	-61.9	3.7	1.51e+00	0	41	104	0	60	45018
2026-01-24 20:15:25.32	60.42	2.91	-49.6	-58.6	4.9	4.72e-01	92	41	0	0	60	30881
2026-01-24 20:15:26.33	60.33	2.96	-49.4	-57.1	6.3	2.35e-01	7	41	0	2097152	60	25749
2026-01-24 20:15:27.34	60.24	3.01	-47.3	-50.7	13.7	6.49e-02	28	41	0	4194304	60	12347
2026-01-24 20:15:28.35	60.15	3.06	-47.6	-51.4	11.8	0.00e+00	91	41	0	5242880	60	13453
2026-01-24 20:15:29.36	60.06	3.11	-50.3	-64.7	3.6	1.51e+00	0	41	104	6291456	60	61984
2026-01-24 20:15:30.37	59.97	3.17	-46.5	-49.3	15.3	4.64e-01	92	41	104	6291456	60	10517
2026-01-24 20:15:31.38	59.87	3.22	-49.9	-64.8	3.6	9.80e-01	0	41	104	6291456	60	62795
2026-01-24 20:15:32.39	59.78	3.27	-49.7	-60.4	4.2	1.51e+00	0	41	104	6291456	60	38017
2026-01-24 20:15:33.40	59.69	3.32	-47.5	-51.4	12.7	3.60e-01	0	41	104	6291456	60	13476
2026-01-24 20:15:34.40	59.59	3.37	-48.9	-54.9	9.9	1.14e-02	92	41	0	7340032	60	20182
2026-01-24 20:15:35.41	59.50	3.42	-48.2	-52.9	11.5	5.82e-03	91	41	0	9437184	60	15991
2026-01-24 20:15:36.42	59.41	3.47	-47.9	-52.2	11.6	8.62e-04	0	41	0	11534336	60	14664
2026-01-24 20:15:37.43	59.31	3.53	-48.7	-54.4	9.5	3.13e-04	91	41	0	12582912	60	18883
2026-01-24 20:15:38.44	59.22	3.58	-48.5	-53.7	10.4	3.55e-03	0	41	0	14680064	60	17482
2026-01-24 20:15:39.45	59.12	3.63	-47.4	-50.9	13.3	1.29e-05	90	41	0	16777216	60	12676
2026-01-24 20:15:40.46	59.02	3.68	-46.5	-49.3	14.4	7.00e-07	0	41	0	18874368	60	10493
2026-01-24 20:15:41.47	58.93	3.73	-47.5	-51.1	13.0	8.44e-04	92	41	0	20971520	60	12967
2026-01-24 20:15:42.48	58.83	3.79	-47.5	-51.0	12.8	3.71e-04	92	41	0	22020096	60	12844
2026-01-24 20:15:43.49	58.74	3.84	-47.9	-51.9	12.3	8.54e-05	0	41	0	24117248	60	14227
2026-01-24 20:15:44.50	58.64	3.89	-48.5	-53.3	10.9	1.29e-04	92	41	0	26214400	60	16761
2026-01-24 20:15:45.51	58.54	3.94	-48.3	-52.8	11.5	1.86e-04	0	41	0	28311552	60	15830
2026-01-24 20:15:46.52	58.44	3.99	-46.6	-49.3	15.0	4.11e-05	92	41	0	30408704	60	10591
2026-01-24 20:15:47.53	58.34	4.04	-47.0	-50.0	13.8	0.00e+00	0	41	0	31457280	60	11410
2026-01-24 20:15:48.54	58.25	4.10	-46.7	-49.5	15.5	2.20e-06	92	41	0	33554432	60	10801
2026-01-24 20:15:49.54	58.15	4.15	-46.5	-49.1	15.8	0.00e+00	1	41	0	35651584	60	10327
2026-01-24 20:15:50.55	58.05	4.20	-46.2	-48.6	14.9	0.00e+00	0	41	0	37748736	60	9756
2026-01-24 20:15:51.56	57.95	4.25	-48.4	-52.9	11.8	5.28e-04	92	41	0	39845888	60	15896
2026-01-24 20:15:52.57	57.85	4.30	-47.6	-51.0	14.2	1.11e-04	0	41	0	41943040	60	12782
2026-01-24 20:15:53.58	57.75	4.36	-47.6	-51.2	13.0	6.10e-06	71	41	0	42991616	60	13082
2026-01-24 20:15:54.59	57.65	4.41	-44.4	-46.1	19.2	1.83e-05	0	41	0	45088768	60	7333
2026-01-24 20:15:55.60	57.55	4.46	-46.9	-49.8	13.8	0.00e+00	92	41	0	47185920	60	11171
2026-01-24 20:15:56.61	57.45	4.51	-46.7	-49.4	15.3	4.50e-06	2	41	0	49283072	60	10607
2026-01-24 20:15:57.62	57.34	4.56	-46.4	-48.9	15.5	0.00e+00	0	41	0	51380224	60	10093
2026-01-24 20:15:58.63	57.24	4.62	-46.9	-49.7	14.8	0.00e+00	90	41	0	52428800	60	11098
2026-01-24 20:15:59.64	57.14	4.67	-45.6	-47.7	16.8	0.00e+00	0	41	0	54525952	60	8775
2026-01-24 20:16:00.65	57.04	4.72	-45.4	-47.5	17.1	0.00e+00	92	41	0	56623104	60	8578
2026-01-24 20:16:01.66	56.93	4.77	-46.1	-48.5	16.1	0.00e+00	0	41	0	58720256	60	9563
2026-01-24 20:16:02.67	56.83	4.82	-46.4	-48.9	15.8	3.00e-06	92	41	0	60817408	60	10088
2026-01-24 20:16:03.68	56.72	4.88	-45.4	-47.5	17.0	0.00e+00	5	41	0	61865984	60	8527
2026-01-24 20:16:04.68	56.62	4.93	-46.4	-49.0	15.5	0.00e+00	0	41	0	63963136	60	10152
2026-01-24 20:16:05.69	56.52	4.98	-47.0	-50.0	14.7	0.00e+00	92	41	0	66060288	60	11417
2026-01-24 20:16:06.70	56.41	5.03	-43.8	-45.4	19.0	0.00e+00	0	41	0	68157440	60	6764
2026-01-24 20:16:07.71	56.30	5.09	-45.3	-47.4	16.9	0.00e+00	43	41	0	70254592	60	8477
2026-01-24 20:16:08.72	56.20	5.14	-45.8	-48.1	16.6	0.00e+00	0	41	0	71303168	60	9155
2026-01-24 20:16:09.73	56.09	5.19	-44.9	-46.8	17.7	0.00e+00	92	41	0	73400320	60	7931
2026-01-24 20:16:10.74	55.98	5.24	-44.8	-46.7	17.9	0.00e+00	0	41	0	75497472	60	7807
2026-01-24 20:16:11.75	55.88	5.29	-44.8	-46.7	17.9	0.00e+00	0	41	0	77594624	60	7820
2026-01-24 20:16:12.76	55.77	5.35	-44.9	-46.8	17.9	0.00e+00	84	41	0	79691776	60	7900
2026-01-24 20:16:13.77	55.66	5.40	-44.3	-46.1	18.5	0.00e+00	0	41	0	80740352	60	7273
2026-01-24 20:16:14.78	55.55	5.45	-44.5	-46.3	18.2	0.00e+00	22	41	0	82837504	60	7500
2026-01-24 20:16:15.79	55.44	5.50	-45.0	-46.8	17.9	0.00e+00	0	41	0	84934656	60	7952
2026-01-24 20:16:16.79	55.34	5.55	-44.6	-46.4	18.2	0.00e+00	78	41	0	87031808	60	7550
2026-01-24 20:16:17.80	55.23	5.61	-45.6	-47.7	16.9	0.00e+00	0	41	0	89128960	60	8801
2026-01-24 20:16:18.81	55.12	5.66	-45.9	-48.2	16.6	0.00e+00	92	41	0	90177536	60	9265
2026-01-24 20:16:19.82	55.01	5.71	-44.8	-46.7	17.9	0.00e+00	51	41	0	92274688	60	7783
2026-01-24 20:16:20.83	54.90	5.76	-44.3	-46.0	18.4	0.00e+00	0	41	0	94371840	60	7241
2026-01-24 20:16:21.84	54.78	5.82	-45.3	-47.4	17.3	0.00e+00	92	41	0	96468992	60	8500
2026-01-24 20:16:22.85	54.67	5.87	-44.7	-46.6	18.0	0.00e+00	0	41	0	98566144	60	7684
2026-01-24 20:16:23.86	54.56	5.92	-44.8	-46.7	17.9	0.00e+00	78	41	0	99614720	60	7798
2026-01-24 20:16:24.87	54.45	5.97	-45.1	-47.0	17.7	0.00e+00	0	41	0	101711872	60	8089
2026-01-24 20:16:25.88	54.33	6.03	-44.3	-45.9	18.5	0.00e+00	79	41	0	103809024	60	7165
2026-01-24 20:16:26.89	54.22	6.08	-45.5	-47.5	17.2	0.00e+00	92	41	0	105906176	60	8609
2026-01-24 20:16:27.90	54.11	6.13	-44.9	-46.7	17.9	0.00e+00	0	41	0	108003328	60	7859
2026-01-24 20:16:28.91	53.99	6.18	-44.2	-45.8	18.6	0.00e+00	37	41	0	109051904	60	7048
2026-01-24 20:16:29.92	53.88	6.24	-44.4	-46.1	18.6	0.00e+00	0	41	0	111149056	60	7256
2026-01-24 20:16:30.92	53.76	6.29	-44.4	-46.1	18.7	0.00e+00	78	41	0	113246208	60	7264
2026-01-24 20:16:31.93	53.65	6.34	-44.4	-46.1	18.6	0.00e+00	0	41	0	115343360	60	7300
2026-01-24 20:16:32.95	53.53	6.39	-44.1	-45.7	19.0	0.00e+00	92	41	0	117440512	60	6972
2026-01-24 20:16:33.95	53.42	6.44	-44.0	-45.5	19.3	0.00e+00	7	41	0	118489088	60	6816
2026-01-24 20:16:34.96	53.30	6.50	-44.0	-45.6	19.0	0.00e+00	0	41	0	120586240	60	6879
2026-01-24 20:16:35.97	53.18	6.55	-44.2	-45.8	18.9	0.00e+00	92	41	0	122683392	60	7022
2026-01-24 20:16:36.98	53.07	6.60	-44.1	-45.7	18.5	0.00e+00	0	41	0	124780544	60	7001
2026-01-24 20:16:37.99	52.95	6.65	-44.5	-46.2	18.5	0.00e+00	71	41	0	126877696	60	7340
2026-01-24 20:16:39.00	52.83	6.71	-43.7	-45.2	19.5	0.00e+00	0	41	0	127926272	60	6577
2026-01-24 20:16:40.01	52.71	6.76	-44.1	-45.6	19.0	0.00e+00	89	41	0	130023424	60	6917
2026-01-24 20:16:41.02	52.59	6.81	-43.6	-45.1	19.6	0.00e+00	57	41	0	132120576	60	6480
2026-01-24 20:16:42.03	52.47	6.86	-44.0	-45.6	18.9	0.00e+00	0	41	0	134217728	60	6896
2026-01-24 20:16:43.04	52.35	6.91	-43.9	-45.4	19.1	0.00e+00	65	41	0	136314880	60	6738
2026-01-24 20:16:44.05	52.23	6.97	-43.9	-45.5	19.1	0.00e+00	0	41	0	138412032	60	6803
2026-01-24 20:16:45.05	52.11	7.02	-44.5	-46.2	18.5	0.00e+00	22	41	0	139460608	60	7347
2026-01-24 20:16:46.06	51.99	7.07	-44.3	-46.0	18.7	0.00e+00	0	41	0	141557760	60	7182
2026-01-24 20:16:47.07	51.87	7.12	-44.1	-45.7	19.1	0.00e+00	71	41	0	143654912	60	6970
2026-01-24 20:16:48.08	51.74	7.17	-43.9	-45.4	19.3	0.00e+00	6	41	0	145752064	60	6730
2026-01-24 20:16:49.09	51.62	7.23	-44.1	-45.7	19.0	0.00e+00	0	41	0	147849216	60	7001
2026-01-24 20:16:50.10	51.50	7.28	-44.5	-46.2	18.6	0.00e+00	92	41	0	148897792	60	7412
2026-01-24 20:16:51.11	51.37	7.33	-44.5	-46.2	18.6	0.00e+00	0	41	0	150994944	60	7364
2026-01-24 20:16:52.12	51.25	7.38	-44.2	-45.8	19.0	0.00e+00	16	41	0	153092096	60	7045
2026-01-24 20:16:53.13	51.13	7.43	-43.9	-45.4	19.3	0.00e+00	7	41	0	155189248	60	6727
2026-01-24 20:16:54.14	51.00	7.49	-44.1	-45.7	19.1	0.00e+00	90	41	0	157286400	60	6961
2026-01-24 20:16:55.15	50.87	7.54	-44.0	-45.5	19.2	0.00e+00	0	41	0	158334976	60	6842
2026-01-24 20:16:56.16	50.75	7.59	-43.6	-45.1	19.7	0.00e+00	92	41	0	160432128	60	6476
2026-01-24 20:16:57.17	50.62	7.64	-43.9	-45.4	19.3	0.00e+00	92	41	0	162529280	60	6749
2026-01-24 20:16:58.18	50.49	7.69	-43.9	-45.4	19.2	0.00e+00	0	41	0	164626432	60	6755
2026-01-24 20:16:59.18	50.37	7.75	-44.1	-45.7	19.1	0.00e+00	69	41	0	166723584	60	6957
2026-01-24 20:17:00.19	50.24	7.80	-44.1	-45.6	19.1	0.00e+00	28	41	0	167772160	60	6918
2026-01-24 20:17:01.20	50.11	7.85	-43.9	-45.4	19.2	0.00e+00	62	41	0	169869312	60	6720
2026-01-24 20:17:02.21	49.98	7.90	-44.0	-45.6	19.1	0.00e+00	0	41	0	171966464	60	6851
2026-01-24 20:17:03.22	49.85	7.95	-44.3	-45.9	18.9	0.00e+00	90	41	0	174063616	60	7091
2026-01-24 20:17:04.23	49.72	8.00	-44.0	-45.5	19.2	0.00e+00	92	41	0	176160768	60	6826
2026-01-24 20:17:05.24	49.59	8.06	-44.1	-45.7	19.0	0.00e+00	0	41	0	177209344	60	6977
2026-01-24 20:17:06.26	49.46	8.11	-43.9	-45.5	19.2	0.00e+00	92	41	0	179306496	60	6770
2026-01-24 20:17:07.26	49.33	8.16	-44.1	-45.7	19.1	0.00e+00	0	41	0	181403648	60	6968
2026-01-24 20:17:08.27	49.20	8.21	-43.7	-45.1	19.6	0.00e+00	72	41	0	183500800	60	6529
2026-01-24 20:17:09.28	49.07	8.26	-44.3	-45.9	18.8	0.00e+00	0	41	0	185597952	60	7151
2026-01-24 20:17:10.29	48.94	8.31	-44.2	-45.7	19.1	0.00e+00	90	41	0	186646528	60	6994
2026-01-24 20:17:11.30	48.80	8.37	-43.6	-45.0	19.8	0.00e+00	9	41	0	188743680	60	6454
2026-01-24 20:17:12.31	48.67	8.42	-43.6	-45.0	19.7	0.00e+00	0	41	0	190840832	60	6461
2026-01-24 20:17:13.32	48.53	8.47	-44.0	-45.6	19.2	0.00e+00	70	41	0	192937984	60	6862
2026-01-24 20:17:14.33	48.40	8.52	-43.4	-44.8	20.2	0.00e+00	0	41	0	195035136	60	6262
2026-01-24 20:17:15.34	48.26	8.57	-43.4	-44.8	20.0	0.00e+00	46	41	0	196083712	60	6302
2026-01-24 20:17:16.35	48.13	8.62	-43.4	-44.8	19.9	0.00e+00	0	41	0	198180864	60	6296
2026-01-24 20:17:17.36	47.99	8.67	-43.4	-44.8	19.9	0.00e+00	82	41	0	200278016	60	6298
2026-01-24 20:17:18.37	47.86	8.72	-43.6	-45.0	19.9	0.00e+00	0	41	0	202375168	60	6463
2026-01-24 20:17:19.38	47.72	8.78	-44.0	-45.5	19.4	0.00e+00	0	41	0	204472320	60	6784
2026-01-24 20:17:20.39	47.58	8.83	-43.8	-45.2	19.5	0.00e+00	92	41	0	206569472	60	6605
2026-01-24 20:17:21.40	47.44	8.88	-44.0	-45.5	19.3	0.00e+00	0	41	0	207618048	60	6848
2026-01-24 20:17:22.41	47.31	8.93	-43.7	-45.2	19.6	0.00e+00	32	41	0	209715200	60	6564
2026-01-24 20:17:23.42	47.17	8.98	-43.9	-45.4	19.5	0.00e+00	0	41	0	211812352	60	6736
2026-01-24 20:17:24.43	47.03	9.03	-43.9	-45.4	19.3	0.00e+00	92	41	0	213909504	60	6730
2026-01-24 20:17:25.44	46.89	9.08	-44.0	-45.6	19.3	0.00e+00	0	41	0	216006656	60	6875
2026-01-24 20:17:26.45	46.75	9.13	-44.2	-45.9	19.1	0.00e+00	0	41	0	217055232	60	7105
2026-01-24 20:17:27.46	46.61	9.18	-44.5	-46.2	18.8	0.00e+00	90	41	0	219152384	60	7342
2026-01-24 20:17:28.47	46.46	9.23	-44.6	-46.2	18.7	0.00e+00	0	41	0	221249536	60	7415
2026-01-24 20:17:29.48	46.32	9.28	-44.5	-46.2	18.8	0.00e+00	31	41	0	223346688	60	7380
2026-01-24 20:17:30.49	46.18	9.33	-44.7	-46.4	18.8	0.00e+00	0	41	0	225443840	60	7594
2026-01-24 20:17:31.50	46.04	9.38	-44.4	-46.0	19.0	0.00e+00	89	41	0	226492416	60	7202
2026-01-24 20:17:32.51	45.89	9.43	-44.1	-45.6	19.4	0.00e+00	0	41	0	228589568	60	6901
2026-01-24 20:17:33.52	45.75	9.48	-43.7	-45.1	19.9	0.00e+00	0	41	0	230686720	60	6515
2026-01-24 20:17:34.53	45.61	9.53	-43.7	-45.1	19.7	0.00e+00	92	41	0	232783872	60	6488
2026-01-24 20:17:35.53	45.46	9.58	-43.4	-44.8	19.9	0.00e+00	0	41	0	234881024	60	6299
2026-01-24 20:17:36.54	45.32	9.63	-43.6	-45.0	19.9	0.00e+00	8	41	0	235929600	60	6455
2026-01-24 20:17:37.55	45.17	9.68	-43.7	-45.2	19.8	0.00e+00	0	41	0	238026752	60	6561
2026-01-24 20:17:38.56	45.02	9.73	-43.5	-44.9	19.7	0.00e+00	77	41	0	240123904	60	6376
2026-01-24 20:17:39.57	44.88	9.78	-43.6	-45.0	20.0	0.00e+00	0	41	0	242221056	60	6421
2026-01-24 20:17:40.58	44.73	9.83	-43.2	-44.5	20.4	0.00e+00	92	41	0	244318208	60	6084
2026-01-24 20:17:41.59	44.58	9.88	-43.0	-44.3	20.6	0.00e+00	5	41	0	245366784	60	5918
2026-01-24 20:17:42.60	44.43	9.93	-43.2	-44.5	20.4	0.00e+00	0	41	0	247463936	60	6062
2026-01-24 20:17:43.61	44.28	9.98	-42.8	-44.1	20.8	0.00e+00	90	41	0	249561088	60	5768
2026-01-24 20:17:44.62	44.13	10.03	-42.9	-44.2	20.6	0.00e+00	0	41	0	251658240	58	6549
2026-01-24 20:17:45.63	43.98	10.08	-42.9	-44.2	20.7	0.00e+00	82	41	0	253755392	58	6573
2026-01-24 20:17:46.64	43.83	10.13	-42.9	-44.2	20.6	0.00e+00	0	41	0	254803968	58	6577
2026-01-24 20:17:47.65	43.68	10.18	-42.5	-43.7	21.0	0.00e+00	52	41	0	256901120	58	6194
2026-01-24 20:17:48.66	43.53	10.23	-42.5	-43.7	21.0	0.00e+00	31	41	0	258998272	58	6223
2026-01-24 20:17:49.67	43.38	10.27	-42.4	-43.6	20.7	0.00e+00	0	41	0	261095424	58	6162
2026-01-24 20:17:50.68	43.23	10.32	-42.5	-43.7	21.0	0.00e+00	41	41	0	263192576	58	6208
2026-01-24 20:17:51.69	43.07	10.37	-42.0	-43.1	21.5	0.00e+00	0	41	0	264241152	58	5800
2026-01-24 20:17:52.70	42.92	10.42	-41.9	-43.1	21.6	0.00e+00	92	41	0	266338304	58	5762
2026-01-24 20:17:53.71	42.77	10.47	-41.8	-42.9	21.8	0.00e+00	0	41	0	268435456	58	5646
2026-01-24 20:17:54.72	42.61	10.52	-41.7	-42.8	21.9	0.00e+00	66	41	0	270532608	56	6264
2026-01-24 20:17:55.73	42.46	10.57	-41.7	-42.7	21.9	0.00e+00	2	41	0	272629760	56	6231
2026-01-24 20:17:56.74	42.30	10.61	-41.9	-43.0	21.7	0.00e+00	0	41	0	274726912	56	6397
2026-01-24 20:17:57.75	42.14	10.66	-42.1	-43.3	21.5	0.00e+00	90	41	0	275775488	56	6625
2026-01-24 20:17:58.76	41.99	10.71	-42.3	-43.5	21.3	0.00e+00	0	41	0	277872640	56	6794
2026-01-24 20:17:59.77	41.83	10.76	-42.3	-43.5	21.3	0.00e+00	79	41	0	279969792	56	6847
2026-01-24 20:18:00.78	41.67	10.80	-42.2	-43.4	21.4	0.00e+00	0	41	0	282066944	56	6743
2026-01-24 20:18:01.79	41.51	10.85	-42.0	-43.2	21.5	0.00e+00	71	41	0	284164096	56	6568
2026-01-24 20:18:02.80	41.35	10.90	-42.4	-43.6	21.2	0.00e+00	8	41	0	285212672	56	6902
2026-01-24 20:18:03.81	41.19	10.95	-42.4	-43.6	21.2	0.00e+00	0	41	0	287309824	56	6876
2026-01-24 20:18:04.82	41.03	10.99	-42.0	-43.2	21.6	0.00e+00	69	41	0	289406976	56	6577
2026-01-24 20:18:05.82	40.88	11.04	-42.6	-43.8	21.2	0.00e+00	0	41	0	291504128	56	7051
2026-01-24 20:18:06.83	40.71	11.09	-42.0	-43.2	21.5	0.00e+00	92	41	0	293601280	56	6548
2026-01-24 20:18:07.84	40.55	11.13	-41.8	-43.0	21.6	0.00e+00	0	41	0	294649856	56	6395
2026-01-24 20:18:08.85	40.39	11.18	-41.7	-42.8	21.9	0.00e+00	92	41	0	296747008	56	6273
2026-01-24 20:18:09.86	40.23	11.23	-41.9	-43.0	21.7	0.00e+00	0	41	0	298844160	56	6399
2026-01-24 20:18:10.87	40.07	11.27	-41.8	-42.9	22.0	0.00e+00	32	41	0	300941312	56	6346
2026-01-24 20:18:11.88	39.90	11.32	-41.7	-42.8	22.0	0.00e+00	90	41	0	303038464	56	6286
2026-01-24 20:18:12.89	39.74	11.37	-41.4	-42.4	22.0	0.00e+00	0	41	0	304087040	56	5992
2026-01-24 20:18:13.90	39.57	11.41	-41.2	-42.2	22.3	0.00e+00	9	41	0	306184192	56	5873
2026-01-24 20:18:14.91	39.41	11.46	-41.4	-42.5	22.0	0.00e+00	0	41	0	308281344	56	6043
2026-01-24 20:18:15.92	39.24	11.50	-41.3	-42.3	22.3	0.00e+00	92	41	0	310378496	56	5922
2026-01-24 20:18:16.93	39.08	11.55	-41.4	-42.4	22.2	0.00e+00	0	41	0	312475648	56	6017
2026-01-24 20:18:17.94	38.91	11.59	-41.6	-42.6	22.1	0.00e+00	30	41	0	313524224	56	6166
2026-01-24 20:18:18.95	38.74	11.64	-41.5	-42.5	22.1	0.00e+00	92	41	0	315621376	56	6072
2026-01-24 20:18:19.96	38.57	11.68	-41.7	-42.8	21.9	0.00e+00	0	41	0	317718528	56	6258
2026-01-24 20:18:20.97	38.41	11.73	-41.9	-43.0	21.7	0.00e+00	36	41	0	319815680	56	6457
2026-01-24 20:18:21.97	38.24	11.77	-41.9	-43.0	21.8	0.00e+00	0	41	0	321912832	56	6425
2026-01-24 20:18:22.98	38.07	11.82	-42.1	-43.2	21.8	0.00e+00	90	41	0	322961408	56	6604
2026-01-24 20:18:23.99	37.90	11.86	-41.7	-42.8	21.9	0.00e+00	0	41	0	325058560	56	6256
2026-01-24 20:18:25.00	37.73	11.91	-41.6	-42.7	22.1	0.00e+00	90	41	0	327155712	56	6178
2026-01-24 20:18:26.01	37.56	11.95	-41.6	-42.6	22.1	0.00e+00	0	41	0	329252864	56	6166
2026-01-24 20:18:27.02	37.39	11.99	-40.9	-41.9	22.7	0.00e+00	0	41	0	331350016	56	5660
2026-01-24 20:18:28.03	37.22	12.04	-40.9	-41.9	22.8	0.00e+00	61	41	0	332398592	56	5651
2026-01-24 20:18:29.04	37.04	12.08	-40.8	-41.8	22.8	0.00e+00	0	41	0	334495744	56	5579
2026-01-24 20:18:30.05	36.87	12.12	-40.8	-41.8	22.8	0.00e+00	68	41	0	336592896	56	5595
2026-01-24 20:18:31.06	36.70	12.17	-41.2	-42.2	22.3	0.00e+00	0	41	0	338690048	56	5886
2026-01-24 20:18:32.07	36.52	12.21	-41.1	-42.1	22.6	0.00e+00	91	41	0	340787200	56	5763
2026-01-24 20:18:33.08	36.35	12.25	-40.8	-41.8	22.7	0.00e+00	6	41	0	342884352	56	5614
2026-01-24 20:18:34.08	36.18	12.29	-40.8	-41.8	22.6	0.00e+00	8	41	0	343932928	56	5615
2026-01-24 20:18:35.10	36.00	12.34	-41.0	-42.0	22.5	0.00e+00	69	41	0	346030080	56	5752
2026-01-24 20:18:36.11	35.82	12.38	-41.4	-42.5	22.2	0.00e+00	0	41	0	348127232	56	6076
2026-01-24 20:18:37.12	35.65	12.42	-41.7	-42.8	22.0	0.00e+00	69	41	0	350224384	56	6247
2026-01-24 20:18:38.13	35.47	12.46	-41.9	-43.0	21.8	0.00e+00	0	41	0	352321536	56	6411
2026-01-24 20:18:39.13	35.29	12.50	-41.9	-43.0	21.7	0.00e+00	92	41	0	353370112	56	6427
2026-01-24 20:18:40.14	35.11	12.55	-41.8	-42.8	21.5	0.00e+00	0	41	0	355467264	56	6317
2026-01-24 20:18:41.15	34.94	12.59	-41.9	-43.0	21.7	0.00e+00	0	41	0	357564416	56	6400
2026-01-24 20:18:42.16	34.76	12.63	-41.6	-42.6	22.1	0.00e+00	92	41	0	359661568	56	6164
2026-01-24 20:18:43.17	34.58	12.67	-41.6	-42.6	22.1	0.00e+00	0	41	0	361758720	56	6155
2026-01-24 20:18:44.18	34.40	12.71	-41.7	-42.8	22.0	0.00e+00	33	41	0	362807296	56	6253
2026-01-24 20:18:45.19	34.22	12.75	-41.8	-42.9	22.1	0.00e+00	0	41	0	364904448	56	6364
2026-01-24 20:18:46.20	34.04	12.79	-41.6	-42.6	22.1	0.00e+00	93	41	0	367001600	56	6145
2026-01-24 20:18:47.21	33.85	12.83	-41.7	-42.8	22.0	0.00e+00	26	41	0	369098752	56	6255
2026-01-24 20:18:48.22	33.67	12.87	-41.9	-43.0	21.8	0.00e+00	0	41	0	371195904	56	6424
2026-01-24 20:18:49.23	33.49	12.91	-41.9	-43.0	21.7	0.00e+00	90	41	0	372244480	56	6451
2026-01-24 20:18:50.24	33.31	12.95	-42.1	-43.2	21.8	0.00e+00	0	41	0	374341632	56	6602
2026-01-24 20:18:51.25	33.12	12.99	-42.3	-43.4	21.4	0.00e+00	76	41	0	376438784	56	6768
2026-01-24 20:18:52.26	32.94	13.03	-42.3	-43.4	21.5	0.00e+00	0	41	0	378535936	56	6753
2026-01-24 20:18:53.27	32.75	13.06	-42.0	-43.2	21.7	0.00e+00	0	41	0	380633088	56	6552
2026-01-24 20:18:54.28	32.57	13.10	-41.7	-42.8	21.9	0.00e+00	0	41	0	381681664	56	6312
2026-01-24 20:18:55.29	32.38	13.14	-41.5	-42.5	22.2	0.00e+00	0	41	0	383778816	56	6101
2026-01-24 20:18:56.30	32.20	13.18	-41.2	-42.2	22.5	0.00e+00	69	41	0	385875968	56	5894
2026-01-24 20:18:57.31	32.01	13.22	-41.3	-42.3	22.4	0.00e+00	0	41	0	387973120	56	5922
2026-01-24 20:18:58.32	31.82	13.25	-41.2	-42.2	22.4	0.00e+00	91	41	0	390070272	56	5864
2026-01-24 20:18:59.33	31.64	13.29	-41.3	-42.3	22.4	0.00e+00	0	41	0	391118848	56	5962
2026-01-24 20:19:00.33	31.45	13.33	-41.4	-42.4	22.2	0.00e+00	0	41	0	393216000	56	5998
2026-01-24 20:19:01.34	31.26	13.36	-41.5	-42.6	22.3	0.00e+00	0	41	0	395313152	56	6119
2026-01-24 20:19:02.35	31.07	13.40	-41.3	-42.3	22.4	0.00e+00	0	41	0	397410304	56	5947
2026-01-24 20:19:03.36	30.88	13.44	-41.3	-42.4	22.4	0.00e+00	9	41	0	399507456	56	5969
2026-01-24 20:19:04.37	30.69	13.47	-41.3	-42.4	22.3	0.00e+00	0	41	0	400556032	56	5969
2026-01-24 20:19:05.38	30.50	13.51	-41.4	-42.5	22.4	0.00e+00	82	41	0	402653184	56	6041
2026-01-24 20:19:06.39	30.31	13.54	-41.3	-42.4	22.3	0.00e+00	0	41	0	404750336	56	5994
2026-01-24 20:19:07.40	30.12	13.58	-41.1	-42.1	22.6	0.00e+00	92	41	0	406847488	56	5791
2026-01-24 20:19:08.41	29.93	13.61	-41.0	-41.9	22.7	0.00e+00	0	41	0	408944640	56	5690
2026-01-24 20:19:09.42	29.74	13.65	-41.1	-42.1	22.6	0.00e+00	0	41	0	411041792	56	5774
2026-01-24 20:19:10.43	29.55	13.68	-41.3	-42.3	22.4	0.00e+00	39	41	0	412090368	56	5905
2026-01-24 20:19:11.44	29.35	13.71	-41.5	-42.6	22.3	0.00e+00	0	41	0	414187520	56	6118
2026-01-24 20:19:12.45	29.16	13.75	-41.9	-43.0	21.7	0.00e+00	91	41	0	416284672	56	6429
2026-01-24 20:19:13.46	28.97	13.78	-41.8	-42.9	21.9	0.00e+00	0	41	0	418381824	56	6340
2026-01-24 20:19:14.47	28.77	13.81	-41.7	-42.8	22.1	0.00e+00	92	41	0	420478976	56	6263
2026-01-24 20:19:15.48	28.58	13.85	-41.7	-42.8	22.0	0.00e+00	0	41	0	421527552	56	6270
2026-01-24 20:19:16.48	28.38	13.88	-41.8	-42.9	22.0	0.00e+00	0	41	0	423624704	56	6374
2026-01-24 20:19:17.49	28.19	13.91	-41.8	-42.9	22.0	0.00e+00	0	41	0	425721856	56	6331
2026-01-24 20:19:18.50	27.99	13.94	-41.5	-42.6	22.2	0.00e+00	0	41	0	427819008	56	6136
2026-01-24 20:19:19.51	27.80	13.98	-41.6	-42.6	22.1	0.00e+00	6	41	0	428867584	56	6165
2026-01-24 20:19:20.52	27.60	14.01	-41.7	-42.8	22.3	0.00e+00	0	41	0	430964736	56	6272
2026-01-24 20:19:21.53	27.40	14.04	-40.4	-41.4	23.0	0.00e+00	91	41	0	433061888	54	5973
2026-01-24 20:19:22.54	27.20	14.07	-40.6	-41.6	22.4	0.00e+00	0	41	0	435159040	54	6112
2026-01-24 20:19:23.55	27.01	14.10	-40.5	-41.4	23.0	0.00e+00	0	41	0	437256192	54	6006
2026-01-24 20:19:24.56	26.81	14.13	-40.6	-41.5	23.0	0.00e+00	0	41	0	439353344	54	6053
2026-01-24 20:19:25.57	26.61	14.16	-40.7	-41.7	22.9	0.00e+00	0	41	0	440401920	54	6177
2026-01-24 20:19:26.58	26.41	14.19	-41.2	-42.1	22.7	0.00e+00	12	41	0	442499072	54	6532
2026-01-24 20:19:27.59	26.21	14.22	-40.9	-41.9	22.8	0.00e+00	0	41	0	444596224	54	6347
2026-01-24 20:19:28.60	26.01	14.25	-40.8	-41.7	22.8	0.00e+00	68	41	0	446693376	54	6220
2026-01-24 20:19:29.61	25.81	14.28	-40.7	-41.7	22.9	0.00e+00	0	41	0	448790528	54	6184
2026-01-24 20:19:30.62	25.61	14.30	-40.9	-41.9	22.7	0.00e+00	0	41	0	449839104	54	6364
2026-01-24 20:19:31.63	25.41	14.33	-41.1	-42.1	22.6	0.00e+00	0	41	0	451936256	54	6481
2026-01-24 20:19:32.64	25.21	14.36	-40.9	-41.9	22.8	0.00e+00	0	41	0	454033408	54	6325
2026-01-24 20:19:33.65	25.00	14.39	-40.7	-41.6	23.1	0.00e+00	82	41	0	456130560	54	6151
2026-01-24 20:19:34.66	24.80	14.41	-40.8	-41.7	22.7	0.00e+00	0	41	0	458227712	54	6216
2026-01-24 20:19:35.67	24.60	14.44	-40.7	-41.6	23.0	0.00e+00	64	41	0	459276288	54	6149
2026-01-24 20:19:36.68	24.40	14.47	-40.6	-41.6	22.9	0.00e+00	0	41	0	461373440	54	6113
2026-01-24 20:19:37.69	24.19	14.49	-41.3	-42.3	22.4	0.00e+00	0	41	0	463470592	54	6660
2026-01-24 20:19:38.70	23.99	14.52	-41.3	-42.4	22.3	0.00e+00	0	41	0	465567744	54	6703
2026-01-24 20:19:39.71	23.78	14.54	-41.5	-42.5	22.2	0.00e+00	0	41	0	467664896	54	6842
2026-01-24 20:19:40.72	23.58	14.57	-41.9	-43.0	21.8	0.00e+00	65	41	0	468713472	56	6457
2026-01-24 20:19:41.73	23.37	14.59	-41.7	-42.8	22.0	0.00e+00	0	41	0	470810624	56	6268
2026-01-24 20:19:42.74	23.17	14.62	-41.2	-42.2	22.4	0.00e+00	22	41	0	472907776	56	5890
2026-01-24 20:19:43.75	22.96	14.64	-41.5	-42.6	22.3	0.00e+00	0	41	0	475004928	56	6128
2026-01-24 20:19:44.75	22.76	14.67	-41.3	-42.4	22.3	0.00e+00	66	41	0	477102080	56	5980
2026-01-24 20:19:45.77	22.55	14.69	-41.6	-42.6	22.1	0.00e+00	0	41	0	478150656	56	6163
2026-01-24 20:19:46.78	22.34	14.71	-41.8	-42.9	21.9	0.00e+00	0	41	0	480247808	56	6332
2026-01-24 20:19:47.78	22.14	14.73	-41.9	-43.0	21.8	0.00e+00	8	41	0	482344960	56	6407
2026-01-24 20:19:48.79	21.93	14.76	-41.7	-42.8	21.9	0.00e+00	2	41	0	484442112	56	6297
2026-01-24 20:19:49.80	21.73	14.78	-41.6	-42.7	22.0	0.00e+00	20	41	0	486539264	56	6212
2026-01-24 20:19:50.81	21.52	14.80	-41.7	-42.7	22.0	0.00e+00	0	41	0	487587840	56	6243
2026-01-24 20:19:51.82	21.31	14.82	-41.5	-42.6	22.1	0.00e+00	92	41	0	489684992	56	6118
2026-01-24 20:19:52.83	21.10	14.84	-41.6	-42.6	22.1	0.00e+00	0	41	0	491782144	56	6159
2026-01-24 20:19:53.84	20.89	14.86	-41.7	-42.8	22.0	0.00e+00	0	41	0	493879296	56	6270
2026-01-24 20:19:54.85	20.68	14.88	-41.7	-42.8	22.0	0.00e+00	0	41	0	495976448	56	6263
2026-01-24 20:19:55.86	20.47	14.90	-41.5	-42.5	22.3	0.00e+00	0	41	0	497025024	56	6099
2026-01-24 20:19:56.87	20.26	14.92	-41.2	-42.1	22.4	0.00e+00	7	41	0	499122176	56	5825
2026-01-24 20:19:57.88	20.05	14.94	-41.4	-42.4	22.4	0.00e+00	0	41	0	501219328	56	6024
2026-01-24 20:19:58.89	19.84	14.96	-41.2	-42.1	22.8	0.00e+00	71	41	0	503316480	56	5813
2026-01-24 20:19:59.90	19.63	14.98	-40.9	-41.9	22.9	0.00e+00	0	41	0	505413632	56	5655
2026-01-24 20:20:00.91	19.42	15.00	-41.0	-42.0	22.7	0.00e+00	0	41	0	507510784	56	5711
2026-01-24 20:20:01.92	19.21	15.01	-40.8	-41.8	22.8	0.00e+00	0	41	0	508559360	56	5599
2026-01-24 20:20:02.93	19.00	15.03	-40.8	-41.7	22.8	0.00e+00	0	41	0	510656512	54	6226
2026-01-24 20:20:03.93	18.79	15.05	-40.8	-41.7	22.8	0.00e+00	9	41	0	512753664	54	6244
2026-01-24 20:20:04.95	18.58	15.06	-40.9	-41.8	22.7	0.00e+00	0	41	0	514850816	54	6315
2026-01-24 20:20:05.96	18.37	15.08	-41.2	-42.2	22.3	0.00e+00	90	41	0	516947968	54	6571
2026-01-24 20:20:06.97	18.15	15.09	-41.5	-42.6	22.1	0.00e+00	0	41	0	517996544	54	6852
2026-01-24 20:20:07.97	17.94	15.11	-41.8	-42.8	22.0	0.00e+00	0	41	0	520093696	54	7081
2026-01-24 20:20:08.98	17.73	15.12	-41.5	-42.6	22.2	0.00e+00	0	41	0	522190848	56	6105
2026-01-24 20:20:09.99	17.52	15.14	-41.4	-42.4	22.4	0.00e+00	0	41	0	524288000	56	6008
2026-01-24 20:20:11.00	17.31	15.15	-41.1	-42.1	22.5	0.00e+00	23	41	0	526385152	56	5827
2026-01-24 20:20:12.01	17.09	15.17	-41.4	-42.4	22.1	0.00e+00	0	41	0	527433728	56	5989
2026-01-24 20:20:13.02	16.88	15.18	-41.5	-42.5	22.1	0.00e+00	77	41	0	529530880	56	6067
2026-01-24 20:20:14.03	16.67	15.19	-41.4	-42.4	22.3	0.00e+00	0	41	0	531628032	56	5988
2026-01-24 20:20:15.04	16.45	15.20	-41.6	-42.6	21.9	0.00e+00	0	41	0	533725184	56	6171
2026-01-24 20:20:16.05	16.24	15.22	-41.7	-42.8	22.0	0.00e+00	0	41	0	535822336	56	6293
2026-01-24 20:20:17.06	16.03	15.23	-41.8	-42.8	21.9	0.00e+00	0	41	0	536870912	56	6306
2026-01-24 20:20:18.07	15.81	15.24	-41.8	-42.9	21.9	0.00e+00	8	41	0	538968064	56	6326
2026-01-24 20:20:19.08	15.60	15.25	-41.8	-42.9	22.0	0.00e+00	0	41	0	541065216	56	6327
2026-01-24 20:20:20.09	15.38	15.26	-41.7	-42.8	22.0	0.00e+00	67	41	0	543162368	56	6267
2026-01-24 20:20:21.09	15.17	15.27	-41.7	-42.8	22.0	0.00e+00	9	41	0	545259520	56	6259
2026-01-24 20:20:22.10	14.96	15.28	-41.6	-42.6	22.1	0.00e+00	91	41	0	546308096	56	6166
2026-01-24 20:20:23.11	14.74	15.29	-41.7	-42.8	22.1	0.00e+00	0	41	0	548405248	56	6251
2026-01-24 20:20:24.12	14.53	15.30	-41.5	-42.5	22.1	0.00e+00	24	41	0	550502400	56	6094
2026-01-24 20:20:25.13	14.31	15.31	-41.3	-42.4	22.3	0.00e+00	26	41	0	552599552	56	5980
2026-01-24 20:20:26.14	14.10	15.31	-41.4	-42.4	22.4	0.00e+00	0	41	0	554696704	56	5994
2026-01-24 20:20:27.15	13.88	15.32	-41.4	-42.4	22.4	0.00e+00	92	41	0	555745280	56	6008
2026-01-24 20:20:28.16	13.66	15.33	-41.3	-42.4	22.3	0.00e+00	24	41	0	557842432	56	5988
2026-01-24 20:20:29.17	13.45	15.34	-41.5	-42.6	22.3	0.00e+00	91	41	0	559939584	56	6157
2026-01-24 20:20:30.18	13.23	15.34	-41.3	-42.4	22.4	0.00e+00	0	41	0	562036736	56	5976
2026-01-24 20:20:31.19	13.02	15.35	-41.6	-42.6	22.3	0.00e+00	0	41	0	564133888	56	6151
2026-01-24 20:20:32.20	12.80	15.35	-41.5	-42.6	22.2	0.00e+00	0	41	0	565182464	56	6106
2026-01-24 20:20:33.21	12.59	15.36	-41.3	-42.3	22.4	0.00e+00	0	41	0	567279616	56	5935
2026-01-24 20:20:34.22	12.37	15.36	-41.2	-42.2	22.5	0.00e+00	92	41	0	569376768	56	5843
2026-01-24 20:20:35.23	12.15	15.37	-41.4	-42.4	22.4	0.00e+00	0	41	0	571473920	56	6012
2026-01-24 20:20:36.24	11.94	15.37	-41.4	-42.4	22.4	0.00e+00	90	41	0	573571072	56	6011
2026-01-24 20:20:37.25	11.72	15.38	-41.5	-42.5	22.5	0.00e+00	0	41	0	575668224	56	6068
2026-01-24 20:20:38.25	11.51	15.38	-41.7	-42.7	22.1	0.00e+00	0	41	0	576716800	56	6236
2026-01-24 20:20:39.26	11.29	15.38	-42.2	-43.4	21.8	0.00e+00	0	41	0	578813952	56	6696
2026-01-24 20:20:40.27	11.07	15.38	-42.3	-43.4	21.8	0.00e+00	0	41	0	580911104	56	6716
2026-01-24 20:20:41.28	10.86	15.39	-41.8	-42.9	22.0	0.00e+00	71	41	0	583008256	56	6330
2026-01-24 20:20:42.29	10.64	15.39	-42.2	-43.3	21.8	0.00e+00	0	41	0	585105408	56	6673
2026-01-24 20:20:43.30	10.43	15.39	-41.7	-42.8	22.0	0.00e+00	46	41	0	586153984	56	6277
2026-01-24 20:20:44.31	10.21	15.39	-41.5	-42.6	22.4	0.00e+00	0	41	0	588251136	56	6115
2026-01-24 20:20:45.32	9.99	15.39	-41.4	-42.4	22.5	0.00e+00	0	41	0	590348288	56	6019
2026-01-24 20:20:46.33	9.78	15.39	-41.2	-42.1	22.7	0.00e+00	0	41	0	592445440	56	5820
2026-01-24 20:20:47.33	9.56	15.39	-40.7	-41.6	22.9	0.00e+00	0	41	0	594542592	54	6172
2026-01-24 20:20:48.35	9.34	15.39	-40.8	-41.7	22.9	0.00e+00	10	41	0	595591168	54	6214
2026-01-24 20:20:49.36	9.13	15.39	-41.5	-42.6	22.6	0.00e+00	0	41	0	597688320	56	6116
2026-01-24 20:20:50.37	8.91	15.38	-41.0	-42.0	22.8	0.00e+00	92	41	0	599785472	56	5731
2026-01-24 20:20:51.38	8.69	15.38	-41.5	-42.5	22.4	0.00e+00	0	41	0	601882624	56	6091
2026-01-24 20:20:52.39	8.48	15.38	-41.8	-42.8	22.3	0.00e+00	77	41	0	603979776	56	6285
2026-01-24 20:20:53.39	8.26	15.38	-41.7	-42.8	22.3	0.00e+00	0	41	0	605028352	56	6246
2026-01-24 20:20:54.40	8.05	15.37	-42.0	-43.1	22.0	0.00e+00	0	41	0	607125504	56	6467
2026-01-24 20:20:55.42	7.83	15.37	-42.6	-43.8	21.6	0.00e+00	3	41	0	609222656	56	7024
2026-01-24 20:20:56.42	7.62	15.37	-41.9	-43.0	22.0	0.00e+00	0	41	0	611319808	56	6416
2026-01-24 20:20:57.43	7.40	15.36	-42.0	-43.1	21.9	0.00e+00	12	41	0	613416960	56	6486
2026-01-24 20:20:58.44	7.18	15.36	-42.1	-43.2	21.8	0.00e+00	0	41	0	614465536	56	6604
2026-01-24 20:20:59.45	6.97	15.35	-42.4	-43.5	21.2	0.00e+00	81	41	0	616562688	56	6847
2026-01-24 20:21:00.46	6.75	15.34	-42.4	-43.5	21.5	0.00e+00	0	41	0	618659840	56	6811
2026-01-24 20:21:01.47	6.54	15.34	-42.5	-43.6	21.4	0.00e+00	0	41	0	620756992	56	6915
2026-01-24 20:21:02.48	6.32	15.33	-42.5	-43.7	21.3	0.00e+00	4	41	0	622854144	56	6971
2026-01-24 20:21:03.49	6.11	15.32	-42.5	-43.6	21.6	0.00e+00	0	41	0	623902720	56	6906
2026-01-24 20:21:04.50	5.89	15.32	-42.3	-43.4	21.6	0.00e+00	2	41	0	625999872	58	6033
2026-01-24 20:21:05.51	5.68	15.31	-42.2	-43.4	21.7	0.00e+00	0	41	0	628097024	58	5980
2026-01-24 20:21:06.52	5.46	15.30	-42.5	-43.7	21.5	0.00e+00	47	41	0	630194176	58	6210
2026-01-24 20:21:07.53	5.25	15.29	-42.5	-43.7	21.5	0.00e+00	0	41	0	632291328	58	6210
2026-01-24 20:21:08.54	5.03	15.28	-42.6	-43.8	21.4	0.00e+00	0	41	0	633339904	58	6260
2026-01-24 20:21:09.55	4.82	15.27	-42.0	-43.1	22.2	0.00e+00	0	41	0	635437056	58	5784
2026-01-24 20:21:10.56	4.60	15.26	-42.1	-43.2	21.7	0.00e+00	0	41	0	637534208	58	5840
2026-01-24 20:21:11.57	4.39	15.25	-41.9	-43.0	22.3	0.00e+00	8	41	0	639631360	56	6416
2026-01-24 20:21:12.58	4.17	15.24	-41.7	-42.8	22.4	0.00e+00	0	41	0	641728512	56	6248
2026-01-24 20:21:13.59	3.96	15.23	-41.8	-42.9	22.2	0.00e+00	91	41	0	643825664	56	6326
2026-01-24 20:21:14.60	3.74	15.22	-42.1	-43.2	22.0	0.00e+00	0	41	0	644874240	56	6592
2026-01-24 20:21:15.60	3.53	15.21	-41.9	-42.9	22.1	0.00e+00	0	41	0	646971392	56	6390
2026-01-24 20:21:16.61	3.32	15.19	-42.1	-43.2	22.0	0.00e+00	0	41	0	649068544	56	6555
2026-01-24 20:21:17.62	3.11	15.18	-41.8	-42.8	22.1	0.00e+00	0	41	0	651165696	56	6313
2026-01-24 20:21:18.63	2.89	15.17	-41.4	-42.4	22.5	0.00e+00	9	41	0	653262848	56	6024
2026-01-24 20:21:19.64	2.68	15.16	-41.2	-42.3	22.5	0.00e+00	0	41	0	654311424	56	5903
2026-01-24 20:21:20.65	2.47	15.14	-41.0	-42.0	22.8	0.00e+00	72	41	0	656408576	56	5698
2026-01-24 20:21:21.66	2.25	15.13	-40.9	-41.8	23.1	0.00e+00	0	41	0	658505728	56	5604
2026-01-24 20:21:22.67	2.04	15.11	-40.9	-41.8	23.0	0.00e+00	0	41	0	660602880	56	5610
2026-01-24 20:21:23.68	1.83	15.10	-40.9	-41.8	22.9	0.00e+00	0	41	0	662700032	56	5606
2026-01-24 20:21:24.69	1.62	15.08	-41.2	-42.2	22.7	0.00e+00	0	41	0	663748608	56	5884
2026-01-24 20:21:25.70	1.41	15.07	-41.4	-42.5	22.4	0.00e+00	8	41	0	665845760	56	6048
2026-01-24 20:21:26.71	1.19	15.05	-41.4	-42.5	22.3	0.00e+00	0	41	0	667942912	56	6049
2026-01-24 20:21:27.72	0.98	15.03	-41.1	-42.1	22.7	0.00e+00	90	41	0	670040064	56	5783
2026-01-24 20:21:28.73	0.77	15.02	-41.2	-42.2	22.7	0.00e+00	0	41	0	672137216	56	5895
2026-01-24 20:21:29.74	0.56	15.00	-41.2	-42.2	22.5	0.00e+00	82	41	0	673185792	56	5870
2026-01-24 20:21:30.75	0.35	14.98	-41.5	-42.5	22.4	0.00e+00	0	41	0	675282944	56	6072
2026-01-24 20:21:31.75	0.14	14.96	-41.6	-42.6	22.4	0.00e+00	0	41	0	677380096	56	6152
2026-01-24 20:21:32.76	359.93	14.94	-41.3	-42.3	22.5	0.00e+00	0	41	0	679477248	56	5955
2026-01-24 20:21:33.77	359.72	14.93	-41.7	-42.8	22.3	0.00e+00	0	41	0	681574400	56	6268
2026-01-24 20:21:34.78	359.51	14.91	-41.8	-42.9	22.1	0.00e+00	92	41	0	682622976	56	6336
2026-01-24 20:21:35.79	359.30	14.89	-41.7	-42.8	22.0	0.00e+00	0	41	0	684720128	56	6284
2026-01-24 20:21:36.80	359.10	14.87	-42.0	-43.1	21.9	0.00e+00	90	41	0	686817280	56	6526
2026-01-24 20:21:37.81	358.89	14.85	-41.9	-43.0	22.0	0.00e+00	0	41	0	688914432	56	6447
2026-01-24 20:21:38.82	358.68	14.83	-42.1	-43.2	21.7	0.00e+00	0	41	0	691011584	56	6586
2026-01-24 20:21:39.83	358.47	14.81	-42.1	-43.2	22.0	0.00e+00	0	41	0	692060160	56	6583
2026-01-24 20:21:40.84	358.26	14.78	-42.1	-43.3	21.8	0.00e+00	0	41	0	694157312	56	6628
2026-01-24 20:21:41.84	358.06	14.76	-41.7	-42.8	22.1	0.00e+00	92	41	0	696254464	56	6246
2026-01-24 20:21:42.85	357.85	14.74	-41.5	-42.6	22.3	0.00e+00	0	41	0	698351616	56	6118
2026-01-24 20:21:43.86	357.64	14.72	-41.3	-42.3	22.5	0.00e+00	92	41	0	700448768	56	5955
2026-01-24 20:21:44.87	357.44	14.69	-41.7	-42.8	22.3	0.00e+00	0	41	0	701497344	56	6272
2026-01-24 20:21:45.88	357.23	14.67	-41.4	-42.4	22.6	0.00e+00	0	41	0	703594496	56	5980
2026-01-24 20:21:46.89	357.02	14.65	-41.3	-42.3	22.5	0.00e+00	0	41	0	705691648	56	5950
2026-01-24 20:21:47.90	356.82	14.62	-41.5	-42.5	22.3	0.00e+00	12	41	0	707788800	56	6048
2026-01-24 20:21:48.91	356.61	14.60	-40.8	-41.8	22.8	0.00e+00	55	41	0	709885952	54	6248
2026-01-24 20:21:49.92	356.41	14.58	-41.3	-42.3	22.9	0.00e+00	0	41	0	711983104	54	6639
2026-01-24 20:21:50.93	356.20	14.55	-40.8	-41.7	23.1	0.00e+00	81	41	0	713031680	54	6211
2026-01-24 20:21:51.94	356.00	14.53	-40.9	-41.8	23.0	0.00e+00	0	41	0	715128832	54	6300
2026-01-24 20:21:52.95	355.80	14.50	-41.3	-42.3	22.7	0.00e+00	0	41	0	717225984	54	6622
2026-01-24 20:21:53.96	355.59	14.47	-41.1	-42.1	22.8	0.00e+00	0	41	0	719323136	54	6469
2026-01-24 20:21:54.97	355.39	14.45	-41.1	-42.1	22.6	0.00e+00	0	41	0	721420288	54	6521
2026-01-24 20:21:55.98	355.19	14.42	-41.1	-42.2	22.6	0.00e+00	56	41	0	722468864	54	6552
2026-01-24 20:21:56.99	354.99	14.39	-41.1	-42.1	22.5	0.00e+00	0	41	0	724566016	54	6512
2026-01-24 20:21:58.00	354.78	14.37	-41.5	-42.5	22.3	0.00e+00	55	41	0	726663168	54	6813
2026-01-24 20:21:59.01	354.58	14.34	-41.8	-42.9	22.1	0.00e+00	0	41	0	728760320	54	7119
2026-01-24 20:22:00.01	354.38	14.31	-41.4	-42.5	22.4	0.00e+00	11	41	0	729808896	56	6038
2026-01-24 20:22:01.02	354.18	14.28	-41.4	-42.4	22.3	0.00e+00	0	41	0	731906048	56	5998
2026-01-24 20:22:02.03	353.98	14.25	-41.3	-42.3	22.4	0.00e+00	0	41	0	734003200	56	5955
2026-01-24 20:22:03.04	353.78	14.23	-41.4	-42.5	22.4	0.00e+00	49	41	0	736100352	56	6059
2026-01-24 20:22:04.05	353.58	14.20	-41.5	-42.5	22.3	0.00e+00	0	41	0	738197504	56	6098
2026-01-24 20:22:05.06	353.38	14.17	-42.5	-43.6	21.7	0.00e+00	0	41	0	740294656	56	6915
2026-01-24 20:22:06.07	353.18	14.14	-42.1	-43.2	21.8	0.00e+00	0	41	0	741343232	56	6595
2026-01-24 20:22:07.08	352.99	14.11	-42.1	-43.2	21.7	0.00e+00	77	41	0	743440384	56	6590
2026-01-24 20:22:08.09	352.79	14.08	-42.0	-43.1	21.9	0.00e+00	8	41	0	745537536	56	6483
2026-01-24 20:22:09.10	352.59	14.05	-42.3	-43.4	21.5	0.00e+00	0	41	0	747634688	56	6753
2026-01-24 20:22:10.11	352.39	14.02	-42.4	-43.5	21.5	0.00e+00	0	41	0	749731840	56	6847
2026-01-24 20:22:11.11	352.20	13.98	-42.1	-43.2	21.8	0.00e+00	0	41	0	750780416	56	6573
2026-01-24 20:22:12.12	352.00	13.95	-41.8	-42.8	22.1	0.00e+00	17	41	0	752877568	56	6308
2026-01-24 20:22:13.13	351.81	13.92	-41.6	-42.7	22.3	0.00e+00	0	41	0	754974720	56	6191
2026-01-24 20:22:14.14	351.61	13.89	-41.6	-42.7	22.3	0.00e+00	92	41	0	757071872	56	6187
2026-01-24 20:22:15.15	351.41	13.86	-41.6	-42.6	22.4	0.00e+00	23	41	0	759169024	56	6148
2026-01-24 20:22:16.16	351.22	13.82	-41.5	-42.5	22.4	0.00e+00	0	41	0	760217600	56	6082
2026-01-24 20:22:17.17	351.03	13.79	-41.2	-42.2	22.6	0.00e+00	0	41	0	762314752	56	5876
2026-01-24 20:22:18.18	350.83	13.76	-41.5	-42.5	22.6	0.00e+00	25	41	0	764411904	56	6084
2026-01-24 20:22:19.19	350.64	13.72	-41.5	-42.6	22.4	0.00e+00	5	41	0	766509056	56	6111
2026-01-24 20:22:20.20	350.45	13.69	-41.8	-42.9	22.2	0.00e+00	0	41	0	768606208	56	6368
2026-01-24 20:22:21.21	350.25	13.66	-41.7	-42.7	22.2	0.00e+00	92	41	0	769654784	56	6217
2026-01-24 20:22:22.22	350.06	13.62	-41.8	-42.8	22.2	0.00e+00	0	41	0	771751936	56	6293
2026-01-24 20:22:23.23	349.87	13.59	-41.9	-43.0	22.0	0.00e+00	0	41	0	773849088	56	6406
2026-01-24 20:22:24.24	349.68	13.55	-41.9	-43.0	21.9	0.00e+00	0	41	0	775946240	56	6413
2026-01-24 20:22:25.25	349.49	13.52	-41.5	-42.5	22.3	0.00e+00	0	41	0	778043392	56	6048
2026-01-24 20:22:26.25	349.30	13.48	-40.9	-41.8	22.8	0.00e+00	10	41	0	779091968	56	5619
2026-01-24 20:22:27.26	349.11	13.45	-41.0	-42.0	22.3	0.00e+00	0	41	0	781189120	54	6436
2026-01-24 20:22:28.27	348.92	13.41	-41.0	-41.9	22.5	0.00e+00	92	41	0	783286272	54	6378
2026-01-24 20:22:29.28	348.73	13.37	-40.9	-41.9	22.6	0.00e+00	0	41	0	785383424	56	5674
2026-01-24 20:22:30.29	348.54	13.34	-41.0	-42.0	22.4	0.00e+00	0	41	0	787480576	56	5706
2026-01-24 20:22:31.30	348.36	13.30	-41.5	-42.5	22.2	0.00e+00	0	41	0	788529152	56	6083
2026-01-24 20:22:32.31	348.17	13.26	-41.7	-42.7	22.2	0.00e+00	0	41	0	790626304	56	6245
2026-01-24 20:22:33.32	347.98	13.23	-42.1	-43.2	21.8	0.00e+00	8	41	0	792723456	56	6554
2026-01-24 20:22:34.32	347.80	13.19	-42.3	-43.4	21.8	0.00e+00	0	41	0	794820608	56	6759
2026-01-24 20:22:35.33	347.61	13.15	-42.2	-43.4	21.8	0.00e+00	35	41	0	796917760	56	6712
2026-01-24 20:22:36.34	347.43	13.11	-42.0	-43.1	21.9	0.00e+00	0	41	0	797966336	56	6529
2026-01-24 20:22:37.35	347.24	13.07	-42.3	-43.4	21.6	0.00e+00	85	41	0	800063488	56	6757
2026-01-24 20:22:38.36	347.06	13.04	-42.9	-44.2	21.2	0.00e+00	0	41	0	802160640	56	7361
2026-01-24 20:22:39.37	346.87	13.00	-42.7	-44.0	21.1	0.00e+00	0	41	0	804257792	58	6410
2026-01-24 20:22:40.38	346.69	12.96	-42.4	-43.6	21.4	0.00e+00	0	41	0	806354944	58	6148
2026-01-24 20:22:41.38	346.51	12.92	-42.5	-43.7	21.3	0.00e+00	0	41	0	808452096	58	6231
2026-01-24 20:22:42.39	346.33	12.88	-42.2	-43.4	21.4	0.00e+00	22	41	0	809500672	58	6019
2026-01-24 20:22:43.40	346.14	12.84	-42.2	-43.4	21.5	0.00e+00	0	41	0	811597824	58	6017
2026-01-24 20:22:44.42	345.96	12.80	-42.1	-43.3	21.7	0.00e+00	91	41	0	813694976	58	5952
2026-01-24 20:22:45.42	345.78	12.76	-42.0	-43.2	21.6	0.00e+00	0	41	0	815792128	58	5843
2026-01-24 20:22:46.43	345.60	12.72	-42.0	-43.2	21.6	0.00e+00	0	41	0	817889280	58	5862
2026-01-24 20:22:47.44	345.42	12.68	-42.0	-43.2	21.6	0.00e+00	0	41	0	818937856	58	5880
2026-01-24 20:22:48.45	345.24	12.64	-42.6	-43.9	21.2	0.00e+00	0	41	0	821035008	58	6335
2026-01-24 20:22:49.46	345.06	12.60	-42.8	-44.0	21.2	0.00e+00	3	41	0	823132160	58	6464
2026-01-24 20:22:50.47	344.88	12.56	-42.6	-43.8	21.3	0.00e+00	0	41	0	825229312	58	6302
2026-01-24 20:22:51.48	344.71	12.52	-42.3	-43.6	21.6	0.00e+00	79	41	0	827326464	58	6120
2026-01-24 20:22:52.49	344.53	12.48	-42.2	-43.4	21.7	0.00e+00	0	41	0	828375040	58	6027
2026-01-24 20:22:53.50	344.35	12.43	-42.2	-43.4	21.6	0.00e+00	0	41	0	830472192	58	6023
2026-01-24 20:22:54.51	344.18	12.39	-42.2	-43.5	21.5	0.00e+00	0	41	0	832569344	58	6058
2026-01-24 20:22:55.51	344.00	12.35	-42.5	-43.8	21.4	0.00e+00	31	41	0	834666496	58	6250
2026-01-24 20:22:56.52	343.83	12.31	-42.2	-43.4	21.6	0.00e+00	86	41	0	836763648	58	6012
2026-01-24 20:22:57.53	343.65	12.27	-42.3	-43.6	21.5	0.00e+00	0	41	0	837812224	58	6108
2026-01-24 20:22:58.54	343.48	12.22	-42.4	-43.6	21.4	0.00e+00	75	41	0	839909376	58	6159
2026-01-24 20:22:59.55	343.30	12.18	-42.7	-43.9	21.1	0.00e+00	0	41	0	842006528	58	6390
2026-01-24 20:23:00.56	343.13	12.14	-42.4	-43.6	21.3	0.00e+00	0	41	0	844103680	58	6153
2026-01-24 20:23:01.57	342.96	12.09	-42.3	-43.5	21.4	0.00e+00	0	41	0	846200832	58	6062
2026-01-24 20:23:02.57	342.79	12.05	-42.3	-43.5	21.6	0.00e+00	0	41	0	847249408	58	6063
2026-01-24 20:23:03.58	342.61	12.01	-42.3	-43.4	21.6	0.00e+00	11	41	0	849346560	58	6015
2026-01-24 20:23:04.59	342.44	11.96	-41.7	-42.8	22.2	0.00e+00	0	41	0	851443712	58	5569
2026-01-24 20:23:05.60	342.27	11.92	-41.6	-42.7	22.2	0.00e+00	81	41	0	853540864	56	6207
2026-01-24 20:23:06.61	342.10	11.88	-41.6	-42.6	22.4	0.00e+00	0	41	0	855638016	56	6139
2026-01-24 20:23:07.62	341.93	11.83	-42.2	-43.3	22.0	0.00e+00	33	41	0	856686592	56	6630
2026-01-24 20:23:08.63	341.76	11.79	-42.5	-43.7	21.7	0.00e+00	0	41	0	858783744	56	6941
2026-01-24 20:23:09.64	341.59	11.74	-42.5	-43.7	21.3	0.00e+00	0	41	0	860880896	58	6239
2026-01-24 20:23:10.65	341.43	11.70	-43.4	-44.8	20.8	0.00e+00	21	41	0	862978048	58	7017
2026-01-24 20:23:11.66	341.26	11.65	-43.1	-44.4	21.1	0.00e+00	0	41	0	865075200	58	6693
2026-01-24 20:23:12.67	341.09	11.61	-43.9	-45.3	20.3	0.00e+00	82	41	0	866123776	58	7507
2026-01-24 20:23:13.68	340.93	11.56	-44.1	-45.6	19.8	0.00e+00	0	41	0	868220928	60	6917
2026-01-24 20:23:14.69	340.76	11.52	-44.0	-45.5	20.0	0.00e+00	55	41	0	870318080	60	6804
2026-01-24 20:23:15.70	340.59	11.47	-44.1	-45.6	20.3	0.00e+00	0	41	0	872415232	60	6850
2026-01-24 20:23:16.71	340.43	11.43	-43.5	-44.8	20.6	0.00e+00	0	41	0	874512384	60	6291
2026-01-24 20:23:17.71	340.27	11.38	-44.0	-45.4	20.0	0.00e+00	0	41	0	875560960	60	6743
2026-01-24 20:23:18.72	340.10	11.33	-43.4	-44.7	20.9	0.00e+00	0	41	0	877658112	60	6216
2026-01-24 20:23:19.73	339.94	11.29	-43.8	-45.2	20.4	0.00e+00	5	41	0	879755264	60	6568
2026-01-24 20:23:20.74	339.78	11.24	-43.9	-45.3	20.4	0.00e+00	0	41	0	881852416	60	6661
2026-01-24 20:23:21.75	339.61	11.20	-43.7	-45.1	20.4	0.00e+00	43	41	0	883949568	60	6510
2026-01-24 20:23:22.76	339.45	11.15	-44.0	-45.5	19.9	0.00e+00	0	41	0	884998144	60	6813
2026-01-24 20:23:23.77	339.29	11.10	-44.8	-46.4	19.3	0.00e+00	0	41	0	887095296	60	7592
2026-01-24 20:23:24.78	339.13	11.06	-45.0	-46.7	19.1	0.00e+00	0	41	0	889192448	60	7812
2026-01-24 20:23:25.79	338.97	11.01	-45.4	-47.2	18.6	0.00e+00	0	41	0	891289600	60	8304
2026-01-24 20:23:26.80	338.81	10.96	-45.8	-47.8	18.1	0.00e+00	87	41	0	893386752	60	8859
2026-01-24 20:23:27.81	338.65	10.92	-45.7	-47.7	18.2	0.00e+00	0	41	0	894435328	60	8790
2026-01-24 20:23:28.82	338.49	10.87	-46.1	-48.3	17.6	0.00e+00	45	41	0	896532480	60	9347
2026-01-24 20:23:29.82	338.33	10.82	-45.6	-47.5	18.3	0.00e+00	0	41	0	898629632	60	8608
2026-01-24 20:23:30.83	338.18	10.77	-45.9	-47.8	18.1	0.00e+00	0	41	0	900726784	60	8850
2026-01-24 20:23:31.84	338.02	10.73	-45.5	-47.2	18.7	0.00e+00	0	41	0	902823936	60	8327
2026-01-24 20:23:32.85	337.86	10.68	-45.6	-47.3	18.7	0.00e+00	0	41	0	904921088	60	8396
2026-01-24 20:23:33.86	337.71	10.63	-45.2	-46.8	19.2	0.00e+00	6	41	0	905969664	60	7915
2026-01-24 20:23:34.87	337.55	10.58	-44.8	-46.4	19.0	0.00e+00	0	41	0	908066816	60	7574
2026-01-24 20:23:35.88	337.40	10.53	-44.7	-46.3	19.1	0.00e+00	92	41	0	910163968	60	7429
2026-01-24 20:23:36.89	337.24	10.49	-44.6	-46.2	19.3	0.00e+00	0	41	0	912261120	60	7377
2026-01-24 20:23:37.90	337.09	10.44	-44.3	-45.9	19.3	0.00e+00	0	41	0	914358272	60	7115
2026-01-24 20:23:38.91	336.93	10.39	-44.1	-45.6	19.4	0.00e+00	0	41	0	915406848	60	6912
2026-01-24 20:23:39.92	336.78	10.34	-44.3	-45.8	19.4	0.00e+00	0	41	0	917504000	60	7044
2026-01-24 20:23:40.93	336.63	10.29	-43.8	-45.2	20.1	0.00e+00	9	41	0	919601152	60	6574
2026-01-24 20:23:41.94	336.48	10.24	-43.9	-45.2	20.2	0.00e+00	0	41	0	921698304	60	6604
2026-01-24 20:23:42.95	336.32	10.19	-44.2	-45.6	19.9	0.00e+00	49	41	0	923795456	60	6862
2026-01-24 20:23:43.96	336.17	10.15	-43.9	-45.3	20.0	0.00e+00	0	41	0	924844032	60	6653
2026-01-24 20:23:44.97	336.02	10.10	-43.8	-45.2	20.0	0.00e+00	0	41	0	926941184	60	6543
2026-01-24 20:23:45.98	335.87	10.05	-43.7	-45.1	20.0	0.00e+00	0	41	0	929038336	60	6506
2026-01-24 20:23:46.99	335.72	10.00	-43.5	-44.9	20.0	0.00e+00	0	41	0	931135488	60	6342
2026-01-24 20:23:47.99	335.58	9.95	-43.7	-45.1	20.0	0.00e+00	0	41	0	933232640	60	6474
2026-01-24 20:23:49.00	335.43	9.90	-43.6	-45.0	20.1	0.00e+00	0	41	0	934281216	60	6398
2026-01-24 20:23:50.01	335.28	9.85	-43.1	-44.4	20.5	0.00e+00	91	41	0	936378368	60	5977
2026-01-24 20:23:51.02	335.13	9.80	-43.2	-44.4	20.7	0.00e+00	0	41	0	938475520	60	6003
2026-01-24 20:23:52.03	334.99	9.75	-43.0	-44.2	20.7	0.00e+00	70	41	0	940572672	58	6587
2026-01-24 20:23:53.04	334.84	9.70	-43.4	-44.7	20.4	0.00e+00	0	41	0	942669824	58	6934
2026-01-24 20:23:54.05	334.69	9.65	-42.8	-44.0	21.1	0.00e+00	0	41	0	943718400	58	6439
2026-01-24 20:23:55.06	334.55	9.60	-42.9	-44.1	20.8	0.00e+00	0	41	0	945815552	58	6508
2026-01-24 20:23:56.07	334.40	9.55	-43.3	-44.5	20.8	0.00e+00	0	41	0	947912704	58	6819
2026-01-24 20:23:57.08	334.26	9.50	-43.1	-44.3	20.8	0.00e+00	73	41	0	950009856	58	6669
2026-01-24 20:23:58.09	334.11	9.45	-43.2	-44.4	20.7	0.00e+00	0	41	0	952107008	58	6747
2026-01-24 20:23:59.10	333.97	9.40	-43.5	-44.8	20.5	0.00e+00	92	41	0	953155584	58	7016
2026-01-24 20:24:00.11	333.83	9.35	-43.2	-44.5	20.8	0.00e+00	0	41	0	955252736	58	6786
2026-01-24 20:24:01.12	333.69	9.30	-43.9	-45.2	20.3	0.00e+00	0	41	0	957349888	58	7359
2026-01-24 20:24:02.13	333.54	9.25	-44.0	-45.4	20.2	0.00e+00	29	41	0	959447040	60	6715
2026-01-24 20:24:03.14	333.40	9.20	-43.9	-45.2	20.3	0.00e+00	0	41	0	961544192	60	6610
2026-01-24 20:24:04.15	333.26	9.15	-44.0	-45.4	20.1	0.00e+00	70	41	0	962592768	60	6693
2026-01-24 20:24:05.16	333.12	9.10	-43.6	-44.9	20.3	0.00e+00	29	41	0	964689920	60	6390
2026-01-24 20:24:06.17	332.98	9.05	-43.5	-44.8	20.4	0.00e+00	90	41	0	966787072	60	6309
2026-01-24 20:24:07.18	332.84	9.00	-44.3	-45.7	20.1	0.00e+00	0	41	0	968884224	60	6966
2026-01-24 20:24:08.19	332.70	8.95	-43.9	-45.2	20.2	0.00e+00	29	41	0	970981376	60	6611
2026-01-24 20:24:09.20	332.57	8.90	-44.7	-46.2	19.3	0.00e+00	0	41	0	973078528	60	7366
2026-01-24 20:24:10.21	332.43	8.85	-44.4	-45.8	19.6	0.00e+00	0	41	0	974127104	60	7056
2026-01-24 20:24:11.22	332.29	8.80	-44.2	-45.6	19.8	0.00e+00	84	41	0	976224256	60	6858
2026-01-24 20:24:12.23	332.15	8.74	-44.4	-45.9	19.5	0.00e+00	0	41	0	978321408	60	7130
2026-01-24 20:24:13.24	332.02	8.69	-44.1	-45.5	19.9	0.00e+00	92	41	0	980418560	60	6833
2026-01-24 20:24:14.25	331.88	8.64	-43.8	-45.2	20.1	0.00e+00	0	41	0	982515712	60	6559
2026-01-24 20:24:15.26	331.75	8.59	-44.1	-45.5	20.0	0.00e+00	92	41	0	983564288	60	6773
2026-01-24 20:24:16.27	331.61	8.54	-43.9	-45.2	20.2	0.00e+00	0	41	0	985661440	60	6584
2026-01-24 20:24:17.28	331.48	8.49	-44.1	-45.5	20.2	0.00e+00	0	41	0	987758592	60	6809
2026-01-24 20:24:18.29	331.34	8.44	-43.6	-44.9	20.8	0.00e+00	0	41	0	989855744	60	6348
2026-01-24 20:24:19.30	331.21	8.39	-43.8	-45.2	20.5	0.00e+00	0	41	0	991952896	60	6547
2026-01-24 20:24:20.31	331.08	8.33	-43.4	-44.6	20.7	0.00e+00	72	41	0	993001472	60	6155
2026-01-24 20:24:21.32	330.94	8.28	-43.2	-44.5	20.9	0.00e+00	0	41	0	995098624	60	6054
2026-01-24 20:24:22.33	330.81	8.23	-42.9	-44.2	20.9	0.00e+00	19	41	0	997195776	60	5832
2026-01-24 20:24:23.34	330.68	8.18	-43.1	-44.3	21.1	0.00e+00	0	41	0	999292928	60	5925
2026-01-24 20:24:24.35	330.55	8.13	-42.8	-44.0	21.4	0.00e+00	0	41	0	1001390080	60	5715
2026-01-24 20:24:25.36	330.42	8.08	-42.5	-43.6	21.6	0.00e+00	0	41	0	1002438656	58	6173
2026-01-24 20:24:26.37	330.29	8.03	-42.4	-43.5	21.6	0.00e+00	0	41	0	1004535808	58	6072
2026-01-24 20:24:27.38	330.16	7.97	-43.0	-44.2	21.0	0.00e+00	90	41	0	1006632960	58	6592
2026-01-24 20:24:28.39	330.03	7.92	-42.7	-43.8	21.4	0.00e+00	0	41	0	1008730112	58	6284
2026-01-24 20:24:29.40	329.90	7.87	-42.9	-44.1	21.1	0.00e+00	92	41	0	1010827264	58	6521
2026-01-24 20:24:30.40	329.77	7.82	-43.0	-44.1	21.4	0.00e+00	0	41	0	1011875840	58	6536
2026-01-24 20:24:31.41	329.65	7.77	-42.7	-43.9	21.4	0.00e+00	0	41	0	1013972992	58	6347
2026-01-24 20:24:32.42	329.52	7.72	-42.6	-43.8	21.3	0.00e+00	0	41	0	1016070144	58	6272
2026-01-24 20:24:33.43	329.39	7.66	-42.3	-43.4	21.6	0.00e+00	0	41	0	1018167296	58	6009
2026-01-24 20:24:34.44	329.27	7.61	-42.5	-43.7	21.2	0.00e+00	1	41	0	1020264448	58	6219
2026-01-24 20:24:35.45	329.14	7.56	-42.3	-43.5	21.4	0.00e+00	0	41	0	1021313024	58	6045
2026-01-24 20:24:36.46	329.01	7.51	-42.2	-43.3	21.4	0.00e+00	92	41	0	1023410176	58	5919
2026-01-24 20:24:37.47	328.89	7.46	-41.8	-42.8	22.0	0.00e+00	0	41	0	1025507328	58	5619
2026-01-24 20:24:38.48	328.76	7.40	-42.5	-43.7	21.3	0.00e+00	0	41	0	1027604480	56	6932
2026-01-24 20:24:39.49	328.64	7.35	-42.4	-43.5	21.7	0.00e+00	0	41	0	1029701632	56	6794
2026-01-24 20:24:40.50	328.52	7.30	-42.2	-43.3	21.6	0.00e+00	0	41	0	1030750208	56	6692
2026-01-24 20:24:41.51	328.39	7.25	-42.3	-43.4	21.4	0.00e+00	1	41	0	1032847360	56	6759
2026-01-24 20:24:42.52	328.27	7.20	-43.0	-44.2	20.8	0.00e+00	0	41	0	1034944512	58	6578
2026-01-24 20:24:43.53	328.15	7.14	-41.8	-42.9	21.7	0.00e+00	92	41	0	1037041664	58	5631
2026-01-24 20:24:44.54	328.03	7.09	-42.1	-43.3	21.4	0.00e+00	0	41	0	1039138816	56	6625
2026-01-24 20:24:45.54	327.91	7.04	-42.9	-44.1	20.7	0.00e+00	0	41	0	1041235968	58	6506
2026-01-24 20:24:46.55	327.78	6.99	-42.5	-43.7	21.3	0.00e+00	0	41	0	1042284544	58	6184
2026-01-24 20:24:47.56	327.66	6.94	-42.6	-43.7	21.2	0.00e+00	0	41	0	1044381696	58	6243
2026-01-24 20:24:48.57	327.54	6.88	-42.8	-44.0	20.8	0.00e+00	65	41	0	1046478848	58	6463
2026-01-24 20:24:49.59	327.42	6.83	-42.8	-44.0	21.1	0.00e+00	0	41	0	1048576000	58	6454
2026-01-24 20:24:50.59	327.31	6.78	-42.9	-44.2	20.6	0.00e+00	81	41	0	1050673152	58	6579
2026-01-24 20:24:51.61	327.19	6.73	-42.9	-44.1	20.6	0.00e+00	0	41	0	1051721728	58	6511
2026-01-24 20:24:52.62	327.07	6.68	-43.0	-44.3	20.5	0.00e+00	82	41	0	1053818880	58	6671
2026-01-24 20:24:53.63	326.95	6.62	-42.9	-44.2	20.4	0.00e+00	0	41	0	1055916032	58	6581
2026-01-24 20:24:54.64	326.83	6.57	-43.0	-44.3	20.4	0.00e+00	0	41	0	1058013184	58	6671
2026-01-24 20:24:55.64	326.72	6.52	-43.2	-44.5	20.3	0.00e+00	59	41	0	1060110336	58	6848
2026-01-24 20:24:56.65	326.60	6.47	-43.2	-44.5	20.1	0.00e+00	0	41	0	1061158912	58	6847
2026-01-24 20:24:57.67	326.48	6.41	-42.5	-43.8	20.9	0.00e+00	92	41	0	1063256064	58	6255
2026-01-24 20:24:58.67	326.37	6.36	-42.6	-43.8	20.7	0.00e+00	0	41	0	1065353216	58	6256
2026-01-24 20:24:59.68	326.25	6.31	-42.9	-44.2	20.4	0.00e+00	46	41	0	1067450368	58	6602
2026-01-24 20:25:00.69	326.14	6.26	-42.4	-43.6	21.0	0.00e+00	0	41	0	1069547520	58	6127
2026-01-24 20:25:01.70	326.02	6.21	-42.9	-44.1	20.9	0.00e+00	0	41	0	1070596096	58	6532
2026-01-24 20:25:02.71	325.91	6.15	-42.8	-44.0	21.1	0.00e+00	2	41	0	1072693248	58	6444
2026-01-24 20:25:03.72	325.80	6.10	-42.8	-44.0	20.8	0.00e+00	0	41	0	1074790400	58	6401
2026-01-24 20:25:04.73	325.68	6.05	-41.9	-43.0	21.8	0.00e+00	0	41	0	1076887552	56	6424
2026-01-24 20:25:05.74	325.57	6.00	-42.9	-44.0	20.7	0.00e+00	0	41	0	1078984704	58	6460
2026-01-24 20:25:06.75	325.46	5.94	-43.5	-44.8	20.3	0.00e+00	74	41	0	1080033280	58	7036
2026-01-24 20:25:07.76	325.34	5.89	-42.8	-43.9	20.9	0.00e+00	0	41	0	1082130432	58	6371
2026-01-24 20:25:08.77	325.23	5.84	-43.0	-44.2	20.8	0.00e+00	0	41	0	1084227584	58	6604
2026-01-24 20:25:09.78	325.12	5.79	-42.0	-43.1	21.9	0.00e+00	4	41	0	1086324736	58	5789
2026-01-24 20:25:10.79	325.01	5.74	-43.3	-44.5	20.5	0.00e+00	0	41	0	1088421888	58	6841
2026-01-24 20:25:11.80	324.90	5.68	-43.0	-44.2	20.8	0.00e+00	61	41	0	1089470464	58	6604
2026-01-24 20:25:12.81	324.79	5.63	-44.4	-45.9	19.6	0.00e+00	0	41	0	1091567616	60	7112
2026-01-24 20:25:13.82	324.68	5.58	-43.6	-44.9	20.3	0.00e+00	92	41	0	1093664768	60	6357
2026-01-24 20:25:14.82	324.57	5.53	-44.6	-46.1	19.4	0.00e+00	0	41	0	1095761920	60	7325
2026-01-24 20:25:15.83	324.46	5.47	-43.9	-45.3	20.1	0.00e+00	0	41	0	1097859072	60	6637
2026-01-24 20:25:16.84	324.36	5.42	-44.4	-45.9	19.5	0.00e+00	30	41	0	1098907648	60	7168
2026-01-24 20:25:17.85	324.25	5.37	-45.3	-47.1	18.2	0.00e+00	0	41	0	1101004800	60	8154
2026-01-24 20:25:18.86	324.14	5.32	-43.7	-45.0	20.3	0.00e+00	78	41	0	1103101952	60	6445
2026-01-24 20:25:19.87	324.03	5.27	-45.1	-46.8	18.5	0.00e+00	0	41	0	1105199104	60	7935
2026-01-24 20:25:20.88	323.93	5.21	-43.7	-45.1	19.9	0.00e+00	64	41	0	1107296256	60	6491
2026-01-24 20:25:21.89	323.82	5.16	-45.1	-46.8	18.2	0.00e+00	0	41	0	1109393408	60	7906
2026-01-24 20:25:22.90	323.71	5.11	-45.0	-46.7	18.3	0.00e+00	6	41	0	1110441984	60	7860
2026-01-24 20:25:23.91	323.61	5.06	-44.9	-46.5	18.7	0.00e+00	0	41	0	1112539136	60	7677
2026-01-24 20:25:24.92	323.50	5.00	-42.9	-44.1	20.9	0.00e+00	0	41	0	1114636288	60	5826
2026-01-24 20:25:25.93	323.40	4.95	-44.3	-45.8	19.0	0.00e+00	78	41	0	1116733440	60	7068
2026-01-24 20:25:26.94	323.30	4.90	-43.6	-45.0	19.9	0.00e+00	0	41	0	1118830592	60	6399
2026-01-24 20:25:27.95	323.19	4.85	-43.1	-44.4	20.3	0.00e+00	93	41	0	1119879168	60	6007
2026-01-24 20:25:28.96	323.09	4.80	-43.7	-45.0	20.1	0.00e+00	0	41	0	1121976320	60	6440
2026-01-24 20:25:29.97	322.98	4.74	-43.6	-45.0	20.2	0.00e+00	47	41	0	1124073472	60	6417
2026-01-24 20:25:30.98	322.88	4.69	-43.3	-44.6	20.5	0.00e+00	0	41	0	1126170624	60	6145
2026-01-24 20:25:31.99	322.78	4.64	-42.7	-43.9	20.8	0.00e+00	0	41	0	1128267776	60	5664
2026-01-24 20:25:33.00	322.68	4.59	-43.0	-44.2	20.4	0.00e+00	0	41	0	1129316352	58	6594
2026-01-24 20:25:34.01	322.58	4.54	-42.1	-43.2	21.4	0.00e+00	0	41	0	1131413504	58	5885
2026-01-24 20:25:35.02	322.47	4.48	-42.8	-44.0	20.5	0.00e+00	58	41	0	1133510656	58	6449
2026-01-24 20:25:36.03	322.37	4.43	-42.3	-43.5	21.0	0.00e+00	0	41	0	1135607808	58	6073
2026-01-24 20:25:37.04	322.27	4.38	-43.7	-45.1	19.8	0.00e+00	63	41	0	1137704960	60	6522
2026-01-24 20:25:38.05	322.17	4.33	-42.5	-43.7	21.1	0.00e+00	0	41	0	1138753536	56	6934
2026-01-24 20:25:39.06	322.07	4.28	-44.5	-46.0	18.5	0.00e+00	0	41	0	1140850688	60	7222
2026-01-24 20:25:40.07	321.97	4.22	-43.7	-45.0	19.8	0.00e+00	0	41	0	1142947840	60	6432
2026-01-24 20:25:41.08	321.87	4.17	-44.7	-46.3	19.0	0.00e+00	0	41	0	1145044992	60	7453
2026-01-24 20:25:42.09	321.77	4.12	-43.5	-44.8	20.3	0.00e+00	62	41	0	1147142144	60	6253
2026-01-24 20:25:43.09	321.68	4.07	-44.5	-46.0	18.8	0.00e+00	0	41	0	1148190720	60	7239
2026-01-24 20:25:44.10	321.58	4.02	-43.8	-45.2	19.7	0.00e+00	92	41	0	1150287872	60	6607
2026-01-24 20:25:45.11	321.48	3.97	-44.6	-46.3	18.9	0.00e+00	0	41	0	1152385024	60	7431
2026-01-24 20:25:46.12	321.38	3.91	-45.1	-46.7	18.4	0.00e+00	2	41	0	1154482176	60	7833
2026-01-24 20:25:47.13	321.29	3.86	-45.3	-47.2	17.4	0.00e+00	0	41	0	1156579328	60	8278
2026-01-24 20:25:48.13	321.19	3.81	-45.8	-47.8	17.3	0.00e+00	0	41	0	1157627904	60	8900
2026-01-24 20:25:49.14	321.09	3.76	-44.9	-46.6	18.2	0.00e+00	92	41	0	1159725056	60	7752
2026-01-24 20:25:50.15	321.00	3.71	-45.8	-47.9	16.8	0.00e+00	0	41	0	1161822208	60	8950
2026-01-24 20:25:51.15	320.90	3.66	-47.1	-49.8	15.8	0.00e+00	90	41	0	1163919360	60	11202
2026-01-24 20:25:52.16	320.81	3.60	-45.9	-48.0	17.4	0.00e+00	5	41	0	1166016512	60	9038
2026-01-24 20:25:53.17	320.71	3.55	-47.4	-50.2	15.5	0.00e+00	0	41	0	1167065088	60	11752
2026-01-24 20:25:54.18	320.62	3.50	-46.9	-49.4	16.0	0.00e+00	0	41	0	1169162240	60	10726
2026-01-24 20:25:55.19	320.53	3.45	-46.5	-48.8	15.7	0.00e+00	0	41	0	1171259392	60	9991
2026-01-24 20:25:56.19	320.43	3.40	-46.0	-48.0	18.0	0.00e+00	61	41	0	1173356544	60	9089
2026-01-24 20:25:57.21	320.34	3.35	-47.6	-50.5	15.2	0.00e+00	0	41	0	1175453696	60	12172
2026-01-24 20:25:58.21	320.25	3.30	-45.1	-46.9	17.8	0.00e+00	83	41	0	1176502272	60	7971
2026-01-24 20:25:59.22	320.15	3.24	-47.1	-49.9	14.9	0.00e+00	0	41	0	1178599424	60	11286
2026-01-24 20:26:00.23	320.06	3.19	-46.5	-49.0	15.9	0.00e+00	26	41	0	1180696576	60	10146
2026-01-24 20:26:01.24	319.97	3.14	-46.9	-49.6	15.1	0.00e+00	0	41	0	1182793728	60	10948
2026-01-24 20:26:02.25	319.88	3.09	-45.5	-47.4	17.6	0.00e+00	0	41	0	1184890880	60	8508
2026-01-24 20:26:03.26	319.78	3.04	-44.8	-46.5	18.3	0.00e+00	2	41	0	1185939456	60	7676
2026-01-24 20:26:04.27	319.69	2.99	-46.2	-48.3	16.7	0.00e+00	0	41	0	1188036608	60	9382
2026-01-24 20:26:05.29	319.60	2.93	-51.7	-66.8	3.6	1.54e+00	0	41	104	1189085184	60	78732
2026-01-24 20:26:06.30	319.51	2.88	-51.8	-67.0	3.6	1.51e+00	0	41	104	1189085184	60	81041
2026-01-24 20:26:07.31	319.42	2.83	-51.8	-66.9	3.6	1.51e+00	0	41	104	1189085184	60	79712
