passes_logs/2026/01/24/R4.6S_Anadyr/R4.6S_Anadyr__20260124_115520_SUOMI_NPP_rec.log

#Pass ID: 20260124_115520_SUOMI NPP
#Satellite: SUOMI NPP
#Configuration: NPP
#almurnet v.1.7.20251203
#Start time: 2026-01-24 11:55:21

#Version: 2.2.20231116
#Station: R4.6S_Anadyr
#Location: 177.4865 lon 64.73178 lat
#TLE: 1 37849U 11061A   26024.12615439  .00000221  00000+0  12601-3 0  9992
#TLE: 2 37849  98.7821 326.0966 0002215  48.1259 312.0106 14.19529288738009

#Time	Az	El	Level	Level2	SNR	BER	BlckErr	Temp	State	Recorded	gain1	gain2
2026-01-24 11:55:21.94	20.05	0.06	-51.9	-64.6	3.4	1.52e+00	0	39	0	0	60	59285
2026-01-24 11:55:22.95	20.14	0.10	-52.7	-67.8	3.6	1.51e+00	0	40	104	0	60	89087
2026-01-24 11:55:23.96	20.23	0.14	-53.1	-68.3	3.6	1.51e+00	0	40	104	0	60	94305
2026-01-24 11:55:24.97	20.32	0.19	-52.3	-67.5	3.6	1.51e+00	0	40	104	0	60	85771
2026-01-24 11:55:25.98	20.41	0.23	-51.9	-67.1	3.6	1.51e+00	0	40	104	0	60	81914
2026-01-24 11:55:26.99	20.50	0.27	-51.7	-67.0	3.6	1.51e+00	0	40	104	0	60	80840
2026-01-24 11:55:28.00	20.59	0.32	-51.7	-66.9	3.6	1.51e+00	0	40	104	0	60	79892
2026-01-24 11:55:29.00	20.68	0.36	-51.6	-66.9	3.6	1.51e+00	0	40	104	0	60	79824
2026-01-24 11:55:30.01	20.77	0.40	-51.6	-66.8	3.6	1.51e+00	0	40	104	0	60	79415
2026-01-24 11:55:31.02	20.86	0.45	-51.6	-66.8	3.6	1.51e+00	0	40	104	0	60	79144
2026-01-24 11:55:32.03	20.96	0.49	-51.5	-66.8	3.6	1.51e+00	0	40	104	0	60	78669
2026-01-24 11:55:33.04	21.05	0.53	-51.5	-66.7	3.6	1.51e+00	0	40	104	0	60	78312
2026-01-24 11:55:34.05	21.14	0.58	-51.4	-66.7	3.6	1.51e+00	0	40	104	0	60	77873
2026-01-24 11:55:35.06	21.23	0.62	-51.4	-66.6	3.6	1.51e+00	0	40	104	0	60	77549
2026-01-24 11:55:36.07	21.33	0.67	-51.4	-66.6	3.6	1.51e+00	0	40	104	0	60	76961
2026-01-24 11:55:37.08	21.42	0.71	-51.2	-66.5	3.6	1.51e+00	0	40	104	0	60	76295
2026-01-24 11:55:38.09	21.51	0.75	-51.2	-66.4	3.6	1.51e+00	0	40	104	0	60	75418
2026-01-24 11:55:39.10	21.61	0.80	-51.1	-66.3	3.6	1.51e+00	0	40	104	0	60	75004
2026-01-24 11:55:40.11	21.70	0.84	-51.0	-66.3	3.6	1.51e+00	0	40	104	0	60	74293
2026-01-24 11:55:41.12	21.79	0.88	-50.9	-66.2	3.6	1.51e+00	0	40	104	0	60	73477
2026-01-24 11:55:42.13	21.89	0.93	-50.8	-66.0	3.6	1.51e+00	0	40	104	0	60	72385
2026-01-24 11:55:43.14	21.98	0.97	-50.7	-65.9	3.6	1.51e+00	0	40	104	0	60	71588
2026-01-24 11:55:44.15	22.08	1.01	-50.5	-65.8	3.6	1.51e+00	0	40	104	0	60	70173
2026-01-24 11:55:45.16	22.17	1.06	-50.3	-65.5	3.6	1.51e+00	0	40	104	0	60	67962
2026-01-24 11:55:46.17	22.27	1.10	-49.9	-65.1	3.6	1.51e+00	0	40	104	0	60	65173
2026-01-24 11:55:47.18	22.36	1.14	-49.8	-65.0	3.6	1.51e+00	0	40	104	0	60	64335
2026-01-24 11:55:48.19	22.46	1.19	-49.8	-64.9	3.6	1.51e+00	0	40	104	0	60	63745
2026-01-24 11:55:49.20	22.55	1.23	-49.8	-65.0	3.6	1.51e+00	0	40	104	0	60	64257
2026-01-24 11:55:50.21	22.65	1.28	-49.8	-64.9	3.6	1.51e+00	0	40	104	0	60	63675
2026-01-24 11:55:51.22	22.75	1.32	-49.8	-64.9	3.6	1.51e+00	0	40	104	0	60	63617
2026-01-24 11:55:52.23	22.84	1.36	-49.8	-64.9	3.6	1.51e+00	0	40	104	0	60	63864
2026-01-24 11:55:53.24	22.94	1.41	-49.7	-64.7	3.6	1.51e+00	0	40	104	0	60	62440
2026-01-24 11:55:54.25	23.04	1.45	-49.7	-64.9	3.6	1.51e+00	0	40	104	0	60	63793
2026-01-24 11:55:55.26	23.14	1.49	-49.8	-64.9	3.6	1.51e+00	0	40	104	0	60	63778
2026-01-24 11:55:56.27	23.23	1.54	-49.7	-64.9	3.6	1.51e+00	0	40	104	0	60	63528
2026-01-24 11:55:57.28	23.33	1.58	-49.7	-64.9	3.6	1.51e+00	0	40	104	0	60	63558
2026-01-24 11:55:58.29	23.43	1.63	-49.7	-64.9	3.6	1.51e+00	0	40	104	0	60	63359
2026-01-24 11:55:59.30	23.53	1.67	-49.8	-64.9	3.6	1.51e+00	0	40	104	0	60	63697
2026-01-24 11:56:00.31	23.63	1.71	-49.7	-64.9	3.6	1.51e+00	0	40	104	0	60	63801
2026-01-24 11:56:01.32	23.73	1.76	-49.7	-64.9	3.6	1.51e+00	0	40	104	0	60	63762
2026-01-24 11:56:02.32	23.83	1.80	-49.8	-65.0	3.6	1.51e+00	0	40	104	0	60	64113
2026-01-24 11:56:03.33	23.93	1.84	-49.7	-64.9	3.6	1.51e+00	0	40	104	0	60	63516
2026-01-24 11:56:04.35	24.03	1.89	-49.7	-64.9	3.6	1.51e+00	0	40	104	0	60	63385
2026-01-24 11:56:05.36	24.13	1.93	-49.7	-65.0	3.6	1.51e+00	0	40	104	0	60	64075
2026-01-24 11:56:06.37	24.23	1.98	-49.7	-64.9	3.6	1.51e+00	0	40	104	0	60	63795
2026-01-24 11:56:07.38	24.33	2.02	-49.7	-64.9	3.6	1.51e+00	0	40	104	0	60	63428
2026-01-24 11:56:08.39	24.43	2.06	-49.7	-64.9	3.6	1.51e+00	0	40	104	0	60	63327
2026-01-24 11:56:09.40	24.53	2.11	-49.7	-64.8	3.6	1.51e+00	0	40	104	0	60	62940
2026-01-24 11:56:10.41	24.63	2.15	-49.7	-64.6	3.6	1.51e+00	0	40	104	0	60	61346
2026-01-24 11:56:11.42	24.74	2.19	-49.8	-64.9	3.5	1.51e+00	0	40	104	0	60	63537
2026-01-24 11:56:12.43	24.84	2.24	-49.8	-64.8	3.6	1.51e+00	0	40	104	0	60	63106
2026-01-24 11:56:13.44	24.94	2.28	-49.7	-64.7	3.6	1.51e+00	0	40	104	0	60	62371
2026-01-24 11:56:14.44	25.04	2.32	-49.7	-64.9	3.6	1.51e+00	0	41	104	0	60	63348
2026-01-24 11:56:15.45	25.15	2.37	-49.7	-64.8	3.6	1.51e+00	0	40	104	0	60	63147
2026-01-24 11:56:16.46	25.25	2.41	-49.7	-64.9	3.6	1.51e+00	0	40	104	0	60	63346
2026-01-24 11:56:17.47	25.35	2.46	-49.7	-64.8	3.6	1.51e+00	0	41	104	0	60	62753
2026-01-24 11:56:18.48	25.46	2.50	-49.7	-63.5	3.6	1.51e+00	0	41	104	0	60	53910
2026-01-24 11:56:19.49	25.56	2.54	-49.7	-63.4	3.6	1.51e+00	0	40	104	0	60	53292
2026-01-24 11:56:20.50	25.67	2.59	-49.6	-63.2	3.6	1.51e+00	0	41	104	0	60	52074
2026-01-24 11:56:21.51	25.77	2.63	-49.5	-60.5	4.4	1.45e+00	4	41	104	0	60	38103
2026-01-24 11:56:22.52	25.88	2.67	-48.8	-55.4	7.8	2.97e-01	0	41	0	1048576	60	21387
2026-01-24 11:56:23.53	25.98	2.72	-48.5	-54.1	9.3	3.68e-02	0	41	0	3145728	60	18416
2026-01-24 11:56:24.54	26.09	2.76	-46.3	-49.2	14.7	1.26e-04	0	40	0	4194304	60	10419
2026-01-24 11:56:25.55	26.20	2.80	-44.9	-47.0	17.2	0.00e+00	0	40	0	6291456	60	8136
2026-01-24 11:56:26.56	26.30	2.85	-44.1	-45.9	17.6	0.00e+00	0	41	0	8388608	60	7130
2026-01-24 11:56:27.57	26.41	2.89	-43.4	-45.1	18.2	0.00e+00	0	41	0	10485760	60	6501
2026-01-24 11:56:28.58	26.52	2.93	-45.1	-47.3	17.1	0.00e+00	0	40	0	12582912	60	8346
2026-01-24 11:56:29.59	26.62	2.98	-44.2	-46.2	17.0	0.00e+00	0	41	0	13631488	60	7340
2026-01-24 11:56:30.61	26.73	3.02	-47.3	-51.1	12.5	5.30e-06	0	41	0	15728640	60	13011
2026-01-24 11:56:31.62	26.84	3.07	-44.6	-46.5	17.4	3.77e-03	0	41	0	17825792	60	7677
2026-01-24 11:56:32.63	26.95	3.11	-44.9	-47.0	16.9	0.00e+00	0	41	0	19922944	60	8068
2026-01-24 11:56:33.63	27.06	3.15	-49.4	-58.4	3.4	8.46e-03	29	41	0	22020096	60	30036
2026-01-24 11:56:34.64	27.16	3.20	-49.5	-61.4	4.0	1.51e+00	0	41	104	22020096	60	42412
2026-01-24 11:56:35.65	27.27	3.24	-43.7	-45.3	17.3	9.15e-01	0	41	0	22020096	60	6663
2026-01-24 11:56:36.66	27.38	3.28	-44.5	-46.3	18.1	3.47e-04	0	41	0	24117248	60	7442
2026-01-24 11:56:37.67	27.49	3.33	-44.3	-46.1	17.8	0.00e+00	0	41	0	25165824	60	7328
2026-01-24 11:56:38.68	27.60	3.37	-45.0	-47.0	16.9	0.00e+00	0	41	0	27262976	60	8109
2026-01-24 11:56:39.69	27.71	3.41	-45.9	-48.4	15.9	0.00e+00	0	40	0	29360128	60	9522
2026-01-24 11:56:40.70	27.82	3.46	-45.7	-48.2	15.8	0.00e+00	0	41	0	31457280	60	9273
2026-01-24 11:56:41.70	27.93	3.50	-44.9	-47.0	17.2	0.00e+00	0	41	0	33554432	60	8099
2026-01-24 11:56:42.71	28.05	3.54	-44.0	-45.7	18.3	0.00e+00	0	41	0	34603008	60	6975
2026-01-24 11:56:43.72	28.16	3.59	-46.6	-49.5	14.5	0.00e+00	0	41	0	36700160	60	10808
2026-01-24 11:56:44.73	28.27	3.63	-46.9	-50.0	14.5	6.71e-05	0	41	0	38797312	60	11465
2026-01-24 11:56:45.74	28.38	3.67	-45.5	-47.8	16.4	0.00e+00	0	41	0	40894464	60	8857
2026-01-24 11:56:46.75	28.50	3.72	-44.6	-46.5	17.7	0.00e+00	0	41	0	41943040	60	7636
2026-01-24 11:56:47.76	28.61	3.76	-43.9	-45.6	18.6	0.00e+00	0	41	0	44040192	60	6906
2026-01-24 11:56:48.77	28.72	3.80	-42.9	-44.4	19.9	0.00e+00	0	41	0	46137344	60	5972
2026-01-24 11:56:49.78	28.84	3.85	-42.4	-43.8	19.6	0.00e+00	0	41	0	48234496	58	6257
2026-01-24 11:56:50.79	28.95	3.89	-44.3	-46.1	17.3	0.00e+00	0	41	0	50331648	60	7323
2026-01-24 11:56:51.79	29.06	3.93	-44.9	-47.0	17.5	0.00e+00	0	41	0	52428800	60	8053
2026-01-24 11:56:52.80	29.18	3.98	-44.1	-45.9	18.3	0.00e+00	0	41	0	53477376	60	7106
2026-01-24 11:56:53.81	29.29	4.02	-43.0	-44.5	19.6	0.00e+00	0	41	0	55574528	60	6049
2026-01-24 11:56:54.82	29.41	4.06	-42.7	-44.1	19.9	0.00e+00	0	40	0	57671680	58	6523
2026-01-24 11:56:55.83	29.52	4.11	-44.5	-46.3	17.9	0.00e+00	0	41	0	59768832	60	7472
2026-01-24 11:56:56.85	29.64	4.15	-44.5	-46.3	17.8	0.00e+00	0	41	0	61865984	60	7481
2026-01-24 11:56:57.86	29.76	4.19	-43.2	-44.7	19.6	0.00e+00	0	41	0	62914560	60	6191
2026-01-24 11:56:58.86	29.87	4.23	-41.2	-42.3	21.5	0.00e+00	0	41	0	65011712	56	5942
2026-01-24 11:56:59.87	29.99	4.28	-43.0	-44.5	19.3	0.00e+00	0	41	0	67108864	56	7649
2026-01-24 11:57:00.88	30.11	4.32	-44.0	-45.7	18.5	0.00e+00	0	41	0	69206016	60	6928
2026-01-24 11:57:01.89	30.22	4.36	-44.3	-46.1	18.1	0.00e+00	0	41	0	71303168	60	7258
2026-01-24 11:57:02.90	30.34	4.41	-42.9	-44.3	19.9	0.00e+00	0	41	0	72351744	60	5957
2026-01-24 11:57:03.91	30.46	4.45	-42.0	-43.2	20.4	0.00e+00	0	41	0	74448896	56	6615
2026-01-24 11:57:04.92	30.58	4.49	-43.1	-44.6	19.6	0.00e+00	0	41	0	76546048	58	6892
2026-01-24 11:57:05.93	30.70	4.54	-43.2	-44.7	19.5	0.00e+00	0	41	0	78643200	58	6985
2026-01-24 11:57:06.94	30.82	4.58	-43.6	-45.2	18.8	0.00e+00	0	41	0	80740352	60	6588
2026-01-24 11:57:07.94	30.93	4.62	-42.9	-44.3	19.9	0.00e+00	0	41	0	81788928	60	5901
2026-01-24 11:57:08.95	31.05	4.66	-43.4	-44.9	19.2	0.00e+00	0	41	0	83886080	58	7159
2026-01-24 11:57:09.96	31.17	4.71	-42.4	-43.8	20.2	0.00e+00	0	41	0	85983232	58	6250
2026-01-24 11:57:10.97	31.29	4.75	-42.3	-43.6	20.4	0.00e+00	0	41	0	88080384	58	6147
2026-01-24 11:57:11.97	31.41	4.79	-42.6	-44.0	20.0	0.00e+00	0	41	0	90177536	58	6395
2026-01-24 11:57:12.99	31.54	4.83	-42.9	-44.3	19.8	0.00e+00	0	41	0	91226112	58	6652
2026-01-24 11:57:14.00	31.66	4.88	-42.3	-43.5	20.7	0.00e+00	0	41	0	93323264	58	6100
2026-01-24 11:57:15.00	31.78	4.92	-41.0	-42.1	21.5	0.00e+00	0	41	0	95420416	54	6527
2026-01-24 11:57:16.01	31.90	4.96	-43.7	-45.3	18.5	0.00e+00	0	41	0	97517568	58	7485
2026-01-24 11:57:17.02	32.02	5.00	-43.1	-44.5	19.7	0.00e+00	0	41	0	99614720	60	6091
2026-01-24 11:57:18.03	32.15	5.05	-43.6	-45.2	19.0	0.00e+00	0	41	0	100663296	60	6599
2026-01-24 11:57:19.04	32.27	5.09	-44.5	-46.3	17.9	0.00e+00	0	41	0	102760448	60	7488
2026-01-24 11:57:20.05	32.39	5.13	-43.5	-45.0	19.2	0.00e+00	0	41	0	104857600	60	6456
2026-01-24 11:57:21.06	32.52	5.17	-43.5	-45.0	19.3	0.00e+00	0	41	0	106954752	60	6426
2026-01-24 11:57:22.06	32.64	5.21	-43.1	-44.5	20.0	0.00e+00	0	41	0	109051904	60	6088
2026-01-24 11:57:23.07	32.77	5.26	-41.7	-42.9	20.9	0.00e+00	0	41	0	110100480	58	5677
2026-01-24 11:57:24.08	32.89	5.30	-43.1	-44.5	19.9	0.00e+00	0	41	0	112197632	58	6791
2026-01-24 11:57:25.09	33.02	5.34	-42.6	-43.9	20.1	0.00e+00	0	41	0	114294784	58	6381
2026-01-24 11:57:26.10	33.14	5.38	-43.5	-45.0	19.3	0.00e+00	0	41	0	116391936	58	7222
2026-01-24 11:57:27.11	33.27	5.43	-42.8	-44.2	20.0	0.00e+00	0	41	0	118489088	58	6550
2026-01-24 11:57:28.11	33.39	5.47	-41.9	-43.2	20.8	0.00e+00	0	41	0	120586240	58	5832
2026-01-24 11:57:29.12	33.52	5.51	-41.5	-42.7	21.3	0.00e+00	0	41	0	121634816	56	6211
2026-01-24 11:57:30.13	33.65	5.55	-42.7	-44.0	20.4	0.00e+00	0	41	0	123731968	56	7193
2026-01-24 11:57:31.14	33.77	5.59	-42.9	-44.3	19.8	0.00e+00	0	41	0	125829120	56	7482
2026-01-24 11:57:32.15	33.90	5.63	-43.5	-45.0	19.2	0.00e+00	0	41	0	127926272	58	7197
2026-01-24 11:57:33.16	34.03	5.68	-42.7	-44.0	20.2	0.00e+00	0	41	0	130023424	60	5734
2026-01-24 11:57:34.17	34.16	5.72	-43.7	-45.2	19.1	0.00e+00	0	41	0	131072000	58	7407
2026-01-24 11:57:35.18	34.29	5.76	-41.3	-42.5	21.5	0.00e+00	0	41	0	133169152	56	6038
2026-01-24 11:57:36.19	34.42	5.80	-42.7	-44.0	20.1	0.00e+00	0	41	0	135266304	56	7249
2026-01-24 11:57:37.20	34.55	5.84	-44.1	-45.7	18.8	0.00e+00	0	41	0	137363456	60	6978
2026-01-24 11:57:38.20	34.67	5.88	-42.9	-44.3	19.8	0.00e+00	0	41	0	139460608	60	5917
2026-01-24 11:57:39.21	34.80	5.93	-41.9	-43.1	21.1	0.00e+00	0	41	0	140509184	58	5799
2026-01-24 11:57:40.22	34.93	5.97	-43.6	-45.2	19.0	0.00e+00	0	41	0	142606336	58	7369
2026-01-24 11:57:41.22	35.06	6.01	-43.8	-45.3	19.1	0.00e+00	0	41	0	144703488	60	6675
2026-01-24 11:57:42.23	35.20	6.05	-43.3	-44.7	19.6	0.00e+00	0	41	0	146800640	60	6218
2026-01-24 11:57:43.24	35.33	6.09	-43.5	-45.0	19.3	0.00e+00	0	41	0	148897792	60	6452
2026-01-24 11:57:44.24	35.46	6.13	-43.8	-45.3	19.1	0.00e+00	0	41	0	149946368	60	6681
2026-01-24 11:57:45.25	35.59	6.17	-43.4	-44.9	19.4	0.00e+00	0	41	0	152043520	60	6331
2026-01-24 11:57:46.26	35.72	6.21	-43.0	-44.4	20.0	0.00e+00	0	41	0	154140672	60	5979
2026-01-24 11:57:47.27	35.86	6.25	-42.2	-43.4	20.7	0.00e+00	0	41	0	156237824	58	6025
2026-01-24 11:57:48.28	35.99	6.30	-41.9	-43.1	20.7	0.00e+00	0	41	0	158334976	58	5779
2026-01-24 11:57:49.29	36.12	6.34	-42.7	-44.1	20.0	0.00e+00	0	41	0	159383552	58	6508
2026-01-24 11:57:50.30	36.26	6.38	-43.0	-44.5	19.5	0.00e+00	0	41	0	161480704	58	6772
2026-01-24 11:57:51.31	36.39	6.42	-43.1	-44.5	19.8	0.00e+00	0	41	0	163577856	58	6779
2026-01-24 11:57:52.32	36.53	6.46	-42.5	-43.8	20.4	0.00e+00	0	41	0	165675008	58	6315
2026-01-24 11:57:53.33	36.66	6.50	-43.1	-44.5	19.8	0.00e+00	0	41	0	167772160	58	6780
2026-01-24 11:57:54.34	36.80	6.54	-43.0	-44.4	19.8	0.00e+00	0	41	0	168820736	58	6720
2026-01-24 11:57:55.35	36.93	6.58	-42.6	-44.0	20.2	0.00e+00	0	41	0	170917888	58	6409
2026-01-24 11:57:56.36	37.07	6.62	-42.7	-44.0	20.3	0.00e+00	0	41	0	173015040	58	6392
2026-01-24 11:57:57.36	37.21	6.66	-42.9	-44.2	20.0	0.00e+00	0	41	0	175112192	58	6607
2026-01-24 11:57:58.37	37.34	6.70	-43.4	-44.9	19.4	0.00e+00	0	41	0	177209344	58	7114
2026-01-24 11:57:59.38	37.48	6.74	-43.6	-45.1	19.3	0.00e+00	0	41	0	178257920	60	6501
2026-01-24 11:58:00.39	37.62	6.78	-43.0	-44.3	20.1	0.00e+00	0	41	0	180355072	60	5960
2026-01-24 11:58:01.39	37.76	6.82	-42.8	-44.1	20.2	0.00e+00	0	41	0	182452224	60	5809
2026-01-24 11:58:02.40	37.89	6.86	-44.1	-45.7	19.1	0.00e+00	0	41	0	184549376	60	7001
2026-01-24 11:58:03.41	38.03	6.90	-43.8	-45.4	19.0	0.00e+00	0	41	0	186646528	60	6693
2026-01-24 11:58:04.41	38.17	6.94	-43.3	-44.7	19.8	0.00e+00	0	41	0	187695104	60	6231
2026-01-24 11:58:05.42	38.31	6.98	-42.3	-43.5	20.7	0.00e+00	0	41	0	189792256	58	6088
2026-01-24 11:58:06.43	38.45	7.02	-43.2	-44.7	19.7	0.00e+00	0	41	0	191889408	58	6951
2026-01-24 11:58:07.44	38.59	7.06	-42.9	-44.2	20.1	0.00e+00	0	41	0	193986560	58	6600
2026-01-24 11:58:08.45	38.73	7.10	-42.2	-43.5	20.9	0.00e+00	0	41	0	196083712	58	6034
2026-01-24 11:58:09.45	38.87	7.14	-42.6	-43.9	20.2	0.00e+00	0	41	0	197132288	58	6387
2026-01-24 11:58:10.46	39.01	7.18	-42.7	-44.0	20.2	0.00e+00	0	41	0	199229440	58	6456
2026-01-24 11:58:11.48	39.16	7.22	-42.8	-44.1	20.3	0.00e+00	0	41	0	201326592	58	6498
2026-01-24 11:58:12.49	39.30	7.26	-42.6	-44.0	20.3	0.00e+00	0	41	0	203423744	58	6402
2026-01-24 11:58:13.50	39.44	7.30	-42.5	-43.8	20.6	0.00e+00	0	41	0	205520896	58	6260
2026-01-24 11:58:14.50	39.58	7.33	-42.9	-44.3	20.0	0.00e+00	0	41	0	206569472	58	6659
2026-01-24 11:58:15.51	39.73	7.37	-43.2	-44.7	19.8	0.00e+00	0	41	0	208666624	58	6942
2026-01-24 11:58:16.52	39.87	7.41	-43.3	-44.7	19.7	0.00e+00	0	41	0	210763776	58	6959
2026-01-24 11:58:17.53	40.01	7.45	-43.3	-44.7	19.7	0.00e+00	0	41	0	212860928	58	6973
2026-01-24 11:58:18.54	40.16	7.49	-43.0	-44.4	20.0	0.00e+00	0	41	0	214958080	58	6725
2026-01-24 11:58:19.55	40.30	7.53	-43.3	-44.8	19.6	0.00e+00	0	41	0	216006656	58	7032
2026-01-24 11:58:20.56	40.45	7.57	-43.3	-44.7	19.7	0.00e+00	0	41	0	218103808	58	6979
2026-01-24 11:58:21.56	40.59	7.60	-43.3	-44.8	19.7	0.00e+00	0	41	0	220200960	58	7023
2026-01-24 11:58:22.57	40.74	7.64	-43.1	-44.5	20.0	0.00e+00	0	41	0	222298112	58	6783
2026-01-24 11:58:23.58	40.88	7.68	-43.0	-44.4	20.0	0.00e+00	0	41	0	224395264	58	6698
2026-01-24 11:58:24.59	41.03	7.72	-42.7	-44.0	20.4	0.00e+00	0	41	0	225443840	58	6398
2026-01-24 11:58:25.60	41.18	7.76	-42.6	-43.9	20.4	0.00e+00	0	41	0	227540992	58	6357
2026-01-24 11:58:26.61	41.32	7.79	-43.4	-44.9	19.4	0.00e+00	0	41	0	229638144	58	7115
2026-01-24 11:58:27.62	41.47	7.83	-42.8	-44.2	20.2	0.00e+00	0	41	0	231735296	58	6540
2026-01-24 11:58:28.63	41.62	7.87	-43.0	-44.4	19.9	0.00e+00	0	41	0	233832448	58	6720
2026-01-24 11:58:29.64	41.77	7.91	-42.5	-43.7	20.7	0.00e+00	0	41	0	234881024	58	6222
2026-01-24 11:58:30.65	41.92	7.94	-42.5	-43.8	20.6	0.00e+00	0	41	0	236978176	58	6294
2026-01-24 11:58:31.65	42.07	7.98	-43.0	-44.3	20.2	0.00e+00	0	41	0	239075328	58	6690
2026-01-24 11:58:32.66	42.22	8.02	-42.8	-44.1	20.3	0.00e+00	0	41	0	241172480	58	6528
2026-01-24 11:58:33.67	42.37	8.06	-43.0	-44.3	20.0	0.00e+00	0	41	0	243269632	58	6681
2026-01-24 11:58:34.68	42.52	8.09	-42.8	-44.1	20.3	0.00e+00	0	41	0	245366784	58	6506
2026-01-24 11:58:35.69	42.67	8.13	-42.9	-44.3	19.7	0.00e+00	0	41	0	246415360	58	6671
2026-01-24 11:58:36.70	42.82	8.17	-43.5	-45.0	19.5	0.00e+00	0	41	0	248512512	60	6445
2026-01-24 11:58:37.71	42.97	8.20	-43.7	-45.2	19.4	0.00e+00	0	41	0	250609664	60	6561
2026-01-24 11:58:38.72	43.12	8.24	-43.2	-44.6	20.0	0.00e+00	0	41	0	252706816	60	6115
2026-01-24 11:58:39.73	43.27	8.28	-43.8	-45.3	19.4	0.00e+00	0	41	0	254803968	60	6632
2026-01-24 11:58:40.74	43.43	8.31	-43.8	-45.4	19.3	0.00e+00	0	41	0	255852544	60	6711
2026-01-24 11:58:41.75	43.58	8.35	-43.3	-44.6	19.9	0.00e+00	0	41	0	257949696	60	6172
2026-01-24 11:58:42.76	43.73	8.38	-43.7	-45.2	19.6	0.00e+00	0	41	0	260046848	60	6555
2026-01-24 11:58:43.77	43.89	8.42	-43.7	-45.2	19.5	0.00e+00	0	41	0	262144000	60	6585
2026-01-24 11:58:44.78	44.04	8.46	-44.3	-45.9	19.0	0.00e+00	0	41	0	264241152	60	7163
2026-01-24 11:58:45.79	44.19	8.49	-44.2	-45.8	18.9	0.00e+00	0	41	0	265289728	60	7039
2026-01-24 11:58:46.80	44.35	8.53	-43.8	-45.3	19.4	0.00e+00	0	41	0	267386880	60	6678
2026-01-24 11:58:47.81	44.50	8.56	-43.6	-45.1	19.5	0.00e+00	0	41	0	269484032	60	6521
2026-01-24 11:58:48.81	44.66	8.60	-44.3	-45.9	19.0	0.00e+00	0	41	0	271581184	60	7138
2026-01-24 11:58:49.82	44.81	8.63	-43.5	-44.9	19.8	0.00e+00	0	41	0	273678336	60	6368
2026-01-24 11:58:50.83	44.97	8.67	-42.9	-44.2	20.4	0.00e+00	0	41	0	274726912	60	5877
2026-01-24 11:58:51.84	45.13	8.70	-43.0	-44.4	20.1	0.00e+00	0	41	0	276824064	58	6740
2026-01-24 11:58:52.85	45.28	8.74	-43.2	-44.6	20.0	0.00e+00	0	41	0	278921216	58	6921
2026-01-24 11:58:53.86	45.44	8.77	-43.3	-44.7	19.6	0.00e+00	0	41	0	281018368	58	6973
2026-01-24 11:58:54.86	45.60	8.81	-43.3	-44.6	19.9	0.00e+00	0	41	0	283115520	58	6926
2026-01-24 11:58:55.88	45.76	8.84	-42.8	-44.1	20.4	0.00e+00	0	41	0	284164096	58	6498
2026-01-24 11:58:56.88	45.91	8.87	-43.1	-44.5	20.0	0.00e+00	0	41	0	286261248	58	6834
2026-01-24 11:58:57.89	46.07	8.91	-42.7	-44.0	20.5	0.00e+00	0	41	0	288358400	58	6430
2026-01-24 11:58:58.90	46.23	8.94	-42.9	-44.3	20.3	0.00e+00	0	41	0	290455552	58	6643
2026-01-24 11:58:59.91	46.39	8.98	-43.0	-44.3	20.1	0.00e+00	0	41	0	292552704	58	6689
2026-01-24 11:59:00.92	46.55	9.01	-43.2	-44.6	19.9	0.00e+00	0	41	0	293601280	58	6893
2026-01-24 11:59:01.93	46.71	9.04	-43.2	-44.6	20.0	0.00e+00	0	41	0	295698432	58	6898
2026-01-24 11:59:02.94	46.87	9.08	-43.1	-44.5	20.1	0.00e+00	0	41	0	297795584	58	6824
2026-01-24 11:59:03.95	47.03	9.11	-43.2	-44.6	20.0	0.00e+00	0	41	0	299892736	58	6897
2026-01-24 11:59:04.96	47.19	9.14	-43.3	-44.7	20.0	0.00e+00	0	41	0	301989888	58	6945
2026-01-24 11:59:05.96	47.35	9.17	-43.0	-44.3	20.1	0.00e+00	0	41	0	303038464	58	6674
2026-01-24 11:59:06.97	47.51	9.21	-42.9	-44.2	20.5	0.00e+00	0	41	0	305135616	58	6611
2026-01-24 11:59:07.98	47.68	9.24	-42.8	-44.1	20.4	0.00e+00	0	41	0	307232768	58	6491
2026-01-24 11:59:08.99	47.84	9.27	-42.5	-43.8	20.7	0.00e+00	0	41	0	309329920	58	6263
2026-01-24 11:59:10.00	48.00	9.30	-42.7	-43.9	20.8	0.00e+00	0	41	0	311427072	58	6387
2026-01-24 11:59:11.01	48.17	9.34	-42.2	-43.4	21.0	0.00e+00	0	41	0	313524224	58	6011
2026-01-24 11:59:12.02	48.33	9.37	-42.4	-43.6	20.8	0.00e+00	0	41	0	314572800	58	6155
2026-01-24 11:59:13.02	48.49	9.40	-42.2	-43.4	21.0	0.00e+00	0	41	0	316669952	58	6022
2026-01-24 11:59:14.03	48.66	9.43	-42.5	-43.8	20.6	0.00e+00	0	41	0	318767104	58	6251
2026-01-24 11:59:15.04	48.82	9.46	-42.4	-43.6	20.8	0.00e+00	0	41	0	320864256	58	6163
2026-01-24 11:59:16.05	48.99	9.49	-42.7	-44.0	20.5	0.00e+00	0	41	0	321912832	58	6417
2026-01-24 11:59:17.06	49.15	9.53	-43.0	-44.3	20.2	0.00e+00	0	41	0	324009984	58	6677
2026-01-24 11:59:18.07	49.32	9.56	-43.2	-44.6	20.1	0.00e+00	0	41	0	326107136	58	6865
2026-01-24 11:59:19.08	49.48	9.59	-43.3	-44.7	19.7	0.00e+00	0	41	0	328204288	58	6996
2026-01-24 11:59:20.08	49.65	9.62	-43.3	-44.7	19.9	0.00e+00	0	41	0	330301440	60	6203
2026-01-24 11:59:21.09	49.82	9.65	-43.0	-44.3	20.3	0.00e+00	0	41	0	331350016	60	5958
2026-01-24 11:59:22.10	49.98	9.68	-43.2	-44.6	20.1	0.00e+00	0	41	0	333447168	60	6144
2026-01-24 11:59:23.11	50.15	9.71	-43.1	-44.5	20.1	0.00e+00	0	41	0	335544320	60	6070
2026-01-24 11:59:24.12	50.32	9.74	-43.0	-44.4	20.3	0.00e+00	0	41	0	337641472	60	5973
2026-01-24 11:59:25.13	50.49	9.77	-43.1	-44.4	20.2	0.00e+00	0	41	0	339738624	58	6762
2026-01-24 11:59:26.13	50.65	9.80	-43.1	-44.4	20.1	0.00e+00	0	41	0	341835776	58	6748
2026-01-24 11:59:27.14	50.82	9.83	-42.8	-44.1	20.4	0.00e+00	0	41	0	342884352	58	6523
2026-01-24 11:59:28.15	50.99	9.86	-42.9	-44.2	20.3	0.00e+00	0	41	0	344981504	58	6577
2026-01-24 11:59:29.15	51.16	9.88	-42.7	-43.9	20.4	0.00e+00	0	41	0	347078656	58	6382
2026-01-24 11:59:30.16	51.33	9.91	-42.7	-44.0	20.5	0.00e+00	0	41	0	349175808	58	6421
2026-01-24 11:59:31.17	51.50	9.94	-42.5	-43.7	20.7	0.00e+00	0	41	0	351272960	58	6223
2026-01-24 11:59:32.18	51.67	9.97	-42.5	-43.8	20.7	0.00e+00	0	41	0	352321536	58	6264
2026-01-24 11:59:33.19	51.84	10.00	-42.5	-43.8	20.7	0.00e+00	0	41	0	354418688	58	6254
2026-01-24 11:59:34.20	52.01	10.03	-42.4	-43.6	20.8	0.00e+00	0	41	0	356515840	58	6163
2026-01-24 11:59:35.21	52.18	10.05	-42.5	-43.7	20.8	0.00e+00	0	41	0	358612992	58	6243
2026-01-24 11:59:36.22	52.35	10.08	-42.5	-43.7	20.8	0.00e+00	0	41	0	360710144	58	6204
2026-01-24 11:59:37.23	52.53	10.11	-42.9	-44.2	20.4	0.00e+00	0	41	0	361758720	58	6550
2026-01-24 11:59:38.24	52.70	10.14	-42.9	-44.3	20.3	0.00e+00	0	41	0	363855872	58	6626
2026-01-24 11:59:39.25	52.87	10.16	-43.5	-45.0	19.7	0.00e+00	0	41	0	365953024	58	7195
2026-01-24 11:59:40.26	53.04	10.19	-43.9	-45.5	19.5	0.00e+00	0	41	0	368050176	60	6792
2026-01-24 11:59:41.27	53.22	10.22	-44.2	-45.8	18.9	0.00e+00	0	41	0	370147328	60	7032
2026-01-24 11:59:42.28	53.39	10.24	-44.0	-45.6	19.1	0.00e+00	0	41	0	371195904	60	6894
2026-01-24 11:59:43.28	53.56	10.27	-44.1	-45.7	19.0	0.00e+00	0	41	0	373293056	60	6958
2026-01-24 11:59:44.29	53.74	10.30	-44.2	-45.8	19.0	0.00e+00	0	41	0	375390208	60	7075
2026-01-24 11:59:45.30	53.91	10.32	-43.9	-45.5	19.3	0.00e+00	0	41	0	377487360	60	6772
2026-01-24 11:59:46.31	54.09	10.35	-43.9	-45.4	19.1	0.00e+00	0	41	0	379584512	60	6751
2026-01-24 11:59:47.32	54.26	10.37	-43.5	-44.9	19.5	0.00e+00	0	41	0	380633088	60	6380
2026-01-24 11:59:48.33	54.44	10.40	-43.8	-45.3	19.7	0.00e+00	0	41	0	382730240	60	6619
2026-01-24 11:59:49.34	54.61	10.42	-42.9	-44.2	20.2	0.00e+00	0	41	0	384827392	60	5882
2026-01-24 11:59:50.35	54.79	10.45	-43.5	-44.9	19.7	0.00e+00	0	41	0	386924544	60	6382
2026-01-24 11:59:51.36	54.96	10.47	-43.3	-44.6	20.1	0.00e+00	0	41	0	389021696	60	6165
2026-01-24 11:59:52.36	55.14	10.50	-43.4	-44.8	19.9	0.00e+00	0	41	0	390070272	60	6272
2026-01-24 11:59:53.37	55.32	10.52	-43.4	-44.8	20.0	0.00e+00	0	41	0	392167424	60	6267
2026-01-24 11:59:54.38	55.49	10.55	-43.1	-44.4	20.2	0.00e+00	0	41	0	394264576	60	6015
2026-01-24 11:59:55.39	55.67	10.57	-42.6	-43.9	20.7	0.00e+00	0	41	0	396361728	58	6343
2026-01-24 11:59:56.40	55.85	10.59	-42.6	-43.8	20.8	0.00e+00	0	41	0	398458880	58	6272
2026-01-24 11:59:57.41	56.03	10.62	-42.3	-43.5	21.0	0.00e+00	0	41	0	399507456	58	6038
2026-01-24 11:59:58.42	56.20	10.64	-42.2	-43.4	21.2	0.00e+00	0	41	0	401604608	58	6007
2026-01-24 11:59:59.42	56.38	10.66	-41.7	-42.8	21.7	0.00e+00	0	41	0	403701760	56	6294
2026-01-24 12:00:00.43	56.56	10.69	-41.9	-43.0	21.4	0.00e+00	0	41	0	405798912	56	6452
2026-01-24 12:00:01.44	56.74	10.71	-42.7	-44.0	20.6	0.00e+00	0	41	0	407896064	56	7171
2026-01-24 12:00:02.45	56.92	10.73	-43.0	-44.3	20.1	0.00e+00	0	41	0	408944640	58	6636
2026-01-24 12:00:03.46	57.10	10.75	-42.9	-44.2	20.2	0.00e+00	0	41	0	411041792	58	6578
2026-01-24 12:00:04.46	57.28	10.77	-43.3	-44.6	20.2	0.00e+00	0	41	0	413138944	58	6913
2026-01-24 12:00:05.48	57.46	10.80	-43.4	-44.8	19.9	0.00e+00	0	41	0	415236096	58	7018
2026-01-24 12:00:06.49	57.64	10.82	-42.7	-44.0	20.5	0.00e+00	0	41	0	417333248	58	6430
2026-01-24 12:00:07.50	57.82	10.84	-43.0	-44.3	20.3	0.00e+00	0	41	0	418381824	58	6677
2026-01-24 12:00:08.50	58.00	10.86	-43.2	-44.5	20.1	0.00e+00	0	41	0	420478976	58	6834
2026-01-24 12:00:09.51	58.18	10.88	-43.5	-45.0	19.7	0.00e+00	0	41	0	422576128	58	7178
2026-01-24 12:00:10.52	58.36	10.90	-43.4	-44.8	20.0	0.00e+00	0	41	0	424673280	60	6296
2026-01-24 12:00:11.53	58.54	10.92	-43.7	-45.2	19.6	0.00e+00	0	41	0	426770432	60	6601
2026-01-24 12:00:12.54	58.72	10.94	-44.0	-45.6	19.3	0.00e+00	0	41	0	427819008	60	6882
2026-01-24 12:00:13.55	58.91	10.96	-44.3	-45.9	18.7	0.00e+00	0	41	0	429916160	60	7129
2026-01-24 12:00:14.56	59.09	10.98	-44.2	-45.8	18.9	0.00e+00	0	41	0	432013312	60	7065
2026-01-24 12:00:15.57	59.27	11.00	-44.0	-45.5	19.3	0.00e+00	0	41	0	434110464	60	6797
2026-01-24 12:00:16.58	59.45	11.02	-43.7	-45.1	19.7	0.00e+00	0	41	0	436207616	60	6513
2026-01-24 12:00:17.58	59.63	11.04	-42.9	-44.2	20.3	0.00e+00	0	41	0	438304768	60	5865
2026-01-24 12:00:18.59	59.82	11.05	-42.6	-43.9	20.6	0.00e+00	0	41	0	439353344	58	6333
2026-01-24 12:00:19.60	60.00	11.07	-42.4	-43.6	21.0	0.00e+00	0	41	0	441450496	58	6135
2026-01-24 12:00:20.61	60.18	11.09	-42.4	-43.6	20.8	0.00e+00	0	42	0	443547648	58	6147
2026-01-24 12:00:21.62	60.37	11.11	-42.4	-43.6	20.8	0.00e+00	0	41	0	445644800	58	6172
2026-01-24 12:00:22.63	60.55	11.13	-42.7	-44.0	20.6	0.00e+00	0	41	0	447741952	58	6449
2026-01-24 12:00:23.64	60.74	11.14	-43.2	-44.6	20.1	0.00e+00	0	41	0	448790528	58	6871
2026-01-24 12:00:24.65	60.92	11.16	-43.4	-44.8	19.8	0.00e+00	0	41	0	450887680	58	7064
2026-01-24 12:00:25.66	61.11	11.18	-43.3	-44.7	19.8	0.00e+00	0	41	0	452984832	58	6972
2026-01-24 12:00:26.66	61.29	11.19	-43.3	-44.7	20.1	0.00e+00	0	41	0	455081984	58	6931
2026-01-24 12:00:27.67	61.47	11.21	-43.3	-44.6	20.0	0.00e+00	0	41	0	457179136	58	6927
2026-01-24 12:00:28.68	61.66	11.23	-43.1	-44.4	20.3	0.00e+00	0	41	0	458227712	58	6718
2026-01-24 12:00:29.69	61.85	11.24	-43.4	-44.9	19.8	0.00e+00	0	41	0	460324864	58	7089
2026-01-24 12:00:30.70	62.03	11.26	-43.7	-45.2	19.4	0.00e+00	0	41	0	462422016	58	7392
2026-01-24 12:00:31.71	62.22	11.27	-44.2	-45.8	19.0	0.00e+00	0	41	0	464519168	60	7077
2026-01-24 12:00:32.72	62.40	11.29	-44.8	-46.6	18.2	0.00e+00	0	41	0	466616320	60	7739
2026-01-24 12:00:33.73	62.59	11.30	-45.3	-47.3	17.6	0.00e+00	0	41	0	467664896	60	8407
2026-01-24 12:00:34.74	62.78	11.32	-45.1	-46.9	18.0	0.00e+00	0	41	0	469762048	60	8034
2026-01-24 12:00:35.75	62.96	11.33	-45.0	-46.8	18.1	0.00e+00	0	41	0	471859200	60	7919
2026-01-24 12:00:36.75	63.15	11.34	-44.3	-46.0	18.8	0.00e+00	0	41	0	473956352	60	7182
2026-01-24 12:00:37.76	63.34	11.36	-44.2	-45.7	19.2	0.00e+00	0	41	0	476053504	60	7004
2026-01-24 12:00:38.77	63.52	11.37	-43.7	-45.2	19.6	0.00e+00	0	41	0	477102080	60	6571
2026-01-24 12:00:39.78	63.71	11.38	-43.8	-45.3	19.5	0.00e+00	0	42	0	479199232	60	6675
2026-01-24 12:00:40.78	63.90	11.40	-43.8	-45.3	19.5	0.00e+00	0	42	0	481296384	60	6620
2026-01-24 12:00:41.79	64.08	11.41	-43.3	-44.7	20.1	0.00e+00	0	41	0	483393536	60	6195
2026-01-24 12:00:42.80	64.27	11.42	-43.2	-44.5	20.2	0.00e+00	0	41	0	485490688	60	6103
2026-01-24 12:00:43.81	64.46	11.43	-43.4	-44.9	19.7	0.00e+00	0	42	0	486539264	60	6321
2026-01-24 12:00:44.82	64.65	11.45	-43.4	-44.8	19.9	0.00e+00	0	41	0	488636416	60	6295
2026-01-24 12:00:45.82	64.83	11.46	-43.5	-44.9	19.9	0.00e+00	0	42	0	490733568	60	6352
2026-01-24 12:00:46.83	65.02	11.47	-43.1	-44.5	20.2	0.00e+00	0	41	0	492830720	60	6060
2026-01-24 12:00:47.84	65.21	11.48	-42.9	-44.2	20.4	0.00e+00	0	41	0	494927872	60	5875
2026-01-24 12:00:48.85	65.40	11.49	-42.8	-44.1	20.5	0.00e+00	0	41	0	495976448	58	6467
2026-01-24 12:00:49.86	65.59	11.50	-42.4	-43.6	20.9	0.00e+00	0	42	0	498073600	58	6165
2026-01-24 12:00:50.87	65.78	11.51	-42.4	-43.6	20.9	0.00e+00	0	41	0	500170752	58	6143
2026-01-24 12:00:51.88	65.97	11.52	-42.4	-43.7	20.9	0.00e+00	0	41	0	502267904	58	6176
2026-01-24 12:00:52.89	66.16	11.53	-42.3	-43.5	21.0	0.00e+00	0	41	0	504365056	58	6080
2026-01-24 12:00:53.90	66.35	11.54	-42.3	-43.5	20.9	0.00e+00	0	41	0	505413632	58	6072
2026-01-24 12:00:54.90	66.53	11.55	-42.5	-43.8	20.7	0.00e+00	0	41	0	507510784	58	6255
2026-01-24 12:00:55.91	66.72	11.56	-42.4	-43.6	20.8	0.00e+00	0	42	0	509607936	58	6134
2026-01-24 12:00:56.92	66.91	11.57	-42.5	-43.8	20.5	0.00e+00	0	41	0	511705088	58	6289
2026-01-24 12:00:57.93	67.10	11.57	-42.4	-43.7	20.7	0.00e+00	0	41	0	513802240	58	6192
2026-01-24 12:00:58.94	67.29	11.58	-42.3	-43.5	21.0	0.00e+00	0	41	0	514850816	58	6075
2026-01-24 12:00:59.95	67.48	11.59	-42.1	-43.3	21.0	0.00e+00	0	41	0	516947968	56	6673
2026-01-24 12:01:00.96	67.67	11.60	-42.1	-43.2	21.2	0.00e+00	0	41	0	519045120	56	6610
2026-01-24 12:01:01.97	67.86	11.60	-42.3	-43.5	20.9	0.00e+00	0	41	0	521142272	56	6799
2026-01-24 12:01:02.98	68.05	11.61	-42.4	-43.6	20.8	0.00e+00	0	41	0	523239424	56	6881
2026-01-24 12:01:03.98	68.24	11.62	-42.4	-43.6	20.9	0.00e+00	0	41	0	524288000	56	6904
2026-01-24 12:01:04.99	68.43	11.62	-42.3	-43.5	21.0	0.00e+00	0	41	0	526385152	56	6775
2026-01-24 12:01:06.00	68.62	11.63	-42.3	-43.5	21.0	0.00e+00	0	41	0	528482304	56	6840
2026-01-24 12:01:07.01	68.81	11.64	-42.0	-43.2	21.4	0.00e+00	0	42	0	530579456	56	6569
2026-01-24 12:01:08.02	69.00	11.64	-41.9	-43.0	21.3	0.00e+00	0	41	0	532676608	56	6446
2026-01-24 12:01:09.03	69.20	11.65	-41.6	-42.8	21.7	0.00e+00	0	41	0	534773760	56	6262
2026-01-24 12:01:10.04	69.39	11.65	-42.1	-43.3	21.2	0.00e+00	0	41	0	535822336	56	6628
2026-01-24 12:01:11.05	69.58	11.66	-42.3	-43.5	21.2	0.00e+00	0	41	0	537919488	56	6822
2026-01-24 12:01:12.06	69.77	11.66	-42.2	-43.5	21.0	0.00e+00	0	41	0	540016640	56	6783
2026-01-24 12:01:13.07	69.96	11.66	-42.3	-43.5	21.0	0.00e+00	0	41	0	542113792	56	6794
2026-01-24 12:01:14.08	70.15	11.67	-42.1	-43.3	21.2	0.00e+00	0	41	0	544210944	56	6656
2026-01-24 12:01:15.09	70.34	11.67	-42.1	-43.2	21.2	0.00e+00	0	42	0	545259520	56	6583
2026-01-24 12:01:16.10	70.53	11.67	-41.7	-42.8	21.7	0.00e+00	0	42	0	547356672	56	6314
2026-01-24 12:01:17.10	70.72	11.68	-41.6	-42.7	21.9	0.00e+00	0	42	0	549453824	56	6186
2026-01-24 12:01:18.11	70.91	11.68	-41.8	-43.0	21.6	0.00e+00	0	41	0	551550976	56	6404
2026-01-24 12:01:19.12	71.10	11.68	-41.7	-42.8	21.7	0.00e+00	0	41	0	553648128	56	6291
2026-01-24 12:01:20.13	71.30	11.68	-41.9	-43.1	21.4	0.00e+00	0	42	0	554696704	56	6483
2026-01-24 12:01:21.14	71.49	11.69	-42.1	-43.3	21.2	0.00e+00	0	41	0	556793856	56	6650
2026-01-24 12:01:22.15	71.68	11.69	-42.0	-43.3	21.4	0.00e+00	0	41	0	558891008	56	6619
2026-01-24 12:01:23.16	71.87	11.69	-41.8	-43.0	21.4	0.00e+00	0	41	0	560988160	56	6391
2026-01-24 12:01:24.17	72.06	11.69	-42.2	-43.4	21.2	0.00e+00	0	42	0	563085312	56	6737
2026-01-24 12:01:25.18	72.25	11.69	-42.0	-43.3	21.2	0.00e+00	0	41	0	564133888	56	6643
2026-01-24 12:01:26.18	72.44	11.69	-41.5	-42.6	21.6	0.00e+00	0	41	0	566231040	56	6161
2026-01-24 12:01:27.19	72.63	11.69	-41.8	-43.0	21.4	0.00e+00	0	41	0	568328192	56	6395
2026-01-24 12:01:28.20	72.83	11.69	-41.7	-42.9	21.6	0.00e+00	0	42	0	570425344	56	6323
2026-01-24 12:01:29.21	73.02	11.69	-41.8	-43.0	21.5	0.00e+00	0	41	0	572522496	56	6393
2026-01-24 12:01:30.22	73.21	11.69	-42.0	-43.2	21.4	0.00e+00	0	42	0	573571072	56	6579
2026-01-24 12:01:31.23	73.40	11.69	-42.2	-43.4	21.2	0.00e+00	0	41	0	575668224	56	6728
2026-01-24 12:01:32.23	73.59	11.69	-41.9	-43.1	21.4	0.00e+00	0	41	0	577765376	56	6520
2026-01-24 12:01:33.24	73.78	11.68	-41.9	-43.1	21.4	0.00e+00	0	41	0	579862528	56	6495
2026-01-24 12:01:34.26	73.97	11.68	-41.9	-43.0	21.5	0.00e+00	0	42	0	581959680	56	6447
2026-01-24 12:01:35.26	74.16	11.68	-41.6	-42.7	21.7	0.00e+00	0	42	0	583008256	56	6237
2026-01-24 12:01:36.28	74.36	11.68	-41.3	-42.4	22.0	0.00e+00	0	42	0	585105408	56	6021
2026-01-24 12:01:37.28	74.55	11.67	-41.6	-42.7	21.7	0.00e+00	0	42	0	587202560	56	6214
2026-01-24 12:01:38.29	74.74	11.67	-41.2	-42.2	22.1	0.00e+00	0	41	0	589299712	56	5882
2026-01-24 12:01:39.30	74.93	11.67	-41.1	-42.2	22.1	0.00e+00	0	42	0	591396864	56	5860
2026-01-24 12:01:40.31	75.12	11.66	-40.8	-41.9	22.4	0.00e+00	0	42	0	592445440	56	5640
2026-01-24 12:01:41.32	75.31	11.66	-41.2	-42.3	22.0	0.00e+00	0	42	0	594542592	56	5904
2026-01-24 12:01:42.33	75.50	11.66	-41.4	-42.5	21.9	0.00e+00	0	42	0	596639744	56	6086
2026-01-24 12:01:43.33	75.69	11.65	-41.0	-42.1	22.2	0.00e+00	0	41	0	598736896	56	5799
2026-01-24 12:01:44.34	75.88	11.65	-41.1	-42.2	22.1	0.00e+00	0	42	0	600834048	56	5875
2026-01-24 12:01:45.35	76.07	11.64	-40.9	-42.0	22.4	0.00e+00	0	41	0	601882624	56	5724
2026-01-24 12:01:46.36	76.26	11.64	-40.5	-41.5	22.5	0.00e+00	0	42	0	603979776	54	6090
2026-01-24 12:01:47.37	76.45	11.63	-40.7	-41.7	22.5	0.00e+00	0	42	0	606076928	54	6222
2026-01-24 12:01:48.38	76.65	11.63	-40.6	-41.6	22.6	0.00e+00	0	42	0	608174080	54	6152
2026-01-24 12:01:49.39	76.84	11.62	-40.5	-41.5	22.5	0.00e+00	0	42	0	610271232	54	6087
2026-01-24 12:01:50.40	77.03	11.61	-40.5	-41.5	22.6	0.00e+00	0	42	0	611319808	54	6077
2026-01-24 12:01:51.41	77.22	11.61	-40.9	-42.0	22.3	0.00e+00	0	42	0	613416960	54	6415
2026-01-24 12:01:52.42	77.41	11.60	-41.5	-42.7	21.6	0.00e+00	0	42	0	615514112	54	6936
2026-01-24 12:01:53.43	77.60	11.59	-41.5	-42.6	21.6	0.00e+00	0	41	0	617611264	54	6911
2026-01-24 12:01:54.44	77.79	11.58	-41.5	-42.7	21.7	0.00e+00	0	42	0	619708416	54	6939
2026-01-24 12:01:55.45	77.98	11.58	-41.2	-42.2	22.0	0.00e+00	0	41	0	620756992	54	6595
2026-01-24 12:01:56.46	78.17	11.57	-41.0	-42.0	22.3	0.00e+00	0	41	0	622854144	54	6416
2026-01-24 12:01:57.46	78.36	11.56	-40.8	-41.8	22.2	0.00e+00	0	42	0	624951296	54	6281
2026-01-24 12:01:58.47	78.55	11.55	-40.4	-41.4	22.6	0.00e+00	0	42	0	627048448	54	5983
2026-01-24 12:01:59.48	78.74	11.54	-40.5	-41.5	22.5	0.00e+00	0	41	0	629145600	54	6081
2026-01-24 12:02:00.49	78.93	11.53	-40.8	-41.8	22.4	0.00e+00	0	41	0	631242752	54	6270
2026-01-24 12:02:01.50	79.12	11.52	-40.7	-41.7	22.3	0.00e+00	0	42	0	632291328	54	6214
2026-01-24 12:02:02.51	79.30	11.51	-41.1	-42.2	22.0	0.00e+00	0	41	0	634388480	54	6578
2026-01-24 12:02:03.51	79.49	11.50	-41.2	-42.2	21.8	0.00e+00	0	41	0	636485632	54	6602
2026-01-24 12:02:04.52	79.68	11.49	-41.0	-42.1	22.1	0.00e+00	0	42	0	638582784	54	6491
2026-01-24 12:02:05.53	79.87	11.48	-40.9	-41.9	22.1	0.00e+00	0	41	0	640679936	54	6362
2026-01-24 12:02:06.54	80.06	11.47	-40.8	-41.8	22.2	0.00e+00	0	41	0	641728512	54	6289
2026-01-24 12:02:07.55	80.25	11.46	-40.7	-41.8	22.1	0.00e+00	0	41	0	643825664	54	6270
2026-01-24 12:02:08.55	80.43	11.45	-41.0	-42.0	22.2	0.00e+00	0	41	0	645922816	54	6451
2026-01-24 12:02:09.56	80.62	11.44	-40.5	-41.5	22.5	0.00e+00	0	41	0	648019968	54	6083
2026-01-24 12:02:10.57	80.81	11.42	-40.6	-41.6	22.6	0.00e+00	0	42	0	650117120	54	6116
2026-01-24 12:02:11.58	81.00	11.41	-40.4	-41.4	22.7	0.00e+00	0	42	0	651165696	54	5977
2026-01-24 12:02:12.59	81.19	11.40	-40.6	-41.6	22.5	0.00e+00	0	41	0	653262848	54	6136
2026-01-24 12:02:13.60	81.38	11.39	-40.7	-41.7	22.5	0.00e+00	0	41	0	655360000	54	6205
2026-01-24 12:02:14.61	81.56	11.37	-40.7	-41.7	22.3	0.00e+00	0	41	0	657457152	54	6178
2026-01-24 12:02:15.62	81.75	11.36	-40.7	-41.7	22.4	0.00e+00	0	41	0	659554304	54	6228
2026-01-24 12:02:16.63	81.94	11.35	-41.2	-42.2	22.0	0.00e+00	0	42	0	660602880	54	6613
2026-01-24 12:02:17.64	82.13	11.33	-40.7	-41.7	22.4	0.00e+00	0	42	0	662700032	54	6226
2026-01-24 12:02:18.65	82.31	11.32	-40.9	-42.0	22.1	0.00e+00	0	42	0	664797184	54	6402
2026-01-24 12:02:19.66	82.50	11.30	-41.0	-42.1	22.2	0.00e+00	0	42	0	666894336	54	6479
2026-01-24 12:02:20.66	82.68	11.29	-41.2	-42.3	22.1	0.00e+00	0	42	0	668991488	54	6659
2026-01-24 12:02:21.67	82.87	11.28	-40.8	-41.8	22.1	0.00e+00	0	42	0	670040064	54	6275
2026-01-24 12:02:22.68	83.06	11.26	-40.9	-41.9	22.1	0.00e+00	0	42	0	672137216	54	6382
2026-01-24 12:02:23.69	83.24	11.24	-41.2	-42.3	21.8	0.00e+00	0	42	0	674234368	54	6656
2026-01-24 12:02:24.70	83.43	11.23	-41.2	-42.3	21.8	0.00e+00	0	42	0	676331520	54	6666
2026-01-24 12:02:25.71	83.62	11.21	-41.2	-42.2	21.8	0.00e+00	0	42	0	678428672	54	6603
2026-01-24 12:02:26.72	83.80	11.20	-41.2	-42.2	21.9	0.00e+00	0	42	0	679477248	54	6615
2026-01-24 12:02:27.73	83.99	11.18	-41.3	-42.3	21.9	0.00e+00	0	42	0	681574400	54	6692
2026-01-24 12:02:28.74	84.17	11.16	-41.2	-42.3	22.0	0.00e+00	0	42	0	683671552	54	6669
2026-01-24 12:02:29.74	84.35	11.15	-40.8	-41.8	22.4	0.00e+00	0	42	0	685768704	54	6300
2026-01-24 12:02:30.76	84.54	11.13	-40.6	-41.6	22.6	0.00e+00	0	42	0	687865856	54	6115
2026-01-24 12:02:31.76	84.72	11.11	-40.6	-41.5	22.6	0.00e+00	0	42	0	688914432	54	6095
2026-01-24 12:02:32.77	84.91	11.09	-40.7	-41.7	22.5	0.00e+00	0	42	0	691011584	54	6179
2026-01-24 12:02:33.78	85.09	11.08	-40.2	-41.1	23.0	0.00e+00	0	42	0	693108736	54	5814
2026-01-24 12:02:34.79	85.28	11.06	-40.2	-41.2	22.9	0.00e+00	0	42	0	695205888	54	5832
2026-01-24 12:02:35.80	85.46	11.04	-40.3	-41.3	22.8	0.00e+00	0	42	0	697303040	54	5902
2026-01-24 12:02:36.81	85.64	11.02	-40.4	-41.4	22.6	0.00e+00	0	42	0	699400192	54	5991
2026-01-24 12:02:37.82	85.83	11.00	-40.1	-41.0	23.0	0.00e+00	0	42	0	700448768	54	5756
2026-01-24 12:02:38.83	86.01	10.98	-40.0	-41.0	23.0	0.00e+00	0	42	0	702545920	54	5698
2026-01-24 12:02:39.83	86.19	10.96	-39.9	-40.8	23.2	0.00e+00	0	42	0	704643072	54	5599
2026-01-24 12:02:40.84	86.37	10.94	-39.7	-40.6	23.2	0.00e+00	0	42	0	706740224	52	6170
2026-01-24 12:02:41.85	86.56	10.92	-39.8	-40.7	23.1	0.00e+00	0	42	0	708837376	52	6222
2026-01-24 12:02:42.86	86.74	10.90	-40.0	-40.9	23.0	0.00e+00	0	42	0	709885952	52	6337
2026-01-24 12:02:43.87	86.92	10.88	-39.9	-40.8	23.1	0.00e+00	0	41	0	711983104	52	6305
2026-01-24 12:02:44.88	87.10	10.86	-40.2	-41.1	22.7	0.00e+00	0	41	0	714080256	52	6515
2026-01-24 12:02:45.89	87.28	10.84	-40.1	-41.0	23.0	0.00e+00	0	42	0	716177408	52	6462
2026-01-24 12:02:46.90	87.46	10.82	-40.1	-41.1	22.9	0.00e+00	0	41	0	718274560	52	6474
2026-01-24 12:02:47.91	87.64	10.80	-40.3	-41.2	22.7	0.00e+00	0	41	0	719323136	52	6604
2026-01-24 12:02:48.92	87.83	10.78	-40.6	-41.6	22.5	0.00e+00	0	42	0	721420288	52	6903
2026-01-24 12:02:49.93	88.01	10.76	-40.7	-41.8	22.4	0.00e+00	0	42	0	723517440	52	7013
2026-01-24 12:02:50.94	88.19	10.73	-40.3	-41.3	22.8	0.00e+00	0	42	0	725614592	52	6676
2026-01-24 12:02:51.95	88.37	10.71	-40.6	-41.7	22.5	0.00e+00	0	41	0	727711744	52	6954
2026-01-24 12:02:52.96	88.55	10.69	-40.3	-41.3	22.7	0.00e+00	0	42	0	728760320	52	6683
2026-01-24 12:02:53.97	88.72	10.67	-40.2	-41.2	22.9	0.00e+00	0	42	0	730857472	52	6594
2026-01-24 12:02:54.98	88.90	10.64	-39.6	-40.6	23.3	0.00e+00	0	41	0	732954624	52	6151
2026-01-24 12:02:55.99	89.08	10.62	-40.0	-41.1	23.0	0.00e+00	0	41	0	735051776	52	6466
2026-01-24 12:02:56.99	89.26	10.60	-40.0	-40.9	23.1	0.00e+00	0	42	0	737148928	52	6376
2026-01-24 12:02:58.00	89.44	10.57	-40.3	-41.3	22.7	0.00e+00	0	42	0	738197504	52	6621
2026-01-24 12:02:59.02	89.62	10.55	-40.3	-41.3	22.8	0.00e+00	0	42	0	740294656	52	6649
2026-01-24 12:03:00.02	89.79	10.53	-40.1	-41.0	22.9	0.00e+00	0	42	0	742391808	52	6438
2026-01-24 12:03:01.03	89.97	10.50	-40.3	-41.3	22.6	0.00e+00	0	42	0	744488960	52	6628
2026-01-24 12:03:02.04	90.15	10.48	-40.3	-41.3	22.8	0.00e+00	0	41	0	746586112	52	6632
2026-01-24 12:03:03.05	90.32	10.45	-39.9	-40.9	23.1	0.00e+00	0	42	0	747634688	52	6347
2026-01-24 12:03:04.06	90.50	10.43	-39.8	-40.7	23.3	0.00e+00	0	41	0	749731840	52	6194
2026-01-24 12:03:05.07	90.68	10.40	-39.9	-40.8	23.1	0.00e+00	0	41	0	751828992	52	6308
2026-01-24 12:03:06.08	90.85	10.38	-39.8	-40.7	23.2	0.00e+00	0	41	0	753926144	52	6234
2026-01-24 12:03:07.09	91.03	10.35	-39.8	-40.8	23.1	0.00e+00	0	41	0	756023296	52	6263
2026-01-24 12:03:08.10	91.20	10.32	-40.0	-40.9	23.0	0.00e+00	0	41	0	757071872	52	6357
2026-01-24 12:03:09.11	91.38	10.30	-40.1	-41.0	23.0	0.00e+00	0	41	0	759169024	52	6438
2026-01-24 12:03:10.12	91.55	10.27	-39.9	-40.9	23.1	0.00e+00	0	41	0	761266176	52	6331
2026-01-24 12:03:11.13	91.73	10.25	-40.2	-41.2	22.7	0.00e+00	0	42	0	763363328	52	6571
2026-01-24 12:03:12.14	91.90	10.22	-40.0	-41.0	23.0	0.00e+00	0	41	0	765460480	52	6392
2026-01-24 12:03:13.15	92.08	10.19	-40.2	-41.1	22.9	0.00e+00	0	41	0	766509056	52	6528
2026-01-24 12:03:14.16	92.25	10.17	-40.2	-41.2	22.9	0.00e+00	0	41	0	768606208	52	6598
2026-01-24 12:03:15.16	92.42	10.14	-40.4	-41.4	22.6	0.00e+00	0	41	0	770703360	52	6719
2026-01-24 12:03:16.18	92.60	10.11	-40.5	-41.5	22.5	0.00e+00	0	42	0	772800512	52	6845
2026-01-24 12:03:17.19	92.77	10.08	-40.4	-41.4	22.5	0.00e+00	0	42	0	774897664	52	6713
2026-01-24 12:03:18.19	92.94	10.06	-40.5	-41.5	22.4	0.00e+00	0	42	0	775946240	52	6811
2026-01-24 12:03:19.20	93.11	10.03	-40.6	-41.6	22.4	0.00e+00	0	41	0	778043392	52	6892
2026-01-24 12:03:20.22	93.28	10.00	-40.9	-42.0	22.0	0.00e+00	0	42	0	780140544	54	6427
2026-01-24 12:03:21.22	93.45	9.97	-41.2	-42.3	21.8	0.00e+00	0	42	0	782237696	54	6691
2026-01-24 12:03:22.23	93.62	9.94	-41.2	-42.3	21.9	0.00e+00	0	42	0	784334848	54	6657
2026-01-24 12:03:23.24	93.80	9.91	-41.9	-43.1	21.2	0.00e+00	0	41	0	785383424	56	6509
2026-01-24 12:03:24.25	93.97	9.89	-42.1	-43.4	20.9	0.00e+00	0	41	0	787480576	56	6694
2026-01-24 12:03:25.26	94.14	9.86	-42.0	-43.3	21.1	0.00e+00	0	41	0	789577728	56	6630
2026-01-24 12:03:26.27	94.31	9.83	-41.9	-43.1	21.2	0.00e+00	0	42	0	791674880	56	6469
2026-01-24 12:03:27.28	94.48	9.80	-41.9	-43.1	21.2	0.00e+00	0	42	0	793772032	56	6495
2026-01-24 12:03:28.29	94.64	9.77	-41.8	-43.0	21.3	0.00e+00	0	41	0	795869184	56	6442
2026-01-24 12:03:29.30	94.81	9.74	-42.0	-43.2	21.2	0.00e+00	0	41	0	796917760	56	6563
2026-01-24 12:03:30.31	94.98	9.71	-42.1	-43.4	21.2	0.00e+00	0	41	0	799014912	56	6715
2026-01-24 12:03:31.32	95.15	9.68	-42.0	-43.2	21.1	0.00e+00	0	41	0	801112064	56	6607
2026-01-24 12:03:32.32	95.32	9.65	-42.0	-43.2	21.0	0.00e+00	0	41	0	803209216	56	6612
2026-01-24 12:03:33.33	95.48	9.62	-42.0	-43.2	21.0	0.00e+00	0	41	0	805306368	56	6567
2026-01-24 12:03:34.34	95.65	9.59	-41.9	-43.1	21.1	0.00e+00	0	41	0	806354944	56	6518
2026-01-24 12:03:35.35	95.82	9.55	-42.0	-43.1	21.2	0.00e+00	0	41	0	808452096	56	6528
2026-01-24 12:03:36.36	95.98	9.52	-41.8	-42.9	21.4	0.00e+00	0	41	0	810549248	56	6349
2026-01-24 12:03:37.37	96.15	9.49	-41.9	-43.0	21.2	0.00e+00	0	41	0	812646400	56	6437
2026-01-24 12:03:38.38	96.31	9.46	-41.9	-43.1	21.1	0.00e+00	0	41	0	814743552	56	6465
2026-01-24 12:03:39.39	96.48	9.43	-42.2	-43.4	21.0	0.00e+00	0	41	0	815792128	56	6717
2026-01-24 12:03:40.40	96.64	9.40	-42.2	-43.5	21.0	0.00e+00	0	41	0	817889280	56	6797
2026-01-24 12:03:41.40	96.81	9.37	-42.1	-43.3	21.0	0.00e+00	0	41	0	819986432	56	6684
2026-01-24 12:03:42.41	96.97	9.33	-42.3	-43.7	20.6	0.00e+00	0	41	0	822083584	56	6975
2026-01-24 12:03:43.42	97.14	9.30	-42.4	-43.8	20.5	0.00e+00	0	41	0	824180736	56	7035
2026-01-24 12:03:44.43	97.30	9.27	-42.5	-43.9	20.4	0.00e+00	0	41	0	825229312	56	7120
2026-01-24 12:03:45.44	97.46	9.24	-42.7	-44.1	20.1	0.00e+00	0	41	0	827326464	58	6501
2026-01-24 12:03:46.45	97.63	9.20	-42.4	-43.8	20.3	0.00e+00	0	41	0	829423616	58	6309
2026-01-24 12:03:47.46	97.79	9.17	-42.4	-43.8	20.5	0.00e+00	0	41	0	831520768	58	6272
2026-01-24 12:03:48.47	97.95	9.14	-42.0	-43.3	20.9	0.00e+00	0	41	0	833617920	58	5951
2026-01-24 12:03:49.48	98.11	9.10	-42.3	-43.7	20.6	0.00e+00	0	41	0	834666496	58	6181
2026-01-24 12:03:50.49	98.27	9.07	-42.5	-43.8	20.4	0.00e+00	0	41	0	836763648	58	6311
2026-01-24 12:03:51.50	98.44	9.04	-42.6	-44.0	20.1	0.00e+00	0	41	0	838860800	58	6417
2026-01-24 12:03:52.51	98.60	9.00	-42.9	-44.2	20.0	0.00e+00	0	41	0	840957952	58	6609
2026-01-24 12:03:53.52	98.76	8.97	-43.0	-44.4	20.0	0.00e+00	0	41	0	843055104	58	6703
2026-01-24 12:03:54.53	98.92	8.94	-43.1	-44.5	19.6	0.00e+00	0	41	0	844103680	58	6821
2026-01-24 12:03:55.54	99.08	8.90	-43.3	-44.8	19.3	0.00e+00	0	41	0	846200832	58	7066
2026-01-24 12:03:56.55	99.24	8.87	-43.3	-44.7	19.5	0.00e+00	0	41	0	848297984	58	6965
2026-01-24 12:03:57.55	99.39	8.83	-43.1	-44.5	19.7	0.00e+00	0	41	0	850395136	58	6821
2026-01-24 12:03:58.56	99.55	8.80	-43.3	-44.7	19.6	0.00e+00	0	41	0	852492288	58	6965
2026-01-24 12:03:59.57	99.71	8.76	-43.2	-44.6	19.7	0.00e+00	0	41	0	853540864	58	6897
2026-01-24 12:04:00.58	99.87	8.73	-43.1	-44.5	19.9	0.00e+00	0	41	0	855638016	58	6828
2026-01-24 12:04:01.59	100.03	8.69	-43.3	-44.7	19.7	0.00e+00	0	41	0	857735168	58	6994
2026-01-24 12:04:02.60	100.18	8.66	-43.1	-44.5	19.9	0.00e+00	0	41	0	859832320	58	6770
2026-01-24 12:04:03.60	100.34	8.62	-42.9	-44.2	20.2	0.00e+00	0	41	0	861929472	58	6588
2026-01-24 12:04:04.61	100.49	8.59	-43.0	-44.3	20.0	0.00e+00	0	41	0	864026624	58	6690
2026-01-24 12:04:05.62	100.65	8.55	-43.1	-44.5	20.0	0.00e+00	0	41	0	865075200	58	6781
2026-01-24 12:04:06.63	100.81	8.52	-43.2	-44.6	19.8	0.00e+00	0	41	0	867172352	58	6874
2026-01-24 12:04:07.64	100.96	8.48	-43.1	-44.6	19.9	0.00e+00	0	41	0	869269504	58	6851
2026-01-24 12:04:08.65	101.12	8.45	-43.1	-44.5	19.9	0.00e+00	0	41	0	871366656	58	6824
2026-01-24 12:04:09.66	101.27	8.41	-43.1	-44.5	19.9	0.00e+00	0	41	0	873463808	58	6784
2026-01-24 12:04:10.67	101.42	8.37	-42.9	-44.2	20.3	0.00e+00	0	41	0	874512384	58	6591
2026-01-24 12:04:11.68	101.58	8.34	-43.0	-44.3	20.1	0.00e+00	0	41	0	876609536	58	6684
2026-01-24 12:04:12.69	101.73	8.30	-43.3	-44.7	19.8	0.00e+00	0	41	0	878706688	58	6989
2026-01-24 12:04:13.70	101.89	8.27	-43.2	-44.7	19.8	0.00e+00	0	41	0	880803840	58	6963
2026-01-24 12:04:14.71	102.04	8.23	-43.0	-44.4	19.9	0.00e+00	0	41	0	882900992	58	6764
2026-01-24 12:04:15.72	102.19	8.19	-43.0	-44.5	19.9	0.00e+00	0	41	0	883949568	58	6770
2026-01-24 12:04:16.73	102.34	8.15	-43.0	-44.6	19.7	0.00e+00	0	41	0	886046720	58	6851
2026-01-24 12:04:17.74	102.49	8.12	-43.0	-44.6	19.7	0.00e+00	0	41	0	888143872	58	6851
2026-01-24 12:04:18.74	102.64	8.08	-43.2	-44.8	19.4	0.00e+00	0	41	0	890241024	58	7036
2026-01-24 12:04:19.75	102.80	8.04	-43.2	-44.8	19.3	0.00e+00	0	41	0	892338176	58	7085
2026-01-24 12:04:20.76	102.95	8.01	-43.4	-45.1	19.2	0.00e+00	0	41	0	893386752	58	7256
2026-01-24 12:04:21.77	103.10	7.97	-43.5	-45.2	19.2	0.00e+00	0	41	0	895483904	58	7360
2026-01-24 12:04:22.78	103.25	7.93	-43.4	-45.1	19.4	0.00e+00	0	41	0	897581056	60	6484
2026-01-24 12:04:23.79	103.40	7.89	-43.3	-44.9	19.3	0.00e+00	0	41	0	899678208	60	6362
2026-01-24 12:04:24.80	103.54	7.86	-43.4	-45.0	19.0	0.00e+00	0	41	0	901775360	60	6441
2026-01-24 12:04:25.81	103.69	7.82	-43.1	-44.7	19.4	0.00e+00	0	41	0	902823936	60	6216
2026-01-24 12:04:26.82	103.84	7.78	-43.1	-44.6	19.7	0.00e+00	0	41	0	904921088	60	6146
2026-01-24 12:04:27.83	103.99	7.74	-43.1	-44.6	19.8	0.00e+00	0	41	0	907018240	60	6147
2026-01-24 12:04:28.84	104.14	7.70	-42.3	-43.6	20.5	0.00e+00	0	41	0	909115392	58	6153
2026-01-24 12:04:29.85	104.28	7.67	-42.3	-43.7	20.4	0.00e+00	0	41	0	911212544	58	6181
2026-01-24 12:04:30.86	104.43	7.63	-41.9	-43.2	20.7	0.00e+00	0	41	0	912261120	58	5883
2026-01-24 12:04:31.87	104.58	7.59	-42.0	-43.3	20.9	0.00e+00	0	41	0	914358272	58	5899
2026-01-24 12:04:32.88	104.72	7.55	-42.0	-43.3	21.0	0.00e+00	0	41	0	916455424	58	5918
2026-01-24 12:04:33.89	104.87	7.51	-41.9	-43.1	20.9	0.00e+00	0	41	0	918552576	58	5812
2026-01-24 12:04:34.90	105.01	7.47	-42.4	-43.7	20.5	0.00e+00	0	41	0	920649728	58	6187
2026-01-24 12:04:35.91	105.16	7.43	-42.8	-44.1	20.1	0.00e+00	0	41	0	921698304	58	6509
2026-01-24 12:04:36.92	105.30	7.39	-42.2	-43.5	20.6	0.00e+00	0	41	0	923795456	58	6070
2026-01-24 12:04:37.93	105.45	7.36	-42.7	-44.1	20.1	0.00e+00	0	41	0	925892608	58	6501
2026-01-24 12:04:38.94	105.59	7.32	-42.6	-43.9	20.4	0.00e+00	0	41	0	927989760	58	6333
2026-01-24 12:04:39.94	105.73	7.28	-42.8	-44.2	20.1	0.00e+00	0	41	0	930086912	58	6565
2026-01-24 12:04:40.95	105.88	7.24	-43.0	-44.4	19.8	0.00e+00	0	41	0	932184064	58	6739
2026-01-24 12:04:41.96	106.02	7.20	-43.3	-44.8	19.7	0.00e+00	0	41	0	933232640	58	7009
2026-01-24 12:04:42.97	106.16	7.16	-42.9	-44.2	20.1	0.00e+00	0	41	0	935329792	58	6595
2026-01-24 12:04:43.98	106.30	7.12	-42.5	-43.8	20.3	0.00e+00	0	41	0	937426944	58	6309
2026-01-24 12:04:44.99	106.45	7.08	-42.5	-43.9	20.1	0.00e+00	0	41	0	939524096	58	6366
2026-01-24 12:04:46.00	106.59	7.04	-42.5	-44.0	20.3	0.00e+00	0	41	0	941621248	58	6458
2026-01-24 12:04:47.01	106.73	7.00	-42.4	-43.8	20.3	0.00e+00	0	41	0	942669824	58	6310
2026-01-24 12:04:48.02	106.87	6.96	-42.5	-43.9	20.2	0.00e+00	0	41	0	944766976	58	6372
2026-01-24 12:04:49.03	107.01	6.92	-42.4	-43.8	20.2	0.00e+00	0	41	0	946864128	58	6294
2026-01-24 12:04:50.04	107.15	6.88	-42.8	-44.4	19.8	0.00e+00	0	41	0	948961280	58	6704
2026-01-24 12:04:51.05	107.29	6.84	-42.6	-44.1	20.2	0.00e+00	0	41	0	950009856	58	6497
2026-01-24 12:04:52.06	107.43	6.80	-42.6	-44.1	20.1	0.00e+00	0	41	0	952107008	58	6477
2026-01-24 12:04:53.07	107.57	6.76	-42.3	-43.7	20.3	0.00e+00	0	41	0	954204160	58	6209
2026-01-24 12:04:54.08	107.70	6.72	-42.5	-43.9	20.2	0.00e+00	0	41	0	956301312	58	6338
2026-01-24 12:04:55.08	107.84	6.68	-42.5	-43.9	20.2	0.00e+00	0	41	0	958398464	58	6331
2026-01-24 12:04:56.10	107.98	6.64	-42.3	-43.6	20.4	0.00e+00	0	41	0	960495616	58	6170
2026-01-24 12:04:57.10	108.12	6.60	-42.2	-43.5	20.5	0.00e+00	0	41	0	961544192	58	6061
2026-01-24 12:04:58.11	108.25	6.56	-42.1	-43.4	20.6	0.00e+00	0	41	0	963641344	58	6008
2026-01-24 12:04:59.12	108.39	6.52	-41.7	-43.0	21.0	0.00e+00	0	41	0	965738496	56	6392
2026-01-24 12:05:00.13	108.52	6.47	-42.3	-43.7	20.5	0.00e+00	0	41	0	967835648	56	6932
2026-01-24 12:05:01.14	108.66	6.43	-42.2	-43.5	20.7	0.00e+00	0	41	0	969932800	56	6789
2026-01-24 12:05:02.15	108.80	6.39	-41.5	-42.7	21.3	0.00e+00	0	41	0	970981376	56	6214
2026-01-24 12:05:03.16	108.93	6.35	-42.2	-43.5	20.6	0.00e+00	0	41	0	973078528	56	6772
2026-01-24 12:05:04.17	109.07	6.31	-42.2	-43.5	20.6	0.00e+00	0	41	0	975175680	56	6785
2026-01-24 12:05:05.18	109.20	6.27	-42.7	-44.1	20.1	0.00e+00	0	41	0	977272832	56	7280
2026-01-24 12:05:06.19	109.33	6.23	-42.7	-44.1	20.1	0.00e+00	0	41	0	979369984	58	6489
2026-01-24 12:05:07.20	109.47	6.19	-41.8	-43.1	21.0	0.00e+00	0	41	0	980418560	58	5781
2026-01-24 12:05:08.21	109.60	6.14	-41.5	-42.7	21.2	0.00e+00	0	41	0	982515712	56	6211
2026-01-24 12:05:09.21	109.73	6.10	-42.0	-43.2	20.8	0.00e+00	0	41	0	984612864	56	6566
2026-01-24 12:05:10.23	109.87	6.06	-41.9	-43.2	20.7	0.00e+00	0	41	0	986710016	56	6562
2026-01-24 12:05:11.24	110.00	6.02	-41.8	-43.0	20.9	0.00e+00	0	41	0	988807168	56	6430
2026-01-24 12:05:12.25	110.13	5.98	-41.7	-42.9	21.1	0.00e+00	0	41	0	989855744	56	6378
2026-01-24 12:05:13.25	110.26	5.94	-41.7	-43.0	21.0	0.00e+00	0	41	0	991952896	56	6410
2026-01-24 12:05:14.26	110.39	5.90	-41.7	-42.9	21.1	0.00e+00	0	41	0	994050048	56	6373
2026-01-24 12:05:15.27	110.52	5.85	-41.3	-42.5	21.3	0.00e+00	0	41	0	996147200	56	6073
2026-01-24 12:05:16.28	110.65	5.81	-41.9	-43.1	20.7	0.00e+00	0	41	0	998244352	56	6515
2026-01-24 12:05:17.29	110.78	5.77	-42.2	-43.5	20.5	0.00e+00	0	41	0	999292928	56	6785
2026-01-24 12:05:18.30	110.91	5.73	-42.1	-43.3	20.7	0.00e+00	0	41	0	1001390080	56	6657
2026-01-24 12:05:19.31	111.04	5.69	-42.1	-43.4	20.7	0.00e+00	0	41	0	1003487232	56	6696
2026-01-24 12:05:20.32	111.17	5.64	-41.8	-43.1	20.9	0.00e+00	0	41	0	1005584384	56	6516
2026-01-24 12:05:21.33	111.30	5.60	-41.9	-43.2	20.8	0.00e+00	0	41	0	1007681536	56	6598
2026-01-24 12:05:22.34	111.43	5.56	-42.6	-44.1	19.7	0.00e+00	0	41	0	1008730112	56	7304
2026-01-24 12:05:23.35	111.55	5.52	-42.8	-44.3	19.7	0.00e+00	0	41	0	1010827264	58	6671
2026-01-24 12:05:24.35	111.68	5.47	-42.3	-43.6	20.2	0.00e+00	0	41	0	1012924416	58	6168
2026-01-24 12:05:25.36	111.81	5.43	-42.2	-43.5	20.4	0.00e+00	0	41	0	1015021568	58	6098
2026-01-24 12:05:26.37	111.93	5.39	-42.0	-43.3	20.6	0.00e+00	0	41	0	1017118720	58	5927
2026-01-24 12:05:27.38	112.06	5.35	-41.9	-43.2	20.7	0.00e+00	0	41	0	1018167296	58	5886
2026-01-24 12:05:28.39	112.19	5.30	-41.8	-43.1	20.5	0.00e+00	0	41	0	1020264448	58	5798
2026-01-24 12:05:29.40	112.31	5.26	-41.9	-43.2	20.7	0.00e+00	0	41	0	1022361600	56	6572
2026-01-24 12:05:30.41	112.44	5.22	-42.8	-44.3	19.6	0.00e+00	0	41	0	1024458752	58	6683
2026-01-24 12:05:31.42	112.56	5.18	-42.8	-44.2	19.8	0.00e+00	0	41	0	1026555904	58	6599
2026-01-24 12:05:32.43	112.69	5.13	-41.8	-43.0	20.7	0.00e+00	0	41	0	1027604480	56	6455
2026-01-24 12:05:33.44	112.81	5.09	-43.2	-44.8	19.1	0.00e+00	0	41	0	1029701632	58	7037
2026-01-24 12:05:34.45	112.93	5.05	-42.5	-43.8	20.2	0.00e+00	0	41	0	1031798784	58	6306
2026-01-24 12:05:35.46	113.06	5.01	-42.5	-43.8	20.2	0.00e+00	0	41	0	1033895936	58	6310
2026-01-24 12:05:36.47	113.18	4.96	-42.2	-43.5	20.4	0.00e+00	0	41	0	1035993088	58	6089
2026-01-24 12:05:37.48	113.30	4.92	-42.4	-43.8	19.9	0.00e+00	0	41	0	1038090240	58	6250
2026-01-24 12:05:38.49	113.43	4.88	-42.4	-43.7	20.2	0.00e+00	0	41	0	1039138816	58	6227
2026-01-24 12:05:39.50	113.55	4.83	-41.8	-43.1	20.7	0.00e+00	0	41	0	1041235968	56	6485
2026-01-24 12:05:40.51	113.67	4.79	-41.9	-43.2	20.6	0.00e+00	0	41	0	1043333120	56	6551
2026-01-24 12:05:41.52	113.79	4.75	-42.7	-44.1	19.8	0.00e+00	0	41	0	1045430272	56	7299
2026-01-24 12:05:42.53	113.91	4.71	-41.9	-43.1	20.5	0.00e+00	0	41	0	1047527424	56	6509
2026-01-24 12:05:43.54	114.03	4.66	-42.8	-44.2	19.7	0.00e+00	0	41	0	1048576000	58	6596
2026-01-24 12:05:44.54	114.15	4.62	-41.4	-42.6	20.9	0.00e+00	0	41	0	1050673152	56	6172
2026-01-24 12:05:45.55	114.27	4.58	-42.3	-43.7	20.2	0.00e+00	0	41	0	1052770304	56	6951
2026-01-24 12:05:46.56	114.39	4.53	-41.7	-43.0	20.6	0.00e+00	0	41	0	1054867456	56	6419
2026-01-24 12:05:47.57	114.51	4.49	-43.2	-44.9	18.8	0.00e+00	0	41	0	1056964608	58	7101
2026-01-24 12:05:48.58	114.63	4.45	-43.5	-45.2	18.5	0.00e+00	0	41	0	1058013184	58	7374
2026-01-24 12:05:49.59	114.75	4.40	-43.6	-45.3	18.5	0.00e+00	0	41	0	1060110336	60	6646
2026-01-24 12:05:50.60	114.87	4.36	-42.4	-43.8	19.8	0.00e+00	0	41	0	1062207488	58	6312
2026-01-24 12:05:51.61	114.99	4.32	-43.6	-45.3	18.9	0.00e+00	0	41	0	1064304640	60	6649
2026-01-24 12:05:52.62	115.10	4.27	-42.5	-43.9	19.7	0.00e+00	0	41	0	1066401792	58	6386
2026-01-24 12:05:53.63	115.22	4.23	-42.7	-44.2	19.6	0.00e+00	0	41	0	1067450368	58	6614
2026-01-24 12:05:54.64	115.34	4.19	-43.7	-45.5	18.2	0.00e+00	0	41	0	1069547520	58	7633
2026-01-24 12:05:55.65	115.46	4.14	-43.4	-45.2	18.8	0.00e+00	0	41	0	1071644672	60	6561
2026-01-24 12:05:56.66	115.57	4.10	-42.4	-44.0	20.0	0.00e+00	0	41	0	1073741824	58	6404
2026-01-24 12:05:57.66	115.69	4.06	-43.1	-44.9	19.0	0.00e+00	0	41	0	1075838976	58	7109
2026-01-24 12:05:58.67	115.80	4.01	-43.3	-45.1	18.6	0.00e+00	0	41	0	1076887552	58	7333
2026-01-24 12:05:59.68	115.92	3.97	-42.8	-44.4	19.2	0.00e+00	0	41	0	1078984704	58	6721
2026-01-24 12:06:00.69	116.03	3.93	-42.1	-43.5	20.1	0.00e+00	0	41	0	1081081856	58	6068
2026-01-24 12:06:01.70	116.15	3.88	-42.9	-44.4	19.1	0.00e+00	0	41	0	1083179008	58	6734
2026-01-24 12:06:02.71	116.26	3.84	-43.3	-44.9	19.0	0.00e+00	0	41	0	1085276160	60	6359
2026-01-24 12:06:03.72	116.38	3.79	-44.4	-46.4	17.6	0.00e+00	0	41	0	1086324736	60	7542
2026-01-24 12:06:04.73	116.49	3.75	-43.9	-45.7	18.0	0.00e+00	0	41	0	1088421888	60	6984
2026-01-24 12:06:05.74	116.60	3.71	-43.3	-44.9	19.0	0.00e+00	0	41	0	1090519040	60	6342
2026-01-24 12:06:06.75	116.72	3.66	-43.3	-45.0	18.9	0.00e+00	0	41	0	1092616192	60	6403
2026-01-24 12:06:07.76	116.83	3.62	-43.3	-45.0	18.9	0.00e+00	0	41	0	1094713344	60	6427
2026-01-24 12:06:08.76	116.94	3.58	-43.7	-45.4	18.2	0.00e+00	0	41	0	1096810496	60	6730
2026-01-24 12:06:09.78	117.05	3.53	-44.2	-46.1	17.7	0.00e+00	0	41	0	1097859072	60	7312
2026-01-24 12:06:10.78	117.17	3.49	-43.4	-45.1	18.5	0.00e+00	0	41	0	1099956224	60	6509
2026-01-24 12:06:11.80	117.28	3.44	-42.6	-44.1	19.4	0.00e+00	0	41	0	1102053376	58	6521
2026-01-24 12:06:12.81	117.39	3.40	-43.8	-45.7	18.2	0.00e+00	0	41	0	1104150528	60	6968
2026-01-24 12:06:13.82	117.50	3.36	-43.7	-45.6	18.5	0.00e+00	0	41	0	1106247680	60	6869
2026-01-24 12:06:14.82	117.61	3.31	-44.4	-46.5	17.4	0.00e+00	0	41	0	1107296256	60	7620
2026-01-24 12:06:15.84	117.72	3.27	-43.0	-44.7	19.0	0.00e+00	0	41	0	1109393408	60	6182
2026-01-24 12:06:16.85	117.83	3.23	-43.8	-45.7	17.8	0.00e+00	0	41	0	1111490560	60	6989
2026-01-24 12:06:17.86	117.94	3.18	-44.4	-46.5	17.0	0.00e+00	0	41	0	1113587712	60	7681
2026-01-24 12:06:18.87	118.05	3.14	-44.0	-46.0	17.4	0.00e+00	0	41	0	1115684864	60	7204
2026-01-24 12:06:19.88	118.16	3.09	-44.5	-46.7	16.8	0.00e+00	0	41	0	1116733440	60	7838
2026-01-24 12:06:20.88	118.27	3.05	-44.5	-46.7	16.8	0.00e+00	0	41	0	1118830592	60	7785
2026-01-24 12:06:21.89	118.38	3.01	-44.3	-46.4	17.1	0.00e+00	0	41	0	1120927744	60	7533
2026-01-24 12:06:22.90	118.48	2.96	-49.3	-65.2	3.6	1.11e+00	0	41	104	1121976320	60	65750
2026-01-24 12:06:23.91	118.59	2.92	-50.4	-65.7	3.6	1.51e+00	0	41	104	1121976320	60	69519
2026-01-24 12:06:24.92	118.70	2.87	-50.4	-65.9	3.6	1.51e+00	0	41	104	1121976320	60	70929
2026-01-24 12:06:25.93	118.81	2.83	-50.6	-66.1	3.6	1.51e+00	0	41	104	1121976320	60	72695
2026-01-24 12:06:26.94	118.91	2.79	-51.0	-66.2	3.6	1.51e+00	0	41	104	1121976320	60	73794
2026-01-24 12:06:27.95	119.02	2.74	-51.0	-66.3	3.6	1.51e+00	0	41	104	1121976320	60	74726
2026-01-24 12:06:28.96	119.13	2.70	-51.1	-66.3	3.6	1.51e+00	0	41	104	1121976320	60	74818
2026-01-24 12:06:29.97	119.23	2.65	-51.1	-66.4	3.6	1.51e+00	0	41	104	1121976320	60	75507
2026-01-24 12:06:30.98	119.34	2.61	-51.2	-66.5	3.6	1.51e+00	0	41	104	1121976320	60	75967
2026-01-24 12:06:31.99	119.44	2.57	-51.3	-66.5	3.6	1.51e+00	0	41	104	1121976320	60	76542
2026-01-24 12:06:33.00	119.55	2.52	-51.3	-66.5	3.6	1.51e+00	0	41	104	1121976320	60	76336
2026-01-24 12:06:34.01	119.65	2.48	-51.3	-66.5	3.6	1.51e+00	0	41	104	1121976320	60	76446
2026-01-24 12:06:35.02	119.76	2.43	-51.3	-66.5	3.6	1.51e+00	0	41	104	1121976320	60	76613
2026-01-24 12:06:36.03	119.86	2.39	-51.3	-66.5	3.6	1.51e+00	0	41	104	1121976320	60	76745
2026-01-24 12:06:37.04	119.97	2.35	-51.3	-66.6	3.6	1.51e+00	0	41	104	1121976320	60	76864
2026-01-24 12:06:38.05	120.07	2.30	-51.4	-66.6	3.6	1.51e+00	0	41	104	1121976320	60	76947
2026-01-24 12:06:39.06	120.17	2.26	-51.4	-66.6	3.6	1.51e+00	0	41	104	1121976320	60	76845
2026-01-24 12:06:40.07	120.27	2.21	-51.3	-66.5	3.6	1.51e+00	0	41	104	1121976320	60	76660
2026-01-24 12:06:41.08	120.38	2.17	-51.3	-66.6	3.6	1.51e+00	0	41	104	1121976320	60	76836
2026-01-24 12:06:42.09	120.48	2.12	-51.4	-66.6	3.6	1.51e+00	0	41	104	1121976320	60	76876
2026-01-24 12:06:43.10	120.58	2.08	-51.3	-66.5	3.6	1.51e+00	0	41	104	1121976320	60	76822
2026-01-24 12:06:44.11	120.68	2.04	-51.3	-66.6	3.6	1.51e+00	0	41	104	1121976320	60	77399
2026-01-24 12:06:45.12	120.79	1.99	-51.4	-66.6	3.6	1.51e+00	0	41	104	1121976320	60	77355
2026-01-24 12:06:46.13	120.89	1.95	-51.4	-66.6	3.6	1.51e+00	0	41	104	1121976320	60	77226
2026-01-24 12:06:47.13	120.99	1.90	-51.4	-66.6	3.6	1.51e+00	0	41	104	1121976320	60	77421
2026-01-24 12:06:48.14	121.09	1.86	-51.5	-66.7	3.6	1.51e+00	0	41	104	1121976320	60	78131
2026-01-24 12:06:49.15	121.19	1.82	-51.5	-66.7	3.6	1.51e+00	0	41	104	1121976320	60	78080
2026-01-24 12:06:50.16	121.29	1.77	-51.4	-66.6	3.5	1.51e+00	0	41	104	1121976320	60	77549
2026-01-24 12:06:51.17	121.39	1.73	-51.4	-66.6	3.6	1.51e+00	0	41	104	1121976320	60	77130
2026-01-24 12:06:52.19	121.49	1.68	-51.4	-66.6	3.6	1.51e+00	0	41	104	1121976320	60	77435
2026-01-24 12:06:53.20	121.59	1.64	-51.4	-66.6	3.6	1.51e+00	0	41	104	1121976320	60	76970
2026-01-24 12:06:54.21	121.69	1.60	-51.4	-66.6	3.5	1.51e+00	0	41	104	1121976320	60	77211
2026-01-24 12:06:55.21	121.78	1.55	-51.6	-66.8	3.6	1.51e+00	0	41	104	1121976320	60	79248
2026-01-24 12:06:56.23	121.88	1.51	-51.6	-66.7	3.6	1.51e+00	0	41	104	1121976320	60	78386
2026-01-24 12:06:57.23	121.98	1.46	-51.6	-66.8	3.6	1.51e+00	0	41	104	1121976320	60	78936
2026-01-24 12:06:58.24	122.08	1.42	-51.7	-66.8	3.6	1.51e+00	0	41	104	1121976320	60	79502
2026-01-24 12:06:59.25	122.18	1.37	-51.7	-66.9	3.6	1.51e+00	0	41	104	1121976320	60	80257
2026-01-24 12:07:00.26	122.27	1.33	-51.7	-66.9	3.6	1.51e+00	0	41	104	1121976320	60	80078
2026-01-24 12:07:01.27	122.37	1.29	-51.6	-66.8	3.6	1.51e+00	0	41	104	1121976320	60	79060
2026-01-24 12:07:02.28	122.47	1.24	-51.5	-66.7	3.6	1.51e+00	0	41	104	1121976320	60	78340
2026-01-24 12:07:03.29	122.56	1.20	-51.5	-66.7	3.6	1.51e+00	0	41	104	1121976320	60	78163
2026-01-24 12:07:04.30	122.66	1.15	-51.6	-66.8	3.6	1.51e+00	0	41	104	1121976320	60	78977
2026-01-24 12:07:05.31	122.76	1.11	-51.5	-66.7	3.6	1.51e+00	0	41	104	1121976320	60	78291
