passes_logs/2026/01/24/R4.6S_Anadyr/R4.6S_Anadyr__20260124_235140_NOAA_20_JPSS-1_rec.log

#Pass ID: 20260124_235140_NOAA 20 (JPSS-1)
#Satellite: NOAA 20 (JPSS-1)
#Configuration: NOAA 20
#almurnet v.1.7.20251203
#Start time: 2026-01-24 23:51:42

#Version: 2.2.20231116
#Station: R4.6S_Anadyr
#Location: 177.4865 lon 64.73178 lat
#TLE: 1 43013U 17073A   26024.42258823  .00000183  00000+0  10747-3 0  9990
#TLE: 2 43013  98.7646 325.2629 0001105  25.8644 334.2587 14.19539754424075

#Time	Az	El	Level	Level2	SNR	BER	BlckErr	Temp	State	Recorded	gain1	gain2
2026-01-24 23:51:42.58	147.34	0.15	-51.4	-66.4	3.5	1.51e+00	0	39	0	0	60	75194
2026-01-24 23:51:43.59	147.33	0.22	-51.6	-66.8	3.6	1.51e+00	0	40	104	0	60	78969
2026-01-24 23:51:44.60	147.32	0.28	-51.5	-66.7	3.6	1.51e+00	0	40	104	0	60	78077
2026-01-24 23:51:45.61	147.31	0.34	-51.4	-66.6	3.6	1.51e+00	0	40	104	0	60	76875
2026-01-24 23:51:46.62	147.31	0.40	-51.4	-66.5	3.6	1.51e+00	0	40	104	0	60	76484
2026-01-24 23:51:47.63	147.30	0.46	-51.3	-66.5	3.6	1.51e+00	0	40	104	0	60	76693
2026-01-24 23:51:48.63	147.29	0.52	-51.3	-66.5	3.6	1.51e+00	0	40	104	0	60	76830
2026-01-24 23:51:49.64	147.29	0.58	-51.3	-66.6	3.6	1.51e+00	0	40	104	0	60	76885
2026-01-24 23:51:50.65	147.28	0.64	-51.3	-66.5	3.6	1.51e+00	0	40	104	0	60	76399
2026-01-24 23:51:51.66	147.27	0.71	-51.3	-66.5	3.6	1.51e+00	0	40	104	0	60	76295
2026-01-24 23:51:52.67	147.27	0.77	-51.3	-66.5	3.6	1.51e+00	0	40	104	0	60	76228
2026-01-24 23:51:53.68	147.26	0.83	-51.2	-66.4	3.6	1.51e+00	0	40	104	0	60	75748
2026-01-24 23:51:54.69	147.25	0.89	-51.2	-66.4	3.6	1.51e+00	0	40	104	0	60	75129
2026-01-24 23:51:55.70	147.24	0.96	-51.1	-66.3	3.6	1.51e+00	0	40	104	0	60	74937
2026-01-24 23:51:56.71	147.24	1.02	-51.0	-66.3	3.6	1.51e+00	0	40	104	0	60	74415
2026-01-24 23:51:57.72	147.23	1.08	-51.0	-66.2	3.6	1.51e+00	0	40	104	0	60	73558
2026-01-24 23:51:58.73	147.22	1.14	-50.9	-66.1	3.5	1.51e+00	0	40	104	0	60	72561
2026-01-24 23:51:59.74	147.21	1.21	-50.7	-65.9	3.6	1.51e+00	0	40	104	0	60	71530
2026-01-24 23:52:00.75	147.21	1.27	-50.6	-65.8	3.6	1.51e+00	0	40	104	0	60	70477
2026-01-24 23:52:01.76	147.20	1.33	-50.6	-65.8	3.6	1.51e+00	0	40	104	0	60	70228
2026-01-24 23:52:02.77	147.19	1.40	-50.5	-65.6	3.6	1.51e+00	0	40	104	0	60	69271
2026-01-24 23:52:03.78	147.18	1.46	-50.4	-65.6	3.6	1.51e+00	0	40	104	0	60	68923
2026-01-24 23:52:04.79	147.18	1.52	-50.2	-65.4	3.6	1.51e+00	0	40	104	0	60	67029
2026-01-24 23:52:05.80	147.17	1.59	-50.0	-65.2	3.6	1.51e+00	0	40	104	0	60	65785
2026-01-24 23:52:06.81	147.16	1.65	-49.3	-64.6	3.6	1.51e+00	0	40	104	0	60	61100
2026-01-24 23:52:07.82	147.15	1.72	-49.3	-64.5	3.6	1.51e+00	0	40	104	0	60	60362
2026-01-24 23:52:08.83	147.15	1.78	-49.3	-64.4	3.6	1.51e+00	0	40	104	0	60	59653
2026-01-24 23:52:09.84	147.14	1.84	-49.3	-64.2	3.6	1.51e+00	0	40	104	0	60	58539
2026-01-24 23:52:10.85	147.13	1.91	-49.3	-64.3	3.6	1.51e+00	0	40	104	0	60	58988
2026-01-24 23:52:11.86	147.12	1.97	-49.3	-64.4	3.6	1.51e+00	0	40	104	0	60	59720
2026-01-24 23:52:12.87	147.11	2.04	-49.3	-64.3	3.6	1.51e+00	0	40	104	0	60	59546
2026-01-24 23:52:13.88	147.11	2.10	-49.3	-64.4	3.6	1.51e+00	0	40	104	0	60	59884
2026-01-24 23:52:14.89	147.10	2.17	-49.3	-64.2	3.6	1.51e+00	0	40	104	0	60	58633
2026-01-24 23:52:15.90	147.09	2.23	-49.3	-64.3	3.6	1.51e+00	0	40	104	0	60	59414
2026-01-24 23:52:16.91	147.08	2.30	-49.3	-64.5	3.6	1.51e+00	0	40	104	0	60	60368
2026-01-24 23:52:17.92	147.07	2.36	-49.3	-64.3	3.6	1.51e+00	0	40	104	0	60	59281
2026-01-24 23:52:18.93	147.06	2.43	-49.3	-64.4	3.6	1.51e+00	0	40	104	0	60	60231
2026-01-24 23:52:19.93	147.06	2.50	-49.3	-64.4	3.6	1.51e+00	0	40	104	0	60	59903
2026-01-24 23:52:20.95	147.05	2.56	-49.3	-64.5	3.6	1.51e+00	0	40	104	0	60	60441
2026-01-24 23:52:21.96	147.04	2.63	-49.3	-64.5	3.6	1.51e+00	0	40	104	0	60	60514
2026-01-24 23:52:22.97	147.03	2.70	-49.3	-64.5	3.6	1.51e+00	0	40	104	0	60	60589
2026-01-24 23:52:23.98	147.02	2.76	-49.3	-64.5	3.6	1.51e+00	0	40	104	0	60	60694
2026-01-24 23:52:24.99	147.01	2.83	-49.3	-64.5	3.6	1.51e+00	0	40	104	0	60	60699
2026-01-24 23:52:26.00	147.00	2.90	-49.3	-64.5	3.6	1.51e+00	0	40	104	0	60	60790
2026-01-24 23:52:27.01	147.00	2.96	-49.3	-64.6	3.6	1.51e+00	0	41	104	0	60	61219
2026-01-24 23:52:28.02	146.99	3.03	-49.3	-64.5	3.6	1.51e+00	0	40	104	0	60	60660
2026-01-24 23:52:29.03	146.98	3.10	-49.3	-64.3	3.6	1.51e+00	0	41	104	0	60	59608
2026-01-24 23:52:30.04	146.97	3.16	-49.2	-63.7	3.6	1.51e+00	0	40	104	0	60	55273
2026-01-24 23:52:31.05	146.96	3.23	-49.1	-61.7	3.6	1.51e+00	0	41	104	0	60	44178
2026-01-24 23:52:32.06	146.95	3.30	-49.0	-59.8	4.5	1.08e+00	0	41	104	0	60	35397
2026-01-24 23:52:33.07	146.94	3.37	-48.7	-56.1	6.6	5.22e-01	0	40	0	1048576	60	22974
2026-01-24 23:52:34.08	146.93	3.44	-48.4	-54.8	8.4	2.04e-01	0	40	0	3145728	60	19968
2026-01-24 23:52:35.09	146.92	3.50	-48.0	-53.6	9.4	2.06e-02	0	40	0	5242880	60	17365
2026-01-24 23:52:36.10	146.91	3.57	-47.7	-52.7	10.5	4.38e-03	0	41	0	7340032	60	15601
2026-01-24 23:52:37.11	146.90	3.64	-47.3	-51.6	11.7	1.75e-03	0	40	0	8388608	60	13761
2026-01-24 23:52:38.12	146.89	3.71	-46.2	-49.4	14.2	9.68e-05	0	41	0	10485760	60	10641
2026-01-24 23:52:39.13	146.89	3.78	-45.7	-48.5	14.9	0.00e+00	0	41	0	12582912	60	9635
2026-01-24 23:52:40.14	146.88	3.85	-45.8	-48.7	14.9	3.80e-06	0	41	0	14680064	60	9822
2026-01-24 23:52:41.15	146.87	3.92	-49.7	-63.9	3.6	7.79e-01	0	41	104	14680064	60	56522
2026-01-24 23:52:42.16	146.86	3.99	-44.4	-46.4	16.9	4.25e-01	0	40	104	14680064	60	7573
2026-01-24 23:52:43.17	146.85	4.06	-49.4	-63.0	3.6	3.71e-01	0	41	104	14680064	60	51290
2026-01-24 23:52:44.18	146.84	4.13	-49.4	-58.7	6.0	3.19e-01	0	41	0	14680064	60	31020
2026-01-24 23:52:45.19	146.83	4.20	-48.0	-53.7	9.9	4.34e-03	0	41	0	15728640	60	17459
2026-01-24 23:52:46.19	146.82	4.27	-44.8	-47.1	17.1	0.00e+00	0	41	0	17825792	60	8196
2026-01-24 23:52:47.20	146.81	4.34	-44.0	-45.9	18.1	0.00e+00	0	41	0	19922944	60	7133
2026-01-24 23:52:48.21	146.80	4.41	-43.9	-45.7	18.1	0.00e+00	0	41	0	22020096	60	7000
2026-01-24 23:52:49.22	146.79	4.48	-45.1	-47.4	16.8	0.00e+00	0	41	0	24117248	60	8452
2026-01-24 23:52:50.23	146.78	4.55	-44.4	-46.3	17.5	0.00e+00	0	41	0	25165824	60	7471
2026-01-24 23:52:51.24	146.77	4.62	-43.3	-44.9	19.1	0.00e+00	0	41	0	27262976	60	6330
2026-01-24 23:52:52.25	146.76	4.69	-44.1	-46.0	18.7	0.00e+00	0	41	0	29360128	60	7175
2026-01-24 23:52:53.26	146.75	4.76	-44.3	-46.2	17.5	0.00e+00	0	41	0	31457280	60	7419
2026-01-24 23:52:54.27	146.74	4.83	-45.2	-47.5	16.7	0.00e+00	0	41	0	33554432	60	8574
2026-01-24 23:52:55.28	146.73	4.91	-43.4	-45.0	19.1	0.00e+00	0	40	0	34603008	60	6434
2026-01-24 23:52:56.29	146.72	4.98	-44.2	-46.1	17.9	0.00e+00	0	41	0	36700160	60	7279
2026-01-24 23:52:57.30	146.71	5.05	-44.1	-45.9	18.2	0.00e+00	0	41	0	38797312	60	7096
2026-01-24 23:52:58.31	146.69	5.12	-43.3	-44.8	19.2	0.00e+00	0	40	0	40894464	60	6316
2026-01-24 23:52:59.32	146.68	5.20	-43.6	-45.2	18.9	0.00e+00	0	41	0	42991616	60	6582
2026-01-24 23:53:00.33	146.67	5.27	-43.6	-45.2	19.0	0.00e+00	0	41	0	45088768	60	6551
2026-01-24 23:53:01.33	146.66	5.34	-43.5	-45.1	19.0	0.00e+00	0	41	0	46137344	60	6492
2026-01-24 23:53:02.34	146.65	5.41	-44.1	-45.9	18.3	0.00e+00	0	41	0	48234496	60	7144
2026-01-24 23:53:03.35	146.64	5.49	-43.4	-44.9	19.2	0.00e+00	0	41	0	50331648	60	6369
2026-01-24 23:53:04.36	146.63	5.56	-43.4	-44.9	19.3	0.00e+00	0	41	0	52428800	60	6381
2026-01-24 23:53:05.37	146.62	5.64	-43.2	-44.7	19.5	0.00e+00	0	41	0	54525952	60	6243
2026-01-24 23:53:06.38	146.61	5.71	-43.8	-45.5	19.0	0.00e+00	0	41	0	55574528	60	6790
2026-01-24 23:53:07.39	146.60	5.78	-43.9	-45.6	18.7	0.00e+00	0	41	0	57671680	60	6862
2026-01-24 23:53:08.40	146.58	5.86	-43.4	-45.0	19.5	0.00e+00	0	41	0	59768832	60	6426
2026-01-24 23:53:09.40	146.57	5.93	-43.2	-44.6	19.5	0.00e+00	0	41	0	61865984	60	6173
2026-01-24 23:53:10.41	146.56	6.01	-43.9	-45.5	18.9	0.00e+00	0	41	0	63963136	60	6831
2026-01-24 23:53:11.42	146.55	6.08	-43.5	-45.0	19.2	0.00e+00	0	41	0	65011712	60	6449
2026-01-24 23:53:12.43	146.54	6.16	-43.3	-44.8	19.7	0.00e+00	0	41	0	67108864	60	6252
2026-01-24 23:53:13.44	146.53	6.23	-43.1	-44.6	19.6	0.00e+00	0	41	0	69206016	60	6147
2026-01-24 23:53:14.45	146.51	6.31	-43.3	-44.8	19.4	0.00e+00	0	41	0	71303168	60	6313
2026-01-24 23:53:15.46	146.50	6.39	-43.3	-44.9	19.4	0.00e+00	0	41	0	73400320	60	6320
2026-01-24 23:53:16.47	146.49	6.46	-43.3	-44.8	19.5	0.00e+00	0	41	0	74448896	60	6259
2026-01-24 23:53:17.48	146.48	6.54	-43.3	-44.8	19.6	0.00e+00	0	41	0	76546048	60	6288
2026-01-24 23:53:18.49	146.47	6.61	-43.3	-44.8	19.6	0.00e+00	0	41	0	78643200	60	6262
2026-01-24 23:53:19.50	146.45	6.69	-43.0	-44.5	19.9	0.00e+00	0	41	0	80740352	60	6034
2026-01-24 23:53:20.51	146.44	6.77	-43.1	-44.6	19.7	0.00e+00	0	41	0	82837504	60	6119
2026-01-24 23:53:21.52	146.43	6.85	-43.1	-44.5	19.9	0.00e+00	0	41	0	83886080	60	6086
2026-01-24 23:53:22.53	146.42	6.92	-42.4	-43.7	20.5	0.00e+00	0	41	0	85983232	58	6189
2026-01-24 23:53:23.53	146.40	7.00	-42.9	-44.3	20.0	0.00e+00	0	41	0	88080384	58	6619
2026-01-24 23:53:24.54	146.39	7.08	-43.3	-44.7	19.8	0.00e+00	0	41	0	90177536	58	6979
2026-01-24 23:53:25.55	146.38	7.16	-43.2	-44.6	19.6	0.00e+00	0	40	0	92274688	58	6911
2026-01-24 23:53:26.56	146.37	7.24	-43.3	-44.7	19.9	0.00e+00	0	41	0	93323264	58	6987
2026-01-24 23:53:27.57	146.35	7.31	-43.3	-44.7	19.8	0.00e+00	0	41	0	95420416	58	6952
2026-01-24 23:53:28.58	146.34	7.39	-43.8	-45.4	18.9	0.00e+00	0	41	0	97517568	58	7586
2026-01-24 23:53:29.59	146.33	7.47	-43.8	-45.3	19.3	0.00e+00	0	41	0	99614720	60	6672
2026-01-24 23:53:30.60	146.31	7.55	-42.8	-44.1	20.4	0.00e+00	0	41	0	101711872	60	5788
2026-01-24 23:53:31.61	146.30	7.63	-42.8	-44.1	20.3	0.00e+00	0	41	0	102760448	58	6508
2026-01-24 23:53:32.62	146.29	7.71	-42.6	-43.9	20.5	0.00e+00	0	41	0	104857600	58	6338
2026-01-24 23:53:33.63	146.28	7.79	-42.6	-43.9	20.5	0.00e+00	0	41	0	106954752	58	6364
2026-01-24 23:53:34.64	146.26	7.87	-42.3	-43.5	20.8	0.00e+00	0	41	0	109051904	58	6066
2026-01-24 23:53:35.65	146.25	7.95	-42.2	-43.4	21.0	0.00e+00	0	41	0	111149056	58	6014
2026-01-24 23:53:36.65	146.23	8.03	-42.4	-43.7	20.7	0.00e+00	0	41	0	113246208	58	6182
2026-01-24 23:53:37.66	146.22	8.12	-42.2	-43.4	20.9	0.00e+00	0	41	0	114294784	58	6030
2026-01-24 23:53:38.67	146.21	8.20	-42.7	-44.0	20.4	0.00e+00	0	41	0	116391936	58	6452
2026-01-24 23:53:39.68	146.19	8.28	-42.5	-43.7	20.6	0.00e+00	0	41	0	118489088	58	6245
2026-01-24 23:53:40.69	146.18	8.36	-42.3	-43.5	20.9	0.00e+00	0	41	0	120586240	58	6047
2026-01-24 23:53:41.70	146.16	8.44	-42.3	-43.5	20.9	0.00e+00	0	41	0	122683392	58	6073
2026-01-24 23:53:42.71	146.15	8.53	-42.2	-43.4	21.0	0.00e+00	0	41	0	123731968	58	5985
2026-01-24 23:53:43.72	146.14	8.61	-42.3	-43.5	20.9	0.00e+00	0	41	0	125829120	58	6079
2026-01-24 23:53:44.73	146.12	8.69	-42.1	-43.4	21.1	0.00e+00	0	41	0	127926272	58	5966
2026-01-24 23:53:45.74	146.11	8.78	-42.0	-43.2	21.2	0.00e+00	0	41	0	130023424	58	5883
2026-01-24 23:53:46.75	146.09	8.86	-42.3	-43.6	20.9	0.00e+00	0	41	0	132120576	58	6119
2026-01-24 23:53:47.76	146.08	8.94	-42.4	-43.7	20.9	0.00e+00	0	41	0	133169152	58	6196
2026-01-24 23:53:48.77	146.06	9.03	-42.6	-43.9	20.7	0.00e+00	0	41	0	135266304	58	6319
2026-01-24 23:53:49.78	146.05	9.11	-42.1	-43.3	21.3	0.00e+00	0	41	0	137363456	58	5927
2026-01-24 23:53:50.79	146.03	9.20	-42.0	-43.1	21.3	0.00e+00	0	41	0	139460608	58	5810
2026-01-24 23:53:51.80	146.02	9.28	-42.0	-43.1	21.3	0.00e+00	0	41	0	141557760	58	5828
2026-01-24 23:53:52.81	146.00	9.37	-42.1	-43.3	21.2	0.00e+00	0	41	0	142606336	58	5901
2026-01-24 23:53:53.82	145.99	9.45	-41.9	-43.0	21.4	0.00e+00	0	41	0	144703488	58	5737
2026-01-24 23:53:54.83	145.97	9.54	-42.2	-43.4	21.1	0.00e+00	0	41	0	146800640	58	5979
2026-01-24 23:53:55.83	145.96	9.63	-42.2	-43.5	21.0	0.00e+00	0	41	0	148897792	58	6049
2026-01-24 23:53:56.84	145.94	9.71	-42.3	-43.5	21.1	0.00e+00	0	41	0	150994944	58	6055
2026-01-24 23:53:57.85	145.92	9.80	-42.1	-43.3	21.3	0.00e+00	0	41	0	152043520	58	5935
2026-01-24 23:53:58.86	145.91	9.89	-42.1	-43.3	21.3	0.00e+00	0	41	0	154140672	58	5932
2026-01-24 23:53:59.87	145.89	9.97	-42.3	-43.5	21.0	0.00e+00	0	41	0	156237824	58	6043
2026-01-24 23:54:00.88	145.88	10.06	-42.1	-43.2	21.3	0.00e+00	0	41	0	158334976	58	5884
2026-01-24 23:54:01.89	145.86	10.15	-42.0	-43.2	21.1	0.00e+00	0	41	0	160432128	58	5879
2026-01-24 23:54:02.90	145.84	10.24	-41.8	-43.0	21.5	0.00e+00	0	41	0	161480704	58	5726
2026-01-24 23:54:03.91	145.83	10.33	-41.6	-42.7	21.9	0.00e+00	0	41	0	163577856	56	6219
2026-01-24 23:54:04.92	145.81	10.42	-42.0	-43.2	21.3	0.00e+00	0	41	0	165675008	56	6541
2026-01-24 23:54:05.93	145.79	10.51	-42.0	-43.2	21.6	0.00e+00	0	41	0	167772160	56	6571
2026-01-24 23:54:06.94	145.78	10.60	-41.7	-42.9	21.7	0.00e+00	0	41	0	169869312	56	6330
2026-01-24 23:54:07.95	145.76	10.69	-41.6	-42.7	21.8	0.00e+00	0	41	0	170917888	56	6235
2026-01-24 23:54:08.96	145.74	10.78	-41.7	-42.8	21.6	0.00e+00	0	41	0	173015040	56	6283
2026-01-24 23:54:09.97	145.73	10.87	-41.5	-42.5	22.0	0.00e+00	0	41	0	175112192	56	6096
2026-01-24 23:54:10.98	145.71	10.96	-41.6	-42.7	21.9	0.00e+00	0	41	0	177209344	56	6196
2026-01-24 23:54:11.98	145.69	11.05	-41.5	-42.6	21.9	0.00e+00	0	41	0	179306496	56	6121
2026-01-24 23:54:12.99	145.67	11.14	-41.6	-42.7	21.8	0.00e+00	0	41	0	180355072	56	6223
2026-01-24 23:54:14.00	145.66	11.23	-41.5	-42.6	22.0	0.00e+00	0	41	0	182452224	56	6134
2026-01-24 23:54:15.01	145.64	11.32	-41.3	-42.4	22.2	0.00e+00	0	41	0	184549376	56	5998
2026-01-24 23:54:16.02	145.62	11.42	-41.4	-42.5	22.0	0.00e+00	0	41	0	186646528	56	6069
2026-01-24 23:54:17.03	145.60	11.51	-41.7	-42.8	21.8	0.00e+00	0	41	0	188743680	56	6260
2026-01-24 23:54:18.04	145.58	11.60	-41.4	-42.4	22.0	0.00e+00	0	41	0	189792256	56	6032
2026-01-24 23:54:19.05	145.56	11.70	-41.6	-42.7	21.8	0.00e+00	0	41	0	191889408	56	6206
2026-01-24 23:54:20.06	145.55	11.79	-41.5	-42.6	22.0	0.00e+00	0	41	0	193986560	56	6125
2026-01-24 23:54:21.07	145.53	11.89	-40.5	-41.5	22.8	0.00e+00	0	41	0	196083712	54	6072
2026-01-24 23:54:22.08	145.51	11.98	-40.8	-41.8	22.5	0.00e+00	0	41	0	198180864	54	6305
2026-01-24 23:54:23.09	145.49	12.08	-40.8	-41.8	22.6	0.00e+00	0	41	0	199229440	54	6261
2026-01-24 23:54:24.10	145.47	12.17	-40.7	-41.7	22.8	0.00e+00	0	41	0	201326592	54	6219
2026-01-24 23:54:25.10	145.45	12.27	-40.8	-41.7	22.6	0.00e+00	0	41	0	203423744	54	6241
2026-01-24 23:54:26.12	145.43	12.36	-40.8	-41.8	22.6	0.00e+00	0	41	0	205520896	54	6259
2026-01-24 23:54:27.12	145.41	12.46	-40.8	-41.8	22.7	0.00e+00	0	41	0	207618048	54	6274
2026-01-24 23:54:28.13	145.39	12.56	-40.7	-41.7	22.7	0.00e+00	0	41	0	209715200	54	6195
2026-01-24 23:54:29.14	145.37	12.65	-40.8	-41.8	22.6	0.00e+00	0	41	0	210763776	54	6263
2026-01-24 23:54:30.15	145.35	12.75	-40.6	-41.6	22.9	0.00e+00	0	41	0	212860928	54	6144
2026-01-24 23:54:31.16	145.33	12.85	-40.6	-41.6	22.9	0.00e+00	0	41	0	214958080	54	6137
2026-01-24 23:54:32.17	145.31	12.95	-40.9	-41.9	22.5	0.00e+00	0	41	0	217055232	54	6357
2026-01-24 23:54:33.18	145.29	13.05	-40.5	-41.5	22.9	0.00e+00	0	41	0	219152384	54	6048
2026-01-24 23:54:34.19	145.27	13.15	-40.6	-41.6	22.8	0.00e+00	0	41	0	220200960	54	6147
2026-01-24 23:54:35.20	145.25	13.25	-40.6	-41.5	22.9	0.00e+00	0	41	0	222298112	54	6096
2026-01-24 23:54:36.21	145.23	13.35	-40.4	-41.4	23.0	0.00e+00	0	41	0	224395264	54	6007
2026-01-24 23:54:37.22	145.21	13.45	-40.5	-41.5	23.0	0.00e+00	0	41	0	226492416	54	6049
2026-01-24 23:54:38.23	145.19	13.55	-40.4	-41.3	23.1	0.00e+00	0	41	0	228589568	54	5943
2026-01-24 23:54:39.23	145.17	13.65	-40.7	-41.6	22.8	0.00e+00	0	41	0	229638144	54	6170
2026-01-24 23:54:40.24	145.14	13.75	-40.8	-41.8	22.8	0.00e+00	0	41	0	231735296	54	6288
2026-01-24 23:54:41.25	145.12	13.86	-40.8	-41.7	22.9	0.00e+00	0	41	0	233832448	54	6242
2026-01-24 23:54:42.26	145.10	13.96	-40.2	-41.1	23.3	0.00e+00	0	41	0	235929600	54	5826
2026-01-24 23:54:43.26	145.08	14.06	-40.3	-41.2	23.3	0.00e+00	0	41	0	238026752	54	5856
2026-01-24 23:54:44.27	145.06	14.16	-40.2	-41.1	23.2	0.00e+00	0	41	0	239075328	54	5820
2026-01-24 23:54:45.28	145.03	14.27	-40.3	-41.2	23.3	0.00e+00	0	41	0	241172480	54	5871
2026-01-24 23:54:46.29	145.01	14.37	-40.4	-41.3	23.1	0.00e+00	0	41	0	243269632	54	5949
2026-01-24 23:54:47.30	144.99	14.48	-40.5	-41.5	23.0	0.00e+00	0	41	0	245366784	54	6055
2026-01-24 23:54:48.31	144.96	14.58	-40.6	-41.6	23.1	0.00e+00	0	41	0	247463936	54	6111
2026-01-24 23:54:49.32	144.94	14.69	-40.4	-41.3	23.1	0.00e+00	0	41	0	248512512	54	5946
2026-01-24 23:54:50.33	144.92	14.80	-40.4	-41.3	23.2	0.00e+00	0	41	0	250609664	54	5939
2026-01-24 23:54:51.34	144.89	14.90	-40.4	-41.3	23.2	0.00e+00	0	41	0	252706816	54	5953
2026-01-24 23:54:52.35	144.87	15.01	-40.5	-41.5	23.1	0.00e+00	0	41	0	254803968	54	6042
2026-01-24 23:54:53.36	144.85	15.12	-40.1	-41.0	23.6	0.00e+00	0	41	0	256901120	54	5709
2026-01-24 23:54:54.36	144.82	15.22	-40.0	-40.9	23.6	0.00e+00	0	41	0	257949696	54	5669
2026-01-24 23:54:55.37	144.80	15.33	-40.1	-41.0	23.4	0.00e+00	0	41	0	260046848	54	5759
2026-01-24 23:54:56.38	144.77	15.44	-39.9	-40.8	23.7	0.00e+00	0	41	0	262144000	54	5579
2026-01-24 23:54:57.39	144.75	15.55	-39.9	-40.8	23.7	0.00e+00	0	41	0	264241152	54	5575
2026-01-24 23:54:58.40	144.72	15.66	-39.8	-40.7	23.8	0.00e+00	0	41	0	266338304	54	5508
2026-01-24 23:54:59.41	144.70	15.77	-39.8	-40.7	23.8	0.00e+00	0	41	0	267386880	54	5546
2026-01-24 23:55:00.42	144.67	15.88	-39.8	-40.7	23.8	0.00e+00	0	41	0	269484032	54	5539
2026-01-24 23:55:01.43	144.65	16.00	-40.0	-40.9	23.7	0.00e+00	0	41	0	271581184	54	5684
2026-01-24 23:55:02.44	144.62	16.11	-40.1	-41.1	23.4	0.00e+00	0	41	0	273678336	54	5776
2026-01-24 23:55:03.45	144.59	16.22	-40.0	-40.9	23.6	0.00e+00	0	41	0	275775488	54	5670
2026-01-24 23:55:04.45	144.57	16.33	-39.9	-40.8	23.7	0.00e+00	0	41	0	277872640	54	5619
2026-01-24 23:55:05.46	144.54	16.45	-39.8	-40.7	23.8	0.00e+00	0	41	0	278921216	52	6207
2026-01-24 23:55:06.47	144.52	16.56	-39.8	-40.7	23.8	0.00e+00	0	41	0	281018368	52	6202
2026-01-24 23:55:07.48	144.49	16.68	-39.6	-40.5	23.9	0.00e+00	0	41	0	283115520	52	6063
2026-01-24 23:55:08.49	144.46	16.79	-39.6	-40.5	24.0	0.00e+00	0	41	0	285212672	52	6082
2026-01-24 23:55:09.50	144.43	16.91	-39.6	-40.5	24.0	0.00e+00	0	41	0	287309824	52	6051
2026-01-24 23:55:10.51	144.41	17.02	-39.5	-40.4	24.1	0.00e+00	0	41	0	288358400	52	6002
2026-01-24 23:55:11.52	144.38	17.14	-39.5	-40.4	24.1	0.00e+00	0	41	0	290455552	52	5997
2026-01-24 23:55:12.53	144.35	17.26	-39.4	-40.3	24.3	0.00e+00	0	41	0	292552704	52	5899
2026-01-24 23:55:13.54	144.32	17.38	-39.3	-40.1	24.3	0.00e+00	0	41	0	294649856	52	5824
2026-01-24 23:55:14.55	144.29	17.49	-39.4	-40.3	24.2	0.00e+00	0	41	0	296747008	52	5924
2026-01-24 23:55:15.55	144.26	17.61	-39.6	-40.4	24.1	0.00e+00	0	41	0	297795584	52	6011
2026-01-24 23:55:16.56	144.23	17.73	-39.6	-40.4	24.1	0.00e+00	0	41	0	299892736	52	5999
2026-01-24 23:55:17.57	144.21	17.85	-39.7	-40.6	24.0	0.00e+00	0	41	0	301989888	52	6119
2026-01-24 23:55:18.58	144.18	17.97	-39.6	-40.4	24.1	0.00e+00	0	41	0	304087040	52	6025
2026-01-24 23:55:19.59	144.15	18.10	-39.6	-40.5	24.1	0.00e+00	0	41	0	306184192	52	6059
2026-01-24 23:55:20.60	144.12	18.22	-39.6	-40.5	24.1	0.00e+00	0	41	0	307232768	52	6074
2026-01-24 23:55:21.61	144.08	18.34	-39.8	-40.7	24.0	0.00e+00	0	41	0	309329920	52	6213
2026-01-24 23:55:22.62	144.05	18.46	-39.6	-40.5	24.1	0.00e+00	0	41	0	311427072	52	6040
2026-01-24 23:55:23.63	144.02	18.59	-39.3	-40.1	24.4	0.00e+00	0	41	0	313524224	52	5795
2026-01-24 23:55:24.64	143.99	18.71	-39.2	-40.1	24.4	0.00e+00	0	41	0	315621376	52	5775
2026-01-24 23:55:25.65	143.96	18.84	-39.4	-40.3	24.2	0.00e+00	0	41	0	316669952	52	5920
2026-01-24 23:55:26.66	143.93	18.96	-39.3	-40.1	24.4	0.00e+00	0	41	0	318767104	52	5828
2026-01-24 23:55:27.67	143.90	19.09	-39.0	-39.8	24.6	0.00e+00	0	41	0	320864256	52	5595
2026-01-24 23:55:28.68	143.86	19.22	-39.1	-39.9	24.6	0.00e+00	0	41	0	322961408	52	5676
2026-01-24 23:55:29.68	143.83	19.34	-39.1	-40.0	24.5	0.00e+00	0	41	0	325058560	52	5697
2026-01-24 23:55:30.69	143.80	19.47	-39.1	-39.9	24.5	0.00e+00	0	41	0	326107136	52	5682
2026-01-24 23:55:31.70	143.76	19.60	-39.2	-40.0	24.5	0.00e+00	0	41	0	328204288	52	5748
2026-01-24 23:55:32.72	143.73	19.73	-39.2	-40.0	24.5	0.00e+00	0	41	0	330301440	52	5721
2026-01-24 23:55:33.72	143.70	19.86	-39.0	-39.8	24.7	0.00e+00	0	41	0	332398592	52	5608
2026-01-24 23:55:34.73	143.66	19.99	-39.0	-39.8	24.7	0.00e+00	0	41	0	334495744	52	5585
2026-01-24 23:55:35.74	143.63	20.12	-39.0	-39.9	24.7	0.00e+00	0	41	0	335544320	52	5631
2026-01-24 23:55:36.75	143.59	20.25	-38.9	-39.7	24.7	0.00e+00	0	41	0	337641472	52	5544
2026-01-24 23:55:37.76	143.56	20.39	-38.8	-39.6	24.9	0.00e+00	0	41	0	339738624	52	5455
2026-01-24 23:55:38.77	143.52	20.52	-38.9	-39.7	24.7	0.00e+00	0	41	0	341835776	50	6195
2026-01-24 23:55:39.78	143.49	20.66	-39.0	-39.8	24.7	0.00e+00	0	41	0	343932928	50	6289
2026-01-24 23:55:40.79	143.45	20.79	-38.8	-39.6	24.9	0.00e+00	0	41	0	344981504	50	6128
2026-01-24 23:55:41.80	143.41	20.93	-39.0	-39.8	24.7	0.00e+00	0	41	0	347078656	50	6306
2026-01-24 23:55:42.81	143.38	21.06	-38.8	-39.6	24.9	0.00e+00	0	41	0	349175808	50	6166
2026-01-24 23:55:43.82	143.34	21.20	-39.0	-39.8	24.7	0.00e+00	0	41	0	351272960	50	6285
2026-01-24 23:55:44.83	143.30	21.34	-38.9	-39.7	24.7	0.00e+00	0	41	0	353370112	50	6234
2026-01-24 23:55:45.84	143.26	21.48	-38.9	-39.7	24.8	0.00e+00	0	41	0	354418688	50	6199
2026-01-24 23:55:46.85	143.22	21.62	-38.9	-39.7	24.8	0.00e+00	0	41	0	356515840	50	6216
2026-01-24 23:55:47.86	143.18	21.76	-39.0	-39.8	24.6	0.00e+00	0	41	0	358612992	50	6311
2026-01-24 23:55:48.86	143.15	21.90	-38.9	-39.7	24.8	0.00e+00	0	41	0	360710144	50	6212
2026-01-24 23:55:49.87	143.11	22.04	-39.0	-39.8	24.7	0.00e+00	0	41	0	362807296	50	6254
2026-01-24 23:55:50.88	143.07	22.18	-39.0	-39.8	24.7	0.00e+00	0	41	0	363855872	50	6279
2026-01-24 23:55:51.90	143.03	22.33	-39.0	-39.8	24.7	0.00e+00	0	41	0	365953024	50	6263
2026-01-24 23:55:52.90	142.98	22.47	-39.1	-39.9	24.6	0.00e+00	0	41	0	368050176	50	6360
2026-01-24 23:55:53.91	142.94	22.61	-38.8	-39.6	24.9	0.00e+00	0	41	0	370147328	50	6134
2026-01-24 23:55:54.92	142.90	22.76	-39.0	-39.8	24.8	0.00e+00	0	41	0	372244480	50	6296
2026-01-24 23:55:55.93	142.86	22.91	-38.9	-39.7	24.8	0.00e+00	0	41	0	374341632	50	6212
2026-01-24 23:55:56.94	142.82	23.05	-38.9	-39.7	24.8	0.00e+00	0	41	0	375390208	50	6239
2026-01-24 23:55:57.95	142.77	23.20	-38.7	-39.5	24.9	0.00e+00	0	41	0	377487360	50	6091
2026-01-24 23:55:58.96	142.73	23.35	-39.0	-39.8	24.7	0.00e+00	0	41	0	379584512	50	6316
2026-01-24 23:55:59.97	142.69	23.50	-39.0	-39.8	24.7	0.00e+00	0	41	0	381681664	50	6286
2026-01-24 23:56:00.98	142.64	23.65	-39.3	-40.1	24.4	0.00e+00	0	41	0	383778816	50	6522
2026-01-24 23:56:01.99	142.60	23.80	-39.0	-39.8	24.7	0.00e+00	0	41	0	384827392	50	6289
2026-01-24 23:56:02.99	142.55	23.96	-39.0	-39.8	24.7	0.00e+00	0	41	0	386924544	50	6301
2026-01-24 23:56:04.01	142.51	24.11	-39.2	-40.0	24.6	0.00e+00	0	41	0	389021696	50	6415
2026-01-24 23:56:05.01	142.46	24.26	-39.3	-40.2	24.4	0.00e+00	0	41	0	391118848	50	6561
2026-01-24 23:56:06.02	142.41	24.42	-39.1	-40.0	24.6	0.00e+00	0	41	0	393216000	50	6398
2026-01-24 23:56:07.03	142.37	24.57	-39.3	-40.2	24.4	0.00e+00	0	41	0	394264576	50	6562
2026-01-24 23:56:08.04	142.32	24.73	-39.4	-40.2	24.3	0.00e+00	0	41	0	396361728	50	6605
2026-01-24 23:56:09.05	142.27	24.89	-39.5	-40.4	24.2	0.00e+00	0	41	0	398458880	50	6730
2026-01-24 23:56:10.06	142.22	25.05	-39.6	-40.4	24.3	0.00e+00	0	41	0	400556032	50	6744
2026-01-24 23:56:11.07	142.17	25.21	-39.8	-40.7	24.1	0.00e+00	0	41	0	402653184	50	6951
2026-01-24 23:56:12.08	142.12	25.37	-39.7	-40.6	24.1	0.00e+00	0	41	0	403701760	52	6130
2026-01-24 23:56:13.09	142.07	25.53	-40.0	-41.0	23.8	0.00e+00	0	41	0	405798912	52	6394
2026-01-24 23:56:14.10	142.02	25.69	-40.1	-41.0	23.7	0.00e+00	0	41	0	407896064	52	6441
2026-01-24 23:56:15.11	141.97	25.86	-40.1	-41.0	23.7	0.00e+00	0	41	0	409993216	52	6457
2026-01-24 23:56:16.12	141.92	26.02	-40.2	-41.1	23.6	0.00e+00	0	41	0	412090368	52	6520
2026-01-24 23:56:17.13	141.87	26.19	-40.4	-41.3	23.4	0.00e+00	0	41	0	413138944	52	6685
2026-01-24 23:56:18.14	141.81	26.35	-40.5	-41.4	23.5	0.00e+00	0	41	0	415236096	52	6747
2026-01-24 23:56:19.15	141.76	26.52	-40.5	-41.4	23.4	0.00e+00	0	41	0	417333248	52	6753
2026-01-24 23:56:20.16	141.71	26.69	-40.7	-41.6	23.3	0.00e+00	0	41	0	419430400	52	6879
2026-01-24 23:56:21.16	141.65	26.86	-40.6	-41.5	23.4	0.00e+00	0	41	0	421527552	52	6813
2026-01-24 23:56:22.17	141.60	27.03	-40.8	-41.7	22.9	0.00e+00	0	41	0	422576128	52	6986
2026-01-24 23:56:23.18	141.54	27.20	-40.7	-41.7	23.2	0.00e+00	0	41	0	424673280	54	6179
2026-01-24 23:56:24.19	141.48	27.37	-40.8	-41.8	23.1	0.00e+00	0	41	0	426770432	54	6260
2026-01-24 23:56:25.20	141.43	27.55	-41.0	-41.9	23.0	0.00e+00	0	41	0	428867584	54	6378
2026-01-24 23:56:26.21	141.37	27.72	-41.0	-42.0	23.0	0.00e+00	0	41	0	430964736	54	6423
2026-01-24 23:56:27.22	141.31	27.90	-41.1	-42.1	22.9	0.00e+00	0	41	0	432013312	54	6474
2026-01-24 23:56:28.23	141.25	28.07	-41.3	-42.3	22.7	0.00e+00	0	41	0	434110464	54	6644
2026-01-24 23:56:29.24	141.19	28.25	-41.3	-42.3	22.6	0.00e+00	0	41	0	436207616	54	6687
2026-01-24 23:56:30.24	141.13	28.43	-41.5	-42.6	22.4	0.00e+00	0	41	0	438304768	54	6849
2026-01-24 23:56:31.25	141.07	28.61	-41.6	-42.7	22.3	0.00e+00	0	41	0	440401920	54	6929
2026-01-24 23:56:32.26	141.00	28.79	-41.8	-42.9	22.1	0.00e+00	0	41	0	442499072	56	6354
2026-01-24 23:56:33.27	140.94	28.97	-42.0	-43.0	22.0	0.00e+00	0	41	0	443547648	56	6463
2026-01-24 23:56:34.28	140.88	29.16	-42.2	-43.3	21.9	0.00e+00	0	41	0	445644800	56	6669
2026-01-24 23:56:35.29	140.81	29.34	-42.3	-43.4	21.7	0.00e+00	0	41	0	447741952	56	6742
2026-01-24 23:56:36.30	140.75	29.53	-42.5	-43.7	21.5	0.00e+00	0	41	0	449839104	56	6966
2026-01-24 23:56:37.30	140.68	29.71	-42.8	-43.9	21.3	0.00e+00	0	41	0	451936256	56	7155
2026-01-24 23:56:38.31	140.61	29.90	-42.8	-44.0	21.1	0.00e+00	0	41	0	452984832	58	6443
2026-01-24 23:56:39.32	140.55	30.09	-42.8	-44.0	21.2	0.00e+00	0	41	0	455081984	58	6423
2026-01-24 23:56:40.33	140.48	30.28	-43.0	-44.2	21.1	0.00e+00	0	41	0	457179136	58	6583
2026-01-24 23:56:41.34	140.41	30.47	-42.9	-44.1	21.1	0.00e+00	0	41	0	459276288	58	6514
2026-01-24 23:56:42.35	140.34	30.67	-42.9	-44.1	21.0	0.00e+00	0	41	0	461373440	58	6506
2026-01-24 23:56:43.36	140.27	30.86	-43.0	-44.3	20.9	0.00e+00	0	41	0	462422016	58	6625
2026-01-24 23:56:44.37	140.19	31.06	-43.0	-44.3	21.0	0.00e+00	0	41	0	464519168	58	6631
2026-01-24 23:56:45.38	140.12	31.26	-43.2	-44.5	20.8	0.00e+00	0	41	0	466616320	58	6790
2026-01-24 23:56:46.38	140.05	31.45	-43.3	-44.6	20.6	0.00e+00	0	41	0	468713472	58	6916
2026-01-24 23:56:47.39	139.97	31.65	-43.5	-44.8	20.5	0.00e+00	0	41	0	470810624	58	7046
2026-01-24 23:56:48.40	139.90	31.85	-43.4	-44.7	20.5	0.00e+00	0	41	0	471859200	58	6997
2026-01-24 23:56:49.41	139.82	32.05	-43.5	-44.9	20.4	0.00e+00	0	41	0	473956352	58	7099
2026-01-24 23:56:50.42	139.74	32.26	-43.6	-44.9	20.4	0.00e+00	0	41	0	476053504	58	7135
2026-01-24 23:56:51.43	139.66	32.46	-43.4	-44.7	20.5	0.00e+00	0	41	0	478150656	58	6978
2026-01-24 23:56:52.44	139.58	32.67	-43.6	-44.9	20.4	0.00e+00	0	41	0	480247808	58	7164
2026-01-24 23:56:53.45	139.50	32.88	-43.8	-45.1	20.2	0.00e+00	0	41	0	481296384	60	6537
2026-01-24 23:56:54.46	139.42	33.09	-43.7	-45.1	20.3	0.00e+00	0	41	0	483393536	60	6490
2026-01-24 23:56:55.47	139.34	33.30	-44.0	-45.4	20.0	0.00e+00	0	41	0	485490688	60	6710
2026-01-24 23:56:56.47	139.25	33.51	-44.2	-45.6	19.9	0.00e+00	0	41	0	487587840	60	6877
2026-01-24 23:56:57.49	139.17	33.72	-44.1	-45.5	19.9	0.00e+00	0	41	0	489684992	60	6798
2026-01-24 23:56:58.50	139.08	33.94	-44.3	-45.7	19.8	0.00e+00	0	41	0	490733568	60	7006
2026-01-24 23:56:59.51	138.99	34.15	-44.2	-45.6	19.8	0.00e+00	0	41	0	492830720	60	6906
2026-01-24 23:57:00.51	138.90	34.37	-44.1	-45.6	19.8	0.00e+00	0	41	0	494927872	60	6858
2026-01-24 23:57:01.52	138.81	34.59	-44.4	-45.9	19.6	0.00e+00	0	41	0	497025024	60	7138
2026-01-24 23:57:02.53	138.72	34.81	-44.0	-45.4	20.0	0.00e+00	0	41	0	499122176	60	6766
2026-01-24 23:57:03.54	138.63	35.03	-43.8	-45.2	20.2	0.00e+00	0	41	0	500170752	60	6578
2026-01-24 23:57:04.55	138.53	35.25	-43.8	-45.2	20.4	0.00e+00	0	41	0	502267904	60	6566
2026-01-24 23:57:05.56	138.44	35.48	-43.6	-44.9	20.5	0.00e+00	0	41	0	504365056	60	6360
2026-01-24 23:57:06.57	138.34	35.70	-43.5	-44.8	20.5	0.00e+00	0	41	0	506462208	60	6309
2026-01-24 23:57:07.58	138.24	35.93	-43.3	-44.5	20.9	0.00e+00	0	41	0	508559360	60	6063
2026-01-24 23:57:08.59	138.14	36.16	-43.2	-44.4	21.0	0.00e+00	0	41	0	509607936	60	6001
2026-01-24 23:57:09.60	138.04	36.39	-43.2	-44.4	21.1	0.00e+00	0	41	0	511705088	60	5984
2026-01-24 23:57:10.61	137.94	36.62	-43.0	-44.2	21.2	0.00e+00	0	41	0	513802240	60	5868
2026-01-24 23:57:11.62	137.83	36.86	-43.0	-44.2	21.2	0.00e+00	0	41	0	515899392	60	5862
2026-01-24 23:57:12.63	137.73	37.09	-43.2	-44.4	21.0	0.00e+00	0	41	0	517996544	60	5994
2026-01-24 23:57:13.64	137.62	37.33	-43.2	-44.5	20.9	0.00e+00	0	41	0	519045120	60	6044
2026-01-24 23:57:14.65	137.51	37.57	-43.3	-44.5	21.0	0.00e+00	0	41	0	521142272	60	6093
2026-01-24 23:57:15.66	137.40	37.81	-43.2	-44.5	20.9	0.00e+00	0	41	0	523239424	60	6067
2026-01-24 23:57:16.67	137.29	38.05	-43.4	-44.7	20.8	0.00e+00	0	41	0	525336576	60	6176
2026-01-24 23:57:17.68	137.18	38.29	-43.3	-44.6	20.8	0.00e+00	0	41	0	527433728	60	6114
2026-01-24 23:57:18.68	137.06	38.54	-43.7	-45.0	20.5	0.00e+00	0	41	0	528482304	60	6431
2026-01-24 23:57:19.69	136.94	38.78	-43.9	-45.3	20.2	0.00e+00	0	41	0	530579456	60	6647
2026-01-24 23:57:20.70	136.82	39.03	-44.2	-45.7	19.8	0.00e+00	0	41	0	532676608	60	6942
2026-01-24 23:57:21.71	136.70	39.28	-44.3	-45.8	19.9	0.00e+00	0	41	0	534773760	60	7038
2026-01-24 23:57:22.72	136.58	39.53	-44.2	-45.6	19.8	0.00e+00	0	41	0	536870912	60	6913
2026-01-24 23:57:23.73	136.45	39.78	-43.8	-45.2	20.3	0.00e+00	0	41	0	538968064	60	6560
2026-01-24 23:57:24.74	136.33	40.04	-43.9	-45.3	20.2	0.00e+00	0	41	0	540016640	60	6636
2026-01-24 23:57:25.75	136.20	40.30	-43.9	-45.3	20.3	0.00e+00	0	41	0	542113792	60	6623
2026-01-24 23:57:26.76	136.06	40.55	-43.9	-45.2	20.2	0.00e+00	0	41	0	544210944	60	6586
2026-01-24 23:57:27.77	135.93	40.81	-43.7	-45.0	20.4	0.00e+00	0	41	0	546308096	60	6391
2026-01-24 23:57:28.78	135.79	41.08	-43.8	-45.1	20.3	0.00e+00	0	41	0	548405248	60	6517
2026-01-24 23:57:29.79	135.66	41.34	-43.6	-44.9	20.5	0.00e+00	0	41	0	549453824	60	6372
2026-01-24 23:57:30.79	135.52	41.60	-43.9	-45.3	20.2	0.00e+00	0	41	0	551550976	60	6654
2026-01-24 23:57:31.80	135.37	41.87	-43.7	-45.1	20.5	0.00e+00	0	41	0	553648128	60	6476
2026-01-24 23:57:32.81	135.23	42.14	-43.7	-45.0	20.5	0.00e+00	0	41	0	555745280	60	6403
2026-01-24 23:57:33.82	135.08	42.41	-43.5	-44.7	20.7	0.00e+00	0	41	0	557842432	60	6224
2026-01-24 23:57:34.83	134.93	42.68	-43.3	-44.6	20.9	0.00e+00	0	41	0	558891008	60	6109
2026-01-24 23:57:35.84	134.78	42.95	-43.3	-44.6	20.9	0.00e+00	0	41	0	560988160	60	6114
2026-01-24 23:57:36.85	134.62	43.23	-43.4	-44.6	20.8	0.00e+00	0	41	0	563085312	60	6158
2026-01-24 23:57:37.86	134.46	43.51	-43.5	-44.8	20.6	0.00e+00	0	41	0	565182464	60	6291
2026-01-24 23:57:38.87	134.30	43.79	-43.2	-44.5	21.0	0.00e+00	0	41	0	567279616	60	6060
2026-01-24 23:57:39.88	134.14	44.07	-43.2	-44.4	21.1	0.00e+00	0	41	0	568328192	60	5986
2026-01-24 23:57:40.88	133.97	44.35	-42.5	-43.7	21.6	0.00e+00	0	41	0	570425344	58	6175
2026-01-24 23:57:41.89	133.80	44.63	-42.2	-43.3	22.1	0.00e+00	0	41	0	572522496	58	5914
2026-01-24 23:57:42.90	133.63	44.92	-42.1	-43.2	22.0	0.00e+00	0	41	0	574619648	58	5860
2026-01-24 23:57:43.92	133.45	45.21	-42.0	-43.1	22.1	0.00e+00	0	41	0	576716800	58	5779
2026-01-24 23:57:44.92	133.27	45.49	-42.1	-43.2	22.1	0.00e+00	0	41	0	577765376	58	5878
2026-01-24 23:57:45.94	133.09	45.79	-42.1	-43.2	22.1	0.00e+00	0	41	0	579862528	58	5883
2026-01-24 23:57:46.94	132.90	46.08	-41.9	-43.0	22.3	0.00e+00	0	41	0	581959680	58	5712
2026-01-24 23:57:47.95	132.71	46.37	-42.0	-43.1	22.2	0.00e+00	0	41	0	584056832	58	5791
2026-01-24 23:57:48.96	132.52	46.67	-42.3	-43.4	21.9	0.00e+00	0	41	0	586153984	58	5972
2026-01-24 23:57:49.97	132.32	46.97	-42.3	-43.4	21.9	0.00e+00	0	41	0	587202560	58	6003
2026-01-24 23:57:50.98	132.12	47.27	-42.3	-43.3	21.9	0.00e+00	0	41	0	589299712	58	5962
2026-01-24 23:57:51.99	131.91	47.57	-42.0	-43.1	22.3	0.00e+00	0	41	0	591396864	58	5767
2026-01-24 23:57:53.00	131.70	47.88	-41.9	-42.9	22.4	0.00e+00	0	41	0	593494016	58	5658
2026-01-24 23:57:54.01	131.49	48.18	-42.0	-43.0	22.3	0.00e+00	0	41	0	595591168	58	5748
2026-01-24 23:57:55.02	131.27	48.49	-42.0	-43.1	22.2	0.00e+00	0	41	0	596639744	58	5792
2026-01-24 23:57:56.03	131.05	48.80	-42.0	-43.1	22.2	0.00e+00	0	41	0	598736896	58	5771
2026-01-24 23:57:57.04	130.82	49.11	-41.9	-43.0	22.3	0.00e+00	0	41	0	600834048	58	5725
2026-01-24 23:57:58.05	130.59	49.42	-41.9	-42.9	22.3	0.00e+00	0	41	0	602931200	58	5694
2026-01-24 23:57:59.06	130.35	49.73	-41.9	-42.9	22.4	0.00e+00	0	41	0	605028352	58	5672
2026-01-24 23:58:00.07	130.11	50.05	-41.6	-42.6	22.7	0.00e+00	0	41	0	607125504	56	6162
2026-01-24 23:58:01.08	129.86	50.37	-41.0	-41.9	23.3	0.00e+00	0	41	0	608174080	56	5663
2026-01-24 23:58:02.09	129.61	50.68	-40.9	-41.8	23.5	0.00e+00	0	41	0	610271232	56	5595
2026-01-24 23:58:03.10	129.35	51.00	-40.4	-41.3	23.7	0.00e+00	0	41	0	612368384	54	5925
2026-01-24 23:58:04.11	129.09	51.33	-40.2	-41.1	24.2	0.00e+00	0	41	0	614465536	54	5763
2026-01-24 23:58:05.12	128.82	51.65	-40.1	-41.0	24.2	0.00e+00	0	41	0	616562688	54	5719
2026-01-24 23:58:06.13	128.54	51.97	-39.7	-40.6	24.4	0.00e+00	0	41	0	617611264	52	6129
2026-01-24 23:58:07.13	128.26	52.30	-39.7	-40.6	24.4	0.00e+00	0	41	0	619708416	52	6125
2026-01-24 23:58:08.14	127.97	52.62	-40.0	-40.9	24.0	0.00e+00	0	41	0	621805568	52	6349
2026-01-24 23:58:09.15	127.68	52.95	-40.2	-41.1	23.9	0.00e+00	0	41	0	623902720	52	6532
2026-01-24 23:58:10.16	127.38	53.28	-40.1	-41.0	24.1	0.00e+00	0	41	0	625999872	52	6412
2026-01-24 23:58:11.17	127.07	53.62	-39.9	-40.7	24.3	0.00e+00	0	41	0	627048448	52	6212
2026-01-24 23:58:12.18	126.76	53.95	-39.8	-40.6	24.4	0.00e+00	0	41	0	629145600	52	6144
2026-01-24 23:58:13.19	126.43	54.28	-40.1	-41.0	24.0	0.00e+00	0	41	0	631242752	52	6416
2026-01-24 23:58:14.20	126.10	54.62	-40.5	-41.4	23.7	0.00e+00	0	41	0	633339904	52	6736
2026-01-24 23:58:15.21	125.76	54.96	-40.6	-41.5	23.7	0.00e+00	0	41	0	635437056	52	6780
2026-01-24 23:58:16.22	125.42	55.29	-40.4	-41.3	23.8	0.00e+00	0	41	0	636485632	52	6668
2026-01-24 23:58:17.23	125.06	55.63	-40.8	-41.7	23.5	0.00e+00	0	41	0	638582784	52	6961
2026-01-24 23:58:18.24	124.70	55.97	-41.1	-42.1	23.0	0.00e+00	0	41	0	640679936	54	6489
2026-01-24 23:58:19.25	124.32	56.31	-41.9	-42.9	22.4	0.00e+00	0	41	0	642777088	56	6348
2026-01-24 23:58:20.26	123.94	56.66	-42.6	-43.7	21.6	0.00e+00	0	41	0	644874240	56	7003
2026-01-24 23:58:21.27	123.55	57.00	-43.1	-44.3	21.1	0.00e+00	0	41	0	645922816	58	6657
2026-01-24 23:58:22.28	123.15	57.34	-43.8	-45.2	20.2	0.00e+00	0	41	0	648019968	60	6545
2026-01-24 23:58:23.29	122.74	57.68	-44.7	-46.3	19.4	0.00e+00	0	41	0	650117120	60	7448
2026-01-24 23:58:24.30	122.31	58.03	-44.2	-45.6	20.0	0.00e+00	0	41	0	652214272	60	6877
2026-01-24 23:58:25.30	121.88	58.37	-44.1	-45.5	20.0	0.00e+00	0	41	0	654311424	60	6826
2026-01-24 23:58:26.31	121.44	58.72	-43.8	-45.1	20.4	0.00e+00	0	41	0	655360000	60	6482
2026-01-24 23:58:27.32	120.98	59.06	-43.2	-44.4	21.2	0.00e+00	0	41	0	657457152	60	5969
2026-01-24 23:58:28.33	120.51	59.41	-42.6	-43.7	21.6	0.00e+00	0	41	0	659554304	58	6206
2026-01-24 23:58:29.34	120.03	59.75	-42.3	-43.4	22.0	0.00e+00	0	41	0	661651456	58	5977
2026-01-24 23:58:30.35	119.53	60.10	-41.9	-42.9	22.4	0.00e+00	0	41	0	663748608	58	5680
2026-01-24 23:58:31.36	119.02	60.45	-41.2	-42.1	23.0	0.00e+00	0	41	0	664797184	56	5823
2026-01-24 23:58:32.37	118.50	60.79	-41.1	-42.1	23.3	0.00e+00	0	41	0	666894336	56	5769
2026-01-24 23:58:33.38	117.96	61.14	-41.2	-42.1	23.1	0.00e+00	0	41	0	668991488	56	5797
2026-01-24 23:58:34.39	117.41	61.48	-40.9	-41.9	23.3	0.00e+00	0	41	0	671088640	56	5635
2026-01-24 23:58:35.40	116.84	61.83	-40.6	-41.5	23.8	0.00e+00	0	41	0	673185792	54	6051
2026-01-24 23:58:36.41	116.25	62.17	-40.2	-41.1	24.0	0.00e+00	0	41	0	675282944	54	5779
2026-01-24 23:58:37.42	115.65	62.51	-40.0	-40.9	24.2	0.00e+00	0	41	0	676331520	54	5636
2026-01-24 23:58:38.43	115.03	62.85	-39.5	-40.3	24.5	0.00e+00	0	41	0	678428672	52	5912
2026-01-24 23:58:39.44	114.40	63.20	-39.7	-40.5	24.5	0.00e+00	0	41	0	680525824	52	6064
2026-01-24 23:58:40.45	113.74	63.53	-40.0	-40.9	24.2	0.00e+00	0	41	0	682622976	52	6342
2026-01-24 23:58:41.45	113.07	63.87	-40.4	-41.3	23.9	0.00e+00	0	41	0	684720128	52	6625
2026-01-24 23:58:42.46	112.38	64.20	-40.6	-41.5	23.7	0.00e+00	0	41	0	685768704	52	6791
2026-01-24 23:58:43.47	111.66	64.54	-41.2	-42.2	23.0	0.00e+00	0	41	0	687865856	54	6553
2026-01-24 23:58:44.48	110.93	64.87	-41.8	-42.9	22.4	0.00e+00	0	41	0	689963008	54	7101
2026-01-24 23:58:45.49	110.17	65.20	-42.0	-43.1	22.2	0.00e+00	0	41	0	692060160	56	6473
2026-01-24 23:58:46.50	109.39	65.52	-42.0	-43.0	22.4	0.00e+00	0	41	0	694157312	56	6417
2026-01-24 23:58:47.51	108.58	65.85	-42.1	-43.2	22.3	0.00e+00	0	41	0	695205888	56	6551
2026-01-24 23:58:48.52	107.76	66.17	-42.7	-43.8	21.6	0.00e+00	0	41	0	697303040	56	7061
2026-01-24 23:58:49.53	106.90	66.48	-43.1	-44.2	21.2	0.00e+00	0	41	0	699400192	58	6601
2026-01-24 23:58:50.54	106.03	66.80	-43.1	-44.2	21.3	0.00e+00	0	41	0	701497344	58	6614
2026-01-24 23:58:51.55	105.12	67.10	-43.3	-44.5	20.9	0.00e+00	0	41	0	703594496	58	6796
2026-01-24 23:58:52.56	104.19	67.41	-44.0	-45.3	20.3	0.00e+00	0	41	0	704643072	60	6679
2026-01-24 23:58:53.57	103.23	67.71	-43.6	-44.9	20.7	0.00e+00	0	41	0	706740224	60	6335
2026-01-24 23:58:54.58	102.24	68.00	-43.5	-44.8	20.7	0.00e+00	0	41	0	708837376	60	6287
2026-01-24 23:58:55.58	101.23	68.29	-43.5	-44.8	20.8	0.00e+00	0	41	0	710934528	60	6284
2026-01-24 23:58:56.59	100.19	68.58	-43.4	-44.7	20.9	0.00e+00	0	41	0	713031680	60	6192
2026-01-24 23:58:57.60	99.11	68.85	-42.9	-44.1	21.5	0.00e+00	0	41	0	714080256	60	5779
2026-01-24 23:58:58.61	98.01	69.13	-43.0	-44.2	21.3	0.00e+00	0	41	0	716177408	60	5837
2026-01-24 23:58:59.62	96.87	69.39	-43.0	-44.2	21.5	0.00e+00	0	41	0	718274560	60	5854
2026-01-24 23:59:00.63	95.70	69.65	-42.5	-43.6	21.9	0.00e+00	0	41	0	720371712	58	6114
2026-01-24 23:59:01.63	94.51	69.90	-42.2	-43.3	22.1	0.00e+00	0	41	0	722468864	58	5905
2026-01-24 23:59:02.64	93.27	70.14	-41.9	-42.9	22.6	0.00e+00	0	41	0	723517440	56	6348
2026-01-24 23:59:03.65	92.01	70.38	-41.8	-42.9	22.6	0.00e+00	0	41	0	725614592	56	6321
2026-01-24 23:59:04.66	90.71	70.60	-41.4	-42.4	23.0	0.00e+00	0	41	0	727711744	56	5967
2026-01-24 23:59:05.67	89.38	70.82	-41.6	-42.6	22.8	0.00e+00	0	41	0	729808896	56	6167
2026-01-24 23:59:06.68	88.02	71.02	-41.3	-42.2	23.1	0.00e+00	0	41	0	731906048	56	5879
2026-01-24 23:59:07.69	86.63	71.22	-41.4	-42.3	23.1	0.00e+00	0	41	0	732954624	56	5943
2026-01-24 23:59:08.70	85.20	71.41	-41.5	-42.4	22.9	0.00e+00	0	41	0	735051776	56	6018
2026-01-24 23:59:09.70	83.77	71.58	-41.2	-42.1	23.2	0.00e+00	0	41	0	737148928	56	5803
2026-01-24 23:59:10.71	82.28	71.75	-41.0	-41.9	23.5	0.00e+00	0	41	0	739246080	56	5656
2026-01-24 23:59:11.72	80.78	71.90	-41.2	-42.2	23.2	0.00e+00	0	41	0	741343232	56	5840
2026-01-24 23:59:12.73	79.24	72.04	-41.8	-42.8	22.6	0.00e+00	0	42	0	742391808	56	6303
2026-01-24 23:59:13.74	77.68	72.17	-42.2	-43.2	22.1	0.00e+00	0	41	0	744488960	56	6615
2026-01-24 23:59:14.75	76.10	72.29	-42.5	-43.6	22.0	0.00e+00	0	41	0	746586112	56	6881
2026-01-24 23:59:15.76	74.49	72.39	-42.0	-43.1	22.5	0.00e+00	0	41	0	748683264	56	6480
2026-01-24 23:59:16.77	72.87	72.48	-42.4	-43.5	22.0	0.00e+00	0	41	0	750780416	56	6817
2026-01-24 23:59:17.78	71.23	72.56	-43.4	-44.6	20.8	0.00e+00	0	41	0	751828992	58	6872
2026-01-24 23:59:18.79	69.58	72.62	-43.5	-44.8	20.8	0.00e+00	0	41	0	753926144	58	7013
2026-01-24 23:59:19.80	67.91	72.67	-42.9	-44.0	21.5	0.00e+00	0	41	0	756023296	58	6449
2026-01-24 23:59:20.81	66.24	72.71	-42.8	-44.0	21.6	0.00e+00	0	41	0	758120448	58	6416
2026-01-24 23:59:21.82	64.56	72.73	-42.8	-43.9	21.6	0.00e+00	0	41	0	760217600	58	6389
2026-01-24 23:59:22.83	62.88	72.74	-42.8	-43.9	21.7	0.00e+00	0	41	0	762314752	58	6322
2026-01-24 23:59:23.83	61.22	72.73	-43.1	-44.2	21.4	0.00e+00	0	41	0	763363328	58	6612
2026-01-24 23:59:24.84	59.54	72.71	-42.0	-43.0	22.4	0.00e+00	0	41	0	765460480	58	5727
2026-01-24 23:59:25.85	57.87	72.67	-41.8	-42.8	22.6	0.00e+00	0	41	0	767557632	56	6264
2026-01-24 23:59:26.86	56.20	72.62	-42.2	-43.2	22.3	0.00e+00	0	41	0	769654784	56	6605
2026-01-24 23:59:27.87	54.55	72.56	-41.8	-42.8	22.8	0.00e+00	0	41	0	771751936	56	6264
2026-01-24 23:59:28.88	52.91	72.48	-41.4	-42.3	23.2	0.00e+00	0	42	0	772800512	56	5941
2026-01-24 23:59:29.89	51.29	72.39	-41.3	-42.2	23.2	0.00e+00	0	41	0	774897664	56	5885
2026-01-24 23:59:30.90	49.68	72.29	-40.8	-41.7	23.6	0.00e+00	0	41	0	776994816	56	5513
2026-01-24 23:59:31.91	48.10	72.18	-41.0	-41.9	23.5	0.00e+00	0	41	0	779091968	56	5643
2026-01-24 23:59:32.92	46.54	72.05	-40.6	-41.5	23.8	0.00e+00	0	42	0	781189120	54	6087
2026-01-24 23:59:33.93	45.01	71.91	-40.7	-41.5	23.7	0.00e+00	0	41	0	782237696	54	6097
2026-01-24 23:59:34.94	43.50	71.75	-41.2	-42.2	23.1	0.00e+00	0	41	0	784334848	54	6549
2026-01-24 23:59:35.95	42.02	71.59	-41.8	-42.9	22.5	0.00e+00	0	41	0	786432000	56	6326
2026-01-24 23:59:36.96	40.56	71.41	-42.3	-43.4	22.1	0.00e+00	0	41	0	788529152	56	6697
2026-01-24 23:59:37.97	39.14	71.23	-42.0	-43.0	22.4	0.00e+00	0	41	0	790626304	56	6458
2026-01-24 23:59:38.98	37.75	71.03	-42.0	-43.0	22.5	0.00e+00	0	41	0	791674880	56	6410
2026-01-24 23:59:39.99	36.39	70.82	-42.3	-43.4	22.0	0.00e+00	0	41	0	793772032	56	6739
2026-01-24 23:59:41.00	35.06	70.60	-43.3	-44.5	21.0	0.00e+00	0	41	0	795869184	58	6834
2026-01-24 23:59:42.00	33.78	70.38	-43.1	-44.2	21.3	0.00e+00	0	42	0	797966336	58	6592
2026-01-24 23:59:43.01	32.51	70.15	-43.2	-44.3	21.2	0.00e+00	0	42	0	800063488	58	6691
2026-01-24 23:59:44.02	31.28	69.91	-43.3	-44.5	21.0	0.00e+00	0	42	0	801112064	58	6801
2026-01-24 23:59:45.03	30.08	69.66	-43.6	-44.9	20.7	0.00e+00	0	42	0	803209216	58	7093
2026-01-24 23:59:46.04	28.91	69.40	-43.7	-44.9	20.8	0.00e+00	0	41	0	805306368	58	7137
2026-01-24 23:59:47.05	27.77	69.13	-43.6	-44.8	21.0	0.00e+00	0	42	0	807403520	58	7065
2026-01-24 23:59:48.06	26.66	68.86	-43.7	-44.9	20.7	0.00e+00	0	41	0	809500672	58	7147
2026-01-24 23:59:49.07	25.59	68.58	-44.1	-45.4	20.0	0.00e+00	0	41	0	810549248	60	6737
2026-01-24 23:59:50.08	24.54	68.30	-44.3	-45.7	19.8	0.00e+00	0	42	0	812646400	60	6964
2026-01-24 23:59:51.09	23.53	68.01	-44.9	-46.5	19.4	0.00e+00	0	41	0	814743552	60	7609
2026-01-24 23:59:52.10	22.54	67.72	-45.0	-46.6	19.2	0.00e+00	0	41	0	816840704	60	7753
2026-01-24 23:59:53.11	21.58	67.42	-44.2	-45.6	20.3	0.00e+00	0	41	0	818937856	60	6888
2026-01-24 23:59:54.11	20.66	67.12	-43.1	-44.3	21.3	0.00e+00	0	41	0	819986432	60	5898
2026-01-24 23:59:55.12	19.76	66.81	-42.9	-44.1	21.4	0.00e+00	0	42	0	822083584	60	5780
2026-01-24 23:59:56.13	18.88	66.49	-42.5	-43.6	22.0	0.00e+00	0	42	0	824180736	58	6117
2026-01-24 23:59:57.14	18.03	66.18	-42.2	-43.3	22.3	0.00e+00	0	41	0	826277888	58	5912
2026-01-24 23:59:58.15	17.20	65.86	-41.6	-42.6	22.9	0.00e+00	0	42	0	828375040	56	6109
2026-01-24 23:59:59.16	16.39	65.54	-41.1	-42.1	23.3	0.00e+00	0	41	0	830472192	56	5782
2026-01-25 00:00:00.17	15.61	65.21	-40.9	-41.8	23.5	0.00e+00	0	42	0	831520768	56	5569
2026-01-25 00:00:01.18	14.86	64.88	-39.5	-40.4	24.7	0.00e+00	0	42	0	833617920	52	5968
2026-01-25 00:00:02.19	14.12	64.55	-39.0	-39.8	25.1	0.00e+00	0	42	0	835715072	52	5591
2026-01-25 00:00:03.20	13.41	64.22	-39.4	-40.2	24.9	0.00e+00	0	41	0	837812224	52	5843
2026-01-25 00:00:04.21	12.71	63.89	-39.0	-39.8	25.1	0.00e+00	0	42	0	839909376	52	5625
2026-01-25 00:00:05.22	12.04	63.55	-38.7	-39.4	25.4	0.00e+00	0	42	0	840957952	50	6032
2026-01-25 00:00:06.23	11.38	63.21	-38.5	-39.3	25.5	0.00e+00	0	42	0	843055104	50	5933
2026-01-25 00:00:07.23	10.75	62.87	-38.7	-39.4	25.3	0.00e+00	0	42	0	845152256	50	6028
2026-01-25 00:00:08.24	10.13	62.53	-38.8	-39.6	25.3	0.00e+00	0	41	0	847249408	50	6126
2026-01-25 00:00:09.25	9.53	62.19	-39.2	-40.1	24.9	0.00e+00	0	41	0	849346560	50	6469
2026-01-25 00:00:10.26	8.95	61.85	-39.5	-40.3	24.9	0.00e+00	0	42	0	850395136	50	6671
2026-01-25 00:00:11.27	8.38	61.51	-39.4	-40.2	24.7	0.00e+00	0	41	0	852492288	50	6593
2026-01-25 00:00:12.28	7.83	61.16	-40.1	-40.9	24.2	0.00e+00	0	42	0	854589440	52	6351
2026-01-25 00:00:13.29	7.29	60.82	-40.5	-41.4	23.9	0.00e+00	0	42	0	856686592	52	6700
2026-01-25 00:00:14.30	6.77	60.47	-41.1	-42.0	23.2	0.00e+00	0	41	0	858783744	54	6442
2026-01-25 00:00:15.31	6.26	60.13	-42.4	-43.5	22.1	0.00e+00	0	41	0	859832320	56	6797
2026-01-25 00:00:16.32	5.76	59.78	-42.9	-44.0	21.5	0.00e+00	0	42	0	861929472	58	6463
2026-01-25 00:00:17.33	5.28	59.44	-42.8	-44.0	21.6	0.00e+00	0	41	0	864026624	58	6395
2026-01-25 00:00:18.34	4.81	59.09	-43.1	-44.3	21.2	0.00e+00	0	41	0	866123776	58	6653
2026-01-25 00:00:19.35	4.35	58.75	-43.4	-44.6	20.8	0.00e+00	0	42	0	868220928	58	6925
2026-01-25 00:00:20.36	3.91	58.40	-43.7	-45.0	20.7	0.00e+00	0	42	0	869269504	58	7210
2026-01-25 00:00:21.37	3.48	58.06	-44.3	-45.7	20.0	0.00e+00	0	42	0	871366656	60	6958
2026-01-25 00:00:22.37	3.06	57.72	-44.6	-46.1	19.6	0.00e+00	0	42	0	873463808	60	7288
2026-01-25 00:00:23.38	2.65	57.38	-43.8	-45.0	20.6	0.00e+00	0	41	0	875560960	60	6464
2026-01-25 00:00:24.39	2.24	57.03	-43.1	-44.3	21.3	0.00e+00	0	41	0	877658112	60	5935
2026-01-25 00:00:25.40	1.85	56.69	-42.6	-43.8	21.8	0.00e+00	0	41	0	878706688	60	5575
2026-01-25 00:00:26.41	1.47	56.35	-42.4	-43.5	22.0	0.00e+00	0	41	0	880803840	58	6073
2026-01-25 00:00:27.42	1.10	56.01	-41.9	-42.9	22.5	0.00e+00	0	42	0	882900992	58	5679
2026-01-25 00:00:28.43	0.73	55.67	-41.3	-42.3	23.1	0.00e+00	0	41	0	884998144	56	5903
2026-01-25 00:00:29.44	0.38	55.33	-40.7	-41.6	23.7	0.00e+00	0	41	0	887095296	54	6127
2026-01-25 00:00:30.45	0.03	55.00	-40.3	-41.1	24.1	0.00e+00	0	41	0	888143872	54	5806
2026-01-25 00:00:31.46	359.69	54.66	-40.2	-41.1	24.1	0.00e+00	0	41	0	890241024	54	5799
2026-01-25 00:00:32.46	359.37	54.33	-40.1	-41.0	24.2	0.00e+00	0	42	0	892338176	54	5704
2026-01-25 00:00:33.47	359.04	54.00	-40.0	-40.9	24.0	0.00e+00	0	41	0	894435328	54	5657
2026-01-25 00:00:34.48	358.73	53.66	-40.1	-41.0	24.1	0.00e+00	0	42	0	896532480	54	5740
2026-01-25 00:00:35.49	358.42	53.33	-40.4	-41.3	23.9	0.00e+00	0	42	0	897581056	54	5962
2026-01-25 00:00:36.50	358.12	53.00	-40.6	-41.6	23.7	0.00e+00	0	42	0	899678208	54	6108
2026-01-25 00:00:37.51	357.83	52.68	-40.3	-41.2	24.0	0.00e+00	0	42	0	901775360	54	5846
2026-01-25 00:00:38.52	357.54	52.35	-40.2	-41.0	24.1	0.00e+00	0	42	0	903872512	54	5760
2026-01-25 00:00:39.53	357.26	52.02	-40.1	-40.9	24.2	0.00e+00	0	42	0	905969664	54	5660
2026-01-25 00:00:40.54	356.98	51.70	-40.4	-41.3	23.9	0.00e+00	0	41	0	907018240	54	5931
2026-01-25 00:00:41.55	356.71	51.38	-40.9	-41.8	23.4	0.00e+00	0	42	0	909115392	54	6275
2026-01-25 00:00:42.56	356.45	51.06	-41.5	-42.5	22.8	0.00e+00	0	42	0	911212544	54	6781
2026-01-25 00:00:43.57	356.19	50.74	-42.1	-43.1	22.3	0.00e+00	0	41	0	913309696	56	6510
2026-01-25 00:00:44.58	355.94	50.42	-42.8	-44.0	21.6	0.00e+00	0	42	0	915406848	56	7205
2026-01-25 00:00:45.59	355.69	50.10	-42.9	-44.0	21.4	0.00e+00	0	41	0	916455424	58	6450
2026-01-25 00:00:46.59	355.45	49.79	-42.5	-43.6	21.8	0.00e+00	0	41	0	918552576	58	6160
2026-01-25 00:00:47.61	355.21	49.48	-42.4	-43.5	22.0	0.00e+00	0	42	0	920649728	58	6050
2026-01-25 00:00:48.62	354.98	49.17	-42.7	-43.8	21.8	0.00e+00	0	41	0	922746880	58	6261
2026-01-25 00:00:49.62	354.76	48.86	-43.0	-44.1	21.3	0.00e+00	0	41	0	924844032	58	6536
2026-01-25 00:00:50.63	354.53	48.55	-43.3	-44.5	21.1	0.00e+00	0	41	0	926941184	58	6833
2026-01-25 00:00:51.64	354.32	48.25	-43.1	-44.4	21.2	0.00e+00	0	41	0	927989760	58	6694
2026-01-25 00:00:52.65	354.10	47.94	-43.4	-44.6	21.0	0.00e+00	0	42	0	930086912	58	6895
2026-01-25 00:00:53.66	353.89	47.64	-43.2	-44.5	21.2	0.00e+00	0	41	0	932184064	58	6791
2026-01-25 00:00:54.67	353.69	47.34	-43.0	-44.2	21.4	0.00e+00	0	41	0	934281216	58	6563
2026-01-25 00:00:55.68	353.49	47.04	-42.4	-43.5	22.0	0.00e+00	0	41	0	936378368	58	6088
2026-01-25 00:00:56.69	353.29	46.74	-42.3	-43.4	21.9	0.00e+00	0	42	0	937426944	58	5976
2026-01-25 00:00:57.70	353.09	46.44	-42.5	-43.6	21.9	0.00e+00	0	42	0	939524096	58	6117
2026-01-25 00:00:58.71	352.90	46.15	-42.5	-43.6	21.8	0.00e+00	0	42	0	941621248	58	6128
2026-01-25 00:00:59.72	352.72	45.86	-42.4	-43.5	22.0	0.00e+00	0	42	0	943718400	58	6075
2026-01-25 00:01:00.73	352.53	45.57	-42.7	-43.8	21.6	0.00e+00	0	42	0	945815552	58	6278
2026-01-25 00:01:01.74	352.36	45.28	-42.9	-44.1	21.4	0.00e+00	0	42	0	946864128	58	6511
2026-01-25 00:01:02.75	352.18	44.99	-43.0	-44.1	21.4	0.00e+00	0	42	0	948961280	58	6528
2026-01-25 00:01:03.76	352.01	44.71	-42.8	-44.0	21.5	0.00e+00	0	42	0	951058432	58	6414
2026-01-25 00:01:04.77	351.84	44.42	-42.7	-43.8	21.7	0.00e+00	0	42	0	953155584	58	6291
2026-01-25 00:01:05.77	351.67	44.14	-42.6	-43.7	21.8	0.00e+00	0	42	0	955252736	58	6222
2026-01-25 00:01:06.79	351.50	43.86	-42.7	-43.8	21.7	0.00e+00	0	42	0	956301312	58	6297
2026-01-25 00:01:07.80	351.34	43.58	-43.1	-44.3	21.3	0.00e+00	0	42	0	958398464	58	6655
2026-01-25 00:01:08.80	351.19	43.31	-43.6	-44.9	20.6	0.00e+00	0	42	0	960495616	58	7153
2026-01-25 00:01:09.81	351.03	43.03	-43.5	-44.8	20.6	0.00e+00	0	42	0	962592768	58	7079
2026-01-25 00:01:10.82	350.88	42.76	-43.7	-45.0	20.5	0.00e+00	0	42	0	964689920	58	7236
2026-01-25 00:01:11.83	350.73	42.49	-43.8	-45.1	20.6	0.00e+00	0	42	0	965738496	60	6494
2026-01-25 00:01:12.84	350.58	42.22	-43.9	-45.2	20.5	0.00e+00	0	42	0	967835648	60	6614
2026-01-25 00:01:13.85	350.44	41.95	-43.7	-45.1	20.6	0.00e+00	0	42	0	969932800	60	6477
2026-01-25 00:01:14.86	350.29	41.69	-43.6	-44.9	20.8	0.00e+00	0	42	0	972029952	60	6354
2026-01-25 00:01:15.87	350.15	41.42	-43.6	-44.9	20.7	0.00e+00	0	42	0	974127104	60	6322
2026-01-25 00:01:16.88	350.01	41.16	-43.6	-44.9	20.7	0.00e+00	0	42	0	975175680	60	6341
2026-01-25 00:01:17.89	349.88	40.90	-43.8	-45.2	20.5	0.00e+00	0	42	0	977272832	60	6554
2026-01-25 00:01:18.89	349.75	40.64	-44.0	-45.4	20.3	0.00e+00	0	41	0	979369984	60	6728
2026-01-25 00:01:19.90	349.62	40.39	-43.9	-45.2	20.4	0.00e+00	0	41	0	981467136	60	6605
2026-01-25 00:01:20.91	349.49	40.13	-43.8	-45.1	20.4	0.00e+00	0	41	0	983564288	60	6531
2026-01-25 00:01:21.92	349.36	39.88	-43.9	-45.2	20.3	0.00e+00	0	41	0	984612864	60	6610
2026-01-25 00:01:22.93	349.23	39.62	-43.7	-45.0	20.4	0.00e+00	0	41	0	986710016	60	6410
2026-01-25 00:01:23.94	349.11	39.37	-43.6	-44.8	20.7	0.00e+00	0	41	0	988807168	60	6314
2026-01-25 00:01:24.95	348.99	39.12	-43.2	-44.4	21.2	0.00e+00	0	41	0	990904320	60	5973
2026-01-25 00:01:25.96	348.87	38.88	-43.4	-44.6	21.1	0.00e+00	0	42	0	993001472	60	6132
2026-01-25 00:01:26.97	348.75	38.63	-42.9	-44.1	21.5	0.00e+00	0	41	0	994050048	60	5771
2026-01-25 00:01:27.98	348.64	38.38	-43.1	-44.2	21.4	0.00e+00	0	41	0	996147200	60	5873
2026-01-25 00:01:28.99	348.52	38.14	-42.8	-44.0	21.5	0.00e+00	0	42	0	998244352	58	6398
2026-01-25 00:01:30.00	348.41	37.90	-42.8	-43.9	21.5	0.00e+00	0	41	0	1000341504	58	6367
2026-01-25 00:01:31.00	348.30	37.66	-42.6	-43.7	21.7	0.00e+00	0	42	0	1002438656	58	6197
2026-01-25 00:01:32.01	348.19	37.43	-42.6	-43.7	21.8	0.00e+00	0	41	0	1004535808	58	6193
2026-01-25 00:01:33.03	348.08	37.19	-42.3	-43.4	22.0	0.00e+00	0	42	0	1005584384	58	5987
2026-01-25 00:01:34.03	347.98	36.96	-42.3	-43.3	22.1	0.00e+00	0	42	0	1007681536	58	5956
2026-01-25 00:01:35.05	347.88	36.72	-42.5	-43.6	21.8	0.00e+00	0	42	0	1009778688	58	6110
2026-01-25 00:01:36.05	347.77	36.49	-42.7	-43.8	21.6	0.00e+00	0	42	0	1011875840	58	6282
2026-01-25 00:01:37.07	347.67	36.26	-42.9	-44.1	21.4	0.00e+00	0	41	0	1013972992	58	6475
2026-01-25 00:01:38.07	347.57	36.03	-42.8	-44.0	21.5	0.00e+00	0	41	0	1015021568	58	6391
2026-01-25 00:01:39.08	347.48	35.80	-42.9	-44.1	21.4	0.00e+00	0	41	0	1017118720	58	6483
2026-01-25 00:01:40.09	347.38	35.58	-42.9	-44.1	21.4	0.00e+00	0	42	0	1019215872	58	6491
2026-01-25 00:01:41.10	347.28	35.36	-43.2	-44.4	21.2	0.00e+00	0	42	0	1021313024	58	6729
2026-01-25 00:01:42.11	347.19	35.13	-43.4	-44.7	20.7	0.00e+00	0	42	0	1023410176	58	6970
2026-01-25 00:01:43.12	347.10	34.91	-43.6	-44.9	20.5	0.00e+00	0	42	0	1024458752	58	7158
2026-01-25 00:01:44.13	347.01	34.69	-43.9	-45.3	20.3	0.00e+00	0	42	0	1026555904	60	6660
2026-01-25 00:01:45.14	346.92	34.47	-44.0	-45.4	20.2	0.00e+00	0	42	0	1028653056	60	6757
2026-01-25 00:01:46.15	346.83	34.26	-43.5	-44.8	20.9	0.00e+00	0	42	0	1030750208	60	6258
2026-01-25 00:01:47.16	346.74	34.04	-43.5	-44.8	20.8	0.00e+00	0	42	0	1032847360	60	6304
2026-01-25 00:01:48.17	346.65	33.83	-43.4	-44.6	20.9	0.00e+00	0	42	0	1033895936	60	6138
2026-01-25 00:01:49.18	346.57	33.62	-43.5	-44.8	20.8	0.00e+00	0	42	0	1035993088	60	6261
2026-01-25 00:01:50.19	346.48	33.40	-43.5	-44.8	20.7	0.00e+00	0	42	0	1038090240	60	6295
2026-01-25 00:01:51.20	346.40	33.19	-43.5	-44.8	20.8	0.00e+00	0	42	0	1040187392	60	6254
2026-01-25 00:01:52.21	346.32	32.99	-43.6	-44.9	20.7	0.00e+00	0	42	0	1042284544	60	6368
2026-01-25 00:01:53.22	346.24	32.78	-43.7	-45.0	20.6	0.00e+00	0	42	0	1043333120	60	6425
2026-01-25 00:01:54.23	346.16	32.57	-43.6	-44.9	20.6	0.00e+00	0	42	0	1045430272	60	6369
2026-01-25 00:01:55.24	346.08	32.37	-43.7	-45.0	20.5	0.00e+00	0	42	0	1047527424	60	6435
2026-01-25 00:01:56.25	346.00	32.17	-43.8	-45.2	20.4	0.00e+00	0	42	0	1049624576	60	6566
2026-01-25 00:01:57.26	345.92	31.96	-44.1	-45.5	20.1	0.00e+00	0	42	0	1051721728	60	6780
2026-01-25 00:01:58.27	345.85	31.76	-44.4	-45.9	19.7	0.00e+00	0	42	0	1052770304	60	7139
2026-01-25 00:01:59.27	345.78	31.57	-44.3	-45.8	19.8	0.00e+00	0	42	0	1054867456	60	7010
2026-01-25 00:02:00.28	345.70	31.37	-44.6	-46.2	19.5	0.00e+00	0	42	0	1056964608	60	7351
2026-01-25 00:02:01.29	345.63	31.17	-44.7	-46.2	19.4	0.00e+00	0	42	0	1059061760	60	7407
2026-01-25 00:02:02.30	345.56	30.98	-44.6	-46.1	19.4	0.00e+00	0	42	0	1061158912	60	7308
2026-01-25 00:02:03.31	345.49	30.78	-44.6	-46.1	19.4	0.00e+00	0	42	0	1062207488	60	7281
2026-01-25 00:02:04.32	345.42	30.59	-44.6	-46.1	19.5	0.00e+00	0	42	0	1064304640	60	7320
2026-01-25 00:02:05.33	345.35	30.40	-44.4	-45.9	19.7	0.00e+00	0	42	0	1066401792	60	7122
2026-01-25 00:02:06.34	345.28	30.21	-44.3	-45.8	19.8	0.00e+00	0	42	0	1068498944	60	7038
2026-01-25 00:02:07.35	345.21	30.02	-44.3	-45.7	19.9	0.00e+00	0	42	0	1070596096	60	6972
2026-01-25 00:02:08.36	345.14	29.83	-44.1	-45.5	20.0	0.00e+00	0	42	0	1072693248	60	6780
2026-01-25 00:02:09.36	345.08	29.65	-43.9	-45.3	20.2	0.00e+00	0	42	0	1073741824	60	6637
2026-01-25 00:02:10.37	345.01	29.46	-43.5	-44.8	20.7	0.00e+00	0	42	0	1075838976	60	6295
2026-01-25 00:02:11.38	344.95	29.28	-43.5	-44.8	20.6	0.00e+00	0	42	0	1077936128	60	6293
2026-01-25 00:02:12.39	344.89	29.09	-43.6	-44.9	20.6	0.00e+00	0	42	0	1080033280	60	6352
2026-01-25 00:02:13.40	344.82	28.91	-43.6	-44.9	20.7	0.00e+00	0	42	0	1082130432	60	6343
2026-01-25 00:02:14.41	344.76	28.73	-43.7	-45.0	20.4	0.00e+00	0	42	0	1083179008	60	6444
2026-01-25 00:02:15.42	344.70	28.55	-43.7	-45.0	20.5	0.00e+00	0	42	0	1085276160	60	6412
2026-01-25 00:02:16.42	344.64	28.37	-43.5	-44.7	20.7	0.00e+00	0	42	0	1087373312	60	6237
2026-01-25 00:02:17.43	344.58	28.20	-43.3	-44.6	20.8	0.00e+00	0	42	0	1089470464	60	6134
2026-01-25 00:02:18.44	344.52	28.02	-43.4	-44.7	20.8	0.00e+00	0	42	0	1090519040	60	6188
2026-01-25 00:02:19.45	344.46	27.84	-42.9	-44.1	21.3	0.00e+00	0	42	0	1092616192	60	5777
2026-01-25 00:02:20.46	344.41	27.67	-42.9	-44.1	21.3	0.00e+00	0	42	0	1094713344	60	5795
2026-01-25 00:02:21.47	344.35	27.50	-42.5	-43.6	21.6	0.00e+00	0	42	0	1096810496	58	6135
2026-01-25 00:02:22.48	344.29	27.32	-42.5	-43.6	21.8	0.00e+00	0	42	0	1098907648	58	6127
2026-01-25 00:02:23.49	344.24	27.15	-42.6	-43.7	21.5	0.00e+00	0	42	0	1101004800	58	6245
2026-01-25 00:02:24.50	344.18	26.98	-42.3	-43.4	21.8	0.00e+00	0	42	0	1102053376	58	6029
2026-01-25 00:02:25.51	344.13	26.81	-42.2	-43.3	22.0	0.00e+00	0	42	0	1104150528	58	5903
2026-01-25 00:02:26.52	344.07	26.65	-42.1	-43.2	22.1	0.00e+00	0	42	0	1106247680	58	5868
2026-01-25 00:02:27.53	344.02	26.48	-42.1	-43.2	22.1	0.00e+00	0	42	0	1108344832	58	5876
2026-01-25 00:02:28.54	343.97	26.31	-42.1	-43.2	22.1	0.00e+00	0	42	0	1110441984	58	5882
2026-01-25 00:02:29.55	343.91	26.15	-42.3	-43.5	21.7	0.00e+00	0	42	0	1111490560	58	6039
2026-01-25 00:02:30.56	343.86	25.98	-42.4	-43.6	21.7	0.00e+00	0	42	0	1113587712	58	6134
2026-01-25 00:02:31.56	343.81	25.82	-42.2	-43.3	21.9	0.00e+00	0	42	0	1115684864	58	5959
2026-01-25 00:02:32.57	343.76	25.66	-42.3	-43.5	21.8	0.00e+00	0	42	0	1117782016	58	6051
2026-01-25 00:02:33.58	343.71	25.50	-42.4	-43.6	21.7	0.00e+00	0	42	0	1119879168	58	6108
2026-01-25 00:02:34.59	343.66	25.34	-42.4	-43.5	21.7	0.00e+00	0	42	0	1120927744	58	6075
2026-01-25 00:02:35.60	343.61	25.18	-42.2	-43.3	21.8	0.00e+00	0	42	0	1123024896	58	5959
2026-01-25 00:02:36.61	343.57	25.02	-42.2	-43.3	22.0	0.00e+00	0	42	0	1125122048	58	5937
2026-01-25 00:02:37.62	343.52	24.86	-42.4	-43.5	21.8	0.00e+00	0	42	0	1127219200	58	6055
2026-01-25 00:02:38.63	343.47	24.71	-42.0	-43.0	22.2	0.00e+00	0	42	0	1129316352	58	5748
2026-01-25 00:02:39.64	343.42	24.55	-41.9	-42.9	22.2	0.00e+00	0	42	0	1130364928	58	5681
2026-01-25 00:02:40.65	343.38	24.40	-41.9	-43.0	22.2	0.00e+00	0	42	0	1132462080	58	5697
2026-01-25 00:02:41.66	343.33	24.24	-41.7	-42.7	22.4	0.00e+00	0	42	0	1134559232	56	6209
2026-01-25 00:02:42.67	343.29	24.09	-41.6	-42.6	22.6	0.00e+00	0	42	0	1136656384	56	6118
2026-01-25 00:02:43.68	343.24	23.94	-41.4	-42.3	22.8	0.00e+00	0	42	0	1138753536	56	5962
2026-01-25 00:02:44.69	343.20	23.79	-41.3	-42.2	22.9	0.00e+00	0	42	0	1139802112	56	5883
2026-01-25 00:02:45.70	343.15	23.64	-41.2	-42.2	22.8	0.00e+00	0	42	0	1141899264	56	5878
2026-01-25 00:02:46.71	343.11	23.49	-41.3	-42.3	22.8	0.00e+00	0	42	0	1143996416	56	5923
2026-01-25 00:02:47.72	343.07	23.34	-41.3	-42.3	22.9	0.00e+00	0	42	0	1146093568	56	5905
2026-01-25 00:02:48.73	343.03	23.19	-41.2	-42.2	22.8	0.00e+00	0	42	0	1148190720	56	5833
2026-01-25 00:02:49.74	342.98	23.04	-41.2	-42.2	22.7	0.00e+00	0	42	0	1149239296	56	5866
2026-01-25 00:02:50.75	342.94	22.90	-41.2	-42.2	22.9	0.00e+00	0	42	0	1151336448	56	5864
2026-01-25 00:02:51.76	342.90	22.75	-41.4	-42.3	22.7	0.00e+00	0	42	0	1153433600	56	5962
2026-01-25 00:02:52.77	342.86	22.61	-41.3	-42.3	22.8	0.00e+00	0	42	0	1155530752	56	5923
2026-01-25 00:02:53.78	342.82	22.46	-41.5	-42.5	22.6	0.00e+00	0	42	0	1157627904	56	6096
2026-01-25 00:02:54.79	342.78	22.32	-41.6	-42.6	22.5	0.00e+00	0	42	0	1159725056	56	6131
2026-01-25 00:02:55.80	342.74	22.18	-41.5	-42.5	22.6	0.00e+00	0	42	0	1160773632	56	6099
2026-01-25 00:02:56.81	342.70	22.04	-41.6	-42.7	22.4	0.00e+00	0	42	0	1162870784	56	6199
2026-01-25 00:02:57.81	342.66	21.90	-41.6	-42.6	22.6	0.00e+00	0	42	0	1164967936	56	6123
2026-01-25 00:02:58.82	342.62	21.76	-41.6	-42.6	22.5	0.00e+00	0	42	0	1167065088	56	6140
2026-01-25 00:02:59.83	342.59	21.62	-41.6	-42.6	22.5	0.00e+00	0	42	0	1169162240	56	6149
2026-01-25 00:03:00.84	342.55	21.48	-41.7	-42.7	22.4	0.00e+00	0	42	0	1170210816	56	6195
2026-01-25 00:03:01.85	342.51	21.34	-41.7	-42.7	22.4	0.00e+00	0	42	0	1172307968	56	6203
2026-01-25 00:03:02.86	342.47	21.20	-41.7	-42.8	22.3	0.00e+00	0	42	0	1174405120	56	6267
2026-01-25 00:03:03.86	342.44	21.07	-42.0	-43.1	22.1	0.00e+00	0	42	0	1176502272	56	6482
2026-01-25 00:03:04.87	342.40	20.93	-41.9	-43.0	22.2	0.00e+00	0	42	0	1178599424	56	6428
2026-01-25 00:03:05.88	342.37	20.80	-42.1	-43.2	22.0	0.00e+00	0	42	0	1179648000	56	6556
2026-01-25 00:03:06.89	342.33	20.66	-42.1	-43.2	21.9	0.00e+00	0	42	0	1181745152	56	6568
2026-01-25 00:03:07.90	342.29	20.53	-42.1	-43.2	21.9	0.00e+00	0	42	0	1183842304	56	6604
2026-01-25 00:03:08.91	342.26	20.40	-42.3	-43.5	21.8	0.00e+00	0	42	0	1185939456	56	6790
2026-01-25 00:03:09.92	342.23	20.27	-42.2	-43.3	21.7	0.00e+00	0	42	0	1188036608	56	6692
2026-01-25 00:03:10.93	342.19	20.13	-42.3	-43.5	21.7	0.00e+00	0	42	0	1189085184	56	6805
2026-01-25 00:03:11.93	342.16	20.01	-42.5	-43.6	21.6	0.00e+00	0	42	0	1191182336	56	6918
2026-01-25 00:03:12.94	342.12	19.88	-42.6	-43.8	21.4	0.00e+00	0	42	0	1193279488	56	7026
2026-01-25 00:03:13.95	342.09	19.75	-42.8	-44.0	21.2	0.00e+00	0	42	0	1195376640	56	7236
2026-01-25 00:03:14.96	342.06	19.62	-42.7	-43.8	21.3	0.00e+00	0	42	0	1197473792	58	6313
2026-01-25 00:03:15.97	342.03	19.49	-42.8	-44.0	21.2	0.00e+00	0	42	0	1198522368	58	6409
2026-01-25 00:03:16.98	341.99	19.36	-42.9	-44.1	21.0	0.00e+00	0	42	0	1200619520	58	6523
2026-01-25 00:03:17.99	341.96	19.23	-42.8	-44.0	21.1	0.00e+00	0	42	0	1202716672	58	6442
