passes_logs/2026/01/24/R4.6S_Anadyr/R4.6S_Anadyr__20260124_010038_NOAA_21_JPSS-2_rec.log

#Pass ID: 20260124_010038_NOAA 21 (JPSS-2)
#Satellite: NOAA 21 (JPSS-2)
#Configuration: NOAA-21
#almurnet v.1.7.20251203
#Start time: 2026-01-24 01:00:41

#Version: 2.2.20231116
#Station: R4.6S_Anadyr
#Location: 177.4865 lon 64.73178 lat
#TLE: 1 54234U 22150A   26023.61190495  .00000215  00000+0  12293-3 0  9993
#TLE: 2 54234  98.7508 324.4078 0000700 226.6110 133.5008 14.19538339166032

#Time	Az	El	Level	Level2	SNR	BER	BlckErr	Temp	State	Recorded	gain1	gain2
2026-01-24 01:00:41.14	176.29	0.16	-51.0	-65.9	3.5	1.51e+00	0	39	0	0	60	71656
2026-01-24 01:00:42.15	176.32	0.22	-51.2	-64.1	3.5	1.52e+00	0	40	104	0	60	55991
2026-01-24 01:00:43.16	176.35	0.28	-51.0	-64.1	3.5	1.52e+00	0	40	104	0	60	56097
2026-01-24 01:00:44.17	176.38	0.34	-51.1	-64.0	3.5	1.51e+00	0	40	104	0	60	55361
2026-01-24 01:00:45.18	176.40	0.40	-51.2	-64.0	3.5	1.52e+00	0	40	104	0	60	55545
2026-01-24 01:00:46.19	176.43	0.46	-51.1	-64.0	3.5	1.52e+00	0	41	104	0	60	55577
2026-01-24 01:00:47.19	176.46	0.52	-51.1	-64.0	3.5	1.51e+00	0	41	104	0	60	55394
2026-01-24 01:00:48.20	176.49	0.58	-51.1	-64.0	3.5	1.52e+00	0	41	104	0	60	55560
2026-01-24 01:00:49.21	176.52	0.64	-51.0	-64.0	3.5	1.52e+00	0	41	104	0	60	55406
2026-01-24 01:00:50.22	176.54	0.71	-51.0	-64.0	3.5	1.52e+00	0	41	104	0	60	55364
2026-01-24 01:00:51.23	176.57	0.77	-50.9	-63.9	3.5	1.51e+00	0	41	104	0	60	55260
2026-01-24 01:00:52.24	176.60	0.83	-51.0	-64.0	3.5	1.52e+00	0	41	104	0	60	55405
2026-01-24 01:00:53.25	176.63	0.89	-51.0	-63.9	3.5	1.52e+00	0	41	104	0	60	55040
2026-01-24 01:00:54.26	176.66	0.95	-51.0	-63.9	3.5	1.52e+00	0	41	104	0	60	54782
2026-01-24 01:00:55.27	176.69	1.01	-51.0	-63.8	3.5	1.52e+00	0	41	104	0	60	54652
2026-01-24 01:00:56.28	176.72	1.07	-50.9	-63.8	3.5	1.52e+00	0	41	104	0	60	54322
2026-01-24 01:00:57.29	176.74	1.13	-50.7	-63.8	3.5	1.52e+00	0	41	104	0	60	54253
2026-01-24 01:00:58.30	176.77	1.19	-50.8	-63.7	3.5	1.52e+00	0	41	104	0	60	53988
2026-01-24 01:00:59.31	176.80	1.26	-50.8	-63.7	3.5	1.52e+00	0	41	104	0	60	53644
2026-01-24 01:01:00.32	176.83	1.32	-50.8	-63.6	3.5	1.52e+00	0	41	104	0	60	53188
2026-01-24 01:01:01.33	176.86	1.38	-50.7	-63.5	3.5	1.52e+00	0	41	104	0	60	52503
2026-01-24 01:01:02.34	176.89	1.44	-50.5	-63.4	3.5	1.52e+00	0	41	104	0	60	51775
2026-01-24 01:01:03.35	176.92	1.50	-50.3	-63.2	3.5	1.52e+00	0	41	104	0	60	50753
2026-01-24 01:01:04.36	176.95	1.57	-50.1	-62.9	3.5	1.52e+00	0	41	104	0	60	49121
2026-01-24 01:01:05.37	176.98	1.63	-49.8	-62.6	3.5	1.52e+00	0	41	104	0	60	47154
2026-01-24 01:01:06.38	177.01	1.69	-49.7	-62.5	3.5	1.52e+00	0	41	104	0	60	46656
2026-01-24 01:01:07.39	177.04	1.75	-49.7	-62.5	3.5	1.52e+00	0	41	104	0	60	46625
2026-01-24 01:01:08.40	177.07	1.82	-49.6	-62.4	3.5	1.52e+00	0	41	104	0	60	46523
2026-01-24 01:01:09.41	177.10	1.88	-49.6	-62.5	3.5	1.52e+00	0	41	104	0	60	46559
2026-01-24 01:01:10.42	177.13	1.94	-49.6	-62.4	3.5	1.51e+00	0	41	104	0	60	46115
2026-01-24 01:01:11.43	177.16	2.01	-49.6	-62.4	3.5	1.52e+00	0	41	104	0	60	46336
2026-01-24 01:01:12.44	177.19	2.07	-49.6	-62.4	3.5	1.52e+00	0	41	104	0	60	46261
2026-01-24 01:01:13.45	177.22	2.13	-49.7	-62.4	3.5	1.52e+00	0	41	104	0	60	46359
2026-01-24 01:01:14.46	177.25	2.20	-49.6	-62.4	3.5	1.52e+00	0	41	104	0	60	46455
2026-01-24 01:01:15.47	177.28	2.26	-49.6	-62.4	3.5	1.52e+00	0	41	104	0	60	46417
2026-01-24 01:01:16.47	177.32	2.32	-49.6	-62.4	3.5	1.51e+00	0	41	104	0	60	46505
2026-01-24 01:01:17.48	177.35	2.39	-49.6	-62.4	3.5	1.52e+00	0	41	104	0	60	46160
2026-01-24 01:01:18.49	177.38	2.45	-49.6	-62.4	3.5	1.52e+00	0	41	104	0	60	46131
2026-01-24 01:01:19.50	177.41	2.52	-49.6	-62.4	3.5	1.52e+00	0	41	104	0	60	46044
2026-01-24 01:01:20.50	177.44	2.58	-49.6	-62.4	3.5	1.52e+00	0	41	104	0	60	46205
2026-01-24 01:01:21.52	177.47	2.65	-49.6	-62.3	3.5	1.52e+00	0	41	104	0	60	45520
2026-01-24 01:01:22.53	177.50	2.71	-49.6	-61.9	3.5	1.52e+00	0	41	104	0	60	43652
2026-01-24 01:01:23.54	177.54	2.78	-49.5	-61.3	3.5	1.51e+00	0	41	104	0	60	40610
2026-01-24 01:01:24.55	177.57	2.84	-49.4	-60.4	3.5	1.51e+00	0	41	104	0	60	36860
2026-01-24 01:01:25.55	177.60	2.91	-49.4	-60.0	3.5	1.51e+00	0	41	104	0	60	35231
2026-01-24 01:01:26.56	177.63	2.97	-49.4	-60.3	3.5	1.50e+00	0	41	104	0	60	36197
2026-01-24 01:01:27.57	177.67	3.04	-49.5	-61.1	3.5	1.51e+00	0	41	104	0	60	39623
2026-01-24 01:01:28.59	177.70	3.10	-49.6	-62.3	3.5	1.52e+00	0	41	104	0	60	45483
2026-01-24 01:01:29.60	177.73	3.17	-49.5	-61.4	3.5	1.52e+00	0	41	104	0	60	41312
2026-01-24 01:01:30.61	177.76	3.24	-49.1	-57.5	5.1	8.76e-01	123	41	104	0	60	26437
2026-01-24 01:01:31.62	177.80	3.30	-48.0	-52.8	8.5	1.19e-01	123	41	0	2097152	60	15244
2026-01-24 01:01:32.63	177.83	3.37	-46.6	-49.9	11.8	2.41e-03	123	41	0	5242880	60	10934
2026-01-24 01:01:33.64	177.86	3.43	-45.1	-47.4	14.5	5.30e-06	123	41	0	8388608	60	8257
2026-01-24 01:01:34.65	177.90	3.50	-43.6	-45.4	16.4	0.00e+00	123	41	0	11534336	60	6569
2026-01-24 01:01:35.66	177.93	3.57	-42.4	-44.0	17.8	0.00e+00	123	41	0	14680064	60	5545
2026-01-24 01:01:36.67	177.96	3.63	-41.4	-42.7	18.9	0.00e+00	123	41	0	17825792	56	6040
2026-01-24 01:01:37.67	178.00	3.70	-41.3	-42.6	19.0	0.00e+00	123	41	0	20971520	56	5963
2026-01-24 01:01:38.68	178.03	3.77	-40.8	-42.1	19.3	0.00e+00	122	41	0	24117248	56	5629
2026-01-24 01:01:39.69	178.07	3.84	-42.1	-43.6	17.6	0.00e+00	122	41	0	27262976	54	7529
2026-01-24 01:01:40.70	178.10	3.90	-46.7	-50.1	10.9	0.00e+00	123	41	0	30408704	60	11255
2026-01-24 01:01:41.71	178.13	3.97	-42.8	-44.4	16.5	0.00e+00	122	41	0	33554432	56	7368
2026-01-24 01:01:42.72	178.17	4.04	-49.4	-57.6	3.8	8.21e-02	122	41	104	36700160	60	26481
2026-01-24 01:01:43.73	178.20	4.11	-43.5	-45.7	5.1	1.44e+00	0	41	104	36700160	56	8522
2026-01-24 01:01:44.74	178.24	4.17	-43.6	-45.4	16.7	5.34e-05	123	41	0	36700160	60	6563
2026-01-24 01:01:45.75	178.27	4.24	-42.9	-44.5	17.0	0.00e+00	123	41	0	39845888	58	6599
2026-01-24 01:01:46.76	178.31	4.31	-42.7	-44.3	16.8	0.00e+00	123	41	0	42991616	58	6461
2026-01-24 01:01:47.77	178.34	4.38	-42.7	-44.2	17.3	0.00e+00	123	41	0	46137344	58	6394
2026-01-24 01:01:48.79	178.38	4.45	-42.7	-44.2	17.6	0.00e+00	123	41	0	49283072	58	6399
2026-01-24 01:01:49.80	178.41	4.52	-43.0	-44.6	17.7	0.00e+00	121	41	0	52428800	58	6661
2026-01-24 01:01:50.81	178.45	4.59	-42.3	-43.8	17.9	0.00e+00	122	41	0	55574528	58	6075
2026-01-24 01:01:51.82	178.49	4.66	-42.3	-43.7	18.1	0.00e+00	122	41	0	58720256	58	6051
2026-01-24 01:01:52.82	178.52	4.73	-42.7	-44.3	17.8	0.00e+00	122	41	0	61865984	58	6460
2026-01-24 01:01:53.83	178.56	4.80	-42.3	-43.8	17.6	0.00e+00	122	41	0	65011712	58	6078
2026-01-24 01:01:54.84	178.59	4.87	-42.4	-43.9	17.7	0.00e+00	120	41	0	68157440	58	6183
2026-01-24 01:01:55.85	178.63	4.94	-41.9	-43.3	18.3	0.00e+00	123	41	0	71303168	56	6498
2026-01-24 01:01:56.86	178.67	5.01	-42.1	-43.6	18.2	0.00e+00	122	41	0	74448896	56	6670
2026-01-24 01:01:57.87	178.70	5.08	-41.6	-43.0	18.7	0.00e+00	122	41	0	77594624	56	6253
2026-01-24 01:01:58.88	178.74	5.15	-41.4	-42.7	19.0	0.00e+00	123	41	0	80740352	56	6064
2026-01-24 01:01:59.88	178.78	5.22	-41.5	-42.8	18.9	0.00e+00	123	41	0	83886080	56	6104
2026-01-24 01:02:00.89	178.82	5.29	-41.7	-43.0	18.9	0.00e+00	122	41	0	87031808	56	6251
2026-01-24 01:02:01.89	178.85	5.36	-41.3	-42.7	19.2	0.00e+00	121	41	0	90177536	56	5996
2026-01-24 01:02:02.90	178.89	5.43	-40.8	-42.0	19.5	0.00e+00	123	41	0	93323264	56	5582
2026-01-24 01:02:03.91	178.93	5.50	-40.7	-42.0	19.8	0.00e+00	122	41	0	96468992	56	5536
2026-01-24 01:02:04.92	178.97	5.57	-40.5	-41.8	20.1	0.00e+00	123	41	0	99614720	54	6080
2026-01-24 01:02:05.93	179.00	5.65	-40.6	-41.8	20.1	0.00e+00	123	41	0	102760448	54	6114
2026-01-24 01:02:06.94	179.04	5.72	-40.7	-41.9	20.0	0.00e+00	122	41	0	105906176	54	6171
2026-01-24 01:02:07.95	179.08	5.79	-40.4	-41.6	20.2	0.00e+00	120	41	0	109051904	54	5934
2026-01-24 01:02:08.96	179.12	5.86	-40.3	-41.5	20.2	0.00e+00	122	41	0	112197632	54	5871
2026-01-24 01:02:09.97	179.16	5.93	-40.8	-42.1	20.0	0.00e+00	120	41	0	115343360	54	6302
2026-01-24 01:02:10.98	179.20	6.01	-40.3	-41.5	20.4	0.00e+00	120	41	0	118489088	54	5859
2026-01-24 01:02:11.99	179.24	6.08	-40.0	-41.1	20.7	0.00e+00	122	41	0	121634816	54	5635
2026-01-24 01:02:13.00	179.28	6.15	-40.2	-41.4	20.4	0.00e+00	120	41	0	124780544	54	5835
2026-01-24 01:02:14.01	179.31	6.23	-40.4	-41.5	20.3	0.00e+00	122	41	0	127926272	54	5926
2026-01-24 01:02:15.02	179.35	6.30	-39.8	-40.9	20.9	0.00e+00	122	41	0	131072000	52	6195
2026-01-24 01:02:16.03	179.39	6.37	-39.8	-40.9	20.9	0.00e+00	123	41	0	134217728	52	6171
2026-01-24 01:02:17.04	179.43	6.45	-39.7	-40.9	20.9	0.00e+00	123	41	0	137363456	52	6137
2026-01-24 01:02:18.05	179.48	6.52	-39.7	-40.9	21.0	0.00e+00	122	41	0	140509184	52	6148
2026-01-24 01:02:19.06	179.52	6.60	-39.6	-40.7	21.1	0.00e+00	123	41	0	143654912	52	6021
2026-01-24 01:02:20.06	179.56	6.67	-39.8	-41.0	20.8	0.00e+00	120	41	0	146800640	52	6209
2026-01-24 01:02:21.07	179.60	6.75	-39.8	-41.0	20.9	0.00e+00	123	41	0	149946368	52	6231
2026-01-24 01:02:22.08	179.64	6.82	-39.9	-41.0	20.9	0.00e+00	120	41	0	153092096	52	6265
2026-01-24 01:02:23.09	179.68	6.90	-39.6	-40.7	21.1	0.00e+00	123	41	0	156237824	52	6035
2026-01-24 01:02:24.10	179.72	6.97	-39.5	-40.6	21.2	0.00e+00	123	41	0	159383552	52	5963
2026-01-24 01:02:25.11	179.76	7.05	-39.5	-40.6	21.3	0.00e+00	122	41	0	162529280	52	5953
2026-01-24 01:02:26.12	179.80	7.12	-39.6	-40.7	21.1	0.00e+00	123	41	0	165675008	52	6051
2026-01-24 01:02:27.13	179.85	7.20	-39.4	-40.5	21.3	0.00e+00	123	41	0	168820736	52	5922
2026-01-24 01:02:28.14	179.89	7.28	-39.2	-40.3	21.5	0.00e+00	122	41	0	171966464	52	5727
2026-01-24 01:02:29.15	179.93	7.35	-39.3	-40.4	21.3	0.00e+00	123	41	0	175112192	52	5815
2026-01-24 01:02:30.16	179.97	7.43	-39.4	-40.4	21.4	0.00e+00	122	41	0	178257920	52	5857
2026-01-24 01:02:31.17	180.02	7.51	-39.2	-40.3	21.5	0.00e+00	123	41	0	181403648	52	5754
2026-01-24 01:02:32.18	180.06	7.58	-39.1	-40.2	21.7	0.00e+00	123	41	0	184549376	52	5660
2026-01-24 01:02:33.19	180.10	7.66	-39.2	-40.3	21.6	0.00e+00	122	41	0	187695104	52	5761
2026-01-24 01:02:34.20	180.15	7.74	-39.1	-40.1	21.6	0.00e+00	121	41	0	190840832	52	5636
2026-01-24 01:02:35.21	180.19	7.82	-39.0	-40.1	21.7	0.00e+00	122	41	0	193986560	52	5610
2026-01-24 01:02:36.22	180.23	7.89	-39.0	-40.1	21.8	0.00e+00	122	41	0	197132288	52	5629
2026-01-24 01:02:37.23	180.28	7.97	-39.1	-40.2	21.7	0.00e+00	122	41	0	200278016	52	5689
2026-01-24 01:02:38.24	180.32	8.05	-39.1	-40.2	21.7	0.00e+00	120	41	0	203423744	52	5670
2026-01-24 01:02:39.25	180.37	8.13	-39.0	-40.0	21.9	0.00e+00	123	41	0	206569472	52	5561
2026-01-24 01:02:40.26	180.41	8.21	-39.1	-40.2	21.6	0.00e+00	122	41	0	209715200	52	5670
2026-01-24 01:02:41.27	180.46	8.29	-38.9	-39.9	21.9	0.00e+00	122	41	0	212860928	52	5529
2026-01-24 01:02:42.28	180.50	8.37	-38.9	-40.0	21.8	0.00e+00	123	41	0	216006656	52	5536
2026-01-24 01:02:43.29	180.55	8.45	-39.0	-40.1	21.8	0.00e+00	123	41	0	219152384	52	5600
2026-01-24 01:02:44.30	180.59	8.53	-39.1	-40.2	21.8	0.00e+00	120	41	0	222298112	52	5667
2026-01-24 01:02:45.31	180.64	8.61	-38.9	-39.9	21.9	0.00e+00	123	41	0	225443840	52	5525
2026-01-24 01:02:46.32	180.68	8.69	-38.7	-39.8	22.0	0.00e+00	122	41	0	228589568	50	6075
2026-01-24 01:02:47.33	180.73	8.77	-38.6	-39.6	22.2	0.00e+00	123	41	0	231735296	50	5988
2026-01-24 01:02:48.34	180.78	8.85	-38.6	-39.7	22.1	0.00e+00	122	41	0	234881024	50	6012
2026-01-24 01:02:49.35	180.82	8.93	-38.7	-39.7	22.1	0.00e+00	123	41	0	238026752	50	6040
2026-01-24 01:02:50.35	180.87	9.01	-38.7	-39.7	22.2	0.00e+00	122	41	0	242221056	50	6012
2026-01-24 01:02:51.36	180.92	9.09	-38.7	-39.8	22.1	0.00e+00	122	41	0	245366784	50	6077
2026-01-24 01:02:52.38	180.97	9.18	-38.6	-39.7	22.1	0.00e+00	123	41	0	248512512	50	5998
2026-01-24 01:02:53.39	181.01	9.26	-38.5	-39.5	22.2	0.00e+00	122	41	0	250609664	50	5923
2026-01-24 01:02:54.40	181.06	9.34	-38.4	-39.4	22.3	0.00e+00	123	41	0	253755392	50	5835
2026-01-24 01:02:55.41	181.11	9.42	-38.3	-39.3	22.4	0.00e+00	120	41	0	257949696	50	5775
2026-01-24 01:02:56.42	181.16	9.51	-38.3	-39.3	22.4	0.00e+00	122	41	0	261095424	50	5759
2026-01-24 01:02:57.43	181.21	9.59	-38.3	-39.3	22.4	0.00e+00	123	41	0	264241152	50	5738
2026-01-24 01:02:58.44	181.26	9.67	-38.3	-39.3	22.4	0.00e+00	123	41	0	267386880	50	5736
2026-01-24 01:02:59.45	181.31	9.76	-38.2	-39.2	22.6	0.00e+00	123	41	0	270532608	50	5700
2026-01-24 01:03:00.46	181.36	9.84	-38.2	-39.2	22.6	0.00e+00	123	41	0	273678336	50	5670
2026-01-24 01:03:01.47	181.41	9.93	-38.3	-39.3	22.5	0.00e+00	122	41	0	276824064	50	5736
2026-01-24 01:03:02.48	181.46	10.01	-38.2	-39.1	22.6	0.00e+00	120	41	0	279969792	50	5659
2026-01-24 01:03:03.49	181.51	10.10	-38.1	-39.0	22.7	0.00e+00	123	41	0	283115520	50	5585
2026-01-24 01:03:04.50	181.56	10.18	-38.1	-39.1	22.7	0.00e+00	122	41	0	286261248	50	5621
2026-01-24 01:03:05.51	181.61	10.27	-38.0	-39.0	22.7	0.00e+00	120	41	0	289406976	50	5568
2026-01-24 01:03:06.52	181.66	10.35	-38.2	-39.2	22.6	0.00e+00	123	41	0	292552704	50	5715
2026-01-24 01:03:07.53	181.71	10.44	-37.9	-38.9	22.9	0.00e+00	121	41	0	295698432	50	5482
2026-01-24 01:03:08.54	181.76	10.52	-38.0	-39.0	22.7	0.00e+00	123	41	0	298844160	50	5573
2026-01-24 01:03:09.55	181.82	10.61	-37.9	-38.9	22.8	0.00e+00	120	41	0	301989888	50	5499
2026-01-24 01:03:10.56	181.87	10.70	-37.9	-38.8	22.8	0.00e+00	123	41	0	305135616	50	5466
2026-01-24 01:03:11.58	181.92	10.78	-37.8	-38.7	22.9	0.00e+00	123	41	0	308281344	50	5401
2026-01-24 01:03:12.58	181.97	10.87	-37.8	-38.7	23.0	0.00e+00	123	41	0	311427072	48	6041
2026-01-24 01:03:13.59	182.03	10.96	-37.7	-38.6	23.0	0.00e+00	120	41	0	314572800	48	5977
2026-01-24 01:03:14.60	182.08	11.05	-37.7	-38.7	23.0	0.00e+00	123	41	0	317718528	48	6027
2026-01-24 01:03:15.61	182.13	11.14	-37.7	-38.7	23.1	0.00e+00	120	41	0	320864256	48	6005
2026-01-24 01:03:16.62	182.19	11.22	-37.7	-38.7	22.9	0.00e+00	122	41	0	324009984	48	6021
2026-01-24 01:03:17.63	182.24	11.31	-37.8	-38.8	22.9	0.00e+00	122	41	0	327155712	48	6110
2026-01-24 01:03:18.64	182.30	11.40	-37.9	-38.9	22.9	0.00e+00	123	41	0	330301440	48	6141
2026-01-24 01:03:19.65	182.35	11.49	-37.6	-38.6	23.0	0.00e+00	123	41	0	333447168	48	5958
2026-01-24 01:03:20.66	182.41	11.58	-37.5	-38.5	23.2	0.00e+00	123	41	0	336592896	48	5861
2026-01-24 01:03:21.67	182.46	11.67	-37.5	-38.5	23.2	0.00e+00	121	41	0	339738624	48	5881
2026-01-24 01:03:22.69	182.52	11.76	-37.6	-38.6	23.1	0.00e+00	120	41	0	342884352	48	5960
2026-01-24 01:03:23.70	182.58	11.85	-37.6	-38.6	23.1	0.00e+00	122	41	0	346030080	48	5953
2026-01-24 01:03:24.71	182.63	11.94	-37.6	-38.6	23.1	0.00e+00	123	41	0	349175808	48	5967
2026-01-24 01:03:25.72	182.69	12.04	-37.4	-38.4	23.3	0.00e+00	123	41	0	352321536	48	5811
2026-01-24 01:03:26.73	182.75	12.13	-37.5	-38.4	23.2	0.00e+00	123	41	0	355467264	48	5843
2026-01-24 01:03:27.73	182.81	12.22	-37.4	-38.4	23.2	0.00e+00	120	41	0	358612992	48	5816
2026-01-24 01:03:28.74	182.86	12.31	-37.4	-38.3	23.3	0.00e+00	122	41	0	361758720	48	5786
2026-01-24 01:03:29.75	182.92	12.40	-37.4	-38.4	23.3	0.00e+00	123	41	0	364904448	48	5810
2026-01-24 01:03:30.77	182.98	12.50	-37.4	-38.4	23.3	0.00e+00	123	41	0	368050176	48	5805
2026-01-24 01:03:31.78	183.04	12.59	-37.3	-38.2	23.4	0.00e+00	123	41	0	371195904	48	5723
2026-01-24 01:03:32.79	183.10	12.68	-37.4	-38.3	23.3	0.00e+00	122	41	0	374341632	48	5775
2026-01-24 01:03:33.80	183.16	12.78	-37.3	-38.3	23.4	0.00e+00	120	41	0	377487360	48	5737
2026-01-24 01:03:34.81	183.22	12.87	-37.4	-38.4	23.3	0.00e+00	123	41	0	380633088	48	5810
2026-01-24 01:03:35.82	183.28	12.97	-37.4	-38.3	23.4	0.00e+00	123	41	0	383778816	48	5752
2026-01-24 01:03:36.83	183.34	13.06	-37.4	-38.3	23.3	0.00e+00	123	41	0	386924544	48	5762
2026-01-24 01:03:37.84	183.40	13.16	-37.2	-38.2	23.5	0.00e+00	122	41	0	390070272	48	5678
2026-01-24 01:03:38.85	183.46	13.25	-37.4	-38.3	23.4	0.00e+00	123	41	0	393216000	48	5764
2026-01-24 01:03:39.86	183.53	13.35	-37.3	-38.2	23.5	0.00e+00	122	41	0	396361728	48	5701
2026-01-24 01:03:40.87	183.59	13.45	-37.3	-38.2	23.5	0.00e+00	123	41	0	399507456	48	5694
2026-01-24 01:03:41.88	183.65	13.54	-37.4	-38.3	23.4	0.00e+00	120	41	0	402653184	48	5768
2026-01-24 01:03:42.89	183.72	13.64	-37.2	-38.1	23.5	0.00e+00	122	41	0	405798912	48	5659
2026-01-24 01:03:43.90	183.78	13.74	-37.2	-38.1	23.5	0.00e+00	123	41	0	408944640	48	5635
2026-01-24 01:03:44.91	183.84	13.83	-37.3	-38.2	23.5	0.00e+00	123	41	0	412090368	48	5720
2026-01-24 01:03:45.92	183.91	13.93	-37.3	-38.2	23.5	0.00e+00	123	41	0	415236096	48	5722
2026-01-24 01:03:46.93	183.97	14.03	-37.2	-38.1	23.6	0.00e+00	123	41	0	418381824	48	5611
2026-01-24 01:03:47.94	184.04	14.13	-37.2	-38.2	23.6	0.00e+00	122	41	0	421527552	48	5669
2026-01-24 01:03:48.95	184.10	14.23	-37.1	-38.1	23.6	0.00e+00	123	41	0	424673280	48	5616
2026-01-24 01:03:49.96	184.17	14.33	-37.3	-38.2	23.6	0.00e+00	120	41	0	427819008	48	5691
2026-01-24 01:03:50.97	184.24	14.43	-37.2	-38.1	23.6	0.00e+00	122	41	0	430964736	48	5655
2026-01-24 01:03:51.98	184.30	14.53	-37.1	-38.1	23.7	0.00e+00	123	41	0	434110464	48	5601
2026-01-24 01:03:52.99	184.37	14.63	-37.2	-38.1	23.6	0.00e+00	123	41	0	437256192	48	5616
2026-01-24 01:03:54.00	184.44	14.73	-37.2	-38.1	23.6	0.00e+00	123	41	0	440401920	48	5644
2026-01-24 01:03:55.01	184.50	14.83	-37.1	-38.0	23.7	0.00e+00	120	41	0	443547648	48	5584
2026-01-24 01:03:56.02	184.57	14.93	-37.1	-38.1	23.7	0.00e+00	123	41	0	446693376	48	5598
2026-01-24 01:03:57.03	184.64	15.04	-37.0	-37.9	23.8	0.00e+00	120	41	0	449839104	48	5530
2026-01-24 01:03:58.04	184.71	15.14	-37.1	-38.0	23.7	0.00e+00	122	41	0	452984832	48	5586
2026-01-24 01:03:59.05	184.78	15.24	-37.0	-38.0	23.8	0.00e+00	123	41	0	456130560	48	5532
2026-01-24 01:04:00.06	184.85	15.35	-37.2	-38.1	23.7	0.00e+00	123	41	0	459276288	48	5657
2026-01-24 01:04:01.07	184.92	15.45	-36.9	-37.9	23.9	0.00e+00	120	41	0	462422016	48	5472
2026-01-24 01:04:02.08	184.99	15.55	-37.1	-38.0	23.8	0.00e+00	122	41	0	465567744	48	5589
2026-01-24 01:04:03.09	185.07	15.66	-36.9	-37.9	24.0	0.00e+00	122	41	0	468713472	48	5473
2026-01-24 01:04:04.10	185.14	15.76	-37.0	-37.9	23.8	0.00e+00	123	41	0	471859200	48	5509
2026-01-24 01:04:05.11	185.21	15.87	-37.0	-38.0	23.8	0.00e+00	123	41	0	475004928	48	5532
2026-01-24 01:04:06.12	185.28	15.98	-37.1	-38.0	23.8	0.00e+00	120	41	0	478150656	48	5563
2026-01-24 01:04:07.13	185.36	16.08	-37.0	-38.0	23.8	0.00e+00	122	41	0	481296384	48	5531
2026-01-24 01:04:08.14	185.43	16.19	-37.2	-38.1	23.7	0.00e+00	120	41	0	484442112	48	5621
2026-01-24 01:04:09.15	185.51	16.30	-37.1	-38.0	23.7	0.00e+00	120	41	0	487587840	48	5590
2026-01-24 01:04:10.15	185.58	16.40	-37.3	-38.2	23.6	0.00e+00	123	41	0	490733568	48	5696
2026-01-24 01:04:11.16	185.66	16.51	-37.1	-38.0	23.8	0.00e+00	122	41	0	493879296	48	5553
2026-01-24 01:04:12.17	185.73	16.62	-37.2	-38.1	23.7	0.00e+00	123	41	0	497025024	48	5617
2026-01-24 01:04:13.19	185.81	16.73	-37.1	-38.1	23.7	0.00e+00	123	41	0	500170752	48	5612
2026-01-24 01:04:14.20	185.89	16.84	-37.2	-38.1	23.7	0.00e+00	120	41	0	503316480	48	5658
2026-01-24 01:04:15.20	185.97	16.95	-37.3	-38.2	23.6	0.00e+00	122	41	0	506462208	48	5712
2026-01-24 01:04:16.21	186.04	17.06	-37.3	-38.2	23.6	0.00e+00	123	41	0	509607936	48	5703
2026-01-24 01:04:17.22	186.12	17.17	-37.3	-38.3	23.6	0.00e+00	122	41	0	512753664	48	5747
2026-01-24 01:04:18.23	186.20	17.28	-37.5	-38.5	23.3	0.00e+00	123	41	0	515899392	48	5893
2026-01-24 01:04:19.25	186.28	17.39	-37.6	-38.5	23.4	0.00e+00	123	41	0	519045120	48	5921
2026-01-24 01:04:20.26	186.36	17.51	-37.4	-38.3	23.4	0.00e+00	123	41	0	522190848	48	5784
2026-01-24 01:04:21.27	186.45	17.62	-37.3	-38.2	23.5	0.00e+00	123	41	0	525336576	48	5721
2026-01-24 01:04:22.28	186.53	17.73	-37.2	-38.1	23.6	0.00e+00	122	41	0	528482304	48	5650
2026-01-24 01:04:23.29	186.61	17.85	-37.1	-38.1	23.6	0.00e+00	122	41	0	531628032	48	5616
2026-01-24 01:04:24.30	186.69	17.96	-37.2	-38.1	23.7	0.00e+00	123	41	0	534773760	48	5656
2026-01-24 01:04:25.31	186.78	18.07	-37.3	-38.2	23.6	0.00e+00	120	41	0	538968064	48	5701
2026-01-24 01:04:26.32	186.86	18.19	-37.2	-38.2	23.6	0.00e+00	122	41	0	542113792	48	5660
2026-01-24 01:04:27.33	186.94	18.30	-37.3	-38.2	23.6	0.00e+00	123	41	0	544210944	48	5697
2026-01-24 01:04:28.34	187.03	18.42	-37.3	-38.2	23.6	0.00e+00	120	41	0	547356672	48	5721
2026-01-24 01:04:29.35	187.12	18.54	-37.4	-38.3	23.6	0.00e+00	123	41	0	550502400	48	5761
2026-01-24 01:04:30.36	187.20	18.65	-37.4	-38.4	23.5	0.00e+00	122	41	0	554696704	48	5821
2026-01-24 01:04:31.37	187.29	18.77	-37.4	-38.3	23.5	0.00e+00	122	41	0	557842432	48	5780
2026-01-24 01:04:32.38	187.38	18.89	-37.5	-38.5	23.4	0.00e+00	120	41	0	560988160	48	5889
2026-01-24 01:04:33.39	187.47	19.01	-37.4	-38.3	23.5	0.00e+00	122	41	0	564133888	48	5784
2026-01-24 01:04:34.40	187.56	19.13	-37.6	-38.6	23.4	0.00e+00	120	41	0	566231040	48	5946
2026-01-24 01:04:35.41	187.65	19.25	-37.4	-38.4	23.4	0.00e+00	123	41	0	570425344	48	5804
2026-01-24 01:04:36.42	187.74	19.37	-37.5	-38.4	23.4	0.00e+00	123	41	0	573571072	48	5853
2026-01-24 01:04:37.43	187.83	19.49	-37.3	-38.2	23.5	0.00e+00	123	41	0	576716800	48	5716
2026-01-24 01:04:38.44	187.92	19.61	-37.3	-38.2	23.5	0.00e+00	122	41	0	579862528	48	5718
2026-01-24 01:04:39.45	188.01	19.73	-37.2	-38.2	23.5	0.00e+00	123	41	0	583008256	48	5667
2026-01-24 01:04:40.46	188.11	19.85	-37.1	-38.1	23.6	0.00e+00	122	41	0	586153984	48	5606
2026-01-24 01:04:41.47	188.20	19.97	-37.2	-38.1	23.5	0.00e+00	122	41	0	589299712	48	5655
2026-01-24 01:04:42.48	188.29	20.10	-37.0	-37.9	23.7	0.00e+00	123	41	0	592445440	48	5509
2026-01-24 01:04:43.49	188.39	20.22	-36.9	-37.9	23.7	0.00e+00	123	41	0	595591168	48	5471
2026-01-24 01:04:44.50	188.49	20.34	-37.0	-38.0	23.7	0.00e+00	123	41	0	598736896	48	5532
2026-01-24 01:04:45.51	188.58	20.47	-37.0	-38.0	23.7	0.00e+00	122	41	0	601882624	48	5533
2026-01-24 01:04:46.52	188.68	20.59	-37.0	-37.9	23.8	0.00e+00	122	41	0	605028352	48	5522
2026-01-24 01:04:47.53	188.78	20.72	-36.8	-37.7	23.9	0.00e+00	123	41	0	608174080	48	5362
2026-01-24 01:04:48.54	188.88	20.85	-36.7	-37.6	23.9	0.00e+00	120	41	0	611319808	46	5953
2026-01-24 01:04:49.54	188.98	20.97	-36.8	-37.7	23.9	0.00e+00	123	41	0	614465536	46	6031
2026-01-24 01:04:50.55	189.08	21.10	-36.8	-37.7	23.9	0.00e+00	123	41	0	617611264	46	6050
2026-01-24 01:04:51.56	189.18	21.23	-36.7	-37.6	24.0	0.00e+00	122	41	0	620756992	46	5966
2026-01-24 01:04:52.57	189.28	21.36	-36.8	-37.7	24.0	0.00e+00	122	41	0	623902720	46	6041
2026-01-24 01:04:53.58	189.39	21.49	-36.6	-37.5	24.1	0.00e+00	122	41	0	627048448	46	5893
2026-01-24 01:04:54.59	189.49	21.62	-36.8	-37.7	23.9	0.00e+00	123	41	0	630194176	46	6053
2026-01-24 01:04:55.60	189.59	21.75	-36.5	-37.5	24.1	0.00e+00	122	41	0	633339904	46	5872
2026-01-24 01:04:56.61	189.70	21.88	-36.6	-37.5	24.1	0.00e+00	123	41	0	636485632	46	5920
2026-01-24 01:04:57.62	189.81	22.01	-36.4	-37.3	24.2	0.00e+00	122	41	0	639631360	46	5739
2026-01-24 01:04:58.63	189.91	22.14	-36.6	-37.5	24.1	0.00e+00	123	41	0	642777088	46	5883
2026-01-24 01:04:59.64	190.02	22.27	-36.4	-37.3	24.3	0.00e+00	123	41	0	645922816	46	5744
2026-01-24 01:05:00.65	190.13	22.41	-36.2	-37.1	24.4	0.00e+00	123	41	0	649068544	46	5630
2026-01-24 01:05:01.66	190.24	22.54	-36.1	-37.0	24.6	0.00e+00	123	41	0	652214272	46	5571
2026-01-24 01:05:02.67	190.35	22.67	-36.1	-37.0	24.5	0.00e+00	122	41	0	655360000	46	5542
2026-01-24 01:05:03.68	190.47	22.81	-36.0	-36.9	24.8	0.00e+00	122	41	0	658505728	46	5505
2026-01-24 01:05:04.68	190.58	22.94	-35.9	-36.8	24.7	0.00e+00	123	41	0	661651456	46	5426
2026-01-24 01:05:05.69	190.69	23.08	-36.0	-36.9	24.6	0.00e+00	123	41	0	664797184	46	5510
2026-01-24 01:05:06.70	190.81	23.22	-36.1	-37.0	24.6	0.00e+00	123	41	0	667942912	46	5575
2026-01-24 01:05:07.71	190.92	23.35	-36.0	-36.8	24.7	0.00e+00	122	41	0	671088640	46	5466
2026-01-24 01:05:08.72	191.04	23.49	-35.9	-36.8	24.8	0.00e+00	122	41	0	674234368	46	5406
2026-01-24 01:05:09.73	191.16	23.63	-35.9	-36.8	24.7	0.00e+00	122	41	0	677380096	46	5441
2026-01-24 01:05:10.74	191.28	23.77	-35.9	-36.8	24.7	0.00e+00	123	41	0	680525824	46	5449
2026-01-24 01:05:11.75	191.40	23.91	-36.0	-36.9	24.7	0.00e+00	120	41	0	683671552	46	5521
2026-01-24 01:05:12.76	191.52	24.05	-35.9	-36.8	24.8	0.00e+00	123	41	0	686817280	46	5440
2026-01-24 01:05:13.77	191.64	24.19	-35.9	-36.8	24.8	0.00e+00	123	41	0	689963008	46	5445
2026-01-24 01:05:14.78	191.76	24.33	-35.8	-36.7	24.9	0.00e+00	123	41	0	693108736	46	5353
2026-01-24 01:05:15.79	191.89	24.48	-35.8	-36.7	24.9	0.00e+00	123	41	0	696254464	46	5371
2026-01-24 01:05:16.79	192.01	24.62	-35.7	-36.6	25.0	0.00e+00	123	41	0	699400192	46	5327
2026-01-24 01:05:17.81	192.14	24.76	-35.8	-36.7	24.9	0.00e+00	122	41	0	702545920	44	5996
2026-01-24 01:05:18.82	192.27	24.91	-35.8	-36.6	24.9	0.00e+00	123	41	0	705691648	44	5988
2026-01-24 01:05:19.82	192.39	25.05	-35.9	-36.7	24.9	0.00e+00	122	41	0	708837376	44	6040
2026-01-24 01:05:20.83	192.52	25.20	-35.9	-36.8	24.9	0.00e+00	122	41	0	711983104	44	6075
2026-01-24 01:05:21.84	192.65	25.34	-35.9	-36.8	24.9	0.00e+00	123	41	0	715128832	44	6086
2026-01-24 01:05:22.85	192.79	25.49	-36.1	-37.0	24.8	0.00e+00	122	41	0	718274560	44	6228
2026-01-24 01:05:23.87	192.92	25.64	-36.2	-37.1	24.6	0.00e+00	123	41	0	721420288	44	6318
2026-01-24 01:05:24.87	193.05	25.79	-36.3	-37.2	24.5	0.00e+00	122	41	0	724566016	44	6395
2026-01-24 01:05:25.88	193.19	25.94	-36.3	-37.2	24.6	0.00e+00	123	41	0	727711744	44	6389
2026-01-24 01:05:26.89	193.33	26.08	-36.4	-37.3	24.5	0.00e+00	122	42	0	730857472	44	6440
2026-01-24 01:05:27.90	193.46	26.24	-36.4	-37.3	24.5	0.00e+00	122	42	0	734003200	44	6459
2026-01-24 01:05:28.91	193.60	26.39	-36.4	-37.3	24.5	0.00e+00	122	42	0	737148928	44	6442
2026-01-24 01:05:29.92	193.74	26.54	-36.5	-37.4	24.5	0.00e+00	123	42	0	740294656	44	6519
2026-01-24 01:05:30.93	193.89	26.69	-36.6	-37.5	24.4	0.00e+00	123	41	0	743440384	44	6617
2026-01-24 01:05:31.94	194.03	26.84	-36.5	-37.4	24.4	0.00e+00	123	41	0	746586112	44	6531
2026-01-24 01:05:32.95	194.18	27.00	-36.6	-37.5	24.4	0.00e+00	123	41	0	749731840	44	6631
2026-01-24 01:05:33.96	194.32	27.15	-36.7	-37.6	24.3	0.00e+00	123	41	0	752877568	46	5958
2026-01-24 01:05:34.97	194.47	27.31	-36.8	-37.7	24.2	0.00e+00	123	41	0	756023296	46	6026
2026-01-24 01:05:35.98	194.62	27.46	-36.8	-37.7	24.3	0.00e+00	123	41	0	759169024	46	6002
2026-01-24 01:05:36.99	194.77	27.62	-36.8	-37.8	24.2	0.00e+00	120	41	0	762314752	46	6065
2026-01-24 01:05:38.00	194.92	27.78	-36.9	-37.8	24.1	0.00e+00	123	41	0	765460480	46	6080
2026-01-24 01:05:39.01	195.07	27.93	-37.1	-38.0	24.0	0.00e+00	122	41	0	768606208	46	6226
2026-01-24 01:05:40.02	195.23	28.09	-37.1	-38.0	23.9	0.00e+00	123	42	0	771751936	46	6272
2026-01-24 01:05:41.03	195.38	28.25	-37.2	-38.1	23.8	0.00e+00	123	42	0	774897664	46	6296
2026-01-24 01:05:42.04	195.54	28.41	-37.2	-38.2	23.7	0.00e+00	123	42	0	778043392	46	6359
2026-01-24 01:05:43.04	195.70	28.57	-37.1	-38.0	23.9	0.00e+00	123	42	0	781189120	46	6247
2026-01-24 01:05:44.05	195.86	28.73	-37.1	-38.0	23.8	0.00e+00	120	42	0	784334848	46	6258
2026-01-24 01:05:45.07	196.02	28.90	-37.2	-38.1	23.9	0.00e+00	122	41	0	787480576	46	6321
2026-01-24 01:05:46.07	196.19	29.06	-37.2	-38.2	23.8	0.00e+00	120	42	0	790626304	46	6360
2026-01-24 01:05:47.09	196.35	29.22	-37.2	-38.1	23.8	0.00e+00	123	41	0	793772032	46	6312
2026-01-24 01:05:48.09	196.52	29.38	-37.3	-38.3	23.8	0.00e+00	123	41	0	796917760	46	6451
2026-01-24 01:05:49.10	196.69	29.55	-37.5	-38.4	23.6	0.00e+00	123	42	0	800063488	46	6566
2026-01-24 01:05:50.11	196.86	29.71	-37.4	-38.3	23.6	0.00e+00	123	41	0	803209216	46	6489
2026-01-24 01:05:51.12	197.03	29.88	-37.5	-38.4	23.6	0.00e+00	123	42	0	806354944	46	6525
2026-01-24 01:05:52.13	197.20	30.05	-37.4	-38.4	23.5	0.00e+00	122	42	0	809500672	46	6524
2026-01-24 01:05:53.14	197.38	30.21	-37.3	-38.3	23.6	0.00e+00	123	41	0	812646400	46	6449
2026-01-24 01:05:54.15	197.56	30.38	-37.3	-38.2	23.6	0.00e+00	123	42	0	815792128	46	6416
2026-01-24 01:05:55.16	197.74	30.55	-37.6	-38.5	23.5	0.00e+00	122	42	0	818937856	46	6627
2026-01-24 01:05:56.17	197.92	30.72	-37.3	-38.2	23.7	0.00e+00	123	41	0	822083584	46	6388
2026-01-24 01:05:57.18	198.10	30.89	-37.1	-38.0	24.0	0.00e+00	123	42	0	825229312	46	6239
2026-01-24 01:05:58.19	198.29	31.06	-37.0	-37.9	24.0	0.00e+00	120	42	0	828375040	46	6184
2026-01-24 01:05:59.20	198.47	31.23	-36.9	-37.9	24.0	0.00e+00	122	42	0	831520768	46	6142
2026-01-24 01:06:00.21	198.66	31.41	-37.1	-38.1	24.0	0.00e+00	122	42	0	834666496	46	6278
2026-01-24 01:06:01.22	198.85	31.58	-37.1	-38.0	24.1	0.00e+00	123	42	0	837812224	46	6252
2026-01-24 01:06:02.23	199.05	31.75	-37.1	-38.1	23.9	0.00e+00	122	41	0	840957952	46	6295
2026-01-24 01:06:03.24	199.24	31.93	-37.1	-38.1	24.0	0.00e+00	122	42	0	844103680	46	6286
2026-01-24 01:06:04.25	199.44	32.10	-37.0	-37.9	24.1	0.00e+00	122	42	0	847249408	46	6149
2026-01-24 01:06:05.26	199.64	32.28	-37.1	-38.0	24.0	0.00e+00	122	42	0	850395136	46	6249
2026-01-24 01:06:06.27	199.84	32.46	-37.0	-37.9	24.1	0.00e+00	123	42	0	853540864	46	6148
2026-01-24 01:06:07.28	200.04	32.63	-36.8	-37.7	24.2	0.00e+00	123	42	0	856686592	46	6040
2026-01-24 01:06:08.29	200.25	32.81	-37.0	-37.9	24.2	0.00e+00	123	42	0	859832320	46	6143
2026-01-24 01:06:09.30	200.45	32.99	-37.0	-37.9	24.1	0.00e+00	122	42	0	862978048	46	6148
2026-01-24 01:06:10.32	200.67	33.17	-37.2	-38.1	23.9	0.00e+00	120	41	0	866123776	46	6348
2026-01-24 01:06:11.33	200.88	33.35	-37.4	-38.3	23.8	0.00e+00	122	42	0	869269504	46	6436
2026-01-24 01:06:12.34	201.09	33.53	-37.6	-38.5	23.7	0.00e+00	122	42	0	872415232	46	6600
2026-01-24 01:06:13.35	201.31	33.71	-37.8	-38.7	23.5	0.00e+00	123	41	0	875560960	48	6054
2026-01-24 01:06:14.36	201.53	33.89	-37.9	-38.9	23.4	0.00e+00	120	42	0	879755264	48	6175
2026-01-24 01:06:15.37	201.75	34.07	-38.0	-39.0	23.3	0.00e+00	122	42	0	882900992	48	6216
2026-01-24 01:06:16.38	201.98	34.26	-38.0	-38.9	23.4	0.00e+00	121	42	0	884998144	48	6156
2026-01-24 01:06:17.39	202.20	34.44	-38.0	-38.9	23.3	0.00e+00	123	42	0	888143872	48	6195
2026-01-24 01:06:18.40	202.43	34.62	-38.2	-39.2	23.2	0.00e+00	123	42	0	891289600	48	6364
2026-01-24 01:06:19.41	202.66	34.81	-38.4	-39.3	23.0	0.00e+00	122	42	0	895483904	48	6496
2026-01-24 01:06:20.41	202.89	34.99	-38.4	-39.4	23.0	0.00e+00	123	42	0	898629632	48	6526
2026-01-24 01:06:21.42	203.13	35.18	-38.5	-39.5	23.0	0.00e+00	122	42	0	901775360	48	6609
2026-01-24 01:06:22.43	203.37	35.36	-38.8	-39.8	22.7	0.00e+00	123	42	0	904921088	48	6829
2026-01-24 01:06:23.44	203.61	35.55	-38.9	-39.9	22.6	0.00e+00	123	42	0	907018240	50	6173
2026-01-24 01:06:24.45	203.86	35.74	-38.9	-39.9	22.6	0.00e+00	123	42	0	911212544	50	6204
2026-01-24 01:06:25.46	204.10	35.93	-39.1	-40.1	22.4	0.00e+00	122	42	0	914358272	50	6293
2026-01-24 01:06:26.47	204.36	36.11	-39.1	-40.1	22.5	0.00e+00	120	42	0	917504000	50	6328
2026-01-24 01:06:27.48	204.61	36.30	-39.1	-40.1	22.5	0.00e+00	122	41	0	920649728	50	6313
2026-01-24 01:06:28.49	204.86	36.49	-39.2	-40.3	22.3	0.00e+00	123	42	0	923795456	50	6428
2026-01-24 01:06:29.50	205.12	36.68	-39.0	-40.0	22.5	0.00e+00	122	42	0	926941184	50	6272
2026-01-24 01:06:30.51	205.39	36.87	-39.0	-40.0	22.6	0.00e+00	123	42	0	930086912	50	6209
2026-01-24 01:06:31.52	205.65	37.06	-39.0	-40.0	22.6	0.00e+00	123	42	0	933232640	50	6231
2026-01-24 01:06:32.53	205.92	37.25	-39.2	-40.2	22.4	0.00e+00	120	42	0	936378368	50	6395
2026-01-24 01:06:33.54	206.19	37.45	-39.3	-40.3	22.4	0.00e+00	120	42	0	939524096	50	6470
2026-01-24 01:06:34.55	206.47	37.64	-38.9	-39.9	22.6	0.00e+00	122	42	0	942669824	50	6175
2026-01-24 01:06:35.56	206.74	37.83	-38.7	-39.7	22.7	0.00e+00	123	42	0	945815552	50	6049
2026-01-24 01:06:36.57	207.02	38.02	-38.6	-39.6	22.8	0.00e+00	120	42	0	948961280	50	5981
2026-01-24 01:06:37.58	207.31	38.22	-38.6	-39.6	22.9	0.00e+00	123	42	0	952107008	50	5940
2026-01-24 01:06:38.59	207.60	38.41	-38.7	-39.7	22.8	0.00e+00	122	42	0	955252736	50	5998
2026-01-24 01:06:39.60	207.89	38.60	-38.8	-39.9	22.7	0.00e+00	120	42	0	958398464	50	6136
2026-01-24 01:06:40.61	208.18	38.80	-39.0	-40.0	22.6	0.00e+00	123	42	0	961544192	50	6236
2026-01-24 01:06:41.62	208.48	38.99	-38.9	-39.9	22.6	0.00e+00	122	42	0	964689920	50	6198
2026-01-24 01:06:42.63	208.78	39.18	-38.9	-39.9	22.7	0.00e+00	124	42	0	967835648	50	6141
2026-01-24 01:06:43.64	209.08	39.38	-38.8	-39.8	22.7	0.00e+00	123	42	0	970981376	50	6085
2026-01-24 01:06:44.65	209.39	39.57	-38.8	-39.7	22.7	0.00e+00	122	42	0	974127104	50	6058
2026-01-24 01:06:45.66	209.70	39.77	-39.1	-40.1	22.4	0.00e+00	123	42	0	977272832	50	6329
2026-01-24 01:06:46.67	210.02	39.96	-39.4	-40.4	22.1	0.00e+00	122	42	0	980418560	50	6542
2026-01-24 01:06:47.68	210.34	40.16	-39.1	-40.1	22.3	0.00e+00	121	42	0	983564288	50	6350
2026-01-24 01:06:48.69	210.66	40.35	-39.2	-40.3	22.2	0.00e+00	122	42	0	986710016	50	6447
2026-01-24 01:06:49.70	210.99	40.55	-39.2	-40.2	22.2	0.00e+00	120	42	0	989855744	50	6412
2026-01-24 01:06:50.71	211.32	40.75	-39.1	-40.1	22.4	0.00e+00	123	42	0	993001472	50	6325
2026-01-24 01:06:51.72	211.66	40.94	-39.2	-40.3	22.2	0.00e+00	123	42	0	996147200	50	6449
2026-01-24 01:06:52.73	212.00	41.14	-39.5	-40.5	22.1	0.00e+00	122	42	0	999292928	50	6632
2026-01-24 01:06:53.74	212.34	41.33	-39.4	-40.5	22.0	0.00e+00	122	42	0	1002438656	50	6601
2026-01-24 01:06:54.75	212.69	41.53	-39.3	-40.3	22.2	0.00e+00	123	42	0	1005584384	50	6481
2026-01-24 01:06:55.76	213.04	41.72	-39.5	-40.6	21.9	0.00e+00	123	42	0	1008730112	50	6658
2026-01-24 01:06:56.77	213.39	41.92	-39.8	-40.9	21.7	0.00e+00	122	42	0	1011875840	52	6135
2026-01-24 01:06:57.78	213.75	42.11	-40.0	-41.1	21.5	0.00e+00	122	42	0	1015021568	52	6324
2026-01-24 01:06:58.79	214.12	42.31	-40.0	-41.1	21.5	0.00e+00	123	42	0	1018167296	52	6323
2026-01-24 01:06:59.80	214.49	42.50	-39.8	-40.8	21.8	0.00e+00	122	42	0	1021313024	52	6130
2026-01-24 01:07:00.81	214.86	42.69	-39.6	-40.7	21.9	0.00e+00	122	42	0	1024458752	52	5999
2026-01-24 01:07:01.83	215.24	42.89	-39.9	-40.9	21.8	0.00e+00	120	42	0	1027604480	52	6195
2026-01-24 01:07:02.84	215.62	43.08	-40.2	-41.3	21.5	0.00e+00	123	42	0	1030750208	52	6466
2026-01-24 01:07:03.85	216.01	43.28	-40.5	-41.6	21.3	0.00e+00	122	42	0	1033895936	52	6712
2026-01-24 01:07:04.86	216.40	43.47	-40.5	-41.6	21.2	0.00e+00	122	42	0	1037041664	52	6718
2026-01-24 01:07:05.87	216.79	43.66	-40.4	-41.6	21.2	0.00e+00	123	42	0	1040187392	52	6662
2026-01-24 01:07:06.87	217.19	43.85	-40.4	-41.5	21.3	0.00e+00	123	42	0	1043333120	52	6641
2026-01-24 01:07:07.88	217.60	44.04	-40.0	-41.1	21.5	0.00e+00	120	42	0	1046478848	52	6292
2026-01-24 01:07:08.90	218.01	44.23	-39.9	-41.0	21.7	0.00e+00	123	42	0	1049624576	52	6246
2026-01-24 01:07:09.90	218.42	44.42	-40.0	-41.1	21.6	0.00e+00	120	42	0	1052770304	52	6292
2026-01-24 01:07:10.91	218.84	44.61	-40.0	-41.1	21.6	0.00e+00	122	42	0	1055916032	52	6299
2026-01-24 01:07:11.92	219.27	44.80	-40.2	-41.3	21.4	0.00e+00	123	42	0	1059061760	52	6426
2026-01-24 01:07:12.93	219.69	44.98	-40.2	-41.3	21.4	0.00e+00	123	42	0	1062207488	52	6473
2026-01-24 01:07:13.94	220.13	45.17	-40.2	-41.3	21.4	0.00e+00	123	42	0	1065353216	52	6461
2026-01-24 01:07:14.95	220.57	45.36	-39.9	-40.9	21.8	0.00e+00	123	42	0	1068498944	52	6178
2026-01-24 01:07:15.96	221.01	45.54	-40.0	-41.1	21.6	0.00e+00	122	42	0	1071644672	52	6299
2026-01-24 01:07:16.97	221.46	45.72	-40.2	-41.2	21.5	0.00e+00	123	42	0	1074790400	52	6415
2026-01-24 01:07:17.98	221.92	45.91	-40.2	-41.3	21.4	0.00e+00	120	42	0	1077936128	52	6480
2026-01-24 01:07:18.99	222.38	46.09	-40.3	-41.4	21.2	0.00e+00	122	42	0	1081081856	52	6539
2026-01-24 01:07:20.00	222.84	46.27	-40.3	-41.4	21.4	0.00e+00	122	42	0	1084227584	52	6566
2026-01-24 01:07:21.00	223.31	46.44	-40.1	-41.2	21.6	0.00e+00	123	42	0	1087373312	52	6398
2026-01-24 01:07:22.01	223.79	46.62	-39.8	-40.9	21.8	0.00e+00	123	42	0	1090519040	52	6174
2026-01-24 01:07:23.02	224.27	46.80	-39.8	-40.9	21.8	0.00e+00	122	42	0	1093664768	52	6174
2026-01-24 01:07:24.03	224.75	46.97	-39.7	-40.8	21.9	0.00e+00	123	42	0	1096810496	52	6079
2026-01-24 01:07:25.04	225.25	47.14	-39.7	-40.7	21.8	0.00e+00	122	42	0	1099956224	52	6064
2026-01-24 01:07:26.05	225.74	47.31	-39.6	-40.7	21.9	0.00e+00	123	42	0	1103101952	52	6022
2026-01-24 01:07:27.07	226.25	47.49	-39.5	-40.6	22.1	0.00e+00	123	42	0	1106247680	52	5928
2026-01-24 01:07:28.08	226.76	47.65	-39.5	-40.5	22.1	0.00e+00	123	42	0	1109393408	52	5924
2026-01-24 01:07:29.08	227.27	47.82	-39.5	-40.5	22.2	0.00e+00	120	42	0	1112539136	52	5902
2026-01-24 01:07:30.09	227.79	47.98	-39.5	-40.5	22.1	0.00e+00	121	42	0	1115684864	52	5925
2026-01-24 01:07:31.10	228.31	48.15	-39.5	-40.5	22.1	0.00e+00	122	42	0	1118830592	52	5902
2026-01-24 01:07:32.11	228.84	48.31	-39.8	-40.8	21.9	0.00e+00	122	42	0	1121976320	52	6105
2026-01-24 01:07:33.12	229.38	48.46	-39.7	-40.7	21.9	0.00e+00	123	42	0	1125122048	52	6064
2026-01-24 01:07:34.13	229.92	48.62	-39.6	-40.6	22.1	0.00e+00	122	42	0	1128267776	52	5983
2026-01-24 01:07:35.14	230.46	48.77	-39.5	-40.5	22.1	0.00e+00	123	42	0	1131413504	52	5901
2026-01-24 01:07:36.15	231.02	48.93	-39.3	-40.3	22.3	0.00e+00	120	42	0	1134559232	52	5763
2026-01-24 01:07:37.16	231.57	49.08	-39.6	-40.6	22.1	0.00e+00	123	42	0	1137704960	52	5974
2026-01-24 01:07:38.18	232.14	49.22	-39.5	-40.6	22.0	0.00e+00	121	42	0	1140850688	52	5954
2026-01-24 01:07:39.18	232.70	49.37	-39.6	-40.6	22.0	0.00e+00	123	42	0	1143996416	52	5958
2026-01-24 01:07:40.19	233.27	49.51	-39.1	-40.1	22.4	0.00e+00	123	42	0	1147142144	52	5621
2026-01-24 01:07:41.20	233.85	49.65	-39.1	-40.1	22.2	0.00e+00	123	42	0	1150287872	52	5623
2026-01-24 01:07:42.21	234.44	49.79	-39.3	-40.4	22.0	0.00e+00	120	42	0	1153433600	52	5795
2026-01-24 01:07:43.22	235.03	49.92	-39.5	-40.6	22.2	0.00e+00	122	42	0	1156579328	52	5946
2026-01-24 01:07:44.23	235.62	50.05	-39.5	-40.5	22.1	0.00e+00	123	42	0	1159725056	52	5913
2026-01-24 01:07:45.24	236.22	50.18	-39.8	-40.9	21.9	0.00e+00	122	42	0	1162870784	52	6146
2026-01-24 01:07:46.25	236.82	50.31	-39.7	-40.8	21.9	0.00e+00	123	42	0	1166016512	52	6065
2026-01-24 01:07:47.26	237.43	50.43	-39.7	-40.7	21.8	0.00e+00	123	42	0	1169162240	52	6060
2026-01-24 01:07:48.27	238.04	50.55	-39.5	-40.6	21.9	0.00e+00	121	42	0	1172307968	52	5965
2026-01-24 01:07:49.28	238.66	50.67	-39.2	-40.2	22.4	0.00e+00	123	42	0	1175453696	52	5684
2026-01-24 01:07:50.29	239.28	50.78	-38.9	-39.9	22.6	0.00e+00	123	42	0	1178599424	52	5505
2026-01-24 01:07:51.30	239.91	50.89	-38.6	-39.6	22.8	0.00e+00	123	42	0	1181745152	50	5948
2026-01-24 01:07:52.31	240.54	51.00	-38.7	-39.7	22.6	0.00e+00	122	42	0	1184890880	50	6027
2026-01-24 01:07:53.32	241.18	51.10	-38.6	-39.6	22.9	0.00e+00	123	42	0	1188036608	50	5943
2026-01-24 01:07:54.33	241.82	51.20	-38.6	-39.6	22.9	0.00e+00	123	42	0	1191182336	50	5963
2026-01-24 01:07:55.34	242.47	51.30	-38.6	-39.5	23.0	0.00e+00	123	42	0	1194328064	50	5905
2026-01-24 01:07:56.35	243.11	51.39	-38.5	-39.4	22.7	0.00e+00	122	42	0	1197473792	50	5844
2026-01-24 01:07:57.36	243.77	51.48	-38.8	-39.8	22.5	0.00e+00	123	42	0	1200619520	50	6081
2026-01-24 01:07:58.37	244.42	51.56	-38.9	-39.9	22.6	0.00e+00	122	42	0	1203765248	50	6198
2026-01-24 01:07:59.38	245.08	51.65	-38.7	-39.7	22.9	0.00e+00	123	42	0	1206910976	50	5996
2026-01-24 01:08:00.39	245.75	51.72	-38.6	-39.6	23.0	0.00e+00	123	42	0	1210056704	50	5935
2026-01-24 01:08:01.40	246.41	51.80	-38.4	-39.4	22.8	0.00e+00	122	42	0	1213202432	50	5812
2026-01-24 01:08:02.41	247.08	51.87	-38.9	-39.9	22.5	0.00e+00	122	42	0	1217396736	50	6160
2026-01-24 01:08:03.42	247.76	51.94	-38.8	-39.8	22.6	0.00e+00	120	42	0	1220542464	50	6128
2026-01-24 01:08:04.43	248.43	52.00	-38.3	-39.3	23.1	0.00e+00	122	42	0	1223688192	50	5737
2026-01-24 01:08:05.44	249.11	52.06	-38.1	-39.0	23.0	0.00e+00	123	42	0	1225785344	50	5594
2026-01-24 01:08:06.45	249.80	52.11	-38.1	-39.0	22.8	0.00e+00	123	42	0	1228931072	50	5593
2026-01-24 01:08:07.45	250.47	52.16	-38.5	-39.5	22.4	0.00e+00	122	42	0	1233125376	50	5909
2026-01-24 01:08:08.47	251.17	52.21	-38.9	-39.9	22.4	0.00e+00	123	42	0	1236271104	50	6191
2026-01-24 01:08:09.47	251.85	52.25	-39.1	-40.1	22.5	0.00e+00	123	42	0	1239416832	50	6302
2026-01-24 01:08:10.48	252.54	52.29	-39.0	-40.0	22.5	0.00e+00	123	42	0	1242562560	50	6238
2026-01-24 01:08:11.49	253.23	52.32	-38.7	-39.7	22.8	0.00e+00	122	42	0	1245708288	50	6040
2026-01-24 01:08:12.50	253.92	52.35	-38.6	-39.7	22.9	0.00e+00	123	42	0	1248854016	50	6000
2026-01-24 01:08:13.51	254.62	52.38	-38.6	-39.5	23.0	0.00e+00	122	42	0	1251999744	50	5913
2026-01-24 01:08:14.52	255.31	52.40	-38.7	-39.7	22.8	0.00e+00	123	42	0	1255145472	50	6016
2026-01-24 01:08:15.53	256.01	52.41	-38.5	-39.4	23.0	0.00e+00	122	42	0	1258291200	50	5850
2026-01-24 01:08:16.54	256.70	52.43	-38.5	-39.5	23.1	0.00e+00	123	42	0	1261436928	50	5873
2026-01-24 01:08:17.55	257.40	52.44	-38.4	-39.4	23.0	0.00e+00	122	42	0	1264582656	50	5813
2026-01-24 01:08:18.56	258.10	52.44	-37.9	-38.9	23.5	0.00e+00	120	42	0	1267728384	50	5476
2026-01-24 01:08:19.57	258.80	52.44	-37.9	-38.8	23.7	0.00e+00	123	42	0	1270874112	50	5462
2026-01-24 01:08:20.59	259.50	52.43	-37.7	-38.6	23.7	0.00e+00	123	42	0	1274019840	48	5978
2026-01-24 01:08:21.60	260.20	52.43	-38.1	-39.1	23.4	0.00e+00	122	42	0	1277165568	48	6325
2026-01-24 01:08:22.60	260.89	52.41	-38.1	-39.1	23.5	0.00e+00	120	42	0	1280311296	48	6281
2026-01-24 01:08:23.61	261.58	52.39	-38.0	-38.9	23.5	0.00e+00	122	42	0	1283457024	48	6193
2026-01-24 01:08:24.62	262.28	52.37	-38.0	-38.9	23.3	0.00e+00	120	42	0	1286602752	48	6149
2026-01-24 01:08:25.63	262.97	52.35	-38.0	-38.9	23.3	0.00e+00	122	42	0	1289748480	48	6204
2026-01-24 01:08:26.64	263.67	52.32	-37.9	-38.9	23.3	0.00e+00	122	42	0	1292894208	48	6175
2026-01-24 01:08:27.65	264.36	52.28	-37.9	-38.8	23.6	0.00e+00	120	42	0	1296039936	48	6097
2026-01-24 01:08:28.66	265.05	52.24	-39.1	-40.1	22.5	0.00e+00	123	42	0	1299185664	50	6303
2026-01-24 01:08:29.67	265.73	52.20	-38.7	-39.7	22.7	0.00e+00	122	42	0	1302331392	50	6036
2026-01-24 01:08:30.67	266.41	52.15	-39.1	-40.1	22.5	0.00e+00	120	42	0	1305477120	50	6320
2026-01-24 01:08:31.69	267.10	52.10	-39.1	-40.1	22.5	0.00e+00	123	42	0	1308622848	50	6349
2026-01-24 01:08:32.70	267.78	52.05	-38.7	-39.6	22.8	0.00e+00	122	42	0	1311768576	50	5987
2026-01-24 01:08:33.70	268.45	51.99	-38.6	-39.6	22.7	0.00e+00	122	42	0	1314914304	50	5943
2026-01-24 01:08:34.71	269.13	51.93	-39.3	-40.4	22.0	0.00e+00	123	42	0	1318060032	50	6523
2026-01-24 01:08:35.72	269.80	51.86	-39.9	-41.1	21.7	0.00e+00	123	42	0	1321205760	52	6283
2026-01-24 01:08:36.73	270.47	51.79	-39.7	-40.8	22.0	0.00e+00	122	42	0	1324351488	52	6117
2026-01-24 01:08:37.74	271.14	51.71	-39.5	-40.5	22.2	0.00e+00	120	42	0	1327497216	52	5868
2026-01-24 01:08:38.75	271.80	51.63	-39.4	-40.5	22.2	0.00e+00	122	42	0	1330642944	52	5867
2026-01-24 01:08:39.76	272.46	51.55	-39.3	-40.3	22.4	0.00e+00	123	42	0	1333788672	52	5778
2026-01-24 01:08:40.77	273.11	51.47	-38.8	-39.8	22.9	0.00e+00	123	42	0	1336934400	52	5456
2026-01-24 01:08:41.78	273.77	51.38	-38.7	-39.6	23.1	0.00e+00	122	42	0	1340080128	50	5987
2026-01-24 01:08:42.80	274.42	51.28	-38.3	-39.3	23.3	0.00e+00	123	42	0	1343225856	50	5731
2026-01-24 01:08:43.81	275.06	51.19	-38.8	-39.8	22.8	0.00e+00	122	42	0	1346371584	50	6084
2026-01-24 01:08:44.82	275.70	51.09	-38.9	-39.9	22.8	0.00e+00	122	42	0	1349517312	50	6158
2026-01-24 01:08:45.83	276.34	50.98	-38.7	-39.7	22.7	0.00e+00	123	42	0	1352663040	50	6011
2026-01-24 01:08:46.84	276.97	50.87	-38.6	-39.6	22.5	0.00e+00	123	42	0	1355808768	50	5987
2026-01-24 01:08:47.85	277.59	50.76	-38.9	-40.0	22.4	0.00e+00	120	42	0	1358954496	50	6209
2026-01-24 01:08:48.86	278.22	50.65	-39.3	-40.3	22.3	0.00e+00	120	42	0	1362100224	50	6468
2026-01-24 01:08:49.87	278.83	50.53	-39.4	-40.5	22.4	0.00e+00	123	42	0	1365245952	50	6578
2026-01-24 01:08:50.88	279.44	50.41	-39.9	-41.0	21.8	0.00e+00	123	42	0	1368391680	52	6235
2026-01-24 01:08:51.89	280.05	50.29	-40.1	-41.2	21.4	0.00e+00	123	42	0	1371537408	52	6360
2026-01-24 01:08:52.90	280.65	50.16	-39.9	-41.0	21.3	0.00e+00	123	42	0	1374683136	52	6274
2026-01-24 01:08:53.91	281.25	50.04	-39.8	-40.9	21.7	0.00e+00	122	42	0	1377828864	52	6164
2026-01-24 01:08:54.92	281.84	49.90	-39.4	-40.4	22.2	0.00e+00	123	42	0	1380974592	52	5847
2026-01-24 01:08:55.93	282.43	49.77	-39.3	-40.3	22.3	0.00e+00	122	42	0	1384120320	52	5786
2026-01-24 01:08:56.94	283.01	49.63	-39.3	-40.3	22.4	0.00e+00	123	42	0	1387266048	52	5747
2026-01-24 01:08:57.95	283.59	49.49	-39.2	-40.3	22.3	0.00e+00	122	42	0	1390411776	52	5733
2026-01-24 01:08:58.96	284.16	49.35	-39.6	-40.7	22.1	0.00e+00	123	42	0	1393557504	52	6003
2026-01-24 01:08:59.97	284.72	49.21	-39.6	-40.6	22.1	0.00e+00	122	42	0	1396703232	52	5973
2026-01-24 01:09:00.98	285.28	49.06	-39.6	-40.6	22.0	0.00e+00	122	42	0	1399848960	52	5977
2026-01-24 01:09:01.99	285.84	48.91	-39.6	-40.6	22.0	0.00e+00	122	42	0	1402994688	52	5973
2026-01-24 01:09:03.00	286.39	48.76	-39.3	-40.4	22.2	0.00e+00	121	42	0	1406140416	52	5797
2026-01-24 01:09:04.01	286.93	48.60	-39.2	-40.2	22.5	0.00e+00	123	42	0	1409286144	52	5708
2026-01-24 01:09:05.02	287.47	48.45	-39.6	-40.6	22.1	0.00e+00	123	42	0	1412431872	52	5993
2026-01-24 01:09:06.03	288.01	48.29	-40.1	-41.1	21.8	0.00e+00	123	42	0	1415577600	52	6344
2026-01-24 01:09:07.04	288.53	48.13	-40.1	-41.2	21.8	0.00e+00	120	42	0	1418723328	52	6352
2026-01-24 01:09:08.05	289.06	47.97	-40.2	-41.3	21.5	0.00e+00	122	42	0	1421869056	52	6478
2026-01-24 01:09:09.06	289.57	47.80	-40.1	-41.2	21.5	0.00e+00	123	42	0	1425014784	52	6407
2026-01-24 01:09:10.07	290.09	47.64	-39.9	-40.9	21.7	0.00e+00	123	42	0	1428160512	52	6189
2026-01-24 01:09:11.08	290.59	47.47	-39.7	-40.7	22.0	0.00e+00	122	42	0	1431306240	52	6013
2026-01-24 01:09:12.09	291.09	47.30	-39.9	-41.0	21.9	0.00e+00	120	42	0	1434451968	52	6213
2026-01-24 01:09:13.10	291.59	47.13	-40.0	-41.1	21.9	0.00e+00	122	42	0	1437597696	52	6279
2026-01-24 01:09:14.11	292.08	46.96	-40.2	-41.2	21.8	0.00e+00	120	42	0	1440743424	52	6418
2026-01-24 01:09:15.12	292.56	46.78	-40.1	-41.1	21.9	0.00e+00	123	42	0	1443889152	52	6324
2026-01-24 01:09:16.13	293.04	46.61	-40.1	-41.2	21.4	0.00e+00	122	42	0	1447034880	52	6371
2026-01-24 01:09:17.14	293.52	46.43	-40.5	-41.6	21.2	0.00e+00	123	42	0	1450180608	52	6717
2026-01-24 01:09:18.15	293.99	46.25	-40.3	-41.3	21.6	0.00e+00	121	42	0	1453326336	52	6488
2026-01-24 01:09:19.17	294.45	46.07	-39.7	-40.7	22.2	0.00e+00	122	42	0	1456472064	52	5997
2026-01-24 01:09:20.18	294.91	45.89	-39.3	-40.3	22.5	0.00e+00	123	42	0	1459617792	52	5757
2026-01-24 01:09:21.18	295.36	45.71	-39.2	-40.2	22.6	0.00e+00	122	42	0	1462763520	52	5703
2026-01-24 01:09:22.19	295.81	45.53	-39.4	-40.4	22.3	0.00e+00	122	42	0	1465909248	52	5858
2026-01-24 01:09:23.21	296.26	45.34	-39.4	-40.4	22.3	0.00e+00	123	42	0	1469054976	52	5822
2026-01-24 01:09:24.22	296.69	45.16	-39.6	-40.6	22.0	0.00e+00	120	42	0	1472200704	52	5960
2026-01-24 01:09:25.23	297.13	44.97	-39.8	-40.9	21.7	0.00e+00	123	42	0	1475346432	52	6186
2026-01-24 01:09:26.24	297.56	44.79	-40.0	-41.1	21.6	0.00e+00	123	42	0	1478492160	52	6345
2026-01-24 01:09:27.25	297.98	44.60	-40.0	-41.1	21.8	0.00e+00	123	42	0	1481637888	52	6278
2026-01-24 01:09:28.26	298.40	44.41	-40.0	-41.1	21.6	0.00e+00	120	42	0	1484783616	52	6278
2026-01-24 01:09:29.27	298.81	44.22	-39.9	-40.9	21.9	0.00e+00	123	42	0	1487929344	52	6163
2026-01-24 01:09:30.28	299.22	44.03	-40.1	-41.1	21.8	0.00e+00	122	42	0	1491075072	52	6313
2026-01-24 01:09:31.28	299.62	43.84	-40.7	-41.8	21.3	0.00e+00	120	42	0	1494220800	52	6809
2026-01-24 01:09:32.29	300.02	43.65	-41.1	-42.2	20.9	0.00e+00	123	42	0	1497366528	54	6393
2026-01-24 01:09:33.30	300.41	43.46	-41.6	-42.8	20.4	0.00e+00	123	42	0	1500512256	54	6844
2026-01-24 01:09:34.31	300.80	43.27	-41.4	-42.7	20.4	0.00e+00	122	42	0	1503657984	54	6749
2026-01-24 01:09:35.32	301.18	43.08	-40.9	-42.1	21.0	0.00e+00	123	42	0	1506803712	54	6305
2026-01-24 01:09:36.33	301.57	42.89	-40.9	-42.1	21.2	0.00e+00	120	42	0	1509949440	54	6278
2026-01-24 01:09:37.34	301.94	42.69	-40.6	-41.7	21.3	0.00e+00	122	42	0	1513095168	54	6053
2026-01-24 01:09:38.35	302.31	42.50	-39.8	-40.9	22.0	0.00e+00	120	42	0	1516240896	54	5484
2026-01-24 01:09:39.36	302.68	42.31	-39.9	-40.9	21.8	0.00e+00	123	42	0	1519386624	52	6154
2026-01-24 01:09:40.37	303.04	42.11	-40.0	-41.0	21.7	0.00e+00	123	42	0	1522532352	52	6275
2026-01-24 01:09:41.38	303.40	41.92	-39.9	-40.9	21.8	0.00e+00	122	42	0	1525678080	52	6178
2026-01-24 01:09:42.39	303.76	41.72	-39.9	-41.0	21.9	0.00e+00	123	42	0	1528823808	52	6227
2026-01-24 01:09:43.40	304.11	41.53	-40.0	-41.1	21.9	0.00e+00	120	42	0	1531969536	52	6292
2026-01-24 01:09:44.41	304.45	41.34	-39.2	-40.2	22.6	0.00e+00	122	42	0	1536163840	52	5701
2026-01-24 01:09:45.42	304.79	41.14	-38.9	-39.8	22.8	0.00e+00	123	42	0	1539309568	52	5449
2026-01-24 01:09:46.43	305.13	40.95	-39.1	-40.2	22.6	0.00e+00	123	42	0	1541406720	52	5662
2026-01-24 01:09:47.44	305.46	40.75	-39.5	-40.5	22.3	0.00e+00	121	42	0	1544552448	52	5903
2026-01-24 01:09:48.45	305.79	40.56	-39.8	-40.8	22.1	0.00e+00	123	42	0	1547698176	52	6107
2026-01-24 01:09:49.46	306.12	40.36	-40.4	-41.5	21.6	0.00e+00	122	42	0	1551892480	52	6605
2026-01-24 01:09:50.47	306.44	40.17	-40.7	-41.9	21.2	0.00e+00	123	42	0	1555038208	52	6904
2026-01-24 01:09:51.47	306.76	39.98	-40.8	-41.9	21.1	0.00e+00	123	42	0	1558183936	54	6193
2026-01-24 01:09:52.48	307.07	39.78	-40.9	-42.0	21.1	0.00e+00	123	42	0	1561329664	54	6242
2026-01-24 01:09:53.49	307.38	39.59	-40.3	-41.4	21.5	0.00e+00	120	42	0	1563426816	54	5804
2026-01-24 01:09:54.51	307.69	39.39	-40.1	-41.2	21.5	0.00e+00	123	42	0	1567621120	54	5665
2026-01-24 01:09:55.51	307.99	39.20	-39.7	-40.8	21.8	0.00e+00	120	42	0	1570766848	54	5405
2026-01-24 01:09:56.52	308.30	39.01	-39.5	-40.5	21.9	0.00e+00	122	42	0	1573912576	52	5901
2026-01-24 01:09:57.53	308.59	38.81	-39.9	-40.9	21.9	0.00e+00	122	42	0	1577058304	52	6197
2026-01-24 01:09:58.54	308.89	38.62	-39.7	-40.8	22.1	0.00e+00	120	42	0	1580204032	52	6095
2026-01-24 01:09:59.55	309.17	38.43	-39.6	-40.6	22.3	0.00e+00	123	42	0	1583349760	52	5931
2026-01-24 01:10:00.56	309.46	38.24	-39.2	-40.2	22.6	0.00e+00	122	42	0	1586495488	52	5696
2026-01-24 01:10:01.57	309.74	38.04	-39.0	-40.0	22.6	0.00e+00	122	42	0	1589641216	52	5564
2026-01-24 01:10:02.58	310.02	37.85	-39.4	-40.4	22.1	0.00e+00	122	42	0	1592786944	52	5820
2026-01-24 01:10:03.59	310.30	37.66	-39.6	-40.7	22.0	0.00e+00	122	42	0	1595932672	52	6029
2026-01-24 01:10:04.60	310.57	37.47	-39.8	-40.8	22.0	0.00e+00	122	42	0	1599078400	52	6122
2026-01-24 01:10:05.61	310.85	37.28	-39.4	-40.4	22.4	0.00e+00	123	42	0	1602224128	52	5839
2026-01-24 01:10:06.62	311.11	37.09	-39.2	-40.2	22.6	0.00e+00	123	42	0	1605369856	52	5712
2026-01-24 01:10:07.63	311.38	36.90	-38.7	-39.7	23.1	0.00e+00	123	42	0	1608515584	52	5365
2026-01-24 01:10:08.64	311.64	36.71	-38.3	-39.3	23.3	0.00e+00	123	42	0	1611661312	50	5730
2026-01-24 01:10:09.65	311.90	36.52	-38.5	-39.4	23.1	0.00e+00	120	42	0	1614807040	50	5856
2026-01-24 01:10:10.66	312.15	36.33	-38.5	-39.5	22.9	0.00e+00	123	42	0	1617952768	50	5881
2026-01-24 01:10:11.67	312.40	36.15	-38.7	-39.6	22.7	0.00e+00	120	42	0	1621098496	50	5994
2026-01-24 01:10:12.69	312.66	35.96	-39.0	-40.0	22.3	0.00e+00	122	42	0	1624244224	50	6272
2026-01-24 01:10:13.70	312.90	35.77	-39.2	-40.2	22.4	0.00e+00	123	42	0	1627389952	50	6372
2026-01-24 01:10:14.71	313.15	35.58	-39.0	-40.0	22.7	0.00e+00	123	42	0	1630535680	50	6226
2026-01-24 01:10:15.72	313.39	35.40	-39.0	-39.9	22.8	0.00e+00	120	42	0	1633681408	50	6205
2026-01-24 01:10:16.73	313.63	35.21	-38.8	-39.7	22.8	0.00e+00	123	42	0	1636827136	50	6060
2026-01-24 01:10:17.74	313.86	35.03	-38.9	-39.9	22.8	0.00e+00	123	42	0	1639972864	50	6172
2026-01-24 01:10:18.75	314.10	34.84	-38.9	-39.9	22.8	0.00e+00	123	42	0	1643118592	50	6187
2026-01-24 01:10:19.76	314.33	34.66	-39.2	-40.2	22.7	0.00e+00	122	42	0	1646264320	50	6374
2026-01-24 01:10:20.77	314.56	34.48	-39.3	-40.3	22.5	0.00e+00	122	42	0	1649410048	50	6475
2026-01-24 01:10:21.78	314.78	34.29	-39.8	-40.8	22.0	0.00e+00	122	42	0	1652555776	52	6131
2026-01-24 01:10:22.79	315.01	34.11	-40.3	-41.3	21.7	0.00e+00	122	42	0	1655701504	52	6492
2026-01-24 01:10:23.80	315.23	33.93	-39.4	-40.4	22.5	0.00e+00	123	42	0	1658847232	52	5819
2026-01-24 01:10:24.81	315.45	33.75	-39.2	-40.1	22.7	0.00e+00	123	42	0	1661992960	52	5658
2026-01-24 01:10:25.82	315.66	33.57	-39.3	-40.3	22.6	0.00e+00	123	42	0	1665138688	52	5734
2026-01-24 01:10:26.83	315.88	33.39	-38.7	-39.6	23.1	0.00e+00	123	42	0	1668284416	50	5975
2026-01-24 01:10:27.84	316.09	33.21	-38.6	-39.6	23.0	0.00e+00	120	42	0	1671430144	50	5932
2026-01-24 01:10:28.85	316.30	33.04	-38.7	-39.6	22.9	0.00e+00	123	42	0	1674575872	50	5975
2026-01-24 01:10:29.86	316.50	32.86	-38.4	-39.4	23.1	0.00e+00	123	42	0	1677721600	50	5833
2026-01-24 01:10:30.87	316.71	32.68	-38.3	-39.3	23.3	0.00e+00	123	42	0	1680867328	50	5758
2026-01-24 01:10:31.88	316.91	32.50	-38.0	-38.9	23.6	0.00e+00	120	42	0	1684013056	50	5520
2026-01-24 01:10:32.89	317.11	32.33	-37.9	-38.8	23.6	0.00e+00	123	42	0	1687158784	50	5462
2026-01-24 01:10:33.90	317.31	32.15	-37.5	-38.4	23.9	0.00e+00	120	42	0	1690304512	48	5850
2026-01-24 01:10:34.91	317.51	31.98	-37.6	-38.5	23.9	0.00e+00	123	42	0	1693450240	48	5917
2026-01-24 01:10:35.91	317.70	31.81	-37.7	-38.6	23.8	0.00e+00	123	42	0	1696595968	48	5934
2026-01-24 01:10:36.92	317.89	31.64	-37.6	-38.5	23.7	0.00e+00	123	42	0	1699741696	48	5871
2026-01-24 01:10:37.93	318.08	31.46	-37.6	-38.5	23.9	0.00e+00	122	42	0	1702887424	48	5897
2026-01-24 01:10:38.94	318.27	31.29	-37.3	-38.2	24.0	0.00e+00	123	42	0	1706033152	48	5706
2026-01-24 01:10:39.95	318.46	31.12	-37.5	-38.5	23.8	0.00e+00	123	42	0	1709178880	48	5874
2026-01-24 01:10:40.96	318.64	30.95	-37.5	-38.4	23.8	0.00e+00	122	42	0	1712324608	48	5820
2026-01-24 01:10:41.97	318.83	30.78	-37.3	-38.2	24.1	0.00e+00	120	42	0	1715470336	48	5700
2026-01-24 01:10:42.98	319.01	30.61	-37.4	-38.4	24.0	0.00e+00	123	42	0	1718616064	48	5792
2026-01-24 01:10:43.99	319.19	30.45	-37.0	-37.9	24.3	0.00e+00	120	42	0	1721761792	48	5496
2026-01-24 01:10:45.00	319.36	30.28	-37.0	-37.9	24.2	0.00e+00	123	42	0	1724907520	48	5509
2026-01-24 01:10:46.01	319.54	30.11	-37.0	-37.9	24.3	0.00e+00	122	42	0	1728053248	48	5484
2026-01-24 01:10:47.03	319.71	29.94	-36.9	-37.8	24.4	0.00e+00	122	42	0	1731198976	48	5420
2026-01-24 01:10:48.03	319.88	29.78	-37.0	-37.9	24.4	0.00e+00	123	42	0	1734344704	48	5514
2026-01-24 01:10:49.04	320.05	29.62	-37.0	-37.9	24.4	0.00e+00	123	42	0	1737490432	48	5502
2026-01-24 01:10:50.05	320.22	29.45	-37.1	-38.0	24.3	0.00e+00	120	42	0	1740636160	48	5559
2026-01-24 01:10:51.06	320.39	29.29	-37.2	-38.1	24.2	0.00e+00	123	42	0	1743781888	48	5634
2026-01-24 01:10:52.07	320.56	29.13	-37.5	-38.4	24.0	0.00e+00	123	42	0	1746927616	48	5807
2026-01-24 01:10:53.08	320.72	28.96	-37.5	-38.4	23.9	0.00e+00	122	42	0	1750073344	48	5828
2026-01-24 01:10:54.09	320.88	28.80	-37.6	-38.5	23.9	0.00e+00	122	42	0	1753219072	48	5914
2026-01-24 01:10:55.10	321.04	28.64	-37.6	-38.5	23.9	0.00e+00	122	42	0	1756364800	48	5920
2026-01-24 01:10:56.11	321.20	28.48	-37.7	-38.6	23.8	0.00e+00	123	42	0	1759510528	48	5979
2026-01-24 01:10:57.12	321.36	28.32	-37.7	-38.6	23.9	0.00e+00	122	42	0	1762656256	48	5968
2026-01-24 01:10:58.13	321.52	28.17	-37.6	-38.5	23.9	0.00e+00	120	42	0	1765801984	48	5904
2026-01-24 01:10:59.14	321.67	28.01	-37.3	-38.2	24.2	0.00e+00	122	42	0	1768947712	48	5696
2026-01-24 01:11:00.15	321.82	27.85	-37.2	-38.1	24.3	0.00e+00	122	42	0	1772093440	48	5625
2026-01-24 01:11:01.16	321.97	27.69	-37.2	-38.1	24.2	0.00e+00	122	42	0	1775239168	48	5636
2026-01-24 01:11:02.17	322.12	27.54	-37.0	-37.9	24.3	0.00e+00	123	42	0	1778384896	48	5501
2026-01-24 01:11:03.18	322.27	27.38	-37.0	-37.9	24.3	0.00e+00	122	42	0	1781530624	48	5516
2026-01-24 01:11:04.19	322.42	27.23	-36.9	-37.8	24.4	0.00e+00	123	42	0	1784676352	48	5446
2026-01-24 01:11:05.20	322.57	27.08	-36.9	-37.8	24.4	0.00e+00	122	42	0	1787822080	48	5423
2026-01-24 01:11:06.21	322.71	26.92	-36.9	-37.8	24.5	0.00e+00	123	42	0	1790967808	48	5412
2026-01-24 01:11:07.22	322.85	26.77	-36.8	-37.7	24.5	0.00e+00	122	42	0	1794113536	48	5360
2026-01-24 01:11:08.23	323.00	26.62	-36.8	-37.7	24.6	0.00e+00	120	42	0	1797259264	46	6032
2026-01-24 01:11:09.24	323.14	26.47	-36.9	-37.7	24.6	0.00e+00	122	42	0	1800404992	46	6058
2026-01-24 01:11:10.25	323.28	26.32	-36.6	-37.5	24.7	0.00e+00	123	42	0	1803550720	46	5874
2026-01-24 01:11:11.26	323.42	26.17	-36.6	-37.5	24.6	0.00e+00	122	42	0	1806696448	46	5885
2026-01-24 01:11:12.27	323.55	26.02	-36.7	-37.6	24.5	0.00e+00	120	42	0	1809842176	46	5939
2026-01-24 01:11:13.28	323.69	25.87	-36.7	-37.5	24.6	0.00e+00	120	42	0	1812987904	46	5916
2026-01-24 01:11:14.29	323.82	25.72	-36.7	-37.6	24.6	0.00e+00	122	42	0	1816133632	46	5932
2026-01-24 01:11:15.30	323.96	25.58	-36.6	-37.5	24.5	0.00e+00	123	42	0	1819279360	46	5893
2026-01-24 01:11:16.31	324.09	25.43	-36.7	-37.6	24.4	0.00e+00	123	42	0	1822425088	46	5966
2026-01-24 01:11:17.32	324.22	25.29	-36.9	-37.8	24.3	0.00e+00	122	42	0	1825570816	46	6089
2026-01-24 01:11:18.33	324.35	25.14	-37.0	-37.8	24.3	0.00e+00	120	42	0	1828716544	46	6128
2026-01-24 01:11:19.34	324.48	25.00	-36.9	-37.7	24.4	0.00e+00	123	42	0	1831862272	46	6061
2026-01-24 01:11:20.35	324.60	24.85	-37.0	-37.9	24.3	0.00e+00	122	42	0	1835008000	46	6192
2026-01-24 01:11:21.36	324.73	24.71	-37.0	-37.9	24.2	0.00e+00	123	42	0	1838153728	46	6193
2026-01-24 01:11:22.37	324.86	24.57	-37.3	-38.2	24.2	0.00e+00	120	42	0	1841299456	46	6386
2026-01-24 01:11:23.38	324.98	24.43	-37.1	-38.0	24.3	0.00e+00	122	42	0	1844445184	46	6244
2026-01-24 01:11:24.39	325.10	24.28	-37.2	-38.1	24.1	0.00e+00	122	42	0	1847590912	46	6321
2026-01-24 01:11:25.40	325.23	24.14	-37.3	-38.2	24.1	0.00e+00	122	42	0	1851785216	46	6363
2026-01-24 01:11:26.41	325.35	24.00	-37.0	-38.0	24.2	0.00e+00	123	42	0	1854930944	46	6209
2026-01-24 01:11:27.42	325.47	23.87	-37.2	-38.2	24.1	0.00e+00	123	42	0	1857028096	46	6367
2026-01-24 01:11:28.43	325.59	23.73	-37.2	-38.1	24.1	0.00e+00	123	42	0	1860173824	46	6324
2026-01-24 01:11:29.44	325.70	23.59	-37.4	-38.3	24.0	0.00e+00	123	42	0	1863319552	46	6451
2026-01-24 01:11:30.45	325.82	23.45	-37.4	-38.3	23.9	0.00e+00	122	42	0	1866465280	46	6480
2026-01-24 01:11:31.46	325.94	23.31	-37.4	-38.4	23.7	0.00e+00	120	42	0	1870659584	46	6512
2026-01-24 01:11:32.47	326.05	23.18	-37.5	-38.4	23.7	0.00e+00	122	42	0	1873805312	46	6545
2026-01-24 01:11:33.48	326.17	23.04	-37.5	-38.4	23.6	0.00e+00	123	42	0	1876951040	46	6570
2026-01-24 01:11:34.49	326.28	22.91	-37.6	-38.5	23.7	0.00e+00	123	42	0	1879048192	46	6634
2026-01-24 01:11:35.50	326.39	22.77	-37.6	-38.6	23.7	0.00e+00	122	42	0	1882193920	46	6672
2026-01-24 01:11:36.51	326.50	22.64	-37.6	-38.5	23.7	0.00e+00	122	42	0	1886388224	46	6644
2026-01-24 01:11:37.52	326.61	22.51	-37.5	-38.4	23.7	0.00e+00	122	42	0	1889533952	46	6573
2026-01-24 01:11:38.53	326.72	22.37	-37.6	-38.6	23.6	0.00e+00	123	42	0	1892679680	46	6653
2026-01-24 01:11:39.54	326.83	22.24	-37.4	-38.3	23.8	0.00e+00	122	42	0	1895825408	46	6486
2026-01-24 01:11:40.55	326.94	22.11	-37.3	-38.2	23.9	0.00e+00	120	42	0	1898971136	46	6390
2026-01-24 01:11:41.56	327.05	21.98	-37.4	-38.3	23.8	0.00e+00	122	42	0	1902116864	46	6487
2026-01-24 01:11:42.57	327.15	21.85	-37.4	-38.3	23.9	0.00e+00	123	42	0	1905262592	46	6472
2026-01-24 01:11:43.58	327.26	21.72	-37.3	-38.3	23.8	0.00e+00	123	42	0	1908408320	46	6431
2026-01-24 01:11:44.59	327.36	21.59	-37.2	-38.1	23.9	0.00e+00	123	42	0	1911554048	46	6283
2026-01-24 01:11:45.60	327.46	21.46	-37.1	-38.0	24.0	0.00e+00	123	42	0	1914699776	46	6273
2026-01-24 01:11:46.61	327.57	21.33	-37.3	-38.2	23.9	0.00e+00	122	42	0	1917845504	46	6386
2026-01-24 01:11:47.61	327.67	21.21	-37.1	-38.0	24.0	0.00e+00	121	42	0	1920991232	46	6267
2026-01-24 01:11:48.63	327.77	21.08	-37.2	-38.2	24.0	0.00e+00	123	42	0	1924136960	46	6353
2026-01-24 01:11:49.64	327.87	20.95	-37.2	-38.2	24.0	0.00e+00	120	42	0	1927282688	46	6353
2026-01-24 01:11:50.64	327.97	20.83	-37.2	-38.1	24.1	0.00e+00	123	42	0	1930428416	46	6324
2026-01-24 01:11:51.65	328.07	20.70	-37.2	-38.1	24.0	0.00e+00	123	42	0	1933574144	46	6334
2026-01-24 01:11:52.67	328.17	20.58	-37.3	-38.2	24.0	0.00e+00	123	42	0	1936719872	46	6395
2026-01-24 01:11:53.68	328.26	20.45	-37.2	-38.1	24.1	0.00e+00	120	42	0	1939865600	46	6299
2026-01-24 01:11:54.69	328.36	20.33	-37.5	-38.4	23.9	0.00e+00	123	42	0	1943011328	46	6504
2026-01-24 01:11:55.70	328.46	20.21	-37.1	-38.0	24.2	0.00e+00	123	42	0	1946157056	46	6265
2026-01-24 01:11:56.71	328.55	20.09	-37.3	-38.2	24.1	0.00e+00	123	42	0	1949302784	46	6407
2026-01-24 01:11:57.72	328.65	19.96	-37.3	-38.2	24.0	0.00e+00	123	42	0	1952448512	46	6392
