passes_logs/2026/01/24/R4.6S_Anadyr/R4.6S_Anadyr__20260124_233116_SUOMI_NPP_rec.log

#Pass ID: 20260124_233116_SUOMI NPP
#Satellite: SUOMI NPP
#Configuration: NPP
#almurnet v.1.7.20251203
#Start time: 2026-01-24 23:31:18

#Version: 2.2.20231116
#Station: R4.6S_Anadyr
#Location: 177.4865 lon 64.73178 lat
#TLE: 1 37849U 11061A   26024.54906732  .00000185  00000+0  10878-3 0  9990
#TLE: 2 37849  98.7821 326.5159 0002200  47.3746 312.7615 14.19529340738061

#Time	Az	El	Level	Level2	SNR	BER	BlckErr	Temp	State	Recorded	gain1	gain2
2026-01-24 23:31:18.26	137.18	0.13	-51.3	-63.9	3.4	1.52e+00	0	39	0	0	60	54817
2026-01-24 23:31:19.27	137.16	0.19	-51.5	-66.7	3.6	1.51e+00	0	40	104	0	60	78436
2026-01-24 23:31:20.28	137.14	0.25	-51.3	-66.5	3.6	1.51e+00	0	40	104	0	60	76522
2026-01-24 23:31:21.29	137.13	0.32	-51.4	-66.5	3.6	1.51e+00	0	40	104	0	60	76820
2026-01-24 23:31:22.30	137.11	0.38	-51.3	-66.5	3.6	1.51e+00	0	40	104	0	60	76409
2026-01-24 23:31:23.31	137.09	0.44	-51.3	-66.5	3.6	1.51e+00	0	40	104	0	60	76117
2026-01-24 23:31:24.32	137.07	0.50	-51.2	-66.4	3.6	1.51e+00	0	40	104	0	60	75716
2026-01-24 23:31:25.33	137.05	0.56	-51.2	-66.5	3.6	1.51e+00	0	40	104	0	60	75998
2026-01-24 23:31:26.33	137.03	0.62	-51.2	-66.4	3.6	1.51e+00	0	40	104	0	60	75564
2026-01-24 23:31:27.34	137.01	0.68	-51.2	-66.4	3.6	1.51e+00	0	40	104	0	60	75268
2026-01-24 23:31:28.36	137.00	0.74	-51.2	-66.4	3.6	1.51e+00	0	41	104	0	60	75546
2026-01-24 23:31:29.37	136.98	0.80	-51.1	-66.3	3.6	1.51e+00	0	40	104	0	60	74405
2026-01-24 23:31:30.38	136.96	0.87	-51.1	-66.3	3.6	1.51e+00	0	40	104	0	60	74488
2026-01-24 23:31:31.38	136.94	0.93	-51.0	-66.2	3.6	1.51e+00	0	41	104	0	60	73794
2026-01-24 23:31:32.40	136.92	0.99	-50.6	-66.1	3.6	1.51e+00	0	40	104	0	60	73199
2026-01-24 23:31:33.41	136.90	1.05	-50.9	-66.0	3.6	1.51e+00	0	41	104	0	60	72088
2026-01-24 23:31:34.42	136.88	1.11	-50.8	-66.0	3.6	1.51e+00	0	40	104	0	60	72176
2026-01-24 23:31:35.43	136.86	1.18	-50.7	-65.9	3.6	1.51e+00	0	40	104	0	60	71258
2026-01-24 23:31:36.44	136.84	1.24	-50.7	-65.9	3.6	1.51e+00	0	41	104	0	60	71087
2026-01-24 23:31:37.44	136.82	1.30	-50.6	-65.8	3.6	1.51e+00	0	40	104	0	60	70871
2026-01-24 23:31:38.45	136.80	1.36	-50.6	-65.7	3.6	1.51e+00	0	41	104	0	60	70065
2026-01-24 23:31:39.46	136.78	1.43	-50.4	-65.6	3.6	1.51e+00	0	41	104	0	60	69085
2026-01-24 23:31:40.47	136.76	1.49	-50.0	-65.5	3.6	1.51e+00	0	41	104	0	60	67759
2026-01-24 23:31:41.48	136.74	1.55	-50.0	-65.2	3.6	1.51e+00	0	41	104	0	60	65462
2026-01-24 23:31:42.49	136.72	1.62	-49.7	-64.9	3.6	1.51e+00	0	41	104	0	60	63894
2026-01-24 23:31:43.50	136.70	1.68	-49.7	-64.9	3.6	1.51e+00	0	41	104	0	60	63530
2026-01-24 23:31:44.51	136.68	1.74	-49.7	-64.9	3.6	1.51e+00	0	41	104	0	60	63888
2026-01-24 23:31:45.52	136.66	1.81	-49.7	-64.9	3.6	1.51e+00	0	41	104	0	60	63311
2026-01-24 23:31:46.53	136.64	1.87	-49.7	-64.9	3.6	1.51e+00	0	41	104	0	60	63356
2026-01-24 23:31:47.54	136.62	1.93	-49.7	-64.7	3.6	1.51e+00	0	41	104	0	60	62200
2026-01-24 23:31:48.55	136.60	2.00	-49.7	-64.6	3.6	1.51e+00	0	41	104	0	60	61647
2026-01-24 23:31:49.56	136.57	2.06	-49.7	-64.3	3.5	1.51e+00	0	41	104	0	60	59636
2026-01-24 23:31:50.57	136.55	2.13	-49.7	-64.5	3.6	1.51e+00	0	41	104	0	60	60756
2026-01-24 23:31:51.58	136.53	2.19	-49.7	-64.5	3.6	1.51e+00	0	41	104	0	60	60552
2026-01-24 23:31:52.59	136.51	2.26	-49.7	-64.4	3.6	1.51e+00	0	41	104	0	60	59899
2026-01-24 23:31:53.60	136.49	2.32	-49.7	-64.7	3.6	1.51e+00	0	41	104	0	60	62062
2026-01-24 23:31:54.61	136.47	2.39	-49.7	-64.8	3.6	1.51e+00	0	41	104	0	60	62941
2026-01-24 23:31:55.62	136.45	2.45	-49.7	-64.9	3.6	1.51e+00	0	41	104	0	60	63632
2026-01-24 23:31:56.63	136.42	2.52	-49.7	-64.9	3.6	1.51e+00	0	41	104	0	60	63701
2026-01-24 23:31:57.64	136.40	2.58	-49.7	-64.7	3.6	1.51e+00	0	41	104	0	60	62359
2026-01-24 23:31:58.65	136.38	2.65	-49.7	-64.6	3.6	1.51e+00	0	41	104	0	60	61557
2026-01-24 23:31:59.66	136.36	2.71	-49.7	-64.1	3.6	1.51e+00	0	41	104	0	60	58066
2026-01-24 23:32:00.67	136.34	2.78	-49.7	-64.1	3.6	1.51e+00	0	41	104	0	60	58041
2026-01-24 23:32:01.68	136.31	2.85	-49.7	-63.7	3.6	1.51e+00	0	41	104	0	60	55188
2026-01-24 23:32:02.69	136.29	2.91	-49.6	-63.6	3.6	1.51e+00	0	41	104	0	60	54878
2026-01-24 23:32:03.70	136.27	2.98	-49.6	-63.2	3.6	1.51e+00	0	41	104	0	60	52384
2026-01-24 23:32:04.71	136.25	3.04	-49.6	-63.6	3.6	1.51e+00	0	41	104	0	60	54587
2026-01-24 23:32:05.71	136.22	3.11	-49.7	-64.0	3.6	1.51e+00	0	41	104	0	60	57042
2026-01-24 23:32:06.72	136.20	3.18	-49.7	-64.8	3.6	1.51e+00	0	41	104	0	60	62869
2026-01-24 23:32:07.73	136.18	3.24	-49.7	-64.7	3.6	1.51e+00	0	41	104	0	60	62209
2026-01-24 23:32:08.74	136.15	3.31	-49.6	-62.2	3.7	1.51e+00	0	41	104	0	60	46570
2026-01-24 23:32:09.75	136.13	3.38	-49.1	-57.8	6.3	6.56e-01	0	41	104	0	60	27961
2026-01-24 23:32:10.76	136.11	3.45	-48.9	-55.5	8.0	3.09e-01	0	41	0	1048576	60	21498
2026-01-24 23:32:11.77	136.08	3.51	-47.6	-51.7	11.9	7.44e-03	0	41	0	3145728	60	13942
2026-01-24 23:32:12.78	136.06	3.58	-47.0	-50.5	13.3	3.54e-04	0	41	0	5242880	60	12053
2026-01-24 23:32:13.79	136.04	3.65	-45.9	-48.6	15.2	0.00e+00	0	41	0	7340032	60	9746
2026-01-24 23:32:14.80	136.01	3.72	-44.9	-47.1	16.8	0.00e+00	0	41	0	8388608	60	8218
2026-01-24 23:32:15.81	135.99	3.78	-43.9	-45.6	17.9	0.00e+00	0	41	0	10485760	60	6910
2026-01-24 23:32:16.82	135.96	3.85	-49.8	-63.5	3.6	6.67e-01	0	41	104	12582912	60	53823
2026-01-24 23:32:17.83	135.94	3.92	-45.7	-48.3	15.9	1.51e+00	0	41	104	12582912	60	9424
2026-01-24 23:32:18.84	135.92	3.99	-48.6	-55.0	6.5	0.00e+00	0	41	0	12582912	60	20244
2026-01-24 23:32:19.85	135.89	4.06	-49.6	-60.7	3.9	5.27e-01	0	41	104	12582912	60	39036
2026-01-24 23:32:20.86	135.87	4.13	-45.7	-48.4	14.2	3.18e-01	0	41	104	12582912	60	9482
2026-01-24 23:32:21.86	135.84	4.20	-44.5	-46.5	17.6	8.32e-04	0	41	0	13631488	60	7608
2026-01-24 23:32:22.87	135.82	4.27	-44.3	-46.3	17.4	0.00e+00	0	41	0	15728640	60	7478
2026-01-24 23:32:23.88	135.79	4.34	-45.0	-47.2	17.0	0.00e+00	0	41	0	17825792	60	8267
2026-01-24 23:32:24.89	135.77	4.41	-43.5	-45.2	18.5	0.00e+00	0	41	0	19922944	60	6573
2026-01-24 23:32:25.90	135.74	4.48	-44.0	-45.8	18.2	0.00e+00	0	41	0	20971520	60	7042
2026-01-24 23:32:26.90	135.72	4.54	-43.4	-45.0	19.1	0.00e+00	0	41	0	23068672	60	6420
2026-01-24 23:32:27.91	135.69	4.61	-43.1	-44.6	19.0	0.00e+00	0	41	0	25165824	58	6907
2026-01-24 23:32:28.92	135.67	4.69	-43.2	-44.8	19.4	0.00e+00	0	41	0	27262976	58	7055
2026-01-24 23:32:29.93	135.64	4.76	-42.8	-44.2	19.5	0.00e+00	0	41	0	29360128	58	6614
2026-01-24 23:32:30.94	135.61	4.83	-42.6	-44.1	19.8	0.00e+00	0	41	0	30408704	58	6470
2026-01-24 23:32:31.95	135.59	4.90	-42.1	-43.4	20.3	0.00e+00	0	41	0	32505856	58	6010
2026-01-24 23:32:32.96	135.56	4.97	-41.5	-42.7	21.0	0.00e+00	0	41	0	34603008	56	6198
2026-01-24 23:32:33.97	135.53	5.04	-41.4	-42.5	21.2	0.00e+00	0	41	0	36700160	56	6092
2026-01-24 23:32:34.98	135.51	5.11	-41.3	-42.5	21.2	0.00e+00	0	41	0	38797312	56	6079
2026-01-24 23:32:35.99	135.48	5.18	-41.1	-42.3	21.4	0.00e+00	0	41	0	39845888	56	5915
2026-01-24 23:32:37.00	135.45	5.26	-41.5	-42.7	21.0	0.00e+00	0	41	0	41943040	56	6219
2026-01-24 23:32:38.00	135.43	5.33	-41.1	-42.2	21.5	0.00e+00	0	41	0	44040192	56	5871
2026-01-24 23:32:39.02	135.40	5.40	-41.3	-42.4	21.3	0.00e+00	0	41	0	46137344	56	6020
2026-01-24 23:32:40.02	135.37	5.47	-41.4	-42.6	21.1	0.00e+00	0	41	0	48234496	56	6122
2026-01-24 23:32:41.03	135.35	5.54	-41.3	-42.5	21.2	0.00e+00	0	41	0	49283072	56	6061
2026-01-24 23:32:42.04	135.32	5.62	-41.4	-42.6	21.1	0.00e+00	0	41	0	51380224	56	6160
2026-01-24 23:32:43.05	135.29	5.69	-41.8	-43.0	20.8	0.00e+00	0	41	0	53477376	56	6435
2026-01-24 23:32:44.06	135.26	5.76	-41.5	-42.7	21.1	0.00e+00	0	41	0	55574528	56	6227
2026-01-24 23:32:45.06	135.23	5.84	-41.4	-42.6	21.1	0.00e+00	0	41	0	57671680	56	6160
2026-01-24 23:32:46.07	135.21	5.91	-41.5	-42.7	21.0	0.00e+00	0	41	0	58720256	56	6243
2026-01-24 23:32:47.08	135.18	5.98	-41.6	-42.8	21.1	0.00e+00	0	41	0	60817408	56	6311
2026-01-24 23:32:48.09	135.15	6.06	-41.6	-42.8	21.1	0.00e+00	0	41	0	62914560	56	6249
2026-01-24 23:32:49.09	135.12	6.13	-41.4	-42.6	21.1	0.00e+00	0	41	0	65011712	56	6146
2026-01-24 23:32:50.10	135.09	6.21	-41.9	-43.1	20.9	0.00e+00	0	41	0	67108864	56	6492
2026-01-24 23:32:51.11	135.06	6.28	-41.6	-42.8	21.1	0.00e+00	0	41	0	68157440	56	6288
2026-01-24 23:32:52.12	135.03	6.36	-41.5	-42.7	21.2	0.00e+00	0	41	0	70254592	56	6195
2026-01-24 23:32:53.13	135.00	6.43	-41.3	-42.5	21.3	0.00e+00	0	41	0	72351744	56	6048
2026-01-24 23:32:54.14	134.98	6.51	-41.0	-42.1	21.7	0.00e+00	0	41	0	74448896	56	5788
2026-01-24 23:32:55.15	134.95	6.58	-41.5	-42.7	21.2	0.00e+00	0	41	0	76546048	56	6216
2026-01-24 23:32:56.16	134.92	6.66	-41.5	-42.7	21.2	0.00e+00	0	41	0	77594624	56	6201
2026-01-24 23:32:57.17	134.89	6.73	-41.3	-42.4	21.4	0.00e+00	0	41	0	79691776	56	6008
2026-01-24 23:32:58.18	134.86	6.81	-41.7	-42.9	21.1	0.00e+00	0	41	0	81788928	56	6332
2026-01-24 23:32:59.18	134.83	6.88	-41.3	-42.5	21.3	0.00e+00	0	41	0	83886080	56	6074
2026-01-24 23:33:00.19	134.79	6.96	-41.4	-42.6	21.2	0.00e+00	0	41	0	85983232	56	6163
2026-01-24 23:33:01.20	134.76	7.04	-41.5	-42.7	21.2	0.00e+00	0	41	0	87031808	56	6223
2026-01-24 23:33:02.21	134.73	7.12	-41.8	-43.0	20.9	0.00e+00	0	41	0	89128960	56	6444
2026-01-24 23:33:03.22	134.70	7.19	-41.6	-42.8	21.1	0.00e+00	0	41	0	91226112	56	6311
2026-01-24 23:33:04.22	134.67	7.27	-42.0	-43.3	20.8	0.00e+00	0	41	0	93323264	56	6617
2026-01-24 23:33:05.23	134.64	7.35	-41.7	-42.9	21.0	0.00e+00	0	41	0	95420416	56	6354
2026-01-24 23:33:06.24	134.61	7.42	-41.2	-42.3	21.6	0.00e+00	0	41	0	96468992	56	5955
2026-01-24 23:33:07.25	134.58	7.50	-41.2	-42.4	21.7	0.00e+00	0	41	0	98566144	56	5974
2026-01-24 23:33:08.26	134.54	7.58	-41.3	-42.5	21.4	0.00e+00	0	41	0	100663296	56	6053
2026-01-24 23:33:09.27	134.51	7.66	-41.5	-42.7	21.3	0.00e+00	0	41	0	102760448	56	6194
2026-01-24 23:33:10.28	134.48	7.74	-40.9	-42.1	21.7	0.00e+00	0	41	0	104857600	56	5791
2026-01-24 23:33:11.29	134.45	7.82	-41.1	-42.3	21.5	0.00e+00	0	41	0	105906176	56	5946
2026-01-24 23:33:12.30	134.41	7.90	-41.1	-42.3	21.6	0.00e+00	0	41	0	108003328	56	5898
2026-01-24 23:33:13.30	134.38	7.98	-41.2	-42.4	21.5	0.00e+00	0	41	0	110100480	56	5979
2026-01-24 23:33:14.31	134.35	8.06	-41.3	-42.5	21.4	0.00e+00	0	41	0	112197632	56	6058
2026-01-24 23:33:15.32	134.31	8.14	-41.2	-42.4	21.5	0.00e+00	0	41	0	114294784	56	6006
2026-01-24 23:33:16.33	134.28	8.22	-41.4	-42.6	21.4	0.00e+00	0	41	0	116391936	56	6133
2026-01-24 23:33:17.34	134.25	8.30	-41.3	-42.5	21.5	0.00e+00	0	41	0	117440512	56	6036
2026-01-24 23:33:18.35	134.21	8.38	-41.2	-42.4	21.6	0.00e+00	0	41	0	119537664	56	5981
2026-01-24 23:33:19.36	134.18	8.46	-41.1	-42.2	21.7	0.00e+00	0	41	0	121634816	56	5891
2026-01-24 23:33:20.37	134.14	8.54	-41.2	-42.4	21.6	0.00e+00	0	41	0	123731968	56	5978
2026-01-24 23:33:21.38	134.11	8.62	-41.2	-42.4	21.6	0.00e+00	0	41	0	125829120	56	5970
2026-01-24 23:33:22.38	134.08	8.70	-40.8	-41.9	22.0	0.00e+00	0	41	0	126877696	56	5647
2026-01-24 23:33:23.39	134.04	8.79	-40.6	-41.6	22.1	0.00e+00	0	41	0	128974848	54	6171
2026-01-24 23:33:24.40	134.01	8.87	-40.8	-41.8	22.0	0.00e+00	0	41	0	131072000	54	6284
2026-01-24 23:33:25.41	133.97	8.95	-40.5	-41.5	22.2	0.00e+00	0	41	0	133169152	54	6058
2026-01-24 23:33:26.42	133.93	9.03	-40.7	-41.7	22.1	0.00e+00	0	41	0	134217728	54	6209
2026-01-24 23:33:27.43	133.90	9.12	-40.6	-41.6	22.2	0.00e+00	0	41	0	136314880	54	6163
2026-01-24 23:33:28.44	133.86	9.20	-40.6	-41.7	22.1	0.00e+00	0	41	0	138412032	54	6196
2026-01-24 23:33:29.45	133.83	9.28	-40.5	-41.6	22.3	0.00e+00	0	41	0	140509184	54	6118
2026-01-24 23:33:30.46	133.79	9.37	-40.4	-41.5	22.2	0.00e+00	0	41	0	142606336	54	6040
2026-01-24 23:33:31.47	133.75	9.45	-40.8	-41.9	21.9	0.00e+00	0	41	0	144703488	54	6346
2026-01-24 23:33:32.48	133.72	9.54	-40.9	-42.0	21.8	0.00e+00	0	41	0	145752064	54	6421
2026-01-24 23:33:33.49	133.68	9.62	-41.0	-42.1	21.7	0.00e+00	0	41	0	147849216	54	6497
2026-01-24 23:33:34.50	133.64	9.71	-41.0	-42.1	21.8	0.00e+00	0	41	0	149946368	54	6501
2026-01-24 23:33:35.51	133.60	9.79	-40.8	-41.8	22.0	0.00e+00	0	41	0	152043520	54	6314
2026-01-24 23:33:36.51	133.57	9.88	-40.6	-41.6	22.2	0.00e+00	0	41	0	154140672	54	6157
2026-01-24 23:33:37.52	133.53	9.96	-41.0	-42.1	21.8	0.00e+00	0	41	0	155189248	54	6492
2026-01-24 23:33:38.53	133.49	10.05	-40.7	-41.8	21.7	0.00e+00	0	41	0	157286400	54	6288
2026-01-24 23:33:39.54	133.45	10.13	-40.5	-41.5	22.3	0.00e+00	0	41	0	159383552	54	6063
2026-01-24 23:33:40.55	133.41	10.22	-40.6	-41.6	21.9	0.00e+00	0	41	0	161480704	54	6171
2026-01-24 23:33:41.56	133.37	10.31	-40.6	-41.7	22.2	0.00e+00	0	41	0	163577856	54	6202
2026-01-24 23:33:42.57	133.33	10.39	-40.4	-41.4	22.3	0.00e+00	0	41	0	164626432	54	5985
2026-01-24 23:33:43.58	133.29	10.48	-40.2	-41.2	22.7	0.00e+00	0	41	0	166723584	54	5865
2026-01-24 23:33:44.59	133.25	10.57	-40.3	-41.3	22.4	0.00e+00	0	41	0	168820736	54	5959
2026-01-24 23:33:45.60	133.21	10.66	-40.1	-41.1	22.5	0.00e+00	0	41	0	170917888	54	5814
2026-01-24 23:33:46.60	133.17	10.75	-40.1	-41.1	22.6	0.00e+00	0	41	0	173015040	54	5794
2026-01-24 23:33:47.61	133.13	10.84	-40.5	-41.5	22.4	0.00e+00	0	41	0	174063616	54	6077
2026-01-24 23:33:48.62	133.09	10.92	-40.4	-41.4	22.4	0.00e+00	0	41	0	176160768	54	6007
2026-01-24 23:33:49.63	133.05	11.01	-40.4	-41.4	22.4	0.00e+00	0	41	0	178257920	54	6003
2026-01-24 23:33:50.64	133.01	11.10	-40.5	-41.5	22.3	0.00e+00	0	41	0	180355072	54	6093
2026-01-24 23:33:51.65	132.97	11.19	-40.2	-41.2	22.7	0.00e+00	0	41	0	182452224	54	5861
2026-01-24 23:33:52.66	132.92	11.28	-40.3	-41.3	22.5	0.00e+00	0	41	0	183500800	54	5928
2026-01-24 23:33:53.67	132.88	11.37	-40.0	-41.0	22.8	0.00e+00	0	41	0	185597952	54	5741
2026-01-24 23:33:54.68	132.84	11.47	-40.0	-40.9	22.9	0.00e+00	0	41	0	187695104	54	5660
2026-01-24 23:33:55.69	132.80	11.56	-40.1	-41.0	22.8	0.00e+00	0	41	0	189792256	54	5739
2026-01-24 23:33:56.70	132.75	11.65	-39.8	-40.8	23.0	0.00e+00	0	41	0	191889408	54	5582
2026-01-24 23:33:57.71	132.71	11.74	-39.8	-40.7	23.0	0.00e+00	0	41	0	192937984	52	6232
2026-01-24 23:33:58.72	132.67	11.83	-39.6	-40.5	23.2	0.00e+00	0	41	0	195035136	52	6066
2026-01-24 23:33:59.73	132.62	11.93	-39.4	-40.3	23.3	0.00e+00	0	41	0	197132288	52	5905
2026-01-24 23:34:00.74	132.58	12.02	-39.8	-40.7	23.0	0.00e+00	0	41	0	199229440	52	6224
2026-01-24 23:34:01.75	132.53	12.11	-39.7	-40.7	23.1	0.00e+00	0	41	0	201326592	52	6183
2026-01-24 23:34:02.76	132.49	12.21	-39.6	-40.6	23.2	0.00e+00	0	41	0	202375168	52	6117
2026-01-24 23:34:03.76	132.44	12.30	-39.9	-40.8	22.9	0.00e+00	0	41	0	204472320	52	6297
2026-01-24 23:34:04.77	132.40	12.39	-39.9	-40.9	22.9	0.00e+00	0	41	0	206569472	52	6325
2026-01-24 23:34:05.78	132.35	12.49	-40.1	-41.1	22.7	0.00e+00	0	41	0	208666624	52	6475
2026-01-24 23:34:06.79	132.30	12.58	-40.1	-41.0	22.8	0.00e+00	0	41	0	210763776	52	6461
2026-01-24 23:34:07.80	132.26	12.68	-39.8	-40.7	23.1	0.00e+00	0	41	0	212860928	52	6240
2026-01-24 23:34:08.81	132.21	12.77	-39.8	-40.8	23.1	0.00e+00	0	41	0	213909504	52	6263
2026-01-24 23:34:09.82	132.16	12.87	-39.6	-40.6	23.2	0.00e+00	0	41	0	216006656	52	6129
2026-01-24 23:34:10.83	132.12	12.97	-39.8	-40.7	23.2	0.00e+00	0	41	0	218103808	52	6218
2026-01-24 23:34:11.84	132.07	13.06	-39.6	-40.6	23.2	0.00e+00	0	41	0	220200960	52	6113
2026-01-24 23:34:12.85	132.02	13.16	-39.5	-40.4	23.4	0.00e+00	0	41	0	222298112	52	5965
2026-01-24 23:34:13.86	131.97	13.26	-39.5	-40.4	23.3	0.00e+00	0	41	0	223346688	52	5975
2026-01-24 23:34:14.86	131.92	13.35	-39.4	-40.3	23.4	0.00e+00	0	41	0	225443840	52	5935
2026-01-24 23:34:15.87	131.87	13.45	-39.4	-40.2	23.5	0.00e+00	0	41	0	227540992	52	5895
2026-01-24 23:34:16.88	131.82	13.55	-39.6	-40.5	23.3	0.00e+00	0	42	0	229638144	52	6041
2026-01-24 23:34:17.89	131.77	13.65	-39.7	-40.6	23.2	0.00e+00	0	41	0	231735296	52	6166
2026-01-24 23:34:18.90	131.72	13.75	-39.7	-40.7	23.1	0.00e+00	0	42	0	232783872	52	6194
2026-01-24 23:34:19.91	131.67	13.85	-39.6	-40.6	23.3	0.00e+00	0	42	0	234881024	52	6107
2026-01-24 23:34:20.92	131.62	13.95	-39.8	-40.7	23.1	0.00e+00	0	42	0	236978176	52	6219
2026-01-24 23:34:21.93	131.57	14.05	-39.7	-40.7	23.1	0.00e+00	0	42	0	239075328	52	6191
2026-01-24 23:34:22.94	131.52	14.15	-40.0	-41.0	22.9	0.00e+00	0	42	0	241172480	52	6429
2026-01-24 23:34:23.94	131.47	14.25	-39.6	-40.5	23.3	0.00e+00	0	41	0	242221056	52	6081
2026-01-24 23:34:24.95	131.41	14.35	-39.6	-40.6	23.2	0.00e+00	0	42	0	244318208	52	6111
2026-01-24 23:34:25.96	131.36	14.46	-39.8	-40.7	23.2	0.00e+00	0	42	0	246415360	52	6245
2026-01-24 23:34:26.97	131.31	14.56	-39.8	-40.7	23.1	0.00e+00	0	41	0	248512512	52	6231
2026-01-24 23:34:27.99	131.25	14.66	-39.8	-40.7	23.2	0.00e+00	0	42	0	250609664	52	6206
2026-01-24 23:34:28.99	131.20	14.77	-39.9	-40.8	23.0	0.00e+00	0	42	0	251658240	52	6314
2026-01-24 23:34:30.00	131.15	14.87	-39.8	-40.8	23.1	0.00e+00	0	42	0	253755392	52	6283
2026-01-24 23:34:31.01	131.09	14.97	-39.8	-40.7	23.1	0.00e+00	0	41	0	255852544	52	6242
2026-01-24 23:34:32.02	131.04	15.08	-39.7	-40.6	23.2	0.00e+00	0	41	0	257949696	52	6169
2026-01-24 23:34:33.03	130.98	15.18	-39.9	-40.8	23.0	0.00e+00	0	41	0	260046848	52	6300
2026-01-24 23:34:34.04	130.92	15.29	-39.6	-40.5	23.4	0.00e+00	0	41	0	261095424	52	6086
2026-01-24 23:34:35.05	130.87	15.39	-39.8	-40.7	23.1	0.00e+00	0	41	0	263192576	52	6231
2026-01-24 23:34:36.06	130.81	15.50	-39.7	-40.6	23.2	0.00e+00	0	42	0	265289728	52	6168
2026-01-24 23:34:37.07	130.75	15.61	-39.4	-40.3	23.5	0.00e+00	0	41	0	267386880	52	5942
2026-01-24 23:34:38.08	130.70	15.72	-39.5	-40.3	23.4	0.00e+00	0	42	0	269484032	52	5959
2026-01-24 23:34:39.09	130.64	15.82	-39.4	-40.3	23.5	0.00e+00	0	41	0	270532608	52	5937
2026-01-24 23:34:40.10	130.58	15.93	-39.4	-40.3	23.5	0.00e+00	0	41	0	272629760	52	5932
2026-01-24 23:34:41.10	130.52	16.04	-39.3	-40.1	23.7	0.00e+00	0	42	0	274726912	52	5821
2026-01-24 23:34:42.11	130.46	16.15	-39.6	-40.5	23.4	0.00e+00	0	41	0	276824064	52	6036
2026-01-24 23:34:43.12	130.40	16.26	-39.5	-40.4	23.5	0.00e+00	0	41	0	278921216	52	5975
2026-01-24 23:34:44.13	130.34	16.37	-39.5	-40.5	23.3	0.00e+00	0	41	0	281018368	52	6034
2026-01-24 23:34:45.14	130.28	16.48	-39.7	-40.7	23.3	0.00e+00	0	42	0	282066944	52	6194
2026-01-24 23:34:46.15	130.22	16.59	-39.6	-40.5	23.4	0.00e+00	0	41	0	284164096	52	6076
2026-01-24 23:34:47.16	130.16	16.70	-39.3	-40.2	23.6	0.00e+00	0	41	0	286261248	52	5893
2026-01-24 23:34:48.17	130.09	16.81	-39.5	-40.4	23.4	0.00e+00	0	41	0	288358400	52	6000
2026-01-24 23:34:49.18	130.03	16.92	-39.4	-40.4	23.5	0.00e+00	0	42	0	290455552	52	5976
2026-01-24 23:34:50.19	129.97	17.04	-39.3	-40.2	23.6	0.00e+00	0	42	0	291504128	52	5830
2026-01-24 23:34:51.20	129.90	17.15	-39.4	-40.3	23.5	0.00e+00	0	41	0	293601280	52	5942
2026-01-24 23:34:52.21	129.84	17.26	-39.4	-40.3	23.5	0.00e+00	0	41	0	295698432	52	5911
2026-01-24 23:34:53.22	129.77	17.38	-39.5	-40.5	23.5	0.00e+00	0	41	0	297795584	52	6039
2026-01-24 23:34:54.23	129.71	17.49	-39.5	-40.4	23.5	0.00e+00	0	41	0	299892736	52	6033
2026-01-24 23:34:55.24	129.64	17.61	-39.7	-40.7	23.2	0.00e+00	0	41	0	300941312	52	6196
2026-01-24 23:34:56.25	129.58	17.72	-39.8	-40.8	23.2	0.00e+00	0	41	0	303038464	52	6278
2026-01-24 23:34:57.26	129.51	17.84	-39.8	-40.8	23.2	0.00e+00	0	41	0	305135616	52	6255
2026-01-24 23:34:58.27	129.44	17.96	-40.0	-40.9	23.0	0.00e+00	0	41	0	307232768	52	6377
2026-01-24 23:34:59.28	129.37	18.07	-40.0	-41.0	23.0	0.00e+00	0	42	0	309329920	52	6411
2026-01-24 23:35:00.28	129.31	18.19	-40.1	-41.1	23.0	0.00e+00	0	42	0	310378496	52	6504
2026-01-24 23:35:01.29	129.24	18.31	-40.1	-41.1	23.0	0.00e+00	0	41	0	312475648	52	6478
2026-01-24 23:35:02.30	129.17	18.43	-39.8	-40.7	23.4	0.00e+00	0	41	0	314572800	52	6240
2026-01-24 23:35:03.31	129.10	18.55	-39.6	-40.5	23.4	0.00e+00	0	42	0	316669952	52	6079
2026-01-24 23:35:04.32	129.02	18.67	-39.6	-40.5	23.4	0.00e+00	0	42	0	318767104	52	6094
2026-01-24 23:35:05.33	128.95	18.79	-39.7	-40.6	23.2	0.00e+00	0	41	0	319815680	52	6162
2026-01-24 23:35:06.34	128.88	18.91	-39.8	-40.7	23.2	0.00e+00	0	41	0	321912832	52	6244
2026-01-24 23:35:07.35	128.81	19.03	-39.9	-40.8	23.2	0.00e+00	0	41	0	324009984	52	6294
2026-01-24 23:35:08.36	128.74	19.15	-39.9	-40.9	23.2	0.00e+00	0	41	0	326107136	52	6348
2026-01-24 23:35:09.37	128.66	19.27	-39.9	-40.8	23.2	0.00e+00	0	41	0	328204288	52	6284
2026-01-24 23:35:10.38	128.59	19.40	-39.9	-40.8	23.3	0.00e+00	0	41	0	329252864	52	6281
2026-01-24 23:35:11.38	128.51	19.52	-39.8	-40.8	23.3	0.00e+00	0	41	0	331350016	52	6246
2026-01-24 23:35:12.39	128.44	19.64	-39.7	-40.6	23.3	0.00e+00	0	41	0	333447168	52	6117
2026-01-24 23:35:13.40	128.36	19.77	-39.9	-40.8	23.2	0.00e+00	0	42	0	335544320	52	6280
2026-01-24 23:35:14.41	128.28	19.89	-40.0	-40.9	23.2	0.00e+00	0	41	0	337641472	52	6342
2026-01-24 23:35:15.42	128.21	20.02	-39.9	-40.8	23.4	0.00e+00	0	41	0	338690048	52	6251
2026-01-24 23:35:16.43	128.13	20.15	-40.1	-41.0	23.1	0.00e+00	0	41	0	340787200	52	6421
2026-01-24 23:35:17.44	128.05	20.27	-40.4	-41.4	22.8	0.00e+00	0	41	0	342884352	52	6726
2026-01-24 23:35:18.45	127.97	20.40	-40.3	-41.3	22.9	0.00e+00	0	42	0	344981504	52	6624
2026-01-24 23:35:19.46	127.89	20.53	-40.2	-41.2	22.9	0.00e+00	0	41	0	347078656	52	6572
2026-01-24 23:35:20.47	127.81	20.66	-40.4	-41.4	22.8	0.00e+00	0	41	0	348127232	52	6727
2026-01-24 23:35:21.48	127.72	20.79	-40.7	-41.7	22.6	0.00e+00	0	41	0	350224384	52	6943
2026-01-24 23:35:22.49	127.64	20.92	-40.7	-41.7	22.5	0.00e+00	0	41	0	352321536	54	6225
2026-01-24 23:35:23.50	127.56	21.05	-40.6	-41.6	22.6	0.00e+00	0	41	0	354418688	54	6166
2026-01-24 23:35:24.51	127.47	21.18	-40.5	-41.4	22.7	0.00e+00	0	41	0	356515840	54	6030
2026-01-24 23:35:25.52	127.39	21.31	-40.5	-41.6	22.7	0.00e+00	0	41	0	357564416	54	6116
2026-01-24 23:35:26.53	127.30	21.45	-40.7	-41.7	22.5	0.00e+00	0	41	0	359661568	54	6214
2026-01-24 23:35:27.54	127.22	21.58	-40.7	-41.7	22.4	0.00e+00	0	41	0	361758720	54	6233
2026-01-24 23:35:28.55	127.13	21.71	-40.7	-41.8	22.4	0.00e+00	0	41	0	363855872	54	6271
2026-01-24 23:35:29.56	127.04	21.85	-40.8	-41.9	22.3	0.00e+00	0	41	0	365953024	54	6335
2026-01-24 23:35:30.57	126.95	21.98	-41.1	-42.3	22.1	0.00e+00	0	41	0	367001600	54	6619
2026-01-24 23:35:31.57	126.87	22.12	-40.8	-41.9	22.4	0.00e+00	0	41	0	369098752	54	6353
2026-01-24 23:35:32.58	126.78	22.25	-40.5	-41.5	22.6	0.00e+00	0	41	0	371195904	54	6080
2026-01-24 23:35:33.59	126.68	22.39	-40.7	-41.7	22.6	0.00e+00	0	41	0	373293056	54	6237
2026-01-24 23:35:34.60	126.59	22.53	-40.6	-41.6	22.6	0.00e+00	0	42	0	375390208	54	6118
2026-01-24 23:35:35.61	126.50	22.67	-40.7	-41.7	22.6	0.00e+00	0	41	0	377487360	54	6228
2026-01-24 23:35:36.62	126.41	22.81	-40.8	-41.8	22.5	0.00e+00	0	42	0	378535936	54	6261
2026-01-24 23:35:37.63	126.31	22.95	-40.7	-41.7	22.6	0.00e+00	0	41	0	380633088	54	6175
2026-01-24 23:35:38.64	126.22	23.09	-40.9	-41.9	22.4	0.00e+00	0	42	0	382730240	54	6389
2026-01-24 23:35:39.65	126.12	23.23	-40.7	-41.7	22.6	0.00e+00	0	41	0	384827392	54	6244
2026-01-24 23:35:40.66	126.02	23.37	-40.7	-41.7	22.6	0.00e+00	0	41	0	386924544	54	6212
2026-01-24 23:35:41.67	125.93	23.51	-40.7	-41.7	22.8	0.00e+00	0	41	0	387973120	54	6176
2026-01-24 23:35:42.68	125.83	23.65	-40.7	-41.7	22.5	0.00e+00	0	41	0	390070272	54	6231
2026-01-24 23:35:43.69	125.73	23.80	-41.1	-42.2	22.2	0.00e+00	0	41	0	392167424	54	6543
2026-01-24 23:35:44.69	125.63	23.94	-40.9	-41.9	22.5	0.00e+00	0	41	0	394264576	54	6328
2026-01-24 23:35:45.70	125.53	24.09	-41.2	-42.3	22.1	0.00e+00	0	41	0	396361728	54	6649
2026-01-24 23:35:46.71	125.42	24.23	-41.4	-42.5	21.8	0.00e+00	0	41	0	397410304	54	6816
2026-01-24 23:35:47.72	125.32	24.38	-41.7	-42.8	21.6	0.00e+00	0	41	0	399507456	54	7088
2026-01-24 23:35:48.73	125.21	24.53	-41.8	-43.0	21.5	0.00e+00	0	41	0	401604608	56	6430
2026-01-24 23:35:49.74	125.11	24.67	-41.6	-42.7	21.6	0.00e+00	0	41	0	403701760	56	6234
2026-01-24 23:35:50.75	125.00	24.82	-41.3	-42.5	21.9	0.00e+00	0	41	0	405798912	56	6042
2026-01-24 23:35:51.76	124.89	24.97	-41.8	-43.0	21.6	0.00e+00	0	41	0	406847488	56	6406
2026-01-24 23:35:52.77	124.78	25.12	-41.3	-42.4	22.0	0.00e+00	0	41	0	408944640	56	6006
2026-01-24 23:35:53.78	124.67	25.27	-41.1	-42.2	22.2	0.00e+00	0	41	0	411041792	56	5851
2026-01-24 23:35:54.78	124.56	25.43	-41.4	-42.4	22.1	0.00e+00	0	41	0	413138944	56	6026
2026-01-24 23:35:55.79	124.45	25.58	-41.4	-42.5	21.9	0.00e+00	0	41	0	415236096	56	6074
2026-01-24 23:35:56.80	124.34	25.73	-41.2	-42.2	22.2	0.00e+00	0	41	0	416284672	56	5872
2026-01-24 23:35:57.81	124.22	25.88	-41.5	-42.6	21.8	0.00e+00	0	41	0	418381824	56	6172
2026-01-24 23:35:58.82	124.11	26.04	-41.7	-42.9	21.7	0.00e+00	0	41	0	420478976	56	6328
2026-01-24 23:35:59.83	123.99	26.20	-42.1	-43.3	21.3	0.00e+00	0	41	0	422576128	56	6663
2026-01-24 23:36:00.84	123.87	26.35	-41.4	-42.5	22.0	0.00e+00	0	41	0	424673280	56	6064
2026-01-24 23:36:01.85	123.76	26.51	-41.5	-42.5	21.9	0.00e+00	0	41	0	425721856	56	6072
2026-01-24 23:36:02.86	123.64	26.67	-41.6	-42.7	21.8	0.00e+00	0	41	0	427819008	56	6210
2026-01-24 23:36:03.87	123.51	26.83	-41.8	-42.9	21.5	0.00e+00	0	41	0	429916160	56	6338
2026-01-24 23:36:04.88	123.39	26.98	-42.0	-43.1	21.5	0.00e+00	0	41	0	432013312	56	6522
2026-01-24 23:36:05.89	123.27	27.15	-42.2	-43.4	21.2	0.00e+00	0	41	0	434110464	56	6729
2026-01-24 23:36:06.90	123.14	27.31	-41.6	-42.7	21.7	0.00e+00	0	41	0	435159040	56	6234
2026-01-24 23:36:07.90	123.02	27.47	-42.0	-43.2	21.6	0.00e+00	0	41	0	437256192	56	6565
2026-01-24 23:36:08.91	122.89	27.63	-41.1	-42.2	22.3	0.00e+00	0	41	0	439353344	56	5837
2026-01-24 23:36:09.92	122.76	27.79	-41.0	-42.0	22.4	0.00e+00	0	41	0	441450496	56	5716
2026-01-24 23:36:10.93	122.63	27.96	-40.9	-41.8	22.4	0.00e+00	0	41	0	443547648	56	5607
2026-01-24 23:36:11.94	122.50	28.12	-40.8	-41.8	22.6	0.00e+00	0	41	0	445644800	54	6261
2026-01-24 23:36:12.95	122.36	28.29	-40.7	-41.7	22.1	0.00e+00	0	41	0	446693376	54	6212
2026-01-24 23:36:13.96	122.23	28.45	-41.2	-42.2	22.4	0.00e+00	0	41	0	448790528	54	6559
2026-01-24 23:36:14.97	122.09	28.62	-41.2	-42.3	22.2	0.00e+00	0	41	0	450887680	54	6619
2026-01-24 23:36:15.98	121.95	28.79	-41.5	-42.5	22.0	0.00e+00	0	41	0	452984832	54	6814
2026-01-24 23:36:16.99	121.81	28.96	-41.0	-42.0	22.4	0.00e+00	0	41	0	455081984	54	6421
2026-01-24 23:36:18.00	121.67	29.13	-40.9	-41.9	22.4	0.00e+00	0	41	0	456130560	54	6333
2026-01-24 23:36:19.01	121.53	29.30	-41.2	-42.2	22.1	0.00e+00	0	41	0	458227712	54	6604
2026-01-24 23:36:20.01	121.39	29.47	-41.6	-42.7	21.9	0.00e+00	0	41	0	460324864	54	6942
2026-01-24 23:36:21.02	121.24	29.64	-42.2	-43.3	21.2	0.00e+00	0	41	0	462422016	56	6674
2026-01-24 23:36:22.03	121.10	29.82	-41.6	-42.7	21.9	0.00e+00	0	41	0	464519168	56	6221
2026-01-24 23:36:23.04	120.95	29.99	-42.0	-43.1	21.6	0.00e+00	0	41	0	465567744	56	6507
2026-01-24 23:36:24.05	120.80	30.16	-42.4	-43.6	21.3	0.00e+00	0	41	0	467664896	56	6871
2026-01-24 23:36:25.06	120.65	30.34	-42.3	-43.4	21.3	0.00e+00	0	41	0	469762048	56	6756
2026-01-24 23:36:26.07	120.49	30.52	-42.0	-43.2	21.6	0.00e+00	0	41	0	471859200	56	6543
2026-01-24 23:36:27.08	120.34	30.69	-42.2	-43.4	21.2	0.00e+00	0	41	0	473956352	56	6695
2026-01-24 23:36:28.09	120.18	30.87	-42.6	-43.9	20.8	0.00e+00	0	41	0	475004928	58	6350
2026-01-24 23:36:29.10	120.02	31.05	-43.0	-44.3	20.4	0.00e+00	0	41	0	477102080	58	6680
2026-01-24 23:36:30.11	119.86	31.23	-42.8	-44.1	20.6	0.00e+00	0	41	0	479199232	58	6521
2026-01-24 23:36:31.12	119.70	31.41	-42.9	-44.2	20.5	0.00e+00	0	41	0	481296384	58	6552
2026-01-24 23:36:32.13	119.53	31.59	-42.6	-43.8	21.2	0.00e+00	0	41	0	483393536	58	6268
2026-01-24 23:36:33.14	119.37	31.78	-42.0	-43.2	21.1	0.00e+00	0	41	0	484442112	58	5844
2026-01-24 23:36:34.15	119.20	31.96	-42.4	-43.6	21.3	0.00e+00	0	41	0	486539264	58	6151
2026-01-24 23:36:35.15	119.03	32.14	-42.4	-43.6	20.7	0.00e+00	0	41	0	488636416	58	6160
2026-01-24 23:36:36.16	118.86	32.33	-42.9	-44.2	20.5	0.00e+00	0	41	0	490733568	58	6610
2026-01-24 23:36:37.17	118.69	32.51	-43.7	-45.2	19.7	0.00e+00	0	41	0	492830720	58	7372
2026-01-24 23:36:38.18	118.51	32.70	-43.5	-44.8	20.0	0.00e+00	0	41	0	493879296	58	7081
2026-01-24 23:36:39.19	118.33	32.89	-43.3	-44.6	20.3	0.00e+00	0	41	0	495976448	58	6888
2026-01-24 23:36:40.20	118.15	33.08	-42.7	-43.9	20.9	0.00e+00	0	41	0	498073600	58	6372
2026-01-24 23:36:41.21	117.97	33.27	-42.6	-43.8	21.0	0.00e+00	0	41	0	500170752	58	6291
2026-01-24 23:36:42.22	117.79	33.46	-43.2	-44.5	20.2	0.00e+00	0	41	0	502267904	58	6807
2026-01-24 23:36:43.23	117.60	33.65	-43.5	-44.8	20.1	0.00e+00	0	41	0	503316480	58	7081
2026-01-24 23:36:44.24	117.41	33.84	-44.0	-45.5	19.6	0.00e+00	0	41	0	505413632	60	6798
2026-01-24 23:36:45.25	117.22	34.03	-44.6	-46.3	18.9	0.00e+00	0	41	0	507510784	60	7449
2026-01-24 23:36:46.26	117.02	34.23	-45.5	-47.4	17.8	0.00e+00	0	41	0	509607936	60	8489
2026-01-24 23:36:47.26	116.83	34.42	-44.9	-46.7	18.3	0.00e+00	0	41	0	511705088	60	7794
2026-01-24 23:36:48.27	116.63	34.61	-45.1	-46.9	18.5	0.00e+00	0	41	0	513802240	60	7963
2026-01-24 23:36:49.28	116.43	34.81	-45.0	-46.8	18.3	0.00e+00	0	41	0	514850816	60	7866
2026-01-24 23:36:50.29	116.23	35.01	-44.9	-46.6	18.4	0.00e+00	0	41	0	516947968	60	7762
2026-01-24 23:36:51.29	116.02	35.20	-44.7	-46.4	18.6	0.00e+00	0	41	0	519045120	60	7590
2026-01-24 23:36:52.30	115.82	35.40	-44.3	-45.9	19.2	0.00e+00	0	41	0	521142272	60	7123
2026-01-24 23:36:53.31	115.61	35.60	-43.7	-45.1	19.8	0.00e+00	0	41	0	522190848	60	6504
2026-01-24 23:36:54.32	115.39	35.80	-43.7	-45.1	20.0	0.00e+00	0	41	0	524288000	60	6485
2026-01-24 23:36:55.33	115.18	36.00	-43.3	-44.6	20.4	0.00e+00	0	41	0	526385152	60	6173
2026-01-24 23:36:56.34	114.96	36.20	-43.1	-44.4	20.6	0.00e+00	0	41	0	528482304	60	6013
2026-01-24 23:36:57.35	114.74	36.41	-43.0	-44.3	20.6	0.00e+00	0	41	0	530579456	60	5923
2026-01-24 23:36:58.36	114.51	36.61	-42.3	-43.4	21.3	0.00e+00	0	41	0	531628032	58	6011
2026-01-24 23:36:59.37	114.28	36.81	-41.4	-42.4	22.2	0.00e+00	0	41	0	533725184	56	6014
2026-01-24 23:37:00.35	114.06	37.01	-41.2	-42.2	22.4	0.00e+00	0	41	0	535822336	56	5852
2026-01-24 23:37:01.35	113.83	37.21	-40.6	-41.6	22.2	0.00e+00	0	41	0	537919488	54	6115
2026-01-24 23:37:02.36	113.60	37.42	-41.1	-42.1	22.1	0.00e+00	0	41	0	540016640	54	6483
2026-01-24 23:37:03.37	113.36	37.63	-41.5	-42.6	22.0	0.00e+00	0	41	0	542113792	54	6856
2026-01-24 23:37:04.37	113.12	37.83	-41.5	-42.5	22.1	0.00e+00	0	41	0	543162368	56	6091
2026-01-24 23:37:05.38	112.87	38.04	-41.7	-42.8	21.9	0.00e+00	0	41	0	545259520	56	6271
2026-01-24 23:37:06.39	112.62	38.25	-41.9	-42.9	21.8	0.00e+00	0	41	0	547356672	56	6367
2026-01-24 23:37:07.40	112.37	38.46	-42.6	-43.8	21.0	0.00e+00	0	41	0	549453824	56	7015
2026-01-24 23:37:08.41	112.12	38.67	-43.2	-44.5	20.5	0.00e+00	0	41	0	550502400	58	6833
2026-01-24 23:37:09.41	111.86	38.88	-43.3	-44.6	20.2	0.00e+00	0	41	0	552599552	58	6907
2026-01-24 23:37:10.42	111.60	39.09	-43.0	-44.3	20.5	0.00e+00	0	41	0	554696704	58	6662
2026-01-24 23:37:11.43	111.33	39.30	-43.1	-44.4	20.3	0.00e+00	0	41	0	556793856	58	6745
2026-01-24 23:37:12.44	111.07	39.51	-43.9	-45.4	19.7	0.00e+00	0	41	0	558891008	58	7537
2026-01-24 23:37:13.45	110.79	39.73	-44.0	-45.5	19.5	0.00e+00	0	41	0	559939584	60	6811
2026-01-24 23:37:14.46	110.52	39.94	-44.4	-46.1	18.5	0.00e+00	0	41	0	562036736	60	7300
2026-01-24 23:37:15.47	110.24	40.16	-44.1	-45.7	19.5	0.00e+00	0	41	0	564133888	60	6978
2026-01-24 23:37:16.48	109.96	40.37	-43.9	-45.4	19.8	0.00e+00	0	41	0	566231040	60	6706
2026-01-24 23:37:17.49	109.67	40.59	-43.8	-45.2	19.8	0.00e+00	0	41	0	568328192	60	6560
2026-01-24 23:37:18.50	109.38	40.80	-43.8	-45.3	19.7	0.00e+00	0	41	0	570425344	60	6683
2026-01-24 23:37:19.50	109.09	41.02	-43.6	-45.1	19.9	0.00e+00	0	41	0	571473920	60	6467
2026-01-24 23:37:20.51	108.79	41.23	-44.0	-45.6	19.5	0.00e+00	0	41	0	573571072	60	6895
2026-01-24 23:37:21.52	108.48	41.45	-44.4	-46.0	19.1	0.00e+00	0	41	0	575668224	60	7244
2026-01-24 23:37:22.53	108.18	41.67	-43.9	-45.4	19.6	0.00e+00	0	41	0	577765376	60	6719
2026-01-24 23:37:23.53	107.87	41.88	-43.5	-45.0	20.1	0.00e+00	0	41	0	579862528	60	6411
2026-01-24 23:37:24.54	107.55	42.10	-42.9	-44.2	20.8	0.00e+00	0	41	0	580911104	60	5880
2026-01-24 23:37:25.55	107.24	42.32	-41.9	-43.0	21.5	0.00e+00	0	41	0	583008256	58	5707
2026-01-24 23:37:26.56	106.91	42.54	-41.7	-42.8	22.0	0.00e+00	0	41	0	585105408	56	6251
2026-01-24 23:37:27.57	106.58	42.76	-41.7	-42.9	21.7	0.00e+00	0	41	0	587202560	56	6325
2026-01-24 23:37:28.58	106.25	42.97	-42.5	-43.8	21.1	0.00e+00	0	41	0	589299712	56	7033
2026-01-24 23:37:29.59	105.91	43.19	-42.5	-43.8	21.3	0.00e+00	0	41	0	590348288	56	7012
2026-01-24 23:37:30.60	105.57	43.41	-42.3	-43.5	21.3	0.00e+00	0	41	0	592445440	56	6836
2026-01-24 23:37:31.61	105.22	43.63	-42.8	-44.0	20.6	0.00e+00	0	41	0	594542592	56	7211
2026-01-24 23:37:32.61	104.87	43.85	-43.3	-44.7	20.2	0.00e+00	0	41	0	596639744	58	6962
2026-01-24 23:37:33.62	104.52	44.07	-43.8	-45.3	19.6	0.00e+00	0	41	0	598736896	60	6638
2026-01-24 23:37:34.64	104.15	44.29	-44.2	-45.8	19.5	0.00e+00	0	41	0	599785472	60	7033
2026-01-24 23:37:35.65	103.78	44.51	-43.8	-45.3	19.9	0.00e+00	0	41	0	601882624	60	6623
2026-01-24 23:37:36.65	103.42	44.73	-44.5	-46.2	18.9	0.00e+00	0	41	0	603979776	60	7345
2026-01-24 23:37:37.66	103.04	44.95	-44.3	-46.0	19.1	0.00e+00	0	41	0	606076928	60	7181
2026-01-24 23:37:38.67	102.66	45.16	-44.3	-46.0	19.4	0.00e+00	0	41	0	608174080	60	7174
2026-01-24 23:37:39.68	102.27	45.38	-43.6	-45.0	20.2	0.00e+00	0	41	0	609222656	60	6459
2026-01-24 23:37:40.69	101.88	45.60	-43.4	-44.8	20.5	0.00e+00	0	41	0	611319808	60	6249
2026-01-24 23:37:41.70	101.48	45.82	-43.2	-44.5	20.5	0.00e+00	0	41	0	613416960	60	6080
2026-01-24 23:37:42.71	101.07	46.04	-43.2	-44.6	20.5	0.00e+00	0	41	0	615514112	60	6115
2026-01-24 23:37:43.72	100.66	46.25	-42.4	-43.6	21.1	0.00e+00	0	41	0	617611264	58	6147
2026-01-24 23:37:44.72	100.25	46.47	-41.7	-42.7	22.0	0.00e+00	0	41	0	618659840	58	5558
2026-01-24 23:37:45.73	99.83	46.68	-41.6	-42.6	21.9	0.00e+00	0	41	0	620756992	56	6124
2026-01-24 23:37:46.74	99.40	46.90	-41.5	-42.5	22.2	0.00e+00	0	41	0	622854144	56	6086
2026-01-24 23:37:47.75	98.97	47.11	-41.8	-42.8	21.8	0.00e+00	0	41	0	624951296	56	6292
2026-01-24 23:37:48.76	98.53	47.33	-42.0	-43.0	21.7	0.00e+00	0	41	0	627048448	56	6460
2026-01-24 23:37:49.77	98.09	47.54	-42.6	-43.8	21.0	0.00e+00	0	41	0	628097024	56	7032
2026-01-24 23:37:50.78	97.64	47.75	-42.7	-43.9	21.1	0.00e+00	0	41	0	630194176	58	6377
2026-01-24 23:37:51.79	97.18	47.96	-43.0	-44.3	20.8	0.00e+00	0	41	0	632291328	58	6683
2026-01-24 23:37:52.79	96.72	48.17	-43.1	-44.5	20.4	0.00e+00	0	41	0	634388480	58	6779
2026-01-24 23:37:53.81	96.24	48.38	-42.5	-43.7	21.2	0.00e+00	0	41	0	636485632	58	6216
2026-01-24 23:37:54.82	95.77	48.59	-42.3	-43.4	21.0	0.00e+00	0	41	0	638582784	58	6013
2026-01-24 23:37:55.83	95.28	48.80	-42.1	-43.3	21.4	0.00e+00	0	41	0	639631360	58	5931
2026-01-24 23:37:56.84	94.80	49.00	-42.5	-43.8	21.2	0.00e+00	0	41	0	641728512	58	6269
2026-01-24 23:37:57.85	94.30	49.21	-42.5	-43.8	21.2	0.00e+00	0	41	0	643825664	58	6249
2026-01-24 23:37:58.85	93.80	49.41	-41.3	-42.3	22.4	0.00e+00	0	41	0	645922816	56	5961
2026-01-24 23:37:59.86	93.29	49.61	-39.8	-40.6	23.7	0.00e+00	0	41	0	646971392	54	5474
2026-01-24 23:38:00.87	92.78	49.81	-39.4	-40.2	24.0	0.00e+00	0	41	0	649068544	52	5871
2026-01-24 23:38:01.88	92.25	50.01	-39.5	-40.4	23.7	0.00e+00	0	41	0	651165696	52	5971
2026-01-24 23:38:02.89	91.72	50.21	-39.6	-40.4	23.8	0.00e+00	0	41	0	653262848	52	6022
2026-01-24 23:38:03.90	91.19	50.40	-39.9	-40.8	23.5	0.00e+00	0	41	0	655360000	52	6281
2026-01-24 23:38:04.91	90.64	50.59	-40.0	-40.9	23.6	0.00e+00	0	41	0	656408576	52	6335
2026-01-24 23:38:05.92	90.09	50.78	-39.7	-40.6	23.7	0.00e+00	0	41	0	658505728	52	6132
2026-01-24 23:38:06.93	89.53	50.97	-39.6	-40.4	23.8	0.00e+00	0	41	0	660602880	52	6024
2026-01-24 23:38:07.93	88.97	51.16	-40.3	-41.2	23.2	0.00e+00	0	41	0	662700032	52	6603
2026-01-24 23:38:08.94	88.40	51.34	-40.8	-41.7	22.8	0.00e+00	0	41	0	664797184	52	6998
2026-01-24 23:38:09.95	87.82	51.52	-41.1	-42.2	22.4	0.00e+00	0	41	0	666894336	54	6574
2026-01-24 23:38:10.96	87.24	51.70	-40.7	-41.7	22.8	0.00e+00	0	41	0	667942912	54	6210
2026-01-24 23:38:11.97	86.64	51.88	-40.1	-41.1	23.4	0.00e+00	0	41	0	670040064	54	5775
2026-01-24 23:38:12.98	86.04	52.05	-40.3	-41.3	23.3	0.00e+00	0	41	0	672137216	54	5916
2026-01-24 23:38:13.99	85.44	52.23	-40.7	-41.8	22.7	0.00e+00	0	41	0	674234368	54	6254
2026-01-24 23:38:15.00	84.82	52.39	-40.7	-41.8	22.8	0.00e+00	0	41	0	676331520	54	6255
2026-01-24 23:38:16.01	84.20	52.56	-40.5	-41.6	22.7	0.00e+00	0	41	0	677380096	54	6120
2026-01-24 23:38:17.02	83.57	52.72	-41.1	-42.2	22.5	0.00e+00	0	41	0	679477248	54	6596
2026-01-24 23:38:18.03	82.94	52.88	-40.7	-41.6	22.9	0.00e+00	0	41	0	681574400	54	6173
2026-01-24 23:38:19.04	82.30	53.04	-40.1	-41.0	23.4	0.00e+00	0	41	0	683671552	54	5755
2026-01-24 23:38:20.05	81.65	53.19	-39.4	-40.3	23.9	0.00e+00	0	41	0	685768704	52	5910
2026-01-24 23:38:21.05	81.00	53.34	-39.6	-40.5	23.7	0.00e+00	0	41	0	686817280	52	6056
2026-01-24 23:38:22.06	80.33	53.49	-39.5	-40.4	23.8	0.00e+00	0	41	0	688914432	52	5972
2026-01-24 23:38:23.07	79.67	53.63	-39.7	-40.6	23.7	0.00e+00	0	41	0	691011584	52	6122
2026-01-24 23:38:24.08	78.99	53.77	-40.5	-41.5	22.9	0.00e+00	0	41	0	693108736	52	6773
2026-01-24 23:38:25.09	78.31	53.91	-40.4	-41.3	23.1	0.00e+00	0	41	0	695205888	52	6683
2026-01-24 23:38:26.10	77.62	54.04	-40.4	-41.3	23.2	0.00e+00	0	41	0	696254464	52	6665
2026-01-24 23:38:27.11	76.92	54.17	-40.8	-41.9	22.7	0.00e+00	0	41	0	698351616	54	6331
2026-01-24 23:38:28.12	76.22	54.29	-40.5	-41.5	22.9	0.00e+00	0	41	0	700448768	54	6094
2026-01-24 23:38:29.13	75.52	54.41	-39.8	-40.7	23.5	0.00e+00	0	41	0	702545920	52	6212
2026-01-24 23:38:30.14	74.80	54.53	-39.3	-40.2	24.0	0.00e+00	0	41	0	704643072	52	5848
2026-01-24 23:38:31.15	74.08	54.64	-39.6	-40.5	23.6	0.00e+00	0	41	0	705691648	52	6090
2026-01-24 23:38:32.16	73.36	54.75	-40.0	-41.0	23.3	0.00e+00	0	41	0	707788800	52	6408
2026-01-24 23:38:33.17	72.63	54.85	-39.9	-40.8	23.6	0.00e+00	0	41	0	709885952	52	6271
2026-01-24 23:38:34.17	71.90	54.95	-39.6	-40.6	23.8	0.00e+00	0	41	0	711983104	52	6108
2026-01-24 23:38:35.19	71.16	55.05	-39.4	-40.3	24.0	0.00e+00	0	41	0	714080256	52	5939
2026-01-24 23:38:36.20	70.41	55.13	-39.1	-39.9	24.3	0.00e+00	0	41	0	715128832	52	5686
2026-01-24 23:38:37.20	69.67	55.22	-38.4	-39.2	24.5	0.00e+00	0	41	0	717225984	50	5845
2026-01-24 23:38:38.21	68.92	55.30	-38.2	-39.1	24.9	0.00e+00	0	41	0	719323136	50	5767
2026-01-24 23:38:39.22	68.16	55.37	-37.8	-38.6	25.1	0.00e+00	0	41	0	721420288	50	5466
2026-01-24 23:38:40.23	67.40	55.44	-38.0	-38.8	24.9	0.00e+00	0	41	0	723517440	50	5594
2026-01-24 23:38:41.24	66.63	55.51	-38.8	-39.7	24.4	0.00e+00	0	41	0	724566016	50	6234
2026-01-24 23:38:42.25	65.86	55.57	-38.6	-39.5	24.4	0.00e+00	0	41	0	726663168	50	6069
2026-01-24 23:38:43.26	65.09	55.63	-38.4	-39.3	24.6	0.00e+00	0	41	0	728760320	50	5903
2026-01-24 23:38:44.27	64.32	55.68	-38.0	-38.8	24.9	0.00e+00	0	41	0	730857472	50	5604
2026-01-24 23:38:45.28	63.54	55.72	-37.5	-38.2	25.3	0.00e+00	0	41	0	732954624	48	5879
2026-01-24 23:38:46.28	62.77	55.76	-37.0	-37.7	25.6	0.00e+00	0	41	0	735051776	48	5522
2026-01-24 23:38:47.29	61.99	55.80	-37.5	-38.3	25.2	0.00e+00	0	41	0	736100352	48	5930
2026-01-24 23:38:48.30	61.20	55.82	-38.1	-38.9	25.0	0.00e+00	0	41	0	738197504	48	6352
2026-01-24 23:38:49.31	60.42	55.85	-38.1	-38.9	24.8	0.00e+00	0	41	0	740294656	48	6360
2026-01-24 23:38:50.32	59.63	55.87	-37.9	-38.7	24.9	0.00e+00	0	41	0	742391808	48	6212
2026-01-24 23:38:51.33	58.85	55.88	-37.7	-38.4	25.4	0.00e+00	0	41	0	744488960	48	6027
2026-01-24 23:38:52.34	58.06	55.89	-37.5	-38.2	25.3	0.00e+00	0	41	0	745537536	48	5876
2026-01-24 23:38:53.35	57.27	55.89	-37.6	-38.4	25.2	0.00e+00	0	41	0	747634688	48	5997
2026-01-24 23:38:54.36	56.48	55.89	-37.7	-38.5	25.2	0.00e+00	0	41	0	749731840	48	6045
2026-01-24 23:38:55.37	55.69	55.88	-38.0	-38.8	24.9	0.00e+00	0	41	0	751828992	48	6257
2026-01-24 23:38:56.38	54.91	55.87	-37.8	-38.6	25.1	0.00e+00	0	41	0	753926144	48	6119
2026-01-24 23:38:57.39	54.12	55.85	-37.5	-38.3	25.3	0.00e+00	0	41	0	754974720	48	5899
2026-01-24 23:38:58.40	53.34	55.83	-38.0	-38.8	24.9	0.00e+00	0	41	0	757071872	48	6313
2026-01-24 23:38:59.41	52.55	55.80	-38.3	-39.2	24.7	0.00e+00	0	41	0	759169024	48	6543
2026-01-24 23:39:00.42	51.77	55.77	-38.4	-39.3	24.6	0.00e+00	0	41	0	761266176	48	6635
2026-01-24 23:39:01.43	50.99	55.73	-38.3	-39.2	24.4	0.00e+00	0	41	0	763363328	48	6542
2026-01-24 23:39:02.44	50.21	55.68	-38.3	-39.1	24.9	0.00e+00	0	41	0	764411904	48	6505
2026-01-24 23:39:03.45	49.44	55.63	-38.0	-38.8	25.1	0.00e+00	0	41	0	766509056	48	6256
2026-01-24 23:39:04.46	48.67	55.58	-37.3	-38.0	25.5	0.00e+00	0	41	0	768606208	48	5756
2026-01-24 23:39:05.47	47.90	55.52	-37.0	-37.8	25.6	0.00e+00	0	41	0	770703360	48	5575
2026-01-24 23:39:06.48	47.13	55.46	-37.1	-37.9	25.5	0.00e+00	0	41	0	772800512	46	6321
2026-01-24 23:39:07.48	46.38	55.39	-37.6	-38.4	25.4	0.00e+00	0	41	0	773849088	46	6727
2026-01-24 23:39:08.49	45.62	55.31	-37.4	-38.1	25.5	0.00e+00	0	41	0	775946240	46	6514
2026-01-24 23:39:09.50	44.87	55.23	-37.1	-37.8	25.7	0.00e+00	0	41	0	778043392	46	6302
2026-01-24 23:39:10.51	44.12	55.15	-37.1	-37.9	25.6	0.00e+00	0	41	0	780140544	46	6320
2026-01-24 23:39:11.52	43.37	55.06	-37.0	-37.7	25.6	0.00e+00	0	41	0	782237696	46	6227
2026-01-24 23:39:12.53	42.63	54.97	-36.9	-37.7	25.6	0.00e+00	0	41	0	783286272	46	6208
2026-01-24 23:39:13.54	41.90	54.87	-37.0	-37.7	25.7	0.00e+00	0	41	0	785383424	46	6195
2026-01-24 23:39:14.55	41.17	54.77	-37.0	-37.7	25.7	0.00e+00	0	41	0	787480576	46	6244
2026-01-24 23:39:15.56	40.45	54.66	-37.3	-38.0	25.4	0.00e+00	0	41	0	789577728	46	6463
2026-01-24 23:39:16.57	39.73	54.55	-38.3	-39.1	24.6	0.00e+00	0	41	0	791674880	48	6492
2026-01-24 23:39:17.57	39.02	54.44	-38.7	-39.5	24.4	0.00e+00	0	41	0	792723456	50	6101
2026-01-24 23:39:18.58	38.31	54.32	-38.5	-39.3	24.6	0.00e+00	0	41	0	794820608	50	5951
2026-01-24 23:39:19.59	37.61	54.19	-38.0	-38.8	24.9	0.00e+00	0	41	0	796917760	50	5611
2026-01-24 23:39:20.60	36.92	54.07	-38.5	-39.3	24.6	0.00e+00	0	41	0	799014912	50	5950
2026-01-24 23:39:21.61	36.23	53.93	-39.6	-40.5	23.9	0.00e+00	0	41	0	801112064	50	6770
2026-01-24 23:39:22.62	35.55	53.80	-40.3	-41.2	23.1	0.00e+00	0	41	0	803209216	52	6585
2026-01-24 23:39:23.63	34.87	53.66	-39.7	-40.6	23.9	0.00e+00	0	41	0	804257792	52	6117
2026-01-24 23:39:24.63	34.21	53.52	-40.2	-41.1	23.4	0.00e+00	0	41	0	806354944	52	6486
2026-01-24 23:39:25.64	33.54	53.37	-41.1	-42.1	22.8	0.00e+00	0	41	0	808452096	54	6473
2026-01-24 23:39:26.65	32.89	53.22	-40.1	-41.0	23.4	0.00e+00	0	41	0	810549248	54	5719
2026-01-24 23:39:27.66	32.24	53.07	-39.7	-40.5	23.7	0.00e+00	0	41	0	811597824	52	6087
2026-01-24 23:39:28.67	31.60	52.92	-40.7	-41.7	22.9	0.00e+00	0	41	0	813694976	54	6198
2026-01-24 23:39:29.68	30.96	52.76	-41.0	-42.0	22.8	0.00e+00	0	41	0	815792128	54	6449
2026-01-24 23:39:30.69	30.33	52.59	-40.6	-41.6	23.0	0.00e+00	0	41	0	817889280	54	6120
2026-01-24 23:39:31.70	29.71	52.43	-40.6	-41.5	23.2	0.00e+00	0	41	0	819986432	54	6083
2026-01-24 23:39:32.71	29.10	52.26	-40.1	-41.0	23.7	0.00e+00	0	41	0	821035008	54	5702
2026-01-24 23:39:33.72	28.49	52.09	-39.8	-40.7	23.7	0.00e+00	0	41	0	823132160	52	6183
2026-01-24 23:39:34.72	27.89	51.92	-40.5	-41.4	23.3	0.00e+00	0	41	0	825229312	52	6764
2026-01-24 23:39:35.73	27.30	51.74	-41.0	-42.0	22.7	0.00e+00	0	41	0	827326464	54	6434
2026-01-24 23:39:36.74	26.71	51.56	-40.7	-41.7	23.0	0.00e+00	0	41	0	829423616	54	6221
2026-01-24 23:39:37.75	26.14	51.38	-39.8	-40.7	23.7	0.00e+00	0	41	0	831520768	54	5548
2026-01-24 23:39:38.76	25.56	51.20	-39.1	-39.9	24.3	0.00e+00	0	41	0	832569344	52	5691
2026-01-24 23:39:39.77	25.00	51.01	-38.4	-39.2	24.7	0.00e+00	0	41	0	834666496	50	5876
2026-01-24 23:39:40.77	24.45	50.83	-38.9	-39.8	24.2	0.00e+00	0	41	0	836763648	50	6262
2026-01-24 23:39:41.78	23.89	50.64	-39.8	-40.7	23.6	0.00e+00	0	41	0	838860800	52	6219
2026-01-24 23:39:42.79	23.35	50.45	-40.3	-41.2	23.4	0.00e+00	0	41	0	840957952	52	6566
2026-01-24 23:39:43.80	22.81	50.25	-39.4	-40.3	24.0	0.00e+00	0	41	0	842006528	52	5907
2026-01-24 23:39:44.81	22.28	50.06	-39.9	-40.8	23.7	0.00e+00	0	41	0	844103680	52	6309
2026-01-24 23:39:45.82	21.76	49.86	-40.5	-41.5	23.2	0.00e+00	0	41	0	846200832	52	6788
2026-01-24 23:39:46.83	21.24	49.66	-41.2	-42.2	22.5	0.00e+00	0	41	0	848297984	54	6545
2026-01-24 23:39:47.84	20.73	49.46	-41.6	-42.7	22.0	0.00e+00	0	41	0	850395136	54	6954
2026-01-24 23:39:48.85	20.23	49.26	-41.8	-42.8	22.5	0.00e+00	0	41	0	851443712	56	6280
2026-01-24 23:39:49.85	19.74	49.06	-41.0	-41.9	22.7	0.00e+00	0	41	0	853540864	56	5654
2026-01-24 23:39:50.86	19.25	48.85	-41.9	-42.9	21.9	0.00e+00	0	41	0	855638016	56	6379
2026-01-24 23:39:51.87	18.77	48.64	-43.4	-44.7	20.5	0.00e+00	0	41	0	857735168	58	6938
2026-01-24 23:39:52.88	18.29	48.44	-44.1	-45.6	19.9	0.00e+00	0	41	0	859832320	60	6861
2026-01-24 23:39:53.89	17.82	48.23	-45.0	-46.8	18.7	0.00e+00	0	41	0	860880896	60	7874
2026-01-24 23:39:54.90	17.35	48.02	-44.5	-46.1	19.0	0.00e+00	0	41	0	862978048	60	7323
2026-01-24 23:39:55.91	16.90	47.81	-44.2	-45.7	19.9	0.00e+00	0	41	0	865075200	60	7003
2026-01-24 23:39:56.92	16.45	47.60	-43.8	-45.2	19.7	0.00e+00	0	41	0	867172352	60	6615
2026-01-24 23:39:57.93	16.00	47.39	-43.8	-45.2	20.1	0.00e+00	0	41	0	869269504	60	6615
2026-01-24 23:39:58.93	15.56	47.17	-42.8	-44.0	21.2	0.00e+00	0	41	0	870318080	60	5738
2026-01-24 23:39:59.94	15.13	46.96	-42.0	-43.1	21.8	0.00e+00	0	41	0	872415232	58	5786
2026-01-24 23:40:00.96	14.70	46.74	-43.0	-44.3	20.8	0.00e+00	0	41	0	874512384	58	6637
2026-01-24 23:40:01.96	14.28	46.53	-43.4	-44.8	20.4	0.00e+00	0	41	0	876609536	58	7018
2026-01-24 23:40:02.97	13.87	46.32	-42.6	-43.8	21.1	0.00e+00	0	41	0	878706688	58	6296
2026-01-24 23:40:03.98	13.46	46.10	-42.4	-43.5	21.7	0.00e+00	0	41	0	879755264	58	6093
2026-01-24 23:40:04.99	13.05	45.88	-41.8	-42.8	22.2	0.00e+00	0	41	0	881852416	56	6298
2026-01-24 23:40:06.00	12.65	45.67	-41.7	-42.7	22.1	0.00e+00	0	41	0	883949568	56	6239
2026-01-24 23:40:07.01	12.26	45.45	-42.6	-43.8	21.1	0.00e+00	0	41	0	886046720	56	7039
2026-01-24 23:40:08.02	11.87	45.23	-44.9	-46.7	17.7	0.00e+00	0	41	0	888143872	60	7849
2026-01-24 23:40:09.02	11.49	45.01	-45.9	-48.0	17.6	0.00e+00	0	41	0	889192448	60	9049
2026-01-24 23:40:10.04	11.11	44.79	-44.2	-45.7	19.6	0.00e+00	0	41	0	891289600	60	6960
2026-01-24 23:40:11.04	10.74	44.58	-43.0	-44.2	21.0	0.00e+00	0	41	0	893386752	60	5856
2026-01-24 23:40:12.05	10.38	44.36	-42.7	-44.0	20.9	0.00e+00	0	41	0	895483904	58	6402
2026-01-24 23:40:13.06	10.02	44.14	-42.9	-44.2	20.9	0.00e+00	0	41	0	897581056	58	6579
2026-01-24 23:40:14.07	9.66	43.92	-43.3	-44.6	20.6	0.00e+00	0	41	0	899678208	58	6876
2026-01-24 23:40:15.08	9.31	43.70	-42.6	-43.8	21.2	0.00e+00	0	41	0	900726784	58	6283
2026-01-24 23:40:16.09	8.96	43.49	-41.6	-42.6	22.1	0.00e+00	0	41	0	902823936	58	5496
2026-01-24 23:40:17.10	8.62	43.27	-41.0	-41.9	22.9	0.00e+00	0	41	0	904921088	56	5656
2026-01-24 23:40:18.11	8.28	43.05	-40.8	-41.7	22.9	0.00e+00	0	41	0	907018240	56	5546
2026-01-24 23:40:19.12	7.95	42.83	-40.5	-41.5	23.0	0.00e+00	0	41	0	909115392	54	6046
2026-01-24 23:40:20.13	7.62	42.61	-41.1	-42.1	22.5	0.00e+00	0	41	0	910163968	54	6468
2026-01-24 23:40:21.14	7.29	42.39	-41.5	-42.5	22.3	0.00e+00	0	41	0	912261120	54	6810
2026-01-24 23:40:22.15	6.97	42.18	-42.0	-43.1	21.9	0.00e+00	0	41	0	914358272	56	6536
2026-01-24 23:40:23.16	6.66	41.96	-42.3	-43.5	21.4	0.00e+00	0	41	0	916455424	56	6836
2026-01-24 23:40:24.17	6.35	41.74	-43.3	-44.8	20.5	0.00e+00	0	41	0	918552576	58	7043
2026-01-24 23:40:25.18	6.04	41.53	-43.8	-45.4	19.3	0.00e+00	0	41	0	919601152	58	7542
2026-01-24 23:40:26.19	5.74	41.31	-44.6	-46.4	18.6	0.00e+00	0	41	0	921698304	60	7591
2026-01-24 23:40:27.20	5.44	41.09	-43.9	-45.4	19.8	0.00e+00	0	41	0	923795456	60	6715
2026-01-24 23:40:28.21	5.14	40.88	-43.2	-44.5	20.3	0.00e+00	0	41	0	925892608	60	6102
2026-01-24 23:40:29.22	4.85	40.66	-42.1	-43.2	21.6	0.00e+00	0	41	0	927989760	58	5896
2026-01-24 23:40:30.23	4.57	40.45	-42.9	-44.2	20.9	0.00e+00	0	41	0	929038336	58	6543
2026-01-24 23:40:31.24	4.28	40.23	-43.6	-45.0	20.2	0.00e+00	0	41	0	931135488	58	7172
2026-01-24 23:40:32.24	4.01	40.02	-44.2	-45.7	19.9	0.00e+00	0	41	0	933232640	60	6946
2026-01-24 23:40:33.25	3.73	39.81	-44.0	-45.6	20.1	0.00e+00	0	41	0	935329792	60	6853
2026-01-24 23:40:34.26	3.46	39.60	-43.5	-44.9	20.2	0.00e+00	0	41	0	937426944	60	6344
2026-01-24 23:40:35.27	3.19	39.39	-43.5	-44.9	20.0	0.00e+00	0	41	0	938475520	60	6361
2026-01-24 23:40:36.28	2.93	39.17	-43.6	-45.1	20.1	0.00e+00	0	41	0	940572672	60	6493
2026-01-24 23:40:37.29	2.66	38.96	-43.6	-45.0	20.1	0.00e+00	0	41	0	942669824	60	6453
2026-01-24 23:40:38.30	2.41	38.75	-44.3	-45.9	19.3	0.00e+00	0	41	0	944766976	60	7157
2026-01-24 23:40:39.31	2.15	38.54	-44.6	-46.3	19.0	0.00e+00	0	41	0	946864128	60	7439
2026-01-24 23:40:40.32	1.90	38.33	-44.9	-46.6	18.6	0.00e+00	0	41	0	947912704	60	7759
2026-01-24 23:40:41.33	1.65	38.13	-44.5	-46.0	19.2	0.00e+00	0	41	0	950009856	60	7252
2026-01-24 23:40:42.34	1.41	37.92	-43.3	-44.7	20.5	0.00e+00	0	41	0	952107008	60	6195
2026-01-24 23:40:43.35	1.16	37.71	-42.3	-43.5	21.5	0.00e+00	0	41	0	954204160	58	6036
2026-01-24 23:40:44.36	0.93	37.51	-41.9	-43.0	21.8	0.00e+00	0	41	0	956301312	56	6428
2026-01-24 23:40:45.37	0.69	37.30	-41.9	-43.0	22.2	0.00e+00	0	41	0	957349888	56	6415
2026-01-24 23:40:46.37	0.46	37.10	-42.8	-44.0	21.0	0.00e+00	0	41	0	959447040	56	7228
2026-01-24 23:40:47.39	0.23	36.89	-42.8	-44.0	20.9	0.00e+00	0	41	0	961544192	58	6441
2026-01-24 23:40:48.40	0.00	36.69	-43.0	-44.2	20.6	0.00e+00	0	41	0	963641344	58	6596
2026-01-24 23:40:49.41	359.78	36.49	-42.9	-44.1	20.8	0.00e+00	0	41	0	965738496	58	6536
2026-01-24 23:40:50.42	359.56	36.28	-43.4	-44.7	20.3	0.00e+00	0	41	0	967835648	58	6983
2026-01-24 23:40:51.43	359.34	36.08	-42.8	-44.0	20.9	0.00e+00	0	41	0	968884224	58	6443
2026-01-24 23:40:52.44	359.12	35.88	-42.2	-43.4	21.4	0.00e+00	0	41	0	970981376	58	5980
2026-01-24 23:40:53.44	358.91	35.69	-41.9	-43.0	21.5	0.00e+00	0	41	0	973078528	58	5707
2026-01-24 23:40:54.45	358.70	35.49	-42.1	-43.2	21.6	0.00e+00	0	41	0	975175680	56	6585
2026-01-24 23:40:55.46	358.49	35.29	-42.8	-44.0	21.0	0.00e+00	0	41	0	976224256	56	7209
2026-01-24 23:40:56.47	358.29	35.09	-43.4	-44.7	20.1	0.00e+00	0	41	0	978321408	58	6971
2026-01-24 23:40:57.48	358.08	34.90	-44.4	-46.0	19.1	0.00e+00	0	41	0	980418560	60	7219
2026-01-24 23:40:58.49	357.88	34.70	-44.5	-46.1	19.3	0.00e+00	0	41	0	982515712	60	7322
2026-01-24 23:40:59.50	357.69	34.51	-43.5	-44.9	20.3	0.00e+00	0	41	0	984612864	60	6326
2026-01-24 23:41:00.51	357.49	34.31	-42.8	-44.0	21.0	0.00e+00	0	41	0	986710016	60	5755
2026-01-24 23:41:01.52	357.30	34.12	-43.4	-44.8	20.5	0.00e+00	0	41	0	987758592	60	6247
2026-01-24 23:41:02.53	357.11	33.93	-43.1	-44.4	20.6	0.00e+00	0	41	0	989855744	60	6025
2026-01-24 23:41:03.54	356.92	33.74	-43.4	-44.8	20.5	0.00e+00	0	41	0	991952896	60	6315
2026-01-24 23:41:04.55	356.73	33.55	-43.3	-44.6	20.3	0.00e+00	0	41	0	994050048	60	6160
2026-01-24 23:41:05.56	356.55	33.36	-43.3	-44.7	20.4	0.00e+00	0	41	0	996147200	60	6207
2026-01-24 23:41:06.57	356.36	33.17	-43.0	-44.3	20.7	0.00e+00	0	41	0	997195776	60	5959
2026-01-24 23:41:07.58	356.18	32.98	-43.1	-44.4	20.6	0.00e+00	0	41	0	999292928	60	6017
2026-01-24 23:41:08.59	356.01	32.79	-43.7	-45.2	19.9	0.00e+00	0	41	0	1001390080	60	6546
2026-01-24 23:41:09.60	355.83	32.61	-44.0	-45.5	19.7	0.00e+00	0	41	0	1003487232	60	6816
2026-01-24 23:41:10.61	355.66	32.42	-43.2	-44.6	20.6	0.00e+00	0	41	0	1005584384	60	6111
2026-01-24 23:41:11.61	355.49	32.24	-42.8	-44.1	20.9	0.00e+00	0	41	0	1006632960	58	6515
2026-01-24 23:41:12.62	355.32	32.05	-41.9	-42.9	21.9	0.00e+00	0	41	0	1008730112	58	5691
2026-01-24 23:41:13.63	355.15	31.87	-41.7	-42.7	22.0	0.00e+00	0	41	0	1010827264	58	5565
2026-01-24 23:41:14.64	354.98	31.69	-42.2	-43.3	21.5	0.00e+00	0	41	0	1012924416	56	6677
2026-01-24 23:41:15.65	354.82	31.51	-43.1	-44.5	20.4	0.00e+00	0	41	0	1015021568	58	6778
2026-01-24 23:41:16.66	354.66	31.33	-43.6	-45.0	20.0	0.00e+00	0	41	0	1016070144	58	7238
2026-01-24 23:41:17.67	354.50	31.15	-43.4	-44.8	20.1	0.00e+00	0	41	0	1018167296	58	7060
2026-01-24 23:41:18.68	354.34	30.97	-43.2	-44.5	20.5	0.00e+00	0	41	0	1020264448	58	6810
2026-01-24 23:41:19.69	354.18	30.79	-42.6	-43.8	21.3	0.00e+00	0	41	0	1022361600	58	6259
2026-01-24 23:41:20.70	354.03	30.61	-41.7	-42.7	22.1	0.00e+00	0	41	0	1024458752	58	5559
2026-01-24 23:41:21.71	353.87	30.44	-41.2	-42.2	22.4	0.00e+00	0	41	0	1025507328	56	5853
2026-01-24 23:41:22.72	353.72	30.26	-41.5	-42.6	22.1	0.00e+00	0	41	0	1027604480	56	6124
2026-01-24 23:41:23.73	353.57	30.09	-41.5	-42.5	22.2	0.00e+00	0	41	0	1029701632	56	6091
2026-01-24 23:41:24.74	353.43	29.91	-41.6	-42.6	22.1	0.00e+00	0	41	0	1031798784	56	6172
2026-01-24 23:41:25.75	353.28	29.74	-41.0	-42.0	22.6	0.00e+00	0	41	0	1033895936	56	5725
2026-01-24 23:41:26.76	353.13	29.57	-40.6	-41.5	22.9	0.00e+00	0	41	0	1034944512	54	6098
2026-01-24 23:41:27.77	352.99	29.40	-40.4	-41.4	23.1	0.00e+00	0	41	0	1037041664	54	5975
2026-01-24 23:41:28.77	352.85	29.23	-40.5	-41.5	22.9	0.00e+00	0	41	0	1039138816	54	6056
2026-01-24 23:41:29.78	352.71	29.06	-40.9	-41.9	22.6	0.00e+00	0	41	0	1041235968	54	6341
2026-01-24 23:41:30.79	352.57	28.89	-41.1	-42.1	22.5	0.00e+00	0	41	0	1043333120	54	6488
2026-01-24 23:41:31.80	352.43	28.72	-42.2	-43.4	21.4	0.00e+00	0	41	0	1044381696	56	6736
2026-01-24 23:41:32.81	352.30	28.56	-42.6	-43.9	21.0	0.00e+00	0	41	0	1046478848	56	7124
2026-01-24 23:41:33.82	352.16	28.39	-42.7	-43.9	20.9	0.00e+00	0	41	0	1048576000	56	7160
2026-01-24 23:41:34.83	352.03	28.23	-42.4	-43.6	21.4	0.00e+00	0	41	0	1050673152	56	6883
2026-01-24 23:41:35.83	351.90	28.06	-42.3	-43.4	21.3	0.00e+00	0	41	0	1052770304	56	6765
2026-01-24 23:41:36.84	351.77	27.90	-42.1	-43.3	21.5	0.00e+00	0	41	0	1053818880	56	6620
2026-01-24 23:41:37.85	351.64	27.74	-42.1	-43.2	21.6	0.00e+00	0	41	0	1055916032	56	6590
2026-01-24 23:41:38.86	351.51	27.57	-42.1	-43.3	21.5	0.00e+00	0	41	0	1058013184	56	6656
2026-01-24 23:41:39.87	351.39	27.41	-42.5	-43.7	21.2	0.00e+00	0	41	0	1060110336	56	6939
2026-01-24 23:41:40.88	351.26	27.25	-42.1	-43.3	21.4	0.00e+00	0	41	0	1062207488	56	6663
2026-01-24 23:41:41.89	351.14	27.09	-42.1	-43.2	21.7	0.00e+00	0	41	0	1064304640	56	6596
2026-01-24 23:41:42.90	351.02	26.93	-41.8	-42.9	21.9	0.00e+00	0	41	0	1065353216	56	6357
2026-01-24 23:41:43.91	350.89	26.78	-41.5	-42.6	22.1	0.00e+00	0	41	0	1067450368	56	6109
2026-01-24 23:41:44.93	350.77	26.62	-41.2	-42.2	22.4	0.00e+00	0	41	0	1069547520	56	5856
2026-01-24 23:41:45.93	350.66	26.46	-40.9	-41.9	22.6	0.00e+00	0	41	0	1071644672	56	5647
2026-01-24 23:41:46.94	350.54	26.31	-41.1	-42.1	22.4	0.00e+00	0	41	0	1073741824	56	5795
2026-01-24 23:41:47.95	350.42	26.15	-41.6	-42.7	21.9	0.00e+00	0	41	0	1074790400	56	6243
2026-01-24 23:41:48.96	350.31	26.00	-42.1	-43.3	21.4	0.00e+00	0	41	0	1076887552	56	6639
2026-01-24 23:41:49.97	350.19	25.84	-42.6	-43.8	21.0	0.00e+00	0	41	0	1078984704	56	7063
2026-01-24 23:41:50.98	350.08	25.69	-42.7	-44.0	20.7	0.00e+00	0	41	0	1081081856	58	6420
2026-01-24 23:41:51.99	349.97	25.54	-43.0	-44.3	20.6	0.00e+00	0	41	0	1083179008	58	6672
2026-01-24 23:41:53.00	349.86	25.39	-42.7	-44.0	20.8	0.00e+00	0	41	0	1084227584	58	6415
2026-01-24 23:41:54.01	349.75	25.23	-42.9	-44.1	20.7	0.00e+00	0	41	0	1086324736	58	6531
2026-01-24 23:41:55.02	349.64	25.09	-42.5	-43.7	21.0	0.00e+00	0	41	0	1088421888	58	6194
2026-01-24 23:41:56.03	349.53	24.94	-42.5	-43.7	21.0	0.00e+00	0	41	0	1090519040	58	6193
2026-01-24 23:41:57.04	349.43	24.79	-42.8	-44.1	20.7	0.00e+00	0	41	0	1092616192	58	6465
2026-01-24 23:41:58.04	349.32	24.64	-43.0	-44.3	20.5	0.00e+00	0	41	0	1093664768	58	6651
2026-01-24 23:41:59.05	349.22	24.49	-42.8	-44.0	20.9	0.00e+00	0	41	0	1095761920	58	6453
2026-01-24 23:42:00.06	349.11	24.35	-42.8	-44.0	20.8	0.00e+00	0	41	0	1097859072	58	6445
2026-01-24 23:42:01.07	349.01	24.20	-42.7	-44.0	20.9	0.00e+00	0	41	0	1099956224	58	6418
2026-01-24 23:42:02.08	348.91	24.06	-42.3	-43.5	21.2	0.00e+00	0	41	0	1102053376	58	6066
2026-01-24 23:42:03.09	348.81	23.91	-42.1	-43.2	21.5	0.00e+00	0	41	0	1103101952	58	5843
2026-01-24 23:42:04.10	348.71	23.77	-41.9	-43.0	21.7	0.00e+00	0	41	0	1105199104	58	5722
2026-01-24 23:42:05.11	348.61	23.63	-41.8	-42.9	21.8	0.00e+00	0	41	0	1107296256	56	6342
2026-01-24 23:42:06.12	348.51	23.48	-41.8	-42.8	21.8	0.00e+00	0	41	0	1109393408	56	6314
2026-01-24 23:42:07.13	348.42	23.34	-41.7	-42.7	21.9	0.00e+00	0	41	0	1111490560	56	6225
2026-01-24 23:42:08.13	348.32	23.20	-41.6	-42.7	21.8	0.00e+00	0	41	0	1112539136	56	6185
2026-01-24 23:42:09.14	348.23	23.06	-41.7	-42.8	21.8	0.00e+00	0	41	0	1114636288	56	6252
2026-01-24 23:42:10.15	348.13	22.92	-41.8	-42.8	21.9	0.00e+00	0	41	0	1116733440	56	6312
2026-01-24 23:42:11.16	348.04	22.79	-41.6	-42.7	21.9	0.00e+00	0	41	0	1118830592	56	6175
2026-01-24 23:42:12.17	347.95	22.65	-41.3	-42.3	22.2	0.00e+00	0	41	0	1120927744	56	5951
2026-01-24 23:42:13.18	347.86	22.51	-41.4	-42.4	22.2	0.00e+00	0	41	0	1121976320	56	6002
2026-01-24 23:42:14.19	347.77	22.37	-40.9	-41.9	22.7	0.00e+00	0	41	0	1124073472	56	5643
2026-01-24 23:42:15.20	347.68	22.24	-40.7	-41.6	22.8	0.00e+00	0	41	0	1126170624	54	6166
2026-01-24 23:42:16.20	347.59	22.10	-40.6	-41.6	22.8	0.00e+00	0	41	0	1128267776	54	6139
2026-01-24 23:42:17.21	347.50	21.97	-40.6	-41.5	22.8	0.00e+00	0	41	0	1130364928	54	6099
2026-01-24 23:42:18.22	347.41	21.83	-40.9	-41.9	22.5	0.00e+00	0	41	0	1132462080	54	6345
2026-01-24 23:42:19.23	347.33	21.70	-40.9	-41.9	22.5	0.00e+00	0	41	0	1133510656	54	6379
2026-01-24 23:42:20.24	347.24	21.57	-41.0	-42.1	22.3	0.00e+00	0	41	0	1135607808	54	6477
2026-01-24 23:42:21.24	347.16	21.44	-41.5	-42.6	21.7	0.00e+00	0	41	0	1137704960	54	6922
2026-01-24 23:42:22.25	347.07	21.31	-42.1	-43.3	21.3	0.00e+00	0	41	0	1139802112	56	6637
2026-01-24 23:42:23.26	346.99	21.17	-42.6	-43.9	20.8	0.00e+00	0	41	0	1140850688	56	7121
2026-01-24 23:42:24.27	346.90	21.04	-42.9	-44.2	20.6	0.00e+00	0	41	0	1142947840	58	6593
2026-01-24 23:42:25.28	346.82	20.91	-43.1	-44.6	20.3	0.00e+00	0	41	0	1145044992	58	6862
2026-01-24 23:42:26.29	346.74	20.79	-43.2	-44.6	20.2	0.00e+00	0	41	0	1147142144	58	6901
2026-01-24 23:42:27.30	346.66	20.66	-43.4	-44.9	19.9	0.00e+00	0	41	0	1149239296	58	7118
2026-01-24 23:42:28.31	346.58	20.53	-43.4	-44.9	20.0	0.00e+00	0	41	0	1150287872	58	7142
2026-01-24 23:42:29.32	346.50	20.40	-43.1	-44.6	20.2	0.00e+00	0	41	0	1152385024	58	6873
2026-01-24 23:42:30.33	346.42	20.27	-43.1	-44.5	20.2	0.00e+00	0	41	0	1154482176	58	6824
2026-01-24 23:42:31.34	346.34	20.15	-42.9	-44.3	20.6	0.00e+00	0	41	0	1156579328	58	6653
2026-01-24 23:42:32.35	346.27	20.02	-42.7	-44.0	20.6	0.00e+00	0	41	0	1158676480	58	6448
2026-01-24 23:42:33.36	346.19	19.90	-42.4	-43.7	21.0	0.00e+00	0	41	0	1160773632	58	6203
2026-01-24 23:42:34.36	346.12	19.77	-42.4	-43.7	21.0	0.00e+00	0	41	0	1161822208	58	6206
2026-01-24 23:42:35.37	346.04	19.65	-41.8	-43.0	21.6	0.00e+00	0	41	0	1163919360	58	5715
2026-01-24 23:42:36.38	345.97	19.53	-41.6	-42.7	21.9	0.00e+00	0	41	0	1166016512	56	6197
2026-01-24 23:42:37.39	345.89	19.40	-41.3	-42.3	22.1	0.00e+00	0	41	0	1168113664	56	5933
2026-01-24 23:42:38.40	345.82	19.28	-41.1	-42.1	22.4	0.00e+00	0	41	0	1170210816	56	5823
2026-01-24 23:42:39.41	345.75	19.16	-41.1	-42.1	22.4	0.00e+00	0	41	0	1171259392	56	5787
2026-01-24 23:42:40.42	345.67	19.04	-40.5	-41.5	22.8	0.00e+00	0	41	0	1173356544	54	6046
2026-01-24 23:42:41.43	345.60	18.92	-40.2	-41.1	23.2	0.00e+00	0	41	0	1175453696	54	5813
2026-01-24 23:42:42.44	345.53	18.80	-40.2	-41.2	23.0	0.00e+00	0	41	0	1177550848	54	5838
2026-01-24 23:42:43.44	345.46	18.68	-40.1	-41.0	23.2	0.00e+00	0	41	0	1179648000	54	5704
2026-01-24 23:42:44.45	345.39	18.56	-39.8	-40.7	23.5	0.00e+00	0	41	0	1180696576	52	6181
2026-01-24 23:42:45.47	345.32	18.44	-39.5	-40.4	23.7	0.00e+00	0	41	0	1182793728	52	5981
2026-01-24 23:42:46.47	345.25	18.32	-39.6	-40.5	23.7	0.00e+00	0	41	0	1184890880	52	6044
2026-01-24 23:42:47.48	345.19	18.21	-39.5	-40.3	23.7	0.00e+00	0	41	0	1186988032	52	5956
2026-01-24 23:42:48.49	345.12	18.09	-39.5	-40.3	23.7	0.00e+00	0	41	0	1189085184	52	5942
2026-01-24 23:42:49.50	345.05	17.97	-39.7	-40.6	23.5	0.00e+00	0	41	0	1190133760	52	6132
2026-01-24 23:42:50.51	344.98	17.86	-39.6	-40.4	23.7	0.00e+00	0	41	0	1192230912	52	6010
2026-01-24 23:42:51.52	344.92	17.74	-39.9	-40.7	23.2	0.00e+00	0	41	0	1194328064	52	6237
2026-01-24 23:42:52.53	344.85	17.63	-40.2	-41.1	23.0	0.00e+00	0	41	0	1196425216	52	6526
2026-01-24 23:42:53.54	344.79	17.51	-40.2	-41.1	23.0	0.00e+00	0	41	0	1198522368	52	6471
2026-01-24 23:42:54.55	344.72	17.40	-40.4	-41.3	22.9	0.00e+00	0	41	0	1199570944	52	6655
