passes_logs/2026/01/24/R4.6S_Anadyr/R4.6S_Anadyr__20260124_153642_NOAA_20_JPSS-1_rec.log

#Pass ID: 20260124_153642_NOAA 20 (JPSS-1)
#Satellite: NOAA 20 (JPSS-1)
#Configuration: NOAA 20
#almurnet v.1.7.20251203
#Start time: 2026-01-24 15:36:44

#Version: 2.2.20231116
#Station: R4.6S_Anadyr
#Location: 177.4865 lon 64.73178 lat
#TLE: 1 43013U 17073A   26024.14064826  .00000217  00000+0  12382-3 0  9992
#TLE: 2 43013  98.7646 324.9839 0001118  26.6217 333.5016 14.19539758424032

#Time	Az	El	Level	Level2	SNR	BER	BlckErr	Temp	State	Recorded	gain1	gain2
2026-01-24 15:36:44.05	22.82	0.10	-52.1	-67.0	3.5	1.51e+00	0	39	0	0	60	81208
2026-01-24 15:36:45.05	22.80	0.16	-53.1	-68.3	3.6	1.51e+00	0	40	104	0	60	93462
2026-01-24 15:36:46.07	22.78	0.22	-52.4	-67.7	3.6	1.51e+00	0	40	104	0	60	87468
2026-01-24 15:36:47.08	22.76	0.28	-52.1	-67.4	3.6	1.51e+00	0	40	104	0	60	84496
2026-01-24 15:36:48.09	22.74	0.34	-51.9	-67.1	3.6	1.51e+00	0	40	104	0	60	82005
2026-01-24 15:36:49.10	22.72	0.40	-51.9	-67.1	3.6	1.51e+00	0	40	104	0	60	82051
2026-01-24 15:36:50.11	22.70	0.46	-51.9	-67.1	3.6	1.51e+00	0	40	104	0	60	82168
2026-01-24 15:36:51.12	22.68	0.52	-51.8	-67.1	3.6	1.51e+00	0	40	104	0	60	81896
2026-01-24 15:36:52.13	22.66	0.58	-51.7	-66.9	3.6	1.51e+00	0	40	104	0	60	80438
2026-01-24 15:36:53.14	22.64	0.65	-51.7	-66.9	3.6	1.51e+00	0	40	104	0	60	80189
2026-01-24 15:36:54.15	22.62	0.71	-51.7	-66.9	3.6	1.51e+00	0	40	104	0	60	80251
2026-01-24 15:36:55.16	22.60	0.77	-51.6	-66.9	3.6	1.51e+00	0	40	104	0	60	79621
2026-01-24 15:36:56.17	22.58	0.83	-51.6	-66.9	3.6	1.51e+00	0	40	104	0	60	80091
2026-01-24 15:36:57.18	22.56	0.89	-51.6	-66.9	3.6	1.51e+00	0	40	104	0	60	79570
2026-01-24 15:36:58.19	22.54	0.95	-51.5	-66.8	3.6	1.51e+00	0	40	104	0	60	78644
2026-01-24 15:36:59.21	22.51	1.01	-51.5	-66.7	3.6	1.51e+00	0	40	104	0	60	78459
2026-01-24 15:37:00.22	22.49	1.07	-51.3	-66.5	3.6	1.51e+00	0	40	104	0	60	76779
2026-01-24 15:37:01.23	22.47	1.14	-51.2	-66.4	3.6	1.51e+00	0	40	104	0	60	75216
2026-01-24 15:37:02.24	22.45	1.20	-51.0	-66.2	3.6	1.51e+00	0	40	104	0	60	74148
2026-01-24 15:37:03.25	22.43	1.26	-50.9	-66.2	3.6	1.51e+00	0	41	104	0	60	73826
2026-01-24 15:37:04.26	22.41	1.32	-50.9	-66.1	3.6	1.51e+00	0	40	104	0	60	73199
2026-01-24 15:37:05.27	22.38	1.38	-50.7	-65.9	3.6	1.51e+00	0	41	104	0	60	71540
2026-01-24 15:37:06.28	22.36	1.45	-50.5	-65.8	3.6	1.51e+00	0	41	104	0	60	70230
2026-01-24 15:37:07.29	22.34	1.51	-50.3	-65.4	3.6	1.51e+00	0	41	104	0	60	67155
2026-01-24 15:37:08.30	22.32	1.57	-50.1	-65.2	3.6	1.51e+00	0	41	104	0	60	66061
2026-01-24 15:37:09.31	22.29	1.63	-50.0	-65.1	3.6	1.51e+00	0	41	104	0	60	64692
2026-01-24 15:37:10.32	22.27	1.70	-50.0	-65.0	3.6	1.51e+00	0	41	104	0	60	63971
2026-01-24 15:37:11.33	22.25	1.76	-50.0	-65.0	3.6	1.51e+00	0	41	104	0	60	63921
2026-01-24 15:37:12.34	22.23	1.82	-50.0	-64.4	3.6	1.51e+00	0	41	104	0	60	60201
2026-01-24 15:37:13.35	22.20	1.89	-50.0	-65.0	3.6	1.51e+00	0	41	104	0	60	64047
2026-01-24 15:37:14.36	22.18	1.95	-50.0	-64.7	3.6	1.51e+00	0	41	104	0	60	62296
2026-01-24 15:37:15.37	22.16	2.01	-50.0	-64.9	3.6	1.51e+00	0	41	104	0	60	63212
2026-01-24 15:37:16.38	22.14	2.08	-50.0	-64.6	3.6	1.51e+00	0	41	104	0	60	61567
2026-01-24 15:37:17.39	22.11	2.14	-50.0	-65.0	3.6	1.51e+00	0	41	104	0	60	64334
2026-01-24 15:37:18.40	22.09	2.20	-50.0	-65.1	3.6	1.51e+00	0	41	104	0	60	65240
2026-01-24 15:37:19.42	22.06	2.27	-50.0	-65.2	3.6	1.51e+00	0	41	104	0	60	65660
2026-01-24 15:37:20.43	22.04	2.33	-50.0	-65.2	3.6	1.51e+00	0	41	104	0	60	65636
2026-01-24 15:37:21.44	22.02	2.40	-50.0	-64.9	3.6	1.51e+00	0	41	104	0	60	63887
2026-01-24 15:37:22.45	21.99	2.46	-50.0	-64.5	3.6	1.51e+00	0	41	104	0	60	60960
2026-01-24 15:37:23.46	21.97	2.53	-50.0	-64.5	3.6	1.51e+00	0	41	104	0	60	60351
2026-01-24 15:37:24.47	21.94	2.59	-50.0	-64.4	3.6	1.51e+00	0	41	104	0	60	59706
2026-01-24 15:37:25.48	21.92	2.65	-49.9	-64.3	3.6	1.51e+00	0	41	104	0	60	59183
2026-01-24 15:37:26.49	21.90	2.72	-50.0	-63.6	3.6	1.50e+00	0	41	104	0	60	54914
2026-01-24 15:37:27.50	21.87	2.79	-49.9	-63.6	3.6	1.51e+00	0	41	104	0	60	54513
2026-01-24 15:37:28.51	21.85	2.85	-50.0	-64.1	3.6	1.51e+00	0	41	104	0	60	57840
2026-01-24 15:37:29.52	21.82	2.92	-50.0	-64.5	3.6	1.51e+00	0	41	104	0	60	60492
2026-01-24 15:37:30.53	21.80	2.98	-50.1	-64.8	3.6	1.51e+00	0	41	104	0	60	62544
2026-01-24 15:37:31.54	21.77	3.05	-50.1	-64.6	3.6	1.51e+00	0	41	104	0	60	61542
2026-01-24 15:37:32.55	21.75	3.11	-49.9	-63.0	3.7	1.51e+00	0	41	104	0	60	51054
2026-01-24 15:37:33.56	21.72	3.18	-49.8	-60.9	4.3	7.80e-01	92	41	104	0	60	40173
2026-01-24 15:37:34.57	21.70	3.25	-49.1	-55.4	7.8	1.17e-01	0	41	0	1048576	60	21242
2026-01-24 15:37:35.58	21.67	3.31	-48.9	-54.8	9.0	3.58e-02	0	41	0	3145728	60	19851
2026-01-24 15:37:36.59	21.64	3.38	-48.1	-52.3	11.7	5.81e-03	72	41	0	5242880	60	14903
2026-01-24 15:37:37.60	21.62	3.44	-47.7	-51.7	12.5	7.24e-05	0	41	0	7340032	60	13838
2026-01-24 15:37:38.61	21.59	3.51	-47.1	-50.4	14.6	1.28e-04	54	41	0	8388608	60	11901
2026-01-24 15:37:39.62	21.57	3.58	-47.5	-51.2	13.1	8.30e-06	73	41	0	10485760	60	13079
2026-01-24 15:37:40.63	21.54	3.65	-47.8	-51.6	13.0	2.45e-04	92	41	0	12582912	60	13817
2026-01-24 15:37:41.64	21.51	3.71	-46.5	-49.3	14.4	0.00e+00	13	41	0	14680064	60	10524
2026-01-24 15:37:42.65	21.49	3.78	-50.1	-63.9	3.6	2.02e-01	0	41	104	15728640	60	56676
2026-01-24 15:37:43.66	21.46	3.85	-50.1	-64.8	3.6	1.48e+00	0	41	104	15728640	60	63004
2026-01-24 15:37:44.67	21.43	3.92	-46.8	-49.8	8.7	1.49e+00	7	41	104	15728640	60	11107
2026-01-24 15:37:45.68	21.41	3.98	-45.8	-47.9	18.3	5.69e-01	0	41	0	15728640	60	8967
2026-01-24 15:37:46.69	21.38	4.05	-48.6	-54.0	3.9	0.00e+00	13	41	0	17825792	60	18178
2026-01-24 15:37:47.70	21.35	4.12	-48.3	-53.0	5.9	1.51e+00	0	41	104	17825792	60	16107
2026-01-24 15:37:48.71	21.33	4.19	-42.8	-44.1	20.0	1.68e-02	18	41	0	17825792	60	5815
2026-01-24 15:37:49.72	21.30	4.26	-43.3	-44.8	19.6	0.00e+00	91	41	0	18874368	60	6257
2026-01-24 15:37:50.73	21.27	4.33	-43.0	-44.4	20.1	0.00e+00	0	41	0	20971520	60	5989
2026-01-24 15:37:51.74	21.24	4.39	-42.4	-43.7	20.5	0.00e+00	0	41	0	23068672	56	6978
2026-01-24 15:37:52.75	21.21	4.46	-43.1	-44.5	19.9	0.00e+00	0	41	0	25165824	58	6804
2026-01-24 15:37:53.75	21.19	4.53	-43.0	-44.3	20.1	0.00e+00	8	41	0	27262976	58	6683
2026-01-24 15:37:54.76	21.16	4.60	-43.0	-44.3	20.4	0.00e+00	92	41	0	28311552	58	6655
2026-01-24 15:37:55.77	21.13	4.67	-42.3	-43.5	20.6	0.00e+00	0	41	0	30408704	56	6829
2026-01-24 15:37:56.78	21.10	4.74	-43.2	-44.6	19.8	0.00e+00	90	41	0	32505856	58	6913
2026-01-24 15:37:57.79	21.07	4.81	-42.5	-43.7	20.8	0.00e+00	75	41	0	34603008	58	6238
2026-01-24 15:37:58.80	21.04	4.88	-41.5	-42.5	22.0	0.00e+00	0	41	0	36700160	58	5434
2026-01-24 15:37:59.81	21.01	4.95	-42.3	-43.5	20.7	0.00e+00	0	41	0	37748736	54	7665
2026-01-24 15:38:00.82	20.98	5.02	-42.0	-43.2	21.1	0.00e+00	5	41	0	39845888	58	5841
2026-01-24 15:38:01.82	20.95	5.09	-44.1	-45.7	18.8	0.00e+00	53	41	0	41943040	60	6947
2026-01-24 15:38:02.84	20.93	5.16	-42.2	-43.4	21.3	0.00e+00	6	41	0	44040192	60	5331
2026-01-24 15:38:03.85	20.90	5.23	-42.9	-44.2	20.5	0.00e+00	92	41	0	46137344	58	6565
2026-01-24 15:38:04.85	20.87	5.30	-42.2	-43.3	21.4	0.00e+00	74	41	0	47185920	58	5957
2026-01-24 15:38:05.86	20.84	5.38	-41.3	-42.4	21.9	0.00e+00	84	41	0	49283072	54	6742
2026-01-24 15:38:06.87	20.81	5.45	-37.1	-37.8	26.0	0.00e+00	0	41	0	51380224	50	5014
2026-01-24 15:38:07.88	20.77	5.52	-46.5	-49.1	15.7	0.00e+00	7	41	0	53477376	60	10335
2026-01-24 15:38:08.89	20.74	5.59	-44.5	-46.2	18.6	0.00e+00	0	41	0	55574528	60	7342
2026-01-24 15:38:09.90	20.71	5.66	-43.4	-44.9	19.7	0.00e+00	2	41	0	56623104	60	6320
2026-01-24 15:38:10.91	20.68	5.74	-42.7	-44.0	21.0	0.00e+00	91	41	0	58720256	60	5729
2026-01-24 15:38:11.92	20.65	5.81	-40.9	-41.9	21.8	0.00e+00	0	41	0	60817408	54	6375
2026-01-24 15:38:12.93	20.62	5.88	-43.8	-45.3	19.5	0.00e+00	90	41	0	62914560	60	6669
2026-01-24 15:38:13.94	20.59	5.95	-42.9	-44.2	20.3	0.00e+00	0	41	0	65011712	58	6567
2026-01-24 15:38:14.95	20.56	6.03	-43.3	-44.7	20.0	0.00e+00	0	41	0	66060288	60	6228
2026-01-24 15:38:15.96	20.52	6.10	-44.2	-45.7	18.9	0.00e+00	0	41	0	68157440	60	7007
2026-01-24 15:38:16.97	20.49	6.17	-41.3	-42.4	22.3	0.00e+00	75	41	0	70254592	56	5984
2026-01-24 15:38:17.98	20.46	6.25	-42.4	-43.6	21.2	0.00e+00	41	41	0	72351744	56	6863
2026-01-24 15:38:18.98	20.43	6.32	-41.8	-42.9	21.8	0.00e+00	4	40	0	74448896	56	6332
2026-01-24 15:38:19.99	20.40	6.39	-42.4	-43.6	20.5	0.00e+00	92	41	0	76546048	56	6901
2026-01-24 15:38:21.00	20.36	6.47	-42.2	-43.4	21.2	0.00e+00	0	41	0	77594624	58	5979
2026-01-24 15:38:22.01	20.33	6.54	-42.3	-43.5	21.3	0.00e+00	86	41	0	79691776	58	6092
2026-01-24 15:38:23.02	20.30	6.62	-41.9	-43.0	21.5	0.00e+00	63	41	0	81788928	58	5716
2026-01-24 15:38:24.03	20.26	6.69	-42.5	-43.6	20.9	0.00e+00	10	41	0	83886080	56	6926
2026-01-24 15:38:25.04	20.23	6.77	-42.7	-43.9	21.3	0.00e+00	0	41	0	85983232	58	6362
2026-01-24 15:38:26.05	20.20	6.84	-39.1	-39.9	23.5	0.00e+00	69	41	0	87031808	50	6385
2026-01-24 15:38:27.06	20.16	6.92	-42.8	-44.1	20.9	0.00e+00	90	41	0	89128960	58	6504
2026-01-24 15:38:28.07	20.13	6.99	-41.2	-42.3	22.4	0.00e+00	8	41	0	91226112	56	5906
2026-01-24 15:38:29.08	20.09	7.07	-42.6	-43.8	20.9	0.00e+00	92	41	0	93323264	56	7038
2026-01-24 15:38:30.09	20.06	7.15	-41.7	-42.8	21.9	0.00e+00	7	41	0	95420416	56	6249
2026-01-24 15:38:31.09	20.02	7.22	-41.9	-43.0	21.8	0.00e+00	0	41	0	96468992	56	6422
2026-01-24 15:38:32.10	19.99	7.30	-42.7	-43.9	21.0	0.00e+00	2	41	0	98566144	56	7133
2026-01-24 15:38:33.11	19.95	7.38	-41.2	-42.2	22.6	0.00e+00	2	41	0	100663296	58	5244
2026-01-24 15:38:34.12	19.92	7.45	-41.5	-42.6	21.9	0.00e+00	91	41	0	102760448	54	6885
2026-01-24 15:38:35.13	19.88	7.53	-41.9	-43.0	21.8	0.00e+00	0	41	0	104857600	56	6453
2026-01-24 15:38:36.13	19.85	7.61	-42.3	-43.5	21.4	0.00e+00	92	41	0	105906176	56	6778
2026-01-24 15:38:37.14	19.81	7.68	-42.1	-43.2	21.7	0.00e+00	0	41	0	108003328	58	5861
2026-01-24 15:38:38.15	19.78	7.76	-41.8	-42.9	22.0	0.00e+00	0	41	0	110100480	56	6339
2026-01-24 15:38:39.16	19.74	7.84	-41.1	-42.1	22.5	0.00e+00	0	41	0	112197632	56	5824
2026-01-24 15:38:40.17	19.70	7.92	-41.3	-42.3	22.4	0.00e+00	0	41	0	114294784	56	5962
2026-01-24 15:38:41.18	19.67	8.00	-41.4	-42.4	22.6	0.00e+00	76	41	0	115343360	56	6001
2026-01-24 15:38:42.19	19.63	8.08	-42.0	-43.1	21.7	0.00e+00	0	40	0	117440512	56	6538
2026-01-24 15:38:43.20	19.59	8.15	-41.6	-42.6	22.1	0.00e+00	92	41	0	119537664	56	6166
2026-01-24 15:38:44.21	19.55	8.23	-41.4	-42.4	22.4	0.00e+00	4	41	0	121634816	56	6030
2026-01-24 15:38:45.22	19.52	8.31	-40.5	-41.4	23.1	0.00e+00	5	40	0	123731968	54	6026
2026-01-24 15:38:46.23	19.48	8.39	-41.3	-42.3	22.4	0.00e+00	77	41	0	124780544	54	6636
2026-01-24 15:38:47.24	19.44	8.47	-41.8	-42.8	21.8	0.00e+00	75	41	0	126877696	54	7084
2026-01-24 15:38:48.25	19.40	8.55	-41.3	-42.3	22.6	0.00e+00	69	41	0	128974848	56	5902
2026-01-24 15:38:49.26	19.36	8.63	-42.8	-44.0	21.0	0.00e+00	0	41	0	131072000	58	6414
2026-01-24 15:38:50.27	19.32	8.71	-41.1	-42.1	22.8	0.00e+00	92	41	0	133169152	56	5768
2026-01-24 15:38:51.28	19.29	8.80	-41.0	-42.0	22.8	0.00e+00	0	41	0	134217728	54	6400
2026-01-24 15:38:52.29	19.25	8.88	-41.4	-42.5	22.3	0.00e+00	92	41	0	136314880	54	6793
2026-01-24 15:38:53.30	19.21	8.96	-40.7	-41.6	23.0	0.00e+00	0	41	0	138412032	54	6154
2026-01-24 15:38:54.30	19.17	9.04	-41.1	-42.1	22.6	0.00e+00	10	41	0	140509184	54	6467
2026-01-24 15:38:55.31	19.13	9.12	-41.2	-42.2	22.4	0.00e+00	0	41	0	142606336	54	6560
2026-01-24 15:38:56.32	19.09	9.20	-41.0	-42.0	22.5	0.00e+00	0	41	0	144703488	54	6462
2026-01-24 15:38:57.33	19.05	9.29	-41.3	-42.3	22.5	0.00e+00	92	41	0	145752064	56	5935
2026-01-24 15:38:58.34	19.00	9.37	-41.5	-42.6	22.2	0.00e+00	2	41	0	147849216	56	6117
2026-01-24 15:38:59.35	18.96	9.45	-41.3	-42.3	22.5	0.00e+00	92	41	0	149946368	56	5921
2026-01-24 15:39:00.35	18.92	9.53	-41.8	-42.9	22.0	0.00e+00	0	41	0	152043520	56	6364
2026-01-24 15:39:01.36	18.88	9.62	-40.7	-41.6	23.2	0.00e+00	0	41	0	154140672	54	6135
2026-01-24 15:39:02.37	18.84	9.70	-41.5	-42.5	22.3	0.00e+00	0	41	0	155189248	54	6833
2026-01-24 15:39:03.38	18.80	9.78	-41.3	-42.3	22.4	0.00e+00	76	41	0	157286400	54	6644
2026-01-24 15:39:04.39	18.75	9.87	-41.4	-42.4	22.4	0.00e+00	77	41	0	159383552	54	6748
2026-01-24 15:39:05.40	18.71	9.95	-41.2	-42.3	22.7	0.00e+00	0	41	0	161480704	54	6623
2026-01-24 15:39:06.41	18.67	10.04	-40.8	-41.7	23.0	0.00e+00	90	41	0	163577856	54	6225
2026-01-24 15:39:07.42	18.62	10.12	-41.2	-42.2	22.6	0.00e+00	0	41	0	164626432	54	6578
2026-01-24 15:39:08.43	18.58	10.21	-40.6	-41.5	23.3	0.00e+00	92	41	0	166723584	54	6095
2026-01-24 15:39:09.44	18.54	10.29	-41.2	-42.2	22.7	0.00e+00	6	41	0	168820736	54	6549
2026-01-24 15:39:10.45	18.49	10.38	-40.8	-41.7	23.1	0.00e+00	75	41	0	170917888	54	6216
2026-01-24 15:39:11.46	18.45	10.47	-40.8	-41.8	22.9	0.00e+00	0	41	0	173015040	54	6254
2026-01-24 15:39:12.47	18.40	10.55	-40.8	-41.8	23.1	0.00e+00	5	41	0	174063616	54	6261
2026-01-24 15:39:13.48	18.36	10.64	-41.5	-42.5	22.3	0.00e+00	91	41	0	176160768	54	6816
2026-01-24 15:39:14.49	18.31	10.73	-41.4	-42.4	22.5	0.00e+00	7	41	0	178257920	54	6728
2026-01-24 15:39:15.50	18.27	10.82	-41.4	-42.5	22.3	0.00e+00	5	41	0	180355072	54	6790
2026-01-24 15:39:16.51	18.22	10.90	-41.0	-42.0	22.7	0.00e+00	0	41	0	182452224	54	6445
2026-01-24 15:39:17.52	18.18	10.99	-41.8	-42.8	22.0	0.00e+00	5	41	0	183500800	54	7063
2026-01-24 15:39:18.53	18.13	11.08	-41.2	-42.2	22.8	0.00e+00	7	41	0	185597952	56	5835
2026-01-24 15:39:19.54	18.08	11.17	-41.1	-42.1	22.8	0.00e+00	0	41	0	187695104	56	5777
2026-01-24 15:39:20.55	18.04	11.26	-40.9	-41.9	22.9	0.00e+00	91	41	0	189792256	54	6345
2026-01-24 15:39:21.55	17.99	11.34	-41.1	-42.1	22.9	0.00e+00	0	41	0	191889408	54	6498
2026-01-24 15:39:22.56	17.94	11.43	-41.4	-42.5	22.4	0.00e+00	92	41	0	192937984	54	6792
2026-01-24 15:39:23.57	17.89	11.52	-41.2	-42.2	22.7	0.00e+00	0	41	0	195035136	54	6587
2026-01-24 15:39:24.58	17.85	11.61	-41.2	-42.3	22.6	0.00e+00	0	41	0	197132288	54	6624
2026-01-24 15:39:25.59	17.80	11.70	-40.6	-41.5	23.3	0.00e+00	0	41	0	199229440	54	6061
2026-01-24 15:39:26.60	17.75	11.80	-40.9	-41.8	23.1	0.00e+00	72	41	0	201326592	54	6286
2026-01-24 15:39:27.61	17.70	11.89	-41.7	-42.7	22.3	0.00e+00	0	41	0	202375168	54	6975
2026-01-24 15:39:28.62	17.65	11.98	-40.9	-41.8	22.9	0.00e+00	8	41	0	204472320	54	6302
2026-01-24 15:39:29.63	17.60	12.07	-40.7	-41.6	23.1	0.00e+00	92	41	0	206569472	54	6166
2026-01-24 15:39:30.63	17.55	12.16	-40.6	-41.5	23.4	0.00e+00	78	41	0	208666624	54	6086
2026-01-24 15:39:31.64	17.50	12.25	-40.3	-41.3	23.5	0.00e+00	75	41	0	210763776	54	5898
2026-01-24 15:39:32.65	17.45	12.35	-40.7	-41.7	23.1	0.00e+00	76	41	0	211812352	54	6192
2026-01-24 15:39:33.66	17.40	12.44	-40.7	-41.7	23.1	0.00e+00	8	41	0	213909504	54	6210
2026-01-24 15:39:34.67	17.34	12.53	-40.9	-41.9	23.0	0.00e+00	0	41	0	216006656	54	6344
2026-01-24 15:39:35.68	17.29	12.63	-40.5	-41.5	23.3	0.00e+00	6	41	0	218103808	54	6052
2026-01-24 15:39:36.69	17.24	12.72	-40.6	-41.5	23.2	0.00e+00	92	41	0	220200960	54	6093
2026-01-24 15:39:37.70	17.19	12.81	-40.6	-41.5	23.4	0.00e+00	7	41	0	221249536	54	6084
2026-01-24 15:39:38.71	17.13	12.91	-40.7	-41.6	23.2	0.00e+00	21	41	0	223346688	54	6152
2026-01-24 15:39:39.72	17.08	13.00	-41.1	-42.1	22.8	0.00e+00	6	41	0	225443840	54	6493
2026-01-24 15:39:40.73	17.03	13.10	-40.8	-41.7	23.1	0.00e+00	6	41	0	227540992	54	6228
2026-01-24 15:39:41.74	16.97	13.19	-41.0	-41.9	23.0	0.00e+00	0	41	0	229638144	54	6367
2026-01-24 15:39:42.74	16.92	13.29	-40.7	-41.7	23.2	0.00e+00	0	41	0	230686720	54	6198
2026-01-24 15:39:43.75	16.86	13.39	-41.0	-41.9	22.9	0.00e+00	92	41	0	232783872	54	6369
2026-01-24 15:39:44.76	16.81	13.48	-40.9	-41.9	23.1	0.00e+00	78	41	0	234881024	54	6351
2026-01-24 15:39:45.77	16.75	13.58	-40.6	-41.5	23.2	0.00e+00	90	41	0	236978176	54	6061
2026-01-24 15:39:46.78	16.70	13.68	-41.0	-42.0	23.0	0.00e+00	0	41	0	239075328	54	6427
2026-01-24 15:39:47.79	16.64	13.77	-40.7	-41.6	23.2	0.00e+00	0	41	0	241172480	54	6141
2026-01-24 15:39:48.80	16.58	13.87	-40.9	-41.9	23.1	0.00e+00	67	41	0	242221056	54	6344
2026-01-24 15:39:49.80	16.53	13.97	-40.8	-41.7	23.0	0.00e+00	0	41	0	244318208	54	6232
2026-01-24 15:39:50.81	16.47	14.07	-40.9	-41.9	22.9	0.00e+00	72	41	0	246415360	54	6351
2026-01-24 15:39:51.82	16.41	14.17	-40.9	-41.8	23.1	0.00e+00	2	41	0	248512512	54	6287
2026-01-24 15:39:52.83	16.35	14.27	-40.8	-41.7	23.1	0.00e+00	90	41	0	250609664	54	6243
2026-01-24 15:39:53.84	16.29	14.37	-40.9	-41.8	22.9	0.00e+00	3	41	0	251658240	54	6316
2026-01-24 15:39:54.85	16.23	14.47	-40.7	-41.6	23.3	0.00e+00	82	41	0	253755392	54	6154
2026-01-24 15:39:55.86	16.17	14.57	-40.4	-41.3	23.6	0.00e+00	79	41	0	255852544	54	5913
2026-01-24 15:39:56.87	16.11	14.67	-40.4	-41.3	23.5	0.00e+00	0	41	0	257949696	54	5959
2026-01-24 15:39:57.87	16.05	14.77	-40.3	-41.2	23.7	0.00e+00	7	41	0	260046848	54	5832
2026-01-24 15:39:58.88	15.99	14.87	-40.3	-41.1	23.7	0.00e+00	3	41	0	261095424	54	5827
2026-01-24 15:39:59.89	15.93	14.98	-40.2	-41.1	23.7	0.00e+00	92	41	0	263192576	54	5820
2026-01-24 15:40:00.90	15.87	15.08	-40.4	-41.3	23.4	0.00e+00	0	41	0	265289728	54	5956
2026-01-24 15:40:01.91	15.80	15.18	-40.2	-41.0	23.7	0.00e+00	92	41	0	267386880	54	5756
2026-01-24 15:40:02.92	15.74	15.28	-40.4	-41.3	23.6	0.00e+00	0	41	0	269484032	54	5942
2026-01-24 15:40:03.93	15.68	15.39	-40.2	-41.1	23.7	0.00e+00	0	41	0	270532608	54	5813
2026-01-24 15:40:04.94	15.61	15.49	-40.1	-41.0	23.8	0.00e+00	0	41	0	272629760	54	5724
2026-01-24 15:40:05.95	15.55	15.60	-40.2	-41.1	23.7	0.00e+00	0	41	0	274726912	54	5816
2026-01-24 15:40:06.96	15.48	15.70	-40.4	-41.3	23.4	0.00e+00	52	41	0	276824064	54	5937
2026-01-24 15:40:07.97	15.42	15.81	-40.1	-40.9	23.7	0.00e+00	0	41	0	278921216	54	5691
2026-01-24 15:40:08.97	15.35	15.91	-40.4	-41.3	23.6	0.00e+00	88	41	0	279969792	54	5905
2026-01-24 15:40:09.98	15.29	16.02	-40.5	-41.4	23.4	0.00e+00	80	41	0	282066944	54	6010
2026-01-24 15:40:11.00	15.22	16.13	-40.5	-41.4	23.5	0.00e+00	0	41	0	284164096	54	5979
2026-01-24 15:40:12.00	15.15	16.23	-40.4	-41.3	23.7	0.00e+00	79	41	0	286261248	54	5897
2026-01-24 15:40:13.01	15.09	16.34	-40.4	-41.3	23.5	0.00e+00	73	41	0	288358400	54	5916
2026-01-24 15:40:14.02	15.02	16.45	-40.4	-41.3	23.4	0.00e+00	0	41	0	289406976	54	5919
2026-01-24 15:40:15.03	14.95	16.56	-40.7	-41.6	23.5	0.00e+00	9	41	0	291504128	54	6124
2026-01-24 15:40:16.04	14.88	16.67	-40.5	-41.4	23.5	0.00e+00	92	41	0	293601280	54	6011
2026-01-24 15:40:17.05	14.81	16.78	-40.5	-41.4	23.5	0.00e+00	2	41	0	295698432	54	6000
2026-01-24 15:40:18.06	14.74	16.89	-40.0	-40.9	23.8	0.00e+00	90	41	0	297795584	54	5670
2026-01-24 15:40:19.07	14.67	17.00	-40.2	-41.1	23.8	0.00e+00	0	41	0	298844160	54	5819
2026-01-24 15:40:20.08	14.59	17.11	-40.9	-41.8	23.1	0.00e+00	9	41	0	300941312	54	6314
2026-01-24 15:40:21.09	14.52	17.22	-39.9	-40.8	24.0	0.00e+00	2	41	0	303038464	54	5584
2026-01-24 15:40:22.10	14.45	17.33	-40.1	-41.0	23.9	0.00e+00	0	41	0	305135616	54	5705
2026-01-24 15:40:23.11	14.38	17.44	-40.0	-40.9	24.1	0.00e+00	92	41	0	307232768	54	5636
2026-01-24 15:40:24.12	14.30	17.56	-40.3	-41.1	23.9	0.00e+00	0	41	0	309329920	54	5822
2026-01-24 15:40:25.13	14.23	17.67	-40.2	-41.1	23.8	0.00e+00	92	41	0	310378496	54	5772
2026-01-24 15:40:26.14	14.15	17.78	-40.2	-41.1	23.9	0.00e+00	0	41	0	312475648	54	5767
2026-01-24 15:40:27.15	14.08	17.90	-40.4	-41.3	23.6	0.00e+00	0	41	0	314572800	54	5915
2026-01-24 15:40:28.15	14.00	18.01	-40.3	-41.2	23.7	0.00e+00	0	41	0	316669952	54	5880
2026-01-24 15:40:29.16	13.92	18.12	-40.2	-41.1	23.9	0.00e+00	0	41	0	318767104	54	5766
2026-01-24 15:40:30.17	13.85	18.24	-40.3	-41.2	23.6	0.00e+00	80	41	0	319815680	54	5883
2026-01-24 15:40:31.18	13.77	18.36	-40.1	-41.0	23.9	0.00e+00	0	41	0	321912832	54	5698
2026-01-24 15:40:32.19	13.69	18.47	-40.1	-40.9	23.9	0.00e+00	92	41	0	324009984	54	5683
2026-01-24 15:40:33.20	13.61	18.59	-40.1	-41.0	24.0	0.00e+00	80	41	0	326107136	54	5718
2026-01-24 15:40:34.21	13.53	18.71	-40.3	-41.2	23.7	0.00e+00	0	41	0	328204288	54	5864
2026-01-24 15:40:35.22	13.45	18.82	-40.7	-41.6	23.5	0.00e+00	0	41	0	329252864	54	6151
2026-01-24 15:40:36.23	13.37	18.94	-40.2	-41.1	23.9	0.00e+00	80	41	0	331350016	54	5780
2026-01-24 15:40:37.24	13.29	19.06	-40.6	-41.5	23.5	0.00e+00	67	41	0	333447168	54	6053
2026-01-24 15:40:38.25	13.20	19.18	-40.5	-41.4	23.6	0.00e+00	74	41	0	335544320	54	6012
2026-01-24 15:40:39.26	13.12	19.30	-40.3	-41.2	23.7	0.00e+00	92	41	0	337641472	54	5862
2026-01-24 15:40:40.27	13.04	19.42	-40.5	-41.5	23.5	0.00e+00	1	41	0	338690048	54	6036
2026-01-24 15:40:41.28	12.95	19.54	-40.8	-41.7	23.5	0.00e+00	85	41	0	340787200	54	6190
2026-01-24 15:40:42.29	12.87	19.66	-40.3	-41.2	23.7	0.00e+00	0	41	0	342884352	54	5875
2026-01-24 15:40:43.30	12.78	19.79	-40.6	-41.5	23.7	0.00e+00	0	41	0	344981504	54	6056
2026-01-24 15:40:44.31	12.69	19.91	-40.6	-41.5	23.3	0.00e+00	2	41	0	347078656	54	6087
2026-01-24 15:40:45.31	12.61	20.03	-40.7	-41.6	23.6	0.00e+00	0	41	0	348127232	54	6138
2026-01-24 15:40:46.32	12.52	20.15	-40.5	-41.4	23.5	0.00e+00	92	41	0	350224384	54	5979
2026-01-24 15:40:47.33	12.43	20.28	-40.8	-41.7	23.6	0.00e+00	0	41	0	352321536	54	6222
2026-01-24 15:40:48.34	12.34	20.40	-40.6	-41.5	23.4	0.00e+00	92	41	0	354418688	54	6067
2026-01-24 15:40:49.35	12.25	20.53	-40.9	-41.8	23.2	0.00e+00	0	41	0	356515840	54	6276
2026-01-24 15:40:50.36	12.16	20.65	-41.1	-42.1	22.9	0.00e+00	0	41	0	357564416	54	6491
2026-01-24 15:40:51.37	12.07	20.78	-40.6	-41.5	23.5	0.00e+00	0	41	0	359661568	54	6061
2026-01-24 15:40:52.38	11.97	20.91	-40.4	-41.3	23.7	0.00e+00	0	41	0	361758720	54	5939
2026-01-24 15:40:53.39	11.88	21.04	-40.6	-41.5	23.5	0.00e+00	0	41	0	363855872	54	6094
2026-01-24 15:40:54.39	11.79	21.16	-40.2	-41.1	23.9	0.00e+00	73	41	0	365953024	54	5799
2026-01-24 15:40:55.40	11.69	21.29	-40.4	-41.2	23.6	0.00e+00	92	41	0	367001600	54	5887
2026-01-24 15:40:56.41	11.59	21.42	-40.4	-41.2	23.8	0.00e+00	0	41	0	369098752	54	5896
2026-01-24 15:40:57.42	11.50	21.55	-40.4	-41.3	23.8	0.00e+00	92	41	0	371195904	54	5928
2026-01-24 15:40:58.43	11.40	21.68	-40.4	-41.3	23.8	0.00e+00	0	41	0	373293056	54	5952
2026-01-24 15:40:59.44	11.30	21.81	-40.7	-41.7	23.5	0.00e+00	0	41	0	375390208	54	6177
2026-01-24 15:41:00.45	11.20	21.94	-41.2	-42.1	23.1	0.00e+00	43	41	0	376438784	54	6527
2026-01-24 15:41:01.46	11.10	22.08	-41.0	-41.9	23.4	0.00e+00	5	41	0	378535936	54	6388
2026-01-24 15:41:02.47	11.00	22.21	-40.7	-41.6	23.4	0.00e+00	92	41	0	380633088	54	6145
2026-01-24 15:41:03.48	10.90	22.34	-41.3	-42.2	23.2	0.00e+00	6	41	0	382730240	54	6577
2026-01-24 15:41:04.49	10.79	22.47	-41.2	-42.1	23.0	0.00e+00	86	41	0	384827392	54	6532
2026-01-24 15:41:05.50	10.69	22.61	-40.7	-41.6	23.5	0.00e+00	5	41	0	385875968	54	6168
2026-01-24 15:41:06.51	10.58	22.74	-40.8	-41.8	23.5	0.00e+00	5	41	0	387973120	54	6259
2026-01-24 15:41:07.52	10.48	22.88	-40.9	-41.8	23.3	0.00e+00	5	41	0	390070272	54	6289
2026-01-24 15:41:08.53	10.37	23.02	-41.1	-42.0	23.3	0.00e+00	6	41	0	392167424	54	6434
2026-01-24 15:41:09.54	10.26	23.15	-41.1	-42.0	23.3	0.00e+00	92	41	0	394264576	54	6417
2026-01-24 15:41:10.55	10.15	23.29	-41.4	-42.4	22.9	0.00e+00	0	41	0	395313152	54	6715
2026-01-24 15:41:11.55	10.04	23.43	-41.4	-42.4	22.9	0.00e+00	92	41	0	397410304	54	6742
2026-01-24 15:41:12.56	9.93	23.57	-41.2	-42.2	23.1	0.00e+00	80	41	0	399507456	54	6571
2026-01-24 15:41:13.57	9.82	23.71	-41.4	-42.4	23.0	0.00e+00	5	41	0	401604608	54	6702
2026-01-24 15:41:14.58	9.71	23.85	-41.6	-42.6	22.7	0.00e+00	72	41	0	403701760	54	6868
2026-01-24 15:41:15.59	9.59	23.99	-41.8	-42.8	22.5	0.00e+00	78	41	0	405798912	56	6298
2026-01-24 15:41:16.60	9.48	24.13	-41.9	-42.9	22.5	0.00e+00	5	41	0	406847488	56	6353
2026-01-24 15:41:17.61	9.36	24.27	-42.1	-43.2	22.0	0.00e+00	76	41	0	408944640	56	6562
2026-01-24 15:41:18.62	9.25	24.41	-42.1	-43.2	22.2	0.00e+00	94	41	0	411041792	56	6540
2026-01-24 15:41:19.63	9.13	24.56	-42.0	-43.0	22.2	0.00e+00	6	41	0	413138944	56	6456
2026-01-24 15:41:20.64	9.01	24.70	-42.1	-43.2	22.3	0.00e+00	70	41	0	415236096	56	6540
2026-01-24 15:41:21.65	8.89	24.84	-42.1	-43.2	22.3	0.00e+00	5	41	0	416284672	56	6550
2026-01-24 15:41:22.66	8.77	24.99	-42.2	-43.3	22.2	0.00e+00	5	41	0	418381824	56	6624
2026-01-24 15:41:23.67	8.64	25.13	-42.0	-43.1	22.4	0.00e+00	22	41	0	420478976	56	6471
2026-01-24 15:41:24.67	8.52	25.28	-42.1	-43.1	22.3	0.00e+00	7	41	0	422576128	56	6492
2026-01-24 15:41:25.68	8.40	25.43	-42.1	-43.2	22.2	0.00e+00	91	41	0	424673280	56	6553
2026-01-24 15:41:26.69	8.27	25.57	-42.3	-43.4	22.1	0.00e+00	11	41	0	425721856	56	6725
2026-01-24 15:41:27.70	8.14	25.72	-42.3	-43.4	22.1	0.00e+00	92	41	0	427819008	56	6726
2026-01-24 15:41:28.71	8.01	25.87	-42.4	-43.5	21.9	0.00e+00	6	41	0	429916160	56	6800
2026-01-24 15:41:29.72	7.88	26.02	-42.6	-43.7	21.7	0.00e+00	7	41	0	432013312	56	6952
2026-01-24 15:41:30.73	7.75	26.17	-42.5	-43.5	22.0	0.00e+00	0	41	0	434110464	56	6835
2026-01-24 15:41:31.74	7.62	26.32	-42.6	-43.7	21.8	0.00e+00	0	41	0	435159040	56	6964
2026-01-24 15:41:32.75	7.48	26.48	-42.5	-43.6	21.9	0.00e+00	90	41	0	437256192	56	6879
2026-01-24 15:41:33.76	7.35	26.63	-42.7	-43.8	21.7	0.00e+00	0	41	0	439353344	58	6264
2026-01-24 15:41:34.77	7.21	26.78	-42.6	-43.7	21.8	0.00e+00	92	41	0	441450496	58	6219
2026-01-24 15:41:35.77	7.07	26.93	-42.9	-44.0	21.6	0.00e+00	82	41	0	443547648	58	6431
2026-01-24 15:41:36.79	6.93	27.09	-42.9	-44.1	21.5	0.00e+00	11	41	0	444596224	58	6471
2026-01-24 15:41:37.80	6.79	27.24	-43.1	-44.3	21.3	0.00e+00	0	41	0	446693376	58	6620
2026-01-24 15:41:38.81	6.65	27.40	-43.2	-44.4	21.1	0.00e+00	0	41	0	448790528	58	6747
2026-01-24 15:41:39.82	6.51	27.56	-43.3	-44.5	21.1	0.00e+00	0	41	0	450887680	58	6819
2026-01-24 15:41:40.83	6.36	27.71	-43.2	-44.4	21.1	0.00e+00	76	41	0	452984832	58	6736
2026-01-24 15:41:41.83	6.22	27.87	-43.2	-44.4	21.1	0.00e+00	92	41	0	454033408	58	6695
2026-01-24 15:41:42.85	6.07	28.03	-43.2	-44.3	21.2	0.00e+00	77	41	0	456130560	58	6687
2026-01-24 15:41:43.85	5.92	28.19	-43.1	-44.3	21.3	0.00e+00	92	41	0	458227712	58	6662
2026-01-24 15:41:44.86	5.77	28.35	-43.1	-44.2	21.4	0.00e+00	0	41	0	460324864	58	6592
2026-01-24 15:41:45.87	5.61	28.51	-43.3	-44.5	21.1	0.00e+00	0	41	0	462422016	58	6797
2026-01-24 15:41:46.88	5.46	28.67	-43.2	-44.4	21.2	0.00e+00	0	41	0	463470592	58	6755
2026-01-24 15:41:47.89	5.30	28.83	-43.4	-44.6	21.0	0.00e+00	0	41	0	465567744	58	6879
2026-01-24 15:41:48.90	5.15	29.00	-43.3	-44.5	21.1	0.00e+00	90	41	0	467664896	58	6791
2026-01-24 15:41:49.91	4.99	29.16	-43.5	-44.8	20.9	0.00e+00	0	41	0	469762048	58	7045
2026-01-24 15:41:50.92	4.83	29.32	-43.1	-44.3	21.2	0.00e+00	90	41	0	471859200	58	6649
2026-01-24 15:41:51.93	4.66	29.49	-43.0	-44.2	21.5	0.00e+00	2	41	0	473956352	58	6552
2026-01-24 15:41:52.94	4.50	29.65	-42.7	-43.8	21.8	0.00e+00	0	41	0	475004928	58	6253
2026-01-24 15:41:53.95	4.33	29.82	-42.6	-43.7	21.8	0.00e+00	0	41	0	477102080	58	6224
2026-01-24 15:41:54.96	4.17	29.99	-42.4	-43.5	21.9	0.00e+00	4	41	0	479199232	58	6088
2026-01-24 15:41:55.97	4.00	30.16	-42.4	-43.4	22.1	0.00e+00	90	41	0	481296384	58	6023
2026-01-24 15:41:56.98	3.83	30.32	-42.4	-43.5	22.0	0.00e+00	0	41	0	483393536	58	6035
2026-01-24 15:41:57.98	3.65	30.49	-42.7	-43.8	21.8	0.00e+00	90	41	0	484442112	58	6266
2026-01-24 15:41:58.99	3.48	30.66	-42.7	-43.8	21.7	0.00e+00	0	41	0	486539264	58	6291
2026-01-24 15:42:00.00	3.30	30.83	-42.7	-43.8	21.7	0.00e+00	5	41	0	488636416	58	6279
2026-01-24 15:42:01.01	3.12	31.00	-42.9	-44.0	21.5	0.00e+00	0	41	0	490733568	58	6464
2026-01-24 15:42:02.02	2.94	31.18	-42.8	-44.0	21.6	0.00e+00	2	41	0	492830720	58	6437
2026-01-24 15:42:03.02	2.76	31.35	-42.8	-44.0	21.4	0.00e+00	0	41	0	493879296	58	6411
2026-01-24 15:42:04.03	2.58	31.52	-43.0	-44.2	21.4	0.00e+00	1	41	0	495976448	58	6549
2026-01-24 15:42:05.04	2.39	31.69	-43.2	-44.4	21.1	0.00e+00	91	41	0	498073600	58	6754
2026-01-24 15:42:06.05	2.20	31.87	-43.2	-44.4	21.3	0.00e+00	3	41	0	500170752	58	6763
2026-01-24 15:42:07.06	2.01	32.04	-43.3	-44.5	21.1	0.00e+00	92	41	0	502267904	58	6841
2026-01-24 15:42:08.07	1.82	32.22	-43.4	-44.7	20.9	0.00e+00	0	41	0	503316480	58	6943
2026-01-24 15:42:09.08	1.62	32.40	-43.5	-44.8	20.8	0.00e+00	0	41	0	505413632	58	7072
2026-01-24 15:42:10.09	1.43	32.57	-43.6	-45.0	20.7	0.00e+00	0	41	0	507510784	58	7190
2026-01-24 15:42:11.10	1.23	32.75	-43.6	-44.9	20.7	0.00e+00	0	41	0	509607936	58	7123
2026-01-24 15:42:12.11	1.02	32.93	-43.4	-44.7	20.9	0.00e+00	92	41	0	511705088	58	6964
2026-01-24 15:42:13.11	0.82	33.11	-43.5	-44.8	20.6	0.00e+00	0	41	0	512753664	58	7055
2026-01-24 15:42:14.12	0.62	33.29	-43.4	-44.6	21.0	0.00e+00	92	41	0	514850816	58	6912
2026-01-24 15:42:15.13	0.41	33.47	-43.4	-44.7	20.9	0.00e+00	0	41	0	516947968	58	6931
2026-01-24 15:42:16.14	0.20	33.65	-43.6	-44.9	20.7	0.00e+00	0	41	0	519045120	58	7126
2026-01-24 15:42:17.15	359.98	33.83	-44.0	-45.3	20.3	0.00e+00	0	41	0	521142272	60	6680
2026-01-24 15:42:18.15	359.77	34.01	-43.6	-44.9	20.7	0.00e+00	0	41	0	522190848	60	6375
2026-01-24 15:42:19.16	359.55	34.19	-43.8	-45.2	20.5	0.00e+00	91	41	0	524288000	60	6560
2026-01-24 15:42:20.17	359.33	34.38	-43.8	-45.1	20.5	0.00e+00	0	41	0	526385152	60	6513
2026-01-24 15:42:21.18	359.11	34.56	-43.9	-45.2	20.6	0.00e+00	92	41	0	528482304	60	6592
2026-01-24 15:42:22.19	358.88	34.75	-43.9	-45.3	20.5	0.00e+00	0	41	0	530579456	60	6653
2026-01-24 15:42:23.20	358.65	34.93	-43.9	-45.3	20.5	0.00e+00	20	41	0	531628032	60	6656
2026-01-24 15:42:24.21	358.42	35.12	-43.9	-45.3	20.4	0.00e+00	0	41	0	533725184	60	6668
2026-01-24 15:42:25.22	358.19	35.30	-43.6	-44.9	20.8	0.00e+00	0	41	0	535822336	60	6348
2026-01-24 15:42:26.23	357.95	35.49	-43.5	-44.7	21.0	0.00e+00	0	41	0	537919488	60	6241
2026-01-24 15:42:27.24	357.71	35.68	-43.4	-44.6	21.1	0.00e+00	0	41	0	540016640	60	6123
2026-01-24 15:42:28.25	357.47	35.87	-43.5	-44.8	21.0	0.00e+00	92	41	0	541065216	60	6247
2026-01-24 15:42:29.26	357.22	36.06	-43.3	-44.5	21.2	0.00e+00	78	41	0	543162368	60	6076
2026-01-24 15:42:30.27	356.98	36.24	-43.2	-44.4	21.3	0.00e+00	91	41	0	545259520	60	6006
2026-01-24 15:42:31.28	356.73	36.43	-43.2	-44.4	21.2	0.00e+00	0	41	0	547356672	60	6028
2026-01-24 15:42:32.29	356.47	36.62	-42.8	-44.0	21.8	0.00e+00	3	41	0	549453824	60	5715
2026-01-24 15:42:33.30	356.21	36.81	-42.6	-43.7	21.8	0.00e+00	2	41	0	550502400	58	6225
2026-01-24 15:42:34.31	355.95	37.01	-42.7	-43.8	21.6	0.00e+00	2	41	0	552599552	58	6270
2026-01-24 15:42:35.31	355.69	37.20	-42.9	-44.1	21.4	0.00e+00	92	41	0	554696704	58	6475
2026-01-24 15:42:36.32	355.43	37.39	-42.9	-44.1	21.4	0.00e+00	2	41	0	556793856	58	6520
2026-01-24 15:42:37.33	355.16	37.58	-43.1	-44.3	21.3	0.00e+00	92	41	0	558891008	58	6630
2026-01-24 15:42:38.34	354.89	37.77	-43.2	-44.4	21.2	0.00e+00	0	41	0	560988160	58	6731
2026-01-24 15:42:39.35	354.61	37.96	-43.2	-44.4	21.2	0.00e+00	0	41	0	562036736	58	6710
2026-01-24 15:42:40.36	354.33	38.16	-43.1	-44.3	21.2	0.00e+00	0	41	0	564133888	58	6686
2026-01-24 15:42:41.37	354.05	38.35	-43.1	-44.3	21.2	0.00e+00	81	41	0	566231040	58	6681
2026-01-24 15:42:42.38	353.76	38.55	-43.2	-44.4	21.3	0.00e+00	20	41	0	568328192	58	6695
2026-01-24 15:42:43.39	353.47	38.74	-43.3	-44.5	21.1	0.00e+00	0	41	0	570425344	58	6776
2026-01-24 15:42:44.40	353.18	38.93	-43.1	-44.2	21.4	0.00e+00	92	41	0	571473920	58	6597
2026-01-24 15:42:45.40	352.89	39.13	-43.0	-44.1	21.5	0.00e+00	81	41	0	573571072	58	6497
2026-01-24 15:42:46.41	352.59	39.32	-43.2	-44.3	21.2	0.00e+00	92	41	0	575668224	58	6691
2026-01-24 15:42:47.42	352.28	39.52	-43.1	-44.3	21.2	0.00e+00	81	41	0	577765376	58	6633
2026-01-24 15:42:48.43	351.97	39.71	-43.3	-44.5	21.0	0.00e+00	81	41	0	579862528	58	6827
2026-01-24 15:42:49.44	351.66	39.91	-43.4	-44.6	21.0	0.00e+00	0	41	0	580911104	58	6922
2026-01-24 15:42:50.45	351.35	40.10	-43.2	-44.5	21.1	0.00e+00	0	41	0	583008256	58	6794
2026-01-24 15:42:51.46	351.03	40.30	-43.2	-44.4	21.3	0.00e+00	92	41	0	585105408	58	6719
2026-01-24 15:42:52.47	350.71	40.49	-43.1	-44.3	21.3	0.00e+00	0	41	0	587202560	58	6659
2026-01-24 15:42:53.48	350.38	40.69	-43.2	-44.4	21.2	0.00e+00	92	41	0	589299712	58	6744
2026-01-24 15:42:54.49	350.05	40.88	-43.2	-44.5	21.2	0.00e+00	0	41	0	590348288	58	6782
2026-01-24 15:42:55.49	349.72	41.08	-43.0	-44.2	21.4	0.00e+00	0	41	0	592445440	58	6557
2026-01-24 15:42:56.50	349.38	41.27	-42.9	-44.0	21.4	0.00e+00	0	41	0	594542592	58	6432
2026-01-24 15:42:57.51	349.04	41.47	-42.7	-43.8	21.8	0.00e+00	0	41	0	596639744	58	6262
2026-01-24 15:42:58.52	348.69	41.66	-42.5	-43.5	22.0	0.00e+00	66	41	0	598736896	58	6099
2026-01-24 15:42:59.53	348.34	41.86	-42.6	-43.7	21.8	0.00e+00	6	41	0	599785472	58	6195
2026-01-24 15:43:00.54	347.98	42.05	-43.0	-44.1	21.5	0.00e+00	92	41	0	601882624	58	6536
2026-01-24 15:43:01.55	347.62	42.25	-43.3	-44.5	21.1	0.00e+00	6	41	0	603979776	58	6832
2026-01-24 15:43:02.56	347.26	42.44	-43.7	-45.0	20.7	0.00e+00	7	41	0	606076928	58	7218
2026-01-24 15:43:03.57	346.89	42.64	-44.0	-45.4	20.5	0.00e+00	81	41	0	608174080	60	6703
2026-01-24 15:43:04.58	346.51	42.83	-44.1	-45.5	20.2	0.00e+00	0	41	0	609222656	60	6812
2026-01-24 15:43:05.59	346.13	43.02	-44.3	-45.7	20.0	0.00e+00	5	41	0	611319808	60	6987
2026-01-24 15:43:06.60	345.75	43.22	-44.4	-45.8	20.1	0.00e+00	82	41	0	613416960	60	7056
2026-01-24 15:43:07.61	345.36	43.41	-44.3	-45.7	20.0	0.00e+00	92	41	0	615514112	60	6993
2026-01-24 15:43:08.62	344.97	43.60	-43.9	-45.2	20.6	0.00e+00	82	41	0	617611264	60	6610
2026-01-24 15:43:09.63	344.57	43.79	-43.8	-45.1	20.7	0.00e+00	12	41	0	618659840	60	6499
2026-01-24 15:43:10.63	344.18	43.98	-43.5	-44.7	20.9	0.00e+00	5	41	0	620756992	60	6224
2026-01-24 15:43:11.64	343.77	44.17	-43.4	-44.6	21.1	0.00e+00	82	41	0	622854144	60	6155
2026-01-24 15:43:12.65	343.36	44.36	-43.5	-44.8	20.9	0.00e+00	65	41	0	624951296	60	6246
2026-01-24 15:43:13.67	342.94	44.55	-43.4	-44.6	21.1	0.00e+00	8	41	0	627048448	60	6148
2026-01-24 15:43:14.67	342.52	44.74	-43.5	-44.8	21.0	0.00e+00	92	41	0	629145600	60	6268
2026-01-24 15:43:15.68	342.09	44.92	-43.7	-45.0	20.7	0.00e+00	6	41	0	630194176	60	6447
2026-01-24 15:43:16.69	341.66	45.11	-43.9	-45.3	20.3	0.00e+00	92	41	0	632291328	60	6647
2026-01-24 15:43:17.70	341.23	45.29	-44.3	-45.7	20.2	0.00e+00	6	41	0	634388480	60	6972
2026-01-24 15:43:18.71	340.78	45.48	-44.5	-45.9	19.9	0.00e+00	6	41	0	636485632	60	7169
2026-01-24 15:43:19.72	340.34	45.66	-44.4	-45.8	20.1	0.00e+00	0	41	0	638582784	60	7070
2026-01-24 15:43:20.73	339.88	45.84	-43.8	-45.1	20.6	0.00e+00	0	41	0	639631360	60	6513
2026-01-24 15:43:21.74	339.43	46.02	-43.4	-44.6	21.0	0.00e+00	64	41	0	641728512	60	6136
2026-01-24 15:43:22.75	338.96	46.20	-43.2	-44.3	21.4	0.00e+00	0	41	0	643825664	60	5960
2026-01-24 15:43:23.75	338.50	46.38	-42.8	-43.9	21.8	0.00e+00	92	41	0	645922816	60	5681
2026-01-24 15:43:24.76	338.03	46.55	-42.6	-43.7	22.0	0.00e+00	78	41	0	648019968	58	6222
2026-01-24 15:43:25.77	337.55	46.73	-42.5	-43.6	22.0	0.00e+00	3	41	0	649068544	58	6133
2026-01-24 15:43:26.78	337.06	46.90	-42.5	-43.5	22.1	0.00e+00	77	41	0	651165696	58	6083
2026-01-24 15:43:27.79	336.57	47.07	-42.4	-43.4	21.8	0.00e+00	0	41	0	653262848	58	6028
2026-01-24 15:43:28.80	336.08	47.24	-42.5	-43.5	22.0	0.00e+00	83	41	0	655360000	58	6098
2026-01-24 15:43:29.81	335.58	47.41	-42.5	-43.7	21.9	0.00e+00	0	41	0	657457152	58	6177
2026-01-24 15:43:30.82	335.07	47.58	-42.6	-43.7	21.9	0.00e+00	91	41	0	658505728	58	6197
2026-01-24 15:43:31.83	334.56	47.74	-42.6	-43.7	21.9	0.00e+00	0	41	0	660602880	58	6243
2026-01-24 15:43:32.84	334.04	47.91	-42.7	-43.9	21.8	0.00e+00	91	41	0	662700032	58	6324
2026-01-24 15:43:33.85	333.52	48.07	-42.3	-43.4	22.2	0.00e+00	0	41	0	664797184	58	6024
2026-01-24 15:43:34.86	332.99	48.23	-42.1	-43.2	22.1	0.00e+00	82	41	0	666894336	58	5833
2026-01-24 15:43:35.87	332.46	48.39	-42.1	-43.1	22.4	0.00e+00	4	41	0	667942912	58	5803
2026-01-24 15:43:36.88	331.92	48.54	-42.1	-43.2	22.3	0.00e+00	0	41	0	670040064	58	5867
2026-01-24 15:43:37.89	331.38	48.69	-42.3	-43.3	22.2	0.00e+00	92	41	0	672137216	58	5940
2026-01-24 15:43:38.90	330.83	48.84	-42.2	-43.2	22.3	0.00e+00	2	41	0	674234368	58	5887
2026-01-24 15:43:39.91	330.27	48.99	-42.9	-44.0	21.5	0.00e+00	92	41	0	676331520	58	6452
2026-01-24 15:43:40.91	329.72	49.14	-43.5	-44.7	21.0	0.00e+00	0	41	0	677380096	58	6953
2026-01-24 15:43:41.92	329.15	49.28	-43.6	-44.8	20.8	0.00e+00	0	41	0	679477248	58	7043
2026-01-24 15:43:42.93	328.58	49.42	-43.4	-44.6	21.1	0.00e+00	0	41	0	681574400	58	6894
2026-01-24 15:43:43.94	328.00	49.56	-43.5	-44.7	21.0	0.00e+00	2	41	0	683671552	58	6960
2026-01-24 15:43:44.95	327.42	49.69	-43.5	-44.7	21.0	0.00e+00	78	41	0	685768704	58	6979
2026-01-24 15:43:45.96	326.84	49.83	-43.5	-44.7	21.0	0.00e+00	2	41	0	686817280	58	6979
2026-01-24 15:43:46.96	326.25	49.95	-43.2	-44.4	21.2	0.00e+00	92	41	0	688914432	58	6725
2026-01-24 15:43:47.97	325.65	50.08	-43.2	-44.4	21.2	0.00e+00	82	41	0	691011584	58	6712
2026-01-24 15:43:48.98	325.05	50.20	-43.0	-44.2	21.4	0.00e+00	35	41	0	693108736	58	6575
2026-01-24 15:43:49.99	324.45	50.32	-43.1	-44.3	21.4	0.00e+00	79	41	0	695205888	58	6625
2026-01-24 15:43:51.00	323.83	50.44	-43.1	-44.2	21.4	0.00e+00	78	41	0	696254464	58	6596
2026-01-24 15:43:52.01	323.22	50.56	-43.2	-44.3	21.3	0.00e+00	0	41	0	698351616	58	6682
2026-01-24 15:43:53.02	322.60	50.67	-43.5	-44.7	20.8	0.00e+00	71	41	0	700448768	58	6981
2026-01-24 15:43:54.02	321.98	50.77	-43.7	-45.0	20.2	0.00e+00	92	41	0	702545920	58	7226
2026-01-24 15:43:55.03	321.35	50.88	-43.5	-44.7	21.1	0.00e+00	4	41	0	704643072	60	6229
2026-01-24 15:43:56.04	320.71	50.98	-43.0	-44.1	21.7	0.00e+00	92	41	0	705691648	60	5816
2026-01-24 15:43:57.05	320.08	51.08	-42.7	-43.8	21.8	0.00e+00	0	41	0	707788800	58	6273
2026-01-24 15:43:58.06	319.43	51.17	-42.3	-43.4	22.2	0.00e+00	2	41	0	709885952	58	5971
2026-01-24 15:43:59.07	318.79	51.26	-42.3	-43.4	22.2	0.00e+00	0	41	0	711983104	58	5982
2026-01-24 15:44:00.08	318.14	51.35	-42.1	-43.2	22.4	0.00e+00	0	41	0	714080256	58	5834
2026-01-24 15:44:01.09	317.48	51.43	-42.2	-43.2	22.3	0.00e+00	92	41	0	715128832	58	5872
2026-01-24 15:44:02.10	316.82	51.51	-41.4	-42.3	23.2	0.00e+00	2	41	0	717225984	56	5933
2026-01-24 15:44:03.11	316.16	51.58	-41.0	-41.9	23.6	0.00e+00	90	41	0	719323136	56	5677
2026-01-24 15:44:04.12	315.50	51.65	-40.1	-40.9	24.3	0.00e+00	0	41	0	721420288	54	5695
2026-01-24 15:44:05.13	314.83	51.72	-39.8	-40.6	24.6	0.00e+00	0	41	0	723517440	52	6136
2026-01-24 15:44:06.14	314.16	51.79	-39.5	-40.3	24.9	0.00e+00	0	41	0	725614592	52	5948
2026-01-24 15:44:07.15	313.49	51.84	-39.3	-40.1	25.0	0.00e+00	2	41	0	726663168	52	5791
2026-01-24 15:44:08.15	312.82	51.90	-39.1	-39.9	25.1	0.00e+00	76	41	0	728760320	52	5641
2026-01-24 15:44:09.16	312.14	51.95	-38.9	-39.6	25.4	0.00e+00	81	41	0	730857472	52	5489
2026-01-24 15:44:10.17	311.46	52.00	-38.5	-39.3	25.6	0.00e+00	92	41	0	732954624	50	5925
2026-01-24 15:44:11.18	310.78	52.04	-38.3	-39.0	25.7	0.00e+00	0	41	0	735051776	50	5759
2026-01-24 15:44:12.19	310.09	52.08	-38.2	-39.0	26.0	0.00e+00	81	41	0	736100352	50	5702
2026-01-24 15:44:13.20	309.41	52.11	-38.3	-39.0	26.0	0.00e+00	0	41	0	738197504	50	5731
2026-01-24 15:44:14.21	308.72	52.14	-38.0	-38.7	26.2	0.00e+00	0	41	0	740294656	50	5566
2026-01-24 15:44:15.22	308.03	52.17	-38.2	-39.0	25.9	0.00e+00	53	41	0	742391808	50	5714
2026-01-24 15:44:16.23	307.34	52.19	-38.7	-39.4	25.6	0.00e+00	0	41	0	744488960	50	6021
2026-01-24 15:44:17.24	306.65	52.21	-38.8	-39.5	25.5	0.00e+00	92	41	0	745537536	50	6089
2026-01-24 15:44:18.25	305.96	52.22	-38.8	-39.5	25.5	0.00e+00	2	41	0	747634688	50	6086
2026-01-24 15:44:19.26	305.26	52.23	-38.8	-39.5	25.6	0.00e+00	5	41	0	749731840	50	6102
2026-01-24 15:44:20.27	304.57	52.23	-38.8	-39.6	25.5	0.00e+00	3	41	0	751828992	50	6150
2026-01-24 15:44:21.28	303.88	52.23	-38.9	-39.7	25.4	0.00e+00	3	41	0	753926144	50	6189
2026-01-24 15:44:22.29	303.19	52.23	-38.8	-39.6	25.1	0.00e+00	4	41	0	754974720	50	6118
2026-01-24 15:44:23.30	302.49	52.22	-39.0	-39.8	25.3	0.00e+00	0	41	0	757071872	50	6269
2026-01-24 15:44:24.31	301.80	52.21	-39.0	-39.8	25.3	0.00e+00	90	41	0	759169024	50	6248
2026-01-24 15:44:25.32	301.11	52.19	-39.0	-39.8	25.2	0.00e+00	0	41	0	761266176	50	6304
2026-01-24 15:44:26.32	300.43	52.17	-39.3	-40.0	25.1	0.00e+00	92	41	0	763363328	50	6459
2026-01-24 15:44:27.33	299.74	52.14	-39.2	-40.0	25.0	0.00e+00	2	41	0	764411904	50	6439
2026-01-24 15:44:28.34	299.05	52.11	-39.3	-40.1	25.0	0.00e+00	0	41	0	766509056	50	6512
2026-01-24 15:44:29.35	298.37	52.07	-39.3	-40.1	25.0	0.00e+00	0	41	0	768606208	50	6477
2026-01-24 15:44:30.36	297.68	52.04	-39.6	-40.4	24.8	0.00e+00	0	41	0	770703360	50	6734
2026-01-24 15:44:31.37	297.00	51.99	-39.7	-40.6	24.7	0.00e+00	61	41	0	772800512	52	6104
2026-01-24 15:44:32.38	296.32	51.95	-39.8	-40.6	24.8	0.00e+00	82	41	0	773849088	52	6124
2026-01-24 15:44:33.39	295.64	51.89	-39.9	-40.7	24.5	0.00e+00	92	41	0	775946240	52	6200
2026-01-24 15:44:34.40	294.96	51.84	-39.8	-40.7	24.6	0.00e+00	2	41	0	778043392	52	6182
2026-01-24 15:44:35.41	294.29	51.78	-39.5	-40.3	24.8	0.00e+00	0	41	0	780140544	52	5936
2026-01-24 15:44:36.42	293.62	51.72	-39.2	-40.0	25.2	0.00e+00	81	41	0	782237696	52	5750
2026-01-24 15:44:37.43	292.95	51.65	-39.3	-40.1	25.1	0.00e+00	80	41	0	783286272	52	5798
2026-01-24 15:44:38.44	292.29	51.58	-39.4	-40.2	24.9	0.00e+00	0	41	0	785383424	52	5871
2026-01-24 15:44:39.45	291.63	51.50	-39.4	-40.2	25.0	0.00e+00	1	41	0	787480576	52	5862
2026-01-24 15:44:40.46	290.97	51.42	-39.5	-40.3	24.9	0.00e+00	92	41	0	789577728	52	5921
2026-01-24 15:44:41.47	290.31	51.34	-39.7	-40.5	24.6	0.00e+00	1	41	0	791674880	52	6092
2026-01-24 15:44:42.48	289.66	51.25	-39.8	-40.6	24.6	0.00e+00	37	41	0	793772032	52	6137
2026-01-24 15:44:43.48	289.02	51.16	-39.5	-40.3	24.9	0.00e+00	6	41	0	794820608	52	5942
2026-01-24 15:44:44.49	288.38	51.07	-39.5	-40.3	25.0	0.00e+00	5	41	0	796917760	52	5932
2026-01-24 15:44:45.50	287.74	50.97	-39.6	-40.4	24.8	0.00e+00	0	41	0	799014912	52	5991
2026-01-24 15:44:46.51	287.11	50.87	-39.7	-40.5	24.7	0.00e+00	0	41	0	801112064	52	6045
2026-01-24 15:44:47.52	286.48	50.76	-40.0	-40.8	24.5	0.00e+00	90	41	0	803209216	52	6283
2026-01-24 15:44:48.53	285.85	50.66	-40.5	-41.4	23.9	0.00e+00	5	41	0	804257792	52	6734
2026-01-24 15:44:49.54	285.23	50.54	-40.9	-41.8	23.5	0.00e+00	91	41	0	806354944	54	6292
2026-01-24 15:44:50.55	284.61	50.43	-41.3	-42.3	23.1	0.00e+00	0	41	0	808452096	54	6624
2026-01-24 15:44:51.56	284.00	50.31	-41.5	-42.4	22.9	0.00e+00	75	41	0	810549248	54	6768
2026-01-24 15:44:52.57	283.40	50.19	-41.7	-42.7	22.8	0.00e+00	0	41	0	812646400	54	6957
2026-01-24 15:44:53.58	282.79	50.07	-41.9	-42.9	22.6	0.00e+00	0	41	0	813694976	56	6359
2026-01-24 15:44:54.59	282.20	49.94	-41.7	-42.7	22.9	0.00e+00	17	41	0	815792128	56	6201
2026-01-24 15:44:55.60	281.60	49.81	-41.8	-42.8	22.7	0.00e+00	0	41	0	817889280	56	6303
2026-01-24 15:44:56.61	281.02	49.68	-42.4	-43.5	22.1	0.00e+00	92	41	0	819986432	56	6785
2026-01-24 15:44:57.62	280.44	49.54	-43.1	-44.3	21.3	0.00e+00	5	41	0	822083584	58	6649
2026-01-24 15:44:58.63	279.86	49.40	-43.5	-44.7	21.0	0.00e+00	3	41	0	823132160	58	6984
2026-01-24 15:44:59.63	279.29	49.26	-43.5	-44.8	20.9	0.00e+00	5	41	0	825229312	58	7010
2026-01-24 15:45:00.64	278.73	49.12	-43.2	-44.3	21.5	0.00e+00	82	41	0	827326464	58	6664
2026-01-24 15:45:01.65	278.17	48.97	-43.0	-44.2	21.5	0.00e+00	0	41	0	829423616	58	6557
2026-01-24 15:45:02.66	277.61	48.82	-43.2	-44.3	21.3	0.00e+00	3	41	0	831520768	58	6685
2026-01-24 15:45:03.67	277.06	48.67	-43.4	-44.6	21.2	0.00e+00	92	41	0	832569344	58	6912
2026-01-24 15:45:04.67	276.52	48.52	-43.0	-44.2	21.4	0.00e+00	4	41	0	834666496	58	6559
2026-01-24 15:45:05.68	275.98	48.36	-43.1	-44.2	21.3	0.00e+00	92	41	0	836763648	58	6609
2026-01-24 15:45:06.69	275.45	48.21	-43.4	-44.6	21.2	0.00e+00	7	41	0	838860800	58	6868
2026-01-24 15:45:07.70	274.92	48.05	-43.4	-44.6	21.0	0.00e+00	6	41	0	840957952	58	6913
2026-01-24 15:45:08.71	274.40	47.89	-43.0	-44.1	21.5	0.00e+00	6	41	0	842006528	58	6506
2026-01-24 15:45:09.72	273.88	47.72	-42.6	-43.7	21.9	0.00e+00	0	41	0	844103680	58	6236
2026-01-24 15:45:10.73	273.37	47.56	-42.6	-43.7	22.0	0.00e+00	92	41	0	846200832	58	6204
2026-01-24 15:45:11.74	272.86	47.39	-42.4	-43.5	22.1	0.00e+00	0	41	0	848297984	58	6073
2026-01-24 15:45:12.75	272.36	47.22	-42.4	-43.5	22.1	0.00e+00	92	41	0	850395136	58	6078
2026-01-24 15:45:13.75	271.87	47.05	-42.5	-43.5	22.0	0.00e+00	0	41	0	851443712	58	6097
2026-01-24 15:45:14.76	271.38	46.88	-42.7	-43.8	21.8	0.00e+00	0	41	0	853540864	58	6254
2026-01-24 15:45:15.77	270.90	46.70	-42.8	-43.9	21.6	0.00e+00	0	41	0	855638016	58	6349
2026-01-24 15:45:16.78	270.42	46.53	-43.1	-44.3	21.5	0.00e+00	0	41	0	857735168	58	6620
2026-01-24 15:45:17.79	269.95	46.35	-43.2	-44.4	21.2	0.00e+00	7	41	0	859832320	58	6721
2026-01-24 15:45:18.80	269.48	46.17	-43.2	-44.3	21.2	0.00e+00	0	41	0	860880896	58	6676
2026-01-24 15:45:19.81	269.01	45.99	-42.8	-43.9	21.8	0.00e+00	92	41	0	862978048	58	6345
2026-01-24 15:45:20.82	268.56	45.81	-42.4	-43.5	22.1	0.00e+00	3	41	0	865075200	58	6080
2026-01-24 15:45:21.83	268.10	45.63	-42.6	-43.7	21.8	0.00e+00	3	41	0	867172352	58	6235
2026-01-24 15:45:22.83	267.66	45.45	-42.7	-43.8	21.6	0.00e+00	3	41	0	869269504	58	6251
2026-01-24 15:45:23.84	267.22	45.26	-42.8	-43.9	21.7	0.00e+00	77	41	0	870318080	58	6371
2026-01-24 15:45:24.85	266.78	45.08	-43.1	-44.3	21.3	0.00e+00	19	41	0	872415232	58	6619
2026-01-24 15:45:25.86	266.35	44.89	-43.3	-44.5	21.0	0.00e+00	4	41	0	874512384	58	6827
2026-01-24 15:45:26.87	265.92	44.70	-43.3	-44.5	21.3	0.00e+00	91	41	0	876609536	58	6797
2026-01-24 15:45:27.87	265.50	44.52	-43.2	-44.4	21.5	0.00e+00	0	41	0	878706688	58	6727
2026-01-24 15:45:28.88	265.09	44.33	-42.6	-43.7	22.0	0.00e+00	91	41	0	879755264	58	6219
2026-01-24 15:45:29.89	264.68	44.14	-42.5	-43.5	22.1	0.00e+00	0	41	0	881852416	58	6094
2026-01-24 15:45:30.90	264.27	43.95	-42.5	-43.5	21.8	0.00e+00	0	41	0	883949568	58	6084
2026-01-24 15:45:31.91	263.87	43.76	-42.7	-43.8	22.1	0.00e+00	0	41	0	886046720	58	6308
2026-01-24 15:45:32.92	263.47	43.57	-42.2	-43.2	22.3	0.00e+00	0	41	0	888143872	58	5876
2026-01-24 15:45:33.93	263.08	43.37	-41.9	-42.9	22.7	0.00e+00	89	41	0	890241024	58	5664
2026-01-24 15:45:34.94	262.69	43.18	-41.9	-42.9	22.7	0.00e+00	0	41	0	891289600	56	6322
2026-01-24 15:45:35.95	262.31	42.99	-41.9	-42.9	22.7	0.00e+00	92	41	0	893386752	56	6336
2026-01-24 15:45:36.96	261.93	42.79	-42.1	-43.1	22.6	0.00e+00	0	41	0	895483904	56	6484
2026-01-24 15:45:37.97	261.55	42.60	-42.4	-43.4	22.2	0.00e+00	81	41	0	897581056	56	6737
2026-01-24 15:45:38.97	261.19	42.41	-42.5	-43.6	22.2	0.00e+00	0	41	0	899678208	56	6855
2026-01-24 15:45:39.99	260.82	42.21	-42.3	-43.4	22.3	0.00e+00	82	41	0	900726784	56	6721
2026-01-24 15:45:40.99	260.46	42.02	-42.4	-43.4	22.2	0.00e+00	83	41	0	902823936	56	6761
2026-01-24 15:45:42.00	260.10	41.82	-42.3	-43.3	22.2	0.00e+00	0	41	0	904921088	56	6690
2026-01-24 15:45:43.01	259.75	41.62	-42.7	-43.8	21.6	0.00e+00	92	41	0	907018240	56	7045
2026-01-24 15:45:44.02	259.41	41.43	-42.8	-44.0	21.6	0.00e+00	0	41	0	909115392	58	6400
2026-01-24 15:45:45.03	259.06	41.23	-43.1	-44.2	21.3	0.00e+00	68	41	0	910163968	58	6599
2026-01-24 15:45:46.04	258.72	41.04	-43.4	-44.7	20.9	0.00e+00	82	41	0	912261120	58	6932
2026-01-24 15:45:47.05	258.39	40.84	-43.9	-45.2	20.6	0.00e+00	5	41	0	914358272	60	6564
2026-01-24 15:45:48.06	258.06	40.64	-44.3	-45.7	20.1	0.00e+00	0	41	0	916455424	60	6956
2026-01-24 15:45:49.07	257.73	40.45	-44.2	-45.6	20.1	0.00e+00	4	41	0	918552576	60	6872
2026-01-24 15:45:50.08	257.41	40.25	-44.2	-45.5	20.2	0.00e+00	91	41	0	919601152	60	6823
2026-01-24 15:45:51.09	257.09	40.06	-44.2	-45.6	20.1	0.00e+00	4	41	0	921698304	60	6887
2026-01-24 15:45:52.10	256.77	39.86	-44.2	-45.6	20.1	0.00e+00	91	41	0	923795456	60	6911
2026-01-24 15:45:53.10	256.46	39.67	-44.0	-45.3	20.4	0.00e+00	2	41	0	925892608	60	6663
2026-01-24 15:45:54.11	256.15	39.47	-43.8	-45.1	20.7	0.00e+00	0	41	0	927989760	60	6515
2026-01-24 15:45:55.12	255.85	39.28	-44.2	-45.5	20.2	0.00e+00	0	41	0	929038336	60	6814
2026-01-24 15:45:56.13	255.55	39.08	-44.9	-46.5	19.3	0.00e+00	0	41	0	931135488	60	7615
2026-01-24 15:45:57.14	255.25	38.88	-44.9	-46.4	19.4	0.00e+00	86	41	0	933232640	60	7543
2026-01-24 15:45:58.15	254.96	38.69	-44.7	-46.2	19.7	0.00e+00	2	41	0	935329792	60	7359
2026-01-24 15:45:59.16	254.67	38.49	-44.4	-45.8	20.0	0.00e+00	90	41	0	937426944	60	7050
2026-01-24 15:46:00.17	254.38	38.30	-44.0	-45.4	20.3	0.00e+00	81	41	0	938475520	60	6693
2026-01-24 15:46:01.18	254.10	38.11	-44.2	-45.6	20.2	0.00e+00	12	41	0	940572672	60	6883
2026-01-24 15:46:02.18	253.82	37.91	-44.2	-45.5	20.2	0.00e+00	0	41	0	942669824	60	6815
2026-01-24 15:46:03.19	253.55	37.72	-44.2	-45.6	20.1	0.00e+00	0	41	0	944766976	60	6864
2026-01-24 15:46:04.20	253.27	37.53	-44.4	-45.8	19.8	0.00e+00	0	41	0	946864128	60	7032
2026-01-24 15:46:05.21	253.00	37.34	-44.5	-45.9	19.8	0.00e+00	80	41	0	947912704	60	7117
2026-01-24 15:46:06.23	252.74	37.14	-44.5	-45.9	19.8	0.00e+00	90	41	0	950009856	60	7167
2026-01-24 15:46:07.23	252.47	36.95	-44.5	-45.9	19.9	0.00e+00	1	41	0	952107008	60	7164
2026-01-24 15:46:08.24	252.21	36.76	-44.3	-45.7	20.1	0.00e+00	54	41	0	954204160	60	6928
2026-01-24 15:46:09.25	251.96	36.57	-44.5	-45.9	19.9	0.00e+00	0	41	0	956301312	60	7140
2026-01-24 15:46:10.26	251.70	36.38	-44.5	-46.0	19.7	0.00e+00	0	41	0	958398464	60	7199
2026-01-24 15:46:11.28	251.45	36.19	-44.5	-45.9	19.7	0.00e+00	0	41	0	959447040	60	7163
2026-01-24 15:46:12.29	251.20	36.00	-44.4	-45.9	20.0	0.00e+00	3	41	0	961544192	60	7091
2026-01-24 15:46:13.29	250.96	35.81	-44.2	-45.6	20.3	0.00e+00	92	41	0	963641344	60	6879
2026-01-24 15:46:14.30	250.72	35.62	-44.1	-45.4	20.1	0.00e+00	0	41	0	965738496	60	6729
2026-01-24 15:46:15.31	250.48	35.43	-44.1	-45.4	20.3	0.00e+00	90	41	0	967835648	60	6750
2026-01-24 15:46:16.32	250.24	35.24	-44.0	-45.3	20.5	0.00e+00	0	41	0	968884224	60	6688
2026-01-24 15:46:17.33	250.00	35.06	-43.8	-45.1	20.6	0.00e+00	2	41	0	970981376	60	6490
2026-01-24 15:46:18.34	249.77	34.87	-43.6	-44.9	21.0	0.00e+00	0	41	0	973078528	60	6329
2026-01-24 15:46:19.35	249.54	34.69	-43.5	-44.7	21.0	0.00e+00	0	41	0	975175680	60	6225
2026-01-24 15:46:20.36	249.32	34.50	-43.7	-45.0	20.7	0.00e+00	0	41	0	976224256	60	6416
2026-01-24 15:46:21.37	249.09	34.32	-44.0	-45.3	20.5	0.00e+00	76	41	0	978321408	60	6623
2026-01-24 15:46:22.38	248.87	34.13	-44.0	-45.3	20.4	0.00e+00	92	41	0	980418560	60	6632
2026-01-24 15:46:23.39	248.65	33.95	-43.9	-45.2	20.5	0.00e+00	74	41	0	982515712	60	6564
2026-01-24 15:46:24.39	248.44	33.77	-43.6	-44.8	20.9	0.00e+00	75	41	0	984612864	60	6276
2026-01-24 15:46:25.41	248.22	33.58	-43.6	-44.8	21.1	0.00e+00	74	41	0	986710016	60	6296
2026-01-24 15:46:26.41	248.01	33.40	-43.0	-44.2	21.5	0.00e+00	0	41	0	987758592	60	5839
2026-01-24 15:46:27.43	247.80	33.22	-42.7	-43.8	21.8	0.00e+00	0	41	0	989855744	58	6263
2026-01-24 15:46:28.43	247.60	33.04	-42.4	-43.5	22.0	0.00e+00	80	41	0	991952896	58	6038
2026-01-24 15:46:29.44	247.39	32.86	-42.5	-43.5	22.0	0.00e+00	90	41	0	994050048	58	6099
2026-01-24 15:46:30.45	247.19	32.68	-42.6	-43.7	21.9	0.00e+00	3	41	0	996147200	58	6174
2026-01-24 15:46:31.46	246.99	32.50	-42.9	-44.1	21.5	0.00e+00	92	41	0	997195776	58	6486
2026-01-24 15:46:32.47	246.80	32.33	-43.2	-44.4	21.2	0.00e+00	0	41	0	999292928	58	6722
2026-01-24 15:46:33.48	246.60	32.15	-43.4	-44.6	21.0	0.00e+00	5	41	0	1001390080	58	6867
2026-01-24 15:46:34.48	246.41	31.97	-43.7	-45.0	20.7	0.00e+00	8	41	0	1003487232	58	7178
2026-01-24 15:46:35.49	246.22	31.80	-43.6	-44.9	20.7	0.00e+00	0	41	0	1005584384	58	7101
2026-01-24 15:46:36.51	246.03	31.62	-43.5	-44.8	20.8	0.00e+00	92	41	0	1006632960	58	7030
2026-01-24 15:46:37.52	245.84	31.45	-43.5	-44.7	20.7	0.00e+00	5	41	0	1008730112	58	6975
2026-01-24 15:46:38.53	245.65	31.27	-43.5	-44.7	20.9	0.00e+00	90	41	0	1010827264	58	7003
2026-01-24 15:46:39.53	245.47	31.10	-43.4	-44.6	21.0	0.00e+00	0	41	0	1012924416	58	6912
2026-01-24 15:46:40.54	245.29	30.93	-43.2	-44.4	21.1	0.00e+00	0	41	0	1015021568	58	6765
2026-01-24 15:46:41.55	245.11	30.76	-43.4	-44.6	20.9	0.00e+00	0	41	0	1016070144	58	6907
2026-01-24 15:46:42.56	244.94	30.59	-43.7	-44.9	20.7	0.00e+00	80	41	0	1018167296	58	7140
2026-01-24 15:46:43.57	244.76	30.42	-43.2	-44.4	21.2	0.00e+00	34	41	0	1020264448	58	6736
2026-01-24 15:46:44.58	244.59	30.25	-43.4	-44.6	21.1	0.00e+00	0	41	0	1022361600	58	6888
2026-01-24 15:46:45.59	244.41	30.08	-43.4	-44.5	21.1	0.00e+00	92	41	0	1024458752	58	6845
2026-01-24 15:46:46.60	244.24	29.91	-43.5	-44.7	21.0	0.00e+00	0	41	0	1025507328	58	6974
2026-01-24 15:46:47.61	244.08	29.74	-43.4	-44.6	21.0	0.00e+00	92	41	0	1027604480	58	6864
2026-01-24 15:46:48.62	243.91	29.58	-43.4	-44.6	20.9	0.00e+00	12	41	0	1029701632	58	6924
2026-01-24 15:46:49.63	243.75	29.41	-43.5	-44.7	20.9	0.00e+00	0	41	0	1031798784	58	6952
2026-01-24 15:46:50.64	243.58	29.24	-43.3	-44.5	21.2	0.00e+00	56	41	0	1033895936	58	6781
2026-01-24 15:46:51.65	243.42	29.08	-43.1	-44.2	21.4	0.00e+00	11	41	0	1034944512	58	6596
2026-01-24 15:46:52.66	243.26	28.92	-43.0	-44.2	21.4	0.00e+00	92	41	0	1037041664	58	6553
2026-01-24 15:46:53.66	243.11	28.75	-42.8	-43.9	21.7	0.00e+00	11	41	0	1039138816	58	6356
2026-01-24 15:46:54.67	242.95	28.59	-42.6	-43.7	21.7	0.00e+00	92	41	0	1041235968	58	6241
2026-01-24 15:46:55.68	242.79	28.43	-42.7	-43.8	21.9	0.00e+00	7	41	0	1043333120	58	6248
2026-01-24 15:46:56.69	242.64	28.27	-42.5	-43.5	22.1	0.00e+00	7	41	0	1044381696	58	6100
2026-01-24 15:46:57.70	242.49	28.11	-42.5	-43.5	22.1	0.00e+00	0	41	0	1046478848	58	6082
2026-01-24 15:46:58.71	242.34	27.95	-42.2	-43.2	22.3	0.00e+00	0	41	0	1048576000	58	5873
2026-01-24 15:46:59.72	242.19	27.79	-42.2	-43.3	22.3	0.00e+00	91	41	0	1050673152	58	5900
2026-01-24 15:47:00.73	242.04	27.63	-42.0	-43.0	22.5	0.00e+00	7	41	0	1052770304	58	5761
2026-01-24 15:47:01.74	241.90	27.47	-42.0	-43.0	22.5	0.00e+00	91	41	0	1054867456	58	5716
2026-01-24 15:47:02.75	241.76	27.32	-41.9	-42.9	22.6	0.00e+00	6	41	0	1055916032	58	5660
2026-01-24 15:47:03.76	241.61	27.16	-41.9	-43.0	22.4	0.00e+00	26	41	0	1058013184	58	5702
2026-01-24 15:47:04.77	241.47	27.00	-42.2	-43.3	22.2	0.00e+00	81	41	0	1060110336	58	5907
2026-01-24 15:47:05.78	241.33	26.85	-42.4	-43.5	22.1	0.00e+00	80	41	0	1062207488	58	6075
2026-01-24 15:47:06.79	241.19	26.69	-42.5	-43.6	22.0	0.00e+00	18	41	0	1064304640	58	6144
2026-01-24 15:47:07.80	241.06	26.54	-42.6	-43.7	21.9	0.00e+00	80	41	0	1065353216	58	6209
2026-01-24 15:47:08.81	240.92	26.39	-42.5	-43.5	22.0	0.00e+00	90	41	0	1067450368	58	6088
2026-01-24 15:47:09.81	240.79	26.24	-42.4	-43.5	22.0	0.00e+00	2	41	0	1069547520	58	6063
2026-01-24 15:47:10.82	240.65	26.09	-42.3	-43.4	22.2	0.00e+00	91	41	0	1071644672	58	5992
2026-01-24 15:47:11.84	240.52	25.93	-42.2	-43.2	22.3	0.00e+00	2	41	0	1073741824	58	5871
2026-01-24 15:47:12.84	240.39	25.78	-42.0	-43.0	22.5	0.00e+00	1	41	0	1074790400	58	5720
2026-01-24 15:47:13.86	240.26	25.63	-41.9	-42.9	22.4	0.00e+00	0	41	0	1076887552	58	5653
2026-01-24 15:47:14.87	240.13	25.48	-41.7	-42.7	22.7	0.00e+00	0	41	0	1078984704	56	6174
2026-01-24 15:47:15.87	240.01	25.34	-41.6	-42.6	22.8	0.00e+00	92	41	0	1081081856	56	6127
2026-01-24 15:47:16.88	239.88	25.19	-41.7	-42.7	22.8	0.00e+00	2	41	0	1083179008	56	6190
2026-01-24 15:47:17.89	239.76	25.04	-41.6	-42.6	22.8	0.00e+00	92	41	0	1084227584	56	6117
2026-01-24 15:47:18.90	239.63	24.90	-41.5	-42.5	22.9	0.00e+00	8	41	0	1086324736	56	6054
2026-01-24 15:47:19.91	239.51	24.75	-41.7	-42.7	22.7	0.00e+00	8	41	0	1088421888	56	6211
2026-01-24 15:47:20.92	239.39	24.61	-41.7	-42.6	22.8	0.00e+00	0	41	0	1090519040	56	6164
2026-01-24 15:47:21.93	239.27	24.46	-42.0	-43.0	22.5	0.00e+00	0	41	0	1092616192	56	6415
2026-01-24 15:47:22.94	239.15	24.32	-42.0	-43.0	22.4	0.00e+00	92	41	0	1093664768	56	6445
2026-01-24 15:47:23.95	239.03	24.18	-42.0	-43.0	22.5	0.00e+00	0	41	0	1095761920	56	6413
2026-01-24 15:47:24.96	238.92	24.03	-42.0	-43.0	22.4	0.00e+00	92	41	0	1097859072	56	6439
2026-01-24 15:47:25.97	238.80	23.89	-42.1	-43.2	22.3	0.00e+00	0	41	0	1099956224	56	6555
2026-01-24 15:47:26.98	238.69	23.75	-42.1	-43.1	22.3	0.00e+00	79	41	0	1102053376	56	6528
2026-01-24 15:47:27.99	238.57	23.61	-42.0	-43.1	22.5	0.00e+00	0	41	0	1103101952	56	6468
2026-01-24 15:47:28.99	238.46	23.47	-42.0	-43.0	22.5	0.00e+00	79	41	0	1105199104	56	6449
2026-01-24 15:47:30.00	238.35	23.33	-41.9	-43.0	22.4	0.00e+00	0	41	0	1107296256	56	6396
2026-01-24 15:47:31.01	238.24	23.20	-41.7	-42.7	22.8	0.00e+00	4	41	0	1109393408	56	6188
2026-01-24 15:47:32.02	238.13	23.06	-41.8	-42.8	22.6	0.00e+00	92	41	0	1111490560	56	6288
2026-01-24 15:47:33.03	238.02	22.92	-41.8	-42.8	22.6	0.00e+00	5	41	0	1112539136	56	6277
2026-01-24 15:47:34.04	237.92	22.78	-41.7	-42.7	22.6	0.00e+00	92	41	0	1114636288	56	6184
2026-01-24 15:47:35.05	237.81	22.65	-41.7	-42.7	22.8	0.00e+00	78	41	0	1116733440	56	6200
2026-01-24 15:47:36.06	237.70	22.51	-41.8	-42.8	22.6	0.00e+00	0	41	0	1118830592	56	6247
2026-01-24 15:47:37.07	237.60	22.38	-41.7	-42.7	22.7	0.00e+00	12	41	0	1120927744	56	6176
2026-01-24 15:47:38.08	237.50	22.24	-41.7	-42.7	22.7	0.00e+00	3	41	0	1121976320	56	6216
2026-01-24 15:47:39.09	237.39	22.11	-41.8	-42.8	22.6	0.00e+00	92	41	0	1124073472	56	6313
2026-01-24 15:47:40.10	237.29	21.98	-42.0	-43.0	22.4	0.00e+00	4	41	0	1126170624	56	6440
2026-01-24 15:47:41.11	237.19	21.84	-41.7	-42.7	22.8	0.00e+00	92	41	0	1128267776	56	6185
2026-01-24 15:47:42.12	237.09	21.71	-41.8	-42.8	22.7	0.00e+00	0	41	0	1130364928	56	6300
2026-01-24 15:47:43.13	236.99	21.58	-41.6	-42.5	22.8	0.00e+00	2	41	0	1132462080	56	6096
2026-01-24 15:47:44.14	236.89	21.45	-41.9	-42.9	22.5	0.00e+00	0	41	0	1133510656	56	6333
2026-01-24 15:47:45.15	236.80	21.32	-41.8	-42.8	22.5	0.00e+00	0	41	0	1135607808	56	6304
2026-01-24 15:47:46.16	236.70	21.19	-41.6	-42.6	22.7	0.00e+00	91	41	0	1137704960	56	6156
2026-01-24 15:47:47.17	236.60	21.06	-41.6	-42.6	22.7	0.00e+00	0	41	0	1139802112	56	6147
2026-01-24 15:47:48.18	236.51	20.93	-41.7	-42.7	22.6	0.00e+00	90	41	0	1141899264	56	6178
2026-01-24 15:47:49.19	236.41	20.81	-41.6	-42.5	22.7	0.00e+00	74	41	0	1142947840	56	6100
2026-01-24 15:47:50.20	236.32	20.68	-41.6	-42.5	22.7	0.00e+00	55	41	0	1145044992	56	6099
2026-01-24 15:47:51.21	236.23	20.55	-41.7	-42.7	22.6	0.00e+00	8	41	0	1147142144	56	6194
2026-01-24 15:47:52.22	236.14	20.43	-41.7	-42.7	22.6	0.00e+00	72	41	0	1149239296	56	6225
2026-01-24 15:47:53.23	236.04	20.30	-41.6	-42.6	22.6	0.00e+00	63	41	0	1151336448	56	6164
2026-01-24 15:47:54.24	235.95	20.18	-41.8	-42.8	22.5	0.00e+00	0	41	0	1152385024	56	6314
2026-01-24 15:47:55.25	235.86	20.05	-41.7	-42.7	22.5	0.00e+00	92	41	0	1154482176	56	6245
2026-01-24 15:47:56.26	235.78	19.93	-41.7	-42.7	22.6	0.00e+00	10	41	0	1156579328	56	6183
2026-01-24 15:47:57.27	235.69	19.80	-41.7	-42.7	22.6	0.00e+00	26	41	0	1158676480	56	6237
2026-01-24 15:47:58.28	235.60	19.68	-41.9	-43.0	22.4	0.00e+00	3	41	0	1160773632	56	6397
2026-01-24 15:47:59.29	235.51	19.56	-41.8	-42.8	22.5	0.00e+00	2	41	0	1161822208	56	6312
2026-01-24 15:48:00.30	235.43	19.44	-41.9	-42.9	22.4	0.00e+00	4	41	0	1163919360	56	6348
2026-01-24 15:48:01.31	235.34	19.32	-42.0	-43.0	22.3	0.00e+00	4	41	0	1166016512	56	6422
2026-01-24 15:48:02.32	235.26	19.20	-41.8	-42.8	22.5	0.00e+00	92	41	0	1168113664	56	6282
2026-01-24 15:48:03.32	235.18	19.08	-41.8	-42.8	22.4	0.00e+00	2	41	0	1170210816	56	6303
2026-01-24 15:48:04.33	235.09	18.96	-42.0	-43.0	22.2	0.00e+00	92	41	0	1171259392	56	6429
2026-01-24 15:48:05.34	235.01	18.84	-41.8	-42.8	22.5	0.00e+00	0	41	0	1173356544	56	6306
2026-01-24 15:48:06.35	234.93	18.72	-41.8	-42.8	22.5	0.00e+00	0	41	0	1175453696	56	6291
2026-01-24 15:48:07.36	234.85	18.60	-42.2	-43.3	22.0	0.00e+00	0	41	0	1177550848	56	6639
2026-01-24 15:48:08.37	234.77	18.48	-42.1	-43.2	22.1	0.00e+00	0	41	0	1179648000	56	6559
2026-01-24 15:48:09.38	234.69	18.37	-42.3	-43.4	21.9	0.00e+00	92	41	0	1180696576	56	6733
2026-01-24 15:48:10.39	234.61	18.25	-42.3	-43.4	22.0	0.00e+00	0	41	0	1182793728	56	6701
2026-01-24 15:48:11.40	234.53	18.13	-42.2	-43.3	22.1	0.00e+00	91	41	0	1184890880	56	6634
2026-01-24 15:48:12.41	234.45	18.02	-42.2	-43.3	22.0	0.00e+00	0	41	0	1186988032	56	6656
2026-01-24 15:48:13.42	234.37	17.90	-42.5	-43.7	21.7	0.00e+00	77	41	0	1189085184	56	6930
2026-01-24 15:48:14.43	234.30	17.79	-42.2	-43.3	21.9	0.00e+00	76	41	0	1190133760	56	6619
2026-01-24 15:48:15.44	234.22	17.67	-42.3	-43.4	21.8	0.00e+00	6	41	0	1192230912	56	6758
2026-01-24 15:48:16.45	234.14	17.56	-42.5	-43.6	21.7	0.00e+00	57	41	0	1194328064	56	6910
2026-01-24 15:48:17.45	234.07	17.45	-42.5	-43.6	21.7	0.00e+00	6	41	0	1196425216	58	6148
2026-01-24 15:48:18.46	234.00	17.33	-42.2	-43.3	22.1	0.00e+00	92	41	0	1198522368	58	5936
2026-01-24 15:48:19.47	233.92	17.22	-42.2	-43.2	22.2	0.00e+00	5	41	0	1200619520	58	5891
