passes_logs/2026/01/24/R4.6S_Anadyr/R4.6S_Anadyr__20260124_031359_SUOMI_NPP_rec.log

#Pass ID: 20260124_031359_SUOMI NPP
#Satellite: SUOMI NPP
#Configuration: NPP
#almurnet v.1.7.20251203
#Start time: 2026-01-24 03:14:02

#Version: 2.2.20231116
#Station: R4.6S_Anadyr
#Location: 177.4865 lon 64.73178 lat
#TLE: 1 37849U 11061A   26023.63275593  .00000212  00000+0  12133-3 0  9990
#TLE: 2 37849  98.7820 325.6074 0002234  48.9695 311.1673 14.19528901737937

#Time	Az	El	Level	Level2	SNR	BER	BlckErr	Temp	State	Recorded	gain1	gain2
2026-01-24 03:14:02.88	235.39	0.15	-51.7	-65.5	3.3	1.54e+00	0	40	0	0	60	68284
2026-01-24 03:14:03.88	235.48	0.19	-51.4	-66.6	3.6	1.51e+00	0	40	104	0	60	77527
2026-01-24 03:14:04.89	235.57	0.24	-51.4	-66.6	3.6	1.51e+00	0	40	104	0	60	77416
2026-01-24 03:14:05.90	235.66	0.28	-51.7	-66.9	3.6	1.51e+00	0	40	104	0	60	80244
2026-01-24 03:14:06.92	235.76	0.33	-51.5	-66.7	3.6	1.51e+00	0	40	104	0	60	78221
2026-01-24 03:14:07.93	235.85	0.37	-51.4	-66.6	3.6	1.51e+00	0	41	104	0	60	77307
2026-01-24 03:14:08.94	235.94	0.41	-51.3	-66.6	3.6	1.51e+00	0	41	104	0	60	76958
2026-01-24 03:14:09.95	236.03	0.46	-51.3	-66.4	3.6	1.51e+00	0	41	104	0	60	75850
2026-01-24 03:14:10.96	236.12	0.50	-51.0	-66.4	3.6	1.51e+00	0	41	104	0	60	75229
2026-01-24 03:14:11.97	236.22	0.55	-50.9	-66.5	3.6	1.51e+00	0	41	104	0	60	76697
2026-01-24 03:14:12.98	236.31	0.59	-50.7	-66.6	3.6	1.51e+00	0	41	104	0	60	77515
2026-01-24 03:14:13.99	236.40	0.63	-51.2	-66.7	3.6	1.51e+00	0	41	104	0	60	77798
2026-01-24 03:14:15.00	236.50	0.68	-51.2	-66.4	3.6	1.51e+00	0	41	104	0	60	75779
2026-01-24 03:14:16.01	236.59	0.72	-51.3	-66.5	3.6	1.51e+00	0	41	104	0	60	76008
2026-01-24 03:14:17.02	236.68	0.77	-51.2	-66.4	3.6	1.51e+00	0	41	104	0	60	75324
2026-01-24 03:14:18.03	236.78	0.81	-51.2	-66.3	3.6	1.51e+00	0	41	104	0	60	75071
2026-01-24 03:14:19.04	236.87	0.85	-51.2	-66.3	3.6	1.51e+00	0	41	104	0	60	74916
2026-01-24 03:14:20.05	236.97	0.90	-51.1	-66.3	3.6	1.51e+00	0	41	104	0	60	74392
2026-01-24 03:14:21.06	237.06	0.94	-51.0	-66.2	3.6	1.51e+00	0	41	104	0	60	73417
2026-01-24 03:14:22.07	237.16	0.99	-50.9	-66.1	3.6	1.51e+00	0	41	104	0	60	72897
2026-01-24 03:14:23.08	237.25	1.03	-50.7	-65.8	3.6	1.51e+00	0	41	104	0	60	70320
2026-01-24 03:14:24.09	237.35	1.07	-50.2	-65.4	3.6	1.51e+00	0	41	104	0	60	66996
2026-01-24 03:14:25.10	237.44	1.12	-49.7	-64.9	3.6	1.51e+00	0	41	104	0	60	63536
2026-01-24 03:14:26.11	237.54	1.16	-48.9	-64.0	3.6	1.51e+00	0	41	104	0	60	57076
2026-01-24 03:14:27.12	237.64	1.21	-48.6	-63.8	3.6	1.51e+00	0	41	104	0	60	56106
2026-01-24 03:14:28.13	237.73	1.25	-48.7	-63.8	3.6	1.51e+00	0	41	104	0	60	56232
2026-01-24 03:14:29.14	237.83	1.29	-48.6	-63.8	3.6	1.51e+00	0	41	104	0	60	56015
2026-01-24 03:14:30.15	237.93	1.34	-48.6	-63.8	3.6	1.51e+00	0	41	104	0	60	55750
2026-01-24 03:14:31.16	238.03	1.38	-48.6	-63.8	3.6	1.51e+00	0	41	104	0	60	55706
2026-01-24 03:14:32.17	238.12	1.43	-48.6	-63.7	3.6	1.51e+00	0	41	104	0	60	55367
2026-01-24 03:14:33.18	238.22	1.47	-48.6	-63.7	3.6	1.51e+00	0	41	104	0	60	55641
2026-01-24 03:14:34.19	238.32	1.52	-48.6	-63.7	3.6	1.51e+00	0	41	104	0	60	55293
2026-01-24 03:14:35.20	238.42	1.56	-48.6	-63.7	3.6	1.51e+00	0	41	104	0	60	55428
2026-01-24 03:14:36.21	238.52	1.60	-48.6	-63.7	3.6	1.51e+00	0	41	104	0	60	55650
2026-01-24 03:14:37.22	238.62	1.65	-48.6	-63.8	3.6	1.51e+00	0	41	104	0	60	55774
2026-01-24 03:14:38.23	238.72	1.69	-48.6	-63.7	3.6	1.51e+00	0	41	104	0	60	55413
2026-01-24 03:14:39.24	238.82	1.74	-48.6	-63.8	3.6	1.51e+00	0	41	104	0	60	55886
2026-01-24 03:14:40.25	238.92	1.78	-48.6	-63.7	3.6	1.51e+00	0	41	104	0	60	55255
2026-01-24 03:14:41.26	239.02	1.82	-48.6	-63.7	3.6	1.51e+00	0	41	104	0	60	55601
2026-01-24 03:14:42.27	239.12	1.87	-48.6	-63.8	3.6	1.51e+00	0	41	104	0	60	55985
2026-01-24 03:14:43.28	239.22	1.91	-48.6	-63.1	3.6	1.51e+00	0	41	104	0	60	51480
2026-01-24 03:14:44.29	239.32	1.96	-48.6	-63.8	3.6	1.51e+00	0	41	104	0	60	56011
2026-01-24 03:14:45.30	239.42	2.00	-48.6	-63.7	3.6	1.51e+00	0	41	104	0	60	55628
2026-01-24 03:14:46.31	239.52	2.04	-48.6	-63.3	3.6	1.51e+00	0	41	104	0	60	52585
2026-01-24 03:14:47.31	239.63	2.09	-48.6	-63.7	3.6	1.51e+00	0	41	104	0	60	55135
2026-01-24 03:14:48.32	239.73	2.13	-48.6	-63.6	3.6	1.51e+00	0	41	104	0	60	54433
2026-01-24 03:14:49.33	239.83	2.18	-48.6	-63.5	3.6	1.51e+00	0	41	104	0	60	54323
2026-01-24 03:14:50.34	239.93	2.22	-48.6	-63.6	3.6	1.51e+00	0	41	104	0	60	54746
2026-01-24 03:14:51.35	240.04	2.26	-48.6	-63.5	3.6	1.51e+00	0	41	104	0	60	54198
2026-01-24 03:14:52.36	240.14	2.31	-48.5	-63.4	3.6	1.51e+00	0	41	104	0	60	53695
2026-01-24 03:14:53.37	240.24	2.35	-48.5	-63.3	3.6	1.51e+00	0	41	104	0	60	52955
2026-01-24 03:14:54.38	240.35	2.40	-48.5	-63.1	3.6	1.51e+00	0	41	104	0	60	51819
2026-01-24 03:14:55.40	240.45	2.44	-48.5	-63.3	3.6	1.51e+00	0	41	104	0	60	52916
2026-01-24 03:14:56.41	240.56	2.48	-48.5	-63.1	3.6	1.51e+00	0	41	104	0	60	51888
2026-01-24 03:14:57.41	240.66	2.53	-48.5	-63.0	3.6	1.51e+00	0	41	104	0	60	51097
2026-01-24 03:14:58.42	240.77	2.57	-48.5	-62.7	3.6	1.51e+00	0	41	104	0	60	49392
2026-01-24 03:14:59.43	240.87	2.62	-48.5	-63.2	3.6	1.51e+00	0	41	104	0	60	52259
2026-01-24 03:15:00.44	240.98	2.66	-48.5	-63.1	3.6	1.51e+00	0	41	104	0	60	51914
2026-01-24 03:15:01.45	241.09	2.70	-48.5	-62.9	3.6	1.51e+00	0	41	104	0	60	50195
2026-01-24 03:15:02.46	241.19	2.75	-48.5	-63.0	3.6	1.51e+00	0	41	104	0	60	51061
2026-01-24 03:15:03.47	241.30	2.79	-48.5	-63.2	3.6	1.51e+00	0	41	104	0	60	51951
2026-01-24 03:15:04.48	241.41	2.84	-48.5	-63.2	3.6	1.51e+00	0	41	104	0	60	52439
2026-01-24 03:15:05.49	241.52	2.88	-48.5	-63.1	3.6	1.51e+00	0	41	104	0	60	51694
2026-01-24 03:15:06.50	241.62	2.92	-48.5	-62.9	3.6	1.51e+00	0	41	104	0	60	50280
2026-01-24 03:15:07.51	241.73	2.97	-48.5	-62.5	3.6	1.51e+00	0	41	104	0	60	48016
2026-01-24 03:15:08.52	241.84	3.01	-48.5	-62.4	3.6	1.51e+00	0	41	104	0	60	47481
2026-01-24 03:15:09.53	241.95	3.06	-48.4	-61.9	3.6	1.51e+00	0	41	104	0	60	44996
2026-01-24 03:15:10.54	242.06	3.10	-48.5	-63.5	3.6	1.17e+00	0	41	104	0	60	54268
2026-01-24 03:15:11.55	242.17	3.14	-48.5	-62.2	3.6	1.51e+00	0	41	104	0	60	46498
2026-01-24 03:15:12.56	242.28	3.19	-47.3	-52.6	10.2	1.04e+00	87	41	104	0	60	15377
2026-01-24 03:15:13.57	242.39	3.23	-48.0	-55.0	7.0	8.90e-02	79	41	0	0	60	20297
2026-01-24 03:15:14.58	242.50	3.28	-47.8	-54.0	8.6	3.67e-01	92	41	0	2097152	60	18158
2026-01-24 03:15:15.59	242.61	3.32	-47.1	-51.7	10.6	4.62e-04	0	41	0	4194304	60	13965
2026-01-24 03:15:16.60	242.72	3.36	-47.8	-53.7	8.9	4.89e-02	90	41	0	6291456	60	17473
2026-01-24 03:15:17.61	242.83	3.41	-47.5	-52.9	9.8	4.54e-03	0	41	0	8388608	60	15926
2026-01-24 03:15:18.62	242.94	3.45	-47.5	-52.7	10.0	1.51e-02	92	41	0	9437184	60	15511
2026-01-24 03:15:19.63	243.05	3.49	-47.2	-51.8	11.0	2.59e-03	0	41	0	11534336	60	14035
2026-01-24 03:15:20.64	243.17	3.54	-47.1	-51.7	10.9	3.51e-03	92	41	0	13631488	60	13878
2026-01-24 03:15:21.65	243.28	3.58	-47.1	-51.6	11.3	1.99e-03	92	41	0	15728640	60	13703
2026-01-24 03:15:22.66	243.39	3.63	-47.0	-51.3	11.6	5.87e-05	0	41	0	17825792	60	13274
2026-01-24 03:15:23.67	243.50	3.67	-47.0	-51.2	11.7	5.10e-04	91	41	0	18874368	60	13183
2026-01-24 03:15:24.68	243.62	3.71	-46.7	-50.7	12.3	1.25e-03	0	41	0	20971520	60	12334
2026-01-24 03:15:25.69	243.73	3.76	-47.2	-51.9	10.8	2.71e-04	92	41	0	23068672	60	14302
2026-01-24 03:15:26.70	243.85	3.80	-47.2	-51.7	11.1	3.62e-03	0	41	0	25165824	60	13871
2026-01-24 03:15:27.71	243.96	3.84	-46.9	-51.0	12.0	5.29e-04	92	41	0	27262976	60	12769
2026-01-24 03:15:28.72	244.08	3.89	-47.2	-51.8	11.2	9.13e-04	90	41	0	28311552	60	14042
2026-01-24 03:15:29.73	244.19	3.93	-47.1	-51.4	11.7	3.68e-04	0	41	0	30408704	60	13458
2026-01-24 03:15:30.74	244.31	3.97	-46.6	-50.3	13.1	2.27e-04	87	41	0	32505856	60	11848
2026-01-24 03:15:31.75	244.42	4.02	-46.5	-50.1	13.1	3.81e-05	0	41	0	34603008	60	11511
2026-01-24 03:15:32.76	244.54	4.06	-46.7	-50.4	12.8	1.60e-05	92	41	0	36700160	60	12020
2026-01-24 03:15:33.77	244.66	4.10	-46.3	-49.6	13.8	1.75e-05	3	41	0	37748736	60	10863
2026-01-24 03:15:34.77	244.77	4.15	-46.4	-49.8	13.4	1.29e-05	92	41	0	39845888	60	11213
2026-01-24 03:15:35.78	244.89	4.19	-46.4	-49.7	13.7	9.90e-06	92	41	0	41943040	60	11006
2026-01-24 03:15:36.80	245.01	4.23	-46.4	-49.8	13.4	3.00e-06	0	41	0	44040192	60	11165
2026-01-24 03:15:37.80	245.12	4.28	-46.5	-50.0	13.4	1.37e-05	92	41	0	46137344	60	11394
2026-01-24 03:15:38.81	245.24	4.32	-44.8	-47.0	16.9	7.00e-07	0	41	0	48234496	60	8059
2026-01-24 03:15:39.82	245.36	4.36	-44.6	-46.7	16.3	0.00e+00	92	41	0	49283072	60	7854
2026-01-24 03:15:40.84	245.48	4.41	-47.0	-50.8	12.5	7.17e-05	0	41	0	51380224	60	12561
2026-01-24 03:15:41.85	245.60	4.45	-47.0	-50.8	12.8	4.73e-05	92	41	0	53477376	60	12573
2026-01-24 03:15:42.86	245.72	4.49	-45.7	-48.4	15.5	6.10e-06	90	41	0	55574528	60	9475
2026-01-24 03:15:43.87	245.84	4.54	-45.4	-48.0	15.7	0.00e+00	0	41	0	57671680	60	9057
2026-01-24 03:15:44.88	245.96	4.58	-45.2	-47.7	16.1	0.00e+00	92	41	0	58720256	60	8723
2026-01-24 03:15:45.89	246.08	4.62	-45.3	-47.7	15.9	0.00e+00	0	41	0	60817408	60	8812
2026-01-24 03:15:46.90	246.20	4.67	-45.1	-47.4	16.1	0.00e+00	92	41	0	62914560	60	8488
2026-01-24 03:15:47.91	246.32	4.71	-45.2	-47.6	16.1	0.00e+00	0	41	0	65011712	60	8652
2026-01-24 03:15:48.92	246.44	4.75	-45.3	-47.7	16.1	0.00e+00	88	41	0	67108864	60	8735
2026-01-24 03:15:49.93	246.57	4.80	-45.6	-48.1	15.7	0.00e+00	21	41	0	68157440	60	9230
2026-01-24 03:15:50.94	246.69	4.84	-44.5	-46.4	17.3	0.00e+00	92	41	0	70254592	60	7569
2026-01-24 03:15:51.94	246.81	4.88	-44.6	-46.7	17.2	0.00e+00	92	41	0	72351744	60	7775
2026-01-24 03:15:52.95	246.93	4.92	-43.8	-45.6	18.2	0.00e+00	0	41	0	74448896	60	6879
2026-01-24 03:15:53.96	247.05	4.97	-43.3	-44.9	18.8	0.00e+00	91	41	0	76546048	60	6348
2026-01-24 03:15:54.97	247.18	5.01	-44.1	-45.9	18.0	0.00e+00	0	41	0	77594624	60	7161
2026-01-24 03:15:55.98	247.30	5.05	-43.2	-44.8	19.1	0.00e+00	91	41	0	79691776	60	6271
2026-01-24 03:15:57.00	247.43	5.09	-43.8	-45.5	18.3	0.00e+00	6	41	0	81788928	60	6847
2026-01-24 03:15:58.00	247.55	5.14	-44.3	-46.2	17.8	0.00e+00	91	41	0	83886080	60	7364
2026-01-24 03:15:59.01	247.68	5.18	-44.2	-46.0	18.0	0.00e+00	92	41	0	85983232	60	7203
2026-01-24 03:16:00.02	247.80	5.22	-43.8	-45.5	18.4	0.00e+00	0	41	0	87031808	60	6786
2026-01-24 03:16:01.03	247.93	5.26	-43.0	-44.5	19.4	0.00e+00	78	41	0	89128960	60	6042
2026-01-24 03:16:02.04	248.05	5.31	-41.5	-42.7	20.9	0.00e+00	0	41	0	91226112	56	6215
2026-01-24 03:16:03.05	248.18	5.35	-43.2	-44.8	19.0	0.00e+00	92	41	0	93323264	58	7008
2026-01-24 03:16:04.07	248.31	5.39	-43.4	-44.9	18.9	0.00e+00	0	41	0	95420416	58	7167
2026-01-24 03:16:05.07	248.43	5.43	-43.9	-45.6	18.4	0.00e+00	92	41	0	96468992	60	6920
2026-01-24 03:16:06.08	248.56	5.48	-43.6	-45.3	18.7	0.00e+00	92	41	0	98566144	60	6620
2026-01-24 03:16:07.09	248.69	5.52	-43.8	-45.5	18.6	0.00e+00	0	41	0	100663296	60	6799
2026-01-24 03:16:08.10	248.82	5.56	-43.2	-44.8	19.2	0.00e+00	92	41	0	102760448	60	6274
2026-01-24 03:16:09.11	248.95	5.60	-43.1	-44.6	19.3	0.00e+00	0	41	0	104857600	60	6168
2026-01-24 03:16:10.12	249.08	5.64	-43.3	-44.9	19.1	0.00e+00	92	42	0	105906176	60	6348
2026-01-24 03:16:11.13	249.20	5.69	-43.2	-44.7	19.3	0.00e+00	0	41	0	108003328	60	6227
2026-01-24 03:16:12.14	249.33	5.73	-43.0	-44.5	19.6	0.00e+00	91	41	0	110100480	60	6072
2026-01-24 03:16:13.15	249.46	5.77	-42.9	-44.4	19.7	0.00e+00	92	41	0	112197632	60	5967
2026-01-24 03:16:14.16	249.59	5.81	-42.9	-44.3	19.9	0.00e+00	0	41	0	114294784	58	6651
2026-01-24 03:16:15.17	249.72	5.85	-42.9	-44.3	19.7	0.00e+00	91	41	0	116391936	58	6627
2026-01-24 03:16:16.18	249.86	5.90	-42.7	-44.1	20.1	0.00e+00	0	41	0	117440512	58	6509
2026-01-24 03:16:17.19	249.99	5.94	-42.7	-44.1	19.8	0.00e+00	90	41	0	119537664	58	6506
2026-01-24 03:16:18.20	250.12	5.98	-42.7	-44.0	20.0	0.00e+00	0	41	0	121634816	58	6444
2026-01-24 03:16:19.21	250.25	6.02	-42.3	-43.7	20.3	0.00e+00	91	41	0	123731968	58	6182
2026-01-24 03:16:20.22	250.38	6.06	-43.2	-44.7	19.4	0.00e+00	92	42	0	125829120	58	6938
2026-01-24 03:16:21.23	250.52	6.10	-43.0	-44.4	19.6	0.00e+00	33	41	0	126877696	58	6752
2026-01-24 03:16:22.24	250.65	6.15	-43.0	-44.4	19.6	0.00e+00	92	41	0	128974848	58	6756
2026-01-24 03:16:23.25	250.78	6.19	-42.9	-44.3	19.4	0.00e+00	0	42	0	131072000	58	6623
2026-01-24 03:16:24.26	250.92	6.23	-43.5	-45.1	19.0	0.00e+00	92	41	0	133169152	58	7256
2026-01-24 03:16:25.27	251.05	6.27	-43.4	-44.9	19.1	0.00e+00	0	41	0	135266304	58	7138
2026-01-24 03:16:26.28	251.19	6.31	-43.2	-44.7	19.3	0.00e+00	92	41	0	136314880	58	6946
2026-01-24 03:16:27.29	251.32	6.35	-43.2	-44.7	19.4	0.00e+00	90	41	0	138412032	58	6963
2026-01-24 03:16:28.30	251.46	6.39	-42.6	-44.0	20.1	0.00e+00	92	41	0	140509184	58	6413
2026-01-24 03:16:29.31	251.59	6.43	-42.4	-43.6	20.3	0.00e+00	92	41	0	142606336	58	6172
2026-01-24 03:16:30.32	251.73	6.47	-42.4	-43.7	20.2	0.00e+00	0	41	0	144703488	58	6232
2026-01-24 03:16:31.33	251.87	6.51	-42.4	-43.7	20.3	0.00e+00	92	41	0	145752064	58	6194
2026-01-24 03:16:32.34	252.00	6.55	-42.6	-44.0	20.2	0.00e+00	0	41	0	147849216	58	6399
2026-01-24 03:16:33.35	252.14	6.60	-42.5	-43.8	20.3	0.00e+00	92	41	0	149946368	58	6273
2026-01-24 03:16:34.36	252.28	6.64	-42.6	-44.0	20.0	0.00e+00	90	41	0	152043520	58	6409
2026-01-24 03:16:35.37	252.42	6.68	-43.4	-44.9	19.2	0.00e+00	92	41	0	154140672	58	7130
2026-01-24 03:16:36.37	252.55	6.72	-43.0	-44.4	19.6	0.00e+00	91	41	0	155189248	58	6767
2026-01-24 03:16:37.39	252.69	6.76	-42.9	-44.3	19.7	0.00e+00	0	41	0	157286400	58	6655
2026-01-24 03:16:38.40	252.83	6.80	-42.9	-44.3	19.9	0.00e+00	91	41	0	159383552	58	6644
2026-01-24 03:16:39.41	252.97	6.84	-43.1	-44.6	19.6	0.00e+00	0	41	0	161480704	58	6849
2026-01-24 03:16:40.42	253.11	6.88	-43.1	-44.6	19.6	0.00e+00	92	41	0	163577856	58	6868
2026-01-24 03:16:41.43	253.25	6.92	-43.0	-44.4	19.8	0.00e+00	6	42	0	164626432	58	6713
2026-01-24 03:16:42.43	253.39	6.96	-42.9	-44.3	19.8	0.00e+00	92	41	0	166723584	58	6617
2026-01-24 03:16:43.44	253.53	7.00	-43.1	-44.5	19.7	0.00e+00	92	41	0	168820736	58	6820
2026-01-24 03:16:44.45	253.67	7.04	-42.8	-44.1	19.9	0.00e+00	0	42	0	170917888	58	6533
2026-01-24 03:16:45.46	253.81	7.08	-43.2	-44.7	19.5	0.00e+00	92	41	0	173015040	58	6948
2026-01-24 03:16:46.47	253.96	7.12	-43.1	-44.6	19.6	0.00e+00	0	42	0	174063616	58	6858
2026-01-24 03:16:47.48	254.10	7.16	-43.0	-44.4	19.7	0.00e+00	81	41	0	176160768	58	6731
2026-01-24 03:16:48.49	254.24	7.19	-42.8	-44.2	19.9	0.00e+00	0	42	0	178257920	58	6594
2026-01-24 03:16:49.50	254.38	7.23	-42.7	-44.1	20.0	0.00e+00	90	41	0	180355072	58	6486
2026-01-24 03:16:50.51	254.53	7.27	-43.2	-44.7	19.2	0.00e+00	92	42	0	182452224	58	7001
2026-01-24 03:16:51.52	254.67	7.31	-43.5	-45.0	19.4	0.00e+00	0	41	0	184549376	58	7243
2026-01-24 03:16:52.53	254.82	7.35	-43.6	-45.1	19.0	0.00e+00	90	42	0	185597952	58	7327
2026-01-24 03:16:53.54	254.96	7.39	-43.4	-44.9	19.3	0.00e+00	0	42	0	187695104	58	7106
2026-01-24 03:16:54.55	255.11	7.43	-42.8	-44.2	20.0	0.00e+00	92	42	0	189792256	58	6562
2026-01-24 03:16:55.56	255.25	7.47	-42.7	-44.0	20.1	0.00e+00	0	42	0	191889408	58	6435
2026-01-24 03:16:56.57	255.40	7.51	-42.6	-44.0	20.1	0.00e+00	92	42	0	193986560	58	6404
2026-01-24 03:16:57.58	255.54	7.55	-42.5	-43.9	20.2	0.00e+00	90	42	0	195035136	58	6320
2026-01-24 03:16:58.58	255.69	7.58	-43.0	-44.4	19.7	0.00e+00	0	42	0	197132288	58	6749
2026-01-24 03:16:59.59	255.83	7.62	-42.8	-44.1	20.0	0.00e+00	90	42	0	199229440	58	6531
2026-01-24 03:17:00.60	255.98	7.66	-42.7	-44.0	20.1	0.00e+00	0	42	0	201326592	58	6451
2026-01-24 03:17:01.61	256.13	7.70	-43.1	-44.5	19.7	0.00e+00	90	41	0	203423744	58	6778
2026-01-24 03:17:02.62	256.28	7.74	-43.2	-44.6	19.6	0.00e+00	0	42	0	204472320	58	6902
2026-01-24 03:17:03.63	256.43	7.77	-42.9	-44.3	19.9	0.00e+00	91	42	0	206569472	58	6646
2026-01-24 03:17:04.64	256.57	7.81	-42.9	-44.3	19.9	0.00e+00	92	42	0	208666624	58	6652
2026-01-24 03:17:05.65	256.72	7.85	-42.9	-44.3	19.9	0.00e+00	74	42	0	210763776	58	6684
2026-01-24 03:17:06.66	256.87	7.89	-42.5	-43.9	20.3	0.00e+00	90	42	0	212860928	58	6335
2026-01-24 03:17:07.67	257.02	7.92	-42.5	-43.8	20.2	0.00e+00	0	42	0	213909504	58	6259
2026-01-24 03:17:08.68	257.17	7.96	-43.2	-44.6	19.6	0.00e+00	92	42	0	216006656	58	6895
2026-01-24 03:17:09.69	257.32	8.00	-42.9	-44.2	20.0	0.00e+00	0	42	0	218103808	58	6593
2026-01-24 03:17:10.70	257.47	8.04	-42.8	-44.1	20.0	0.00e+00	90	42	0	220200960	58	6514
2026-01-24 03:17:11.71	257.63	8.07	-42.5	-43.8	20.3	0.00e+00	3	42	0	222298112	58	6294
2026-01-24 03:17:12.72	257.78	8.11	-43.1	-44.5	19.7	0.00e+00	91	41	0	223346688	58	6809
2026-01-24 03:17:13.73	257.93	8.15	-43.1	-44.5	19.7	0.00e+00	92	41	0	225443840	58	6795
2026-01-24 03:17:14.74	258.08	8.18	-42.9	-44.3	19.9	0.00e+00	0	41	0	227540992	58	6620
2026-01-24 03:17:15.75	258.24	8.22	-43.5	-45.0	19.3	0.00e+00	88	42	0	229638144	58	7211
2026-01-24 03:17:16.75	258.39	8.26	-43.4	-44.9	19.4	0.00e+00	0	41	0	231735296	58	7111
2026-01-24 03:17:17.76	258.54	8.29	-43.5	-45.0	19.3	0.00e+00	91	42	0	232783872	58	7178
2026-01-24 03:17:18.77	258.69	8.33	-43.5	-45.0	19.2	0.00e+00	4	41	0	234881024	58	7222
2026-01-24 03:17:19.78	258.85	8.36	-43.3	-44.7	19.6	0.00e+00	91	42	0	236978176	58	6994
2026-01-24 03:17:20.79	259.00	8.40	-43.4	-44.8	19.4	0.00e+00	92	42	0	239075328	58	7084
2026-01-24 03:17:21.80	259.16	8.44	-43.2	-44.6	19.6	0.00e+00	0	42	0	241172480	58	6907
2026-01-24 03:17:22.81	259.31	8.47	-43.1	-44.5	19.7	0.00e+00	66	42	0	242221056	58	6815
2026-01-24 03:17:23.82	259.47	8.51	-43.1	-44.5	19.8	0.00e+00	0	42	0	244318208	58	6797
2026-01-24 03:17:24.83	259.63	8.54	-43.1	-44.5	19.7	0.00e+00	92	42	0	246415360	58	6844
2026-01-24 03:17:25.84	259.78	8.58	-42.9	-44.3	19.8	0.00e+00	6	42	0	248512512	58	6666
2026-01-24 03:17:26.85	259.94	8.61	-43.4	-44.8	19.5	0.00e+00	90	42	0	250609664	58	7062
2026-01-24 03:17:27.86	260.10	8.65	-43.4	-44.9	19.4	0.00e+00	91	41	0	252706816	58	7153
2026-01-24 03:17:28.87	260.25	8.68	-43.2	-44.6	19.7	0.00e+00	0	42	0	253755392	58	6902
2026-01-24 03:17:29.88	260.41	8.72	-43.3	-44.7	19.6	0.00e+00	92	41	0	255852544	58	6964
2026-01-24 03:17:30.89	260.57	8.75	-43.3	-44.7	19.6	0.00e+00	0	42	0	257949696	58	6997
2026-01-24 03:17:31.90	260.73	8.79	-43.5	-45.1	19.2	0.00e+00	92	42	0	260046848	58	7262
2026-01-24 03:17:32.91	260.89	8.82	-43.4	-44.8	19.5	0.00e+00	0	42	0	262144000	58	7069
2026-01-24 03:17:33.92	261.05	8.86	-43.5	-45.0	19.2	0.00e+00	92	41	0	263192576	58	7198
2026-01-24 03:17:34.93	261.21	8.89	-43.9	-45.5	18.9	0.00e+00	90	41	0	265289728	60	6831
2026-01-24 03:17:35.94	261.37	8.92	-43.7	-45.2	19.2	0.00e+00	0	42	0	267386880	60	6576
2026-01-24 03:17:36.95	261.53	8.96	-43.4	-44.9	19.5	0.00e+00	92	41	0	269484032	60	6346
2026-01-24 03:17:37.96	261.69	8.99	-43.5	-44.9	19.5	0.00e+00	0	42	0	271581184	60	6383
2026-01-24 03:17:38.97	261.85	9.02	-43.7	-45.2	19.3	0.00e+00	92	42	0	272629760	60	6603
2026-01-24 03:17:39.98	262.01	9.06	-43.5	-45.0	19.4	0.00e+00	0	42	0	274726912	60	6430
2026-01-24 03:17:40.99	262.17	9.09	-43.8	-45.3	19.2	0.00e+00	92	42	0	276824064	60	6665
2026-01-24 03:17:42.00	262.33	9.12	-44.0	-45.6	18.8	0.00e+00	60	42	0	278921216	60	6884
2026-01-24 03:17:43.01	262.50	9.16	-43.9	-45.5	19.0	0.00e+00	0	42	0	281018368	60	6771
2026-01-24 03:17:44.02	262.66	9.19	-43.9	-45.5	18.9	0.00e+00	92	42	0	282066944	60	6846
2026-01-24 03:17:45.03	262.82	9.22	-43.6	-45.1	19.3	0.00e+00	0	42	0	284164096	60	6474
2026-01-24 03:17:46.03	262.98	9.25	-43.8	-45.4	19.1	0.00e+00	92	42	0	286261248	60	6711
2026-01-24 03:17:47.04	263.15	9.29	-43.5	-45.0	19.4	0.00e+00	0	42	0	288358400	60	6415
2026-01-24 03:17:48.05	263.31	9.32	-43.6	-45.1	19.4	0.00e+00	92	42	0	290455552	60	6497
2026-01-24 03:17:49.06	263.48	9.35	-43.2	-44.6	19.8	0.00e+00	92	42	0	291504128	60	6128
2026-01-24 03:17:50.07	263.64	9.38	-43.5	-45.0	19.5	0.00e+00	92	42	0	293601280	60	6391
2026-01-24 03:17:51.08	263.81	9.41	-43.1	-44.5	19.8	0.00e+00	92	42	0	295698432	60	6082
2026-01-24 03:17:52.09	263.97	9.44	-43.1	-44.5	19.9	0.00e+00	0	42	0	297795584	60	6070
2026-01-24 03:17:53.10	264.14	9.48	-43.2	-44.7	19.8	0.00e+00	71	42	0	299892736	60	6186
2026-01-24 03:17:54.11	264.31	9.51	-43.2	-44.6	19.8	0.00e+00	0	42	0	300941312	60	6122
2026-01-24 03:17:55.12	264.47	9.54	-43.4	-44.8	19.7	0.00e+00	74	42	0	303038464	60	6281
2026-01-24 03:17:56.13	264.64	9.57	-43.4	-44.9	19.7	0.00e+00	57	41	0	305135616	60	6356
2026-01-24 03:17:57.13	264.81	9.60	-43.4	-44.9	19.7	0.00e+00	91	42	0	307232768	60	6339
2026-01-24 03:17:58.14	264.97	9.63	-43.3	-44.7	19.9	0.00e+00	92	42	0	309329920	60	6200
2026-01-24 03:17:59.15	265.14	9.66	-43.6	-45.0	19.5	0.00e+00	6	42	0	310378496	60	6445
2026-01-24 03:18:00.16	265.31	9.69	-43.3	-44.7	19.7	0.00e+00	65	42	0	312475648	60	6233
2026-01-24 03:18:01.17	265.48	9.72	-43.2	-44.7	19.7	0.00e+00	0	42	0	314572800	60	6184
2026-01-24 03:18:02.18	265.65	9.75	-43.5	-44.9	19.6	0.00e+00	92	42	0	316669952	60	6390
2026-01-24 03:18:03.19	265.82	9.78	-43.3	-44.7	19.6	0.00e+00	46	42	0	318767104	60	6243
2026-01-24 03:18:04.20	265.99	9.81	-43.3	-44.7	19.8	0.00e+00	91	42	0	320864256	60	6207
2026-01-24 03:18:05.21	266.16	9.84	-42.9	-44.3	20.2	0.00e+00	91	42	0	321912832	60	5908
2026-01-24 03:18:06.22	266.33	9.87	-42.8	-44.1	20.3	0.00e+00	25	42	0	324009984	60	5775
2026-01-24 03:18:07.23	266.50	9.89	-42.9	-44.2	20.2	0.00e+00	92	42	0	326107136	60	5849
2026-01-24 03:18:08.24	266.67	9.92	-42.4	-43.7	20.5	0.00e+00	0	42	0	328204288	58	6211
2026-01-24 03:18:09.25	266.84	9.95	-42.3	-43.5	20.8	0.00e+00	92	42	0	330301440	58	6076
2026-01-24 03:18:10.26	267.01	9.98	-42.3	-43.6	20.7	0.00e+00	0	41	0	331350016	58	6123
2026-01-24 03:18:11.27	267.18	10.01	-42.7	-44.0	20.4	0.00e+00	91	42	0	333447168	58	6404
2026-01-24 03:18:12.28	267.36	10.03	-43.1	-44.5	19.9	0.00e+00	91	42	0	335544320	58	6808
2026-01-24 03:18:13.29	267.53	10.06	-43.1	-44.5	19.9	0.00e+00	0	42	0	337641472	58	6787
2026-01-24 03:18:14.30	267.70	10.09	-43.4	-44.8	19.5	0.00e+00	90	42	0	339738624	58	7062
2026-01-24 03:18:15.31	267.87	10.12	-43.2	-44.6	19.8	0.00e+00	0	42	0	340787200	58	6867
2026-01-24 03:18:16.32	268.05	10.14	-42.9	-44.2	20.2	0.00e+00	92	41	0	342884352	58	6595
2026-01-24 03:18:17.33	268.22	10.17	-43.2	-44.6	19.9	0.00e+00	0	42	0	344981504	58	6859
2026-01-24 03:18:18.34	268.40	10.20	-43.1	-44.5	19.9	0.00e+00	92	42	0	347078656	58	6819
2026-01-24 03:18:19.35	268.57	10.22	-43.4	-44.8	19.6	0.00e+00	92	42	0	349175808	58	7087
2026-01-24 03:18:20.36	268.74	10.25	-43.2	-44.6	19.6	0.00e+00	21	42	0	350224384	58	6861
2026-01-24 03:18:21.37	268.92	10.27	-43.2	-44.6	19.8	0.00e+00	92	42	0	352321536	58	6890
2026-01-24 03:18:22.38	269.09	10.30	-43.0	-44.4	20.0	0.00e+00	0	42	0	354418688	58	6731
2026-01-24 03:18:23.38	269.27	10.33	-43.0	-44.4	20.0	0.00e+00	68	42	0	356515840	58	6741
2026-01-24 03:18:24.40	269.45	10.35	-43.1	-44.5	19.9	0.00e+00	0	42	0	358612992	58	6801
2026-01-24 03:18:25.40	269.62	10.38	-42.8	-44.2	20.2	0.00e+00	92	42	0	359661568	58	6544
2026-01-24 03:18:26.41	269.80	10.40	-42.8	-44.1	20.2	0.00e+00	92	42	0	361758720	58	6532
2026-01-24 03:18:27.42	269.97	10.43	-42.8	-44.1	20.2	0.00e+00	78	42	0	363855872	58	6510
2026-01-24 03:18:28.43	270.15	10.45	-42.7	-44.0	20.2	0.00e+00	90	42	0	365953024	58	6412
2026-01-24 03:18:29.44	270.33	10.47	-42.9	-44.3	20.3	0.00e+00	0	42	0	368050176	58	6636
2026-01-24 03:18:30.45	270.51	10.50	-43.0	-44.4	20.0	0.00e+00	71	42	0	369098752	58	6696
2026-01-24 03:18:31.46	270.68	10.52	-42.9	-44.3	20.0	0.00e+00	0	42	0	371195904	58	6625
2026-01-24 03:18:32.47	270.86	10.55	-43.2	-44.6	19.8	0.00e+00	91	41	0	373293056	58	6917
2026-01-24 03:18:33.48	271.04	10.57	-43.5	-44.9	19.5	0.00e+00	0	42	0	375390208	58	7130
2026-01-24 03:18:34.49	271.22	10.59	-43.7	-45.2	19.5	0.00e+00	92	42	0	377487360	60	6548
2026-01-24 03:18:35.49	271.40	10.61	-43.8	-45.3	19.3	0.00e+00	92	42	0	378535936	60	6634
2026-01-24 03:18:36.50	271.58	10.64	-43.7	-45.2	19.2	0.00e+00	0	42	0	380633088	60	6609
2026-01-24 03:18:37.51	271.75	10.66	-44.1	-45.6	19.0	0.00e+00	92	42	0	382730240	60	6916
2026-01-24 03:18:38.52	271.93	10.68	-43.8	-45.4	19.2	0.00e+00	0	42	0	384827392	60	6695
2026-01-24 03:18:39.53	272.11	10.70	-43.7	-45.2	19.3	0.00e+00	61	42	0	386924544	60	6566
2026-01-24 03:18:40.54	272.29	10.73	-43.0	-44.3	20.1	0.00e+00	1	42	0	389021696	60	5956
2026-01-24 03:18:41.55	272.48	10.75	-43.0	-44.3	20.2	0.00e+00	92	42	0	390070272	60	5950
2026-01-24 03:18:42.56	272.66	10.77	-42.5	-43.8	20.5	0.00e+00	89	42	0	392167424	58	6270
2026-01-24 03:18:43.57	272.84	10.79	-42.6	-43.8	20.6	0.00e+00	0	42	0	394264576	58	6316
2026-01-24 03:18:44.58	273.02	10.81	-42.6	-43.8	20.5	0.00e+00	92	42	0	396361728	58	6313
2026-01-24 03:18:45.59	273.20	10.83	-42.9	-44.2	20.2	0.00e+00	0	42	0	398458880	58	6583
2026-01-24 03:18:46.60	273.38	10.85	-43.2	-44.5	19.8	0.00e+00	92	42	0	399507456	58	6839
2026-01-24 03:18:47.61	273.56	10.87	-43.0	-44.4	19.9	0.00e+00	0	42	0	401604608	58	6699
2026-01-24 03:18:48.62	273.75	10.89	-43.4	-44.8	19.8	0.00e+00	91	42	0	403701760	58	7033
2026-01-24 03:18:49.63	273.93	10.91	-42.9	-44.3	20.1	0.00e+00	89	42	0	405798912	58	6624
2026-01-24 03:18:50.64	274.11	10.93	-42.7	-44.0	20.4	0.00e+00	0	42	0	407896064	58	6406
2026-01-24 03:18:51.65	274.29	10.95	-42.5	-43.7	20.6	0.00e+00	92	42	0	408944640	58	6206
2026-01-24 03:18:52.66	274.48	10.97	-42.1	-43.2	21.1	0.00e+00	0	42	0	411041792	58	5884
2026-01-24 03:18:53.67	274.66	10.99	-42.2	-43.4	20.9	0.00e+00	90	42	0	413138944	58	6000
2026-01-24 03:18:54.67	274.84	11.01	-42.2	-43.4	20.8	0.00e+00	5	42	0	415236096	58	6016
2026-01-24 03:18:55.68	275.03	11.02	-42.8	-44.2	20.4	0.00e+00	92	42	0	417333248	58	6541
2026-01-24 03:18:56.69	275.21	11.04	-43.2	-44.6	19.8	0.00e+00	21	42	0	418381824	58	6893
2026-01-24 03:18:57.70	275.39	11.06	-43.6	-45.0	19.4	0.00e+00	0	42	0	420478976	58	7240
2026-01-24 03:18:58.71	275.58	11.08	-43.2	-44.6	19.9	0.00e+00	92	42	0	422576128	58	6849
2026-01-24 03:18:59.72	275.76	11.09	-43.1	-44.4	20.0	0.00e+00	0	42	0	424673280	58	6753
2026-01-24 03:19:00.73	275.95	11.11	-43.1	-44.5	20.1	0.00e+00	69	42	0	426770432	58	6786
2026-01-24 03:19:01.74	276.13	11.13	-42.9	-44.2	20.3	0.00e+00	0	42	0	427819008	58	6554
2026-01-24 03:19:02.75	276.32	11.14	-42.6	-43.8	20.5	0.00e+00	90	42	0	429916160	58	6310
2026-01-24 03:19:03.76	276.50	11.16	-42.8	-44.1	20.4	0.00e+00	5	42	0	432013312	58	6470
2026-01-24 03:19:04.77	276.69	11.18	-43.3	-44.7	19.8	0.00e+00	63	42	0	434110464	58	6981
2026-01-24 03:19:05.78	276.88	11.19	-43.6	-45.0	19.4	0.00e+00	92	42	0	436207616	58	7217
2026-01-24 03:19:06.79	277.06	11.21	-43.8	-45.3	19.2	0.00e+00	0	42	0	437256192	60	6679
2026-01-24 03:19:07.80	277.25	11.22	-44.2	-45.8	18.9	0.00e+00	91	42	0	439353344	60	7071
2026-01-24 03:19:08.81	277.43	11.24	-44.4	-46.0	18.6	0.00e+00	0	42	0	441450496	60	7229
2026-01-24 03:19:09.82	277.62	11.25	-44.0	-45.5	19.3	0.00e+00	92	42	0	443547648	60	6825
2026-01-24 03:19:10.83	277.81	11.27	-43.4	-44.8	19.7	0.00e+00	6	42	0	445644800	60	6300
2026-01-24 03:19:11.84	278.00	11.28	-43.0	-44.3	20.2	0.00e+00	56	42	0	446693376	60	5941
2026-01-24 03:19:12.85	278.18	11.29	-42.4	-43.6	20.8	0.00e+00	91	42	0	448790528	58	6114
2026-01-24 03:19:13.86	278.37	11.31	-42.6	-43.8	20.6	0.00e+00	0	42	0	450887680	58	6298
2026-01-24 03:19:14.87	278.56	11.32	-42.8	-44.1	20.3	0.00e+00	91	42	0	452984832	58	6497
2026-01-24 03:19:15.88	278.74	11.33	-43.0	-44.3	20.2	0.00e+00	0	42	0	455081984	58	6685
2026-01-24 03:19:16.89	278.93	11.35	-43.5	-44.9	19.6	0.00e+00	85	42	0	457179136	58	7134
2026-01-24 03:19:17.90	279.12	11.36	-43.4	-44.8	19.7	0.00e+00	2	42	0	458227712	58	7083
2026-01-24 03:19:18.91	279.31	11.37	-43.5	-44.9	19.5	0.00e+00	92	42	0	460324864	58	7169
2026-01-24 03:19:19.92	279.50	11.38	-43.4	-44.8	19.8	0.00e+00	92	42	0	462422016	58	7085
2026-01-24 03:19:20.93	279.68	11.39	-43.6	-45.0	19.4	0.00e+00	0	42	0	464519168	58	7216
2026-01-24 03:19:21.94	279.87	11.41	-43.6	-45.1	19.6	0.00e+00	92	42	0	465567744	58	7255
2026-01-24 03:19:22.95	280.06	11.42	-43.8	-45.3	19.2	0.00e+00	0	42	0	467664896	58	7423
2026-01-24 03:19:23.95	280.25	11.43	-44.1	-45.7	19.0	0.00e+00	92	42	0	469762048	60	6965
2026-01-24 03:19:24.96	280.44	11.44	-44.5	-46.2	18.5	0.00e+00	0	42	0	471859200	60	7370
2026-01-24 03:19:25.97	280.63	11.45	-44.8	-46.6	18.2	0.00e+00	92	42	0	473956352	60	7720
2026-01-24 03:19:26.98	280.82	11.46	-44.9	-46.7	18.1	0.00e+00	92	42	0	475004928	60	7835
2026-01-24 03:19:27.99	281.01	11.47	-44.8	-46.6	18.1	0.00e+00	0	42	0	477102080	60	7755
2026-01-24 03:19:29.00	281.19	11.48	-44.9	-46.8	18.0	0.00e+00	92	42	0	479199232	60	7888
2026-01-24 03:19:30.01	281.38	11.49	-44.5	-46.2	18.5	0.00e+00	0	42	0	481296384	60	7410
2026-01-24 03:19:31.02	281.57	11.50	-44.2	-45.8	18.9	0.00e+00	86	42	0	483393536	60	7047
2026-01-24 03:19:32.03	281.76	11.50	-43.9	-45.4	19.2	0.00e+00	0	42	0	485490688	60	6726
2026-01-24 03:19:33.03	281.95	11.51	-43.6	-45.0	19.6	0.00e+00	91	42	0	486539264	60	6449
2026-01-24 03:19:34.04	282.14	11.52	-43.4	-44.8	19.8	0.00e+00	92	42	0	488636416	60	6268
2026-01-24 03:19:35.05	282.33	11.53	-43.6	-45.1	19.4	0.00e+00	0	42	0	490733568	60	6473
2026-01-24 03:19:36.06	282.52	11.54	-43.7	-45.3	19.4	0.00e+00	90	42	0	492830720	60	6621
2026-01-24 03:19:37.07	282.71	11.54	-43.8	-45.3	19.4	0.00e+00	0	42	0	494927872	60	6635
2026-01-24 03:19:38.08	282.90	11.55	-43.6	-45.1	19.5	0.00e+00	53	42	0	495976448	60	6507
2026-01-24 03:19:39.09	283.09	11.56	-43.5	-44.9	19.7	0.00e+00	0	42	0	498073600	60	6386
2026-01-24 03:19:40.10	283.28	11.56	-43.3	-44.7	19.9	0.00e+00	74	42	0	500170752	60	6233
2026-01-24 03:19:41.11	283.47	11.57	-43.1	-44.5	19.8	0.00e+00	0	42	0	502267904	60	6065
2026-01-24 03:19:42.12	283.66	11.58	-43.1	-44.4	20.2	0.00e+00	92	42	0	504365056	60	5980
2026-01-24 03:19:43.13	283.85	11.58	-43.0	-44.3	20.3	0.00e+00	92	42	0	505413632	60	5922
2026-01-24 03:19:44.14	284.04	11.59	-42.8	-44.1	20.5	0.00e+00	0	42	0	507510784	60	5802
2026-01-24 03:19:45.15	284.24	11.59	-42.6	-43.9	20.6	0.00e+00	75	42	0	509607936	58	6326
2026-01-24 03:19:46.15	284.42	11.60	-42.7	-44.0	20.5	0.00e+00	0	42	0	511705088	58	6433
2026-01-24 03:19:47.16	284.62	11.60	-42.7	-44.0	20.5	0.00e+00	90	42	0	513802240	58	6417
2026-01-24 03:19:48.17	284.81	11.60	-42.8	-44.1	20.3	0.00e+00	4	42	0	514850816	58	6471
2026-01-24 03:19:49.18	285.00	11.61	-42.6	-43.9	20.5	0.00e+00	92	42	0	516947968	58	6331
2026-01-24 03:19:50.19	285.19	11.61	-42.7	-44.0	20.5	0.00e+00	92	42	0	519045120	58	6395
2026-01-24 03:19:51.20	285.38	11.62	-42.7	-43.9	20.4	0.00e+00	0	42	0	521142272	58	6386
2026-01-24 03:19:52.21	285.57	11.62	-42.7	-44.0	20.6	0.00e+00	37	42	0	523239424	58	6403
2026-01-24 03:19:53.22	285.76	11.62	-42.7	-44.0	20.5	0.00e+00	23	42	0	524288000	58	6413
2026-01-24 03:19:54.23	285.95	11.62	-42.9	-44.2	20.3	0.00e+00	92	42	0	526385152	58	6595
2026-01-24 03:19:55.24	286.14	11.63	-43.1	-44.4	20.2	0.00e+00	0	42	0	528482304	58	6716
2026-01-24 03:19:56.25	286.34	11.63	-43.0	-44.3	20.1	0.00e+00	92	42	0	530579456	58	6652
2026-01-24 03:19:57.26	286.53	11.63	-43.1	-44.4	20.1	0.00e+00	92	42	0	532676608	58	6751
2026-01-24 03:19:58.27	286.72	11.63	-43.1	-44.4	20.1	0.00e+00	0	42	0	533725184	58	6733
2026-01-24 03:19:59.27	286.91	11.63	-42.8	-44.1	20.4	0.00e+00	95	42	0	535822336	58	6509
2026-01-24 03:20:00.29	287.10	11.63	-42.7	-44.0	20.5	0.00e+00	0	42	0	537919488	58	6443
2026-01-24 03:20:01.29	287.29	11.63	-42.4	-43.6	20.7	0.00e+00	92	42	0	540016640	58	6150
2026-01-24 03:20:02.30	287.48	11.63	-42.4	-43.6	20.8	0.00e+00	0	42	0	542113792	58	6116
2026-01-24 03:20:03.31	287.67	11.63	-42.4	-43.6	20.8	0.00e+00	92	42	0	543162368	58	6141
2026-01-24 03:20:04.32	287.86	11.63	-42.5	-43.7	20.7	0.00e+00	90	42	0	545259520	58	6235
2026-01-24 03:20:05.33	288.05	11.63	-42.5	-43.8	20.7	0.00e+00	0	42	0	547356672	58	6282
2026-01-24 03:20:06.34	288.25	11.63	-42.8	-44.1	20.4	0.00e+00	90	42	0	549453824	58	6483
2026-01-24 03:20:07.35	288.44	11.63	-42.4	-43.7	20.8	0.00e+00	0	42	0	551550976	58	6180
2026-01-24 03:20:08.36	288.63	11.63	-42.3	-43.5	20.9	0.00e+00	92	42	0	553648128	58	6075
2026-01-24 03:20:09.37	288.82	11.63	-42.1	-43.3	21.1	0.00e+00	0	42	0	554696704	58	5942
2026-01-24 03:20:10.38	289.01	11.62	-42.2	-43.4	21.1	0.00e+00	92	42	0	556793856	58	5984
2026-01-24 03:20:11.39	289.20	11.62	-42.1	-43.2	21.2	0.00e+00	7	42	0	558891008	58	5868
2026-01-24 03:20:12.40	289.39	11.62	-42.2	-43.4	21.0	0.00e+00	0	42	0	560988160	58	6004
2026-01-24 03:20:13.41	289.58	11.62	-42.4	-43.6	20.9	0.00e+00	92	42	0	563085312	58	6120
2026-01-24 03:20:14.42	289.77	11.61	-42.3	-43.6	20.9	0.00e+00	0	42	0	564133888	58	6112
2026-01-24 03:20:15.43	289.97	11.61	-42.3	-43.5	21.1	0.00e+00	92	42	0	566231040	58	6041
2026-01-24 03:20:16.44	290.16	11.61	-42.3	-43.5	20.9	0.00e+00	0	42	0	568328192	58	6065
2026-01-24 03:20:17.45	290.35	11.60	-42.1	-43.3	21.1	0.00e+00	92	42	0	570425344	58	5943
2026-01-24 03:20:18.46	290.54	11.60	-42.1	-43.2	21.2	0.00e+00	19	42	0	572522496	58	5885
2026-01-24 03:20:19.46	290.73	11.59	-42.0	-43.2	21.0	0.00e+00	92	42	0	573571072	58	5863
2026-01-24 03:20:20.47	290.92	11.59	-42.2	-43.4	21.1	0.00e+00	92	42	0	575668224	58	6018
2026-01-24 03:20:21.48	291.11	11.58	-42.3	-43.5	21.0	0.00e+00	0	42	0	577765376	58	6051
2026-01-24 03:20:22.49	291.30	11.58	-42.5	-43.8	20.6	0.00e+00	65	42	0	579862528	58	6266
2026-01-24 03:20:23.50	291.49	11.57	-42.6	-43.8	20.7	0.00e+00	0	42	0	581959680	58	6282
2026-01-24 03:20:24.51	291.68	11.57	-42.5	-43.8	20.7	0.00e+00	92	42	0	583008256	58	6270
2026-01-24 03:20:25.52	291.87	11.56	-42.5	-43.8	20.7	0.00e+00	0	42	0	585105408	58	6269
2026-01-24 03:20:26.53	292.06	11.55	-42.4	-43.7	20.8	0.00e+00	90	42	0	587202560	58	6183
2026-01-24 03:20:27.54	292.25	11.55	-42.4	-43.6	20.9	0.00e+00	90	42	0	589299712	58	6113
2026-01-24 03:20:28.55	292.44	11.54	-42.1	-43.3	21.3	0.00e+00	0	42	0	591396864	58	5911
2026-01-24 03:20:29.56	292.63	11.53	-41.9	-43.1	21.3	0.00e+00	45	42	0	592445440	58	5787
2026-01-24 03:20:30.57	292.82	11.52	-42.0	-43.2	21.2	0.00e+00	30	42	0	594542592	58	5861
2026-01-24 03:20:31.58	293.01	11.52	-42.0	-43.2	21.3	0.00e+00	92	42	0	596639744	58	5860
2026-01-24 03:20:32.59	293.20	11.51	-41.8	-42.9	21.5	0.00e+00	0	42	0	598736896	58	5648
2026-01-24 03:20:33.60	293.39	11.50	-42.0	-43.2	21.3	0.00e+00	53	42	0	600834048	58	5858
2026-01-24 03:20:34.61	293.58	11.49	-42.0	-43.2	21.3	0.00e+00	91	42	0	601882624	58	5867
2026-01-24 03:20:35.62	293.77	11.48	-42.0	-43.2	21.4	0.00e+00	0	42	0	603979776	58	5859
2026-01-24 03:20:36.63	293.96	11.47	-42.2	-43.4	21.1	0.00e+00	50	42	0	606076928	58	5990
2026-01-24 03:20:37.63	294.14	11.46	-42.0	-43.2	21.4	0.00e+00	0	42	0	608174080	58	5868
2026-01-24 03:20:38.64	294.33	11.45	-41.8	-43.0	21.5	0.00e+00	92	42	0	610271232	58	5702
2026-01-24 03:20:39.65	294.52	11.44	-41.6	-42.6	21.8	0.00e+00	0	42	0	611319808	56	6164
2026-01-24 03:20:40.66	294.71	11.43	-41.6	-42.6	21.7	0.00e+00	92	42	0	613416960	56	6170
2026-01-24 03:20:41.67	294.90	11.42	-41.4	-42.5	21.9	0.00e+00	86	42	0	615514112	56	6040
2026-01-24 03:20:42.68	295.09	11.41	-41.5	-42.6	21.8	0.00e+00	0	42	0	617611264	56	6159
2026-01-24 03:20:43.69	295.28	11.40	-41.7	-42.8	21.6	0.00e+00	92	42	0	619708416	56	6288
2026-01-24 03:20:44.70	295.46	11.39	-42.0	-43.1	21.4	0.00e+00	0	42	0	620756992	56	6513
2026-01-24 03:20:45.71	295.65	11.38	-41.9	-43.0	21.5	0.00e+00	92	42	0	622854144	56	6419
2026-01-24 03:20:46.72	295.84	11.36	-41.8	-42.9	21.5	0.00e+00	0	42	0	624951296	56	6387
2026-01-24 03:20:47.73	296.03	11.35	-42.0	-43.2	21.3	0.00e+00	92	42	0	627048448	56	6551
2026-01-24 03:20:48.74	296.21	11.34	-41.7	-42.8	21.6	0.00e+00	3	42	0	629145600	56	6315
2026-01-24 03:20:49.75	296.40	11.33	-41.2	-42.3	22.1	0.00e+00	0	42	0	631242752	56	5916
2026-01-24 03:20:50.75	296.59	11.31	-41.0	-42.0	22.1	0.00e+00	45	42	0	632291328	56	5752
2026-01-24 03:20:51.77	296.78	11.30	-41.3	-42.4	21.8	0.00e+00	0	42	0	634388480	56	5976
2026-01-24 03:20:52.77	296.96	11.29	-41.2	-42.2	22.0	0.00e+00	92	42	0	636485632	56	5889
2026-01-24 03:20:53.78	297.15	11.27	-41.5	-42.6	21.7	0.00e+00	0	42	0	638582784	56	6126
2026-01-24 03:20:54.79	297.33	11.26	-41.5	-42.5	21.8	0.00e+00	92	42	0	640679936	56	6092
2026-01-24 03:20:55.80	297.52	11.24	-41.8	-42.9	21.5	0.00e+00	92	42	0	641728512	56	6359
2026-01-24 03:20:56.81	297.71	11.23	-41.7	-42.8	21.6	0.00e+00	0	42	0	643825664	56	6278
2026-01-24 03:20:57.82	297.89	11.21	-41.8	-42.9	21.6	0.00e+00	92	42	0	645922816	56	6356
2026-01-24 03:20:58.83	298.08	11.20	-41.9	-43.0	21.4	0.00e+00	0	42	0	648019968	56	6424
2026-01-24 03:20:59.83	298.26	11.18	-41.4	-42.5	21.8	0.00e+00	30	42	0	649068544	56	6081
2026-01-24 03:21:00.84	298.45	11.17	-41.5	-42.6	21.8	0.00e+00	0	42	0	651165696	56	6164
2026-01-24 03:21:01.85	298.63	11.15	-41.5	-42.6	21.7	0.00e+00	90	42	0	653262848	56	6127
2026-01-24 03:21:02.86	298.82	11.14	-41.5	-42.5	21.8	0.00e+00	6	42	0	655360000	56	6092
2026-01-24 03:21:03.87	299.00	11.12	-41.2	-42.3	21.9	0.00e+00	21	42	0	657457152	56	5910
2026-01-24 03:21:04.88	299.19	11.10	-41.4	-42.5	21.8	0.00e+00	90	42	0	659554304	56	6041
2026-01-24 03:21:05.89	299.37	11.08	-41.3	-42.4	21.9	0.00e+00	0	42	0	660602880	56	5965
2026-01-24 03:21:06.90	299.55	11.07	-41.2	-42.3	22.0	0.00e+00	92	42	0	662700032	56	5919
2026-01-24 03:21:07.91	299.74	11.05	-41.4	-42.5	21.8	0.00e+00	0	42	0	664797184	56	6084
2026-01-24 03:21:08.92	299.92	11.03	-41.9	-43.0	21.3	0.00e+00	57	42	0	666894336	56	6432
2026-01-24 03:21:09.93	300.11	11.01	-41.8	-42.9	21.5	0.00e+00	0	42	0	668991488	56	6345
2026-01-24 03:21:10.94	300.29	11.00	-42.0	-43.2	21.1	0.00e+00	91	42	0	670040064	56	6581
2026-01-24 03:21:11.95	300.47	10.98	-42.2	-43.4	21.0	0.00e+00	92	42	0	672137216	56	6715
2026-01-24 03:21:12.96	300.66	10.96	-42.3	-43.5	21.1	0.00e+00	0	42	0	674234368	56	6811
2026-01-24 03:21:13.96	300.84	10.94	-42.2	-43.4	21.1	0.00e+00	88	42	0	676331520	56	6745
2026-01-24 03:21:14.97	301.02	10.92	-42.1	-43.2	21.4	0.00e+00	0	42	0	678428672	56	6603
2026-01-24 03:21:15.98	301.20	10.90	-42.2	-43.3	20.9	0.00e+00	60	42	0	679477248	56	6683
2026-01-24 03:21:17.00	301.38	10.88	-42.6	-43.8	20.7	0.00e+00	0	42	0	681574400	56	7073
2026-01-24 03:21:18.01	301.57	10.86	-42.8	-44.1	20.5	0.00e+00	91	42	0	683671552	56	7286
2026-01-24 03:21:19.02	301.75	10.84	-43.0	-44.3	20.1	0.00e+00	92	42	0	685768704	58	6662
2026-01-24 03:21:20.03	301.93	10.82	-43.0	-44.3	20.2	0.00e+00	0	42	0	687865856	58	6667
2026-01-24 03:21:21.04	302.11	10.80	-42.6	-43.9	20.6	0.00e+00	90	42	0	688914432	58	6331
2026-01-24 03:21:22.05	302.29	10.78	-42.4	-43.6	20.8	0.00e+00	0	42	0	691011584	58	6162
2026-01-24 03:21:23.06	302.47	10.76	-42.3	-43.5	20.9	0.00e+00	49	42	0	693108736	58	6077
2026-01-24 03:21:24.07	302.65	10.74	-41.7	-42.8	21.5	0.00e+00	0	42	0	695205888	58	5625
2026-01-24 03:21:25.07	302.83	10.72	-41.4	-42.5	21.7	0.00e+00	92	42	0	697303040	56	6088
2026-01-24 03:21:26.08	303.01	10.69	-41.1	-42.1	22.1	0.00e+00	19	42	0	698351616	56	5816
2026-01-24 03:21:27.09	303.19	10.67	-41.0	-42.1	22.1	0.00e+00	0	42	0	700448768	56	5763
2026-01-24 03:21:28.10	303.37	10.65	-41.2	-42.3	21.7	0.00e+00	54	42	0	702545920	56	5911
2026-01-24 03:21:29.11	303.54	10.63	-41.1	-42.1	22.1	0.00e+00	0	42	0	704643072	56	5780
2026-01-24 03:21:30.12	303.72	10.61	-41.3	-42.3	21.9	0.00e+00	70	42	0	706740224	56	5937
2026-01-24 03:21:31.13	303.90	10.58	-40.9	-41.9	22.3	0.00e+00	0	42	0	707788800	56	5682
2026-01-24 03:21:32.14	304.08	10.56	-40.9	-41.9	22.2	0.00e+00	78	42	0	709885952	56	5663
2026-01-24 03:21:33.15	304.26	10.54	-40.9	-41.9	22.3	0.00e+00	17	42	0	711983104	56	5646
2026-01-24 03:21:34.15	304.43	10.51	-40.2	-41.1	22.7	0.00e+00	0	42	0	714080256	54	5825
2026-01-24 03:21:35.16	304.61	10.49	-40.4	-41.3	22.7	0.00e+00	75	42	0	716177408	54	5959
2026-01-24 03:21:36.18	304.79	10.46	-40.2	-41.1	22.8	0.00e+00	0	42	0	717225984	54	5824
2026-01-24 03:21:37.18	304.96	10.44	-40.6	-41.6	22.6	0.00e+00	77	42	0	719323136	54	6108
2026-01-24 03:21:38.19	305.14	10.42	-40.6	-41.6	22.5	0.00e+00	0	42	0	721420288	54	6121
2026-01-24 03:21:39.20	305.32	10.39	-40.8	-41.8	22.2	0.00e+00	92	42	0	723517440	54	6290
2026-01-24 03:21:40.21	305.49	10.37	-40.7	-41.7	22.3	0.00e+00	30	42	0	725614592	54	6238
2026-01-24 03:21:41.22	305.67	10.34	-41.0	-42.0	22.1	0.00e+00	30	42	0	727711744	54	6436
2026-01-24 03:21:42.23	305.84	10.32	-41.1	-42.1	22.0	0.00e+00	92	42	0	728760320	54	6536
2026-01-24 03:21:43.24	306.02	10.29	-41.1	-42.2	21.9	0.00e+00	30	42	0	730857472	54	6566
2026-01-24 03:21:44.25	306.19	10.27	-41.2	-42.3	21.8	0.00e+00	56	42	0	732954624	54	6668
2026-01-24 03:21:45.26	306.37	10.24	-41.0	-42.1	22.0	0.00e+00	0	42	0	735051776	54	6491
2026-01-24 03:21:46.27	306.54	10.21	-41.1	-42.2	21.9	0.00e+00	92	42	0	737148928	54	6550
2026-01-24 03:21:47.28	306.71	10.19	-41.1	-42.1	22.0	0.00e+00	0	42	0	738197504	54	6534
2026-01-24 03:21:48.29	306.89	10.16	-40.8	-41.8	22.2	0.00e+00	92	42	0	740294656	54	6260
2026-01-24 03:21:49.30	307.06	10.13	-40.8	-41.8	22.1	0.00e+00	92	42	0	742391808	54	6311
2026-01-24 03:21:50.31	307.23	10.11	-40.7	-41.7	22.2	0.00e+00	0	42	0	744488960	54	6243
2026-01-24 03:21:51.31	307.40	10.08	-40.7	-41.8	22.2	0.00e+00	92	42	0	746586112	54	6252
2026-01-24 03:21:52.32	307.57	10.05	-41.0	-42.0	21.9	0.00e+00	0	42	0	747634688	54	6417
2026-01-24 03:21:53.33	307.75	10.03	-41.0	-42.1	21.9	0.00e+00	92	42	0	749731840	54	6488
2026-01-24 03:21:54.34	307.92	10.00	-41.2	-42.3	21.8	0.00e+00	0	42	0	751828992	54	6642
2026-01-24 03:21:55.35	308.09	9.97	-41.0	-42.0	22.0	0.00e+00	92	42	0	753926144	54	6444
2026-01-24 03:21:56.36	308.26	9.94	-41.0	-42.1	22.0	0.00e+00	45	42	0	756023296	54	6494
2026-01-24 03:21:57.37	308.43	9.91	-41.0	-42.1	22.0	0.00e+00	0	42	0	757071872	54	6491
2026-01-24 03:21:58.38	308.60	9.89	-40.5	-41.5	22.3	0.00e+00	79	42	0	759169024	54	6102
2026-01-24 03:21:59.39	308.77	9.86	-40.5	-41.5	22.5	0.00e+00	0	42	0	761266176	54	6059
2026-01-24 03:22:00.40	308.94	9.83	-40.5	-41.5	22.3	0.00e+00	90	42	0	763363328	54	6061
2026-01-24 03:22:01.41	309.11	9.80	-40.6	-41.6	22.4	0.00e+00	0	42	0	765460480	54	6128
2026-01-24 03:22:02.42	309.28	9.77	-41.0	-42.0	22.1	0.00e+00	92	42	0	766509056	54	6450
2026-01-24 03:22:03.43	309.45	9.74	-40.9	-41.9	22.1	0.00e+00	7	42	0	768606208	54	6368
2026-01-24 03:22:04.44	309.61	9.71	-40.8	-41.9	22.2	0.00e+00	0	42	0	770703360	54	6336
2026-01-24 03:22:05.45	309.78	9.68	-40.8	-41.9	22.1	0.00e+00	92	42	0	772800512	54	6320
2026-01-24 03:22:06.46	309.95	9.65	-41.0	-42.0	22.0	0.00e+00	0	42	0	774897664	54	6461
2026-01-24 03:22:07.47	310.12	9.62	-40.9	-42.0	22.0	0.00e+00	80	42	0	775946240	54	6421
2026-01-24 03:22:08.48	310.28	9.59	-41.2	-42.3	21.7	0.00e+00	0	42	0	778043392	54	6644
2026-01-24 03:22:09.49	310.45	9.56	-41.1	-42.1	22.0	0.00e+00	92	42	0	780140544	54	6536
2026-01-24 03:22:10.50	310.62	9.53	-41.1	-42.2	21.9	0.00e+00	81	42	0	782237696	54	6579
2026-01-24 03:22:11.51	310.78	9.50	-41.1	-42.2	21.8	0.00e+00	0	42	0	784334848	54	6570
2026-01-24 03:22:12.52	310.95	9.47	-41.1	-42.2	21.7	0.00e+00	87	42	0	785383424	54	6571
2026-01-24 03:22:13.53	311.11	9.44	-41.1	-42.2	21.8	0.00e+00	0	42	0	787480576	54	6577
2026-01-24 03:22:14.53	311.28	9.41	-41.9	-43.1	21.2	0.00e+00	90	42	0	789577728	56	6486
2026-01-24 03:22:15.54	311.44	9.38	-41.9	-43.1	21.1	0.00e+00	0	42	0	791674880	56	6500
2026-01-24 03:22:16.55	311.60	9.34	-42.5	-43.8	20.8	0.00e+00	92	42	0	793772032	56	7021
2026-01-24 03:22:17.56	311.77	9.31	-42.6	-43.8	20.7	0.00e+00	0	42	0	795869184	56	7085
2026-01-24 03:22:18.57	311.93	9.28	-43.1	-44.5	19.9	0.00e+00	0	42	0	796917760	58	6801
2026-01-24 03:22:19.58	312.10	9.25	-42.9	-44.3	20.1	0.00e+00	90	42	0	799014912	58	6627
2026-01-24 03:22:20.59	312.26	9.22	-42.5	-43.8	20.4	0.00e+00	0	42	0	801112064	58	6294
2026-01-24 03:22:21.60	312.42	9.18	-42.8	-44.1	20.2	0.00e+00	90	42	0	803209216	58	6498
2026-01-24 03:22:22.61	312.58	9.15	-42.5	-43.7	20.5	0.00e+00	0	42	0	805306368	58	6241
2026-01-24 03:22:23.62	312.74	9.12	-42.8	-44.1	20.1	0.00e+00	92	42	0	806354944	58	6513
2026-01-24 03:22:24.63	312.91	9.09	-43.1	-44.5	19.8	0.00e+00	0	42	0	808452096	58	6815
2026-01-24 03:22:25.64	313.07	9.05	-42.9	-44.2	19.9	0.00e+00	0	42	0	810549248	58	6581
2026-01-24 03:22:26.65	313.23	9.02	-43.1	-44.5	19.8	0.00e+00	90	42	0	812646400	58	6772
2026-01-24 03:22:27.66	313.39	8.99	-43.0	-44.4	19.9	0.00e+00	0	42	0	814743552	58	6702
2026-01-24 03:22:28.67	313.55	8.95	-43.3	-44.7	19.6	0.00e+00	92	42	0	815792128	58	7004
2026-01-24 03:22:29.68	313.71	8.92	-43.0	-44.3	19.8	0.00e+00	0	42	0	817889280	58	6691
2026-01-24 03:22:30.69	313.87	8.89	-43.0	-44.4	19.9	0.00e+00	90	42	0	819986432	58	6748
2026-01-24 03:22:31.70	314.02	8.85	-42.6	-43.9	20.4	0.00e+00	0	42	0	822083584	58	6346
2026-01-24 03:22:32.71	314.18	8.82	-42.6	-43.9	20.4	0.00e+00	75	42	0	824180736	58	6382
2026-01-24 03:22:33.72	314.34	8.78	-42.9	-44.3	20.0	0.00e+00	90	42	0	825229312	58	6657
2026-01-24 03:22:34.73	314.50	8.75	-43.0	-44.4	19.9	0.00e+00	0	42	0	827326464	58	6754
2026-01-24 03:22:35.73	314.66	8.72	-43.2	-44.6	19.7	0.00e+00	66	42	0	829423616	58	6890
2026-01-24 03:22:36.74	314.81	8.68	-43.1	-44.5	20.0	0.00e+00	0	42	0	831520768	58	6777
2026-01-24 03:22:37.75	314.97	8.65	-43.0	-44.4	19.9	0.00e+00	87	42	0	833617920	58	6693
2026-01-24 03:22:38.76	315.13	8.61	-43.2	-44.7	19.6	0.00e+00	0	42	0	834666496	58	6943
2026-01-24 03:22:39.77	315.28	8.58	-43.7	-45.2	19.2	0.00e+00	90	42	0	836763648	60	6600
2026-01-24 03:22:40.78	315.44	8.54	-44.2	-45.9	18.6	0.00e+00	5	42	0	838860800	60	7131
2026-01-24 03:22:41.79	315.59	8.51	-44.0	-45.7	18.7	0.00e+00	0	42	0	840957952	60	6954
2026-01-24 03:22:42.80	315.75	8.47	-43.7	-45.3	19.1	0.00e+00	70	42	0	843055104	60	6657
2026-01-24 03:22:43.81	315.90	8.44	-43.9	-45.5	19.2	0.00e+00	0	42	0	844103680	60	6832
2026-01-24 03:22:44.82	316.06	8.40	-44.0	-45.7	18.9	0.00e+00	76	42	0	846200832	60	6929
2026-01-24 03:22:45.83	316.21	8.36	-43.6	-45.1	19.6	0.00e+00	0	42	0	848297984	60	6523
2026-01-24 03:22:46.83	316.36	8.33	-43.3	-44.8	19.7	0.00e+00	70	41	0	850395136	60	6248
2026-01-24 03:22:47.84	316.51	8.29	-43.5	-45.0	19.3	0.00e+00	0	42	0	852492288	60	6431
2026-01-24 03:22:48.85	316.67	8.26	-43.7	-45.2	19.3	0.00e+00	0	42	0	853540864	60	6592
2026-01-24 03:22:49.86	316.82	8.22	-43.8	-45.3	19.1	0.00e+00	74	42	0	855638016	60	6692
2026-01-24 03:22:50.87	316.97	8.18	-44.4	-46.1	18.3	0.00e+00	0	41	0	857735168	60	7329
2026-01-24 03:22:51.88	317.12	8.15	-44.4	-46.1	18.3	0.00e+00	64	41	0	859832320	60	7310
2026-01-24 03:22:52.89	317.27	8.11	-44.6	-46.4	18.2	0.00e+00	0	42	0	861929472	60	7581
2026-01-24 03:22:53.90	317.42	8.07	-44.6	-46.4	18.1	0.00e+00	92	41	0	864026624	60	7540
2026-01-24 03:22:54.91	317.58	8.04	-44.6	-46.4	18.1	0.00e+00	0	41	0	865075200	60	7558
2026-01-24 03:22:55.92	317.73	8.00	-44.4	-46.2	18.2	0.00e+00	0	41	0	867172352	60	7367
2026-01-24 03:22:56.93	317.88	7.96	-44.8	-46.7	17.8	0.00e+00	54	42	0	869269504	60	7795
2026-01-24 03:22:57.94	318.02	7.93	-44.3	-46.0	18.5	0.00e+00	0	41	0	871366656	60	7209
2026-01-24 03:22:58.95	318.17	7.89	-44.1	-45.7	18.7	0.00e+00	92	41	0	873463808	60	6976
2026-01-24 03:22:59.96	318.32	7.85	-44.4	-46.1	18.2	0.00e+00	0	42	0	874512384	60	7300
2026-01-24 03:23:00.97	318.47	7.81	-44.6	-46.5	17.9	0.00e+00	77	41	0	876609536	60	7636
2026-01-24 03:23:01.98	318.62	7.78	-44.1	-45.9	18.5	0.00e+00	0	42	0	878706688	60	7089
2026-01-24 03:23:02.99	318.77	7.74	-44.2	-46.0	18.4	0.00e+00	0	41	0	880803840	60	7178
2026-01-24 03:23:04.00	318.91	7.70	-43.7	-45.3	18.9	0.00e+00	92	42	0	882900992	60	6661
2026-01-24 03:23:05.01	319.06	7.66	-44.1	-45.9	18.3	0.00e+00	0	42	0	883949568	60	7116
2026-01-24 03:23:06.01	319.20	7.63	-44.3	-46.1	18.2	0.00e+00	6	41	0	886046720	60	7278
2026-01-24 03:23:07.02	319.35	7.59	-44.1	-45.8	18.7	0.00e+00	27	41	0	888143872	60	7014
2026-01-24 03:23:08.03	319.50	7.55	-43.8	-45.4	19.0	0.00e+00	70	41	0	890241024	60	6719
2026-01-24 03:23:09.04	319.64	7.51	-44.1	-45.8	18.6	0.00e+00	0	41	0	892338176	60	7036
2026-01-24 03:23:10.05	319.79	7.47	-45.0	-47.0	17.1	0.00e+00	91	41	0	893386752	60	8086
2026-01-24 03:23:11.06	319.93	7.44	-45.0	-47.0	17.5	0.00e+00	92	41	0	895483904	60	8093
2026-01-24 03:23:12.07	320.08	7.40	-45.0	-46.9	17.5	0.00e+00	0	41	0	897581056	60	8022
2026-01-24 03:23:13.08	320.22	7.36	-44.9	-46.8	17.7	0.00e+00	0	41	0	899678208	60	7916
2026-01-24 03:23:14.09	320.36	7.32	-44.8	-46.7	17.8	0.00e+00	0	42	0	901775360	60	7862
2026-01-24 03:23:15.10	320.51	7.28	-44.7	-46.6	17.9	0.00e+00	58	41	0	902823936	60	7735
2026-01-24 03:23:16.11	320.65	7.24	-44.3	-46.1	18.2	0.00e+00	0	41	0	904921088	60	7279
2026-01-24 03:23:17.12	320.79	7.20	-44.1	-45.8	18.5	0.00e+00	72	41	0	907018240	60	7053
2026-01-24 03:23:18.13	320.93	7.16	-44.6	-46.5	17.8	0.00e+00	68	42	0	909115392	60	7653
2026-01-24 03:23:19.14	321.07	7.12	-44.3	-46.1	18.3	0.00e+00	0	42	0	911212544	60	7274
2026-01-24 03:23:20.15	321.22	7.09	-44.1	-45.8	18.4	0.00e+00	70	41	0	912261120	60	7030
2026-01-24 03:23:21.16	321.36	7.05	-44.0	-45.7	18.5	0.00e+00	3	41	0	914358272	60	6969
2026-01-24 03:23:22.17	321.50	7.01	-43.8	-45.5	18.7	0.00e+00	63	41	0	916455424	60	6794
2026-01-24 03:23:23.18	321.64	6.97	-44.4	-46.2	18.0	0.00e+00	0	42	0	918552576	60	7402
2026-01-24 03:23:24.19	321.78	6.93	-43.9	-45.6	18.6	0.00e+00	84	41	0	920649728	60	6870
2026-01-24 03:23:25.20	321.92	6.89	-43.7	-45.3	18.9	0.00e+00	48	41	0	921698304	60	6684
2026-01-24 03:23:26.20	322.05	6.85	-43.8	-45.4	18.8	0.00e+00	0	41	0	923795456	60	6756
2026-01-24 03:23:27.21	322.19	6.81	-44.2	-45.9	18.2	0.00e+00	90	42	0	925892608	60	7147
2026-01-24 03:23:28.22	322.33	6.77	-43.7	-45.3	18.8	0.00e+00	0	41	0	927989760	60	6686
2026-01-24 03:23:29.23	322.47	6.73	-43.7	-45.4	18.9	0.00e+00	67	42	0	930086912	60	6699
2026-01-24 03:23:30.24	322.61	6.69	-43.7	-45.2	18.9	0.00e+00	31	41	0	932184064	60	6615
2026-01-24 03:23:31.25	322.74	6.65	-44.6	-46.5	17.6	0.00e+00	90	41	0	933232640	60	7613
2026-01-24 03:23:32.26	322.88	6.61	-43.7	-45.3	19.0	0.00e+00	0	41	0	935329792	60	6657
2026-01-24 03:23:33.27	323.02	6.57	-43.2	-44.7	19.4	0.00e+00	0	41	0	937426944	60	6198
2026-01-24 03:23:34.28	323.15	6.53	-43.6	-45.2	18.9	0.00e+00	92	41	0	939524096	60	6586
2026-01-24 03:23:35.29	323.29	6.49	-44.1	-45.8	18.4	0.00e+00	0	41	0	941621248	60	7049
2026-01-24 03:23:36.30	323.42	6.45	-43.3	-44.8	19.2	0.00e+00	92	41	0	942669824	60	6315
2026-01-24 03:23:37.31	323.56	6.41	-43.8	-45.4	18.8	0.00e+00	0	41	0	944766976	60	6726
2026-01-24 03:23:38.32	323.69	6.37	-43.5	-45.1	19.0	0.00e+00	92	41	0	946864128	60	6509
2026-01-24 03:23:39.33	323.83	6.33	-43.9	-45.6	18.7	0.00e+00	0	41	0	948961280	60	6891
2026-01-24 03:23:40.34	323.96	6.28	-43.7	-45.3	18.8	0.00e+00	17	41	0	950009856	60	6682
2026-01-24 03:23:41.35	324.10	6.24	-43.7	-45.4	18.9	0.00e+00	92	41	0	952107008	60	6699
2026-01-24 03:23:42.36	324.23	6.20	-43.5	-45.0	19.0	0.00e+00	0	41	0	954204160	60	6453
2026-01-24 03:23:43.37	324.36	6.16	-43.8	-45.5	18.7	0.00e+00	5	41	0	956301312	60	6788
2026-01-24 03:23:44.38	324.50	6.12	-43.7	-45.4	18.8	0.00e+00	0	41	0	958398464	60	6704
2026-01-24 03:23:45.39	324.63	6.08	-43.7	-45.4	18.7	0.00e+00	90	41	0	960495616	60	6723
2026-01-24 03:23:46.40	324.76	6.04	-44.1	-45.9	18.4	0.00e+00	0	41	0	961544192	60	7109
2026-01-24 03:23:47.41	324.89	6.00	-44.2	-45.9	18.3	0.00e+00	0	41	0	963641344	60	7138
2026-01-24 03:23:48.41	325.02	5.96	-43.9	-45.5	18.4	0.00e+00	78	41	0	965738496	60	6832
2026-01-24 03:23:49.43	325.15	5.92	-43.8	-45.5	18.8	0.00e+00	0	41	0	967835648	60	6781
2026-01-24 03:23:50.43	325.28	5.87	-43.8	-45.5	18.6	0.00e+00	91	41	0	969932800	60	6797
2026-01-24 03:23:51.44	325.41	5.83	-43.5	-45.0	19.0	0.00e+00	0	41	0	970981376	60	6455
2026-01-24 03:23:52.45	325.54	5.79	-43.7	-45.3	18.7	0.00e+00	0	41	0	973078528	60	6670
2026-01-24 03:23:53.46	325.67	5.75	-44.1	-45.8	18.4	0.00e+00	0	41	0	975175680	60	7068
2026-01-24 03:23:54.47	325.80	5.71	-43.8	-45.5	18.6	0.00e+00	0	41	0	977272832	60	6804
2026-01-24 03:23:55.48	325.93	5.67	-43.3	-44.9	19.0	0.00e+00	0	42	0	979369984	60	6322
2026-01-24 03:23:56.49	326.06	5.63	-43.8	-45.4	18.7	0.00e+00	0	41	0	980418560	60	6746
2026-01-24 03:23:57.50	326.18	5.58	-43.6	-45.2	18.9	0.00e+00	88	41	0	982515712	60	6587
2026-01-24 03:23:58.51	326.31	5.54	-43.6	-45.2	18.8	0.00e+00	0	41	0	984612864	60	6563
2026-01-24 03:23:59.52	326.44	5.50	-43.4	-45.0	18.9	0.00e+00	81	41	0	986710016	60	6435
2026-01-24 03:24:00.53	326.57	5.46	-43.5	-45.0	19.0	0.00e+00	0	41	0	988807168	60	6455
2026-01-24 03:24:01.53	326.69	5.42	-43.3	-44.8	19.3	0.00e+00	0	41	0	989855744	60	6269
2026-01-24 03:24:02.54	326.82	5.37	-43.4	-45.0	18.9	0.00e+00	9	41	0	991952896	60	6431
2026-01-24 03:24:03.55	326.94	5.33	-43.4	-45.0	19.1	0.00e+00	0	41	0	994050048	60	6408
2026-01-24 03:24:04.56	327.07	5.29	-43.4	-45.0	19.1	0.00e+00	86	41	0	996147200	60	6434
2026-01-24 03:24:05.57	327.19	5.25	-42.2	-43.5	20.3	0.00e+00	0	41	0	998244352	58	6051
2026-01-24 03:24:06.58	327.32	5.21	-43.1	-44.7	19.2	0.00e+00	87	41	0	999292928	58	6947
2026-01-24 03:24:07.59	327.44	5.16	-42.6	-44.0	19.9	0.00e+00	0	41	0	1001390080	58	6428
2026-01-24 03:24:08.60	327.57	5.12	-42.8	-44.3	19.7	0.00e+00	0	41	0	1003487232	58	6616
2026-01-24 03:24:09.61	327.69	5.08	-43.3	-44.8	19.3	0.00e+00	0	41	0	1005584384	58	7043
2026-01-24 03:24:10.62	327.81	5.04	-43.3	-44.9	19.1	0.00e+00	0	41	0	1007681536	58	7102
2026-01-24 03:24:11.63	327.94	5.00	-43.4	-45.0	18.8	0.00e+00	1	41	0	1008730112	58	7252
2026-01-24 03:24:12.63	328.06	4.95	-43.4	-45.0	19.1	0.00e+00	0	41	0	1010827264	58	7196
2026-01-24 03:24:13.64	328.18	4.91	-43.0	-44.5	19.3	0.00e+00	92	41	0	1012924416	58	6790
2026-01-24 03:24:14.65	328.30	4.87	-42.7	-44.1	19.6	0.00e+00	0	41	0	1015021568	58	6533
2026-01-24 03:24:15.66	328.43	4.83	-43.2	-44.7	19.1	0.00e+00	0	41	0	1017118720	58	6986
2026-01-24 03:24:16.67	328.55	4.78	-42.6	-44.1	19.7	0.00e+00	0	41	0	1018167296	58	6484
2026-01-24 03:24:17.68	328.67	4.74	-42.4	-43.8	19.8	0.00e+00	0	41	0	1020264448	58	6289
2026-01-24 03:24:18.69	328.79	4.70	-42.5	-44.0	19.6	0.00e+00	0	41	0	1022361600	58	6404
2026-01-24 03:24:19.70	328.91	4.66	-43.0	-44.5	19.2	0.00e+00	0	41	0	1024458752	58	6818
2026-01-24 03:24:20.71	329.03	4.61	-42.4	-43.8	19.8	0.00e+00	69	41	0	1026555904	58	6306
2026-01-24 03:24:21.72	329.15	4.57	-42.5	-43.9	19.7	0.00e+00	0	41	0	1028653056	58	6358
2026-01-24 03:24:22.73	329.27	4.53	-43.2	-44.8	18.8	0.00e+00	0	41	0	1029701632	58	7046
2026-01-24 03:24:23.74	329.39	4.49	-42.8	-44.3	19.4	0.00e+00	0	41	0	1031798784	58	6674
2026-01-24 03:24:24.75	329.51	4.44	-43.3	-44.9	18.5	0.00e+00	0	41	0	1033895936	58	7162
2026-01-24 03:24:25.76	329.62	4.40	-43.5	-45.2	18.9	0.00e+00	73	42	0	1035993088	60	6562
2026-01-24 03:24:26.77	329.74	4.36	-43.6	-45.2	18.7	0.00e+00	0	41	0	1038090240	60	6610
2026-01-24 03:24:27.78	329.86	4.31	-43.0	-44.5	19.3	0.00e+00	88	41	0	1039138816	60	6095
2026-01-24 03:24:28.79	329.98	4.27	-42.8	-44.3	19.3	0.00e+00	0	41	0	1041235968	60	5919
2026-01-24 03:24:29.80	330.09	4.23	-43.1	-44.6	19.2	0.00e+00	0	41	0	1043333120	60	6147
2026-01-24 03:24:30.81	330.21	4.19	-44.0	-45.8	18.0	0.00e+00	0	41	0	1045430272	60	7078
2026-01-24 03:24:31.81	330.33	4.14	-44.0	-45.8	18.0	0.00e+00	0	41	0	1047527424	60	7043
2026-01-24 03:24:32.82	330.44	4.10	-44.1	-45.9	18.1	0.00e+00	2	41	0	1048576000	60	7146
2026-01-24 03:24:33.83	330.56	4.06	-43.6	-45.3	18.8	0.00e+00	0	41	0	1050673152	60	6680
2026-01-24 03:24:34.84	330.67	4.01	-43.5	-45.2	18.7	0.00e+00	86	41	0	1052770304	60	6555
2026-01-24 03:24:35.85	330.79	3.97	-44.0	-45.9	17.7	0.00e+00	0	41	0	1054867456	60	7119
2026-01-24 03:24:36.86	330.90	3.93	-44.2	-46.2	17.4	0.00e+00	92	41	0	1056964608	60	7363
2026-01-24 03:24:37.87	331.02	3.88	-44.5	-46.6	17.0	0.00e+00	0	41	0	1058013184	60	7706
2026-01-24 03:24:38.88	331.13	3.84	-44.1	-46.0	17.6	0.00e+00	0	41	0	1060110336	60	7238
2026-01-24 03:24:39.89	331.25	3.80	-43.8	-45.7	17.4	0.00e+00	55	41	0	1062207488	60	6958
2026-01-24 03:24:40.90	331.36	3.76	-44.6	-46.9	16.4	0.00e+00	0	41	0	1064304640	60	8044
2026-01-24 03:24:41.91	331.47	3.71	-44.8	-47.2	15.8	0.00e+00	0	41	0	1066401792	60	8318
2026-01-24 03:24:42.92	331.58	3.67	-45.2	-48.1	14.8	0.00e+00	0	41	0	1067450368	60	9153
2026-01-24 03:24:43.93	331.70	3.63	-45.1	-48.0	14.5	0.00e+00	48	41	0	1069547520	60	9110
2026-01-24 03:24:44.94	331.81	3.58	-46.1	-50.4	11.7	6.80e-06	0	41	0	1071644672	60	11969
2026-01-24 03:24:45.95	331.92	3.54	-46.0	-50.4	11.3	1.57e-03	0	42	0	1073741824	60	11923
2026-01-24 03:24:46.96	332.03	3.50	-46.1	-51.2	9.9	3.45e-03	2	41	0	1075838976	60	13130
2026-01-24 03:24:47.97	332.14	3.45	-46.4	-52.8	7.8	2.78e-02	0	41	0	1076887552	60	15826
2026-01-24 03:24:48.98	332.26	3.41	-46.4	-53.9	6.4	1.51e-01	0	41	0	1078984704	60	17915
2026-01-24 03:24:49.99	332.37	3.37	-46.3	-54.1	5.6	3.45e-01	0	42	0	1081081856	60	18417
2026-01-24 03:24:50.99	332.47	3.32	-46.5	-56.3	4.0	7.02e-01	71	41	0	1083179008	60	23728
2026-01-24 03:24:52.01	332.59	3.28	-46.5	-59.1	3.8	1.46e+00	0	41	104	1083179008	60	32474
2026-01-24 03:24:53.01	332.69	3.24	-46.5	-59.8	3.7	1.50e+00	0	42	104	1083179008	60	35488
2026-01-24 03:24:54.02	332.80	3.19	-46.5	-61.0	3.6	1.51e+00	0	41	104	1083179008	60	40408
2026-01-24 03:24:55.03	332.91	3.15	-46.5	-61.2	3.6	1.51e+00	0	41	104	1083179008	60	41450
2026-01-24 03:24:56.04	333.02	3.11	-46.4	-61.3	3.6	1.51e+00	0	41	104	1083179008	60	42062
2026-01-24 03:24:57.05	333.13	3.06	-46.4	-61.4	3.6	1.51e+00	0	42	104	1083179008	60	42315
2026-01-24 03:24:58.06	333.24	3.02	-46.4	-61.6	3.6	1.51e+00	0	41	104	1083179008	60	43243
2026-01-24 03:24:59.07	333.35	2.98	-48.4	-63.5	3.6	1.51e+00	0	41	104	1083179008	60	54043
2026-01-24 03:25:00.08	333.45	2.93	-50.1	-65.2	3.6	1.51e+00	0	42	104	1083179008	60	66151
2026-01-24 03:25:01.09	333.56	2.89	-50.3	-65.5	3.6	1.51e+00	0	41	104	1083179008	60	67968
2026-01-24 03:25:02.10	333.67	2.85	-50.5	-65.7	3.6	1.51e+00	0	41	104	1083179008	60	69644
2026-01-24 03:25:03.11	333.78	2.80	-50.7	-65.9	3.6	1.51e+00	0	41	104	1083179008	60	71591
2026-01-24 03:25:04.12	333.88	2.76	-50.9	-66.1	3.6	1.51e+00	0	42	104	1083179008	60	72565
2026-01-24 03:25:05.13	333.99	2.71	-51.0	-66.2	3.6	1.51e+00	0	41	104	1083179008	60	74136
2026-01-24 03:25:06.14	334.09	2.67	-51.1	-66.3	3.6	1.51e+00	0	42	104	1083179008	60	74751
2026-01-24 03:25:07.15	334.20	2.63	-51.2	-66.4	3.6	1.51e+00	0	41	104	1083179008	60	75375
2026-01-24 03:25:08.16	334.30	2.58	-51.2	-66.4	3.6	1.51e+00	0	41	104	1083179008	60	75444
2026-01-24 03:25:09.17	334.41	2.54	-51.2	-66.4	3.6	1.51e+00	0	41	104	1083179008	60	75425
2026-01-24 03:25:10.18	334.51	2.50	-51.2	-66.4	3.6	1.51e+00	0	41	104	1083179008	60	75608
2026-01-24 03:25:11.19	334.62	2.45	-51.3	-66.5	3.6	1.51e+00	0	41	104	1083179008	60	76549
2026-01-24 03:25:12.20	334.72	2.41	-51.2	-66.4	3.6	1.51e+00	0	42	104	1083179008	60	75614
2026-01-24 03:25:13.21	334.83	2.37	-51.1	-66.4	3.6	1.51e+00	0	41	104	1083179008	60	75623
2026-01-24 03:25:14.22	334.93	2.32	-51.1	-66.4	3.6	1.51e+00	0	41	104	1083179008	60	75608
2026-01-24 03:25:15.23	335.03	2.28	-51.0	-66.3	3.6	1.51e+00	0	42	104	1083179008	60	74773
2026-01-24 03:25:16.24	335.13	2.24	-51.1	-66.3	3.6	1.51e+00	0	41	104	1083179008	60	75009
2026-01-24 03:25:17.25	335.24	2.19	-51.1	-66.3	3.6	1.51e+00	0	41	104	1083179008	60	74549
2026-01-24 03:25:18.26	335.34	2.15	-51.2	-66.4	3.6	1.51e+00	0	41	104	1083179008	60	75275
2026-01-24 03:25:19.27	335.44	2.11	-51.1	-66.3	3.6	1.51e+00	0	41	104	1083179008	60	74962
2026-01-24 03:25:20.28	335.54	2.06	-51.1	-66.4	3.6	1.51e+00	0	41	104	1083179008	60	75440
2026-01-24 03:25:21.29	335.64	2.02	-51.2	-66.4	3.6	1.51e+00	0	41	104	1083179008	60	75575
2026-01-24 03:25:22.30	335.75	1.97	-51.2	-66.4	3.6	1.51e+00	0	41	104	1083179008	60	75564
2026-01-24 03:25:23.30	335.85	1.93	-51.2	-66.5	3.6	1.51e+00	0	41	104	1083179008	60	76050
2026-01-24 03:25:24.31	335.95	1.89	-51.2	-66.4	3.6	1.51e+00	0	41	104	1083179008	60	75239
2026-01-24 03:25:25.32	336.05	1.84	-51.2	-66.4	3.6	1.51e+00	0	41	104	1083179008	60	75777
2026-01-24 03:25:26.33	336.15	1.80	-51.2	-66.5	3.6	1.51e+00	0	41	104	1083179008	60	76135
2026-01-24 03:25:27.34	336.25	1.76	-51.2	-66.5	3.6	1.51e+00	0	41	104	1083179008	60	76019
2026-01-24 03:25:28.35	336.35	1.71	-51.2	-66.5	3.6	1.51e+00	0	41	104	1083179008	60	76107
2026-01-24 03:25:29.36	336.44	1.67	-51.2	-66.3	3.6	1.51e+00	0	41	104	1083179008	60	74750
2026-01-24 03:25:30.37	336.54	1.63	-51.2	-66.4	3.6	1.51e+00	0	41	104	1083179008	60	75161
2026-01-24 03:25:31.38	336.64	1.58	-51.2	-66.4	3.6	1.51e+00	0	41	104	1083179008	60	75490
2026-01-24 03:25:32.39	336.74	1.54	-51.3	-66.5	3.6	1.51e+00	0	41	104	1083179008	60	76089
2026-01-24 03:25:33.40	336.84	1.50	-51.3	-66.5	3.6	1.51e+00	0	42	104	1083179008	60	76578
2026-01-24 03:25:34.41	336.94	1.45	-51.3	-66.5	3.6	1.51e+00	0	41	104	1083179008	60	76111
2026-01-24 03:25:35.42	337.03	1.41	-51.4	-66.6	3.6	1.51e+00	0	42	104	1083179008	60	77297
2026-01-24 03:25:36.43	337.13	1.36	-51.3	-66.4	3.6	1.51e+00	0	42	104	1083179008	60	75930
2026-01-24 03:25:37.44	337.23	1.32	-51.4	-66.6	3.6	1.51e+00	0	42	104	1083179008	60	77293
