passes_logs/2026/01/24/R4.6S_Anadyr/R4.6S_Anadyr__20260124_025801_AQUA_rec.log

#Pass ID: 20260124_025801_AQUA
#Satellite: AQUA
#Configuration: AQUA
#almurnet v.1.7.20251203
#Start time: 2026-01-24 02:58:03

#Version: 2.2.20231116
#Station: R4.6S_Anadyr
#Location: 177.4865 lon 64.73178 lat
#TLE: 1 27424U 02022A   26023.58972979  .00001888  00000+0  38753-3 0  9997
#TLE: 2 27424  98.4100 350.1620 0001948  68.5331  43.0280 14.61852003262140

#Time	Az	El	Level	Level2	SNR	BER	BlckErr	Temp	State	Recorded	gain1	gain2
2026-01-24 02:58:03.64	183.01	0.15	-51.5	-63.2	3.5	8.46e-01	0	39	0	0	60	52516
2026-01-24 02:58:04.65	183.05	0.21	-52.3	-70.6	3.5	3.03e+01	0	40	104	0	60	130018
2026-01-24 02:58:05.66	183.09	0.27	-52.4	-70.3	3.5	3.03e+01	0	40	104	0	60	126258
2026-01-24 02:58:06.67	183.13	0.33	-52.3	-70.1	3.5	3.03e+01	0	40	104	0	60	123230
2026-01-24 02:58:07.68	183.17	0.39	-52.0	-70.0	3.5	3.03e+01	0	40	104	0	60	121567
2026-01-24 02:58:08.69	183.21	0.45	-52.4	-70.3	3.5	3.03e+01	0	40	104	0	60	125957
2026-01-24 02:58:09.70	183.25	0.51	-52.0	-69.9	3.5	3.03e+01	0	40	104	0	60	120322
2026-01-24 02:58:10.71	183.29	0.57	-51.9	-70.0	3.5	3.03e+01	0	40	104	0	60	121738
2026-01-24 02:58:11.72	183.33	0.63	-51.9	-69.9	3.5	3.03e+01	0	40	104	0	60	119943
2026-01-24 02:58:12.73	183.37	0.70	-51.8	-69.7	3.5	3.03e+01	0	40	104	0	60	117562
2026-01-24 02:58:13.74	183.41	0.76	-51.9	-69.7	3.5	3.03e+01	0	40	104	0	60	117638
2026-01-24 02:58:14.75	183.45	0.82	-51.8	-69.7	3.5	3.03e+01	0	40	104	0	60	117138
2026-01-24 02:58:15.76	183.49	0.88	-51.8	-69.6	3.5	3.03e+01	0	40	104	0	60	116201
2026-01-24 02:58:16.76	183.53	0.94	-51.7	-69.5	3.5	3.03e+01	0	40	104	0	60	114966
2026-01-24 02:58:17.78	183.57	1.01	-51.6	-69.5	3.5	3.03e+01	0	40	104	0	60	114418
2026-01-24 02:58:18.78	183.61	1.07	-51.6	-69.4	3.5	3.03e+01	0	40	104	0	60	113540
2026-01-24 02:58:19.80	183.65	1.13	-51.5	-69.2	3.5	3.03e+01	0	40	104	0	60	111344
2026-01-24 02:58:20.80	183.70	1.19	-51.4	-69.2	3.5	3.03e+01	0	40	104	0	60	110508
2026-01-24 02:58:21.82	183.74	1.26	-51.2	-68.9	3.5	3.03e+01	0	40	104	0	60	106712
2026-01-24 02:58:22.83	183.78	1.32	-51.1	-68.9	3.5	3.03e+01	0	40	104	0	60	106752
2026-01-24 02:58:23.84	183.82	1.38	-51.0	-68.8	3.5	3.03e+01	0	40	104	0	60	106537
2026-01-24 02:58:24.85	183.86	1.45	-50.6	-68.5	3.5	3.03e+01	0	40	104	0	60	102809
2026-01-24 02:58:25.86	183.91	1.51	-50.4	-68.3	3.5	3.03e+01	0	40	104	0	60	99736
2026-01-24 02:58:26.86	183.95	1.57	-50.1	-67.6	3.5	3.03e+01	0	40	104	0	60	91867
2026-01-24 02:58:27.87	183.99	1.64	-50.0	-68.0	3.5	3.03e+01	0	40	104	0	60	96872
2026-01-24 02:58:28.88	184.03	1.70	-50.0	-68.0	3.5	3.03e+01	0	40	104	0	60	96460
2026-01-24 02:58:29.89	184.08	1.76	-50.0	-68.0	3.5	3.03e+01	0	40	104	0	60	96963
2026-01-24 02:58:30.90	184.12	1.83	-50.0	-68.0	3.5	3.03e+01	0	40	104	0	60	96905
2026-01-24 02:58:31.91	184.16	1.89	-50.0	-68.0	3.5	3.03e+01	0	41	104	0	60	96483
2026-01-24 02:58:32.92	184.21	1.96	-50.0	-68.0	3.5	3.03e+01	0	40	104	0	60	96975
2026-01-24 02:58:33.93	184.25	2.02	-50.0	-68.0	3.5	3.03e+01	0	40	104	0	60	96680
2026-01-24 02:58:34.94	184.29	2.08	-50.0	-68.0	3.5	3.03e+01	0	40	104	0	60	96987
2026-01-24 02:58:35.95	184.34	2.15	-50.0	-67.9	3.5	3.03e+01	0	41	104	0	60	95060
2026-01-24 02:58:36.97	184.38	2.22	-50.0	-67.8	3.5	3.03e+01	0	40	104	0	60	94793
2026-01-24 02:58:37.98	184.43	2.28	-50.0	-68.0	3.5	3.03e+01	0	41	104	0	60	96534
2026-01-24 02:58:38.99	184.47	2.35	-50.0	-67.9	3.5	3.03e+01	0	40	104	0	60	95485
2026-01-24 02:58:39.99	184.52	2.41	-50.0	-68.0	3.5	3.03e+01	0	41	104	0	60	96117
2026-01-24 02:58:41.01	184.56	2.48	-50.0	-67.7	3.5	3.03e+01	0	41	104	0	60	93466
2026-01-24 02:58:42.02	184.61	2.54	-49.9	-67.3	3.5	3.03e+01	0	41	104	0	60	88914
2026-01-24 02:58:43.03	184.66	2.61	-49.9	-67.4	3.5	3.03e+01	0	41	104	0	60	90683
2026-01-24 02:58:44.04	184.70	2.68	-50.0	-67.7	3.5	3.03e+01	0	41	104	0	60	93652
2026-01-24 02:58:45.05	184.75	2.74	-50.0	-67.9	3.5	3.03e+01	0	41	104	0	60	95923
2026-01-24 02:58:46.06	184.79	2.81	-49.9	-67.8	3.5	3.03e+01	0	41	104	0	60	94390
2026-01-24 02:58:47.07	184.84	2.87	-49.9	-66.7	3.5	3.03e+01	0	41	104	0	60	83178
2026-01-24 02:58:48.08	184.89	2.94	-49.8	-63.4	4.5	3.03e+01	0	41	104	0	60	56693
2026-01-24 02:58:49.09	184.93	3.01	-49.8	-64.3	3.7	3.03e+01	0	41	104	0	60	63192
2026-01-24 02:58:50.09	184.98	3.07	-49.8	-63.5	3.7	3.03e+01	0	41	104	0	60	57869
2026-01-24 02:58:51.10	185.03	3.14	-49.8	-64.2	3.6	3.03e+01	0	41	104	0	60	62350
2026-01-24 02:58:52.11	185.08	3.21	-49.9	-65.5	3.8	3.03e+01	0	41	104	0	60	72651
2026-01-24 02:58:53.12	185.12	3.28	-49.8	-62.6	5.2	3.03e+01	0	41	104	0	60	51915
2026-01-24 02:58:54.14	185.17	3.35	-48.9	-55.8	11.6	3.03e+01	90	41	0	1048576	60	23854
2026-01-24 02:58:55.14	185.22	3.41	-48.6	-54.6	12.9	3.03e+01	92	41	0	2621440	60	20732
2026-01-24 02:58:56.15	185.27	3.48	-45.7	-48.6	18.8	3.03e+01	91	41	0	4718592	60	10327
2026-01-24 02:58:57.16	185.32	3.55	-45.6	-48.5	18.9	3.03e+01	91	41	0	6291456	60	10260
2026-01-24 02:58:58.17	185.37	3.62	-42.3	-44.1	23.1	3.03e+01	92	41	0	8388608	60	6201
2026-01-24 02:58:59.18	185.42	3.69	-42.3	-44.1	23.2	3.03e+01	90	41	0	10485760	60	6164
2026-01-24 02:59:00.20	185.47	3.76	-42.5	-44.3	23.2	3.03e+01	88	41	0	12058624	60	6349
2026-01-24 02:59:01.20	185.51	3.82	-43.8	-46.0	21.9	3.03e+01	90	41	0	14155776	60	7642
2026-01-24 02:59:02.21	185.56	3.89	-45.4	-48.2	19.1	3.03e+01	91	41	0	16252928	60	9843
2026-01-24 02:59:03.22	185.61	3.96	-46.1	-49.1	19.4	3.03e+01	90	41	0	17825792	60	10976
2026-01-24 02:59:04.23	185.67	4.03	-49.5	-60.1	6.7	3.03e+01	90	41	0	19922944	60	39004
2026-01-24 02:59:05.24	185.72	4.10	-49.5	-61.5	6.1	3.03e+01	41	41	104	19922944	60	45729
2026-01-24 02:59:06.24	185.77	4.17	-44.1	-46.3	21.4	3.03e+01	92	41	0	20971520	60	7921
2026-01-24 02:59:07.26	185.82	4.24	-41.2	-42.8	24.8	3.03e+01	92	41	0	23068672	58	5965
2026-01-24 02:59:08.27	185.87	4.31	-40.8	-42.4	25.1	3.03e+01	90	41	0	24641536	56	6365
2026-01-24 02:59:09.28	185.92	4.38	-41.7	-43.4	24.3	3.03e+01	92	41	0	26738688	58	6369
2026-01-24 02:59:10.28	185.97	4.45	-42.4	-44.2	23.6	3.03e+01	92	41	0	28311552	58	7022
2026-01-24 02:59:11.29	186.02	4.52	-42.4	-44.2	23.3	3.03e+01	92	41	0	30408704	58	6967
2026-01-24 02:59:12.30	186.08	4.59	-42.3	-44.1	23.5	3.03e+01	90	41	0	32505856	58	6936
2026-01-24 02:59:13.31	186.13	4.67	-41.5	-43.1	24.4	3.03e+01	92	41	0	34078720	58	6186
2026-01-24 02:59:14.32	186.18	4.74	-42.3	-44.0	23.2	3.03e+01	92	41	0	36175872	58	6851
2026-01-24 02:59:15.33	186.24	4.81	-40.8	-42.3	25.0	3.03e+01	92	41	0	37748736	58	5639
2026-01-24 02:59:16.34	186.29	4.88	-41.8	-43.5	24.6	3.03e+01	92	41	0	39845888	56	7224
2026-01-24 02:59:17.35	186.34	4.95	-41.2	-42.8	25.1	3.03e+01	92	41	0	41943040	56	6676
2026-01-24 02:59:18.36	186.40	5.02	-42.4	-44.3	23.2	3.03e+01	92	41	0	43515904	58	7075
2026-01-24 02:59:19.37	186.45	5.10	-41.9	-43.7	24.0	3.03e+01	90	41	0	45613056	58	6580
2026-01-24 02:59:20.38	186.51	5.17	-42.0	-43.8	24.0	3.03e+01	92	41	0	47710208	58	6673
2026-01-24 02:59:21.39	186.56	5.24	-42.4	-44.2	23.6	3.03e+01	92	41	0	49283072	58	7011
2026-01-24 02:59:22.40	186.62	5.32	-42.9	-44.9	23.0	3.03e+01	92	41	0	51380224	58	7579
2026-01-24 02:59:23.41	186.67	5.39	-41.7	-43.4	24.4	3.03e+01	90	41	0	52953088	58	6423
2026-01-24 02:59:24.42	186.73	5.46	-41.4	-43.1	24.3	3.03e+01	91	41	0	55050240	58	6141
2026-01-24 02:59:25.43	186.78	5.54	-42.2	-44.0	24.0	3.03e+01	92	41	0	57147392	58	6864
2026-01-24 02:59:26.44	186.84	5.61	-41.2	-42.8	24.9	3.03e+01	90	41	0	58720256	58	5932
2026-01-24 02:59:27.44	186.90	5.68	-40.9	-42.5	25.4	3.03e+01	92	41	0	60817408	58	5745
2026-01-24 02:59:28.46	186.95	5.76	-41.0	-42.5	25.4	3.03e+01	90	41	0	62914560	56	6480
2026-01-24 02:59:29.47	187.01	5.83	-40.6	-42.2	25.5	3.03e+01	92	41	0	64487424	56	6211
2026-01-24 02:59:30.47	187.07	5.91	-40.5	-42.1	25.5	3.03e+01	89	41	0	66584576	54	6905
2026-01-24 02:59:31.48	187.12	5.98	-40.6	-42.1	25.6	3.03e+01	91	41	0	68157440	56	6154
2026-01-24 02:59:32.49	187.18	6.06	-40.0	-41.5	26.5	3.03e+01	90	41	0	70254592	56	5726
2026-01-24 02:59:33.50	187.24	6.13	-40.4	-41.9	25.8	3.03e+01	92	41	0	72351744	54	6792
2026-01-24 02:59:34.51	187.30	6.21	-40.3	-41.8	25.9	3.03e+01	90	41	0	73924608	54	6669
2026-01-24 02:59:35.52	187.36	6.28	-40.4	-41.9	25.9	3.03e+01	92	41	0	76021760	54	6730
2026-01-24 02:59:36.53	187.42	6.36	-40.2	-41.7	25.9	3.03e+01	92	41	0	77594624	54	6630
2026-01-24 02:59:37.54	187.48	6.44	-40.6	-42.1	25.6	3.03e+01	92	41	0	79691776	54	6925
2026-01-24 02:59:38.55	187.54	6.51	-39.9	-41.4	26.3	3.03e+01	92	41	0	81264640	54	6372
2026-01-24 02:59:39.56	187.60	6.59	-40.3	-41.8	26.0	3.03e+01	92	41	0	83361792	54	6655
2026-01-24 02:59:40.57	187.66	6.67	-39.9	-41.4	26.4	3.03e+01	90	41	0	85458944	54	6358
2026-01-24 02:59:41.58	187.72	6.74	-40.1	-41.5	26.1	3.03e+01	91	41	0	87031808	54	6485
2026-01-24 02:59:42.59	187.78	6.82	-40.1	-41.6	26.2	3.03e+01	92	41	0	89128960	54	6516
2026-01-24 02:59:43.60	187.84	6.90	-40.8	-42.3	25.5	3.03e+01	91	41	0	91226112	54	7080
2026-01-24 02:59:44.60	187.90	6.98	-39.8	-41.3	26.7	3.03e+01	92	41	0	92798976	54	6295
2026-01-24 02:59:45.61	187.97	7.05	-40.0	-41.4	26.3	3.03e+01	88	41	0	94896128	54	6412
2026-01-24 02:59:46.62	188.03	7.13	-39.9	-41.4	26.4	3.03e+01	90	41	0	96468992	54	6387
2026-01-24 02:59:47.63	188.09	7.21	-40.3	-41.8	25.9	3.03e+01	90	41	0	98566144	54	6685
2026-01-24 02:59:48.64	188.15	7.29	-39.3	-40.7	27.2	3.03e+01	92	41	0	100663296	54	5872
2026-01-24 02:59:49.65	188.22	7.37	-40.3	-41.8	26.0	3.03e+01	91	41	0	102236160	54	6666
2026-01-24 02:59:50.66	188.28	7.45	-40.0	-41.5	26.2	3.03e+01	92	41	0	104333312	54	6460
2026-01-24 02:59:51.67	188.35	7.53	-39.8	-41.3	26.5	3.03e+01	91	41	0	105906176	54	6286
2026-01-24 02:59:52.68	188.41	7.61	-40.1	-41.6	26.4	3.03e+01	91	41	0	108003328	54	6499
2026-01-24 02:59:53.69	188.48	7.69	-39.9	-41.4	26.5	3.03e+01	92	41	0	110100480	54	6375
2026-01-24 02:59:54.70	188.54	7.77	-39.7	-41.1	26.7	3.03e+01	91	41	0	111673344	54	6168
2026-01-24 02:59:55.71	188.61	7.85	-39.7	-41.1	26.8	3.03e+01	92	41	0	113770496	54	6170
2026-01-24 02:59:56.72	188.67	7.93	-39.8	-41.2	26.5	3.03e+01	90	41	0	115867648	54	6254
2026-01-24 02:59:57.73	188.74	8.01	-39.7	-41.1	26.8	3.03e+01	90	41	0	117440512	54	6184
2026-01-24 02:59:58.74	188.81	8.09	-39.9	-41.4	26.5	3.03e+01	92	41	0	119537664	54	6376
2026-01-24 02:59:59.75	188.88	8.17	-40.0	-41.4	26.6	3.03e+01	92	41	0	121110528	54	6417
2026-01-24 03:00:00.76	188.94	8.26	-40.2	-41.6	26.5	3.03e+01	88	41	0	123207680	54	6570
2026-01-24 03:00:01.77	189.01	8.34	-39.8	-41.2	26.4	3.03e+01	92	41	0	125304832	54	6238
2026-01-24 03:00:02.78	189.08	8.42	-40.3	-41.7	26.3	3.03e+01	90	41	0	126877696	54	6617
2026-01-24 03:00:03.79	189.15	8.50	-39.8	-41.2	26.7	3.03e+01	92	41	0	128974848	54	6256
2026-01-24 03:00:04.80	189.22	8.59	-39.9	-41.3	26.4	3.03e+01	92	41	0	130547712	54	6327
2026-01-24 03:00:05.81	189.29	8.67	-39.7	-41.1	26.7	3.03e+01	92	41	0	132644864	54	6175
2026-01-24 03:00:06.82	189.36	8.75	-39.7	-41.1	26.8	3.03e+01	92	41	0	134742016	54	6163
2026-01-24 03:00:07.83	189.43	8.84	-39.5	-40.9	27.0	3.03e+01	90	41	0	136314880	54	6017
2026-01-24 03:00:08.84	189.50	8.92	-39.3	-40.6	27.3	3.03e+01	92	41	0	138412032	54	5811
2026-01-24 03:00:09.85	189.57	9.01	-39.7	-41.0	26.8	3.03e+01	92	41	0	139984896	54	6111
2026-01-24 03:00:10.86	189.64	9.09	-39.6	-41.0	26.9	3.03e+01	92	41	0	142082048	54	6069
2026-01-24 03:00:11.87	189.72	9.18	-39.5	-40.8	27.0	3.03e+01	92	41	0	144179200	54	5968
2026-01-24 03:00:12.88	189.79	9.26	-39.3	-40.6	27.3	3.03e+01	92	41	0	145752064	54	5837
2026-01-24 03:00:13.89	189.86	9.35	-39.2	-40.5	27.4	3.03e+01	90	41	0	147849216	54	5758
2026-01-24 03:00:14.89	189.93	9.43	-39.4	-40.7	27.1	3.03e+01	92	41	0	149422080	54	5926
2026-01-24 03:00:15.90	190.01	9.52	-39.6	-40.9	27.1	3.03e+01	91	41	0	151519232	54	6058
2026-01-24 03:00:16.91	190.08	9.60	-39.4	-40.8	27.1	3.03e+01	89	41	0	153616384	54	5949
2026-01-24 03:00:17.92	190.16	9.69	-40.0	-41.4	26.6	3.03e+01	90	41	0	155189248	54	6352
2026-01-24 03:00:18.93	190.23	9.78	-39.4	-40.8	27.2	3.03e+01	91	41	0	157286400	54	5937
2026-01-24 03:00:19.94	190.31	9.87	-39.3	-40.6	27.4	3.03e+01	92	41	0	159383552	54	5840
2026-01-24 03:00:20.95	190.39	9.95	-39.2	-40.6	27.4	3.03e+01	89	41	0	160956416	54	5805
2026-01-24 03:00:21.96	190.46	10.04	-39.3	-40.7	27.4	3.03e+01	91	41	0	163053568	54	5862
2026-01-24 03:00:22.97	190.54	10.13	-39.2	-40.6	27.3	3.03e+01	91	41	0	164626432	54	5800
2026-01-24 03:00:23.98	190.62	10.22	-39.2	-40.6	27.4	3.03e+01	92	41	0	166723584	54	5805
2026-01-24 03:00:24.99	190.70	10.31	-39.2	-40.5	27.4	3.03e+01	89	41	0	168820736	54	5758
2026-01-24 03:00:26.00	190.77	10.40	-39.3	-40.7	27.3	3.03e+01	91	41	0	170393600	54	5869
2026-01-24 03:00:27.01	190.85	10.49	-39.1	-40.4	27.5	3.03e+01	92	41	0	172490752	54	5708
2026-01-24 03:00:28.02	190.93	10.58	-39.3	-40.6	27.3	3.03e+01	90	41	0	174063616	54	5834
2026-01-24 03:00:29.03	191.01	10.67	-39.4	-40.8	27.2	3.03e+01	92	41	0	176160768	54	5947
2026-01-24 03:00:30.04	191.09	10.76	-39.0	-40.3	27.6	3.03e+01	92	41	0	178257920	54	5654
2026-01-24 03:00:31.05	191.18	10.85	-39.1	-40.4	27.5	3.03e+01	92	41	0	179830784	54	5725
2026-01-24 03:00:32.06	191.26	10.94	-39.1	-40.4	27.6	3.03e+01	92	41	0	181927936	54	5686
2026-01-24 03:00:33.07	191.34	11.03	-38.9	-40.2	27.7	3.03e+01	92	41	0	184025088	54	5581
2026-01-24 03:00:34.07	191.42	11.12	-39.1	-40.4	27.6	3.03e+01	90	41	0	185597952	52	6421
2026-01-24 03:00:35.08	191.51	11.21	-39.0	-40.3	27.7	3.03e+01	92	41	0	187695104	52	6286
2026-01-24 03:00:36.09	191.59	11.31	-39.0	-40.3	27.7	3.03e+01	91	41	0	189267968	52	6324
2026-01-24 03:00:37.10	191.67	11.40	-39.0	-40.3	27.8	3.03e+01	90	41	0	191365120	52	6295
2026-01-24 03:00:38.11	191.76	11.49	-39.3	-40.6	27.4	3.03e+01	91	41	0	193462272	52	6534
2026-01-24 03:00:39.12	191.84	11.59	-39.2	-40.5	27.5	3.03e+01	92	41	0	195035136	52	6490
2026-01-24 03:00:40.13	191.93	11.68	-39.1	-40.4	27.7	3.03e+01	89	41	0	197132288	52	6370
2026-01-24 03:00:41.14	192.02	11.77	-39.0	-40.3	27.7	3.03e+01	90	41	0	198705152	52	6304
2026-01-24 03:00:42.15	192.10	11.87	-39.1	-40.4	27.6	3.03e+01	92	41	0	200802304	52	6418
2026-01-24 03:00:43.16	192.19	11.96	-39.0	-40.3	27.7	3.03e+01	92	41	0	202899456	52	6289
2026-01-24 03:00:44.17	192.28	12.06	-38.8	-40.1	27.9	3.03e+01	92	41	0	204472320	52	6190
2026-01-24 03:00:45.18	192.37	12.15	-38.7	-40.0	28.0	3.03e+01	92	41	0	206569472	52	6116
2026-01-24 03:00:46.19	192.46	12.25	-38.7	-40.0	28.0	3.03e+01	92	41	0	208142336	52	6105
2026-01-24 03:00:47.20	192.55	12.35	-38.8	-40.1	27.9	3.03e+01	92	41	0	210239488	52	6143
2026-01-24 03:00:48.21	192.64	12.44	-38.8	-40.1	27.9	3.03e+01	92	41	0	212336640	52	6175
2026-01-24 03:00:49.22	192.73	12.54	-38.9	-40.2	27.8	3.03e+01	92	41	0	213909504	52	6259
2026-01-24 03:00:50.23	192.82	12.64	-38.8	-40.0	28.0	3.03e+01	92	41	0	216006656	52	6132
2026-01-24 03:00:51.24	192.92	12.74	-38.8	-40.1	28.0	3.03e+01	92	41	0	217579520	52	6182
2026-01-24 03:00:52.25	193.01	12.83	-38.8	-40.1	27.9	3.03e+01	92	41	0	219676672	52	6187
2026-01-24 03:00:53.25	193.10	12.93	-38.8	-40.1	27.9	3.03e+01	92	41	0	221773824	52	6158
2026-01-24 03:00:54.26	193.20	13.03	-38.8	-40.1	27.9	3.03e+01	91	41	0	223346688	52	6175
2026-01-24 03:00:55.27	193.29	13.13	-38.9	-40.2	27.9	3.03e+01	91	41	0	225443840	52	6235
2026-01-24 03:00:56.28	193.39	13.23	-39.0	-40.3	27.8	3.03e+01	90	41	0	227540992	52	6320
2026-01-24 03:00:57.29	193.49	13.33	-38.8	-40.0	28.0	3.03e+01	91	41	0	229113856	52	6130
2026-01-24 03:00:58.30	193.58	13.43	-38.5	-39.8	28.2	3.03e+01	88	41	0	231211008	52	5963
2026-01-24 03:00:59.31	193.68	13.53	-38.7	-40.0	28.0	3.03e+01	92	41	0	232783872	52	6092
2026-01-24 03:01:00.32	193.78	13.63	-38.4	-39.7	28.3	3.03e+01	91	41	0	234881024	52	5868
2026-01-24 03:01:01.33	193.88	13.74	-38.5	-39.8	28.2	3.03e+01	91	41	0	236978176	52	5940
2026-01-24 03:01:02.34	193.98	13.84	-38.7	-39.9	28.1	3.03e+01	92	41	0	238551040	52	6044
2026-01-24 03:01:03.35	194.08	13.94	-38.5	-39.8	28.3	3.03e+01	92	41	0	240648192	52	5932
2026-01-24 03:01:04.36	194.18	14.04	-38.6	-39.8	28.2	3.03e+01	91	41	0	242221056	52	5981
2026-01-24 03:01:05.37	194.28	14.15	-38.4	-39.7	28.3	3.03e+01	91	41	0	244318208	52	5867
2026-01-24 03:01:06.38	194.39	14.25	-38.2	-39.4	28.5	3.03e+01	92	41	0	246415360	52	5715
2026-01-24 03:01:07.39	194.49	14.35	-38.4	-39.6	28.4	3.03e+01	92	41	0	247988224	52	5845
2026-01-24 03:01:08.39	194.59	14.46	-38.3	-39.5	28.4	3.03e+01	90	41	0	250085376	52	5786
2026-01-24 03:01:09.40	194.70	14.56	-38.4	-39.6	28.5	3.03e+01	91	41	0	252182528	52	5843
2026-01-24 03:01:10.41	194.81	14.67	-38.4	-39.6	28.4	3.03e+01	90	41	0	253755392	52	5834
2026-01-24 03:01:11.42	194.91	14.77	-38.3	-39.5	28.6	3.03e+01	91	41	0	255852544	52	5769
2026-01-24 03:01:12.43	195.02	14.88	-38.3	-39.6	28.4	3.03e+01	92	41	0	257425408	52	5807
2026-01-24 03:01:13.44	195.13	14.99	-38.3	-39.6	28.4	3.03e+01	92	41	0	259522560	52	5799
2026-01-24 03:01:14.45	195.24	15.09	-38.5	-39.7	28.3	3.03e+01	92	41	0	261619712	52	5924
2026-01-24 03:01:15.46	195.35	15.20	-38.4	-39.6	28.4	3.03e+01	91	41	0	263192576	52	5836
2026-01-24 03:01:16.47	195.46	15.31	-38.3	-39.5	28.4	3.03e+01	89	41	0	265289728	52	5761
2026-01-24 03:01:17.48	195.57	15.42	-38.4	-39.6	28.4	3.03e+01	95	41	0	266862592	52	5845
2026-01-24 03:01:18.49	195.68	15.53	-38.2	-39.5	28.6	3.03e+01	88	41	0	268959744	52	5726
2026-01-24 03:01:19.50	195.80	15.64	-38.3	-39.5	28.5	3.03e+01	90	41	0	270532608	52	5789
2026-01-24 03:01:20.51	195.91	15.75	-38.4	-39.6	28.4	3.03e+01	92	41	0	272629760	52	5843
2026-01-24 03:01:21.52	196.02	15.86	-38.2	-39.5	28.5	3.03e+01	90	41	0	274726912	52	5741
2026-01-24 03:01:22.53	196.14	15.97	-38.4	-39.7	28.4	3.03e+01	92	41	0	276299776	52	5879
2026-01-24 03:01:23.54	196.26	16.08	-38.5	-39.7	28.3	3.03e+01	92	41	0	278396928	52	5917
2026-01-24 03:01:24.54	196.37	16.19	-38.5	-39.7	28.4	3.03e+01	92	41	0	280494080	52	5903
2026-01-24 03:01:25.55	196.49	16.30	-38.1	-39.3	28.7	3.03e+01	92	41	0	282066944	52	5646
2026-01-24 03:01:26.56	196.61	16.41	-38.2	-39.4	28.5	3.03e+01	92	41	0	284164096	52	5706
2026-01-24 03:01:27.57	196.73	16.53	-38.1	-39.4	28.7	3.03e+01	91	41	0	285736960	52	5678
2026-01-24 03:01:28.58	196.85	16.64	-38.2	-39.5	28.5	3.03e+01	91	41	0	287834112	52	5746
2026-01-24 03:01:29.59	196.98	16.75	-38.4	-39.7	28.4	3.03e+01	91	41	0	289931264	52	5861
2026-01-24 03:01:30.60	197.10	16.87	-38.4	-39.6	28.5	3.03e+01	91	41	0	291504128	52	5846
2026-01-24 03:01:31.61	197.22	16.98	-38.0	-39.3	28.7	3.03e+01	90	41	0	293601280	52	5608
2026-01-24 03:01:32.62	197.35	17.10	-38.2	-39.5	28.5	3.03e+01	90	41	0	295698432	52	5743
2026-01-24 03:01:33.63	197.47	17.21	-38.2	-39.5	28.5	3.03e+01	91	41	0	297271296	52	5739
2026-01-24 03:01:34.64	197.60	17.33	-38.0	-39.3	28.8	3.03e+01	92	41	0	299368448	52	5609
2026-01-24 03:01:35.65	197.73	17.45	-38.0	-39.3	28.7	3.03e+01	90	41	0	300941312	52	5600
2026-01-24 03:01:36.66	197.86	17.56	-38.3	-39.5	28.5	3.03e+01	92	41	0	303038464	52	5791
2026-01-24 03:01:37.67	197.99	17.68	-38.2	-39.4	28.6	3.03e+01	92	41	0	305135616	52	5684
2026-01-24 03:01:38.68	198.12	17.80	-38.2	-39.5	28.6	3.03e+01	92	41	0	306708480	52	5728
2026-01-24 03:01:39.68	198.25	17.92	-38.3	-39.6	28.5	3.03e+01	89	41	0	308805632	52	5813
2026-01-24 03:01:40.69	198.38	18.04	-38.2	-39.4	28.6	3.03e+01	92	41	0	310378496	52	5690
2026-01-24 03:01:41.70	198.52	18.16	-38.1	-39.3	28.7	3.03e+01	92	41	0	312475648	52	5653
2026-01-24 03:01:42.71	198.65	18.28	-38.1	-39.3	28.8	3.03e+01	91	41	0	314572800	52	5623
2026-01-24 03:01:43.72	198.79	18.40	-38.2	-39.4	28.6	3.03e+01	91	41	0	316145664	52	5705
2026-01-24 03:01:44.73	198.93	18.52	-38.5	-39.8	28.4	3.03e+01	91	41	0	318242816	52	5931
2026-01-24 03:01:45.74	199.07	18.64	-38.3	-39.5	28.6	3.03e+01	91	41	0	319815680	52	5773
2026-01-24 03:01:46.75	199.21	18.76	-38.2	-39.5	28.6	3.03e+01	91	41	0	321912832	52	5762
2026-01-24 03:01:47.76	199.35	18.89	-38.4	-39.7	28.4	3.03e+01	92	41	0	324009984	52	5875
2026-01-24 03:01:48.77	199.49	19.01	-38.4	-39.6	28.5	3.03e+01	92	41	0	325582848	52	5839
2026-01-24 03:01:49.78	199.63	19.13	-38.3	-39.5	28.6	3.03e+01	92	41	0	327680000	52	5786
2026-01-24 03:01:50.79	199.78	19.26	-38.2	-39.4	28.7	3.03e+01	90	41	0	329252864	52	5718
2026-01-24 03:01:51.80	199.92	19.38	-38.3	-39.5	28.7	3.03e+01	92	41	0	331350016	52	5763
2026-01-24 03:01:52.80	200.07	19.51	-38.1	-39.4	28.8	3.03e+01	91	41	0	333447168	52	5670
2026-01-24 03:01:53.81	200.22	19.63	-38.2	-39.4	28.7	3.03e+01	91	41	0	335020032	52	5713
2026-01-24 03:01:54.82	200.37	19.76	-38.2	-39.5	28.7	3.03e+01	92	41	0	337117184	52	5744
2026-01-24 03:01:55.83	200.52	19.89	-38.3	-39.6	28.6	3.03e+01	91	41	0	338690048	52	5819
2026-01-24 03:01:56.84	200.67	20.01	-38.5	-39.7	28.4	3.03e+01	91	41	0	340787200	52	5902
2026-01-24 03:01:57.85	200.83	20.14	-38.3	-39.5	28.6	3.03e+01	91	41	0	342884352	52	5774
2026-01-24 03:01:58.86	200.98	20.27	-38.2	-39.4	28.7	3.03e+01	89	41	0	344457216	52	5685
2026-01-24 03:01:59.87	201.14	20.40	-38.2	-39.5	28.7	3.03e+01	91	41	0	346554368	52	5731
2026-01-24 03:02:00.88	201.29	20.53	-38.2	-39.5	28.6	3.03e+01	91	41	0	348651520	52	5748
2026-01-24 03:02:01.89	201.45	20.66	-38.5	-39.8	28.4	3.03e+01	91	41	0	350224384	52	5942
2026-01-24 03:02:02.90	201.61	20.79	-38.7	-40.0	28.2	3.03e+01	92	41	0	352321536	52	6096
2026-01-24 03:02:03.91	201.77	20.92	-38.6	-39.8	28.3	3.03e+01	92	41	0	353894400	52	5975
2026-01-24 03:02:04.92	201.94	21.05	-38.4	-39.6	28.6	3.03e+01	92	41	0	355991552	52	5827
2026-01-24 03:02:05.92	202.10	21.18	-38.3	-39.6	28.6	3.03e+01	91	41	0	358088704	52	5794
2026-01-24 03:02:06.93	202.27	21.31	-38.3	-39.5	28.7	3.03e+01	91	41	0	359661568	52	5755
2026-01-24 03:02:07.94	202.43	21.45	-38.5	-39.8	28.4	3.03e+01	92	41	0	361758720	52	5951
2026-01-24 03:02:08.95	202.60	21.58	-38.6	-39.9	28.3	3.03e+01	91	41	0	363855872	52	6001
2026-01-24 03:02:09.96	202.77	21.72	-38.6	-39.8	28.4	3.03e+01	90	41	0	365428736	52	5983
2026-01-24 03:02:10.97	202.94	21.85	-38.6	-39.9	28.3	3.03e+01	92	41	0	367525888	52	6014
2026-01-24 03:02:11.98	203.12	21.99	-38.6	-39.9	28.4	3.03e+01	90	41	0	369098752	52	6024
2026-01-24 03:02:12.99	203.29	22.12	-38.6	-39.9	28.4	3.03e+01	92	41	0	371195904	52	6015
2026-01-24 03:02:14.00	203.47	22.26	-38.7	-39.9	28.3	3.03e+01	92	41	0	373293056	52	6039
2026-01-24 03:02:15.01	203.65	22.40	-38.6	-39.9	28.4	3.03e+01	92	41	0	374865920	52	6024
2026-01-24 03:02:16.02	203.83	22.53	-38.6	-39.8	28.4	3.03e+01	92	41	0	376963072	52	5982
2026-01-24 03:02:17.03	204.01	22.67	-38.6	-39.9	28.3	3.03e+01	90	41	0	378535936	52	6017
2026-01-24 03:02:18.04	204.19	22.81	-38.4	-39.6	28.5	3.03e+01	92	41	0	380633088	52	5837
2026-01-24 03:02:19.05	204.38	22.95	-38.4	-39.6	28.6	3.03e+01	92	41	0	382205952	52	5849
2026-01-24 03:02:20.06	204.56	23.09	-38.3	-39.6	28.6	3.03e+01	89	41	0	384303104	52	5810
2026-01-24 03:02:21.07	204.75	23.23	-38.4	-39.7	28.5	3.03e+01	88	41	0	386400256	52	5888
2026-01-24 03:02:22.08	204.94	23.37	-38.5	-39.7	28.5	3.03e+01	92	41	0	387973120	52	5924
2026-01-24 03:02:23.08	205.13	23.51	-38.5	-39.8	28.4	3.03e+01	89	41	0	390070272	52	5947
2026-01-24 03:02:24.09	205.32	23.65	-38.5	-39.8	28.4	3.03e+01	91	41	0	392167424	52	5944
2026-01-24 03:02:25.10	205.52	23.79	-38.6	-39.9	28.3	3.03e+01	92	41	0	393740288	52	6024
2026-01-24 03:02:26.11	205.72	23.93	-38.6	-39.8	28.4	3.03e+01	92	41	0	395837440	52	5975
2026-01-24 03:02:27.12	205.91	24.08	-38.3	-39.5	28.6	3.03e+01	92	41	0	397410304	52	5788
2026-01-24 03:02:28.13	206.11	24.22	-38.5	-39.8	28.4	3.03e+01	89	41	0	399507456	52	5943
2026-01-24 03:02:29.14	206.32	24.37	-38.5	-39.8	28.4	3.03e+01	91	41	0	401604608	52	5940
2026-01-24 03:02:30.15	206.52	24.51	-38.5	-39.7	28.5	3.03e+01	92	41	0	403177472	52	5911
2026-01-24 03:02:31.16	206.73	24.66	-38.5	-39.7	28.4	3.03e+01	92	42	0	405274624	52	5899
2026-01-24 03:02:32.17	206.94	24.80	-38.5	-39.7	28.5	3.03e+01	92	41	0	406847488	52	5926
2026-01-24 03:02:33.17	207.14	24.95	-38.4	-39.6	28.5	3.03e+01	92	41	0	408944640	52	5856
2026-01-24 03:02:34.18	207.36	25.09	-38.5	-39.7	28.5	3.03e+01	92	41	0	411041792	52	5898
2026-01-24 03:02:35.19	207.57	25.24	-38.5	-39.8	28.4	3.03e+01	90	41	0	412614656	52	5933
2026-01-24 03:02:36.20	207.79	25.39	-38.5	-39.7	28.5	3.03e+01	91	41	0	414711808	52	5901
2026-01-24 03:02:37.21	208.00	25.54	-38.6	-39.9	28.4	3.03e+01	91	41	0	416808960	52	5998
2026-01-24 03:02:38.22	208.23	25.69	-38.5	-39.7	28.5	3.03e+01	91	41	0	418381824	52	5903
2026-01-24 03:02:39.23	208.45	25.83	-38.4	-39.7	28.6	3.03e+01	91	41	0	420478976	52	5868
2026-01-24 03:02:40.24	208.67	25.98	-38.7	-40.0	28.3	3.03e+01	92	41	0	422051840	52	6071
2026-01-24 03:02:41.25	208.90	26.13	-38.7	-40.0	28.4	3.03e+01	91	41	0	424148992	52	6073
2026-01-24 03:02:42.26	209.13	26.29	-38.5	-39.7	28.5	3.03e+01	91	41	0	426246144	52	5921
2026-01-24 03:02:43.27	209.36	26.44	-38.7	-39.9	28.3	3.03e+01	88	41	0	427819008	52	6045
2026-01-24 03:02:44.28	209.59	26.59	-38.6	-39.9	28.4	3.03e+01	90	41	0	429916160	52	6026
2026-01-24 03:02:45.28	209.83	26.74	-38.6	-39.9	28.4	3.03e+01	92	42	0	431489024	52	6019
2026-01-24 03:02:46.29	210.06	26.89	-38.6	-39.9	28.4	3.03e+01	92	41	0	433586176	52	6015
2026-01-24 03:02:47.30	210.31	27.04	-38.6	-39.9	28.4	3.03e+01	92	41	0	435683328	52	6012
2026-01-24 03:02:48.31	210.55	27.20	-38.7	-39.9	28.3	3.03e+01	92	41	0	437256192	52	6040
2026-01-24 03:02:49.32	210.79	27.35	-38.7	-40.0	28.3	3.03e+01	92	41	0	439353344	52	6083
2026-01-24 03:02:50.33	211.04	27.50	-38.7	-40.0	28.3	3.03e+01	92	42	0	440926208	52	6067
2026-01-24 03:02:51.34	211.29	27.66	-38.6	-39.8	28.4	3.03e+01	92	42	0	443023360	52	5982
2026-01-24 03:02:52.35	211.54	27.81	-38.6	-39.9	28.4	3.03e+01	92	41	0	445120512	52	5995
2026-01-24 03:02:53.36	211.80	27.97	-38.5	-39.7	28.6	3.03e+01	93	42	0	446693376	52	5916
2026-01-24 03:02:54.37	212.06	28.12	-38.6	-39.9	28.5	3.03e+01	92	41	0	448790528	52	6017
2026-01-24 03:02:55.38	212.32	28.28	-38.5	-39.7	28.6	3.03e+01	90	42	0	450363392	52	5891
2026-01-24 03:02:56.39	212.58	28.43	-38.6	-39.9	28.5	3.03e+01	92	41	0	452460544	52	6002
2026-01-24 03:02:57.39	212.84	28.59	-38.7	-40.0	28.4	3.03e+01	92	42	0	454557696	52	6082
2026-01-24 03:02:58.40	213.11	28.75	-38.4	-39.7	28.6	3.03e+01	92	42	0	456130560	52	5866
2026-01-24 03:02:59.41	213.38	28.90	-38.5	-39.7	28.6	3.03e+01	90	42	0	458227712	52	5899
2026-01-24 03:03:00.42	213.65	29.06	-38.5	-39.8	28.5	3.03e+01	92	42	0	460324864	52	5927
2026-01-24 03:03:01.43	213.93	29.22	-38.6	-39.8	28.5	3.03e+01	92	41	0	461897728	52	5994
2026-01-24 03:03:02.44	214.21	29.37	-38.6	-39.8	28.5	3.03e+01	92	42	0	463994880	52	5989
2026-01-24 03:03:03.45	214.49	29.53	-38.7	-39.9	28.4	3.03e+01	92	41	0	465567744	52	6060
2026-01-24 03:03:04.46	214.77	29.69	-38.5	-39.8	28.6	3.03e+01	92	41	0	467664896	52	5929
2026-01-24 03:03:05.47	215.06	29.85	-38.5	-39.8	28.5	3.03e+01	92	42	0	469762048	52	5951
2026-01-24 03:03:06.48	215.35	30.01	-38.8	-40.0	28.3	3.03e+01	90	42	0	471334912	52	6103
2026-01-24 03:03:07.48	215.64	30.16	-38.6	-39.9	28.4	3.03e+01	90	42	0	473432064	52	6015
2026-01-24 03:03:08.49	215.93	30.32	-38.6	-39.8	28.6	3.03e+01	91	41	0	475004928	52	5966
2026-01-24 03:03:09.50	216.23	30.48	-38.8	-40.0	28.4	3.03e+01	92	41	0	477102080	52	6133
2026-01-24 03:03:10.51	216.53	30.64	-38.8	-40.0	28.5	3.03e+01	92	42	0	479199232	52	6121
2026-01-24 03:03:11.52	216.84	30.80	-38.6	-39.8	28.5	3.03e+01	92	41	0	480772096	52	5990
2026-01-24 03:03:12.53	217.15	30.96	-38.8	-40.0	28.4	3.03e+01	92	42	0	482869248	52	6134
2026-01-24 03:03:13.54	217.46	31.12	-38.7	-40.0	28.4	3.03e+01	90	41	0	484442112	52	6076
2026-01-24 03:03:14.55	217.77	31.28	-38.7	-40.0	28.5	3.03e+01	91	42	0	486539264	52	6082
2026-01-24 03:03:15.56	218.09	31.44	-38.9	-40.2	28.2	3.03e+01	92	41	0	488636416	52	6242
2026-01-24 03:03:16.57	218.41	31.60	-39.1	-40.4	28.1	3.03e+01	92	41	0	490209280	52	6357
2026-01-24 03:03:17.58	218.73	31.76	-38.6	-39.8	28.5	3.03e+01	91	41	0	492306432	52	5957
2026-01-24 03:03:18.59	219.06	31.92	-38.8	-40.0	28.4	3.03e+01	90	42	0	493879296	52	6116
2026-01-24 03:03:19.60	219.39	32.08	-38.8	-40.1	28.3	3.03e+01	90	42	0	495976448	52	6139
2026-01-24 03:03:20.61	219.72	32.23	-38.8	-40.0	28.4	3.03e+01	92	42	0	498073600	52	6120
2026-01-24 03:03:21.62	220.06	32.39	-38.8	-40.1	28.3	3.03e+01	89	41	0	499646464	52	6141
2026-01-24 03:03:22.63	220.40	32.55	-38.8	-40.1	28.3	3.03e+01	91	41	0	501743616	52	6151
2026-01-24 03:03:23.64	220.74	32.71	-38.8	-40.1	28.3	3.03e+01	91	42	0	503316480	52	6150
2026-01-24 03:03:24.65	221.09	32.87	-38.8	-40.0	28.3	3.03e+01	89	42	0	505413632	52	6103
2026-01-24 03:03:25.65	221.44	33.03	-38.8	-40.1	28.3	3.03e+01	91	41	0	507510784	52	6146
2026-01-24 03:03:26.66	221.79	33.18	-38.7	-40.0	28.4	3.03e+01	91	41	0	509083648	52	6079
2026-01-24 03:03:27.67	222.15	33.34	-38.9	-40.2	28.3	3.03e+01	92	41	0	511180800	52	6226
2026-01-24 03:03:28.68	222.51	33.50	-39.1	-40.3	28.1	3.03e+01	91	42	0	513277952	52	6333
2026-01-24 03:03:29.69	222.87	33.65	-39.0	-40.2	28.2	3.03e+01	90	42	0	514850816	52	6250
2026-01-24 03:03:30.70	223.24	33.81	-39.1	-40.4	28.1	3.03e+01	91	42	0	516947968	52	6395
2026-01-24 03:03:31.71	223.61	33.97	-39.0	-40.3	28.1	3.03e+01	92	41	0	518520832	52	6292
2026-01-24 03:03:32.72	223.98	34.12	-38.9	-40.1	28.3	3.03e+01	92	42	0	520617984	52	6175
2026-01-24 03:03:33.73	224.36	34.28	-39.1	-40.3	28.1	3.03e+01	92	41	0	522715136	52	6342
2026-01-24 03:03:34.74	224.74	34.43	-39.2	-40.5	28.1	3.03e+01	91	42	0	524288000	52	6437
2026-01-24 03:03:35.75	225.13	34.59	-39.2	-40.5	28.0	3.03e+01	91	42	0	526385152	52	6463
2026-01-24 03:03:36.76	225.52	34.74	-39.1	-40.3	28.2	3.03e+01	91	42	0	528482304	52	6327
2026-01-24 03:03:37.77	225.91	34.89	-39.0	-40.3	28.2	3.03e+01	92	42	0	530055168	52	6315
2026-01-24 03:03:38.78	226.31	35.04	-39.1	-40.3	28.1	3.03e+01	92	42	0	532152320	52	6350
2026-01-24 03:03:39.79	226.71	35.20	-39.6	-40.9	27.5	3.03e+01	92	41	0	533725184	52	6762
2026-01-24 03:03:40.80	227.11	35.35	-39.2	-40.5	28.0	3.03e+01	92	42	0	535822336	52	6461
2026-01-24 03:03:41.80	227.52	35.49	-39.0	-40.3	28.1	3.03e+01	92	42	0	537919488	52	6304
2026-01-24 03:03:42.81	227.93	35.64	-39.4	-40.7	27.8	3.03e+01	92	42	0	539492352	52	6580
2026-01-24 03:03:43.82	228.35	35.79	-39.1	-40.3	28.2	3.03e+01	92	42	0	541589504	52	6327
2026-01-24 03:03:44.83	228.77	35.94	-39.0	-40.3	28.2	3.03e+01	92	42	0	543162368	52	6300
2026-01-24 03:03:45.85	229.19	36.09	-39.0	-40.2	28.2	3.03e+01	90	42	0	545259520	52	6273
2026-01-24 03:03:46.85	229.62	36.23	-39.1	-40.4	28.1	3.03e+01	92	42	0	547356672	52	6392
2026-01-24 03:03:47.86	230.05	36.37	-38.8	-40.1	28.3	3.03e+01	92	42	0	548929536	52	6155
2026-01-24 03:03:48.87	230.48	36.52	-39.0	-40.2	28.2	3.03e+01	91	42	0	551026688	52	6251
2026-01-24 03:03:49.88	230.92	36.66	-39.3	-40.6	27.9	3.03e+01	92	42	0	552599552	52	6515
2026-01-24 03:03:50.89	231.36	36.80	-39.0	-40.3	28.1	3.03e+01	92	42	0	554696704	52	6279
2026-01-24 03:03:51.90	231.81	36.94	-39.1	-40.3	28.2	3.03e+01	89	42	0	556793856	52	6326
2026-01-24 03:03:52.91	232.26	37.08	-39.1	-40.4	28.0	3.03e+01	92	42	0	558366720	52	6409
2026-01-24 03:03:53.92	232.71	37.21	-39.0	-40.3	28.2	3.03e+01	92	42	0	560463872	52	6280
2026-01-24 03:03:54.93	233.17	37.35	-38.8	-40.1	28.3	3.03e+01	92	42	0	562036736	52	6150
2026-01-24 03:03:55.94	233.63	37.48	-38.9	-40.2	28.2	3.03e+01	90	42	0	564133888	52	6235
2026-01-24 03:03:56.95	234.10	37.61	-38.8	-40.0	28.4	3.03e+01	92	42	0	566231040	52	6119
2026-01-24 03:03:57.96	234.57	37.75	-38.8	-40.1	28.3	3.03e+01	91	42	0	567803904	52	6156
2026-01-24 03:03:58.97	235.04	37.88	-39.0	-40.2	28.2	3.03e+01	90	42	0	569901056	52	6266
2026-01-24 03:03:59.98	235.52	38.00	-38.8	-40.1	28.3	3.03e+01	89	42	0	571473920	52	6170
2026-01-24 03:04:00.99	236.00	38.13	-38.9	-40.1	28.3	3.03e+01	92	42	0	573571072	52	6178
2026-01-24 03:04:02.00	236.48	38.25	-38.7	-40.0	28.4	3.03e+01	92	42	0	575668224	52	6093
2026-01-24 03:04:03.01	236.97	38.38	-38.9	-40.1	28.4	3.03e+01	89	42	0	577241088	52	6182
2026-01-24 03:04:04.02	237.46	38.50	-38.9	-40.1	28.3	3.03e+01	89	42	0	579338240	52	6189
2026-01-24 03:04:05.03	237.96	38.62	-38.6	-39.9	28.5	3.03e+01	92	42	0	581435392	52	6015
2026-01-24 03:04:06.04	238.46	38.73	-38.7	-40.0	28.5	3.03e+01	92	42	0	583008256	52	6091
2026-01-24 03:04:07.05	238.96	38.85	-38.6	-39.8	28.6	3.03e+01	92	42	0	585105408	52	5977
2026-01-24 03:04:08.06	239.47	38.96	-38.5	-39.8	28.6	3.03e+01	92	42	0	586678272	52	5935
2026-01-24 03:04:09.07	239.97	39.07	-38.6	-39.8	28.6	3.03e+01	91	42	0	588775424	52	5994
2026-01-24 03:04:10.08	240.49	39.18	-38.7	-39.9	28.6	3.03e+01	91	42	0	590872576	52	6042
2026-01-24 03:04:11.09	241.00	39.29	-38.7	-40.0	28.5	3.03e+01	91	42	0	592445440	52	6082
2026-01-24 03:04:12.10	241.52	39.39	-38.6	-39.8	28.6	3.03e+01	91	42	0	594542592	52	5994
2026-01-24 03:04:13.11	242.05	39.50	-38.8	-40.1	28.4	3.03e+01	91	42	0	596639744	52	6139
2026-01-24 03:04:14.13	242.58	39.60	-38.6	-39.8	28.7	3.03e+01	91	42	0	598212608	52	5959
2026-01-24 03:04:15.14	243.11	39.69	-38.7	-39.9	28.6	3.03e+01	92	42	0	600309760	52	6020
2026-01-24 03:04:16.14	243.64	39.79	-38.7	-40.0	28.4	3.03e+01	92	42	0	601882624	52	6087
2026-01-24 03:04:17.15	244.17	39.88	-38.6	-39.9	28.6	3.03e+01	92	42	0	603979776	52	5996
2026-01-24 03:04:18.17	244.72	39.97	-38.4	-39.7	28.8	3.03e+01	92	42	0	606076928	52	5880
2026-01-24 03:04:19.18	245.26	40.06	-38.4	-39.6	28.8	3.03e+01	92	42	0	607649792	52	5842
2026-01-24 03:04:20.19	245.80	40.15	-38.6	-39.9	28.6	3.03e+01	92	42	0	609746944	52	6024
2026-01-24 03:04:21.20	246.35	40.23	-38.3	-39.6	28.8	3.03e+01	92	42	0	611319808	52	5803
2026-01-24 03:04:22.21	246.90	40.31	-38.5	-39.7	28.8	3.03e+01	87	42	0	613416960	52	5885
2026-01-24 03:04:23.22	247.46	40.38	-38.2	-39.5	29.0	3.03e+01	92	42	0	615514112	52	5729
2026-01-24 03:04:24.23	248.01	40.46	-38.3	-39.6	28.9	3.03e+01	92	42	0	617086976	52	5801
2026-01-24 03:04:25.24	248.57	40.53	-38.2	-39.4	29.0	3.03e+01	91	41	0	619184128	52	5717
2026-01-24 03:04:26.25	249.13	40.60	-38.3	-39.5	29.0	3.03e+01	91	42	0	620756992	52	5740
2026-01-24 03:04:27.26	249.69	40.67	-38.3	-39.5	28.9	3.03e+01	92	41	0	622854144	52	5754
2026-01-24 03:04:28.27	250.26	40.73	-38.1	-39.4	29.0	3.03e+01	92	42	0	624951296	52	5666
2026-01-24 03:04:29.28	250.83	40.79	-38.4	-39.7	28.8	3.03e+01	92	42	0	626524160	52	5875
2026-01-24 03:04:30.29	251.40	40.85	-38.1	-39.3	29.1	3.03e+01	91	42	0	628621312	52	5651
2026-01-24 03:04:31.30	251.97	40.90	-38.1	-39.4	29.0	3.03e+01	92	41	0	630194176	52	5666
2026-01-24 03:04:32.31	252.54	40.95	-38.1	-39.3	29.1	3.03e+01	90	42	0	632291328	52	5651
2026-01-24 03:04:33.32	253.12	41.00	-38.4	-39.7	28.7	3.03e+01	91	42	0	634388480	52	5886
2026-01-24 03:04:34.33	253.69	41.04	-38.2	-39.5	28.9	3.03e+01	92	42	0	635961344	52	5726
2026-01-24 03:04:35.34	254.27	41.09	-38.4	-39.6	28.8	3.03e+01	92	42	0	638058496	52	5806
2026-01-24 03:04:36.35	254.85	41.13	-38.2	-39.5	28.9	3.03e+01	92	41	0	639631360	52	5747
2026-01-24 03:04:37.36	255.43	41.16	-38.4	-39.6	28.8	3.03e+01	90	41	0	641728512	52	5833
2026-01-24 03:04:38.37	256.02	41.19	-38.4	-39.7	28.7	3.03e+01	95	42	0	643825664	52	5869
2026-01-24 03:04:39.37	256.59	41.22	-38.2	-39.5	29.0	3.03e+01	90	42	0	645398528	52	5737
2026-01-24 03:04:40.38	257.18	41.25	-38.3	-39.5	28.9	3.03e+01	92	42	0	647495680	52	5781
2026-01-24 03:04:41.39	257.76	41.27	-38.2	-39.4	29.0	3.03e+01	92	42	0	649592832	52	5710
2026-01-24 03:04:42.40	258.35	41.29	-38.2	-39.5	28.9	3.03e+01	91	42	0	651165696	52	5737
2026-01-24 03:04:43.41	258.94	41.31	-38.0	-39.2	29.2	3.03e+01	92	42	0	653262848	52	5575
2026-01-24 03:04:44.42	259.52	41.32	-38.1	-39.3	29.0	3.03e+01	92	42	0	654835712	50	6339
2026-01-24 03:04:45.43	260.11	41.33	-38.5	-39.7	28.6	3.03e+01	90	42	0	656932864	50	6643
2026-01-24 03:04:46.44	260.70	41.34	-38.3	-39.5	29.0	3.03e+01	90	42	0	659030016	50	6430
2026-01-24 03:04:47.45	261.29	41.34	-38.2	-39.4	29.1	3.03e+01	92	42	0	660602880	50	6368
2026-01-24 03:04:48.46	261.88	41.34	-38.2	-39.4	29.1	3.03e+01	92	42	0	662700032	50	6379
2026-01-24 03:04:49.47	262.46	41.34	-38.3	-39.6	28.8	3.03e+01	91	42	0	664797184	50	6508
2026-01-24 03:04:50.48	263.05	41.33	-38.3	-39.5	28.8	3.03e+01	92	41	0	666370048	50	6494
2026-01-24 03:04:51.48	263.63	41.32	-38.1	-39.3	29.1	3.03e+01	91	42	0	668467200	50	6290
2026-01-24 03:04:52.49	264.22	41.31	-38.4	-39.6	28.8	3.03e+01	91	41	0	670040064	50	6527
2026-01-24 03:04:53.50	264.81	41.29	-38.5	-39.7	28.5	3.03e+01	91	42	0	672137216	50	6605
2026-01-24 03:04:54.51	265.39	41.27	-38.6	-39.8	28.8	3.03e+01	92	42	0	674234368	52	5960
2026-01-24 03:04:55.52	265.98	41.25	-38.3	-39.5	29.0	3.03e+01	90	42	0	675807232	52	5774
2026-01-24 03:04:56.53	266.56	41.22	-38.5	-39.8	28.7	3.03e+01	92	42	0	677904384	52	5928
2026-01-24 03:04:57.54	267.15	41.19	-38.6	-39.8	28.6	3.03e+01	92	41	0	679477248	52	5966
2026-01-24 03:04:58.55	267.73	41.16	-38.6	-39.9	28.8	3.03e+01	92	42	0	681574400	52	6013
2026-01-24 03:04:59.56	268.31	41.13	-38.8	-40.0	28.6	3.03e+01	92	42	0	683671552	52	6112
2026-01-24 03:05:00.57	268.89	41.09	-38.5	-39.7	28.8	3.03e+01	92	42	0	685244416	52	5890
2026-01-24 03:05:01.58	269.47	41.05	-38.4	-39.6	28.8	3.03e+01	91	42	0	687341568	52	5835
2026-01-24 03:05:02.59	270.04	41.00	-38.7	-40.0	28.6	3.03e+01	91	42	0	688914432	52	6093
2026-01-24 03:05:03.60	270.62	40.95	-38.6	-39.8	28.7	3.03e+01	91	42	0	691011584	52	5968
2026-01-24 03:05:04.60	271.19	40.90	-38.7	-39.9	28.6	3.03e+01	89	42	0	693108736	52	6052
2026-01-24 03:05:05.61	271.76	40.85	-38.4	-39.7	28.9	3.03e+01	91	42	0	694681600	52	5872
2026-01-24 03:05:06.62	272.33	40.79	-38.4	-39.7	28.9	3.03e+01	90	42	0	696778752	52	5862
2026-01-24 03:05:07.63	272.89	40.73	-38.7	-40.0	28.6	3.03e+01	92	42	0	698351616	52	6086
2026-01-24 03:05:08.64	273.46	40.67	-38.6	-39.8	28.7	3.03e+01	92	42	0	700448768	52	5983
2026-01-24 03:05:09.65	274.02	40.60	-38.5	-39.8	28.8	3.03e+01	92	42	0	702545920	52	5933
2026-01-24 03:05:10.66	274.58	40.53	-38.7	-39.9	28.6	3.03e+01	92	42	0	704118784	52	6042
2026-01-24 03:05:11.67	275.14	40.46	-38.8	-40.0	28.6	3.03e+01	92	42	0	706215936	52	6101
2026-01-24 03:05:12.68	275.69	40.39	-38.5	-39.8	28.7	3.03e+01	92	42	0	707788800	52	5937
2026-01-24 03:05:13.69	276.25	40.31	-38.6	-39.9	28.7	3.03e+01	92	42	0	709885952	52	6015
2026-01-24 03:05:14.70	276.80	40.23	-38.6	-39.9	28.6	3.03e+01	92	42	0	711983104	52	6009
2026-01-24 03:05:15.71	277.34	40.15	-38.7	-40.0	28.5	3.03e+01	92	42	0	713555968	52	6065
2026-01-24 03:05:16.72	277.89	40.07	-38.8	-40.0	28.5	3.03e+01	91	42	0	715653120	52	6121
2026-01-24 03:05:17.72	278.42	39.98	-38.7	-40.0	28.5	3.03e+01	92	42	0	717750272	52	6082
2026-01-24 03:05:18.73	278.96	39.89	-38.7	-40.0	28.6	3.03e+01	91	42	0	719323136	52	6066
2026-01-24 03:05:19.74	279.50	39.80	-38.7	-39.9	28.6	3.03e+01	91	42	0	721420288	52	6040
2026-01-24 03:05:20.75	280.03	39.70	-38.7	-40.0	28.6	3.03e+01	90	42	0	722993152	52	6083
2026-01-24 03:05:21.76	280.56	39.60	-38.7	-39.9	28.6	3.03e+01	92	42	0	725090304	52	6029
2026-01-24 03:05:22.77	281.08	39.50	-38.8	-40.0	28.4	3.03e+01	92	42	0	727187456	52	6107
2026-01-24 03:05:23.78	281.61	39.40	-38.8	-40.0	28.5	3.03e+01	92	42	0	728760320	52	6105
2026-01-24 03:05:24.79	282.13	39.30	-38.6	-39.8	28.5	3.03e+01	92	42	0	730857472	52	5988
2026-01-24 03:05:25.80	282.64	39.19	-38.7	-39.9	28.6	3.03e+01	91	42	0	732430336	52	6058
2026-01-24 03:05:26.81	283.15	39.08	-38.6	-39.8	28.7	3.03e+01	92	42	0	734527488	52	5970
2026-01-24 03:05:27.82	283.66	38.97	-38.7	-39.9	28.6	3.03e+01	92	42	0	736624640	52	6032
2026-01-24 03:05:28.83	284.17	38.86	-39.1	-40.4	28.2	3.03e+01	92	42	0	738197504	52	6376
2026-01-24 03:05:29.84	284.67	38.75	-39.0	-40.2	28.3	3.03e+01	92	42	0	740294656	52	6272
2026-01-24 03:05:30.85	285.17	38.63	-39.1	-40.3	28.3	3.03e+01	92	42	0	741867520	52	6306
2026-01-24 03:05:31.85	285.66	38.51	-39.5	-40.8	27.9	3.03e+01	92	42	0	743964672	52	6712
2026-01-24 03:05:32.86	286.15	38.39	-39.4	-40.7	28.1	3.03e+01	92	42	0	746061824	52	6616
2026-01-24 03:05:33.87	286.63	38.27	-39.3	-40.5	28.2	3.03e+01	92	42	0	747634688	52	6494
2026-01-24 03:05:34.88	287.12	38.15	-38.6	-39.9	28.8	3.03e+01	92	42	0	749731840	52	5995
2026-01-24 03:05:35.89	287.60	38.02	-38.4	-39.6	28.9	3.03e+01	92	42	0	751304704	52	5856
2026-01-24 03:05:36.90	288.07	37.89	-38.7	-40.0	28.7	3.03e+01	91	42	0	753401856	52	6079
2026-01-24 03:05:37.91	288.55	37.76	-38.8	-40.1	28.6	3.03e+01	92	42	0	755499008	52	6164
2026-01-24 03:05:38.92	289.01	37.63	-38.6	-39.8	28.7	3.03e+01	92	42	0	757071872	52	5994
2026-01-24 03:05:39.92	289.47	37.50	-38.3	-39.5	28.9	3.03e+01	92	42	0	759169024	52	5784
2026-01-24 03:05:40.93	289.93	37.37	-38.6	-39.9	28.6	3.03e+01	90	42	0	761266176	52	6024
2026-01-24 03:05:41.94	290.39	37.24	-38.9	-40.1	28.5	3.03e+01	89	42	0	762839040	52	6184
2026-01-24 03:05:42.95	290.84	37.10	-38.4	-39.6	29.0	3.03e+01	90	42	0	764936192	52	5841
2026-01-24 03:05:43.96	291.29	36.96	-38.3	-39.6	29.0	3.03e+01	91	42	0	766509056	52	5793
2026-01-24 03:05:44.96	291.74	36.82	-38.2	-39.4	29.1	3.03e+01	92	42	0	768606208	52	5684
2026-01-24 03:05:45.97	292.18	36.68	-38.4	-39.6	28.9	3.03e+01	91	42	0	770703360	52	5840
2026-01-24 03:05:46.98	292.61	36.54	-38.3	-39.5	29.0	3.03e+01	91	42	0	772276224	52	5767
2026-01-24 03:05:47.99	293.05	36.40	-38.2	-39.5	29.0	3.03e+01	89	42	0	774373376	52	5741
2026-01-24 03:05:49.00	293.48	36.26	-38.1	-39.3	29.1	3.03e+01	91	42	0	775946240	52	5634
2026-01-24 03:05:50.00	293.90	36.12	-37.8	-39.1	29.3	3.03e+01	92	42	0	778043392	50	6140
2026-01-24 03:05:51.01	294.32	35.97	-38.0	-39.2	29.2	3.03e+01	92	42	0	780140544	50	6235
2026-01-24 03:05:52.02	294.74	35.82	-37.8	-39.1	29.3	3.03e+01	92	42	0	781713408	50	6135
2026-01-24 03:05:53.03	295.16	35.68	-37.8	-39.0	29.3	3.03e+01	92	42	0	783810560	50	6117
2026-01-24 03:05:54.04	295.57	35.53	-38.0	-39.2	29.2	3.03e+01	90	42	0	785383424	50	6249
2026-01-24 03:05:55.05	295.98	35.38	-37.9	-39.1	29.3	3.03e+01	92	42	0	787480576	50	6172
2026-01-24 03:05:56.06	296.38	35.23	-37.6	-38.9	29.5	3.03e+01	91	42	0	789577728	50	5998
2026-01-24 03:05:57.07	296.78	35.08	-37.5	-38.7	29.6	3.03e+01	92	42	0	791150592	50	5887
2026-01-24 03:05:58.08	297.17	34.93	-37.5	-38.7	29.5	3.03e+01	92	42	0	793247744	50	5895
2026-01-24 03:05:59.09	297.57	34.78	-37.6	-38.8	29.5	3.03e+01	91	42	0	794820608	50	5937
2026-01-24 03:06:00.10	297.96	34.62	-37.6	-38.8	29.6	3.03e+01	92	42	0	796917760	50	5948
2026-01-24 03:06:01.11	298.34	34.47	-37.7	-39.0	29.4	3.03e+01	88	42	0	799014912	50	6075
2026-01-24 03:06:02.12	298.72	34.32	-37.5	-38.7	29.6	3.03e+01	92	42	0	800587776	50	5914
2026-01-24 03:06:03.13	299.10	34.16	-37.1	-38.3	30.0	3.03e+01	92	42	0	802684928	50	5640
2026-01-24 03:06:04.14	299.47	34.01	-37.2	-38.4	29.9	3.03e+01	85	42	0	804257792	50	5668
2026-01-24 03:06:05.15	299.84	33.85	-37.1	-38.3	30.0	3.03e+01	89	42	0	806354944	50	5647
2026-01-24 03:06:06.15	300.21	33.70	-37.2	-38.4	29.9	3.03e+01	92	42	0	808452096	50	5668
2026-01-24 03:06:07.16	300.57	33.54	-37.3	-38.5	29.8	3.03e+01	92	42	0	810024960	50	5776
2026-01-24 03:06:08.17	300.93	33.39	-37.3	-38.5	29.8	3.03e+01	92	42	0	812122112	50	5740
2026-01-24 03:06:09.18	301.29	33.23	-37.2	-38.4	29.9	3.03e+01	92	42	0	814219264	50	5661
2026-01-24 03:06:10.19	301.64	33.07	-37.2	-38.3	29.9	3.03e+01	92	42	0	815792128	50	5658
2026-01-24 03:06:11.20	301.99	32.92	-37.2	-38.4	29.9	3.03e+01	92	42	0	817889280	50	5681
2026-01-24 03:06:12.21	302.34	32.76	-37.0	-38.2	30.0	3.03e+01	92	42	0	819462144	50	5566
2026-01-24 03:06:13.22	302.68	32.60	-37.1	-38.3	30.0	3.03e+01	90	42	0	821559296	50	5624
2026-01-24 03:06:14.23	303.02	32.44	-36.9	-38.1	30.2	3.03e+01	92	42	0	823656448	48	6136
2026-01-24 03:06:15.24	303.35	32.29	-37.0	-38.1	30.1	3.03e+01	91	42	0	825229312	48	6194
2026-01-24 03:06:16.25	303.69	32.13	-36.8	-38.0	30.1	3.03e+01	92	42	0	827326464	48	6113
2026-01-24 03:06:17.26	304.01	31.97	-36.8	-38.0	30.1	3.03e+01	92	42	0	828899328	48	6098
2026-01-24 03:06:18.26	304.34	31.81	-36.8	-37.9	30.3	3.03e+01	90	42	0	830996480	48	6058
2026-01-24 03:06:19.27	304.66	31.65	-36.9	-38.1	30.1	3.03e+01	90	42	0	833093632	48	6169
2026-01-24 03:06:20.28	304.98	31.50	-36.9	-38.1	30.0	3.03e+01	91	42	0	834666496	48	6178
2026-01-24 03:06:21.29	305.30	31.34	-37.2	-38.4	29.8	3.03e+01	92	42	0	836763648	48	6374
2026-01-24 03:06:22.30	305.61	31.18	-37.3	-38.5	29.9	3.03e+01	92	42	0	838336512	48	6489
2026-01-24 03:06:23.31	305.92	31.02	-37.1	-38.2	29.9	3.03e+01	90	42	0	840433664	48	6269
2026-01-24 03:06:24.32	306.23	30.86	-37.0	-38.2	30.0	3.03e+01	92	42	0	842530816	48	6253
2026-01-24 03:06:25.32	306.53	30.71	-36.8	-37.9	30.2	3.03e+01	92	42	0	844103680	48	6042
2026-01-24 03:06:26.33	306.83	30.55	-37.1	-38.2	29.9	3.03e+01	91	42	0	846200832	48	6277
2026-01-24 03:06:27.34	307.13	30.39	-37.2	-38.4	29.9	3.03e+01	92	42	0	847773696	48	6398
2026-01-24 03:06:28.35	307.42	30.23	-37.1	-38.2	30.0	3.03e+01	90	42	0	849870848	48	6276
2026-01-24 03:06:29.36	307.72	30.07	-37.0	-38.2	29.9	3.03e+01	92	42	0	851968000	48	6246
2026-01-24 03:06:30.37	308.01	29.92	-37.0	-38.2	30.0	3.03e+01	90	42	0	853540864	48	6258
2026-01-24 03:06:31.38	308.29	29.76	-37.2	-38.4	29.9	3.03e+01	92	42	0	855638016	48	6366
2026-01-24 03:06:32.39	308.58	29.60	-37.0	-38.2	30.0	3.03e+01	90	42	0	857210880	48	6268
2026-01-24 03:06:33.40	308.86	29.44	-37.4	-38.6	29.6	3.03e+01	92	42	0	859308032	48	6538
2026-01-24 03:06:34.41	309.14	29.29	-37.5	-38.7	29.6	3.03e+01	90	42	0	861405184	48	6604
2026-01-24 03:06:35.42	309.41	29.13	-37.1	-38.3	29.8	3.03e+01	92	42	0	862978048	48	6331
2026-01-24 03:06:36.43	309.68	28.97	-37.2	-38.4	29.8	3.03e+01	91	42	0	865075200	48	6351
2026-01-24 03:06:37.44	309.95	28.82	-37.1	-38.3	30.0	3.03e+01	92	42	0	867172352	48	6317
2026-01-24 03:06:38.45	310.22	28.66	-37.0	-38.2	30.1	3.03e+01	92	42	0	868745216	48	6220
2026-01-24 03:06:39.46	310.49	28.51	-37.1	-38.3	29.9	3.03e+01	92	42	0	870842368	48	6310
2026-01-24 03:06:40.47	310.75	28.35	-37.4	-38.6	29.7	3.03e+01	89	42	0	872415232	48	6533
2026-01-24 03:06:41.48	311.01	28.20	-37.2	-38.4	29.8	3.03e+01	91	42	0	874512384	48	6378
2026-01-24 03:06:42.48	311.26	28.04	-37.3	-38.4	29.7	3.03e+01	89	42	0	876609536	48	6411
2026-01-24 03:06:43.49	311.52	27.89	-37.3	-38.5	29.8	3.03e+01	91	42	0	878182400	48	6433
2026-01-24 03:06:44.50	311.77	27.74	-37.3	-38.5	29.7	3.03e+01	92	42	0	880279552	48	6424
2026-01-24 03:06:45.51	312.02	27.58	-37.3	-38.5	29.8	3.03e+01	60	42	0	882376704	48	6429
2026-01-24 03:06:46.52	312.27	27.43	-37.4	-38.6	29.6	3.03e+01	50	42	0	883949568	48	6569
2026-01-24 03:06:47.52	312.51	27.28	-37.4	-38.6	29.6	3.03e+01	60	42	0	886046720	48	6531
2026-01-24 03:06:48.53	312.75	27.13	-37.5	-38.6	29.6	3.03e+01	58	42	0	887619584	48	6571
2026-01-24 03:06:49.54	312.99	26.97	-37.6	-38.8	29.5	3.03e+01	49	42	0	889716736	48	6672
2026-01-24 03:06:50.55	313.23	26.82	-37.5	-38.7	29.6	3.03e+01	58	42	0	891289600	48	6610
2026-01-24 03:06:51.56	313.46	26.67	-37.6	-38.8	29.5	3.03e+01	46	42	0	893386752	48	6723
2026-01-24 03:06:52.57	313.70	26.52	-37.7	-39.0	29.4	3.03e+01	61	42	0	895483904	48	6806
2026-01-24 03:06:53.58	313.93	26.37	-37.8	-39.0	29.3	3.03e+01	58	42	0	897056768	48	6865
2026-01-24 03:06:54.59	314.16	26.22	-37.8	-39.0	29.4	3.03e+01	48	42	0	899153920	48	6875
2026-01-24 03:06:55.60	314.38	26.07	-37.7	-38.9	29.4	3.03e+01	59	42	0	900726784	48	6742
2026-01-24 03:06:56.60	314.61	25.93	-37.7	-38.9	29.4	3.03e+01	58	42	0	902823936	48	6793
2026-01-24 03:06:57.61	314.83	25.78	-37.7	-38.9	29.4	3.03e+01	57	42	0	904921088	48	6784
2026-01-24 03:06:58.63	315.05	25.63	-37.9	-39.2	29.3	3.03e+01	60	42	0	906493952	48	6970
2026-01-24 03:06:59.63	315.27	25.48	-38.0	-39.2	29.1	3.03e+01	56	42	0	908591104	50	6223
2026-01-24 03:07:00.65	315.49	25.33	-37.7	-38.9	29.4	3.03e+01	57	42	0	910688256	50	6029
2026-01-24 03:07:01.65	315.70	25.19	-37.8	-39.1	29.2	3.03e+01	58	42	0	912261120	50	6139
2026-01-24 03:07:02.67	315.91	25.04	-37.8	-39.0	29.4	3.03e+01	44	42	0	914358272	50	6127
2026-01-24 03:07:03.68	316.12	24.90	-37.9	-39.1	29.4	3.03e+01	59	42	0	915931136	50	6173
2026-01-24 03:07:04.68	316.33	24.75	-37.9	-39.2	29.3	3.03e+01	58	42	0	918028288	50	6219
2026-01-24 03:07:05.69	316.53	24.61	-38.1	-39.3	29.0	3.03e+01	58	42	0	920125440	50	6322
2026-01-24 03:07:06.70	316.74	24.46	-38.1	-39.3	28.9	3.03e+01	55	42	0	921698304	50	6336
2026-01-24 03:07:07.71	316.94	24.32	-38.1	-39.3	28.8	3.03e+01	47	42	0	923795456	50	6348
2026-01-24 03:07:08.72	317.14	24.18	-38.0	-39.3	29.2	3.03e+01	57	42	0	925368320	50	6284
2026-01-24 03:07:09.73	317.34	24.03	-37.7	-38.9	29.4	3.03e+01	56	42	0	927465472	50	6036
2026-01-24 03:07:10.74	317.54	23.89	-37.8	-39.0	29.3	3.03e+01	54	42	0	929562624	50	6105
2026-01-24 03:07:11.75	317.73	23.75	-37.9	-39.1	29.2	3.03e+01	61	42	0	931135488	50	6152
2026-01-24 03:07:12.76	317.92	23.61	-38.2	-39.5	28.9	3.03e+01	59	42	0	933232640	50	6427
2026-01-24 03:07:13.77	318.12	23.47	-37.8	-39.0	29.3	3.03e+01	58	42	0	935329792	50	6072
2026-01-24 03:07:14.78	318.31	23.33	-37.7	-38.9	29.4	3.03e+01	60	42	0	936902656	50	6047
2026-01-24 03:07:15.79	318.49	23.19	-37.8	-39.0	29.2	3.03e+01	53	42	0	938999808	50	6127
2026-01-24 03:07:16.80	318.68	23.05	-38.3	-39.5	29.0	3.03e+01	60	42	0	940572672	50	6473
2026-01-24 03:07:17.81	318.86	22.91	-38.0	-39.2	29.1	3.03e+01	60	42	0	942669824	50	6256
2026-01-24 03:07:18.82	319.05	22.78	-38.0	-39.3	29.1	3.03e+01	46	42	0	944766976	50	6297
2026-01-24 03:07:19.83	319.23	22.64	-37.7	-38.9	29.2	3.03e+01	58	42	0	946339840	50	6051
2026-01-24 03:07:20.84	319.41	22.50	-37.8	-39.0	29.2	3.03e+01	60	42	0	948436992	50	6125
2026-01-24 03:07:21.85	319.59	22.37	-37.9	-39.1	29.1	3.03e+01	59	42	0	950009856	50	6154
2026-01-24 03:07:22.86	319.76	22.23	-37.8	-39.0	29.2	3.03e+01	57	42	0	952107008	50	6121
2026-01-24 03:07:23.87	319.94	22.09	-37.9	-39.1	29.2	3.03e+01	54	42	0	954204160	50	6150
2026-01-24 03:07:24.88	320.11	21.96	-37.6	-38.8	29.4	3.03e+01	61	42	0	955777024	50	5948
2026-01-24 03:07:25.89	320.28	21.83	-37.8	-39.0	29.3	3.03e+01	57	42	0	957874176	50	6106
2026-01-24 03:07:26.89	320.45	21.69	-37.8	-39.0	29.2	3.03e+01	59	42	0	959447040	50	6125
2026-01-24 03:07:27.90	320.62	21.56	-37.8	-39.0	29.3	3.03e+01	59	42	0	961544192	50	6088
2026-01-24 03:07:28.91	320.79	21.43	-37.7	-38.9	29.4	3.03e+01	44	42	0	963641344	50	6024
2026-01-24 03:07:29.92	320.95	21.30	-37.7	-38.9	29.4	3.03e+01	62	42	0	965214208	50	6048
2026-01-24 03:07:30.93	321.12	21.16	-37.8	-39.1	29.4	3.03e+01	59	42	0	967311360	50	6145
2026-01-24 03:07:31.94	321.28	21.03	-37.8	-39.1	29.2	3.03e+01	47	42	0	968884224	50	6140
2026-01-24 03:07:32.95	321.44	20.90	-37.7	-38.9	29.3	3.03e+01	59	42	0	970981376	50	6020
2026-01-24 03:07:33.96	321.60	20.77	-37.7	-38.9	29.2	3.03e+01	60	42	0	973078528	50	6064
2026-01-24 03:07:34.97	321.76	20.64	-37.9	-39.1	29.2	3.03e+01	58	42	0	974651392	50	6146
2026-01-24 03:07:35.98	321.92	20.51	-37.9	-39.1	29.4	3.03e+01	59	42	0	976748544	50	6179
2026-01-24 03:07:36.99	322.08	20.39	-37.8	-39.0	29.4	3.03e+01	58	42	0	978845696	50	6124
2026-01-24 03:07:38.00	322.23	20.26	-37.8	-39.0	29.3	3.03e+01	59	42	0	980418560	50	6089
2026-01-24 03:07:39.01	322.39	20.13	-38.0	-39.2	29.1	3.03e+01	60	42	0	982515712	50	6257
2026-01-24 03:07:40.02	322.54	20.00	-37.6	-38.8	29.4	3.03e+01	52	42	0	984088576	50	5992
2026-01-24 03:07:41.03	322.69	19.88	-37.7	-38.9	29.3	3.03e+01	60	42	0	986185728	50	6053
2026-01-24 03:07:42.04	322.84	19.75	-37.7	-38.9	29.3	3.03e+01	62	42	0	988282880	50	6011
2026-01-24 03:07:43.05	322.99	19.63	-37.8	-39.0	29.2	3.03e+01	56	42	0	989855744	50	6134
2026-01-24 03:07:44.06	323.13	19.50	-37.7	-38.9	29.4	3.03e+01	58	42	0	991952896	50	6028
2026-01-24 03:07:45.06	323.28	19.38	-38.0	-39.3	29.0	3.03e+01	44	42	0	993525760	50	6303
2026-01-24 03:07:46.07	323.42	19.26	-37.6	-38.8	29.3	3.03e+01	59	41	0	995622912	50	5967
2026-01-24 03:07:47.08	323.57	19.13	-37.8	-39.0	29.3	3.03e+01	60	42	0	997720064	50	6088
2026-01-24 03:07:48.09	323.71	19.01	-37.6	-38.8	29.3	3.03e+01	45	42	0	999292928	50	5973
2026-01-24 03:07:49.10	323.85	18.89	-37.5	-38.7	29.5	3.03e+01	59	42	0	1001390080	50	5888
2026-01-24 03:07:50.11	323.99	18.77	-37.5	-38.7	29.5	3.03e+01	61	42	0	1003487232	50	5860
2026-01-24 03:07:51.12	324.13	18.65	-37.5	-38.7	29.4	3.03e+01	59	42	0	1005060096	50	5870
2026-01-24 03:07:52.12	324.27	18.53	-37.6	-38.8	29.4	3.03e+01	57	42	0	1007157248	50	5985
2026-01-24 03:07:53.13	324.40	18.41	-37.6	-38.7	29.5	3.03e+01	45	41	0	1008730112	50	5926
2026-01-24 03:07:54.14	324.54	18.29	-37.6	-38.8	29.5	3.03e+01	58	41	0	1010827264	50	5949
2026-01-24 03:07:55.15	324.67	18.17	-37.6	-38.8	29.4	3.03e+01	60	42	0	1012924416	50	5955
2026-01-24 03:07:56.16	324.81	18.05	-37.6	-38.8	29.4	3.03e+01	60	42	0	1014497280	50	5993
2026-01-24 03:07:57.17	324.94	17.93	-37.6	-38.8	29.4	3.03e+01	58	41	0	1016594432	50	5970
2026-01-24 03:07:58.18	325.07	17.81	-37.6	-38.9	29.3	3.03e+01	54	42	0	1018167296	50	5999
2026-01-24 03:07:59.19	325.20	17.70	-37.7	-38.9	29.1	3.03e+01	60	42	0	1020264448	50	6049
2026-01-24 03:08:00.20	325.33	17.58	-37.7	-38.9	29.2	3.03e+01	60	42	0	1021837312	50	6028
2026-01-24 03:08:01.21	325.46	17.46	-37.6	-38.8	29.3	3.03e+01	47	41	0	1023934464	50	5993
2026-01-24 03:08:02.22	325.59	17.35	-37.6	-38.8	29.3	3.03e+01	58	42	0	1026031616	50	5945
2026-01-24 03:08:03.22	325.71	17.23	-37.7	-38.9	29.2	3.03e+01	57	42	0	1027604480	50	6015
2026-01-24 03:08:04.24	325.84	17.12	-37.5	-38.7	29.3	3.03e+01	59	42	0	1029701632	50	5921
2026-01-24 03:08:05.24	325.96	17.00	-37.7	-38.9	29.2	3.03e+01	52	42	0	1031798784	50	6008
2026-01-24 03:08:06.25	326.09	16.89	-37.6	-38.9	29.2	3.03e+01	51	42	0	1033371648	50	6001
2026-01-24 03:08:07.26	326.21	16.78	-37.7	-39.0	29.0	3.03e+01	59	41	0	1035468800	50	6065
2026-01-24 03:08:08.27	326.33	16.66	-37.6	-38.8	29.2	3.03e+01	61	42	0	1037041664	50	5931
2026-01-24 03:08:09.28	326.45	16.55	-37.6	-38.8	29.2	3.03e+01	46	42	0	1039138816	50	5933
2026-01-24 03:08:10.29	326.57	16.44	-37.5	-38.7	29.3	3.03e+01	60	41	0	1041235968	50	5894
2026-01-24 03:08:11.30	326.69	16.33	-37.5	-38.7	29.3	3.03e+01	60	42	0	1042808832	50	5919
2026-01-24 03:08:12.31	326.81	16.22	-37.5	-38.7	29.3	3.03e+01	58	42	0	1044905984	50	5914
2026-01-24 03:08:13.31	326.92	16.11	-37.7	-38.9	29.2	3.03e+01	55	42	0	1047003136	50	6042
2026-01-24 03:08:14.33	327.04	16.00	-37.6	-38.8	29.2	3.03e+01	53	42	0	1048576000	50	5979
2026-01-24 03:08:15.34	327.16	15.89	-37.7	-38.9	29.2	3.03e+01	59	42	0	1050673152	50	6014
2026-01-24 03:08:16.35	327.27	15.78	-37.6	-38.8	29.2	3.03e+01	57	42	0	1052246016	50	5993
2026-01-24 03:08:17.36	327.38	15.67	-37.6	-38.8	29.2	3.03e+01	46	42	0	1054343168	50	5979
2026-01-24 03:08:18.36	327.49	15.56	-37.7	-38.9	29.2	3.03e+01	60	42	0	1056440320	50	6009
2026-01-24 03:08:19.37	327.61	15.45	-37.4	-38.7	29.3	3.03e+01	60	42	0	1058013184	50	5860
2026-01-24 03:08:20.38	327.72	15.35	-37.6	-38.8	29.2	3.03e+01	58	42	0	1060110336	50	5986
2026-01-24 03:08:21.39	327.83	15.24	-37.6	-38.8	29.2	3.03e+01	61	42	0	1061683200	50	5979
2026-01-24 03:08:22.40	327.94	15.13	-37.6	-38.8	29.0	3.03e+01	54	42	0	1063780352	50	5993
2026-01-24 03:08:23.42	328.05	15.02	-37.7	-38.9	29.2	3.03e+01	59	42	0	1065877504	50	6008
2026-01-24 03:08:24.43	328.16	14.92	-37.6	-38.8	29.1	3.03e+01	53	42	0	1067450368	50	5967
2026-01-24 03:08:25.44	328.26	14.81	-37.5	-38.7	29.2	3.03e+01	46	42	0	1069547520	50	5912
2026-01-24 03:08:26.44	328.37	14.71	-37.5	-38.8	29.2	3.03e+01	56	41	0	1071120384	50	5935
2026-01-24 03:08:27.45	328.47	14.60	-37.7	-38.9	29.0	3.03e+01	59	42	0	1073217536	50	6029
2026-01-24 03:08:28.47	328.58	14.50	-37.6	-38.8	29.2	3.03e+01	59	42	0	1075314688	50	5954
2026-01-24 03:08:29.48	328.68	14.40	-37.5	-38.8	29.1	3.03e+01	59	42	0	1076887552	50	5930
2026-01-24 03:08:30.48	328.79	14.29	-37.6	-38.8	29.1	3.03e+01	54	42	0	1078984704	50	5970
2026-01-24 03:08:31.49	328.89	14.19	-37.9	-39.1	28.9	3.03e+01	60	42	0	1080557568	50	6176
2026-01-24 03:08:32.50	328.99	14.09	-37.9	-39.1	28.9	3.03e+01	58	42	0	1082654720	50	6176
2026-01-24 03:08:33.52	329.09	13.99	-37.8	-39.1	28.9	3.03e+01	49	41	0	1084751872	50	6146
2026-01-24 03:08:34.52	329.19	13.88	-37.8	-39.1	28.8	3.03e+01	61	41	0	1086324736	50	6143
2026-01-24 03:08:35.53	329.29	13.78	-37.9	-39.2	28.8	3.03e+01	46	41	0	1088421888	50	6224
2026-01-24 03:08:36.54	329.39	13.68	-37.9	-39.1	28.9	3.03e+01	59	41	0	1089994752	50	6192
2026-01-24 03:08:37.55	329.49	13.58	-37.8	-39.1	28.8	3.03e+01	58	41	0	1092091904	50	6138
2026-01-24 03:08:38.56	329.59	13.48	-37.9	-39.1	28.7	3.03e+01	51	41	0	1094189056	50	6178
2026-01-24 03:08:39.57	329.68	13.38	-37.9	-39.1	28.8	3.03e+01	64	41	0	1095761920	50	6170
2026-01-24 03:08:40.58	329.78	13.28	-37.9	-39.1	28.7	3.03e+01	59	41	0	1097859072	50	6163
2026-01-24 03:08:41.59	329.88	13.18	-38.2	-39.5	28.4	3.03e+01	56	41	0	1099956224	50	6431
2026-01-24 03:08:42.60	329.97	13.09	-38.0	-39.2	28.7	3.03e+01	61	41	0	1101529088	50	6255
2026-01-24 03:08:43.61	330.07	12.99	-37.9	-39.1	28.7	3.03e+01	48	41	0	1103626240	50	6162
2026-01-24 03:08:44.62	330.16	12.89	-37.9	-39.1	28.7	3.03e+01	57	41	0	1105199104	50	6173
2026-01-24 03:08:45.63	330.25	12.79	-38.1	-39.3	28.5	3.03e+01	61	41	0	1107296256	50	6317
2026-01-24 03:08:46.64	330.35	12.69	-38.0	-39.2	28.6	3.03e+01	42	41	0	1109393408	50	6251
2026-01-24 03:08:47.65	330.44	12.60	-38.1	-39.4	28.5	3.03e+01	58	41	0	1110966272	50	6352
2026-01-24 03:08:48.66	330.53	12.50	-37.9	-39.1	28.7	3.03e+01	58	41	0	1113063424	50	6183
2026-01-24 03:08:49.67	330.62	12.41	-38.2	-39.5	28.4	3.03e+01	58	41	0	1115160576	50	6464
2026-01-24 03:08:50.67	330.71	12.31	-38.2	-39.4	28.4	3.03e+01	58	41	0	1116733440	50	6419
2026-01-24 03:08:51.69	330.80	12.21	-38.0	-39.3	28.6	3.03e+01	53	41	0	1118830592	50	6293
2026-01-24 03:08:52.70	330.89	12.12	-37.9	-39.2	28.7	3.03e+01	58	41	0	1120403456	50	6206
2026-01-24 03:08:53.71	330.98	12.03	-38.0	-39.3	28.6	3.03e+01	57	41	0	1122500608	50	6287
2026-01-24 03:08:54.71	331.06	11.93	-38.1	-39.4	28.6	3.03e+01	44	41	0	1124597760	50	6379
2026-01-24 03:08:55.73	331.15	11.84	-38.1	-39.3	28.6	3.03e+01	60	41	0	1126170624	50	6336
2026-01-24 03:08:56.73	331.24	11.74	-37.9	-39.1	28.7	3.03e+01	60	41	0	1128267776	50	6185
2026-01-24 03:08:57.74	331.32	11.65	-38.1	-39.4	28.5	3.03e+01	60	41	0	1129840640	50	6356
2026-01-24 03:08:58.75	331.41	11.56	-38.0	-39.3	28.6	3.03e+01	61	41	0	1131937792	50	6293
2026-01-24 03:08:59.76	331.49	11.47	-38.1	-39.4	28.4	3.03e+01	51	41	0	1134034944	50	6372
2026-01-24 03:09:00.77	331.58	11.37	-38.2	-39.4	28.5	3.03e+01	57	41	0	1135607808	50	6415
2026-01-24 03:09:01.78	331.66	11.28	-38.1	-39.4	28.4	3.03e+01	58	41	0	1137704960	50	6353
2026-01-24 03:09:02.79	331.75	11.19	-38.3	-39.6	28.3	3.03e+01	45	41	0	1139277824	50	6502
2026-01-24 03:09:03.80	331.83	11.10	-38.3	-39.6	28.4	3.03e+01	60	41	0	1141374976	50	6504
2026-01-24 03:09:04.80	331.91	11.01	-38.2	-39.5	28.3	3.03e+01	57	41	0	1143472128	50	6433
2026-01-24 03:09:05.81	331.99	10.92	-38.4	-39.7	28.2	3.03e+01	59	41	0	1145044992	50	6625
2026-01-24 03:09:06.82	332.07	10.83	-38.4	-39.7	28.2	3.03e+01	60	41	0	1147142144	50	6610
2026-01-24 03:09:07.83	332.15	10.74	-38.8	-40.1	27.8	3.03e+01	50	41	0	1148715008	50	6938
2026-01-24 03:09:08.84	332.23	10.65	-38.5	-39.7	28.2	3.03e+01	62	41	0	1150812160	52	5909
2026-01-24 03:09:09.85	332.31	10.56	-38.4	-39.7	28.2	3.03e+01	58	41	0	1152909312	52	5901
2026-01-24 03:09:10.86	332.39	10.47	-38.5	-39.8	28.1	3.03e+01	55	41	0	1154482176	52	5937
2026-01-24 03:09:11.87	332.47	10.38	-38.6	-39.9	28.0	3.03e+01	59	41	0	1156579328	52	6027
2026-01-24 03:09:12.88	332.55	10.29	-38.5	-39.7	28.2	3.03e+01	60	41	0	1158152192	52	5905
2026-01-24 03:09:13.88	332.63	10.21	-38.5	-39.7	28.1	3.03e+01	57	41	0	1160249344	52	5913
2026-01-24 03:09:14.89	332.70	10.12	-38.5	-39.8	28.1	3.03e+01	61	41	0	1162346496	52	5934
2026-01-24 03:09:15.90	332.78	10.03	-38.7	-40.0	27.8	3.03e+01	54	41	0	1163919360	52	6104
2026-01-24 03:09:16.91	332.86	9.95	-38.9	-40.3	27.6	3.03e+01	56	41	0	1166016512	52	6286
2026-01-24 03:09:17.92	332.93	9.86	-38.7	-40.0	27.9	3.03e+01	60	41	0	1168113664	52	6095
2026-01-24 03:09:18.93	333.01	9.77	-38.8	-40.1	27.8	3.03e+01	58	41	0	1169686528	52	6150
2026-01-24 03:09:19.94	333.08	9.69	-39.0	-40.4	27.4	3.03e+01	60	41	0	1171783680	52	6354
2026-01-24 03:09:20.95	333.16	9.60	-39.0	-40.3	27.5	3.03e+01	45	41	0	1173356544	52	6294
2026-01-24 03:09:21.95	333.23	9.52	-38.8	-40.2	27.7	3.03e+01	55	41	0	1175453696	52	6214
2026-01-24 03:09:22.96	333.31	9.43	-38.9	-40.3	27.6	3.03e+01	57	41	0	1177550848	52	6290
2026-01-24 03:09:23.97	333.38	9.35	-38.8	-40.1	27.7	3.03e+01	48	41	0	1179123712	52	6164
2026-01-24 03:09:24.98	333.45	9.26	-38.9	-40.2	27.7	3.03e+01	48	41	0	1181220864	52	6249
2026-01-24 03:09:25.99	333.53	9.18	-39.0	-40.4	27.5	3.03e+01	58	41	0	1182793728	52	6371
2026-01-24 03:09:27.00	333.60	9.09	-39.1	-40.5	27.4	3.03e+01	60	41	0	1184890880	52	6439
2026-01-24 03:09:28.01	333.67	9.01	-39.3	-40.6	27.3	3.03e+01	62	41	0	1186988032	52	6556
2026-01-24 03:09:29.02	333.74	8.93	-39.2	-40.6	27.4	3.03e+01	57	41	0	1188560896	52	6519
2026-01-24 03:09:30.03	333.81	8.84	-39.2	-40.6	27.2	3.03e+01	55	41	0	1190658048	52	6520
