passes_logs/2026/01/24/R4.6S_Anadyr/R4.6S_Anadyr__20260124_013041_SUOMI_NPP_rec.log

#Pass ID: 20260124_013041_SUOMI NPP
#Satellite: SUOMI NPP
#Configuration: NPP
#almurnet v.1.7.20251203
#Start time: 2026-01-24 01:34:07

#Version: 2.2.20231116
#Station: R4.6S_Anadyr
#Location: 177.4865 lon 64.73178 lat
#TLE: 1 37849U 11061A   26023.63275593  .00000212  00000+0  12133-3 0  9990
#TLE: 2 37849  98.7820 325.6074 0002234  48.9695 311.1673 14.19528901737937

#Time	Az	El	Level	Level2	SNR	BER	BlckErr	Temp	State	Recorded	gain1	gain2
2026-01-24 01:34:07.05	200.19	14.79	-51.9	-69.5	3.5	3.03e+01	0	41	0	0	60	115469
2026-01-24 01:34:08.05	200.30	14.88	-51.4	-66.6	3.6	1.51e+00	0	42	104	0	60	77707
2026-01-24 01:34:09.06	200.40	14.98	-51.3	-66.6	3.6	1.51e+00	0	42	104	0	60	77026
2026-01-24 01:34:10.07	200.51	15.07	-51.2	-66.5	3.6	1.51e+00	0	42	104	0	60	76328
2026-01-24 01:34:11.08	200.61	15.17	-51.2	-66.5	3.6	1.51e+00	0	42	104	0	60	76030
2026-01-24 01:34:12.09	200.72	15.26	-51.3	-66.5	3.6	1.51e+00	0	42	104	0	60	76215
2026-01-24 01:34:13.10	200.82	15.36	-51.3	-66.5	3.6	1.51e+00	0	42	104	0	60	76173
2026-01-24 01:34:14.11	200.93	15.45	-51.3	-66.4	3.6	1.51e+00	0	42	104	0	60	75634
2026-01-24 01:34:15.12	201.04	15.55	-51.2	-66.5	3.6	1.51e+00	0	42	104	0	60	75995
2026-01-24 01:34:16.13	201.15	15.65	-51.2	-66.5	3.6	1.51e+00	0	41	104	0	60	75985
2026-01-24 01:34:17.14	201.26	15.74	-51.2	-66.4	3.6	1.51e+00	0	42	104	0	60	75807
2026-01-24 01:34:18.15	201.37	15.84	-51.2	-66.4	3.6	1.51e+00	0	42	104	0	60	75926
2026-01-24 01:34:19.16	201.48	15.94	-51.2	-66.4	3.6	1.51e+00	0	41	104	0	60	75574
2026-01-24 01:34:20.16	201.59	16.03	-51.2	-66.4	3.6	1.51e+00	0	42	104	0	60	75501
2026-01-24 01:34:21.18	201.70	16.13	-51.2	-66.3	3.6	1.51e+00	0	41	104	0	60	75084
2026-01-24 01:34:22.19	201.82	16.23	-51.0	-66.3	3.6	1.51e+00	0	42	104	0	60	74924
2026-01-24 01:34:23.20	201.93	16.33	-50.9	-66.2	3.6	1.51e+00	0	42	104	0	60	73611
2026-01-24 01:34:24.20	202.04	16.43	-50.9	-66.1	3.6	1.51e+00	0	41	104	0	60	73040
2026-01-24 01:34:25.21	202.16	16.53	-50.9	-66.1	3.6	1.51e+00	0	41	104	0	60	72844
2026-01-24 01:34:26.22	202.27	16.62	-50.9	-66.1	3.6	1.51e+00	0	41	104	0	60	73272
2026-01-24 01:34:27.23	202.39	16.72	-50.9	-66.2	3.6	1.51e+00	0	42	104	0	60	73385
2026-01-24 01:34:28.24	202.51	16.82	-50.8	-66.1	3.6	1.51e+00	0	41	104	0	60	73334
2026-01-24 01:34:29.25	202.63	16.92	-50.9	-66.1	3.6	1.51e+00	0	42	104	0	60	72836
2026-01-24 01:34:30.26	202.75	17.03	-50.8	-66.2	3.6	1.51e+00	0	42	104	0	60	73595
2026-01-24 01:34:31.27	202.86	17.13	-50.8	-66.1	3.6	1.51e+00	0	42	104	0	60	72935
2026-01-24 01:34:32.28	202.99	17.23	-50.8	-66.1	3.6	1.51e+00	0	42	104	0	60	72681
2026-01-24 01:34:33.29	203.11	17.33	-50.8	-65.9	3.6	1.51e+00	0	42	104	0	60	71531
2026-01-24 01:34:34.30	203.23	17.43	-50.8	-65.9	3.6	1.51e+00	0	42	104	0	60	71325
2026-01-24 01:34:35.31	203.35	17.53	-50.8	-66.0	3.6	1.51e+00	0	42	104	0	60	71928
2026-01-24 01:34:36.32	203.47	17.63	-50.8	-66.1	3.6	1.51e+00	0	42	104	0	60	72701
2026-01-24 01:34:37.33	203.60	17.74	-50.8	-66.1	3.6	1.51e+00	0	42	104	0	60	73171
2026-01-24 01:34:38.34	203.72	17.84	-50.8	-66.2	3.6	1.51e+00	0	42	104	0	60	73605
2026-01-24 01:34:39.35	203.85	17.94	-50.8	-66.1	3.6	1.51e+00	0	42	104	0	60	73050
2026-01-24 01:34:40.36	203.98	18.05	-50.8	-66.1	3.6	1.51e+00	0	42	104	0	60	73094
2026-01-24 01:34:41.37	204.11	18.15	-50.8	-66.1	3.6	1.51e+00	0	42	104	0	60	73377
2026-01-24 01:34:42.38	204.23	18.25	-50.8	-66.1	3.6	1.51e+00	0	42	104	0	60	72922
2026-01-24 01:34:43.39	204.36	18.36	-50.8	-66.2	3.6	1.51e+00	0	42	104	0	60	73460
2026-01-24 01:34:44.39	204.49	18.46	-50.8	-66.1	3.6	1.51e+00	0	42	104	0	60	73370
2026-01-24 01:34:45.40	204.62	18.57	-50.8	-66.1	3.6	1.51e+00	0	42	104	0	60	72736
2026-01-24 01:34:46.41	204.76	18.67	-50.8	-66.0	3.6	1.51e+00	0	42	104	0	60	72181
2026-01-24 01:34:47.42	204.89	18.78	-50.8	-66.1	3.5	1.51e+00	0	42	104	0	60	73031
2026-01-24 01:34:48.43	205.02	18.88	-50.8	-66.1	3.6	1.51e+00	0	42	104	0	60	73288
2026-01-24 01:34:49.44	205.16	18.99	-50.8	-66.1	3.6	1.51e+00	0	42	104	0	60	72786
2026-01-24 01:34:50.45	205.29	19.10	-50.8	-66.0	3.6	1.51e+00	0	42	104	0	60	72454
2026-01-24 01:34:51.46	205.43	19.20	-50.8	-66.0	3.6	1.51e+00	0	42	104	0	60	72424
2026-01-24 01:34:52.47	205.57	19.31	-50.8	-66.1	3.6	1.51e+00	0	42	104	0	60	73254
2026-01-24 01:34:53.48	205.70	19.42	-50.8	-66.0	3.6	1.51e+00	0	42	104	0	60	72326
2026-01-24 01:34:54.49	205.84	19.53	-50.8	-65.7	3.6	1.51e+00	0	42	104	0	60	69882
2026-01-24 01:34:55.50	205.98	19.63	-50.8	-65.9	3.6	1.51e+00	0	42	104	0	60	71567
2026-01-24 01:34:56.51	206.13	19.74	-50.8	-66.1	3.6	1.51e+00	0	42	104	0	60	72577
2026-01-24 01:34:57.52	206.27	19.85	-50.8	-65.7	3.6	1.51e+00	0	42	104	0	60	69691
2026-01-24 01:34:58.52	206.41	19.96	-50.8	-66.1	3.6	1.51e+00	0	42	104	0	60	72545
2026-01-24 01:34:59.53	206.55	20.07	-50.7	-63.9	3.6	1.51e+00	0	42	104	0	60	56808
2026-01-24 01:35:00.54	206.70	20.18	-50.6	-61.6	4.4	1.24e+00	92	42	104	0	60	43325
2026-01-24 01:35:01.56	206.85	20.29	-50.7	-64.7	3.6	1.41e+00	0	42	104	0	60	62258
2026-01-24 01:35:02.57	206.99	20.40	-49.5	-55.5	9.5	1.47e+00	92	42	104	0	60	21604
2026-01-24 01:35:03.58	207.14	20.51	-46.4	-48.7	16.9	1.50e-06	0	42	0	0	60	9859
2026-01-24 01:35:04.59	207.29	20.62	-43.6	-45.0	20.2	0.00e+00	92	42	0	2097152	60	6435
2026-01-24 01:35:05.60	207.44	20.73	-46.1	-48.4	11.4	0.00e+00	5	42	0	4194304	58	10725
2026-01-24 01:35:06.61	207.59	20.84	-43.7	-45.0	17.7	4.13e-02	92	42	0	6291456	60	6462
2026-01-24 01:35:07.62	207.75	20.96	-42.7	-43.9	20.4	2.17e-01	92	42	0	8388608	58	6351
2026-01-24 01:35:08.63	207.90	21.07	-50.5	-59.1	4.7	1.50e-06	0	42	0	9437184	60	32701
2026-01-24 01:35:09.64	208.05	21.18	-42.3	-43.5	19.4	2.08e-02	89	42	104	9437184	60	5406
2026-01-24 01:35:10.65	208.21	21.29	-43.7	-45.1	19.7	0.00e+00	0	42	0	10485760	60	6529
2026-01-24 01:35:11.66	208.37	21.41	-42.8	-44.0	20.8	0.00e+00	92	42	0	12582912	60	5743
2026-01-24 01:35:12.67	208.52	21.52	-41.8	-42.8	21.9	0.00e+00	49	42	0	14680064	58	5623
2026-01-24 01:35:13.68	208.68	21.63	-41.8	-42.9	21.8	0.00e+00	92	42	0	15728640	56	6340
2026-01-24 01:35:14.69	208.84	21.75	-41.4	-42.5	22.2	0.00e+00	92	42	0	17825792	56	6052
2026-01-24 01:35:15.70	209.00	21.86	-41.3	-42.3	22.2	0.00e+00	0	42	0	19922944	56	5903
2026-01-24 01:35:16.71	209.17	21.97	-41.2	-42.2	22.3	0.00e+00	87	42	0	22020096	56	5882
2026-01-24 01:35:17.72	209.33	22.09	-40.8	-41.8	22.7	0.00e+00	0	42	0	24117248	56	5594
2026-01-24 01:35:18.73	209.50	22.20	-40.7	-41.6	22.9	0.00e+00	92	42	0	25165824	56	5486
2026-01-24 01:35:19.74	209.66	22.32	-40.6	-41.6	22.9	0.00e+00	17	42	0	27262976	54	6118
2026-01-24 01:35:20.74	209.83	22.43	-40.6	-41.6	22.6	0.00e+00	95	42	0	29360128	54	6107
2026-01-24 01:35:21.75	210.00	22.55	-40.6	-41.6	22.7	0.00e+00	92	42	0	31457280	54	6114
2026-01-24 01:35:22.76	210.17	22.67	-40.8	-41.8	22.5	0.00e+00	0	42	0	33554432	54	6313
2026-01-24 01:35:23.77	210.34	22.78	-41.1	-42.1	22.4	0.00e+00	73	42	0	34603008	54	6487
2026-01-24 01:35:24.78	210.51	22.90	-41.1	-42.2	22.4	0.00e+00	0	42	0	36700160	54	6548
2026-01-24 01:35:25.79	210.68	23.01	-41.7	-42.8	21.8	0.00e+00	92	42	0	38797312	54	7016
2026-01-24 01:35:26.80	210.86	23.13	-42.0	-43.1	21.7	0.00e+00	0	42	0	40894464	56	6514
2026-01-24 01:35:27.81	211.03	23.25	-42.0	-43.1	21.5	0.00e+00	92	42	0	42991616	56	6533
2026-01-24 01:35:28.82	211.21	23.37	-42.1	-43.3	21.6	0.00e+00	92	42	0	45088768	56	6647
2026-01-24 01:35:29.83	211.39	23.48	-41.9	-43.0	21.7	0.00e+00	0	42	0	46137344	56	6450
2026-01-24 01:35:30.84	211.57	23.60	-41.6	-42.7	22.0	0.00e+00	92	42	0	48234496	56	6218
2026-01-24 01:35:31.85	211.75	23.72	-41.5	-42.5	22.2	0.00e+00	0	42	0	50331648	56	6099
2026-01-24 01:35:32.86	211.93	23.84	-41.2	-42.2	22.2	0.00e+00	92	41	0	52428800	56	5851
2026-01-24 01:35:33.87	212.12	23.96	-41.2	-42.2	22.6	0.00e+00	0	41	0	54525952	56	5883
2026-01-24 01:35:34.88	212.30	24.08	-41.0	-42.0	22.7	0.00e+00	92	41	0	55574528	56	5712
2026-01-24 01:35:35.89	212.49	24.20	-40.8	-41.8	22.6	0.00e+00	90	42	0	57671680	54	6289
2026-01-24 01:35:36.90	212.68	24.32	-41.0	-42.0	22.6	0.00e+00	66	42	0	59768832	54	6441
2026-01-24 01:35:37.91	212.86	24.44	-41.1	-42.1	22.4	0.00e+00	92	42	0	61865984	54	6478
2026-01-24 01:35:38.91	213.05	24.56	-41.2	-42.2	22.3	0.00e+00	0	42	0	63963136	54	6596
2026-01-24 01:35:39.92	213.25	24.68	-41.2	-42.2	22.4	0.00e+00	92	42	0	65011712	54	6594
2026-01-24 01:35:40.93	213.44	24.80	-41.2	-42.2	22.4	0.00e+00	0	42	0	67108864	54	6580
2026-01-24 01:35:41.94	213.63	24.92	-40.9	-41.9	22.5	0.00e+00	92	42	0	69206016	54	6376
2026-01-24 01:35:42.95	213.83	25.04	-40.8	-41.8	22.7	0.00e+00	0	42	0	71303168	54	6250
2026-01-24 01:35:43.96	214.03	25.16	-40.4	-41.3	23.1	0.00e+00	92	42	0	73400320	54	5932
2026-01-24 01:35:44.97	214.23	25.28	-40.3	-41.2	23.1	0.00e+00	92	42	0	74448896	54	5889
2026-01-24 01:35:45.98	214.43	25.40	-40.2	-41.1	23.1	0.00e+00	0	42	0	76546048	54	5793
2026-01-24 01:35:46.99	214.63	25.52	-39.8	-40.7	22.7	0.00e+00	91	42	0	78643200	54	5552
2026-01-24 01:35:48.00	214.84	25.65	-40.1	-41.0	23.2	0.00e+00	0	42	0	80740352	54	5712
2026-01-24 01:35:49.01	215.04	25.77	-40.0	-40.9	23.3	0.00e+00	92	42	0	82837504	54	5651
2026-01-24 01:35:50.01	215.25	25.89	-40.0	-40.9	23.3	0.00e+00	66	42	0	83886080	54	5688
2026-01-24 01:35:51.03	215.46	26.01	-40.4	-41.4	23.1	0.00e+00	92	42	0	85983232	54	6006
2026-01-24 01:35:52.03	215.67	26.13	-40.8	-41.8	22.6	0.00e+00	92	42	0	88080384	54	6271
2026-01-24 01:35:53.05	215.88	26.26	-41.0	-42.1	22.3	0.00e+00	0	42	0	90177536	54	6468
2026-01-24 01:35:54.06	216.09	26.38	-41.2	-42.2	22.4	0.00e+00	83	41	0	92274688	54	6602
2026-01-24 01:35:55.07	216.31	26.50	-41.6	-42.7	22.0	0.00e+00	0	42	0	93323264	54	6952
2026-01-24 01:35:56.07	216.52	26.63	-41.0	-42.0	22.5	0.00e+00	73	42	0	95420416	54	6413
2026-01-24 01:35:57.08	216.74	26.75	-41.0	-41.9	22.6	0.00e+00	0	42	0	97517568	54	6386
2026-01-24 01:35:58.09	216.96	26.87	-40.8	-41.8	22.7	0.00e+00	92	41	0	99614720	54	6275
2026-01-24 01:35:59.10	217.18	27.00	-40.8	-41.8	22.7	0.00e+00	63	42	0	101711872	54	6293
2026-01-24 01:36:00.11	217.41	27.12	-40.9	-41.9	22.8	0.00e+00	0	41	0	102760448	54	6318
2026-01-24 01:36:01.12	217.63	27.24	-41.1	-42.1	22.5	0.00e+00	74	42	0	104857600	54	6475
2026-01-24 01:36:02.13	217.86	27.37	-41.1	-42.1	22.4	0.00e+00	33	42	0	106954752	54	6507
2026-01-24 01:36:03.14	218.09	27.49	-41.7	-42.8	21.9	0.00e+00	90	41	0	109051904	54	7038
2026-01-24 01:36:04.15	218.32	27.62	-41.6	-42.6	22.0	0.00e+00	0	41	0	111149056	54	6908
2026-01-24 01:36:05.16	218.55	27.74	-42.0	-43.1	21.8	0.00e+00	92	42	0	112197632	56	6528
2026-01-24 01:36:06.17	218.78	27.86	-42.2	-43.3	21.6	0.00e+00	85	42	0	114294784	56	6677
2026-01-24 01:36:07.18	219.02	27.99	-41.6	-42.7	22.1	0.00e+00	0	42	0	116391936	56	6211
2026-01-24 01:36:08.19	219.25	28.11	-41.6	-42.7	22.2	0.00e+00	92	42	0	118489088	56	6210
2026-01-24 01:36:09.20	219.49	28.24	-41.6	-42.7	22.0	0.00e+00	0	42	0	120586240	56	6217
2026-01-24 01:36:10.21	219.73	28.36	-41.4	-42.4	22.3	0.00e+00	92	42	0	121634816	56	5992
2026-01-24 01:36:11.22	219.98	28.49	-41.3	-42.3	22.4	0.00e+00	0	42	0	123731968	56	5945
2026-01-24 01:36:12.23	220.22	28.61	-41.8	-42.9	22.0	0.00e+00	92	42	0	125829120	56	6338
2026-01-24 01:36:13.24	220.47	28.73	-41.8	-42.9	21.9	0.00e+00	89	42	0	127926272	56	6353
2026-01-24 01:36:14.25	220.72	28.86	-41.8	-42.9	21.8	0.00e+00	0	42	0	130023424	56	6365
2026-01-24 01:36:15.26	220.97	28.98	-41.7	-42.8	22.1	0.00e+00	90	42	0	131072000	56	6269
2026-01-24 01:36:16.27	221.22	29.11	-41.8	-42.9	22.0	0.00e+00	0	42	0	133169152	56	6348
2026-01-24 01:36:17.28	221.47	29.23	-41.5	-42.6	22.2	0.00e+00	85	41	0	135266304	56	6137
2026-01-24 01:36:18.29	221.73	29.36	-41.2	-42.2	22.5	0.00e+00	0	42	0	137363456	56	5881
2026-01-24 01:36:19.30	221.99	29.48	-41.5	-42.6	22.3	0.00e+00	92	42	0	139460608	56	6112
2026-01-24 01:36:20.31	222.25	29.60	-41.6	-42.7	22.2	0.00e+00	0	42	0	141557760	56	6185
2026-01-24 01:36:21.32	222.51	29.73	-41.7	-42.8	21.9	0.00e+00	92	41	0	142606336	56	6285
2026-01-24 01:36:22.33	222.77	29.85	-41.4	-42.4	22.3	0.00e+00	92	41	0	144703488	56	6031
2026-01-24 01:36:23.34	223.04	29.98	-41.5	-42.5	22.2	0.00e+00	0	41	0	146800640	56	6095
2026-01-24 01:36:24.35	223.31	30.10	-41.7	-42.7	22.1	0.00e+00	92	42	0	148897792	56	6229
2026-01-24 01:36:25.36	223.58	30.22	-41.9	-43.0	21.7	0.00e+00	0	42	0	150994944	56	6427
2026-01-24 01:36:26.37	223.85	30.35	-42.3	-43.5	21.2	0.00e+00	92	42	0	152043520	56	6791
2026-01-24 01:36:27.37	224.12	30.47	-42.8	-44.0	21.0	0.00e+00	17	42	0	154140672	56	7237
2026-01-24 01:36:28.38	224.39	30.59	-43.0	-44.3	20.8	0.00e+00	92	42	0	156237824	58	6641
2026-01-24 01:36:29.39	224.67	30.71	-42.8	-44.1	20.8	0.00e+00	92	41	0	158334976	58	6513
2026-01-24 01:36:30.40	224.95	30.84	-42.7	-44.0	21.0	0.00e+00	0	42	0	160432128	58	6418
2026-01-24 01:36:31.41	225.23	30.96	-42.5	-43.7	21.1	0.00e+00	92	42	0	161480704	58	6193
2026-01-24 01:36:32.42	225.52	31.08	-42.4	-43.6	21.4	0.00e+00	0	42	0	163577856	58	6128
2026-01-24 01:36:33.42	225.80	31.20	-42.8	-44.0	20.9	0.00e+00	86	42	0	165675008	58	6452
2026-01-24 01:36:34.43	226.09	31.32	-42.9	-44.2	20.9	0.00e+00	0	42	0	167772160	58	6572
2026-01-24 01:36:35.44	226.38	31.44	-43.0	-44.3	20.7	0.00e+00	92	42	0	169869312	58	6654
2026-01-24 01:36:36.45	226.67	31.56	-43.6	-45.0	20.2	0.00e+00	92	42	0	170917888	58	7182
2026-01-24 01:36:37.46	226.97	31.69	-44.1	-45.6	19.5	0.00e+00	0	42	0	173015040	60	6908
2026-01-24 01:36:38.47	227.27	31.81	-44.3	-45.8	19.4	0.00e+00	84	42	0	175112192	60	7048
2026-01-24 01:36:39.48	227.57	31.93	-45.1	-46.9	18.3	0.00e+00	0	42	0	177209344	60	7974
2026-01-24 01:36:40.49	227.87	32.04	-45.7	-47.7	17.6	0.00e+00	71	42	0	179306496	60	8746
2026-01-24 01:36:41.50	228.17	32.16	-45.7	-47.6	17.8	0.00e+00	0	41	0	180355072	60	8716
2026-01-24 01:36:42.51	228.48	32.28	-45.5	-47.5	18.3	0.00e+00	92	42	0	182452224	60	8547
2026-01-24 01:36:43.52	228.78	32.40	-44.9	-46.6	18.9	0.00e+00	92	42	0	184549376	60	7719
2026-01-24 01:36:44.53	229.09	32.52	-44.9	-46.6	18.9	0.00e+00	0	42	0	186646528	60	7743
2026-01-24 01:36:45.54	229.41	32.64	-44.4	-45.9	19.4	0.00e+00	92	42	0	188743680	60	7165
2026-01-24 01:36:46.55	229.72	32.75	-44.4	-46.0	19.3	0.00e+00	0	42	0	189792256	60	7171
2026-01-24 01:36:47.56	230.04	32.87	-45.1	-46.8	18.7	0.00e+00	77	42	0	191889408	60	7874
2026-01-24 01:36:48.56	230.35	32.99	-45.8	-47.8	17.6	0.00e+00	0	42	0	193986560	60	8854
2026-01-24 01:36:49.57	230.67	33.10	-46.1	-48.2	17.2	0.00e+00	92	42	0	196083712	60	9333
2026-01-24 01:36:50.58	231.00	33.22	-46.4	-48.6	16.8	0.00e+00	92	42	0	198180864	60	9726
2026-01-24 01:36:51.59	231.32	33.33	-46.7	-49.0	16.4	0.00e+00	5	42	0	199229440	60	10238
2026-01-24 01:36:52.60	231.65	33.44	-46.8	-49.3	15.9	0.00e+00	92	42	0	201326592	60	10519
2026-01-24 01:36:53.61	231.98	33.56	-46.8	-49.3	16.2	0.00e+00	0	42	0	203423744	60	10570
2026-01-24 01:36:54.62	232.31	33.67	-46.3	-48.5	17.2	0.00e+00	90	42	0	205520896	60	9598
2026-01-24 01:36:55.63	232.65	33.78	-45.8	-47.8	17.7	0.00e+00	0	42	0	207618048	60	8846
2026-01-24 01:36:56.64	232.99	33.89	-45.6	-47.4	18.2	0.00e+00	92	42	0	209715200	60	8494
2026-01-24 01:36:57.65	233.32	34.00	-46.0	-48.1	17.6	0.00e+00	0	42	0	210763776	60	9157
2026-01-24 01:36:58.66	233.67	34.11	-46.1	-48.1	17.3	0.00e+00	0	42	0	212860928	60	9223
2026-01-24 01:36:59.67	234.01	34.22	-46.6	-48.8	16.1	0.00e+00	92	42	0	214958080	60	9941
2026-01-24 01:37:00.67	234.35	34.33	-47.1	-49.6	15.9	0.00e+00	0	42	0	217055232	60	10944
2026-01-24 01:37:01.68	234.70	34.44	-46.9	-49.3	16.1	0.00e+00	90	42	0	219152384	60	10591
2026-01-24 01:37:02.69	235.05	34.54	-46.9	-49.3	16.4	0.00e+00	0	42	0	220200960	60	10606
2026-01-24 01:37:03.70	235.40	34.65	-46.5	-48.6	16.8	0.00e+00	92	42	0	222298112	60	9746
2026-01-24 01:37:04.71	235.76	34.75	-45.7	-47.6	17.8	0.00e+00	90	42	0	224395264	60	8641
2026-01-24 01:37:05.72	236.12	34.86	-45.7	-47.5	18.0	0.00e+00	92	42	0	226492416	60	8590
2026-01-24 01:37:06.73	236.47	34.96	-45.8	-47.8	17.6	0.00e+00	92	42	0	228589568	60	8836
2026-01-24 01:37:07.74	236.84	35.07	-45.6	-47.4	17.9	0.00e+00	0	42	0	229638144	60	8485
2026-01-24 01:37:08.75	237.20	35.17	-46.1	-48.1	17.4	0.00e+00	91	42	0	231735296	60	9229
2026-01-24 01:37:09.76	237.57	35.27	-45.8	-47.7	17.7	0.00e+00	0	42	0	233832448	60	8750
2026-01-24 01:37:10.77	237.93	35.37	-46.4	-48.5	17.0	0.00e+00	92	42	0	235929600	60	9610
2026-01-24 01:37:11.78	238.31	35.47	-46.0	-47.9	17.5	0.00e+00	2	42	0	238026752	60	8981
2026-01-24 01:37:12.79	238.68	35.56	-45.8	-47.7	17.7	0.00e+00	92	42	0	239075328	60	8738
2026-01-24 01:37:13.80	239.05	35.66	-45.6	-47.5	17.8	0.00e+00	90	42	0	241172480	60	8562
2026-01-24 01:37:14.81	239.43	35.76	-44.5	-46.0	19.4	0.00e+00	0	42	0	243269632	60	7214
2026-01-24 01:37:15.82	239.81	35.85	-43.2	-44.4	20.9	0.00e+00	92	42	0	245366784	60	6020
2026-01-24 01:37:16.83	240.19	35.94	-43.2	-44.4	20.9	0.00e+00	4	42	0	247463936	60	6001
2026-01-24 01:37:17.84	240.57	36.03	-43.0	-44.3	20.9	0.00e+00	64	42	0	248512512	60	5914
2026-01-24 01:37:18.85	240.96	36.13	-43.9	-45.3	20.2	0.00e+00	0	42	0	250609664	60	6625
2026-01-24 01:37:19.86	241.35	36.22	-43.6	-44.9	20.3	0.00e+00	91	42	0	252706816	60	6343
2026-01-24 01:37:20.87	241.74	36.30	-42.8	-44.0	21.2	0.00e+00	90	42	0	254803968	60	5720
2026-01-24 01:37:21.88	242.13	36.39	-42.2	-43.3	21.7	0.00e+00	0	42	0	256901120	58	5907
2026-01-24 01:37:22.89	242.52	36.48	-41.9	-43.0	21.8	0.00e+00	30	42	0	257949696	58	5724
2026-01-24 01:37:23.90	242.92	36.56	-41.9	-43.0	22.0	0.00e+00	0	42	0	260046848	56	6398
2026-01-24 01:37:24.91	243.32	36.65	-41.9	-42.9	22.1	0.00e+00	90	42	0	262144000	56	6373
2026-01-24 01:37:25.91	243.71	36.73	-42.1	-43.2	21.8	0.00e+00	0	42	0	264241152	56	6600
2026-01-24 01:37:26.92	244.12	36.81	-42.6	-43.8	21.4	0.00e+00	91	42	0	266338304	56	7027
2026-01-24 01:37:27.93	244.52	36.89	-42.5	-43.7	21.4	0.00e+00	91	42	0	267386880	56	6934
2026-01-24 01:37:28.94	244.93	36.97	-42.6	-43.7	21.4	0.00e+00	0	42	0	269484032	56	6948
2026-01-24 01:37:29.95	245.33	37.04	-42.3	-43.4	21.7	0.00e+00	92	42	0	271581184	56	6721
2026-01-24 01:37:30.96	245.74	37.12	-42.4	-43.5	21.7	0.00e+00	0	42	0	273678336	56	6792
2026-01-24 01:37:31.97	246.15	37.19	-42.0	-43.0	22.1	0.00e+00	92	42	0	275775488	56	6454
2026-01-24 01:37:32.98	246.57	37.26	-41.2	-42.2	22.6	0.00e+00	0	42	0	277872640	56	5847
2026-01-24 01:37:33.99	246.98	37.34	-41.3	-42.2	22.7	0.00e+00	91	42	0	278921216	56	5889
2026-01-24 01:37:35.00	247.40	37.41	-41.9	-42.9	22.1	0.00e+00	7	42	0	281018368	56	6374
2026-01-24 01:37:36.01	247.82	37.47	-42.3	-43.4	21.6	0.00e+00	0	42	0	283115520	56	6716
2026-01-24 01:37:37.02	248.24	37.54	-43.0	-44.2	21.1	0.00e+00	92	42	0	285212672	56	7386
2026-01-24 01:37:38.03	248.66	37.60	-42.7	-43.8	21.0	0.00e+00	0	42	0	287309824	58	6310
2026-01-24 01:37:39.04	249.08	37.67	-42.2	-43.3	21.7	0.00e+00	44	42	0	288358400	58	5943
2026-01-24 01:37:40.04	249.50	37.73	-42.3	-43.4	21.6	0.00e+00	0	42	0	290455552	58	6024
2026-01-24 01:37:41.06	249.94	37.79	-42.8	-44.0	21.2	0.00e+00	66	42	0	292552704	58	6422
2026-01-24 01:37:42.06	250.36	37.85	-42.9	-44.1	21.1	0.00e+00	0	42	0	294649856	58	6520
2026-01-24 01:37:43.07	250.79	37.90	-42.6	-43.8	21.4	0.00e+00	4	42	0	296747008	58	6285
2026-01-24 01:37:44.08	251.22	37.96	-41.7	-42.8	22.2	0.00e+00	92	42	0	297795584	58	5575
2026-01-24 01:37:45.09	251.65	38.01	-41.6	-42.6	22.3	0.00e+00	0	42	0	299892736	56	6124
2026-01-24 01:37:46.10	252.09	38.06	-41.3	-42.3	22.4	0.00e+00	90	42	0	301989888	56	5900
2026-01-24 01:37:47.11	252.52	38.11	-41.5	-42.5	22.5	0.00e+00	0	42	0	304087040	56	6039
2026-01-24 01:37:48.12	252.96	38.16	-41.5	-42.5	22.4	0.00e+00	92	42	0	306184192	56	6070
2026-01-24 01:37:49.13	253.40	38.21	-42.2	-43.4	21.8	0.00e+00	0	42	0	307232768	56	6693
2026-01-24 01:37:50.14	253.83	38.25	-42.4	-43.5	21.7	0.00e+00	91	42	0	309329920	56	6818
2026-01-24 01:37:51.15	254.27	38.29	-42.5	-43.6	21.6	0.00e+00	92	42	0	311427072	56	6923
2026-01-24 01:37:52.16	254.72	38.33	-42.7	-43.9	21.2	0.00e+00	0	42	0	313524224	56	7155
2026-01-24 01:37:53.17	255.16	38.37	-42.9	-44.2	21.0	0.00e+00	89	42	0	315621376	58	6560
2026-01-24 01:37:54.18	255.60	38.41	-42.8	-44.0	20.9	0.00e+00	0	42	0	316669952	58	6443
2026-01-24 01:37:55.19	256.05	38.45	-42.4	-43.6	21.6	0.00e+00	92	42	0	318767104	58	6127
2026-01-24 01:37:56.20	256.49	38.48	-41.6	-42.6	22.4	0.00e+00	30	42	0	320864256	58	5479
2026-01-24 01:37:57.21	256.94	38.51	-41.1	-42.1	22.8	0.00e+00	92	42	0	322961408	56	5796
2026-01-24 01:37:58.22	257.38	38.54	-41.3	-42.3	22.6	0.00e+00	45	42	0	325058560	56	5943
2026-01-24 01:37:59.23	257.83	38.57	-41.6	-42.7	22.2	0.00e+00	0	42	0	326107136	56	6211
2026-01-24 01:38:00.24	258.28	38.59	-42.0	-43.2	21.9	0.00e+00	87	42	0	328204288	56	6540
2026-01-24 01:38:01.25	258.73	38.62	-42.2	-43.3	21.8	0.00e+00	0	42	0	330301440	56	6647
2026-01-24 01:38:02.26	259.18	38.64	-42.9	-44.2	21.0	0.00e+00	87	42	0	332398592	58	6551
2026-01-24 01:38:03.27	259.63	38.66	-43.3	-44.6	20.6	0.00e+00	0	42	0	334495744	58	6881
2026-01-24 01:38:04.28	260.08	38.68	-43.3	-44.6	20.6	0.00e+00	92	42	0	335544320	58	6867
2026-01-24 01:38:05.29	260.53	38.69	-42.9	-44.1	21.1	0.00e+00	30	42	0	337641472	58	6492
2026-01-24 01:38:06.30	260.98	38.71	-42.3	-43.4	21.7	0.00e+00	0	42	0	339738624	58	5980
2026-01-24 01:38:07.31	261.43	38.72	-42.2	-43.3	21.7	0.00e+00	91	42	0	341835776	58	5899
2026-01-24 01:38:08.32	261.88	38.73	-42.2	-43.3	21.7	0.00e+00	0	42	0	343932928	58	5962
2026-01-24 01:38:09.32	262.33	38.74	-42.2	-43.3	21.8	0.00e+00	63	42	0	346030080	58	5926
2026-01-24 01:38:10.33	262.79	38.75	-42.3	-43.4	21.7	0.00e+00	0	42	0	347078656	58	5981
2026-01-24 01:38:11.34	263.24	38.75	-42.4	-43.5	21.5	0.00e+00	91	42	0	349175808	58	6054
2026-01-24 01:38:12.35	263.69	38.75	-43.8	-45.2	20.0	0.00e+00	89	42	0	351272960	58	7379
2026-01-24 01:38:13.36	264.14	38.75	-45.2	-46.9	18.6	0.00e+00	19	42	0	353370112	60	8030
2026-01-24 01:38:14.37	264.60	38.75	-45.7	-47.5	18.1	0.00e+00	92	42	0	355467264	60	8614
2026-01-24 01:38:15.38	265.05	38.75	-44.4	-45.9	19.7	0.00e+00	0	42	0	356515840	60	7130
2026-01-24 01:38:16.39	265.50	38.74	-43.1	-44.3	21.3	0.00e+00	53	42	0	358612992	60	5913
2026-01-24 01:38:17.40	265.95	38.74	-42.0	-43.0	22.1	0.00e+00	0	42	0	360710144	58	5735
2026-01-24 01:38:18.41	266.41	38.73	-41.5	-42.5	22.4	0.00e+00	92	42	0	362807296	56	6095
2026-01-24 01:38:19.42	266.86	38.72	-41.5	-42.5	22.5	0.00e+00	0	42	0	364904448	56	6061
2026-01-24 01:38:20.43	267.31	38.70	-41.2	-42.1	22.7	0.00e+00	92	42	0	365953024	56	5826
2026-01-24 01:38:21.44	267.76	38.69	-40.9	-41.9	22.9	0.00e+00	91	42	0	368050176	56	5662
2026-01-24 01:38:22.45	268.21	38.67	-40.7	-41.7	23.1	0.00e+00	0	42	0	370147328	54	6182
2026-01-24 01:38:23.46	268.66	38.65	-41.1	-42.0	22.8	0.00e+00	87	42	0	372244480	54	6441
2026-01-24 01:38:24.47	269.11	38.63	-41.3	-42.3	22.5	0.00e+00	0	42	0	374341632	54	6656
2026-01-24 01:38:25.48	269.56	38.61	-41.2	-42.2	22.7	0.00e+00	91	42	0	375390208	54	6548
2026-01-24 01:38:26.49	270.01	38.58	-40.7	-41.6	23.0	0.00e+00	0	42	0	377487360	54	6165
2026-01-24 01:38:27.50	270.46	38.56	-41.3	-42.3	22.5	0.00e+00	92	42	0	379584512	54	6666
2026-01-24 01:38:28.51	270.90	38.53	-41.7	-42.8	22.2	0.00e+00	90	42	0	381681664	54	7017
2026-01-24 01:38:29.51	271.34	38.50	-41.6	-42.6	22.4	0.00e+00	0	42	0	383778816	56	6164
2026-01-24 01:38:30.52	271.79	38.46	-41.3	-42.2	22.7	0.00e+00	31	42	0	384827392	56	5883
2026-01-24 01:38:31.53	272.23	38.43	-41.2	-42.1	22.7	0.00e+00	0	42	0	386924544	56	5807
2026-01-24 01:38:32.54	272.68	38.39	-41.3	-42.2	22.8	0.00e+00	92	42	0	389021696	56	5887
2026-01-24 01:38:33.55	273.12	38.36	-40.9	-41.8	23.1	0.00e+00	0	42	0	391118848	56	5618
2026-01-24 01:38:34.56	273.56	38.32	-40.5	-41.5	23.2	0.00e+00	92	42	0	393216000	54	6036
2026-01-24 01:38:35.57	274.00	38.27	-40.6	-41.5	23.1	0.00e+00	87	42	0	394264576	54	6042
2026-01-24 01:38:36.58	274.44	38.23	-41.1	-42.0	22.7	0.00e+00	0	42	0	396361728	54	6460
2026-01-24 01:38:37.59	274.88	38.19	-42.0	-43.0	22.0	0.00e+00	92	42	0	398458880	56	6431
2026-01-24 01:38:38.60	275.31	38.14	-42.3	-43.4	21.7	0.00e+00	0	42	0	400556032	56	6747
2026-01-24 01:38:39.61	275.75	38.09	-42.2	-43.3	21.7	0.00e+00	89	42	0	402653184	56	6667
2026-01-24 01:38:40.62	276.18	38.04	-42.1	-43.3	22.0	0.00e+00	0	42	0	403701760	56	6618
2026-01-24 01:38:41.63	276.62	37.99	-41.4	-42.4	22.6	0.00e+00	90	42	0	405798912	56	6018
2026-01-24 01:38:42.64	277.05	37.93	-41.7	-42.7	22.3	0.00e+00	0	42	0	407896064	56	6231
2026-01-24 01:38:43.65	277.48	37.88	-41.9	-43.0	22.0	0.00e+00	0	42	0	409993216	56	6437
2026-01-24 01:38:44.66	277.91	37.82	-42.1	-43.2	21.9	0.00e+00	91	42	0	412090368	56	6554
2026-01-24 01:38:45.67	278.33	37.76	-42.1	-43.2	21.9	0.00e+00	0	42	0	414187520	56	6553
2026-01-24 01:38:46.67	278.75	37.70	-42.4	-43.5	21.4	0.00e+00	91	42	0	415236096	56	6842
2026-01-24 01:38:47.68	279.18	37.64	-43.2	-44.5	20.6	0.00e+00	0	42	0	417333248	58	6824
2026-01-24 01:38:48.69	279.60	37.58	-44.5	-46.0	19.4	0.00e+00	90	42	0	419430400	60	7220
2026-01-24 01:38:49.70	280.02	37.51	-43.9	-45.3	20.4	0.00e+00	0	42	0	421527552	60	6630
2026-01-24 01:38:50.71	280.44	37.44	-42.0	-43.1	21.9	0.00e+00	0	42	0	423624704	58	5790
2026-01-24 01:38:51.72	280.85	37.38	-41.0	-41.9	22.9	0.00e+00	92	42	0	424673280	56	5684
2026-01-24 01:38:52.73	281.27	37.31	-41.3	-42.4	22.5	0.00e+00	0	42	0	426770432	56	5977
2026-01-24 01:38:53.74	281.68	37.23	-42.5	-43.7	21.5	0.00e+00	89	42	0	428867584	56	6965
2026-01-24 01:38:54.75	282.09	37.16	-43.0	-44.2	21.1	0.00e+00	0	42	0	430964736	58	6609
2026-01-24 01:38:55.76	282.50	37.09	-41.8	-42.8	22.3	0.00e+00	90	42	0	433061888	56	6282
2026-01-24 01:38:56.77	282.91	37.01	-41.7	-42.7	22.4	0.00e+00	0	42	0	434110464	56	6218
2026-01-24 01:38:57.78	283.32	36.93	-41.9	-43.0	22.2	0.00e+00	26	42	0	436207616	56	6409
2026-01-24 01:38:58.79	283.72	36.86	-42.6	-43.7	21.4	0.00e+00	92	42	0	438304768	56	6981
2026-01-24 01:38:59.80	284.12	36.78	-43.3	-44.6	20.6	0.00e+00	0	42	0	440401920	58	6888
2026-01-24 01:39:00.81	284.52	36.69	-43.8	-45.2	20.4	0.00e+00	92	42	0	442499072	60	6572
2026-01-24 01:39:01.82	284.92	36.61	-42.7	-43.8	21.5	0.00e+00	0	42	0	443547648	58	6274
2026-01-24 01:39:02.83	285.32	36.53	-42.0	-43.1	21.9	0.00e+00	92	42	0	445644800	58	5774
2026-01-24 01:39:03.84	285.71	36.44	-41.8	-42.8	22.3	0.00e+00	0	42	0	447741952	58	5627
2026-01-24 01:39:04.85	286.11	36.36	-42.1	-43.1	21.9	0.00e+00	92	42	0	449839104	56	6511
2026-01-24 01:39:05.86	286.50	36.27	-41.8	-42.8	22.2	0.00e+00	89	42	0	451936256	56	6309
2026-01-24 01:39:06.87	286.88	36.18	-41.8	-42.9	22.2	0.00e+00	0	42	0	452984832	56	6323
2026-01-24 01:39:07.88	287.27	36.09	-41.1	-42.0	22.8	0.00e+00	90	42	0	455081984	56	5734
2026-01-24 01:39:08.88	287.65	36.00	-40.3	-41.2	23.5	0.00e+00	0	42	0	457179136	54	5835
2026-01-24 01:39:09.90	288.03	35.91	-40.0	-40.8	23.7	0.00e+00	90	42	0	459276288	54	5621
2026-01-24 01:39:10.90	288.41	35.81	-40.5	-41.4	23.2	0.00e+00	0	42	0	461373440	54	6015
2026-01-24 01:39:11.91	288.79	35.72	-41.1	-42.1	22.6	0.00e+00	91	42	0	462422016	54	6509
2026-01-24 01:39:12.92	289.16	35.62	-41.2	-42.2	22.5	0.00e+00	13	42	0	464519168	54	6576
2026-01-24 01:39:13.93	289.54	35.53	-41.4	-42.4	22.4	0.00e+00	0	42	0	466616320	54	6733
2026-01-24 01:39:14.94	289.91	35.43	-41.6	-42.6	22.2	0.00e+00	91	42	0	468713472	54	6884
2026-01-24 01:39:15.95	290.28	35.33	-41.8	-42.8	22.1	0.00e+00	0	42	0	470810624	54	7064
2026-01-24 01:39:16.96	290.64	35.23	-42.4	-43.5	21.5	0.00e+00	46	42	0	471859200	56	6811
2026-01-24 01:39:17.97	291.01	35.13	-43.5	-44.8	20.5	0.00e+00	0	42	0	473956352	58	7032
2026-01-24 01:39:18.98	291.37	35.03	-44.9	-46.5	18.9	0.00e+00	90	42	0	476053504	60	7659
2026-01-24 01:39:19.99	291.73	34.93	-46.0	-48.0	17.4	0.00e+00	0	42	0	478150656	60	9097
2026-01-24 01:39:21.00	292.08	34.82	-45.7	-47.6	18.3	0.00e+00	31	42	0	480247808	60	8658
2026-01-24 01:39:22.01	292.44	34.72	-44.9	-46.6	19.0	0.00e+00	92	42	0	482344960	60	7705
2026-01-24 01:39:23.02	292.79	34.61	-44.6	-46.1	19.2	0.00e+00	0	42	0	483393536	60	7308
2026-01-24 01:39:24.03	293.14	34.51	-44.5	-45.9	19.5	0.00e+00	68	42	0	485490688	60	7162
2026-01-24 01:39:25.04	293.49	34.40	-45.3	-47.0	18.3	0.00e+00	0	42	0	487587840	60	8078
2026-01-24 01:39:26.05	293.84	34.29	-45.8	-47.7	17.8	0.00e+00	92	42	0	489684992	60	8742
2026-01-24 01:39:27.06	294.18	34.19	-45.6	-47.4	18.4	0.00e+00	0	42	0	491782144	60	8437
2026-01-24 01:39:28.07	294.52	34.08	-43.8	-45.2	20.3	0.00e+00	0	42	0	492830720	60	6544
2026-01-24 01:39:29.08	294.86	33.97	-43.4	-44.6	20.8	0.00e+00	92	42	0	494927872	60	6165
2026-01-24 01:39:30.09	295.20	33.86	-43.2	-44.4	20.9	0.00e+00	0	42	0	497025024	60	6014
2026-01-24 01:39:31.10	295.54	33.75	-44.1	-45.5	19.8	0.00e+00	90	42	0	499122176	60	6831
2026-01-24 01:39:32.11	295.87	33.64	-45.7	-47.5	18.1	0.00e+00	0	42	0	501219328	60	8588
2026-01-24 01:39:33.12	296.20	33.52	-46.3	-48.3	17.2	0.00e+00	92	42	0	502267904	60	9450
2026-01-24 01:39:34.13	296.53	33.41	-45.8	-47.6	18.1	0.00e+00	9	42	0	504365056	60	8664
2026-01-24 01:39:35.14	296.85	33.30	-44.5	-46.0	19.8	0.00e+00	0	42	0	506462208	60	7210
2026-01-24 01:39:36.15	297.18	33.18	-43.3	-44.5	21.0	0.00e+00	90	42	0	508559360	60	6035
2026-01-24 01:39:37.16	297.50	33.07	-43.1	-44.3	21.0	0.00e+00	30	42	0	510656512	60	5931
2026-01-24 01:39:38.17	297.82	32.95	-43.4	-44.7	20.8	0.00e+00	92	42	0	511705088	60	6180
2026-01-24 01:39:39.18	298.13	32.84	-44.3	-45.7	19.9	0.00e+00	0	42	0	513802240	60	6951
2026-01-24 01:39:40.19	298.45	32.72	-44.3	-45.7	20.1	0.00e+00	91	42	0	515899392	60	6947
2026-01-24 01:39:41.20	298.76	32.60	-43.6	-44.9	20.7	0.00e+00	0	42	0	517996544	60	6346
2026-01-24 01:39:42.20	299.07	32.49	-41.9	-42.9	22.2	0.00e+00	0	42	0	520093696	58	5653
2026-01-24 01:39:43.21	299.38	32.37	-41.3	-42.2	22.7	0.00e+00	91	42	0	521142272	56	5892
2026-01-24 01:39:44.23	299.69	32.25	-41.4	-42.3	22.6	0.00e+00	0	42	0	523239424	56	5962
2026-01-24 01:39:45.23	299.99	32.14	-42.2	-43.3	21.8	0.00e+00	12	42	0	525336576	56	6681
2026-01-24 01:39:46.24	300.29	32.02	-43.1	-44.3	20.9	0.00e+00	0	42	0	527433728	58	6685
2026-01-24 01:39:47.25	300.59	31.90	-43.3	-44.6	20.7	0.00e+00	99	42	0	529530880	58	6896
2026-01-24 01:39:48.26	300.88	31.78	-43.3	-44.5	20.9	0.00e+00	0	42	0	530579456	58	6848
2026-01-24 01:39:49.27	301.18	31.66	-42.1	-43.2	21.7	0.00e+00	92	42	0	532676608	58	5881
2026-01-24 01:39:50.28	301.47	31.54	-42.0	-43.1	21.9	0.00e+00	92	42	0	534773760	56	6500
2026-01-24 01:39:51.29	301.76	31.42	-42.1	-43.1	22.2	0.00e+00	0	42	0	536870912	56	6527
2026-01-24 01:39:52.30	302.05	31.30	-42.2	-43.3	21.8	0.00e+00	90	42	0	538968064	56	6631
2026-01-24 01:39:53.31	302.34	31.18	-41.9	-43.0	22.3	0.00e+00	0	42	0	540016640	56	6407
2026-01-24 01:39:54.32	302.62	31.05	-40.9	-41.9	23.0	0.00e+00	69	42	0	542113792	56	5643
2026-01-24 01:39:55.33	302.91	30.93	-39.9	-40.8	23.5	0.00e+00	0	42	0	544210944	54	5582
2026-01-24 01:39:56.34	303.19	30.81	-39.6	-40.4	23.9	0.00e+00	92	42	0	546308096	52	6014
2026-01-24 01:39:57.35	303.46	30.69	-38.8	-39.6	24.6	0.00e+00	90	42	0	548405248	52	5456
2026-01-24 01:39:58.36	303.74	30.57	-39.1	-39.9	24.3	0.00e+00	0	42	0	550502400	50	6375
2026-01-24 01:39:59.37	304.01	30.45	-40.3	-41.2	23.5	0.00e+00	92	42	0	551550976	52	6589
2026-01-24 01:40:00.37	304.28	30.32	-41.2	-42.2	22.7	0.00e+00	0	42	0	553648128	54	6563
2026-01-24 01:40:01.38	304.55	30.20	-41.3	-42.3	22.5	0.00e+00	71	42	0	555745280	54	6661
2026-01-24 01:40:02.40	304.82	30.08	-40.8	-41.8	23.0	0.00e+00	0	42	0	557842432	54	6274
2026-01-24 01:40:03.40	305.09	29.96	-40.3	-41.2	23.4	0.00e+00	92	42	0	559939584	54	5866
2026-01-24 01:40:04.41	305.35	29.83	-40.5	-41.4	23.2	0.00e+00	0	42	0	560988160	54	6021
2026-01-24 01:40:05.42	305.61	29.71	-40.6	-41.6	23.1	0.00e+00	0	42	0	563085312	54	6120
2026-01-24 01:40:06.43	305.87	29.59	-41.4	-42.5	22.4	0.00e+00	90	42	0	565182464	54	6797
2026-01-24 01:40:07.44	306.13	29.46	-42.4	-43.6	21.5	0.00e+00	0	42	0	567279616	56	6873
2026-01-24 01:40:08.45	306.39	29.34	-42.3	-43.5	21.6	0.00e+00	42	42	0	568328192	56	6784
2026-01-24 01:40:09.46	306.64	29.22	-42.0	-43.1	22.0	0.00e+00	0	42	0	570425344	56	6495
2026-01-24 01:40:10.47	306.90	29.09	-41.6	-42.7	22.5	0.00e+00	81	42	0	572522496	56	6181
2026-01-24 01:40:11.48	307.15	28.97	-40.3	-41.2	23.4	0.00e+00	0	42	0	574619648	54	5857
2026-01-24 01:40:12.49	307.39	28.85	-40.2	-41.0	23.6	0.00e+00	0	42	0	576716800	54	5750
2026-01-24 01:40:13.50	307.64	28.72	-40.4	-41.4	23.2	0.00e+00	92	42	0	578813952	54	5968
2026-01-24 01:40:14.51	307.89	28.60	-41.5	-42.5	22.2	0.00e+00	0	42	0	579862528	54	6835
2026-01-24 01:40:15.52	308.13	28.48	-42.4	-43.6	21.5	0.00e+00	28	42	0	581959680	56	6872
2026-01-24 01:40:16.53	308.37	28.35	-42.3	-43.4	21.4	0.00e+00	0	42	0	584056832	58	6011
2026-01-24 01:40:17.54	308.61	28.23	-41.4	-42.5	22.4	0.00e+00	85	42	0	586153984	56	6045
2026-01-24 01:40:18.55	308.85	28.10	-40.3	-41.2	23.4	0.00e+00	0	42	0	588251136	54	5862
2026-01-24 01:40:19.56	309.08	27.98	-39.8	-40.6	23.7	0.00e+00	0	42	0	589299712	54	5485
2026-01-24 01:40:20.57	309.32	27.86	-40.1	-40.9	23.6	0.00e+00	86	42	0	591396864	52	6374
2026-01-24 01:40:21.58	309.55	27.73	-40.7	-41.7	23.1	0.00e+00	0	42	0	593494016	52	6962
2026-01-24 01:40:22.58	309.78	27.61	-41.1	-42.2	22.6	0.00e+00	28	42	0	595591168	54	6541
2026-01-24 01:40:23.60	310.01	27.49	-40.9	-41.9	22.9	0.00e+00	0	42	0	597688320	54	6364
2026-01-24 01:40:24.61	310.24	27.36	-40.1	-41.0	23.5	0.00e+00	92	42	0	598736896	54	5703
2026-01-24 01:40:25.62	310.46	27.24	-39.7	-40.5	24.0	0.00e+00	0	42	0	600834048	54	5434
2026-01-24 01:40:26.63	310.69	27.12	-39.2	-40.0	24.3	0.00e+00	59	42	0	602931200	52	5741
2026-01-24 01:40:27.64	310.91	27.00	-38.7	-39.5	24.6	0.00e+00	0	42	0	605028352	50	6048
2026-01-24 01:40:28.65	311.13	26.87	-39.1	-39.9	24.2	0.00e+00	0	42	0	607125504	50	6382
2026-01-24 01:40:29.66	311.35	26.75	-40.0	-40.8	23.7	0.00e+00	43	42	0	608174080	52	6309
2026-01-24 01:40:30.67	311.56	26.63	-40.8	-41.8	22.9	0.00e+00	0	42	0	610271232	52	7041
2026-01-24 01:40:31.68	311.78	26.51	-41.6	-42.6	22.1	0.00e+00	87	42	0	612368384	54	6920
2026-01-24 01:40:32.69	311.99	26.38	-41.9	-43.0	22.0	0.00e+00	0	42	0	614465536	56	6431
2026-01-24 01:40:33.70	312.20	26.26	-41.5	-42.5	22.5	0.00e+00	74	42	0	616562688	56	6096
2026-01-24 01:40:34.71	312.42	26.14	-40.7	-41.6	23.1	0.00e+00	87	42	0	618659840	56	5483
2026-01-24 01:40:35.72	312.62	26.02	-40.0	-40.9	23.6	0.00e+00	0	42	0	619708416	54	5668
2026-01-24 01:40:36.73	312.83	25.90	-39.9	-40.8	23.6	0.00e+00	36	42	0	621805568	54	5581
2026-01-24 01:40:37.74	313.04	25.78	-40.3	-41.2	23.4	0.00e+00	0	42	0	623902720	54	5847
2026-01-24 01:40:38.75	313.24	25.65	-39.9	-40.8	23.5	0.00e+00	87	42	0	625999872	54	5620
2026-01-24 01:40:39.75	313.44	25.53	-40.5	-41.4	23.1	0.00e+00	0	42	0	628097024	54	5990
2026-01-24 01:40:40.76	313.64	25.41	-40.6	-41.5	23.0	0.00e+00	91	42	0	629145600	54	6088
2026-01-24 01:40:41.77	313.84	25.29	-40.4	-41.3	23.2	0.00e+00	0	42	0	631242752	54	5951
2026-01-24 01:40:42.78	314.04	25.17	-40.1	-41.1	23.5	0.00e+00	0	42	0	633339904	54	5768
2026-01-24 01:40:43.79	314.24	25.05	-39.9	-40.8	23.7	0.00e+00	86	42	0	635437056	54	5584
2026-01-24 01:40:44.80	314.44	24.93	-39.6	-40.4	23.9	0.00e+00	0	42	0	636485632	52	6021
2026-01-24 01:40:45.81	314.63	24.81	-39.1	-39.9	24.3	0.00e+00	73	42	0	638582784	52	5674
2026-01-24 01:40:46.82	314.82	24.69	-39.1	-39.9	24.0	0.00e+00	0	42	0	640679936	52	5684
2026-01-24 01:40:47.83	315.01	24.57	-38.8	-39.6	24.4	0.00e+00	78	42	0	642777088	52	5499
2026-01-24 01:40:48.84	315.20	24.45	-39.1	-39.9	24.1	0.00e+00	0	42	0	644874240	52	5673
2026-01-24 01:40:49.85	315.39	24.33	-39.3	-40.1	23.7	0.00e+00	0	42	0	646971392	52	5807
2026-01-24 01:40:50.86	315.58	24.22	-39.6	-40.5	23.8	0.00e+00	92	42	0	648019968	52	6064
2026-01-24 01:40:51.87	315.76	24.10	-40.0	-40.9	23.5	0.00e+00	0	42	0	650117120	52	6361
2026-01-24 01:40:52.88	315.95	23.98	-39.8	-40.7	23.7	0.00e+00	89	42	0	652214272	52	6183
2026-01-24 01:40:53.89	316.13	23.86	-39.6	-40.5	23.8	0.00e+00	0	42	0	654311424	52	6088
2026-01-24 01:40:54.90	316.31	23.74	-39.5	-40.3	23.9	0.00e+00	88	42	0	656408576	52	5949
2026-01-24 01:40:55.91	316.49	23.63	-39.4	-40.2	24.2	0.00e+00	0	42	0	657457152	52	5886
2026-01-24 01:40:56.92	316.67	23.51	-38.8	-39.6	24.6	0.00e+00	0	42	0	659554304	52	5475
2026-01-24 01:40:57.93	316.85	23.39	-38.5	-39.3	24.6	0.00e+00	86	42	0	661651456	50	5941
2026-01-24 01:40:58.94	317.03	23.28	-38.5	-39.3	24.6	0.00e+00	0	42	0	663748608	50	5919
2026-01-24 01:40:59.95	317.20	23.16	-38.5	-39.3	24.6	0.00e+00	0	42	0	665845760	50	5936
2026-01-24 01:41:00.96	317.37	23.04	-38.9	-39.7	24.3	0.00e+00	0	42	0	666894336	50	6196
2026-01-24 01:41:01.97	317.55	22.93	-39.0	-39.8	24.2	0.00e+00	90	42	0	668991488	50	6293
2026-01-24 01:41:02.98	317.72	22.81	-39.4	-40.2	23.9	0.00e+00	0	42	0	671088640	50	6613
2026-01-24 01:41:03.99	317.89	22.70	-39.6	-40.5	23.9	0.00e+00	89	42	0	673185792	50	6811
2026-01-24 01:41:05.00	318.06	22.58	-39.4	-40.3	23.8	0.00e+00	88	42	0	675282944	50	6623
2026-01-24 01:41:06.01	318.22	22.47	-39.6	-40.5	23.8	0.00e+00	0	42	0	676331520	50	6831
2026-01-24 01:41:07.02	318.39	22.35	-39.4	-40.3	23.9	0.00e+00	59	42	0	678428672	50	6674
2026-01-24 01:41:08.03	318.56	22.24	-39.3	-40.2	24.0	0.00e+00	0	42	0	680525824	50	6540
2026-01-24 01:41:09.04	318.72	22.12	-39.2	-40.0	24.1	0.00e+00	57	42	0	682622976	50	6453
2026-01-24 01:41:10.05	318.88	22.01	-39.0	-39.8	24.2	0.00e+00	0	42	0	684720128	50	6313
2026-01-24 01:41:11.06	319.05	21.90	-39.0	-39.9	24.1	0.00e+00	57	42	0	686817280	50	6344
2026-01-24 01:41:12.06	319.20	21.78	-39.1	-40.0	24.2	0.00e+00	88	42	0	687865856	50	6403
2026-01-24 01:41:13.07	319.36	21.67	-39.2	-40.0	24.1	0.00e+00	0	42	0	689963008	50	6463
2026-01-24 01:41:14.08	319.52	21.56	-39.2	-40.1	24.0	0.00e+00	58	42	0	692060160	50	6470
2026-01-24 01:41:15.09	319.68	21.45	-39.4	-40.3	23.9	0.00e+00	0	42	0	694157312	50	6635
2026-01-24 01:41:16.10	319.84	21.33	-39.5	-40.4	23.8	0.00e+00	92	42	0	695205888	50	6710
2026-01-24 01:41:17.11	319.99	21.22	-39.4	-40.3	24.0	0.00e+00	33	42	0	697303040	52	5903
2026-01-24 01:41:18.12	320.14	21.11	-39.6	-40.5	23.7	0.00e+00	86	42	0	699400192	52	6058
2026-01-24 01:41:19.13	320.30	21.00	-39.4	-40.2	24.0	0.00e+00	0	42	0	701497344	52	5888
2026-01-24 01:41:20.14	320.45	20.89	-39.3	-40.2	24.0	0.00e+00	0	42	0	703594496	52	5840
2026-01-24 01:41:21.15	320.60	20.78	-39.3	-40.2	23.9	0.00e+00	92	42	0	704643072	52	5856
2026-01-24 01:41:22.16	320.75	20.67	-39.2	-40.1	24.1	0.00e+00	0	42	0	706740224	52	5780
2026-01-24 01:41:23.17	320.90	20.56	-39.6	-40.4	23.8	0.00e+00	69	42	0	708837376	52	6018
2026-01-24 01:41:24.18	321.05	20.45	-39.3	-40.1	24.0	0.00e+00	33	42	0	710934528	52	5816
2026-01-24 01:41:25.19	321.19	20.34	-39.4	-40.2	23.9	0.00e+00	83	42	0	713031680	52	5896
2026-01-24 01:41:26.19	321.34	20.23	-39.6	-40.5	23.7	0.00e+00	0	42	0	715128832	52	6035
2026-01-24 01:41:27.20	321.48	20.12	-39.6	-40.5	23.9	0.00e+00	0	42	0	716177408	52	6050
2026-01-24 01:41:28.21	321.63	20.01	-39.5	-40.4	23.7	0.00e+00	77	42	0	718274560	52	5985
2026-01-24 01:41:29.22	321.77	19.90	-39.5	-40.4	23.8	0.00e+00	0	42	0	720371712	52	5995
2026-01-24 01:41:30.23	321.91	19.80	-39.6	-40.5	23.6	0.00e+00	89	42	0	722468864	52	6071
2026-01-24 01:41:31.24	322.05	19.69	-40.0	-40.9	23.4	0.00e+00	0	42	0	724566016	52	6383
2026-01-24 01:41:32.25	322.19	19.58	-40.0	-40.9	23.4	0.00e+00	89	42	0	725614592	52	6337
2026-01-24 01:41:33.26	322.33	19.48	-40.5	-41.5	22.9	0.00e+00	0	42	0	727711744	52	6797
2026-01-24 01:41:34.27	322.47	19.37	-40.7	-41.7	22.7	0.00e+00	0	42	0	729808896	54	6192
2026-01-24 01:41:35.28	322.61	19.26	-40.9	-41.9	22.5	0.00e+00	73	42	0	731906048	54	6364
2026-01-24 01:41:36.29	322.74	19.16	-41.4	-42.4	22.3	0.00e+00	0	42	0	734003200	54	6758
2026-01-24 01:41:37.30	322.88	19.05	-41.4	-42.4	22.1	0.00e+00	9	42	0	735051776	54	6750
2026-01-24 01:41:38.31	323.01	18.94	-41.2	-42.3	22.4	0.00e+00	0	42	0	737148928	54	6635
2026-01-24 01:41:39.32	323.14	18.84	-41.9	-43.0	21.7	0.00e+00	92	42	0	739246080	56	6438
2026-01-24 01:41:40.33	323.28	18.73	-41.5	-42.6	22.1	0.00e+00	0	42	0	741343232	56	6143
2026-01-24 01:41:41.34	323.41	18.63	-41.6	-42.7	22.0	0.00e+00	0	42	0	743440384	56	6217
2026-01-24 01:41:42.35	323.54	18.53	-41.5	-42.5	22.2	0.00e+00	87	42	0	744488960	56	6085
2026-01-24 01:41:43.35	323.67	18.42	-41.2	-42.2	22.4	0.00e+00	0	42	0	746586112	56	5833
2026-01-24 01:41:44.36	323.80	18.32	-41.3	-42.3	22.3	0.00e+00	87	42	0	748683264	56	5958
2026-01-24 01:41:45.37	323.93	18.22	-41.6	-42.6	22.1	0.00e+00	0	42	0	750780416	56	6154
2026-01-24 01:41:46.38	324.05	18.11	-41.6	-42.7	21.9	0.00e+00	87	42	0	752877568	56	6182
2026-01-24 01:41:47.39	324.18	18.01	-41.8	-42.9	21.9	0.00e+00	0	42	0	753926144	56	6329
2026-01-24 01:41:48.40	324.30	17.91	-42.0	-43.2	21.6	0.00e+00	87	42	0	756023296	56	6576
2026-01-24 01:41:49.41	324.43	17.81	-42.3	-43.5	21.2	0.00e+00	79	42	0	758120448	56	6844
2026-01-24 01:41:50.42	324.55	17.70	-42.3	-43.6	21.2	0.00e+00	0	42	0	760217600	56	6860
2026-01-24 01:41:51.43	324.68	17.60	-42.5	-43.7	21.2	0.00e+00	73	42	0	762314752	56	6960
2026-01-24 01:41:52.44	324.80	17.50	-42.4	-43.6	21.2	0.00e+00	0	42	0	763363328	56	6898
2026-01-24 01:41:53.45	324.92	17.40	-42.1	-43.2	21.6	0.00e+00	80	42	0	765460480	56	6603
2026-01-24 01:41:54.45	325.04	17.30	-41.6	-42.7	22.0	0.00e+00	0	42	0	767557632	56	6245
2026-01-24 01:41:55.46	325.16	17.20	-41.2	-42.2	22.4	0.00e+00	82	42	0	769654784	56	5877
2026-01-24 01:41:56.47	325.28	17.10	-41.1	-42.1	22.4	0.00e+00	0	42	0	771751936	56	5821
2026-01-24 01:41:57.48	325.40	17.00	-41.1	-42.1	22.5	0.00e+00	0	42	0	772800512	56	5828
2026-01-24 01:41:58.49	325.52	16.90	-40.9	-41.9	22.5	0.00e+00	77	42	0	774897664	54	6371
2026-01-24 01:41:59.50	325.63	16.80	-40.8	-41.8	22.6	0.00e+00	0	42	0	776994816	54	6273
2026-01-24 01:42:00.51	325.75	16.70	-40.8	-41.8	22.7	0.00e+00	89	42	0	779091968	54	6251
2026-01-24 01:42:01.52	325.87	16.60	-40.8	-41.8	22.5	0.00e+00	0	42	0	781189120	54	6279
2026-01-24 01:42:02.53	325.98	16.51	-40.7	-41.7	22.6	0.00e+00	57	42	0	783286272	54	6241
2026-01-24 01:42:03.53	326.10	16.41	-40.9	-41.9	22.5	0.00e+00	33	42	0	784334848	54	6374
2026-01-24 01:42:04.54	326.21	16.31	-41.0	-42.0	22.4	0.00e+00	0	42	0	786432000	54	6422
2026-01-24 01:42:05.55	326.32	16.21	-41.1	-42.1	22.3	0.00e+00	78	42	0	788529152	54	6495
2026-01-24 01:42:06.56	326.43	16.12	-41.0	-42.1	22.4	0.00e+00	0	42	0	790626304	54	6477
2026-01-24 01:42:07.57	326.55	16.02	-41.2	-42.3	22.3	0.00e+00	81	42	0	792723456	54	6641
2026-01-24 01:42:08.58	326.66	15.92	-40.8	-41.8	22.6	0.00e+00	0	42	0	793772032	54	6249
2026-01-24 01:42:09.59	326.77	15.83	-40.9	-41.9	22.5	0.00e+00	81	42	0	795869184	54	6360
2026-01-24 01:42:10.60	326.88	15.73	-40.7	-41.6	22.7	0.00e+00	0	42	0	797966336	54	6164
2026-01-24 01:42:11.61	326.98	15.64	-40.6	-41.6	22.8	0.00e+00	0	42	0	800063488	54	6152
2026-01-24 01:42:12.62	327.09	15.54	-40.5	-41.5	22.8	0.00e+00	84	42	0	802160640	54	6038
2026-01-24 01:42:13.63	327.20	15.44	-40.5	-41.5	23.0	0.00e+00	0	42	0	803209216	54	6067
2026-01-24 01:42:14.64	327.31	15.35	-40.4	-41.4	22.9	0.00e+00	86	42	0	805306368	54	5978
2026-01-24 01:42:15.64	327.41	15.26	-40.7	-41.6	22.8	0.00e+00	0	42	0	807403520	54	6165
2026-01-24 01:42:16.65	327.52	15.16	-40.3	-41.3	23.0	0.00e+00	0	42	0	809500672	54	5920
2026-01-24 01:42:17.66	327.62	15.07	-40.5	-41.5	22.8	0.00e+00	0	42	0	811597824	54	6034
2026-01-24 01:42:18.67	327.73	14.97	-40.3	-41.3	22.9	0.00e+00	0	42	0	812646400	54	5917
2026-01-24 01:42:19.68	327.83	14.88	-40.6	-41.5	22.7	0.00e+00	0	42	0	814743552	54	6102
2026-01-24 01:42:20.69	327.93	14.79	-40.7	-41.7	22.6	0.00e+00	0	42	0	816840704	54	6204
2026-01-24 01:42:21.70	328.04	14.69	-40.7	-41.7	22.7	0.00e+00	84	42	0	818937856	54	6200
2026-01-24 01:42:22.71	328.14	14.60	-41.1	-42.1	22.4	0.00e+00	0	42	0	821035008	54	6513
2026-01-24 01:42:23.72	328.24	14.51	-41.0	-42.0	22.4	0.00e+00	0	42	0	822083584	54	6420
2026-01-24 01:42:24.73	328.34	14.42	-40.9	-42.0	22.4	0.00e+00	0	42	0	824180736	54	6396
2026-01-24 01:42:25.74	328.44	14.33	-41.2	-42.2	22.1	0.00e+00	0	42	0	826277888	54	6613
2026-01-24 01:42:26.75	328.54	14.23	-40.8	-41.8	22.5	0.00e+00	0	42	0	828375040	54	6296
2026-01-24 01:42:27.76	328.64	14.14	-41.0	-42.0	22.4	0.00e+00	0	42	0	830472192	54	6447
2026-01-24 01:42:28.77	328.74	14.05	-40.8	-41.9	22.3	0.00e+00	77	42	0	831520768	54	6332
2026-01-24 01:42:29.77	328.83	13.96	-40.9	-41.9	22.5	0.00e+00	0	42	0	833617920	54	6366
2026-01-24 01:42:30.78	328.93	13.87	-40.7	-41.7	22.5	0.00e+00	0	42	0	835715072	54	6211
2026-01-24 01:42:31.79	329.03	13.78	-40.7	-41.7	22.6	0.00e+00	0	42	0	837812224	54	6205
2026-01-24 01:42:32.80	329.12	13.69	-40.8	-41.8	22.6	0.00e+00	0	42	0	839909376	54	6260
2026-01-24 01:42:33.81	329.22	13.60	-40.9	-41.9	22.4	0.00e+00	0	42	0	840957952	54	6372
2026-01-24 01:42:34.82	329.31	13.51	-40.9	-41.9	22.4	0.00e+00	0	42	0	843055104	54	6361
2026-01-24 01:42:35.83	329.41	13.42	-41.0	-42.0	22.3	0.00e+00	83	42	0	845152256	54	6436
2026-01-24 01:42:36.84	329.50	13.33	-41.3	-42.3	22.0	0.00e+00	0	42	0	847249408	54	6681
2026-01-24 01:42:37.85	329.59	13.25	-41.1	-42.2	22.2	0.00e+00	83	42	0	849346560	54	6541
2026-01-24 01:42:38.86	329.69	13.16	-41.5	-42.6	21.7	0.00e+00	0	42	0	851443712	54	6916
2026-01-24 01:42:39.87	329.78	13.07	-41.7	-42.8	21.6	0.00e+00	0	42	0	852492288	54	7041
2026-01-24 01:42:40.88	329.87	12.98	-42.1	-43.2	21.3	0.00e+00	0	42	0	854589440	56	6609
2026-01-24 01:42:41.89	329.96	12.89	-42.4	-43.7	21.0	0.00e+00	0	42	0	856686592	56	6935
2026-01-24 01:42:42.90	330.05	12.81	-42.5	-43.8	21.0	0.00e+00	86	42	0	858783744	56	7010
2026-01-24 01:42:43.91	330.14	12.72	-42.9	-44.2	20.4	0.00e+00	0	42	0	860880896	58	6615
2026-01-24 01:42:44.92	330.23	12.63	-43.0	-44.4	20.4	0.00e+00	92	42	0	861929472	58	6713
2026-01-24 01:42:45.93	330.32	12.55	-43.2	-44.6	20.2	0.00e+00	0	42	0	864026624	58	6894
2026-01-24 01:42:46.94	330.41	12.46	-43.4	-44.9	19.8	0.00e+00	0	42	0	866123776	58	7115
2026-01-24 01:42:47.94	330.50	12.37	-43.4	-44.8	20.0	0.00e+00	0	42	0	868220928	58	7084
2026-01-24 01:42:48.95	330.59	12.29	-43.5	-45.0	19.8	0.00e+00	0	42	0	869269504	58	7183
2026-01-24 01:42:49.96	330.67	12.20	-43.4	-44.9	19.8	0.00e+00	81	42	0	871366656	58	7168
2026-01-24 01:42:50.97	330.76	12.12	-43.2	-44.6	20.0	0.00e+00	0	42	0	873463808	58	6908
2026-01-24 01:42:51.98	330.85	12.03	-43.5	-45.0	20.0	0.00e+00	88	42	0	875560960	58	7194
2026-01-24 01:42:52.99	330.93	11.95	-43.1	-44.5	20.3	0.00e+00	0	42	0	877658112	58	6828
2026-01-24 01:42:53.99	331.02	11.86	-42.9	-44.2	20.4	0.00e+00	0	42	0	879755264	58	6584
2026-01-24 01:42:55.00	331.10	11.78	-42.8	-44.2	20.4	0.00e+00	0	42	0	880803840	58	6550
2026-01-24 01:42:56.01	331.19	11.70	-42.4	-43.7	20.8	0.00e+00	0	42	0	882900992	58	6208
2026-01-24 01:42:57.02	331.27	11.61	-42.3	-43.6	20.9	0.00e+00	52	42	0	884998144	58	6122
2026-01-24 01:42:58.03	331.35	11.53	-42.3	-43.5	20.9	0.00e+00	0	42	0	887095296	58	6064
2026-01-24 01:42:59.04	331.44	11.44	-42.1	-43.3	21.3	0.00e+00	51	42	0	889192448	58	5900
2026-01-24 01:43:00.05	331.52	11.36	-42.0	-43.2	21.3	0.00e+00	0	42	0	890241024	58	5829
2026-01-24 01:43:01.06	331.60	11.28	-41.8	-42.9	21.6	0.00e+00	0	42	0	892338176	56	6359
2026-01-24 01:43:02.06	331.68	11.20	-41.3	-42.4	21.9	0.00e+00	0	42	0	894435328	56	6015
2026-01-24 01:43:03.07	331.76	11.11	-41.5	-42.6	22.0	0.00e+00	0	42	0	896532480	56	6104
2026-01-24 01:43:04.08	331.84	11.03	-40.9	-41.9	22.3	0.00e+00	0	42	0	898629632	56	5687
2026-01-24 01:43:05.09	331.93	10.95	-41.1	-42.1	22.2	0.00e+00	0	42	0	899678208	56	5809
2026-01-24 01:43:06.10	332.01	10.87	-41.1	-42.1	22.2	0.00e+00	91	42	0	901775360	56	5799
2026-01-24 01:43:07.11	332.09	10.79	-40.9	-41.9	22.3	0.00e+00	0	42	0	903872512	56	5664
2026-01-24 01:43:08.12	332.16	10.70	-41.1	-42.2	22.1	0.00e+00	66	42	0	905969664	56	5855
2026-01-24 01:43:09.13	332.24	10.62	-41.1	-42.2	22.2	0.00e+00	0	42	0	908066816	56	5857
2026-01-24 01:43:10.14	332.32	10.54	-40.9	-42.0	22.2	0.00e+00	0	42	0	909115392	56	5700
2026-01-24 01:43:11.15	332.40	10.46	-40.9	-41.9	22.4	0.00e+00	33	42	0	911212544	56	5671
2026-01-24 01:43:12.16	332.48	10.38	-40.8	-41.8	22.4	0.00e+00	0	42	0	913309696	54	6276
2026-01-24 01:43:13.17	332.55	10.30	-41.0	-42.0	22.2	0.00e+00	88	42	0	915406848	54	6458
2026-01-24 01:43:14.18	332.63	10.22	-40.7	-41.8	22.3	0.00e+00	33	42	0	917504000	54	6254
2026-01-24 01:43:15.19	332.71	10.14	-40.8	-41.8	22.3	0.00e+00	81	42	0	918552576	54	6301
2026-01-24 01:43:16.20	332.78	10.06	-41.1	-42.1	22.1	0.00e+00	0	42	0	920649728	54	6501
2026-01-24 01:43:17.21	332.86	9.98	-40.9	-42.0	22.2	0.00e+00	0	42	0	922746880	54	6394
2026-01-24 01:43:18.22	332.93	9.90	-41.0	-42.1	22.1	0.00e+00	0	42	0	924844032	54	6468
2026-01-24 01:43:19.22	333.01	9.82	-41.1	-42.2	21.9	0.00e+00	0	42	0	926941184	54	6573
2026-01-24 01:43:20.24	333.08	9.75	-41.1	-42.2	22.0	0.00e+00	82	42	0	927989760	54	6581
2026-01-24 01:43:21.24	333.16	9.67	-41.4	-42.5	21.6	0.00e+00	0	42	0	930086912	54	6774
2026-01-24 01:43:22.25	333.23	9.59	-41.3	-42.4	21.8	0.00e+00	89	42	0	932184064	54	6700
2026-01-24 01:43:23.26	333.30	9.51	-41.4	-42.5	21.6	0.00e+00	0	42	0	934281216	54	6808
2026-01-24 01:43:24.27	333.38	9.43	-41.6	-42.7	21.5	0.00e+00	0	42	0	936378368	54	6995
2026-01-24 01:43:25.28	333.45	9.36	-41.9	-43.0	21.4	0.00e+00	0	42	0	937426944	56	6461
2026-01-24 01:43:26.29	333.52	9.28	-42.1	-43.2	21.2	0.00e+00	0	42	0	939524096	56	6615
2026-01-24 01:43:27.30	333.59	9.20	-42.2	-43.4	21.1	0.00e+00	81	42	0	941621248	56	6733
2026-01-24 01:43:28.31	333.67	9.12	-42.2	-43.4	21.0	0.00e+00	0	42	0	943718400	56	6727
2026-01-24 01:43:29.31	333.74	9.05	-42.5	-43.7	20.7	0.00e+00	83	42	0	945815552	56	6978
2026-01-24 01:43:30.33	333.81	8.97	-42.4	-43.7	20.6	0.00e+00	0	42	0	947912704	56	6962
2026-01-24 01:43:31.34	333.88	8.89	-42.7	-44.0	20.5	0.00e+00	0	42	0	948961280	56	7188
2026-01-24 01:43:32.35	333.95	8.82	-42.9	-44.2	20.4	0.00e+00	0	42	0	951058432	58	6580
2026-01-24 01:43:33.36	334.02	8.74	-42.9	-44.2	20.3	0.00e+00	0	42	0	953155584	58	6570
2026-01-24 01:43:34.36	334.09	8.67	-43.0	-44.4	20.1	0.00e+00	73	42	0	955252736	58	6722
2026-01-24 01:43:35.37	334.16	8.59	-43.4	-44.9	19.6	0.00e+00	0	42	0	957349888	58	7141
2026-01-24 01:43:36.38	334.23	8.51	-43.3	-44.7	19.8	0.00e+00	74	42	0	958398464	58	6948
2026-01-24 01:43:37.39	334.29	8.44	-43.3	-44.7	19.7	0.00e+00	0	42	0	960495616	58	6997
2026-01-24 01:43:38.40	334.36	8.36	-43.1	-44.5	19.9	0.00e+00	0	42	0	962592768	58	6779
2026-01-24 01:43:39.41	334.43	8.29	-43.2	-44.6	19.7	0.00e+00	0	42	0	964689920	58	6897
2026-01-24 01:43:40.42	334.50	8.21	-43.4	-44.8	19.7	0.00e+00	0	42	0	966787072	58	7060
2026-01-24 01:43:41.43	334.57	8.14	-43.2	-44.7	19.6	0.00e+00	70	42	0	967835648	58	6937
2026-01-24 01:43:42.44	334.63	8.07	-43.3	-44.8	19.6	0.00e+00	0	42	0	969932800	58	7037
2026-01-24 01:43:43.45	334.70	7.99	-43.4	-44.8	19.4	0.00e+00	32	42	0	972029952	58	7059
2026-01-24 01:43:44.45	334.76	7.92	-43.4	-44.9	19.5	0.00e+00	0	42	0	974127104	58	7144
2026-01-24 01:43:45.46	334.83	7.84	-43.4	-44.9	19.5	0.00e+00	19	42	0	976224256	58	7152
2026-01-24 01:43:46.47	334.90	7.77	-43.2	-44.6	19.7	0.00e+00	0	42	0	977272832	58	6882
2026-01-24 01:43:47.48	334.96	7.70	-43.3	-44.8	19.6	0.00e+00	0	42	0	979369984	58	7037
2026-01-24 01:43:48.49	335.03	7.62	-43.5	-45.0	19.3	0.00e+00	0	42	0	981467136	58	7219
2026-01-24 01:43:49.50	335.09	7.55	-43.4	-44.9	19.4	0.00e+00	0	42	0	983564288	58	7156
2026-01-24 01:43:50.51	335.16	7.48	-43.3	-44.8	19.5	0.00e+00	12	42	0	985661440	58	7068
2026-01-24 01:43:51.52	335.22	7.41	-43.1	-44.6	19.7	0.00e+00	0	42	0	986710016	58	6873
2026-01-24 01:43:52.52	335.28	7.33	-43.3	-44.7	19.6	0.00e+00	77	42	0	988807168	58	6981
2026-01-24 01:43:53.53	335.35	7.26	-43.3	-44.7	19.6	0.00e+00	0	42	0	990904320	58	7003
2026-01-24 01:43:54.54	335.41	7.19	-43.1	-44.6	19.7	0.00e+00	0	42	0	993001472	58	6869
2026-01-24 01:43:55.55	335.47	7.12	-43.6	-45.1	19.4	0.00e+00	0	42	0	995098624	58	7327
2026-01-24 01:43:56.56	335.54	7.05	-43.3	-44.8	19.4	0.00e+00	0	42	0	996147200	58	7044
2026-01-24 01:43:57.57	335.60	6.97	-43.2	-44.7	19.7	0.00e+00	77	42	0	998244352	58	6959
2026-01-24 01:43:58.58	335.66	6.90	-43.3	-44.8	19.6	0.00e+00	0	42	0	1000341504	58	7061
2026-01-24 01:43:59.59	335.72	6.83	-43.1	-44.6	19.7	0.00e+00	90	42	0	1002438656	58	6856
2026-01-24 01:44:00.60	335.78	6.76	-43.3	-44.8	19.3	0.00e+00	0	42	0	1004535808	58	7034
2026-01-24 01:44:01.61	335.84	6.69	-43.3	-44.9	19.4	0.00e+00	0	42	0	1005584384	58	7093
2026-01-24 01:44:02.62	335.91	6.62	-43.2	-44.7	19.4	0.00e+00	0	42	0	1007681536	58	6991
2026-01-24 01:44:03.63	335.97	6.55	-43.3	-44.9	19.4	0.00e+00	0	42	0	1009778688	58	7110
2026-01-24 01:44:04.64	336.03	6.48	-43.4	-44.9	19.2	0.00e+00	0	42	0	1011875840	58	7133
2026-01-24 01:44:05.65	336.09	6.41	-43.2	-44.6	19.4	0.00e+00	0	42	0	1013972992	58	6909
2026-01-24 01:44:06.66	336.15	6.34	-43.3	-44.9	19.0	0.00e+00	79	42	0	1016070144	58	7097
2026-01-24 01:44:07.67	336.21	6.27	-43.0	-44.5	19.5	0.00e+00	0	42	0	1017118720	58	6815
2026-01-24 01:44:08.68	336.27	6.20	-43.2	-44.7	19.3	0.00e+00	18	42	0	1019215872	58	6995
2026-01-24 01:44:09.69	336.33	6.13	-43.3	-44.9	19.1	0.00e+00	0	42	0	1021313024	58	7132
2026-01-24 01:44:10.69	336.38	6.06	-43.3	-44.9	19.0	0.00e+00	0	42	0	1023410176	58	7145
2026-01-24 01:44:11.70	336.44	5.99	-43.7	-45.4	18.5	0.00e+00	79	42	0	1025507328	58	7534
2026-01-24 01:44:12.71	336.50	5.92	-43.9	-45.7	18.2	0.00e+00	0	42	0	1026555904	60	6941
2026-01-24 01:44:13.72	336.56	5.85	-44.1	-45.9	17.9	0.00e+00	88	42	0	1028653056	60	7120
2026-01-24 01:44:14.73	336.62	5.78	-44.2	-46.1	17.5	0.00e+00	0	42	0	1030750208	60	7315
2026-01-24 01:44:15.74	336.67	5.71	-44.5	-46.5	17.1	0.00e+00	36	42	0	1032847360	60	7654
2026-01-24 01:44:16.75	336.73	5.65	-44.8	-47.1	16.5	0.00e+00	0	42	0	1033895936	60	8211
2026-01-24 01:44:17.76	336.79	5.58	-45.2	-47.7	16.0	0.00e+00	0	42	0	1035993088	60	8768
2026-01-24 01:44:18.77	336.85	5.51	-45.2	-47.8	15.5	0.00e+00	0	42	0	1038090240	60	8872
2026-01-24 01:44:19.78	336.90	5.44	-45.4	-48.2	15.0	0.00e+00	0	42	0	1040187392	60	9336
2026-01-24 01:44:20.79	336.96	5.37	-45.6	-48.7	14.3	0.00e+00	59	42	0	1042284544	60	9827
2026-01-24 01:44:21.80	337.02	5.31	-45.9	-49.2	13.7	2.20e-06	0	42	0	1044381696	60	10409
2026-01-24 01:44:22.81	337.07	5.24	-46.1	-49.8	13.0	1.14e-05	92	42	0	1045430272	60	11144
2026-01-24 01:44:23.81	337.13	5.17	-46.2	-50.1	12.4	1.20e-04	0	42	0	1047527424	60	11582
2026-01-24 01:44:24.82	337.18	5.10	-46.2	-50.6	11.5	4.04e-04	0	42	0	1049624576	60	12306
2026-01-24 01:44:25.83	337.24	5.04	-46.4	-51.4	10.4	2.86e-03	0	42	0	1051721728	60	13423
2026-01-24 01:44:26.84	337.29	4.97	-46.5	-51.9	9.8	6.04e-03	0	42	0	1053818880	60	14275
2026-01-24 01:44:27.85	337.35	4.90	-46.5	-52.2	9.0	1.44e-02	2	42	0	1054867456	60	14749
2026-01-24 01:44:28.86	337.40	4.84	-46.6	-52.9	8.4	3.50e-02	0	42	0	1056964608	60	15886
2026-01-24 01:44:29.87	337.46	4.77	-46.7	-53.4	7.4	6.37e-02	81	42	0	1059061760	60	16982
2026-01-24 01:44:30.88	337.51	4.70	-46.7	-54.0	6.8	1.16e-01	0	42	0	1061158912	60	18069
2026-01-24 01:44:31.89	337.56	4.64	-46.7	-54.2	6.4	2.36e-01	0	42	0	1063256064	60	18596
2026-01-24 01:44:32.89	337.62	4.57	-46.7	-54.9	5.5	2.89e-01	0	42	0	1064304640	60	20050
2026-01-24 01:44:33.90	337.67	4.51	-46.8	-55.1	5.3	4.62e-01	0	42	0	1066401792	60	20666
2026-01-24 01:44:34.91	337.72	4.44	-46.8	-55.7	4.8	5.65e-01	0	42	0	1068498944	60	22001
2026-01-24 01:44:35.92	337.78	4.37	-46.9	-55.9	4.5	6.78e-01	0	42	0	1070596096	60	22645
2026-01-24 01:44:36.93	337.83	4.31	-46.8	-56.8	4.0	9.21e-01	89	42	0	1072693248	60	25142
2026-01-24 01:44:37.94	337.88	4.24	-46.7	-57.1	3.8	1.37e+00	92	42	0	1073741824	60	25871
2026-01-24 01:44:38.95	337.93	4.18	-46.6	-59.0	3.8	1.48e+00	0	42	104	1073741824	60	32349
2026-01-24 01:44:39.96	337.99	4.11	-46.6	-59.6	3.8	1.50e+00	0	42	104	1073741824	60	34445
2026-01-24 01:44:40.97	338.04	4.05	-46.5	-60.1	3.6	1.50e+00	0	42	104	1073741824	60	36428
2026-01-24 01:44:41.98	338.09	3.98	-46.5	-60.5	3.6	1.51e+00	0	42	104	1073741824	60	38281
2026-01-24 01:44:42.99	338.14	3.92	-46.5	-60.8	3.5	1.51e+00	0	42	104	1073741824	60	39442
2026-01-24 01:44:44.00	338.19	3.85	-46.4	-61.0	3.6	1.51e+00	0	42	104	1073741824	60	40347
2026-01-24 01:44:45.01	338.24	3.79	-46.4	-61.1	3.6	1.51e+00	0	42	104	1073741824	60	40972
2026-01-24 01:44:46.02	338.30	3.73	-46.3	-61.5	3.6	1.51e+00	0	42	104	1073741824	60	43115
2026-01-24 01:44:47.03	338.35	3.66	-46.2	-61.5	3.6	1.51e+00	0	42	104	1073741824	60	42735
2026-01-24 01:44:48.04	338.40	3.60	-46.4	-61.6	3.6	1.51e+00	0	42	104	1073741824	60	43300
2026-01-24 01:44:49.05	338.45	3.53	-46.3	-61.5	3.6	1.51e+00	0	42	104	1073741824	60	43136
2026-01-24 01:44:50.06	338.50	3.47	-46.2	-61.4	3.6	1.51e+00	0	42	104	1073741824	60	42535
2026-01-24 01:44:51.06	338.55	3.41	-46.4	-61.6	3.6	1.51e+00	0	42	104	1073741824	60	43342
2026-01-24 01:44:52.07	338.60	3.34	-46.3	-61.6	3.6	1.51e+00	0	42	104	1073741824	60	43554
2026-01-24 01:44:53.09	338.65	3.28	-46.4	-61.6	3.6	1.51e+00	0	42	104	1073741824	60	43565
2026-01-24 01:44:54.09	338.70	3.22	-46.2	-61.4	3.6	1.51e+00	0	42	104	1073741824	60	42665
2026-01-24 01:44:55.10	338.74	3.15	-46.4	-61.6	3.6	1.51e+00	0	42	104	1073741824	60	43530
2026-01-24 01:44:56.11	338.79	3.09	-46.3	-61.6	3.6	1.51e+00	0	42	104	1073741824	60	43346
2026-01-24 01:44:57.12	338.84	3.03	-46.5	-61.7	3.6	1.51e+00	0	42	104	1073741824	60	43776
2026-01-24 01:44:58.13	338.89	2.97	-46.3	-61.5	3.6	1.51e+00	0	42	104	1073741824	60	42886
2026-01-24 01:44:59.14	338.94	2.90	-48.6	-63.7	3.6	1.51e+00	0	42	104	1073741824	60	55415
2026-01-24 01:45:00.15	338.99	2.84	-50.6	-65.8	3.6	1.51e+00	0	42	104	1073741824	60	70287
2026-01-24 01:45:01.16	339.04	2.78	-50.8	-66.0	3.6	1.51e+00	0	42	104	1073741824	60	72135
2026-01-24 01:45:02.17	339.08	2.72	-51.0	-66.2	3.6	1.51e+00	0	42	104	1073741824	60	73676
2026-01-24 01:45:03.18	339.13	2.65	-51.1	-66.3	3.6	1.51e+00	0	42	104	1073741824	60	74970
2026-01-24 01:45:04.19	339.18	2.59	-51.2	-66.4	3.6	1.51e+00	0	42	104	1073741824	60	75330
2026-01-24 01:45:05.19	339.23	2.53	-51.3	-66.5	3.6	1.51e+00	0	42	104	1073741824	60	76057
2026-01-24 01:45:06.20	339.27	2.47	-51.3	-66.5	3.6	1.51e+00	0	42	104	1073741824	60	76786
2026-01-24 01:45:07.22	339.32	2.41	-51.4	-66.6	3.6	1.51e+00	0	42	104	1073741824	60	77219
2026-01-24 01:45:08.22	339.37	2.35	-51.4	-66.6	3.6	1.51e+00	0	42	104	1073741824	60	77684
2026-01-24 01:45:09.23	339.41	2.28	-51.5	-66.7	3.6	1.51e+00	0	42	104	1073741824	60	78441
2026-01-24 01:45:10.24	339.46	2.22	-51.4	-66.7	3.6	1.51e+00	0	42	104	1073741824	60	78175
2026-01-24 01:45:11.25	339.51	2.16	-51.4	-66.7	3.6	1.51e+00	0	42	104	1073741824	60	78253
2026-01-24 01:45:12.26	339.55	2.10	-51.1	-66.6	3.6	1.51e+00	0	42	104	1073741824	60	77561
2026-01-24 01:45:13.27	339.60	2.04	-50.9	-66.6	3.6	1.51e+00	0	42	104	1073741824	60	77521
2026-01-24 01:45:14.28	339.64	1.98	-51.1	-66.6	3.6	1.51e+00	0	42	104	1073741824	60	77033
2026-01-24 01:45:15.30	339.69	1.92	-51.4	-66.6	3.6	1.51e+00	0	42	104	1073741824	60	77124
2026-01-24 01:45:16.31	339.73	1.86	-51.4	-66.7	3.6	1.51e+00	0	42	104	1073741824	60	77874
2026-01-24 01:45:17.32	339.78	1.80	-51.4	-66.6	3.6	1.51e+00	0	42	104	1073741824	60	77312
2026-01-24 01:45:18.33	339.83	1.74	-51.4	-66.6	3.6	1.51e+00	0	42	104	1073741824	60	77093
2026-01-24 01:45:19.34	339.87	1.68	-51.4	-66.6	3.6	1.51e+00	0	42	104	1073741824	60	77021
2026-01-24 01:45:20.35	339.92	1.62	-51.4	-66.6	3.6	1.51e+00	0	42	104	1073741824	60	77267
2026-01-24 01:45:21.36	339.96	1.56	-51.4	-66.7	3.6	1.51e+00	0	42	104	1073741824	60	77972
2026-01-24 01:45:22.37	340.00	1.50	-51.4	-66.6	3.6	1.51e+00	0	42	104	1073741824	60	77457
2026-01-24 01:45:23.38	340.05	1.44	-51.4	-66.6	3.6	1.51e+00	0	42	104	1073741824	60	77071
2026-01-24 01:45:24.39	340.09	1.38	-51.4	-66.6	3.6	1.51e+00	0	42	104	1073741824	60	77113
2026-01-24 01:45:25.40	340.14	1.32	-51.4	-66.6	3.6	1.51e+00	0	42	104	1073741824	60	77311
2026-01-24 01:45:26.41	340.18	1.26	-51.4	-66.6	3.6	1.51e+00	0	42	104	1073741824	60	77218
2026-01-24 01:45:27.42	340.22	1.20	-51.4	-66.5	3.6	1.51e+00	0	42	104	1073741824	60	76550
2026-01-24 01:45:28.43	340.27	1.14	-51.4	-66.6	3.6	1.51e+00	0	42	104	1073741824	60	77342
2026-01-24 01:45:29.44	340.31	1.08	-51.4	-66.6	3.6	1.51e+00	0	42	104	1073741824	60	77169
2026-01-24 01:45:30.45	340.35	1.02	-51.4	-66.6	3.6	1.51e+00	0	42	104	1073741824	60	77289
2026-01-24 01:45:31.46	340.40	0.96	-51.4	-66.6	3.6	1.51e+00	0	42	104	1073741824	60	77412
2026-01-24 01:45:32.47	340.44	0.91	-51.4	-66.6	3.6	1.51e+00	0	42	104	1073741824	60	77358
2026-01-24 01:45:33.48	340.48	0.85	-51.4	-66.6	3.6	1.51e+00	0	42	104	1073741824	60	77417
2026-01-24 01:45:34.49	340.53	0.79	-51.4	-66.6	3.6	1.51e+00	0	41	104	1073741824	60	77204
2026-01-24 01:45:35.50	340.57	0.73	-51.4	-66.6	3.6	1.51e+00	0	42	104	1073741824	60	77321
2026-01-24 01:45:36.51	340.61	0.67	-51.4	-66.6	3.6	1.51e+00	0	42	104	1073741824	60	76879
2026-01-24 01:45:37.52	340.65	0.61	-51.4	-66.6	3.6	1.51e+00	0	42	104	1073741824	60	77330
