passes_logs/2026/01/24/R4.6S_Anadyr/R4.6S_Anadyr__20260124_175349_FENGYUN_3D_rec.log

#Pass ID: 20260124_175349_FENGYUN 3D
#Satellite: FENGYUN 3D
#Configuration: FENGYUN 3D
#almurnet v.1.7.20251203
#Start time: 2026-01-24 17:53:50

#Version: 2.2.20231116
#Station: R4.6S_Anadyr
#Location: 177.4865 lon 64.73178 lat
#TLE: 1 43010U 17072A   26024.16556041  .00000326  00000+0  17587-3 0  9998
#TLE: 2 43010  98.9960 356.1242 0002491  92.2506 267.8955 14.19700380424559

#Time	Az	El	Level	Level2	SNR	BER	BlckErr	Temp	State	Recorded	gain1	gain2
2026-01-24 17:53:50.96	24.02	0.10	-52.4	-67.3	3.5	1.51e+00	0	38	0	0	60	83620
2026-01-24 17:53:51.96	24.00	0.16	-53.7	-65.9	3.6	8.45e-01	0	39	104	0	60	70923
2026-01-24 17:53:52.97	23.97	0.22	-53.1	-65.2	3.6	8.47e-01	0	39	104	0	60	66105
2026-01-24 17:53:53.98	23.95	0.28	-52.9	-65.1	3.6	8.45e-01	0	39	104	0	60	64854
2026-01-24 17:53:54.99	23.92	0.34	-52.5	-64.6	3.6	8.45e-01	0	39	104	0	60	61490
2026-01-24 17:53:56.00	23.90	0.40	-52.9	-65.0	3.6	8.45e-01	0	39	104	0	60	63984
2026-01-24 17:53:57.01	23.87	0.46	-52.8	-65.0	3.6	8.45e-01	0	39	104	0	60	64490
2026-01-24 17:53:58.02	23.85	0.52	-52.5	-64.7	3.6	8.45e-01	0	39	104	0	60	61961
2026-01-24 17:53:59.03	23.82	0.58	-52.2	-64.4	3.6	8.44e-01	0	39	104	0	60	59854
2026-01-24 17:54:00.04	23.80	0.64	-52.0	-64.1	3.6	8.46e-01	0	39	104	0	60	57969
2026-01-24 17:54:01.05	23.77	0.70	-51.9	-64.0	3.6	8.45e-01	0	39	104	0	60	57325
2026-01-24 17:54:02.06	23.75	0.76	-51.8	-64.0	3.6	8.45e-01	0	39	104	0	60	57299
2026-01-24 17:54:03.07	23.72	0.82	-52.0	-64.2	3.6	8.44e-01	0	39	104	0	60	58407
2026-01-24 17:54:04.08	23.70	0.88	-52.9	-65.0	3.6	8.45e-01	0	39	104	0	60	64486
2026-01-24 17:54:05.09	23.67	0.95	-52.3	-64.4	3.6	8.45e-01	0	39	104	0	60	60041
2026-01-24 17:54:06.10	23.65	1.01	-51.9	-64.0	3.6	8.45e-01	0	39	104	0	60	57310
2026-01-24 17:54:07.11	23.62	1.07	-52.2	-64.3	3.6	8.46e-01	0	39	104	0	60	59541
2026-01-24 17:54:08.12	23.59	1.13	-51.8	-64.0	3.6	8.46e-01	0	39	104	0	60	57090
2026-01-24 17:54:09.13	23.57	1.19	-51.5	-63.6	3.5	8.46e-01	0	39	104	0	60	54888
2026-01-24 17:54:10.14	23.54	1.25	-51.4	-63.5	3.6	8.45e-01	0	39	104	0	60	54311
2026-01-24 17:54:11.15	23.51	1.31	-51.2	-63.4	3.6	8.45e-01	0	40	104	0	60	53190
2026-01-24 17:54:12.16	23.49	1.38	-51.0	-63.2	3.6	8.44e-01	0	39	104	0	60	52109
2026-01-24 17:54:13.17	23.46	1.44	-50.9	-63.0	3.5	8.44e-01	0	39	104	0	60	51098
2026-01-24 17:54:14.18	23.43	1.50	-50.6	-62.7	3.6	8.45e-01	0	39	104	0	60	49225
2026-01-24 17:54:15.19	23.41	1.56	-50.3	-62.4	3.6	8.45e-01	0	40	104	0	60	47556
2026-01-24 17:54:16.21	23.38	1.62	-50.2	-62.4	3.6	8.45e-01	0	40	104	0	60	47477
2026-01-24 17:54:17.22	23.35	1.69	-50.1	-62.3	3.5	8.46e-01	0	40	104	0	60	46914
2026-01-24 17:54:18.23	23.32	1.75	-50.1	-62.2	3.6	8.47e-01	0	40	104	0	60	46720
2026-01-24 17:54:19.24	23.30	1.81	-50.1	-62.1	3.6	8.46e-01	0	39	104	0	60	46234
2026-01-24 17:54:20.25	23.27	1.87	-50.0	-61.5	3.6	8.45e-01	0	40	104	0	60	42885
2026-01-24 17:54:21.26	23.24	1.94	-50.0	-61.7	3.6	8.45e-01	0	40	104	0	60	44034
2026-01-24 17:54:22.26	23.21	2.00	-50.1	-61.8	3.6	8.47e-01	0	40	104	0	60	44437
2026-01-24 17:54:23.27	23.18	2.06	-50.1	-61.9	3.6	8.44e-01	0	40	104	0	60	45079
2026-01-24 17:54:24.29	23.16	2.13	-50.2	-61.8	3.6	8.44e-01	0	40	104	0	60	44398
2026-01-24 17:54:25.30	23.13	2.19	-50.6	-62.4	3.6	8.45e-01	0	40	104	0	60	47841
2026-01-24 17:54:26.31	23.10	2.25	-50.4	-62.4	3.6	8.45e-01	0	40	104	0	60	47889
2026-01-24 17:54:27.32	23.07	2.32	-50.2	-62.3	3.6	8.46e-01	0	40	104	0	60	47209
2026-01-24 17:54:28.33	23.04	2.38	-50.3	-62.4	3.6	8.45e-01	0	40	104	0	60	47884
2026-01-24 17:54:29.34	23.01	2.45	-50.2	-62.1	3.6	8.45e-01	0	40	104	0	60	46171
2026-01-24 17:54:30.35	22.98	2.51	-50.1	-61.8	3.6	8.45e-01	0	40	104	0	60	44377
2026-01-24 17:54:31.36	22.95	2.57	-50.0	-61.2	3.6	8.46e-01	0	40	104	0	60	41359
2026-01-24 17:54:32.37	22.92	2.64	-50.1	-61.1	3.6	8.44e-01	0	40	104	0	60	40918
2026-01-24 17:54:33.38	22.89	2.70	-50.0	-61.0	3.6	8.47e-01	0	40	104	0	60	40608
2026-01-24 17:54:34.39	22.86	2.77	-50.1	-61.1	3.6	8.46e-01	0	40	104	0	60	40934
2026-01-24 17:54:35.40	22.83	2.83	-49.9	-60.0	3.7	8.44e-01	0	40	104	0	60	36243
2026-01-24 17:54:36.41	22.80	2.90	-50.0	-60.7	3.6	8.44e-01	0	40	104	0	60	39398
2026-01-24 17:54:37.42	22.77	2.96	-50.0	-61.2	3.6	8.45e-01	0	40	104	0	60	41530
2026-01-24 17:54:38.43	22.74	3.03	-50.1	-62.1	3.6	8.45e-01	0	40	104	0	60	45987
2026-01-24 17:54:39.44	22.71	3.09	-50.4	-61.8	3.6	8.45e-01	0	40	104	0	60	44380
2026-01-24 17:54:40.45	22.68	3.16	-50.2	-61.3	4.0	8.43e-01	0	40	104	0	60	41928
2026-01-24 17:54:41.46	22.65	3.22	-49.9	-56.7	4.0	7.77e-01	0	40	0	0	60	24692
2026-01-24 17:54:42.47	22.62	3.29	-47.5	-50.5	10.4	8.03e-03	0	40	0	5242880	60	12158
2026-01-24 17:54:43.48	22.59	3.36	-48.1	-51.9	9.0	1.96e-02	0	40	0	10485760	60	14190
2026-01-24 17:54:44.49	22.56	3.42	-46.6	-49.2	11.7	4.50e-06	0	40	0	16777216	60	10446
2026-01-24 17:54:45.50	22.53	3.49	-45.3	-47.2	14.2	8.02e-04	0	40	0	22020096	60	8242
2026-01-24 17:54:46.51	22.50	3.56	-45.6	-47.7	13.5	4.50e-06	0	40	0	27262976	60	8794
2026-01-24 17:54:47.52	22.46	3.62	-44.7	-46.5	14.8	4.50e-06	0	40	0	33554432	60	7619
2026-01-24 17:54:48.53	22.43	3.69	-44.5	-46.2	15.0	0.00e+00	0	40	0	38797312	60	7395
2026-01-24 17:54:49.54	22.40	3.76	-46.5	-49.1	11.3	6.80e-06	0	40	0	45088768	60	10273
2026-01-24 17:54:50.55	22.37	3.82	-42.1	-43.2	19.1	5.23e-02	0	40	0	50331648	60	5245
2026-01-24 17:54:51.56	22.33	3.89	-43.0	-44.5	14.4	0.00e+00	0	40	0	55574528	52	9599
2026-01-24 17:54:52.57	22.30	3.96	-48.3	-52.8	11.1	6.27e-01	0	40	104	56623104	60	15705
2026-01-24 17:54:53.58	22.27	4.02	-39.2	-40.1	20.3	1.24e-03	0	40	0	60817408	54	5156
2026-01-24 17:54:54.59	22.24	4.09	-43.7	-45.1	17.0	2.51e-02	0	40	0	66060288	60	6495
2026-01-24 17:54:55.60	22.20	4.16	-40.9	-41.9	19.4	0.00e+00	0	40	0	71303168	54	6334
2026-01-24 17:54:56.61	22.17	4.23	-40.7	-41.7	19.7	0.00e+00	0	40	0	77594624	54	6219
2026-01-24 17:54:57.62	22.14	4.30	-40.8	-41.8	19.5	0.00e+00	0	40	0	82837504	54	6314
2026-01-24 17:54:58.63	22.10	4.36	-40.1	-41.0	20.4	0.00e+00	0	40	0	89128960	54	5753
2026-01-24 17:54:59.64	22.07	4.43	-38.8	-39.7	21.7	0.00e+00	0	40	0	94371840	50	6192
2026-01-24 17:55:00.65	22.03	4.50	-40.2	-41.1	20.4	0.00e+00	0	40	0	99614720	52	6505
2026-01-24 17:55:01.66	22.00	4.57	-39.0	-39.8	21.4	0.00e+00	0	40	0	105906176	52	5627
2026-01-24 17:55:02.67	21.97	4.64	-38.7	-39.5	22.0	0.00e+00	0	40	0	111149056	50	6069
2026-01-24 17:55:03.68	21.93	4.71	-38.3	-39.0	22.6	0.00e+00	0	40	0	117440512	50	5739
2026-01-24 17:55:04.69	21.90	4.78	-37.8	-38.6	22.7	0.00e+00	0	40	0	122683392	48	6139
2026-01-24 17:55:05.70	21.86	4.85	-40.2	-41.1	20.6	0.00e+00	0	40	0	128974848	52	6488
2026-01-24 17:55:06.71	21.83	4.92	-38.5	-39.3	22.2	0.00e+00	0	40	0	134217728	50	5936
2026-01-24 17:55:07.72	21.79	4.99	-38.7	-39.5	21.9	0.00e+00	0	40	0	139460608	50	6060
2026-01-24 17:55:08.73	21.76	5.06	-38.1	-38.9	22.5	0.00e+00	0	40	0	145752064	50	5665
2026-01-24 17:55:09.74	21.72	5.13	-39.1	-40.0	21.9	0.00e+00	0	40	0	150994944	50	6393
2026-01-24 17:55:10.75	21.68	5.20	-38.4	-39.2	22.3	0.00e+00	0	40	0	157286400	50	5879
2026-01-24 17:55:11.76	21.65	5.27	-38.3	-39.1	22.4	0.00e+00	0	40	0	162529280	50	5817
2026-01-24 17:55:12.77	21.61	5.34	-38.6	-39.4	22.1	0.00e+00	0	40	0	167772160	50	5986
2026-01-24 17:55:13.78	21.57	5.41	-38.4	-39.2	22.3	0.00e+00	0	40	0	174063616	50	5882
2026-01-24 17:55:14.79	21.54	5.48	-37.9	-38.7	22.6	0.00e+00	0	40	0	179306496	48	6202
2026-01-24 17:55:15.80	21.50	5.55	-38.1	-38.8	22.6	0.00e+00	0	40	0	185597952	48	6304
2026-01-24 17:55:16.81	21.46	5.62	-37.7	-38.5	22.9	0.00e+00	0	40	0	190840832	48	6047
2026-01-24 17:55:17.82	21.43	5.69	-38.2	-39.0	22.8	0.00e+00	0	40	0	197132288	50	5724
2026-01-24 17:55:18.83	21.39	5.77	-38.5	-39.3	22.1	0.00e+00	0	40	0	202375168	48	6660
2026-01-24 17:55:19.84	21.35	5.84	-39.1	-39.9	21.9	0.00e+00	0	40	0	207618048	52	5671
2026-01-24 17:55:20.85	21.31	5.91	-37.6	-38.3	23.3	0.00e+00	0	40	0	213909504	50	5283
2026-01-24 17:55:21.86	21.28	5.98	-37.4	-38.1	23.3	0.00e+00	0	40	0	219152384	48	5827
2026-01-24 17:55:22.87	21.24	6.06	-39.1	-39.9	22.0	0.00e+00	0	40	0	225443840	50	6353
2026-01-24 17:55:23.88	21.20	6.13	-38.2	-39.0	22.3	0.00e+00	0	40	0	230686720	50	5720
2026-01-24 17:55:24.89	21.16	6.20	-37.6	-38.3	23.1	0.00e+00	0	40	0	236978176	48	5964
2026-01-24 17:55:25.90	21.12	6.27	-38.7	-39.5	22.1	0.00e+00	0	40	0	242221056	48	6782
2026-01-24 17:55:26.91	21.08	6.35	-37.6	-38.3	23.0	0.00e+00	0	40	0	247463936	48	5943
2026-01-24 17:55:27.92	21.04	6.42	-38.6	-39.5	22.2	0.00e+00	0	40	0	253755392	48	6779
2026-01-24 17:55:28.93	21.00	6.49	-37.8	-38.6	22.8	0.00e+00	0	40	0	258998272	48	6128
2026-01-24 17:55:29.94	20.96	6.57	-38.2	-38.9	22.7	0.00e+00	0	40	0	265289728	48	6389
2026-01-24 17:55:30.95	20.92	6.64	-36.4	-37.1	24.2	0.00e+00	0	40	0	270532608	46	5794
2026-01-24 17:55:31.96	20.88	6.72	-38.0	-38.7	22.8	0.00e+00	0	40	0	275775488	48	6243
2026-01-24 17:55:32.97	20.84	6.79	-38.2	-38.9	22.7	0.00e+00	0	40	0	282066944	48	6368
2026-01-24 17:55:33.98	20.80	6.87	-38.3	-39.1	22.4	0.00e+00	0	40	0	287309824	48	6531
2026-01-24 17:55:34.99	20.76	6.94	-38.3	-39.0	22.7	0.00e+00	0	40	0	293601280	50	5729
2026-01-24 17:55:36.00	20.72	7.02	-37.9	-38.6	22.9	0.00e+00	0	40	0	298844160	50	5484
2026-01-24 17:55:37.01	20.68	7.09	-37.4	-38.2	23.4	0.00e+00	0	40	0	304087040	48	5857
2026-01-24 17:55:38.02	20.64	7.17	-37.7	-38.5	23.1	0.00e+00	0	40	0	310378496	48	6057
2026-01-24 17:55:39.03	20.59	7.24	-37.8	-38.5	23.1	0.00e+00	0	40	0	315621376	48	6080
2026-01-24 17:55:40.04	20.55	7.32	-37.9	-38.7	23.0	0.00e+00	0	40	0	321912832	48	6207
2026-01-24 17:55:41.05	20.51	7.39	-38.2	-39.0	22.6	0.00e+00	0	40	0	327155712	48	6416
2026-01-24 17:55:42.06	20.47	7.47	-38.2	-39.0	22.7	0.00e+00	0	40	0	333447168	48	6441
2026-01-24 17:55:43.07	20.42	7.55	-37.6	-38.3	23.3	0.00e+00	0	40	0	338690048	48	5945
2026-01-24 17:55:44.08	20.38	7.62	-37.9	-38.6	23.0	0.00e+00	0	40	0	344981504	48	6138
2026-01-24 17:55:45.08	20.34	7.70	-38.2	-39.0	22.8	0.00e+00	0	40	0	350224384	48	6395
2026-01-24 17:55:46.09	20.29	7.78	-37.5	-38.2	23.3	0.00e+00	0	40	0	355467264	48	5891
2026-01-24 17:55:47.10	20.25	7.85	-38.1	-38.9	22.8	0.00e+00	0	40	0	361758720	48	6319
2026-01-24 17:55:48.11	20.21	7.93	-37.6	-38.4	23.3	0.00e+00	0	40	0	367001600	48	5990
2026-01-24 17:55:49.12	20.16	8.01	-38.1	-38.9	22.9	0.00e+00	0	40	0	373293056	48	6326
2026-01-24 17:55:50.13	20.12	8.09	-37.9	-38.7	22.9	0.00e+00	0	40	0	378535936	48	6190
2026-01-24 17:55:51.14	20.07	8.17	-39.1	-39.9	22.0	0.00e+00	0	40	0	383778816	50	6337
2026-01-24 17:55:52.15	20.03	8.24	-38.3	-39.1	22.9	0.00e+00	0	40	0	390070272	50	5786
2026-01-24 17:55:53.16	19.98	8.32	-38.4	-39.1	22.8	0.00e+00	0	40	0	395313152	50	5828
2026-01-24 17:55:54.17	19.93	8.40	-37.9	-38.7	23.2	0.00e+00	0	40	0	401604608	50	5536
2026-01-24 17:55:55.18	19.89	8.48	-38.5	-39.2	22.5	0.00e+00	0	40	0	406847488	50	5894
2026-01-24 17:55:56.19	19.84	8.56	-38.6	-39.3	23.2	0.00e+00	0	40	0	412090368	50	5913
2026-01-24 17:55:57.20	19.80	8.64	-37.9	-38.7	23.5	0.00e+00	0	40	0	418381824	48	6213
2026-01-24 17:55:58.20	19.75	8.72	-38.7	-39.5	22.7	0.00e+00	0	40	0	423624704	48	6819
2026-01-24 17:55:59.22	19.70	8.80	-38.3	-39.0	23.4	0.00e+00	0	40	0	429916160	50	5737
2026-01-24 17:56:00.22	19.65	8.88	-39.4	-40.2	22.2	0.00e+00	0	40	0	435159040	50	6603
2026-01-24 17:56:01.24	19.61	8.96	-38.7	-39.5	22.9	0.00e+00	0	40	0	441450496	50	6059
2026-01-24 17:56:02.24	19.56	9.04	-38.9	-39.7	22.0	0.00e+00	0	40	0	446693376	50	6241
2026-01-24 17:56:03.26	19.51	9.12	-38.2	-39.0	23.4	0.00e+00	0	40	0	451936256	50	5734
2026-01-24 17:56:04.27	19.46	9.20	-39.8	-40.6	21.7	0.00e+00	0	40	0	458227712	50	6889
2026-01-24 17:56:05.28	19.41	9.29	-39.5	-40.4	21.7	0.00e+00	0	40	0	463470592	52	5969
2026-01-24 17:56:06.29	19.36	9.37	-38.8	-39.6	22.4	0.00e+00	0	40	0	469762048	52	5475
2026-01-24 17:56:07.30	19.31	9.45	-38.6	-39.4	22.7	0.00e+00	0	40	0	475004928	48	6702
2026-01-24 17:56:08.30	19.26	9.53	-38.5	-39.3	22.7	0.00e+00	0	40	0	480247808	50	5919
2026-01-24 17:56:09.32	19.21	9.61	-39.1	-39.9	22.2	0.00e+00	0	40	0	486539264	50	6383
2026-01-24 17:56:10.32	19.16	9.70	-39.5	-40.3	21.7	0.00e+00	0	40	0	491782144	50	6691
2026-01-24 17:56:11.34	19.11	9.78	-39.5	-40.3	21.7	0.00e+00	0	40	0	498073600	52	5939
2026-01-24 17:56:12.34	19.06	9.86	-40.8	-41.7	21.2	0.00e+00	0	40	0	503316480	52	6977
2026-01-24 17:56:13.35	19.01	9.95	-38.6	-39.4	22.9	0.00e+00	0	40	0	508559360	50	5970
2026-01-24 17:56:14.36	18.96	10.03	-38.0	-38.7	23.3	0.00e+00	0	40	0	514850816	50	5531
2026-01-24 17:56:15.37	18.91	10.11	-37.6	-38.4	23.5	0.00e+00	0	40	0	520093696	48	5971
2026-01-24 17:56:16.38	18.86	10.20	-37.0	-37.7	24.0	0.00e+00	0	40	0	526385152	48	5533
2026-01-24 17:56:17.39	18.80	10.28	-37.2	-38.0	24.0	0.00e+00	0	40	0	531628032	48	5716
2026-01-24 17:56:18.40	18.75	10.37	-37.4	-38.2	24.0	0.00e+00	0	40	0	537919488	48	5832
2026-01-24 17:56:19.41	18.70	10.45	-37.1	-37.9	24.2	0.00e+00	0	40	0	543162368	48	5644
2026-01-24 17:56:20.42	18.64	10.54	-37.8	-38.6	23.6	0.00e+00	0	40	0	549453824	48	6130
2026-01-24 17:56:21.43	18.59	10.62	-37.0	-37.7	24.3	0.00e+00	0	40	0	554696704	48	5552
2026-01-24 17:56:22.44	18.54	10.71	-37.1	-37.8	24.2	0.00e+00	0	40	0	559939584	48	5607
2026-01-24 17:56:23.45	18.48	10.80	-37.0	-37.7	24.2	0.00e+00	0	40	0	566231040	48	5557
2026-01-24 17:56:24.46	18.43	10.88	-36.8	-37.4	24.4	0.00e+00	0	40	0	571473920	46	6031
2026-01-24 17:56:25.47	18.37	10.97	-37.1	-37.8	24.1	0.00e+00	0	40	0	577765376	46	6293
2026-01-24 17:56:26.48	18.31	11.06	-36.4	-37.1	24.8	0.00e+00	0	40	0	583008256	46	5792
2026-01-24 17:56:27.49	18.26	11.14	-37.2	-38.0	23.9	0.00e+00	0	40	0	588251136	46	6396
2026-01-24 17:56:28.50	18.20	11.23	-37.0	-37.7	24.2	0.00e+00	0	40	0	594542592	46	6220
2026-01-24 17:56:29.51	18.15	11.32	-36.8	-37.5	24.5	0.00e+00	0	40	0	599785472	46	6064
2026-01-24 17:56:30.52	18.09	11.41	-36.6	-37.3	24.5	0.00e+00	0	40	0	605028352	46	5922
2026-01-24 17:56:31.52	18.03	11.49	-37.1	-37.8	24.0	0.00e+00	0	40	0	611319808	46	6263
2026-01-24 17:56:32.53	17.97	11.58	-37.3	-38.0	23.9	0.00e+00	0	40	0	616562688	46	6423
2026-01-24 17:56:33.54	17.92	11.67	-36.8	-37.5	24.5	0.00e+00	0	40	0	622854144	46	6077
2026-01-24 17:56:34.55	17.86	11.76	-36.7	-37.4	24.5	0.00e+00	0	40	0	628097024	46	6024
2026-01-24 17:56:35.56	17.80	11.85	-37.1	-37.8	24.3	0.00e+00	0	40	0	634388480	46	6256
2026-01-24 17:56:36.57	17.74	11.94	-37.4	-38.1	24.2	0.00e+00	0	40	0	639631360	46	6539
2026-01-24 17:56:37.58	17.68	12.03	-37.6	-38.3	23.9	0.00e+00	0	40	0	645922816	46	6646
2026-01-24 17:56:38.59	17.62	12.12	-37.2	-37.9	24.3	0.00e+00	0	40	0	651165696	48	5673
2026-01-24 17:56:39.60	17.56	12.21	-36.8	-37.5	24.3	0.00e+00	0	41	0	656408576	46	6081
2026-01-24 17:56:40.61	17.50	12.30	-37.0	-37.7	24.2	0.00e+00	0	40	0	662700032	46	6223
2026-01-24 17:56:41.62	17.44	12.40	-36.5	-37.2	24.6	0.00e+00	0	40	0	667942912	46	5890
2026-01-24 17:56:42.63	17.37	12.49	-36.7	-37.4	24.5	0.00e+00	0	40	0	674234368	46	6002
2026-01-24 17:56:43.64	17.31	12.58	-36.6	-37.3	24.6	0.00e+00	0	40	0	679477248	46	5956
2026-01-24 17:56:44.65	17.25	12.67	-36.9	-37.6	24.5	0.00e+00	0	40	0	684720128	46	6131
2026-01-24 17:56:45.65	17.19	12.76	-36.3	-37.0	24.9	0.00e+00	0	41	0	691011584	46	5697
2026-01-24 17:56:46.66	17.12	12.86	-36.5	-37.1	24.8	0.00e+00	0	40	0	696254464	46	5820
2026-01-24 17:56:47.67	17.06	12.95	-36.4	-37.1	24.8	0.00e+00	0	40	0	702545920	46	5788
2026-01-24 17:56:48.68	16.99	13.04	-36.3	-36.9	25.0	0.00e+00	0	40	0	707788800	46	5692
2026-01-24 17:56:49.69	16.93	13.14	-36.3	-37.0	24.9	0.00e+00	0	40	0	714080256	46	5727
2026-01-24 17:56:50.70	16.86	13.23	-36.3	-37.0	24.9	0.00e+00	0	40	0	719323136	46	5706
2026-01-24 17:56:51.71	16.80	13.33	-36.4	-37.1	24.8	0.00e+00	0	40	0	724566016	46	5765
2026-01-24 17:56:52.72	16.73	13.42	-36.7	-37.4	24.6	0.00e+00	0	40	0	730857472	46	5984
2026-01-24 17:56:53.73	16.67	13.52	-36.6	-37.2	24.8	0.00e+00	0	40	0	736100352	46	5881
2026-01-24 17:56:54.74	16.60	13.61	-36.5	-37.1	24.7	0.00e+00	0	40	0	742391808	46	5819
2026-01-24 17:56:55.75	16.53	13.71	-36.4	-37.1	24.9	0.00e+00	0	40	0	747634688	46	5787
2026-01-24 17:56:56.76	16.46	13.80	-36.2	-36.8	25.1	0.00e+00	0	40	0	752877568	46	5627
2026-01-24 17:56:57.77	16.40	13.90	-36.1	-36.8	25.1	0.00e+00	0	41	0	759169024	46	5607
2026-01-24 17:56:58.78	16.33	14.00	-36.2	-36.9	24.9	0.00e+00	0	40	0	764411904	46	5649
2026-01-24 17:56:59.79	16.26	14.10	-36.1	-36.8	25.2	0.00e+00	0	40	0	770703360	46	5576
2026-01-24 17:57:00.80	16.19	14.19	-36.2	-36.9	25.3	0.00e+00	0	40	0	775946240	46	5657
2026-01-24 17:57:01.81	16.12	14.29	-36.0	-36.7	25.3	0.00e+00	0	40	0	781189120	46	5537
2026-01-24 17:57:02.82	16.05	14.39	-36.2	-36.9	25.3	0.00e+00	0	40	0	787480576	46	5638
2026-01-24 17:57:03.83	15.98	14.49	-36.5	-37.2	24.9	0.00e+00	0	41	0	792723456	46	5861
2026-01-24 17:57:04.84	15.90	14.59	-36.3	-37.0	25.0	0.00e+00	0	40	0	799014912	46	5743
2026-01-24 17:57:05.85	15.83	14.69	-36.2	-36.9	25.2	0.00e+00	0	41	0	804257792	46	5673
2026-01-24 17:57:06.86	15.76	14.79	-36.0	-36.7	25.4	0.00e+00	0	40	0	809500672	46	5547
2026-01-24 17:57:07.87	15.69	14.89	-35.9	-36.6	25.3	0.00e+00	0	40	0	815792128	46	5450
2026-01-24 17:57:08.88	15.61	14.99	-35.9	-36.5	25.3	0.00e+00	0	40	0	822083584	46	5439
2026-01-24 17:57:09.89	15.54	15.09	-36.0	-36.6	25.5	0.00e+00	0	41	0	827326464	46	5482
2026-01-24 17:57:10.90	15.46	15.19	-35.9	-36.6	25.4	0.00e+00	0	40	0	832569344	46	5469
2026-01-24 17:57:11.91	15.39	15.29	-35.9	-36.6	25.4	0.00e+00	0	40	0	838860800	46	5473
2026-01-24 17:57:12.92	15.31	15.39	-35.7	-36.4	25.5	0.00e+00	0	40	0	844103680	44	6014
2026-01-24 17:57:13.93	15.23	15.50	-36.1	-36.8	25.3	0.00e+00	0	41	0	850395136	44	6255
2026-01-24 17:57:14.94	15.16	15.60	-35.7	-36.4	25.5	0.00e+00	0	41	0	855638016	44	5979
2026-01-24 17:57:15.95	15.08	15.70	-35.8	-36.4	25.6	0.00e+00	0	40	0	860880896	44	6006
2026-01-24 17:57:16.96	15.00	15.81	-35.6	-36.3	25.7	0.00e+00	0	40	0	867172352	44	5915
2026-01-24 17:57:17.97	14.92	15.91	-35.6	-36.3	25.7	0.00e+00	0	40	0	872415232	44	5926
2026-01-24 17:57:18.98	14.84	16.01	-35.3	-35.9	25.9	0.00e+00	0	40	0	878706688	44	5672
2026-01-24 17:57:19.99	14.76	16.12	-35.3	-36.0	25.8	0.00e+00	0	40	0	883949568	44	5718
2026-01-24 17:57:20.99	14.68	16.22	-35.1	-35.8	26.0	0.00e+00	0	40	0	889192448	44	5578
2026-01-24 17:57:22.01	14.60	16.33	-35.3	-36.0	25.8	0.00e+00	0	41	0	895483904	44	5709
2026-01-24 17:57:23.01	14.52	16.43	-35.2	-35.8	25.9	0.00e+00	0	40	0	900726784	44	5608
2026-01-24 17:57:24.02	14.44	16.54	-35.3	-35.9	26.0	0.00e+00	0	40	0	907018240	44	5685
2026-01-24 17:57:25.03	14.36	16.65	-35.2	-35.9	25.9	0.00e+00	0	40	0	912261120	44	5649
2026-01-24 17:57:26.04	14.27	16.75	-35.3	-35.9	25.7	0.00e+00	0	41	0	918552576	44	5693
2026-01-24 17:57:27.05	14.19	16.86	-35.3	-35.9	25.8	0.00e+00	0	40	0	923795456	44	5695
2026-01-24 17:57:28.06	14.10	16.97	-35.3	-35.9	26.0	0.00e+00	0	41	0	929038336	44	5669
2026-01-24 17:57:29.07	14.02	17.08	-35.5	-36.1	25.8	0.00e+00	0	40	0	935329792	44	5819
2026-01-24 17:57:30.08	13.93	17.19	-35.3	-36.0	26.0	0.00e+00	0	40	0	940572672	44	5716
2026-01-24 17:57:31.09	13.85	17.30	-35.3	-35.9	26.0	0.00e+00	0	41	0	946864128	44	5673
2026-01-24 17:57:32.10	13.76	17.40	-35.4	-36.0	26.0	0.00e+00	0	40	0	952107008	44	5731
2026-01-24 17:57:33.11	13.67	17.51	-35.2	-35.8	26.1	0.00e+00	0	40	0	957349888	44	5597
2026-01-24 17:57:34.12	13.58	17.63	-35.1	-35.7	26.1	0.00e+00	0	40	0	963641344	44	5563
2026-01-24 17:57:35.13	13.49	17.74	-35.3	-35.9	25.9	0.00e+00	0	40	0	968884224	44	5660
2026-01-24 17:57:36.14	13.40	17.85	-35.1	-35.7	26.0	0.00e+00	0	41	0	975175680	44	5551
2026-01-24 17:57:37.15	13.31	17.96	-35.7	-36.4	25.9	0.00e+00	0	40	0	980418560	44	5984
2026-01-24 17:57:38.16	13.22	18.07	-35.1	-35.7	26.2	0.00e+00	0	41	0	985661440	44	5550
2026-01-24 17:57:39.17	13.13	18.18	-35.0	-35.7	26.2	0.00e+00	0	40	0	991952896	44	5545
2026-01-24 17:57:40.18	13.03	18.30	-34.8	-35.5	26.3	0.00e+00	0	40	0	997195776	44	5395
2026-01-24 17:57:41.19	12.94	18.41	-34.9	-35.5	26.3	0.00e+00	0	40	0	1003487232	44	5397
2026-01-24 17:57:42.20	12.85	18.52	-35.0	-35.7	26.3	0.00e+00	0	40	0	1008730112	44	5504
2026-01-24 17:57:43.21	12.75	18.64	-34.9	-35.6	26.3	0.00e+00	0	41	0	1015021568	44	5471
2026-01-24 17:57:44.22	12.66	18.75	-35.0	-35.6	26.3	0.00e+00	0	41	0	1020264448	44	5483
2026-01-24 17:57:45.23	12.56	18.87	-34.9	-35.5	26.4	0.00e+00	0	40	0	1026555904	44	5424
2026-01-24 17:57:46.24	12.46	18.98	-35.0	-35.7	26.2	0.00e+00	0	40	0	1031798784	44	5511
2026-01-24 17:57:47.24	12.36	19.10	-35.3	-35.9	26.0	0.00e+00	0	41	0	1037041664	44	5665
2026-01-24 17:57:48.25	12.27	19.22	-35.0	-35.6	26.3	0.00e+00	0	41	0	1043333120	44	5497
2026-01-24 17:57:49.27	12.17	19.33	-35.0	-35.6	26.2	0.00e+00	0	41	0	1048576000	44	5501
2026-01-24 17:57:50.28	12.06	19.45	-34.9	-35.5	26.3	0.00e+00	0	41	0	1054867456	44	5425
2026-01-24 17:57:51.29	11.96	19.57	-34.9	-35.5	26.4	0.00e+00	0	41	0	1060110336	44	5436
2026-01-24 17:57:52.30	11.86	19.69	-34.9	-35.5	26.3	0.00e+00	0	41	0	1065353216	44	5436
2026-01-24 17:57:53.31	11.76	19.81	-34.8	-35.5	26.4	0.00e+00	0	41	0	1071644672	44	5404
2026-01-24 17:57:54.32	11.65	19.93	-35.0	-35.6	26.3	0.00e+00	0	41	0	1076887552	44	5497
2026-01-24 17:57:55.33	11.55	20.05	-34.7	-35.3	26.5	0.00e+00	0	41	0	1083179008	42	5959
2026-01-24 17:57:56.34	11.44	20.17	-34.7	-35.4	26.5	0.00e+00	0	41	0	1088421888	42	5972
2026-01-24 17:57:57.35	11.34	20.29	-34.6	-35.2	26.7	0.00e+00	0	41	0	1093664768	42	5877
2026-01-24 17:57:58.36	11.23	20.41	-34.5	-35.1	26.7	0.00e+00	0	41	0	1099956224	42	5793
2026-01-24 17:57:59.37	11.12	20.53	-34.5	-35.1	26.7	0.00e+00	0	41	0	1105199104	42	5790
2026-01-24 17:58:00.38	11.01	20.65	-34.3	-34.9	26.9	0.00e+00	0	41	0	1111490560	42	5644
2026-01-24 17:58:01.39	10.90	20.77	-34.1	-34.7	27.0	0.00e+00	0	41	0	1116733440	42	5545
2026-01-24 17:58:02.40	10.79	20.90	-34.1	-34.8	26.9	0.00e+00	0	41	0	1123024896	42	5567
2026-01-24 17:58:03.41	10.68	21.02	-34.1	-34.7	27.1	0.00e+00	0	41	0	1128267776	42	5543
2026-01-24 17:58:04.41	10.57	21.14	-34.2	-34.8	26.9	0.00e+00	0	41	0	1133510656	42	5621
2026-01-24 17:58:05.42	10.46	21.27	-34.0	-34.6	27.1	0.00e+00	0	41	0	1139802112	42	5490
2026-01-24 17:58:06.43	10.34	21.39	-34.1	-34.8	27.1	0.00e+00	0	41	0	1145044992	42	5567
2026-01-24 17:58:07.44	10.23	21.52	-34.2	-34.8	27.0	0.00e+00	0	41	0	1151336448	42	5610
2026-01-24 17:58:08.45	10.11	21.65	-34.1	-34.8	27.1	0.00e+00	0	41	0	1156579328	42	5586
2026-01-24 17:58:09.46	9.99	21.77	-34.1	-34.7	27.1	0.00e+00	0	40	0	1161822208	42	5533
2026-01-24 17:58:10.47	9.87	21.90	-34.0	-34.7	27.1	0.00e+00	0	41	0	1168113664	42	5505
2026-01-24 17:58:11.48	9.76	22.03	-34.1	-34.7	27.0	0.00e+00	0	41	0	1173356544	42	5527
2026-01-24 17:58:12.49	9.63	22.15	-34.0	-34.6	27.2	0.00e+00	0	41	0	1179648000	42	5485
2026-01-24 17:58:13.50	9.51	22.28	-33.9	-34.5	27.3	0.00e+00	0	41	0	1184890880	42	5417
2026-01-24 17:58:14.51	9.39	22.41	-34.0	-34.6	27.2	0.00e+00	0	41	0	1190133760	42	5472
2026-01-24 17:58:15.52	9.27	22.54	-33.9	-34.5	27.2	0.00e+00	0	41	0	1196425216	42	5428
2026-01-24 17:58:16.53	9.14	22.67	-34.0	-34.6	27.1	0.00e+00	0	41	0	1201668096	42	5475
2026-01-24 17:58:17.54	9.02	22.80	-34.0	-34.6	27.1	0.00e+00	0	41	0	1207959552	42	5467
2026-01-24 17:58:18.55	8.89	22.93	-34.1	-34.7	27.1	0.00e+00	0	41	0	1213202432	42	5557
2026-01-24 17:58:19.56	8.76	23.07	-34.0	-34.6	27.2	0.00e+00	0	41	0	1219493888	42	5471
2026-01-24 17:58:20.57	8.63	23.20	-34.0	-34.7	27.2	0.00e+00	0	41	0	1224736768	42	5508
2026-01-24 17:58:21.58	8.50	23.33	-33.9	-34.5	27.2	0.00e+00	0	41	0	1231028224	42	5422
2026-01-24 17:58:22.59	8.37	23.46	-34.0	-34.6	27.2	0.00e+00	0	41	0	1236271104	42	5490
2026-01-24 17:58:23.60	8.24	23.60	-33.9	-34.6	27.2	0.00e+00	0	41	0	1241513984	42	5452
2026-01-24 17:58:24.61	8.11	23.73	-33.8	-34.5	27.4	0.00e+00	0	41	0	1247805440	42	5382
2026-01-24 17:58:25.62	7.97	23.87	-33.8	-34.5	27.3	0.00e+00	0	41	0	1253048320	42	5387
2026-01-24 17:58:26.63	7.83	24.00	-33.9	-34.6	27.2	0.00e+00	0	41	0	1259339776	42	5444
2026-01-24 17:58:27.64	7.70	24.14	-33.8	-34.4	27.4	0.00e+00	0	41	0	1264582656	42	5317
2026-01-24 17:58:28.65	7.56	24.27	-33.8	-34.4	27.3	0.00e+00	0	41	0	1269825536	42	5375
2026-01-24 17:58:29.65	7.42	24.41	-33.7	-34.3	27.4	0.00e+00	0	41	0	1276116992	40	5938
2026-01-24 17:58:30.66	7.28	24.55	-33.8	-34.4	27.4	0.00e+00	0	41	0	1281359872	40	6016
2026-01-24 17:58:31.67	7.14	24.69	-33.7	-34.3	27.4	0.00e+00	0	41	0	1287651328	40	5960
2026-01-24 17:58:32.68	6.99	24.82	-33.7	-34.3	27.3	0.00e+00	0	41	0	1292894208	40	5924
2026-01-24 17:58:33.69	6.85	24.96	-33.6	-34.3	27.5	0.00e+00	0	41	0	1298137088	40	5907
2026-01-24 17:58:34.70	6.70	25.10	-33.6	-34.3	27.5	0.00e+00	0	41	0	1304428544	40	5933
2026-01-24 17:58:35.71	6.56	25.24	-33.7	-34.4	27.4	0.00e+00	0	41	0	1309671424	40	5970
2026-01-24 17:58:36.72	6.41	25.38	-33.5	-34.1	27.5	0.00e+00	0	41	0	1315962880	40	5826
2026-01-24 17:58:37.72	6.26	25.52	-33.4	-34.1	27.6	0.00e+00	0	41	0	1321205760	40	5765
2026-01-24 17:58:38.73	6.11	25.67	-33.6	-34.3	27.5	0.00e+00	0	41	0	1327497216	40	5900
2026-01-24 17:58:39.74	5.95	25.81	-33.2	-33.8	27.8	0.00e+00	0	41	0	1332740096	40	5597
2026-01-24 17:58:40.75	5.80	25.95	-33.2	-33.9	27.8	0.00e+00	0	41	0	1337982976	40	5646
2026-01-24 17:58:41.76	5.64	26.09	-33.1	-33.7	27.9	0.00e+00	0	41	0	1344274432	40	5520
2026-01-24 17:58:42.77	5.49	26.24	-33.0	-33.7	27.9	0.00e+00	0	41	0	1349517312	40	5520
2026-01-24 17:58:43.78	5.33	26.38	-33.2	-33.8	27.9	0.00e+00	0	41	0	1355808768	40	5569
2026-01-24 17:58:44.79	5.17	26.53	-33.1	-33.8	28.0	0.00e+00	0	41	0	1361051648	40	5572
2026-01-24 17:58:45.80	5.01	26.67	-33.0	-33.7	28.0	0.00e+00	0	41	0	1366294528	40	5515
2026-01-24 17:58:46.81	4.84	26.82	-32.8	-33.4	28.1	0.00e+00	0	41	0	1372585984	40	5367
2026-01-24 17:58:47.82	4.68	26.96	-33.0	-33.6	28.0	0.00e+00	0	41	0	1377828864	40	5478
2026-01-24 17:58:48.83	4.51	27.11	-33.0	-33.6	27.9	0.00e+00	0	41	0	1384120320	40	5492
2026-01-24 17:58:49.84	4.35	27.26	-33.2	-33.8	27.9	0.00e+00	0	41	0	1389363200	40	5586
2026-01-24 17:58:50.85	4.18	27.41	-33.2	-33.9	27.7	0.00e+00	0	41	0	1394606080	40	5652
2026-01-24 17:58:51.86	4.00	27.56	-33.4	-34.0	27.7	0.00e+00	0	41	0	1400897536	40	5748
2026-01-24 17:58:52.87	3.83	27.71	-33.4	-34.0	27.7	0.00e+00	0	41	0	1406140416	40	5722
2026-01-24 17:58:53.88	3.66	27.85	-33.4	-34.0	27.7	0.00e+00	0	41	0	1412431872	40	5724
2026-01-24 17:58:54.89	3.48	28.00	-33.6	-34.2	27.7	0.00e+00	0	41	0	1417674752	40	5887
2026-01-24 17:58:55.90	3.30	28.16	-33.5	-34.1	27.6	0.00e+00	0	41	0	1423966208	40	5765
2026-01-24 17:58:56.91	3.12	28.31	-33.3	-33.9	27.9	0.00e+00	0	41	0	1429209088	40	5657
2026-01-24 17:58:57.92	2.94	28.46	-33.3	-33.9	27.8	0.00e+00	0	41	0	1435500544	40	5673
2026-01-24 17:58:58.93	2.76	28.61	-33.2	-33.8	27.9	0.00e+00	0	41	0	1440743424	40	5587
2026-01-24 17:58:59.94	2.58	28.76	-33.1	-33.7	27.9	0.00e+00	0	41	0	1445986304	40	5553
2026-01-24 17:59:00.95	2.39	28.92	-33.1	-33.7	28.0	0.00e+00	0	41	0	1452277760	40	5519
2026-01-24 17:59:01.96	2.20	29.07	-33.1	-33.7	28.0	0.00e+00	0	41	0	1457520640	40	5540
2026-01-24 17:59:02.97	2.01	29.22	-33.5	-34.1	27.8	0.00e+00	0	41	0	1463812096	40	5801
2026-01-24 17:59:03.98	1.82	29.38	-33.3	-33.9	28.0	0.00e+00	0	41	0	1469054976	40	5655
2026-01-24 17:59:04.99	1.63	29.53	-33.2	-33.8	27.9	0.00e+00	0	41	0	1474297856	40	5630
2026-01-24 17:59:06.00	1.43	29.69	-33.1	-33.7	28.1	0.00e+00	0	41	0	1480589312	40	5542
2026-01-24 17:59:07.01	1.23	29.85	-33.1	-33.7	27.9	0.00e+00	0	41	0	1485832192	40	5530
2026-01-24 17:59:08.02	1.03	30.00	-33.1	-33.7	28.0	0.00e+00	0	41	0	1492123648	40	5537
2026-01-24 17:59:09.03	0.83	30.16	-33.0	-33.6	28.0	0.00e+00	0	41	0	1497366528	40	5447
2026-01-24 17:59:10.03	0.63	30.31	-32.9	-33.5	28.1	0.00e+00	0	41	0	1502609408	40	5420
2026-01-24 17:59:11.05	0.42	30.47	-33.1	-33.7	28.2	0.00e+00	0	41	0	1508900864	40	5515
2026-01-24 17:59:12.05	0.22	30.63	-33.1	-33.8	28.0	0.00e+00	0	41	0	1514143744	40	5567
2026-01-24 17:59:13.07	0.00	30.79	-33.0	-33.6	28.0	0.00e+00	0	41	0	1520435200	40	5484
2026-01-24 17:59:14.07	359.79	30.95	-33.1	-33.7	28.0	0.00e+00	0	41	0	1525678080	40	5527
2026-01-24 17:59:15.08	359.58	31.11	-32.9	-33.5	28.1	0.00e+00	0	41	0	1531969536	40	5426
2026-01-24 17:59:16.09	359.36	31.27	-32.9	-33.5	28.0	0.00e+00	0	41	0	1537212416	40	5393
2026-01-24 17:59:17.10	359.14	31.43	-32.8	-33.4	28.1	0.00e+00	0	41	0	1542455296	38	5993
2026-01-24 17:59:18.11	358.92	31.59	-32.8	-33.4	28.1	0.00e+00	0	41	0	1548746752	38	5993
2026-01-24 17:59:19.12	358.70	31.75	-32.9	-33.6	28.1	0.00e+00	0	41	0	1553989632	38	6116
2026-01-24 17:59:20.13	358.48	31.91	-32.9	-33.5	28.2	0.00e+00	0	41	0	1560281088	38	6035
2026-01-24 17:59:21.14	358.25	32.07	-33.0	-33.6	28.1	0.00e+00	0	41	0	1565523968	38	6155
2026-01-24 17:59:22.15	358.02	32.24	-33.0	-33.6	28.2	0.00e+00	0	41	0	1570766848	38	6128
2026-01-24 17:59:23.16	357.79	32.40	-33.1	-33.7	28.0	0.00e+00	0	41	0	1577058304	38	6236
2026-01-24 17:59:24.17	357.55	32.56	-33.3	-33.9	27.9	0.00e+00	0	41	0	1582301184	38	6348
2026-01-24 17:59:25.18	357.32	32.73	-33.2	-33.8	28.0	0.00e+00	0	41	0	1588592640	38	6294
2026-01-24 17:59:26.19	357.08	32.89	-33.1	-33.7	27.9	0.00e+00	0	41	0	1593835520	38	6206
2026-01-24 17:59:27.20	356.83	33.05	-33.0	-33.6	28.1	0.00e+00	0	41	0	1599078400	38	6155
2026-01-24 17:59:28.20	356.59	33.22	-33.0	-33.6	28.1	0.00e+00	0	41	0	1605369856	38	6122
2026-01-24 17:59:29.21	356.35	33.38	-33.0	-33.6	28.0	0.00e+00	0	41	0	1610612736	38	6136
2026-01-24 17:59:30.23	356.09	33.55	-32.8	-33.4	28.1	0.00e+00	0	41	0	1616904192	38	6014
2026-01-24 17:59:31.23	355.84	33.71	-32.9	-33.5	28.2	0.00e+00	0	41	0	1622147072	38	6059
2026-01-24 17:59:32.24	355.59	33.88	-32.9	-33.5	28.1	0.00e+00	0	41	0	1628438528	38	6063
2026-01-24 17:59:33.25	355.33	34.04	-32.9	-33.5	28.2	0.00e+00	0	41	0	1633681408	38	6072
2026-01-24 17:59:34.26	355.07	34.21	-33.0	-33.7	28.0	0.00e+00	0	41	0	1638924288	38	6175
2026-01-24 17:59:35.27	354.81	34.37	-33.0	-33.6	28.3	0.00e+00	0	41	0	1645215744	38	6150
2026-01-24 17:59:36.28	354.55	34.54	-32.9	-33.5	28.3	0.00e+00	0	41	0	1650458624	38	6062
2026-01-24 17:59:37.29	354.28	34.71	-32.7	-33.3	28.3	0.00e+00	0	41	0	1656750080	38	5960
2026-01-24 17:59:38.30	354.01	34.87	-33.0	-33.6	28.2	0.00e+00	0	41	0	1661992960	38	6168
2026-01-24 17:59:39.31	353.73	35.04	-33.1	-33.7	28.1	0.00e+00	0	41	0	1667235840	38	6237
2026-01-24 17:59:40.32	353.46	35.21	-33.2	-33.8	28.1	0.00e+00	0	41	0	1673527296	38	6268
2026-01-24 17:59:41.33	353.18	35.37	-33.2	-33.9	27.8	0.00e+00	0	41	0	1678770176	38	6319
2026-01-24 17:59:42.33	352.90	35.54	-33.2	-33.9	27.9	0.00e+00	0	41	0	1685061632	38	6321
2026-01-24 17:59:43.34	352.61	35.71	-33.4	-34.0	27.8	0.00e+00	0	41	0	1690304512	38	6424
2026-01-24 17:59:44.35	352.33	35.87	-33.5	-34.1	27.7	0.00e+00	0	41	0	1695547392	38	6502
2026-01-24 17:59:45.36	352.03	36.04	-33.6	-34.2	27.7	0.00e+00	0	41	0	1701838848	40	5877
2026-01-24 17:59:46.37	351.74	36.21	-33.6	-34.2	27.7	0.00e+00	0	41	0	1707081728	40	5888
2026-01-24 17:59:47.38	351.44	36.38	-33.1	-33.7	28.0	0.00e+00	0	41	0	1713373184	40	5514
2026-01-24 17:59:48.40	351.14	36.54	-33.0	-33.6	28.1	0.00e+00	0	41	0	1718616064	40	5499
2026-01-24 17:59:49.40	350.84	36.71	-32.9	-33.5	28.0	0.00e+00	0	41	0	1724907520	40	5423
2026-01-24 17:59:50.41	350.53	36.88	-33.0	-33.6	27.9	0.00e+00	0	41	0	1730150400	40	5480
2026-01-24 17:59:51.43	350.22	37.05	-33.1	-33.7	28.0	0.00e+00	0	41	0	1736441856	40	5539
2026-01-24 17:59:52.43	349.91	37.21	-33.0	-33.6	28.1	0.00e+00	0	41	0	1741684736	40	5480
2026-01-24 17:59:53.44	349.59	37.38	-32.8	-33.3	28.2	0.00e+00	0	41	0	1746927616	40	5306
2026-01-24 17:59:54.45	349.27	37.54	-32.9	-33.5	28.1	0.00e+00	0	41	0	1753219072	38	6046
2026-01-24 17:59:55.46	348.95	37.71	-32.9	-33.5	28.2	0.00e+00	0	41	0	1758461952	38	6059
2026-01-24 17:59:56.47	348.63	37.88	-32.8	-33.4	28.3	0.00e+00	0	41	0	1764753408	38	5999
2026-01-24 17:59:57.48	348.30	38.04	-32.7	-33.3	28.3	0.00e+00	0	41	0	1769996288	38	5908
2026-01-24 17:59:58.49	347.96	38.21	-32.7	-33.3	28.2	0.00e+00	0	41	0	1775239168	38	5939
2026-01-24 17:59:59.50	347.63	38.37	-32.7	-33.3	28.1	0.00e+00	0	41	0	1781530624	38	5958
2026-01-24 18:00:00.51	347.29	38.54	-33.0	-33.6	28.0	0.00e+00	0	41	0	1786773504	38	6139
2026-01-24 18:00:01.52	346.94	38.70	-33.3	-33.9	27.8	0.00e+00	0	41	0	1793064960	38	6371
2026-01-24 18:00:02.53	346.60	38.87	-33.4	-34.1	27.8	0.00e+00	0	41	0	1798307840	38	6468
2026-01-24 18:00:03.54	346.25	39.03	-33.4	-34.0	27.7	0.00e+00	0	41	0	1803550720	38	6439
2026-01-24 18:00:04.55	345.89	39.19	-33.2	-33.9	28.0	0.00e+00	0	41	0	1809842176	38	6319
2026-01-24 18:00:05.56	345.53	39.36	-33.2	-33.9	27.9	0.00e+00	0	41	0	1815085056	38	6337
2026-01-24 18:00:06.57	345.17	39.52	-32.9	-33.5	28.0	0.00e+00	0	41	0	1821376512	38	6091
2026-01-24 18:00:07.58	344.81	39.68	-32.8	-33.4	28.2	0.00e+00	0	41	0	1826619392	38	6026
2026-01-24 18:00:08.59	344.44	39.84	-32.9	-33.5	28.1	0.00e+00	0	41	0	1832910848	38	6081
2026-01-24 18:00:09.60	344.07	40.00	-33.0	-33.6	28.1	0.00e+00	0	41	0	1838153728	38	6110
2026-01-24 18:00:10.61	343.69	40.16	-32.9	-33.5	28.2	0.00e+00	0	41	0	1843396608	38	6080
2026-01-24 18:00:11.62	343.31	40.32	-33.0	-33.6	28.2	0.00e+00	0	41	0	1849688064	38	6106
2026-01-24 18:00:12.63	342.93	40.48	-33.2	-33.7	27.9	0.00e+00	0	41	0	1854930944	38	6243
2026-01-24 18:00:13.64	342.54	40.64	-33.2	-33.9	27.9	0.00e+00	0	41	0	1861222400	38	6326
2026-01-24 18:00:14.65	342.15	40.80	-33.3	-33.9	27.9	0.00e+00	0	41	0	1866465280	38	6334
2026-01-24 18:00:15.66	341.75	40.95	-33.2	-33.8	28.0	0.00e+00	0	41	0	1871708160	38	6265
2026-01-24 18:00:16.67	341.36	41.11	-33.1	-33.7	28.1	0.00e+00	0	41	0	1877999616	38	6212
2026-01-24 18:00:17.68	340.95	41.26	-33.3	-33.9	28.2	0.00e+00	0	41	0	1883242496	38	6331
2026-01-24 18:00:18.69	340.55	41.41	-32.7	-33.3	28.4	0.00e+00	0	41	0	1889533952	38	5914
2026-01-24 18:00:19.70	340.14	41.57	-32.8	-33.4	28.3	0.00e+00	0	41	0	1894776832	38	6026
2026-01-24 18:00:20.70	339.73	41.72	-33.0	-33.7	28.2	0.00e+00	0	41	0	1900019712	38	6191
2026-01-24 18:00:21.71	339.31	41.87	-32.9	-33.6	28.3	0.00e+00	0	41	0	1906311168	38	6112
2026-01-24 18:00:22.72	338.89	42.01	-32.9	-33.5	28.3	0.00e+00	0	41	0	1911554048	38	6063
2026-01-24 18:00:23.73	338.46	42.16	-33.0	-33.6	28.2	0.00e+00	0	41	0	1917845504	38	6116
2026-01-24 18:00:24.74	338.03	42.31	-33.2	-33.7	28.1	0.00e+00	0	41	0	1923088384	38	6236
2026-01-24 18:00:25.75	337.60	42.45	-33.4	-34.0	28.0	0.00e+00	0	41	0	1929379840	38	6417
2026-01-24 18:00:26.76	337.16	42.60	-33.5	-34.2	27.8	0.00e+00	0	41	0	1934622720	38	6541
2026-01-24 18:00:27.77	336.72	42.74	-33.5	-34.2	27.8	0.00e+00	0	41	0	1940914176	38	6548
2026-01-24 18:00:28.78	336.27	42.88	-33.2	-33.8	27.9	0.00e+00	0	41	0	1946157056	40	5609
2026-01-24 18:00:29.79	335.82	43.02	-33.2	-33.8	28.0	0.00e+00	0	41	0	1951399936	40	5611
2026-01-24 18:00:30.80	335.37	43.16	-33.2	-33.8	28.0	0.00e+00	0	41	0	1957691392	40	5614
2026-01-24 18:00:31.81	334.91	43.30	-33.2	-33.8	28.0	0.00e+00	0	41	0	1962934272	40	5628
2026-01-24 18:00:32.82	334.45	43.43	-33.2	-33.8	28.0	0.00e+00	0	41	0	1968177152	40	5622
2026-01-24 18:00:33.83	333.98	43.57	-33.3	-33.9	27.9	0.00e+00	0	41	0	1974468608	40	5660
2026-01-24 18:00:34.84	333.51	43.70	-33.1	-33.7	28.2	0.00e+00	0	41	0	1979711488	40	5509
2026-01-24 18:00:35.84	333.04	43.83	-33.2	-33.8	28.2	0.00e+00	0	41	0	1986002944	40	5623
2026-01-24 18:00:36.85	332.57	43.95	-33.2	-33.9	28.0	0.00e+00	0	41	0	1991245824	40	5648
2026-01-24 18:00:37.86	332.08	44.08	-33.3	-33.9	28.0	0.00e+00	0	41	0	1996488704	40	5662
2026-01-24 18:00:38.87	331.60	44.21	-33.2	-33.7	28.1	0.00e+00	0	41	0	2002780160	40	5537
2026-01-24 18:00:39.88	331.11	44.33	-33.1	-33.7	28.2	0.00e+00	0	41	0	2008023040	40	5528
2026-01-24 18:00:40.89	330.62	44.45	-33.4	-33.9	27.9	0.00e+00	0	41	0	2014314496	40	5692
2026-01-24 18:00:41.90	330.12	44.57	-33.4	-34.1	27.9	0.00e+00	0	41	0	2019557376	40	5765
2026-01-24 18:00:42.91	329.62	44.68	-33.2	-33.8	27.9	0.00e+00	0	41	0	2025848832	40	5620
2026-01-24 18:00:43.92	329.12	44.80	-33.7	-34.3	27.7	0.00e+00	0	41	0	2031091712	40	5947
2026-01-24 18:00:44.93	328.61	44.91	-33.6	-34.2	27.9	0.00e+00	0	41	0	2037383168	40	5842
2026-01-24 18:00:45.94	328.10	45.02	-33.1	-33.8	28.2	0.00e+00	0	41	0	2042626048	40	5583
2026-01-24 18:00:46.95	327.59	45.13	-33.1	-33.7	28.1	0.00e+00	0	41	0	2047868928	40	5547
2026-01-24 18:00:47.96	327.07	45.23	-33.2	-33.9	28.0	0.00e+00	0	41	0	2054160384	40	5644
2026-01-24 18:00:48.97	326.55	45.34	-33.3	-33.9	28.0	0.00e+00	0	41	0	2059403264	40	5652
2026-01-24 18:00:49.98	326.02	45.44	-33.3	-33.8	28.0	0.00e+00	0	41	0	2065694720	40	5628
2026-01-24 18:00:50.99	325.50	45.54	-33.4	-34.0	28.0	0.00e+00	0	41	0	2070937600	40	5723
2026-01-24 18:00:52.00	324.96	45.63	-33.4	-34.0	27.9	0.00e+00	0	41	0	2076180480	40	5749
2026-01-24 18:00:53.01	324.43	45.73	-33.5	-34.1	27.8	0.00e+00	0	41	0	2082471936	40	5779
2026-01-24 18:00:54.02	323.89	45.82	-33.4	-34.1	27.8	0.00e+00	0	41	0	2087714816	40	5797
2026-01-24 18:00:55.03	323.35	45.91	-33.4	-34.1	27.8	0.00e+00	0	41	0	2094006272	40	5801
2026-01-24 18:00:56.04	322.81	45.99	-33.4	-34.1	27.9	0.00e+00	0	41	0	2099249152	40	5770
2026-01-24 18:00:57.05	322.26	46.07	-33.3	-33.9	28.1	0.00e+00	0	41	0	2104492032	40	5694
2026-01-24 18:00:58.06	321.71	46.15	-33.3	-33.9	27.9	0.00e+00	0	41	0	2110783488	40	5662
2026-01-24 18:00:59.07	321.16	46.23	-33.6	-34.2	27.9	0.00e+00	0	41	0	2116026368	40	5857
2026-01-24 18:01:00.08	320.60	46.31	-33.7	-34.3	27.8	0.00e+00	0	41	0	2122317824	40	5963
2026-01-24 18:01:01.09	320.05	46.38	-34.1	-34.7	27.5	0.00e+00	0	41	0	2127560704	40	6209
2026-01-24 18:01:02.10	319.49	46.45	-34.0	-34.6	27.4	0.00e+00	0	41	0	2133852160	40	6172
2026-01-24 18:01:03.11	318.92	46.51	-33.7	-34.3	27.8	0.00e+00	0	41	0	2139095040	40	5914
2026-01-24 18:01:04.12	318.36	46.58	-33.8	-34.4	27.7	0.00e+00	0	41	0	2145386496	40	6012
2026-01-24 18:01:05.13	317.79	46.64	-33.8	-34.4	27.5	0.00e+00	0	41	0	2150629376	40	6022
2026-01-24 18:01:06.14	317.22	46.69	-33.8	-34.5	27.6	0.00e+00	0	41	0	2155872256	40	6043
2026-01-24 18:01:07.15	316.65	46.75	-33.9	-34.5	27.6	0.00e+00	0	41	0	2162163712	40	6036
2026-01-24 18:01:08.16	316.08	46.80	-33.7	-34.3	27.6	0.00e+00	0	41	0	2167406592	40	5939
2026-01-24 18:01:09.17	315.50	46.84	-33.6	-34.2	27.8	0.00e+00	0	41	0	2173698048	40	5858
2026-01-24 18:01:10.18	314.92	46.89	-33.7	-34.3	27.9	0.00e+00	0	41	0	2178940928	40	5924
2026-01-24 18:01:11.19	314.35	46.93	-33.6	-34.2	27.8	0.00e+00	0	41	0	2184183808	40	5860
2026-01-24 18:01:12.20	313.77	46.97	-33.7	-34.3	27.7	0.00e+00	0	41	0	2190475264	40	5910
2026-01-24 18:01:13.21	313.18	47.00	-33.8	-34.4	27.7	0.00e+00	0	41	0	2195718144	40	5967
2026-01-24 18:01:14.22	312.60	47.04	-34.0	-34.7	27.6	0.00e+00	0	41	0	2202009600	40	6204
2026-01-24 18:01:15.23	312.02	47.06	-34.0	-34.7	27.6	0.00e+00	0	41	0	2207252480	40	6187
2026-01-24 18:01:16.24	311.43	47.09	-33.9	-34.5	27.6	0.00e+00	0	41	0	2212495360	40	6093
2026-01-24 18:01:17.25	310.85	47.11	-34.0	-34.6	27.5	0.00e+00	0	41	0	2218786816	40	6110
2026-01-24 18:01:18.26	310.26	47.13	-33.9	-34.4	27.8	0.00e+00	0	41	0	2224029696	40	6027
2026-01-24 18:01:19.27	309.67	47.15	-33.7	-34.3	27.9	0.00e+00	0	41	0	2230321152	40	5923
2026-01-24 18:01:20.28	309.09	47.16	-33.4	-34.0	28.0	0.00e+00	0	41	0	2235564032	40	5714
2026-01-24 18:01:21.29	308.50	47.17	-33.6	-34.1	27.9	0.00e+00	0	41	0	2241855488	40	5816
2026-01-24 18:01:22.30	307.91	47.17	-33.6	-34.2	28.0	0.00e+00	0	41	0	2247098368	40	5850
2026-01-24 18:01:23.30	307.33	47.18	-33.4	-34.0	28.1	0.00e+00	0	41	0	2252341248	40	5711
2026-01-24 18:01:24.32	306.73	47.17	-33.1	-33.7	28.2	0.00e+00	0	41	0	2258632704	40	5529
2026-01-24 18:01:25.33	306.14	47.17	-33.2	-33.8	28.2	0.00e+00	0	41	0	2263875584	40	5574
2026-01-24 18:01:26.33	305.56	47.16	-33.2	-33.9	28.2	0.00e+00	0	41	0	2270167040	40	5650
2026-01-24 18:01:27.34	304.97	47.15	-33.3	-33.9	28.0	0.00e+00	0	41	0	2275409920	40	5685
2026-01-24 18:01:28.35	304.39	47.14	-33.5	-34.1	27.9	0.00e+00	0	41	0	2280652800	40	5811
2026-01-24 18:01:29.36	303.80	47.12	-33.5	-34.2	27.8	0.00e+00	0	41	0	2286944256	40	5834
2026-01-24 18:01:30.37	303.21	47.10	-33.6	-34.2	27.8	0.00e+00	0	41	0	2292187136	40	5890
2026-01-24 18:01:31.38	302.63	47.08	-33.8	-34.4	27.5	0.00e+00	0	41	0	2298478592	40	6006
2026-01-24 18:01:32.39	302.04	47.05	-34.1	-34.6	27.6	0.00e+00	0	41	0	2303721472	40	6155
2026-01-24 18:01:33.40	301.46	47.02	-33.7	-34.4	27.9	0.00e+00	0	41	0	2308964352	40	5990
2026-01-24 18:01:34.41	300.88	46.98	-33.7	-34.3	27.8	0.00e+00	0	41	0	2315255808	40	5913
2026-01-24 18:01:35.42	300.30	46.95	-33.5	-34.2	27.9	0.00e+00	0	41	0	2320498688	40	5835
2026-01-24 18:01:36.43	299.72	46.91	-33.4	-34.0	27.9	0.00e+00	0	41	0	2326790144	40	5712
2026-01-24 18:01:37.44	299.14	46.86	-33.4	-34.0	27.8	0.00e+00	0	41	0	2332033024	40	5760
2026-01-24 18:01:38.45	298.56	46.82	-33.1	-33.7	28.1	0.00e+00	0	41	0	2338324480	40	5519
2026-01-24 18:01:39.46	297.99	46.77	-33.3	-33.9	28.0	0.00e+00	0	41	0	2343567360	40	5635
2026-01-24 18:01:40.47	297.42	46.72	-33.4	-34.0	27.8	0.00e+00	0	41	0	2348810240	40	5729
2026-01-24 18:01:41.48	296.85	46.66	-33.3	-34.0	27.9	0.00e+00	0	41	0	2355101696	40	5725
2026-01-24 18:01:42.48	296.28	46.60	-33.2	-33.8	28.0	0.00e+00	0	41	0	2360344576	40	5616
2026-01-24 18:01:43.49	295.72	46.54	-33.2	-33.8	28.0	0.00e+00	0	41	0	2366636032	40	5586
2026-01-24 18:01:44.50	295.15	46.47	-33.4	-34.0	27.8	0.00e+00	0	41	0	2371878912	40	5757
2026-01-24 18:01:45.51	294.59	46.41	-33.2	-33.9	27.9	0.00e+00	0	41	0	2377121792	40	5637
2026-01-24 18:01:46.52	294.03	46.34	-33.2	-33.9	28.1	0.00e+00	0	41	0	2383413248	40	5632
2026-01-24 18:01:47.53	293.47	46.26	-33.1	-33.7	28.1	0.00e+00	0	41	0	2388656128	40	5528
2026-01-24 18:01:48.54	292.92	46.19	-33.3	-33.8	27.9	0.00e+00	0	41	0	2394947584	40	5627
2026-01-24 18:01:49.55	292.37	46.11	-33.1	-33.6	28.0	0.00e+00	0	41	0	2400190464	40	5499
2026-01-24 18:01:50.56	291.82	46.03	-32.9	-33.5	28.3	0.00e+00	0	41	0	2405433344	40	5403
2026-01-24 18:01:51.57	291.28	45.94	-32.8	-33.3	28.4	0.00e+00	0	41	0	2411724800	38	5948
2026-01-24 18:01:52.58	290.73	45.85	-32.7	-33.4	28.3	0.00e+00	0	41	0	2416967680	38	5996
2026-01-24 18:01:53.59	290.19	45.76	-32.7	-33.3	28.4	0.00e+00	0	41	0	2423259136	38	5953
2026-01-24 18:01:54.60	289.66	45.67	-32.8	-33.4	28.3	0.00e+00	0	41	0	2428502016	38	6022
2026-01-24 18:01:55.61	289.12	45.58	-32.8	-33.4	28.2	0.00e+00	0	41	0	2433744896	38	5981
2026-01-24 18:01:56.62	288.59	45.48	-32.7	-33.3	28.4	0.00e+00	0	41	0	2440036352	38	5927
2026-01-24 18:01:57.64	288.06	45.38	-32.8	-33.4	28.2	0.00e+00	0	41	0	2445279232	38	5989
2026-01-24 18:01:58.64	287.54	45.28	-33.1	-33.7	28.1	0.00e+00	0	41	0	2451570688	38	6184
2026-01-24 18:01:59.65	287.02	45.17	-33.2	-33.8	27.9	0.00e+00	0	41	0	2456813568	38	6268
2026-01-24 18:02:00.66	286.51	45.07	-33.0	-33.5	28.1	0.00e+00	0	41	0	2463105024	38	6099
2026-01-24 18:02:01.68	285.99	44.95	-32.9	-33.6	28.1	0.00e+00	0	41	0	2468347904	38	6120
2026-01-24 18:02:02.68	285.48	44.84	-33.2	-33.8	27.9	0.00e+00	0	41	0	2474639360	38	6317
2026-01-24 18:02:03.69	284.98	44.73	-33.4	-34.0	28.1	0.00e+00	0	41	0	2479882240	38	6405
2026-01-24 18:02:04.70	284.48	44.61	-33.0	-33.7	28.2	0.00e+00	0	41	0	2485125120	38	6183
2026-01-24 18:02:05.71	283.98	44.50	-32.8	-33.3	28.3	0.00e+00	0	41	0	2491416576	38	5964
2026-01-24 18:02:06.72	283.48	44.38	-32.9	-33.5	28.3	0.00e+00	0	41	0	2496659456	38	6086
2026-01-24 18:02:07.73	282.99	44.25	-32.8	-33.4	28.4	0.00e+00	0	41	0	2502950912	38	5983
2026-01-24 18:02:08.74	282.50	44.13	-33.2	-33.8	28.1	0.00e+00	0	41	0	2508193792	38	6297
2026-01-24 18:02:09.75	282.02	44.00	-33.0	-33.6	28.4	0.00e+00	0	41	0	2513436672	38	6118
2026-01-24 18:02:10.76	281.54	43.88	-33.0	-33.7	28.5	0.00e+00	0	41	0	2519728128	38	6177
2026-01-24 18:02:11.77	281.07	43.75	-32.9	-33.6	28.6	0.00e+00	0	41	0	2524971008	38	6131
2026-01-24 18:02:12.78	280.59	43.62	-33.0	-33.7	28.4	0.00e+00	0	41	0	2531262464	38	6185
2026-01-24 18:02:13.79	280.13	43.48	-33.0	-33.6	28.5	0.00e+00	0	41	0	2536505344	38	6119
2026-01-24 18:02:14.80	279.66	43.35	-33.0	-33.5	28.4	0.00e+00	0	41	0	2541748224	38	6066
2026-01-24 18:02:15.81	279.20	43.21	-33.0	-33.6	28.4	0.00e+00	0	41	0	2548039680	38	6156
2026-01-24 18:02:16.82	278.75	43.07	-33.0	-33.5	28.5	0.00e+00	0	41	0	2553282560	38	6064
2026-01-24 18:02:17.83	278.29	42.93	-32.9	-33.5	28.4	0.00e+00	0	41	0	2559574016	38	6060
2026-01-24 18:02:18.84	277.84	42.79	-32.9	-33.5	28.5	0.00e+00	0	41	0	2564816896	38	6040
2026-01-24 18:02:19.85	277.40	42.65	-32.8	-33.4	28.5	0.00e+00	0	41	0	2571108352	38	6011
2026-01-24 18:02:20.86	276.96	42.51	-32.8	-33.5	28.3	0.00e+00	0	41	0	2576351232	38	6054
2026-01-24 18:02:21.87	276.52	42.36	-32.8	-33.4	28.3	0.00e+00	0	41	0	2582642688	38	5985
2026-01-24 18:02:22.88	276.09	42.22	-32.7	-33.4	28.5	0.00e+00	0	41	0	2587885568	38	5973
2026-01-24 18:02:23.89	275.66	42.07	-32.7	-33.2	28.4	0.00e+00	0	41	0	2593128448	38	5889
2026-01-24 18:02:24.90	275.24	41.92	-32.8	-33.4	28.3	0.00e+00	0	41	0	2599419904	38	6025
2026-01-24 18:02:25.91	274.82	41.77	-32.9	-33.5	28.2	0.00e+00	0	41	0	2604662784	38	6044
2026-01-24 18:02:26.92	274.40	41.62	-33.3	-33.8	28.2	0.00e+00	0	41	0	2610954240	38	6314
2026-01-24 18:02:27.93	273.99	41.47	-33.0	-33.7	28.3	0.00e+00	0	41	0	2616197120	38	6202
2026-01-24 18:02:28.94	273.58	41.31	-33.1	-33.7	28.2	0.00e+00	0	41	0	2621440000	38	6213
2026-01-24 18:02:29.95	273.17	41.16	-33.2	-33.7	28.1	0.00e+00	0	41	0	2627731456	38	6200
2026-01-24 18:02:30.96	272.77	41.00	-33.3	-33.9	28.1	0.00e+00	0	41	0	2632974336	38	6327
2026-01-24 18:02:31.97	272.37	40.85	-33.4	-34.1	28.1	0.00e+00	0	41	0	2639265792	38	6480
2026-01-24 18:02:32.98	271.98	40.69	-33.5	-34.0	28.0	0.00e+00	0	41	0	2644508672	40	5736
2026-01-24 18:02:33.99	271.59	40.53	-33.4	-34.1	28.2	0.00e+00	0	41	0	2649751552	40	5778
2026-01-24 18:02:35.00	271.21	40.37	-33.5	-34.1	28.2	0.00e+00	0	41	0	2656043008	40	5822
2026-01-24 18:02:36.00	270.83	40.22	-33.1	-33.8	28.2	0.00e+00	0	41	0	2661285888	40	5592
2026-01-24 18:02:37.01	270.45	40.06	-33.1	-33.6	28.2	0.00e+00	0	41	0	2667577344	40	5463
2026-01-24 18:02:38.02	270.07	39.90	-32.9	-33.5	28.3	0.00e+00	0	41	0	2672820224	40	5423
2026-01-24 18:02:39.03	269.70	39.73	-32.9	-33.5	28.3	0.00e+00	0	41	0	2679111680	40	5430
2026-01-24 18:02:40.04	269.34	39.57	-33.0	-33.6	28.2	0.00e+00	0	41	0	2684354560	40	5464
2026-01-24 18:02:41.05	268.97	39.41	-33.0	-33.6	28.1	0.00e+00	0	41	0	2689597440	40	5497
2026-01-24 18:02:42.06	268.61	39.25	-33.0	-33.7	28.1	0.00e+00	0	41	0	2695888896	40	5512
2026-01-24 18:02:43.07	268.26	39.08	-33.1	-33.6	28.1	0.00e+00	0	41	0	2701131776	40	5488
2026-01-24 18:02:44.08	267.90	38.92	-33.0	-33.7	28.0	0.00e+00	0	41	0	2707423232	40	5547
2026-01-24 18:02:45.09	267.55	38.75	-33.0	-33.7	28.1	0.00e+00	0	41	0	2712666112	40	5534
2026-01-24 18:02:46.10	267.21	38.59	-32.9	-33.4	28.2	0.00e+00	0	41	0	2717908992	40	5353
2026-01-24 18:02:47.10	266.87	38.43	-32.9	-33.6	28.1	0.00e+00	0	41	0	2724200448	40	5444
2026-01-24 18:02:48.12	266.53	38.26	-32.8	-33.3	28.3	0.00e+00	0	41	0	2729443328	40	5314
2026-01-24 18:02:49.13	266.19	38.09	-33.0	-33.7	28.2	0.00e+00	0	41	0	2735734784	40	5511
2026-01-24 18:02:50.14	265.86	37.93	-33.1	-33.6	28.2	0.00e+00	0	41	0	2740977664	40	5490
2026-01-24 18:02:51.15	265.53	37.76	-33.2	-33.9	28.2	0.00e+00	0	41	0	2746220544	40	5633
2026-01-24 18:02:52.16	265.21	37.59	-33.0	-33.6	28.0	0.00e+00	0	41	0	2752512000	40	5476
2026-01-24 18:02:53.17	264.89	37.43	-32.7	-33.3	28.2	0.00e+00	0	41	0	2757754880	40	5264
2026-01-24 18:02:54.18	264.57	37.26	-32.7	-33.4	28.3	0.00e+00	0	41	0	2764046336	38	5988
2026-01-24 18:02:55.19	264.25	37.09	-32.9	-33.4	28.4	0.00e+00	0	41	0	2769289216	38	6028
2026-01-24 18:02:56.20	263.94	36.92	-33.2	-33.7	28.2	0.00e+00	0	41	0	2775580672	38	6200
2026-01-24 18:02:57.21	263.63	36.76	-33.0	-33.6	28.2	0.00e+00	0	41	0	2780823552	38	6105
2026-01-24 18:02:58.22	263.33	36.59	-32.8	-33.3	28.1	0.00e+00	0	41	0	2787115008	38	5912
2026-01-24 18:02:59.23	263.02	36.42	-32.8	-33.5	28.1	0.00e+00	0	41	0	2792357888	38	6071
2026-01-24 18:03:00.24	262.73	36.25	-32.9	-33.6	28.0	0.00e+00	0	41	0	2797600768	38	6129
2026-01-24 18:03:01.25	262.43	36.09	-32.8	-33.3	28.0	0.00e+00	0	41	0	2803892224	38	5962
2026-01-24 18:03:02.26	262.14	35.92	-33.0	-33.7	28.1	0.00e+00	0	41	0	2809135104	38	6223
2026-01-24 18:03:03.27	261.85	35.75	-33.6	-34.3	27.9	0.00e+00	0	41	0	2815426560	38	6683
2026-01-24 18:03:04.28	261.56	35.58	-33.5	-34.1	28.0	0.00e+00	0	41	0	2820669440	38	6499
2026-01-24 18:03:05.29	261.27	35.41	-33.5	-34.1	28.1	0.00e+00	0	41	0	2825912320	38	6530
2026-01-24 18:03:06.30	260.99	35.25	-33.3	-34.0	28.1	0.00e+00	0	41	0	2832203776	40	5722
2026-01-24 18:03:07.31	260.72	35.08	-33.3	-33.8	28.1	0.00e+00	0	41	0	2837446656	40	5598
2026-01-24 18:03:08.32	260.44	34.91	-32.9	-33.6	28.5	0.00e+00	0	41	0	2843738112	40	5442
2026-01-24 18:03:09.33	260.17	34.74	-32.7	-33.3	28.4	0.00e+00	0	41	0	2848980992	38	5962
2026-01-24 18:03:10.34	259.90	34.58	-32.5	-33.0	28.6	0.00e+00	0	41	0	2854223872	38	5710
2026-01-24 18:03:11.35	259.63	34.41	-32.7	-33.2	28.4	0.00e+00	0	41	0	2860515328	38	5847
2026-01-24 18:03:12.36	259.37	34.24	-32.7	-33.2	28.5	0.00e+00	0	41	0	2865758208	38	5852
2026-01-24 18:03:13.37	259.10	34.08	-32.6	-33.1	28.6	0.00e+00	0	41	0	2872049664	38	5801
2026-01-24 18:03:14.38	258.85	33.91	-33.0	-33.5	28.4	0.00e+00	0	41	0	2877292544	38	6072
2026-01-24 18:03:15.39	258.59	33.75	-32.8	-33.3	28.4	0.00e+00	0	41	0	2883584000	38	5963
2026-01-24 18:03:16.40	258.34	33.58	-33.0	-33.5	28.3	0.00e+00	0	41	0	2888826880	38	6071
2026-01-24 18:03:17.41	258.08	33.41	-32.7	-33.2	28.5	0.00e+00	0	41	0	2894069760	38	5868
2026-01-24 18:03:18.42	257.84	33.25	-32.9	-33.6	28.2	0.00e+00	0	41	0	2900361216	38	6110
2026-01-24 18:03:19.43	257.59	33.08	-33.0	-33.6	28.3	0.00e+00	0	41	0	2905604096	38	6158
2026-01-24 18:03:20.45	257.34	32.92	-33.3	-33.9	28.2	0.00e+00	0	41	0	2911895552	38	6365
2026-01-24 18:03:21.46	257.10	32.75	-33.5	-34.0	28.0	0.00e+00	0	41	0	2917138432	38	6428
2026-01-24 18:03:22.47	256.87	32.59	-33.3	-33.8	28.1	0.00e+00	0	41	0	2922381312	38	6297
2026-01-24 18:03:23.48	256.63	32.42	-33.2	-33.9	28.3	0.00e+00	0	41	0	2928672768	38	6335
2026-01-24 18:03:24.48	256.40	32.26	-33.2	-33.8	28.1	0.00e+00	0	41	0	2933915648	38	6305
2026-01-24 18:03:25.50	256.16	32.10	-33.5	-34.1	27.8	0.00e+00	0	41	0	2940207104	38	6474
2026-01-24 18:03:26.50	255.94	31.94	-33.6	-34.1	27.9	0.00e+00	0	41	0	2945449984	40	5791
2026-01-24 18:03:27.51	255.71	31.78	-33.5	-34.0	27.6	0.00e+00	0	41	0	2950692864	40	5755
2026-01-24 18:03:28.53	255.48	31.61	-33.7	-34.3	27.6	0.00e+00	0	41	0	2956984320	40	5912
2026-01-24 18:03:29.53	255.26	31.45	-33.4	-33.9	27.6	0.00e+00	0	41	0	2962227200	40	5687
2026-01-24 18:03:30.54	255.04	31.29	-33.7	-34.2	27.5	0.00e+00	0	41	0	2968518656	40	5864
2026-01-24 18:03:31.55	254.83	31.13	-33.5	-34.2	27.7	0.00e+00	0	41	0	2973761536	40	5863
2026-01-24 18:03:32.56	254.61	30.97	-33.6	-34.1	27.6	0.00e+00	0	41	0	2980052992	40	5820
2026-01-24 18:03:33.57	254.40	30.81	-33.5	-34.1	27.7	0.00e+00	0	41	0	2985295872	40	5806
2026-01-24 18:03:34.57	254.19	30.65	-33.8	-34.4	27.4	0.00e+00	0	41	0	2991587328	40	5983
2026-01-24 18:03:35.58	253.98	30.49	-33.3	-34.0	27.8	0.00e+00	0	41	0	2996830208	40	5723
2026-01-24 18:03:36.59	253.77	30.33	-33.8	-34.5	27.6	0.00e+00	0	41	0	3002073088	40	6043
2026-01-24 18:03:37.60	253.57	30.18	-33.2	-33.9	27.9	0.00e+00	0	41	0	3008364544	40	5669
2026-01-24 18:03:38.61	253.36	30.02	-33.5	-34.0	27.6	0.00e+00	0	41	0	3013607424	40	5753
2026-01-24 18:03:39.62	253.16	29.86	-33.5	-34.0	27.6	0.00e+00	0	41	0	3019898880	40	5739
2026-01-24 18:03:40.63	252.96	29.70	-33.4	-34.0	27.6	0.00e+00	0	41	0	3025141760	40	5713
2026-01-24 18:03:41.64	252.77	29.55	-33.4	-34.1	27.6	0.00e+00	0	41	0	3030384640	40	5786
2026-01-24 18:03:42.65	252.57	29.39	-33.2	-33.9	27.7	0.00e+00	0	41	0	3036676096	40	5642
2026-01-24 18:03:43.66	252.38	29.24	-33.4	-34.0	27.8	0.00e+00	0	41	0	3041918976	40	5699
2026-01-24 18:03:44.67	252.19	29.08	-33.4	-34.1	27.7	0.00e+00	0	41	0	3048210432	40	5770
2026-01-24 18:03:45.68	252.00	28.93	-33.5	-34.2	27.8	0.00e+00	0	41	0	3053453312	40	5881
2026-01-24 18:03:46.69	251.81	28.77	-33.6	-34.1	27.8	0.00e+00	0	41	0	3058696192	40	5804
2026-01-24 18:03:47.70	251.62	28.62	-33.6	-34.1	27.8	0.00e+00	0	41	0	3064987648	40	5781
2026-01-24 18:03:48.71	251.44	28.47	-33.6	-34.1	27.6	0.00e+00	0	41	0	3070230528	40	5814
2026-01-24 18:03:49.72	251.26	28.32	-33.7	-34.3	27.5	0.00e+00	0	41	0	3076521984	40	5916
2026-01-24 18:03:50.73	251.08	28.16	-33.8	-34.5	27.6	0.00e+00	0	41	0	3081764864	40	6055
2026-01-24 18:03:51.74	250.90	28.01	-33.6	-34.3	27.6	0.00e+00	0	41	0	3088056320	40	5948
2026-01-24 18:03:52.75	250.72	27.86	-33.7	-34.3	27.5	0.00e+00	0	41	0	3093299200	40	5960
2026-01-24 18:03:53.76	250.54	27.71	-34.0	-34.6	27.4	0.00e+00	0	41	0	3098542080	40	6173
2026-01-24 18:03:54.77	250.37	27.56	-34.0	-34.6	27.6	0.00e+00	0	41	0	3104833536	40	6173
2026-01-24 18:03:55.78	250.20	27.41	-33.9	-34.4	27.5	0.00e+00	0	41	0	3110076416	40	6027
2026-01-24 18:03:56.79	250.03	27.26	-33.9	-34.4	27.5	0.00e+00	0	41	0	3116367872	40	6012
2026-01-24 18:03:57.80	249.86	27.12	-34.0	-34.6	27.4	0.00e+00	0	41	0	3121610752	40	6107
2026-01-24 18:03:58.81	249.69	26.97	-33.9	-34.5	27.5	0.00e+00	0	41	0	3126853632	40	6057
2026-01-24 18:03:59.82	249.52	26.82	-34.2	-34.7	27.2	0.00e+00	0	41	0	3133145088	40	6228
2026-01-24 18:04:00.83	249.36	26.67	-33.9	-34.5	27.4	0.00e+00	0	41	0	3138387968	40	6046
2026-01-24 18:04:01.84	249.20	26.53	-33.8	-34.4	27.4	0.00e+00	0	41	0	3144679424	40	6029
2026-01-24 18:04:02.84	249.04	26.38	-34.2	-34.7	27.1	0.00e+00	0	41	0	3149922304	40	6216
2026-01-24 18:04:03.85	248.88	26.24	-34.5	-35.1	27.1	0.00e+00	0	41	0	3155165184	40	6532
2026-01-24 18:04:04.86	248.72	26.09	-33.9	-34.5	27.4	0.00e+00	0	41	0	3161456640	40	6045
2026-01-24 18:04:05.87	248.56	25.95	-33.5	-34.0	27.5	0.00e+00	0	41	0	3166699520	40	5738
2026-01-24 18:04:06.88	248.41	25.81	-33.6	-34.2	27.5	0.00e+00	0	41	0	3172990976	40	5831
2026-01-24 18:04:07.89	248.25	25.66	-33.6	-34.3	27.5	0.00e+00	0	41	0	3178233856	40	5922
2026-01-24 18:04:08.90	248.10	25.52	-33.6	-34.2	27.5	0.00e+00	0	41	0	3184525312	40	5858
2026-01-24 18:04:09.91	247.95	25.38	-33.7	-34.2	27.4	0.00e+00	0	41	0	3189768192	40	5885
2026-01-24 18:04:10.92	247.80	25.24	-33.7	-34.2	27.4	0.00e+00	0	41	0	3196059648	40	5892
2026-01-24 18:04:11.93	247.65	25.10	-33.7	-34.4	27.3	0.00e+00	0	41	0	3201302528	40	5998
2026-01-24 18:04:12.94	247.50	24.96	-33.6	-34.3	27.3	0.00e+00	0	41	0	3206545408	40	5911
2026-01-24 18:04:13.95	247.36	24.82	-33.8	-34.3	27.3	0.00e+00	0	41	0	3212836864	40	5956
2026-01-24 18:04:14.96	247.21	24.68	-33.3	-33.8	27.5	0.00e+00	0	41	0	3218079744	40	5629
2026-01-24 18:04:15.97	247.07	24.54	-33.4	-34.1	27.6	0.00e+00	0	41	0	3224371200	40	5767
2026-01-24 18:04:16.98	246.93	24.40	-33.3	-34.0	27.6	0.00e+00	0	41	0	3229614080	40	5706
2026-01-24 18:04:17.99	246.79	24.26	-33.3	-33.8	27.7	0.00e+00	0	41	0	3234856960	40	5601
2026-01-24 18:04:19.00	246.65	24.13	-33.4	-33.9	27.5	0.00e+00	0	41	0	3241148416	40	5652
2026-01-24 18:04:20.01	246.51	23.99	-33.3	-33.9	27.7	0.00e+00	0	41	0	3246391296	40	5638
2026-01-24 18:04:21.02	246.37	23.85	-33.4	-34.0	27.7	0.00e+00	0	41	0	3252682752	40	5712
2026-01-24 18:04:22.03	246.24	23.72	-33.5	-34.1	27.5	0.00e+00	0	41	0	3257925632	40	5774
2026-01-24 18:04:23.04	246.10	23.58	-33.5	-34.1	27.4	0.00e+00	0	41	0	3263168512	40	5773
2026-01-24 18:04:24.05	245.97	23.45	-33.4	-33.9	27.6	0.00e+00	0	41	0	3269459968	40	5675
2026-01-24 18:04:25.06	245.84	23.32	-33.4	-34.0	27.4	0.00e+00	0	41	0	3274702848	40	5724
2026-01-24 18:04:26.07	245.71	23.18	-33.4	-34.0	27.5	0.00e+00	0	41	0	3280994304	40	5727
2026-01-24 18:04:27.08	245.58	23.05	-33.4	-33.9	27.6	0.00e+00	0	41	0	3286237184	40	5680
2026-01-24 18:04:28.08	245.45	22.92	-33.6	-34.2	27.4	0.00e+00	0	41	0	3292528640	40	5834
2026-01-24 18:04:29.09	245.32	22.79	-33.4	-34.0	27.6	0.00e+00	0	41	0	3297771520	40	5702
2026-01-24 18:04:30.10	245.19	22.65	-33.5	-34.0	27.4	0.00e+00	0	41	0	3303014400	40	5745
2026-01-24 18:04:31.11	245.07	22.52	-33.4	-34.0	27.6	0.00e+00	0	41	0	3309305856	40	5710
2026-01-24 18:04:32.12	244.94	22.39	-33.7	-34.4	27.4	0.00e+00	0	41	0	3314548736	40	5968
2026-01-24 18:04:33.13	244.82	22.26	-33.7	-34.3	27.3	0.00e+00	0	41	0	3320840192	40	5960
2026-01-24 18:04:34.14	244.70	22.13	-34.0	-34.7	27.1	0.00e+00	0	41	0	3326083072	40	6237
2026-01-24 18:04:35.15	244.58	22.01	-33.8	-34.5	27.2	0.00e+00	0	41	0	3331325952	40	6095
2026-01-24 18:04:36.16	244.46	21.88	-34.0	-34.7	27.1	0.00e+00	0	41	0	3337617408	40	6227
2026-01-24 18:04:37.17	244.34	21.75	-34.0	-34.7	27.0	0.00e+00	0	41	0	3342860288	40	6237
2026-01-24 18:04:38.18	244.22	21.62	-33.9	-34.6	27.1	0.00e+00	0	41	0	3349151744	40	6170
2026-01-24 18:04:39.19	244.10	21.50	-34.1	-34.8	27.0	0.00e+00	0	41	0	3354394624	40	6266
2026-01-24 18:04:40.20	243.98	21.37	-34.2	-34.9	26.9	0.00e+00	0	41	0	3359637504	40	6364
2026-01-24 18:04:41.21	243.87	21.24	-34.6	-35.2	26.8	0.00e+00	0	41	0	3365928960	40	6556
2026-01-24 18:04:42.22	243.75	21.12	-34.3	-35.0	27.0	0.00e+00	0	41	0	3371171840	40	6454
2026-01-24 18:04:43.23	243.64	20.99	-34.3	-34.8	27.0	0.00e+00	0	41	0	3377463296	40	6299
2026-01-24 18:04:44.24	243.53	20.87	-34.3	-34.9	26.9	0.00e+00	0	41	0	3382706176	40	6329
2026-01-24 18:04:45.25	243.42	20.75	-34.2	-34.7	27.0	0.00e+00	0	41	0	3388997632	40	6220
2026-01-24 18:04:46.26	243.31	20.62	-34.0	-34.6	27.1	0.00e+00	0	41	0	3394240512	40	6116
2026-01-24 18:04:47.27	243.20	20.50	-34.2	-34.7	27.0	0.00e+00	0	41	0	3400531968	40	6228
2026-01-24 18:04:48.28	243.09	20.38	-34.4	-35.1	26.9	0.00e+00	0	41	0	3405774848	40	6479
2026-01-24 18:04:49.29	242.98	20.26	-34.2	-34.8	27.0	0.00e+00	0	41	0	3411017728	40	6275
2026-01-24 18:04:50.30	242.87	20.14	-34.2	-34.8	27.0	0.00e+00	0	41	0	3417309184	40	6251
2026-01-24 18:04:51.31	242.76	20.01	-34.5	-35.2	26.8	0.00e+00	0	41	0	3422552064	40	6554
2026-01-24 18:04:52.32	242.66	19.89	-34.4	-35.0	26.8	0.00e+00	0	41	0	3427794944	40	6425
2026-01-24 18:04:53.33	242.55	19.77	-34.4	-34.9	26.8	0.00e+00	0	41	0	3434086400	40	6377
2026-01-24 18:04:54.34	242.45	19.66	-34.3	-34.9	26.8	0.00e+00	0	41	0	3439329280	40	6318
2026-01-24 18:04:55.35	242.35	19.54	-34.5	-35.1	26.7	0.00e+00	0	41	0	3445620736	40	6511
2026-01-24 18:04:56.36	242.25	19.42	-34.6	-35.1	26.7	0.00e+00	0	41	0	3450863616	40	6536
2026-01-24 18:04:57.36	242.15	19.30	-34.5	-35.0	26.8	0.00e+00	0	41	0	3456106496	40	6434
2026-01-24 18:04:58.37	242.04	19.18	-34.4	-35.0	26.8	0.00e+00	0	41	0	3462397952	40	6407
2026-01-24 18:04:59.38	241.94	19.07	-34.5	-35.1	26.6	0.00e+00	0	41	0	3467640832	40	6465
2026-01-24 18:05:00.39	241.85	18.95	-35.0	-35.8	26.5	0.00e+00	0	41	0	3473932288	42	6253
2026-01-24 18:05:01.40	241.75	18.83	-34.7	-35.2	26.7	0.00e+00	0	41	0	3479175168	42	5878
2026-01-24 18:05:02.41	241.65	18.72	-34.8	-35.3	26.5	0.00e+00	0	41	0	3485466624	42	5955
2026-01-24 18:05:03.42	241.55	18.60	-35.3	-35.9	26.0	0.00e+00	0	41	0	3490709504	42	6319
2026-01-24 18:05:04.43	241.46	18.49	-35.7	-36.2	25.7	0.00e+00	0	41	0	3497000960	42	6612
2026-01-24 18:05:05.44	241.36	18.37	-35.4	-36.0	26.1	0.00e+00	0	41	0	3502243840	42	6404
2026-01-24 18:05:06.44	241.27	18.26	-36.0	-36.6	25.7	0.00e+00	0	41	0	3507486720	44	6137
2026-01-24 18:05:07.46	241.17	18.15	-35.4	-35.9	26.2	0.00e+00	0	41	0	3513778176	44	5692
2026-01-24 18:05:08.46	241.08	18.03	-35.2	-35.8	26.1	0.00e+00	0	42	0	3519021056	44	5603
2026-01-24 18:05:09.48	240.99	17.92	-35.2	-35.8	26.0	0.00e+00	0	41	0	3525312512	44	5590
2026-01-24 18:05:10.48	240.90	17.81	-35.1	-35.7	26.1	0.00e+00	0	41	0	3530555392	44	5534
2026-01-24 18:05:11.49	240.81	17.70	-34.9	-35.4	26.3	0.00e+00	0	41	0	3535798272	44	5366
2026-01-24 18:05:12.50	240.72	17.59	-34.8	-35.3	26.2	0.00e+00	0	41	0	3542089728	42	5964
2026-01-24 18:05:13.51	240.63	17.48	-34.7	-35.3	26.3	0.00e+00	0	41	0	3547332608	42	5919
2026-01-24 18:05:14.52	240.54	17.37	-35.0	-35.6	26.2	0.00e+00	0	41	0	3553624064	42	6155
2026-01-24 18:05:15.53	240.45	17.26	-35.1	-35.7	26.0	0.00e+00	0	41	0	3558866944	42	6195
2026-01-24 18:05:16.54	240.36	17.15	-35.0	-35.6	26.1	0.00e+00	0	41	0	3564109824	42	6111
2026-01-24 18:05:17.55	240.28	17.04	-35.0	-35.5	26.2	0.00e+00	0	41	0	3570401280	42	6089
2026-01-24 18:05:18.56	240.19	16.93	-35.1	-35.8	26.0	0.00e+00	0	41	0	3575644160	42	6285
2026-01-24 18:05:19.57	240.10	16.82	-35.3	-36.0	25.9	0.00e+00	0	41	0	3581935616	42	6460
2026-01-24 18:05:20.58	240.02	16.71	-35.2	-35.8	26.0	0.00e+00	0	41	0	3587178496	42	6247
2026-01-24 18:05:21.59	239.93	16.60	-35.3	-35.9	26.0	0.00e+00	0	41	0	3593469952	42	6328
2026-01-24 18:05:22.60	239.85	16.50	-35.3	-35.9	25.8	0.00e+00	0	41	0	3598712832	42	6365
2026-01-24 18:05:23.61	239.77	16.39	-35.3	-35.9	25.9	0.00e+00	0	41	0	3603955712	42	6345
2026-01-24 18:05:24.62	239.69	16.28	-35.4	-36.0	25.8	0.00e+00	0	41	0	3610247168	42	6446
