passes_logs/2026/01/24/R4.6S_Anadyr/R4.6S_Anadyr__20260124_130554_NOAA_21_JPSS-2_rec.log

#Pass ID: 20260124_130554_NOAA 21 (JPSS-2)
#Satellite: NOAA 21 (JPSS-2)
#Configuration: NOAA-21
#almurnet v.1.7.20251203
#Start time: 2026-01-24 13:05:57

#Version: 2.2.20231116
#Station: R4.6S_Anadyr
#Location: 177.4865 lon 64.73178 lat
#TLE: 1 54234U 22150A   26024.10530052  .00000243  00000+0  13599-3 0  9996
#TLE: 2 54234  98.7508 324.8953 0000717 223.3896 136.7224 14.19538773166106

#Time	Az	El	Level	Level2	SNR	BER	BlckErr	Temp	State	Recorded	gain1	gain2
2026-01-24 13:05:57.96	18.84	0.19	-52.9	-64.3	3.3	1.54e+00	0	40	0	0	60	57308
2026-01-24 13:05:58.97	18.90	0.25	-51.8	-64.7	3.5	1.52e+00	0	40	104	0	60	60504
2026-01-24 13:05:59.98	18.95	0.30	-51.6	-64.5	3.4	1.51e+00	0	40	104	0	60	58989
2026-01-24 13:06:00.99	19.00	0.36	-51.6	-64.4	3.5	1.52e+00	0	40	104	0	60	58127
2026-01-24 13:06:02.00	19.06	0.41	-51.5	-64.4	3.5	1.52e+00	0	40	104	0	60	58338
2026-01-24 13:06:03.01	19.11	0.47	-51.6	-64.5	3.5	1.52e+00	0	40	104	0	60	59256
2026-01-24 13:06:04.02	19.17	0.53	-51.5	-64.3	3.5	1.52e+00	0	40	104	0	60	57706
2026-01-24 13:06:05.03	19.22	0.58	-51.4	-64.3	3.5	1.52e+00	0	40	104	0	60	57632
2026-01-24 13:06:06.04	19.28	0.64	-51.4	-64.2	3.5	1.52e+00	0	40	104	0	60	56879
2026-01-24 13:06:07.05	19.33	0.69	-51.4	-64.2	3.5	1.52e+00	0	40	104	0	60	56625
2026-01-24 13:06:08.06	19.39	0.75	-51.3	-64.2	3.5	1.52e+00	0	40	104	0	60	56833
2026-01-24 13:06:09.07	19.44	0.80	-51.2	-64.1	3.5	1.52e+00	0	40	104	0	60	56024
2026-01-24 13:06:10.08	19.50	0.86	-51.2	-64.0	3.5	1.52e+00	0	40	104	0	60	55936
2026-01-24 13:06:11.09	19.55	0.92	-51.1	-64.0	3.5	1.52e+00	0	40	104	0	60	55368
2026-01-24 13:06:12.10	19.61	0.97	-51.0	-63.8	3.5	1.52e+00	0	40	104	0	60	54663
2026-01-24 13:06:13.11	19.66	1.03	-50.9	-63.8	3.5	1.52e+00	0	40	104	0	60	54158
2026-01-24 13:06:14.12	19.72	1.09	-50.8	-63.6	3.5	1.51e+00	0	40	104	0	60	53042
2026-01-24 13:06:15.13	19.78	1.14	-50.7	-63.5	3.5	1.52e+00	0	40	104	0	60	52713
2026-01-24 13:06:16.14	19.83	1.20	-50.6	-63.4	3.5	1.52e+00	0	40	104	0	60	52011
2026-01-24 13:06:17.15	19.89	1.26	-50.5	-63.3	3.5	1.52e+00	0	40	104	0	60	51234
2026-01-24 13:06:18.16	19.95	1.31	-50.3	-63.1	3.5	1.52e+00	0	40	104	0	60	50230
2026-01-24 13:06:19.17	20.00	1.37	-50.1	-62.9	3.5	1.52e+00	0	40	104	0	60	49040
2026-01-24 13:06:20.18	20.06	1.43	-49.7	-62.6	3.5	1.52e+00	0	40	104	0	60	47403
2026-01-24 13:06:21.19	20.12	1.48	-49.7	-62.6	3.5	1.52e+00	0	40	104	0	60	47349
2026-01-24 13:06:22.20	20.18	1.54	-49.7	-62.6	3.5	1.52e+00	0	40	104	0	60	47253
2026-01-24 13:06:23.21	20.24	1.60	-49.7	-62.6	3.5	1.52e+00	0	40	104	0	60	47084
2026-01-24 13:06:24.22	20.29	1.66	-49.7	-62.5	3.5	1.52e+00	0	40	104	0	60	46783
2026-01-24 13:06:25.23	20.35	1.71	-49.7	-62.4	3.5	1.52e+00	0	40	104	0	60	46478
2026-01-24 13:06:26.24	20.41	1.77	-49.7	-62.4	3.5	1.52e+00	0	40	104	0	60	46434
2026-01-24 13:06:27.25	20.47	1.83	-49.7	-62.4	3.5	1.52e+00	0	40	104	0	60	46072
2026-01-24 13:06:28.26	20.53	1.89	-49.7	-62.5	3.5	1.52e+00	0	40	104	0	60	46809
2026-01-24 13:06:29.27	20.59	1.94	-49.7	-62.5	3.5	1.52e+00	0	40	104	0	60	46876
2026-01-24 13:06:30.28	20.65	2.00	-49.7	-62.5	3.5	1.52e+00	0	40	104	0	60	46804
2026-01-24 13:06:31.29	20.71	2.06	-49.7	-62.5	3.5	1.52e+00	0	41	104	0	60	47013
2026-01-24 13:06:32.31	20.77	2.12	-49.7	-62.6	3.5	1.51e+00	0	40	104	0	60	47127
2026-01-24 13:06:33.32	20.83	2.18	-49.7	-62.6	3.5	1.51e+00	0	40	104	0	60	47287
2026-01-24 13:06:34.32	20.89	2.23	-49.7	-62.4	3.5	1.52e+00	0	40	104	0	60	46340
2026-01-24 13:06:35.34	20.95	2.29	-49.6	-62.0	3.5	1.52e+00	0	41	104	0	60	44285
2026-01-24 13:06:36.35	21.01	2.35	-49.6	-61.6	3.5	1.52e+00	0	41	104	0	60	42039
2026-01-24 13:06:37.36	21.07	2.41	-49.6	-61.2	3.5	1.51e+00	0	41	104	0	60	40091
2026-01-24 13:06:38.37	21.13	2.47	-49.6	-62.0	3.5	1.52e+00	0	41	104	0	60	44180
2026-01-24 13:06:39.37	21.19	2.53	-49.6	-62.2	3.5	1.52e+00	0	41	104	0	60	45268
2026-01-24 13:06:40.39	21.26	2.59	-49.5	-60.3	3.6	1.51e+00	0	41	104	0	60	36209
2026-01-24 13:06:41.40	21.32	2.65	-48.9	-56.5	6.0	7.98e-01	123	41	104	0	60	23540
2026-01-24 13:06:42.41	21.38	2.70	-48.4	-53.6	7.5	1.25e-01	123	41	0	2097152	60	16818
2026-01-24 13:06:43.42	21.44	2.76	-48.5	-54.1	7.5	2.67e-01	123	40	0	5242880	60	17785
2026-01-24 13:06:44.43	21.51	2.82	-44.8	-47.0	15.1	9.46e-05	123	41	0	8388608	60	7885
2026-01-24 13:06:45.44	21.57	2.88	-44.4	-46.4	16.0	0.00e+00	120	40	0	11534336	60	7369
2026-01-24 13:06:46.45	21.63	2.94	-42.2	-43.7	18.3	0.00e+00	122	40	0	14680064	58	6048
2026-01-24 13:06:47.46	21.69	3.00	-41.1	-42.5	18.8	0.00e+00	123	41	0	17825792	54	6584
2026-01-24 13:06:48.47	21.76	3.06	-39.5	-40.6	21.1	0.00e+00	123	41	0	20971520	52	5980
2026-01-24 13:06:49.48	21.82	3.12	-42.2	-43.7	17.9	0.00e+00	122	41	0	24117248	56	6768
2026-01-24 13:06:50.49	21.89	3.18	-43.5	-45.3	16.4	0.00e+00	122	41	0	27262976	58	7250
2026-01-24 13:06:51.50	21.95	3.24	-42.9	-44.5	17.2	0.00e+00	123	41	0	30408704	58	6625
2026-01-24 13:06:52.51	22.01	3.30	-43.5	-45.4	16.4	0.00e+00	122	41	0	33554432	60	6524
2026-01-24 13:06:53.52	22.08	3.36	-45.4	-47.9	13.8	6.10e-06	122	41	0	36700160	60	8750
2026-01-24 13:06:54.53	22.14	3.42	-41.4	-42.8	19.1	0.00e+00	122	41	0	39845888	58	5417
2026-01-24 13:06:55.54	22.21	3.48	-45.4	-47.9	10.2	0.00e+00	122	40	0	42991616	56	10999
2026-01-24 13:06:56.55	22.28	3.54	-49.3	-58.9	3.8	1.52e+00	0	41	104	42991616	60	31023
2026-01-24 13:06:57.56	22.34	3.60	-42.2	-44.0	17.5	5.91e-04	122	41	104	42991616	60	5583
2026-01-24 13:06:58.56	22.41	3.66	-45.6	-48.0	14.7	8.41e-03	123	41	0	45088768	60	8775
2026-01-24 13:06:59.57	22.47	3.72	-43.2	-44.9	16.7	0.00e+00	120	41	0	48234496	56	7775
2026-01-24 13:07:00.58	22.54	3.78	-43.7	-45.5	15.9	0.00e+00	123	41	0	52428800	60	6619
2026-01-24 13:07:01.59	22.61	3.85	-44.8	-46.9	14.8	0.00e+00	123	41	0	55574528	60	7773
2026-01-24 13:07:02.60	22.67	3.91	-42.6	-44.2	18.0	7.00e-07	123	41	0	57671680	60	5667
2026-01-24 13:07:03.61	22.74	3.97	-43.9	-45.7	17.2	0.00e+00	122	41	0	60817408	58	7617
2026-01-24 13:07:04.62	22.81	4.03	-42.4	-44.0	17.9	0.00e+00	121	41	0	63963136	58	6213
2026-01-24 13:07:05.63	22.88	4.09	-43.0	-44.6	17.6	0.00e+00	123	41	0	67108864	60	5967
2026-01-24 13:07:06.63	22.94	4.15	-41.4	-42.7	19.2	0.00e+00	122	41	0	71303168	56	6041
2026-01-24 13:07:07.64	23.01	4.21	-41.2	-42.5	19.4	0.00e+00	122	41	0	74448896	56	5923
2026-01-24 13:07:08.66	23.08	4.28	-41.2	-42.5	19.8	0.00e+00	122	41	0	77594624	56	5901
2026-01-24 13:07:09.67	23.15	4.34	-42.5	-43.9	17.0	0.00e+00	123	41	0	79691776	56	6962
2026-01-24 13:07:10.67	23.22	4.40	-42.4	-43.9	18.5	0.00e+00	122	41	0	82837504	58	6165
2026-01-24 13:07:11.68	23.29	4.46	-39.2	-40.3	21.6	0.00e+00	120	41	0	87031808	54	5113
2026-01-24 13:07:12.69	23.36	4.52	-42.3	-43.7	18.5	0.00e+00	123	41	0	90177536	56	6789
2026-01-24 13:07:13.70	23.43	4.59	-42.4	-43.9	18.4	0.00e+00	123	41	0	93323264	56	6925
2026-01-24 13:07:14.71	23.50	4.65	-43.6	-45.3	16.6	0.00e+00	123	41	0	96468992	58	7251
2026-01-24 13:07:15.72	23.57	4.71	-45.9	-48.4	13.6	0.00e+00	122	41	0	99614720	60	9280
2026-01-24 13:07:16.73	23.64	4.77	-39.9	-41.1	20.5	0.00e+00	120	41	0	102760448	52	6298
2026-01-24 13:07:17.74	23.71	4.84	-43.7	-45.5	16.5	0.00e+00	123	41	0	105906176	60	6604
2026-01-24 13:07:18.75	23.78	4.90	-42.2	-43.6	19.0	0.00e+00	123	41	0	109051904	58	5970
2026-01-24 13:07:19.76	23.85	4.96	-43.4	-45.1	17.1	0.00e+00	123	41	0	112197632	58	7084
2026-01-24 13:07:20.77	23.93	5.03	-42.2	-43.6	18.0	0.00e+00	122	41	0	115343360	58	5964
2026-01-24 13:07:21.78	24.00	5.09	-42.0	-43.4	18.3	0.00e+00	123	41	0	118489088	58	5819
2026-01-24 13:07:22.79	24.07	5.15	-43.0	-44.5	16.8	0.00e+00	123	41	0	121634816	58	6624
2026-01-24 13:07:23.80	24.14	5.22	-44.1	-45.9	16.0	0.00e+00	123	41	0	124780544	60	6944
2026-01-24 13:07:24.81	24.22	5.28	-41.8	-43.2	18.7	0.00e+00	123	41	0	127926272	58	5674
2026-01-24 13:07:25.81	24.29	5.34	-43.8	-45.6	17.3	0.00e+00	123	41	0	131072000	58	7462
2026-01-24 13:07:26.82	24.36	5.41	-42.7	-44.2	18.4	0.00e+00	122	41	0	134217728	60	5718
2026-01-24 13:07:27.83	24.44	5.47	-42.6	-44.1	17.9	0.00e+00	123	41	0	137363456	58	6280
2026-01-24 13:07:28.84	24.51	5.54	-43.1	-44.7	17.8	0.00e+00	123	41	0	140509184	58	6760
2026-01-24 13:07:29.85	24.59	5.60	-43.7	-45.4	16.9	0.00e+00	122	41	0	143654912	60	6545
2026-01-24 13:07:30.86	24.66	5.66	-44.0	-45.8	16.6	0.00e+00	122	41	0	146800640	60	6842
2026-01-24 13:07:31.87	24.74	5.73	-43.4	-45.1	17.2	0.00e+00	123	41	0	149946368	60	6318
2026-01-24 13:07:32.88	24.81	5.79	-43.7	-45.4	17.1	0.00e+00	123	41	0	153092096	60	6546
2026-01-24 13:07:33.89	24.89	5.86	-42.1	-43.4	18.6	0.00e+00	120	41	0	156237824	60	5216
2026-01-24 13:07:34.90	24.96	5.92	-41.7	-43.0	19.4	0.00e+00	123	41	0	159383552	56	6276
2026-01-24 13:07:35.91	25.04	5.99	-42.4	-43.9	18.5	0.00e+00	120	41	0	162529280	56	6911
2026-01-24 13:07:36.92	25.12	6.05	-43.1	-44.7	17.2	0.00e+00	123	41	0	165675008	58	6793
2026-01-24 13:07:37.93	25.19	6.12	-42.3	-43.7	18.8	0.00e+00	123	41	0	168820736	58	6051
2026-01-24 13:07:38.94	25.27	6.18	-41.8	-43.1	18.8	0.00e+00	122	41	0	171966464	56	6320
2026-01-24 13:07:39.95	25.35	6.25	-42.4	-43.8	18.4	0.00e+00	123	41	0	175112192	56	6875
2026-01-24 13:07:40.95	25.43	6.31	-42.6	-44.1	18.9	0.00e+00	122	41	0	178257920	56	7091
2026-01-24 13:07:41.96	25.51	6.38	-41.0	-42.3	19.4	0.00e+00	123	41	0	181403648	56	5745
2026-01-24 13:07:42.98	25.59	6.45	-42.5	-44.0	18.9	0.00e+00	120	41	0	184549376	56	6985
2026-01-24 13:07:43.99	25.66	6.51	-41.6	-43.0	19.1	0.00e+00	123	41	0	187695104	56	6227
2026-01-24 13:07:44.99	25.74	6.58	-41.8	-43.1	19.2	0.00e+00	122	41	0	190840832	56	6340
2026-01-24 13:07:46.00	25.82	6.64	-41.9	-43.3	18.9	0.00e+00	123	41	0	193986560	56	6451
2026-01-24 13:07:47.01	25.90	6.71	-42.1	-43.5	18.9	0.00e+00	123	41	0	197132288	56	6623
2026-01-24 13:07:48.02	25.98	6.78	-42.3	-43.8	18.5	0.00e+00	123	41	0	200278016	58	6080
2026-01-24 13:07:49.03	26.06	6.84	-42.1	-43.4	18.9	0.00e+00	122	41	0	203423744	56	6571
2026-01-24 13:07:50.04	26.15	6.91	-41.4	-42.7	19.7	0.00e+00	122	41	0	206569472	56	6031
2026-01-24 13:07:51.05	26.23	6.98	-41.6	-42.9	19.5	0.00e+00	120	41	0	209715200	56	6146
2026-01-24 13:07:52.05	26.31	7.04	-42.5	-44.0	18.3	0.00e+00	123	41	0	212860928	56	6987
2026-01-24 13:07:53.06	26.39	7.11	-42.3	-43.7	18.7	0.00e+00	123	41	0	216006656	56	6741
2026-01-24 13:07:54.08	26.47	7.18	-43.3	-44.9	17.6	0.00e+00	123	41	0	219152384	58	6891
2026-01-24 13:07:55.09	26.56	7.25	-41.5	-42.8	19.7	0.00e+00	123	41	0	222298112	56	6076
2026-01-24 13:07:56.09	26.64	7.31	-41.5	-42.8	19.8	0.00e+00	123	41	0	225443840	56	6077
2026-01-24 13:07:57.10	26.72	7.38	-41.4	-42.7	19.6	0.00e+00	122	41	0	228589568	56	5995
2026-01-24 13:07:58.11	26.81	7.45	-41.8	-43.2	19.2	0.00e+00	123	41	0	231735296	56	6360
2026-01-24 13:07:59.12	26.89	7.52	-41.0	-42.2	20.0	0.00e+00	123	41	0	234881024	56	5702
2026-01-24 13:08:00.13	26.98	7.58	-41.2	-42.5	19.8	0.00e+00	123	41	0	238026752	56	5902
2026-01-24 13:08:01.14	27.06	7.65	-40.2	-41.3	20.8	0.00e+00	122	41	0	241172480	54	5769
2026-01-24 13:08:02.15	27.15	7.72	-39.8	-40.9	21.2	0.00e+00	122	41	0	244318208	54	5488
2026-01-24 13:08:03.16	27.23	7.79	-39.6	-40.7	21.3	0.00e+00	120	41	0	247463936	52	6000
2026-01-24 13:08:04.17	27.32	7.86	-38.8	-39.8	21.9	0.00e+00	122	41	0	250609664	52	5444
2026-01-24 13:08:05.18	27.41	7.93	-39.4	-40.5	21.3	0.00e+00	122	41	0	253755392	50	6602
2026-01-24 13:08:06.19	27.49	7.99	-39.7	-40.8	21.3	0.00e+00	123	41	0	256901120	52	6087
2026-01-24 13:08:07.20	27.58	8.06	-39.2	-40.3	21.7	0.00e+00	122	41	0	260046848	52	5767
2026-01-24 13:08:08.21	27.67	8.13	-39.4	-40.5	21.6	0.00e+00	120	41	0	263192576	52	5866
2026-01-24 13:08:09.22	27.76	8.20	-39.3	-40.3	21.7	0.00e+00	123	41	0	266338304	52	5784
2026-01-24 13:08:10.22	27.85	8.27	-38.9	-40.0	22.0	0.00e+00	123	41	0	269484032	52	5541
2026-01-24 13:08:11.23	27.93	8.34	-38.9	-39.9	22.1	0.00e+00	123	41	0	272629760	52	5520
2026-01-24 13:08:12.24	28.02	8.41	-38.8	-39.9	22.3	0.00e+00	123	41	0	275775488	52	5481
2026-01-24 13:08:13.25	28.11	8.48	-38.9	-39.9	22.1	0.00e+00	123	41	0	278921216	50	6199
2026-01-24 13:08:14.27	28.20	8.55	-38.1	-39.1	22.8	0.00e+00	122	41	0	282066944	50	5649
2026-01-24 13:08:15.28	28.30	8.62	-39.4	-40.5	21.6	0.00e+00	123	41	0	285212672	50	6588
2026-01-24 13:08:16.29	28.39	8.69	-38.7	-39.8	22.3	0.00e+00	120	41	0	288358400	50	6065
2026-01-24 13:08:17.30	28.48	8.76	-38.6	-39.6	22.5	0.00e+00	123	41	0	291504128	50	5981
2026-01-24 13:08:18.30	28.57	8.83	-38.4	-39.4	22.6	0.00e+00	123	41	0	294649856	50	5796
2026-01-24 13:08:19.31	28.66	8.90	-38.6	-39.6	22.5	0.00e+00	123	41	0	297795584	50	5965
2026-01-24 13:08:20.32	28.75	8.97	-38.9	-39.9	22.1	0.00e+00	122	41	0	300941312	50	6183
2026-01-24 13:08:21.33	28.85	9.04	-39.3	-40.3	21.9	0.00e+00	123	41	0	304087040	50	6474
2026-01-24 13:08:22.34	28.94	9.11	-38.3	-39.3	22.7	0.00e+00	122	41	0	307232768	50	5758
2026-01-24 13:08:23.35	29.04	9.18	-38.4	-39.4	22.6	0.00e+00	122	41	0	310378496	50	5795
2026-01-24 13:08:24.36	29.13	9.26	-38.4	-39.4	22.6	0.00e+00	123	41	0	313524224	50	5842
2026-01-24 13:08:25.37	29.22	9.33	-38.7	-39.7	22.4	0.00e+00	122	41	0	316669952	50	6015
2026-01-24 13:08:26.38	29.32	9.40	-38.9	-40.0	22.1	0.00e+00	120	41	0	319815680	50	6215
2026-01-24 13:08:27.39	29.42	9.47	-38.6	-39.6	22.5	0.00e+00	123	41	0	322961408	50	5987
2026-01-24 13:08:28.40	29.51	9.54	-38.4	-39.4	22.6	0.00e+00	120	41	0	326107136	50	5853
2026-01-24 13:08:29.41	29.61	9.61	-38.2	-39.2	22.8	0.00e+00	123	41	0	329252864	50	5670
2026-01-24 13:08:30.42	29.71	9.69	-38.3	-39.3	22.7	0.00e+00	122	41	0	332398592	50	5788
2026-01-24 13:08:31.43	29.80	9.76	-38.6	-39.6	22.5	0.00e+00	123	41	0	335544320	50	5941
2026-01-24 13:08:32.44	29.90	9.83	-38.5	-39.5	22.4	0.00e+00	122	41	0	338690048	50	5892
2026-01-24 13:08:33.45	30.00	9.90	-38.2	-39.1	23.0	0.00e+00	122	41	0	341835776	50	5641
2026-01-24 13:08:34.46	30.10	9.98	-38.2	-39.2	22.8	0.00e+00	122	41	0	344981504	50	5679
2026-01-24 13:08:35.47	30.20	10.05	-38.4	-39.4	22.7	0.00e+00	123	41	0	348127232	50	5804
2026-01-24 13:08:36.48	30.30	10.12	-38.3	-39.3	22.8	0.00e+00	120	41	0	351272960	50	5746
2026-01-24 13:08:37.49	30.40	10.19	-38.0	-38.9	23.0	0.00e+00	122	41	0	354418688	50	5523
2026-01-24 13:08:38.50	30.50	10.27	-38.3	-39.3	22.8	0.00e+00	123	41	0	357564416	50	5733
2026-01-24 13:08:39.51	30.60	10.34	-38.1	-39.0	22.9	0.00e+00	123	41	0	360710144	50	5592
2026-01-24 13:08:40.52	30.70	10.41	-38.2	-39.2	22.9	0.00e+00	122	41	0	363855872	50	5692
2026-01-24 13:08:41.53	30.81	10.49	-38.3	-39.3	22.8	0.00e+00	122	41	0	367001600	50	5730
2026-01-24 13:08:42.53	30.91	10.56	-37.9	-38.8	23.2	0.00e+00	120	41	0	370147328	50	5455
2026-01-24 13:08:43.54	31.01	10.64	-38.1	-39.1	23.0	0.00e+00	123	41	0	373293056	50	5618
2026-01-24 13:08:44.55	31.12	10.71	-38.1	-39.1	23.1	0.00e+00	120	41	0	376438784	50	5596
2026-01-24 13:08:45.56	31.22	10.78	-37.9	-38.9	23.2	0.00e+00	123	41	0	379584512	50	5506
2026-01-24 13:08:46.57	31.32	10.86	-38.0	-39.0	23.0	0.00e+00	123	41	0	382730240	50	5580
2026-01-24 13:08:47.58	31.43	10.93	-37.9	-38.9	23.0	0.00e+00	122	41	0	385875968	50	5487
2026-01-24 13:08:48.59	31.54	11.01	-38.0	-39.0	23.1	0.00e+00	123	41	0	389021696	50	5548
2026-01-24 13:08:49.60	31.64	11.08	-38.0	-39.0	23.0	0.00e+00	122	41	0	392167424	50	5539
2026-01-24 13:08:50.61	31.75	11.16	-37.9	-38.9	23.1	0.00e+00	121	41	0	395313152	50	5488
2026-01-24 13:08:51.62	31.86	11.23	-37.7	-38.7	23.2	0.00e+00	122	41	0	398458880	48	6017
2026-01-24 13:08:52.63	31.96	11.31	-37.7	-38.6	23.3	0.00e+00	123	41	0	401604608	48	5970
2026-01-24 13:08:53.64	32.07	11.38	-37.7	-38.7	23.3	0.00e+00	123	41	0	404750336	48	6005
2026-01-24 13:08:54.65	32.18	11.46	-37.7	-38.7	23.1	0.00e+00	123	41	0	407896064	48	6029
2026-01-24 13:08:55.66	32.29	11.53	-37.9	-38.9	23.0	0.00e+00	124	41	0	411041792	48	6137
2026-01-24 13:08:56.67	32.40	11.61	-37.7	-38.7	23.2	0.00e+00	123	41	0	414187520	48	5996
2026-01-24 13:08:57.68	32.51	11.69	-37.6	-38.6	23.3	0.00e+00	123	41	0	417333248	48	5940
2026-01-24 13:08:58.68	32.62	11.76	-37.3	-38.2	23.6	0.00e+00	120	41	0	420478976	48	5724
2026-01-24 13:08:59.69	32.73	11.84	-37.3	-38.3	23.6	0.00e+00	120	41	0	423624704	48	5732
2026-01-24 13:09:00.70	32.85	11.91	-37.4	-38.3	23.6	0.00e+00	123	41	0	426770432	48	5770
2026-01-24 13:09:01.71	32.96	11.99	-37.3	-38.3	23.7	0.00e+00	122	41	0	429916160	48	5739
2026-01-24 13:09:02.72	33.07	12.07	-37.3	-38.2	23.7	0.00e+00	120	41	0	433061888	48	5720
2026-01-24 13:09:03.73	33.19	12.14	-37.4	-38.4	23.7	0.00e+00	122	41	0	437256192	48	5796
2026-01-24 13:09:04.74	33.30	12.22	-37.4	-38.3	23.6	0.00e+00	123	41	0	440401920	48	5777
2026-01-24 13:09:05.75	33.42	12.30	-37.3	-38.2	23.6	0.00e+00	123	41	0	443547648	48	5692
2026-01-24 13:09:06.76	33.53	12.38	-37.5	-38.5	23.5	0.00e+00	123	41	0	445644800	48	5861
2026-01-24 13:09:07.77	33.65	12.45	-37.5	-38.4	23.4	0.00e+00	122	41	0	448790528	48	5848
2026-01-24 13:09:08.78	33.77	12.53	-37.4	-38.4	23.5	0.00e+00	123	41	0	452984832	48	5803
2026-01-24 13:09:09.79	33.88	12.61	-37.4	-38.4	23.5	0.00e+00	122	41	0	456130560	48	5793
2026-01-24 13:09:10.79	34.00	12.69	-37.4	-38.3	23.5	0.00e+00	122	41	0	459276288	48	5789
2026-01-24 13:09:11.81	34.12	12.76	-37.4	-38.4	23.5	0.00e+00	122	41	0	462422016	48	5807
2026-01-24 13:09:12.81	34.24	12.84	-37.3	-38.2	23.7	0.00e+00	122	41	0	465567744	48	5702
2026-01-24 13:09:13.82	34.36	12.92	-37.3	-38.2	23.6	0.00e+00	123	41	0	468713472	48	5703
2026-01-24 13:09:14.83	34.48	13.00	-37.4	-38.4	23.6	0.00e+00	123	41	0	471859200	48	5817
2026-01-24 13:09:15.84	34.60	13.08	-37.5	-38.4	23.6	0.00e+00	122	41	0	475004928	48	5831
2026-01-24 13:09:16.85	34.72	13.16	-37.5	-38.4	23.6	0.00e+00	122	41	0	478150656	48	5853
2026-01-24 13:09:17.86	34.84	13.23	-37.6	-38.5	23.4	0.00e+00	120	41	0	481296384	48	5920
2026-01-24 13:09:18.87	34.97	13.31	-37.6	-38.5	23.4	0.00e+00	122	41	0	484442112	48	5926
2026-01-24 13:09:19.88	35.09	13.39	-37.4	-38.4	23.4	0.00e+00	123	42	0	487587840	48	5799
2026-01-24 13:09:20.89	35.22	13.47	-37.5	-38.5	23.4	0.00e+00	122	41	0	490733568	48	5887
2026-01-24 13:09:21.90	35.34	13.55	-37.4	-38.3	23.6	0.00e+00	123	41	0	493879296	48	5788
2026-01-24 13:09:22.91	35.47	13.63	-37.6	-38.5	23.4	0.00e+00	123	41	0	497025024	48	5913
2026-01-24 13:09:23.92	35.59	13.71	-37.7	-38.6	23.4	0.00e+00	122	42	0	500170752	48	5964
2026-01-24 13:09:24.93	35.72	13.79	-37.6	-38.6	23.5	0.00e+00	123	41	0	503316480	48	5951
2026-01-24 13:09:25.93	35.84	13.87	-37.7	-38.6	23.3	0.00e+00	122	42	0	506462208	48	5968
2026-01-24 13:09:26.94	35.97	13.95	-37.6	-38.6	23.6	0.00e+00	123	42	0	509607936	48	5931
2026-01-24 13:09:27.95	36.10	14.03	-37.8	-38.7	23.3	0.00e+00	120	42	0	512753664	48	6059
2026-01-24 13:09:28.96	36.23	14.11	-38.0	-39.0	23.2	0.00e+00	123	41	0	515899392	48	6226
2026-01-24 13:09:29.97	36.36	14.19	-37.5	-38.5	23.5	0.00e+00	120	42	0	519045120	48	5872
2026-01-24 13:09:30.99	36.49	14.27	-37.6	-38.6	23.5	0.00e+00	122	41	0	522190848	48	5945
2026-01-24 13:09:31.99	36.62	14.35	-37.7	-38.7	23.5	0.00e+00	123	41	0	525336576	48	6006
2026-01-24 13:09:33.01	36.76	14.43	-37.7	-38.6	23.5	0.00e+00	123	42	0	528482304	48	5976
2026-01-24 13:09:34.01	36.89	14.51	-37.8	-38.7	23.4	0.00e+00	123	41	0	531628032	48	6045
2026-01-24 13:09:35.02	37.02	14.60	-37.9	-38.9	23.3	0.00e+00	123	41	0	534773760	48	6162
2026-01-24 13:09:36.03	37.16	14.68	-37.8	-38.8	23.4	0.00e+00	121	42	0	537919488	48	6070
2026-01-24 13:09:37.04	37.29	14.76	-37.8	-38.7	23.4	0.00e+00	121	41	0	541065216	48	6059
2026-01-24 13:09:38.05	37.43	14.84	-37.8	-38.8	23.3	0.00e+00	123	42	0	544210944	48	6108
2026-01-24 13:09:39.06	37.56	14.92	-38.0	-38.9	23.2	0.00e+00	123	42	0	547356672	48	6194
2026-01-24 13:09:40.07	37.70	15.00	-37.9	-38.8	23.3	0.00e+00	123	42	0	550502400	48	6118
2026-01-24 13:09:41.08	37.84	15.08	-37.7	-38.7	23.5	0.00e+00	120	41	0	553648128	48	6010
2026-01-24 13:09:42.09	37.98	15.17	-37.7	-38.7	23.4	0.00e+00	123	41	0	556793856	48	6002
2026-01-24 13:09:43.10	38.12	15.25	-37.8	-38.7	23.4	0.00e+00	122	42	0	559939584	48	6044
2026-01-24 13:09:44.11	38.26	15.33	-37.7	-38.7	23.5	0.00e+00	122	42	0	563085312	48	6009
2026-01-24 13:09:45.12	38.40	15.41	-37.8	-38.8	23.4	0.00e+00	122	42	0	566231040	48	6090
2026-01-24 13:09:46.13	38.54	15.50	-37.7	-38.7	23.5	0.00e+00	122	42	0	569376768	48	6008
2026-01-24 13:09:47.13	38.68	15.58	-37.9	-38.9	23.3	0.00e+00	123	41	0	572522496	48	6138
2026-01-24 13:09:48.15	38.83	15.66	-37.9	-38.9	23.2	0.00e+00	123	42	0	575668224	48	6167
2026-01-24 13:09:49.15	38.97	15.74	-37.8	-38.7	23.4	0.00e+00	120	42	0	578813952	48	6049
2026-01-24 13:09:50.16	39.11	15.83	-37.8	-38.7	23.4	0.00e+00	122	41	0	581959680	48	6031
2026-01-24 13:09:51.17	39.26	15.91	-37.6	-38.6	23.5	0.00e+00	123	41	0	585105408	48	5944
2026-01-24 13:09:52.18	39.41	15.99	-37.8	-38.8	23.4	0.00e+00	123	41	0	588251136	48	6068
2026-01-24 13:09:53.19	39.55	16.08	-37.8	-38.8	23.4	0.00e+00	123	41	0	591396864	48	6073
2026-01-24 13:09:54.20	39.70	16.16	-37.9	-38.9	23.3	0.00e+00	123	41	0	594542592	48	6164
2026-01-24 13:09:55.21	39.85	16.24	-38.0	-38.9	23.3	0.00e+00	123	42	0	597688320	48	6177
2026-01-24 13:09:56.22	40.00	16.33	-38.0	-38.9	23.2	0.00e+00	120	42	0	600834048	48	6176
2026-01-24 13:09:57.23	40.15	16.41	-38.1	-39.0	23.2	0.00e+00	122	41	0	603979776	48	6239
2026-01-24 13:09:58.23	40.30	16.49	-37.8	-38.7	23.4	0.00e+00	123	42	0	607125504	48	6056
2026-01-24 13:09:59.24	40.45	16.58	-38.0	-38.9	23.3	0.00e+00	120	41	0	610271232	48	6197
2026-01-24 13:10:00.25	40.60	16.66	-38.2	-39.1	23.1	0.00e+00	123	42	0	613416960	48	6329
2026-01-24 13:10:01.26	40.76	16.75	-38.0	-39.0	23.1	0.00e+00	123	42	0	616562688	48	6233
2026-01-24 13:10:02.27	40.91	16.83	-38.1	-39.1	23.1	0.00e+00	122	42	0	619708416	48	6289
2026-01-24 13:10:03.28	41.07	16.92	-38.1	-39.1	23.1	0.00e+00	122	42	0	622854144	48	6309
2026-01-24 13:10:04.29	41.22	17.00	-38.2	-39.2	23.1	0.00e+00	122	42	0	625999872	48	6395
2026-01-24 13:10:05.29	41.38	17.08	-38.3	-39.2	23.1	0.00e+00	120	42	0	629145600	48	6418
2026-01-24 13:10:06.31	41.54	17.17	-38.4	-39.4	22.9	0.00e+00	120	42	0	632291328	48	6544
2026-01-24 13:10:07.32	41.70	17.25	-38.4	-39.4	22.8	0.00e+00	122	42	0	635437056	48	6555
2026-01-24 13:10:08.33	41.86	17.34	-38.3	-39.2	23.0	0.00e+00	123	42	0	638582784	48	6415
2026-01-24 13:10:09.33	42.01	17.42	-38.2	-39.2	23.0	0.00e+00	122	42	0	641728512	48	6358
2026-01-24 13:10:10.34	42.18	17.51	-38.2	-39.2	23.1	0.00e+00	121	42	0	644874240	48	6382
2026-01-24 13:10:11.35	42.34	17.59	-38.2	-39.2	23.1	0.00e+00	122	41	0	648019968	48	6385
2026-01-24 13:10:12.36	42.50	17.68	-38.2	-39.2	23.1	0.00e+00	122	42	0	651165696	48	6407
2026-01-24 13:10:13.37	42.67	17.76	-38.3	-39.2	23.1	0.00e+00	120	42	0	654311424	48	6409
2026-01-24 13:10:14.37	42.83	17.85	-38.3	-39.2	23.1	0.00e+00	120	42	0	657457152	48	6404
2026-01-24 13:10:15.38	42.99	17.93	-38.3	-39.3	23.1	0.00e+00	123	42	0	660602880	48	6438
2026-01-24 13:10:16.39	43.16	18.02	-38.4	-39.4	23.0	0.00e+00	123	42	0	663748608	48	6514
2026-01-24 13:10:17.40	43.33	18.10	-38.3	-39.3	23.1	0.00e+00	122	42	0	666894336	48	6449
2026-01-24 13:10:18.41	43.50	18.19	-38.1	-39.1	23.2	0.00e+00	123	42	0	670040064	48	6310
2026-01-24 13:10:19.42	43.67	18.28	-38.3	-39.2	23.0	0.00e+00	123	42	0	673185792	48	6418
2026-01-24 13:10:20.43	43.84	18.36	-38.4	-39.3	22.9	0.00e+00	120	42	0	676331520	48	6479
2026-01-24 13:10:21.44	44.01	18.45	-38.5	-39.5	22.8	0.00e+00	123	42	0	679477248	48	6608
2026-01-24 13:10:22.45	44.18	18.53	-38.6	-39.6	22.8	0.00e+00	122	42	0	682622976	50	5956
2026-01-24 13:10:23.46	44.35	18.62	-38.0	-38.9	23.3	0.00e+00	122	42	0	685768704	50	5513
2026-01-24 13:10:24.47	44.53	18.71	-37.9	-38.9	23.4	0.00e+00	123	42	0	688914432	50	5488
2026-01-24 13:10:25.48	44.70	18.79	-37.8	-38.8	23.5	0.00e+00	122	42	0	692060160	50	5411
2026-01-24 13:10:26.49	44.88	18.88	-37.7	-38.6	23.6	0.00e+00	122	42	0	695205888	48	5982
2026-01-24 13:10:27.50	45.06	18.96	-37.7	-38.6	23.5	0.00e+00	120	42	0	698351616	48	5992
2026-01-24 13:10:28.51	45.23	19.05	-37.6	-38.6	23.6	0.00e+00	122	42	0	701497344	48	5942
2026-01-24 13:10:29.52	45.41	19.14	-37.6	-38.5	23.7	0.00e+00	123	42	0	704643072	48	5904
2026-01-24 13:10:30.53	45.59	19.22	-37.5	-38.4	23.7	0.00e+00	123	42	0	707788800	48	5826
2026-01-24 13:10:31.54	45.77	19.31	-37.4	-38.3	23.8	0.00e+00	123	41	0	710934528	48	5753
2026-01-24 13:10:32.55	45.96	19.39	-37.5	-38.4	23.7	0.00e+00	122	42	0	714080256	48	5818
2026-01-24 13:10:33.56	46.14	19.48	-37.3	-38.2	23.8	0.00e+00	123	41	0	717225984	48	5716
2026-01-24 13:10:34.57	46.32	19.57	-37.3	-38.2	23.7	0.00e+00	123	42	0	720371712	48	5711
2026-01-24 13:10:35.58	46.51	19.65	-37.4	-38.3	23.7	0.00e+00	123	42	0	723517440	48	5771
2026-01-24 13:10:36.59	46.69	19.74	-37.2	-38.2	23.8	0.00e+00	123	41	0	726663168	48	5666
2026-01-24 13:10:37.60	46.88	19.83	-37.4	-38.3	23.7	0.00e+00	122	42	0	729808896	48	5775
2026-01-24 13:10:38.61	47.07	19.91	-37.4	-38.3	23.7	0.00e+00	123	42	0	732954624	48	5754
2026-01-24 13:10:39.62	47.26	20.00	-37.6	-38.5	23.8	0.00e+00	122	42	0	736100352	48	5925
2026-01-24 13:10:40.63	47.45	20.09	-37.4	-38.3	23.8	0.00e+00	123	42	0	739246080	48	5769
2026-01-24 13:10:41.64	47.64	20.17	-37.2	-38.1	23.9	0.00e+00	123	42	0	742391808	48	5646
2026-01-24 13:10:42.65	47.83	20.26	-37.0	-38.0	24.1	0.00e+00	123	41	0	745537536	48	5535
2026-01-24 13:10:43.66	48.02	20.34	-37.0	-37.9	24.1	0.00e+00	122	42	0	748683264	48	5496
2026-01-24 13:10:44.67	48.22	20.43	-37.0	-37.9	24.1	0.00e+00	123	42	0	751828992	48	5526
2026-01-24 13:10:45.68	48.41	20.52	-37.1	-38.1	24.0	0.00e+00	120	42	0	754974720	48	5599
2026-01-24 13:10:46.69	48.61	20.60	-37.4	-38.3	23.8	0.00e+00	123	42	0	758120448	48	5773
2026-01-24 13:10:47.70	48.81	20.69	-37.0	-37.9	24.1	0.00e+00	120	42	0	761266176	48	5487
2026-01-24 13:10:48.71	49.01	20.78	-37.0	-37.9	24.0	0.00e+00	123	42	0	764411904	48	5510
2026-01-24 13:10:49.72	49.21	20.86	-36.8	-37.7	24.2	0.00e+00	123	42	0	767557632	48	5362
2026-01-24 13:10:50.73	49.41	20.95	-36.6	-37.5	24.4	0.00e+00	123	42	0	770703360	46	5905
2026-01-24 13:10:51.74	49.61	21.03	-36.6	-37.5	24.4	0.00e+00	123	42	0	773849088	46	5915
2026-01-24 13:10:52.75	49.81	21.12	-36.4	-37.3	24.5	0.00e+00	123	42	0	776994816	46	5728
2026-01-24 13:10:53.76	50.02	21.20	-36.4	-37.3	24.5	0.00e+00	123	42	0	780140544	46	5730
2026-01-24 13:10:54.77	50.22	21.29	-36.2	-37.1	24.7	0.00e+00	123	41	0	783286272	46	5599
2026-01-24 13:10:55.78	50.43	21.38	-36.1	-36.9	24.8	0.00e+00	123	42	0	786432000	46	5524
2026-01-24 13:10:56.79	50.64	21.46	-36.2	-37.1	24.7	0.00e+00	120	41	0	789577728	46	5606
2026-01-24 13:10:57.80	50.84	21.55	-36.0	-36.9	24.9	0.00e+00	122	41	0	792723456	46	5498
2026-01-24 13:10:58.81	51.05	21.63	-36.2	-37.1	24.7	0.00e+00	122	42	0	795869184	46	5602
2026-01-24 13:10:59.82	51.27	21.72	-36.2	-37.1	24.7	0.00e+00	123	42	0	799014912	46	5604
2026-01-24 13:11:00.83	51.48	21.80	-36.2	-37.1	24.7	0.00e+00	122	42	0	803209216	46	5618
2026-01-24 13:11:01.84	51.69	21.89	-36.2	-37.1	24.7	0.00e+00	120	42	0	806354944	46	5613
2026-01-24 13:11:02.85	51.90	21.97	-36.0	-36.9	24.9	0.00e+00	123	42	0	809500672	46	5508
2026-01-24 13:11:03.86	52.12	22.06	-36.0	-36.9	25.0	0.00e+00	120	42	0	811597824	46	5470
2026-01-24 13:11:04.87	52.34	22.14	-36.0	-36.8	25.0	0.00e+00	122	42	0	814743552	46	5443
2026-01-24 13:11:05.88	52.55	22.23	-35.8	-36.7	25.2	0.00e+00	122	41	0	818937856	46	5356
2026-01-24 13:11:06.89	52.77	22.31	-35.9	-36.7	25.2	0.00e+00	120	42	0	822083584	46	5397
2026-01-24 13:11:07.90	52.99	22.40	-35.9	-36.8	25.1	0.00e+00	122	42	0	825229312	46	5433
2026-01-24 13:11:08.91	53.21	22.48	-35.8	-36.7	25.0	0.00e+00	120	42	0	828375040	46	5351
2026-01-24 13:11:09.92	53.44	22.57	-35.9	-36.8	25.1	0.00e+00	122	42	0	831520768	46	5432
2026-01-24 13:11:10.93	53.66	22.65	-36.0	-36.8	24.9	0.00e+00	123	42	0	834666496	46	5452
2026-01-24 13:11:11.94	53.89	22.73	-36.0	-36.8	25.0	0.00e+00	123	42	0	837812224	46	5461
2026-01-24 13:11:12.95	54.11	22.82	-36.1	-36.9	24.9	0.00e+00	123	42	0	840957952	46	5519
2026-01-24 13:11:13.96	54.34	22.90	-36.0	-36.9	24.8	0.00e+00	122	42	0	844103680	46	5503
2026-01-24 13:11:14.96	54.56	22.98	-36.1	-37.0	24.8	0.00e+00	123	42	0	847249408	46	5536
2026-01-24 13:11:15.97	54.79	23.07	-36.2	-37.1	24.7	0.00e+00	122	42	0	850395136	46	5619
2026-01-24 13:11:16.98	55.03	23.15	-36.0	-36.9	24.9	0.00e+00	123	42	0	853540864	46	5491
2026-01-24 13:11:17.99	55.26	23.23	-36.2	-37.0	24.8	0.00e+00	120	42	0	856686592	46	5581
2026-01-24 13:11:19.00	55.49	23.31	-36.3	-37.2	24.7	0.00e+00	122	42	0	859832320	46	5681
2026-01-24 13:11:20.01	55.72	23.40	-36.3	-37.1	24.7	0.00e+00	120	42	0	862978048	46	5657
2026-01-24 13:11:21.02	55.96	23.48	-36.2	-37.1	24.8	0.00e+00	122	42	0	866123776	46	5639
2026-01-24 13:11:22.03	56.20	23.56	-36.3	-37.2	24.8	0.00e+00	123	42	0	869269504	46	5661
2026-01-24 13:11:23.04	56.44	23.64	-36.3	-37.2	24.6	0.00e+00	123	42	0	872415232	46	5715
2026-01-24 13:11:24.05	56.67	23.72	-36.4	-37.3	24.6	0.00e+00	122	42	0	875560960	46	5750
2026-01-24 13:11:25.06	56.91	23.80	-36.5	-37.3	24.6	0.00e+00	123	42	0	878706688	46	5785
2026-01-24 13:11:26.07	57.16	23.88	-36.5	-37.4	24.5	0.00e+00	123	42	0	881852416	46	5794
2026-01-24 13:11:27.08	57.40	23.97	-36.5	-37.4	24.5	0.00e+00	122	42	0	884998144	46	5811
2026-01-24 13:11:28.09	57.64	24.05	-36.5	-37.4	24.5	0.00e+00	123	42	0	888143872	46	5810
2026-01-24 13:11:29.10	57.89	24.13	-36.6	-37.5	24.5	0.00e+00	122	42	0	891289600	46	5892
2026-01-24 13:11:30.11	58.14	24.21	-36.5	-37.4	24.6	0.00e+00	123	42	0	894435328	46	5810
2026-01-24 13:11:31.12	58.38	24.28	-36.5	-37.4	24.5	0.00e+00	123	42	0	897581056	46	5841
2026-01-24 13:11:32.13	58.63	24.36	-36.7	-37.6	24.4	0.00e+00	123	42	0	900726784	46	5945
2026-01-24 13:11:33.13	58.88	24.44	-36.6	-37.5	24.4	0.00e+00	123	42	0	903872512	46	5859
2026-01-24 13:11:34.15	59.13	24.52	-36.4	-37.3	24.7	0.00e+00	123	42	0	907018240	46	5767
2026-01-24 13:11:35.15	59.38	24.60	-36.7	-37.5	24.5	0.00e+00	122	42	0	910163968	46	5916
2026-01-24 13:11:36.16	59.64	24.68	-36.7	-37.6	24.4	0.00e+00	120	42	0	913309696	46	5971
2026-01-24 13:11:37.17	59.89	24.75	-37.0	-37.9	24.1	0.00e+00	123	42	0	916455424	46	6192
2026-01-24 13:11:38.18	60.15	24.83	-37.1	-38.1	23.9	0.00e+00	124	42	0	919601152	46	6299
2026-01-24 13:11:39.19	60.41	24.91	-37.3	-38.2	23.7	0.00e+00	122	42	0	922746880	46	6404
2026-01-24 13:11:40.20	60.67	24.98	-37.5	-38.4	23.6	0.00e+00	121	42	0	925892608	46	6561
2026-01-24 13:11:41.21	60.93	25.06	-37.4	-38.3	23.7	0.00e+00	122	42	0	929038336	46	6463
2026-01-24 13:11:42.21	61.18	25.13	-37.2	-38.1	24.0	0.00e+00	123	42	0	932184064	46	6323
2026-01-24 13:11:43.22	61.45	25.21	-37.2	-38.2	23.9	0.00e+00	123	42	0	935329792	46	6352
2026-01-24 13:11:44.23	61.71	25.28	-37.0	-37.9	24.3	0.00e+00	122	42	0	938475520	46	6160
2026-01-24 13:11:45.24	61.98	25.36	-36.7	-37.6	24.4	0.00e+00	123	42	0	941621248	46	5937
2026-01-24 13:11:46.25	62.24	25.43	-36.8	-37.7	24.3	0.00e+00	123	42	0	944766976	46	6048
2026-01-24 13:11:47.26	62.51	25.51	-36.7	-37.6	24.2	0.00e+00	122	42	0	947912704	46	5965
2026-01-24 13:11:48.27	62.78	25.58	-36.8	-37.7	24.2	0.00e+00	123	42	0	951058432	46	6036
2026-01-24 13:11:49.28	63.05	25.65	-36.9	-37.8	24.2	0.00e+00	123	42	0	954204160	46	6114
2026-01-24 13:11:50.29	63.32	25.72	-36.9	-37.8	24.2	0.00e+00	120	42	0	957349888	46	6078
2026-01-24 13:11:51.29	63.59	25.79	-37.0	-37.9	24.2	0.00e+00	121	42	0	960495616	46	6182
2026-01-24 13:11:52.31	63.86	25.87	-36.8	-37.7	24.3	0.00e+00	122	42	0	963641344	46	6042
2026-01-24 13:11:53.32	64.14	25.94	-36.7	-37.6	24.4	0.00e+00	120	42	0	966787072	46	5971
2026-01-24 13:11:54.33	64.42	26.01	-36.6	-37.5	24.4	0.00e+00	121	42	0	969932800	46	5906
2026-01-24 13:11:55.33	64.69	26.07	-36.6	-37.5	24.5	0.00e+00	122	42	0	973078528	46	5864
2026-01-24 13:11:56.34	64.97	26.14	-36.5	-37.4	24.6	0.00e+00	123	42	0	976224256	46	5817
2026-01-24 13:11:57.35	65.25	26.21	-36.9	-37.8	24.3	0.00e+00	123	42	0	979369984	46	6072
2026-01-24 13:11:58.36	65.53	26.28	-37.0	-37.9	24.1	0.00e+00	123	42	0	982515712	46	6182
2026-01-24 13:11:59.37	65.81	26.35	-37.1	-38.0	24.1	0.00e+00	123	42	0	985661440	46	6269
2026-01-24 13:12:00.38	66.09	26.41	-37.0	-37.9	24.3	0.00e+00	122	42	0	988807168	46	6156
2026-01-24 13:12:01.39	66.38	26.48	-37.4	-38.3	24.0	0.00e+00	122	42	0	991952896	46	6444
2026-01-24 13:12:02.40	66.66	26.55	-37.0	-37.9	24.3	0.00e+00	120	42	0	995098624	46	6162
2026-01-24 13:12:03.41	66.95	26.61	-36.6	-37.5	24.5	0.00e+00	122	42	0	998244352	46	5879
2026-01-24 13:12:04.42	67.24	26.68	-36.6	-37.5	24.5	0.00e+00	123	42	0	1001390080	46	5919
2026-01-24 13:12:05.43	67.53	26.74	-36.5	-37.3	24.5	0.00e+00	122	42	0	1004535808	46	5781
2026-01-24 13:12:06.44	67.82	26.80	-36.5	-37.3	24.4	0.00e+00	123	42	0	1007681536	46	5773
2026-01-24 13:12:07.45	68.11	26.87	-36.6	-37.5	24.2	0.00e+00	123	42	0	1010827264	46	5894
2026-01-24 13:12:08.46	68.40	26.93	-36.7	-37.6	24.4	0.00e+00	123	42	0	1013972992	46	5934
2026-01-24 13:12:09.47	68.69	26.99	-36.7	-37.6	24.4	0.00e+00	123	42	0	1017118720	46	5980
2026-01-24 13:12:10.48	68.99	27.05	-36.6	-37.5	24.5	0.00e+00	123	42	0	1020264448	46	5900
2026-01-24 13:12:11.49	69.28	27.11	-36.5	-37.4	24.5	0.00e+00	120	42	0	1023410176	46	5840
2026-01-24 13:12:12.50	69.58	27.17	-36.5	-37.4	24.6	0.00e+00	123	42	0	1026555904	46	5812
2026-01-24 13:12:13.51	69.88	27.23	-36.7	-37.5	24.4	0.00e+00	121	42	0	1029701632	46	5921
2026-01-24 13:12:14.51	70.17	27.29	-36.8	-37.7	24.3	0.00e+00	122	42	0	1032847360	46	6029
2026-01-24 13:12:15.53	70.48	27.34	-36.8	-37.6	24.3	0.00e+00	123	42	0	1035993088	46	5993
2026-01-24 13:12:16.54	70.78	27.40	-36.8	-37.7	24.2	0.00e+00	123	42	0	1039138816	46	6062
2026-01-24 13:12:17.55	71.08	27.46	-37.1	-38.0	24.2	0.00e+00	120	42	0	1042284544	46	6230
2026-01-24 13:12:18.55	71.38	27.51	-36.8	-37.7	24.2	0.00e+00	122	42	0	1045430272	46	6057
2026-01-24 13:12:19.57	71.69	27.57	-36.8	-37.7	24.4	0.00e+00	123	42	0	1048576000	46	6046
2026-01-24 13:12:20.57	71.99	27.62	-36.8	-37.7	24.4	0.00e+00	122	42	0	1051721728	46	6016
2026-01-24 13:12:21.59	72.30	27.67	-36.8	-37.7	24.3	0.00e+00	122	42	0	1054867456	46	6051
2026-01-24 13:12:22.59	72.60	27.73	-37.0	-37.9	24.2	0.00e+00	123	42	0	1058013184	46	6156
2026-01-24 13:12:23.60	72.91	27.78	-37.3	-38.2	23.9	0.00e+00	120	42	0	1061158912	46	6380
2026-01-24 13:12:24.61	73.22	27.83	-37.2	-38.1	24.2	0.00e+00	122	42	0	1064304640	46	6307
2026-01-24 13:12:25.62	73.53	27.88	-37.3	-38.2	24.0	0.00e+00	122	42	0	1067450368	46	6398
2026-01-24 13:12:26.63	73.84	27.93	-37.5	-38.4	23.7	0.00e+00	122	42	0	1070596096	46	6571
2026-01-24 13:12:27.64	74.15	27.97	-37.0	-37.9	24.1	0.00e+00	122	42	0	1073741824	46	6186
2026-01-24 13:12:28.65	74.46	28.02	-36.8	-37.8	24.1	0.00e+00	120	42	0	1076887552	46	6067
2026-01-24 13:12:29.66	74.78	28.07	-37.0	-37.9	24.1	0.00e+00	123	42	0	1080033280	46	6157
2026-01-24 13:12:30.67	75.09	28.11	-37.0	-37.9	24.1	0.00e+00	122	42	0	1083179008	46	6148
2026-01-24 13:12:31.68	75.41	28.16	-36.9	-37.8	24.3	0.00e+00	123	42	0	1086324736	46	6067
2026-01-24 13:12:32.69	75.72	28.20	-36.8	-37.7	24.4	0.00e+00	120	42	0	1089470464	46	6020
2026-01-24 13:12:33.70	76.04	28.25	-36.7	-37.6	24.5	0.00e+00	123	42	0	1092616192	46	5936
2026-01-24 13:12:34.71	76.36	28.29	-36.7	-37.5	24.4	0.00e+00	121	42	0	1095761920	46	5920
2026-01-24 13:12:35.71	76.68	28.33	-36.7	-37.7	24.3	0.00e+00	123	42	0	1098907648	46	5998
2026-01-24 13:12:36.73	77.00	28.37	-36.9	-37.8	24.3	0.00e+00	122	42	0	1102053376	46	6104
2026-01-24 13:12:37.73	77.32	28.41	-37.0	-37.9	24.3	0.00e+00	120	42	0	1105199104	46	6147
2026-01-24 13:12:38.74	77.64	28.45	-37.0	-37.9	24.3	0.00e+00	122	42	0	1108344832	46	6203
2026-01-24 13:12:39.76	77.96	28.49	-36.9	-37.8	24.3	0.00e+00	122	42	0	1111490560	46	6084
2026-01-24 13:12:40.76	78.28	28.52	-36.9	-37.8	24.4	0.00e+00	122	42	0	1114636288	46	6078
2026-01-24 13:12:41.77	78.61	28.56	-36.9	-37.8	24.3	0.00e+00	122	42	0	1117782016	46	6069
2026-01-24 13:12:42.78	78.93	28.60	-37.0	-37.9	24.3	0.00e+00	121	42	0	1120927744	46	6151
2026-01-24 13:12:43.79	79.26	28.63	-37.0	-37.9	24.1	0.00e+00	123	42	0	1124073472	46	6147
2026-01-24 13:12:44.80	79.58	28.66	-37.0	-37.9	24.2	0.00e+00	122	42	0	1127219200	46	6160
2026-01-24 13:12:45.81	79.91	28.70	-37.1	-38.0	24.2	0.00e+00	123	42	0	1130364928	46	6236
2026-01-24 13:12:46.82	80.23	28.73	-36.9	-37.8	24.3	0.00e+00	120	42	0	1133510656	46	6115
2026-01-24 13:12:47.83	80.56	28.76	-36.9	-37.8	24.2	0.00e+00	120	42	0	1136656384	46	6073
2026-01-24 13:12:48.84	80.89	28.79	-37.1	-38.0	24.1	0.00e+00	122	42	0	1139802112	46	6236
2026-01-24 13:12:49.85	81.22	28.82	-37.1	-38.0	24.1	0.00e+00	123	42	0	1142947840	46	6243
2026-01-24 13:12:50.85	81.55	28.84	-37.2	-38.1	24.1	0.00e+00	123	42	0	1146093568	46	6319
2026-01-24 13:12:51.86	81.87	28.87	-37.1	-38.0	24.2	0.00e+00	125	42	0	1149239296	46	6235
2026-01-24 13:12:52.87	82.21	28.90	-36.9	-37.8	24.3	0.00e+00	123	42	0	1152385024	46	6123
2026-01-24 13:12:53.88	82.54	28.92	-36.8	-37.6	24.5	0.00e+00	122	42	0	1155530752	46	5991
2026-01-24 13:12:54.89	82.87	28.94	-36.7	-37.6	24.4	0.00e+00	123	42	0	1158676480	46	5934
2026-01-24 13:12:55.90	83.20	28.97	-36.8	-37.7	24.3	0.00e+00	120	42	0	1161822208	46	6021
2026-01-24 13:12:56.91	83.53	28.99	-36.9	-37.8	24.2	0.00e+00	122	42	0	1164967936	46	6129
2026-01-24 13:12:57.91	83.86	29.01	-37.2	-38.1	24.0	0.00e+00	123	42	0	1168113664	46	6334
2026-01-24 13:12:58.92	84.20	29.03	-37.2	-38.1	24.1	0.00e+00	120	42	0	1171259392	46	6314
2026-01-24 13:12:59.93	84.53	29.05	-36.8	-37.6	24.5	0.00e+00	123	42	0	1174405120	46	5993
2026-01-24 13:13:00.94	84.86	29.06	-36.8	-37.7	24.3	0.00e+00	122	42	0	1177550848	46	6049
2026-01-24 13:13:01.95	85.20	29.08	-36.6	-37.5	24.3	0.00e+00	123	42	0	1180696576	46	5912
2026-01-24 13:13:02.96	85.53	29.10	-36.7	-37.6	24.3	0.00e+00	122	42	0	1183842304	46	5987
2026-01-24 13:13:03.97	85.87	29.11	-36.9	-37.8	24.2	0.00e+00	123	42	0	1186988032	46	6107
2026-01-24 13:13:04.98	86.20	29.12	-36.8	-37.7	24.3	0.00e+00	122	42	0	1191182336	46	6046
2026-01-24 13:13:05.99	86.54	29.14	-36.9	-37.8	24.2	0.00e+00	123	42	0	1194328064	46	6112
2026-01-24 13:13:07.00	86.87	29.15	-36.8	-37.7	24.2	0.00e+00	123	42	0	1197473792	46	6023
2026-01-24 13:13:08.01	87.21	29.16	-36.9	-37.8	24.3	0.00e+00	123	42	0	1199570944	46	6069
2026-01-24 13:13:09.02	87.55	29.17	-37.0	-37.9	24.1	0.00e+00	123	42	0	1202716672	46	6155
2026-01-24 13:13:10.03	87.88	29.17	-37.0	-37.9	24.1	0.00e+00	120	42	0	1206910976	46	6162
2026-01-24 13:13:11.04	88.22	29.18	-36.9	-37.8	24.2	0.00e+00	122	42	0	1210056704	46	6116
2026-01-24 13:13:12.05	88.56	29.19	-36.8	-37.7	24.3	0.00e+00	120	42	0	1213202432	46	6000
2026-01-24 13:13:13.06	88.89	29.19	-36.6	-37.5	24.5	0.00e+00	122	42	0	1216348160	46	5899
2026-01-24 13:13:14.06	89.23	29.20	-36.5	-37.4	24.4	0.00e+00	123	42	0	1219493888	46	5838
2026-01-24 13:13:15.07	89.56	29.20	-36.6	-37.5	24.3	0.00e+00	122	42	0	1221591040	46	5900
2026-01-24 13:13:16.08	89.90	29.20	-37.1	-38.0	24.2	0.00e+00	122	42	0	1225785344	46	6251
2026-01-24 13:13:17.09	90.24	29.20	-37.0	-38.0	24.2	0.00e+00	123	42	0	1228931072	46	6212
2026-01-24 13:13:18.10	90.58	29.20	-37.0	-37.9	24.3	0.00e+00	122	42	0	1232076800	46	6176
2026-01-24 13:13:19.11	90.91	29.20	-37.1	-38.0	24.3	0.00e+00	122	42	0	1235222528	46	6224
2026-01-24 13:13:20.12	91.25	29.20	-37.0	-37.9	24.3	0.00e+00	122	42	0	1238368256	46	6167
2026-01-24 13:13:21.13	91.59	29.19	-37.1	-38.0	24.0	0.00e+00	122	42	0	1241513984	46	6249
2026-01-24 13:13:22.14	91.92	29.19	-37.2	-38.1	24.1	0.00e+00	123	42	0	1244659712	46	6303
2026-01-24 13:13:23.15	92.26	29.18	-37.3	-38.3	24.0	0.00e+00	123	42	0	1247805440	46	6439
2026-01-24 13:13:24.16	92.60	29.18	-37.2	-38.2	24.0	0.00e+00	120	42	0	1250951168	46	6351
2026-01-24 13:13:25.17	92.93	29.17	-37.4	-38.4	23.8	0.00e+00	120	42	0	1254096896	46	6504
2026-01-24 13:13:26.18	93.27	29.16	-37.2	-38.2	24.0	0.00e+00	123	42	0	1257242624	46	6370
2026-01-24 13:13:27.19	93.61	29.15	-37.1	-38.0	24.2	0.00e+00	123	42	0	1260388352	46	6238
2026-01-24 13:13:28.20	93.94	29.14	-37.1	-38.0	24.1	0.00e+00	123	42	0	1263534080	46	6216
2026-01-24 13:13:29.21	94.28	29.13	-36.9	-37.8	24.3	0.00e+00	123	42	0	1266679808	46	6097
2026-01-24 13:13:30.22	94.61	29.11	-37.2	-38.1	24.2	0.00e+00	123	42	0	1269825536	46	6333
2026-01-24 13:13:31.23	94.95	29.10	-37.1	-38.0	24.2	0.00e+00	122	42	0	1272971264	46	6243
2026-01-24 13:13:32.23	95.28	29.09	-37.1	-38.0	24.2	0.00e+00	123	42	0	1276116992	46	6257
2026-01-24 13:13:33.24	95.62	29.07	-37.1	-38.0	24.2	0.00e+00	122	42	0	1279262720	46	6238
2026-01-24 13:13:34.25	95.95	29.05	-37.0	-37.9	24.3	0.00e+00	123	42	0	1282408448	46	6195
2026-01-24 13:13:35.25	96.28	29.03	-36.9	-37.8	24.4	0.00e+00	123	42	0	1285554176	46	6092
2026-01-24 13:13:36.26	96.62	29.02	-36.8	-37.7	24.4	0.00e+00	122	42	0	1288699904	46	6044
2026-01-24 13:13:37.28	96.95	29.00	-37.0	-37.9	24.3	0.00e+00	122	42	0	1291845632	46	6181
2026-01-24 13:13:38.29	97.28	28.97	-37.0	-38.0	24.3	0.00e+00	122	42	0	1294991360	46	6224
2026-01-24 13:13:39.30	97.62	28.95	-37.0	-37.9	24.2	0.00e+00	123	42	0	1298137088	46	6174
2026-01-24 13:13:40.31	97.95	28.93	-37.0	-37.9	24.3	0.00e+00	123	42	0	1301282816	46	6191
2026-01-24 13:13:41.32	98.28	28.90	-37.0	-37.9	24.2	0.00e+00	123	42	0	1304428544	46	6201
2026-01-24 13:13:42.33	98.61	28.88	-36.8	-37.7	24.3	0.00e+00	122	42	0	1307574272	46	6047
2026-01-24 13:13:43.34	98.94	28.85	-36.9	-37.8	24.3	0.00e+00	123	42	0	1310720000	46	6098
2026-01-24 13:13:44.35	99.27	28.83	-37.0	-37.9	24.3	0.00e+00	123	42	0	1313865728	46	6151
2026-01-24 13:13:45.36	99.60	28.80	-37.0	-37.9	24.1	0.00e+00	123	42	0	1317011456	46	6202
2026-01-24 13:13:46.36	99.93	28.77	-37.4	-38.4	23.9	0.00e+00	123	42	0	1320157184	46	6531
2026-01-24 13:13:47.37	100.26	28.74	-37.2	-38.2	23.9	0.00e+00	122	42	0	1323302912	46	6368
2026-01-24 13:13:48.38	100.58	28.71	-37.3	-38.2	23.9	0.00e+00	120	42	0	1326448640	46	6403
2026-01-24 13:13:49.39	100.91	28.67	-37.3	-38.2	23.9	0.00e+00	123	42	0	1329594368	46	6382
2026-01-24 13:13:50.40	101.24	28.64	-37.0	-37.9	24.1	0.00e+00	123	42	0	1332740096	46	6202
2026-01-24 13:13:51.41	101.56	28.61	-36.7	-37.6	24.2	0.00e+00	123	42	0	1335885824	46	5986
2026-01-24 13:13:52.42	101.89	28.57	-36.6	-37.5	24.4	0.00e+00	123	42	0	1339031552	46	5892
2026-01-24 13:13:53.43	102.21	28.54	-36.8	-37.7	24.2	0.00e+00	122	42	0	1342177280	46	6044
2026-01-24 13:13:54.44	102.54	28.50	-36.8	-37.7	24.2	0.00e+00	123	42	0	1345323008	46	6019
2026-01-24 13:13:55.45	102.86	28.46	-36.7	-37.6	24.1	0.00e+00	120	42	0	1348468736	46	5973
2026-01-24 13:13:56.45	103.18	28.42	-36.9	-37.9	23.9	0.00e+00	122	42	0	1351614464	46	6159
2026-01-24 13:13:57.46	103.50	28.38	-37.0	-37.9	24.0	0.00e+00	122	42	0	1354760192	46	6179
2026-01-24 13:13:58.47	103.82	28.34	-37.0	-38.0	24.0	0.00e+00	122	42	0	1357905920	46	6212
2026-01-24 13:13:59.48	104.14	28.30	-37.5	-38.5	23.5	0.00e+00	123	42	0	1361051648	46	6580
2026-01-24 13:14:00.49	104.46	28.26	-37.1	-38.1	23.7	0.00e+00	120	42	0	1364197376	46	6290
2026-01-24 13:14:01.50	104.78	28.22	-37.1	-38.0	23.9	0.00e+00	122	42	0	1367343104	46	6262
2026-01-24 13:14:02.51	105.09	28.17	-37.1	-38.1	23.8	0.00e+00	122	42	0	1370488832	46	6282
2026-01-24 13:14:03.52	105.41	28.13	-36.9	-37.8	24.0	0.00e+00	122	42	0	1373634560	46	6088
2026-01-24 13:14:04.53	105.73	28.08	-36.8	-37.7	24.2	0.00e+00	123	42	0	1376780288	46	6025
2026-01-24 13:14:05.54	106.04	28.04	-36.9	-37.8	24.1	0.00e+00	123	42	0	1379926016	46	6127
2026-01-24 13:14:06.55	106.36	27.99	-36.7	-37.6	24.2	0.00e+00	123	42	0	1383071744	46	5994
2026-01-24 13:14:07.56	106.67	27.94	-36.9	-37.8	24.2	0.00e+00	120	42	0	1386217472	46	6084
2026-01-24 13:14:08.57	106.98	27.89	-37.0	-37.9	24.0	0.00e+00	123	42	0	1389363200	46	6149
2026-01-24 13:14:09.57	107.29	27.84	-37.0	-37.9	24.1	0.00e+00	123	42	0	1392508928	46	6181
2026-01-24 13:14:10.59	107.60	27.79	-36.8	-37.7	24.3	0.00e+00	123	42	0	1395654656	46	6036
2026-01-24 13:14:11.59	107.91	27.74	-37.0	-37.9	24.0	0.00e+00	123	42	0	1398800384	46	6192
2026-01-24 13:14:12.60	108.22	27.69	-37.0	-37.9	24.3	0.00e+00	123	42	0	1401946112	46	6137
2026-01-24 13:14:13.61	108.52	27.64	-36.9	-37.8	24.3	0.00e+00	120	42	0	1405091840	46	6108
2026-01-24 13:14:14.62	108.83	27.58	-36.8	-37.6	24.2	0.00e+00	123	42	0	1408237568	46	5991
2026-01-24 13:14:15.63	109.14	27.53	-36.8	-37.7	24.3	0.00e+00	123	42	0	1411383296	46	6023
2026-01-24 13:14:16.64	109.44	27.47	-36.8	-37.7	24.4	0.00e+00	120	42	0	1414529024	46	6003
2026-01-24 13:14:17.65	109.74	27.42	-36.6	-37.5	24.4	0.00e+00	123	42	0	1417674752	46	5888
2026-01-24 13:14:18.66	110.04	27.36	-36.6	-37.5	24.4	0.00e+00	122	42	0	1420820480	46	5915
2026-01-24 13:14:19.67	110.35	27.30	-36.6	-37.5	24.5	0.00e+00	123	42	0	1423966208	46	5893
2026-01-24 13:14:20.68	110.65	27.24	-36.4	-37.3	24.6	0.00e+00	120	42	0	1427111936	46	5737
2026-01-24 13:14:21.69	110.95	27.19	-36.3	-37.2	24.8	0.00e+00	120	42	0	1430257664	46	5709
2026-01-24 13:14:22.70	111.24	27.13	-36.5	-37.4	24.7	0.00e+00	123	42	0	1433403392	46	5806
2026-01-24 13:14:23.71	111.54	27.07	-36.6	-37.5	24.7	0.00e+00	123	42	0	1436549120	46	5879
2026-01-24 13:14:24.72	111.84	27.00	-36.5	-37.4	24.6	0.00e+00	123	42	0	1439694848	46	5840
2026-01-24 13:14:25.72	112.13	26.94	-36.7	-37.6	24.5	0.00e+00	123	42	0	1442840576	46	5970
2026-01-24 13:14:26.73	112.42	26.88	-36.7	-37.6	24.5	0.00e+00	123	42	0	1445986304	46	5971
2026-01-24 13:14:27.74	112.71	26.82	-36.7	-37.5	24.5	0.00e+00	122	42	0	1449132032	46	5921
2026-01-24 13:14:28.75	113.00	26.76	-36.7	-37.6	24.4	0.00e+00	122	42	0	1452277760	46	5944
2026-01-24 13:14:29.76	113.29	26.69	-36.5	-37.4	24.5	0.00e+00	123	42	0	1455423488	46	5806
2026-01-24 13:14:30.77	113.58	26.63	-36.5	-37.4	24.5	0.00e+00	122	42	0	1458569216	46	5808
2026-01-24 13:14:31.78	113.87	26.56	-36.6	-37.5	24.4	0.00e+00	123	42	0	1461714944	46	5869
2026-01-24 13:14:32.79	114.16	26.50	-36.9	-37.8	24.4	0.00e+00	123	42	0	1464860672	46	6068
2026-01-24 13:14:33.80	114.44	26.43	-36.5	-37.4	24.7	0.00e+00	122	42	0	1468006400	46	5803
2026-01-24 13:14:34.81	114.73	26.36	-36.6	-37.5	24.6	0.00e+00	123	42	0	1471152128	46	5864
2026-01-24 13:14:35.82	115.01	26.29	-36.7	-37.6	24.4	0.00e+00	123	42	0	1474297856	46	5980
2026-01-24 13:14:36.83	115.29	26.23	-37.0	-37.9	24.2	0.00e+00	122	42	0	1477443584	46	6158
2026-01-24 13:14:37.84	115.57	26.16	-37.0	-37.8	24.2	0.00e+00	120	42	0	1480589312	46	6123
2026-01-24 13:14:38.85	115.85	26.09	-36.7	-37.6	24.2	0.00e+00	122	42	0	1483735040	46	5975
2026-01-24 13:14:39.86	116.13	26.02	-37.1	-38.0	23.8	0.00e+00	120	42	0	1486880768	46	6274
2026-01-24 13:14:40.87	116.41	25.95	-37.1	-38.0	23.9	0.00e+00	122	42	0	1490026496	46	6240
2026-01-24 13:14:41.88	116.69	25.88	-36.9	-37.8	24.0	0.00e+00	122	42	0	1493172224	46	6132
2026-01-24 13:14:42.89	116.96	25.81	-36.8	-37.7	24.2	0.00e+00	122	42	0	1496317952	46	6045
2026-01-24 13:14:43.90	117.23	25.73	-36.8	-37.7	24.2	0.00e+00	123	42	0	1499463680	46	6059
2026-01-24 13:14:44.91	117.51	25.66	-36.5	-37.4	24.5	0.00e+00	120	42	0	1502609408	46	5833
2026-01-24 13:14:45.92	117.78	25.59	-36.6	-37.5	24.4	0.00e+00	122	42	0	1505755136	46	5911
2026-01-24 13:14:46.93	118.05	25.52	-36.6	-37.5	24.5	0.00e+00	123	42	0	1508900864	46	5887
2026-01-24 13:14:47.94	118.32	25.44	-36.6	-37.5	24.5	0.00e+00	123	42	0	1512046592	46	5914
2026-01-24 13:14:48.95	118.58	25.37	-36.7	-37.6	24.4	0.00e+00	123	42	0	1515192320	46	5992
2026-01-24 13:14:49.96	118.85	25.29	-36.8	-37.8	24.2	0.00e+00	122	42	0	1518338048	46	6075
2026-01-24 13:14:50.97	119.12	25.22	-36.9	-37.9	24.1	0.00e+00	123	42	0	1521483776	46	6136
2026-01-24 13:14:51.98	119.38	25.14	-36.8	-37.7	24.2	0.00e+00	122	42	0	1524629504	46	6062
2026-01-24 13:14:52.99	119.64	25.07	-36.8	-37.7	24.2	0.00e+00	122	42	0	1527775232	46	6049
2026-01-24 13:14:54.00	119.90	24.99	-36.9	-37.8	24.3	0.00e+00	123	42	0	1530920960	46	6094
2026-01-24 13:14:55.01	120.16	24.91	-36.8	-37.7	24.4	0.00e+00	123	42	0	1534066688	46	6030
2026-01-24 13:14:56.02	120.42	24.84	-36.6	-37.5	24.5	0.00e+00	123	42	0	1537212416	46	5880
2026-01-24 13:14:57.03	120.68	24.76	-36.4	-37.3	24.7	0.00e+00	123	42	0	1540358144	46	5745
2026-01-24 13:14:58.04	120.94	24.68	-36.0	-36.8	24.9	0.00e+00	122	42	0	1543503872	46	5463
2026-01-24 13:14:59.05	121.19	24.60	-36.1	-37.0	24.8	0.00e+00	122	42	0	1546649600	46	5559
2026-01-24 13:15:00.06	121.45	24.53	-36.2	-37.1	24.6	0.00e+00	123	42	0	1549795328	46	5636
2026-01-24 13:15:01.07	121.70	24.45	-36.4	-37.3	24.5	0.00e+00	123	42	0	1552941056	46	5790
2026-01-24 13:15:02.08	121.95	24.37	-36.5	-37.4	24.6	0.00e+00	122	42	0	1557135360	46	5852
2026-01-24 13:15:03.09	122.20	24.29	-36.5	-37.4	24.6	0.00e+00	120	42	0	1560281088	46	5817
2026-01-24 13:15:04.10	122.45	24.21	-36.4	-37.3	24.6	0.00e+00	123	42	0	1562378240	46	5783
2026-01-24 13:15:05.11	122.70	24.13	-36.5	-37.4	24.6	0.00e+00	122	42	0	1565523968	46	5797
2026-01-24 13:15:06.12	122.94	24.05	-36.4	-37.3	24.6	0.00e+00	123	42	0	1568669696	46	5738
2026-01-24 13:15:07.13	123.19	23.97	-36.5	-37.4	24.6	0.00e+00	123	42	0	1571815424	46	5848
2026-01-24 13:15:08.13	123.43	23.89	-36.6	-37.5	24.3	0.00e+00	123	42	0	1576009728	46	5901
2026-01-24 13:15:09.14	123.67	23.81	-36.8	-37.7	24.2	0.00e+00	120	42	0	1579155456	46	6032
2026-01-24 13:15:10.15	123.92	23.72	-36.7	-37.6	24.3	0.00e+00	123	42	0	1582301184	46	5964
2026-01-24 13:15:11.16	124.16	23.64	-36.6	-37.5	24.5	0.00e+00	122	42	0	1584398336	46	5907
2026-01-24 13:15:12.17	124.40	23.56	-36.6	-37.5	24.4	0.00e+00	123	42	0	1587544064	46	5923
2026-01-24 13:15:13.18	124.63	23.48	-36.8	-37.7	24.3	0.00e+00	122	42	0	1591738368	46	6042
2026-01-24 13:15:14.19	124.87	23.40	-36.7	-37.6	24.3	0.00e+00	120	42	0	1594884096	46	5935
2026-01-24 13:15:15.20	125.11	23.31	-36.7	-37.6	24.4	0.00e+00	123	42	0	1598029824	46	5983
2026-01-24 13:15:16.21	125.34	23.23	-36.6	-37.5	24.5	0.00e+00	123	42	0	1601175552	46	5922
2026-01-24 13:15:17.22	125.57	23.15	-36.6	-37.5	24.4	0.00e+00	123	42	0	1604321280	46	5868
2026-01-24 13:15:18.23	125.81	23.06	-36.4	-37.3	24.6	0.00e+00	120	42	0	1607467008	46	5755
2026-01-24 13:15:19.24	126.04	22.98	-36.4	-37.3	24.5	0.00e+00	123	42	0	1610612736	46	5787
2026-01-24 13:15:20.24	126.26	22.90	-36.3	-37.2	24.7	0.00e+00	123	42	0	1613758464	46	5705
2026-01-24 13:15:21.25	126.49	22.81	-36.3	-37.2	24.6	0.00e+00	123	42	0	1616904192	46	5707
2026-01-24 13:15:22.26	126.72	22.73	-36.4	-37.3	24.5	0.00e+00	122	42	0	1620049920	46	5736
2026-01-24 13:15:23.27	126.94	22.64	-36.6	-37.5	24.4	0.00e+00	123	42	0	1623195648	46	5906
2026-01-24 13:15:24.28	127.17	22.56	-36.3	-37.2	24.5	0.00e+00	123	42	0	1626341376	46	5698
2026-01-24 13:15:25.29	127.39	22.48	-36.4	-37.3	24.4	0.00e+00	120	42	0	1629487104	46	5756
2026-01-24 13:15:26.30	127.62	22.39	-36.2	-37.1	24.6	0.00e+00	123	42	0	1632632832	46	5631
2026-01-24 13:15:27.31	127.84	22.31	-36.2	-37.1	24.6	0.00e+00	121	42	0	1635778560	46	5624
2026-01-24 13:15:28.32	128.06	22.22	-36.2	-37.1	24.6	0.00e+00	120	42	0	1638924288	46	5629
2026-01-24 13:15:29.33	128.28	22.14	-36.2	-37.0	24.8	0.00e+00	122	42	0	1642070016	46	5594
2026-01-24 13:15:30.33	128.49	22.05	-36.2	-37.1	24.7	0.00e+00	120	42	0	1645215744	46	5637
2026-01-24 13:15:31.34	128.71	21.96	-36.3	-37.2	24.7	0.00e+00	118	42	0	1648361472	46	5683
2026-01-24 13:15:32.35	128.92	21.88	-36.3	-37.2	24.6	0.00e+00	120	42	0	1651507200	46	5682
2026-01-24 13:15:33.36	129.14	21.79	-36.5	-37.4	24.5	0.00e+00	123	42	0	1654652928	46	5823
2026-01-24 13:15:34.37	129.35	21.71	-36.7	-37.6	24.3	0.00e+00	120	42	0	1657798656	46	5940
2026-01-24 13:15:35.38	129.56	21.62	-36.8	-37.7	24.2	0.00e+00	123	42	0	1660944384	46	6046
2026-01-24 13:15:36.39	129.77	21.54	-36.7	-37.6	24.3	0.00e+00	121	42	0	1664090112	46	5956
2026-01-24 13:15:37.40	129.98	21.45	-36.8	-37.7	24.2	0.00e+00	123	42	0	1667235840	46	6042
2026-01-24 13:15:38.41	130.19	21.36	-36.6	-37.5	24.4	0.00e+00	121	42	0	1670381568	46	5892
2026-01-24 13:15:39.42	130.40	21.28	-36.7	-37.6	24.4	0.00e+00	123	42	0	1673527296	46	5965
2026-01-24 13:15:40.43	130.61	21.19	-36.7	-37.6	24.2	0.00e+00	123	42	0	1676673024	46	5977
2026-01-24 13:15:41.44	130.81	21.10	-36.5	-37.4	24.3	0.00e+00	122	42	0	1679818752	46	5842
2026-01-24 13:15:42.45	131.02	21.02	-36.6	-37.5	24.4	0.00e+00	123	42	0	1682964480	46	5889
2026-01-24 13:15:43.46	131.22	20.93	-36.5	-37.4	24.4	0.00e+00	123	42	0	1686110208	46	5795
2026-01-24 13:15:44.47	131.42	20.84	-36.4	-37.3	24.4	0.00e+00	122	42	0	1689255936	46	5747
2026-01-24 13:15:45.48	131.62	20.76	-36.6	-37.5	24.2	0.00e+00	122	42	0	1692401664	46	5896
2026-01-24 13:15:46.49	131.82	20.67	-36.6	-37.5	24.3	0.00e+00	122	42	0	1695547392	46	5886
2026-01-24 13:15:47.49	132.02	20.58	-36.7	-37.6	24.2	0.00e+00	122	42	0	1698693120	46	5949
2026-01-24 13:15:48.50	132.21	20.50	-36.7	-37.6	24.1	0.00e+00	123	42	0	1701838848	46	5983
2026-01-24 13:15:49.51	132.41	20.41	-36.5	-37.4	24.3	0.00e+00	123	42	0	1704984576	46	5852
2026-01-24 13:15:50.52	132.61	20.32	-36.7	-37.6	24.2	0.00e+00	122	42	0	1708130304	46	5962
2026-01-24 13:15:51.53	132.80	20.24	-36.8	-37.7	24.2	0.00e+00	122	42	0	1711276032	46	6062
2026-01-24 13:15:52.54	132.99	20.15	-36.8	-37.7	24.2	0.00e+00	122	42	0	1714421760	46	6047
2026-01-24 13:15:53.55	133.19	20.06	-36.8	-37.7	24.1	0.00e+00	122	42	0	1717567488	46	6037
2026-01-24 13:15:54.56	133.38	19.98	-36.8	-37.7	24.2	0.00e+00	122	42	0	1720713216	46	6027
2026-01-24 13:15:55.57	133.57	19.89	-36.8	-37.7	24.2	0.00e+00	123	42	0	1723858944	46	6030
2026-01-24 13:15:56.58	133.76	19.80	-36.7	-37.6	24.3	0.00e+00	123	42	0	1727004672	46	5962
2026-01-24 13:15:57.59	133.94	19.72	-36.8	-37.7	24.2	0.00e+00	122	42	0	1730150400	46	6038
2026-01-24 13:15:58.60	134.13	19.63	-36.9	-37.9	24.1	0.00e+00	123	42	0	1733296128	46	6140
2026-01-24 13:15:59.61	134.32	19.54	-36.8	-37.7	24.2	0.00e+00	122	42	0	1736441856	46	6036
2026-01-24 13:16:00.62	134.50	19.45	-36.7	-37.7	24.2	0.00e+00	123	42	0	1739587584	46	6000
2026-01-24 13:16:01.63	134.69	19.37	-36.9	-37.8	24.1	0.00e+00	120	42	0	1742733312	46	6082
2026-01-24 13:16:02.64	134.87	19.28	-36.9	-37.8	24.0	0.00e+00	120	42	0	1745879040	46	6128
2026-01-24 13:16:03.65	135.05	19.19	-37.1	-38.1	23.9	0.00e+00	123	42	0	1749024768	46	6285
2026-01-24 13:16:04.66	135.23	19.11	-37.2	-38.2	23.8	0.00e+00	123	42	0	1752170496	46	6361
2026-01-24 13:16:05.67	135.41	19.02	-37.2	-38.1	23.8	0.00e+00	123	42	0	1755316224	46	6340
2026-01-24 13:16:06.68	135.59	18.93	-37.3	-38.3	23.7	0.00e+00	123	42	0	1758461952	46	6425
2026-01-24 13:16:07.69	135.77	18.85	-37.4	-38.3	23.7	0.00e+00	121	42	0	1761607680	46	6470
2026-01-24 13:16:08.70	135.94	18.76	-37.4	-38.4	23.6	0.00e+00	123	42	0	1764753408	46	6542
2026-01-24 13:16:09.71	136.12	18.67	-37.4	-38.4	23.5	0.00e+00	120	42	0	1767899136	46	6532
2026-01-24 13:16:10.72	136.30	18.59	-37.1	-38.1	23.8	0.00e+00	123	42	0	1771044864	46	6298
2026-01-24 13:16:11.73	136.47	18.50	-37.3	-38.2	23.6	0.00e+00	123	42	0	1774190592	46	6422
2026-01-24 13:16:12.74	136.64	18.41	-37.1	-38.1	23.7	0.00e+00	120	42	0	1777336320	46	6290
2026-01-24 13:16:13.75	136.81	18.33	-37.2	-38.1	23.6	0.00e+00	121	42	0	1780482048	46	6324
2026-01-24 13:16:14.76	136.99	18.24	-37.0	-37.9	23.7	0.00e+00	122	42	0	1783627776	46	6199
2026-01-24 13:16:15.77	137.16	18.15	-37.1	-38.0	23.7	0.00e+00	122	42	0	1786773504	46	6262
2026-01-24 13:16:16.78	137.33	18.07	-37.0	-37.9	23.8	0.00e+00	124	42	0	1789919232	46	6204
2026-01-24 13:16:17.79	137.49	17.98	-37.0	-37.9	24.0	0.00e+00	123	42	0	1793064960	46	6182
2026-01-24 13:16:18.80	137.66	17.89	-37.0	-37.9	23.8	0.00e+00	123	42	0	1796210688	46	6190
2026-01-24 13:16:19.81	137.83	17.81	-36.7	-37.7	24.1	0.00e+00	122	42	0	1799356416	46	5997
2026-01-24 13:16:20.81	137.99	17.72	-36.8	-37.7	24.1	0.00e+00	121	42	0	1802502144	46	6057
2026-01-24 13:16:21.82	138.16	17.64	-36.9	-37.8	24.1	0.00e+00	123	42	0	1805647872	46	6107
2026-01-24 13:16:22.83	138.32	17.55	-36.8	-37.7	24.1	0.00e+00	123	42	0	1808793600	46	6036
2026-01-24 13:16:23.84	138.48	17.47	-36.8	-37.7	24.1	0.00e+00	123	42	0	1811939328	46	6004
2026-01-24 13:16:24.85	138.64	17.38	-36.8	-37.7	24.1	0.00e+00	120	42	0	1815085056	46	6039
2026-01-24 13:16:25.86	138.81	17.29	-36.8	-37.7	24.2	0.00e+00	123	42	0	1818230784	46	6031
2026-01-24 13:16:26.87	138.97	17.21	-36.9	-37.8	24.1	0.00e+00	123	42	0	1821376512	46	6087
2026-01-24 13:16:27.88	139.13	17.12	-36.7	-37.6	24.2	0.00e+00	123	42	0	1824522240	46	5976
2026-01-24 13:16:28.89	139.28	17.04	-36.9	-37.8	24.0	0.00e+00	121	42	0	1827667968	46	6119
2026-01-24 13:16:29.90	139.44	16.95	-36.9	-37.9	24.0	0.00e+00	122	42	0	1830813696	46	6144
2026-01-24 13:16:30.91	139.60	16.87	-36.9	-37.8	24.0	0.00e+00	120	42	0	1833959424	46	6093
2026-01-24 13:16:31.92	139.75	16.78	-37.0	-38.0	23.8	0.00e+00	120	42	0	1837105152	46	6206
2026-01-24 13:16:32.93	139.91	16.70	-37.1	-38.0	23.8	0.00e+00	123	42	0	1840250880	46	6255
2026-01-24 13:16:33.93	140.06	16.61	-37.2	-38.1	23.7	0.00e+00	123	42	0	1843396608	46	6336
2026-01-24 13:16:34.94	140.21	16.53	-37.2	-38.1	23.8	0.00e+00	123	42	0	1846542336	46	6350
2026-01-24 13:16:35.95	140.37	16.44	-37.1	-38.0	23.9	0.00e+00	122	42	0	1849688064	46	6244
2026-01-24 13:16:36.96	140.52	16.36	-37.3	-38.2	23.8	0.00e+00	122	42	0	1852833792	46	6367
2026-01-24 13:16:37.97	140.67	16.27	-37.0	-37.9	24.0	0.00e+00	123	42	0	1855979520	46	6179
2026-01-24 13:16:38.99	140.82	16.19	-37.2	-38.1	23.8	0.00e+00	123	42	0	1859125248	46	6299
2026-01-24 13:16:40.00	140.97	16.10	-37.1	-38.0	23.8	0.00e+00	122	42	0	1862270976	46	6228
2026-01-24 13:16:41.01	141.12	16.02	-36.9	-37.8	24.0	0.00e+00	122	42	0	1865416704	46	6127
2026-01-24 13:16:42.02	141.27	15.94	-37.0	-38.0	23.9	0.00e+00	123	42	0	1868562432	46	6208
2026-01-24 13:16:43.03	141.41	15.85	-37.1	-38.0	23.8	0.00e+00	120	42	0	1871708160	46	6256
2026-01-24 13:16:44.04	141.56	15.77	-37.1	-38.0	23.8	0.00e+00	122	42	0	1874853888	46	6248
2026-01-24 13:16:45.05	141.70	15.69	-37.2	-38.2	23.7	0.00e+00	123	42	0	1877999616	46	6369
2026-01-24 13:16:46.06	141.85	15.60	-37.2	-38.2	23.6	0.00e+00	123	42	0	1881145344	46	6356
2026-01-24 13:16:47.07	141.99	15.52	-37.4	-38.3	23.5	0.00e+00	122	42	0	1884291072	46	6463
2026-01-24 13:16:48.07	142.13	15.44	-37.3	-38.3	23.5	0.00e+00	122	42	0	1887436800	46	6448
2026-01-24 13:16:49.09	142.28	15.35	-37.6	-38.5	23.3	0.00e+00	122	42	0	1890582528	46	6635
2026-01-24 13:16:50.09	142.42	15.27	-37.6	-38.6	23.3	0.00e+00	123	42	0	1893728256	46	6664
2026-01-24 13:16:51.10	142.56	15.19	-37.7	-38.6	23.3	0.00e+00	123	42	0	1896873984	46	6700
2026-01-24 13:16:52.11	142.70	15.10	-37.6	-38.6	23.2	0.00e+00	122	42	0	1900019712	46	6695
2026-01-24 13:16:53.12	142.84	15.02	-37.8	-38.8	23.1	0.00e+00	122	42	0	1903165440	48	6081
2026-01-24 13:16:54.13	142.98	14.94	-37.8	-38.7	23.2	0.00e+00	120	42	0	1906311168	48	6042
2026-01-24 13:16:55.14	143.11	14.86	-37.9	-38.9	23.0	0.00e+00	123	42	0	1909456896	48	6148
2026-01-24 13:16:56.15	143.25	14.77	-38.1	-39.1	22.8	0.00e+00	123	42	0	1912602624	48	6324
2026-01-24 13:16:57.16	143.39	14.69	-38.0	-39.0	22.9	0.00e+00	120	42	0	1915748352	48	6255
2026-01-24 13:16:58.17	143.52	14.61	-38.0	-38.9	23.0	0.00e+00	122	42	0	1918894080	48	6195
2026-01-24 13:16:59.18	143.66	14.53	-38.0	-38.9	23.0	0.00e+00	123	42	0	1923088384	48	6186
2026-01-24 13:17:00.19	143.79	14.44	-38.3	-39.3	22.6	0.00e+00	120	42	0	1925185536	48	6487
2026-01-24 13:17:01.20	143.92	14.36	-37.9	-38.9	23.1	0.00e+00	122	42	0	1928331264	48	6169
2026-01-24 13:17:02.21	144.06	14.28	-38.0	-38.9	23.1	0.00e+00	120	42	0	1931476992	48	6185
2026-01-24 13:17:03.22	144.19	14.20	-38.1	-39.1	23.0	0.00e+00	123	42	0	1934622720	48	6291
2026-01-24 13:17:04.23	144.32	14.12	-37.7	-38.7	23.2	0.00e+00	123	42	0	1938817024	48	6021
2026-01-24 13:17:05.24	144.45	14.04	-38.0	-38.9	23.0	0.00e+00	122	42	0	1941962752	48	6192
2026-01-24 13:17:06.25	144.58	13.96	-37.8	-38.8	23.1	0.00e+00	123	42	0	1945108480	48	6096
2026-01-24 13:17:07.26	144.71	13.88	-37.8	-38.8	23.1	0.00e+00	123	42	0	1947205632	48	6106
2026-01-24 13:17:08.27	144.84	13.79	-38.0	-39.0	22.8	0.00e+00	122	42	0	1950351360	48	6238
2026-01-24 13:17:09.28	144.97	13.71	-37.9	-38.8	23.0	0.00e+00	120	42	0	1953497088	48	6121
2026-01-24 13:17:10.29	145.09	13.63	-38.0	-39.0	22.9	0.00e+00	120	42	0	1957691392	48	6274
2026-01-24 13:17:11.29	145.22	13.55	-38.1	-39.0	22.7	0.00e+00	123	42	0	1960837120	48	6271
2026-01-24 13:17:12.30	145.34	13.47	-38.2	-39.2	22.7	0.00e+00	122	42	0	1963982848	48	6371
2026-01-24 13:17:13.31	145.47	13.39	-38.2	-39.2	22.7	0.00e+00	123	42	0	1967128576	48	6375
2026-01-24 13:17:14.32	145.59	13.31	-38.2	-39.2	22.7	0.00e+00	122	42	0	1970274304	48	6410
2026-01-24 13:17:15.33	145.72	13.23	-38.3	-39.3	22.7	0.00e+00	120	42	0	1973420032	48	6443
2026-01-24 13:17:16.34	145.84	13.15	-38.3	-39.3	22.8	0.00e+00	122	42	0	1976565760	48	6439
2026-01-24 13:17:17.35	145.96	13.08	-38.1	-39.1	22.9	0.00e+00	120	42	0	1979711488	48	6322
2026-01-24 13:17:18.36	146.08	13.00	-38.0	-39.0	23.0	0.00e+00	123	42	0	1982857216	48	6242
2026-01-24 13:17:19.37	146.21	12.92	-38.2	-39.1	23.0	0.00e+00	120	42	0	1986002944	48	6343
