passes_logs/2025/01/11/SPB_Silybum_02/SPB_Silybum_02__20250111_065913_TERRA_rec.log

#Pass ID: 20250111_065913_TERRA
#Satellite: TERRA
#Configuration: TERRA
#Start time: 2025-01-11 06:59:14

#Version: 2.0.20230423
#Station: SPB_Silybum_02
#Location: 30.233357 lon 59.946436 lat
#TLE: 1 25994U 99068A   25010.80464720  .00000833  00000+0  18136-3 0  9995
#TLE: 2 25994  98.0224  73.9683 0003536  80.9361 344.1935 14.60387279333461

#Time	Az	El	Level	Level2	SNR	BER	Gain	Gain2
2025-01-11 06:59:16.76	26.08	4.20	
2025-01-11 06:59:16.96	26.09	4.21	
2025-01-11 06:59:17.17	26.11	4.22	
2025-01-11 06:59:17.37	26.13	4.24	
2025-01-11 06:59:17.58	26.15	4.25	
2025-01-11 06:59:17.78	26.16	4.26	
2025-01-11 06:59:18.00	26.18	4.28	
2025-01-11 06:59:18.21	26.20	4.29	
2025-01-11 06:59:18.41	26.22	4.30	
2025-01-11 06:59:18.62	26.23	4.31	
2025-01-11 06:59:18.83	26.25	4.33	
2025-01-11 06:59:19.03	26.27	4.34	
2025-01-11 06:59:19.24	26.29	4.35	
2025-01-11 06:59:19.44	26.30	4.37	
2025-01-11 06:59:19.65	26.32	4.38	
2025-01-11 06:59:19.86	26.34	4.39	
2025-01-11 06:59:20.06	26.35	4.40	
2025-01-11 06:59:20.26	26.37	4.42	
2025-01-11 06:59:20.47	26.39	4.43	
2025-01-11 06:59:20.68	26.41	4.44	
2025-01-11 06:59:20.88	26.42	4.46	
2025-01-11 06:59:21.09	26.44	4.47	
2025-01-11 06:59:21.29	26.46	4.48	
2025-01-11 06:59:21.50	26.48	4.49	
2025-01-11 06:59:21.70	26.49	4.51	
2025-01-11 06:59:21.91	26.51	4.52	
2025-01-11 06:59:22.11	26.53	4.53	
2025-01-11 06:59:22.32	26.55	4.55	
2025-01-11 06:59:22.52	26.56	4.56	
2025-01-11 06:59:22.73	26.58	4.57	
2025-01-11 06:59:22.93	26.60	4.58	
2025-01-11 06:59:23.14	26.62	4.60	
2025-01-11 06:59:23.34	26.63	4.61	
2025-01-11 06:59:23.55	26.65	4.62	
2025-01-11 06:59:23.76	26.67	4.64	
2025-01-11 06:59:23.96	26.69	4.65	
2025-01-11 06:59:24.17	26.70	4.66	
2025-01-11 06:59:24.37	26.72	4.68	
2025-01-11 06:59:24.57	26.74	4.69	
2025-01-11 06:59:24.78	26.76	4.70	
2025-01-11 06:59:24.98	26.77	4.71	
2025-01-11 06:59:25.19	26.79	4.73	
2025-01-11 06:59:25.39	26.81	4.74	
2025-01-11 06:59:25.60	26.83	4.75	
2025-01-11 06:59:25.80	26.85	4.77	
2025-01-11 06:59:26.01	26.86	4.78	
2025-01-11 06:59:26.22	26.88	4.79	
2025-01-11 06:59:26.42	26.90	4.80	
2025-01-11 06:59:26.63	26.92	4.82	
2025-01-11 06:59:26.84	26.94	4.83	
2025-01-11 06:59:27.04	26.95	4.84	
2025-01-11 06:59:27.24	26.97	4.86	
2025-01-11 06:59:27.45	26.99	4.87	
2025-01-11 06:59:27.65	27.01	4.88	
2025-01-11 06:59:27.86	27.02	4.90	
2025-01-11 06:59:28.06	27.04	4.91	
2025-01-11 06:59:28.27	27.06	4.92	
2025-01-11 06:59:28.48	27.08	4.94	
2025-01-11 06:59:28.69	27.10	4.95	
2025-01-11 06:59:28.90	27.12	4.96	
2025-01-11 06:59:29.10	27.13	4.97	
2025-01-11 06:59:29.31	27.15	4.99	
2025-01-11 06:59:29.52	27.17	5.00	
2025-01-11 06:59:29.72	27.19	5.01	
2025-01-11 06:59:29.92	27.21	5.03	
2025-01-11 06:59:30.13	27.22	5.04	
2025-01-11 06:59:30.34	27.24	5.05	
2025-01-11 06:59:30.54	27.26	5.07	
2025-01-11 06:59:30.75	27.28	5.08	
2025-01-11 06:59:30.95	27.30	5.09	
2025-01-11 06:59:31.16	27.32	5.11	
2025-01-11 06:59:31.36	27.33	5.12	
2025-01-11 06:59:31.57	27.35	5.13	
2025-01-11 06:59:31.77	27.37	5.14	
2025-01-11 06:59:31.98	27.39	5.16	
2025-01-11 06:59:32.18	27.41	5.17	
2025-01-11 06:59:32.39	27.43	5.18	
2025-01-11 06:59:32.60	27.44	5.20	
2025-01-11 06:59:32.80	27.46	5.21	
2025-01-11 06:59:33.00	27.48	5.22	
2025-01-11 06:59:33.21	27.50	5.24	
2025-01-11 06:59:33.41	27.52	5.25	
2025-01-11 06:59:33.62	27.54	5.26	
2025-01-11 06:59:33.83	27.55	5.28	
2025-01-11 06:59:34.04	27.57	5.29	
2025-01-11 06:59:34.25	27.59	5.30	
2025-01-11 06:59:34.46	27.61	5.32	
2025-01-11 06:59:34.66	27.63	5.33	
2025-01-11 06:59:34.87	27.65	5.34	
2025-01-11 06:59:35.07	27.67	5.36	
2025-01-11 06:59:35.28	27.68	5.37	
2025-01-11 06:59:35.48	27.70	5.38	
2025-01-11 06:59:35.69	27.72	5.40	
2025-01-11 06:59:35.89	27.74	5.41	
2025-01-11 06:59:36.10	27.76	5.42	
2025-01-11 06:59:36.30	27.78	5.44	
2025-01-11 06:59:36.51	27.80	5.45	
2025-01-11 06:59:36.71	27.81	5.46	
2025-01-11 06:59:36.92	27.83	5.48	
2025-01-11 06:59:37.12	27.85	5.49	
2025-01-11 06:59:37.33	27.87	5.50	
2025-01-11 06:59:37.53	27.89	5.51	
2025-01-11 06:59:37.74	27.91	5.53	
2025-01-11 06:59:37.94	27.93	5.54	
2025-01-11 06:59:38.14	27.95	5.55	
2025-01-11 06:59:38.35	27.96	5.57	
2025-01-11 06:59:38.56	27.98	5.58	
2025-01-11 06:59:38.76	28.00	5.59	
2025-01-11 06:59:38.97	28.02	5.61	
2025-01-11 06:59:39.17	28.04	5.62	
2025-01-11 06:59:39.38	28.06	5.63	
2025-01-11 06:59:39.58	28.08	5.65	
2025-01-11 06:59:39.79	28.10	5.66	
2025-01-11 06:59:40.00	28.12	5.67	
2025-01-11 06:59:40.20	28.13	5.69	
2025-01-11 06:59:40.40	28.15	5.70	
2025-01-11 06:59:40.61	28.17	5.71	
2025-01-11 06:59:40.81	28.19	5.73	
2025-01-11 06:59:41.02	28.21	5.74	
2025-01-11 06:59:41.22	28.23	5.75	
2025-01-11 06:59:41.43	28.25	5.77	
2025-01-11 06:59:41.64	28.27	5.78	
2025-01-11 06:59:41.84	28.29	5.79	
2025-01-11 06:59:42.05	28.31	5.81	
2025-01-11 06:59:42.25	28.33	5.82	
2025-01-11 06:59:42.45	28.34	5.83	
2025-01-11 06:59:42.66	28.36	5.85	
2025-01-11 06:59:42.87	28.38	5.86	
2025-01-11 06:59:43.07	28.40	5.87	
2025-01-11 06:59:43.28	28.42	5.89	
2025-01-11 06:59:43.48	28.44	5.90	
2025-01-11 06:59:43.68	28.46	5.91	
2025-01-11 06:59:43.89	28.48	5.93	
2025-01-11 06:59:44.10	28.50	5.94	
2025-01-11 06:59:44.30	28.52	5.95	
2025-01-11 06:59:44.51	28.54	5.97	
2025-01-11 06:59:44.71	28.56	5.98	
2025-01-11 06:59:44.92	28.58	6.00	
2025-01-11 06:59:45.12	28.59	6.01	
2025-01-11 06:59:45.33	28.61	6.02	
2025-01-11 06:59:45.54	28.63	6.04	
2025-01-11 06:59:45.74	28.65	6.05	
2025-01-11 06:59:45.95	28.67	6.06	
2025-01-11 06:59:46.15	28.69	6.08	
2025-01-11 06:59:46.36	28.71	6.09	
2025-01-11 06:59:46.56	28.73	6.10	
2025-01-11 06:59:46.77	28.75	6.12	
2025-01-11 06:59:46.98	28.77	6.13	
2025-01-11 06:59:47.18	28.79	6.14	
2025-01-11 06:59:47.39	28.81	6.16	
2025-01-11 06:59:47.59	28.83	6.17	
2025-01-11 06:59:47.80	28.85	6.18	
2025-01-11 06:59:48.00	28.87	6.20	
2025-01-11 06:59:48.21	28.89	6.21	
2025-01-11 06:59:48.41	28.91	6.22	
2025-01-11 06:59:48.62	28.93	6.24	
2025-01-11 06:59:48.82	28.95	6.25	
2025-01-11 06:59:49.03	28.97	6.27	
2025-01-11 06:59:49.23	28.99	6.28	
2025-01-11 06:59:49.44	29.01	6.29	
2025-01-11 06:59:49.65	29.03	6.31	
2025-01-11 06:59:49.85	29.05	6.32	
2025-01-11 06:59:50.05	29.07	6.33	
2025-01-11 06:59:50.26	29.09	6.35	
2025-01-11 06:59:50.47	29.11	6.36	
2025-01-11 06:59:50.67	29.13	6.37	
2025-01-11 06:59:50.88	29.15	6.39	
2025-01-11 06:59:51.08	29.17	6.40	
2025-01-11 06:59:51.29	29.19	6.41	
2025-01-11 06:59:51.49	29.21	6.43	
2025-01-11 06:59:51.70	29.23	6.44	
2025-01-11 06:59:51.90	29.25	6.46	
2025-01-11 06:59:52.10	29.27	6.47	
2025-01-11 06:59:52.31	29.29	6.48	
2025-01-11 06:59:52.52	29.31	6.50	
2025-01-11 06:59:52.72	29.33	6.51	
2025-01-11 06:59:52.93	29.35	6.52	
2025-01-11 06:59:53.13	29.37	6.54	
2025-01-11 06:59:53.34	29.39	6.55	
2025-01-11 06:59:53.54	29.41	6.56	
2025-01-11 06:59:53.75	29.43	6.58	
2025-01-11 06:59:53.95	29.45	6.59	
2025-01-11 06:59:54.16	29.47	6.61	
2025-01-11 06:59:54.36	29.49	6.62	
2025-01-11 06:59:54.57	29.51	6.63	
2025-01-11 06:59:54.77	29.53	6.65	
2025-01-11 06:59:54.98	29.55	6.66	
2025-01-11 06:59:55.18	29.57	6.67	
2025-01-11 06:59:55.40	29.59	6.69	
2025-01-11 06:59:55.61	29.61	6.70	
2025-01-11 06:59:55.81	29.63	6.72	
2025-01-11 06:59:56.02	29.65	6.73	
2025-01-11 06:59:56.23	29.67	6.74	
2025-01-11 06:59:56.43	29.69	6.76	
2025-01-11 06:59:56.64	29.71	6.77	
2025-01-11 06:59:56.85	29.74	6.79	
2025-01-11 06:59:57.05	29.76	6.80	
2025-01-11 06:59:57.26	29.78	6.81	
2025-01-11 06:59:57.46	29.80	6.83	
2025-01-11 06:59:57.67	29.82	6.84	
2025-01-11 06:59:57.87	29.84	6.85	
2025-01-11 06:59:58.08	29.86	6.87	
2025-01-11 06:59:58.29	29.88	6.88	
2025-01-11 06:59:58.49	29.90	6.90	
2025-01-11 06:59:58.70	29.92	6.91	
2025-01-11 06:59:58.90	29.94	6.92	
2025-01-11 06:59:59.11	29.96	6.94	
2025-01-11 06:59:59.31	29.98	6.95	
2025-01-11 06:59:59.52	30.00	6.96	
2025-01-11 06:59:59.72	30.02	6.98	
2025-01-11 06:59:59.93	30.05	6.99	
2025-01-11 07:00:00.13	30.07	7.01	
2025-01-11 07:00:00.34	30.09	7.02	
2025-01-11 07:00:00.54	30.11	7.03	
2025-01-11 07:00:00.76	30.13	7.05	
2025-01-11 07:00:00.96	30.15	7.06	
2025-01-11 07:00:01.17	30.17	7.08	
2025-01-11 07:00:01.38	30.19	7.09	
2025-01-11 07:00:01.58	30.21	7.10	
2025-01-11 07:00:01.78	30.23	7.12	
2025-01-11 07:00:01.99	30.26	7.13	
2025-01-11 07:00:02.19	30.28	7.14	
2025-01-11 07:00:02.40	30.30	7.16	
2025-01-11 07:00:02.61	30.32	7.17	
2025-01-11 07:00:02.81	30.34	7.19	
2025-01-11 07:00:03.01	30.36	7.20	
2025-01-11 07:00:03.22	30.38	7.21	
2025-01-11 07:00:03.43	30.40	7.23	
2025-01-11 07:00:03.63	30.42	7.24	
2025-01-11 07:00:03.84	30.45	7.26	
2025-01-11 07:00:04.04	30.47	7.27	
2025-01-11 07:00:04.24	30.49	7.28	
2025-01-11 07:00:04.45	30.51	7.30	
2025-01-11 07:00:04.65	30.53	7.31	
2025-01-11 07:00:04.86	30.55	7.33	
2025-01-11 07:00:05.06	30.57	7.34	
2025-01-11 07:00:05.27	30.59	7.35	
2025-01-11 07:00:05.47	30.62	7.37	
2025-01-11 07:00:05.68	30.64	7.38	
2025-01-11 07:00:05.88	30.66	7.40	
2025-01-11 07:00:06.08	30.68	7.41	
2025-01-11 07:00:06.29	30.70	7.42	
2025-01-11 07:00:06.50	30.72	7.44	
2025-01-11 07:00:06.70	30.74	7.45	
2025-01-11 07:00:06.91	30.77	7.47	
2025-01-11 07:00:07.11	30.79	7.48	
2025-01-11 07:00:07.32	30.81	7.49	
2025-01-11 07:00:07.53	30.83	7.51	
2025-01-11 07:00:07.73	30.85	7.52	
2025-01-11 07:00:07.94	30.87	7.54	
2025-01-11 07:00:08.15	30.90	7.55	
2025-01-11 07:00:08.36	30.92	7.56	
2025-01-11 07:00:08.57	30.94	7.58	
2025-01-11 07:00:08.77	30.96	7.59	
2025-01-11 07:00:08.98	30.98	7.61	
2025-01-11 07:00:09.18	31.01	7.62	
2025-01-11 07:00:09.39	31.03	7.64	
2025-01-11 07:00:09.59	31.05	7.65	
2025-01-11 07:00:09.80	31.07	7.66	
2025-01-11 07:00:10.01	31.09	7.68	
2025-01-11 07:00:10.21	31.12	7.69	
2025-01-11 07:00:10.41	31.14	7.71	
2025-01-11 07:00:10.62	31.16	7.72	
2025-01-11 07:00:10.82	31.18	7.73	
2025-01-11 07:00:11.03	31.20	7.75	
2025-01-11 07:00:11.23	31.22	7.76	
2025-01-11 07:00:11.44	31.25	7.78	
2025-01-11 07:00:11.64	31.27	7.79	
2025-01-11 07:00:11.85	31.29	7.80	
2025-01-11 07:00:12.05	31.31	7.82	
2025-01-11 07:00:12.26	31.33	7.83	
2025-01-11 07:00:12.48	31.36	7.85	
2025-01-11 07:00:12.68	31.38	7.86	
2025-01-11 07:00:12.88	31.40	7.88	
2025-01-11 07:00:13.09	31.42	7.89	
2025-01-11 07:00:13.30	31.45	7.90	
2025-01-11 07:00:13.50	31.47	7.92	
2025-01-11 07:00:13.71	31.49	7.93	
2025-01-11 07:00:13.91	31.51	7.95	
2025-01-11 07:00:14.12	31.54	7.96	
2025-01-11 07:00:14.33	31.56	7.98	
2025-01-11 07:00:14.53	31.58	7.99	
2025-01-11 07:00:14.73	31.60	8.00	
2025-01-11 07:00:14.94	31.63	8.02	
2025-01-11 07:00:15.15	31.65	8.03	
2025-01-11 07:00:15.35	31.67	8.05	
2025-01-11 07:00:15.56	31.69	8.06	
2025-01-11 07:00:15.76	31.72	8.08	
2025-01-11 07:00:15.97	31.74	8.09	
2025-01-11 07:00:16.17	31.76	8.10	
2025-01-11 07:00:16.37	31.78	8.12	
2025-01-11 07:00:16.58	31.81	8.13	
2025-01-11 07:00:16.78	31.83	8.15	
2025-01-11 07:00:16.99	31.85	8.16	
2025-01-11 07:00:17.19	31.87	8.17	
2025-01-11 07:00:17.40	31.90	8.19	
2025-01-11 07:00:17.60	31.92	8.20	
2025-01-11 07:00:17.81	31.94	8.22	
2025-01-11 07:00:18.01	31.96	8.23	
2025-01-11 07:00:18.22	31.99	8.25	
2025-01-11 07:00:18.42	32.01	8.26	
2025-01-11 07:00:18.63	32.03	8.27	
2025-01-11 07:00:18.83	32.05	8.29	
2025-01-11 07:00:19.04	32.08	8.30	
2025-01-11 07:00:19.25	32.10	8.32	
2025-01-11 07:00:19.45	32.12	8.33	
2025-01-11 07:00:19.66	32.15	8.35	
2025-01-11 07:00:19.86	32.17	8.36	
2025-01-11 07:00:20.07	32.19	8.38	
2025-01-11 07:00:20.27	32.21	8.39	
2025-01-11 07:00:20.48	32.24	8.40	
2025-01-11 07:00:20.68	32.26	8.42	
2025-01-11 07:00:20.89	32.28	8.43	
2025-01-11 07:00:21.09	32.31	8.45	
2025-01-11 07:00:21.30	32.33	8.46	
2025-01-11 07:00:21.50	32.35	8.48	
2025-01-11 07:00:21.71	32.38	8.49	
2025-01-11 07:00:21.91	32.40	8.50	
2025-01-11 07:00:22.12	32.42	8.52	
2025-01-11 07:00:22.32	32.45	8.53	
2025-01-11 07:00:22.53	32.47	8.55	
2025-01-11 07:00:22.73	32.49	8.56	
2025-01-11 07:00:22.94	32.52	8.58	
2025-01-11 07:00:23.14	32.54	8.59	
2025-01-11 07:00:23.35	32.56	8.61	
2025-01-11 07:00:23.55	32.59	8.62	
2025-01-11 07:00:23.76	32.61	8.63	
2025-01-11 07:00:23.97	32.63	8.65	
2025-01-11 07:00:24.17	32.66	8.66	
2025-01-11 07:00:24.37	32.68	8.68	
2025-01-11 07:00:24.58	32.70	8.69	
2025-01-11 07:00:24.79	32.73	8.71	
2025-01-11 07:00:24.99	32.75	8.72	
2025-01-11 07:00:25.21	32.78	8.74	
2025-01-11 07:00:25.42	32.80	8.75	
2025-01-11 07:00:25.62	32.82	8.77	
2025-01-11 07:00:25.83	32.85	8.78	
2025-01-11 07:00:26.03	32.87	8.79	
2025-01-11 07:00:26.24	32.89	8.81	
2025-01-11 07:00:26.44	32.92	8.82	
2025-01-11 07:00:26.65	32.94	8.84	
2025-01-11 07:00:26.85	32.96	8.85	
2025-01-11 07:00:27.06	32.99	8.87	
2025-01-11 07:00:27.26	33.01	8.88	
2025-01-11 07:00:27.47	33.04	8.90	
2025-01-11 07:00:27.67	33.06	8.91	
2025-01-11 07:00:27.88	33.08	8.93	
2025-01-11 07:00:28.08	33.11	8.94	
2025-01-11 07:00:28.29	33.13	8.96	
2025-01-11 07:00:28.49	33.16	8.97	
2025-01-11 07:00:28.70	33.18	8.98	
2025-01-11 07:00:28.90	33.20	9.00	
2025-01-11 07:00:29.11	33.23	9.01	
2025-01-11 07:00:29.31	33.25	9.03	
2025-01-11 07:00:29.53	33.28	9.04	
2025-01-11 07:00:29.74	33.30	9.06	
2025-01-11 07:00:29.94	33.33	9.07	
2025-01-11 07:00:30.15	33.35	9.09	
2025-01-11 07:00:30.35	33.37	9.10	
2025-01-11 07:00:30.56	33.40	9.12	
2025-01-11 07:00:30.76	33.42	9.13	
2025-01-11 07:00:30.97	33.45	9.15	
2025-01-11 07:00:31.17	33.47	9.16	
2025-01-11 07:00:31.38	33.50	9.18	
2025-01-11 07:00:31.58	33.52	9.19	
2025-01-11 07:00:31.78	33.54	9.20	
2025-01-11 07:00:31.99	33.57	9.22	
2025-01-11 07:00:32.20	33.59	9.23	
2025-01-11 07:00:32.40	33.62	9.25	
2025-01-11 07:00:32.60	33.64	9.26	
2025-01-11 07:00:32.81	33.67	9.28	
2025-01-11 07:00:33.02	33.69	9.29	
2025-01-11 07:00:33.22	33.71	9.31	
2025-01-11 07:00:33.43	33.74	9.32	
2025-01-11 07:00:33.63	33.76	9.34	
2025-01-11 07:00:33.84	33.79	9.35	
2025-01-11 07:00:34.04	33.81	9.37	
2025-01-11 07:00:34.24	33.84	9.38	
2025-01-11 07:00:34.45	33.86	9.40	
2025-01-11 07:00:34.65	33.89	9.41	
2025-01-11 07:00:34.85	33.91	9.42	
2025-01-11 07:00:35.05	33.93	9.44	
2025-01-11 07:00:35.26	33.96	9.45	
2025-01-11 07:00:35.46	33.98	9.47	
2025-01-11 07:00:35.66	34.01	9.48	
2025-01-11 07:00:35.87	34.03	9.50	
2025-01-11 07:00:36.07	34.06	9.51	
2025-01-11 07:00:36.28	34.08	9.53	
2025-01-11 07:00:36.48	34.11	9.54	
2025-01-11 07:00:36.69	34.13	9.56	
2025-01-11 07:00:36.89	34.16	9.57	
2025-01-11 07:00:37.10	34.18	9.59	
2025-01-11 07:00:37.31	34.21	9.60	
2025-01-11 07:00:37.51	34.23	9.62	
2025-01-11 07:00:37.72	34.26	9.63	
2025-01-11 07:00:37.92	34.28	9.65	
2025-01-11 07:00:38.13	34.31	9.66	
2025-01-11 07:00:38.33	34.33	9.68	
2025-01-11 07:00:38.54	34.36	9.69	
2025-01-11 07:00:38.74	34.38	9.71	
2025-01-11 07:00:38.95	34.41	9.72	
2025-01-11 07:00:39.15	34.43	9.73	
2025-01-11 07:00:39.36	34.46	9.75	
2025-01-11 07:00:39.56	34.49	9.76	
2025-01-11 07:00:39.77	34.51	9.78	
2025-01-11 07:00:39.97	34.54	9.79	
2025-01-11 07:00:40.18	34.56	9.81	
2025-01-11 07:00:40.38	34.59	9.82	
2025-01-11 07:00:40.59	34.61	9.84	
2025-01-11 07:00:40.79	34.64	9.85	
2025-01-11 07:00:41.00	34.66	9.87	
2025-01-11 07:00:41.20	34.69	9.88	
2025-01-11 07:00:41.41	34.72	9.90	
2025-01-11 07:00:41.61	34.74	9.91	
2025-01-11 07:00:41.82	34.77	9.93	
2025-01-11 07:00:42.02	34.79	9.94	
2025-01-11 07:00:42.24	34.82	9.96	
2025-01-11 07:00:42.45	34.85	9.97	
2025-01-11 07:00:42.65	34.87	9.99	
2025-01-11 07:00:42.86	34.90	10.00	
2025-01-11 07:00:43.06	34.92	10.02	
2025-01-11 07:00:43.26	34.95	10.03	
2025-01-11 07:00:43.47	34.97	10.05	
2025-01-11 07:00:43.68	35.00	10.06	
2025-01-11 07:00:43.88	35.03	10.08	
2025-01-11 07:00:44.08	35.05	10.09	
2025-01-11 07:00:44.29	35.08	10.11	
2025-01-11 07:00:44.50	35.10	10.12	
2025-01-11 07:00:44.70	35.13	10.14	
2025-01-11 07:00:44.91	35.16	10.15	
2025-01-11 07:00:45.11	35.18	10.17	
2025-01-11 07:00:45.32	35.21	10.18	
2025-01-11 07:00:45.52	35.23	10.20	
2025-01-11 07:00:45.73	35.26	10.21	
2025-01-11 07:00:45.93	35.29	10.23	
2025-01-11 07:00:46.14	35.31	10.24	
2025-01-11 07:00:46.34	35.34	10.26	
2025-01-11 07:00:46.55	35.37	10.27	
2025-01-11 07:00:46.75	35.39	10.29	
2025-01-11 07:00:46.96	35.42	10.30	
2025-01-11 07:00:47.16	35.44	10.32	
2025-01-11 07:00:47.37	35.47	10.33	
2025-01-11 07:00:47.59	35.50	10.35	
2025-01-11 07:00:47.79	35.52	10.37	
2025-01-11 07:00:48.00	35.55	10.38	
2025-01-11 07:00:48.20	35.58	10.40	
2025-01-11 07:00:48.41	35.60	10.41	
2025-01-11 07:00:48.61	35.63	10.43	
2025-01-11 07:00:48.82	35.66	10.44	
2025-01-11 07:00:49.02	35.68	10.46	
2025-01-11 07:00:49.23	35.71	10.47	
2025-01-11 07:00:49.43	35.74	10.49	
2025-01-11 07:00:49.64	35.76	10.50	
2025-01-11 07:00:49.84	35.79	10.52	
2025-01-11 07:00:50.04	35.82	10.53	
2025-01-11 07:00:50.25	35.84	10.55	
2025-01-11 07:00:50.46	35.87	10.56	
2025-01-11 07:00:50.66	35.90	10.58	
2025-01-11 07:00:50.87	35.92	10.59	
2025-01-11 07:00:51.07	35.95	10.61	
2025-01-11 07:00:51.28	35.98	10.62	
2025-01-11 07:00:51.48	36.01	10.64	
2025-01-11 07:00:51.69	36.03	10.65	
2025-01-11 07:00:51.89	36.06	10.67	
2025-01-11 07:00:52.10	36.09	10.68	
2025-01-11 07:00:52.30	36.11	10.70	
2025-01-11 07:00:52.51	36.14	10.71	
2025-01-11 07:00:52.71	36.17	10.73	
2025-01-11 07:00:52.93	36.20	10.75	
2025-01-11 07:00:53.14	36.22	10.76	
2025-01-11 07:00:53.34	36.25	10.78	
2025-01-11 07:00:53.55	36.28	10.79	
2025-01-11 07:00:53.75	36.31	10.81	
2025-01-11 07:00:53.95	36.33	10.82	
2025-01-11 07:00:54.16	36.36	10.84	
2025-01-11 07:00:54.37	36.39	10.85	
2025-01-11 07:00:54.57	36.41	10.87	
2025-01-11 07:00:54.78	36.44	10.88	
2025-01-11 07:00:54.98	36.47	10.90	
2025-01-11 07:00:55.19	36.50	10.91	
2025-01-11 07:00:55.39	36.52	10.93	
2025-01-11 07:00:55.60	36.55	10.94	
2025-01-11 07:00:55.80	36.58	10.96	
2025-01-11 07:00:56.00	36.61	10.97	
2025-01-11 07:00:56.21	36.63	10.99	
2025-01-11 07:00:56.42	36.66	11.01	
2025-01-11 07:00:56.62	36.69	11.02	
2025-01-11 07:00:56.82	36.72	11.04	
2025-01-11 07:00:57.03	36.75	11.05	
2025-01-11 07:00:57.24	36.77	11.07	
2025-01-11 07:00:57.45	36.80	11.08	
2025-01-11 07:00:57.65	36.83	11.10	
2025-01-11 07:00:57.86	36.86	11.11	
2025-01-11 07:00:58.06	36.89	11.13	
2025-01-11 07:00:58.27	36.91	11.14	
2025-01-11 07:00:58.47	36.94	11.16	
2025-01-11 07:00:58.68	36.97	11.17	
2025-01-11 07:00:58.88	37.00	11.19	
2025-01-11 07:00:59.09	37.03	11.21	
2025-01-11 07:00:59.29	37.05	11.22	
2025-01-11 07:00:59.50	37.08	11.24	
2025-01-11 07:00:59.70	37.11	11.25	
2025-01-11 07:00:59.91	37.14	11.27	
2025-01-11 07:01:00.11	37.17	11.28	
2025-01-11 07:01:00.32	37.20	11.30	
2025-01-11 07:01:00.52	37.22	11.31	
2025-01-11 07:01:00.73	37.25	11.33	
2025-01-11 07:01:00.93	37.28	11.34	
2025-01-11 07:01:01.14	37.31	11.36	
2025-01-11 07:01:01.34	37.34	11.37	
2025-01-11 07:01:01.55	37.37	11.39	
2025-01-11 07:01:01.75	37.39	11.41	
2025-01-11 07:01:01.96	37.42	11.42	
2025-01-11 07:01:02.16	37.45	11.44	
2025-01-11 07:01:02.37	37.48	11.45	
2025-01-11 07:01:02.57	37.51	11.47	
2025-01-11 07:01:02.78	37.54	11.48	
2025-01-11 07:01:02.98	37.56	11.50	
2025-01-11 07:01:03.19	37.59	11.51	
2025-01-11 07:01:03.39	37.62	11.53	
2025-01-11 07:01:03.60	37.65	11.54	
2025-01-11 07:01:03.80	37.68	11.56	
2025-01-11 07:01:04.01	37.71	11.58	
2025-01-11 07:01:04.21	37.74	11.59	
2025-01-11 07:01:04.42	37.77	11.61	
2025-01-11 07:01:04.62	37.79	11.62	
2025-01-11 07:01:04.83	37.82	11.64	
2025-01-11 07:01:05.03	37.85	11.65	
2025-01-11 07:01:05.24	37.88	11.67	
2025-01-11 07:01:05.44	37.91	11.68	
2025-01-11 07:01:05.65	37.94	11.70	
2025-01-11 07:01:05.85	37.97	11.71	
2025-01-11 07:01:06.06	38.00	11.73	
2025-01-11 07:01:06.26	38.03	11.75	
2025-01-11 07:01:06.47	38.06	11.76	
2025-01-11 07:01:06.67	38.09	11.78	
2025-01-11 07:01:06.88	38.12	11.79	
2025-01-11 07:01:07.09	38.15	11.81	
2025-01-11 07:01:07.29	38.17	11.82	
2025-01-11 07:01:07.50	38.20	11.84	
2025-01-11 07:01:07.70	38.23	11.86	
2025-01-11 07:01:07.90	38.26	11.87	
2025-01-11 07:01:08.11	38.29	11.89	
2025-01-11 07:01:08.32	38.32	11.90	
2025-01-11 07:01:08.52	38.35	11.92	
2025-01-11 07:01:08.73	38.38	11.93	
2025-01-11 07:01:08.95	38.41	11.95	
2025-01-11 07:01:09.15	38.44	11.97	
2025-01-11 07:01:09.36	38.47	11.98	
2025-01-11 07:01:09.56	38.50	12.00	
2025-01-11 07:01:09.77	38.53	12.01	
2025-01-11 07:01:09.97	38.56	12.03	
2025-01-11 07:01:10.18	38.59	12.04	
2025-01-11 07:01:10.38	38.62	12.06	
2025-01-11 07:01:10.59	38.65	12.08	
2025-01-11 07:01:10.79	38.68	12.09	
2025-01-11 07:01:11.00	38.71	12.11	
2025-01-11 07:01:11.20	38.74	12.12	
2025-01-11 07:01:11.41	38.77	12.14	
2025-01-11 07:01:11.61	38.80	12.15	
2025-01-11 07:01:11.82	38.83	12.17	
2025-01-11 07:01:12.02	38.86	12.18	
2025-01-11 07:01:12.23	38.89	12.20	
2025-01-11 07:01:12.44	38.92	12.22	
2025-01-11 07:01:12.64	38.95	12.23	
2025-01-11 07:01:12.85	38.98	12.25	
2025-01-11 07:01:13.05	39.01	12.26	
2025-01-11 07:01:13.26	39.04	12.28	
2025-01-11 07:01:13.46	39.07	12.29	
2025-01-11 07:01:13.67	39.10	12.31	
2025-01-11 07:01:13.87	39.13	12.33	
2025-01-11 07:01:14.08	39.16	12.34	
2025-01-11 07:01:14.28	39.19	12.36	
2025-01-11 07:01:14.49	39.22	12.37	
2025-01-11 07:01:14.69	39.25	12.39	
2025-01-11 07:01:14.90	39.28	12.41	
2025-01-11 07:01:15.10	39.31	12.42	
2025-01-11 07:01:15.31	39.35	12.44	
2025-01-11 07:01:15.51	39.38	12.45	
2025-01-11 07:01:15.72	39.41	12.47	
2025-01-11 07:01:15.92	39.44	12.48	
2025-01-11 07:01:16.13	39.47	12.50	
2025-01-11 07:01:16.34	39.50	12.52	
2025-01-11 07:01:16.54	39.53	12.53	
2025-01-11 07:01:16.75	39.56	12.55	
2025-01-11 07:01:16.95	39.59	12.56	
2025-01-11 07:01:17.16	39.62	12.58	
2025-01-11 07:01:17.36	39.65	12.59	
2025-01-11 07:01:17.57	39.69	12.61	
2025-01-11 07:01:17.77	39.72	12.63	
2025-01-11 07:01:17.98	39.75	12.64	
2025-01-11 07:01:18.18	39.78	12.66	
2025-01-11 07:01:18.39	39.81	12.67	
2025-01-11 07:01:18.59	39.84	12.69	
2025-01-11 07:01:18.80	39.87	12.71	
2025-01-11 07:01:19.01	39.90	12.72	
2025-01-11 07:01:19.21	39.93	12.74	
2025-01-11 07:01:19.42	39.97	12.75	
2025-01-11 07:01:19.62	40.00	12.77	
2025-01-11 07:01:19.83	40.03	12.78	
2025-01-11 07:01:20.04	40.06	12.80	
2025-01-11 07:01:20.24	40.09	12.82	
2025-01-11 07:01:20.45	40.12	12.83	
2025-01-11 07:01:20.65	40.16	12.85	
2025-01-11 07:01:20.85	40.19	12.86	
2025-01-11 07:01:21.06	40.22	12.88	
2025-01-11 07:01:21.27	40.25	12.90	
2025-01-11 07:01:21.47	40.28	12.91	
2025-01-11 07:01:21.68	40.31	12.93	
2025-01-11 07:01:21.88	40.34	12.94	
2025-01-11 07:01:22.09	40.38	12.96	
2025-01-11 07:01:22.30	40.41	12.98	
2025-01-11 07:01:22.50	40.44	12.99	
2025-01-11 07:01:22.70	40.47	13.01	
2025-01-11 07:01:22.91	40.50	13.02	
2025-01-11 07:01:23.11	40.54	13.04	
2025-01-11 07:01:23.32	40.57	13.06	
2025-01-11 07:01:23.53	40.60	13.07	
2025-01-11 07:01:23.73	40.63	13.09	
2025-01-11 07:01:23.94	40.67	13.10	
2025-01-11 07:01:24.14	40.70	13.12	
2025-01-11 07:01:24.34	40.73	13.13	
2025-01-11 07:01:24.55	40.76	13.15	
2025-01-11 07:01:24.76	40.79	13.17	
2025-01-11 07:01:24.97	40.83	13.18	
2025-01-11 07:01:25.17	40.86	13.20	
2025-01-11 07:01:25.38	40.89	13.22	
2025-01-11 07:01:25.58	40.92	13.23	
2025-01-11 07:01:25.79	40.96	13.25	
2025-01-11 07:01:26.01	40.99	13.26	
2025-01-11 07:01:26.21	41.02	13.28	
2025-01-11 07:01:26.42	41.06	13.30	
2025-01-11 07:01:26.62	41.09	13.31	
2025-01-11 07:01:26.83	41.12	13.33	
2025-01-11 07:01:27.03	41.15	13.34	
2025-01-11 07:01:27.24	41.19	13.36	
2025-01-11 07:01:27.44	41.22	13.38	
2025-01-11 07:01:27.65	41.25	13.39	
2025-01-11 07:01:27.85	41.28	13.41	
2025-01-11 07:01:28.06	41.32	13.42	
2025-01-11 07:01:28.26	41.35	13.44	
2025-01-11 07:01:28.47	41.38	13.46	
2025-01-11 07:01:28.67	41.42	13.47	
2025-01-11 07:01:28.88	41.45	13.49	
2025-01-11 07:01:29.08	41.48	13.50	
2025-01-11 07:01:29.29	41.52	13.52	
2025-01-11 07:01:29.50	41.55	13.54	
2025-01-11 07:01:29.70	41.58	13.55	
2025-01-11 07:01:29.91	41.62	13.57	
2025-01-11 07:01:30.11	41.65	13.58	
2025-01-11 07:01:30.32	41.68	13.60	
2025-01-11 07:01:30.52	41.71	13.62	
2025-01-11 07:01:30.73	41.75	13.63	
2025-01-11 07:01:30.93	41.78	13.65	
2025-01-11 07:01:31.14	41.82	13.66	
2025-01-11 07:01:31.34	41.85	13.68	
2025-01-11 07:01:31.55	41.88	13.70	
2025-01-11 07:01:31.75	41.91	13.71	
2025-01-11 07:01:31.96	41.95	13.73	
2025-01-11 07:01:32.16	41.98	13.74	
2025-01-11 07:01:32.37	42.02	13.76	
2025-01-11 07:01:32.57	42.05	13.78	
2025-01-11 07:01:32.78	42.08	13.79	
2025-01-11 07:01:32.98	42.12	13.81	
2025-01-11 07:01:33.19	42.15	13.83	
2025-01-11 07:01:33.39	42.18	13.84	
2025-01-11 07:01:33.60	42.22	13.86	
2025-01-11 07:01:33.80	42.25	13.87	
2025-01-11 07:01:34.01	42.29	13.89	
2025-01-11 07:01:34.21	42.32	13.91	
2025-01-11 07:01:34.42	42.35	13.92	
2025-01-11 07:01:34.62	42.39	13.94	
2025-01-11 07:01:34.83	42.42	13.95	
2025-01-11 07:01:35.04	42.46	13.97	
2025-01-11 07:01:35.24	42.49	13.99	
2025-01-11 07:01:35.44	42.52	14.00	
2025-01-11 07:01:35.65	42.56	14.02	
2025-01-11 07:01:35.85	42.59	14.03	
2025-01-11 07:01:36.06	42.63	14.05	
2025-01-11 07:01:36.27	42.66	14.07	
2025-01-11 07:01:36.47	42.70	14.08	
2025-01-11 07:01:36.67	42.73	14.10	
2025-01-11 07:01:36.88	42.76	14.12	
2025-01-11 07:01:37.09	42.80	14.13	
2025-01-11 07:01:37.29	42.83	14.15	
2025-01-11 07:01:37.50	42.87	14.16	
2025-01-11 07:01:37.70	42.90	14.18	
2025-01-11 07:01:37.91	42.94	14.20	
2025-01-11 07:01:38.11	42.97	14.21	
2025-01-11 07:01:38.32	43.01	14.23	
2025-01-11 07:01:38.52	43.04	14.24	
2025-01-11 07:01:38.73	43.08	14.26	
2025-01-11 07:01:38.93	43.11	14.28	
2025-01-11 07:01:39.14	43.15	14.29	
2025-01-11 07:01:39.34	43.18	14.31	
2025-01-11 07:01:39.55	43.22	14.33	
2025-01-11 07:01:39.75	43.25	14.34	
2025-01-11 07:01:39.96	43.29	14.36	
2025-01-11 07:01:40.16	43.32	14.37	
2025-01-11 07:01:40.37	43.36	14.39	
2025-01-11 07:01:40.58	43.39	14.41	
2025-01-11 07:01:40.78	43.43	14.42	
2025-01-11 07:01:40.98	43.46	14.44	
2025-01-11 07:01:41.19	43.50	14.46	
2025-01-11 07:01:41.40	43.53	14.47	
2025-01-11 07:01:41.60	43.57	14.49	
2025-01-11 07:01:41.81	43.60	14.50	
2025-01-11 07:01:42.01	43.64	14.52	
2025-01-11 07:01:42.22	43.68	14.54	
2025-01-11 07:01:42.42	43.71	14.55	
2025-01-11 07:01:42.63	43.75	14.57	
2025-01-11 07:01:42.84	43.78	14.59	
2025-01-11 07:01:43.04	43.82	14.60	
2025-01-11 07:01:43.24	43.85	14.62	
2025-01-11 07:01:43.45	43.89	14.63	
2025-01-11 07:01:43.65	43.92	14.65	
2025-01-11 07:01:43.86	43.96	14.67	
2025-01-11 07:01:44.06	44.00	14.68	
2025-01-11 07:01:44.27	44.03	14.70	
2025-01-11 07:01:44.48	44.07	14.72	
2025-01-11 07:01:44.68	44.10	14.73	
2025-01-11 07:01:44.89	44.14	14.75	
2025-01-11 07:01:45.09	44.18	14.76	
2025-01-11 07:01:45.30	44.21	14.78	
2025-01-11 07:01:45.50	44.25	14.80	
2025-01-11 07:01:45.71	44.29	14.81	
2025-01-11 07:01:45.91	44.32	14.83	
2025-01-11 07:01:46.12	44.36	14.85	
2025-01-11 07:01:46.32	44.39	14.86	
2025-01-11 07:01:46.53	44.43	14.88	
2025-01-11 07:01:46.73	44.47	14.89	
2025-01-11 07:01:46.94	44.50	14.91	
2025-01-11 07:01:47.15	44.54	14.93	
2025-01-11 07:01:47.36	44.58	14.94	
2025-01-11 07:01:47.57	44.62	14.96	
2025-01-11 07:01:47.77	44.65	14.98	
2025-01-11 07:01:47.98	44.69	14.99	
2025-01-11 07:01:48.18	44.72	15.01	
2025-01-11 07:01:48.39	44.76	15.03	
2025-01-11 07:01:48.59	44.80	15.04	
2025-01-11 07:01:48.80	44.84	15.06	
2025-01-11 07:01:49.00	44.87	15.07	
2025-01-11 07:01:49.21	44.91	15.09	
2025-01-11 07:01:49.41	44.95	15.11	
2025-01-11 07:01:49.62	44.98	15.12	
2025-01-11 07:01:49.82	45.02	15.14	
2025-01-11 07:01:50.03	45.06	15.16	
2025-01-11 07:01:50.24	45.10	15.17	
2025-01-11 07:01:50.44	45.13	15.19	
2025-01-11 07:01:50.65	45.17	15.20	
2025-01-11 07:01:50.85	45.21	15.22	
2025-01-11 07:01:51.05	45.24	15.24	
2025-01-11 07:01:51.26	45.28	15.25	
2025-01-11 07:01:51.47	45.32	15.27	
2025-01-11 07:01:51.67	45.35	15.29	
2025-01-11 07:01:51.88	45.39	15.30	
2025-01-11 07:01:52.08	45.43	15.32	
2025-01-11 07:01:52.29	45.47	15.33	
2025-01-11 07:01:52.49	45.50	15.35	
2025-01-11 07:01:52.69	45.54	15.37	
2025-01-11 07:01:52.91	45.58	15.38	
2025-01-11 07:01:53.11	45.62	15.40	
2025-01-11 07:01:53.32	45.66	15.42	
2025-01-11 07:01:53.52	45.69	15.43	
2025-01-11 07:01:53.73	45.73	15.45	
2025-01-11 07:01:53.93	45.77	15.47	
2025-01-11 07:01:54.14	45.81	15.48	
2025-01-11 07:01:54.34	45.85	15.50	
2025-01-11 07:01:54.55	45.88	15.51	
2025-01-11 07:01:54.75	45.92	15.53	
2025-01-11 07:01:54.96	45.96	15.55	
2025-01-11 07:01:55.16	46.00	15.56	
2025-01-11 07:01:55.37	46.04	15.58	
2025-01-11 07:01:55.57	46.07	15.60	
2025-01-11 07:01:55.78	46.11	15.61	
2025-01-11 07:01:55.98	46.15	15.63	
2025-01-11 07:01:56.19	46.19	15.65	
2025-01-11 07:01:56.39	46.23	15.66	
2025-01-11 07:01:56.60	46.27	15.68	
2025-01-11 07:01:56.81	46.31	15.69	
2025-01-11 07:01:57.01	46.34	15.71	
2025-01-11 07:01:57.22	46.38	15.73	
2025-01-11 07:01:57.42	46.42	15.74	
2025-01-11 07:01:57.63	46.46	15.76	
2025-01-11 07:01:57.83	46.50	15.78	
2025-01-11 07:01:58.04	46.54	15.79	
2025-01-11 07:01:58.24	46.58	15.81	
2025-01-11 07:01:58.45	46.61	15.82	
2025-01-11 07:01:58.65	46.65	15.84	
2025-01-11 07:01:58.86	46.69	15.86	
2025-01-11 07:01:59.06	46.73	15.87	
2025-01-11 07:01:59.27	46.77	15.89	
2025-01-11 07:01:59.47	46.81	15.91	
2025-01-11 07:01:59.68	46.85	15.92	
2025-01-11 07:01:59.88	46.89	15.94	
2025-01-11 07:02:00.09	46.93	15.96	
2025-01-11 07:02:00.29	46.97	15.97	
2025-01-11 07:02:00.50	47.01	15.99	
2025-01-11 07:02:00.71	47.05	16.00	
2025-01-11 07:02:00.91	47.08	16.02	
2025-01-11 07:02:01.12	47.12	16.04	
2025-01-11 07:02:01.32	47.16	16.05	
2025-01-11 07:02:01.53	47.20	16.07	
2025-01-11 07:02:01.73	47.24	16.09	
2025-01-11 07:02:01.94	47.28	16.10	
2025-01-11 07:02:02.14	47.32	16.12	
2025-01-11 07:02:02.36	47.36	16.14	
2025-01-11 07:02:02.57	47.40	16.15	
2025-01-11 07:02:02.77	47.44	16.17	
2025-01-11 07:02:02.98	47.48	16.19	
2025-01-11 07:02:03.18	47.52	16.20	
2025-01-11 07:02:03.39	47.56	16.22	
2025-01-11 07:02:03.59	47.60	16.23	
2025-01-11 07:02:03.80	47.64	16.25	
2025-01-11 07:02:04.00	47.68	16.27	
2025-01-11 07:02:04.21	47.72	16.28	
2025-01-11 07:02:04.42	47.76	16.30	
2025-01-11 07:02:04.63	47.81	16.32	
2025-01-11 07:02:04.83	47.84	16.33	
2025-01-11 07:02:05.04	47.89	16.35	
2025-01-11 07:02:05.25	47.93	16.37	
2025-01-11 07:02:05.45	47.97	16.38	
2025-01-11 07:02:05.66	48.01	16.40	
2025-01-11 07:02:05.86	48.05	16.41	
2025-01-11 07:02:06.07	48.09	16.43	
2025-01-11 07:02:06.27	48.13	16.45	
2025-01-11 07:02:06.47	48.17	16.46	
2025-01-11 07:02:06.69	48.21	16.48	
2025-01-11 07:02:06.90	48.25	16.50	
2025-01-11 07:02:07.10	48.29	16.51	
2025-01-11 07:02:07.31	48.33	16.53	
2025-01-11 07:02:07.51	48.37	16.55	
2025-01-11 07:02:07.71	48.41	16.56	
2025-01-11 07:02:07.92	48.46	16.58	
2025-01-11 07:02:08.13	48.50	16.60	
2025-01-11 07:02:08.33	48.54	16.61	
2025-01-11 07:02:08.54	48.58	16.63	
2025-01-11 07:02:08.74	48.62	16.64	
2025-01-11 07:02:08.95	48.66	16.66	
2025-01-11 07:02:09.15	48.70	16.68	
2025-01-11 07:02:09.36	48.74	16.69	
2025-01-11 07:02:09.56	48.78	16.71	
2025-01-11 07:02:09.77	48.83	16.73	
2025-01-11 07:02:09.97	48.87	16.74	
2025-01-11 07:02:10.18	48.91	16.76	
2025-01-11 07:02:10.38	48.95	16.77	
2025-01-11 07:02:10.59	48.99	16.79	
2025-01-11 07:02:10.79	49.03	16.81	
2025-01-11 07:02:11.00	49.08	16.82	
2025-01-11 07:02:11.21	49.12	16.84	
2025-01-11 07:02:11.41	49.16	16.86	
2025-01-11 07:02:11.62	49.20	16.87	
2025-01-11 07:02:11.82	49.24	16.89	
2025-01-11 07:02:12.03	49.28	16.91	
2025-01-11 07:02:12.23	49.33	16.92	
2025-01-11 07:02:12.44	49.37	16.94	
2025-01-11 07:02:12.64	49.41	16.95	
2025-01-11 07:02:12.85	49.45	16.97	
2025-01-11 07:02:13.06	49.50	16.99	
2025-01-11 07:02:13.27	49.54	17.00	
2025-01-11 07:02:13.47	49.58	17.02	
2025-01-11 07:02:13.68	49.62	17.04	
2025-01-11 07:02:13.88	49.66	17.05	
2025-01-11 07:02:14.10	49.71	17.07	
2025-01-11 07:02:14.31	49.75	17.09	
2025-01-11 07:02:14.51	49.79	17.10	
2025-01-11 07:02:14.72	49.84	17.12	
2025-01-11 07:02:14.93	49.88	17.14	
2025-01-11 07:02:15.13	49.92	17.15	
2025-01-11 07:02:15.34	49.97	17.17	
2025-01-11 07:02:15.54	50.01	17.18	
2025-01-11 07:02:15.75	50.05	17.20	
2025-01-11 07:02:15.95	50.09	17.22	
2025-01-11 07:02:16.17	50.14	17.23	
2025-01-11 07:02:16.37	50.18	17.25	
2025-01-11 07:02:16.58	50.22	17.27	
2025-01-11 07:02:16.79	50.27	17.28	
2025-01-11 07:02:16.99	50.31	17.30	
2025-01-11 07:02:17.20	50.35	17.31	
2025-01-11 07:02:17.40	50.40	17.33	
2025-01-11 07:02:17.61	50.44	17.35	
2025-01-11 07:02:17.82	50.49	17.36	
2025-01-11 07:02:18.02	50.53	17.38	
2025-01-11 07:02:18.22	50.57	17.40	
2025-01-11 07:02:18.43	50.61	17.41	
2025-01-11 07:02:18.64	50.66	17.43	
2025-01-11 07:02:18.84	50.70	17.44	
2025-01-11 07:02:19.05	50.74	17.46	
2025-01-11 07:02:19.25	50.79	17.48	
2025-01-11 07:02:19.46	50.83	17.49	
2025-01-11 07:02:19.66	50.87	17.51	
2025-01-11 07:02:19.87	50.92	17.53	
2025-01-11 07:02:20.07	50.96	17.54	
2025-01-11 07:02:20.28	51.01	17.56	
2025-01-11 07:02:20.48	51.05	17.57	
2025-01-11 07:02:20.69	51.09	17.59	
2025-01-11 07:02:20.89	51.14	17.61	
2025-01-11 07:02:21.10	51.18	17.62	
2025-01-11 07:02:21.30	51.22	17.64	
2025-01-11 07:02:21.51	51.27	17.65	
2025-01-11 07:02:21.71	51.31	17.67	
2025-01-11 07:02:21.92	51.36	17.69	
2025-01-11 07:02:22.12	51.40	17.70	
2025-01-11 07:02:22.33	51.45	17.72	
2025-01-11 07:02:22.53	51.49	17.74	
2025-01-11 07:02:22.74	51.53	17.75	
2025-01-11 07:02:22.94	51.58	17.77	
2025-01-11 07:02:23.15	51.62	17.78	
2025-01-11 07:02:23.35	51.67	17.80	
2025-01-11 07:02:23.56	51.71	17.82	
2025-01-11 07:02:23.76	51.76	17.83	
2025-01-11 07:02:23.97	51.80	17.85	
2025-01-11 07:02:24.17	51.85	17.86	
2025-01-11 07:02:24.38	51.89	17.88	
2025-01-11 07:02:24.58	51.93	17.90	
2025-01-11 07:02:24.78	51.98	17.91	
2025-01-11 07:02:24.99	52.02	17.93	
2025-01-11 07:02:25.20	52.07	17.94	
2025-01-11 07:02:25.40	52.11	17.96	
2025-01-11 07:02:25.61	52.16	17.98	
2025-01-11 07:02:25.81	52.20	17.99	
2025-01-11 07:02:26.02	52.25	18.01	
2025-01-11 07:02:26.22	52.29	18.02	
2025-01-11 07:02:26.43	52.34	18.04	
2025-01-11 07:02:26.63	52.38	18.06	
2025-01-11 07:02:26.84	52.43	18.07	
2025-01-11 07:02:27.04	52.48	18.09	
2025-01-11 07:02:27.25	52.52	18.11	
2025-01-11 07:02:27.45	52.57	18.12	
2025-01-11 07:02:27.66	52.61	18.14	
2025-01-11 07:02:27.86	52.66	18.15	
2025-01-11 07:02:28.07	52.70	18.17	
2025-01-11 07:02:28.28	52.75	18.19	
2025-01-11 07:02:28.48	52.80	18.20	
2025-01-11 07:02:28.69	52.84	18.22	
2025-01-11 07:02:28.89	52.89	18.23	
2025-01-11 07:02:29.10	52.93	18.25	
2025-01-11 07:02:29.30	52.98	18.26	
2025-01-11 07:02:29.50	53.02	18.28	
2025-01-11 07:02:29.71	53.07	18.30	
2025-01-11 07:02:29.91	53.12	18.31	
2025-01-11 07:02:30.13	53.17	18.33	
2025-01-11 07:02:30.34	53.21	18.35	
2025-01-11 07:02:30.54	53.26	18.36	
2025-01-11 07:02:30.75	53.30	18.38	
2025-01-11 07:02:30.96	53.35	18.39	
2025-01-11 07:02:31.16	53.40	18.41	
2025-01-11 07:02:31.36	53.44	18.42	
2025-01-11 07:02:31.57	53.49	18.44	
2025-01-11 07:02:31.78	53.54	18.46	
2025-01-11 07:02:31.98	53.58	18.47	
2025-01-11 07:02:32.18	53.63	18.49	
2025-01-11 07:02:32.39	53.68	18.50	
2025-01-11 07:02:32.60	53.72	18.52	
2025-01-11 07:02:32.80	53.77	18.54	
2025-01-11 07:02:33.01	53.82	18.55	
2025-01-11 07:02:33.21	53.86	18.57	
2025-01-11 07:02:33.42	53.91	18.58	
2025-01-11 07:02:33.62	53.96	18.60	
2025-01-11 07:02:33.83	54.01	18.62	
2025-01-11 07:02:34.04	54.05	18.63	
2025-01-11 07:02:34.24	54.10	18.65	
2025-01-11 07:02:34.46	54.15	18.66	
2025-01-11 07:02:34.68	54.20	18.68	
2025-01-11 07:02:34.88	54.25	18.70	
2025-01-11 07:02:35.09	54.30	18.71	
2025-01-11 07:02:35.29	54.34	18.73	
2025-01-11 07:02:35.50	54.39	18.74	
2025-01-11 07:02:35.70	54.44	18.76	
2025-01-11 07:02:35.91	54.49	18.78	
2025-01-11 07:02:36.11	54.53	18.79	
2025-01-11 07:02:36.32	54.58	18.81	
2025-01-11 07:02:36.52	54.63	18.82	
2025-01-11 07:02:36.73	54.68	18.84	
2025-01-11 07:02:36.93	54.72	18.85	
2025-01-11 07:02:37.14	54.77	18.87	
2025-01-11 07:02:37.34	54.82	18.89	
2025-01-11 07:02:37.55	54.87	18.90	
2025-01-11 07:02:37.75	54.91	18.92	
2025-01-11 07:02:37.96	54.96	18.93	
2025-01-11 07:02:38.17	55.01	18.95	
2025-01-11 07:02:38.37	55.06	18.96	
2025-01-11 07:02:38.57	55.11	18.98	
2025-01-11 07:02:38.78	55.16	19.00	
2025-01-11 07:02:38.99	55.21	19.01	
2025-01-11 07:02:39.19	55.25	19.03	
2025-01-11 07:02:39.40	55.30	19.04	
2025-01-11 07:02:39.60	55.35	19.06	
2025-01-11 07:02:39.81	55.40	19.07	
2025-01-11 07:02:40.01	55.45	19.09	
2025-01-11 07:02:40.22	55.50	19.11	
2025-01-11 07:02:40.42	55.54	19.12	
2025-01-11 07:02:40.63	55.59	19.14	
2025-01-11 07:02:40.85	55.65	19.15	
2025-01-11 07:02:41.05	55.69	19.17	
2025-01-11 07:02:41.26	55.74	19.18	
2025-01-11 07:02:41.46	55.79	19.20	
2025-01-11 07:02:41.67	55.84	19.22	
2025-01-11 07:02:41.88	55.89	19.23	
2025-01-11 07:02:42.09	55.94	19.25	
2025-01-11 07:02:42.30	55.99	19.26	
2025-01-11 07:02:42.50	56.04	19.28	
2025-01-11 07:02:42.71	56.09	19.29	
2025-01-11 07:02:42.91	56.14	19.31	
2025-01-11 07:02:43.12	56.19	19.33	
2025-01-11 07:02:43.32	56.24	19.34	
2025-01-11 07:02:43.53	56.29	19.36	
2025-01-11 07:02:43.73	56.34	19.37	
2025-01-11 07:02:43.94	56.39	19.39	
2025-01-11 07:02:44.14	56.44	19.40	
2025-01-11 07:02:44.35	56.49	19.42	
2025-01-11 07:02:44.56	56.54	19.43	
2025-01-11 07:02:44.76	56.59	19.45	
2025-01-11 07:02:44.96	56.63	19.46	
2025-01-11 07:02:45.17	56.69	19.48	
2025-01-11 07:02:45.38	56.74	19.50	
2025-01-11 07:02:45.58	56.79	19.51	
2025-01-11 07:02:45.79	56.84	19.53	
2025-01-11 07:02:45.99	56.89	19.54	
2025-01-11 07:02:46.19	56.93	19.56	
2025-01-11 07:02:46.40	56.99	19.57	
2025-01-11 07:02:46.61	57.04	19.59	
2025-01-11 07:02:46.81	57.09	19.60	
2025-01-11 07:02:47.02	57.14	19.62	
2025-01-11 07:02:47.23	57.19	19.63	
2025-01-11 07:02:47.44	57.24	19.65	
2025-01-11 07:02:47.65	57.29	19.66	
2025-01-11 07:02:47.85	57.34	19.68	
2025-01-11 07:02:48.06	57.39	19.70	
2025-01-11 07:02:48.26	57.44	19.71	
2025-01-11 07:02:48.47	57.50	19.73	
2025-01-11 07:02:48.67	57.54	19.74	
2025-01-11 07:02:48.88	57.60	19.76	
2025-01-11 07:02:49.08	57.65	19.77	
2025-01-11 07:02:49.29	57.70	19.79	
2025-01-11 07:02:49.49	57.75	19.80	
2025-01-11 07:02:49.70	57.80	19.82	
2025-01-11 07:02:49.90	57.85	19.83	
2025-01-11 07:02:50.11	57.90	19.85	
2025-01-11 07:02:50.31	57.95	19.86	
2025-01-11 07:02:50.52	58.00	19.88	
2025-01-11 07:02:50.72	58.05	19.89	
2025-01-11 07:02:50.93	58.11	19.91	
2025-01-11 07:02:51.14	58.16	19.92	
2025-01-11 07:02:51.34	58.21	19.94	
2025-01-11 07:02:51.55	58.26	19.95	
2025-01-11 07:02:51.75	58.31	19.97	
2025-01-11 07:02:51.96	58.37	19.98	
2025-01-11 07:02:52.16	58.42	20.00	
2025-01-11 07:02:52.37	58.47	20.01	
2025-01-11 07:02:52.58	58.52	20.03	
2025-01-11 07:02:52.78	58.57	20.04	
2025-01-11 07:02:52.99	58.63	20.06	
2025-01-11 07:02:53.19	58.68	20.07	
2025-01-11 07:02:53.40	58.73	20.09	
2025-01-11 07:02:53.61	58.78	20.10	
2025-01-11 07:02:53.82	58.84	20.12	
2025-01-11 07:02:54.03	58.89	20.13	
2025-01-11 07:02:54.23	58.94	20.15	
2025-01-11 07:02:54.44	58.99	20.16	
2025-01-11 07:02:54.64	59.04	20.18	
2025-01-11 07:02:54.85	59.10	20.19	
2025-01-11 07:02:55.05	59.15	20.21	
2025-01-11 07:02:55.26	59.20	20.22	
2025-01-11 07:02:55.47	59.26	20.24	
2025-01-11 07:02:55.67	59.31	20.25	
2025-01-11 07:02:55.88	59.36	20.27	
2025-01-11 07:02:56.08	59.41	20.28	
2025-01-11 07:02:56.29	59.47	20.30	
2025-01-11 07:02:56.49	59.52	20.31	
2025-01-11 07:02:56.70	59.57	20.33	
2025-01-11 07:02:56.90	59.62	20.34	
2025-01-11 07:02:57.10	59.68	20.35	
2025-01-11 07:02:57.31	59.73	20.37	
2025-01-11 07:02:57.51	59.78	20.38	
2025-01-11 07:02:57.72	59.84	20.40	
2025-01-11 07:02:57.92	59.89	20.41	
2025-01-11 07:02:58.13	59.94	20.43	
2025-01-11 07:02:58.33	59.99	20.44	
2025-01-11 07:02:58.54	60.05	20.46	
2025-01-11 07:02:58.74	60.10	20.47	
2025-01-11 07:02:58.95	60.16	20.49	
2025-01-11 07:02:59.15	60.21	20.50	
2025-01-11 07:02:59.36	60.26	20.52	
2025-01-11 07:02:59.56	60.31	20.53	
2025-01-11 07:02:59.77	60.37	20.54	
2025-01-11 07:02:59.97	60.42	20.56	
2025-01-11 07:03:00.17	60.47	20.57	
2025-01-11 07:03:00.38	60.53	20.59	
2025-01-11 07:03:00.59	60.58	20.60	
2025-01-11 07:03:00.79	60.64	20.62	
2025-01-11 07:03:00.99	60.69	20.63	
2025-01-11 07:03:01.20	60.74	20.65	
2025-01-11 07:03:01.41	60.80	20.66	
2025-01-11 07:03:01.61	60.85	20.67	
2025-01-11 07:03:01.82	60.91	20.69	
2025-01-11 07:03:02.02	60.96	20.70	
2025-01-11 07:03:02.23	61.02	20.72	
2025-01-11 07:03:02.43	61.07	20.73	
2025-01-11 07:03:02.64	61.12	20.75	
2025-01-11 07:03:02.84	61.18	20.76	
2025-01-11 07:03:03.05	61.23	20.77	
2025-01-11 07:03:03.25	61.29	20.79	
2025-01-11 07:03:03.46	61.34	20.80	
2025-01-11 07:03:03.66	61.40	20.82	
2025-01-11 07:03:03.87	61.45	20.83	
2025-01-11 07:03:04.08	61.51	20.85	
2025-01-11 07:03:04.28	61.56	20.86	
2025-01-11 07:03:04.48	61.61	20.87	
2025-01-11 07:03:04.69	61.67	20.89	
2025-01-11 07:03:04.89	61.72	20.90	
2025-01-11 07:03:05.10	61.78	20.92	
2025-01-11 07:03:05.30	61.83	20.93	
2025-01-11 07:03:05.51	61.89	20.94	
2025-01-11 07:03:05.71	61.94	20.96	
2025-01-11 07:03:05.92	62.00	20.97	
2025-01-11 07:03:06.12	62.05	20.99	
2025-01-11 07:03:06.33	62.11	21.00	
2025-01-11 07:03:06.53	62.17	21.01	
2025-01-11 07:03:06.74	62.22	21.03	
2025-01-11 07:03:06.94	62.28	21.04	
2025-01-11 07:03:07.15	62.33	21.06	
2025-01-11 07:03:07.37	62.39	21.07	
2025-01-11 07:03:07.58	62.45	21.08	
2025-01-11 07:03:07.79	62.51	21.10	
2025-01-11 07:03:07.99	62.56	21.11	
2025-01-11 07:03:08.20	62.62	21.13	
2025-01-11 07:03:08.40	62.67	21.14	
2025-01-11 07:03:08.61	62.73	21.15	
2025-01-11 07:03:08.81	62.78	21.17	
2025-01-11 07:03:09.02	62.84	21.18	
2025-01-11 07:03:09.23	62.90	21.20	
2025-01-11 07:03:09.43	62.95	21.21	
2025-01-11 07:03:09.64	63.01	21.22	
2025-01-11 07:03:09.84	63.06	21.24	
2025-01-11 07:03:10.05	63.12	21.25	
2025-01-11 07:03:10.25	63.18	21.26	
2025-01-11 07:03:10.46	63.23	21.28	
2025-01-11 07:03:10.66	63.29	21.29	
2025-01-11 07:03:10.86	63.34	21.30	
2025-01-11 07:03:11.07	63.40	21.32	
2025-01-11 07:03:11.27	63.46	21.33	
2025-01-11 07:03:11.48	63.52	21.35	
2025-01-11 07:03:11.70	63.58	21.36	
2025-01-11 07:03:11.90	63.63	21.37	
2025-01-11 07:03:12.11	63.69	21.39	
2025-01-11 07:03:12.31	63.74	21.40	
2025-01-11 07:03:12.52	63.80	21.41	
2025-01-11 07:03:12.72	63.86	21.43	
2025-01-11 07:03:12.93	63.92	21.44	
2025-01-11 07:03:13.13	63.97	21.45	
2025-01-11 07:03:13.34	64.03	21.47	
2025-01-11 07:03:13.55	64.09	21.48	
2025-01-11 07:03:13.76	64.15	21.49	
2025-01-11 07:03:13.97	64.21	21.51	
2025-01-11 07:03:14.18	64.26	21.52	
2025-01-11 07:03:14.38	64.32	21.54	
2025-01-11 07:03:14.59	64.38	21.55	
2025-01-11 07:03:14.79	64.44	21.56	
2025-01-11 07:03:15.00	64.49	21.57	
2025-01-11 07:03:15.20	64.55	21.59	
2025-01-11 07:03:15.41	64.61	21.60	
2025-01-11 07:03:15.62	64.67	21.61	
2025-01-11 07:03:15.82	64.72	21.63	
2025-01-11 07:03:16.02	64.78	21.64	
2025-01-11 07:03:16.23	64.84	21.65	
2025-01-11 07:03:16.43	64.90	21.67	
2025-01-11 07:03:16.64	64.96	21.68	
2025-01-11 07:03:16.84	65.01	21.69	
2025-01-11 07:03:17.05	65.07	21.71	
2025-01-11 07:03:17.26	65.13	21.72	
2025-01-11 07:03:17.46	65.19	21.73	
2025-01-11 07:03:17.67	65.25	21.74	
2025-01-11 07:03:17.87	65.30	21.76	
2025-01-11 07:03:18.09	65.37	21.77	
2025-01-11 07:03:18.29	65.42	21.78	
2025-01-11 07:03:18.50	65.48	21.80	
2025-01-11 07:03:18.71	65.54	21.81	
2025-01-11 07:03:18.91	65.60	21.82	
2025-01-11 07:03:19.11	65.66	21.84	
2025-01-11 07:03:19.32	65.72	21.85	
2025-01-11 07:03:19.53	65.78	21.86	
2025-01-11 07:03:19.73	65.83	21.87	
2025-01-11 07:03:19.94	65.89	21.89	
2025-01-11 07:03:20.14	65.95	21.90	
2025-01-11 07:03:20.35	66.01	21.91	
2025-01-11 07:03:20.55	66.07	21.92	
2025-01-11 07:03:20.75	66.12	21.94	
2025-01-11 07:03:20.96	66.18	21.95	
2025-01-11 07:03:21.17	66.25	21.96	
2025-01-11 07:03:21.37	66.30	21.97	
2025-01-11 07:03:21.58	66.36	21.99	
2025-01-11 07:03:21.78	66.42	22.00	
2025-01-11 07:03:21.99	66.48	22.01	
2025-01-11 07:03:22.19	66.54	22.02	
2025-01-11 07:03:22.41	66.60	22.04	
2025-01-11 07:03:22.62	66.66	22.05	
2025-01-11 07:03:22.82	66.72	22.06	
2025-01-11 07:03:23.03	66.78	22.08	
2025-01-11 07:03:23.24	66.84	22.09	
2025-01-11 07:03:23.44	66.90	22.10	
2025-01-11 07:03:23.65	66.96	22.11	
2025-01-11 07:03:23.85	67.02	22.12	
2025-01-11 07:03:24.06	67.08	22.14	
2025-01-11 07:03:24.27	67.14	22.15	
2025-01-11 07:03:24.47	67.20	22.16	
2025-01-11 07:03:24.67	67.26	22.17	
2025-01-11 07:03:24.88	67.32	22.19	
2025-01-11 07:03:25.08	67.38	22.20	
2025-01-11 07:03:25.29	67.44	22.21	
2025-01-11 07:03:25.49	67.50	22.22	
2025-01-11 07:03:25.69	67.56	22.23	
2025-01-11 07:03:25.90	67.62	22.25	
2025-01-11 07:03:26.11	67.68	22.26	
2025-01-11 07:03:26.31	67.74	22.27	
2025-01-11 07:03:26.51	67.80	22.28	
2025-01-11 07:03:26.72	67.86	22.29	
2025-01-11 07:03:26.93	67.92	22.31	
2025-01-11 07:03:27.13	67.98	22.32	
2025-01-11 07:03:27.34	68.04	22.33	
2025-01-11 07:03:27.54	68.10	22.34	
2025-01-11 07:03:27.75	68.16	22.35	
2025-01-11 07:03:27.95	68.22	22.36	
2025-01-11 07:03:28.16	68.28	22.38	
2025-01-11 07:03:28.36	68.34	22.39	
2025-01-11 07:03:28.57	68.40	22.40	
2025-01-11 07:03:28.77	68.46	22.41	
2025-01-11 07:03:28.98	68.53	22.42	
2025-01-11 07:03:29.18	68.58	22.43	
2025-01-11 07:03:29.39	68.65	22.45	
2025-01-11 07:03:29.59	68.71	22.46	
2025-01-11 07:03:29.80	68.77	22.47	
2025-01-11 07:03:30.00	68.83	22.48	
2025-01-11 07:03:30.21	68.89	22.49	
2025-01-11 07:03:30.41	68.95	22.50	
2025-01-11 07:03:30.62	69.01	22.51	
2025-01-11 07:03:30.82	69.07	22.53	
2025-01-11 07:03:31.03	69.14	22.54	
2025-01-11 07:03:31.23	69.20	22.55	
2025-01-11 07:03:31.44	69.26	22.56	
2025-01-11 07:03:31.65	69.32	22.57	
2025-01-11 07:03:31.85	69.38	22.58	
2025-01-11 07:03:32.05	69.44	22.59	
2025-01-11 07:03:32.26	69.50	22.61	
2025-01-11 07:03:32.46	69.56	22.62	
2025-01-11 07:03:32.67	69.63	22.63	
2025-01-11 07:03:32.87	69.69	22.64	
2025-01-11 07:03:33.08	69.75	22.65	
2025-01-11 07:03:33.28	69.81	22.66	
2025-01-11 07:03:33.49	69.87	22.67	
2025-01-11 07:03:33.70	69.94	22.68	
2025-01-11 07:03:33.90	70.00	22.69	
2025-01-11 07:03:34.11	70.06	22.71	
2025-01-11 07:03:34.31	70.12	22.72	
2025-01-11 07:03:34.52	70.18	22.73	
2025-01-11 07:03:34.72	70.25	22.74	
2025-01-11 07:03:34.93	70.31	22.75	
2025-01-11 07:03:35.15	70.38	22.76	
2025-01-11 07:03:35.35	70.44	22.77	
2025-01-11 07:03:35.56	70.50	22.78	
2025-01-11 07:03:35.76	70.56	22.79	
2025-01-11 07:03:35.97	70.62	22.80	
2025-01-11 07:03:36.17	70.69	22.81	
2025-01-11 07:03:36.38	70.75	22.82	
2025-01-11 07:03:36.58	70.81	22.84	
2025-01-11 07:03:36.79	70.87	22.85	
2025-01-11 07:03:36.99	70.94	22.86	
2025-01-11 07:03:37.20	71.00	22.87	
2025-01-11 07:03:37.40	71.06	22.88	
2025-01-11 07:03:37.60	71.12	22.89	
2025-01-11 07:03:37.81	71.19	22.90	
2025-01-11 07:03:38.02	71.25	22.91	
2025-01-11 07:03:38.22	71.31	22.92	
2025-01-11 07:03:38.43	71.38	22.93	
2025-01-11 07:03:38.63	71.44	22.94	
2025-01-11 07:03:38.84	71.50	22.95	
2025-01-11 07:03:39.04	71.56	22.96	
2025-01-11 07:03:39.25	71.63	22.97	
2025-01-11 07:03:39.45	71.69	22.98	
2025-01-11 07:03:39.66	71.75	22.99	
2025-01-11 07:03:39.86	71.82	23.00	
2025-01-11 07:03:40.07	71.88	23.01	
2025-01-11 07:03:40.27	71.94	23.02	
2025-01-11 07:03:40.48	72.01	23.03	
2025-01-11 07:03:40.68	72.07	23.04	
2025-01-11 07:03:40.89	72.13	23.05	
2025-01-11 07:03:41.09	72.19	23.06	
2025-01-11 07:03:41.30	72.26	23.07	
2025-01-11 07:03:41.50	72.32	23.08	
2025-01-11 07:03:41.71	72.39	23.09	
2025-01-11 07:03:41.92	72.45	23.10	
2025-01-11 07:03:42.12	72.51	23.11	
2025-01-11 07:03:42.33	72.58	23.12	
2025-01-11 07:03:42.54	72.64	23.13	
2025-01-11 07:03:42.74	72.71	23.14	
2025-01-11 07:03:42.94	72.77	23.15	
2025-01-11 07:03:43.15	72.83	23.16	
2025-01-11 07:03:43.35	72.90	23.17	
2025-01-11 07:03:43.56	72.96	23.18	
2025-01-11 07:03:43.77	73.03	23.19	
2025-01-11 07:03:43.97	73.09	23.20	
2025-01-11 07:03:44.18	73.16	23.21	
2025-01-11 07:03:44.38	73.22	23.22	
2025-01-11 07:03:44.59	73.28	23.23	
2025-01-11 07:03:44.79	73.35	23.24	
2025-01-11 07:03:45.00	73.41	23.25	
2025-01-11 07:03:45.21	73.48	23.26	
2025-01-11 07:03:45.41	73.54	23.26	
2025-01-11 07:03:45.62	73.61	23.27	
2025-01-11 07:03:45.83	73.67	23.28	
2025-01-11 07:03:46.04	73.74	23.29	
2025-01-11 07:03:46.24	73.80	23.30	
2025-01-11 07:03:46.45	73.87	23.31	
2025-01-11 07:03:46.66	73.93	23.32	
2025-01-11 07:03:46.86	74.00	23.33	
2025-01-11 07:03:47.06	74.06	23.34	
2025-01-11 07:03:47.27	74.12	23.35	
2025-01-11 07:03:47.48	74.19	23.36	
2025-01-11 07:03:47.68	74.25	23.37	
2025-01-11 07:03:47.89	74.32	23.37	
2025-01-11 07:03:48.09	74.38	23.38	
2025-01-11 07:03:48.30	74.45	23.39	
2025-01-11 07:03:48.50	74.51	23.40	
2025-01-11 07:03:48.71	74.58	23.41	
2025-01-11 07:03:48.91	74.64	23.42	
2025-01-11 07:03:49.12	74.71	23.43	
2025-01-11 07:03:49.32	74.77	23.44	
2025-01-11 07:03:49.53	74.84	23.44	
2025-01-11 07:03:49.73	74.90	23.45	
2025-01-11 07:03:49.94	74.97	23.46	
2025-01-11 07:03:50.16	75.04	23.47	
2025-01-11 07:03:50.36	75.10	23.48	
2025-01-11 07:03:50.57	75.17	23.49	
2025-01-11 07:03:50.78	75.24	23.50	
2025-01-11 07:03:50.98	75.30	23.51	
2025-01-11 07:03:51.19	75.37	23.51	
2025-01-11 07:03:51.39	75.43	23.52	
2025-01-11 07:03:51.60	75.50	23.53	
2025-01-11 07:03:51.80	75.56	23.54	
2025-01-11 07:03:52.01	75.63	23.55	
2025-01-11 07:03:52.21	75.69	23.55	
2025-01-11 07:03:52.41	75.76	23.56	
2025-01-11 07:03:52.62	75.82	23.57	
2025-01-11 07:03:52.83	75.89	23.58	
2025-01-11 07:03:53.03	75.95	23.59	
2025-01-11 07:03:53.24	76.02	23.60	
2025-01-11 07:03:53.44	76.09	23.60	
2025-01-11 07:03:53.65	76.15	23.61	
2025-01-11 07:03:53.85	76.22	23.62	
2025-01-11 07:03:54.06	76.29	23.63	
2025-01-11 07:03:54.27	76.35	23.64	
2025-01-11 07:03:54.47	76.42	23.64	
2025-01-11 07:03:54.67	76.48	23.65	
2025-01-11 07:03:54.88	76.55	23.66	
2025-01-11 07:03:55.08	76.61	23.67	
2025-01-11 07:03:55.29	76.68	23.67	
2025-01-11 07:03:55.49	76.75	23.68	
2025-01-11 07:03:55.70	76.81	23.69	
2025-01-11 07:03:55.90	76.88	23.70	
2025-01-11 07:03:56.11	76.95	23.70	
2025-01-11 07:03:56.31	77.01	23.71	
2025-01-11 07:03:56.52	77.08	23.72	
2025-01-11 07:03:56.72	77.14	23.73	
2025-01-11 07:03:56.93	77.21	23.73	
2025-01-11 07:03:57.14	77.28	23.74	
2025-01-11 07:03:57.34	77.34	23.75	
2025-01-11 07:03:57.55	77.41	23.76	
2025-01-11 07:03:57.75	77.48	23.76	
2025-01-11 07:03:57.95	77.54	23.77	
2025-01-11 07:03:58.16	77.61	23.78	
2025-01-11 07:03:58.37	77.68	23.79	
2025-01-11 07:03:58.57	77.74	23.79	
2025-01-11 07:03:58.77	77.81	23.80	
2025-01-11 07:03:58.98	77.87	23.81	
2025-01-11 07:03:59.18	77.94	23.81	
2025-01-11 07:03:59.39	78.01	23.82	
2025-01-11 07:03:59.59	78.07	23.83	
2025-01-11 07:03:59.80	78.14	23.83	
2025-01-11 07:04:00.01	78.21	23.84	
2025-01-11 07:04:00.22	78.28	23.85	
2025-01-11 07:04:00.43	78.35	23.86	
2025-01-11 07:04:00.65	78.42	23.86	
2025-01-11 07:04:00.86	78.49	23.87	
2025-01-11 07:04:01.06	78.55	23.88	
2025-01-11 07:04:01.27	78.62	23.88	
2025-01-11 07:04:01.48	78.69	23.89	
2025-01-11 07:04:01.68	78.75	23.90	
2025-01-11 07:04:01.88	78.82	23.90	
2025-01-11 07:04:02.09	78.89	23.91	
2025-01-11 07:04:02.30	78.96	23.92	
2025-01-11 07:04:02.50	79.02	23.92	
2025-01-11 07:04:02.71	79.09	23.93	
2025-01-11 07:04:02.91	79.16	23.93	
2025-01-11 07:04:03.12	79.23	23.94	
2025-01-11 07:04:03.32	79.29	23.95	
2025-01-11 07:04:03.53	79.36	23.95	
2025-01-11 07:04:03.74	79.43	23.96	
2025-01-11 07:04:03.94	79.50	23.97	
2025-01-11 07:04:04.14	79.56	23.97	
2025-01-11 07:04:04.35	79.63	23.98	
2025-01-11 07:04:04.55	79.70	23.98	
2025-01-11 07:04:04.76	79.76	23.99	
2025-01-11 07:04:04.96	79.83	24.00	
2025-01-11 07:04:05.17	79.90	24.00	
2025-01-11 07:04:05.37	79.97	24.01	
2025-01-11 07:04:05.58	80.03	24.01	
2025-01-11 07:04:05.79	80.10	24.02	
2025-01-11 07:04:05.99	80.17	24.03	
2025-01-11 07:04:06.20	80.24	24.03	
2025-01-11 07:04:06.40	80.30	24.04	
2025-01-11 07:04:06.61	80.37	24.04	
2025-01-11 07:04:06.81	80.44	24.05	
2025-01-11 07:04:07.02	80.51	24.05	
2025-01-11 07:04:07.22	80.58	24.06	
2025-01-11 07:04:07.43	80.65	24.06	
2025-01-11 07:04:07.63	80.71	24.07	
2025-01-11 07:04:07.84	80.78	24.08	
2025-01-11 07:04:08.04	80.85	24.08	
2025-01-11 07:04:08.25	80.92	24.09	
2025-01-11 07:04:08.45	80.98	24.09	
2025-01-11 07:04:08.66	81.05	24.10	
2025-01-11 07:04:08.87	81.12	24.10	
2025-01-11 07:04:09.07	81.19	24.11	
2025-01-11 07:04:09.27	81.25	24.11	
2025-01-11 07:04:09.48	81.32	24.12	
2025-01-11 07:04:09.69	81.39	24.12	
2025-01-11 07:04:09.89	81.46	24.13	
2025-01-11 07:04:10.10	81.53	24.13	
2025-01-11 07:04:10.30	81.60	24.14	
2025-01-11 07:04:10.51	81.67	24.14	
2025-01-11 07:04:10.71	81.73	24.15	
2025-01-11 07:04:10.92	81.80	24.15	
2025-01-11 07:04:11.12	81.87	24.16	
2025-01-11 07:04:11.33	81.94	24.16	
2025-01-11 07:04:11.53	82.01	24.17	
2025-01-11 07:04:11.74	82.07	24.17	
2025-01-11 07:04:11.94	82.14	24.18	
2025-01-11 07:04:12.15	82.21	24.18	
2025-01-11 07:04:12.35	82.28	24.19	
2025-01-11 07:04:12.57	82.35	24.19	
2025-01-11 07:04:12.77	82.42	24.19	
2025-01-11 07:04:12.98	82.49	24.20	
2025-01-11 07:04:13.18	82.55	24.20	
2025-01-11 07:04:13.39	82.62	24.21	
2025-01-11 07:04:13.61	82.70	24.21	
2025-01-11 07:04:13.81	82.77	24.22	
2025-01-11 07:04:14.02	82.84	24.22	
2025-01-11 07:04:14.22	82.90	24.22	
2025-01-11 07:04:14.43	82.97	24.23	
2025-01-11 07:04:14.63	83.04	24.23	
2025-01-11 07:04:14.84	83.11	24.24	
2025-01-11 07:04:15.04	83.18	24.24	
2025-01-11 07:04:15.25	83.25	24.25	
2025-01-11 07:04:15.46	83.32	24.25	
2025-01-11 07:04:15.66	83.38	24.25	
2025-01-11 07:04:15.86	83.45	24.26	
2025-01-11 07:04:16.07	83.52	24.26	
2025-01-11 07:04:16.28	83.59	24.26	
2025-01-11 07:04:16.48	83.66	24.27	
2025-01-11 07:04:16.69	83.73	24.27	
2025-01-11 07:04:16.89	83.80	24.28	
2025-01-11 07:04:17.10	83.87	24.28	
2025-01-11 07:04:17.30	83.93	24.28	
2025-01-11 07:04:17.51	84.00	24.29	
2025-01-11 07:04:17.72	84.07	24.29	
2025-01-11 07:04:17.92	84.14	24.29	
2025-01-11 07:04:18.12	84.21	24.30	
2025-01-11 07:04:18.33	84.28	24.30	
2025-01-11 07:04:18.53	84.35	24.30	
2025-01-11 07:04:18.74	84.42	24.31	
2025-01-11 07:04:18.96	84.49	24.31	
2025-01-11 07:04:19.16	84.56	24.31	
2025-01-11 07:04:19.37	84.63	24.32	
2025-01-11 07:04:19.58	84.70	24.32	
2025-01-11 07:04:19.78	84.77	24.32	
2025-01-11 07:04:19.99	84.84	24.33	
2025-01-11 07:04:20.19	84.90	24.33	
2025-01-11 07:04:20.40	84.97	24.33	
2025-01-11 07:04:20.60	85.04	24.34	
2025-01-11 07:04:20.81	85.11	24.34	
2025-01-11 07:04:21.01	85.18	24.34	
2025-01-11 07:04:21.22	85.25	24.34	
2025-01-11 07:04:21.42	85.32	24.35	
2025-01-11 07:04:21.63	85.39	24.35	
2025-01-11 07:04:21.83	85.46	24.35	
2025-01-11 07:04:22.04	85.53	24.35	
2025-01-11 07:04:22.24	85.59	24.36	
2025-01-11 07:04:22.45	85.67	24.36	
2025-01-11 07:04:22.66	85.74	24.36	
2025-01-11 07:04:22.86	85.80	24.36	
2025-01-11 07:04:23.07	85.87	24.37	
2025-01-11 07:04:23.27	85.94	24.37	
2025-01-11 07:04:23.48	86.01	24.37	
2025-01-11 07:04:23.68	86.08	24.37	
2025-01-11 07:04:23.89	86.15	24.38	
2025-01-11 07:04:24.09	86.22	24.38	
2025-01-11 07:04:24.30	86.29	24.38	
2025-01-11 07:04:24.50	86.36	24.38	
2025-01-11 07:04:24.71	86.43	24.39	
2025-01-11 07:04:24.91	86.50	24.39	
2025-01-11 07:04:25.12	86.57	24.39	
2025-01-11 07:04:25.34	86.64	24.39	
2025-01-11 07:04:25.54	86.71	24.39	
2025-01-11 07:04:25.75	86.78	24.40	
2025-01-11 07:04:25.95	86.85	24.40	
2025-01-11 07:04:26.16	86.92	24.40	
2025-01-11 07:04:26.36	86.99	24.40	
2025-01-11 07:04:26.57	87.06	24.40	
2025-01-11 07:04:26.77	87.12	24.40	
2025-01-11 07:04:26.98	87.19	24.41	
2025-01-11 07:04:27.18	87.26	24.41	
2025-01-11 07:04:27.39	87.33	24.41	
2025-01-11 07:04:27.59	87.40	24.41	
2025-01-11 07:04:27.80	87.47	24.41	
2025-01-11 07:04:28.00	87.54	24.41	
2025-01-11 07:04:28.20	87.61	24.41	
2025-01-11 07:04:28.41	87.68	24.42	
2025-01-11 07:04:28.63	87.75	24.42	
2025-01-11 07:04:28.83	87.82	24.42	
2025-01-11 07:04:29.04	87.89	24.42	
2025-01-11 07:04:29.25	87.96	24.42	
2025-01-11 07:04:29.45	88.03	24.42	
2025-01-11 07:04:29.67	88.11	24.42	
2025-01-11 07:04:29.87	88.17	24.42	
2025-01-11 07:04:30.08	88.24	24.43	
2025-01-11 07:04:30.28	88.31	24.43	
2025-01-11 07:04:30.49	88.38	24.43	
2025-01-11 07:04:30.69	88.45	24.43	
2025-01-11 07:04:30.90	88.52	24.43	
2025-01-11 07:04:31.11	88.59	24.43	
2025-01-11 07:04:31.31	88.66	24.43	
2025-01-11 07:04:31.52	88.73	24.43	
2025-01-11 07:04:31.72	88.80	24.43	
2025-01-11 07:04:31.93	88.87	24.43	
2025-01-11 07:04:32.13	88.94	24.43	
2025-01-11 07:04:32.34	89.01	24.43	
2025-01-11 07:04:32.54	89.08	24.43	
2025-01-11 07:04:32.75	89.15	24.43	
2025-01-11 07:04:32.95	89.22	24.43	
2025-01-11 07:04:33.16	89.29	24.44	
2025-01-11 07:04:33.36	89.36	24.44	
2025-01-11 07:04:33.57	89.43	24.44	
2025-01-11 07:04:33.77	89.49	24.44	
2025-01-11 07:04:33.97	89.56	24.44	
2025-01-11 07:04:34.18	89.63	24.44	
2025-01-11 07:04:34.38	89.70	24.44	
2025-01-11 07:04:34.59	89.77	24.44	
2025-01-11 07:04:34.80	89.84	24.44	
2025-01-11 07:04:35.00	89.91	24.44	
2025-01-11 07:04:35.21	89.98	24.44	
2025-01-11 07:04:35.41	90.05	24.44	
2025-01-11 07:04:35.62	90.12	24.44	
2025-01-11 07:04:35.82	90.19	24.44	
2025-01-11 07:04:36.03	90.26	24.44	
2025-01-11 07:04:36.23	90.33	24.44	
2025-01-11 07:04:36.44	90.40	24.44	
2025-01-11 07:04:36.65	90.47	24.43	
2025-01-11 07:04:36.85	90.54	24.43	
2025-01-11 07:04:37.06	90.61	24.43	
2025-01-11 07:04:37.26	90.68	24.43	
2025-01-11 07:04:37.47	90.75	24.43	
2025-01-11 07:04:37.67	90.82	24.43	
2025-01-11 07:04:37.88	90.89	24.43	
2025-01-11 07:04:38.08	90.95	24.43	
2025-01-11 07:04:38.29	91.03	24.43	
2025-01-11 07:04:38.49	91.09	24.43	
2025-01-11 07:04:38.70	91.16	24.43	
2025-01-11 07:04:38.90	91.23	24.43	
2025-01-11 07:04:39.11	91.30	24.43	
2025-01-11 07:04:39.31	91.37	24.43	
2025-01-11 07:04:39.52	91.44	24.43	
2025-01-11 07:04:39.72	91.51	24.42	
2025-01-11 07:04:39.93	91.58	24.42	
2025-01-11 07:04:40.13	91.65	24.42	
2025-01-11 07:04:40.34	91.72	24.42	
2025-01-11 07:04:40.54	91.79	24.42	
2025-01-11 07:04:40.75	91.86	24.42	
2025-01-11 07:04:40.95	91.93	24.42	
2025-01-11 07:04:41.16	92.00	24.42	
2025-01-11 07:04:41.38	92.07	24.41	
2025-01-11 07:04:41.58	92.14	24.41	
2025-01-11 07:04:41.79	92.21	24.41	
2025-01-11 07:04:41.99	92.28	24.41	
2025-01-11 07:04:42.20	92.35	24.41	
2025-01-11 07:04:42.40	92.42	24.41	
2025-01-11 07:04:42.61	92.49	24.41	
2025-01-11 07:04:42.81	92.56	24.40	
2025-01-11 07:04:43.02	92.63	24.40	
2025-01-11 07:04:43.22	92.70	24.40	
2025-01-11 07:04:43.43	92.77	24.40	
2025-01-11 07:04:43.63	92.83	24.40	
2025-01-11 07:04:43.84	92.90	24.40	
2025-01-11 07:04:44.04	92.97	24.39	
2025-01-11 07:04:44.25	93.04	24.39	
2025-01-11 07:04:44.45	93.11	24.39	
2025-01-11 07:04:44.66	93.18	24.39	
2025-01-11 07:04:44.86	93.25	24.39	
2025-01-11 07:04:45.07	93.32	24.38	
2025-01-11 07:04:45.27	93.39	24.38	
2025-01-11 07:04:45.48	93.46	24.38	
2025-01-11 07:04:45.68	93.53	24.38	
2025-01-11 07:04:45.89	93.60	24.38	
2025-01-11 07:04:46.09	93.67	24.37	
2025-01-11 07:04:46.30	93.74	24.37	
2025-01-11 07:04:46.50	93.80	24.37	
2025-01-11 07:04:46.70	93.87	24.37	
2025-01-11 07:04:46.91	93.94	24.36	
2025-01-11 07:04:47.12	94.01	24.36	
2025-01-11 07:04:47.32	94.08	24.36	
2025-01-11 07:04:47.53	94.15	24.36	
2025-01-11 07:04:47.73	94.22	24.35	
2025-01-11 07:04:47.94	94.29	24.35	
2025-01-11 07:04:48.14	94.36	24.35	
2025-01-11 07:04:48.35	94.43	24.34	
2025-01-11 07:04:48.56	94.50	24.34	
2025-01-11 07:04:48.76	94.57	24.34	
2025-01-11 07:04:48.96	94.63	24.34	
2025-01-11 07:04:49.17	94.70	24.33	
2025-01-11 07:04:49.37	94.77	24.33	
2025-01-11 07:04:49.58	94.84	24.33	
2025-01-11 07:04:49.78	94.91	24.32	
2025-01-11 07:04:49.99	94.98	24.32	
2025-01-11 07:04:50.19	95.05	24.32	
2025-01-11 07:04:50.40	95.12	24.32	
2025-01-11 07:04:50.60	95.19	24.31	
2025-01-11 07:04:50.81	95.26	24.31	
2025-01-11 07:04:51.01	95.32	24.31	
2025-01-11 07:04:51.22	95.39	24.30	
2025-01-11 07:04:51.42	95.46	24.30	
2025-01-11 07:04:51.63	95.53	24.30	
2025-01-11 07:04:51.84	95.60	24.29	
2025-01-11 07:04:52.04	95.67	24.29	
2025-01-11 07:04:52.25	95.74	24.28	
2025-01-11 07:04:52.45	95.81	24.28	
2025-01-11 07:04:52.66	95.88	24.28	
2025-01-11 07:04:52.87	95.95	24.27	
2025-01-11 07:04:53.07	96.01	24.27	
2025-01-11 07:04:53.27	96.08	24.27	
2025-01-11 07:04:53.48	96.15	24.26	
2025-01-11 07:04:53.68	96.22	24.26	
2025-01-11 07:04:53.89	96.29	24.25	
2025-01-11 07:04:54.09	96.36	24.25	
2025-01-11 07:04:54.30	96.43	24.25	
2025-01-11 07:04:54.50	96.49	24.24	
2025-01-11 07:04:54.72	96.57	24.24	
2025-01-11 07:04:54.92	96.63	24.23	
2025-01-11 07:04:55.13	96.71	24.23	
2025-01-11 07:04:55.33	96.77	24.23	
2025-01-11 07:04:55.54	96.84	24.22	
2025-01-11 07:04:55.74	96.91	24.22	
2025-01-11 07:04:55.95	96.98	24.21	
2025-01-11 07:04:56.15	97.05	24.21	
2025-01-11 07:04:56.37	97.12	24.21	
2025-01-11 07:04:56.58	97.19	24.20	
2025-01-11 07:04:56.79	97.26	24.20	
2025-01-11 07:04:57.00	97.33	24.19	
2025-01-11 07:04:57.21	97.40	24.19	
2025-01-11 07:04:57.41	97.47	24.18	
2025-01-11 07:04:57.62	97.54	24.18	
2025-01-11 07:04:57.82	97.60	24.17	
2025-01-11 07:04:58.03	97.67	24.17	
2025-01-11 07:04:58.24	97.74	24.16	
2025-01-11 07:04:58.44	97.81	24.16	
2025-01-11 07:04:58.65	97.88	24.15	
2025-01-11 07:04:58.85	97.95	24.15	
2025-01-11 07:04:59.06	98.02	24.14	
2025-01-11 07:04:59.26	98.08	24.14	
