passes_logs/2025/01/11/SPB_Silybum_02/SPB_Silybum_02__20250111_214931_SUOMI_NPP_rec.log

#Pass ID: 20250111_214931_SUOMI NPP
#Satellite: SUOMI NPP
#Configuration: NPP
#Start time: 2025-01-11 21:49:31

#Version: 2.0.20230423
#Station: SPB_Silybum_02
#Location: 30.233357 lon 59.946436 lat
#TLE: 1 37849U 11061A   25010.83173011  .00000170  00000+0  10148-3 0  9996
#TLE: 2 37849  98.7441 311.8732 0001811  47.3940 312.7388 14.19536379684322

#Time	Az	El	Level	Level2	SNR	BER	Gain	Gain2
2025-01-11 21:49:33.13	34.91	4.05	
2025-01-11 21:49:33.34	34.94	4.06	
2025-01-11 21:49:33.54	34.96	4.07	
2025-01-11 21:49:33.75	34.98	4.08	
2025-01-11 21:49:33.95	35.01	4.09	
2025-01-11 21:49:34.16	35.03	4.10	
2025-01-11 21:49:34.36	35.06	4.10	
2025-01-11 21:49:34.57	35.08	4.11	
2025-01-11 21:49:34.77	35.10	4.12	
2025-01-11 21:49:34.98	35.13	4.13	
2025-01-11 21:49:35.18	35.15	4.14	
2025-01-11 21:49:35.39	35.18	4.15	
2025-01-11 21:49:35.60	35.20	4.16	
2025-01-11 21:49:35.80	35.22	4.16	
2025-01-11 21:49:36.01	35.25	4.17	
2025-01-11 21:49:36.21	35.27	4.18	
2025-01-11 21:49:36.42	35.30	4.19	
2025-01-11 21:49:36.62	35.32	4.20	
2025-01-11 21:49:36.83	35.35	4.21	
2025-01-11 21:49:37.04	35.37	4.21	
2025-01-11 21:49:37.24	35.39	4.22	
2025-01-11 21:49:37.44	35.42	4.23	
2025-01-11 21:49:37.65	35.44	4.24	
2025-01-11 21:49:37.85	35.47	4.25	
2025-01-11 21:49:38.06	35.49	4.26	
2025-01-11 21:49:38.26	35.51	4.27	
2025-01-11 21:49:38.48	35.54	4.27	
2025-01-11 21:49:38.69	35.56	4.28	
2025-01-11 21:49:38.89	35.59	4.29	
2025-01-11 21:49:39.10	35.61	4.30	
2025-01-11 21:49:39.30	35.64	4.31	
2025-01-11 21:49:39.51	35.66	4.32	
2025-01-11 21:49:39.71	35.69	4.32	
2025-01-11 21:49:39.92	35.71	4.33	
2025-01-11 21:49:40.12	35.73	4.34	
2025-01-11 21:49:40.33	35.76	4.35	
2025-01-11 21:49:40.53	35.78	4.36	
2025-01-11 21:49:40.74	35.81	4.37	
2025-01-11 21:49:40.94	35.83	4.38	
2025-01-11 21:49:41.15	35.86	4.38	
2025-01-11 21:49:41.35	35.88	4.39	
2025-01-11 21:49:41.56	35.91	4.40	
2025-01-11 21:49:41.76	35.93	4.41	
2025-01-11 21:49:41.97	35.95	4.42	
2025-01-11 21:49:42.17	35.98	4.43	
2025-01-11 21:49:42.38	36.00	4.43	
2025-01-11 21:49:42.58	36.03	4.44	
2025-01-11 21:49:42.80	36.05	4.45	
2025-01-11 21:49:43.01	36.08	4.46	
2025-01-11 21:49:43.21	36.10	4.47	
2025-01-11 21:49:43.42	36.13	4.48	
2025-01-11 21:49:43.62	36.15	4.49	
2025-01-11 21:49:43.84	36.18	4.49	
2025-01-11 21:49:44.04	36.20	4.50	
2025-01-11 21:49:44.25	36.23	4.51	
2025-01-11 21:49:44.45	36.25	4.52	
2025-01-11 21:49:44.66	36.28	4.53	
2025-01-11 21:49:44.86	36.30	4.54	
2025-01-11 21:49:45.07	36.33	4.54	
2025-01-11 21:49:45.27	36.35	4.55	
2025-01-11 21:49:45.48	36.38	4.56	
2025-01-11 21:49:45.68	36.40	4.57	
2025-01-11 21:49:45.89	36.42	4.58	
2025-01-11 21:49:46.09	36.45	4.59	
2025-01-11 21:49:46.30	36.47	4.60	
2025-01-11 21:49:46.50	36.50	4.60	
2025-01-11 21:49:46.71	36.52	4.61	
2025-01-11 21:49:46.91	36.55	4.62	
2025-01-11 21:49:47.12	36.57	4.63	
2025-01-11 21:49:47.32	36.60	4.64	
2025-01-11 21:49:47.53	36.62	4.65	
2025-01-11 21:49:47.73	36.65	4.65	
2025-01-11 21:49:47.93	36.67	4.66	
2025-01-11 21:49:48.14	36.70	4.67	
2025-01-11 21:49:48.35	36.72	4.68	
2025-01-11 21:49:48.55	36.75	4.69	
2025-01-11 21:49:48.76	36.77	4.70	
2025-01-11 21:49:48.96	36.80	4.70	
2025-01-11 21:49:49.18	36.82	4.71	
2025-01-11 21:49:49.39	36.85	4.72	
2025-01-11 21:49:49.59	36.87	4.73	
2025-01-11 21:49:49.80	36.90	4.74	
2025-01-11 21:49:50.01	36.92	4.75	
2025-01-11 21:49:50.22	36.95	4.76	
2025-01-11 21:49:50.43	36.98	4.76	
2025-01-11 21:49:50.63	37.00	4.77	
2025-01-11 21:49:50.84	37.03	4.78	
2025-01-11 21:49:51.04	37.05	4.79	
2025-01-11 21:49:51.26	37.08	4.80	
2025-01-11 21:49:51.47	37.10	4.81	
2025-01-11 21:49:51.67	37.13	4.81	
2025-01-11 21:49:51.88	37.15	4.82	
2025-01-11 21:49:52.08	37.18	4.83	
2025-01-11 21:49:52.29	37.20	4.84	
2025-01-11 21:49:52.49	37.23	4.85	
2025-01-11 21:49:52.70	37.25	4.86	
2025-01-11 21:49:52.90	37.28	4.86	
2025-01-11 21:49:53.11	37.30	4.87	
2025-01-11 21:49:53.31	37.33	4.88	
2025-01-11 21:49:53.52	37.35	4.89	
2025-01-11 21:49:53.72	37.38	4.90	
2025-01-11 21:49:53.93	37.40	4.91	
2025-01-11 21:49:54.13	37.43	4.91	
2025-01-11 21:49:54.34	37.45	4.92	
2025-01-11 21:49:54.54	37.48	4.93	
2025-01-11 21:49:54.75	37.51	4.94	
2025-01-11 21:49:54.95	37.53	4.95	
2025-01-11 21:49:55.16	37.56	4.96	
2025-01-11 21:49:55.36	37.58	4.96	
2025-01-11 21:49:55.57	37.61	4.97	
2025-01-11 21:49:55.77	37.63	4.98	
2025-01-11 21:49:55.98	37.66	4.99	
2025-01-11 21:49:56.18	37.68	5.00	
2025-01-11 21:49:56.39	37.71	5.01	
2025-01-11 21:49:56.59	37.73	5.01	
2025-01-11 21:49:56.80	37.76	5.02	
2025-01-11 21:49:57.00	37.78	5.03	
2025-01-11 21:49:57.21	37.81	5.04	
2025-01-11 21:49:57.41	37.83	5.05	
2025-01-11 21:49:57.63	37.86	5.06	
2025-01-11 21:49:57.83	37.89	5.06	
2025-01-11 21:49:58.03	37.91	5.07	
2025-01-11 21:49:58.24	37.94	5.08	
2025-01-11 21:49:58.45	37.96	5.09	
2025-01-11 21:49:58.65	37.99	5.10	
2025-01-11 21:49:58.85	38.01	5.10	
2025-01-11 21:49:59.06	38.04	5.11	
2025-01-11 21:49:59.26	38.07	5.12	
2025-01-11 21:49:59.47	38.09	5.13	
2025-01-11 21:49:59.67	38.12	5.14	
2025-01-11 21:49:59.88	38.14	5.15	
2025-01-11 21:50:00.08	38.17	5.15	
2025-01-11 21:50:00.29	38.19	5.16	
2025-01-11 21:50:00.49	38.22	5.17	
2025-01-11 21:50:00.70	38.25	5.18	
2025-01-11 21:50:00.90	38.27	5.19	
2025-01-11 21:50:01.10	38.30	5.20	
2025-01-11 21:50:01.31	38.32	5.20	
2025-01-11 21:50:01.52	38.35	5.21	
2025-01-11 21:50:01.72	38.37	5.22	
2025-01-11 21:50:01.92	38.40	5.23	
2025-01-11 21:50:02.12	38.42	5.24	
2025-01-11 21:50:02.33	38.45	5.24	
2025-01-11 21:50:02.53	38.48	5.25	
2025-01-11 21:50:02.74	38.50	5.26	
2025-01-11 21:50:02.94	38.53	5.27	
2025-01-11 21:50:03.15	38.55	5.28	
2025-01-11 21:50:03.35	38.58	5.29	
2025-01-11 21:50:03.56	38.61	5.29	
2025-01-11 21:50:03.77	38.63	5.30	
2025-01-11 21:50:03.97	38.66	5.31	
2025-01-11 21:50:04.17	38.68	5.32	
2025-01-11 21:50:04.38	38.71	5.33	
2025-01-11 21:50:04.59	38.74	5.34	
2025-01-11 21:50:04.79	38.76	5.34	
2025-01-11 21:50:05.00	38.79	5.35	
2025-01-11 21:50:05.20	38.81	5.36	
2025-01-11 21:50:05.41	38.84	5.37	
2025-01-11 21:50:05.61	38.87	5.38	
2025-01-11 21:50:05.82	38.89	5.38	
2025-01-11 21:50:06.02	38.92	5.39	
2025-01-11 21:50:06.23	38.94	5.40	
2025-01-11 21:50:06.43	38.97	5.41	
2025-01-11 21:50:06.64	39.00	5.42	
2025-01-11 21:50:06.84	39.02	5.43	
2025-01-11 21:50:07.05	39.05	5.43	
2025-01-11 21:50:07.25	39.07	5.44	
2025-01-11 21:50:07.46	39.10	5.45	
2025-01-11 21:50:07.66	39.13	5.46	
2025-01-11 21:50:07.87	39.15	5.47	
2025-01-11 21:50:08.07	39.18	5.47	
2025-01-11 21:50:08.28	39.21	5.48	
2025-01-11 21:50:08.48	39.23	5.49	
2025-01-11 21:50:08.69	39.26	5.50	
2025-01-11 21:50:08.90	39.29	5.51	
2025-01-11 21:50:09.10	39.31	5.52	
2025-01-11 21:50:09.31	39.34	5.52	
2025-01-11 21:50:09.51	39.36	5.53	
2025-01-11 21:50:09.72	39.39	5.54	
2025-01-11 21:50:09.92	39.42	5.55	
2025-01-11 21:50:10.13	39.44	5.56	
2025-01-11 21:50:10.33	39.47	5.56	
2025-01-11 21:50:10.54	39.50	5.57	
2025-01-11 21:50:10.74	39.52	5.58	
2025-01-11 21:50:10.95	39.55	5.59	
2025-01-11 21:50:11.16	39.58	5.60	
2025-01-11 21:50:11.36	39.60	5.61	
2025-01-11 21:50:11.56	39.63	5.61	
2025-01-11 21:50:11.77	39.65	5.62	
2025-01-11 21:50:11.97	39.68	5.63	
2025-01-11 21:50:12.18	39.71	5.64	
2025-01-11 21:50:12.39	39.73	5.65	
2025-01-11 21:50:12.59	39.76	5.65	
2025-01-11 21:50:12.80	39.79	5.66	
2025-01-11 21:50:13.00	39.81	5.67	
2025-01-11 21:50:13.21	39.84	5.68	
2025-01-11 21:50:13.41	39.87	5.69	
2025-01-11 21:50:13.63	39.89	5.70	
2025-01-11 21:50:13.84	39.92	5.70	
2025-01-11 21:50:14.04	39.95	5.71	
2025-01-11 21:50:14.25	39.98	5.72	
2025-01-11 21:50:14.45	40.00	5.73	
2025-01-11 21:50:14.66	40.03	5.74	
2025-01-11 21:50:14.86	40.05	5.74	
2025-01-11 21:50:15.07	40.08	5.75	
2025-01-11 21:50:15.27	40.11	5.76	
2025-01-11 21:50:15.48	40.14	5.77	
2025-01-11 21:50:15.68	40.16	5.78	
2025-01-11 21:50:15.89	40.19	5.78	
2025-01-11 21:50:16.09	40.22	5.79	
2025-01-11 21:50:16.30	40.24	5.80	
2025-01-11 21:50:16.51	40.27	5.81	
2025-01-11 21:50:16.71	40.30	5.82	
2025-01-11 21:50:16.92	40.32	5.82	
2025-01-11 21:50:17.12	40.35	5.83	
2025-01-11 21:50:17.33	40.38	5.84	
2025-01-11 21:50:17.54	40.40	5.85	
2025-01-11 21:50:17.74	40.43	5.86	
2025-01-11 21:50:17.96	40.46	5.87	
2025-01-11 21:50:18.17	40.49	5.87	
2025-01-11 21:50:18.37	40.51	5.88	
2025-01-11 21:50:18.58	40.54	5.89	
2025-01-11 21:50:18.78	40.57	5.90	
2025-01-11 21:50:18.98	40.59	5.91	
2025-01-11 21:50:19.19	40.62	5.91	
2025-01-11 21:50:19.39	40.65	5.92	
2025-01-11 21:50:19.60	40.68	5.93	
2025-01-11 21:50:19.80	40.70	5.94	
2025-01-11 21:50:20.01	40.73	5.95	
2025-01-11 21:50:20.21	40.76	5.95	
2025-01-11 21:50:20.42	40.78	5.96	
2025-01-11 21:50:20.63	40.81	5.97	
2025-01-11 21:50:20.83	40.84	5.98	
2025-01-11 21:50:21.04	40.87	5.99	
2025-01-11 21:50:21.25	40.89	5.99	
2025-01-11 21:50:21.46	40.92	6.00	
2025-01-11 21:50:21.66	40.95	6.01	
2025-01-11 21:50:21.87	40.98	6.02	
2025-01-11 21:50:22.08	41.00	6.03	
2025-01-11 21:50:22.28	41.03	6.03	
2025-01-11 21:50:22.49	41.06	6.04	
2025-01-11 21:50:22.69	41.08	6.05	
2025-01-11 21:50:22.89	41.11	6.06	
2025-01-11 21:50:23.10	41.14	6.07	
2025-01-11 21:50:23.30	41.17	6.07	
2025-01-11 21:50:23.51	41.19	6.08	
2025-01-11 21:50:23.72	41.22	6.09	
2025-01-11 21:50:23.92	41.25	6.10	
2025-01-11 21:50:24.13	41.28	6.11	
2025-01-11 21:50:24.33	41.30	6.11	
2025-01-11 21:50:24.54	41.33	6.12	
2025-01-11 21:50:24.74	41.36	6.13	
2025-01-11 21:50:24.95	41.39	6.14	
2025-01-11 21:50:25.15	41.41	6.15	
2025-01-11 21:50:25.36	41.44	6.15	
2025-01-11 21:50:25.56	41.47	6.16	
2025-01-11 21:50:25.77	41.50	6.17	
2025-01-11 21:50:25.97	41.52	6.18	
2025-01-11 21:50:26.18	41.55	6.19	
2025-01-11 21:50:26.38	41.58	6.19	
2025-01-11 21:50:26.59	41.60	6.20	
2025-01-11 21:50:26.79	41.63	6.21	
2025-01-11 21:50:27.00	41.66	6.22	
2025-01-11 21:50:27.20	41.69	6.23	
2025-01-11 21:50:27.41	41.72	6.23	
2025-01-11 21:50:27.61	41.74	6.24	
2025-01-11 21:50:27.82	41.77	6.25	
2025-01-11 21:50:28.03	41.80	6.26	
2025-01-11 21:50:28.23	41.83	6.27	
2025-01-11 21:50:28.44	41.85	6.27	
2025-01-11 21:50:28.64	41.88	6.28	
2025-01-11 21:50:28.85	41.91	6.29	
2025-01-11 21:50:29.05	41.94	6.30	
2025-01-11 21:50:29.26	41.96	6.30	
2025-01-11 21:50:29.46	41.99	6.31	
2025-01-11 21:50:29.67	42.02	6.32	
2025-01-11 21:50:29.87	42.05	6.33	
2025-01-11 21:50:30.08	42.08	6.34	
2025-01-11 21:50:30.29	42.10	6.34	
2025-01-11 21:50:30.49	42.13	6.35	
2025-01-11 21:50:30.70	42.16	6.36	
2025-01-11 21:50:30.90	42.19	6.37	
2025-01-11 21:50:31.11	42.21	6.38	
2025-01-11 21:50:31.31	42.24	6.38	
2025-01-11 21:50:31.52	42.27	6.39	
2025-01-11 21:50:31.72	42.30	6.40	
2025-01-11 21:50:31.93	42.33	6.41	
2025-01-11 21:50:32.13	42.35	6.42	
2025-01-11 21:50:32.34	42.38	6.42	
2025-01-11 21:50:32.54	42.41	6.43	
2025-01-11 21:50:32.75	42.44	6.44	
2025-01-11 21:50:32.97	42.47	6.45	
2025-01-11 21:50:33.17	42.50	6.45	
2025-01-11 21:50:33.38	42.52	6.46	
2025-01-11 21:50:33.59	42.55	6.47	
2025-01-11 21:50:33.79	42.58	6.48	
2025-01-11 21:50:34.00	42.61	6.49	
2025-01-11 21:50:34.20	42.64	6.49	
2025-01-11 21:50:34.41	42.66	6.50	
2025-01-11 21:50:34.61	42.69	6.51	
2025-01-11 21:50:34.82	42.72	6.52	
2025-01-11 21:50:35.02	42.75	6.53	
2025-01-11 21:50:35.23	42.78	6.53	
2025-01-11 21:50:35.43	42.80	6.54	
2025-01-11 21:50:35.63	42.83	6.55	
2025-01-11 21:50:35.84	42.86	6.56	
2025-01-11 21:50:36.05	42.89	6.56	
2025-01-11 21:50:36.25	42.92	6.57	
2025-01-11 21:50:36.46	42.95	6.58	
2025-01-11 21:50:36.66	42.97	6.59	
2025-01-11 21:50:36.86	43.00	6.60	
2025-01-11 21:50:37.07	43.03	6.60	
2025-01-11 21:50:37.29	43.06	6.61	
2025-01-11 21:50:37.49	43.09	6.62	
2025-01-11 21:50:37.70	43.12	6.63	
2025-01-11 21:50:37.90	43.14	6.63	
2025-01-11 21:50:38.11	43.17	6.64	
2025-01-11 21:50:38.31	43.20	6.65	
2025-01-11 21:50:38.52	43.23	6.66	
2025-01-11 21:50:38.72	43.26	6.67	
2025-01-11 21:50:38.93	43.29	6.67	
2025-01-11 21:50:39.14	43.32	6.68	
2025-01-11 21:50:39.34	43.34	6.69	
2025-01-11 21:50:39.54	43.37	6.70	
2025-01-11 21:50:39.75	43.40	6.70	
2025-01-11 21:50:39.96	43.43	6.71	
2025-01-11 21:50:40.16	43.46	6.72	
2025-01-11 21:50:40.36	43.48	6.73	
2025-01-11 21:50:40.57	43.51	6.74	
2025-01-11 21:50:40.78	43.54	6.74	
2025-01-11 21:50:40.98	43.57	6.75	
2025-01-11 21:50:41.19	43.60	6.76	
2025-01-11 21:50:41.39	43.63	6.77	
2025-01-11 21:50:41.60	43.66	6.77	
2025-01-11 21:50:41.80	43.69	6.78	
2025-01-11 21:50:42.00	43.71	6.79	
2025-01-11 21:50:42.21	43.74	6.80	
2025-01-11 21:50:42.42	43.77	6.80	
2025-01-11 21:50:42.63	43.80	6.81	
2025-01-11 21:50:42.84	43.83	6.82	
2025-01-11 21:50:43.05	43.86	6.83	
2025-01-11 21:50:43.25	43.89	6.84	
2025-01-11 21:50:43.46	43.92	6.84	
2025-01-11 21:50:43.68	43.95	6.85	
2025-01-11 21:50:43.88	43.98	6.86	
2025-01-11 21:50:44.09	44.01	6.87	
2025-01-11 21:50:44.29	44.03	6.87	
2025-01-11 21:50:44.49	44.06	6.88	
2025-01-11 21:50:44.70	44.09	6.89	
2025-01-11 21:50:44.91	44.12	6.90	
2025-01-11 21:50:45.11	44.15	6.90	
2025-01-11 21:50:45.32	44.18	6.91	
2025-01-11 21:50:45.52	44.21	6.92	
2025-01-11 21:50:45.73	44.24	6.93	
2025-01-11 21:50:45.93	44.26	6.94	
2025-01-11 21:50:46.14	44.29	6.94	
2025-01-11 21:50:46.35	44.32	6.95	
2025-01-11 21:50:46.55	44.35	6.96	
2025-01-11 21:50:46.76	44.38	6.97	
2025-01-11 21:50:46.96	44.41	6.97	
2025-01-11 21:50:47.17	44.44	6.98	
2025-01-11 21:50:47.38	44.47	6.99	
2025-01-11 21:50:47.58	44.50	7.00	
2025-01-11 21:50:47.79	44.53	7.00	
2025-01-11 21:50:47.99	44.55	7.01	
2025-01-11 21:50:48.20	44.58	7.02	
2025-01-11 21:50:48.40	44.61	7.03	
2025-01-11 21:50:48.61	44.64	7.03	
2025-01-11 21:50:48.81	44.67	7.04	
2025-01-11 21:50:49.02	44.70	7.05	
2025-01-11 21:50:49.22	44.73	7.06	
2025-01-11 21:50:49.43	44.76	7.06	
2025-01-11 21:50:49.63	44.79	7.07	
2025-01-11 21:50:49.83	44.82	7.08	
2025-01-11 21:50:50.04	44.85	7.09	
2025-01-11 21:50:50.24	44.87	7.09	
2025-01-11 21:50:50.45	44.90	7.10	
2025-01-11 21:50:50.65	44.93	7.11	
2025-01-11 21:50:50.86	44.96	7.12	
2025-01-11 21:50:51.06	44.99	7.12	
2025-01-11 21:50:51.27	45.02	7.13	
2025-01-11 21:50:51.48	45.05	7.14	
2025-01-11 21:50:51.68	45.08	7.15	
2025-01-11 21:50:51.88	45.11	7.15	
2025-01-11 21:50:52.09	45.14	7.16	
2025-01-11 21:50:52.29	45.17	7.17	
2025-01-11 21:50:52.50	45.20	7.18	
2025-01-11 21:50:52.70	45.23	7.18	
2025-01-11 21:50:52.91	45.26	7.19	
2025-01-11 21:50:53.11	45.28	7.20	
2025-01-11 21:50:53.32	45.31	7.21	
2025-01-11 21:50:53.52	45.34	7.21	
2025-01-11 21:50:53.73	45.37	7.22	
2025-01-11 21:50:53.93	45.40	7.23	
2025-01-11 21:50:54.14	45.43	7.24	
2025-01-11 21:50:54.34	45.46	7.24	
2025-01-11 21:50:54.55	45.49	7.25	
2025-01-11 21:50:54.75	45.52	7.26	
2025-01-11 21:50:54.96	45.55	7.27	
2025-01-11 21:50:55.16	45.58	7.27	
2025-01-11 21:50:55.37	45.61	7.28	
2025-01-11 21:50:55.58	45.64	7.29	
2025-01-11 21:50:55.78	45.67	7.30	
2025-01-11 21:50:55.99	45.70	7.30	
2025-01-11 21:50:56.19	45.73	7.31	
2025-01-11 21:50:56.39	45.76	7.32	
2025-01-11 21:50:56.60	45.79	7.33	
2025-01-11 21:50:56.80	45.82	7.33	
2025-01-11 21:50:57.01	45.85	7.34	
2025-01-11 21:50:57.21	45.87	7.35	
2025-01-11 21:50:57.42	45.91	7.36	
2025-01-11 21:50:57.63	45.94	7.36	
2025-01-11 21:50:57.83	45.96	7.37	
2025-01-11 21:50:58.03	45.99	7.38	
2025-01-11 21:50:58.24	46.02	7.38	
2025-01-11 21:50:58.45	46.05	7.39	
2025-01-11 21:50:58.65	46.08	7.40	
2025-01-11 21:50:58.85	46.11	7.41	
2025-01-11 21:50:59.06	46.14	7.41	
2025-01-11 21:50:59.26	46.17	7.42	
2025-01-11 21:50:59.47	46.20	7.43	
2025-01-11 21:50:59.68	46.23	7.44	
2025-01-11 21:50:59.88	46.26	7.44	
2025-01-11 21:51:00.08	46.29	7.45	
2025-01-11 21:51:00.29	46.32	7.46	
2025-01-11 21:51:00.50	46.35	7.47	
2025-01-11 21:51:00.70	46.38	7.47	
2025-01-11 21:51:00.90	46.41	7.48	
2025-01-11 21:51:01.11	46.44	7.49	
2025-01-11 21:51:01.32	46.47	7.49	
2025-01-11 21:51:01.52	46.50	7.50	
2025-01-11 21:51:01.73	46.53	7.51	
2025-01-11 21:51:01.93	46.56	7.52	
2025-01-11 21:51:02.14	46.59	7.52	
2025-01-11 21:51:02.34	46.62	7.53	
2025-01-11 21:51:02.54	46.65	7.54	
2025-01-11 21:51:02.75	46.68	7.55	
2025-01-11 21:51:02.95	46.71	7.55	
2025-01-11 21:51:03.16	46.74	7.56	
2025-01-11 21:51:03.37	46.77	7.57	
2025-01-11 21:51:03.57	46.80	7.57	
2025-01-11 21:51:03.78	46.83	7.58	
2025-01-11 21:51:03.98	46.86	7.59	
2025-01-11 21:51:04.18	46.89	7.60	
2025-01-11 21:51:04.39	46.92	7.60	
2025-01-11 21:51:04.60	46.95	7.61	
2025-01-11 21:51:04.80	46.98	7.62	
2025-01-11 21:51:05.02	47.02	7.63	
2025-01-11 21:51:05.22	47.05	7.63	
2025-01-11 21:51:05.43	47.08	7.64	
2025-01-11 21:51:05.64	47.11	7.65	
2025-01-11 21:51:05.84	47.14	7.65	
2025-01-11 21:51:06.04	47.17	7.66	
2025-01-11 21:51:06.25	47.20	7.67	
2025-01-11 21:51:06.47	47.23	7.68	
2025-01-11 21:51:06.67	47.26	7.68	
2025-01-11 21:51:06.88	47.29	7.69	
2025-01-11 21:51:07.08	47.32	7.70	
2025-01-11 21:51:07.29	47.35	7.71	
2025-01-11 21:51:07.49	47.38	7.71	
2025-01-11 21:51:07.70	47.41	7.72	
2025-01-11 21:51:07.90	47.44	7.73	
2025-01-11 21:51:08.11	47.47	7.73	
2025-01-11 21:51:08.31	47.50	7.74	
2025-01-11 21:51:08.52	47.53	7.75	
2025-01-11 21:51:08.72	47.56	7.76	
2025-01-11 21:51:08.93	47.60	7.76	
2025-01-11 21:51:09.13	47.63	7.77	
2025-01-11 21:51:09.33	47.65	7.78	
2025-01-11 21:51:09.54	47.69	7.78	
2025-01-11 21:51:09.74	47.72	7.79	
2025-01-11 21:51:09.95	47.75	7.80	
2025-01-11 21:51:10.15	47.78	7.80	
2025-01-11 21:51:10.36	47.81	7.81	
2025-01-11 21:51:10.56	47.84	7.82	
2025-01-11 21:51:10.77	47.87	7.83	
2025-01-11 21:51:10.98	47.90	7.83	
2025-01-11 21:51:11.18	47.93	7.84	
2025-01-11 21:51:11.39	47.96	7.85	
2025-01-11 21:51:11.59	47.99	7.85	
2025-01-11 21:51:11.80	48.02	7.86	
2025-01-11 21:51:12.00	48.05	7.87	
2025-01-11 21:51:12.21	48.09	7.88	
2025-01-11 21:51:12.41	48.12	7.88	
2025-01-11 21:51:12.62	48.15	7.89	
2025-01-11 21:51:12.82	48.18	7.90	
2025-01-11 21:51:13.03	48.21	7.90	
2025-01-11 21:51:13.24	48.24	7.91	
2025-01-11 21:51:13.44	48.27	7.92	
2025-01-11 21:51:13.64	48.30	7.92	
2025-01-11 21:51:13.85	48.33	7.93	
2025-01-11 21:51:14.05	48.36	7.94	
2025-01-11 21:51:14.26	48.39	7.95	
2025-01-11 21:51:14.47	48.42	7.95	
2025-01-11 21:51:14.67	48.46	7.96	
2025-01-11 21:51:14.88	48.49	7.97	
2025-01-11 21:51:15.08	48.52	7.97	
2025-01-11 21:51:15.29	48.55	7.98	
2025-01-11 21:51:15.49	48.58	7.99	
2025-01-11 21:51:15.70	48.61	8.00	
2025-01-11 21:51:15.90	48.64	8.00	
2025-01-11 21:51:16.11	48.67	8.01	
2025-01-11 21:51:16.31	48.70	8.02	
2025-01-11 21:51:16.52	48.73	8.02	
2025-01-11 21:51:16.72	48.76	8.03	
2025-01-11 21:51:16.93	48.80	8.04	
2025-01-11 21:51:17.14	48.83	8.04	
2025-01-11 21:51:17.34	48.86	8.05	
2025-01-11 21:51:17.55	48.89	8.06	
2025-01-11 21:51:17.75	48.92	8.06	
2025-01-11 21:51:17.96	48.95	8.07	
2025-01-11 21:51:18.16	48.98	8.08	
2025-01-11 21:51:18.37	49.02	8.09	
2025-01-11 21:51:18.57	49.05	8.09	
2025-01-11 21:51:18.78	49.08	8.10	
2025-01-11 21:51:18.98	49.11	8.11	
2025-01-11 21:51:19.19	49.14	8.11	
2025-01-11 21:51:19.39	49.17	8.12	
2025-01-11 21:51:19.60	49.20	8.13	
2025-01-11 21:51:19.80	49.23	8.13	
2025-01-11 21:51:20.02	49.27	8.14	
2025-01-11 21:51:20.23	49.30	8.15	
2025-01-11 21:51:20.43	49.33	8.15	
2025-01-11 21:51:20.63	49.36	8.16	
2025-01-11 21:51:20.84	49.39	8.17	
2025-01-11 21:51:21.04	49.42	8.17	
2025-01-11 21:51:21.25	49.45	8.18	
2025-01-11 21:51:21.45	49.49	8.19	
2025-01-11 21:51:21.66	49.52	8.20	
2025-01-11 21:51:21.86	49.55	8.20	
2025-01-11 21:51:22.07	49.58	8.21	
2025-01-11 21:51:22.27	49.61	8.22	
2025-01-11 21:51:22.48	49.64	8.22	
2025-01-11 21:51:22.69	49.68	8.23	
2025-01-11 21:51:22.89	49.71	8.24	
2025-01-11 21:51:23.10	49.74	8.24	
2025-01-11 21:51:23.30	49.77	8.25	
2025-01-11 21:51:23.51	49.80	8.26	
2025-01-11 21:51:23.71	49.83	8.26	
2025-01-11 21:51:23.92	49.86	8.27	
2025-01-11 21:51:24.13	49.90	8.28	
2025-01-11 21:51:24.33	49.93	8.28	
2025-01-11 21:51:24.53	49.96	8.29	
2025-01-11 21:51:24.74	49.99	8.30	
2025-01-11 21:51:24.94	50.02	8.30	
2025-01-11 21:51:25.15	50.05	8.31	
2025-01-11 21:51:25.35	50.08	8.32	
2025-01-11 21:51:25.56	50.12	8.32	
2025-01-11 21:51:25.77	50.15	8.33	
2025-01-11 21:51:25.97	50.18	8.34	
2025-01-11 21:51:26.18	50.21	8.34	
2025-01-11 21:51:26.40	50.25	8.35	
2025-01-11 21:51:26.60	50.28	8.36	
2025-01-11 21:51:26.81	50.31	8.36	
2025-01-11 21:51:27.01	50.34	8.37	
2025-01-11 21:51:27.22	50.37	8.38	
2025-01-11 21:51:27.44	50.41	8.38	
2025-01-11 21:51:27.64	50.44	8.39	
2025-01-11 21:51:27.85	50.47	8.40	
2025-01-11 21:51:28.05	50.50	8.40	
2025-01-11 21:51:28.26	50.54	8.41	
2025-01-11 21:51:28.46	50.57	8.42	
2025-01-11 21:51:28.67	50.60	8.42	
2025-01-11 21:51:28.88	50.63	8.43	
2025-01-11 21:51:29.08	50.66	8.44	
2025-01-11 21:51:29.29	50.70	8.44	
2025-01-11 21:51:29.49	50.73	8.45	
2025-01-11 21:51:29.70	50.76	8.46	
2025-01-11 21:51:29.90	50.79	8.46	
2025-01-11 21:51:30.11	50.82	8.47	
2025-01-11 21:51:30.31	50.85	8.48	
2025-01-11 21:51:30.52	50.89	8.48	
2025-01-11 21:51:30.72	50.92	8.49	
2025-01-11 21:51:30.92	50.95	8.50	
2025-01-11 21:51:31.13	50.98	8.50	
2025-01-11 21:51:31.33	51.01	8.51	
2025-01-11 21:51:31.54	51.05	8.52	
2025-01-11 21:51:31.74	51.08	8.52	
2025-01-11 21:51:31.96	51.11	8.53	
2025-01-11 21:51:32.17	51.15	8.54	
2025-01-11 21:51:32.37	51.18	8.54	
2025-01-11 21:51:32.58	51.21	8.55	
2025-01-11 21:51:32.78	51.24	8.56	
2025-01-11 21:51:32.99	51.27	8.56	
2025-01-11 21:51:33.19	51.31	8.57	
2025-01-11 21:51:33.40	51.34	8.58	
2025-01-11 21:51:33.60	51.37	8.58	
2025-01-11 21:51:33.81	51.40	8.59	
2025-01-11 21:51:34.01	51.43	8.59	
2025-01-11 21:51:34.22	51.47	8.60	
2025-01-11 21:51:34.42	51.50	8.61	
2025-01-11 21:51:34.63	51.53	8.61	
2025-01-11 21:51:34.83	51.56	8.62	
2025-01-11 21:51:35.04	51.60	8.63	
2025-01-11 21:51:35.25	51.63	8.63	
2025-01-11 21:51:35.45	51.66	8.64	
2025-01-11 21:51:35.66	51.69	8.65	
2025-01-11 21:51:35.86	51.73	8.65	
2025-01-11 21:51:36.06	51.76	8.66	
2025-01-11 21:51:36.27	51.79	8.67	
2025-01-11 21:51:36.47	51.82	8.67	
2025-01-11 21:51:36.68	51.86	8.68	
2025-01-11 21:51:36.88	51.89	8.68	
2025-01-11 21:51:37.10	51.92	8.69	
2025-01-11 21:51:37.31	51.96	8.70	
2025-01-11 21:51:37.51	51.99	8.70	
2025-01-11 21:51:37.72	52.02	8.71	
2025-01-11 21:51:37.93	52.05	8.72	
2025-01-11 21:51:38.14	52.09	8.72	
2025-01-11 21:51:38.35	52.12	8.73	
2025-01-11 21:51:38.56	52.15	8.74	
2025-01-11 21:51:38.76	52.19	8.74	
2025-01-11 21:51:38.97	52.22	8.75	
2025-01-11 21:51:39.17	52.25	8.76	
2025-01-11 21:51:39.38	52.28	8.76	
2025-01-11 21:51:39.58	52.32	8.77	
2025-01-11 21:51:39.79	52.35	8.77	
2025-01-11 21:51:39.99	52.38	8.78	
2025-01-11 21:51:40.20	52.41	8.79	
2025-01-11 21:51:40.40	52.45	8.79	
2025-01-11 21:51:40.60	52.48	8.80	
2025-01-11 21:51:40.81	52.51	8.81	
2025-01-11 21:51:41.02	52.55	8.81	
2025-01-11 21:51:41.22	52.58	8.82	
2025-01-11 21:51:41.42	52.61	8.82	
2025-01-11 21:51:41.63	52.64	8.83	
2025-01-11 21:51:41.84	52.68	8.84	
2025-01-11 21:51:42.04	52.71	8.84	
2025-01-11 21:51:42.24	52.74	8.85	
2025-01-11 21:51:42.45	52.77	8.86	
2025-01-11 21:51:42.65	52.81	8.86	
2025-01-11 21:51:42.86	52.84	8.87	
2025-01-11 21:51:43.07	52.87	8.87	
2025-01-11 21:51:43.27	52.91	8.88	
2025-01-11 21:51:43.47	52.94	8.89	
2025-01-11 21:51:43.68	52.97	8.89	
2025-01-11 21:51:43.89	53.00	8.90	
2025-01-11 21:51:44.09	53.04	8.90	
2025-01-11 21:51:44.30	53.07	8.91	
2025-01-11 21:51:44.52	53.11	8.92	
2025-01-11 21:51:44.72	53.14	8.92	
2025-01-11 21:51:44.93	53.17	8.93	
2025-01-11 21:51:45.13	53.20	8.94	
2025-01-11 21:51:45.34	53.24	8.94	
2025-01-11 21:51:45.54	53.27	8.95	
2025-01-11 21:51:45.75	53.30	8.95	
2025-01-11 21:51:45.95	53.34	8.96	
2025-01-11 21:51:46.16	53.37	8.97	
2025-01-11 21:51:46.36	53.40	8.97	
2025-01-11 21:51:46.57	53.44	8.98	
2025-01-11 21:51:46.77	53.47	8.98	
2025-01-11 21:51:46.98	53.50	8.99	
2025-01-11 21:51:47.18	53.53	9.00	
2025-01-11 21:51:47.39	53.57	9.00	
2025-01-11 21:51:47.59	53.60	9.01	
2025-01-11 21:51:47.80	53.63	9.01	
2025-01-11 21:51:48.00	53.67	9.02	
2025-01-11 21:51:48.21	53.70	9.03	
2025-01-11 21:51:48.41	53.73	9.03	
2025-01-11 21:51:48.62	53.77	9.04	
2025-01-11 21:51:48.82	53.80	9.04	
2025-01-11 21:51:49.03	53.83	9.05	
2025-01-11 21:51:49.24	53.87	9.06	
2025-01-11 21:51:49.44	53.90	9.06	
2025-01-11 21:51:49.65	53.93	9.07	
2025-01-11 21:51:49.85	53.97	9.07	
2025-01-11 21:51:50.05	54.00	9.08	
2025-01-11 21:51:50.26	54.03	9.09	
2025-01-11 21:51:50.47	54.07	9.09	
2025-01-11 21:51:50.67	54.10	9.10	
2025-01-11 21:51:50.89	54.14	9.10	
2025-01-11 21:51:51.10	54.17	9.11	
2025-01-11 21:51:51.30	54.20	9.12	
2025-01-11 21:51:51.51	54.24	9.12	
2025-01-11 21:51:51.71	54.27	9.13	
2025-01-11 21:51:51.92	54.30	9.13	
2025-01-11 21:51:52.12	54.34	9.14	
2025-01-11 21:51:52.33	54.37	9.15	
2025-01-11 21:51:52.53	54.40	9.15	
2025-01-11 21:51:52.74	54.44	9.16	
2025-01-11 21:51:52.94	54.47	9.16	
2025-01-11 21:51:53.15	54.50	9.17	
2025-01-11 21:51:53.36	54.54	9.18	
2025-01-11 21:51:53.56	54.57	9.18	
2025-01-11 21:51:53.77	54.61	9.19	
2025-01-11 21:51:53.97	54.64	9.19	
2025-01-11 21:51:54.18	54.67	9.20	
2025-01-11 21:51:54.38	54.71	9.20	
2025-01-11 21:51:54.59	54.74	9.21	
2025-01-11 21:51:54.79	54.77	9.22	
2025-01-11 21:51:55.00	54.81	9.22	
2025-01-11 21:51:55.20	54.84	9.23	
2025-01-11 21:51:55.41	54.88	9.23	
2025-01-11 21:51:55.61	54.91	9.24	
2025-01-11 21:51:55.81	54.94	9.24	
2025-01-11 21:51:56.02	54.98	9.25	
2025-01-11 21:51:56.22	55.01	9.26	
2025-01-11 21:51:56.43	55.04	9.26	
2025-01-11 21:51:56.63	55.08	9.27	
2025-01-11 21:51:56.84	55.11	9.27	
2025-01-11 21:51:57.04	55.14	9.28	
2025-01-11 21:51:57.25	55.18	9.28	
2025-01-11 21:51:57.45	55.21	9.29	
2025-01-11 21:51:57.66	55.25	9.30	
2025-01-11 21:51:57.86	55.28	9.30	
2025-01-11 21:51:58.07	55.31	9.31	
2025-01-11 21:51:58.27	55.35	9.31	
2025-01-11 21:51:58.48	55.38	9.32	
2025-01-11 21:51:58.68	55.41	9.32	
2025-01-11 21:51:58.89	55.45	9.33	
2025-01-11 21:51:59.10	55.48	9.34	
2025-01-11 21:51:59.30	55.52	9.34	
2025-01-11 21:51:59.51	55.55	9.35	
2025-01-11 21:51:59.71	55.58	9.35	
2025-01-11 21:51:59.92	55.62	9.36	
2025-01-11 21:52:00.12	55.65	9.36	
2025-01-11 21:52:00.33	55.69	9.37	
2025-01-11 21:52:00.53	55.72	9.38	
2025-01-11 21:52:00.73	55.75	9.38	
2025-01-11 21:52:00.93	55.79	9.39	
2025-01-11 21:52:01.14	55.82	9.39	
2025-01-11 21:52:01.34	55.85	9.40	
2025-01-11 21:52:01.54	55.89	9.40	
2025-01-11 21:52:01.75	55.92	9.41	
2025-01-11 21:52:01.95	55.96	9.41	
2025-01-11 21:52:02.15	55.99	9.42	
2025-01-11 21:52:02.36	56.02	9.42	
2025-01-11 21:52:02.56	56.06	9.43	
2025-01-11 21:52:02.77	56.09	9.44	
2025-01-11 21:52:02.98	56.13	9.44	
2025-01-11 21:52:03.19	56.16	9.45	
2025-01-11 21:52:03.39	56.19	9.45	
2025-01-11 21:52:03.59	56.23	9.46	
2025-01-11 21:52:03.80	56.26	9.46	
2025-01-11 21:52:04.00	56.30	9.47	
2025-01-11 21:52:04.21	56.33	9.47	
2025-01-11 21:52:04.41	56.36	9.48	
2025-01-11 21:52:04.62	56.40	9.48	
2025-01-11 21:52:04.82	56.43	9.49	
2025-01-11 21:52:05.03	56.47	9.50	
2025-01-11 21:52:05.23	56.50	9.50	
2025-01-11 21:52:05.44	56.54	9.51	
2025-01-11 21:52:05.64	56.57	9.51	
2025-01-11 21:52:05.85	56.61	9.52	
2025-01-11 21:52:06.05	56.64	9.52	
2025-01-11 21:52:06.26	56.67	9.53	
2025-01-11 21:52:06.46	56.71	9.53	
2025-01-11 21:52:06.67	56.74	9.54	
2025-01-11 21:52:06.87	56.78	9.54	
2025-01-11 21:52:07.08	56.81	9.55	
2025-01-11 21:52:07.29	56.85	9.55	
2025-01-11 21:52:07.49	56.88	9.56	
2025-01-11 21:52:07.70	56.92	9.57	
2025-01-11 21:52:07.90	56.95	9.57	
2025-01-11 21:52:08.10	56.98	9.58	
2025-01-11 21:52:08.31	57.02	9.58	
2025-01-11 21:52:08.52	57.05	9.59	
2025-01-11 21:52:08.73	57.09	9.59	
2025-01-11 21:52:08.93	57.12	9.60	
2025-01-11 21:52:09.14	57.16	9.60	
2025-01-11 21:52:09.34	57.19	9.61	
2025-01-11 21:52:09.55	57.23	9.61	
2025-01-11 21:52:09.76	57.26	9.62	
2025-01-11 21:52:09.96	57.30	9.62	
2025-01-11 21:52:10.17	57.33	9.63	
2025-01-11 21:52:10.37	57.36	9.63	
2025-01-11 21:52:10.58	57.40	9.64	
2025-01-11 21:52:10.79	57.44	9.64	
2025-01-11 21:52:10.99	57.47	9.65	
2025-01-11 21:52:11.20	57.50	9.66	
2025-01-11 21:52:11.40	57.54	9.66	
2025-01-11 21:52:11.61	57.57	9.67	
2025-01-11 21:52:11.81	57.61	9.67	
2025-01-11 21:52:12.02	57.64	9.68	
2025-01-11 21:52:12.22	57.68	9.68	
2025-01-11 21:52:12.43	57.71	9.69	
2025-01-11 21:52:12.63	57.75	9.69	
2025-01-11 21:52:12.85	57.78	9.70	
2025-01-11 21:52:13.05	57.82	9.70	
2025-01-11 21:52:13.25	57.85	9.71	
2025-01-11 21:52:13.46	57.89	9.71	
2025-01-11 21:52:13.67	57.92	9.72	
2025-01-11 21:52:13.87	57.96	9.72	
2025-01-11 21:52:14.08	57.99	9.73	
2025-01-11 21:52:14.28	58.03	9.73	
2025-01-11 21:52:14.49	58.06	9.74	
2025-01-11 21:52:14.69	58.10	9.74	
2025-01-11 21:52:14.90	58.13	9.75	
2025-01-11 21:52:15.11	58.17	9.75	
2025-01-11 21:52:15.33	58.20	9.76	
2025-01-11 21:52:15.53	58.24	9.76	
2025-01-11 21:52:15.74	58.27	9.77	
2025-01-11 21:52:15.94	58.31	9.77	
2025-01-11 21:52:16.15	58.34	9.78	
2025-01-11 21:52:16.37	58.38	9.78	
2025-01-11 21:52:16.57	58.42	9.79	
2025-01-11 21:52:16.78	58.45	9.79	
2025-01-11 21:52:16.98	58.49	9.80	
2025-01-11 21:52:17.19	58.52	9.80	
2025-01-11 21:52:17.39	58.56	9.81	
2025-01-11 21:52:17.60	58.59	9.81	
2025-01-11 21:52:17.80	58.63	9.82	
2025-01-11 21:52:18.01	58.66	9.82	
2025-01-11 21:52:18.22	58.70	9.83	
2025-01-11 21:52:18.42	58.73	9.83	
2025-01-11 21:52:18.62	58.77	9.84	
2025-01-11 21:52:18.83	58.80	9.84	
2025-01-11 21:52:19.03	58.84	9.85	
2025-01-11 21:52:19.24	58.87	9.85	
2025-01-11 21:52:19.44	58.91	9.86	
2025-01-11 21:52:19.66	58.94	9.86	
2025-01-11 21:52:19.87	58.98	9.87	
2025-01-11 21:52:20.08	59.02	9.87	
2025-01-11 21:52:20.28	59.05	9.88	
2025-01-11 21:52:20.49	59.09	9.88	
2025-01-11 21:52:20.70	59.12	9.89	
2025-01-11 21:52:20.91	59.16	9.89	
2025-01-11 21:52:21.11	59.19	9.90	
2025-01-11 21:52:21.32	59.23	9.90	
2025-01-11 21:52:21.53	59.26	9.91	
2025-01-11 21:52:21.73	59.30	9.91	
2025-01-11 21:52:21.93	59.33	9.92	
2025-01-11 21:52:22.14	59.37	9.92	
2025-01-11 21:52:22.34	59.40	9.92	
2025-01-11 21:52:22.55	59.44	9.93	
2025-01-11 21:52:22.75	59.47	9.93	
2025-01-11 21:52:22.95	59.51	9.94	
2025-01-11 21:52:23.16	59.54	9.94	
2025-01-11 21:52:23.36	59.58	9.95	
2025-01-11 21:52:23.57	59.61	9.95	
2025-01-11 21:52:23.77	59.65	9.96	
2025-01-11 21:52:23.98	59.69	9.96	
2025-01-11 21:52:24.18	59.72	9.97	
2025-01-11 21:52:24.39	59.76	9.97	
2025-01-11 21:52:24.59	59.79	9.98	
2025-01-11 21:52:24.80	59.83	9.98	
2025-01-11 21:52:25.00	59.86	9.99	
2025-01-11 21:52:25.20	59.90	9.99	
2025-01-11 21:52:25.41	59.93	9.99	
2025-01-11 21:52:25.62	59.97	10.00	
2025-01-11 21:52:25.82	60.00	10.00	
2025-01-11 21:52:26.02	60.04	10.01	
2025-01-11 21:52:26.23	60.07	10.01	
2025-01-11 21:52:26.44	60.11	10.02	
2025-01-11 21:52:26.64	60.15	10.02	
2025-01-11 21:52:26.85	60.18	10.03	
2025-01-11 21:52:27.05	60.22	10.03	
2025-01-11 21:52:27.26	60.25	10.04	
2025-01-11 21:52:27.46	60.29	10.04	
2025-01-11 21:52:27.67	60.32	10.04	
2025-01-11 21:52:27.87	60.36	10.05	
2025-01-11 21:52:28.08	60.39	10.05	
2025-01-11 21:52:28.28	60.43	10.06	
2025-01-11 21:52:28.49	60.47	10.06	
2025-01-11 21:52:28.69	60.50	10.07	
2025-01-11 21:52:28.90	60.54	10.07	
2025-01-11 21:52:29.10	60.57	10.08	
2025-01-11 21:52:29.31	60.61	10.08	
2025-01-11 21:52:29.51	60.64	10.08	
2025-01-11 21:52:29.72	60.68	10.09	
2025-01-11 21:52:29.92	60.71	10.09	
2025-01-11 21:52:30.13	60.75	10.10	
2025-01-11 21:52:30.33	60.79	10.10	
2025-01-11 21:52:30.53	60.82	10.11	
2025-01-11 21:52:30.74	60.86	10.11	
2025-01-11 21:52:30.94	60.89	10.12	
2025-01-11 21:52:31.14	60.93	10.12	
2025-01-11 21:52:31.35	60.96	10.12	
2025-01-11 21:52:31.56	61.00	10.13	
2025-01-11 21:52:31.76	61.03	10.13	
2025-01-11 21:52:31.97	61.07	10.14	
2025-01-11 21:52:32.18	61.11	10.14	
2025-01-11 21:52:32.39	61.14	10.15	
2025-01-11 21:52:32.60	61.18	10.15	
2025-01-11 21:52:32.80	61.22	10.15	
2025-01-11 21:52:33.01	61.25	10.16	
2025-01-11 21:52:33.22	61.29	10.16	
2025-01-11 21:52:33.42	61.32	10.17	
2025-01-11 21:52:33.62	61.36	10.17	
2025-01-11 21:52:33.83	61.40	10.18	
2025-01-11 21:52:34.04	61.43	10.18	
2025-01-11 21:52:34.24	61.47	10.18	
2025-01-11 21:52:34.44	61.50	10.19	
2025-01-11 21:52:34.65	61.54	10.19	
2025-01-11 21:52:34.85	61.57	10.20	
2025-01-11 21:52:35.06	61.61	10.20	
2025-01-11 21:52:35.26	61.65	10.21	
2025-01-11 21:52:35.47	61.68	10.21	
2025-01-11 21:52:35.67	61.72	10.21	
2025-01-11 21:52:35.88	61.75	10.22	
2025-01-11 21:52:36.09	61.79	10.22	
2025-01-11 21:52:36.29	61.83	10.23	
2025-01-11 21:52:36.50	61.86	10.23	
2025-01-11 21:52:36.70	61.90	10.23	
2025-01-11 21:52:36.91	61.94	10.24	
2025-01-11 21:52:37.11	61.97	10.24	
2025-01-11 21:52:37.32	62.01	10.25	
2025-01-11 21:52:37.52	62.04	10.25	
2025-01-11 21:52:37.73	62.08	10.25	
2025-01-11 21:52:37.93	62.11	10.26	
2025-01-11 21:52:38.14	62.15	10.26	
2025-01-11 21:52:38.34	62.19	10.27	
2025-01-11 21:52:38.55	62.22	10.27	
2025-01-11 21:52:38.77	62.26	10.28	
2025-01-11 21:52:38.97	62.30	10.28	
2025-01-11 21:52:39.18	62.33	10.28	
2025-01-11 21:52:39.38	62.37	10.29	
2025-01-11 21:52:39.59	62.41	10.29	
2025-01-11 21:52:39.79	62.44	10.30	
2025-01-11 21:52:40.00	62.48	10.30	
2025-01-11 21:52:40.20	62.51	10.30	
2025-01-11 21:52:40.41	62.55	10.31	
2025-01-11 21:52:40.62	62.59	10.31	
2025-01-11 21:52:40.82	62.62	10.31	
2025-01-11 21:52:41.02	62.66	10.32	
2025-01-11 21:52:41.23	62.70	10.32	
2025-01-11 21:52:41.45	62.74	10.33	
2025-01-11 21:52:41.65	62.77	10.33	
2025-01-11 21:52:41.86	62.81	10.33	
2025-01-11 21:52:42.06	62.84	10.34	
2025-01-11 21:52:42.27	62.88	10.34	
2025-01-11 21:52:42.47	62.92	10.35	
2025-01-11 21:52:42.68	62.95	10.35	
2025-01-11 21:52:42.88	62.99	10.35	
2025-01-11 21:52:43.09	63.03	10.36	
2025-01-11 21:52:43.29	63.06	10.36	
2025-01-11 21:52:43.50	63.10	10.37	
2025-01-11 21:52:43.71	63.14	10.37	
2025-01-11 21:52:43.91	63.17	10.37	
2025-01-11 21:52:44.11	63.21	10.38	
2025-01-11 21:52:44.32	63.24	10.38	
2025-01-11 21:52:44.53	63.28	10.38	
2025-01-11 21:52:44.73	63.32	10.39	
2025-01-11 21:52:44.94	63.35	10.39	
2025-01-11 21:52:45.14	63.39	10.40	
2025-01-11 21:52:45.35	63.43	10.40	
2025-01-11 21:52:45.55	63.46	10.40	
2025-01-11 21:52:45.76	63.50	10.41	
2025-01-11 21:52:45.96	63.53	10.41	
2025-01-11 21:52:46.17	63.57	10.41	
2025-01-11 21:52:46.37	63.61	10.42	
2025-01-11 21:52:46.58	63.64	10.42	
2025-01-11 21:52:46.78	63.68	10.42	
2025-01-11 21:52:46.99	63.72	10.43	
2025-01-11 21:52:47.19	63.75	10.43	
2025-01-11 21:52:47.40	63.79	10.44	
2025-01-11 21:52:47.60	63.83	10.44	
2025-01-11 21:52:47.81	63.86	10.44	
2025-01-11 21:52:48.01	63.90	10.45	
2025-01-11 21:52:48.22	63.94	10.45	
2025-01-11 21:52:48.43	63.97	10.45	
2025-01-11 21:52:48.64	64.01	10.46	
2025-01-11 21:52:48.84	64.05	10.46	
2025-01-11 21:52:49.05	64.08	10.46	
2025-01-11 21:52:49.25	64.12	10.47	
2025-01-11 21:52:49.46	64.16	10.47	
2025-01-11 21:52:49.66	64.19	10.48	
2025-01-11 21:52:49.87	64.23	10.48	
2025-01-11 21:52:50.07	64.27	10.48	
2025-01-11 21:52:50.28	64.30	10.49	
2025-01-11 21:52:50.48	64.34	10.49	
2025-01-11 21:52:50.69	64.38	10.49	
2025-01-11 21:52:50.90	64.41	10.50	
2025-01-11 21:52:51.10	64.45	10.50	
2025-01-11 21:52:51.31	64.49	10.50	
2025-01-11 21:52:51.51	64.52	10.51	
2025-01-11 21:52:51.71	64.56	10.51	
2025-01-11 21:52:51.92	64.60	10.51	
2025-01-11 21:52:52.12	64.63	10.52	
2025-01-11 21:52:52.33	64.67	10.52	
2025-01-11 21:52:52.53	64.71	10.52	
2025-01-11 21:52:52.74	64.74	10.53	
2025-01-11 21:52:52.94	64.78	10.53	
2025-01-11 21:52:53.15	64.82	10.53	
2025-01-11 21:52:53.35	64.85	10.54	
2025-01-11 21:52:53.56	64.89	10.54	
2025-01-11 21:52:53.76	64.93	10.54	
2025-01-11 21:52:53.97	64.96	10.55	
2025-01-11 21:52:54.17	65.00	10.55	
2025-01-11 21:52:54.37	65.04	10.55	
2025-01-11 21:52:54.58	65.07	10.56	
2025-01-11 21:52:54.78	65.11	10.56	
2025-01-11 21:52:54.99	65.15	10.56	
2025-01-11 21:52:55.20	65.18	10.57	
2025-01-11 21:52:55.40	65.22	10.57	
2025-01-11 21:52:55.62	65.26	10.57	
2025-01-11 21:52:55.82	65.30	10.58	
2025-01-11 21:52:56.03	65.33	10.58	
2025-01-11 21:52:56.23	65.37	10.58	
2025-01-11 21:52:56.44	65.41	10.59	
2025-01-11 21:52:56.64	65.44	10.59	
2025-01-11 21:52:56.85	65.48	10.59	
2025-01-11 21:52:57.05	65.52	10.60	
2025-01-11 21:52:57.26	65.55	10.60	
2025-01-11 21:52:57.47	65.59	10.60	
2025-01-11 21:52:57.67	65.63	10.60	
2025-01-11 21:52:57.87	65.66	10.61	
2025-01-11 21:52:58.08	65.70	10.61	
2025-01-11 21:52:58.28	65.74	10.61	
2025-01-11 21:52:58.49	65.78	10.62	
2025-01-11 21:52:58.70	65.81	10.62	
2025-01-11 21:52:58.90	65.85	10.62	
2025-01-11 21:52:59.10	65.89	10.63	
2025-01-11 21:52:59.31	65.92	10.63	
2025-01-11 21:52:59.52	65.96	10.63	
2025-01-11 21:52:59.72	66.00	10.64	
2025-01-11 21:52:59.93	66.04	10.64	
2025-01-11 21:53:00.13	66.07	10.64	
2025-01-11 21:53:00.34	66.11	10.64	
2025-01-11 21:53:00.54	66.15	10.65	
2025-01-11 21:53:00.75	66.18	10.65	
2025-01-11 21:53:00.95	66.22	10.65	
2025-01-11 21:53:01.16	66.26	10.66	
2025-01-11 21:53:01.36	66.29	10.66	
2025-01-11 21:53:01.57	66.33	10.66	
2025-01-11 21:53:01.77	66.37	10.66	
2025-01-11 21:53:01.98	66.41	10.67	
2025-01-11 21:53:02.18	66.44	10.67	
2025-01-11 21:53:02.39	66.48	10.67	
2025-01-11 21:53:02.59	66.52	10.68	
2025-01-11 21:53:02.80	66.55	10.68	
2025-01-11 21:53:03.01	66.59	10.68	
2025-01-11 21:53:03.21	66.63	10.69	
2025-01-11 21:53:03.41	66.66	10.69	
2025-01-11 21:53:03.62	66.70	10.69	
2025-01-11 21:53:03.83	66.74	10.69	
2025-01-11 21:53:04.03	66.78	10.70	
2025-01-11 21:53:04.24	66.81	10.70	
2025-01-11 21:53:04.44	66.85	10.70	
2025-01-11 21:53:04.65	66.89	10.70	
2025-01-11 21:53:04.85	66.93	10.71	
2025-01-11 21:53:05.06	66.96	10.71	
2025-01-11 21:53:05.26	67.00	10.71	
2025-01-11 21:53:05.48	67.04	10.72	
2025-01-11 21:53:05.69	67.08	10.72	
2025-01-11 21:53:05.89	67.11	10.72	
2025-01-11 21:53:06.10	67.15	10.72	
2025-01-11 21:53:06.30	67.19	10.73	
2025-01-11 21:53:06.51	67.23	10.73	
2025-01-11 21:53:06.72	67.26	10.73	
2025-01-11 21:53:06.92	67.30	10.73	
2025-01-11 21:53:07.13	67.34	10.74	
2025-01-11 21:53:07.33	67.38	10.74	
2025-01-11 21:53:07.53	67.41	10.74	
2025-01-11 21:53:07.74	67.45	10.75	
2025-01-11 21:53:07.95	67.49	10.75	
2025-01-11 21:53:08.15	67.52	10.75	
2025-01-11 21:53:08.36	67.56	10.75	
2025-01-11 21:53:08.56	67.60	10.76	
2025-01-11 21:53:08.77	67.64	10.76	
2025-01-11 21:53:08.97	67.67	10.76	
2025-01-11 21:53:09.18	67.71	10.76	
2025-01-11 21:53:09.38	67.75	10.77	
2025-01-11 21:53:09.59	67.79	10.77	
2025-01-11 21:53:09.79	67.82	10.77	
2025-01-11 21:53:10.00	67.86	10.77	
2025-01-11 21:53:10.20	67.90	10.78	
2025-01-11 21:53:10.41	67.94	10.78	
2025-01-11 21:53:10.61	67.97	10.78	
2025-01-11 21:53:10.81	68.01	10.78	
2025-01-11 21:53:11.02	68.05	10.79	
2025-01-11 21:53:11.23	68.08	10.79	
2025-01-11 21:53:11.43	68.12	10.79	
2025-01-11 21:53:11.64	68.16	10.79	
2025-01-11 21:53:11.84	68.20	10.80	
2025-01-11 21:53:12.04	68.23	10.80	
2025-01-11 21:53:12.25	68.27	10.80	
2025-01-11 21:53:12.45	68.31	10.80	
2025-01-11 21:53:12.66	68.35	10.81	
2025-01-11 21:53:12.86	68.38	10.81	
2025-01-11 21:53:13.07	68.42	10.81	
2025-01-11 21:53:13.28	68.46	10.81	
2025-01-11 21:53:13.48	68.50	10.81	
2025-01-11 21:53:13.69	68.53	10.82	
2025-01-11 21:53:13.89	68.57	10.82	
2025-01-11 21:53:14.10	68.61	10.82	
2025-01-11 21:53:14.30	68.64	10.82	
2025-01-11 21:53:14.51	68.68	10.83	
2025-01-11 21:53:14.72	68.72	10.83	
2025-01-11 21:53:14.92	68.76	10.83	
2025-01-11 21:53:15.13	68.80	10.83	
2025-01-11 21:53:15.33	68.83	10.84	
2025-01-11 21:53:15.54	68.87	10.84	
2025-01-11 21:53:15.74	68.91	10.84	
2025-01-11 21:53:15.95	68.95	10.84	
2025-01-11 21:53:16.15	68.98	10.84	
2025-01-11 21:53:16.36	69.02	10.85	
2025-01-11 21:53:16.56	69.06	10.85	
2025-01-11 21:53:16.77	69.10	10.85	
2025-01-11 21:53:16.98	69.13	10.85	
2025-01-11 21:53:17.18	69.17	10.85	
2025-01-11 21:53:17.38	69.21	10.86	
2025-01-11 21:53:17.59	69.25	10.86	
2025-01-11 21:53:17.79	69.28	10.86	
2025-01-11 21:53:18.00	69.32	10.86	
2025-01-11 21:53:18.20	69.36	10.87	
2025-01-11 21:53:18.41	69.40	10.87	
2025-01-11 21:53:18.61	69.43	10.87	
2025-01-11 21:53:18.82	69.47	10.87	
2025-01-11 21:53:19.02	69.51	10.87	
2025-01-11 21:53:19.23	69.55	10.88	
2025-01-11 21:53:19.43	69.58	10.88	
2025-01-11 21:53:19.64	69.62	10.88	
2025-01-11 21:53:19.85	69.66	10.88	
2025-01-11 21:53:20.05	69.70	10.88	
2025-01-11 21:53:20.26	69.74	10.89	
2025-01-11 21:53:20.47	69.77	10.89	
2025-01-11 21:53:20.68	69.81	10.89	
2025-01-11 21:53:20.88	69.85	10.89	
2025-01-11 21:53:21.09	69.89	10.89	
2025-01-11 21:53:21.29	69.92	10.90	
2025-01-11 21:53:21.51	69.97	10.90	
2025-01-11 21:53:21.72	70.00	10.90	
2025-01-11 21:53:21.92	70.04	10.90	
2025-01-11 21:53:22.13	70.08	10.90	
2025-01-11 21:53:22.33	70.12	10.91	
2025-01-11 21:53:22.54	70.15	10.91	
2025-01-11 21:53:22.74	70.19	10.91	
2025-01-11 21:53:22.95	70.23	10.91	
2025-01-11 21:53:23.16	70.27	10.91	
2025-01-11 21:53:23.36	70.31	10.91	
2025-01-11 21:53:23.57	70.34	10.92	
2025-01-11 21:53:23.77	70.38	10.92	
2025-01-11 21:53:23.98	70.42	10.92	
2025-01-11 21:53:24.18	70.46	10.92	
2025-01-11 21:53:24.39	70.49	10.92	
2025-01-11 21:53:24.59	70.53	10.92	
2025-01-11 21:53:24.80	70.57	10.93	
2025-01-11 21:53:25.00	70.61	10.93	
2025-01-11 21:53:25.21	70.65	10.93	
2025-01-11 21:53:25.41	70.68	10.93	
2025-01-11 21:53:25.62	70.72	10.93	
2025-01-11 21:53:25.82	70.76	10.94	
2025-01-11 21:53:26.03	70.80	10.94	
2025-01-11 21:53:26.23	70.83	10.94	
2025-01-11 21:53:26.44	70.87	10.94	
2025-01-11 21:53:26.65	70.91	10.94	
2025-01-11 21:53:26.86	70.95	10.94	
2025-01-11 21:53:27.07	70.99	10.95	
2025-01-11 21:53:27.27	71.02	10.95	
2025-01-11 21:53:27.48	71.06	10.95	
2025-01-11 21:53:27.68	71.10	10.95	
2025-01-11 21:53:27.89	71.14	10.95	
2025-01-11 21:53:28.09	71.18	10.95	
2025-01-11 21:53:28.30	71.21	10.95	
2025-01-11 21:53:28.51	71.25	10.96	
2025-01-11 21:53:28.71	71.29	10.96	
2025-01-11 21:53:28.91	71.33	10.96	
2025-01-11 21:53:29.12	71.37	10.96	
2025-01-11 21:53:29.33	71.40	10.96	
2025-01-11 21:53:29.53	71.44	10.96	
2025-01-11 21:53:29.74	71.48	10.97	
2025-01-11 21:53:29.94	71.52	10.97	
2025-01-11 21:53:30.15	71.56	10.97	
2025-01-11 21:53:30.35	71.59	10.97	
2025-01-11 21:53:30.55	71.63	10.97	
2025-01-11 21:53:30.76	71.67	10.97	
2025-01-11 21:53:30.97	71.71	10.97	
2025-01-11 21:53:31.17	71.74	10.98	
2025-01-11 21:53:31.37	71.78	10.98	
2025-01-11 21:53:31.58	71.82	10.98	
2025-01-11 21:53:31.79	71.86	10.98	
2025-01-11 21:53:31.99	71.90	10.98	
2025-01-11 21:53:32.20	71.93	10.98	
2025-01-11 21:53:32.40	71.97	10.98	
2025-01-11 21:53:32.60	72.01	10.98	
2025-01-11 21:53:32.81	72.05	10.99	
2025-01-11 21:53:33.01	72.08	10.99	
2025-01-11 21:53:33.23	72.12	10.99	
2025-01-11 21:53:33.44	72.16	10.99	
2025-01-11 21:53:33.64	72.20	10.99	
2025-01-11 21:53:33.85	72.24	10.99	
2025-01-11 21:53:34.05	72.28	10.99	
2025-01-11 21:53:34.26	72.31	10.99	
2025-01-11 21:53:34.46	72.35	11.00	
2025-01-11 21:53:34.67	72.39	11.00	
2025-01-11 21:53:34.88	72.43	11.00	
2025-01-11 21:53:35.08	72.47	11.00	
2025-01-11 21:53:35.28	72.50	11.00	
2025-01-11 21:53:35.49	72.54	11.00	
2025-01-11 21:53:35.70	72.58	11.00	
2025-01-11 21:53:35.90	72.62	11.00	
2025-01-11 21:53:36.11	72.66	11.01	
2025-01-11 21:53:36.31	72.69	11.01	
2025-01-11 21:53:36.52	72.73	11.01	
2025-01-11 21:53:36.72	72.77	11.01	
2025-01-11 21:53:36.93	72.81	11.01	
2025-01-11 21:53:37.13	72.85	11.01	
2025-01-11 21:53:37.34	72.88	11.01	
2025-01-11 21:53:37.54	72.92	11.01	
2025-01-11 21:53:37.75	72.96	11.01	
2025-01-11 21:53:37.95	73.00	11.02	
2025-01-11 21:53:38.16	73.04	11.02	
2025-01-11 21:53:38.37	73.07	11.02	
2025-01-11 21:53:38.57	73.11	11.02	
2025-01-11 21:53:38.78	73.15	11.02	
2025-01-11 21:53:38.98	73.19	11.02	
2025-01-11 21:53:39.19	73.23	11.02	
2025-01-11 21:53:39.40	73.27	11.02	
2025-01-11 21:53:39.60	73.30	11.02	
2025-01-11 21:53:39.80	73.34	11.02	
2025-01-11 21:53:40.01	73.38	11.02	
2025-01-11 21:53:40.21	73.42	11.03	
2025-01-11 21:53:40.42	73.45	11.03	
2025-01-11 21:53:40.62	73.49	11.03	
2025-01-11 21:53:40.83	73.53	11.03	
2025-01-11 21:53:41.03	73.57	11.03	
2025-01-11 21:53:41.24	73.61	11.03	
2025-01-11 21:53:41.44	73.64	11.03	
2025-01-11 21:53:41.65	73.68	11.03	
2025-01-11 21:53:41.85	73.72	11.03	
2025-01-11 21:53:42.06	73.76	11.03	
2025-01-11 21:53:42.27	73.80	11.03	
2025-01-11 21:53:42.47	73.83	11.04	
2025-01-11 21:53:42.67	73.87	11.04	
2025-01-11 21:53:42.88	73.91	11.04	
2025-01-11 21:53:43.08	73.95	11.04	
2025-01-11 21:53:43.29	73.99	11.04	
2025-01-11 21:53:43.50	74.03	11.04	
2025-01-11 21:53:43.70	74.06	11.04	
2025-01-11 21:53:43.91	74.10	11.04	
2025-01-11 21:53:44.11	74.14	11.04	
2025-01-11 21:53:44.32	74.18	11.04	
2025-01-11 21:53:44.52	74.21	11.04	
2025-01-11 21:53:44.73	74.25	11.04	
2025-01-11 21:53:44.93	74.29	11.04	
2025-01-11 21:53:45.13	74.33	11.04	
2025-01-11 21:53:45.34	74.37	11.04	
2025-01-11 21:53:45.55	74.41	11.05	
2025-01-11 21:53:45.75	74.44	11.05	
2025-01-11 21:53:45.95	74.48	11.05	
2025-01-11 21:53:46.16	74.52	11.05	
2025-01-11 21:53:46.36	74.56	11.05	
2025-01-11 21:53:46.57	74.59	11.05	
2025-01-11 21:53:46.78	74.63	11.05	
2025-01-11 21:53:46.98	74.67	11.05	
2025-01-11 21:53:47.18	74.71	11.05	
2025-01-11 21:53:47.39	74.75	11.05	
2025-01-11 21:53:47.59	74.78	11.05	
2025-01-11 21:53:47.80	74.82	11.05	
2025-01-11 21:53:48.00	74.86	11.05	
2025-01-11 21:53:48.21	74.90	11.05	
2025-01-11 21:53:48.41	74.94	11.05	
2025-01-11 21:53:48.62	74.97	11.05	
2025-01-11 21:53:48.82	75.01	11.05	
2025-01-11 21:53:49.03	75.05	11.05	
2025-01-11 21:53:49.25	75.09	11.05	
2025-01-11 21:53:49.45	75.13	11.06	
2025-01-11 21:53:49.66	75.17	11.06	
2025-01-11 21:53:49.86	75.21	11.06	
2025-01-11 21:53:50.07	75.24	11.06	
2025-01-11 21:53:50.27	75.28	11.06	
2025-01-11 21:53:50.48	75.32	11.06	
2025-01-11 21:53:50.69	75.36	11.06	
2025-01-11 21:53:50.89	75.40	11.06	
2025-01-11 21:53:51.10	75.44	11.06	
2025-01-11 21:53:51.31	75.47	11.06	
2025-01-11 21:53:51.52	75.51	11.06	
2025-01-11 21:53:51.73	75.55	11.06	
2025-01-11 21:53:51.93	75.59	11.06	
2025-01-11 21:53:52.14	75.63	11.06	
2025-01-11 21:53:52.34	75.67	11.06	
2025-01-11 21:53:52.54	75.70	11.06	
2025-01-11 21:53:52.75	75.74	11.06	
2025-01-11 21:53:52.95	75.78	11.06	
2025-01-11 21:53:53.16	75.82	11.06	
2025-01-11 21:53:53.36	75.85	11.06	
2025-01-11 21:53:53.56	75.89	11.06	
2025-01-11 21:53:53.77	75.93	11.06	
2025-01-11 21:53:53.98	75.97	11.06	
2025-01-11 21:53:54.18	76.01	11.06	
2025-01-11 21:53:54.39	76.05	11.06	
2025-01-11 21:53:54.59	76.08	11.06	
2025-01-11 21:53:54.80	76.12	11.06	
2025-01-11 21:53:55.00	76.16	11.06	
2025-01-11 21:53:55.21	76.20	11.06	
2025-01-11 21:53:55.41	76.24	11.06	
2025-01-11 21:53:55.62	76.27	11.06	
2025-01-11 21:53:55.82	76.31	11.06	
2025-01-11 21:53:56.03	76.35	11.06	
2025-01-11 21:53:56.24	76.39	11.06	
2025-01-11 21:53:56.44	76.43	11.06	
2025-01-11 21:53:56.64	76.46	11.06	
2025-01-11 21:53:56.85	76.50	11.06	
2025-01-11 21:53:57.06	76.54	11.06	
2025-01-11 21:53:57.26	76.58	11.06	
2025-01-11 21:53:57.47	76.62	11.06	
2025-01-11 21:53:57.67	76.66	11.06	
2025-01-11 21:53:57.88	76.69	11.06	
2025-01-11 21:53:58.08	76.73	11.06	
2025-01-11 21:53:58.29	76.77	11.06	
2025-01-11 21:53:58.49	76.81	11.06	
2025-01-11 21:53:58.70	76.85	11.06	
2025-01-11 21:53:58.90	76.88	11.06	
2025-01-11 21:53:59.11	76.92	11.06	
2025-01-11 21:53:59.31	76.96	11.06	
2025-01-11 21:53:59.52	77.00	11.06	
2025-01-11 21:53:59.73	77.04	11.06	
2025-01-11 21:53:59.93	77.08	11.06	
2025-01-11 21:54:00.13	77.11	11.06	
2025-01-11 21:54:00.34	77.15	11.06	
2025-01-11 21:54:00.54	77.19	11.06	
2025-01-11 21:54:00.75	77.23	11.06	
2025-01-11 21:54:00.95	77.26	11.06	
2025-01-11 21:54:01.16	77.30	11.06	
2025-01-11 21:54:01.36	77.34	11.06	
2025-01-11 21:54:01.57	77.38	11.06	
2025-01-11 21:54:01.77	77.42	11.06	
2025-01-11 21:54:01.98	77.46	11.06	
2025-01-11 21:54:02.18	77.49	11.06	
2025-01-11 21:54:02.39	77.53	11.06	
2025-01-11 21:54:02.59	77.57	11.06	
2025-01-11 21:54:02.80	77.61	11.06	
2025-01-11 21:54:03.00	77.65	11.06	
2025-01-11 21:54:03.21	77.68	11.06	
2025-01-11 21:54:03.41	77.72	11.06	
2025-01-11 21:54:03.62	77.76	11.06	
2025-01-11 21:54:03.82	77.80	11.06	
2025-01-11 21:54:04.03	77.84	11.06	
2025-01-11 21:54:04.23	77.87	11.05	
2025-01-11 21:54:04.44	77.91	11.05	
2025-01-11 21:54:04.65	77.95	11.05	
2025-01-11 21:54:04.85	77.99	11.05	
2025-01-11 21:54:05.06	78.03	11.05	
2025-01-11 21:54:05.27	78.07	11.05	
2025-01-11 21:54:05.48	78.11	11.05	
2025-01-11 21:54:05.69	78.14	11.05	
2025-01-11 21:54:05.89	78.18	11.05	
2025-01-11 21:54:06.10	78.22	11.05	
2025-01-11 21:54:06.30	78.26	11.05	
2025-01-11 21:54:06.50	78.29	11.05	
2025-01-11 21:54:06.71	78.33	11.05	
2025-01-11 21:54:06.92	78.37	11.05	
2025-01-11 21:54:07.12	78.41	11.05	
2025-01-11 21:54:07.32	78.45	11.05	
2025-01-11 21:54:07.53	78.49	11.05	
2025-01-11 21:54:07.74	78.53	11.05	
2025-01-11 21:54:07.94	78.56	11.05	
2025-01-11 21:54:08.15	78.60	11.04	
2025-01-11 21:54:08.35	78.64	11.04	
2025-01-11 21:54:08.55	78.68	11.04	
2025-01-11 21:54:08.76	78.71	11.04	
2025-01-11 21:54:08.97	78.75	11.04	
2025-01-11 21:54:09.17	78.79	11.04	
2025-01-11 21:54:09.38	78.83	11.04	
2025-01-11 21:54:09.59	78.87	11.04	
2025-01-11 21:54:09.80	78.91	11.04	
2025-01-11 21:54:10.00	78.94	11.04	
2025-01-11 21:54:10.21	78.98	11.04	
2025-01-11 21:54:10.42	79.02	11.04	
2025-01-11 21:54:10.63	79.06	11.04	
2025-01-11 21:54:10.84	79.10	11.04	
2025-01-11 21:54:11.04	79.14	11.04	
2025-01-11 21:54:11.25	79.18	11.03	
2025-01-11 21:54:11.45	79.21	11.03	
2025-01-11 21:54:11.67	79.25	11.03	
2025-01-11 21:54:11.88	79.29	11.03	
2025-01-11 21:54:12.09	79.33	11.03	
2025-01-11 21:54:12.29	79.37	11.03	
2025-01-11 21:54:12.50	79.41	11.03	
2025-01-11 21:54:12.70	79.45	11.03	
2025-01-11 21:54:12.91	79.48	11.03	
2025-01-11 21:54:13.11	79.52	11.03	
2025-01-11 21:54:13.32	79.56	11.03	
2025-01-11 21:54:13.52	79.60	11.02	
2025-01-11 21:54:13.73	79.64	11.02	
2025-01-11 21:54:13.93	79.67	11.02	
2025-01-11 21:54:14.14	79.71	11.02	
2025-01-11 21:54:14.34	79.75	11.02	
2025-01-11 21:54:14.55	79.79	11.02	
2025-01-11 21:54:14.75	79.82	11.02	
2025-01-11 21:54:14.96	79.86	11.02	
2025-01-11 21:54:15.16	79.90	11.02	
2025-01-11 21:54:15.37	79.94	11.02	
2025-01-11 21:54:15.58	79.98	11.01	
2025-01-11 21:54:15.78	80.02	11.01	
2025-01-11 21:54:15.98	80.05	11.01	
2025-01-11 21:54:16.19	80.09	11.01	
2025-01-11 21:54:16.40	80.13	11.01	
2025-01-11 21:54:16.60	80.17	11.01	
2025-01-11 21:54:16.81	80.21	11.01	
2025-01-11 21:54:17.01	80.24	11.01	
2025-01-11 21:54:17.22	80.28	11.01	
2025-01-11 21:54:17.42	80.32	11.01	
2025-01-11 21:54:17.63	80.36	11.00	
2025-01-11 21:54:17.83	80.40	11.00	
2025-01-11 21:54:18.03	80.43	11.00	
2025-01-11 21:54:18.24	80.47	11.00	
2025-01-11 21:54:18.45	80.51	11.00	
2025-01-11 21:54:18.65	80.55	11.00	
2025-01-11 21:54:18.86	80.59	11.00	
2025-01-11 21:54:19.07	80.62	11.00	
2025-01-11 21:54:19.27	80.66	10.99	
2025-01-11 21:54:19.48	80.70	10.99	
2025-01-11 21:54:19.68	80.74	10.99	
2025-01-11 21:54:19.89	80.78	10.99	
2025-01-11 21:54:20.09	80.81	10.99	
2025-01-11 21:54:20.30	80.85	10.99	
2025-01-11 21:54:20.50	80.89	10.99	
2025-01-11 21:54:20.71	80.93	10.99	
2025-01-11 21:54:20.91	80.97	10.98	
2025-01-11 21:54:21.12	81.00	10.98	
2025-01-11 21:54:21.32	81.04	10.98	
2025-01-11 21:54:21.53	81.08	10.98	
2025-01-11 21:54:21.74	81.12	10.98	
2025-01-11 21:54:21.94	81.16	10.98	
2025-01-11 21:54:22.15	81.19	10.98	
2025-01-11 21:54:22.35	81.23	10.97	
2025-01-11 21:54:22.56	81.27	10.97	
2025-01-11 21:54:22.76	81.31	10.97	
2025-01-11 21:54:22.97	81.35	10.97	
2025-01-11 21:54:23.17	81.38	10.97	
2025-01-11 21:54:23.38	81.42	10.97	
2025-01-11 21:54:23.58	81.46	10.97	
2025-01-11 21:54:23.79	81.50	10.96	
2025-01-11 21:54:23.99	81.53	10.96	
2025-01-11 21:54:24.20	81.57	10.96	
2025-01-11 21:54:24.40	81.61	10.96	
2025-01-11 21:54:24.61	81.65	10.96	
2025-01-11 21:54:24.81	81.69	10.96	
2025-01-11 21:54:25.02	81.72	10.96	
2025-01-11 21:54:25.23	81.76	10.95	
2025-01-11 21:54:25.43	81.80	10.95	
2025-01-11 21:54:25.63	81.84	10.95	
2025-01-11 21:54:25.84	81.88	10.95	
2025-01-11 21:54:26.04	81.91	10.95	
2025-01-11 21:54:26.25	81.95	10.95	
2025-01-11 21:54:26.46	81.99	10.94	
2025-01-11 21:54:26.66	82.03	10.94	
2025-01-11 21:54:26.86	82.06	10.94	
2025-01-11 21:54:27.07	82.10	10.94	
2025-01-11 21:54:27.28	82.14	10.94	
2025-01-11 21:54:27.48	82.18	10.94	
2025-01-11 21:54:27.68	82.21	10.94	
2025-01-11 21:54:27.89	82.25	10.93	
2025-01-11 21:54:28.09	82.29	10.93	
2025-01-11 21:54:28.30	82.33	10.93	
2025-01-11 21:54:28.51	82.37	10.93	
2025-01-11 21:54:28.73	82.41	10.93	
2025-01-11 21:54:28.93	82.44	10.92	
2025-01-11 21:54:29.14	82.48	10.92	
2025-01-11 21:54:29.34	82.52	10.92	
2025-01-11 21:54:29.55	82.56	10.92	
2025-01-11 21:54:29.77	82.60	10.92	
2025-01-11 21:54:29.97	82.64	10.92	
2025-01-11 21:54:30.18	82.68	10.91	
2025-01-11 21:54:30.38	82.71	10.91	
2025-01-11 21:54:30.59	82.75	10.91	
2025-01-11 21:54:30.79	82.79	10.91	
2025-01-11 21:54:31.00	82.83	10.91	
2025-01-11 21:54:31.21	82.86	10.90	
2025-01-11 21:54:31.41	82.90	10.90	
2025-01-11 21:54:31.62	82.94	10.90	
2025-01-11 21:54:31.82	82.98	10.90	
2025-01-11 21:54:32.03	83.02	10.90	
2025-01-11 21:54:32.23	83.05	10.90	
2025-01-11 21:54:32.44	83.09	10.89	
2025-01-11 21:54:32.64	83.13	10.89	
2025-01-11 21:54:32.85	83.17	10.89	
2025-01-11 21:54:33.05	83.20	10.89	
2025-01-11 21:54:33.26	83.24	10.89	
2025-01-11 21:54:33.46	83.28	10.88	
2025-01-11 21:54:33.67	83.32	10.88	
2025-01-11 21:54:33.88	83.36	10.88	
2025-01-11 21:54:34.09	83.39	10.88	
2025-01-11 21:54:34.30	83.43	10.88	
2025-01-11 21:54:34.51	83.47	10.87	
2025-01-11 21:54:34.71	83.51	10.87	
2025-01-11 21:54:34.92	83.55	10.87	
2025-01-11 21:54:35.12	83.58	10.87	
2025-01-11 21:54:35.33	83.62	10.86	
2025-01-11 21:54:35.53	83.66	10.86	
2025-01-11 21:54:35.73	83.69	10.86	
2025-01-11 21:54:35.94	83.73	10.86	
2025-01-11 21:54:36.15	83.77	10.86	
2025-01-11 21:54:36.35	83.81	10.85	
2025-01-11 21:54:36.56	83.85	10.85	
2025-01-11 21:54:36.76	83.88	10.85	
2025-01-11 21:54:36.97	83.92	10.85	
2025-01-11 21:54:37.17	83.96	10.85	
2025-01-11 21:54:37.38	84.00	10.84	
2025-01-11 21:54:37.58	84.03	10.84	
2025-01-11 21:54:37.78	84.07	10.84	
2025-01-11 21:54:37.99	84.11	10.84	
2025-01-11 21:54:38.19	84.15	10.83	
2025-01-11 21:54:38.40	84.18	10.83	
2025-01-11 21:54:38.60	84.22	10.83	
2025-01-11 21:54:38.82	84.26	10.83	
2025-01-11 21:54:39.03	84.30	10.83	
2025-01-11 21:54:39.23	84.34	10.82	
2025-01-11 21:54:39.43	84.37	10.82	
2025-01-11 21:54:39.64	84.41	10.82	
2025-01-11 21:54:39.85	84.45	10.82	
2025-01-11 21:54:40.05	84.49	10.81	
2025-01-11 21:54:40.26	84.52	10.81	
2025-01-11 21:54:40.46	84.56	10.81	
2025-01-11 21:54:40.67	84.60	10.81	
2025-01-11 21:54:40.87	84.64	10.80	
2025-01-11 21:54:41.08	84.67	10.80	
2025-01-11 21:54:41.28	84.71	10.80	
2025-01-11 21:54:41.49	84.75	10.80	
2025-01-11 21:54:41.69	84.79	10.79	
2025-01-11 21:54:41.89	84.82	10.79	
2025-01-11 21:54:42.10	84.86	10.79	
2025-01-11 21:54:42.31	84.90	10.79	
2025-01-11 21:54:42.51	84.94	10.79	
2025-01-11 21:54:42.71	84.97	10.78	
2025-01-11 21:54:42.92	85.01	10.78	
2025-01-11 21:54:43.13	85.05	10.78	
2025-01-11 21:54:43.33	85.08	10.78	
2025-01-11 21:54:43.54	85.12	10.77	
2025-01-11 21:54:43.74	85.16	10.77	
2025-01-11 21:54:43.95	85.20	10.77	
2025-01-11 21:54:44.15	85.23	10.77	
2025-01-11 21:54:44.36	85.27	10.76	
2025-01-11 21:54:44.56	85.31	10.76	
2025-01-11 21:54:44.76	85.35	10.76	
2025-01-11 21:54:44.97	85.38	10.75	
2025-01-11 21:54:45.17	85.42	10.75	
2025-01-11 21:54:45.38	85.46	10.75	
2025-01-11 21:54:45.59	85.50	10.75	
2025-01-11 21:54:45.80	85.53	10.74	
2025-01-11 21:54:46.01	85.57	10.74	
2025-01-11 21:54:46.21	85.61	10.74	
2025-01-11 21:54:46.42	85.65	10.74	
2025-01-11 21:54:46.62	85.68	10.73	
2025-01-11 21:54:46.82	85.72	10.73	
2025-01-11 21:54:47.03	85.76	10.73	
2025-01-11 21:54:47.23	85.79	10.73	
2025-01-11 21:54:47.44	85.83	10.72	
2025-01-11 21:54:47.65	85.87	10.72	
2025-01-11 21:54:47.85	85.91	10.72	
2025-01-11 21:54:48.07	85.95	10.71	
2025-01-11 21:54:48.28	85.99	10.71	
2025-01-11 21:54:48.48	86.02	10.71	
2025-01-11 21:54:48.69	86.06	10.71	
2025-01-11 21:54:48.89	86.10	10.70	
2025-01-11 21:54:49.09	86.13	10.70	
2025-01-11 21:54:49.30	86.17	10.70	
2025-01-11 21:54:49.50	86.21	10.70	
2025-01-11 21:54:49.71	86.25	10.69	
2025-01-11 21:54:49.91	86.28	10.69	
2025-01-11 21:54:50.11	86.32	10.69	
2025-01-11 21:54:50.32	86.36	10.68	
2025-01-11 21:54:50.53	86.39	10.68	
2025-01-11 21:54:50.73	86.43	10.68	
2025-01-11 21:54:50.94	86.47	10.68	
2025-01-11 21:54:51.14	86.50	10.67	
2025-01-11 21:54:51.34	86.54	10.67	
2025-01-11 21:54:51.55	86.58	10.67	
2025-01-11 21:54:51.75	86.62	10.66	
2025-01-11 21:54:51.96	86.65	10.66	
2025-01-11 21:54:52.16	86.69	10.66	
2025-01-11 21:54:52.38	86.73	10.65	
2025-01-11 21:54:52.58	86.77	10.65	
2025-01-11 21:54:52.79	86.80	10.65	
2025-01-11 21:54:52.99	86.84	10.65	
2025-01-11 21:54:53.20	86.88	10.64	
2025-01-11 21:54:53.40	86.91	10.64	
2025-01-11 21:54:53.61	86.95	10.64	
2025-01-11 21:54:53.81	86.99	10.63	
2025-01-11 21:54:54.02	87.03	10.63	
2025-01-11 21:54:54.22	87.06	10.63	
2025-01-11 21:54:54.42	87.10	10.62	
2025-01-11 21:54:54.63	87.14	10.62	
2025-01-11 21:54:54.83	87.17	10.62	
2025-01-11 21:54:55.04	87.21	10.62	
2025-01-11 21:54:55.24	87.25	10.61	
2025-01-11 21:54:55.45	87.28	10.61	
2025-01-11 21:54:55.65	87.32	10.61	
2025-01-11 21:54:55.86	87.36	10.60	
2025-01-11 21:54:56.07	87.40	10.60	
2025-01-11 21:54:56.27	87.43	10.60	
2025-01-11 21:54:56.47	87.47	10.59	
2025-01-11 21:54:56.68	87.51	10.59	
2025-01-11 21:54:56.88	87.54	10.59	
2025-01-11 21:54:57.09	87.58	10.58	
2025-01-11 21:54:57.29	87.62	10.58	
2025-01-11 21:54:57.50	87.65	10.58	
2025-01-11 21:54:57.70	87.69	10.57	
2025-01-11 21:54:57.91	87.73	10.57	
2025-01-11 21:54:58.11	87.76	10.57	
2025-01-11 21:54:58.32	87.80	10.56	
2025-01-11 21:54:58.52	87.84	10.56	
2025-01-11 21:54:58.73	87.87	10.56	
2025-01-11 21:54:58.93	87.91	10.55	
2025-01-11 21:54:59.14	87.95	10.55	
2025-01-11 21:54:59.34	87.98	10.55	
2025-01-11 21:54:59.55	88.02	10.54	
2025-01-11 21:54:59.75	88.06	10.54	
2025-01-11 21:54:59.96	88.10	10.54	
2025-01-11 21:55:00.16	88.13	10.54	
2025-01-11 21:55:00.37	88.17	10.53	
2025-01-11 21:55:00.57	88.21	10.53	
2025-01-11 21:55:00.78	88.24	10.52	
2025-01-11 21:55:00.98	88.28	10.52	
2025-01-11 21:55:01.18	88.31	10.52	
2025-01-11 21:55:01.39	88.35	10.51	
2025-01-11 21:55:01.60	88.39	10.51	
2025-01-11 21:55:01.80	88.43	10.51	
2025-01-11 21:55:02.01	88.46	10.50	
2025-01-11 21:55:02.21	88.50	10.50	
2025-01-11 21:55:02.42	88.54	10.50	
2025-01-11 21:55:02.62	88.57	10.49	
2025-01-11 21:55:02.83	88.61	10.49	
2025-01-11 21:55:03.03	88.65	10.49	
2025-01-11 21:55:03.24	88.68	10.48	
2025-01-11 21:55:03.44	88.72	10.48	
2025-01-11 21:55:03.65	88.76	10.48	
2025-01-11 21:55:03.85	88.79	10.47	
2025-01-11 21:55:04.05	88.83	10.47	
2025-01-11 21:55:04.26	88.87	10.47	
2025-01-11 21:55:04.47	88.90	10.46	
2025-01-11 21:55:04.67	88.94	10.46	
2025-01-11 21:55:04.88	88.98	10.46	
2025-01-11 21:55:05.08	89.01	10.45	
2025-01-11 21:55:05.28	89.05	10.45	
2025-01-11 21:55:05.49	89.09	10.44	
2025-01-11 21:55:05.70	89.12	10.44	
2025-01-11 21:55:05.90	89.16	10.44	
2025-01-11 21:55:06.11	89.20	10.43	
2025-01-11 21:55:06.31	89.23	10.43	
2025-01-11 21:55:06.52	89.27	10.43	
2025-01-11 21:55:06.72	89.31	10.42	
2025-01-11 21:55:06.93	89.34	10.42	
2025-01-11 21:55:07.14	89.38	10.42	
2025-01-11 21:55:07.35	89.42	10.41	
2025-01-11 21:55:07.56	89.46	10.41	
2025-01-11 21:55:07.76	89.49	10.40	
2025-01-11 21:55:07.97	89.53	10.40	
2025-01-11 21:55:08.17	89.56	10.40	
2025-01-11 21:55:08.39	89.60	10.39	
2025-01-11 21:55:08.59	89.64	10.39	
2025-01-11 21:55:08.80	89.68	10.39	
2025-01-11 21:55:09.00	89.71	10.38	
2025-01-11 21:55:09.21	89.75	10.38	
2025-01-11 21:55:09.42	89.79	10.37	
2025-01-11 21:55:09.63	89.82	10.37	
2025-01-11 21:55:09.83	89.86	10.37	
2025-01-11 21:55:10.04	89.90	10.36	
2025-01-11 21:55:10.24	89.93	10.36	
2025-01-11 21:55:10.45	89.97	10.35	
2025-01-11 21:55:10.65	90.00	10.35	
2025-01-11 21:55:10.86	90.04	10.35	
2025-01-11 21:55:11.06	90.08	10.34	
2025-01-11 21:55:11.27	90.11	10.34	
2025-01-11 21:55:11.47	90.15	10.34	
2025-01-11 21:55:11.68	90.19	10.33	
2025-01-11 21:55:11.88	90.22	10.33	
2025-01-11 21:55:12.09	90.26	10.32	
2025-01-11 21:55:12.29	90.29	10.32	
2025-01-11 21:55:12.50	90.33	10.32	
2025-01-11 21:55:12.70	90.37	10.31	
2025-01-11 21:55:12.91	90.40	10.31	
2025-01-11 21:55:13.11	90.44	10.30	
2025-01-11 21:55:13.31	90.48	10.30	
2025-01-11 21:55:13.52	90.51	10.30	
2025-01-11 21:55:13.72	90.55	10.29	
2025-01-11 21:55:13.93	90.59	10.29	
2025-01-11 21:55:14.13	90.62	10.28	
2025-01-11 21:55:14.34	90.66	10.28	
2025-01-11 21:55:14.54	90.69	10.28	
2025-01-11 21:55:14.75	90.73	10.27	
2025-01-11 21:55:14.95	90.77	10.27	
2025-01-11 21:55:15.16	90.80	10.26	
2025-01-11 21:55:15.37	90.84	10.26	
2025-01-11 21:55:15.57	90.87	10.26	
2025-01-11 21:55:15.77	90.91	10.25	
2025-01-11 21:55:15.98	90.95	10.25	
2025-01-11 21:55:16.18	90.98	10.24	
2025-01-11 21:55:16.39	91.02	10.24	
2025-01-11 21:55:16.60	91.06	10.24	
2025-01-11 21:55:16.80	91.09	10.23	
2025-01-11 21:55:17.00	91.13	10.23	
2025-01-11 21:55:17.21	91.16	10.22	
2025-01-11 21:55:17.41	91.20	10.22	
2025-01-11 21:55:17.62	91.24	10.21	
2025-01-11 21:55:17.83	91.27	10.21	
