passes_logs/2025/01/11/SPB_Silybum_02/SPB_Silybum_02__20250111_062556_SUOMI_NPP_rec.log

#Pass ID: 20250111_062556_SUOMI NPP
#Satellite: SUOMI NPP
#Configuration: NPP
#Start time: 2025-01-11 06:25:56

#Version: 2.0.20230423
#Station: SPB_Silybum_02
#Location: 30.233357 lon 59.946436 lat
#TLE: 1 37849U 11061A   25010.83173011  .00000170  00000+0  10148-3 0  9996
#TLE: 2 37849  98.7441 311.8732 0001811  47.3940 312.7388 14.19536379684322

#Time	Az	El	Level	Level2	SNR	BER	Gain	Gain2
2025-01-11 06:25:58.66	50.38	4.10	
2025-01-11 06:25:58.87	50.36	4.11	
2025-01-11 06:25:59.07	50.33	4.12	
2025-01-11 06:25:59.28	50.30	4.13	
2025-01-11 06:25:59.49	50.28	4.13	
2025-01-11 06:25:59.69	50.25	4.14	
2025-01-11 06:25:59.89	50.23	4.15	
2025-01-11 06:26:00.10	50.20	4.16	
2025-01-11 06:26:00.30	50.18	4.16	
2025-01-11 06:26:00.51	50.15	4.17	
2025-01-11 06:26:00.71	50.13	4.18	
2025-01-11 06:26:00.92	50.10	4.19	
2025-01-11 06:26:01.12	50.08	4.20	
2025-01-11 06:26:01.33	50.05	4.20	
2025-01-11 06:26:01.53	50.03	4.21	
2025-01-11 06:26:01.74	50.00	4.22	
2025-01-11 06:26:01.94	49.98	4.23	
2025-01-11 06:26:02.15	49.95	4.23	
2025-01-11 06:26:02.36	49.93	4.24	
2025-01-11 06:26:02.56	49.90	4.25	
2025-01-11 06:26:02.77	49.87	4.26	
2025-01-11 06:26:02.97	49.85	4.26	
2025-01-11 06:26:03.19	49.82	4.27	
2025-01-11 06:26:03.40	49.80	4.28	
2025-01-11 06:26:03.60	49.77	4.29	
2025-01-11 06:26:03.81	49.75	4.30	
2025-01-11 06:26:04.02	49.72	4.30	
2025-01-11 06:26:04.23	49.69	4.31	
2025-01-11 06:26:04.44	49.67	4.32	
2025-01-11 06:26:04.65	49.64	4.33	
2025-01-11 06:26:04.85	49.62	4.34	
2025-01-11 06:26:05.05	49.59	4.34	
2025-01-11 06:26:05.26	49.56	4.35	
2025-01-11 06:26:05.46	49.54	4.36	
2025-01-11 06:26:05.67	49.51	4.37	
2025-01-11 06:26:05.88	49.49	4.37	
2025-01-11 06:26:06.08	49.46	4.38	
2025-01-11 06:26:06.29	49.44	4.39	
2025-01-11 06:26:06.49	49.41	4.40	
2025-01-11 06:26:06.70	49.39	4.40	
2025-01-11 06:26:06.90	49.36	4.41	
2025-01-11 06:26:07.11	49.33	4.42	
2025-01-11 06:26:07.31	49.31	4.43	
2025-01-11 06:26:07.52	49.28	4.44	
2025-01-11 06:26:07.72	49.26	4.44	
2025-01-11 06:26:07.93	49.23	4.45	
2025-01-11 06:26:08.13	49.21	4.46	
2025-01-11 06:26:08.34	49.18	4.47	
2025-01-11 06:26:08.54	49.15	4.47	
2025-01-11 06:26:08.75	49.13	4.48	
2025-01-11 06:26:08.95	49.10	4.49	
2025-01-11 06:26:09.16	49.08	4.50	
2025-01-11 06:26:09.37	49.05	4.50	
2025-01-11 06:26:09.57	49.02	4.51	
2025-01-11 06:26:09.78	49.00	4.52	
2025-01-11 06:26:09.98	48.97	4.53	
2025-01-11 06:26:10.19	48.95	4.53	
2025-01-11 06:26:10.39	48.92	4.54	
2025-01-11 06:26:10.60	48.89	4.55	
2025-01-11 06:26:10.80	48.87	4.56	
2025-01-11 06:26:11.01	48.84	4.56	
2025-01-11 06:26:11.21	48.82	4.57	
2025-01-11 06:26:11.42	48.79	4.58	
2025-01-11 06:26:11.62	48.77	4.59	
2025-01-11 06:26:11.82	48.74	4.59	
2025-01-11 06:26:12.03	48.71	4.60	
2025-01-11 06:26:12.24	48.69	4.61	
2025-01-11 06:26:12.44	48.66	4.62	
2025-01-11 06:26:12.65	48.63	4.62	
2025-01-11 06:26:12.85	48.61	4.63	
2025-01-11 06:26:13.06	48.58	4.64	
2025-01-11 06:26:13.26	48.56	4.65	
2025-01-11 06:26:13.47	48.53	4.66	
2025-01-11 06:26:13.68	48.50	4.66	
2025-01-11 06:26:13.89	48.48	4.67	
2025-01-11 06:26:14.10	48.45	4.68	
2025-01-11 06:26:14.30	48.42	4.69	
2025-01-11 06:26:14.51	48.40	4.69	
2025-01-11 06:26:14.72	48.37	4.70	
2025-01-11 06:26:14.92	48.35	4.71	
2025-01-11 06:26:15.12	48.32	4.72	
2025-01-11 06:26:15.33	48.29	4.72	
2025-01-11 06:26:15.54	48.27	4.73	
2025-01-11 06:26:15.74	48.24	4.74	
2025-01-11 06:26:15.94	48.21	4.75	
2025-01-11 06:26:16.15	48.19	4.75	
2025-01-11 06:26:16.36	48.16	4.76	
2025-01-11 06:26:16.56	48.13	4.77	
2025-01-11 06:26:16.77	48.11	4.78	
2025-01-11 06:26:16.97	48.08	4.78	
2025-01-11 06:26:17.17	48.06	4.79	
2025-01-11 06:26:17.38	48.03	4.80	
2025-01-11 06:26:17.59	48.00	4.81	
2025-01-11 06:26:17.79	47.98	4.81	
2025-01-11 06:26:18.00	47.95	4.82	
2025-01-11 06:26:18.20	47.92	4.83	
2025-01-11 06:26:18.41	47.90	4.84	
2025-01-11 06:26:18.61	47.87	4.84	
2025-01-11 06:26:18.82	47.84	4.85	
2025-01-11 06:26:19.02	47.82	4.86	
2025-01-11 06:26:19.23	47.79	4.87	
2025-01-11 06:26:19.44	47.76	4.87	
2025-01-11 06:26:19.64	47.74	4.88	
2025-01-11 06:26:19.84	47.71	4.89	
2025-01-11 06:26:20.05	47.68	4.90	
2025-01-11 06:26:20.25	47.66	4.90	
2025-01-11 06:26:20.46	47.63	4.91	
2025-01-11 06:26:20.66	47.61	4.92	
2025-01-11 06:26:20.87	47.58	4.92	
2025-01-11 06:26:21.07	47.55	4.93	
2025-01-11 06:26:21.28	47.53	4.94	
2025-01-11 06:26:21.49	47.50	4.95	
2025-01-11 06:26:21.69	47.47	4.95	
2025-01-11 06:26:21.90	47.44	4.96	
2025-01-11 06:26:22.10	47.42	4.97	
2025-01-11 06:26:22.31	47.39	4.98	
2025-01-11 06:26:22.51	47.37	4.98	
2025-01-11 06:26:22.71	47.34	4.99	
2025-01-11 06:26:22.92	47.31	5.00	
2025-01-11 06:26:23.12	47.29	5.01	
2025-01-11 06:26:23.33	47.26	5.01	
2025-01-11 06:26:23.55	47.23	5.02	
2025-01-11 06:26:23.75	47.20	5.03	
2025-01-11 06:26:23.96	47.18	5.04	
2025-01-11 06:26:24.16	47.15	5.04	
2025-01-11 06:26:24.37	47.12	5.05	
2025-01-11 06:26:24.57	47.10	5.06	
2025-01-11 06:26:24.78	47.07	5.07	
2025-01-11 06:26:24.99	47.04	5.07	
2025-01-11 06:26:25.19	47.01	5.08	
2025-01-11 06:26:25.40	46.99	5.09	
2025-01-11 06:26:25.60	46.96	5.09	
2025-01-11 06:26:25.81	46.93	5.10	
2025-01-11 06:26:26.01	46.91	5.11	
2025-01-11 06:26:26.22	46.88	5.12	
2025-01-11 06:26:26.43	46.85	5.12	
2025-01-11 06:26:26.63	46.83	5.13	
2025-01-11 06:26:26.83	46.80	5.14	
2025-01-11 06:26:27.04	46.77	5.15	
2025-01-11 06:26:27.24	46.74	5.15	
2025-01-11 06:26:27.45	46.72	5.16	
2025-01-11 06:26:27.65	46.69	5.17	
2025-01-11 06:26:27.86	46.66	5.18	
2025-01-11 06:26:28.06	46.64	5.18	
2025-01-11 06:26:28.27	46.61	5.19	
2025-01-11 06:26:28.47	46.58	5.20	
2025-01-11 06:26:28.68	46.55	5.20	
2025-01-11 06:26:28.88	46.53	5.21	
2025-01-11 06:26:29.09	46.50	5.22	
2025-01-11 06:26:29.30	46.47	5.23	
2025-01-11 06:26:29.50	46.45	5.23	
2025-01-11 06:26:29.71	46.42	5.24	
2025-01-11 06:26:29.92	46.39	5.25	
2025-01-11 06:26:30.13	46.36	5.26	
2025-01-11 06:26:30.34	46.33	5.26	
2025-01-11 06:26:30.54	46.31	5.27	
2025-01-11 06:26:30.75	46.28	5.28	
2025-01-11 06:26:30.95	46.25	5.28	
2025-01-11 06:26:31.16	46.23	5.29	
2025-01-11 06:26:31.37	46.20	5.30	
2025-01-11 06:26:31.57	46.17	5.31	
2025-01-11 06:26:31.78	46.14	5.31	
2025-01-11 06:26:31.98	46.12	5.32	
2025-01-11 06:26:32.18	46.09	5.33	
2025-01-11 06:26:32.39	46.06	5.33	
2025-01-11 06:26:32.60	46.03	5.34	
2025-01-11 06:26:32.80	46.01	5.35	
2025-01-11 06:26:33.01	45.98	5.36	
2025-01-11 06:26:33.21	45.95	5.36	
2025-01-11 06:26:33.42	45.92	5.37	
2025-01-11 06:26:33.63	45.90	5.38	
2025-01-11 06:26:33.83	45.87	5.39	
2025-01-11 06:26:34.04	45.84	5.39	
2025-01-11 06:26:34.24	45.81	5.40	
2025-01-11 06:26:34.45	45.79	5.41	
2025-01-11 06:26:34.65	45.76	5.41	
2025-01-11 06:26:34.86	45.73	5.42	
2025-01-11 06:26:35.07	45.70	5.43	
2025-01-11 06:26:35.27	45.68	5.44	
2025-01-11 06:26:35.48	45.65	5.44	
2025-01-11 06:26:35.69	45.62	5.45	
2025-01-11 06:26:35.89	45.59	5.46	
2025-01-11 06:26:36.10	45.56	5.46	
2025-01-11 06:26:36.30	45.54	5.47	
2025-01-11 06:26:36.51	45.51	5.48	
2025-01-11 06:26:36.71	45.48	5.49	
2025-01-11 06:26:36.92	45.45	5.49	
2025-01-11 06:26:37.12	45.43	5.50	
2025-01-11 06:26:37.32	45.40	5.51	
2025-01-11 06:26:37.53	45.37	5.51	
2025-01-11 06:26:37.74	45.34	5.52	
2025-01-11 06:26:37.94	45.31	5.53	
2025-01-11 06:26:38.15	45.29	5.54	
2025-01-11 06:26:38.35	45.26	5.54	
2025-01-11 06:26:38.56	45.23	5.55	
2025-01-11 06:26:38.76	45.20	5.56	
2025-01-11 06:26:38.97	45.18	5.56	
2025-01-11 06:26:39.17	45.15	5.57	
2025-01-11 06:26:39.38	45.12	5.58	
2025-01-11 06:26:39.58	45.09	5.58	
2025-01-11 06:26:39.79	45.06	5.59	
2025-01-11 06:26:39.99	45.04	5.60	
2025-01-11 06:26:40.20	45.01	5.61	
2025-01-11 06:26:40.40	44.98	5.61	
2025-01-11 06:26:40.61	44.95	5.62	
2025-01-11 06:26:40.81	44.92	5.63	
2025-01-11 06:26:41.02	44.90	5.63	
2025-01-11 06:26:41.22	44.87	5.64	
2025-01-11 06:26:41.43	44.84	5.65	
2025-01-11 06:26:41.63	44.81	5.65	
2025-01-11 06:26:41.84	44.78	5.66	
2025-01-11 06:26:42.04	44.76	5.67	
2025-01-11 06:26:42.25	44.73	5.68	
2025-01-11 06:26:42.46	44.70	5.68	
2025-01-11 06:26:42.66	44.67	5.69	
2025-01-11 06:26:42.86	44.64	5.70	
2025-01-11 06:26:43.07	44.62	5.70	
2025-01-11 06:26:43.28	44.59	5.71	
2025-01-11 06:26:43.48	44.56	5.72	
2025-01-11 06:26:43.69	44.53	5.72	
2025-01-11 06:26:43.89	44.50	5.73	
2025-01-11 06:26:44.10	44.47	5.74	
2025-01-11 06:26:44.31	44.45	5.75	
2025-01-11 06:26:44.51	44.42	5.75	
2025-01-11 06:26:44.72	44.39	5.76	
2025-01-11 06:26:44.92	44.36	5.77	
2025-01-11 06:26:45.12	44.33	5.77	
2025-01-11 06:26:45.33	44.31	5.78	
2025-01-11 06:26:45.54	44.28	5.79	
2025-01-11 06:26:45.74	44.25	5.79	
2025-01-11 06:26:45.95	44.22	5.80	
2025-01-11 06:26:46.15	44.19	5.81	
2025-01-11 06:26:46.36	44.16	5.81	
2025-01-11 06:26:46.56	44.14	5.82	
2025-01-11 06:26:46.77	44.11	5.83	
2025-01-11 06:26:46.97	44.08	5.84	
2025-01-11 06:26:47.18	44.05	5.84	
2025-01-11 06:26:47.38	44.02	5.85	
2025-01-11 06:26:47.59	43.99	5.86	
2025-01-11 06:26:47.79	43.97	5.86	
2025-01-11 06:26:48.00	43.94	5.87	
2025-01-11 06:26:48.20	43.91	5.88	
2025-01-11 06:26:48.41	43.88	5.88	
2025-01-11 06:26:48.62	43.85	5.89	
2025-01-11 06:26:48.82	43.82	5.90	
2025-01-11 06:26:49.02	43.79	5.90	
2025-01-11 06:26:49.23	43.77	5.91	
2025-01-11 06:26:49.43	43.74	5.92	
2025-01-11 06:26:49.64	43.71	5.92	
2025-01-11 06:26:49.84	43.68	5.93	
2025-01-11 06:26:50.05	43.65	5.94	
2025-01-11 06:26:50.25	43.62	5.94	
2025-01-11 06:26:50.46	43.59	5.95	
2025-01-11 06:26:50.66	43.57	5.96	
2025-01-11 06:26:50.87	43.54	5.97	
2025-01-11 06:26:51.07	43.51	5.97	
2025-01-11 06:26:51.28	43.48	5.98	
2025-01-11 06:26:51.48	43.45	5.99	
2025-01-11 06:26:51.69	43.42	5.99	
2025-01-11 06:26:51.90	43.39	6.00	
2025-01-11 06:26:52.10	43.37	6.01	
2025-01-11 06:26:52.30	43.34	6.01	
2025-01-11 06:26:52.51	43.31	6.02	
2025-01-11 06:26:52.71	43.28	6.03	
2025-01-11 06:26:52.92	43.25	6.03	
2025-01-11 06:26:53.13	43.22	6.04	
2025-01-11 06:26:53.33	43.19	6.05	
2025-01-11 06:26:53.54	43.16	6.05	
2025-01-11 06:26:53.74	43.14	6.06	
2025-01-11 06:26:53.95	43.11	6.07	
2025-01-11 06:26:54.15	43.08	6.07	
2025-01-11 06:26:54.36	43.05	6.08	
2025-01-11 06:26:54.56	43.02	6.09	
2025-01-11 06:26:54.77	42.99	6.09	
2025-01-11 06:26:54.97	42.96	6.10	
2025-01-11 06:26:55.18	42.93	6.11	
2025-01-11 06:26:55.38	42.90	6.11	
2025-01-11 06:26:55.59	42.87	6.12	
2025-01-11 06:26:55.79	42.85	6.13	
2025-01-11 06:26:56.00	42.82	6.13	
2025-01-11 06:26:56.20	42.79	6.14	
2025-01-11 06:26:56.41	42.76	6.15	
2025-01-11 06:26:56.63	42.73	6.15	
2025-01-11 06:26:56.83	42.70	6.16	
2025-01-11 06:26:57.04	42.67	6.17	
2025-01-11 06:26:57.24	42.64	6.17	
2025-01-11 06:26:57.45	42.61	6.18	
2025-01-11 06:26:57.65	42.58	6.19	
2025-01-11 06:26:57.86	42.55	6.19	
2025-01-11 06:26:58.06	42.53	6.20	
2025-01-11 06:26:58.27	42.50	6.21	
2025-01-11 06:26:58.47	42.47	6.21	
2025-01-11 06:26:58.68	42.44	6.22	
2025-01-11 06:26:58.88	42.41	6.23	
2025-01-11 06:26:59.09	42.38	6.23	
2025-01-11 06:26:59.29	42.35	6.24	
2025-01-11 06:26:59.50	42.32	6.25	
2025-01-11 06:26:59.70	42.29	6.25	
2025-01-11 06:26:59.90	42.26	6.26	
2025-01-11 06:27:00.11	42.23	6.27	
2025-01-11 06:27:00.31	42.20	6.27	
2025-01-11 06:27:00.52	42.18	6.28	
2025-01-11 06:27:00.72	42.15	6.29	
2025-01-11 06:27:00.94	42.12	6.29	
2025-01-11 06:27:01.14	42.09	6.30	
2025-01-11 06:27:01.35	42.06	6.31	
2025-01-11 06:27:01.56	42.03	6.31	
2025-01-11 06:27:01.76	42.00	6.32	
2025-01-11 06:27:01.97	41.97	6.32	
2025-01-11 06:27:02.17	41.94	6.33	
2025-01-11 06:27:02.38	41.91	6.34	
2025-01-11 06:27:02.58	41.88	6.34	
2025-01-11 06:27:02.79	41.85	6.35	
2025-01-11 06:27:02.99	41.82	6.36	
2025-01-11 06:27:03.20	41.79	6.36	
2025-01-11 06:27:03.40	41.76	6.37	
2025-01-11 06:27:03.61	41.73	6.38	
2025-01-11 06:27:03.81	41.70	6.38	
2025-01-11 06:27:04.02	41.67	6.39	
2025-01-11 06:27:04.23	41.64	6.40	
2025-01-11 06:27:04.43	41.61	6.40	
2025-01-11 06:27:04.64	41.58	6.41	
2025-01-11 06:27:04.84	41.56	6.42	
2025-01-11 06:27:05.05	41.53	6.42	
2025-01-11 06:27:05.26	41.50	6.43	
2025-01-11 06:27:05.46	41.47	6.43	
2025-01-11 06:27:05.67	41.44	6.44	
2025-01-11 06:27:05.87	41.41	6.45	
2025-01-11 06:27:06.07	41.38	6.45	
2025-01-11 06:27:06.28	41.35	6.46	
2025-01-11 06:27:06.48	41.32	6.47	
2025-01-11 06:27:06.69	41.29	6.47	
2025-01-11 06:27:06.90	41.26	6.48	
2025-01-11 06:27:07.10	41.23	6.49	
2025-01-11 06:27:07.32	41.20	6.49	
2025-01-11 06:27:07.52	41.17	6.50	
2025-01-11 06:27:07.73	41.14	6.51	
2025-01-11 06:27:07.94	41.11	6.51	
2025-01-11 06:27:08.14	41.08	6.52	
2025-01-11 06:27:08.36	41.05	6.52	
2025-01-11 06:27:08.57	41.02	6.53	
2025-01-11 06:27:08.77	40.99	6.54	
2025-01-11 06:27:08.97	40.96	6.54	
2025-01-11 06:27:09.18	40.93	6.55	
2025-01-11 06:27:09.38	40.90	6.56	
2025-01-11 06:27:09.59	40.87	6.56	
2025-01-11 06:27:09.80	40.84	6.57	
2025-01-11 06:27:10.00	40.81	6.58	
2025-01-11 06:27:10.21	40.78	6.58	
2025-01-11 06:27:10.41	40.75	6.59	
2025-01-11 06:27:10.62	40.72	6.59	
2025-01-11 06:27:10.82	40.69	6.60	
2025-01-11 06:27:11.03	40.66	6.61	
2025-01-11 06:27:11.23	40.63	6.61	
2025-01-11 06:27:11.44	40.60	6.62	
2025-01-11 06:27:11.64	40.57	6.63	
2025-01-11 06:27:11.85	40.54	6.63	
2025-01-11 06:27:12.05	40.51	6.64	
2025-01-11 06:27:12.25	40.48	6.64	
2025-01-11 06:27:12.46	40.45	6.65	
2025-01-11 06:27:12.66	40.42	6.66	
2025-01-11 06:27:12.87	40.39	6.66	
2025-01-11 06:27:13.07	40.36	6.67	
2025-01-11 06:27:13.28	40.33	6.68	
2025-01-11 06:27:13.48	40.30	6.68	
2025-01-11 06:27:13.68	40.27	6.69	
2025-01-11 06:27:13.89	40.24	6.69	
2025-01-11 06:27:14.10	40.21	6.70	
2025-01-11 06:27:14.30	40.18	6.71	
2025-01-11 06:27:14.51	40.15	6.71	
2025-01-11 06:27:14.71	40.12	6.72	
2025-01-11 06:27:14.92	40.09	6.72	
2025-01-11 06:27:15.12	40.06	6.73	
2025-01-11 06:27:15.33	40.03	6.74	
2025-01-11 06:27:15.53	40.00	6.74	
2025-01-11 06:27:15.73	39.97	6.75	
2025-01-11 06:27:15.94	39.94	6.76	
2025-01-11 06:27:16.14	39.91	6.76	
2025-01-11 06:27:16.35	39.88	6.77	
2025-01-11 06:27:16.55	39.85	6.77	
2025-01-11 06:27:16.76	39.82	6.78	
2025-01-11 06:27:16.96	39.79	6.79	
2025-01-11 06:27:17.17	39.76	6.79	
2025-01-11 06:27:17.37	39.73	6.80	
2025-01-11 06:27:17.58	39.70	6.80	
2025-01-11 06:27:17.79	39.66	6.81	
2025-01-11 06:27:17.99	39.63	6.82	
2025-01-11 06:27:18.20	39.60	6.82	
2025-01-11 06:27:18.40	39.57	6.83	
2025-01-11 06:27:18.61	39.54	6.83	
2025-01-11 06:27:18.81	39.51	6.84	
2025-01-11 06:27:19.02	39.48	6.85	
2025-01-11 06:27:19.22	39.45	6.85	
2025-01-11 06:27:19.43	39.42	6.86	
2025-01-11 06:27:19.63	39.39	6.86	
2025-01-11 06:27:19.84	39.36	6.87	
2025-01-11 06:27:20.06	39.33	6.88	
2025-01-11 06:27:20.26	39.30	6.88	
2025-01-11 06:27:20.47	39.27	6.89	
2025-01-11 06:27:20.67	39.24	6.89	
2025-01-11 06:27:20.88	39.21	6.90	
2025-01-11 06:27:21.08	39.18	6.91	
2025-01-11 06:27:21.29	39.14	6.91	
2025-01-11 06:27:21.50	39.11	6.92	
2025-01-11 06:27:21.70	39.08	6.92	
2025-01-11 06:27:21.91	39.05	6.93	
2025-01-11 06:27:22.11	39.02	6.94	
2025-01-11 06:27:22.32	38.99	6.94	
2025-01-11 06:27:22.52	38.96	6.95	
2025-01-11 06:27:22.73	38.93	6.95	
2025-01-11 06:27:22.93	38.90	6.96	
2025-01-11 06:27:23.14	38.87	6.97	
2025-01-11 06:27:23.34	38.84	6.97	
2025-01-11 06:27:23.55	38.81	6.98	
2025-01-11 06:27:23.75	38.78	6.98	
2025-01-11 06:27:23.96	38.74	6.99	
2025-01-11 06:27:24.16	38.71	7.00	
2025-01-11 06:27:24.37	38.68	7.00	
2025-01-11 06:27:24.57	38.65	7.01	
2025-01-11 06:27:24.78	38.62	7.01	
2025-01-11 06:27:24.98	38.59	7.02	
2025-01-11 06:27:25.19	38.56	7.02	
2025-01-11 06:27:25.39	38.53	7.03	
2025-01-11 06:27:25.60	38.50	7.04	
2025-01-11 06:27:25.81	38.47	7.04	
2025-01-11 06:27:26.01	38.44	7.05	
2025-01-11 06:27:26.22	38.41	7.05	
2025-01-11 06:27:26.42	38.38	7.06	
2025-01-11 06:27:26.63	38.34	7.07	
2025-01-11 06:27:26.83	38.31	7.07	
2025-01-11 06:27:27.04	38.28	7.08	
2025-01-11 06:27:27.24	38.25	7.08	
2025-01-11 06:27:27.45	38.22	7.09	
2025-01-11 06:27:27.65	38.19	7.09	
2025-01-11 06:27:27.86	38.16	7.10	
2025-01-11 06:27:28.07	38.13	7.11	
2025-01-11 06:27:28.27	38.10	7.11	
2025-01-11 06:27:28.48	38.06	7.12	
2025-01-11 06:27:28.68	38.03	7.12	
2025-01-11 06:27:28.88	38.00	7.13	
2025-01-11 06:27:29.09	37.97	7.13	
2025-01-11 06:27:29.30	37.94	7.14	
2025-01-11 06:27:29.50	37.91	7.15	
2025-01-11 06:27:29.72	37.88	7.15	
2025-01-11 06:27:29.93	37.84	7.16	
2025-01-11 06:27:30.13	37.81	7.16	
2025-01-11 06:27:30.34	37.78	7.17	
2025-01-11 06:27:30.54	37.75	7.17	
2025-01-11 06:27:30.75	37.72	7.18	
2025-01-11 06:27:30.95	37.69	7.19	
2025-01-11 06:27:31.16	37.66	7.19	
2025-01-11 06:27:31.36	37.63	7.20	
2025-01-11 06:27:31.57	37.60	7.20	
2025-01-11 06:27:31.77	37.56	7.21	
2025-01-11 06:27:31.98	37.53	7.21	
2025-01-11 06:27:32.18	37.50	7.22	
2025-01-11 06:27:32.39	37.47	7.23	
2025-01-11 06:27:32.59	37.44	7.23	
2025-01-11 06:27:32.80	37.41	7.24	
2025-01-11 06:27:33.00	37.38	7.24	
2025-01-11 06:27:33.21	37.35	7.25	
2025-01-11 06:27:33.41	37.31	7.25	
2025-01-11 06:27:33.62	37.28	7.26	
2025-01-11 06:27:33.82	37.25	7.26	
2025-01-11 06:27:34.04	37.22	7.27	
2025-01-11 06:27:34.24	37.19	7.28	
2025-01-11 06:27:34.45	37.16	7.28	
2025-01-11 06:27:34.66	37.12	7.29	
2025-01-11 06:27:34.86	37.09	7.29	
2025-01-11 06:27:35.07	37.06	7.30	
2025-01-11 06:27:35.27	37.03	7.30	
2025-01-11 06:27:35.48	37.00	7.31	
2025-01-11 06:27:35.68	36.97	7.31	
2025-01-11 06:27:35.89	36.94	7.32	
2025-01-11 06:27:36.09	36.90	7.33	
2025-01-11 06:27:36.30	36.87	7.33	
2025-01-11 06:27:36.50	36.84	7.34	
2025-01-11 06:27:36.71	36.81	7.34	
2025-01-11 06:27:36.91	36.78	7.35	
2025-01-11 06:27:37.12	36.75	7.35	
2025-01-11 06:27:37.32	36.72	7.36	
2025-01-11 06:27:37.53	36.68	7.36	
2025-01-11 06:27:37.74	36.65	7.37	
2025-01-11 06:27:37.94	36.62	7.37	
2025-01-11 06:27:38.15	36.59	7.38	
2025-01-11 06:27:38.35	36.56	7.39	
2025-01-11 06:27:38.56	36.52	7.39	
2025-01-11 06:27:38.76	36.49	7.40	
2025-01-11 06:27:38.97	36.46	7.40	
2025-01-11 06:27:39.18	36.43	7.41	
2025-01-11 06:27:39.38	36.40	7.41	
2025-01-11 06:27:39.59	36.37	7.42	
2025-01-11 06:27:39.79	36.33	7.42	
2025-01-11 06:27:40.00	36.30	7.43	
2025-01-11 06:27:40.20	36.27	7.43	
2025-01-11 06:27:40.40	36.24	7.44	
2025-01-11 06:27:40.61	36.21	7.44	
2025-01-11 06:27:40.81	36.18	7.45	
2025-01-11 06:27:41.02	36.14	7.46	
2025-01-11 06:27:41.23	36.11	7.46	
2025-01-11 06:27:41.43	36.08	7.47	
2025-01-11 06:27:41.64	36.05	7.47	
2025-01-11 06:27:41.84	36.02	7.48	
2025-01-11 06:27:42.05	35.98	7.48	
2025-01-11 06:27:42.26	35.95	7.49	
2025-01-11 06:27:42.47	35.92	7.49	
2025-01-11 06:27:42.67	35.89	7.50	
2025-01-11 06:27:42.88	35.86	7.50	
2025-01-11 06:27:43.08	35.82	7.51	
2025-01-11 06:27:43.29	35.79	7.51	
2025-01-11 06:27:43.49	35.76	7.52	
2025-01-11 06:27:43.70	35.73	7.52	
2025-01-11 06:27:43.90	35.70	7.53	
2025-01-11 06:27:44.11	35.66	7.53	
2025-01-11 06:27:44.31	35.63	7.54	
2025-01-11 06:27:44.52	35.60	7.55	
2025-01-11 06:27:44.72	35.57	7.55	
2025-01-11 06:27:44.93	35.54	7.56	
2025-01-11 06:27:45.13	35.51	7.56	
2025-01-11 06:27:45.34	35.47	7.57	
2025-01-11 06:27:45.54	35.44	7.57	
2025-01-11 06:27:45.75	35.41	7.58	
2025-01-11 06:27:45.95	35.38	7.58	
2025-01-11 06:27:46.16	35.34	7.59	
2025-01-11 06:27:46.36	35.31	7.59	
2025-01-11 06:27:46.57	35.28	7.60	
2025-01-11 06:27:46.77	35.25	7.60	
2025-01-11 06:27:46.98	35.22	7.61	
2025-01-11 06:27:47.18	35.19	7.61	
2025-01-11 06:27:47.39	35.15	7.62	
2025-01-11 06:27:47.60	35.12	7.62	
2025-01-11 06:27:47.80	35.09	7.63	
2025-01-11 06:27:48.01	35.06	7.63	
2025-01-11 06:27:48.21	35.02	7.64	
2025-01-11 06:27:48.42	34.99	7.64	
2025-01-11 06:27:48.62	34.96	7.65	
2025-01-11 06:27:48.83	34.93	7.65	
2025-01-11 06:27:49.03	34.90	7.66	
2025-01-11 06:27:49.24	34.86	7.66	
2025-01-11 06:27:49.45	34.83	7.67	
2025-01-11 06:27:49.65	34.80	7.67	
2025-01-11 06:27:49.86	34.76	7.68	
2025-01-11 06:27:50.06	34.73	7.68	
2025-01-11 06:27:50.27	34.70	7.69	
2025-01-11 06:27:50.47	34.67	7.69	
2025-01-11 06:27:50.68	34.64	7.70	
2025-01-11 06:27:50.88	34.60	7.70	
2025-01-11 06:27:51.09	34.57	7.71	
2025-01-11 06:27:51.30	34.54	7.71	
2025-01-11 06:27:51.50	34.51	7.72	
2025-01-11 06:27:51.71	34.47	7.72	
2025-01-11 06:27:51.91	34.44	7.73	
2025-01-11 06:27:52.12	34.41	7.73	
2025-01-11 06:27:52.32	34.38	7.74	
2025-01-11 06:27:52.53	34.34	7.74	
2025-01-11 06:27:52.74	34.31	7.75	
2025-01-11 06:27:52.94	34.28	7.75	
2025-01-11 06:27:53.15	34.25	7.76	
2025-01-11 06:27:53.35	34.21	7.76	
2025-01-11 06:27:53.56	34.18	7.77	
2025-01-11 06:27:53.76	34.15	7.77	
2025-01-11 06:27:53.97	34.12	7.78	
2025-01-11 06:27:54.17	34.08	7.78	
2025-01-11 06:27:54.38	34.05	7.79	
2025-01-11 06:27:54.58	34.02	7.79	
2025-01-11 06:27:54.79	33.99	7.80	
2025-01-11 06:27:54.99	33.95	7.80	
2025-01-11 06:27:55.20	33.92	7.81	
2025-01-11 06:27:55.42	33.89	7.81	
2025-01-11 06:27:55.62	33.85	7.81	
2025-01-11 06:27:55.83	33.82	7.82	
2025-01-11 06:27:56.05	33.79	7.82	
2025-01-11 06:27:56.25	33.75	7.83	
2025-01-11 06:27:56.45	33.72	7.83	
2025-01-11 06:27:56.66	33.69	7.84	
2025-01-11 06:27:56.87	33.66	7.84	
2025-01-11 06:27:57.07	33.62	7.85	
2025-01-11 06:27:57.28	33.59	7.85	
2025-01-11 06:27:57.48	33.56	7.86	
2025-01-11 06:27:57.69	33.53	7.86	
2025-01-11 06:27:57.89	33.49	7.87	
2025-01-11 06:27:58.10	33.46	7.87	
2025-01-11 06:27:58.30	33.43	7.88	
2025-01-11 06:27:58.52	33.39	7.88	
2025-01-11 06:27:58.73	33.36	7.89	
2025-01-11 06:27:58.93	33.33	7.89	
2025-01-11 06:27:59.14	33.29	7.90	
2025-01-11 06:27:59.34	33.26	7.90	
2025-01-11 06:27:59.55	33.23	7.91	
2025-01-11 06:27:59.75	33.20	7.91	
2025-01-11 06:27:59.96	33.16	7.91	
2025-01-11 06:28:00.18	33.13	7.92	
2025-01-11 06:28:00.38	33.10	7.92	
2025-01-11 06:28:00.59	33.06	7.93	
2025-01-11 06:28:00.79	33.03	7.93	
2025-01-11 06:28:01.00	33.00	7.94	
2025-01-11 06:28:01.20	32.96	7.94	
2025-01-11 06:28:01.41	32.93	7.95	
2025-01-11 06:28:01.61	32.90	7.95	
2025-01-11 06:28:01.83	32.86	7.96	
2025-01-11 06:28:02.05	32.83	7.96	
2025-01-11 06:28:02.25	32.80	7.97	
2025-01-11 06:28:02.46	32.76	7.97	
2025-01-11 06:28:02.66	32.73	7.97	
2025-01-11 06:28:02.88	32.69	7.98	
2025-01-11 06:28:03.08	32.66	7.98	
2025-01-11 06:28:03.29	32.63	7.99	
2025-01-11 06:28:03.49	32.60	7.99	
2025-01-11 06:28:03.70	32.56	8.00	
2025-01-11 06:28:03.90	32.53	8.00	
2025-01-11 06:28:04.11	32.50	8.01	
2025-01-11 06:28:04.31	32.46	8.01	
2025-01-11 06:28:04.52	32.43	8.01	
2025-01-11 06:28:04.72	32.40	8.02	
2025-01-11 06:28:04.93	32.36	8.02	
2025-01-11 06:28:05.13	32.33	8.03	
2025-01-11 06:28:05.34	32.30	8.03	
2025-01-11 06:28:05.54	32.27	8.04	
2025-01-11 06:28:05.75	32.23	8.04	
2025-01-11 06:28:05.96	32.20	8.05	
2025-01-11 06:28:06.16	32.17	8.05	
2025-01-11 06:28:06.36	32.13	8.05	
2025-01-11 06:28:06.57	32.10	8.06	
2025-01-11 06:28:06.78	32.07	8.06	
2025-01-11 06:28:06.98	32.03	8.07	
2025-01-11 06:28:07.18	32.00	8.07	
2025-01-11 06:28:07.39	31.97	8.08	
2025-01-11 06:28:07.60	31.93	8.08	
2025-01-11 06:28:07.80	31.90	8.08	
2025-01-11 06:28:08.01	31.87	8.09	
2025-01-11 06:28:08.23	31.83	8.09	
2025-01-11 06:28:08.43	31.80	8.10	
2025-01-11 06:28:08.64	31.77	8.10	
2025-01-11 06:28:08.84	31.73	8.11	
2025-01-11 06:28:09.05	31.70	8.11	
2025-01-11 06:28:09.25	31.67	8.11	
2025-01-11 06:28:09.46	31.63	8.12	
2025-01-11 06:28:09.66	31.60	8.12	
2025-01-11 06:28:09.87	31.57	8.13	
2025-01-11 06:28:10.07	31.53	8.13	
2025-01-11 06:28:10.28	31.50	8.14	
2025-01-11 06:28:10.48	31.47	8.14	
2025-01-11 06:28:10.69	31.43	8.14	
2025-01-11 06:28:10.89	31.40	8.15	
2025-01-11 06:28:11.10	31.37	8.15	
2025-01-11 06:28:11.31	31.33	8.16	
2025-01-11 06:28:11.52	31.30	8.16	
2025-01-11 06:28:11.72	31.27	8.17	
2025-01-11 06:28:11.93	31.23	8.17	
2025-01-11 06:28:12.14	31.20	8.17	
2025-01-11 06:28:12.34	31.16	8.18	
2025-01-11 06:28:12.55	31.13	8.18	
2025-01-11 06:28:12.75	31.10	8.19	
2025-01-11 06:28:12.96	31.06	8.19	
2025-01-11 06:28:13.16	31.03	8.19	
2025-01-11 06:28:13.37	31.00	8.20	
2025-01-11 06:28:13.57	30.96	8.20	
2025-01-11 06:28:13.78	30.93	8.21	
2025-01-11 06:28:13.99	30.90	8.21	
2025-01-11 06:28:14.19	30.86	8.21	
2025-01-11 06:28:14.40	30.83	8.22	
2025-01-11 06:28:14.60	30.80	8.22	
2025-01-11 06:28:14.80	30.76	8.23	
2025-01-11 06:28:15.01	30.73	8.23	
2025-01-11 06:28:15.21	30.70	8.23	
2025-01-11 06:28:15.42	30.66	8.24	
2025-01-11 06:28:15.62	30.63	8.24	
2025-01-11 06:28:15.83	30.59	8.25	
2025-01-11 06:28:16.03	30.56	8.25	
2025-01-11 06:28:16.24	30.53	8.25	
2025-01-11 06:28:16.44	30.50	8.26	
2025-01-11 06:28:16.65	30.46	8.26	
2025-01-11 06:28:16.85	30.43	8.27	
2025-01-11 06:28:17.06	30.39	8.27	
2025-01-11 06:28:17.26	30.36	8.27	
2025-01-11 06:28:17.47	30.33	8.28	
2025-01-11 06:28:17.67	30.29	8.28	
2025-01-11 06:28:17.88	30.26	8.29	
2025-01-11 06:28:18.09	30.22	8.29	
2025-01-11 06:28:18.29	30.19	8.29	
2025-01-11 06:28:18.50	30.16	8.30	
2025-01-11 06:28:18.71	30.12	8.30	
2025-01-11 06:28:18.91	30.09	8.30	
2025-01-11 06:28:19.11	30.06	8.31	
2025-01-11 06:28:19.32	30.02	8.31	
2025-01-11 06:28:19.52	29.99	8.32	
2025-01-11 06:28:19.73	29.96	8.32	
2025-01-11 06:28:19.93	29.92	8.32	
2025-01-11 06:28:20.14	29.89	8.33	
2025-01-11 06:28:20.34	29.85	8.33	
2025-01-11 06:28:20.54	29.82	8.34	
2025-01-11 06:28:20.75	29.79	8.34	
2025-01-11 06:28:20.95	29.75	8.34	
2025-01-11 06:28:21.16	29.72	8.35	
2025-01-11 06:28:21.36	29.69	8.35	
2025-01-11 06:28:21.57	29.65	8.35	
2025-01-11 06:28:21.78	29.62	8.36	
2025-01-11 06:28:21.98	29.58	8.36	
2025-01-11 06:28:22.18	29.55	8.36	
2025-01-11 06:28:22.39	29.52	8.37	
2025-01-11 06:28:22.59	29.48	8.37	
2025-01-11 06:28:22.80	29.45	8.38	
2025-01-11 06:28:23.00	29.42	8.38	
2025-01-11 06:28:23.21	29.38	8.38	
2025-01-11 06:28:23.41	29.35	8.39	
2025-01-11 06:28:23.62	29.31	8.39	
2025-01-11 06:28:23.82	29.28	8.39	
2025-01-11 06:28:24.03	29.25	8.40	
2025-01-11 06:28:24.23	29.21	8.40	
2025-01-11 06:28:24.44	29.18	8.41	
2025-01-11 06:28:24.64	29.15	8.41	
2025-01-11 06:28:24.85	29.11	8.41	
2025-01-11 06:28:25.05	29.08	8.42	
2025-01-11 06:28:25.27	29.04	8.42	
2025-01-11 06:28:25.48	29.01	8.42	
2025-01-11 06:28:25.68	28.97	8.43	
2025-01-11 06:28:25.88	28.94	8.43	
2025-01-11 06:28:26.09	28.91	8.43	
2025-01-11 06:28:26.30	28.87	8.44	
2025-01-11 06:28:26.50	28.84	8.44	
2025-01-11 06:28:26.71	28.80	8.44	
2025-01-11 06:28:26.91	28.77	8.45	
2025-01-11 06:28:27.12	28.73	8.45	
2025-01-11 06:28:27.32	28.70	8.45	
2025-01-11 06:28:27.53	28.67	8.46	
2025-01-11 06:28:27.74	28.63	8.46	
2025-01-11 06:28:27.94	28.60	8.47	
2025-01-11 06:28:28.15	28.56	8.47	
2025-01-11 06:28:28.35	28.53	8.47	
2025-01-11 06:28:28.55	28.50	8.48	
2025-01-11 06:28:28.76	28.46	8.48	
2025-01-11 06:28:28.96	28.43	8.48	
2025-01-11 06:28:29.17	28.39	8.49	
2025-01-11 06:28:29.38	28.36	8.49	
2025-01-11 06:28:29.58	28.33	8.49	
2025-01-11 06:28:29.79	28.29	8.50	
2025-01-11 06:28:29.99	28.26	8.50	
2025-01-11 06:28:30.20	28.22	8.50	
2025-01-11 06:28:30.40	28.19	8.51	
2025-01-11 06:28:30.61	28.15	8.51	
2025-01-11 06:28:30.81	28.12	8.51	
2025-01-11 06:28:31.02	28.09	8.52	
2025-01-11 06:28:31.22	28.05	8.52	
2025-01-11 06:28:31.43	28.02	8.52	
2025-01-11 06:28:31.63	27.98	8.53	
2025-01-11 06:28:31.83	27.95	8.53	
2025-01-11 06:28:32.04	27.92	8.53	
2025-01-11 06:28:32.24	27.88	8.54	
2025-01-11 06:28:32.45	27.85	8.54	
2025-01-11 06:28:32.65	27.81	8.54	
2025-01-11 06:28:32.86	27.78	8.55	
2025-01-11 06:28:33.06	27.75	8.55	
2025-01-11 06:28:33.27	27.71	8.55	
2025-01-11 06:28:33.47	27.68	8.55	
2025-01-11 06:28:33.68	27.64	8.56	
2025-01-11 06:28:33.88	27.61	8.56	
2025-01-11 06:28:34.09	27.57	8.56	
2025-01-11 06:28:34.29	27.54	8.57	
2025-01-11 06:28:34.50	27.50	8.57	
2025-01-11 06:28:34.70	27.47	8.57	
2025-01-11 06:28:34.91	27.44	8.58	
2025-01-11 06:28:35.11	27.40	8.58	
2025-01-11 06:28:35.32	27.37	8.58	
2025-01-11 06:28:35.52	27.33	8.59	
2025-01-11 06:28:35.73	27.30	8.59	
2025-01-11 06:28:35.95	27.26	8.59	
2025-01-11 06:28:36.16	27.23	8.60	
2025-01-11 06:28:36.36	27.19	8.60	
2025-01-11 06:28:36.57	27.16	8.60	
2025-01-11 06:28:36.77	27.12	8.60	
2025-01-11 06:28:36.98	27.09	8.61	
2025-01-11 06:28:37.18	27.06	8.61	
2025-01-11 06:28:37.39	27.02	8.61	
2025-01-11 06:28:37.60	26.98	8.62	
2025-01-11 06:28:37.80	26.95	8.62	
2025-01-11 06:28:38.01	26.92	8.62	
2025-01-11 06:28:38.21	26.88	8.63	
2025-01-11 06:28:38.42	26.85	8.63	
2025-01-11 06:28:38.62	26.81	8.63	
2025-01-11 06:28:38.83	26.78	8.63	
2025-01-11 06:28:39.03	26.74	8.64	
2025-01-11 06:28:39.24	26.71	8.64	
2025-01-11 06:28:39.44	26.68	8.64	
2025-01-11 06:28:39.65	26.64	8.65	
2025-01-11 06:28:39.85	26.61	8.65	
2025-01-11 06:28:40.06	26.57	8.65	
2025-01-11 06:28:40.26	26.54	8.66	
2025-01-11 06:28:40.47	26.50	8.66	
2025-01-11 06:28:40.67	26.47	8.66	
2025-01-11 06:28:40.88	26.43	8.66	
2025-01-11 06:28:41.08	26.40	8.67	
2025-01-11 06:28:41.29	26.36	8.67	
2025-01-11 06:28:41.49	26.33	8.67	
2025-01-11 06:28:41.70	26.29	8.68	
2025-01-11 06:28:41.90	26.26	8.68	
2025-01-11 06:28:42.11	26.23	8.68	
2025-01-11 06:28:42.31	26.19	8.68	
2025-01-11 06:28:42.52	26.16	8.69	
2025-01-11 06:28:42.72	26.12	8.69	
2025-01-11 06:28:42.93	26.09	8.69	
2025-01-11 06:28:43.13	26.05	8.69	
2025-01-11 06:28:43.34	26.02	8.70	
2025-01-11 06:28:43.54	25.98	8.70	
2025-01-11 06:28:43.75	25.95	8.70	
2025-01-11 06:28:43.95	25.92	8.71	
2025-01-11 06:28:44.16	25.88	8.71	
2025-01-11 06:28:44.37	25.84	8.71	
2025-01-11 06:28:44.57	25.81	8.71	
2025-01-11 06:28:44.78	25.78	8.72	
2025-01-11 06:28:44.98	25.74	8.72	
2025-01-11 06:28:45.19	25.71	8.72	
2025-01-11 06:28:45.39	25.67	8.72	
2025-01-11 06:28:45.59	25.64	8.73	
2025-01-11 06:28:45.80	25.60	8.73	
2025-01-11 06:28:46.00	25.57	8.73	
2025-01-11 06:28:46.21	25.53	8.73	
2025-01-11 06:28:46.42	25.50	8.74	
2025-01-11 06:28:46.62	25.46	8.74	
2025-01-11 06:28:46.82	25.43	8.74	
2025-01-11 06:28:47.03	25.39	8.74	
2025-01-11 06:28:47.24	25.36	8.75	
2025-01-11 06:28:47.44	25.32	8.75	
2025-01-11 06:28:47.64	25.29	8.75	
2025-01-11 06:28:47.85	25.26	8.76	
2025-01-11 06:28:48.05	25.22	8.76	
2025-01-11 06:28:48.26	25.19	8.76	
2025-01-11 06:28:48.47	25.15	8.76	
2025-01-11 06:28:48.67	25.12	8.77	
2025-01-11 06:28:48.88	25.08	8.77	
2025-01-11 06:28:49.08	25.05	8.77	
2025-01-11 06:28:49.29	25.01	8.77	
2025-01-11 06:28:49.49	24.98	8.77	
2025-01-11 06:28:49.70	24.94	8.78	
2025-01-11 06:28:49.90	24.91	8.78	
2025-01-11 06:28:50.11	24.87	8.78	
2025-01-11 06:28:50.31	24.84	8.78	
2025-01-11 06:28:50.52	24.80	8.79	
2025-01-11 06:28:50.72	24.77	8.79	
2025-01-11 06:28:50.94	24.73	8.79	
2025-01-11 06:28:51.15	24.70	8.79	
2025-01-11 06:28:51.35	24.66	8.80	
2025-01-11 06:28:51.56	24.63	8.80	
2025-01-11 06:28:51.76	24.59	8.80	
2025-01-11 06:28:51.97	24.56	8.80	
2025-01-11 06:28:52.17	24.52	8.81	
2025-01-11 06:28:52.38	24.49	8.81	
2025-01-11 06:28:52.58	24.45	8.81	
2025-01-11 06:28:52.79	24.42	8.81	
2025-01-11 06:28:52.99	24.38	8.82	
2025-01-11 06:28:53.20	24.35	8.82	
2025-01-11 06:28:53.40	24.31	8.82	
2025-01-11 06:28:53.61	24.28	8.82	
2025-01-11 06:28:53.81	24.24	8.82	
2025-01-11 06:28:54.02	24.21	8.83	
2025-01-11 06:28:54.22	24.17	8.83	
2025-01-11 06:28:54.43	24.14	8.83	
2025-01-11 06:28:54.63	24.10	8.83	
2025-01-11 06:28:54.84	24.07	8.84	
2025-01-11 06:28:55.04	24.03	8.84	
2025-01-11 06:28:55.25	24.00	8.84	
2025-01-11 06:28:55.45	23.96	8.84	
2025-01-11 06:28:55.66	23.93	8.84	
2025-01-11 06:28:55.87	23.89	8.85	
2025-01-11 06:28:56.08	23.86	8.85	
2025-01-11 06:28:56.28	23.82	8.85	
2025-01-11 06:28:56.49	23.79	8.85	
2025-01-11 06:28:56.69	23.75	8.85	
2025-01-11 06:28:56.90	23.72	8.86	
2025-01-11 06:28:57.10	23.68	8.86	
2025-01-11 06:28:57.31	23.65	8.86	
2025-01-11 06:28:57.51	23.61	8.86	
2025-01-11 06:28:57.72	23.58	8.87	
2025-01-11 06:28:57.92	23.54	8.87	
2025-01-11 06:28:58.13	23.51	8.87	
2025-01-11 06:28:58.33	23.47	8.87	
2025-01-11 06:28:58.54	23.44	8.87	
2025-01-11 06:28:58.74	23.40	8.88	
2025-01-11 06:28:58.95	23.37	8.88	
2025-01-11 06:28:59.16	23.33	8.88	
2025-01-11 06:28:59.36	23.30	8.88	
2025-01-11 06:28:59.56	23.26	8.88	
2025-01-11 06:28:59.77	23.23	8.88	
2025-01-11 06:28:59.97	23.19	8.89	
2025-01-11 06:29:00.18	23.16	8.89	
2025-01-11 06:29:00.38	23.12	8.89	
2025-01-11 06:29:00.59	23.09	8.89	
2025-01-11 06:29:00.79	23.05	8.89	
2025-01-11 06:29:01.00	23.02	8.90	
2025-01-11 06:29:01.20	22.98	8.90	
2025-01-11 06:29:01.41	22.95	8.90	
2025-01-11 06:29:01.63	22.91	8.90	
2025-01-11 06:29:01.84	22.87	8.90	
2025-01-11 06:29:02.04	22.84	8.91	
2025-01-11 06:29:02.25	22.80	8.91	
2025-01-11 06:29:02.45	22.77	8.91	
2025-01-11 06:29:02.67	22.73	8.91	
2025-01-11 06:29:02.87	22.70	8.91	
2025-01-11 06:29:03.08	22.66	8.92	
2025-01-11 06:29:03.29	22.62	8.92	
2025-01-11 06:29:03.49	22.59	8.92	
2025-01-11 06:29:03.70	22.55	8.92	
2025-01-11 06:29:03.90	22.52	8.92	
2025-01-11 06:29:04.11	22.48	8.92	
2025-01-11 06:29:04.31	22.45	8.93	
2025-01-11 06:29:04.52	22.41	8.93	
2025-01-11 06:29:04.72	22.38	8.93	
2025-01-11 06:29:04.92	22.34	8.93	
2025-01-11 06:29:05.13	22.31	8.93	
2025-01-11 06:29:05.34	22.27	8.93	
2025-01-11 06:29:05.54	22.24	8.94	
2025-01-11 06:29:05.75	22.20	8.94	
2025-01-11 06:29:05.95	22.17	8.94	
2025-01-11 06:29:06.16	22.13	8.94	
2025-01-11 06:29:06.36	22.10	8.94	
2025-01-11 06:29:06.57	22.06	8.94	
2025-01-11 06:29:06.77	22.03	8.95	
2025-01-11 06:29:06.98	21.99	8.95	
2025-01-11 06:29:07.19	21.95	8.95	
2025-01-11 06:29:07.39	21.92	8.95	
2025-01-11 06:29:07.59	21.89	8.95	
2025-01-11 06:29:07.80	21.85	8.95	
2025-01-11 06:29:08.00	21.81	8.95	
2025-01-11 06:29:08.21	21.78	8.96	
2025-01-11 06:29:08.41	21.74	8.96	
2025-01-11 06:29:08.62	21.71	8.96	
2025-01-11 06:29:08.82	21.67	8.96	
2025-01-11 06:29:09.03	21.64	8.96	
2025-01-11 06:29:09.23	21.60	8.96	
2025-01-11 06:29:09.44	21.57	8.97	
2025-01-11 06:29:09.64	21.53	8.97	
2025-01-11 06:29:09.85	21.50	8.97	
2025-01-11 06:29:10.05	21.46	8.97	
2025-01-11 06:29:10.26	21.43	8.97	
2025-01-11 06:29:10.46	21.39	8.97	
2025-01-11 06:29:10.67	21.36	8.97	
2025-01-11 06:29:10.87	21.32	8.98	
2025-01-11 06:29:11.08	21.29	8.98	
2025-01-11 06:29:11.28	21.25	8.98	
2025-01-11 06:29:11.49	21.21	8.98	
2025-01-11 06:29:11.69	21.18	8.98	
2025-01-11 06:29:11.90	21.14	8.98	
2025-01-11 06:29:12.10	21.11	8.98	
2025-01-11 06:29:12.31	21.07	8.99	
2025-01-11 06:29:12.51	21.04	8.99	
2025-01-11 06:29:12.72	21.00	8.99	
2025-01-11 06:29:12.92	20.97	8.99	
2025-01-11 06:29:13.13	20.93	8.99	
2025-01-11 06:29:13.33	20.90	8.99	
2025-01-11 06:29:13.54	20.86	8.99	
2025-01-11 06:29:13.74	20.83	8.99	
2025-01-11 06:29:13.95	20.79	9.00	
2025-01-11 06:29:14.15	20.76	9.00	
2025-01-11 06:29:14.36	20.72	9.00	
2025-01-11 06:29:14.56	20.69	9.00	
2025-01-11 06:29:14.76	20.65	9.00	
2025-01-11 06:29:14.97	20.62	9.00	
2025-01-11 06:29:15.17	20.58	9.00	
2025-01-11 06:29:15.38	20.54	9.00	
2025-01-11 06:29:15.58	20.51	9.00	
2025-01-11 06:29:15.79	20.47	9.01	
2025-01-11 06:29:15.99	20.44	9.01	
2025-01-11 06:29:16.20	20.40	9.01	
2025-01-11 06:29:16.41	20.37	9.01	
2025-01-11 06:29:16.62	20.33	9.01	
2025-01-11 06:29:16.83	20.29	9.01	
2025-01-11 06:29:17.03	20.26	9.01	
2025-01-11 06:29:17.24	20.22	9.01	
2025-01-11 06:29:17.44	20.19	9.01	
2025-01-11 06:29:17.65	20.15	9.02	
2025-01-11 06:29:17.85	20.12	9.02	
2025-01-11 06:29:18.06	20.08	9.02	
2025-01-11 06:29:18.26	20.05	9.02	
2025-01-11 06:29:18.47	20.01	9.02	
2025-01-11 06:29:18.67	19.98	9.02	
2025-01-11 06:29:18.88	19.94	9.02	
2025-01-11 06:29:19.08	19.91	9.02	
2025-01-11 06:29:19.29	19.87	9.02	
2025-01-11 06:29:19.50	19.83	9.03	
2025-01-11 06:29:19.70	19.80	9.03	
2025-01-11 06:29:19.90	19.76	9.03	
2025-01-11 06:29:20.11	19.73	9.03	
2025-01-11 06:29:20.32	19.69	9.03	
2025-01-11 06:29:20.52	19.66	9.03	
2025-01-11 06:29:20.73	19.62	9.03	
2025-01-11 06:29:20.93	19.59	9.03	
2025-01-11 06:29:21.14	19.55	9.03	
2025-01-11 06:29:21.34	19.52	9.03	
2025-01-11 06:29:21.55	19.48	9.03	
2025-01-11 06:29:21.75	19.44	9.04	
2025-01-11 06:29:21.96	19.41	9.04	
2025-01-11 06:29:22.16	19.37	9.04	
2025-01-11 06:29:22.37	19.34	9.04	
2025-01-11 06:29:22.58	19.30	9.04	
2025-01-11 06:29:22.78	19.27	9.04	
2025-01-11 06:29:23.00	19.23	9.04	
2025-01-11 06:29:23.20	19.19	9.04	
2025-01-11 06:29:23.41	19.16	9.04	
2025-01-11 06:29:23.61	19.12	9.04	
2025-01-11 06:29:23.82	19.09	9.04	
2025-01-11 06:29:24.02	19.05	9.04	
2025-01-11 06:29:24.23	19.02	9.04	
2025-01-11 06:29:24.43	18.98	9.05	
2025-01-11 06:29:24.64	18.95	9.05	
2025-01-11 06:29:24.84	18.91	9.05	
2025-01-11 06:29:25.05	18.87	9.05	
2025-01-11 06:29:25.25	18.84	9.05	
2025-01-11 06:29:25.46	18.80	9.05	
2025-01-11 06:29:25.66	18.77	9.05	
2025-01-11 06:29:25.87	18.73	9.05	
2025-01-11 06:29:26.07	18.70	9.05	
2025-01-11 06:29:26.29	18.66	9.05	
2025-01-11 06:29:26.50	18.62	9.05	
2025-01-11 06:29:26.71	18.59	9.05	
2025-01-11 06:29:26.91	18.55	9.05	
2025-01-11 06:29:27.12	18.52	9.05	
2025-01-11 06:29:27.33	18.48	9.05	
2025-01-11 06:29:27.54	18.44	9.05	
2025-01-11 06:29:27.75	18.41	9.06	
2025-01-11 06:29:27.95	18.37	9.06	
2025-01-11 06:29:28.15	18.34	9.06	
2025-01-11 06:29:28.37	18.30	9.06	
2025-01-11 06:29:28.58	18.26	9.06	
2025-01-11 06:29:28.78	18.23	9.06	
2025-01-11 06:29:28.99	18.19	9.06	
2025-01-11 06:29:29.19	18.16	9.06	
2025-01-11 06:29:29.39	18.12	9.06	
2025-01-11 06:29:29.60	18.09	9.06	
2025-01-11 06:29:29.80	18.05	9.06	
2025-01-11 06:29:30.01	18.02	9.06	
2025-01-11 06:29:30.21	17.98	9.06	
2025-01-11 06:29:30.42	17.95	9.06	
2025-01-11 06:29:30.62	17.91	9.06	
2025-01-11 06:29:30.83	17.87	9.06	
2025-01-11 06:29:31.03	17.84	9.06	
2025-01-11 06:29:31.24	17.80	9.06	
2025-01-11 06:29:31.44	17.77	9.06	
2025-01-11 06:29:31.65	17.73	9.06	
2025-01-11 06:29:31.85	17.70	9.06	
2025-01-11 06:29:32.06	17.66	9.06	
2025-01-11 06:29:32.27	17.63	9.06	
2025-01-11 06:29:32.47	17.59	9.07	
2025-01-11 06:29:32.68	17.55	9.07	
2025-01-11 06:29:32.88	17.52	9.07	
2025-01-11 06:29:33.09	17.48	9.07	
2025-01-11 06:29:33.29	17.45	9.07	
2025-01-11 06:29:33.50	17.41	9.07	
2025-01-11 06:29:33.70	17.38	9.07	
2025-01-11 06:29:33.90	17.34	9.07	
2025-01-11 06:29:34.11	17.31	9.07	
2025-01-11 06:29:34.32	17.27	9.07	
2025-01-11 06:29:34.52	17.24	9.07	
2025-01-11 06:29:34.72	17.20	9.07	
2025-01-11 06:29:34.93	17.16	9.07	
2025-01-11 06:29:35.13	17.13	9.07	
2025-01-11 06:29:35.34	17.09	9.07	
2025-01-11 06:29:35.54	17.06	9.07	
2025-01-11 06:29:35.75	17.02	9.07	
2025-01-11 06:29:35.95	16.99	9.07	
2025-01-11 06:29:36.16	16.95	9.07	
2025-01-11 06:29:36.36	16.92	9.07	
2025-01-11 06:29:36.56	16.88	9.07	
2025-01-11 06:29:36.77	16.85	9.07	
2025-01-11 06:29:36.97	16.81	9.07	
2025-01-11 06:29:37.18	16.77	9.07	
2025-01-11 06:29:37.38	16.74	9.07	
2025-01-11 06:29:37.59	16.70	9.07	
2025-01-11 06:29:37.80	16.67	9.07	
2025-01-11 06:29:38.00	16.63	9.07	
2025-01-11 06:29:38.21	16.60	9.07	
2025-01-11 06:29:38.41	16.56	9.07	
2025-01-11 06:29:38.62	16.53	9.07	
2025-01-11 06:29:38.82	16.49	9.07	
2025-01-11 06:29:39.03	16.45	9.07	
2025-01-11 06:29:39.24	16.42	9.07	
2025-01-11 06:29:39.44	16.38	9.07	
2025-01-11 06:29:39.65	16.35	9.07	
2025-01-11 06:29:39.85	16.31	9.07	
2025-01-11 06:29:40.06	16.28	9.07	
2025-01-11 06:29:40.26	16.24	9.07	
2025-01-11 06:29:40.47	16.21	9.07	
2025-01-11 06:29:40.67	16.17	9.07	
2025-01-11 06:29:40.88	16.13	9.07	
2025-01-11 06:29:41.08	16.10	9.07	
2025-01-11 06:29:41.29	16.06	9.07	
2025-01-11 06:29:41.49	16.03	9.07	
2025-01-11 06:29:41.70	15.99	9.07	
2025-01-11 06:29:41.91	15.96	9.07	
2025-01-11 06:29:42.11	15.92	9.07	
2025-01-11 06:29:42.31	15.89	9.07	
2025-01-11 06:29:42.52	15.85	9.07	
2025-01-11 06:29:42.72	15.82	9.07	
2025-01-11 06:29:42.94	15.78	9.07	
2025-01-11 06:29:43.14	15.74	9.07	
2025-01-11 06:29:43.35	15.71	9.07	
2025-01-11 06:29:43.55	15.67	9.07	
2025-01-11 06:29:43.76	15.64	9.07	
2025-01-11 06:29:43.96	15.60	9.07	
2025-01-11 06:29:44.17	15.56	9.07	
2025-01-11 06:29:44.37	15.53	9.07	
2025-01-11 06:29:44.58	15.49	9.06	
2025-01-11 06:29:44.78	15.46	9.06	
2025-01-11 06:29:44.98	15.42	9.06	
2025-01-11 06:29:45.19	15.39	9.06	
2025-01-11 06:29:45.39	15.35	9.06	
2025-01-11 06:29:45.60	15.32	9.06	
2025-01-11 06:29:45.80	15.28	9.06	
2025-01-11 06:29:46.01	15.25	9.06	
2025-01-11 06:29:46.21	15.21	9.06	
2025-01-11 06:29:46.42	15.18	9.06	
2025-01-11 06:29:46.62	15.14	9.06	
2025-01-11 06:29:46.83	15.10	9.06	
2025-01-11 06:29:47.03	15.07	9.06	
2025-01-11 06:29:47.24	15.03	9.06	
2025-01-11 06:29:47.45	15.00	9.06	
2025-01-11 06:29:47.66	14.96	9.06	
2025-01-11 06:29:47.87	14.92	9.06	
2025-01-11 06:29:48.08	14.89	9.06	
2025-01-11 06:29:48.28	14.85	9.06	
2025-01-11 06:29:48.48	14.82	9.06	
2025-01-11 06:29:48.69	14.78	9.06	
2025-01-11 06:29:48.90	14.75	9.06	
2025-01-11 06:29:49.10	14.71	9.06	
2025-01-11 06:29:49.31	14.67	9.05	
2025-01-11 06:29:49.51	14.64	9.05	
2025-01-11 06:29:49.73	14.60	9.05	
2025-01-11 06:29:49.94	14.57	9.05	
2025-01-11 06:29:50.14	14.53	9.05	
2025-01-11 06:29:50.35	14.50	9.05	
2025-01-11 06:29:50.55	14.46	9.05	
2025-01-11 06:29:50.75	14.43	9.05	
2025-01-11 06:29:50.96	14.39	9.05	
2025-01-11 06:29:51.17	14.35	9.05	
2025-01-11 06:29:51.37	14.32	9.05	
2025-01-11 06:29:51.58	14.28	9.05	
2025-01-11 06:29:51.78	14.25	9.05	
2025-01-11 06:29:51.99	14.21	9.05	
2025-01-11 06:29:52.19	14.18	9.05	
2025-01-11 06:29:52.40	14.14	9.05	
2025-01-11 06:29:52.60	14.11	9.04	
2025-01-11 06:29:52.81	14.07	9.04	
2025-01-11 06:29:53.01	14.04	9.04	
2025-01-11 06:29:53.22	14.00	9.04	
2025-01-11 06:29:53.42	13.96	9.04	
2025-01-11 06:29:53.63	13.93	9.04	
2025-01-11 06:29:53.84	13.89	9.04	
2025-01-11 06:29:54.04	13.86	9.04	
2025-01-11 06:29:54.25	13.82	9.04	
2025-01-11 06:29:54.45	13.79	9.04	
2025-01-11 06:29:54.66	13.75	9.04	
2025-01-11 06:29:54.86	13.72	9.04	
2025-01-11 06:29:55.07	13.68	9.04	
2025-01-11 06:29:55.27	13.64	9.03	
2025-01-11 06:29:55.48	13.61	9.03	
2025-01-11 06:29:55.68	13.57	9.03	
2025-01-11 06:29:55.89	13.54	9.03	
2025-01-11 06:29:56.09	13.50	9.03	
2025-01-11 06:29:56.30	13.47	9.03	
2025-01-11 06:29:56.50	13.43	9.03	
2025-01-11 06:29:56.71	13.40	9.03	
2025-01-11 06:29:56.91	13.36	9.03	
2025-01-11 06:29:57.11	13.33	9.03	
2025-01-11 06:29:57.32	13.29	9.03	
2025-01-11 06:29:57.52	13.26	9.02	
2025-01-11 06:29:57.73	13.22	9.02	
2025-01-11 06:29:57.93	13.19	9.02	
2025-01-11 06:29:58.14	13.15	9.02	
2025-01-11 06:29:58.34	13.11	9.02	
2025-01-11 06:29:58.55	13.08	9.02	
2025-01-11 06:29:58.75	13.04	9.02	
2025-01-11 06:29:58.96	13.01	9.02	
2025-01-11 06:29:59.17	12.97	9.02	
2025-01-11 06:29:59.37	12.94	9.01	
2025-01-11 06:29:59.58	12.90	9.01	
2025-01-11 06:29:59.78	12.87	9.01	
2025-01-11 06:29:59.98	12.83	9.01	
2025-01-11 06:30:00.19	12.80	9.01	
2025-01-11 06:30:00.39	12.76	9.01	
2025-01-11 06:30:00.60	12.72	9.01	
2025-01-11 06:30:00.80	12.69	9.01	
2025-01-11 06:30:01.01	12.65	9.01	
2025-01-11 06:30:01.21	12.62	9.00	
2025-01-11 06:30:01.42	12.58	9.00	
2025-01-11 06:30:01.62	12.55	9.00	
2025-01-11 06:30:01.83	12.51	9.00	
2025-01-11 06:30:02.03	12.48	9.00	
2025-01-11 06:30:02.24	12.44	9.00	
2025-01-11 06:30:02.44	12.41	9.00	
2025-01-11 06:30:02.64	12.37	9.00	
2025-01-11 06:30:02.85	12.34	9.00	
2025-01-11 06:30:03.06	12.30	8.99	
2025-01-11 06:30:03.26	12.27	8.99	
2025-01-11 06:30:03.47	12.23	8.99	
2025-01-11 06:30:03.67	12.20	8.99	
2025-01-11 06:30:03.88	12.16	8.99	
2025-01-11 06:30:04.08	12.13	8.99	
2025-01-11 06:30:04.29	12.09	8.99	
2025-01-11 06:30:04.49	12.05	8.99	
2025-01-11 06:30:04.70	12.02	8.98	
2025-01-11 06:30:04.90	11.98	8.98	
2025-01-11 06:30:05.11	11.95	8.98	
2025-01-11 06:30:05.31	11.91	8.98	
2025-01-11 06:30:05.52	11.88	8.98	
2025-01-11 06:30:05.72	11.84	8.98	
2025-01-11 06:30:05.93	11.81	8.98	
2025-01-11 06:30:06.13	11.77	8.97	
2025-01-11 06:30:06.34	11.74	8.97	
2025-01-11 06:30:06.54	11.70	8.97	
2025-01-11 06:30:06.75	11.67	8.97	
2025-01-11 06:30:06.95	11.63	8.97	
2025-01-11 06:30:07.16	11.60	8.97	
2025-01-11 06:30:07.36	11.56	8.97	
2025-01-11 06:30:07.57	11.52	8.96	
2025-01-11 06:30:07.77	11.49	8.96	
2025-01-11 06:30:07.98	11.45	8.96	
2025-01-11 06:30:08.18	11.42	8.96	
2025-01-11 06:30:08.38	11.39	8.96	
2025-01-11 06:30:08.59	11.35	8.96	
2025-01-11 06:30:08.80	11.31	8.96	
2025-01-11 06:30:09.00	11.28	8.95	
2025-01-11 06:30:09.21	11.24	8.95	
2025-01-11 06:30:09.41	11.21	8.95	
2025-01-11 06:30:09.62	11.17	8.95	
2025-01-11 06:30:09.83	11.14	8.95	
2025-01-11 06:30:10.03	11.10	8.95	
2025-01-11 06:30:10.24	11.07	8.94	
2025-01-11 06:30:10.44	11.03	8.94	
2025-01-11 06:30:10.65	11.00	8.94	
2025-01-11 06:30:10.85	10.96	8.94	
2025-01-11 06:30:11.05	10.93	8.94	
2025-01-11 06:30:11.26	10.89	8.94	
2025-01-11 06:30:11.47	10.86	8.93	
2025-01-11 06:30:11.67	10.82	8.93	
2025-01-11 06:30:11.88	10.79	8.93	
2025-01-11 06:30:12.08	10.75	8.93	
2025-01-11 06:30:12.29	10.71	8.93	
2025-01-11 06:30:12.49	10.68	8.93	
2025-01-11 06:30:12.70	10.64	8.92	
2025-01-11 06:30:12.90	10.61	8.92	
2025-01-11 06:30:13.11	10.57	8.92	
2025-01-11 06:30:13.31	10.54	8.92	
2025-01-11 06:30:13.52	10.50	8.92	
2025-01-11 06:30:13.72	10.47	8.92	
2025-01-11 06:30:13.93	10.43	8.91	
2025-01-11 06:30:14.13	10.40	8.91	
2025-01-11 06:30:14.34	10.36	8.91	
2025-01-11 06:30:14.54	10.33	8.91	
2025-01-11 06:30:14.75	10.29	8.91	
2025-01-11 06:30:14.95	10.26	8.90	
2025-01-11 06:30:15.16	10.22	8.90	
2025-01-11 06:30:15.36	10.19	8.90	
2025-01-11 06:30:15.57	10.15	8.90	
2025-01-11 06:30:15.77	10.12	8.90	
2025-01-11 06:30:15.98	10.08	8.89	
2025-01-11 06:30:16.18	10.05	8.89	
2025-01-11 06:30:16.39	10.01	8.89	
2025-01-11 06:30:16.59	9.98	8.89	
2025-01-11 06:30:16.80	9.94	8.89	
2025-01-11 06:30:17.00	9.91	8.89	
2025-01-11 06:30:17.21	9.87	8.88	
2025-01-11 06:30:17.41	9.84	8.88	
2025-01-11 06:30:17.63	9.80	8.88	
2025-01-11 06:30:17.84	9.77	8.88	
2025-01-11 06:30:18.04	9.73	8.88	
2025-01-11 06:30:18.25	9.69	8.87	
2025-01-11 06:30:18.45	9.66	8.87	
2025-01-11 06:30:18.65	9.63	8.87	
2025-01-11 06:30:18.86	9.59	8.87	
2025-01-11 06:30:19.06	9.56	8.87	
2025-01-11 06:30:19.27	9.52	8.86	
2025-01-11 06:30:19.48	9.49	8.86	
2025-01-11 06:30:19.68	9.45	8.86	
2025-01-11 06:30:19.88	9.42	8.86	
2025-01-11 06:30:20.09	9.38	8.85	
2025-01-11 06:30:20.29	9.35	8.85	
2025-01-11 06:30:20.50	9.31	8.85	
2025-01-11 06:30:20.70	9.28	8.85	
2025-01-11 06:30:20.91	9.24	8.85	
2025-01-11 06:30:21.11	9.21	8.84	
2025-01-11 06:30:21.32	9.17	8.84	
2025-01-11 06:30:21.52	9.14	8.84	
2025-01-11 06:30:21.73	9.10	8.84	
2025-01-11 06:30:21.93	9.07	8.84	
2025-01-11 06:30:22.14	9.03	8.83	
2025-01-11 06:30:22.34	9.00	8.83	
2025-01-11 06:30:22.55	8.96	8.83	
2025-01-11 06:30:22.76	8.93	8.83	
2025-01-11 06:30:22.96	8.89	8.82	
2025-01-11 06:30:23.16	8.86	8.82	
2025-01-11 06:30:23.37	8.82	8.82	
2025-01-11 06:30:23.57	8.79	8.82	
2025-01-11 06:30:23.78	8.75	8.82	
2025-01-11 06:30:23.98	8.72	8.81	
2025-01-11 06:30:24.18	8.68	8.81	
2025-01-11 06:30:24.39	8.65	8.81	
2025-01-11 06:30:24.60	8.61	8.81	
2025-01-11 06:30:24.80	8.58	8.80	
2025-01-11 06:30:25.00	8.55	8.80	
2025-01-11 06:30:25.21	8.51	8.80	
2025-01-11 06:30:25.41	8.48	8.80	
2025-01-11 06:30:25.62	8.44	8.79	
2025-01-11 06:30:25.83	8.40	8.79	
2025-01-11 06:30:26.03	8.37	8.79	
2025-01-11 06:30:26.24	8.33	8.79	
2025-01-11 06:30:26.44	8.30	8.79	
2025-01-11 06:30:26.65	8.26	8.78	
2025-01-11 06:30:26.85	8.23	8.78	
2025-01-11 06:30:27.06	8.20	8.78	
2025-01-11 06:30:27.26	8.16	8.78	
2025-01-11 06:30:27.47	8.13	8.77	
2025-01-11 06:30:27.68	8.09	8.77	
2025-01-11 06:30:27.88	8.06	8.77	
2025-01-11 06:30:28.09	8.02	8.77	
2025-01-11 06:30:28.29	7.99	8.76	
2025-01-11 06:30:28.49	7.95	8.76	
2025-01-11 06:30:28.70	7.92	8.76	
2025-01-11 06:30:28.91	7.88	8.76	
2025-01-11 06:30:29.11	7.85	8.75	
2025-01-11 06:30:29.32	7.81	8.75	
2025-01-11 06:30:29.52	7.78	8.75	
2025-01-11 06:30:29.73	7.74	8.75	
2025-01-11 06:30:29.93	7.71	8.74	
2025-01-11 06:30:30.14	7.67	8.74	
2025-01-11 06:30:30.34	7.64	8.74	
2025-01-11 06:30:30.55	7.60	8.74	
2025-01-11 06:30:30.76	7.57	8.73	
2025-01-11 06:30:30.96	7.53	8.73	
2025-01-11 06:30:31.16	7.50	8.73	
2025-01-11 06:30:31.36	7.47	8.72	
2025-01-11 06:30:31.57	7.43	8.72	
2025-01-11 06:30:31.77	7.40	8.72	
2025-01-11 06:30:31.98	7.36	8.72	
2025-01-11 06:30:32.18	7.33	8.71	
2025-01-11 06:30:32.39	7.29	8.71	
2025-01-11 06:30:32.59	7.26	8.71	
2025-01-11 06:30:32.80	7.22	8.71	
2025-01-11 06:30:33.00	7.19	8.70	
2025-01-11 06:30:33.21	7.15	8.70	
2025-01-11 06:30:33.41	7.12	8.70	
2025-01-11 06:30:33.62	7.09	8.70	
2025-01-11 06:30:33.82	7.05	8.69	
2025-01-11 06:30:34.03	7.02	8.69	
2025-01-11 06:30:34.23	6.98	8.69	
2025-01-11 06:30:34.44	6.95	8.68	
2025-01-11 06:30:34.66	6.91	8.68	
2025-01-11 06:30:34.86	6.88	8.68	
2025-01-11 06:30:35.07	6.84	8.68	
2025-01-11 06:30:35.27	6.81	8.67	
2025-01-11 06:30:35.48	6.77	8.67	
2025-01-11 06:30:35.68	6.74	8.67	
2025-01-11 06:30:35.88	6.70	8.66	
2025-01-11 06:30:36.09	6.67	8.66	
2025-01-11 06:30:36.29	6.64	8.66	
2025-01-11 06:30:36.50	6.60	8.66	
2025-01-11 06:30:36.71	6.57	8.65	
2025-01-11 06:30:36.91	6.53	8.65	
2025-01-11 06:30:37.11	6.50	8.65	
2025-01-11 06:30:37.32	6.46	8.64	
2025-01-11 06:30:37.52	6.43	8.64	
2025-01-11 06:30:37.73	6.39	8.64	
2025-01-11 06:30:37.93	6.36	8.64	
2025-01-11 06:30:38.14	6.33	8.63	
2025-01-11 06:30:38.34	6.29	8.63	
2025-01-11 06:30:38.55	6.26	8.63	
2025-01-11 06:30:38.76	6.22	8.62	
2025-01-11 06:30:38.96	6.19	8.62	
2025-01-11 06:30:39.18	6.15	8.62	
2025-01-11 06:30:39.38	6.12	8.61	
2025-01-11 06:30:39.59	6.08	8.61	
2025-01-11 06:30:39.79	6.05	8.61	
2025-01-11 06:30:39.99	6.01	8.61	
2025-01-11 06:30:40.20	5.98	8.60	
2025-01-11 06:30:40.41	5.94	8.60	
2025-01-11 06:30:40.61	5.91	8.60	
2025-01-11 06:30:40.82	5.88	8.59	
2025-01-11 06:30:41.02	5.84	8.59	
2025-01-11 06:30:41.23	5.81	8.59	
2025-01-11 06:30:41.43	5.77	8.58	
2025-01-11 06:30:41.64	5.74	8.58	
2025-01-11 06:30:41.85	5.70	8.58	
2025-01-11 06:30:42.05	5.67	8.57	
2025-01-11 06:30:42.26	5.63	8.57	
2025-01-11 06:30:42.46	5.60	8.57	
2025-01-11 06:30:42.67	5.57	8.57	
2025-01-11 06:30:42.87	5.53	8.56	
2025-01-11 06:30:43.07	5.50	8.56	
2025-01-11 06:30:43.28	5.46	8.56	
2025-01-11 06:30:43.49	5.43	8.55	
2025-01-11 06:30:43.69	5.40	8.55	
2025-01-11 06:30:43.90	5.36	8.55	
2025-01-11 06:30:44.10	5.33	8.54	
2025-01-11 06:30:44.31	5.29	8.54	
2025-01-11 06:30:44.51	5.26	8.54	
2025-01-11 06:30:44.72	5.22	8.53	
2025-01-11 06:30:44.93	5.19	8.53	
2025-01-11 06:30:45.13	5.16	8.53	
2025-01-11 06:30:45.34	5.12	8.52	
2025-01-11 06:30:45.54	5.09	8.52	
2025-01-11 06:30:45.75	5.05	8.52	
2025-01-11 06:30:45.95	5.02	8.51	
2025-01-11 06:30:46.16	4.98	8.51	
2025-01-11 06:30:46.37	4.95	8.51	
2025-01-11 06:30:46.58	4.91	8.50	
2025-01-11 06:30:46.78	4.88	8.50	
2025-01-11 06:30:46.99	4.85	8.50	
2025-01-11 06:30:47.20	4.81	8.49	
2025-01-11 06:30:47.40	4.78	8.49	
2025-01-11 06:30:47.61	4.74	8.49	
2025-01-11 06:30:47.81	4.71	8.48	
2025-01-11 06:30:48.02	4.67	8.48	
2025-01-11 06:30:48.22	4.64	8.48	
2025-01-11 06:30:48.43	4.61	8.47	
2025-01-11 06:30:48.63	4.57	8.47	
2025-01-11 06:30:48.84	4.54	8.47	
2025-01-11 06:30:49.05	4.50	8.46	
2025-01-11 06:30:49.25	4.47	8.46	
2025-01-11 06:30:49.45	4.44	8.46	
2025-01-11 06:30:49.66	4.40	8.45	
2025-01-11 06:30:49.87	4.37	8.45	
2025-01-11 06:30:50.07	4.33	8.45	
2025-01-11 06:30:50.28	4.30	8.44	
2025-01-11 06:30:50.48	4.27	8.44	
2025-01-11 06:30:50.69	4.23	8.43	
2025-01-11 06:30:50.89	4.20	8.43	
2025-01-11 06:30:51.10	4.16	8.43	
2025-01-11 06:30:51.30	4.13	8.42	
2025-01-11 06:30:51.51	4.10	8.42	
2025-01-11 06:30:51.71	4.06	8.42	
2025-01-11 06:30:51.92	4.03	8.41	
2025-01-11 06:30:52.12	4.00	8.41	
2025-01-11 06:30:52.33	3.96	8.41	
2025-01-11 06:30:52.53	3.93	8.40	
2025-01-11 06:30:52.74	3.89	8.40	
2025-01-11 06:30:52.94	3.86	8.40	
2025-01-11 06:30:53.15	3.83	8.39	
2025-01-11 06:30:53.35	3.79	8.39	
2025-01-11 06:30:53.56	3.76	8.38	
2025-01-11 06:30:53.77	3.72	8.38	
2025-01-11 06:30:53.98	3.69	8.38	
2025-01-11 06:30:54.19	3.65	8.37	
2025-01-11 06:30:54.39	3.62	8.37	
2025-01-11 06:30:54.60	3.59	8.37	
2025-01-11 06:30:54.80	3.55	8.36	
2025-01-11 06:30:55.01	3.52	8.36	
2025-01-11 06:30:55.21	3.49	8.35	
2025-01-11 06:30:55.42	3.45	8.35	
2025-01-11 06:30:55.62	3.42	8.35	
2025-01-11 06:30:55.83	3.38	8.34	
2025-01-11 06:30:56.03	3.35	8.34	
2025-01-11 06:30:56.24	3.32	8.34	
2025-01-11 06:30:56.44	3.28	8.33	
2025-01-11 06:30:56.66	3.25	8.33	
2025-01-11 06:30:56.87	3.21	8.32	
2025-01-11 06:30:57.07	3.18	8.32	
2025-01-11 06:30:57.28	3.15	8.32	
2025-01-11 06:30:57.48	3.11	8.31	
2025-01-11 06:30:57.69	3.08	8.31	
2025-01-11 06:30:57.89	3.04	8.31	
2025-01-11 06:30:58.10	3.01	8.30	
2025-01-11 06:30:58.30	2.98	8.30	
2025-01-11 06:30:58.51	2.94	8.29	
2025-01-11 06:30:58.71	2.91	8.29	
2025-01-11 06:30:58.93	2.87	8.29	
2025-01-11 06:30:59.13	2.84	8.28	
2025-01-11 06:30:59.34	2.81	8.28	
2025-01-11 06:30:59.54	2.77	8.27	
2025-01-11 06:30:59.75	2.74	8.27	
2025-01-11 06:30:59.95	2.71	8.27	
2025-01-11 06:31:00.15	2.67	8.26	
2025-01-11 06:31:00.36	2.64	8.26	
2025-01-11 06:31:00.56	2.61	8.25	
2025-01-11 06:31:00.77	2.57	8.25	
2025-01-11 06:31:00.98	2.54	8.25	
2025-01-11 06:31:01.18	2.51	8.24	
2025-01-11 06:31:01.38	2.47	8.24	
2025-01-11 06:31:01.59	2.44	8.23	
2025-01-11 06:31:01.79	2.41	8.23	
2025-01-11 06:31:02.00	2.37	8.23	
2025-01-11 06:31:02.20	2.34	8.22	
2025-01-11 06:31:02.41	2.31	8.22	
2025-01-11 06:31:02.61	2.27	8.22	
2025-01-11 06:31:02.81	2.24	8.21	
2025-01-11 06:31:03.02	2.21	8.21	
2025-01-11 06:31:03.23	2.17	8.20	
2025-01-11 06:31:03.44	2.14	8.20	
2025-01-11 06:31:03.65	2.10	8.19	
2025-01-11 06:31:03.86	2.07	8.19	
2025-01-11 06:31:04.06	2.04	8.19	
2025-01-11 06:31:04.27	2.00	8.18	
2025-01-11 06:31:04.48	1.97	8.18	
2025-01-11 06:31:04.69	1.93	8.17	
2025-01-11 06:31:04.90	1.90	8.17	
2025-01-11 06:31:05.10	1.87	8.17	
2025-01-11 06:31:05.31	1.83	8.16	
2025-01-11 06:31:05.52	1.80	8.16	
2025-01-11 06:31:05.73	1.77	8.15	
2025-01-11 06:31:05.94	1.73	8.15	
2025-01-11 06:31:06.14	1.70	8.14	
2025-01-11 06:31:06.35	1.66	8.14	
2025-01-11 06:31:06.55	1.63	8.14	
2025-01-11 06:31:06.75	1.60	8.13	
2025-01-11 06:31:06.96	1.57	8.13	
2025-01-11 06:31:07.16	1.53	8.12	
2025-01-11 06:31:07.37	1.50	8.12	
2025-01-11 06:31:07.57	1.47	8.12	
2025-01-11 06:31:07.77	1.43	8.11	
2025-01-11 06:31:07.98	1.40	8.11	
2025-01-11 06:31:08.19	1.37	8.10	
2025-01-11 06:31:08.39	1.33	8.10	
2025-01-11 06:31:08.60	1.30	8.09	
2025-01-11 06:31:08.80	1.27	8.09	
2025-01-11 06:31:09.00	1.24	8.09	
2025-01-11 06:31:09.21	1.20	8.08	
2025-01-11 06:31:09.42	1.17	8.08	
2025-01-11 06:31:09.62	1.14	8.07	
2025-01-11 06:31:09.83	1.10	8.07	
2025-01-11 06:31:10.03	1.07	8.06	
2025-01-11 06:31:10.24	1.04	8.06	
2025-01-11 06:31:10.45	1.00	8.05	
2025-01-11 06:31:10.65	0.97	8.05	
2025-01-11 06:31:10.85	0.94	8.05	
2025-01-11 06:31:11.06	0.90	8.04	
2025-01-11 06:31:11.27	0.87	8.04	
2025-01-11 06:31:11.47	0.84	8.03	
2025-01-11 06:31:11.68	0.80	8.03	
2025-01-11 06:31:11.88	0.77	8.02	
2025-01-11 06:31:12.09	0.74	8.02	
2025-01-11 06:31:12.30	0.70	8.02	
2025-01-11 06:31:12.50	0.67	8.01	
2025-01-11 06:31:12.71	0.64	8.01	
2025-01-11 06:31:12.92	0.60	8.00	
2025-01-11 06:31:13.12	0.57	8.00	
2025-01-11 06:31:13.32	0.54	7.99	
2025-01-11 06:31:13.53	0.51	7.99	
2025-01-11 06:31:13.73	0.47	7.98	
2025-01-11 06:31:13.94	0.44	7.98	
2025-01-11 06:31:14.14	0.41	7.98	
2025-01-11 06:31:14.35	0.37	7.97	
2025-01-11 06:31:14.55	0.34	7.97	
2025-01-11 06:31:14.76	0.31	7.96	
2025-01-11 06:31:14.96	0.28	7.96	
2025-01-11 06:31:15.18	0.24	7.95	
2025-01-11 06:31:15.39	0.21	7.95	
2025-01-11 06:31:15.59	0.18	7.94	
2025-01-11 06:31:15.80	0.14	7.94	
2025-01-11 06:31:16.00	0.11	7.93	
2025-01-11 06:31:16.20	0.08	7.93	
2025-01-11 06:31:16.41	0.04	7.92	
2025-01-11 06:31:16.61	0.01	7.92	
2025-01-11 06:31:16.82	359.98	7.92	
2025-01-11 06:31:17.02	359.95	7.91	
2025-01-11 06:31:17.23	359.91	7.91	
2025-01-11 06:31:17.43	359.88	7.90	
2025-01-11 06:31:17.64	359.85	7.90	
2025-01-11 06:31:17.84	359.82	7.89	
2025-01-11 06:31:18.05	359.78	7.89	
2025-01-11 06:31:18.25	359.75	7.88	
2025-01-11 06:31:18.46	359.72	7.88	
2025-01-11 06:31:18.68	359.68	7.87	
2025-01-11 06:31:18.88	359.65	7.87	
2025-01-11 06:31:19.09	359.62	7.86	
2025-01-11 06:31:19.29	359.59	7.86	
2025-01-11 06:31:19.50	359.55	7.85	
2025-01-11 06:31:19.70	359.52	7.85	
2025-01-11 06:31:19.91	359.49	7.85	
2025-01-11 06:31:20.11	359.46	7.84	
2025-01-11 06:31:20.32	359.42	7.84	
2025-01-11 06:31:20.52	359.39	7.83	
2025-01-11 06:31:20.73	359.36	7.83	
2025-01-11 06:31:20.93	359.33	7.82	
2025-01-11 06:31:21.14	359.29	7.82	
2025-01-11 06:31:21.34	359.26	7.81	
2025-01-11 06:31:21.55	359.23	7.81	
2025-01-11 06:31:21.75	359.20	7.80	
2025-01-11 06:31:21.96	359.16	7.80	
2025-01-11 06:31:22.17	359.13	7.79	
2025-01-11 06:31:22.37	359.10	7.79	
2025-01-11 06:31:22.58	359.06	7.78	
2025-01-11 06:31:22.78	359.03	7.78	
2025-01-11 06:31:22.99	359.00	7.77	
2025-01-11 06:31:23.19	358.97	7.77	
2025-01-11 06:31:23.40	358.93	7.76	
2025-01-11 06:31:23.60	358.90	7.76	
2025-01-11 06:31:23.80	358.87	7.75	
2025-01-11 06:31:24.01	358.84	7.75	
2025-01-11 06:31:24.21	358.81	7.74	
2025-01-11 06:31:24.41	358.77	7.74	
2025-01-11 06:31:24.62	358.74	7.73	
2025-01-11 06:31:24.84	358.71	7.73	
2025-01-11 06:31:25.04	358.68	7.72	
2025-01-11 06:31:25.24	358.64	7.72	
2025-01-11 06:31:25.45	358.61	7.71	
2025-01-11 06:31:25.66	358.58	7.71	
2025-01-11 06:31:25.86	358.55	7.70	
2025-01-11 06:31:26.06	358.52	7.70	
2025-01-11 06:31:26.27	358.48	7.69	
2025-01-11 06:31:26.48	358.45	7.69	
2025-01-11 06:31:26.68	358.42	7.69	
2025-01-11 06:31:26.88	358.39	7.68	
2025-01-11 06:31:27.09	358.35	7.68	
2025-01-11 06:31:27.30	358.32	7.67	
2025-01-11 06:31:27.50	358.29	7.67	
2025-01-11 06:31:27.70	358.26	7.66	
2025-01-11 06:31:27.91	358.22	7.66	
2025-01-11 06:31:28.11	358.19	7.65	
2025-01-11 06:31:28.32	358.16	7.64	
2025-01-11 06:31:28.52	358.13	7.64	
2025-01-11 06:31:28.73	358.10	7.63	
2025-01-11 06:31:28.93	358.06	7.63	
2025-01-11 06:31:29.14	358.03	7.62	
2025-01-11 06:31:29.34	358.00	7.62	
2025-01-11 06:31:29.55	357.97	7.61	
2025-01-11 06:31:29.75	357.94	7.61	
2025-01-11 06:31:29.96	357.90	7.60	
2025-01-11 06:31:30.17	357.87	7.60	
2025-01-11 06:31:30.38	357.84	7.59	
2025-01-11 06:31:30.58	357.81	7.59	
2025-01-11 06:31:30.79	357.77	7.58	
2025-01-11 06:31:31.00	357.74	7.58	
2025-01-11 06:31:31.20	357.71	7.57	
2025-01-11 06:31:31.40	357.68	7.57	
2025-01-11 06:31:31.61	357.65	7.56	
2025-01-11 06:31:31.81	357.62	7.56	
2025-01-11 06:31:32.02	357.58	7.55	
2025-01-11 06:31:32.23	357.55	7.55	
2025-01-11 06:31:32.43	357.52	7.54	
2025-01-11 06:31:32.64	357.49	7.54	
2025-01-11 06:31:32.84	357.45	7.53	
2025-01-11 06:31:33.05	357.42	7.53	
2025-01-11 06:31:33.25	357.39	7.52	
2025-01-11 06:31:33.45	357.36	7.52	
2025-01-11 06:31:33.66	357.33	7.51	
2025-01-11 06:31:33.86	357.30	7.51	
2025-01-11 06:31:34.07	357.26	7.50	
2025-01-11 06:31:34.28	357.23	7.50	
2025-01-11 06:31:34.50	357.20	7.49	
2025-01-11 06:31:34.70	357.17	7.48	
2025-01-11 06:31:34.91	357.13	7.48	
2025-01-11 06:31:35.11	357.10	7.47	
2025-01-11 06:31:35.32	357.07	7.47	
2025-01-11 06:31:35.52	357.04	7.46	
2025-01-11 06:31:35.73	357.01	7.46	
2025-01-11 06:31:35.93	356.98	7.45	
2025-01-11 06:31:36.14	356.94	7.45	
2025-01-11 06:31:36.34	356.91	7.44	
2025-01-11 06:31:36.56	356.88	7.44	
2025-01-11 06:31:36.77	356.85	7.43	
2025-01-11 06:31:36.97	356.82	7.43	
2025-01-11 06:31:37.18	356.78	7.42	
2025-01-11 06:31:37.38	356.75	7.42	
2025-01-11 06:31:37.59	356.72	7.41	
2025-01-11 06:31:37.80	356.69	7.40	
2025-01-11 06:31:38.00	356.66	7.40	
2025-01-11 06:31:38.21	356.62	7.39	
2025-01-11 06:31:38.41	356.59	7.39	
2025-01-11 06:31:38.62	356.56	7.38	
2025-01-11 06:31:38.82	356.53	7.38	
2025-01-11 06:31:39.03	356.50	7.37	
2025-01-11 06:31:39.23	356.47	7.37	
2025-01-11 06:31:39.44	356.44	7.36	
2025-01-11 06:31:39.64	356.40	7.36	
2025-01-11 06:31:39.85	356.37	7.35	
2025-01-11 06:31:40.05	356.34	7.34	
2025-01-11 06:31:40.26	356.31	7.34	
2025-01-11 06:31:40.46	356.28	7.33	
2025-01-11 06:31:40.67	356.25	7.33	
2025-01-11 06:31:40.88	356.21	7.32	
2025-01-11 06:31:41.09	356.18	7.32	
2025-01-11 06:31:41.30	356.15	7.31	
2025-01-11 06:31:41.50	356.12	7.31	
2025-01-11 06:31:41.71	356.09	7.30	
2025-01-11 06:31:41.93	356.05	7.29	
2025-01-11 06:31:42.13	356.02	7.29	
2025-01-11 06:31:42.34	355.99	7.28	
2025-01-11 06:31:42.54	355.96	7.28	
2025-01-11 06:31:42.75	355.93	7.27	
2025-01-11 06:31:42.95	355.90	7.27	
2025-01-11 06:31:43.16	355.87	7.26	
2025-01-11 06:31:43.36	355.84	7.26	
2025-01-11 06:31:43.57	355.80	7.25	
2025-01-11 06:31:43.77	355.77	7.24	
2025-01-11 06:31:43.97	355.74	7.24	
2025-01-11 06:31:44.18	355.71	7.23	
2025-01-11 06:31:44.38	355.68	7.23	
2025-01-11 06:31:44.59	355.65	7.22	
2025-01-11 06:31:44.79	355.62	7.22	
2025-01-11 06:31:45.00	355.59	7.21	
2025-01-11 06:31:45.20	355.56	7.21	
2025-01-11 06:31:45.41	355.52	7.20	
2025-01-11 06:31:45.61	355.49	7.19	
2025-01-11 06:31:45.82	355.46	7.19	
2025-01-11 06:31:46.03	355.43	7.18	
2025-01-11 06:31:46.23	355.40	7.18	
2025-01-11 06:31:46.44	355.37	7.17	
2025-01-11 06:31:46.64	355.34	7.17	
2025-01-11 06:31:46.85	355.31	7.16	
2025-01-11 06:31:47.05	355.27	7.15	
2025-01-11 06:31:47.27	355.24	7.15	
2025-01-11 06:31:47.47	355.21	7.14	
2025-01-11 06:31:47.68	355.18	7.14	
2025-01-11 06:31:47.88	355.15	7.13	
2025-01-11 06:31:48.09	355.12	7.13	
2025-01-11 06:31:48.30	355.09	7.12	
2025-01-11 06:31:48.50	355.06	7.11	
2025-01-11 06:31:48.71	355.02	7.11	
2025-01-11 06:31:48.91	354.99	7.10	
2025-01-11 06:31:49.12	354.96	7.10	
