passes_logs/2025/01/11/SPB_Silybum_02/SPB_Silybum_02__20250111_135250_AQUA_rec.log

#Pass ID: 20250111_135250_AQUA
#Satellite: AQUA
#Configuration: AQUA
#Start time: 2025-01-11 13:52:51

#Version: 2.0.20230423
#Station: SPB_Silybum_02
#Location: 30.233357 lon 59.946436 lat
#TLE: 1 27424U 02022A   25010.89862733  .00001944  00000+0  40909-3 0  9991
#TLE: 2 27424  98.3577 327.5256 0001581 116.2883 319.2080 14.60667727207024

#Time	Az	El	Level	Level2	SNR	BER	Gain	Gain2
2025-01-11 13:52:53.20	248.46	4.10	
2025-01-11 13:52:53.41	248.49	4.11	
2025-01-11 13:52:53.61	248.52	4.12	
2025-01-11 13:52:53.82	248.55	4.12	
2025-01-11 13:52:54.02	248.58	4.13	
2025-01-11 13:52:54.22	248.60	4.14	
2025-01-11 13:52:54.43	248.63	4.15	
2025-01-11 13:52:54.63	248.66	4.15	
2025-01-11 13:52:54.84	248.69	4.16	
2025-01-11 13:52:55.06	248.72	4.17	
2025-01-11 13:52:55.27	248.75	4.18	
2025-01-11 13:52:55.47	248.78	4.19	
2025-01-11 13:52:55.68	248.81	4.19	
2025-01-11 13:52:55.88	248.84	4.20	
2025-01-11 13:52:56.08	248.87	4.21	
2025-01-11 13:52:56.29	248.90	4.22	
2025-01-11 13:52:56.50	248.93	4.23	
2025-01-11 13:52:56.70	248.95	4.23	
2025-01-11 13:52:56.91	248.98	4.24	
2025-01-11 13:52:57.11	249.01	4.25	
2025-01-11 13:52:57.31	249.04	4.26	
2025-01-11 13:52:57.52	249.07	4.26	
2025-01-11 13:52:57.73	249.10	4.27	
2025-01-11 13:52:57.93	249.13	4.28	
2025-01-11 13:52:58.14	249.16	4.29	
2025-01-11 13:52:58.34	249.19	4.29	
2025-01-11 13:52:58.55	249.22	4.30	
2025-01-11 13:52:58.75	249.25	4.31	
2025-01-11 13:52:58.96	249.28	4.32	
2025-01-11 13:52:59.16	249.30	4.33	
2025-01-11 13:52:59.37	249.33	4.33	
2025-01-11 13:52:59.57	249.36	4.34	
2025-01-11 13:52:59.78	249.39	4.35	
2025-01-11 13:52:59.98	249.42	4.36	
2025-01-11 13:53:00.19	249.45	4.36	
2025-01-11 13:53:00.39	249.48	4.37	
2025-01-11 13:53:00.60	249.51	4.38	
2025-01-11 13:53:00.80	249.54	4.39	
2025-01-11 13:53:01.01	249.57	4.40	
2025-01-11 13:53:01.21	249.60	4.40	
2025-01-11 13:53:01.42	249.63	4.41	
2025-01-11 13:53:01.62	249.66	4.42	
2025-01-11 13:53:01.82	249.69	4.43	
2025-01-11 13:53:02.03	249.72	4.43	
2025-01-11 13:53:02.23	249.74	4.44	
2025-01-11 13:53:02.43	249.77	4.45	
2025-01-11 13:53:02.64	249.80	4.46	
2025-01-11 13:53:02.85	249.83	4.46	
2025-01-11 13:53:03.05	249.86	4.47	
2025-01-11 13:53:03.26	249.89	4.48	
2025-01-11 13:53:03.46	249.92	4.49	
2025-01-11 13:53:03.67	249.95	4.49	
2025-01-11 13:53:03.87	249.98	4.50	
2025-01-11 13:53:04.08	250.01	4.51	
2025-01-11 13:53:04.28	250.04	4.52	
2025-01-11 13:53:04.49	250.07	4.53	
2025-01-11 13:53:04.69	250.10	4.53	
2025-01-11 13:53:04.90	250.13	4.54	
2025-01-11 13:53:05.11	250.16	4.55	
2025-01-11 13:53:05.31	250.19	4.56	
2025-01-11 13:53:05.52	250.22	4.56	
2025-01-11 13:53:05.72	250.25	4.57	
2025-01-11 13:53:05.93	250.28	4.58	
2025-01-11 13:53:06.13	250.31	4.59	
2025-01-11 13:53:06.34	250.34	4.59	
2025-01-11 13:53:06.54	250.37	4.60	
2025-01-11 13:53:06.76	250.40	4.61	
2025-01-11 13:53:06.96	250.43	4.62	
2025-01-11 13:53:07.17	250.46	4.62	
2025-01-11 13:53:07.37	250.49	4.63	
2025-01-11 13:53:07.58	250.52	4.64	
2025-01-11 13:53:07.78	250.55	4.65	
2025-01-11 13:53:07.99	250.58	4.65	
2025-01-11 13:53:08.19	250.61	4.66	
2025-01-11 13:53:08.40	250.64	4.67	
2025-01-11 13:53:08.61	250.67	4.68	
2025-01-11 13:53:08.81	250.70	4.69	
2025-01-11 13:53:09.01	250.73	4.69	
2025-01-11 13:53:09.22	250.76	4.70	
2025-01-11 13:53:09.43	250.79	4.71	
2025-01-11 13:53:09.63	250.82	4.72	
2025-01-11 13:53:09.84	250.85	4.72	
2025-01-11 13:53:10.05	250.88	4.73	
2025-01-11 13:53:10.26	250.91	4.74	
2025-01-11 13:53:10.46	250.94	4.75	
2025-01-11 13:53:10.67	250.97	4.75	
2025-01-11 13:53:10.88	251.00	4.76	
2025-01-11 13:53:11.08	251.03	4.77	
2025-01-11 13:53:11.29	251.06	4.78	
2025-01-11 13:53:11.49	251.09	4.78	
2025-01-11 13:53:11.70	251.12	4.79	
2025-01-11 13:53:11.90	251.15	4.80	
2025-01-11 13:53:12.11	251.19	4.81	
2025-01-11 13:53:12.31	251.21	4.81	
2025-01-11 13:53:12.52	251.25	4.82	
2025-01-11 13:53:12.72	251.28	4.83	
2025-01-11 13:53:12.93	251.31	4.84	
2025-01-11 13:53:13.13	251.34	4.84	
2025-01-11 13:53:13.34	251.37	4.85	
2025-01-11 13:53:13.54	251.40	4.86	
2025-01-11 13:53:13.75	251.43	4.87	
2025-01-11 13:53:13.95	251.46	4.87	
2025-01-11 13:53:14.16	251.49	4.88	
2025-01-11 13:53:14.36	251.52	4.89	
2025-01-11 13:53:14.57	251.55	4.90	
2025-01-11 13:53:14.77	251.58	4.90	
2025-01-11 13:53:14.98	251.61	4.91	
2025-01-11 13:53:15.18	251.64	4.92	
2025-01-11 13:53:15.39	251.67	4.93	
2025-01-11 13:53:15.59	251.70	4.93	
2025-01-11 13:53:15.80	251.73	4.94	
2025-01-11 13:53:16.00	251.76	4.95	
2025-01-11 13:53:16.21	251.79	4.96	
2025-01-11 13:53:16.41	251.82	4.96	
2025-01-11 13:53:16.62	251.86	4.97	
2025-01-11 13:53:16.82	251.89	4.98	
2025-01-11 13:53:17.03	251.92	4.98	
2025-01-11 13:53:17.24	251.95	4.99	
2025-01-11 13:53:17.44	251.98	5.00	
2025-01-11 13:53:17.64	252.01	5.01	
2025-01-11 13:53:17.85	252.04	5.01	
2025-01-11 13:53:18.06	252.07	5.02	
2025-01-11 13:53:18.26	252.10	5.03	
2025-01-11 13:53:18.46	252.13	5.04	
2025-01-11 13:53:18.67	252.16	5.04	
2025-01-11 13:53:18.88	252.19	5.05	
2025-01-11 13:53:19.08	252.22	5.06	
2025-01-11 13:53:19.29	252.26	5.07	
2025-01-11 13:53:19.49	252.29	5.07	
2025-01-11 13:53:19.69	252.32	5.08	
2025-01-11 13:53:19.90	252.35	5.09	
2025-01-11 13:53:20.11	252.38	5.10	
2025-01-11 13:53:20.31	252.41	5.10	
2025-01-11 13:53:20.52	252.44	5.11	
2025-01-11 13:53:20.72	252.47	5.12	
2025-01-11 13:53:20.92	252.50	5.12	
2025-01-11 13:53:21.13	252.53	5.13	
2025-01-11 13:53:21.34	252.57	5.14	
2025-01-11 13:53:21.54	252.60	5.15	
2025-01-11 13:53:21.75	252.63	5.15	
2025-01-11 13:53:21.95	252.66	5.16	
2025-01-11 13:53:22.16	252.69	5.17	
2025-01-11 13:53:22.36	252.72	5.18	
2025-01-11 13:53:22.57	252.75	5.18	
2025-01-11 13:53:22.77	252.78	5.19	
2025-01-11 13:53:22.98	252.81	5.20	
2025-01-11 13:53:23.18	252.84	5.20	
2025-01-11 13:53:23.39	252.88	5.21	
2025-01-11 13:53:23.59	252.91	5.22	
2025-01-11 13:53:23.80	252.94	5.23	
2025-01-11 13:53:24.00	252.97	5.23	
2025-01-11 13:53:24.21	253.00	5.24	
2025-01-11 13:53:24.41	253.03	5.25	
2025-01-11 13:53:24.62	253.06	5.26	
2025-01-11 13:53:24.82	253.09	5.26	
2025-01-11 13:53:25.02	253.12	5.27	
2025-01-11 13:53:25.23	253.16	5.28	
2025-01-11 13:53:25.43	253.19	5.28	
2025-01-11 13:53:25.64	253.22	5.29	
2025-01-11 13:53:25.84	253.25	5.30	
2025-01-11 13:53:26.06	253.28	5.31	
2025-01-11 13:53:26.26	253.31	5.31	
2025-01-11 13:53:26.47	253.35	5.32	
2025-01-11 13:53:26.68	253.38	5.33	
2025-01-11 13:53:26.88	253.41	5.34	
2025-01-11 13:53:27.08	253.44	5.34	
2025-01-11 13:53:27.29	253.47	5.35	
2025-01-11 13:53:27.49	253.50	5.36	
2025-01-11 13:53:27.70	253.54	5.36	
2025-01-11 13:53:27.90	253.57	5.37	
2025-01-11 13:53:28.11	253.60	5.38	
2025-01-11 13:53:28.31	253.63	5.39	
2025-01-11 13:53:28.52	253.66	5.39	
2025-01-11 13:53:28.73	253.69	5.40	
2025-01-11 13:53:28.93	253.73	5.41	
2025-01-11 13:53:29.14	253.76	5.41	
2025-01-11 13:53:29.34	253.79	5.42	
2025-01-11 13:53:29.55	253.82	5.43	
2025-01-11 13:53:29.75	253.85	5.44	
2025-01-11 13:53:29.96	253.88	5.44	
2025-01-11 13:53:30.16	253.92	5.45	
2025-01-11 13:53:30.37	253.95	5.46	
2025-01-11 13:53:30.57	253.98	5.46	
2025-01-11 13:53:30.78	254.01	5.47	
2025-01-11 13:53:30.99	254.04	5.48	
2025-01-11 13:53:31.19	254.07	5.49	
2025-01-11 13:53:31.39	254.11	5.49	
2025-01-11 13:53:31.60	254.14	5.50	
2025-01-11 13:53:31.81	254.17	5.51	
2025-01-11 13:53:32.01	254.20	5.51	
2025-01-11 13:53:32.22	254.23	5.52	
2025-01-11 13:53:32.42	254.27	5.53	
2025-01-11 13:53:32.62	254.30	5.53	
2025-01-11 13:53:32.83	254.33	5.54	
2025-01-11 13:53:33.03	254.36	5.55	
2025-01-11 13:53:33.24	254.39	5.56	
2025-01-11 13:53:33.44	254.42	5.56	
2025-01-11 13:53:33.65	254.46	5.57	
2025-01-11 13:53:33.86	254.49	5.58	
2025-01-11 13:53:34.06	254.52	5.58	
2025-01-11 13:53:34.27	254.55	5.59	
2025-01-11 13:53:34.47	254.59	5.60	
2025-01-11 13:53:34.68	254.62	5.60	
2025-01-11 13:53:34.88	254.65	5.61	
2025-01-11 13:53:35.09	254.68	5.62	
2025-01-11 13:53:35.29	254.71	5.63	
2025-01-11 13:53:35.50	254.75	5.63	
2025-01-11 13:53:35.70	254.78	5.64	
2025-01-11 13:53:35.91	254.81	5.65	
2025-01-11 13:53:36.11	254.84	5.65	
2025-01-11 13:53:36.32	254.88	5.66	
2025-01-11 13:53:36.53	254.91	5.67	
2025-01-11 13:53:36.73	254.94	5.67	
2025-01-11 13:53:36.93	254.97	5.68	
2025-01-11 13:53:37.14	255.00	5.69	
2025-01-11 13:53:37.34	255.04	5.70	
2025-01-11 13:53:37.55	255.07	5.70	
2025-01-11 13:53:37.75	255.10	5.71	
2025-01-11 13:53:37.96	255.13	5.72	
2025-01-11 13:53:38.16	255.17	5.72	
2025-01-11 13:53:38.37	255.20	5.73	
2025-01-11 13:53:38.57	255.23	5.74	
2025-01-11 13:53:38.78	255.26	5.74	
2025-01-11 13:53:38.98	255.29	5.75	
2025-01-11 13:53:39.19	255.33	5.76	
2025-01-11 13:53:39.39	255.36	5.76	
2025-01-11 13:53:39.59	255.39	5.77	
2025-01-11 13:53:39.81	255.43	5.78	
2025-01-11 13:53:40.02	255.46	5.79	
2025-01-11 13:53:40.22	255.49	5.79	
2025-01-11 13:53:40.43	255.52	5.80	
2025-01-11 13:53:40.63	255.56	5.81	
2025-01-11 13:53:40.84	255.59	5.81	
2025-01-11 13:53:41.04	255.62	5.82	
2025-01-11 13:53:41.24	255.65	5.83	
2025-01-11 13:53:41.45	255.69	5.83	
2025-01-11 13:53:41.65	255.72	5.84	
2025-01-11 13:53:41.86	255.75	5.85	
2025-01-11 13:53:42.06	255.78	5.85	
2025-01-11 13:53:42.27	255.82	5.86	
2025-01-11 13:53:42.47	255.85	5.87	
2025-01-11 13:53:42.68	255.88	5.87	
2025-01-11 13:53:42.88	255.91	5.88	
2025-01-11 13:53:43.09	255.95	5.89	
2025-01-11 13:53:43.29	255.98	5.89	
2025-01-11 13:53:43.50	256.01	5.90	
2025-01-11 13:53:43.70	256.05	5.91	
2025-01-11 13:53:43.91	256.08	5.91	
2025-01-11 13:53:44.11	256.11	5.92	
2025-01-11 13:53:44.31	256.14	5.93	
2025-01-11 13:53:44.52	256.18	5.94	
2025-01-11 13:53:44.72	256.21	5.94	
2025-01-11 13:53:44.93	256.24	5.95	
2025-01-11 13:53:45.13	256.27	5.96	
2025-01-11 13:53:45.34	256.31	5.96	
2025-01-11 13:53:45.54	256.34	5.97	
2025-01-11 13:53:45.75	256.37	5.98	
2025-01-11 13:53:45.95	256.41	5.98	
2025-01-11 13:53:46.16	256.44	5.99	
2025-01-11 13:53:46.36	256.47	6.00	
2025-01-11 13:53:46.57	256.51	6.00	
2025-01-11 13:53:46.77	256.54	6.01	
2025-01-11 13:53:46.98	256.57	6.02	
2025-01-11 13:53:47.18	256.60	6.02	
2025-01-11 13:53:47.39	256.64	6.03	
2025-01-11 13:53:47.59	256.67	6.04	
2025-01-11 13:53:47.79	256.70	6.04	
2025-01-11 13:53:48.00	256.74	6.05	
2025-01-11 13:53:48.21	256.77	6.06	
2025-01-11 13:53:48.41	256.80	6.06	
2025-01-11 13:53:48.61	256.84	6.07	
2025-01-11 13:53:48.82	256.87	6.08	
2025-01-11 13:53:49.03	256.90	6.08	
2025-01-11 13:53:49.23	256.94	6.09	
2025-01-11 13:53:49.44	256.97	6.10	
2025-01-11 13:53:49.64	257.00	6.10	
2025-01-11 13:53:49.84	257.03	6.11	
2025-01-11 13:53:50.05	257.07	6.11	
2025-01-11 13:53:50.26	257.10	6.12	
2025-01-11 13:53:50.46	257.14	6.13	
2025-01-11 13:53:50.66	257.17	6.13	
2025-01-11 13:53:50.87	257.20	6.14	
2025-01-11 13:53:51.07	257.23	6.15	
2025-01-11 13:53:51.28	257.27	6.15	
2025-01-11 13:53:51.49	257.30	6.16	
2025-01-11 13:53:51.71	257.34	6.17	
2025-01-11 13:53:51.91	257.37	6.17	
2025-01-11 13:53:52.12	257.41	6.18	
2025-01-11 13:53:52.32	257.44	6.19	
2025-01-11 13:53:52.53	257.47	6.19	
2025-01-11 13:53:52.73	257.51	6.20	
2025-01-11 13:53:52.94	257.54	6.21	
2025-01-11 13:53:53.14	257.57	6.21	
2025-01-11 13:53:53.35	257.61	6.22	
2025-01-11 13:53:53.56	257.64	6.23	
2025-01-11 13:53:53.77	257.68	6.23	
2025-01-11 13:53:53.98	257.71	6.24	
2025-01-11 13:53:54.18	257.74	6.25	
2025-01-11 13:53:54.39	257.78	6.25	
2025-01-11 13:53:54.59	257.81	6.26	
2025-01-11 13:53:54.81	257.85	6.27	
2025-01-11 13:53:55.02	257.88	6.27	
2025-01-11 13:53:55.22	257.91	6.28	
2025-01-11 13:53:55.43	257.95	6.29	
2025-01-11 13:53:55.63	257.98	6.29	
2025-01-11 13:53:55.84	258.01	6.30	
2025-01-11 13:53:56.04	258.05	6.31	
2025-01-11 13:53:56.25	258.08	6.31	
2025-01-11 13:53:56.45	258.12	6.32	
2025-01-11 13:53:56.66	258.15	6.32	
2025-01-11 13:53:56.86	258.18	6.33	
2025-01-11 13:53:57.06	258.22	6.34	
2025-01-11 13:53:57.27	258.25	6.34	
2025-01-11 13:53:57.48	258.29	6.35	
2025-01-11 13:53:57.68	258.32	6.36	
2025-01-11 13:53:57.89	258.35	6.36	
2025-01-11 13:53:58.11	258.39	6.37	
2025-01-11 13:53:58.31	258.42	6.38	
2025-01-11 13:53:58.51	258.46	6.38	
2025-01-11 13:53:58.72	258.49	6.39	
2025-01-11 13:53:58.92	258.52	6.39	
2025-01-11 13:53:59.13	258.56	6.40	
2025-01-11 13:53:59.33	258.59	6.41	
2025-01-11 13:53:59.54	258.63	6.41	
2025-01-11 13:53:59.74	258.66	6.42	
2025-01-11 13:53:59.95	258.69	6.43	
2025-01-11 13:54:00.17	258.73	6.43	
2025-01-11 13:54:00.37	258.76	6.44	
2025-01-11 13:54:00.58	258.80	6.45	
2025-01-11 13:54:00.78	258.83	6.45	
2025-01-11 13:54:00.99	258.87	6.46	
2025-01-11 13:54:01.19	258.90	6.46	
2025-01-11 13:54:01.39	258.93	6.47	
2025-01-11 13:54:01.60	258.97	6.48	
2025-01-11 13:54:01.80	259.00	6.48	
2025-01-11 13:54:02.01	259.04	6.49	
2025-01-11 13:54:02.21	259.07	6.50	
2025-01-11 13:54:02.41	259.10	6.50	
2025-01-11 13:54:02.62	259.14	6.51	
2025-01-11 13:54:02.82	259.17	6.51	
2025-01-11 13:54:03.03	259.21	6.52	
2025-01-11 13:54:03.23	259.24	6.53	
2025-01-11 13:54:03.44	259.28	6.53	
2025-01-11 13:54:03.64	259.31	6.54	
2025-01-11 13:54:03.85	259.34	6.55	
2025-01-11 13:54:04.05	259.38	6.55	
2025-01-11 13:54:04.25	259.41	6.56	
2025-01-11 13:54:04.46	259.45	6.56	
2025-01-11 13:54:04.66	259.48	6.57	
2025-01-11 13:54:04.87	259.52	6.58	
2025-01-11 13:54:05.07	259.55	6.58	
2025-01-11 13:54:05.28	259.58	6.59	
2025-01-11 13:54:05.48	259.62	6.59	
2025-01-11 13:54:05.69	259.65	6.60	
2025-01-11 13:54:05.90	259.69	6.61	
2025-01-11 13:54:06.10	259.72	6.61	
2025-01-11 13:54:06.30	259.76	6.62	
2025-01-11 13:54:06.51	259.79	6.62	
2025-01-11 13:54:06.71	259.82	6.63	
2025-01-11 13:54:06.92	259.86	6.64	
2025-01-11 13:54:07.12	259.89	6.64	
2025-01-11 13:54:07.33	259.93	6.65	
2025-01-11 13:54:07.53	259.96	6.65	
2025-01-11 13:54:07.73	260.00	6.66	
2025-01-11 13:54:07.94	260.03	6.67	
2025-01-11 13:54:08.15	260.07	6.67	
2025-01-11 13:54:08.36	260.10	6.68	
2025-01-11 13:54:08.57	260.14	6.69	
2025-01-11 13:54:08.77	260.17	6.69	
2025-01-11 13:54:08.98	260.21	6.70	
2025-01-11 13:54:09.18	260.24	6.70	
2025-01-11 13:54:09.39	260.28	6.71	
2025-01-11 13:54:09.59	260.31	6.72	
2025-01-11 13:54:09.80	260.35	6.72	
2025-01-11 13:54:10.00	260.38	6.73	
2025-01-11 13:54:10.21	260.42	6.73	
2025-01-11 13:54:10.41	260.45	6.74	
2025-01-11 13:54:10.62	260.49	6.75	
2025-01-11 13:54:10.82	260.52	6.75	
2025-01-11 13:54:11.02	260.55	6.76	
2025-01-11 13:54:11.23	260.59	6.76	
2025-01-11 13:54:11.44	260.63	6.77	
2025-01-11 13:54:11.64	260.66	6.77	
2025-01-11 13:54:11.84	260.69	6.78	
2025-01-11 13:54:12.05	260.73	6.79	
2025-01-11 13:54:12.25	260.76	6.79	
2025-01-11 13:54:12.46	260.80	6.80	
2025-01-11 13:54:12.67	260.83	6.80	
2025-01-11 13:54:12.87	260.87	6.81	
2025-01-11 13:54:13.08	260.90	6.82	
2025-01-11 13:54:13.28	260.94	6.82	
2025-01-11 13:54:13.48	260.97	6.83	
2025-01-11 13:54:13.69	261.01	6.83	
2025-01-11 13:54:13.89	261.04	6.84	
2025-01-11 13:54:14.10	261.08	6.85	
2025-01-11 13:54:14.30	261.11	6.85	
2025-01-11 13:54:14.51	261.15	6.86	
2025-01-11 13:54:14.71	261.18	6.86	
2025-01-11 13:54:14.92	261.22	6.87	
2025-01-11 13:54:15.13	261.26	6.87	
2025-01-11 13:54:15.34	261.29	6.88	
2025-01-11 13:54:15.54	261.33	6.89	
2025-01-11 13:54:15.75	261.36	6.89	
2025-01-11 13:54:15.95	261.40	6.90	
2025-01-11 13:54:16.16	261.43	6.90	
2025-01-11 13:54:16.36	261.47	6.91	
2025-01-11 13:54:16.57	261.50	6.92	
2025-01-11 13:54:16.77	261.54	6.92	
2025-01-11 13:54:16.98	261.57	6.93	
2025-01-11 13:54:17.18	261.61	6.93	
2025-01-11 13:54:17.39	261.64	6.94	
2025-01-11 13:54:17.59	261.68	6.94	
2025-01-11 13:54:17.80	261.71	6.95	
2025-01-11 13:54:18.01	261.75	6.96	
2025-01-11 13:54:18.21	261.78	6.96	
2025-01-11 13:54:18.42	261.82	6.97	
2025-01-11 13:54:18.62	261.86	6.97	
2025-01-11 13:54:18.83	261.89	6.98	
2025-01-11 13:54:19.03	261.93	6.98	
2025-01-11 13:54:19.23	261.96	6.99	
2025-01-11 13:54:19.45	262.00	7.00	
2025-01-11 13:54:19.66	262.04	7.00	
2025-01-11 13:54:19.86	262.07	7.01	
2025-01-11 13:54:20.07	262.11	7.01	
2025-01-11 13:54:20.27	262.14	7.02	
2025-01-11 13:54:20.49	262.18	7.02	
2025-01-11 13:54:20.70	262.22	7.03	
2025-01-11 13:54:20.90	262.25	7.03	
2025-01-11 13:54:21.11	262.29	7.04	
2025-01-11 13:54:21.31	262.32	7.05	
2025-01-11 13:54:21.52	262.36	7.05	
2025-01-11 13:54:21.72	262.39	7.06	
2025-01-11 13:54:21.93	262.43	7.06	
2025-01-11 13:54:22.13	262.46	7.07	
2025-01-11 13:54:22.34	262.50	7.07	
2025-01-11 13:54:22.56	262.54	7.08	
2025-01-11 13:54:22.76	262.57	7.09	
2025-01-11 13:54:22.97	262.61	7.09	
2025-01-11 13:54:23.17	262.64	7.10	
2025-01-11 13:54:23.38	262.68	7.10	
2025-01-11 13:54:23.58	262.72	7.11	
2025-01-11 13:54:23.79	262.75	7.11	
2025-01-11 13:54:23.99	262.79	7.12	
2025-01-11 13:54:24.19	262.82	7.12	
2025-01-11 13:54:24.40	262.86	7.13	
2025-01-11 13:54:24.60	262.89	7.13	
2025-01-11 13:54:24.81	262.93	7.14	
2025-01-11 13:54:25.01	262.97	7.15	
2025-01-11 13:54:25.22	263.00	7.15	
2025-01-11 13:54:25.42	263.04	7.16	
2025-01-11 13:54:25.63	263.07	7.16	
2025-01-11 13:54:25.83	263.11	7.17	
2025-01-11 13:54:26.04	263.15	7.17	
2025-01-11 13:54:26.24	263.18	7.18	
2025-01-11 13:54:26.45	263.22	7.18	
2025-01-11 13:54:26.65	263.25	7.19	
2025-01-11 13:54:26.87	263.29	7.19	
2025-01-11 13:54:27.07	263.33	7.20	
2025-01-11 13:54:27.28	263.36	7.21	
2025-01-11 13:54:27.49	263.40	7.21	
2025-01-11 13:54:27.69	263.44	7.22	
2025-01-11 13:54:27.89	263.47	7.22	
2025-01-11 13:54:28.10	263.51	7.23	
2025-01-11 13:54:28.31	263.54	7.23	
2025-01-11 13:54:28.51	263.58	7.24	
2025-01-11 13:54:28.72	263.62	7.24	
2025-01-11 13:54:28.92	263.65	7.25	
2025-01-11 13:54:29.12	263.69	7.25	
2025-01-11 13:54:29.33	263.72	7.26	
2025-01-11 13:54:29.53	263.76	7.26	
2025-01-11 13:54:29.74	263.80	7.27	
2025-01-11 13:54:29.94	263.83	7.27	
2025-01-11 13:54:30.15	263.87	7.28	
2025-01-11 13:54:30.35	263.90	7.28	
2025-01-11 13:54:30.56	263.94	7.29	
2025-01-11 13:54:30.77	263.98	7.30	
2025-01-11 13:54:30.97	264.01	7.30	
2025-01-11 13:54:31.18	264.05	7.31	
2025-01-11 13:54:31.38	264.09	7.31	
2025-01-11 13:54:31.59	264.12	7.32	
2025-01-11 13:54:31.79	264.16	7.32	
2025-01-11 13:54:31.99	264.19	7.33	
2025-01-11 13:54:32.20	264.23	7.33	
2025-01-11 13:54:32.40	264.27	7.34	
2025-01-11 13:54:32.61	264.30	7.34	
2025-01-11 13:54:32.81	264.34	7.35	
2025-01-11 13:54:33.02	264.38	7.35	
2025-01-11 13:54:33.22	264.41	7.36	
2025-01-11 13:54:33.43	264.45	7.36	
2025-01-11 13:54:33.63	264.48	7.37	
2025-01-11 13:54:33.85	264.52	7.37	
2025-01-11 13:54:34.05	264.56	7.38	
2025-01-11 13:54:34.26	264.60	7.38	
2025-01-11 13:54:34.46	264.63	7.39	
2025-01-11 13:54:34.67	264.67	7.39	
2025-01-11 13:54:34.88	264.71	7.40	
2025-01-11 13:54:35.08	264.74	7.40	
2025-01-11 13:54:35.29	264.78	7.41	
2025-01-11 13:54:35.49	264.82	7.41	
2025-01-11 13:54:35.69	264.85	7.42	
2025-01-11 13:54:35.90	264.89	7.42	
2025-01-11 13:54:36.10	264.92	7.43	
2025-01-11 13:54:36.31	264.96	7.43	
2025-01-11 13:54:36.51	265.00	7.44	
2025-01-11 13:54:36.72	265.03	7.44	
2025-01-11 13:54:36.92	265.07	7.45	
2025-01-11 13:54:37.13	265.11	7.45	
2025-01-11 13:54:37.34	265.15	7.46	
2025-01-11 13:54:37.54	265.18	7.46	
2025-01-11 13:54:37.74	265.22	7.47	
2025-01-11 13:54:37.95	265.25	7.47	
2025-01-11 13:54:38.15	265.29	7.48	
2025-01-11 13:54:38.36	265.33	7.48	
2025-01-11 13:54:38.56	265.36	7.49	
2025-01-11 13:54:38.77	265.40	7.49	
2025-01-11 13:54:38.97	265.44	7.50	
2025-01-11 13:54:39.18	265.48	7.50	
2025-01-11 13:54:39.39	265.51	7.51	
2025-01-11 13:54:39.59	265.55	7.51	
2025-01-11 13:54:39.79	265.58	7.52	
2025-01-11 13:54:40.00	265.62	7.52	
2025-01-11 13:54:40.21	265.66	7.53	
2025-01-11 13:54:40.41	265.70	7.53	
2025-01-11 13:54:40.62	265.73	7.54	
2025-01-11 13:54:40.82	265.77	7.54	
2025-01-11 13:54:41.03	265.81	7.55	
2025-01-11 13:54:41.23	265.84	7.55	
2025-01-11 13:54:41.44	265.88	7.56	
2025-01-11 13:54:41.64	265.92	7.56	
2025-01-11 13:54:41.85	265.95	7.56	
2025-01-11 13:54:42.05	265.99	7.57	
2025-01-11 13:54:42.26	266.03	7.57	
2025-01-11 13:54:42.46	266.06	7.58	
2025-01-11 13:54:42.67	266.10	7.58	
2025-01-11 13:54:42.87	266.14	7.59	
2025-01-11 13:54:43.08	266.18	7.59	
2025-01-11 13:54:43.28	266.21	7.60	
2025-01-11 13:54:43.49	266.25	7.60	
2025-01-11 13:54:43.70	266.29	7.61	
2025-01-11 13:54:43.90	266.32	7.61	
2025-01-11 13:54:44.10	266.36	7.62	
2025-01-11 13:54:44.31	266.40	7.62	
2025-01-11 13:54:44.51	266.44	7.63	
2025-01-11 13:54:44.72	266.47	7.63	
2025-01-11 13:54:44.92	266.51	7.64	
2025-01-11 13:54:45.13	266.55	7.64	
2025-01-11 13:54:45.34	266.59	7.64	
2025-01-11 13:54:45.55	266.62	7.65	
2025-01-11 13:54:45.76	266.66	7.65	
2025-01-11 13:54:45.96	266.70	7.66	
2025-01-11 13:54:46.16	266.73	7.66	
2025-01-11 13:54:46.37	266.77	7.67	
2025-01-11 13:54:46.58	266.81	7.67	
2025-01-11 13:54:46.78	266.85	7.68	
2025-01-11 13:54:46.99	266.88	7.68	
2025-01-11 13:54:47.19	266.92	7.69	
2025-01-11 13:54:47.39	266.96	7.69	
2025-01-11 13:54:47.60	267.00	7.70	
2025-01-11 13:54:47.81	267.03	7.70	
2025-01-11 13:54:48.01	267.07	7.70	
2025-01-11 13:54:48.21	267.11	7.71	
2025-01-11 13:54:48.42	267.14	7.71	
2025-01-11 13:54:48.62	267.18	7.72	
2025-01-11 13:54:48.83	267.22	7.72	
2025-01-11 13:54:49.04	267.26	7.73	
2025-01-11 13:54:49.24	267.29	7.73	
2025-01-11 13:54:49.45	267.33	7.74	
2025-01-11 13:54:49.65	267.37	7.74	
2025-01-11 13:54:49.86	267.41	7.74	
2025-01-11 13:54:50.07	267.45	7.75	
2025-01-11 13:54:50.27	267.48	7.75	
2025-01-11 13:54:50.47	267.52	7.76	
2025-01-11 13:54:50.68	267.56	7.76	
2025-01-11 13:54:50.88	267.59	7.77	
2025-01-11 13:54:51.09	267.63	7.77	
2025-01-11 13:54:51.29	267.67	7.78	
2025-01-11 13:54:51.50	267.71	7.78	
2025-01-11 13:54:51.70	267.74	7.78	
2025-01-11 13:54:51.91	267.78	7.79	
2025-01-11 13:54:52.11	267.82	7.79	
2025-01-11 13:54:52.32	267.86	7.80	
2025-01-11 13:54:52.52	267.89	7.80	
2025-01-11 13:54:52.73	267.93	7.81	
2025-01-11 13:54:52.93	267.97	7.81	
2025-01-11 13:54:53.13	268.01	7.81	
2025-01-11 13:54:53.34	268.04	7.82	
2025-01-11 13:54:53.54	268.08	7.82	
2025-01-11 13:54:53.75	268.12	7.83	
2025-01-11 13:54:53.95	268.16	7.83	
2025-01-11 13:54:54.16	268.19	7.84	
2025-01-11 13:54:54.36	268.23	7.84	
2025-01-11 13:54:54.57	268.27	7.84	
2025-01-11 13:54:54.77	268.31	7.85	
2025-01-11 13:54:54.98	268.34	7.85	
2025-01-11 13:54:55.18	268.38	7.86	
2025-01-11 13:54:55.39	268.42	7.86	
2025-01-11 13:54:55.59	268.46	7.86	
2025-01-11 13:54:55.80	268.50	7.87	
2025-01-11 13:54:56.00	268.53	7.87	
2025-01-11 13:54:56.20	268.57	7.88	
2025-01-11 13:54:56.41	268.61	7.88	
2025-01-11 13:54:56.62	268.65	7.89	
2025-01-11 13:54:56.82	268.68	7.89	
2025-01-11 13:54:57.03	268.72	7.89	
2025-01-11 13:54:57.23	268.76	7.90	
2025-01-11 13:54:57.43	268.80	7.90	
2025-01-11 13:54:57.64	268.83	7.91	
2025-01-11 13:54:57.86	268.88	7.91	
2025-01-11 13:54:58.06	268.91	7.91	
2025-01-11 13:54:58.27	268.95	7.92	
2025-01-11 13:54:58.47	268.99	7.92	
2025-01-11 13:54:58.68	269.03	7.93	
2025-01-11 13:54:58.88	269.06	7.93	
2025-01-11 13:54:59.08	269.10	7.93	
2025-01-11 13:54:59.29	269.14	7.94	
2025-01-11 13:54:59.50	269.18	7.94	
2025-01-11 13:54:59.70	269.22	7.95	
2025-01-11 13:54:59.91	269.25	7.95	
2025-01-11 13:55:00.11	269.29	7.95	
2025-01-11 13:55:00.32	269.33	7.96	
2025-01-11 13:55:00.52	269.37	7.96	
2025-01-11 13:55:00.73	269.41	7.97	
2025-01-11 13:55:00.93	269.44	7.97	
2025-01-11 13:55:01.14	269.48	7.97	
2025-01-11 13:55:01.34	269.52	7.98	
2025-01-11 13:55:01.55	269.56	7.98	
2025-01-11 13:55:01.75	269.60	7.99	
2025-01-11 13:55:01.96	269.63	7.99	
2025-01-11 13:55:02.17	269.67	7.99	
2025-01-11 13:55:02.38	269.71	8.00	
2025-01-11 13:55:02.58	269.75	8.00	
2025-01-11 13:55:02.79	269.79	8.00	
2025-01-11 13:55:02.99	269.83	8.01	
2025-01-11 13:55:03.20	269.86	8.01	
2025-01-11 13:55:03.40	269.90	8.02	
2025-01-11 13:55:03.61	269.94	8.02	
2025-01-11 13:55:03.81	269.98	8.02	
2025-01-11 13:55:04.02	270.02	8.03	
2025-01-11 13:55:04.23	270.06	8.03	
2025-01-11 13:55:04.44	270.10	8.04	
2025-01-11 13:55:04.65	270.13	8.04	
2025-01-11 13:55:04.85	270.17	8.04	
2025-01-11 13:55:05.06	270.21	8.05	
2025-01-11 13:55:05.26	270.25	8.05	
2025-01-11 13:55:05.47	270.29	8.05	
2025-01-11 13:55:05.67	270.32	8.06	
2025-01-11 13:55:05.88	270.36	8.06	
2025-01-11 13:55:06.08	270.40	8.06	
2025-01-11 13:55:06.28	270.44	8.07	
2025-01-11 13:55:06.49	270.48	8.07	
2025-01-11 13:55:06.69	270.52	8.08	
2025-01-11 13:55:06.90	270.55	8.08	
2025-01-11 13:55:07.11	270.59	8.08	
2025-01-11 13:55:07.31	270.63	8.09	
2025-01-11 13:55:07.51	270.67	8.09	
2025-01-11 13:55:07.72	270.71	8.09	
2025-01-11 13:55:07.92	270.75	8.10	
2025-01-11 13:55:08.13	270.78	8.10	
2025-01-11 13:55:08.34	270.82	8.10	
2025-01-11 13:55:08.54	270.86	8.11	
2025-01-11 13:55:08.74	270.90	8.11	
2025-01-11 13:55:08.95	270.94	8.12	
2025-01-11 13:55:09.15	270.98	8.12	
2025-01-11 13:55:09.36	271.02	8.12	
2025-01-11 13:55:09.56	271.05	8.13	
2025-01-11 13:55:09.77	271.09	8.13	
2025-01-11 13:55:09.97	271.13	8.13	
2025-01-11 13:55:10.18	271.17	8.14	
2025-01-11 13:55:10.38	271.21	8.14	
2025-01-11 13:55:10.59	271.25	8.14	
2025-01-11 13:55:10.79	271.28	8.15	
2025-01-11 13:55:11.00	271.32	8.15	
2025-01-11 13:55:11.20	271.36	8.15	
2025-01-11 13:55:11.41	271.40	8.16	
2025-01-11 13:55:11.61	271.44	8.16	
2025-01-11 13:55:11.82	271.48	8.16	
2025-01-11 13:55:12.02	271.51	8.17	
2025-01-11 13:55:12.23	271.55	8.17	
2025-01-11 13:55:12.44	271.59	8.17	
2025-01-11 13:55:12.64	271.63	8.18	
2025-01-11 13:55:12.84	271.67	8.18	
2025-01-11 13:55:13.05	271.71	8.18	
2025-01-11 13:55:13.26	271.75	8.19	
2025-01-11 13:55:13.46	271.79	8.19	
2025-01-11 13:55:13.67	271.82	8.19	
2025-01-11 13:55:13.87	271.86	8.20	
2025-01-11 13:55:14.08	271.90	8.20	
2025-01-11 13:55:14.28	271.94	8.20	
2025-01-11 13:55:14.49	271.98	8.21	
2025-01-11 13:55:14.69	272.02	8.21	
2025-01-11 13:55:14.90	272.06	8.21	
2025-01-11 13:55:15.10	272.09	8.22	
2025-01-11 13:55:15.31	272.13	8.22	
2025-01-11 13:55:15.51	272.17	8.22	
2025-01-11 13:55:15.72	272.21	8.23	
2025-01-11 13:55:15.92	272.25	8.23	
2025-01-11 13:55:16.13	272.29	8.23	
2025-01-11 13:55:16.33	272.33	8.24	
2025-01-11 13:55:16.54	272.37	8.24	
2025-01-11 13:55:16.74	272.40	8.24	
2025-01-11 13:55:16.94	272.44	8.25	
2025-01-11 13:55:17.15	272.48	8.25	
2025-01-11 13:55:17.36	272.52	8.25	
2025-01-11 13:55:17.56	272.56	8.25	
2025-01-11 13:55:17.77	272.60	8.26	
2025-01-11 13:55:17.97	272.64	8.26	
2025-01-11 13:55:18.17	272.67	8.26	
2025-01-11 13:55:18.38	272.71	8.27	
2025-01-11 13:55:18.58	272.75	8.27	
2025-01-11 13:55:18.79	272.79	8.27	
2025-01-11 13:55:19.00	272.83	8.28	
2025-01-11 13:55:19.20	272.87	8.28	
2025-01-11 13:55:19.40	272.91	8.28	
2025-01-11 13:55:19.61	272.95	8.29	
2025-01-11 13:55:19.81	272.99	8.29	
2025-01-11 13:55:20.02	273.03	8.29	
2025-01-11 13:55:20.22	273.06	8.29	
2025-01-11 13:55:20.43	273.10	8.30	
2025-01-11 13:55:20.63	273.14	8.30	
2025-01-11 13:55:20.84	273.18	8.30	
2025-01-11 13:55:21.04	273.22	8.31	
2025-01-11 13:55:21.26	273.26	8.31	
2025-01-11 13:55:21.47	273.30	8.31	
2025-01-11 13:55:21.67	273.34	8.31	
2025-01-11 13:55:21.88	273.38	8.32	
2025-01-11 13:55:22.08	273.42	8.32	
2025-01-11 13:55:22.29	273.46	8.32	
2025-01-11 13:55:22.49	273.49	8.33	
2025-01-11 13:55:22.70	273.53	8.33	
2025-01-11 13:55:22.91	273.57	8.33	
2025-01-11 13:55:23.11	273.61	8.33	
2025-01-11 13:55:23.32	273.65	8.34	
2025-01-11 13:55:23.53	273.69	8.34	
2025-01-11 13:55:23.73	273.73	8.34	
2025-01-11 13:55:23.94	273.77	8.35	
2025-01-11 13:55:24.15	273.81	8.35	
2025-01-11 13:55:24.35	273.85	8.35	
2025-01-11 13:55:24.56	273.89	8.35	
2025-01-11 13:55:24.76	273.93	8.36	
2025-01-11 13:55:24.97	273.97	8.36	
2025-01-11 13:55:25.17	274.00	8.36	
2025-01-11 13:55:25.38	274.04	8.37	
2025-01-11 13:55:25.58	274.08	8.37	
2025-01-11 13:55:25.78	274.12	8.37	
2025-01-11 13:55:25.99	274.16	8.37	
2025-01-11 13:55:26.20	274.20	8.38	
2025-01-11 13:55:26.40	274.24	8.38	
2025-01-11 13:55:26.62	274.28	8.38	
2025-01-11 13:55:26.82	274.32	8.38	
2025-01-11 13:55:27.03	274.36	8.39	
2025-01-11 13:55:27.23	274.40	8.39	
2025-01-11 13:55:27.44	274.44	8.39	
2025-01-11 13:55:27.64	274.48	8.39	
2025-01-11 13:55:27.85	274.52	8.40	
2025-01-11 13:55:28.05	274.55	8.40	
2025-01-11 13:55:28.26	274.59	8.40	
2025-01-11 13:55:28.46	274.63	8.41	
2025-01-11 13:55:28.67	274.67	8.41	
2025-01-11 13:55:28.87	274.71	8.41	
2025-01-11 13:55:29.08	274.75	8.41	
2025-01-11 13:55:29.29	274.79	8.42	
2025-01-11 13:55:29.49	274.83	8.42	
2025-01-11 13:55:29.70	274.87	8.42	
2025-01-11 13:55:29.90	274.91	8.42	
2025-01-11 13:55:30.11	274.95	8.43	
2025-01-11 13:55:30.31	274.99	8.43	
2025-01-11 13:55:30.52	275.03	8.43	
2025-01-11 13:55:30.72	275.07	8.43	
2025-01-11 13:55:30.92	275.10	8.43	
2025-01-11 13:55:31.13	275.14	8.44	
2025-01-11 13:55:31.33	275.18	8.44	
2025-01-11 13:55:31.54	275.22	8.44	
2025-01-11 13:55:31.75	275.26	8.44	
2025-01-11 13:55:31.95	275.30	8.45	
2025-01-11 13:55:32.16	275.34	8.45	
2025-01-11 13:55:32.36	275.38	8.45	
2025-01-11 13:55:32.57	275.42	8.45	
2025-01-11 13:55:32.77	275.46	8.46	
2025-01-11 13:55:32.97	275.50	8.46	
2025-01-11 13:55:33.18	275.54	8.46	
2025-01-11 13:55:33.39	275.58	8.46	
2025-01-11 13:55:33.59	275.62	8.47	
2025-01-11 13:55:33.80	275.66	8.47	
2025-01-11 13:55:34.00	275.69	8.47	
2025-01-11 13:55:34.21	275.74	8.47	
2025-01-11 13:55:34.41	275.77	8.47	
2025-01-11 13:55:34.62	275.81	8.48	
2025-01-11 13:55:34.82	275.85	8.48	
2025-01-11 13:55:35.03	275.89	8.48	
2025-01-11 13:55:35.23	275.93	8.48	
2025-01-11 13:55:35.44	275.97	8.49	
2025-01-11 13:55:35.64	276.01	8.49	
2025-01-11 13:55:35.85	276.05	8.49	
2025-01-11 13:55:36.06	276.09	8.49	
2025-01-11 13:55:36.27	276.13	8.49	
2025-01-11 13:55:36.48	276.17	8.50	
2025-01-11 13:55:36.68	276.21	8.50	
2025-01-11 13:55:36.89	276.25	8.50	
2025-01-11 13:55:37.09	276.29	8.50	
2025-01-11 13:55:37.30	276.33	8.50	
2025-01-11 13:55:37.50	276.37	8.51	
2025-01-11 13:55:37.70	276.41	8.51	
2025-01-11 13:55:37.91	276.45	8.51	
2025-01-11 13:55:38.12	276.49	8.51	
2025-01-11 13:55:38.32	276.53	8.52	
2025-01-11 13:55:38.52	276.56	8.52	
2025-01-11 13:55:38.73	276.60	8.52	
2025-01-11 13:55:38.93	276.64	8.52	
2025-01-11 13:55:39.14	276.68	8.52	
2025-01-11 13:55:39.34	276.72	8.53	
2025-01-11 13:55:39.55	276.76	8.53	
2025-01-11 13:55:39.76	276.80	8.53	
2025-01-11 13:55:39.96	276.84	8.53	
2025-01-11 13:55:40.16	276.88	8.53	
2025-01-11 13:55:40.37	276.92	8.53	
2025-01-11 13:55:40.57	276.96	8.54	
2025-01-11 13:55:40.78	277.00	8.54	
2025-01-11 13:55:40.98	277.04	8.54	
2025-01-11 13:55:41.19	277.08	8.54	
2025-01-11 13:55:41.39	277.12	8.54	
2025-01-11 13:55:41.60	277.16	8.55	
2025-01-11 13:55:41.80	277.20	8.55	
2025-01-11 13:55:42.01	277.24	8.55	
2025-01-11 13:55:42.22	277.28	8.55	
2025-01-11 13:55:42.42	277.32	8.55	
2025-01-11 13:55:42.62	277.36	8.56	
2025-01-11 13:55:42.83	277.40	8.56	
2025-01-11 13:55:43.03	277.43	8.56	
2025-01-11 13:55:43.24	277.48	8.56	
2025-01-11 13:55:43.44	277.51	8.56	
2025-01-11 13:55:43.66	277.56	8.56	
2025-01-11 13:55:43.86	277.60	8.57	
2025-01-11 13:55:44.07	277.64	8.57	
2025-01-11 13:55:44.28	277.68	8.57	
2025-01-11 13:55:44.48	277.72	8.57	
2025-01-11 13:55:44.68	277.75	8.57	
2025-01-11 13:55:44.89	277.79	8.57	
2025-01-11 13:55:45.09	277.83	8.58	
2025-01-11 13:55:45.30	277.87	8.58	
2025-01-11 13:55:45.50	277.91	8.58	
2025-01-11 13:55:45.71	277.95	8.58	
2025-01-11 13:55:45.91	277.99	8.58	
2025-01-11 13:55:46.12	278.03	8.58	
2025-01-11 13:55:46.32	278.07	8.59	
2025-01-11 13:55:46.53	278.11	8.59	
2025-01-11 13:55:46.73	278.15	8.59	
2025-01-11 13:55:46.94	278.19	8.59	
2025-01-11 13:55:47.14	278.23	8.59	
2025-01-11 13:55:47.35	278.27	8.59	
2025-01-11 13:55:47.55	278.31	8.60	
2025-01-11 13:55:47.76	278.35	8.60	
2025-01-11 13:55:47.96	278.39	8.60	
2025-01-11 13:55:48.17	278.43	8.60	
2025-01-11 13:55:48.37	278.47	8.60	
2025-01-11 13:55:48.58	278.51	8.60	
2025-01-11 13:55:48.78	278.55	8.60	
2025-01-11 13:55:48.99	278.59	8.61	
2025-01-11 13:55:49.19	278.63	8.61	
2025-01-11 13:55:49.40	278.67	8.61	
2025-01-11 13:55:49.60	278.71	8.61	
2025-01-11 13:55:49.81	278.75	8.61	
2025-01-11 13:55:50.03	278.79	8.61	
2025-01-11 13:55:50.23	278.83	8.61	
2025-01-11 13:55:50.44	278.87	8.62	
2025-01-11 13:55:50.64	278.91	8.62	
2025-01-11 13:55:50.85	278.95	8.62	
2025-01-11 13:55:51.05	278.99	8.62	
2025-01-11 13:55:51.26	279.03	8.62	
2025-01-11 13:55:51.46	279.07	8.62	
2025-01-11 13:55:51.67	279.11	8.62	
2025-01-11 13:55:51.87	279.15	8.62	
2025-01-11 13:55:52.08	279.19	8.63	
2025-01-11 13:55:52.28	279.23	8.63	
2025-01-11 13:55:52.49	279.27	8.63	
2025-01-11 13:55:52.70	279.31	8.63	
2025-01-11 13:55:52.90	279.35	8.63	
2025-01-11 13:55:53.11	279.39	8.63	
2025-01-11 13:55:53.31	279.43	8.63	
2025-01-11 13:55:53.52	279.47	8.63	
2025-01-11 13:55:53.72	279.51	8.64	
2025-01-11 13:55:53.93	279.55	8.64	
2025-01-11 13:55:54.13	279.59	8.64	
2025-01-11 13:55:54.34	279.63	8.64	
2025-01-11 13:55:54.54	279.67	8.64	
2025-01-11 13:55:54.75	279.71	8.64	
2025-01-11 13:55:54.95	279.75	8.64	
2025-01-11 13:55:55.16	279.79	8.64	
2025-01-11 13:55:55.36	279.83	8.65	
2025-01-11 13:55:55.57	279.87	8.65	
2025-01-11 13:55:55.77	279.91	8.65	
2025-01-11 13:55:55.98	279.95	8.65	
2025-01-11 13:55:56.19	279.99	8.65	
2025-01-11 13:55:56.39	280.03	8.65	
2025-01-11 13:55:56.60	280.07	8.65	
2025-01-11 13:55:56.80	280.11	8.65	
2025-01-11 13:55:57.01	280.15	8.65	
2025-01-11 13:55:57.22	280.19	8.65	
2025-01-11 13:55:57.42	280.23	8.66	
2025-01-11 13:55:57.63	280.27	8.66	
2025-01-11 13:55:57.83	280.31	8.66	
2025-01-11 13:55:58.04	280.35	8.66	
2025-01-11 13:55:58.24	280.39	8.66	
2025-01-11 13:55:58.45	280.43	8.66	
2025-01-11 13:55:58.65	280.47	8.66	
2025-01-11 13:55:58.86	280.51	8.66	
2025-01-11 13:55:59.06	280.55	8.66	
2025-01-11 13:55:59.27	280.59	8.66	
2025-01-11 13:55:59.48	280.63	8.66	
2025-01-11 13:55:59.68	280.67	8.67	
2025-01-11 13:55:59.89	280.71	8.67	
2025-01-11 13:56:00.09	280.75	8.67	
2025-01-11 13:56:00.30	280.79	8.67	
2025-01-11 13:56:00.50	280.83	8.67	
2025-01-11 13:56:00.71	280.87	8.67	
2025-01-11 13:56:00.91	280.91	8.67	
2025-01-11 13:56:01.12	280.95	8.67	
2025-01-11 13:56:01.32	280.99	8.67	
2025-01-11 13:56:01.53	281.03	8.67	
2025-01-11 13:56:01.73	281.07	8.67	
2025-01-11 13:56:01.93	281.10	8.67	
2025-01-11 13:56:02.14	281.15	8.68	
2025-01-11 13:56:02.34	281.18	8.68	
2025-01-11 13:56:02.55	281.23	8.68	
2025-01-11 13:56:02.77	281.27	8.68	
2025-01-11 13:56:02.97	281.31	8.68	
2025-01-11 13:56:03.18	281.35	8.68	
2025-01-11 13:56:03.38	281.39	8.68	
2025-01-11 13:56:03.59	281.43	8.68	
2025-01-11 13:56:03.79	281.47	8.68	
2025-01-11 13:56:03.99	281.51	8.68	
2025-01-11 13:56:04.20	281.55	8.68	
2025-01-11 13:56:04.41	281.59	8.68	
2025-01-11 13:56:04.61	281.63	8.68	
2025-01-11 13:56:04.81	281.67	8.68	
2025-01-11 13:56:05.02	281.71	8.68	
2025-01-11 13:56:05.22	281.75	8.68	
2025-01-11 13:56:05.43	281.79	8.69	
2025-01-11 13:56:05.63	281.83	8.69	
2025-01-11 13:56:05.84	281.87	8.69	
2025-01-11 13:56:06.04	281.91	8.69	
2025-01-11 13:56:06.25	281.95	8.69	
2025-01-11 13:56:06.45	281.99	8.69	
2025-01-11 13:56:06.65	282.02	8.69	
2025-01-11 13:56:06.86	282.07	8.69	
2025-01-11 13:56:07.06	282.10	8.69	
2025-01-11 13:56:07.27	282.15	8.69	
2025-01-11 13:56:07.48	282.19	8.69	
2025-01-11 13:56:07.68	282.23	8.69	
2025-01-11 13:56:07.89	282.27	8.69	
2025-01-11 13:56:08.09	282.31	8.69	
2025-01-11 13:56:08.30	282.35	8.69	
2025-01-11 13:56:08.50	282.39	8.69	
2025-01-11 13:56:08.71	282.43	8.69	
2025-01-11 13:56:08.91	282.47	8.69	
2025-01-11 13:56:09.12	282.51	8.69	
2025-01-11 13:56:09.32	282.55	8.69	
2025-01-11 13:56:09.53	282.59	8.69	
2025-01-11 13:56:09.73	282.63	8.69	
2025-01-11 13:56:09.94	282.67	8.69	
2025-01-11 13:56:10.14	282.71	8.69	
2025-01-11 13:56:10.35	282.75	8.70	
2025-01-11 13:56:10.55	282.79	8.70	
2025-01-11 13:56:10.76	282.83	8.70	
2025-01-11 13:56:10.96	282.87	8.70	
2025-01-11 13:56:11.17	282.91	8.70	
2025-01-11 13:56:11.37	282.95	8.70	
2025-01-11 13:56:11.58	282.99	8.70	
2025-01-11 13:56:11.78	283.03	8.70	
2025-01-11 13:56:11.98	283.06	8.70	
2025-01-11 13:56:12.19	283.11	8.70	
2025-01-11 13:56:12.39	283.14	8.70	
2025-01-11 13:56:12.60	283.19	8.70	
2025-01-11 13:56:12.80	283.22	8.70	
2025-01-11 13:56:13.01	283.27	8.70	
2025-01-11 13:56:13.21	283.30	8.70	
2025-01-11 13:56:13.42	283.35	8.70	
2025-01-11 13:56:13.63	283.39	8.70	
2025-01-11 13:56:13.83	283.43	8.70	
2025-01-11 13:56:14.04	283.47	8.70	
2025-01-11 13:56:14.24	283.51	8.70	
2025-01-11 13:56:14.45	283.55	8.70	
2025-01-11 13:56:14.65	283.59	8.70	
2025-01-11 13:56:14.85	283.62	8.70	
2025-01-11 13:56:15.06	283.67	8.70	
2025-01-11 13:56:15.26	283.70	8.70	
2025-01-11 13:56:15.47	283.75	8.70	
2025-01-11 13:56:15.68	283.79	8.70	
2025-01-11 13:56:15.89	283.83	8.70	
2025-01-11 13:56:16.09	283.87	8.70	
2025-01-11 13:56:16.30	283.91	8.70	
2025-01-11 13:56:16.50	283.95	8.70	
2025-01-11 13:56:16.72	283.99	8.70	
2025-01-11 13:56:16.92	284.03	8.70	
2025-01-11 13:56:17.13	284.07	8.70	
2025-01-11 13:56:17.33	284.11	8.70	
2025-01-11 13:56:17.54	284.15	8.70	
2025-01-11 13:56:17.74	284.19	8.70	
2025-01-11 13:56:17.95	284.23	8.70	
2025-01-11 13:56:18.15	284.27	8.70	
2025-01-11 13:56:18.36	284.31	8.70	
2025-01-11 13:56:18.56	284.35	8.70	
2025-01-11 13:56:18.76	284.39	8.70	
2025-01-11 13:56:18.97	284.43	8.70	
2025-01-11 13:56:19.18	284.47	8.70	
2025-01-11 13:56:19.38	284.51	8.70	
2025-01-11 13:56:19.59	284.55	8.70	
2025-01-11 13:56:19.79	284.59	8.69	
2025-01-11 13:56:20.00	284.63	8.69	
2025-01-11 13:56:20.20	284.67	8.69	
2025-01-11 13:56:20.41	284.71	8.69	
2025-01-11 13:56:20.61	284.75	8.69	
2025-01-11 13:56:20.82	284.79	8.69	
2025-01-11 13:56:21.02	284.83	8.69	
2025-01-11 13:56:21.22	284.87	8.69	
2025-01-11 13:56:21.43	284.91	8.69	
2025-01-11 13:56:21.63	284.95	8.69	
2025-01-11 13:56:21.84	284.99	8.69	
2025-01-11 13:56:22.04	285.03	8.69	
2025-01-11 13:56:22.25	285.07	8.69	
2025-01-11 13:56:22.45	285.11	8.69	
2025-01-11 13:56:22.66	285.15	8.69	
2025-01-11 13:56:22.86	285.19	8.69	
2025-01-11 13:56:23.07	285.23	8.69	
2025-01-11 13:56:23.27	285.27	8.69	
2025-01-11 13:56:23.48	285.31	8.69	
2025-01-11 13:56:23.68	285.35	8.69	
2025-01-11 13:56:23.89	285.39	8.69	
2025-01-11 13:56:24.09	285.43	8.69	
2025-01-11 13:56:24.30	285.47	8.69	
2025-01-11 13:56:24.50	285.51	8.69	
2025-01-11 13:56:24.71	285.55	8.69	
2025-01-11 13:56:24.91	285.59	8.68	
2025-01-11 13:56:25.12	285.63	8.68	
2025-01-11 13:56:25.32	285.67	8.68	
2025-01-11 13:56:25.53	285.71	8.68	
2025-01-11 13:56:25.74	285.75	8.68	
2025-01-11 13:56:25.94	285.79	8.68	
2025-01-11 13:56:26.15	285.83	8.68	
2025-01-11 13:56:26.35	285.87	8.68	
2025-01-11 13:56:26.56	285.91	8.68	
2025-01-11 13:56:26.76	285.95	8.68	
2025-01-11 13:56:26.97	285.99	8.68	
2025-01-11 13:56:27.18	286.03	8.68	
2025-01-11 13:56:27.38	286.07	8.68	
2025-01-11 13:56:27.59	286.11	8.68	
2025-01-11 13:56:27.79	286.15	8.68	
2025-01-11 13:56:28.00	286.19	8.68	
2025-01-11 13:56:28.20	286.23	8.67	
2025-01-11 13:56:28.40	286.27	8.67	
2025-01-11 13:56:28.61	286.31	8.67	
2025-01-11 13:56:28.82	286.35	8.67	
2025-01-11 13:56:29.02	286.39	8.67	
2025-01-11 13:56:29.23	286.43	8.67	
2025-01-11 13:56:29.43	286.47	8.67	
2025-01-11 13:56:29.64	286.51	8.67	
2025-01-11 13:56:29.84	286.55	8.67	
2025-01-11 13:56:30.05	286.59	8.67	
2025-01-11 13:56:30.25	286.63	8.67	
2025-01-11 13:56:30.46	286.67	8.67	
2025-01-11 13:56:30.68	286.71	8.66	
2025-01-11 13:56:30.88	286.75	8.66	
2025-01-11 13:56:31.09	286.79	8.66	
2025-01-11 13:56:31.29	286.83	8.66	
2025-01-11 13:56:31.50	286.87	8.66	
2025-01-11 13:56:31.70	286.91	8.66	
2025-01-11 13:56:31.91	286.95	8.66	
2025-01-11 13:56:32.11	286.99	8.66	
2025-01-11 13:56:32.32	287.03	8.66	
2025-01-11 13:56:32.52	287.07	8.66	
2025-01-11 13:56:32.73	287.11	8.66	
2025-01-11 13:56:32.93	287.15	8.65	
2025-01-11 13:56:33.14	287.19	8.65	
2025-01-11 13:56:33.34	287.23	8.65	
2025-01-11 13:56:33.55	287.27	8.65	
2025-01-11 13:56:33.75	287.31	8.65	
2025-01-11 13:56:33.95	287.35	8.65	
2025-01-11 13:56:34.16	287.39	8.65	
2025-01-11 13:56:34.37	287.43	8.65	
2025-01-11 13:56:34.57	287.47	8.65	
2025-01-11 13:56:34.78	287.51	8.65	
2025-01-11 13:56:34.98	287.55	8.64	
2025-01-11 13:56:35.19	287.59	8.64	
2025-01-11 13:56:35.39	287.63	8.64	
2025-01-11 13:56:35.60	287.67	8.64	
2025-01-11 13:56:35.81	287.71	8.64	
2025-01-11 13:56:36.01	287.75	8.64	
2025-01-11 13:56:36.21	287.78	8.64	
2025-01-11 13:56:36.42	287.83	8.64	
2025-01-11 13:56:36.62	287.86	8.63	
2025-01-11 13:56:36.83	287.91	8.63	
2025-01-11 13:56:37.05	287.95	8.63	
2025-01-11 13:56:37.25	287.99	8.63	
2025-01-11 13:56:37.46	288.03	8.63	
2025-01-11 13:56:37.66	288.07	8.63	
2025-01-11 13:56:37.87	288.11	8.63	
2025-01-11 13:56:38.09	288.15	8.63	
2025-01-11 13:56:38.29	288.19	8.62	
2025-01-11 13:56:38.50	288.23	8.62	
2025-01-11 13:56:38.70	288.27	8.62	
2025-01-11 13:56:38.91	288.31	8.62	
2025-01-11 13:56:39.11	288.35	8.62	
2025-01-11 13:56:39.31	288.39	8.62	
2025-01-11 13:56:39.52	288.43	8.62	
2025-01-11 13:56:39.73	288.47	8.62	
2025-01-11 13:56:39.93	288.51	8.61	
2025-01-11 13:56:40.13	288.55	8.61	
2025-01-11 13:56:40.34	288.59	8.61	
2025-01-11 13:56:40.55	288.63	8.61	
2025-01-11 13:56:40.75	288.67	8.61	
2025-01-11 13:56:40.96	288.71	8.61	
2025-01-11 13:56:41.16	288.74	8.61	
2025-01-11 13:56:41.37	288.79	8.60	
2025-01-11 13:56:41.57	288.82	8.60	
2025-01-11 13:56:41.78	288.86	8.60	
2025-01-11 13:56:41.98	288.90	8.60	
2025-01-11 13:56:42.19	288.94	8.60	
2025-01-11 13:56:42.39	288.98	8.60	
2025-01-11 13:56:42.59	289.02	8.60	
2025-01-11 13:56:42.80	289.06	8.59	
2025-01-11 13:56:43.01	289.10	8.59	
2025-01-11 13:56:43.21	289.14	8.59	
2025-01-11 13:56:43.41	289.18	8.59	
2025-01-11 13:56:43.62	289.22	8.59	
2025-01-11 13:56:43.82	289.26	8.59	
2025-01-11 13:56:44.03	289.30	8.58	
2025-01-11 13:56:44.23	289.34	8.58	
2025-01-11 13:56:44.44	289.38	8.58	
2025-01-11 13:56:44.64	289.42	8.58	
2025-01-11 13:56:44.85	289.46	8.58	
2025-01-11 13:56:45.05	289.50	8.58	
2025-01-11 13:56:45.26	289.54	8.57	
2025-01-11 13:56:45.46	289.58	8.57	
2025-01-11 13:56:45.67	289.62	8.57	
2025-01-11 13:56:45.87	289.66	8.57	
2025-01-11 13:56:46.08	289.70	8.57	
2025-01-11 13:56:46.28	289.74	8.57	
2025-01-11 13:56:46.48	289.77	8.56	
2025-01-11 13:56:46.69	289.81	8.56	
2025-01-11 13:56:46.89	289.85	8.56	
2025-01-11 13:56:47.10	289.89	8.56	
2025-01-11 13:56:47.30	289.93	8.56	
2025-01-11 13:56:47.51	289.97	8.56	
2025-01-11 13:56:47.71	290.01	8.55	
2025-01-11 13:56:47.92	290.05	8.55	
2025-01-11 13:56:48.12	290.09	8.55	
2025-01-11 13:56:48.33	290.13	8.55	
2025-01-11 13:56:48.53	290.17	8.55	
2025-01-11 13:56:48.74	290.21	8.54	
2025-01-11 13:56:48.94	290.25	8.54	
2025-01-11 13:56:49.15	290.29	8.54	
2025-01-11 13:56:49.35	290.33	8.54	
2025-01-11 13:56:49.56	290.37	8.54	
2025-01-11 13:56:49.76	290.41	8.54	
2025-01-11 13:56:49.97	290.45	8.53	
2025-01-11 13:56:50.17	290.49	8.53	
2025-01-11 13:56:50.38	290.53	8.53	
2025-01-11 13:56:50.59	290.57	8.53	
2025-01-11 13:56:50.79	290.60	8.53	
2025-01-11 13:56:50.99	290.64	8.52	
2025-01-11 13:56:51.20	290.68	8.52	
2025-01-11 13:56:51.41	290.72	8.52	
2025-01-11 13:56:51.61	290.76	8.52	
2025-01-11 13:56:51.82	290.80	8.52	
2025-01-11 13:56:52.02	290.84	8.51	
2025-01-11 13:56:52.23	290.88	8.51	
2025-01-11 13:56:52.43	290.92	8.51	
2025-01-11 13:56:52.64	290.96	8.51	
2025-01-11 13:56:52.85	291.00	8.50	
2025-01-11 13:56:53.05	291.04	8.50	
2025-01-11 13:56:53.25	291.08	8.50	
2025-01-11 13:56:53.46	291.12	8.50	
2025-01-11 13:56:53.66	291.16	8.50	
2025-01-11 13:56:53.87	291.20	8.49	
2025-01-11 13:56:54.07	291.24	8.49	
2025-01-11 13:56:54.28	291.28	8.49	
2025-01-11 13:56:54.48	291.31	8.49	
2025-01-11 13:56:54.69	291.35	8.49	
2025-01-11 13:56:54.89	291.39	8.48	
2025-01-11 13:56:55.10	291.43	8.48	
2025-01-11 13:56:55.30	291.47	8.48	
2025-01-11 13:56:55.51	291.51	8.48	
2025-01-11 13:56:55.71	291.55	8.47	
2025-01-11 13:56:55.91	291.59	8.47	
2025-01-11 13:56:56.12	291.63	8.47	
2025-01-11 13:56:56.32	291.67	8.47	
2025-01-11 13:56:56.53	291.71	8.47	
2025-01-11 13:56:56.73	291.75	8.46	
2025-01-11 13:56:56.94	291.79	8.46	
2025-01-11 13:56:57.14	291.82	8.46	
2025-01-11 13:56:57.35	291.86	8.46	
2025-01-11 13:56:57.55	291.90	8.45	
2025-01-11 13:56:57.76	291.94	8.45	
2025-01-11 13:56:57.96	291.98	8.45	
2025-01-11 13:56:58.17	292.02	8.45	
2025-01-11 13:56:58.37	292.06	8.45	
2025-01-11 13:56:58.58	292.10	8.44	
2025-01-11 13:56:58.78	292.14	8.44	
2025-01-11 13:56:58.99	292.18	8.44	
2025-01-11 13:56:59.19	292.22	8.44	
2025-01-11 13:56:59.41	292.26	8.43	
2025-01-11 13:56:59.62	292.30	8.43	
2025-01-11 13:56:59.82	292.34	8.43	
2025-01-11 13:57:00.03	292.38	8.43	
2025-01-11 13:57:00.23	292.42	8.42	
2025-01-11 13:57:00.44	292.46	8.42	
2025-01-11 13:57:00.64	292.49	8.42	
2025-01-11 13:57:00.85	292.53	8.42	
2025-01-11 13:57:01.05	292.57	8.41	
2025-01-11 13:57:01.26	292.61	8.41	
2025-01-11 13:57:01.46	292.65	8.41	
2025-01-11 13:57:01.67	292.69	8.41	
2025-01-11 13:57:01.87	292.73	8.40	
2025-01-11 13:57:02.08	292.77	8.40	
2025-01-11 13:57:02.28	292.81	8.40	
2025-01-11 13:57:02.49	292.85	8.40	
2025-01-11 13:57:02.69	292.89	8.39	
2025-01-11 13:57:02.90	292.93	8.39	
2025-01-11 13:57:03.10	292.96	8.39	
2025-01-11 13:57:03.31	293.00	8.38	
2025-01-11 13:57:03.51	293.04	8.38	
2025-01-11 13:57:03.71	293.08	8.38	
2025-01-11 13:57:03.92	293.12	8.38	
2025-01-11 13:57:04.13	293.16	8.37	
2025-01-11 13:57:04.33	293.20	8.37	
2025-01-11 13:57:04.54	293.24	8.37	
2025-01-11 13:57:04.74	293.28	8.37	
2025-01-11 13:57:04.95	293.32	8.36	
2025-01-11 13:57:05.15	293.35	8.36	
2025-01-11 13:57:05.36	293.39	8.36	
2025-01-11 13:57:05.56	293.43	8.36	
2025-01-11 13:57:05.78	293.47	8.35	
2025-01-11 13:57:05.99	293.51	8.35	
2025-01-11 13:57:06.19	293.55	8.35	
2025-01-11 13:57:06.40	293.59	8.34	
2025-01-11 13:57:06.60	293.63	8.34	
2025-01-11 13:57:06.81	293.67	8.34	
2025-01-11 13:57:07.01	293.71	8.34	
2025-01-11 13:57:07.22	293.75	8.33	
2025-01-11 13:57:07.42	293.78	8.33	
2025-01-11 13:57:07.63	293.82	8.33	
2025-01-11 13:57:07.83	293.86	8.32	
2025-01-11 13:57:08.04	293.90	8.32	
2025-01-11 13:57:08.24	293.94	8.32	
2025-01-11 13:57:08.45	293.98	8.32	
2025-01-11 13:57:08.65	294.02	8.31	
2025-01-11 13:57:08.86	294.06	8.31	
2025-01-11 13:57:09.06	294.10	8.31	
2025-01-11 13:57:09.27	294.14	8.30	
2025-01-11 13:57:09.48	294.18	8.30	
2025-01-11 13:57:09.68	294.21	8.30	
2025-01-11 13:57:09.89	294.25	8.30	
2025-01-11 13:57:10.09	294.29	8.29	
2025-01-11 13:57:10.29	294.33	8.29	
2025-01-11 13:57:10.50	294.37	8.29	
2025-01-11 13:57:10.70	294.41	8.28	
2025-01-11 13:57:10.91	294.45	8.28	
2025-01-11 13:57:11.11	294.48	8.28	
2025-01-11 13:57:11.32	294.52	8.27	
2025-01-11 13:57:11.53	294.56	8.27	
2025-01-11 13:57:11.73	294.60	8.27	
2025-01-11 13:57:11.94	294.64	8.27	
2025-01-11 13:57:12.14	294.68	8.26	
2025-01-11 13:57:12.35	294.72	8.26	
2025-01-11 13:57:12.55	294.76	8.26	
2025-01-11 13:57:12.76	294.80	8.25	
2025-01-11 13:57:12.96	294.83	8.25	
2025-01-11 13:57:13.17	294.87	8.25	
2025-01-11 13:57:13.37	294.91	8.24	
2025-01-11 13:57:13.58	294.95	8.24	
2025-01-11 13:57:13.78	294.99	8.24	
2025-01-11 13:57:13.99	295.03	8.23	
2025-01-11 13:57:14.19	295.06	8.23	
2025-01-11 13:57:14.41	295.11	8.23	
2025-01-11 13:57:14.62	295.15	8.22	
2025-01-11 13:57:14.82	295.18	8.22	
2025-01-11 13:57:15.03	295.22	8.22	
2025-01-11 13:57:15.23	295.26	8.21	
2025-01-11 13:57:15.45	295.30	8.21	
2025-01-11 13:57:15.67	295.34	8.21	
2025-01-11 13:57:15.87	295.38	8.20	
2025-01-11 13:57:16.08	295.42	8.20	
2025-01-11 13:57:16.28	295.46	8.20	
2025-01-11 13:57:16.49	295.50	8.19	
2025-01-11 13:57:16.69	295.54	8.19	
2025-01-11 13:57:16.90	295.57	8.19	
2025-01-11 13:57:17.10	295.61	8.18	
2025-01-11 13:57:17.31	295.65	8.18	
2025-01-11 13:57:17.51	295.69	8.18	
2025-01-11 13:57:17.72	295.73	8.17	
2025-01-11 13:57:17.93	295.77	8.17	
2025-01-11 13:57:18.13	295.81	8.17	
2025-01-11 13:57:18.34	295.84	8.16	
2025-01-11 13:57:18.54	295.88	8.16	
2025-01-11 13:57:18.74	295.92	8.16	
2025-01-11 13:57:18.95	295.96	8.15	
2025-01-11 13:57:19.16	296.00	8.15	
2025-01-11 13:57:19.36	296.04	8.15	
2025-01-11 13:57:19.57	296.08	8.14	
2025-01-11 13:57:19.77	296.11	8.14	
2025-01-11 13:57:19.98	296.15	8.14	
2025-01-11 13:57:20.18	296.19	8.13	
2025-01-11 13:57:20.39	296.23	8.13	
2025-01-11 13:57:20.60	296.27	8.13	
2025-01-11 13:57:20.80	296.31	8.12	
2025-01-11 13:57:21.00	296.34	8.12	
2025-01-11 13:57:21.21	296.38	8.12	
2025-01-11 13:57:21.41	296.42	8.11	
2025-01-11 13:57:21.62	296.46	8.11	
2025-01-11 13:57:21.82	296.50	8.11	
2025-01-11 13:57:22.03	296.53	8.10	
2025-01-11 13:57:22.24	296.57	8.10	
2025-01-11 13:57:22.44	296.61	8.10	
2025-01-11 13:57:22.65	296.65	8.09	
2025-01-11 13:57:22.85	296.69	8.09	
2025-01-11 13:57:23.06	296.73	8.08	
2025-01-11 13:57:23.27	296.77	8.08	
2025-01-11 13:57:23.47	296.80	8.08	
2025-01-11 13:57:23.68	296.84	8.07	
2025-01-11 13:57:23.88	296.88	8.07	
2025-01-11 13:57:24.08	296.92	8.07	
2025-01-11 13:57:24.29	296.96	8.06	
2025-01-11 13:57:24.50	297.00	8.06	
2025-01-11 13:57:24.70	297.03	8.06	
2025-01-11 13:57:24.91	297.07	8.05	
2025-01-11 13:57:25.11	297.11	8.05	
2025-01-11 13:57:25.31	297.15	8.04	
2025-01-11 13:57:25.52	297.18	8.04	
2025-01-11 13:57:25.72	297.22	8.04	
2025-01-11 13:57:25.93	297.26	8.03	
2025-01-11 13:57:26.13	297.30	8.03	
2025-01-11 13:57:26.34	297.34	8.03	
2025-01-11 13:57:26.54	297.37	8.02	
2025-01-11 13:57:26.75	297.41	8.02	
2025-01-11 13:57:26.95	297.45	8.01	
2025-01-11 13:57:27.16	297.49	8.01	
2025-01-11 13:57:27.36	297.53	8.01	
2025-01-11 13:57:27.57	297.56	8.00	
2025-01-11 13:57:27.77	297.60	8.00	
2025-01-11 13:57:27.98	297.64	7.99	
2025-01-11 13:57:28.18	297.68	7.99	
2025-01-11 13:57:28.39	297.72	7.99	
2025-01-11 13:57:28.59	297.75	7.98	
2025-01-11 13:57:28.80	297.79	7.98	
2025-01-11 13:57:29.00	297.83	7.98	
2025-01-11 13:57:29.21	297.87	7.97	
2025-01-11 13:57:29.41	297.91	7.97	
2025-01-11 13:57:29.62	297.94	7.96	
2025-01-11 13:57:29.82	297.98	7.96	
2025-01-11 13:57:30.03	298.02	7.96	
2025-01-11 13:57:30.23	298.06	7.95	
2025-01-11 13:57:30.44	298.10	7.95	
2025-01-11 13:57:30.64	298.13	7.94	
2025-01-11 13:57:30.85	298.17	7.94	
2025-01-11 13:57:31.05	298.21	7.94	
2025-01-11 13:57:31.26	298.25	7.93	
2025-01-11 13:57:31.46	298.28	7.93	
2025-01-11 13:57:31.67	298.32	7.92	
2025-01-11 13:57:31.87	298.36	7.92	
2025-01-11 13:57:32.08	298.40	7.92	
2025-01-11 13:57:32.28	298.43	7.91	
2025-01-11 13:57:32.49	298.47	7.91	
2025-01-11 13:57:32.69	298.51	7.90	
2025-01-11 13:57:32.90	298.55	7.90	
2025-01-11 13:57:33.10	298.59	7.90	
2025-01-11 13:57:33.31	298.62	7.89	
2025-01-11 13:57:33.51	298.66	7.89	
2025-01-11 13:57:33.72	298.70	7.88	
2025-01-11 13:57:33.92	298.74	7.88	
2025-01-11 13:57:34.13	298.77	7.88	
2025-01-11 13:57:34.34	298.81	7.87	
2025-01-11 13:57:34.54	298.85	7.87	
2025-01-11 13:57:34.75	298.89	7.86	
2025-01-11 13:57:34.95	298.92	7.86	
2025-01-11 13:57:35.16	298.96	7.85	
2025-01-11 13:57:35.36	299.00	7.85	
2025-01-11 13:57:35.57	299.04	7.85	
2025-01-11 13:57:35.77	299.08	7.84	
2025-01-11 13:57:35.98	299.11	7.84	
2025-01-11 13:57:36.18	299.15	7.83	
2025-01-11 13:57:36.39	299.19	7.83	
2025-01-11 13:57:36.59	299.23	7.83	
2025-01-11 13:57:36.80	299.26	7.82	
2025-01-11 13:57:37.00	299.30	7.82	
2025-01-11 13:57:37.21	299.34	7.81	
2025-01-11 13:57:37.41	299.38	7.81	
2025-01-11 13:57:37.62	299.41	7.80	
2025-01-11 13:57:37.84	299.45	7.80	
2025-01-11 13:57:38.04	299.49	7.80	
2025-01-11 13:57:38.25	299.53	7.79	
2025-01-11 13:57:38.45	299.56	7.79	
2025-01-11 13:57:38.66	299.60	7.78	
2025-01-11 13:57:38.86	299.64	7.78	
2025-01-11 13:57:39.06	299.68	7.77	
2025-01-11 13:57:39.27	299.71	7.77	
2025-01-11 13:57:39.48	299.75	7.76	
2025-01-11 13:57:39.68	299.79	7.76	
2025-01-11 13:57:39.88	299.83	7.76	
2025-01-11 13:57:40.09	299.86	7.75	
2025-01-11 13:57:40.29	299.90	7.75	
2025-01-11 13:57:40.50	299.94	7.74	
2025-01-11 13:57:40.70	299.97	7.74	
2025-01-11 13:57:40.91	300.01	7.73	
2025-01-11 13:57:41.11	300.05	7.73	
2025-01-11 13:57:41.32	300.09	7.73	
2025-01-11 13:57:41.52	300.12	7.72	
2025-01-11 13:57:41.73	300.16	7.72	
2025-01-11 13:57:41.95	300.20	7.71	
2025-01-11 13:57:42.15	300.24	7.71	
2025-01-11 13:57:42.36	300.28	7.70	
2025-01-11 13:57:42.56	300.31	7.70	
2025-01-11 13:57:42.77	300.35	7.69	
2025-01-11 13:57:42.97	300.39	7.69	
2025-01-11 13:57:43.19	300.43	7.68	
2025-01-11 13:57:43.40	300.46	7.68	
2025-01-11 13:57:43.60	300.50	7.68	
2025-01-11 13:57:43.81	300.54	7.67	
2025-01-11 13:57:44.01	300.57	7.67	
2025-01-11 13:57:44.22	300.61	7.66	
2025-01-11 13:57:44.42	300.65	7.66	
2025-01-11 13:57:44.63	300.69	7.65	
2025-01-11 13:57:44.83	300.72	7.65	
2025-01-11 13:57:45.03	300.76	7.64	
2025-01-11 13:57:45.24	300.80	7.64	
2025-01-11 13:57:45.44	300.83	7.63	
2025-01-11 13:57:45.65	300.87	7.63	
2025-01-11 13:57:45.85	300.91	7.63	
2025-01-11 13:57:46.06	300.94	7.62	
2025-01-11 13:57:46.26	300.98	7.62	
2025-01-11 13:57:46.47	301.02	7.61	
2025-01-11 13:57:46.67	301.05	7.61	
2025-01-11 13:57:46.88	301.09	7.60	
2025-01-11 13:57:47.08	301.13	7.60	
2025-01-11 13:57:47.29	301.17	7.59	
2025-01-11 13:57:47.49	301.20	7.59	
2025-01-11 13:57:47.70	301.24	7.58	
2025-01-11 13:57:47.90	301.27	7.58	
2025-01-11 13:57:48.11	301.31	7.57	
2025-01-11 13:57:48.31	301.35	7.57	
2025-01-11 13:57:48.51	301.38	7.56	
2025-01-11 13:57:48.72	301.42	7.56	
2025-01-11 13:57:48.92	301.46	7.55	
2025-01-11 13:57:49.13	301.50	7.55	
2025-01-11 13:57:49.34	301.53	7.55	
2025-01-11 13:57:49.54	301.57	7.54	
2025-01-11 13:57:49.75	301.61	7.54	
2025-01-11 13:57:49.95	301.64	7.53	
2025-01-11 13:57:50.16	301.68	7.53	
2025-01-11 13:57:50.36	301.72	7.52	
2025-01-11 13:57:50.57	301.75	7.52	
2025-01-11 13:57:50.77	301.79	7.51	
2025-01-11 13:57:50.98	301.83	7.51	
2025-01-11 13:57:51.18	301.86	7.50	
2025-01-11 13:57:51.39	301.90	7.50	
2025-01-11 13:57:51.59	301.94	7.49	
2025-01-11 13:57:51.80	301.97	7.49	
2025-01-11 13:57:52.00	302.01	7.48	
2025-01-11 13:57:52.20	302.04	7.48	
2025-01-11 13:57:52.41	302.08	7.47	
2025-01-11 13:57:52.61	302.12	7.47	
2025-01-11 13:57:52.83	302.16	7.46	
2025-01-11 13:57:53.04	302.19	7.46	
2025-01-11 13:57:53.24	302.23	7.45	
2025-01-11 13:57:53.45	302.27	7.45	
2025-01-11 13:57:53.65	302.30	7.44	
2025-01-11 13:57:53.86	302.34	7.44	
2025-01-11 13:57:54.06	302.38	7.43	
2025-01-11 13:57:54.27	302.41	7.43	
2025-01-11 13:57:54.47	302.45	7.42	
2025-01-11 13:57:54.68	302.49	7.42	
2025-01-11 13:57:54.88	302.52	7.41	
2025-01-11 13:57:55.09	302.56	7.41	
2025-01-11 13:57:55.29	302.59	7.40	
2025-01-11 13:57:55.50	302.63	7.40	
2025-01-11 13:57:55.70	302.67	7.39	
2025-01-11 13:57:55.91	302.70	7.39	
2025-01-11 13:57:56.11	302.74	7.38	
2025-01-11 13:57:56.32	302.78	7.38	
2025-01-11 13:57:56.52	302.81	7.37	
2025-01-11 13:57:56.73	302.85	7.37	
2025-01-11 13:57:56.93	302.88	7.36	
2025-01-11 13:57:57.14	302.92	7.36	
2025-01-11 13:57:57.34	302.96	7.35	
2025-01-11 13:57:57.55	302.99	7.35	
2025-01-11 13:57:57.75	303.03	7.34	
2025-01-11 13:57:57.95	303.06	7.34	
2025-01-11 13:57:58.16	303.10	7.33	
2025-01-11 13:57:58.36	303.14	7.33	
2025-01-11 13:57:58.57	303.17	7.32	
2025-01-11 13:57:58.77	303.21	7.32	
2025-01-11 13:57:58.98	303.25	7.31	
2025-01-11 13:57:59.18	303.28	7.31	
2025-01-11 13:57:59.39	303.32	7.30	
2025-01-11 13:57:59.59	303.35	7.30	
2025-01-11 13:57:59.80	303.39	7.29	
2025-01-11 13:58:00.00	303.43	7.29	
2025-01-11 13:58:00.21	303.46	7.28	
2025-01-11 13:58:00.41	303.50	7.28	
2025-01-11 13:58:00.62	303.53	7.27	
2025-01-11 13:58:00.82	303.57	7.26	
2025-01-11 13:58:01.03	303.61	7.26	
2025-01-11 13:58:01.23	303.64	7.25	
2025-01-11 13:58:01.44	303.68	7.25	
2025-01-11 13:58:01.64	303.71	7.24	
2025-01-11 13:58:01.84	303.75	7.24	
2025-01-11 13:58:02.05	303.78	7.23	
2025-01-11 13:58:02.25	303.82	7.23	
2025-01-11 13:58:02.46	303.86	7.22	
2025-01-11 13:58:02.66	303.89	7.22	
2025-01-11 13:58:02.87	303.93	7.21	
2025-01-11 13:58:03.07	303.96	7.21	
2025-01-11 13:58:03.28	304.00	7.20	
2025-01-11 13:58:03.48	304.03	7.20	
2025-01-11 13:58:03.69	304.07	7.19	
2025-01-11 13:58:03.89	304.11	7.19	
2025-01-11 13:58:04.10	304.14	7.18	
2025-01-11 13:58:04.30	304.18	7.17	
2025-01-11 13:58:04.51	304.21	7.17	
2025-01-11 13:58:04.71	304.25	7.16	
2025-01-11 13:58:04.92	304.29	7.16	
2025-01-11 13:58:05.12	304.32	7.15	
2025-01-11 13:58:05.33	304.36	7.15	
2025-01-11 13:58:05.53	304.39	7.14	
2025-01-11 13:58:05.74	304.43	7.14	
2025-01-11 13:58:05.94	304.46	7.13	
2025-01-11 13:58:06.15	304.50	7.13	
2025-01-11 13:58:06.35	304.53	7.12	
2025-01-11 13:58:06.56	304.57	7.12	
2025-01-11 13:58:06.76	304.61	7.11	
2025-01-11 13:58:06.97	304.64	7.10	
2025-01-11 13:58:07.17	304.68	7.10	
2025-01-11 13:58:07.38	304.71	7.09	
2025-01-11 13:58:07.58	304.75	7.09	
2025-01-11 13:58:07.79	304.78	7.08	
2025-01-11 13:58:07.99	304.82	7.08	
2025-01-11 13:58:08.20	304.86	7.07	
2025-01-11 13:58:08.40	304.89	7.07	
2025-01-11 13:58:08.61	304.93	7.06	
2025-01-11 13:58:08.81	304.96	7.05	
2025-01-11 13:58:09.02	305.00	7.05	
2025-01-11 13:58:09.22	305.03	7.04	
2025-01-11 13:58:09.43	305.07	7.04	
2025-01-11 13:58:09.63	305.10	7.03	
2025-01-11 13:58:09.83	305.14	7.03	
2025-01-11 13:58:10.04	305.17	7.02	
2025-01-11 13:58:10.25	305.21	7.02	
2025-01-11 13:58:10.45	305.24	7.01	
2025-01-11 13:58:10.66	305.28	7.00	
2025-01-11 13:58:10.86	305.31	7.00	
2025-01-11 13:58:11.07	305.35	6.99	
2025-01-11 13:58:11.27	305.38	6.99	
2025-01-11 13:58:11.48	305.42	6.98	
2025-01-11 13:58:11.68	305.46	6.98	
2025-01-11 13:58:11.89	305.49	6.97	
2025-01-11 13:58:12.09	305.53	6.97	
2025-01-11 13:58:12.30	305.56	6.96	
2025-01-11 13:58:12.50	305.60	6.95	
2025-01-11 13:58:12.71	305.63	6.95	
2025-01-11 13:58:12.92	305.67	6.94	
2025-01-11 13:58:13.12	305.70	6.94	
2025-01-11 13:58:13.33	305.74	6.93	
2025-01-11 13:58:13.53	305.77	6.93	
2025-01-11 13:58:13.74	305.81	6.92	
2025-01-11 13:58:13.95	305.84	6.91	
2025-01-11 13:58:14.15	305.88	6.91	
2025-01-11 13:58:14.35	305.91	6.90	
2025-01-11 13:58:14.56	305.95	6.90	
2025-01-11 13:58:14.76	305.98	6.89	
2025-01-11 13:58:14.97	306.02	6.89	
2025-01-11 13:58:15.17	306.05	6.88	
2025-01-11 13:58:15.38	306.09	6.87	
2025-01-11 13:58:15.59	306.12	6.87	
2025-01-11 13:58:15.79	306.16	6.86	
2025-01-11 13:58:16.00	306.19	6.86	
2025-01-11 13:58:16.20	306.23	6.85	
2025-01-11 13:58:16.40	306.26	6.84	
2025-01-11 13:58:16.61	306.30	6.84	
2025-01-11 13:58:16.82	306.33	6.83	
2025-01-11 13:58:17.02	306.37	6.83	
2025-01-11 13:58:17.23	306.40	6.82	
2025-01-11 13:58:17.43	306.44	6.82	
2025-01-11 13:58:17.64	306.47	6.81	
2025-01-11 13:58:17.84	306.51	6.80	
2025-01-11 13:58:18.05	306.54	6.80	
2025-01-11 13:58:18.25	306.58	6.79	
2025-01-11 13:58:18.46	306.61	6.79	
2025-01-11 13:58:18.66	306.65	6.78	
2025-01-11 13:58:18.87	306.68	6.77	
2025-01-11 13:58:19.07	306.72	6.77	
2025-01-11 13:58:19.28	306.75	6.76	
2025-01-11 13:58:19.48	306.79	6.76	
2025-01-11 13:58:19.69	306.82	6.75	
2025-01-11 13:58:19.89	306.85	6.75	
2025-01-11 13:58:20.10	306.89	6.74	
2025-01-11 13:58:20.30	306.92	6.73	
2025-01-11 13:58:20.52	306.96	6.73	
2025-01-11 13:58:20.73	307.00	6.72	
2025-01-11 13:58:20.93	307.03	6.72	
2025-01-11 13:58:21.14	307.07	6.71	
2025-01-11 13:58:21.34	307.10	6.70	
2025-01-11 13:58:21.55	307.13	6.70	
2025-01-11 13:58:21.75	307.17	6.69	
2025-01-11 13:58:21.96	307.20	6.69	
2025-01-11 13:58:22.16	307.24	6.68	
2025-01-11 13:58:22.37	307.27	6.67	
2025-01-11 13:58:22.57	307.31	6.67	
2025-01-11 13:58:22.79	307.34	6.66	
2025-01-11 13:58:23.00	307.38	6.65	
2025-01-11 13:58:23.20	307.41	6.65	
2025-01-11 13:58:23.41	307.45	6.64	
2025-01-11 13:58:23.62	307.48	6.64	
2025-01-11 13:58:23.82	307.52	6.63	
2025-01-11 13:58:24.03	307.55	6.62	
2025-01-11 13:58:24.23	307.58	6.62	
2025-01-11 13:58:24.44	307.62	6.61	
2025-01-11 13:58:24.64	307.65	6.61	
2025-01-11 13:58:24.85	307.69	6.60	
2025-01-11 13:58:25.05	307.72	6.59	
2025-01-11 13:58:25.26	307.76	6.59	
2025-01-11 13:58:25.46	307.79	6.58	
2025-01-11 13:58:25.67	307.83	6.58	
2025-01-11 13:58:25.87	307.86	6.57	
2025-01-11 13:58:26.08	307.89	6.56	
2025-01-11 13:58:26.28	307.93	6.56	
2025-01-11 13:58:26.49	307.96	6.55	
2025-01-11 13:58:26.69	308.00	6.55	
2025-01-11 13:58:26.90	308.03	6.54	
2025-01-11 13:58:27.10	308.06	6.53	
2025-01-11 13:58:27.31	308.10	6.53	
2025-01-11 13:58:27.51	308.13	6.52	
2025-01-11 13:58:27.72	308.17	6.51	
2025-01-11 13:58:27.92	308.20	6.51	
2025-01-11 13:58:28.13	308.23	6.50	
2025-01-11 13:58:28.33	308.27	6.50	
2025-01-11 13:58:28.54	308.30	6.49	
2025-01-11 13:58:28.74	308.34	6.48	
2025-01-11 13:58:28.95	308.37	6.48	
2025-01-11 13:58:29.15	308.40	6.47	
2025-01-11 13:58:29.36	308.44	6.46	
2025-01-11 13:58:29.56	308.47	6.46	
2025-01-11 13:58:29.77	308.51	6.45	
2025-01-11 13:58:29.97	308.54	6.45	
2025-01-11 13:58:30.18	308.57	6.44	
2025-01-11 13:58:30.39	308.61	6.43	
2025-01-11 13:58:30.59	308.64	6.43	
2025-01-11 13:58:30.80	308.68	6.42	
2025-01-11 13:58:31.00	308.71	6.41	
2025-01-11 13:58:31.21	308.74	6.41	
2025-01-11 13:58:31.41	308.78	6.40	
2025-01-11 13:58:31.62	308.81	6.40	
2025-01-11 13:58:31.82	308.84	6.39	
2025-01-11 13:58:32.03	308.88	6.38	
2025-01-11 13:58:32.23	308.91	6.38	
2025-01-11 13:58:32.44	308.95	6.37	
2025-01-11 13:58:32.64	308.98	6.36	
2025-01-11 13:58:32.85	309.01	6.36	
