passes_logs/2025/01/11/SPB_Silybum_02/SPB_Silybum_02__20250111_030841_SUOMI_NPP_rec.log

#Pass ID: 20250111_030841_SUOMI NPP
#Satellite: SUOMI NPP
#Configuration: NPP
#Start time: 2025-01-11 03:08:40

#Version: 2.0.20230423
#Station: SPB_Silybum_02
#Location: 30.233357 lon 59.946436 lat
#TLE: 1 37849U 11061A   25009.91542277  .00000197  00000+0  11407-3 0  9995
#TLE: 2 37849  98.7440 310.9686 0001842  48.7836 311.3498 14.19535939684207

#Time	Az	El	Level	Level2	SNR	BER	Gain	Gain2
2025-01-11 03:08:43.01	14.18	4.09	
2025-01-11 03:08:43.22	14.16	4.10	
2025-01-11 03:08:43.42	14.14	4.11	
2025-01-11 03:08:43.63	14.11	4.12	
2025-01-11 03:08:43.83	14.09	4.13	
2025-01-11 03:08:44.04	14.07	4.14	
2025-01-11 03:08:44.24	14.05	4.15	
2025-01-11 03:08:44.46	14.03	4.16	
2025-01-11 03:08:44.67	14.01	4.17	
2025-01-11 03:08:44.87	13.99	4.18	
2025-01-11 03:08:45.08	13.97	4.19	
2025-01-11 03:08:45.28	13.95	4.20	
2025-01-11 03:08:45.50	13.93	4.21	
2025-01-11 03:08:45.70	13.91	4.22	
2025-01-11 03:08:45.91	13.88	4.24	
2025-01-11 03:08:46.12	13.86	4.25	
2025-01-11 03:08:46.32	13.84	4.26	
2025-01-11 03:08:46.53	13.82	4.27	
2025-01-11 03:08:46.73	13.80	4.28	
2025-01-11 03:08:46.94	13.78	4.29	
2025-01-11 03:08:47.14	13.76	4.30	
2025-01-11 03:08:47.34	13.74	4.31	
2025-01-11 03:08:47.55	13.72	4.32	
2025-01-11 03:08:47.76	13.70	4.33	
2025-01-11 03:08:47.96	13.68	4.34	
2025-01-11 03:08:48.17	13.66	4.35	
2025-01-11 03:08:48.37	13.63	4.36	
2025-01-11 03:08:48.58	13.61	4.37	
2025-01-11 03:08:48.78	13.59	4.38	
2025-01-11 03:08:48.99	13.57	4.39	
2025-01-11 03:08:49.19	13.55	4.40	
2025-01-11 03:08:49.40	13.53	4.41	
2025-01-11 03:08:49.60	13.51	4.42	
2025-01-11 03:08:49.81	13.49	4.43	
2025-01-11 03:08:50.01	13.47	4.44	
2025-01-11 03:08:50.22	13.44	4.45	
2025-01-11 03:08:50.42	13.42	4.46	
2025-01-11 03:08:50.62	13.40	4.47	
2025-01-11 03:08:50.83	13.38	4.48	
2025-01-11 03:08:51.03	13.36	4.49	
2025-01-11 03:08:51.24	13.34	4.50	
2025-01-11 03:08:51.44	13.32	4.51	
2025-01-11 03:08:51.65	13.30	4.52	
2025-01-11 03:08:51.85	13.28	4.53	
2025-01-11 03:08:52.05	13.26	4.54	
2025-01-11 03:08:52.26	13.23	4.55	
2025-01-11 03:08:52.47	13.21	4.56	
2025-01-11 03:08:52.67	13.19	4.57	
2025-01-11 03:08:52.88	13.17	4.58	
2025-01-11 03:08:53.08	13.15	4.59	
2025-01-11 03:08:53.28	13.13	4.60	
2025-01-11 03:08:53.49	13.11	4.61	
2025-01-11 03:08:53.70	13.08	4.63	
2025-01-11 03:08:53.90	13.06	4.64	
2025-01-11 03:08:54.10	13.04	4.65	
2025-01-11 03:08:54.31	13.02	4.66	
2025-01-11 03:08:54.51	13.00	4.67	
2025-01-11 03:08:54.72	12.98	4.68	
2025-01-11 03:08:54.93	12.96	4.69	
2025-01-11 03:08:55.13	12.94	4.70	
2025-01-11 03:08:55.33	12.91	4.71	
2025-01-11 03:08:55.54	12.89	4.72	
2025-01-11 03:08:55.74	12.87	4.73	
2025-01-11 03:08:55.95	12.85	4.74	
2025-01-11 03:08:56.15	12.83	4.75	
2025-01-11 03:08:56.36	12.81	4.76	
2025-01-11 03:08:56.56	12.79	4.77	
2025-01-11 03:08:56.77	12.76	4.78	
2025-01-11 03:08:56.97	12.74	4.79	
2025-01-11 03:08:57.18	12.72	4.80	
2025-01-11 03:08:57.38	12.70	4.81	
2025-01-11 03:08:57.58	12.68	4.82	
2025-01-11 03:08:57.79	12.66	4.83	
2025-01-11 03:08:57.99	12.63	4.84	
2025-01-11 03:08:58.20	12.61	4.85	
2025-01-11 03:08:58.40	12.59	4.86	
2025-01-11 03:08:58.61	12.57	4.87	
2025-01-11 03:08:58.82	12.55	4.88	
2025-01-11 03:08:59.02	12.53	4.89	
2025-01-11 03:08:59.22	12.50	4.90	
2025-01-11 03:08:59.43	12.48	4.91	
2025-01-11 03:08:59.63	12.46	4.92	
2025-01-11 03:08:59.84	12.44	4.93	
2025-01-11 03:09:00.04	12.42	4.94	
2025-01-11 03:09:00.24	12.40	4.95	
2025-01-11 03:09:00.45	12.37	4.96	
2025-01-11 03:09:00.65	12.35	4.97	
2025-01-11 03:09:00.86	12.33	4.98	
2025-01-11 03:09:01.06	12.31	4.99	
2025-01-11 03:09:01.27	12.29	5.01	
2025-01-11 03:09:01.47	12.26	5.02	
2025-01-11 03:09:01.68	12.24	5.03	
2025-01-11 03:09:01.88	12.22	5.04	
2025-01-11 03:09:02.09	12.20	5.05	
2025-01-11 03:09:02.29	12.18	5.06	
2025-01-11 03:09:02.50	12.15	5.07	
2025-01-11 03:09:02.70	12.13	5.08	
2025-01-11 03:09:02.90	12.11	5.09	
2025-01-11 03:09:03.11	12.09	5.10	
2025-01-11 03:09:03.31	12.07	5.11	
2025-01-11 03:09:03.52	12.04	5.12	
2025-01-11 03:09:03.72	12.02	5.13	
2025-01-11 03:09:03.93	12.00	5.14	
2025-01-11 03:09:04.13	11.98	5.15	
2025-01-11 03:09:04.34	11.96	5.16	
2025-01-11 03:09:04.55	11.93	5.17	
2025-01-11 03:09:04.75	11.91	5.18	
2025-01-11 03:09:04.96	11.89	5.19	
2025-01-11 03:09:05.16	11.87	5.20	
2025-01-11 03:09:05.36	11.85	5.21	
2025-01-11 03:09:05.57	11.82	5.22	
2025-01-11 03:09:05.77	11.80	5.23	
2025-01-11 03:09:05.98	11.78	5.24	
2025-01-11 03:09:06.18	11.76	5.25	
2025-01-11 03:09:06.39	11.73	5.26	
2025-01-11 03:09:06.59	11.71	5.27	
2025-01-11 03:09:06.80	11.69	5.28	
2025-01-11 03:09:07.00	11.67	5.29	
2025-01-11 03:09:07.21	11.64	5.30	
2025-01-11 03:09:07.41	11.62	5.31	
2025-01-11 03:09:07.61	11.60	5.32	
2025-01-11 03:09:07.82	11.58	5.33	
2025-01-11 03:09:08.02	11.56	5.34	
2025-01-11 03:09:08.23	11.53	5.35	
2025-01-11 03:09:08.43	11.51	5.36	
2025-01-11 03:09:08.64	11.49	5.37	
2025-01-11 03:09:08.84	11.47	5.38	
2025-01-11 03:09:09.05	11.44	5.40	
2025-01-11 03:09:09.25	11.42	5.41	
2025-01-11 03:09:09.46	11.40	5.42	
2025-01-11 03:09:09.66	11.38	5.43	
2025-01-11 03:09:09.87	11.35	5.44	
2025-01-11 03:09:10.07	11.33	5.45	
2025-01-11 03:09:10.28	11.31	5.46	
2025-01-11 03:09:10.48	11.28	5.47	
2025-01-11 03:09:10.69	11.26	5.48	
2025-01-11 03:09:10.89	11.24	5.49	
2025-01-11 03:09:11.10	11.22	5.50	
2025-01-11 03:09:11.30	11.19	5.51	
2025-01-11 03:09:11.51	11.17	5.52	
2025-01-11 03:09:11.71	11.15	5.53	
2025-01-11 03:09:11.92	11.13	5.54	
2025-01-11 03:09:12.13	11.10	5.55	
2025-01-11 03:09:12.33	11.08	5.56	
2025-01-11 03:09:12.54	11.06	5.57	
2025-01-11 03:09:12.74	11.03	5.58	
2025-01-11 03:09:12.95	11.01	5.59	
2025-01-11 03:09:13.16	10.99	5.60	
2025-01-11 03:09:13.36	10.96	5.61	
2025-01-11 03:09:13.57	10.94	5.62	
2025-01-11 03:09:13.77	10.92	5.63	
2025-01-11 03:09:13.98	10.90	5.64	
2025-01-11 03:09:14.18	10.87	5.65	
2025-01-11 03:09:14.39	10.85	5.66	
2025-01-11 03:09:14.59	10.83	5.67	
2025-01-11 03:09:14.79	10.80	5.68	
2025-01-11 03:09:15.00	10.78	5.69	
2025-01-11 03:09:15.20	10.76	5.70	
2025-01-11 03:09:15.41	10.73	5.71	
2025-01-11 03:09:15.61	10.71	5.72	
2025-01-11 03:09:15.82	10.69	5.73	
2025-01-11 03:09:16.02	10.67	5.74	
2025-01-11 03:09:16.23	10.64	5.76	
2025-01-11 03:09:16.43	10.62	5.77	
2025-01-11 03:09:16.64	10.60	5.78	
2025-01-11 03:09:16.84	10.57	5.79	
2025-01-11 03:09:17.05	10.55	5.80	
2025-01-11 03:09:17.25	10.53	5.81	
2025-01-11 03:09:17.46	10.50	5.82	
2025-01-11 03:09:17.66	10.48	5.83	
2025-01-11 03:09:17.87	10.46	5.84	
2025-01-11 03:09:18.07	10.43	5.85	
2025-01-11 03:09:18.28	10.41	5.86	
2025-01-11 03:09:18.48	10.39	5.87	
2025-01-11 03:09:18.69	10.36	5.88	
2025-01-11 03:09:18.89	10.34	5.89	
2025-01-11 03:09:19.10	10.32	5.90	
2025-01-11 03:09:19.30	10.29	5.91	
2025-01-11 03:09:19.51	10.27	5.92	
2025-01-11 03:09:19.71	10.25	5.93	
2025-01-11 03:09:19.92	10.22	5.94	
2025-01-11 03:09:20.12	10.20	5.95	
2025-01-11 03:09:20.33	10.18	5.96	
2025-01-11 03:09:20.53	10.15	5.97	
2025-01-11 03:09:20.74	10.13	5.98	
2025-01-11 03:09:20.94	10.11	5.99	
2025-01-11 03:09:21.15	10.08	6.00	
2025-01-11 03:09:21.35	10.06	6.01	
2025-01-11 03:09:21.56	10.04	6.02	
2025-01-11 03:09:21.76	10.01	6.03	
2025-01-11 03:09:21.97	9.99	6.04	
2025-01-11 03:09:22.17	9.97	6.05	
2025-01-11 03:09:22.38	9.94	6.06	
2025-01-11 03:09:22.58	9.92	6.07	
2025-01-11 03:09:22.79	9.89	6.08	
2025-01-11 03:09:22.99	9.87	6.09	
2025-01-11 03:09:23.20	9.85	6.10	
2025-01-11 03:09:23.40	9.82	6.11	
2025-01-11 03:09:23.61	9.80	6.12	
2025-01-11 03:09:23.81	9.78	6.13	
2025-01-11 03:09:24.02	9.75	6.15	
2025-01-11 03:09:24.22	9.73	6.16	
2025-01-11 03:09:24.43	9.70	6.17	
2025-01-11 03:09:24.63	9.68	6.18	
2025-01-11 03:09:24.84	9.66	6.19	
2025-01-11 03:09:25.04	9.63	6.20	
2025-01-11 03:09:25.25	9.61	6.21	
2025-01-11 03:09:25.45	9.59	6.22	
2025-01-11 03:09:25.66	9.56	6.23	
2025-01-11 03:09:25.86	9.54	6.24	
2025-01-11 03:09:26.07	9.51	6.25	
2025-01-11 03:09:26.27	9.49	6.26	
2025-01-11 03:09:26.48	9.47	6.27	
2025-01-11 03:09:26.68	9.44	6.28	
2025-01-11 03:09:26.89	9.42	6.29	
2025-01-11 03:09:27.09	9.39	6.30	
2025-01-11 03:09:27.30	9.37	6.31	
2025-01-11 03:09:27.50	9.35	6.32	
2025-01-11 03:09:27.71	9.32	6.33	
2025-01-11 03:09:27.91	9.30	6.34	
2025-01-11 03:09:28.12	9.27	6.35	
2025-01-11 03:09:28.32	9.25	6.36	
2025-01-11 03:09:28.52	9.23	6.37	
2025-01-11 03:09:28.73	9.20	6.38	
2025-01-11 03:09:28.94	9.18	6.39	
2025-01-11 03:09:29.14	9.15	6.40	
2025-01-11 03:09:29.36	9.13	6.41	
2025-01-11 03:09:29.57	9.10	6.42	
2025-01-11 03:09:29.77	9.08	6.43	
2025-01-11 03:09:29.98	9.05	6.44	
2025-01-11 03:09:30.18	9.03	6.45	
2025-01-11 03:09:30.39	9.00	6.46	
2025-01-11 03:09:30.60	8.98	6.47	
2025-01-11 03:09:30.81	8.95	6.48	
2025-01-11 03:09:31.01	8.93	6.49	
2025-01-11 03:09:31.22	8.91	6.50	
2025-01-11 03:09:31.42	8.88	6.51	
2025-01-11 03:09:31.62	8.86	6.52	
2025-01-11 03:09:31.83	8.83	6.53	
2025-01-11 03:09:32.03	8.81	6.54	
2025-01-11 03:09:32.24	8.78	6.56	
2025-01-11 03:09:32.45	8.76	6.57	
2025-01-11 03:09:32.66	8.73	6.58	
2025-01-11 03:09:32.87	8.71	6.59	
2025-01-11 03:09:33.07	8.69	6.60	
2025-01-11 03:09:33.28	8.66	6.61	
2025-01-11 03:09:33.48	8.64	6.62	
2025-01-11 03:09:33.69	8.61	6.63	
2025-01-11 03:09:33.89	8.59	6.64	
2025-01-11 03:09:34.10	8.56	6.65	
2025-01-11 03:09:34.30	8.54	6.66	
2025-01-11 03:09:34.50	8.51	6.67	
2025-01-11 03:09:34.71	8.49	6.68	
2025-01-11 03:09:34.91	8.46	6.69	
2025-01-11 03:09:35.12	8.44	6.70	
2025-01-11 03:09:35.33	8.41	6.71	
2025-01-11 03:09:35.53	8.39	6.72	
2025-01-11 03:09:35.73	8.37	6.73	
2025-01-11 03:09:35.94	8.34	6.74	
2025-01-11 03:09:36.15	8.31	6.75	
2025-01-11 03:09:36.35	8.29	6.76	
2025-01-11 03:09:36.56	8.27	6.77	
2025-01-11 03:09:36.76	8.24	6.78	
2025-01-11 03:09:36.97	8.22	6.79	
2025-01-11 03:09:37.17	8.19	6.80	
2025-01-11 03:09:37.38	8.17	6.81	
2025-01-11 03:09:37.58	8.14	6.82	
2025-01-11 03:09:37.79	8.12	6.83	
2025-01-11 03:09:37.99	8.09	6.84	
2025-01-11 03:09:38.20	8.07	6.85	
2025-01-11 03:09:38.40	8.04	6.86	
2025-01-11 03:09:38.61	8.02	6.87	
2025-01-11 03:09:38.81	7.99	6.88	
2025-01-11 03:09:39.02	7.97	6.89	
2025-01-11 03:09:39.22	7.94	6.90	
2025-01-11 03:09:39.43	7.92	6.91	
2025-01-11 03:09:39.63	7.89	6.92	
2025-01-11 03:09:39.84	7.87	6.93	
2025-01-11 03:09:40.04	7.84	6.94	
2025-01-11 03:09:40.25	7.82	6.95	
2025-01-11 03:09:40.45	7.79	6.96	
2025-01-11 03:09:40.66	7.76	6.97	
2025-01-11 03:09:40.86	7.74	6.98	
2025-01-11 03:09:41.08	7.71	7.00	
2025-01-11 03:09:41.29	7.69	7.01	
2025-01-11 03:09:41.49	7.66	7.02	
2025-01-11 03:09:41.70	7.64	7.03	
2025-01-11 03:09:41.90	7.61	7.04	
2025-01-11 03:09:42.11	7.59	7.05	
2025-01-11 03:09:42.31	7.56	7.06	
2025-01-11 03:09:42.52	7.54	7.07	
2025-01-11 03:09:42.72	7.51	7.08	
2025-01-11 03:09:42.93	7.48	7.09	
2025-01-11 03:09:43.14	7.46	7.10	
2025-01-11 03:09:43.35	7.43	7.11	
2025-01-11 03:09:43.55	7.41	7.12	
2025-01-11 03:09:43.76	7.38	7.13	
2025-01-11 03:09:43.97	7.36	7.14	
2025-01-11 03:09:44.17	7.33	7.15	
2025-01-11 03:09:44.37	7.31	7.16	
2025-01-11 03:09:44.58	7.28	7.17	
2025-01-11 03:09:44.78	7.25	7.18	
2025-01-11 03:09:44.99	7.23	7.19	
2025-01-11 03:09:45.19	7.20	7.20	
2025-01-11 03:09:45.40	7.18	7.21	
2025-01-11 03:09:45.60	7.15	7.22	
2025-01-11 03:09:45.81	7.13	7.23	
2025-01-11 03:09:46.01	7.10	7.24	
2025-01-11 03:09:46.22	7.07	7.25	
2025-01-11 03:09:46.42	7.05	7.26	
2025-01-11 03:09:46.63	7.02	7.27	
2025-01-11 03:09:46.83	7.00	7.28	
2025-01-11 03:09:47.04	6.97	7.29	
2025-01-11 03:09:47.25	6.95	7.30	
2025-01-11 03:09:47.45	6.92	7.31	
2025-01-11 03:09:47.66	6.89	7.32	
2025-01-11 03:09:47.86	6.87	7.33	
2025-01-11 03:09:48.07	6.84	7.34	
2025-01-11 03:09:48.27	6.82	7.35	
2025-01-11 03:09:48.47	6.79	7.36	
2025-01-11 03:09:48.68	6.76	7.37	
2025-01-11 03:09:48.88	6.74	7.38	
2025-01-11 03:09:49.09	6.71	7.39	
2025-01-11 03:09:49.29	6.69	7.40	
2025-01-11 03:09:49.50	6.66	7.41	
2025-01-11 03:09:49.71	6.63	7.42	
2025-01-11 03:09:49.92	6.61	7.43	
2025-01-11 03:09:50.13	6.58	7.44	
2025-01-11 03:09:50.33	6.56	7.45	
2025-01-11 03:09:50.54	6.53	7.46	
2025-01-11 03:09:50.74	6.50	7.47	
2025-01-11 03:09:50.95	6.48	7.48	
2025-01-11 03:09:51.15	6.45	7.49	
2025-01-11 03:09:51.36	6.42	7.50	
2025-01-11 03:09:51.56	6.40	7.51	
2025-01-11 03:09:51.78	6.37	7.52	
2025-01-11 03:09:51.99	6.34	7.53	
2025-01-11 03:09:52.19	6.32	7.54	
2025-01-11 03:09:52.40	6.29	7.55	
2025-01-11 03:09:52.60	6.27	7.56	
2025-01-11 03:09:52.80	6.24	7.57	
2025-01-11 03:09:53.01	6.21	7.58	
2025-01-11 03:09:53.21	6.19	7.59	
2025-01-11 03:09:53.42	6.16	7.60	
2025-01-11 03:09:53.62	6.13	7.61	
2025-01-11 03:09:53.83	6.11	7.63	
2025-01-11 03:09:54.03	6.08	7.63	
2025-01-11 03:09:54.24	6.06	7.65	
2025-01-11 03:09:54.45	6.03	7.66	
2025-01-11 03:09:54.65	6.00	7.67	
2025-01-11 03:09:54.85	5.98	7.68	
2025-01-11 03:09:55.06	5.95	7.69	
2025-01-11 03:09:55.26	5.92	7.70	
2025-01-11 03:09:55.47	5.90	7.71	
2025-01-11 03:09:55.67	5.87	7.72	
2025-01-11 03:09:55.88	5.84	7.73	
2025-01-11 03:09:56.08	5.82	7.74	
2025-01-11 03:09:56.29	5.79	7.75	
2025-01-11 03:09:56.49	5.76	7.76	
2025-01-11 03:09:56.70	5.74	7.77	
2025-01-11 03:09:56.90	5.71	7.78	
2025-01-11 03:09:57.11	5.68	7.79	
2025-01-11 03:09:57.31	5.66	7.80	
2025-01-11 03:09:57.51	5.63	7.81	
2025-01-11 03:09:57.72	5.60	7.82	
2025-01-11 03:09:57.93	5.58	7.83	
2025-01-11 03:09:58.14	5.55	7.84	
2025-01-11 03:09:58.35	5.52	7.85	
2025-01-11 03:09:58.55	5.50	7.86	
2025-01-11 03:09:58.76	5.47	7.87	
2025-01-11 03:09:58.97	5.44	7.88	
2025-01-11 03:09:59.18	5.41	7.89	
2025-01-11 03:09:59.39	5.39	7.90	
2025-01-11 03:09:59.59	5.36	7.91	
2025-01-11 03:09:59.79	5.33	7.92	
2025-01-11 03:10:00.00	5.31	7.93	
2025-01-11 03:10:00.22	5.28	7.94	
2025-01-11 03:10:00.42	5.25	7.95	
2025-01-11 03:10:00.63	5.22	7.96	
2025-01-11 03:10:00.83	5.20	7.97	
2025-01-11 03:10:01.04	5.17	7.98	
2025-01-11 03:10:01.24	5.14	7.99	
2025-01-11 03:10:01.45	5.11	8.00	
2025-01-11 03:10:01.65	5.09	8.01	
2025-01-11 03:10:01.86	5.06	8.02	
2025-01-11 03:10:02.06	5.03	8.03	
2025-01-11 03:10:02.27	5.01	8.04	
2025-01-11 03:10:02.47	4.98	8.05	
2025-01-11 03:10:02.68	4.95	8.06	
2025-01-11 03:10:02.88	4.92	8.07	
2025-01-11 03:10:03.09	4.90	8.08	
2025-01-11 03:10:03.29	4.87	8.09	
2025-01-11 03:10:03.51	4.84	8.10	
2025-01-11 03:10:03.72	4.81	8.11	
2025-01-11 03:10:03.92	4.79	8.12	
2025-01-11 03:10:04.13	4.76	8.13	
2025-01-11 03:10:04.33	4.73	8.14	
2025-01-11 03:10:04.53	4.70	8.15	
2025-01-11 03:10:04.74	4.68	8.16	
2025-01-11 03:10:04.94	4.65	8.17	
2025-01-11 03:10:05.15	4.62	8.18	
2025-01-11 03:10:05.35	4.60	8.19	
2025-01-11 03:10:05.57	4.57	8.20	
2025-01-11 03:10:05.77	4.54	8.21	
2025-01-11 03:10:05.98	4.51	8.22	
2025-01-11 03:10:06.18	4.48	8.23	
2025-01-11 03:10:06.39	4.46	8.24	
2025-01-11 03:10:06.59	4.43	8.25	
2025-01-11 03:10:06.79	4.40	8.26	
2025-01-11 03:10:07.00	4.37	8.27	
2025-01-11 03:10:07.22	4.34	8.28	
2025-01-11 03:10:07.42	4.32	8.29	
2025-01-11 03:10:07.62	4.29	8.30	
2025-01-11 03:10:07.83	4.26	8.31	
2025-01-11 03:10:08.04	4.23	8.32	
2025-01-11 03:10:08.24	4.21	8.33	
2025-01-11 03:10:08.45	4.18	8.34	
2025-01-11 03:10:08.65	4.15	8.35	
2025-01-11 03:10:08.85	4.12	8.36	
2025-01-11 03:10:09.06	4.10	8.37	
2025-01-11 03:10:09.26	4.07	8.38	
2025-01-11 03:10:09.47	4.04	8.39	
2025-01-11 03:10:09.67	4.01	8.40	
2025-01-11 03:10:09.88	3.98	8.41	
2025-01-11 03:10:10.08	3.96	8.42	
2025-01-11 03:10:10.29	3.93	8.43	
2025-01-11 03:10:10.49	3.90	8.44	
2025-01-11 03:10:10.70	3.87	8.45	
2025-01-11 03:10:10.90	3.84	8.46	
2025-01-11 03:10:11.11	3.82	8.47	
2025-01-11 03:10:11.31	3.79	8.48	
2025-01-11 03:10:11.52	3.76	8.49	
2025-01-11 03:10:11.72	3.73	8.50	
2025-01-11 03:10:11.93	3.70	8.51	
2025-01-11 03:10:12.13	3.68	8.52	
2025-01-11 03:10:12.34	3.65	8.53	
2025-01-11 03:10:12.55	3.62	8.54	
2025-01-11 03:10:12.75	3.59	8.55	
2025-01-11 03:10:12.95	3.56	8.56	
2025-01-11 03:10:13.16	3.54	8.57	
2025-01-11 03:10:13.37	3.51	8.58	
2025-01-11 03:10:13.57	3.48	8.59	
2025-01-11 03:10:13.78	3.45	8.60	
2025-01-11 03:10:13.98	3.42	8.61	
2025-01-11 03:10:14.19	3.39	8.62	
2025-01-11 03:10:14.39	3.37	8.63	
2025-01-11 03:10:14.60	3.34	8.64	
2025-01-11 03:10:14.81	3.31	8.65	
2025-01-11 03:10:15.01	3.28	8.65	
2025-01-11 03:10:15.21	3.25	8.66	
2025-01-11 03:10:15.42	3.22	8.67	
2025-01-11 03:10:15.63	3.19	8.68	
2025-01-11 03:10:15.83	3.17	8.69	
2025-01-11 03:10:16.04	3.14	8.70	
2025-01-11 03:10:16.24	3.11	8.71	
2025-01-11 03:10:16.45	3.08	8.72	
2025-01-11 03:10:16.65	3.05	8.73	
2025-01-11 03:10:16.86	3.02	8.74	
2025-01-11 03:10:17.06	3.00	8.75	
2025-01-11 03:10:17.27	2.97	8.76	
2025-01-11 03:10:17.47	2.94	8.77	
2025-01-11 03:10:17.68	2.91	8.78	
2025-01-11 03:10:17.88	2.88	8.79	
2025-01-11 03:10:18.09	2.85	8.80	
2025-01-11 03:10:18.29	2.82	8.81	
2025-01-11 03:10:18.49	2.80	8.82	
2025-01-11 03:10:18.70	2.77	8.83	
2025-01-11 03:10:18.90	2.74	8.84	
2025-01-11 03:10:19.11	2.71	8.85	
2025-01-11 03:10:19.31	2.68	8.86	
2025-01-11 03:10:19.53	2.65	8.87	
2025-01-11 03:10:19.73	2.62	8.88	
2025-01-11 03:10:19.94	2.59	8.89	
2025-01-11 03:10:20.15	2.56	8.90	
2025-01-11 03:10:20.35	2.53	8.91	
2025-01-11 03:10:20.55	2.51	8.92	
2025-01-11 03:10:20.76	2.48	8.93	
2025-01-11 03:10:20.96	2.45	8.94	
2025-01-11 03:10:21.17	2.42	8.95	
2025-01-11 03:10:21.37	2.39	8.96	
2025-01-11 03:10:21.57	2.36	8.97	
2025-01-11 03:10:21.78	2.33	8.98	
2025-01-11 03:10:21.99	2.30	8.99	
2025-01-11 03:10:22.19	2.27	9.00	
2025-01-11 03:10:22.40	2.24	9.01	
2025-01-11 03:10:22.60	2.22	9.02	
2025-01-11 03:10:22.81	2.19	9.03	
2025-01-11 03:10:23.01	2.16	9.04	
2025-01-11 03:10:23.22	2.13	9.05	
2025-01-11 03:10:23.42	2.10	9.06	
2025-01-11 03:10:23.63	2.07	9.07	
2025-01-11 03:10:23.83	2.04	9.08	
2025-01-11 03:10:24.04	2.01	9.09	
2025-01-11 03:10:24.24	1.98	9.09	
2025-01-11 03:10:24.45	1.95	9.10	
2025-01-11 03:10:24.65	1.92	9.11	
2025-01-11 03:10:24.86	1.89	9.12	
2025-01-11 03:10:25.06	1.87	9.13	
2025-01-11 03:10:25.27	1.84	9.14	
2025-01-11 03:10:25.47	1.81	9.15	
2025-01-11 03:10:25.68	1.78	9.16	
2025-01-11 03:10:25.88	1.75	9.17	
2025-01-11 03:10:26.09	1.72	9.18	
2025-01-11 03:10:26.29	1.69	9.19	
2025-01-11 03:10:26.50	1.66	9.20	
2025-01-11 03:10:26.70	1.63	9.21	
2025-01-11 03:10:26.91	1.60	9.22	
2025-01-11 03:10:27.11	1.57	9.23	
2025-01-11 03:10:27.32	1.54	9.24	
2025-01-11 03:10:27.52	1.51	9.25	
2025-01-11 03:10:27.73	1.48	9.26	
2025-01-11 03:10:27.94	1.45	9.27	
2025-01-11 03:10:28.15	1.42	9.28	
2025-01-11 03:10:28.36	1.39	9.29	
2025-01-11 03:10:28.56	1.36	9.30	
2025-01-11 03:10:28.77	1.33	9.31	
2025-01-11 03:10:28.97	1.30	9.32	
2025-01-11 03:10:29.18	1.27	9.33	
2025-01-11 03:10:29.38	1.24	9.34	
2025-01-11 03:10:29.59	1.21	9.35	
2025-01-11 03:10:29.79	1.18	9.36	
2025-01-11 03:10:30.00	1.15	9.37	
2025-01-11 03:10:30.20	1.12	9.38	
2025-01-11 03:10:30.41	1.09	9.39	
2025-01-11 03:10:30.61	1.06	9.39	
2025-01-11 03:10:30.82	1.03	9.40	
2025-01-11 03:10:31.02	1.00	9.41	
2025-01-11 03:10:31.23	0.97	9.42	
2025-01-11 03:10:31.44	0.94	9.43	
2025-01-11 03:10:31.65	0.91	9.44	
2025-01-11 03:10:31.85	0.88	9.45	
2025-01-11 03:10:32.06	0.85	9.46	
2025-01-11 03:10:32.26	0.82	9.47	
2025-01-11 03:10:32.47	0.79	9.48	
2025-01-11 03:10:32.67	0.76	9.49	
2025-01-11 03:10:32.88	0.73	9.50	
2025-01-11 03:10:33.08	0.70	9.51	
2025-01-11 03:10:33.30	0.67	9.52	
2025-01-11 03:10:33.50	0.64	9.53	
2025-01-11 03:10:33.71	0.61	9.54	
2025-01-11 03:10:33.91	0.58	9.55	
2025-01-11 03:10:34.12	0.55	9.56	
2025-01-11 03:10:34.32	0.52	9.57	
2025-01-11 03:10:34.53	0.49	9.58	
2025-01-11 03:10:34.73	0.46	9.59	
2025-01-11 03:10:34.94	0.43	9.60	
2025-01-11 03:10:35.14	0.40	9.61	
2025-01-11 03:10:35.35	0.37	9.62	
2025-01-11 03:10:35.55	0.34	9.62	
2025-01-11 03:10:35.76	0.31	9.63	
2025-01-11 03:10:35.96	0.28	9.64	
2025-01-11 03:10:36.17	0.25	9.65	
2025-01-11 03:10:36.37	0.22	9.66	
2025-01-11 03:10:36.58	0.19	9.67	
2025-01-11 03:10:36.78	0.16	9.68	
2025-01-11 03:10:36.99	0.12	9.69	
2025-01-11 03:10:37.19	0.09	9.70	
2025-01-11 03:10:37.40	0.06	9.71	
2025-01-11 03:10:37.60	0.03	9.72	
2025-01-11 03:10:37.81	0.00	9.73	
2025-01-11 03:10:38.01	359.97	9.74	
2025-01-11 03:10:38.22	359.94	9.75	
2025-01-11 03:10:38.42	359.91	9.76	
2025-01-11 03:10:38.63	359.88	9.77	
2025-01-11 03:10:38.83	359.85	9.78	
2025-01-11 03:10:39.04	359.82	9.79	
2025-01-11 03:10:39.24	359.79	9.79	
2025-01-11 03:10:39.45	359.76	9.80	
2025-01-11 03:10:39.65	359.73	9.81	
2025-01-11 03:10:39.86	359.70	9.82	
2025-01-11 03:10:40.07	359.66	9.83	
2025-01-11 03:10:40.27	359.63	9.84	
2025-01-11 03:10:40.48	359.60	9.85	
2025-01-11 03:10:40.68	359.57	9.86	
2025-01-11 03:10:40.88	359.54	9.87	
2025-01-11 03:10:41.09	359.51	9.88	
2025-01-11 03:10:41.29	359.48	9.89	
2025-01-11 03:10:41.50	359.45	9.90	
2025-01-11 03:10:41.70	359.42	9.91	
2025-01-11 03:10:41.91	359.39	9.92	
2025-01-11 03:10:42.11	359.36	9.93	
2025-01-11 03:10:42.32	359.32	9.94	
2025-01-11 03:10:42.52	359.29	9.94	
2025-01-11 03:10:42.73	359.26	9.95	
2025-01-11 03:10:42.93	359.23	9.96	
2025-01-11 03:10:43.14	359.20	9.97	
2025-01-11 03:10:43.34	359.17	9.98	
2025-01-11 03:10:43.55	359.14	9.99	
2025-01-11 03:10:43.76	359.11	10.00	
2025-01-11 03:10:43.96	359.08	10.01	
2025-01-11 03:10:44.17	359.04	10.02	
2025-01-11 03:10:44.37	359.01	10.03	
2025-01-11 03:10:44.58	358.98	10.04	
2025-01-11 03:10:44.78	358.95	10.05	
2025-01-11 03:10:44.98	358.92	10.06	
2025-01-11 03:10:45.19	358.89	10.07	
2025-01-11 03:10:45.39	358.86	10.07	
2025-01-11 03:10:45.60	358.83	10.08	
2025-01-11 03:10:45.80	358.79	10.09	
2025-01-11 03:10:46.01	358.76	10.10	
2025-01-11 03:10:46.21	358.73	10.11	
2025-01-11 03:10:46.42	358.70	10.12	
2025-01-11 03:10:46.63	358.67	10.13	
2025-01-11 03:10:46.83	358.64	10.14	
2025-01-11 03:10:47.04	358.60	10.15	
2025-01-11 03:10:47.24	358.57	10.16	
2025-01-11 03:10:47.45	358.54	10.17	
2025-01-11 03:10:47.65	358.51	10.18	
2025-01-11 03:10:47.86	358.48	10.19	
2025-01-11 03:10:48.06	358.45	10.20	
2025-01-11 03:10:48.28	358.41	10.21	
2025-01-11 03:10:48.48	358.38	10.21	
2025-01-11 03:10:48.69	358.35	10.22	
2025-01-11 03:10:48.90	358.32	10.23	
2025-01-11 03:10:49.10	358.29	10.24	
2025-01-11 03:10:49.32	358.25	10.25	
2025-01-11 03:10:49.52	358.22	10.26	
2025-01-11 03:10:49.73	358.19	10.27	
2025-01-11 03:10:49.93	358.16	10.28	
2025-01-11 03:10:50.14	358.13	10.29	
2025-01-11 03:10:50.34	358.09	10.30	
2025-01-11 03:10:50.55	358.06	10.31	
2025-01-11 03:10:50.75	358.03	10.32	
2025-01-11 03:10:50.96	358.00	10.32	
2025-01-11 03:10:51.17	357.97	10.33	
2025-01-11 03:10:51.37	357.93	10.34	
2025-01-11 03:10:51.58	357.90	10.35	
2025-01-11 03:10:51.78	357.87	10.36	
2025-01-11 03:10:51.99	357.84	10.37	
2025-01-11 03:10:52.19	357.81	10.38	
2025-01-11 03:10:52.39	357.78	10.39	
2025-01-11 03:10:52.60	357.74	10.40	
2025-01-11 03:10:52.81	357.71	10.41	
2025-01-11 03:10:53.01	357.68	10.42	
2025-01-11 03:10:53.22	357.65	10.43	
2025-01-11 03:10:53.42	357.61	10.43	
2025-01-11 03:10:53.64	357.58	10.44	
2025-01-11 03:10:53.84	357.55	10.45	
2025-01-11 03:10:54.05	357.52	10.46	
2025-01-11 03:10:54.25	357.48	10.47	
2025-01-11 03:10:54.46	357.45	10.48	
2025-01-11 03:10:54.68	357.42	10.49	
2025-01-11 03:10:54.88	357.38	10.50	
2025-01-11 03:10:55.09	357.35	10.51	
2025-01-11 03:10:55.29	357.32	10.52	
2025-01-11 03:10:55.50	357.29	10.53	
2025-01-11 03:10:55.70	357.26	10.53	
2025-01-11 03:10:55.91	357.22	10.54	
2025-01-11 03:10:56.11	357.19	10.55	
2025-01-11 03:10:56.32	357.16	10.56	
2025-01-11 03:10:56.52	357.13	10.57	
2025-01-11 03:10:56.72	357.09	10.58	
2025-01-11 03:10:56.93	357.06	10.59	
2025-01-11 03:10:57.13	357.03	10.60	
2025-01-11 03:10:57.34	357.00	10.61	
2025-01-11 03:10:57.54	356.96	10.62	
2025-01-11 03:10:57.75	356.93	10.62	
2025-01-11 03:10:57.96	356.90	10.63	
2025-01-11 03:10:58.16	356.87	10.64	
2025-01-11 03:10:58.37	356.83	10.65	
2025-01-11 03:10:58.57	356.80	10.66	
2025-01-11 03:10:58.78	356.77	10.67	
2025-01-11 03:10:58.98	356.74	10.68	
2025-01-11 03:10:59.19	356.70	10.69	
2025-01-11 03:10:59.39	356.67	10.70	
2025-01-11 03:10:59.60	356.64	10.71	
2025-01-11 03:10:59.80	356.60	10.71	
2025-01-11 03:11:00.01	356.57	10.72	
2025-01-11 03:11:00.21	356.54	10.73	
2025-01-11 03:11:00.42	356.51	10.74	
2025-01-11 03:11:00.62	356.47	10.75	
2025-01-11 03:11:00.83	356.44	10.76	
2025-01-11 03:11:01.03	356.41	10.77	
2025-01-11 03:11:01.24	356.37	10.78	
2025-01-11 03:11:01.44	356.34	10.79	
2025-01-11 03:11:01.65	356.31	10.79	
2025-01-11 03:11:01.85	356.28	10.80	
2025-01-11 03:11:02.07	356.24	10.81	
2025-01-11 03:11:02.27	356.21	10.82	
2025-01-11 03:11:02.48	356.17	10.83	
2025-01-11 03:11:02.68	356.14	10.84	
2025-01-11 03:11:02.89	356.11	10.85	
2025-01-11 03:11:03.11	356.07	10.86	
2025-01-11 03:11:03.31	356.04	10.87	
2025-01-11 03:11:03.52	356.01	10.87	
2025-01-11 03:11:03.72	355.97	10.88	
2025-01-11 03:11:03.92	355.94	10.89	
2025-01-11 03:11:04.13	355.91	10.90	
2025-01-11 03:11:04.33	355.88	10.91	
2025-01-11 03:11:04.53	355.84	10.92	
2025-01-11 03:11:04.74	355.81	10.93	
2025-01-11 03:11:04.95	355.77	10.94	
2025-01-11 03:11:05.15	355.74	10.94	
2025-01-11 03:11:05.36	355.71	10.95	
2025-01-11 03:11:05.56	355.68	10.96	
2025-01-11 03:11:05.77	355.64	10.97	
2025-01-11 03:11:05.97	355.61	10.98	
2025-01-11 03:11:06.18	355.57	10.99	
2025-01-11 03:11:06.38	355.54	11.00	
2025-01-11 03:11:06.59	355.51	11.01	
2025-01-11 03:11:06.79	355.48	11.01	
2025-01-11 03:11:07.00	355.44	11.02	
2025-01-11 03:11:07.20	355.41	11.03	
2025-01-11 03:11:07.40	355.38	11.04	
2025-01-11 03:11:07.61	355.34	11.05	
2025-01-11 03:11:07.81	355.31	11.06	
2025-01-11 03:11:08.02	355.27	11.07	
2025-01-11 03:11:08.22	355.24	11.07	
2025-01-11 03:11:08.43	355.21	11.08	
2025-01-11 03:11:08.63	355.17	11.09	
2025-01-11 03:11:08.84	355.14	11.10	
2025-01-11 03:11:09.04	355.11	11.11	
2025-01-11 03:11:09.25	355.07	11.12	
2025-01-11 03:11:09.45	355.04	11.13	
2025-01-11 03:11:09.66	355.00	11.13	
2025-01-11 03:11:09.86	354.97	11.14	
2025-01-11 03:11:10.07	354.94	11.15	
2025-01-11 03:11:10.27	354.90	11.16	
2025-01-11 03:11:10.48	354.87	11.17	
2025-01-11 03:11:10.68	354.84	11.18	
2025-01-11 03:11:10.89	354.80	11.19	
2025-01-11 03:11:11.09	354.77	11.19	
2025-01-11 03:11:11.30	354.73	11.20	
2025-01-11 03:11:11.51	354.70	11.21	
2025-01-11 03:11:11.71	354.67	11.22	
2025-01-11 03:11:11.92	354.63	11.23	
2025-01-11 03:11:12.12	354.60	11.24	
2025-01-11 03:11:12.32	354.57	11.25	
2025-01-11 03:11:12.53	354.53	11.25	
2025-01-11 03:11:12.74	354.50	11.26	
2025-01-11 03:11:12.94	354.46	11.27	
2025-01-11 03:11:13.15	354.43	11.28	
2025-01-11 03:11:13.35	354.39	11.29	
2025-01-11 03:11:13.56	354.36	11.30	
2025-01-11 03:11:13.76	354.33	11.31	
2025-01-11 03:11:13.97	354.29	11.31	
2025-01-11 03:11:14.17	354.26	11.32	
2025-01-11 03:11:14.38	354.22	11.33	
2025-01-11 03:11:14.58	354.19	11.34	
2025-01-11 03:11:14.79	354.15	11.35	
2025-01-11 03:11:14.99	354.12	11.36	
2025-01-11 03:11:15.20	354.09	11.36	
2025-01-11 03:11:15.41	354.05	11.37	
2025-01-11 03:11:15.62	354.02	11.38	
2025-01-11 03:11:15.82	353.98	11.39	
2025-01-11 03:11:16.03	353.95	11.40	
2025-01-11 03:11:16.23	353.91	11.41	
2025-01-11 03:11:16.44	353.88	11.42	
2025-01-11 03:11:16.64	353.84	11.42	
2025-01-11 03:11:16.85	353.81	11.43	
2025-01-11 03:11:17.05	353.78	11.44	
2025-01-11 03:11:17.26	353.74	11.45	
2025-01-11 03:11:17.47	353.70	11.46	
2025-01-11 03:11:17.67	353.67	11.47	
2025-01-11 03:11:17.88	353.64	11.47	
2025-01-11 03:11:18.08	353.60	11.48	
2025-01-11 03:11:18.29	353.57	11.49	
2025-01-11 03:11:18.49	353.53	11.50	
2025-01-11 03:11:18.70	353.50	11.51	
2025-01-11 03:11:18.90	353.46	11.52	
2025-01-11 03:11:19.11	353.43	11.52	
2025-01-11 03:11:19.31	353.39	11.53	
2025-01-11 03:11:19.52	353.36	11.54	
2025-01-11 03:11:19.72	353.32	11.55	
2025-01-11 03:11:19.93	353.29	11.56	
2025-01-11 03:11:20.13	353.26	11.57	
2025-01-11 03:11:20.33	353.22	11.57	
2025-01-11 03:11:20.54	353.19	11.58	
2025-01-11 03:11:20.74	353.15	11.59	
2025-01-11 03:11:20.95	353.12	11.60	
2025-01-11 03:11:21.15	353.08	11.61	
2025-01-11 03:11:21.35	353.05	11.61	
2025-01-11 03:11:21.56	353.01	11.62	
2025-01-11 03:11:21.77	352.98	11.63	
2025-01-11 03:11:21.97	352.94	11.64	
2025-01-11 03:11:22.18	352.91	11.65	
2025-01-11 03:11:22.38	352.87	11.65	
2025-01-11 03:11:22.58	352.84	11.66	
2025-01-11 03:11:22.79	352.80	11.67	
2025-01-11 03:11:22.99	352.77	11.68	
2025-01-11 03:11:23.20	352.73	11.69	
2025-01-11 03:11:23.40	352.70	11.70	
2025-01-11 03:11:23.61	352.66	11.70	
2025-01-11 03:11:23.81	352.63	11.71	
2025-01-11 03:11:24.02	352.59	11.72	
2025-01-11 03:11:24.23	352.56	11.73	
2025-01-11 03:11:24.43	352.52	11.74	
2025-01-11 03:11:24.63	352.49	11.74	
2025-01-11 03:11:24.84	352.45	11.75	
2025-01-11 03:11:25.04	352.42	11.76	
2025-01-11 03:11:25.25	352.38	11.77	
2025-01-11 03:11:25.45	352.35	11.78	
2025-01-11 03:11:25.67	352.31	11.78	
2025-01-11 03:11:25.87	352.27	11.79	
2025-01-11 03:11:26.08	352.24	11.80	
2025-01-11 03:11:26.29	352.20	11.81	
2025-01-11 03:11:26.49	352.17	11.82	
2025-01-11 03:11:26.69	352.13	11.82	
2025-01-11 03:11:26.90	352.10	11.83	
2025-01-11 03:11:27.11	352.06	11.84	
2025-01-11 03:11:27.31	352.03	11.85	
2025-01-11 03:11:27.52	351.99	11.86	
2025-01-11 03:11:27.72	351.95	11.86	
2025-01-11 03:11:27.92	351.92	11.87	
2025-01-11 03:11:28.13	351.88	11.88	
2025-01-11 03:11:28.34	351.85	11.89	
2025-01-11 03:11:28.54	351.81	11.90	
2025-01-11 03:11:28.74	351.78	11.90	
2025-01-11 03:11:28.95	351.74	11.91	
2025-01-11 03:11:29.15	351.71	11.92	
2025-01-11 03:11:29.36	351.67	11.93	
2025-01-11 03:11:29.57	351.63	11.94	
2025-01-11 03:11:29.77	351.60	11.94	
2025-01-11 03:11:29.98	351.56	11.95	
2025-01-11 03:11:30.18	351.53	11.96	
2025-01-11 03:11:30.39	351.49	11.97	
2025-01-11 03:11:30.59	351.46	11.98	
2025-01-11 03:11:30.79	351.42	11.98	
2025-01-11 03:11:31.00	351.38	11.99	
2025-01-11 03:11:31.20	351.35	12.00	
2025-01-11 03:11:31.41	351.31	12.01	
2025-01-11 03:11:31.61	351.28	12.01	
2025-01-11 03:11:31.82	351.24	12.02	
2025-01-11 03:11:32.02	351.21	12.03	
2025-01-11 03:11:32.23	351.17	12.04	
2025-01-11 03:11:32.43	351.13	12.04	
2025-01-11 03:11:32.64	351.10	12.05	
2025-01-11 03:11:32.84	351.06	12.06	
2025-01-11 03:11:33.05	351.03	12.07	
2025-01-11 03:11:33.25	350.99	12.08	
2025-01-11 03:11:33.46	350.95	12.08	
2025-01-11 03:11:33.66	350.92	12.09	
2025-01-11 03:11:33.87	350.88	12.10	
2025-01-11 03:11:34.07	350.85	12.11	
2025-01-11 03:11:34.28	350.81	12.11	
2025-01-11 03:11:34.48	350.77	12.12	
2025-01-11 03:11:34.69	350.74	12.13	
2025-01-11 03:11:34.89	350.70	12.14	
2025-01-11 03:11:35.09	350.67	12.14	
2025-01-11 03:11:35.30	350.63	12.15	
2025-01-11 03:11:35.51	350.59	12.16	
2025-01-11 03:11:35.71	350.56	12.17	
2025-01-11 03:11:35.92	350.52	12.18	
2025-01-11 03:11:36.12	350.48	12.18	
2025-01-11 03:11:36.32	350.45	12.19	
2025-01-11 03:11:36.53	350.41	12.20	
2025-01-11 03:11:36.73	350.38	12.21	
2025-01-11 03:11:36.94	350.34	12.21	
2025-01-11 03:11:37.14	350.30	12.22	
2025-01-11 03:11:37.35	350.27	12.23	
2025-01-11 03:11:37.55	350.23	12.24	
2025-01-11 03:11:37.76	350.19	12.24	
2025-01-11 03:11:37.96	350.16	12.25	
2025-01-11 03:11:38.17	350.12	12.26	
2025-01-11 03:11:38.39	350.08	12.27	
2025-01-11 03:11:38.59	350.05	12.27	
2025-01-11 03:11:38.80	350.01	12.28	
2025-01-11 03:11:39.00	349.97	12.29	
2025-01-11 03:11:39.21	349.93	12.30	
2025-01-11 03:11:39.41	349.90	12.30	
2025-01-11 03:11:39.62	349.86	12.31	
2025-01-11 03:11:39.82	349.83	12.32	
2025-01-11 03:11:40.03	349.79	12.33	
2025-01-11 03:11:40.23	349.75	12.33	
2025-01-11 03:11:40.44	349.72	12.34	
2025-01-11 03:11:40.64	349.68	12.35	
2025-01-11 03:11:40.84	349.64	12.36	
2025-01-11 03:11:41.05	349.61	12.36	
2025-01-11 03:11:41.25	349.57	12.37	
2025-01-11 03:11:41.45	349.53	12.38	
2025-01-11 03:11:41.66	349.50	12.38	
2025-01-11 03:11:41.87	349.46	12.39	
2025-01-11 03:11:42.07	349.42	12.40	
2025-01-11 03:11:42.28	349.38	12.41	
2025-01-11 03:11:42.48	349.35	12.41	
2025-01-11 03:11:42.69	349.31	12.42	
2025-01-11 03:11:42.89	349.28	12.43	
2025-01-11 03:11:43.10	349.24	12.44	
2025-01-11 03:11:43.30	349.20	12.44	
2025-01-11 03:11:43.51	349.16	12.45	
2025-01-11 03:11:43.71	349.13	12.46	
2025-01-11 03:11:43.92	349.09	12.47	
2025-01-11 03:11:44.12	349.05	12.47	
2025-01-11 03:11:44.33	349.02	12.48	
2025-01-11 03:11:44.54	348.98	12.49	
2025-01-11 03:11:44.74	348.94	12.49	
2025-01-11 03:11:44.94	348.91	12.50	
2025-01-11 03:11:45.15	348.87	12.51	
2025-01-11 03:11:45.35	348.83	12.52	
2025-01-11 03:11:45.56	348.79	12.52	
2025-01-11 03:11:45.76	348.76	12.53	
2025-01-11 03:11:45.97	348.72	12.54	
2025-01-11 03:11:46.17	348.68	12.54	
2025-01-11 03:11:46.38	348.64	12.55	
2025-01-11 03:11:46.58	348.61	12.56	
2025-01-11 03:11:46.79	348.57	12.57	
2025-01-11 03:11:46.99	348.53	12.57	
2025-01-11 03:11:47.20	348.50	12.58	
2025-01-11 03:11:47.40	348.46	12.59	
2025-01-11 03:11:47.61	348.42	12.59	
2025-01-11 03:11:47.81	348.38	12.60	
2025-01-11 03:11:48.01	348.35	12.61	
2025-01-11 03:11:48.22	348.31	12.62	
2025-01-11 03:11:48.42	348.27	12.62	
2025-01-11 03:11:48.63	348.23	12.63	
2025-01-11 03:11:48.83	348.20	12.64	
2025-01-11 03:11:49.04	348.16	12.64	
2025-01-11 03:11:49.24	348.12	12.65	
2025-01-11 03:11:49.45	348.08	12.66	
2025-01-11 03:11:49.65	348.05	12.66	
2025-01-11 03:11:49.86	348.01	12.67	
2025-01-11 03:11:50.06	347.97	12.68	
2025-01-11 03:11:50.27	347.93	12.69	
2025-01-11 03:11:50.47	347.90	12.69	
2025-01-11 03:11:50.68	347.86	12.70	
2025-01-11 03:11:50.88	347.82	12.71	
2025-01-11 03:11:51.09	347.78	12.71	
2025-01-11 03:11:51.29	347.75	12.72	
2025-01-11 03:11:51.50	347.71	12.73	
2025-01-11 03:11:51.70	347.67	12.73	
2025-01-11 03:11:51.90	347.64	12.74	
2025-01-11 03:11:52.11	347.60	12.75	
2025-01-11 03:11:52.31	347.56	12.75	
2025-01-11 03:11:52.52	347.52	12.76	
2025-01-11 03:11:52.72	347.48	12.77	
2025-01-11 03:11:52.93	347.45	12.77	
2025-01-11 03:11:53.14	347.41	12.78	
2025-01-11 03:11:53.34	347.37	12.79	
2025-01-11 03:11:53.54	347.33	12.79	
2025-01-11 03:11:53.75	347.29	12.80	
2025-01-11 03:11:53.95	347.26	12.81	
2025-01-11 03:11:54.16	347.22	12.81	
2025-01-11 03:11:54.36	347.18	12.82	
2025-01-11 03:11:54.57	347.14	12.83	
2025-01-11 03:11:54.77	347.11	12.83	
2025-01-11 03:11:54.98	347.07	12.84	
2025-01-11 03:11:55.18	347.03	12.85	
2025-01-11 03:11:55.39	346.99	12.85	
2025-01-11 03:11:55.59	346.95	12.86	
2025-01-11 03:11:55.80	346.91	12.87	
2025-01-11 03:11:56.00	346.88	12.87	
2025-01-11 03:11:56.21	346.84	12.88	
2025-01-11 03:11:56.41	346.80	12.89	
2025-01-11 03:11:56.62	346.76	12.89	
2025-01-11 03:11:56.82	346.73	12.90	
2025-01-11 03:11:57.03	346.69	12.91	
2025-01-11 03:11:57.23	346.65	12.91	
2025-01-11 03:11:57.44	346.61	12.92	
2025-01-11 03:11:57.66	346.57	12.93	
2025-01-11 03:11:57.88	346.53	12.94	
2025-01-11 03:11:58.08	346.49	12.94	
2025-01-11 03:11:58.28	346.45	12.95	
2025-01-11 03:11:58.49	346.41	12.95	
2025-01-11 03:11:58.69	346.38	12.96	
2025-01-11 03:11:58.90	346.34	12.97	
2025-01-11 03:11:59.10	346.30	12.97	
2025-01-11 03:11:59.31	346.26	12.98	
2025-01-11 03:11:59.52	346.22	12.99	
2025-01-11 03:11:59.72	346.18	12.99	
2025-01-11 03:11:59.92	346.15	13.00	
2025-01-11 03:12:00.14	346.11	13.01	
2025-01-11 03:12:00.35	346.07	13.01	
2025-01-11 03:12:00.55	346.03	13.02	
2025-01-11 03:12:00.77	345.99	13.03	
2025-01-11 03:12:00.98	345.95	13.03	
2025-01-11 03:12:01.18	345.91	13.04	
2025-01-11 03:12:01.39	345.87	13.05	
2025-01-11 03:12:01.59	345.83	13.05	
2025-01-11 03:12:01.79	345.80	13.06	
2025-01-11 03:12:02.00	345.76	13.06	
2025-01-11 03:12:02.21	345.72	13.07	
2025-01-11 03:12:02.41	345.68	13.08	
2025-01-11 03:12:02.62	345.64	13.08	
2025-01-11 03:12:02.82	345.60	13.09	
2025-01-11 03:12:03.03	345.56	13.10	
2025-01-11 03:12:03.23	345.52	13.10	
2025-01-11 03:12:03.43	345.49	13.11	
2025-01-11 03:12:03.64	345.45	13.11	
2025-01-11 03:12:03.85	345.41	13.12	
2025-01-11 03:12:04.05	345.37	13.13	
2025-01-11 03:12:04.26	345.33	13.13	
2025-01-11 03:12:04.46	345.29	13.14	
2025-01-11 03:12:04.67	345.25	13.15	
2025-01-11 03:12:04.87	345.21	13.15	
2025-01-11 03:12:05.07	345.18	13.16	
2025-01-11 03:12:05.28	345.14	13.16	
2025-01-11 03:12:05.48	345.10	13.17	
2025-01-11 03:12:05.69	345.06	13.18	
2025-01-11 03:12:05.90	345.02	13.18	
2025-01-11 03:12:06.10	344.98	13.19	
2025-01-11 03:12:06.30	344.94	13.19	
2025-01-11 03:12:06.51	344.90	13.20	
2025-01-11 03:12:06.72	344.86	13.21	
2025-01-11 03:12:06.92	344.83	13.21	
2025-01-11 03:12:07.13	344.79	13.22	
2025-01-11 03:12:07.33	344.75	13.23	
2025-01-11 03:12:07.54	344.71	13.23	
2025-01-11 03:12:07.74	344.67	13.24	
2025-01-11 03:12:07.95	344.63	13.24	
2025-01-11 03:12:08.15	344.59	13.25	
2025-01-11 03:12:08.36	344.55	13.26	
2025-01-11 03:12:08.56	344.51	13.26	
2025-01-11 03:12:08.77	344.47	13.27	
2025-01-11 03:12:08.97	344.44	13.27	
2025-01-11 03:12:09.18	344.40	13.28	
2025-01-11 03:12:09.40	344.35	13.29	
2025-01-11 03:12:09.60	344.31	13.29	
2025-01-11 03:12:09.81	344.27	13.30	
2025-01-11 03:12:10.01	344.24	13.30	
2025-01-11 03:12:10.22	344.20	13.31	
2025-01-11 03:12:10.42	344.16	13.31	
2025-01-11 03:12:10.63	344.12	13.32	
2025-01-11 03:12:10.83	344.08	13.33	
2025-01-11 03:12:11.04	344.04	13.33	
2025-01-11 03:12:11.24	344.00	13.34	
2025-01-11 03:12:11.45	343.96	13.34	
2025-01-11 03:12:11.65	343.92	13.35	
2025-01-11 03:12:11.86	343.88	13.36	
2025-01-11 03:12:12.06	343.84	13.36	
2025-01-11 03:12:12.27	343.80	13.37	
2025-01-11 03:12:12.47	343.76	13.37	
2025-01-11 03:12:12.67	343.73	13.38	
2025-01-11 03:12:12.88	343.69	13.38	
2025-01-11 03:12:13.08	343.65	13.39	
2025-01-11 03:12:13.29	343.61	13.40	
2025-01-11 03:12:13.49	343.57	13.40	
2025-01-11 03:12:13.70	343.53	13.41	
2025-01-11 03:12:13.91	343.49	13.41	
2025-01-11 03:12:14.11	343.45	13.42	
2025-01-11 03:12:14.32	343.41	13.42	
2025-01-11 03:12:14.52	343.37	13.43	
2025-01-11 03:12:14.73	343.33	13.44	
2025-01-11 03:12:14.93	343.29	13.44	
2025-01-11 03:12:15.14	343.25	13.45	
2025-01-11 03:12:15.34	343.21	13.45	
2025-01-11 03:12:15.55	343.17	13.46	
2025-01-11 03:12:15.76	343.13	13.46	
2025-01-11 03:12:15.97	343.09	13.47	
2025-01-11 03:12:16.18	343.05	13.47	
2025-01-11 03:12:16.38	343.01	13.48	
2025-01-11 03:12:16.58	342.97	13.49	
2025-01-11 03:12:16.79	342.93	13.49	
2025-01-11 03:12:16.99	342.89	13.50	
2025-01-11 03:12:17.20	342.85	13.50	
2025-01-11 03:12:17.40	342.81	13.51	
2025-01-11 03:12:17.61	342.77	13.51	
2025-01-11 03:12:17.81	342.73	13.52	
2025-01-11 03:12:18.02	342.69	13.52	
2025-01-11 03:12:18.22	342.65	13.53	
2025-01-11 03:12:18.43	342.61	13.53	
2025-01-11 03:12:18.63	342.57	13.54	
2025-01-11 03:12:18.83	342.54	13.54	
2025-01-11 03:12:19.04	342.49	13.55	
2025-01-11 03:12:19.24	342.46	13.56	
2025-01-11 03:12:19.45	342.41	13.56	
2025-01-11 03:12:19.66	342.37	13.57	
2025-01-11 03:12:19.86	342.33	13.57	
2025-01-11 03:12:20.07	342.29	13.58	
2025-01-11 03:12:20.27	342.25	13.58	
2025-01-11 03:12:20.48	342.21	13.59	
2025-01-11 03:12:20.68	342.18	13.59	
2025-01-11 03:12:20.89	342.13	13.60	
2025-01-11 03:12:21.09	342.10	13.60	
2025-01-11 03:12:21.29	342.06	13.61	
2025-01-11 03:12:21.50	342.01	13.61	
2025-01-11 03:12:21.71	341.97	13.62	
2025-01-11 03:12:21.91	341.93	13.62	
2025-01-11 03:12:22.12	341.89	13.63	
2025-01-11 03:12:22.32	341.85	13.63	
2025-01-11 03:12:22.53	341.81	13.64	
2025-01-11 03:12:22.73	341.77	13.64	
2025-01-11 03:12:22.94	341.73	13.65	
2025-01-11 03:12:23.14	341.69	13.65	
2025-01-11 03:12:23.35	341.65	13.66	
2025-01-11 03:12:23.55	341.61	13.66	
2025-01-11 03:12:23.76	341.57	13.67	
2025-01-11 03:12:23.96	341.53	13.67	
2025-01-11 03:12:24.17	341.49	13.68	
2025-01-11 03:12:24.37	341.45	13.68	
2025-01-11 03:12:24.58	341.41	13.69	
2025-01-11 03:12:24.78	341.37	13.69	
2025-01-11 03:12:24.99	341.33	13.70	
2025-01-11 03:12:25.19	341.29	13.70	
2025-01-11 03:12:25.40	341.25	13.71	
2025-01-11 03:12:25.61	341.21	13.71	
2025-01-11 03:12:25.81	341.17	13.72	
2025-01-11 03:12:26.02	341.13	13.72	
2025-01-11 03:12:26.22	341.09	13.73	
2025-01-11 03:12:26.43	341.05	13.73	
2025-01-11 03:12:26.63	341.01	13.74	
2025-01-11 03:12:26.84	340.97	13.74	
2025-01-11 03:12:27.04	340.93	13.75	
2025-01-11 03:12:27.25	340.89	13.75	
2025-01-11 03:12:27.45	340.85	13.76	
2025-01-11 03:12:27.65	340.81	13.76	
2025-01-11 03:12:27.86	340.77	13.77	
2025-01-11 03:12:28.07	340.72	13.77	
2025-01-11 03:12:28.27	340.68	13.78	
2025-01-11 03:12:28.48	340.64	13.78	
2025-01-11 03:12:28.68	340.60	13.79	
2025-01-11 03:12:28.89	340.56	13.79	
2025-01-11 03:12:29.09	340.52	13.80	
2025-01-11 03:12:29.30	340.48	13.80	
2025-01-11 03:12:29.50	340.44	13.81	
2025-01-11 03:12:29.70	340.40	13.81	
2025-01-11 03:12:29.91	340.36	13.81	
2025-01-11 03:12:30.12	340.32	13.82	
2025-01-11 03:12:30.32	340.28	13.82	
2025-01-11 03:12:30.53	340.24	13.83	
2025-01-11 03:12:30.73	340.20	13.83	
2025-01-11 03:12:30.93	340.16	13.84	
2025-01-11 03:12:31.14	340.12	13.84	
2025-01-11 03:12:31.34	340.08	13.85	
2025-01-11 03:12:31.55	340.03	13.85	
2025-01-11 03:12:31.76	339.99	13.86	
2025-01-11 03:12:31.96	339.95	13.86	
2025-01-11 03:12:32.16	339.91	13.87	
2025-01-11 03:12:32.37	339.87	13.87	
2025-01-11 03:12:32.58	339.83	13.87	
2025-01-11 03:12:32.79	339.79	13.88	
2025-01-11 03:12:33.00	339.75	13.88	
2025-01-11 03:12:33.20	339.71	13.89	
2025-01-11 03:12:33.41	339.66	13.89	
2025-01-11 03:12:33.61	339.63	13.90	
2025-01-11 03:12:33.83	339.58	13.90	
2025-01-11 03:12:34.04	339.54	13.91	
2025-01-11 03:12:34.24	339.50	13.91	
2025-01-11 03:12:34.44	339.46	13.91	
2025-01-11 03:12:34.65	339.42	13.92	
2025-01-11 03:12:34.85	339.38	13.92	
2025-01-11 03:12:35.06	339.34	13.93	
2025-01-11 03:12:35.27	339.29	13.93	
2025-01-11 03:12:35.47	339.25	13.94	
2025-01-11 03:12:35.67	339.21	13.94	
2025-01-11 03:12:35.89	339.17	13.94	
2025-01-11 03:12:36.10	339.13	13.95	
2025-01-11 03:12:36.30	339.09	13.95	
2025-01-11 03:12:36.51	339.05	13.96	
2025-01-11 03:12:36.71	339.01	13.96	
2025-01-11 03:12:36.91	338.97	13.97	
2025-01-11 03:12:37.12	338.92	13.97	
2025-01-11 03:12:37.32	338.88	13.97	
2025-01-11 03:12:37.53	338.84	13.98	
2025-01-11 03:12:37.73	338.80	13.98	
2025-01-11 03:12:37.94	338.76	13.99	
2025-01-11 03:12:38.14	338.72	13.99	
2025-01-11 03:12:38.34	338.68	13.99	
2025-01-11 03:12:38.55	338.64	14.00	
2025-01-11 03:12:38.76	338.60	14.00	
2025-01-11 03:12:38.96	338.56	14.01	
2025-01-11 03:12:39.18	338.51	14.01	
2025-01-11 03:12:39.38	338.47	14.01	
2025-01-11 03:12:39.59	338.43	14.02	
2025-01-11 03:12:39.79	338.39	14.02	
2025-01-11 03:12:40.00	338.35	14.03	
2025-01-11 03:12:40.20	338.31	14.03	
2025-01-11 03:12:40.41	338.26	14.03	
2025-01-11 03:12:40.61	338.22	14.04	
2025-01-11 03:12:40.82	338.18	14.04	
2025-01-11 03:12:41.02	338.14	14.05	
2025-01-11 03:12:41.23	338.10	14.05	
2025-01-11 03:12:41.43	338.06	14.05	
2025-01-11 03:12:41.64	338.02	14.06	
2025-01-11 03:12:41.84	337.98	14.06	
2025-01-11 03:12:42.05	337.93	14.07	
2025-01-11 03:12:42.25	337.89	14.07	
2025-01-11 03:12:42.46	337.85	14.07	
2025-01-11 03:12:42.66	337.81	14.08	
2025-01-11 03:12:42.87	337.77	14.08	
2025-01-11 03:12:43.07	337.73	14.08	
2025-01-11 03:12:43.28	337.69	14.09	
2025-01-11 03:12:43.48	337.65	14.09	
2025-01-11 03:12:43.68	337.60	14.10	
2025-01-11 03:12:43.89	337.56	14.10	
2025-01-11 03:12:44.10	337.52	14.10	
2025-01-11 03:12:44.30	337.48	14.11	
2025-01-11 03:12:44.52	337.44	14.11	
2025-01-11 03:12:44.72	337.39	14.11	
2025-01-11 03:12:44.93	337.35	14.12	
2025-01-11 03:12:45.14	337.31	14.12	
2025-01-11 03:12:45.34	337.27	14.13	
2025-01-11 03:12:45.54	337.23	14.13	
2025-01-11 03:12:45.75	337.19	14.13	
2025-01-11 03:12:45.96	337.14	14.14	
2025-01-11 03:12:46.16	337.10	14.14	
2025-01-11 03:12:46.37	337.06	14.14	
2025-01-11 03:12:46.57	337.02	14.15	
2025-01-11 03:12:46.78	336.98	14.15	
2025-01-11 03:12:46.98	336.94	14.15	
2025-01-11 03:12:47.19	336.89	14.16	
2025-01-11 03:12:47.40	336.85	14.16	
2025-01-11 03:12:47.60	336.81	14.16	
2025-01-11 03:12:47.81	336.77	14.17	
2025-01-11 03:12:48.01	336.73	14.17	
2025-01-11 03:12:48.21	336.69	14.17	
2025-01-11 03:12:48.42	336.64	14.18	
2025-01-11 03:12:48.63	336.60	14.18	
2025-01-11 03:12:48.83	336.56	14.18	
2025-01-11 03:12:49.03	336.52	14.19	
2025-01-11 03:12:49.24	336.48	14.19	
2025-01-11 03:12:49.44	336.44	14.19	
2025-01-11 03:12:49.65	336.39	14.20	
2025-01-11 03:12:49.87	336.35	14.20	
2025-01-11 03:12:50.07	336.31	14.20	
2025-01-11 03:12:50.28	336.27	14.21	
2025-01-11 03:12:50.48	336.23	14.21	
2025-01-11 03:12:50.69	336.18	14.21	
2025-01-11 03:12:50.89	336.14	14.22	
2025-01-11 03:12:51.09	336.10	14.22	
2025-01-11 03:12:51.30	336.06	14.22	
2025-01-11 03:12:51.50	336.02	14.23	
2025-01-11 03:12:51.71	335.98	14.23	
2025-01-11 03:12:51.91	335.93	14.23	
2025-01-11 03:12:52.12	335.89	14.24	
2025-01-11 03:12:52.33	335.85	14.24	
2025-01-11 03:12:52.53	335.81	14.24	
2025-01-11 03:12:52.74	335.77	14.25	
2025-01-11 03:12:52.94	335.72	14.25	
2025-01-11 03:12:53.15	335.68	14.25	
2025-01-11 03:12:53.35	335.64	14.25	
2025-01-11 03:12:53.56	335.60	14.26	
2025-01-11 03:12:53.76	335.56	14.26	
2025-01-11 03:12:53.97	335.51	14.26	
2025-01-11 03:12:54.19	335.47	14.27	
2025-01-11 03:12:54.39	335.43	14.27	
2025-01-11 03:12:54.60	335.39	14.27	
2025-01-11 03:12:54.80	335.34	14.28	
2025-01-11 03:12:55.01	335.30	14.28	
2025-01-11 03:12:55.21	335.26	14.28	
2025-01-11 03:12:55.42	335.22	14.28	
2025-01-11 03:12:55.62	335.18	14.29	
2025-01-11 03:12:55.83	335.13	14.29	
2025-01-11 03:12:56.03	335.09	14.29	
2025-01-11 03:12:56.24	335.05	14.30	
2025-01-11 03:12:56.44	335.01	14.30	
2025-01-11 03:12:56.65	334.97	14.30	
2025-01-11 03:12:56.85	334.92	14.30	
2025-01-11 03:12:57.06	334.88	14.31	
2025-01-11 03:12:57.26	334.84	14.31	
2025-01-11 03:12:57.46	334.80	14.31	
2025-01-11 03:12:57.67	334.76	14.32	
2025-01-11 03:12:57.87	334.72	14.32	
2025-01-11 03:12:58.08	334.67	14.32	
2025-01-11 03:12:58.28	334.63	14.32	
2025-01-11 03:12:58.49	334.59	14.33	
2025-01-11 03:12:58.69	334.55	14.33	
2025-01-11 03:12:58.90	334.50	14.33	
2025-01-11 03:12:59.10	334.46	14.33	
2025-01-11 03:12:59.31	334.42	14.34	
2025-01-11 03:12:59.51	334.38	14.34	
2025-01-11 03:12:59.72	334.34	14.34	
2025-01-11 03:12:59.92	334.29	14.34	
2025-01-11 03:13:00.13	334.25	14.35	
2025-01-11 03:13:00.33	334.21	14.35	
2025-01-11 03:13:00.53	334.17	14.35	
2025-01-11 03:13:00.74	334.13	14.35	
2025-01-11 03:13:00.95	334.08	14.36	
2025-01-11 03:13:01.15	334.04	14.36	
2025-01-11 03:13:01.36	334.00	14.36	
2025-01-11 03:13:01.56	333.96	14.36	
2025-01-11 03:13:01.77	333.91	14.37	
2025-01-11 03:13:01.97	333.87	14.37	
2025-01-11 03:13:02.17	333.83	14.37	
2025-01-11 03:13:02.38	333.79	14.37	
2025-01-11 03:13:02.58	333.75	14.38	
2025-01-11 03:13:02.79	333.70	14.38	
2025-01-11 03:13:02.99	333.66	14.38	
2025-01-11 03:13:03.20	333.62	14.38	
2025-01-11 03:13:03.41	333.58	14.39	
2025-01-11 03:13:03.61	333.54	14.39	
2025-01-11 03:13:03.81	333.49	14.39	
2025-01-11 03:13:04.02	333.45	14.39	
2025-01-11 03:13:04.22	333.41	14.39	
2025-01-11 03:13:04.43	333.37	14.40	
2025-01-11 03:13:04.63	333.33	14.40	
2025-01-11 03:13:04.84	333.28	14.40	
2025-01-11 03:13:05.04	333.24	14.40	
2025-01-11 03:13:05.25	333.20	14.40	
2025-01-11 03:13:05.45	333.16	14.41	
2025-01-11 03:13:05.66	333.11	14.41	
2025-01-11 03:13:05.86	333.07	14.41	
2025-01-11 03:13:06.07	333.03	14.41	
2025-01-11 03:13:06.27	332.99	14.42	
2025-01-11 03:13:06.48	332.94	14.42	
2025-01-11 03:13:06.69	332.90	14.42	
2025-01-11 03:13:06.89	332.86	14.42	
2025-01-11 03:13:07.10	332.82	14.42	
2025-01-11 03:13:07.30	332.77	14.43	
2025-01-11 03:13:07.51	332.73	14.43	
2025-01-11 03:13:07.71	332.69	14.43	
2025-01-11 03:13:07.91	332.65	14.43	
2025-01-11 03:13:08.12	332.60	14.43	
2025-01-11 03:13:08.32	332.56	14.44	
2025-01-11 03:13:08.53	332.52	14.44	
2025-01-11 03:13:08.73	332.48	14.44	
2025-01-11 03:13:08.93	332.44	14.44	
2025-01-11 03:13:09.14	332.39	14.44	
2025-01-11 03:13:09.35	332.35	14.44	
2025-01-11 03:13:09.55	332.31	14.45	
2025-01-11 03:13:09.76	332.27	14.45	
2025-01-11 03:13:09.96	332.22	14.45	
2025-01-11 03:13:10.16	332.18	14.45	
2025-01-11 03:13:10.37	332.14	14.45	
2025-01-11 03:13:10.57	332.10	14.46	
2025-01-11 03:13:10.78	332.05	14.46	
2025-01-11 03:13:10.99	332.01	14.46	
2025-01-11 03:13:11.19	331.97	14.46	
2025-01-11 03:13:11.39	331.93	14.46	
2025-01-11 03:13:11.60	331.88	14.46	
2025-01-11 03:13:11.81	331.84	14.47	
2025-01-11 03:13:12.01	331.80	14.47	
2025-01-11 03:13:12.22	331.76	14.47	
2025-01-11 03:13:12.42	331.71	14.47	
2025-01-11 03:13:12.63	331.67	14.47	
2025-01-11 03:13:12.84	331.63	14.47	
2025-01-11 03:13:13.05	331.58	14.48	
2025-01-11 03:13:13.26	331.54	14.48	
2025-01-11 03:13:13.47	331.50	14.48	
2025-01-11 03:13:13.67	331.46	14.48	
2025-01-11 03:13:13.88	331.41	14.48	
2025-01-11 03:13:14.09	331.37	14.48	
2025-01-11 03:13:14.29	331.33	14.48	
2025-01-11 03:13:14.49	331.29	14.49	
2025-01-11 03:13:14.70	331.24	14.49	
2025-01-11 03:13:14.91	331.20	14.49	
2025-01-11 03:13:15.11	331.16	14.49	
2025-01-11 03:13:15.32	331.11	14.49	
2025-01-11 03:13:15.52	331.07	14.49	
2025-01-11 03:13:15.72	331.03	14.49	
2025-01-11 03:13:15.93	330.99	14.50	
2025-01-11 03:13:16.14	330.94	14.50	
2025-01-11 03:13:16.34	330.90	14.50	
2025-01-11 03:13:16.56	330.86	14.50	
2025-01-11 03:13:16.77	330.81	14.50	
2025-01-11 03:13:16.97	330.77	14.50	
2025-01-11 03:13:17.18	330.73	14.50	
2025-01-11 03:13:17.38	330.69	14.50	
2025-01-11 03:13:17.59	330.64	14.51	
2025-01-11 03:13:17.79	330.60	14.51	
2025-01-11 03:13:17.99	330.56	14.51	
2025-01-11 03:13:18.20	330.52	14.51	
2025-01-11 03:13:18.41	330.47	14.51	
2025-01-11 03:13:18.61	330.43	14.51	
2025-01-11 03:13:18.81	330.39	14.51	
2025-01-11 03:13:19.02	330.34	14.51	
2025-01-11 03:13:19.22	330.30	14.51	
2025-01-11 03:13:19.43	330.26	14.52	
2025-01-11 03:13:19.63	330.22	14.52	
2025-01-11 03:13:19.84	330.17	14.52	
2025-01-11 03:13:20.04	330.13	14.52	
2025-01-11 03:13:20.25	330.09	14.52	
2025-01-11 03:13:20.45	330.05	14.52	
2025-01-11 03:13:20.66	330.00	14.52	
2025-01-11 03:13:20.86	329.96	14.52	
2025-01-11 03:13:21.07	329.92	14.52	
2025-01-11 03:13:21.27	329.88	14.52	
2025-01-11 03:13:21.48	329.83	14.53	
2025-01-11 03:13:21.68	329.79	14.53	
2025-01-11 03:13:21.89	329.75	14.53	
2025-01-11 03:13:22.09	329.71	14.53	
2025-01-11 03:13:22.30	329.66	14.53	
2025-01-11 03:13:22.50	329.62	14.53	
2025-01-11 03:13:22.71	329.58	14.53	
2025-01-11 03:13:22.91	329.54	14.53	
2025-01-11 03:13:23.12	329.49	14.53	
2025-01-11 03:13:23.32	329.45	14.53	
2025-01-11 03:13:23.53	329.41	14.53	
2025-01-11 03:13:23.73	329.36	14.53	
2025-01-11 03:13:23.95	329.32	14.54	
2025-01-11 03:13:24.16	329.28	14.54	
2025-01-11 03:13:24.36	329.23	14.54	
2025-01-11 03:13:24.57	329.19	14.54	
2025-01-11 03:13:24.77	329.15	14.54	
2025-01-11 03:13:24.97	329.11	14.54	
2025-01-11 03:13:25.18	329.06	14.54	
2025-01-11 03:13:25.38	329.02	14.54	
2025-01-11 03:13:25.59	328.98	14.54	
2025-01-11 03:13:25.80	328.93	14.54	
2025-01-11 03:13:26.00	328.89	14.54	
2025-01-11 03:13:26.20	328.85	14.54	
2025-01-11 03:13:26.41	328.81	14.54	
2025-01-11 03:13:26.62	328.76	14.54	
2025-01-11 03:13:26.82	328.72	14.54	
2025-01-11 03:13:27.03	328.68	14.54	
2025-01-11 03:13:27.23	328.64	14.55	
2025-01-11 03:13:27.44	328.59	14.55	
2025-01-11 03:13:27.64	328.55	14.55	
2025-01-11 03:13:27.85	328.51	14.55	
2025-01-11 03:13:28.05	328.47	14.55	
2025-01-11 03:13:28.26	328.42	14.55	
2025-01-11 03:13:28.46	328.38	14.55	
2025-01-11 03:13:28.67	328.34	14.55	
2025-01-11 03:13:28.87	328.29	14.55	
2025-01-11 03:13:29.07	328.25	14.55	
2025-01-11 03:13:29.28	328.21	14.55	
2025-01-11 03:13:29.48	328.17	14.55	
2025-01-11 03:13:29.69	328.12	14.55	
2025-01-11 03:13:29.89	328.08	14.55	
2025-01-11 03:13:30.10	328.04	14.55	
2025-01-11 03:13:30.30	328.00	14.55	
2025-01-11 03:13:30.51	327.95	14.55	
2025-01-11 03:13:30.71	327.91	14.55	
2025-01-11 03:13:30.92	327.87	14.55	
2025-01-11 03:13:31.12	327.83	14.55	
2025-01-11 03:13:31.33	327.78	14.55	
2025-01-11 03:13:31.55	327.74	14.55	
2025-01-11 03:13:31.75	327.69	14.55	
2025-01-11 03:13:31.96	327.65	14.55	
2025-01-11 03:13:32.16	327.61	14.55	
2025-01-11 03:13:32.37	327.56	14.55	
2025-01-11 03:13:32.59	327.52	14.55	
2025-01-11 03:13:32.79	327.48	14.55	
2025-01-11 03:13:33.00	327.43	14.55	
2025-01-11 03:13:33.20	327.39	14.55	
2025-01-11 03:13:33.41	327.35	14.55	
2025-01-11 03:13:33.61	327.31	14.55	
2025-01-11 03:13:33.81	327.26	14.55	
2025-01-11 03:13:34.02	327.22	14.55	
2025-01-11 03:13:34.22	327.18	14.55	
2025-01-11 03:13:34.43	327.14	14.55	
2025-01-11 03:13:34.63	327.09	14.55	
2025-01-11 03:13:34.84	327.05	14.55	
2025-01-11 03:13:35.04	327.01	14.55	
2025-01-11 03:13:35.25	326.96	14.55	
2025-01-11 03:13:35.45	326.92	14.55	
2025-01-11 03:13:35.65	326.88	14.55	
2025-01-11 03:13:35.86	326.84	14.55	
2025-01-11 03:13:36.07	326.79	14.55	
2025-01-11 03:13:36.27	326.75	14.55	
2025-01-11 03:13:36.48	326.71	14.55	
2025-01-11 03:13:36.68	326.67	14.55	
2025-01-11 03:13:36.89	326.62	14.55	
2025-01-11 03:13:37.10	326.58	14.55	
2025-01-11 03:13:37.30	326.54	14.55	
2025-01-11 03:13:37.51	326.49	14.55	
2025-01-11 03:13:37.71	326.45	14.55	
2025-01-11 03:13:37.92	326.41	14.55	
2025-01-11 03:13:38.12	326.37	14.55	
2025-01-11 03:13:38.33	326.32	14.55	
2025-01-11 03:13:38.53	326.28	14.55	
2025-01-11 03:13:38.74	326.24	14.55	
2025-01-11 03:13:38.94	326.20	14.55	
2025-01-11 03:13:39.14	326.15	14.54	
2025-01-11 03:13:39.35	326.11	14.54	
2025-01-11 03:13:39.56	326.07	14.54	
2025-01-11 03:13:39.76	326.02	14.54	
2025-01-11 03:13:39.98	325.98	14.54	
2025-01-11 03:13:40.19	325.93	14.54	
2025-01-11 03:13:40.39	325.89	14.54	
2025-01-11 03:13:40.60	325.85	14.54	
2025-01-11 03:13:40.80	325.81	14.54	
2025-01-11 03:13:41.00	325.77	14.54	
2025-01-11 03:13:41.21	325.72	14.54	
2025-01-11 03:13:41.42	325.68	14.54	
2025-01-11 03:13:41.62	325.64	14.54	
2025-01-11 03:13:41.83	325.59	14.54	
2025-01-11 03:13:42.03	325.55	14.54	
2025-01-11 03:13:42.24	325.51	14.54	
2025-01-11 03:13:42.45	325.46	14.54	
2025-01-11 03:13:42.65	325.42	14.53	
2025-01-11 03:13:42.86	325.38	14.53	
2025-01-11 03:13:43.06	325.34	14.53	
2025-01-11 03:13:43.27	325.29	14.53	
2025-01-11 03:13:43.47	325.25	14.53	
2025-01-11 03:13:43.68	325.21	14.53	
2025-01-11 03:13:43.88	325.17	14.53	
2025-01-11 03:13:44.09	325.12	14.53	
2025-01-11 03:13:44.29	325.08	14.53	
2025-01-11 03:13:44.50	325.04	14.53	
2025-01-11 03:13:44.70	325.00	14.53	
2025-01-11 03:13:44.91	324.95	14.53	
2025-01-11 03:13:45.11	324.91	14.52	
2025-01-11 03:13:45.32	324.87	14.52	
2025-01-11 03:13:45.52	324.83	14.52	
2025-01-11 03:13:45.72	324.78	14.52	
2025-01-11 03:13:45.93	324.74	14.52	
2025-01-11 03:13:46.13	324.70	14.52	
2025-01-11 03:13:46.34	324.65	14.52	
2025-01-11 03:13:46.54	324.61	14.52	
2025-01-11 03:13:46.75	324.57	14.52	
2025-01-11 03:13:46.95	324.53	14.52	
2025-01-11 03:13:47.16	324.48	14.51	
2025-01-11 03:13:47.36	324.44	14.51	
2025-01-11 03:13:47.56	324.40	14.51	
2025-01-11 03:13:47.77	324.36	14.51	
2025-01-11 03:13:47.97	324.32	14.51	
2025-01-11 03:13:48.18	324.27	14.51	
2025-01-11 03:13:48.39	324.23	14.51	
2025-01-11 03:13:48.59	324.19	14.51	
2025-01-11 03:13:48.79	324.15	14.51	
2025-01-11 03:13:49.00	324.10	14.50	
2025-01-11 03:13:49.20	324.06	14.50	
2025-01-11 03:13:49.41	324.02	14.50	
2025-01-11 03:13:49.63	323.97	14.50	
2025-01-11 03:13:49.83	323.93	14.50	
2025-01-11 03:13:50.04	323.89	14.50	
2025-01-11 03:13:50.25	323.84	14.50	
2025-01-11 03:13:50.45	323.80	14.50	
2025-01-11 03:13:50.66	323.76	14.49	
2025-01-11 03:13:50.86	323.72	14.49	
2025-01-11 03:13:51.07	323.67	14.49	
2025-01-11 03:13:51.27	323.63	14.49	
2025-01-11 03:13:51.48	323.59	14.49	
2025-01-11 03:13:51.68	323.54	14.49	
2025-01-11 03:13:51.89	323.50	14.49	
2025-01-11 03:13:52.09	323.46	14.48	
2025-01-11 03:13:52.30	323.42	14.48	
2025-01-11 03:13:52.50	323.37	14.48	
2025-01-11 03:13:52.70	323.33	14.48	
2025-01-11 03:13:52.91	323.29	14.48	
2025-01-11 03:13:53.11	323.25	14.48	
2025-01-11 03:13:53.32	323.20	14.47	
2025-01-11 03:13:53.52	323.16	14.47	
2025-01-11 03:13:53.73	323.12	14.47	
2025-01-11 03:13:53.93	323.08	14.47	
2025-01-11 03:13:54.14	323.03	14.47	
2025-01-11 03:13:54.34	322.99	14.47	
2025-01-11 03:13:54.55	322.95	14.47	
2025-01-11 03:13:54.75	322.91	14.46	
2025-01-11 03:13:54.96	322.86	14.46	
2025-01-11 03:13:55.16	322.82	14.46	
2025-01-11 03:13:55.37	322.78	14.46	
2025-01-11 03:13:55.57	322.74	14.46	
2025-01-11 03:13:55.78	322.69	14.46	
2025-01-11 03:13:55.99	322.65	14.45	
2025-01-11 03:13:56.20	322.61	14.45	
2025-01-11 03:13:56.40	322.57	14.45	
2025-01-11 03:13:56.61	322.52	14.45	
2025-01-11 03:13:56.81	322.48	14.45	
2025-01-11 03:13:57.02	322.44	14.44	
2025-01-11 03:13:57.22	322.40	14.44	
2025-01-11 03:13:57.43	322.35	14.44	
2025-01-11 03:13:57.63	322.31	14.44	
2025-01-11 03:13:57.84	322.27	14.44	
2025-01-11 03:13:58.04	322.23	14.43	
2025-01-11 03:13:58.25	322.18	14.43	
2025-01-11 03:13:58.45	322.14	14.43	
2025-01-11 03:13:58.66	322.10	14.43	
2025-01-11 03:13:58.87	322.06	14.43	
2025-01-11 03:13:59.07	322.01	14.43	
2025-01-11 03:13:59.27	321.97	14.42	
2025-01-11 03:13:59.48	321.93	14.42	
2025-01-11 03:13:59.69	321.89	14.42	
2025-01-11 03:13:59.89	321.84	14.42	
2025-01-11 03:14:00.10	321.80	14.41	
2025-01-11 03:14:00.30	321.76	14.41	
2025-01-11 03:14:00.50	321.72	14.41	
2025-01-11 03:14:00.71	321.68	14.41	
2025-01-11 03:14:00.91	321.63	14.41	
2025-01-11 03:14:01.12	321.59	14.40	
2025-01-11 03:14:01.32	321.55	14.40	
2025-01-11 03:14:01.52	321.51	14.40	
2025-01-11 03:14:01.73	321.46	14.40	
2025-01-11 03:14:01.94	321.42	14.40	
2025-01-11 03:14:02.14	321.38	14.39	
2025-01-11 03:14:02.34	321.34	14.39	
2025-01-11 03:14:02.55	321.30	14.39	
2025-01-11 03:14:02.75	321.25	14.39	
2025-01-11 03:14:02.96	321.21	14.38	
2025-01-11 03:14:03.17	321.17	14.38	
2025-01-11 03:14:03.37	321.13	14.38	
2025-01-11 03:14:03.58	321.08	14.38	
2025-01-11 03:14:03.78	321.04	14.38	
2025-01-11 03:14:03.99	321.00	14.37	
2025-01-11 03:14:04.19	320.96	14.37	
2025-01-11 03:14:04.40	320.91	14.37	
2025-01-11 03:14:04.60	320.87	14.37	
2025-01-11 03:14:04.80	320.83	14.36	
2025-01-11 03:14:05.01	320.79	14.36	
2025-01-11 03:14:05.22	320.75	14.36	
2025-01-11 03:14:05.42	320.70	14.36	
2025-01-11 03:14:05.63	320.66	14.35	
2025-01-11 03:14:05.83	320.62	14.35	
2025-01-11 03:14:06.04	320.58	14.35	
2025-01-11 03:14:06.24	320.54	14.35	
2025-01-11 03:14:06.45	320.49	14.34	
2025-01-11 03:14:06.65	320.45	14.34	
2025-01-11 03:14:06.86	320.41	14.34	
2025-01-11 03:14:07.06	320.37	14.34	
2025-01-11 03:14:07.27	320.32	14.33	
2025-01-11 03:14:07.47	320.28	14.33	
2025-01-11 03:14:07.68	320.24	14.33	
2025-01-11 03:14:07.89	320.20	14.33	
2025-01-11 03:14:08.09	320.16	14.32	
2025-01-11 03:14:08.30	320.11	14.32	
2025-01-11 03:14:08.50	320.07	14.32	
2025-01-11 03:14:08.70	320.03	14.31	
2025-01-11 03:14:08.91	319.99	14.31	
2025-01-11 03:14:09.11	319.95	14.31	
2025-01-11 03:14:09.32	319.90	14.31	
2025-01-11 03:14:09.52	319.86	14.30	
2025-01-11 03:14:09.73	319.82	14.30	
2025-01-11 03:14:09.93	319.78	14.30	
2025-01-11 03:14:10.14	319.73	14.30	
2025-01-11 03:14:10.34	319.69	14.29	
2025-01-11 03:14:10.55	319.65	14.29	
2025-01-11 03:14:10.75	319.61	14.29	
2025-01-11 03:14:10.96	319.57	14.28	
2025-01-11 03:14:11.16	319.53	14.28	
2025-01-11 03:14:11.37	319.48	14.28	
2025-01-11 03:14:11.57	319.44	14.28	
2025-01-11 03:14:11.78	319.40	14.27	
2025-01-11 03:14:11.98	319.36	14.27	
2025-01-11 03:14:12.19	319.32	14.27	
2025-01-11 03:14:12.39	319.27	14.26	
2025-01-11 03:14:12.60	319.23	14.26	
2025-01-11 03:14:12.80	319.19	14.26	
2025-01-11 03:14:13.01	319.15	14.25	
2025-01-11 03:14:13.21	319.11	14.25	
2025-01-11 03:14:13.42	319.06	14.25	
2025-01-11 03:14:13.62	319.02	14.25	
2025-01-11 03:14:13.83	318.98	14.24	
2025-01-11 03:14:14.03	318.94	14.24	
2025-01-11 03:14:14.24	318.90	14.24	
2025-01-11 03:14:14.44	318.86	14.23	
2025-01-11 03:14:14.65	318.81	14.23	
2025-01-11 03:14:14.85	318.77	14.23	
2025-01-11 03:14:15.05	318.73	14.22	
2025-01-11 03:14:15.26	318.69	14.22	
2025-01-11 03:14:15.47	318.65	14.22	
2025-01-11 03:14:15.67	318.60	14.21	
2025-01-11 03:14:15.88	318.56	14.21	
2025-01-11 03:14:16.08	318.52	14.21	
2025-01-11 03:14:16.29	318.48	14.20	
2025-01-11 03:14:16.49	318.44	14.20	
2025-01-11 03:14:16.70	318.40	14.20	
2025-01-11 03:14:16.90	318.35	14.19	
2025-01-11 03:14:17.11	318.31	14.19	
2025-01-11 03:14:17.31	318.27	14.19	
2025-01-11 03:14:17.52	318.23	14.18	
2025-01-11 03:14:17.72	318.19	14.18	
2025-01-11 03:14:17.93	318.14	14.18	
2025-01-11 03:14:18.14	318.10	14.17	
2025-01-11 03:14:18.34	318.06	14.17	
2025-01-11 03:14:18.54	318.02	14.17	
2025-01-11 03:14:18.75	317.98	14.16	
2025-01-11 03:14:18.96	317.94	14.16	
2025-01-11 03:14:19.16	317.89	14.16	
2025-01-11 03:14:19.37	317.85	14.15	
2025-01-11 03:14:19.57	317.81	14.15	
2025-01-11 03:14:19.78	317.77	14.15	
2025-01-11 03:14:19.98	317.73	14.14	
2025-01-11 03:14:20.19	317.69	14.14	
2025-01-11 03:14:20.39	317.65	14.14	
2025-01-11 03:14:20.60	317.60	14.13	
2025-01-11 03:14:20.81	317.56	14.13	
2025-01-11 03:14:21.01	317.52	14.12	
2025-01-11 03:14:21.22	317.48	14.12	
2025-01-11 03:14:21.42	317.44	14.12	
2025-01-11 03:14:21.63	317.39	14.11	
2025-01-11 03:14:21.83	317.35	14.11	
