passes_logs/2025/01/11/SPB_Silybum_02/SPB_Silybum_02__20250111_163714_TERRA_rec.log

#Pass ID: 20250111_163714_TERRA
#Satellite: TERRA
#Configuration: TERRA
#Start time: 2025-01-11 16:37:14

#Version: 2.0.20230423
#Station: SPB_Silybum_02
#Location: 30.233357 lon 59.946436 lat
#TLE: 1 25994U 99068A   25010.80464720  .00000833  00000+0  18136-3 0  9995
#TLE: 2 25994  98.0224  73.9683 0003536  80.9361 344.1935 14.60387279333461

#Time	Az	El	Level	Level2	SNR	BER	Gain	Gain2
2025-01-11 16:37:16.30	102.20	4.11	
2025-01-11 16:37:16.50	102.18	4.12	
2025-01-11 16:37:16.71	102.16	4.13	
2025-01-11 16:37:16.91	102.14	4.14	
2025-01-11 16:37:17.12	102.12	4.15	
2025-01-11 16:37:17.33	102.10	4.17	
2025-01-11 16:37:17.53	102.09	4.18	
2025-01-11 16:37:17.74	102.07	4.19	
2025-01-11 16:37:17.94	102.05	4.20	
2025-01-11 16:37:18.15	102.03	4.22	
2025-01-11 16:37:18.35	102.01	4.23	
2025-01-11 16:37:18.56	101.99	4.24	
2025-01-11 16:37:18.76	101.97	4.25	
2025-01-11 16:37:18.96	101.95	4.26	
2025-01-11 16:37:19.17	101.93	4.28	
2025-01-11 16:37:19.38	101.91	4.29	
2025-01-11 16:37:19.58	101.89	4.30	
2025-01-11 16:37:19.79	101.87	4.31	
2025-01-11 16:37:19.99	101.85	4.33	
2025-01-11 16:37:20.20	101.83	4.34	
2025-01-11 16:37:20.40	101.81	4.35	
2025-01-11 16:37:20.61	101.79	4.36	
2025-01-11 16:37:20.81	101.78	4.38	
2025-01-11 16:37:21.02	101.76	4.39	
2025-01-11 16:37:21.22	101.74	4.40	
2025-01-11 16:37:21.43	101.72	4.41	
2025-01-11 16:37:21.63	101.70	4.42	
2025-01-11 16:37:21.84	101.68	4.44	
2025-01-11 16:37:22.05	101.66	4.45	
2025-01-11 16:37:22.25	101.64	4.46	
2025-01-11 16:37:22.45	101.62	4.47	
2025-01-11 16:37:22.66	101.60	4.49	
2025-01-11 16:37:22.86	101.58	4.50	
2025-01-11 16:37:23.07	101.56	4.51	
2025-01-11 16:37:23.27	101.54	4.52	
2025-01-11 16:37:23.48	101.52	4.54	
2025-01-11 16:37:23.68	101.50	4.55	
2025-01-11 16:37:23.89	101.48	4.56	
2025-01-11 16:37:24.09	101.46	4.57	
2025-01-11 16:37:24.30	101.44	4.59	
2025-01-11 16:37:24.50	101.42	4.60	
2025-01-11 16:37:24.71	101.40	4.61	
2025-01-11 16:37:24.91	101.38	4.62	
2025-01-11 16:37:25.12	101.36	4.63	
2025-01-11 16:37:25.32	101.34	4.65	
2025-01-11 16:37:25.53	101.32	4.66	
2025-01-11 16:37:25.73	101.30	4.67	
2025-01-11 16:37:25.94	101.28	4.68	
2025-01-11 16:37:26.14	101.26	4.70	
2025-01-11 16:37:26.35	101.24	4.71	
2025-01-11 16:37:26.55	101.22	4.72	
2025-01-11 16:37:26.76	101.20	4.73	
2025-01-11 16:37:26.96	101.18	4.75	
2025-01-11 16:37:27.17	101.16	4.76	
2025-01-11 16:37:27.37	101.14	4.77	
2025-01-11 16:37:27.58	101.12	4.78	
2025-01-11 16:37:27.78	101.10	4.80	
2025-01-11 16:37:27.99	101.08	4.81	
2025-01-11 16:37:28.19	101.06	4.82	
2025-01-11 16:37:28.40	101.04	4.83	
2025-01-11 16:37:28.60	101.02	4.85	
2025-01-11 16:37:28.81	101.00	4.86	
2025-01-11 16:37:29.01	100.98	4.87	
2025-01-11 16:37:29.22	100.96	4.88	
2025-01-11 16:37:29.43	100.94	4.90	
2025-01-11 16:37:29.63	100.92	4.91	
2025-01-11 16:37:29.84	100.90	4.92	
2025-01-11 16:37:30.04	100.88	4.93	
2025-01-11 16:37:30.25	100.86	4.95	
2025-01-11 16:37:30.45	100.84	4.96	
2025-01-11 16:37:30.66	100.81	4.97	
2025-01-11 16:37:30.86	100.79	4.98	
2025-01-11 16:37:31.06	100.77	4.99	
2025-01-11 16:37:31.27	100.75	5.01	
2025-01-11 16:37:31.48	100.73	5.02	
2025-01-11 16:37:31.68	100.71	5.03	
2025-01-11 16:37:31.88	100.69	5.04	
2025-01-11 16:37:32.09	100.67	5.06	
2025-01-11 16:37:32.29	100.65	5.07	
2025-01-11 16:37:32.50	100.63	5.08	
2025-01-11 16:37:32.71	100.61	5.10	
2025-01-11 16:37:32.92	100.59	5.11	
2025-01-11 16:37:33.13	100.57	5.12	
2025-01-11 16:37:33.33	100.55	5.13	
2025-01-11 16:37:33.54	100.53	5.15	
2025-01-11 16:37:33.75	100.50	5.16	
2025-01-11 16:37:33.95	100.48	5.17	
2025-01-11 16:37:34.15	100.46	5.18	
2025-01-11 16:37:34.36	100.44	5.20	
2025-01-11 16:37:34.56	100.42	5.21	
2025-01-11 16:37:34.77	100.40	5.22	
2025-01-11 16:37:34.97	100.38	5.23	
2025-01-11 16:37:35.18	100.36	5.25	
2025-01-11 16:37:35.38	100.34	5.26	
2025-01-11 16:37:35.59	100.32	5.27	
2025-01-11 16:37:35.80	100.30	5.28	
2025-01-11 16:37:36.00	100.28	5.30	
2025-01-11 16:37:36.21	100.25	5.31	
2025-01-11 16:37:36.41	100.23	5.32	
2025-01-11 16:37:36.62	100.21	5.33	
2025-01-11 16:37:36.83	100.19	5.35	
2025-01-11 16:37:37.04	100.17	5.36	
2025-01-11 16:37:37.24	100.15	5.37	
2025-01-11 16:37:37.45	100.13	5.38	
2025-01-11 16:37:37.65	100.11	5.40	
2025-01-11 16:37:37.86	100.08	5.41	
2025-01-11 16:37:38.06	100.06	5.42	
2025-01-11 16:37:38.27	100.04	5.44	
2025-01-11 16:37:38.47	100.02	5.45	
2025-01-11 16:37:38.68	100.00	5.46	
2025-01-11 16:37:38.88	99.98	5.47	
2025-01-11 16:37:39.09	99.96	5.49	
2025-01-11 16:37:39.29	99.94	5.50	
2025-01-11 16:37:39.50	99.91	5.51	
2025-01-11 16:37:39.71	99.89	5.52	
2025-01-11 16:37:39.91	99.87	5.54	
2025-01-11 16:37:40.12	99.85	5.55	
2025-01-11 16:37:40.32	99.83	5.56	
2025-01-11 16:37:40.52	99.81	5.57	
2025-01-11 16:37:40.73	99.79	5.59	
2025-01-11 16:37:40.94	99.76	5.60	
2025-01-11 16:37:41.14	99.74	5.61	
2025-01-11 16:37:41.35	99.72	5.62	
2025-01-11 16:37:41.55	99.70	5.64	
2025-01-11 16:37:41.76	99.68	5.65	
2025-01-11 16:37:41.96	99.66	5.66	
2025-01-11 16:37:42.17	99.63	5.67	
2025-01-11 16:37:42.37	99.61	5.69	
2025-01-11 16:37:42.58	99.59	5.70	
2025-01-11 16:37:42.78	99.57	5.71	
2025-01-11 16:37:42.99	99.55	5.73	
2025-01-11 16:37:43.19	99.53	5.74	
2025-01-11 16:37:43.40	99.50	5.75	
2025-01-11 16:37:43.60	99.48	5.76	
2025-01-11 16:37:43.81	99.46	5.78	
2025-01-11 16:37:44.02	99.44	5.79	
2025-01-11 16:37:44.22	99.42	5.80	
2025-01-11 16:37:44.43	99.40	5.81	
2025-01-11 16:37:44.63	99.37	5.83	
2025-01-11 16:37:44.83	99.35	5.84	
2025-01-11 16:37:45.04	99.33	5.85	
2025-01-11 16:37:45.24	99.31	5.86	
2025-01-11 16:37:45.45	99.29	5.88	
2025-01-11 16:37:45.65	99.27	5.89	
2025-01-11 16:37:45.86	99.24	5.90	
2025-01-11 16:37:46.07	99.22	5.92	
2025-01-11 16:37:46.27	99.20	5.93	
2025-01-11 16:37:46.48	99.18	5.94	
2025-01-11 16:37:46.68	99.15	5.95	
2025-01-11 16:37:46.89	99.13	5.97	
2025-01-11 16:37:47.09	99.11	5.98	
2025-01-11 16:37:47.30	99.09	5.99	
2025-01-11 16:37:47.50	99.07	6.00	
2025-01-11 16:37:47.71	99.04	6.02	
2025-01-11 16:37:47.91	99.02	6.03	
2025-01-11 16:37:48.12	99.00	6.04	
2025-01-11 16:37:48.33	98.98	6.06	
2025-01-11 16:37:48.53	98.96	6.07	
2025-01-11 16:37:48.74	98.93	6.08	
2025-01-11 16:37:48.94	98.91	6.09	
2025-01-11 16:37:49.15	98.89	6.11	
2025-01-11 16:37:49.35	98.87	6.12	
2025-01-11 16:37:49.56	98.84	6.13	
2025-01-11 16:37:49.76	98.82	6.15	
2025-01-11 16:37:49.97	98.80	6.16	
2025-01-11 16:37:50.17	98.78	6.17	
2025-01-11 16:37:50.38	98.75	6.18	
2025-01-11 16:37:50.58	98.73	6.20	
2025-01-11 16:37:50.79	98.71	6.21	
2025-01-11 16:37:50.99	98.69	6.22	
2025-01-11 16:37:51.20	98.66	6.23	
2025-01-11 16:37:51.40	98.64	6.25	
2025-01-11 16:37:51.61	98.62	6.26	
2025-01-11 16:37:51.81	98.60	6.27	
2025-01-11 16:37:52.01	98.57	6.29	
2025-01-11 16:37:52.22	98.55	6.30	
2025-01-11 16:37:52.42	98.53	6.31	
2025-01-11 16:37:52.63	98.51	6.32	
2025-01-11 16:37:52.83	98.48	6.34	
2025-01-11 16:37:53.04	98.46	6.35	
2025-01-11 16:37:53.24	98.44	6.36	
2025-01-11 16:37:53.45	98.41	6.38	
2025-01-11 16:37:53.65	98.39	6.39	
2025-01-11 16:37:53.86	98.37	6.40	
2025-01-11 16:37:54.07	98.35	6.41	
2025-01-11 16:37:54.27	98.32	6.43	
2025-01-11 16:37:54.47	98.30	6.44	
2025-01-11 16:37:54.68	98.28	6.45	
2025-01-11 16:37:54.89	98.25	6.47	
2025-01-11 16:37:55.09	98.23	6.48	
2025-01-11 16:37:55.29	98.21	6.49	
2025-01-11 16:37:55.50	98.19	6.50	
2025-01-11 16:37:55.70	98.16	6.52	
2025-01-11 16:37:55.91	98.14	6.53	
2025-01-11 16:37:56.11	98.12	6.54	
2025-01-11 16:37:56.32	98.09	6.55	
2025-01-11 16:37:56.52	98.07	6.57	
2025-01-11 16:37:56.73	98.05	6.58	
2025-01-11 16:37:56.93	98.03	6.59	
2025-01-11 16:37:57.14	98.00	6.61	
2025-01-11 16:37:57.34	97.98	6.62	
2025-01-11 16:37:57.55	97.96	6.63	
2025-01-11 16:37:57.75	97.93	6.64	
2025-01-11 16:37:57.96	97.91	6.66	
2025-01-11 16:37:58.16	97.89	6.67	
2025-01-11 16:37:58.37	97.86	6.68	
2025-01-11 16:37:58.57	97.84	6.70	
2025-01-11 16:37:58.78	97.82	6.71	
2025-01-11 16:37:58.99	97.79	6.72	
2025-01-11 16:37:59.19	97.77	6.74	
2025-01-11 16:37:59.40	97.74	6.75	
2025-01-11 16:37:59.60	97.72	6.76	
2025-01-11 16:37:59.81	97.70	6.77	
2025-01-11 16:38:00.01	97.67	6.79	
2025-01-11 16:38:00.22	97.65	6.80	
2025-01-11 16:38:00.43	97.63	6.81	
2025-01-11 16:38:00.63	97.60	6.83	
2025-01-11 16:38:00.84	97.58	6.84	
2025-01-11 16:38:01.04	97.56	6.85	
2025-01-11 16:38:01.24	97.53	6.86	
2025-01-11 16:38:01.45	97.51	6.88	
2025-01-11 16:38:01.65	97.49	6.89	
2025-01-11 16:38:01.86	97.46	6.90	
2025-01-11 16:38:02.07	97.44	6.92	
2025-01-11 16:38:02.27	97.41	6.93	
2025-01-11 16:38:02.48	97.39	6.94	
2025-01-11 16:38:02.69	97.37	6.96	
2025-01-11 16:38:02.90	97.34	6.97	
2025-01-11 16:38:03.10	97.32	6.98	
2025-01-11 16:38:03.31	97.29	6.99	
2025-01-11 16:38:03.51	97.27	7.01	
2025-01-11 16:38:03.72	97.25	7.02	
2025-01-11 16:38:03.93	97.22	7.03	
2025-01-11 16:38:04.13	97.20	7.05	
2025-01-11 16:38:04.34	97.17	7.06	
2025-01-11 16:38:04.54	97.15	7.07	
2025-01-11 16:38:04.75	97.13	7.09	
2025-01-11 16:38:04.95	97.10	7.10	
2025-01-11 16:38:05.16	97.08	7.11	
2025-01-11 16:38:05.37	97.05	7.13	
2025-01-11 16:38:05.57	97.03	7.14	
2025-01-11 16:38:05.78	97.00	7.15	
2025-01-11 16:38:05.99	96.98	7.16	
2025-01-11 16:38:06.20	96.95	7.18	
2025-01-11 16:38:06.40	96.93	7.19	
2025-01-11 16:38:06.61	96.91	7.20	
2025-01-11 16:38:06.82	96.88	7.22	
2025-01-11 16:38:07.02	96.86	7.23	
2025-01-11 16:38:07.22	96.83	7.24	
2025-01-11 16:38:07.43	96.81	7.26	
2025-01-11 16:38:07.64	96.78	7.27	
2025-01-11 16:38:07.84	96.76	7.28	
2025-01-11 16:38:08.04	96.74	7.29	
2025-01-11 16:38:08.25	96.71	7.31	
2025-01-11 16:38:08.45	96.69	7.32	
2025-01-11 16:38:08.66	96.66	7.33	
2025-01-11 16:38:08.86	96.64	7.35	
2025-01-11 16:38:09.07	96.61	7.36	
2025-01-11 16:38:09.27	96.59	7.37	
2025-01-11 16:38:09.48	96.56	7.39	
2025-01-11 16:38:09.68	96.54	7.40	
2025-01-11 16:38:09.89	96.52	7.41	
2025-01-11 16:38:10.09	96.49	7.42	
2025-01-11 16:38:10.29	96.47	7.44	
2025-01-11 16:38:10.50	96.44	7.45	
2025-01-11 16:38:10.71	96.42	7.46	
2025-01-11 16:38:10.91	96.39	7.48	
2025-01-11 16:38:11.12	96.37	7.49	
2025-01-11 16:38:11.32	96.34	7.50	
2025-01-11 16:38:11.53	96.32	7.52	
2025-01-11 16:38:11.73	96.29	7.53	
2025-01-11 16:38:11.94	96.27	7.54	
2025-01-11 16:38:12.14	96.24	7.56	
2025-01-11 16:38:12.35	96.22	7.57	
2025-01-11 16:38:12.55	96.19	7.58	
2025-01-11 16:38:12.76	96.17	7.59	
2025-01-11 16:38:12.96	96.14	7.61	
2025-01-11 16:38:13.17	96.12	7.62	
2025-01-11 16:38:13.37	96.09	7.63	
2025-01-11 16:38:13.58	96.07	7.65	
2025-01-11 16:38:13.78	96.04	7.66	
2025-01-11 16:38:13.99	96.02	7.67	
2025-01-11 16:38:14.20	95.99	7.69	
2025-01-11 16:38:14.40	95.97	7.70	
2025-01-11 16:38:14.61	95.94	7.71	
2025-01-11 16:38:14.81	95.92	7.73	
2025-01-11 16:38:15.02	95.89	7.74	
2025-01-11 16:38:15.22	95.87	7.75	
2025-01-11 16:38:15.42	95.84	7.76	
2025-01-11 16:38:15.63	95.82	7.78	
2025-01-11 16:38:15.83	95.79	7.79	
2025-01-11 16:38:16.03	95.77	7.80	
2025-01-11 16:38:16.24	95.74	7.82	
2025-01-11 16:38:16.44	95.72	7.83	
2025-01-11 16:38:16.65	95.69	7.84	
2025-01-11 16:38:16.85	95.66	7.86	
2025-01-11 16:38:17.06	95.64	7.87	
2025-01-11 16:38:17.26	95.61	7.88	
2025-01-11 16:38:17.47	95.59	7.90	
2025-01-11 16:38:17.69	95.56	7.91	
2025-01-11 16:38:17.89	95.53	7.92	
2025-01-11 16:38:18.10	95.51	7.94	
2025-01-11 16:38:18.30	95.48	7.95	
2025-01-11 16:38:18.51	95.46	7.96	
2025-01-11 16:38:18.73	95.43	7.98	
2025-01-11 16:38:18.93	95.40	7.99	
2025-01-11 16:38:19.14	95.38	8.00	
2025-01-11 16:38:19.34	95.35	8.02	
2025-01-11 16:38:19.55	95.33	8.03	
2025-01-11 16:38:19.75	95.30	8.04	
2025-01-11 16:38:19.96	95.28	8.06	
2025-01-11 16:38:20.16	95.25	8.07	
2025-01-11 16:38:20.37	95.22	8.08	
2025-01-11 16:38:20.57	95.20	8.10	
2025-01-11 16:38:20.78	95.17	8.11	
2025-01-11 16:38:20.98	95.15	8.12	
2025-01-11 16:38:21.19	95.12	8.14	
2025-01-11 16:38:21.40	95.09	8.15	
2025-01-11 16:38:21.60	95.07	8.16	
2025-01-11 16:38:21.81	95.04	8.17	
2025-01-11 16:38:22.01	95.02	8.19	
2025-01-11 16:38:22.21	94.99	8.20	
2025-01-11 16:38:22.42	94.96	8.21	
2025-01-11 16:38:22.63	94.94	8.23	
2025-01-11 16:38:22.83	94.91	8.24	
2025-01-11 16:38:23.03	94.88	8.25	
2025-01-11 16:38:23.24	94.86	8.27	
2025-01-11 16:38:23.44	94.83	8.28	
2025-01-11 16:38:23.65	94.81	8.29	
2025-01-11 16:38:23.85	94.78	8.31	
2025-01-11 16:38:24.06	94.75	8.32	
2025-01-11 16:38:24.26	94.73	8.33	
2025-01-11 16:38:24.47	94.70	8.35	
2025-01-11 16:38:24.68	94.67	8.36	
2025-01-11 16:38:24.88	94.65	8.37	
2025-01-11 16:38:25.08	94.62	8.39	
2025-01-11 16:38:25.29	94.59	8.40	
2025-01-11 16:38:25.50	94.57	8.41	
2025-01-11 16:38:25.70	94.54	8.43	
2025-01-11 16:38:25.91	94.51	8.44	
2025-01-11 16:38:26.11	94.49	8.45	
2025-01-11 16:38:26.32	94.46	8.47	
2025-01-11 16:38:26.52	94.43	8.48	
2025-01-11 16:38:26.73	94.41	8.49	
2025-01-11 16:38:26.93	94.38	8.51	
2025-01-11 16:38:27.14	94.35	8.52	
2025-01-11 16:38:27.35	94.33	8.53	
2025-01-11 16:38:27.56	94.30	8.55	
2025-01-11 16:38:27.77	94.27	8.56	
2025-01-11 16:38:27.97	94.24	8.57	
2025-01-11 16:38:28.18	94.22	8.59	
2025-01-11 16:38:28.38	94.19	8.60	
2025-01-11 16:38:28.59	94.16	8.61	
2025-01-11 16:38:28.79	94.14	8.63	
2025-01-11 16:38:29.00	94.11	8.64	
2025-01-11 16:38:29.20	94.08	8.65	
2025-01-11 16:38:29.41	94.05	8.67	
2025-01-11 16:38:29.61	94.03	8.68	
2025-01-11 16:38:29.82	94.00	8.69	
2025-01-11 16:38:30.02	93.97	8.71	
2025-01-11 16:38:30.23	93.95	8.72	
2025-01-11 16:38:30.43	93.92	8.73	
2025-01-11 16:38:30.64	93.89	8.75	
2025-01-11 16:38:30.84	93.87	8.76	
2025-01-11 16:38:31.05	93.84	8.77	
2025-01-11 16:38:31.25	93.81	8.78	
2025-01-11 16:38:31.46	93.78	8.80	
2025-01-11 16:38:31.66	93.76	8.81	
2025-01-11 16:38:31.87	93.73	8.82	
2025-01-11 16:38:32.07	93.70	8.84	
2025-01-11 16:38:32.28	93.67	8.85	
2025-01-11 16:38:32.49	93.64	8.87	
2025-01-11 16:38:32.69	93.62	8.88	
2025-01-11 16:38:32.89	93.59	8.89	
2025-01-11 16:38:33.10	93.56	8.90	
2025-01-11 16:38:33.31	93.53	8.92	
2025-01-11 16:38:33.51	93.51	8.93	
2025-01-11 16:38:33.71	93.48	8.94	
2025-01-11 16:38:33.92	93.45	8.96	
2025-01-11 16:38:34.13	93.42	8.97	
2025-01-11 16:38:34.33	93.40	8.98	
2025-01-11 16:38:34.54	93.37	9.00	
2025-01-11 16:38:34.74	93.34	9.01	
2025-01-11 16:38:34.95	93.31	9.02	
2025-01-11 16:38:35.15	93.29	9.04	
2025-01-11 16:38:35.36	93.26	9.05	
2025-01-11 16:38:35.56	93.23	9.06	
2025-01-11 16:38:35.77	93.20	9.08	
2025-01-11 16:38:35.97	93.17	9.09	
2025-01-11 16:38:36.18	93.15	9.10	
2025-01-11 16:38:36.38	93.12	9.12	
2025-01-11 16:38:36.59	93.09	9.13	
2025-01-11 16:38:36.79	93.06	9.14	
2025-01-11 16:38:37.01	93.03	9.16	
2025-01-11 16:38:37.21	93.00	9.17	
2025-01-11 16:38:37.42	92.98	9.19	
2025-01-11 16:38:37.62	92.95	9.20	
2025-01-11 16:38:37.83	92.92	9.21	
2025-01-11 16:38:38.03	92.89	9.23	
2025-01-11 16:38:38.24	92.86	9.24	
2025-01-11 16:38:38.44	92.83	9.25	
2025-01-11 16:38:38.65	92.81	9.27	
2025-01-11 16:38:38.85	92.78	9.28	
2025-01-11 16:38:39.06	92.75	9.29	
2025-01-11 16:38:39.26	92.72	9.31	
2025-01-11 16:38:39.47	92.69	9.32	
2025-01-11 16:38:39.67	92.66	9.33	
2025-01-11 16:38:39.88	92.64	9.35	
2025-01-11 16:38:40.08	92.61	9.36	
2025-01-11 16:38:40.29	92.58	9.37	
2025-01-11 16:38:40.49	92.55	9.39	
2025-01-11 16:38:40.70	92.52	9.40	
2025-01-11 16:38:40.90	92.49	9.41	
2025-01-11 16:38:41.10	92.46	9.43	
2025-01-11 16:38:41.31	92.44	9.44	
2025-01-11 16:38:41.52	92.41	9.45	
2025-01-11 16:38:41.72	92.38	9.47	
2025-01-11 16:38:41.93	92.35	9.48	
2025-01-11 16:38:42.13	92.32	9.49	
2025-01-11 16:38:42.34	92.29	9.51	
2025-01-11 16:38:42.54	92.26	9.52	
2025-01-11 16:38:42.75	92.23	9.53	
2025-01-11 16:38:42.95	92.20	9.55	
2025-01-11 16:38:43.16	92.18	9.56	
2025-01-11 16:38:43.38	92.14	9.57	
2025-01-11 16:38:43.58	92.12	9.59	
2025-01-11 16:38:43.79	92.09	9.60	
2025-01-11 16:38:43.99	92.06	9.61	
2025-01-11 16:38:44.20	92.03	9.63	
2025-01-11 16:38:44.40	92.00	9.64	
2025-01-11 16:38:44.61	91.97	9.65	
2025-01-11 16:38:44.81	91.94	9.67	
2025-01-11 16:38:45.02	91.91	9.68	
2025-01-11 16:38:45.22	91.88	9.69	
2025-01-11 16:38:45.43	91.85	9.71	
2025-01-11 16:38:45.63	91.82	9.72	
2025-01-11 16:38:45.84	91.79	9.74	
2025-01-11 16:38:46.04	91.77	9.75	
2025-01-11 16:38:46.25	91.74	9.76	
2025-01-11 16:38:46.45	91.71	9.77	
2025-01-11 16:38:46.66	91.68	9.79	
2025-01-11 16:38:46.86	91.65	9.80	
2025-01-11 16:38:47.07	91.62	9.82	
2025-01-11 16:38:47.27	91.59	9.83	
2025-01-11 16:38:47.48	91.56	9.84	
2025-01-11 16:38:47.68	91.53	9.86	
2025-01-11 16:38:47.89	91.50	9.87	
2025-01-11 16:38:48.09	91.47	9.88	
2025-01-11 16:38:48.30	91.44	9.90	
2025-01-11 16:38:48.50	91.41	9.91	
2025-01-11 16:38:48.72	91.38	9.92	
2025-01-11 16:38:48.92	91.35	9.94	
2025-01-11 16:38:49.13	91.32	9.95	
2025-01-11 16:38:49.33	91.29	9.96	
2025-01-11 16:38:49.53	91.26	9.98	
2025-01-11 16:38:49.74	91.23	9.99	
2025-01-11 16:38:49.94	91.20	10.00	
2025-01-11 16:38:50.15	91.17	10.02	
2025-01-11 16:38:50.35	91.14	10.03	
2025-01-11 16:38:50.55	91.11	10.04	
2025-01-11 16:38:50.75	91.08	10.06	
2025-01-11 16:38:50.96	91.05	10.07	
2025-01-11 16:38:51.16	91.02	10.08	
2025-01-11 16:38:51.37	90.99	10.10	
2025-01-11 16:38:51.57	90.96	10.11	
2025-01-11 16:38:51.78	90.93	10.12	
2025-01-11 16:38:51.98	90.90	10.14	
2025-01-11 16:38:52.19	90.87	10.15	
2025-01-11 16:38:52.39	90.84	10.16	
2025-01-11 16:38:52.60	90.81	10.18	
2025-01-11 16:38:52.80	90.78	10.19	
2025-01-11 16:38:53.02	90.75	10.21	
2025-01-11 16:38:53.23	90.72	10.22	
2025-01-11 16:38:53.43	90.69	10.23	
2025-01-11 16:38:53.64	90.66	10.25	
2025-01-11 16:38:53.84	90.63	10.26	
2025-01-11 16:38:54.05	90.59	10.27	
2025-01-11 16:38:54.25	90.56	10.29	
2025-01-11 16:38:54.46	90.53	10.30	
2025-01-11 16:38:54.66	90.50	10.31	
2025-01-11 16:38:54.87	90.47	10.33	
2025-01-11 16:38:55.07	90.44	10.34	
2025-01-11 16:38:55.28	90.41	10.35	
2025-01-11 16:38:55.48	90.38	10.37	
2025-01-11 16:38:55.69	90.35	10.38	
2025-01-11 16:38:55.89	90.32	10.39	
2025-01-11 16:38:56.10	90.29	10.41	
2025-01-11 16:38:56.30	90.26	10.42	
2025-01-11 16:38:56.51	90.22	10.43	
2025-01-11 16:38:56.72	90.19	10.45	
2025-01-11 16:38:56.92	90.16	10.46	
2025-01-11 16:38:57.13	90.13	10.47	
2025-01-11 16:38:57.33	90.10	10.49	
2025-01-11 16:38:57.54	90.07	10.50	
2025-01-11 16:38:57.74	90.04	10.51	
2025-01-11 16:38:57.95	90.01	10.53	
2025-01-11 16:38:58.15	89.98	10.54	
2025-01-11 16:38:58.36	89.94	10.56	
2025-01-11 16:38:58.56	89.91	10.57	
2025-01-11 16:38:58.77	89.88	10.58	
2025-01-11 16:38:58.97	89.85	10.60	
2025-01-11 16:38:59.18	89.82	10.61	
2025-01-11 16:38:59.38	89.79	10.62	
2025-01-11 16:38:59.59	89.76	10.64	
2025-01-11 16:38:59.79	89.73	10.65	
2025-01-11 16:38:59.99	89.70	10.66	
2025-01-11 16:39:00.20	89.66	10.68	
2025-01-11 16:39:00.40	89.63	10.69	
2025-01-11 16:39:00.61	89.60	10.70	
2025-01-11 16:39:00.81	89.57	10.72	
2025-01-11 16:39:01.02	89.54	10.73	
2025-01-11 16:39:01.22	89.51	10.74	
2025-01-11 16:39:01.42	89.48	10.76	
2025-01-11 16:39:01.63	89.44	10.77	
2025-01-11 16:39:01.83	89.41	10.78	
2025-01-11 16:39:02.04	89.38	10.80	
2025-01-11 16:39:02.24	89.35	10.81	
2025-01-11 16:39:02.45	89.32	10.82	
2025-01-11 16:39:02.65	89.28	10.84	
2025-01-11 16:39:02.86	89.25	10.85	
2025-01-11 16:39:03.06	89.22	10.86	
2025-01-11 16:39:03.27	89.19	10.88	
2025-01-11 16:39:03.47	89.16	10.89	
2025-01-11 16:39:03.69	89.12	10.91	
2025-01-11 16:39:03.90	89.09	10.92	
2025-01-11 16:39:04.10	89.06	10.93	
2025-01-11 16:39:04.31	89.03	10.95	
2025-01-11 16:39:04.51	88.99	10.96	
2025-01-11 16:39:04.71	88.96	10.97	
2025-01-11 16:39:04.92	88.93	10.99	
2025-01-11 16:39:05.13	88.90	11.00	
2025-01-11 16:39:05.33	88.86	11.01	
2025-01-11 16:39:05.54	88.83	11.03	
2025-01-11 16:39:05.74	88.80	11.04	
2025-01-11 16:39:05.95	88.77	11.05	
2025-01-11 16:39:06.15	88.74	11.07	
2025-01-11 16:39:06.36	88.70	11.08	
2025-01-11 16:39:06.56	88.67	11.09	
2025-01-11 16:39:06.77	88.64	11.11	
2025-01-11 16:39:06.97	88.61	11.12	
2025-01-11 16:39:07.18	88.57	11.13	
2025-01-11 16:39:07.38	88.54	11.15	
2025-01-11 16:39:07.59	88.51	11.16	
2025-01-11 16:39:07.79	88.47	11.17	
2025-01-11 16:39:08.00	88.44	11.19	
2025-01-11 16:39:08.20	88.41	11.20	
2025-01-11 16:39:08.41	88.38	11.22	
2025-01-11 16:39:08.61	88.34	11.23	
2025-01-11 16:39:08.82	88.31	11.24	
2025-01-11 16:39:09.02	88.28	11.26	
2025-01-11 16:39:09.23	88.24	11.27	
2025-01-11 16:39:09.43	88.21	11.28	
2025-01-11 16:39:09.64	88.18	11.30	
2025-01-11 16:39:09.85	88.14	11.31	
2025-01-11 16:39:10.05	88.11	11.32	
2025-01-11 16:39:10.25	88.08	11.34	
2025-01-11 16:39:10.46	88.05	11.35	
2025-01-11 16:39:10.66	88.01	11.36	
2025-01-11 16:39:10.87	87.98	11.38	
2025-01-11 16:39:11.08	87.95	11.39	
2025-01-11 16:39:11.28	87.91	11.40	
2025-01-11 16:39:11.48	87.88	11.42	
2025-01-11 16:39:11.69	87.85	11.43	
2025-01-11 16:39:11.90	87.81	11.44	
2025-01-11 16:39:12.10	87.78	11.46	
2025-01-11 16:39:12.31	87.75	11.47	
2025-01-11 16:39:12.51	87.71	11.48	
2025-01-11 16:39:12.72	87.68	11.50	
2025-01-11 16:39:12.92	87.65	11.51	
2025-01-11 16:39:13.13	87.61	11.53	
2025-01-11 16:39:13.33	87.58	11.54	
2025-01-11 16:39:13.54	87.54	11.55	
2025-01-11 16:39:13.75	87.51	11.57	
2025-01-11 16:39:13.95	87.48	11.58	
2025-01-11 16:39:14.16	87.44	11.59	
2025-01-11 16:39:14.36	87.41	11.61	
2025-01-11 16:39:14.57	87.38	11.62	
2025-01-11 16:39:14.77	87.34	11.63	
2025-01-11 16:39:14.98	87.31	11.65	
2025-01-11 16:39:15.18	87.27	11.66	
2025-01-11 16:39:15.38	87.24	11.67	
2025-01-11 16:39:15.59	87.21	11.69	
2025-01-11 16:39:15.79	87.17	11.70	
2025-01-11 16:39:16.00	87.14	11.71	
2025-01-11 16:39:16.20	87.11	11.73	
2025-01-11 16:39:16.41	87.07	11.74	
2025-01-11 16:39:16.61	87.04	11.75	
2025-01-11 16:39:16.82	87.00	11.77	
2025-01-11 16:39:17.02	86.97	11.78	
2025-01-11 16:39:17.23	86.93	11.79	
2025-01-11 16:39:17.44	86.90	11.81	
2025-01-11 16:39:17.65	86.86	11.82	
2025-01-11 16:39:17.86	86.83	11.83	
2025-01-11 16:39:18.06	86.80	11.85	
2025-01-11 16:39:18.27	86.76	11.86	
2025-01-11 16:39:18.47	86.73	11.87	
2025-01-11 16:39:18.68	86.69	11.89	
2025-01-11 16:39:18.88	86.66	11.90	
2025-01-11 16:39:19.09	86.62	11.92	
2025-01-11 16:39:19.29	86.59	11.93	
2025-01-11 16:39:19.50	86.55	11.94	
2025-01-11 16:39:19.70	86.52	11.96	
2025-01-11 16:39:19.91	86.48	11.97	
2025-01-11 16:39:20.11	86.45	11.98	
2025-01-11 16:39:20.32	86.41	12.00	
2025-01-11 16:39:20.52	86.38	12.01	
2025-01-11 16:39:20.73	86.35	12.02	
2025-01-11 16:39:20.93	86.31	12.04	
2025-01-11 16:39:21.14	86.28	12.05	
2025-01-11 16:39:21.34	86.24	12.06	
2025-01-11 16:39:21.55	86.21	12.08	
2025-01-11 16:39:21.75	86.17	12.09	
2025-01-11 16:39:21.96	86.14	12.10	
2025-01-11 16:39:22.16	86.10	12.12	
2025-01-11 16:39:22.37	86.07	12.13	
2025-01-11 16:39:22.57	86.03	12.14	
2025-01-11 16:39:22.78	86.00	12.16	
2025-01-11 16:39:23.00	85.96	12.17	
2025-01-11 16:39:23.20	85.92	12.18	
2025-01-11 16:39:23.41	85.89	12.20	
2025-01-11 16:39:23.61	85.85	12.21	
2025-01-11 16:39:23.82	85.82	12.22	
2025-01-11 16:39:24.02	85.78	12.24	
2025-01-11 16:39:24.23	85.75	12.25	
2025-01-11 16:39:24.43	85.71	12.26	
2025-01-11 16:39:24.64	85.67	12.28	
2025-01-11 16:39:24.85	85.64	12.29	
2025-01-11 16:39:25.06	85.60	12.31	
2025-01-11 16:39:25.27	85.57	12.32	
2025-01-11 16:39:25.47	85.53	12.33	
2025-01-11 16:39:25.68	85.49	12.35	
2025-01-11 16:39:25.89	85.46	12.36	
2025-01-11 16:39:26.09	85.42	12.37	
2025-01-11 16:39:26.29	85.39	12.39	
2025-01-11 16:39:26.50	85.35	12.40	
2025-01-11 16:39:26.71	85.31	12.41	
2025-01-11 16:39:26.91	85.28	12.43	
2025-01-11 16:39:27.12	85.24	12.44	
2025-01-11 16:39:27.32	85.21	12.45	
2025-01-11 16:39:27.53	85.17	12.47	
2025-01-11 16:39:27.73	85.14	12.48	
2025-01-11 16:39:27.94	85.10	12.49	
2025-01-11 16:39:28.14	85.06	12.51	
2025-01-11 16:39:28.36	85.03	12.52	
2025-01-11 16:39:28.57	84.99	12.53	
2025-01-11 16:39:28.77	84.95	12.55	
2025-01-11 16:39:28.98	84.92	12.56	
2025-01-11 16:39:29.19	84.88	12.57	
2025-01-11 16:39:29.39	84.84	12.59	
2025-01-11 16:39:29.59	84.81	12.60	
2025-01-11 16:39:29.80	84.77	12.61	
2025-01-11 16:39:30.00	84.74	12.63	
2025-01-11 16:39:30.21	84.70	12.64	
2025-01-11 16:39:30.41	84.66	12.65	
2025-01-11 16:39:30.61	84.63	12.67	
2025-01-11 16:39:30.82	84.59	12.68	
2025-01-11 16:39:31.03	84.55	12.69	
2025-01-11 16:39:31.23	84.52	12.71	
2025-01-11 16:39:31.44	84.48	12.72	
2025-01-11 16:39:31.64	84.44	12.73	
2025-01-11 16:39:31.85	84.41	12.75	
2025-01-11 16:39:32.05	84.37	12.76	
2025-01-11 16:39:32.26	84.33	12.77	
2025-01-11 16:39:32.46	84.30	12.79	
2025-01-11 16:39:32.66	84.26	12.80	
2025-01-11 16:39:32.87	84.22	12.81	
2025-01-11 16:39:33.07	84.19	12.82	
2025-01-11 16:39:33.28	84.15	12.84	
2025-01-11 16:39:33.48	84.11	12.85	
2025-01-11 16:39:33.69	84.07	12.86	
2025-01-11 16:39:33.89	84.04	12.88	
2025-01-11 16:39:34.10	84.00	12.89	
2025-01-11 16:39:34.30	83.96	12.90	
2025-01-11 16:39:34.51	83.93	12.92	
2025-01-11 16:39:34.71	83.89	12.93	
2025-01-11 16:39:34.91	83.85	12.94	
2025-01-11 16:39:35.12	83.82	12.96	
2025-01-11 16:39:35.33	83.78	12.97	
2025-01-11 16:39:35.53	83.74	12.98	
2025-01-11 16:39:35.74	83.70	13.00	
2025-01-11 16:39:35.94	83.67	13.01	
2025-01-11 16:39:36.14	83.63	13.02	
2025-01-11 16:39:36.34	83.59	13.04	
2025-01-11 16:39:36.55	83.55	13.05	
2025-01-11 16:39:36.75	83.52	13.06	
2025-01-11 16:39:36.95	83.48	13.08	
2025-01-11 16:39:37.16	83.44	13.09	
2025-01-11 16:39:37.36	83.41	13.10	
2025-01-11 16:39:37.57	83.37	13.11	
2025-01-11 16:39:37.78	83.33	13.13	
2025-01-11 16:39:37.98	83.29	13.14	
2025-01-11 16:39:38.18	83.25	13.15	
2025-01-11 16:39:38.39	83.22	13.17	
2025-01-11 16:39:38.59	83.18	13.18	
2025-01-11 16:39:38.80	83.14	13.19	
2025-01-11 16:39:39.01	83.10	13.21	
2025-01-11 16:39:39.22	83.06	13.22	
2025-01-11 16:39:39.42	83.03	13.23	
2025-01-11 16:39:39.63	82.99	13.25	
2025-01-11 16:39:39.83	82.95	13.26	
2025-01-11 16:39:40.04	82.91	13.27	
2025-01-11 16:39:40.24	82.87	13.29	
2025-01-11 16:39:40.45	82.83	13.30	
2025-01-11 16:39:40.65	82.80	13.31	
2025-01-11 16:39:40.86	82.76	13.33	
2025-01-11 16:39:41.06	82.72	13.34	
2025-01-11 16:39:41.27	82.68	13.35	
2025-01-11 16:39:41.47	82.64	13.36	
2025-01-11 16:39:41.68	82.60	13.38	
2025-01-11 16:39:41.88	82.57	13.39	
2025-01-11 16:39:42.09	82.53	13.40	
2025-01-11 16:39:42.29	82.49	13.42	
2025-01-11 16:39:42.50	82.45	13.43	
2025-01-11 16:39:42.70	82.41	13.44	
2025-01-11 16:39:42.91	82.37	13.46	
2025-01-11 16:39:43.12	82.33	13.47	
2025-01-11 16:39:43.32	82.30	13.48	
2025-01-11 16:39:43.52	82.26	13.50	
2025-01-11 16:39:43.73	82.22	13.51	
2025-01-11 16:39:43.93	82.18	13.52	
2025-01-11 16:39:44.14	82.14	13.54	
2025-01-11 16:39:44.35	82.10	13.55	
2025-01-11 16:39:44.55	82.06	13.56	
2025-01-11 16:39:44.75	82.02	13.57	
2025-01-11 16:39:44.96	81.98	13.59	
2025-01-11 16:39:45.16	81.95	13.60	
2025-01-11 16:39:45.37	81.91	13.61	
2025-01-11 16:39:45.57	81.87	13.63	
2025-01-11 16:39:45.78	81.83	13.64	
2025-01-11 16:39:45.98	81.79	13.65	
2025-01-11 16:39:46.19	81.75	13.67	
2025-01-11 16:39:46.39	81.71	13.68	
2025-01-11 16:39:46.60	81.67	13.69	
2025-01-11 16:39:46.81	81.63	13.70	
2025-01-11 16:39:47.01	81.59	13.72	
2025-01-11 16:39:47.22	81.55	13.73	
2025-01-11 16:39:47.42	81.51	13.74	
2025-01-11 16:39:47.63	81.47	13.76	
2025-01-11 16:39:47.83	81.43	13.77	
2025-01-11 16:39:48.04	81.39	13.78	
2025-01-11 16:39:48.24	81.35	13.79	
2025-01-11 16:39:48.45	81.31	13.81	
2025-01-11 16:39:48.66	81.27	13.82	
2025-01-11 16:39:48.87	81.23	13.83	
2025-01-11 16:39:49.08	81.19	13.85	
2025-01-11 16:39:49.28	81.15	13.86	
2025-01-11 16:39:49.49	81.11	13.87	
2025-01-11 16:39:49.69	81.07	13.89	
2025-01-11 16:39:49.89	81.03	13.90	
2025-01-11 16:39:50.10	80.99	13.91	
2025-01-11 16:39:50.31	80.95	13.93	
2025-01-11 16:39:50.51	80.91	13.94	
2025-01-11 16:39:50.71	80.87	13.95	
2025-01-11 16:39:50.92	80.83	13.96	
2025-01-11 16:39:51.12	80.79	13.98	
2025-01-11 16:39:51.33	80.75	13.99	
2025-01-11 16:39:51.54	80.71	14.00	
2025-01-11 16:39:51.74	80.67	14.01	
2025-01-11 16:39:51.94	80.63	14.03	
2025-01-11 16:39:52.15	80.59	14.04	
2025-01-11 16:39:52.36	80.55	14.05	
2025-01-11 16:39:52.56	80.51	14.07	
2025-01-11 16:39:52.76	80.47	14.08	
2025-01-11 16:39:52.97	80.43	14.09	
2025-01-11 16:39:53.18	80.39	14.10	
2025-01-11 16:39:53.38	80.35	14.12	
2025-01-11 16:39:53.59	80.31	14.13	
2025-01-11 16:39:53.79	80.27	14.14	
2025-01-11 16:39:54.01	80.22	14.16	
2025-01-11 16:39:54.21	80.18	14.17	
2025-01-11 16:39:54.42	80.14	14.18	
2025-01-11 16:39:54.63	80.10	14.20	
2025-01-11 16:39:54.83	80.06	14.21	
2025-01-11 16:39:55.04	80.02	14.22	
2025-01-11 16:39:55.24	79.98	14.23	
2025-01-11 16:39:55.45	79.94	14.25	
2025-01-11 16:39:55.65	79.90	14.26	
2025-01-11 16:39:55.86	79.86	14.27	
2025-01-11 16:39:56.06	79.82	14.28	
2025-01-11 16:39:56.26	79.78	14.30	
2025-01-11 16:39:56.47	79.73	14.31	
2025-01-11 16:39:56.68	79.69	14.32	
2025-01-11 16:39:56.88	79.65	14.33	
2025-01-11 16:39:57.09	79.61	14.35	
2025-01-11 16:39:57.29	79.57	14.36	
2025-01-11 16:39:57.50	79.53	14.37	
2025-01-11 16:39:57.70	79.49	14.39	
2025-01-11 16:39:57.91	79.44	14.40	
2025-01-11 16:39:58.11	79.40	14.41	
2025-01-11 16:39:58.32	79.36	14.42	
2025-01-11 16:39:58.52	79.32	14.44	
2025-01-11 16:39:58.73	79.28	14.45	
2025-01-11 16:39:58.93	79.24	14.46	
2025-01-11 16:39:59.14	79.19	14.47	
2025-01-11 16:39:59.34	79.15	14.49	
2025-01-11 16:39:59.55	79.11	14.50	
2025-01-11 16:39:59.75	79.07	14.51	
2025-01-11 16:39:59.96	79.03	14.52	
2025-01-11 16:40:00.16	78.99	14.54	
2025-01-11 16:40:00.37	78.94	14.55	
2025-01-11 16:40:00.57	78.90	14.56	
2025-01-11 16:40:00.78	78.86	14.58	
2025-01-11 16:40:00.98	78.82	14.59	
2025-01-11 16:40:01.19	78.78	14.60	
2025-01-11 16:40:01.39	78.73	14.61	
2025-01-11 16:40:01.60	78.69	14.63	
2025-01-11 16:40:01.81	78.65	14.64	
2025-01-11 16:40:02.01	78.61	14.65	
2025-01-11 16:40:02.22	78.56	14.66	
2025-01-11 16:40:02.42	78.52	14.68	
2025-01-11 16:40:02.63	78.48	14.69	
2025-01-11 16:40:02.83	78.44	14.70	
2025-01-11 16:40:03.04	78.40	14.71	
2025-01-11 16:40:03.24	78.35	14.73	
2025-01-11 16:40:03.45	78.31	14.74	
2025-01-11 16:40:03.65	78.27	14.75	
2025-01-11 16:40:03.86	78.23	14.76	
2025-01-11 16:40:04.06	78.18	14.77	
2025-01-11 16:40:04.27	78.14	14.79	
2025-01-11 16:40:04.47	78.10	14.80	
2025-01-11 16:40:04.68	78.05	14.81	
2025-01-11 16:40:04.88	78.01	14.82	
2025-01-11 16:40:05.09	77.97	14.84	
2025-01-11 16:40:05.29	77.93	14.85	
2025-01-11 16:40:05.50	77.88	14.86	
2025-01-11 16:40:05.70	77.84	14.87	
2025-01-11 16:40:05.91	77.80	14.89	
2025-01-11 16:40:06.11	77.76	14.90	
2025-01-11 16:40:06.32	77.71	14.91	
2025-01-11 16:40:06.52	77.67	14.92	
2025-01-11 16:40:06.73	77.63	14.94	
2025-01-11 16:40:06.93	77.58	14.95	
2025-01-11 16:40:07.14	77.54	14.96	
2025-01-11 16:40:07.34	77.50	14.97	
2025-01-11 16:40:07.55	77.45	14.99	
2025-01-11 16:40:07.75	77.41	15.00	
2025-01-11 16:40:07.96	77.37	15.01	
2025-01-11 16:40:08.16	77.33	15.02	
2025-01-11 16:40:08.37	77.28	15.03	
2025-01-11 16:40:08.58	77.24	15.05	
2025-01-11 16:40:08.78	77.19	15.06	
2025-01-11 16:40:09.00	77.15	15.07	
2025-01-11 16:40:09.20	77.10	15.08	
2025-01-11 16:40:09.41	77.06	15.10	
2025-01-11 16:40:09.62	77.02	15.11	
2025-01-11 16:40:09.82	76.97	15.12	
2025-01-11 16:40:10.03	76.93	15.13	
2025-01-11 16:40:10.23	76.89	15.15	
2025-01-11 16:40:10.44	76.84	15.16	
2025-01-11 16:40:10.65	76.80	15.17	
2025-01-11 16:40:10.86	76.75	15.18	
2025-01-11 16:40:11.08	76.70	15.20	
2025-01-11 16:40:11.28	76.66	15.21	
2025-01-11 16:40:11.49	76.62	15.22	
2025-01-11 16:40:11.69	76.57	15.23	
2025-01-11 16:40:11.90	76.53	15.24	
2025-01-11 16:40:12.10	76.49	15.26	
2025-01-11 16:40:12.31	76.44	15.27	
2025-01-11 16:40:12.51	76.40	15.28	
2025-01-11 16:40:12.72	76.35	15.29	
2025-01-11 16:40:12.92	76.31	15.30	
2025-01-11 16:40:13.12	76.27	15.32	
2025-01-11 16:40:13.33	76.22	15.33	
2025-01-11 16:40:13.53	76.18	15.34	
2025-01-11 16:40:13.74	76.13	15.35	
2025-01-11 16:40:13.94	76.09	15.36	
2025-01-11 16:40:14.14	76.05	15.38	
2025-01-11 16:40:14.35	76.00	15.39	
2025-01-11 16:40:14.56	75.95	15.40	
2025-01-11 16:40:14.76	75.91	15.41	
2025-01-11 16:40:14.97	75.87	15.42	
2025-01-11 16:40:15.17	75.82	15.44	
2025-01-11 16:40:15.38	75.78	15.45	
2025-01-11 16:40:15.58	75.73	15.46	
2025-01-11 16:40:15.80	75.68	15.47	
2025-01-11 16:40:16.01	75.64	15.48	
2025-01-11 16:40:16.21	75.59	15.50	
2025-01-11 16:40:16.42	75.55	15.51	
2025-01-11 16:40:16.62	75.51	15.52	
2025-01-11 16:40:16.82	75.46	15.53	
2025-01-11 16:40:17.03	75.42	15.54	
2025-01-11 16:40:17.24	75.37	15.56	
2025-01-11 16:40:17.45	75.32	15.57	
2025-01-11 16:40:17.66	75.28	15.58	
2025-01-11 16:40:17.86	75.23	15.59	
2025-01-11 16:40:18.07	75.19	15.60	
2025-01-11 16:40:18.28	75.14	15.62	
2025-01-11 16:40:18.49	75.09	15.63	
2025-01-11 16:40:18.70	75.05	15.64	
2025-01-11 16:40:18.90	75.00	15.65	
2025-01-11 16:40:19.11	74.96	15.66	
2025-01-11 16:40:19.32	74.91	15.67	
2025-01-11 16:40:19.52	74.87	15.69	
2025-01-11 16:40:19.72	74.82	15.70	
2025-01-11 16:40:19.93	74.78	15.71	
2025-01-11 16:40:20.14	74.73	15.72	
2025-01-11 16:40:20.34	74.68	15.73	
2025-01-11 16:40:20.54	74.64	15.74	
2025-01-11 16:40:20.75	74.59	15.76	
2025-01-11 16:40:20.96	74.55	15.77	
2025-01-11 16:40:21.16	74.50	15.78	
2025-01-11 16:40:21.37	74.45	15.79	
2025-01-11 16:40:21.57	74.41	15.80	
2025-01-11 16:40:21.77	74.37	15.81	
2025-01-11 16:40:21.98	74.32	15.83	
2025-01-11 16:40:22.18	74.27	15.84	
2025-01-11 16:40:22.39	74.23	15.85	
2025-01-11 16:40:22.60	74.18	15.86	
2025-01-11 16:40:22.80	74.13	15.87	
2025-01-11 16:40:23.00	74.09	15.88	
2025-01-11 16:40:23.21	74.04	15.90	
2025-01-11 16:40:23.42	74.00	15.91	
2025-01-11 16:40:23.62	73.95	15.92	
2025-01-11 16:40:23.84	73.90	15.93	
2025-01-11 16:40:24.04	73.86	15.94	
2025-01-11 16:40:24.25	73.81	15.95	
2025-01-11 16:40:24.45	73.76	15.96	
2025-01-11 16:40:24.66	73.72	15.98	
2025-01-11 16:40:24.86	73.67	15.99	
2025-01-11 16:40:25.07	73.62	16.00	
2025-01-11 16:40:25.27	73.58	16.01	
2025-01-11 16:40:25.48	73.53	16.02	
2025-01-11 16:40:25.68	73.48	16.03	
2025-01-11 16:40:25.89	73.44	16.04	
2025-01-11 16:40:26.09	73.39	16.06	
2025-01-11 16:40:26.30	73.34	16.07	
2025-01-11 16:40:26.50	73.30	16.08	
2025-01-11 16:40:26.71	73.25	16.09	
2025-01-11 16:40:26.91	73.20	16.10	
2025-01-11 16:40:27.12	73.16	16.11	
2025-01-11 16:40:27.32	73.11	16.12	
2025-01-11 16:40:27.53	73.06	16.13	
2025-01-11 16:40:27.73	73.02	16.15	
2025-01-11 16:40:27.94	72.97	16.16	
2025-01-11 16:40:28.16	72.92	16.17	
2025-01-11 16:40:28.36	72.87	16.18	
2025-01-11 16:40:28.57	72.82	16.19	
2025-01-11 16:40:28.77	72.78	16.20	
2025-01-11 16:40:28.98	72.73	16.21	
2025-01-11 16:40:29.18	72.68	16.22	
2025-01-11 16:40:29.39	72.64	16.24	
2025-01-11 16:40:29.59	72.59	16.25	
2025-01-11 16:40:29.80	72.54	16.26	
2025-01-11 16:40:30.01	72.49	16.27	
2025-01-11 16:40:30.21	72.45	16.28	
2025-01-11 16:40:30.41	72.40	16.29	
2025-01-11 16:40:30.62	72.35	16.30	
2025-01-11 16:40:30.82	72.30	16.31	
2025-01-11 16:40:31.03	72.26	16.32	
2025-01-11 16:40:31.23	72.21	16.34	
2025-01-11 16:40:31.44	72.16	16.35	
2025-01-11 16:40:31.64	72.11	16.36	
2025-01-11 16:40:31.84	72.07	16.37	
2025-01-11 16:40:32.05	72.02	16.38	
2025-01-11 16:40:32.25	71.97	16.39	
2025-01-11 16:40:32.47	71.92	16.40	
2025-01-11 16:40:32.68	71.87	16.41	
2025-01-11 16:40:32.88	71.83	16.42	
2025-01-11 16:40:33.09	71.78	16.43	
2025-01-11 16:40:33.29	71.73	16.45	
2025-01-11 16:40:33.50	71.68	16.46	
2025-01-11 16:40:33.70	71.63	16.47	
2025-01-11 16:40:33.91	71.58	16.48	
2025-01-11 16:40:34.12	71.54	16.49	
2025-01-11 16:40:34.32	71.49	16.50	
2025-01-11 16:40:34.52	71.44	16.51	
2025-01-11 16:40:34.73	71.39	16.52	
2025-01-11 16:40:34.93	71.35	16.53	
2025-01-11 16:40:35.14	71.30	16.54	
2025-01-11 16:40:35.35	71.25	16.55	
2025-01-11 16:40:35.55	71.20	16.56	
2025-01-11 16:40:35.75	71.15	16.57	
2025-01-11 16:40:35.96	71.10	16.59	
2025-01-11 16:40:36.16	71.05	16.60	
2025-01-11 16:40:36.37	71.01	16.61	
2025-01-11 16:40:36.58	70.96	16.62	
2025-01-11 16:40:36.78	70.91	16.63	
2025-01-11 16:40:36.98	70.86	16.64	
2025-01-11 16:40:37.19	70.81	16.65	
2025-01-11 16:40:37.40	70.76	16.66	
2025-01-11 16:40:37.60	70.71	16.67	
2025-01-11 16:40:37.80	70.67	16.68	
2025-01-11 16:40:38.01	70.62	16.69	
2025-01-11 16:40:38.22	70.57	16.70	
2025-01-11 16:40:38.42	70.52	16.71	
2025-01-11 16:40:38.63	70.47	16.72	
2025-01-11 16:40:38.85	70.42	16.73	
2025-01-11 16:40:39.05	70.37	16.74	
2025-01-11 16:40:39.26	70.32	16.76	
2025-01-11 16:40:39.46	70.27	16.77	
2025-01-11 16:40:39.67	70.22	16.78	
2025-01-11 16:40:39.87	70.17	16.79	
2025-01-11 16:40:40.08	70.12	16.80	
2025-01-11 16:40:40.28	70.07	16.81	
2025-01-11 16:40:40.49	70.02	16.82	
2025-01-11 16:40:40.69	69.98	16.83	
2025-01-11 16:40:40.90	69.92	16.84	
2025-01-11 16:40:41.10	69.88	16.85	
2025-01-11 16:40:41.31	69.83	16.86	
2025-01-11 16:40:41.51	69.78	16.87	
2025-01-11 16:40:41.72	69.73	16.88	
2025-01-11 16:40:41.93	69.68	16.89	
2025-01-11 16:40:42.13	69.63	16.90	
2025-01-11 16:40:42.33	69.58	16.91	
2025-01-11 16:40:42.54	69.53	16.92	
2025-01-11 16:40:42.75	69.48	16.93	
2025-01-11 16:40:42.95	69.43	16.94	
2025-01-11 16:40:43.16	69.38	16.95	
2025-01-11 16:40:43.36	69.33	16.96	
2025-01-11 16:40:43.57	69.28	16.97	
2025-01-11 16:40:43.77	69.23	16.98	
2025-01-11 16:40:43.98	69.18	16.99	
2025-01-11 16:40:44.18	69.13	17.00	
2025-01-11 16:40:44.38	69.08	17.01	
2025-01-11 16:40:44.59	69.03	17.02	
2025-01-11 16:40:44.79	68.98	17.03	
2025-01-11 16:40:45.00	68.93	17.04	
2025-01-11 16:40:45.20	68.88	17.05	
2025-01-11 16:40:45.41	68.83	17.06	
2025-01-11 16:40:45.61	68.78	17.07	
2025-01-11 16:40:45.82	68.73	17.08	
2025-01-11 16:40:46.02	68.68	17.09	
2025-01-11 16:40:46.23	68.63	17.10	
2025-01-11 16:40:46.43	68.58	17.11	
2025-01-11 16:40:46.64	68.53	17.12	
2025-01-11 16:40:46.84	68.48	17.13	
2025-01-11 16:40:47.05	68.43	17.14	
2025-01-11 16:40:47.25	68.38	17.15	
2025-01-11 16:40:47.47	68.33	17.16	
2025-01-11 16:40:47.68	68.27	17.17	
2025-01-11 16:40:47.88	68.23	17.18	
2025-01-11 16:40:48.09	68.17	17.19	
2025-01-11 16:40:48.29	68.12	17.20	
2025-01-11 16:40:48.51	68.07	17.21	
2025-01-11 16:40:48.72	68.02	17.22	
2025-01-11 16:40:48.92	67.97	17.23	
2025-01-11 16:40:49.13	67.92	17.24	
2025-01-11 16:40:49.33	67.87	17.25	
2025-01-11 16:40:49.54	67.82	17.26	
2025-01-11 16:40:49.74	67.77	17.27	
2025-01-11 16:40:49.95	67.71	17.28	
2025-01-11 16:40:50.15	67.66	17.29	
2025-01-11 16:40:50.36	67.61	17.30	
2025-01-11 16:40:50.56	67.56	17.31	
2025-01-11 16:40:50.76	67.51	17.31	
2025-01-11 16:40:50.97	67.46	17.32	
2025-01-11 16:40:51.17	67.41	17.33	
2025-01-11 16:40:51.38	67.36	17.34	
2025-01-11 16:40:51.58	67.31	17.35	
2025-01-11 16:40:51.79	67.26	17.36	
2025-01-11 16:40:51.99	67.21	17.37	
2025-01-11 16:40:52.20	67.15	17.38	
2025-01-11 16:40:52.40	67.10	17.39	
2025-01-11 16:40:52.61	67.05	17.40	
2025-01-11 16:40:52.81	67.00	17.41	
2025-01-11 16:40:53.01	66.95	17.42	
2025-01-11 16:40:53.22	66.90	17.43	
2025-01-11 16:40:53.43	66.85	17.44	
2025-01-11 16:40:53.63	66.80	17.45	
2025-01-11 16:40:53.85	66.74	17.46	
2025-01-11 16:40:54.05	66.69	17.46	
2025-01-11 16:40:54.26	66.64	17.47	
2025-01-11 16:40:54.47	66.58	17.48	
2025-01-11 16:40:54.67	66.53	17.49	
2025-01-11 16:40:54.89	66.48	17.50	
2025-01-11 16:40:55.09	66.43	17.51	
2025-01-11 16:40:55.30	66.37	17.52	
2025-01-11 16:40:55.50	66.32	17.53	
2025-01-11 16:40:55.71	66.27	17.54	
2025-01-11 16:40:55.91	66.22	17.55	
2025-01-11 16:40:56.12	66.17	17.56	
2025-01-11 16:40:56.32	66.12	17.56	
2025-01-11 16:40:56.53	66.06	17.57	
2025-01-11 16:40:56.73	66.01	17.58	
2025-01-11 16:40:56.94	65.96	17.59	
2025-01-11 16:40:57.14	65.91	17.60	
2025-01-11 16:40:57.35	65.86	17.61	
2025-01-11 16:40:57.55	65.81	17.62	
2025-01-11 16:40:57.75	65.75	17.63	
2025-01-11 16:40:57.96	65.70	17.64	
2025-01-11 16:40:58.16	65.65	17.64	
2025-01-11 16:40:58.37	65.60	17.65	
2025-01-11 16:40:58.58	65.54	17.66	
2025-01-11 16:40:58.78	65.49	17.67	
2025-01-11 16:40:58.99	65.44	17.68	
2025-01-11 16:40:59.19	65.39	17.69	
2025-01-11 16:40:59.40	65.33	17.70	
2025-01-11 16:40:59.60	65.28	17.71	
2025-01-11 16:40:59.81	65.23	17.71	
2025-01-11 16:41:00.01	65.18	17.72	
2025-01-11 16:41:00.22	65.12	17.73	
2025-01-11 16:41:00.42	65.07	17.74	
2025-01-11 16:41:00.63	65.02	17.75	
2025-01-11 16:41:00.83	64.97	17.76	
2025-01-11 16:41:01.04	64.91	17.77	
2025-01-11 16:41:01.24	64.86	17.77	
2025-01-11 16:41:01.45	64.81	17.78	
2025-01-11 16:41:01.66	64.75	17.79	
2025-01-11 16:41:01.86	64.70	17.80	
2025-01-11 16:41:02.07	64.65	17.81	
2025-01-11 16:41:02.27	64.60	17.82	
2025-01-11 16:41:02.48	64.54	17.83	
2025-01-11 16:41:02.68	64.49	17.83	
2025-01-11 16:41:02.89	64.44	17.84	
2025-01-11 16:41:03.09	64.39	17.85	
2025-01-11 16:41:03.29	64.33	17.86	
2025-01-11 16:41:03.50	64.28	17.87	
2025-01-11 16:41:03.71	64.23	17.88	
2025-01-11 16:41:03.91	64.17	17.88	
2025-01-11 16:41:04.12	64.12	17.89	
2025-01-11 16:41:04.32	64.07	17.90	
2025-01-11 16:41:04.53	64.01	17.91	
2025-01-11 16:41:04.73	63.96	17.92	
2025-01-11 16:41:04.94	63.91	17.92	
2025-01-11 16:41:05.14	63.85	17.93	
2025-01-11 16:41:05.35	63.80	17.94	
2025-01-11 16:41:05.56	63.75	17.95	
2025-01-11 16:41:05.76	63.69	17.96	
2025-01-11 16:41:05.97	63.64	17.97	
2025-01-11 16:41:06.18	63.58	17.97	
2025-01-11 16:41:06.38	63.53	17.98	
2025-01-11 16:41:06.59	63.48	17.99	
2025-01-11 16:41:06.79	63.43	18.00	
2025-01-11 16:41:07.00	63.37	18.01	
2025-01-11 16:41:07.20	63.32	18.01	
2025-01-11 16:41:07.41	63.26	18.02	
2025-01-11 16:41:07.61	63.21	18.03	
2025-01-11 16:41:07.82	63.16	18.04	
2025-01-11 16:41:08.02	63.10	18.04	
2025-01-11 16:41:08.22	63.05	18.05	
2025-01-11 16:41:08.43	63.00	18.06	
2025-01-11 16:41:08.65	62.94	18.07	
2025-01-11 16:41:08.85	62.89	18.08	
2025-01-11 16:41:09.06	62.83	18.08	
2025-01-11 16:41:09.26	62.78	18.09	
2025-01-11 16:41:09.47	62.72	18.10	
2025-01-11 16:41:09.67	62.67	18.11	
2025-01-11 16:41:09.88	62.62	18.11	
2025-01-11 16:41:10.09	62.56	18.12	
2025-01-11 16:41:10.29	62.51	18.13	
2025-01-11 16:41:10.50	62.45	18.14	
2025-01-11 16:41:10.70	62.40	18.14	
2025-01-11 16:41:10.90	62.35	18.15	
2025-01-11 16:41:11.11	62.29	18.16	
2025-01-11 16:41:11.32	62.24	18.17	
2025-01-11 16:41:11.52	62.18	18.17	
2025-01-11 16:41:11.73	62.13	18.18	
2025-01-11 16:41:11.93	62.08	18.19	
2025-01-11 16:41:12.14	62.02	18.20	
2025-01-11 16:41:12.34	61.97	18.20	
2025-01-11 16:41:12.55	61.91	18.21	
2025-01-11 16:41:12.76	61.86	18.22	
2025-01-11 16:41:12.96	61.80	18.23	
2025-01-11 16:41:13.17	61.75	18.23	
2025-01-11 16:41:13.37	61.69	18.24	
2025-01-11 16:41:13.58	61.64	18.25	
2025-01-11 16:41:13.79	61.58	18.25	
2025-01-11 16:41:13.99	61.53	18.26	
2025-01-11 16:41:14.20	61.47	18.27	
2025-01-11 16:41:14.40	61.42	18.28	
2025-01-11 16:41:14.61	61.36	18.28	
2025-01-11 16:41:14.82	61.31	18.29	
2025-01-11 16:41:15.02	61.25	18.30	
2025-01-11 16:41:15.23	61.20	18.30	
2025-01-11 16:41:15.43	61.15	18.31	
2025-01-11 16:41:15.64	61.09	18.32	
2025-01-11 16:41:15.84	61.04	18.32	
2025-01-11 16:41:16.05	60.98	18.33	
2025-01-11 16:41:16.26	60.92	18.34	
2025-01-11 16:41:16.46	60.87	18.35	
2025-01-11 16:41:16.67	60.81	18.35	
2025-01-11 16:41:16.87	60.76	18.36	
2025-01-11 16:41:17.08	60.70	18.37	
2025-01-11 16:41:17.30	60.65	18.37	
2025-01-11 16:41:17.50	60.59	18.38	
2025-01-11 16:41:17.71	60.54	18.39	
2025-01-11 16:41:17.91	60.48	18.39	
2025-01-11 16:41:18.12	60.43	18.40	
2025-01-11 16:41:18.32	60.37	18.41	
2025-01-11 16:41:18.52	60.32	18.41	
2025-01-11 16:41:18.73	60.26	18.42	
2025-01-11 16:41:18.93	60.21	18.43	
2025-01-11 16:41:19.14	60.15	18.43	
2025-01-11 16:41:19.34	60.10	18.44	
2025-01-11 16:41:19.55	60.04	18.45	
2025-01-11 16:41:19.76	59.99	18.45	
2025-01-11 16:41:19.96	59.93	18.46	
2025-01-11 16:41:20.16	59.88	18.47	
2025-01-11 16:41:20.37	59.82	18.47	
2025-01-11 16:41:20.57	59.77	18.48	
2025-01-11 16:41:20.78	59.71	18.48	
2025-01-11 16:41:20.98	59.66	18.49	
2025-01-11 16:41:21.19	59.60	18.50	
2025-01-11 16:41:21.39	59.55	18.50	
2025-01-11 16:41:21.60	59.49	18.51	
2025-01-11 16:41:21.80	59.43	18.52	
2025-01-11 16:41:22.01	59.38	18.52	
2025-01-11 16:41:22.21	59.32	18.53	
2025-01-11 16:41:22.41	59.27	18.53	
2025-01-11 16:41:22.62	59.21	18.54	
2025-01-11 16:41:22.83	59.16	18.55	
2025-01-11 16:41:23.03	59.10	18.55	
2025-01-11 16:41:23.24	59.04	18.56	
2025-01-11 16:41:23.44	58.99	18.56	
2025-01-11 16:41:23.65	58.93	18.57	
2025-01-11 16:41:23.85	58.88	18.58	
2025-01-11 16:41:24.06	58.82	18.58	
2025-01-11 16:41:24.26	58.77	18.59	
2025-01-11 16:41:24.47	58.71	18.59	
2025-01-11 16:41:24.67	58.66	18.60	
2025-01-11 16:41:24.88	58.60	18.61	
2025-01-11 16:41:25.08	58.54	18.61	
2025-01-11 16:41:25.29	58.49	18.62	
2025-01-11 16:41:25.49	58.43	18.62	
2025-01-11 16:41:25.69	58.38	18.63	
2025-01-11 16:41:25.90	58.32	18.64	
2025-01-11 16:41:26.10	58.27	18.64	
2025-01-11 16:41:26.31	58.21	18.65	
2025-01-11 16:41:26.51	58.15	18.65	
2025-01-11 16:41:26.72	58.10	18.66	
2025-01-11 16:41:26.92	58.04	18.66	
2025-01-11 16:41:27.13	57.98	18.67	
2025-01-11 16:41:27.33	57.93	18.67	
2025-01-11 16:41:27.54	57.87	18.68	
2025-01-11 16:41:27.74	57.82	18.69	
2025-01-11 16:41:27.95	57.76	18.69	
2025-01-11 16:41:28.16	57.70	18.70	
2025-01-11 16:41:28.36	57.65	18.70	
2025-01-11 16:41:28.57	57.59	18.71	
2025-01-11 16:41:28.77	57.54	18.71	
2025-01-11 16:41:28.98	57.48	18.72	
2025-01-11 16:41:29.18	57.42	18.72	
2025-01-11 16:41:29.39	57.37	18.73	
2025-01-11 16:41:29.59	57.31	18.73	
2025-01-11 16:41:29.80	57.25	18.74	
2025-01-11 16:41:30.00	57.20	18.74	
2025-01-11 16:41:30.21	57.14	18.75	
2025-01-11 16:41:30.41	57.09	18.75	
2025-01-11 16:41:30.62	57.03	18.76	
2025-01-11 16:41:30.82	56.97	18.76	
2025-01-11 16:41:31.03	56.91	18.77	
2025-01-11 16:41:31.23	56.86	18.77	
2025-01-11 16:41:31.44	56.80	18.78	
2025-01-11 16:41:31.64	56.75	18.78	
2025-01-11 16:41:31.85	56.69	18.79	
2025-01-11 16:41:32.07	56.63	18.80	
2025-01-11 16:41:32.27	56.57	18.80	
2025-01-11 16:41:32.47	56.52	18.80	
2025-01-11 16:41:32.68	56.46	18.81	
2025-01-11 16:41:32.89	56.40	18.81	
2025-01-11 16:41:33.09	56.35	18.82	
2025-01-11 16:41:33.29	56.29	18.82	
2025-01-11 16:41:33.50	56.23	18.83	
2025-01-11 16:41:33.70	56.18	18.83	
2025-01-11 16:41:33.91	56.12	18.84	
2025-01-11 16:41:34.11	56.06	18.84	
2025-01-11 16:41:34.32	56.01	18.85	
2025-01-11 16:41:34.52	55.95	18.85	
2025-01-11 16:41:34.73	55.89	18.86	
2025-01-11 16:41:34.94	55.84	18.86	
2025-01-11 16:41:35.14	55.78	18.87	
2025-01-11 16:41:35.34	55.72	18.87	
2025-01-11 16:41:35.55	55.67	18.87	
2025-01-11 16:41:35.75	55.61	18.88	
2025-01-11 16:41:35.96	55.55	18.88	
2025-01-11 16:41:36.17	55.49	18.89	
2025-01-11 16:41:36.37	55.44	18.89	
2025-01-11 16:41:36.58	55.38	18.90	
2025-01-11 16:41:36.78	55.32	18.90	
2025-01-11 16:41:36.99	55.27	18.91	
2025-01-11 16:41:37.19	55.21	18.91	
2025-01-11 16:41:37.40	55.15	18.91	
2025-01-11 16:41:37.60	55.10	18.92	
2025-01-11 16:41:37.81	55.04	18.92	
2025-01-11 16:41:38.01	54.98	18.93	
2025-01-11 16:41:38.22	54.92	18.93	
2025-01-11 16:41:38.42	54.87	18.93	
2025-01-11 16:41:38.63	54.81	18.94	
2025-01-11 16:41:38.83	54.75	18.94	
2025-01-11 16:41:39.04	54.70	18.95	
2025-01-11 16:41:39.25	54.64	18.95	
2025-01-11 16:41:39.45	54.58	18.95	
2025-01-11 16:41:39.65	54.53	18.96	
2025-01-11 16:41:39.86	54.47	18.96	
2025-01-11 16:41:40.07	54.41	18.97	
2025-01-11 16:41:40.27	54.35	18.97	
2025-01-11 16:41:40.48	54.29	18.97	
2025-01-11 16:41:40.69	54.24	18.98	
2025-01-11 16:41:40.90	54.18	18.98	
2025-01-11 16:41:41.11	54.12	18.99	
2025-01-11 16:41:41.31	54.06	18.99	
2025-01-11 16:41:41.52	54.00	18.99	
2025-01-11 16:41:41.74	53.94	19.00	
2025-01-11 16:41:41.94	53.89	19.00	
2025-01-11 16:41:42.14	53.83	19.00	
2025-01-11 16:41:42.35	53.77	19.01	
2025-01-11 16:41:42.55	53.72	19.01	
2025-01-11 16:41:42.76	53.66	19.02	
2025-01-11 16:41:42.96	53.60	19.02	
2025-01-11 16:41:43.17	53.54	19.02	
2025-01-11 16:41:43.37	53.49	19.03	
2025-01-11 16:41:43.58	53.43	19.03	
2025-01-11 16:41:43.78	53.37	19.03	
2025-01-11 16:41:43.98	53.31	19.04	
2025-01-11 16:41:44.19	53.26	19.04	
2025-01-11 16:41:44.39	53.20	19.04	
2025-01-11 16:41:44.60	53.14	19.05	
2025-01-11 16:41:44.80	53.08	19.05	
2025-01-11 16:41:45.01	53.03	19.05	
2025-01-11 16:41:45.21	52.97	19.05	
2025-01-11 16:41:45.42	52.91	19.06	
2025-01-11 16:41:45.63	52.85	19.06	
2025-01-11 16:41:45.83	52.80	19.06	
2025-01-11 16:41:46.03	52.74	19.07	
2025-01-11 16:41:46.24	52.68	19.07	
2025-01-11 16:41:46.46	52.62	19.07	
2025-01-11 16:41:46.66	52.56	19.08	
2025-01-11 16:41:46.87	52.50	19.08	
2025-01-11 16:41:47.07	52.45	19.08	
2025-01-11 16:41:47.27	52.39	19.09	
2025-01-11 16:41:47.48	52.33	19.09	
2025-01-11 16:41:47.68	52.28	19.09	
2025-01-11 16:41:47.89	52.22	19.09	
2025-01-11 16:41:48.09	52.16	19.10	
2025-01-11 16:41:48.29	52.10	19.10	
2025-01-11 16:41:48.50	52.04	19.10	
2025-01-11 16:41:48.70	51.99	19.10	
2025-01-11 16:41:48.91	51.93	19.11	
2025-01-11 16:41:49.11	51.87	19.11	
2025-01-11 16:41:49.32	51.81	19.11	
2025-01-11 16:41:49.52	51.76	19.11	
2025-01-11 16:41:49.73	51.70	19.12	
2025-01-11 16:41:49.93	51.64	19.12	
2025-01-11 16:41:50.13	51.59	19.12	
2025-01-11 16:41:50.34	51.53	19.12	
2025-01-11 16:41:50.54	51.47	19.13	
2025-01-11 16:41:50.75	51.41	19.13	
2025-01-11 16:41:50.95	51.35	19.13	
2025-01-11 16:41:51.16	51.29	19.13	
2025-01-11 16:41:51.36	51.24	19.14	
2025-01-11 16:41:51.57	51.18	19.14	
2025-01-11 16:41:51.77	51.12	19.14	
2025-01-11 16:41:51.98	51.06	19.14	
2025-01-11 16:41:52.18	51.01	19.15	
2025-01-11 16:41:52.38	50.95	19.15	
2025-01-11 16:41:52.59	50.89	19.15	
2025-01-11 16:41:52.79	50.83	19.15	
2025-01-11 16:41:53.00	50.77	19.15	
2025-01-11 16:41:53.20	50.72	19.16	
2025-01-11 16:41:53.42	50.66	19.16	
2025-01-11 16:41:53.62	50.60	19.16	
2025-01-11 16:41:53.83	50.54	19.16	
2025-01-11 16:41:54.03	50.48	19.16	
2025-01-11 16:41:54.24	50.42	19.17	
2025-01-11 16:41:54.44	50.37	19.17	
2025-01-11 16:41:54.64	50.31	19.17	
2025-01-11 16:41:54.85	50.25	19.17	
2025-01-11 16:41:55.05	50.20	19.17	
2025-01-11 16:41:55.26	50.14	19.18	
2025-01-11 16:41:55.46	50.08	19.18	
2025-01-11 16:41:55.67	50.02	19.18	
2025-01-11 16:41:55.87	49.96	19.18	
2025-01-11 16:41:56.09	49.90	19.18	
2025-01-11 16:41:56.29	49.84	19.18	
2025-01-11 16:41:56.49	49.79	19.19	
2025-01-11 16:41:56.70	49.73	19.19	
2025-01-11 16:41:56.90	49.67	19.19	
2025-01-11 16:41:57.10	49.61	19.19	
2025-01-11 16:41:57.31	49.55	19.19	
2025-01-11 16:41:57.51	49.50	19.19	
2025-01-11 16:41:57.71	49.44	19.19	
2025-01-11 16:41:57.91	49.38	19.20	
2025-01-11 16:41:58.12	49.33	19.20	
2025-01-11 16:41:58.33	49.27	19.20	
2025-01-11 16:41:58.53	49.21	19.20	
2025-01-11 16:41:58.74	49.15	19.20	
2025-01-11 16:41:58.94	49.09	19.20	
2025-01-11 16:41:59.15	49.03	19.20	
2025-01-11 16:41:59.35	48.98	19.20	
2025-01-11 16:41:59.56	48.92	19.21	
2025-01-11 16:41:59.76	48.86	19.21	
2025-01-11 16:41:59.97	48.80	19.21	
2025-01-11 16:42:00.17	48.74	19.21	
2025-01-11 16:42:00.38	48.68	19.21	
2025-01-11 16:42:00.58	48.63	19.21	
2025-01-11 16:42:00.79	48.57	19.21	
2025-01-11 16:42:00.99	48.51	19.21	
2025-01-11 16:42:01.19	48.45	19.21	
2025-01-11 16:42:01.40	48.40	19.21	
2025-01-11 16:42:01.61	48.34	19.22	
2025-01-11 16:42:01.81	48.28	19.22	
2025-01-11 16:42:02.02	48.22	19.22	
2025-01-11 16:42:02.22	48.16	19.22	
2025-01-11 16:42:02.43	48.10	19.22	
2025-01-11 16:42:02.63	48.05	19.22	
2025-01-11 16:42:02.84	47.99	19.22	
2025-01-11 16:42:03.04	47.93	19.22	
2025-01-11 16:42:03.25	47.87	19.22	
2025-01-11 16:42:03.45	47.81	19.22	
2025-01-11 16:42:03.66	47.75	19.22	
2025-01-11 16:42:03.87	47.69	19.22	
2025-01-11 16:42:04.07	47.64	19.22	
2025-01-11 16:42:04.27	47.58	19.22	
2025-01-11 16:42:04.48	47.52	19.22	
2025-01-11 16:42:04.68	47.46	19.22	
2025-01-11 16:42:04.89	47.40	19.23	
2025-01-11 16:42:05.09	47.35	19.23	
2025-01-11 16:42:05.30	47.29	19.23	
2025-01-11 16:42:05.50	47.23	19.23	
2025-01-11 16:42:05.71	47.17	19.23	
2025-01-11 16:42:05.91	47.11	19.23	
2025-01-11 16:42:06.12	47.06	19.23	
2025-01-11 16:42:06.32	47.00	19.23	
2025-01-11 16:42:06.53	46.94	19.23	
2025-01-11 16:42:06.73	46.88	19.23	
2025-01-11 16:42:06.94	46.82	19.23	
2025-01-11 16:42:07.14	46.77	19.23	
2025-01-11 16:42:07.35	46.71	19.23	
2025-01-11 16:42:07.55	46.65	19.23	
2025-01-11 16:42:07.76	46.59	19.23	
2025-01-11 16:42:07.96	46.53	19.23	
2025-01-11 16:42:08.16	46.48	19.23	
2025-01-11 16:42:08.37	46.42	19.23	
2025-01-11 16:42:08.57	46.36	19.23	
2025-01-11 16:42:08.78	46.30	19.23	
2025-01-11 16:42:08.99	46.24	19.23	
2025-01-11 16:42:09.19	46.18	19.23	
2025-01-11 16:42:09.40	46.12	19.23	
2025-01-11 16:42:09.60	46.07	19.23	
2025-01-11 16:42:09.81	46.01	19.23	
2025-01-11 16:42:10.01	45.95	19.23	
2025-01-11 16:42:10.22	45.89	19.22	
2025-01-11 16:42:10.42	45.83	19.22	
2025-01-11 16:42:10.63	45.77	19.22	
2025-01-11 16:42:10.83	45.72	19.22	
2025-01-11 16:42:11.04	45.66	19.22	
2025-01-11 16:42:11.24	45.60	19.22	
2025-01-11 16:42:11.45	45.54	19.22	
2025-01-11 16:42:11.65	45.48	19.22	
2025-01-11 16:42:11.86	45.43	19.22	
2025-01-11 16:42:12.06	45.37	19.22	
2025-01-11 16:42:12.26	45.31	19.22	
2025-01-11 16:42:12.47	45.25	19.22	
2025-01-11 16:42:12.67	45.20	19.22	
2025-01-11 16:42:12.88	45.14	19.22	
2025-01-11 16:42:13.08	45.08	19.22	
2025-01-11 16:42:13.29	45.02	19.22	
2025-01-11 16:42:13.49	44.96	19.21	
2025-01-11 16:42:13.70	44.90	19.21	
2025-01-11 16:42:13.90	44.85	19.21	
2025-01-11 16:42:14.11	44.79	19.21	
2025-01-11 16:42:14.31	44.73	19.21	
2025-01-11 16:42:14.52	44.67	19.21	
2025-01-11 16:42:14.73	44.61	19.21	
2025-01-11 16:42:14.93	44.55	19.21	
2025-01-11 16:42:15.14	44.49	19.21	
2025-01-11 16:42:15.34	44.44	19.21	
2025-01-11 16:42:15.55	44.38	19.20	
2025-01-11 16:42:15.75	44.32	19.20	
2025-01-11 16:42:15.95	44.26	19.20	
2025-01-11 16:42:16.16	44.21	19.20	
2025-01-11 16:42:16.36	44.15	19.20	
2025-01-11 16:42:16.57	44.09	19.20	
2025-01-11 16:42:16.77	44.03	19.20	
2025-01-11 16:42:16.97	43.98	19.20	
2025-01-11 16:42:17.18	43.92	19.19	
2025-01-11 16:42:17.38	43.86	19.19	
2025-01-11 16:42:17.59	43.80	19.19	
2025-01-11 16:42:17.79	43.74	19.19	
2025-01-11 16:42:18.00	43.68	19.19	
2025-01-11 16:42:18.20	43.63	19.19	
2025-01-11 16:42:18.41	43.57	19.19	
2025-01-11 16:42:18.61	43.51	19.18	
2025-01-11 16:42:18.82	43.45	19.18	
2025-01-11 16:42:19.02	43.40	19.18	
2025-01-11 16:42:19.23	43.34	19.18	
2025-01-11 16:42:19.43	43.28	19.18	
2025-01-11 16:42:19.64	43.22	19.18	
2025-01-11 16:42:19.84	43.16	19.17	
2025-01-11 16:42:20.06	43.10	19.17	
2025-01-11 16:42:20.27	43.04	19.17	
2025-01-11 16:42:20.47	42.99	19.17	
2025-01-11 16:42:20.68	42.93	19.17	
2025-01-11 16:42:20.88	42.87	19.16	
2025-01-11 16:42:21.08	42.81	19.16	
2025-01-11 16:42:21.29	42.75	19.16	
2025-01-11 16:42:21.49	42.70	19.16	
2025-01-11 16:42:21.70	42.64	19.16	
2025-01-11 16:42:21.91	42.58	19.15	
2025-01-11 16:42:22.11	42.52	19.15	
2025-01-11 16:42:22.32	42.46	19.15	
2025-01-11 16:42:22.52	42.41	19.15	
2025-01-11 16:42:22.73	42.35	19.15	
2025-01-11 16:42:22.93	42.29	19.14	
2025-01-11 16:42:23.14	42.23	19.14	
2025-01-11 16:42:23.34	42.17	19.14	
2025-01-11 16:42:23.55	42.12	19.14	
2025-01-11 16:42:23.75	42.06	19.14	
2025-01-11 16:42:23.96	42.00	19.13	
2025-01-11 16:42:24.16	41.94	19.13	
2025-01-11 16:42:24.37	41.88	19.13	
2025-01-11 16:42:24.57	41.83	19.13	
2025-01-11 16:42:24.78	41.77	19.12	
2025-01-11 16:42:24.98	41.71	19.12	
2025-01-11 16:42:25.19	41.65	19.12	
2025-01-11 16:42:25.39	41.60	19.12	
2025-01-11 16:42:25.60	41.54	19.11	
2025-01-11 16:42:25.80	41.48	19.11	
2025-01-11 16:42:26.01	41.42	19.11	
2025-01-11 16:42:26.21	41.37	19.11	
2025-01-11 16:42:26.41	41.31	19.10	
2025-01-11 16:42:26.62	41.25	19.10	
2025-01-11 16:42:26.83	41.19	19.10	
2025-01-11 16:42:27.03	41.13	19.09	
2025-01-11 16:42:27.24	41.08	19.09	
2025-01-11 16:42:27.44	41.02	19.09	
2025-01-11 16:42:27.65	40.96	19.09	
2025-01-11 16:42:27.85	40.90	19.08	
2025-01-11 16:42:28.06	40.85	19.08	
2025-01-11 16:42:28.26	40.79	19.08	
2025-01-11 16:42:28.47	40.73	19.07	
2025-01-11 16:42:28.67	40.67	19.07	
2025-01-11 16:42:28.88	40.61	19.07	
2025-01-11 16:42:29.08	40.56	19.07	
2025-01-11 16:42:29.29	40.50	19.06	
2025-01-11 16:42:29.49	40.44	19.06	
2025-01-11 16:42:29.70	40.38	19.06	
2025-01-11 16:42:29.90	40.33	19.05	
2025-01-11 16:42:30.11	40.27	19.05	
2025-01-11 16:42:30.31	40.21	19.05	
2025-01-11 16:42:30.52	40.15	19.04	
2025-01-11 16:42:30.72	40.10	19.04	
2025-01-11 16:42:30.93	40.04	19.04	
2025-01-11 16:42:31.14	39.98	19.03	
2025-01-11 16:42:31.34	39.93	19.03	
2025-01-11 16:42:31.55	39.87	19.03	
2025-01-11 16:42:31.75	39.81	19.02	
2025-01-11 16:42:31.96	39.75	19.02	
2025-01-11 16:42:32.16	39.70	19.02	
2025-01-11 16:42:32.37	39.64	19.01	
2025-01-11 16:42:32.57	39.58	19.01	
2025-01-11 16:42:32.77	39.53	19.01	
2025-01-11 16:42:32.98	39.47	19.00	
2025-01-11 16:42:33.19	39.41	19.00	
2025-01-11 16:42:33.39	39.35	18.99	
2025-01-11 16:42:33.60	39.29	18.99	
2025-01-11 16:42:33.80	39.24	18.99	
2025-01-11 16:42:34.00	39.18	18.98	
2025-01-11 16:42:34.21	39.12	18.98	
2025-01-11 16:42:34.41	39.07	18.98	
2025-01-11 16:42:34.62	39.01	18.97	
2025-01-11 16:42:34.83	38.95	18.97	
2025-01-11 16:42:35.04	38.89	18.96	
2025-01-11 16:42:35.25	38.83	18.96	
2025-01-11 16:42:35.45	38.78	18.96	
2025-01-11 16:42:35.65	38.72	18.95	
2025-01-11 16:42:35.86	38.66	18.95	
2025-01-11 16:42:36.06	38.61	18.94	
2025-01-11 16:42:36.27	38.55	18.94	
2025-01-11 16:42:36.47	38.49	18.94	
2025-01-11 16:42:36.68	38.44	18.93	
2025-01-11 16:42:36.88	38.38	18.93	
2025-01-11 16:42:37.09	38.32	18.92	
2025-01-11 16:42:37.29	38.27	18.92	
2025-01-11 16:42:37.50	38.21	18.92	
2025-01-11 16:42:37.71	38.15	18.91	
2025-01-11 16:42:37.91	38.09	18.91	
2025-01-11 16:42:38.11	38.04	18.90	
2025-01-11 16:42:38.32	37.98	18.90	
2025-01-11 16:42:38.52	37.92	18.89	
2025-01-11 16:42:38.73	37.87	18.89	
2025-01-11 16:42:38.93	37.81	18.89	
2025-01-11 16:42:39.14	37.75	18.88	
2025-01-11 16:42:39.34	37.70	18.88	
2025-01-11 16:42:39.55	37.64	18.87	
2025-01-11 16:42:39.75	37.58	18.87	
2025-01-11 16:42:39.96	37.53	18.86	
2025-01-11 16:42:40.16	37.47	18.86	
2025-01-11 16:42:40.37	37.41	18.85	
2025-01-11 16:42:40.57	37.36	18.85	
2025-01-11 16:42:40.78	37.30	18.84	
2025-01-11 16:42:40.98	37.24	18.84	
2025-01-11 16:42:41.19	37.19	18.84	
2025-01-11 16:42:41.39	37.13	18.83	
2025-01-11 16:42:41.59	37.07	18.83	
2025-01-11 16:42:41.80	37.02	18.82	
2025-01-11 16:42:42.01	36.96	18.82	
2025-01-11 16:42:42.21	36.90	18.81	
2025-01-11 16:42:42.41	36.85	18.81	
2025-01-11 16:42:42.62	36.79	18.80	
2025-01-11 16:42:42.83	36.73	18.80	
2025-01-11 16:42:43.03	36.68	18.79	
2025-01-11 16:42:43.24	36.62	18.79	
2025-01-11 16:42:43.45	36.56	18.78	
2025-01-11 16:42:43.65	36.51	18.78	
2025-01-11 16:42:43.85	36.45	18.77	
2025-01-11 16:42:44.06	36.39	18.77	
2025-01-11 16:42:44.27	36.34	18.76	
2025-01-11 16:42:44.47	36.28	18.76	
2025-01-11 16:42:44.68	36.22	18.75	
2025-01-11 16:42:44.88	36.17	18.75	
2025-01-11 16:42:45.08	36.11	18.74	
2025-01-11 16:42:45.29	36.06	18.74	
2025-01-11 16:42:45.50	36.00	18.73	
2025-01-11 16:42:45.70	35.94	18.73	
2025-01-11 16:42:45.91	35.89	18.72	
2025-01-11 16:42:46.11	35.83	18.72	
2025-01-11 16:42:46.32	35.77	18.71	
2025-01-11 16:42:46.52	35.72	18.70	
2025-01-11 16:42:46.72	35.67	18.70	
2025-01-11 16:42:46.93	35.61	18.69	
2025-01-11 16:42:47.13	35.55	18.69	
2025-01-11 16:42:47.34	35.50	18.68	
2025-01-11 16:42:47.54	35.44	18.68	
2025-01-11 16:42:47.75	35.38	18.67	
2025-01-11 16:42:47.95	35.33	18.67	
2025-01-11 16:42:48.16	35.27	18.66	
2025-01-11 16:42:48.36	35.22	18.66	
2025-01-11 16:42:48.57	35.16	18.65	
2025-01-11 16:42:48.77	35.11	18.64	
2025-01-11 16:42:48.98	35.05	18.64	
2025-01-11 16:42:49.18	34.99	18.63	
2025-01-11 16:42:49.39	34.94	18.63	
2025-01-11 16:42:49.60	34.88	18.62	
2025-01-11 16:42:49.80	34.83	18.62	
2025-01-11 16:42:50.01	34.77	18.61	
2025-01-11 16:42:50.21	34.71	18.60	
2025-01-11 16:42:50.42	34.66	18.60	
2025-01-11 16:42:50.62	34.60	18.59	
2025-01-11 16:42:50.83	34.55	18.59	
2025-01-11 16:42:51.03	34.49	18.58	
2025-01-11 16:42:51.24	34.43	18.57	
2025-01-11 16:42:51.44	34.38	18.57	
2025-01-11 16:42:51.65	34.32	18.56	
2025-01-11 16:42:51.85	34.27	18.56	
2025-01-11 16:42:52.06	34.21	18.55	
2025-01-11 16:42:52.26	34.16	18.54	
2025-01-11 16:42:52.47	34.10	18.54	
2025-01-11 16:42:52.67	34.05	18.53	
2025-01-11 16:42:52.87	33.99	18.53	
2025-01-11 16:42:53.08	33.94	18.52	
2025-01-11 16:42:53.28	33.88	18.51	
2025-01-11 16:42:53.49	33.83	18.51	
2025-01-11 16:42:53.69	33.77	18.50	
2025-01-11 16:42:53.90	33.72	18.49	
2025-01-11 16:42:54.10	33.66	18.49	
2025-01-11 16:42:54.31	33.61	18.48	
2025-01-11 16:42:54.51	33.55	18.48	
2025-01-11 16:42:54.71	33.50	18.47	
2025-01-11 16:42:54.92	33.44	18.46	
2025-01-11 16:42:55.12	33.39	18.46	
2025-01-11 16:42:55.34	33.33	18.45	
2025-01-11 16:42:55.55	33.27	18.44	
2025-01-11 16:42:55.75	33.22	18.44	
2025-01-11 16:42:55.96	33.16	18.43	
2025-01-11 16:42:56.16	33.11	18.42	
2025-01-11 16:42:56.37	33.05	18.42	
2025-01-11 16:42:56.57	33.00	18.41	
2025-01-11 16:42:56.78	32.94	18.40	
2025-01-11 16:42:56.99	32.89	18.40	
2025-01-11 16:42:57.19	32.83	18.39	
2025-01-11 16:42:57.40	32.78	18.38	
2025-01-11 16:42:57.60	32.72	18.38	
2025-01-11 16:42:57.81	32.67	18.37	
2025-01-11 16:42:58.01	32.61	18.36	
