passes_logs/2025/01/11/SPB_Silybum_02/SPB_Silybum_02__20250111_235919_AQUA_rec.log

#Pass ID: 20250111_235919_AQUA
#Satellite: AQUA
#Configuration: AQUA
#Start time: 2025-01-11 23:59:18

#Version: 2.0.20230423
#Station: SPB_Silybum_02
#Location: 30.233357 lon 59.946436 lat
#TLE: 1 27424U 02022A   25010.89862733  .00001944  00000+0  40909-3 0  9991
#TLE: 2 27424  98.3577 327.5256 0001581 116.2883 319.2080 14.60667727207024

#Time	Az	El	Level	Level2	SNR	BER	Gain	Gain2
2025-01-11 23:59:20.62	26.05	4.10	
2025-01-11 23:59:20.83	26.06	4.12	
2025-01-11 23:59:21.04	26.08	4.13	
2025-01-11 23:59:21.24	26.10	4.14	
2025-01-11 23:59:21.45	26.11	4.15	
2025-01-11 23:59:21.66	26.13	4.17	
2025-01-11 23:59:21.86	26.15	4.18	
2025-01-11 23:59:22.07	26.16	4.19	
2025-01-11 23:59:22.27	26.18	4.21	
2025-01-11 23:59:22.48	26.19	4.22	
2025-01-11 23:59:22.68	26.21	4.23	
2025-01-11 23:59:22.89	26.23	4.25	
2025-01-11 23:59:23.09	26.24	4.26	
2025-01-11 23:59:23.30	26.26	4.27	
2025-01-11 23:59:23.50	26.28	4.28	
2025-01-11 23:59:23.71	26.29	4.30	
2025-01-11 23:59:23.91	26.31	4.31	
2025-01-11 23:59:24.12	26.33	4.32	
2025-01-11 23:59:24.33	26.34	4.34	
2025-01-11 23:59:24.53	26.36	4.35	
2025-01-11 23:59:24.74	26.38	4.36	
2025-01-11 23:59:24.94	26.39	4.38	
2025-01-11 23:59:25.14	26.41	4.39	
2025-01-11 23:59:25.35	26.43	4.40	
2025-01-11 23:59:25.56	26.44	4.41	
2025-01-11 23:59:25.76	26.46	4.43	
2025-01-11 23:59:25.97	26.48	4.44	
2025-01-11 23:59:26.17	26.49	4.45	
2025-01-11 23:59:26.38	26.51	4.47	
2025-01-11 23:59:26.58	26.52	4.48	
2025-01-11 23:59:26.79	26.54	4.49	
2025-01-11 23:59:26.99	26.56	4.51	
2025-01-11 23:59:27.19	26.57	4.52	
2025-01-11 23:59:27.40	26.59	4.53	
2025-01-11 23:59:27.61	26.61	4.54	
2025-01-11 23:59:27.81	26.63	4.56	
2025-01-11 23:59:28.02	26.64	4.57	
2025-01-11 23:59:28.22	26.66	4.58	
2025-01-11 23:59:28.43	26.68	4.60	
2025-01-11 23:59:28.63	26.69	4.61	
2025-01-11 23:59:28.84	26.71	4.62	
2025-01-11 23:59:29.04	26.73	4.64	
2025-01-11 23:59:29.25	26.74	4.65	
2025-01-11 23:59:29.45	26.76	4.66	
2025-01-11 23:59:29.66	26.78	4.68	
2025-01-11 23:59:29.86	26.79	4.69	
2025-01-11 23:59:30.07	26.81	4.70	
2025-01-11 23:59:30.27	26.83	4.71	
2025-01-11 23:59:30.49	26.85	4.73	
2025-01-11 23:59:30.69	26.86	4.74	
2025-01-11 23:59:30.90	26.88	4.75	
2025-01-11 23:59:31.10	26.90	4.77	
2025-01-11 23:59:31.31	26.91	4.78	
2025-01-11 23:59:31.51	26.93	4.79	
2025-01-11 23:59:31.72	26.95	4.81	
2025-01-11 23:59:31.92	26.96	4.82	
2025-01-11 23:59:32.13	26.98	4.83	
2025-01-11 23:59:32.33	27.00	4.85	
2025-01-11 23:59:32.54	27.02	4.86	
2025-01-11 23:59:32.74	27.03	4.87	
2025-01-11 23:59:32.95	27.05	4.89	
2025-01-11 23:59:33.15	27.07	4.90	
2025-01-11 23:59:33.37	27.08	4.91	
2025-01-11 23:59:33.57	27.10	4.93	
2025-01-11 23:59:33.78	27.12	4.94	
2025-01-11 23:59:33.98	27.14	4.95	
2025-01-11 23:59:34.19	27.15	4.97	
2025-01-11 23:59:34.40	27.17	4.98	
2025-01-11 23:59:34.60	27.19	4.99	
2025-01-11 23:59:34.80	27.21	5.01	
2025-01-11 23:59:35.01	27.22	5.02	
2025-01-11 23:59:35.21	27.24	5.03	
2025-01-11 23:59:35.42	27.26	5.05	
2025-01-11 23:59:35.63	27.28	5.06	
2025-01-11 23:59:35.83	27.29	5.07	
2025-01-11 23:59:36.03	27.31	5.09	
2025-01-11 23:59:36.24	27.33	5.10	
2025-01-11 23:59:36.45	27.34	5.11	
2025-01-11 23:59:36.65	27.36	5.13	
2025-01-11 23:59:36.85	27.38	5.14	
2025-01-11 23:59:37.06	27.40	5.15	
2025-01-11 23:59:37.27	27.41	5.17	
2025-01-11 23:59:37.47	27.43	5.18	
2025-01-11 23:59:37.68	27.45	5.19	
2025-01-11 23:59:37.88	27.47	5.21	
2025-01-11 23:59:38.08	27.48	5.22	
2025-01-11 23:59:38.29	27.50	5.23	
2025-01-11 23:59:38.50	27.52	5.25	
2025-01-11 23:59:38.70	27.54	5.26	
2025-01-11 23:59:38.91	27.55	5.27	
2025-01-11 23:59:39.11	27.57	5.29	
2025-01-11 23:59:39.32	27.59	5.30	
2025-01-11 23:59:39.53	27.61	5.31	
2025-01-11 23:59:39.73	27.63	5.33	
2025-01-11 23:59:39.93	27.64	5.34	
2025-01-11 23:59:40.14	27.66	5.35	
2025-01-11 23:59:40.34	27.68	5.37	
2025-01-11 23:59:40.55	27.70	5.38	
2025-01-11 23:59:40.75	27.71	5.39	
2025-01-11 23:59:40.96	27.73	5.41	
2025-01-11 23:59:41.17	27.75	5.42	
2025-01-11 23:59:41.38	27.77	5.43	
2025-01-11 23:59:41.59	27.79	5.45	
2025-01-11 23:59:41.79	27.80	5.46	
2025-01-11 23:59:42.00	27.82	5.47	
2025-01-11 23:59:42.20	27.84	5.49	
2025-01-11 23:59:42.41	27.86	5.50	
2025-01-11 23:59:42.61	27.88	5.51	
2025-01-11 23:59:42.82	27.89	5.53	
2025-01-11 23:59:43.03	27.91	5.54	
2025-01-11 23:59:43.23	27.93	5.56	
2025-01-11 23:59:43.43	27.95	5.57	
2025-01-11 23:59:43.64	27.97	5.58	
2025-01-11 23:59:43.84	27.98	5.60	
2025-01-11 23:59:44.05	28.00	5.61	
2025-01-11 23:59:44.25	28.02	5.62	
2025-01-11 23:59:44.46	28.04	5.64	
2025-01-11 23:59:44.66	28.06	5.65	
2025-01-11 23:59:44.87	28.07	5.66	
2025-01-11 23:59:45.07	28.09	5.68	
2025-01-11 23:59:45.28	28.11	5.69	
2025-01-11 23:59:45.48	28.13	5.70	
2025-01-11 23:59:45.69	28.15	5.72	
2025-01-11 23:59:45.89	28.16	5.73	
2025-01-11 23:59:46.10	28.18	5.74	
2025-01-11 23:59:46.30	28.20	5.76	
2025-01-11 23:59:46.51	28.22	5.77	
2025-01-11 23:59:46.71	28.24	5.78	
2025-01-11 23:59:46.92	28.26	5.80	
2025-01-11 23:59:47.12	28.27	5.81	
2025-01-11 23:59:47.33	28.29	5.83	
2025-01-11 23:59:47.53	28.31	5.84	
2025-01-11 23:59:47.74	28.33	5.85	
2025-01-11 23:59:47.94	28.35	5.87	
2025-01-11 23:59:48.15	28.37	5.88	
2025-01-11 23:59:48.35	28.38	5.89	
2025-01-11 23:59:48.56	28.40	5.91	
2025-01-11 23:59:48.76	28.42	5.92	
2025-01-11 23:59:48.97	28.44	5.93	
2025-01-11 23:59:49.17	28.46	5.95	
2025-01-11 23:59:49.38	28.48	5.96	
2025-01-11 23:59:49.58	28.49	5.98	
2025-01-11 23:59:49.79	28.51	5.99	
2025-01-11 23:59:49.99	28.53	6.00	
2025-01-11 23:59:50.20	28.55	6.02	
2025-01-11 23:59:50.40	28.57	6.03	
2025-01-11 23:59:50.61	28.59	6.04	
2025-01-11 23:59:50.81	28.61	6.06	
2025-01-11 23:59:51.02	28.62	6.07	
2025-01-11 23:59:51.22	28.64	6.08	
2025-01-11 23:59:51.43	28.66	6.10	
2025-01-11 23:59:51.63	28.68	6.11	
2025-01-11 23:59:51.85	28.70	6.13	
2025-01-11 23:59:52.06	28.72	6.14	
2025-01-11 23:59:52.26	28.74	6.15	
2025-01-11 23:59:52.47	28.76	6.17	
2025-01-11 23:59:52.67	28.78	6.18	
2025-01-11 23:59:52.88	28.79	6.20	
2025-01-11 23:59:53.08	28.81	6.21	
2025-01-11 23:59:53.29	28.83	6.22	
2025-01-11 23:59:53.49	28.85	6.24	
2025-01-11 23:59:53.70	28.87	6.25	
2025-01-11 23:59:53.90	28.89	6.26	
2025-01-11 23:59:54.11	28.91	6.28	
2025-01-11 23:59:54.32	28.93	6.29	
2025-01-11 23:59:54.52	28.95	6.31	
2025-01-11 23:59:54.73	28.96	6.32	
2025-01-11 23:59:54.93	28.98	6.33	
2025-01-11 23:59:55.14	29.00	6.35	
2025-01-11 23:59:55.35	29.02	6.36	
2025-01-11 23:59:55.55	29.04	6.37	
2025-01-11 23:59:55.76	29.06	6.39	
2025-01-11 23:59:55.96	29.08	6.40	
2025-01-11 23:59:56.17	29.10	6.42	
2025-01-11 23:59:56.37	29.12	6.43	
2025-01-11 23:59:56.58	29.14	6.44	
2025-01-11 23:59:56.78	29.16	6.46	
2025-01-11 23:59:56.99	29.18	6.47	
2025-01-11 23:59:57.19	29.19	6.49	
2025-01-11 23:59:57.40	29.21	6.50	
2025-01-11 23:59:57.60	29.23	6.51	
2025-01-11 23:59:57.81	29.25	6.53	
2025-01-11 23:59:58.01	29.27	6.54	
2025-01-11 23:59:58.22	29.29	6.56	
2025-01-11 23:59:58.42	29.31	6.57	
2025-01-11 23:59:58.63	29.33	6.58	
2025-01-11 23:59:58.83	29.35	6.60	
2025-01-11 23:59:59.04	29.37	6.61	
2025-01-11 23:59:59.24	29.39	6.62	
2025-01-11 23:59:59.45	29.41	6.64	
2025-01-11 23:59:59.65	29.43	6.65	
2025-01-11 23:59:59.86	29.45	6.67	
2025-01-12 00:00:00.06	29.46	6.68	
2025-01-12 00:00:00.26	29.48	6.69	
2025-01-12 00:00:00.46	29.50	6.71	
2025-01-12 00:00:00.67	29.52	6.72	
2025-01-12 00:00:00.88	29.54	6.74	
2025-01-12 00:00:01.08	29.56	6.75	
2025-01-12 00:00:01.28	29.58	6.76	
2025-01-12 00:00:01.49	29.60	6.78	
2025-01-12 00:00:01.69	29.62	6.79	
2025-01-12 00:00:01.90	29.64	6.81	
2025-01-12 00:00:02.10	29.66	6.82	
2025-01-12 00:00:02.31	29.68	6.83	
2025-01-12 00:00:02.53	29.70	6.85	
2025-01-12 00:00:02.73	29.72	6.86	
2025-01-12 00:00:02.94	29.74	6.88	
2025-01-12 00:00:03.15	29.76	6.89	
2025-01-12 00:00:03.35	29.78	6.90	
2025-01-12 00:00:03.57	29.80	6.92	
2025-01-12 00:00:03.78	29.82	6.93	
2025-01-12 00:00:03.98	29.84	6.95	
2025-01-12 00:00:04.19	29.86	6.96	
2025-01-12 00:00:04.39	29.88	6.98	
2025-01-12 00:00:04.59	29.90	6.99	
2025-01-12 00:00:04.80	29.92	7.00	
2025-01-12 00:00:05.01	29.94	7.02	
2025-01-12 00:00:05.21	29.96	7.03	
2025-01-12 00:00:05.42	29.98	7.05	
2025-01-12 00:00:05.64	30.00	7.06	
2025-01-12 00:00:05.84	30.02	7.08	
2025-01-12 00:00:06.05	30.04	7.09	
2025-01-12 00:00:06.25	30.06	7.10	
2025-01-12 00:00:06.46	30.08	7.12	
2025-01-12 00:00:06.66	30.10	7.13	
2025-01-12 00:00:06.87	30.12	7.15	
2025-01-12 00:00:07.07	30.14	7.16	
2025-01-12 00:00:07.28	30.16	7.17	
2025-01-12 00:00:07.49	30.18	7.19	
2025-01-12 00:00:07.69	30.20	7.20	
2025-01-12 00:00:07.90	30.22	7.22	
2025-01-12 00:00:08.10	30.24	7.23	
2025-01-12 00:00:08.31	30.26	7.25	
2025-01-12 00:00:08.52	30.28	7.26	
2025-01-12 00:00:08.72	30.30	7.27	
2025-01-12 00:00:08.93	30.32	7.29	
2025-01-12 00:00:09.13	30.34	7.30	
2025-01-12 00:00:09.34	30.37	7.32	
2025-01-12 00:00:09.54	30.38	7.33	
2025-01-12 00:00:09.75	30.41	7.35	
2025-01-12 00:00:09.95	30.43	7.36	
2025-01-12 00:00:10.16	30.45	7.37	
2025-01-12 00:00:10.36	30.47	7.39	
2025-01-12 00:00:10.57	30.49	7.40	
2025-01-12 00:00:10.78	30.51	7.42	
2025-01-12 00:00:10.98	30.53	7.43	
2025-01-12 00:00:11.19	30.55	7.45	
2025-01-12 00:00:11.39	30.57	7.46	
2025-01-12 00:00:11.60	30.59	7.47	
2025-01-12 00:00:11.80	30.61	7.49	
2025-01-12 00:00:12.02	30.63	7.50	
2025-01-12 00:00:12.22	30.65	7.52	
2025-01-12 00:00:12.43	30.67	7.53	
2025-01-12 00:00:12.64	30.70	7.55	
2025-01-12 00:00:12.84	30.72	7.56	
2025-01-12 00:00:13.05	30.74	7.58	
2025-01-12 00:00:13.25	30.76	7.59	
2025-01-12 00:00:13.46	30.78	7.60	
2025-01-12 00:00:13.66	30.80	7.62	
2025-01-12 00:00:13.87	30.82	7.63	
2025-01-12 00:00:14.08	30.84	7.65	
2025-01-12 00:00:14.28	30.86	7.66	
2025-01-12 00:00:14.48	30.88	7.68	
2025-01-12 00:00:14.69	30.90	7.69	
2025-01-12 00:00:14.90	30.92	7.70	
2025-01-12 00:00:15.10	30.95	7.72	
2025-01-12 00:00:15.30	30.97	7.73	
2025-01-12 00:00:15.51	30.99	7.75	
2025-01-12 00:00:15.72	31.01	7.76	
2025-01-12 00:00:15.92	31.03	7.78	
2025-01-12 00:00:16.13	31.05	7.79	
2025-01-12 00:00:16.33	31.07	7.81	
2025-01-12 00:00:16.53	31.09	7.82	
2025-01-12 00:00:16.74	31.11	7.83	
2025-01-12 00:00:16.95	31.14	7.85	
2025-01-12 00:00:17.15	31.16	7.86	
2025-01-12 00:00:17.37	31.18	7.88	
2025-01-12 00:00:17.58	31.20	7.89	
2025-01-12 00:00:17.78	31.22	7.91	
2025-01-12 00:00:17.99	31.24	7.92	
2025-01-12 00:00:18.19	31.26	7.94	
2025-01-12 00:00:18.40	31.29	7.95	
2025-01-12 00:00:18.60	31.31	7.97	
2025-01-12 00:00:18.81	31.33	7.98	
2025-01-12 00:00:19.01	31.35	7.99	
2025-01-12 00:00:19.22	31.37	8.01	
2025-01-12 00:00:19.42	31.39	8.02	
2025-01-12 00:00:19.63	31.41	8.04	
2025-01-12 00:00:19.83	31.43	8.05	
2025-01-12 00:00:20.04	31.46	8.07	
2025-01-12 00:00:20.25	31.48	8.08	
2025-01-12 00:00:20.45	31.50	8.10	
2025-01-12 00:00:20.66	31.52	8.11	
2025-01-12 00:00:20.86	31.54	8.13	
2025-01-12 00:00:21.07	31.56	8.14	
2025-01-12 00:00:21.27	31.59	8.15	
2025-01-12 00:00:21.48	31.61	8.17	
2025-01-12 00:00:21.68	31.63	8.18	
2025-01-12 00:00:21.89	31.65	8.20	
2025-01-12 00:00:22.09	31.67	8.21	
2025-01-12 00:00:22.30	31.69	8.23	
2025-01-12 00:00:22.50	31.72	8.24	
2025-01-12 00:00:22.71	31.74	8.26	
2025-01-12 00:00:22.91	31.76	8.27	
2025-01-12 00:00:23.12	31.78	8.29	
2025-01-12 00:00:23.33	31.80	8.30	
2025-01-12 00:00:23.53	31.82	8.32	
2025-01-12 00:00:23.73	31.85	8.33	
2025-01-12 00:00:23.94	31.87	8.34	
2025-01-12 00:00:24.14	31.89	8.36	
2025-01-12 00:00:24.35	31.91	8.37	
2025-01-12 00:00:24.56	31.93	8.39	
2025-01-12 00:00:24.76	31.96	8.40	
2025-01-12 00:00:24.96	31.98	8.42	
2025-01-12 00:00:25.17	32.00	8.43	
2025-01-12 00:00:25.37	32.02	8.45	
2025-01-12 00:00:25.58	32.04	8.46	
2025-01-12 00:00:25.79	32.07	8.48	
2025-01-12 00:00:25.99	32.09	8.49	
2025-01-12 00:00:26.20	32.11	8.51	
2025-01-12 00:00:26.40	32.13	8.52	
2025-01-12 00:00:26.61	32.16	8.54	
2025-01-12 00:00:26.81	32.18	8.55	
2025-01-12 00:00:27.02	32.20	8.57	
2025-01-12 00:00:27.22	32.22	8.58	
2025-01-12 00:00:27.43	32.24	8.60	
2025-01-12 00:00:27.64	32.27	8.61	
2025-01-12 00:00:27.84	32.29	8.62	
2025-01-12 00:00:28.04	32.31	8.64	
2025-01-12 00:00:28.25	32.33	8.65	
2025-01-12 00:00:28.46	32.36	8.67	
2025-01-12 00:00:28.66	32.38	8.68	
2025-01-12 00:00:28.87	32.40	8.70	
2025-01-12 00:00:29.07	32.42	8.71	
2025-01-12 00:00:29.28	32.45	8.73	
2025-01-12 00:00:29.48	32.47	8.74	
2025-01-12 00:00:29.69	32.49	8.76	
2025-01-12 00:00:29.89	32.51	8.77	
2025-01-12 00:00:30.10	32.54	8.79	
2025-01-12 00:00:30.30	32.56	8.80	
2025-01-12 00:00:30.51	32.58	8.82	
2025-01-12 00:00:30.71	32.60	8.83	
2025-01-12 00:00:30.92	32.63	8.85	
2025-01-12 00:00:31.13	32.65	8.86	
2025-01-12 00:00:31.33	32.67	8.88	
2025-01-12 00:00:31.54	32.70	8.89	
2025-01-12 00:00:31.74	32.72	8.91	
2025-01-12 00:00:31.95	32.74	8.92	
2025-01-12 00:00:32.16	32.77	8.94	
2025-01-12 00:00:32.36	32.79	8.95	
2025-01-12 00:00:32.56	32.81	8.97	
2025-01-12 00:00:32.77	32.83	8.98	
2025-01-12 00:00:32.98	32.86	9.00	
2025-01-12 00:00:33.18	32.88	9.01	
2025-01-12 00:00:33.40	32.90	9.03	
2025-01-12 00:00:33.61	32.93	9.04	
2025-01-12 00:00:33.81	32.95	9.06	
2025-01-12 00:00:34.02	32.97	9.07	
2025-01-12 00:00:34.22	33.00	9.09	
2025-01-12 00:00:34.42	33.02	9.10	
2025-01-12 00:00:34.63	33.04	9.12	
2025-01-12 00:00:34.84	33.07	9.13	
2025-01-12 00:00:35.04	33.09	9.15	
2025-01-12 00:00:35.25	33.11	9.16	
2025-01-12 00:00:35.45	33.13	9.18	
2025-01-12 00:00:35.66	33.16	9.19	
2025-01-12 00:00:35.86	33.18	9.21	
2025-01-12 00:00:36.07	33.21	9.22	
2025-01-12 00:00:36.27	33.23	9.24	
2025-01-12 00:00:36.48	33.25	9.25	
2025-01-12 00:00:36.70	33.28	9.27	
2025-01-12 00:00:36.90	33.30	9.28	
2025-01-12 00:00:37.11	33.32	9.30	
2025-01-12 00:00:37.31	33.35	9.31	
2025-01-12 00:00:37.52	33.37	9.33	
2025-01-12 00:00:37.73	33.39	9.34	
2025-01-12 00:00:37.93	33.42	9.36	
2025-01-12 00:00:38.14	33.44	9.37	
2025-01-12 00:00:38.34	33.46	9.39	
2025-01-12 00:00:38.54	33.49	9.40	
2025-01-12 00:00:38.75	33.51	9.42	
2025-01-12 00:00:38.95	33.54	9.43	
2025-01-12 00:00:39.16	33.56	9.45	
2025-01-12 00:00:39.37	33.58	9.47	
2025-01-12 00:00:39.57	33.61	9.48	
2025-01-12 00:00:39.78	33.63	9.50	
2025-01-12 00:00:39.98	33.65	9.51	
2025-01-12 00:00:40.19	33.68	9.53	
2025-01-12 00:00:40.39	33.70	9.54	
2025-01-12 00:00:40.60	33.73	9.56	
2025-01-12 00:00:40.80	33.75	9.57	
2025-01-12 00:00:41.01	33.77	9.59	
2025-01-12 00:00:41.21	33.80	9.60	
2025-01-12 00:00:41.42	33.82	9.62	
2025-01-12 00:00:41.62	33.85	9.63	
2025-01-12 00:00:41.83	33.87	9.65	
2025-01-12 00:00:42.03	33.89	9.66	
2025-01-12 00:00:42.23	33.92	9.68	
2025-01-12 00:00:42.44	33.94	9.69	
2025-01-12 00:00:42.64	33.97	9.71	
2025-01-12 00:00:42.85	33.99	9.72	
2025-01-12 00:00:43.05	34.01	9.74	
2025-01-12 00:00:43.26	34.04	9.75	
2025-01-12 00:00:43.46	34.06	9.77	
2025-01-12 00:00:43.67	34.09	9.78	
2025-01-12 00:00:43.88	34.11	9.80	
2025-01-12 00:00:44.08	34.14	9.81	
2025-01-12 00:00:44.29	34.16	9.83	
2025-01-12 00:00:44.49	34.18	9.84	
2025-01-12 00:00:44.69	34.21	9.86	
2025-01-12 00:00:44.90	34.23	9.88	
2025-01-12 00:00:45.12	34.26	9.89	
2025-01-12 00:00:45.32	34.28	9.91	
2025-01-12 00:00:45.53	34.31	9.92	
2025-01-12 00:00:45.74	34.33	9.94	
2025-01-12 00:00:45.94	34.36	9.95	
2025-01-12 00:00:46.14	34.38	9.97	
2025-01-12 00:00:46.35	34.41	9.98	
2025-01-12 00:00:46.55	34.43	10.00	
2025-01-12 00:00:46.76	34.46	10.01	
2025-01-12 00:00:46.97	34.48	10.03	
2025-01-12 00:00:47.17	34.50	10.04	
2025-01-12 00:00:47.37	34.53	10.06	
2025-01-12 00:00:47.58	34.55	10.08	
2025-01-12 00:00:47.79	34.58	10.09	
2025-01-12 00:00:47.99	34.60	10.11	
2025-01-12 00:00:48.20	34.63	10.12	
2025-01-12 00:00:48.40	34.65	10.14	
2025-01-12 00:00:48.61	34.68	10.15	
2025-01-12 00:00:48.81	34.70	10.17	
2025-01-12 00:00:49.02	34.73	10.18	
2025-01-12 00:00:49.22	34.75	10.20	
2025-01-12 00:00:49.43	34.78	10.21	
2025-01-12 00:00:49.63	34.80	10.23	
2025-01-12 00:00:49.84	34.83	10.25	
2025-01-12 00:00:50.04	34.85	10.26	
2025-01-12 00:00:50.25	34.88	10.28	
2025-01-12 00:00:50.45	34.90	10.29	
2025-01-12 00:00:50.65	34.93	10.31	
2025-01-12 00:00:50.86	34.95	10.32	
2025-01-12 00:00:51.06	34.98	10.34	
2025-01-12 00:00:51.27	35.00	10.35	
2025-01-12 00:00:51.48	35.03	10.37	
2025-01-12 00:00:51.68	35.05	10.38	
2025-01-12 00:00:51.89	35.08	10.40	
2025-01-12 00:00:52.09	35.11	10.42	
2025-01-12 00:00:52.30	35.13	10.43	
2025-01-12 00:00:52.50	35.16	10.45	
2025-01-12 00:00:52.70	35.18	10.46	
2025-01-12 00:00:52.91	35.21	10.48	
2025-01-12 00:00:53.12	35.23	10.49	
2025-01-12 00:00:53.32	35.26	10.51	
2025-01-12 00:00:53.53	35.28	10.52	
2025-01-12 00:00:53.74	35.31	10.54	
2025-01-12 00:00:53.95	35.34	10.56	
2025-01-12 00:00:54.15	35.36	10.57	
2025-01-12 00:00:54.36	35.39	10.59	
2025-01-12 00:00:54.56	35.41	10.60	
2025-01-12 00:00:54.77	35.44	10.62	
2025-01-12 00:00:54.97	35.46	10.63	
2025-01-12 00:00:55.18	35.49	10.65	
2025-01-12 00:00:55.38	35.52	10.67	
2025-01-12 00:00:55.59	35.54	10.68	
2025-01-12 00:00:55.79	35.57	10.70	
2025-01-12 00:00:56.00	35.59	10.71	
2025-01-12 00:00:56.20	35.62	10.73	
2025-01-12 00:00:56.41	35.65	10.74	
2025-01-12 00:00:56.61	35.67	10.76	
2025-01-12 00:00:56.82	35.70	10.77	
2025-01-12 00:00:57.04	35.73	10.79	
2025-01-12 00:00:57.24	35.75	10.81	
2025-01-12 00:00:57.45	35.78	10.82	
2025-01-12 00:00:57.65	35.80	10.84	
2025-01-12 00:00:57.86	35.83	10.85	
2025-01-12 00:00:58.06	35.86	10.87	
2025-01-12 00:00:58.28	35.88	10.89	
2025-01-12 00:00:58.49	35.91	10.90	
2025-01-12 00:00:58.69	35.94	10.92	
2025-01-12 00:00:58.90	35.96	10.93	
2025-01-12 00:00:59.10	35.99	10.95	
2025-01-12 00:00:59.31	36.02	10.97	
2025-01-12 00:00:59.51	36.04	10.98	
2025-01-12 00:00:59.72	36.07	11.00	
2025-01-12 00:00:59.92	36.09	11.01	
2025-01-12 00:01:00.13	36.12	11.03	
2025-01-12 00:01:00.33	36.15	11.04	
2025-01-12 00:01:00.54	36.18	11.06	
2025-01-12 00:01:00.74	36.20	11.08	
2025-01-12 00:01:00.95	36.23	11.09	
2025-01-12 00:01:01.15	36.25	11.11	
2025-01-12 00:01:01.36	36.28	11.12	
2025-01-12 00:01:01.57	36.31	11.14	
2025-01-12 00:01:01.77	36.33	11.15	
2025-01-12 00:01:01.98	36.36	11.17	
2025-01-12 00:01:02.18	36.39	11.19	
2025-01-12 00:01:02.39	36.42	11.20	
2025-01-12 00:01:02.59	36.44	11.22	
2025-01-12 00:01:02.80	36.47	11.23	
2025-01-12 00:01:03.00	36.50	11.25	
2025-01-12 00:01:03.20	36.52	11.27	
2025-01-12 00:01:03.41	36.55	11.28	
2025-01-12 00:01:03.61	36.58	11.30	
2025-01-12 00:01:03.82	36.60	11.31	
2025-01-12 00:01:04.02	36.63	11.33	
2025-01-12 00:01:04.23	36.66	11.34	
2025-01-12 00:01:04.43	36.68	11.36	
2025-01-12 00:01:04.64	36.71	11.38	
2025-01-12 00:01:04.84	36.74	11.39	
2025-01-12 00:01:05.05	36.77	11.41	
2025-01-12 00:01:05.25	36.79	11.42	
2025-01-12 00:01:05.46	36.82	11.44	
2025-01-12 00:01:05.66	36.85	11.46	
2025-01-12 00:01:05.87	36.88	11.47	
2025-01-12 00:01:06.08	36.90	11.49	
2025-01-12 00:01:06.28	36.93	11.50	
2025-01-12 00:01:06.50	36.96	11.52	
2025-01-12 00:01:06.71	36.99	11.54	
2025-01-12 00:01:06.91	37.01	11.55	
2025-01-12 00:01:07.12	37.04	11.57	
2025-01-12 00:01:07.32	37.07	11.58	
2025-01-12 00:01:07.53	37.10	11.60	
2025-01-12 00:01:07.73	37.12	11.62	
2025-01-12 00:01:07.94	37.15	11.63	
2025-01-12 00:01:08.15	37.18	11.65	
2025-01-12 00:01:08.35	37.21	11.67	
2025-01-12 00:01:08.56	37.24	11.68	
2025-01-12 00:01:08.76	37.26	11.70	
2025-01-12 00:01:08.97	37.29	11.71	
2025-01-12 00:01:09.17	37.32	11.73	
2025-01-12 00:01:09.38	37.35	11.75	
2025-01-12 00:01:09.58	37.38	11.76	
2025-01-12 00:01:09.80	37.41	11.78	
2025-01-12 00:01:10.01	37.43	11.80	
2025-01-12 00:01:10.21	37.46	11.81	
2025-01-12 00:01:10.42	37.49	11.83	
2025-01-12 00:01:10.62	37.52	11.84	
2025-01-12 00:01:10.83	37.55	11.86	
2025-01-12 00:01:11.03	37.57	11.88	
2025-01-12 00:01:11.24	37.60	11.89	
2025-01-12 00:01:11.44	37.63	11.91	
2025-01-12 00:01:11.65	37.66	11.92	
2025-01-12 00:01:11.85	37.69	11.94	
2025-01-12 00:01:12.06	37.72	11.96	
2025-01-12 00:01:12.26	37.74	11.97	
2025-01-12 00:01:12.47	37.77	11.99	
2025-01-12 00:01:12.67	37.80	12.00	
2025-01-12 00:01:12.88	37.83	12.02	
2025-01-12 00:01:13.08	37.86	12.04	
2025-01-12 00:01:13.29	37.89	12.05	
2025-01-12 00:01:13.49	37.91	12.07	
2025-01-12 00:01:13.70	37.94	12.08	
2025-01-12 00:01:13.91	37.97	12.10	
2025-01-12 00:01:14.11	38.00	12.12	
2025-01-12 00:01:14.31	38.03	12.13	
2025-01-12 00:01:14.52	38.06	12.15	
2025-01-12 00:01:14.73	38.09	12.17	
2025-01-12 00:01:14.93	38.11	12.18	
2025-01-12 00:01:15.13	38.14	12.20	
2025-01-12 00:01:15.34	38.17	12.21	
2025-01-12 00:01:15.55	38.20	12.23	
2025-01-12 00:01:15.75	38.23	12.25	
2025-01-12 00:01:15.96	38.26	12.26	
2025-01-12 00:01:16.16	38.29	12.28	
2025-01-12 00:01:16.36	38.32	12.30	
2025-01-12 00:01:16.57	38.35	12.31	
2025-01-12 00:01:16.78	38.38	12.33	
2025-01-12 00:01:16.98	38.40	12.34	
2025-01-12 00:01:17.19	38.43	12.36	
2025-01-12 00:01:17.39	38.46	12.38	
2025-01-12 00:01:17.60	38.49	12.39	
2025-01-12 00:01:17.80	38.52	12.41	
2025-01-12 00:01:18.01	38.55	12.43	
2025-01-12 00:01:18.21	38.58	12.44	
2025-01-12 00:01:18.42	38.61	12.46	
2025-01-12 00:01:18.62	38.64	12.47	
2025-01-12 00:01:18.83	38.67	12.49	
2025-01-12 00:01:19.03	38.70	12.51	
2025-01-12 00:01:19.24	38.73	12.52	
2025-01-12 00:01:19.44	38.75	12.54	
2025-01-12 00:01:19.65	38.79	12.56	
2025-01-12 00:01:19.86	38.82	12.57	
2025-01-12 00:01:20.06	38.84	12.59	
2025-01-12 00:01:20.27	38.87	12.61	
2025-01-12 00:01:20.47	38.90	12.62	
2025-01-12 00:01:20.68	38.93	12.64	
2025-01-12 00:01:20.88	38.96	12.65	
2025-01-12 00:01:21.09	38.99	12.67	
2025-01-12 00:01:21.29	39.02	12.69	
2025-01-12 00:01:21.51	39.05	12.70	
2025-01-12 00:01:21.72	39.08	12.72	
2025-01-12 00:01:21.92	39.11	12.74	
2025-01-12 00:01:22.13	39.14	12.75	
2025-01-12 00:01:22.34	39.18	12.77	
2025-01-12 00:01:22.54	39.20	12.79	
2025-01-12 00:01:22.74	39.23	12.80	
2025-01-12 00:01:22.95	39.26	12.82	
2025-01-12 00:01:23.15	39.29	12.84	
2025-01-12 00:01:23.36	39.32	12.85	
2025-01-12 00:01:23.56	39.35	12.87	
2025-01-12 00:01:23.77	39.39	12.89	
2025-01-12 00:01:23.97	39.41	12.90	
2025-01-12 00:01:24.18	39.45	12.92	
2025-01-12 00:01:24.38	39.48	12.93	
2025-01-12 00:01:24.59	39.51	12.95	
2025-01-12 00:01:24.79	39.54	12.97	
2025-01-12 00:01:25.00	39.57	12.98	
2025-01-12 00:01:25.20	39.60	13.00	
2025-01-12 00:01:25.41	39.63	13.02	
2025-01-12 00:01:25.61	39.66	13.03	
2025-01-12 00:01:25.82	39.69	13.05	
2025-01-12 00:01:26.02	39.72	13.07	
2025-01-12 00:01:26.23	39.75	13.08	
2025-01-12 00:01:26.44	39.78	13.10	
2025-01-12 00:01:26.64	39.81	13.12	
2025-01-12 00:01:26.84	39.84	13.13	
2025-01-12 00:01:27.05	39.87	13.15	
2025-01-12 00:01:27.26	39.90	13.17	
2025-01-12 00:01:27.46	39.93	13.18	
2025-01-12 00:01:27.67	39.97	13.20	
2025-01-12 00:01:27.87	40.00	13.22	
2025-01-12 00:01:28.08	40.03	13.23	
2025-01-12 00:01:28.28	40.06	13.25	
2025-01-12 00:01:28.49	40.09	13.27	
2025-01-12 00:01:28.69	40.12	13.28	
2025-01-12 00:01:28.90	40.15	13.30	
2025-01-12 00:01:29.10	40.18	13.32	
2025-01-12 00:01:29.31	40.21	13.33	
2025-01-12 00:01:29.52	40.25	13.35	
2025-01-12 00:01:29.72	40.28	13.37	
2025-01-12 00:01:29.93	40.31	13.38	
2025-01-12 00:01:30.13	40.34	13.40	
2025-01-12 00:01:30.33	40.37	13.41	
2025-01-12 00:01:30.54	40.40	13.43	
2025-01-12 00:01:30.74	40.43	13.45	
2025-01-12 00:01:30.95	40.46	13.47	
2025-01-12 00:01:31.15	40.50	13.48	
2025-01-12 00:01:31.36	40.53	13.50	
2025-01-12 00:01:31.56	40.56	13.51	
2025-01-12 00:01:31.77	40.59	13.53	
2025-01-12 00:01:31.98	40.62	13.55	
2025-01-12 00:01:32.18	40.65	13.57	
2025-01-12 00:01:32.38	40.69	13.58	
2025-01-12 00:01:32.59	40.72	13.60	
2025-01-12 00:01:32.80	40.75	13.62	
2025-01-12 00:01:33.00	40.78	13.63	
2025-01-12 00:01:33.20	40.81	13.65	
2025-01-12 00:01:33.41	40.84	13.67	
2025-01-12 00:01:33.61	40.88	13.68	
2025-01-12 00:01:33.82	40.91	13.70	
2025-01-12 00:01:34.03	40.94	13.72	
2025-01-12 00:01:34.23	40.97	13.73	
2025-01-12 00:01:34.44	41.01	13.75	
2025-01-12 00:01:34.64	41.04	13.77	
2025-01-12 00:01:34.85	41.07	13.78	
2025-01-12 00:01:35.05	41.10	13.80	
2025-01-12 00:01:35.26	41.13	13.82	
2025-01-12 00:01:35.46	41.17	13.83	
2025-01-12 00:01:35.67	41.20	13.85	
2025-01-12 00:01:35.87	41.23	13.87	
2025-01-12 00:01:36.08	41.26	13.88	
2025-01-12 00:01:36.29	41.30	13.90	
2025-01-12 00:01:36.49	41.33	13.92	
2025-01-12 00:01:36.70	41.36	13.93	
2025-01-12 00:01:36.90	41.39	13.95	
2025-01-12 00:01:37.11	41.43	13.97	
2025-01-12 00:01:37.31	41.46	13.98	
2025-01-12 00:01:37.52	41.49	14.00	
2025-01-12 00:01:37.72	41.52	14.02	
2025-01-12 00:01:37.93	41.56	14.03	
2025-01-12 00:01:38.13	41.59	14.05	
2025-01-12 00:01:38.34	41.62	14.07	
2025-01-12 00:01:38.54	41.66	14.08	
2025-01-12 00:01:38.75	41.69	14.10	
2025-01-12 00:01:38.96	41.72	14.12	
2025-01-12 00:01:39.16	41.75	14.14	
2025-01-12 00:01:39.37	41.79	14.15	
2025-01-12 00:01:39.57	41.82	14.17	
2025-01-12 00:01:39.78	41.85	14.19	
2025-01-12 00:01:39.98	41.89	14.20	
2025-01-12 00:01:40.19	41.92	14.22	
2025-01-12 00:01:40.39	41.95	14.24	
2025-01-12 00:01:40.60	41.99	14.25	
2025-01-12 00:01:40.80	42.02	14.27	
2025-01-12 00:01:41.01	42.05	14.29	
2025-01-12 00:01:41.21	42.09	14.30	
2025-01-12 00:01:41.42	42.12	14.32	
2025-01-12 00:01:41.62	42.15	14.34	
2025-01-12 00:01:41.82	42.19	14.35	
2025-01-12 00:01:42.03	42.22	14.37	
2025-01-12 00:01:42.23	42.25	14.39	
2025-01-12 00:01:42.44	42.29	14.41	
2025-01-12 00:01:42.65	42.32	14.42	
2025-01-12 00:01:42.85	42.35	14.44	
2025-01-12 00:01:43.06	42.39	14.46	
2025-01-12 00:01:43.26	42.42	14.47	
2025-01-12 00:01:43.47	42.46	14.49	
2025-01-12 00:01:43.68	42.49	14.51	
2025-01-12 00:01:43.88	42.52	14.52	
2025-01-12 00:01:44.09	42.56	14.54	
2025-01-12 00:01:44.29	42.59	14.56	
2025-01-12 00:01:44.50	42.63	14.58	
2025-01-12 00:01:44.70	42.66	14.59	
2025-01-12 00:01:44.92	42.70	14.61	
2025-01-12 00:01:45.12	42.73	14.63	
2025-01-12 00:01:45.33	42.76	14.64	
2025-01-12 00:01:45.53	42.80	14.66	
2025-01-12 00:01:45.74	42.83	14.68	
2025-01-12 00:01:45.95	42.87	14.70	
2025-01-12 00:01:46.15	42.90	14.71	
2025-01-12 00:01:46.35	42.94	14.73	
2025-01-12 00:01:46.56	42.97	14.75	
2025-01-12 00:01:46.76	43.00	14.76	
2025-01-12 00:01:46.97	43.04	14.78	
2025-01-12 00:01:47.17	43.07	14.80	
2025-01-12 00:01:47.38	43.11	14.81	
2025-01-12 00:01:47.59	43.14	14.83	
2025-01-12 00:01:47.79	43.18	14.85	
2025-01-12 00:01:47.99	43.21	14.86	
2025-01-12 00:01:48.20	43.25	14.88	
2025-01-12 00:01:48.40	43.28	14.90	
2025-01-12 00:01:48.61	43.32	14.92	
2025-01-12 00:01:48.81	43.35	14.93	
2025-01-12 00:01:49.02	43.39	14.95	
2025-01-12 00:01:49.23	43.42	14.97	
2025-01-12 00:01:49.43	43.46	14.98	
2025-01-12 00:01:49.64	43.49	15.00	
2025-01-12 00:01:49.84	43.53	15.02	
2025-01-12 00:01:50.05	43.56	15.04	
2025-01-12 00:01:50.25	43.60	15.05	
2025-01-12 00:01:50.46	43.63	15.07	
2025-01-12 00:01:50.66	43.67	15.09	
2025-01-12 00:01:50.87	43.70	15.10	
2025-01-12 00:01:51.07	43.74	15.12	
2025-01-12 00:01:51.28	43.77	15.14	
2025-01-12 00:01:51.48	43.81	15.15	
2025-01-12 00:01:51.69	43.84	15.17	
2025-01-12 00:01:51.89	43.88	15.19	
2025-01-12 00:01:52.10	43.92	15.21	
2025-01-12 00:01:52.30	43.95	15.22	
2025-01-12 00:01:52.51	43.99	15.24	
2025-01-12 00:01:52.71	44.02	15.26	
2025-01-12 00:01:52.92	44.06	15.28	
2025-01-12 00:01:53.12	44.09	15.29	
2025-01-12 00:01:53.33	44.13	15.31	
2025-01-12 00:01:53.53	44.16	15.33	
2025-01-12 00:01:53.74	44.20	15.34	
2025-01-12 00:01:53.94	44.24	15.36	
2025-01-12 00:01:54.15	44.27	15.38	
2025-01-12 00:01:54.35	44.31	15.39	
2025-01-12 00:01:54.56	44.34	15.41	
2025-01-12 00:01:54.76	44.38	15.43	
2025-01-12 00:01:54.97	44.42	15.45	
2025-01-12 00:01:55.17	44.45	15.46	
2025-01-12 00:01:55.38	44.49	15.48	
2025-01-12 00:01:55.59	44.53	15.50	
2025-01-12 00:01:55.79	44.56	15.51	
2025-01-12 00:01:56.00	44.60	15.53	
2025-01-12 00:01:56.20	44.63	15.55	
2025-01-12 00:01:56.41	44.67	15.57	
2025-01-12 00:01:56.61	44.71	15.58	
2025-01-12 00:01:56.82	44.74	15.60	
2025-01-12 00:01:57.02	44.78	15.62	
2025-01-12 00:01:57.23	44.82	15.64	
2025-01-12 00:01:57.43	44.85	15.65	
2025-01-12 00:01:57.64	44.89	15.67	
2025-01-12 00:01:57.84	44.93	15.69	
2025-01-12 00:01:58.05	44.96	15.70	
2025-01-12 00:01:58.25	45.00	15.72	
2025-01-12 00:01:58.46	45.04	15.74	
2025-01-12 00:01:58.66	45.07	15.76	
2025-01-12 00:01:58.86	45.11	15.77	
2025-01-12 00:01:59.07	45.15	15.79	
2025-01-12 00:01:59.28	45.19	15.81	
2025-01-12 00:01:59.48	45.22	15.82	
2025-01-12 00:01:59.69	45.26	15.84	
2025-01-12 00:01:59.89	45.30	15.86	
2025-01-12 00:02:00.09	45.33	15.88	
2025-01-12 00:02:00.30	45.37	15.89	
2025-01-12 00:02:00.50	45.41	15.91	
2025-01-12 00:02:00.71	45.45	15.93	
2025-01-12 00:02:00.92	45.48	15.95	
2025-01-12 00:02:01.12	45.52	15.96	
2025-01-12 00:02:01.33	45.56	15.98	
2025-01-12 00:02:01.53	45.60	16.00	
2025-01-12 00:02:01.74	45.63	16.01	
2025-01-12 00:02:01.94	45.67	16.03	
2025-01-12 00:02:02.15	45.71	16.05	
2025-01-12 00:02:02.35	45.75	16.07	
2025-01-12 00:02:02.56	45.78	16.08	
2025-01-12 00:02:02.76	45.82	16.10	
2025-01-12 00:02:02.96	45.86	16.12	
2025-01-12 00:02:03.17	45.90	16.13	
2025-01-12 00:02:03.37	45.93	16.15	
2025-01-12 00:02:03.58	45.97	16.17	
2025-01-12 00:02:03.78	46.01	16.19	
2025-01-12 00:02:03.99	46.05	16.20	
2025-01-12 00:02:04.19	46.09	16.22	
2025-01-12 00:02:04.40	46.13	16.24	
2025-01-12 00:02:04.60	46.16	16.25	
2025-01-12 00:02:04.81	46.20	16.27	
2025-01-12 00:02:05.01	46.24	16.29	
2025-01-12 00:02:05.22	46.28	16.31	
2025-01-12 00:02:05.42	46.32	16.32	
2025-01-12 00:02:05.63	46.36	16.34	
2025-01-12 00:02:05.84	46.39	16.36	
2025-01-12 00:02:06.04	46.43	16.38	
2025-01-12 00:02:06.25	46.47	16.39	
2025-01-12 00:02:06.45	46.51	16.41	
2025-01-12 00:02:06.66	46.55	16.43	
2025-01-12 00:02:06.86	46.59	16.45	
2025-01-12 00:02:07.07	46.63	16.46	
2025-01-12 00:02:07.27	46.66	16.48	
2025-01-12 00:02:07.48	46.70	16.50	
2025-01-12 00:02:07.68	46.74	16.51	
2025-01-12 00:02:07.89	46.78	16.53	
2025-01-12 00:02:08.09	46.82	16.55	
2025-01-12 00:02:08.30	46.86	16.57	
2025-01-12 00:02:08.50	46.90	16.58	
2025-01-12 00:02:08.71	46.94	16.60	
2025-01-12 00:02:08.91	46.98	16.62	
2025-01-12 00:02:09.12	47.02	16.64	
2025-01-12 00:02:09.32	47.05	16.65	
2025-01-12 00:02:09.53	47.09	16.67	
2025-01-12 00:02:09.73	47.13	16.69	
2025-01-12 00:02:09.94	47.17	16.71	
2025-01-12 00:02:10.14	47.21	16.72	
2025-01-12 00:02:10.35	47.25	16.74	
2025-01-12 00:02:10.55	47.29	16.76	
2025-01-12 00:02:10.76	47.33	16.77	
2025-01-12 00:02:10.96	47.37	16.79	
2025-01-12 00:02:11.17	47.41	16.81	
2025-01-12 00:02:11.37	47.45	16.83	
2025-01-12 00:02:11.58	47.49	16.84	
2025-01-12 00:02:11.78	47.53	16.86	
2025-01-12 00:02:11.99	47.57	16.88	
2025-01-12 00:02:12.19	47.61	16.90	
2025-01-12 00:02:12.40	47.65	16.91	
2025-01-12 00:02:12.60	47.69	16.93	
2025-01-12 00:02:12.81	47.73	16.95	
2025-01-12 00:02:13.01	47.77	16.97	
2025-01-12 00:02:13.22	47.81	16.98	
2025-01-12 00:02:13.42	47.85	17.00	
2025-01-12 00:02:13.63	47.89	17.02	
2025-01-12 00:02:13.83	47.93	17.03	
2025-01-12 00:02:14.03	47.97	17.05	
2025-01-12 00:02:14.24	48.01	17.07	
2025-01-12 00:02:14.45	48.05	17.09	
2025-01-12 00:02:14.65	48.09	17.10	
2025-01-12 00:02:14.86	48.13	17.12	
2025-01-12 00:02:15.06	48.17	17.14	
2025-01-12 00:02:15.26	48.21	17.16	
2025-01-12 00:02:15.47	48.25	17.17	
2025-01-12 00:02:15.67	48.29	17.19	
2025-01-12 00:02:15.88	48.34	17.21	
2025-01-12 00:02:16.08	48.38	17.22	
2025-01-12 00:02:16.29	48.42	17.24	
2025-01-12 00:02:16.49	48.46	17.26	
2025-01-12 00:02:16.69	48.50	17.28	
2025-01-12 00:02:16.90	48.54	17.29	
2025-01-12 00:02:17.10	48.58	17.31	
2025-01-12 00:02:17.31	48.62	17.33	
2025-01-12 00:02:17.51	48.66	17.35	
2025-01-12 00:02:17.72	48.70	17.36	
2025-01-12 00:02:17.92	48.74	17.38	
2025-01-12 00:02:18.13	48.79	17.40	
2025-01-12 00:02:18.33	48.83	17.42	
2025-01-12 00:02:18.55	48.87	17.43	
2025-01-12 00:02:18.75	48.91	17.45	
2025-01-12 00:02:18.96	48.95	17.47	
2025-01-12 00:02:19.17	49.00	17.49	
2025-01-12 00:02:19.38	49.04	17.50	
2025-01-12 00:02:19.59	49.08	17.52	
2025-01-12 00:02:19.79	49.12	17.54	
2025-01-12 00:02:20.00	49.17	17.56	
2025-01-12 00:02:20.20	49.21	17.57	
2025-01-12 00:02:20.40	49.25	17.59	
2025-01-12 00:02:20.61	49.29	17.61	
2025-01-12 00:02:20.81	49.33	17.62	
2025-01-12 00:02:21.02	49.37	17.64	
2025-01-12 00:02:21.22	49.42	17.66	
2025-01-12 00:02:21.43	49.46	17.68	
2025-01-12 00:02:21.63	49.50	17.69	
2025-01-12 00:02:21.84	49.54	17.71	
2025-01-12 00:02:22.04	49.58	17.73	
2025-01-12 00:02:22.25	49.63	17.75	
2025-01-12 00:02:22.45	49.67	17.76	
2025-01-12 00:02:22.65	49.71	17.78	
2025-01-12 00:02:22.86	49.75	17.80	
2025-01-12 00:02:23.07	49.80	17.82	
2025-01-12 00:02:23.27	49.84	17.83	
2025-01-12 00:02:23.48	49.88	17.85	
2025-01-12 00:02:23.68	49.92	17.87	
2025-01-12 00:02:23.89	49.97	17.89	
2025-01-12 00:02:24.09	50.01	17.90	
2025-01-12 00:02:24.30	50.05	17.92	
2025-01-12 00:02:24.52	50.10	17.94	
2025-01-12 00:02:24.72	50.14	17.96	
2025-01-12 00:02:24.93	50.19	17.97	
2025-01-12 00:02:25.13	50.23	17.99	
2025-01-12 00:02:25.34	50.27	18.01	
2025-01-12 00:02:25.54	50.31	18.02	
2025-01-12 00:02:25.75	50.36	18.04	
2025-01-12 00:02:25.95	50.40	18.06	
2025-01-12 00:02:26.16	50.44	18.08	
2025-01-12 00:02:26.36	50.49	18.09	
2025-01-12 00:02:26.57	50.53	18.11	
2025-01-12 00:02:26.77	50.57	18.13	
2025-01-12 00:02:26.98	50.62	18.15	
2025-01-12 00:02:27.18	50.66	18.16	
2025-01-12 00:02:27.38	50.70	18.18	
2025-01-12 00:02:27.59	50.75	18.20	
2025-01-12 00:02:27.79	50.79	18.21	
2025-01-12 00:02:28.00	50.83	18.23	
2025-01-12 00:02:28.20	50.88	18.25	
2025-01-12 00:02:28.41	50.92	18.27	
2025-01-12 00:02:28.62	50.97	18.28	
2025-01-12 00:02:28.82	51.01	18.30	
2025-01-12 00:02:29.03	51.06	18.32	
2025-01-12 00:02:29.23	51.10	18.34	
2025-01-12 00:02:29.44	51.14	18.35	
2025-01-12 00:02:29.64	51.19	18.37	
2025-01-12 00:02:29.85	51.23	18.39	
2025-01-12 00:02:30.05	51.28	18.41	
2025-01-12 00:02:30.26	51.32	18.42	
2025-01-12 00:02:30.46	51.36	18.44	
2025-01-12 00:02:30.67	51.41	18.46	
2025-01-12 00:02:30.87	51.45	18.47	
2025-01-12 00:02:31.08	51.50	18.49	
2025-01-12 00:02:31.28	51.54	18.51	
2025-01-12 00:02:31.48	51.59	18.53	
2025-01-12 00:02:31.69	51.63	18.54	
2025-01-12 00:02:31.90	51.68	18.56	
2025-01-12 00:02:32.10	51.72	18.58	
2025-01-12 00:02:32.31	51.77	18.60	
2025-01-12 00:02:32.51	51.81	18.61	
2025-01-12 00:02:32.72	51.86	18.63	
2025-01-12 00:02:32.92	51.90	18.65	
2025-01-12 00:02:33.13	51.95	18.66	
2025-01-12 00:02:33.33	51.99	18.68	
2025-01-12 00:02:33.54	52.04	18.70	
2025-01-12 00:02:33.74	52.08	18.72	
2025-01-12 00:02:33.95	52.13	18.73	
2025-01-12 00:02:34.15	52.17	18.75	
2025-01-12 00:02:34.36	52.22	18.77	
2025-01-12 00:02:34.56	52.26	18.78	
2025-01-12 00:02:34.77	52.31	18.80	
2025-01-12 00:02:34.98	52.36	18.82	
2025-01-12 00:02:35.19	52.40	18.84	
2025-01-12 00:02:35.40	52.45	18.86	
2025-01-12 00:02:35.60	52.49	18.87	
2025-01-12 00:02:35.81	52.54	18.89	
2025-01-12 00:02:36.02	52.59	18.91	
2025-01-12 00:02:36.22	52.63	18.92	
2025-01-12 00:02:36.43	52.68	18.94	
2025-01-12 00:02:36.63	52.72	18.96	
2025-01-12 00:02:36.84	52.77	18.98	
2025-01-12 00:02:37.04	52.82	18.99	
2025-01-12 00:02:37.25	52.86	19.01	
2025-01-12 00:02:37.45	52.91	19.03	
2025-01-12 00:02:37.66	52.96	19.04	
2025-01-12 00:02:37.87	53.00	19.06	
2025-01-12 00:02:38.07	53.05	19.08	
2025-01-12 00:02:38.28	53.10	19.10	
2025-01-12 00:02:38.48	53.14	19.11	
2025-01-12 00:02:38.69	53.19	19.13	
2025-01-12 00:02:38.89	53.23	19.15	
2025-01-12 00:02:39.10	53.28	19.16	
2025-01-12 00:02:39.30	53.33	19.18	
2025-01-12 00:02:39.51	53.38	19.20	
2025-01-12 00:02:39.71	53.42	19.22	
2025-01-12 00:02:39.92	53.47	19.23	
2025-01-12 00:02:40.13	53.52	19.25	
2025-01-12 00:02:40.33	53.56	19.27	
2025-01-12 00:02:40.55	53.61	19.29	
2025-01-12 00:02:40.76	53.66	19.30	
2025-01-12 00:02:40.96	53.71	19.32	
2025-01-12 00:02:41.17	53.76	19.34	
2025-01-12 00:02:41.37	53.80	19.35	
2025-01-12 00:02:41.58	53.85	19.37	
2025-01-12 00:02:41.78	53.90	19.39	
2025-01-12 00:02:41.99	53.94	19.41	
2025-01-12 00:02:42.19	53.99	19.42	
2025-01-12 00:02:42.40	54.04	19.44	
2025-01-12 00:02:42.60	54.09	19.46	
2025-01-12 00:02:42.80	54.13	19.47	
2025-01-12 00:02:43.01	54.18	19.49	
2025-01-12 00:02:43.21	54.23	19.51	
2025-01-12 00:02:43.42	54.28	19.52	
2025-01-12 00:02:43.62	54.32	19.54	
2025-01-12 00:02:43.83	54.37	19.56	
2025-01-12 00:02:44.03	54.42	19.57	
2025-01-12 00:02:44.24	54.47	19.59	
2025-01-12 00:02:44.44	54.52	19.61	
2025-01-12 00:02:44.65	54.56	19.63	
2025-01-12 00:02:44.85	54.61	19.64	
2025-01-12 00:02:45.06	54.66	19.66	
2025-01-12 00:02:45.26	54.71	19.68	
2025-01-12 00:02:45.47	54.76	19.69	
2025-01-12 00:02:45.68	54.81	19.71	
2025-01-12 00:02:45.89	54.86	19.73	
2025-01-12 00:02:46.09	54.90	19.75	
2025-01-12 00:02:46.30	54.95	19.76	
2025-01-12 00:02:46.50	55.00	19.78	
2025-01-12 00:02:46.71	55.05	19.80	
2025-01-12 00:02:46.91	55.10	19.81	
2025-01-12 00:02:47.12	55.15	19.83	
2025-01-12 00:02:47.32	55.20	19.85	
2025-01-12 00:02:47.52	55.24	19.86	
2025-01-12 00:02:47.73	55.29	19.88	
2025-01-12 00:02:47.94	55.34	19.90	
2025-01-12 00:02:48.14	55.39	19.91	
2025-01-12 00:02:48.35	55.44	19.93	
2025-01-12 00:02:48.56	55.49	19.95	
2025-01-12 00:02:48.76	55.54	19.96	
2025-01-12 00:02:48.97	55.59	19.98	
2025-01-12 00:02:49.17	55.64	20.00	
2025-01-12 00:02:49.38	55.69	20.02	
2025-01-12 00:02:49.59	55.74	20.03	
2025-01-12 00:02:49.79	55.79	20.05	
2025-01-12 00:02:49.99	55.84	20.07	
2025-01-12 00:02:50.20	55.89	20.08	
2025-01-12 00:02:50.40	55.94	20.10	
2025-01-12 00:02:50.61	55.99	20.12	
2025-01-12 00:02:50.82	56.04	20.13	
2025-01-12 00:02:51.02	56.09	20.15	
2025-01-12 00:02:51.22	56.14	20.17	
2025-01-12 00:02:51.43	56.19	20.18	
2025-01-12 00:02:51.64	56.24	20.20	
2025-01-12 00:02:51.84	56.29	20.22	
2025-01-12 00:02:52.05	56.34	20.23	
2025-01-12 00:02:52.25	56.39	20.25	
2025-01-12 00:02:52.45	56.44	20.27	
2025-01-12 00:02:52.66	56.49	20.28	
2025-01-12 00:02:52.86	56.54	20.30	
2025-01-12 00:02:53.07	56.59	20.32	
2025-01-12 00:02:53.27	56.64	20.33	
2025-01-12 00:02:53.48	56.69	20.35	
2025-01-12 00:02:53.68	56.74	20.37	
2025-01-12 00:02:53.89	56.79	20.38	
2025-01-12 00:02:54.09	56.84	20.40	
2025-01-12 00:02:54.30	56.89	20.42	
2025-01-12 00:02:54.50	56.94	20.43	
2025-01-12 00:02:54.71	56.99	20.45	
2025-01-12 00:02:54.91	57.04	20.47	
2025-01-12 00:02:55.12	57.09	20.48	
2025-01-12 00:02:55.32	57.14	20.50	
2025-01-12 00:02:55.53	57.20	20.52	
2025-01-12 00:02:55.73	57.25	20.53	
2025-01-12 00:02:55.94	57.30	20.55	
2025-01-12 00:02:56.14	57.35	20.57	
2025-01-12 00:02:56.35	57.40	20.58	
2025-01-12 00:02:56.55	57.45	20.60	
2025-01-12 00:02:56.76	57.50	20.62	
2025-01-12 00:02:56.97	57.56	20.63	
2025-01-12 00:02:57.17	57.61	20.65	
2025-01-12 00:02:57.38	57.66	20.67	
2025-01-12 00:02:57.58	57.71	20.68	
2025-01-12 00:02:57.79	57.76	20.70	
2025-01-12 00:02:57.99	57.81	20.71	
2025-01-12 00:02:58.20	57.87	20.73	
2025-01-12 00:02:58.40	57.92	20.75	
2025-01-12 00:02:58.61	57.97	20.76	
2025-01-12 00:02:58.81	58.02	20.78	
2025-01-12 00:02:59.02	58.08	20.80	
2025-01-12 00:02:59.22	58.13	20.81	
2025-01-12 00:02:59.43	58.18	20.83	
2025-01-12 00:02:59.63	58.23	20.84	
2025-01-12 00:02:59.84	58.28	20.86	
2025-01-12 00:03:00.04	58.34	20.88	
2025-01-12 00:03:00.25	58.39	20.89	
2025-01-12 00:03:00.45	58.44	20.91	
2025-01-12 00:03:00.66	58.49	20.93	
2025-01-12 00:03:00.86	58.54	20.94	
2025-01-12 00:03:01.07	58.60	20.96	
2025-01-12 00:03:01.28	58.65	20.98	
2025-01-12 00:03:01.48	58.70	20.99	
2025-01-12 00:03:01.69	58.76	21.01	
2025-01-12 00:03:01.89	58.81	21.02	
2025-01-12 00:03:02.09	58.86	21.04	
2025-01-12 00:03:02.30	58.92	21.06	
2025-01-12 00:03:02.51	58.97	21.07	
2025-01-12 00:03:02.71	59.02	21.09	
2025-01-12 00:03:02.91	59.07	21.10	
2025-01-12 00:03:03.12	59.13	21.12	
2025-01-12 00:03:03.33	59.18	21.14	
2025-01-12 00:03:03.53	59.23	21.15	
2025-01-12 00:03:03.74	59.29	21.17	
2025-01-12 00:03:03.94	59.34	21.19	
2025-01-12 00:03:04.15	59.40	21.20	
2025-01-12 00:03:04.35	59.45	21.22	
2025-01-12 00:03:04.56	59.50	21.23	
2025-01-12 00:03:04.76	59.56	21.25	
2025-01-12 00:03:04.97	59.61	21.27	
2025-01-12 00:03:05.17	59.66	21.28	
2025-01-12 00:03:05.38	59.72	21.30	
2025-01-12 00:03:05.58	59.77	21.31	
2025-01-12 00:03:05.79	59.83	21.33	
2025-01-12 00:03:06.00	59.88	21.35	
2025-01-12 00:03:06.20	59.93	21.36	
2025-01-12 00:03:06.41	59.99	21.38	
2025-01-12 00:03:06.61	60.04	21.39	
2025-01-12 00:03:06.82	60.10	21.41	
2025-01-12 00:03:07.02	60.15	21.43	
2025-01-12 00:03:07.22	60.20	21.44	
2025-01-12 00:03:07.43	60.26	21.46	
2025-01-12 00:03:07.64	60.32	21.47	
2025-01-12 00:03:07.84	60.37	21.49	
2025-01-12 00:03:08.05	60.42	21.51	
2025-01-12 00:03:08.26	60.48	21.52	
2025-01-12 00:03:08.47	60.54	21.54	
2025-01-12 00:03:08.68	60.59	21.55	
2025-01-12 00:03:08.88	60.65	21.57	
2025-01-12 00:03:09.09	60.70	21.59	
2025-01-12 00:03:09.29	60.76	21.60	
2025-01-12 00:03:09.49	60.81	21.62	
2025-01-12 00:03:09.70	60.87	21.63	
2025-01-12 00:03:09.90	60.92	21.65	
2025-01-12 00:03:10.11	60.98	21.66	
2025-01-12 00:03:10.33	61.04	21.68	
2025-01-12 00:03:10.53	61.09	21.70	
2025-01-12 00:03:10.74	61.15	21.71	
2025-01-12 00:03:10.94	61.20	21.73	
2025-01-12 00:03:11.15	61.26	21.74	
2025-01-12 00:03:11.35	61.31	21.76	
2025-01-12 00:03:11.56	61.37	21.77	
2025-01-12 00:03:11.76	61.42	21.79	
2025-01-12 00:03:11.97	61.48	21.81	
2025-01-12 00:03:12.17	61.53	21.82	
2025-01-12 00:03:12.38	61.59	21.84	
2025-01-12 00:03:12.58	61.65	21.85	
2025-01-12 00:03:12.79	61.70	21.87	
2025-01-12 00:03:12.99	61.76	21.88	
2025-01-12 00:03:13.20	61.81	21.90	
2025-01-12 00:03:13.40	61.87	21.91	
2025-01-12 00:03:13.61	61.93	21.93	
2025-01-12 00:03:13.81	61.98	21.94	
2025-01-12 00:03:14.02	62.04	21.96	
2025-01-12 00:03:14.22	62.09	21.97	
2025-01-12 00:03:14.43	62.15	21.99	
2025-01-12 00:03:14.63	62.21	22.01	
2025-01-12 00:03:14.84	62.26	22.02	
2025-01-12 00:03:15.04	62.32	22.04	
2025-01-12 00:03:15.25	62.38	22.05	
2025-01-12 00:03:15.45	62.43	22.07	
2025-01-12 00:03:15.66	62.49	22.08	
2025-01-12 00:03:15.86	62.55	22.10	
2025-01-12 00:03:16.07	62.60	22.11	
2025-01-12 00:03:16.27	62.66	22.13	
2025-01-12 00:03:16.48	62.72	22.14	
2025-01-12 00:03:16.68	62.77	22.16	
2025-01-12 00:03:16.89	62.83	22.17	
2025-01-12 00:03:17.09	62.89	22.19	
2025-01-12 00:03:17.30	62.95	22.20	
2025-01-12 00:03:17.50	63.00	22.22	
2025-01-12 00:03:17.71	63.06	22.23	
2025-01-12 00:03:17.91	63.12	22.25	
2025-01-12 00:03:18.12	63.18	22.26	
2025-01-12 00:03:18.32	63.23	22.28	
2025-01-12 00:03:18.53	63.29	22.29	
2025-01-12 00:03:18.73	63.35	22.31	
2025-01-12 00:03:18.94	63.41	22.32	
2025-01-12 00:03:19.14	63.46	22.34	
2025-01-12 00:03:19.35	63.52	22.35	
2025-01-12 00:03:19.55	63.58	22.37	
2025-01-12 00:03:19.76	63.64	22.38	
2025-01-12 00:03:19.97	63.70	22.40	
2025-01-12 00:03:20.17	63.75	22.41	
2025-01-12 00:03:20.38	63.81	22.43	
2025-01-12 00:03:20.58	63.87	22.44	
2025-01-12 00:03:20.79	63.93	22.46	
2025-01-12 00:03:20.99	63.99	22.47	
2025-01-12 00:03:21.20	64.05	22.49	
2025-01-12 00:03:21.40	64.10	22.50	
2025-01-12 00:03:21.61	64.16	22.52	
2025-01-12 00:03:21.81	64.22	22.53	
2025-01-12 00:03:22.02	64.28	22.55	
2025-01-12 00:03:22.22	64.34	22.56	
2025-01-12 00:03:22.43	64.40	22.57	
2025-01-12 00:03:22.63	64.45	22.59	
2025-01-12 00:03:22.84	64.51	22.60	
2025-01-12 00:03:23.04	64.57	22.62	
2025-01-12 00:03:23.24	64.63	22.63	
2025-01-12 00:03:23.45	64.69	22.65	
2025-01-12 00:03:23.66	64.75	22.66	
2025-01-12 00:03:23.86	64.81	22.68	
2025-01-12 00:03:24.07	64.87	22.69	
2025-01-12 00:03:24.29	64.93	22.71	
2025-01-12 00:03:24.49	64.99	22.72	
2025-01-12 00:03:24.70	65.05	22.74	
2025-01-12 00:03:24.90	65.11	22.75	
2025-01-12 00:03:25.11	65.17	22.76	
2025-01-12 00:03:25.31	65.23	22.78	
2025-01-12 00:03:25.51	65.28	22.79	
2025-01-12 00:03:25.72	65.34	22.81	
2025-01-12 00:03:25.93	65.41	22.82	
2025-01-12 00:03:26.13	65.46	22.84	
2025-01-12 00:03:26.33	65.52	22.85	
2025-01-12 00:03:26.54	65.58	22.86	
2025-01-12 00:03:26.75	65.64	22.88	
2025-01-12 00:03:26.96	65.71	22.89	
2025-01-12 00:03:27.16	65.76	22.91	
2025-01-12 00:03:27.36	65.82	22.92	
2025-01-12 00:03:27.57	65.88	22.93	
2025-01-12 00:03:27.77	65.94	22.95	
2025-01-12 00:03:27.98	66.00	22.96	
2025-01-12 00:03:28.19	66.07	22.98	
2025-01-12 00:03:28.39	66.12	22.99	
2025-01-12 00:03:28.60	66.19	23.00	
2025-01-12 00:03:28.80	66.25	23.02	
2025-01-12 00:03:29.01	66.31	23.03	
2025-01-12 00:03:29.21	66.37	23.05	
2025-01-12 00:03:29.42	66.43	23.06	
2025-01-12 00:03:29.62	66.49	23.07	
2025-01-12 00:03:29.84	66.55	23.09	
2025-01-12 00:03:30.05	66.61	23.10	
2025-01-12 00:03:30.25	66.67	23.12	
2025-01-12 00:03:30.46	66.74	23.13	
2025-01-12 00:03:30.66	66.80	23.14	
2025-01-12 00:03:30.87	66.86	23.16	
2025-01-12 00:03:31.07	66.92	23.17	
2025-01-12 00:03:31.28	66.98	23.19	
2025-01-12 00:03:31.48	67.04	23.20	
2025-01-12 00:03:31.69	67.10	23.21	
2025-01-12 00:03:31.89	67.16	23.23	
2025-01-12 00:03:32.10	67.22	23.24	
2025-01-12 00:03:32.30	67.28	23.25	
2025-01-12 00:03:32.51	67.35	23.27	
2025-01-12 00:03:32.71	67.41	23.28	
2025-01-12 00:03:32.92	67.47	23.29	
2025-01-12 00:03:33.12	67.53	23.31	
2025-01-12 00:03:33.33	67.59	23.32	
2025-01-12 00:03:33.53	67.65	23.33	
2025-01-12 00:03:33.73	67.71	23.35	
2025-01-12 00:03:33.94	67.78	23.36	
2025-01-12 00:03:34.15	67.84	23.37	
2025-01-12 00:03:34.35	67.90	23.39	
2025-01-12 00:03:34.56	67.96	23.40	
2025-01-12 00:03:34.76	68.02	23.41	
2025-01-12 00:03:34.97	68.09	23.43	
2025-01-12 00:03:35.17	68.15	23.44	
2025-01-12 00:03:35.37	68.21	23.45	
2025-01-12 00:03:35.58	68.27	23.47	
2025-01-12 00:03:35.79	68.34	23.48	
2025-01-12 00:03:35.99	68.40	23.49	
2025-01-12 00:03:36.19	68.46	23.50	
2025-01-12 00:03:36.40	68.52	23.52	
2025-01-12 00:03:36.60	68.58	23.53	
2025-01-12 00:03:36.81	68.65	23.54	
2025-01-12 00:03:37.02	68.71	23.56	
2025-01-12 00:03:37.23	68.77	23.57	
2025-01-12 00:03:37.44	68.84	23.58	
2025-01-12 00:03:37.64	68.90	23.60	
2025-01-12 00:03:37.85	68.96	23.61	
2025-01-12 00:03:38.05	69.03	23.62	
2025-01-12 00:03:38.26	69.09	23.64	
2025-01-12 00:03:38.46	69.15	23.65	
2025-01-12 00:03:38.67	69.22	23.66	
2025-01-12 00:03:38.87	69.28	23.67	
2025-01-12 00:03:39.08	69.34	23.69	
2025-01-12 00:03:39.28	69.40	23.70	
2025-01-12 00:03:39.49	69.47	23.71	
2025-01-12 00:03:39.70	69.53	23.72	
2025-01-12 00:03:39.90	69.60	23.74	
2025-01-12 00:03:40.11	69.66	23.75	
2025-01-12 00:03:40.33	69.73	23.76	
2025-01-12 00:03:40.53	69.79	23.77	
2025-01-12 00:03:40.74	69.85	23.79	
2025-01-12 00:03:40.94	69.92	23.80	
2025-01-12 00:03:41.15	69.98	23.81	
2025-01-12 00:03:41.35	70.04	23.82	
2025-01-12 00:03:41.56	70.11	23.84	
2025-01-12 00:03:41.76	70.17	23.85	
2025-01-12 00:03:41.97	70.24	23.86	
2025-01-12 00:03:42.17	70.30	23.87	
2025-01-12 00:03:42.37	70.36	23.89	
2025-01-12 00:03:42.58	70.43	23.90	
2025-01-12 00:03:42.78	70.49	23.91	
2025-01-12 00:03:42.99	70.56	23.92	
2025-01-12 00:03:43.19	70.62	23.93	
2025-01-12 00:03:43.40	70.68	23.95	
2025-01-12 00:03:43.60	70.75	23.96	
2025-01-12 00:03:43.81	70.81	23.97	
2025-01-12 00:03:44.01	70.87	23.98	
2025-01-12 00:03:44.22	70.94	23.99	
2025-01-12 00:03:44.42	71.00	24.01	
2025-01-12 00:03:44.63	71.07	24.02	
2025-01-12 00:03:44.84	71.14	24.03	
2025-01-12 00:03:45.04	71.20	24.04	
2025-01-12 00:03:45.25	71.27	24.05	
2025-01-12 00:03:45.45	71.33	24.07	
2025-01-12 00:03:45.66	71.39	24.08	
2025-01-12 00:03:45.86	71.46	24.09	
2025-01-12 00:03:46.07	71.52	24.10	
2025-01-12 00:03:46.28	71.59	24.11	
2025-01-12 00:03:46.48	71.65	24.12	
2025-01-12 00:03:46.68	71.72	24.14	
2025-01-12 00:03:46.89	71.78	24.15	
2025-01-12 00:03:47.10	71.85	24.16	
2025-01-12 00:03:47.30	71.91	24.17	
2025-01-12 00:03:47.51	71.98	24.18	
2025-01-12 00:03:47.71	72.04	24.19	
2025-01-12 00:03:47.91	72.11	24.20	
2025-01-12 00:03:48.12	72.18	24.22	
2025-01-12 00:03:48.33	72.24	24.23	
2025-01-12 00:03:48.53	72.31	24.24	
2025-01-12 00:03:48.73	72.37	24.25	
2025-01-12 00:03:48.94	72.44	24.26	
2025-01-12 00:03:49.14	72.50	24.27	
2025-01-12 00:03:49.35	72.57	24.28	
2025-01-12 00:03:49.55	72.63	24.29	
2025-01-12 00:03:49.76	72.70	24.31	
2025-01-12 00:03:49.96	72.76	24.32	
2025-01-12 00:03:50.16	72.83	24.33	
2025-01-12 00:03:50.37	72.90	24.34	
2025-01-12 00:03:50.57	72.96	24.35	
2025-01-12 00:03:50.78	73.03	24.36	
2025-01-12 00:03:50.98	73.09	24.37	
2025-01-12 00:03:51.19	73.16	24.38	
2025-01-12 00:03:51.40	73.23	24.39	
2025-01-12 00:03:51.60	73.29	24.40	
2025-01-12 00:03:51.81	73.36	24.41	
2025-01-12 00:03:52.01	73.42	24.43	
2025-01-12 00:03:52.21	73.49	24.44	
2025-01-12 00:03:52.42	73.56	24.45	
2025-01-12 00:03:52.62	73.62	24.46	
2025-01-12 00:03:52.83	73.69	24.47	
2025-01-12 00:03:53.03	73.75	24.48	
2025-01-12 00:03:53.24	73.82	24.49	
2025-01-12 00:03:53.44	73.89	24.50	
2025-01-12 00:03:53.65	73.96	24.51	
2025-01-12 00:03:53.86	74.02	24.52	
2025-01-12 00:03:54.06	74.09	24.53	
2025-01-12 00:03:54.26	74.15	24.54	
2025-01-12 00:03:54.47	74.22	24.55	
2025-01-12 00:03:54.67	74.29	24.56	
2025-01-12 00:03:54.88	74.36	24.57	
2025-01-12 00:03:55.09	74.42	24.58	
2025-01-12 00:03:55.29	74.49	24.59	
2025-01-12 00:03:55.49	74.56	24.60	
2025-01-12 00:03:55.70	74.62	24.61	
2025-01-12 00:03:55.90	74.69	24.62	
2025-01-12 00:03:56.11	74.76	24.63	
2025-01-12 00:03:56.31	74.82	24.64	
2025-01-12 00:03:56.52	74.89	24.65	
2025-01-12 00:03:56.72	74.96	24.66	
2025-01-12 00:03:56.93	75.03	24.67	
2025-01-12 00:03:57.13	75.09	24.68	
2025-01-12 00:03:57.34	75.16	24.69	
2025-01-12 00:03:57.54	75.23	24.70	
2025-01-12 00:03:57.75	75.30	24.71	
2025-01-12 00:03:57.95	75.36	24.72	
2025-01-12 00:03:58.16	75.43	24.73	
2025-01-12 00:03:58.36	75.50	24.74	
2025-01-12 00:03:58.56	75.56	24.75	
2025-01-12 00:03:58.77	75.63	24.76	
2025-01-12 00:03:58.97	75.70	24.77	
2025-01-12 00:03:59.18	75.77	24.78	
2025-01-12 00:03:59.38	75.84	24.79	
2025-01-12 00:03:59.59	75.90	24.80	
2025-01-12 00:03:59.80	75.97	24.81	
2025-01-12 00:04:00.00	76.04	24.82	
2025-01-12 00:04:00.22	76.11	24.83	
2025-01-12 00:04:00.43	76.18	24.84	
2025-01-12 00:04:00.63	76.25	24.85	
2025-01-12 00:04:00.83	76.32	24.85	
2025-01-12 00:04:01.04	76.39	24.86	
2025-01-12 00:04:01.24	76.45	24.87	
2025-01-12 00:04:01.45	76.52	24.88	
2025-01-12 00:04:01.65	76.59	24.89	
2025-01-12 00:04:01.86	76.66	24.90	
2025-01-12 00:04:02.06	76.73	24.91	
2025-01-12 00:04:02.27	76.80	24.92	
2025-01-12 00:04:02.47	76.86	24.93	
2025-01-12 00:04:02.69	76.94	24.94	
2025-01-12 00:04:02.90	77.01	24.95	
2025-01-12 00:04:03.10	77.07	24.95	
2025-01-12 00:04:03.31	77.14	24.96	
2025-01-12 00:04:03.51	77.21	24.97	
2025-01-12 00:04:03.72	77.28	24.98	
2025-01-12 00:04:03.92	77.35	24.99	
2025-01-12 00:04:04.13	77.42	25.00	
2025-01-12 00:04:04.33	77.49	25.01	
2025-01-12 00:04:04.54	77.56	25.02	
2025-01-12 00:04:04.74	77.62	25.02	
2025-01-12 00:04:04.95	77.69	25.03	
2025-01-12 00:04:05.15	77.76	25.04	
2025-01-12 00:04:05.36	77.83	25.05	
2025-01-12 00:04:05.56	77.90	25.06	
2025-01-12 00:04:05.77	77.97	25.07	
2025-01-12 00:04:05.97	78.04	25.07	
2025-01-12 00:04:06.18	78.11	25.08	
2025-01-12 00:04:06.38	78.18	25.09	
2025-01-12 00:04:06.59	78.25	25.10	
2025-01-12 00:04:06.80	78.32	25.11	
2025-01-12 00:04:07.00	78.39	25.11	
2025-01-12 00:04:07.20	78.45	25.12	
2025-01-12 00:04:07.41	78.52	25.13	
2025-01-12 00:04:07.61	78.59	25.14	
2025-01-12 00:04:07.82	78.66	25.15	
2025-01-12 00:04:08.04	78.74	25.15	
2025-01-12 00:04:08.24	78.81	25.16	
2025-01-12 00:04:08.45	78.88	25.17	
2025-01-12 00:04:08.66	78.95	25.18	
2025-01-12 00:04:08.86	79.02	25.19	
2025-01-12 00:04:09.06	79.08	25.19	
2025-01-12 00:04:09.27	79.16	25.20	
2025-01-12 00:04:09.47	79.22	25.21	
2025-01-12 00:04:09.68	79.29	25.22	
2025-01-12 00:04:09.88	79.36	25.22	
2025-01-12 00:04:10.09	79.43	25.23	
2025-01-12 00:04:10.29	79.50	25.24	
2025-01-12 00:04:10.50	79.57	25.25	
2025-01-12 00:04:10.70	79.64	25.25	
2025-01-12 00:04:10.91	79.71	25.26	
2025-01-12 00:04:11.11	79.78	25.27	
2025-01-12 00:04:11.31	79.85	25.27	
2025-01-12 00:04:11.52	79.92	25.28	
2025-01-12 00:04:11.72	79.99	25.29	
2025-01-12 00:04:11.93	80.06	25.30	
2025-01-12 00:04:12.13	80.13	25.30	
2025-01-12 00:04:12.34	80.20	25.31	
2025-01-12 00:04:12.55	80.28	25.32	
2025-01-12 00:04:12.75	80.34	25.32	
2025-01-12 00:04:12.96	80.42	25.33	
2025-01-12 00:04:13.16	80.48	25.34	
2025-01-12 00:04:13.37	80.56	25.34	
2025-01-12 00:04:13.57	80.63	25.35	
2025-01-12 00:04:13.78	80.70	25.36	
2025-01-12 00:04:13.98	80.77	25.36	
2025-01-12 00:04:14.19	80.84	25.37	
2025-01-12 00:04:14.39	80.91	25.38	
2025-01-12 00:04:14.60	80.98	25.38	
2025-01-12 00:04:14.80	81.05	25.39	
2025-01-12 00:04:15.01	81.12	25.40	
2025-01-12 00:04:15.21	81.19	25.40	
2025-01-12 00:04:15.42	81.26	25.41	
2025-01-12 00:04:15.62	81.33	25.42	
2025-01-12 00:04:15.83	81.40	25.42	
2025-01-12 00:04:16.03	81.47	25.43	
2025-01-12 00:04:16.24	81.54	25.44	
2025-01-12 00:04:16.44	81.61	25.44	
2025-01-12 00:04:16.65	81.69	25.45	
2025-01-12 00:04:16.86	81.76	25.45	
2025-01-12 00:04:17.06	81.83	25.46	
2025-01-12 00:04:17.27	81.90	25.47	
2025-01-12 00:04:17.47	81.97	25.47	
2025-01-12 00:04:17.67	82.04	25.48	
2025-01-12 00:04:17.88	82.11	25.48	
2025-01-12 00:04:18.09	82.18	25.49	
2025-01-12 00:04:18.29	82.25	25.50	
2025-01-12 00:04:18.49	82.32	25.50	
2025-01-12 00:04:18.70	82.40	25.51	
2025-01-12 00:04:18.91	82.47	25.51	
2025-01-12 00:04:19.11	82.54	25.52	
2025-01-12 00:04:19.32	82.61	25.52	
2025-01-12 00:04:19.52	82.68	25.53	
2025-01-12 00:04:19.73	82.75	25.53	
2025-01-12 00:04:19.93	82.82	25.54	
2025-01-12 00:04:20.14	82.90	25.55	
2025-01-12 00:04:20.34	82.97	25.55	
2025-01-12 00:04:20.55	83.04	25.56	
2025-01-12 00:04:20.75	83.11	25.56	
2025-01-12 00:04:20.96	83.18	25.57	
2025-01-12 00:04:21.16	83.25	25.57	
2025-01-12 00:04:21.37	83.33	25.58	
2025-01-12 00:04:21.58	83.40	25.58	
2025-01-12 00:04:21.78	83.47	25.59	
2025-01-12 00:04:21.98	83.54	25.59	
2025-01-12 00:04:22.19	83.61	25.60	
2025-01-12 00:04:22.39	83.68	25.60	
2025-01-12 00:04:22.60	83.75	25.61	
2025-01-12 00:04:22.81	83.83	25.61	
2025-01-12 00:04:23.01	83.90	25.62	
2025-01-12 00:04:23.22	83.97	25.62	
2025-01-12 00:04:23.42	84.04	25.63	
2025-01-12 00:04:23.63	84.11	25.63	
2025-01-12 00:04:23.83	84.18	25.64	
2025-01-12 00:04:24.04	84.26	25.64	
2025-01-12 00:04:24.24	84.33	25.64	
2025-01-12 00:04:24.45	84.40	25.65	
2025-01-12 00:04:24.65	84.47	25.65	
2025-01-12 00:04:24.86	84.55	25.66	
2025-01-12 00:04:25.06	84.62	25.66	
2025-01-12 00:04:25.27	84.69	25.67	
2025-01-12 00:04:25.47	84.76	25.67	
2025-01-12 00:04:25.68	84.83	25.67	
2025-01-12 00:04:25.89	84.91	25.68	
2025-01-12 00:04:26.09	84.98	25.68	
2025-01-12 00:04:26.29	85.05	25.69	
2025-01-12 00:04:26.50	85.12	25.69	
2025-01-12 00:04:26.71	85.19	25.69	
2025-01-12 00:04:26.91	85.26	25.70	
2025-01-12 00:04:27.11	85.33	25.70	
2025-01-12 00:04:27.32	85.41	25.71	
2025-01-12 00:04:27.53	85.48	25.71	
2025-01-12 00:04:27.73	85.55	25.71	
2025-01-12 00:04:27.94	85.63	25.72	
2025-01-12 00:04:28.14	85.70	25.72	
2025-01-12 00:04:28.35	85.77	25.72	
2025-01-12 00:04:28.55	85.84	25.73	
2025-01-12 00:04:28.76	85.92	25.73	
2025-01-12 00:04:28.96	85.99	25.74	
2025-01-12 00:04:29.17	86.06	25.74	
2025-01-12 00:04:29.39	86.14	25.74	
2025-01-12 00:04:29.59	86.21	25.75	
2025-01-12 00:04:29.80	86.28	25.75	
2025-01-12 00:04:30.00	86.35	25.75	
2025-01-12 00:04:30.21	86.43	25.76	
2025-01-12 00:04:30.41	86.50	25.76	
2025-01-12 00:04:30.62	86.57	25.76	
2025-01-12 00:04:30.82	86.64	25.76	
2025-01-12 00:04:31.03	86.72	25.77	
2025-01-12 00:04:31.23	86.79	25.77	
2025-01-12 00:04:31.44	86.86	25.77	
2025-01-12 00:04:31.64	86.93	25.78	
2025-01-12 00:04:31.85	87.01	25.78	
2025-01-12 00:04:32.05	87.08	25.78	
2025-01-12 00:04:32.26	87.15	25.78	
2025-01-12 00:04:32.46	87.22	25.79	
2025-01-12 00:04:32.67	87.30	25.79	
2025-01-12 00:04:32.87	87.37	25.79	
2025-01-12 00:04:33.08	87.44	25.80	
2025-01-12 00:04:33.28	87.51	25.80	
2025-01-12 00:04:33.49	87.59	25.80	
2025-01-12 00:04:33.69	87.66	25.80	
2025-01-12 00:04:33.90	87.73	25.80	
2025-01-12 00:04:34.11	87.80	25.81	
2025-01-12 00:04:34.31	87.88	25.81	
2025-01-12 00:04:34.52	87.95	25.81	
2025-01-12 00:04:34.72	88.02	25.81	
2025-01-12 00:04:34.93	88.10	25.82	
2025-01-12 00:04:35.13	88.17	25.82	
2025-01-12 00:04:35.34	88.24	25.82	
2025-01-12 00:04:35.54	88.31	25.82	
2025-01-12 00:04:35.75	88.39	25.82	
2025-01-12 00:04:35.95	88.46	25.83	
2025-01-12 00:04:36.16	88.53	25.83	
2025-01-12 00:04:36.36	88.60	25.83	
2025-01-12 00:04:36.57	88.68	25.83	
2025-01-12 00:04:36.77	88.75	25.83	
2025-01-12 00:04:36.98	88.82	25.83	
2025-01-12 00:04:37.19	88.90	25.84	
2025-01-12 00:04:37.39	88.97	25.84	
2025-01-12 00:04:37.60	89.04	25.84	
2025-01-12 00:04:37.80	89.11	25.84	
2025-01-12 00:04:38.01	89.19	25.84	
2025-01-12 00:04:38.21	89.26	25.84	
2025-01-12 00:04:38.42	89.33	25.84	
2025-01-12 00:04:38.63	89.41	25.85	
2025-01-12 00:04:38.83	89.48	25.85	
2025-01-12 00:04:39.03	89.55	25.85	
2025-01-12 00:04:39.24	89.62	25.85	
2025-01-12 00:04:39.45	89.70	25.85	
2025-01-12 00:04:39.65	89.77	25.85	
2025-01-12 00:04:39.85	89.84	25.85	
2025-01-12 00:04:40.06	89.92	25.85	
2025-01-12 00:04:40.26	89.99	25.85	
2025-01-12 00:04:40.47	90.06	25.86	
2025-01-12 00:04:40.67	90.13	25.86	
2025-01-12 00:04:40.88	90.21	25.86	
2025-01-12 00:04:41.10	90.28	25.86	
2025-01-12 00:04:41.30	90.36	25.86	
2025-01-12 00:04:41.51	90.43	25.86	
2025-01-12 00:04:41.72	90.50	25.86	
2025-01-12 00:04:41.92	90.58	25.86	
2025-01-12 00:04:42.12	90.65	25.86	
2025-01-12 00:04:42.33	90.72	25.86	
2025-01-12 00:04:42.53	90.79	25.86	
2025-01-12 00:04:42.74	90.87	25.86	
2025-01-12 00:04:42.94	90.94	25.86	
2025-01-12 00:04:43.15	91.01	25.86	
2025-01-12 00:04:43.35	91.08	25.86	
2025-01-12 00:04:43.56	91.16	25.86	
2025-01-12 00:04:43.77	91.23	25.86	
2025-01-12 00:04:43.97	91.30	25.86	
2025-01-12 00:04:44.17	91.38	25.86	
2025-01-12 00:04:44.38	91.45	25.86	
2025-01-12 00:04:44.58	91.52	25.86	
2025-01-12 00:04:44.79	91.60	25.86	
2025-01-12 00:04:44.99	91.67	25.86	
2025-01-12 00:04:45.20	91.74	25.86	
2025-01-12 00:04:45.41	91.82	25.86	
2025-01-12 00:04:45.61	91.89	25.86	
2025-01-12 00:04:45.82	91.96	25.86	
2025-01-12 00:04:46.02	92.03	25.86	
2025-01-12 00:04:46.23	92.11	25.86	
2025-01-12 00:04:46.43	92.18	25.86	
2025-01-12 00:04:46.63	92.25	25.86	
2025-01-12 00:04:46.84	92.32	25.86	
2025-01-12 00:04:47.04	92.40	25.86	
2025-01-12 00:04:47.25	92.47	25.86	
2025-01-12 00:04:47.46	92.54	25.86	
2025-01-12 00:04:47.66	92.62	25.86	
2025-01-12 00:04:47.87	92.69	25.85	
2025-01-12 00:04:48.07	92.76	25.85	
2025-01-12 00:04:48.28	92.84	25.85	
2025-01-12 00:04:48.48	92.91	25.85	
2025-01-12 00:04:48.69	92.98	25.85	
2025-01-12 00:04:48.90	93.06	25.85	
2025-01-12 00:04:49.10	93.13	25.85	
2025-01-12 00:04:49.31	93.20	25.85	
2025-01-12 00:04:49.51	93.27	25.85	
2025-01-12 00:04:49.72	93.35	25.85	
2025-01-12 00:04:49.92	93.42	25.84	
2025-01-12 00:04:50.13	93.49	25.84	
2025-01-12 00:04:50.33	93.56	25.84	
2025-01-12 00:04:50.54	93.64	25.84	
2025-01-12 00:04:50.74	93.71	25.84	
2025-01-12 00:04:50.95	93.78	25.84	
2025-01-12 00:04:51.15	93.85	25.83	
2025-01-12 00:04:51.36	93.93	25.83	
2025-01-12 00:04:51.56	94.00	25.83	
2025-01-12 00:04:51.77	94.07	25.83	
2025-01-12 00:04:51.97	94.15	25.83	
2025-01-12 00:04:52.17	94.22	25.83	
2025-01-12 00:04:52.38	94.29	25.82	
2025-01-12 00:04:52.59	94.37	25.82	
2025-01-12 00:04:52.79	94.44	25.82	
2025-01-12 00:04:53.00	94.51	25.82	
2025-01-12 00:04:53.20	94.58	25.82	
2025-01-12 00:04:53.41	94.66	25.81	
2025-01-12 00:04:53.61	94.73	25.81	
2025-01-12 00:04:53.82	94.80	25.81	
2025-01-12 00:04:54.02	94.87	25.81	
2025-01-12 00:04:54.23	94.95	25.81	
2025-01-12 00:04:54.43	95.02	25.80	
2025-01-12 00:04:54.64	95.09	25.80	
2025-01-12 00:04:54.86	95.17	25.80	
2025-01-12 00:04:55.06	95.24	25.80	
2025-01-12 00:04:55.27	95.31	25.79	
2025-01-12 00:04:55.47	95.39	25.79	
2025-01-12 00:04:55.68	95.46	25.79	
2025-01-12 00:04:55.88	95.53	25.79	
2025-01-12 00:04:56.08	95.60	25.78	
2025-01-12 00:04:56.29	95.68	25.78	
2025-01-12 00:04:56.50	95.75	25.78	
2025-01-12 00:04:56.70	95.82	25.77	
2025-01-12 00:04:56.91	95.89	25.77	
2025-01-12 00:04:57.11	95.97	25.77	
2025-01-12 00:04:57.32	96.04	25.76	
2025-01-12 00:04:57.52	96.11	25.76	
2025-01-12 00:04:57.73	96.18	25.76	
2025-01-12 00:04:57.93	96.26	25.76	
2025-01-12 00:04:58.14	96.33	25.75	
2025-01-12 00:04:58.34	96.40	25.75	
2025-01-12 00:04:58.55	96.47	25.75	
2025-01-12 00:04:58.75	96.54	25.74	
2025-01-12 00:04:58.96	96.62	25.74	
2025-01-12 00:04:59.17	96.69	25.74	
2025-01-12 00:04:59.38	96.77	25.73	
2025-01-12 00:04:59.58	96.84	25.73	
2025-01-12 00:04:59.79	96.91	25.73	
2025-01-12 00:04:59.99	96.98	25.72	
2025-01-12 00:05:00.21	97.06	25.72	
2025-01-12 00:05:00.42	97.13	25.71	
2025-01-12 00:05:00.62	97.20	25.71	
2025-01-12 00:05:00.83	97.28	25.71	
2025-01-12 00:05:01.03	97.35	25.70	
2025-01-12 00:05:01.24	97.42	25.70	
2025-01-12 00:05:01.44	97.49	25.69	
2025-01-12 00:05:01.65	97.57	25.69	
2025-01-12 00:05:01.85	97.64	25.69	
2025-01-12 00:05:02.06	97.71	25.68	
2025-01-12 00:05:02.26	97.78	25.68	
2025-01-12 00:05:02.47	97.85	25.67	
2025-01-12 00:05:02.67	97.92	25.67	
2025-01-12 00:05:02.88	98.00	25.67	
