passes_logs/2025/01/11/SPB_Silybum_02/SPB_Silybum_02__20250111_023514_AQUA_rec.log

#Pass ID: 20250111_023514_AQUA
#Satellite: AQUA
#Configuration: AQUA
#Start time: 2025-01-11 02:35:13

#Version: 2.0.20230423
#Station: SPB_Silybum_02
#Location: 30.233357 lon 59.946436 lat
#TLE: 1 27424U 02022A   25010.14776733  .00002050  00000+0  43097-3 0  9993
#TLE: 2 27424  98.3581 326.7682 0001515 116.0773 333.4276 14.60663937206917

#Time	Az	El	Level	Level2	SNR	BER	Gain	Gain2
2025-01-11 02:35:15.55	11.92	4.08	
2025-01-11 02:35:15.76	11.91	4.09	
2025-01-11 02:35:15.96	11.90	4.10	
2025-01-11 02:35:16.17	11.88	4.12	
2025-01-11 02:35:16.37	11.87	4.13	
2025-01-11 02:35:16.58	11.86	4.14	
2025-01-11 02:35:16.78	11.85	4.16	
2025-01-11 02:35:16.99	11.83	4.17	
2025-01-11 02:35:17.19	11.82	4.18	
2025-01-11 02:35:17.40	11.81	4.20	
2025-01-11 02:35:17.60	11.79	4.21	
2025-01-11 02:35:17.81	11.78	4.23	
2025-01-11 02:35:18.01	11.77	4.24	
2025-01-11 02:35:18.23	11.75	4.25	
2025-01-11 02:35:18.43	11.74	4.27	
2025-01-11 02:35:18.64	11.73	4.28	
2025-01-11 02:35:18.85	11.72	4.30	
2025-01-11 02:35:19.05	11.70	4.31	
2025-01-11 02:35:19.26	11.69	4.32	
2025-01-11 02:35:19.46	11.68	4.34	
2025-01-11 02:35:19.67	11.66	4.35	
2025-01-11 02:35:19.87	11.65	4.36	
2025-01-11 02:35:20.08	11.64	4.38	
2025-01-11 02:35:20.28	11.63	4.39	
2025-01-11 02:35:20.49	11.61	4.41	
2025-01-11 02:35:20.69	11.60	4.42	
2025-01-11 02:35:20.90	11.59	4.43	
2025-01-11 02:35:21.10	11.57	4.45	
2025-01-11 02:35:21.31	11.56	4.46	
2025-01-11 02:35:21.51	11.55	4.47	
2025-01-11 02:35:21.72	11.53	4.49	
2025-01-11 02:35:21.92	11.52	4.50	
2025-01-11 02:35:22.13	11.51	4.52	
2025-01-11 02:35:22.33	11.50	4.53	
2025-01-11 02:35:22.55	11.48	4.54	
2025-01-11 02:35:22.76	11.47	4.56	
2025-01-11 02:35:22.96	11.46	4.57	
2025-01-11 02:35:23.17	11.44	4.59	
2025-01-11 02:35:23.37	11.43	4.60	
2025-01-11 02:35:23.58	11.42	4.61	
2025-01-11 02:35:23.78	11.40	4.63	
2025-01-11 02:35:23.99	11.39	4.64	
2025-01-11 02:35:24.19	11.38	4.66	
2025-01-11 02:35:24.40	11.36	4.67	
2025-01-11 02:35:24.60	11.35	4.68	
2025-01-11 02:35:24.81	11.34	4.70	
2025-01-11 02:35:25.01	11.32	4.71	
2025-01-11 02:35:25.21	11.31	4.72	
2025-01-11 02:35:25.42	11.30	4.74	
2025-01-11 02:35:25.63	11.28	4.75	
2025-01-11 02:35:25.83	11.27	4.77	
2025-01-11 02:35:26.04	11.26	4.78	
2025-01-11 02:35:26.24	11.24	4.79	
2025-01-11 02:35:26.45	11.23	4.81	
2025-01-11 02:35:26.65	11.22	4.82	
2025-01-11 02:35:26.86	11.20	4.84	
2025-01-11 02:35:27.06	11.19	4.85	
2025-01-11 02:35:27.27	11.18	4.86	
2025-01-11 02:35:27.47	11.16	4.88	
2025-01-11 02:35:27.68	11.15	4.89	
2025-01-11 02:35:27.88	11.14	4.91	
2025-01-11 02:35:28.09	11.12	4.92	
2025-01-11 02:35:28.29	11.11	4.93	
2025-01-11 02:35:28.50	11.09	4.95	
2025-01-11 02:35:28.71	11.08	4.96	
2025-01-11 02:35:28.91	11.07	4.98	
2025-01-11 02:35:29.11	11.05	4.99	
2025-01-11 02:35:29.32	11.04	5.00	
2025-01-11 02:35:29.52	11.03	5.02	
2025-01-11 02:35:29.73	11.01	5.03	
2025-01-11 02:35:29.93	11.00	5.05	
2025-01-11 02:35:30.14	10.99	5.06	
2025-01-11 02:35:30.34	10.97	5.07	
2025-01-11 02:35:30.55	10.96	5.09	
2025-01-11 02:35:30.75	10.94	5.10	
2025-01-11 02:35:30.96	10.93	5.12	
2025-01-11 02:35:31.16	10.92	5.13	
2025-01-11 02:35:31.37	10.90	5.15	
2025-01-11 02:35:31.57	10.89	5.16	
2025-01-11 02:35:31.78	10.88	5.17	
2025-01-11 02:35:31.98	10.86	5.19	
2025-01-11 02:35:32.19	10.85	5.20	
2025-01-11 02:35:32.39	10.83	5.22	
2025-01-11 02:35:32.60	10.82	5.23	
2025-01-11 02:35:32.80	10.81	5.24	
2025-01-11 02:35:33.01	10.79	5.26	
2025-01-11 02:35:33.21	10.78	5.27	
2025-01-11 02:35:33.42	10.76	5.29	
2025-01-11 02:35:33.62	10.75	5.30	
2025-01-11 02:35:33.83	10.74	5.32	
2025-01-11 02:35:34.03	10.72	5.33	
2025-01-11 02:35:34.24	10.71	5.34	
2025-01-11 02:35:34.44	10.70	5.36	
2025-01-11 02:35:34.65	10.68	5.37	
2025-01-11 02:35:34.85	10.67	5.39	
2025-01-11 02:35:35.06	10.65	5.40	
2025-01-11 02:35:35.26	10.64	5.41	
2025-01-11 02:35:35.47	10.62	5.43	
2025-01-11 02:35:35.67	10.61	5.44	
2025-01-11 02:35:35.88	10.60	5.46	
2025-01-11 02:35:36.08	10.58	5.47	
2025-01-11 02:35:36.29	10.57	5.49	
2025-01-11 02:35:36.49	10.55	5.50	
2025-01-11 02:35:36.70	10.54	5.51	
2025-01-11 02:35:36.91	10.53	5.53	
2025-01-11 02:35:37.11	10.51	5.54	
2025-01-11 02:35:37.32	10.50	5.56	
2025-01-11 02:35:37.52	10.48	5.57	
2025-01-11 02:35:37.73	10.47	5.59	
2025-01-11 02:35:37.93	10.45	5.60	
2025-01-11 02:35:38.14	10.44	5.62	
2025-01-11 02:35:38.34	10.43	5.63	
2025-01-11 02:35:38.56	10.41	5.64	
2025-01-11 02:35:38.76	10.40	5.66	
2025-01-11 02:35:38.97	10.38	5.67	
2025-01-11 02:35:39.17	10.37	5.69	
2025-01-11 02:35:39.38	10.35	5.70	
2025-01-11 02:35:39.58	10.34	5.72	
2025-01-11 02:35:39.79	10.32	5.73	
2025-01-11 02:35:39.99	10.31	5.75	
2025-01-11 02:35:40.20	10.30	5.76	
2025-01-11 02:35:40.41	10.28	5.77	
2025-01-11 02:35:40.61	10.27	5.79	
2025-01-11 02:35:40.81	10.25	5.80	
2025-01-11 02:35:41.02	10.24	5.82	
2025-01-11 02:35:41.22	10.22	5.83	
2025-01-11 02:35:41.43	10.21	5.85	
2025-01-11 02:35:41.63	10.19	5.86	
2025-01-11 02:35:41.84	10.18	5.88	
2025-01-11 02:35:42.05	10.16	5.89	
2025-01-11 02:35:42.25	10.15	5.90	
2025-01-11 02:35:42.46	10.14	5.92	
2025-01-11 02:35:42.66	10.12	5.93	
2025-01-11 02:35:42.87	10.11	5.95	
2025-01-11 02:35:43.07	10.09	5.96	
2025-01-11 02:35:43.28	10.08	5.98	
2025-01-11 02:35:43.48	10.06	5.99	
2025-01-11 02:35:43.69	10.05	6.01	
2025-01-11 02:35:43.89	10.03	6.02	
2025-01-11 02:35:44.09	10.02	6.03	
2025-01-11 02:35:44.30	10.00	6.05	
2025-01-11 02:35:44.50	9.99	6.06	
2025-01-11 02:35:44.71	9.97	6.08	
2025-01-11 02:35:44.91	9.96	6.09	
2025-01-11 02:35:45.12	9.94	6.11	
2025-01-11 02:35:45.33	9.93	6.12	
2025-01-11 02:35:45.53	9.91	6.14	
2025-01-11 02:35:45.74	9.90	6.15	
2025-01-11 02:35:45.96	9.88	6.17	
2025-01-11 02:35:46.16	9.87	6.18	
2025-01-11 02:35:46.37	9.85	6.20	
2025-01-11 02:35:46.57	9.84	6.21	
2025-01-11 02:35:46.78	9.82	6.23	
2025-01-11 02:35:46.99	9.81	6.24	
2025-01-11 02:35:47.20	9.79	6.26	
2025-01-11 02:35:47.41	9.78	6.27	
2025-01-11 02:35:47.61	9.76	6.29	
2025-01-11 02:35:47.82	9.75	6.30	
2025-01-11 02:35:48.02	9.73	6.32	
2025-01-11 02:35:48.23	9.72	6.33	
2025-01-11 02:35:48.43	9.70	6.34	
2025-01-11 02:35:48.64	9.69	6.36	
2025-01-11 02:35:48.84	9.67	6.37	
2025-01-11 02:35:49.05	9.66	6.39	
2025-01-11 02:35:49.25	9.64	6.40	
2025-01-11 02:35:49.46	9.63	6.42	
2025-01-11 02:35:49.66	9.61	6.43	
2025-01-11 02:35:49.87	9.60	6.45	
2025-01-11 02:35:50.07	9.58	6.46	
2025-01-11 02:35:50.28	9.57	6.48	
2025-01-11 02:35:50.49	9.55	6.49	
2025-01-11 02:35:50.69	9.53	6.51	
2025-01-11 02:35:50.90	9.52	6.52	
2025-01-11 02:35:51.10	9.50	6.54	
2025-01-11 02:35:51.32	9.49	6.55	
2025-01-11 02:35:51.52	9.47	6.57	
2025-01-11 02:35:51.73	9.46	6.58	
2025-01-11 02:35:51.93	9.44	6.60	
2025-01-11 02:35:52.14	9.43	6.61	
2025-01-11 02:35:52.34	9.41	6.63	
2025-01-11 02:35:52.55	9.39	6.64	
2025-01-11 02:35:52.75	9.38	6.66	
2025-01-11 02:35:52.96	9.36	6.67	
2025-01-11 02:35:53.17	9.35	6.69	
2025-01-11 02:35:53.37	9.33	6.70	
2025-01-11 02:35:53.57	9.32	6.72	
2025-01-11 02:35:53.78	9.30	6.73	
2025-01-11 02:35:53.98	9.29	6.75	
2025-01-11 02:35:54.19	9.27	6.76	
2025-01-11 02:35:54.39	9.26	6.78	
2025-01-11 02:35:54.60	9.24	6.79	
2025-01-11 02:35:54.80	9.22	6.81	
2025-01-11 02:35:55.01	9.21	6.82	
2025-01-11 02:35:55.21	9.19	6.83	
2025-01-11 02:35:55.42	9.18	6.85	
2025-01-11 02:35:55.62	9.16	6.86	
2025-01-11 02:35:55.83	9.14	6.88	
2025-01-11 02:35:56.03	9.13	6.89	
2025-01-11 02:35:56.24	9.11	6.91	
2025-01-11 02:35:56.44	9.10	6.92	
2025-01-11 02:35:56.65	9.08	6.94	
2025-01-11 02:35:56.85	9.07	6.95	
2025-01-11 02:35:57.06	9.05	6.97	
2025-01-11 02:35:57.26	9.03	6.98	
2025-01-11 02:35:57.47	9.02	7.00	
2025-01-11 02:35:57.69	9.00	7.02	
2025-01-11 02:35:57.89	8.99	7.03	
2025-01-11 02:35:58.10	8.97	7.05	
2025-01-11 02:35:58.30	8.95	7.06	
2025-01-11 02:35:58.51	8.94	7.08	
2025-01-11 02:35:58.71	8.92	7.09	
2025-01-11 02:35:58.92	8.90	7.11	
2025-01-11 02:35:59.13	8.89	7.12	
2025-01-11 02:35:59.33	8.87	7.14	
2025-01-11 02:35:59.53	8.86	7.15	
2025-01-11 02:35:59.74	8.84	7.17	
2025-01-11 02:35:59.95	8.82	7.18	
2025-01-11 02:36:00.15	8.81	7.20	
2025-01-11 02:36:00.35	8.79	7.21	
2025-01-11 02:36:00.56	8.78	7.23	
2025-01-11 02:36:00.77	8.76	7.24	
2025-01-11 02:36:00.97	8.74	7.26	
2025-01-11 02:36:01.17	8.73	7.27	
2025-01-11 02:36:01.38	8.71	7.29	
2025-01-11 02:36:01.59	8.69	7.30	
2025-01-11 02:36:01.79	8.68	7.32	
2025-01-11 02:36:01.99	8.66	7.33	
2025-01-11 02:36:02.20	8.65	7.35	
2025-01-11 02:36:02.41	8.63	7.37	
2025-01-11 02:36:02.61	8.61	7.38	
2025-01-11 02:36:02.81	8.60	7.39	
2025-01-11 02:36:03.02	8.58	7.41	
2025-01-11 02:36:03.22	8.56	7.43	
2025-01-11 02:36:03.43	8.55	7.44	
2025-01-11 02:36:03.63	8.53	7.46	
2025-01-11 02:36:03.84	8.51	7.47	
2025-01-11 02:36:04.04	8.50	7.49	
2025-01-11 02:36:04.24	8.48	7.50	
2025-01-11 02:36:04.45	8.46	7.52	
2025-01-11 02:36:04.65	8.45	7.53	
2025-01-11 02:36:04.86	8.43	7.55	
2025-01-11 02:36:05.06	8.42	7.56	
2025-01-11 02:36:05.27	8.40	7.58	
2025-01-11 02:36:05.47	8.38	7.59	
2025-01-11 02:36:05.68	8.36	7.61	
2025-01-11 02:36:05.88	8.35	7.62	
2025-01-11 02:36:06.09	8.33	7.64	
2025-01-11 02:36:06.29	8.31	7.65	
2025-01-11 02:36:06.49	8.30	7.67	
2025-01-11 02:36:06.70	8.28	7.69	
2025-01-11 02:36:06.91	8.26	7.70	
2025-01-11 02:36:07.11	8.25	7.72	
2025-01-11 02:36:07.31	8.23	7.73	
2025-01-11 02:36:07.52	8.21	7.75	
2025-01-11 02:36:07.73	8.20	7.76	
2025-01-11 02:36:07.93	8.18	7.78	
2025-01-11 02:36:08.14	8.16	7.79	
2025-01-11 02:36:08.34	8.15	7.81	
2025-01-11 02:36:08.55	8.13	7.82	
2025-01-11 02:36:08.75	8.11	7.84	
2025-01-11 02:36:08.96	8.09	7.86	
2025-01-11 02:36:09.16	8.08	7.87	
2025-01-11 02:36:09.36	8.06	7.89	
2025-01-11 02:36:09.57	8.04	7.90	
2025-01-11 02:36:09.77	8.03	7.92	
2025-01-11 02:36:09.98	8.01	7.93	
2025-01-11 02:36:10.18	7.99	7.95	
2025-01-11 02:36:10.39	7.98	7.96	
2025-01-11 02:36:10.59	7.96	7.98	
2025-01-11 02:36:10.80	7.94	8.00	
2025-01-11 02:36:11.00	7.92	8.01	
2025-01-11 02:36:11.21	7.91	8.03	
2025-01-11 02:36:11.41	7.89	8.04	
2025-01-11 02:36:11.63	7.87	8.06	
2025-01-11 02:36:11.84	7.85	8.07	
2025-01-11 02:36:12.04	7.84	8.09	
2025-01-11 02:36:12.25	7.82	8.11	
2025-01-11 02:36:12.45	7.80	8.12	
2025-01-11 02:36:12.66	7.78	8.14	
2025-01-11 02:36:12.86	7.77	8.15	
2025-01-11 02:36:13.07	7.75	8.17	
2025-01-11 02:36:13.27	7.73	8.18	
2025-01-11 02:36:13.48	7.71	8.20	
2025-01-11 02:36:13.68	7.70	8.21	
2025-01-11 02:36:13.89	7.68	8.23	
2025-01-11 02:36:14.09	7.66	8.25	
2025-01-11 02:36:14.30	7.64	8.26	
2025-01-11 02:36:14.50	7.63	8.28	
2025-01-11 02:36:14.71	7.61	8.29	
2025-01-11 02:36:14.91	7.59	8.31	
2025-01-11 02:36:15.12	7.57	8.33	
2025-01-11 02:36:15.32	7.56	8.34	
2025-01-11 02:36:15.53	7.54	8.36	
2025-01-11 02:36:15.74	7.52	8.37	
2025-01-11 02:36:15.94	7.50	8.39	
2025-01-11 02:36:16.14	7.49	8.40	
2025-01-11 02:36:16.35	7.47	8.42	
2025-01-11 02:36:16.56	7.45	8.44	
2025-01-11 02:36:16.76	7.43	8.45	
2025-01-11 02:36:16.97	7.41	8.47	
2025-01-11 02:36:17.17	7.40	8.48	
2025-01-11 02:36:17.37	7.38	8.50	
2025-01-11 02:36:17.58	7.36	8.51	
2025-01-11 02:36:17.79	7.34	8.53	
2025-01-11 02:36:17.99	7.32	8.55	
2025-01-11 02:36:18.19	7.31	8.56	
2025-01-11 02:36:18.40	7.29	8.58	
2025-01-11 02:36:18.60	7.27	8.59	
2025-01-11 02:36:18.81	7.25	8.61	
2025-01-11 02:36:19.01	7.24	8.63	
2025-01-11 02:36:19.22	7.22	8.64	
2025-01-11 02:36:19.42	7.20	8.66	
2025-01-11 02:36:19.63	7.18	8.67	
2025-01-11 02:36:19.83	7.16	8.69	
2025-01-11 02:36:20.04	7.14	8.71	
2025-01-11 02:36:20.24	7.13	8.72	
2025-01-11 02:36:20.45	7.11	8.74	
2025-01-11 02:36:20.66	7.09	8.75	
2025-01-11 02:36:20.86	7.07	8.77	
2025-01-11 02:36:21.06	7.05	8.78	
2025-01-11 02:36:21.27	7.03	8.80	
2025-01-11 02:36:21.47	7.02	8.82	
2025-01-11 02:36:21.68	7.00	8.83	
2025-01-11 02:36:21.88	6.98	8.85	
2025-01-11 02:36:22.09	6.96	8.87	
2025-01-11 02:36:22.29	6.94	8.88	
2025-01-11 02:36:22.50	6.92	8.90	
2025-01-11 02:36:22.70	6.91	8.91	
2025-01-11 02:36:22.91	6.89	8.93	
2025-01-11 02:36:23.11	6.87	8.95	
2025-01-11 02:36:23.32	6.85	8.96	
2025-01-11 02:36:23.52	6.83	8.98	
2025-01-11 02:36:23.73	6.81	8.99	
2025-01-11 02:36:23.93	6.79	9.01	
2025-01-11 02:36:24.14	6.78	9.03	
2025-01-11 02:36:24.34	6.76	9.04	
2025-01-11 02:36:24.55	6.74	9.06	
2025-01-11 02:36:24.76	6.72	9.07	
2025-01-11 02:36:24.96	6.70	9.09	
2025-01-11 02:36:25.17	6.68	9.11	
2025-01-11 02:36:25.37	6.66	9.12	
2025-01-11 02:36:25.58	6.64	9.14	
2025-01-11 02:36:25.78	6.63	9.16	
2025-01-11 02:36:25.99	6.61	9.17	
2025-01-11 02:36:26.19	6.59	9.19	
2025-01-11 02:36:26.40	6.57	9.20	
2025-01-11 02:36:26.60	6.55	9.22	
2025-01-11 02:36:26.81	6.53	9.24	
2025-01-11 02:36:27.01	6.51	9.25	
2025-01-11 02:36:27.22	6.49	9.27	
2025-01-11 02:36:27.43	6.47	9.29	
2025-01-11 02:36:27.63	6.45	9.30	
2025-01-11 02:36:27.83	6.44	9.32	
2025-01-11 02:36:28.04	6.42	9.33	
2025-01-11 02:36:28.25	6.40	9.35	
2025-01-11 02:36:28.45	6.38	9.37	
2025-01-11 02:36:28.66	6.36	9.38	
2025-01-11 02:36:28.86	6.34	9.40	
2025-01-11 02:36:29.07	6.32	9.42	
2025-01-11 02:36:29.27	6.30	9.43	
2025-01-11 02:36:29.48	6.28	9.45	
2025-01-11 02:36:29.68	6.26	9.46	
2025-01-11 02:36:29.89	6.24	9.48	
2025-01-11 02:36:30.09	6.22	9.50	
2025-01-11 02:36:30.30	6.20	9.51	
2025-01-11 02:36:30.50	6.19	9.53	
2025-01-11 02:36:30.71	6.17	9.55	
2025-01-11 02:36:30.91	6.15	9.56	
2025-01-11 02:36:31.13	6.13	9.58	
2025-01-11 02:36:31.33	6.11	9.60	
2025-01-11 02:36:31.54	6.09	9.61	
2025-01-11 02:36:31.74	6.07	9.63	
2025-01-11 02:36:31.95	6.05	9.65	
2025-01-11 02:36:32.15	6.03	9.66	
2025-01-11 02:36:32.36	6.01	9.68	
2025-01-11 02:36:32.57	5.99	9.70	
2025-01-11 02:36:32.77	5.97	9.71	
2025-01-11 02:36:32.98	5.95	9.73	
2025-01-11 02:36:33.18	5.93	9.75	
2025-01-11 02:36:33.39	5.91	9.76	
2025-01-11 02:36:33.59	5.89	9.78	
2025-01-11 02:36:33.80	5.87	9.80	
2025-01-11 02:36:34.02	5.85	9.81	
2025-01-11 02:36:34.22	5.83	9.83	
2025-01-11 02:36:34.43	5.81	9.85	
2025-01-11 02:36:34.63	5.79	9.86	
2025-01-11 02:36:34.84	5.77	9.88	
2025-01-11 02:36:35.04	5.75	9.90	
2025-01-11 02:36:35.25	5.73	9.91	
2025-01-11 02:36:35.45	5.71	9.93	
2025-01-11 02:36:35.66	5.69	9.95	
2025-01-11 02:36:35.86	5.67	9.96	
2025-01-11 02:36:36.06	5.65	9.98	
2025-01-11 02:36:36.27	5.63	9.99	
2025-01-11 02:36:36.48	5.61	10.01	
2025-01-11 02:36:36.68	5.59	10.03	
2025-01-11 02:36:36.89	5.57	10.05	
2025-01-11 02:36:37.09	5.55	10.06	
2025-01-11 02:36:37.30	5.53	10.08	
2025-01-11 02:36:37.50	5.51	10.10	
2025-01-11 02:36:37.71	5.49	10.11	
2025-01-11 02:36:37.91	5.47	10.13	
2025-01-11 02:36:38.12	5.45	10.15	
2025-01-11 02:36:38.32	5.43	10.16	
2025-01-11 02:36:38.53	5.41	10.18	
2025-01-11 02:36:38.73	5.39	10.20	
2025-01-11 02:36:38.93	5.37	10.21	
2025-01-11 02:36:39.14	5.35	10.23	
2025-01-11 02:36:39.34	5.33	10.25	
2025-01-11 02:36:39.55	5.31	10.26	
2025-01-11 02:36:39.75	5.29	10.28	
2025-01-11 02:36:39.96	5.27	10.30	
2025-01-11 02:36:40.16	5.25	10.31	
2025-01-11 02:36:40.37	5.22	10.33	
2025-01-11 02:36:40.57	5.20	10.35	
2025-01-11 02:36:40.78	5.18	10.36	
2025-01-11 02:36:40.98	5.16	10.38	
2025-01-11 02:36:41.19	5.14	10.40	
2025-01-11 02:36:41.39	5.12	10.41	
2025-01-11 02:36:41.60	5.10	10.43	
2025-01-11 02:36:41.80	5.08	10.45	
2025-01-11 02:36:42.01	5.06	10.46	
2025-01-11 02:36:42.22	5.04	10.48	
2025-01-11 02:36:42.42	5.02	10.50	
2025-01-11 02:36:42.62	5.00	10.51	
2025-01-11 02:36:42.83	4.97	10.53	
2025-01-11 02:36:43.04	4.95	10.55	
2025-01-11 02:36:43.24	4.93	10.57	
2025-01-11 02:36:43.45	4.91	10.58	
2025-01-11 02:36:43.67	4.89	10.60	
2025-01-11 02:36:43.87	4.87	10.62	
2025-01-11 02:36:44.08	4.85	10.64	
2025-01-11 02:36:44.28	4.83	10.65	
2025-01-11 02:36:44.49	4.80	10.67	
2025-01-11 02:36:44.69	4.78	10.69	
2025-01-11 02:36:44.89	4.76	10.70	
2025-01-11 02:36:45.10	4.74	10.72	
2025-01-11 02:36:45.30	4.72	10.74	
2025-01-11 02:36:45.51	4.70	10.75	
2025-01-11 02:36:45.71	4.68	10.77	
2025-01-11 02:36:45.92	4.66	10.79	
2025-01-11 02:36:46.12	4.64	10.81	
2025-01-11 02:36:46.33	4.61	10.82	
2025-01-11 02:36:46.53	4.59	10.84	
2025-01-11 02:36:46.74	4.57	10.86	
2025-01-11 02:36:46.96	4.55	10.88	
2025-01-11 02:36:47.16	4.53	10.89	
2025-01-11 02:36:47.36	4.51	10.91	
2025-01-11 02:36:47.57	4.48	10.93	
2025-01-11 02:36:47.78	4.46	10.94	
2025-01-11 02:36:47.99	4.44	10.96	
2025-01-11 02:36:48.20	4.42	10.98	
2025-01-11 02:36:48.41	4.40	11.00	
2025-01-11 02:36:48.61	4.37	11.01	
2025-01-11 02:36:48.82	4.35	11.03	
2025-01-11 02:36:49.02	4.33	11.05	
2025-01-11 02:36:49.23	4.31	11.07	
2025-01-11 02:36:49.44	4.29	11.08	
2025-01-11 02:36:49.65	4.26	11.10	
2025-01-11 02:36:49.85	4.24	11.12	
2025-01-11 02:36:50.06	4.22	11.14	
2025-01-11 02:36:50.26	4.20	11.15	
2025-01-11 02:36:50.47	4.18	11.17	
2025-01-11 02:36:50.67	4.15	11.19	
2025-01-11 02:36:50.88	4.13	11.20	
2025-01-11 02:36:51.08	4.11	11.22	
2025-01-11 02:36:51.29	4.09	11.24	
2025-01-11 02:36:51.50	4.06	11.26	
2025-01-11 02:36:51.70	4.04	11.27	
2025-01-11 02:36:51.91	4.02	11.29	
2025-01-11 02:36:52.11	4.00	11.31	
2025-01-11 02:36:52.32	3.98	11.33	
2025-01-11 02:36:52.52	3.95	11.34	
2025-01-11 02:36:52.73	3.93	11.36	
2025-01-11 02:36:52.93	3.91	11.38	
2025-01-11 02:36:53.14	3.89	11.40	
2025-01-11 02:36:53.36	3.86	11.41	
2025-01-11 02:36:53.56	3.84	11.43	
2025-01-11 02:36:53.77	3.82	11.45	
2025-01-11 02:36:53.97	3.80	11.47	
2025-01-11 02:36:54.18	3.77	11.48	
2025-01-11 02:36:54.39	3.75	11.50	
2025-01-11 02:36:54.60	3.73	11.52	
2025-01-11 02:36:54.80	3.71	11.54	
2025-01-11 02:36:55.01	3.68	11.56	
2025-01-11 02:36:55.21	3.66	11.57	
2025-01-11 02:36:55.42	3.64	11.59	
2025-01-11 02:36:55.62	3.61	11.61	
2025-01-11 02:36:55.83	3.59	11.63	
2025-01-11 02:36:56.03	3.57	11.64	
2025-01-11 02:36:56.24	3.55	11.66	
2025-01-11 02:36:56.44	3.52	11.68	
2025-01-11 02:36:56.65	3.50	11.70	
2025-01-11 02:36:56.86	3.48	11.71	
2025-01-11 02:36:57.06	3.45	11.73	
2025-01-11 02:36:57.27	3.43	11.75	
2025-01-11 02:36:57.47	3.41	11.77	
2025-01-11 02:36:57.68	3.38	11.78	
2025-01-11 02:36:57.89	3.36	11.80	
2025-01-11 02:36:58.09	3.34	11.82	
2025-01-11 02:36:58.30	3.32	11.84	
2025-01-11 02:36:58.50	3.29	11.85	
2025-01-11 02:36:58.70	3.27	11.87	
2025-01-11 02:36:58.91	3.25	11.89	
2025-01-11 02:36:59.11	3.22	11.91	
2025-01-11 02:36:59.32	3.20	11.93	
2025-01-11 02:36:59.52	3.18	11.94	
2025-01-11 02:36:59.73	3.15	11.96	
2025-01-11 02:36:59.93	3.13	11.98	
2025-01-11 02:37:00.14	3.11	12.00	
2025-01-11 02:37:00.34	3.08	12.01	
2025-01-11 02:37:00.55	3.06	12.03	
2025-01-11 02:37:00.75	3.04	12.05	
2025-01-11 02:37:00.96	3.01	12.07	
2025-01-11 02:37:01.16	2.99	12.08	
2025-01-11 02:37:01.37	2.97	12.10	
2025-01-11 02:37:01.57	2.94	12.12	
2025-01-11 02:37:01.78	2.92	12.14	
2025-01-11 02:37:01.98	2.90	12.16	
2025-01-11 02:37:02.19	2.87	12.17	
2025-01-11 02:37:02.39	2.85	12.19	
2025-01-11 02:37:02.60	2.82	12.21	
2025-01-11 02:37:02.80	2.80	12.23	
2025-01-11 02:37:03.01	2.78	12.25	
2025-01-11 02:37:03.21	2.75	12.26	
2025-01-11 02:37:03.41	2.73	12.28	
2025-01-11 02:37:03.62	2.71	12.30	
2025-01-11 02:37:03.82	2.68	12.32	
2025-01-11 02:37:04.03	2.66	12.34	
2025-01-11 02:37:04.23	2.63	12.35	
2025-01-11 02:37:04.44	2.61	12.37	
2025-01-11 02:37:04.64	2.59	12.39	
2025-01-11 02:37:04.85	2.56	12.41	
2025-01-11 02:37:05.05	2.54	12.42	
2025-01-11 02:37:05.26	2.51	12.44	
2025-01-11 02:37:05.46	2.49	12.46	
2025-01-11 02:37:05.67	2.46	12.48	
2025-01-11 02:37:05.87	2.44	12.50	
2025-01-11 02:37:06.08	2.42	12.51	
2025-01-11 02:37:06.28	2.39	12.53	
2025-01-11 02:37:06.49	2.37	12.55	
2025-01-11 02:37:06.69	2.34	12.57	
2025-01-11 02:37:06.90	2.32	12.59	
2025-01-11 02:37:07.10	2.29	12.60	
2025-01-11 02:37:07.31	2.27	12.62	
2025-01-11 02:37:07.51	2.25	12.64	
2025-01-11 02:37:07.72	2.22	12.66	
2025-01-11 02:37:07.92	2.20	12.68	
2025-01-11 02:37:08.12	2.17	12.69	
2025-01-11 02:37:08.33	2.15	12.71	
2025-01-11 02:37:08.54	2.12	12.73	
2025-01-11 02:37:08.74	2.10	12.75	
2025-01-11 02:37:08.95	2.07	12.77	
2025-01-11 02:37:09.15	2.05	12.79	
2025-01-11 02:37:09.36	2.02	12.80	
2025-01-11 02:37:09.56	2.00	12.82	
2025-01-11 02:37:09.77	1.97	12.84	
2025-01-11 02:37:09.97	1.95	12.86	
2025-01-11 02:37:10.18	1.92	12.88	
2025-01-11 02:37:10.38	1.90	12.90	
2025-01-11 02:37:10.59	1.87	12.91	
2025-01-11 02:37:10.79	1.85	12.93	
2025-01-11 02:37:11.00	1.82	12.95	
2025-01-11 02:37:11.20	1.80	12.97	
2025-01-11 02:37:11.42	1.77	12.99	
2025-01-11 02:37:11.63	1.75	13.01	
2025-01-11 02:37:11.83	1.72	13.02	
2025-01-11 02:37:12.04	1.69	13.04	
2025-01-11 02:37:12.24	1.67	13.06	
2025-01-11 02:37:12.45	1.64	13.08	
2025-01-11 02:37:12.65	1.62	13.10	
2025-01-11 02:37:12.86	1.59	13.12	
2025-01-11 02:37:13.07	1.57	13.14	
2025-01-11 02:37:13.27	1.54	13.15	
2025-01-11 02:37:13.47	1.52	13.17	
2025-01-11 02:37:13.68	1.49	13.19	
2025-01-11 02:37:13.89	1.47	13.21	
2025-01-11 02:37:14.09	1.44	13.23	
2025-01-11 02:37:14.30	1.41	13.25	
2025-01-11 02:37:14.50	1.39	13.26	
2025-01-11 02:37:14.70	1.36	13.28	
2025-01-11 02:37:14.91	1.34	13.30	
2025-01-11 02:37:15.11	1.31	13.32	
2025-01-11 02:37:15.32	1.29	13.34	
2025-01-11 02:37:15.52	1.26	13.36	
2025-01-11 02:37:15.73	1.23	13.37	
2025-01-11 02:37:15.93	1.21	13.39	
2025-01-11 02:37:16.14	1.18	13.41	
2025-01-11 02:37:16.34	1.16	13.43	
2025-01-11 02:37:16.55	1.13	13.45	
2025-01-11 02:37:16.77	1.10	13.47	
2025-01-11 02:37:16.97	1.08	13.49	
2025-01-11 02:37:17.18	1.05	13.51	
2025-01-11 02:37:17.39	1.02	13.52	
2025-01-11 02:37:17.59	1.00	13.54	
2025-01-11 02:37:17.80	0.97	13.56	
2025-01-11 02:37:18.00	0.94	13.58	
2025-01-11 02:37:18.21	0.92	13.60	
2025-01-11 02:37:18.42	0.89	13.62	
2025-01-11 02:37:18.62	0.86	13.64	
2025-01-11 02:37:18.83	0.84	13.66	
2025-01-11 02:37:19.03	0.81	13.67	
2025-01-11 02:37:19.24	0.78	13.69	
2025-01-11 02:37:19.44	0.76	13.71	
2025-01-11 02:37:19.65	0.73	13.73	
2025-01-11 02:37:19.87	0.70	13.75	
2025-01-11 02:37:20.07	0.68	13.77	
2025-01-11 02:37:20.28	0.65	13.79	
2025-01-11 02:37:20.48	0.62	13.81	
2025-01-11 02:37:20.69	0.60	13.83	
2025-01-11 02:37:20.89	0.57	13.84	
2025-01-11 02:37:21.10	0.54	13.86	
2025-01-11 02:37:21.30	0.52	13.88	
2025-01-11 02:37:21.51	0.49	13.90	
2025-01-11 02:37:21.71	0.46	13.92	
2025-01-11 02:37:21.92	0.43	13.94	
2025-01-11 02:37:22.12	0.41	13.96	
2025-01-11 02:37:22.33	0.38	13.98	
2025-01-11 02:37:22.53	0.35	13.99	
2025-01-11 02:37:22.74	0.33	14.01	
2025-01-11 02:37:22.94	0.30	14.03	
2025-01-11 02:37:23.15	0.27	14.05	
2025-01-11 02:37:23.36	0.24	14.07	
2025-01-11 02:37:23.56	0.22	14.09	
2025-01-11 02:37:23.77	0.19	14.11	
2025-01-11 02:37:23.97	0.16	14.13	
2025-01-11 02:37:24.18	0.13	14.15	
2025-01-11 02:37:24.38	0.11	14.16	
2025-01-11 02:37:24.59	0.08	14.18	
2025-01-11 02:37:24.79	0.05	14.20	
2025-01-11 02:37:25.00	0.02	14.22	
2025-01-11 02:37:25.22	359.99	14.24	
2025-01-11 02:37:25.42	359.97	14.26	
2025-01-11 02:37:25.63	359.94	14.28	
2025-01-11 02:37:25.83	359.91	14.30	
2025-01-11 02:37:26.04	359.88	14.32	
2025-01-11 02:37:26.24	359.86	14.34	
2025-01-11 02:37:26.45	359.83	14.36	
2025-01-11 02:37:26.66	359.80	14.38	
2025-01-11 02:37:26.86	359.77	14.39	
2025-01-11 02:37:27.07	359.74	14.41	
2025-01-11 02:37:27.27	359.72	14.43	
2025-01-11 02:37:27.48	359.69	14.45	
2025-01-11 02:37:27.68	359.66	14.47	
2025-01-11 02:37:27.89	359.63	14.49	
2025-01-11 02:37:28.09	359.60	14.51	
2025-01-11 02:37:28.30	359.57	14.53	
2025-01-11 02:37:28.50	359.55	14.55	
2025-01-11 02:37:28.71	359.52	14.57	
2025-01-11 02:37:28.91	359.49	14.58	
2025-01-11 02:37:29.12	359.46	14.60	
2025-01-11 02:37:29.33	359.43	14.62	
2025-01-11 02:37:29.54	359.40	14.64	
2025-01-11 02:37:29.75	359.37	14.66	
2025-01-11 02:37:29.95	359.35	14.68	
2025-01-11 02:37:30.16	359.32	14.70	
2025-01-11 02:37:30.36	359.29	14.72	
2025-01-11 02:37:30.57	359.26	14.74	
2025-01-11 02:37:30.77	359.23	14.76	
2025-01-11 02:37:30.98	359.20	14.78	
2025-01-11 02:37:31.18	359.17	14.80	
2025-01-11 02:37:31.39	359.14	14.82	
2025-01-11 02:37:31.61	359.11	14.84	
2025-01-11 02:37:31.81	359.09	14.86	
2025-01-11 02:37:32.02	359.06	14.88	
2025-01-11 02:37:32.22	359.03	14.89	
2025-01-11 02:37:32.43	359.00	14.91	
2025-01-11 02:37:32.63	358.97	14.93	
2025-01-11 02:37:32.84	358.94	14.95	
2025-01-11 02:37:33.04	358.91	14.97	
2025-01-11 02:37:33.25	358.88	14.99	
2025-01-11 02:37:33.45	358.85	15.01	
2025-01-11 02:37:33.66	358.82	15.03	
2025-01-11 02:37:33.86	358.79	15.05	
2025-01-11 02:37:34.07	358.76	15.07	
2025-01-11 02:37:34.27	358.74	15.09	
2025-01-11 02:37:34.48	358.71	15.11	
2025-01-11 02:37:34.68	358.68	15.13	
2025-01-11 02:37:34.89	358.65	15.15	
2025-01-11 02:37:35.09	358.62	15.17	
2025-01-11 02:37:35.30	358.59	15.19	
2025-01-11 02:37:35.50	358.56	15.20	
2025-01-11 02:37:35.71	358.53	15.22	
2025-01-11 02:37:35.91	358.50	15.24	
2025-01-11 02:37:36.12	358.47	15.26	
2025-01-11 02:37:36.33	358.44	15.28	
2025-01-11 02:37:36.53	358.41	15.30	
2025-01-11 02:37:36.74	358.38	15.32	
2025-01-11 02:37:36.94	358.35	15.34	
2025-01-11 02:37:37.14	358.32	15.36	
2025-01-11 02:37:37.35	358.29	15.38	
2025-01-11 02:37:37.55	358.26	15.40	
2025-01-11 02:37:37.76	358.23	15.42	
2025-01-11 02:37:37.97	358.20	15.44	
2025-01-11 02:37:38.17	358.17	15.46	
2025-01-11 02:37:38.38	358.14	15.48	
2025-01-11 02:37:38.59	358.11	15.50	
2025-01-11 02:37:38.79	358.08	15.52	
2025-01-11 02:37:39.00	358.05	15.54	
2025-01-11 02:37:39.20	358.02	15.56	
2025-01-11 02:37:39.41	357.98	15.58	
2025-01-11 02:37:39.62	357.95	15.60	
2025-01-11 02:37:39.82	357.92	15.62	
2025-01-11 02:37:40.03	357.89	15.64	
2025-01-11 02:37:40.23	357.86	15.66	
2025-01-11 02:37:40.44	357.83	15.68	
2025-01-11 02:37:40.64	357.80	15.70	
2025-01-11 02:37:40.85	357.77	15.72	
2025-01-11 02:37:41.05	357.74	15.73	
2025-01-11 02:37:41.25	357.71	15.75	
2025-01-11 02:37:41.46	357.68	15.77	
2025-01-11 02:37:41.66	357.65	15.79	
2025-01-11 02:37:41.87	357.62	15.81	
2025-01-11 02:37:42.07	357.59	15.83	
2025-01-11 02:37:42.28	357.55	15.85	
2025-01-11 02:37:42.48	357.52	15.87	
2025-01-11 02:37:42.69	357.49	15.89	
2025-01-11 02:37:42.89	357.46	15.91	
2025-01-11 02:37:43.10	357.43	15.93	
2025-01-11 02:37:43.30	357.40	15.95	
2025-01-11 02:37:43.51	357.37	15.97	
2025-01-11 02:37:43.71	357.34	15.99	
2025-01-11 02:37:43.92	357.30	16.01	
2025-01-11 02:37:44.12	357.27	16.03	
2025-01-11 02:37:44.33	357.24	16.05	
2025-01-11 02:37:44.53	357.21	16.07	
2025-01-11 02:37:44.74	357.18	16.09	
2025-01-11 02:37:44.94	357.15	16.11	
2025-01-11 02:37:45.15	357.11	16.13	
2025-01-11 02:37:45.35	357.08	16.15	
2025-01-11 02:37:45.57	357.05	16.17	
2025-01-11 02:37:45.77	357.02	16.19	
2025-01-11 02:37:45.98	356.98	16.21	
2025-01-11 02:37:46.18	356.95	16.23	
2025-01-11 02:37:46.39	356.92	16.25	
2025-01-11 02:37:46.61	356.89	16.27	
2025-01-11 02:37:46.81	356.86	16.29	
2025-01-11 02:37:47.02	356.82	16.31	
2025-01-11 02:37:47.22	356.79	16.33	
2025-01-11 02:37:47.43	356.76	16.35	
2025-01-11 02:37:47.63	356.73	16.37	
2025-01-11 02:37:47.84	356.69	16.39	
2025-01-11 02:37:48.04	356.66	16.41	
2025-01-11 02:37:48.25	356.63	16.43	
2025-01-11 02:37:48.45	356.60	16.45	
2025-01-11 02:37:48.65	356.57	16.47	
2025-01-11 02:37:48.86	356.53	16.49	
2025-01-11 02:37:49.07	356.50	16.51	
2025-01-11 02:37:49.27	356.47	16.53	
2025-01-11 02:37:49.48	356.43	16.55	
2025-01-11 02:37:49.68	356.40	16.57	
2025-01-11 02:37:49.89	356.37	16.59	
2025-01-11 02:37:50.09	356.34	16.61	
2025-01-11 02:37:50.30	356.30	16.63	
2025-01-11 02:37:50.50	356.27	16.65	
2025-01-11 02:37:50.71	356.24	16.67	
2025-01-11 02:37:50.91	356.20	16.69	
2025-01-11 02:37:51.12	356.17	16.71	
2025-01-11 02:37:51.32	356.14	16.73	
2025-01-11 02:37:51.53	356.10	16.75	
2025-01-11 02:37:51.74	356.07	16.78	
2025-01-11 02:37:51.94	356.04	16.80	
2025-01-11 02:37:52.14	356.00	16.81	
2025-01-11 02:37:52.35	355.97	16.84	
2025-01-11 02:37:52.55	355.94	16.86	
2025-01-11 02:37:52.76	355.90	16.88	
2025-01-11 02:37:52.96	355.87	16.90	
2025-01-11 02:37:53.17	355.84	16.92	
2025-01-11 02:37:53.37	355.80	16.94	
2025-01-11 02:37:53.58	355.77	16.96	
2025-01-11 02:37:53.78	355.74	16.98	
2025-01-11 02:37:53.99	355.70	17.00	
2025-01-11 02:37:54.19	355.67	17.02	
2025-01-11 02:37:54.40	355.63	17.04	
2025-01-11 02:37:54.61	355.60	17.06	
2025-01-11 02:37:54.81	355.57	17.08	
2025-01-11 02:37:55.02	355.53	17.10	
2025-01-11 02:37:55.22	355.50	17.12	
2025-01-11 02:37:55.42	355.46	17.14	
2025-01-11 02:37:55.63	355.43	17.16	
2025-01-11 02:37:55.84	355.39	17.18	
2025-01-11 02:37:56.04	355.36	17.20	
2025-01-11 02:37:56.24	355.33	17.22	
2025-01-11 02:37:56.45	355.29	17.24	
2025-01-11 02:37:56.66	355.26	17.26	
2025-01-11 02:37:56.86	355.22	17.28	
2025-01-11 02:37:57.07	355.19	17.30	
2025-01-11 02:37:57.27	355.15	17.32	
2025-01-11 02:37:57.48	355.12	17.34	
2025-01-11 02:37:57.68	355.09	17.36	
2025-01-11 02:37:57.89	355.05	17.38	
2025-01-11 02:37:58.09	355.02	17.40	
2025-01-11 02:37:58.30	354.98	17.43	
2025-01-11 02:37:58.51	354.94	17.45	
2025-01-11 02:37:58.71	354.91	17.47	
2025-01-11 02:37:58.92	354.87	17.49	
2025-01-11 02:37:59.12	354.84	17.51	
2025-01-11 02:37:59.33	354.80	17.53	
2025-01-11 02:37:59.53	354.77	17.55	
2025-01-11 02:37:59.74	354.73	17.57	
2025-01-11 02:37:59.95	354.70	17.59	
2025-01-11 02:38:00.15	354.66	17.61	
2025-01-11 02:38:00.35	354.63	17.63	
2025-01-11 02:38:00.56	354.59	17.65	
2025-01-11 02:38:00.77	354.56	17.67	
2025-01-11 02:38:00.97	354.52	17.69	
2025-01-11 02:38:01.18	354.49	17.71	
2025-01-11 02:38:01.38	354.45	17.73	
2025-01-11 02:38:01.59	354.41	17.76	
2025-01-11 02:38:01.79	354.38	17.78	
2025-01-11 02:38:02.00	354.34	17.80	
2025-01-11 02:38:02.20	354.31	17.82	
2025-01-11 02:38:02.41	354.27	17.84	
2025-01-11 02:38:02.61	354.24	17.86	
2025-01-11 02:38:02.82	354.20	17.88	
2025-01-11 02:38:03.02	354.16	17.90	
2025-01-11 02:38:03.23	354.13	17.92	
2025-01-11 02:38:03.43	354.09	17.94	
2025-01-11 02:38:03.64	354.06	17.96	
2025-01-11 02:38:03.84	354.02	17.98	
2025-01-11 02:38:04.05	353.98	18.00	
2025-01-11 02:38:04.25	353.95	18.02	
2025-01-11 02:38:04.46	353.91	18.04	
2025-01-11 02:38:04.68	353.87	18.07	
2025-01-11 02:38:04.88	353.84	18.09	
2025-01-11 02:38:05.09	353.80	18.11	
2025-01-11 02:38:05.29	353.76	18.13	
2025-01-11 02:38:05.50	353.72	18.15	
2025-01-11 02:38:05.70	353.69	18.17	
2025-01-11 02:38:05.91	353.65	18.19	
2025-01-11 02:38:06.11	353.62	18.21	
2025-01-11 02:38:06.32	353.58	18.23	
2025-01-11 02:38:06.52	353.54	18.25	
2025-01-11 02:38:06.73	353.50	18.27	
2025-01-11 02:38:06.94	353.47	18.30	
2025-01-11 02:38:07.14	353.43	18.32	
2025-01-11 02:38:07.34	353.39	18.34	
2025-01-11 02:38:07.55	353.36	18.36	
2025-01-11 02:38:07.75	353.32	18.38	
2025-01-11 02:38:07.96	353.28	18.40	
2025-01-11 02:38:08.16	353.24	18.42	
2025-01-11 02:38:08.37	353.21	18.44	
2025-01-11 02:38:08.57	353.17	18.46	
2025-01-11 02:38:08.78	353.13	18.48	
2025-01-11 02:38:08.98	353.09	18.50	
2025-01-11 02:38:09.19	353.06	18.52	
2025-01-11 02:38:09.39	353.02	18.54	
2025-01-11 02:38:09.60	352.98	18.57	
2025-01-11 02:38:09.80	352.94	18.59	
2025-01-11 02:38:10.01	352.90	18.61	
2025-01-11 02:38:10.21	352.87	18.63	
2025-01-11 02:38:10.42	352.83	18.65	
2025-01-11 02:38:10.62	352.79	18.67	
2025-01-11 02:38:10.82	352.75	18.69	
2025-01-11 02:38:11.03	352.72	18.71	
2025-01-11 02:38:11.23	352.68	18.73	
2025-01-11 02:38:11.44	352.64	18.75	
2025-01-11 02:38:11.64	352.60	18.77	
2025-01-11 02:38:11.85	352.56	18.80	
2025-01-11 02:38:12.05	352.52	18.82	
2025-01-11 02:38:12.26	352.49	18.84	
2025-01-11 02:38:12.46	352.45	18.86	
2025-01-11 02:38:12.67	352.41	18.88	
2025-01-11 02:38:12.87	352.37	18.90	
2025-01-11 02:38:13.08	352.33	18.92	
2025-01-11 02:38:13.30	352.29	18.94	
2025-01-11 02:38:13.50	352.25	18.96	
2025-01-11 02:38:13.71	352.21	18.99	
2025-01-11 02:38:13.91	352.17	19.01	
2025-01-11 02:38:14.12	352.13	19.03	
2025-01-11 02:38:14.32	352.10	19.05	
2025-01-11 02:38:14.53	352.06	19.07	
2025-01-11 02:38:14.73	352.02	19.09	
2025-01-11 02:38:14.94	351.98	19.11	
2025-01-11 02:38:15.15	351.94	19.13	
2025-01-11 02:38:15.35	351.90	19.15	
2025-01-11 02:38:15.55	351.86	19.17	
2025-01-11 02:38:15.76	351.82	19.20	
2025-01-11 02:38:15.96	351.78	19.22	
2025-01-11 02:38:16.17	351.74	19.24	
2025-01-11 02:38:16.37	351.70	19.26	
2025-01-11 02:38:16.58	351.66	19.28	
2025-01-11 02:38:16.78	351.62	19.30	
2025-01-11 02:38:16.99	351.58	19.32	
2025-01-11 02:38:17.19	351.54	19.34	
2025-01-11 02:38:17.40	351.50	19.37	
2025-01-11 02:38:17.60	351.46	19.39	
2025-01-11 02:38:17.81	351.42	19.41	
2025-01-11 02:38:18.01	351.38	19.43	
2025-01-11 02:38:18.22	351.34	19.45	
2025-01-11 02:38:18.42	351.30	19.47	
2025-01-11 02:38:18.63	351.26	19.49	
2025-01-11 02:38:18.83	351.22	19.51	
2025-01-11 02:38:19.04	351.18	19.53	
2025-01-11 02:38:19.24	351.14	19.55	
2025-01-11 02:38:19.45	351.10	19.58	
2025-01-11 02:38:19.65	351.06	19.60	
2025-01-11 02:38:19.85	351.02	19.62	
2025-01-11 02:38:20.06	350.98	19.64	
2025-01-11 02:38:20.27	350.94	19.66	
2025-01-11 02:38:20.47	350.90	19.68	
2025-01-11 02:38:20.68	350.85	19.70	
2025-01-11 02:38:20.88	350.81	19.72	
2025-01-11 02:38:21.09	350.77	19.75	
2025-01-11 02:38:21.29	350.73	19.77	
2025-01-11 02:38:21.50	350.69	19.79	
2025-01-11 02:38:21.70	350.65	19.81	
2025-01-11 02:38:21.91	350.61	19.83	
2025-01-11 02:38:22.11	350.57	19.85	
2025-01-11 02:38:22.32	350.52	19.87	
2025-01-11 02:38:22.52	350.48	19.89	
2025-01-11 02:38:22.73	350.44	19.92	
2025-01-11 02:38:22.93	350.40	19.94	
2025-01-11 02:38:23.14	350.36	19.96	
2025-01-11 02:38:23.34	350.32	19.98	
2025-01-11 02:38:23.55	350.28	20.00	
2025-01-11 02:38:23.75	350.23	20.02	
2025-01-11 02:38:23.96	350.19	20.04	
2025-01-11 02:38:24.16	350.15	20.06	
2025-01-11 02:38:24.37	350.11	20.09	
2025-01-11 02:38:24.57	350.07	20.11	
2025-01-11 02:38:24.78	350.02	20.13	
2025-01-11 02:38:24.98	349.98	20.15	
2025-01-11 02:38:25.19	349.94	20.17	
2025-01-11 02:38:25.39	349.90	20.19	
2025-01-11 02:38:25.60	349.85	20.21	
2025-01-11 02:38:25.81	349.81	20.24	
2025-01-11 02:38:26.01	349.77	20.26	
2025-01-11 02:38:26.21	349.73	20.28	
2025-01-11 02:38:26.42	349.68	20.30	
2025-01-11 02:38:26.62	349.64	20.32	
2025-01-11 02:38:26.83	349.60	20.34	
2025-01-11 02:38:27.03	349.56	20.36	
2025-01-11 02:38:27.24	349.51	20.38	
2025-01-11 02:38:27.44	349.47	20.41	
2025-01-11 02:38:27.65	349.43	20.43	
2025-01-11 02:38:27.85	349.38	20.45	
2025-01-11 02:38:28.06	349.34	20.47	
2025-01-11 02:38:28.26	349.30	20.49	
2025-01-11 02:38:28.46	349.26	20.51	
2025-01-11 02:38:28.67	349.21	20.53	
2025-01-11 02:38:28.88	349.17	20.56	
2025-01-11 02:38:29.08	349.12	20.58	
2025-01-11 02:38:29.29	349.08	20.60	
2025-01-11 02:38:29.49	349.04	20.62	
2025-01-11 02:38:29.70	348.99	20.64	
2025-01-11 02:38:29.90	348.95	20.66	
2025-01-11 02:38:30.11	348.91	20.68	
2025-01-11 02:38:30.31	348.86	20.70	
2025-01-11 02:38:30.52	348.82	20.73	
2025-01-11 02:38:30.72	348.77	20.75	
2025-01-11 02:38:30.93	348.73	20.77	
2025-01-11 02:38:31.13	348.69	20.79	
2025-01-11 02:38:31.34	348.64	20.81	
2025-01-11 02:38:31.54	348.60	20.83	
2025-01-11 02:38:31.75	348.55	20.86	
2025-01-11 02:38:31.95	348.51	20.88	
2025-01-11 02:38:32.16	348.46	20.90	
2025-01-11 02:38:32.36	348.42	20.92	
2025-01-11 02:38:32.56	348.38	20.94	
2025-01-11 02:38:32.77	348.33	20.96	
2025-01-11 02:38:32.98	348.29	20.98	
2025-01-11 02:38:33.18	348.24	21.00	
2025-01-11 02:38:33.38	348.20	21.03	
2025-01-11 02:38:33.59	348.15	21.05	
2025-01-11 02:38:33.79	348.11	21.07	
2025-01-11 02:38:34.00	348.06	21.09	
2025-01-11 02:38:34.20	348.02	21.11	
2025-01-11 02:38:34.41	347.97	21.13	
2025-01-11 02:38:34.63	347.92	21.16	
2025-01-11 02:38:34.84	347.88	21.18	
2025-01-11 02:38:35.04	347.83	21.20	
2025-01-11 02:38:35.25	347.79	21.22	
2025-01-11 02:38:35.45	347.74	21.24	
2025-01-11 02:38:35.65	347.70	21.26	
2025-01-11 02:38:35.86	347.65	21.28	
2025-01-11 02:38:36.07	347.60	21.31	
2025-01-11 02:38:36.27	347.56	21.33	
2025-01-11 02:38:36.48	347.51	21.35	
2025-01-11 02:38:36.68	347.47	21.37	
2025-01-11 02:38:36.89	347.42	21.39	
2025-01-11 02:38:37.10	347.37	21.41	
2025-01-11 02:38:37.30	347.33	21.44	
2025-01-11 02:38:37.51	347.28	21.46	
2025-01-11 02:38:37.71	347.24	21.48	
2025-01-11 02:38:37.93	347.19	21.50	
2025-01-11 02:38:38.13	347.14	21.52	
2025-01-11 02:38:38.34	347.09	21.54	
2025-01-11 02:38:38.54	347.05	21.57	
2025-01-11 02:38:38.76	347.00	21.59	
2025-01-11 02:38:38.96	346.95	21.61	
2025-01-11 02:38:39.17	346.90	21.63	
2025-01-11 02:38:39.37	346.86	21.65	
2025-01-11 02:38:39.58	346.81	21.67	
2025-01-11 02:38:39.79	346.76	21.70	
2025-01-11 02:38:40.00	346.71	21.72	
2025-01-11 02:38:40.21	346.67	21.74	
2025-01-11 02:38:40.41	346.62	21.76	
2025-01-11 02:38:40.62	346.57	21.78	
2025-01-11 02:38:40.82	346.53	21.80	
2025-01-11 02:38:41.03	346.48	21.83	
2025-01-11 02:38:41.23	346.43	21.85	
2025-01-11 02:38:41.44	346.38	21.87	
2025-01-11 02:38:41.64	346.34	21.89	
2025-01-11 02:38:41.85	346.29	21.91	
2025-01-11 02:38:42.05	346.24	21.93	
2025-01-11 02:38:42.26	346.19	21.95	
2025-01-11 02:38:42.46	346.14	21.98	
2025-01-11 02:38:42.67	346.10	22.00	
2025-01-11 02:38:42.87	346.05	22.02	
2025-01-11 02:38:43.08	346.00	22.04	
2025-01-11 02:38:43.28	345.95	22.06	
2025-01-11 02:38:43.49	345.90	22.08	
2025-01-11 02:38:43.69	345.86	22.10	
2025-01-11 02:38:43.90	345.81	22.13	
2025-01-11 02:38:44.11	345.76	22.15	
2025-01-11 02:38:44.31	345.71	22.17	
2025-01-11 02:38:44.51	345.66	22.19	
2025-01-11 02:38:44.72	345.61	22.21	
2025-01-11 02:38:44.93	345.56	22.23	
2025-01-11 02:38:45.13	345.51	22.25	
2025-01-11 02:38:45.33	345.47	22.28	
2025-01-11 02:38:45.54	345.42	22.30	
2025-01-11 02:38:45.74	345.37	22.32	
2025-01-11 02:38:45.95	345.32	22.34	
2025-01-11 02:38:46.15	345.27	22.36	
2025-01-11 02:38:46.36	345.22	22.38	
2025-01-11 02:38:46.56	345.17	22.40	
2025-01-11 02:38:46.77	345.12	22.43	
2025-01-11 02:38:46.97	345.07	22.45	
2025-01-11 02:38:47.18	345.02	22.47	
2025-01-11 02:38:47.38	344.97	22.49	
2025-01-11 02:38:47.59	344.92	22.51	
2025-01-11 02:38:47.79	344.87	22.53	
2025-01-11 02:38:48.00	344.82	22.55	
2025-01-11 02:38:48.20	344.77	22.58	
2025-01-11 02:38:48.41	344.72	22.60	
2025-01-11 02:38:48.62	344.67	22.62	
2025-01-11 02:38:48.82	344.62	22.64	
2025-01-11 02:38:49.03	344.57	22.66	
2025-01-11 02:38:49.23	344.52	22.68	
2025-01-11 02:38:49.43	344.47	22.70	
2025-01-11 02:38:49.64	344.42	22.73	
2025-01-11 02:38:49.85	344.37	22.75	
2025-01-11 02:38:50.05	344.32	22.77	
2025-01-11 02:38:50.26	344.27	22.79	
2025-01-11 02:38:50.46	344.22	22.81	
2025-01-11 02:38:50.67	344.17	22.83	
2025-01-11 02:38:50.87	344.12	22.85	
2025-01-11 02:38:51.08	344.07	22.88	
2025-01-11 02:38:51.28	344.02	22.90	
2025-01-11 02:38:51.49	343.96	22.92	
2025-01-11 02:38:51.69	343.91	22.94	
2025-01-11 02:38:51.89	343.86	22.96	
2025-01-11 02:38:52.10	343.81	22.98	
2025-01-11 02:38:52.30	343.76	23.00	
2025-01-11 02:38:52.51	343.71	23.02	
2025-01-11 02:38:52.71	343.66	23.05	
2025-01-11 02:38:52.92	343.61	23.07	
2025-01-11 02:38:53.12	343.56	23.09	
2025-01-11 02:38:53.33	343.50	23.11	
2025-01-11 02:38:53.53	343.45	23.13	
2025-01-11 02:38:53.74	343.40	23.15	
2025-01-11 02:38:53.94	343.35	23.17	
2025-01-11 02:38:54.15	343.30	23.19	
2025-01-11 02:38:54.35	343.24	23.22	
2025-01-11 02:38:54.56	343.19	23.24	
2025-01-11 02:38:54.76	343.14	23.26	
2025-01-11 02:38:54.97	343.09	23.28	
2025-01-11 02:38:55.17	343.04	23.30	
2025-01-11 02:38:55.38	342.98	23.32	
2025-01-11 02:38:55.58	342.93	23.34	
2025-01-11 02:38:55.79	342.88	23.36	
2025-01-11 02:38:55.99	342.83	23.39	
2025-01-11 02:38:56.20	342.77	23.41	
2025-01-11 02:38:56.40	342.72	23.43	
2025-01-11 02:38:56.61	342.67	23.45	
2025-01-11 02:38:56.82	342.61	23.47	
2025-01-11 02:38:57.02	342.56	23.49	
2025-01-11 02:38:57.23	342.50	23.51	
2025-01-11 02:38:57.43	342.45	23.53	
2025-01-11 02:38:57.64	342.40	23.56	
2025-01-11 02:38:57.84	342.35	23.58	
2025-01-11 02:38:58.06	342.29	23.60	
2025-01-11 02:38:58.27	342.23	23.62	
2025-01-11 02:38:58.47	342.18	23.64	
2025-01-11 02:38:58.68	342.13	23.66	
2025-01-11 02:38:58.88	342.07	23.68	
2025-01-11 02:38:59.09	342.02	23.71	
2025-01-11 02:38:59.29	341.97	23.73	
2025-01-11 02:38:59.50	341.91	23.75	
2025-01-11 02:38:59.70	341.86	23.77	
2025-01-11 02:38:59.91	341.80	23.79	
2025-01-11 02:39:00.11	341.75	23.81	
2025-01-11 02:39:00.32	341.69	23.83	
2025-01-11 02:39:00.52	341.64	23.85	
2025-01-11 02:39:00.73	341.59	23.87	
2025-01-11 02:39:00.93	341.53	23.89	
2025-01-11 02:39:01.14	341.48	23.92	
2025-01-11 02:39:01.34	341.42	23.94	
2025-01-11 02:39:01.55	341.37	23.96	
2025-01-11 02:39:01.75	341.31	23.98	
2025-01-11 02:39:01.96	341.26	24.00	
2025-01-11 02:39:02.17	341.20	24.02	
2025-01-11 02:39:02.37	341.15	24.04	
2025-01-11 02:39:02.57	341.09	24.06	
2025-01-11 02:39:02.78	341.04	24.08	
2025-01-11 02:39:02.98	340.98	24.10	
2025-01-11 02:39:03.19	340.93	24.13	
2025-01-11 02:39:03.39	340.87	24.15	
2025-01-11 02:39:03.60	340.81	24.17	
2025-01-11 02:39:03.81	340.76	24.19	
2025-01-11 02:39:04.01	340.70	24.21	
2025-01-11 02:39:04.21	340.65	24.23	
2025-01-11 02:39:04.42	340.59	24.25	
2025-01-11 02:39:04.62	340.54	24.27	
2025-01-11 02:39:04.82	340.48	24.29	
2025-01-11 02:39:05.03	340.43	24.31	
2025-01-11 02:39:05.23	340.37	24.33	
2025-01-11 02:39:05.44	340.31	24.36	
2025-01-11 02:39:05.64	340.26	24.38	
2025-01-11 02:39:05.85	340.20	24.40	
2025-01-11 02:39:06.05	340.14	24.42	
2025-01-11 02:39:06.26	340.09	24.44	
2025-01-11 02:39:06.46	340.03	24.46	
2025-01-11 02:39:06.68	339.97	24.48	
2025-01-11 02:39:06.89	339.91	24.50	
2025-01-11 02:39:07.09	339.86	24.52	
2025-01-11 02:39:07.30	339.80	24.54	
2025-01-11 02:39:07.50	339.74	24.56	
2025-01-11 02:39:07.70	339.69	24.58	
2025-01-11 02:39:07.91	339.63	24.61	
2025-01-11 02:39:08.12	339.57	24.63	
2025-01-11 02:39:08.32	339.51	24.65	
2025-01-11 02:39:08.52	339.46	24.67	
2025-01-11 02:39:08.73	339.40	24.69	
2025-01-11 02:39:08.93	339.34	24.71	
2025-01-11 02:39:09.14	339.28	24.73	
2025-01-11 02:39:09.34	339.23	24.75	
2025-01-11 02:39:09.55	339.17	24.77	
2025-01-11 02:39:09.75	339.11	24.79	
2025-01-11 02:39:09.96	339.05	24.81	
2025-01-11 02:39:10.16	339.00	24.83	
2025-01-11 02:39:10.37	338.94	24.85	
2025-01-11 02:39:10.57	338.88	24.87	
2025-01-11 02:39:10.78	338.82	24.89	
2025-01-11 02:39:10.98	338.76	24.91	
2025-01-11 02:39:11.19	338.70	24.93	
2025-01-11 02:39:11.39	338.65	24.95	
2025-01-11 02:39:11.60	338.59	24.98	
2025-01-11 02:39:11.80	338.53	25.00	
2025-01-11 02:39:12.00	338.47	25.02	
2025-01-11 02:39:12.21	338.41	25.04	
2025-01-11 02:39:12.42	338.35	25.06	
2025-01-11 02:39:12.62	338.29	25.08	
2025-01-11 02:39:12.83	338.23	25.10	
2025-01-11 02:39:13.03	338.17	25.12	
2025-01-11 02:39:13.24	338.11	25.14	
2025-01-11 02:39:13.44	338.06	25.16	
2025-01-11 02:39:13.65	337.99	25.18	
2025-01-11 02:39:13.85	337.94	25.20	
2025-01-11 02:39:14.07	337.87	25.22	
2025-01-11 02:39:14.28	337.81	25.24	
2025-01-11 02:39:14.48	337.75	25.26	
2025-01-11 02:39:14.69	337.69	25.28	
2025-01-11 02:39:14.90	337.63	25.30	
2025-01-11 02:39:15.10	337.57	25.32	
2025-01-11 02:39:15.31	337.51	25.34	
2025-01-11 02:39:15.51	337.45	25.36	
2025-01-11 02:39:15.72	337.39	25.38	
2025-01-11 02:39:15.92	337.33	25.40	
2025-01-11 02:39:16.12	337.27	25.42	
2025-01-11 02:39:16.33	337.21	25.44	
2025-01-11 02:39:16.53	337.15	25.46	
2025-01-11 02:39:16.74	337.09	25.48	
2025-01-11 02:39:16.94	337.03	25.50	
2025-01-11 02:39:17.15	336.97	25.52	
2025-01-11 02:39:17.35	336.91	25.54	
2025-01-11 02:39:17.56	336.85	25.56	
2025-01-11 02:39:17.77	336.78	25.58	
2025-01-11 02:39:17.97	336.72	25.60	
2025-01-11 02:39:18.18	336.66	25.62	
2025-01-11 02:39:18.38	336.60	25.64	
2025-01-11 02:39:18.58	336.54	25.66	
2025-01-11 02:39:18.79	336.48	25.68	
2025-01-11 02:39:18.99	336.42	25.70	
2025-01-11 02:39:19.20	336.35	25.72	
2025-01-11 02:39:19.40	336.29	25.74	
2025-01-11 02:39:19.61	336.23	25.76	
2025-01-11 02:39:19.81	336.17	25.78	
2025-01-11 02:39:20.02	336.11	25.80	
2025-01-11 02:39:20.23	336.04	25.82	
2025-01-11 02:39:20.43	335.98	25.84	
2025-01-11 02:39:20.63	335.92	25.86	
2025-01-11 02:39:20.84	335.86	25.88	
2025-01-11 02:39:21.04	335.80	25.90	
2025-01-11 02:39:21.25	335.73	25.92	
2025-01-11 02:39:21.45	335.67	25.94	
2025-01-11 02:39:21.66	335.61	25.96	
2025-01-11 02:39:21.86	335.55	25.98	
2025-01-11 02:39:22.07	335.48	26.00	
2025-01-11 02:39:22.28	335.42	26.02	
2025-01-11 02:39:22.48	335.36	26.04	
2025-01-11 02:39:22.69	335.29	26.06	
2025-01-11 02:39:22.89	335.23	26.07	
2025-01-11 02:39:23.10	335.17	26.09	
2025-01-11 02:39:23.30	335.11	26.11	
2025-01-11 02:39:23.51	335.04	26.13	
2025-01-11 02:39:23.71	334.98	26.15	
2025-01-11 02:39:23.91	334.92	26.17	
2025-01-11 02:39:24.12	334.85	26.19	
2025-01-11 02:39:24.32	334.79	26.21	
2025-01-11 02:39:24.53	334.72	26.23	
2025-01-11 02:39:24.73	334.66	26.25	
2025-01-11 02:39:24.94	334.60	26.27	
2025-01-11 02:39:25.14	334.53	26.29	
2025-01-11 02:39:25.35	334.47	26.31	
2025-01-11 02:39:25.55	334.41	26.32	
2025-01-11 02:39:25.75	334.34	26.34	
2025-01-11 02:39:25.96	334.28	26.36	
2025-01-11 02:39:26.17	334.21	26.38	
2025-01-11 02:39:26.37	334.15	26.40	
2025-01-11 02:39:26.58	334.08	26.42	
2025-01-11 02:39:26.78	334.02	26.44	
2025-01-11 02:39:26.99	333.95	26.46	
2025-01-11 02:39:27.19	333.89	26.48	
2025-01-11 02:39:27.40	333.82	26.50	
2025-01-11 02:39:27.60	333.76	26.52	
2025-01-11 02:39:27.81	333.69	26.53	
2025-01-11 02:39:28.01	333.63	26.55	
2025-01-11 02:39:28.21	333.57	26.57	
2025-01-11 02:39:28.42	333.50	26.59	
2025-01-11 02:39:28.63	333.43	26.61	
2025-01-11 02:39:28.83	333.37	26.63	
2025-01-11 02:39:29.04	333.30	26.65	
2025-01-11 02:39:29.24	333.24	26.67	
2025-01-11 02:39:29.45	333.17	26.68	
2025-01-11 02:39:29.65	333.11	26.70	
2025-01-11 02:39:29.86	333.04	26.72	
2025-01-11 02:39:30.08	332.97	26.74	
2025-01-11 02:39:30.28	332.90	26.76	
2025-01-11 02:39:30.48	332.84	26.78	
2025-01-11 02:39:30.69	332.77	26.80	
2025-01-11 02:39:30.90	332.70	26.82	
2025-01-11 02:39:31.10	332.64	26.83	
2025-01-11 02:39:31.30	332.57	26.85	
2025-01-11 02:39:31.51	332.51	26.87	
2025-01-11 02:39:31.71	332.44	26.89	
2025-01-11 02:39:31.92	332.37	26.91	
2025-01-11 02:39:32.12	332.31	26.93	
2025-01-11 02:39:32.33	332.24	26.94	
2025-01-11 02:39:32.53	332.17	26.96	
2025-01-11 02:39:32.74	332.10	26.98	
2025-01-11 02:39:32.94	332.04	27.00	
2025-01-11 02:39:33.15	331.97	27.02	
2025-01-11 02:39:33.35	331.90	27.03	
2025-01-11 02:39:33.55	331.84	27.05	
2025-01-11 02:39:33.76	331.77	27.07	
2025-01-11 02:39:33.97	331.70	27.09	
2025-01-11 02:39:34.17	331.63	27.11	
2025-01-11 02:39:34.38	331.57	27.13	
2025-01-11 02:39:34.58	331.50	27.14	
2025-01-11 02:39:34.79	331.43	27.16	
2025-01-11 02:39:34.99	331.36	27.18	
2025-01-11 02:39:35.20	331.29	27.20	
2025-01-11 02:39:35.40	331.23	27.21	
2025-01-11 02:39:35.61	331.16	27.23	
2025-01-11 02:39:35.81	331.09	27.25	
2025-01-11 02:39:36.02	331.02	27.27	
2025-01-11 02:39:36.22	330.96	27.29	
2025-01-11 02:39:36.44	330.88	27.30	
2025-01-11 02:39:36.65	330.81	27.32	
2025-01-11 02:39:36.85	330.74	27.34	
2025-01-11 02:39:37.06	330.67	27.36	
2025-01-11 02:39:37.26	330.61	27.37	
2025-01-11 02:39:37.46	330.54	27.39	
2025-01-11 02:39:37.67	330.47	27.41	
2025-01-11 02:39:37.87	330.40	27.43	
2025-01-11 02:39:38.08	330.33	27.44	
2025-01-11 02:39:38.28	330.26	27.46	
2025-01-11 02:39:38.49	330.19	27.48	
2025-01-11 02:39:38.69	330.13	27.50	
2025-01-11 02:39:38.90	330.05	27.51	
2025-01-11 02:39:39.10	329.99	27.53	
2025-01-11 02:39:39.31	329.92	27.55	
2025-01-11 02:39:39.52	329.84	27.57	
2025-01-11 02:39:39.72	329.78	27.58	
2025-01-11 02:39:39.93	329.70	27.60	
2025-01-11 02:39:40.13	329.64	27.62	
2025-01-11 02:39:40.34	329.56	27.63	
2025-01-11 02:39:40.54	329.50	27.65	
2025-01-11 02:39:40.75	329.42	27.67	
2025-01-11 02:39:40.95	329.36	27.69	
2025-01-11 02:39:41.16	329.28	27.70	
2025-01-11 02:39:41.36	329.22	27.72	
2025-01-11 02:39:41.57	329.14	27.74	
2025-01-11 02:39:41.77	329.07	27.75	
2025-01-11 02:39:41.98	329.00	27.77	
2025-01-11 02:39:42.18	328.93	27.79	
2025-01-11 02:39:42.39	328.86	27.80	
2025-01-11 02:39:42.59	328.79	27.82	
2025-01-11 02:39:42.80	328.72	27.84	
2025-01-11 02:39:43.00	328.65	27.85	
2025-01-11 02:39:43.21	328.58	27.87	
2025-01-11 02:39:43.42	328.50	27.89	
2025-01-11 02:39:43.62	328.44	27.90	
2025-01-11 02:39:43.83	328.36	27.92	
2025-01-11 02:39:44.04	328.29	27.94	
2025-01-11 02:39:44.25	328.22	27.95	
2025-01-11 02:39:44.46	328.14	27.97	
2025-01-11 02:39:44.66	328.07	27.99	
2025-01-11 02:39:44.87	328.00	28.00	
2025-01-11 02:39:45.07	327.93	28.02	
2025-01-11 02:39:45.27	327.86	28.03	
2025-01-11 02:39:45.48	327.79	28.05	
2025-01-11 02:39:45.69	327.71	28.07	
2025-01-11 02:39:45.89	327.64	28.08	
2025-01-11 02:39:46.09	327.57	28.10	
2025-01-11 02:39:46.30	327.50	28.11	
2025-01-11 02:39:46.51	327.42	28.13	
2025-01-11 02:39:46.71	327.35	28.15	
2025-01-11 02:39:46.92	327.28	28.16	
2025-01-11 02:39:47.12	327.21	28.18	
2025-01-11 02:39:47.32	327.14	28.19	
2025-01-11 02:39:47.53	327.06	28.21	
2025-01-11 02:39:47.73	326.99	28.23	
2025-01-11 02:39:47.94	326.92	28.24	
2025-01-11 02:39:48.14	326.85	28.26	
2025-01-11 02:39:48.35	326.77	28.27	
2025-01-11 02:39:48.55	326.70	28.29	
2025-01-11 02:39:48.76	326.63	28.30	
2025-01-11 02:39:48.96	326.55	28.32	
2025-01-11 02:39:49.17	326.48	28.33	
2025-01-11 02:39:49.37	326.41	28.35	
2025-01-11 02:39:49.58	326.33	28.37	
2025-01-11 02:39:49.79	326.26	28.38	
2025-01-11 02:39:49.99	326.19	28.40	
2025-01-11 02:39:50.20	326.11	28.41	
2025-01-11 02:39:50.40	326.04	28.43	
2025-01-11 02:39:50.61	325.96	28.44	
2025-01-11 02:39:50.81	325.89	28.46	
2025-01-11 02:39:51.02	325.82	28.47	
2025-01-11 02:39:51.22	325.74	28.49	
2025-01-11 02:39:51.42	325.67	28.50	
2025-01-11 02:39:51.63	325.60	28.52	
2025-01-11 02:39:51.84	325.52	28.53	
2025-01-11 02:39:52.04	325.45	28.55	
2025-01-11 02:39:52.25	325.37	28.56	
2025-01-11 02:39:52.45	325.30	28.58	
2025-01-11 02:39:52.66	325.22	28.59	
2025-01-11 02:39:52.86	325.15	28.60	
2025-01-11 02:39:53.07	325.07	28.62	
2025-01-11 02:39:53.27	325.00	28.63	
2025-01-11 02:39:53.48	324.92	28.65	
2025-01-11 02:39:53.68	324.85	28.66	
2025-01-11 02:39:53.89	324.77	28.68	
2025-01-11 02:39:54.09	324.70	28.69	
2025-01-11 02:39:54.30	324.62	28.71	
2025-01-11 02:39:54.50	324.55	28.72	
2025-01-11 02:39:54.71	324.47	28.74	
2025-01-11 02:39:54.91	324.40	28.75	
2025-01-11 02:39:55.12	324.32	28.76	
2025-01-11 02:39:55.32	324.25	28.78	
2025-01-11 02:39:55.53	324.17	28.79	
2025-01-11 02:39:55.75	324.09	28.81	
2025-01-11 02:39:55.95	324.02	28.82	
2025-01-11 02:39:56.16	323.94	28.83	
2025-01-11 02:39:56.36	323.87	28.85	
2025-01-11 02:39:56.57	323.79	28.86	
2025-01-11 02:39:56.78	323.71	28.88	
2025-01-11 02:39:56.98	323.64	28.89	
2025-01-11 02:39:57.19	323.56	28.90	
2025-01-11 02:39:57.39	323.48	28.92	
2025-01-11 02:39:57.59	323.41	28.93	
2025-01-11 02:39:57.79	323.34	28.94	
2025-01-11 02:39:58.00	323.26	28.96	
2025-01-11 02:39:58.20	323.18	28.97	
2025-01-11 02:39:58.42	323.10	28.98	
2025-01-11 02:39:58.62	323.03	29.00	
2025-01-11 02:39:58.83	322.95	29.01	
2025-01-11 02:39:59.03	322.87	29.02	
2025-01-11 02:39:59.24	322.80	29.04	
2025-01-11 02:39:59.45	322.72	29.05	
2025-01-11 02:39:59.65	322.64	29.06	
2025-01-11 02:39:59.85	322.57	29.08	
2025-01-11 02:40:00.06	322.49	29.09	
2025-01-11 02:40:00.27	322.41	29.10	
2025-01-11 02:40:00.47	322.33	29.12	
2025-01-11 02:40:00.68	322.26	29.13	
2025-01-11 02:40:00.88	322.18	29.14	
2025-01-11 02:40:01.09	322.10	29.15	
2025-01-11 02:40:01.29	322.03	29.17	
2025-01-11 02:40:01.50	321.95	29.18	
2025-01-11 02:40:01.71	321.87	29.19	
2025-01-11 02:40:01.91	321.79	29.21	
2025-01-11 02:40:02.12	321.71	29.22	
2025-01-11 02:40:02.32	321.64	29.23	
2025-01-11 02:40:02.53	321.56	29.24	
2025-01-11 02:40:02.73	321.48	29.26	
2025-01-11 02:40:02.94	321.40	29.27	
2025-01-11 02:40:03.16	321.32	29.28	
2025-01-11 02:40:03.36	321.24	29.29	
2025-01-11 02:40:03.57	321.16	29.31	
2025-01-11 02:40:03.78	321.08	29.32	
2025-01-11 02:40:03.98	321.01	29.33	
2025-01-11 02:40:04.18	320.93	29.34	
2025-01-11 02:40:04.39	320.85	29.35	
2025-01-11 02:40:04.59	320.77	29.36	
2025-01-11 02:40:04.80	320.69	29.38	
2025-01-11 02:40:05.00	320.62	29.39	
2025-01-11 02:40:05.21	320.54	29.40	
2025-01-11 02:40:05.41	320.46	29.41	
2025-01-11 02:40:05.62	320.38	29.42	
2025-01-11 02:40:05.82	320.30	29.43	
2025-01-11 02:40:06.03	320.22	29.45	
2025-01-11 02:40:06.23	320.14	29.46	
2025-01-11 02:40:06.44	320.06	29.47	
2025-01-11 02:40:06.64	319.99	29.48	
2025-01-11 02:40:06.85	319.91	29.49	
2025-01-11 02:40:07.05	319.83	29.50	
2025-01-11 02:40:07.26	319.75	29.51	
2025-01-11 02:40:07.46	319.67	29.53	
2025-01-11 02:40:07.67	319.59	29.54	
2025-01-11 02:40:07.87	319.51	29.55	
2025-01-11 02:40:08.08	319.43	29.56	
2025-01-11 02:40:08.28	319.35	29.57	
2025-01-11 02:40:08.49	319.27	29.58	
2025-01-11 02:40:08.69	319.19	29.59	
2025-01-11 02:40:08.90	319.11	29.60	
2025-01-11 02:40:09.11	319.03	29.61	
2025-01-11 02:40:09.31	318.95	29.62	
2025-01-11 02:40:09.52	318.87	29.63	
2025-01-11 02:40:09.72	318.79	29.64	
2025-01-11 02:40:09.93	318.71	29.66	
2025-01-11 02:40:10.13	318.63	29.67	
2025-01-11 02:40:10.34	318.55	29.68	
2025-01-11 02:40:10.54	318.47	29.69	
2025-01-11 02:40:10.74	318.40	29.70	
2025-01-11 02:40:10.95	318.31	29.71	
2025-01-11 02:40:11.15	318.24	29.72	
2025-01-11 02:40:11.36	318.15	29.73	
2025-01-11 02:40:11.56	318.08	29.74	
2025-01-11 02:40:11.77	317.99	29.75	
2025-01-11 02:40:11.97	317.92	29.76	
2025-01-11 02:40:12.18	317.83	29.77	
2025-01-11 02:40:12.39	317.75	29.78	
2025-01-11 02:40:12.59	317.67	29.79	
2025-01-11 02:40:12.79	317.59	29.79	
2025-01-11 02:40:13.00	317.51	29.80	
2025-01-11 02:40:13.20	317.43	29.81	
2025-01-11 02:40:13.41	317.35	29.82	
2025-01-11 02:40:13.62	317.27	29.83	
2025-01-11 02:40:13.82	317.19	29.84	
2025-01-11 02:40:14.02	317.11	29.85	
2025-01-11 02:40:14.23	317.03	29.86	
2025-01-11 02:40:14.44	316.94	29.87	
2025-01-11 02:40:14.64	316.86	29.88	
2025-01-11 02:40:14.85	316.78	29.89	
2025-01-11 02:40:15.05	316.70	29.90	
2025-01-11 02:40:15.26	316.62	29.91	
2025-01-11 02:40:15.46	316.54	29.92	
2025-01-11 02:40:15.67	316.46	29.92	
2025-01-11 02:40:15.89	316.37	29.93	
2025-01-11 02:40:16.09	316.29	29.94	
2025-01-11 02:40:16.30	316.21	29.95	
2025-01-11 02:40:16.51	316.12	29.96	
2025-01-11 02:40:16.71	316.04	29.97	
2025-01-11 02:40:16.92	315.96	29.98	
2025-01-11 02:40:17.12	315.88	29.99	
2025-01-11 02:40:17.33	315.80	29.99	
2025-01-11 02:40:17.53	315.72	30.00	
2025-01-11 02:40:17.74	315.63	30.01	
2025-01-11 02:40:17.94	315.55	30.02	
2025-01-11 02:40:18.15	315.47	30.03	
2025-01-11 02:40:18.35	315.39	30.03	
2025-01-11 02:40:18.56	315.31	30.04	
2025-01-11 02:40:18.76	315.23	30.05	
2025-01-11 02:40:18.97	315.14	30.06	
2025-01-11 02:40:19.17	315.06	30.07	
2025-01-11 02:40:19.38	314.98	30.07	
2025-01-11 02:40:19.58	314.90	30.08	
2025-01-11 02:40:19.79	314.82	30.09	
2025-01-11 02:40:19.99	314.74	30.10	
2025-01-11 02:40:20.20	314.65	30.10	
2025-01-11 02:40:20.40	314.57	30.11	
2025-01-11 02:40:20.61	314.49	30.12	
2025-01-11 02:40:20.82	314.40	30.13	
2025-01-11 02:40:21.02	314.32	30.13	
2025-01-11 02:40:21.23	314.24	30.14	
2025-01-11 02:40:21.43	314.16	30.15	
2025-01-11 02:40:21.64	314.07	30.15	
2025-01-11 02:40:21.84	313.99	30.16	
2025-01-11 02:40:22.05	313.91	30.17	
2025-01-11 02:40:22.25	313.83	30.18	
2025-01-11 02:40:22.46	313.74	30.18	
2025-01-11 02:40:22.66	313.66	30.19	
2025-01-11 02:40:22.87	313.58	30.20	
2025-01-11 02:40:23.07	313.50	30.20	
2025-01-11 02:40:23.28	313.41	30.21	
2025-01-11 02:40:23.48	313.33	30.21	
2025-01-11 02:40:23.69	313.25	30.22	
2025-01-11 02:40:23.90	313.16	30.23	
2025-01-11 02:40:24.10	313.08	30.23	
2025-01-11 02:40:24.31	313.00	30.24	
2025-01-11 02:40:24.51	312.92	30.25	
2025-01-11 02:40:24.71	312.83	30.25	
2025-01-11 02:40:24.92	312.75	30.26	
2025-01-11 02:40:25.13	312.66	30.26	
2025-01-11 02:40:25.33	312.58	30.27	
2025-01-11 02:40:25.54	312.50	30.28	
2025-01-11 02:40:25.74	312.42	30.28	
2025-01-11 02:40:25.95	312.33	30.29	
2025-01-11 02:40:26.15	312.25	30.29	
2025-01-11 02:40:26.36	312.17	30.30	
2025-01-11 02:40:26.56	312.08	30.30	
2025-01-11 02:40:26.77	312.00	30.31	
2025-01-11 02:40:26.97	311.92	30.32	
2025-01-11 02:40:27.18	311.83	30.32	
2025-01-11 02:40:27.39	311.75	30.33	
2025-01-11 02:40:27.59	311.67	30.33	
2025-01-11 02:40:27.79	311.58	30.34	
2025-01-11 02:40:28.00	311.50	30.34	
2025-01-11 02:40:28.21	311.41	30.35	
2025-01-11 02:40:28.41	311.33	30.35	
2025-01-11 02:40:28.62	311.25	30.36	
2025-01-11 02:40:28.82	311.16	30.36	
2025-01-11 02:40:29.03	311.08	30.37	
2025-01-11 02:40:29.23	311.00	30.37	
2025-01-11 02:40:29.44	310.91	30.37	
2025-01-11 02:40:29.64	310.83	30.38	
2025-01-11 02:40:29.85	310.74	30.38	
2025-01-11 02:40:30.05	310.66	30.39	
2025-01-11 02:40:30.26	310.58	30.39	
2025-01-11 02:40:30.47	310.49	30.40	
2025-01-11 02:40:30.67	310.41	30.40	
2025-01-11 02:40:30.87	310.33	30.40	
2025-01-11 02:40:31.08	310.24	30.41	
2025-01-11 02:40:31.28	310.16	30.41	
2025-01-11 02:40:31.49	310.07	30.42	
2025-01-11 02:40:31.70	309.99	30.42	
2025-01-11 02:40:31.90	309.91	30.42	
2025-01-11 02:40:32.10	309.82	30.43	
2025-01-11 02:40:32.31	309.74	30.43	
2025-01-11 02:40:32.51	309.66	30.44	
2025-01-11 02:40:32.72	309.57	30.44	
2025-01-11 02:40:32.92	309.49	30.44	
2025-01-11 02:40:33.13	309.40	30.45	
2025-01-11 02:40:33.33	309.32	30.45	
2025-01-11 02:40:33.54	309.23	30.45	
2025-01-11 02:40:33.74	309.15	30.46	
2025-01-11 02:40:33.95	309.07	30.46	
2025-01-11 02:40:34.15	308.98	30.46	
2025-01-11 02:40:34.36	308.90	30.46	
2025-01-11 02:40:34.56	308.82	30.47	
2025-01-11 02:40:34.77	308.73	30.47	
2025-01-11 02:40:34.98	308.64	30.47	
2025-01-11 02:40:35.18	308.56	30.48	
2025-01-11 02:40:35.39	308.47	30.48	
2025-01-11 02:40:35.59	308.39	30.48	
2025-01-11 02:40:35.80	308.31	30.48	
2025-01-11 02:40:36.00	308.22	30.49	
2025-01-11 02:40:36.20	308.14	30.49	
2025-01-11 02:40:36.41	308.06	30.49	
2025-01-11 02:40:36.61	307.97	30.49	
2025-01-11 02:40:36.82	307.89	30.50	
2025-01-11 02:40:37.02	307.80	30.50	
2025-01-11 02:40:37.23	307.72	30.50	
2025-01-11 02:40:37.43	307.64	30.50	
2025-01-11 02:40:37.64	307.55	30.50	
2025-01-11 02:40:37.84	307.47	30.50	
2025-01-11 02:40:38.05	307.38	30.51	
2025-01-11 02:40:38.25	307.30	30.51	
2025-01-11 02:40:38.46	307.21	30.51	
2025-01-11 02:40:38.66	307.13	30.51	
2025-01-11 02:40:38.87	307.04	30.51	
2025-01-11 02:40:39.07	306.96	30.51	
2025-01-11 02:40:39.28	306.87	30.52	
2025-01-11 02:40:39.48	306.79	30.52	
2025-01-11 02:40:39.69	306.71	30.52	
2025-01-11 02:40:39.90	306.62	30.52	
2025-01-11 02:40:40.10	306.54	30.52	
2025-01-11 02:40:40.31	306.45	30.52	
2025-01-11 02:40:40.51	306.37	30.52	
2025-01-11 02:40:40.72	306.28	30.52	
2025-01-11 02:40:40.92	306.20	30.52	
2025-01-11 02:40:41.13	306.11	30.52	
2025-01-11 02:40:41.33	306.03	30.53	
2025-01-11 02:40:41.54	305.94	30.53	
2025-01-11 02:40:41.74	305.86	30.53	
2025-01-11 02:40:41.95	305.77	30.53	
2025-01-11 02:40:42.15	305.69	30.53	
2025-01-11 02:40:42.36	305.60	30.53	
2025-01-11 02:40:42.56	305.52	30.53	
2025-01-11 02:40:42.76	305.44	30.53	
2025-01-11 02:40:42.97	305.35	30.53	
2025-01-11 02:40:43.18	305.27	30.53	
2025-01-11 02:40:43.38	305.18	30.53	
2025-01-11 02:40:43.58	305.10	30.53	
2025-01-11 02:40:43.79	305.02	30.53	
2025-01-11 02:40:44.00	304.93	30.53	
2025-01-11 02:40:44.20	304.85	30.53	
2025-01-11 02:40:44.41	304.76	30.53	
2025-01-11 02:40:44.61	304.68	30.53	
2025-01-11 02:40:44.82	304.59	30.53	
2025-01-11 02:40:45.02	304.51	30.53	
2025-01-11 02:40:45.23	304.42	30.53	
2025-01-11 02:40:45.43	304.34	30.52	
2025-01-11 02:40:45.64	304.25	30.52	
2025-01-11 02:40:45.84	304.17	30.52	
2025-01-11 02:40:46.05	304.08	30.52	
2025-01-11 02:40:46.25	304.00	30.52	
2025-01-11 02:40:46.46	303.91	30.52	
2025-01-11 02:40:46.66	303.83	30.52	
2025-01-11 02:40:46.87	303.75	30.52	
2025-01-11 02:40:47.07	303.66	30.52	
2025-01-11 02:40:47.28	303.58	30.52	
2025-01-11 02:40:47.48	303.49	30.51	
2025-01-11 02:40:47.69	303.41	30.51	
2025-01-11 02:40:47.89	303.33	30.51	
2025-01-11 02:40:48.10	303.24	30.51	
2025-01-11 02:40:48.30	303.16	30.51	
2025-01-11 02:40:48.50	303.07	30.51	
2025-01-11 02:40:48.71	302.99	30.50	
2025-01-11 02:40:48.91	302.91	30.50	
2025-01-11 02:40:49.12	302.82	30.50	
2025-01-11 02:40:49.33	302.73	30.50	
2025-01-11 02:40:49.53	302.65	30.50	
2025-01-11 02:40:49.73	302.57	30.49	
2025-01-11 02:40:49.94	302.48	30.49	
2025-01-11 02:40:50.15	302.40	30.49	
2025-01-11 02:40:50.35	302.31	30.49	
2025-01-11 02:40:50.56	302.23	30.49	
2025-01-11 02:40:50.76	302.14	30.48	
2025-01-11 02:40:50.96	302.06	30.48	
2025-01-11 02:40:51.17	301.98	30.48	
2025-01-11 02:40:51.37	301.89	30.48	
2025-01-11 02:40:51.58	301.81	30.47	
2025-01-11 02:40:51.78	301.73	30.47	
2025-01-11 02:40:51.99	301.64	30.47	
2025-01-11 02:40:52.19	301.56	30.46	
2025-01-11 02:40:52.39	301.47	30.46	
2025-01-11 02:40:52.60	301.39	30.46	
2025-01-11 02:40:52.80	301.31	30.45	
2025-01-11 02:40:53.01	301.22	30.45	
2025-01-11 02:40:53.21	301.14	30.45	
2025-01-11 02:40:53.42	301.05	30.45	
2025-01-11 02:40:53.63	300.97	30.44	
2025-01-11 02:40:53.83	300.88	30.44	
2025-01-11 02:40:54.03	300.80	30.43	
2025-01-11 02:40:54.25	300.71	30.43	
2025-01-11 02:40:54.46	300.63	30.43	
2025-01-11 02:40:54.66	300.54	30.42	
