passes_logs/2025/01/11/SPB_Silybum_02/SPB_Silybum_02__20250111_041311_AQUA_rec.log

#Pass ID: 20250111_041311_AQUA
#Satellite: AQUA
#Configuration: AQUA
#Start time: 2025-01-11 04:13:11

#Version: 2.0.20230423
#Station: SPB_Silybum_02
#Location: 30.233357 lon 59.946436 lat
#TLE: 1 27424U 02022A   25010.14776733  .00002050  00000+0  43097-3 0  9993
#TLE: 2 27424  98.3581 326.7682 0001515 116.0773 333.4276 14.60663937206917

#Time	Az	El	Level	Level2	SNR	BER	Gain	Gain2
2025-01-11 04:13:13.86	6.86	4.10	
2025-01-11 04:13:14.07	6.84	4.11	
2025-01-11 04:13:14.28	6.81	4.11	
2025-01-11 04:13:14.48	6.78	4.12	
2025-01-11 04:13:14.68	6.76	4.13	
2025-01-11 04:13:14.89	6.73	4.14	
2025-01-11 04:13:15.09	6.71	4.15	
2025-01-11 04:13:15.30	6.68	4.16	
2025-01-11 04:13:15.50	6.65	4.17	
2025-01-11 04:13:15.71	6.63	4.18	
2025-01-11 04:13:15.92	6.60	4.19	
2025-01-11 04:13:16.12	6.57	4.20	
2025-01-11 04:13:16.33	6.55	4.21	
2025-01-11 04:13:16.53	6.52	4.22	
2025-01-11 04:13:16.73	6.50	4.23	
2025-01-11 04:13:16.94	6.47	4.24	
2025-01-11 04:13:17.15	6.44	4.24	
2025-01-11 04:13:17.35	6.42	4.25	
2025-01-11 04:13:17.55	6.39	4.26	
2025-01-11 04:13:17.76	6.36	4.27	
2025-01-11 04:13:17.96	6.34	4.28	
2025-01-11 04:13:18.17	6.31	4.29	
2025-01-11 04:13:18.37	6.29	4.30	
2025-01-11 04:13:18.58	6.26	4.31	
2025-01-11 04:13:18.78	6.23	4.32	
2025-01-11 04:13:18.99	6.20	4.33	
2025-01-11 04:13:19.19	6.18	4.34	
2025-01-11 04:13:19.40	6.15	4.35	
2025-01-11 04:13:19.60	6.13	4.36	
2025-01-11 04:13:19.81	6.10	4.36	
2025-01-11 04:13:20.01	6.07	4.37	
2025-01-11 04:13:20.22	6.05	4.38	
2025-01-11 04:13:20.42	6.02	4.39	
2025-01-11 04:13:20.63	5.99	4.40	
2025-01-11 04:13:20.83	5.97	4.41	
2025-01-11 04:13:21.04	5.94	4.42	
2025-01-11 04:13:21.24	5.91	4.43	
2025-01-11 04:13:21.45	5.89	4.44	
2025-01-11 04:13:21.65	5.86	4.45	
2025-01-11 04:13:21.85	5.83	4.46	
2025-01-11 04:13:22.06	5.81	4.47	
2025-01-11 04:13:22.26	5.78	4.48	
2025-01-11 04:13:22.47	5.75	4.48	
2025-01-11 04:13:22.67	5.73	4.49	
2025-01-11 04:13:22.89	5.70	4.50	
2025-01-11 04:13:23.09	5.67	4.51	
2025-01-11 04:13:23.30	5.64	4.52	
2025-01-11 04:13:23.51	5.62	4.53	
2025-01-11 04:13:23.71	5.59	4.54	
2025-01-11 04:13:23.92	5.56	4.55	
2025-01-11 04:13:24.12	5.54	4.56	
2025-01-11 04:13:24.32	5.51	4.57	
2025-01-11 04:13:24.53	5.48	4.58	
2025-01-11 04:13:24.74	5.45	4.59	
2025-01-11 04:13:24.94	5.43	4.60	
2025-01-11 04:13:25.16	5.40	4.61	
2025-01-11 04:13:25.36	5.37	4.61	
2025-01-11 04:13:25.57	5.34	4.62	
2025-01-11 04:13:25.78	5.32	4.63	
2025-01-11 04:13:25.98	5.29	4.64	
2025-01-11 04:13:26.19	5.26	4.65	
2025-01-11 04:13:26.39	5.23	4.66	
2025-01-11 04:13:26.60	5.21	4.67	
2025-01-11 04:13:26.80	5.18	4.68	
2025-01-11 04:13:27.01	5.15	4.69	
2025-01-11 04:13:27.21	5.13	4.70	
2025-01-11 04:13:27.42	5.10	4.71	
2025-01-11 04:13:27.62	5.07	4.72	
2025-01-11 04:13:27.83	5.04	4.72	
2025-01-11 04:13:28.04	5.02	4.73	
2025-01-11 04:13:28.24	4.99	4.74	
2025-01-11 04:13:28.44	4.96	4.75	
2025-01-11 04:13:28.65	4.93	4.76	
2025-01-11 04:13:28.85	4.91	4.77	
2025-01-11 04:13:29.06	4.88	4.78	
2025-01-11 04:13:29.26	4.85	4.79	
2025-01-11 04:13:29.47	4.82	4.80	
2025-01-11 04:13:29.68	4.80	4.81	
2025-01-11 04:13:29.88	4.77	4.82	
2025-01-11 04:13:30.09	4.74	4.83	
2025-01-11 04:13:30.29	4.71	4.83	
2025-01-11 04:13:30.50	4.69	4.84	
2025-01-11 04:13:30.70	4.66	4.85	
2025-01-11 04:13:30.91	4.63	4.86	
2025-01-11 04:13:31.11	4.60	4.87	
2025-01-11 04:13:31.32	4.57	4.88	
2025-01-11 04:13:31.52	4.55	4.89	
2025-01-11 04:13:31.73	4.52	4.90	
2025-01-11 04:13:31.93	4.49	4.91	
2025-01-11 04:13:32.14	4.46	4.92	
2025-01-11 04:13:32.34	4.44	4.93	
2025-01-11 04:13:32.55	4.41	4.94	
2025-01-11 04:13:32.75	4.38	4.94	
2025-01-11 04:13:32.96	4.35	4.95	
2025-01-11 04:13:33.16	4.33	4.96	
2025-01-11 04:13:33.37	4.30	4.97	
2025-01-11 04:13:33.57	4.27	4.98	
2025-01-11 04:13:33.78	4.24	4.99	
2025-01-11 04:13:33.98	4.21	5.00	
2025-01-11 04:13:34.19	4.19	5.01	
2025-01-11 04:13:34.39	4.16	5.02	
2025-01-11 04:13:34.60	4.13	5.03	
2025-01-11 04:13:34.80	4.10	5.03	
2025-01-11 04:13:35.00	4.07	5.04	
2025-01-11 04:13:35.21	4.05	5.05	
2025-01-11 04:13:35.42	4.02	5.06	
2025-01-11 04:13:35.62	3.99	5.07	
2025-01-11 04:13:35.82	3.96	5.08	
2025-01-11 04:13:36.03	3.93	5.09	
2025-01-11 04:13:36.23	3.91	5.10	
2025-01-11 04:13:36.44	3.88	5.11	
2025-01-11 04:13:36.65	3.85	5.12	
2025-01-11 04:13:36.85	3.82	5.13	
2025-01-11 04:13:37.06	3.79	5.13	
2025-01-11 04:13:37.26	3.76	5.14	
2025-01-11 04:13:37.47	3.74	5.15	
2025-01-11 04:13:37.67	3.71	5.16	
2025-01-11 04:13:37.87	3.68	5.17	
2025-01-11 04:13:38.08	3.65	5.18	
2025-01-11 04:13:38.28	3.62	5.19	
2025-01-11 04:13:38.49	3.60	5.20	
2025-01-11 04:13:38.69	3.57	5.21	
2025-01-11 04:13:38.90	3.54	5.22	
2025-01-11 04:13:39.10	3.51	5.22	
2025-01-11 04:13:39.31	3.48	5.23	
2025-01-11 04:13:39.51	3.45	5.24	
2025-01-11 04:13:39.72	3.42	5.25	
2025-01-11 04:13:39.92	3.40	5.26	
2025-01-11 04:13:40.13	3.37	5.27	
2025-01-11 04:13:40.33	3.34	5.28	
2025-01-11 04:13:40.54	3.31	5.29	
2025-01-11 04:13:40.74	3.28	5.30	
2025-01-11 04:13:40.95	3.25	5.31	
2025-01-11 04:13:41.15	3.23	5.31	
2025-01-11 04:13:41.36	3.20	5.32	
2025-01-11 04:13:41.56	3.17	5.33	
2025-01-11 04:13:41.77	3.14	5.34	
2025-01-11 04:13:41.97	3.11	5.35	
2025-01-11 04:13:42.19	3.08	5.36	
2025-01-11 04:13:42.40	3.05	5.37	
2025-01-11 04:13:42.60	3.02	5.38	
2025-01-11 04:13:42.81	2.99	5.39	
2025-01-11 04:13:43.01	2.97	5.40	
2025-01-11 04:13:43.22	2.94	5.41	
2025-01-11 04:13:43.42	2.91	5.41	
2025-01-11 04:13:43.63	2.88	5.42	
2025-01-11 04:13:43.83	2.85	5.43	
2025-01-11 04:13:44.04	2.82	5.44	
2025-01-11 04:13:44.24	2.79	5.45	
2025-01-11 04:13:44.45	2.76	5.46	
2025-01-11 04:13:44.65	2.73	5.47	
2025-01-11 04:13:44.86	2.70	5.48	
2025-01-11 04:13:45.06	2.68	5.49	
2025-01-11 04:13:45.27	2.65	5.49	
2025-01-11 04:13:45.47	2.62	5.50	
2025-01-11 04:13:45.68	2.59	5.51	
2025-01-11 04:13:45.88	2.56	5.52	
2025-01-11 04:13:46.09	2.53	5.53	
2025-01-11 04:13:46.29	2.50	5.54	
2025-01-11 04:13:46.50	2.47	5.55	
2025-01-11 04:13:46.70	2.44	5.56	
2025-01-11 04:13:46.91	2.41	5.57	
2025-01-11 04:13:47.11	2.39	5.58	
2025-01-11 04:13:47.32	2.36	5.58	
2025-01-11 04:13:47.54	2.32	5.59	
2025-01-11 04:13:47.74	2.30	5.60	
2025-01-11 04:13:47.95	2.27	5.61	
2025-01-11 04:13:48.15	2.24	5.62	
2025-01-11 04:13:48.36	2.21	5.63	
2025-01-11 04:13:48.56	2.18	5.64	
2025-01-11 04:13:48.77	2.15	5.65	
2025-01-11 04:13:48.97	2.12	5.66	
2025-01-11 04:13:49.18	2.09	5.66	
2025-01-11 04:13:49.38	2.06	5.67	
2025-01-11 04:13:49.59	2.03	5.68	
2025-01-11 04:13:49.79	2.00	5.69	
2025-01-11 04:13:50.00	1.97	5.70	
2025-01-11 04:13:50.20	1.94	5.71	
2025-01-11 04:13:50.41	1.91	5.72	
2025-01-11 04:13:50.61	1.88	5.73	
2025-01-11 04:13:50.82	1.85	5.74	
2025-01-11 04:13:51.02	1.82	5.74	
2025-01-11 04:13:51.23	1.79	5.75	
2025-01-11 04:13:51.43	1.77	5.76	
2025-01-11 04:13:51.64	1.74	5.77	
2025-01-11 04:13:51.84	1.71	5.78	
2025-01-11 04:13:52.05	1.68	5.79	
2025-01-11 04:13:52.27	1.64	5.80	
2025-01-11 04:13:52.47	1.62	5.81	
2025-01-11 04:13:52.68	1.58	5.82	
2025-01-11 04:13:52.88	1.56	5.82	
2025-01-11 04:13:53.09	1.53	5.83	
2025-01-11 04:13:53.29	1.50	5.84	
2025-01-11 04:13:53.50	1.47	5.85	
2025-01-11 04:13:53.70	1.44	5.86	
2025-01-11 04:13:53.91	1.41	5.87	
2025-01-11 04:13:54.11	1.38	5.88	
2025-01-11 04:13:54.32	1.35	5.89	
2025-01-11 04:13:54.52	1.32	5.89	
2025-01-11 04:13:54.73	1.29	5.90	
2025-01-11 04:13:54.93	1.26	5.91	
2025-01-11 04:13:55.14	1.23	5.92	
2025-01-11 04:13:55.34	1.20	5.93	
2025-01-11 04:13:55.55	1.17	5.94	
2025-01-11 04:13:55.75	1.14	5.95	
2025-01-11 04:13:55.96	1.11	5.96	
2025-01-11 04:13:56.16	1.08	5.97	
2025-01-11 04:13:56.36	1.05	5.97	
2025-01-11 04:13:56.57	1.02	5.98	
2025-01-11 04:13:56.78	0.99	5.99	
2025-01-11 04:13:56.98	0.96	6.00	
2025-01-11 04:13:57.18	0.93	6.01	
2025-01-11 04:13:57.39	0.90	6.02	
2025-01-11 04:13:57.59	0.87	6.03	
2025-01-11 04:13:57.80	0.84	6.04	
2025-01-11 04:13:58.00	0.81	6.04	
2025-01-11 04:13:58.21	0.78	6.05	
2025-01-11 04:13:58.41	0.75	6.06	
2025-01-11 04:13:58.62	0.71	6.07	
2025-01-11 04:13:58.82	0.69	6.08	
2025-01-11 04:13:59.03	0.65	6.09	
2025-01-11 04:13:59.23	0.62	6.10	
2025-01-11 04:13:59.44	0.59	6.10	
2025-01-11 04:13:59.64	0.56	6.11	
2025-01-11 04:13:59.85	0.53	6.12	
2025-01-11 04:14:00.06	0.50	6.13	
2025-01-11 04:14:00.26	0.47	6.14	
2025-01-11 04:14:00.46	0.44	6.15	
2025-01-11 04:14:00.67	0.41	6.16	
2025-01-11 04:14:00.88	0.38	6.17	
2025-01-11 04:14:01.08	0.35	6.17	
2025-01-11 04:14:01.29	0.32	6.18	
2025-01-11 04:14:01.49	0.29	6.19	
2025-01-11 04:14:01.69	0.26	6.20	
2025-01-11 04:14:01.90	0.23	6.21	
2025-01-11 04:14:02.11	0.20	6.22	
2025-01-11 04:14:02.31	0.17	6.23	
2025-01-11 04:14:02.51	0.14	6.23	
2025-01-11 04:14:02.72	0.10	6.24	
2025-01-11 04:14:02.92	0.07	6.25	
2025-01-11 04:14:03.13	0.04	6.26	
2025-01-11 04:14:03.33	0.01	6.27	
2025-01-11 04:14:03.54	359.98	6.28	
2025-01-11 04:14:03.74	359.95	6.29	
2025-01-11 04:14:03.95	359.92	6.30	
2025-01-11 04:14:04.15	359.89	6.30	
2025-01-11 04:14:04.36	359.86	6.31	
2025-01-11 04:14:04.56	359.83	6.32	
2025-01-11 04:14:04.77	359.80	6.33	
2025-01-11 04:14:04.97	359.77	6.34	
2025-01-11 04:14:05.18	359.73	6.35	
2025-01-11 04:14:05.38	359.70	6.36	
2025-01-11 04:14:05.59	359.67	6.36	
2025-01-11 04:14:05.79	359.64	6.37	
2025-01-11 04:14:06.00	359.61	6.38	
2025-01-11 04:14:06.20	359.58	6.39	
2025-01-11 04:14:06.41	359.55	6.40	
2025-01-11 04:14:06.63	359.51	6.41	
2025-01-11 04:14:06.83	359.48	6.42	
2025-01-11 04:14:07.04	359.45	6.42	
2025-01-11 04:14:07.24	359.42	6.43	
2025-01-11 04:14:07.45	359.39	6.44	
2025-01-11 04:14:07.66	359.36	6.45	
2025-01-11 04:14:07.87	359.33	6.46	
2025-01-11 04:14:08.07	359.30	6.47	
2025-01-11 04:14:08.28	359.26	6.48	
2025-01-11 04:14:08.49	359.23	6.48	
2025-01-11 04:14:08.69	359.20	6.49	
2025-01-11 04:14:08.90	359.17	6.50	
2025-01-11 04:14:09.10	359.14	6.51	
2025-01-11 04:14:09.31	359.11	6.52	
2025-01-11 04:14:09.52	359.07	6.53	
2025-01-11 04:14:09.72	359.04	6.54	
2025-01-11 04:14:09.92	359.01	6.54	
2025-01-11 04:14:10.13	358.98	6.55	
2025-01-11 04:14:10.34	358.95	6.56	
2025-01-11 04:14:10.54	358.92	6.57	
2025-01-11 04:14:10.75	358.89	6.58	
2025-01-11 04:14:10.96	358.85	6.59	
2025-01-11 04:14:11.17	358.82	6.60	
2025-01-11 04:14:11.38	358.79	6.60	
2025-01-11 04:14:11.58	358.76	6.61	
2025-01-11 04:14:11.79	358.73	6.62	
2025-01-11 04:14:11.99	358.69	6.63	
2025-01-11 04:14:12.19	358.66	6.64	
2025-01-11 04:14:12.40	358.63	6.65	
2025-01-11 04:14:12.60	358.60	6.65	
2025-01-11 04:14:12.81	358.57	6.66	
2025-01-11 04:14:13.01	358.54	6.67	
2025-01-11 04:14:13.22	358.50	6.68	
2025-01-11 04:14:13.42	358.47	6.69	
2025-01-11 04:14:13.63	358.44	6.70	
2025-01-11 04:14:13.83	358.41	6.71	
2025-01-11 04:14:14.04	358.38	6.71	
2025-01-11 04:14:14.24	358.35	6.72	
2025-01-11 04:14:14.45	358.31	6.73	
2025-01-11 04:14:14.65	358.28	6.74	
2025-01-11 04:14:14.86	358.25	6.75	
2025-01-11 04:14:15.06	358.22	6.76	
2025-01-11 04:14:15.27	358.19	6.76	
2025-01-11 04:14:15.47	358.15	6.77	
2025-01-11 04:14:15.68	358.12	6.78	
2025-01-11 04:14:15.88	358.09	6.79	
2025-01-11 04:14:16.10	358.06	6.80	
2025-01-11 04:14:16.30	358.03	6.81	
2025-01-11 04:14:16.51	357.99	6.81	
2025-01-11 04:14:16.71	357.96	6.82	
2025-01-11 04:14:16.92	357.93	6.83	
2025-01-11 04:14:17.12	357.90	6.84	
2025-01-11 04:14:17.33	357.86	6.85	
2025-01-11 04:14:17.53	357.83	6.86	
2025-01-11 04:14:17.74	357.80	6.86	
2025-01-11 04:14:17.94	357.77	6.87	
2025-01-11 04:14:18.15	357.73	6.88	
2025-01-11 04:14:18.35	357.70	6.89	
2025-01-11 04:14:18.56	357.67	6.90	
2025-01-11 04:14:18.77	357.64	6.91	
2025-01-11 04:14:18.97	357.61	6.91	
2025-01-11 04:14:19.18	357.57	6.92	
2025-01-11 04:14:19.40	357.54	6.93	
2025-01-11 04:14:19.60	357.51	6.94	
2025-01-11 04:14:19.81	357.47	6.95	
2025-01-11 04:14:20.01	357.44	6.96	
2025-01-11 04:14:20.22	357.41	6.96	
2025-01-11 04:14:20.42	357.38	6.97	
2025-01-11 04:14:20.62	357.34	6.98	
2025-01-11 04:14:20.83	357.31	6.99	
2025-01-11 04:14:21.04	357.28	7.00	
2025-01-11 04:14:21.24	357.25	7.01	
2025-01-11 04:14:21.45	357.21	7.01	
2025-01-11 04:14:21.65	357.18	7.02	
2025-01-11 04:14:21.86	357.15	7.03	
2025-01-11 04:14:22.06	357.12	7.04	
2025-01-11 04:14:22.27	357.08	7.05	
2025-01-11 04:14:22.47	357.05	7.05	
2025-01-11 04:14:22.68	357.02	7.06	
2025-01-11 04:14:22.88	356.99	7.07	
2025-01-11 04:14:23.09	356.95	7.08	
2025-01-11 04:14:23.30	356.92	7.09	
2025-01-11 04:14:23.50	356.89	7.10	
2025-01-11 04:14:23.70	356.85	7.10	
2025-01-11 04:14:23.91	356.82	7.11	
2025-01-11 04:14:24.12	356.79	7.12	
2025-01-11 04:14:24.32	356.75	7.13	
2025-01-11 04:14:24.53	356.72	7.14	
2025-01-11 04:14:24.73	356.69	7.14	
2025-01-11 04:14:24.93	356.66	7.15	
2025-01-11 04:14:25.14	356.62	7.16	
2025-01-11 04:14:25.35	356.59	7.17	
2025-01-11 04:14:25.55	356.56	7.18	
2025-01-11 04:14:25.76	356.52	7.19	
2025-01-11 04:14:25.96	356.49	7.19	
2025-01-11 04:14:26.17	356.46	7.20	
2025-01-11 04:14:26.38	356.42	7.21	
2025-01-11 04:14:26.58	356.39	7.22	
2025-01-11 04:14:26.79	356.36	7.23	
2025-01-11 04:14:26.99	356.33	7.23	
2025-01-11 04:14:27.20	356.29	7.24	
2025-01-11 04:14:27.40	356.26	7.25	
2025-01-11 04:14:27.61	356.22	7.26	
2025-01-11 04:14:27.81	356.19	7.27	
2025-01-11 04:14:28.02	356.16	7.27	
2025-01-11 04:14:28.22	356.13	7.28	
2025-01-11 04:14:28.43	356.09	7.29	
2025-01-11 04:14:28.64	356.06	7.30	
2025-01-11 04:14:28.84	356.03	7.31	
2025-01-11 04:14:29.04	355.99	7.31	
2025-01-11 04:14:29.25	355.96	7.32	
2025-01-11 04:14:29.45	355.93	7.33	
2025-01-11 04:14:29.66	355.89	7.34	
2025-01-11 04:14:29.87	355.86	7.35	
2025-01-11 04:14:30.09	355.82	7.35	
2025-01-11 04:14:30.29	355.79	7.36	
2025-01-11 04:14:30.50	355.75	7.37	
2025-01-11 04:14:30.70	355.72	7.38	
2025-01-11 04:14:30.91	355.69	7.39	
2025-01-11 04:14:31.11	355.66	7.39	
2025-01-11 04:14:31.31	355.62	7.40	
2025-01-11 04:14:31.52	355.59	7.41	
2025-01-11 04:14:31.73	355.55	7.42	
2025-01-11 04:14:31.93	355.52	7.43	
2025-01-11 04:14:32.14	355.49	7.43	
2025-01-11 04:14:32.35	355.45	7.44	
2025-01-11 04:14:32.55	355.42	7.45	
2025-01-11 04:14:32.76	355.38	7.46	
2025-01-11 04:14:32.96	355.35	7.47	
2025-01-11 04:14:33.17	355.32	7.47	
2025-01-11 04:14:33.39	355.28	7.48	
2025-01-11 04:14:33.59	355.25	7.49	
2025-01-11 04:14:33.80	355.21	7.50	
2025-01-11 04:14:34.00	355.18	7.51	
2025-01-11 04:14:34.21	355.15	7.51	
2025-01-11 04:14:34.42	355.11	7.52	
2025-01-11 04:14:34.62	355.08	7.53	
2025-01-11 04:14:34.83	355.04	7.54	
2025-01-11 04:14:35.03	355.01	7.55	
2025-01-11 04:14:35.24	354.98	7.55	
2025-01-11 04:14:35.44	354.94	7.56	
2025-01-11 04:14:35.64	354.91	7.57	
2025-01-11 04:14:35.85	354.87	7.58	
2025-01-11 04:14:36.06	354.84	7.58	
2025-01-11 04:14:36.26	354.81	7.59	
2025-01-11 04:14:36.47	354.77	7.60	
2025-01-11 04:14:36.67	354.74	7.61	
2025-01-11 04:14:36.88	354.70	7.62	
2025-01-11 04:14:37.08	354.67	7.62	
2025-01-11 04:14:37.29	354.64	7.63	
2025-01-11 04:14:37.49	354.60	7.64	
2025-01-11 04:14:37.70	354.57	7.65	
2025-01-11 04:14:37.90	354.53	7.65	
2025-01-11 04:14:38.11	354.50	7.66	
2025-01-11 04:14:38.31	354.46	7.67	
2025-01-11 04:14:38.52	354.43	7.68	
2025-01-11 04:14:38.72	354.40	7.69	
2025-01-11 04:14:38.93	354.36	7.69	
2025-01-11 04:14:39.13	354.33	7.70	
2025-01-11 04:14:39.34	354.29	7.71	
2025-01-11 04:14:39.55	354.26	7.72	
2025-01-11 04:14:39.75	354.22	7.72	
2025-01-11 04:14:39.96	354.19	7.73	
2025-01-11 04:14:40.16	354.16	7.74	
2025-01-11 04:14:40.37	354.12	7.75	
2025-01-11 04:14:40.57	354.09	7.75	
2025-01-11 04:14:40.78	354.05	7.76	
2025-01-11 04:14:40.98	354.02	7.77	
2025-01-11 04:14:41.18	353.98	7.78	
2025-01-11 04:14:41.39	353.95	7.79	
2025-01-11 04:14:41.59	353.91	7.79	
2025-01-11 04:14:41.79	353.88	7.80	
2025-01-11 04:14:42.00	353.85	7.81	
2025-01-11 04:14:42.20	353.81	7.82	
2025-01-11 04:14:42.41	353.78	7.82	
2025-01-11 04:14:42.61	353.74	7.83	
2025-01-11 04:14:42.82	353.71	7.84	
2025-01-11 04:14:43.02	353.67	7.85	
2025-01-11 04:14:43.23	353.64	7.85	
2025-01-11 04:14:43.43	353.60	7.86	
2025-01-11 04:14:43.64	353.57	7.87	
2025-01-11 04:14:43.84	353.53	7.88	
2025-01-11 04:14:44.05	353.50	7.88	
2025-01-11 04:14:44.25	353.46	7.89	
2025-01-11 04:14:44.46	353.43	7.90	
2025-01-11 04:14:44.66	353.39	7.91	
2025-01-11 04:14:44.87	353.36	7.91	
2025-01-11 04:14:45.07	353.32	7.92	
2025-01-11 04:14:45.28	353.29	7.93	
2025-01-11 04:14:45.48	353.25	7.94	
2025-01-11 04:14:45.69	353.22	7.94	
2025-01-11 04:14:45.89	353.18	7.95	
2025-01-11 04:14:46.10	353.15	7.96	
2025-01-11 04:14:46.30	353.11	7.97	
2025-01-11 04:14:46.51	353.08	7.97	
2025-01-11 04:14:46.71	353.04	7.98	
2025-01-11 04:14:46.92	353.01	7.99	
2025-01-11 04:14:47.12	352.97	8.00	
2025-01-11 04:14:47.33	352.94	8.00	
2025-01-11 04:14:47.53	352.90	8.01	
2025-01-11 04:14:47.74	352.87	8.02	
2025-01-11 04:14:47.95	352.83	8.03	
2025-01-11 04:14:48.15	352.80	8.03	
2025-01-11 04:14:48.36	352.76	8.04	
2025-01-11 04:14:48.56	352.73	8.05	
2025-01-11 04:14:48.77	352.69	8.06	
2025-01-11 04:14:48.97	352.66	8.06	
2025-01-11 04:14:49.18	352.62	8.07	
2025-01-11 04:14:49.38	352.59	8.08	
2025-01-11 04:14:49.58	352.55	8.08	
2025-01-11 04:14:49.79	352.52	8.09	
2025-01-11 04:14:50.00	352.48	8.10	
2025-01-11 04:14:50.20	352.45	8.11	
2025-01-11 04:14:50.40	352.41	8.11	
2025-01-11 04:14:50.61	352.37	8.12	
2025-01-11 04:14:50.82	352.34	8.13	
2025-01-11 04:14:51.02	352.30	8.14	
2025-01-11 04:14:51.23	352.27	8.14	
2025-01-11 04:14:51.43	352.23	8.15	
2025-01-11 04:14:51.64	352.20	8.16	
2025-01-11 04:14:51.84	352.16	8.16	
2025-01-11 04:14:52.05	352.12	8.17	
2025-01-11 04:14:52.25	352.09	8.18	
2025-01-11 04:14:52.46	352.05	8.19	
2025-01-11 04:14:52.66	352.02	8.19	
2025-01-11 04:14:52.87	351.98	8.20	
2025-01-11 04:14:53.07	351.95	8.21	
2025-01-11 04:14:53.28	351.91	8.22	
2025-01-11 04:14:53.48	351.88	8.22	
2025-01-11 04:14:53.68	351.84	8.23	
2025-01-11 04:14:53.89	351.80	8.24	
2025-01-11 04:14:54.09	351.77	8.24	
2025-01-11 04:14:54.30	351.73	8.25	
2025-01-11 04:14:54.50	351.70	8.26	
2025-01-11 04:14:54.71	351.66	8.27	
2025-01-11 04:14:54.91	351.63	8.27	
2025-01-11 04:14:55.12	351.59	8.28	
2025-01-11 04:14:55.32	351.55	8.29	
2025-01-11 04:14:55.53	351.52	8.29	
2025-01-11 04:14:55.73	351.48	8.30	
2025-01-11 04:14:55.94	351.45	8.31	
2025-01-11 04:14:56.14	351.41	8.32	
2025-01-11 04:14:56.35	351.37	8.32	
2025-01-11 04:14:56.55	351.34	8.33	
2025-01-11 04:14:56.76	351.30	8.34	
2025-01-11 04:14:56.96	351.27	8.34	
2025-01-11 04:14:57.17	351.23	8.35	
2025-01-11 04:14:57.38	351.19	8.36	
2025-01-11 04:14:57.58	351.16	8.37	
2025-01-11 04:14:57.78	351.12	8.37	
2025-01-11 04:14:57.99	351.09	8.38	
2025-01-11 04:14:58.19	351.05	8.39	
2025-01-11 04:14:58.40	351.01	8.39	
2025-01-11 04:14:58.60	350.98	8.40	
2025-01-11 04:14:58.81	350.94	8.41	
2025-01-11 04:14:59.02	350.90	8.41	
2025-01-11 04:14:59.23	350.87	8.42	
2025-01-11 04:14:59.44	350.83	8.43	
2025-01-11 04:14:59.64	350.79	8.44	
2025-01-11 04:14:59.85	350.76	8.44	
2025-01-11 04:15:00.05	350.72	8.45	
2025-01-11 04:15:00.26	350.68	8.46	
2025-01-11 04:15:00.46	350.65	8.46	
2025-01-11 04:15:00.67	350.61	8.47	
2025-01-11 04:15:00.87	350.58	8.48	
2025-01-11 04:15:01.08	350.54	8.48	
2025-01-11 04:15:01.28	350.50	8.49	
2025-01-11 04:15:01.49	350.47	8.50	
2025-01-11 04:15:01.69	350.43	8.50	
2025-01-11 04:15:01.90	350.39	8.51	
2025-01-11 04:15:02.10	350.36	8.52	
2025-01-11 04:15:02.31	350.32	8.53	
2025-01-11 04:15:02.51	350.28	8.53	
2025-01-11 04:15:02.72	350.25	8.54	
2025-01-11 04:15:02.92	350.21	8.55	
2025-01-11 04:15:03.13	350.17	8.55	
2025-01-11 04:15:03.33	350.14	8.56	
2025-01-11 04:15:03.54	350.10	8.57	
2025-01-11 04:15:03.74	350.06	8.57	
2025-01-11 04:15:03.95	350.03	8.58	
2025-01-11 04:15:04.15	349.99	8.59	
2025-01-11 04:15:04.37	349.95	8.59	
2025-01-11 04:15:04.58	349.91	8.60	
2025-01-11 04:15:04.78	349.88	8.61	
2025-01-11 04:15:04.99	349.84	8.61	
2025-01-11 04:15:05.19	349.80	8.62	
2025-01-11 04:15:05.40	349.77	8.63	
2025-01-11 04:15:05.61	349.73	8.64	
2025-01-11 04:15:05.81	349.69	8.64	
2025-01-11 04:15:06.02	349.66	8.65	
2025-01-11 04:15:06.22	349.62	8.65	
2025-01-11 04:15:06.43	349.58	8.66	
2025-01-11 04:15:06.64	349.54	8.67	
2025-01-11 04:15:06.85	349.51	8.68	
2025-01-11 04:15:07.05	349.47	8.68	
2025-01-11 04:15:07.26	349.43	8.69	
2025-01-11 04:15:07.46	349.40	8.70	
2025-01-11 04:15:07.67	349.36	8.70	
2025-01-11 04:15:07.87	349.32	8.71	
2025-01-11 04:15:08.08	349.28	8.72	
2025-01-11 04:15:08.28	349.25	8.72	
2025-01-11 04:15:08.49	349.21	8.73	
2025-01-11 04:15:08.69	349.17	8.74	
2025-01-11 04:15:08.90	349.14	8.74	
2025-01-11 04:15:09.11	349.10	8.75	
2025-01-11 04:15:09.31	349.06	8.75	
2025-01-11 04:15:09.51	349.02	8.76	
2025-01-11 04:15:09.72	348.99	8.77	
2025-01-11 04:15:09.92	348.95	8.77	
2025-01-11 04:15:10.12	348.91	8.78	
2025-01-11 04:15:10.33	348.88	8.79	
2025-01-11 04:15:10.54	348.84	8.79	
2025-01-11 04:15:10.74	348.80	8.80	
2025-01-11 04:15:10.94	348.76	8.81	
2025-01-11 04:15:11.15	348.73	8.81	
2025-01-11 04:15:11.36	348.69	8.82	
2025-01-11 04:15:11.56	348.65	8.83	
2025-01-11 04:15:11.76	348.62	8.83	
2025-01-11 04:15:11.97	348.58	8.84	
2025-01-11 04:15:12.17	348.54	8.85	
2025-01-11 04:15:12.38	348.50	8.85	
2025-01-11 04:15:12.58	348.47	8.86	
2025-01-11 04:15:12.79	348.43	8.87	
2025-01-11 04:15:12.99	348.39	8.87	
2025-01-11 04:15:13.20	348.35	8.88	
2025-01-11 04:15:13.40	348.32	8.88	
2025-01-11 04:15:13.61	348.28	8.89	
2025-01-11 04:15:13.81	348.24	8.90	
2025-01-11 04:15:14.02	348.20	8.90	
2025-01-11 04:15:14.22	348.17	8.91	
2025-01-11 04:15:14.43	348.13	8.92	
2025-01-11 04:15:14.63	348.09	8.92	
2025-01-11 04:15:14.84	348.05	8.93	
2025-01-11 04:15:15.04	348.01	8.93	
2025-01-11 04:15:15.25	347.98	8.94	
2025-01-11 04:15:15.45	347.94	8.95	
2025-01-11 04:15:15.66	347.90	8.95	
2025-01-11 04:15:15.86	347.86	8.96	
2025-01-11 04:15:16.07	347.82	8.97	
2025-01-11 04:15:16.27	347.79	8.97	
2025-01-11 04:15:16.48	347.75	8.98	
2025-01-11 04:15:16.68	347.71	8.99	
2025-01-11 04:15:16.89	347.67	8.99	
2025-01-11 04:15:17.09	347.64	9.00	
2025-01-11 04:15:17.30	347.60	9.00	
2025-01-11 04:15:17.50	347.56	9.01	
2025-01-11 04:15:17.71	347.52	9.02	
2025-01-11 04:15:17.91	347.48	9.02	
2025-01-11 04:15:18.12	347.45	9.03	
2025-01-11 04:15:18.32	347.41	9.03	
2025-01-11 04:15:18.53	347.37	9.04	
2025-01-11 04:15:18.73	347.33	9.05	
2025-01-11 04:15:18.94	347.29	9.05	
2025-01-11 04:15:19.14	347.26	9.06	
2025-01-11 04:15:19.35	347.22	9.07	
2025-01-11 04:15:19.55	347.18	9.07	
2025-01-11 04:15:19.76	347.14	9.08	
2025-01-11 04:15:19.96	347.10	9.08	
2025-01-11 04:15:20.17	347.07	9.09	
2025-01-11 04:15:20.37	347.03	9.10	
2025-01-11 04:15:20.58	346.99	9.10	
2025-01-11 04:15:20.78	346.95	9.11	
2025-01-11 04:15:20.99	346.91	9.11	
2025-01-11 04:15:21.20	346.87	9.12	
2025-01-11 04:15:21.40	346.84	9.13	
2025-01-11 04:15:21.61	346.80	9.13	
2025-01-11 04:15:21.81	346.76	9.14	
2025-01-11 04:15:22.02	346.72	9.14	
2025-01-11 04:15:22.22	346.68	9.15	
2025-01-11 04:15:22.43	346.64	9.16	
2025-01-11 04:15:22.63	346.61	9.16	
2025-01-11 04:15:22.84	346.57	9.17	
2025-01-11 04:15:23.05	346.53	9.17	
2025-01-11 04:15:23.25	346.49	9.18	
2025-01-11 04:15:23.45	346.45	9.19	
2025-01-11 04:15:23.66	346.41	9.19	
2025-01-11 04:15:23.86	346.38	9.20	
2025-01-11 04:15:24.07	346.34	9.20	
2025-01-11 04:15:24.27	346.30	9.21	
2025-01-11 04:15:24.48	346.26	9.22	
2025-01-11 04:15:24.68	346.22	9.22	
2025-01-11 04:15:24.89	346.18	9.23	
2025-01-11 04:15:25.09	346.15	9.23	
2025-01-11 04:15:25.30	346.11	9.24	
2025-01-11 04:15:25.50	346.07	9.24	
2025-01-11 04:15:25.71	346.03	9.25	
2025-01-11 04:15:25.91	345.99	9.26	
2025-01-11 04:15:26.12	345.95	9.26	
2025-01-11 04:15:26.32	345.91	9.27	
2025-01-11 04:15:26.53	345.87	9.27	
2025-01-11 04:15:26.73	345.84	9.28	
2025-01-11 04:15:26.93	345.80	9.28	
2025-01-11 04:15:27.14	345.76	9.29	
2025-01-11 04:15:27.34	345.72	9.30	
2025-01-11 04:15:27.55	345.68	9.30	
2025-01-11 04:15:27.75	345.64	9.31	
2025-01-11 04:15:27.96	345.60	9.31	
2025-01-11 04:15:28.16	345.57	9.32	
2025-01-11 04:15:28.37	345.53	9.32	
2025-01-11 04:15:28.58	345.49	9.33	
2025-01-11 04:15:28.78	345.45	9.34	
2025-01-11 04:15:28.99	345.41	9.34	
2025-01-11 04:15:29.19	345.37	9.35	
2025-01-11 04:15:29.40	345.33	9.35	
2025-01-11 04:15:29.60	345.29	9.36	
2025-01-11 04:15:29.81	345.25	9.36	
2025-01-11 04:15:30.01	345.22	9.37	
2025-01-11 04:15:30.22	345.18	9.38	
2025-01-11 04:15:30.42	345.14	9.38	
2025-01-11 04:15:30.63	345.10	9.39	
2025-01-11 04:15:30.83	345.06	9.39	
2025-01-11 04:15:31.03	345.02	9.40	
2025-01-11 04:15:31.24	344.98	9.40	
2025-01-11 04:15:31.45	344.94	9.41	
2025-01-11 04:15:31.65	344.90	9.41	
2025-01-11 04:15:31.86	344.86	9.42	
2025-01-11 04:15:32.06	344.82	9.43	
2025-01-11 04:15:32.26	344.79	9.43	
2025-01-11 04:15:32.47	344.75	9.44	
2025-01-11 04:15:32.67	344.71	9.44	
2025-01-11 04:15:32.88	344.67	9.45	
2025-01-11 04:15:33.08	344.63	9.45	
2025-01-11 04:15:33.29	344.59	9.46	
2025-01-11 04:15:33.49	344.55	9.46	
2025-01-11 04:15:33.69	344.51	9.47	
2025-01-11 04:15:33.90	344.47	9.47	
2025-01-11 04:15:34.10	344.43	9.48	
2025-01-11 04:15:34.31	344.39	9.48	
2025-01-11 04:15:34.51	344.36	9.49	
2025-01-11 04:15:34.72	344.32	9.50	
2025-01-11 04:15:34.93	344.28	9.50	
2025-01-11 04:15:35.13	344.24	9.51	
2025-01-11 04:15:35.33	344.20	9.51	
2025-01-11 04:15:35.54	344.16	9.52	
2025-01-11 04:15:35.74	344.12	9.52	
2025-01-11 04:15:35.95	344.08	9.53	
2025-01-11 04:15:36.15	344.04	9.53	
2025-01-11 04:15:36.36	344.00	9.54	
2025-01-11 04:15:36.56	343.96	9.54	
2025-01-11 04:15:36.77	343.92	9.55	
2025-01-11 04:15:36.97	343.88	9.55	
2025-01-11 04:15:37.18	343.84	9.56	
2025-01-11 04:15:37.39	343.80	9.56	
2025-01-11 04:15:37.60	343.76	9.57	
2025-01-11 04:15:37.81	343.72	9.57	
2025-01-11 04:15:38.01	343.68	9.58	
2025-01-11 04:15:38.22	343.64	9.58	
2025-01-11 04:15:38.42	343.60	9.59	
2025-01-11 04:15:38.62	343.56	9.60	
2025-01-11 04:15:38.83	343.52	9.60	
2025-01-11 04:15:39.04	343.48	9.61	
2025-01-11 04:15:39.24	343.44	9.61	
2025-01-11 04:15:39.44	343.41	9.62	
2025-01-11 04:15:39.65	343.37	9.62	
2025-01-11 04:15:39.86	343.32	9.63	
2025-01-11 04:15:40.06	343.29	9.63	
2025-01-11 04:15:40.27	343.25	9.64	
2025-01-11 04:15:40.47	343.21	9.64	
2025-01-11 04:15:40.67	343.17	9.65	
2025-01-11 04:15:40.88	343.13	9.65	
2025-01-11 04:15:41.09	343.09	9.66	
2025-01-11 04:15:41.29	343.05	9.66	
2025-01-11 04:15:41.50	343.01	9.67	
2025-01-11 04:15:41.70	342.97	9.67	
2025-01-11 04:15:41.90	342.93	9.68	
2025-01-11 04:15:42.11	342.89	9.68	
2025-01-11 04:15:42.32	342.85	9.69	
2025-01-11 04:15:42.52	342.81	9.69	
2025-01-11 04:15:42.73	342.77	9.70	
2025-01-11 04:15:42.93	342.73	9.70	
2025-01-11 04:15:43.14	342.69	9.71	
2025-01-11 04:15:43.34	342.65	9.71	
2025-01-11 04:15:43.55	342.61	9.72	
2025-01-11 04:15:43.75	342.57	9.72	
2025-01-11 04:15:43.96	342.53	9.72	
2025-01-11 04:15:44.16	342.49	9.73	
2025-01-11 04:15:44.37	342.45	9.73	
2025-01-11 04:15:44.58	342.41	9.74	
2025-01-11 04:15:44.78	342.37	9.74	
2025-01-11 04:15:44.98	342.33	9.75	
2025-01-11 04:15:45.19	342.29	9.75	
2025-01-11 04:15:45.39	342.25	9.76	
2025-01-11 04:15:45.60	342.21	9.76	
2025-01-11 04:15:45.80	342.17	9.77	
2025-01-11 04:15:46.01	342.13	9.77	
2025-01-11 04:15:46.22	342.09	9.78	
2025-01-11 04:15:46.42	342.05	9.78	
2025-01-11 04:15:46.64	342.00	9.79	
2025-01-11 04:15:46.84	341.96	9.79	
2025-01-11 04:15:47.05	341.92	9.80	
2025-01-11 04:15:47.25	341.88	9.80	
2025-01-11 04:15:47.45	341.84	9.81	
2025-01-11 04:15:47.66	341.80	9.81	
2025-01-11 04:15:47.87	341.76	9.81	
2025-01-11 04:15:48.07	341.72	9.82	
2025-01-11 04:15:48.27	341.68	9.82	
2025-01-11 04:15:48.48	341.64	9.83	
2025-01-11 04:15:48.69	341.60	9.83	
2025-01-11 04:15:48.89	341.56	9.84	
2025-01-11 04:15:49.10	341.52	9.84	
2025-01-11 04:15:49.30	341.48	9.85	
2025-01-11 04:15:49.51	341.44	9.85	
2025-01-11 04:15:49.71	341.40	9.86	
2025-01-11 04:15:49.92	341.36	9.86	
2025-01-11 04:15:50.12	341.32	9.86	
2025-01-11 04:15:50.33	341.28	9.87	
2025-01-11 04:15:50.53	341.24	9.87	
2025-01-11 04:15:50.74	341.20	9.88	
2025-01-11 04:15:50.95	341.15	9.88	
2025-01-11 04:15:51.15	341.12	9.89	
2025-01-11 04:15:51.35	341.08	9.89	
2025-01-11 04:15:51.56	341.03	9.90	
2025-01-11 04:15:51.76	340.99	9.90	
2025-01-11 04:15:51.97	340.95	9.90	
2025-01-11 04:15:52.18	340.91	9.91	
2025-01-11 04:15:52.38	340.87	9.91	
2025-01-11 04:15:52.59	340.83	9.92	
2025-01-11 04:15:52.79	340.79	9.92	
2025-01-11 04:15:53.00	340.75	9.93	
2025-01-11 04:15:53.20	340.71	9.93	
2025-01-11 04:15:53.41	340.67	9.94	
2025-01-11 04:15:53.61	340.63	9.94	
2025-01-11 04:15:53.81	340.59	9.94	
2025-01-11 04:15:54.02	340.55	9.95	
2025-01-11 04:15:54.23	340.51	9.95	
2025-01-11 04:15:54.43	340.47	9.96	
2025-01-11 04:15:54.63	340.43	9.96	
2025-01-11 04:15:54.84	340.38	9.96	
2025-01-11 04:15:55.04	340.34	9.97	
2025-01-11 04:15:55.25	340.30	9.97	
2025-01-11 04:15:55.45	340.26	9.98	
2025-01-11 04:15:55.66	340.22	9.98	
2025-01-11 04:15:55.86	340.18	9.99	
2025-01-11 04:15:56.07	340.14	9.99	
2025-01-11 04:15:56.28	340.10	9.99	
2025-01-11 04:15:56.48	340.06	10.00	
2025-01-11 04:15:56.68	340.02	10.00	
2025-01-11 04:15:56.89	339.98	10.01	
2025-01-11 04:15:57.09	339.94	10.01	
2025-01-11 04:15:57.30	339.89	10.01	
2025-01-11 04:15:57.51	339.85	10.02	
2025-01-11 04:15:57.71	339.81	10.02	
2025-01-11 04:15:57.91	339.77	10.03	
2025-01-11 04:15:58.12	339.73	10.03	
2025-01-11 04:15:58.32	339.69	10.03	
2025-01-11 04:15:58.53	339.65	10.04	
2025-01-11 04:15:58.73	339.61	10.04	
2025-01-11 04:15:58.94	339.57	10.05	
2025-01-11 04:15:59.15	339.52	10.05	
2025-01-11 04:15:59.35	339.48	10.05	
2025-01-11 04:15:59.56	339.44	10.06	
2025-01-11 04:15:59.76	339.40	10.06	
2025-01-11 04:15:59.96	339.36	10.07	
2025-01-11 04:16:00.17	339.32	10.07	
2025-01-11 04:16:00.37	339.28	10.07	
2025-01-11 04:16:00.58	339.24	10.08	
2025-01-11 04:16:00.78	339.20	10.08	
2025-01-11 04:16:00.99	339.16	10.09	
2025-01-11 04:16:01.19	339.12	10.09	
2025-01-11 04:16:01.40	339.07	10.09	
2025-01-11 04:16:01.60	339.03	10.10	
2025-01-11 04:16:01.81	338.99	10.10	
2025-01-11 04:16:02.01	338.95	10.10	
2025-01-11 04:16:02.22	338.91	10.11	
2025-01-11 04:16:02.42	338.87	10.11	
2025-01-11 04:16:02.63	338.83	10.12	
2025-01-11 04:16:02.84	338.78	10.12	
2025-01-11 04:16:03.04	338.74	10.12	
2025-01-11 04:16:03.25	338.70	10.13	
2025-01-11 04:16:03.45	338.66	10.13	
2025-01-11 04:16:03.66	338.62	10.13	
2025-01-11 04:16:03.86	338.58	10.14	
2025-01-11 04:16:04.07	338.54	10.14	
2025-01-11 04:16:04.27	338.50	10.14	
2025-01-11 04:16:04.48	338.45	10.15	
2025-01-11 04:16:04.68	338.41	10.15	
2025-01-11 04:16:04.89	338.37	10.16	
2025-01-11 04:16:05.09	338.33	10.16	
2025-01-11 04:16:05.30	338.29	10.16	
2025-01-11 04:16:05.50	338.25	10.17	
2025-01-11 04:16:05.71	338.21	10.17	
2025-01-11 04:16:05.91	338.17	10.17	
2025-01-11 04:16:06.12	338.12	10.18	
2025-01-11 04:16:06.32	338.08	10.18	
2025-01-11 04:16:06.53	338.04	10.18	
2025-01-11 04:16:06.73	338.00	10.19	
2025-01-11 04:16:06.94	337.96	10.19	
2025-01-11 04:16:07.14	337.92	10.19	
2025-01-11 04:16:07.35	337.88	10.20	
2025-01-11 04:16:07.55	337.83	10.20	
2025-01-11 04:16:07.76	337.79	10.20	
2025-01-11 04:16:07.96	337.75	10.21	
2025-01-11 04:16:08.17	337.71	10.21	
2025-01-11 04:16:08.37	337.67	10.21	
2025-01-11 04:16:08.58	337.63	10.22	
2025-01-11 04:16:08.78	337.59	10.22	
2025-01-11 04:16:08.99	337.54	10.22	
2025-01-11 04:16:09.19	337.50	10.23	
2025-01-11 04:16:09.40	337.46	10.23	
2025-01-11 04:16:09.60	337.42	10.23	
2025-01-11 04:16:09.81	337.38	10.24	
2025-01-11 04:16:10.01	337.34	10.24	
2025-01-11 04:16:10.22	337.29	10.24	
2025-01-11 04:16:10.42	337.25	10.25	
2025-01-11 04:16:10.63	337.21	10.25	
2025-01-11 04:16:10.83	337.17	10.25	
2025-01-11 04:16:11.04	337.13	10.26	
2025-01-11 04:16:11.24	337.09	10.26	
2025-01-11 04:16:11.45	337.04	10.26	
2025-01-11 04:16:11.65	337.00	10.27	
2025-01-11 04:16:11.86	336.96	10.27	
2025-01-11 04:16:12.06	336.92	10.27	
2025-01-11 04:16:12.27	336.88	10.28	
2025-01-11 04:16:12.47	336.84	10.28	
2025-01-11 04:16:12.68	336.79	10.28	
2025-01-11 04:16:12.88	336.75	10.29	
2025-01-11 04:16:13.09	336.71	10.29	
2025-01-11 04:16:13.29	336.67	10.29	
2025-01-11 04:16:13.50	336.63	10.29	
2025-01-11 04:16:13.70	336.59	10.30	
2025-01-11 04:16:13.91	336.54	10.30	
2025-01-11 04:16:14.11	336.50	10.30	
2025-01-11 04:16:14.32	336.46	10.31	
2025-01-11 04:16:14.52	336.42	10.31	
2025-01-11 04:16:14.72	336.38	10.31	
2025-01-11 04:16:14.93	336.33	10.32	
2025-01-11 04:16:15.14	336.29	10.32	
2025-01-11 04:16:15.34	336.25	10.32	
2025-01-11 04:16:15.55	336.21	10.32	
2025-01-11 04:16:15.75	336.17	10.33	
2025-01-11 04:16:15.96	336.12	10.33	
2025-01-11 04:16:16.16	336.08	10.33	
2025-01-11 04:16:16.37	336.04	10.34	
2025-01-11 04:16:16.57	336.00	10.34	
2025-01-11 04:16:16.77	335.96	10.34	
2025-01-11 04:16:16.98	335.92	10.34	
2025-01-11 04:16:17.18	335.88	10.35	
2025-01-11 04:16:17.39	335.83	10.35	
2025-01-11 04:16:17.59	335.79	10.35	
2025-01-11 04:16:17.80	335.75	10.36	
2025-01-11 04:16:18.01	335.71	10.36	
2025-01-11 04:16:18.21	335.66	10.36	
2025-01-11 04:16:18.42	335.62	10.36	
2025-01-11 04:16:18.62	335.58	10.37	
2025-01-11 04:16:18.83	335.54	10.37	
2025-01-11 04:16:19.04	335.49	10.37	
2025-01-11 04:16:19.25	335.45	10.37	
2025-01-11 04:16:19.45	335.41	10.38	
2025-01-11 04:16:19.66	335.37	10.38	
2025-01-11 04:16:19.86	335.33	10.38	
2025-01-11 04:16:20.07	335.28	10.38	
2025-01-11 04:16:20.27	335.24	10.39	
2025-01-11 04:16:20.48	335.20	10.39	
2025-01-11 04:16:20.68	335.16	10.39	
2025-01-11 04:16:20.89	335.11	10.39	
2025-01-11 04:16:21.09	335.07	10.40	
2025-01-11 04:16:21.30	335.03	10.40	
2025-01-11 04:16:21.50	334.99	10.40	
2025-01-11 04:16:21.71	334.95	10.40	
2025-01-11 04:16:21.92	334.90	10.41	
2025-01-11 04:16:22.12	334.86	10.41	
2025-01-11 04:16:22.32	334.82	10.41	
2025-01-11 04:16:22.53	334.78	10.41	
2025-01-11 04:16:22.73	334.74	10.42	
2025-01-11 04:16:22.94	334.69	10.42	
2025-01-11 04:16:23.14	334.65	10.42	
2025-01-11 04:16:23.35	334.61	10.42	
2025-01-11 04:16:23.55	334.57	10.43	
2025-01-11 04:16:23.76	334.52	10.43	
2025-01-11 04:16:23.96	334.48	10.43	
2025-01-11 04:16:24.17	334.44	10.43	
2025-01-11 04:16:24.37	334.40	10.44	
2025-01-11 04:16:24.58	334.36	10.44	
2025-01-11 04:16:24.78	334.31	10.44	
2025-01-11 04:16:24.99	334.27	10.44	
2025-01-11 04:16:25.19	334.23	10.45	
2025-01-11 04:16:25.39	334.19	10.45	
2025-01-11 04:16:25.60	334.15	10.45	
2025-01-11 04:16:25.80	334.10	10.45	
2025-01-11 04:16:26.01	334.06	10.45	
2025-01-11 04:16:26.22	334.02	10.46	
2025-01-11 04:16:26.42	333.98	10.46	
2025-01-11 04:16:26.62	333.94	10.46	
2025-01-11 04:16:26.83	333.89	10.46	
2025-01-11 04:16:27.04	333.85	10.46	
2025-01-11 04:16:27.24	333.81	10.47	
2025-01-11 04:16:27.45	333.76	10.47	
2025-01-11 04:16:27.65	333.72	10.47	
2025-01-11 04:16:27.86	333.68	10.47	
2025-01-11 04:16:28.06	333.64	10.48	
2025-01-11 04:16:28.27	333.59	10.48	
2025-01-11 04:16:28.47	333.55	10.48	
2025-01-11 04:16:28.68	333.51	10.48	
2025-01-11 04:16:28.88	333.47	10.48	
2025-01-11 04:16:29.09	333.43	10.49	
2025-01-11 04:16:29.29	333.38	10.49	
2025-01-11 04:16:29.50	333.34	10.49	
2025-01-11 04:16:29.70	333.30	10.49	
2025-01-11 04:16:29.90	333.26	10.49	
2025-01-11 04:16:30.11	333.21	10.50	
2025-01-11 04:16:30.31	333.17	10.50	
2025-01-11 04:16:30.52	333.13	10.50	
2025-01-11 04:16:30.72	333.09	10.50	
2025-01-11 04:16:30.93	333.04	10.50	
2025-01-11 04:16:31.14	333.00	10.50	
2025-01-11 04:16:31.34	332.96	10.51	
2025-01-11 04:16:31.55	332.92	10.51	
2025-01-11 04:16:31.75	332.87	10.51	
2025-01-11 04:16:31.96	332.83	10.51	
2025-01-11 04:16:32.16	332.79	10.51	
2025-01-11 04:16:32.37	332.75	10.52	
2025-01-11 04:16:32.58	332.70	10.52	
2025-01-11 04:16:32.78	332.66	10.52	
2025-01-11 04:16:32.99	332.62	10.52	
2025-01-11 04:16:33.19	332.58	10.52	
2025-01-11 04:16:33.40	332.53	10.52	
2025-01-11 04:16:33.60	332.49	10.53	
2025-01-11 04:16:33.80	332.45	10.53	
2025-01-11 04:16:34.01	332.41	10.53	
2025-01-11 04:16:34.22	332.36	10.53	
2025-01-11 04:16:34.42	332.32	10.53	
2025-01-11 04:16:34.63	332.28	10.53	
2025-01-11 04:16:34.83	332.24	10.54	
2025-01-11 04:16:35.04	332.19	10.54	
2025-01-11 04:16:35.24	332.15	10.54	
2025-01-11 04:16:35.45	332.11	10.54	
2025-01-11 04:16:35.65	332.07	10.54	
2025-01-11 04:16:35.86	332.02	10.54	
2025-01-11 04:16:36.06	331.98	10.54	
2025-01-11 04:16:36.27	331.94	10.55	
2025-01-11 04:16:36.47	331.90	10.55	
2025-01-11 04:16:36.68	331.85	10.55	
2025-01-11 04:16:36.88	331.81	10.55	
2025-01-11 04:16:37.09	331.77	10.55	
2025-01-11 04:16:37.29	331.73	10.55	
2025-01-11 04:16:37.50	331.68	10.55	
2025-01-11 04:16:37.70	331.64	10.56	
2025-01-11 04:16:37.91	331.60	10.56	
2025-01-11 04:16:38.11	331.55	10.56	
2025-01-11 04:16:38.32	331.51	10.56	
2025-01-11 04:16:38.52	331.47	10.56	
2025-01-11 04:16:38.73	331.43	10.56	
2025-01-11 04:16:38.93	331.38	10.56	
2025-01-11 04:16:39.14	331.34	10.57	
2025-01-11 04:16:39.34	331.30	10.57	
2025-01-11 04:16:39.55	331.26	10.57	
2025-01-11 04:16:39.75	331.21	10.57	
2025-01-11 04:16:39.95	331.17	10.57	
2025-01-11 04:16:40.16	331.13	10.57	
2025-01-11 04:16:40.36	331.09	10.57	
2025-01-11 04:16:40.57	331.04	10.57	
2025-01-11 04:16:40.78	331.00	10.58	
2025-01-11 04:16:40.98	330.96	10.58	
2025-01-11 04:16:41.19	330.91	10.58	
2025-01-11 04:16:41.39	330.87	10.58	
2025-01-11 04:16:41.60	330.83	10.58	
2025-01-11 04:16:41.80	330.79	10.58	
2025-01-11 04:16:42.01	330.74	10.58	
2025-01-11 04:16:42.21	330.70	10.58	
2025-01-11 04:16:42.43	330.66	10.58	
2025-01-11 04:16:42.63	330.61	10.59	
2025-01-11 04:16:42.84	330.57	10.59	
2025-01-11 04:16:43.04	330.53	10.59	
2025-01-11 04:16:43.25	330.49	10.59	
2025-01-11 04:16:43.46	330.44	10.59	
2025-01-11 04:16:43.67	330.40	10.59	
2025-01-11 04:16:43.87	330.36	10.59	
2025-01-11 04:16:44.08	330.31	10.59	
2025-01-11 04:16:44.28	330.27	10.59	
2025-01-11 04:16:44.49	330.23	10.59	
2025-01-11 04:16:44.69	330.18	10.60	
2025-01-11 04:16:44.90	330.14	10.60	
2025-01-11 04:16:45.10	330.10	10.60	
2025-01-11 04:16:45.31	330.06	10.60	
2025-01-11 04:16:45.52	330.01	10.60	
2025-01-11 04:16:45.72	329.97	10.60	
2025-01-11 04:16:45.92	329.93	10.60	
2025-01-11 04:16:46.13	329.88	10.60	
2025-01-11 04:16:46.33	329.84	10.60	
2025-01-11 04:16:46.54	329.80	10.60	
2025-01-11 04:16:46.76	329.75	10.60	
2025-01-11 04:16:46.96	329.71	10.60	
2025-01-11 04:16:47.17	329.67	10.60	
2025-01-11 04:16:47.37	329.63	10.61	
2025-01-11 04:16:47.58	329.58	10.61	
2025-01-11 04:16:47.78	329.54	10.61	
2025-01-11 04:16:47.99	329.50	10.61	
2025-01-11 04:16:48.19	329.45	10.61	
2025-01-11 04:16:48.40	329.41	10.61	
2025-01-11 04:16:48.60	329.37	10.61	
2025-01-11 04:16:48.81	329.33	10.61	
2025-01-11 04:16:49.01	329.28	10.61	
2025-01-11 04:16:49.22	329.24	10.61	
2025-01-11 04:16:49.42	329.20	10.61	
2025-01-11 04:16:49.63	329.15	10.61	
2025-01-11 04:16:49.83	329.11	10.61	
2025-01-11 04:16:50.04	329.07	10.61	
2025-01-11 04:16:50.24	329.03	10.61	
2025-01-11 04:16:50.45	328.98	10.61	
2025-01-11 04:16:50.65	328.94	10.62	
2025-01-11 04:16:50.86	328.90	10.62	
2025-01-11 04:16:51.06	328.86	10.62	
2025-01-11 04:16:51.27	328.81	10.62	
2025-01-11 04:16:51.47	328.77	10.62	
2025-01-11 04:16:51.68	328.73	10.62	
2025-01-11 04:16:51.88	328.68	10.62	
2025-01-11 04:16:52.10	328.64	10.62	
2025-01-11 04:16:52.31	328.59	10.62	
2025-01-11 04:16:52.51	328.55	10.62	
2025-01-11 04:16:52.72	328.51	10.62	
2025-01-11 04:16:52.92	328.47	10.62	
2025-01-11 04:16:53.12	328.43	10.62	
2025-01-11 04:16:53.33	328.38	10.62	
2025-01-11 04:16:53.53	328.34	10.62	
2025-01-11 04:16:53.74	328.30	10.62	
2025-01-11 04:16:53.95	328.25	10.62	
2025-01-11 04:16:54.15	328.21	10.62	
2025-01-11 04:16:54.35	328.17	10.62	
2025-01-11 04:16:54.56	328.12	10.62	
2025-01-11 04:16:54.76	328.08	10.62	
2025-01-11 04:16:54.97	328.04	10.62	
2025-01-11 04:16:55.17	328.00	10.62	
2025-01-11 04:16:55.38	327.95	10.62	
2025-01-11 04:16:55.58	327.91	10.62	
2025-01-11 04:16:55.79	327.87	10.62	
2025-01-11 04:16:55.99	327.83	10.62	
2025-01-11 04:16:56.20	327.78	10.62	
2025-01-11 04:16:56.40	327.74	10.62	
2025-01-11 04:16:56.61	327.70	10.62	
2025-01-11 04:16:56.82	327.65	10.62	
2025-01-11 04:16:57.02	327.61	10.62	
2025-01-11 04:16:57.23	327.57	10.62	
2025-01-11 04:16:57.43	327.53	10.62	
2025-01-11 04:16:57.64	327.48	10.62	
2025-01-11 04:16:57.84	327.44	10.62	
2025-01-11 04:16:58.05	327.40	10.62	
2025-01-11 04:16:58.25	327.35	10.62	
2025-01-11 04:16:58.46	327.31	10.62	
2025-01-11 04:16:58.66	327.27	10.62	
2025-01-11 04:16:58.87	327.22	10.62	
2025-01-11 04:16:59.07	327.18	10.62	
2025-01-11 04:16:59.28	327.14	10.62	
2025-01-11 04:16:59.49	327.09	10.62	
2025-01-11 04:16:59.69	327.05	10.62	
2025-01-11 04:16:59.90	327.01	10.62	
2025-01-11 04:17:00.10	326.97	10.62	
2025-01-11 04:17:00.31	326.92	10.62	
2025-01-11 04:17:00.51	326.88	10.62	
2025-01-11 04:17:00.71	326.84	10.62	
2025-01-11 04:17:00.92	326.80	10.62	
2025-01-11 04:17:01.13	326.75	10.62	
2025-01-11 04:17:01.33	326.71	10.62	
2025-01-11 04:17:01.54	326.67	10.62	
2025-01-11 04:17:01.74	326.62	10.62	
2025-01-11 04:17:01.95	326.58	10.62	
2025-01-11 04:17:02.15	326.54	10.62	
2025-01-11 04:17:02.36	326.50	10.62	
2025-01-11 04:17:02.57	326.45	10.62	
2025-01-11 04:17:02.77	326.41	10.62	
2025-01-11 04:17:02.97	326.37	10.62	
2025-01-11 04:17:03.18	326.32	10.62	
2025-01-11 04:17:03.39	326.28	10.62	
2025-01-11 04:17:03.59	326.24	10.62	
2025-01-11 04:17:03.79	326.20	10.62	
2025-01-11 04:17:04.00	326.15	10.62	
2025-01-11 04:17:04.21	326.11	10.61	
2025-01-11 04:17:04.41	326.07	10.61	
2025-01-11 04:17:04.62	326.02	10.61	
2025-01-11 04:17:04.84	325.98	10.61	
2025-01-11 04:17:05.04	325.94	10.61	
2025-01-11 04:17:05.25	325.89	10.61	
2025-01-11 04:17:05.45	325.85	10.61	
2025-01-11 04:17:05.66	325.81	10.61	
2025-01-11 04:17:05.86	325.76	10.61	
2025-01-11 04:17:06.07	325.72	10.61	
2025-01-11 04:17:06.27	325.68	10.61	
2025-01-11 04:17:06.48	325.63	10.61	
2025-01-11 04:17:06.68	325.59	10.61	
2025-01-11 04:17:06.89	325.55	10.61	
2025-01-11 04:17:07.09	325.51	10.61	
2025-01-11 04:17:07.30	325.46	10.61	
2025-01-11 04:17:07.50	325.42	10.61	
2025-01-11 04:17:07.71	325.38	10.60	
2025-01-11 04:17:07.92	325.33	10.60	
2025-01-11 04:17:08.12	325.29	10.60	
2025-01-11 04:17:08.33	325.25	10.60	
2025-01-11 04:17:08.53	325.21	10.60	
2025-01-11 04:17:08.74	325.16	10.60	
2025-01-11 04:17:08.94	325.12	10.60	
2025-01-11 04:17:09.16	325.08	10.60	
2025-01-11 04:17:09.37	325.03	10.60	
2025-01-11 04:17:09.57	324.99	10.60	
2025-01-11 04:17:09.78	324.95	10.60	
2025-01-11 04:17:09.98	324.90	10.60	
2025-01-11 04:17:10.19	324.86	10.59	
2025-01-11 04:17:10.39	324.82	10.59	
2025-01-11 04:17:10.60	324.78	10.59	
2025-01-11 04:17:10.80	324.73	10.59	
2025-01-11 04:17:11.01	324.69	10.59	
2025-01-11 04:17:11.23	324.64	10.59	
2025-01-11 04:17:11.43	324.60	10.59	
2025-01-11 04:17:11.64	324.56	10.59	
2025-01-11 04:17:11.84	324.52	10.59	
2025-01-11 04:17:12.05	324.47	10.59	
2025-01-11 04:17:12.25	324.43	10.58	
2025-01-11 04:17:12.45	324.39	10.58	
2025-01-11 04:17:12.66	324.35	10.58	
2025-01-11 04:17:12.87	324.30	10.58	
2025-01-11 04:17:13.07	324.26	10.58	
2025-01-11 04:17:13.28	324.22	10.58	
2025-01-11 04:17:13.48	324.17	10.58	
2025-01-11 04:17:13.68	324.13	10.58	
2025-01-11 04:17:13.89	324.09	10.58	
2025-01-11 04:17:14.10	324.05	10.57	
2025-01-11 04:17:14.30	324.00	10.57	
2025-01-11 04:17:14.50	323.96	10.57	
2025-01-11 04:17:14.71	323.92	10.57	
2025-01-11 04:17:14.92	323.88	10.57	
2025-01-11 04:17:15.12	323.83	10.57	
2025-01-11 04:17:15.33	323.79	10.57	
2025-01-11 04:17:15.53	323.75	10.57	
2025-01-11 04:17:15.74	323.70	10.56	
2025-01-11 04:17:15.94	323.66	10.56	
2025-01-11 04:17:16.15	323.62	10.56	
2025-01-11 04:17:16.35	323.58	10.56	
2025-01-11 04:17:16.55	323.54	10.56	
2025-01-11 04:17:16.76	323.49	10.56	
2025-01-11 04:17:16.97	323.45	10.56	
2025-01-11 04:17:17.17	323.41	10.56	
2025-01-11 04:17:17.38	323.36	10.55	
2025-01-11 04:17:17.58	323.32	10.55	
2025-01-11 04:17:17.79	323.28	10.55	
2025-01-11 04:17:17.99	323.24	10.55	
2025-01-11 04:17:18.20	323.19	10.55	
2025-01-11 04:17:18.40	323.15	10.55	
2025-01-11 04:17:18.60	323.11	10.54	
2025-01-11 04:17:18.81	323.07	10.54	
2025-01-11 04:17:19.02	323.02	10.54	
2025-01-11 04:17:19.22	322.98	10.54	
2025-01-11 04:17:19.43	322.94	10.54	
2025-01-11 04:17:19.63	322.90	10.54	
2025-01-11 04:17:19.84	322.85	10.54	
2025-01-11 04:17:20.04	322.81	10.53	
2025-01-11 04:17:20.25	322.77	10.53	
2025-01-11 04:17:20.45	322.73	10.53	
2025-01-11 04:17:20.66	322.68	10.53	
2025-01-11 04:17:20.86	322.64	10.53	
2025-01-11 04:17:21.06	322.60	10.53	
2025-01-11 04:17:21.27	322.56	10.52	
2025-01-11 04:17:21.47	322.51	10.52	
2025-01-11 04:17:21.68	322.47	10.52	
2025-01-11 04:17:21.88	322.43	10.52	
2025-01-11 04:17:22.09	322.39	10.52	
2025-01-11 04:17:22.29	322.34	10.52	
2025-01-11 04:17:22.50	322.30	10.51	
2025-01-11 04:17:22.70	322.26	10.51	
2025-01-11 04:17:22.91	322.22	10.51	
2025-01-11 04:17:23.11	322.17	10.51	
2025-01-11 04:17:23.32	322.13	10.51	
2025-01-11 04:17:23.52	322.09	10.50	
2025-01-11 04:17:23.73	322.05	10.50	
2025-01-11 04:17:23.93	322.00	10.50	
2025-01-11 04:17:24.13	321.96	10.50	
2025-01-11 04:17:24.34	321.92	10.50	
2025-01-11 04:17:24.55	321.88	10.50	
2025-01-11 04:17:24.76	321.83	10.49	
2025-01-11 04:17:24.97	321.79	10.49	
2025-01-11 04:17:25.17	321.75	10.49	
2025-01-11 04:17:25.38	321.70	10.49	
2025-01-11 04:17:25.58	321.66	10.49	
2025-01-11 04:17:25.79	321.62	10.48	
2025-01-11 04:17:26.00	321.58	10.48	
2025-01-11 04:17:26.20	321.53	10.48	
2025-01-11 04:17:26.40	321.49	10.48	
2025-01-11 04:17:26.61	321.45	10.48	
2025-01-11 04:17:26.81	321.41	10.47	
2025-01-11 04:17:27.02	321.36	10.47	
2025-01-11 04:17:27.22	321.32	10.47	
2025-01-11 04:17:27.43	321.28	10.47	
2025-01-11 04:17:27.64	321.24	10.46	
2025-01-11 04:17:27.84	321.20	10.46	
2025-01-11 04:17:28.05	321.15	10.46	
2025-01-11 04:17:28.25	321.11	10.46	
2025-01-11 04:17:28.45	321.07	10.46	
2025-01-11 04:17:28.66	321.03	10.45	
2025-01-11 04:17:28.86	320.98	10.45	
2025-01-11 04:17:29.07	320.94	10.45	
2025-01-11 04:17:29.27	320.90	10.45	
2025-01-11 04:17:29.48	320.86	10.45	
2025-01-11 04:17:29.68	320.82	10.44	
2025-01-11 04:17:29.89	320.77	10.44	
2025-01-11 04:17:30.09	320.73	10.44	
2025-01-11 04:17:30.30	320.69	10.44	
2025-01-11 04:17:30.50	320.65	10.43	
2025-01-11 04:17:30.71	320.60	10.43	
2025-01-11 04:17:30.91	320.56	10.43	
2025-01-11 04:17:31.12	320.52	10.43	
2025-01-11 04:17:31.32	320.48	10.42	
2025-01-11 04:17:31.52	320.44	10.42	
2025-01-11 04:17:31.73	320.39	10.42	
2025-01-11 04:17:31.94	320.35	10.42	
2025-01-11 04:17:32.14	320.31	10.42	
2025-01-11 04:17:32.34	320.27	10.41	
2025-01-11 04:17:32.55	320.22	10.41	
2025-01-11 04:17:32.75	320.18	10.41	
2025-01-11 04:17:32.96	320.14	10.41	
2025-01-11 04:17:33.16	320.10	10.40	
2025-01-11 04:17:33.37	320.06	10.40	
2025-01-11 04:17:33.58	320.01	10.40	
2025-01-11 04:17:33.79	319.97	10.40	
2025-01-11 04:17:33.99	319.93	10.39	
2025-01-11 04:17:34.20	319.88	10.39	
2025-01-11 04:17:34.40	319.84	10.39	
2025-01-11 04:17:34.61	319.80	10.38	
2025-01-11 04:17:34.81	319.76	10.38	
2025-01-11 04:17:35.02	319.72	10.38	
2025-01-11 04:17:35.22	319.68	10.38	
2025-01-11 04:17:35.43	319.63	10.37	
2025-01-11 04:17:35.64	319.59	10.37	
2025-01-11 04:17:35.85	319.55	10.37	
2025-01-11 04:17:36.06	319.50	10.37	
2025-01-11 04:17:36.27	319.46	10.36	
2025-01-11 04:17:36.47	319.42	10.36	
2025-01-11 04:17:36.68	319.38	10.36	
2025-01-11 04:17:36.88	319.33	10.36	
2025-01-11 04:17:37.09	319.29	10.35	
2025-01-11 04:17:37.29	319.25	10.35	
2025-01-11 04:17:37.50	319.21	10.35	
2025-01-11 04:17:37.70	319.17	10.34	
2025-01-11 04:17:37.90	319.13	10.34	
2025-01-11 04:17:38.11	319.08	10.34	
2025-01-11 04:17:38.31	319.04	10.34	
2025-01-11 04:17:38.52	319.00	10.33	
2025-01-11 04:17:38.73	318.96	10.33	
2025-01-11 04:17:38.93	318.92	10.33	
2025-01-11 04:17:39.13	318.87	10.32	
2025-01-11 04:17:39.34	318.83	10.32	
2025-01-11 04:17:39.55	318.79	10.32	
2025-01-11 04:17:39.75	318.75	10.32	
2025-01-11 04:17:39.96	318.70	10.31	
2025-01-11 04:17:40.16	318.66	10.31	
2025-01-11 04:17:40.37	318.62	10.31	
2025-01-11 04:17:40.57	318.58	10.30	
2025-01-11 04:17:40.78	318.54	10.30	
2025-01-11 04:17:40.98	318.50	10.30	
2025-01-11 04:17:41.20	318.45	10.29	
2025-01-11 04:17:41.40	318.41	10.29	
2025-01-11 04:17:41.61	318.37	10.29	
2025-01-11 04:17:41.81	318.33	10.29	
2025-01-11 04:17:42.02	318.28	10.28	
2025-01-11 04:17:42.22	318.24	10.28	
2025-01-11 04:17:42.43	318.20	10.28	
2025-01-11 04:17:42.63	318.16	10.27	
2025-01-11 04:17:42.84	318.12	10.27	
2025-01-11 04:17:43.04	318.08	10.27	
2025-01-11 04:17:43.25	318.03	10.26	
2025-01-11 04:17:43.45	317.99	10.26	
2025-01-11 04:17:43.66	317.95	10.26	
2025-01-11 04:17:43.86	317.91	10.25	
2025-01-11 04:17:44.07	317.87	10.25	
2025-01-11 04:17:44.27	317.83	10.25	
2025-01-11 04:17:44.48	317.78	10.24	
2025-01-11 04:17:44.68	317.74	10.24	
2025-01-11 04:17:44.89	317.70	10.24	
2025-01-11 04:17:45.09	317.66	10.23	
2025-01-11 04:17:45.30	317.62	10.23	
2025-01-11 04:17:45.50	317.58	10.23	
2025-01-11 04:17:45.71	317.53	10.22	
2025-01-11 04:17:45.91	317.49	10.22	
2025-01-11 04:17:46.12	317.45	10.22	
2025-01-11 04:17:46.32	317.41	10.21	
2025-01-11 04:17:46.53	317.37	10.21	
2025-01-11 04:17:46.73	317.33	10.21	
2025-01-11 04:17:46.94	317.28	10.20	
2025-01-11 04:17:47.14	317.24	10.20	
2025-01-11 04:17:47.35	317.20	10.20	
2025-01-11 04:17:47.55	317.16	10.19	
2025-01-11 04:17:47.76	317.12	10.19	
2025-01-11 04:17:47.96	317.08	10.19	
2025-01-11 04:17:48.17	317.04	10.18	
2025-01-11 04:17:48.37	316.99	10.18	
2025-01-11 04:17:48.58	316.95	10.18	
2025-01-11 04:17:48.78	316.91	10.17	
2025-01-11 04:17:48.99	316.87	10.17	
2025-01-11 04:17:49.19	316.83	10.17	
2025-01-11 04:17:49.40	316.79	10.16	
2025-01-11 04:17:49.60	316.75	10.16	
2025-01-11 04:17:49.81	316.70	10.16	
2025-01-11 04:17:50.01	316.66	10.15	
2025-01-11 04:17:50.22	316.62	10.15	
2025-01-11 04:17:50.42	316.58	10.14	
2025-01-11 04:17:50.63	316.54	10.14	
2025-01-11 04:17:50.83	316.50	10.14	
2025-01-11 04:17:51.04	316.46	10.13	
2025-01-11 04:17:51.24	316.41	10.13	
2025-01-11 04:17:51.45	316.37	10.13	
2025-01-11 04:17:51.65	316.33	10.12	
2025-01-11 04:17:51.87	316.29	10.12	
2025-01-11 04:17:52.07	316.25	10.12	
2025-01-11 04:17:52.28	316.21	10.11	
2025-01-11 04:17:52.48	316.17	10.11	
2025-01-11 04:17:52.69	316.12	10.10	
2025-01-11 04:17:52.89	316.08	10.10	
2025-01-11 04:17:53.10	316.04	10.10	
2025-01-11 04:17:53.30	316.00	10.09	
2025-01-11 04:17:53.51	315.96	10.09	
2025-01-11 04:17:53.72	315.92	10.08	
2025-01-11 04:17:53.92	315.88	10.08	
2025-01-11 04:17:54.13	315.83	10.08	
2025-01-11 04:17:54.33	315.79	10.07	
2025-01-11 04:17:54.54	315.75	10.07	
2025-01-11 04:17:54.74	315.71	10.07	
2025-01-11 04:17:54.94	315.67	10.06	
2025-01-11 04:17:55.15	315.63	10.06	
2025-01-11 04:17:55.36	315.59	10.05	
2025-01-11 04:17:55.56	315.55	10.05	
2025-01-11 04:17:55.77	315.50	10.05	
2025-01-11 04:17:55.97	315.46	10.04	
2025-01-11 04:17:56.18	315.42	10.04	
2025-01-11 04:17:56.38	315.38	10.03	
2025-01-11 04:17:56.59	315.34	10.03	
2025-01-11 04:17:56.79	315.30	10.03	
2025-01-11 04:17:57.00	315.26	10.02	
2025-01-11 04:17:57.20	315.22	10.02	
2025-01-11 04:17:57.41	315.18	10.01	
2025-01-11 04:17:57.61	315.14	10.01	
2025-01-11 04:17:57.82	315.09	10.01	
2025-01-11 04:17:58.02	315.05	10.00	
2025-01-11 04:17:58.23	315.01	10.00	
2025-01-11 04:17:58.43	314.97	9.99	
2025-01-11 04:17:58.64	314.93	9.99	
2025-01-11 04:17:58.84	314.89	9.99	
2025-01-11 04:17:59.05	314.85	9.98	
2025-01-11 04:17:59.25	314.81	9.98	
2025-01-11 04:17:59.46	314.77	9.97	
2025-01-11 04:17:59.66	314.73	9.97	
2025-01-11 04:17:59.87	314.69	9.96	
2025-01-11 04:18:00.07	314.65	9.96	
2025-01-11 04:18:00.28	314.60	9.96	
2025-01-11 04:18:00.48	314.56	9.95	
2025-01-11 04:18:00.69	314.52	9.95	
2025-01-11 04:18:00.89	314.48	9.94	
2025-01-11 04:18:01.10	314.44	9.94	
2025-01-11 04:18:01.30	314.40	9.93	
2025-01-11 04:18:01.50	314.36	9.93	
2025-01-11 04:18:01.71	314.32	9.93	
2025-01-11 04:18:01.91	314.28	9.92	
2025-01-11 04:18:02.13	314.24	9.92	
2025-01-11 04:18:02.33	314.20	9.91	
2025-01-11 04:18:02.54	314.16	9.91	
2025-01-11 04:18:02.74	314.12	9.90	
2025-01-11 04:18:02.95	314.07	9.90	
2025-01-11 04:18:03.15	314.03	9.90	
2025-01-11 04:18:03.36	313.99	9.89	
2025-01-11 04:18:03.56	313.95	9.89	
2025-01-11 04:18:03.77	313.91	9.88	
2025-01-11 04:18:03.97	313.87	9.88	
2025-01-11 04:18:04.18	313.83	9.87	
2025-01-11 04:18:04.38	313.79	9.87	
2025-01-11 04:18:04.58	313.75	9.86	
2025-01-11 04:18:04.79	313.71	9.86	
2025-01-11 04:18:04.99	313.67	9.86	
2025-01-11 04:18:05.20	313.63	9.85	
2025-01-11 04:18:05.40	313.59	9.85	
2025-01-11 04:18:05.61	313.55	9.84	
2025-01-11 04:18:05.81	313.51	9.84	
2025-01-11 04:18:06.02	313.47	9.83	
2025-01-11 04:18:06.22	313.43	9.83	
2025-01-11 04:18:06.43	313.39	9.82	
2025-01-11 04:18:06.64	313.34	9.82	
2025-01-11 04:18:06.84	313.31	9.81	
2025-01-11 04:18:07.04	313.27	9.81	
2025-01-11 04:18:07.25	313.22	9.80	
2025-01-11 04:18:07.45	313.19	9.80	
2025-01-11 04:18:07.66	313.14	9.80	
2025-01-11 04:18:07.87	313.10	9.79	
2025-01-11 04:18:08.07	313.06	9.79	
2025-01-11 04:18:08.28	313.02	9.78	
2025-01-11 04:18:08.48	312.98	9.78	
2025-01-11 04:18:08.69	312.94	9.77	
2025-01-11 04:18:08.91	312.90	9.77	
2025-01-11 04:18:09.11	312.86	9.76	
2025-01-11 04:18:09.32	312.82	9.76	
2025-01-11 04:18:09.52	312.78	9.75	
2025-01-11 04:18:09.73	312.74	9.75	
2025-01-11 04:18:09.93	312.70	9.74	
2025-01-11 04:18:10.14	312.66	9.74	
2025-01-11 04:18:10.34	312.62	9.73	
2025-01-11 04:18:10.55	312.58	9.73	
2025-01-11 04:18:10.75	312.54	9.72	
2025-01-11 04:18:10.96	312.50	9.72	
2025-01-11 04:18:11.16	312.46	9.71	
2025-01-11 04:18:11.37	312.42	9.71	
2025-01-11 04:18:11.57	312.38	9.70	
2025-01-11 04:18:11.78	312.34	9.70	
2025-01-11 04:18:11.98	312.30	9.69	
2025-01-11 04:18:12.19	312.26	9.69	
2025-01-11 04:18:12.39	312.22	9.68	
2025-01-11 04:18:12.60	312.18	9.68	
2025-01-11 04:18:12.80	312.14	9.67	
2025-01-11 04:18:13.01	312.10	9.67	
2025-01-11 04:18:13.21	312.06	9.66	
2025-01-11 04:18:13.42	312.02	9.66	
2025-01-11 04:18:13.62	311.98	9.65	
2025-01-11 04:18:13.83	311.94	9.65	
2025-01-11 04:18:14.03	311.90	9.64	
2025-01-11 04:18:14.23	311.86	9.64	
2025-01-11 04:18:14.44	311.82	9.63	
2025-01-11 04:18:14.64	311.78	9.63	
2025-01-11 04:18:14.85	311.74	9.62	
2025-01-11 04:18:15.05	311.70	9.62	
2025-01-11 04:18:15.26	311.66	9.61	
2025-01-11 04:18:15.46	311.62	9.61	
2025-01-11 04:18:15.67	311.58	9.60	
2025-01-11 04:18:15.87	311.54	9.60	
2025-01-11 04:18:16.08	311.50	9.59	
2025-01-11 04:18:16.28	311.46	9.59	
2025-01-11 04:18:16.49	311.42	9.58	
2025-01-11 04:18:16.69	311.38	9.58	
2025-01-11 04:18:16.90	311.34	9.57	
2025-01-11 04:18:17.10	311.30	9.57	
2025-01-11 04:18:17.31	311.26	9.56	
2025-01-11 04:18:17.51	311.22	9.56	
2025-01-11 04:18:17.72	311.18	9.55	
2025-01-11 04:18:17.92	311.14	9.55	
2025-01-11 04:18:18.13	311.10	9.54	
2025-01-11 04:18:18.33	311.07	9.54	
2025-01-11 04:18:18.54	311.03	9.53	
2025-01-11 04:18:18.74	310.99	9.53	
2025-01-11 04:18:18.95	310.95	9.52	
2025-01-11 04:18:19.15	310.91	9.52	
2025-01-11 04:18:19.36	310.87	9.51	
2025-01-11 04:18:19.56	310.83	9.51	
2025-01-11 04:18:19.77	310.79	9.50	
2025-01-11 04:18:19.97	310.75	9.49	
2025-01-11 04:18:20.18	310.71	9.49	
2025-01-11 04:18:20.38	310.67	9.48	
2025-01-11 04:18:20.58	310.63	9.48	
2025-01-11 04:18:20.79	310.59	9.47	
2025-01-11 04:18:21.00	310.55	9.47	
2025-01-11 04:18:21.20	310.51	9.46	
2025-01-11 04:18:21.41	310.47	9.46	
2025-01-11 04:18:21.61	310.43	9.45	
2025-01-11 04:18:21.82	310.39	9.45	
2025-01-11 04:18:22.02	310.36	9.44	
2025-01-11 04:18:22.23	310.32	9.43	
2025-01-11 04:18:22.43	310.28	9.43	
2025-01-11 04:18:22.64	310.24	9.42	
2025-01-11 04:18:22.84	310.20	9.42	
2025-01-11 04:18:23.05	310.16	9.41	
2025-01-11 04:18:23.25	310.12	9.41	
2025-01-11 04:18:23.46	310.08	9.40	
2025-01-11 04:18:23.66	310.04	9.40	
2025-01-11 04:18:23.86	310.00	9.39	
2025-01-11 04:18:24.07	309.96	9.39	
2025-01-11 04:18:24.27	309.93	9.38	
2025-01-11 04:18:24.48	309.89	9.37	
2025-01-11 04:18:24.68	309.85	9.37	
2025-01-11 04:18:24.90	309.81	9.36	
2025-01-11 04:18:25.11	309.77	9.36	
2025-01-11 04:18:25.31	309.73	9.35	
2025-01-11 04:18:25.52	309.69	9.35	
2025-01-11 04:18:25.72	309.65	9.34	
2025-01-11 04:18:25.93	309.61	9.33	
2025-01-11 04:18:26.13	309.57	9.33	
2025-01-11 04:18:26.34	309.53	9.32	
2025-01-11 04:18:26.55	309.49	9.32	
2025-01-11 04:18:26.75	309.45	9.31	
2025-01-11 04:18:26.95	309.42	9.31	
2025-01-11 04:18:27.16	309.38	9.30	
2025-01-11 04:18:27.37	309.34	9.29	
2025-01-11 04:18:27.57	309.30	9.29	
2025-01-11 04:18:27.78	309.26	9.28	
2025-01-11 04:18:27.98	309.22	9.28	
2025-01-11 04:18:28.18	309.18	9.27	
2025-01-11 04:18:28.39	309.14	9.27	
2025-01-11 04:18:28.59	309.11	9.26	
2025-01-11 04:18:28.80	309.07	9.25	
2025-01-11 04:18:29.01	309.03	9.25	
2025-01-11 04:18:29.21	308.99	9.24	
2025-01-11 04:18:29.41	308.95	9.24	
2025-01-11 04:18:29.62	308.91	9.23	
2025-01-11 04:18:29.82	308.87	9.23	
2025-01-11 04:18:30.03	308.83	9.22	
2025-01-11 04:18:30.25	308.79	9.21	
2025-01-11 04:18:30.45	308.76	9.21	
2025-01-11 04:18:30.66	308.72	9.20	
2025-01-11 04:18:30.86	308.68	9.20	
2025-01-11 04:18:31.07	308.64	9.19	
2025-01-11 04:18:31.29	308.60	9.18	
2025-01-11 04:18:31.49	308.56	9.18	
2025-01-11 04:18:31.70	308.52	9.17	
2025-01-11 04:18:31.91	308.48	9.17	
2025-01-11 04:18:32.11	308.44	9.16	
2025-01-11 04:18:32.31	308.41	9.15	
2025-01-11 04:18:32.52	308.37	9.15	
2025-01-11 04:18:32.72	308.33	9.14	
2025-01-11 04:18:32.93	308.29	9.14	
2025-01-11 04:18:33.13	308.25	9.13	
2025-01-11 04:18:33.33	308.22	9.12	
2025-01-11 04:18:33.54	308.18	9.12	
2025-01-11 04:18:33.75	308.14	9.11	
2025-01-11 04:18:33.95	308.10	9.11	
2025-01-11 04:18:34.16	308.06	9.10	
2025-01-11 04:18:34.36	308.02	9.09	
2025-01-11 04:18:34.57	307.98	9.09	
2025-01-11 04:18:34.77	307.95	9.08	
2025-01-11 04:18:34.98	307.91	9.07	
2025-01-11 04:18:35.18	307.87	9.07	
2025-01-11 04:18:35.39	307.83	9.06	
2025-01-11 04:18:35.59	307.79	9.06	
2025-01-11 04:18:35.80	307.75	9.05	
2025-01-11 04:18:36.00	307.72	9.04	
2025-01-11 04:18:36.21	307.68	9.04	
2025-01-11 04:18:36.42	307.64	9.03	
2025-01-11 04:18:36.63	307.60	9.03	
2025-01-11 04:18:36.84	307.56	9.02	
2025-01-11 04:18:37.04	307.52	9.01	
2025-01-11 04:18:37.25	307.49	9.01	
2025-01-11 04:18:37.45	307.45	9.00	
2025-01-11 04:18:37.67	307.41	8.99	
2025-01-11 04:18:37.88	307.37	8.99	
2025-01-11 04:18:38.08	307.33	8.98	
2025-01-11 04:18:38.29	307.29	8.97	
2025-01-11 04:18:38.49	307.26	8.97	
2025-01-11 04:18:38.70	307.22	8.96	
2025-01-11 04:18:38.90	307.18	8.96	
2025-01-11 04:18:39.11	307.14	8.95	
2025-01-11 04:18:39.31	307.10	8.94	
2025-01-11 04:18:39.51	307.07	8.94	
2025-01-11 04:18:39.71	307.03	8.93	
2025-01-11 04:18:39.92	306.99	8.92	
2025-01-11 04:18:40.12	306.95	8.92	
2025-01-11 04:18:40.33	306.92	8.91	
2025-01-11 04:18:40.53	306.88	8.91	
2025-01-11 04:18:40.74	306.84	8.90	
2025-01-11 04:18:40.94	306.80	8.89	
2025-01-11 04:18:41.15	306.77	8.89	
2025-01-11 04:18:41.35	306.73	8.88	
2025-01-11 04:18:41.55	306.69	8.87	
2025-01-11 04:18:41.76	306.65	8.87	
2025-01-11 04:18:41.96	306.62	8.86	
2025-01-11 04:18:42.17	306.58	8.85	
2025-01-11 04:18:42.37	306.54	8.85	
2025-01-11 04:18:42.58	306.50	8.84	
2025-01-11 04:18:42.78	306.47	8.84	
2025-01-11 04:18:42.99	306.43	8.83	
2025-01-11 04:18:43.19	306.39	8.82	
2025-01-11 04:18:43.40	306.35	8.82	
2025-01-11 04:18:43.60	306.32	8.81	
2025-01-11 04:18:43.81	306.28	8.80	
2025-01-11 04:18:44.01	306.24	8.80	
2025-01-11 04:18:44.21	306.20	8.79	
2025-01-11 04:18:44.42	306.17	8.78	
2025-01-11 04:18:44.63	306.13	8.78	
2025-01-11 04:18:44.83	306.09	8.77	
2025-01-11 04:18:45.03	306.06	8.76	
2025-01-11 04:18:45.24	306.02	8.76	
2025-01-11 04:18:45.44	305.98	8.75	
2025-01-11 04:18:45.65	305.94	8.74	
2025-01-11 04:18:45.85	305.91	8.74	
2025-01-11 04:18:46.06	305.87	8.73	
2025-01-11 04:18:46.26	305.83	8.72	
2025-01-11 04:18:46.47	305.79	8.72	
2025-01-11 04:18:46.67	305.76	8.71	
2025-01-11 04:18:46.88	305.72	8.70	
2025-01-11 04:18:47.08	305.68	8.70	
2025-01-11 04:18:47.29	305.65	8.69	
2025-01-11 04:18:47.49	305.61	8.68	
2025-01-11 04:18:47.70	305.57	8.68	
2025-01-11 04:18:47.90	305.53	8.67	
2025-01-11 04:18:48.11	305.50	8.66	
2025-01-11 04:18:48.31	305.46	8.66	
2025-01-11 04:18:48.52	305.42	8.65	
2025-01-11 04:18:48.72	305.39	8.64	
2025-01-11 04:18:48.93	305.35	8.64	
2025-01-11 04:18:49.13	305.31	8.63	
2025-01-11 04:18:49.35	305.27	8.62	
2025-01-11 04:18:49.56	305.24	8.62	
2025-01-11 04:18:49.76	305.20	8.61	
2025-01-11 04:18:49.97	305.16	8.60	
2025-01-11 04:18:50.17	305.13	8.60	
2025-01-11 04:18:50.37	305.09	8.59	
2025-01-11 04:18:50.58	305.05	8.58	
2025-01-11 04:18:50.79	305.01	8.58	
2025-01-11 04:18:50.99	304.98	8.57	
2025-01-11 04:18:51.19	304.94	8.56	
2025-01-11 04:18:51.41	304.90	8.56	
2025-01-11 04:18:51.61	304.87	8.55	
2025-01-11 04:18:51.82	304.83	8.54	
2025-01-11 04:18:52.02	304.79	8.54	
2025-01-11 04:18:52.23	304.76	8.53	
2025-01-11 04:18:52.43	304.72	8.52	
2025-01-11 04:18:52.63	304.68	8.51	
2025-01-11 04:18:52.84	304.65	8.51	
