passes_logs/2025/01/11/SPB_Silybum_02/SPB_Silybum_02__20250111_121140_AQUA_rec.log

#Pass ID: 20250111_121140_AQUA
#Satellite: AQUA
#Configuration: AQUA
#Start time: 2025-01-11 12:11:40

#Version: 2.0.20230423
#Station: SPB_Silybum_02
#Location: 30.233357 lon 59.946436 lat
#TLE: 1 27424U 02022A   25010.89862733  .00001944  00000+0  40909-3 0  9991
#TLE: 2 27424  98.3577 327.5256 0001581 116.2883 319.2080 14.60667727207024

#Time	Az	El	Level	Level2	SNR	BER	Gain	Gain2
2025-01-11 12:11:42.21	186.09	4.11	
2025-01-11 12:11:42.42	186.10	4.13	
2025-01-11 12:11:42.62	186.11	4.14	
2025-01-11 12:11:42.82	186.12	4.15	
2025-01-11 12:11:43.03	186.14	4.17	
2025-01-11 12:11:43.24	186.15	4.18	
2025-01-11 12:11:43.44	186.16	4.20	
2025-01-11 12:11:43.65	186.17	4.21	
2025-01-11 12:11:43.85	186.18	4.23	
2025-01-11 12:11:44.05	186.19	4.24	
2025-01-11 12:11:44.26	186.20	4.25	
2025-01-11 12:11:44.46	186.21	4.27	
2025-01-11 12:11:44.67	186.22	4.28	
2025-01-11 12:11:44.87	186.23	4.30	
2025-01-11 12:11:45.08	186.24	4.31	
2025-01-11 12:11:45.28	186.25	4.32	
2025-01-11 12:11:45.49	186.26	4.34	
2025-01-11 12:11:45.69	186.27	4.35	
2025-01-11 12:11:45.90	186.28	4.37	
2025-01-11 12:11:46.11	186.29	4.38	
2025-01-11 12:11:46.32	186.30	4.40	
2025-01-11 12:11:46.52	186.31	4.41	
2025-01-11 12:11:46.73	186.32	4.43	
2025-01-11 12:11:46.94	186.33	4.44	
2025-01-11 12:11:47.14	186.34	4.45	
2025-01-11 12:11:47.35	186.35	4.47	
2025-01-11 12:11:47.55	186.36	4.48	
2025-01-11 12:11:47.76	186.37	4.50	
2025-01-11 12:11:47.96	186.38	4.51	
2025-01-11 12:11:48.17	186.40	4.53	
2025-01-11 12:11:48.37	186.41	4.54	
2025-01-11 12:11:48.58	186.42	4.56	
2025-01-11 12:11:48.78	186.43	4.57	
2025-01-11 12:11:48.99	186.44	4.58	
2025-01-11 12:11:49.19	186.45	4.60	
2025-01-11 12:11:49.40	186.46	4.61	
2025-01-11 12:11:49.61	186.47	4.63	
2025-01-11 12:11:49.81	186.48	4.64	
2025-01-11 12:11:50.02	186.49	4.66	
2025-01-11 12:11:50.22	186.50	4.67	
2025-01-11 12:11:50.43	186.51	4.69	
2025-01-11 12:11:50.63	186.52	4.70	
2025-01-11 12:11:50.84	186.53	4.72	
2025-01-11 12:11:51.05	186.54	4.73	
2025-01-11 12:11:51.25	186.55	4.74	
2025-01-11 12:11:51.45	186.57	4.76	
2025-01-11 12:11:51.66	186.58	4.77	
2025-01-11 12:11:51.86	186.59	4.79	
2025-01-11 12:11:52.07	186.60	4.80	
2025-01-11 12:11:52.27	186.61	4.82	
2025-01-11 12:11:52.48	186.62	4.83	
2025-01-11 12:11:52.68	186.63	4.85	
2025-01-11 12:11:52.89	186.64	4.86	
2025-01-11 12:11:53.10	186.65	4.88	
2025-01-11 12:11:53.30	186.66	4.89	
2025-01-11 12:11:53.50	186.67	4.90	
2025-01-11 12:11:53.71	186.68	4.92	
2025-01-11 12:11:53.92	186.69	4.93	
2025-01-11 12:11:54.12	186.71	4.95	
2025-01-11 12:11:54.33	186.72	4.96	
2025-01-11 12:11:54.54	186.73	4.98	
2025-01-11 12:11:54.75	186.74	4.99	
2025-01-11 12:11:54.95	186.75	5.01	
2025-01-11 12:11:55.16	186.76	5.02	
2025-01-11 12:11:55.37	186.77	5.04	
2025-01-11 12:11:55.57	186.78	5.05	
2025-01-11 12:11:55.77	186.79	5.07	
2025-01-11 12:11:55.98	186.80	5.08	
2025-01-11 12:11:56.18	186.81	5.10	
2025-01-11 12:11:56.39	186.83	5.11	
2025-01-11 12:11:56.59	186.84	5.13	
2025-01-11 12:11:56.80	186.85	5.14	
2025-01-11 12:11:57.00	186.86	5.15	
2025-01-11 12:11:57.21	186.87	5.17	
2025-01-11 12:11:57.41	186.88	5.18	
2025-01-11 12:11:57.62	186.89	5.20	
2025-01-11 12:11:57.82	186.90	5.21	
2025-01-11 12:11:58.03	186.91	5.23	
2025-01-11 12:11:58.23	186.93	5.24	
2025-01-11 12:11:58.44	186.94	5.26	
2025-01-11 12:11:58.64	186.95	5.27	
2025-01-11 12:11:58.84	186.96	5.29	
2025-01-11 12:11:59.05	186.97	5.30	
2025-01-11 12:11:59.25	186.98	5.32	
2025-01-11 12:11:59.46	186.99	5.33	
2025-01-11 12:11:59.66	187.00	5.35	
2025-01-11 12:11:59.87	187.01	5.36	
2025-01-11 12:12:00.07	187.02	5.38	
2025-01-11 12:12:00.28	187.04	5.39	
2025-01-11 12:12:00.48	187.05	5.41	
2025-01-11 12:12:00.69	187.06	5.42	
2025-01-11 12:12:00.89	187.07	5.44	
2025-01-11 12:12:01.10	187.08	5.45	
2025-01-11 12:12:01.30	187.09	5.47	
2025-01-11 12:12:01.51	187.10	5.48	
2025-01-11 12:12:01.72	187.11	5.50	
2025-01-11 12:12:01.92	187.13	5.51	
2025-01-11 12:12:02.12	187.14	5.53	
2025-01-11 12:12:02.32	187.15	5.54	
2025-01-11 12:12:02.53	187.16	5.56	
2025-01-11 12:12:02.73	187.17	5.57	
2025-01-11 12:12:02.94	187.18	5.59	
2025-01-11 12:12:03.14	187.19	5.60	
2025-01-11 12:12:03.35	187.20	5.62	
2025-01-11 12:12:03.55	187.22	5.63	
2025-01-11 12:12:03.76	187.23	5.65	
2025-01-11 12:12:03.96	187.24	5.66	
2025-01-11 12:12:04.17	187.25	5.68	
2025-01-11 12:12:04.37	187.26	5.69	
2025-01-11 12:12:04.58	187.27	5.71	
2025-01-11 12:12:04.78	187.28	5.72	
2025-01-11 12:12:04.99	187.30	5.74	
2025-01-11 12:12:05.20	187.31	5.75	
2025-01-11 12:12:05.41	187.32	5.77	
2025-01-11 12:12:05.61	187.33	5.78	
2025-01-11 12:12:05.82	187.34	5.80	
2025-01-11 12:12:06.03	187.35	5.81	
2025-01-11 12:12:06.23	187.37	5.83	
2025-01-11 12:12:06.43	187.38	5.84	
2025-01-11 12:12:06.64	187.39	5.86	
2025-01-11 12:12:06.84	187.40	5.87	
2025-01-11 12:12:07.05	187.41	5.89	
2025-01-11 12:12:07.25	187.42	5.90	
2025-01-11 12:12:07.46	187.43	5.92	
2025-01-11 12:12:07.66	187.45	5.93	
2025-01-11 12:12:07.87	187.46	5.95	
2025-01-11 12:12:08.07	187.47	5.96	
2025-01-11 12:12:08.28	187.48	5.98	
2025-01-11 12:12:08.48	187.49	5.99	
2025-01-11 12:12:08.69	187.50	6.01	
2025-01-11 12:12:08.89	187.52	6.02	
2025-01-11 12:12:09.10	187.53	6.04	
2025-01-11 12:12:09.31	187.54	6.06	
2025-01-11 12:12:09.51	187.55	6.07	
2025-01-11 12:12:09.71	187.56	6.09	
2025-01-11 12:12:09.92	187.57	6.10	
2025-01-11 12:12:10.13	187.59	6.12	
2025-01-11 12:12:10.33	187.60	6.13	
2025-01-11 12:12:10.54	187.61	6.15	
2025-01-11 12:12:10.74	187.62	6.16	
2025-01-11 12:12:10.95	187.63	6.18	
2025-01-11 12:12:11.15	187.65	6.19	
2025-01-11 12:12:11.36	187.66	6.21	
2025-01-11 12:12:11.56	187.67	6.22	
2025-01-11 12:12:11.76	187.68	6.24	
2025-01-11 12:12:11.97	187.69	6.25	
2025-01-11 12:12:12.18	187.71	6.27	
2025-01-11 12:12:12.38	187.72	6.29	
2025-01-11 12:12:12.59	187.73	6.30	
2025-01-11 12:12:12.79	187.74	6.32	
2025-01-11 12:12:13.00	187.75	6.33	
2025-01-11 12:12:13.20	187.76	6.35	
2025-01-11 12:12:13.41	187.78	6.36	
2025-01-11 12:12:13.61	187.79	6.38	
2025-01-11 12:12:13.82	187.80	6.39	
2025-01-11 12:12:14.02	187.81	6.41	
2025-01-11 12:12:14.23	187.82	6.42	
2025-01-11 12:12:14.43	187.84	6.44	
2025-01-11 12:12:14.64	187.85	6.46	
2025-01-11 12:12:14.84	187.86	6.47	
2025-01-11 12:12:15.05	187.87	6.49	
2025-01-11 12:12:15.25	187.88	6.50	
2025-01-11 12:12:15.46	187.90	6.52	
2025-01-11 12:12:15.67	187.91	6.53	
2025-01-11 12:12:15.87	187.92	6.55	
2025-01-11 12:12:16.08	187.93	6.56	
2025-01-11 12:12:16.28	187.95	6.58	
2025-01-11 12:12:16.49	187.96	6.60	
2025-01-11 12:12:16.69	187.97	6.61	
2025-01-11 12:12:16.91	187.98	6.63	
2025-01-11 12:12:17.11	187.99	6.64	
2025-01-11 12:12:17.32	188.01	6.66	
2025-01-11 12:12:17.53	188.02	6.68	
2025-01-11 12:12:17.73	188.03	6.69	
2025-01-11 12:12:17.94	188.04	6.71	
2025-01-11 12:12:18.14	188.06	6.72	
2025-01-11 12:12:18.34	188.07	6.74	
2025-01-11 12:12:18.55	188.08	6.75	
2025-01-11 12:12:18.76	188.09	6.77	
2025-01-11 12:12:18.96	188.11	6.78	
2025-01-11 12:12:19.18	188.12	6.80	
2025-01-11 12:12:19.39	188.13	6.82	
2025-01-11 12:12:19.59	188.14	6.83	
2025-01-11 12:12:19.80	188.16	6.85	
2025-01-11 12:12:20.00	188.17	6.86	
2025-01-11 12:12:20.21	188.18	6.88	
2025-01-11 12:12:20.41	188.19	6.90	
2025-01-11 12:12:20.62	188.21	6.91	
2025-01-11 12:12:20.82	188.22	6.93	
2025-01-11 12:12:21.03	188.23	6.94	
2025-01-11 12:12:21.23	188.24	6.96	
2025-01-11 12:12:21.43	188.26	6.97	
2025-01-11 12:12:21.64	188.27	6.99	
2025-01-11 12:12:21.85	188.28	7.01	
2025-01-11 12:12:22.05	188.29	7.02	
2025-01-11 12:12:22.25	188.31	7.04	
2025-01-11 12:12:22.46	188.32	7.05	
2025-01-11 12:12:22.67	188.33	7.07	
2025-01-11 12:12:22.87	188.34	7.09	
2025-01-11 12:12:23.08	188.36	7.10	
2025-01-11 12:12:23.28	188.37	7.12	
2025-01-11 12:12:23.48	188.38	7.13	
2025-01-11 12:12:23.69	188.39	7.15	
2025-01-11 12:12:23.89	188.41	7.17	
2025-01-11 12:12:24.10	188.42	7.18	
2025-01-11 12:12:24.30	188.43	7.20	
2025-01-11 12:12:24.51	188.44	7.21	
2025-01-11 12:12:24.71	188.46	7.23	
2025-01-11 12:12:24.92	188.47	7.25	
2025-01-11 12:12:25.12	188.48	7.26	
2025-01-11 12:12:25.33	188.50	7.28	
2025-01-11 12:12:25.55	188.51	7.29	
2025-01-11 12:12:25.75	188.52	7.31	
2025-01-11 12:12:25.96	188.53	7.33	
2025-01-11 12:12:26.16	188.55	7.34	
2025-01-11 12:12:26.37	188.56	7.36	
2025-01-11 12:12:26.57	188.57	7.37	
2025-01-11 12:12:26.78	188.59	7.39	
2025-01-11 12:12:26.98	188.60	7.41	
2025-01-11 12:12:27.19	188.61	7.42	
2025-01-11 12:12:27.39	188.62	7.44	
2025-01-11 12:12:27.60	188.64	7.46	
2025-01-11 12:12:27.80	188.65	7.47	
2025-01-11 12:12:28.01	188.66	7.49	
2025-01-11 12:12:28.22	188.68	7.50	
2025-01-11 12:12:28.42	188.69	7.52	
2025-01-11 12:12:28.64	188.70	7.54	
2025-01-11 12:12:28.84	188.72	7.55	
2025-01-11 12:12:29.05	188.73	7.57	
2025-01-11 12:12:29.25	188.74	7.59	
2025-01-11 12:12:29.46	188.76	7.60	
2025-01-11 12:12:29.66	188.77	7.62	
2025-01-11 12:12:29.87	188.78	7.63	
2025-01-11 12:12:30.07	188.79	7.65	
2025-01-11 12:12:30.28	188.81	7.67	
2025-01-11 12:12:30.49	188.82	7.68	
2025-01-11 12:12:30.69	188.83	7.70	
2025-01-11 12:12:30.89	188.85	7.72	
2025-01-11 12:12:31.10	188.86	7.73	
2025-01-11 12:12:31.30	188.87	7.75	
2025-01-11 12:12:31.51	188.89	7.77	
2025-01-11 12:12:31.71	188.90	7.78	
2025-01-11 12:12:31.92	188.91	7.80	
2025-01-11 12:12:32.12	188.93	7.81	
2025-01-11 12:12:32.33	188.94	7.83	
2025-01-11 12:12:32.53	188.95	7.85	
2025-01-11 12:12:32.74	188.97	7.86	
2025-01-11 12:12:32.94	188.98	7.88	
2025-01-11 12:12:33.15	188.99	7.90	
2025-01-11 12:12:33.35	189.01	7.91	
2025-01-11 12:12:33.56	189.02	7.93	
2025-01-11 12:12:33.77	189.03	7.95	
2025-01-11 12:12:33.98	189.05	7.96	
2025-01-11 12:12:34.19	189.06	7.98	
2025-01-11 12:12:34.39	189.07	8.00	
2025-01-11 12:12:34.60	189.09	8.01	
2025-01-11 12:12:34.80	189.10	8.03	
2025-01-11 12:12:35.01	189.11	8.05	
2025-01-11 12:12:35.22	189.13	8.06	
2025-01-11 12:12:35.42	189.14	8.08	
2025-01-11 12:12:35.63	189.16	8.10	
2025-01-11 12:12:35.83	189.17	8.11	
2025-01-11 12:12:36.03	189.18	8.13	
2025-01-11 12:12:36.24	189.20	8.14	
2025-01-11 12:12:36.45	189.21	8.16	
2025-01-11 12:12:36.65	189.22	8.18	
2025-01-11 12:12:36.86	189.24	8.20	
2025-01-11 12:12:37.06	189.25	8.21	
2025-01-11 12:12:37.27	189.26	8.23	
2025-01-11 12:12:37.47	189.28	8.24	
2025-01-11 12:12:37.68	189.29	8.26	
2025-01-11 12:12:37.88	189.30	8.28	
2025-01-11 12:12:38.09	189.32	8.29	
2025-01-11 12:12:38.29	189.33	8.31	
2025-01-11 12:12:38.49	189.35	8.33	
2025-01-11 12:12:38.70	189.36	8.34	
2025-01-11 12:12:38.90	189.37	8.36	
2025-01-11 12:12:39.11	189.39	8.38	
2025-01-11 12:12:39.31	189.40	8.39	
2025-01-11 12:12:39.52	189.41	8.41	
2025-01-11 12:12:39.72	189.43	8.43	
2025-01-11 12:12:39.93	189.44	8.45	
2025-01-11 12:12:40.13	189.46	8.46	
2025-01-11 12:12:40.34	189.47	8.48	
2025-01-11 12:12:40.54	189.48	8.50	
2025-01-11 12:12:40.75	189.50	8.51	
2025-01-11 12:12:40.95	189.51	8.53	
2025-01-11 12:12:41.16	189.53	8.55	
2025-01-11 12:12:41.36	189.54	8.56	
2025-01-11 12:12:41.57	189.55	8.58	
2025-01-11 12:12:41.77	189.57	8.60	
2025-01-11 12:12:41.98	189.58	8.61	
2025-01-11 12:12:42.19	189.60	8.63	
2025-01-11 12:12:42.39	189.61	8.65	
2025-01-11 12:12:42.60	189.62	8.66	
2025-01-11 12:12:42.80	189.64	8.68	
2025-01-11 12:12:43.01	189.65	8.70	
2025-01-11 12:12:43.21	189.67	8.71	
2025-01-11 12:12:43.42	189.68	8.73	
2025-01-11 12:12:43.62	189.69	8.75	
2025-01-11 12:12:43.83	189.71	8.77	
2025-01-11 12:12:44.04	189.72	8.78	
2025-01-11 12:12:44.24	189.74	8.80	
2025-01-11 12:12:44.44	189.75	8.82	
2025-01-11 12:12:44.65	189.77	8.83	
2025-01-11 12:12:44.85	189.78	8.85	
2025-01-11 12:12:45.05	189.79	8.87	
2025-01-11 12:12:45.26	189.81	8.89	
2025-01-11 12:12:45.47	189.82	8.90	
2025-01-11 12:12:45.67	189.84	8.92	
2025-01-11 12:12:45.87	189.85	8.94	
2025-01-11 12:12:46.08	189.87	8.95	
2025-01-11 12:12:46.29	189.88	8.97	
2025-01-11 12:12:46.49	189.89	8.99	
2025-01-11 12:12:46.70	189.91	9.01	
2025-01-11 12:12:46.90	189.92	9.02	
2025-01-11 12:12:47.11	189.94	9.04	
2025-01-11 12:12:47.31	189.95	9.06	
2025-01-11 12:12:47.52	189.97	9.07	
2025-01-11 12:12:47.72	189.98	9.09	
2025-01-11 12:12:47.93	190.00	9.11	
2025-01-11 12:12:48.13	190.01	9.13	
2025-01-11 12:12:48.34	190.02	9.14	
2025-01-11 12:12:48.55	190.04	9.16	
2025-01-11 12:12:48.75	190.05	9.18	
2025-01-11 12:12:48.95	190.07	9.19	
2025-01-11 12:12:49.16	190.08	9.21	
2025-01-11 12:12:49.36	190.10	9.23	
2025-01-11 12:12:49.57	190.11	9.25	
2025-01-11 12:12:49.77	190.13	9.26	
2025-01-11 12:12:49.98	190.14	9.28	
2025-01-11 12:12:50.18	190.16	9.30	
2025-01-11 12:12:50.39	190.17	9.32	
2025-01-11 12:12:50.59	190.19	9.33	
2025-01-11 12:12:50.80	190.20	9.35	
2025-01-11 12:12:51.00	190.22	9.37	
2025-01-11 12:12:51.21	190.23	9.39	
2025-01-11 12:12:51.41	190.24	9.40	
2025-01-11 12:12:51.62	190.26	9.42	
2025-01-11 12:12:51.82	190.27	9.44	
2025-01-11 12:12:52.03	190.29	9.46	
2025-01-11 12:12:52.23	190.30	9.47	
2025-01-11 12:12:52.44	190.32	9.49	
2025-01-11 12:12:52.64	190.33	9.51	
2025-01-11 12:12:52.85	190.35	9.53	
2025-01-11 12:12:53.05	190.36	9.54	
2025-01-11 12:12:53.26	190.38	9.56	
2025-01-11 12:12:53.46	190.39	9.58	
2025-01-11 12:12:53.67	190.41	9.60	
2025-01-11 12:12:53.87	190.42	9.61	
2025-01-11 12:12:54.08	190.44	9.63	
2025-01-11 12:12:54.28	190.45	9.65	
2025-01-11 12:12:54.49	190.47	9.67	
2025-01-11 12:12:54.69	190.48	9.68	
2025-01-11 12:12:54.90	190.50	9.70	
2025-01-11 12:12:55.10	190.51	9.72	
2025-01-11 12:12:55.30	190.53	9.74	
2025-01-11 12:12:55.51	190.54	9.75	
2025-01-11 12:12:55.71	190.56	9.77	
2025-01-11 12:12:55.92	190.58	9.79	
2025-01-11 12:12:56.13	190.59	9.81	
2025-01-11 12:12:56.33	190.61	9.82	
2025-01-11 12:12:56.54	190.62	9.84	
2025-01-11 12:12:56.74	190.64	9.86	
2025-01-11 12:12:56.95	190.65	9.88	
2025-01-11 12:12:57.15	190.67	9.90	
2025-01-11 12:12:57.36	190.68	9.91	
2025-01-11 12:12:57.56	190.70	9.93	
2025-01-11 12:12:57.77	190.71	9.95	
2025-01-11 12:12:57.97	190.73	9.97	
2025-01-11 12:12:58.18	190.74	9.98	
2025-01-11 12:12:58.38	190.76	10.00	
2025-01-11 12:12:58.59	190.78	10.02	
2025-01-11 12:12:58.79	190.79	10.04	
2025-01-11 12:12:59.00	190.81	10.06	
2025-01-11 12:12:59.20	190.82	10.07	
2025-01-11 12:12:59.41	190.84	10.09	
2025-01-11 12:12:59.61	190.85	10.11	
2025-01-11 12:12:59.82	190.87	10.13	
2025-01-11 12:13:00.02	190.88	10.15	
2025-01-11 12:13:00.22	190.90	10.16	
2025-01-11 12:13:00.43	190.91	10.18	
2025-01-11 12:13:00.63	190.93	10.20	
2025-01-11 12:13:00.84	190.95	10.22	
2025-01-11 12:13:01.04	190.96	10.23	
2025-01-11 12:13:01.25	190.98	10.25	
2025-01-11 12:13:01.45	190.99	10.27	
2025-01-11 12:13:01.65	191.01	10.29	
2025-01-11 12:13:01.86	191.02	10.31	
2025-01-11 12:13:02.06	191.04	10.32	
2025-01-11 12:13:02.27	191.06	10.34	
2025-01-11 12:13:02.47	191.07	10.36	
2025-01-11 12:13:02.68	191.09	10.38	
2025-01-11 12:13:02.88	191.10	10.40	
2025-01-11 12:13:03.09	191.12	10.42	
2025-01-11 12:13:03.29	191.14	10.43	
2025-01-11 12:13:03.50	191.15	10.45	
2025-01-11 12:13:03.70	191.17	10.47	
2025-01-11 12:13:03.91	191.18	10.49	
2025-01-11 12:13:04.11	191.20	10.51	
2025-01-11 12:13:04.32	191.22	10.52	
2025-01-11 12:13:04.52	191.23	10.54	
2025-01-11 12:13:04.73	191.25	10.56	
2025-01-11 12:13:04.93	191.26	10.58	
2025-01-11 12:13:05.14	191.28	10.60	
2025-01-11 12:13:05.34	191.30	10.62	
2025-01-11 12:13:05.55	191.31	10.63	
2025-01-11 12:13:05.75	191.33	10.65	
2025-01-11 12:13:05.96	191.34	10.67	
2025-01-11 12:13:06.16	191.36	10.69	
2025-01-11 12:13:06.37	191.38	10.71	
2025-01-11 12:13:06.57	191.39	10.73	
2025-01-11 12:13:06.78	191.41	10.74	
2025-01-11 12:13:06.98	191.43	10.76	
2025-01-11 12:13:07.19	191.44	10.78	
2025-01-11 12:13:07.40	191.46	10.80	
2025-01-11 12:13:07.60	191.47	10.82	
2025-01-11 12:13:07.81	191.49	10.84	
2025-01-11 12:13:08.01	191.51	10.85	
2025-01-11 12:13:08.22	191.52	10.87	
2025-01-11 12:13:08.42	191.54	10.89	
2025-01-11 12:13:08.63	191.56	10.91	
2025-01-11 12:13:08.83	191.57	10.93	
2025-01-11 12:13:09.04	191.59	10.95	
2025-01-11 12:13:09.24	191.61	10.97	
2025-01-11 12:13:09.45	191.62	10.98	
2025-01-11 12:13:09.65	191.64	11.00	
2025-01-11 12:13:09.86	191.66	11.02	
2025-01-11 12:13:10.06	191.67	11.04	
2025-01-11 12:13:10.27	191.69	11.06	
2025-01-11 12:13:10.47	191.71	11.08	
2025-01-11 12:13:10.68	191.72	11.10	
2025-01-11 12:13:10.89	191.74	11.12	
2025-01-11 12:13:11.09	191.76	11.13	
2025-01-11 12:13:11.30	191.77	11.15	
2025-01-11 12:13:11.50	191.79	11.17	
2025-01-11 12:13:11.71	191.81	11.19	
2025-01-11 12:13:11.91	191.82	11.21	
2025-01-11 12:13:12.11	191.84	11.23	
2025-01-11 12:13:12.32	191.86	11.25	
2025-01-11 12:13:12.52	191.87	11.26	
2025-01-11 12:13:12.73	191.89	11.28	
2025-01-11 12:13:12.94	191.91	11.30	
2025-01-11 12:13:13.14	191.93	11.32	
2025-01-11 12:13:13.34	191.94	11.34	
2025-01-11 12:13:13.55	191.96	11.36	
2025-01-11 12:13:13.76	191.98	11.38	
2025-01-11 12:13:13.96	191.99	11.40	
2025-01-11 12:13:14.17	192.01	11.42	
2025-01-11 12:13:14.37	192.03	11.43	
2025-01-11 12:13:14.58	192.04	11.45	
2025-01-11 12:13:14.78	192.06	11.47	
2025-01-11 12:13:14.99	192.08	11.49	
2025-01-11 12:13:15.19	192.10	11.51	
2025-01-11 12:13:15.40	192.11	11.53	
2025-01-11 12:13:15.61	192.13	11.55	
2025-01-11 12:13:15.82	192.15	11.57	
2025-01-11 12:13:16.02	192.17	11.59	
2025-01-11 12:13:16.23	192.18	11.61	
2025-01-11 12:13:16.43	192.20	11.62	
2025-01-11 12:13:16.64	192.22	11.64	
2025-01-11 12:13:16.84	192.24	11.66	
2025-01-11 12:13:17.05	192.25	11.68	
2025-01-11 12:13:17.25	192.27	11.70	
2025-01-11 12:13:17.46	192.29	11.72	
2025-01-11 12:13:17.66	192.30	11.74	
2025-01-11 12:13:17.86	192.32	11.76	
2025-01-11 12:13:18.07	192.34	11.78	
2025-01-11 12:13:18.28	192.36	11.80	
2025-01-11 12:13:18.48	192.37	11.82	
2025-01-11 12:13:18.69	192.39	11.84	
2025-01-11 12:13:18.89	192.41	11.85	
2025-01-11 12:13:19.10	192.43	11.87	
2025-01-11 12:13:19.30	192.45	11.89	
2025-01-11 12:13:19.51	192.46	11.91	
2025-01-11 12:13:19.71	192.48	11.93	
2025-01-11 12:13:19.92	192.50	11.95	
2025-01-11 12:13:20.13	192.52	11.97	
2025-01-11 12:13:20.33	192.53	11.99	
2025-01-11 12:13:20.54	192.55	12.01	
2025-01-11 12:13:20.74	192.57	12.03	
2025-01-11 12:13:20.94	192.59	12.05	
2025-01-11 12:13:21.15	192.61	12.07	
2025-01-11 12:13:21.35	192.62	12.09	
2025-01-11 12:13:21.56	192.64	12.11	
2025-01-11 12:13:21.77	192.66	12.13	
2025-01-11 12:13:21.98	192.68	12.15	
2025-01-11 12:13:22.18	192.70	12.16	
2025-01-11 12:13:22.39	192.71	12.18	
2025-01-11 12:13:22.59	192.73	12.20	
2025-01-11 12:13:22.80	192.75	12.22	
2025-01-11 12:13:23.00	192.77	12.24	
2025-01-11 12:13:23.21	192.79	12.26	
2025-01-11 12:13:23.41	192.80	12.28	
2025-01-11 12:13:23.61	192.82	12.30	
2025-01-11 12:13:23.82	192.84	12.32	
2025-01-11 12:13:24.02	192.86	12.34	
2025-01-11 12:13:24.23	192.88	12.36	
2025-01-11 12:13:24.43	192.89	12.38	
2025-01-11 12:13:24.64	192.91	12.40	
2025-01-11 12:13:24.85	192.93	12.42	
2025-01-11 12:13:25.05	192.95	12.44	
2025-01-11 12:13:25.26	192.97	12.46	
2025-01-11 12:13:25.46	192.99	12.48	
2025-01-11 12:13:25.67	193.01	12.50	
2025-01-11 12:13:25.87	193.02	12.52	
2025-01-11 12:13:26.08	193.04	12.54	
2025-01-11 12:13:26.30	193.06	12.56	
2025-01-11 12:13:26.50	193.08	12.58	
2025-01-11 12:13:26.71	193.10	12.60	
2025-01-11 12:13:26.91	193.12	12.62	
2025-01-11 12:13:27.12	193.14	12.64	
2025-01-11 12:13:27.32	193.15	12.66	
2025-01-11 12:13:27.53	193.17	12.68	
2025-01-11 12:13:27.73	193.19	12.70	
2025-01-11 12:13:27.94	193.21	12.72	
2025-01-11 12:13:28.15	193.23	12.74	
2025-01-11 12:13:28.35	193.25	12.76	
2025-01-11 12:13:28.55	193.27	12.78	
2025-01-11 12:13:28.76	193.29	12.80	
2025-01-11 12:13:28.96	193.30	12.82	
2025-01-11 12:13:29.17	193.32	12.84	
2025-01-11 12:13:29.37	193.34	12.86	
2025-01-11 12:13:29.58	193.36	12.88	
2025-01-11 12:13:29.78	193.38	12.90	
2025-01-11 12:13:29.99	193.40	12.92	
2025-01-11 12:13:30.20	193.42	12.94	
2025-01-11 12:13:30.40	193.44	12.96	
2025-01-11 12:13:30.60	193.46	12.98	
2025-01-11 12:13:30.81	193.48	13.00	
2025-01-11 12:13:31.01	193.49	13.02	
2025-01-11 12:13:31.22	193.51	13.04	
2025-01-11 12:13:31.43	193.53	13.06	
2025-01-11 12:13:31.63	193.55	13.08	
2025-01-11 12:13:31.83	193.57	13.10	
2025-01-11 12:13:32.04	193.59	13.12	
2025-01-11 12:13:32.25	193.61	13.14	
2025-01-11 12:13:32.45	193.63	13.16	
2025-01-11 12:13:32.65	193.65	13.18	
2025-01-11 12:13:32.86	193.67	13.20	
2025-01-11 12:13:33.06	193.69	13.22	
2025-01-11 12:13:33.27	193.71	13.24	
2025-01-11 12:13:33.47	193.72	13.26	
2025-01-11 12:13:33.68	193.74	13.28	
2025-01-11 12:13:33.89	193.76	13.30	
2025-01-11 12:13:34.10	193.78	13.32	
2025-01-11 12:13:34.30	193.80	13.34	
2025-01-11 12:13:34.51	193.82	13.36	
2025-01-11 12:13:34.71	193.84	13.38	
2025-01-11 12:13:34.92	193.86	13.40	
2025-01-11 12:13:35.12	193.88	13.42	
2025-01-11 12:13:35.33	193.90	13.44	
2025-01-11 12:13:35.54	193.92	13.46	
2025-01-11 12:13:35.74	193.94	13.48	
2025-01-11 12:13:35.94	193.96	13.50	
2025-01-11 12:13:36.15	193.98	13.52	
2025-01-11 12:13:36.35	194.00	13.54	
2025-01-11 12:13:36.56	194.02	13.57	
2025-01-11 12:13:36.77	194.04	13.59	
2025-01-11 12:13:36.97	194.06	13.61	
2025-01-11 12:13:37.18	194.08	13.63	
2025-01-11 12:13:37.38	194.10	13.65	
2025-01-11 12:13:37.58	194.12	13.67	
2025-01-11 12:13:37.79	194.14	13.69	
2025-01-11 12:13:37.99	194.16	13.71	
2025-01-11 12:13:38.20	194.18	13.73	
2025-01-11 12:13:38.41	194.20	13.75	
2025-01-11 12:13:38.61	194.22	13.77	
2025-01-11 12:13:38.82	194.24	13.79	
2025-01-11 12:13:39.02	194.26	13.81	
2025-01-11 12:13:39.22	194.28	13.83	
2025-01-11 12:13:39.43	194.30	13.85	
2025-01-11 12:13:39.63	194.32	13.87	
2025-01-11 12:13:39.84	194.34	13.90	
2025-01-11 12:13:40.04	194.36	13.92	
2025-01-11 12:13:40.25	194.38	13.94	
2025-01-11 12:13:40.45	194.40	13.96	
2025-01-11 12:13:40.66	194.42	13.98	
2025-01-11 12:13:40.86	194.44	14.00	
2025-01-11 12:13:41.07	194.46	14.02	
2025-01-11 12:13:41.27	194.48	14.04	
2025-01-11 12:13:41.48	194.50	14.06	
2025-01-11 12:13:41.68	194.52	14.08	
2025-01-11 12:13:41.89	194.55	14.10	
2025-01-11 12:13:42.09	194.57	14.13	
2025-01-11 12:13:42.30	194.59	14.15	
2025-01-11 12:13:42.50	194.61	14.17	
2025-01-11 12:13:42.71	194.63	14.19	
2025-01-11 12:13:42.91	194.65	14.21	
2025-01-11 12:13:43.12	194.67	14.23	
2025-01-11 12:13:43.32	194.69	14.25	
2025-01-11 12:13:43.53	194.71	14.27	
2025-01-11 12:13:43.73	194.73	14.29	
2025-01-11 12:13:43.94	194.75	14.32	
2025-01-11 12:13:44.14	194.77	14.34	
2025-01-11 12:13:44.34	194.79	14.36	
2025-01-11 12:13:44.55	194.82	14.38	
2025-01-11 12:13:44.76	194.84	14.40	
2025-01-11 12:13:44.96	194.86	14.42	
2025-01-11 12:13:45.17	194.88	14.44	
2025-01-11 12:13:45.37	194.90	14.46	
2025-01-11 12:13:45.57	194.92	14.48	
2025-01-11 12:13:45.78	194.94	14.51	
2025-01-11 12:13:45.99	194.96	14.53	
2025-01-11 12:13:46.19	194.98	14.55	
2025-01-11 12:13:46.39	195.00	14.57	
2025-01-11 12:13:46.60	195.03	14.59	
2025-01-11 12:13:46.80	195.05	14.61	
2025-01-11 12:13:47.01	195.07	14.63	
2025-01-11 12:13:47.21	195.09	14.65	
2025-01-11 12:13:47.42	195.11	14.68	
2025-01-11 12:13:47.63	195.13	14.70	
2025-01-11 12:13:47.83	195.16	14.72	
2025-01-11 12:13:48.04	195.18	14.74	
2025-01-11 12:13:48.24	195.20	14.76	
2025-01-11 12:13:48.45	195.22	14.78	
2025-01-11 12:13:48.65	195.24	14.81	
2025-01-11 12:13:48.86	195.26	14.83	
2025-01-11 12:13:49.06	195.28	14.85	
2025-01-11 12:13:49.27	195.31	14.87	
2025-01-11 12:13:49.47	195.33	14.89	
2025-01-11 12:13:49.69	195.35	14.91	
2025-01-11 12:13:49.90	195.37	14.94	
2025-01-11 12:13:50.10	195.39	14.96	
2025-01-11 12:13:50.31	195.42	14.98	
2025-01-11 12:13:50.51	195.44	15.00	
2025-01-11 12:13:50.72	195.46	15.02	
2025-01-11 12:13:50.92	195.48	15.04	
2025-01-11 12:13:51.13	195.50	15.07	
2025-01-11 12:13:51.33	195.53	15.09	
2025-01-11 12:13:51.54	195.55	15.11	
2025-01-11 12:13:51.74	195.57	15.13	
2025-01-11 12:13:51.95	195.59	15.15	
2025-01-11 12:13:52.15	195.61	15.18	
2025-01-11 12:13:52.36	195.64	15.20	
2025-01-11 12:13:52.57	195.66	15.22	
2025-01-11 12:13:52.77	195.68	15.24	
2025-01-11 12:13:52.98	195.70	15.26	
2025-01-11 12:13:53.18	195.73	15.29	
2025-01-11 12:13:53.39	195.75	15.31	
2025-01-11 12:13:53.59	195.77	15.33	
2025-01-11 12:13:53.80	195.79	15.35	
2025-01-11 12:13:54.02	195.82	15.38	
2025-01-11 12:13:54.22	195.84	15.40	
2025-01-11 12:13:54.42	195.86	15.42	
2025-01-11 12:13:54.63	195.89	15.44	
2025-01-11 12:13:54.83	195.91	15.46	
2025-01-11 12:13:55.04	195.93	15.48	
2025-01-11 12:13:55.24	195.95	15.51	
2025-01-11 12:13:55.45	195.98	15.53	
2025-01-11 12:13:55.65	196.00	15.55	
2025-01-11 12:13:55.86	196.02	15.57	
2025-01-11 12:13:56.06	196.04	15.59	
2025-01-11 12:13:56.27	196.07	15.62	
2025-01-11 12:13:56.48	196.09	15.64	
2025-01-11 12:13:56.68	196.11	15.66	
2025-01-11 12:13:56.89	196.14	15.68	
2025-01-11 12:13:57.09	196.16	15.71	
2025-01-11 12:13:57.30	196.18	15.73	
2025-01-11 12:13:57.50	196.20	15.75	
2025-01-11 12:13:57.71	196.23	15.77	
2025-01-11 12:13:57.91	196.25	15.80	
2025-01-11 12:13:58.12	196.27	15.82	
2025-01-11 12:13:58.33	196.30	15.84	
2025-01-11 12:13:58.54	196.32	15.86	
2025-01-11 12:13:58.75	196.35	15.89	
2025-01-11 12:13:58.95	196.37	15.91	
2025-01-11 12:13:59.15	196.39	15.93	
2025-01-11 12:13:59.37	196.42	15.96	
2025-01-11 12:13:59.58	196.44	15.98	
2025-01-11 12:13:59.78	196.46	16.00	
2025-01-11 12:13:59.99	196.49	16.02	
2025-01-11 12:14:00.19	196.51	16.05	
2025-01-11 12:14:00.39	196.53	16.07	
2025-01-11 12:14:00.60	196.56	16.09	
2025-01-11 12:14:00.80	196.58	16.11	
2025-01-11 12:14:01.01	196.60	16.14	
2025-01-11 12:14:01.21	196.63	16.16	
2025-01-11 12:14:01.42	196.65	16.18	
2025-01-11 12:14:01.62	196.68	16.20	
2025-01-11 12:14:01.83	196.70	16.23	
2025-01-11 12:14:02.03	196.72	16.25	
2025-01-11 12:14:02.24	196.75	16.27	
2025-01-11 12:14:02.44	196.77	16.29	
2025-01-11 12:14:02.65	196.80	16.32	
2025-01-11 12:14:02.85	196.82	16.34	
2025-01-11 12:14:03.06	196.84	16.36	
2025-01-11 12:14:03.26	196.87	16.38	
2025-01-11 12:14:03.47	196.89	16.41	
2025-01-11 12:14:03.67	196.92	16.43	
2025-01-11 12:14:03.88	196.94	16.45	
2025-01-11 12:14:04.08	196.96	16.48	
2025-01-11 12:14:04.29	196.99	16.50	
2025-01-11 12:14:04.49	197.01	16.52	
2025-01-11 12:14:04.70	197.04	16.55	
2025-01-11 12:14:04.90	197.06	16.57	
2025-01-11 12:14:05.11	197.09	16.59	
2025-01-11 12:14:05.31	197.11	16.61	
2025-01-11 12:14:05.52	197.13	16.64	
2025-01-11 12:14:05.72	197.16	16.66	
2025-01-11 12:14:05.93	197.18	16.68	
2025-01-11 12:14:06.13	197.21	16.71	
2025-01-11 12:14:06.34	197.23	16.73	
2025-01-11 12:14:06.54	197.26	16.75	
2025-01-11 12:14:06.75	197.28	16.78	
2025-01-11 12:14:06.96	197.31	16.80	
2025-01-11 12:14:07.16	197.33	16.82	
2025-01-11 12:14:07.37	197.36	16.85	
2025-01-11 12:14:07.58	197.38	16.87	
2025-01-11 12:14:07.78	197.41	16.89	
2025-01-11 12:14:07.98	197.43	16.92	
2025-01-11 12:14:08.19	197.46	16.94	
2025-01-11 12:14:08.40	197.48	16.96	
2025-01-11 12:14:08.60	197.51	16.99	
2025-01-11 12:14:08.80	197.53	17.01	
2025-01-11 12:14:09.01	197.56	17.03	
2025-01-11 12:14:09.21	197.58	17.06	
2025-01-11 12:14:09.42	197.61	17.08	
2025-01-11 12:14:09.63	197.63	17.10	
2025-01-11 12:14:09.83	197.66	17.13	
2025-01-11 12:14:10.03	197.68	17.15	
2025-01-11 12:14:10.24	197.71	17.17	
2025-01-11 12:14:10.45	197.74	17.20	
2025-01-11 12:14:10.65	197.76	17.22	
2025-01-11 12:14:10.86	197.79	17.24	
2025-01-11 12:14:11.06	197.81	17.27	
2025-01-11 12:14:11.27	197.84	17.29	
2025-01-11 12:14:11.47	197.86	17.31	
2025-01-11 12:14:11.68	197.89	17.34	
2025-01-11 12:14:11.88	197.91	17.36	
2025-01-11 12:14:12.09	197.94	17.39	
2025-01-11 12:14:12.29	197.97	17.41	
2025-01-11 12:14:12.50	197.99	17.43	
2025-01-11 12:14:12.70	198.02	17.46	
2025-01-11 12:14:12.91	198.04	17.48	
2025-01-11 12:14:13.11	198.07	17.50	
2025-01-11 12:14:13.32	198.10	17.53	
2025-01-11 12:14:13.52	198.12	17.55	
2025-01-11 12:14:13.73	198.15	17.58	
2025-01-11 12:14:13.93	198.17	17.60	
2025-01-11 12:14:14.14	198.20	17.62	
2025-01-11 12:14:14.34	198.23	17.65	
2025-01-11 12:14:14.55	198.25	17.67	
2025-01-11 12:14:14.76	198.28	17.70	
2025-01-11 12:14:14.96	198.30	17.72	
2025-01-11 12:14:15.16	198.33	17.74	
2025-01-11 12:14:15.37	198.36	17.77	
2025-01-11 12:14:15.57	198.38	17.79	
2025-01-11 12:14:15.78	198.41	17.82	
2025-01-11 12:14:15.99	198.44	17.84	
2025-01-11 12:14:16.19	198.46	17.86	
2025-01-11 12:14:16.41	198.49	17.89	
2025-01-11 12:14:16.61	198.52	17.91	
2025-01-11 12:14:16.82	198.55	17.94	
2025-01-11 12:14:17.02	198.57	17.96	
2025-01-11 12:14:17.23	198.60	17.99	
2025-01-11 12:14:17.43	198.63	18.01	
2025-01-11 12:14:17.64	198.65	18.03	
2025-01-11 12:14:17.84	198.68	18.06	
2025-01-11 12:14:18.05	198.71	18.08	
2025-01-11 12:14:18.25	198.73	18.11	
2025-01-11 12:14:18.46	198.76	18.13	
2025-01-11 12:14:18.66	198.79	18.15	
2025-01-11 12:14:18.87	198.82	18.18	
2025-01-11 12:14:19.07	198.84	18.20	
2025-01-11 12:14:19.28	198.87	18.23	
2025-01-11 12:14:19.48	198.90	18.25	
2025-01-11 12:14:19.68	198.92	18.28	
2025-01-11 12:14:19.89	198.95	18.30	
2025-01-11 12:14:20.10	198.98	18.33	
2025-01-11 12:14:20.30	199.01	18.35	
2025-01-11 12:14:20.51	199.03	18.38	
2025-01-11 12:14:20.71	199.06	18.40	
2025-01-11 12:14:20.92	199.09	18.42	
2025-01-11 12:14:21.13	199.12	18.45	
2025-01-11 12:14:21.33	199.15	18.47	
2025-01-11 12:14:21.54	199.17	18.50	
2025-01-11 12:14:21.74	199.20	18.52	
2025-01-11 12:14:21.94	199.23	18.55	
2025-01-11 12:14:22.15	199.26	18.57	
2025-01-11 12:14:22.36	199.29	18.60	
2025-01-11 12:14:22.56	199.31	18.62	
2025-01-11 12:14:22.77	199.34	18.65	
2025-01-11 12:14:22.97	199.37	18.67	
2025-01-11 12:14:23.17	199.40	18.69	
2025-01-11 12:14:23.38	199.43	18.72	
2025-01-11 12:14:23.59	199.45	18.75	
2025-01-11 12:14:23.79	199.48	18.77	
2025-01-11 12:14:23.99	199.51	18.79	
2025-01-11 12:14:24.20	199.54	18.82	
2025-01-11 12:14:24.40	199.57	18.84	
2025-01-11 12:14:24.61	199.60	18.87	
2025-01-11 12:14:24.81	199.62	18.89	
2025-01-11 12:14:25.02	199.65	18.92	
2025-01-11 12:14:25.23	199.68	18.94	
2025-01-11 12:14:25.43	199.71	18.97	
2025-01-11 12:14:25.64	199.74	18.99	
2025-01-11 12:14:25.84	199.77	19.02	
2025-01-11 12:14:26.05	199.80	19.04	
2025-01-11 12:14:26.25	199.82	19.07	
2025-01-11 12:14:26.46	199.85	19.09	
2025-01-11 12:14:26.67	199.88	19.12	
2025-01-11 12:14:26.88	199.91	19.15	
2025-01-11 12:14:27.08	199.94	19.17	
2025-01-11 12:14:27.29	199.97	19.20	
2025-01-11 12:14:27.50	200.00	19.22	
2025-01-11 12:14:27.70	200.03	19.25	
2025-01-11 12:14:27.91	200.06	19.27	
2025-01-11 12:14:28.11	200.09	19.30	
2025-01-11 12:14:28.32	200.12	19.32	
2025-01-11 12:14:28.52	200.15	19.35	
2025-01-11 12:14:28.73	200.18	19.37	
2025-01-11 12:14:28.93	200.21	19.40	
2025-01-11 12:14:29.15	200.24	19.43	
2025-01-11 12:14:29.36	200.27	19.45	
2025-01-11 12:14:29.56	200.30	19.48	
2025-01-11 12:14:29.77	200.33	19.50	
2025-01-11 12:14:29.97	200.36	19.53	
2025-01-11 12:14:30.19	200.39	19.56	
2025-01-11 12:14:30.39	200.42	19.58	
2025-01-11 12:14:30.60	200.45	19.61	
2025-01-11 12:14:30.80	200.48	19.63	
2025-01-11 12:14:31.01	200.51	19.66	
2025-01-11 12:14:31.21	200.54	19.68	
2025-01-11 12:14:31.42	200.57	19.71	
2025-01-11 12:14:31.63	200.60	19.73	
2025-01-11 12:14:31.83	200.63	19.76	
2025-01-11 12:14:32.04	200.66	19.79	
2025-01-11 12:14:32.24	200.69	19.81	
2025-01-11 12:14:32.45	200.72	19.84	
2025-01-11 12:14:32.65	200.75	19.86	
2025-01-11 12:14:32.86	200.78	19.89	
2025-01-11 12:14:33.06	200.81	19.91	
2025-01-11 12:14:33.27	200.84	19.94	
2025-01-11 12:14:33.47	200.87	19.97	
2025-01-11 12:14:33.68	200.90	19.99	
2025-01-11 12:14:33.88	200.93	20.02	
2025-01-11 12:14:34.09	200.97	20.04	
2025-01-11 12:14:34.29	201.00	20.07	
2025-01-11 12:14:34.51	201.03	20.10	
2025-01-11 12:14:34.71	201.06	20.12	
2025-01-11 12:14:34.92	201.09	20.15	
2025-01-11 12:14:35.12	201.12	20.17	
2025-01-11 12:14:35.33	201.15	20.20	
2025-01-11 12:14:35.53	201.18	20.23	
2025-01-11 12:14:35.74	201.22	20.25	
2025-01-11 12:14:35.95	201.25	20.28	
2025-01-11 12:14:36.15	201.28	20.31	
2025-01-11 12:14:36.36	201.31	20.33	
2025-01-11 12:14:36.56	201.34	20.36	
2025-01-11 12:14:36.77	201.37	20.38	
2025-01-11 12:14:36.97	201.40	20.41	
2025-01-11 12:14:37.18	201.44	20.44	
2025-01-11 12:14:37.38	201.47	20.46	
2025-01-11 12:14:37.59	201.50	20.49	
2025-01-11 12:14:37.79	201.53	20.51	
2025-01-11 12:14:38.00	201.56	20.54	
2025-01-11 12:14:38.20	201.59	20.57	
2025-01-11 12:14:38.41	201.63	20.59	
2025-01-11 12:14:38.61	201.66	20.62	
2025-01-11 12:14:38.82	201.69	20.65	
2025-01-11 12:14:39.02	201.72	20.67	
2025-01-11 12:14:39.23	201.76	20.70	
2025-01-11 12:14:39.43	201.79	20.73	
2025-01-11 12:14:39.64	201.82	20.75	
2025-01-11 12:14:39.84	201.85	20.78	
2025-01-11 12:14:40.04	201.88	20.80	
2025-01-11 12:14:40.25	201.92	20.83	
2025-01-11 12:14:40.45	201.95	20.86	
2025-01-11 12:14:40.66	201.98	20.88	
2025-01-11 12:14:40.86	202.01	20.91	
2025-01-11 12:14:41.07	202.05	20.94	
2025-01-11 12:14:41.27	202.08	20.96	
2025-01-11 12:14:41.48	202.11	20.99	
2025-01-11 12:14:41.69	202.15	21.02	
2025-01-11 12:14:41.89	202.18	21.04	
2025-01-11 12:14:42.09	202.21	21.07	
2025-01-11 12:14:42.30	202.24	21.10	
2025-01-11 12:14:42.51	202.28	21.13	
2025-01-11 12:14:42.71	202.31	21.15	
2025-01-11 12:14:42.92	202.34	21.18	
2025-01-11 12:14:43.12	202.38	21.21	
2025-01-11 12:14:43.33	202.41	21.23	
2025-01-11 12:14:43.53	202.44	21.26	
2025-01-11 12:14:43.74	202.48	21.29	
2025-01-11 12:14:43.94	202.51	21.31	
2025-01-11 12:14:44.16	202.55	21.34	
2025-01-11 12:14:44.36	202.58	21.37	
2025-01-11 12:14:44.57	202.61	21.40	
2025-01-11 12:14:44.77	202.65	21.42	
2025-01-11 12:14:44.98	202.68	21.45	
2025-01-11 12:14:45.19	202.72	21.48	
2025-01-11 12:14:45.39	202.75	21.50	
2025-01-11 12:14:45.60	202.78	21.53	
2025-01-11 12:14:45.80	202.82	21.56	
2025-01-11 12:14:46.00	202.85	21.59	
2025-01-11 12:14:46.21	202.88	21.61	
2025-01-11 12:14:46.41	202.92	21.64	
2025-01-11 12:14:46.62	202.95	21.67	
2025-01-11 12:14:46.82	202.99	21.69	
2025-01-11 12:14:47.03	203.02	21.72	
2025-01-11 12:14:47.23	203.06	21.75	
2025-01-11 12:14:47.44	203.09	21.78	
2025-01-11 12:14:47.64	203.12	21.80	
2025-01-11 12:14:47.85	203.16	21.83	
2025-01-11 12:14:48.06	203.20	21.86	
2025-01-11 12:14:48.26	203.23	21.89	
2025-01-11 12:14:48.46	203.26	21.91	
2025-01-11 12:14:48.67	203.30	21.94	
2025-01-11 12:14:48.88	203.34	21.97	
2025-01-11 12:14:49.08	203.37	22.00	
2025-01-11 12:14:49.29	203.41	22.02	
2025-01-11 12:14:49.49	203.44	22.05	
2025-01-11 12:14:49.70	203.48	22.08	
2025-01-11 12:14:49.90	203.51	22.11	
2025-01-11 12:14:50.11	203.55	22.13	
2025-01-11 12:14:50.31	203.58	22.16	
2025-01-11 12:14:50.52	203.62	22.19	
2025-01-11 12:14:50.72	203.65	22.22	
2025-01-11 12:14:50.93	203.69	22.24	
2025-01-11 12:14:51.14	203.73	22.27	
2025-01-11 12:14:51.34	203.76	22.30	
2025-01-11 12:14:51.54	203.79	22.33	
2025-01-11 12:14:51.75	203.83	22.36	
2025-01-11 12:14:51.96	203.87	22.38	
2025-01-11 12:14:52.16	203.90	22.41	
2025-01-11 12:14:52.37	203.94	22.44	
2025-01-11 12:14:52.57	203.98	22.47	
2025-01-11 12:14:52.78	204.01	22.50	
2025-01-11 12:14:52.98	204.05	22.52	
2025-01-11 12:14:53.19	204.09	22.55	
2025-01-11 12:14:53.39	204.12	22.58	
2025-01-11 12:14:53.60	204.16	22.61	
2025-01-11 12:14:53.80	204.19	22.63	
2025-01-11 12:14:54.01	204.23	22.66	
2025-01-11 12:14:54.21	204.27	22.69	
2025-01-11 12:14:54.42	204.30	22.72	
2025-01-11 12:14:54.62	204.34	22.75	
2025-01-11 12:14:54.82	204.38	22.77	
2025-01-11 12:14:55.03	204.41	22.80	
2025-01-11 12:14:55.23	204.45	22.83	
2025-01-11 12:14:55.44	204.49	22.86	
2025-01-11 12:14:55.64	204.52	22.89	
2025-01-11 12:14:55.85	204.56	22.92	
2025-01-11 12:14:56.05	204.60	22.94	
2025-01-11 12:14:56.26	204.64	22.97	
2025-01-11 12:14:56.46	204.67	23.00	
2025-01-11 12:14:56.67	204.71	23.03	
2025-01-11 12:14:56.89	204.75	23.06	
2025-01-11 12:14:57.09	204.79	23.09	
2025-01-11 12:14:57.30	204.83	23.12	
2025-01-11 12:14:57.51	204.87	23.14	
2025-01-11 12:14:57.71	204.90	23.17	
2025-01-11 12:14:57.91	204.94	23.20	
2025-01-11 12:14:58.12	204.98	23.23	
2025-01-11 12:14:58.32	205.02	23.26	
2025-01-11 12:14:58.53	205.06	23.29	
2025-01-11 12:14:58.73	205.09	23.31	
2025-01-11 12:14:58.94	205.13	23.34	
2025-01-11 12:14:59.14	205.17	23.37	
2025-01-11 12:14:59.35	205.21	23.40	
2025-01-11 12:14:59.55	205.25	23.43	
2025-01-11 12:14:59.76	205.29	23.46	
2025-01-11 12:14:59.97	205.33	23.49	
2025-01-11 12:15:00.17	205.36	23.52	
2025-01-11 12:15:00.37	205.40	23.54	
2025-01-11 12:15:00.58	205.44	23.57	
2025-01-11 12:15:00.79	205.48	23.60	
2025-01-11 12:15:00.99	205.52	23.63	
2025-01-11 12:15:01.21	205.56	23.66	
2025-01-11 12:15:01.41	205.60	23.69	
2025-01-11 12:15:01.62	205.64	23.72	
2025-01-11 12:15:01.82	205.68	23.75	
2025-01-11 12:15:02.03	205.72	23.78	
2025-01-11 12:15:02.23	205.76	23.80	
2025-01-11 12:15:02.44	205.80	23.83	
2025-01-11 12:15:02.64	205.84	23.86	
2025-01-11 12:15:02.85	205.88	23.89	
2025-01-11 12:15:03.05	205.91	23.92	
2025-01-11 12:15:03.25	205.95	23.95	
2025-01-11 12:15:03.46	205.99	23.98	
2025-01-11 12:15:03.66	206.03	24.01	
2025-01-11 12:15:03.87	206.07	24.04	
2025-01-11 12:15:04.08	206.12	24.07	
2025-01-11 12:15:04.28	206.15	24.09	
2025-01-11 12:15:04.49	206.20	24.12	
2025-01-11 12:15:04.69	206.24	24.15	
2025-01-11 12:15:04.90	206.28	24.18	
2025-01-11 12:15:05.10	206.32	24.21	
2025-01-11 12:15:05.31	206.36	24.24	
2025-01-11 12:15:05.51	206.40	24.27	
2025-01-11 12:15:05.72	206.44	24.30	
2025-01-11 12:15:05.92	206.48	24.33	
2025-01-11 12:15:06.13	206.52	24.36	
2025-01-11 12:15:06.33	206.56	24.39	
2025-01-11 12:15:06.54	206.60	24.42	
2025-01-11 12:15:06.74	206.64	24.44	
2025-01-11 12:15:06.95	206.68	24.48	
2025-01-11 12:15:07.15	206.73	24.50	
2025-01-11 12:15:07.36	206.77	24.53	
2025-01-11 12:15:07.56	206.81	24.56	
2025-01-11 12:15:07.77	206.85	24.59	
2025-01-11 12:15:07.97	206.89	24.62	
2025-01-11 12:15:08.18	206.93	24.65	
2025-01-11 12:15:08.38	206.97	24.68	
2025-01-11 12:15:08.58	207.01	24.71	
2025-01-11 12:15:08.78	207.06	24.74	
2025-01-11 12:15:08.99	207.10	24.77	
2025-01-11 12:15:09.20	207.14	24.80	
2025-01-11 12:15:09.40	207.18	24.83	
2025-01-11 12:15:09.61	207.23	24.86	
2025-01-11 12:15:09.81	207.27	24.89	
2025-01-11 12:15:10.02	207.31	24.92	
2025-01-11 12:15:10.22	207.35	24.95	
2025-01-11 12:15:10.43	207.40	24.98	
2025-01-11 12:15:10.64	207.44	25.01	
2025-01-11 12:15:10.84	207.48	25.04	
2025-01-11 12:15:11.04	207.52	25.07	
2025-01-11 12:15:11.25	207.57	25.10	
2025-01-11 12:15:11.46	207.61	25.13	
2025-01-11 12:15:11.66	207.65	25.16	
2025-01-11 12:15:11.86	207.69	25.18	
2025-01-11 12:15:12.07	207.74	25.22	
2025-01-11 12:15:12.27	207.78	25.24	
2025-01-11 12:15:12.48	207.83	25.27	
2025-01-11 12:15:12.68	207.87	25.30	
2025-01-11 12:15:12.90	207.91	25.34	
2025-01-11 12:15:13.11	207.96	25.37	
2025-01-11 12:15:13.31	208.00	25.40	
2025-01-11 12:15:13.52	208.05	25.43	
2025-01-11 12:15:13.72	208.09	25.46	
2025-01-11 12:15:13.93	208.13	25.49	
2025-01-11 12:15:14.13	208.18	25.52	
2025-01-11 12:15:14.34	208.22	25.55	
2025-01-11 12:15:14.54	208.27	25.58	
2025-01-11 12:15:14.75	208.31	25.61	
2025-01-11 12:15:14.96	208.36	25.64	
2025-01-11 12:15:15.16	208.40	25.67	
2025-01-11 12:15:15.37	208.45	25.70	
2025-01-11 12:15:15.57	208.49	25.73	
2025-01-11 12:15:15.78	208.54	25.76	
2025-01-11 12:15:15.98	208.58	25.79	
2025-01-11 12:15:16.20	208.63	25.82	
2025-01-11 12:15:16.41	208.67	25.85	
2025-01-11 12:15:16.61	208.72	25.88	
2025-01-11 12:15:16.82	208.76	25.91	
2025-01-11 12:15:17.03	208.81	25.94	
2025-01-11 12:15:17.23	208.85	25.97	
2025-01-11 12:15:17.43	208.90	26.00	
2025-01-11 12:15:17.64	208.95	26.03	
2025-01-11 12:15:17.85	208.99	26.07	
2025-01-11 12:15:18.05	209.04	26.10	
2025-01-11 12:15:18.26	209.08	26.13	
2025-01-11 12:15:18.46	209.13	26.16	
2025-01-11 12:15:18.67	209.18	26.19	
2025-01-11 12:15:18.87	209.22	26.22	
2025-01-11 12:15:19.08	209.27	26.25	
2025-01-11 12:15:19.28	209.31	26.28	
2025-01-11 12:15:19.49	209.36	26.31	
2025-01-11 12:15:19.69	209.41	26.34	
2025-01-11 12:15:19.90	209.45	26.37	
2025-01-11 12:15:20.10	209.50	26.40	
2025-01-11 12:15:20.30	209.54	26.43	
2025-01-11 12:15:20.51	209.59	26.46	
2025-01-11 12:15:20.71	209.64	26.49	
2025-01-11 12:15:20.92	209.69	26.52	
2025-01-11 12:15:21.12	209.73	26.55	
2025-01-11 12:15:21.33	209.78	26.59	
2025-01-11 12:15:21.53	209.83	26.62	
2025-01-11 12:15:21.74	209.87	26.65	
2025-01-11 12:15:21.94	209.92	26.68	
2025-01-11 12:15:22.15	209.97	26.71	
2025-01-11 12:15:22.35	210.02	26.74	
2025-01-11 12:15:22.56	210.06	26.77	
2025-01-11 12:15:22.76	210.11	26.80	
2025-01-11 12:15:22.97	210.16	26.83	
2025-01-11 12:15:23.17	210.21	26.86	
2025-01-11 12:15:23.37	210.25	26.89	
2025-01-11 12:15:23.58	210.30	26.92	
2025-01-11 12:15:23.78	210.35	26.95	
2025-01-11 12:15:23.99	210.40	26.99	
2025-01-11 12:15:24.19	210.45	27.02	
2025-01-11 12:15:24.40	210.50	27.05	
2025-01-11 12:15:24.60	210.54	27.08	
2025-01-11 12:15:24.81	210.59	27.11	
2025-01-11 12:15:25.01	210.64	27.14	
2025-01-11 12:15:25.22	210.69	27.17	
2025-01-11 12:15:25.43	210.74	27.20	
2025-01-11 12:15:25.63	210.79	27.23	
2025-01-11 12:15:25.83	210.84	27.26	
2025-01-11 12:15:26.04	210.89	27.30	
2025-01-11 12:15:26.25	210.94	27.33	
2025-01-11 12:15:26.45	210.99	27.36	
2025-01-11 12:15:26.66	211.04	27.39	
2025-01-11 12:15:26.88	211.09	27.42	
2025-01-11 12:15:27.08	211.14	27.45	
2025-01-11 12:15:27.29	211.19	27.49	
2025-01-11 12:15:27.49	211.24	27.52	
2025-01-11 12:15:27.70	211.29	27.55	
2025-01-11 12:15:27.90	211.34	27.58	
2025-01-11 12:15:28.10	211.39	27.61	
2025-01-11 12:15:28.31	211.44	27.64	
2025-01-11 12:15:28.51	211.49	27.67	
2025-01-11 12:15:28.72	211.54	27.70	
2025-01-11 12:15:28.92	211.59	27.74	
2025-01-11 12:15:29.13	211.64	27.77	
2025-01-11 12:15:29.33	211.69	27.80	
2025-01-11 12:15:29.54	211.75	27.83	
2025-01-11 12:15:29.74	211.80	27.86	
2025-01-11 12:15:29.95	211.85	27.89	
2025-01-11 12:15:30.15	211.90	27.92	
2025-01-11 12:15:30.36	211.95	27.96	
2025-01-11 12:15:30.56	212.00	27.99	
2025-01-11 12:15:30.77	212.06	28.02	
2025-01-11 12:15:30.97	212.11	28.05	
2025-01-11 12:15:31.18	212.16	28.08	
2025-01-11 12:15:31.38	212.21	28.11	
2025-01-11 12:15:31.59	212.26	28.14	
2025-01-11 12:15:31.79	212.31	28.18	
2025-01-11 12:15:32.00	212.37	28.21	
2025-01-11 12:15:32.20	212.42	28.24	
2025-01-11 12:15:32.41	212.47	28.27	
2025-01-11 12:15:32.61	212.52	28.30	
2025-01-11 12:15:32.82	212.58	28.33	
2025-01-11 12:15:33.02	212.63	28.37	
2025-01-11 12:15:33.23	212.68	28.40	
2025-01-11 12:15:33.43	212.73	28.43	
2025-01-11 12:15:33.64	212.79	28.46	
2025-01-11 12:15:33.84	212.84	28.49	
2025-01-11 12:15:34.05	212.90	28.52	
2025-01-11 12:15:34.25	212.95	28.56	
2025-01-11 12:15:34.45	213.00	28.59	
2025-01-11 12:15:34.66	213.06	28.62	
2025-01-11 12:15:34.87	213.11	28.65	
2025-01-11 12:15:35.07	213.16	28.68	
2025-01-11 12:15:35.27	213.22	28.71	
2025-01-11 12:15:35.48	213.27	28.75	
2025-01-11 12:15:35.69	213.33	28.78	
2025-01-11 12:15:35.89	213.38	28.81	
2025-01-11 12:15:36.10	213.44	28.84	
2025-01-11 12:15:36.30	213.49	28.87	
2025-01-11 12:15:36.51	213.54	28.91	
2025-01-11 12:15:36.71	213.60	28.94	
2025-01-11 12:15:36.92	213.65	28.97	
2025-01-11 12:15:37.12	213.71	29.00	
2025-01-11 12:15:37.33	213.76	29.03	
2025-01-11 12:15:37.53	213.82	29.06	
2025-01-11 12:15:37.74	213.87	29.10	
2025-01-11 12:15:37.94	213.93	29.13	
2025-01-11 12:15:38.15	213.99	29.16	
2025-01-11 12:15:38.35	214.04	29.19	
2025-01-11 12:15:38.56	214.10	29.23	
2025-01-11 12:15:38.76	214.15	29.26	
2025-01-11 12:15:38.97	214.21	29.29	
2025-01-11 12:15:39.17	214.26	29.32	
2025-01-11 12:15:39.38	214.32	29.35	
2025-01-11 12:15:39.58	214.38	29.38	
2025-01-11 12:15:39.78	214.43	29.42	
2025-01-11 12:15:39.99	214.49	29.45	
2025-01-11 12:15:40.20	214.55	29.48	
2025-01-11 12:15:40.40	214.60	29.51	
2025-01-11 12:15:40.60	214.66	29.54	
2025-01-11 12:15:40.81	214.72	29.58	
2025-01-11 12:15:41.02	214.77	29.61	
2025-01-11 12:15:41.22	214.83	29.64	
2025-01-11 12:15:41.43	214.89	29.67	
2025-01-11 12:15:41.63	214.95	29.71	
2025-01-11 12:15:41.84	215.00	29.74	
2025-01-11 12:15:42.04	215.06	29.77	
2025-01-11 12:15:42.25	215.12	29.80	
2025-01-11 12:15:42.45	215.18	29.83	
2025-01-11 12:15:42.66	215.24	29.87	
2025-01-11 12:15:42.86	215.29	29.90	
2025-01-11 12:15:43.07	215.35	29.93	
2025-01-11 12:15:43.27	215.41	29.96	
2025-01-11 12:15:43.48	215.47	30.00	
2025-01-11 12:15:43.69	215.53	30.03	
2025-01-11 12:15:43.89	215.59	30.06	
2025-01-11 12:15:44.09	215.64	30.09	
2025-01-11 12:15:44.30	215.70	30.12	
2025-01-11 12:15:44.50	215.76	30.16	
2025-01-11 12:15:44.71	215.82	30.19	
2025-01-11 12:15:44.92	215.88	30.22	
2025-01-11 12:15:45.13	215.94	30.25	
2025-01-11 12:15:45.33	216.00	30.29	
2025-01-11 12:15:45.54	216.06	30.32	
2025-01-11 12:15:45.74	216.12	30.35	
2025-01-11 12:15:45.96	216.19	30.39	
2025-01-11 12:15:46.17	216.25	30.42	
2025-01-11 12:15:46.37	216.31	30.45	
2025-01-11 12:15:46.57	216.37	30.48	
2025-01-11 12:15:46.78	216.43	30.51	
2025-01-11 12:15:46.98	216.49	30.55	
2025-01-11 12:15:47.19	216.55	30.58	
2025-01-11 12:15:47.39	216.61	30.61	
2025-01-11 12:15:47.60	216.67	30.64	
2025-01-11 12:15:47.81	216.73	30.68	
2025-01-11 12:15:48.01	216.79	30.71	
2025-01-11 12:15:48.23	216.86	30.74	
2025-01-11 12:15:48.44	216.92	30.78	
2025-01-11 12:15:48.64	216.98	30.81	
2025-01-11 12:15:48.85	217.04	30.84	
2025-01-11 12:15:49.05	217.10	30.87	
2025-01-11 12:15:49.26	217.17	30.91	
2025-01-11 12:15:49.46	217.23	30.94	
2025-01-11 12:15:49.67	217.29	30.97	
2025-01-11 12:15:49.87	217.35	31.00	
2025-01-11 12:15:50.08	217.42	31.04	
2025-01-11 12:15:50.28	217.48	31.07	
2025-01-11 12:15:50.49	217.54	31.10	
2025-01-11 12:15:50.69	217.60	31.13	
2025-01-11 12:15:50.89	217.67	31.16	
2025-01-11 12:15:51.10	217.73	31.20	
2025-01-11 12:15:51.32	217.80	31.23	
2025-01-11 12:15:51.52	217.86	31.26	
2025-01-11 12:15:51.73	217.92	31.30	
2025-01-11 12:15:51.93	217.99	31.33	
2025-01-11 12:15:52.14	218.05	31.36	
2025-01-11 12:15:52.34	218.11	31.39	
2025-01-11 12:15:52.55	218.18	31.42	
2025-01-11 12:15:52.75	218.24	31.46	
2025-01-11 12:15:52.97	218.31	31.49	
2025-01-11 12:15:53.18	218.38	31.52	
2025-01-11 12:15:53.38	218.44	31.56	
2025-01-11 12:15:53.58	218.50	31.59	
2025-01-11 12:15:53.79	218.57	31.62	
2025-01-11 12:15:54.01	218.64	31.66	
2025-01-11 12:15:54.21	218.70	31.69	
2025-01-11 12:15:54.42	218.77	31.72	
2025-01-11 12:15:54.62	218.83	31.75	
2025-01-11 12:15:54.83	218.90	31.78	
2025-01-11 12:15:55.03	218.96	31.82	
2025-01-11 12:15:55.24	219.03	31.85	
2025-01-11 12:15:55.44	219.10	31.88	
2025-01-11 12:15:55.66	219.17	31.92	
2025-01-11 12:15:55.87	219.23	31.95	
2025-01-11 12:15:56.07	219.30	31.98	
2025-01-11 12:15:56.28	219.37	32.01	
2025-01-11 12:15:56.48	219.43	32.05	
2025-01-11 12:15:56.69	219.50	32.08	
2025-01-11 12:15:56.89	219.57	32.11	
2025-01-11 12:15:57.10	219.63	32.14	
2025-01-11 12:15:57.30	219.70	32.17	
2025-01-11 12:15:57.51	219.77	32.21	
2025-01-11 12:15:57.72	219.84	32.24	
2025-01-11 12:15:57.93	219.91	32.27	
2025-01-11 12:15:58.14	219.98	32.31	
2025-01-11 12:15:58.34	220.04	32.34	
2025-01-11 12:15:58.55	220.11	32.37	
2025-01-11 12:15:58.75	220.18	32.40	
2025-01-11 12:15:58.95	220.24	32.43	
2025-01-11 12:15:59.16	220.31	32.47	
2025-01-11 12:15:59.36	220.38	32.50	
2025-01-11 12:15:59.57	220.45	32.53	
2025-01-11 12:15:59.78	220.52	32.57	
2025-01-11 12:15:59.98	220.59	32.60	
2025-01-11 12:16:00.18	220.66	32.63	
2025-01-11 12:16:00.39	220.73	32.66	
2025-01-11 12:16:00.59	220.79	32.69	
2025-01-11 12:16:00.80	220.86	32.73	
2025-01-11 12:16:01.00	220.93	32.76	
2025-01-11 12:16:01.21	221.00	32.79	
2025-01-11 12:16:01.41	221.07	32.82	
2025-01-11 12:16:01.62	221.14	32.85	
2025-01-11 12:16:01.82	221.21	32.89	
2025-01-11 12:16:02.03	221.28	32.92	
2025-01-11 12:16:02.23	221.35	32.95	
2025-01-11 12:16:02.44	221.42	32.98	
2025-01-11 12:16:02.64	221.49	33.01	
2025-01-11 12:16:02.85	221.57	33.05	
2025-01-11 12:16:03.06	221.64	33.08	
2025-01-11 12:16:03.26	221.71	33.11	
2025-01-11 12:16:03.46	221.78	33.14	
2025-01-11 12:16:03.67	221.85	33.18	
2025-01-11 12:16:03.87	221.92	33.21	
2025-01-11 12:16:04.08	221.99	33.24	
2025-01-11 12:16:04.28	222.06	33.27	
2025-01-11 12:16:04.49	222.14	33.30	
2025-01-11 12:16:04.69	222.21	33.33	
2025-01-11 12:16:04.90	222.28	33.37	
2025-01-11 12:16:05.11	222.36	33.40	
2025-01-11 12:16:05.31	222.43	33.43	
2025-01-11 12:16:05.51	222.50	33.46	
2025-01-11 12:16:05.72	222.57	33.50	
2025-01-11 12:16:05.92	222.64	33.53	
2025-01-11 12:16:06.13	222.72	33.56	
2025-01-11 12:16:06.33	222.79	33.59	
2025-01-11 12:16:06.54	222.86	33.62	
2025-01-11 12:16:06.74	222.94	33.65	
2025-01-11 12:16:06.95	223.01	33.69	
2025-01-11 12:16:07.15	223.08	33.72	
2025-01-11 12:16:07.36	223.16	33.75	
2025-01-11 12:16:07.57	223.24	33.78	
2025-01-11 12:16:07.77	223.31	33.81	
2025-01-11 12:16:07.97	223.38	33.85	
2025-01-11 12:16:08.18	223.46	33.88	
2025-01-11 12:16:08.38	223.53	33.91	
2025-01-11 12:16:08.58	223.60	33.94	
2025-01-11 12:16:08.79	223.68	33.97	
2025-01-11 12:16:09.00	223.76	34.00	
2025-01-11 12:16:09.20	223.83	34.04	
2025-01-11 12:16:09.40	223.90	34.07	
2025-01-11 12:16:09.61	223.98	34.10	
2025-01-11 12:16:09.82	224.06	34.13	
2025-01-11 12:16:10.02	224.13	34.16	
2025-01-11 12:16:10.22	224.21	34.19	
2025-01-11 12:16:10.43	224.28	34.23	
2025-01-11 12:16:10.63	224.36	34.26	
2025-01-11 12:16:10.84	224.44	34.29	
2025-01-11 12:16:11.04	224.51	34.32	
2025-01-11 12:16:11.25	224.59	34.35	
2025-01-11 12:16:11.46	224.67	34.38	
2025-01-11 12:16:11.66	224.75	34.41	
2025-01-11 12:16:11.86	224.82	34.44	
2025-01-11 12:16:12.07	224.90	34.48	
2025-01-11 12:16:12.27	224.98	34.51	
2025-01-11 12:16:12.48	225.05	34.54	
2025-01-11 12:16:12.70	225.14	34.57	
2025-01-11 12:16:12.90	225.21	34.60	
2025-01-11 12:16:13.11	225.29	34.64	
2025-01-11 12:16:13.32	225.37	34.67	
2025-01-11 12:16:13.52	225.45	34.70	
2025-01-11 12:16:13.72	225.53	34.73	
2025-01-11 12:16:13.93	225.61	34.76	
2025-01-11 12:16:14.13	225.69	34.79	
2025-01-11 12:16:14.34	225.77	34.82	
2025-01-11 12:16:14.54	225.84	34.85	
2025-01-11 12:16:14.75	225.92	34.89	
2025-01-11 12:16:14.95	226.00	34.92	
2025-01-11 12:16:15.16	226.08	34.95	
2025-01-11 12:16:15.36	226.16	34.98	
2025-01-11 12:16:15.57	226.24	35.01	
2025-01-11 12:16:15.78	226.33	35.04	
2025-01-11 12:16:15.98	226.40	35.07	
2025-01-11 12:16:16.18	226.48	35.10	
2025-01-11 12:16:16.39	226.56	35.13	
2025-01-11 12:16:16.59	226.64	35.16	
2025-01-11 12:16:16.80	226.73	35.19	
2025-01-11 12:16:17.02	226.81	35.23	
2025-01-11 12:16:17.22	226.89	35.26	
2025-01-11 12:16:17.43	226.98	35.29	
2025-01-11 12:16:17.64	227.06	35.32	
2025-01-11 12:16:17.84	227.14	35.35	
2025-01-11 12:16:18.06	227.23	35.38	
2025-01-11 12:16:18.26	227.31	35.41	
2025-01-11 12:16:18.47	227.39	35.44	
2025-01-11 12:16:18.68	227.48	35.48	
2025-01-11 12:16:18.88	227.56	35.50	
2025-01-11 12:16:19.08	227.64	35.53	
2025-01-11 12:16:19.29	227.72	35.57	
2025-01-11 12:16:19.49	227.80	35.60	
2025-01-11 12:16:19.70	227.89	35.63	
2025-01-11 12:16:19.91	227.97	35.66	
2025-01-11 12:16:20.11	228.05	35.69	
2025-01-11 12:16:20.31	228.14	35.72	
2025-01-11 12:16:20.52	228.22	35.75	
2025-01-11 12:16:20.73	228.31	35.78	
2025-01-11 12:16:20.93	228.39	35.81	
2025-01-11 12:16:21.15	228.48	35.84	
2025-01-11 12:16:21.35	228.56	35.87	
2025-01-11 12:16:21.56	228.65	35.90	
2025-01-11 12:16:21.76	228.73	35.93	
2025-01-11 12:16:21.97	228.82	35.96	
2025-01-11 12:16:22.17	228.90	35.99	
2025-01-11 12:16:22.38	228.99	36.02	
2025-01-11 12:16:22.58	229.07	36.05	
2025-01-11 12:16:22.79	229.16	36.08	
2025-01-11 12:16:22.99	229.24	36.11	
2025-01-11 12:16:23.20	229.33	36.14	
2025-01-11 12:16:23.40	229.41	36.17	
2025-01-11 12:16:23.61	229.50	36.20	
2025-01-11 12:16:23.81	229.59	36.23	
2025-01-11 12:16:24.02	229.67	36.26	
2025-01-11 12:16:24.22	229.76	36.29	
2025-01-11 12:16:24.44	229.85	36.32	
2025-01-11 12:16:24.65	229.94	36.35	
2025-01-11 12:16:24.85	230.03	36.38	
2025-01-11 12:16:25.06	230.11	36.41	
2025-01-11 12:16:25.26	230.20	36.43	
2025-01-11 12:16:25.47	230.29	36.46	
2025-01-11 12:16:25.67	230.37	36.49	
2025-01-11 12:16:25.89	230.47	36.52	
2025-01-11 12:16:26.09	230.55	36.55	
2025-01-11 12:16:26.30	230.64	36.58	
2025-01-11 12:16:26.50	230.73	36.61	
2025-01-11 12:16:26.71	230.82	36.64	
2025-01-11 12:16:26.91	230.91	36.67	
2025-01-11 12:16:27.12	231.00	36.70	
2025-01-11 12:16:27.32	231.09	36.73	
2025-01-11 12:16:27.53	231.18	36.76	
2025-01-11 12:16:27.73	231.26	36.78	
2025-01-11 12:16:27.94	231.36	36.81	
2025-01-11 12:16:28.14	231.44	36.84	
2025-01-11 12:16:28.35	231.53	36.87	
2025-01-11 12:16:28.56	231.63	36.90	
2025-01-11 12:16:28.76	231.71	36.93	
2025-01-11 12:16:28.97	231.81	36.96	
2025-01-11 12:16:29.17	231.90	36.98	
2025-01-11 12:16:29.38	231.99	37.01	
2025-01-11 12:16:29.59	232.08	37.04	
2025-01-11 12:16:29.79	232.17	37.07	
2025-01-11 12:16:29.99	232.26	37.10	
2025-01-11 12:16:30.20	232.35	37.13	
2025-01-11 12:16:30.40	232.44	37.15	
2025-01-11 12:16:30.61	232.53	37.18	
2025-01-11 12:16:30.81	232.62	37.21	
2025-01-11 12:16:31.02	232.72	37.24	
2025-01-11 12:16:31.23	232.81	37.27	
2025-01-11 12:16:31.43	232.90	37.29	
2025-01-11 12:16:31.64	233.00	37.32	
2025-01-11 12:16:31.84	233.09	37.35	
2025-01-11 12:16:32.05	233.18	37.38	
2025-01-11 12:16:32.25	233.27	37.40	
2025-01-11 12:16:32.46	233.37	37.43	
2025-01-11 12:16:32.67	233.46	37.46	
2025-01-11 12:16:32.87	233.55	37.49	
2025-01-11 12:16:33.08	233.65	37.51	
2025-01-11 12:16:33.28	233.74	37.54	
2025-01-11 12:16:33.49	233.84	37.57	
2025-01-11 12:16:33.69	233.93	37.59	
2025-01-11 12:16:33.90	234.02	37.62	
2025-01-11 12:16:34.10	234.11	37.65	
2025-01-11 12:16:34.31	234.21	37.68	
2025-01-11 12:16:34.51	234.30	37.70	
2025-01-11 12:16:34.72	234.40	37.73	
2025-01-11 12:16:34.93	234.50	37.76	
2025-01-11 12:16:35.13	234.59	37.78	
2025-01-11 12:16:35.34	234.69	37.81	
2025-01-11 12:16:35.54	234.78	37.84	
2025-01-11 12:16:35.74	234.87	37.86	
2025-01-11 12:16:35.95	234.97	37.89	
2025-01-11 12:16:36.15	235.06	37.92	
2025-01-11 12:16:36.36	235.16	37.94	
2025-01-11 12:16:36.56	235.26	37.97	
2025-01-11 12:16:36.77	235.36	37.99	
2025-01-11 12:16:36.98	235.45	38.02	
2025-01-11 12:16:37.18	235.55	38.05	
2025-01-11 12:16:37.38	235.64	38.07	
2025-01-11 12:16:37.59	235.74	38.10	
2025-01-11 12:16:37.79	235.84	38.12	
2025-01-11 12:16:38.00	235.94	38.15	
2025-01-11 12:16:38.20	236.03	38.18	
2025-01-11 12:16:38.41	236.13	38.20	
2025-01-11 12:16:38.61	236.23	38.23	
2025-01-11 12:16:38.82	236.33	38.25	
2025-01-11 12:16:39.03	236.43	38.28	
2025-01-11 12:16:39.23	236.52	38.30	
2025-01-11 12:16:39.45	236.63	38.33	
2025-01-11 12:16:39.65	236.72	38.35	
2025-01-11 12:16:39.86	236.82	38.38	
2025-01-11 12:16:40.06	236.92	38.41	
2025-01-11 12:16:40.27	237.02	38.43	
2025-01-11 12:16:40.47	237.12	38.46	
2025-01-11 12:16:40.68	237.22	38.48	
2025-01-11 12:16:40.88	237.32	38.50	
2025-01-11 12:16:41.09	237.42	38.53	
2025-01-11 12:16:41.29	237.51	38.55	
2025-01-11 12:16:41.49	237.61	38.58	
2025-01-11 12:16:41.70	237.71	38.60	
2025-01-11 12:16:41.91	237.82	38.63	
2025-01-11 12:16:42.11	237.91	38.65	
2025-01-11 12:16:42.32	238.02	38.68	
2025-01-11 12:16:42.52	238.11	38.70	
2025-01-11 12:16:42.73	238.22	38.72	
2025-01-11 12:16:42.94	238.32	38.75	
2025-01-11 12:16:43.14	238.42	38.77	
2025-01-11 12:16:43.35	238.52	38.80	
2025-01-11 12:16:43.55	238.62	38.82	
2025-01-11 12:16:43.75	238.72	38.84	
2025-01-11 12:16:43.96	238.82	38.87	
2025-01-11 12:16:44.16	238.92	38.89	
2025-01-11 12:16:44.37	239.03	38.91	
2025-01-11 12:16:44.57	239.13	38.94	
2025-01-11 12:16:44.79	239.24	38.96	
2025-01-11 12:16:45.00	239.34	38.99	
2025-01-11 12:16:45.20	239.44	39.01	
2025-01-11 12:16:45.41	239.55	39.03	
2025-01-11 12:16:45.61	239.65	39.05	
2025-01-11 12:16:45.82	239.75	39.08	
2025-01-11 12:16:46.02	239.85	39.10	
2025-01-11 12:16:46.23	239.96	39.12	
2025-01-11 12:16:46.43	240.06	39.15	
2025-01-11 12:16:46.64	240.16	39.17	
2025-01-11 12:16:46.84	240.27	39.19	
2025-01-11 12:16:47.05	240.37	39.21	
2025-01-11 12:16:47.25	240.47	39.23	
2025-01-11 12:16:47.46	240.58	39.26	
2025-01-11 12:16:47.67	240.69	39.28	
2025-01-11 12:16:47.87	240.79	39.30	
2025-01-11 12:16:48.07	240.89	39.32	
2025-01-11 12:16:48.28	241.00	39.35	
2025-01-11 12:16:48.48	241.10	39.37	
2025-01-11 12:16:48.69	241.21	39.39	
2025-01-11 12:16:48.89	241.31	39.41	
2025-01-11 12:16:49.10	241.42	39.43	
2025-01-11 12:16:49.30	241.52	39.45	
2025-01-11 12:16:49.51	241.63	39.47	
2025-01-11 12:16:49.71	241.73	39.49	
2025-01-11 12:16:49.92	241.84	39.52	
2025-01-11 12:16:50.12	241.94	39.54	
2025-01-11 12:16:50.33	242.05	39.56	
2025-01-11 12:16:50.53	242.15	39.58	
2025-01-11 12:16:50.74	242.26	39.60	
2025-01-11 12:16:50.94	242.37	39.62	
2025-01-11 12:16:51.15	242.48	39.64	
2025-01-11 12:16:51.35	242.58	39.66	
2025-01-11 12:16:51.56	242.69	39.68	
2025-01-11 12:16:51.76	242.79	39.70	
2025-01-11 12:16:51.97	242.90	39.72	
2025-01-11 12:16:52.17	243.01	39.74	
2025-01-11 12:16:52.38	243.12	39.76	
2025-01-11 12:16:52.59	243.23	39.78	
2025-01-11 12:16:52.79	243.33	39.80	
2025-01-11 12:16:53.00	243.44	39.82	
2025-01-11 12:16:53.20	243.55	39.84	
2025-01-11 12:16:53.41	243.66	39.86	
2025-01-11 12:16:53.61	243.76	39.88	
2025-01-11 12:16:53.82	243.87	39.90	
2025-01-11 12:16:54.02	243.98	39.92	
2025-01-11 12:16:54.23	244.09	39.94	
2025-01-11 12:16:54.45	244.21	39.96	
2025-01-11 12:16:54.65	244.31	39.98	
2025-01-11 12:16:54.86	244.42	40.00	
2025-01-11 12:16:55.06	244.53	40.01	
2025-01-11 12:16:55.26	244.64	40.03	
2025-01-11 12:16:55.47	244.75	40.05	
2025-01-11 12:16:55.67	244.86	40.07	
2025-01-11 12:16:55.88	244.97	40.09	
2025-01-11 12:16:56.08	245.08	40.10	
2025-01-11 12:16:56.29	245.19	40.12	
2025-01-11 12:16:56.49	245.29	40.14	
2025-01-11 12:16:56.70	245.41	40.16	
2025-01-11 12:16:56.90	245.51	40.18	
2025-01-11 12:16:57.11	245.63	40.19	
2025-01-11 12:16:57.32	245.74	40.21	
2025-01-11 12:16:57.52	245.85	40.23	
2025-01-11 12:16:57.73	245.96	40.25	
2025-01-11 12:16:57.93	246.07	40.26	
2025-01-11 12:16:58.13	246.18	40.28	
2025-01-11 12:16:58.34	246.29	40.30	
2025-01-11 12:16:58.55	246.40	40.31	
2025-01-11 12:16:58.75	246.51	40.33	
2025-01-11 12:16:58.95	246.62	40.35	
2025-01-11 12:16:59.16	246.74	40.36	
2025-01-11 12:16:59.36	246.84	40.38	
2025-01-11 12:16:59.57	246.96	40.40	
2025-01-11 12:16:59.77	247.07	40.41	
2025-01-11 12:16:59.98	247.18	40.43	
2025-01-11 12:17:00.18	247.29	40.44	
2025-01-11 12:17:00.39	247.41	40.46	
2025-01-11 12:17:00.59	247.52	40.48	
2025-01-11 12:17:00.80	247.63	40.49	
2025-01-11 12:17:01.00	247.74	40.51	
2025-01-11 12:17:01.21	247.86	40.52	
2025-01-11 12:17:01.42	247.97	40.54	
2025-01-11 12:17:01.62	248.08	40.55	
2025-01-11 12:17:01.82	248.19	40.57	
2025-01-11 12:17:02.03	248.31	40.58	
2025-01-11 12:17:02.23	248.42	40.60	
2025-01-11 12:17:02.44	248.53	40.61	
2025-01-11 12:17:02.65	248.65	40.63	
2025-01-11 12:17:02.85	248.76	40.64	
2025-01-11 12:17:03.05	248.87	40.66	
2025-01-11 12:17:03.26	248.99	40.67	
2025-01-11 12:17:03.46	249.10	40.68	
2025-01-11 12:17:03.67	249.21	40.70	
2025-01-11 12:17:03.87	249.32	40.71	
2025-01-11 12:17:04.08	249.44	40.73	
2025-01-11 12:17:04.28	249.55	40.74	
2025-01-11 12:17:04.48	249.66	40.75	
2025-01-11 12:17:04.69	249.78	40.77	
2025-01-11 12:17:04.90	249.90	40.78	
2025-01-11 12:17:05.10	250.01	40.79	
2025-01-11 12:17:05.30	250.12	40.81	
2025-01-11 12:17:05.51	250.24	40.82	
2025-01-11 12:17:05.71	250.35	40.83	
2025-01-11 12:17:05.93	250.47	40.85	
2025-01-11 12:17:06.15	250.60	40.86	
2025-01-11 12:17:06.36	250.71	40.87	
2025-01-11 12:17:06.56	250.83	40.88	
2025-01-11 12:17:06.77	250.94	40.90	
2025-01-11 12:17:06.97	251.06	40.91	
2025-01-11 12:17:07.18	251.17	40.92	
2025-01-11 12:17:07.38	251.29	40.93	
2025-01-11 12:17:07.59	251.40	40.94	
2025-01-11 12:17:07.79	251.52	40.96	
2025-01-11 12:17:08.00	251.64	40.97	
2025-01-11 12:17:08.20	251.75	40.98	
2025-01-11 12:17:08.41	251.87	40.99	
2025-01-11 12:17:08.61	251.98	41.00	
2025-01-11 12:17:08.82	252.10	41.01	
2025-01-11 12:17:09.02	252.21	41.02	
2025-01-11 12:17:09.23	252.33	41.03	
2025-01-11 12:17:09.43	252.44	41.04	
2025-01-11 12:17:09.64	252.56	41.05	
2025-01-11 12:17:09.84	252.68	41.06	
2025-01-11 12:17:10.05	252.80	41.07	
2025-01-11 12:17:10.25	252.91	41.08	
2025-01-11 12:17:10.46	253.03	41.09	
2025-01-11 12:17:10.66	253.14	41.10	
2025-01-11 12:17:10.87	253.26	41.11	
2025-01-11 12:17:11.07	253.38	41.12	
2025-01-11 12:17:11.27	253.49	41.13	
2025-01-11 12:17:11.48	253.61	41.14	
2025-01-11 12:17:11.68	253.72	41.15	
2025-01-11 12:17:11.89	253.84	41.16	
2025-01-11 12:17:12.10	253.96	41.17	
2025-01-11 12:17:12.30	254.08	41.18	
2025-01-11 12:17:12.52	254.20	41.19	
2025-01-11 12:17:12.72	254.32	41.20	
2025-01-11 12:17:12.93	254.44	41.21	
2025-01-11 12:17:13.14	254.56	41.21	
2025-01-11 12:17:13.34	254.67	41.22	
2025-01-11 12:17:13.55	254.79	41.23	
2025-01-11 12:17:13.75	254.91	41.24	
2025-01-11 12:17:13.96	255.03	41.25	
2025-01-11 12:17:14.16	255.14	41.25	
2025-01-11 12:17:14.37	255.26	41.26	
2025-01-11 12:17:14.57	255.38	41.27	
2025-01-11 12:17:14.78	255.50	41.28	
2025-01-11 12:17:14.98	255.61	41.28	
