passes_logs/2025/01/11/SPB_Silybum_02/SPB_Silybum_02__20250111_012813_SUOMI_NPP_rec.log

#Pass ID: 20250111_012813_SUOMI NPP
#Satellite: SUOMI NPP
#Configuration: NPP
#Start time: 2025-01-11 01:28:12

#Version: 2.0.20230423
#Station: SPB_Silybum_02
#Location: 30.233357 lon 59.946436 lat
#TLE: 1 37849U 11061A   25009.91542277  .00000197  00000+0  11407-3 0  9995
#TLE: 2 37849  98.7440 310.9686 0001842  48.7836 311.3498 14.19535939684207

#Time	Az	El	Level	Level2	SNR	BER	Gain	Gain2
2025-01-11 01:28:14.09	15.16	4.01	
2025-01-11 01:28:14.29	15.15	4.03	
2025-01-11 01:28:14.50	15.14	4.04	
2025-01-11 01:28:14.70	15.13	4.05	
2025-01-11 01:28:14.90	15.13	4.07	
2025-01-11 01:28:15.11	15.12	4.08	
2025-01-11 01:28:15.31	15.11	4.09	
2025-01-11 01:28:15.52	15.10	4.11	
2025-01-11 01:28:15.72	15.09	4.12	
2025-01-11 01:28:15.93	15.08	4.13	
2025-01-11 01:28:16.13	15.07	4.15	
2025-01-11 01:28:16.34	15.06	4.16	
2025-01-11 01:28:16.54	15.05	4.17	
2025-01-11 01:28:16.75	15.04	4.19	
2025-01-11 01:28:16.95	15.03	4.20	
2025-01-11 01:28:17.16	15.02	4.22	
2025-01-11 01:28:17.37	15.01	4.23	
2025-01-11 01:28:17.58	15.00	4.24	
2025-01-11 01:28:17.78	15.00	4.26	
2025-01-11 01:28:17.98	14.99	4.27	
2025-01-11 01:28:18.19	14.98	4.28	
2025-01-11 01:28:18.41	14.97	4.30	
2025-01-11 01:28:18.61	14.96	4.31	
2025-01-11 01:28:18.81	14.95	4.32	
2025-01-11 01:28:19.02	14.94	4.34	
2025-01-11 01:28:19.22	14.93	4.35	
2025-01-11 01:28:19.43	14.92	4.37	
2025-01-11 01:28:19.63	14.91	4.38	
2025-01-11 01:28:19.83	14.90	4.39	
2025-01-11 01:28:20.04	14.89	4.41	
2025-01-11 01:28:20.25	14.88	4.42	
2025-01-11 01:28:20.45	14.87	4.43	
2025-01-11 01:28:20.65	14.86	4.45	
2025-01-11 01:28:20.86	14.85	4.46	
2025-01-11 01:28:21.06	14.85	4.47	
2025-01-11 01:28:21.27	14.84	4.49	
2025-01-11 01:28:21.48	14.83	4.50	
2025-01-11 01:28:21.69	14.82	4.51	
2025-01-11 01:28:21.89	14.81	4.53	
2025-01-11 01:28:22.10	14.80	4.54	
2025-01-11 01:28:22.30	14.79	4.56	
2025-01-11 01:28:22.51	14.78	4.57	
2025-01-11 01:28:22.71	14.77	4.58	
2025-01-11 01:28:22.92	14.76	4.60	
2025-01-11 01:28:23.12	14.75	4.61	
2025-01-11 01:28:23.33	14.74	4.62	
2025-01-11 01:28:23.54	14.73	4.64	
2025-01-11 01:28:23.74	14.72	4.65	
2025-01-11 01:28:23.94	14.71	4.66	
2025-01-11 01:28:24.15	14.70	4.68	
2025-01-11 01:28:24.35	14.69	4.69	
2025-01-11 01:28:24.56	14.68	4.71	
2025-01-11 01:28:24.76	14.67	4.72	
2025-01-11 01:28:24.97	14.66	4.73	
2025-01-11 01:28:25.17	14.65	4.75	
2025-01-11 01:28:25.38	14.64	4.76	
2025-01-11 01:28:25.58	14.63	4.77	
2025-01-11 01:28:25.79	14.62	4.79	
2025-01-11 01:28:25.99	14.61	4.80	
2025-01-11 01:28:26.20	14.60	4.82	
2025-01-11 01:28:26.41	14.59	4.83	
2025-01-11 01:28:26.61	14.59	4.84	
2025-01-11 01:28:26.81	14.58	4.86	
2025-01-11 01:28:27.02	14.57	4.87	
2025-01-11 01:28:27.22	14.56	4.88	
2025-01-11 01:28:27.43	14.55	4.90	
2025-01-11 01:28:27.63	14.54	4.91	
2025-01-11 01:28:27.84	14.53	4.93	
2025-01-11 01:28:28.04	14.52	4.94	
2025-01-11 01:28:28.24	14.51	4.95	
2025-01-11 01:28:28.45	14.50	4.97	
2025-01-11 01:28:28.65	14.49	4.98	
2025-01-11 01:28:28.86	14.48	4.99	
2025-01-11 01:28:29.07	14.47	5.01	
2025-01-11 01:28:29.27	14.46	5.02	
2025-01-11 01:28:29.48	14.45	5.04	
2025-01-11 01:28:29.68	14.44	5.05	
2025-01-11 01:28:29.89	14.43	5.06	
2025-01-11 01:28:30.09	14.42	5.08	
2025-01-11 01:28:30.30	14.41	5.09	
2025-01-11 01:28:30.50	14.40	5.10	
2025-01-11 01:28:30.71	14.39	5.12	
2025-01-11 01:28:30.92	14.38	5.13	
2025-01-11 01:28:31.12	14.37	5.15	
2025-01-11 01:28:31.33	14.36	5.16	
2025-01-11 01:28:31.53	14.35	5.17	
2025-01-11 01:28:31.74	14.34	5.19	
2025-01-11 01:28:31.94	14.33	5.20	
2025-01-11 01:28:32.14	14.32	5.22	
2025-01-11 01:28:32.35	14.31	5.23	
2025-01-11 01:28:32.56	14.30	5.24	
2025-01-11 01:28:32.76	14.29	5.26	
2025-01-11 01:28:32.97	14.28	5.27	
2025-01-11 01:28:33.17	14.27	5.29	
2025-01-11 01:28:33.38	14.26	5.30	
2025-01-11 01:28:33.58	14.25	5.31	
2025-01-11 01:28:33.79	14.24	5.33	
2025-01-11 01:28:33.99	14.23	5.34	
2025-01-11 01:28:34.20	14.22	5.36	
2025-01-11 01:28:34.40	14.21	5.37	
2025-01-11 01:28:34.61	14.20	5.38	
2025-01-11 01:28:34.81	14.19	5.40	
2025-01-11 01:28:35.02	14.18	5.41	
2025-01-11 01:28:35.23	14.17	5.43	
2025-01-11 01:28:35.43	14.16	5.44	
2025-01-11 01:28:35.64	14.15	5.45	
2025-01-11 01:28:35.84	14.14	5.47	
2025-01-11 01:28:36.05	14.13	5.48	
2025-01-11 01:28:36.25	14.12	5.50	
2025-01-11 01:28:36.47	14.11	5.51	
2025-01-11 01:28:36.67	14.10	5.53	
2025-01-11 01:28:36.88	14.08	5.54	
2025-01-11 01:28:37.08	14.07	5.55	
2025-01-11 01:28:37.29	14.06	5.57	
2025-01-11 01:28:37.49	14.05	5.58	
2025-01-11 01:28:37.70	14.04	5.60	
2025-01-11 01:28:37.91	14.03	5.61	
2025-01-11 01:28:38.11	14.02	5.62	
2025-01-11 01:28:38.32	14.01	5.64	
2025-01-11 01:28:38.52	14.00	5.65	
2025-01-11 01:28:38.72	13.99	5.67	
2025-01-11 01:28:38.93	13.98	5.68	
2025-01-11 01:28:39.13	13.97	5.69	
2025-01-11 01:28:39.34	13.96	5.71	
2025-01-11 01:28:39.54	13.95	5.72	
2025-01-11 01:28:39.75	13.94	5.74	
2025-01-11 01:28:39.95	13.93	5.75	
2025-01-11 01:28:40.16	13.92	5.77	
2025-01-11 01:28:40.37	13.91	5.78	
2025-01-11 01:28:40.57	13.90	5.79	
2025-01-11 01:28:40.77	13.89	5.81	
2025-01-11 01:28:40.98	13.88	5.82	
2025-01-11 01:28:41.18	13.87	5.84	
2025-01-11 01:28:41.39	13.86	5.85	
2025-01-11 01:28:41.59	13.85	5.86	
2025-01-11 01:28:41.80	13.84	5.88	
2025-01-11 01:28:42.00	13.83	5.89	
2025-01-11 01:28:42.21	13.81	5.91	
2025-01-11 01:28:42.41	13.80	5.92	
2025-01-11 01:28:42.62	13.79	5.94	
2025-01-11 01:28:42.83	13.78	5.95	
2025-01-11 01:28:43.04	13.77	5.97	
2025-01-11 01:28:43.24	13.76	5.98	
2025-01-11 01:28:43.45	13.75	5.99	
2025-01-11 01:28:43.65	13.74	6.01	
2025-01-11 01:28:43.86	13.73	6.02	
2025-01-11 01:28:44.06	13.72	6.04	
2025-01-11 01:28:44.27	13.71	6.05	
2025-01-11 01:28:44.47	13.70	6.07	
2025-01-11 01:28:44.68	13.69	6.08	
2025-01-11 01:28:44.88	13.68	6.09	
2025-01-11 01:28:45.09	13.67	6.11	
2025-01-11 01:28:45.29	13.65	6.12	
2025-01-11 01:28:45.50	13.64	6.14	
2025-01-11 01:28:45.70	13.63	6.15	
2025-01-11 01:28:45.91	13.62	6.17	
2025-01-11 01:28:46.11	13.61	6.18	
2025-01-11 01:28:46.31	13.60	6.19	
2025-01-11 01:28:46.52	13.59	6.21	
2025-01-11 01:28:46.72	13.58	6.22	
2025-01-11 01:28:46.93	13.57	6.24	
2025-01-11 01:28:47.13	13.56	6.25	
2025-01-11 01:28:47.34	13.55	6.27	
2025-01-11 01:28:47.55	13.54	6.28	
2025-01-11 01:28:47.75	13.53	6.30	
2025-01-11 01:28:47.96	13.51	6.31	
2025-01-11 01:28:48.16	13.50	6.32	
2025-01-11 01:28:48.36	13.49	6.34	
2025-01-11 01:28:48.57	13.48	6.35	
2025-01-11 01:28:48.77	13.47	6.37	
2025-01-11 01:28:48.98	13.46	6.38	
2025-01-11 01:28:49.19	13.45	6.40	
2025-01-11 01:28:49.39	13.44	6.41	
2025-01-11 01:28:49.60	13.43	6.43	
2025-01-11 01:28:49.80	13.42	6.44	
2025-01-11 01:28:50.01	13.41	6.45	
2025-01-11 01:28:50.21	13.39	6.47	
2025-01-11 01:28:50.41	13.38	6.48	
2025-01-11 01:28:50.62	13.37	6.50	
2025-01-11 01:28:50.83	13.36	6.51	
2025-01-11 01:28:51.03	13.35	6.53	
2025-01-11 01:28:51.24	13.34	6.54	
2025-01-11 01:28:51.46	13.33	6.56	
2025-01-11 01:28:51.66	13.32	6.57	
2025-01-11 01:28:51.87	13.31	6.59	
2025-01-11 01:28:52.07	13.29	6.60	
2025-01-11 01:28:52.28	13.28	6.62	
2025-01-11 01:28:52.48	13.27	6.63	
2025-01-11 01:28:52.69	13.26	6.64	
2025-01-11 01:28:52.89	13.25	6.66	
2025-01-11 01:28:53.10	13.24	6.67	
2025-01-11 01:28:53.30	13.23	6.69	
2025-01-11 01:28:53.50	13.22	6.70	
2025-01-11 01:28:53.71	13.21	6.72	
2025-01-11 01:28:53.91	13.19	6.73	
2025-01-11 01:28:54.12	13.18	6.75	
2025-01-11 01:28:54.32	13.17	6.76	
2025-01-11 01:28:54.53	13.16	6.78	
2025-01-11 01:28:54.73	13.15	6.79	
2025-01-11 01:28:54.94	13.14	6.81	
2025-01-11 01:28:55.15	13.13	6.82	
2025-01-11 01:28:55.35	13.12	6.83	
2025-01-11 01:28:55.56	13.10	6.85	
2025-01-11 01:28:55.76	13.09	6.86	
2025-01-11 01:28:55.97	13.08	6.88	
2025-01-11 01:28:56.17	13.07	6.89	
2025-01-11 01:28:56.38	13.06	6.91	
2025-01-11 01:28:56.58	13.05	6.92	
2025-01-11 01:28:56.79	13.04	6.94	
2025-01-11 01:28:56.99	13.02	6.95	
2025-01-11 01:28:57.20	13.01	6.97	
2025-01-11 01:28:57.41	13.00	6.98	
2025-01-11 01:28:57.61	12.99	7.00	
2025-01-11 01:28:57.81	12.98	7.01	
2025-01-11 01:28:58.02	12.97	7.03	
2025-01-11 01:28:58.23	12.96	7.04	
2025-01-11 01:28:58.43	12.94	7.06	
2025-01-11 01:28:58.64	12.93	7.07	
2025-01-11 01:28:58.84	12.92	7.09	
2025-01-11 01:28:59.05	12.91	7.10	
2025-01-11 01:28:59.25	12.90	7.12	
2025-01-11 01:28:59.46	12.89	7.13	
2025-01-11 01:28:59.67	12.87	7.15	
2025-01-11 01:28:59.87	12.86	7.16	
2025-01-11 01:29:00.07	12.85	7.18	
2025-01-11 01:29:00.28	12.84	7.19	
2025-01-11 01:29:00.48	12.83	7.20	
2025-01-11 01:29:00.69	12.82	7.22	
2025-01-11 01:29:00.89	12.81	7.23	
2025-01-11 01:29:01.10	12.79	7.25	
2025-01-11 01:29:01.30	12.78	7.26	
2025-01-11 01:29:01.51	12.77	7.28	
2025-01-11 01:29:01.71	12.76	7.29	
2025-01-11 01:29:01.92	12.75	7.31	
2025-01-11 01:29:02.12	12.74	7.32	
2025-01-11 01:29:02.33	12.72	7.34	
2025-01-11 01:29:02.53	12.71	7.35	
2025-01-11 01:29:02.74	12.70	7.37	
2025-01-11 01:29:02.95	12.69	7.38	
2025-01-11 01:29:03.16	12.68	7.40	
2025-01-11 01:29:03.37	12.66	7.42	
2025-01-11 01:29:03.57	12.65	7.43	
2025-01-11 01:29:03.78	12.64	7.45	
2025-01-11 01:29:03.98	12.63	7.46	
2025-01-11 01:29:04.18	12.62	7.47	
2025-01-11 01:29:04.39	12.61	7.49	
2025-01-11 01:29:04.60	12.59	7.51	
2025-01-11 01:29:04.80	12.58	7.52	
2025-01-11 01:29:05.01	12.57	7.54	
2025-01-11 01:29:05.21	12.56	7.55	
2025-01-11 01:29:05.42	12.55	7.57	
2025-01-11 01:29:05.62	12.53	7.58	
2025-01-11 01:29:05.82	12.52	7.60	
2025-01-11 01:29:06.03	12.51	7.61	
2025-01-11 01:29:06.23	12.50	7.63	
2025-01-11 01:29:06.44	12.49	7.64	
2025-01-11 01:29:06.64	12.47	7.66	
2025-01-11 01:29:06.85	12.46	7.67	
2025-01-11 01:29:07.05	12.45	7.69	
2025-01-11 01:29:07.26	12.44	7.70	
2025-01-11 01:29:07.48	12.43	7.72	
2025-01-11 01:29:07.68	12.41	7.73	
2025-01-11 01:29:07.89	12.40	7.75	
2025-01-11 01:29:08.09	12.39	7.76	
2025-01-11 01:29:08.30	12.38	7.78	
2025-01-11 01:29:08.50	12.37	7.79	
2025-01-11 01:29:08.71	12.35	7.81	
2025-01-11 01:29:08.91	12.34	7.82	
2025-01-11 01:29:09.11	12.33	7.84	
2025-01-11 01:29:09.32	12.32	7.85	
2025-01-11 01:29:09.52	12.31	7.87	
2025-01-11 01:29:09.73	12.29	7.88	
2025-01-11 01:29:09.93	12.28	7.90	
2025-01-11 01:29:10.14	12.27	7.91	
2025-01-11 01:29:10.34	12.26	7.93	
2025-01-11 01:29:10.54	12.24	7.94	
2025-01-11 01:29:10.75	12.23	7.96	
2025-01-11 01:29:10.95	12.22	7.97	
2025-01-11 01:29:11.16	12.21	7.99	
2025-01-11 01:29:11.37	12.19	8.01	
2025-01-11 01:29:11.57	12.18	8.02	
2025-01-11 01:29:11.77	12.17	8.04	
2025-01-11 01:29:11.98	12.16	8.05	
2025-01-11 01:29:12.19	12.15	8.07	
2025-01-11 01:29:12.39	12.13	8.08	
2025-01-11 01:29:12.60	12.12	8.10	
2025-01-11 01:29:12.81	12.11	8.11	
2025-01-11 01:29:13.02	12.10	8.13	
2025-01-11 01:29:13.22	12.08	8.14	
2025-01-11 01:29:13.43	12.07	8.16	
2025-01-11 01:29:13.63	12.06	8.18	
2025-01-11 01:29:13.84	12.05	8.19	
2025-01-11 01:29:14.04	12.03	8.21	
2025-01-11 01:29:14.25	12.02	8.22	
2025-01-11 01:29:14.45	12.01	8.24	
2025-01-11 01:29:14.66	12.00	8.25	
2025-01-11 01:29:14.86	11.98	8.27	
2025-01-11 01:29:15.07	11.97	8.28	
2025-01-11 01:29:15.27	11.96	8.30	
2025-01-11 01:29:15.48	11.95	8.31	
2025-01-11 01:29:15.68	11.93	8.33	
2025-01-11 01:29:15.88	11.92	8.34	
2025-01-11 01:29:16.09	11.91	8.36	
2025-01-11 01:29:16.30	11.89	8.38	
2025-01-11 01:29:16.50	11.88	8.39	
2025-01-11 01:29:16.71	11.87	8.41	
2025-01-11 01:29:16.91	11.86	8.42	
2025-01-11 01:29:17.12	11.84	8.44	
2025-01-11 01:29:17.32	11.83	8.45	
2025-01-11 01:29:17.53	11.82	8.47	
2025-01-11 01:29:17.73	11.81	8.48	
2025-01-11 01:29:17.94	11.79	8.50	
2025-01-11 01:29:18.14	11.78	8.52	
2025-01-11 01:29:18.35	11.77	8.53	
2025-01-11 01:29:18.55	11.76	8.55	
2025-01-11 01:29:18.76	11.74	8.56	
2025-01-11 01:29:18.96	11.73	8.58	
2025-01-11 01:29:19.16	11.72	8.59	
2025-01-11 01:29:19.37	11.70	8.61	
2025-01-11 01:29:19.58	11.69	8.62	
2025-01-11 01:29:19.78	11.68	8.64	
2025-01-11 01:29:19.99	11.67	8.66	
2025-01-11 01:29:20.19	11.65	8.67	
2025-01-11 01:29:20.40	11.64	8.69	
2025-01-11 01:29:20.60	11.63	8.70	
2025-01-11 01:29:20.82	11.61	8.72	
2025-01-11 01:29:21.02	11.60	8.73	
2025-01-11 01:29:21.23	11.59	8.75	
2025-01-11 01:29:21.43	11.57	8.77	
2025-01-11 01:29:21.64	11.56	8.78	
2025-01-11 01:29:21.84	11.55	8.80	
2025-01-11 01:29:22.05	11.53	8.81	
2025-01-11 01:29:22.25	11.52	8.83	
2025-01-11 01:29:22.45	11.51	8.84	
2025-01-11 01:29:22.66	11.50	8.86	
2025-01-11 01:29:22.86	11.48	8.88	
2025-01-11 01:29:23.07	11.47	8.89	
2025-01-11 01:29:23.27	11.46	8.91	
2025-01-11 01:29:23.48	11.44	8.92	
2025-01-11 01:29:23.68	11.43	8.94	
2025-01-11 01:29:23.89	11.42	8.95	
2025-01-11 01:29:24.09	11.40	8.97	
2025-01-11 01:29:24.30	11.39	8.99	
2025-01-11 01:29:24.52	11.38	9.00	
2025-01-11 01:29:24.72	11.36	9.02	
2025-01-11 01:29:24.93	11.35	9.03	
2025-01-11 01:29:25.13	11.34	9.05	
2025-01-11 01:29:25.34	11.32	9.07	
2025-01-11 01:29:25.54	11.31	9.08	
2025-01-11 01:29:25.75	11.30	9.10	
2025-01-11 01:29:25.95	11.28	9.11	
2025-01-11 01:29:26.16	11.27	9.13	
2025-01-11 01:29:26.37	11.26	9.15	
2025-01-11 01:29:26.57	11.24	9.16	
2025-01-11 01:29:26.78	11.23	9.18	
2025-01-11 01:29:26.98	11.22	9.19	
2025-01-11 01:29:27.19	11.20	9.21	
2025-01-11 01:29:27.39	11.19	9.23	
2025-01-11 01:29:27.59	11.18	9.24	
2025-01-11 01:29:27.80	11.16	9.26	
2025-01-11 01:29:28.00	11.15	9.27	
2025-01-11 01:29:28.21	11.14	9.29	
2025-01-11 01:29:28.41	11.12	9.30	
2025-01-11 01:29:28.62	11.11	9.32	
2025-01-11 01:29:28.83	11.10	9.34	
2025-01-11 01:29:29.03	11.08	9.35	
2025-01-11 01:29:29.24	11.07	9.37	
2025-01-11 01:29:29.44	11.05	9.39	
2025-01-11 01:29:29.65	11.04	9.40	
2025-01-11 01:29:29.85	11.03	9.42	
2025-01-11 01:29:30.06	11.01	9.43	
2025-01-11 01:29:30.26	11.00	9.45	
2025-01-11 01:29:30.47	10.99	9.47	
2025-01-11 01:29:30.67	10.97	9.48	
2025-01-11 01:29:30.88	10.96	9.50	
2025-01-11 01:29:31.08	10.95	9.51	
2025-01-11 01:29:31.29	10.93	9.53	
2025-01-11 01:29:31.49	10.92	9.55	
2025-01-11 01:29:31.70	10.90	9.56	
2025-01-11 01:29:31.90	10.89	9.58	
2025-01-11 01:29:32.10	10.88	9.59	
2025-01-11 01:29:32.31	10.86	9.61	
2025-01-11 01:29:32.52	10.85	9.63	
2025-01-11 01:29:32.72	10.84	9.64	
2025-01-11 01:29:32.92	10.82	9.66	
2025-01-11 01:29:33.13	10.81	9.67	
2025-01-11 01:29:33.33	10.79	9.69	
2025-01-11 01:29:33.54	10.78	9.71	
2025-01-11 01:29:33.75	10.77	9.72	
2025-01-11 01:29:33.95	10.75	9.74	
2025-01-11 01:29:34.17	10.74	9.76	
2025-01-11 01:29:34.37	10.72	9.77	
2025-01-11 01:29:34.58	10.71	9.79	
2025-01-11 01:29:34.78	10.70	9.81	
2025-01-11 01:29:34.99	10.68	9.82	
2025-01-11 01:29:35.19	10.67	9.84	
2025-01-11 01:29:35.40	10.65	9.85	
2025-01-11 01:29:35.60	10.64	9.87	
2025-01-11 01:29:35.81	10.62	9.89	
2025-01-11 01:29:36.01	10.61	9.90	
2025-01-11 01:29:36.22	10.60	9.92	
2025-01-11 01:29:36.42	10.58	9.94	
2025-01-11 01:29:36.63	10.57	9.95	
2025-01-11 01:29:36.84	10.55	9.97	
2025-01-11 01:29:37.04	10.54	9.98	
2025-01-11 01:29:37.24	10.53	10.00	
2025-01-11 01:29:37.45	10.51	10.02	
2025-01-11 01:29:37.66	10.50	10.03	
2025-01-11 01:29:37.86	10.48	10.05	
2025-01-11 01:29:38.07	10.47	10.07	
2025-01-11 01:29:38.27	10.45	10.08	
2025-01-11 01:29:38.48	10.44	10.10	
2025-01-11 01:29:38.68	10.43	10.12	
2025-01-11 01:29:38.89	10.41	10.13	
2025-01-11 01:29:39.09	10.40	10.15	
2025-01-11 01:29:39.30	10.38	10.17	
2025-01-11 01:29:39.52	10.37	10.18	
2025-01-11 01:29:39.72	10.35	10.20	
2025-01-11 01:29:39.93	10.34	10.22	
2025-01-11 01:29:40.13	10.32	10.23	
2025-01-11 01:29:40.34	10.31	10.25	
2025-01-11 01:29:40.54	10.29	10.27	
2025-01-11 01:29:40.75	10.28	10.28	
2025-01-11 01:29:40.95	10.27	10.30	
2025-01-11 01:29:41.16	10.25	10.32	
2025-01-11 01:29:41.36	10.24	10.33	
2025-01-11 01:29:41.57	10.22	10.35	
2025-01-11 01:29:41.77	10.21	10.36	
2025-01-11 01:29:41.98	10.19	10.38	
2025-01-11 01:29:42.18	10.18	10.40	
2025-01-11 01:29:42.39	10.16	10.41	
2025-01-11 01:29:42.59	10.15	10.43	
2025-01-11 01:29:42.80	10.13	10.45	
2025-01-11 01:29:43.00	10.12	10.46	
2025-01-11 01:29:43.21	10.10	10.48	
2025-01-11 01:29:43.41	10.09	10.50	
2025-01-11 01:29:43.62	10.07	10.51	
2025-01-11 01:29:43.82	10.06	10.53	
2025-01-11 01:29:44.03	10.05	10.55	
2025-01-11 01:29:44.23	10.03	10.56	
2025-01-11 01:29:44.44	10.02	10.58	
2025-01-11 01:29:44.64	10.00	10.60	
2025-01-11 01:29:44.85	9.99	10.61	
2025-01-11 01:29:45.05	9.97	10.63	
2025-01-11 01:29:45.26	9.96	10.65	
2025-01-11 01:29:45.46	9.94	10.66	
2025-01-11 01:29:45.67	9.93	10.68	
2025-01-11 01:29:45.87	9.91	10.70	
2025-01-11 01:29:46.08	9.90	10.71	
2025-01-11 01:29:46.28	9.88	10.73	
2025-01-11 01:29:46.49	9.87	10.75	
2025-01-11 01:29:46.69	9.85	10.76	
2025-01-11 01:29:46.90	9.84	10.78	
2025-01-11 01:29:47.10	9.82	10.80	
2025-01-11 01:29:47.31	9.81	10.81	
2025-01-11 01:29:47.52	9.79	10.83	
2025-01-11 01:29:47.72	9.78	10.85	
2025-01-11 01:29:47.92	9.76	10.86	
2025-01-11 01:29:48.13	9.75	10.88	
2025-01-11 01:29:48.33	9.73	10.90	
2025-01-11 01:29:48.54	9.72	10.92	
2025-01-11 01:29:48.74	9.70	10.93	
2025-01-11 01:29:48.95	9.69	10.95	
2025-01-11 01:29:49.15	9.67	10.97	
2025-01-11 01:29:49.36	9.65	10.98	
2025-01-11 01:29:49.56	9.64	11.00	
2025-01-11 01:29:49.77	9.62	11.02	
2025-01-11 01:29:49.97	9.61	11.03	
2025-01-11 01:29:50.18	9.59	11.05	
2025-01-11 01:29:50.38	9.58	11.07	
2025-01-11 01:29:50.59	9.56	11.08	
2025-01-11 01:29:50.79	9.55	11.10	
2025-01-11 01:29:50.99	9.53	11.12	
2025-01-11 01:29:51.19	9.52	11.13	
2025-01-11 01:29:51.40	9.50	11.15	
2025-01-11 01:29:51.60	9.49	11.17	
2025-01-11 01:29:51.81	9.47	11.19	
2025-01-11 01:29:52.02	9.46	11.20	
2025-01-11 01:29:52.22	9.44	11.22	
2025-01-11 01:29:52.42	9.42	11.24	
2025-01-11 01:29:52.63	9.41	11.25	
2025-01-11 01:29:52.83	9.39	11.27	
2025-01-11 01:29:53.04	9.38	11.29	
2025-01-11 01:29:53.24	9.36	11.30	
2025-01-11 01:29:53.45	9.35	11.32	
2025-01-11 01:29:53.65	9.33	11.34	
2025-01-11 01:29:53.86	9.32	11.36	
2025-01-11 01:29:54.06	9.30	11.37	
2025-01-11 01:29:54.27	9.28	11.39	
2025-01-11 01:29:54.47	9.27	11.41	
2025-01-11 01:29:54.68	9.25	11.43	
2025-01-11 01:29:54.88	9.24	11.44	
2025-01-11 01:29:55.09	9.22	11.46	
2025-01-11 01:29:55.29	9.21	11.48	
2025-01-11 01:29:55.50	9.19	11.49	
2025-01-11 01:29:55.70	9.17	11.51	
2025-01-11 01:29:55.91	9.16	11.53	
2025-01-11 01:29:56.12	9.14	11.55	
2025-01-11 01:29:56.32	9.13	11.56	
2025-01-11 01:29:56.52	9.11	11.58	
2025-01-11 01:29:56.73	9.09	11.60	
2025-01-11 01:29:56.94	9.08	11.61	
2025-01-11 01:29:57.14	9.06	11.63	
2025-01-11 01:29:57.35	9.05	11.65	
2025-01-11 01:29:57.57	9.03	11.67	
2025-01-11 01:29:57.77	9.01	11.68	
2025-01-11 01:29:57.98	9.00	11.70	
2025-01-11 01:29:58.18	8.98	11.72	
2025-01-11 01:29:58.39	8.96	11.74	
2025-01-11 01:29:58.59	8.95	11.75	
2025-01-11 01:29:58.79	8.93	11.77	
2025-01-11 01:29:59.00	8.92	11.79	
2025-01-11 01:29:59.20	8.90	11.81	
2025-01-11 01:29:59.41	8.88	11.82	
2025-01-11 01:29:59.61	8.87	11.84	
2025-01-11 01:29:59.82	8.85	11.86	
2025-01-11 01:30:00.02	8.84	11.88	
2025-01-11 01:30:00.23	8.82	11.89	
2025-01-11 01:30:00.43	8.80	11.91	
2025-01-11 01:30:00.64	8.79	11.93	
2025-01-11 01:30:00.84	8.77	11.95	
2025-01-11 01:30:01.05	8.75	11.96	
2025-01-11 01:30:01.25	8.74	11.98	
2025-01-11 01:30:01.46	8.72	12.00	
2025-01-11 01:30:01.66	8.70	12.01	
2025-01-11 01:30:01.87	8.69	12.03	
2025-01-11 01:30:02.07	8.67	12.05	
2025-01-11 01:30:02.28	8.66	12.07	
2025-01-11 01:30:02.48	8.64	12.08	
2025-01-11 01:30:02.69	8.62	12.10	
2025-01-11 01:30:02.89	8.61	12.12	
2025-01-11 01:30:03.10	8.59	12.14	
2025-01-11 01:30:03.30	8.57	12.16	
2025-01-11 01:30:03.51	8.56	12.17	
2025-01-11 01:30:03.71	8.54	12.19	
2025-01-11 01:30:03.92	8.52	12.21	
2025-01-11 01:30:04.12	8.51	12.23	
2025-01-11 01:30:04.33	8.49	12.24	
2025-01-11 01:30:04.53	8.47	12.26	
2025-01-11 01:30:04.74	8.46	12.28	
2025-01-11 01:30:04.94	8.44	12.30	
2025-01-11 01:30:05.15	8.42	12.31	
2025-01-11 01:30:05.36	8.41	12.33	
2025-01-11 01:30:05.56	8.39	12.35	
2025-01-11 01:30:05.77	8.37	12.37	
2025-01-11 01:30:05.97	8.36	12.38	
2025-01-11 01:30:06.18	8.34	12.40	
2025-01-11 01:30:06.38	8.32	12.42	
2025-01-11 01:30:06.59	8.30	12.44	
2025-01-11 01:30:06.79	8.29	12.46	
2025-01-11 01:30:07.00	8.27	12.47	
2025-01-11 01:30:07.20	8.25	12.49	
2025-01-11 01:30:07.41	8.24	12.51	
2025-01-11 01:30:07.61	8.22	12.53	
2025-01-11 01:30:07.82	8.20	12.55	
2025-01-11 01:30:08.02	8.19	12.56	
2025-01-11 01:30:08.23	8.17	12.58	
2025-01-11 01:30:08.43	8.15	12.60	
2025-01-11 01:30:08.64	8.13	12.62	
2025-01-11 01:30:08.84	8.12	12.63	
2025-01-11 01:30:09.05	8.10	12.65	
2025-01-11 01:30:09.25	8.08	12.67	
2025-01-11 01:30:09.46	8.06	12.69	
2025-01-11 01:30:09.66	8.05	12.71	
2025-01-11 01:30:09.87	8.03	12.72	
2025-01-11 01:30:10.07	8.01	12.74	
2025-01-11 01:30:10.28	8.00	12.76	
2025-01-11 01:30:10.48	7.98	12.78	
2025-01-11 01:30:10.69	7.96	12.80	
2025-01-11 01:30:10.89	7.94	12.81	
2025-01-11 01:30:11.09	7.93	12.83	
2025-01-11 01:30:11.30	7.91	12.85	
2025-01-11 01:30:11.50	7.89	12.87	
2025-01-11 01:30:11.71	7.87	12.88	
2025-01-11 01:30:11.91	7.86	12.90	
2025-01-11 01:30:12.12	7.84	12.92	
2025-01-11 01:30:12.32	7.82	12.94	
2025-01-11 01:30:12.53	7.80	12.96	
2025-01-11 01:30:12.73	7.79	12.97	
2025-01-11 01:30:12.93	7.77	12.99	
2025-01-11 01:30:13.14	7.75	13.01	
2025-01-11 01:30:13.34	7.73	13.03	
2025-01-11 01:30:13.55	7.72	13.05	
2025-01-11 01:30:13.75	7.70	13.06	
2025-01-11 01:30:13.96	7.68	13.08	
2025-01-11 01:30:14.16	7.66	13.10	
2025-01-11 01:30:14.37	7.65	13.12	
2025-01-11 01:30:14.57	7.63	13.14	
2025-01-11 01:30:14.78	7.61	13.16	
2025-01-11 01:30:14.99	7.59	13.17	
2025-01-11 01:30:15.19	7.57	13.19	
2025-01-11 01:30:15.40	7.56	13.21	
2025-01-11 01:30:15.60	7.54	13.23	
2025-01-11 01:30:15.81	7.52	13.25	
2025-01-11 01:30:16.01	7.50	13.26	
2025-01-11 01:30:16.22	7.48	13.28	
2025-01-11 01:30:16.43	7.47	13.30	
2025-01-11 01:30:16.63	7.45	13.32	
2025-01-11 01:30:16.83	7.43	13.34	
2025-01-11 01:30:17.04	7.41	13.36	
2025-01-11 01:30:17.25	7.39	13.37	
2025-01-11 01:30:17.45	7.38	13.39	
2025-01-11 01:30:17.65	7.36	13.41	
2025-01-11 01:30:17.86	7.34	13.43	
2025-01-11 01:30:18.07	7.32	13.45	
2025-01-11 01:30:18.27	7.30	13.47	
2025-01-11 01:30:18.48	7.29	13.48	
2025-01-11 01:30:18.68	7.27	13.50	
2025-01-11 01:30:18.88	7.25	13.52	
2025-01-11 01:30:19.09	7.23	13.54	
2025-01-11 01:30:19.30	7.21	13.56	
2025-01-11 01:30:19.50	7.19	13.58	
2025-01-11 01:30:19.71	7.18	13.59	
2025-01-11 01:30:19.91	7.16	13.61	
2025-01-11 01:30:20.12	7.14	13.63	
2025-01-11 01:30:20.32	7.12	13.65	
2025-01-11 01:30:20.53	7.10	13.67	
2025-01-11 01:30:20.74	7.08	13.69	
2025-01-11 01:30:20.94	7.06	13.71	
2025-01-11 01:30:21.14	7.05	13.72	
2025-01-11 01:30:21.35	7.03	13.74	
2025-01-11 01:30:21.56	7.01	13.76	
2025-01-11 01:30:21.76	6.99	13.78	
2025-01-11 01:30:21.97	6.97	13.80	
2025-01-11 01:30:22.17	6.95	13.82	
2025-01-11 01:30:22.38	6.93	13.84	
2025-01-11 01:30:22.58	6.92	13.85	
2025-01-11 01:30:22.79	6.90	13.87	
2025-01-11 01:30:22.99	6.88	13.89	
2025-01-11 01:30:23.20	6.86	13.91	
2025-01-11 01:30:23.40	6.84	13.93	
2025-01-11 01:30:23.61	6.82	13.95	
2025-01-11 01:30:23.81	6.80	13.97	
2025-01-11 01:30:24.02	6.78	13.98	
2025-01-11 01:30:24.22	6.77	14.00	
2025-01-11 01:30:24.43	6.75	14.02	
2025-01-11 01:30:24.63	6.73	14.04	
2025-01-11 01:30:24.84	6.71	14.06	
2025-01-11 01:30:25.04	6.69	14.08	
2025-01-11 01:30:25.25	6.67	14.10	
2025-01-11 01:30:25.45	6.65	14.11	
2025-01-11 01:30:25.66	6.63	14.13	
2025-01-11 01:30:25.87	6.61	14.15	
2025-01-11 01:30:26.07	6.59	14.17	
2025-01-11 01:30:26.27	6.58	14.19	
2025-01-11 01:30:26.48	6.56	14.21	
2025-01-11 01:30:26.68	6.54	14.23	
2025-01-11 01:30:26.89	6.52	14.25	
2025-01-11 01:30:27.09	6.50	14.27	
2025-01-11 01:30:27.30	6.48	14.28	
2025-01-11 01:30:27.50	6.46	14.30	
2025-01-11 01:30:27.71	6.44	14.32	
2025-01-11 01:30:27.91	6.42	14.34	
2025-01-11 01:30:28.12	6.40	14.36	
2025-01-11 01:30:28.32	6.38	14.38	
2025-01-11 01:30:28.53	6.36	14.40	
2025-01-11 01:30:28.74	6.34	14.42	
2025-01-11 01:30:28.95	6.32	14.44	
2025-01-11 01:30:29.15	6.30	14.45	
2025-01-11 01:30:29.36	6.28	14.47	
2025-01-11 01:30:29.57	6.26	14.49	
2025-01-11 01:30:29.78	6.24	14.51	
2025-01-11 01:30:29.98	6.22	14.53	
2025-01-11 01:30:30.19	6.20	14.55	
2025-01-11 01:30:30.39	6.19	14.57	
2025-01-11 01:30:30.60	6.16	14.59	
2025-01-11 01:30:30.80	6.15	14.61	
2025-01-11 01:30:31.01	6.13	14.63	
2025-01-11 01:30:31.21	6.11	14.65	
2025-01-11 01:30:31.42	6.09	14.66	
2025-01-11 01:30:31.62	6.07	14.68	
2025-01-11 01:30:31.82	6.05	14.70	
2025-01-11 01:30:32.03	6.03	14.72	
2025-01-11 01:30:32.24	6.01	14.74	
2025-01-11 01:30:32.44	5.99	14.76	
2025-01-11 01:30:32.65	5.97	14.78	
2025-01-11 01:30:32.85	5.95	14.80	
2025-01-11 01:30:33.06	5.93	14.82	
2025-01-11 01:30:33.26	5.91	14.84	
2025-01-11 01:30:33.46	5.89	14.86	
2025-01-11 01:30:33.67	5.87	14.87	
2025-01-11 01:30:33.87	5.85	14.89	
2025-01-11 01:30:34.08	5.83	14.91	
2025-01-11 01:30:34.28	5.81	14.93	
2025-01-11 01:30:34.49	5.79	14.95	
2025-01-11 01:30:34.70	5.77	14.97	
2025-01-11 01:30:34.90	5.75	14.99	
2025-01-11 01:30:35.11	5.73	15.01	
2025-01-11 01:30:35.31	5.71	15.03	
2025-01-11 01:30:35.52	5.68	15.05	
2025-01-11 01:30:35.72	5.66	15.07	
2025-01-11 01:30:35.93	5.64	15.09	
2025-01-11 01:30:36.13	5.62	15.11	
2025-01-11 01:30:36.34	5.60	15.13	
2025-01-11 01:30:36.54	5.58	15.14	
2025-01-11 01:30:36.75	5.56	15.16	
2025-01-11 01:30:36.95	5.54	15.18	
2025-01-11 01:30:37.16	5.52	15.20	
2025-01-11 01:30:37.36	5.50	15.22	
2025-01-11 01:30:37.57	5.48	15.24	
2025-01-11 01:30:37.77	5.46	15.26	
2025-01-11 01:30:37.98	5.44	15.28	
2025-01-11 01:30:38.18	5.42	15.30	
2025-01-11 01:30:38.39	5.40	15.32	
2025-01-11 01:30:38.59	5.38	15.34	
2025-01-11 01:30:38.79	5.36	15.36	
2025-01-11 01:30:39.00	5.34	15.38	
2025-01-11 01:30:39.21	5.31	15.40	
2025-01-11 01:30:39.41	5.29	15.42	
2025-01-11 01:30:39.62	5.27	15.44	
2025-01-11 01:30:39.82	5.25	15.46	
2025-01-11 01:30:40.03	5.23	15.48	
2025-01-11 01:30:40.23	5.21	15.49	
2025-01-11 01:30:40.44	5.19	15.51	
2025-01-11 01:30:40.65	5.17	15.53	
2025-01-11 01:30:40.85	5.15	15.55	
2025-01-11 01:30:41.06	5.13	15.57	
2025-01-11 01:30:41.26	5.10	15.59	
2025-01-11 01:30:41.47	5.08	15.61	
2025-01-11 01:30:41.67	5.06	15.63	
2025-01-11 01:30:41.88	5.04	15.65	
2025-01-11 01:30:42.08	5.02	15.67	
2025-01-11 01:30:42.29	5.00	15.69	
2025-01-11 01:30:42.49	4.98	15.71	
2025-01-11 01:30:42.70	4.96	15.73	
2025-01-11 01:30:42.90	4.93	15.75	
2025-01-11 01:30:43.11	4.91	15.77	
2025-01-11 01:30:43.31	4.89	15.79	
2025-01-11 01:30:43.53	4.87	15.81	
2025-01-11 01:30:43.74	4.85	15.83	
2025-01-11 01:30:43.94	4.83	15.85	
2025-01-11 01:30:44.15	4.80	15.87	
2025-01-11 01:30:44.36	4.78	15.89	
2025-01-11 01:30:44.56	4.76	15.91	
2025-01-11 01:30:44.77	4.74	15.93	
2025-01-11 01:30:44.97	4.72	15.95	
2025-01-11 01:30:45.18	4.70	15.97	
2025-01-11 01:30:45.38	4.67	15.99	
2025-01-11 01:30:45.59	4.65	16.01	
2025-01-11 01:30:45.79	4.63	16.03	
2025-01-11 01:30:46.00	4.61	16.05	
2025-01-11 01:30:46.20	4.59	16.07	
2025-01-11 01:30:46.41	4.56	16.09	
2025-01-11 01:30:46.61	4.54	16.11	
2025-01-11 01:30:46.82	4.52	16.13	
2025-01-11 01:30:47.03	4.50	16.15	
2025-01-11 01:30:47.23	4.48	16.17	
2025-01-11 01:30:47.44	4.45	16.19	
2025-01-11 01:30:47.64	4.43	16.21	
2025-01-11 01:30:47.85	4.41	16.23	
2025-01-11 01:30:48.05	4.39	16.25	
2025-01-11 01:30:48.26	4.37	16.27	
2025-01-11 01:30:48.46	4.34	16.29	
2025-01-11 01:30:48.67	4.32	16.31	
2025-01-11 01:30:48.87	4.30	16.33	
2025-01-11 01:30:49.08	4.28	16.35	
2025-01-11 01:30:49.28	4.26	16.37	
2025-01-11 01:30:49.49	4.23	16.39	
2025-01-11 01:30:49.69	4.21	16.41	
2025-01-11 01:30:49.90	4.19	16.43	
2025-01-11 01:30:50.10	4.17	16.45	
2025-01-11 01:30:50.31	4.14	16.47	
2025-01-11 01:30:50.51	4.12	16.49	
2025-01-11 01:30:50.72	4.10	16.51	
2025-01-11 01:30:50.92	4.08	16.53	
2025-01-11 01:30:51.13	4.05	16.55	
2025-01-11 01:30:51.33	4.03	16.57	
2025-01-11 01:30:51.53	4.01	16.59	
2025-01-11 01:30:51.74	3.99	16.61	
2025-01-11 01:30:51.94	3.96	16.63	
2025-01-11 01:30:52.15	3.94	16.65	
2025-01-11 01:30:52.35	3.92	16.67	
2025-01-11 01:30:52.56	3.90	16.69	
2025-01-11 01:30:52.76	3.87	16.71	
2025-01-11 01:30:52.97	3.85	16.73	
2025-01-11 01:30:53.17	3.83	16.75	
2025-01-11 01:30:53.38	3.80	16.77	
2025-01-11 01:30:53.58	3.78	16.79	
2025-01-11 01:30:53.79	3.76	16.81	
2025-01-11 01:30:53.99	3.74	16.83	
2025-01-11 01:30:54.20	3.71	16.85	
2025-01-11 01:30:54.40	3.69	16.87	
2025-01-11 01:30:54.61	3.67	16.89	
2025-01-11 01:30:54.81	3.64	16.91	
2025-01-11 01:30:55.02	3.62	16.94	
2025-01-11 01:30:55.22	3.60	16.96	
2025-01-11 01:30:55.42	3.57	16.98	
2025-01-11 01:30:55.63	3.55	17.00	
2025-01-11 01:30:55.83	3.53	17.02	
2025-01-11 01:30:56.04	3.50	17.04	
2025-01-11 01:30:56.24	3.48	17.06	
2025-01-11 01:30:56.45	3.46	17.08	
2025-01-11 01:30:56.65	3.43	17.10	
2025-01-11 01:30:56.86	3.41	17.12	
2025-01-11 01:30:57.06	3.39	17.14	
2025-01-11 01:30:57.27	3.36	17.16	
2025-01-11 01:30:57.47	3.34	17.18	
2025-01-11 01:30:57.68	3.32	17.20	
2025-01-11 01:30:57.88	3.29	17.22	
2025-01-11 01:30:58.09	3.27	17.24	
2025-01-11 01:30:58.29	3.25	17.26	
2025-01-11 01:30:58.49	3.22	17.28	
2025-01-11 01:30:58.70	3.20	17.30	
2025-01-11 01:30:58.90	3.18	17.32	
2025-01-11 01:30:59.11	3.15	17.34	
2025-01-11 01:30:59.31	3.13	17.37	
2025-01-11 01:30:59.52	3.10	17.39	
2025-01-11 01:30:59.72	3.08	17.41	
2025-01-11 01:30:59.93	3.06	17.43	
2025-01-11 01:31:00.15	3.03	17.45	
2025-01-11 01:31:00.35	3.01	17.47	
2025-01-11 01:31:00.56	2.98	17.49	
2025-01-11 01:31:00.76	2.96	17.51	
2025-01-11 01:31:00.97	2.93	17.53	
2025-01-11 01:31:01.17	2.91	17.55	
2025-01-11 01:31:01.38	2.89	17.57	
2025-01-11 01:31:01.58	2.86	17.59	
2025-01-11 01:31:01.79	2.84	17.62	
2025-01-11 01:31:02.00	2.81	17.64	
2025-01-11 01:31:02.20	2.79	17.66	
2025-01-11 01:31:02.41	2.76	17.68	
2025-01-11 01:31:02.61	2.74	17.70	
2025-01-11 01:31:02.81	2.72	17.72	
2025-01-11 01:31:03.02	2.69	17.74	
2025-01-11 01:31:03.23	2.67	17.76	
2025-01-11 01:31:03.43	2.64	17.78	
2025-01-11 01:31:03.63	2.62	17.80	
2025-01-11 01:31:03.84	2.59	17.82	
2025-01-11 01:31:04.04	2.57	17.85	
2025-01-11 01:31:04.25	2.54	17.87	
2025-01-11 01:31:04.45	2.52	17.89	
2025-01-11 01:31:04.65	2.50	17.91	
2025-01-11 01:31:04.86	2.47	17.93	
2025-01-11 01:31:05.06	2.45	17.95	
2025-01-11 01:31:05.27	2.42	17.97	
2025-01-11 01:31:05.48	2.39	17.99	
2025-01-11 01:31:05.68	2.37	18.01	
2025-01-11 01:31:05.89	2.35	18.03	
2025-01-11 01:31:06.10	2.32	18.06	
2025-01-11 01:31:06.31	2.29	18.08	
2025-01-11 01:31:06.51	2.27	18.10	
2025-01-11 01:31:06.72	2.24	18.12	
2025-01-11 01:31:06.92	2.22	18.14	
2025-01-11 01:31:07.13	2.19	18.16	
2025-01-11 01:31:07.33	2.17	18.18	
2025-01-11 01:31:07.54	2.14	18.20	
2025-01-11 01:31:07.74	2.12	18.23	
2025-01-11 01:31:07.95	2.09	18.25	
2025-01-11 01:31:08.15	2.07	18.27	
2025-01-11 01:31:08.35	2.04	18.29	
2025-01-11 01:31:08.56	2.02	18.31	
2025-01-11 01:31:08.77	1.99	18.33	
2025-01-11 01:31:08.97	1.97	18.35	
2025-01-11 01:31:09.17	1.94	18.37	
2025-01-11 01:31:09.38	1.91	18.39	
2025-01-11 01:31:09.59	1.89	18.42	
2025-01-11 01:31:09.79	1.86	18.44	
2025-01-11 01:31:10.00	1.84	18.46	
2025-01-11 01:31:10.20	1.81	18.48	
2025-01-11 01:31:10.41	1.79	18.50	
2025-01-11 01:31:10.61	1.76	18.52	
2025-01-11 01:31:10.82	1.73	18.54	
2025-01-11 01:31:11.02	1.71	18.57	
2025-01-11 01:31:11.23	1.68	18.59	
2025-01-11 01:31:11.43	1.66	18.61	
2025-01-11 01:31:11.64	1.63	18.63	
2025-01-11 01:31:11.84	1.61	18.65	
2025-01-11 01:31:12.05	1.58	18.67	
2025-01-11 01:31:12.25	1.55	18.69	
2025-01-11 01:31:12.45	1.53	18.71	
2025-01-11 01:31:12.66	1.50	18.74	
2025-01-11 01:31:12.86	1.48	18.76	
2025-01-11 01:31:13.07	1.45	18.78	
2025-01-11 01:31:13.27	1.42	18.80	
2025-01-11 01:31:13.48	1.40	18.82	
2025-01-11 01:31:13.68	1.37	18.84	
2025-01-11 01:31:13.89	1.34	18.87	
2025-01-11 01:31:14.09	1.32	18.89	
2025-01-11 01:31:14.30	1.29	18.91	
2025-01-11 01:31:14.50	1.26	18.93	
2025-01-11 01:31:14.71	1.24	18.95	
2025-01-11 01:31:14.91	1.21	18.97	
2025-01-11 01:31:15.12	1.18	19.00	
2025-01-11 01:31:15.32	1.16	19.02	
2025-01-11 01:31:15.53	1.13	19.04	
2025-01-11 01:31:15.73	1.10	19.06	
2025-01-11 01:31:15.94	1.08	19.08	
2025-01-11 01:31:16.15	1.05	19.10	
2025-01-11 01:31:16.35	1.02	19.13	
2025-01-11 01:31:16.56	1.00	19.15	
2025-01-11 01:31:16.76	0.97	19.17	
2025-01-11 01:31:16.97	0.94	19.19	
2025-01-11 01:31:17.17	0.92	19.21	
2025-01-11 01:31:17.38	0.89	19.23	
2025-01-11 01:31:17.58	0.86	19.26	
2025-01-11 01:31:17.79	0.83	19.28	
2025-01-11 01:31:17.99	0.81	19.30	
2025-01-11 01:31:18.20	0.78	19.32	
2025-01-11 01:31:18.40	0.75	19.34	
2025-01-11 01:31:18.61	0.72	19.36	
2025-01-11 01:31:18.81	0.70	19.39	
2025-01-11 01:31:19.01	0.67	19.41	
2025-01-11 01:31:19.22	0.64	19.43	
2025-01-11 01:31:19.42	0.62	19.45	
2025-01-11 01:31:19.63	0.59	19.47	
2025-01-11 01:31:19.83	0.56	19.49	
2025-01-11 01:31:20.04	0.53	19.52	
2025-01-11 01:31:20.24	0.51	19.54	
2025-01-11 01:31:20.45	0.48	19.56	
2025-01-11 01:31:20.66	0.45	19.58	
2025-01-11 01:31:20.86	0.42	19.61	
2025-01-11 01:31:21.06	0.40	19.63	
2025-01-11 01:31:21.27	0.37	19.65	
2025-01-11 01:31:21.48	0.34	19.67	
2025-01-11 01:31:21.68	0.31	19.69	
2025-01-11 01:31:21.90	0.28	19.72	
2025-01-11 01:31:22.10	0.25	19.74	
2025-01-11 01:31:22.31	0.23	19.76	
2025-01-11 01:31:22.51	0.20	19.78	
2025-01-11 01:31:22.72	0.17	19.80	
2025-01-11 01:31:22.92	0.14	19.83	
2025-01-11 01:31:23.13	0.11	19.85	
2025-01-11 01:31:23.33	0.09	19.87	
2025-01-11 01:31:23.54	0.06	19.89	
2025-01-11 01:31:23.74	0.03	19.91	
2025-01-11 01:31:23.95	360.00	19.94	
2025-01-11 01:31:24.17	359.97	19.96	
2025-01-11 01:31:24.37	359.94	19.98	
2025-01-11 01:31:24.58	359.91	20.01	
2025-01-11 01:31:24.78	359.88	20.03	
2025-01-11 01:31:24.99	359.86	20.05	
2025-01-11 01:31:25.19	359.83	20.07	
2025-01-11 01:31:25.40	359.80	20.09	
2025-01-11 01:31:25.60	359.77	20.12	
2025-01-11 01:31:25.81	359.74	20.14	
2025-01-11 01:31:26.01	359.71	20.16	
2025-01-11 01:31:26.22	359.68	20.18	
2025-01-11 01:31:26.42	359.65	20.20	
2025-01-11 01:31:26.63	359.63	20.23	
2025-01-11 01:31:26.83	359.60	20.25	
2025-01-11 01:31:27.04	359.57	20.27	
2025-01-11 01:31:27.24	359.54	20.29	
2025-01-11 01:31:27.45	359.51	20.32	
2025-01-11 01:31:27.65	359.48	20.34	
2025-01-11 01:31:27.86	359.45	20.36	
2025-01-11 01:31:28.06	359.42	20.38	
2025-01-11 01:31:28.27	359.39	20.41	
2025-01-11 01:31:28.47	359.36	20.43	
2025-01-11 01:31:28.68	359.33	20.45	
2025-01-11 01:31:28.88	359.31	20.47	
2025-01-11 01:31:29.09	359.27	20.50	
2025-01-11 01:31:29.29	359.25	20.52	
2025-01-11 01:31:29.51	359.21	20.54	
2025-01-11 01:31:29.72	359.18	20.57	
2025-01-11 01:31:29.92	359.16	20.59	
2025-01-11 01:31:30.13	359.12	20.61	
2025-01-11 01:31:30.33	359.10	20.63	
2025-01-11 01:31:30.54	359.07	20.66	
2025-01-11 01:31:30.74	359.04	20.68	
2025-01-11 01:31:30.95	359.01	20.70	
2025-01-11 01:31:31.15	358.98	20.72	
2025-01-11 01:31:31.36	358.95	20.75	
2025-01-11 01:31:31.56	358.92	20.77	
2025-01-11 01:31:31.77	358.89	20.79	
2025-01-11 01:31:31.97	358.86	20.81	
2025-01-11 01:31:32.18	358.83	20.84	
2025-01-11 01:31:32.39	358.80	20.86	
2025-01-11 01:31:32.59	358.77	20.88	
2025-01-11 01:31:32.79	358.74	20.90	
2025-01-11 01:31:33.00	358.71	20.93	
2025-01-11 01:31:33.21	358.67	20.95	
2025-01-11 01:31:33.41	358.64	20.97	
2025-01-11 01:31:33.62	358.61	20.99	
2025-01-11 01:31:33.82	358.58	21.02	
2025-01-11 01:31:34.03	358.55	21.04	
2025-01-11 01:31:34.23	358.52	21.06	
2025-01-11 01:31:34.43	358.49	21.08	
2025-01-11 01:31:34.64	358.46	21.11	
2025-01-11 01:31:34.84	358.43	21.13	
2025-01-11 01:31:35.05	358.40	21.15	
2025-01-11 01:31:35.25	358.37	21.18	
2025-01-11 01:31:35.46	358.34	21.20	
2025-01-11 01:31:35.67	358.31	21.22	
2025-01-11 01:31:35.87	358.28	21.24	
2025-01-11 01:31:36.07	358.25	21.27	
2025-01-11 01:31:36.28	358.21	21.29	
2025-01-11 01:31:36.49	358.18	21.31	
2025-01-11 01:31:36.69	358.15	21.34	
2025-01-11 01:31:36.90	358.12	21.36	
2025-01-11 01:31:37.10	358.09	21.38	
2025-01-11 01:31:37.30	358.06	21.40	
2025-01-11 01:31:37.51	358.03	21.43	
2025-01-11 01:31:37.71	358.00	21.45	
2025-01-11 01:31:37.92	357.96	21.47	
2025-01-11 01:31:38.12	357.93	21.50	
2025-01-11 01:31:38.33	357.90	21.52	
2025-01-11 01:31:38.53	357.87	21.54	
2025-01-11 01:31:38.74	357.84	21.57	
2025-01-11 01:31:38.94	357.81	21.59	
2025-01-11 01:31:39.15	357.78	21.61	
2025-01-11 01:31:39.35	357.74	21.63	
2025-01-11 01:31:39.56	357.71	21.66	
2025-01-11 01:31:39.76	357.68	21.68	
2025-01-11 01:31:39.97	357.65	21.70	
2025-01-11 01:31:40.18	357.62	21.73	
2025-01-11 01:31:40.38	357.58	21.75	
2025-01-11 01:31:40.59	357.55	21.77	
2025-01-11 01:31:40.80	357.52	21.80	
2025-01-11 01:31:41.00	357.49	21.82	
2025-01-11 01:31:41.20	357.46	21.84	
2025-01-11 01:31:41.41	357.42	21.87	
2025-01-11 01:31:41.61	357.39	21.89	
2025-01-11 01:31:41.82	357.36	21.91	
2025-01-11 01:31:42.02	357.33	21.94	
2025-01-11 01:31:42.23	357.29	21.96	
2025-01-11 01:31:42.43	357.26	21.98	
2025-01-11 01:31:42.64	357.23	22.01	
2025-01-11 01:31:42.85	357.19	22.03	
2025-01-11 01:31:43.05	357.16	22.05	
2025-01-11 01:31:43.26	357.13	22.08	
2025-01-11 01:31:43.46	357.10	22.10	
2025-01-11 01:31:43.67	357.06	22.12	
2025-01-11 01:31:43.87	357.03	22.14	
2025-01-11 01:31:44.08	357.00	22.17	
2025-01-11 01:31:44.28	356.97	22.19	
2025-01-11 01:31:44.50	356.93	22.22	
2025-01-11 01:31:44.71	356.90	22.24	
2025-01-11 01:31:44.91	356.86	22.26	
2025-01-11 01:31:45.12	356.83	22.29	
2025-01-11 01:31:45.32	356.80	22.31	
2025-01-11 01:31:45.54	356.76	22.33	
2025-01-11 01:31:45.74	356.73	22.36	
2025-01-11 01:31:45.95	356.70	22.38	
2025-01-11 01:31:46.15	356.66	22.40	
2025-01-11 01:31:46.36	356.63	22.43	
2025-01-11 01:31:46.56	356.60	22.45	
2025-01-11 01:31:46.77	356.56	22.47	
2025-01-11 01:31:46.97	356.53	22.50	
2025-01-11 01:31:47.18	356.50	22.52	
2025-01-11 01:31:47.38	356.46	22.54	
2025-01-11 01:31:47.59	356.43	22.57	
2025-01-11 01:31:47.79	356.39	22.59	
2025-01-11 01:31:48.00	356.36	22.62	
2025-01-11 01:31:48.20	356.33	22.64	
2025-01-11 01:31:48.41	356.29	22.66	
2025-01-11 01:31:48.61	356.26	22.69	
2025-01-11 01:31:48.82	356.22	22.71	
2025-01-11 01:31:49.02	356.19	22.73	
2025-01-11 01:31:49.23	356.16	22.76	
2025-01-11 01:31:49.43	356.12	22.78	
2025-01-11 01:31:49.64	356.09	22.80	
2025-01-11 01:31:49.85	356.05	22.83	
2025-01-11 01:31:50.06	356.02	22.85	
2025-01-11 01:31:50.26	355.98	22.88	
2025-01-11 01:31:50.47	355.95	22.90	
2025-01-11 01:31:50.68	355.91	22.92	
2025-01-11 01:31:50.88	355.88	22.95	
2025-01-11 01:31:51.09	355.84	22.97	
2025-01-11 01:31:51.29	355.81	22.99	
2025-01-11 01:31:51.50	355.77	23.02	
2025-01-11 01:31:51.70	355.74	23.04	
2025-01-11 01:31:51.91	355.70	23.07	
2025-01-11 01:31:52.11	355.67	23.09	
2025-01-11 01:31:52.32	355.63	23.11	
2025-01-11 01:31:52.52	355.60	23.14	
2025-01-11 01:31:52.73	355.56	23.16	
2025-01-11 01:31:52.93	355.53	23.18	
2025-01-11 01:31:53.14	355.49	23.21	
2025-01-11 01:31:53.34	355.46	23.23	
2025-01-11 01:31:53.55	355.42	23.26	
2025-01-11 01:31:53.75	355.39	23.28	
2025-01-11 01:31:53.96	355.35	23.30	
2025-01-11 01:31:54.16	355.32	23.33	
2025-01-11 01:31:54.37	355.28	23.35	
2025-01-11 01:31:54.58	355.25	23.38	
2025-01-11 01:31:54.78	355.21	23.40	
2025-01-11 01:31:54.99	355.17	23.42	
2025-01-11 01:31:55.19	355.14	23.45	
2025-01-11 01:31:55.40	355.10	23.47	
2025-01-11 01:31:55.60	355.07	23.49	
2025-01-11 01:31:55.81	355.03	23.52	
2025-01-11 01:31:56.02	354.99	23.54	
2025-01-11 01:31:56.22	354.96	23.57	
2025-01-11 01:31:56.43	354.92	23.59	
2025-01-11 01:31:56.63	354.89	23.61	
2025-01-11 01:31:56.84	354.85	23.64	
2025-01-11 01:31:57.04	354.81	23.66	
2025-01-11 01:31:57.26	354.78	23.69	
2025-01-11 01:31:57.47	354.74	23.71	
2025-01-11 01:31:57.67	354.70	23.74	
2025-01-11 01:31:57.88	354.66	23.76	
2025-01-11 01:31:58.08	354.63	23.78	
2025-01-11 01:31:58.29	354.59	23.81	
2025-01-11 01:31:58.49	354.56	23.83	
2025-01-11 01:31:58.70	354.52	23.86	
2025-01-11 01:31:58.90	354.48	23.88	
2025-01-11 01:31:59.11	354.44	23.90	
2025-01-11 01:31:59.31	354.41	23.93	
2025-01-11 01:31:59.52	354.37	23.95	
2025-01-11 01:31:59.72	354.34	23.98	
2025-01-11 01:31:59.93	354.30	24.00	
2025-01-11 01:32:00.13	354.26	24.02	
2025-01-11 01:32:00.33	354.22	24.05	
2025-01-11 01:32:00.53	354.19	24.07	
2025-01-11 01:32:00.74	354.15	24.10	
2025-01-11 01:32:00.95	354.11	24.12	
2025-01-11 01:32:01.15	354.08	24.14	
2025-01-11 01:32:01.36	354.04	24.17	
2025-01-11 01:32:01.57	354.00	24.19	
2025-01-11 01:32:01.78	353.96	24.22	
2025-01-11 01:32:01.99	353.92	24.24	
2025-01-11 01:32:02.19	353.88	24.27	
2025-01-11 01:32:02.40	353.85	24.29	
2025-01-11 01:32:02.60	353.81	24.31	
2025-01-11 01:32:02.80	353.77	24.34	
2025-01-11 01:32:03.01	353.73	24.36	
2025-01-11 01:32:03.21	353.70	24.39	
2025-01-11 01:32:03.42	353.66	24.41	
2025-01-11 01:32:03.62	353.62	24.44	
2025-01-11 01:32:03.83	353.58	24.46	
2025-01-11 01:32:04.03	353.54	24.48	
2025-01-11 01:32:04.24	353.50	24.51	
2025-01-11 01:32:04.44	353.47	24.53	
2025-01-11 01:32:04.65	353.43	24.56	
2025-01-11 01:32:04.85	353.39	24.58	
2025-01-11 01:32:05.06	353.35	24.61	
2025-01-11 01:32:05.26	353.31	24.63	
2025-01-11 01:32:05.47	353.27	24.65	
2025-01-11 01:32:05.67	353.24	24.68	
2025-01-11 01:32:05.89	353.19	24.70	
2025-01-11 01:32:06.10	353.15	24.73	
2025-01-11 01:32:06.30	353.12	24.75	
2025-01-11 01:32:06.51	353.08	24.78	
2025-01-11 01:32:06.72	353.04	24.80	
2025-01-11 01:32:06.94	352.99	24.83	
2025-01-11 01:32:07.14	352.96	24.85	
2025-01-11 01:32:07.35	352.92	24.88	
2025-01-11 01:32:07.55	352.88	24.90	
2025-01-11 01:32:07.76	352.84	24.93	
2025-01-11 01:32:07.96	352.80	24.95	
2025-01-11 01:32:08.17	352.76	24.97	
2025-01-11 01:32:08.37	352.72	25.00	
2025-01-11 01:32:08.58	352.68	25.02	
2025-01-11 01:32:08.78	352.64	25.05	
2025-01-11 01:32:08.98	352.60	25.07	
2025-01-11 01:32:09.19	352.56	25.10	
2025-01-11 01:32:09.40	352.52	25.12	
2025-01-11 01:32:09.60	352.48	25.15	
2025-01-11 01:32:09.81	352.44	25.17	
2025-01-11 01:32:10.01	352.40	25.19	
2025-01-11 01:32:10.21	352.36	25.22	
2025-01-11 01:32:10.42	352.32	25.24	
2025-01-11 01:32:10.62	352.28	25.27	
2025-01-11 01:32:10.83	352.24	25.29	
2025-01-11 01:32:11.03	352.20	25.32	
2025-01-11 01:32:11.24	352.16	25.34	
2025-01-11 01:32:11.45	352.12	25.37	
2025-01-11 01:32:11.65	352.08	25.39	
2025-01-11 01:32:11.86	352.04	25.42	
2025-01-11 01:32:12.06	352.00	25.44	
2025-01-11 01:32:12.26	351.96	25.46	
2025-01-11 01:32:12.47	351.92	25.49	
2025-01-11 01:32:12.67	351.88	25.51	
2025-01-11 01:32:12.88	351.84	25.54	
2025-01-11 01:32:13.09	351.79	25.56	
2025-01-11 01:32:13.29	351.75	25.59	
2025-01-11 01:32:13.49	351.71	25.61	
2025-01-11 01:32:13.70	351.67	25.64	
2025-01-11 01:32:13.91	351.63	25.66	
2025-01-11 01:32:14.11	351.59	25.69	
2025-01-11 01:32:14.32	351.55	25.71	
2025-01-11 01:32:14.52	351.51	25.73	
2025-01-11 01:32:14.73	351.46	25.76	
2025-01-11 01:32:14.93	351.42	25.78	
2025-01-11 01:32:15.14	351.38	25.81	
2025-01-11 01:32:15.34	351.34	25.83	
2025-01-11 01:32:15.55	351.30	25.86	
2025-01-11 01:32:15.75	351.26	25.88	
2025-01-11 01:32:15.96	351.21	25.91	
2025-01-11 01:32:16.16	351.17	25.93	
2025-01-11 01:32:16.37	351.13	25.96	
2025-01-11 01:32:16.57	351.09	25.98	
2025-01-11 01:32:16.78	351.04	26.01	
2025-01-11 01:32:16.98	351.00	26.03	
2025-01-11 01:32:17.19	350.96	26.06	
2025-01-11 01:32:17.39	350.92	26.08	
2025-01-11 01:32:17.60	350.88	26.11	
2025-01-11 01:32:17.80	350.83	26.13	
2025-01-11 01:32:18.01	350.79	26.15	
2025-01-11 01:32:18.21	350.75	26.18	
2025-01-11 01:32:18.41	350.71	26.20	
2025-01-11 01:32:18.62	350.66	26.23	
2025-01-11 01:32:18.82	350.62	26.25	
2025-01-11 01:32:19.03	350.58	26.28	
2025-01-11 01:32:19.23	350.54	26.30	
2025-01-11 01:32:19.44	350.49	26.33	
2025-01-11 01:32:19.64	350.45	26.35	
2025-01-11 01:32:19.84	350.41	26.38	
2025-01-11 01:32:20.05	350.36	26.40	
2025-01-11 01:32:20.25	350.32	26.43	
2025-01-11 01:32:20.46	350.28	26.45	
2025-01-11 01:32:20.66	350.23	26.47	
2025-01-11 01:32:20.87	350.19	26.50	
2025-01-11 01:32:21.07	350.15	26.52	
2025-01-11 01:32:21.28	350.10	26.55	
2025-01-11 01:32:21.48	350.06	26.57	
2025-01-11 01:32:21.69	350.01	26.60	
2025-01-11 01:32:21.89	349.97	26.62	
2025-01-11 01:32:22.10	349.93	26.65	
2025-01-11 01:32:22.30	349.88	26.67	
2025-01-11 01:32:22.51	349.84	26.70	
2025-01-11 01:32:22.72	349.79	26.72	
2025-01-11 01:32:22.93	349.75	26.75	
2025-01-11 01:32:23.14	349.70	26.77	
2025-01-11 01:32:23.35	349.66	26.80	
2025-01-11 01:32:23.55	349.61	26.82	
2025-01-11 01:32:23.76	349.57	26.85	
2025-01-11 01:32:23.96	349.53	26.87	
2025-01-11 01:32:24.17	349.48	26.90	
2025-01-11 01:32:24.37	349.44	26.92	
2025-01-11 01:32:24.58	349.39	26.95	
2025-01-11 01:32:24.78	349.35	26.97	
2025-01-11 01:32:24.99	349.30	27.00	
2025-01-11 01:32:25.19	349.26	27.02	
2025-01-11 01:32:25.39	349.21	27.05	
2025-01-11 01:32:25.60	349.17	27.07	
2025-01-11 01:32:25.80	349.12	27.10	
2025-01-11 01:32:26.01	349.08	27.12	
2025-01-11 01:32:26.21	349.03	27.15	
2025-01-11 01:32:26.42	348.98	27.17	
2025-01-11 01:32:26.62	348.94	27.20	
2025-01-11 01:32:26.83	348.89	27.22	
2025-01-11 01:32:27.04	348.85	27.25	
2025-01-11 01:32:27.25	348.80	27.27	
2025-01-11 01:32:27.46	348.75	27.30	
2025-01-11 01:32:27.66	348.71	27.32	
2025-01-11 01:32:27.87	348.66	27.35	
2025-01-11 01:32:28.07	348.62	27.37	
2025-01-11 01:32:28.28	348.57	27.40	
2025-01-11 01:32:28.48	348.52	27.42	
2025-01-11 01:32:28.69	348.48	27.45	
2025-01-11 01:32:28.89	348.43	27.47	
2025-01-11 01:32:29.10	348.38	27.50	
2025-01-11 01:32:29.30	348.34	27.52	
2025-01-11 01:32:29.51	348.29	27.55	
2025-01-11 01:32:29.72	348.24	27.57	
2025-01-11 01:32:29.92	348.20	27.60	
2025-01-11 01:32:30.13	348.15	27.62	
2025-01-11 01:32:30.33	348.10	27.65	
2025-01-11 01:32:30.53	348.06	27.67	
2025-01-11 01:32:30.74	348.01	27.70	
2025-01-11 01:32:30.95	347.96	27.72	
2025-01-11 01:32:31.15	347.92	27.75	
2025-01-11 01:32:31.36	347.87	27.77	
2025-01-11 01:32:31.56	347.82	27.80	
2025-01-11 01:32:31.76	347.78	27.82	
2025-01-11 01:32:31.97	347.73	27.85	
2025-01-11 01:32:32.17	347.68	27.87	
2025-01-11 01:32:32.38	347.63	27.90	
2025-01-11 01:32:32.58	347.59	27.92	
2025-01-11 01:32:32.79	347.54	27.95	
2025-01-11 01:32:32.99	347.49	27.97	
2025-01-11 01:32:33.20	347.44	28.00	
2025-01-11 01:32:33.40	347.39	28.02	
2025-01-11 01:32:33.61	347.35	28.05	
2025-01-11 01:32:33.81	347.30	28.07	
2025-01-11 01:32:34.02	347.25	28.10	
2025-01-11 01:32:34.22	347.20	28.12	
2025-01-11 01:32:34.43	347.15	28.15	
2025-01-11 01:32:34.63	347.11	28.17	
2025-01-11 01:32:34.83	347.06	28.19	
2025-01-11 01:32:35.04	347.01	28.22	
2025-01-11 01:32:35.24	346.96	28.24	
2025-01-11 01:32:35.45	346.91	28.27	
2025-01-11 01:32:35.67	346.86	28.30	
2025-01-11 01:32:35.87	346.81	28.32	
2025-01-11 01:32:36.08	346.76	28.35	
2025-01-11 01:32:36.28	346.71	28.37	
2025-01-11 01:32:36.49	346.66	28.40	
2025-01-11 01:32:36.69	346.62	28.42	
2025-01-11 01:32:36.89	346.57	28.45	
2025-01-11 01:32:37.10	346.52	28.47	
2025-01-11 01:32:37.31	346.47	28.50	
2025-01-11 01:32:37.51	346.42	28.52	
2025-01-11 01:32:37.71	346.37	28.55	
2025-01-11 01:32:37.92	346.32	28.57	
2025-01-11 01:32:38.13	346.27	28.60	
2025-01-11 01:32:38.33	346.22	28.62	
2025-01-11 01:32:38.54	346.17	28.65	
2025-01-11 01:32:38.74	346.12	28.67	
2025-01-11 01:32:38.95	346.07	28.70	
2025-01-11 01:32:39.15	346.02	28.72	
2025-01-11 01:32:39.36	345.97	28.75	
2025-01-11 01:32:39.56	345.92	28.77	
2025-01-11 01:32:39.77	345.87	28.80	
2025-01-11 01:32:39.97	345.82	28.82	
2025-01-11 01:32:40.18	345.77	28.85	
2025-01-11 01:32:40.38	345.72	28.87	
2025-01-11 01:32:40.59	345.67	28.89	
2025-01-11 01:32:40.79	345.62	28.92	
2025-01-11 01:32:40.99	345.57	28.94	
2025-01-11 01:32:41.21	345.51	28.97	
2025-01-11 01:32:41.42	345.46	29.00	
2025-01-11 01:32:41.62	345.41	29.02	
2025-01-11 01:32:41.83	345.36	29.05	
2025-01-11 01:32:42.03	345.31	29.07	
2025-01-11 01:32:42.24	345.25	29.09	
2025-01-11 01:32:42.44	345.20	29.12	
2025-01-11 01:32:42.65	345.15	29.14	
2025-01-11 01:32:42.85	345.10	29.17	
2025-01-11 01:32:43.06	345.05	29.19	
2025-01-11 01:32:43.26	345.00	29.22	
2025-01-11 01:32:43.47	344.95	29.24	
2025-01-11 01:32:43.67	344.89	29.27	
2025-01-11 01:32:43.88	344.84	29.29	
2025-01-11 01:32:44.08	344.79	29.32	
2025-01-11 01:32:44.29	344.74	29.34	
2025-01-11 01:32:44.49	344.69	29.37	
2025-01-11 01:32:44.70	344.63	29.39	
2025-01-11 01:32:44.90	344.58	29.42	
2025-01-11 01:32:45.11	344.53	29.44	
2025-01-11 01:32:45.31	344.48	29.47	
2025-01-11 01:32:45.52	344.42	29.49	
2025-01-11 01:32:45.72	344.37	29.52	
2025-01-11 01:32:45.93	344.32	29.54	
2025-01-11 01:32:46.13	344.27	29.57	
2025-01-11 01:32:46.35	344.21	29.59	
2025-01-11 01:32:46.55	344.16	29.62	
2025-01-11 01:32:46.76	344.10	29.64	
2025-01-11 01:32:46.97	344.05	29.67	
2025-01-11 01:32:47.17	344.00	29.69	
2025-01-11 01:32:47.39	343.94	29.72	
2025-01-11 01:32:47.59	343.89	29.74	
2025-01-11 01:32:47.80	343.83	29.77	
2025-01-11 01:32:48.00	343.78	29.79	
2025-01-11 01:32:48.21	343.73	29.82	
2025-01-11 01:32:48.41	343.67	29.84	
2025-01-11 01:32:48.62	343.62	29.87	
2025-01-11 01:32:48.82	343.56	29.89	
2025-01-11 01:32:49.03	343.51	29.92	
2025-01-11 01:32:49.23	343.46	29.94	
2025-01-11 01:32:49.44	343.40	29.96	
2025-01-11 01:32:49.64	343.35	29.99	
2025-01-11 01:32:49.85	343.29	30.01	
2025-01-11 01:32:50.05	343.24	30.04	
2025-01-11 01:32:50.26	343.18	30.06	
2025-01-11 01:32:50.46	343.13	30.09	
2025-01-11 01:32:50.67	343.07	30.11	
2025-01-11 01:32:50.87	343.02	30.14	
2025-01-11 01:32:51.08	342.96	30.16	
2025-01-11 01:32:51.28	342.91	30.19	
2025-01-11 01:32:51.49	342.85	30.21	
2025-01-11 01:32:51.71	342.80	30.24	
2025-01-11 01:32:51.91	342.74	30.26	
2025-01-11 01:32:52.12	342.69	30.29	
2025-01-11 01:32:52.32	342.63	30.31	
2025-01-11 01:32:52.53	342.57	30.34	
2025-01-11 01:32:52.73	342.52	30.36	
2025-01-11 01:32:52.93	342.47	30.38	
2025-01-11 01:32:53.14	342.41	30.41	
2025-01-11 01:32:53.35	342.35	30.43	
2025-01-11 01:32:53.55	342.30	30.46	
2025-01-11 01:32:53.75	342.24	30.48	
2025-01-11 01:32:53.96	342.19	30.51	
2025-01-11 01:32:54.17	342.13	30.53	
2025-01-11 01:32:54.37	342.07	30.56	
2025-01-11 01:32:54.58	342.02	30.58	
2025-01-11 01:32:54.78	341.96	30.60	
2025-01-11 01:32:54.99	341.90	30.63	
2025-01-11 01:32:55.19	341.85	30.65	
2025-01-11 01:32:55.40	341.79	30.68	
2025-01-11 01:32:55.60	341.73	30.70	
2025-01-11 01:32:55.81	341.68	30.73	
2025-01-11 01:32:56.01	341.62	30.75	
2025-01-11 01:32:56.21	341.56	30.77	
2025-01-11 01:32:56.42	341.51	30.80	
2025-01-11 01:32:56.63	341.45	30.82	
2025-01-11 01:32:56.83	341.39	30.85	
2025-01-11 01:32:57.03	341.34	30.87	
2025-01-11 01:32:57.24	341.28	30.90	
2025-01-11 01:32:57.45	341.22	30.92	
2025-01-11 01:32:57.65	341.16	30.94	
2025-01-11 01:32:57.86	341.10	30.97	
2025-01-11 01:32:58.06	341.05	30.99	
2025-01-11 01:32:58.26	340.99	31.02	
2025-01-11 01:32:58.47	340.93	31.04	
2025-01-11 01:32:58.68	340.87	31.07	
2025-01-11 01:32:58.88	340.81	31.09	
2025-01-11 01:32:59.09	340.75	31.11	
2025-01-11 01:32:59.30	340.69	31.14	
2025-01-11 01:32:59.50	340.64	31.16	
2025-01-11 01:32:59.71	340.58	31.19	
2025-01-11 01:32:59.91	340.52	31.21	
2025-01-11 01:33:00.11	340.46	31.23	
2025-01-11 01:33:00.32	340.40	31.26	
2025-01-11 01:33:00.52	340.35	31.28	
2025-01-11 01:33:00.73	340.29	31.31	
2025-01-11 01:33:00.94	340.23	31.33	
2025-01-11 01:33:01.14	340.17	31.36	
2025-01-11 01:33:01.34	340.11	31.38	
2025-01-11 01:33:01.55	340.05	31.40	
2025-01-11 01:33:01.75	339.99	31.43	
2025-01-11 01:33:01.96	339.93	31.45	
2025-01-11 01:33:02.16	339.87	31.47	
2025-01-11 01:33:02.37	339.81	31.50	
2025-01-11 01:33:02.57	339.75	31.52	
2025-01-11 01:33:02.78	339.69	31.55	
2025-01-11 01:33:02.99	339.63	31.57	
2025-01-11 01:33:03.19	339.57	31.59	
2025-01-11 01:33:03.40	339.51	31.62	
2025-01-11 01:33:03.60	339.45	31.64	
2025-01-11 01:33:03.81	339.39	31.67	
2025-01-11 01:33:04.01	339.33	31.69	
2025-01-11 01:33:04.22	339.27	31.71	
2025-01-11 01:33:04.42	339.21	31.74	
2025-01-11 01:33:04.63	339.15	31.76	
2025-01-11 01:33:04.83	339.09	31.79	
2025-01-11 01:33:05.04	339.03	31.81	
2025-01-11 01:33:05.24	338.97	31.83	
2025-01-11 01:33:05.45	338.90	31.86	
2025-01-11 01:33:05.65	338.84	31.88	
2025-01-11 01:33:05.86	338.78	31.90	
2025-01-11 01:33:06.06	338.72	31.93	
2025-01-11 01:33:06.27	338.66	31.95	
2025-01-11 01:33:06.47	338.60	31.97	
2025-01-11 01:33:06.68	338.54	32.00	
2025-01-11 01:33:06.88	338.48	32.02	
2025-01-11 01:33:07.09	338.41	32.05	
2025-01-11 01:33:07.29	338.35	32.07	
2025-01-11 01:33:07.50	338.29	32.09	
2025-01-11 01:33:07.70	338.23	32.12	
2025-01-11 01:33:07.91	338.17	32.14	
2025-01-11 01:33:08.11	338.10	32.16	
2025-01-11 01:33:08.32	338.04	32.19	
2025-01-11 01:33:08.52	337.98	32.21	
2025-01-11 01:33:08.74	337.91	32.23	
2025-01-11 01:33:08.95	337.85	32.26	
2025-01-11 01:33:09.15	337.79	32.28	
2025-01-11 01:33:09.36	337.72	32.30	
2025-01-11 01:33:09.56	337.66	32.33	
2025-01-11 01:33:09.77	337.60	32.35	
2025-01-11 01:33:09.97	337.54	32.37	
2025-01-11 01:33:10.17	337.48	32.40	
2025-01-11 01:33:10.38	337.41	32.42	
2025-01-11 01:33:10.59	337.35	32.44	
2025-01-11 01:33:10.79	337.28	32.47	
2025-01-11 01:33:10.99	337.22	32.49	
2025-01-11 01:33:11.20	337.16	32.51	
2025-01-11 01:33:11.41	337.09	32.54	
2025-01-11 01:33:11.61	337.03	32.56	
2025-01-11 01:33:11.81	336.97	32.58	
2025-01-11 01:33:12.02	336.90	32.61	
2025-01-11 01:33:12.22	336.84	32.63	
2025-01-11 01:33:12.43	336.77	32.65	
2025-01-11 01:33:12.63	336.71	32.67	
2025-01-11 01:33:12.84	336.65	32.70	
2025-01-11 01:33:13.04	336.58	32.72	
2025-01-11 01:33:13.25	336.52	32.74	
2025-01-11 01:33:13.45	336.45	32.77	
2025-01-11 01:33:13.66	336.39	32.79	
2025-01-11 01:33:13.86	336.32	32.81	
2025-01-11 01:33:14.07	336.26	32.83	
2025-01-11 01:33:14.27	336.19	32.86	
2025-01-11 01:33:14.48	336.13	32.88	
2025-01-11 01:33:14.69	336.06	32.90	
2025-01-11 01:33:14.89	336.00	32.93	
2025-01-11 01:33:15.09	335.93	32.95	
2025-01-11 01:33:15.30	335.87	32.97	
2025-01-11 01:33:15.50	335.80	32.99	
2025-01-11 01:33:15.71	335.74	33.02	
2025-01-11 01:33:15.91	335.67	33.04	
2025-01-11 01:33:16.12	335.60	33.06	
2025-01-11 01:33:16.33	335.54	33.08	
2025-01-11 01:33:16.53	335.47	33.11	
2025-01-11 01:33:16.74	335.41	33.13	
2025-01-11 01:33:16.95	335.34	33.15	
2025-01-11 01:33:17.15	335.27	33.17	
2025-01-11 01:33:17.35	335.21	33.20	
2025-01-11 01:33:17.56	335.14	33.22	
2025-01-11 01:33:17.77	335.07	33.24	
2025-01-11 01:33:17.97	335.01	33.26	
2025-01-11 01:33:18.18	334.94	33.29	
2025-01-11 01:33:18.38	334.87	33.31	
2025-01-11 01:33:18.58	334.81	33.33	
2025-01-11 01:33:18.79	334.74	33.35	
2025-01-11 01:33:19.00	334.67	33.38	
2025-01-11 01:33:19.20	334.61	33.40	
2025-01-11 01:33:19.40	334.54	33.42	
2025-01-11 01:33:19.61	334.47	33.44	
2025-01-11 01:33:19.81	334.41	33.46	
2025-01-11 01:33:20.02	334.34	33.48	
2025-01-11 01:33:20.22	334.27	33.51	
2025-01-11 01:33:20.43	334.20	33.53	
2025-01-11 01:33:20.63	334.14	33.55	
2025-01-11 01:33:20.84	334.07	33.57	
2025-01-11 01:33:21.04	334.00	33.59	
2025-01-11 01:33:21.25	333.93	33.62	
2025-01-11 01:33:21.45	333.86	33.64	
2025-01-11 01:33:21.66	333.79	33.66	
2025-01-11 01:33:21.86	333.73	33.68	
2025-01-11 01:33:22.06	333.66	33.70	
2025-01-11 01:33:22.27	333.59	33.72	
2025-01-11 01:33:22.47	333.52	33.75	
2025-01-11 01:33:22.68	333.45	33.77	
2025-01-11 01:33:22.88	333.39	33.79	
2025-01-11 01:33:23.09	333.32	33.81	
2025-01-11 01:33:23.29	333.25	33.83	
2025-01-11 01:33:23.50	333.18	33.85	
2025-01-11 01:33:23.71	333.11	33.88	
2025-01-11 01:33:23.92	333.04	33.90	
2025-01-11 01:33:24.12	332.97	33.92	
2025-01-11 01:33:24.33	332.90	33.94	
2025-01-11 01:33:24.53	332.83	33.96	
2025-01-11 01:33:24.74	332.76	33.98	
2025-01-11 01:33:24.94	332.69	34.00	
2025-01-11 01:33:25.15	332.62	34.03	
2025-01-11 01:33:25.36	332.55	34.05	
2025-01-11 01:33:25.56	332.48	34.07	
2025-01-11 01:33:25.76	332.41	34.09	
2025-01-11 01:33:25.98	332.33	34.11	
2025-01-11 01:33:26.19	332.26	34.13	
2025-01-11 01:33:26.39	332.19	34.15	
2025-01-11 01:33:26.60	332.12	34.17	
2025-01-11 01:33:26.80	332.05	34.20	
2025-01-11 01:33:27.01	331.98	34.22	
2025-01-11 01:33:27.21	331.91	34.24	
2025-01-11 01:33:27.42	331.84	34.26	
2025-01-11 01:33:27.62	331.77	34.28	
2025-01-11 01:33:27.82	331.70	34.30	
2025-01-11 01:33:28.03	331.63	34.32	
2025-01-11 01:33:28.23	331.56	34.34	
2025-01-11 01:33:28.44	331.49	34.36	
2025-01-11 01:33:28.64	331.42	34.38	
2025-01-11 01:33:28.85	331.34	34.40	
2025-01-11 01:33:29.05	331.27	34.42	
2025-01-11 01:33:29.26	331.20	34.44	
2025-01-11 01:33:29.46	331.13	34.46	
2025-01-11 01:33:29.67	331.06	34.48	
2025-01-11 01:33:29.88	330.98	34.51	
2025-01-11 01:33:30.09	330.91	34.53	
2025-01-11 01:33:30.30	330.83	34.55	
2025-01-11 01:33:30.50	330.76	34.57	
2025-01-11 01:33:30.71	330.69	34.59	
2025-01-11 01:33:30.92	330.62	34.61	
2025-01-11 01:33:31.12	330.55	34.63	
2025-01-11 01:33:31.32	330.47	34.65	
2025-01-11 01:33:31.53	330.40	34.67	
2025-01-11 01:33:31.74	330.33	34.69	
2025-01-11 01:33:31.94	330.25	34.71	
2025-01-11 01:33:32.14	330.18	34.73	
2025-01-11 01:33:32.35	330.11	34.75	
2025-01-11 01:33:32.55	330.04	34.77	
2025-01-11 01:33:32.76	329.96	34.79	
2025-01-11 01:33:32.96	329.89	34.81	
2025-01-11 01:33:33.17	329.82	34.83	
2025-01-11 01:33:33.37	329.74	34.85	
2025-01-11 01:33:33.58	329.67	34.87	
2025-01-11 01:33:33.78	329.60	34.89	
2025-01-11 01:33:33.99	329.52	34.91	
2025-01-11 01:33:34.19	329.45	34.93	
2025-01-11 01:33:34.39	329.38	34.94	
2025-01-11 01:33:34.60	329.30	34.96	
2025-01-11 01:33:34.80	329.23	34.98	
2025-01-11 01:33:35.01	329.15	35.00	
2025-01-11 01:33:35.21	329.08	35.02	
2025-01-11 01:33:35.42	329.00	35.04	
2025-01-11 01:33:35.62	328.93	35.06	
2025-01-11 01:33:35.82	328.86	35.08	
2025-01-11 01:33:36.03	328.78	35.10	
2025-01-11 01:33:36.23	328.71	35.12	
2025-01-11 01:33:36.44	328.63	35.14	
2025-01-11 01:33:36.64	328.56	35.16	
2025-01-11 01:33:36.85	328.48	35.18	
2025-01-11 01:33:37.05	328.41	35.19	
2025-01-11 01:33:37.26	328.33	35.21	
2025-01-11 01:33:37.46	328.26	35.23	
2025-01-11 01:33:37.67	328.18	35.25	
2025-01-11 01:33:37.87	328.11	35.27	
2025-01-11 01:33:38.07	328.04	35.29	
2025-01-11 01:33:38.28	327.96	35.31	
2025-01-11 01:33:38.48	327.88	35.32	
2025-01-11 01:33:38.69	327.81	35.34	
2025-01-11 01:33:38.89	327.73	35.36	
2025-01-11 01:33:39.10	327.66	35.38	
2025-01-11 01:33:39.30	327.58	35.40	
2025-01-11 01:33:39.51	327.50	35.42	
2025-01-11 01:33:39.71	327.43	35.44	
2025-01-11 01:33:39.92	327.35	35.45	
2025-01-11 01:33:40.12	327.28	35.47	
2025-01-11 01:33:40.33	327.20	35.49	
2025-01-11 01:33:40.53	327.12	35.51	
2025-01-11 01:33:40.74	327.05	35.53	
2025-01-11 01:33:40.94	326.97	35.54	
2025-01-11 01:33:41.15	326.89	35.56	
2025-01-11 01:33:41.35	326.82	35.58	
2025-01-11 01:33:41.56	326.74	35.60	
2025-01-11 01:33:41.76	326.66	35.62	
2025-01-11 01:33:41.97	326.58	35.63	
2025-01-11 01:33:42.17	326.51	35.65	
2025-01-11 01:33:42.38	326.43	35.67	
2025-01-11 01:33:42.58	326.35	35.69	
2025-01-11 01:33:42.79	326.27	35.71	
2025-01-11 01:33:42.99	326.20	35.72	
2025-01-11 01:33:43.20	326.12	35.74	
2025-01-11 01:33:43.41	326.04	35.76	
2025-01-11 01:33:43.61	325.96	35.78	
2025-01-11 01:33:43.81	325.89	35.79	
2025-01-11 01:33:44.02	325.81	35.81	
2025-01-11 01:33:44.22	325.73	35.83	
2025-01-11 01:33:44.43	325.65	35.84	
2025-01-11 01:33:44.63	325.58	35.86	
2025-01-11 01:33:44.84	325.50	35.88	
2025-01-11 01:33:45.04	325.42	35.90	
2025-01-11 01:33:45.25	325.34	35.91	
2025-01-11 01:33:45.45	325.26	35.93	
2025-01-11 01:33:45.66	325.18	35.95	
2025-01-11 01:33:45.86	325.10	35.96	
2025-01-11 01:33:46.07	325.02	35.98	
2025-01-11 01:33:46.27	324.95	36.00	
2025-01-11 01:33:46.48	324.87	36.01	
2025-01-11 01:33:46.69	324.79	36.03	
2025-01-11 01:33:46.89	324.71	36.05	
2025-01-11 01:33:47.09	324.63	36.06	
2025-01-11 01:33:47.30	324.55	36.08	
2025-01-11 01:33:47.51	324.47	36.10	
2025-01-11 01:33:47.71	324.39	36.11	
2025-01-11 01:33:47.92	324.31	36.13	
2025-01-11 01:33:48.12	324.23	36.15	
2025-01-11 01:33:48.33	324.15	36.16	
2025-01-11 01:33:48.53	324.07	36.18	
2025-01-11 01:33:48.74	323.99	36.19	
2025-01-11 01:33:48.94	323.91	36.21	
2025-01-11 01:33:49.15	323.83	36.23	
2025-01-11 01:33:49.35	323.75	36.24	
2025-01-11 01:33:49.56	323.67	36.26	
2025-01-11 01:33:49.76	323.59	36.27	
2025-01-11 01:33:49.97	323.51	36.29	
2025-01-11 01:33:50.17	323.43	36.31	
2025-01-11 01:33:50.38	323.35	36.32	
2025-01-11 01:33:50.58	323.27	36.34	
2025-01-11 01:33:50.79	323.19	36.35	
2025-01-11 01:33:50.99	323.11	36.37	
2025-01-11 01:33:51.20	323.03	36.38	
2025-01-11 01:33:51.40	322.95	36.40	
2025-01-11 01:33:51.61	322.86	36.41	
2025-01-11 01:33:51.81	322.79	36.43	
2025-01-11 01:33:52.02	322.70	36.44	
2025-01-11 01:33:52.22	322.62	36.46	
2025-01-11 01:33:52.43	322.54	36.47	
2025-01-11 01:33:52.64	322.46	36.49	
2025-01-11 01:33:52.84	322.38	36.50	
2025-01-11 01:33:53.04	322.30	36.52	
2025-01-11 01:33:53.25	322.21	36.53	
2025-01-11 01:33:53.45	322.13	36.55	
2025-01-11 01:33:53.66	322.05	36.56	
2025-01-11 01:33:53.86	321.97	36.58	
2025-01-11 01:33:54.07	321.89	36.59	
2025-01-11 01:33:54.27	321.81	36.61	
2025-01-11 01:33:54.48	321.72	36.62	
