passes_logs/2025/01/11/SPB_Silybum_02/SPB_Silybum_02__20250111_232900_SUOMI_NPP_rec.log

#Pass ID: 20250111_232900_SUOMI NPP
#Satellite: SUOMI NPP
#Configuration: NPP
#Start time: 2025-01-11 23:29:00

#Version: 2.0.20230423
#Station: SPB_Silybum_02
#Location: 30.233357 lon 59.946436 lat
#TLE: 1 37849U 11061A   25010.83173011  .00000170  00000+0  10148-3 0  9996
#TLE: 2 37849  98.7441 311.8732 0001811  47.3940 312.7388 14.19536379684322

#Time	Az	El	Level	Level2	SNR	BER	Gain	Gain2
2025-01-11 23:29:02.95	21.24	4.14	
2025-01-11 23:29:03.16	21.25	4.15	
2025-01-11 23:29:03.36	21.26	4.16	
2025-01-11 23:29:03.57	21.27	4.18	
2025-01-11 23:29:03.77	21.27	4.19	
2025-01-11 23:29:03.97	21.28	4.20	
2025-01-11 23:29:04.18	21.29	4.22	
2025-01-11 23:29:04.38	21.30	4.23	
2025-01-11 23:29:04.59	21.31	4.24	
2025-01-11 23:29:04.80	21.32	4.26	
2025-01-11 23:29:05.00	21.33	4.27	
2025-01-11 23:29:05.21	21.33	4.28	
2025-01-11 23:29:05.41	21.34	4.30	
2025-01-11 23:29:05.61	21.35	4.31	
2025-01-11 23:29:05.82	21.36	4.33	
2025-01-11 23:29:06.03	21.37	4.34	
2025-01-11 23:29:06.23	21.38	4.35	
2025-01-11 23:29:06.44	21.39	4.37	
2025-01-11 23:29:06.64	21.40	4.38	
2025-01-11 23:29:06.85	21.40	4.39	
2025-01-11 23:29:07.05	21.41	4.41	
2025-01-11 23:29:07.26	21.42	4.42	
2025-01-11 23:29:07.46	21.43	4.43	
2025-01-11 23:29:07.67	21.44	4.45	
2025-01-11 23:29:07.87	21.45	4.46	
2025-01-11 23:29:08.08	21.46	4.48	
2025-01-11 23:29:08.28	21.47	4.49	
2025-01-11 23:29:08.49	21.47	4.50	
2025-01-11 23:29:08.69	21.48	4.52	
2025-01-11 23:29:08.89	21.49	4.53	
2025-01-11 23:29:09.10	21.50	4.54	
2025-01-11 23:29:09.31	21.51	4.56	
2025-01-11 23:29:09.51	21.52	4.57	
2025-01-11 23:29:09.71	21.53	4.58	
2025-01-11 23:29:09.92	21.54	4.60	
2025-01-11 23:29:10.13	21.55	4.61	
2025-01-11 23:29:10.33	21.55	4.63	
2025-01-11 23:29:10.54	21.56	4.64	
2025-01-11 23:29:10.74	21.57	4.65	
2025-01-11 23:29:10.95	21.58	4.67	
2025-01-11 23:29:11.15	21.59	4.68	
2025-01-11 23:29:11.36	21.60	4.70	
2025-01-11 23:29:11.56	21.61	4.71	
2025-01-11 23:29:11.76	21.62	4.72	
2025-01-11 23:29:11.97	21.63	4.74	
2025-01-11 23:29:12.17	21.63	4.75	
2025-01-11 23:29:12.38	21.64	4.76	
2025-01-11 23:29:12.58	21.65	4.78	
2025-01-11 23:29:12.79	21.66	4.79	
2025-01-11 23:29:12.99	21.67	4.81	
2025-01-11 23:29:13.20	21.68	4.82	
2025-01-11 23:29:13.40	21.69	4.83	
2025-01-11 23:29:13.61	21.70	4.85	
2025-01-11 23:29:13.81	21.71	4.86	
2025-01-11 23:29:14.02	21.72	4.87	
2025-01-11 23:29:14.22	21.72	4.89	
2025-01-11 23:29:14.43	21.73	4.90	
2025-01-11 23:29:14.63	21.74	4.92	
2025-01-11 23:29:14.84	21.75	4.93	
2025-01-11 23:29:15.04	21.76	4.94	
2025-01-11 23:29:15.25	21.77	4.96	
2025-01-11 23:29:15.45	21.78	4.97	
2025-01-11 23:29:15.66	21.79	4.99	
2025-01-11 23:29:15.86	21.80	5.00	
2025-01-11 23:29:16.07	21.81	5.01	
2025-01-11 23:29:16.27	21.82	5.03	
2025-01-11 23:29:16.48	21.82	5.04	
2025-01-11 23:29:16.68	21.83	5.06	
2025-01-11 23:29:16.89	21.84	5.07	
2025-01-11 23:29:17.09	21.85	5.08	
2025-01-11 23:29:17.30	21.86	5.10	
2025-01-11 23:29:17.51	21.87	5.11	
2025-01-11 23:29:17.71	21.88	5.13	
2025-01-11 23:29:17.91	21.89	5.14	
2025-01-11 23:29:18.12	21.90	5.15	
2025-01-11 23:29:18.33	21.91	5.17	
2025-01-11 23:29:18.53	21.92	5.18	
2025-01-11 23:29:18.74	21.93	5.20	
2025-01-11 23:29:18.94	21.93	5.21	
2025-01-11 23:29:19.15	21.94	5.22	
2025-01-11 23:29:19.35	21.95	5.24	
2025-01-11 23:29:19.56	21.96	5.25	
2025-01-11 23:29:19.76	21.97	5.27	
2025-01-11 23:29:19.97	21.98	5.28	
2025-01-11 23:29:20.17	21.99	5.29	
2025-01-11 23:29:20.38	22.00	5.31	
2025-01-11 23:29:20.58	22.01	5.32	
2025-01-11 23:29:20.79	22.02	5.34	
2025-01-11 23:29:21.00	22.03	5.35	
2025-01-11 23:29:21.20	22.04	5.36	
2025-01-11 23:29:21.41	22.05	5.38	
2025-01-11 23:29:21.61	22.06	5.39	
2025-01-11 23:29:21.82	22.07	5.41	
2025-01-11 23:29:22.02	22.07	5.42	
2025-01-11 23:29:22.24	22.08	5.44	
2025-01-11 23:29:22.45	22.09	5.45	
2025-01-11 23:29:22.65	22.10	5.46	
2025-01-11 23:29:22.86	22.11	5.48	
2025-01-11 23:29:23.06	22.12	5.49	
2025-01-11 23:29:23.27	22.13	5.51	
2025-01-11 23:29:23.47	22.14	5.52	
2025-01-11 23:29:23.68	22.15	5.54	
2025-01-11 23:29:23.88	22.16	5.55	
2025-01-11 23:29:24.09	22.17	5.56	
2025-01-11 23:29:24.29	22.18	5.58	
2025-01-11 23:29:24.50	22.19	5.59	
2025-01-11 23:29:24.70	22.20	5.61	
2025-01-11 23:29:24.91	22.21	5.62	
2025-01-11 23:29:25.11	22.22	5.64	
2025-01-11 23:29:25.32	22.23	5.65	
2025-01-11 23:29:25.54	22.24	5.67	
2025-01-11 23:29:25.74	22.24	5.68	
2025-01-11 23:29:25.95	22.25	5.69	
2025-01-11 23:29:26.15	22.26	5.71	
2025-01-11 23:29:26.36	22.27	5.72	
2025-01-11 23:29:26.57	22.28	5.74	
2025-01-11 23:29:26.78	22.29	5.75	
2025-01-11 23:29:26.99	22.30	5.77	
2025-01-11 23:29:27.19	22.31	5.78	
2025-01-11 23:29:27.40	22.32	5.79	
2025-01-11 23:29:27.60	22.33	5.81	
2025-01-11 23:29:27.81	22.34	5.82	
2025-01-11 23:29:28.01	22.35	5.84	
2025-01-11 23:29:28.22	22.36	5.85	
2025-01-11 23:29:28.42	22.37	5.87	
2025-01-11 23:29:28.63	22.38	5.88	
2025-01-11 23:29:28.83	22.39	5.89	
2025-01-11 23:29:29.05	22.40	5.91	
2025-01-11 23:29:29.25	22.41	5.92	
2025-01-11 23:29:29.46	22.42	5.94	
2025-01-11 23:29:29.66	22.43	5.95	
2025-01-11 23:29:29.87	22.44	5.97	
2025-01-11 23:29:30.07	22.45	5.98	
2025-01-11 23:29:30.28	22.46	6.00	
2025-01-11 23:29:30.48	22.47	6.01	
2025-01-11 23:29:30.69	22.48	6.03	
2025-01-11 23:29:30.89	22.49	6.04	
2025-01-11 23:29:31.10	22.50	6.05	
2025-01-11 23:29:31.30	22.51	6.07	
2025-01-11 23:29:31.51	22.52	6.08	
2025-01-11 23:29:31.71	22.52	6.10	
2025-01-11 23:29:31.92	22.53	6.11	
2025-01-11 23:29:32.12	22.54	6.13	
2025-01-11 23:29:32.33	22.55	6.14	
2025-01-11 23:29:32.53	22.56	6.16	
2025-01-11 23:29:32.74	22.57	6.17	
2025-01-11 23:29:32.94	22.58	6.18	
2025-01-11 23:29:33.16	22.59	6.20	
2025-01-11 23:29:33.36	22.60	6.21	
2025-01-11 23:29:33.57	22.61	6.23	
2025-01-11 23:29:33.78	22.62	6.24	
2025-01-11 23:29:33.98	22.63	6.26	
2025-01-11 23:29:34.20	22.64	6.27	
2025-01-11 23:29:34.40	22.65	6.29	
2025-01-11 23:29:34.61	22.66	6.30	
2025-01-11 23:29:34.82	22.67	6.32	
2025-01-11 23:29:35.02	22.68	6.33	
2025-01-11 23:29:35.22	22.69	6.35	
2025-01-11 23:29:35.43	22.70	6.36	
2025-01-11 23:29:35.63	22.71	6.38	
2025-01-11 23:29:35.84	22.72	6.39	
2025-01-11 23:29:36.04	22.73	6.41	
2025-01-11 23:29:36.25	22.74	6.42	
2025-01-11 23:29:36.45	22.75	6.43	
2025-01-11 23:29:36.66	22.76	6.45	
2025-01-11 23:29:36.86	22.77	6.46	
2025-01-11 23:29:37.07	22.78	6.48	
2025-01-11 23:29:37.29	22.79	6.49	
2025-01-11 23:29:37.49	22.80	6.51	
2025-01-11 23:29:37.70	22.81	6.52	
2025-01-11 23:29:37.90	22.82	6.54	
2025-01-11 23:29:38.11	22.83	6.55	
2025-01-11 23:29:38.33	22.84	6.57	
2025-01-11 23:29:38.54	22.85	6.58	
2025-01-11 23:29:38.74	22.86	6.60	
2025-01-11 23:29:38.95	22.87	6.61	
2025-01-11 23:29:39.15	22.88	6.63	
2025-01-11 23:29:39.36	22.89	6.64	
2025-01-11 23:29:39.56	22.90	6.66	
2025-01-11 23:29:39.77	22.91	6.67	
2025-01-11 23:29:39.97	22.92	6.69	
2025-01-11 23:29:40.18	22.93	6.70	
2025-01-11 23:29:40.38	22.94	6.72	
2025-01-11 23:29:40.59	22.95	6.73	
2025-01-11 23:29:40.79	22.96	6.75	
2025-01-11 23:29:41.00	22.98	6.76	
2025-01-11 23:29:41.21	22.99	6.78	
2025-01-11 23:29:41.41	23.00	6.79	
2025-01-11 23:29:41.61	23.01	6.81	
2025-01-11 23:29:41.82	23.02	6.82	
2025-01-11 23:29:42.03	23.03	6.84	
2025-01-11 23:29:42.23	23.04	6.85	
2025-01-11 23:29:42.44	23.05	6.87	
2025-01-11 23:29:42.64	23.06	6.88	
2025-01-11 23:29:42.85	23.07	6.90	
2025-01-11 23:29:43.05	23.08	6.91	
2025-01-11 23:29:43.25	23.09	6.92	
2025-01-11 23:29:43.46	23.10	6.94	
2025-01-11 23:29:43.66	23.11	6.95	
2025-01-11 23:29:43.88	23.12	6.97	
2025-01-11 23:29:44.08	23.13	6.99	
2025-01-11 23:29:44.29	23.14	7.00	
2025-01-11 23:29:44.50	23.15	7.02	
2025-01-11 23:29:44.70	23.16	7.03	
2025-01-11 23:29:44.90	23.17	7.05	
2025-01-11 23:29:45.11	23.18	7.06	
2025-01-11 23:29:45.32	23.19	7.08	
2025-01-11 23:29:45.52	23.20	7.09	
2025-01-11 23:29:45.73	23.21	7.11	
2025-01-11 23:29:45.93	23.22	7.12	
2025-01-11 23:29:46.13	23.23	7.14	
2025-01-11 23:29:46.34	23.24	7.15	
2025-01-11 23:29:46.55	23.25	7.17	
2025-01-11 23:29:46.75	23.26	7.18	
2025-01-11 23:29:46.95	23.27	7.20	
2025-01-11 23:29:47.16	23.28	7.21	
2025-01-11 23:29:47.36	23.29	7.23	
2025-01-11 23:29:47.57	23.31	7.24	
2025-01-11 23:29:47.77	23.32	7.26	
2025-01-11 23:29:47.98	23.33	7.27	
2025-01-11 23:29:48.18	23.34	7.29	
2025-01-11 23:29:48.39	23.35	7.30	
2025-01-11 23:29:48.59	23.36	7.32	
2025-01-11 23:29:48.80	23.37	7.33	
2025-01-11 23:29:49.00	23.38	7.35	
2025-01-11 23:29:49.21	23.39	7.36	
2025-01-11 23:29:49.41	23.40	7.38	
2025-01-11 23:29:49.62	23.41	7.39	
2025-01-11 23:29:49.82	23.42	7.41	
2025-01-11 23:29:50.02	23.43	7.42	
2025-01-11 23:29:50.23	23.44	7.44	
2025-01-11 23:29:50.44	23.45	7.45	
2025-01-11 23:29:50.64	23.46	7.47	
2025-01-11 23:29:50.85	23.47	7.48	
2025-01-11 23:29:51.05	23.48	7.50	
2025-01-11 23:29:51.26	23.49	7.51	
2025-01-11 23:29:51.46	23.51	7.53	
2025-01-11 23:29:51.67	23.52	7.54	
2025-01-11 23:29:51.87	23.53	7.56	
2025-01-11 23:29:52.08	23.54	7.57	
2025-01-11 23:29:52.28	23.55	7.59	
2025-01-11 23:29:52.49	23.56	7.61	
2025-01-11 23:29:52.70	23.57	7.62	
2025-01-11 23:29:52.90	23.58	7.64	
2025-01-11 23:29:53.11	23.59	7.65	
2025-01-11 23:29:53.32	23.60	7.67	
2025-01-11 23:29:53.53	23.61	7.68	
2025-01-11 23:29:53.73	23.62	7.70	
2025-01-11 23:29:53.94	23.63	7.71	
2025-01-11 23:29:54.14	23.65	7.73	
2025-01-11 23:29:54.34	23.66	7.74	
2025-01-11 23:29:54.55	23.67	7.76	
2025-01-11 23:29:54.76	23.68	7.78	
2025-01-11 23:29:54.96	23.69	7.79	
2025-01-11 23:29:55.17	23.70	7.81	
2025-01-11 23:29:55.37	23.71	7.82	
2025-01-11 23:29:55.58	23.72	7.84	
2025-01-11 23:29:55.78	23.73	7.85	
2025-01-11 23:29:55.99	23.74	7.87	
2025-01-11 23:29:56.19	23.75	7.88	
2025-01-11 23:29:56.40	23.76	7.90	
2025-01-11 23:29:56.60	23.78	7.91	
2025-01-11 23:29:56.81	23.79	7.93	
2025-01-11 23:29:57.01	23.80	7.94	
2025-01-11 23:29:57.22	23.81	7.96	
2025-01-11 23:29:57.43	23.82	7.98	
2025-01-11 23:29:57.64	23.83	7.99	
2025-01-11 23:29:57.85	23.84	8.01	
2025-01-11 23:29:58.06	23.85	8.02	
2025-01-11 23:29:58.26	23.86	8.04	
2025-01-11 23:29:58.47	23.88	8.05	
2025-01-11 23:29:58.67	23.89	8.07	
2025-01-11 23:29:58.88	23.90	8.09	
2025-01-11 23:29:59.08	23.91	8.10	
2025-01-11 23:29:59.29	23.92	8.12	
2025-01-11 23:29:59.50	23.93	8.13	
2025-01-11 23:29:59.70	23.94	8.15	
2025-01-11 23:29:59.90	23.95	8.16	
2025-01-11 23:30:00.11	23.96	8.18	
2025-01-11 23:30:00.31	23.97	8.19	
2025-01-11 23:30:00.52	23.99	8.21	
2025-01-11 23:30:00.72	24.00	8.23	
2025-01-11 23:30:00.93	24.01	8.24	
2025-01-11 23:30:01.13	24.02	8.26	
2025-01-11 23:30:01.34	24.03	8.27	
2025-01-11 23:30:01.55	24.04	8.29	
2025-01-11 23:30:01.75	24.05	8.30	
2025-01-11 23:30:01.96	24.06	8.32	
2025-01-11 23:30:02.16	24.07	8.34	
2025-01-11 23:30:02.37	24.09	8.35	
2025-01-11 23:30:02.57	24.10	8.37	
2025-01-11 23:30:02.78	24.11	8.38	
2025-01-11 23:30:02.98	24.12	8.40	
2025-01-11 23:30:03.19	24.13	8.41	
2025-01-11 23:30:03.39	24.14	8.43	
2025-01-11 23:30:03.60	24.15	8.45	
2025-01-11 23:30:03.81	24.17	8.46	
2025-01-11 23:30:04.01	24.18	8.48	
2025-01-11 23:30:04.21	24.19	8.49	
2025-01-11 23:30:04.42	24.20	8.51	
2025-01-11 23:30:04.62	24.21	8.53	
2025-01-11 23:30:04.83	24.22	8.54	
2025-01-11 23:30:05.03	24.23	8.56	
2025-01-11 23:30:05.24	24.24	8.57	
2025-01-11 23:30:05.44	24.26	8.59	
2025-01-11 23:30:05.65	24.27	8.60	
2025-01-11 23:30:05.85	24.28	8.62	
2025-01-11 23:30:06.06	24.29	8.64	
2025-01-11 23:30:06.26	24.30	8.65	
2025-01-11 23:30:06.47	24.31	8.67	
2025-01-11 23:30:06.67	24.32	8.68	
2025-01-11 23:30:06.88	24.34	8.70	
2025-01-11 23:30:07.08	24.35	8.72	
2025-01-11 23:30:07.29	24.36	8.73	
2025-01-11 23:30:07.49	24.37	8.75	
2025-01-11 23:30:07.70	24.38	8.76	
2025-01-11 23:30:07.90	24.39	8.78	
2025-01-11 23:30:08.11	24.40	8.80	
2025-01-11 23:30:08.31	24.42	8.81	
2025-01-11 23:30:08.52	24.43	8.83	
2025-01-11 23:30:08.72	24.44	8.84	
2025-01-11 23:30:08.93	24.45	8.86	
2025-01-11 23:30:09.13	24.46	8.87	
2025-01-11 23:30:09.34	24.47	8.89	
2025-01-11 23:30:09.54	24.49	8.91	
2025-01-11 23:30:09.75	24.50	8.92	
2025-01-11 23:30:09.95	24.51	8.94	
2025-01-11 23:30:10.16	24.52	8.96	
2025-01-11 23:30:10.37	24.53	8.97	
2025-01-11 23:30:10.58	24.54	8.99	
2025-01-11 23:30:10.79	24.56	9.00	
2025-01-11 23:30:10.99	24.57	9.02	
2025-01-11 23:30:11.20	24.58	9.04	
2025-01-11 23:30:11.40	24.59	9.05	
2025-01-11 23:30:11.61	24.60	9.07	
2025-01-11 23:30:11.81	24.61	9.09	
2025-01-11 23:30:12.02	24.63	9.10	
2025-01-11 23:30:12.22	24.64	9.12	
2025-01-11 23:30:12.43	24.65	9.13	
2025-01-11 23:30:12.63	24.66	9.15	
2025-01-11 23:30:12.84	24.67	9.17	
2025-01-11 23:30:13.04	24.68	9.18	
2025-01-11 23:30:13.25	24.70	9.20	
2025-01-11 23:30:13.45	24.71	9.21	
2025-01-11 23:30:13.66	24.72	9.23	
2025-01-11 23:30:13.86	24.73	9.25	
2025-01-11 23:30:14.07	24.74	9.26	
2025-01-11 23:30:14.27	24.76	9.28	
2025-01-11 23:30:14.48	24.77	9.30	
2025-01-11 23:30:14.68	24.78	9.31	
2025-01-11 23:30:14.89	24.79	9.33	
2025-01-11 23:30:15.09	24.80	9.34	
2025-01-11 23:30:15.30	24.82	9.36	
2025-01-11 23:30:15.50	24.83	9.38	
2025-01-11 23:30:15.71	24.84	9.39	
2025-01-11 23:30:15.91	24.85	9.41	
2025-01-11 23:30:16.12	24.86	9.43	
2025-01-11 23:30:16.32	24.88	9.44	
2025-01-11 23:30:16.53	24.89	9.46	
2025-01-11 23:30:16.73	24.90	9.48	
2025-01-11 23:30:16.94	24.91	9.49	
2025-01-11 23:30:17.14	24.92	9.51	
2025-01-11 23:30:17.35	24.94	9.52	
2025-01-11 23:30:17.55	24.95	9.54	
2025-01-11 23:30:17.76	24.96	9.56	
2025-01-11 23:30:17.96	24.97	9.57	
2025-01-11 23:30:18.17	24.98	9.59	
2025-01-11 23:30:18.37	25.00	9.61	
2025-01-11 23:30:18.58	25.01	9.62	
2025-01-11 23:30:18.78	25.02	9.64	
2025-01-11 23:30:19.00	25.03	9.66	
2025-01-11 23:30:19.20	25.05	9.67	
2025-01-11 23:30:19.41	25.06	9.69	
2025-01-11 23:30:19.62	25.07	9.71	
2025-01-11 23:30:19.82	25.08	9.72	
2025-01-11 23:30:20.03	25.09	9.74	
2025-01-11 23:30:20.23	25.11	9.76	
2025-01-11 23:30:20.44	25.12	9.77	
2025-01-11 23:30:20.64	25.13	9.79	
2025-01-11 23:30:20.85	25.14	9.81	
2025-01-11 23:30:21.05	25.16	9.82	
2025-01-11 23:30:21.26	25.17	9.84	
2025-01-11 23:30:21.46	25.18	9.86	
2025-01-11 23:30:21.67	25.19	9.87	
2025-01-11 23:30:21.87	25.20	9.89	
2025-01-11 23:30:22.08	25.22	9.91	
2025-01-11 23:30:22.28	25.23	9.92	
2025-01-11 23:30:22.49	25.24	9.94	
2025-01-11 23:30:22.69	25.25	9.96	
2025-01-11 23:30:22.90	25.27	9.97	
2025-01-11 23:30:23.10	25.28	9.99	
2025-01-11 23:30:23.31	25.29	10.01	
2025-01-11 23:30:23.51	25.30	10.02	
2025-01-11 23:30:23.72	25.32	10.04	
2025-01-11 23:30:23.92	25.33	10.06	
2025-01-11 23:30:24.14	25.34	10.07	
2025-01-11 23:30:24.34	25.35	10.09	
2025-01-11 23:30:24.55	25.37	10.11	
2025-01-11 23:30:24.75	25.38	10.12	
2025-01-11 23:30:24.96	25.39	10.14	
2025-01-11 23:30:25.16	25.40	10.16	
2025-01-11 23:30:25.37	25.42	10.17	
2025-01-11 23:30:25.57	25.43	10.19	
2025-01-11 23:30:25.78	25.44	10.21	
2025-01-11 23:30:25.99	25.46	10.22	
2025-01-11 23:30:26.19	25.47	10.24	
2025-01-11 23:30:26.39	25.48	10.26	
2025-01-11 23:30:26.60	25.49	10.27	
2025-01-11 23:30:26.80	25.51	10.29	
2025-01-11 23:30:27.01	25.52	10.31	
2025-01-11 23:30:27.22	25.53	10.33	
2025-01-11 23:30:27.42	25.54	10.34	
2025-01-11 23:30:27.63	25.56	10.36	
2025-01-11 23:30:27.83	25.57	10.38	
2025-01-11 23:30:28.04	25.58	10.39	
2025-01-11 23:30:28.24	25.59	10.41	
2025-01-11 23:30:28.45	25.61	10.43	
2025-01-11 23:30:28.65	25.62	10.44	
2025-01-11 23:30:28.86	25.63	10.46	
2025-01-11 23:30:29.07	25.65	10.48	
2025-01-11 23:30:29.27	25.66	10.49	
2025-01-11 23:30:29.48	25.67	10.51	
2025-01-11 23:30:29.68	25.68	10.53	
2025-01-11 23:30:29.89	25.70	10.55	
2025-01-11 23:30:30.09	25.71	10.56	
2025-01-11 23:30:30.30	25.72	10.58	
2025-01-11 23:30:30.50	25.74	10.60	
2025-01-11 23:30:30.72	25.75	10.62	
2025-01-11 23:30:30.92	25.76	10.63	
2025-01-11 23:30:31.13	25.78	10.65	
2025-01-11 23:30:31.33	25.79	10.67	
2025-01-11 23:30:31.54	25.80	10.68	
2025-01-11 23:30:31.74	25.81	10.70	
2025-01-11 23:30:31.95	25.83	10.72	
2025-01-11 23:30:32.15	25.84	10.73	
2025-01-11 23:30:32.36	25.85	10.75	
2025-01-11 23:30:32.56	25.87	10.77	
2025-01-11 23:30:32.76	25.88	10.79	
2025-01-11 23:30:32.97	25.89	10.80	
2025-01-11 23:30:33.17	25.91	10.82	
2025-01-11 23:30:33.38	25.92	10.84	
2025-01-11 23:30:33.59	25.93	10.86	
2025-01-11 23:30:33.79	25.95	10.87	
2025-01-11 23:30:34.00	25.96	10.89	
2025-01-11 23:30:34.20	25.97	10.91	
2025-01-11 23:30:34.41	25.99	10.92	
2025-01-11 23:30:34.61	26.00	10.94	
2025-01-11 23:30:34.82	26.01	10.96	
2025-01-11 23:30:35.02	26.02	10.98	
2025-01-11 23:30:35.23	26.04	10.99	
2025-01-11 23:30:35.43	26.05	11.01	
2025-01-11 23:30:35.64	26.06	11.03	
2025-01-11 23:30:35.84	26.08	11.04	
2025-01-11 23:30:36.05	26.09	11.06	
2025-01-11 23:30:36.25	26.10	11.08	
2025-01-11 23:30:36.46	26.12	11.10	
2025-01-11 23:30:36.66	26.13	11.11	
2025-01-11 23:30:36.87	26.14	11.13	
2025-01-11 23:30:37.09	26.16	11.15	
2025-01-11 23:30:37.29	26.17	11.17	
2025-01-11 23:30:37.50	26.19	11.19	
2025-01-11 23:30:37.70	26.20	11.20	
2025-01-11 23:30:37.91	26.21	11.22	
2025-01-11 23:30:38.11	26.23	11.24	
2025-01-11 23:30:38.32	26.24	11.26	
2025-01-11 23:30:38.52	26.25	11.27	
2025-01-11 23:30:38.73	26.27	11.29	
2025-01-11 23:30:38.93	26.28	11.31	
2025-01-11 23:30:39.14	26.29	11.33	
2025-01-11 23:30:39.34	26.31	11.34	
2025-01-11 23:30:39.55	26.32	11.36	
2025-01-11 23:30:39.76	26.33	11.38	
2025-01-11 23:30:39.96	26.35	11.40	
2025-01-11 23:30:40.17	26.36	11.41	
2025-01-11 23:30:40.37	26.37	11.43	
2025-01-11 23:30:40.58	26.39	11.45	
2025-01-11 23:30:40.78	26.40	11.47	
2025-01-11 23:30:40.99	26.42	11.48	
2025-01-11 23:30:41.19	26.43	11.50	
2025-01-11 23:30:41.41	26.44	11.52	
2025-01-11 23:30:41.61	26.46	11.54	
2025-01-11 23:30:41.82	26.47	11.56	
2025-01-11 23:30:42.02	26.48	11.57	
2025-01-11 23:30:42.23	26.50	11.59	
2025-01-11 23:30:42.45	26.51	11.61	
2025-01-11 23:30:42.65	26.53	11.63	
2025-01-11 23:30:42.86	26.54	11.65	
2025-01-11 23:30:43.06	26.55	11.66	
2025-01-11 23:30:43.27	26.57	11.68	
2025-01-11 23:30:43.47	26.58	11.70	
2025-01-11 23:30:43.68	26.60	11.72	
2025-01-11 23:30:43.88	26.61	11.73	
2025-01-11 23:30:44.09	26.62	11.75	
2025-01-11 23:30:44.29	26.64	11.77	
2025-01-11 23:30:44.49	26.65	11.79	
2025-01-11 23:30:44.70	26.67	11.80	
2025-01-11 23:30:44.91	26.68	11.82	
2025-01-11 23:30:45.11	26.69	11.84	
2025-01-11 23:30:45.32	26.71	11.86	
2025-01-11 23:30:45.52	26.72	11.88	
2025-01-11 23:30:45.73	26.74	11.89	
2025-01-11 23:30:45.94	26.75	11.91	
2025-01-11 23:30:46.14	26.76	11.93	
2025-01-11 23:30:46.35	26.78	11.95	
2025-01-11 23:30:46.55	26.79	11.97	
2025-01-11 23:30:46.76	26.81	11.98	
2025-01-11 23:30:46.96	26.82	12.00	
2025-01-11 23:30:47.16	26.83	12.02	
2025-01-11 23:30:47.37	26.85	12.04	
2025-01-11 23:30:47.58	26.86	12.06	
2025-01-11 23:30:47.78	26.88	12.07	
2025-01-11 23:30:47.99	26.89	12.09	
2025-01-11 23:30:48.19	26.90	12.11	
2025-01-11 23:30:48.40	26.92	12.13	
2025-01-11 23:30:48.61	26.93	12.15	
2025-01-11 23:30:48.81	26.95	12.16	
2025-01-11 23:30:49.02	26.96	12.18	
2025-01-11 23:30:49.22	26.98	12.20	
2025-01-11 23:30:49.43	26.99	12.22	
2025-01-11 23:30:49.63	27.01	12.24	
2025-01-11 23:30:49.84	27.02	12.26	
2025-01-11 23:30:50.04	27.03	12.27	
2025-01-11 23:30:50.25	27.05	12.29	
2025-01-11 23:30:50.45	27.06	12.31	
2025-01-11 23:30:50.65	27.08	12.33	
2025-01-11 23:30:50.86	27.09	12.35	
2025-01-11 23:30:51.06	27.11	12.36	
2025-01-11 23:30:51.27	27.12	12.38	
2025-01-11 23:30:51.47	27.13	12.40	
2025-01-11 23:30:51.68	27.15	12.42	
2025-01-11 23:30:51.88	27.16	12.44	
2025-01-11 23:30:52.08	27.18	12.45	
2025-01-11 23:30:52.29	27.19	12.47	
2025-01-11 23:30:52.50	27.21	12.49	
2025-01-11 23:30:52.70	27.22	12.51	
2025-01-11 23:30:52.91	27.24	12.53	
2025-01-11 23:30:53.12	27.25	12.55	
2025-01-11 23:30:53.33	27.27	12.57	
2025-01-11 23:30:53.53	27.28	12.58	
2025-01-11 23:30:53.74	27.30	12.60	
2025-01-11 23:30:53.94	27.31	12.62	
2025-01-11 23:30:54.15	27.33	12.64	
2025-01-11 23:30:54.35	27.34	12.66	
2025-01-11 23:30:54.56	27.35	12.68	
2025-01-11 23:30:54.76	27.37	12.69	
2025-01-11 23:30:54.97	27.38	12.71	
2025-01-11 23:30:55.17	27.40	12.73	
2025-01-11 23:30:55.38	27.41	12.75	
2025-01-11 23:30:55.58	27.43	12.77	
2025-01-11 23:30:55.78	27.44	12.79	
2025-01-11 23:30:55.99	27.46	12.80	
2025-01-11 23:30:56.20	27.47	12.82	
2025-01-11 23:30:56.40	27.49	12.84	
2025-01-11 23:30:56.61	27.50	12.86	
2025-01-11 23:30:56.81	27.52	12.88	
2025-01-11 23:30:57.02	27.53	12.90	
2025-01-11 23:30:57.22	27.55	12.92	
2025-01-11 23:30:57.42	27.56	12.93	
2025-01-11 23:30:57.63	27.58	12.95	
2025-01-11 23:30:57.84	27.59	12.97	
2025-01-11 23:30:58.04	27.61	12.99	
2025-01-11 23:30:58.25	27.62	13.01	
2025-01-11 23:30:58.47	27.64	13.03	
2025-01-11 23:30:58.67	27.65	13.05	
2025-01-11 23:30:58.88	27.67	13.07	
2025-01-11 23:30:59.08	27.68	13.08	
2025-01-11 23:30:59.29	27.70	13.10	
2025-01-11 23:30:59.49	27.71	13.12	
2025-01-11 23:30:59.70	27.73	13.14	
2025-01-11 23:30:59.90	27.74	13.16	
2025-01-11 23:31:00.11	27.76	13.18	
2025-01-11 23:31:00.31	27.77	13.20	
2025-01-11 23:31:00.51	27.79	13.22	
2025-01-11 23:31:00.72	27.80	13.23	
2025-01-11 23:31:00.92	27.82	13.25	
2025-01-11 23:31:01.13	27.84	13.27	
2025-01-11 23:31:01.34	27.85	13.29	
2025-01-11 23:31:01.54	27.87	13.31	
2025-01-11 23:31:01.75	27.88	13.33	
2025-01-11 23:31:01.95	27.90	13.35	
2025-01-11 23:31:02.16	27.91	13.37	
2025-01-11 23:31:02.36	27.93	13.38	
2025-01-11 23:31:02.57	27.94	13.40	
2025-01-11 23:31:02.79	27.96	13.42	
2025-01-11 23:31:02.99	27.98	13.44	
2025-01-11 23:31:03.20	27.99	13.46	
2025-01-11 23:31:03.40	28.01	13.48	
2025-01-11 23:31:03.61	28.02	13.50	
2025-01-11 23:31:03.82	28.04	13.52	
2025-01-11 23:31:04.03	28.05	13.54	
2025-01-11 23:31:04.23	28.07	13.56	
2025-01-11 23:31:04.44	28.08	13.58	
2025-01-11 23:31:04.64	28.10	13.60	
2025-01-11 23:31:04.86	28.12	13.62	
2025-01-11 23:31:05.07	28.13	13.64	
2025-01-11 23:31:05.28	28.15	13.66	
2025-01-11 23:31:05.48	28.16	13.67	
2025-01-11 23:31:05.69	28.18	13.69	
2025-01-11 23:31:05.91	28.20	13.71	
2025-01-11 23:31:06.11	28.21	13.73	
2025-01-11 23:31:06.32	28.23	13.75	
2025-01-11 23:31:06.52	28.24	13.77	
2025-01-11 23:31:06.73	28.26	13.79	
2025-01-11 23:31:06.93	28.28	13.81	
2025-01-11 23:31:07.14	28.29	13.83	
2025-01-11 23:31:07.35	28.31	13.85	
2025-01-11 23:31:07.55	28.32	13.87	
2025-01-11 23:31:07.76	28.34	13.89	
2025-01-11 23:31:07.96	28.36	13.91	
2025-01-11 23:31:08.17	28.37	13.93	
2025-01-11 23:31:08.37	28.39	13.94	
2025-01-11 23:31:08.58	28.40	13.96	
2025-01-11 23:31:08.78	28.42	13.98	
2025-01-11 23:31:08.99	28.44	14.00	
2025-01-11 23:31:09.19	28.45	14.02	
2025-01-11 23:31:09.40	28.47	14.04	
2025-01-11 23:31:09.60	28.48	14.06	
2025-01-11 23:31:09.81	28.50	14.08	
2025-01-11 23:31:10.01	28.52	14.10	
2025-01-11 23:31:10.21	28.53	14.12	
2025-01-11 23:31:10.42	28.55	14.14	
2025-01-11 23:31:10.62	28.56	14.16	
2025-01-11 23:31:10.83	28.58	14.18	
2025-01-11 23:31:11.03	28.60	14.20	
2025-01-11 23:31:11.24	28.61	14.22	
2025-01-11 23:31:11.44	28.63	14.23	
2025-01-11 23:31:11.65	28.65	14.25	
2025-01-11 23:31:11.85	28.66	14.27	
2025-01-11 23:31:12.06	28.68	14.29	
2025-01-11 23:31:12.27	28.69	14.31	
2025-01-11 23:31:12.48	28.71	14.33	
2025-01-11 23:31:12.69	28.73	14.35	
2025-01-11 23:31:12.89	28.74	14.37	
2025-01-11 23:31:13.10	28.76	14.39	
2025-01-11 23:31:13.30	28.78	14.41	
2025-01-11 23:31:13.51	28.79	14.43	
2025-01-11 23:31:13.71	28.81	14.45	
2025-01-11 23:31:13.92	28.83	14.47	
2025-01-11 23:31:14.12	28.84	14.49	
2025-01-11 23:31:14.33	28.86	14.51	
2025-01-11 23:31:14.53	28.88	14.53	
2025-01-11 23:31:14.74	28.89	14.55	
2025-01-11 23:31:14.94	28.91	14.57	
2025-01-11 23:31:15.15	28.93	14.59	
2025-01-11 23:31:15.35	28.94	14.61	
2025-01-11 23:31:15.56	28.96	14.63	
2025-01-11 23:31:15.76	28.98	14.65	
2025-01-11 23:31:15.97	28.99	14.67	
2025-01-11 23:31:16.18	29.01	14.69	
2025-01-11 23:31:16.38	29.03	14.71	
2025-01-11 23:31:16.58	29.04	14.73	
2025-01-11 23:31:16.79	29.06	14.75	
2025-01-11 23:31:16.99	29.08	14.77	
2025-01-11 23:31:17.20	29.09	14.79	
2025-01-11 23:31:17.41	29.11	14.81	
2025-01-11 23:31:17.62	29.13	14.83	
2025-01-11 23:31:17.82	29.14	14.85	
2025-01-11 23:31:18.03	29.16	14.87	
2025-01-11 23:31:18.24	29.18	14.89	
2025-01-11 23:31:18.44	29.20	14.91	
2025-01-11 23:31:18.65	29.21	14.93	
2025-01-11 23:31:18.85	29.23	14.95	
2025-01-11 23:31:19.06	29.25	14.97	
2025-01-11 23:31:19.26	29.26	14.99	
2025-01-11 23:31:19.47	29.28	15.01	
2025-01-11 23:31:19.68	29.30	15.03	
2025-01-11 23:31:19.88	29.32	15.05	
2025-01-11 23:31:20.09	29.33	15.07	
2025-01-11 23:31:20.29	29.35	15.09	
2025-01-11 23:31:20.50	29.37	15.11	
2025-01-11 23:31:20.70	29.38	15.13	
2025-01-11 23:31:20.91	29.40	15.15	
2025-01-11 23:31:21.11	29.42	15.17	
2025-01-11 23:31:21.32	29.44	15.19	
2025-01-11 23:31:21.52	29.45	15.21	
2025-01-11 23:31:21.72	29.47	15.23	
2025-01-11 23:31:21.93	29.49	15.25	
2025-01-11 23:31:22.13	29.50	15.27	
2025-01-11 23:31:22.34	29.52	15.29	
2025-01-11 23:31:22.54	29.54	15.31	
2025-01-11 23:31:22.75	29.56	15.33	
2025-01-11 23:31:22.95	29.57	15.35	
2025-01-11 23:31:23.16	29.59	15.37	
2025-01-11 23:31:23.36	29.61	15.39	
2025-01-11 23:31:23.57	29.63	15.41	
2025-01-11 23:31:23.78	29.65	15.43	
2025-01-11 23:31:23.98	29.66	15.45	
2025-01-11 23:31:24.18	29.68	15.47	
2025-01-11 23:31:24.39	29.70	15.49	
2025-01-11 23:31:24.59	29.71	15.51	
2025-01-11 23:31:24.80	29.73	15.53	
2025-01-11 23:31:25.01	29.75	15.55	
2025-01-11 23:31:25.22	29.77	15.58	
2025-01-11 23:31:25.43	29.79	15.60	
2025-01-11 23:31:25.63	29.80	15.62	
2025-01-11 23:31:25.84	29.82	15.64	
2025-01-11 23:31:26.04	29.84	15.66	
2025-01-11 23:31:26.25	29.86	15.68	
2025-01-11 23:31:26.45	29.88	15.70	
2025-01-11 23:31:26.66	29.89	15.72	
2025-01-11 23:31:26.86	29.91	15.74	
2025-01-11 23:31:27.07	29.93	15.76	
2025-01-11 23:31:27.29	29.95	15.78	
2025-01-11 23:31:27.49	29.97	15.80	
2025-01-11 23:31:27.70	29.99	15.82	
2025-01-11 23:31:27.90	30.00	15.84	
2025-01-11 23:31:28.11	30.02	15.86	
2025-01-11 23:31:28.31	30.04	15.88	
2025-01-11 23:31:28.52	30.06	15.91	
2025-01-11 23:31:28.72	30.07	15.93	
2025-01-11 23:31:28.93	30.09	15.95	
2025-01-11 23:31:29.13	30.11	15.97	
2025-01-11 23:31:29.34	30.13	15.99	
2025-01-11 23:31:29.54	30.15	16.01	
2025-01-11 23:31:29.75	30.17	16.03	
2025-01-11 23:31:29.95	30.18	16.05	
2025-01-11 23:31:30.16	30.20	16.07	
2025-01-11 23:31:30.36	30.22	16.09	
2025-01-11 23:31:30.57	30.24	16.11	
2025-01-11 23:31:30.77	30.26	16.13	
2025-01-11 23:31:30.98	30.28	16.15	
2025-01-11 23:31:31.18	30.29	16.18	
2025-01-11 23:31:31.39	30.31	16.20	
2025-01-11 23:31:31.61	30.33	16.22	
2025-01-11 23:31:31.81	30.35	16.24	
2025-01-11 23:31:32.02	30.37	16.26	
2025-01-11 23:31:32.22	30.39	16.28	
2025-01-11 23:31:32.43	30.41	16.30	
2025-01-11 23:31:32.63	30.42	16.32	
2025-01-11 23:31:32.84	30.44	16.34	
2025-01-11 23:31:33.04	30.46	16.37	
2025-01-11 23:31:33.25	30.48	16.39	
2025-01-11 23:31:33.45	30.50	16.41	
2025-01-11 23:31:33.67	30.52	16.43	
2025-01-11 23:31:33.88	30.54	16.45	
2025-01-11 23:31:34.08	30.56	16.47	
2025-01-11 23:31:34.29	30.58	16.49	
2025-01-11 23:31:34.49	30.59	16.51	
2025-01-11 23:31:34.70	30.61	16.54	
2025-01-11 23:31:34.90	30.63	16.56	
2025-01-11 23:31:35.10	30.65	16.58	
2025-01-11 23:31:35.31	30.67	16.60	
2025-01-11 23:31:35.52	30.69	16.62	
2025-01-11 23:31:35.72	30.71	16.64	
2025-01-11 23:31:35.92	30.73	16.66	
2025-01-11 23:31:36.13	30.75	16.68	
2025-01-11 23:31:36.34	30.76	16.71	
2025-01-11 23:31:36.54	30.78	16.73	
2025-01-11 23:31:36.75	30.80	16.75	
2025-01-11 23:31:36.96	30.82	16.77	
2025-01-11 23:31:37.17	30.84	16.79	
2025-01-11 23:31:37.38	30.86	16.81	
2025-01-11 23:31:37.58	30.88	16.83	
2025-01-11 23:31:37.79	30.90	16.86	
2025-01-11 23:31:37.99	30.92	16.88	
2025-01-11 23:31:38.20	30.94	16.90	
2025-01-11 23:31:38.40	30.96	16.92	
2025-01-11 23:31:38.61	30.98	16.94	
2025-01-11 23:31:38.81	31.00	16.96	
2025-01-11 23:31:39.02	31.02	16.98	
2025-01-11 23:31:39.22	31.03	17.01	
2025-01-11 23:31:39.43	31.05	17.03	
2025-01-11 23:31:39.63	31.07	17.05	
2025-01-11 23:31:39.84	31.09	17.07	
2025-01-11 23:31:40.04	31.11	17.09	
2025-01-11 23:31:40.25	31.13	17.11	
2025-01-11 23:31:40.45	31.15	17.13	
2025-01-11 23:31:40.66	31.17	17.16	
2025-01-11 23:31:40.86	31.19	17.18	
2025-01-11 23:31:41.07	31.21	17.20	
2025-01-11 23:31:41.27	31.23	17.22	
2025-01-11 23:31:41.49	31.25	17.24	
2025-01-11 23:31:41.70	31.27	17.27	
2025-01-11 23:31:41.90	31.29	17.29	
2025-01-11 23:31:42.11	31.31	17.31	
2025-01-11 23:31:42.31	31.33	17.33	
2025-01-11 23:31:42.52	31.35	17.35	
2025-01-11 23:31:42.72	31.37	17.37	
2025-01-11 23:31:42.93	31.39	17.40	
2025-01-11 23:31:43.13	31.41	17.42	
2025-01-11 23:31:43.33	31.43	17.44	
2025-01-11 23:31:43.54	31.45	17.46	
2025-01-11 23:31:43.75	31.47	17.48	
2025-01-11 23:31:43.95	31.49	17.51	
2025-01-11 23:31:44.15	31.51	17.53	
2025-01-11 23:31:44.36	31.53	17.55	
2025-01-11 23:31:44.56	31.55	17.57	
2025-01-11 23:31:44.77	31.57	17.59	
2025-01-11 23:31:44.98	31.59	17.62	
2025-01-11 23:31:45.19	31.61	17.64	
2025-01-11 23:31:45.39	31.63	17.66	
2025-01-11 23:31:45.60	31.65	17.68	
2025-01-11 23:31:45.80	31.67	17.70	
2025-01-11 23:31:46.01	31.69	17.73	
2025-01-11 23:31:46.21	31.71	17.75	
2025-01-11 23:31:46.42	31.73	17.77	
2025-01-11 23:31:46.62	31.75	17.79	
2025-01-11 23:31:46.83	31.77	17.81	
2025-01-11 23:31:47.03	31.79	17.84	
2025-01-11 23:31:47.24	31.81	17.86	
2025-01-11 23:31:47.44	31.83	17.88	
2025-01-11 23:31:47.66	31.86	17.90	
2025-01-11 23:31:47.86	31.88	17.93	
2025-01-11 23:31:48.07	31.90	17.95	
2025-01-11 23:31:48.27	31.92	17.97	
2025-01-11 23:31:48.48	31.94	17.99	
2025-01-11 23:31:48.68	31.96	18.01	
2025-01-11 23:31:48.89	31.98	18.04	
2025-01-11 23:31:49.09	32.00	18.06	
2025-01-11 23:31:49.30	32.02	18.08	
2025-01-11 23:31:49.50	32.04	18.10	
2025-01-11 23:31:49.71	32.06	18.13	
2025-01-11 23:31:49.91	32.08	18.15	
2025-01-11 23:31:50.12	32.10	18.17	
2025-01-11 23:31:50.33	32.12	18.19	
2025-01-11 23:31:50.53	32.15	18.22	
2025-01-11 23:31:50.73	32.17	18.24	
2025-01-11 23:31:50.94	32.19	18.26	
2025-01-11 23:31:51.14	32.21	18.28	
2025-01-11 23:31:51.35	32.23	18.31	
2025-01-11 23:31:51.55	32.25	18.33	
2025-01-11 23:31:51.76	32.27	18.35	
2025-01-11 23:31:51.96	32.29	18.37	
2025-01-11 23:31:52.17	32.31	18.40	
2025-01-11 23:31:52.38	32.34	18.42	
2025-01-11 23:31:52.58	32.36	18.44	
2025-01-11 23:31:52.79	32.38	18.46	
2025-01-11 23:31:52.99	32.40	18.49	
2025-01-11 23:31:53.20	32.42	18.51	
2025-01-11 23:31:53.40	32.44	18.53	
2025-01-11 23:31:53.61	32.46	18.55	
2025-01-11 23:31:53.81	32.48	18.58	
2025-01-11 23:31:54.01	32.50	18.60	
2025-01-11 23:31:54.22	32.53	18.62	
2025-01-11 23:31:54.43	32.55	18.64	
2025-01-11 23:31:54.63	32.57	18.67	
2025-01-11 23:31:54.84	32.59	18.69	
2025-01-11 23:31:55.06	32.61	18.71	
2025-01-11 23:31:55.26	32.64	18.74	
2025-01-11 23:31:55.47	32.66	18.76	
2025-01-11 23:31:55.68	32.68	18.78	
2025-01-11 23:31:55.88	32.70	18.81	
2025-01-11 23:31:56.08	32.72	18.83	
2025-01-11 23:31:56.29	32.74	18.85	
2025-01-11 23:31:56.49	32.77	18.87	
2025-01-11 23:31:56.70	32.79	18.90	
2025-01-11 23:31:56.91	32.81	18.92	
2025-01-11 23:31:57.11	32.83	18.94	
2025-01-11 23:31:57.31	32.85	18.97	
2025-01-11 23:31:57.52	32.88	18.99	
2025-01-11 23:31:57.72	32.90	19.01	
2025-01-11 23:31:57.93	32.92	19.03	
2025-01-11 23:31:58.13	32.94	19.06	
2025-01-11 23:31:58.34	32.96	19.08	
2025-01-11 23:31:58.54	32.99	19.10	
2025-01-11 23:31:58.75	33.01	19.13	
2025-01-11 23:31:58.96	33.03	19.15	
2025-01-11 23:31:59.16	33.05	19.17	
2025-01-11 23:31:59.38	33.08	19.20	
2025-01-11 23:31:59.58	33.10	19.22	
2025-01-11 23:31:59.79	33.12	19.24	
2025-01-11 23:32:00.00	33.14	19.27	
2025-01-11 23:32:00.20	33.17	19.29	
2025-01-11 23:32:00.42	33.19	19.32	
2025-01-11 23:32:00.62	33.21	19.34	
2025-01-11 23:32:00.83	33.23	19.36	
2025-01-11 23:32:01.03	33.26	19.38	
2025-01-11 23:32:01.24	33.28	19.41	
2025-01-11 23:32:01.44	33.30	19.43	
2025-01-11 23:32:01.65	33.32	19.46	
2025-01-11 23:32:01.85	33.35	19.48	
2025-01-11 23:32:02.06	33.37	19.50	
2025-01-11 23:32:02.27	33.39	19.53	
2025-01-11 23:32:02.47	33.42	19.55	
2025-01-11 23:32:02.67	33.44	19.57	
2025-01-11 23:32:02.88	33.46	19.60	
2025-01-11 23:32:03.08	33.48	19.62	
2025-01-11 23:32:03.29	33.51	19.64	
2025-01-11 23:32:03.49	33.53	19.67	
2025-01-11 23:32:03.70	33.55	19.69	
2025-01-11 23:32:03.90	33.58	19.71	
2025-01-11 23:32:04.11	33.60	19.74	
2025-01-11 23:32:04.31	33.62	19.76	
2025-01-11 23:32:04.52	33.64	19.78	
2025-01-11 23:32:04.72	33.67	19.81	
2025-01-11 23:32:04.93	33.69	19.83	
2025-01-11 23:32:05.13	33.71	19.85	
2025-01-11 23:32:05.34	33.74	19.88	
2025-01-11 23:32:05.54	33.76	19.90	
2025-01-11 23:32:05.75	33.78	19.93	
2025-01-11 23:32:05.95	33.81	19.95	
2025-01-11 23:32:06.15	33.83	19.97	
2025-01-11 23:32:06.36	33.85	20.00	
2025-01-11 23:32:06.56	33.88	20.02	
2025-01-11 23:32:06.77	33.90	20.04	
2025-01-11 23:32:06.97	33.92	20.07	
2025-01-11 23:32:07.18	33.95	20.09	
2025-01-11 23:32:07.38	33.97	20.11	
2025-01-11 23:32:07.59	33.99	20.14	
2025-01-11 23:32:07.79	34.02	20.16	
2025-01-11 23:32:08.00	34.04	20.19	
2025-01-11 23:32:08.20	34.06	20.21	
2025-01-11 23:32:08.41	34.09	20.23	
2025-01-11 23:32:08.61	34.11	20.26	
2025-01-11 23:32:08.82	34.14	20.28	
2025-01-11 23:32:09.02	34.16	20.31	
2025-01-11 23:32:09.23	34.18	20.33	
2025-01-11 23:32:09.43	34.21	20.35	
2025-01-11 23:32:09.64	34.23	20.38	
2025-01-11 23:32:09.84	34.26	20.40	
2025-01-11 23:32:10.06	34.28	20.43	
2025-01-11 23:32:10.27	34.31	20.45	
2025-01-11 23:32:10.47	34.33	20.48	
2025-01-11 23:32:10.68	34.35	20.50	
2025-01-11 23:32:10.88	34.38	20.52	
2025-01-11 23:32:11.09	34.40	20.55	
2025-01-11 23:32:11.29	34.43	20.57	
2025-01-11 23:32:11.50	34.45	20.60	
2025-01-11 23:32:11.70	34.47	20.62	
2025-01-11 23:32:11.91	34.50	20.65	
2025-01-11 23:32:12.11	34.52	20.67	
2025-01-11 23:32:12.32	34.55	20.69	
2025-01-11 23:32:12.52	34.57	20.72	
2025-01-11 23:32:12.73	34.60	20.74	
2025-01-11 23:32:12.93	34.62	20.77	
2025-01-11 23:32:13.14	34.65	20.79	
2025-01-11 23:32:13.34	34.67	20.81	
2025-01-11 23:32:13.55	34.70	20.84	
2025-01-11 23:32:13.75	34.72	20.86	
2025-01-11 23:32:13.96	34.75	20.89	
2025-01-11 23:32:14.16	34.77	20.91	
2025-01-11 23:32:14.37	34.79	20.94	
2025-01-11 23:32:14.57	34.82	20.96	
2025-01-11 23:32:14.78	34.84	20.99	
2025-01-11 23:32:14.98	34.87	21.01	
2025-01-11 23:32:15.19	34.89	21.04	
2025-01-11 23:32:15.39	34.92	21.06	
2025-01-11 23:32:15.60	34.94	21.08	
2025-01-11 23:32:15.81	34.97	21.11	
2025-01-11 23:32:16.01	34.99	21.13	
2025-01-11 23:32:16.21	35.02	21.16	
2025-01-11 23:32:16.43	35.05	21.18	
2025-01-11 23:32:16.64	35.07	21.21	
2025-01-11 23:32:16.84	35.10	21.23	
2025-01-11 23:32:17.05	35.12	21.26	
2025-01-11 23:32:17.26	35.15	21.28	
2025-01-11 23:32:17.46	35.17	21.31	
2025-01-11 23:32:17.67	35.20	21.33	
2025-01-11 23:32:17.87	35.22	21.36	
2025-01-11 23:32:18.08	35.25	21.38	
2025-01-11 23:32:18.29	35.28	21.41	
2025-01-11 23:32:18.50	35.30	21.43	
2025-01-11 23:32:18.70	35.33	21.46	
2025-01-11 23:32:18.91	35.35	21.48	
2025-01-11 23:32:19.11	35.38	21.51	
2025-01-11 23:32:19.32	35.41	21.53	
2025-01-11 23:32:19.52	35.43	21.56	
2025-01-11 23:32:19.73	35.46	21.58	
2025-01-11 23:32:19.94	35.48	21.61	
2025-01-11 23:32:20.14	35.51	21.63	
2025-01-11 23:32:20.35	35.54	21.66	
2025-01-11 23:32:20.55	35.56	21.68	
2025-01-11 23:32:20.76	35.59	21.71	
2025-01-11 23:32:20.96	35.61	21.73	
2025-01-11 23:32:21.17	35.64	21.76	
2025-01-11 23:32:21.38	35.67	21.79	
2025-01-11 23:32:21.58	35.69	21.81	
2025-01-11 23:32:21.80	35.72	21.84	
2025-01-11 23:32:22.00	35.75	21.86	
2025-01-11 23:32:22.21	35.77	21.89	
2025-01-11 23:32:22.41	35.80	21.91	
2025-01-11 23:32:22.62	35.82	21.94	
2025-01-11 23:32:22.82	35.85	21.96	
2025-01-11 23:32:23.03	35.88	21.99	
2025-01-11 23:32:23.23	35.90	22.01	
2025-01-11 23:32:23.44	35.93	22.04	
2025-01-11 23:32:23.64	35.96	22.06	
2025-01-11 23:32:23.85	35.98	22.09	
2025-01-11 23:32:24.05	36.01	22.11	
2025-01-11 23:32:24.26	36.04	22.14	
2025-01-11 23:32:24.46	36.06	22.16	
2025-01-11 23:32:24.67	36.09	22.19	
2025-01-11 23:32:24.87	36.12	22.22	
2025-01-11 23:32:25.08	36.14	22.24	
2025-01-11 23:32:25.29	36.17	22.27	
2025-01-11 23:32:25.49	36.20	22.29	
2025-01-11 23:32:25.70	36.23	22.32	
2025-01-11 23:32:25.90	36.25	22.34	
2025-01-11 23:32:26.11	36.28	22.37	
2025-01-11 23:32:26.31	36.31	22.39	
2025-01-11 23:32:26.52	36.33	22.42	
2025-01-11 23:32:26.73	36.36	22.45	
2025-01-11 23:32:26.93	36.39	22.47	
2025-01-11 23:32:27.15	36.42	22.50	
2025-01-11 23:32:27.35	36.45	22.52	
2025-01-11 23:32:27.56	36.47	22.55	
2025-01-11 23:32:27.76	36.50	22.58	
2025-01-11 23:32:27.96	36.53	22.60	
2025-01-11 23:32:28.17	36.56	22.63	
2025-01-11 23:32:28.37	36.58	22.65	
2025-01-11 23:32:28.58	36.61	22.68	
2025-01-11 23:32:28.79	36.64	22.71	
2025-01-11 23:32:28.99	36.67	22.73	
2025-01-11 23:32:29.19	36.69	22.76	
2025-01-11 23:32:29.40	36.72	22.78	
2025-01-11 23:32:29.61	36.75	22.81	
2025-01-11 23:32:29.81	36.78	22.83	
2025-01-11 23:32:30.02	36.81	22.86	
2025-01-11 23:32:30.22	36.83	22.89	
2025-01-11 23:32:30.43	36.86	22.91	
2025-01-11 23:32:30.63	36.89	22.94	
2025-01-11 23:32:30.84	36.92	22.96	
2025-01-11 23:32:31.04	36.95	22.99	
2025-01-11 23:32:31.25	36.97	23.02	
2025-01-11 23:32:31.45	37.00	23.04	
2025-01-11 23:32:31.66	37.03	23.07	
2025-01-11 23:32:31.87	37.06	23.10	
2025-01-11 23:32:32.07	37.09	23.12	
2025-01-11 23:32:32.28	37.12	23.15	
2025-01-11 23:32:32.48	37.14	23.17	
2025-01-11 23:32:32.68	37.17	23.20	
2025-01-11 23:32:32.89	37.20	23.23	
2025-01-11 23:32:33.09	37.23	23.25	
2025-01-11 23:32:33.30	37.26	23.28	
2025-01-11 23:32:33.50	37.29	23.30	
2025-01-11 23:32:33.71	37.32	23.33	
2025-01-11 23:32:33.91	37.34	23.36	
2025-01-11 23:32:34.12	37.37	23.38	
2025-01-11 23:32:34.32	37.40	23.41	
2025-01-11 23:32:34.53	37.43	23.44	
2025-01-11 23:32:34.73	37.46	23.46	
2025-01-11 23:32:34.94	37.49	23.49	
2025-01-11 23:32:35.14	37.52	23.51	
2025-01-11 23:32:35.35	37.55	23.54	
2025-01-11 23:32:35.55	37.58	23.57	
2025-01-11 23:32:35.76	37.61	23.59	
2025-01-11 23:32:35.96	37.64	23.62	
2025-01-11 23:32:36.17	37.67	23.65	
2025-01-11 23:32:36.38	37.70	23.67	
2025-01-11 23:32:36.58	37.72	23.70	
2025-01-11 23:32:36.79	37.75	23.73	
2025-01-11 23:32:36.99	37.78	23.75	
2025-01-11 23:32:37.20	37.81	23.78	
2025-01-11 23:32:37.40	37.84	23.81	
2025-01-11 23:32:37.61	37.87	23.83	
2025-01-11 23:32:37.81	37.90	23.86	
2025-01-11 23:32:38.02	37.93	23.89	
2025-01-11 23:32:38.22	37.96	23.91	
2025-01-11 23:32:38.43	37.99	23.94	
2025-01-11 23:32:38.63	38.02	23.97	
2025-01-11 23:32:38.84	38.05	23.99	
2025-01-11 23:32:39.04	38.08	24.02	
2025-01-11 23:32:39.25	38.11	24.05	
2025-01-11 23:32:39.45	38.14	24.07	
2025-01-11 23:32:39.66	38.17	24.10	
2025-01-11 23:32:39.86	38.20	24.13	
2025-01-11 23:32:40.07	38.23	24.16	
2025-01-11 23:32:40.28	38.26	24.18	
2025-01-11 23:32:40.48	38.29	24.21	
2025-01-11 23:32:40.69	38.32	24.24	
2025-01-11 23:32:40.89	38.35	24.26	
2025-01-11 23:32:41.09	38.38	24.29	
2025-01-11 23:32:41.30	38.42	24.32	
2025-01-11 23:32:41.51	38.45	24.35	
2025-01-11 23:32:41.71	38.48	24.37	
2025-01-11 23:32:41.92	38.51	24.40	
2025-01-11 23:32:42.12	38.54	24.43	
2025-01-11 23:32:42.33	38.57	24.45	
2025-01-11 23:32:42.53	38.60	24.48	
2025-01-11 23:32:42.73	38.63	24.51	
2025-01-11 23:32:42.94	38.66	24.53	
2025-01-11 23:32:43.14	38.69	24.56	
2025-01-11 23:32:43.35	38.72	24.59	
2025-01-11 23:32:43.55	38.75	24.62	
2025-01-11 23:32:43.76	38.79	24.64	
2025-01-11 23:32:43.96	38.82	24.67	
2025-01-11 23:32:44.17	38.85	24.70	
2025-01-11 23:32:44.37	38.88	24.72	
2025-01-11 23:32:44.58	38.91	24.75	
2025-01-11 23:32:44.78	38.94	24.78	
2025-01-11 23:32:44.99	38.97	24.81	
2025-01-11 23:32:45.19	39.01	24.83	
2025-01-11 23:32:45.40	39.04	24.86	
2025-01-11 23:32:45.60	39.07	24.89	
2025-01-11 23:32:45.81	39.10	24.92	
2025-01-11 23:32:46.01	39.13	24.94	
2025-01-11 23:32:46.22	39.17	24.97	
2025-01-11 23:32:46.42	39.20	25.00	
2025-01-11 23:32:46.63	39.23	25.03	
2025-01-11 23:32:46.83	39.26	25.05	
2025-01-11 23:32:47.04	39.29	25.08	
2025-01-11 23:32:47.24	39.32	25.11	
2025-01-11 23:32:47.45	39.36	25.14	
2025-01-11 23:32:47.65	39.39	25.16	
2025-01-11 23:32:47.86	39.42	25.19	
2025-01-11 23:32:48.06	39.45	25.22	
2025-01-11 23:32:48.27	39.49	25.25	
2025-01-11 23:32:48.47	39.52	25.27	
2025-01-11 23:32:48.68	39.55	25.30	
2025-01-11 23:32:48.88	39.58	25.33	
2025-01-11 23:32:49.09	39.62	25.36	
2025-01-11 23:32:49.30	39.65	25.39	
2025-01-11 23:32:49.50	39.68	25.41	
2025-01-11 23:32:49.70	39.71	25.44	
2025-01-11 23:32:49.91	39.75	25.47	
2025-01-11 23:32:50.11	39.78	25.50	
2025-01-11 23:32:50.32	39.81	25.53	
2025-01-11 23:32:50.52	39.85	25.55	
2025-01-11 23:32:50.73	39.88	25.58	
2025-01-11 23:32:50.93	39.91	25.61	
2025-01-11 23:32:51.14	39.95	25.64	
2025-01-11 23:32:51.34	39.98	25.66	
2025-01-11 23:32:51.55	40.01	25.69	
2025-01-11 23:32:51.75	40.04	25.72	
2025-01-11 23:32:51.96	40.08	25.75	
2025-01-11 23:32:52.16	40.11	25.78	
2025-01-11 23:32:52.37	40.15	25.81	
2025-01-11 23:32:52.57	40.18	25.83	
2025-01-11 23:32:52.78	40.21	25.86	
2025-01-11 23:32:52.98	40.25	25.89	
2025-01-11 23:32:53.19	40.28	25.92	
2025-01-11 23:32:53.39	40.31	25.95	
2025-01-11 23:32:53.60	40.35	25.97	
2025-01-11 23:32:53.80	40.38	26.00	
2025-01-11 23:32:54.00	40.41	26.03	
2025-01-11 23:32:54.21	40.45	26.06	
2025-01-11 23:32:54.42	40.48	26.09	
2025-01-11 23:32:54.62	40.52	26.11	
2025-01-11 23:32:54.82	40.55	26.14	
2025-01-11 23:32:55.03	40.59	26.17	
2025-01-11 23:32:55.23	40.62	26.20	
2025-01-11 23:32:55.44	40.65	26.23	
2025-01-11 23:32:55.65	40.69	26.26	
2025-01-11 23:32:55.85	40.72	26.28	
2025-01-11 23:32:56.06	40.76	26.31	
2025-01-11 23:32:56.26	40.79	26.34	
2025-01-11 23:32:56.47	40.83	26.37	
2025-01-11 23:32:56.67	40.86	26.40	
2025-01-11 23:32:56.88	40.90	26.43	
2025-01-11 23:32:57.08	40.93	26.46	
2025-01-11 23:32:57.29	40.97	26.48	
2025-01-11 23:32:57.49	41.00	26.51	
2025-01-11 23:32:57.70	41.04	26.54	
2025-01-11 23:32:57.90	41.07	26.57	
2025-01-11 23:32:58.11	41.11	26.60	
2025-01-11 23:32:58.31	41.14	26.63	
2025-01-11 23:32:58.52	41.18	26.66	
2025-01-11 23:32:58.73	41.21	26.69	
2025-01-11 23:32:58.93	41.25	26.71	
2025-01-11 23:32:59.13	41.28	26.74	
2025-01-11 23:32:59.34	41.32	26.77	
2025-01-11 23:32:59.55	41.36	26.80	
2025-01-11 23:32:59.75	41.39	26.83	
2025-01-11 23:32:59.96	41.43	26.86	
2025-01-11 23:33:00.16	41.46	26.89	
2025-01-11 23:33:00.37	41.50	26.92	
2025-01-11 23:33:00.57	41.54	26.94	
2025-01-11 23:33:00.78	41.57	26.97	
2025-01-11 23:33:00.98	41.61	27.00	
2025-01-11 23:33:01.19	41.64	27.03	
2025-01-11 23:33:01.39	41.68	27.06	
2025-01-11 23:33:01.60	41.72	27.09	
2025-01-11 23:33:01.80	41.75	27.12	
2025-01-11 23:33:02.01	41.79	27.15	
2025-01-11 23:33:02.22	41.83	27.18	
2025-01-11 23:33:02.42	41.86	27.21	
2025-01-11 23:33:02.63	41.90	27.24	
2025-01-11 23:33:02.83	41.94	27.26	
2025-01-11 23:33:03.04	41.97	27.29	
2025-01-11 23:33:03.24	42.01	27.32	
2025-01-11 23:33:03.45	42.05	27.35	
2025-01-11 23:33:03.65	42.08	27.38	
2025-01-11 23:33:03.86	42.12	27.41	
2025-01-11 23:33:04.07	42.16	27.44	
2025-01-11 23:33:04.27	42.19	27.47	
2025-01-11 23:33:04.47	42.23	27.50	
2025-01-11 23:33:04.68	42.27	27.53	
2025-01-11 23:33:04.88	42.31	27.56	
2025-01-11 23:33:05.09	42.34	27.59	
2025-01-11 23:33:05.29	42.38	27.61	
2025-01-11 23:33:05.50	42.42	27.64	
2025-01-11 23:33:05.70	42.46	27.67	
2025-01-11 23:33:05.91	42.49	27.70	
2025-01-11 23:33:06.11	42.53	27.73	
2025-01-11 23:33:06.32	42.57	27.76	
2025-01-11 23:33:06.52	42.61	27.79	
2025-01-11 23:33:06.73	42.64	27.82	
2025-01-11 23:33:06.93	42.68	27.85	
2025-01-11 23:33:07.14	42.72	27.88	
2025-01-11 23:33:07.34	42.76	27.91	
2025-01-11 23:33:07.55	42.80	27.94	
2025-01-11 23:33:07.75	42.83	27.97	
2025-01-11 23:33:07.96	42.87	28.00	
2025-01-11 23:33:08.16	42.91	28.03	
2025-01-11 23:33:08.37	42.95	28.06	
2025-01-11 23:33:08.57	42.99	28.08	
2025-01-11 23:33:08.78	43.03	28.12	
2025-01-11 23:33:08.98	43.07	28.14	
2025-01-11 23:33:09.19	43.11	28.17	
2025-01-11 23:33:09.39	43.14	28.20	
2025-01-11 23:33:09.60	43.18	28.23	
2025-01-11 23:33:09.80	43.22	28.26	
2025-01-11 23:33:10.01	43.26	28.29	
2025-01-11 23:33:10.21	43.30	28.32	
2025-01-11 23:33:10.42	43.34	28.35	
2025-01-11 23:33:10.62	43.38	28.38	
2025-01-11 23:33:10.84	43.42	28.41	
2025-01-11 23:33:11.05	43.46	28.44	
2025-01-11 23:33:11.25	43.50	28.47	
2025-01-11 23:33:11.46	43.54	28.50	
2025-01-11 23:33:11.66	43.58	28.53	
2025-01-11 23:33:11.87	43.62	28.56	
2025-01-11 23:33:12.07	43.66	28.59	
2025-01-11 23:33:12.28	43.70	28.62	
2025-01-11 23:33:12.48	43.74	28.65	
2025-01-11 23:33:12.69	43.78	28.68	
2025-01-11 23:33:12.89	43.82	28.71	
2025-01-11 23:33:13.10	43.86	28.74	
2025-01-11 23:33:13.31	43.90	28.77	
2025-01-11 23:33:13.51	43.94	28.80	
2025-01-11 23:33:13.72	43.98	28.83	
2025-01-11 23:33:13.92	44.02	28.86	
2025-01-11 23:33:14.13	44.06	28.89	
2025-01-11 23:33:14.33	44.10	28.92	
2025-01-11 23:33:14.54	44.14	28.95	
2025-01-11 23:33:14.74	44.18	28.98	
2025-01-11 23:33:14.95	44.22	29.01	
2025-01-11 23:33:15.15	44.26	29.04	
2025-01-11 23:33:15.36	44.30	29.08	
2025-01-11 23:33:15.56	44.34	29.10	
2025-01-11 23:33:15.77	44.39	29.14	
2025-01-11 23:33:15.98	44.43	29.17	
2025-01-11 23:33:16.18	44.47	29.20	
2025-01-11 23:33:16.39	44.51	29.23	
2025-01-11 23:33:16.59	44.55	29.26	
2025-01-11 23:33:16.80	44.59	29.29	
2025-01-11 23:33:17.00	44.63	29.32	
2025-01-11 23:33:17.20	44.68	29.35	
2025-01-11 23:33:17.41	44.72	29.38	
2025-01-11 23:33:17.61	44.76	29.41	
2025-01-11 23:33:17.82	44.80	29.44	
2025-01-11 23:33:18.03	44.84	29.47	
2025-01-11 23:33:18.23	44.89	29.50	
2025-01-11 23:33:18.43	44.93	29.53	
2025-01-11 23:33:18.64	44.97	29.56	
2025-01-11 23:33:18.85	45.01	29.59	
2025-01-11 23:33:19.05	45.05	29.62	
2025-01-11 23:33:19.26	45.10	29.65	
2025-01-11 23:33:19.46	45.14	29.68	
2025-01-11 23:33:19.67	45.18	29.71	
2025-01-11 23:33:19.87	45.22	29.74	
2025-01-11 23:33:20.08	45.27	29.77	
2025-01-11 23:33:20.28	45.31	29.80	
2025-01-11 23:33:20.49	45.35	29.84	
2025-01-11 23:33:20.69	45.40	29.87	
2025-01-11 23:33:20.90	45.44	29.90	
2025-01-11 23:33:21.10	45.48	29.93	
2025-01-11 23:33:21.31	45.53	29.96	
2025-01-11 23:33:21.51	45.57	29.99	
2025-01-11 23:33:21.72	45.61	30.02	
2025-01-11 23:33:21.93	45.66	30.05	
2025-01-11 23:33:22.13	45.70	30.08	
2025-01-11 23:33:22.34	45.74	30.11	
2025-01-11 23:33:22.54	45.79	30.14	
2025-01-11 23:33:22.75	45.83	30.17	
2025-01-11 23:33:22.95	45.87	30.20	
2025-01-11 23:33:23.16	45.92	30.24	
2025-01-11 23:33:23.36	45.96	30.27	
2025-01-11 23:33:23.57	46.01	30.30	
2025-01-11 23:33:23.77	46.05	30.33	
2025-01-11 23:33:23.98	46.10	30.36	
2025-01-11 23:33:24.18	46.14	30.39	
2025-01-11 23:33:24.39	46.18	30.42	
2025-01-11 23:33:24.59	46.23	30.45	
2025-01-11 23:33:24.80	46.27	30.48	
2025-01-11 23:33:25.01	46.32	30.51	
2025-01-11 23:33:25.21	46.36	30.54	
2025-01-11 23:33:25.42	46.41	30.58	
2025-01-11 23:33:25.62	46.45	30.61	
2025-01-11 23:33:25.83	46.50	30.64	
2025-01-11 23:33:26.03	46.54	30.67	
2025-01-11 23:33:26.24	46.59	30.70	
2025-01-11 23:33:26.44	46.63	30.73	
2025-01-11 23:33:26.65	46.68	30.76	
2025-01-11 23:33:26.85	46.72	30.79	
2025-01-11 23:33:27.06	46.77	30.82	
2025-01-11 23:33:27.26	46.81	30.85	
2025-01-11 23:33:27.47	46.86	30.89	
2025-01-11 23:33:27.67	46.91	30.92	
2025-01-11 23:33:27.88	46.95	30.95	
2025-01-11 23:33:28.08	47.00	30.98	
2025-01-11 23:33:28.29	47.04	31.01	
2025-01-11 23:33:28.49	47.09	31.04	
2025-01-11 23:33:28.70	47.14	31.07	
2025-01-11 23:33:28.90	47.18	31.10	
2025-01-11 23:33:29.11	47.23	31.14	
2025-01-11 23:33:29.31	47.27	31.17	
2025-01-11 23:33:29.52	47.32	31.20	
2025-01-11 23:33:29.72	47.37	31.23	
2025-01-11 23:33:29.92	47.41	31.26	
2025-01-11 23:33:30.13	47.46	31.29	
2025-01-11 23:33:30.34	47.51	31.32	
2025-01-11 23:33:30.54	47.56	31.35	
2025-01-11 23:33:30.75	47.60	31.39	
2025-01-11 23:33:30.95	47.65	31.42	
2025-01-11 23:33:31.15	47.70	31.45	
2025-01-11 23:33:31.36	47.74	31.48	
2025-01-11 23:33:31.57	47.79	31.51	
2025-01-11 23:33:31.77	47.84	31.54	
2025-01-11 23:33:31.98	47.89	31.57	
2025-01-11 23:33:32.18	47.93	31.60	
2025-01-11 23:33:32.39	47.98	31.64	
2025-01-11 23:33:32.59	48.03	31.67	
2025-01-11 23:33:32.80	48.08	31.70	
2025-01-11 23:33:33.00	48.13	31.73	
2025-01-11 23:33:33.20	48.17	31.76	
2025-01-11 23:33:33.41	48.22	31.79	
2025-01-11 23:33:33.62	48.27	31.83	
2025-01-11 23:33:33.82	48.32	31.86	
2025-01-11 23:33:34.03	48.37	31.89	
2025-01-11 23:33:34.23	48.42	31.92	
2025-01-11 23:33:34.44	48.47	31.95	
2025-01-11 23:33:34.64	48.51	31.98	
2025-01-11 23:33:34.85	48.56	32.02	
2025-01-11 23:33:35.05	48.61	32.05	
2025-01-11 23:33:35.25	48.66	32.08	
2025-01-11 23:33:35.46	48.71	32.11	
2025-01-11 23:33:35.67	48.76	32.14	
2025-01-11 23:33:35.87	48.81	32.17	
2025-01-11 23:33:36.08	48.86	32.20	
2025-01-11 23:33:36.28	48.91	32.24	
2025-01-11 23:33:36.50	48.96	32.27	
2025-01-11 23:33:36.71	49.01	32.30	
2025-01-11 23:33:36.91	49.06	32.33	
2025-01-11 23:33:37.12	49.11	32.37	
2025-01-11 23:33:37.32	49.16	32.40	
2025-01-11 23:33:37.52	49.21	32.43	
2025-01-11 23:33:37.73	49.26	32.46	
2025-01-11 23:33:37.94	49.31	32.49	
2025-01-11 23:33:38.14	49.36	32.52	
2025-01-11 23:33:38.35	49.41	32.56	
2025-01-11 23:33:38.55	49.46	32.59	
2025-01-11 23:33:38.76	49.51	32.62	
2025-01-11 23:33:38.96	49.56	32.65	
2025-01-11 23:33:39.17	49.62	32.68	
2025-01-11 23:33:39.37	49.67	32.71	
2025-01-11 23:33:39.59	49.72	32.75	
2025-01-11 23:33:39.80	49.77	32.78	
2025-01-11 23:33:40.00	49.82	32.81	
2025-01-11 23:33:40.21	49.88	32.84	
2025-01-11 23:33:40.41	49.93	32.88	
2025-01-11 23:33:40.62	49.98	32.91	
2025-01-11 23:33:40.82	50.03	32.94	
2025-01-11 23:33:41.03	50.08	32.97	
2025-01-11 23:33:41.23	50.13	33.00	
2025-01-11 23:33:41.44	50.19	33.04	
2025-01-11 23:33:41.64	50.24	33.07	
2025-01-11 23:33:41.85	50.29	33.10	
2025-01-11 23:33:42.05	50.34	33.13	
2025-01-11 23:33:42.26	50.40	33.16	
2025-01-11 23:33:42.46	50.45	33.19	
2025-01-11 23:33:42.67	50.50	33.23	
2025-01-11 23:33:42.87	50.55	33.26	
2025-01-11 23:33:43.08	50.61	33.29	
2025-01-11 23:33:43.28	50.66	33.32	
2025-01-11 23:33:43.49	50.71	33.35	
2025-01-11 23:33:43.69	50.76	33.39	
2025-01-11 23:33:43.90	50.82	33.42	
2025-01-11 23:33:44.10	50.87	33.45	
2025-01-11 23:33:44.31	50.93	33.48	
2025-01-11 23:33:44.51	50.98	33.51	
2025-01-11 23:33:44.72	51.03	33.55	
2025-01-11 23:33:44.92	51.09	33.58	
2025-01-11 23:33:45.13	51.14	33.61	
2025-01-11 23:33:45.33	51.19	33.64	
2025-01-11 23:33:45.54	51.25	33.67	
2025-01-11 23:33:45.74	51.30	33.71	
2025-01-11 23:33:45.95	51.36	33.74	
2025-01-11 23:33:46.15	51.41	33.77	
2025-01-11 23:33:46.36	51.47	33.80	
2025-01-11 23:33:46.56	51.52	33.83	
2025-01-11 23:33:46.77	51.57	33.87	
2025-01-11 23:33:46.97	51.63	33.90	
2025-01-11 23:33:47.18	51.68	33.93	
2025-01-11 23:33:47.38	51.74	33.96	
2025-01-11 23:33:47.59	51.79	34.00	
2025-01-11 23:33:47.79	51.85	34.03	
2025-01-11 23:33:48.00	51.91	34.06	
2025-01-11 23:33:48.22	51.96	34.09	
2025-01-11 23:33:48.42	52.02	34.13	
2025-01-11 23:33:48.62	52.07	34.16	
2025-01-11 23:33:48.83	52.13	34.19	
2025-01-11 23:33:49.04	52.19	34.22	
2025-01-11 23:33:49.24	52.24	34.25	
2025-01-11 23:33:49.45	52.30	34.29	
2025-01-11 23:33:49.65	52.35	34.32	
2025-01-11 23:33:49.86	52.41	34.35	
2025-01-11 23:33:50.06	52.47	34.38	
2025-01-11 23:33:50.27	52.53	34.42	
2025-01-11 23:33:50.47	52.58	34.45	
2025-01-11 23:33:50.68	52.64	34.48	
2025-01-11 23:33:50.88	52.69	34.51	
2025-01-11 23:33:51.09	52.75	34.54	
2025-01-11 23:33:51.29	52.81	34.58	
2025-01-11 23:33:51.50	52.87	34.61	
2025-01-11 23:33:51.70	52.92	34.64	
2025-01-11 23:33:51.91	52.98	34.67	
2025-01-11 23:33:52.11	53.04	34.70	
2025-01-11 23:33:52.32	53.10	34.74	
2025-01-11 23:33:52.52	53.15	34.77	
2025-01-11 23:33:52.73	53.21	34.80	
2025-01-11 23:33:52.94	53.27	34.83	
2025-01-11 23:33:53.14	53.33	34.87	
2025-01-11 23:33:53.35	53.39	34.90	
2025-01-11 23:33:53.55	53.44	34.93	
2025-01-11 23:33:53.76	53.50	34.96	
2025-01-11 23:33:53.96	53.56	34.99	
2025-01-11 23:33:54.17	53.62	35.03	
2025-01-11 23:33:54.38	53.68	35.06	
2025-01-11 23:33:54.58	53.74	35.09	
2025-01-11 23:33:54.78	53.80	35.12	
2025-01-11 23:33:54.99	53.86	35.16	
2025-01-11 23:33:55.19	53.92	35.19	
2025-01-11 23:33:55.40	53.98	35.22	
2025-01-11 23:33:55.60	54.03	35.25	
2025-01-11 23:33:55.81	54.10	35.28	
2025-01-11 23:33:56.01	54.15	35.32	
2025-01-11 23:33:56.22	54.21	35.35	
2025-01-11 23:33:56.43	54.28	35.38	
2025-01-11 23:33:56.63	54.33	35.41	
2025-01-11 23:33:56.84	54.40	35.45	
2025-01-11 23:33:57.04	54.46	35.48	
2025-01-11 23:33:57.25	54.52	35.51	
2025-01-11 23:33:57.45	54.58	35.54	
2025-01-11 23:33:57.66	54.64	35.57	
2025-01-11 23:33:57.86	54.70	35.61	
2025-01-11 23:33:58.07	54.76	35.64	
2025-01-11 23:33:58.27	54.82	35.67	
2025-01-11 23:33:58.48	54.88	35.70	
2025-01-11 23:33:58.68	54.94	35.73	
2025-01-11 23:33:58.89	55.00	35.77	
2025-01-11 23:33:59.09	55.06	35.80	
2025-01-11 23:33:59.30	55.13	35.83	
2025-01-11 23:33:59.51	55.19	35.86	
2025-01-11 23:33:59.71	55.25	35.90	
2025-01-11 23:33:59.92	55.31	35.93	
2025-01-11 23:34:00.12	55.37	35.96	
2025-01-11 23:34:00.32	55.44	35.99	
2025-01-11 23:34:00.53	55.50	36.02	
2025-01-11 23:34:00.74	55.56	36.06	
2025-01-11 23:34:00.94	55.62	36.09	
2025-01-11 23:34:01.15	55.69	36.12	
2025-01-11 23:34:01.35	55.75	36.15	
2025-01-11 23:34:01.56	55.81	36.19	
2025-01-11 23:34:01.77	55.88	36.22	
2025-01-11 23:34:01.97	55.94	36.25	
2025-01-11 23:34:02.17	56.00	36.28	
2025-01-11 23:34:02.38	56.07	36.31	
2025-01-11 23:34:02.59	56.13	36.35	
2025-01-11 23:34:02.79	56.19	36.38	
2025-01-11 23:34:03.00	56.26	36.41	
2025-01-11 23:34:03.20	56.32	36.44	
2025-01-11 23:34:03.41	56.39	36.47	
2025-01-11 23:34:03.61	56.45	36.51	
2025-01-11 23:34:03.82	56.52	36.54	
2025-01-11 23:34:04.02	56.58	36.57	
2025-01-11 23:34:04.23	56.64	36.60	
2025-01-11 23:34:04.43	56.71	36.63	
2025-01-11 23:34:04.63	56.77	36.67	
2025-01-11 23:34:04.84	56.84	36.70	
2025-01-11 23:34:05.05	56.90	36.73	
2025-01-11 23:34:05.25	56.97	36.76	
2025-01-11 23:34:05.45	57.03	36.79	
2025-01-11 23:34:05.66	57.10	36.83	
2025-01-11 23:34:05.87	57.17	36.86	
2025-01-11 23:34:06.07	57.23	36.89	
2025-01-11 23:34:06.28	57.30	36.92	
2025-01-11 23:34:06.48	57.36	36.95	
2025-01-11 23:34:06.69	57.43	36.99	
2025-01-11 23:34:06.89	57.49	37.02	
2025-01-11 23:34:07.10	57.56	37.05	
2025-01-11 23:34:07.31	57.63	37.08	
2025-01-11 23:34:07.51	57.69	37.11	
2025-01-11 23:34:07.71	57.76	37.14	
2025-01-11 23:34:07.92	57.83	37.18	
2025-01-11 23:34:08.12	57.89	37.21	
2025-01-11 23:34:08.33	57.96	37.24	
2025-01-11 23:34:08.53	58.03	37.27	
2025-01-11 23:34:08.74	58.10	37.30	
2025-01-11 23:34:08.94	58.16	37.34	
2025-01-11 23:34:09.15	58.23	37.37	
2025-01-11 23:34:09.36	58.30	37.40	
2025-01-11 23:34:09.56	58.37	37.43	
2025-01-11 23:34:09.76	58.43	37.46	
2025-01-11 23:34:09.97	58.50	37.49	
2025-01-11 23:34:10.18	58.57	37.53	
2025-01-11 23:34:10.38	58.64	37.56	
2025-01-11 23:34:10.58	58.71	37.59	
2025-01-11 23:34:10.79	58.78	37.62	
2025-01-11 23:34:11.00	58.85	37.65	
2025-01-11 23:34:11.20	58.91	37.68	
2025-01-11 23:34:11.41	58.99	37.72	
2025-01-11 23:34:11.61	59.05	37.75	
2025-01-11 23:34:11.82	59.12	37.78	
2025-01-11 23:34:12.02	59.19	37.81	
2025-01-11 23:34:12.23	59.26	37.84	
2025-01-11 23:34:12.43	59.33	37.87	
2025-01-11 23:34:12.64	59.40	37.91	
2025-01-11 23:34:12.84	59.47	37.94	
2025-01-11 23:34:13.05	59.54	37.97	
2025-01-11 23:34:13.25	59.61	38.00	
2025-01-11 23:34:13.46	59.68	38.03	
2025-01-11 23:34:13.66	59.75	38.06	
2025-01-11 23:34:13.87	59.82	38.09	
2025-01-11 23:34:14.07	59.89	38.12	
2025-01-11 23:34:14.28	59.97	38.16	
2025-01-11 23:34:14.48	60.03	38.19	
2025-01-11 23:34:14.69	60.11	38.22	
2025-01-11 23:34:14.89	60.18	38.25	
2025-01-11 23:34:15.10	60.25	38.28	
2025-01-11 23:34:15.30	60.32	38.31	
2025-01-11 23:34:15.51	60.39	38.34	
2025-01-11 23:34:15.72	60.47	38.38	
2025-01-11 23:34:15.92	60.54	38.41	
2025-01-11 23:34:16.13	60.61	38.44	
2025-01-11 23:34:16.33	60.68	38.47	
2025-01-11 23:34:16.54	60.76	38.50	
2025-01-11 23:34:16.74	60.83	38.53	
2025-01-11 23:34:16.95	60.90	38.56	
2025-01-11 23:34:17.15	60.97	38.59	
2025-01-11 23:34:17.36	61.05	38.63	
2025-01-11 23:34:17.56	61.12	38.66	
2025-01-11 23:34:17.77	61.19	38.69	
2025-01-11 23:34:17.97	61.26	38.72	
2025-01-11 23:34:18.18	61.34	38.75	
2025-01-11 23:34:18.38	61.41	38.78	
2025-01-11 23:34:18.59	61.49	38.81	
2025-01-11 23:34:18.79	61.56	38.84	
2025-01-11 23:34:19.00	61.64	38.87	
2025-01-11 23:34:19.20	61.71	38.90	
2025-01-11 23:34:19.41	61.78	38.93	
2025-01-11 23:34:19.61	61.86	38.96	
2025-01-11 23:34:19.82	61.93	39.00	
2025-01-11 23:34:20.03	62.01	39.03	
2025-01-11 23:34:20.23	62.08	39.06	
2025-01-11 23:34:20.43	62.16	39.09	
2025-01-11 23:34:20.64	62.23	39.12	
2025-01-11 23:34:20.84	62.31	39.15	
2025-01-11 23:34:21.05	62.38	39.18	
2025-01-11 23:34:21.25	62.46	39.21	
2025-01-11 23:34:21.46	62.53	39.24	
2025-01-11 23:34:21.66	62.61	39.27	
2025-01-11 23:34:21.87	62.69	39.30	
2025-01-11 23:34:22.08	62.76	39.33	
2025-01-11 23:34:22.28	62.84	39.36	
2025-01-11 23:34:22.50	62.92	39.40	
2025-01-11 23:34:22.71	63.00	39.43	
2025-01-11 23:34:22.91	63.07	39.46	
2025-01-11 23:34:23.12	63.15	39.49	
2025-01-11 23:34:23.32	63.23	39.52	
2025-01-11 23:34:23.53	63.31	39.55	
2025-01-11 23:34:23.73	63.38	39.58	
2025-01-11 23:34:23.94	63.46	39.61	
2025-01-11 23:34:24.14	63.54	39.64	
2025-01-11 23:34:24.35	63.62	39.67	
2025-01-11 23:34:24.55	63.69	39.70	
2025-01-11 23:34:24.76	63.77	39.73	
2025-01-11 23:34:24.96	63.85	39.76	
2025-01-11 23:34:25.17	63.93	39.79	
2025-01-11 23:34:25.37	64.01	39.82	
2025-01-11 23:34:25.57	64.08	39.85	
2025-01-11 23:34:25.78	64.16	39.88	
2025-01-11 23:34:25.99	64.24	39.91	
2025-01-11 23:34:26.19	64.32	39.94	
2025-01-11 23:34:26.40	64.40	39.97	
2025-01-11 23:34:26.60	64.48	40.00	
2025-01-11 23:34:26.80	64.56	40.03	
2025-01-11 23:34:27.01	64.64	40.06	
2025-01-11 23:34:27.22	64.72	40.09	
2025-01-11 23:34:27.42	64.80	40.12	
2025-01-11 23:34:27.62	64.88	40.14	
2025-01-11 23:34:27.83	64.96	40.17	
2025-01-11 23:34:28.03	65.04	40.20	
2025-01-11 23:34:28.24	65.12	40.23	
2025-01-11 23:34:28.44	65.20	40.26	
2025-01-11 23:34:28.65	65.28	40.29	
2025-01-11 23:34:28.87	65.37	40.32	
2025-01-11 23:34:29.07	65.45	40.35	
2025-01-11 23:34:29.28	65.53	40.38	
2025-01-11 23:34:29.48	65.61	40.41	
2025-01-11 23:34:29.69	65.69	40.44	
2025-01-11 23:34:29.89	65.77	40.47	
2025-01-11 23:34:30.10	65.86	40.50	
2025-01-11 23:34:30.30	65.94	40.53	
2025-01-11 23:34:30.51	66.02	40.56	
2025-01-11 23:34:30.71	66.10	40.59	
2025-01-11 23:34:30.92	66.18	40.61	
2025-01-11 23:34:31.12	66.26	40.64	
2025-01-11 23:34:31.32	66.35	40.67	
2025-01-11 23:34:31.53	66.43	40.70	
2025-01-11 23:34:31.74	66.52	40.73	
2025-01-11 23:34:31.94	66.60	40.76	
2025-01-11 23:34:32.15	66.68	40.79	
2025-01-11 23:34:32.35	66.76	40.82	
2025-01-11 23:34:32.56	66.85	40.84	
2025-01-11 23:34:32.76	66.93	40.87	
2025-01-11 23:34:32.96	67.01	40.90	
2025-01-11 23:34:33.17	67.10	40.93	
2025-01-11 23:34:33.38	67.18	40.96	
2025-01-11 23:34:33.58	67.27	40.99	
2025-01-11 23:34:33.79	67.35	41.02	
2025-01-11 23:34:33.99	67.43	41.04	
2025-01-11 23:34:34.19	67.52	41.07	
2025-01-11 23:34:34.40	67.60	41.10	
2025-01-11 23:34:34.60	67.69	41.13	
2025-01-11 23:34:34.81	67.77	41.16	
2025-01-11 23:34:35.02	67.86	41.18	
2025-01-11 23:34:35.24	67.95	41.21	
2025-01-11 23:34:35.45	68.04	41.24	
2025-01-11 23:34:35.65	68.12	41.27	
2025-01-11 23:34:35.85	68.21	41.30	
2025-01-11 23:34:36.06	68.30	41.33	
2025-01-11 23:34:36.27	68.38	41.35	
2025-01-11 23:34:36.47	68.47	41.38	
2025-01-11 23:34:36.68	68.56	41.41	
2025-01-11 23:34:36.89	68.65	41.44	
2025-01-11 23:34:37.09	68.73	41.47	
2025-01-11 23:34:37.31	68.82	41.49	
2025-01-11 23:34:37.51	68.91	41.52	
2025-01-11 23:34:37.72	69.00	41.55	
2025-01-11 23:34:37.92	69.08	41.58	
2025-01-11 23:34:38.13	69.17	41.60	
2025-01-11 23:34:38.33	69.26	41.63	
2025-01-11 23:34:38.54	69.35	41.66	
2025-01-11 23:34:38.75	69.44	41.69	
2025-01-11 23:34:38.95	69.52	41.71	
2025-01-11 23:34:39.15	69.61	41.74	
2025-01-11 23:34:39.36	69.70	41.77	
2025-01-11 23:34:39.56	69.79	41.79	
2025-01-11 23:34:39.77	69.88	41.82	
2025-01-11 23:34:39.97	69.97	41.85	
2025-01-11 23:34:40.18	70.06	41.87	
2025-01-11 23:34:40.38	70.14	41.90	
2025-01-11 23:34:40.59	70.23	41.93	
2025-01-11 23:34:40.79	70.32	41.95	
2025-01-11 23:34:41.00	70.41	41.98	
2025-01-11 23:34:41.20	70.50	42.01	
2025-01-11 23:34:41.41	70.59	42.03	
2025-01-11 23:34:41.61	70.68	42.06	
2025-01-11 23:34:41.82	70.77	42.09	
2025-01-11 23:34:42.02	70.86	42.11	
2025-01-11 23:34:42.23	70.95	42.14	
2025-01-11 23:34:42.43	71.04	42.16	
2025-01-11 23:34:42.64	71.14	42.19	
2025-01-11 23:34:42.84	71.22	42.22	
2025-01-11 23:34:43.05	71.32	42.24	
2025-01-11 23:34:43.26	71.41	42.27	
2025-01-11 23:34:43.46	71.50	42.29	
2025-01-11 23:34:43.66	71.59	42.32	
2025-01-11 23:34:43.87	71.68	42.35	
2025-01-11 23:34:44.07	71.77	42.37	
2025-01-11 23:34:44.28	71.87	42.40	
2025-01-11 23:34:44.48	71.96	42.42	
2025-01-11 23:34:44.69	72.05	42.45	
2025-01-11 23:34:44.89	72.14	42.47	
2025-01-11 23:34:45.10	72.24	42.50	
