passes_logs/2025/01/11/SPB_Silybum_02/SPB_Silybum_02__20250111_181306_TERRA_rec.log

#Pass ID: 20250111_181306_TERRA
#Satellite: TERRA
#Configuration: TERRA
#Start time: 2025-01-11 18:13:06

#Version: 2.0.20230423
#Station: SPB_Silybum_02
#Location: 30.233357 lon 59.946436 lat
#TLE: 1 25994U 99068A   25010.80464720  .00000833  00000+0  18136-3 0  9995
#TLE: 2 25994  98.0224  73.9683 0003536  80.9361 344.1935 14.60387279333461

#Time	Az	El	Level	Level2	SNR	BER	Gain	Gain2
2025-01-11 18:13:08.54	151.80	4.19	
2025-01-11 18:13:08.74	151.80	4.20	
2025-01-11 18:13:08.95	151.79	4.22	
2025-01-11 18:13:09.17	151.79	4.23	
2025-01-11 18:13:09.37	151.79	4.25	
2025-01-11 18:13:09.58	151.78	4.26	
2025-01-11 18:13:09.78	151.78	4.28	
2025-01-11 18:13:09.99	151.78	4.29	
2025-01-11 18:13:10.19	151.78	4.31	
2025-01-11 18:13:10.40	151.77	4.32	
2025-01-11 18:13:10.60	151.77	4.34	
2025-01-11 18:13:10.81	151.77	4.35	
2025-01-11 18:13:11.02	151.77	4.37	
2025-01-11 18:13:11.22	151.76	4.38	
2025-01-11 18:13:11.43	151.76	4.40	
2025-01-11 18:13:11.63	151.76	4.41	
2025-01-11 18:13:11.84	151.75	4.43	
2025-01-11 18:13:12.04	151.75	4.44	
2025-01-11 18:13:12.25	151.75	4.46	
2025-01-11 18:13:12.45	151.75	4.47	
2025-01-11 18:13:12.66	151.74	4.49	
2025-01-11 18:13:12.86	151.74	4.50	
2025-01-11 18:13:13.07	151.74	4.52	
2025-01-11 18:13:13.27	151.74	4.53	
2025-01-11 18:13:13.48	151.73	4.55	
2025-01-11 18:13:13.68	151.73	4.56	
2025-01-11 18:13:13.89	151.73	4.58	
2025-01-11 18:13:14.10	151.72	4.59	
2025-01-11 18:13:14.30	151.72	4.61	
2025-01-11 18:13:14.51	151.72	4.62	
2025-01-11 18:13:14.71	151.72	4.64	
2025-01-11 18:13:14.92	151.71	4.65	
2025-01-11 18:13:15.12	151.71	4.67	
2025-01-11 18:13:15.33	151.71	4.68	
2025-01-11 18:13:15.53	151.70	4.70	
2025-01-11 18:13:15.74	151.70	4.71	
2025-01-11 18:13:15.94	151.70	4.73	
2025-01-11 18:13:16.15	151.70	4.75	
2025-01-11 18:13:16.36	151.69	4.76	
2025-01-11 18:13:16.56	151.69	4.78	
2025-01-11 18:13:16.76	151.69	4.79	
2025-01-11 18:13:16.97	151.68	4.81	
2025-01-11 18:13:17.18	151.68	4.82	
2025-01-11 18:13:17.38	151.68	4.84	
2025-01-11 18:13:17.59	151.68	4.85	
2025-01-11 18:13:17.79	151.67	4.87	
2025-01-11 18:13:18.00	151.67	4.88	
2025-01-11 18:13:18.20	151.67	4.90	
2025-01-11 18:13:18.40	151.66	4.91	
2025-01-11 18:13:18.61	151.66	4.93	
2025-01-11 18:13:18.83	151.66	4.94	
2025-01-11 18:13:19.03	151.65	4.96	
2025-01-11 18:13:19.24	151.65	4.98	
2025-01-11 18:13:19.45	151.65	4.99	
2025-01-11 18:13:19.65	151.65	5.01	
2025-01-11 18:13:19.87	151.64	5.02	
2025-01-11 18:13:20.07	151.64	5.04	
2025-01-11 18:13:20.28	151.64	5.05	
2025-01-11 18:13:20.48	151.63	5.07	
2025-01-11 18:13:20.69	151.63	5.08	
2025-01-11 18:13:20.89	151.63	5.10	
2025-01-11 18:13:21.10	151.63	5.11	
2025-01-11 18:13:21.30	151.62	5.13	
2025-01-11 18:13:21.51	151.62	5.15	
2025-01-11 18:13:21.71	151.62	5.16	
2025-01-11 18:13:21.92	151.61	5.18	
2025-01-11 18:13:22.12	151.61	5.19	
2025-01-11 18:13:22.33	151.61	5.21	
2025-01-11 18:13:22.53	151.60	5.22	
2025-01-11 18:13:22.74	151.60	5.24	
2025-01-11 18:13:22.94	151.60	5.25	
2025-01-11 18:13:23.15	151.60	5.27	
2025-01-11 18:13:23.36	151.59	5.29	
2025-01-11 18:13:23.56	151.59	5.30	
2025-01-11 18:13:23.77	151.59	5.32	
2025-01-11 18:13:23.98	151.58	5.33	
2025-01-11 18:13:24.19	151.58	5.35	
2025-01-11 18:13:24.40	151.58	5.36	
2025-01-11 18:13:24.60	151.57	5.38	
2025-01-11 18:13:24.81	151.57	5.40	
2025-01-11 18:13:25.02	151.57	5.41	
2025-01-11 18:13:25.22	151.57	5.43	
2025-01-11 18:13:25.42	151.56	5.44	
2025-01-11 18:13:25.63	151.56	5.46	
2025-01-11 18:13:25.83	151.56	5.47	
2025-01-11 18:13:26.04	151.55	5.49	
2025-01-11 18:13:26.25	151.55	5.51	
2025-01-11 18:13:26.45	151.55	5.52	
2025-01-11 18:13:26.65	151.54	5.54	
2025-01-11 18:13:26.86	151.54	5.55	
2025-01-11 18:13:27.06	151.54	5.57	
2025-01-11 18:13:27.27	151.53	5.58	
2025-01-11 18:13:27.47	151.53	5.60	
2025-01-11 18:13:27.68	151.53	5.62	
2025-01-11 18:13:27.88	151.53	5.63	
2025-01-11 18:13:28.09	151.52	5.65	
2025-01-11 18:13:28.29	151.52	5.66	
2025-01-11 18:13:28.50	151.52	5.68	
2025-01-11 18:13:28.70	151.51	5.69	
2025-01-11 18:13:28.91	151.51	5.71	
2025-01-11 18:13:29.11	151.51	5.73	
2025-01-11 18:13:29.31	151.50	5.74	
2025-01-11 18:13:29.52	151.50	5.76	
2025-01-11 18:13:29.73	151.50	5.77	
2025-01-11 18:13:29.93	151.49	5.79	
2025-01-11 18:13:30.14	151.49	5.80	
2025-01-11 18:13:30.34	151.49	5.82	
2025-01-11 18:13:30.56	151.48	5.84	
2025-01-11 18:13:30.76	151.48	5.85	
2025-01-11 18:13:30.97	151.48	5.87	
2025-01-11 18:13:31.17	151.48	5.88	
2025-01-11 18:13:31.38	151.47	5.90	
2025-01-11 18:13:31.58	151.47	5.92	
2025-01-11 18:13:31.79	151.47	5.93	
2025-01-11 18:13:31.99	151.46	5.95	
2025-01-11 18:13:32.20	151.46	5.96	
2025-01-11 18:13:32.40	151.46	5.98	
2025-01-11 18:13:32.60	151.45	6.00	
2025-01-11 18:13:32.81	151.45	6.01	
2025-01-11 18:13:33.01	151.45	6.03	
2025-01-11 18:13:33.22	151.44	6.04	
2025-01-11 18:13:33.42	151.44	6.06	
2025-01-11 18:13:33.63	151.44	6.08	
2025-01-11 18:13:33.83	151.43	6.09	
2025-01-11 18:13:34.04	151.43	6.11	
2025-01-11 18:13:34.24	151.43	6.12	
2025-01-11 18:13:34.45	151.42	6.14	
2025-01-11 18:13:34.66	151.42	6.16	
2025-01-11 18:13:34.86	151.42	6.17	
2025-01-11 18:13:35.07	151.41	6.19	
2025-01-11 18:13:35.27	151.41	6.21	
2025-01-11 18:13:35.48	151.41	6.22	
2025-01-11 18:13:35.68	151.40	6.24	
2025-01-11 18:13:35.89	151.40	6.25	
2025-01-11 18:13:36.09	151.40	6.27	
2025-01-11 18:13:36.30	151.40	6.29	
2025-01-11 18:13:36.50	151.39	6.30	
2025-01-11 18:13:36.71	151.39	6.32	
2025-01-11 18:13:36.91	151.39	6.34	
2025-01-11 18:13:37.12	151.38	6.35	
2025-01-11 18:13:37.32	151.38	6.37	
2025-01-11 18:13:37.53	151.38	6.38	
2025-01-11 18:13:37.73	151.37	6.40	
2025-01-11 18:13:37.94	151.37	6.42	
2025-01-11 18:13:38.14	151.37	6.43	
2025-01-11 18:13:38.35	151.36	6.45	
2025-01-11 18:13:38.55	151.36	6.47	
2025-01-11 18:13:38.76	151.36	6.48	
2025-01-11 18:13:38.96	151.35	6.50	
2025-01-11 18:13:39.17	151.35	6.51	
2025-01-11 18:13:39.37	151.35	6.53	
2025-01-11 18:13:39.58	151.34	6.55	
2025-01-11 18:13:39.78	151.34	6.56	
2025-01-11 18:13:39.99	151.34	6.58	
2025-01-11 18:13:40.19	151.33	6.60	
2025-01-11 18:13:40.39	151.33	6.61	
2025-01-11 18:13:40.60	151.33	6.63	
2025-01-11 18:13:40.81	151.32	6.65	
2025-01-11 18:13:41.01	151.32	6.66	
2025-01-11 18:13:41.23	151.32	6.68	
2025-01-11 18:13:41.43	151.31	6.70	
2025-01-11 18:13:41.64	151.31	6.71	
2025-01-11 18:13:41.84	151.30	6.73	
2025-01-11 18:13:42.05	151.30	6.75	
2025-01-11 18:13:42.25	151.30	6.76	
2025-01-11 18:13:42.46	151.29	6.78	
2025-01-11 18:13:42.67	151.29	6.80	
2025-01-11 18:13:42.87	151.29	6.81	
2025-01-11 18:13:43.07	151.28	6.83	
2025-01-11 18:13:43.28	151.28	6.85	
2025-01-11 18:13:43.48	151.28	6.86	
2025-01-11 18:13:43.69	151.27	6.88	
2025-01-11 18:13:43.89	151.27	6.89	
2025-01-11 18:13:44.10	151.27	6.91	
2025-01-11 18:13:44.30	151.26	6.93	
2025-01-11 18:13:44.51	151.26	6.95	
2025-01-11 18:13:44.71	151.26	6.96	
2025-01-11 18:13:44.92	151.25	6.98	
2025-01-11 18:13:45.12	151.25	6.99	
2025-01-11 18:13:45.33	151.25	7.01	
2025-01-11 18:13:45.53	151.24	7.03	
2025-01-11 18:13:45.74	151.24	7.05	
2025-01-11 18:13:45.94	151.24	7.06	
2025-01-11 18:13:46.15	151.23	7.08	
2025-01-11 18:13:46.35	151.23	7.10	
2025-01-11 18:13:46.55	151.23	7.11	
2025-01-11 18:13:46.76	151.22	7.13	
2025-01-11 18:13:46.97	151.22	7.15	
2025-01-11 18:13:47.17	151.21	7.16	
2025-01-11 18:13:47.38	151.21	7.18	
2025-01-11 18:13:47.58	151.21	7.20	
2025-01-11 18:13:47.79	151.20	7.21	
2025-01-11 18:13:47.99	151.20	7.23	
2025-01-11 18:13:48.20	151.20	7.25	
2025-01-11 18:13:48.40	151.19	7.26	
2025-01-11 18:13:48.62	151.19	7.28	
2025-01-11 18:13:48.82	151.19	7.30	
2025-01-11 18:13:49.03	151.18	7.32	
2025-01-11 18:13:49.24	151.18	7.33	
2025-01-11 18:13:49.44	151.18	7.35	
2025-01-11 18:13:49.65	151.17	7.37	
2025-01-11 18:13:49.85	151.17	7.38	
2025-01-11 18:13:50.06	151.16	7.40	
2025-01-11 18:13:50.27	151.16	7.42	
2025-01-11 18:13:50.47	151.16	7.44	
2025-01-11 18:13:50.68	151.15	7.45	
2025-01-11 18:13:50.88	151.15	7.47	
2025-01-11 18:13:51.09	151.15	7.49	
2025-01-11 18:13:51.29	151.14	7.50	
2025-01-11 18:13:51.50	151.14	7.52	
2025-01-11 18:13:51.70	151.14	7.54	
2025-01-11 18:13:51.90	151.13	7.55	
2025-01-11 18:13:52.11	151.13	7.57	
2025-01-11 18:13:52.32	151.12	7.59	
2025-01-11 18:13:52.52	151.12	7.61	
2025-01-11 18:13:52.73	151.12	7.62	
2025-01-11 18:13:52.93	151.11	7.64	
2025-01-11 18:13:53.13	151.11	7.66	
2025-01-11 18:13:53.34	151.11	7.67	
2025-01-11 18:13:53.55	151.10	7.69	
2025-01-11 18:13:53.75	151.10	7.71	
2025-01-11 18:13:53.95	151.10	7.73	
2025-01-11 18:13:54.16	151.09	7.74	
2025-01-11 18:13:54.37	151.09	7.76	
2025-01-11 18:13:54.57	151.08	7.78	
2025-01-11 18:13:54.78	151.08	7.80	
2025-01-11 18:13:54.98	151.08	7.81	
2025-01-11 18:13:55.19	151.07	7.83	
2025-01-11 18:13:55.39	151.07	7.85	
2025-01-11 18:13:55.60	151.07	7.87	
2025-01-11 18:13:55.80	151.06	7.88	
2025-01-11 18:13:56.01	151.06	7.90	
2025-01-11 18:13:56.21	151.05	7.92	
2025-01-11 18:13:56.41	151.05	7.93	
2025-01-11 18:13:56.62	151.05	7.95	
2025-01-11 18:13:56.83	151.04	7.97	
2025-01-11 18:13:57.03	151.04	7.99	
2025-01-11 18:13:57.23	151.04	8.00	
2025-01-11 18:13:57.44	151.03	8.02	
2025-01-11 18:13:57.64	151.03	8.04	
2025-01-11 18:13:57.85	151.02	8.06	
2025-01-11 18:13:58.05	151.02	8.07	
2025-01-11 18:13:58.25	151.02	8.09	
2025-01-11 18:13:58.46	151.01	8.11	
2025-01-11 18:13:58.67	151.01	8.13	
2025-01-11 18:13:58.87	151.00	8.14	
2025-01-11 18:13:59.08	151.00	8.16	
2025-01-11 18:13:59.28	151.00	8.18	
2025-01-11 18:13:59.49	150.99	8.20	
2025-01-11 18:13:59.69	150.99	8.21	
2025-01-11 18:13:59.90	150.99	8.23	
2025-01-11 18:14:00.10	150.98	8.25	
2025-01-11 18:14:00.30	150.98	8.27	
2025-01-11 18:14:00.51	150.97	8.28	
2025-01-11 18:14:00.71	150.97	8.30	
2025-01-11 18:14:00.92	150.97	8.32	
2025-01-11 18:14:01.12	150.96	8.34	
2025-01-11 18:14:01.33	150.96	8.36	
2025-01-11 18:14:01.53	150.95	8.37	
2025-01-11 18:14:01.74	150.95	8.39	
2025-01-11 18:14:01.94	150.95	8.41	
2025-01-11 18:14:02.15	150.94	8.43	
2025-01-11 18:14:02.36	150.94	8.44	
2025-01-11 18:14:02.56	150.93	8.46	
2025-01-11 18:14:02.77	150.93	8.48	
2025-01-11 18:14:02.97	150.93	8.50	
2025-01-11 18:14:03.18	150.92	8.52	
2025-01-11 18:14:03.38	150.92	8.53	
2025-01-11 18:14:03.59	150.91	8.55	
2025-01-11 18:14:03.79	150.91	8.57	
2025-01-11 18:14:04.00	150.91	8.59	
2025-01-11 18:14:04.20	150.90	8.60	
2025-01-11 18:14:04.40	150.90	8.62	
2025-01-11 18:14:04.61	150.89	8.64	
2025-01-11 18:14:04.81	150.89	8.66	
2025-01-11 18:14:05.02	150.89	8.68	
2025-01-11 18:14:05.23	150.88	8.70	
2025-01-11 18:14:05.43	150.88	8.71	
2025-01-11 18:14:05.64	150.87	8.73	
2025-01-11 18:14:05.84	150.87	8.75	
2025-01-11 18:14:06.05	150.87	8.77	
2025-01-11 18:14:06.25	150.86	8.78	
2025-01-11 18:14:06.46	150.86	8.80	
2025-01-11 18:14:06.67	150.85	8.82	
2025-01-11 18:14:06.87	150.85	8.84	
2025-01-11 18:14:07.08	150.85	8.86	
2025-01-11 18:14:07.28	150.84	8.88	
2025-01-11 18:14:07.49	150.84	8.89	
2025-01-11 18:14:07.69	150.83	8.91	
2025-01-11 18:14:07.89	150.83	8.93	
2025-01-11 18:14:08.10	150.83	8.95	
2025-01-11 18:14:08.30	150.82	8.97	
2025-01-11 18:14:08.51	150.82	8.98	
2025-01-11 18:14:08.72	150.81	9.00	
2025-01-11 18:14:08.92	150.81	9.02	
2025-01-11 18:14:09.12	150.81	9.04	
2025-01-11 18:14:09.33	150.80	9.06	
2025-01-11 18:14:09.54	150.80	9.08	
2025-01-11 18:14:09.74	150.79	9.09	
2025-01-11 18:14:09.95	150.79	9.11	
2025-01-11 18:14:10.15	150.78	9.13	
2025-01-11 18:14:10.36	150.78	9.15	
2025-01-11 18:14:10.56	150.78	9.17	
2025-01-11 18:14:10.77	150.77	9.19	
2025-01-11 18:14:10.97	150.77	9.20	
2025-01-11 18:14:11.17	150.76	9.22	
2025-01-11 18:14:11.38	150.76	9.24	
2025-01-11 18:14:11.59	150.75	9.26	
2025-01-11 18:14:11.79	150.75	9.28	
2025-01-11 18:14:12.00	150.75	9.30	
2025-01-11 18:14:12.20	150.74	9.32	
2025-01-11 18:14:12.41	150.74	9.33	
2025-01-11 18:14:12.61	150.73	9.35	
2025-01-11 18:14:12.82	150.73	9.37	
2025-01-11 18:14:13.03	150.72	9.39	
2025-01-11 18:14:13.23	150.72	9.41	
2025-01-11 18:14:13.43	150.72	9.43	
2025-01-11 18:14:13.64	150.71	9.45	
2025-01-11 18:14:13.84	150.71	9.46	
2025-01-11 18:14:14.05	150.70	9.48	
2025-01-11 18:14:14.25	150.70	9.50	
2025-01-11 18:14:14.46	150.69	9.52	
2025-01-11 18:14:14.66	150.69	9.54	
2025-01-11 18:14:14.87	150.69	9.56	
2025-01-11 18:14:15.07	150.68	9.58	
2025-01-11 18:14:15.28	150.68	9.59	
2025-01-11 18:14:15.48	150.67	9.61	
2025-01-11 18:14:15.69	150.67	9.63	
2025-01-11 18:14:15.89	150.66	9.65	
2025-01-11 18:14:16.10	150.66	9.67	
2025-01-11 18:14:16.30	150.66	9.69	
2025-01-11 18:14:16.51	150.65	9.71	
2025-01-11 18:14:16.72	150.65	9.73	
2025-01-11 18:14:16.92	150.64	9.74	
2025-01-11 18:14:17.13	150.64	9.76	
2025-01-11 18:14:17.33	150.63	9.78	
2025-01-11 18:14:17.55	150.63	9.80	
2025-01-11 18:14:17.76	150.62	9.82	
2025-01-11 18:14:17.96	150.62	9.84	
2025-01-11 18:14:18.17	150.62	9.86	
2025-01-11 18:14:18.38	150.61	9.88	
2025-01-11 18:14:18.58	150.61	9.90	
2025-01-11 18:14:18.78	150.60	9.92	
2025-01-11 18:14:19.00	150.60	9.94	
2025-01-11 18:14:19.20	150.59	9.96	
2025-01-11 18:14:19.41	150.59	9.98	
2025-01-11 18:14:19.61	150.58	9.99	
2025-01-11 18:14:19.82	150.58	10.01	
2025-01-11 18:14:20.02	150.58	10.03	
2025-01-11 18:14:20.23	150.57	10.05	
2025-01-11 18:14:20.44	150.57	10.07	
2025-01-11 18:14:20.64	150.56	10.09	
2025-01-11 18:14:20.85	150.56	10.11	
2025-01-11 18:14:21.05	150.55	10.13	
2025-01-11 18:14:21.26	150.55	10.15	
2025-01-11 18:14:21.46	150.54	10.17	
2025-01-11 18:14:21.67	150.54	10.19	
2025-01-11 18:14:21.87	150.53	10.20	
2025-01-11 18:14:22.08	150.53	10.22	
2025-01-11 18:14:22.28	150.53	10.24	
2025-01-11 18:14:22.49	150.52	10.26	
2025-01-11 18:14:22.70	150.52	10.28	
2025-01-11 18:14:22.90	150.51	10.30	
2025-01-11 18:14:23.10	150.51	10.32	
2025-01-11 18:14:23.31	150.50	10.34	
2025-01-11 18:14:23.51	150.50	10.36	
2025-01-11 18:14:23.72	150.49	10.38	
2025-01-11 18:14:23.92	150.49	10.40	
2025-01-11 18:14:24.13	150.48	10.42	
2025-01-11 18:14:24.33	150.48	10.44	
2025-01-11 18:14:24.54	150.47	10.46	
2025-01-11 18:14:24.74	150.47	10.48	
2025-01-11 18:14:24.94	150.46	10.49	
2025-01-11 18:14:25.15	150.46	10.51	
2025-01-11 18:14:25.36	150.46	10.53	
2025-01-11 18:14:25.56	150.45	10.55	
2025-01-11 18:14:25.77	150.45	10.57	
2025-01-11 18:14:25.97	150.44	10.59	
2025-01-11 18:14:26.18	150.44	10.61	
2025-01-11 18:14:26.38	150.43	10.63	
2025-01-11 18:14:26.59	150.43	10.65	
2025-01-11 18:14:26.79	150.42	10.67	
2025-01-11 18:14:27.00	150.42	10.69	
2025-01-11 18:14:27.20	150.41	10.71	
2025-01-11 18:14:27.41	150.41	10.73	
2025-01-11 18:14:27.61	150.40	10.75	
2025-01-11 18:14:27.82	150.40	10.77	
2025-01-11 18:14:28.02	150.39	10.79	
2025-01-11 18:14:28.23	150.39	10.81	
2025-01-11 18:14:28.43	150.38	10.83	
2025-01-11 18:14:28.64	150.38	10.85	
2025-01-11 18:14:28.84	150.37	10.87	
2025-01-11 18:14:29.05	150.37	10.89	
2025-01-11 18:14:29.25	150.36	10.91	
2025-01-11 18:14:29.47	150.36	10.93	
2025-01-11 18:14:29.68	150.35	10.95	
2025-01-11 18:14:29.88	150.35	10.97	
2025-01-11 18:14:30.09	150.34	10.99	
2025-01-11 18:14:30.30	150.34	11.01	
2025-01-11 18:14:30.51	150.33	11.03	
2025-01-11 18:14:30.72	150.33	11.05	
2025-01-11 18:14:30.92	150.33	11.07	
2025-01-11 18:14:31.13	150.32	11.09	
2025-01-11 18:14:31.33	150.32	11.11	
2025-01-11 18:14:31.53	150.31	11.13	
2025-01-11 18:14:31.74	150.31	11.15	
2025-01-11 18:14:31.95	150.30	11.17	
2025-01-11 18:14:32.15	150.30	11.19	
2025-01-11 18:14:32.36	150.29	11.21	
2025-01-11 18:14:32.56	150.29	11.23	
2025-01-11 18:14:32.77	150.28	11.25	
2025-01-11 18:14:32.97	150.28	11.27	
2025-01-11 18:14:33.18	150.27	11.29	
2025-01-11 18:14:33.38	150.27	11.31	
2025-01-11 18:14:33.59	150.26	11.33	
2025-01-11 18:14:33.79	150.26	11.35	
2025-01-11 18:14:34.00	150.25	11.37	
2025-01-11 18:14:34.20	150.25	11.39	
2025-01-11 18:14:34.41	150.24	11.41	
2025-01-11 18:14:34.61	150.24	11.43	
2025-01-11 18:14:34.82	150.23	11.45	
2025-01-11 18:14:35.02	150.23	11.47	
2025-01-11 18:14:35.23	150.22	11.49	
2025-01-11 18:14:35.43	150.22	11.51	
2025-01-11 18:14:35.64	150.21	11.54	
2025-01-11 18:14:35.84	150.20	11.56	
2025-01-11 18:14:36.05	150.20	11.58	
2025-01-11 18:14:36.25	150.19	11.60	
2025-01-11 18:14:36.46	150.19	11.62	
2025-01-11 18:14:36.67	150.18	11.64	
2025-01-11 18:14:36.87	150.18	11.66	
2025-01-11 18:14:37.08	150.17	11.68	
2025-01-11 18:14:37.28	150.17	11.70	
2025-01-11 18:14:37.49	150.16	11.72	
2025-01-11 18:14:37.69	150.16	11.74	
2025-01-11 18:14:37.89	150.15	11.76	
2025-01-11 18:14:38.10	150.15	11.78	
2025-01-11 18:14:38.31	150.14	11.80	
2025-01-11 18:14:38.51	150.14	11.82	
2025-01-11 18:14:38.72	150.13	11.84	
2025-01-11 18:14:38.92	150.13	11.86	
2025-01-11 18:14:39.13	150.12	11.89	
2025-01-11 18:14:39.34	150.12	11.91	
2025-01-11 18:14:39.54	150.11	11.93	
2025-01-11 18:14:39.75	150.11	11.95	
2025-01-11 18:14:39.95	150.10	11.97	
2025-01-11 18:14:40.16	150.10	11.99	
2025-01-11 18:14:40.37	150.09	12.01	
2025-01-11 18:14:40.57	150.08	12.03	
2025-01-11 18:14:40.78	150.08	12.05	
2025-01-11 18:14:40.98	150.07	12.07	
2025-01-11 18:14:41.19	150.07	12.09	
2025-01-11 18:14:41.39	150.06	12.12	
2025-01-11 18:14:41.60	150.06	12.14	
2025-01-11 18:14:41.80	150.05	12.16	
2025-01-11 18:14:42.01	150.05	12.18	
2025-01-11 18:14:42.21	150.04	12.20	
2025-01-11 18:14:42.42	150.04	12.22	
2025-01-11 18:14:42.62	150.03	12.24	
2025-01-11 18:14:42.83	150.03	12.26	
2025-01-11 18:14:43.03	150.02	12.28	
2025-01-11 18:14:43.25	150.01	12.31	
2025-01-11 18:14:43.45	150.01	12.33	
2025-01-11 18:14:43.66	150.00	12.35	
2025-01-11 18:14:43.86	150.00	12.37	
2025-01-11 18:14:44.07	149.99	12.39	
2025-01-11 18:14:44.29	149.99	12.41	
2025-01-11 18:14:44.49	149.98	12.43	
2025-01-11 18:14:44.70	149.98	12.46	
2025-01-11 18:14:44.90	149.97	12.48	
2025-01-11 18:14:45.11	149.96	12.50	
2025-01-11 18:14:45.31	149.96	12.52	
2025-01-11 18:14:45.52	149.95	12.54	
2025-01-11 18:14:45.72	149.95	12.56	
2025-01-11 18:14:45.93	149.94	12.58	
2025-01-11 18:14:46.14	149.94	12.61	
2025-01-11 18:14:46.35	149.93	12.63	
2025-01-11 18:14:46.56	149.93	12.65	
2025-01-11 18:14:46.76	149.92	12.67	
2025-01-11 18:14:46.97	149.91	12.69	
2025-01-11 18:14:47.18	149.91	12.72	
2025-01-11 18:14:47.38	149.90	12.74	
2025-01-11 18:14:47.58	149.90	12.76	
2025-01-11 18:14:47.79	149.89	12.78	
2025-01-11 18:14:47.99	149.89	12.80	
2025-01-11 18:14:48.20	149.88	12.82	
2025-01-11 18:14:48.40	149.87	12.84	
2025-01-11 18:14:48.60	149.87	12.86	
2025-01-11 18:14:48.81	149.86	12.89	
2025-01-11 18:14:49.01	149.86	12.91	
2025-01-11 18:14:49.22	149.85	12.93	
2025-01-11 18:14:49.43	149.85	12.95	
2025-01-11 18:14:49.63	149.84	12.97	
2025-01-11 18:14:49.83	149.84	12.99	
2025-01-11 18:14:50.04	149.83	13.02	
2025-01-11 18:14:50.24	149.82	13.04	
2025-01-11 18:14:50.45	149.82	13.06	
2025-01-11 18:14:50.65	149.81	13.08	
2025-01-11 18:14:50.86	149.81	13.10	
2025-01-11 18:14:51.06	149.80	13.13	
2025-01-11 18:14:51.27	149.79	13.15	
2025-01-11 18:14:51.48	149.79	13.17	
2025-01-11 18:14:51.69	149.78	13.19	
2025-01-11 18:14:51.90	149.78	13.22	
2025-01-11 18:14:52.10	149.77	13.24	
2025-01-11 18:14:52.31	149.76	13.26	
2025-01-11 18:14:52.51	149.76	13.28	
2025-01-11 18:14:52.72	149.75	13.30	
2025-01-11 18:14:52.92	149.75	13.33	
2025-01-11 18:14:53.13	149.74	13.35	
2025-01-11 18:14:53.33	149.74	13.37	
2025-01-11 18:14:53.54	149.73	13.39	
2025-01-11 18:14:53.74	149.72	13.41	
2025-01-11 18:14:53.95	149.72	13.44	
2025-01-11 18:14:54.15	149.71	13.46	
2025-01-11 18:14:54.36	149.71	13.48	
2025-01-11 18:14:54.57	149.70	13.50	
2025-01-11 18:14:54.77	149.69	13.53	
2025-01-11 18:14:54.98	149.69	13.55	
2025-01-11 18:14:55.18	149.68	13.57	
2025-01-11 18:14:55.39	149.68	13.59	
2025-01-11 18:14:55.59	149.67	13.62	
2025-01-11 18:14:55.80	149.66	13.64	
2025-01-11 18:14:56.00	149.66	13.66	
2025-01-11 18:14:56.21	149.65	13.68	
2025-01-11 18:14:56.41	149.65	13.71	
2025-01-11 18:14:56.62	149.64	13.73	
2025-01-11 18:14:56.83	149.63	13.75	
2025-01-11 18:14:57.03	149.63	13.77	
2025-01-11 18:14:57.24	149.62	13.80	
2025-01-11 18:14:57.44	149.61	13.82	
2025-01-11 18:14:57.65	149.61	13.84	
2025-01-11 18:14:57.85	149.60	13.86	
2025-01-11 18:14:58.05	149.60	13.89	
2025-01-11 18:14:58.26	149.59	13.91	
2025-01-11 18:14:58.47	149.58	13.93	
2025-01-11 18:14:58.67	149.58	13.96	
2025-01-11 18:14:58.88	149.57	13.98	
2025-01-11 18:14:59.08	149.57	14.00	
2025-01-11 18:14:59.29	149.56	14.02	
2025-01-11 18:14:59.49	149.55	14.05	
2025-01-11 18:14:59.70	149.55	14.07	
2025-01-11 18:14:59.90	149.54	14.09	
2025-01-11 18:15:00.11	149.53	14.12	
2025-01-11 18:15:00.31	149.53	14.14	
2025-01-11 18:15:00.52	149.52	14.16	
2025-01-11 18:15:00.72	149.52	14.18	
2025-01-11 18:15:00.93	149.51	14.21	
2025-01-11 18:15:01.13	149.50	14.23	
2025-01-11 18:15:01.34	149.50	14.25	
2025-01-11 18:15:01.54	149.49	14.28	
2025-01-11 18:15:01.75	149.48	14.30	
2025-01-11 18:15:01.96	149.48	14.32	
2025-01-11 18:15:02.16	149.47	14.35	
2025-01-11 18:15:02.37	149.46	14.37	
2025-01-11 18:15:02.57	149.46	14.39	
2025-01-11 18:15:02.77	149.45	14.41	
2025-01-11 18:15:02.98	149.45	14.44	
2025-01-11 18:15:03.18	149.44	14.46	
2025-01-11 18:15:03.39	149.43	14.49	
2025-01-11 18:15:03.59	149.43	14.51	
2025-01-11 18:15:03.80	149.42	14.53	
2025-01-11 18:15:04.00	149.41	14.55	
2025-01-11 18:15:04.21	149.41	14.58	
2025-01-11 18:15:04.41	149.40	14.60	
2025-01-11 18:15:04.62	149.39	14.63	
2025-01-11 18:15:04.82	149.39	14.65	
2025-01-11 18:15:05.03	149.38	14.67	
2025-01-11 18:15:05.24	149.37	14.70	
2025-01-11 18:15:05.44	149.37	14.72	
2025-01-11 18:15:05.64	149.36	14.74	
2025-01-11 18:15:05.85	149.35	14.77	
2025-01-11 18:15:06.05	149.35	14.79	
2025-01-11 18:15:06.26	149.34	14.81	
2025-01-11 18:15:06.47	149.33	14.84	
2025-01-11 18:15:06.67	149.33	14.86	
2025-01-11 18:15:06.88	149.32	14.89	
2025-01-11 18:15:07.08	149.31	14.91	
2025-01-11 18:15:07.29	149.31	14.93	
2025-01-11 18:15:07.49	149.30	14.96	
2025-01-11 18:15:07.69	149.29	14.98	
2025-01-11 18:15:07.90	149.29	15.00	
2025-01-11 18:15:08.10	149.28	15.03	
2025-01-11 18:15:08.31	149.27	15.05	
2025-01-11 18:15:08.51	149.27	15.07	
2025-01-11 18:15:08.72	149.26	15.10	
2025-01-11 18:15:08.92	149.25	15.12	
2025-01-11 18:15:09.13	149.25	15.15	
2025-01-11 18:15:09.33	149.24	15.17	
2025-01-11 18:15:09.54	149.23	15.20	
2025-01-11 18:15:09.74	149.23	15.22	
2025-01-11 18:15:09.95	149.22	15.24	
2025-01-11 18:15:10.15	149.21	15.27	
2025-01-11 18:15:10.36	149.21	15.29	
2025-01-11 18:15:10.57	149.20	15.32	
2025-01-11 18:15:10.77	149.19	15.34	
2025-01-11 18:15:10.97	149.19	15.36	
2025-01-11 18:15:11.18	149.18	15.39	
2025-01-11 18:15:11.39	149.17	15.41	
2025-01-11 18:15:11.59	149.16	15.44	
2025-01-11 18:15:11.80	149.16	15.46	
2025-01-11 18:15:12.00	149.15	15.49	
2025-01-11 18:15:12.21	149.14	15.51	
2025-01-11 18:15:12.41	149.14	15.53	
2025-01-11 18:15:12.62	149.13	15.56	
2025-01-11 18:15:12.83	149.12	15.58	
2025-01-11 18:15:13.03	149.12	15.61	
2025-01-11 18:15:13.24	149.11	15.63	
2025-01-11 18:15:13.44	149.10	15.66	
2025-01-11 18:15:13.65	149.09	15.68	
2025-01-11 18:15:13.85	149.09	15.71	
2025-01-11 18:15:14.06	149.08	15.73	
2025-01-11 18:15:14.26	149.07	15.76	
2025-01-11 18:15:14.47	149.07	15.78	
2025-01-11 18:15:14.67	149.06	15.81	
2025-01-11 18:15:14.88	149.05	15.83	
2025-01-11 18:15:15.08	149.04	15.85	
2025-01-11 18:15:15.29	149.04	15.88	
2025-01-11 18:15:15.49	149.03	15.90	
2025-01-11 18:15:15.70	149.02	15.93	
2025-01-11 18:15:15.90	149.02	15.95	
2025-01-11 18:15:16.11	149.01	15.98	
2025-01-11 18:15:16.31	149.00	16.00	
2025-01-11 18:15:16.51	148.99	16.03	
2025-01-11 18:15:16.72	148.99	16.05	
2025-01-11 18:15:16.92	148.98	16.08	
2025-01-11 18:15:17.13	148.97	16.10	
2025-01-11 18:15:17.34	148.96	16.13	
2025-01-11 18:15:17.55	148.96	16.16	
2025-01-11 18:15:17.76	148.95	16.18	
2025-01-11 18:15:17.96	148.94	16.21	
2025-01-11 18:15:18.17	148.93	16.23	
2025-01-11 18:15:18.37	148.93	16.26	
2025-01-11 18:15:18.58	148.92	16.28	
2025-01-11 18:15:18.78	148.91	16.31	
2025-01-11 18:15:18.99	148.90	16.33	
2025-01-11 18:15:19.19	148.90	16.36	
2025-01-11 18:15:19.40	148.89	16.38	
2025-01-11 18:15:19.60	148.88	16.41	
2025-01-11 18:15:19.81	148.87	16.43	
2025-01-11 18:15:20.01	148.87	16.46	
2025-01-11 18:15:20.22	148.86	16.48	
2025-01-11 18:15:20.43	148.85	16.51	
2025-01-11 18:15:20.63	148.84	16.54	
2025-01-11 18:15:20.84	148.84	16.56	
2025-01-11 18:15:21.04	148.83	16.59	
2025-01-11 18:15:21.25	148.82	16.61	
2025-01-11 18:15:21.45	148.81	16.64	
2025-01-11 18:15:21.66	148.81	16.66	
2025-01-11 18:15:21.86	148.80	16.69	
2025-01-11 18:15:22.06	148.79	16.71	
2025-01-11 18:15:22.27	148.78	16.74	
2025-01-11 18:15:22.48	148.78	16.77	
2025-01-11 18:15:22.68	148.77	16.79	
2025-01-11 18:15:22.89	148.76	16.82	
2025-01-11 18:15:23.09	148.75	16.84	
2025-01-11 18:15:23.30	148.74	16.87	
2025-01-11 18:15:23.50	148.74	16.90	
2025-01-11 18:15:23.71	148.73	16.92	
2025-01-11 18:15:23.91	148.72	16.95	
2025-01-11 18:15:24.12	148.71	16.97	
2025-01-11 18:15:24.32	148.71	17.00	
2025-01-11 18:15:24.53	148.70	17.03	
2025-01-11 18:15:24.73	148.69	17.05	
2025-01-11 18:15:24.94	148.68	17.08	
2025-01-11 18:15:25.15	148.67	17.11	
2025-01-11 18:15:25.35	148.67	17.13	
2025-01-11 18:15:25.56	148.66	17.16	
2025-01-11 18:15:25.76	148.65	17.18	
2025-01-11 18:15:25.96	148.64	17.21	
2025-01-11 18:15:26.17	148.63	17.24	
2025-01-11 18:15:26.38	148.63	17.26	
2025-01-11 18:15:26.58	148.62	17.29	
2025-01-11 18:15:26.79	148.61	17.32	
2025-01-11 18:15:27.00	148.60	17.34	
2025-01-11 18:15:27.21	148.59	17.37	
2025-01-11 18:15:27.41	148.59	17.40	
2025-01-11 18:15:27.62	148.58	17.42	
2025-01-11 18:15:27.83	148.57	17.45	
2025-01-11 18:15:28.03	148.56	17.48	
2025-01-11 18:15:28.24	148.55	17.50	
2025-01-11 18:15:28.44	148.55	17.53	
2025-01-11 18:15:28.65	148.54	17.56	
2025-01-11 18:15:28.85	148.53	17.58	
2025-01-11 18:15:29.06	148.52	17.61	
2025-01-11 18:15:29.26	148.51	17.64	
2025-01-11 18:15:29.47	148.50	17.66	
2025-01-11 18:15:29.68	148.50	17.69	
2025-01-11 18:15:29.88	148.49	17.72	
2025-01-11 18:15:30.08	148.48	17.74	
2025-01-11 18:15:30.29	148.47	17.77	
2025-01-11 18:15:30.49	148.46	17.80	
2025-01-11 18:15:30.70	148.45	17.83	
2025-01-11 18:15:30.91	148.45	17.85	
2025-01-11 18:15:31.11	148.44	17.88	
2025-01-11 18:15:31.32	148.43	17.91	
2025-01-11 18:15:31.52	148.42	17.93	
2025-01-11 18:15:31.73	148.41	17.96	
2025-01-11 18:15:31.94	148.40	17.99	
2025-01-11 18:15:32.14	148.40	18.02	
2025-01-11 18:15:32.35	148.39	18.04	
2025-01-11 18:15:32.55	148.38	18.07	
2025-01-11 18:15:32.76	148.37	18.10	
2025-01-11 18:15:32.96	148.36	18.13	
2025-01-11 18:15:33.17	148.35	18.15	
2025-01-11 18:15:33.37	148.34	18.18	
2025-01-11 18:15:33.58	148.34	18.21	
2025-01-11 18:15:33.78	148.33	18.24	
2025-01-11 18:15:33.99	148.32	18.26	
2025-01-11 18:15:34.19	148.31	18.29	
2025-01-11 18:15:34.39	148.30	18.32	
2025-01-11 18:15:34.60	148.29	18.35	
2025-01-11 18:15:34.80	148.28	18.37	
2025-01-11 18:15:35.01	148.28	18.40	
2025-01-11 18:15:35.21	148.27	18.43	
2025-01-11 18:15:35.42	148.26	18.46	
2025-01-11 18:15:35.62	148.25	18.48	
2025-01-11 18:15:35.83	148.24	18.51	
2025-01-11 18:15:36.03	148.23	18.54	
2025-01-11 18:15:36.24	148.22	18.57	
2025-01-11 18:15:36.44	148.21	18.59	
2025-01-11 18:15:36.65	148.20	18.62	
2025-01-11 18:15:36.85	148.20	18.65	
2025-01-11 18:15:37.06	148.19	18.68	
2025-01-11 18:15:37.26	148.18	18.71	
2025-01-11 18:15:37.47	148.17	18.74	
2025-01-11 18:15:37.69	148.16	18.77	
2025-01-11 18:15:37.89	148.15	18.79	
2025-01-11 18:15:38.09	148.14	18.82	
2025-01-11 18:15:38.30	148.13	18.85	
2025-01-11 18:15:38.51	148.12	18.88	
2025-01-11 18:15:38.71	148.11	18.91	
2025-01-11 18:15:38.92	148.11	18.94	
2025-01-11 18:15:39.12	148.10	18.96	
2025-01-11 18:15:39.33	148.09	18.99	
2025-01-11 18:15:39.54	148.08	19.02	
2025-01-11 18:15:39.74	148.07	19.05	
2025-01-11 18:15:39.95	148.06	19.08	
2025-01-11 18:15:40.15	148.05	19.11	
2025-01-11 18:15:40.36	148.04	19.14	
2025-01-11 18:15:40.56	148.03	19.16	
2025-01-11 18:15:40.77	148.02	19.19	
2025-01-11 18:15:40.97	148.01	19.22	
2025-01-11 18:15:41.18	148.00	19.25	
2025-01-11 18:15:41.38	148.00	19.28	
2025-01-11 18:15:41.59	147.99	19.31	
2025-01-11 18:15:41.79	147.98	19.34	
2025-01-11 18:15:42.00	147.97	19.37	
2025-01-11 18:15:42.20	147.96	19.39	
2025-01-11 18:15:42.41	147.95	19.42	
2025-01-11 18:15:42.61	147.94	19.45	
2025-01-11 18:15:42.82	147.93	19.48	
2025-01-11 18:15:43.02	147.92	19.51	
2025-01-11 18:15:43.23	147.91	19.54	
2025-01-11 18:15:43.43	147.90	19.57	
2025-01-11 18:15:43.64	147.89	19.60	
2025-01-11 18:15:43.84	147.88	19.63	
2025-01-11 18:15:44.05	147.87	19.66	
2025-01-11 18:15:44.25	147.86	19.68	
2025-01-11 18:15:44.46	147.85	19.71	
2025-01-11 18:15:44.66	147.84	19.74	
2025-01-11 18:15:44.87	147.83	19.77	
2025-01-11 18:15:45.07	147.83	19.80	
2025-01-11 18:15:45.28	147.82	19.83	
2025-01-11 18:15:45.49	147.81	19.86	
2025-01-11 18:15:45.69	147.80	19.89	
2025-01-11 18:15:45.90	147.79	19.92	
2025-01-11 18:15:46.10	147.78	19.95	
2025-01-11 18:15:46.30	147.77	19.98	
2025-01-11 18:15:46.51	147.76	20.01	
2025-01-11 18:15:46.72	147.75	20.04	
2025-01-11 18:15:46.92	147.74	20.07	
2025-01-11 18:15:47.12	147.73	20.10	
2025-01-11 18:15:47.33	147.72	20.13	
2025-01-11 18:15:47.53	147.71	20.16	
2025-01-11 18:15:47.74	147.70	20.19	
2025-01-11 18:15:47.94	147.69	20.22	
2025-01-11 18:15:48.15	147.68	20.25	
2025-01-11 18:15:48.37	147.67	20.28	
2025-01-11 18:15:48.57	147.66	20.31	
2025-01-11 18:15:48.78	147.65	20.34	
2025-01-11 18:15:48.98	147.64	20.37	
2025-01-11 18:15:49.19	147.63	20.40	
2025-01-11 18:15:49.39	147.62	20.43	
2025-01-11 18:15:49.60	147.61	20.46	
2025-01-11 18:15:49.80	147.60	20.49	
2025-01-11 18:15:50.01	147.59	20.52	
2025-01-11 18:15:50.22	147.58	20.55	
2025-01-11 18:15:50.42	147.57	20.58	
2025-01-11 18:15:50.62	147.56	20.61	
2025-01-11 18:15:50.83	147.55	20.64	
2025-01-11 18:15:51.03	147.54	20.67	
2025-01-11 18:15:51.24	147.53	20.70	
2025-01-11 18:15:51.45	147.51	20.74	
2025-01-11 18:15:51.65	147.50	20.77	
2025-01-11 18:15:51.86	147.49	20.80	
2025-01-11 18:15:52.06	147.48	20.83	
2025-01-11 18:15:52.27	147.47	20.86	
2025-01-11 18:15:52.47	147.46	20.89	
2025-01-11 18:15:52.67	147.45	20.92	
2025-01-11 18:15:52.88	147.44	20.95	
2025-01-11 18:15:53.09	147.43	20.98	
2025-01-11 18:15:53.29	147.42	21.01	
2025-01-11 18:15:53.50	147.41	21.04	
2025-01-11 18:15:53.70	147.40	21.07	
2025-01-11 18:15:53.90	147.39	21.11	
2025-01-11 18:15:54.11	147.38	21.14	
2025-01-11 18:15:54.32	147.37	21.17	
2025-01-11 18:15:54.52	147.36	21.20	
2025-01-11 18:15:54.72	147.35	21.23	
2025-01-11 18:15:54.93	147.34	21.26	
2025-01-11 18:15:55.13	147.33	21.29	
2025-01-11 18:15:55.34	147.31	21.32	
2025-01-11 18:15:55.55	147.30	21.36	
2025-01-11 18:15:55.75	147.29	21.39	
2025-01-11 18:15:55.95	147.28	21.42	
2025-01-11 18:15:56.16	147.27	21.45	
2025-01-11 18:15:56.37	147.26	21.48	
2025-01-11 18:15:56.57	147.25	21.51	
2025-01-11 18:15:56.78	147.24	21.55	
2025-01-11 18:15:56.98	147.23	21.58	
2025-01-11 18:15:57.19	147.22	21.61	
2025-01-11 18:15:57.39	147.21	21.64	
2025-01-11 18:15:57.60	147.19	21.67	
2025-01-11 18:15:57.80	147.18	21.70	
2025-01-11 18:15:58.01	147.17	21.74	
2025-01-11 18:15:58.21	147.16	21.77	
2025-01-11 18:15:58.41	147.15	21.80	
2025-01-11 18:15:58.62	147.14	21.83	
2025-01-11 18:15:58.82	147.13	21.86	
2025-01-11 18:15:59.03	147.12	21.90	
2025-01-11 18:15:59.23	147.11	21.93	
2025-01-11 18:15:59.44	147.09	21.96	
2025-01-11 18:15:59.64	147.08	21.99	
2025-01-11 18:15:59.85	147.07	22.03	
2025-01-11 18:16:00.07	147.06	22.06	
2025-01-11 18:16:00.27	147.05	22.09	
2025-01-11 18:16:00.48	147.04	22.13	
2025-01-11 18:16:00.68	147.03	22.16	
2025-01-11 18:16:00.89	147.01	22.19	
2025-01-11 18:16:01.09	147.00	22.22	
2025-01-11 18:16:01.30	146.99	22.26	
2025-01-11 18:16:01.50	146.98	22.29	
2025-01-11 18:16:01.71	146.97	22.32	
2025-01-11 18:16:01.92	146.96	22.35	
2025-01-11 18:16:02.12	146.94	22.39	
2025-01-11 18:16:02.33	146.93	22.42	
2025-01-11 18:16:02.53	146.92	22.45	
2025-01-11 18:16:02.73	146.91	22.48	
2025-01-11 18:16:02.94	146.90	22.52	
2025-01-11 18:16:03.14	146.89	22.55	
2025-01-11 18:16:03.35	146.87	22.58	
2025-01-11 18:16:03.55	146.86	22.62	
2025-01-11 18:16:03.76	146.85	22.65	
2025-01-11 18:16:03.96	146.84	22.68	
2025-01-11 18:16:04.17	146.83	22.72	
2025-01-11 18:16:04.37	146.82	22.75	
2025-01-11 18:16:04.58	146.80	22.78	
2025-01-11 18:16:04.78	146.79	22.82	
2025-01-11 18:16:04.99	146.78	22.85	
2025-01-11 18:16:05.20	146.77	22.88	
2025-01-11 18:16:05.40	146.75	22.92	
2025-01-11 18:16:05.61	146.74	22.95	
2025-01-11 18:16:05.81	146.73	22.98	
2025-01-11 18:16:06.01	146.72	23.02	
2025-01-11 18:16:06.22	146.71	23.05	
2025-01-11 18:16:06.42	146.69	23.08	
2025-01-11 18:16:06.63	146.68	23.12	
2025-01-11 18:16:06.83	146.67	23.15	
2025-01-11 18:16:07.04	146.66	23.19	
2025-01-11 18:16:07.24	146.65	23.22	
2025-01-11 18:16:07.45	146.63	23.26	
2025-01-11 18:16:07.66	146.62	23.29	
2025-01-11 18:16:07.86	146.61	23.32	
2025-01-11 18:16:08.07	146.60	23.36	
2025-01-11 18:16:08.27	146.58	23.39	
2025-01-11 18:16:08.48	146.57	23.43	
2025-01-11 18:16:08.68	146.56	23.46	
2025-01-11 18:16:08.89	146.55	23.50	
2025-01-11 18:16:09.09	146.53	23.53	
2025-01-11 18:16:09.30	146.52	23.56	
2025-01-11 18:16:09.51	146.51	23.60	
2025-01-11 18:16:09.71	146.49	23.63	
2025-01-11 18:16:09.92	146.48	23.67	
2025-01-11 18:16:10.12	146.47	23.70	
2025-01-11 18:16:10.33	146.46	23.74	
2025-01-11 18:16:10.53	146.44	23.77	
2025-01-11 18:16:10.74	146.43	23.81	
2025-01-11 18:16:10.94	146.42	23.84	
2025-01-11 18:16:11.15	146.41	23.88	
2025-01-11 18:16:11.35	146.39	23.91	
2025-01-11 18:16:11.56	146.38	23.95	
2025-01-11 18:16:11.76	146.37	23.98	
2025-01-11 18:16:11.96	146.35	24.01	
2025-01-11 18:16:12.17	146.34	24.05	
2025-01-11 18:16:12.38	146.33	24.09	
2025-01-11 18:16:12.58	146.31	24.12	
2025-01-11 18:16:12.80	146.30	24.16	
2025-01-11 18:16:13.01	146.29	24.20	
2025-01-11 18:16:13.21	146.27	24.23	
2025-01-11 18:16:13.41	146.26	24.26	
2025-01-11 18:16:13.62	146.25	24.30	
2025-01-11 18:16:13.82	146.23	24.34	
2025-01-11 18:16:14.02	146.22	24.37	
2025-01-11 18:16:14.23	146.21	24.41	
2025-01-11 18:16:14.43	146.19	24.44	
2025-01-11 18:16:14.64	146.18	24.48	
2025-01-11 18:16:14.84	146.17	24.51	
2025-01-11 18:16:15.05	146.15	24.55	
2025-01-11 18:16:15.25	146.14	24.58	
2025-01-11 18:16:15.46	146.13	24.62	
2025-01-11 18:16:15.67	146.11	24.66	
2025-01-11 18:16:15.87	146.10	24.69	
2025-01-11 18:16:16.08	146.09	24.73	
2025-01-11 18:16:16.28	146.07	24.77	
2025-01-11 18:16:16.49	146.06	24.80	
2025-01-11 18:16:16.69	146.04	24.84	
2025-01-11 18:16:16.90	146.03	24.87	
2025-01-11 18:16:17.10	146.02	24.91	
2025-01-11 18:16:17.30	146.00	24.95	
2025-01-11 18:16:17.51	145.99	24.98	
2025-01-11 18:16:17.71	145.98	25.02	
2025-01-11 18:16:17.92	145.96	25.06	
2025-01-11 18:16:18.12	145.95	25.09	
2025-01-11 18:16:18.33	145.93	25.13	
2025-01-11 18:16:18.53	145.92	25.16	
2025-01-11 18:16:18.74	145.91	25.20	
2025-01-11 18:16:18.96	145.89	25.24	
2025-01-11 18:16:19.16	145.88	25.28	
2025-01-11 18:16:19.37	145.86	25.32	
2025-01-11 18:16:19.57	145.85	25.35	
2025-01-11 18:16:19.78	145.83	25.39	
2025-01-11 18:16:19.99	145.82	25.43	
2025-01-11 18:16:20.19	145.80	25.46	
2025-01-11 18:16:20.39	145.79	25.50	
2025-01-11 18:16:20.60	145.78	25.54	
2025-01-11 18:16:20.81	145.76	25.58	
2025-01-11 18:16:21.01	145.75	25.61	
2025-01-11 18:16:21.22	145.73	25.65	
2025-01-11 18:16:21.42	145.72	25.69	
2025-01-11 18:16:21.63	145.70	25.73	
2025-01-11 18:16:21.83	145.69	25.76	
2025-01-11 18:16:22.04	145.67	25.80	
2025-01-11 18:16:22.24	145.66	25.84	
2025-01-11 18:16:22.44	145.64	25.87	
2025-01-11 18:16:22.65	145.63	25.91	
2025-01-11 18:16:22.86	145.61	25.95	
2025-01-11 18:16:23.06	145.60	25.99	
2025-01-11 18:16:23.26	145.58	26.03	
2025-01-11 18:16:23.47	145.57	26.07	
2025-01-11 18:16:23.67	145.55	26.10	
2025-01-11 18:16:23.88	145.54	26.14	
2025-01-11 18:16:24.08	145.52	26.18	
2025-01-11 18:16:24.29	145.51	26.22	
2025-01-11 18:16:24.50	145.49	26.26	
2025-01-11 18:16:24.70	145.48	26.29	
2025-01-11 18:16:24.91	145.46	26.33	
2025-01-11 18:16:25.11	145.45	26.37	
2025-01-11 18:16:25.32	145.43	26.41	
2025-01-11 18:16:25.52	145.42	26.45	
2025-01-11 18:16:25.73	145.40	26.49	
2025-01-11 18:16:25.94	145.39	26.53	
2025-01-11 18:16:26.14	145.37	26.57	
2025-01-11 18:16:26.35	145.35	26.60	
2025-01-11 18:16:26.55	145.34	26.64	
2025-01-11 18:16:26.75	145.32	26.68	
2025-01-11 18:16:26.96	145.31	26.72	
2025-01-11 18:16:27.16	145.29	26.76	
2025-01-11 18:16:27.37	145.28	26.80	
2025-01-11 18:16:27.58	145.26	26.84	
2025-01-11 18:16:27.78	145.25	26.88	
2025-01-11 18:16:27.98	145.23	26.92	
2025-01-11 18:16:28.19	145.21	26.96	
2025-01-11 18:16:28.40	145.20	27.00	
2025-01-11 18:16:28.60	145.18	27.03	
2025-01-11 18:16:28.80	145.17	27.07	
2025-01-11 18:16:29.01	145.15	27.11	
2025-01-11 18:16:29.22	145.13	27.15	
2025-01-11 18:16:29.43	145.12	27.19	
2025-01-11 18:16:29.63	145.10	27.23	
2025-01-11 18:16:29.84	145.08	27.27	
2025-01-11 18:16:30.04	145.07	27.31	
2025-01-11 18:16:30.25	145.05	27.35	
2025-01-11 18:16:30.45	145.04	27.39	
2025-01-11 18:16:30.66	145.02	27.43	
2025-01-11 18:16:30.86	145.00	27.47	
2025-01-11 18:16:31.07	144.99	27.51	
2025-01-11 18:16:31.27	144.97	27.55	
2025-01-11 18:16:31.48	144.95	27.59	
2025-01-11 18:16:31.68	144.94	27.63	
2025-01-11 18:16:31.89	144.92	27.68	
2025-01-11 18:16:32.09	144.90	27.71	
2025-01-11 18:16:32.30	144.89	27.76	
2025-01-11 18:16:32.51	144.87	27.80	
2025-01-11 18:16:32.71	144.85	27.84	
2025-01-11 18:16:32.91	144.84	27.88	
2025-01-11 18:16:33.12	144.82	27.92	
2025-01-11 18:16:33.32	144.80	27.96	
2025-01-11 18:16:33.53	144.78	28.00	
2025-01-11 18:16:33.74	144.77	28.04	
2025-01-11 18:16:33.94	144.75	28.08	
2025-01-11 18:16:34.14	144.73	28.12	
2025-01-11 18:16:34.35	144.72	28.16	
2025-01-11 18:16:34.56	144.70	28.21	
2025-01-11 18:16:34.76	144.68	28.25	
2025-01-11 18:16:34.97	144.66	28.29	
2025-01-11 18:16:35.17	144.65	28.33	
2025-01-11 18:16:35.38	144.63	28.37	
2025-01-11 18:16:35.58	144.61	28.41	
2025-01-11 18:16:35.79	144.59	28.46	
2025-01-11 18:16:35.99	144.58	28.50	
2025-01-11 18:16:36.20	144.56	28.54	
2025-01-11 18:16:36.40	144.54	28.58	
2025-01-11 18:16:36.61	144.52	28.62	
2025-01-11 18:16:36.81	144.50	28.66	
2025-01-11 18:16:37.02	144.49	28.71	
2025-01-11 18:16:37.22	144.47	28.75	
2025-01-11 18:16:37.43	144.45	28.79	
2025-01-11 18:16:37.63	144.43	28.83	
2025-01-11 18:16:37.84	144.41	28.88	
2025-01-11 18:16:38.04	144.40	28.92	
2025-01-11 18:16:38.25	144.38	28.96	
2025-01-11 18:16:38.45	144.36	29.00	
2025-01-11 18:16:38.65	144.34	29.04	
2025-01-11 18:16:38.86	144.32	29.09	
2025-01-11 18:16:39.06	144.31	29.13	
2025-01-11 18:16:39.27	144.29	29.17	
2025-01-11 18:16:39.48	144.27	29.22	
2025-01-11 18:16:39.68	144.25	29.26	
2025-01-11 18:16:39.89	144.23	29.30	
2025-01-11 18:16:40.09	144.21	29.34	
2025-01-11 18:16:40.30	144.19	29.39	
2025-01-11 18:16:40.50	144.17	29.43	
2025-01-11 18:16:40.71	144.16	29.47	
2025-01-11 18:16:40.91	144.14	29.52	
2025-01-11 18:16:41.12	144.12	29.56	
2025-01-11 18:16:41.32	144.10	29.60	
2025-01-11 18:16:41.53	144.08	29.65	
2025-01-11 18:16:41.73	144.06	29.69	
2025-01-11 18:16:41.94	144.04	29.73	
2025-01-11 18:16:42.14	144.02	29.78	
2025-01-11 18:16:42.35	144.00	29.82	
2025-01-11 18:16:42.56	143.98	29.87	
2025-01-11 18:16:42.76	143.96	29.91	
2025-01-11 18:16:42.97	143.94	29.95	
2025-01-11 18:16:43.17	143.93	30.00	
2025-01-11 18:16:43.38	143.91	30.04	
2025-01-11 18:16:43.58	143.89	30.08	
2025-01-11 18:16:43.79	143.87	30.13	
2025-01-11 18:16:43.99	143.85	30.17	
2025-01-11 18:16:44.20	143.83	30.22	
2025-01-11 18:16:44.40	143.81	30.26	
2025-01-11 18:16:44.60	143.79	30.30	
2025-01-11 18:16:44.81	143.77	30.35	
2025-01-11 18:16:45.01	143.75	30.39	
2025-01-11 18:16:45.22	143.73	30.44	
2025-01-11 18:16:45.42	143.71	30.48	
2025-01-11 18:16:45.63	143.69	30.53	
2025-01-11 18:16:45.83	143.67	30.57	
2025-01-11 18:16:46.04	143.65	30.62	
2025-01-11 18:16:46.24	143.63	30.66	
2025-01-11 18:16:46.45	143.61	30.71	
2025-01-11 18:16:46.65	143.59	30.75	
2025-01-11 18:16:46.86	143.57	30.80	
2025-01-11 18:16:47.06	143.55	30.84	
2025-01-11 18:16:47.27	143.52	30.89	
2025-01-11 18:16:47.47	143.50	30.93	
2025-01-11 18:16:47.68	143.48	30.98	
2025-01-11 18:16:47.88	143.46	31.02	
2025-01-11 18:16:48.09	143.44	31.07	
2025-01-11 18:16:48.29	143.42	31.12	
2025-01-11 18:16:48.50	143.40	31.16	
2025-01-11 18:16:48.70	143.38	31.21	
2025-01-11 18:16:48.91	143.36	31.25	
2025-01-11 18:16:49.12	143.34	31.30	
2025-01-11 18:16:49.32	143.31	31.35	
2025-01-11 18:16:49.53	143.29	31.39	
2025-01-11 18:16:49.73	143.27	31.44	
2025-01-11 18:16:49.93	143.25	31.48	
2025-01-11 18:16:50.14	143.23	31.53	
2025-01-11 18:16:50.34	143.21	31.58	
2025-01-11 18:16:50.55	143.19	31.63	
2025-01-11 18:16:50.75	143.16	31.67	
2025-01-11 18:16:50.96	143.14	31.72	
2025-01-11 18:16:51.16	143.12	31.76	
2025-01-11 18:16:51.37	143.10	31.81	
2025-01-11 18:16:51.57	143.08	31.86	
2025-01-11 18:16:51.78	143.05	31.91	
2025-01-11 18:16:51.98	143.03	31.95	
2025-01-11 18:16:52.19	143.01	32.00	
2025-01-11 18:16:52.39	142.99	32.05	
2025-01-11 18:16:52.60	142.97	32.09	
2025-01-11 18:16:52.81	142.94	32.14	
2025-01-11 18:16:53.01	142.92	32.19	
2025-01-11 18:16:53.22	142.90	32.24	
2025-01-11 18:16:53.43	142.87	32.29	
2025-01-11 18:16:53.64	142.85	32.34	
2025-01-11 18:16:53.85	142.83	32.38	
2025-01-11 18:16:54.05	142.81	32.43	
2025-01-11 18:16:54.26	142.78	32.48	
2025-01-11 18:16:54.47	142.76	32.53	
2025-01-11 18:16:54.67	142.74	32.58	
2025-01-11 18:16:54.88	142.71	32.62	
2025-01-11 18:16:55.08	142.69	32.67	
2025-01-11 18:16:55.29	142.67	32.72	
2025-01-11 18:16:55.49	142.64	32.77	
2025-01-11 18:16:55.69	142.62	32.82	
2025-01-11 18:16:55.90	142.60	32.87	
2025-01-11 18:16:56.10	142.57	32.91	
2025-01-11 18:16:56.31	142.55	32.96	
2025-01-11 18:16:56.51	142.53	33.01	
2025-01-11 18:16:56.72	142.50	33.06	
2025-01-11 18:16:56.93	142.48	33.11	
2025-01-11 18:16:57.13	142.45	33.16	
2025-01-11 18:16:57.34	142.43	33.21	
2025-01-11 18:16:57.54	142.41	33.26	
2025-01-11 18:16:57.74	142.38	33.30	
2025-01-11 18:16:57.95	142.36	33.35	
2025-01-11 18:16:58.16	142.33	33.40	
2025-01-11 18:16:58.36	142.31	33.45	
2025-01-11 18:16:58.57	142.28	33.50	
2025-01-11 18:16:58.78	142.26	33.55	
2025-01-11 18:16:58.99	142.23	33.61	
2025-01-11 18:16:59.20	142.21	33.66	
2025-01-11 18:16:59.40	142.18	33.71	
2025-01-11 18:16:59.61	142.16	33.76	
2025-01-11 18:16:59.81	142.13	33.80	
2025-01-11 18:17:00.01	142.11	33.85	
2025-01-11 18:17:00.22	142.08	33.91	
2025-01-11 18:17:00.42	142.06	33.95	
2025-01-11 18:17:00.63	142.03	34.01	
2025-01-11 18:17:00.84	142.01	34.06	
2025-01-11 18:17:01.04	141.98	34.11	
2025-01-11 18:17:01.25	141.96	34.16	
2025-01-11 18:17:01.45	141.93	34.21	
2025-01-11 18:17:01.66	141.90	34.26	
2025-01-11 18:17:01.86	141.88	34.31	
2025-01-11 18:17:02.06	141.85	34.36	
2025-01-11 18:17:02.27	141.83	34.41	
2025-01-11 18:17:02.48	141.80	34.46	
2025-01-11 18:17:02.68	141.78	34.51	
2025-01-11 18:17:02.89	141.75	34.57	
2025-01-11 18:17:03.09	141.72	34.62	
2025-01-11 18:17:03.30	141.70	34.67	
2025-01-11 18:17:03.50	141.67	34.72	
2025-01-11 18:17:03.71	141.64	34.77	
2025-01-11 18:17:03.91	141.62	34.82	
2025-01-11 18:17:04.12	141.59	34.87	
2025-01-11 18:17:04.32	141.56	34.93	
2025-01-11 18:17:04.53	141.54	34.98	
2025-01-11 18:17:04.73	141.51	35.03	
2025-01-11 18:17:04.94	141.48	35.08	
2025-01-11 18:17:05.14	141.46	35.13	
2025-01-11 18:17:05.35	141.43	35.19	
2025-01-11 18:17:05.55	141.40	35.24	
2025-01-11 18:17:05.76	141.37	35.29	
2025-01-11 18:17:05.96	141.35	35.34	
2025-01-11 18:17:06.17	141.32	35.40	
2025-01-11 18:17:06.37	141.29	35.45	
2025-01-11 18:17:06.57	141.26	35.50	
2025-01-11 18:17:06.78	141.24	35.55	
2025-01-11 18:17:06.98	141.21	35.60	
2025-01-11 18:17:07.19	141.18	35.66	
2025-01-11 18:17:07.40	141.15	35.71	
2025-01-11 18:17:07.60	141.12	35.76	
2025-01-11 18:17:07.81	141.09	35.82	
2025-01-11 18:17:08.01	141.07	35.87	
2025-01-11 18:17:08.22	141.04	35.93	
2025-01-11 18:17:08.42	141.01	35.98	
2025-01-11 18:17:08.63	140.98	36.03	
2025-01-11 18:17:08.83	140.95	36.09	
2025-01-11 18:17:09.04	140.92	36.14	
2025-01-11 18:17:09.24	140.89	36.19	
2025-01-11 18:17:09.45	140.86	36.25	
2025-01-11 18:17:09.65	140.83	36.30	
2025-01-11 18:17:09.86	140.80	36.36	
2025-01-11 18:17:10.06	140.78	36.41	
2025-01-11 18:17:10.27	140.75	36.46	
2025-01-11 18:17:10.47	140.72	36.52	
2025-01-11 18:17:10.68	140.69	36.57	
2025-01-11 18:17:10.88	140.66	36.63	
2025-01-11 18:17:11.09	140.63	36.68	
2025-01-11 18:17:11.30	140.59	36.74	
2025-01-11 18:17:11.50	140.57	36.79	
2025-01-11 18:17:11.71	140.53	36.85	
2025-01-11 18:17:11.91	140.50	36.90	
2025-01-11 18:17:12.12	140.47	36.96	
2025-01-11 18:17:12.32	140.44	37.01	
2025-01-11 18:17:12.53	140.41	37.07	
2025-01-11 18:17:12.73	140.38	37.12	
2025-01-11 18:17:12.94	140.35	37.18	
2025-01-11 18:17:13.15	140.32	37.24	
2025-01-11 18:17:13.35	140.29	37.29	
2025-01-11 18:17:13.56	140.26	37.35	
2025-01-11 18:17:13.78	140.22	37.41	
2025-01-11 18:17:13.98	140.19	37.46	
2025-01-11 18:17:14.18	140.16	37.52	
2025-01-11 18:17:14.39	140.13	37.57	
2025-01-11 18:17:14.59	140.10	37.63	
2025-01-11 18:17:14.80	140.06	37.69	
2025-01-11 18:17:15.00	140.03	37.74	
2025-01-11 18:17:15.21	140.00	37.80	
2025-01-11 18:17:15.41	139.97	37.85	
2025-01-11 18:17:15.62	139.94	37.91	
2025-01-11 18:17:15.82	139.90	37.97	
2025-01-11 18:17:16.03	139.87	38.02	
2025-01-11 18:17:16.24	139.84	38.08	
2025-01-11 18:17:16.44	139.80	38.14	
2025-01-11 18:17:16.65	139.77	38.20	
2025-01-11 18:17:16.85	139.74	38.25	
2025-01-11 18:17:17.06	139.70	38.31	
2025-01-11 18:17:17.26	139.67	38.37	
2025-01-11 18:17:17.47	139.64	38.43	
2025-01-11 18:17:17.68	139.60	38.48	
2025-01-11 18:17:17.88	139.57	38.54	
2025-01-11 18:17:18.08	139.54	38.60	
2025-01-11 18:17:18.29	139.50	38.66	
2025-01-11 18:17:18.50	139.47	38.72	
2025-01-11 18:17:18.70	139.43	38.77	
2025-01-11 18:17:18.91	139.40	38.83	
2025-01-11 18:17:19.11	139.36	38.89	
2025-01-11 18:17:19.32	139.33	38.95	
2025-01-11 18:17:19.52	139.30	39.00	
2025-01-11 18:17:19.73	139.26	39.06	
2025-01-11 18:17:19.93	139.23	39.12	
2025-01-11 18:17:20.14	139.19	39.18	
2025-01-11 18:17:20.34	139.15	39.24	
2025-01-11 18:17:20.55	139.12	39.30	
2025-01-11 18:17:20.75	139.08	39.36	
2025-01-11 18:17:20.96	139.05	39.42	
2025-01-11 18:17:21.16	139.01	39.47	
2025-01-11 18:17:21.37	138.98	39.54	
2025-01-11 18:17:21.58	138.94	39.60	
2025-01-11 18:17:21.79	138.90	39.66	
2025-01-11 18:17:21.99	138.87	39.71	
2025-01-11 18:17:22.20	138.83	39.78	
2025-01-11 18:17:22.40	138.79	39.83	
2025-01-11 18:17:22.60	138.76	39.89	
2025-01-11 18:17:22.81	138.72	39.95	
2025-01-11 18:17:23.02	138.68	40.01	
2025-01-11 18:17:23.22	138.64	40.07	
2025-01-11 18:17:23.43	138.61	40.13	
2025-01-11 18:17:23.63	138.57	40.19	
2025-01-11 18:17:23.84	138.53	40.25	
2025-01-11 18:17:24.04	138.49	40.31	
2025-01-11 18:17:24.25	138.46	40.38	
2025-01-11 18:17:24.45	138.42	40.43	
2025-01-11 18:17:24.66	138.38	40.50	
2025-01-11 18:17:24.86	138.34	40.56	
2025-01-11 18:17:25.07	138.30	40.62	
2025-01-11 18:17:25.27	138.26	40.68	
2025-01-11 18:17:25.48	138.22	40.74	
2025-01-11 18:17:25.68	138.19	40.80	
2025-01-11 18:17:25.89	138.15	40.86	
2025-01-11 18:17:26.09	138.11	40.92	
2025-01-11 18:17:26.30	138.07	40.99	
2025-01-11 18:17:26.50	138.03	41.05	
2025-01-11 18:17:26.71	137.99	41.11	
2025-01-11 18:17:26.91	137.95	41.17	
2025-01-11 18:17:27.12	137.91	41.23	
2025-01-11 18:17:27.33	137.87	41.29	
2025-01-11 18:17:27.53	137.83	41.36	
2025-01-11 18:17:27.74	137.79	41.42	
2025-01-11 18:17:27.94	137.75	41.48	
2025-01-11 18:17:28.14	137.71	41.54	
2025-01-11 18:17:28.35	137.66	41.60	
2025-01-11 18:17:28.56	137.62	41.67	
2025-01-11 18:17:28.76	137.58	41.73	
2025-01-11 18:17:28.96	137.54	41.79	
2025-01-11 18:17:29.17	137.50	41.85	
2025-01-11 18:17:29.37	137.46	41.92	
2025-01-11 18:17:29.58	137.42	41.98	
2025-01-11 18:17:29.80	137.37	42.05	
2025-01-11 18:17:30.00	137.33	42.11	
2025-01-11 18:17:30.21	137.28	42.17	
2025-01-11 18:17:30.41	137.24	42.24	
2025-01-11 18:17:30.62	137.20	42.30	
2025-01-11 18:17:30.82	137.16	42.36	
2025-01-11 18:17:31.03	137.11	42.43	
2025-01-11 18:17:31.23	137.07	42.49	
2025-01-11 18:17:31.44	137.03	42.56	
2025-01-11 18:17:31.64	136.98	42.62	
2025-01-11 18:17:31.85	136.94	42.68	
2025-01-11 18:17:32.05	136.90	42.75	
2025-01-11 18:17:32.26	136.85	42.81	
2025-01-11 18:17:32.46	136.81	42.87	
2025-01-11 18:17:32.67	136.76	42.94	
2025-01-11 18:17:32.87	136.72	43.00	
2025-01-11 18:17:33.08	136.67	43.07	
2025-01-11 18:17:33.28	136.63	43.13	
2025-01-11 18:17:33.49	136.58	43.20	
2025-01-11 18:17:33.70	136.53	43.26	
2025-01-11 18:17:33.90	136.49	43.33	
2025-01-11 18:17:34.10	136.44	43.39	
2025-01-11 18:17:34.31	136.40	43.46	
2025-01-11 18:17:34.52	136.35	43.52	
2025-01-11 18:17:34.72	136.30	43.59	
2025-01-11 18:17:34.93	136.26	43.66	
2025-01-11 18:17:35.13	136.21	43.72	
2025-01-11 18:17:35.34	136.16	43.79	
2025-01-11 18:17:35.54	136.12	43.85	
2025-01-11 18:17:35.75	136.07	43.92	
2025-01-11 18:17:35.95	136.02	43.98	
2025-01-11 18:17:36.16	135.97	44.05	
2025-01-11 18:17:36.36	135.92	44.11	
2025-01-11 18:17:36.57	135.87	44.18	
2025-01-11 18:17:36.77	135.83	44.25	
2025-01-11 18:17:36.98	135.78	44.31	
2025-01-11 18:17:37.18	135.73	44.38	
2025-01-11 18:17:37.39	135.68	44.45	
2025-01-11 18:17:37.60	135.63	44.52	
2025-01-11 18:17:37.80	135.58	44.58	
2025-01-11 18:17:38.01	135.53	44.65	
2025-01-11 18:17:38.21	135.48	44.71	
2025-01-11 18:17:38.42	135.43	44.78	
2025-01-11 18:17:38.62	135.38	44.85	
2025-01-11 18:17:38.83	135.33	44.92	
2025-01-11 18:17:39.03	135.28	44.98	
2025-01-11 18:17:39.24	135.22	45.05	
2025-01-11 18:17:39.44	135.17	45.12	
2025-01-11 18:17:39.65	135.12	45.19	
2025-01-11 18:17:39.85	135.07	45.25	
2025-01-11 18:17:40.06	135.02	45.32	
2025-01-11 18:17:40.26	134.97	45.39	
2025-01-11 18:17:40.47	134.91	45.46	
2025-01-11 18:17:40.67	134.86	45.52	
2025-01-11 18:17:40.88	134.81	45.59	
2025-01-11 18:17:41.08	134.76	45.66	
2025-01-11 18:17:41.29	134.70	45.73	
2025-01-11 18:17:41.49	134.65	45.80	
2025-01-11 18:17:41.70	134.59	45.87	
2025-01-11 18:17:41.90	134.54	45.93	
2025-01-11 18:17:42.11	134.48	46.00	
2025-01-11 18:17:42.31	134.43	46.07	
2025-01-11 18:17:42.52	134.37	46.14	
2025-01-11 18:17:42.73	134.32	46.21	
2025-01-11 18:17:42.93	134.26	46.28	
2025-01-11 18:17:43.14	134.21	46.35	
2025-01-11 18:17:43.34	134.15	46.42	
2025-01-11 18:17:43.55	134.09	46.49	
2025-01-11 18:17:43.77	134.03	46.56	
2025-01-11 18:17:43.97	133.98	46.63	
2025-01-11 18:17:44.18	133.92	46.70	
2025-01-11 18:17:44.38	133.86	46.77	
2025-01-11 18:17:44.59	133.81	46.84	
2025-01-11 18:17:44.79	133.75	46.91	
2025-01-11 18:17:45.00	133.69	46.98	
2025-01-11 18:17:45.20	133.63	47.05	
2025-01-11 18:17:45.41	133.57	47.12	
2025-01-11 18:17:45.61	133.52	47.19	
2025-01-11 18:17:45.82	133.46	47.26	
2025-01-11 18:17:46.02	133.40	47.33	
2025-01-11 18:17:46.23	133.34	47.40	
2025-01-11 18:17:46.43	133.28	47.47	
2025-01-11 18:17:46.64	133.22	47.55	
2025-01-11 18:17:46.84	133.16	47.61	
2025-01-11 18:17:47.04	133.10	47.68	
2025-01-11 18:17:47.25	133.04	47.76	
2025-01-11 18:17:47.45	132.98	47.83	
2025-01-11 18:17:47.66	132.91	47.90	
2025-01-11 18:17:47.86	132.85	47.97	
2025-01-11 18:17:48.07	132.79	48.04	
2025-01-11 18:17:48.28	132.72	48.11	
2025-01-11 18:17:48.49	132.66	48.19	
2025-01-11 18:17:48.70	132.60	48.26	
2025-01-11 18:17:48.90	132.53	48.33	
2025-01-11 18:17:49.11	132.47	48.40	
2025-01-11 18:17:49.31	132.41	48.47	
2025-01-11 18:17:49.52	132.34	48.55	
2025-01-11 18:17:49.72	132.28	48.62	
2025-01-11 18:17:49.93	132.21	48.69	
2025-01-11 18:17:50.15	132.14	48.77	
2025-01-11 18:17:50.35	132.08	48.84	
2025-01-11 18:17:50.56	132.01	48.91	
2025-01-11 18:17:50.76	131.95	48.98	
2025-01-11 18:17:50.97	131.88	49.06	
2025-01-11 18:17:51.17	131.81	49.13	
2025-01-11 18:17:51.38	131.74	49.20	
2025-01-11 18:17:51.58	131.68	49.27	
2025-01-11 18:17:51.79	131.61	49.35	
2025-01-11 18:17:51.99	131.54	49.42	
2025-01-11 18:17:52.20	131.47	49.49	
2025-01-11 18:17:52.40	131.40	49.57	
2025-01-11 18:17:52.61	131.33	49.64	
2025-01-11 18:17:52.81	131.27	49.71	
2025-01-11 18:17:53.02	131.19	49.79	
2025-01-11 18:17:53.22	131.13	49.86	
2025-01-11 18:17:53.43	131.05	49.93	
2025-01-11 18:17:53.63	130.98	50.01	
2025-01-11 18:17:53.84	130.91	50.08	
2025-01-11 18:17:54.04	130.84	50.15	
2025-01-11 18:17:54.25	130.77	50.23	
2025-01-11 18:17:54.45	130.70	50.30	
2025-01-11 18:17:54.66	130.62	50.38	
2025-01-11 18:17:54.86	130.55	50.45	
2025-01-11 18:17:55.07	130.48	50.52	
2025-01-11 18:17:55.27	130.41	50.60	
2025-01-11 18:17:55.47	130.33	50.67	
2025-01-11 18:17:55.68	130.26	50.74	
2025-01-11 18:17:55.89	130.18	50.82	
2025-01-11 18:17:56.09	130.11	50.89	
2025-01-11 18:17:56.30	130.03	50.97	
2025-01-11 18:17:56.50	129.96	51.04	
2025-01-11 18:17:56.71	129.88	51.12	
2025-01-11 18:17:56.91	129.80	51.19	
2025-01-11 18:17:57.12	129.72	51.27	
2025-01-11 18:17:57.32	129.65	51.34	
2025-01-11 18:17:57.53	129.57	51.42	
2025-01-11 18:17:57.73	129.49	51.49	
2025-01-11 18:17:57.94	129.41	51.57	
2025-01-11 18:17:58.15	129.33	51.64	
2025-01-11 18:17:58.35	129.25	51.72	
2025-01-11 18:17:58.55	129.17	51.79	
2025-01-11 18:17:58.76	129.09	51.87	
2025-01-11 18:17:58.96	129.01	51.94	
2025-01-11 18:17:59.17	128.93	52.02	
2025-01-11 18:17:59.37	128.85	52.09	
2025-01-11 18:17:59.58	128.77	52.17	
2025-01-11 18:17:59.78	128.69	52.24	
2025-01-11 18:17:59.99	128.60	52.32	
2025-01-11 18:18:00.19	128.52	52.39	
2025-01-11 18:18:00.40	128.43	52.47	
2025-01-11 18:18:00.60	128.35	52.55	
2025-01-11 18:18:00.81	128.27	52.62	
2025-01-11 18:18:01.01	128.18	52.70	
2025-01-11 18:18:01.22	128.10	52.78	
2025-01-11 18:18:01.43	128.01	52.85	
2025-01-11 18:18:01.63	127.92	52.93	
2025-01-11 18:18:01.83	127.84	53.00	
2025-01-11 18:18:02.04	127.75	53.08	
2025-01-11 18:18:02.25	127.66	53.16	
2025-01-11 18:18:02.45	127.57	53.23	
2025-01-11 18:18:02.66	127.48	53.31	
2025-01-11 18:18:02.86	127.39	53.39	
2025-01-11 18:18:03.07	127.30	53.46	
2025-01-11 18:18:03.27	127.21	53.54	
2025-01-11 18:18:03.48	127.12	53.62	
2025-01-11 18:18:03.68	127.03	53.69	
2025-01-11 18:18:03.89	126.94	53.77	
2025-01-11 18:18:04.09	126.85	53.85	
2025-01-11 18:18:04.30	126.75	53.92	
2025-01-11 18:18:04.50	126.66	54.00	
2025-01-11 18:18:04.71	126.57	54.08	
2025-01-11 18:18:04.91	126.48	54.15	
2025-01-11 18:18:05.12	126.38	54.23	
2025-01-11 18:18:05.32	126.29	54.31	
2025-01-11 18:18:05.53	126.19	54.38	
2025-01-11 18:18:05.74	126.09	54.46	
2025-01-11 18:18:05.94	126.00	54.54	
2025-01-11 18:18:06.16	125.89	54.62	
2025-01-11 18:18:06.36	125.80	54.70	
2025-01-11 18:18:06.57	125.70	54.78	
2025-01-11 18:18:06.77	125.60	54.85	
2025-01-11 18:18:06.98	125.50	54.93	
2025-01-11 18:18:07.18	125.40	55.01	
2025-01-11 18:18:07.39	125.30	55.08	
2025-01-11 18:18:07.59	125.20	55.16	
2025-01-11 18:18:07.80	125.09	55.24	
2025-01-11 18:18:08.01	124.99	55.32	
2025-01-11 18:18:08.21	124.89	55.39	
2025-01-11 18:18:08.41	124.79	55.47	
2025-01-11 18:18:08.62	124.68	55.55	
2025-01-11 18:18:08.83	124.57	55.63	
2025-01-11 18:18:09.03	124.47	55.70	
2025-01-11 18:18:09.24	124.36	55.78	
2025-01-11 18:18:09.44	124.26	55.86	
2025-01-11 18:18:09.65	124.15	55.94	
2025-01-11 18:18:09.85	124.05	56.01	
2025-01-11 18:18:10.06	123.93	56.09	
2025-01-11 18:18:10.26	123.83	56.17	
2025-01-11 18:18:10.47	123.72	56.25	
2025-01-11 18:18:10.68	123.60	56.33	
2025-01-11 18:18:10.88	123.50	56.40	
2025-01-11 18:18:11.09	123.38	56.48	
2025-01-11 18:18:11.29	123.27	56.56	
2025-01-11 18:18:11.50	123.16	56.64	
2025-01-11 18:18:11.70	123.05	56.71	
2025-01-11 18:18:11.91	122.93	56.79	
2025-01-11 18:18:12.11	122.82	56.87	
2025-01-11 18:18:12.32	122.70	56.95	
2025-01-11 18:18:12.54	122.58	57.03	
2025-01-11 18:18:12.74	122.46	57.11	
2025-01-11 18:18:12.95	122.34	57.19	
2025-01-11 18:18:13.15	122.23	57.26	
2025-01-11 18:18:13.36	122.11	57.34	
2025-01-11 18:18:13.56	121.99	57.42	
2025-01-11 18:18:13.77	121.87	57.50	
2025-01-11 18:18:13.97	121.75	57.57	
2025-01-11 18:18:14.18	121.63	57.65	
2025-01-11 18:18:14.38	121.51	57.73	
2025-01-11 18:18:14.59	121.38	57.81	
2025-01-11 18:18:14.79	121.26	57.88	
2025-01-11 18:18:15.00	121.13	57.96	
2025-01-11 18:18:15.20	121.01	58.04	
2025-01-11 18:18:15.41	120.88	58.12	
2025-01-11 18:18:15.61	120.76	58.19	
2025-01-11 18:18:15.82	120.63	58.27	
2025-01-11 18:18:16.03	120.50	58.35	
2025-01-11 18:18:16.23	120.37	58.43	
2025-01-11 18:18:16.44	120.24	58.51	
2025-01-11 18:18:16.64	120.12	58.58	
2025-01-11 18:18:16.85	119.98	58.66	
2025-01-11 18:18:17.05	119.85	58.74	
2025-01-11 18:18:17.26	119.72	58.82	
2025-01-11 18:18:17.46	119.59	58.89	
2025-01-11 18:18:17.67	119.45	58.97	
2025-01-11 18:18:17.89	119.31	59.05	
2025-01-11 18:18:18.09	119.17	59.13	
2025-01-11 18:18:18.30	119.03	59.21	
2025-01-11 18:18:18.50	118.90	59.28	
2025-01-11 18:18:18.71	118.76	59.36	
2025-01-11 18:18:18.93	118.61	59.44	
2025-01-11 18:18:19.13	118.47	59.52	
2025-01-11 18:18:19.34	118.33	59.60	
2025-01-11 18:18:19.54	118.19	59.67	
2025-01-11 18:18:19.75	118.05	59.75	
2025-01-11 18:18:19.95	117.91	59.82	
2025-01-11 18:18:20.16	117.76	59.90	
2025-01-11 18:18:20.36	117.62	59.98	
2025-01-11 18:18:20.57	117.47	60.05	
2025-01-11 18:18:20.77	117.33	60.13	
2025-01-11 18:18:20.98	117.17	60.21	
2025-01-11 18:18:21.18	117.03	60.28	
2025-01-11 18:18:21.39	116.88	60.36	
2025-01-11 18:18:21.59	116.73	60.43	
2025-01-11 18:18:21.80	116.58	60.51	
2025-01-11 18:18:22.00	116.43	60.58	
2025-01-11 18:18:22.21	116.27	60.66	
2025-01-11 18:18:22.42	116.11	60.74	
2025-01-11 18:18:22.62	115.96	60.81	
2025-01-11 18:18:22.83	115.80	60.89	
2025-01-11 18:18:23.03	115.65	60.96	
2025-01-11 18:18:23.24	115.49	61.04	
2025-01-11 18:18:23.44	115.33	61.11	
2025-01-11 18:18:23.64	115.18	61.19	
2025-01-11 18:18:23.85	115.01	61.26	
2025-01-11 18:18:24.06	114.85	61.34	
2025-01-11 18:18:24.26	114.69	61.41	
2025-01-11 18:18:24.46	114.53	61.49	
2025-01-11 18:18:24.67	114.36	61.56	
2025-01-11 18:18:24.87	114.20	61.63	
2025-01-11 18:18:25.08	114.03	61.71	
2025-01-11 18:18:25.28	113.87	61.78	
2025-01-11 18:18:25.49	113.70	61.86	
2025-01-11 18:18:25.69	113.53	61.93	
2025-01-11 18:18:25.90	113.36	62.01	
2025-01-11 18:18:26.10	113.19	62.08	
2025-01-11 18:18:26.32	113.00	62.16	
2025-01-11 18:18:26.52	112.83	62.23	
2025-01-11 18:18:26.73	112.66	62.30	
2025-01-11 18:18:26.94	112.48	62.38	
2025-01-11 18:18:27.14	112.30	62.45	
2025-01-11 18:18:27.34	112.13	62.52	
2025-01-11 18:18:27.55	111.95	62.59	
2025-01-11 18:18:27.75	111.77	62.66	
2025-01-11 18:18:27.96	111.59	62.74	
2025-01-11 18:18:28.16	111.41	62.81	
2025-01-11 18:18:28.37	111.22	62.88	
2025-01-11 18:18:28.57	111.04	62.95	
2025-01-11 18:18:28.78	110.85	63.02	
2025-01-11 18:18:28.98	110.67	63.09	
2025-01-11 18:18:29.19	110.48	63.17	
2025-01-11 18:18:29.39	110.29	63.24	
2025-01-11 18:18:29.60	110.10	63.31	
2025-01-11 18:18:29.80	109.91	63.38	
2025-01-11 18:18:30.01	109.71	63.45	
2025-01-11 18:18:30.22	109.51	63.52	
2025-01-11 18:18:30.42	109.33	63.59	
2025-01-11 18:18:30.63	109.12	63.66	
2025-01-11 18:18:30.83	108.93	63.73	
2025-01-11 18:18:31.04	108.73	63.80	
2025-01-11 18:18:31.24	108.53	63.87	
2025-01-11 18:18:31.45	108.33	63.94	
2025-01-11 18:18:31.65	108.13	64.01	
2025-01-11 18:18:31.86	107.92	64.08	
2025-01-11 18:18:32.06	107.73	64.14	
2025-01-11 18:18:32.27	107.52	64.21	
2025-01-11 18:18:32.48	107.30	64.28	
2025-01-11 18:18:32.68	107.10	64.35	
2025-01-11 18:18:32.88	106.90	64.41	
2025-01-11 18:18:33.09	106.68	64.48	
2025-01-11 18:18:33.30	106.46	64.55	
2025-01-11 18:18:33.50	106.26	64.61	
2025-01-11 18:18:33.71	106.04	64.68	
2025-01-11 18:18:33.91	105.83	64.75	
2025-01-11 18:18:34.12	105.61	64.81	
2025-01-11 18:18:34.32	105.39	64.88	
2025-01-11 18:18:34.53	105.17	64.94	
2025-01-11 18:18:34.73	104.95	65.01	
2025-01-11 18:18:34.94	104.73	65.07	
2025-01-11 18:18:35.14	104.51	65.14	
2025-01-11 18:18:35.35	104.28	65.20	
2025-01-11 18:18:35.55	104.06	65.27	
2025-01-11 18:18:35.76	103.83	65.33	
2025-01-11 18:18:35.96	103.60	65.39	
2025-01-11 18:18:36.16	103.38	65.45	
2025-01-11 18:18:36.37	103.14	65.52	
2025-01-11 18:18:36.58	102.91	65.58	
2025-01-11 18:18:36.78	102.68	65.64	
2025-01-11 18:18:36.99	102.44	65.70	
2025-01-11 18:18:37.20	102.20	65.77	
2025-01-11 18:18:37.41	101.95	65.83	
2025-01-11 18:18:37.62	101.71	65.89	
2025-01-11 18:18:37.82	101.47	65.95	
2025-01-11 18:18:38.03	101.23	66.01	
2025-01-11 18:18:38.23	100.99	66.07	
2025-01-11 18:18:38.44	100.74	66.13	
2025-01-11 18:18:38.64	100.50	66.19	
2025-01-11 18:18:38.85	100.25	66.25	
2025-01-11 18:18:39.05	100.01	66.31	
2025-01-11 18:18:39.27	99.74	66.37	
2025-01-11 18:18:39.47	99.49	66.42	
2025-01-11 18:18:39.68	99.23	66.48	
2025-01-11 18:18:39.89	98.97	66.54	
2025-01-11 18:18:40.09	98.73	66.60	
2025-01-11 18:18:40.29	98.48	66.65	
2025-01-11 18:18:40.50	98.21	66.71	
2025-01-11 18:18:40.71	97.95	66.76	
2025-01-11 18:18:40.91	97.69	66.82	
2025-01-11 18:18:41.12	97.42	66.87	
