passes_logs/2025/01/11/SPB_Silybum_02/SPB_Silybum_02__20250111_005730_AQUA_rec.log

#Pass ID: 20250111_005730_AQUA
#Satellite: AQUA
#Configuration: AQUA
#Start time: 2025-01-11 00:57:30

#Version: 2.0.20230423
#Station: SPB_Silybum_02
#Location: 30.233357 lon 59.946436 lat
#TLE: 1 27424U 02022A   25010.14776733  .00002050  00000+0  43097-3 0  9993
#TLE: 2 27424  98.3581 326.7682 0001515 116.0773 333.4276 14.60663937206917

#Time	Az	El	Level	Level2	SNR	BER	Gain	Gain2
2025-01-11 00:57:32.98	19.26	4.21	
2025-01-11 00:57:33.18	19.26	4.23	
2025-01-11 00:57:33.39	19.27	4.24	
2025-01-11 00:57:33.59	19.27	4.25	
2025-01-11 00:57:33.80	19.28	4.27	
2025-01-11 00:57:34.01	19.28	4.28	
2025-01-11 00:57:34.21	19.29	4.30	
2025-01-11 00:57:34.42	19.29	4.31	
2025-01-11 00:57:34.62	19.30	4.33	
2025-01-11 00:57:34.83	19.30	4.34	
2025-01-11 00:57:35.03	19.31	4.36	
2025-01-11 00:57:35.23	19.31	4.37	
2025-01-11 00:57:35.44	19.32	4.39	
2025-01-11 00:57:35.65	19.32	4.40	
2025-01-11 00:57:35.85	19.33	4.42	
2025-01-11 00:57:36.06	19.33	4.43	
2025-01-11 00:57:36.26	19.34	4.45	
2025-01-11 00:57:36.47	19.34	4.46	
2025-01-11 00:57:36.67	19.35	4.48	
2025-01-11 00:57:36.88	19.35	4.49	
2025-01-11 00:57:37.08	19.36	4.51	
2025-01-11 00:57:37.29	19.36	4.52	
2025-01-11 00:57:37.50	19.37	4.54	
2025-01-11 00:57:37.70	19.37	4.55	
2025-01-11 00:57:37.91	19.38	4.57	
2025-01-11 00:57:38.11	19.38	4.58	
2025-01-11 00:57:38.31	19.39	4.59	
2025-01-11 00:57:38.52	19.39	4.61	
2025-01-11 00:57:38.72	19.40	4.62	
2025-01-11 00:57:38.93	19.40	4.64	
2025-01-11 00:57:39.14	19.41	4.65	
2025-01-11 00:57:39.34	19.41	4.67	
2025-01-11 00:57:39.54	19.42	4.68	
2025-01-11 00:57:39.75	19.42	4.70	
2025-01-11 00:57:39.96	19.43	4.71	
2025-01-11 00:57:40.16	19.43	4.73	
2025-01-11 00:57:40.36	19.44	4.74	
2025-01-11 00:57:40.57	19.44	4.76	
2025-01-11 00:57:40.78	19.45	4.77	
2025-01-11 00:57:40.98	19.45	4.79	
2025-01-11 00:57:41.19	19.46	4.80	
2025-01-11 00:57:41.39	19.46	4.82	
2025-01-11 00:57:41.59	19.47	4.83	
2025-01-11 00:57:41.80	19.47	4.85	
2025-01-11 00:57:42.01	19.48	4.86	
2025-01-11 00:57:42.21	19.48	4.88	
2025-01-11 00:57:42.41	19.49	4.89	
2025-01-11 00:57:42.62	19.50	4.91	
2025-01-11 00:57:42.82	19.50	4.92	
2025-01-11 00:57:43.03	19.51	4.94	
2025-01-11 00:57:43.24	19.51	4.95	
2025-01-11 00:57:43.44	19.52	4.97	
2025-01-11 00:57:43.64	19.52	4.98	
2025-01-11 00:57:43.85	19.53	5.00	
2025-01-11 00:57:44.06	19.53	5.01	
2025-01-11 00:57:44.26	19.54	5.03	
2025-01-11 00:57:44.47	19.54	5.04	
2025-01-11 00:57:44.67	19.55	5.06	
2025-01-11 00:57:44.88	19.55	5.07	
2025-01-11 00:57:45.08	19.56	5.09	
2025-01-11 00:57:45.29	19.56	5.10	
2025-01-11 00:57:45.49	19.57	5.12	
2025-01-11 00:57:45.69	19.57	5.13	
2025-01-11 00:57:45.90	19.58	5.15	
2025-01-11 00:57:46.11	19.58	5.17	
2025-01-11 00:57:46.31	19.59	5.18	
2025-01-11 00:57:46.52	19.60	5.20	
2025-01-11 00:57:46.73	19.60	5.21	
2025-01-11 00:57:46.94	19.61	5.23	
2025-01-11 00:57:47.14	19.61	5.24	
2025-01-11 00:57:47.35	19.62	5.26	
2025-01-11 00:57:47.56	19.62	5.27	
2025-01-11 00:57:47.76	19.63	5.29	
2025-01-11 00:57:47.96	19.63	5.30	
2025-01-11 00:57:48.17	19.64	5.32	
2025-01-11 00:57:48.37	19.64	5.33	
2025-01-11 00:57:48.58	19.65	5.35	
2025-01-11 00:57:48.78	19.65	5.36	
2025-01-11 00:57:48.99	19.66	5.38	
2025-01-11 00:57:49.19	19.66	5.39	
2025-01-11 00:57:49.40	19.67	5.41	
2025-01-11 00:57:49.61	19.68	5.43	
2025-01-11 00:57:49.81	19.68	5.44	
2025-01-11 00:57:50.02	19.69	5.46	
2025-01-11 00:57:50.22	19.69	5.47	
2025-01-11 00:57:50.43	19.70	5.49	
2025-01-11 00:57:50.63	19.70	5.50	
2025-01-11 00:57:50.84	19.71	5.52	
2025-01-11 00:57:51.04	19.71	5.53	
2025-01-11 00:57:51.25	19.72	5.55	
2025-01-11 00:57:51.45	19.72	5.56	
2025-01-11 00:57:51.66	19.73	5.58	
2025-01-11 00:57:51.86	19.73	5.60	
2025-01-11 00:57:52.07	19.74	5.61	
2025-01-11 00:57:52.27	19.75	5.63	
2025-01-11 00:57:52.48	19.75	5.64	
2025-01-11 00:57:52.69	19.76	5.66	
2025-01-11 00:57:52.89	19.76	5.67	
2025-01-11 00:57:53.11	19.77	5.69	
2025-01-11 00:57:53.32	19.77	5.71	
2025-01-11 00:57:53.52	19.78	5.72	
2025-01-11 00:57:53.73	19.78	5.74	
2025-01-11 00:57:53.93	19.79	5.75	
2025-01-11 00:57:54.14	19.80	5.77	
2025-01-11 00:57:54.34	19.80	5.78	
2025-01-11 00:57:54.55	19.81	5.80	
2025-01-11 00:57:54.75	19.81	5.81	
2025-01-11 00:57:54.96	19.82	5.83	
2025-01-11 00:57:55.16	19.82	5.85	
2025-01-11 00:57:55.37	19.83	5.86	
2025-01-11 00:57:55.57	19.83	5.88	
2025-01-11 00:57:55.78	19.84	5.89	
2025-01-11 00:57:55.98	19.84	5.91	
2025-01-11 00:57:56.19	19.85	5.92	
2025-01-11 00:57:56.39	19.86	5.94	
2025-01-11 00:57:56.60	19.86	5.96	
2025-01-11 00:57:56.80	19.87	5.97	
2025-01-11 00:57:57.01	19.87	5.99	
2025-01-11 00:57:57.21	19.88	6.00	
2025-01-11 00:57:57.43	19.88	6.02	
2025-01-11 00:57:57.63	19.89	6.03	
2025-01-11 00:57:57.84	19.90	6.05	
2025-01-11 00:57:58.05	19.90	6.07	
2025-01-11 00:57:58.25	19.91	6.08	
2025-01-11 00:57:58.45	19.91	6.10	
2025-01-11 00:57:58.66	19.92	6.11	
2025-01-11 00:57:58.87	19.92	6.13	
2025-01-11 00:57:59.07	19.93	6.15	
2025-01-11 00:57:59.28	19.93	6.16	
2025-01-11 00:57:59.48	19.94	6.18	
2025-01-11 00:57:59.68	19.95	6.19	
2025-01-11 00:57:59.89	19.95	6.21	
2025-01-11 00:58:00.09	19.96	6.22	
2025-01-11 00:58:00.30	19.96	6.24	
2025-01-11 00:58:00.50	19.97	6.26	
2025-01-11 00:58:00.71	19.97	6.27	
2025-01-11 00:58:00.91	19.98	6.29	
2025-01-11 00:58:01.12	19.99	6.30	
2025-01-11 00:58:01.33	19.99	6.32	
2025-01-11 00:58:01.53	20.00	6.34	
2025-01-11 00:58:01.73	20.00	6.35	
2025-01-11 00:58:01.94	20.01	6.37	
2025-01-11 00:58:02.15	20.01	6.38	
2025-01-11 00:58:02.35	20.02	6.40	
2025-01-11 00:58:02.56	20.03	6.42	
2025-01-11 00:58:02.77	20.03	6.43	
2025-01-11 00:58:02.98	20.04	6.45	
2025-01-11 00:58:03.19	20.04	6.47	
2025-01-11 00:58:03.39	20.05	6.48	
2025-01-11 00:58:03.60	20.05	6.50	
2025-01-11 00:58:03.80	20.06	6.51	
2025-01-11 00:58:04.01	20.07	6.53	
2025-01-11 00:58:04.21	20.07	6.55	
2025-01-11 00:58:04.42	20.08	6.56	
2025-01-11 00:58:04.62	20.08	6.58	
2025-01-11 00:58:04.83	20.09	6.59	
2025-01-11 00:58:05.03	20.09	6.61	
2025-01-11 00:58:05.24	20.10	6.63	
2025-01-11 00:58:05.44	20.11	6.64	
2025-01-11 00:58:05.65	20.11	6.66	
2025-01-11 00:58:05.85	20.12	6.67	
2025-01-11 00:58:06.06	20.12	6.69	
2025-01-11 00:58:06.26	20.13	6.71	
2025-01-11 00:58:06.47	20.14	6.72	
2025-01-11 00:58:06.67	20.14	6.74	
2025-01-11 00:58:06.88	20.15	6.76	
2025-01-11 00:58:07.09	20.15	6.77	
2025-01-11 00:58:07.29	20.16	6.79	
2025-01-11 00:58:07.50	20.16	6.81	
2025-01-11 00:58:07.70	20.17	6.82	
2025-01-11 00:58:07.91	20.18	6.84	
2025-01-11 00:58:08.12	20.18	6.85	
2025-01-11 00:58:08.33	20.19	6.87	
2025-01-11 00:58:08.54	20.19	6.89	
2025-01-11 00:58:08.74	20.20	6.90	
2025-01-11 00:58:08.95	20.21	6.92	
2025-01-11 00:58:09.15	20.21	6.94	
2025-01-11 00:58:09.35	20.22	6.95	
2025-01-11 00:58:09.56	20.22	6.97	
2025-01-11 00:58:09.76	20.23	6.99	
2025-01-11 00:58:09.97	20.24	7.00	
2025-01-11 00:58:10.17	20.24	7.02	
2025-01-11 00:58:10.38	20.25	7.03	
2025-01-11 00:58:10.58	20.25	7.05	
2025-01-11 00:58:10.79	20.26	7.07	
2025-01-11 00:58:10.99	20.27	7.08	
2025-01-11 00:58:11.20	20.27	7.10	
2025-01-11 00:58:11.40	20.28	7.12	
2025-01-11 00:58:11.61	20.28	7.13	
2025-01-11 00:58:11.81	20.29	7.15	
2025-01-11 00:58:12.02	20.30	7.17	
2025-01-11 00:58:12.22	20.30	7.18	
2025-01-11 00:58:12.43	20.31	7.20	
2025-01-11 00:58:12.63	20.31	7.22	
2025-01-11 00:58:12.84	20.32	7.23	
2025-01-11 00:58:13.05	20.33	7.25	
2025-01-11 00:58:13.25	20.33	7.27	
2025-01-11 00:58:13.46	20.34	7.28	
2025-01-11 00:58:13.66	20.34	7.30	
2025-01-11 00:58:13.87	20.35	7.32	
2025-01-11 00:58:14.07	20.36	7.33	
2025-01-11 00:58:14.28	20.36	7.35	
2025-01-11 00:58:14.48	20.37	7.37	
2025-01-11 00:58:14.69	20.37	7.38	
2025-01-11 00:58:14.89	20.38	7.40	
2025-01-11 00:58:15.10	20.39	7.42	
2025-01-11 00:58:15.30	20.39	7.43	
2025-01-11 00:58:15.51	20.40	7.45	
2025-01-11 00:58:15.71	20.40	7.47	
2025-01-11 00:58:15.92	20.41	7.48	
2025-01-11 00:58:16.12	20.42	7.50	
2025-01-11 00:58:16.33	20.42	7.52	
2025-01-11 00:58:16.53	20.43	7.53	
2025-01-11 00:58:16.74	20.43	7.55	
2025-01-11 00:58:16.94	20.44	7.57	
2025-01-11 00:58:17.15	20.45	7.58	
2025-01-11 00:58:17.35	20.45	7.60	
2025-01-11 00:58:17.56	20.46	7.62	
2025-01-11 00:58:17.76	20.47	7.63	
2025-01-11 00:58:17.97	20.47	7.65	
2025-01-11 00:58:18.17	20.48	7.67	
2025-01-11 00:58:18.38	20.48	7.69	
2025-01-11 00:58:18.58	20.49	7.70	
2025-01-11 00:58:18.78	20.50	7.72	
2025-01-11 00:58:18.99	20.50	7.74	
2025-01-11 00:58:19.19	20.51	7.75	
2025-01-11 00:58:19.40	20.51	7.77	
2025-01-11 00:58:19.60	20.52	7.79	
2025-01-11 00:58:19.81	20.53	7.80	
2025-01-11 00:58:20.01	20.53	7.82	
2025-01-11 00:58:20.22	20.54	7.84	
2025-01-11 00:58:20.42	20.55	7.85	
2025-01-11 00:58:20.63	20.55	7.87	
2025-01-11 00:58:20.83	20.56	7.89	
2025-01-11 00:58:21.04	20.56	7.91	
2025-01-11 00:58:21.24	20.57	7.92	
2025-01-11 00:58:21.45	20.58	7.94	
2025-01-11 00:58:21.65	20.58	7.96	
2025-01-11 00:58:21.85	20.59	7.97	
2025-01-11 00:58:22.06	20.60	7.99	
2025-01-11 00:58:22.26	20.60	8.01	
2025-01-11 00:58:22.47	20.61	8.02	
2025-01-11 00:58:22.68	20.62	8.04	
2025-01-11 00:58:22.88	20.62	8.06	
2025-01-11 00:58:23.09	20.63	8.08	
2025-01-11 00:58:23.29	20.63	8.09	
2025-01-11 00:58:23.50	20.64	8.11	
2025-01-11 00:58:23.70	20.65	8.13	
2025-01-11 00:58:23.91	20.65	8.15	
2025-01-11 00:58:24.11	20.66	8.16	
2025-01-11 00:58:24.32	20.67	8.18	
2025-01-11 00:58:24.52	20.67	8.20	
2025-01-11 00:58:24.73	20.68	8.21	
2025-01-11 00:58:24.94	20.69	8.23	
2025-01-11 00:58:25.15	20.69	8.25	
2025-01-11 00:58:25.36	20.70	8.27	
2025-01-11 00:58:25.56	20.70	8.28	
2025-01-11 00:58:25.77	20.71	8.30	
2025-01-11 00:58:25.98	20.72	8.32	
2025-01-11 00:58:26.18	20.72	8.34	
2025-01-11 00:58:26.38	20.73	8.35	
2025-01-11 00:58:26.59	20.74	8.37	
2025-01-11 00:58:26.79	20.74	8.39	
2025-01-11 00:58:27.00	20.75	8.41	
2025-01-11 00:58:27.20	20.76	8.42	
2025-01-11 00:58:27.41	20.76	8.44	
2025-01-11 00:58:27.61	20.77	8.46	
2025-01-11 00:58:27.82	20.78	8.48	
2025-01-11 00:58:28.02	20.78	8.49	
2025-01-11 00:58:28.23	20.79	8.51	
2025-01-11 00:58:28.43	20.80	8.53	
2025-01-11 00:58:28.64	20.80	8.55	
2025-01-11 00:58:28.85	20.81	8.56	
2025-01-11 00:58:29.05	20.82	8.58	
2025-01-11 00:58:29.26	20.82	8.60	
2025-01-11 00:58:29.46	20.83	8.62	
2025-01-11 00:58:29.67	20.84	8.64	
2025-01-11 00:58:29.87	20.84	8.65	
2025-01-11 00:58:30.08	20.85	8.67	
2025-01-11 00:58:30.28	20.85	8.69	
2025-01-11 00:58:30.49	20.86	8.71	
2025-01-11 00:58:30.69	20.87	8.72	
2025-01-11 00:58:30.90	20.87	8.74	
2025-01-11 00:58:31.10	20.88	8.76	
2025-01-11 00:58:31.31	20.89	8.78	
2025-01-11 00:58:31.51	20.89	8.79	
2025-01-11 00:58:31.71	20.90	8.81	
2025-01-11 00:58:31.92	20.91	8.83	
2025-01-11 00:58:32.12	20.91	8.85	
2025-01-11 00:58:32.33	20.92	8.86	
2025-01-11 00:58:32.53	20.93	8.88	
2025-01-11 00:58:32.74	20.93	8.90	
2025-01-11 00:58:32.94	20.94	8.92	
2025-01-11 00:58:33.15	20.95	8.94	
2025-01-11 00:58:33.36	20.95	8.95	
2025-01-11 00:58:33.56	20.96	8.97	
2025-01-11 00:58:33.77	20.97	8.99	
2025-01-11 00:58:33.97	20.97	9.01	
2025-01-11 00:58:34.18	20.98	9.03	
2025-01-11 00:58:34.38	20.99	9.04	
2025-01-11 00:58:34.59	21.00	9.06	
2025-01-11 00:58:34.79	21.00	9.08	
2025-01-11 00:58:35.00	21.01	9.10	
2025-01-11 00:58:35.20	21.02	9.12	
2025-01-11 00:58:35.41	21.02	9.13	
2025-01-11 00:58:35.61	21.03	9.15	
2025-01-11 00:58:35.83	21.04	9.17	
2025-01-11 00:58:36.04	21.04	9.19	
2025-01-11 00:58:36.24	21.05	9.21	
2025-01-11 00:58:36.45	21.06	9.23	
2025-01-11 00:58:36.65	21.06	9.24	
2025-01-11 00:58:36.86	21.07	9.26	
2025-01-11 00:58:37.06	21.08	9.28	
2025-01-11 00:58:37.27	21.08	9.30	
2025-01-11 00:58:37.48	21.09	9.32	
2025-01-11 00:58:37.68	21.10	9.33	
2025-01-11 00:58:37.88	21.10	9.35	
2025-01-11 00:58:38.09	21.11	9.37	
2025-01-11 00:58:38.29	21.12	9.39	
2025-01-11 00:58:38.50	21.13	9.41	
2025-01-11 00:58:38.70	21.13	9.42	
2025-01-11 00:58:38.91	21.14	9.44	
2025-01-11 00:58:39.11	21.15	9.46	
2025-01-11 00:58:39.32	21.15	9.48	
2025-01-11 00:58:39.52	21.16	9.50	
2025-01-11 00:58:39.73	21.17	9.52	
2025-01-11 00:58:39.93	21.17	9.53	
2025-01-11 00:58:40.14	21.18	9.55	
2025-01-11 00:58:40.34	21.19	9.57	
2025-01-11 00:58:40.55	21.19	9.59	
2025-01-11 00:58:40.75	21.20	9.61	
2025-01-11 00:58:40.96	21.21	9.63	
2025-01-11 00:58:41.16	21.22	9.64	
2025-01-11 00:58:41.37	21.22	9.66	
2025-01-11 00:58:41.57	21.23	9.68	
2025-01-11 00:58:41.78	21.24	9.70	
2025-01-11 00:58:41.99	21.24	9.72	
2025-01-11 00:58:42.19	21.25	9.74	
2025-01-11 00:58:42.39	21.26	9.75	
2025-01-11 00:58:42.60	21.27	9.77	
2025-01-11 00:58:42.80	21.27	9.79	
2025-01-11 00:58:43.01	21.28	9.81	
2025-01-11 00:58:43.23	21.29	9.83	
2025-01-11 00:58:43.43	21.29	9.85	
2025-01-11 00:58:43.64	21.30	9.87	
2025-01-11 00:58:43.84	21.31	9.89	
2025-01-11 00:58:44.05	21.32	9.91	
2025-01-11 00:58:44.25	21.32	9.92	
2025-01-11 00:58:44.45	21.33	9.94	
2025-01-11 00:58:44.66	21.34	9.96	
2025-01-11 00:58:44.86	21.34	9.98	
2025-01-11 00:58:45.07	21.35	10.00	
2025-01-11 00:58:45.28	21.36	10.02	
2025-01-11 00:58:45.48	21.37	10.04	
2025-01-11 00:58:45.68	21.37	10.05	
2025-01-11 00:58:45.89	21.38	10.07	
2025-01-11 00:58:46.10	21.39	10.09	
2025-01-11 00:58:46.30	21.39	10.11	
2025-01-11 00:58:46.50	21.40	10.13	
2025-01-11 00:58:46.71	21.41	10.15	
2025-01-11 00:58:46.91	21.42	10.17	
2025-01-11 00:58:47.12	21.42	10.19	
2025-01-11 00:58:47.32	21.43	10.20	
2025-01-11 00:58:47.53	21.44	10.22	
2025-01-11 00:58:47.73	21.44	10.24	
2025-01-11 00:58:47.94	21.45	10.26	
2025-01-11 00:58:48.15	21.46	10.28	
2025-01-11 00:58:48.35	21.47	10.30	
2025-01-11 00:58:48.55	21.47	10.32	
2025-01-11 00:58:48.76	21.48	10.34	
2025-01-11 00:58:48.97	21.49	10.36	
2025-01-11 00:58:49.17	21.50	10.37	
2025-01-11 00:58:49.38	21.50	10.39	
2025-01-11 00:58:49.58	21.51	10.41	
2025-01-11 00:58:49.79	21.52	10.43	
2025-01-11 00:58:49.99	21.53	10.45	
2025-01-11 00:58:50.20	21.53	10.47	
2025-01-11 00:58:50.40	21.54	10.49	
2025-01-11 00:58:50.61	21.55	10.51	
2025-01-11 00:58:50.81	21.56	10.53	
2025-01-11 00:58:51.02	21.56	10.55	
2025-01-11 00:58:51.22	21.57	10.57	
2025-01-11 00:58:51.43	21.58	10.59	
2025-01-11 00:58:51.64	21.59	10.61	
2025-01-11 00:58:51.86	21.59	10.63	
2025-01-11 00:58:52.06	21.60	10.64	
2025-01-11 00:58:52.27	21.61	10.66	
2025-01-11 00:58:52.47	21.62	10.68	
2025-01-11 00:58:52.68	21.62	10.70	
2025-01-11 00:58:52.88	21.63	10.72	
2025-01-11 00:58:53.09	21.64	10.74	
2025-01-11 00:58:53.29	21.65	10.76	
2025-01-11 00:58:53.50	21.65	10.78	
2025-01-11 00:58:53.70	21.66	10.80	
2025-01-11 00:58:53.92	21.67	10.82	
2025-01-11 00:58:54.13	21.68	10.84	
2025-01-11 00:58:54.33	21.68	10.86	
2025-01-11 00:58:54.53	21.69	10.88	
2025-01-11 00:58:54.74	21.70	10.90	
2025-01-11 00:58:54.94	21.71	10.92	
2025-01-11 00:58:55.15	21.71	10.94	
2025-01-11 00:58:55.35	21.72	10.96	
2025-01-11 00:58:55.56	21.73	10.98	
2025-01-11 00:58:55.77	21.74	11.00	
2025-01-11 00:58:55.97	21.75	11.01	
2025-01-11 00:58:56.17	21.75	11.03	
2025-01-11 00:58:56.38	21.76	11.05	
2025-01-11 00:58:56.58	21.77	11.07	
2025-01-11 00:58:56.79	21.78	11.09	
2025-01-11 00:58:56.99	21.78	11.11	
2025-01-11 00:58:57.19	21.79	11.13	
2025-01-11 00:58:57.40	21.80	11.15	
2025-01-11 00:58:57.60	21.81	11.17	
2025-01-11 00:58:57.81	21.81	11.19	
2025-01-11 00:58:58.02	21.82	11.21	
2025-01-11 00:58:58.22	21.83	11.23	
2025-01-11 00:58:58.42	21.84	11.25	
2025-01-11 00:58:58.63	21.85	11.27	
2025-01-11 00:58:58.84	21.85	11.29	
2025-01-11 00:58:59.04	21.86	11.31	
2025-01-11 00:58:59.26	21.87	11.33	
2025-01-11 00:58:59.46	21.88	11.35	
2025-01-11 00:58:59.67	21.89	11.37	
2025-01-11 00:58:59.87	21.89	11.39	
2025-01-11 00:59:00.08	21.90	11.41	
2025-01-11 00:59:00.28	21.91	11.43	
2025-01-11 00:59:00.49	21.92	11.45	
2025-01-11 00:59:00.69	21.92	11.47	
2025-01-11 00:59:00.90	21.93	11.49	
2025-01-11 00:59:01.11	21.94	11.51	
2025-01-11 00:59:01.31	21.95	11.53	
2025-01-11 00:59:01.52	21.96	11.55	
2025-01-11 00:59:01.72	21.96	11.57	
2025-01-11 00:59:01.92	21.97	11.59	
2025-01-11 00:59:02.13	21.98	11.61	
2025-01-11 00:59:02.33	21.99	11.63	
2025-01-11 00:59:02.54	22.00	11.65	
2025-01-11 00:59:02.74	22.00	11.67	
2025-01-11 00:59:02.95	22.01	11.69	
2025-01-11 00:59:03.16	22.02	11.71	
2025-01-11 00:59:03.36	22.03	11.73	
2025-01-11 00:59:03.56	22.04	11.75	
2025-01-11 00:59:03.77	22.04	11.77	
2025-01-11 00:59:03.97	22.05	11.79	
2025-01-11 00:59:04.18	22.06	11.81	
2025-01-11 00:59:04.39	22.07	11.83	
2025-01-11 00:59:04.60	22.08	11.85	
2025-01-11 00:59:04.81	22.09	11.87	
2025-01-11 00:59:05.02	22.09	11.89	
2025-01-11 00:59:05.22	22.10	11.91	
2025-01-11 00:59:05.43	22.11	11.94	
2025-01-11 00:59:05.63	22.12	11.96	
2025-01-11 00:59:05.84	22.13	11.98	
2025-01-11 00:59:06.04	22.13	12.00	
2025-01-11 00:59:06.25	22.14	12.02	
2025-01-11 00:59:06.45	22.15	12.04	
2025-01-11 00:59:06.66	22.16	12.06	
2025-01-11 00:59:06.86	22.17	12.08	
2025-01-11 00:59:07.07	22.18	12.10	
2025-01-11 00:59:07.27	22.18	12.12	
2025-01-11 00:59:07.48	22.19	12.14	
2025-01-11 00:59:07.68	22.20	12.16	
2025-01-11 00:59:07.89	22.21	12.18	
2025-01-11 00:59:08.09	22.22	12.20	
2025-01-11 00:59:08.30	22.22	12.22	
2025-01-11 00:59:08.50	22.23	12.24	
2025-01-11 00:59:08.71	22.24	12.26	
2025-01-11 00:59:08.91	22.25	12.28	
2025-01-11 00:59:09.12	22.26	12.31	
2025-01-11 00:59:09.32	22.27	12.33	
2025-01-11 00:59:09.53	22.27	12.35	
2025-01-11 00:59:09.73	22.28	12.37	
2025-01-11 00:59:09.94	22.29	12.39	
2025-01-11 00:59:10.14	22.30	12.41	
2025-01-11 00:59:10.35	22.31	12.43	
2025-01-11 00:59:10.55	22.32	12.45	
2025-01-11 00:59:10.76	22.33	12.47	
2025-01-11 00:59:10.96	22.33	12.49	
2025-01-11 00:59:11.17	22.34	12.51	
2025-01-11 00:59:11.38	22.35	12.53	
2025-01-11 00:59:11.58	22.36	12.56	
2025-01-11 00:59:11.79	22.37	12.58	
2025-01-11 00:59:12.00	22.38	12.60	
2025-01-11 00:59:12.21	22.39	12.62	
2025-01-11 00:59:12.41	22.39	12.64	
2025-01-11 00:59:12.62	22.40	12.66	
2025-01-11 00:59:12.82	22.41	12.68	
2025-01-11 00:59:13.03	22.42	12.70	
2025-01-11 00:59:13.23	22.43	12.72	
2025-01-11 00:59:13.44	22.44	12.75	
2025-01-11 00:59:13.64	22.44	12.77	
2025-01-11 00:59:13.85	22.45	12.79	
2025-01-11 00:59:14.05	22.46	12.81	
2025-01-11 00:59:14.26	22.47	12.83	
2025-01-11 00:59:14.46	22.48	12.85	
2025-01-11 00:59:14.67	22.49	12.87	
2025-01-11 00:59:14.88	22.50	12.89	
2025-01-11 00:59:15.08	22.51	12.92	
2025-01-11 00:59:15.29	22.51	12.94	
2025-01-11 00:59:15.49	22.52	12.96	
2025-01-11 00:59:15.70	22.53	12.98	
2025-01-11 00:59:15.90	22.54	13.00	
2025-01-11 00:59:16.11	22.55	13.02	
2025-01-11 00:59:16.32	22.56	13.04	
2025-01-11 00:59:16.53	22.57	13.07	
2025-01-11 00:59:16.73	22.58	13.09	
2025-01-11 00:59:16.94	22.58	13.11	
2025-01-11 00:59:17.15	22.59	13.13	
2025-01-11 00:59:17.35	22.60	13.15	
2025-01-11 00:59:17.55	22.61	13.17	
2025-01-11 00:59:17.76	22.62	13.20	
2025-01-11 00:59:17.96	22.63	13.22	
2025-01-11 00:59:18.17	22.64	13.24	
2025-01-11 00:59:18.37	22.65	13.26	
2025-01-11 00:59:18.58	22.66	13.28	
2025-01-11 00:59:18.78	22.66	13.30	
2025-01-11 00:59:18.99	22.67	13.33	
2025-01-11 00:59:19.19	22.68	13.35	
2025-01-11 00:59:19.40	22.69	13.37	
2025-01-11 00:59:19.60	22.70	13.39	
2025-01-11 00:59:19.81	22.71	13.41	
2025-01-11 00:59:20.01	22.72	13.43	
2025-01-11 00:59:20.22	22.73	13.46	
2025-01-11 00:59:20.42	22.74	13.48	
2025-01-11 00:59:20.63	22.74	13.50	
2025-01-11 00:59:20.83	22.75	13.52	
2025-01-11 00:59:21.04	22.76	13.54	
2025-01-11 00:59:21.25	22.77	13.57	
2025-01-11 00:59:21.45	22.78	13.59	
2025-01-11 00:59:21.65	22.79	13.61	
2025-01-11 00:59:21.86	22.80	13.63	
2025-01-11 00:59:22.07	22.81	13.65	
2025-01-11 00:59:22.27	22.82	13.67	
2025-01-11 00:59:22.48	22.83	13.70	
2025-01-11 00:59:22.68	22.84	13.72	
2025-01-11 00:59:22.89	22.84	13.74	
2025-01-11 00:59:23.09	22.85	13.76	
2025-01-11 00:59:23.30	22.86	13.79	
2025-01-11 00:59:23.51	22.87	13.81	
2025-01-11 00:59:23.72	22.88	13.83	
2025-01-11 00:59:23.93	22.89	13.85	
2025-01-11 00:59:24.13	22.90	13.88	
2025-01-11 00:59:24.34	22.91	13.90	
2025-01-11 00:59:24.55	22.92	13.92	
2025-01-11 00:59:24.75	22.93	13.94	
2025-01-11 00:59:24.96	22.94	13.97	
2025-01-11 00:59:25.16	22.95	13.99	
2025-01-11 00:59:25.37	22.96	14.01	
2025-01-11 00:59:25.57	22.97	14.03	
2025-01-11 00:59:25.77	22.97	14.05	
2025-01-11 00:59:25.98	22.98	14.08	
2025-01-11 00:59:26.18	22.99	14.10	
2025-01-11 00:59:26.39	23.00	14.12	
2025-01-11 00:59:26.60	23.01	14.14	
2025-01-11 00:59:26.80	23.02	14.17	
2025-01-11 00:59:27.00	23.03	14.19	
2025-01-11 00:59:27.21	23.04	14.21	
2025-01-11 00:59:27.41	23.05	14.23	
2025-01-11 00:59:27.62	23.06	14.26	
2025-01-11 00:59:27.82	23.07	14.28	
2025-01-11 00:59:28.03	23.08	14.30	
2025-01-11 00:59:28.23	23.09	14.32	
2025-01-11 00:59:28.44	23.10	14.35	
2025-01-11 00:59:28.64	23.11	14.37	
2025-01-11 00:59:28.85	23.12	14.39	
2025-01-11 00:59:29.05	23.13	14.41	
2025-01-11 00:59:29.26	23.14	14.44	
2025-01-11 00:59:29.46	23.15	14.46	
2025-01-11 00:59:29.67	23.15	14.48	
2025-01-11 00:59:29.87	23.16	14.51	
2025-01-11 00:59:30.08	23.17	14.53	
2025-01-11 00:59:30.28	23.18	14.55	
2025-01-11 00:59:30.48	23.19	14.57	
2025-01-11 00:59:30.69	23.20	14.60	
2025-01-11 00:59:30.89	23.21	14.62	
2025-01-11 00:59:31.10	23.22	14.64	
2025-01-11 00:59:31.30	23.23	14.67	
2025-01-11 00:59:31.50	23.24	14.69	
2025-01-11 00:59:31.71	23.25	14.71	
2025-01-11 00:59:31.92	23.26	14.74	
2025-01-11 00:59:32.12	23.27	14.76	
2025-01-11 00:59:32.34	23.28	14.78	
2025-01-11 00:59:32.54	23.29	14.81	
2025-01-11 00:59:32.75	23.30	14.83	
2025-01-11 00:59:32.96	23.31	14.85	
2025-01-11 00:59:33.16	23.32	14.88	
2025-01-11 00:59:33.37	23.33	14.90	
2025-01-11 00:59:33.57	23.34	14.92	
2025-01-11 00:59:33.78	23.35	14.95	
2025-01-11 00:59:33.98	23.36	14.97	
2025-01-11 00:59:34.19	23.37	14.99	
2025-01-11 00:59:34.39	23.38	15.02	
2025-01-11 00:59:34.60	23.39	15.04	
2025-01-11 00:59:34.80	23.40	15.06	
2025-01-11 00:59:35.01	23.41	15.09	
2025-01-11 00:59:35.21	23.42	15.11	
2025-01-11 00:59:35.42	23.43	15.13	
2025-01-11 00:59:35.62	23.44	15.16	
2025-01-11 00:59:35.83	23.45	15.18	
2025-01-11 00:59:36.03	23.46	15.20	
2025-01-11 00:59:36.24	23.47	15.23	
2025-01-11 00:59:36.44	23.48	15.25	
2025-01-11 00:59:36.65	23.49	15.27	
2025-01-11 00:59:36.85	23.50	15.30	
2025-01-11 00:59:37.06	23.51	15.32	
2025-01-11 00:59:37.26	23.52	15.34	
2025-01-11 00:59:37.47	23.53	15.37	
2025-01-11 00:59:37.67	23.54	15.39	
2025-01-11 00:59:37.88	23.55	15.42	
2025-01-11 00:59:38.08	23.56	15.44	
2025-01-11 00:59:38.29	23.57	15.46	
2025-01-11 00:59:38.49	23.58	15.49	
2025-01-11 00:59:38.70	23.59	15.51	
2025-01-11 00:59:38.90	23.60	15.54	
2025-01-11 00:59:39.11	23.61	15.56	
2025-01-11 00:59:39.31	23.62	15.58	
2025-01-11 00:59:39.52	23.63	15.61	
2025-01-11 00:59:39.72	23.64	15.63	
2025-01-11 00:59:39.93	23.65	15.66	
2025-01-11 00:59:40.13	23.66	15.68	
2025-01-11 00:59:40.34	23.68	15.70	
2025-01-11 00:59:40.55	23.69	15.73	
2025-01-11 00:59:40.75	23.70	15.75	
2025-01-11 00:59:40.95	23.71	15.78	
2025-01-11 00:59:41.16	23.72	15.80	
2025-01-11 00:59:41.36	23.73	15.82	
2025-01-11 00:59:41.56	23.74	15.85	
2025-01-11 00:59:41.77	23.75	15.87	
2025-01-11 00:59:41.97	23.76	15.90	
2025-01-11 00:59:42.17	23.77	15.92	
2025-01-11 00:59:42.38	23.78	15.94	
2025-01-11 00:59:42.58	23.79	15.97	
2025-01-11 00:59:42.78	23.80	15.99	
2025-01-11 00:59:42.99	23.81	16.02	
2025-01-11 00:59:43.20	23.82	16.04	
2025-01-11 00:59:43.40	23.83	16.07	
2025-01-11 00:59:43.61	23.84	16.09	
2025-01-11 00:59:43.81	23.85	16.11	
2025-01-11 00:59:44.02	23.86	16.14	
2025-01-11 00:59:44.22	23.88	16.16	
2025-01-11 00:59:44.43	23.89	16.19	
2025-01-11 00:59:44.63	23.90	16.21	
2025-01-11 00:59:44.84	23.91	16.24	
2025-01-11 00:59:45.06	23.92	16.27	
2025-01-11 00:59:45.26	23.93	16.29	
2025-01-11 00:59:45.47	23.94	16.31	
2025-01-11 00:59:45.67	23.95	16.34	
2025-01-11 00:59:45.88	23.96	16.36	
2025-01-11 00:59:46.08	23.97	16.39	
2025-01-11 00:59:46.29	23.98	16.41	
2025-01-11 00:59:46.49	23.99	16.44	
2025-01-11 00:59:46.70	24.01	16.46	
2025-01-11 00:59:46.91	24.02	16.49	
2025-01-11 00:59:47.11	24.03	16.51	
2025-01-11 00:59:47.32	24.04	16.54	
2025-01-11 00:59:47.52	24.05	16.56	
2025-01-11 00:59:47.73	24.06	16.59	
2025-01-11 00:59:47.93	24.07	16.61	
2025-01-11 00:59:48.14	24.08	16.64	
2025-01-11 00:59:48.34	24.09	16.66	
2025-01-11 00:59:48.55	24.11	16.69	
2025-01-11 00:59:48.75	24.12	16.71	
2025-01-11 00:59:48.96	24.13	16.74	
2025-01-11 00:59:49.16	24.14	16.76	
2025-01-11 00:59:49.37	24.15	16.79	
2025-01-11 00:59:49.57	24.16	16.81	
2025-01-11 00:59:49.78	24.17	16.84	
2025-01-11 00:59:49.98	24.18	16.87	
2025-01-11 00:59:50.19	24.19	16.89	
2025-01-11 00:59:50.39	24.21	16.92	
2025-01-11 00:59:50.60	24.22	16.94	
2025-01-11 00:59:50.81	24.23	16.97	
2025-01-11 00:59:51.01	24.24	16.99	
2025-01-11 00:59:51.22	24.25	17.02	
2025-01-11 00:59:51.42	24.26	17.04	
2025-01-11 00:59:51.62	24.27	17.07	
2025-01-11 00:59:51.83	24.29	17.10	
2025-01-11 00:59:52.04	24.30	17.12	
2025-01-11 00:59:52.24	24.31	17.15	
2025-01-11 00:59:52.45	24.32	17.17	
2025-01-11 00:59:52.65	24.33	17.20	
2025-01-11 00:59:52.86	24.34	17.22	
2025-01-11 00:59:53.06	24.35	17.25	
2025-01-11 00:59:53.27	24.37	17.28	
2025-01-11 00:59:53.48	24.38	17.30	
2025-01-11 00:59:53.69	24.39	17.33	
2025-01-11 00:59:53.89	24.40	17.35	
2025-01-11 00:59:54.10	24.41	17.38	
2025-01-11 00:59:54.30	24.42	17.41	
2025-01-11 00:59:54.51	24.44	17.43	
2025-01-11 00:59:54.71	24.45	17.46	
2025-01-11 00:59:54.92	24.46	17.48	
2025-01-11 00:59:55.12	24.47	17.51	
2025-01-11 00:59:55.33	24.48	17.54	
2025-01-11 00:59:55.53	24.49	17.56	
2025-01-11 00:59:55.74	24.51	17.59	
2025-01-11 00:59:55.94	24.52	17.61	
2025-01-11 00:59:56.15	24.53	17.64	
2025-01-11 00:59:56.35	24.54	17.67	
2025-01-11 00:59:56.56	24.55	17.69	
2025-01-11 00:59:56.76	24.56	17.72	
2025-01-11 00:59:56.97	24.58	17.75	
2025-01-11 00:59:57.17	24.59	17.77	
2025-01-11 00:59:57.38	24.60	17.80	
2025-01-11 00:59:57.58	24.61	17.82	
2025-01-11 00:59:57.80	24.63	17.85	
2025-01-11 00:59:58.01	24.64	17.88	
2025-01-11 00:59:58.21	24.65	17.91	
2025-01-11 00:59:58.42	24.66	17.93	
2025-01-11 00:59:58.62	24.67	17.96	
2025-01-11 00:59:58.82	24.68	17.99	
2025-01-11 00:59:59.03	24.70	18.01	
2025-01-11 00:59:59.24	24.71	18.04	
2025-01-11 00:59:59.44	24.72	18.07	
2025-01-11 00:59:59.65	24.73	18.09	
2025-01-11 00:59:59.85	24.75	18.12	
2025-01-11 01:00:00.05	24.76	18.15	
2025-01-11 01:00:00.27	24.77	18.17	
2025-01-11 01:00:00.48	24.78	18.20	
2025-01-11 01:00:00.70	24.80	18.23	
2025-01-11 01:00:00.90	24.81	18.26	
2025-01-11 01:00:01.11	24.82	18.28	
2025-01-11 01:00:01.31	24.83	18.31	
2025-01-11 01:00:01.52	24.85	18.34	
2025-01-11 01:00:01.72	24.86	18.36	
2025-01-11 01:00:01.93	24.87	18.39	
2025-01-11 01:00:02.14	24.88	18.42	
2025-01-11 01:00:02.34	24.90	18.45	
2025-01-11 01:00:02.55	24.91	18.47	
2025-01-11 01:00:02.75	24.92	18.50	
2025-01-11 01:00:02.96	24.93	18.53	
2025-01-11 01:00:03.16	24.94	18.56	
2025-01-11 01:00:03.36	24.96	18.58	
2025-01-11 01:00:03.57	24.97	18.61	
2025-01-11 01:00:03.78	24.98	18.64	
2025-01-11 01:00:03.98	25.00	18.66	
2025-01-11 01:00:04.19	25.01	18.69	
2025-01-11 01:00:04.39	25.02	18.72	
2025-01-11 01:00:04.60	25.03	18.75	
2025-01-11 01:00:04.80	25.05	18.77	
2025-01-11 01:00:05.01	25.06	18.80	
2025-01-11 01:00:05.21	25.07	18.83	
2025-01-11 01:00:05.42	25.08	18.86	
2025-01-11 01:00:05.63	25.10	18.89	
2025-01-11 01:00:05.83	25.11	18.91	
2025-01-11 01:00:06.04	25.12	18.94	
2025-01-11 01:00:06.24	25.14	18.97	
2025-01-11 01:00:06.45	25.15	19.00	
2025-01-11 01:00:06.65	25.16	19.02	
2025-01-11 01:00:06.86	25.17	19.05	
2025-01-11 01:00:07.06	25.19	19.08	
2025-01-11 01:00:07.27	25.20	19.11	
2025-01-11 01:00:07.47	25.21	19.14	
2025-01-11 01:00:07.68	25.23	19.16	
2025-01-11 01:00:07.88	25.24	19.19	
2025-01-11 01:00:08.09	25.25	19.22	
2025-01-11 01:00:08.29	25.27	19.25	
2025-01-11 01:00:08.50	25.28	19.28	
2025-01-11 01:00:08.70	25.29	19.30	
2025-01-11 01:00:08.90	25.30	19.33	
2025-01-11 01:00:09.11	25.32	19.36	
2025-01-11 01:00:09.32	25.33	19.39	
2025-01-11 01:00:09.52	25.34	19.42	
2025-01-11 01:00:09.73	25.36	19.45	
2025-01-11 01:00:09.93	25.37	19.47	
2025-01-11 01:00:10.13	25.38	19.50	
2025-01-11 01:00:10.34	25.40	19.53	
2025-01-11 01:00:10.54	25.41	19.56	
2025-01-11 01:00:10.75	25.42	19.59	
2025-01-11 01:00:10.96	25.44	19.62	
2025-01-11 01:00:11.16	25.45	19.64	
2025-01-11 01:00:11.37	25.46	19.67	
2025-01-11 01:00:11.57	25.48	19.70	
2025-01-11 01:00:11.78	25.49	19.73	
2025-01-11 01:00:11.98	25.50	19.76	
2025-01-11 01:00:12.18	25.52	19.79	
2025-01-11 01:00:12.39	25.53	19.82	
2025-01-11 01:00:12.60	25.55	19.85	
2025-01-11 01:00:12.80	25.56	19.87	
2025-01-11 01:00:13.00	25.57	19.90	
2025-01-11 01:00:13.21	25.59	19.93	
2025-01-11 01:00:13.41	25.60	19.96	
2025-01-11 01:00:13.62	25.61	19.99	
2025-01-11 01:00:13.83	25.63	20.02	
2025-01-11 01:00:14.03	25.64	20.05	
2025-01-11 01:00:14.24	25.66	20.08	
2025-01-11 01:00:14.44	25.67	20.11	
2025-01-11 01:00:14.65	25.68	20.14	
2025-01-11 01:00:14.85	25.70	20.16	
2025-01-11 01:00:15.05	25.71	20.19	
2025-01-11 01:00:15.26	25.72	20.22	
2025-01-11 01:00:15.47	25.74	20.25	
2025-01-11 01:00:15.67	25.75	20.28	
2025-01-11 01:00:15.88	25.77	20.31	
2025-01-11 01:00:16.08	25.78	20.34	
2025-01-11 01:00:16.29	25.79	20.37	
2025-01-11 01:00:16.49	25.81	20.40	
2025-01-11 01:00:16.70	25.82	20.43	
2025-01-11 01:00:16.90	25.84	20.46	
2025-01-11 01:00:17.12	25.85	20.49	
2025-01-11 01:00:17.32	25.87	20.52	
2025-01-11 01:00:17.52	25.88	20.55	
2025-01-11 01:00:17.73	25.89	20.58	
2025-01-11 01:00:17.93	25.91	20.61	
2025-01-11 01:00:18.14	25.92	20.64	
2025-01-11 01:00:18.34	25.94	20.67	
2025-01-11 01:00:18.55	25.95	20.70	
2025-01-11 01:00:18.75	25.97	20.73	
2025-01-11 01:00:18.96	25.98	20.76	
2025-01-11 01:00:19.16	25.99	20.79	
2025-01-11 01:00:19.37	26.01	20.82	
2025-01-11 01:00:19.57	26.02	20.85	
2025-01-11 01:00:19.78	26.04	20.88	
2025-01-11 01:00:19.98	26.05	20.91	
2025-01-11 01:00:20.19	26.07	20.94	
2025-01-11 01:00:20.39	26.08	20.97	
2025-01-11 01:00:20.60	26.10	21.00	
2025-01-11 01:00:20.80	26.11	21.03	
2025-01-11 01:00:21.01	26.13	21.06	
2025-01-11 01:00:21.21	26.14	21.09	
2025-01-11 01:00:21.41	26.15	21.12	
2025-01-11 01:00:21.62	26.17	21.15	
2025-01-11 01:00:21.83	26.19	21.18	
2025-01-11 01:00:22.03	26.20	21.21	
2025-01-11 01:00:22.24	26.21	21.24	
2025-01-11 01:00:22.44	26.23	21.27	
2025-01-11 01:00:22.64	26.24	21.30	
2025-01-11 01:00:22.85	26.26	21.33	
2025-01-11 01:00:23.06	26.27	21.36	
2025-01-11 01:00:23.26	26.29	21.39	
2025-01-11 01:00:23.46	26.30	21.42	
2025-01-11 01:00:23.67	26.32	21.46	
2025-01-11 01:00:23.88	26.33	21.49	
2025-01-11 01:00:24.08	26.35	21.52	
2025-01-11 01:00:24.29	26.36	21.55	
2025-01-11 01:00:24.49	26.38	21.58	
2025-01-11 01:00:24.69	26.39	21.61	
2025-01-11 01:00:24.90	26.41	21.64	
2025-01-11 01:00:25.11	26.43	21.67	
2025-01-11 01:00:25.31	26.44	21.70	
2025-01-11 01:00:25.52	26.46	21.74	
2025-01-11 01:00:25.72	26.47	21.77	
2025-01-11 01:00:25.93	26.49	21.80	
2025-01-11 01:00:26.13	26.50	21.83	
2025-01-11 01:00:26.34	26.52	21.86	
2025-01-11 01:00:26.54	26.53	21.89	
2025-01-11 01:00:26.74	26.55	21.92	
2025-01-11 01:00:26.95	26.56	21.95	
2025-01-11 01:00:27.16	26.58	21.99	
2025-01-11 01:00:27.36	26.60	22.02	
2025-01-11 01:00:27.57	26.61	22.05	
2025-01-11 01:00:27.78	26.63	22.08	
2025-01-11 01:00:27.99	26.64	22.11	
2025-01-11 01:00:28.19	26.66	22.15	
2025-01-11 01:00:28.40	26.68	22.18	
2025-01-11 01:00:28.61	26.69	22.21	
2025-01-11 01:00:28.82	26.71	22.24	
2025-01-11 01:00:29.03	26.72	22.28	
2025-01-11 01:00:29.23	26.74	22.31	
2025-01-11 01:00:29.44	26.76	22.34	
2025-01-11 01:00:29.65	26.77	22.37	
2025-01-11 01:00:29.85	26.79	22.40	
2025-01-11 01:00:30.06	26.80	22.44	
2025-01-11 01:00:30.26	26.82	22.47	
2025-01-11 01:00:30.47	26.84	22.50	
2025-01-11 01:00:30.67	26.85	22.53	
2025-01-11 01:00:30.89	26.87	22.57	
2025-01-11 01:00:31.10	26.89	22.60	
2025-01-11 01:00:31.30	26.90	22.63	
2025-01-11 01:00:31.51	26.92	22.66	
2025-01-11 01:00:31.71	26.93	22.70	
2025-01-11 01:00:31.92	26.95	22.73	
2025-01-11 01:00:32.12	26.97	22.76	
2025-01-11 01:00:32.33	26.98	22.79	
2025-01-11 01:00:32.53	27.00	22.83	
2025-01-11 01:00:32.74	27.02	22.86	
2025-01-11 01:00:32.94	27.03	22.89	
2025-01-11 01:00:33.15	27.05	22.92	
2025-01-11 01:00:33.35	27.07	22.96	
2025-01-11 01:00:33.56	27.08	22.99	
2025-01-11 01:00:33.76	27.10	23.02	
2025-01-11 01:00:33.97	27.12	23.06	
2025-01-11 01:00:34.19	27.13	23.09	
2025-01-11 01:00:34.39	27.15	23.12	
2025-01-11 01:00:34.60	27.17	23.16	
2025-01-11 01:00:34.80	27.18	23.19	
2025-01-11 01:00:35.01	27.20	23.22	
2025-01-11 01:00:35.21	27.22	23.26	
2025-01-11 01:00:35.42	27.24	23.29	
2025-01-11 01:00:35.62	27.25	23.32	
2025-01-11 01:00:35.83	27.27	23.36	
2025-01-11 01:00:36.04	27.29	23.39	
2025-01-11 01:00:36.24	27.30	23.42	
2025-01-11 01:00:36.45	27.32	23.46	
2025-01-11 01:00:36.65	27.34	23.49	
2025-01-11 01:00:36.86	27.36	23.52	
2025-01-11 01:00:37.06	27.37	23.56	
2025-01-11 01:00:37.27	27.39	23.59	
2025-01-11 01:00:37.47	27.41	23.62	
2025-01-11 01:00:37.67	27.42	23.66	
2025-01-11 01:00:37.88	27.44	23.69	
2025-01-11 01:00:38.09	27.46	23.73	
2025-01-11 01:00:38.29	27.48	23.76	
2025-01-11 01:00:38.49	27.49	23.79	
2025-01-11 01:00:38.70	27.51	23.83	
2025-01-11 01:00:38.91	27.53	23.86	
2025-01-11 01:00:39.11	27.55	23.89	
2025-01-11 01:00:39.32	27.56	23.93	
2025-01-11 01:00:39.52	27.58	23.96	
2025-01-11 01:00:39.72	27.60	24.00	
2025-01-11 01:00:39.93	27.62	24.03	
2025-01-11 01:00:40.13	27.63	24.06	
2025-01-11 01:00:40.34	27.65	24.10	
2025-01-11 01:00:40.56	27.67	24.14	
2025-01-11 01:00:40.76	27.69	24.17	
2025-01-11 01:00:40.97	27.71	24.21	
2025-01-11 01:00:41.17	27.73	24.24	
2025-01-11 01:00:41.38	27.74	24.27	
2025-01-11 01:00:41.58	27.76	24.31	
2025-01-11 01:00:41.79	27.78	24.34	
2025-01-11 01:00:42.00	27.80	24.38	
2025-01-11 01:00:42.20	27.82	24.41	
2025-01-11 01:00:42.41	27.84	24.45	
2025-01-11 01:00:42.61	27.85	24.48	
2025-01-11 01:00:42.82	27.87	24.52	
2025-01-11 01:00:43.03	27.89	24.55	
2025-01-11 01:00:43.23	27.91	24.59	
2025-01-11 01:00:43.44	27.93	24.62	
2025-01-11 01:00:43.64	27.95	24.66	
2025-01-11 01:00:43.84	27.96	24.69	
2025-01-11 01:00:44.05	27.98	24.73	
2025-01-11 01:00:44.25	28.00	24.76	
2025-01-11 01:00:44.46	28.02	24.80	
2025-01-11 01:00:44.66	28.04	24.83	
2025-01-11 01:00:44.87	28.06	24.87	
2025-01-11 01:00:45.07	28.08	24.90	
2025-01-11 01:00:45.28	28.09	24.94	
2025-01-11 01:00:45.49	28.11	24.98	
2025-01-11 01:00:45.69	28.13	25.01	
2025-01-11 01:00:45.89	28.15	25.05	
2025-01-11 01:00:46.10	28.17	25.08	
2025-01-11 01:00:46.30	28.19	25.12	
2025-01-11 01:00:46.51	28.21	25.15	
2025-01-11 01:00:46.72	28.23	25.19	
2025-01-11 01:00:46.93	28.25	25.23	
2025-01-11 01:00:47.14	28.27	25.26	
2025-01-11 01:00:47.35	28.29	25.30	
2025-01-11 01:00:47.55	28.31	25.34	
2025-01-11 01:00:47.76	28.33	25.37	
2025-01-11 01:00:47.96	28.34	25.41	
2025-01-11 01:00:48.16	28.36	25.44	
2025-01-11 01:00:48.37	28.38	25.48	
2025-01-11 01:00:48.57	28.40	25.52	
2025-01-11 01:00:48.78	28.42	25.55	
2025-01-11 01:00:48.98	28.44	25.59	
2025-01-11 01:00:49.19	28.46	25.63	
2025-01-11 01:00:49.39	28.48	25.66	
2025-01-11 01:00:49.61	28.50	25.70	
2025-01-11 01:00:49.81	28.52	25.74	
2025-01-11 01:00:50.02	28.54	25.77	
2025-01-11 01:00:50.22	28.56	25.81	
2025-01-11 01:00:50.43	28.58	25.85	
2025-01-11 01:00:50.63	28.60	25.88	
2025-01-11 01:00:50.84	28.62	25.92	
2025-01-11 01:00:51.04	28.64	25.96	
2025-01-11 01:00:51.25	28.66	25.99	
2025-01-11 01:00:51.45	28.68	26.03	
2025-01-11 01:00:51.66	28.70	26.07	
2025-01-11 01:00:51.86	28.72	26.10	
2025-01-11 01:00:52.07	28.74	26.14	
2025-01-11 01:00:52.27	28.76	26.18	
2025-01-11 01:00:52.48	28.78	26.22	
2025-01-11 01:00:52.69	28.80	26.25	
2025-01-11 01:00:52.89	28.82	26.29	
2025-01-11 01:00:53.10	28.84	26.33	
2025-01-11 01:00:53.30	28.86	26.37	
2025-01-11 01:00:53.50	28.88	26.40	
2025-01-11 01:00:53.71	28.91	26.44	
2025-01-11 01:00:53.92	28.93	26.48	
2025-01-11 01:00:54.12	28.95	26.52	
2025-01-11 01:00:54.33	28.97	26.55	
2025-01-11 01:00:54.53	28.99	26.59	
2025-01-11 01:00:54.74	29.01	26.63	
2025-01-11 01:00:54.94	29.03	26.67	
2025-01-11 01:00:55.15	29.05	26.71	
2025-01-11 01:00:55.35	29.07	26.74	
2025-01-11 01:00:55.56	29.09	26.78	
2025-01-11 01:00:55.76	29.11	26.82	
2025-01-11 01:00:55.97	29.14	26.86	
2025-01-11 01:00:56.17	29.16	26.89	
2025-01-11 01:00:56.38	29.18	26.93	
2025-01-11 01:00:56.58	29.20	26.97	
2025-01-11 01:00:56.79	29.22	27.01	
2025-01-11 01:00:56.99	29.24	27.05	
2025-01-11 01:00:57.20	29.26	27.09	
2025-01-11 01:00:57.40	29.29	27.12	
2025-01-11 01:00:57.61	29.31	27.16	
2025-01-11 01:00:57.81	29.33	27.20	
2025-01-11 01:00:58.02	29.35	27.24	
2025-01-11 01:00:58.22	29.37	27.28	
2025-01-11 01:00:58.43	29.39	27.32	
2025-01-11 01:00:58.63	29.42	27.36	
2025-01-11 01:00:58.84	29.44	27.40	
2025-01-11 01:00:59.04	29.46	27.43	
2025-01-11 01:00:59.25	29.48	27.47	
2025-01-11 01:00:59.46	29.51	27.51	
2025-01-11 01:00:59.66	29.53	27.55	
2025-01-11 01:00:59.86	29.55	27.59	
2025-01-11 01:01:00.07	29.57	27.63	
2025-01-11 01:01:00.27	29.59	27.67	
2025-01-11 01:01:00.48	29.62	27.71	
2025-01-11 01:01:00.69	29.64	27.75	
2025-01-11 01:01:00.89	29.66	27.79	
2025-01-11 01:01:01.10	29.68	27.83	
2025-01-11 01:01:01.30	29.71	27.87	
2025-01-11 01:01:01.51	29.73	27.91	
2025-01-11 01:01:01.71	29.75	27.95	
2025-01-11 01:01:01.91	29.77	27.99	
2025-01-11 01:01:02.12	29.80	28.03	
2025-01-11 01:01:02.32	29.82	28.07	
2025-01-11 01:01:02.53	29.84	28.11	
2025-01-11 01:01:02.74	29.87	28.15	
2025-01-11 01:01:02.94	29.89	28.19	
2025-01-11 01:01:03.14	29.91	28.23	
2025-01-11 01:01:03.35	29.93	28.27	
2025-01-11 01:01:03.55	29.96	28.31	
2025-01-11 01:01:03.76	29.98	28.35	
2025-01-11 01:01:03.98	30.01	28.39	
2025-01-11 01:01:04.18	30.03	28.43	
2025-01-11 01:01:04.39	30.05	28.47	
2025-01-11 01:01:04.59	30.08	28.51	
2025-01-11 01:01:04.80	30.10	28.55	
2025-01-11 01:01:05.00	30.12	28.59	
2025-01-11 01:01:05.21	30.15	28.63	
2025-01-11 01:01:05.41	30.17	28.67	
2025-01-11 01:01:05.62	30.20	28.71	
2025-01-11 01:01:05.82	30.22	28.75	
2025-01-11 01:01:06.03	30.24	28.80	
2025-01-11 01:01:06.23	30.27	28.84	
2025-01-11 01:01:06.44	30.29	28.88	
2025-01-11 01:01:06.64	30.31	28.92	
2025-01-11 01:01:06.85	30.34	28.96	
2025-01-11 01:01:07.06	30.36	29.00	
2025-01-11 01:01:07.26	30.39	29.04	
2025-01-11 01:01:07.47	30.41	29.08	
2025-01-11 01:01:07.67	30.44	29.13	
2025-01-11 01:01:07.88	30.46	29.17	
2025-01-11 01:01:08.08	30.49	29.21	
2025-01-11 01:01:08.29	30.51	29.25	
2025-01-11 01:01:08.49	30.53	29.29	
2025-01-11 01:01:08.70	30.56	29.33	
2025-01-11 01:01:08.90	30.58	29.37	
2025-01-11 01:01:09.11	30.61	29.42	
2025-01-11 01:01:09.31	30.63	29.46	
2025-01-11 01:01:09.52	30.66	29.50	
2025-01-11 01:01:09.73	30.69	29.54	
2025-01-11 01:01:09.93	30.71	29.59	
2025-01-11 01:01:10.13	30.73	29.63	
2025-01-11 01:01:10.34	30.76	29.67	
2025-01-11 01:01:10.54	30.78	29.71	
2025-01-11 01:01:10.75	30.81	29.75	
2025-01-11 01:01:10.95	30.84	29.80	
2025-01-11 01:01:11.16	30.86	29.84	
2025-01-11 01:01:11.37	30.89	29.88	
2025-01-11 01:01:11.57	30.91	29.92	
2025-01-11 01:01:11.78	30.94	29.97	
2025-01-11 01:01:11.98	30.96	30.01	
2025-01-11 01:01:12.19	30.99	30.05	
2025-01-11 01:01:12.39	31.02	30.09	
2025-01-11 01:01:12.59	31.04	30.14	
2025-01-11 01:01:12.80	31.07	30.18	
2025-01-11 01:01:13.01	31.10	30.22	
2025-01-11 01:01:13.21	31.12	30.27	
2025-01-11 01:01:13.42	31.15	30.31	
2025-01-11 01:01:13.63	31.17	30.35	
2025-01-11 01:01:13.84	31.20	30.40	
2025-01-11 01:01:14.05	31.23	30.44	
2025-01-11 01:01:14.25	31.25	30.49	
2025-01-11 01:01:14.46	31.28	30.53	
2025-01-11 01:01:14.66	31.31	30.57	
2025-01-11 01:01:14.87	31.34	30.62	
2025-01-11 01:01:15.07	31.36	30.66	
2025-01-11 01:01:15.28	31.39	30.70	
2025-01-11 01:01:15.48	31.42	30.75	
2025-01-11 01:01:15.69	31.44	30.79	
2025-01-11 01:01:15.89	31.47	30.83	
2025-01-11 01:01:16.10	31.50	30.88	
2025-01-11 01:01:16.30	31.52	30.92	
2025-01-11 01:01:16.51	31.55	30.97	
2025-01-11 01:01:16.71	31.58	31.01	
2025-01-11 01:01:16.92	31.61	31.06	
2025-01-11 01:01:17.12	31.63	31.10	
2025-01-11 01:01:17.33	31.66	31.14	
2025-01-11 01:01:17.53	31.69	31.19	
2025-01-11 01:01:17.74	31.72	31.23	
2025-01-11 01:01:17.94	31.74	31.28	
2025-01-11 01:01:18.14	31.77	31.32	
2025-01-11 01:01:18.35	31.80	31.37	
2025-01-11 01:01:18.55	31.83	31.41	
2025-01-11 01:01:18.76	31.86	31.46	
2025-01-11 01:01:18.98	31.89	31.50	
2025-01-11 01:01:19.18	31.92	31.55	
2025-01-11 01:01:19.39	31.94	31.59	
2025-01-11 01:01:19.60	31.97	31.64	
2025-01-11 01:01:19.80	32.00	31.68	
2025-01-11 01:01:20.01	32.03	31.73	
2025-01-11 01:01:20.21	32.06	31.77	
2025-01-11 01:01:20.41	32.09	31.82	
2025-01-11 01:01:20.62	32.12	31.86	
2025-01-11 01:01:20.83	32.15	31.91	
2025-01-11 01:01:21.03	32.17	31.96	
2025-01-11 01:01:21.24	32.20	32.00	
2025-01-11 01:01:21.44	32.23	32.05	
2025-01-11 01:01:21.65	32.26	32.09	
2025-01-11 01:01:21.85	32.29	32.14	
2025-01-11 01:01:22.06	32.32	32.19	
2025-01-11 01:01:22.26	32.35	32.23	
2025-01-11 01:01:22.47	32.38	32.28	
2025-01-11 01:01:22.67	32.41	32.32	
2025-01-11 01:01:22.88	32.44	32.37	
2025-01-11 01:01:23.08	32.47	32.41	
2025-01-11 01:01:23.29	32.50	32.46	
2025-01-11 01:01:23.49	32.53	32.51	
2025-01-11 01:01:23.70	32.56	32.55	
2025-01-11 01:01:23.90	32.59	32.60	
2025-01-11 01:01:24.11	32.62	32.65	
2025-01-11 01:01:24.31	32.65	32.69	
2025-01-11 01:01:24.52	32.68	32.74	
2025-01-11 01:01:24.72	32.71	32.79	
2025-01-11 01:01:24.93	32.74	32.83	
2025-01-11 01:01:25.13	32.77	32.88	
2025-01-11 01:01:25.34	32.81	32.93	
2025-01-11 01:01:25.54	32.84	32.97	
2025-01-11 01:01:25.75	32.87	33.02	
2025-01-11 01:01:25.95	32.90	33.07	
2025-01-11 01:01:26.16	32.93	33.12	
2025-01-11 01:01:26.36	32.96	33.16	
2025-01-11 01:01:26.57	32.99	33.21	
2025-01-11 01:01:26.77	33.02	33.26	
2025-01-11 01:01:26.98	33.06	33.31	
2025-01-11 01:01:27.19	33.09	33.36	
2025-01-11 01:01:27.39	33.12	33.40	
2025-01-11 01:01:27.59	33.15	33.45	
2025-01-11 01:01:27.80	33.18	33.50	
2025-01-11 01:01:28.00	33.21	33.54	
2025-01-11 01:01:28.21	33.25	33.59	
2025-01-11 01:01:28.42	33.28	33.64	
2025-01-11 01:01:28.62	33.31	33.69	
2025-01-11 01:01:28.83	33.34	33.74	
2025-01-11 01:01:29.03	33.38	33.79	
2025-01-11 01:01:29.24	33.41	33.84	
2025-01-11 01:01:29.44	33.44	33.88	
2025-01-11 01:01:29.66	33.48	33.93	
2025-01-11 01:01:29.87	33.51	33.98	
2025-01-11 01:01:30.07	33.54	34.03	
2025-01-11 01:01:30.28	33.58	34.08	
2025-01-11 01:01:30.48	33.61	34.13	
2025-01-11 01:01:30.69	33.64	34.18	
2025-01-11 01:01:30.89	33.68	34.23	
2025-01-11 01:01:31.10	33.71	34.28	
2025-01-11 01:01:31.30	33.74	34.32	
2025-01-11 01:01:31.51	33.78	34.37	
2025-01-11 01:01:31.73	33.81	34.43	
2025-01-11 01:01:31.93	33.85	34.48	
2025-01-11 01:01:32.14	33.88	34.53	
2025-01-11 01:01:32.34	33.92	34.57	
2025-01-11 01:01:32.55	33.95	34.63	
2025-01-11 01:01:32.75	33.98	34.67	
2025-01-11 01:01:32.96	34.02	34.72	
2025-01-11 01:01:33.16	34.05	34.77	
2025-01-11 01:01:33.37	34.09	34.82	
2025-01-11 01:01:33.57	34.12	34.87	
2025-01-11 01:01:33.77	34.16	34.92	
2025-01-11 01:01:33.98	34.19	34.97	
2025-01-11 01:01:34.19	34.23	35.02	
2025-01-11 01:01:34.39	34.26	35.07	
2025-01-11 01:01:34.60	34.30	35.12	
2025-01-11 01:01:34.80	34.33	35.17	
2025-01-11 01:01:35.00	34.37	35.22	
2025-01-11 01:01:35.21	34.40	35.27	
2025-01-11 01:01:35.41	34.44	35.32	
2025-01-11 01:01:35.62	34.48	35.37	
2025-01-11 01:01:35.82	34.51	35.42	
2025-01-11 01:01:36.02	34.55	35.47	
2025-01-11 01:01:36.23	34.58	35.53	
2025-01-11 01:01:36.44	34.62	35.58	
2025-01-11 01:01:36.64	34.66	35.63	
2025-01-11 01:01:36.85	34.69	35.68	
2025-01-11 01:01:37.05	34.73	35.73	
2025-01-11 01:01:37.26	34.77	35.78	
2025-01-11 01:01:37.46	34.80	35.83	
2025-01-11 01:01:37.67	34.84	35.88	
2025-01-11 01:01:37.87	34.88	35.93	
2025-01-11 01:01:38.07	34.91	35.98	
2025-01-11 01:01:38.28	34.95	36.04	
2025-01-11 01:01:38.48	34.99	36.09	
2025-01-11 01:01:38.69	35.03	36.14	
2025-01-11 01:01:38.89	35.06	36.19	
2025-01-11 01:01:39.10	35.10	36.24	
2025-01-11 01:01:39.30	35.14	36.29	
2025-01-11 01:01:39.51	35.18	36.35	
2025-01-11 01:01:39.71	35.22	36.40	
2025-01-11 01:01:39.92	35.25	36.45	
2025-01-11 01:01:40.13	35.29	36.51	
2025-01-11 01:01:40.33	35.33	36.56	
2025-01-11 01:01:40.54	35.37	36.61	
2025-01-11 01:01:40.74	35.41	36.66	
2025-01-11 01:01:40.95	35.45	36.72	
2025-01-11 01:01:41.15	35.49	36.77	
2025-01-11 01:01:41.35	35.53	36.82	
2025-01-11 01:01:41.56	35.57	36.87	
2025-01-11 01:01:41.76	35.60	36.92	
2025-01-11 01:01:41.97	35.64	36.98	
2025-01-11 01:01:42.17	35.68	37.03	
2025-01-11 01:01:42.38	35.72	37.08	
2025-01-11 01:01:42.58	35.76	37.14	
2025-01-11 01:01:42.79	35.80	37.19	
2025-01-11 01:01:42.99	35.84	37.24	
2025-01-11 01:01:43.20	35.88	37.30	
2025-01-11 01:01:43.40	35.92	37.35	
2025-01-11 01:01:43.60	35.96	37.40	
2025-01-11 01:01:43.81	36.01	37.46	
2025-01-11 01:01:44.02	36.05	37.51	
2025-01-11 01:01:44.22	36.09	37.56	
2025-01-11 01:01:44.43	36.13	37.62	
2025-01-11 01:01:44.63	36.17	37.67	
2025-01-11 01:01:44.84	36.21	37.73	
2025-01-11 01:01:45.04	36.25	37.78	
2025-01-11 01:01:45.25	36.30	37.83	
2025-01-11 01:01:45.45	36.34	37.89	
2025-01-11 01:01:45.67	36.38	37.95	
2025-01-11 01:01:45.88	36.42	38.00	
2025-01-11 01:01:46.08	36.47	38.05	
2025-01-11 01:01:46.29	36.51	38.11	
2025-01-11 01:01:46.50	36.55	38.17	
2025-01-11 01:01:46.71	36.60	38.22	
2025-01-11 01:01:46.92	36.64	38.28	
2025-01-11 01:01:47.12	36.68	38.33	
2025-01-11 01:01:47.33	36.73	38.39	
2025-01-11 01:01:47.53	36.77	38.44	
2025-01-11 01:01:47.74	36.81	38.50	
2025-01-11 01:01:47.94	36.86	38.55	
2025-01-11 01:01:48.15	36.90	38.61	
2025-01-11 01:01:48.35	36.94	38.66	
2025-01-11 01:01:48.56	36.99	38.72	
2025-01-11 01:01:48.76	37.03	38.77	
2025-01-11 01:01:48.97	37.08	38.83	
2025-01-11 01:01:49.18	37.12	38.89	
2025-01-11 01:01:49.38	37.17	38.94	
2025-01-11 01:01:49.59	37.21	39.00	
2025-01-11 01:01:49.79	37.26	39.05	
2025-01-11 01:01:49.99	37.30	39.11	
2025-01-11 01:01:50.20	37.35	39.16	
2025-01-11 01:01:50.40	37.39	39.22	
2025-01-11 01:01:50.61	37.44	39.28	
2025-01-11 01:01:50.81	37.48	39.33	
2025-01-11 01:01:51.01	37.53	39.39	
2025-01-11 01:01:51.22	37.57	39.44	
2025-01-11 01:01:51.43	37.62	39.50	
2025-01-11 01:01:51.63	37.67	39.56	
2025-01-11 01:01:51.84	37.71	39.61	
2025-01-11 01:01:52.04	37.76	39.67	
2025-01-11 01:01:52.24	37.81	39.73	
2025-01-11 01:01:52.45	37.85	39.78	
2025-01-11 01:01:52.66	37.90	39.84	
2025-01-11 01:01:52.86	37.95	39.90	
2025-01-11 01:01:53.07	38.00	39.96	
2025-01-11 01:01:53.27	38.04	40.01	
2025-01-11 01:01:53.48	38.09	40.07	
2025-01-11 01:01:53.68	38.14	40.13	
2025-01-11 01:01:53.89	38.19	40.18	
2025-01-11 01:01:54.09	38.24	40.24	
2025-01-11 01:01:54.30	38.28	40.30	
2025-01-11 01:01:54.50	38.33	40.36	
2025-01-11 01:01:54.71	38.38	40.41	
2025-01-11 01:01:54.91	38.43	40.47	
2025-01-11 01:01:55.12	38.48	40.53	
2025-01-11 01:01:55.32	38.53	40.59	
2025-01-11 01:01:55.53	38.58	40.65	
2025-01-11 01:01:55.73	38.63	40.70	
2025-01-11 01:01:55.94	38.68	40.76	
2025-01-11 01:01:56.14	38.73	40.82	
2025-01-11 01:01:56.35	38.78	40.88	
2025-01-11 01:01:56.56	38.83	40.94	
2025-01-11 01:01:56.76	38.88	41.00	
2025-01-11 01:01:56.97	38.93	41.06	
2025-01-11 01:01:57.17	38.98	41.11	
2025-01-11 01:01:57.37	39.03	41.17	
2025-01-11 01:01:57.58	39.09	41.23	
2025-01-11 01:01:57.79	39.14	41.29	
2025-01-11 01:01:57.99	39.19	41.35	
2025-01-11 01:01:58.20	39.24	41.41	
2025-01-11 01:01:58.40	39.29	41.47	
2025-01-11 01:01:58.61	39.35	41.53	
2025-01-11 01:01:58.81	39.40	41.58	
2025-01-11 01:01:59.02	39.45	41.64	
2025-01-11 01:01:59.22	39.50	41.70	
2025-01-11 01:01:59.43	39.56	41.76	
2025-01-11 01:01:59.63	39.61	41.82	
2025-01-11 01:01:59.84	39.66	41.88	
2025-01-11 01:02:00.04	39.72	41.94	
2025-01-11 01:02:00.24	39.77	42.00	
2025-01-11 01:02:00.45	39.82	42.06	
2025-01-11 01:02:00.65	39.88	42.12	
2025-01-11 01:02:00.87	39.94	42.18	
2025-01-11 01:02:01.07	39.99	42.24	
2025-01-11 01:02:01.28	40.05	42.30	
2025-01-11 01:02:01.48	40.10	42.36	
2025-01-11 01:02:01.69	40.16	42.42	
2025-01-11 01:02:01.89	40.21	42.48	
2025-01-11 01:02:02.10	40.27	42.54	
2025-01-11 01:02:02.30	40.32	42.60	
2025-01-11 01:02:02.51	40.38	42.67	
2025-01-11 01:02:02.71	40.44	42.72	
2025-01-11 01:02:02.92	40.49	42.79	
2025-01-11 01:02:03.12	40.55	42.85	
2025-01-11 01:02:03.33	40.61	42.91	
2025-01-11 01:02:03.54	40.67	42.97	
2025-01-11 01:02:03.75	40.72	43.03	
2025-01-11 01:02:03.96	40.78	43.10	
2025-01-11 01:02:04.16	40.84	43.15	
2025-01-11 01:02:04.37	40.90	43.22	
2025-01-11 01:02:04.57	40.96	43.28	
2025-01-11 01:02:04.78	41.02	43.34	
2025-01-11 01:02:04.98	41.07	43.40	
2025-01-11 01:02:05.19	41.13	43.46	
2025-01-11 01:02:05.39	41.19	43.52	
2025-01-11 01:02:05.60	41.25	43.59	
2025-01-11 01:02:05.80	41.31	43.65	
2025-01-11 01:02:06.00	41.37	43.71	
2025-01-11 01:02:06.21	41.43	43.77	
2025-01-11 01:02:06.42	41.49	43.83	
2025-01-11 01:02:06.62	41.55	43.89	
2025-01-11 01:02:06.82	41.61	43.95	
2025-01-11 01:02:07.03	41.67	44.02	
2025-01-11 01:02:07.24	41.74	44.08	
2025-01-11 01:02:07.44	41.80	44.14	
2025-01-11 01:02:07.65	41.86	44.21	
2025-01-11 01:02:07.86	41.92	44.27	
2025-01-11 01:02:08.06	41.99	44.33	
2025-01-11 01:02:08.27	42.05	44.40	
2025-01-11 01:02:08.47	42.11	44.46	
2025-01-11 01:02:08.68	42.18	44.52	
2025-01-11 01:02:08.88	42.24	44.58	
2025-01-11 01:02:09.08	42.30	44.64	
2025-01-11 01:02:09.29	42.36	44.71	
2025-01-11 01:02:09.49	42.43	44.77	
2025-01-11 01:02:09.70	42.49	44.83	
2025-01-11 01:02:09.90	42.56	44.90	
2025-01-11 01:02:10.11	42.62	44.96	
2025-01-11 01:02:10.31	42.69	45.02	
2025-01-11 01:02:10.52	42.75	45.09	
2025-01-11 01:02:10.72	42.82	45.15	
2025-01-11 01:02:10.93	42.88	45.21	
2025-01-11 01:02:11.13	42.95	45.28	
2025-01-11 01:02:11.34	43.02	45.34	
2025-01-11 01:02:11.54	43.08	45.40	
2025-01-11 01:02:11.75	43.15	45.47	
2025-01-11 01:02:11.95	43.22	45.53	
2025-01-11 01:02:12.16	43.29	45.60	
2025-01-11 01:02:12.36	43.35	45.66	
2025-01-11 01:02:12.57	43.42	45.72	
2025-01-11 01:02:12.77	43.49	45.79	
2025-01-11 01:02:12.98	43.56	45.85	
2025-01-11 01:02:13.18	43.63	45.91	
2025-01-11 01:02:13.40	43.70	45.98	
2025-01-11 01:02:13.61	43.77	46.05	
2025-01-11 01:02:13.81	43.84	46.11	
2025-01-11 01:02:14.02	43.91	46.18	
2025-01-11 01:02:14.22	43.98	46.24	
2025-01-11 01:02:14.43	44.05	46.31	
2025-01-11 01:02:14.63	44.12	46.37	
2025-01-11 01:02:14.84	44.19	46.44	
2025-01-11 01:02:15.04	44.26	46.50	
2025-01-11 01:02:15.25	44.34	46.56	
2025-01-11 01:02:15.45	44.41	46.63	
2025-01-11 01:02:15.66	44.48	46.69	
2025-01-11 01:02:15.86	44.55	46.76	
2025-01-11 01:02:16.07	44.63	46.82	
2025-01-11 01:02:16.27	44.70	46.89	
2025-01-11 01:02:16.48	44.77	46.95	
2025-01-11 01:02:16.68	44.85	47.02	
2025-01-11 01:02:16.89	44.92	47.08	
2025-01-11 01:02:17.09	45.00	47.15	
2025-01-11 01:02:17.30	45.07	47.22	
2025-01-11 01:02:17.50	45.15	47.28	
2025-01-11 01:02:17.71	45.22	47.35	
2025-01-11 01:02:17.91	45.30	47.41	
2025-01-11 01:02:18.12	45.37	47.48	
2025-01-11 01:02:18.33	45.45	47.54	
2025-01-11 01:02:18.53	45.53	47.61	
2025-01-11 01:02:18.74	45.61	47.68	
2025-01-11 01:02:18.94	45.68	47.74	
2025-01-11 01:02:19.15	45.76	47.81	
2025-01-11 01:02:19.35	45.84	47.87	
2025-01-11 01:02:19.56	45.92	47.94	
2025-01-11 01:02:19.76	46.00	48.00	
2025-01-11 01:02:19.97	46.08	48.07	
2025-01-11 01:02:20.18	46.16	48.14	
2025-01-11 01:02:20.38	46.24	48.20	
2025-01-11 01:02:20.59	46.32	48.27	
2025-01-11 01:02:20.79	46.40	48.33	
2025-01-11 01:02:20.99	46.48	48.40	
2025-01-11 01:02:21.20	46.56	48.47	
2025-01-11 01:02:21.41	46.64	48.54	
2025-01-11 01:02:21.61	46.72	48.60	
2025-01-11 01:02:21.82	46.81	48.67	
2025-01-11 01:02:22.02	46.89	48.73	
2025-01-11 01:02:22.23	46.97	48.80	
2025-01-11 01:02:22.43	47.05	48.87	
2025-01-11 01:02:22.64	47.14	48.93	
2025-01-11 01:02:22.84	47.22	49.00	
2025-01-11 01:02:23.05	47.31	49.07	
2025-01-11 01:02:23.25	47.39	49.13	
2025-01-11 01:02:23.46	47.48	49.20	
2025-01-11 01:02:23.66	47.56	49.27	
2025-01-11 01:02:23.87	47.65	49.33	
2025-01-11 01:02:24.07	47.73	49.40	
2025-01-11 01:02:24.28	47.82	49.47	
2025-01-11 01:02:24.48	47.91	49.53	
2025-01-11 01:02:24.69	48.00	49.60	
2025-01-11 01:02:24.90	48.09	49.67	
2025-01-11 01:02:25.10	48.17	49.74	
2025-01-11 01:02:25.30	48.26	49.80	
2025-01-11 01:02:25.51	48.35	49.87	
2025-01-11 01:02:25.71	48.44	49.94	
2025-01-11 01:02:25.92	48.53	50.00	
2025-01-11 01:02:26.14	48.62	50.08	
2025-01-11 01:02:26.34	48.71	50.14	
2025-01-11 01:02:26.55	48.81	50.21	
2025-01-11 01:02:26.75	48.90	50.28	
2025-01-11 01:02:26.96	48.99	50.35	
2025-01-11 01:02:27.16	49.08	50.41	
2025-01-11 01:02:27.37	49.17	50.48	
2025-01-11 01:02:27.57	49.26	50.55	
2025-01-11 01:02:27.78	49.36	50.62	
2025-01-11 01:02:27.98	49.45	50.68	
2025-01-11 01:02:28.19	49.55	50.75	
2025-01-11 01:02:28.39	49.64	50.82	
2025-01-11 01:02:28.60	49.74	50.89	
2025-01-11 01:02:28.80	49.83	50.95	
2025-01-11 01:02:29.01	49.93	51.02	
2025-01-11 01:02:29.21	50.02	51.09	
2025-01-11 01:02:29.42	50.12	51.16	
2025-01-11 01:02:29.62	50.22	51.22	
2025-01-11 01:02:29.83	50.32	51.29	
2025-01-11 01:02:30.03	50.41	51.36	
2025-01-11 01:02:30.24	50.52	51.43	
2025-01-11 01:02:30.44	50.61	51.49	
2025-01-11 01:02:30.65	50.71	51.56	
2025-01-11 01:02:30.86	50.82	51.63	
2025-01-11 01:02:31.06	50.91	51.70	
2025-01-11 01:02:31.27	51.02	51.77	
2025-01-11 01:02:31.47	51.12	51.83	
2025-01-11 01:02:31.68	51.22	51.90	
2025-01-11 01:02:31.88	51.32	51.97	
2025-01-11 01:02:32.09	51.43	52.04	
2025-01-11 01:02:32.29	51.53	52.10	
2025-01-11 01:02:32.50	51.63	52.17	
2025-01-11 01:02:32.70	51.73	52.24	
2025-01-11 01:02:32.91	51.84	52.31	
2025-01-11 01:02:33.11	51.94	52.37	
2025-01-11 01:02:33.32	52.05	52.44	
2025-01-11 01:02:33.52	52.16	52.51	
2025-01-11 01:02:33.73	52.27	52.58	
2025-01-11 01:02:33.93	52.37	52.65	
2025-01-11 01:02:34.14	52.48	52.72	
2025-01-11 01:02:34.35	52.59	52.78	
2025-01-11 01:02:34.55	52.70	52.85	
2025-01-11 01:02:34.76	52.81	52.92	
2025-01-11 01:02:34.96	52.92	52.99	
2025-01-11 01:02:35.17	53.03	53.06	
2025-01-11 01:02:35.37	53.14	53.12	
2025-01-11 01:02:35.58	53.25	53.19	
2025-01-11 01:02:35.78	53.36	53.26	
2025-01-11 01:02:35.99	53.47	53.33	
2025-01-11 01:02:36.19	53.58	53.39	
2025-01-11 01:02:36.40	53.70	53.46	
2025-01-11 01:02:36.60	53.81	53.53	
2025-01-11 01:02:36.80	53.92	53.59	
2025-01-11 01:02:37.01	54.04	53.66	
2025-01-11 01:02:37.21	54.15	53.73	
2025-01-11 01:02:37.42	54.27	53.80	
2025-01-11 01:02:37.62	54.38	53.86	
2025-01-11 01:02:37.82	54.50	53.93	
2025-01-11 01:02:38.03	54.62	54.00	
2025-01-11 01:02:38.23	54.73	54.07	
2025-01-11 01:02:38.44	54.86	54.13	
2025-01-11 01:02:38.65	54.98	54.20	
2025-01-11 01:02:38.85	55.10	54.27	
2025-01-11 01:02:39.05	55.21	54.34	
2025-01-11 01:02:39.26	55.34	54.40	
2025-01-11 01:02:39.46	55.45	54.47	
2025-01-11 01:02:39.67	55.58	54.54	
2025-01-11 01:02:39.87	55.70	54.60	
2025-01-11 01:02:40.08	55.83	54.67	
2025-01-11 01:02:40.28	55.95	54.74	
2025-01-11 01:02:40.49	56.07	54.81	
2025-01-11 01:02:40.69	56.20	54.87	
2025-01-11 01:02:40.89	56.32	54.94	
2025-01-11 01:02:41.10	56.45	55.01	
2025-01-11 01:02:41.30	56.57	55.07	
2025-01-11 01:02:41.51	56.70	55.14	
2025-01-11 01:02:41.71	56.83	55.21	
2025-01-11 01:02:41.92	56.96	55.27	
2025-01-11 01:02:42.12	57.08	55.34	
2025-01-11 01:02:42.33	57.22	55.41	
2025-01-11 01:02:42.53	57.34	55.47	
2025-01-11 01:02:42.74	57.48	55.54	
2025-01-11 01:02:42.95	57.61	55.61	
2025-01-11 01:02:43.15	57.74	55.67	
2025-01-11 01:02:43.35	57.87	55.74	
2025-01-11 01:02:43.56	58.01	55.81	
2025-01-11 01:02:43.76	58.14	55.87	
2025-01-11 01:02:43.97	58.28	55.94	
2025-01-11 01:02:44.18	58.42	56.01	
2025-01-11 01:02:44.39	58.56	56.07	
2025-01-11 01:02:44.60	58.70	56.14	
2025-01-11 01:02:44.80	58.83	56.21	
2025-01-11 01:02:45.00	58.96	56.27	
2025-01-11 01:02:45.21	59.11	56.34	
2025-01-11 01:02:45.41	59.24	56.40	
2025-01-11 01:02:45.62	59.39	56.47	
2025-01-11 01:02:45.82	59.52	56.53	
2025-01-11 01:02:46.03	59.67	56.60	
2025-01-11 01:02:46.24	59.81	56.67	
2025-01-11 01:02:46.44	59.95	56.73	
2025-01-11 01:02:46.65	60.10	56.80	
2025-01-11 01:02:46.85	60.24	56.86	
2025-01-11 01:02:47.06	60.39	56.93	
2025-01-11 01:02:47.27	60.54	56.99	
2025-01-11 01:02:47.47	60.68	57.06	
2025-01-11 01:02:47.68	60.83	57.12	
2025-01-11 01:02:47.88	60.97	57.19	
2025-01-11 01:02:48.09	61.13	57.25	
2025-01-11 01:02:48.29	61.27	57.32	
2025-01-11 01:02:48.49	61.42	57.38	
2025-01-11 01:02:48.70	61.57	57.44	
2025-01-11 01:02:48.90	61.72	57.51	
2025-01-11 01:02:49.11	61.87	57.57	
2025-01-11 01:02:49.32	62.03	57.64	
2025-01-11 01:02:49.52	62.18	57.70	
2025-01-11 01:02:49.72	62.33	57.76	
2025-01-11 01:02:49.93	62.49	57.83	
2025-01-11 01:02:50.13	62.64	57.89	
2025-01-11 01:02:50.34	62.80	57.95	
2025-01-11 01:02:50.54	62.95	58.02	
2025-01-11 01:02:50.75	63.12	58.08	
2025-01-11 01:02:50.95	63.27	58.14	
2025-01-11 01:02:51.16	63.43	58.21	
2025-01-11 01:02:51.36	63.59	58.27	
2025-01-11 01:02:51.56	63.75	58.33	
2025-01-11 01:02:51.78	63.92	58.39	
2025-01-11 01:02:51.99	64.09	58.46	
2025-01-11 01:02:52.19	64.24	58.52	
2025-01-11 01:02:52.40	64.41	58.58	
2025-01-11 01:02:52.61	64.58	58.64	
2025-01-11 01:02:52.81	64.74	58.71	
2025-01-11 01:02:53.01	64.90	58.76	
2025-01-11 01:02:53.22	65.07	58.83	
2025-01-11 01:02:53.42	65.24	58.89	
2025-01-11 01:02:53.63	65.41	58.95	
2025-01-11 01:02:53.83	65.58	59.01	
2025-01-11 01:02:54.04	65.75	59.07	
2025-01-11 01:02:54.24	65.92	59.13	
2025-01-11 01:02:54.45	66.09	59.19	
2025-01-11 01:02:54.65	66.26	59.25	
2025-01-11 01:02:54.86	66.44	59.31	
2025-01-11 01:02:55.06	66.61	59.37	
2025-01-11 01:02:55.27	66.79	59.43	
2025-01-11 01:02:55.47	66.96	59.49	
2025-01-11 01:02:55.68	67.14	59.55	
2025-01-11 01:02:55.88	67.31	59.61	
2025-01-11 01:02:56.09	67.49	59.67	
2025-01-11 01:02:56.30	67.67	59.73	
2025-01-11 01:02:56.50	67.85	59.79	
2025-01-11 01:02:56.71	68.03	59.85	
2025-01-11 01:02:56.91	68.21	59.90	
2025-01-11 01:02:57.12	68.40	59.96	
2025-01-11 01:02:57.32	68.58	60.02	
2025-01-11 01:02:57.53	68.76	60.08	
2025-01-11 01:02:57.73	68.94	60.13	
2025-01-11 01:02:57.94	69.13	60.19	
2025-01-11 01:02:58.16	69.33	60.25	
2025-01-11 01:02:58.36	69.52	60.31	
2025-01-11 01:02:58.57	69.71	60.37	
2025-01-11 01:02:58.77	69.89	60.42	
2025-01-11 01:02:58.98	70.09	60.48	
2025-01-11 01:02:59.18	70.27	60.53	
2025-01-11 01:02:59.38	70.46	60.59	
2025-01-11 01:02:59.59	70.66	60.64	
2025-01-11 01:02:59.79	70.84	60.70	
2025-01-11 01:03:00.00	71.04	60.75	
2025-01-11 01:03:00.20	71.23	60.81	
2025-01-11 01:03:00.40	71.42	60.86	
2025-01-11 01:03:00.61	71.62	60.91	
2025-01-11 01:03:00.81	71.82	60.97	
2025-01-11 01:03:01.02	72.02	61.02	
2025-01-11 01:03:01.22	72.21	61.07	
2025-01-11 01:03:01.44	72.43	61.13	
2025-01-11 01:03:01.65	72.63	61.19	
2025-01-11 01:03:01.85	72.83	61.24	
2025-01-11 01:03:02.06	73.03	61.29	
2025-01-11 01:03:02.26	73.23	61.34	
2025-01-11 01:03:02.47	73.44	61.39	
2025-01-11 01:03:02.67	73.64	61.44	
2025-01-11 01:03:02.88	73.85	61.50	
2025-01-11 01:03:03.08	74.05	61.55	
2025-01-11 01:03:03.29	74.27	61.60	
2025-01-11 01:03:03.49	74.47	61.65	
2025-01-11 01:03:03.70	74.68	61.70	
2025-01-11 01:03:03.91	74.90	61.75	
2025-01-11 01:03:04.11	75.10	61.80	
2025-01-11 01:03:04.32	75.32	61.85	
2025-01-11 01:03:04.53	75.54	61.90	
2025-01-11 01:03:04.73	75.75	61.95	
2025-01-11 01:03:04.94	75.96	62.00	
2025-01-11 01:03:05.14	76.17	62.04	
2025-01-11 01:03:05.35	76.40	62.09	
2025-01-11 01:03:05.55	76.61	62.14	
2025-01-11 01:03:05.76	76.83	62.19	
2025-01-11 01:03:05.96	77.04	62.23	
2025-01-11 01:03:06.17	77.27	62.28	
2025-01-11 01:03:06.37	77.48	62.33	
2025-01-11 01:03:06.58	77.71	62.37	
2025-01-11 01:03:06.78	77.92	62.42	
2025-01-11 01:03:06.99	78.15	62.46	
2025-01-11 01:03:07.19	78.37	62.51	
2025-01-11 01:03:07.40	78.60	62.55	
2025-01-11 01:03:07.60	78.82	62.60	
2025-01-11 01:03:07.80	79.04	62.64	
2025-01-11 01:03:08.01	79.27	62.68	
2025-01-11 01:03:08.21	79.49	62.73	
2025-01-11 01:03:08.42	79.73	62.77	
2025-01-11 01:03:08.62	79.95	62.81	
2025-01-11 01:03:08.83	80.19	62.85	
2025-01-11 01:03:09.03	80.41	62.89	
2025-01-11 01:03:09.24	80.65	62.94	
2025-01-11 01:03:09.44	80.88	62.98	
2025-01-11 01:03:09.64	81.10	63.02	
2025-01-11 01:03:09.85	81.34	63.06	
2025-01-11 01:03:10.05	81.57	63.10	
2025-01-11 01:03:10.26	81.81	63.14	
2025-01-11 01:03:10.46	82.04	63.18	
2025-01-11 01:03:10.67	82.29	63.22	
2025-01-11 01:03:10.87	82.52	63.25	
2025-01-11 01:03:11.08	82.76	63.29	
2025-01-11 01:03:11.28	83.00	63.33	
2025-01-11 01:03:11.49	83.24	63.37	
2025-01-11 01:03:11.69	83.48	63.40	
2025-01-11 01:03:11.90	83.72	63.44	
2025-01-11 01:03:12.11	83.97	63.48	
2025-01-11 01:03:12.32	84.22	63.52	
2025-01-11 01:03:12.53	84.47	63.55	
2025-01-11 01:03:12.73	84.71	63.59	
2025-01-11 01:03:12.94	84.96	63.62	
2025-01-11 01:03:13.14	85.20	63.65	
2025-01-11 01:03:13.35	85.45	63.69	
2025-01-11 01:03:13.55	85.70	63.72	
2025-01-11 01:03:13.75	85.94	63.75	
2025-01-11 01:03:13.96	86.19	63.79	
2025-01-11 01:03:14.16	86.44	63.82	
2025-01-11 01:03:14.37	86.69	63.85	
2025-01-11 01:03:14.57	86.94	63.88	
2025-01-11 01:03:14.78	87.20	63.91	
