passes_logs/2025/01/11/SPB_Silybum_02/SPB_Silybum_02__20250111_085900_AQUA_rec.log

#Pass ID: 20250111_085900_AQUA
#Satellite: AQUA
#Configuration: AQUA
#Start time: 2025-01-11 08:58:59

#Version: 2.0.20230423
#Station: SPB_Silybum_02
#Location: 30.233357 lon 59.946436 lat
#TLE: 1 27424U 02022A   25010.89862733  .00001944  00000+0  40909-3 0  9991
#TLE: 2 27424  98.3577 327.5256 0001581 116.2883 319.2080 14.60667727207024

#Time	Az	El	Level	Level2	SNR	BER	Gain	Gain2
2025-01-11 08:59:01.14	86.22	4.04	
2025-01-11 08:59:01.36	86.20	4.05	
2025-01-11 08:59:01.56	86.18	4.07	
2025-01-11 08:59:01.77	86.15	4.08	
2025-01-11 08:59:01.98	86.13	4.09	
2025-01-11 08:59:02.18	86.11	4.10	
2025-01-11 08:59:02.38	86.09	4.11	
2025-01-11 08:59:02.59	86.06	4.12	
2025-01-11 08:59:02.80	86.04	4.13	
2025-01-11 08:59:03.00	86.02	4.14	
2025-01-11 08:59:03.21	85.99	4.15	
2025-01-11 08:59:03.41	85.97	4.16	
2025-01-11 08:59:03.62	85.95	4.17	
2025-01-11 08:59:03.82	85.92	4.18	
2025-01-11 08:59:04.03	85.90	4.20	
2025-01-11 08:59:04.24	85.87	4.21	
2025-01-11 08:59:04.44	85.85	4.22	
2025-01-11 08:59:04.65	85.83	4.23	
2025-01-11 08:59:04.85	85.81	4.24	
2025-01-11 08:59:05.06	85.78	4.25	
2025-01-11 08:59:05.26	85.76	4.26	
2025-01-11 08:59:05.47	85.73	4.27	
2025-01-11 08:59:05.67	85.71	4.28	
2025-01-11 08:59:05.88	85.69	4.29	
2025-01-11 08:59:06.08	85.67	4.30	
2025-01-11 08:59:06.29	85.64	4.32	
2025-01-11 08:59:06.50	85.62	4.33	
2025-01-11 08:59:06.70	85.59	4.34	
2025-01-11 08:59:06.90	85.57	4.35	
2025-01-11 08:59:07.11	85.55	4.36	
2025-01-11 08:59:07.32	85.52	4.37	
2025-01-11 08:59:07.52	85.50	4.38	
2025-01-11 08:59:07.72	85.48	4.39	
2025-01-11 08:59:07.93	85.45	4.40	
2025-01-11 08:59:08.13	85.43	4.41	
2025-01-11 08:59:08.34	85.41	4.42	
2025-01-11 08:59:08.54	85.38	4.43	
2025-01-11 08:59:08.75	85.36	4.45	
2025-01-11 08:59:08.95	85.34	4.46	
2025-01-11 08:59:09.16	85.31	4.47	
2025-01-11 08:59:09.36	85.29	4.48	
2025-01-11 08:59:09.57	85.26	4.49	
2025-01-11 08:59:09.77	85.24	4.50	
2025-01-11 08:59:09.98	85.22	4.51	
2025-01-11 08:59:10.19	85.19	4.52	
2025-01-11 08:59:10.39	85.17	4.53	
2025-01-11 08:59:10.60	85.14	4.54	
2025-01-11 08:59:10.80	85.12	4.55	
2025-01-11 08:59:11.01	85.10	4.56	
2025-01-11 08:59:11.21	85.07	4.58	
2025-01-11 08:59:11.42	85.05	4.59	
2025-01-11 08:59:11.62	85.02	4.60	
2025-01-11 08:59:11.83	85.00	4.61	
2025-01-11 08:59:12.04	84.98	4.62	
2025-01-11 08:59:12.25	84.95	4.63	
2025-01-11 08:59:12.46	84.93	4.64	
2025-01-11 08:59:12.66	84.90	4.65	
2025-01-11 08:59:12.87	84.88	4.66	
2025-01-11 08:59:13.07	84.85	4.67	
2025-01-11 08:59:13.28	84.83	4.68	
2025-01-11 08:59:13.48	84.81	4.70	
2025-01-11 08:59:13.69	84.78	4.71	
2025-01-11 08:59:13.89	84.76	4.72	
2025-01-11 08:59:14.10	84.73	4.73	
2025-01-11 08:59:14.30	84.71	4.74	
2025-01-11 08:59:14.51	84.68	4.75	
2025-01-11 08:59:14.71	84.66	4.76	
2025-01-11 08:59:14.92	84.64	4.77	
2025-01-11 08:59:15.12	84.61	4.78	
2025-01-11 08:59:15.33	84.59	4.79	
2025-01-11 08:59:15.55	84.56	4.80	
2025-01-11 08:59:15.75	84.54	4.82	
2025-01-11 08:59:15.96	84.51	4.83	
2025-01-11 08:59:16.17	84.49	4.84	
2025-01-11 08:59:16.37	84.46	4.85	
2025-01-11 08:59:16.58	84.44	4.86	
2025-01-11 08:59:16.78	84.42	4.87	
2025-01-11 08:59:16.99	84.39	4.88	
2025-01-11 08:59:17.19	84.37	4.89	
2025-01-11 08:59:17.40	84.34	4.90	
2025-01-11 08:59:17.60	84.32	4.91	
2025-01-11 08:59:17.81	84.29	4.92	
2025-01-11 08:59:18.01	84.27	4.94	
2025-01-11 08:59:18.22	84.24	4.95	
2025-01-11 08:59:18.44	84.22	4.96	
2025-01-11 08:59:18.64	84.19	4.97	
2025-01-11 08:59:18.85	84.17	4.98	
2025-01-11 08:59:19.05	84.14	4.99	
2025-01-11 08:59:19.26	84.12	5.00	
2025-01-11 08:59:19.46	84.09	5.01	
2025-01-11 08:59:19.67	84.07	5.02	
2025-01-11 08:59:19.88	84.04	5.03	
2025-01-11 08:59:20.08	84.02	5.04	
2025-01-11 08:59:20.29	83.99	5.06	
2025-01-11 08:59:20.51	83.97	5.07	
2025-01-11 08:59:20.71	83.94	5.08	
2025-01-11 08:59:20.92	83.92	5.09	
2025-01-11 08:59:21.12	83.89	5.10	
2025-01-11 08:59:21.33	83.87	5.11	
2025-01-11 08:59:21.53	83.84	5.12	
2025-01-11 08:59:21.74	83.82	5.13	
2025-01-11 08:59:21.95	83.79	5.14	
2025-01-11 08:59:22.15	83.77	5.15	
2025-01-11 08:59:22.36	83.74	5.17	
2025-01-11 08:59:22.56	83.72	5.18	
2025-01-11 08:59:22.77	83.69	5.19	
2025-01-11 08:59:22.98	83.67	5.20	
2025-01-11 08:59:23.18	83.64	5.21	
2025-01-11 08:59:23.39	83.62	5.22	
2025-01-11 08:59:23.59	83.59	5.23	
2025-01-11 08:59:23.80	83.57	5.24	
2025-01-11 08:59:24.00	83.54	5.25	
2025-01-11 08:59:24.21	83.51	5.26	
2025-01-11 08:59:24.41	83.49	5.27	
2025-01-11 08:59:24.62	83.46	5.29	
2025-01-11 08:59:24.82	83.44	5.30	
2025-01-11 08:59:25.03	83.41	5.31	
2025-01-11 08:59:25.23	83.39	5.32	
2025-01-11 08:59:25.44	83.36	5.33	
2025-01-11 08:59:25.64	83.34	5.34	
2025-01-11 08:59:25.84	83.31	5.35	
2025-01-11 08:59:26.05	83.29	5.36	
2025-01-11 08:59:26.25	83.26	5.37	
2025-01-11 08:59:26.46	83.24	5.38	
2025-01-11 08:59:26.67	83.21	5.39	
2025-01-11 08:59:26.87	83.19	5.40	
2025-01-11 08:59:27.08	83.16	5.42	
2025-01-11 08:59:27.28	83.13	5.43	
2025-01-11 08:59:27.49	83.11	5.44	
2025-01-11 08:59:27.69	83.08	5.45	
2025-01-11 08:59:27.90	83.06	5.46	
2025-01-11 08:59:28.10	83.03	5.47	
2025-01-11 08:59:28.31	83.01	5.48	
2025-01-11 08:59:28.51	82.98	5.49	
2025-01-11 08:59:28.72	82.96	5.50	
2025-01-11 08:59:28.92	82.93	5.51	
2025-01-11 08:59:29.13	82.90	5.52	
2025-01-11 08:59:29.33	82.88	5.53	
2025-01-11 08:59:29.54	82.85	5.55	
2025-01-11 08:59:29.74	82.83	5.56	
2025-01-11 08:59:29.95	82.80	5.57	
2025-01-11 08:59:30.15	82.78	5.58	
2025-01-11 08:59:30.36	82.75	5.59	
2025-01-11 08:59:30.56	82.72	5.60	
2025-01-11 08:59:30.77	82.70	5.61	
2025-01-11 08:59:30.97	82.67	5.62	
2025-01-11 08:59:31.18	82.65	5.63	
2025-01-11 08:59:31.38	82.62	5.64	
2025-01-11 08:59:31.59	82.59	5.65	
2025-01-11 08:59:31.80	82.57	5.67	
2025-01-11 08:59:32.00	82.54	5.68	
2025-01-11 08:59:32.20	82.52	5.69	
2025-01-11 08:59:32.41	82.49	5.70	
2025-01-11 08:59:32.61	82.46	5.71	
2025-01-11 08:59:32.82	82.44	5.72	
2025-01-11 08:59:33.03	82.41	5.73	
2025-01-11 08:59:33.23	82.38	5.74	
2025-01-11 08:59:33.43	82.36	5.75	
2025-01-11 08:59:33.64	82.33	5.76	
2025-01-11 08:59:33.85	82.31	5.77	
2025-01-11 08:59:34.05	82.28	5.79	
2025-01-11 08:59:34.26	82.25	5.80	
2025-01-11 08:59:34.47	82.23	5.81	
2025-01-11 08:59:34.68	82.20	5.82	
2025-01-11 08:59:34.88	82.17	5.83	
2025-01-11 08:59:35.09	82.15	5.84	
2025-01-11 08:59:35.30	82.12	5.85	
2025-01-11 08:59:35.50	82.09	5.86	
2025-01-11 08:59:35.70	82.07	5.87	
2025-01-11 08:59:35.91	82.04	5.88	
2025-01-11 08:59:36.11	82.02	5.89	
2025-01-11 08:59:36.32	81.99	5.91	
2025-01-11 08:59:36.52	81.96	5.92	
2025-01-11 08:59:36.73	81.94	5.93	
2025-01-11 08:59:36.93	81.91	5.94	
2025-01-11 08:59:37.14	81.88	5.95	
2025-01-11 08:59:37.34	81.86	5.96	
2025-01-11 08:59:37.55	81.83	5.97	
2025-01-11 08:59:37.75	81.80	5.98	
2025-01-11 08:59:37.96	81.78	5.99	
2025-01-11 08:59:38.16	81.75	6.00	
2025-01-11 08:59:38.37	81.72	6.01	
2025-01-11 08:59:38.57	81.70	6.02	
2025-01-11 08:59:38.78	81.67	6.04	
2025-01-11 08:59:38.98	81.64	6.05	
2025-01-11 08:59:39.19	81.62	6.06	
2025-01-11 08:59:39.39	81.59	6.07	
2025-01-11 08:59:39.60	81.56	6.08	
2025-01-11 08:59:39.82	81.53	6.09	
2025-01-11 08:59:40.02	81.51	6.10	
2025-01-11 08:59:40.23	81.48	6.11	
2025-01-11 08:59:40.43	81.45	6.12	
2025-01-11 08:59:40.64	81.43	6.13	
2025-01-11 08:59:40.86	81.40	6.15	
2025-01-11 08:59:41.06	81.37	6.16	
2025-01-11 08:59:41.27	81.34	6.17	
2025-01-11 08:59:41.47	81.32	6.18	
2025-01-11 08:59:41.68	81.29	6.19	
2025-01-11 08:59:41.90	81.26	6.20	
2025-01-11 08:59:42.10	81.23	6.21	
2025-01-11 08:59:42.31	81.21	6.22	
2025-01-11 08:59:42.51	81.18	6.23	
2025-01-11 08:59:42.72	81.15	6.24	
2025-01-11 08:59:42.92	81.12	6.25	
2025-01-11 08:59:43.12	81.10	6.27	
2025-01-11 08:59:43.33	81.07	6.28	
2025-01-11 08:59:43.54	81.04	6.29	
2025-01-11 08:59:43.74	81.02	6.30	
2025-01-11 08:59:43.94	80.99	6.31	
2025-01-11 08:59:44.15	80.96	6.32	
2025-01-11 08:59:44.36	80.93	6.33	
2025-01-11 08:59:44.56	80.91	6.34	
2025-01-11 08:59:44.77	80.88	6.35	
2025-01-11 08:59:44.97	80.85	6.36	
2025-01-11 08:59:45.18	80.82	6.37	
2025-01-11 08:59:45.38	80.80	6.38	
2025-01-11 08:59:45.59	80.77	6.40	
2025-01-11 08:59:45.79	80.74	6.41	
2025-01-11 08:59:46.00	80.71	6.42	
2025-01-11 08:59:46.20	80.69	6.43	
2025-01-11 08:59:46.41	80.66	6.44	
2025-01-11 08:59:46.61	80.63	6.45	
2025-01-11 08:59:46.82	80.60	6.46	
2025-01-11 08:59:47.03	80.58	6.47	
2025-01-11 08:59:47.23	80.55	6.48	
2025-01-11 08:59:47.43	80.52	6.49	
2025-01-11 08:59:47.64	80.49	6.50	
2025-01-11 08:59:47.84	80.47	6.51	
2025-01-11 08:59:48.05	80.44	6.53	
2025-01-11 08:59:48.25	80.41	6.54	
2025-01-11 08:59:48.46	80.38	6.55	
2025-01-11 08:59:48.67	80.35	6.56	
2025-01-11 08:59:48.87	80.33	6.57	
2025-01-11 08:59:49.08	80.30	6.58	
2025-01-11 08:59:49.28	80.27	6.59	
2025-01-11 08:59:49.49	80.24	6.60	
2025-01-11 08:59:49.70	80.21	6.61	
2025-01-11 08:59:49.90	80.19	6.62	
2025-01-11 08:59:50.11	80.16	6.63	
2025-01-11 08:59:50.31	80.13	6.64	
2025-01-11 08:59:50.52	80.10	6.66	
2025-01-11 08:59:50.72	80.07	6.67	
2025-01-11 08:59:50.93	80.05	6.68	
2025-01-11 08:59:51.13	80.02	6.69	
2025-01-11 08:59:51.34	79.99	6.70	
2025-01-11 08:59:51.54	79.96	6.71	
2025-01-11 08:59:51.75	79.93	6.72	
2025-01-11 08:59:51.95	79.91	6.73	
2025-01-11 08:59:52.16	79.88	6.74	
2025-01-11 08:59:52.37	79.85	6.75	
2025-01-11 08:59:52.57	79.82	6.76	
2025-01-11 08:59:52.77	79.79	6.77	
2025-01-11 08:59:52.98	79.76	6.79	
2025-01-11 08:59:53.19	79.73	6.80	
2025-01-11 08:59:53.39	79.71	6.81	
2025-01-11 08:59:53.60	79.68	6.82	
2025-01-11 08:59:53.80	79.65	6.83	
2025-01-11 08:59:54.01	79.62	6.84	
2025-01-11 08:59:54.21	79.59	6.85	
2025-01-11 08:59:54.42	79.56	6.86	
2025-01-11 08:59:54.62	79.54	6.87	
2025-01-11 08:59:54.83	79.51	6.88	
2025-01-11 08:59:55.03	79.48	6.89	
2025-01-11 08:59:55.24	79.45	6.90	
2025-01-11 08:59:55.44	79.42	6.92	
2025-01-11 08:59:55.65	79.39	6.93	
2025-01-11 08:59:55.85	79.36	6.94	
2025-01-11 08:59:56.06	79.34	6.95	
2025-01-11 08:59:56.26	79.31	6.96	
2025-01-11 08:59:56.47	79.28	6.97	
2025-01-11 08:59:56.68	79.25	6.98	
2025-01-11 08:59:56.88	79.22	6.99	
2025-01-11 08:59:57.09	79.19	7.00	
2025-01-11 08:59:57.29	79.16	7.01	
2025-01-11 08:59:57.50	79.13	7.02	
2025-01-11 08:59:57.70	79.11	7.03	
2025-01-11 08:59:57.90	79.08	7.04	
2025-01-11 08:59:58.11	79.05	7.06	
2025-01-11 08:59:58.32	79.02	7.07	
2025-01-11 08:59:58.52	78.99	7.08	
2025-01-11 08:59:58.73	78.96	7.09	
2025-01-11 08:59:58.93	78.93	7.10	
2025-01-11 08:59:59.14	78.90	7.11	
2025-01-11 08:59:59.34	78.87	7.12	
2025-01-11 08:59:59.55	78.84	7.13	
2025-01-11 08:59:59.75	78.82	7.14	
2025-01-11 08:59:59.95	78.79	7.15	
2025-01-11 09:00:00.17	78.76	7.16	
2025-01-11 09:00:00.38	78.73	7.17	
2025-01-11 09:00:00.58	78.70	7.19	
2025-01-11 09:00:00.79	78.67	7.20	
2025-01-11 09:00:00.99	78.64	7.21	
2025-01-11 09:00:01.20	78.61	7.22	
2025-01-11 09:00:01.40	78.58	7.23	
2025-01-11 09:00:01.61	78.55	7.24	
2025-01-11 09:00:01.81	78.52	7.25	
2025-01-11 09:00:02.02	78.49	7.26	
2025-01-11 09:00:02.22	78.46	7.27	
2025-01-11 09:00:02.43	78.43	7.28	
2025-01-11 09:00:02.64	78.40	7.29	
2025-01-11 09:00:02.84	78.37	7.30	
2025-01-11 09:00:03.05	78.34	7.31	
2025-01-11 09:00:03.27	78.31	7.33	
2025-01-11 09:00:03.47	78.28	7.34	
2025-01-11 09:00:03.68	78.25	7.35	
2025-01-11 09:00:03.88	78.23	7.36	
2025-01-11 09:00:04.09	78.20	7.37	
2025-01-11 09:00:04.29	78.17	7.38	
2025-01-11 09:00:04.50	78.14	7.39	
2025-01-11 09:00:04.70	78.11	7.40	
2025-01-11 09:00:04.91	78.08	7.41	
2025-01-11 09:00:05.12	78.05	7.42	
2025-01-11 09:00:05.32	78.02	7.43	
2025-01-11 09:00:05.52	77.99	7.44	
2025-01-11 09:00:05.73	77.96	7.45	
2025-01-11 09:00:05.93	77.93	7.47	
2025-01-11 09:00:06.14	77.90	7.48	
2025-01-11 09:00:06.34	77.87	7.49	
2025-01-11 09:00:06.55	77.84	7.50	
2025-01-11 09:00:06.75	77.81	7.51	
2025-01-11 09:00:06.96	77.78	7.52	
2025-01-11 09:00:07.17	77.75	7.53	
2025-01-11 09:00:07.37	77.72	7.54	
2025-01-11 09:00:07.58	77.69	7.55	
2025-01-11 09:00:07.78	77.66	7.56	
2025-01-11 09:00:07.99	77.63	7.57	
2025-01-11 09:00:08.19	77.60	7.58	
2025-01-11 09:00:08.40	77.57	7.59	
2025-01-11 09:00:08.60	77.54	7.60	
2025-01-11 09:00:08.81	77.51	7.62	
2025-01-11 09:00:09.01	77.48	7.63	
2025-01-11 09:00:09.22	77.45	7.64	
2025-01-11 09:00:09.42	77.42	7.65	
2025-01-11 09:00:09.63	77.39	7.66	
2025-01-11 09:00:09.83	77.36	7.67	
2025-01-11 09:00:10.04	77.33	7.68	
2025-01-11 09:00:10.25	77.30	7.69	
2025-01-11 09:00:10.45	77.27	7.70	
2025-01-11 09:00:10.65	77.24	7.71	
2025-01-11 09:00:10.86	77.20	7.72	
2025-01-11 09:00:11.06	77.18	7.73	
2025-01-11 09:00:11.27	77.14	7.74	
2025-01-11 09:00:11.47	77.11	7.75	
2025-01-11 09:00:11.68	77.08	7.76	
2025-01-11 09:00:11.88	77.05	7.77	
2025-01-11 09:00:12.09	77.02	7.79	
2025-01-11 09:00:12.29	76.99	7.80	
2025-01-11 09:00:12.50	76.96	7.81	
2025-01-11 09:00:12.71	76.93	7.82	
2025-01-11 09:00:12.91	76.90	7.83	
2025-01-11 09:00:13.12	76.87	7.84	
2025-01-11 09:00:13.32	76.84	7.85	
2025-01-11 09:00:13.53	76.81	7.86	
2025-01-11 09:00:13.73	76.78	7.87	
2025-01-11 09:00:13.94	76.75	7.88	
2025-01-11 09:00:14.14	76.72	7.89	
2025-01-11 09:00:14.35	76.68	7.90	
2025-01-11 09:00:14.55	76.65	7.91	
2025-01-11 09:00:14.76	76.62	7.92	
2025-01-11 09:00:14.98	76.59	7.94	
2025-01-11 09:00:15.18	76.56	7.95	
2025-01-11 09:00:15.39	76.53	7.96	
2025-01-11 09:00:15.59	76.50	7.97	
2025-01-11 09:00:15.80	76.47	7.98	
2025-01-11 09:00:16.00	76.44	7.99	
2025-01-11 09:00:16.21	76.40	8.00	
2025-01-11 09:00:16.42	76.37	8.01	
2025-01-11 09:00:16.62	76.34	8.02	
2025-01-11 09:00:16.83	76.31	8.03	
2025-01-11 09:00:17.03	76.28	8.04	
2025-01-11 09:00:17.23	76.25	8.05	
2025-01-11 09:00:17.44	76.22	8.06	
2025-01-11 09:00:17.64	76.19	8.07	
2025-01-11 09:00:17.85	76.15	8.08	
2025-01-11 09:00:18.06	76.12	8.09	
2025-01-11 09:00:18.26	76.09	8.10	
2025-01-11 09:00:18.46	76.06	8.12	
2025-01-11 09:00:18.67	76.03	8.13	
2025-01-11 09:00:18.88	76.00	8.14	
2025-01-11 09:00:19.08	75.97	8.15	
2025-01-11 09:00:19.29	75.93	8.16	
2025-01-11 09:00:19.49	75.90	8.17	
2025-01-11 09:00:19.70	75.87	8.18	
2025-01-11 09:00:19.90	75.84	8.19	
2025-01-11 09:00:20.11	75.81	8.20	
2025-01-11 09:00:20.32	75.78	8.21	
2025-01-11 09:00:20.53	75.74	8.22	
2025-01-11 09:00:20.73	75.71	8.23	
2025-01-11 09:00:20.94	75.68	8.24	
2025-01-11 09:00:21.15	75.65	8.25	
2025-01-11 09:00:21.35	75.62	8.26	
2025-01-11 09:00:21.55	75.59	8.27	
2025-01-11 09:00:21.76	75.55	8.28	
2025-01-11 09:00:21.97	75.52	8.30	
2025-01-11 09:00:22.18	75.49	8.31	
2025-01-11 09:00:22.38	75.46	8.32	
2025-01-11 09:00:22.59	75.43	8.33	
2025-01-11 09:00:22.79	75.40	8.34	
2025-01-11 09:00:23.00	75.36	8.35	
2025-01-11 09:00:23.20	75.33	8.36	
2025-01-11 09:00:23.41	75.30	8.37	
2025-01-11 09:00:23.61	75.27	8.38	
2025-01-11 09:00:23.82	75.24	8.39	
2025-01-11 09:00:24.02	75.20	8.40	
2025-01-11 09:00:24.23	75.17	8.41	
2025-01-11 09:00:24.44	75.14	8.42	
2025-01-11 09:00:24.64	75.11	8.43	
2025-01-11 09:00:24.84	75.08	8.44	
2025-01-11 09:00:25.05	75.04	8.45	
2025-01-11 09:00:25.26	75.01	8.46	
2025-01-11 09:00:25.46	74.98	8.47	
2025-01-11 09:00:25.66	74.95	8.48	
2025-01-11 09:00:25.87	74.91	8.50	
2025-01-11 09:00:26.07	74.88	8.51	
2025-01-11 09:00:26.28	74.85	8.52	
2025-01-11 09:00:26.49	74.82	8.53	
2025-01-11 09:00:26.69	74.79	8.54	
2025-01-11 09:00:26.89	74.75	8.55	
2025-01-11 09:00:27.10	74.72	8.56	
2025-01-11 09:00:27.31	74.69	8.57	
2025-01-11 09:00:27.51	74.66	8.58	
2025-01-11 09:00:27.72	74.62	8.59	
2025-01-11 09:00:27.92	74.59	8.60	
2025-01-11 09:00:28.13	74.56	8.61	
2025-01-11 09:00:28.33	74.53	8.62	
2025-01-11 09:00:28.54	74.49	8.63	
2025-01-11 09:00:28.74	74.46	8.64	
2025-01-11 09:00:28.95	74.43	8.65	
2025-01-11 09:00:29.15	74.40	8.66	
2025-01-11 09:00:29.36	74.36	8.67	
2025-01-11 09:00:29.56	74.33	8.68	
2025-01-11 09:00:29.77	74.30	8.69	
2025-01-11 09:00:29.97	74.27	8.70	
2025-01-11 09:00:30.18	74.23	8.71	
2025-01-11 09:00:30.39	74.20	8.73	
2025-01-11 09:00:30.59	74.17	8.74	
2025-01-11 09:00:30.80	74.13	8.75	
2025-01-11 09:00:31.00	74.10	8.76	
2025-01-11 09:00:31.20	74.07	8.77	
2025-01-11 09:00:31.41	74.03	8.78	
2025-01-11 09:00:31.61	74.00	8.79	
2025-01-11 09:00:31.82	73.97	8.80	
2025-01-11 09:00:32.02	73.94	8.81	
2025-01-11 09:00:32.23	73.90	8.82	
2025-01-11 09:00:32.43	73.87	8.83	
2025-01-11 09:00:32.64	73.84	8.84	
2025-01-11 09:00:32.84	73.80	8.85	
2025-01-11 09:00:33.05	73.77	8.86	
2025-01-11 09:00:33.25	73.74	8.87	
2025-01-11 09:00:33.46	73.70	8.88	
2025-01-11 09:00:33.66	73.67	8.89	
2025-01-11 09:00:33.87	73.64	8.90	
2025-01-11 09:00:34.08	73.60	8.91	
2025-01-11 09:00:34.28	73.57	8.92	
2025-01-11 09:00:34.49	73.54	8.93	
2025-01-11 09:00:34.69	73.51	8.94	
2025-01-11 09:00:34.90	73.47	8.95	
2025-01-11 09:00:35.10	73.44	8.96	
2025-01-11 09:00:35.31	73.40	8.97	
2025-01-11 09:00:35.51	73.37	8.98	
2025-01-11 09:00:35.72	73.34	8.99	
2025-01-11 09:00:35.92	73.31	9.00	
2025-01-11 09:00:36.13	73.27	9.01	
2025-01-11 09:00:36.33	73.24	9.02	
2025-01-11 09:00:36.54	73.20	9.03	
2025-01-11 09:00:36.74	73.17	9.04	
2025-01-11 09:00:36.95	73.14	9.06	
2025-01-11 09:00:37.16	73.10	9.07	
2025-01-11 09:00:37.36	73.07	9.08	
2025-01-11 09:00:37.57	73.03	9.09	
2025-01-11 09:00:37.77	73.00	9.10	
2025-01-11 09:00:37.98	72.97	9.11	
2025-01-11 09:00:38.18	72.93	9.12	
2025-01-11 09:00:38.39	72.90	9.13	
2025-01-11 09:00:38.59	72.87	9.14	
2025-01-11 09:00:38.80	72.83	9.15	
2025-01-11 09:00:39.00	72.80	9.16	
2025-01-11 09:00:39.21	72.76	9.17	
2025-01-11 09:00:39.41	72.73	9.18	
2025-01-11 09:00:39.62	72.70	9.19	
2025-01-11 09:00:39.82	72.66	9.20	
2025-01-11 09:00:40.03	72.63	9.21	
2025-01-11 09:00:40.23	72.60	9.22	
2025-01-11 09:00:40.44	72.56	9.23	
2025-01-11 09:00:40.64	72.53	9.24	
2025-01-11 09:00:40.85	72.49	9.25	
2025-01-11 09:00:41.05	72.46	9.26	
2025-01-11 09:00:41.26	72.42	9.27	
2025-01-11 09:00:41.47	72.39	9.28	
2025-01-11 09:00:41.67	72.36	9.29	
2025-01-11 09:00:41.88	72.32	9.30	
2025-01-11 09:00:42.08	72.29	9.31	
2025-01-11 09:00:42.29	72.25	9.32	
2025-01-11 09:00:42.50	72.22	9.33	
2025-01-11 09:00:42.70	72.18	9.34	
2025-01-11 09:00:42.90	72.15	9.35	
2025-01-11 09:00:43.11	72.12	9.36	
2025-01-11 09:00:43.32	72.08	9.37	
2025-01-11 09:00:43.52	72.05	9.38	
2025-01-11 09:00:43.73	72.01	9.39	
2025-01-11 09:00:43.93	71.98	9.40	
2025-01-11 09:00:44.14	71.94	9.41	
2025-01-11 09:00:44.34	71.91	9.42	
2025-01-11 09:00:44.56	71.87	9.43	
2025-01-11 09:00:44.76	71.84	9.44	
2025-01-11 09:00:44.97	71.80	9.45	
2025-01-11 09:00:45.17	71.77	9.46	
2025-01-11 09:00:45.38	71.73	9.47	
2025-01-11 09:00:45.58	71.70	9.48	
2025-01-11 09:00:45.79	71.66	9.49	
2025-01-11 09:00:45.99	71.63	9.50	
2025-01-11 09:00:46.20	71.59	9.51	
2025-01-11 09:00:46.40	71.56	9.52	
2025-01-11 09:00:46.61	71.53	9.53	
2025-01-11 09:00:46.81	71.49	9.54	
2025-01-11 09:00:47.01	71.46	9.55	
2025-01-11 09:00:47.22	71.42	9.56	
2025-01-11 09:00:47.42	71.39	9.57	
2025-01-11 09:00:47.63	71.35	9.58	
2025-01-11 09:00:47.83	71.32	9.59	
2025-01-11 09:00:48.04	71.28	9.60	
2025-01-11 09:00:48.24	71.25	9.61	
2025-01-11 09:00:48.45	71.21	9.62	
2025-01-11 09:00:48.65	71.18	9.63	
2025-01-11 09:00:48.86	71.14	9.64	
2025-01-11 09:00:49.07	71.11	9.65	
2025-01-11 09:00:49.27	71.07	9.66	
2025-01-11 09:00:49.48	71.04	9.67	
2025-01-11 09:00:49.68	71.00	9.68	
2025-01-11 09:00:49.89	70.96	9.69	
2025-01-11 09:00:50.09	70.93	9.70	
2025-01-11 09:00:50.29	70.90	9.71	
2025-01-11 09:00:50.49	70.86	9.72	
2025-01-11 09:00:50.69	70.83	9.73	
2025-01-11 09:00:50.90	70.79	9.74	
2025-01-11 09:00:51.11	70.75	9.75	
2025-01-11 09:00:51.31	70.72	9.76	
2025-01-11 09:00:51.51	70.69	9.77	
2025-01-11 09:00:51.72	70.65	9.78	
2025-01-11 09:00:51.93	70.61	9.79	
2025-01-11 09:00:52.13	70.58	9.80	
2025-01-11 09:00:52.33	70.54	9.81	
2025-01-11 09:00:52.54	70.51	9.82	
2025-01-11 09:00:52.75	70.47	9.83	
2025-01-11 09:00:52.95	70.44	9.84	
2025-01-11 09:00:53.16	70.40	9.85	
2025-01-11 09:00:53.36	70.36	9.86	
2025-01-11 09:00:53.57	70.33	9.87	
2025-01-11 09:00:53.77	70.29	9.88	
2025-01-11 09:00:53.98	70.26	9.89	
2025-01-11 09:00:54.18	70.22	9.90	
2025-01-11 09:00:54.39	70.19	9.91	
2025-01-11 09:00:54.60	70.15	9.92	
2025-01-11 09:00:54.82	70.11	9.93	
2025-01-11 09:00:55.03	70.07	9.94	
2025-01-11 09:00:55.23	70.04	9.95	
2025-01-11 09:00:55.44	70.00	9.96	
2025-01-11 09:00:55.64	69.97	9.97	
2025-01-11 09:00:55.84	69.93	9.98	
2025-01-11 09:00:56.05	69.89	9.99	
2025-01-11 09:00:56.26	69.86	10.00	
2025-01-11 09:00:56.46	69.82	10.01	
2025-01-11 09:00:56.67	69.79	10.02	
2025-01-11 09:00:56.87	69.75	10.03	
2025-01-11 09:00:57.08	69.71	10.04	
2025-01-11 09:00:57.29	69.68	10.05	
2025-01-11 09:00:57.49	69.64	10.06	
2025-01-11 09:00:57.70	69.60	10.07	
2025-01-11 09:00:57.90	69.57	10.08	
2025-01-11 09:00:58.11	69.53	10.09	
2025-01-11 09:00:58.31	69.50	10.10	
2025-01-11 09:00:58.52	69.46	10.11	
2025-01-11 09:00:58.72	69.42	10.12	
2025-01-11 09:00:58.93	69.39	10.13	
2025-01-11 09:00:59.13	69.35	10.14	
2025-01-11 09:00:59.34	69.31	10.15	
2025-01-11 09:00:59.55	69.28	10.16	
2025-01-11 09:00:59.75	69.24	10.17	
2025-01-11 09:00:59.96	69.20	10.18	
2025-01-11 09:01:00.17	69.17	10.19	
2025-01-11 09:01:00.38	69.13	10.20	
2025-01-11 09:01:00.58	69.09	10.21	
2025-01-11 09:01:00.79	69.05	10.22	
2025-01-11 09:01:00.99	69.02	10.22	
2025-01-11 09:01:01.20	68.98	10.23	
2025-01-11 09:01:01.40	68.95	10.24	
2025-01-11 09:01:01.61	68.91	10.25	
2025-01-11 09:01:01.82	68.87	10.26	
2025-01-11 09:01:02.03	68.83	10.27	
2025-01-11 09:01:02.24	68.80	10.28	
2025-01-11 09:01:02.44	68.76	10.29	
2025-01-11 09:01:02.65	68.72	10.30	
2025-01-11 09:01:02.85	68.69	10.31	
2025-01-11 09:01:03.06	68.65	10.32	
2025-01-11 09:01:03.26	68.61	10.33	
2025-01-11 09:01:03.47	68.57	10.34	
2025-01-11 09:01:03.67	68.54	10.35	
2025-01-11 09:01:03.88	68.50	10.36	
2025-01-11 09:01:04.08	68.46	10.37	
2025-01-11 09:01:04.29	68.43	10.38	
2025-01-11 09:01:04.50	68.39	10.39	
2025-01-11 09:01:04.70	68.35	10.40	
2025-01-11 09:01:04.91	68.31	10.41	
2025-01-11 09:01:05.11	68.28	10.42	
2025-01-11 09:01:05.32	68.24	10.43	
2025-01-11 09:01:05.52	68.20	10.44	
2025-01-11 09:01:05.73	68.16	10.45	
2025-01-11 09:01:05.93	68.13	10.45	
2025-01-11 09:01:06.14	68.09	10.46	
2025-01-11 09:01:06.34	68.05	10.47	
2025-01-11 09:01:06.55	68.02	10.48	
2025-01-11 09:01:06.75	67.98	10.49	
2025-01-11 09:01:06.96	67.94	10.50	
2025-01-11 09:01:07.16	67.90	10.51	
2025-01-11 09:01:07.37	67.87	10.52	
2025-01-11 09:01:07.57	67.83	10.53	
2025-01-11 09:01:07.78	67.79	10.54	
2025-01-11 09:01:07.99	67.75	10.55	
2025-01-11 09:01:08.19	67.72	10.56	
2025-01-11 09:01:08.39	67.68	10.57	
2025-01-11 09:01:08.60	67.64	10.58	
2025-01-11 09:01:08.81	67.60	10.59	
2025-01-11 09:01:09.01	67.57	10.60	
2025-01-11 09:01:09.22	67.53	10.61	
2025-01-11 09:01:09.42	67.49	10.62	
2025-01-11 09:01:09.62	67.45	10.62	
2025-01-11 09:01:09.83	67.41	10.63	
2025-01-11 09:01:10.03	67.38	10.64	
2025-01-11 09:01:10.24	67.34	10.65	
2025-01-11 09:01:10.46	67.30	10.66	
2025-01-11 09:01:10.66	67.26	10.67	
2025-01-11 09:01:10.87	67.22	10.68	
2025-01-11 09:01:11.07	67.19	10.69	
2025-01-11 09:01:11.28	67.15	10.70	
2025-01-11 09:01:11.48	67.11	10.71	
2025-01-11 09:01:11.69	67.07	10.72	
2025-01-11 09:01:11.89	67.03	10.73	
2025-01-11 09:01:12.10	66.99	10.74	
2025-01-11 09:01:12.30	66.96	10.75	
2025-01-11 09:01:12.51	66.92	10.76	
2025-01-11 09:01:12.71	66.88	10.76	
2025-01-11 09:01:12.92	66.84	10.77	
2025-01-11 09:01:13.13	66.80	10.78	
2025-01-11 09:01:13.33	66.77	10.79	
2025-01-11 09:01:13.54	66.73	10.80	
2025-01-11 09:01:13.74	66.69	10.81	
2025-01-11 09:01:13.94	66.65	10.82	
2025-01-11 09:01:14.15	66.61	10.83	
2025-01-11 09:01:14.36	66.57	10.84	
2025-01-11 09:01:14.56	66.54	10.85	
2025-01-11 09:01:14.77	66.50	10.86	
2025-01-11 09:01:14.97	66.46	10.87	
2025-01-11 09:01:15.18	66.42	10.87	
2025-01-11 09:01:15.39	66.38	10.88	
2025-01-11 09:01:15.59	66.34	10.89	
2025-01-11 09:01:15.79	66.30	10.90	
2025-01-11 09:01:16.00	66.27	10.91	
2025-01-11 09:01:16.21	66.23	10.92	
2025-01-11 09:01:16.41	66.19	10.93	
2025-01-11 09:01:16.62	66.15	10.94	
2025-01-11 09:01:16.82	66.11	10.95	
2025-01-11 09:01:17.02	66.07	10.96	
2025-01-11 09:01:17.24	66.03	10.97	
2025-01-11 09:01:17.44	65.99	10.98	
2025-01-11 09:01:17.65	65.95	10.98	
2025-01-11 09:01:17.85	65.92	10.99	
2025-01-11 09:01:18.06	65.88	11.00	
2025-01-11 09:01:18.27	65.84	11.01	
2025-01-11 09:01:18.47	65.80	11.02	
2025-01-11 09:01:18.68	65.76	11.03	
2025-01-11 09:01:18.88	65.72	11.04	
2025-01-11 09:01:19.09	65.68	11.05	
2025-01-11 09:01:19.29	65.64	11.06	
2025-01-11 09:01:19.50	65.60	11.07	
2025-01-11 09:01:19.70	65.56	11.07	
2025-01-11 09:01:19.91	65.52	11.08	
2025-01-11 09:01:20.13	65.48	11.09	
2025-01-11 09:01:20.33	65.44	11.10	
2025-01-11 09:01:20.54	65.40	11.11	
2025-01-11 09:01:20.74	65.37	11.12	
2025-01-11 09:01:20.94	65.33	11.13	
2025-01-11 09:01:21.15	65.29	11.14	
2025-01-11 09:01:21.35	65.25	11.15	
2025-01-11 09:01:21.56	65.21	11.16	
2025-01-11 09:01:21.77	65.17	11.16	
2025-01-11 09:01:21.97	65.13	11.17	
2025-01-11 09:01:22.17	65.09	11.18	
2025-01-11 09:01:22.38	65.05	11.19	
2025-01-11 09:01:22.58	65.01	11.20	
2025-01-11 09:01:22.79	64.97	11.21	
2025-01-11 09:01:23.00	64.93	11.22	
2025-01-11 09:01:23.20	64.89	11.23	
2025-01-11 09:01:23.40	64.86	11.23	
2025-01-11 09:01:23.61	64.82	11.24	
2025-01-11 09:01:23.82	64.78	11.25	
2025-01-11 09:01:24.02	64.74	11.26	
2025-01-11 09:01:24.23	64.70	11.27	
2025-01-11 09:01:24.43	64.66	11.28	
2025-01-11 09:01:24.64	64.62	11.29	
2025-01-11 09:01:24.84	64.58	11.30	
2025-01-11 09:01:25.05	64.54	11.31	
2025-01-11 09:01:25.25	64.50	11.31	
2025-01-11 09:01:25.46	64.46	11.32	
2025-01-11 09:01:25.66	64.42	11.33	
2025-01-11 09:01:25.87	64.38	11.34	
2025-01-11 09:01:26.07	64.34	11.35	
2025-01-11 09:01:26.28	64.30	11.36	
2025-01-11 09:01:26.48	64.26	11.37	
2025-01-11 09:01:26.69	64.22	11.37	
2025-01-11 09:01:26.89	64.18	11.38	
2025-01-11 09:01:27.10	64.14	11.39	
2025-01-11 09:01:27.31	64.10	11.40	
2025-01-11 09:01:27.51	64.06	11.41	
2025-01-11 09:01:27.72	64.02	11.42	
2025-01-11 09:01:27.92	63.98	11.43	
2025-01-11 09:01:28.13	63.94	11.44	
2025-01-11 09:01:28.33	63.90	11.44	
2025-01-11 09:01:28.54	63.86	11.45	
2025-01-11 09:01:28.74	63.82	11.46	
2025-01-11 09:01:28.95	63.78	11.47	
2025-01-11 09:01:29.15	63.74	11.48	
2025-01-11 09:01:29.36	63.70	11.49	
2025-01-11 09:01:29.57	63.66	11.50	
2025-01-11 09:01:29.77	63.62	11.50	
2025-01-11 09:01:29.97	63.58	11.51	
2025-01-11 09:01:30.18	63.54	11.52	
2025-01-11 09:01:30.39	63.49	11.53	
2025-01-11 09:01:30.59	63.46	11.54	
2025-01-11 09:01:30.79	63.42	11.55	
2025-01-11 09:01:31.00	63.37	11.55	
2025-01-11 09:01:31.20	63.33	11.56	
2025-01-11 09:01:31.41	63.29	11.57	
2025-01-11 09:01:31.62	63.25	11.58	
2025-01-11 09:01:31.82	63.21	11.59	
2025-01-11 09:01:32.02	63.17	11.60	
2025-01-11 09:01:32.23	63.13	11.60	
2025-01-11 09:01:32.44	63.09	11.61	
2025-01-11 09:01:32.64	63.05	11.62	
2025-01-11 09:01:32.85	63.01	11.63	
2025-01-11 09:01:33.05	62.97	11.64	
2025-01-11 09:01:33.25	62.93	11.65	
2025-01-11 09:01:33.46	62.89	11.65	
2025-01-11 09:01:33.67	62.85	11.66	
2025-01-11 09:01:33.87	62.81	11.67	
2025-01-11 09:01:34.07	62.77	11.68	
2025-01-11 09:01:34.28	62.72	11.69	
2025-01-11 09:01:34.49	62.68	11.70	
2025-01-11 09:01:34.69	62.64	11.70	
2025-01-11 09:01:34.90	62.60	11.71	
2025-01-11 09:01:35.10	62.56	11.72	
2025-01-11 09:01:35.30	62.52	11.73	
2025-01-11 09:01:35.51	62.48	11.74	
2025-01-11 09:01:35.71	62.44	11.75	
2025-01-11 09:01:35.92	62.40	11.75	
2025-01-11 09:01:36.12	62.36	11.76	
2025-01-11 09:01:36.33	62.31	11.77	
2025-01-11 09:01:36.53	62.27	11.78	
2025-01-11 09:01:36.74	62.23	11.79	
2025-01-11 09:01:36.94	62.19	11.79	
2025-01-11 09:01:37.15	62.15	11.80	
2025-01-11 09:01:37.35	62.11	11.81	
2025-01-11 09:01:37.56	62.07	11.82	
2025-01-11 09:01:37.76	62.03	11.83	
2025-01-11 09:01:37.97	61.98	11.84	
2025-01-11 09:01:38.17	61.94	11.84	
2025-01-11 09:01:38.38	61.90	11.85	
2025-01-11 09:01:38.59	61.86	11.86	
2025-01-11 09:01:38.79	61.82	11.87	
2025-01-11 09:01:39.00	61.78	11.88	
2025-01-11 09:01:39.20	61.74	11.88	
2025-01-11 09:01:39.41	61.69	11.89	
2025-01-11 09:01:39.61	61.65	11.90	
2025-01-11 09:01:39.82	61.61	11.91	
2025-01-11 09:01:40.02	61.57	11.92	
2025-01-11 09:01:40.23	61.53	11.92	
2025-01-11 09:01:40.43	61.49	11.93	
2025-01-11 09:01:40.64	61.45	11.94	
2025-01-11 09:01:40.85	61.40	11.95	
2025-01-11 09:01:41.05	61.36	11.96	
2025-01-11 09:01:41.26	61.32	11.96	
2025-01-11 09:01:41.47	61.28	11.97	
2025-01-11 09:01:41.68	61.23	11.98	
2025-01-11 09:01:41.89	61.19	11.99	
2025-01-11 09:01:42.09	61.15	12.00	
2025-01-11 09:01:42.30	61.11	12.00	
2025-01-11 09:01:42.50	61.07	12.01	
2025-01-11 09:01:42.71	61.02	12.02	
2025-01-11 09:01:42.91	60.98	12.03	
2025-01-11 09:01:43.12	60.94	12.04	
2025-01-11 09:01:43.32	60.90	12.04	
2025-01-11 09:01:43.53	60.86	12.05	
2025-01-11 09:01:43.73	60.82	12.06	
2025-01-11 09:01:43.94	60.77	12.07	
2025-01-11 09:01:44.15	60.73	12.07	
2025-01-11 09:01:44.35	60.69	12.08	
2025-01-11 09:01:44.55	60.65	12.09	
2025-01-11 09:01:44.76	60.60	12.10	
2025-01-11 09:01:44.97	60.56	12.11	
2025-01-11 09:01:45.17	60.52	12.11	
2025-01-11 09:01:45.38	60.48	12.12	
2025-01-11 09:01:45.58	60.44	12.13	
2025-01-11 09:01:45.79	60.39	12.14	
2025-01-11 09:01:45.99	60.35	12.14	
2025-01-11 09:01:46.20	60.31	12.15	
2025-01-11 09:01:46.40	60.27	12.16	
2025-01-11 09:01:46.61	60.22	12.17	
2025-01-11 09:01:46.81	60.18	12.17	
2025-01-11 09:01:47.02	60.14	12.18	
2025-01-11 09:01:47.22	60.10	12.19	
2025-01-11 09:01:47.43	60.05	12.20	
2025-01-11 09:01:47.63	60.01	12.20	
2025-01-11 09:01:47.84	59.97	12.21	
2025-01-11 09:01:48.04	59.93	12.22	
2025-01-11 09:01:48.25	59.88	12.23	
2025-01-11 09:01:48.45	59.84	12.23	
2025-01-11 09:01:48.66	59.80	12.24	
2025-01-11 09:01:48.86	59.76	12.25	
2025-01-11 09:01:49.07	59.71	12.26	
2025-01-11 09:01:49.27	59.67	12.26	
2025-01-11 09:01:49.48	59.63	12.27	
2025-01-11 09:01:49.68	59.59	12.28	
2025-01-11 09:01:49.89	59.54	12.29	
2025-01-11 09:01:50.09	59.50	12.29	
2025-01-11 09:01:50.30	59.46	12.30	
2025-01-11 09:01:50.50	59.42	12.31	
2025-01-11 09:01:50.71	59.37	12.32	
2025-01-11 09:01:50.91	59.33	12.32	
2025-01-11 09:01:51.12	59.29	12.33	
2025-01-11 09:01:51.32	59.25	12.34	
2025-01-11 09:01:51.53	59.20	12.35	
2025-01-11 09:01:51.73	59.16	12.35	
2025-01-11 09:01:51.94	59.12	12.36	
2025-01-11 09:01:52.14	59.07	12.37	
2025-01-11 09:01:52.35	59.03	12.38	
2025-01-11 09:01:52.55	58.99	12.38	
2025-01-11 09:01:52.76	58.94	12.39	
2025-01-11 09:01:52.96	58.90	12.40	
2025-01-11 09:01:53.16	58.86	12.40	
2025-01-11 09:01:53.37	58.82	12.41	
2025-01-11 09:01:53.58	58.77	12.42	
2025-01-11 09:01:53.78	58.73	12.43	
2025-01-11 09:01:53.99	58.69	12.43	
2025-01-11 09:01:54.19	58.64	12.44	
2025-01-11 09:01:54.40	58.60	12.45	
2025-01-11 09:01:54.60	58.56	12.45	
2025-01-11 09:01:54.81	58.51	12.46	
2025-01-11 09:01:55.01	58.47	12.47	
2025-01-11 09:01:55.22	58.43	12.48	
2025-01-11 09:01:55.42	58.38	12.48	
2025-01-11 09:01:55.63	58.34	12.49	
2025-01-11 09:01:55.83	58.30	12.50	
2025-01-11 09:01:56.04	58.25	12.50	
2025-01-11 09:01:56.24	58.21	12.51	
2025-01-11 09:01:56.45	58.17	12.52	
2025-01-11 09:01:56.65	58.12	12.53	
2025-01-11 09:01:56.86	58.08	12.53	
2025-01-11 09:01:57.07	58.03	12.54	
2025-01-11 09:01:57.27	57.99	12.55	
2025-01-11 09:01:57.48	57.95	12.55	
2025-01-11 09:01:57.68	57.90	12.56	
2025-01-11 09:01:57.88	57.86	12.57	
2025-01-11 09:01:58.09	57.82	12.57	
2025-01-11 09:01:58.29	57.78	12.58	
2025-01-11 09:01:58.51	57.73	12.59	
2025-01-11 09:01:58.72	57.68	12.60	
2025-01-11 09:01:58.92	57.64	12.60	
2025-01-11 09:01:59.13	57.60	12.61	
2025-01-11 09:01:59.33	57.55	12.62	
2025-01-11 09:01:59.55	57.51	12.62	
2025-01-11 09:01:59.75	57.46	12.63	
2025-01-11 09:01:59.96	57.42	12.64	
2025-01-11 09:02:00.18	57.37	12.64	
2025-01-11 09:02:00.38	57.33	12.65	
2025-01-11 09:02:00.59	57.28	12.66	
2025-01-11 09:02:00.79	57.24	12.66	
2025-01-11 09:02:01.00	57.20	12.67	
2025-01-11 09:02:01.20	57.15	12.68	
2025-01-11 09:02:01.41	57.11	12.68	
2025-01-11 09:02:01.61	57.07	12.69	
2025-01-11 09:02:01.82	57.02	12.70	
2025-01-11 09:02:02.02	56.98	12.70	
2025-01-11 09:02:02.23	56.93	12.71	
2025-01-11 09:02:02.43	56.89	12.72	
2025-01-11 09:02:02.64	56.85	12.72	
2025-01-11 09:02:02.84	56.80	12.73	
2025-01-11 09:02:03.05	56.76	12.74	
2025-01-11 09:02:03.25	56.71	12.74	
2025-01-11 09:02:03.46	56.67	12.75	
2025-01-11 09:02:03.67	56.62	12.76	
2025-01-11 09:02:03.87	56.58	12.76	
2025-01-11 09:02:04.07	56.54	12.77	
2025-01-11 09:02:04.28	56.49	12.78	
2025-01-11 09:02:04.48	56.45	12.78	
2025-01-11 09:02:04.69	56.40	12.79	
2025-01-11 09:02:04.89	56.36	12.80	
2025-01-11 09:02:05.10	56.31	12.80	
2025-01-11 09:02:05.30	56.27	12.81	
2025-01-11 09:02:05.51	56.23	12.82	
2025-01-11 09:02:05.71	56.18	12.82	
2025-01-11 09:02:05.92	56.14	12.83	
2025-01-11 09:02:06.12	56.09	12.84	
2025-01-11 09:02:06.33	56.05	12.84	
2025-01-11 09:02:06.53	56.01	12.85	
2025-01-11 09:02:06.74	55.96	12.85	
2025-01-11 09:02:06.94	55.92	12.86	
2025-01-11 09:02:07.15	55.87	12.87	
2025-01-11 09:02:07.37	55.82	12.87	
2025-01-11 09:02:07.57	55.78	12.88	
2025-01-11 09:02:07.78	55.73	12.89	
2025-01-11 09:02:07.98	55.69	12.89	
2025-01-11 09:02:08.19	55.64	12.90	
2025-01-11 09:02:08.39	55.60	12.90	
2025-01-11 09:02:08.59	55.56	12.91	
2025-01-11 09:02:08.80	55.51	12.92	
2025-01-11 09:02:09.00	55.47	12.92	
2025-01-11 09:02:09.21	55.42	12.93	
2025-01-11 09:02:09.41	55.38	12.94	
2025-01-11 09:02:09.62	55.33	12.94	
2025-01-11 09:02:09.83	55.29	12.95	
2025-01-11 09:02:10.03	55.24	12.95	
2025-01-11 09:02:10.25	55.19	12.96	
2025-01-11 09:02:10.45	55.15	12.97	
2025-01-11 09:02:10.66	55.11	12.97	
2025-01-11 09:02:10.87	55.06	12.98	
2025-01-11 09:02:11.07	55.02	12.98	
2025-01-11 09:02:11.28	54.97	12.99	
2025-01-11 09:02:11.48	54.93	13.00	
2025-01-11 09:02:11.69	54.88	13.00	
2025-01-11 09:02:11.89	54.84	13.01	
2025-01-11 09:02:12.10	54.79	13.02	
2025-01-11 09:02:12.30	54.75	13.02	
2025-01-11 09:02:12.51	54.70	13.03	
2025-01-11 09:02:12.71	54.66	13.03	
2025-01-11 09:02:12.92	54.61	13.04	
2025-01-11 09:02:13.12	54.57	13.04	
2025-01-11 09:02:13.33	54.52	13.05	
2025-01-11 09:02:13.53	54.48	13.06	
2025-01-11 09:02:13.74	54.43	13.06	
2025-01-11 09:02:13.94	54.38	13.07	
2025-01-11 09:02:14.15	54.34	13.07	
2025-01-11 09:02:14.36	54.29	13.08	
2025-01-11 09:02:14.56	54.25	13.09	
2025-01-11 09:02:14.76	54.20	13.09	
2025-01-11 09:02:14.97	54.16	13.10	
2025-01-11 09:02:15.17	54.11	13.10	
2025-01-11 09:02:15.38	54.07	13.11	
2025-01-11 09:02:15.58	54.02	13.11	
2025-01-11 09:02:15.79	53.98	13.12	
2025-01-11 09:02:16.00	53.93	13.13	
2025-01-11 09:02:16.20	53.89	13.13	
2025-01-11 09:02:16.41	53.84	13.14	
2025-01-11 09:02:16.61	53.79	13.14	
2025-01-11 09:02:16.82	53.75	13.15	
2025-01-11 09:02:17.02	53.70	13.15	
2025-01-11 09:02:17.23	53.66	13.16	
2025-01-11 09:02:17.43	53.61	13.16	
2025-01-11 09:02:17.64	53.57	13.17	
2025-01-11 09:02:17.84	53.52	13.18	
2025-01-11 09:02:18.05	53.48	13.18	
2025-01-11 09:02:18.25	53.43	13.19	
2025-01-11 09:02:18.46	53.38	13.19	
2025-01-11 09:02:18.66	53.34	13.20	
2025-01-11 09:02:18.87	53.29	13.20	
2025-01-11 09:02:19.07	53.25	13.21	
2025-01-11 09:02:19.27	53.20	13.21	
2025-01-11 09:02:19.48	53.16	13.22	
2025-01-11 09:02:19.68	53.11	13.23	
2025-01-11 09:02:19.89	53.07	13.23	
2025-01-11 09:02:20.09	53.02	13.24	
2025-01-11 09:02:20.30	52.97	13.24	
2025-01-11 09:02:20.50	52.93	13.25	
2025-01-11 09:02:20.71	52.88	13.25	
2025-01-11 09:02:20.91	52.84	13.26	
2025-01-11 09:02:21.12	52.79	13.26	
2025-01-11 09:02:21.32	52.75	13.27	
2025-01-11 09:02:21.53	52.70	13.27	
2025-01-11 09:02:21.74	52.65	13.28	
2025-01-11 09:02:21.94	52.61	13.28	
2025-01-11 09:02:22.14	52.56	13.29	
2025-01-11 09:02:22.35	52.52	13.29	
2025-01-11 09:02:22.56	52.47	13.30	
2025-01-11 09:02:22.76	52.42	13.30	
2025-01-11 09:02:22.96	52.38	13.31	
2025-01-11 09:02:23.17	52.33	13.31	
2025-01-11 09:02:23.38	52.28	13.32	
2025-01-11 09:02:23.58	52.24	13.32	
2025-01-11 09:02:23.79	52.19	13.33	
2025-01-11 09:02:23.99	52.15	13.33	
2025-01-11 09:02:24.20	52.10	13.34	
2025-01-11 09:02:24.40	52.06	13.35	
2025-01-11 09:02:24.61	52.01	13.35	
2025-01-11 09:02:24.81	51.96	13.36	
2025-01-11 09:02:25.02	51.92	13.36	
2025-01-11 09:02:25.22	51.87	13.36	
2025-01-11 09:02:25.43	51.82	13.37	
2025-01-11 09:02:25.63	51.78	13.37	
2025-01-11 09:02:25.84	51.73	13.38	
2025-01-11 09:02:26.04	51.69	13.38	
2025-01-11 09:02:26.25	51.64	13.39	
2025-01-11 09:02:26.45	51.59	13.39	
2025-01-11 09:02:26.66	51.55	13.40	
2025-01-11 09:02:26.86	51.50	13.40	
2025-01-11 09:02:27.07	51.45	13.41	
2025-01-11 09:02:27.28	51.41	13.41	
2025-01-11 09:02:27.48	51.36	13.42	
2025-01-11 09:02:27.69	51.31	13.42	
2025-01-11 09:02:27.89	51.27	13.43	
2025-01-11 09:02:28.10	51.22	13.43	
2025-01-11 09:02:28.30	51.18	13.44	
2025-01-11 09:02:28.50	51.13	13.44	
2025-01-11 09:02:28.71	51.08	13.45	
2025-01-11 09:02:28.91	51.04	13.45	
2025-01-11 09:02:29.12	50.99	13.46	
2025-01-11 09:02:29.32	50.94	13.46	
2025-01-11 09:02:29.53	50.90	13.47	
2025-01-11 09:02:29.73	50.85	13.47	
2025-01-11 09:02:29.94	50.80	13.47	
2025-01-11 09:02:30.15	50.76	13.48	
2025-01-11 09:02:30.35	50.71	13.48	
2025-01-11 09:02:30.56	50.66	13.49	
2025-01-11 09:02:30.76	50.62	13.49	
2025-01-11 09:02:30.97	50.57	13.50	
2025-01-11 09:02:31.17	50.52	13.50	
2025-01-11 09:02:31.38	50.48	13.51	
2025-01-11 09:02:31.58	50.43	13.51	
2025-01-11 09:02:31.79	50.38	13.52	
2025-01-11 09:02:32.00	50.34	13.52	
2025-01-11 09:02:32.20	50.29	13.52	
2025-01-11 09:02:32.41	50.24	13.53	
2025-01-11 09:02:32.61	50.20	13.53	
2025-01-11 09:02:32.82	50.15	13.54	
2025-01-11 09:02:33.02	50.10	13.54	
2025-01-11 09:02:33.23	50.06	13.55	
2025-01-11 09:02:33.43	50.01	13.55	
2025-01-11 09:02:33.64	49.96	13.55	
2025-01-11 09:02:33.84	49.92	13.56	
2025-01-11 09:02:34.05	49.87	13.56	
2025-01-11 09:02:34.25	49.82	13.57	
2025-01-11 09:02:34.46	49.77	13.57	
2025-01-11 09:02:34.67	49.73	13.58	
2025-01-11 09:02:34.87	49.68	13.58	
2025-01-11 09:02:35.08	49.63	13.58	
2025-01-11 09:02:35.28	49.59	13.59	
2025-01-11 09:02:35.49	49.54	13.59	
2025-01-11 09:02:35.69	49.49	13.60	
2025-01-11 09:02:35.91	49.44	13.60	
2025-01-11 09:02:36.11	49.40	13.60	
2025-01-11 09:02:36.32	49.35	13.61	
2025-01-11 09:02:36.53	49.30	13.61	
2025-01-11 09:02:36.73	49.25	13.62	
2025-01-11 09:02:36.94	49.21	13.62	
2025-01-11 09:02:37.14	49.16	13.63	
2025-01-11 09:02:37.35	49.11	13.63	
2025-01-11 09:02:37.55	49.07	13.63	
2025-01-11 09:02:37.76	49.02	13.64	
2025-01-11 09:02:37.96	48.97	13.64	
2025-01-11 09:02:38.17	48.92	13.64	
2025-01-11 09:02:38.37	48.88	13.65	
2025-01-11 09:02:38.58	48.83	13.65	
2025-01-11 09:02:38.78	48.78	13.66	
2025-01-11 09:02:38.99	48.74	13.66	
2025-01-11 09:02:39.19	48.69	13.66	
2025-01-11 09:02:39.40	48.64	13.67	
2025-01-11 09:02:39.60	48.59	13.67	
2025-01-11 09:02:39.81	48.55	13.68	
2025-01-11 09:02:40.01	48.50	13.68	
2025-01-11 09:02:40.22	48.45	13.68	
2025-01-11 09:02:40.42	48.41	13.69	
2025-01-11 09:02:40.63	48.36	13.69	
2025-01-11 09:02:40.83	48.31	13.69	
2025-01-11 09:02:41.04	48.26	13.70	
2025-01-11 09:02:41.24	48.22	13.70	
2025-01-11 09:02:41.45	48.17	13.71	
2025-01-11 09:02:41.65	48.12	13.71	
2025-01-11 09:02:41.86	48.07	13.71	
2025-01-11 09:02:42.07	48.03	13.72	
2025-01-11 09:02:42.27	47.98	13.72	
2025-01-11 09:02:42.47	47.93	13.72	
2025-01-11 09:02:42.68	47.88	13.73	
2025-01-11 09:02:42.89	47.84	13.73	
2025-01-11 09:02:43.09	47.79	13.73	
2025-01-11 09:02:43.29	47.74	13.74	
2025-01-11 09:02:43.50	47.69	13.74	
2025-01-11 09:02:43.71	47.65	13.74	
2025-01-11 09:02:43.91	47.60	13.75	
2025-01-11 09:02:44.11	47.55	13.75	
2025-01-11 09:02:44.32	47.50	13.75	
2025-01-11 09:02:44.53	47.46	13.76	
2025-01-11 09:02:44.73	47.41	13.76	
2025-01-11 09:02:44.94	47.36	13.76	
2025-01-11 09:02:45.14	47.31	13.77	
2025-01-11 09:02:45.35	47.27	13.77	
2025-01-11 09:02:45.55	47.22	13.77	
2025-01-11 09:02:45.76	47.17	13.78	
2025-01-11 09:02:45.96	47.12	13.78	
2025-01-11 09:02:46.17	47.08	13.78	
2025-01-11 09:02:46.37	47.03	13.79	
2025-01-11 09:02:46.58	46.98	13.79	
2025-01-11 09:02:46.78	46.93	13.79	
2025-01-11 09:02:46.99	46.89	13.80	
2025-01-11 09:02:47.20	46.84	13.80	
2025-01-11 09:02:47.40	46.79	13.80	
2025-01-11 09:02:47.60	46.74	13.81	
2025-01-11 09:02:47.81	46.70	13.81	
2025-01-11 09:02:48.01	46.65	13.81	
2025-01-11 09:02:48.22	46.60	13.81	
2025-01-11 09:02:48.42	46.55	13.82	
2025-01-11 09:02:48.63	46.50	13.82	
2025-01-11 09:02:48.83	46.46	13.82	
2025-01-11 09:02:49.04	46.41	13.83	
2025-01-11 09:02:49.24	46.36	13.83	
2025-01-11 09:02:49.45	46.31	13.83	
2025-01-11 09:02:49.65	46.27	13.84	
2025-01-11 09:02:49.86	46.22	13.84	
2025-01-11 09:02:50.06	46.17	13.84	
2025-01-11 09:02:50.27	46.12	13.84	
2025-01-11 09:02:50.48	46.07	13.85	
2025-01-11 09:02:50.68	46.03	13.85	
2025-01-11 09:02:50.88	45.98	13.85	
2025-01-11 09:02:51.09	45.93	13.85	
2025-01-11 09:02:51.30	45.88	13.86	
2025-01-11 09:02:51.50	45.84	13.86	
2025-01-11 09:02:51.71	45.79	13.86	
2025-01-11 09:02:51.93	45.74	13.87	
2025-01-11 09:02:52.13	45.69	13.87	
2025-01-11 09:02:52.34	45.64	13.87	
2025-01-11 09:02:52.55	45.59	13.87	
2025-01-11 09:02:52.75	45.54	13.88	
2025-01-11 09:02:52.96	45.49	13.88	
2025-01-11 09:02:53.16	45.45	13.88	
2025-01-11 09:02:53.37	45.40	13.88	
2025-01-11 09:02:53.57	45.35	13.89	
2025-01-11 09:02:53.78	45.30	13.89	
2025-01-11 09:02:54.00	45.25	13.89	
2025-01-11 09:02:54.20	45.20	13.89	
2025-01-11 09:02:54.40	45.16	13.90	
2025-01-11 09:02:54.61	45.11	13.90	
2025-01-11 09:02:54.81	45.06	13.90	
2025-01-11 09:02:55.02	45.01	13.90	
2025-01-11 09:02:55.22	44.97	13.91	
2025-01-11 09:02:55.43	44.92	13.91	
2025-01-11 09:02:55.64	44.87	13.91	
2025-01-11 09:02:55.84	44.82	13.91	
2025-01-11 09:02:56.05	44.77	13.92	
2025-01-11 09:02:56.25	44.72	13.92	
2025-01-11 09:02:56.46	44.68	13.92	
2025-01-11 09:02:56.66	44.63	13.92	
2025-01-11 09:02:56.87	44.58	13.93	
2025-01-11 09:02:57.08	44.53	13.93	
2025-01-11 09:02:57.28	44.48	13.93	
2025-01-11 09:02:57.49	44.43	13.93	
2025-01-11 09:02:57.69	44.39	13.93	
2025-01-11 09:02:57.90	44.34	13.94	
2025-01-11 09:02:58.11	44.29	13.94	
2025-01-11 09:02:58.32	44.24	13.94	
2025-01-11 09:02:58.53	44.19	13.94	
2025-01-11 09:02:58.74	44.14	13.94	
2025-01-11 09:02:58.94	44.09	13.95	
2025-01-11 09:02:59.15	44.04	13.95	
2025-01-11 09:02:59.36	43.99	13.95	
2025-01-11 09:02:59.57	43.95	13.95	
2025-01-11 09:02:59.78	43.90	13.96	
2025-01-11 09:02:59.98	43.85	13.96	
2025-01-11 09:03:00.19	43.80	13.96	
2025-01-11 09:03:00.39	43.75	13.96	
2025-01-11 09:03:00.60	43.70	13.96	
2025-01-11 09:03:00.80	43.66	13.96	
2025-01-11 09:03:01.01	43.61	13.97	
2025-01-11 09:03:01.21	43.56	13.97	
2025-01-11 09:03:01.42	43.51	13.97	
2025-01-11 09:03:01.62	43.46	13.97	
2025-01-11 09:03:01.83	43.41	13.97	
2025-01-11 09:03:02.03	43.37	13.98	
2025-01-11 09:03:02.24	43.32	13.98	
2025-01-11 09:03:02.44	43.27	13.98	
2025-01-11 09:03:02.65	43.22	13.98	
2025-01-11 09:03:02.85	43.17	13.98	
2025-01-11 09:03:03.06	43.12	13.98	
2025-01-11 09:03:03.26	43.08	13.99	
2025-01-11 09:03:03.47	43.03	13.99	
2025-01-11 09:03:03.67	42.98	13.99	
2025-01-11 09:03:03.88	42.93	13.99	
2025-01-11 09:03:04.08	42.88	13.99	
2025-01-11 09:03:04.29	42.83	13.99	
2025-01-11 09:03:04.49	42.79	14.00	
2025-01-11 09:03:04.70	42.74	14.00	
2025-01-11 09:03:04.90	42.69	14.00	
2025-01-11 09:03:05.11	42.64	14.00	
2025-01-11 09:03:05.32	42.59	14.00	
2025-01-11 09:03:05.52	42.55	14.00	
2025-01-11 09:03:05.72	42.50	14.00	
2025-01-11 09:03:05.93	42.45	14.01	
2025-01-11 09:03:06.13	42.40	14.01	
2025-01-11 09:03:06.34	42.35	14.01	
2025-01-11 09:03:06.55	42.30	14.01	
2025-01-11 09:03:06.75	42.26	14.01	
2025-01-11 09:03:06.95	42.21	14.01	
2025-01-11 09:03:07.16	42.16	14.01	
2025-01-11 09:03:07.36	42.11	14.01	
2025-01-11 09:03:07.57	42.06	14.02	
2025-01-11 09:03:07.77	42.01	14.02	
2025-01-11 09:03:07.98	41.96	14.02	
2025-01-11 09:03:08.18	41.92	14.02	
2025-01-11 09:03:08.39	41.87	14.02	
2025-01-11 09:03:08.60	41.82	14.02	
2025-01-11 09:03:08.80	41.77	14.02	
2025-01-11 09:03:09.01	41.72	14.02	
2025-01-11 09:03:09.21	41.67	14.03	
2025-01-11 09:03:09.42	41.62	14.03	
2025-01-11 09:03:09.62	41.58	14.03	
2025-01-11 09:03:09.83	41.53	14.03	
2025-01-11 09:03:10.03	41.48	14.03	
2025-01-11 09:03:10.24	41.43	14.03	
2025-01-11 09:03:10.44	41.38	14.03	
2025-01-11 09:03:10.65	41.33	14.03	
2025-01-11 09:03:10.86	41.28	14.03	
2025-01-11 09:03:11.06	41.24	14.03	
2025-01-11 09:03:11.26	41.19	14.04	
2025-01-11 09:03:11.47	41.14	14.04	
2025-01-11 09:03:11.67	41.09	14.04	
2025-01-11 09:03:11.88	41.04	14.04	
2025-01-11 09:03:12.10	40.99	14.04	
2025-01-11 09:03:12.31	40.94	14.04	
2025-01-11 09:03:12.51	40.89	14.04	
2025-01-11 09:03:12.72	40.85	14.04	
2025-01-11 09:03:12.92	40.80	14.04	
2025-01-11 09:03:13.12	40.75	14.04	
2025-01-11 09:03:13.33	40.70	14.04	
2025-01-11 09:03:13.54	40.65	14.04	
2025-01-11 09:03:13.74	40.60	14.04	
2025-01-11 09:03:13.95	40.55	14.05	
2025-01-11 09:03:14.15	40.51	14.05	
2025-01-11 09:03:14.36	40.46	14.05	
2025-01-11 09:03:14.57	40.41	14.05	
2025-01-11 09:03:14.77	40.36	14.05	
2025-01-11 09:03:14.98	40.31	14.05	
2025-01-11 09:03:15.18	40.26	14.05	
2025-01-11 09:03:15.38	40.22	14.05	
2025-01-11 09:03:15.59	40.17	14.05	
2025-01-11 09:03:15.79	40.12	14.05	
2025-01-11 09:03:16.00	40.07	14.05	
2025-01-11 09:03:16.21	40.02	14.05	
2025-01-11 09:03:16.42	39.97	14.05	
2025-01-11 09:03:16.63	39.92	14.05	
2025-01-11 09:03:16.83	39.87	14.05	
2025-01-11 09:03:17.04	39.82	14.05	
2025-01-11 09:03:17.25	39.77	14.05	
2025-01-11 09:03:17.45	39.73	14.05	
2025-01-11 09:03:17.65	39.68	14.05	
2025-01-11 09:03:17.86	39.63	14.05	
2025-01-11 09:03:18.07	39.58	14.05	
2025-01-11 09:03:18.27	39.53	14.05	
2025-01-11 09:03:18.48	39.48	14.06	
2025-01-11 09:03:18.68	39.44	14.06	
2025-01-11 09:03:18.89	39.39	14.06	
2025-01-11 09:03:19.10	39.34	14.06	
2025-01-11 09:03:19.30	39.29	14.06	
2025-01-11 09:03:19.51	39.24	14.06	
2025-01-11 09:03:19.71	39.19	14.06	
2025-01-11 09:03:19.92	39.14	14.06	
2025-01-11 09:03:20.12	39.09	14.06	
2025-01-11 09:03:20.33	39.05	14.06	
2025-01-11 09:03:20.53	39.00	14.06	
2025-01-11 09:03:20.73	38.95	14.06	
2025-01-11 09:03:20.94	38.90	14.06	
2025-01-11 09:03:21.15	38.85	14.06	
2025-01-11 09:03:21.35	38.80	14.06	
2025-01-11 09:03:21.56	38.75	14.06	
2025-01-11 09:03:21.76	38.71	14.06	
2025-01-11 09:03:21.97	38.66	14.06	
2025-01-11 09:03:22.17	38.61	14.06	
2025-01-11 09:03:22.38	38.56	14.06	
2025-01-11 09:03:22.58	38.51	14.06	
2025-01-11 09:03:22.79	38.46	14.06	
2025-01-11 09:03:22.99	38.42	14.06	
2025-01-11 09:03:23.20	38.37	14.05	
2025-01-11 09:03:23.40	38.32	14.05	
2025-01-11 09:03:23.61	38.27	14.05	
2025-01-11 09:03:23.81	38.22	14.05	
2025-01-11 09:03:24.02	38.17	14.05	
2025-01-11 09:03:24.22	38.12	14.05	
2025-01-11 09:03:24.43	38.08	14.05	
2025-01-11 09:03:24.63	38.03	14.05	
2025-01-11 09:03:24.84	37.98	14.05	
2025-01-11 09:03:25.04	37.93	14.05	
2025-01-11 09:03:25.25	37.88	14.05	
2025-01-11 09:03:25.45	37.83	14.05	
2025-01-11 09:03:25.66	37.78	14.05	
2025-01-11 09:03:25.86	37.74	14.05	
2025-01-11 09:03:26.07	37.69	14.05	
2025-01-11 09:03:26.27	37.64	14.05	
2025-01-11 09:03:26.48	37.59	14.05	
2025-01-11 09:03:26.68	37.54	14.05	
2025-01-11 09:03:26.89	37.49	14.05	
2025-01-11 09:03:27.09	37.45	14.05	
2025-01-11 09:03:27.30	37.40	14.05	
2025-01-11 09:03:27.50	37.35	14.05	
2025-01-11 09:03:27.71	37.30	14.05	
2025-01-11 09:03:27.91	37.25	14.04	
2025-01-11 09:03:28.12	37.20	14.04	
2025-01-11 09:03:28.32	37.16	14.04	
2025-01-11 09:03:28.53	37.11	14.04	
2025-01-11 09:03:28.73	37.06	14.04	
2025-01-11 09:03:28.94	37.01	14.04	
2025-01-11 09:03:29.14	36.96	14.04	
2025-01-11 09:03:29.35	36.91	14.04	
2025-01-11 09:03:29.56	36.86	14.04	
2025-01-11 09:03:29.76	36.81	14.04	
2025-01-11 09:03:29.97	36.77	14.04	
2025-01-11 09:03:30.17	36.72	14.04	
2025-01-11 09:03:30.38	36.67	14.04	
2025-01-11 09:03:30.58	36.62	14.03	
2025-01-11 09:03:30.79	36.57	14.03	
2025-01-11 09:03:30.99	36.52	14.03	
2025-01-11 09:03:31.20	36.47	14.03	
2025-01-11 09:03:31.41	36.43	14.03	
2025-01-11 09:03:31.62	36.38	14.03	
2025-01-11 09:03:31.83	36.33	14.03	
2025-01-11 09:03:32.03	36.28	14.03	
2025-01-11 09:03:32.24	36.23	14.03	
2025-01-11 09:03:32.44	36.18	14.03	
2025-01-11 09:03:32.65	36.13	14.02	
2025-01-11 09:03:32.85	36.09	14.02	
2025-01-11 09:03:33.06	36.04	14.02	
2025-01-11 09:03:33.26	35.99	14.02	
2025-01-11 09:03:33.46	35.94	14.02	
2025-01-11 09:03:33.67	35.89	14.02	
2025-01-11 09:03:33.88	35.84	14.02	
2025-01-11 09:03:34.08	35.80	14.02	
2025-01-11 09:03:34.29	35.75	14.01	
2025-01-11 09:03:34.49	35.70	14.01	
2025-01-11 09:03:34.70	35.65	14.01	
2025-01-11 09:03:34.90	35.60	14.01	
2025-01-11 09:03:35.11	35.55	14.01	
2025-01-11 09:03:35.31	35.51	14.01	
2025-01-11 09:03:35.52	35.46	14.01	
2025-01-11 09:03:35.72	35.41	14.00	
2025-01-11 09:03:35.93	35.36	14.00	
2025-01-11 09:03:36.13	35.31	14.00	
2025-01-11 09:03:36.34	35.26	14.00	
2025-01-11 09:03:36.54	35.22	14.00	
2025-01-11 09:03:36.74	35.17	14.00	
2025-01-11 09:03:36.95	35.12	14.00	
2025-01-11 09:03:37.15	35.07	13.99	
2025-01-11 09:03:37.36	35.02	13.99	
2025-01-11 09:03:37.56	34.98	13.99	
2025-01-11 09:03:37.76	34.93	13.99	
2025-01-11 09:03:37.97	34.88	13.99	
2025-01-11 09:03:38.18	34.83	13.99	
2025-01-11 09:03:38.38	34.78	13.99	
2025-01-11 09:03:38.59	34.73	13.98	
2025-01-11 09:03:38.79	34.69	13.98	
2025-01-11 09:03:39.00	34.64	13.98	
2025-01-11 09:03:39.20	34.59	13.98	
2025-01-11 09:03:39.40	34.54	13.98	
2025-01-11 09:03:39.61	34.49	13.97	
2025-01-11 09:03:39.81	34.45	13.97	
2025-01-11 09:03:40.02	34.40	13.97	
2025-01-11 09:03:40.23	34.35	13.97	
2025-01-11 09:03:40.43	34.30	13.97	
2025-01-11 09:03:40.64	34.25	13.97	
2025-01-11 09:03:40.84	34.20	13.96	
2025-01-11 09:03:41.04	34.16	13.96	
2025-01-11 09:03:41.25	34.11	13.96	
2025-01-11 09:03:41.45	34.06	13.96	
2025-01-11 09:03:41.66	34.01	13.96	
2025-01-11 09:03:41.86	33.96	13.95	
2025-01-11 09:03:42.07	33.91	13.95	
2025-01-11 09:03:42.27	33.87	13.95	
2025-01-11 09:03:42.48	33.82	13.95	
2025-01-11 09:03:42.68	33.77	13.95	
2025-01-11 09:03:42.89	33.72	13.94	
2025-01-11 09:03:43.09	33.68	13.94	
2025-01-11 09:03:43.30	33.63	13.94	
2025-01-11 09:03:43.50	33.58	13.94	
2025-01-11 09:03:43.71	33.53	13.94	
2025-01-11 09:03:43.91	33.48	13.93	
2025-01-11 09:03:44.11	33.44	13.93	
2025-01-11 09:03:44.32	33.39	13.93	
2025-01-11 09:03:44.53	33.34	13.93	
2025-01-11 09:03:44.73	33.29	13.92	
2025-01-11 09:03:44.94	33.24	13.92	
2025-01-11 09:03:45.14	33.19	13.92	
2025-01-11 09:03:45.35	33.15	13.92	
2025-01-11 09:03:45.55	33.10	13.92	
2025-01-11 09:03:45.76	33.05	13.91	
2025-01-11 09:03:45.97	33.00	13.91	
2025-01-11 09:03:46.17	32.95	13.91	
2025-01-11 09:03:46.38	32.90	13.91	
2025-01-11 09:03:46.58	32.86	13.90	
2025-01-11 09:03:46.79	32.81	13.90	
2025-01-11 09:03:46.99	32.76	13.90	
2025-01-11 09:03:47.20	32.71	13.90	
2025-01-11 09:03:47.40	32.67	13.89	
2025-01-11 09:03:47.61	32.62	13.89	
2025-01-11 09:03:47.82	32.57	13.89	
2025-01-11 09:03:48.02	32.52	13.89	
2025-01-11 09:03:48.23	32.47	13.88	
2025-01-11 09:03:48.43	32.43	13.88	
2025-01-11 09:03:48.64	32.38	13.88	
2025-01-11 09:03:48.84	32.33	13.88	
2025-01-11 09:03:49.05	32.28	13.87	
2025-01-11 09:03:49.25	32.23	13.87	
2025-01-11 09:03:49.46	32.19	13.87	
2025-01-11 09:03:49.66	32.14	13.87	
2025-01-11 09:03:49.87	32.09	13.86	
2025-01-11 09:03:50.07	32.04	13.86	
2025-01-11 09:03:50.28	31.99	13.86	
2025-01-11 09:03:50.48	31.95	13.85	
2025-01-11 09:03:50.69	31.90	13.85	
2025-01-11 09:03:50.89	31.85	13.85	
2025-01-11 09:03:51.10	31.80	13.85	
2025-01-11 09:03:51.30	31.76	13.84	
2025-01-11 09:03:51.51	31.71	13.84	
2025-01-11 09:03:51.71	31.66	13.84	
2025-01-11 09:03:51.92	31.61	13.84	
2025-01-11 09:03:52.12	31.57	13.83	
2025-01-11 09:03:52.33	31.52	13.83	
2025-01-11 09:03:52.53	31.47	13.83	
2025-01-11 09:03:52.74	31.42	13.82	
2025-01-11 09:03:52.94	31.37	13.82	
2025-01-11 09:03:53.14	31.33	13.82	
2025-01-11 09:03:53.35	31.28	13.81	
2025-01-11 09:03:53.55	31.23	13.81	
2025-01-11 09:03:53.76	31.18	13.81	
2025-01-11 09:03:53.96	31.14	13.81	
2025-01-11 09:03:54.17	31.09	13.80	
2025-01-11 09:03:54.37	31.04	13.80	
2025-01-11 09:03:54.58	30.99	13.80	
2025-01-11 09:03:54.78	30.95	13.79	
2025-01-11 09:03:54.99	30.90	13.79	
2025-01-11 09:03:55.19	30.85	13.79	
2025-01-11 09:03:55.40	30.80	13.78	
2025-01-11 09:03:55.61	30.75	13.78	
2025-01-11 09:03:55.81	30.71	13.78	
2025-01-11 09:03:56.02	30.66	13.77	
2025-01-11 09:03:56.22	30.61	13.77	
2025-01-11 09:03:56.43	30.56	13.77	
2025-01-11 09:03:56.63	30.52	13.76	
2025-01-11 09:03:56.84	30.47	13.76	
2025-01-11 09:03:57.05	30.42	13.76	
2025-01-11 09:03:57.25	30.38	13.75	
2025-01-11 09:03:57.46	30.33	13.75	
2025-01-11 09:03:57.66	30.28	13.75	
2025-01-11 09:03:57.87	30.23	13.74	
2025-01-11 09:03:58.07	30.19	13.74	
2025-01-11 09:03:58.28	30.14	13.74	
2025-01-11 09:03:58.48	30.09	13.73	
2025-01-11 09:03:58.69	30.04	13.73	
2025-01-11 09:03:58.89	30.00	13.73	
2025-01-11 09:03:59.10	29.95	13.72	
2025-01-11 09:03:59.30	29.90	13.72	
2025-01-11 09:03:59.51	29.85	13.72	
2025-01-11 09:03:59.72	29.80	13.71	
2025-01-11 09:03:59.92	29.76	13.71	
2025-01-11 09:04:00.12	29.71	13.71	
2025-01-11 09:04:00.33	29.66	13.70	
2025-01-11 09:04:00.53	29.62	13.70	
2025-01-11 09:04:00.73	29.57	13.69	
2025-01-11 09:04:00.94	29.52	13.69	
2025-01-11 09:04:01.15	29.48	13.69	
2025-01-11 09:04:01.35	29.43	13.68	
2025-01-11 09:04:01.55	29.38	13.68	
2025-01-11 09:04:01.76	29.33	13.68	
2025-01-11 09:04:01.96	29.29	13.67	
2025-01-11 09:04:02.17	29.24	13.67	
2025-01-11 09:04:02.37	29.19	13.66	
2025-01-11 09:04:02.58	29.15	13.66	
2025-01-11 09:04:02.78	29.10	13.66	
2025-01-11 09:04:02.99	29.05	13.65	
2025-01-11 09:04:03.19	29.01	13.65	
2025-01-11 09:04:03.40	28.96	13.65	
2025-01-11 09:04:03.60	28.91	13.64	
2025-01-11 09:04:03.81	28.86	13.64	
2025-01-11 09:04:04.01	28.82	13.63	
2025-01-11 09:04:04.22	28.77	13.63	
2025-01-11 09:04:04.42	28.72	13.63	
2025-01-11 09:04:04.63	28.68	13.62	
2025-01-11 09:04:04.83	28.63	13.62	
2025-01-11 09:04:05.04	28.58	13.61	
2025-01-11 09:04:05.24	28.54	13.61	
2025-01-11 09:04:05.45	28.49	13.61	
2025-01-11 09:04:05.65	28.44	13.60	
2025-01-11 09:04:05.86	28.39	13.60	
2025-01-11 09:04:06.06	28.35	13.59	
2025-01-11 09:04:06.27	28.30	13.59	
2025-01-11 09:04:06.47	28.26	13.58	
2025-01-11 09:04:06.69	28.20	13.58	
2025-01-11 09:04:06.89	28.16	13.58	
2025-01-11 09:04:07.10	28.11	13.57	
2025-01-11 09:04:07.31	28.06	13.57	
2025-01-11 09:04:07.51	28.02	13.56	
2025-01-11 09:04:07.73	27.97	13.56	
2025-01-11 09:04:07.94	27.92	13.55	
2025-01-11 09:04:08.14	27.87	13.55	
2025-01-11 09:04:08.35	27.83	13.55	
2025-01-11 09:04:08.55	27.78	13.54	
2025-01-11 09:04:08.75	27.74	13.54	
2025-01-11 09:04:08.96	27.69	13.53	
2025-01-11 09:04:09.16	27.64	13.53	
2025-01-11 09:04:09.37	27.59	13.52	
2025-01-11 09:04:09.58	27.55	13.52	
2025-01-11 09:04:09.78	27.50	13.52	
2025-01-11 09:04:09.99	27.45	13.51	
2025-01-11 09:04:10.19	27.41	13.51	
2025-01-11 09:04:10.40	27.36	13.50	
2025-01-11 09:04:10.60	27.31	13.50	
2025-01-11 09:04:10.80	27.27	13.49	
2025-01-11 09:04:11.01	27.22	13.49	
2025-01-11 09:04:11.22	27.17	13.48	
2025-01-11 09:04:11.42	27.13	13.48	
2025-01-11 09:04:11.63	27.08	13.48	
2025-01-11 09:04:11.83	27.04	13.47	
2025-01-11 09:04:12.04	26.99	13.47	
2025-01-11 09:04:12.24	26.94	13.46	
2025-01-11 09:04:12.45	26.90	13.46	
2025-01-11 09:04:12.65	26.85	13.45	
2025-01-11 09:04:12.86	26.80	13.45	
2025-01-11 09:04:13.06	26.76	13.44	
2025-01-11 09:04:13.27	26.71	13.44	
2025-01-11 09:04:13.47	26.66	13.43	
2025-01-11 09:04:13.68	26.62	13.43	
2025-01-11 09:04:13.88	26.57	13.42	
2025-01-11 09:04:14.09	26.52	13.42	
2025-01-11 09:04:14.29	26.48	13.41	
2025-01-11 09:04:14.50	26.43	13.41	
2025-01-11 09:04:14.71	26.38	13.40	
2025-01-11 09:04:14.91	26.34	13.40	
2025-01-11 09:04:15.12	26.29	13.39	
2025-01-11 09:04:15.32	26.25	13.39	
2025-01-11 09:04:15.53	26.20	13.39	
2025-01-11 09:04:15.74	26.15	13.38	
2025-01-11 09:04:15.94	26.11	13.38	
2025-01-11 09:04:16.15	26.06	13.37	
2025-01-11 09:04:16.35	26.02	13.37	
2025-01-11 09:04:16.56	25.97	13.36	
2025-01-11 09:04:16.76	25.92	13.36	
2025-01-11 09:04:16.97	25.88	13.35	
2025-01-11 09:04:17.17	25.83	13.35	
2025-01-11 09:04:17.38	25.78	13.34	
2025-01-11 09:04:17.58	25.74	13.34	
2025-01-11 09:04:17.79	25.69	13.33	
2025-01-11 09:04:18.00	25.65	13.33	
2025-01-11 09:04:18.20	25.60	13.32	
2025-01-11 09:04:18.41	25.55	13.31	
2025-01-11 09:04:18.61	25.51	13.31	
2025-01-11 09:04:18.82	25.46	13.30	
2025-01-11 09:04:19.03	25.41	13.30	
2025-01-11 09:04:19.23	25.37	13.29	
2025-01-11 09:04:19.45	25.32	13.29	
2025-01-11 09:04:19.66	25.27	13.28	
2025-01-11 09:04:19.86	25.23	13.28	
2025-01-11 09:04:20.06	25.18	13.27	
2025-01-11 09:04:20.27	25.14	13.27	
2025-01-11 09:04:20.47	25.09	13.26	
2025-01-11 09:04:20.68	25.05	13.26	
2025-01-11 09:04:20.88	25.00	13.25	
2025-01-11 09:04:21.09	24.95	13.25	
2025-01-11 09:04:21.29	24.91	13.24	
2025-01-11 09:04:21.50	24.86	13.24	
2025-01-11 09:04:21.70	24.82	13.23	
2025-01-11 09:04:21.91	24.77	13.23	
2025-01-11 09:04:22.11	24.73	13.22	
2025-01-11 09:04:22.32	24.68	13.21	
2025-01-11 09:04:22.52	24.64	13.21	
2025-01-11 09:04:22.73	24.59	13.20	
2025-01-11 09:04:22.93	24.55	13.20	
2025-01-11 09:04:23.14	24.50	13.19	
2025-01-11 09:04:23.35	24.45	13.19	
2025-01-11 09:04:23.55	24.41	13.18	
2025-01-11 09:04:23.75	24.36	13.18	
2025-01-11 09:04:23.96	24.32	13.17	
2025-01-11 09:04:24.16	24.27	13.17	
2025-01-11 09:04:24.37	24.23	13.16	
2025-01-11 09:04:24.58	24.18	13.15	
2025-01-11 09:04:24.78	24.14	13.15	
2025-01-11 09:04:24.99	24.09	13.14	
2025-01-11 09:04:25.19	24.04	13.14	
2025-01-11 09:04:25.40	24.00	13.13	
2025-01-11 09:04:25.60	23.95	13.13	
2025-01-11 09:04:25.80	23.91	13.12	
2025-01-11 09:04:26.01	23.86	13.11	
2025-01-11 09:04:26.21	23.82	13.11	
2025-01-11 09:04:26.42	23.77	13.10	
2025-01-11 09:04:26.62	23.73	13.10	
2025-01-11 09:04:26.84	23.68	13.09	
2025-01-11 09:04:27.04	23.64	13.09	
2025-01-11 09:04:27.25	23.59	13.08	
2025-01-11 09:04:27.46	23.54	13.07	
2025-01-11 09:04:27.66	23.50	13.07	
2025-01-11 09:04:27.87	23.45	13.06	
2025-01-11 09:04:28.07	23.41	13.06	
2025-01-11 09:04:28.28	23.36	13.05	
2025-01-11 09:04:28.48	23.32	13.04	
2025-01-11 09:04:28.69	23.27	13.04	
2025-01-11 09:04:28.89	23.23	13.03	
2025-01-11 09:04:29.11	23.18	13.03	
2025-01-11 09:04:29.31	23.14	13.02	
2025-01-11 09:04:29.52	23.09	13.01	
2025-01-11 09:04:29.72	23.05	13.01	
2025-01-11 09:04:29.93	23.00	13.00	
2025-01-11 09:04:30.13	22.96	13.00	
2025-01-11 09:04:30.34	22.91	12.99	
2025-01-11 09:04:30.54	22.87	12.98	
2025-01-11 09:04:30.75	22.82	12.98	
2025-01-11 09:04:30.95	22.78	12.97	
2025-01-11 09:04:31.16	22.73	12.97	
2025-01-11 09:04:31.36	22.69	12.96	
2025-01-11 09:04:31.57	22.64	12.95	
2025-01-11 09:04:31.77	22.60	12.95	
2025-01-11 09:04:31.98	22.55	12.94	
2025-01-11 09:04:32.18	22.51	12.94	
2025-01-11 09:04:32.39	22.47	12.93	
2025-01-11 09:04:32.59	22.42	12.92	
2025-01-11 09:04:32.80	22.38	12.92	
2025-01-11 09:04:33.01	22.33	12.91	
2025-01-11 09:04:33.21	22.29	12.91	
2025-01-11 09:04:33.41	22.24	12.90	
2025-01-11 09:04:33.62	22.20	12.89	
2025-01-11 09:04:33.82	22.15	12.89	
2025-01-11 09:04:34.03	22.11	12.88	
2025-01-11 09:04:34.23	22.07	12.87	
2025-01-11 09:04:34.44	22.02	12.87	
2025-01-11 09:04:34.64	21.98	12.86	
2025-01-11 09:04:34.85	21.93	12.85	
2025-01-11 09:04:35.06	21.89	12.85	
2025-01-11 09:04:35.26	21.84	12.84	
2025-01-11 09:04:35.46	21.80	12.84	
2025-01-11 09:04:35.67	21.75	12.83	
2025-01-11 09:04:35.87	21.71	12.82	
2025-01-11 09:04:36.08	21.67	12.82	
2025-01-11 09:04:36.28	21.62	12.81	
2025-01-11 09:04:36.49	21.58	12.80	
2025-01-11 09:04:36.69	21.53	12.80	
2025-01-11 09:04:36.90	21.49	12.79	
2025-01-11 09:04:37.10	21.45	12.78	
2025-01-11 09:04:37.31	21.40	12.78	
2025-01-11 09:04:37.51	21.36	12.77	
2025-01-11 09:04:37.72	21.31	12.76	
2025-01-11 09:04:37.92	21.27	12.76	
2025-01-11 09:04:38.13	21.22	12.75	
2025-01-11 09:04:38.33	21.18	12.75	
2025-01-11 09:04:38.54	21.14	12.74	
2025-01-11 09:04:38.74	21.09	12.73	
2025-01-11 09:04:38.95	21.05	12.73	
2025-01-11 09:04:39.15	21.00	12.72	
2025-01-11 09:04:39.36	20.96	12.71	
2025-01-11 09:04:39.57	20.91	12.71	
2025-01-11 09:04:39.77	20.87	12.70	
2025-01-11 09:04:39.98	20.83	12.69	
2025-01-11 09:04:40.18	20.78	12.69	
2025-01-11 09:04:40.39	20.74	12.68	
2025-01-11 09:04:40.59	20.70	12.67	
2025-01-11 09:04:40.80	20.65	12.67	
2025-01-11 09:04:41.00	20.61	12.66	
2025-01-11 09:04:41.21	20.56	12.65	
2025-01-11 09:04:41.41	20.52	12.65	
2025-01-11 09:04:41.62	20.48	12.64	
2025-01-11 09:04:41.82	20.43	12.63	
2025-01-11 09:04:42.03	20.39	12.62	
2025-01-11 09:04:42.23	20.35	12.62	
2025-01-11 09:04:42.44	20.30	12.61	
2025-01-11 09:04:42.64	20.26	12.60	
2025-01-11 09:04:42.85	20.22	12.60	
2025-01-11 09:04:43.05	20.17	12.59	
2025-01-11 09:04:43.26	20.13	12.58	
2025-01-11 09:04:43.46	20.09	12.58	
2025-01-11 09:04:43.67	20.04	12.57	
2025-01-11 09:04:43.88	20.00	12.56	
2025-01-11 09:04:44.08	19.95	12.56	
2025-01-11 09:04:44.29	19.91	12.55	
