passes_logs/2025/01/11/SPB_Silybum_02/SPB_Silybum_02__20250111_094045_SUOMI_NPP_rec.log

#Pass ID: 20250111_094045_SUOMI NPP
#Satellite: SUOMI NPP
#Configuration: NPP
#Start time: 2025-01-11 09:40:46

#Version: 2.0.20230423
#Station: SPB_Silybum_02
#Location: 30.233357 lon 59.946436 lat
#TLE: 1 37849U 11061A   25010.83173011  .00000170  00000+0  10148-3 0  9996
#TLE: 2 37849  98.7441 311.8732 0001811  47.3940 312.7388 14.19536379684322

#Time	Az	El	Level	Level2	SNR	BER	Gain	Gain2
2025-01-11 09:40:48.22	142.09	4.16	
2025-01-11 09:40:48.43	142.08	4.17	
2025-01-11 09:40:48.63	142.08	4.19	
2025-01-11 09:40:48.84	142.07	4.20	
2025-01-11 09:40:49.04	142.07	4.21	
2025-01-11 09:40:49.25	142.06	4.23	
2025-01-11 09:40:49.45	142.06	4.24	
2025-01-11 09:40:49.66	142.05	4.26	
2025-01-11 09:40:49.88	142.05	4.27	
2025-01-11 09:40:50.08	142.04	4.29	
2025-01-11 09:40:50.29	142.04	4.30	
2025-01-11 09:40:50.49	142.03	4.31	
2025-01-11 09:40:50.70	142.03	4.33	
2025-01-11 09:40:50.90	142.02	4.34	
2025-01-11 09:40:51.11	142.02	4.36	
2025-01-11 09:40:51.31	142.01	4.37	
2025-01-11 09:40:51.52	142.01	4.38	
2025-01-11 09:40:51.73	142.00	4.40	
2025-01-11 09:40:51.93	142.00	4.41	
2025-01-11 09:40:52.13	142.00	4.43	
2025-01-11 09:40:52.34	141.99	4.44	
2025-01-11 09:40:52.55	141.99	4.46	
2025-01-11 09:40:52.75	141.98	4.47	
2025-01-11 09:40:52.95	141.98	4.48	
2025-01-11 09:40:53.16	141.97	4.50	
2025-01-11 09:40:53.36	141.97	4.51	
2025-01-11 09:40:53.57	141.96	4.53	
2025-01-11 09:40:53.77	141.96	4.54	
2025-01-11 09:40:53.98	141.95	4.56	
2025-01-11 09:40:54.19	141.95	4.57	
2025-01-11 09:40:54.39	141.94	4.58	
2025-01-11 09:40:54.60	141.94	4.60	
2025-01-11 09:40:54.81	141.93	4.61	
2025-01-11 09:40:55.01	141.93	4.63	
2025-01-11 09:40:55.22	141.92	4.64	
2025-01-11 09:40:55.42	141.92	4.66	
2025-01-11 09:40:55.62	141.91	4.67	
2025-01-11 09:40:55.82	141.91	4.68	
2025-01-11 09:40:56.03	141.90	4.70	
2025-01-11 09:40:56.23	141.90	4.71	
2025-01-11 09:40:56.44	141.89	4.73	
2025-01-11 09:40:56.64	141.89	4.74	
2025-01-11 09:40:56.86	141.88	4.76	
2025-01-11 09:40:57.06	141.88	4.77	
2025-01-11 09:40:57.27	141.87	4.79	
2025-01-11 09:40:57.47	141.87	4.80	
2025-01-11 09:40:57.68	141.86	4.81	
2025-01-11 09:40:57.88	141.86	4.83	
2025-01-11 09:40:58.09	141.85	4.84	
2025-01-11 09:40:58.29	141.85	4.86	
2025-01-11 09:40:58.50	141.84	4.87	
2025-01-11 09:40:58.70	141.84	4.89	
2025-01-11 09:40:58.91	141.83	4.90	
2025-01-11 09:40:59.11	141.83	4.92	
2025-01-11 09:40:59.32	141.82	4.93	
2025-01-11 09:40:59.52	141.82	4.94	
2025-01-11 09:40:59.73	141.81	4.96	
2025-01-11 09:40:59.94	141.81	4.97	
2025-01-11 09:41:00.14	141.80	4.99	
2025-01-11 09:41:00.35	141.80	5.00	
2025-01-11 09:41:00.55	141.79	5.02	
2025-01-11 09:41:00.75	141.79	5.03	
2025-01-11 09:41:00.96	141.78	5.05	
2025-01-11 09:41:01.18	141.77	5.06	
2025-01-11 09:41:01.39	141.77	5.08	
2025-01-11 09:41:01.59	141.76	5.09	
2025-01-11 09:41:01.79	141.76	5.11	
2025-01-11 09:41:02.00	141.75	5.12	
2025-01-11 09:41:02.20	141.75	5.13	
2025-01-11 09:41:02.41	141.74	5.15	
2025-01-11 09:41:02.63	141.74	5.16	
2025-01-11 09:41:02.83	141.73	5.18	
2025-01-11 09:41:03.04	141.73	5.19	
2025-01-11 09:41:03.24	141.72	5.21	
2025-01-11 09:41:03.45	141.72	5.22	
2025-01-11 09:41:03.65	141.71	5.24	
2025-01-11 09:41:03.86	141.71	5.25	
2025-01-11 09:41:04.06	141.70	5.27	
2025-01-11 09:41:04.27	141.70	5.28	
2025-01-11 09:41:04.47	141.69	5.30	
2025-01-11 09:41:04.67	141.69	5.31	
2025-01-11 09:41:04.88	141.68	5.33	
2025-01-11 09:41:05.08	141.68	5.34	
2025-01-11 09:41:05.29	141.67	5.36	
2025-01-11 09:41:05.49	141.67	5.37	
2025-01-11 09:41:05.70	141.66	5.38	
2025-01-11 09:41:05.90	141.66	5.40	
2025-01-11 09:41:06.11	141.65	5.41	
2025-01-11 09:41:06.31	141.65	5.43	
2025-01-11 09:41:06.52	141.64	5.44	
2025-01-11 09:41:06.72	141.63	5.46	
2025-01-11 09:41:06.93	141.63	5.47	
2025-01-11 09:41:07.13	141.62	5.49	
2025-01-11 09:41:07.34	141.62	5.50	
2025-01-11 09:41:07.54	141.61	5.52	
2025-01-11 09:41:07.75	141.61	5.53	
2025-01-11 09:41:07.95	141.60	5.55	
2025-01-11 09:41:08.16	141.60	5.56	
2025-01-11 09:41:08.36	141.59	5.58	
2025-01-11 09:41:08.57	141.59	5.59	
2025-01-11 09:41:08.78	141.58	5.61	
2025-01-11 09:41:08.98	141.58	5.62	
2025-01-11 09:41:09.19	141.57	5.64	
2025-01-11 09:41:09.39	141.57	5.65	
2025-01-11 09:41:09.60	141.56	5.67	
2025-01-11 09:41:09.80	141.55	5.68	
2025-01-11 09:41:10.01	141.55	5.70	
2025-01-11 09:41:10.21	141.54	5.71	
2025-01-11 09:41:10.42	141.54	5.73	
2025-01-11 09:41:10.62	141.53	5.74	
2025-01-11 09:41:10.83	141.53	5.76	
2025-01-11 09:41:11.03	141.52	5.77	
2025-01-11 09:41:11.24	141.52	5.79	
2025-01-11 09:41:11.44	141.51	5.80	
2025-01-11 09:41:11.65	141.51	5.82	
2025-01-11 09:41:11.85	141.50	5.83	
2025-01-11 09:41:12.06	141.50	5.85	
2025-01-11 09:41:12.26	141.49	5.86	
2025-01-11 09:41:12.47	141.48	5.88	
2025-01-11 09:41:12.68	141.48	5.89	
2025-01-11 09:41:12.88	141.47	5.91	
2025-01-11 09:41:13.09	141.47	5.92	
2025-01-11 09:41:13.29	141.46	5.94	
2025-01-11 09:41:13.50	141.46	5.95	
2025-01-11 09:41:13.70	141.45	5.97	
2025-01-11 09:41:13.91	141.45	5.98	
2025-01-11 09:41:14.11	141.44	6.00	
2025-01-11 09:41:14.32	141.44	6.01	
2025-01-11 09:41:14.52	141.43	6.03	
2025-01-11 09:41:14.73	141.42	6.04	
2025-01-11 09:41:14.94	141.42	6.06	
2025-01-11 09:41:15.14	141.41	6.07	
2025-01-11 09:41:15.34	141.41	6.09	
2025-01-11 09:41:15.55	141.40	6.10	
2025-01-11 09:41:15.75	141.40	6.12	
2025-01-11 09:41:15.96	141.39	6.13	
2025-01-11 09:41:16.16	141.39	6.15	
2025-01-11 09:41:16.37	141.38	6.16	
2025-01-11 09:41:16.57	141.37	6.18	
2025-01-11 09:41:16.78	141.37	6.19	
2025-01-11 09:41:16.98	141.36	6.21	
2025-01-11 09:41:17.19	141.36	6.22	
2025-01-11 09:41:17.40	141.35	6.24	
2025-01-11 09:41:17.60	141.35	6.25	
2025-01-11 09:41:17.80	141.34	6.27	
2025-01-11 09:41:18.01	141.34	6.28	
2025-01-11 09:41:18.22	141.33	6.30	
2025-01-11 09:41:18.42	141.32	6.31	
2025-01-11 09:41:18.63	141.32	6.33	
2025-01-11 09:41:18.83	141.31	6.34	
2025-01-11 09:41:19.04	141.31	6.36	
2025-01-11 09:41:19.24	141.30	6.37	
2025-01-11 09:41:19.45	141.30	6.39	
2025-01-11 09:41:19.65	141.29	6.41	
2025-01-11 09:41:19.85	141.28	6.42	
2025-01-11 09:41:20.06	141.28	6.44	
2025-01-11 09:41:20.26	141.27	6.45	
2025-01-11 09:41:20.47	141.27	6.47	
2025-01-11 09:41:20.67	141.26	6.48	
2025-01-11 09:41:20.87	141.26	6.50	
2025-01-11 09:41:21.08	141.25	6.51	
2025-01-11 09:41:21.29	141.24	6.53	
2025-01-11 09:41:21.49	141.24	6.54	
2025-01-11 09:41:21.70	141.23	6.56	
2025-01-11 09:41:21.90	141.23	6.57	
2025-01-11 09:41:22.11	141.22	6.59	
2025-01-11 09:41:22.31	141.22	6.60	
2025-01-11 09:41:22.52	141.21	6.62	
2025-01-11 09:41:22.72	141.20	6.64	
2025-01-11 09:41:22.93	141.20	6.65	
2025-01-11 09:41:23.13	141.19	6.67	
2025-01-11 09:41:23.34	141.19	6.68	
2025-01-11 09:41:23.54	141.18	6.70	
2025-01-11 09:41:23.75	141.18	6.71	
2025-01-11 09:41:23.95	141.17	6.73	
2025-01-11 09:41:24.16	141.16	6.74	
2025-01-11 09:41:24.36	141.16	6.76	
2025-01-11 09:41:24.57	141.15	6.77	
2025-01-11 09:41:24.77	141.15	6.79	
2025-01-11 09:41:24.98	141.14	6.81	
2025-01-11 09:41:25.18	141.14	6.82	
2025-01-11 09:41:25.38	141.13	6.84	
2025-01-11 09:41:25.59	141.12	6.85	
2025-01-11 09:41:25.80	141.12	6.87	
2025-01-11 09:41:26.00	141.11	6.88	
2025-01-11 09:41:26.21	141.11	6.90	
2025-01-11 09:41:26.41	141.10	6.91	
2025-01-11 09:41:26.62	141.09	6.93	
2025-01-11 09:41:26.83	141.09	6.95	
2025-01-11 09:41:27.03	141.08	6.96	
2025-01-11 09:41:27.24	141.08	6.98	
2025-01-11 09:41:27.44	141.07	6.99	
2025-01-11 09:41:27.64	141.06	7.01	
2025-01-11 09:41:27.85	141.06	7.02	
2025-01-11 09:41:28.05	141.05	7.04	
2025-01-11 09:41:28.26	141.05	7.06	
2025-01-11 09:41:28.46	141.04	7.07	
2025-01-11 09:41:28.67	141.03	7.09	
2025-01-11 09:41:28.87	141.03	7.10	
2025-01-11 09:41:29.08	141.02	7.12	
2025-01-11 09:41:29.28	141.02	7.13	
2025-01-11 09:41:29.49	141.01	7.15	
2025-01-11 09:41:29.69	141.01	7.16	
2025-01-11 09:41:29.90	141.00	7.18	
2025-01-11 09:41:30.10	140.99	7.20	
2025-01-11 09:41:30.31	140.99	7.21	
2025-01-11 09:41:30.51	140.98	7.23	
2025-01-11 09:41:30.72	140.97	7.24	
2025-01-11 09:41:30.92	140.97	7.26	
2025-01-11 09:41:31.13	140.96	7.28	
2025-01-11 09:41:31.34	140.96	7.29	
2025-01-11 09:41:31.55	140.95	7.31	
2025-01-11 09:41:31.76	140.94	7.32	
2025-01-11 09:41:31.96	140.94	7.34	
2025-01-11 09:41:32.17	140.93	7.36	
2025-01-11 09:41:32.37	140.93	7.37	
2025-01-11 09:41:32.58	140.92	7.39	
2025-01-11 09:41:32.78	140.91	7.40	
2025-01-11 09:41:32.99	140.91	7.42	
2025-01-11 09:41:33.20	140.90	7.44	
2025-01-11 09:41:33.40	140.90	7.45	
2025-01-11 09:41:33.60	140.89	7.47	
2025-01-11 09:41:33.81	140.88	7.48	
2025-01-11 09:41:34.02	140.88	7.50	
2025-01-11 09:41:34.22	140.87	7.51	
2025-01-11 09:41:34.43	140.86	7.53	
2025-01-11 09:41:34.63	140.86	7.55	
2025-01-11 09:41:34.84	140.85	7.56	
2025-01-11 09:41:35.04	140.85	7.58	
2025-01-11 09:41:35.25	140.84	7.60	
2025-01-11 09:41:35.45	140.83	7.61	
2025-01-11 09:41:35.66	140.83	7.63	
2025-01-11 09:41:35.86	140.82	7.64	
2025-01-11 09:41:36.07	140.82	7.66	
2025-01-11 09:41:36.27	140.81	7.67	
2025-01-11 09:41:36.48	140.80	7.69	
2025-01-11 09:41:36.69	140.80	7.71	
2025-01-11 09:41:36.89	140.79	7.72	
2025-01-11 09:41:37.09	140.78	7.74	
2025-01-11 09:41:37.30	140.78	7.76	
2025-01-11 09:41:37.51	140.77	7.77	
2025-01-11 09:41:37.71	140.77	7.79	
2025-01-11 09:41:37.93	140.76	7.81	
2025-01-11 09:41:38.13	140.75	7.82	
2025-01-11 09:41:38.34	140.75	7.84	
2025-01-11 09:41:38.54	140.74	7.85	
2025-01-11 09:41:38.75	140.73	7.87	
2025-01-11 09:41:38.95	140.73	7.89	
2025-01-11 09:41:39.16	140.72	7.90	
2025-01-11 09:41:39.37	140.71	7.92	
2025-01-11 09:41:39.57	140.71	7.93	
2025-01-11 09:41:39.78	140.70	7.95	
2025-01-11 09:41:39.98	140.70	7.97	
2025-01-11 09:41:40.19	140.69	7.98	
2025-01-11 09:41:40.39	140.68	8.00	
2025-01-11 09:41:40.60	140.68	8.02	
2025-01-11 09:41:40.81	140.67	8.03	
2025-01-11 09:41:41.01	140.66	8.05	
2025-01-11 09:41:41.22	140.66	8.07	
2025-01-11 09:41:41.42	140.65	8.08	
2025-01-11 09:41:41.63	140.64	8.10	
2025-01-11 09:41:41.83	140.64	8.11	
2025-01-11 09:41:42.04	140.63	8.13	
2025-01-11 09:41:42.24	140.62	8.15	
2025-01-11 09:41:42.45	140.62	8.16	
2025-01-11 09:41:42.65	140.61	8.18	
2025-01-11 09:41:42.86	140.61	8.20	
2025-01-11 09:41:43.06	140.60	8.21	
2025-01-11 09:41:43.26	140.59	8.23	
2025-01-11 09:41:43.47	140.59	8.24	
2025-01-11 09:41:43.67	140.58	8.26	
2025-01-11 09:41:43.88	140.57	8.28	
2025-01-11 09:41:44.08	140.57	8.29	
2025-01-11 09:41:44.29	140.56	8.31	
2025-01-11 09:41:44.49	140.55	8.33	
2025-01-11 09:41:44.70	140.55	8.34	
2025-01-11 09:41:44.90	140.54	8.36	
2025-01-11 09:41:45.11	140.53	8.38	
2025-01-11 09:41:45.31	140.53	8.39	
2025-01-11 09:41:45.52	140.52	8.41	
2025-01-11 09:41:45.73	140.51	8.43	
2025-01-11 09:41:45.93	140.51	8.44	
2025-01-11 09:41:46.14	140.50	8.46	
2025-01-11 09:41:46.34	140.49	8.47	
2025-01-11 09:41:46.55	140.49	8.49	
2025-01-11 09:41:46.75	140.48	8.51	
2025-01-11 09:41:46.96	140.47	8.53	
2025-01-11 09:41:47.16	140.47	8.54	
2025-01-11 09:41:47.37	140.46	8.56	
2025-01-11 09:41:47.57	140.45	8.57	
2025-01-11 09:41:47.78	140.45	8.59	
2025-01-11 09:41:47.98	140.44	8.61	
2025-01-11 09:41:48.19	140.43	8.62	
2025-01-11 09:41:48.39	140.43	8.64	
2025-01-11 09:41:48.60	140.42	8.66	
2025-01-11 09:41:48.80	140.41	8.67	
2025-01-11 09:41:49.01	140.41	8.69	
2025-01-11 09:41:49.21	140.40	8.71	
2025-01-11 09:41:49.42	140.39	8.72	
2025-01-11 09:41:49.62	140.39	8.74	
2025-01-11 09:41:49.83	140.38	8.76	
2025-01-11 09:41:50.03	140.37	8.77	
2025-01-11 09:41:50.24	140.37	8.79	
2025-01-11 09:41:50.44	140.36	8.81	
2025-01-11 09:41:50.65	140.35	8.83	
2025-01-11 09:41:50.85	140.35	8.84	
2025-01-11 09:41:51.06	140.34	8.86	
2025-01-11 09:41:51.26	140.33	8.87	
2025-01-11 09:41:51.47	140.33	8.89	
2025-01-11 09:41:51.67	140.32	8.91	
2025-01-11 09:41:51.88	140.31	8.93	
2025-01-11 09:41:52.08	140.31	8.94	
2025-01-11 09:41:52.29	140.30	8.96	
2025-01-11 09:41:52.49	140.29	8.98	
2025-01-11 09:41:52.70	140.29	8.99	
2025-01-11 09:41:52.92	140.28	9.01	
2025-01-11 09:41:53.12	140.27	9.03	
2025-01-11 09:41:53.33	140.26	9.05	
2025-01-11 09:41:53.53	140.26	9.06	
2025-01-11 09:41:53.74	140.25	9.08	
2025-01-11 09:41:53.94	140.24	9.10	
2025-01-11 09:41:54.15	140.24	9.11	
2025-01-11 09:41:54.35	140.23	9.13	
2025-01-11 09:41:54.56	140.22	9.15	
2025-01-11 09:41:54.76	140.22	9.16	
2025-01-11 09:41:54.97	140.21	9.18	
2025-01-11 09:41:55.17	140.20	9.20	
2025-01-11 09:41:55.37	140.20	9.21	
2025-01-11 09:41:55.59	140.19	9.23	
2025-01-11 09:41:55.81	140.18	9.25	
2025-01-11 09:41:56.01	140.17	9.27	
2025-01-11 09:41:56.21	140.17	9.28	
2025-01-11 09:41:56.42	140.16	9.30	
2025-01-11 09:41:56.62	140.15	9.32	
2025-01-11 09:41:56.83	140.15	9.34	
2025-01-11 09:41:57.03	140.14	9.35	
2025-01-11 09:41:57.24	140.13	9.37	
2025-01-11 09:41:57.44	140.12	9.39	
2025-01-11 09:41:57.64	140.12	9.40	
2025-01-11 09:41:57.85	140.11	9.42	
2025-01-11 09:41:58.06	140.10	9.44	
2025-01-11 09:41:58.27	140.10	9.46	
2025-01-11 09:41:58.48	140.09	9.47	
2025-01-11 09:41:58.69	140.08	9.49	
2025-01-11 09:41:58.89	140.07	9.51	
2025-01-11 09:41:59.10	140.07	9.53	
2025-01-11 09:41:59.30	140.06	9.54	
2025-01-11 09:41:59.51	140.05	9.56	
2025-01-11 09:41:59.71	140.05	9.58	
2025-01-11 09:41:59.92	140.04	9.59	
2025-01-11 09:42:00.12	140.03	9.61	
2025-01-11 09:42:00.33	140.02	9.63	
2025-01-11 09:42:00.53	140.02	9.65	
2025-01-11 09:42:00.74	140.01	9.66	
2025-01-11 09:42:00.94	140.00	9.68	
2025-01-11 09:42:01.15	139.99	9.70	
2025-01-11 09:42:01.35	139.99	9.72	
2025-01-11 09:42:01.56	139.98	9.73	
2025-01-11 09:42:01.76	139.97	9.75	
2025-01-11 09:42:01.97	139.97	9.77	
2025-01-11 09:42:02.17	139.96	9.78	
2025-01-11 09:42:02.38	139.95	9.80	
2025-01-11 09:42:02.58	139.94	9.82	
2025-01-11 09:42:02.79	139.94	9.84	
2025-01-11 09:42:02.99	139.93	9.85	
2025-01-11 09:42:03.20	139.92	9.87	
2025-01-11 09:42:03.40	139.91	9.89	
2025-01-11 09:42:03.60	139.91	9.91	
2025-01-11 09:42:03.81	139.90	9.92	
2025-01-11 09:42:04.01	139.89	9.94	
2025-01-11 09:42:04.22	139.89	9.96	
2025-01-11 09:42:04.43	139.88	9.98	
2025-01-11 09:42:04.63	139.87	9.99	
2025-01-11 09:42:04.84	139.86	10.01	
2025-01-11 09:42:05.04	139.86	10.03	
2025-01-11 09:42:05.25	139.85	10.05	
2025-01-11 09:42:05.46	139.84	10.07	
2025-01-11 09:42:05.66	139.83	10.08	
2025-01-11 09:42:05.87	139.83	10.10	
2025-01-11 09:42:06.07	139.82	10.12	
2025-01-11 09:42:06.28	139.81	10.14	
2025-01-11 09:42:06.48	139.80	10.15	
2025-01-11 09:42:06.70	139.80	10.17	
2025-01-11 09:42:06.91	139.79	10.19	
2025-01-11 09:42:07.11	139.78	10.21	
2025-01-11 09:42:07.32	139.77	10.23	
2025-01-11 09:42:07.52	139.77	10.24	
2025-01-11 09:42:07.74	139.76	10.26	
2025-01-11 09:42:07.95	139.75	10.28	
2025-01-11 09:42:08.15	139.74	10.30	
2025-01-11 09:42:08.35	139.73	10.31	
2025-01-11 09:42:08.56	139.73	10.33	
2025-01-11 09:42:08.76	139.72	10.35	
2025-01-11 09:42:08.97	139.71	10.37	
2025-01-11 09:42:09.17	139.70	10.39	
2025-01-11 09:42:09.38	139.70	10.40	
2025-01-11 09:42:09.58	139.69	10.42	
2025-01-11 09:42:09.79	139.68	10.44	
2025-01-11 09:42:09.99	139.67	10.46	
2025-01-11 09:42:10.20	139.67	10.48	
2025-01-11 09:42:10.40	139.66	10.49	
2025-01-11 09:42:10.61	139.65	10.51	
2025-01-11 09:42:10.81	139.64	10.53	
2025-01-11 09:42:11.02	139.64	10.55	
2025-01-11 09:42:11.22	139.63	10.56	
2025-01-11 09:42:11.43	139.62	10.58	
2025-01-11 09:42:11.63	139.61	10.60	
2025-01-11 09:42:11.84	139.60	10.62	
2025-01-11 09:42:12.04	139.60	10.64	
2025-01-11 09:42:12.25	139.59	10.65	
2025-01-11 09:42:12.45	139.58	10.67	
2025-01-11 09:42:12.66	139.57	10.69	
2025-01-11 09:42:12.87	139.57	10.71	
2025-01-11 09:42:13.07	139.56	10.73	
2025-01-11 09:42:13.27	139.55	10.74	
2025-01-11 09:42:13.48	139.54	10.76	
2025-01-11 09:42:13.69	139.53	10.78	
2025-01-11 09:42:13.89	139.53	10.80	
2025-01-11 09:42:14.10	139.52	10.82	
2025-01-11 09:42:14.30	139.51	10.84	
2025-01-11 09:42:14.51	139.50	10.85	
2025-01-11 09:42:14.71	139.50	10.87	
2025-01-11 09:42:14.92	139.49	10.89	
2025-01-11 09:42:15.12	139.48	10.91	
2025-01-11 09:42:15.34	139.47	10.93	
2025-01-11 09:42:15.55	139.46	10.95	
2025-01-11 09:42:15.75	139.46	10.96	
2025-01-11 09:42:15.96	139.45	10.98	
2025-01-11 09:42:16.16	139.44	11.00	
2025-01-11 09:42:16.37	139.43	11.02	
2025-01-11 09:42:16.57	139.42	11.04	
2025-01-11 09:42:16.78	139.42	11.06	
2025-01-11 09:42:16.98	139.41	11.07	
2025-01-11 09:42:17.19	139.40	11.09	
2025-01-11 09:42:17.39	139.39	11.11	
2025-01-11 09:42:17.60	139.38	11.13	
2025-01-11 09:42:17.80	139.38	11.15	
2025-01-11 09:42:18.01	139.37	11.17	
2025-01-11 09:42:18.22	139.36	11.18	
2025-01-11 09:42:18.43	139.35	11.20	
2025-01-11 09:42:18.64	139.34	11.22	
2025-01-11 09:42:18.84	139.33	11.24	
2025-01-11 09:42:19.05	139.33	11.26	
2025-01-11 09:42:19.25	139.32	11.28	
2025-01-11 09:42:19.46	139.31	11.30	
2025-01-11 09:42:19.66	139.30	11.31	
2025-01-11 09:42:19.87	139.29	11.33	
2025-01-11 09:42:20.07	139.29	11.35	
2025-01-11 09:42:20.28	139.28	11.37	
2025-01-11 09:42:20.48	139.27	11.39	
2025-01-11 09:42:20.69	139.26	11.41	
2025-01-11 09:42:20.89	139.25	11.42	
2025-01-11 09:42:21.10	139.24	11.44	
2025-01-11 09:42:21.31	139.24	11.46	
2025-01-11 09:42:21.51	139.23	11.48	
2025-01-11 09:42:21.71	139.22	11.50	
2025-01-11 09:42:21.92	139.21	11.52	
2025-01-11 09:42:22.12	139.20	11.54	
2025-01-11 09:42:22.33	139.19	11.56	
2025-01-11 09:42:22.54	139.19	11.57	
2025-01-11 09:42:22.74	139.18	11.59	
2025-01-11 09:42:22.94	139.17	11.61	
2025-01-11 09:42:23.15	139.16	11.63	
2025-01-11 09:42:23.35	139.15	11.65	
2025-01-11 09:42:23.56	139.14	11.67	
2025-01-11 09:42:23.76	139.14	11.69	
2025-01-11 09:42:23.97	139.13	11.70	
2025-01-11 09:42:24.18	139.12	11.72	
2025-01-11 09:42:24.38	139.11	11.74	
2025-01-11 09:42:24.59	139.10	11.76	
2025-01-11 09:42:24.79	139.09	11.78	
2025-01-11 09:42:24.99	139.09	11.80	
2025-01-11 09:42:25.20	139.08	11.82	
2025-01-11 09:42:25.40	139.07	11.84	
2025-01-11 09:42:25.61	139.06	11.86	
2025-01-11 09:42:25.81	139.05	11.87	
2025-01-11 09:42:26.02	139.04	11.89	
2025-01-11 09:42:26.22	139.04	11.91	
2025-01-11 09:42:26.43	139.03	11.93	
2025-01-11 09:42:26.64	139.02	11.95	
2025-01-11 09:42:26.84	139.01	11.97	
2025-01-11 09:42:27.05	139.00	11.99	
2025-01-11 09:42:27.25	138.99	12.01	
2025-01-11 09:42:27.46	138.98	12.03	
2025-01-11 09:42:27.66	138.98	12.04	
2025-01-11 09:42:27.87	138.97	12.06	
2025-01-11 09:42:28.09	138.96	12.08	
2025-01-11 09:42:28.30	138.95	12.10	
2025-01-11 09:42:28.50	138.94	12.12	
2025-01-11 09:42:28.71	138.93	12.14	
2025-01-11 09:42:28.91	138.92	12.16	
2025-01-11 09:42:29.12	138.91	12.18	
2025-01-11 09:42:29.32	138.91	12.20	
2025-01-11 09:42:29.53	138.90	12.22	
2025-01-11 09:42:29.73	138.89	12.24	
2025-01-11 09:42:29.94	138.88	12.26	
2025-01-11 09:42:30.14	138.87	12.28	
2025-01-11 09:42:30.35	138.86	12.30	
2025-01-11 09:42:30.55	138.85	12.31	
2025-01-11 09:42:30.76	138.84	12.33	
2025-01-11 09:42:30.97	138.84	12.35	
2025-01-11 09:42:31.17	138.83	12.37	
2025-01-11 09:42:31.38	138.82	12.39	
2025-01-11 09:42:31.58	138.81	12.41	
2025-01-11 09:42:31.79	138.80	12.43	
2025-01-11 09:42:32.00	138.79	12.45	
2025-01-11 09:42:32.20	138.78	12.47	
2025-01-11 09:42:32.40	138.77	12.49	
2025-01-11 09:42:32.61	138.76	12.51	
2025-01-11 09:42:32.82	138.76	12.53	
2025-01-11 09:42:33.02	138.75	12.55	
2025-01-11 09:42:33.22	138.74	12.57	
2025-01-11 09:42:33.43	138.73	12.59	
2025-01-11 09:42:33.63	138.72	12.60	
2025-01-11 09:42:33.84	138.71	12.62	
2025-01-11 09:42:34.04	138.70	12.64	
2025-01-11 09:42:34.25	138.69	12.66	
2025-01-11 09:42:34.45	138.68	12.68	
2025-01-11 09:42:34.66	138.68	12.70	
2025-01-11 09:42:34.86	138.67	12.72	
2025-01-11 09:42:35.07	138.66	12.74	
2025-01-11 09:42:35.27	138.65	12.76	
2025-01-11 09:42:35.48	138.64	12.78	
2025-01-11 09:42:35.68	138.63	12.80	
2025-01-11 09:42:35.89	138.62	12.82	
2025-01-11 09:42:36.09	138.61	12.84	
2025-01-11 09:42:36.30	138.60	12.86	
2025-01-11 09:42:36.50	138.59	12.88	
2025-01-11 09:42:36.71	138.58	12.90	
2025-01-11 09:42:36.91	138.58	12.92	
2025-01-11 09:42:37.12	138.57	12.94	
2025-01-11 09:42:37.32	138.56	12.96	
2025-01-11 09:42:37.53	138.55	12.98	
2025-01-11 09:42:37.75	138.54	13.00	
2025-01-11 09:42:37.95	138.53	13.02	
2025-01-11 09:42:38.16	138.52	13.04	
2025-01-11 09:42:38.37	138.51	13.06	
2025-01-11 09:42:38.57	138.50	13.08	
2025-01-11 09:42:38.77	138.49	13.10	
2025-01-11 09:42:38.98	138.48	13.12	
2025-01-11 09:42:39.19	138.47	13.14	
2025-01-11 09:42:39.39	138.46	13.16	
2025-01-11 09:42:39.60	138.45	13.18	
2025-01-11 09:42:39.80	138.45	13.20	
2025-01-11 09:42:40.01	138.44	13.22	
2025-01-11 09:42:40.22	138.43	13.24	
2025-01-11 09:42:40.42	138.42	13.26	
2025-01-11 09:42:40.63	138.41	13.28	
2025-01-11 09:42:40.83	138.40	13.30	
2025-01-11 09:42:41.03	138.39	13.31	
2025-01-11 09:42:41.24	138.38	13.34	
2025-01-11 09:42:41.44	138.37	13.35	
2025-01-11 09:42:41.65	138.36	13.38	
2025-01-11 09:42:41.85	138.35	13.39	
2025-01-11 09:42:42.06	138.34	13.42	
2025-01-11 09:42:42.26	138.33	13.44	
2025-01-11 09:42:42.47	138.32	13.46	
2025-01-11 09:42:42.67	138.31	13.48	
2025-01-11 09:42:42.88	138.30	13.50	
2025-01-11 09:42:43.10	138.29	13.52	
2025-01-11 09:42:43.30	138.28	13.54	
2025-01-11 09:42:43.51	138.27	13.56	
2025-01-11 09:42:43.71	138.27	13.58	
2025-01-11 09:42:43.92	138.26	13.60	
2025-01-11 09:42:44.14	138.25	13.62	
2025-01-11 09:42:44.34	138.24	13.64	
2025-01-11 09:42:44.56	138.23	13.66	
2025-01-11 09:42:44.77	138.22	13.68	
2025-01-11 09:42:44.97	138.21	13.70	
2025-01-11 09:42:45.18	138.20	13.72	
2025-01-11 09:42:45.38	138.19	13.74	
2025-01-11 09:42:45.59	138.18	13.76	
2025-01-11 09:42:45.79	138.17	13.78	
2025-01-11 09:42:46.00	138.16	13.80	
2025-01-11 09:42:46.20	138.15	13.82	
2025-01-11 09:42:46.41	138.14	13.84	
2025-01-11 09:42:46.62	138.13	13.87	
2025-01-11 09:42:46.82	138.12	13.89	
2025-01-11 09:42:47.03	138.11	13.91	
2025-01-11 09:42:47.23	138.10	13.93	
2025-01-11 09:42:47.43	138.09	13.95	
2025-01-11 09:42:47.64	138.08	13.97	
2025-01-11 09:42:47.84	138.07	13.99	
2025-01-11 09:42:48.05	138.06	14.01	
2025-01-11 09:42:48.25	138.05	14.03	
2025-01-11 09:42:48.46	138.04	14.05	
2025-01-11 09:42:48.66	138.03	14.07	
2025-01-11 09:42:48.87	138.02	14.09	
2025-01-11 09:42:49.07	138.01	14.11	
2025-01-11 09:42:49.28	138.00	14.13	
2025-01-11 09:42:49.48	137.99	14.15	
2025-01-11 09:42:49.69	137.98	14.17	
2025-01-11 09:42:49.89	137.97	14.19	
2025-01-11 09:42:50.10	137.96	14.21	
2025-01-11 09:42:50.31	137.95	14.24	
2025-01-11 09:42:50.51	137.94	14.26	
2025-01-11 09:42:50.72	137.93	14.28	
2025-01-11 09:42:50.92	137.92	14.30	
2025-01-11 09:42:51.13	137.91	14.32	
2025-01-11 09:42:51.34	137.90	14.34	
2025-01-11 09:42:51.54	137.89	14.36	
2025-01-11 09:42:51.75	137.88	14.38	
2025-01-11 09:42:51.95	137.87	14.40	
2025-01-11 09:42:52.16	137.86	14.42	
2025-01-11 09:42:52.36	137.85	14.44	
2025-01-11 09:42:52.57	137.84	14.46	
2025-01-11 09:42:52.77	137.83	14.48	
2025-01-11 09:42:52.98	137.82	14.51	
2025-01-11 09:42:53.18	137.81	14.53	
2025-01-11 09:42:53.39	137.80	14.55	
2025-01-11 09:42:53.60	137.79	14.57	
2025-01-11 09:42:53.80	137.78	14.59	
2025-01-11 09:42:54.01	137.77	14.61	
2025-01-11 09:42:54.21	137.76	14.63	
2025-01-11 09:42:54.42	137.74	14.65	
2025-01-11 09:42:54.62	137.73	14.67	
2025-01-11 09:42:54.84	137.72	14.70	
2025-01-11 09:42:55.04	137.71	14.72	
2025-01-11 09:42:55.25	137.70	14.74	
2025-01-11 09:42:55.45	137.69	14.76	
2025-01-11 09:42:55.67	137.68	14.78	
2025-01-11 09:42:55.87	137.67	14.80	
2025-01-11 09:42:56.08	137.66	14.82	
2025-01-11 09:42:56.29	137.65	14.85	
2025-01-11 09:42:56.49	137.64	14.87	
2025-01-11 09:42:56.70	137.63	14.89	
2025-01-11 09:42:56.90	137.62	14.91	
2025-01-11 09:42:57.11	137.61	14.93	
2025-01-11 09:42:57.31	137.60	14.95	
2025-01-11 09:42:57.52	137.59	14.97	
2025-01-11 09:42:57.73	137.58	15.00	
2025-01-11 09:42:57.93	137.57	15.02	
2025-01-11 09:42:58.14	137.55	15.04	
2025-01-11 09:42:58.34	137.54	15.06	
2025-01-11 09:42:58.55	137.53	15.08	
2025-01-11 09:42:58.75	137.52	15.10	
2025-01-11 09:42:58.95	137.51	15.12	
2025-01-11 09:42:59.16	137.50	15.14	
2025-01-11 09:42:59.37	137.49	15.17	
2025-01-11 09:42:59.57	137.48	15.19	
2025-01-11 09:42:59.78	137.47	15.21	
2025-01-11 09:42:59.98	137.46	15.23	
2025-01-11 09:43:00.18	137.45	15.25	
2025-01-11 09:43:00.39	137.44	15.27	
2025-01-11 09:43:00.60	137.43	15.30	
2025-01-11 09:43:00.80	137.42	15.32	
2025-01-11 09:43:01.02	137.40	15.34	
2025-01-11 09:43:01.22	137.39	15.36	
2025-01-11 09:43:01.43	137.38	15.38	
2025-01-11 09:43:01.63	137.37	15.40	
2025-01-11 09:43:01.84	137.36	15.43	
2025-01-11 09:43:02.04	137.35	15.45	
2025-01-11 09:43:02.25	137.34	15.47	
2025-01-11 09:43:02.45	137.33	15.49	
2025-01-11 09:43:02.65	137.32	15.51	
2025-01-11 09:43:02.86	137.31	15.53	
2025-01-11 09:43:03.07	137.29	15.56	
2025-01-11 09:43:03.27	137.28	15.58	
2025-01-11 09:43:03.47	137.27	15.60	
2025-01-11 09:43:03.68	137.26	15.62	
2025-01-11 09:43:03.88	137.25	15.64	
2025-01-11 09:43:04.09	137.24	15.67	
2025-01-11 09:43:04.29	137.23	15.69	
2025-01-11 09:43:04.50	137.22	15.71	
2025-01-11 09:43:04.71	137.21	15.73	
2025-01-11 09:43:04.91	137.19	15.75	
2025-01-11 09:43:05.12	137.18	15.78	
2025-01-11 09:43:05.32	137.17	15.80	
2025-01-11 09:43:05.53	137.16	15.82	
2025-01-11 09:43:05.73	137.15	15.84	
2025-01-11 09:43:05.93	137.14	15.86	
2025-01-11 09:43:06.14	137.13	15.89	
2025-01-11 09:43:06.35	137.12	15.91	
2025-01-11 09:43:06.56	137.10	15.93	
2025-01-11 09:43:06.77	137.09	15.95	
2025-01-11 09:43:06.98	137.08	15.98	
2025-01-11 09:43:07.18	137.07	16.00	
2025-01-11 09:43:07.39	137.06	16.02	
2025-01-11 09:43:07.59	137.05	16.04	
2025-01-11 09:43:07.80	137.04	16.06	
2025-01-11 09:43:08.01	137.02	16.09	
2025-01-11 09:43:08.21	137.01	16.11	
2025-01-11 09:43:08.42	137.00	16.13	
2025-01-11 09:43:08.63	136.99	16.16	
2025-01-11 09:43:08.84	136.98	16.18	
2025-01-11 09:43:09.05	136.97	16.20	
2025-01-11 09:43:09.25	136.95	16.22	
2025-01-11 09:43:09.46	136.94	16.25	
2025-01-11 09:43:09.66	136.93	16.27	
2025-01-11 09:43:09.87	136.92	16.29	
2025-01-11 09:43:10.07	136.91	16.31	
2025-01-11 09:43:10.28	136.90	16.34	
2025-01-11 09:43:10.49	136.88	16.36	
2025-01-11 09:43:10.69	136.87	16.38	
2025-01-11 09:43:10.90	136.86	16.40	
2025-01-11 09:43:11.10	136.85	16.43	
2025-01-11 09:43:11.31	136.84	16.45	
2025-01-11 09:43:11.51	136.83	16.47	
2025-01-11 09:43:11.72	136.81	16.49	
2025-01-11 09:43:11.92	136.80	16.52	
2025-01-11 09:43:12.13	136.79	16.54	
2025-01-11 09:43:12.34	136.78	16.56	
2025-01-11 09:43:12.54	136.77	16.58	
2025-01-11 09:43:12.75	136.75	16.61	
2025-01-11 09:43:12.95	136.74	16.63	
2025-01-11 09:43:13.16	136.73	16.65	
2025-01-11 09:43:13.36	136.72	16.67	
2025-01-11 09:43:13.57	136.71	16.70	
2025-01-11 09:43:13.78	136.69	16.72	
2025-01-11 09:43:13.99	136.68	16.74	
2025-01-11 09:43:14.20	136.67	16.77	
2025-01-11 09:43:14.40	136.66	16.79	
2025-01-11 09:43:14.61	136.65	16.81	
2025-01-11 09:43:14.82	136.63	16.84	
2025-01-11 09:43:15.02	136.62	16.86	
2025-01-11 09:43:15.22	136.61	16.88	
2025-01-11 09:43:15.43	136.60	16.91	
2025-01-11 09:43:15.64	136.58	16.93	
2025-01-11 09:43:15.84	136.57	16.95	
2025-01-11 09:43:16.04	136.56	16.97	
2025-01-11 09:43:16.25	136.55	17.00	
2025-01-11 09:43:16.45	136.54	17.02	
2025-01-11 09:43:16.66	136.52	17.04	
2025-01-11 09:43:16.86	136.51	17.07	
2025-01-11 09:43:17.07	136.50	17.09	
2025-01-11 09:43:17.27	136.49	17.11	
2025-01-11 09:43:17.48	136.48	17.14	
2025-01-11 09:43:17.68	136.46	17.16	
2025-01-11 09:43:17.89	136.45	17.18	
2025-01-11 09:43:18.09	136.44	17.21	
2025-01-11 09:43:18.30	136.43	17.23	
2025-01-11 09:43:18.50	136.41	17.25	
2025-01-11 09:43:18.71	136.40	17.28	
2025-01-11 09:43:18.91	136.39	17.30	
2025-01-11 09:43:19.12	136.38	17.32	
2025-01-11 09:43:19.32	136.36	17.34	
2025-01-11 09:43:19.53	136.35	17.37	
2025-01-11 09:43:19.74	136.34	17.39	
2025-01-11 09:43:19.94	136.33	17.42	
2025-01-11 09:43:20.15	136.31	17.44	
2025-01-11 09:43:20.36	136.30	17.46	
2025-01-11 09:43:20.57	136.29	17.49	
2025-01-11 09:43:20.78	136.27	17.51	
2025-01-11 09:43:20.98	136.26	17.53	
2025-01-11 09:43:21.19	136.25	17.56	
2025-01-11 09:43:21.39	136.24	17.58	
2025-01-11 09:43:21.60	136.22	17.61	
2025-01-11 09:43:21.80	136.21	17.63	
2025-01-11 09:43:22.01	136.20	17.65	
2025-01-11 09:43:22.22	136.18	17.68	
2025-01-11 09:43:22.42	136.17	17.70	
2025-01-11 09:43:22.62	136.16	17.72	
2025-01-11 09:43:22.83	136.15	17.75	
2025-01-11 09:43:23.03	136.13	17.77	
2025-01-11 09:43:23.24	136.12	17.79	
2025-01-11 09:43:23.45	136.11	17.82	
2025-01-11 09:43:23.65	136.10	17.84	
2025-01-11 09:43:23.86	136.08	17.87	
2025-01-11 09:43:24.06	136.07	17.89	
2025-01-11 09:43:24.27	136.06	17.91	
2025-01-11 09:43:24.47	136.04	17.94	
2025-01-11 09:43:24.67	136.03	17.96	
2025-01-11 09:43:24.88	136.02	17.99	
2025-01-11 09:43:25.09	136.00	18.01	
2025-01-11 09:43:25.30	135.99	18.03	
2025-01-11 09:43:25.51	135.98	18.06	
2025-01-11 09:43:25.71	135.96	18.08	
2025-01-11 09:43:25.92	135.95	18.11	
2025-01-11 09:43:26.12	135.94	18.13	
2025-01-11 09:43:26.33	135.92	18.16	
2025-01-11 09:43:26.53	135.91	18.18	
2025-01-11 09:43:26.74	135.90	18.20	
2025-01-11 09:43:26.94	135.89	18.23	
2025-01-11 09:43:27.15	135.87	18.25	
2025-01-11 09:43:27.35	135.86	18.28	
2025-01-11 09:43:27.56	135.84	18.30	
2025-01-11 09:43:27.76	135.83	18.32	
2025-01-11 09:43:27.97	135.82	18.35	
2025-01-11 09:43:28.18	135.80	18.37	
2025-01-11 09:43:28.38	135.79	18.40	
2025-01-11 09:43:28.59	135.78	18.42	
2025-01-11 09:43:28.79	135.76	18.45	
2025-01-11 09:43:29.00	135.75	18.47	
2025-01-11 09:43:29.20	135.74	18.49	
2025-01-11 09:43:29.41	135.72	18.52	
2025-01-11 09:43:29.61	135.71	18.54	
2025-01-11 09:43:29.82	135.70	18.57	
2025-01-11 09:43:30.02	135.68	18.59	
2025-01-11 09:43:30.23	135.67	18.62	
2025-01-11 09:43:30.44	135.66	18.64	
2025-01-11 09:43:30.64	135.64	18.67	
2025-01-11 09:43:30.85	135.63	18.69	
2025-01-11 09:43:31.06	135.61	18.72	
2025-01-11 09:43:31.27	135.60	18.74	
2025-01-11 09:43:31.47	135.59	18.77	
2025-01-11 09:43:31.68	135.57	18.79	
2025-01-11 09:43:31.89	135.56	18.82	
2025-01-11 09:43:32.09	135.54	18.84	
2025-01-11 09:43:32.30	135.53	18.87	
2025-01-11 09:43:32.50	135.52	18.89	
2025-01-11 09:43:32.71	135.50	18.92	
2025-01-11 09:43:32.91	135.49	18.94	
2025-01-11 09:43:33.12	135.47	18.96	
2025-01-11 09:43:33.32	135.46	18.99	
2025-01-11 09:43:33.52	135.45	19.01	
2025-01-11 09:43:33.73	135.43	19.04	
2025-01-11 09:43:33.93	135.42	19.06	
2025-01-11 09:43:34.14	135.40	19.09	
2025-01-11 09:43:34.34	135.39	19.11	
2025-01-11 09:43:34.55	135.38	19.14	
2025-01-11 09:43:34.75	135.36	19.16	
2025-01-11 09:43:34.96	135.35	19.19	
2025-01-11 09:43:35.16	135.33	19.21	
2025-01-11 09:43:35.37	135.32	19.24	
2025-01-11 09:43:35.57	135.31	19.26	
2025-01-11 09:43:35.78	135.29	19.29	
2025-01-11 09:43:35.99	135.28	19.31	
2025-01-11 09:43:36.19	135.26	19.34	
2025-01-11 09:43:36.40	135.25	19.36	
2025-01-11 09:43:36.60	135.23	19.39	
2025-01-11 09:43:36.81	135.22	19.42	
2025-01-11 09:43:37.01	135.21	19.44	
2025-01-11 09:43:37.22	135.19	19.47	
2025-01-11 09:43:37.42	135.18	19.49	
2025-01-11 09:43:37.63	135.16	19.52	
2025-01-11 09:43:37.83	135.15	19.54	
2025-01-11 09:43:38.04	135.13	19.57	
2025-01-11 09:43:38.24	135.12	19.59	
2025-01-11 09:43:38.45	135.10	19.62	
2025-01-11 09:43:38.65	135.09	19.64	
2025-01-11 09:43:38.86	135.07	19.67	
2025-01-11 09:43:39.06	135.06	19.69	
2025-01-11 09:43:39.27	135.05	19.72	
2025-01-11 09:43:39.47	135.03	19.74	
2025-01-11 09:43:39.67	135.02	19.77	
2025-01-11 09:43:39.88	135.00	19.80	
2025-01-11 09:43:40.09	134.99	19.82	
2025-01-11 09:43:40.29	134.97	19.85	
2025-01-11 09:43:40.50	134.96	19.87	
2025-01-11 09:43:40.70	134.94	19.90	
2025-01-11 09:43:40.91	134.93	19.92	
2025-01-11 09:43:41.11	134.91	19.95	
2025-01-11 09:43:41.32	134.90	19.98	
2025-01-11 09:43:41.52	134.88	20.00	
2025-01-11 09:43:41.72	134.87	20.03	
2025-01-11 09:43:41.93	134.85	20.05	
2025-01-11 09:43:42.13	134.84	20.08	
2025-01-11 09:43:42.34	134.82	20.10	
2025-01-11 09:43:42.54	134.81	20.13	
2025-01-11 09:43:42.75	134.79	20.16	
2025-01-11 09:43:42.95	134.78	20.18	
2025-01-11 09:43:43.16	134.76	20.21	
2025-01-11 09:43:43.36	134.75	20.23	
2025-01-11 09:43:43.57	134.73	20.26	
2025-01-11 09:43:43.78	134.72	20.29	
2025-01-11 09:43:43.98	134.70	20.31	
2025-01-11 09:43:44.19	134.68	20.34	
2025-01-11 09:43:44.39	134.67	20.36	
2025-01-11 09:43:44.60	134.65	20.39	
2025-01-11 09:43:44.80	134.64	20.42	
2025-01-11 09:43:45.02	134.62	20.45	
2025-01-11 09:43:45.23	134.61	20.47	
2025-01-11 09:43:45.43	134.59	20.50	
2025-01-11 09:43:45.64	134.58	20.52	
2025-01-11 09:43:45.84	134.56	20.55	
2025-01-11 09:43:46.05	134.54	20.58	
2025-01-11 09:43:46.25	134.53	20.60	
2025-01-11 09:43:46.46	134.51	20.63	
2025-01-11 09:43:46.67	134.50	20.66	
2025-01-11 09:43:46.87	134.48	20.68	
2025-01-11 09:43:47.08	134.47	20.71	
2025-01-11 09:43:47.28	134.45	20.74	
2025-01-11 09:43:47.49	134.43	20.76	
2025-01-11 09:43:47.70	134.42	20.79	
2025-01-11 09:43:47.90	134.40	20.82	
2025-01-11 09:43:48.10	134.39	20.84	
2025-01-11 09:43:48.31	134.37	20.87	
2025-01-11 09:43:48.52	134.36	20.90	
2025-01-11 09:43:48.72	134.34	20.92	
2025-01-11 09:43:48.93	134.32	20.95	
2025-01-11 09:43:49.13	134.31	20.98	
2025-01-11 09:43:49.34	134.29	21.00	
2025-01-11 09:43:49.54	134.28	21.03	
2025-01-11 09:43:49.75	134.26	21.06	
2025-01-11 09:43:49.96	134.24	21.08	
2025-01-11 09:43:50.16	134.23	21.11	
2025-01-11 09:43:50.37	134.21	21.14	
2025-01-11 09:43:50.57	134.19	21.16	
2025-01-11 09:43:50.78	134.18	21.19	
2025-01-11 09:43:50.98	134.16	21.22	
2025-01-11 09:43:51.19	134.15	21.25	
2025-01-11 09:43:51.39	134.13	21.27	
2025-01-11 09:43:51.60	134.11	21.30	
2025-01-11 09:43:51.80	134.10	21.33	
2025-01-11 09:43:52.01	134.08	21.35	
2025-01-11 09:43:52.21	134.06	21.38	
2025-01-11 09:43:52.43	134.05	21.41	
2025-01-11 09:43:52.64	134.03	21.44	
2025-01-11 09:43:52.84	134.01	21.46	
2025-01-11 09:43:53.05	134.00	21.49	
2025-01-11 09:43:53.25	133.98	21.52	
2025-01-11 09:43:53.46	133.96	21.55	
2025-01-11 09:43:53.66	133.95	21.57	
2025-01-11 09:43:53.87	133.93	21.60	
2025-01-11 09:43:54.07	133.91	21.63	
2025-01-11 09:43:54.28	133.90	21.66	
2025-01-11 09:43:54.48	133.88	21.68	
2025-01-11 09:43:54.68	133.86	21.71	
2025-01-11 09:43:54.89	133.85	21.74	
2025-01-11 09:43:55.10	133.83	21.77	
2025-01-11 09:43:55.30	133.81	21.79	
2025-01-11 09:43:55.51	133.80	21.82	
2025-01-11 09:43:55.71	133.78	21.85	
2025-01-11 09:43:55.92	133.76	21.88	
2025-01-11 09:43:56.12	133.75	21.90	
2025-01-11 09:43:56.33	133.73	21.93	
2025-01-11 09:43:56.53	133.71	21.96	
2025-01-11 09:43:56.74	133.69	21.99	
2025-01-11 09:43:56.94	133.68	22.01	
2025-01-11 09:43:57.15	133.66	22.04	
2025-01-11 09:43:57.35	133.64	22.07	
2025-01-11 09:43:57.56	133.62	22.10	
2025-01-11 09:43:57.76	133.61	22.12	
2025-01-11 09:43:57.97	133.59	22.15	
2025-01-11 09:43:58.18	133.57	22.18	
2025-01-11 09:43:58.38	133.56	22.21	
2025-01-11 09:43:58.59	133.54	22.24	
2025-01-11 09:43:58.79	133.52	22.26	
2025-01-11 09:43:59.00	133.50	22.29	
2025-01-11 09:43:59.21	133.49	22.32	
2025-01-11 09:43:59.41	133.47	22.35	
2025-01-11 09:43:59.62	133.45	22.38	
2025-01-11 09:43:59.82	133.43	22.41	
2025-01-11 09:44:00.02	133.42	22.43	
2025-01-11 09:44:00.23	133.40	22.46	
2025-01-11 09:44:00.43	133.38	22.49	
2025-01-11 09:44:00.64	133.36	22.52	
2025-01-11 09:44:00.85	133.34	22.55	
2025-01-11 09:44:01.05	133.33	22.57	
2025-01-11 09:44:01.25	133.31	22.60	
2025-01-11 09:44:01.46	133.29	22.63	
2025-01-11 09:44:01.66	133.27	22.66	
2025-01-11 09:44:01.87	133.26	22.69	
2025-01-11 09:44:02.07	133.24	22.72	
2025-01-11 09:44:02.28	133.22	22.75	
2025-01-11 09:44:02.48	133.20	22.77	
2025-01-11 09:44:02.69	133.18	22.80	
2025-01-11 09:44:02.90	133.16	22.83	
2025-01-11 09:44:03.10	133.15	22.86	
2025-01-11 09:44:03.30	133.13	22.89	
2025-01-11 09:44:03.51	133.11	22.92	
2025-01-11 09:44:03.71	133.09	22.94	
2025-01-11 09:44:03.92	133.07	22.97	
2025-01-11 09:44:04.12	133.06	23.00	
2025-01-11 09:44:04.32	133.04	23.03	
2025-01-11 09:44:04.53	133.02	23.06	
2025-01-11 09:44:04.74	133.00	23.09	
2025-01-11 09:44:04.94	132.98	23.12	
2025-01-11 09:44:05.15	132.96	23.15	
2025-01-11 09:44:05.35	132.95	23.17	
2025-01-11 09:44:05.56	132.93	23.20	
2025-01-11 09:44:05.77	132.91	23.23	
2025-01-11 09:44:05.98	132.89	23.26	
2025-01-11 09:44:06.18	132.87	23.29	
2025-01-11 09:44:06.38	132.85	23.32	
2025-01-11 09:44:06.59	132.83	23.35	
2025-01-11 09:44:06.80	132.81	23.38	
2025-01-11 09:44:07.00	132.80	23.41	
2025-01-11 09:44:07.21	132.78	23.44	
2025-01-11 09:44:07.41	132.76	23.47	
2025-01-11 09:44:07.62	132.74	23.50	
2025-01-11 09:44:07.82	132.72	23.52	
2025-01-11 09:44:08.03	132.70	23.55	
2025-01-11 09:44:08.23	132.68	23.58	
2025-01-11 09:44:08.44	132.66	23.61	
2025-01-11 09:44:08.64	132.64	23.64	
2025-01-11 09:44:08.85	132.63	23.67	
2025-01-11 09:44:09.06	132.61	23.70	
2025-01-11 09:44:09.26	132.59	23.73	
2025-01-11 09:44:09.47	132.57	23.76	
2025-01-11 09:44:09.67	132.55	23.79	
2025-01-11 09:44:09.88	132.53	23.82	
2025-01-11 09:44:10.08	132.51	23.85	
2025-01-11 09:44:10.29	132.49	23.88	
2025-01-11 09:44:10.49	132.47	23.91	
2025-01-11 09:44:10.70	132.45	23.94	
2025-01-11 09:44:10.90	132.43	23.97	
2025-01-11 09:44:11.11	132.41	24.00	
2025-01-11 09:44:11.31	132.39	24.03	
2025-01-11 09:44:11.52	132.37	24.06	
2025-01-11 09:44:11.72	132.35	24.09	
2025-01-11 09:44:11.93	132.33	24.12	
2025-01-11 09:44:12.13	132.31	24.15	
2025-01-11 09:44:12.34	132.29	24.18	
2025-01-11 09:44:12.55	132.27	24.21	
2025-01-11 09:44:12.75	132.25	24.24	
2025-01-11 09:44:12.96	132.23	24.27	
2025-01-11 09:44:13.16	132.21	24.30	
2025-01-11 09:44:13.37	132.19	24.33	
2025-01-11 09:44:13.57	132.17	24.36	
2025-01-11 09:44:13.78	132.15	24.39	
2025-01-11 09:44:13.98	132.13	24.42	
2025-01-11 09:44:14.19	132.11	24.45	
2025-01-11 09:44:14.39	132.09	24.48	
2025-01-11 09:44:14.60	132.07	24.51	
2025-01-11 09:44:14.80	132.05	24.54	
2025-01-11 09:44:15.01	132.03	24.57	
2025-01-11 09:44:15.22	132.01	24.60	
2025-01-11 09:44:15.42	131.99	24.63	
2025-01-11 09:44:15.63	131.97	24.66	
2025-01-11 09:44:15.83	131.95	24.69	
2025-01-11 09:44:16.03	131.93	24.72	
2025-01-11 09:44:16.24	131.91	24.75	
2025-01-11 09:44:16.44	131.89	24.78	
2025-01-11 09:44:16.65	131.87	24.81	
2025-01-11 09:44:16.86	131.85	24.84	
2025-01-11 09:44:17.06	131.83	24.87	
2025-01-11 09:44:17.26	131.81	24.90	
2025-01-11 09:44:17.47	131.79	24.94	
2025-01-11 09:44:17.68	131.77	24.97	
2025-01-11 09:44:17.88	131.75	25.00	
2025-01-11 09:44:18.10	131.72	25.03	
2025-01-11 09:44:18.30	131.70	25.06	
2025-01-11 09:44:18.51	131.68	25.09	
2025-01-11 09:44:18.71	131.66	25.12	
2025-01-11 09:44:18.92	131.64	25.15	
2025-01-11 09:44:19.14	131.62	25.19	
2025-01-11 09:44:19.34	131.60	25.22	
2025-01-11 09:44:19.55	131.57	25.25	
2025-01-11 09:44:19.75	131.55	25.28	
2025-01-11 09:44:19.96	131.53	25.31	
2025-01-11 09:44:20.17	131.51	25.34	
2025-01-11 09:44:20.38	131.49	25.37	
2025-01-11 09:44:20.58	131.47	25.40	
2025-01-11 09:44:20.79	131.45	25.44	
2025-01-11 09:44:20.99	131.42	25.47	
2025-01-11 09:44:21.20	131.40	25.50	
2025-01-11 09:44:21.40	131.38	25.53	
2025-01-11 09:44:21.61	131.36	25.56	
2025-01-11 09:44:21.81	131.34	25.59	
2025-01-11 09:44:22.02	131.32	25.62	
2025-01-11 09:44:22.22	131.29	25.65	
2025-01-11 09:44:22.43	131.27	25.69	
2025-01-11 09:44:22.63	131.25	25.72	
2025-01-11 09:44:22.84	131.23	25.75	
2025-01-11 09:44:23.04	131.21	25.78	
2025-01-11 09:44:23.25	131.18	25.81	
2025-01-11 09:44:23.45	131.16	25.84	
2025-01-11 09:44:23.66	131.14	25.88	
2025-01-11 09:44:23.86	131.12	25.91	
2025-01-11 09:44:24.07	131.10	25.94	
2025-01-11 09:44:24.27	131.08	25.97	
2025-01-11 09:44:24.48	131.05	26.00	
2025-01-11 09:44:24.68	131.03	26.03	
2025-01-11 09:44:24.89	131.01	26.07	
2025-01-11 09:44:25.09	130.99	26.10	
2025-01-11 09:44:25.30	130.96	26.13	
2025-01-11 09:44:25.52	130.94	26.16	
2025-01-11 09:44:25.72	130.92	26.20	
2025-01-11 09:44:25.93	130.89	26.23	
2025-01-11 09:44:26.13	130.87	26.26	
2025-01-11 09:44:26.34	130.85	26.29	
2025-01-11 09:44:26.54	130.83	26.32	
2025-01-11 09:44:26.75	130.80	26.36	
2025-01-11 09:44:26.96	130.78	26.39	
2025-01-11 09:44:27.16	130.76	26.42	
2025-01-11 09:44:27.37	130.73	26.45	
2025-01-11 09:44:27.59	130.71	26.49	
2025-01-11 09:44:27.79	130.69	26.52	
2025-01-11 09:44:28.00	130.66	26.55	
2025-01-11 09:44:28.20	130.64	26.59	
2025-01-11 09:44:28.41	130.62	26.62	
2025-01-11 09:44:28.61	130.59	26.65	
2025-01-11 09:44:28.82	130.57	26.68	
2025-01-11 09:44:29.02	130.55	26.72	
2025-01-11 09:44:29.23	130.52	26.75	
2025-01-11 09:44:29.43	130.50	26.78	
2025-01-11 09:44:29.64	130.48	26.81	
2025-01-11 09:44:29.84	130.45	26.85	
2025-01-11 09:44:30.05	130.43	26.88	
2025-01-11 09:44:30.26	130.41	26.91	
2025-01-11 09:44:30.46	130.38	26.94	
2025-01-11 09:44:30.67	130.36	26.98	
2025-01-11 09:44:30.88	130.33	27.01	
2025-01-11 09:44:31.09	130.31	27.05	
2025-01-11 09:44:31.29	130.29	27.08	
2025-01-11 09:44:31.50	130.26	27.11	
2025-01-11 09:44:31.70	130.24	27.14	
2025-01-11 09:44:31.91	130.21	27.18	
2025-01-11 09:44:32.11	130.19	27.21	
2025-01-11 09:44:32.32	130.17	27.24	
2025-01-11 09:44:32.52	130.14	27.28	
2025-01-11 09:44:32.73	130.12	27.31	
2025-01-11 09:44:32.93	130.09	27.34	
2025-01-11 09:44:33.14	130.07	27.38	
2025-01-11 09:44:33.34	130.05	27.41	
2025-01-11 09:44:33.55	130.02	27.44	
2025-01-11 09:44:33.75	130.00	27.47	
2025-01-11 09:44:33.97	129.97	27.51	
2025-01-11 09:44:34.18	129.95	27.54	
2025-01-11 09:44:34.38	129.92	27.58	
2025-01-11 09:44:34.59	129.90	27.61	
2025-01-11 09:44:34.79	129.87	27.64	
2025-01-11 09:44:35.00	129.85	27.68	
2025-01-11 09:44:35.20	129.82	27.71	
2025-01-11 09:44:35.41	129.80	27.75	
2025-01-11 09:44:35.61	129.77	27.78	
2025-01-11 09:44:35.82	129.75	27.81	
2025-01-11 09:44:36.02	129.72	27.85	
2025-01-11 09:44:36.23	129.70	27.88	
2025-01-11 09:44:36.43	129.67	27.91	
2025-01-11 09:44:36.64	129.65	27.95	
2025-01-11 09:44:36.85	129.62	27.98	
2025-01-11 09:44:37.05	129.60	28.02	
2025-01-11 09:44:37.25	129.57	28.05	
2025-01-11 09:44:37.46	129.55	28.08	
2025-01-11 09:44:37.67	129.52	28.12	
2025-01-11 09:44:37.87	129.50	28.15	
2025-01-11 09:44:38.08	129.47	28.19	
2025-01-11 09:44:38.28	129.44	28.22	
2025-01-11 09:44:38.48	129.42	28.25	
2025-01-11 09:44:38.69	129.39	28.29	
2025-01-11 09:44:38.89	129.37	28.32	
2025-01-11 09:44:39.10	129.34	28.36	
2025-01-11 09:44:39.30	129.32	28.39	
2025-01-11 09:44:39.51	129.29	28.42	
2025-01-11 09:44:39.71	129.26	28.46	
2025-01-11 09:44:39.92	129.24	28.49	
2025-01-11 09:44:40.12	129.21	28.53	
2025-01-11 09:44:40.33	129.18	28.56	
2025-01-11 09:44:40.53	129.16	28.60	
2025-01-11 09:44:40.74	129.13	28.63	
2025-01-11 09:44:40.94	129.11	28.66	
2025-01-11 09:44:41.15	129.08	28.70	
2025-01-11 09:44:41.35	129.05	28.73	
2025-01-11 09:44:41.56	129.03	28.77	
2025-01-11 09:44:41.76	129.00	28.80	
2025-01-11 09:44:41.97	128.97	28.84	
2025-01-11 09:44:42.17	128.95	28.87	
2025-01-11 09:44:42.38	128.92	28.91	
2025-01-11 09:44:42.60	128.89	28.95	
2025-01-11 09:44:42.80	128.86	28.98	
2025-01-11 09:44:43.01	128.84	29.02	
2025-01-11 09:44:43.22	128.81	29.05	
2025-01-11 09:44:43.42	128.78	29.08	
2025-01-11 09:44:43.63	128.76	29.12	
2025-01-11 09:44:43.83	128.73	29.15	
2025-01-11 09:44:44.04	128.70	29.19	
2025-01-11 09:44:44.24	128.67	29.23	
2025-01-11 09:44:44.45	128.65	29.26	
2025-01-11 09:44:44.67	128.62	29.30	
2025-01-11 09:44:44.87	128.59	29.33	
2025-01-11 09:44:45.08	128.56	29.37	
2025-01-11 09:44:45.29	128.53	29.41	
2025-01-11 09:44:45.49	128.51	29.44	
2025-01-11 09:44:45.70	128.48	29.48	
2025-01-11 09:44:45.90	128.45	29.51	
2025-01-11 09:44:46.11	128.42	29.55	
2025-01-11 09:44:46.31	128.40	29.58	
2025-01-11 09:44:46.52	128.37	29.62	
2025-01-11 09:44:46.72	128.34	29.65	
2025-01-11 09:44:46.93	128.31	29.69	
2025-01-11 09:44:47.14	128.28	29.73	
2025-01-11 09:44:47.34	128.25	29.76	
2025-01-11 09:44:47.55	128.22	29.80	
2025-01-11 09:44:47.75	128.20	29.83	
2025-01-11 09:44:47.96	128.17	29.87	
2025-01-11 09:44:48.16	128.14	29.90	
2025-01-11 09:44:48.37	128.11	29.94	
2025-01-11 09:44:48.57	128.08	29.97	
2025-01-11 09:44:48.78	128.05	30.01	
2025-01-11 09:44:48.98	128.03	30.05	
2025-01-11 09:44:49.19	128.00	30.08	
2025-01-11 09:44:49.40	127.97	30.12	
2025-01-11 09:44:49.60	127.94	30.16	
2025-01-11 09:44:49.81	127.91	30.19	
2025-01-11 09:44:50.01	127.88	30.23	
2025-01-11 09:44:50.22	127.85	30.27	
2025-01-11 09:44:50.42	127.82	30.30	
2025-01-11 09:44:50.63	127.79	30.34	
2025-01-11 09:44:50.84	127.76	30.37	
2025-01-11 09:44:51.04	127.73	30.41	
2025-01-11 09:44:51.24	127.70	30.45	
2025-01-11 09:44:51.45	127.67	30.48	
2025-01-11 09:44:51.66	127.64	30.52	
2025-01-11 09:44:51.86	127.61	30.56	
2025-01-11 09:44:52.07	127.58	30.59	
2025-01-11 09:44:52.27	127.56	30.63	
2025-01-11 09:44:52.48	127.52	30.67	
2025-01-11 09:44:52.68	127.50	30.70	
2025-01-11 09:44:52.89	127.46	30.74	
2025-01-11 09:44:53.09	127.44	30.78	
2025-01-11 09:44:53.30	127.40	30.81	
2025-01-11 09:44:53.50	127.37	30.85	
2025-01-11 09:44:53.71	127.34	30.89	
2025-01-11 09:44:53.91	127.31	30.92	
2025-01-11 09:44:54.12	127.28	30.96	
2025-01-11 09:44:54.32	127.25	31.00	
2025-01-11 09:44:54.53	127.22	31.03	
2025-01-11 09:44:54.73	127.19	31.07	
2025-01-11 09:44:54.94	127.16	31.11	
2025-01-11 09:44:55.14	127.13	31.14	
2025-01-11 09:44:55.35	127.10	31.18	
2025-01-11 09:44:55.55	127.07	31.22	
2025-01-11 09:44:55.75	127.04	31.25	
2025-01-11 09:44:55.96	127.01	31.29	
2025-01-11 09:44:56.16	126.98	31.33	
2025-01-11 09:44:56.37	126.94	31.37	
2025-01-11 09:44:56.57	126.91	31.40	
2025-01-11 09:44:56.78	126.88	31.44	
2025-01-11 09:44:56.98	126.85	31.48	
2025-01-11 09:44:57.18	126.82	31.52	
2025-01-11 09:44:57.39	126.79	31.55	
2025-01-11 09:44:57.59	126.76	31.59	
2025-01-11 09:44:57.80	126.72	31.63	
2025-01-11 09:44:58.00	126.69	31.67	
2025-01-11 09:44:58.21	126.66	31.70	
2025-01-11 09:44:58.41	126.63	31.74	
2025-01-11 09:44:58.62	126.60	31.78	
2025-01-11 09:44:58.82	126.56	31.82	
2025-01-11 09:44:59.03	126.53	31.85	
2025-01-11 09:44:59.23	126.50	31.89	
2025-01-11 09:44:59.44	126.47	31.93	
2025-01-11 09:44:59.64	126.44	31.97	
2025-01-11 09:44:59.85	126.40	32.01	
2025-01-11 09:45:00.05	126.37	32.04	
2025-01-11 09:45:00.26	126.34	32.08	
2025-01-11 09:45:00.47	126.30	32.12	
2025-01-11 09:45:00.68	126.27	32.16	
2025-01-11 09:45:00.89	126.24	32.20	
2025-01-11 09:45:01.10	126.20	32.24	
2025-01-11 09:45:01.30	126.17	32.28	
2025-01-11 09:45:01.51	126.14	32.31	
2025-01-11 09:45:01.71	126.10	32.35	
2025-01-11 09:45:01.92	126.07	32.39	
2025-01-11 09:45:02.13	126.04	32.43	
2025-01-11 09:45:02.33	126.00	32.47	
2025-01-11 09:45:02.54	125.97	32.51	
2025-01-11 09:45:02.74	125.94	32.54	
2025-01-11 09:45:02.95	125.90	32.58	
2025-01-11 09:45:03.15	125.87	32.62	
2025-01-11 09:45:03.36	125.83	32.66	
2025-01-11 09:45:03.56	125.80	32.70	
2025-01-11 09:45:03.77	125.77	32.74	
2025-01-11 09:45:03.97	125.73	32.78	
2025-01-11 09:45:04.18	125.70	32.82	
2025-01-11 09:45:04.39	125.66	32.86	
2025-01-11 09:45:04.59	125.63	32.89	
2025-01-11 09:45:04.80	125.59	32.93	
2025-01-11 09:45:05.00	125.56	32.97	
2025-01-11 09:45:05.21	125.52	33.01	
2025-01-11 09:45:05.41	125.49	33.05	
2025-01-11 09:45:05.62	125.45	33.09	
2025-01-11 09:45:05.82	125.42	33.13	
2025-01-11 09:45:06.02	125.39	33.17	
2025-01-11 09:45:06.23	125.35	33.21	
2025-01-11 09:45:06.44	125.31	33.25	
2025-01-11 09:45:06.64	125.28	33.28	
2025-01-11 09:45:06.85	125.24	33.32	
2025-01-11 09:45:07.05	125.21	33.36	
2025-01-11 09:45:07.26	125.17	33.40	
2025-01-11 09:45:07.46	125.14	33.44	
2025-01-11 09:45:07.67	125.10	33.48	
2025-01-11 09:45:07.87	125.07	33.52	
2025-01-11 09:45:08.08	125.03	33.56	
2025-01-11 09:45:08.29	124.99	33.60	
2025-01-11 09:45:08.49	124.96	33.64	
2025-01-11 09:45:08.70	124.92	33.68	
2025-01-11 09:45:08.90	124.89	33.72	
2025-01-11 09:45:09.11	124.85	33.76	
2025-01-11 09:45:09.31	124.81	33.80	
2025-01-11 09:45:09.52	124.78	33.84	
2025-01-11 09:45:09.72	124.74	33.88	
2025-01-11 09:45:09.93	124.70	33.92	
2025-01-11 09:45:10.14	124.66	33.96	
2025-01-11 09:45:10.35	124.63	34.00	
2025-01-11 09:45:10.56	124.59	34.04	
2025-01-11 09:45:10.76	124.55	34.08	
2025-01-11 09:45:10.97	124.52	34.12	
2025-01-11 09:45:11.18	124.48	34.16	
2025-01-11 09:45:11.38	124.44	34.20	
2025-01-11 09:45:11.58	124.40	34.24	
2025-01-11 09:45:11.79	124.37	34.28	
2025-01-11 09:45:12.00	124.33	34.32	
2025-01-11 09:45:12.20	124.29	34.36	
2025-01-11 09:45:12.40	124.25	34.40	
2025-01-11 09:45:12.61	124.22	34.44	
2025-01-11 09:45:12.82	124.18	34.48	
2025-01-11 09:45:13.02	124.14	34.52	
2025-01-11 09:45:13.23	124.10	34.56	
2025-01-11 09:45:13.43	124.06	34.60	
2025-01-11 09:45:13.64	124.02	34.64	
2025-01-11 09:45:13.84	123.99	34.68	
2025-01-11 09:45:14.05	123.95	34.73	
2025-01-11 09:45:14.25	123.91	34.76	
2025-01-11 09:45:14.46	123.87	34.81	
2025-01-11 09:45:14.66	123.83	34.85	
2025-01-11 09:45:14.86	123.79	34.89	
2025-01-11 09:45:15.07	123.75	34.93	
2025-01-11 09:45:15.27	123.72	34.97	
2025-01-11 09:45:15.48	123.68	35.01	
2025-01-11 09:45:15.70	123.63	35.05	
2025-01-11 09:45:15.90	123.59	35.09	
2025-01-11 09:45:16.11	123.55	35.13	
2025-01-11 09:45:16.32	123.51	35.18	
2025-01-11 09:45:16.52	123.47	35.22	
2025-01-11 09:45:16.73	123.43	35.26	
2025-01-11 09:45:16.93	123.39	35.30	
2025-01-11 09:45:17.14	123.35	35.34	
2025-01-11 09:45:17.34	123.31	35.38	
2025-01-11 09:45:17.54	123.28	35.42	
2025-01-11 09:45:17.75	123.23	35.46	
2025-01-11 09:45:17.95	123.19	35.50	
2025-01-11 09:45:18.16	123.15	35.55	
2025-01-11 09:45:18.36	123.11	35.59	
2025-01-11 09:45:18.57	123.07	35.63	
2025-01-11 09:45:18.77	123.03	35.67	
2025-01-11 09:45:18.98	122.99	35.71	
2025-01-11 09:45:19.18	122.95	35.75	
2025-01-11 09:45:19.39	122.91	35.79	
2025-01-11 09:45:19.60	122.87	35.84	
2025-01-11 09:45:19.80	122.83	35.88	
2025-01-11 09:45:20.00	122.78	35.92	
2025-01-11 09:45:20.21	122.74	35.96	
2025-01-11 09:45:20.41	122.70	36.00	
2025-01-11 09:45:20.62	122.66	36.04	
2025-01-11 09:45:20.83	122.62	36.09	
2025-01-11 09:45:21.03	122.57	36.13	
2025-01-11 09:45:21.24	122.53	36.17	
2025-01-11 09:45:21.44	122.49	36.21	
2025-01-11 09:45:21.65	122.45	36.25	
2025-01-11 09:45:21.85	122.41	36.30	
2025-01-11 09:45:22.06	122.36	36.34	
2025-01-11 09:45:22.26	122.32	36.38	
2025-01-11 09:45:22.47	122.28	36.42	
2025-01-11 09:45:22.67	122.23	36.46	
2025-01-11 09:45:22.88	122.19	36.51	
2025-01-11 09:45:23.08	122.15	36.55	
2025-01-11 09:45:23.29	122.10	36.59	
2025-01-11 09:45:23.50	122.06	36.63	
2025-01-11 09:45:23.70	122.02	36.68	
2025-01-11 09:45:23.91	121.97	36.72	
2025-01-11 09:45:24.11	121.93	36.76	
2025-01-11 09:45:24.32	121.89	36.80	
2025-01-11 09:45:24.52	121.84	36.85	
2025-01-11 09:45:24.73	121.80	36.89	
2025-01-11 09:45:24.94	121.75	36.93	
2025-01-11 09:45:25.14	121.71	36.97	
2025-01-11 09:45:25.34	121.67	37.02	
2025-01-11 09:45:25.55	121.62	37.06	
2025-01-11 09:45:25.75	121.58	37.10	
2025-01-11 09:45:25.96	121.53	37.14	
2025-01-11 09:45:26.17	121.48	37.19	
2025-01-11 09:45:26.37	121.44	37.23	
2025-01-11 09:45:26.58	121.39	37.27	
2025-01-11 09:45:26.78	121.35	37.32	
2025-01-11 09:45:26.99	121.30	37.36	
2025-01-11 09:45:27.19	121.26	37.40	
2025-01-11 09:45:27.40	121.21	37.44	
2025-01-11 09:45:27.60	121.17	37.49	
2025-01-11 09:45:27.81	121.12	37.53	
2025-01-11 09:45:28.01	121.08	37.57	
2025-01-11 09:45:28.22	121.03	37.62	
2025-01-11 09:45:28.42	120.98	37.66	
2025-01-11 09:45:28.63	120.94	37.70	
2025-01-11 09:45:28.83	120.89	37.75	
2025-01-11 09:45:29.04	120.84	37.79	
2025-01-11 09:45:29.25	120.80	37.83	
2025-01-11 09:45:29.45	120.75	37.88	
2025-01-11 09:45:29.65	120.70	37.92	
2025-01-11 09:45:29.86	120.66	37.96	
2025-01-11 09:45:30.07	120.61	38.01	
2025-01-11 09:45:30.27	120.56	38.05	
2025-01-11 09:45:30.48	120.51	38.09	
2025-01-11 09:45:30.68	120.47	38.14	
2025-01-11 09:45:30.88	120.42	38.18	
2025-01-11 09:45:31.09	120.37	38.22	
2025-01-11 09:45:31.29	120.32	38.27	
2025-01-11 09:45:31.50	120.27	38.31	
2025-01-11 09:45:31.72	120.22	38.36	
2025-01-11 09:45:31.92	120.18	38.40	
2025-01-11 09:45:32.13	120.13	38.44	
2025-01-11 09:45:32.33	120.08	38.49	
2025-01-11 09:45:32.54	120.03	38.53	
2025-01-11 09:45:32.76	119.98	38.58	
2025-01-11 09:45:32.96	119.93	38.62	
2025-01-11 09:45:33.17	119.88	38.67	
2025-01-11 09:45:33.37	119.83	38.71	
2025-01-11 09:45:33.58	119.78	38.75	
2025-01-11 09:45:33.80	119.73	38.80	
2025-01-11 09:45:34.00	119.68	38.84	
2025-01-11 09:45:34.21	119.63	38.89	
2025-01-11 09:45:34.42	119.58	38.93	
2025-01-11 09:45:34.62	119.53	38.98	
2025-01-11 09:45:34.84	119.47	39.02	
2025-01-11 09:45:35.04	119.42	39.07	
2025-01-11 09:45:35.25	119.37	39.11	
2025-01-11 09:45:35.45	119.32	39.16	
2025-01-11 09:45:35.66	119.27	39.20	
2025-01-11 09:45:35.86	119.22	39.24	
2025-01-11 09:45:36.07	119.17	39.29	
2025-01-11 09:45:36.28	119.12	39.34	
2025-01-11 09:45:36.48	119.07	39.38	
2025-01-11 09:45:36.69	119.01	39.42	
2025-01-11 09:45:36.89	118.96	39.47	
2025-01-11 09:45:37.10	118.91	39.51	
2025-01-11 09:45:37.30	118.86	39.56	
2025-01-11 09:45:37.51	118.80	39.60	
2025-01-11 09:45:37.71	118.75	39.65	
2025-01-11 09:45:37.91	118.70	39.69	
2025-01-11 09:45:38.12	118.65	39.73	
2025-01-11 09:45:38.33	118.60	39.78	
2025-01-11 09:45:38.53	118.54	39.82	
2025-01-11 09:45:38.74	118.49	39.87	
2025-01-11 09:45:38.95	118.43	39.92	
2025-01-11 09:45:39.16	118.38	39.96	
2025-01-11 09:45:39.37	118.33	40.01	
2025-01-11 09:45:39.57	118.27	40.05	
2025-01-11 09:45:39.78	118.22	40.10	
2025-01-11 09:45:39.98	118.17	40.14	
2025-01-11 09:45:40.19	118.11	40.19	
2025-01-11 09:45:40.39	118.06	40.23	
2025-01-11 09:45:40.60	118.00	40.28	
2025-01-11 09:45:40.81	117.95	40.32	
2025-01-11 09:45:41.01	117.89	40.37	
2025-01-11 09:45:41.23	117.83	40.41	
2025-01-11 09:45:41.44	117.78	40.46	
2025-01-11 09:45:41.64	117.72	40.50	
2025-01-11 09:45:41.85	117.67	40.55	
2025-01-11 09:45:42.05	117.61	40.59	
2025-01-11 09:45:42.25	117.56	40.64	
2025-01-11 09:45:42.46	117.50	40.68	
2025-01-11 09:45:42.66	117.45	40.73	
2025-01-11 09:45:42.87	117.39	40.78	
2025-01-11 09:45:43.07	117.33	40.82	
2025-01-11 09:45:43.28	117.28	40.87	
2025-01-11 09:45:43.48	117.22	40.91	
2025-01-11 09:45:43.69	117.16	40.96	
2025-01-11 09:45:43.89	117.11	41.00	
2025-01-11 09:45:44.10	117.05	41.05	
2025-01-11 09:45:44.31	116.99	41.09	
2025-01-11 09:45:44.51	116.94	41.14	
2025-01-11 09:45:44.72	116.88	41.18	
2025-01-11 09:45:44.92	116.82	41.23	
2025-01-11 09:45:45.13	116.76	41.28	
2025-01-11 09:45:45.33	116.70	41.32	
2025-01-11 09:45:45.55	116.64	41.37	
2025-01-11 09:45:45.76	116.58	41.42	
2025-01-11 09:45:45.96	116.53	41.46	
2025-01-11 09:45:46.17	116.47	41.51	
2025-01-11 09:45:46.38	116.40	41.55	
2025-01-11 09:45:46.59	116.34	41.60	
2025-01-11 09:45:46.80	116.28	41.65	
2025-01-11 09:45:47.00	116.23	41.69	
2025-01-11 09:45:47.21	116.17	41.74	
2025-01-11 09:45:47.42	116.10	41.78	
2025-01-11 09:45:47.64	116.04	41.83	
2025-01-11 09:45:47.84	115.98	41.88	
2025-01-11 09:45:48.05	115.92	41.93	
2025-01-11 09:45:48.25	115.86	41.97	
2025-01-11 09:45:48.46	115.80	42.02	
2025-01-11 09:45:48.66	115.74	42.06	
2025-01-11 09:45:48.87	115.68	42.11	
2025-01-11 09:45:49.07	115.62	42.15	
2025-01-11 09:45:49.28	115.55	42.20	
2025-01-11 09:45:49.48	115.49	42.25	
2025-01-11 09:45:49.69	115.43	42.29	
2025-01-11 09:45:49.89	115.37	42.34	
2025-01-11 09:45:50.10	115.31	42.38	
2025-01-11 09:45:50.30	115.25	42.43	
2025-01-11 09:45:50.51	115.18	42.48	
2025-01-11 09:45:50.71	115.12	42.52	
2025-01-11 09:45:50.92	115.06	42.57	
2025-01-11 09:45:51.13	114.99	42.62	
2025-01-11 09:45:51.34	114.93	42.66	
2025-01-11 09:45:51.54	114.87	42.71	
2025-01-11 09:45:51.75	114.80	42.76	
2025-01-11 09:45:51.97	114.73	42.81	
2025-01-11 09:45:52.17	114.67	42.85	
2025-01-11 09:45:52.38	114.61	42.90	
2025-01-11 09:45:52.58	114.54	42.94	
2025-01-11 09:45:52.79	114.48	42.99	
2025-01-11 09:45:53.00	114.41	43.04	
2025-01-11 09:45:53.21	114.35	43.08	
2025-01-11 09:45:53.42	114.28	43.13	
2025-01-11 09:45:53.62	114.22	43.18	
2025-01-11 09:45:53.83	114.15	43.22	
2025-01-11 09:45:54.03	114.08	43.27	
2025-01-11 09:45:54.24	114.02	43.32	
2025-01-11 09:45:54.44	113.95	43.36	
2025-01-11 09:45:54.65	113.88	43.41	
2025-01-11 09:45:54.85	113.82	43.46	
2025-01-11 09:45:55.06	113.75	43.50	
2025-01-11 09:45:55.26	113.69	43.55	
2025-01-11 09:45:55.47	113.62	43.60	
2025-01-11 09:45:55.67	113.55	43.64	
2025-01-11 09:45:55.88	113.48	43.69	
2025-01-11 09:45:56.08	113.42	43.73	
2025-01-11 09:45:56.28	113.35	43.78	
2025-01-11 09:45:56.49	113.28	43.83	
2025-01-11 09:45:56.69	113.22	43.87	
2025-01-11 09:45:56.90	113.15	43.92	
2025-01-11 09:45:57.11	113.08	43.97	
2025-01-11 09:45:57.31	113.01	44.01	
2025-01-11 09:45:57.52	112.94	44.06	
2025-01-11 09:45:57.72	112.87	44.11	
2025-01-11 09:45:57.93	112.80	44.15	
2025-01-11 09:45:58.13	112.73	44.20	
2025-01-11 09:45:58.35	112.66	44.25	
2025-01-11 09:45:58.56	112.59	44.30	
2025-01-11 09:45:58.76	112.52	44.34	
2025-01-11 09:45:58.97	112.45	44.39	
2025-01-11 09:45:59.18	112.37	44.44	
2025-01-11 09:45:59.38	112.31	44.48	
2025-01-11 09:45:59.58	112.24	44.53	
2025-01-11 09:45:59.79	112.16	44.58	
2025-01-11 09:45:59.99	112.09	44.62	
2025-01-11 09:46:00.20	112.02	44.67	
2025-01-11 09:46:00.40	111.95	44.71	
2025-01-11 09:46:00.61	111.88	44.76	
2025-01-11 09:46:00.81	111.81	44.81	
2025-01-11 09:46:01.02	111.73	44.86	
2025-01-11 09:46:01.23	111.66	44.90	
2025-01-11 09:46:01.43	111.59	44.95	
2025-01-11 09:46:01.63	111.52	44.99	
2025-01-11 09:46:01.84	111.44	45.04	
2025-01-11 09:46:02.04	111.37	45.09	
2025-01-11 09:46:02.25	111.29	45.14	
2025-01-11 09:46:02.45	111.22	45.18	
2025-01-11 09:46:02.66	111.15	45.23	
2025-01-11 09:46:02.87	111.07	45.28	
2025-01-11 09:46:03.07	111.00	45.32	
2025-01-11 09:46:03.28	110.92	45.37	
2025-01-11 09:46:03.48	110.85	45.42	
2025-01-11 09:46:03.69	110.77	45.46	
2025-01-11 09:46:03.90	110.69	45.51	
2025-01-11 09:46:04.11	110.61	45.56	
2025-01-11 09:46:04.31	110.54	45.60	
2025-01-11 09:46:04.52	110.46	45.65	
2025-01-11 09:46:04.72	110.39	45.70	
2025-01-11 09:46:04.93	110.31	45.74	
2025-01-11 09:46:05.13	110.23	45.79	
2025-01-11 09:46:05.34	110.16	45.84	
2025-01-11 09:46:05.56	110.07	45.89	
2025-01-11 09:46:05.76	110.00	45.93	
2025-01-11 09:46:05.96	109.92	45.98	
2025-01-11 09:46:06.17	109.84	46.03	
2025-01-11 09:46:06.37	109.77	46.07	
2025-01-11 09:46:06.58	109.68	46.12	
2025-01-11 09:46:06.78	109.61	46.17	
2025-01-11 09:46:06.99	109.53	46.21	
2025-01-11 09:46:07.20	109.45	46.26	
2025-01-11 09:46:07.40	109.37	46.31	
2025-01-11 09:46:07.61	109.29	46.35	
2025-01-11 09:46:07.81	109.21	46.40	
2025-01-11 09:46:08.01	109.13	46.44	
2025-01-11 09:46:08.22	109.05	46.49	
2025-01-11 09:46:08.43	108.97	46.54	
2025-01-11 09:46:08.63	108.89	46.59	
2025-01-11 09:46:08.84	108.80	46.63	
2025-01-11 09:46:09.04	108.73	46.68	
2025-01-11 09:46:09.25	108.64	46.73	
2025-01-11 09:46:09.46	108.56	46.77	
2025-01-11 09:46:09.66	108.48	46.82	
2025-01-11 09:46:09.87	108.39	46.87	
2025-01-11 09:46:10.07	108.31	46.91	
2025-01-11 09:46:10.28	108.23	46.96	
2025-01-11 09:46:10.48	108.15	47.00	
2025-01-11 09:46:10.69	108.06	47.05	
2025-01-11 09:46:10.90	107.98	47.10	
2025-01-11 09:46:11.10	107.89	47.14	
2025-01-11 09:46:11.30	107.81	47.19	
2025-01-11 09:46:11.51	107.73	47.24	
2025-01-11 09:46:11.72	107.64	47.28	
2025-01-11 09:46:11.92	107.56	47.33	
2025-01-11 09:46:12.13	107.47	47.38	
2025-01-11 09:46:12.33	107.39	47.42	
2025-01-11 09:46:12.54	107.30	47.47	
2025-01-11 09:46:12.74	107.22	47.51	
2025-01-11 09:46:12.95	107.13	47.56	
2025-01-11 09:46:13.15	107.04	47.61	
2025-01-11 09:46:13.36	106.95	47.65	
2025-01-11 09:46:13.56	106.87	47.70	
2025-01-11 09:46:13.77	106.78	47.75	
2025-01-11 09:46:13.98	106.69	47.79	
2025-01-11 09:46:14.18	106.61	47.84	
2025-01-11 09:46:14.40	106.51	47.89	
2025-01-11 09:46:14.61	106.42	47.93	
2025-01-11 09:46:14.81	106.33	47.98	
2025-01-11 09:46:15.02	106.24	48.03	
2025-01-11 09:46:15.22	106.16	48.07	
2025-01-11 09:46:15.43	106.07	48.12	
2025-01-11 09:46:15.63	105.98	48.16	
2025-01-11 09:46:15.84	105.89	48.21	
2025-01-11 09:46:16.04	105.80	48.25	
2025-01-11 09:46:16.25	105.71	48.30	
2025-01-11 09:46:16.45	105.62	48.35	
2025-01-11 09:46:16.66	105.52	48.39	
2025-01-11 09:46:16.86	105.44	48.44	
2025-01-11 09:46:17.07	105.34	48.48	
2025-01-11 09:46:17.27	105.25	48.53	
2025-01-11 09:46:17.49	105.15	48.58	
2025-01-11 09:46:17.69	105.06	48.62	
2025-01-11 09:46:17.90	104.97	48.67	
2025-01-11 09:46:18.10	104.88	48.71	
2025-01-11 09:46:18.31	104.78	48.76	
2025-01-11 09:46:18.51	104.69	48.80	
2025-01-11 09:46:18.72	104.60	48.85	
2025-01-11 09:46:18.92	104.51	48.89	
2025-01-11 09:46:19.13	104.41	48.94	
2025-01-11 09:46:19.34	104.31	48.99	
2025-01-11 09:46:19.54	104.22	49.03	
2025-01-11 09:46:19.75	104.12	49.08	
2025-01-11 09:46:19.95	104.03	49.12	
2025-01-11 09:46:20.16	103.93	49.17	
2025-01-11 09:46:20.36	103.84	49.21	
2025-01-11 09:46:20.57	103.74	49.26	
2025-01-11 09:46:20.77	103.65	49.30	
2025-01-11 09:46:20.98	103.55	49.35	
2025-01-11 09:46:21.19	103.45	49.39	
2025-01-11 09:46:21.39	103.35	49.44	
