passes_logs/2025/01/11/SPB_Silybum_02/SPB_Silybum_02__20250111_112127_SUOMI_NPP_rec.log

#Pass ID: 20250111_112127_SUOMI NPP
#Satellite: SUOMI NPP
#Configuration: NPP
#Start time: 2025-01-11 11:21:26

#Version: 2.0.20230423
#Station: SPB_Silybum_02
#Location: 30.233357 lon 59.946436 lat
#TLE: 1 37849U 11061A   25010.83173011  .00000170  00000+0  10148-3 0  9996
#TLE: 2 37849  98.7441 311.8732 0001811  47.3940 312.7388 14.19536379684322

#Time	Az	El	Level	Level2	SNR	BER	Gain	Gain2
2025-01-11 11:21:28.77	191.50	4.08	
2025-01-11 11:21:28.98	191.51	4.09	
2025-01-11 11:21:29.18	191.52	4.10	
2025-01-11 11:21:29.39	191.54	4.12	
2025-01-11 11:21:29.59	191.55	4.13	
2025-01-11 11:21:29.80	191.56	4.14	
2025-01-11 11:21:30.00	191.57	4.16	
2025-01-11 11:21:30.21	191.58	4.17	
2025-01-11 11:21:30.41	191.59	4.18	
2025-01-11 11:21:30.62	191.60	4.20	
2025-01-11 11:21:30.82	191.61	4.21	
2025-01-11 11:21:31.03	191.62	4.22	
2025-01-11 11:21:31.24	191.63	4.24	
2025-01-11 11:21:31.44	191.65	4.25	
2025-01-11 11:21:31.65	191.66	4.26	
2025-01-11 11:21:31.85	191.67	4.28	
2025-01-11 11:21:32.06	191.68	4.29	
2025-01-11 11:21:32.26	191.69	4.30	
2025-01-11 11:21:32.47	191.70	4.32	
2025-01-11 11:21:32.67	191.71	4.33	
2025-01-11 11:21:32.87	191.72	4.34	
2025-01-11 11:21:33.08	191.73	4.36	
2025-01-11 11:21:33.29	191.74	4.37	
2025-01-11 11:21:33.49	191.76	4.38	
2025-01-11 11:21:33.70	191.77	4.40	
2025-01-11 11:21:33.90	191.78	4.41	
2025-01-11 11:21:34.11	191.79	4.42	
2025-01-11 11:21:34.31	191.80	4.44	
2025-01-11 11:21:34.52	191.81	4.45	
2025-01-11 11:21:34.72	191.82	4.46	
2025-01-11 11:21:34.92	191.83	4.48	
2025-01-11 11:21:35.13	191.84	4.49	
2025-01-11 11:21:35.33	191.86	4.50	
2025-01-11 11:21:35.54	191.87	4.52	
2025-01-11 11:21:35.74	191.88	4.53	
2025-01-11 11:21:35.95	191.89	4.54	
2025-01-11 11:21:36.17	191.90	4.56	
2025-01-11 11:21:36.37	191.91	4.57	
2025-01-11 11:21:36.58	191.92	4.59	
2025-01-11 11:21:36.78	191.94	4.60	
2025-01-11 11:21:36.99	191.95	4.61	
2025-01-11 11:21:37.19	191.96	4.63	
2025-01-11 11:21:37.40	191.97	4.64	
2025-01-11 11:21:37.60	191.98	4.65	
2025-01-11 11:21:37.81	191.99	4.67	
2025-01-11 11:21:38.01	192.00	4.68	
2025-01-11 11:21:38.22	192.01	4.69	
2025-01-11 11:21:38.42	192.03	4.71	
2025-01-11 11:21:38.63	192.04	4.72	
2025-01-11 11:21:38.83	192.05	4.73	
2025-01-11 11:21:39.04	192.06	4.75	
2025-01-11 11:21:39.24	192.07	4.76	
2025-01-11 11:21:39.45	192.08	4.77	
2025-01-11 11:21:39.65	192.09	4.79	
2025-01-11 11:21:39.86	192.11	4.80	
2025-01-11 11:21:40.07	192.12	4.82	
2025-01-11 11:21:40.27	192.13	4.83	
2025-01-11 11:21:40.49	192.14	4.84	
2025-01-11 11:21:40.69	192.15	4.86	
2025-01-11 11:21:40.90	192.16	4.87	
2025-01-11 11:21:41.11	192.18	4.88	
2025-01-11 11:21:41.31	192.19	4.90	
2025-01-11 11:21:41.52	192.20	4.91	
2025-01-11 11:21:41.73	192.21	4.93	
2025-01-11 11:21:41.94	192.22	4.94	
2025-01-11 11:21:42.14	192.23	4.95	
2025-01-11 11:21:42.35	192.25	4.97	
2025-01-11 11:21:42.55	192.26	4.98	
2025-01-11 11:21:42.76	192.27	4.99	
2025-01-11 11:21:42.96	192.28	5.01	
2025-01-11 11:21:43.17	192.29	5.02	
2025-01-11 11:21:43.37	192.30	5.04	
2025-01-11 11:21:43.58	192.31	5.05	
2025-01-11 11:21:43.78	192.33	5.06	
2025-01-11 11:21:43.99	192.34	5.08	
2025-01-11 11:21:44.19	192.35	5.09	
2025-01-11 11:21:44.40	192.36	5.10	
2025-01-11 11:21:44.60	192.37	5.12	
2025-01-11 11:21:44.81	192.38	5.13	
2025-01-11 11:21:45.01	192.40	5.15	
2025-01-11 11:21:45.22	192.41	5.16	
2025-01-11 11:21:45.42	192.42	5.17	
2025-01-11 11:21:45.63	192.43	5.19	
2025-01-11 11:21:45.83	192.44	5.20	
2025-01-11 11:21:46.04	192.45	5.21	
2025-01-11 11:21:46.24	192.47	5.23	
2025-01-11 11:21:46.45	192.48	5.24	
2025-01-11 11:21:46.65	192.49	5.26	
2025-01-11 11:21:46.86	192.50	5.27	
2025-01-11 11:21:47.06	192.51	5.28	
2025-01-11 11:21:47.27	192.52	5.30	
2025-01-11 11:21:47.47	192.54	5.31	
2025-01-11 11:21:47.68	192.55	5.32	
2025-01-11 11:21:47.88	192.56	5.34	
2025-01-11 11:21:48.09	192.57	5.35	
2025-01-11 11:21:48.29	192.58	5.37	
2025-01-11 11:21:48.50	192.60	5.38	
2025-01-11 11:21:48.71	192.61	5.39	
2025-01-11 11:21:48.91	192.62	5.41	
2025-01-11 11:21:49.11	192.63	5.42	
2025-01-11 11:21:49.32	192.64	5.44	
2025-01-11 11:21:49.52	192.65	5.45	
2025-01-11 11:21:49.73	192.67	5.46	
2025-01-11 11:21:49.93	192.68	5.48	
2025-01-11 11:21:50.14	192.69	5.49	
2025-01-11 11:21:50.34	192.70	5.50	
2025-01-11 11:21:50.55	192.71	5.52	
2025-01-11 11:21:50.76	192.73	5.53	
2025-01-11 11:21:50.96	192.74	5.55	
2025-01-11 11:21:51.16	192.75	5.56	
2025-01-11 11:21:51.37	192.76	5.57	
2025-01-11 11:21:51.58	192.78	5.59	
2025-01-11 11:21:51.78	192.79	5.60	
2025-01-11 11:21:51.99	192.80	5.62	
2025-01-11 11:21:52.19	192.81	5.63	
2025-01-11 11:21:52.39	192.82	5.64	
2025-01-11 11:21:52.60	192.83	5.66	
2025-01-11 11:21:52.81	192.85	5.67	
2025-01-11 11:21:53.01	192.86	5.69	
2025-01-11 11:21:53.22	192.87	5.70	
2025-01-11 11:21:53.42	192.88	5.71	
2025-01-11 11:21:53.63	192.90	5.73	
2025-01-11 11:21:53.83	192.91	5.74	
2025-01-11 11:21:54.04	192.92	5.76	
2025-01-11 11:21:54.26	192.93	5.77	
2025-01-11 11:21:54.46	192.94	5.79	
2025-01-11 11:21:54.67	192.96	5.80	
2025-01-11 11:21:54.87	192.97	5.81	
2025-01-11 11:21:55.08	192.98	5.83	
2025-01-11 11:21:55.28	192.99	5.84	
2025-01-11 11:21:55.48	193.01	5.86	
2025-01-11 11:21:55.69	193.02	5.87	
2025-01-11 11:21:55.90	193.03	5.88	
2025-01-11 11:21:56.10	193.04	5.90	
2025-01-11 11:21:56.31	193.06	5.91	
2025-01-11 11:21:56.51	193.07	5.93	
2025-01-11 11:21:56.72	193.08	5.94	
2025-01-11 11:21:56.92	193.09	5.95	
2025-01-11 11:21:57.13	193.10	5.97	
2025-01-11 11:21:57.33	193.12	5.98	
2025-01-11 11:21:57.53	193.13	6.00	
2025-01-11 11:21:57.74	193.14	6.01	
2025-01-11 11:21:57.94	193.15	6.02	
2025-01-11 11:21:58.15	193.17	6.04	
2025-01-11 11:21:58.35	193.18	6.05	
2025-01-11 11:21:58.56	193.19	6.07	
2025-01-11 11:21:58.76	193.20	6.08	
2025-01-11 11:21:58.97	193.22	6.10	
2025-01-11 11:21:59.17	193.23	6.11	
2025-01-11 11:21:59.38	193.24	6.12	
2025-01-11 11:21:59.60	193.25	6.14	
2025-01-11 11:21:59.80	193.27	6.15	
2025-01-11 11:22:00.01	193.28	6.17	
2025-01-11 11:22:00.21	193.29	6.18	
2025-01-11 11:22:00.42	193.30	6.20	
2025-01-11 11:22:00.62	193.32	6.21	
2025-01-11 11:22:00.83	193.33	6.22	
2025-01-11 11:22:01.03	193.34	6.24	
2025-01-11 11:22:01.24	193.35	6.25	
2025-01-11 11:22:01.44	193.37	6.27	
2025-01-11 11:22:01.65	193.38	6.28	
2025-01-11 11:22:01.85	193.39	6.30	
2025-01-11 11:22:02.06	193.40	6.31	
2025-01-11 11:22:02.26	193.42	6.32	
2025-01-11 11:22:02.47	193.43	6.34	
2025-01-11 11:22:02.67	193.44	6.35	
2025-01-11 11:22:02.88	193.45	6.37	
2025-01-11 11:22:03.08	193.47	6.38	
2025-01-11 11:22:03.29	193.48	6.40	
2025-01-11 11:22:03.49	193.49	6.41	
2025-01-11 11:22:03.70	193.50	6.42	
2025-01-11 11:22:03.90	193.52	6.44	
2025-01-11 11:22:04.11	193.53	6.45	
2025-01-11 11:22:04.31	193.54	6.47	
2025-01-11 11:22:04.52	193.56	6.48	
2025-01-11 11:22:04.72	193.57	6.50	
2025-01-11 11:22:04.93	193.58	6.51	
2025-01-11 11:22:05.13	193.59	6.52	
2025-01-11 11:22:05.34	193.61	6.54	
2025-01-11 11:22:05.54	193.62	6.55	
2025-01-11 11:22:05.75	193.63	6.57	
2025-01-11 11:22:05.95	193.64	6.58	
2025-01-11 11:22:06.15	193.66	6.60	
2025-01-11 11:22:06.36	193.67	6.61	
2025-01-11 11:22:06.56	193.68	6.63	
2025-01-11 11:22:06.77	193.70	6.64	
2025-01-11 11:22:06.97	193.71	6.65	
2025-01-11 11:22:07.18	193.72	6.67	
2025-01-11 11:22:07.38	193.73	6.68	
2025-01-11 11:22:07.59	193.75	6.70	
2025-01-11 11:22:07.79	193.76	6.71	
2025-01-11 11:22:08.00	193.77	6.73	
2025-01-11 11:22:08.20	193.79	6.74	
2025-01-11 11:22:08.40	193.80	6.76	
2025-01-11 11:22:08.61	193.81	6.77	
2025-01-11 11:22:08.82	193.83	6.78	
2025-01-11 11:22:09.02	193.84	6.80	
2025-01-11 11:22:09.23	193.85	6.81	
2025-01-11 11:22:09.43	193.86	6.83	
2025-01-11 11:22:09.64	193.88	6.84	
2025-01-11 11:22:09.84	193.89	6.86	
2025-01-11 11:22:10.05	193.90	6.87	
2025-01-11 11:22:10.25	193.92	6.89	
2025-01-11 11:22:10.46	193.93	6.90	
2025-01-11 11:22:10.66	193.94	6.92	
2025-01-11 11:22:10.87	193.96	6.93	
2025-01-11 11:22:11.07	193.97	6.94	
2025-01-11 11:22:11.28	193.98	6.96	
2025-01-11 11:22:11.48	193.99	6.97	
2025-01-11 11:22:11.69	194.01	6.99	
2025-01-11 11:22:11.89	194.02	7.00	
2025-01-11 11:22:12.10	194.03	7.02	
2025-01-11 11:22:12.30	194.05	7.03	
2025-01-11 11:22:12.51	194.06	7.05	
2025-01-11 11:22:12.72	194.07	7.06	
2025-01-11 11:22:12.92	194.09	7.08	
2025-01-11 11:22:13.12	194.10	7.09	
2025-01-11 11:22:13.33	194.11	7.11	
2025-01-11 11:22:13.53	194.13	7.12	
2025-01-11 11:22:13.74	194.14	7.14	
2025-01-11 11:22:13.95	194.15	7.15	
2025-01-11 11:22:14.15	194.17	7.16	
2025-01-11 11:22:14.35	194.18	7.18	
2025-01-11 11:22:14.57	194.19	7.19	
2025-01-11 11:22:14.78	194.21	7.21	
2025-01-11 11:22:14.98	194.22	7.22	
2025-01-11 11:22:15.19	194.23	7.24	
2025-01-11 11:22:15.39	194.25	7.25	
2025-01-11 11:22:15.60	194.26	7.27	
2025-01-11 11:22:15.80	194.27	7.28	
2025-01-11 11:22:16.00	194.29	7.30	
2025-01-11 11:22:16.21	194.30	7.31	
2025-01-11 11:22:16.42	194.31	7.33	
2025-01-11 11:22:16.62	194.33	7.34	
2025-01-11 11:22:16.82	194.34	7.36	
2025-01-11 11:22:17.03	194.35	7.37	
2025-01-11 11:22:17.23	194.37	7.39	
2025-01-11 11:22:17.44	194.38	7.40	
2025-01-11 11:22:17.64	194.40	7.42	
2025-01-11 11:22:17.85	194.41	7.43	
2025-01-11 11:22:18.05	194.42	7.45	
2025-01-11 11:22:18.26	194.44	7.46	
2025-01-11 11:22:18.46	194.45	7.47	
2025-01-11 11:22:18.67	194.46	7.49	
2025-01-11 11:22:18.88	194.48	7.51	
2025-01-11 11:22:19.08	194.49	7.52	
2025-01-11 11:22:19.29	194.50	7.54	
2025-01-11 11:22:19.49	194.52	7.55	
2025-01-11 11:22:19.70	194.53	7.56	
2025-01-11 11:22:19.91	194.55	7.58	
2025-01-11 11:22:20.12	194.56	7.60	
2025-01-11 11:22:20.32	194.57	7.61	
2025-01-11 11:22:20.53	194.59	7.63	
2025-01-11 11:22:20.73	194.60	7.64	
2025-01-11 11:22:20.94	194.61	7.66	
2025-01-11 11:22:21.14	194.63	7.67	
2025-01-11 11:22:21.35	194.64	7.69	
2025-01-11 11:22:21.55	194.66	7.70	
2025-01-11 11:22:21.76	194.67	7.71	
2025-01-11 11:22:21.96	194.68	7.73	
2025-01-11 11:22:22.17	194.70	7.74	
2025-01-11 11:22:22.37	194.71	7.76	
2025-01-11 11:22:22.58	194.72	7.77	
2025-01-11 11:22:22.79	194.74	7.79	
2025-01-11 11:22:22.99	194.75	7.80	
2025-01-11 11:22:23.19	194.77	7.82	
2025-01-11 11:22:23.40	194.78	7.83	
2025-01-11 11:22:23.60	194.79	7.85	
2025-01-11 11:22:23.81	194.81	7.86	
2025-01-11 11:22:24.01	194.82	7.88	
2025-01-11 11:22:24.22	194.84	7.90	
2025-01-11 11:22:24.42	194.85	7.91	
2025-01-11 11:22:24.62	194.86	7.92	
2025-01-11 11:22:24.83	194.88	7.94	
2025-01-11 11:22:25.03	194.89	7.95	
2025-01-11 11:22:25.24	194.91	7.97	
2025-01-11 11:22:25.44	194.92	7.98	
2025-01-11 11:22:25.65	194.93	8.00	
2025-01-11 11:22:25.85	194.95	8.02	
2025-01-11 11:22:26.06	194.96	8.03	
2025-01-11 11:22:26.26	194.98	8.05	
2025-01-11 11:22:26.47	194.99	8.06	
2025-01-11 11:22:26.68	195.00	8.08	
2025-01-11 11:22:26.88	195.02	8.09	
2025-01-11 11:22:27.09	195.03	8.11	
2025-01-11 11:22:27.29	195.05	8.12	
2025-01-11 11:22:27.49	195.06	8.14	
2025-01-11 11:22:27.70	195.07	8.15	
2025-01-11 11:22:27.91	195.09	8.17	
2025-01-11 11:22:28.11	195.10	8.18	
2025-01-11 11:22:28.31	195.12	8.20	
2025-01-11 11:22:28.52	195.13	8.21	
2025-01-11 11:22:28.72	195.15	8.23	
2025-01-11 11:22:28.93	195.16	8.24	
2025-01-11 11:22:29.14	195.17	8.26	
2025-01-11 11:22:29.34	195.19	8.27	
2025-01-11 11:22:29.54	195.20	8.29	
2025-01-11 11:22:29.75	195.22	8.30	
2025-01-11 11:22:29.97	195.23	8.32	
2025-01-11 11:22:30.17	195.25	8.34	
2025-01-11 11:22:30.38	195.26	8.35	
2025-01-11 11:22:30.58	195.28	8.37	
2025-01-11 11:22:30.79	195.29	8.38	
2025-01-11 11:22:30.99	195.30	8.40	
2025-01-11 11:22:31.20	195.32	8.41	
2025-01-11 11:22:31.40	195.33	8.43	
2025-01-11 11:22:31.62	195.35	8.44	
2025-01-11 11:22:31.83	195.36	8.46	
2025-01-11 11:22:32.03	195.38	8.47	
2025-01-11 11:22:32.24	195.39	8.49	
2025-01-11 11:22:32.44	195.41	8.51	
2025-01-11 11:22:32.65	195.42	8.52	
2025-01-11 11:22:32.86	195.44	8.54	
2025-01-11 11:22:33.06	195.45	8.55	
2025-01-11 11:22:33.27	195.47	8.57	
2025-01-11 11:22:33.47	195.48	8.58	
2025-01-11 11:22:33.68	195.49	8.60	
2025-01-11 11:22:33.88	195.51	8.61	
2025-01-11 11:22:34.09	195.52	8.63	
2025-01-11 11:22:34.30	195.54	8.64	
2025-01-11 11:22:34.50	195.55	8.66	
2025-01-11 11:22:34.71	195.57	8.68	
2025-01-11 11:22:34.91	195.58	8.69	
2025-01-11 11:22:35.12	195.60	8.71	
2025-01-11 11:22:35.32	195.61	8.72	
2025-01-11 11:22:35.53	195.63	8.74	
2025-01-11 11:22:35.73	195.64	8.75	
2025-01-11 11:22:35.94	195.66	8.77	
2025-01-11 11:22:36.14	195.67	8.78	
2025-01-11 11:22:36.35	195.69	8.80	
2025-01-11 11:22:36.55	195.70	8.81	
2025-01-11 11:22:36.76	195.72	8.83	
2025-01-11 11:22:36.96	195.73	8.85	
2025-01-11 11:22:37.17	195.75	8.86	
2025-01-11 11:22:37.37	195.76	8.88	
2025-01-11 11:22:37.58	195.78	8.89	
2025-01-11 11:22:37.78	195.79	8.91	
2025-01-11 11:22:37.99	195.81	8.92	
2025-01-11 11:22:38.19	195.82	8.94	
2025-01-11 11:22:38.40	195.83	8.96	
2025-01-11 11:22:38.60	195.85	8.97	
2025-01-11 11:22:38.81	195.86	8.99	
2025-01-11 11:22:39.01	195.88	9.00	
2025-01-11 11:22:39.22	195.89	9.02	
2025-01-11 11:22:39.42	195.91	9.03	
2025-01-11 11:22:39.63	195.92	9.05	
2025-01-11 11:22:39.83	195.94	9.06	
2025-01-11 11:22:40.04	195.96	9.08	
2025-01-11 11:22:40.24	195.97	9.10	
2025-01-11 11:22:40.45	195.99	9.11	
2025-01-11 11:22:40.65	196.00	9.13	
2025-01-11 11:22:40.86	196.02	9.14	
2025-01-11 11:22:41.06	196.03	9.16	
2025-01-11 11:22:41.27	196.05	9.17	
2025-01-11 11:22:41.47	196.06	9.19	
2025-01-11 11:22:41.68	196.08	9.21	
2025-01-11 11:22:41.88	196.09	9.22	
2025-01-11 11:22:42.09	196.11	9.24	
2025-01-11 11:22:42.29	196.12	9.25	
2025-01-11 11:22:42.50	196.14	9.27	
2025-01-11 11:22:42.70	196.15	9.28	
2025-01-11 11:22:42.91	196.17	9.30	
2025-01-11 11:22:43.11	196.18	9.32	
2025-01-11 11:22:43.31	196.20	9.33	
2025-01-11 11:22:43.52	196.21	9.35	
2025-01-11 11:22:43.72	196.23	9.36	
2025-01-11 11:22:43.93	196.24	9.38	
2025-01-11 11:22:44.14	196.26	9.40	
2025-01-11 11:22:44.34	196.27	9.41	
2025-01-11 11:22:44.54	196.29	9.43	
2025-01-11 11:22:44.75	196.31	9.44	
2025-01-11 11:22:44.95	196.32	9.46	
2025-01-11 11:22:45.16	196.34	9.47	
2025-01-11 11:22:45.36	196.35	9.49	
2025-01-11 11:22:45.56	196.37	9.51	
2025-01-11 11:22:45.77	196.38	9.52	
2025-01-11 11:22:45.98	196.40	9.54	
2025-01-11 11:22:46.18	196.41	9.55	
2025-01-11 11:22:46.39	196.43	9.57	
2025-01-11 11:22:46.59	196.44	9.59	
2025-01-11 11:22:46.80	196.46	9.60	
2025-01-11 11:22:47.00	196.48	9.62	
2025-01-11 11:22:47.21	196.49	9.63	
2025-01-11 11:22:47.41	196.51	9.65	
2025-01-11 11:22:47.63	196.52	9.67	
2025-01-11 11:22:47.83	196.54	9.68	
2025-01-11 11:22:48.04	196.56	9.70	
2025-01-11 11:22:48.25	196.57	9.71	
2025-01-11 11:22:48.45	196.59	9.73	
2025-01-11 11:22:48.65	196.60	9.75	
2025-01-11 11:22:48.86	196.62	9.76	
2025-01-11 11:22:49.06	196.63	9.78	
2025-01-11 11:22:49.27	196.65	9.79	
2025-01-11 11:22:49.47	196.67	9.81	
2025-01-11 11:22:49.68	196.68	9.83	
2025-01-11 11:22:49.88	196.70	9.84	
2025-01-11 11:22:50.09	196.71	9.86	
2025-01-11 11:22:50.29	196.73	9.87	
2025-01-11 11:22:50.50	196.74	9.89	
2025-01-11 11:22:50.70	196.76	9.91	
2025-01-11 11:22:50.91	196.78	9.92	
2025-01-11 11:22:51.11	196.79	9.94	
2025-01-11 11:22:51.32	196.81	9.96	
2025-01-11 11:22:51.52	196.82	9.97	
2025-01-11 11:22:51.73	196.84	9.99	
2025-01-11 11:22:51.95	196.86	10.00	
2025-01-11 11:22:52.15	196.87	10.02	
2025-01-11 11:22:52.36	196.89	10.04	
2025-01-11 11:22:52.56	196.91	10.05	
2025-01-11 11:22:52.77	196.92	10.07	
2025-01-11 11:22:52.97	196.94	10.09	
2025-01-11 11:22:53.18	196.95	10.10	
2025-01-11 11:22:53.38	196.97	10.12	
2025-01-11 11:22:53.59	196.99	10.13	
2025-01-11 11:22:53.79	197.00	10.15	
2025-01-11 11:22:54.01	197.02	10.17	
2025-01-11 11:22:54.22	197.04	10.18	
2025-01-11 11:22:54.42	197.05	10.20	
2025-01-11 11:22:54.63	197.07	10.22	
2025-01-11 11:22:54.83	197.08	10.23	
2025-01-11 11:22:55.04	197.10	10.25	
2025-01-11 11:22:55.24	197.12	10.27	
2025-01-11 11:22:55.44	197.13	10.28	
2025-01-11 11:22:55.65	197.15	10.30	
2025-01-11 11:22:55.85	197.17	10.31	
2025-01-11 11:22:56.06	197.18	10.33	
2025-01-11 11:22:56.26	197.20	10.35	
2025-01-11 11:22:56.47	197.21	10.36	
2025-01-11 11:22:56.67	197.23	10.38	
2025-01-11 11:22:56.89	197.25	10.40	
2025-01-11 11:22:57.09	197.26	10.41	
2025-01-11 11:22:57.30	197.28	10.43	
2025-01-11 11:22:57.50	197.30	10.45	
2025-01-11 11:22:57.71	197.31	10.46	
2025-01-11 11:22:57.91	197.33	10.48	
2025-01-11 11:22:58.12	197.35	10.50	
2025-01-11 11:22:58.32	197.36	10.51	
2025-01-11 11:22:58.53	197.38	10.53	
2025-01-11 11:22:58.73	197.40	10.54	
2025-01-11 11:22:58.94	197.41	10.56	
2025-01-11 11:22:59.14	197.43	10.58	
2025-01-11 11:22:59.35	197.45	10.59	
2025-01-11 11:22:59.55	197.46	10.61	
2025-01-11 11:22:59.76	197.48	10.63	
2025-01-11 11:22:59.97	197.50	10.64	
2025-01-11 11:23:00.18	197.51	10.66	
2025-01-11 11:23:00.39	197.53	10.68	
2025-01-11 11:23:00.59	197.55	10.69	
2025-01-11 11:23:00.80	197.57	10.71	
2025-01-11 11:23:01.00	197.58	10.73	
2025-01-11 11:23:01.21	197.60	10.74	
2025-01-11 11:23:01.41	197.62	10.76	
2025-01-11 11:23:01.61	197.63	10.78	
2025-01-11 11:23:01.82	197.65	10.79	
2025-01-11 11:23:02.03	197.67	10.81	
2025-01-11 11:23:02.23	197.68	10.83	
2025-01-11 11:23:02.44	197.70	10.84	
2025-01-11 11:23:02.66	197.72	10.86	
2025-01-11 11:23:02.86	197.73	10.88	
2025-01-11 11:23:03.07	197.75	10.89	
2025-01-11 11:23:03.27	197.77	10.91	
2025-01-11 11:23:03.48	197.79	10.93	
2025-01-11 11:23:03.68	197.80	10.94	
2025-01-11 11:23:03.89	197.82	10.96	
2025-01-11 11:23:04.09	197.84	10.98	
2025-01-11 11:23:04.30	197.85	10.99	
2025-01-11 11:23:04.50	197.87	11.01	
2025-01-11 11:23:04.71	197.89	11.03	
2025-01-11 11:23:04.92	197.91	11.04	
2025-01-11 11:23:05.12	197.92	11.06	
2025-01-11 11:23:05.33	197.94	11.08	
2025-01-11 11:23:05.53	197.96	11.09	
2025-01-11 11:23:05.74	197.97	11.11	
2025-01-11 11:23:05.94	197.99	11.13	
2025-01-11 11:23:06.15	198.01	11.15	
2025-01-11 11:23:06.35	198.03	11.16	
2025-01-11 11:23:06.56	198.04	11.18	
2025-01-11 11:23:06.77	198.06	11.20	
2025-01-11 11:23:06.97	198.08	11.21	
2025-01-11 11:23:07.17	198.09	11.23	
2025-01-11 11:23:07.38	198.11	11.25	
2025-01-11 11:23:07.58	198.13	11.26	
2025-01-11 11:23:07.79	198.15	11.28	
2025-01-11 11:23:07.99	198.16	11.30	
2025-01-11 11:23:08.20	198.18	11.31	
2025-01-11 11:23:08.40	198.20	11.33	
2025-01-11 11:23:08.61	198.22	11.35	
2025-01-11 11:23:08.81	198.23	11.36	
2025-01-11 11:23:09.02	198.25	11.38	
2025-01-11 11:23:09.22	198.27	11.40	
2025-01-11 11:23:09.43	198.29	11.42	
2025-01-11 11:23:09.63	198.30	11.43	
2025-01-11 11:23:09.84	198.32	11.45	
2025-01-11 11:23:10.04	198.34	11.47	
2025-01-11 11:23:10.25	198.36	11.48	
2025-01-11 11:23:10.45	198.37	11.50	
2025-01-11 11:23:10.66	198.39	11.52	
2025-01-11 11:23:10.86	198.41	11.53	
2025-01-11 11:23:11.07	198.43	11.55	
2025-01-11 11:23:11.27	198.45	11.57	
2025-01-11 11:23:11.48	198.46	11.58	
2025-01-11 11:23:11.68	198.48	11.60	
2025-01-11 11:23:11.89	198.50	11.62	
2025-01-11 11:23:12.09	198.52	11.64	
2025-01-11 11:23:12.30	198.53	11.65	
2025-01-11 11:23:12.50	198.55	11.67	
2025-01-11 11:23:12.71	198.57	11.69	
2025-01-11 11:23:12.91	198.59	11.70	
2025-01-11 11:23:13.12	198.61	11.72	
2025-01-11 11:23:13.32	198.62	11.74	
2025-01-11 11:23:13.53	198.64	11.76	
2025-01-11 11:23:13.73	198.66	11.77	
2025-01-11 11:23:13.94	198.68	11.79	
2025-01-11 11:23:14.15	198.70	11.81	
2025-01-11 11:23:14.35	198.71	11.82	
2025-01-11 11:23:14.56	198.73	11.84	
2025-01-11 11:23:14.76	198.75	11.86	
2025-01-11 11:23:14.97	198.77	11.88	
2025-01-11 11:23:15.17	198.79	11.89	
2025-01-11 11:23:15.37	198.80	11.91	
2025-01-11 11:23:15.58	198.82	11.93	
2025-01-11 11:23:15.78	198.84	11.94	
2025-01-11 11:23:15.99	198.86	11.96	
2025-01-11 11:23:16.19	198.88	11.98	
2025-01-11 11:23:16.40	198.90	12.00	
2025-01-11 11:23:16.60	198.91	12.01	
2025-01-11 11:23:16.81	198.93	12.03	
2025-01-11 11:23:17.01	198.95	12.05	
2025-01-11 11:23:17.22	198.97	12.07	
2025-01-11 11:23:17.42	198.99	12.08	
2025-01-11 11:23:17.63	199.01	12.10	
2025-01-11 11:23:17.83	199.02	12.12	
2025-01-11 11:23:18.04	199.04	12.13	
2025-01-11 11:23:18.24	199.06	12.15	
2025-01-11 11:23:18.45	199.08	12.17	
2025-01-11 11:23:18.67	199.10	12.19	
2025-01-11 11:23:18.87	199.12	12.20	
2025-01-11 11:23:19.08	199.14	12.22	
2025-01-11 11:23:19.28	199.15	12.24	
2025-01-11 11:23:19.49	199.17	12.26	
2025-01-11 11:23:19.71	199.19	12.28	
2025-01-11 11:23:19.91	199.21	12.29	
2025-01-11 11:23:20.12	199.23	12.31	
2025-01-11 11:23:20.32	199.25	12.33	
2025-01-11 11:23:20.53	199.27	12.35	
2025-01-11 11:23:20.73	199.29	12.36	
2025-01-11 11:23:20.94	199.30	12.38	
2025-01-11 11:23:21.14	199.32	12.40	
2025-01-11 11:23:21.35	199.34	12.42	
2025-01-11 11:23:21.55	199.36	12.43	
2025-01-11 11:23:21.76	199.38	12.45	
2025-01-11 11:23:21.96	199.40	12.47	
2025-01-11 11:23:22.17	199.42	12.49	
2025-01-11 11:23:22.37	199.44	12.50	
2025-01-11 11:23:22.58	199.45	12.52	
2025-01-11 11:23:22.78	199.47	12.54	
2025-01-11 11:23:22.99	199.49	12.56	
2025-01-11 11:23:23.20	199.51	12.57	
2025-01-11 11:23:23.40	199.53	12.59	
2025-01-11 11:23:23.61	199.55	12.61	
2025-01-11 11:23:23.81	199.57	12.63	
2025-01-11 11:23:24.01	199.59	12.64	
2025-01-11 11:23:24.22	199.61	12.66	
2025-01-11 11:23:24.42	199.62	12.68	
2025-01-11 11:23:24.63	199.64	12.70	
2025-01-11 11:23:24.83	199.66	12.71	
2025-01-11 11:23:25.05	199.68	12.73	
2025-01-11 11:23:25.26	199.70	12.75	
2025-01-11 11:23:25.46	199.72	12.77	
2025-01-11 11:23:25.67	199.74	12.79	
2025-01-11 11:23:25.87	199.76	12.80	
2025-01-11 11:23:26.08	199.78	12.82	
2025-01-11 11:23:26.28	199.80	12.84	
2025-01-11 11:23:26.49	199.82	12.86	
2025-01-11 11:23:26.70	199.84	12.88	
2025-01-11 11:23:26.90	199.86	12.89	
2025-01-11 11:23:27.10	199.88	12.91	
2025-01-11 11:23:27.31	199.90	12.93	
2025-01-11 11:23:27.52	199.92	12.95	
2025-01-11 11:23:27.72	199.93	12.96	
2025-01-11 11:23:27.93	199.95	12.98	
2025-01-11 11:23:28.13	199.97	13.00	
2025-01-11 11:23:28.34	199.99	13.02	
2025-01-11 11:23:28.54	200.01	13.04	
2025-01-11 11:23:28.75	200.03	13.05	
2025-01-11 11:23:28.95	200.05	13.07	
2025-01-11 11:23:29.16	200.07	13.09	
2025-01-11 11:23:29.36	200.09	13.11	
2025-01-11 11:23:29.57	200.11	13.13	
2025-01-11 11:23:29.78	200.13	13.14	
2025-01-11 11:23:29.98	200.15	13.16	
2025-01-11 11:23:30.18	200.17	13.18	
2025-01-11 11:23:30.39	200.19	13.20	
2025-01-11 11:23:30.59	200.21	13.21	
2025-01-11 11:23:30.80	200.23	13.23	
2025-01-11 11:23:31.00	200.25	13.25	
2025-01-11 11:23:31.21	200.27	13.27	
2025-01-11 11:23:31.41	200.29	13.29	
2025-01-11 11:23:31.62	200.31	13.30	
2025-01-11 11:23:31.82	200.33	13.32	
2025-01-11 11:23:32.04	200.35	13.34	
2025-01-11 11:23:32.24	200.37	13.36	
2025-01-11 11:23:32.45	200.39	13.38	
2025-01-11 11:23:32.65	200.41	13.40	
2025-01-11 11:23:32.86	200.43	13.41	
2025-01-11 11:23:33.06	200.45	13.43	
2025-01-11 11:23:33.27	200.47	13.45	
2025-01-11 11:23:33.47	200.49	13.47	
2025-01-11 11:23:33.68	200.51	13.49	
2025-01-11 11:23:33.88	200.53	13.50	
2025-01-11 11:23:34.09	200.55	13.52	
2025-01-11 11:23:34.30	200.57	13.54	
2025-01-11 11:23:34.50	200.59	13.56	
2025-01-11 11:23:34.71	200.61	13.58	
2025-01-11 11:23:34.91	200.63	13.59	
2025-01-11 11:23:35.12	200.65	13.61	
2025-01-11 11:23:35.33	200.67	13.63	
2025-01-11 11:23:35.53	200.69	13.65	
2025-01-11 11:23:35.73	200.71	13.67	
2025-01-11 11:23:35.94	200.73	13.69	
2025-01-11 11:23:36.15	200.75	13.70	
2025-01-11 11:23:36.35	200.77	13.72	
2025-01-11 11:23:36.56	200.79	13.74	
2025-01-11 11:23:36.76	200.81	13.76	
2025-01-11 11:23:36.97	200.83	13.78	
2025-01-11 11:23:37.17	200.85	13.80	
2025-01-11 11:23:37.38	200.88	13.81	
2025-01-11 11:23:37.58	200.90	13.83	
2025-01-11 11:23:37.78	200.92	13.85	
2025-01-11 11:23:37.99	200.94	13.87	
2025-01-11 11:23:38.19	200.96	13.89	
2025-01-11 11:23:38.40	200.98	13.91	
2025-01-11 11:23:38.61	201.00	13.92	
2025-01-11 11:23:38.81	201.02	13.94	
2025-01-11 11:23:39.01	201.04	13.96	
2025-01-11 11:23:39.22	201.06	13.98	
2025-01-11 11:23:39.42	201.08	14.00	
2025-01-11 11:23:39.63	201.10	14.02	
2025-01-11 11:23:39.84	201.12	14.03	
2025-01-11 11:23:40.04	201.14	14.05	
2025-01-11 11:23:40.25	201.16	14.07	
2025-01-11 11:23:40.45	201.19	14.09	
2025-01-11 11:23:40.66	201.21	14.11	
2025-01-11 11:23:40.86	201.23	14.13	
2025-01-11 11:23:41.07	201.25	14.15	
2025-01-11 11:23:41.27	201.27	14.16	
2025-01-11 11:23:41.48	201.29	14.18	
2025-01-11 11:23:41.68	201.31	14.20	
2025-01-11 11:23:41.89	201.33	14.22	
2025-01-11 11:23:42.09	201.35	14.24	
2025-01-11 11:23:42.30	201.37	14.26	
2025-01-11 11:23:42.50	201.40	14.27	
2025-01-11 11:23:42.71	201.42	14.29	
2025-01-11 11:23:42.91	201.44	14.31	
2025-01-11 11:23:43.11	201.46	14.33	
2025-01-11 11:23:43.32	201.48	14.35	
2025-01-11 11:23:43.53	201.50	14.37	
2025-01-11 11:23:43.73	201.52	14.39	
2025-01-11 11:23:43.94	201.54	14.40	
2025-01-11 11:23:44.14	201.57	14.42	
2025-01-11 11:23:44.35	201.59	14.44	
2025-01-11 11:23:44.55	201.61	14.46	
2025-01-11 11:23:44.76	201.63	14.48	
2025-01-11 11:23:44.96	201.65	14.50	
2025-01-11 11:23:45.16	201.67	14.52	
2025-01-11 11:23:45.37	201.69	14.54	
2025-01-11 11:23:45.57	201.71	14.55	
2025-01-11 11:23:45.78	201.74	14.57	
2025-01-11 11:23:45.98	201.76	14.59	
2025-01-11 11:23:46.19	201.78	14.61	
2025-01-11 11:23:46.41	201.80	14.63	
2025-01-11 11:23:46.61	201.82	14.65	
2025-01-11 11:23:46.82	201.85	14.67	
2025-01-11 11:23:47.02	201.87	14.69	
2025-01-11 11:23:47.23	201.89	14.71	
2025-01-11 11:23:47.43	201.91	14.72	
2025-01-11 11:23:47.64	201.93	14.74	
2025-01-11 11:23:47.84	201.95	14.76	
2025-01-11 11:23:48.05	201.98	14.78	
2025-01-11 11:23:48.26	202.00	14.80	
2025-01-11 11:23:48.46	202.02	14.82	
2025-01-11 11:23:48.66	202.04	14.84	
2025-01-11 11:23:48.87	202.06	14.86	
2025-01-11 11:23:49.08	202.09	14.88	
2025-01-11 11:23:49.28	202.11	14.89	
2025-01-11 11:23:49.49	202.13	14.91	
2025-01-11 11:23:49.69	202.15	14.93	
2025-01-11 11:23:49.89	202.17	14.95	
2025-01-11 11:23:50.10	202.20	14.97	
2025-01-11 11:23:50.30	202.22	14.99	
2025-01-11 11:23:50.50	202.24	15.01	
2025-01-11 11:23:50.71	202.26	15.03	
2025-01-11 11:23:50.91	202.28	15.04	
2025-01-11 11:23:51.13	202.31	15.06	
2025-01-11 11:23:51.35	202.33	15.09	
2025-01-11 11:23:51.55	202.35	15.10	
2025-01-11 11:23:51.75	202.38	15.12	
2025-01-11 11:23:51.96	202.40	15.14	
2025-01-11 11:23:52.17	202.42	15.16	
2025-01-11 11:23:52.38	202.44	15.18	
2025-01-11 11:23:52.59	202.47	15.20	
2025-01-11 11:23:52.79	202.49	15.22	
2025-01-11 11:23:53.00	202.51	15.24	
2025-01-11 11:23:53.21	202.54	15.26	
2025-01-11 11:23:53.41	202.56	15.28	
2025-01-11 11:23:53.61	202.58	15.30	
2025-01-11 11:23:53.82	202.60	15.32	
2025-01-11 11:23:54.02	202.62	15.33	
2025-01-11 11:23:54.23	202.65	15.35	
2025-01-11 11:23:54.43	202.67	15.37	
2025-01-11 11:23:54.64	202.69	15.39	
2025-01-11 11:23:54.84	202.72	15.41	
2025-01-11 11:23:55.05	202.74	15.43	
2025-01-11 11:23:55.27	202.76	15.45	
2025-01-11 11:23:55.47	202.79	15.47	
2025-01-11 11:23:55.68	202.81	15.49	
2025-01-11 11:23:55.88	202.83	15.51	
2025-01-11 11:23:56.09	202.85	15.53	
2025-01-11 11:23:56.29	202.88	15.55	
2025-01-11 11:23:56.50	202.90	15.57	
2025-01-11 11:23:56.70	202.92	15.59	
2025-01-11 11:23:56.91	202.95	15.61	
2025-01-11 11:23:57.11	202.97	15.62	
2025-01-11 11:23:57.32	202.99	15.64	
2025-01-11 11:23:57.52	203.02	15.66	
2025-01-11 11:23:57.73	203.04	15.68	
2025-01-11 11:23:57.93	203.06	15.70	
2025-01-11 11:23:58.14	203.09	15.72	
2025-01-11 11:23:58.34	203.11	15.74	
2025-01-11 11:23:58.55	203.13	15.76	
2025-01-11 11:23:58.75	203.15	15.78	
2025-01-11 11:23:58.96	203.18	15.80	
2025-01-11 11:23:59.16	203.20	15.82	
2025-01-11 11:23:59.37	203.23	15.84	
2025-01-11 11:23:59.57	203.25	15.86	
2025-01-11 11:23:59.78	203.27	15.88	
2025-01-11 11:23:59.98	203.30	15.90	
2025-01-11 11:24:00.19	203.32	15.92	
2025-01-11 11:24:00.39	203.34	15.93	
2025-01-11 11:24:00.60	203.37	15.95	
2025-01-11 11:24:00.80	203.39	15.97	
2025-01-11 11:24:01.01	203.41	15.99	
2025-01-11 11:24:01.21	203.44	16.01	
2025-01-11 11:24:01.42	203.46	16.03	
2025-01-11 11:24:01.62	203.48	16.05	
2025-01-11 11:24:01.83	203.51	16.07	
2025-01-11 11:24:02.04	203.53	16.09	
2025-01-11 11:24:02.24	203.56	16.11	
2025-01-11 11:24:02.44	203.58	16.13	
2025-01-11 11:24:02.65	203.60	16.15	
2025-01-11 11:24:02.86	203.63	16.17	
2025-01-11 11:24:03.06	203.65	16.19	
2025-01-11 11:24:03.27	203.68	16.21	
2025-01-11 11:24:03.47	203.70	16.23	
2025-01-11 11:24:03.68	203.72	16.25	
2025-01-11 11:24:03.88	203.75	16.27	
2025-01-11 11:24:04.09	203.77	16.29	
2025-01-11 11:24:04.29	203.80	16.31	
2025-01-11 11:24:04.49	203.82	16.33	
2025-01-11 11:24:04.70	203.84	16.35	
2025-01-11 11:24:04.90	203.87	16.37	
2025-01-11 11:24:05.11	203.89	16.39	
2025-01-11 11:24:05.31	203.92	16.41	
2025-01-11 11:24:05.52	203.94	16.43	
2025-01-11 11:24:05.72	203.96	16.45	
2025-01-11 11:24:05.93	203.99	16.47	
2025-01-11 11:24:06.14	204.01	16.49	
2025-01-11 11:24:06.34	204.04	16.51	
2025-01-11 11:24:06.55	204.06	16.53	
2025-01-11 11:24:06.75	204.09	16.55	
2025-01-11 11:24:06.96	204.11	16.57	
2025-01-11 11:24:07.16	204.14	16.58	
2025-01-11 11:24:07.37	204.16	16.61	
2025-01-11 11:24:07.57	204.18	16.62	
2025-01-11 11:24:07.78	204.21	16.65	
2025-01-11 11:24:07.98	204.23	16.66	
2025-01-11 11:24:08.19	204.26	16.68	
2025-01-11 11:24:08.39	204.28	16.70	
2025-01-11 11:24:08.60	204.31	16.72	
2025-01-11 11:24:08.80	204.33	16.74	
2025-01-11 11:24:09.01	204.36	16.76	
2025-01-11 11:24:09.21	204.38	16.78	
2025-01-11 11:24:09.42	204.41	16.80	
2025-01-11 11:24:09.63	204.43	16.83	
2025-01-11 11:24:09.83	204.46	16.84	
2025-01-11 11:24:10.04	204.48	16.87	
2025-01-11 11:24:10.24	204.51	16.88	
2025-01-11 11:24:10.44	204.53	16.90	
2025-01-11 11:24:10.65	204.56	16.92	
2025-01-11 11:24:10.85	204.58	16.94	
2025-01-11 11:24:11.06	204.61	16.97	
2025-01-11 11:24:11.26	204.63	16.98	
2025-01-11 11:24:11.47	204.66	17.01	
2025-01-11 11:24:11.67	204.68	17.02	
2025-01-11 11:24:11.88	204.71	17.05	
2025-01-11 11:24:12.08	204.73	17.07	
2025-01-11 11:24:12.29	204.76	17.09	
2025-01-11 11:24:12.49	204.78	17.11	
2025-01-11 11:24:12.70	204.81	17.13	
2025-01-11 11:24:12.90	204.84	17.15	
2025-01-11 11:24:13.11	204.86	17.17	
2025-01-11 11:24:13.32	204.89	17.19	
2025-01-11 11:24:13.52	204.91	17.21	
2025-01-11 11:24:13.73	204.94	17.23	
2025-01-11 11:24:13.93	204.96	17.25	
2025-01-11 11:24:14.13	204.99	17.27	
2025-01-11 11:24:14.34	205.01	17.29	
2025-01-11 11:24:14.54	205.04	17.31	
2025-01-11 11:24:14.75	205.07	17.33	
2025-01-11 11:24:14.95	205.09	17.35	
2025-01-11 11:24:15.16	205.12	17.37	
2025-01-11 11:24:15.36	205.14	17.39	
2025-01-11 11:24:15.57	205.17	17.41	
2025-01-11 11:24:15.77	205.19	17.43	
2025-01-11 11:24:15.98	205.22	17.45	
2025-01-11 11:24:16.19	205.25	17.47	
2025-01-11 11:24:16.39	205.27	17.49	
2025-01-11 11:24:16.60	205.30	17.51	
2025-01-11 11:24:16.80	205.33	17.53	
2025-01-11 11:24:17.01	205.35	17.55	
2025-01-11 11:24:17.21	205.38	17.57	
2025-01-11 11:24:17.42	205.40	17.59	
2025-01-11 11:24:17.62	205.43	17.61	
2025-01-11 11:24:17.83	205.46	17.63	
2025-01-11 11:24:18.03	205.48	17.65	
2025-01-11 11:24:18.24	205.51	17.68	
2025-01-11 11:24:18.44	205.53	17.70	
2025-01-11 11:24:18.65	205.56	17.72	
2025-01-11 11:24:18.86	205.59	17.74	
2025-01-11 11:24:19.06	205.61	17.76	
2025-01-11 11:24:19.27	205.64	17.78	
2025-01-11 11:24:19.47	205.67	17.80	
2025-01-11 11:24:19.67	205.69	17.82	
2025-01-11 11:24:19.88	205.72	17.84	
2025-01-11 11:24:20.09	205.75	17.86	
2025-01-11 11:24:20.29	205.77	17.88	
2025-01-11 11:24:20.50	205.80	17.90	
2025-01-11 11:24:20.70	205.83	17.92	
2025-01-11 11:24:20.90	205.85	17.94	
2025-01-11 11:24:21.11	205.88	17.96	
2025-01-11 11:24:21.31	205.91	17.98	
2025-01-11 11:24:21.53	205.94	18.01	
2025-01-11 11:24:21.75	205.96	18.03	
2025-01-11 11:24:21.95	205.99	18.05	
2025-01-11 11:24:22.16	206.02	18.07	
2025-01-11 11:24:22.37	206.05	18.09	
2025-01-11 11:24:22.57	206.07	18.11	
2025-01-11 11:24:22.78	206.10	18.13	
2025-01-11 11:24:22.98	206.13	18.15	
2025-01-11 11:24:23.19	206.15	18.17	
2025-01-11 11:24:23.39	206.18	18.19	
2025-01-11 11:24:23.60	206.21	18.22	
2025-01-11 11:24:23.81	206.24	18.24	
2025-01-11 11:24:24.02	206.27	18.26	
2025-01-11 11:24:24.22	206.29	18.28	
2025-01-11 11:24:24.43	206.32	18.30	
2025-01-11 11:24:24.63	206.35	18.32	
2025-01-11 11:24:24.83	206.37	18.34	
2025-01-11 11:24:25.04	206.40	18.36	
2025-01-11 11:24:25.25	206.43	18.38	
2025-01-11 11:24:25.45	206.46	18.40	
2025-01-11 11:24:25.66	206.48	18.43	
2025-01-11 11:24:25.86	206.51	18.45	
2025-01-11 11:24:26.06	206.54	18.47	
2025-01-11 11:24:26.27	206.57	18.49	
2025-01-11 11:24:26.48	206.60	18.51	
2025-01-11 11:24:26.68	206.62	18.53	
2025-01-11 11:24:26.89	206.65	18.55	
2025-01-11 11:24:27.09	206.68	18.57	
2025-01-11 11:24:27.30	206.71	18.59	
2025-01-11 11:24:27.50	206.73	18.61	
2025-01-11 11:24:27.70	206.76	18.63	
2025-01-11 11:24:27.91	206.79	18.66	
2025-01-11 11:24:28.11	206.82	18.68	
2025-01-11 11:24:28.32	206.85	18.70	
2025-01-11 11:24:28.53	206.87	18.72	
2025-01-11 11:24:28.73	206.90	18.74	
2025-01-11 11:24:28.94	206.93	18.76	
2025-01-11 11:24:29.14	206.96	18.78	
2025-01-11 11:24:29.34	206.99	18.80	
2025-01-11 11:24:29.55	207.02	18.82	
2025-01-11 11:24:29.76	207.04	18.85	
2025-01-11 11:24:29.96	207.07	18.87	
2025-01-11 11:24:30.16	207.10	18.89	
2025-01-11 11:24:30.37	207.13	18.91	
2025-01-11 11:24:30.58	207.16	18.93	
2025-01-11 11:24:30.78	207.19	18.95	
2025-01-11 11:24:30.99	207.22	18.97	
2025-01-11 11:24:31.19	207.24	18.99	
2025-01-11 11:24:31.40	207.27	19.01	
2025-01-11 11:24:31.60	207.30	19.04	
2025-01-11 11:24:31.81	207.33	19.06	
2025-01-11 11:24:32.01	207.36	19.08	
2025-01-11 11:24:32.22	207.39	19.10	
2025-01-11 11:24:32.42	207.42	19.12	
2025-01-11 11:24:32.63	207.45	19.14	
2025-01-11 11:24:32.83	207.47	19.16	
2025-01-11 11:24:33.04	207.50	19.19	
2025-01-11 11:24:33.25	207.53	19.21	
2025-01-11 11:24:33.45	207.56	19.23	
2025-01-11 11:24:33.65	207.59	19.25	
2025-01-11 11:24:33.86	207.62	19.27	
2025-01-11 11:24:34.06	207.65	19.29	
2025-01-11 11:24:34.27	207.68	19.31	
2025-01-11 11:24:34.47	207.71	19.33	
2025-01-11 11:24:34.68	207.74	19.36	
2025-01-11 11:24:34.88	207.76	19.38	
2025-01-11 11:24:35.09	207.79	19.40	
2025-01-11 11:24:35.29	207.82	19.42	
2025-01-11 11:24:35.50	207.85	19.44	
2025-01-11 11:24:35.70	207.88	19.46	
2025-01-11 11:24:35.91	207.91	19.48	
2025-01-11 11:24:36.12	207.94	19.51	
2025-01-11 11:24:36.32	207.97	19.53	
2025-01-11 11:24:36.52	208.00	19.55	
2025-01-11 11:24:36.73	208.03	19.57	
2025-01-11 11:24:36.93	208.06	19.59	
2025-01-11 11:24:37.14	208.09	19.61	
2025-01-11 11:24:37.34	208.12	19.63	
2025-01-11 11:24:37.55	208.15	19.66	
2025-01-11 11:24:37.75	208.18	19.68	
2025-01-11 11:24:37.96	208.21	19.70	
2025-01-11 11:24:38.17	208.24	19.72	
2025-01-11 11:24:38.37	208.27	19.74	
2025-01-11 11:24:38.58	208.30	19.77	
2025-01-11 11:24:38.78	208.33	19.79	
2025-01-11 11:24:38.99	208.36	19.81	
2025-01-11 11:24:39.19	208.39	19.83	
2025-01-11 11:24:39.40	208.42	19.85	
2025-01-11 11:24:39.61	208.45	19.87	
2025-01-11 11:24:39.81	208.48	19.90	
2025-01-11 11:24:40.01	208.51	19.92	
2025-01-11 11:24:40.22	208.54	19.94	
2025-01-11 11:24:40.42	208.57	19.96	
2025-01-11 11:24:40.63	208.60	19.98	
2025-01-11 11:24:40.83	208.63	20.00	
2025-01-11 11:24:41.04	208.66	20.03	
2025-01-11 11:24:41.24	208.69	20.05	
2025-01-11 11:24:41.45	208.73	20.07	
2025-01-11 11:24:41.65	208.76	20.09	
2025-01-11 11:24:41.86	208.79	20.11	
2025-01-11 11:24:42.06	208.82	20.13	
2025-01-11 11:24:42.27	208.85	20.16	
2025-01-11 11:24:42.47	208.88	20.18	
2025-01-11 11:24:42.68	208.91	20.20	
2025-01-11 11:24:42.89	208.94	20.22	
2025-01-11 11:24:43.09	208.97	20.24	
2025-01-11 11:24:43.30	209.00	20.27	
2025-01-11 11:24:43.50	209.03	20.29	
2025-01-11 11:24:43.71	209.07	20.31	
2025-01-11 11:24:43.92	209.10	20.33	
2025-01-11 11:24:44.12	209.13	20.35	
2025-01-11 11:24:44.33	209.16	20.38	
2025-01-11 11:24:44.53	209.19	20.40	
2025-01-11 11:24:44.73	209.22	20.42	
2025-01-11 11:24:44.94	209.25	20.44	
2025-01-11 11:24:45.16	209.29	20.46	
2025-01-11 11:24:45.36	209.32	20.49	
2025-01-11 11:24:45.57	209.35	20.51	
2025-01-11 11:24:45.77	209.38	20.53	
2025-01-11 11:24:45.98	209.41	20.55	
2025-01-11 11:24:46.18	209.44	20.57	
2025-01-11 11:24:46.39	209.48	20.60	
2025-01-11 11:24:46.59	209.51	20.62	
2025-01-11 11:24:46.80	209.54	20.64	
2025-01-11 11:24:47.00	209.57	20.66	
2025-01-11 11:24:47.21	209.60	20.68	
2025-01-11 11:24:47.41	209.63	20.71	
2025-01-11 11:24:47.62	209.67	20.73	
2025-01-11 11:24:47.82	209.70	20.75	
2025-01-11 11:24:48.03	209.73	20.77	
2025-01-11 11:24:48.23	209.76	20.79	
2025-01-11 11:24:48.43	209.79	20.82	
2025-01-11 11:24:48.64	209.83	20.84	
2025-01-11 11:24:48.85	209.86	20.86	
2025-01-11 11:24:49.05	209.89	20.88	
2025-01-11 11:24:49.26	209.92	20.91	
2025-01-11 11:24:49.46	209.96	20.93	
2025-01-11 11:24:49.67	209.99	20.95	
2025-01-11 11:24:49.87	210.02	20.97	
2025-01-11 11:24:50.08	210.05	21.00	
2025-01-11 11:24:50.29	210.09	21.02	
2025-01-11 11:24:50.50	210.12	21.04	
2025-01-11 11:24:50.71	210.15	21.06	
2025-01-11 11:24:50.92	210.19	21.09	
2025-01-11 11:24:51.12	210.22	21.11	
2025-01-11 11:24:51.33	210.25	21.13	
2025-01-11 11:24:51.53	210.28	21.15	
2025-01-11 11:24:51.74	210.32	21.18	
2025-01-11 11:24:51.94	210.35	21.20	
2025-01-11 11:24:52.14	210.38	21.22	
2025-01-11 11:24:52.35	210.42	21.24	
2025-01-11 11:24:52.55	210.45	21.26	
2025-01-11 11:24:52.76	210.48	21.29	
2025-01-11 11:24:52.97	210.52	21.31	
2025-01-11 11:24:53.17	210.55	21.33	
2025-01-11 11:24:53.38	210.58	21.35	
2025-01-11 11:24:53.58	210.61	21.38	
2025-01-11 11:24:53.79	210.65	21.40	
2025-01-11 11:24:53.99	210.68	21.42	
2025-01-11 11:24:54.20	210.72	21.44	
2025-01-11 11:24:54.40	210.75	21.47	
2025-01-11 11:24:54.61	210.78	21.49	
2025-01-11 11:24:54.81	210.82	21.51	
2025-01-11 11:24:55.02	210.85	21.53	
2025-01-11 11:24:55.22	210.88	21.56	
2025-01-11 11:24:55.43	210.92	21.58	
2025-01-11 11:24:55.63	210.95	21.60	
2025-01-11 11:24:55.83	210.98	21.62	
2025-01-11 11:24:56.04	211.02	21.65	
2025-01-11 11:24:56.24	211.05	21.67	
2025-01-11 11:24:56.45	211.09	21.69	
2025-01-11 11:24:56.65	211.12	21.71	
2025-01-11 11:24:56.85	211.15	21.73	
2025-01-11 11:24:57.06	211.19	21.76	
2025-01-11 11:24:57.26	211.22	21.78	
2025-01-11 11:24:57.47	211.25	21.80	
2025-01-11 11:24:57.67	211.29	21.83	
2025-01-11 11:24:57.88	211.32	21.85	
2025-01-11 11:24:58.08	211.36	21.87	
2025-01-11 11:24:58.29	211.39	21.89	
2025-01-11 11:24:58.49	211.43	21.92	
2025-01-11 11:24:58.70	211.46	21.94	
2025-01-11 11:24:58.91	211.50	21.96	
2025-01-11 11:24:59.11	211.53	21.98	
2025-01-11 11:24:59.31	211.56	22.01	
2025-01-11 11:24:59.52	211.60	22.03	
2025-01-11 11:24:59.72	211.63	22.05	
2025-01-11 11:24:59.93	211.67	22.08	
2025-01-11 11:25:00.13	211.70	22.10	
2025-01-11 11:25:00.34	211.74	22.12	
2025-01-11 11:25:00.54	211.77	22.14	
2025-01-11 11:25:00.75	211.81	22.17	
2025-01-11 11:25:00.96	211.84	22.19	
2025-01-11 11:25:01.16	211.88	22.21	
2025-01-11 11:25:01.38	211.92	22.24	
2025-01-11 11:25:01.58	211.95	22.26	
2025-01-11 11:25:01.79	211.99	22.28	
2025-01-11 11:25:01.99	212.02	22.30	
2025-01-11 11:25:02.21	212.06	22.33	
2025-01-11 11:25:02.42	212.09	22.35	
2025-01-11 11:25:02.62	212.13	22.37	
2025-01-11 11:25:02.83	212.16	22.40	
2025-01-11 11:25:03.03	212.20	22.42	
2025-01-11 11:25:03.23	212.23	22.44	
2025-01-11 11:25:03.44	212.27	22.47	
2025-01-11 11:25:03.65	212.31	22.49	
2025-01-11 11:25:03.85	212.34	22.51	
2025-01-11 11:25:04.06	212.38	22.53	
2025-01-11 11:25:04.26	212.41	22.56	
2025-01-11 11:25:04.46	212.45	22.58	
2025-01-11 11:25:04.67	212.49	22.60	
2025-01-11 11:25:04.88	212.52	22.63	
2025-01-11 11:25:05.08	212.56	22.65	
2025-01-11 11:25:05.29	212.59	22.67	
2025-01-11 11:25:05.51	212.63	22.70	
2025-01-11 11:25:05.71	212.67	22.72	
2025-01-11 11:25:05.92	212.71	22.74	
2025-01-11 11:25:06.12	212.74	22.77	
2025-01-11 11:25:06.33	212.78	22.79	
2025-01-11 11:25:06.54	212.82	22.81	
2025-01-11 11:25:06.75	212.85	22.84	
2025-01-11 11:25:06.96	212.89	22.86	
2025-01-11 11:25:07.16	212.93	22.88	
2025-01-11 11:25:07.37	212.96	22.91	
2025-01-11 11:25:07.57	213.00	22.93	
2025-01-11 11:25:07.77	213.03	22.95	
2025-01-11 11:25:07.98	213.07	22.97	
2025-01-11 11:25:08.18	213.11	23.00	
2025-01-11 11:25:08.39	213.15	23.02	
2025-01-11 11:25:08.59	213.18	23.04	
2025-01-11 11:25:08.80	213.22	23.07	
2025-01-11 11:25:09.00	213.26	23.09	
2025-01-11 11:25:09.21	213.29	23.11	
2025-01-11 11:25:09.42	213.33	23.14	
2025-01-11 11:25:09.62	213.37	23.16	
2025-01-11 11:25:09.82	213.40	23.18	
2025-01-11 11:25:10.03	213.44	23.21	
2025-01-11 11:25:10.24	213.48	23.23	
2025-01-11 11:25:10.44	213.52	23.25	
2025-01-11 11:25:10.64	213.55	23.27	
2025-01-11 11:25:10.85	213.59	23.30	
2025-01-11 11:25:11.06	213.63	23.32	
2025-01-11 11:25:11.26	213.67	23.34	
2025-01-11 11:25:11.47	213.71	23.37	
2025-01-11 11:25:11.67	213.74	23.39	
2025-01-11 11:25:11.87	213.78	23.41	
2025-01-11 11:25:12.08	213.82	23.44	
2025-01-11 11:25:12.28	213.86	23.46	
2025-01-11 11:25:12.49	213.89	23.48	
2025-01-11 11:25:12.70	213.93	23.51	
2025-01-11 11:25:12.90	213.97	23.53	
2025-01-11 11:25:13.11	214.01	23.55	
2025-01-11 11:25:13.31	214.05	23.58	
2025-01-11 11:25:13.52	214.09	23.60	
2025-01-11 11:25:13.72	214.12	23.62	
2025-01-11 11:25:13.93	214.16	23.65	
2025-01-11 11:25:14.13	214.20	23.67	
2025-01-11 11:25:14.34	214.24	23.69	
2025-01-11 11:25:14.54	214.28	23.72	
2025-01-11 11:25:14.75	214.32	23.74	
2025-01-11 11:25:14.95	214.35	23.76	
2025-01-11 11:25:15.15	214.39	23.79	
2025-01-11 11:25:15.36	214.43	23.81	
2025-01-11 11:25:15.57	214.47	23.83	
2025-01-11 11:25:15.77	214.51	23.86	
2025-01-11 11:25:15.98	214.55	23.88	
2025-01-11 11:25:16.20	214.59	23.91	
2025-01-11 11:25:16.40	214.63	23.93	
2025-01-11 11:25:16.61	214.67	23.95	
2025-01-11 11:25:16.81	214.71	23.98	
2025-01-11 11:25:17.02	214.75	24.00	
2025-01-11 11:25:17.22	214.78	24.02	
2025-01-11 11:25:17.43	214.83	24.05	
2025-01-11 11:25:17.63	214.86	24.07	
2025-01-11 11:25:17.84	214.90	24.09	
2025-01-11 11:25:18.05	214.94	24.12	
2025-01-11 11:25:18.25	214.98	24.14	
2025-01-11 11:25:18.45	215.02	24.16	
2025-01-11 11:25:18.66	215.06	24.19	
2025-01-11 11:25:18.86	215.10	24.21	
2025-01-11 11:25:19.07	215.14	24.24	
2025-01-11 11:25:19.27	215.18	24.26	
2025-01-11 11:25:19.47	215.22	24.28	
2025-01-11 11:25:19.68	215.26	24.31	
2025-01-11 11:25:19.89	215.30	24.33	
2025-01-11 11:25:20.09	215.34	24.35	
2025-01-11 11:25:20.30	215.38	24.38	
2025-01-11 11:25:20.50	215.42	24.40	
2025-01-11 11:25:20.71	215.46	24.42	
2025-01-11 11:25:20.91	215.50	24.45	
2025-01-11 11:25:21.12	215.54	24.47	
2025-01-11 11:25:21.32	215.58	24.49	
2025-01-11 11:25:21.54	215.62	24.52	
2025-01-11 11:25:21.74	215.66	24.54	
2025-01-11 11:25:21.95	215.71	24.57	
2025-01-11 11:25:22.15	215.75	24.59	
2025-01-11 11:25:22.35	215.79	24.61	
2025-01-11 11:25:22.56	215.83	24.64	
2025-01-11 11:25:22.76	215.87	24.66	
2025-01-11 11:25:22.97	215.91	24.68	
2025-01-11 11:25:23.17	215.95	24.71	
2025-01-11 11:25:23.38	215.99	24.73	
2025-01-11 11:25:23.58	216.03	24.75	
2025-01-11 11:25:23.79	216.07	24.78	
2025-01-11 11:25:23.99	216.11	24.80	
2025-01-11 11:25:24.20	216.16	24.83	
2025-01-11 11:25:24.40	216.20	24.85	
2025-01-11 11:25:24.61	216.24	24.87	
2025-01-11 11:25:24.81	216.28	24.90	
2025-01-11 11:25:25.02	216.32	24.92	
2025-01-11 11:25:25.22	216.36	24.94	
2025-01-11 11:25:25.43	216.40	24.97	
2025-01-11 11:25:25.63	216.44	24.99	
2025-01-11 11:25:25.84	216.49	25.02	
2025-01-11 11:25:26.04	216.53	25.04	
2025-01-11 11:25:26.25	216.57	25.06	
2025-01-11 11:25:26.45	216.61	25.09	
2025-01-11 11:25:26.66	216.65	25.11	
2025-01-11 11:25:26.86	216.70	25.13	
2025-01-11 11:25:27.07	216.74	25.16	
2025-01-11 11:25:27.28	216.78	25.18	
2025-01-11 11:25:27.48	216.82	25.21	
2025-01-11 11:25:27.69	216.87	25.23	
2025-01-11 11:25:27.90	216.91	25.25	
2025-01-11 11:25:28.11	216.95	25.28	
2025-01-11 11:25:28.31	216.99	25.30	
2025-01-11 11:25:28.52	217.04	25.33	
2025-01-11 11:25:28.72	217.08	25.35	
2025-01-11 11:25:28.93	217.12	25.37	
2025-01-11 11:25:29.13	217.16	25.40	
2025-01-11 11:25:29.34	217.21	25.42	
2025-01-11 11:25:29.54	217.25	25.44	
2025-01-11 11:25:29.75	217.29	25.47	
2025-01-11 11:25:29.97	217.34	25.49	
2025-01-11 11:25:30.17	217.38	25.52	
2025-01-11 11:25:30.38	217.43	25.54	
2025-01-11 11:25:30.58	217.47	25.57	
2025-01-11 11:25:30.79	217.51	25.59	
2025-01-11 11:25:30.99	217.56	25.61	
2025-01-11 11:25:31.20	217.60	25.64	
2025-01-11 11:25:31.40	217.64	25.66	
2025-01-11 11:25:31.61	217.69	25.69	
2025-01-11 11:25:31.81	217.73	25.71	
2025-01-11 11:25:32.02	217.77	25.73	
2025-01-11 11:25:32.22	217.82	25.76	
2025-01-11 11:25:32.43	217.86	25.78	
2025-01-11 11:25:32.63	217.90	25.80	
2025-01-11 11:25:32.84	217.95	25.83	
2025-01-11 11:25:33.04	217.99	25.85	
2025-01-11 11:25:33.25	218.04	25.88	
2025-01-11 11:25:33.45	218.08	25.90	
2025-01-11 11:25:33.65	218.12	25.92	
2025-01-11 11:25:33.86	218.17	25.95	
2025-01-11 11:25:34.07	218.21	25.97	
2025-01-11 11:25:34.28	218.26	26.00	
2025-01-11 11:25:34.49	218.30	26.02	
2025-01-11 11:25:34.69	218.35	26.04	
2025-01-11 11:25:34.90	218.39	26.07	
2025-01-11 11:25:35.11	218.44	26.09	
2025-01-11 11:25:35.31	218.48	26.12	
2025-01-11 11:25:35.51	218.53	26.14	
2025-01-11 11:25:35.72	218.57	26.16	
2025-01-11 11:25:35.92	218.62	26.19	
2025-01-11 11:25:36.13	218.66	26.21	
2025-01-11 11:25:36.33	218.71	26.24	
2025-01-11 11:25:36.54	218.75	26.26	
2025-01-11 11:25:36.74	218.80	26.28	
2025-01-11 11:25:36.95	218.84	26.31	
2025-01-11 11:25:37.15	218.89	26.33	
2025-01-11 11:25:37.36	218.93	26.36	
2025-01-11 11:25:37.56	218.98	26.38	
2025-01-11 11:25:37.77	219.02	26.40	
2025-01-11 11:25:37.97	219.07	26.43	
2025-01-11 11:25:38.17	219.11	26.45	
2025-01-11 11:25:38.38	219.16	26.48	
2025-01-11 11:25:38.58	219.20	26.50	
2025-01-11 11:25:38.79	219.25	26.52	
2025-01-11 11:25:38.99	219.29	26.55	
2025-01-11 11:25:39.20	219.34	26.57	
2025-01-11 11:25:39.41	219.39	26.60	
2025-01-11 11:25:39.61	219.43	26.62	
2025-01-11 11:25:39.82	219.48	26.64	
2025-01-11 11:25:40.02	219.53	26.67	
2025-01-11 11:25:40.22	219.57	26.69	
2025-01-11 11:25:40.43	219.62	26.72	
2025-01-11 11:25:40.63	219.66	26.74	
2025-01-11 11:25:40.84	219.71	26.76	
2025-01-11 11:25:41.04	219.76	26.79	
2025-01-11 11:25:41.25	219.80	26.81	
2025-01-11 11:25:41.45	219.85	26.83	
2025-01-11 11:25:41.65	219.90	26.86	
2025-01-11 11:25:41.87	219.95	26.88	
2025-01-11 11:25:42.08	219.99	26.91	
2025-01-11 11:25:42.28	220.04	26.93	
2025-01-11 11:25:42.49	220.09	26.96	
2025-01-11 11:25:42.70	220.14	26.98	
2025-01-11 11:25:42.91	220.18	27.01	
2025-01-11 11:25:43.12	220.23	27.03	
2025-01-11 11:25:43.32	220.28	27.05	
2025-01-11 11:25:43.53	220.33	27.08	
2025-01-11 11:25:43.74	220.38	27.10	
2025-01-11 11:25:43.94	220.42	27.13	
2025-01-11 11:25:44.14	220.47	27.15	
2025-01-11 11:25:44.35	220.52	27.17	
2025-01-11 11:25:44.55	220.56	27.20	
2025-01-11 11:25:44.76	220.61	27.22	
2025-01-11 11:25:44.96	220.66	27.25	
2025-01-11 11:25:45.16	220.71	27.27	
2025-01-11 11:25:45.37	220.76	27.29	
2025-01-11 11:25:45.58	220.80	27.32	
2025-01-11 11:25:45.78	220.85	27.34	
2025-01-11 11:25:45.98	220.90	27.37	
2025-01-11 11:25:46.19	220.95	27.39	
2025-01-11 11:25:46.39	221.00	27.41	
2025-01-11 11:25:46.60	221.04	27.44	
2025-01-11 11:25:46.80	221.09	27.46	
2025-01-11 11:25:47.00	221.14	27.48	
2025-01-11 11:25:47.21	221.19	27.51	
2025-01-11 11:25:47.42	221.24	27.53	
2025-01-11 11:25:47.62	221.29	27.56	
2025-01-11 11:25:47.83	221.34	27.58	
2025-01-11 11:25:48.03	221.38	27.61	
2025-01-11 11:25:48.24	221.43	27.63	
2025-01-11 11:25:48.45	221.49	27.65	
2025-01-11 11:25:48.65	221.53	27.68	
2025-01-11 11:25:48.85	221.58	27.70	
2025-01-11 11:25:49.06	221.63	27.73	
2025-01-11 11:25:49.26	221.68	27.75	
2025-01-11 11:25:49.47	221.73	27.77	
2025-01-11 11:25:49.67	221.78	27.80	
2025-01-11 11:25:49.88	221.83	27.82	
2025-01-11 11:25:50.09	221.88	27.85	
2025-01-11 11:25:50.29	221.93	27.87	
2025-01-11 11:25:50.50	221.98	27.89	
2025-01-11 11:25:50.70	222.03	27.92	
2025-01-11 11:25:50.91	222.08	27.94	
2025-01-11 11:25:51.11	222.13	27.97	
2025-01-11 11:25:51.32	222.18	27.99	
2025-01-11 11:25:51.52	222.23	28.01	
2025-01-11 11:25:51.73	222.28	28.04	
2025-01-11 11:25:51.93	222.33	28.06	
2025-01-11 11:25:52.14	222.38	28.09	
2025-01-11 11:25:52.35	222.43	28.11	
2025-01-11 11:25:52.55	222.48	28.13	
2025-01-11 11:25:52.75	222.53	28.16	
2025-01-11 11:25:52.96	222.58	28.18	
2025-01-11 11:25:53.17	222.63	28.21	
2025-01-11 11:25:53.37	222.68	28.23	
2025-01-11 11:25:53.57	222.73	28.25	
2025-01-11 11:25:53.78	222.79	28.28	
2025-01-11 11:25:53.98	222.84	28.30	
2025-01-11 11:25:54.19	222.89	28.33	
2025-01-11 11:25:54.39	222.94	28.35	
2025-01-11 11:25:54.61	222.99	28.38	
2025-01-11 11:25:54.81	223.04	28.40	
2025-01-11 11:25:55.02	223.10	28.42	
2025-01-11 11:25:55.23	223.15	28.45	
2025-01-11 11:25:55.43	223.20	28.47	
2025-01-11 11:25:55.64	223.25	28.50	
2025-01-11 11:25:55.84	223.30	28.52	
2025-01-11 11:25:56.04	223.35	28.54	
2025-01-11 11:25:56.25	223.41	28.57	
2025-01-11 11:25:56.46	223.46	28.59	
2025-01-11 11:25:56.66	223.51	28.61	
2025-01-11 11:25:56.87	223.56	28.64	
2025-01-11 11:25:57.07	223.61	28.66	
2025-01-11 11:25:57.28	223.67	28.69	
2025-01-11 11:25:57.48	223.72	28.71	
2025-01-11 11:25:57.69	223.77	28.73	
2025-01-11 11:25:57.89	223.82	28.76	
2025-01-11 11:25:58.10	223.88	28.78	
2025-01-11 11:25:58.30	223.93	28.81	
2025-01-11 11:25:58.51	223.98	28.83	
2025-01-11 11:25:58.72	224.04	28.85	
2025-01-11 11:25:58.92	224.09	28.88	
2025-01-11 11:25:59.13	224.14	28.90	
2025-01-11 11:25:59.33	224.19	28.93	
2025-01-11 11:25:59.54	224.25	28.95	
2025-01-11 11:25:59.75	224.30	28.97	
2025-01-11 11:25:59.95	224.36	29.00	
2025-01-11 11:26:00.15	224.41	29.02	
2025-01-11 11:26:00.36	224.46	29.04	
2025-01-11 11:26:00.56	224.51	29.07	
2025-01-11 11:26:00.77	224.57	29.09	
2025-01-11 11:26:00.97	224.62	29.12	
2025-01-11 11:26:01.18	224.68	29.14	
2025-01-11 11:26:01.38	224.73	29.16	
2025-01-11 11:26:01.59	224.78	29.19	
2025-01-11 11:26:01.80	224.84	29.21	
2025-01-11 11:26:02.00	224.89	29.23	
2025-01-11 11:26:02.20	224.94	29.26	
2025-01-11 11:26:02.41	225.00	29.28	
2025-01-11 11:26:02.62	225.06	29.31	
2025-01-11 11:26:02.82	225.11	29.33	
2025-01-11 11:26:03.03	225.16	29.35	
2025-01-11 11:26:03.23	225.22	29.38	
2025-01-11 11:26:03.44	225.27	29.40	
2025-01-11 11:26:03.64	225.33	29.42	
2025-01-11 11:26:03.85	225.38	29.45	
2025-01-11 11:26:04.05	225.44	29.47	
2025-01-11 11:26:04.26	225.49	29.50	
2025-01-11 11:26:04.46	225.55	29.52	
2025-01-11 11:26:04.67	225.60	29.54	
2025-01-11 11:26:04.87	225.66	29.57	
2025-01-11 11:26:05.08	225.71	29.59	
2025-01-11 11:26:05.28	225.77	29.61	
2025-01-11 11:26:05.48	225.82	29.64	
2025-01-11 11:26:05.69	225.88	29.66	
2025-01-11 11:26:05.89	225.93	29.68	
2025-01-11 11:26:06.10	225.99	29.71	
2025-01-11 11:26:06.30	226.04	29.73	
2025-01-11 11:26:06.51	226.10	29.75	
2025-01-11 11:26:06.71	226.15	29.78	
2025-01-11 11:26:06.92	226.21	29.80	
2025-01-11 11:26:07.12	226.27	29.83	
2025-01-11 11:26:07.33	226.32	29.85	
2025-01-11 11:26:07.53	226.38	29.87	
2025-01-11 11:26:07.74	226.44	29.90	
2025-01-11 11:26:07.95	226.49	29.92	
2025-01-11 11:26:08.16	226.55	29.94	
2025-01-11 11:26:08.37	226.61	29.97	
2025-01-11 11:26:08.57	226.67	29.99	
2025-01-11 11:26:08.78	226.72	30.02	
2025-01-11 11:26:08.98	226.78	30.04	
2025-01-11 11:26:09.19	226.84	30.06	
2025-01-11 11:26:09.39	226.89	30.08	
2025-01-11 11:26:09.59	226.95	30.11	
2025-01-11 11:26:09.80	227.01	30.13	
2025-01-11 11:26:10.01	227.06	30.16	
2025-01-11 11:26:10.21	227.12	30.18	
2025-01-11 11:26:10.42	227.18	30.20	
2025-01-11 11:26:10.63	227.24	30.23	
2025-01-11 11:26:10.84	227.30	30.25	
2025-01-11 11:26:11.04	227.35	30.27	
2025-01-11 11:26:11.25	227.41	30.30	
2025-01-11 11:26:11.45	227.47	30.32	
2025-01-11 11:26:11.66	227.53	30.34	
2025-01-11 11:26:11.86	227.58	30.37	
2025-01-11 11:26:12.07	227.64	30.39	
2025-01-11 11:26:12.27	227.70	30.41	
2025-01-11 11:26:12.48	227.76	30.44	
2025-01-11 11:26:12.68	227.82	30.46	
2025-01-11 11:26:12.88	227.87	30.48	
2025-01-11 11:26:13.09	227.93	30.51	
2025-01-11 11:26:13.29	227.99	30.53	
2025-01-11 11:26:13.50	228.05	30.55	
2025-01-11 11:26:13.70	228.11	30.57	
2025-01-11 11:26:13.91	228.17	30.60	
2025-01-11 11:26:14.11	228.22	30.62	
2025-01-11 11:26:14.32	228.28	30.64	
2025-01-11 11:26:14.52	228.34	30.67	
2025-01-11 11:26:14.73	228.40	30.69	
2025-01-11 11:26:14.93	228.46	30.71	
2025-01-11 11:26:15.14	228.52	30.74	
2025-01-11 11:26:15.34	228.58	30.76	
2025-01-11 11:26:15.55	228.64	30.78	
2025-01-11 11:26:15.75	228.70	30.80	
2025-01-11 11:26:15.95	228.76	30.83	
2025-01-11 11:26:16.16	228.82	30.85	
2025-01-11 11:26:16.37	228.88	30.87	
2025-01-11 11:26:16.57	228.94	30.90	
2025-01-11 11:26:16.78	229.00	30.92	
2025-01-11 11:26:16.98	229.06	30.94	
2025-01-11 11:26:17.19	229.12	30.97	
2025-01-11 11:26:17.40	229.18	30.99	
2025-01-11 11:26:17.60	229.24	31.01	
2025-01-11 11:26:17.81	229.30	31.04	
2025-01-11 11:26:18.01	229.36	31.06	
2025-01-11 11:26:18.22	229.42	31.08	
2025-01-11 11:26:18.42	229.48	31.10	
2025-01-11 11:26:18.62	229.54	31.13	
2025-01-11 11:26:18.83	229.60	31.15	
2025-01-11 11:26:19.04	229.66	31.17	
2025-01-11 11:26:19.24	229.72	31.19	
2025-01-11 11:26:19.45	229.78	31.22	
2025-01-11 11:26:19.65	229.84	31.24	
2025-01-11 11:26:19.86	229.91	31.26	
2025-01-11 11:26:20.06	229.97	31.28	
2025-01-11 11:26:20.28	230.03	31.31	
2025-01-11 11:26:20.48	230.09	31.33	
2025-01-11 11:26:20.69	230.15	31.35	
2025-01-11 11:26:20.90	230.22	31.38	
2025-01-11 11:26:21.10	230.28	31.40	
2025-01-11 11:26:21.30	230.34	31.42	
2025-01-11 11:26:21.51	230.40	31.44	
2025-01-11 11:26:21.71	230.46	31.47	
2025-01-11 11:26:21.92	230.53	31.49	
2025-01-11 11:26:22.12	230.59	31.51	
2025-01-11 11:26:22.33	230.65	31.53	
2025-01-11 11:26:22.53	230.71	31.56	
2025-01-11 11:26:22.74	230.77	31.58	
2025-01-11 11:26:22.94	230.83	31.60	
2025-01-11 11:26:23.15	230.90	31.62	
2025-01-11 11:26:23.35	230.96	31.65	
2025-01-11 11:26:23.56	231.02	31.67	
2025-01-11 11:26:23.76	231.09	31.69	
2025-01-11 11:26:23.97	231.15	31.71	
2025-01-11 11:26:24.18	231.21	31.74	
2025-01-11 11:26:24.38	231.28	31.76	
2025-01-11 11:26:24.59	231.34	31.78	
2025-01-11 11:26:24.79	231.40	31.80	
2025-01-11 11:26:25.00	231.47	31.83	
2025-01-11 11:26:25.20	231.53	31.85	
2025-01-11 11:26:25.41	231.59	31.87	
2025-01-11 11:26:25.61	231.65	31.89	
2025-01-11 11:26:25.82	231.72	31.91	
2025-01-11 11:26:26.02	231.78	31.94	
2025-01-11 11:26:26.23	231.85	31.96	
2025-01-11 11:26:26.43	231.91	31.98	
2025-01-11 11:26:26.63	231.97	32.00	
2025-01-11 11:26:26.84	232.04	32.02	
2025-01-11 11:26:27.05	232.10	32.05	
2025-01-11 11:26:27.25	232.17	32.07	
2025-01-11 11:26:27.46	232.23	32.09	
2025-01-11 11:26:27.67	232.30	32.11	
2025-01-11 11:26:27.87	232.36	32.13	
2025-01-11 11:26:28.08	232.43	32.16	
2025-01-11 11:26:28.29	232.49	32.18	
2025-01-11 11:26:28.49	232.56	32.20	
2025-01-11 11:26:28.70	232.62	32.22	
2025-01-11 11:26:28.90	232.69	32.24	
2025-01-11 11:26:29.11	232.75	32.27	
2025-01-11 11:26:29.31	232.82	32.29	
2025-01-11 11:26:29.52	232.88	32.31	
2025-01-11 11:26:29.72	232.95	32.33	
2025-01-11 11:26:29.93	233.01	32.35	
2025-01-11 11:26:30.13	233.08	32.37	
2025-01-11 11:26:30.33	233.14	32.39	
2025-01-11 11:26:30.54	233.21	32.42	
2025-01-11 11:26:30.74	233.27	32.44	
2025-01-11 11:26:30.95	233.34	32.46	
2025-01-11 11:26:31.15	233.40	32.48	
2025-01-11 11:26:31.36	233.47	32.50	
2025-01-11 11:26:31.56	233.53	32.52	
2025-01-11 11:26:31.77	233.60	32.55	
2025-01-11 11:26:31.97	233.67	32.57	
2025-01-11 11:26:32.18	233.73	32.59	
2025-01-11 11:26:32.39	233.80	32.61	
2025-01-11 11:26:32.59	233.87	32.63	
2025-01-11 11:26:32.80	233.93	32.65	
2025-01-11 11:26:33.00	234.00	32.67	
2025-01-11 11:26:33.21	234.07	32.70	
2025-01-11 11:26:33.41	234.13	32.72	
2025-01-11 11:26:33.61	234.20	32.74	
2025-01-11 11:26:33.82	234.27	32.76	
2025-01-11 11:26:34.02	234.33	32.78	
2025-01-11 11:26:34.23	234.40	32.80	
2025-01-11 11:26:34.44	234.47	32.82	
2025-01-11 11:26:34.64	234.54	32.84	
2025-01-11 11:26:34.84	234.60	32.86	
2025-01-11 11:26:35.05	234.67	32.88	
2025-01-11 11:26:35.25	234.74	32.90	
2025-01-11 11:26:35.46	234.80	32.93	
2025-01-11 11:26:35.67	234.87	32.95	
2025-01-11 11:26:35.87	234.94	32.97	
2025-01-11 11:26:36.08	235.01	32.99	
2025-01-11 11:26:36.28	235.08	33.01	
2025-01-11 11:26:36.49	235.15	33.03	
2025-01-11 11:26:36.69	235.21	33.05	
2025-01-11 11:26:36.90	235.28	33.07	
2025-01-11 11:26:37.10	235.35	33.09	
2025-01-11 11:26:37.31	235.42	33.11	
2025-01-11 11:26:37.51	235.49	33.13	
2025-01-11 11:26:37.72	235.56	33.16	
2025-01-11 11:26:37.92	235.62	33.18	
2025-01-11 11:26:38.13	235.69	33.20	
2025-01-11 11:26:38.34	235.76	33.22	
2025-01-11 11:26:38.55	235.83	33.24	
2025-01-11 11:26:38.76	235.90	33.26	
2025-01-11 11:26:38.96	235.97	33.28	
2025-01-11 11:26:39.17	236.04	33.30	
2025-01-11 11:26:39.37	236.11	33.32	
2025-01-11 11:26:39.58	236.18	33.34	
2025-01-11 11:26:39.78	236.25	33.36	
2025-01-11 11:26:39.99	236.32	33.38	
2025-01-11 11:26:40.19	236.39	33.40	
2025-01-11 11:26:40.40	236.46	33.42	
2025-01-11 11:26:40.60	236.53	33.44	
2025-01-11 11:26:40.81	236.60	33.46	
2025-01-11 11:26:41.01	236.67	33.48	
2025-01-11 11:26:41.22	236.74	33.50	
2025-01-11 11:26:41.42	236.81	33.52	
2025-01-11 11:26:41.63	236.88	33.54	
2025-01-11 11:26:41.83	236.95	33.56	
2025-01-11 11:26:42.04	237.02	33.58	
2025-01-11 11:26:42.24	237.09	33.60	
2025-01-11 11:26:42.45	237.16	33.62	
2025-01-11 11:26:42.65	237.23	33.64	
2025-01-11 11:26:42.86	237.30	33.66	
2025-01-11 11:26:43.06	237.37	33.68	
2025-01-11 11:26:43.26	237.44	33.70	
2025-01-11 11:26:43.47	237.51	33.72	
2025-01-11 11:26:43.67	237.58	33.74	
2025-01-11 11:26:43.88	237.65	33.76	
2025-01-11 11:26:44.09	237.73	33.78	
2025-01-11 11:26:44.29	237.80	33.80	
2025-01-11 11:26:44.50	237.87	33.82	
2025-01-11 11:26:44.70	237.94	33.84	
2025-01-11 11:26:44.91	238.01	33.86	
2025-01-11 11:26:45.11	238.08	33.88	
2025-01-11 11:26:45.32	238.15	33.90	
2025-01-11 11:26:45.52	238.22	33.91	
2025-01-11 11:26:45.72	238.29	33.93	
2025-01-11 11:26:45.93	238.37	33.95	
2025-01-11 11:26:46.13	238.44	33.97	
2025-01-11 11:26:46.34	238.51	33.99	
2025-01-11 11:26:46.54	238.58	34.01	
2025-01-11 11:26:46.75	238.66	34.03	
2025-01-11 11:26:46.95	238.73	34.05	
2025-01-11 11:26:47.16	238.80	34.07	
2025-01-11 11:26:47.37	238.88	34.09	
2025-01-11 11:26:47.57	238.95	34.11	
2025-01-11 11:26:47.78	239.02	34.12	
2025-01-11 11:26:47.98	239.09	34.14	
2025-01-11 11:26:48.19	239.17	34.16	
2025-01-11 11:26:48.39	239.24	34.18	
2025-01-11 11:26:48.60	239.31	34.20	
2025-01-11 11:26:48.80	239.38	34.22	
2025-01-11 11:26:49.01	239.46	34.24	
2025-01-11 11:26:49.21	239.53	34.26	
2025-01-11 11:26:49.42	239.61	34.27	
2025-01-11 11:26:49.62	239.68	34.29	
2025-01-11 11:26:49.83	239.75	34.31	
2025-01-11 11:26:50.03	239.82	34.33	
2025-01-11 11:26:50.24	239.90	34.35	
2025-01-11 11:26:50.44	239.97	34.37	
2025-01-11 11:26:50.65	240.05	34.38	
2025-01-11 11:26:50.85	240.12	34.40	
2025-01-11 11:26:51.06	240.19	34.42	
2025-01-11 11:26:51.26	240.27	34.44	
2025-01-11 11:26:51.47	240.34	34.46	
2025-01-11 11:26:51.68	240.42	34.48	
2025-01-11 11:26:51.88	240.49	34.49	
2025-01-11 11:26:52.09	240.57	34.51	
2025-01-11 11:26:52.29	240.64	34.53	
2025-01-11 11:26:52.50	240.72	34.55	
2025-01-11 11:26:52.70	240.79	34.57	
2025-01-11 11:26:52.91	240.87	34.58	
2025-01-11 11:26:53.12	240.94	34.60	
2025-01-11 11:26:53.32	241.01	34.62	
2025-01-11 11:26:53.52	241.09	34.64	
2025-01-11 11:26:53.73	241.16	34.65	
2025-01-11 11:26:53.94	241.24	34.67	
2025-01-11 11:26:54.14	241.31	34.69	
2025-01-11 11:26:54.35	241.39	34.71	
2025-01-11 11:26:54.55	241.47	34.73	
2025-01-11 11:26:54.76	241.54	34.74	
2025-01-11 11:26:54.96	241.62	34.76	
2025-01-11 11:26:55.17	241.69	34.78	
2025-01-11 11:26:55.37	241.77	34.79	
2025-01-11 11:26:55.58	241.85	34.81	
2025-01-11 11:26:55.78	241.92	34.83	
2025-01-11 11:26:55.99	242.00	34.85	
2025-01-11 11:26:56.19	242.07	34.86	
2025-01-11 11:26:56.40	242.15	34.88	
2025-01-11 11:26:56.60	242.22	34.90	
2025-01-11 11:26:56.80	242.30	34.91	
2025-01-11 11:26:57.01	242.38	34.93	
2025-01-11 11:26:57.21	242.45	34.95	
2025-01-11 11:26:57.42	242.53	34.97	
2025-01-11 11:26:57.62	242.60	34.98	
2025-01-11 11:26:57.83	242.68	35.00	
2025-01-11 11:26:58.03	242.76	35.02	
2025-01-11 11:26:58.24	242.83	35.03	
2025-01-11 11:26:58.44	242.91	35.05	
2025-01-11 11:26:58.65	242.99	35.07	
2025-01-11 11:26:58.85	243.06	35.08	
2025-01-11 11:26:59.06	243.14	35.10	
2025-01-11 11:26:59.27	243.22	35.12	
2025-01-11 11:26:59.47	243.30	35.13	
2025-01-11 11:26:59.67	243.37	35.15	
2025-01-11 11:26:59.88	243.45	35.16	
2025-01-11 11:27:00.08	243.53	35.18	
2025-01-11 11:27:00.29	243.61	35.20	
2025-01-11 11:27:00.49	243.68	35.21	
2025-01-11 11:27:00.71	243.76	35.23	
2025-01-11 11:27:00.92	243.84	35.25	
2025-01-11 11:27:01.12	243.92	35.26	
2025-01-11 11:27:01.33	244.00	35.28	
2025-01-11 11:27:01.53	244.08	35.29	
