passes_logs/2025/01/11/SPB_Silybum_02/SPB_Silybum_02__20250111_130604_SUOMI_NPP_rec.log

#Pass ID: 20250111_130604_SUOMI NPP
#Satellite: SUOMI NPP
#Configuration: NPP
#Start time: 2025-01-11 13:06:02

#Version: 2.0.20230423
#Station: SPB_Silybum_02
#Location: 30.233357 lon 59.946436 lat
#TLE: 1 37849U 11061A   25010.83173011  .00000170  00000+0  10148-3 0  9996
#TLE: 2 37849  98.7441 311.8732 0001811  47.3940 312.7388 14.19536379684322

#Time	Az	El	Level	Level2	SNR	BER	Gain	Gain2
2025-01-11 13:06:04.96	253.36	4.03	
2025-01-11 13:06:05.16	253.39	4.03	
2025-01-11 13:06:05.37	253.42	4.04	
2025-01-11 13:06:05.58	253.44	4.05	
2025-01-11 13:06:05.79	253.47	4.06	
2025-01-11 13:06:06.00	253.50	4.06	
2025-01-11 13:06:06.20	253.52	4.07	
2025-01-11 13:06:06.41	253.55	4.08	
2025-01-11 13:06:06.61	253.57	4.08	
2025-01-11 13:06:06.82	253.60	4.09	
2025-01-11 13:06:07.02	253.63	4.10	
2025-01-11 13:06:07.23	253.65	4.11	
2025-01-11 13:06:07.43	253.68	4.11	
2025-01-11 13:06:07.64	253.71	4.12	
2025-01-11 13:06:07.84	253.73	4.13	
2025-01-11 13:06:08.05	253.76	4.13	
2025-01-11 13:06:08.25	253.79	4.14	
2025-01-11 13:06:08.45	253.81	4.15	
2025-01-11 13:06:08.66	253.84	4.15	
2025-01-11 13:06:08.86	253.86	4.16	
2025-01-11 13:06:09.07	253.89	4.17	
2025-01-11 13:06:09.27	253.92	4.17	
2025-01-11 13:06:09.48	253.94	4.18	
2025-01-11 13:06:09.68	253.97	4.19	
2025-01-11 13:06:09.89	254.00	4.20	
2025-01-11 13:06:10.09	254.02	4.20	
2025-01-11 13:06:10.30	254.05	4.21	
2025-01-11 13:06:10.50	254.07	4.22	
2025-01-11 13:06:10.71	254.10	4.22	
2025-01-11 13:06:10.91	254.13	4.23	
2025-01-11 13:06:11.11	254.15	4.24	
2025-01-11 13:06:11.32	254.18	4.24	
2025-01-11 13:06:11.52	254.21	4.25	
2025-01-11 13:06:11.73	254.23	4.26	
2025-01-11 13:06:11.94	254.26	4.27	
2025-01-11 13:06:12.14	254.29	4.27	
2025-01-11 13:06:12.34	254.31	4.28	
2025-01-11 13:06:12.55	254.34	4.29	
2025-01-11 13:06:12.75	254.37	4.29	
2025-01-11 13:06:12.96	254.39	4.30	
2025-01-11 13:06:13.18	254.42	4.31	
2025-01-11 13:06:13.38	254.45	4.31	
2025-01-11 13:06:13.59	254.47	4.32	
2025-01-11 13:06:13.79	254.50	4.33	
2025-01-11 13:06:14.00	254.53	4.33	
2025-01-11 13:06:14.20	254.55	4.34	
2025-01-11 13:06:14.41	254.58	4.35	
2025-01-11 13:06:14.61	254.61	4.36	
2025-01-11 13:06:14.82	254.63	4.36	
2025-01-11 13:06:15.02	254.66	4.37	
2025-01-11 13:06:15.22	254.69	4.38	
2025-01-11 13:06:15.43	254.71	4.38	
2025-01-11 13:06:15.63	254.74	4.39	
2025-01-11 13:06:15.84	254.77	4.40	
2025-01-11 13:06:16.05	254.80	4.40	
2025-01-11 13:06:16.25	254.82	4.41	
2025-01-11 13:06:16.45	254.85	4.42	
2025-01-11 13:06:16.66	254.87	4.42	
2025-01-11 13:06:16.87	254.90	4.43	
2025-01-11 13:06:17.07	254.93	4.44	
2025-01-11 13:06:17.28	254.96	4.45	
2025-01-11 13:06:17.48	254.98	4.45	
2025-01-11 13:06:17.69	255.01	4.46	
2025-01-11 13:06:17.89	255.04	4.47	
2025-01-11 13:06:18.09	255.06	4.47	
2025-01-11 13:06:18.30	255.09	4.48	
2025-01-11 13:06:18.51	255.12	4.49	
2025-01-11 13:06:18.71	255.14	4.49	
2025-01-11 13:06:18.92	255.17	4.50	
2025-01-11 13:06:19.12	255.20	4.51	
2025-01-11 13:06:19.32	255.22	4.51	
2025-01-11 13:06:19.52	255.25	4.52	
2025-01-11 13:06:19.74	255.28	4.53	
2025-01-11 13:06:19.94	255.31	4.53	
2025-01-11 13:06:20.15	255.33	4.54	
2025-01-11 13:06:20.35	255.36	4.55	
2025-01-11 13:06:20.56	255.39	4.55	
2025-01-11 13:06:20.76	255.41	4.56	
2025-01-11 13:06:20.96	255.44	4.57	
2025-01-11 13:06:21.17	255.47	4.57	
2025-01-11 13:06:21.37	255.49	4.58	
2025-01-11 13:06:21.57	255.52	4.59	
2025-01-11 13:06:21.79	255.55	4.59	
2025-01-11 13:06:22.00	255.58	4.60	
2025-01-11 13:06:22.21	255.61	4.61	
2025-01-11 13:06:22.42	255.63	4.62	
2025-01-11 13:06:22.62	255.66	4.62	
2025-01-11 13:06:22.82	255.69	4.63	
2025-01-11 13:06:23.03	255.71	4.64	
2025-01-11 13:06:23.23	255.74	4.64	
2025-01-11 13:06:23.44	255.77	4.65	
2025-01-11 13:06:23.64	255.80	4.66	
2025-01-11 13:06:23.86	255.82	4.66	
2025-01-11 13:06:24.06	255.85	4.67	
2025-01-11 13:06:24.27	255.88	4.68	
2025-01-11 13:06:24.47	255.91	4.68	
2025-01-11 13:06:24.68	255.93	4.69	
2025-01-11 13:06:24.88	255.96	4.70	
2025-01-11 13:06:25.09	255.99	4.70	
2025-01-11 13:06:25.29	256.01	4.71	
2025-01-11 13:06:25.49	256.04	4.72	
2025-01-11 13:06:25.70	256.07	4.72	
2025-01-11 13:06:25.90	256.10	4.73	
2025-01-11 13:06:26.11	256.12	4.74	
2025-01-11 13:06:26.31	256.15	4.74	
2025-01-11 13:06:26.52	256.18	4.75	
2025-01-11 13:06:26.72	256.21	4.76	
2025-01-11 13:06:26.93	256.23	4.76	
2025-01-11 13:06:27.15	256.26	4.77	
2025-01-11 13:06:27.35	256.29	4.78	
2025-01-11 13:06:27.56	256.32	4.78	
2025-01-11 13:06:27.77	256.35	4.79	
2025-01-11 13:06:27.97	256.37	4.80	
2025-01-11 13:06:28.18	256.40	4.80	
2025-01-11 13:06:28.38	256.43	4.81	
2025-01-11 13:06:28.59	256.46	4.82	
2025-01-11 13:06:28.79	256.48	4.82	
2025-01-11 13:06:29.00	256.51	4.83	
2025-01-11 13:06:29.20	256.54	4.84	
2025-01-11 13:06:29.41	256.57	4.84	
2025-01-11 13:06:29.61	256.59	4.85	
2025-01-11 13:06:29.82	256.62	4.86	
2025-01-11 13:06:30.02	256.65	4.86	
2025-01-11 13:06:30.23	256.68	4.87	
2025-01-11 13:06:30.43	256.70	4.88	
2025-01-11 13:06:30.63	256.73	4.88	
2025-01-11 13:06:30.84	256.76	4.89	
2025-01-11 13:06:31.05	256.79	4.90	
2025-01-11 13:06:31.25	256.81	4.90	
2025-01-11 13:06:31.45	256.84	4.91	
2025-01-11 13:06:31.66	256.87	4.92	
2025-01-11 13:06:31.86	256.90	4.92	
2025-01-11 13:06:32.07	256.92	4.93	
2025-01-11 13:06:32.27	256.95	4.94	
2025-01-11 13:06:32.49	256.98	4.94	
2025-01-11 13:06:32.70	257.01	4.95	
2025-01-11 13:06:32.90	257.04	4.96	
2025-01-11 13:06:33.11	257.07	4.96	
2025-01-11 13:06:33.31	257.09	4.97	
2025-01-11 13:06:33.52	257.12	4.98	
2025-01-11 13:06:33.72	257.15	4.98	
2025-01-11 13:06:33.93	257.18	4.99	
2025-01-11 13:06:34.13	257.20	5.00	
2025-01-11 13:06:34.34	257.23	5.00	
2025-01-11 13:06:34.54	257.26	5.01	
2025-01-11 13:06:34.75	257.29	5.02	
2025-01-11 13:06:34.95	257.32	5.02	
2025-01-11 13:06:35.16	257.34	5.03	
2025-01-11 13:06:35.36	257.37	5.04	
2025-01-11 13:06:35.56	257.40	5.04	
2025-01-11 13:06:35.77	257.43	5.05	
2025-01-11 13:06:35.98	257.46	5.06	
2025-01-11 13:06:36.18	257.48	5.06	
2025-01-11 13:06:36.39	257.51	5.07	
2025-01-11 13:06:36.59	257.54	5.07	
2025-01-11 13:06:36.79	257.57	5.08	
2025-01-11 13:06:37.00	257.59	5.09	
2025-01-11 13:06:37.21	257.62	5.09	
2025-01-11 13:06:37.41	257.65	5.10	
2025-01-11 13:06:37.61	257.68	5.11	
2025-01-11 13:06:37.82	257.71	5.11	
2025-01-11 13:06:38.02	257.73	5.12	
2025-01-11 13:06:38.23	257.76	5.13	
2025-01-11 13:06:38.43	257.79	5.13	
2025-01-11 13:06:38.64	257.82	5.14	
2025-01-11 13:06:38.84	257.85	5.15	
2025-01-11 13:06:39.05	257.88	5.15	
2025-01-11 13:06:39.25	257.90	5.16	
2025-01-11 13:06:39.46	257.93	5.16	
2025-01-11 13:06:39.66	257.96	5.17	
2025-01-11 13:06:39.86	257.99	5.18	
2025-01-11 13:06:40.07	258.02	5.18	
2025-01-11 13:06:40.27	258.04	5.19	
2025-01-11 13:06:40.48	258.07	5.20	
2025-01-11 13:06:40.69	258.10	5.20	
2025-01-11 13:06:40.89	258.13	5.21	
2025-01-11 13:06:41.09	258.16	5.22	
2025-01-11 13:06:41.30	258.19	5.22	
2025-01-11 13:06:41.50	258.21	5.23	
2025-01-11 13:06:41.71	258.24	5.24	
2025-01-11 13:06:41.92	258.27	5.24	
2025-01-11 13:06:42.12	258.30	5.25	
2025-01-11 13:06:42.32	258.33	5.25	
2025-01-11 13:06:42.53	258.35	5.26	
2025-01-11 13:06:42.73	258.38	5.27	
2025-01-11 13:06:42.94	258.41	5.27	
2025-01-11 13:06:43.16	258.44	5.28	
2025-01-11 13:06:43.36	258.47	5.29	
2025-01-11 13:06:43.57	258.50	5.29	
2025-01-11 13:06:43.78	258.53	5.30	
2025-01-11 13:06:43.98	258.56	5.31	
2025-01-11 13:06:44.18	258.58	5.31	
2025-01-11 13:06:44.39	258.61	5.32	
2025-01-11 13:06:44.59	258.64	5.32	
2025-01-11 13:06:44.80	258.67	5.33	
2025-01-11 13:06:45.00	258.70	5.34	
2025-01-11 13:06:45.21	258.73	5.34	
2025-01-11 13:06:45.42	258.76	5.35	
2025-01-11 13:06:45.62	258.78	5.36	
2025-01-11 13:06:45.83	258.81	5.36	
2025-01-11 13:06:46.03	258.84	5.37	
2025-01-11 13:06:46.24	258.87	5.38	
2025-01-11 13:06:46.44	258.90	5.38	
2025-01-11 13:06:46.65	258.93	5.39	
2025-01-11 13:06:46.85	258.95	5.39	
2025-01-11 13:06:47.06	258.98	5.40	
2025-01-11 13:06:47.27	259.01	5.41	
2025-01-11 13:06:47.47	259.04	5.41	
2025-01-11 13:06:47.67	259.07	5.42	
2025-01-11 13:06:47.88	259.10	5.43	
2025-01-11 13:06:48.09	259.13	5.43	
2025-01-11 13:06:48.29	259.16	5.44	
2025-01-11 13:06:48.50	259.18	5.44	
2025-01-11 13:06:48.70	259.21	5.45	
2025-01-11 13:06:48.91	259.24	5.46	
2025-01-11 13:06:49.11	259.27	5.46	
2025-01-11 13:06:49.32	259.30	5.47	
2025-01-11 13:06:49.52	259.33	5.48	
2025-01-11 13:06:49.73	259.36	5.48	
2025-01-11 13:06:49.93	259.39	5.49	
2025-01-11 13:06:50.14	259.41	5.49	
2025-01-11 13:06:50.34	259.44	5.50	
2025-01-11 13:06:50.54	259.47	5.51	
2025-01-11 13:06:50.75	259.50	5.51	
2025-01-11 13:06:50.96	259.53	5.52	
2025-01-11 13:06:51.16	259.56	5.53	
2025-01-11 13:06:51.37	259.59	5.53	
2025-01-11 13:06:51.57	259.62	5.54	
2025-01-11 13:06:51.78	259.65	5.54	
2025-01-11 13:06:51.98	259.67	5.55	
2025-01-11 13:06:52.19	259.70	5.56	
2025-01-11 13:06:52.39	259.73	5.56	
2025-01-11 13:06:52.60	259.76	5.57	
2025-01-11 13:06:52.80	259.79	5.58	
2025-01-11 13:06:53.01	259.82	5.58	
2025-01-11 13:06:53.21	259.85	5.59	
2025-01-11 13:06:53.41	259.88	5.59	
2025-01-11 13:06:53.62	259.90	5.60	
2025-01-11 13:06:53.82	259.93	5.61	
2025-01-11 13:06:54.03	259.96	5.61	
2025-01-11 13:06:54.24	259.99	5.62	
2025-01-11 13:06:54.44	260.02	5.62	
2025-01-11 13:06:54.65	260.05	5.63	
2025-01-11 13:06:54.86	260.08	5.64	
2025-01-11 13:06:55.07	260.11	5.64	
2025-01-11 13:06:55.28	260.14	5.65	
2025-01-11 13:06:55.48	260.17	5.66	
2025-01-11 13:06:55.69	260.20	5.66	
2025-01-11 13:06:55.89	260.23	5.67	
2025-01-11 13:06:56.10	260.26	5.67	
2025-01-11 13:06:56.30	260.28	5.68	
2025-01-11 13:06:56.51	260.31	5.69	
2025-01-11 13:06:56.71	260.34	5.69	
2025-01-11 13:06:56.93	260.37	5.70	
2025-01-11 13:06:57.14	260.40	5.70	
2025-01-11 13:06:57.34	260.43	5.71	
2025-01-11 13:06:57.55	260.46	5.72	
2025-01-11 13:06:57.75	260.49	5.72	
2025-01-11 13:06:57.96	260.52	5.73	
2025-01-11 13:06:58.16	260.55	5.73	
2025-01-11 13:06:58.37	260.58	5.74	
2025-01-11 13:06:58.57	260.61	5.75	
2025-01-11 13:06:58.78	260.64	5.75	
2025-01-11 13:06:58.98	260.67	5.76	
2025-01-11 13:06:59.19	260.70	5.76	
2025-01-11 13:06:59.39	260.72	5.77	
2025-01-11 13:06:59.60	260.75	5.78	
2025-01-11 13:06:59.81	260.78	5.78	
2025-01-11 13:07:00.01	260.81	5.79	
2025-01-11 13:07:00.21	260.84	5.79	
2025-01-11 13:07:00.42	260.87	5.80	
2025-01-11 13:07:00.62	260.90	5.81	
2025-01-11 13:07:00.83	260.93	5.81	
2025-01-11 13:07:01.03	260.96	5.82	
2025-01-11 13:07:01.24	260.99	5.82	
2025-01-11 13:07:01.44	261.02	5.83	
2025-01-11 13:07:01.65	261.05	5.84	
2025-01-11 13:07:01.85	261.08	5.84	
2025-01-11 13:07:02.06	261.11	5.85	
2025-01-11 13:07:02.28	261.14	5.85	
2025-01-11 13:07:02.48	261.17	5.86	
2025-01-11 13:07:02.69	261.20	5.87	
2025-01-11 13:07:02.89	261.23	5.87	
2025-01-11 13:07:03.10	261.26	5.88	
2025-01-11 13:07:03.30	261.29	5.88	
2025-01-11 13:07:03.51	261.32	5.89	
2025-01-11 13:07:03.71	261.34	5.90	
2025-01-11 13:07:03.92	261.37	5.90	
2025-01-11 13:07:04.12	261.40	5.91	
2025-01-11 13:07:04.33	261.43	5.91	
2025-01-11 13:07:04.53	261.46	5.92	
2025-01-11 13:07:04.73	261.49	5.93	
2025-01-11 13:07:04.94	261.52	5.93	
2025-01-11 13:07:05.14	261.55	5.94	
2025-01-11 13:07:05.35	261.58	5.94	
2025-01-11 13:07:05.55	261.61	5.95	
2025-01-11 13:07:05.76	261.64	5.95	
2025-01-11 13:07:05.96	261.67	5.96	
2025-01-11 13:07:06.17	261.70	5.97	
2025-01-11 13:07:06.37	261.73	5.97	
2025-01-11 13:07:06.59	261.76	5.98	
2025-01-11 13:07:06.80	261.79	5.98	
2025-01-11 13:07:07.00	261.82	5.99	
2025-01-11 13:07:07.21	261.85	6.00	
2025-01-11 13:07:07.41	261.88	6.00	
2025-01-11 13:07:07.61	261.91	6.01	
2025-01-11 13:07:07.82	261.94	6.01	
2025-01-11 13:07:08.02	261.97	6.02	
2025-01-11 13:07:08.23	262.00	6.03	
2025-01-11 13:07:08.43	262.03	6.03	
2025-01-11 13:07:08.64	262.06	6.04	
2025-01-11 13:07:08.84	262.09	6.04	
2025-01-11 13:07:09.05	262.12	6.05	
2025-01-11 13:07:09.25	262.15	6.05	
2025-01-11 13:07:09.46	262.18	6.06	
2025-01-11 13:07:09.66	262.21	6.07	
2025-01-11 13:07:09.87	262.24	6.07	
2025-01-11 13:07:10.08	262.27	6.08	
2025-01-11 13:07:10.28	262.30	6.08	
2025-01-11 13:07:10.49	262.33	6.09	
2025-01-11 13:07:10.69	262.36	6.09	
2025-01-11 13:07:10.91	262.39	6.10	
2025-01-11 13:07:11.12	262.42	6.11	
2025-01-11 13:07:11.32	262.45	6.11	
2025-01-11 13:07:11.53	262.48	6.12	
2025-01-11 13:07:11.73	262.51	6.12	
2025-01-11 13:07:11.94	262.54	6.13	
2025-01-11 13:07:12.14	262.57	6.13	
2025-01-11 13:07:12.35	262.60	6.14	
2025-01-11 13:07:12.55	262.63	6.15	
2025-01-11 13:07:12.76	262.66	6.15	
2025-01-11 13:07:12.96	262.69	6.16	
2025-01-11 13:07:13.17	262.72	6.16	
2025-01-11 13:07:13.37	262.75	6.17	
2025-01-11 13:07:13.58	262.78	6.17	
2025-01-11 13:07:13.78	262.81	6.18	
2025-01-11 13:07:13.99	262.84	6.19	
2025-01-11 13:07:14.19	262.87	6.19	
2025-01-11 13:07:14.40	262.90	6.20	
2025-01-11 13:07:14.60	262.93	6.20	
2025-01-11 13:07:14.81	262.96	6.21	
2025-01-11 13:07:15.01	262.99	6.21	
2025-01-11 13:07:15.23	263.02	6.22	
2025-01-11 13:07:15.44	263.05	6.23	
2025-01-11 13:07:15.64	263.08	6.23	
2025-01-11 13:07:15.85	263.11	6.24	
2025-01-11 13:07:16.05	263.14	6.24	
2025-01-11 13:07:16.27	263.18	6.25	
2025-01-11 13:07:16.47	263.21	6.25	
2025-01-11 13:07:16.68	263.24	6.26	
2025-01-11 13:07:16.89	263.27	6.27	
2025-01-11 13:07:17.09	263.30	6.27	
2025-01-11 13:07:17.30	263.33	6.28	
2025-01-11 13:07:17.50	263.36	6.28	
2025-01-11 13:07:17.71	263.39	6.29	
2025-01-11 13:07:17.91	263.42	6.29	
2025-01-11 13:07:18.12	263.45	6.30	
2025-01-11 13:07:18.32	263.48	6.30	
2025-01-11 13:07:18.53	263.51	6.31	
2025-01-11 13:07:18.73	263.54	6.31	
2025-01-11 13:07:18.94	263.57	6.32	
2025-01-11 13:07:19.14	263.60	6.33	
2025-01-11 13:07:19.35	263.63	6.33	
2025-01-11 13:07:19.55	263.66	6.34	
2025-01-11 13:07:19.76	263.69	6.34	
2025-01-11 13:07:19.97	263.72	6.35	
2025-01-11 13:07:20.17	263.75	6.35	
2025-01-11 13:07:20.38	263.78	6.36	
2025-01-11 13:07:20.58	263.81	6.36	
2025-01-11 13:07:20.79	263.84	6.37	
2025-01-11 13:07:20.99	263.87	6.38	
2025-01-11 13:07:21.20	263.91	6.38	
2025-01-11 13:07:21.40	263.94	6.39	
2025-01-11 13:07:21.61	263.97	6.39	
2025-01-11 13:07:21.81	264.00	6.40	
2025-01-11 13:07:22.02	264.03	6.40	
2025-01-11 13:07:22.22	264.06	6.41	
2025-01-11 13:07:22.43	264.09	6.41	
2025-01-11 13:07:22.63	264.12	6.42	
2025-01-11 13:07:22.84	264.15	6.42	
2025-01-11 13:07:23.04	264.18	6.43	
2025-01-11 13:07:23.25	264.21	6.43	
2025-01-11 13:07:23.45	264.24	6.44	
2025-01-11 13:07:23.66	264.27	6.45	
2025-01-11 13:07:23.86	264.30	6.45	
2025-01-11 13:07:24.07	264.33	6.46	
2025-01-11 13:07:24.27	264.36	6.46	
2025-01-11 13:07:24.48	264.40	6.47	
2025-01-11 13:07:24.68	264.43	6.47	
2025-01-11 13:07:24.89	264.46	6.48	
2025-01-11 13:07:25.09	264.49	6.48	
2025-01-11 13:07:25.30	264.52	6.49	
2025-01-11 13:07:25.50	264.55	6.49	
2025-01-11 13:07:25.71	264.58	6.50	
2025-01-11 13:07:25.91	264.61	6.50	
2025-01-11 13:07:26.12	264.64	6.51	
2025-01-11 13:07:26.32	264.67	6.52	
2025-01-11 13:07:26.53	264.70	6.52	
2025-01-11 13:07:26.73	264.73	6.53	
2025-01-11 13:07:26.94	264.76	6.53	
2025-01-11 13:07:27.14	264.79	6.54	
2025-01-11 13:07:27.35	264.83	6.54	
2025-01-11 13:07:27.55	264.86	6.55	
2025-01-11 13:07:27.76	264.89	6.55	
2025-01-11 13:07:27.96	264.92	6.56	
2025-01-11 13:07:28.17	264.95	6.56	
2025-01-11 13:07:28.37	264.98	6.57	
2025-01-11 13:07:28.58	265.01	6.57	
2025-01-11 13:07:28.79	265.04	6.58	
2025-01-11 13:07:28.99	265.07	6.58	
2025-01-11 13:07:29.19	265.10	6.59	
2025-01-11 13:07:29.40	265.13	6.59	
2025-01-11 13:07:29.60	265.16	6.60	
2025-01-11 13:07:29.81	265.20	6.60	
2025-01-11 13:07:30.01	265.23	6.61	
2025-01-11 13:07:30.21	265.26	6.61	
2025-01-11 13:07:30.42	265.29	6.62	
2025-01-11 13:07:30.62	265.32	6.62	
2025-01-11 13:07:30.83	265.35	6.63	
2025-01-11 13:07:31.03	265.38	6.64	
2025-01-11 13:07:31.24	265.41	6.64	
2025-01-11 13:07:31.44	265.44	6.65	
2025-01-11 13:07:31.65	265.47	6.65	
2025-01-11 13:07:31.85	265.50	6.66	
2025-01-11 13:07:32.06	265.54	6.66	
2025-01-11 13:07:32.26	265.57	6.67	
2025-01-11 13:07:32.47	265.60	6.67	
2025-01-11 13:07:32.67	265.63	6.68	
2025-01-11 13:07:32.88	265.66	6.68	
2025-01-11 13:07:33.08	265.69	6.69	
2025-01-11 13:07:33.29	265.72	6.69	
2025-01-11 13:07:33.49	265.75	6.70	
2025-01-11 13:07:33.71	265.79	6.70	
2025-01-11 13:07:33.92	265.82	6.71	
2025-01-11 13:07:34.12	265.85	6.71	
2025-01-11 13:07:34.32	265.88	6.72	
2025-01-11 13:07:34.53	265.91	6.72	
2025-01-11 13:07:34.73	265.94	6.73	
2025-01-11 13:07:34.94	265.97	6.73	
2025-01-11 13:07:35.14	266.00	6.74	
2025-01-11 13:07:35.35	266.04	6.74	
2025-01-11 13:07:35.55	266.07	6.75	
2025-01-11 13:07:35.76	266.10	6.75	
2025-01-11 13:07:35.97	266.13	6.76	
2025-01-11 13:07:36.17	266.16	6.76	
2025-01-11 13:07:36.38	266.19	6.77	
2025-01-11 13:07:36.58	266.22	6.77	
2025-01-11 13:07:36.79	266.26	6.78	
2025-01-11 13:07:36.99	266.29	6.78	
2025-01-11 13:07:37.20	266.32	6.79	
2025-01-11 13:07:37.40	266.35	6.79	
2025-01-11 13:07:37.62	266.38	6.80	
2025-01-11 13:07:37.83	266.41	6.80	
2025-01-11 13:07:38.03	266.45	6.81	
2025-01-11 13:07:38.24	266.48	6.81	
2025-01-11 13:07:38.44	266.51	6.82	
2025-01-11 13:07:38.66	266.54	6.82	
2025-01-11 13:07:38.87	266.57	6.83	
2025-01-11 13:07:39.07	266.60	6.83	
2025-01-11 13:07:39.28	266.64	6.84	
2025-01-11 13:07:39.48	266.67	6.84	
2025-01-11 13:07:39.69	266.70	6.85	
2025-01-11 13:07:39.89	266.73	6.85	
2025-01-11 13:07:40.10	266.76	6.86	
2025-01-11 13:07:40.31	266.80	6.86	
2025-01-11 13:07:40.51	266.83	6.87	
2025-01-11 13:07:40.72	266.86	6.87	
2025-01-11 13:07:40.92	266.89	6.88	
2025-01-11 13:07:41.13	266.92	6.88	
2025-01-11 13:07:41.33	266.95	6.89	
2025-01-11 13:07:41.54	266.98	6.89	
2025-01-11 13:07:41.75	267.02	6.90	
2025-01-11 13:07:41.95	267.05	6.90	
2025-01-11 13:07:42.15	267.08	6.91	
2025-01-11 13:07:42.36	267.11	6.91	
2025-01-11 13:07:42.56	267.14	6.92	
2025-01-11 13:07:42.77	267.17	6.92	
2025-01-11 13:07:42.97	267.20	6.93	
2025-01-11 13:07:43.18	267.24	6.93	
2025-01-11 13:07:43.38	267.27	6.94	
2025-01-11 13:07:43.59	267.30	6.94	
2025-01-11 13:07:43.79	267.33	6.94	
2025-01-11 13:07:44.01	267.36	6.95	
2025-01-11 13:07:44.21	267.40	6.95	
2025-01-11 13:07:44.42	267.43	6.96	
2025-01-11 13:07:44.63	267.46	6.96	
2025-01-11 13:07:44.83	267.49	6.97	
2025-01-11 13:07:45.03	267.52	6.97	
2025-01-11 13:07:45.24	267.55	6.98	
2025-01-11 13:07:45.45	267.59	6.98	
2025-01-11 13:07:45.65	267.62	6.99	
2025-01-11 13:07:45.86	267.65	6.99	
2025-01-11 13:07:46.06	267.68	7.00	
2025-01-11 13:07:46.27	267.71	7.00	
2025-01-11 13:07:46.47	267.75	7.01	
2025-01-11 13:07:46.68	267.78	7.01	
2025-01-11 13:07:46.89	267.81	7.02	
2025-01-11 13:07:47.09	267.84	7.02	
2025-01-11 13:07:47.29	267.87	7.03	
2025-01-11 13:07:47.50	267.91	7.03	
2025-01-11 13:07:47.70	267.94	7.03	
2025-01-11 13:07:47.91	267.97	7.04	
2025-01-11 13:07:48.11	268.00	7.04	
2025-01-11 13:07:48.32	268.03	7.05	
2025-01-11 13:07:48.52	268.06	7.05	
2025-01-11 13:07:48.73	268.10	7.06	
2025-01-11 13:07:48.93	268.13	7.06	
2025-01-11 13:07:49.14	268.16	7.07	
2025-01-11 13:07:49.34	268.19	7.07	
2025-01-11 13:07:49.55	268.22	7.08	
2025-01-11 13:07:49.75	268.26	7.08	
2025-01-11 13:07:49.96	268.29	7.09	
2025-01-11 13:07:50.16	268.32	7.09	
2025-01-11 13:07:50.38	268.35	7.10	
2025-01-11 13:07:50.59	268.39	7.10	
2025-01-11 13:07:50.79	268.42	7.10	
2025-01-11 13:07:51.00	268.45	7.11	
2025-01-11 13:07:51.20	268.48	7.11	
2025-01-11 13:07:51.41	268.51	7.12	
2025-01-11 13:07:51.61	268.55	7.12	
2025-01-11 13:07:51.82	268.58	7.13	
2025-01-11 13:07:52.02	268.61	7.13	
2025-01-11 13:07:52.23	268.64	7.14	
2025-01-11 13:07:52.43	268.67	7.14	
2025-01-11 13:07:52.64	268.71	7.15	
2025-01-11 13:07:52.84	268.74	7.15	
2025-01-11 13:07:53.05	268.77	7.15	
2025-01-11 13:07:53.26	268.80	7.16	
2025-01-11 13:07:53.46	268.83	7.16	
2025-01-11 13:07:53.68	268.87	7.17	
2025-01-11 13:07:53.88	268.90	7.17	
2025-01-11 13:07:54.09	268.93	7.18	
2025-01-11 13:07:54.29	268.96	7.18	
2025-01-11 13:07:54.50	269.00	7.19	
2025-01-11 13:07:54.70	269.03	7.19	
2025-01-11 13:07:54.91	269.06	7.19	
2025-01-11 13:07:55.11	269.09	7.20	
2025-01-11 13:07:55.32	269.13	7.20	
2025-01-11 13:07:55.52	269.16	7.21	
2025-01-11 13:07:55.73	269.19	7.21	
2025-01-11 13:07:55.93	269.22	7.22	
2025-01-11 13:07:56.14	269.26	7.22	
2025-01-11 13:07:56.34	269.29	7.22	
2025-01-11 13:07:56.55	269.32	7.23	
2025-01-11 13:07:56.75	269.35	7.23	
2025-01-11 13:07:56.96	269.38	7.24	
2025-01-11 13:07:57.16	269.42	7.24	
2025-01-11 13:07:57.37	269.45	7.25	
2025-01-11 13:07:57.57	269.48	7.25	
2025-01-11 13:07:57.78	269.51	7.26	
2025-01-11 13:07:57.98	269.54	7.26	
2025-01-11 13:07:58.19	269.58	7.26	
2025-01-11 13:07:58.39	269.61	7.27	
2025-01-11 13:07:58.60	269.64	7.27	
2025-01-11 13:07:58.81	269.68	7.28	
2025-01-11 13:07:59.02	269.71	7.28	
2025-01-11 13:07:59.23	269.74	7.29	
2025-01-11 13:07:59.43	269.77	7.29	
2025-01-11 13:07:59.64	269.81	7.29	
2025-01-11 13:07:59.84	269.84	7.30	
2025-01-11 13:08:00.05	269.87	7.30	
2025-01-11 13:08:00.25	269.90	7.31	
2025-01-11 13:08:00.46	269.94	7.31	
2025-01-11 13:08:00.67	269.97	7.32	
2025-01-11 13:08:00.88	270.00	7.32	
2025-01-11 13:08:01.08	270.03	7.32	
2025-01-11 13:08:01.29	270.07	7.33	
2025-01-11 13:08:01.49	270.10	7.33	
2025-01-11 13:08:01.70	270.13	7.34	
2025-01-11 13:08:01.91	270.17	7.34	
2025-01-11 13:08:02.12	270.20	7.35	
2025-01-11 13:08:02.33	270.23	7.35	
2025-01-11 13:08:02.53	270.26	7.35	
2025-01-11 13:08:02.74	270.30	7.36	
2025-01-11 13:08:02.94	270.33	7.36	
2025-01-11 13:08:03.14	270.36	7.37	
2025-01-11 13:08:03.35	270.39	7.37	
2025-01-11 13:08:03.55	270.43	7.37	
2025-01-11 13:08:03.76	270.46	7.38	
2025-01-11 13:08:03.97	270.49	7.38	
2025-01-11 13:08:04.17	270.52	7.39	
2025-01-11 13:08:04.37	270.56	7.39	
2025-01-11 13:08:04.58	270.59	7.39	
2025-01-11 13:08:04.79	270.62	7.40	
2025-01-11 13:08:05.00	270.66	7.40	
2025-01-11 13:08:05.21	270.69	7.41	
2025-01-11 13:08:05.41	270.72	7.41	
2025-01-11 13:08:05.62	270.76	7.42	
2025-01-11 13:08:05.82	270.79	7.42	
2025-01-11 13:08:06.03	270.82	7.42	
2025-01-11 13:08:06.23	270.85	7.43	
2025-01-11 13:08:06.44	270.89	7.43	
2025-01-11 13:08:06.64	270.92	7.44	
2025-01-11 13:08:06.85	270.95	7.44	
2025-01-11 13:08:07.05	270.98	7.44	
2025-01-11 13:08:07.26	271.02	7.45	
2025-01-11 13:08:07.47	271.05	7.45	
2025-01-11 13:08:07.68	271.08	7.46	
2025-01-11 13:08:07.89	271.12	7.46	
2025-01-11 13:08:08.09	271.15	7.46	
2025-01-11 13:08:08.30	271.18	7.47	
2025-01-11 13:08:08.50	271.21	7.47	
2025-01-11 13:08:08.71	271.25	7.48	
2025-01-11 13:08:08.91	271.28	7.48	
2025-01-11 13:08:09.12	271.31	7.48	
2025-01-11 13:08:09.32	271.35	7.49	
2025-01-11 13:08:09.54	271.38	7.49	
2025-01-11 13:08:09.75	271.41	7.50	
2025-01-11 13:08:09.95	271.45	7.50	
2025-01-11 13:08:10.16	271.48	7.50	
2025-01-11 13:08:10.36	271.51	7.51	
2025-01-11 13:08:10.57	271.55	7.51	
2025-01-11 13:08:10.77	271.58	7.51	
2025-01-11 13:08:10.98	271.61	7.52	
2025-01-11 13:08:11.18	271.64	7.52	
2025-01-11 13:08:11.39	271.68	7.53	
2025-01-11 13:08:11.59	271.71	7.53	
2025-01-11 13:08:11.80	271.74	7.53	
2025-01-11 13:08:12.01	271.78	7.54	
2025-01-11 13:08:12.21	271.81	7.54	
2025-01-11 13:08:12.42	271.84	7.55	
2025-01-11 13:08:12.62	271.87	7.55	
2025-01-11 13:08:12.84	271.91	7.55	
2025-01-11 13:08:13.05	271.94	7.56	
2025-01-11 13:08:13.25	271.98	7.56	
2025-01-11 13:08:13.46	272.01	7.56	
2025-01-11 13:08:13.67	272.04	7.57	
2025-01-11 13:08:13.87	272.08	7.57	
2025-01-11 13:08:14.07	272.11	7.58	
2025-01-11 13:08:14.28	272.14	7.58	
2025-01-11 13:08:14.49	272.18	7.58	
2025-01-11 13:08:14.69	272.21	7.59	
2025-01-11 13:08:14.89	272.24	7.59	
2025-01-11 13:08:15.10	272.27	7.59	
2025-01-11 13:08:15.30	272.31	7.60	
2025-01-11 13:08:15.51	272.34	7.60	
2025-01-11 13:08:15.71	272.37	7.61	
2025-01-11 13:08:15.92	272.41	7.61	
2025-01-11 13:08:16.12	272.44	7.61	
2025-01-11 13:08:16.34	272.47	7.62	
2025-01-11 13:08:16.54	272.51	7.62	
2025-01-11 13:08:16.75	272.54	7.62	
2025-01-11 13:08:16.95	272.57	7.63	
2025-01-11 13:08:17.16	272.61	7.63	
2025-01-11 13:08:17.36	272.64	7.63	
2025-01-11 13:08:17.57	272.67	7.64	
2025-01-11 13:08:17.77	272.70	7.64	
2025-01-11 13:08:17.98	272.74	7.65	
2025-01-11 13:08:18.18	272.77	7.65	
2025-01-11 13:08:18.39	272.80	7.65	
2025-01-11 13:08:18.59	272.84	7.66	
2025-01-11 13:08:18.80	272.87	7.66	
2025-01-11 13:08:19.01	272.90	7.66	
2025-01-11 13:08:19.21	272.94	7.67	
2025-01-11 13:08:19.42	272.97	7.67	
2025-01-11 13:08:19.62	273.00	7.67	
2025-01-11 13:08:19.83	273.04	7.68	
2025-01-11 13:08:20.03	273.07	7.68	
2025-01-11 13:08:20.24	273.10	7.68	
2025-01-11 13:08:20.44	273.14	7.69	
2025-01-11 13:08:20.65	273.17	7.69	
2025-01-11 13:08:20.86	273.20	7.70	
2025-01-11 13:08:21.06	273.24	7.70	
2025-01-11 13:08:21.26	273.27	7.70	
2025-01-11 13:08:21.47	273.30	7.71	
2025-01-11 13:08:21.67	273.34	7.71	
2025-01-11 13:08:21.88	273.37	7.71	
2025-01-11 13:08:22.09	273.40	7.72	
2025-01-11 13:08:22.29	273.44	7.72	
2025-01-11 13:08:22.49	273.47	7.72	
2025-01-11 13:08:22.70	273.50	7.73	
2025-01-11 13:08:22.90	273.54	7.73	
2025-01-11 13:08:23.11	273.57	7.73	
2025-01-11 13:08:23.31	273.60	7.74	
2025-01-11 13:08:23.53	273.64	7.74	
2025-01-11 13:08:23.74	273.67	7.74	
2025-01-11 13:08:23.94	273.71	7.75	
2025-01-11 13:08:24.15	273.74	7.75	
2025-01-11 13:08:24.35	273.77	7.75	
2025-01-11 13:08:24.56	273.81	7.76	
2025-01-11 13:08:24.76	273.84	7.76	
2025-01-11 13:08:24.97	273.87	7.76	
2025-01-11 13:08:25.17	273.91	7.77	
2025-01-11 13:08:25.38	273.94	7.77	
2025-01-11 13:08:25.58	273.97	7.77	
2025-01-11 13:08:25.79	274.01	7.78	
2025-01-11 13:08:25.99	274.04	7.78	
2025-01-11 13:08:26.20	274.07	7.78	
2025-01-11 13:08:26.40	274.11	7.79	
2025-01-11 13:08:26.61	274.14	7.79	
2025-01-11 13:08:26.81	274.17	7.79	
2025-01-11 13:08:27.02	274.21	7.80	
2025-01-11 13:08:27.23	274.24	7.80	
2025-01-11 13:08:27.43	274.27	7.80	
2025-01-11 13:08:27.63	274.31	7.81	
2025-01-11 13:08:27.84	274.34	7.81	
2025-01-11 13:08:28.04	274.37	7.81	
2025-01-11 13:08:28.25	274.41	7.82	
2025-01-11 13:08:28.46	274.44	7.82	
2025-01-11 13:08:28.66	274.48	7.82	
2025-01-11 13:08:28.88	274.51	7.83	
2025-01-11 13:08:29.08	274.54	7.83	
2025-01-11 13:08:29.29	274.58	7.83	
2025-01-11 13:08:29.50	274.61	7.84	
2025-01-11 13:08:29.70	274.65	7.84	
2025-01-11 13:08:29.92	274.68	7.84	
2025-01-11 13:08:30.13	274.72	7.85	
2025-01-11 13:08:30.33	274.75	7.85	
2025-01-11 13:08:30.54	274.78	7.85	
2025-01-11 13:08:30.74	274.82	7.85	
2025-01-11 13:08:30.95	274.85	7.86	
2025-01-11 13:08:31.15	274.88	7.86	
2025-01-11 13:08:31.36	274.92	7.86	
2025-01-11 13:08:31.56	274.95	7.87	
2025-01-11 13:08:31.77	274.98	7.87	
2025-01-11 13:08:31.97	275.02	7.87	
2025-01-11 13:08:32.18	275.05	7.88	
2025-01-11 13:08:32.38	275.08	7.88	
2025-01-11 13:08:32.59	275.12	7.88	
2025-01-11 13:08:32.79	275.15	7.89	
2025-01-11 13:08:33.00	275.19	7.89	
2025-01-11 13:08:33.20	275.22	7.89	
2025-01-11 13:08:33.41	275.25	7.89	
2025-01-11 13:08:33.61	275.29	7.90	
2025-01-11 13:08:33.82	275.32	7.90	
2025-01-11 13:08:34.02	275.35	7.90	
2025-01-11 13:08:34.23	275.39	7.91	
2025-01-11 13:08:34.43	275.42	7.91	
2025-01-11 13:08:34.64	275.46	7.91	
2025-01-11 13:08:34.84	275.49	7.91	
2025-01-11 13:08:35.05	275.52	7.92	
2025-01-11 13:08:35.25	275.56	7.92	
2025-01-11 13:08:35.46	275.59	7.92	
2025-01-11 13:08:35.66	275.62	7.93	
2025-01-11 13:08:35.87	275.66	7.93	
2025-01-11 13:08:36.07	275.69	7.93	
2025-01-11 13:08:36.28	275.73	7.94	
2025-01-11 13:08:36.48	275.76	7.94	
2025-01-11 13:08:36.68	275.79	7.94	
2025-01-11 13:08:36.89	275.83	7.94	
2025-01-11 13:08:37.10	275.86	7.95	
2025-01-11 13:08:37.32	275.90	7.95	
2025-01-11 13:08:37.52	275.93	7.95	
2025-01-11 13:08:37.72	275.96	7.96	
2025-01-11 13:08:37.93	276.00	7.96	
2025-01-11 13:08:38.13	276.03	7.96	
2025-01-11 13:08:38.34	276.07	7.96	
2025-01-11 13:08:38.54	276.10	7.97	
2025-01-11 13:08:38.75	276.13	7.97	
2025-01-11 13:08:38.96	276.17	7.97	
2025-01-11 13:08:39.16	276.20	7.98	
2025-01-11 13:08:39.36	276.23	7.98	
2025-01-11 13:08:39.57	276.27	7.98	
2025-01-11 13:08:39.77	276.30	7.98	
2025-01-11 13:08:39.98	276.34	7.99	
2025-01-11 13:08:40.18	276.37	7.99	
2025-01-11 13:08:40.39	276.40	7.99	
2025-01-11 13:08:40.59	276.44	7.99	
2025-01-11 13:08:40.80	276.47	8.00	
2025-01-11 13:08:41.00	276.50	8.00	
2025-01-11 13:08:41.21	276.54	8.00	
2025-01-11 13:08:41.41	276.57	8.01	
2025-01-11 13:08:41.62	276.61	8.01	
2025-01-11 13:08:41.82	276.64	8.01	
2025-01-11 13:08:42.03	276.68	8.01	
2025-01-11 13:08:42.23	276.71	8.02	
2025-01-11 13:08:42.44	276.74	8.02	
2025-01-11 13:08:42.64	276.78	8.02	
2025-01-11 13:08:42.84	276.81	8.02	
2025-01-11 13:08:43.05	276.84	8.03	
2025-01-11 13:08:43.25	276.88	8.03	
2025-01-11 13:08:43.46	276.91	8.03	
2025-01-11 13:08:43.66	276.95	8.03	
2025-01-11 13:08:43.87	276.98	8.04	
2025-01-11 13:08:44.07	277.01	8.04	
2025-01-11 13:08:44.28	277.05	8.04	
2025-01-11 13:08:44.48	277.08	8.04	
2025-01-11 13:08:44.68	277.11	8.05	
2025-01-11 13:08:44.89	277.15	8.05	
2025-01-11 13:08:45.09	277.18	8.05	
2025-01-11 13:08:45.30	277.22	8.05	
2025-01-11 13:08:45.50	277.25	8.06	
2025-01-11 13:08:45.71	277.29	8.06	
2025-01-11 13:08:45.91	277.32	8.06	
2025-01-11 13:08:46.12	277.35	8.06	
2025-01-11 13:08:46.33	277.39	8.07	
2025-01-11 13:08:46.53	277.42	8.07	
2025-01-11 13:08:46.74	277.46	8.07	
2025-01-11 13:08:46.94	277.49	8.07	
2025-01-11 13:08:47.14	277.52	8.08	
2025-01-11 13:08:47.35	277.56	8.08	
2025-01-11 13:08:47.56	277.59	8.08	
2025-01-11 13:08:47.76	277.63	8.08	
2025-01-11 13:08:47.96	277.66	8.09	
2025-01-11 13:08:48.17	277.69	8.09	
2025-01-11 13:08:48.37	277.73	8.09	
2025-01-11 13:08:48.58	277.76	8.09	
2025-01-11 13:08:48.78	277.80	8.10	
2025-01-11 13:08:48.98	277.83	8.10	
2025-01-11 13:08:49.19	277.86	8.10	
2025-01-11 13:08:49.40	277.90	8.10	
2025-01-11 13:08:49.60	277.93	8.11	
2025-01-11 13:08:49.81	277.97	8.11	
2025-01-11 13:08:50.02	278.00	8.11	
2025-01-11 13:08:50.22	278.04	8.11	
2025-01-11 13:08:50.42	278.07	8.11	
2025-01-11 13:08:50.63	278.10	8.12	
2025-01-11 13:08:50.83	278.14	8.12	
2025-01-11 13:08:51.04	278.17	8.12	
2025-01-11 13:08:51.24	278.21	8.12	
2025-01-11 13:08:51.45	278.24	8.13	
2025-01-11 13:08:51.65	278.27	8.13	
2025-01-11 13:08:51.86	278.31	8.13	
2025-01-11 13:08:52.06	278.34	8.13	
2025-01-11 13:08:52.27	278.38	8.14	
2025-01-11 13:08:52.47	278.41	8.14	
2025-01-11 13:08:52.68	278.45	8.14	
2025-01-11 13:08:52.89	278.48	8.14	
2025-01-11 13:08:53.09	278.51	8.14	
2025-01-11 13:08:53.31	278.55	8.15	
2025-01-11 13:08:53.51	278.58	8.15	
2025-01-11 13:08:53.72	278.62	8.15	
2025-01-11 13:08:53.92	278.65	8.15	
2025-01-11 13:08:54.13	278.69	8.16	
2025-01-11 13:08:54.33	278.72	8.16	
2025-01-11 13:08:54.54	278.76	8.16	
2025-01-11 13:08:54.74	278.79	8.16	
2025-01-11 13:08:54.95	278.83	8.16	
2025-01-11 13:08:55.15	278.86	8.17	
2025-01-11 13:08:55.36	278.89	8.17	
2025-01-11 13:08:55.56	278.93	8.17	
2025-01-11 13:08:55.77	278.96	8.17	
2025-01-11 13:08:55.97	279.00	8.17	
2025-01-11 13:08:56.18	279.03	8.18	
2025-01-11 13:08:56.38	279.06	8.18	
2025-01-11 13:08:56.59	279.10	8.18	
2025-01-11 13:08:56.79	279.13	8.18	
2025-01-11 13:08:57.00	279.17	8.18	
2025-01-11 13:08:57.20	279.20	8.19	
2025-01-11 13:08:57.41	279.24	8.19	
2025-01-11 13:08:57.62	279.27	8.19	
2025-01-11 13:08:57.83	279.31	8.19	
2025-01-11 13:08:58.03	279.34	8.19	
2025-01-11 13:08:58.24	279.38	8.20	
2025-01-11 13:08:58.44	279.41	8.20	
2025-01-11 13:08:58.65	279.44	8.20	
2025-01-11 13:08:58.85	279.48	8.20	
2025-01-11 13:08:59.06	279.51	8.20	
2025-01-11 13:08:59.26	279.55	8.21	
2025-01-11 13:08:59.47	279.58	8.21	
2025-01-11 13:08:59.67	279.62	8.21	
2025-01-11 13:08:59.88	279.65	8.21	
2025-01-11 13:09:00.08	279.68	8.21	
2025-01-11 13:09:00.29	279.72	8.22	
2025-01-11 13:09:00.49	279.75	8.22	
2025-01-11 13:09:00.69	279.79	8.22	
2025-01-11 13:09:00.90	279.82	8.22	
2025-01-11 13:09:01.10	279.86	8.22	
2025-01-11 13:09:01.31	279.89	8.23	
2025-01-11 13:09:01.51	279.92	8.23	
2025-01-11 13:09:01.72	279.96	8.23	
2025-01-11 13:09:01.92	279.99	8.23	
2025-01-11 13:09:02.13	280.03	8.23	
2025-01-11 13:09:02.33	280.06	8.23	
2025-01-11 13:09:02.54	280.10	8.24	
2025-01-11 13:09:02.74	280.13	8.24	
2025-01-11 13:09:02.95	280.17	8.24	
2025-01-11 13:09:03.15	280.20	8.24	
2025-01-11 13:09:03.36	280.24	8.24	
2025-01-11 13:09:03.56	280.27	8.25	
2025-01-11 13:09:03.77	280.30	8.25	
2025-01-11 13:09:03.97	280.34	8.25	
2025-01-11 13:09:04.18	280.37	8.25	
2025-01-11 13:09:04.38	280.41	8.25	
2025-01-11 13:09:04.59	280.44	8.25	
2025-01-11 13:09:04.79	280.48	8.26	
2025-01-11 13:09:05.01	280.51	8.26	
2025-01-11 13:09:05.22	280.55	8.26	
2025-01-11 13:09:05.42	280.58	8.26	
2025-01-11 13:09:05.63	280.62	8.26	
2025-01-11 13:09:05.83	280.65	8.26	
2025-01-11 13:09:06.04	280.69	8.27	
2025-01-11 13:09:06.25	280.72	8.27	
2025-01-11 13:09:06.45	280.76	8.27	
2025-01-11 13:09:06.66	280.79	8.27	
2025-01-11 13:09:06.86	280.82	8.27	
2025-01-11 13:09:07.06	280.86	8.27	
2025-01-11 13:09:07.27	280.89	8.28	
2025-01-11 13:09:07.47	280.93	8.28	
2025-01-11 13:09:07.68	280.96	8.28	
2025-01-11 13:09:07.88	281.00	8.28	
2025-01-11 13:09:08.08	281.03	8.28	
2025-01-11 13:09:08.29	281.07	8.28	
2025-01-11 13:09:08.50	281.10	8.29	
2025-01-11 13:09:08.70	281.13	8.29	
2025-01-11 13:09:08.91	281.17	8.29	
2025-01-11 13:09:09.11	281.20	8.29	
2025-01-11 13:09:09.31	281.24	8.29	
2025-01-11 13:09:09.52	281.27	8.29	
2025-01-11 13:09:09.73	281.31	8.29	
2025-01-11 13:09:09.93	281.34	8.30	
2025-01-11 13:09:10.14	281.38	8.30	
2025-01-11 13:09:10.34	281.41	8.30	
2025-01-11 13:09:10.54	281.44	8.30	
2025-01-11 13:09:10.75	281.48	8.30	
2025-01-11 13:09:10.96	281.52	8.30	
2025-01-11 13:09:11.16	281.55	8.30	
2025-01-11 13:09:11.37	281.58	8.31	
2025-01-11 13:09:11.57	281.62	8.31	
2025-01-11 13:09:11.78	281.65	8.31	
2025-01-11 13:09:11.98	281.69	8.31	
2025-01-11 13:09:12.19	281.72	8.31	
2025-01-11 13:09:12.39	281.76	8.31	
2025-01-11 13:09:12.59	281.79	8.31	
2025-01-11 13:09:12.80	281.83	8.32	
2025-01-11 13:09:13.01	281.86	8.32	
2025-01-11 13:09:13.21	281.89	8.32	
2025-01-11 13:09:13.42	281.93	8.32	
2025-01-11 13:09:13.62	281.96	8.32	
2025-01-11 13:09:13.82	282.00	8.32	
2025-01-11 13:09:14.03	282.03	8.32	
2025-01-11 13:09:14.24	282.07	8.33	
2025-01-11 13:09:14.44	282.10	8.33	
2025-01-11 13:09:14.66	282.14	8.33	
2025-01-11 13:09:14.86	282.17	8.33	
2025-01-11 13:09:15.07	282.21	8.33	
2025-01-11 13:09:15.27	282.24	8.33	
2025-01-11 13:09:15.48	282.28	8.33	
2025-01-11 13:09:15.69	282.31	8.33	
2025-01-11 13:09:15.90	282.35	8.34	
2025-01-11 13:09:16.10	282.38	8.34	
2025-01-11 13:09:16.31	282.42	8.34	
2025-01-11 13:09:16.51	282.45	8.34	
2025-01-11 13:09:16.72	282.49	8.34	
2025-01-11 13:09:16.92	282.52	8.34	
2025-01-11 13:09:17.13	282.56	8.34	
2025-01-11 13:09:17.33	282.59	8.34	
2025-01-11 13:09:17.54	282.63	8.34	
2025-01-11 13:09:17.74	282.66	8.35	
2025-01-11 13:09:17.95	282.70	8.35	
2025-01-11 13:09:18.15	282.73	8.35	
2025-01-11 13:09:18.36	282.77	8.35	
2025-01-11 13:09:18.56	282.80	8.35	
2025-01-11 13:09:18.77	282.83	8.35	
2025-01-11 13:09:18.97	282.87	8.35	
2025-01-11 13:09:19.18	282.90	8.35	
2025-01-11 13:09:19.38	282.94	8.35	
2025-01-11 13:09:19.59	282.97	8.36	
2025-01-11 13:09:19.79	283.01	8.36	
2025-01-11 13:09:20.00	283.04	8.36	
2025-01-11 13:09:20.20	283.08	8.36	
2025-01-11 13:09:20.41	283.11	8.36	
2025-01-11 13:09:20.61	283.15	8.36	
2025-01-11 13:09:20.82	283.18	8.36	
2025-01-11 13:09:21.02	283.22	8.36	
2025-01-11 13:09:21.23	283.25	8.36	
2025-01-11 13:09:21.43	283.29	8.37	
2025-01-11 13:09:21.64	283.32	8.37	
2025-01-11 13:09:21.84	283.35	8.37	
2025-01-11 13:09:22.04	283.39	8.37	
2025-01-11 13:09:22.25	283.42	8.37	
2025-01-11 13:09:22.45	283.46	8.37	
2025-01-11 13:09:22.66	283.49	8.37	
2025-01-11 13:09:22.86	283.53	8.37	
2025-01-11 13:09:23.07	283.56	8.37	
2025-01-11 13:09:23.27	283.60	8.37	
2025-01-11 13:09:23.48	283.63	8.37	
2025-01-11 13:09:23.69	283.67	8.38	
2025-01-11 13:09:23.89	283.70	8.38	
2025-01-11 13:09:24.10	283.74	8.38	
2025-01-11 13:09:24.30	283.77	8.38	
2025-01-11 13:09:24.51	283.81	8.38	
2025-01-11 13:09:24.71	283.84	8.38	
2025-01-11 13:09:24.92	283.88	8.38	
2025-01-11 13:09:25.12	283.91	8.38	
2025-01-11 13:09:25.33	283.95	8.38	
2025-01-11 13:09:25.53	283.98	8.38	
2025-01-11 13:09:25.74	284.02	8.38	
2025-01-11 13:09:25.94	284.05	8.38	
2025-01-11 13:09:26.15	284.09	8.39	
2025-01-11 13:09:26.35	284.12	8.39	
2025-01-11 13:09:26.56	284.15	8.39	
2025-01-11 13:09:26.76	284.19	8.39	
2025-01-11 13:09:26.97	284.22	8.39	
2025-01-11 13:09:27.17	284.26	8.39	
2025-01-11 13:09:27.37	284.29	8.39	
2025-01-11 13:09:27.58	284.33	8.39	
2025-01-11 13:09:27.79	284.36	8.39	
2025-01-11 13:09:27.99	284.40	8.39	
2025-01-11 13:09:28.20	284.43	8.39	
2025-01-11 13:09:28.41	284.47	8.39	
2025-01-11 13:09:28.61	284.50	8.39	
2025-01-11 13:09:28.81	284.54	8.39	
2025-01-11 13:09:29.02	284.57	8.40	
2025-01-11 13:09:29.22	284.61	8.40	
2025-01-11 13:09:29.43	284.64	8.40	
2025-01-11 13:09:29.65	284.68	8.40	
2025-01-11 13:09:29.85	284.71	8.40	
2025-01-11 13:09:30.06	284.75	8.40	
2025-01-11 13:09:30.26	284.78	8.40	
2025-01-11 13:09:30.47	284.82	8.40	
2025-01-11 13:09:30.67	284.85	8.40	
2025-01-11 13:09:30.87	284.89	8.40	
2025-01-11 13:09:31.08	284.92	8.40	
2025-01-11 13:09:31.28	284.96	8.40	
2025-01-11 13:09:31.49	284.99	8.40	
2025-01-11 13:09:31.69	285.03	8.40	
2025-01-11 13:09:31.90	285.06	8.40	
2025-01-11 13:09:32.10	285.09	8.40	
2025-01-11 13:09:32.31	285.13	8.40	
2025-01-11 13:09:32.51	285.16	8.40	
2025-01-11 13:09:32.72	285.20	8.41	
2025-01-11 13:09:32.92	285.23	8.41	
2025-01-11 13:09:33.13	285.27	8.41	
2025-01-11 13:09:33.33	285.30	8.41	
2025-01-11 13:09:33.54	285.34	8.41	
2025-01-11 13:09:33.75	285.37	8.41	
2025-01-11 13:09:33.95	285.41	8.41	
2025-01-11 13:09:34.15	285.44	8.41	
2025-01-11 13:09:34.36	285.48	8.41	
2025-01-11 13:09:34.56	285.51	8.41	
2025-01-11 13:09:34.77	285.55	8.41	
2025-01-11 13:09:34.97	285.58	8.41	
2025-01-11 13:09:35.18	285.62	8.41	
2025-01-11 13:09:35.38	285.65	8.41	
2025-01-11 13:09:35.59	285.69	8.41	
2025-01-11 13:09:35.79	285.72	8.41	
2025-01-11 13:09:36.00	285.76	8.41	
2025-01-11 13:09:36.20	285.79	8.41	
2025-01-11 13:09:36.41	285.83	8.41	
2025-01-11 13:09:36.61	285.86	8.41	
2025-01-11 13:09:36.82	285.90	8.41	
2025-01-11 13:09:37.02	285.93	8.41	
2025-01-11 13:09:37.22	285.96	8.41	
2025-01-11 13:09:37.43	286.00	8.41	
2025-01-11 13:09:37.63	286.03	8.41	
2025-01-11 13:09:37.84	286.07	8.41	
2025-01-11 13:09:38.04	286.10	8.42	
2025-01-11 13:09:38.25	286.14	8.42	
2025-01-11 13:09:38.45	286.17	8.42	
2025-01-11 13:09:38.66	286.21	8.42	
2025-01-11 13:09:38.86	286.24	8.42	
2025-01-11 13:09:39.07	286.28	8.42	
2025-01-11 13:09:39.27	286.31	8.42	
2025-01-11 13:09:39.47	286.35	8.42	
2025-01-11 13:09:39.68	286.38	8.42	
2025-01-11 13:09:39.88	286.42	8.42	
2025-01-11 13:09:40.09	286.45	8.42	
2025-01-11 13:09:40.29	286.49	8.42	
2025-01-11 13:09:40.50	286.52	8.42	
2025-01-11 13:09:40.70	286.56	8.42	
2025-01-11 13:09:40.91	286.59	8.42	
2025-01-11 13:09:41.11	286.62	8.42	
2025-01-11 13:09:41.31	286.66	8.42	
2025-01-11 13:09:41.52	286.69	8.42	
2025-01-11 13:09:41.73	286.73	8.42	
2025-01-11 13:09:41.93	286.76	8.42	
2025-01-11 13:09:42.14	286.80	8.42	
2025-01-11 13:09:42.34	286.83	8.42	
2025-01-11 13:09:42.54	286.87	8.42	
2025-01-11 13:09:42.75	286.90	8.42	
2025-01-11 13:09:42.95	286.94	8.42	
2025-01-11 13:09:43.16	286.97	8.42	
2025-01-11 13:09:43.36	287.01	8.42	
2025-01-11 13:09:43.57	287.04	8.42	
2025-01-11 13:09:43.77	287.08	8.42	
2025-01-11 13:09:43.98	287.11	8.42	
2025-01-11 13:09:44.18	287.15	8.42	
2025-01-11 13:09:44.39	287.18	8.42	
2025-01-11 13:09:44.59	287.22	8.42	
2025-01-11 13:09:44.79	287.25	8.42	
2025-01-11 13:09:45.00	287.29	8.42	
2025-01-11 13:09:45.21	287.32	8.42	
2025-01-11 13:09:45.41	287.36	8.42	
2025-01-11 13:09:45.61	287.39	8.42	
2025-01-11 13:09:45.82	287.43	8.42	
2025-01-11 13:09:46.03	287.46	8.42	
2025-01-11 13:09:46.23	287.49	8.42	
2025-01-11 13:09:46.44	287.53	8.42	
2025-01-11 13:09:46.64	287.56	8.42	
2025-01-11 13:09:46.84	287.60	8.42	
2025-01-11 13:09:47.05	287.63	8.42	
2025-01-11 13:09:47.26	287.67	8.42	
2025-01-11 13:09:47.46	287.70	8.42	
2025-01-11 13:09:47.67	287.74	8.42	
2025-01-11 13:09:47.87	287.77	8.42	
2025-01-11 13:09:48.07	287.81	8.42	
2025-01-11 13:09:48.28	287.84	8.42	
2025-01-11 13:09:48.48	287.88	8.42	
2025-01-11 13:09:48.69	287.91	8.42	
2025-01-11 13:09:48.91	287.95	8.42	
2025-01-11 13:09:49.11	287.98	8.42	
2025-01-11 13:09:49.32	288.02	8.42	
2025-01-11 13:09:49.52	288.05	8.41	
2025-01-11 13:09:49.73	288.09	8.41	
2025-01-11 13:09:49.93	288.12	8.41	
2025-01-11 13:09:50.13	288.16	8.41	
2025-01-11 13:09:50.34	288.19	8.41	
2025-01-11 13:09:50.54	288.23	8.41	
2025-01-11 13:09:50.75	288.26	8.41	
2025-01-11 13:09:50.97	288.30	8.41	
2025-01-11 13:09:51.17	288.33	8.41	
2025-01-11 13:09:51.38	288.37	8.41	
2025-01-11 13:09:51.58	288.40	8.41	
2025-01-11 13:09:51.79	288.44	8.41	
2025-01-11 13:09:51.99	288.47	8.41	
2025-01-11 13:09:52.20	288.51	8.41	
2025-01-11 13:09:52.40	288.54	8.41	
2025-01-11 13:09:52.61	288.58	8.41	
2025-01-11 13:09:52.82	288.61	8.41	
2025-01-11 13:09:53.02	288.65	8.41	
2025-01-11 13:09:53.22	288.68	8.41	
2025-01-11 13:09:53.43	288.72	8.41	
2025-01-11 13:09:53.63	288.75	8.41	
2025-01-11 13:09:53.84	288.79	8.41	
2025-01-11 13:09:54.05	288.82	8.41	
2025-01-11 13:09:54.25	288.86	8.41	
2025-01-11 13:09:54.45	288.89	8.41	
2025-01-11 13:09:54.66	288.93	8.41	
2025-01-11 13:09:54.86	288.96	8.40	
2025-01-11 13:09:55.07	289.00	8.40	
2025-01-11 13:09:55.27	289.03	8.40	
2025-01-11 13:09:55.48	289.07	8.40	
2025-01-11 13:09:55.69	289.10	8.40	
2025-01-11 13:09:55.89	289.13	8.40	
2025-01-11 13:09:56.09	289.17	8.40	
2025-01-11 13:09:56.30	289.20	8.40	
2025-01-11 13:09:56.50	289.24	8.40	
2025-01-11 13:09:56.71	289.27	8.40	
2025-01-11 13:09:56.91	289.31	8.40	
2025-01-11 13:09:57.12	289.34	8.40	
2025-01-11 13:09:57.32	289.38	8.40	
2025-01-11 13:09:57.53	289.41	8.40	
2025-01-11 13:09:57.73	289.45	8.40	
2025-01-11 13:09:57.94	289.48	8.40	
2025-01-11 13:09:58.14	289.52	8.40	
2025-01-11 13:09:58.35	289.55	8.40	
2025-01-11 13:09:58.55	289.59	8.39	
2025-01-11 13:09:58.76	289.62	8.39	
2025-01-11 13:09:58.96	289.66	8.39	
2025-01-11 13:09:59.17	289.69	8.39	
2025-01-11 13:09:59.38	289.73	8.39	
2025-01-11 13:09:59.58	289.76	8.39	
2025-01-11 13:09:59.79	289.80	8.39	
2025-01-11 13:09:59.99	289.83	8.39	
2025-01-11 13:10:00.19	289.86	8.39	
2025-01-11 13:10:00.40	289.90	8.39	
2025-01-11 13:10:00.60	289.93	8.39	
2025-01-11 13:10:00.81	289.97	8.39	
2025-01-11 13:10:01.01	290.00	8.39	
2025-01-11 13:10:01.22	290.04	8.39	
2025-01-11 13:10:01.42	290.07	8.38	
2025-01-11 13:10:01.63	290.11	8.38	
2025-01-11 13:10:01.83	290.14	8.38	
2025-01-11 13:10:02.04	290.18	8.38	
2025-01-11 13:10:02.24	290.21	8.38	
2025-01-11 13:10:02.45	290.25	8.38	
2025-01-11 13:10:02.65	290.28	8.38	
2025-01-11 13:10:02.85	290.31	8.38	
2025-01-11 13:10:03.06	290.35	8.38	
2025-01-11 13:10:03.26	290.38	8.38	
2025-01-11 13:10:03.47	290.42	8.38	
2025-01-11 13:10:03.67	290.45	8.38	
2025-01-11 13:10:03.88	290.49	8.37	
2025-01-11 13:10:04.08	290.52	8.37	
2025-01-11 13:10:04.29	290.56	8.37	
2025-01-11 13:10:04.49	290.59	8.37	
2025-01-11 13:10:04.70	290.63	8.37	
2025-01-11 13:10:04.90	290.66	8.37	
2025-01-11 13:10:05.11	290.70	8.37	
2025-01-11 13:10:05.31	290.73	8.37	
2025-01-11 13:10:05.52	290.77	8.37	
2025-01-11 13:10:05.73	290.80	8.37	
2025-01-11 13:10:05.93	290.84	8.37	
2025-01-11 13:10:06.14	290.87	8.36	
2025-01-11 13:10:06.34	290.91	8.36	
2025-01-11 13:10:06.55	290.94	8.36	
2025-01-11 13:10:06.75	290.97	8.36	
2025-01-11 13:10:06.96	291.01	8.36	
2025-01-11 13:10:07.18	291.05	8.36	
2025-01-11 13:10:07.38	291.08	8.36	
2025-01-11 13:10:07.59	291.12	8.36	
2025-01-11 13:10:07.79	291.15	8.36	
2025-01-11 13:10:08.00	291.19	8.35	
2025-01-11 13:10:08.20	291.22	8.35	
2025-01-11 13:10:08.41	291.26	8.35	
2025-01-11 13:10:08.61	291.29	8.35	
2025-01-11 13:10:08.82	291.32	8.35	
2025-01-11 13:10:09.02	291.36	8.35	
2025-01-11 13:10:09.23	291.39	8.35	
2025-01-11 13:10:09.43	291.43	8.35	
2025-01-11 13:10:09.64	291.46	8.35	
2025-01-11 13:10:09.85	291.50	8.34	
2025-01-11 13:10:10.05	291.53	8.34	
2025-01-11 13:10:10.27	291.57	8.34	
2025-01-11 13:10:10.47	291.60	8.34	
2025-01-11 13:10:10.68	291.64	8.34	
2025-01-11 13:10:10.89	291.67	8.34	
2025-01-11 13:10:11.09	291.71	8.34	
2025-01-11 13:10:11.30	291.74	8.34	
2025-01-11 13:10:11.50	291.78	8.34	
2025-01-11 13:10:11.71	291.81	8.33	
2025-01-11 13:10:11.91	291.85	8.33	
2025-01-11 13:10:12.12	291.88	8.33	
2025-01-11 13:10:12.32	291.92	8.33	
2025-01-11 13:10:12.52	291.95	8.33	
2025-01-11 13:10:12.73	291.99	8.33	
2025-01-11 13:10:12.93	292.02	8.33	
2025-01-11 13:10:13.14	292.05	8.32	
2025-01-11 13:10:13.34	292.09	8.32	
2025-01-11 13:10:13.55	292.12	8.32	
2025-01-11 13:10:13.76	292.16	8.32	
2025-01-11 13:10:13.96	292.19	8.32	
2025-01-11 13:10:14.17	292.23	8.32	
2025-01-11 13:10:14.37	292.26	8.32	
2025-01-11 13:10:14.57	292.30	8.32	
2025-01-11 13:10:14.78	292.33	8.31	
2025-01-11 13:10:14.98	292.36	8.31	
2025-01-11 13:10:15.19	292.40	8.31	
2025-01-11 13:10:15.39	292.43	8.31	
2025-01-11 13:10:15.61	292.47	8.31	
2025-01-11 13:10:15.82	292.51	8.31	
2025-01-11 13:10:16.02	292.54	8.31	
2025-01-11 13:10:16.23	292.58	8.30	
2025-01-11 13:10:16.43	292.61	8.30	
2025-01-11 13:10:16.64	292.64	8.30	
2025-01-11 13:10:16.84	292.68	8.30	
2025-01-11 13:10:17.05	292.71	8.30	
2025-01-11 13:10:17.25	292.75	8.30	
2025-01-11 13:10:17.46	292.78	8.30	
2025-01-11 13:10:17.66	292.82	8.29	
2025-01-11 13:10:17.87	292.85	8.29	
2025-01-11 13:10:18.07	292.89	8.29	
2025-01-11 13:10:18.28	292.92	8.29	
2025-01-11 13:10:18.48	292.95	8.29	
2025-01-11 13:10:18.69	292.99	8.29	
2025-01-11 13:10:18.89	293.02	8.29	
2025-01-11 13:10:19.10	293.06	8.28	
2025-01-11 13:10:19.30	293.09	8.28	
2025-01-11 13:10:19.50	293.13	8.28	
2025-01-11 13:10:19.71	293.16	8.28	
2025-01-11 13:10:19.91	293.20	8.28	
2025-01-11 13:10:20.12	293.23	8.28	
2025-01-11 13:10:20.33	293.27	8.27	
2025-01-11 13:10:20.53	293.30	8.27	
2025-01-11 13:10:20.74	293.33	8.27	
2025-01-11 13:10:20.94	293.37	8.27	
2025-01-11 13:10:21.15	293.40	8.27	
2025-01-11 13:10:21.35	293.44	8.27	
2025-01-11 13:10:21.56	293.47	8.26	
2025-01-11 13:10:21.77	293.51	8.26	
2025-01-11 13:10:21.97	293.54	8.26	
2025-01-11 13:10:22.17	293.57	8.26	
2025-01-11 13:10:22.38	293.61	8.26	
2025-01-11 13:10:22.59	293.65	8.26	
2025-01-11 13:10:22.79	293.68	8.25	
2025-01-11 13:10:23.00	293.71	8.25	
2025-01-11 13:10:23.20	293.75	8.25	
2025-01-11 13:10:23.41	293.78	8.25	
2025-01-11 13:10:23.61	293.82	8.25	
2025-01-11 13:10:23.82	293.85	8.25	
2025-01-11 13:10:24.02	293.89	8.24	
2025-01-11 13:10:24.23	293.92	8.24	
2025-01-11 13:10:24.43	293.95	8.24	
2025-01-11 13:10:24.64	293.99	8.24	
2025-01-11 13:10:24.84	294.02	8.24	
2025-01-11 13:10:25.05	294.06	8.23	
2025-01-11 13:10:25.25	294.09	8.23	
2025-01-11 13:10:25.46	294.13	8.23	
2025-01-11 13:10:25.66	294.16	8.23	
2025-01-11 13:10:25.87	294.20	8.23	
2025-01-11 13:10:26.07	294.23	8.23	
2025-01-11 13:10:26.28	294.26	8.22	
2025-01-11 13:10:26.48	294.30	8.22	
2025-01-11 13:10:26.69	294.33	8.22	
2025-01-11 13:10:26.89	294.37	8.22	
2025-01-11 13:10:27.10	294.40	8.22	
2025-01-11 13:10:27.30	294.44	8.21	
2025-01-11 13:10:27.51	294.47	8.21	
2025-01-11 13:10:27.71	294.50	8.21	
2025-01-11 13:10:27.92	294.54	8.21	
2025-01-11 13:10:28.12	294.57	8.21	
2025-01-11 13:10:28.33	294.61	8.20	
2025-01-11 13:10:28.53	294.64	8.20	
2025-01-11 13:10:28.73	294.67	8.20	
2025-01-11 13:10:28.94	294.71	8.20	
2025-01-11 13:10:29.14	294.74	8.20	
2025-01-11 13:10:29.35	294.78	8.20	
2025-01-11 13:10:29.55	294.81	8.19	
2025-01-11 13:10:29.76	294.85	8.19	
2025-01-11 13:10:29.96	294.88	8.19	
2025-01-11 13:10:30.17	294.92	8.19	
2025-01-11 13:10:30.37	294.95	8.19	
2025-01-11 13:10:30.59	294.99	8.18	
2025-01-11 13:10:30.80	295.02	8.18	
2025-01-11 13:10:31.00	295.05	8.18	
2025-01-11 13:10:31.21	295.09	8.18	
2025-01-11 13:10:31.41	295.12	8.17	
2025-01-11 13:10:31.62	295.16	8.17	
2025-01-11 13:10:31.82	295.19	8.17	
2025-01-11 13:10:32.03	295.23	8.17	
2025-01-11 13:10:32.23	295.26	8.17	
2025-01-11 13:10:32.43	295.29	8.16	
2025-01-11 13:10:32.64	295.33	8.16	
2025-01-11 13:10:32.84	295.36	8.16	
2025-01-11 13:10:33.05	295.40	8.16	
2025-01-11 13:10:33.25	295.43	8.16	
2025-01-11 13:10:33.46	295.46	8.15	
2025-01-11 13:10:33.66	295.50	8.15	
2025-01-11 13:10:33.87	295.53	8.15	
2025-01-11 13:10:34.07	295.57	8.15	
2025-01-11 13:10:34.28	295.60	8.14	
2025-01-11 13:10:34.48	295.63	8.14	
2025-01-11 13:10:34.69	295.67	8.14	
2025-01-11 13:10:34.89	295.70	8.14	
2025-01-11 13:10:35.10	295.74	8.14	
2025-01-11 13:10:35.30	295.77	8.13	
2025-01-11 13:10:35.51	295.81	8.13	
2025-01-11 13:10:35.71	295.84	8.13	
2025-01-11 13:10:35.91	295.87	8.13	
2025-01-11 13:10:36.12	295.91	8.12	
2025-01-11 13:10:36.33	295.94	8.12	
2025-01-11 13:10:36.53	295.98	8.12	
2025-01-11 13:10:36.74	296.01	8.12	
2025-01-11 13:10:36.95	296.05	8.12	
2025-01-11 13:10:37.16	296.08	8.11	
2025-01-11 13:10:37.36	296.11	8.11	
2025-01-11 13:10:37.57	296.15	8.11	
2025-01-11 13:10:37.77	296.18	8.11	
2025-01-11 13:10:37.98	296.22	8.10	
2025-01-11 13:10:38.18	296.25	8.10	
2025-01-11 13:10:38.39	296.29	8.10	
2025-01-11 13:10:38.60	296.32	8.10	
2025-01-11 13:10:38.80	296.35	8.09	
2025-01-11 13:10:39.00	296.39	8.09	
2025-01-11 13:10:39.21	296.42	8.09	
2025-01-11 13:10:39.41	296.45	8.09	
2025-01-11 13:10:39.62	296.49	8.08	
2025-01-11 13:10:39.82	296.52	8.08	
2025-01-11 13:10:40.03	296.56	8.08	
2025-01-11 13:10:40.25	296.59	8.08	
2025-01-11 13:10:40.45	296.63	8.07	
2025-01-11 13:10:40.66	296.66	8.07	
2025-01-11 13:10:40.86	296.70	8.07	
2025-01-11 13:10:41.07	296.73	8.07	
2025-01-11 13:10:41.27	296.76	8.07	
2025-01-11 13:10:41.48	296.80	8.06	
2025-01-11 13:10:41.68	296.83	8.06	
2025-01-11 13:10:41.88	296.86	8.06	
2025-01-11 13:10:42.09	296.90	8.06	
2025-01-11 13:10:42.29	296.93	8.05	
2025-01-11 13:10:42.50	296.97	8.05	
2025-01-11 13:10:42.70	297.00	8.05	
2025-01-11 13:10:42.91	297.03	8.04	
2025-01-11 13:10:43.11	297.07	8.04	
2025-01-11 13:10:43.32	297.10	8.04	
2025-01-11 13:10:43.52	297.14	8.04	
2025-01-11 13:10:43.73	297.17	8.03	
2025-01-11 13:10:43.93	297.20	8.03	
2025-01-11 13:10:44.14	297.24	8.03	
2025-01-11 13:10:44.34	297.27	8.03	
2025-01-11 13:10:44.55	297.31	8.02	
2025-01-11 13:10:44.75	297.34	8.02	
2025-01-11 13:10:44.96	297.37	8.02	
2025-01-11 13:10:45.16	297.41	8.02	
2025-01-11 13:10:45.37	297.44	8.01	
2025-01-11 13:10:45.57	297.47	8.01	
2025-01-11 13:10:45.77	297.51	8.01	
2025-01-11 13:10:45.98	297.54	8.01	
2025-01-11 13:10:46.19	297.58	8.00	
2025-01-11 13:10:46.39	297.61	8.00	
2025-01-11 13:10:46.60	297.64	8.00	
2025-01-11 13:10:46.80	297.68	8.00	
2025-01-11 13:10:47.01	297.71	7.99	
2025-01-11 13:10:47.21	297.75	7.99	
2025-01-11 13:10:47.42	297.78	7.99	
2025-01-11 13:10:47.62	297.81	7.98	
2025-01-11 13:10:47.83	297.85	7.98	
2025-01-11 13:10:48.03	297.88	7.98	
2025-01-11 13:10:48.24	297.91	7.98	
2025-01-11 13:10:48.44	297.95	7.97	
2025-01-11 13:10:48.64	297.98	7.97	
2025-01-11 13:10:48.85	298.02	7.97	
2025-01-11 13:10:49.06	298.05	7.96	
2025-01-11 13:10:49.26	298.08	7.96	
2025-01-11 13:10:49.47	298.12	7.96	
2025-01-11 13:10:49.67	298.15	7.96	
2025-01-11 13:10:49.87	298.18	7.95	
2025-01-11 13:10:50.08	298.22	7.95	
2025-01-11 13:10:50.29	298.25	7.95	
2025-01-11 13:10:50.49	298.29	7.95	
2025-01-11 13:10:50.70	298.32	7.94	
2025-01-11 13:10:50.90	298.35	7.94	
2025-01-11 13:10:51.11	298.39	7.94	
2025-01-11 13:10:51.31	298.42	7.93	
2025-01-11 13:10:51.52	298.45	7.93	
2025-01-11 13:10:51.72	298.49	7.93	
2025-01-11 13:10:51.93	298.52	7.92	
2025-01-11 13:10:52.13	298.55	7.92	
2025-01-11 13:10:52.34	298.59	7.92	
2025-01-11 13:10:52.54	298.62	7.92	
2025-01-11 13:10:52.75	298.66	7.91	
2025-01-11 13:10:52.95	298.69	7.91	
2025-01-11 13:10:53.17	298.73	7.91	
2025-01-11 13:10:53.37	298.76	7.90	
2025-01-11 13:10:53.58	298.79	7.90	
2025-01-11 13:10:53.78	298.83	7.90	
2025-01-11 13:10:53.99	298.86	7.90	
2025-01-11 13:10:54.19	298.89	7.89	
2025-01-11 13:10:54.40	298.93	7.89	
2025-01-11 13:10:54.60	298.96	7.89	
2025-01-11 13:10:54.81	298.99	7.88	
2025-01-11 13:10:55.01	299.03	7.88	
2025-01-11 13:10:55.22	299.06	7.88	
2025-01-11 13:10:55.42	299.09	7.87	
2025-01-11 13:10:55.62	299.13	7.87	
2025-01-11 13:10:55.83	299.16	7.87	
2025-01-11 13:10:56.03	299.19	7.87	
2025-01-11 13:10:56.24	299.23	7.86	
2025-01-11 13:10:56.44	299.26	7.86	
2025-01-11 13:10:56.65	299.29	7.86	
2025-01-11 13:10:56.86	299.33	7.85	
2025-01-11 13:10:57.06	299.36	7.85	
2025-01-11 13:10:57.26	299.39	7.85	
2025-01-11 13:10:57.47	299.43	7.84	
2025-01-11 13:10:57.68	299.46	7.84	
2025-01-11 13:10:57.88	299.50	7.84	
2025-01-11 13:10:58.09	299.53	7.83	
2025-01-11 13:10:58.29	299.56	7.83	
2025-01-11 13:10:58.49	299.60	7.83	
2025-01-11 13:10:58.70	299.63	7.82	
2025-01-11 13:10:58.90	299.66	7.82	
2025-01-11 13:10:59.11	299.70	7.82	
2025-01-11 13:10:59.31	299.73	7.82	
2025-01-11 13:10:59.52	299.76	7.81	
2025-01-11 13:10:59.72	299.80	7.81	
2025-01-11 13:10:59.93	299.83	7.81	
2025-01-11 13:11:00.15	299.87	7.80	
2025-01-11 13:11:00.35	299.90	7.80	
2025-01-11 13:11:00.56	299.93	7.80	
2025-01-11 13:11:00.76	299.97	7.79	
2025-01-11 13:11:00.97	300.00	7.79	
2025-01-11 13:11:01.17	300.03	7.79	
2025-01-11 13:11:01.38	300.07	7.78	
2025-01-11 13:11:01.58	300.10	7.78	
2025-01-11 13:11:01.79	300.13	7.78	
2025-01-11 13:11:01.99	300.17	7.77	
2025-01-11 13:11:02.20	300.20	7.77	
2025-01-11 13:11:02.40	300.23	7.77	
2025-01-11 13:11:02.62	300.27	7.76	
2025-01-11 13:11:02.83	300.30	7.76	
2025-01-11 13:11:03.03	300.33	7.76	
2025-01-11 13:11:03.24	300.37	7.75	
2025-01-11 13:11:03.44	300.40	7.75	
2025-01-11 13:11:03.66	300.44	7.75	
2025-01-11 13:11:03.86	300.47	7.74	
2025-01-11 13:11:04.07	300.50	7.74	
2025-01-11 13:11:04.28	300.54	7.74	
2025-01-11 13:11:04.48	300.57	7.73	
2025-01-11 13:11:04.68	300.60	7.73	
2025-01-11 13:11:04.89	300.64	7.73	
2025-01-11 13:11:05.09	300.67	7.72	
2025-01-11 13:11:05.30	300.70	7.72	
2025-01-11 13:11:05.50	300.73	7.72	
2025-01-11 13:11:05.70	300.77	7.71	
2025-01-11 13:11:05.91	300.80	7.71	
2025-01-11 13:11:06.12	300.83	7.70	
2025-01-11 13:11:06.32	300.87	7.70	
2025-01-11 13:11:06.52	300.90	7.70	
2025-01-11 13:11:06.73	300.93	7.69	
2025-01-11 13:11:06.93	300.97	7.69	
2025-01-11 13:11:07.14	301.00	7.69	
2025-01-11 13:11:07.34	301.03	7.68	
2025-01-11 13:11:07.55	301.07	7.68	
2025-01-11 13:11:07.76	301.10	7.68	
2025-01-11 13:11:07.97	301.13	7.67	
2025-01-11 13:11:08.17	301.17	7.67	
2025-01-11 13:11:08.38	301.20	7.67	
2025-01-11 13:11:08.59	301.23	7.66	
2025-01-11 13:11:08.79	301.27	7.66	
2025-01-11 13:11:09.00	301.30	7.66	
2025-01-11 13:11:09.20	301.33	7.65	
2025-01-11 13:11:09.41	301.37	7.65	
2025-01-11 13:11:09.61	301.40	7.64	
2025-01-11 13:11:09.82	301.43	7.64	
2025-01-11 13:11:10.02	301.46	7.64	
2025-01-11 13:11:10.23	301.50	7.63	
2025-01-11 13:11:10.43	301.53	7.63	
2025-01-11 13:11:10.64	301.56	7.63	
2025-01-11 13:11:10.84	301.60	7.62	
2025-01-11 13:11:11.05	301.63	7.62	
2025-01-11 13:11:11.25	301.66	7.62	
2025-01-11 13:11:11.45	301.69	7.61	
2025-01-11 13:11:11.66	301.73	7.61	
2025-01-11 13:11:11.87	301.76	7.60	
2025-01-11 13:11:12.07	301.79	7.60	
2025-01-11 13:11:12.28	301.83	7.60	
2025-01-11 13:11:12.48	301.86	7.59	
2025-01-11 13:11:12.69	301.89	7.59	
2025-01-11 13:11:12.89	301.93	7.59	
2025-01-11 13:11:13.10	301.96	7.58	
2025-01-11 13:11:13.30	301.99	7.58	
2025-01-11 13:11:13.51	302.02	7.58	
2025-01-11 13:11:13.71	302.06	7.57	
2025-01-11 13:11:13.92	302.09	7.57	
2025-01-11 13:11:14.12	302.12	7.56	
2025-01-11 13:11:14.33	302.16	7.56	
2025-01-11 13:11:14.53	302.19	7.56	
2025-01-11 13:11:14.74	302.22	7.55	
2025-01-11 13:11:14.94	302.25	7.55	
2025-01-11 13:11:15.14	302.29	7.55	
2025-01-11 13:11:15.36	302.32	7.54	
2025-01-11 13:11:15.57	302.35	7.54	
2025-01-11 13:11:15.77	302.39	7.53	
2025-01-11 13:11:15.98	302.42	7.53	
2025-01-11 13:11:16.18	302.45	7.53	
2025-01-11 13:11:16.39	302.49	7.52	
2025-01-11 13:11:16.59	302.52	7.52	
2025-01-11 13:11:16.80	302.55	7.51	
2025-01-11 13:11:17.00	302.58	7.51	
2025-01-11 13:11:17.21	302.62	7.51	
2025-01-11 13:11:17.41	302.65	7.50	
2025-01-11 13:11:17.62	302.68	7.50	
2025-01-11 13:11:17.82	302.71	7.50	
2025-01-11 13:11:18.02	302.75	7.49	
2025-01-11 13:11:18.23	302.78	7.49	
2025-01-11 13:11:18.43	302.81	7.48	
2025-01-11 13:11:18.63	302.84	7.48	
2025-01-11 13:11:18.84	302.88	7.48	
2025-01-11 13:11:19.05	302.91	7.47	
2025-01-11 13:11:19.25	302.94	7.47	
2025-01-11 13:11:19.46	302.98	7.46	
2025-01-11 13:11:19.66	303.01	7.46	
2025-01-11 13:11:19.86	303.04	7.46	
2025-01-11 13:11:20.07	303.07	7.45	
2025-01-11 13:11:20.27	303.10	7.45	
2025-01-11 13:11:20.48	303.14	7.44	
2025-01-11 13:11:20.68	303.17	7.44	
2025-01-11 13:11:20.88	303.20	7.44	
2025-01-11 13:11:21.09	303.23	7.43	
2025-01-11 13:11:21.29	303.27	7.43	
2025-01-11 13:11:21.50	303.30	7.42	
2025-01-11 13:11:21.70	303.33	7.42	
2025-01-11 13:11:21.91	303.36	7.42	
2025-01-11 13:11:22.11	303.40	7.41	
2025-01-11 13:11:22.32	303.43	7.41	
2025-01-11 13:11:22.52	303.46	7.40	
2025-01-11 13:11:22.73	303.49	7.40	
2025-01-11 13:11:22.93	303.53	7.40	
2025-01-11 13:11:23.14	303.56	7.39	
2025-01-11 13:11:23.35	303.59	7.39	
2025-01-11 13:11:23.55	303.62	7.38	
2025-01-11 13:11:23.76	303.66	7.38	
2025-01-11 13:11:23.96	303.69	7.38	
2025-01-11 13:11:24.17	303.72	7.37	
2025-01-11 13:11:24.37	303.75	7.37	
2025-01-11 13:11:24.58	303.79	7.36	
2025-01-11 13:11:24.78	303.82	7.36	
2025-01-11 13:11:24.99	303.85	7.36	
2025-01-11 13:11:25.19	303.88	7.35	
2025-01-11 13:11:25.40	303.92	7.35	
2025-01-11 13:11:25.60	303.95	7.34	
2025-01-11 13:11:25.81	303.98	7.34	
2025-01-11 13:11:26.01	304.01	7.33	
2025-01-11 13:11:26.22	304.05	7.33	
2025-01-11 13:11:26.43	304.08	7.33	
2025-01-11 13:11:26.63	304.11	7.32	
2025-01-11 13:11:26.83	304.14	7.32	
2025-01-11 13:11:27.04	304.18	7.31	
2025-01-11 13:11:27.24	304.21	7.31	
2025-01-11 13:11:27.45	304.24	7.31	
2025-01-11 13:11:27.65	304.27	7.30	
2025-01-11 13:11:27.86	304.30	7.30	
2025-01-11 13:11:28.06	304.34	7.29	
2025-01-11 13:11:28.27	304.37	7.29	
2025-01-11 13:11:28.47	304.40	7.28	
2025-01-11 13:11:28.68	304.43	7.28	
2025-01-11 13:11:28.88	304.47	7.28	
2025-01-11 13:11:29.09	304.50	7.27	
2025-01-11 13:11:29.29	304.53	7.27	
2025-01-11 13:11:29.49	304.56	7.26	
2025-01-11 13:11:29.70	304.59	7.26	
2025-01-11 13:11:29.90	304.63	7.25	
2025-01-11 13:11:30.11	304.66	7.25	
2025-01-11 13:11:30.33	304.69	7.25	
2025-01-11 13:11:30.53	304.72	7.24	
2025-01-11 13:11:30.74	304.76	7.24	
2025-01-11 13:11:30.94	304.79	7.23	
2025-01-11 13:11:31.15	304.82	7.23	
2025-01-11 13:11:31.37	304.86	7.22	
2025-01-11 13:11:31.57	304.89	7.22	
2025-01-11 13:11:31.77	304.92	7.21	
2025-01-11 13:11:31.98	304.95	7.21	
2025-01-11 13:11:32.19	304.98	7.21	
2025-01-11 13:11:32.39	305.02	7.20	
2025-01-11 13:11:32.60	305.05	7.20	
2025-01-11 13:11:32.80	305.08	7.19	
2025-01-11 13:11:33.01	305.11	7.19	
2025-01-11 13:11:33.22	305.15	7.18	
2025-01-11 13:11:33.42	305.18	7.18	
2025-01-11 13:11:33.63	305.21	7.17	
2025-01-11 13:11:33.83	305.24	7.17	
2025-01-11 13:11:34.04	305.27	7.17	
2025-01-11 13:11:34.24	305.30	7.16	
2025-01-11 13:11:34.44	305.34	7.16	
2025-01-11 13:11:34.65	305.37	7.15	
2025-01-11 13:11:34.85	305.40	7.15	
2025-01-11 13:11:35.06	305.43	7.14	
2025-01-11 13:11:35.26	305.46	7.14	
2025-01-11 13:11:35.47	305.50	7.13	
2025-01-11 13:11:35.67	305.53	7.13	
2025-01-11 13:11:35.88	305.56	7.13	
2025-01-11 13:11:36.08	305.59	7.12	
2025-01-11 13:11:36.29	305.62	7.12	
2025-01-11 13:11:36.49	305.65	7.11	
2025-01-11 13:11:36.70	305.69	7.11	
2025-01-11 13:11:36.90	305.72	7.10	
2025-01-11 13:11:37.11	305.75	7.10	
2025-01-11 13:11:37.31	305.78	7.09	
2025-01-11 13:11:37.52	305.81	7.09	
2025-01-11 13:11:37.72	305.85	7.09	
2025-01-11 13:11:37.93	305.88	7.08	
2025-01-11 13:11:38.13	305.91	7.08	
2025-01-11 13:11:38.34	305.94	7.07	
2025-01-11 13:11:38.54	305.97	7.07	
2025-01-11 13:11:38.76	306.01	7.06	
2025-01-11 13:11:38.97	306.04	7.06	
2025-01-11 13:11:39.17	306.07	7.05	
2025-01-11 13:11:39.38	306.10	7.05	
2025-01-11 13:11:39.58	306.13	7.04	
2025-01-11 13:11:39.79	306.17	7.04	
2025-01-11 13:11:39.99	306.20	7.03	
2025-01-11 13:11:40.20	306.23	7.03	
2025-01-11 13:11:40.40	306.26	7.03	
2025-01-11 13:11:40.61	306.29	7.02	
2025-01-11 13:11:40.81	306.32	7.02	
2025-01-11 13:11:41.01	306.35	7.01	
2025-01-11 13:11:41.22	306.39	7.01	
2025-01-11 13:11:41.43	306.42	7.00	
2025-01-11 13:11:41.63	306.45	7.00	
2025-01-11 13:11:41.84	306.48	6.99	
2025-01-11 13:11:42.05	306.52	6.99	
2025-01-11 13:11:42.26	306.55	6.98	
2025-01-11 13:11:42.46	306.58	6.98	
2025-01-11 13:11:42.67	306.61	6.97	
2025-01-11 13:11:42.87	306.64	6.97	
2025-01-11 13:11:43.08	306.67	6.96	
2025-01-11 13:11:43.28	306.70	6.96	
2025-01-11 13:11:43.49	306.74	6.95	
2025-01-11 13:11:43.69	306.77	6.95	
2025-01-11 13:11:43.90	306.80	6.95	
2025-01-11 13:11:44.10	306.83	6.94	
2025-01-11 13:11:44.30	306.86	6.94	
2025-01-11 13:11:44.51	306.89	6.93	
2025-01-11 13:11:44.72	306.93	6.93	
