passes_logs/2025/01/11/SPB_Silybum_02/SPB_Silybum_02__20250111_103407_AQUA_rec.log

#Pass ID: 20250111_103407_AQUA
#Satellite: AQUA
#Configuration: AQUA
#Start time: 2025-01-11 10:34:08

#Version: 2.0.20230423
#Station: SPB_Silybum_02
#Location: 30.233357 lon 59.946436 lat
#TLE: 1 27424U 02022A   25010.89862733  .00001944  00000+0  40909-3 0  9991
#TLE: 2 27424  98.3577 327.5256 0001581 116.2883 319.2080 14.60667727207024

#Time	Az	El	Level	Level2	SNR	BER	Gain	Gain2
2025-01-11 10:34:10.29	135.49	4.21	
2025-01-11 10:34:10.49	135.48	4.22	
2025-01-11 10:34:10.70	135.48	4.24	
2025-01-11 10:34:10.90	135.47	4.25	
2025-01-11 10:34:11.11	135.46	4.27	
2025-01-11 10:34:11.31	135.45	4.28	
2025-01-11 10:34:11.52	135.44	4.30	
2025-01-11 10:34:11.72	135.43	4.31	
2025-01-11 10:34:11.92	135.43	4.32	
2025-01-11 10:34:12.13	135.42	4.34	
2025-01-11 10:34:12.34	135.41	4.35	
2025-01-11 10:34:12.54	135.40	4.37	
2025-01-11 10:34:12.75	135.39	4.38	
2025-01-11 10:34:12.95	135.38	4.40	
2025-01-11 10:34:13.16	135.37	4.41	
2025-01-11 10:34:13.36	135.37	4.43	
2025-01-11 10:34:13.57	135.36	4.44	
2025-01-11 10:34:13.77	135.35	4.46	
2025-01-11 10:34:13.98	135.34	4.47	
2025-01-11 10:34:14.18	135.33	4.48	
2025-01-11 10:34:14.39	135.32	4.50	
2025-01-11 10:34:14.59	135.32	4.51	
2025-01-11 10:34:14.80	135.31	4.53	
2025-01-11 10:34:15.00	135.30	4.54	
2025-01-11 10:34:15.22	135.29	4.56	
2025-01-11 10:34:15.43	135.28	4.57	
2025-01-11 10:34:15.63	135.27	4.59	
2025-01-11 10:34:15.84	135.26	4.60	
2025-01-11 10:34:16.04	135.25	4.62	
2025-01-11 10:34:16.25	135.25	4.63	
2025-01-11 10:34:16.45	135.24	4.65	
2025-01-11 10:34:16.66	135.23	4.66	
2025-01-11 10:34:16.86	135.22	4.68	
2025-01-11 10:34:17.07	135.21	4.69	
2025-01-11 10:34:17.27	135.20	4.71	
2025-01-11 10:34:17.48	135.19	4.72	
2025-01-11 10:34:17.68	135.19	4.74	
2025-01-11 10:34:17.88	135.18	4.75	
2025-01-11 10:34:18.09	135.17	4.77	
2025-01-11 10:34:18.29	135.16	4.78	
2025-01-11 10:34:18.50	135.15	4.79	
2025-01-11 10:34:18.70	135.14	4.81	
2025-01-11 10:34:18.91	135.13	4.82	
2025-01-11 10:34:19.11	135.12	4.84	
2025-01-11 10:34:19.32	135.12	4.85	
2025-01-11 10:34:19.52	135.11	4.87	
2025-01-11 10:34:19.73	135.10	4.88	
2025-01-11 10:34:19.94	135.09	4.90	
2025-01-11 10:34:20.14	135.08	4.91	
2025-01-11 10:34:20.35	135.07	4.93	
2025-01-11 10:34:20.55	135.06	4.94	
2025-01-11 10:34:20.76	135.05	4.96	
2025-01-11 10:34:20.96	135.05	4.97	
2025-01-11 10:34:21.17	135.04	4.99	
2025-01-11 10:34:21.37	135.03	5.00	
2025-01-11 10:34:21.58	135.02	5.02	
2025-01-11 10:34:21.78	135.01	5.03	
2025-01-11 10:34:21.99	135.00	5.05	
2025-01-11 10:34:22.19	134.99	5.06	
2025-01-11 10:34:22.40	134.98	5.08	
2025-01-11 10:34:22.60	134.97	5.09	
2025-01-11 10:34:22.81	134.96	5.11	
2025-01-11 10:34:23.01	134.96	5.12	
2025-01-11 10:34:23.22	134.95	5.14	
2025-01-11 10:34:23.42	134.94	5.15	
2025-01-11 10:34:23.63	134.93	5.17	
2025-01-11 10:34:23.83	134.92	5.18	
2025-01-11 10:34:24.04	134.91	5.20	
2025-01-11 10:34:24.24	134.90	5.21	
2025-01-11 10:34:24.45	134.89	5.23	
2025-01-11 10:34:24.65	134.88	5.24	
2025-01-11 10:34:24.86	134.87	5.26	
2025-01-11 10:34:25.06	134.87	5.27	
2025-01-11 10:34:25.27	134.86	5.29	
2025-01-11 10:34:25.47	134.85	5.30	
2025-01-11 10:34:25.68	134.84	5.32	
2025-01-11 10:34:25.90	134.83	5.33	
2025-01-11 10:34:26.10	134.82	5.35	
2025-01-11 10:34:26.31	134.81	5.36	
2025-01-11 10:34:26.51	134.80	5.38	
2025-01-11 10:34:26.72	134.79	5.39	
2025-01-11 10:34:26.92	134.78	5.41	
2025-01-11 10:34:27.13	134.77	5.42	
2025-01-11 10:34:27.34	134.76	5.44	
2025-01-11 10:34:27.54	134.76	5.45	
2025-01-11 10:34:27.75	134.75	5.47	
2025-01-11 10:34:27.95	134.74	5.49	
2025-01-11 10:34:28.15	134.73	5.50	
2025-01-11 10:34:28.36	134.72	5.52	
2025-01-11 10:34:28.57	134.71	5.53	
2025-01-11 10:34:28.77	134.70	5.55	
2025-01-11 10:34:28.98	134.69	5.56	
2025-01-11 10:34:29.18	134.68	5.58	
2025-01-11 10:34:29.38	134.67	5.59	
2025-01-11 10:34:29.59	134.66	5.61	
2025-01-11 10:34:29.80	134.65	5.62	
2025-01-11 10:34:30.00	134.64	5.64	
2025-01-11 10:34:30.20	134.64	5.65	
2025-01-11 10:34:30.41	134.63	5.67	
2025-01-11 10:34:30.61	134.62	5.68	
2025-01-11 10:34:30.82	134.61	5.70	
2025-01-11 10:34:31.02	134.60	5.71	
2025-01-11 10:34:31.24	134.59	5.73	
2025-01-11 10:34:31.45	134.58	5.75	
2025-01-11 10:34:31.65	134.57	5.76	
2025-01-11 10:34:31.86	134.56	5.78	
2025-01-11 10:34:32.07	134.55	5.79	
2025-01-11 10:34:32.28	134.54	5.81	
2025-01-11 10:34:32.49	134.53	5.82	
2025-01-11 10:34:32.69	134.52	5.84	
2025-01-11 10:34:32.90	134.51	5.85	
2025-01-11 10:34:33.11	134.50	5.87	
2025-01-11 10:34:33.31	134.49	5.89	
2025-01-11 10:34:33.52	134.48	5.90	
2025-01-11 10:34:33.72	134.47	5.92	
2025-01-11 10:34:33.93	134.46	5.93	
2025-01-11 10:34:34.13	134.45	5.95	
2025-01-11 10:34:34.33	134.44	5.96	
2025-01-11 10:34:34.54	134.43	5.98	
2025-01-11 10:34:34.74	134.43	5.99	
2025-01-11 10:34:34.95	134.42	6.01	
2025-01-11 10:34:35.16	134.41	6.03	
2025-01-11 10:34:35.36	134.40	6.04	
2025-01-11 10:34:35.56	134.39	6.06	
2025-01-11 10:34:35.77	134.38	6.07	
2025-01-11 10:34:35.97	134.37	6.09	
2025-01-11 10:34:36.18	134.36	6.10	
2025-01-11 10:34:36.39	134.35	6.12	
2025-01-11 10:34:36.59	134.34	6.13	
2025-01-11 10:34:36.79	134.33	6.15	
2025-01-11 10:34:37.00	134.32	6.16	
2025-01-11 10:34:37.20	134.31	6.18	
2025-01-11 10:34:37.41	134.30	6.20	
2025-01-11 10:34:37.61	134.29	6.21	
2025-01-11 10:34:37.82	134.28	6.23	
2025-01-11 10:34:38.02	134.27	6.24	
2025-01-11 10:34:38.23	134.26	6.26	
2025-01-11 10:34:38.43	134.25	6.27	
2025-01-11 10:34:38.63	134.24	6.29	
2025-01-11 10:34:38.84	134.23	6.31	
2025-01-11 10:34:39.05	134.22	6.32	
2025-01-11 10:34:39.25	134.21	6.34	
2025-01-11 10:34:39.45	134.20	6.35	
2025-01-11 10:34:39.66	134.19	6.37	
2025-01-11 10:34:39.86	134.18	6.38	
2025-01-11 10:34:40.07	134.17	6.40	
2025-01-11 10:34:40.28	134.16	6.42	
2025-01-11 10:34:40.48	134.15	6.43	
2025-01-11 10:34:40.69	134.14	6.45	
2025-01-11 10:34:40.89	134.13	6.46	
2025-01-11 10:34:41.10	134.12	6.48	
2025-01-11 10:34:41.30	134.11	6.49	
2025-01-11 10:34:41.51	134.10	6.51	
2025-01-11 10:34:41.71	134.09	6.53	
2025-01-11 10:34:41.91	134.08	6.54	
2025-01-11 10:34:42.12	134.07	6.56	
2025-01-11 10:34:42.32	134.06	6.57	
2025-01-11 10:34:42.53	134.05	6.59	
2025-01-11 10:34:42.73	134.04	6.60	
2025-01-11 10:34:42.94	134.03	6.62	
2025-01-11 10:34:43.14	134.02	6.64	
2025-01-11 10:34:43.35	134.01	6.65	
2025-01-11 10:34:43.56	134.00	6.67	
2025-01-11 10:34:43.76	133.99	6.68	
2025-01-11 10:34:43.96	133.98	6.70	
2025-01-11 10:34:44.17	133.97	6.72	
2025-01-11 10:34:44.38	133.96	6.73	
2025-01-11 10:34:44.58	133.95	6.75	
2025-01-11 10:34:44.78	133.94	6.76	
2025-01-11 10:34:44.99	133.93	6.78	
2025-01-11 10:34:45.19	133.92	6.80	
2025-01-11 10:34:45.40	133.91	6.81	
2025-01-11 10:34:45.60	133.90	6.83	
2025-01-11 10:34:45.81	133.89	6.84	
2025-01-11 10:34:46.02	133.88	6.86	
2025-01-11 10:34:46.22	133.87	6.88	
2025-01-11 10:34:46.43	133.86	6.89	
2025-01-11 10:34:46.63	133.85	6.91	
2025-01-11 10:34:46.84	133.84	6.92	
2025-01-11 10:34:47.04	133.83	6.94	
2025-01-11 10:34:47.24	133.82	6.96	
2025-01-11 10:34:47.45	133.81	6.97	
2025-01-11 10:34:47.66	133.80	6.99	
2025-01-11 10:34:47.86	133.79	7.00	
2025-01-11 10:34:48.07	133.78	7.02	
2025-01-11 10:34:48.27	133.77	7.04	
2025-01-11 10:34:48.48	133.75	7.05	
2025-01-11 10:34:48.68	133.74	7.07	
2025-01-11 10:34:48.88	133.73	7.09	
2025-01-11 10:34:49.09	133.72	7.10	
2025-01-11 10:34:49.29	133.71	7.12	
2025-01-11 10:34:49.50	133.70	7.13	
2025-01-11 10:34:49.70	133.69	7.15	
2025-01-11 10:34:49.91	133.68	7.17	
2025-01-11 10:34:50.12	133.67	7.18	
2025-01-11 10:34:50.32	133.66	7.20	
2025-01-11 10:34:50.52	133.65	7.21	
2025-01-11 10:34:50.73	133.64	7.23	
2025-01-11 10:34:50.94	133.63	7.25	
2025-01-11 10:34:51.14	133.62	7.26	
2025-01-11 10:34:51.34	133.61	7.28	
2025-01-11 10:34:51.55	133.60	7.30	
2025-01-11 10:34:51.75	133.59	7.31	
2025-01-11 10:34:51.96	133.58	7.33	
2025-01-11 10:34:52.16	133.56	7.35	
2025-01-11 10:34:52.37	133.55	7.36	
2025-01-11 10:34:52.57	133.54	7.38	
2025-01-11 10:34:52.78	133.53	7.39	
2025-01-11 10:34:52.98	133.52	7.41	
2025-01-11 10:34:53.19	133.51	7.43	
2025-01-11 10:34:53.40	133.50	7.44	
2025-01-11 10:34:53.60	133.49	7.46	
2025-01-11 10:34:53.80	133.48	7.48	
2025-01-11 10:34:54.01	133.47	7.49	
2025-01-11 10:34:54.22	133.46	7.51	
2025-01-11 10:34:54.42	133.45	7.53	
2025-01-11 10:34:54.63	133.44	7.54	
2025-01-11 10:34:54.83	133.42	7.56	
2025-01-11 10:34:55.04	133.41	7.58	
2025-01-11 10:34:55.24	133.40	7.59	
2025-01-11 10:34:55.45	133.39	7.61	
2025-01-11 10:34:55.65	133.38	7.63	
2025-01-11 10:34:55.85	133.37	7.64	
2025-01-11 10:34:56.06	133.36	7.66	
2025-01-11 10:34:56.26	133.35	7.67	
2025-01-11 10:34:56.47	133.34	7.69	
2025-01-11 10:34:56.67	133.33	7.71	
2025-01-11 10:34:56.88	133.32	7.72	
2025-01-11 10:34:57.09	133.30	7.74	
2025-01-11 10:34:57.29	133.29	7.76	
2025-01-11 10:34:57.51	133.28	7.78	
2025-01-11 10:34:57.71	133.27	7.79	
2025-01-11 10:34:57.91	133.26	7.81	
2025-01-11 10:34:58.12	133.25	7.83	
2025-01-11 10:34:58.32	133.24	7.84	
2025-01-11 10:34:58.53	133.23	7.86	
2025-01-11 10:34:58.73	133.22	7.88	
2025-01-11 10:34:58.94	133.20	7.89	
2025-01-11 10:34:59.14	133.19	7.91	
2025-01-11 10:34:59.35	133.18	7.93	
2025-01-11 10:34:59.55	133.17	7.94	
2025-01-11 10:34:59.76	133.16	7.96	
2025-01-11 10:34:59.96	133.15	7.98	
2025-01-11 10:35:00.16	133.14	7.99	
2025-01-11 10:35:00.37	133.13	8.01	
2025-01-11 10:35:00.57	133.12	8.03	
2025-01-11 10:35:00.78	133.10	8.04	
2025-01-11 10:35:00.99	133.09	8.06	
2025-01-11 10:35:01.20	133.08	8.08	
2025-01-11 10:35:01.41	133.07	8.09	
2025-01-11 10:35:01.62	133.06	8.11	
2025-01-11 10:35:01.82	133.05	8.13	
2025-01-11 10:35:02.03	133.03	8.15	
2025-01-11 10:35:02.23	133.02	8.16	
2025-01-11 10:35:02.44	133.01	8.18	
2025-01-11 10:35:02.64	133.00	8.20	
2025-01-11 10:35:02.85	132.99	8.21	
2025-01-11 10:35:03.05	132.98	8.23	
2025-01-11 10:35:03.27	132.97	8.25	
2025-01-11 10:35:03.48	132.95	8.27	
2025-01-11 10:35:03.68	132.94	8.28	
2025-01-11 10:35:03.89	132.93	8.30	
2025-01-11 10:35:04.09	132.92	8.32	
2025-01-11 10:35:04.30	132.91	8.33	
2025-01-11 10:35:04.51	132.90	8.35	
2025-01-11 10:35:04.71	132.88	8.37	
2025-01-11 10:35:04.92	132.87	8.38	
2025-01-11 10:35:05.12	132.86	8.40	
2025-01-11 10:35:05.33	132.85	8.42	
2025-01-11 10:35:05.54	132.84	8.44	
2025-01-11 10:35:05.74	132.83	8.45	
2025-01-11 10:35:05.95	132.81	8.47	
2025-01-11 10:35:06.16	132.80	8.49	
2025-01-11 10:35:06.36	132.79	8.50	
2025-01-11 10:35:06.57	132.78	8.52	
2025-01-11 10:35:06.77	132.77	8.54	
2025-01-11 10:35:06.98	132.76	8.56	
2025-01-11 10:35:07.18	132.74	8.57	
2025-01-11 10:35:07.39	132.73	8.59	
2025-01-11 10:35:07.59	132.72	8.61	
2025-01-11 10:35:07.80	132.71	8.63	
2025-01-11 10:35:08.00	132.70	8.64	
2025-01-11 10:35:08.21	132.68	8.66	
2025-01-11 10:35:08.42	132.67	8.68	
2025-01-11 10:35:08.62	132.66	8.69	
2025-01-11 10:35:08.83	132.65	8.71	
2025-01-11 10:35:09.03	132.64	8.73	
2025-01-11 10:35:09.24	132.63	8.75	
2025-01-11 10:35:09.44	132.61	8.76	
2025-01-11 10:35:09.66	132.60	8.78	
2025-01-11 10:35:09.87	132.59	8.80	
2025-01-11 10:35:10.07	132.58	8.82	
2025-01-11 10:35:10.28	132.56	8.83	
2025-01-11 10:35:10.48	132.55	8.85	
2025-01-11 10:35:10.69	132.54	8.87	
2025-01-11 10:35:10.89	132.53	8.89	
2025-01-11 10:35:11.10	132.52	8.90	
2025-01-11 10:35:11.30	132.50	8.92	
2025-01-11 10:35:11.51	132.49	8.94	
2025-01-11 10:35:11.71	132.48	8.96	
2025-01-11 10:35:11.92	132.47	8.97	
2025-01-11 10:35:12.12	132.46	8.99	
2025-01-11 10:35:12.33	132.44	9.01	
2025-01-11 10:35:12.53	132.43	9.03	
2025-01-11 10:35:12.74	132.42	9.04	
2025-01-11 10:35:12.94	132.41	9.06	
2025-01-11 10:35:13.15	132.40	9.08	
2025-01-11 10:35:13.35	132.38	9.10	
2025-01-11 10:35:13.56	132.37	9.11	
2025-01-11 10:35:13.76	132.36	9.13	
2025-01-11 10:35:13.97	132.35	9.15	
2025-01-11 10:35:14.17	132.33	9.17	
2025-01-11 10:35:14.38	132.32	9.18	
2025-01-11 10:35:14.58	132.31	9.20	
2025-01-11 10:35:14.79	132.30	9.22	
2025-01-11 10:35:14.99	132.28	9.24	
2025-01-11 10:35:15.20	132.27	9.25	
2025-01-11 10:35:15.40	132.26	9.27	
2025-01-11 10:35:15.61	132.25	9.29	
2025-01-11 10:35:15.81	132.24	9.31	
2025-01-11 10:35:16.02	132.22	9.33	
2025-01-11 10:35:16.22	132.21	9.34	
2025-01-11 10:35:16.43	132.20	9.36	
2025-01-11 10:35:16.64	132.18	9.38	
2025-01-11 10:35:16.84	132.17	9.40	
2025-01-11 10:35:17.05	132.16	9.41	
2025-01-11 10:35:17.25	132.15	9.43	
2025-01-11 10:35:17.46	132.13	9.45	
2025-01-11 10:35:17.66	132.12	9.47	
2025-01-11 10:35:17.87	132.11	9.49	
2025-01-11 10:35:18.07	132.10	9.50	
2025-01-11 10:35:18.29	132.08	9.52	
2025-01-11 10:35:18.50	132.07	9.54	
2025-01-11 10:35:18.70	132.06	9.56	
2025-01-11 10:35:18.91	132.05	9.58	
2025-01-11 10:35:19.11	132.03	9.59	
2025-01-11 10:35:19.31	132.02	9.61	
2025-01-11 10:35:19.52	132.01	9.63	
2025-01-11 10:35:19.72	131.99	9.65	
2025-01-11 10:35:19.93	131.98	9.67	
2025-01-11 10:35:20.13	131.97	9.68	
2025-01-11 10:35:20.34	131.96	9.70	
2025-01-11 10:35:20.54	131.94	9.72	
2025-01-11 10:35:20.75	131.93	9.74	
2025-01-11 10:35:20.95	131.92	9.76	
2025-01-11 10:35:21.16	131.90	9.77	
2025-01-11 10:35:21.36	131.89	9.79	
2025-01-11 10:35:21.57	131.88	9.81	
2025-01-11 10:35:21.77	131.87	9.83	
2025-01-11 10:35:21.98	131.85	9.85	
2025-01-11 10:35:22.18	131.84	9.86	
2025-01-11 10:35:22.39	131.83	9.88	
2025-01-11 10:35:22.60	131.81	9.90	
2025-01-11 10:35:22.80	131.80	9.92	
2025-01-11 10:35:23.01	131.79	9.94	
2025-01-11 10:35:23.21	131.77	9.95	
2025-01-11 10:35:23.42	131.76	9.97	
2025-01-11 10:35:23.62	131.75	9.99	
2025-01-11 10:35:23.83	131.74	10.01	
2025-01-11 10:35:24.03	131.72	10.03	
2025-01-11 10:35:24.24	131.71	10.05	
2025-01-11 10:35:24.44	131.70	10.06	
2025-01-11 10:35:24.65	131.68	10.08	
2025-01-11 10:35:24.85	131.67	10.10	
2025-01-11 10:35:25.06	131.66	10.12	
2025-01-11 10:35:25.26	131.64	10.14	
2025-01-11 10:35:25.47	131.63	10.16	
2025-01-11 10:35:25.68	131.62	10.17	
2025-01-11 10:35:25.89	131.60	10.19	
2025-01-11 10:35:26.09	131.59	10.21	
2025-01-11 10:35:26.30	131.58	10.23	
2025-01-11 10:35:26.50	131.56	10.25	
2025-01-11 10:35:26.71	131.55	10.27	
2025-01-11 10:35:26.91	131.54	10.28	
2025-01-11 10:35:27.11	131.52	10.30	
2025-01-11 10:35:27.32	131.51	10.32	
2025-01-11 10:35:27.52	131.50	10.34	
2025-01-11 10:35:27.73	131.48	10.36	
2025-01-11 10:35:27.95	131.47	10.38	
2025-01-11 10:35:28.15	131.45	10.40	
2025-01-11 10:35:28.36	131.44	10.42	
2025-01-11 10:35:28.56	131.43	10.43	
2025-01-11 10:35:28.77	131.41	10.45	
2025-01-11 10:35:28.97	131.40	10.47	
2025-01-11 10:35:29.18	131.39	10.49	
2025-01-11 10:35:29.39	131.37	10.51	
2025-01-11 10:35:29.59	131.36	10.53	
2025-01-11 10:35:29.80	131.34	10.55	
2025-01-11 10:35:30.00	131.33	10.56	
2025-01-11 10:35:30.21	131.32	10.58	
2025-01-11 10:35:30.41	131.30	10.60	
2025-01-11 10:35:30.62	131.29	10.62	
2025-01-11 10:35:30.82	131.28	10.64	
2025-01-11 10:35:31.03	131.26	10.66	
2025-01-11 10:35:31.23	131.25	10.68	
2025-01-11 10:35:31.44	131.23	10.70	
2025-01-11 10:35:31.65	131.22	10.71	
2025-01-11 10:35:31.85	131.21	10.73	
2025-01-11 10:35:32.05	131.19	10.75	
2025-01-11 10:35:32.26	131.18	10.77	
2025-01-11 10:35:32.46	131.17	10.79	
2025-01-11 10:35:32.67	131.15	10.81	
2025-01-11 10:35:32.88	131.14	10.83	
2025-01-11 10:35:33.08	131.12	10.85	
2025-01-11 10:35:33.28	131.11	10.86	
2025-01-11 10:35:33.49	131.10	10.88	
2025-01-11 10:35:33.70	131.08	10.90	
2025-01-11 10:35:33.90	131.07	10.92	
2025-01-11 10:35:34.11	131.05	10.94	
2025-01-11 10:35:34.31	131.04	10.96	
2025-01-11 10:35:34.51	131.03	10.98	
2025-01-11 10:35:34.72	131.01	11.00	
2025-01-11 10:35:34.93	131.00	11.02	
2025-01-11 10:35:35.13	130.98	11.03	
2025-01-11 10:35:35.34	130.97	11.05	
2025-01-11 10:35:35.54	130.95	11.07	
2025-01-11 10:35:35.75	130.94	11.09	
2025-01-11 10:35:35.96	130.92	11.11	
2025-01-11 10:35:36.16	130.91	11.13	
2025-01-11 10:35:36.36	130.90	11.15	
2025-01-11 10:35:36.57	130.88	11.17	
2025-01-11 10:35:36.78	130.87	11.19	
2025-01-11 10:35:36.98	130.85	11.21	
2025-01-11 10:35:37.19	130.84	11.23	
2025-01-11 10:35:37.39	130.82	11.24	
2025-01-11 10:35:37.60	130.81	11.26	
2025-01-11 10:35:37.80	130.80	11.28	
2025-01-11 10:35:38.01	130.78	11.30	
2025-01-11 10:35:38.21	130.77	11.32	
2025-01-11 10:35:38.42	130.75	11.34	
2025-01-11 10:35:38.62	130.74	11.36	
2025-01-11 10:35:38.83	130.72	11.38	
2025-01-11 10:35:39.03	130.71	11.40	
2025-01-11 10:35:39.23	130.69	11.42	
2025-01-11 10:35:39.44	130.68	11.44	
2025-01-11 10:35:39.64	130.67	11.46	
2025-01-11 10:35:39.85	130.65	11.48	
2025-01-11 10:35:40.06	130.64	11.50	
2025-01-11 10:35:40.26	130.62	11.51	
2025-01-11 10:35:40.47	130.61	11.53	
2025-01-11 10:35:40.69	130.59	11.55	
2025-01-11 10:35:40.89	130.58	11.57	
2025-01-11 10:35:41.10	130.56	11.59	
2025-01-11 10:35:41.30	130.55	11.61	
2025-01-11 10:35:41.51	130.53	11.63	
2025-01-11 10:35:41.71	130.52	11.65	
2025-01-11 10:35:41.92	130.50	11.67	
2025-01-11 10:35:42.12	130.49	11.69	
2025-01-11 10:35:42.33	130.47	11.71	
2025-01-11 10:35:42.54	130.46	11.73	
2025-01-11 10:35:42.74	130.44	11.75	
2025-01-11 10:35:42.94	130.43	11.77	
2025-01-11 10:35:43.15	130.41	11.79	
2025-01-11 10:35:43.35	130.40	11.81	
2025-01-11 10:35:43.56	130.38	11.83	
2025-01-11 10:35:43.77	130.37	11.85	
2025-01-11 10:35:43.97	130.35	11.87	
2025-01-11 10:35:44.17	130.34	11.89	
2025-01-11 10:35:44.38	130.32	11.91	
2025-01-11 10:35:44.58	130.31	11.93	
2025-01-11 10:35:44.79	130.29	11.95	
2025-01-11 10:35:44.99	130.28	11.97	
2025-01-11 10:35:45.20	130.26	11.99	
2025-01-11 10:35:45.40	130.24	12.00	
2025-01-11 10:35:45.61	130.23	12.02	
2025-01-11 10:35:45.82	130.21	12.05	
2025-01-11 10:35:46.02	130.20	12.06	
2025-01-11 10:35:46.23	130.18	12.08	
2025-01-11 10:35:46.43	130.17	12.10	
2025-01-11 10:35:46.64	130.15	12.12	
2025-01-11 10:35:46.85	130.14	12.14	
2025-01-11 10:35:47.05	130.12	12.16	
2025-01-11 10:35:47.25	130.11	12.18	
2025-01-11 10:35:47.46	130.09	12.20	
2025-01-11 10:35:47.67	130.07	12.22	
2025-01-11 10:35:47.87	130.06	12.24	
2025-01-11 10:35:48.08	130.04	12.26	
2025-01-11 10:35:48.28	130.03	12.28	
2025-01-11 10:35:48.49	130.01	12.30	
2025-01-11 10:35:48.69	130.00	12.32	
2025-01-11 10:35:48.89	129.98	12.34	
2025-01-11 10:35:49.10	129.96	12.36	
2025-01-11 10:35:49.31	129.95	12.38	
2025-01-11 10:35:49.51	129.93	12.40	
2025-01-11 10:35:49.72	129.92	12.42	
2025-01-11 10:35:49.93	129.90	12.44	
2025-01-11 10:35:50.13	129.89	12.46	
2025-01-11 10:35:50.34	129.87	12.48	
2025-01-11 10:35:50.54	129.85	12.50	
2025-01-11 10:35:50.75	129.84	12.53	
2025-01-11 10:35:50.95	129.82	12.54	
2025-01-11 10:35:51.16	129.81	12.57	
2025-01-11 10:35:51.36	129.79	12.59	
2025-01-11 10:35:51.57	129.77	12.61	
2025-01-11 10:35:51.77	129.76	12.63	
2025-01-11 10:35:51.98	129.74	12.65	
2025-01-11 10:35:52.18	129.73	12.67	
2025-01-11 10:35:52.39	129.71	12.69	
2025-01-11 10:35:52.59	129.69	12.71	
2025-01-11 10:35:52.80	129.68	12.73	
2025-01-11 10:35:53.00	129.66	12.75	
2025-01-11 10:35:53.21	129.65	12.77	
2025-01-11 10:35:53.41	129.63	12.79	
2025-01-11 10:35:53.62	129.61	12.81	
2025-01-11 10:35:53.82	129.60	12.83	
2025-01-11 10:35:54.03	129.58	12.85	
2025-01-11 10:35:54.24	129.56	12.87	
2025-01-11 10:35:54.44	129.55	12.89	
2025-01-11 10:35:54.66	129.53	12.91	
2025-01-11 10:35:54.87	129.51	12.93	
2025-01-11 10:35:55.07	129.50	12.95	
2025-01-11 10:35:55.28	129.48	12.97	
2025-01-11 10:35:55.48	129.46	12.99	
2025-01-11 10:35:55.69	129.45	13.02	
2025-01-11 10:35:55.89	129.43	13.04	
2025-01-11 10:35:56.10	129.41	13.06	
2025-01-11 10:35:56.30	129.40	13.08	
2025-01-11 10:35:56.51	129.38	13.10	
2025-01-11 10:35:56.71	129.37	13.12	
2025-01-11 10:35:56.92	129.35	13.14	
2025-01-11 10:35:57.12	129.33	13.16	
2025-01-11 10:35:57.33	129.31	13.18	
2025-01-11 10:35:57.53	129.30	13.20	
2025-01-11 10:35:57.74	129.28	13.22	
2025-01-11 10:35:57.94	129.27	13.24	
2025-01-11 10:35:58.15	129.25	13.26	
2025-01-11 10:35:58.35	129.23	13.28	
2025-01-11 10:35:58.56	129.21	13.31	
2025-01-11 10:35:58.76	129.20	13.33	
2025-01-11 10:35:58.97	129.18	13.35	
2025-01-11 10:35:59.17	129.16	13.37	
2025-01-11 10:35:59.38	129.15	13.39	
2025-01-11 10:35:59.58	129.13	13.41	
2025-01-11 10:35:59.79	129.11	13.43	
2025-01-11 10:35:59.99	129.10	13.45	
2025-01-11 10:36:00.19	129.08	13.47	
2025-01-11 10:36:00.40	129.06	13.49	
2025-01-11 10:36:00.60	129.05	13.51	
2025-01-11 10:36:00.81	129.03	13.53	
2025-01-11 10:36:01.01	129.01	13.56	
2025-01-11 10:36:01.22	128.99	13.58	
2025-01-11 10:36:01.42	128.98	13.60	
2025-01-11 10:36:01.63	128.96	13.62	
2025-01-11 10:36:01.84	128.94	13.64	
2025-01-11 10:36:02.04	128.92	13.66	
2025-01-11 10:36:02.24	128.91	13.68	
2025-01-11 10:36:02.45	128.89	13.70	
2025-01-11 10:36:02.65	128.87	13.72	
2025-01-11 10:36:02.86	128.86	13.75	
2025-01-11 10:36:03.06	128.84	13.77	
2025-01-11 10:36:03.27	128.82	13.79	
2025-01-11 10:36:03.47	128.80	13.81	
2025-01-11 10:36:03.68	128.79	13.83	
2025-01-11 10:36:03.88	128.77	13.85	
2025-01-11 10:36:04.09	128.75	13.87	
2025-01-11 10:36:04.31	128.73	13.90	
2025-01-11 10:36:04.51	128.71	13.92	
2025-01-11 10:36:04.73	128.70	13.94	
2025-01-11 10:36:04.94	128.68	13.96	
2025-01-11 10:36:05.14	128.66	13.98	
2025-01-11 10:36:05.35	128.64	14.00	
2025-01-11 10:36:05.55	128.62	14.03	
2025-01-11 10:36:05.76	128.61	14.05	
2025-01-11 10:36:05.96	128.59	14.07	
2025-01-11 10:36:06.17	128.57	14.09	
2025-01-11 10:36:06.37	128.55	14.11	
2025-01-11 10:36:06.58	128.53	14.13	
2025-01-11 10:36:06.78	128.52	14.15	
2025-01-11 10:36:06.99	128.50	14.18	
2025-01-11 10:36:07.19	128.48	14.20	
2025-01-11 10:36:07.39	128.46	14.22	
2025-01-11 10:36:07.60	128.44	14.24	
2025-01-11 10:36:07.81	128.43	14.26	
2025-01-11 10:36:08.01	128.41	14.28	
2025-01-11 10:36:08.22	128.39	14.31	
2025-01-11 10:36:08.42	128.37	14.33	
2025-01-11 10:36:08.63	128.35	14.35	
2025-01-11 10:36:08.83	128.34	14.37	
2025-01-11 10:36:09.04	128.32	14.39	
2025-01-11 10:36:09.25	128.30	14.41	
2025-01-11 10:36:09.45	128.28	14.44	
2025-01-11 10:36:09.65	128.26	14.46	
2025-01-11 10:36:09.86	128.24	14.48	
2025-01-11 10:36:10.07	128.23	14.50	
2025-01-11 10:36:10.27	128.21	14.52	
2025-01-11 10:36:10.47	128.19	14.54	
2025-01-11 10:36:10.68	128.17	14.57	
2025-01-11 10:36:10.88	128.15	14.59	
2025-01-11 10:36:11.09	128.13	14.61	
2025-01-11 10:36:11.29	128.12	14.63	
2025-01-11 10:36:11.50	128.10	14.65	
2025-01-11 10:36:11.70	128.08	14.68	
2025-01-11 10:36:11.91	128.06	14.70	
2025-01-11 10:36:12.11	128.04	14.72	
2025-01-11 10:36:12.32	128.02	14.74	
2025-01-11 10:36:12.52	128.00	14.76	
2025-01-11 10:36:12.74	127.98	14.79	
2025-01-11 10:36:12.95	127.96	14.81	
2025-01-11 10:36:13.15	127.95	14.83	
2025-01-11 10:36:13.36	127.93	14.85	
2025-01-11 10:36:13.56	127.91	14.88	
2025-01-11 10:36:13.77	127.89	14.90	
2025-01-11 10:36:13.97	127.87	14.92	
2025-01-11 10:36:14.18	127.85	14.94	
2025-01-11 10:36:14.38	127.83	14.96	
2025-01-11 10:36:14.59	127.81	14.99	
2025-01-11 10:36:14.80	127.79	15.01	
2025-01-11 10:36:15.01	127.77	15.03	
2025-01-11 10:36:15.21	127.75	15.05	
2025-01-11 10:36:15.42	127.73	15.08	
2025-01-11 10:36:15.63	127.71	15.10	
2025-01-11 10:36:15.83	127.70	15.12	
2025-01-11 10:36:16.04	127.68	15.14	
2025-01-11 10:36:16.24	127.66	15.17	
2025-01-11 10:36:16.45	127.64	15.19	
2025-01-11 10:36:16.65	127.62	15.21	
2025-01-11 10:36:16.86	127.60	15.23	
2025-01-11 10:36:17.06	127.58	15.26	
2025-01-11 10:36:17.27	127.56	15.28	
2025-01-11 10:36:17.48	127.54	15.30	
2025-01-11 10:36:17.68	127.52	15.32	
2025-01-11 10:36:17.89	127.50	15.35	
2025-01-11 10:36:18.11	127.48	15.37	
2025-01-11 10:36:18.31	127.46	15.39	
2025-01-11 10:36:18.52	127.44	15.42	
2025-01-11 10:36:18.72	127.42	15.44	
2025-01-11 10:36:18.93	127.40	15.46	
2025-01-11 10:36:19.14	127.38	15.49	
2025-01-11 10:36:19.34	127.36	15.51	
2025-01-11 10:36:19.55	127.34	15.53	
2025-01-11 10:36:19.75	127.32	15.55	
2025-01-11 10:36:19.96	127.30	15.58	
2025-01-11 10:36:20.16	127.28	15.60	
2025-01-11 10:36:20.37	127.26	15.62	
2025-01-11 10:36:20.57	127.24	15.64	
2025-01-11 10:36:20.78	127.22	15.67	
2025-01-11 10:36:20.98	127.20	15.69	
2025-01-11 10:36:21.19	127.18	15.71	
2025-01-11 10:36:21.39	127.16	15.74	
2025-01-11 10:36:21.60	127.14	15.76	
2025-01-11 10:36:21.80	127.12	15.78	
2025-01-11 10:36:22.01	127.10	15.80	
2025-01-11 10:36:22.21	127.08	15.83	
2025-01-11 10:36:22.43	127.06	15.85	
2025-01-11 10:36:22.63	127.04	15.87	
2025-01-11 10:36:22.84	127.02	15.90	
2025-01-11 10:36:23.05	127.00	15.92	
2025-01-11 10:36:23.25	126.98	15.94	
2025-01-11 10:36:23.46	126.96	15.97	
2025-01-11 10:36:23.66	126.94	15.99	
2025-01-11 10:36:23.87	126.92	16.01	
2025-01-11 10:36:24.07	126.90	16.04	
2025-01-11 10:36:24.28	126.87	16.06	
2025-01-11 10:36:24.49	126.85	16.08	
2025-01-11 10:36:24.70	126.83	16.11	
2025-01-11 10:36:24.91	126.81	16.13	
2025-01-11 10:36:25.11	126.79	16.15	
2025-01-11 10:36:25.32	126.77	16.18	
2025-01-11 10:36:25.52	126.75	16.20	
2025-01-11 10:36:25.73	126.73	16.22	
2025-01-11 10:36:25.93	126.71	16.25	
2025-01-11 10:36:26.14	126.69	16.27	
2025-01-11 10:36:26.34	126.66	16.29	
2025-01-11 10:36:26.55	126.64	16.32	
2025-01-11 10:36:26.75	126.62	16.34	
2025-01-11 10:36:26.96	126.60	16.36	
2025-01-11 10:36:27.17	126.58	16.39	
2025-01-11 10:36:27.37	126.56	16.41	
2025-01-11 10:36:27.58	126.54	16.44	
2025-01-11 10:36:27.78	126.52	16.46	
2025-01-11 10:36:27.99	126.49	16.48	
2025-01-11 10:36:28.19	126.47	16.51	
2025-01-11 10:36:28.40	126.45	16.53	
2025-01-11 10:36:28.60	126.43	16.55	
2025-01-11 10:36:28.81	126.41	16.58	
2025-01-11 10:36:29.01	126.39	16.60	
2025-01-11 10:36:29.22	126.37	16.62	
2025-01-11 10:36:29.43	126.34	16.65	
2025-01-11 10:36:29.63	126.32	16.67	
2025-01-11 10:36:29.84	126.30	16.70	
2025-01-11 10:36:30.04	126.28	16.72	
2025-01-11 10:36:30.25	126.26	16.74	
2025-01-11 10:36:30.45	126.24	16.77	
2025-01-11 10:36:30.66	126.21	16.79	
2025-01-11 10:36:30.86	126.19	16.81	
2025-01-11 10:36:31.07	126.17	16.84	
2025-01-11 10:36:31.27	126.15	16.86	
2025-01-11 10:36:31.48	126.13	16.89	
2025-01-11 10:36:31.69	126.10	16.91	
2025-01-11 10:36:31.89	126.08	16.93	
2025-01-11 10:36:32.10	126.06	16.96	
2025-01-11 10:36:32.30	126.04	16.98	
2025-01-11 10:36:32.50	126.02	17.01	
2025-01-11 10:36:32.71	125.99	17.03	
2025-01-11 10:36:32.91	125.97	17.05	
2025-01-11 10:36:33.12	125.95	17.08	
2025-01-11 10:36:33.32	125.93	17.10	
2025-01-11 10:36:33.53	125.91	17.13	
2025-01-11 10:36:33.73	125.88	17.15	
2025-01-11 10:36:33.94	125.86	17.18	
2025-01-11 10:36:34.14	125.84	17.20	
2025-01-11 10:36:34.35	125.82	17.22	
2025-01-11 10:36:34.55	125.79	17.25	
2025-01-11 10:36:34.76	125.77	17.27	
2025-01-11 10:36:34.96	125.75	17.30	
2025-01-11 10:36:35.18	125.73	17.32	
2025-01-11 10:36:35.39	125.70	17.35	
2025-01-11 10:36:35.59	125.68	17.37	
2025-01-11 10:36:35.80	125.66	17.40	
2025-01-11 10:36:36.00	125.63	17.42	
2025-01-11 10:36:36.22	125.61	17.45	
2025-01-11 10:36:36.42	125.59	17.47	
2025-01-11 10:36:36.63	125.56	17.49	
2025-01-11 10:36:36.84	125.54	17.52	
2025-01-11 10:36:37.04	125.52	17.54	
2025-01-11 10:36:37.25	125.50	17.57	
2025-01-11 10:36:37.45	125.47	17.59	
2025-01-11 10:36:37.66	125.45	17.62	
2025-01-11 10:36:37.86	125.43	17.64	
2025-01-11 10:36:38.07	125.40	17.67	
2025-01-11 10:36:38.27	125.38	17.69	
2025-01-11 10:36:38.48	125.36	17.72	
2025-01-11 10:36:38.68	125.33	17.74	
2025-01-11 10:36:38.89	125.31	17.77	
2025-01-11 10:36:39.09	125.29	17.79	
2025-01-11 10:36:39.30	125.26	17.81	
2025-01-11 10:36:39.50	125.24	17.84	
2025-01-11 10:36:39.71	125.22	17.86	
2025-01-11 10:36:39.91	125.19	17.89	
2025-01-11 10:36:40.12	125.17	17.91	
2025-01-11 10:36:40.32	125.15	17.94	
2025-01-11 10:36:40.53	125.12	17.96	
2025-01-11 10:36:40.73	125.10	17.99	
2025-01-11 10:36:40.94	125.07	18.01	
2025-01-11 10:36:41.14	125.05	18.04	
2025-01-11 10:36:41.35	125.03	18.06	
2025-01-11 10:36:41.55	125.00	18.09	
2025-01-11 10:36:41.76	124.98	18.11	
2025-01-11 10:36:41.97	124.95	18.14	
2025-01-11 10:36:42.17	124.93	18.16	
2025-01-11 10:36:42.38	124.91	18.19	
2025-01-11 10:36:42.58	124.88	18.21	
2025-01-11 10:36:42.78	124.86	18.24	
2025-01-11 10:36:42.99	124.83	18.26	
2025-01-11 10:36:43.19	124.81	18.29	
2025-01-11 10:36:43.40	124.79	18.31	
2025-01-11 10:36:43.60	124.76	18.34	
2025-01-11 10:36:43.81	124.74	18.36	
2025-01-11 10:36:44.02	124.71	18.39	
2025-01-11 10:36:44.22	124.69	18.42	
2025-01-11 10:36:44.43	124.66	18.44	
2025-01-11 10:36:44.63	124.64	18.47	
2025-01-11 10:36:44.84	124.61	18.49	
2025-01-11 10:36:45.04	124.59	18.52	
2025-01-11 10:36:45.25	124.57	18.54	
2025-01-11 10:36:45.45	124.54	18.57	
2025-01-11 10:36:45.66	124.52	18.59	
2025-01-11 10:36:45.86	124.49	18.62	
2025-01-11 10:36:46.07	124.47	18.64	
2025-01-11 10:36:46.27	124.44	18.67	
2025-01-11 10:36:46.48	124.42	18.70	
2025-01-11 10:36:46.69	124.39	18.72	
2025-01-11 10:36:46.89	124.37	18.75	
2025-01-11 10:36:47.09	124.34	18.77	
2025-01-11 10:36:47.30	124.32	18.80	
2025-01-11 10:36:47.50	124.29	18.82	
2025-01-11 10:36:47.71	124.27	18.85	
2025-01-11 10:36:47.91	124.24	18.87	
2025-01-11 10:36:48.12	124.22	18.90	
2025-01-11 10:36:48.32	124.19	18.93	
2025-01-11 10:36:48.53	124.17	18.95	
2025-01-11 10:36:48.73	124.14	18.98	
2025-01-11 10:36:48.94	124.11	19.00	
2025-01-11 10:36:49.14	124.09	19.03	
2025-01-11 10:36:49.35	124.06	19.06	
2025-01-11 10:36:49.55	124.04	19.08	
2025-01-11 10:36:49.76	124.01	19.11	
2025-01-11 10:36:49.97	123.99	19.13	
2025-01-11 10:36:50.17	123.96	19.16	
2025-01-11 10:36:50.37	123.94	19.18	
2025-01-11 10:36:50.58	123.91	19.21	
2025-01-11 10:36:50.78	123.88	19.24	
2025-01-11 10:36:50.99	123.86	19.26	
2025-01-11 10:36:51.19	123.83	19.29	
2025-01-11 10:36:51.40	123.81	19.32	
2025-01-11 10:36:51.60	123.78	19.34	
2025-01-11 10:36:51.81	123.75	19.37	
2025-01-11 10:36:52.01	123.73	19.39	
2025-01-11 10:36:52.22	123.70	19.42	
2025-01-11 10:36:52.43	123.67	19.45	
2025-01-11 10:36:52.63	123.65	19.47	
2025-01-11 10:36:52.84	123.62	19.50	
2025-01-11 10:36:53.04	123.60	19.53	
2025-01-11 10:36:53.24	123.57	19.55	
2025-01-11 10:36:53.45	123.54	19.58	
2025-01-11 10:36:53.66	123.52	19.61	
2025-01-11 10:36:53.86	123.49	19.63	
2025-01-11 10:36:54.07	123.46	19.66	
2025-01-11 10:36:54.27	123.44	19.68	
2025-01-11 10:36:54.48	123.41	19.71	
2025-01-11 10:36:54.68	123.38	19.74	
2025-01-11 10:36:54.89	123.36	19.76	
2025-01-11 10:36:55.09	123.33	19.79	
2025-01-11 10:36:55.30	123.30	19.82	
2025-01-11 10:36:55.50	123.27	19.84	
2025-01-11 10:36:55.71	123.25	19.87	
2025-01-11 10:36:55.91	123.22	19.90	
2025-01-11 10:36:56.12	123.19	19.92	
2025-01-11 10:36:56.33	123.17	19.95	
2025-01-11 10:36:56.53	123.14	19.98	
2025-01-11 10:36:56.73	123.11	20.00	
2025-01-11 10:36:56.94	123.08	20.03	
2025-01-11 10:36:57.14	123.06	20.06	
2025-01-11 10:36:57.35	123.03	20.08	
2025-01-11 10:36:57.55	123.00	20.11	
2025-01-11 10:36:57.76	122.97	20.14	
2025-01-11 10:36:57.97	122.95	20.17	
2025-01-11 10:36:58.17	122.92	20.19	
2025-01-11 10:36:58.38	122.89	20.22	
2025-01-11 10:36:58.58	122.86	20.25	
2025-01-11 10:36:58.78	122.84	20.27	
2025-01-11 10:36:58.99	122.81	20.30	
2025-01-11 10:36:59.19	122.78	20.33	
2025-01-11 10:36:59.40	122.75	20.35	
2025-01-11 10:36:59.60	122.72	20.38	
2025-01-11 10:36:59.81	122.70	20.41	
2025-01-11 10:37:00.01	122.67	20.43	
2025-01-11 10:37:00.23	122.64	20.46	
2025-01-11 10:37:00.44	122.61	20.49	
2025-01-11 10:37:00.64	122.58	20.52	
2025-01-11 10:37:00.84	122.55	20.54	
2025-01-11 10:37:01.05	122.52	20.57	
2025-01-11 10:37:01.26	122.50	20.60	
2025-01-11 10:37:01.46	122.47	20.63	
2025-01-11 10:37:01.67	122.44	20.66	
2025-01-11 10:37:01.88	122.41	20.68	
2025-01-11 10:37:02.09	122.38	20.71	
2025-01-11 10:37:02.30	122.35	20.74	
2025-01-11 10:37:02.50	122.32	20.77	
2025-01-11 10:37:02.71	122.29	20.79	
2025-01-11 10:37:02.91	122.26	20.82	
2025-01-11 10:37:03.12	122.23	20.85	
2025-01-11 10:37:03.32	122.21	20.88	
2025-01-11 10:37:03.53	122.18	20.90	
2025-01-11 10:37:03.73	122.15	20.93	
2025-01-11 10:37:03.95	122.12	20.96	
2025-01-11 10:37:04.16	122.09	20.99	
2025-01-11 10:37:04.38	122.06	21.02	
2025-01-11 10:37:04.58	122.03	21.05	
2025-01-11 10:37:04.79	122.00	21.07	
2025-01-11 10:37:05.00	121.97	21.10	
2025-01-11 10:37:05.21	121.94	21.13	
2025-01-11 10:37:05.42	121.91	21.16	
2025-01-11 10:37:05.62	121.88	21.19	
2025-01-11 10:37:05.83	121.85	21.22	
2025-01-11 10:37:06.03	121.82	21.24	
2025-01-11 10:37:06.24	121.79	21.27	
2025-01-11 10:37:06.44	121.76	21.30	
2025-01-11 10:37:06.65	121.73	21.33	
2025-01-11 10:37:06.85	121.70	21.35	
2025-01-11 10:37:07.06	121.67	21.38	
2025-01-11 10:37:07.28	121.64	21.41	
2025-01-11 10:37:07.48	121.61	21.44	
2025-01-11 10:37:07.69	121.57	21.47	
2025-01-11 10:37:07.89	121.55	21.50	
2025-01-11 10:37:08.10	121.51	21.53	
2025-01-11 10:37:08.30	121.48	21.55	
2025-01-11 10:37:08.51	121.45	21.58	
2025-01-11 10:37:08.72	121.42	21.61	
2025-01-11 10:37:08.92	121.39	21.64	
2025-01-11 10:37:09.13	121.36	21.67	
2025-01-11 10:37:09.33	121.33	21.70	
2025-01-11 10:37:09.54	121.30	21.72	
2025-01-11 10:37:09.74	121.27	21.75	
2025-01-11 10:37:09.95	121.24	21.78	
2025-01-11 10:37:10.16	121.21	21.81	
2025-01-11 10:37:10.37	121.17	21.84	
2025-01-11 10:37:10.58	121.14	21.87	
2025-01-11 10:37:10.78	121.11	21.90	
2025-01-11 10:37:10.99	121.08	21.93	
2025-01-11 10:37:11.19	121.05	21.95	
2025-01-11 10:37:11.40	121.02	21.98	
2025-01-11 10:37:11.60	120.99	22.01	
2025-01-11 10:37:11.81	120.95	22.04	
2025-01-11 10:37:12.02	120.92	22.07	
2025-01-11 10:37:12.22	120.89	22.10	
2025-01-11 10:37:12.43	120.86	22.13	
2025-01-11 10:37:12.63	120.83	22.15	
2025-01-11 10:37:12.84	120.80	22.18	
2025-01-11 10:37:13.04	120.76	22.21	
2025-01-11 10:37:13.25	120.73	22.24	
2025-01-11 10:37:13.45	120.70	22.27	
2025-01-11 10:37:13.66	120.67	22.30	
2025-01-11 10:37:13.86	120.64	22.33	
2025-01-11 10:37:14.07	120.60	22.36	
2025-01-11 10:37:14.27	120.57	22.39	
2025-01-11 10:37:14.48	120.54	22.41	
2025-01-11 10:37:14.68	120.51	22.44	
2025-01-11 10:37:14.89	120.48	22.47	
2025-01-11 10:37:15.09	120.44	22.50	
2025-01-11 10:37:15.30	120.41	22.53	
2025-01-11 10:37:15.51	120.38	22.56	
2025-01-11 10:37:15.71	120.34	22.59	
2025-01-11 10:37:15.92	120.31	22.62	
2025-01-11 10:37:16.12	120.28	22.65	
2025-01-11 10:37:16.32	120.25	22.68	
2025-01-11 10:37:16.53	120.21	22.71	
2025-01-11 10:37:16.75	120.18	22.74	
2025-01-11 10:37:16.95	120.15	22.77	
2025-01-11 10:37:17.16	120.11	22.80	
2025-01-11 10:37:17.37	120.08	22.83	
2025-01-11 10:37:17.57	120.05	22.85	
2025-01-11 10:37:17.77	120.01	22.88	
2025-01-11 10:37:17.98	119.98	22.91	
2025-01-11 10:37:18.19	119.95	22.94	
2025-01-11 10:37:18.39	119.91	22.97	
2025-01-11 10:37:18.60	119.88	23.00	
2025-01-11 10:37:18.80	119.85	23.03	
2025-01-11 10:37:19.01	119.81	23.06	
2025-01-11 10:37:19.21	119.78	23.09	
2025-01-11 10:37:19.42	119.74	23.12	
2025-01-11 10:37:19.62	119.71	23.15	
2025-01-11 10:37:19.83	119.68	23.18	
2025-01-11 10:37:20.03	119.64	23.21	
2025-01-11 10:37:20.24	119.61	23.24	
2025-01-11 10:37:20.44	119.57	23.27	
2025-01-11 10:37:20.65	119.54	23.30	
2025-01-11 10:37:20.86	119.50	23.33	
2025-01-11 10:37:21.06	119.47	23.36	
2025-01-11 10:37:21.27	119.43	23.39	
2025-01-11 10:37:21.47	119.40	23.42	
2025-01-11 10:37:21.68	119.37	23.45	
2025-01-11 10:37:21.89	119.33	23.48	
2025-01-11 10:37:22.09	119.30	23.51	
2025-01-11 10:37:22.30	119.26	23.54	
2025-01-11 10:37:22.50	119.23	23.57	
2025-01-11 10:37:22.71	119.19	23.60	
2025-01-11 10:37:22.91	119.16	23.63	
2025-01-11 10:37:23.12	119.12	23.66	
2025-01-11 10:37:23.32	119.09	23.69	
2025-01-11 10:37:23.53	119.05	23.72	
2025-01-11 10:37:23.73	119.02	23.75	
2025-01-11 10:37:23.94	118.98	23.78	
2025-01-11 10:37:24.14	118.95	23.81	
2025-01-11 10:37:24.35	118.91	23.84	
2025-01-11 10:37:24.55	118.87	23.87	
2025-01-11 10:37:24.76	118.84	23.90	
2025-01-11 10:37:24.97	118.80	23.93	
2025-01-11 10:37:25.17	118.77	23.96	
2025-01-11 10:37:25.39	118.73	23.99	
2025-01-11 10:37:25.59	118.69	24.02	
2025-01-11 10:37:25.80	118.66	24.05	
2025-01-11 10:37:26.00	118.62	24.08	
2025-01-11 10:37:26.21	118.58	24.12	
2025-01-11 10:37:26.43	118.54	24.15	
2025-01-11 10:37:26.63	118.51	24.18	
2025-01-11 10:37:26.84	118.47	24.21	
2025-01-11 10:37:27.05	118.43	24.24	
2025-01-11 10:37:27.25	118.40	24.27	
2025-01-11 10:37:27.45	118.36	24.30	
2025-01-11 10:37:27.66	118.33	24.33	
2025-01-11 10:37:27.87	118.29	24.36	
2025-01-11 10:37:28.07	118.25	24.39	
2025-01-11 10:37:28.28	118.21	24.42	
2025-01-11 10:37:28.48	118.18	24.45	
2025-01-11 10:37:28.69	118.14	24.49	
2025-01-11 10:37:28.89	118.10	24.52	
2025-01-11 10:37:29.10	118.07	24.55	
2025-01-11 10:37:29.30	118.03	24.58	
2025-01-11 10:37:29.51	117.99	24.61	
2025-01-11 10:37:29.71	117.95	24.64	
2025-01-11 10:37:29.92	117.92	24.67	
2025-01-11 10:37:30.12	117.88	24.70	
2025-01-11 10:37:30.33	117.84	24.73	
2025-01-11 10:37:30.53	117.80	24.76	
2025-01-11 10:37:30.74	117.76	24.79	
2025-01-11 10:37:30.94	117.73	24.83	
2025-01-11 10:37:31.15	117.69	24.86	
2025-01-11 10:37:31.35	117.65	24.89	
2025-01-11 10:37:31.56	117.61	24.92	
2025-01-11 10:37:31.78	117.57	24.95	
2025-01-11 10:37:31.98	117.53	24.98	
2025-01-11 10:37:32.19	117.49	25.02	
2025-01-11 10:37:32.39	117.46	25.05	
2025-01-11 10:37:32.60	117.42	25.08	
2025-01-11 10:37:32.80	117.38	25.11	
2025-01-11 10:37:33.01	117.34	25.14	
2025-01-11 10:37:33.22	117.30	25.17	
2025-01-11 10:37:33.42	117.26	25.20	
2025-01-11 10:37:33.63	117.22	25.24	
2025-01-11 10:37:33.83	117.18	25.27	
2025-01-11 10:37:34.04	117.14	25.30	
2025-01-11 10:37:34.24	117.11	25.33	
2025-01-11 10:37:34.45	117.07	25.36	
2025-01-11 10:37:34.65	117.03	25.39	
2025-01-11 10:37:34.86	116.99	25.42	
2025-01-11 10:37:35.06	116.95	25.45	
2025-01-11 10:37:35.27	116.91	25.49	
2025-01-11 10:37:35.47	116.87	25.52	
2025-01-11 10:37:35.68	116.83	25.55	
2025-01-11 10:37:35.89	116.79	25.58	
2025-01-11 10:37:36.09	116.75	25.61	
2025-01-11 10:37:36.30	116.71	25.65	
2025-01-11 10:37:36.50	116.67	25.68	
2025-01-11 10:37:36.71	116.63	25.71	
2025-01-11 10:37:36.91	116.59	25.74	
2025-01-11 10:37:37.11	116.55	25.77	
2025-01-11 10:37:37.32	116.51	25.80	
2025-01-11 10:37:37.52	116.47	25.84	
2025-01-11 10:37:37.73	116.43	25.87	
2025-01-11 10:37:37.94	116.38	25.90	
2025-01-11 10:37:38.14	116.34	25.93	
2025-01-11 10:37:38.34	116.30	25.96	
2025-01-11 10:37:38.55	116.26	26.00	
2025-01-11 10:37:38.76	116.22	26.03	
2025-01-11 10:37:38.96	116.18	26.06	
2025-01-11 10:37:39.16	116.14	26.09	
2025-01-11 10:37:39.37	116.10	26.12	
2025-01-11 10:37:39.57	116.06	26.16	
2025-01-11 10:37:39.78	116.01	26.19	
2025-01-11 10:37:39.98	115.97	26.22	
2025-01-11 10:37:40.18	115.93	26.25	
2025-01-11 10:37:40.39	115.89	26.29	
2025-01-11 10:37:40.60	115.85	26.32	
2025-01-11 10:37:40.80	115.81	26.35	
2025-01-11 10:37:41.01	115.76	26.38	
2025-01-11 10:37:41.21	115.72	26.41	
2025-01-11 10:37:41.42	115.68	26.45	
2025-01-11 10:37:41.62	115.64	26.48	
2025-01-11 10:37:41.83	115.59	26.51	
2025-01-11 10:37:42.03	115.55	26.54	
2025-01-11 10:37:42.24	115.51	26.58	
2025-01-11 10:37:42.46	115.46	26.61	
2025-01-11 10:37:42.66	115.42	26.64	
2025-01-11 10:37:42.87	115.38	26.68	
2025-01-11 10:37:43.07	115.34	26.71	
2025-01-11 10:37:43.28	115.29	26.74	
2025-01-11 10:37:43.48	115.25	26.77	
2025-01-11 10:37:43.69	115.20	26.81	
2025-01-11 10:37:43.90	115.16	26.84	
2025-01-11 10:37:44.10	115.12	26.87	
2025-01-11 10:37:44.30	115.08	26.90	
2025-01-11 10:37:44.51	115.03	26.94	
2025-01-11 10:37:44.71	114.99	26.97	
2025-01-11 10:37:44.92	114.94	27.00	
2025-01-11 10:37:45.13	114.90	27.04	
2025-01-11 10:37:45.33	114.86	27.07	
2025-01-11 10:37:45.53	114.81	27.10	
2025-01-11 10:37:45.74	114.77	27.14	
2025-01-11 10:37:45.95	114.72	27.17	
2025-01-11 10:37:46.15	114.68	27.20	
2025-01-11 10:37:46.36	114.63	27.24	
2025-01-11 10:37:46.56	114.59	27.27	
2025-01-11 10:37:46.77	114.54	27.30	
2025-01-11 10:37:46.97	114.50	27.33	
2025-01-11 10:37:47.18	114.45	27.37	
2025-01-11 10:37:47.39	114.41	27.40	
2025-01-11 10:37:47.59	114.36	27.43	
2025-01-11 10:37:47.81	114.32	27.47	
2025-01-11 10:37:48.02	114.27	27.50	
2025-01-11 10:37:48.22	114.22	27.54	
2025-01-11 10:37:48.42	114.18	27.57	
2025-01-11 10:37:48.63	114.13	27.60	
2025-01-11 10:37:48.83	114.09	27.63	
2025-01-11 10:37:49.04	114.04	27.67	
2025-01-11 10:37:49.24	114.00	27.70	
2025-01-11 10:37:49.45	113.95	27.73	
2025-01-11 10:37:49.65	113.91	27.77	
2025-01-11 10:37:49.86	113.86	27.80	
2025-01-11 10:37:50.06	113.81	27.83	
2025-01-11 10:37:50.27	113.77	27.87	
2025-01-11 10:37:50.47	113.72	27.90	
2025-01-11 10:37:50.68	113.67	27.94	
2025-01-11 10:37:50.88	113.63	27.97	
2025-01-11 10:37:51.09	113.58	28.00	
2025-01-11 10:37:51.30	113.53	28.04	
2025-01-11 10:37:51.50	113.49	28.07	
2025-01-11 10:37:51.71	113.44	28.10	
2025-01-11 10:37:51.91	113.39	28.14	
2025-01-11 10:37:52.11	113.34	28.17	
2025-01-11 10:37:52.32	113.30	28.20	
2025-01-11 10:37:52.53	113.25	28.24	
2025-01-11 10:37:52.73	113.20	28.27	
2025-01-11 10:37:52.94	113.15	28.31	
2025-01-11 10:37:53.15	113.10	28.34	
2025-01-11 10:37:53.36	113.05	28.37	
2025-01-11 10:37:53.57	113.01	28.41	
2025-01-11 10:37:53.77	112.96	28.44	
2025-01-11 10:37:53.98	112.91	28.48	
2025-01-11 10:37:54.18	112.86	28.51	
2025-01-11 10:37:54.38	112.81	28.54	
2025-01-11 10:37:54.59	112.76	28.58	
2025-01-11 10:37:54.80	112.71	28.61	
2025-01-11 10:37:55.00	112.67	28.65	
2025-01-11 10:37:55.21	112.62	28.68	
2025-01-11 10:37:55.41	112.57	28.71	
2025-01-11 10:37:55.62	112.52	28.75	
2025-01-11 10:37:55.82	112.47	28.78	
2025-01-11 10:37:56.03	112.42	28.82	
2025-01-11 10:37:56.25	112.37	28.85	
2025-01-11 10:37:56.45	112.32	28.89	
2025-01-11 10:37:56.65	112.27	28.92	
2025-01-11 10:37:56.86	112.22	28.95	
2025-01-11 10:37:57.07	112.17	28.99	
2025-01-11 10:37:57.27	112.12	29.02	
2025-01-11 10:37:57.48	112.07	29.06	
2025-01-11 10:37:57.68	112.02	29.09	
2025-01-11 10:37:57.89	111.97	29.13	
2025-01-11 10:37:58.09	111.92	29.16	
2025-01-11 10:37:58.30	111.87	29.19	
2025-01-11 10:37:58.50	111.82	29.23	
2025-01-11 10:37:58.71	111.77	29.26	
2025-01-11 10:37:58.91	111.72	29.30	
2025-01-11 10:37:59.12	111.66	29.33	
2025-01-11 10:37:59.32	111.61	29.37	
2025-01-11 10:37:59.53	111.56	29.40	
2025-01-11 10:37:59.73	111.51	29.43	
2025-01-11 10:37:59.94	111.46	29.47	
2025-01-11 10:38:00.14	111.41	29.50	
2025-01-11 10:38:00.35	111.36	29.54	
2025-01-11 10:38:00.55	111.30	29.57	
2025-01-11 10:38:00.76	111.25	29.61	
2025-01-11 10:38:00.96	111.20	29.64	
2025-01-11 10:38:01.17	111.15	29.68	
2025-01-11 10:38:01.38	111.09	29.71	
2025-01-11 10:38:01.58	111.04	29.75	
2025-01-11 10:38:01.78	110.99	29.78	
2025-01-11 10:38:01.99	110.94	29.81	
2025-01-11 10:38:02.19	110.89	29.85	
2025-01-11 10:38:02.40	110.83	29.88	
2025-01-11 10:38:02.60	110.78	29.92	
2025-01-11 10:38:02.81	110.73	29.95	
2025-01-11 10:38:03.01	110.67	29.99	
2025-01-11 10:38:03.22	110.62	30.02	
2025-01-11 10:38:03.43	110.56	30.06	
2025-01-11 10:38:03.63	110.51	30.09	
2025-01-11 10:38:03.84	110.46	30.13	
2025-01-11 10:38:04.04	110.41	30.16	
2025-01-11 10:38:04.25	110.35	30.20	
2025-01-11 10:38:04.45	110.30	30.23	
2025-01-11 10:38:04.66	110.24	30.27	
2025-01-11 10:38:04.86	110.19	30.30	
2025-01-11 10:38:05.07	110.13	30.34	
2025-01-11 10:38:05.27	110.08	30.37	
2025-01-11 10:38:05.48	110.02	30.41	
2025-01-11 10:38:05.68	109.97	30.44	
2025-01-11 10:38:05.90	109.91	30.48	
2025-01-11 10:38:06.11	109.86	30.51	
2025-01-11 10:38:06.31	109.80	30.55	
2025-01-11 10:38:06.52	109.74	30.58	
2025-01-11 10:38:06.72	109.69	30.62	
2025-01-11 10:38:06.93	109.63	30.65	
2025-01-11 10:38:07.13	109.58	30.69	
2025-01-11 10:38:07.34	109.52	30.72	
2025-01-11 10:38:07.54	109.47	30.76	
2025-01-11 10:38:07.75	109.41	30.79	
2025-01-11 10:38:07.95	109.36	30.83	
2025-01-11 10:38:08.16	109.30	30.86	
2025-01-11 10:38:08.37	109.24	30.90	
2025-01-11 10:38:08.57	109.19	30.93	
2025-01-11 10:38:08.78	109.13	30.97	
2025-01-11 10:38:08.99	109.07	31.01	
2025-01-11 10:38:09.19	109.01	31.04	
2025-01-11 10:38:09.39	108.96	31.08	
2025-01-11 10:38:09.60	108.90	31.11	
2025-01-11 10:38:09.81	108.84	31.15	
2025-01-11 10:38:10.01	108.78	31.18	
2025-01-11 10:38:10.22	108.73	31.22	
2025-01-11 10:38:10.42	108.67	31.25	
2025-01-11 10:38:10.63	108.61	31.29	
2025-01-11 10:38:10.83	108.55	31.32	
2025-01-11 10:38:11.04	108.49	31.36	
2025-01-11 10:38:11.24	108.44	31.39	
2025-01-11 10:38:11.45	108.38	31.43	
2025-01-11 10:38:11.65	108.32	31.46	
2025-01-11 10:38:11.86	108.26	31.50	
2025-01-11 10:38:12.06	108.20	31.54	
2025-01-11 10:38:12.27	108.14	31.57	
2025-01-11 10:38:12.47	108.08	31.61	
2025-01-11 10:38:12.68	108.02	31.64	
2025-01-11 10:38:12.89	107.96	31.68	
2025-01-11 10:38:13.09	107.91	31.71	
2025-01-11 10:38:13.30	107.84	31.75	
2025-01-11 10:38:13.50	107.79	31.78	
2025-01-11 10:38:13.71	107.73	31.82	
2025-01-11 10:38:13.91	107.67	31.85	
2025-01-11 10:38:14.12	107.61	31.89	
2025-01-11 10:38:14.32	107.55	31.93	
2025-01-11 10:38:14.53	107.48	31.96	
2025-01-11 10:38:14.73	107.43	32.00	
2025-01-11 10:38:14.94	107.36	32.03	
2025-01-11 10:38:15.14	107.30	32.07	
2025-01-11 10:38:15.35	107.24	32.10	
2025-01-11 10:38:15.55	107.18	32.14	
2025-01-11 10:38:15.76	107.12	32.18	
2025-01-11 10:38:15.96	107.06	32.21	
2025-01-11 10:38:16.17	107.00	32.25	
2025-01-11 10:38:16.38	106.93	32.28	
2025-01-11 10:38:16.58	106.87	32.32	
2025-01-11 10:38:16.78	106.81	32.35	
2025-01-11 10:38:16.99	106.75	32.39	
2025-01-11 10:38:17.19	106.69	32.42	
2025-01-11 10:38:17.40	106.62	32.46	
2025-01-11 10:38:17.60	106.56	32.49	
2025-01-11 10:38:17.81	106.50	32.53	
2025-01-11 10:38:18.01	106.44	32.57	
2025-01-11 10:38:18.22	106.37	32.60	
2025-01-11 10:38:18.42	106.31	32.64	
2025-01-11 10:38:18.63	106.25	32.67	
2025-01-11 10:38:18.83	106.19	32.71	
2025-01-11 10:38:19.04	106.12	32.75	
2025-01-11 10:38:19.25	106.06	32.78	
2025-01-11 10:38:19.45	105.99	32.82	
2025-01-11 10:38:19.66	105.93	32.85	
2025-01-11 10:38:19.86	105.87	32.89	
2025-01-11 10:38:20.06	105.80	32.92	
2025-01-11 10:38:20.27	105.74	32.96	
2025-01-11 10:38:20.48	105.67	33.00	
2025-01-11 10:38:20.68	105.61	33.03	
2025-01-11 10:38:20.90	105.54	33.07	
2025-01-11 10:38:21.11	105.47	33.11	
2025-01-11 10:38:21.31	105.41	33.14	
2025-01-11 10:38:21.52	105.34	33.18	
2025-01-11 10:38:21.72	105.28	33.21	
2025-01-11 10:38:21.94	105.21	33.25	
2025-01-11 10:38:22.15	105.14	33.29	
2025-01-11 10:38:22.35	105.08	33.32	
2025-01-11 10:38:22.56	105.01	33.36	
2025-01-11 10:38:22.76	104.94	33.39	
2025-01-11 10:38:22.96	104.88	33.43	
2025-01-11 10:38:23.17	104.81	33.46	
2025-01-11 10:38:23.37	104.75	33.50	
2025-01-11 10:38:23.58	104.68	33.54	
2025-01-11 10:38:23.79	104.61	33.57	
2025-01-11 10:38:23.99	104.54	33.61	
2025-01-11 10:38:24.20	104.48	33.64	
2025-01-11 10:38:24.40	104.41	33.68	
2025-01-11 10:38:24.61	104.34	33.72	
2025-01-11 10:38:24.81	104.27	33.75	
2025-01-11 10:38:25.02	104.21	33.79	
2025-01-11 10:38:25.22	104.14	33.82	
2025-01-11 10:38:25.43	104.07	33.86	
2025-01-11 10:38:25.63	104.00	33.89	
2025-01-11 10:38:25.84	103.93	33.93	
2025-01-11 10:38:26.04	103.87	33.97	
2025-01-11 10:38:26.25	103.80	34.00	
2025-01-11 10:38:26.45	103.73	34.04	
2025-01-11 10:38:26.66	103.66	34.07	
2025-01-11 10:38:26.86	103.59	34.11	
2025-01-11 10:38:27.07	103.52	34.15	
2025-01-11 10:38:27.29	103.44	34.18	
2025-01-11 10:38:27.49	103.38	34.22	
2025-01-11 10:38:27.70	103.30	34.25	
2025-01-11 10:38:27.90	103.24	34.29	
2025-01-11 10:38:28.11	103.16	34.33	
2025-01-11 10:38:28.33	103.09	34.36	
2025-01-11 10:38:28.53	103.02	34.40	
2025-01-11 10:38:28.74	102.95	34.44	
2025-01-11 10:38:28.95	102.88	34.47	
2025-01-11 10:38:29.15	102.81	34.51	
2025-01-11 10:38:29.35	102.74	34.54	
2025-01-11 10:38:29.56	102.66	34.58	
2025-01-11 10:38:29.76	102.59	34.61	
2025-01-11 10:38:29.97	102.52	34.65	
2025-01-11 10:38:30.18	102.45	34.69	
2025-01-11 10:38:30.38	102.38	34.72	
2025-01-11 10:38:30.58	102.31	34.76	
2025-01-11 10:38:30.79	102.23	34.79	
2025-01-11 10:38:30.99	102.16	34.83	
2025-01-11 10:38:31.20	102.09	34.86	
2025-01-11 10:38:31.41	102.01	34.90	
2025-01-11 10:38:31.61	101.94	34.94	
2025-01-11 10:38:31.81	101.87	34.97	
2025-01-11 10:38:32.02	101.80	35.01	
2025-01-11 10:38:32.23	101.72	35.04	
2025-01-11 10:38:32.43	101.65	35.08	
2025-01-11 10:38:32.63	101.58	35.11	
2025-01-11 10:38:32.84	101.50	35.15	
2025-01-11 10:38:33.05	101.43	35.18	
2025-01-11 10:38:33.25	101.35	35.22	
2025-01-11 10:38:33.46	101.28	35.26	
2025-01-11 10:38:33.66	101.20	35.29	
2025-01-11 10:38:33.87	101.13	35.33	
2025-01-11 10:38:34.07	101.05	35.36	
2025-01-11 10:38:34.28	100.98	35.40	
2025-01-11 10:38:34.48	100.90	35.43	
2025-01-11 10:38:34.69	100.83	35.47	
2025-01-11 10:38:34.89	100.75	35.50	
2025-01-11 10:38:35.10	100.68	35.54	
2025-01-11 10:38:35.30	100.60	35.57	
2025-01-11 10:38:35.51	100.52	35.61	
2025-01-11 10:38:35.71	100.45	35.64	
2025-01-11 10:38:35.92	100.37	35.68	
2025-01-11 10:38:36.12	100.30	35.72	
2025-01-11 10:38:36.33	100.22	35.75	
2025-01-11 10:38:36.53	100.14	35.79	
2025-01-11 10:38:36.74	100.06	35.82	
2025-01-11 10:38:36.94	99.99	35.86	
2025-01-11 10:38:37.15	99.91	35.89	
2025-01-11 10:38:37.36	99.83	35.93	
2025-01-11 10:38:37.56	99.75	35.96	
2025-01-11 10:38:37.77	99.67	36.00	
2025-01-11 10:38:37.97	99.60	36.03	
2025-01-11 10:38:38.18	99.52	36.07	
2025-01-11 10:38:38.38	99.44	36.10	
2025-01-11 10:38:38.59	99.36	36.14	
2025-01-11 10:38:38.79	99.28	36.17	
2025-01-11 10:38:39.00	99.20	36.21	
2025-01-11 10:38:39.20	99.13	36.24	
2025-01-11 10:38:39.42	99.04	36.28	
2025-01-11 10:38:39.63	98.96	36.32	
2025-01-11 10:38:39.83	98.88	36.35	
2025-01-11 10:38:40.04	98.80	36.39	
2025-01-11 10:38:40.24	98.72	36.42	
2025-01-11 10:38:40.45	98.64	36.46	
2025-01-11 10:38:40.65	98.56	36.49	
2025-01-11 10:38:40.86	98.48	36.53	
2025-01-11 10:38:41.06	98.40	36.56	
2025-01-11 10:38:41.26	98.32	36.59	
2025-01-11 10:38:41.47	98.24	36.63	
2025-01-11 10:38:41.68	98.15	36.67	
2025-01-11 10:38:41.88	98.07	36.70	
2025-01-11 10:38:42.08	98.00	36.73	
2025-01-11 10:38:42.29	97.91	36.77	
2025-01-11 10:38:42.49	97.83	36.80	
2025-01-11 10:38:42.70	97.75	36.84	
2025-01-11 10:38:42.91	97.66	36.87	
2025-01-11 10:38:43.11	97.58	36.91	
2025-01-11 10:38:43.33	97.49	36.94	
2025-01-11 10:38:43.53	97.41	36.98	
2025-01-11 10:38:43.74	97.33	37.01	
2025-01-11 10:38:43.95	97.24	37.05	
2025-01-11 10:38:44.15	97.16	37.08	
2025-01-11 10:38:44.36	97.08	37.12	
2025-01-11 10:38:44.56	96.99	37.15	
2025-01-11 10:38:44.77	96.91	37.19	
2025-01-11 10:38:44.97	96.83	37.22	
2025-01-11 10:38:45.18	96.74	37.26	
2025-01-11 10:38:45.38	96.66	37.29	
2025-01-11 10:38:45.59	96.57	37.32	
2025-01-11 10:38:45.79	96.49	37.36	
2025-01-11 10:38:46.00	96.40	37.39	
2025-01-11 10:38:46.20	96.32	37.43	
2025-01-11 10:38:46.41	96.23	37.46	
2025-01-11 10:38:46.61	96.15	37.49	
2025-01-11 10:38:46.81	96.06	37.53	
2025-01-11 10:38:47.02	95.97	37.56	
2025-01-11 10:38:47.22	95.89	37.59	
2025-01-11 10:38:47.43	95.80	37.63	
2025-01-11 10:38:47.63	95.72	37.66	
2025-01-11 10:38:47.84	95.63	37.70	
2025-01-11 10:38:48.04	95.54	37.73	
2025-01-11 10:38:48.25	95.45	37.76	
2025-01-11 10:38:48.45	95.37	37.80	
2025-01-11 10:38:48.66	95.28	37.83	
2025-01-11 10:38:48.86	95.19	37.86	
2025-01-11 10:38:49.06	95.11	37.90	
2025-01-11 10:38:49.27	95.02	37.93	
2025-01-11 10:38:49.47	94.93	37.96	
2025-01-11 10:38:49.69	94.84	38.00	
2025-01-11 10:38:49.90	94.75	38.03	
2025-01-11 10:38:50.10	94.66	38.07	
2025-01-11 10:38:50.31	94.57	38.10	
2025-01-11 10:38:50.51	94.48	38.13	
2025-01-11 10:38:50.72	94.39	38.17	
2025-01-11 10:38:50.92	94.30	38.20	
2025-01-11 10:38:51.13	94.21	38.23	
2025-01-11 10:38:51.33	94.12	38.27	
2025-01-11 10:38:51.54	94.03	38.30	
2025-01-11 10:38:51.74	93.94	38.33	
2025-01-11 10:38:51.94	93.85	38.36	
2025-01-11 10:38:52.15	93.76	38.40	
2025-01-11 10:38:52.35	93.67	38.43	
2025-01-11 10:38:52.56	93.58	38.46	
2025-01-11 10:38:52.77	93.49	38.50	
2025-01-11 10:38:52.98	93.39	38.53	
2025-01-11 10:38:53.19	93.30	38.56	
2025-01-11 10:38:53.40	93.20	38.60	
2025-01-11 10:38:53.60	93.11	38.63	
2025-01-11 10:38:53.81	93.02	38.66	
2025-01-11 10:38:54.01	92.93	38.70	
2025-01-11 10:38:54.22	92.84	38.73	
2025-01-11 10:38:54.43	92.74	38.76	
2025-01-11 10:38:54.63	92.65	38.79	
2025-01-11 10:38:54.84	92.55	38.83	
2025-01-11 10:38:55.04	92.46	38.86	
2025-01-11 10:38:55.25	92.37	38.89	
2025-01-11 10:38:55.45	92.28	38.92	
2025-01-11 10:38:55.66	92.18	38.95	
2025-01-11 10:38:55.86	92.09	38.99	
2025-01-11 10:38:56.07	91.99	39.02	
2025-01-11 10:38:56.27	91.90	39.05	
2025-01-11 10:38:56.48	91.80	39.08	
2025-01-11 10:38:56.68	91.71	39.11	
2025-01-11 10:38:56.89	91.61	39.15	
2025-01-11 10:38:57.09	91.52	39.18	
2025-01-11 10:38:57.30	91.42	39.21	
2025-01-11 10:38:57.50	91.33	39.24	
2025-01-11 10:38:57.70	91.24	39.27	
2025-01-11 10:38:57.91	91.14	39.30	
2025-01-11 10:38:58.12	91.04	39.34	
2025-01-11 10:38:58.32	90.95	39.37	
2025-01-11 10:38:58.52	90.85	39.40	
2025-01-11 10:38:58.73	90.75	39.43	
2025-01-11 10:38:58.94	90.65	39.46	
2025-01-11 10:38:59.14	90.56	39.49	
2025-01-11 10:38:59.35	90.46	39.52	
2025-01-11 10:38:59.55	90.36	39.55	
2025-01-11 10:38:59.75	90.27	39.58	
2025-01-11 10:38:59.96	90.17	39.61	
2025-01-11 10:39:00.17	90.07	39.65	
2025-01-11 10:39:00.37	89.97	39.68	
2025-01-11 10:39:00.57	89.88	39.71	
2025-01-11 10:39:00.78	89.77	39.74	
2025-01-11 10:39:00.98	89.68	39.77	
2025-01-11 10:39:01.19	89.58	39.80	
2025-01-11 10:39:01.39	89.48	39.83	
2025-01-11 10:39:01.60	89.38	39.86	
2025-01-11 10:39:01.80	89.28	39.89	
2025-01-11 10:39:02.01	89.18	39.92	
2025-01-11 10:39:02.21	89.08	39.95	
2025-01-11 10:39:02.42	88.98	39.98	
2025-01-11 10:39:02.62	88.88	40.01	
2025-01-11 10:39:02.83	88.78	40.04	
2025-01-11 10:39:03.03	88.68	40.07	
2025-01-11 10:39:03.24	88.58	40.10	
2025-01-11 10:39:03.44	88.48	40.13	
2025-01-11 10:39:03.66	88.37	40.16	
2025-01-11 10:39:03.87	88.27	40.19	
2025-01-11 10:39:04.07	88.17	40.22	
2025-01-11 10:39:04.28	88.06	40.25	
2025-01-11 10:39:04.48	87.96	40.28	
2025-01-11 10:39:04.70	87.85	40.31	
2025-01-11 10:39:04.91	87.75	40.34	
2025-01-11 10:39:05.11	87.65	40.37	
2025-01-11 10:39:05.32	87.54	40.39	
2025-01-11 10:39:05.52	87.44	40.42	
2025-01-11 10:39:05.74	87.33	40.45	
2025-01-11 10:39:05.94	87.23	40.48	
2025-01-11 10:39:06.15	87.12	40.51	
2025-01-11 10:39:06.35	87.02	40.54	
2025-01-11 10:39:06.56	86.92	40.57	
2025-01-11 10:39:06.77	86.81	40.60	
2025-01-11 10:39:06.97	86.71	40.63	
2025-01-11 10:39:07.18	86.60	40.65	
2025-01-11 10:39:07.38	86.50	40.68	
2025-01-11 10:39:07.59	86.39	40.71	
2025-01-11 10:39:07.79	86.29	40.74	
2025-01-11 10:39:08.00	86.18	40.77	
2025-01-11 10:39:08.20	86.08	40.79	
2025-01-11 10:39:08.41	85.97	40.82	
2025-01-11 10:39:08.61	85.87	40.85	
2025-01-11 10:39:08.82	85.76	40.88	
2025-01-11 10:39:09.02	85.66	40.90	
2025-01-11 10:39:09.23	85.55	40.93	
2025-01-11 10:39:09.43	85.44	40.96	
2025-01-11 10:39:09.64	85.33	40.99	
2025-01-11 10:39:09.84	85.23	41.01	
2025-01-11 10:39:10.05	85.12	41.04	
2025-01-11 10:39:10.25	85.02	41.07	
2025-01-11 10:39:10.46	84.91	41.09	
2025-01-11 10:39:10.66	84.80	41.12	
2025-01-11 10:39:10.87	84.69	41.15	
2025-01-11 10:39:11.07	84.58	41.17	
2025-01-11 10:39:11.28	84.47	41.20	
2025-01-11 10:39:11.48	84.37	41.23	
2025-01-11 10:39:11.69	84.26	41.25	
2025-01-11 10:39:11.89	84.15	41.28	
2025-01-11 10:39:12.09	84.04	41.30	
2025-01-11 10:39:12.30	83.93	41.33	
2025-01-11 10:39:12.50	83.83	41.36	
2025-01-11 10:39:12.71	83.71	41.38	
2025-01-11 10:39:12.91	83.61	41.41	
2025-01-11 10:39:13.12	83.50	41.43	
2025-01-11 10:39:13.32	83.39	41.46	
2025-01-11 10:39:13.53	83.28	41.48	
2025-01-11 10:39:13.74	83.16	41.51	
2025-01-11 10:39:13.94	83.05	41.53	
2025-01-11 10:39:14.14	82.95	41.56	
2025-01-11 10:39:14.35	82.83	41.58	
2025-01-11 10:39:14.55	82.73	41.61	
2025-01-11 10:39:14.76	82.61	41.63	
2025-01-11 10:39:14.96	82.50	41.66	
2025-01-11 10:39:15.17	82.39	41.68	
2025-01-11 10:39:15.38	82.27	41.71	
2025-01-11 10:39:15.58	82.17	41.73	
2025-01-11 10:39:15.79	82.05	41.76	
2025-01-11 10:39:15.99	81.94	41.78	
2025-01-11 10:39:16.20	81.83	41.81	
2025-01-11 10:39:16.41	81.71	41.83	
2025-01-11 10:39:16.61	81.60	41.85	
2025-01-11 10:39:16.82	81.49	41.88	
2025-01-11 10:39:17.02	81.38	41.90	
2025-01-11 10:39:17.23	81.26	41.92	
2025-01-11 10:39:17.43	81.15	41.95	
2025-01-11 10:39:17.64	81.03	41.97	
2025-01-11 10:39:17.84	80.92	41.99	
2025-01-11 10:39:18.05	80.80	42.02	
2025-01-11 10:39:18.25	80.69	42.04	
2025-01-11 10:39:18.46	80.58	42.06	
2025-01-11 10:39:18.66	80.47	42.09	
2025-01-11 10:39:18.87	80.35	42.11	
2025-01-11 10:39:19.07	80.24	42.13	
2025-01-11 10:39:19.28	80.12	42.15	
2025-01-11 10:39:19.48	80.01	42.18	
2025-01-11 10:39:19.70	79.88	42.20	
2025-01-11 10:39:19.91	79.76	42.22	
2025-01-11 10:39:20.11	79.65	42.24	
2025-01-11 10:39:20.32	79.53	42.27	
2025-01-11 10:39:20.52	79.42	42.29	
2025-01-11 10:39:20.73	79.30	42.31	
2025-01-11 10:39:20.93	79.19	42.33	
2025-01-11 10:39:21.14	79.07	42.35	
2025-01-11 10:39:21.35	78.95	42.37	
2025-01-11 10:39:21.55	78.84	42.39	
2025-01-11 10:39:21.75	78.72	42.41	
2025-01-11 10:39:21.96	78.60	42.44	
2025-01-11 10:39:22.17	78.48	42.46	
2025-01-11 10:39:22.37	78.37	42.48	
2025-01-11 10:39:22.58	78.25	42.50	
2025-01-11 10:39:22.78	78.13	42.52	
2025-01-11 10:39:22.99	78.01	42.54	
2025-01-11 10:39:23.19	77.90	42.56	
2025-01-11 10:39:23.40	77.78	42.58	
2025-01-11 10:39:23.60	77.66	42.60	
2025-01-11 10:39:23.81	77.54	42.62	
2025-01-11 10:39:24.01	77.43	42.64	
2025-01-11 10:39:24.22	77.30	42.66	
2025-01-11 10:39:24.43	77.18	42.68	
2025-01-11 10:39:24.63	77.07	42.70	
2025-01-11 10:39:24.84	76.94	42.72	
2025-01-11 10:39:25.04	76.83	42.73	
2025-01-11 10:39:25.24	76.71	42.75	
2025-01-11 10:39:25.45	76.59	42.77	
2025-01-11 10:39:25.66	76.47	42.79	
2025-01-11 10:39:25.86	76.35	42.81	
2025-01-11 10:39:26.08	76.22	42.83	
2025-01-11 10:39:26.28	76.10	42.85	
2025-01-11 10:39:26.49	75.98	42.87	
2025-01-11 10:39:26.69	75.86	42.88	
2025-01-11 10:39:26.90	75.74	42.90	
2025-01-11 10:39:27.10	75.62	42.92	
2025-01-11 10:39:27.30	75.51	42.94	
2025-01-11 10:39:27.51	75.38	42.95	
2025-01-11 10:39:27.72	75.26	42.97	
2025-01-11 10:39:27.92	75.14	42.99	
2025-01-11 10:39:28.12	75.02	43.00	
2025-01-11 10:39:28.33	74.90	43.02	
2025-01-11 10:39:28.54	74.77	43.04	
2025-01-11 10:39:28.74	74.65	43.06	
2025-01-11 10:39:28.95	74.53	43.07	
2025-01-11 10:39:29.15	74.41	43.09	
2025-01-11 10:39:29.36	74.29	43.10	
2025-01-11 10:39:29.56	74.17	43.12	
2025-01-11 10:39:29.77	74.04	43.14	
2025-01-11 10:39:29.98	73.92	43.15	
2025-01-11 10:39:30.18	73.80	43.17	
2025-01-11 10:39:30.38	73.68	43.18	
2025-01-11 10:39:30.59	73.55	43.20	
2025-01-11 10:39:30.80	73.43	43.21	
2025-01-11 10:39:31.00	73.31	43.23	
2025-01-11 10:39:31.21	73.18	43.24	
2025-01-11 10:39:31.41	73.06	43.26	
2025-01-11 10:39:31.62	72.93	43.27	
2025-01-11 10:39:31.82	72.81	43.29	
2025-01-11 10:39:32.03	72.69	43.30	
2025-01-11 10:39:32.23	72.57	43.32	
2025-01-11 10:39:32.45	72.43	43.33	
2025-01-11 10:39:32.66	72.31	43.35	
2025-01-11 10:39:32.86	72.19	43.36	
2025-01-11 10:39:33.07	72.06	43.37	
2025-01-11 10:39:33.28	71.93	43.39	
2025-01-11 10:39:33.48	71.81	43.40	
2025-01-11 10:39:33.68	71.69	43.41	
2025-01-11 10:39:33.89	71.56	43.43	
2025-01-11 10:39:34.10	71.43	43.44	
2025-01-11 10:39:34.30	71.31	43.45	
2025-01-11 10:39:34.51	71.18	43.47	
2025-01-11 10:39:34.71	71.06	43.48	
2025-01-11 10:39:34.92	70.93	43.49	
2025-01-11 10:39:35.12	70.81	43.50	
2025-01-11 10:39:35.33	70.68	43.52	
2025-01-11 10:39:35.54	70.56	43.53	
2025-01-11 10:39:35.74	70.43	43.54	
2025-01-11 10:39:35.94	70.31	43.55	
2025-01-11 10:39:36.15	70.18	43.56	
2025-01-11 10:39:36.35	70.06	43.57	
2025-01-11 10:39:36.56	69.93	43.59	
2025-01-11 10:39:36.78	69.80	43.60	
2025-01-11 10:39:36.99	69.67	43.61	
2025-01-11 10:39:37.19	69.54	43.62	
2025-01-11 10:39:37.40	69.41	43.63	
2025-01-11 10:39:37.60	69.29	43.64	
2025-01-11 10:39:37.81	69.16	43.65	
2025-01-11 10:39:38.01	69.04	43.66	
2025-01-11 10:39:38.22	68.91	43.67	
2025-01-11 10:39:38.42	68.79	43.68	
2025-01-11 10:39:38.63	68.66	43.69	
2025-01-11 10:39:38.83	68.53	43.70	
2025-01-11 10:39:39.04	68.40	43.71	
2025-01-11 10:39:39.24	68.28	43.72	
2025-01-11 10:39:39.45	68.15	43.73	
2025-01-11 10:39:39.65	68.03	43.74	
2025-01-11 10:39:39.86	67.90	43.74	
2025-01-11 10:39:40.06	67.77	43.75	
2025-01-11 10:39:40.27	67.64	43.76	
2025-01-11 10:39:40.47	67.52	43.77	
2025-01-11 10:39:40.68	67.39	43.78	
2025-01-11 10:39:40.88	67.26	43.79	
2025-01-11 10:39:41.09	67.13	43.79	
2025-01-11 10:39:41.29	67.01	43.80	
2025-01-11 10:39:41.50	66.88	43.81	
2025-01-11 10:39:41.71	66.75	43.82	
2025-01-11 10:39:41.91	66.62	43.82	
2025-01-11 10:39:42.12	66.49	43.83	
2025-01-11 10:39:42.32	66.37	43.84	
2025-01-11 10:39:42.53	66.24	43.84	
2025-01-11 10:39:42.73	66.11	43.85	
2025-01-11 10:39:42.93	65.99	43.86	
2025-01-11 10:39:43.15	65.85	43.86	
2025-01-11 10:39:43.36	65.72	43.87	
2025-01-11 10:39:43.56	65.59	43.88	
2025-01-11 10:39:43.77	65.46	43.88	
2025-01-11 10:39:43.97	65.34	43.89	
2025-01-11 10:39:44.18	65.20	43.89	
2025-01-11 10:39:44.38	65.08	43.90	
2025-01-11 10:39:44.59	64.95	43.90	
2025-01-11 10:39:44.79	64.82	43.91	
2025-01-11 10:39:45.00	64.69	43.91	
