passes_logs/2025/01/11/SPB_Silybum_02/SPB_Silybum_02__20250111_101435_TERRA_rec.log

#Pass ID: 20250111_101435_TERRA
#Satellite: TERRA
#Configuration: TERRA
#Start time: 2025-01-11 10:14:34

#Version: 2.0.20230423
#Station: SPB_Silybum_02
#Location: 30.233357 lon 59.946436 lat
#TLE: 1 25994U 99068A   25010.80464720  .00000833  00000+0  18136-3 0  9995
#TLE: 2 25994  98.0224  73.9683 0003536  80.9361 344.1935 14.60387279333461

#Time	Az	El	Level	Level2	SNR	BER	Gain	Gain2
2025-01-11 10:14:36.56	9.00	4.06	
2025-01-11 10:14:36.77	8.98	4.07	
2025-01-11 10:14:36.97	8.96	4.08	
2025-01-11 10:14:37.18	8.94	4.09	
2025-01-11 10:14:37.38	8.92	4.10	
2025-01-11 10:14:37.59	8.91	4.12	
2025-01-11 10:14:37.79	8.89	4.13	
2025-01-11 10:14:38.00	8.87	4.14	
2025-01-11 10:14:38.20	8.85	4.15	
2025-01-11 10:14:38.41	8.83	4.17	
2025-01-11 10:14:38.61	8.81	4.18	
2025-01-11 10:14:38.82	8.80	4.19	
2025-01-11 10:14:39.03	8.78	4.20	
2025-01-11 10:14:39.23	8.76	4.22	
2025-01-11 10:14:39.44	8.74	4.23	
2025-01-11 10:14:39.64	8.72	4.24	
2025-01-11 10:14:39.85	8.70	4.25	
2025-01-11 10:14:40.05	8.68	4.27	
2025-01-11 10:14:40.26	8.67	4.28	
2025-01-11 10:14:40.47	8.65	4.29	
2025-01-11 10:14:40.67	8.63	4.30	
2025-01-11 10:14:40.89	8.61	4.32	
2025-01-11 10:14:41.09	8.59	4.33	
2025-01-11 10:14:41.30	8.57	4.34	
2025-01-11 10:14:41.50	8.55	4.35	
2025-01-11 10:14:41.71	8.53	4.37	
2025-01-11 10:14:41.91	8.52	4.38	
2025-01-11 10:14:42.12	8.50	4.39	
2025-01-11 10:14:42.33	8.48	4.40	
2025-01-11 10:14:42.53	8.46	4.42	
2025-01-11 10:14:42.74	8.44	4.43	
2025-01-11 10:14:42.94	8.42	4.44	
2025-01-11 10:14:43.15	8.40	4.45	
2025-01-11 10:14:43.35	8.38	4.47	
2025-01-11 10:14:43.56	8.36	4.48	
2025-01-11 10:14:43.76	8.35	4.49	
2025-01-11 10:14:43.96	8.33	4.50	
2025-01-11 10:14:44.17	8.31	4.52	
2025-01-11 10:14:44.38	8.29	4.53	
2025-01-11 10:14:44.58	8.27	4.54	
2025-01-11 10:14:44.79	8.25	4.55	
2025-01-11 10:14:44.99	8.23	4.57	
2025-01-11 10:14:45.20	8.21	4.58	
2025-01-11 10:14:45.40	8.19	4.59	
2025-01-11 10:14:45.61	8.17	4.60	
2025-01-11 10:14:45.81	8.16	4.62	
2025-01-11 10:14:46.02	8.14	4.63	
2025-01-11 10:14:46.22	8.12	4.64	
2025-01-11 10:14:46.43	8.10	4.65	
2025-01-11 10:14:46.63	8.08	4.67	
2025-01-11 10:14:46.84	8.06	4.68	
2025-01-11 10:14:47.04	8.04	4.69	
2025-01-11 10:14:47.25	8.02	4.70	
2025-01-11 10:14:47.45	8.00	4.72	
2025-01-11 10:14:47.66	7.98	4.73	
2025-01-11 10:14:47.86	7.96	4.74	
2025-01-11 10:14:48.07	7.94	4.75	
2025-01-11 10:14:48.27	7.93	4.77	
2025-01-11 10:14:48.47	7.91	4.78	
2025-01-11 10:14:48.68	7.89	4.79	
2025-01-11 10:14:48.88	7.87	4.80	
2025-01-11 10:14:49.09	7.85	4.82	
2025-01-11 10:14:49.29	7.83	4.83	
2025-01-11 10:14:49.50	7.81	4.84	
2025-01-11 10:14:49.70	7.79	4.85	
2025-01-11 10:14:49.90	7.77	4.86	
2025-01-11 10:14:50.11	7.75	4.88	
2025-01-11 10:14:50.31	7.73	4.89	
2025-01-11 10:14:50.52	7.71	4.90	
2025-01-11 10:14:50.72	7.69	4.92	
2025-01-11 10:14:50.93	7.67	4.93	
2025-01-11 10:14:51.13	7.65	4.94	
2025-01-11 10:14:51.34	7.63	4.95	
2025-01-11 10:14:51.54	7.62	4.97	
2025-01-11 10:14:51.75	7.59	4.98	
2025-01-11 10:14:51.95	7.58	4.99	
2025-01-11 10:14:52.16	7.56	5.00	
2025-01-11 10:14:52.36	7.54	5.02	
2025-01-11 10:14:52.58	7.52	5.03	
2025-01-11 10:14:52.79	7.50	5.04	
2025-01-11 10:14:52.99	7.48	5.05	
2025-01-11 10:14:53.20	7.46	5.07	
2025-01-11 10:14:53.40	7.44	5.08	
2025-01-11 10:14:53.61	7.42	5.09	
2025-01-11 10:14:53.81	7.40	5.11	
2025-01-11 10:14:54.02	7.38	5.12	
2025-01-11 10:14:54.22	7.36	5.13	
2025-01-11 10:14:54.43	7.34	5.14	
2025-01-11 10:14:54.63	7.32	5.16	
2025-01-11 10:14:54.84	7.30	5.17	
2025-01-11 10:14:55.04	7.28	5.18	
2025-01-11 10:14:55.25	7.26	5.19	
2025-01-11 10:14:55.45	7.24	5.21	
2025-01-11 10:14:55.66	7.22	5.22	
2025-01-11 10:14:55.86	7.20	5.23	
2025-01-11 10:14:56.07	7.18	5.24	
2025-01-11 10:14:56.27	7.16	5.26	
2025-01-11 10:14:56.48	7.14	5.27	
2025-01-11 10:14:56.68	7.12	5.28	
2025-01-11 10:14:56.89	7.10	5.30	
2025-01-11 10:14:57.09	7.08	5.31	
2025-01-11 10:14:57.29	7.06	5.32	
2025-01-11 10:14:57.50	7.04	5.33	
2025-01-11 10:14:57.71	7.02	5.35	
2025-01-11 10:14:57.91	7.00	5.36	
2025-01-11 10:14:58.12	6.98	5.37	
2025-01-11 10:14:58.32	6.96	5.38	
2025-01-11 10:14:58.53	6.94	5.40	
2025-01-11 10:14:58.73	6.92	5.41	
2025-01-11 10:14:58.95	6.89	5.42	
2025-01-11 10:14:59.15	6.87	5.44	
2025-01-11 10:14:59.36	6.85	5.45	
2025-01-11 10:14:59.56	6.83	5.46	
2025-01-11 10:14:59.77	6.81	5.47	
2025-01-11 10:14:59.97	6.79	5.49	
2025-01-11 10:15:00.18	6.77	5.50	
2025-01-11 10:15:00.38	6.75	5.51	
2025-01-11 10:15:00.59	6.73	5.52	
2025-01-11 10:15:00.79	6.71	5.54	
2025-01-11 10:15:01.00	6.69	5.55	
2025-01-11 10:15:01.20	6.67	5.56	
2025-01-11 10:15:01.41	6.65	5.58	
2025-01-11 10:15:01.62	6.63	5.59	
2025-01-11 10:15:01.82	6.61	5.60	
2025-01-11 10:15:02.03	6.59	5.61	
2025-01-11 10:15:02.23	6.57	5.63	
2025-01-11 10:15:02.44	6.55	5.64	
2025-01-11 10:15:02.64	6.52	5.65	
2025-01-11 10:15:02.85	6.50	5.67	
2025-01-11 10:15:03.05	6.48	5.68	
2025-01-11 10:15:03.26	6.46	5.69	
2025-01-11 10:15:03.46	6.44	5.70	
2025-01-11 10:15:03.66	6.42	5.72	
2025-01-11 10:15:03.87	6.40	5.73	
2025-01-11 10:15:04.08	6.38	5.74	
2025-01-11 10:15:04.28	6.36	5.75	
2025-01-11 10:15:04.48	6.34	5.77	
2025-01-11 10:15:04.69	6.32	5.78	
2025-01-11 10:15:04.89	6.30	5.79	
2025-01-11 10:15:05.10	6.28	5.81	
2025-01-11 10:15:05.30	6.25	5.82	
2025-01-11 10:15:05.51	6.23	5.83	
2025-01-11 10:15:05.71	6.21	5.84	
2025-01-11 10:15:05.92	6.19	5.86	
2025-01-11 10:15:06.12	6.17	5.87	
2025-01-11 10:15:06.32	6.15	5.88	
2025-01-11 10:15:06.53	6.13	5.90	
2025-01-11 10:15:06.73	6.11	5.91	
2025-01-11 10:15:06.94	6.09	5.92	
2025-01-11 10:15:07.15	6.07	5.93	
2025-01-11 10:15:07.35	6.04	5.95	
2025-01-11 10:15:07.56	6.02	5.96	
2025-01-11 10:15:07.76	6.00	5.97	
2025-01-11 10:15:07.97	5.98	5.99	
2025-01-11 10:15:08.18	5.96	6.00	
2025-01-11 10:15:08.38	5.94	6.01	
2025-01-11 10:15:08.60	5.92	6.03	
2025-01-11 10:15:08.80	5.89	6.04	
2025-01-11 10:15:09.01	5.87	6.05	
2025-01-11 10:15:09.21	5.85	6.06	
2025-01-11 10:15:09.42	5.83	6.08	
2025-01-11 10:15:09.62	5.81	6.09	
2025-01-11 10:15:09.83	5.79	6.10	
2025-01-11 10:15:10.03	5.77	6.12	
2025-01-11 10:15:10.24	5.74	6.13	
2025-01-11 10:15:10.45	5.72	6.14	
2025-01-11 10:15:10.65	5.70	6.15	
2025-01-11 10:15:10.86	5.68	6.17	
2025-01-11 10:15:11.06	5.66	6.18	
2025-01-11 10:15:11.27	5.64	6.19	
2025-01-11 10:15:11.47	5.62	6.21	
2025-01-11 10:15:11.68	5.59	6.22	
2025-01-11 10:15:11.89	5.57	6.23	
2025-01-11 10:15:12.10	5.55	6.25	
2025-01-11 10:15:12.30	5.53	6.26	
2025-01-11 10:15:12.51	5.51	6.27	
2025-01-11 10:15:12.72	5.48	6.28	
2025-01-11 10:15:12.92	5.46	6.30	
2025-01-11 10:15:13.13	5.44	6.31	
2025-01-11 10:15:13.33	5.42	6.32	
2025-01-11 10:15:13.54	5.40	6.34	
2025-01-11 10:15:13.74	5.37	6.35	
2025-01-11 10:15:13.95	5.35	6.36	
2025-01-11 10:15:14.15	5.33	6.38	
2025-01-11 10:15:14.36	5.31	6.39	
2025-01-11 10:15:14.57	5.29	6.40	
2025-01-11 10:15:14.77	5.26	6.41	
2025-01-11 10:15:14.99	5.24	6.43	
2025-01-11 10:15:15.19	5.22	6.44	
2025-01-11 10:15:15.40	5.20	6.45	
2025-01-11 10:15:15.61	5.17	6.47	
2025-01-11 10:15:15.81	5.15	6.48	
2025-01-11 10:15:16.03	5.13	6.49	
2025-01-11 10:15:16.24	5.11	6.51	
2025-01-11 10:15:16.44	5.09	6.52	
2025-01-11 10:15:16.65	5.06	6.53	
2025-01-11 10:15:16.85	5.04	6.55	
2025-01-11 10:15:17.06	5.02	6.56	
2025-01-11 10:15:17.26	5.00	6.57	
2025-01-11 10:15:17.47	4.97	6.59	
2025-01-11 10:15:17.68	4.95	6.60	
2025-01-11 10:15:17.88	4.93	6.61	
2025-01-11 10:15:18.08	4.91	6.62	
2025-01-11 10:15:18.29	4.89	6.64	
2025-01-11 10:15:18.50	4.86	6.65	
2025-01-11 10:15:18.70	4.84	6.66	
2025-01-11 10:15:18.91	4.82	6.68	
2025-01-11 10:15:19.11	4.80	6.69	
2025-01-11 10:15:19.32	4.77	6.70	
2025-01-11 10:15:19.52	4.75	6.72	
2025-01-11 10:15:19.73	4.73	6.73	
2025-01-11 10:15:19.93	4.71	6.74	
2025-01-11 10:15:20.14	4.68	6.76	
2025-01-11 10:15:20.34	4.66	6.77	
2025-01-11 10:15:20.55	4.64	6.78	
2025-01-11 10:15:20.75	4.62	6.79	
2025-01-11 10:15:20.96	4.59	6.81	
2025-01-11 10:15:21.16	4.57	6.82	
2025-01-11 10:15:21.37	4.55	6.83	
2025-01-11 10:15:21.57	4.53	6.85	
2025-01-11 10:15:21.78	4.50	6.86	
2025-01-11 10:15:21.98	4.48	6.87	
2025-01-11 10:15:22.19	4.46	6.89	
2025-01-11 10:15:22.39	4.43	6.90	
2025-01-11 10:15:22.60	4.41	6.91	
2025-01-11 10:15:22.80	4.39	6.93	
2025-01-11 10:15:23.01	4.37	6.94	
2025-01-11 10:15:23.22	4.34	6.95	
2025-01-11 10:15:23.42	4.32	6.97	
2025-01-11 10:15:23.62	4.30	6.98	
2025-01-11 10:15:23.83	4.27	6.99	
2025-01-11 10:15:24.03	4.25	7.00	
2025-01-11 10:15:24.24	4.23	7.02	
2025-01-11 10:15:24.45	4.20	7.03	
2025-01-11 10:15:24.65	4.18	7.04	
2025-01-11 10:15:24.85	4.16	7.06	
2025-01-11 10:15:25.06	4.14	7.07	
2025-01-11 10:15:25.27	4.11	7.08	
2025-01-11 10:15:25.47	4.09	7.10	
2025-01-11 10:15:25.69	4.06	7.11	
2025-01-11 10:15:25.90	4.04	7.12	
2025-01-11 10:15:26.10	4.02	7.14	
2025-01-11 10:15:26.31	3.99	7.15	
2025-01-11 10:15:26.51	3.97	7.16	
2025-01-11 10:15:26.72	3.95	7.18	
2025-01-11 10:15:26.92	3.93	7.19	
2025-01-11 10:15:27.13	3.90	7.20	
2025-01-11 10:15:27.34	3.88	7.22	
2025-01-11 10:15:27.54	3.86	7.23	
2025-01-11 10:15:27.74	3.83	7.24	
2025-01-11 10:15:27.95	3.81	7.26	
2025-01-11 10:15:28.15	3.79	7.27	
2025-01-11 10:15:28.36	3.76	7.28	
2025-01-11 10:15:28.56	3.74	7.30	
2025-01-11 10:15:28.77	3.71	7.31	
2025-01-11 10:15:28.97	3.69	7.32	
2025-01-11 10:15:29.18	3.67	7.34	
2025-01-11 10:15:29.38	3.64	7.35	
2025-01-11 10:15:29.59	3.62	7.36	
2025-01-11 10:15:29.79	3.60	7.38	
2025-01-11 10:15:30.00	3.57	7.39	
2025-01-11 10:15:30.20	3.55	7.40	
2025-01-11 10:15:30.41	3.53	7.42	
2025-01-11 10:15:30.62	3.50	7.43	
2025-01-11 10:15:30.82	3.48	7.44	
2025-01-11 10:15:31.02	3.46	7.45	
2025-01-11 10:15:31.23	3.43	7.47	
2025-01-11 10:15:31.45	3.41	7.48	
2025-01-11 10:15:31.65	3.38	7.50	
2025-01-11 10:15:31.86	3.36	7.51	
2025-01-11 10:15:32.06	3.33	7.52	
2025-01-11 10:15:32.27	3.31	7.54	
2025-01-11 10:15:32.47	3.29	7.55	
2025-01-11 10:15:32.68	3.26	7.56	
2025-01-11 10:15:32.89	3.24	7.58	
2025-01-11 10:15:33.10	3.21	7.59	
2025-01-11 10:15:33.31	3.19	7.60	
2025-01-11 10:15:33.51	3.16	7.62	
2025-01-11 10:15:33.72	3.14	7.63	
2025-01-11 10:15:33.92	3.12	7.64	
2025-01-11 10:15:34.13	3.09	7.66	
2025-01-11 10:15:34.33	3.07	7.67	
2025-01-11 10:15:34.54	3.04	7.68	
2025-01-11 10:15:34.74	3.02	7.70	
2025-01-11 10:15:34.95	3.00	7.71	
2025-01-11 10:15:35.16	2.97	7.72	
2025-01-11 10:15:35.36	2.95	7.74	
2025-01-11 10:15:35.57	2.92	7.75	
2025-01-11 10:15:35.77	2.90	7.76	
2025-01-11 10:15:35.98	2.87	7.78	
2025-01-11 10:15:36.18	2.85	7.79	
2025-01-11 10:15:36.39	2.82	7.80	
2025-01-11 10:15:36.59	2.80	7.82	
2025-01-11 10:15:36.80	2.78	7.83	
2025-01-11 10:15:37.00	2.75	7.84	
2025-01-11 10:15:37.21	2.73	7.86	
2025-01-11 10:15:37.41	2.70	7.87	
2025-01-11 10:15:37.62	2.68	7.88	
2025-01-11 10:15:37.82	2.65	7.90	
2025-01-11 10:15:38.03	2.63	7.91	
2025-01-11 10:15:38.23	2.60	7.92	
2025-01-11 10:15:38.44	2.58	7.94	
2025-01-11 10:15:38.64	2.56	7.95	
2025-01-11 10:15:38.85	2.53	7.96	
2025-01-11 10:15:39.06	2.50	7.98	
2025-01-11 10:15:39.26	2.48	7.99	
2025-01-11 10:15:39.47	2.45	8.00	
2025-01-11 10:15:39.67	2.43	8.02	
2025-01-11 10:15:39.88	2.41	8.03	
2025-01-11 10:15:40.08	2.38	8.04	
2025-01-11 10:15:40.29	2.36	8.06	
2025-01-11 10:15:40.50	2.33	8.07	
2025-01-11 10:15:40.71	2.30	8.08	
2025-01-11 10:15:40.92	2.28	8.10	
2025-01-11 10:15:41.12	2.25	8.11	
2025-01-11 10:15:41.33	2.23	8.13	
2025-01-11 10:15:41.53	2.20	8.14	
2025-01-11 10:15:41.74	2.18	8.15	
2025-01-11 10:15:41.94	2.15	8.17	
2025-01-11 10:15:42.15	2.13	8.18	
2025-01-11 10:15:42.36	2.10	8.19	
2025-01-11 10:15:42.56	2.08	8.21	
2025-01-11 10:15:42.77	2.05	8.22	
2025-01-11 10:15:42.97	2.03	8.23	
2025-01-11 10:15:43.18	2.00	8.25	
2025-01-11 10:15:43.38	1.98	8.26	
2025-01-11 10:15:43.59	1.95	8.27	
2025-01-11 10:15:43.79	1.93	8.29	
2025-01-11 10:15:44.00	1.90	8.30	
2025-01-11 10:15:44.20	1.88	8.31	
2025-01-11 10:15:44.41	1.85	8.33	
2025-01-11 10:15:44.61	1.83	8.34	
2025-01-11 10:15:44.82	1.80	8.35	
2025-01-11 10:15:45.02	1.77	8.37	
2025-01-11 10:15:45.23	1.75	8.38	
2025-01-11 10:15:45.43	1.72	8.39	
2025-01-11 10:15:45.64	1.70	8.41	
2025-01-11 10:15:45.84	1.67	8.42	
2025-01-11 10:15:46.04	1.65	8.43	
2025-01-11 10:15:46.25	1.62	8.45	
2025-01-11 10:15:46.46	1.59	8.46	
2025-01-11 10:15:46.66	1.57	8.47	
2025-01-11 10:15:46.86	1.54	8.49	
2025-01-11 10:15:47.07	1.52	8.50	
2025-01-11 10:15:47.27	1.49	8.51	
2025-01-11 10:15:47.48	1.47	8.53	
2025-01-11 10:15:47.68	1.44	8.54	
2025-01-11 10:15:47.89	1.42	8.56	
2025-01-11 10:15:48.09	1.39	8.57	
2025-01-11 10:15:48.30	1.36	8.58	
2025-01-11 10:15:48.51	1.34	8.60	
2025-01-11 10:15:48.71	1.31	8.61	
2025-01-11 10:15:48.92	1.29	8.62	
2025-01-11 10:15:49.13	1.26	8.64	
2025-01-11 10:15:49.34	1.23	8.65	
2025-01-11 10:15:49.55	1.21	8.67	
2025-01-11 10:15:49.75	1.18	8.68	
2025-01-11 10:15:49.96	1.15	8.69	
2025-01-11 10:15:50.16	1.13	8.71	
2025-01-11 10:15:50.36	1.10	8.72	
2025-01-11 10:15:50.57	1.08	8.73	
2025-01-11 10:15:50.77	1.05	8.75	
2025-01-11 10:15:50.98	1.02	8.76	
2025-01-11 10:15:51.18	1.00	8.77	
2025-01-11 10:15:51.39	0.97	8.79	
2025-01-11 10:15:51.59	0.94	8.80	
2025-01-11 10:15:51.80	0.92	8.81	
2025-01-11 10:15:52.00	0.89	8.83	
2025-01-11 10:15:52.21	0.86	8.84	
2025-01-11 10:15:52.41	0.84	8.85	
2025-01-11 10:15:52.62	0.81	8.87	
2025-01-11 10:15:52.82	0.79	8.88	
2025-01-11 10:15:53.03	0.76	8.89	
2025-01-11 10:15:53.23	0.73	8.91	
2025-01-11 10:15:53.44	0.71	8.92	
2025-01-11 10:15:53.64	0.68	8.94	
2025-01-11 10:15:53.85	0.65	8.95	
2025-01-11 10:15:54.05	0.63	8.96	
2025-01-11 10:15:54.26	0.60	8.98	
2025-01-11 10:15:54.46	0.57	8.99	
2025-01-11 10:15:54.67	0.55	9.00	
2025-01-11 10:15:54.88	0.52	9.02	
2025-01-11 10:15:55.08	0.49	9.03	
2025-01-11 10:15:55.29	0.46	9.04	
2025-01-11 10:15:55.49	0.44	9.06	
2025-01-11 10:15:55.70	0.41	9.07	
2025-01-11 10:15:55.90	0.38	9.09	
2025-01-11 10:15:56.11	0.36	9.10	
2025-01-11 10:15:56.31	0.33	9.11	
2025-01-11 10:15:56.52	0.30	9.13	
2025-01-11 10:15:56.72	0.28	9.14	
2025-01-11 10:15:56.93	0.25	9.15	
2025-01-11 10:15:57.13	0.22	9.17	
2025-01-11 10:15:57.34	0.19	9.18	
2025-01-11 10:15:57.54	0.17	9.19	
2025-01-11 10:15:57.75	0.14	9.21	
2025-01-11 10:15:57.95	0.11	9.22	
2025-01-11 10:15:58.16	0.09	9.24	
2025-01-11 10:15:58.37	0.06	9.25	
2025-01-11 10:15:58.57	0.03	9.26	
2025-01-11 10:15:58.78	0.00	9.28	
2025-01-11 10:15:58.98	359.98	9.29	
2025-01-11 10:15:59.19	359.95	9.30	
2025-01-11 10:15:59.39	359.92	9.32	
2025-01-11 10:15:59.60	359.89	9.33	
2025-01-11 10:15:59.80	359.87	9.34	
2025-01-11 10:16:00.01	359.84	9.36	
2025-01-11 10:16:00.21	359.81	9.37	
2025-01-11 10:16:00.42	359.78	9.39	
2025-01-11 10:16:00.62	359.76	9.40	
2025-01-11 10:16:00.83	359.73	9.41	
2025-01-11 10:16:01.03	359.70	9.43	
2025-01-11 10:16:01.24	359.67	9.44	
2025-01-11 10:16:01.45	359.65	9.45	
2025-01-11 10:16:01.65	359.62	9.47	
2025-01-11 10:16:01.86	359.59	9.48	
2025-01-11 10:16:02.06	359.56	9.49	
2025-01-11 10:16:02.27	359.53	9.51	
2025-01-11 10:16:02.47	359.51	9.52	
2025-01-11 10:16:02.68	359.48	9.54	
2025-01-11 10:16:02.88	359.45	9.55	
2025-01-11 10:16:03.09	359.42	9.56	
2025-01-11 10:16:03.29	359.40	9.58	
2025-01-11 10:16:03.50	359.37	9.59	
2025-01-11 10:16:03.70	359.34	9.60	
2025-01-11 10:16:03.91	359.31	9.62	
2025-01-11 10:16:04.11	359.28	9.63	
2025-01-11 10:16:04.32	359.26	9.65	
2025-01-11 10:16:04.52	359.23	9.66	
2025-01-11 10:16:04.73	359.20	9.67	
2025-01-11 10:16:04.94	359.17	9.69	
2025-01-11 10:16:05.14	359.14	9.70	
2025-01-11 10:16:05.34	359.12	9.71	
2025-01-11 10:16:05.55	359.09	9.73	
2025-01-11 10:16:05.76	359.06	9.74	
2025-01-11 10:16:05.96	359.03	9.76	
2025-01-11 10:16:06.17	359.00	9.77	
2025-01-11 10:16:06.37	358.97	9.78	
2025-01-11 10:16:06.58	358.94	9.80	
2025-01-11 10:16:06.78	358.92	9.81	
2025-01-11 10:16:06.99	358.89	9.82	
2025-01-11 10:16:07.19	358.86	9.84	
2025-01-11 10:16:07.41	358.83	9.85	
2025-01-11 10:16:07.62	358.80	9.87	
2025-01-11 10:16:07.82	358.77	9.88	
2025-01-11 10:16:08.03	358.74	9.89	
2025-01-11 10:16:08.24	358.71	9.91	
2025-01-11 10:16:08.44	358.68	9.92	
2025-01-11 10:16:08.65	358.66	9.94	
2025-01-11 10:16:08.85	358.63	9.95	
2025-01-11 10:16:09.05	358.60	9.96	
2025-01-11 10:16:09.26	358.57	9.98	
2025-01-11 10:16:09.46	358.54	9.99	
2025-01-11 10:16:09.66	358.51	10.00	
2025-01-11 10:16:09.87	358.48	10.02	
2025-01-11 10:16:10.07	358.46	10.03	
2025-01-11 10:16:10.28	358.43	10.04	
2025-01-11 10:16:10.48	358.40	10.06	
2025-01-11 10:16:10.69	358.37	10.07	
2025-01-11 10:16:10.90	358.34	10.09	
2025-01-11 10:16:11.10	358.31	10.10	
2025-01-11 10:16:11.31	358.28	10.11	
2025-01-11 10:16:11.51	358.25	10.13	
2025-01-11 10:16:11.72	358.22	10.14	
2025-01-11 10:16:11.92	358.19	10.15	
2025-01-11 10:16:12.13	358.16	10.17	
2025-01-11 10:16:12.33	358.14	10.18	
2025-01-11 10:16:12.53	358.11	10.20	
2025-01-11 10:16:12.74	358.08	10.21	
2025-01-11 10:16:12.94	358.05	10.22	
2025-01-11 10:16:13.14	358.02	10.24	
2025-01-11 10:16:13.35	357.99	10.25	
2025-01-11 10:16:13.56	357.96	10.27	
2025-01-11 10:16:13.76	357.93	10.28	
2025-01-11 10:16:13.97	357.90	10.29	
2025-01-11 10:16:14.17	357.87	10.31	
2025-01-11 10:16:14.38	357.84	10.32	
2025-01-11 10:16:14.58	357.81	10.33	
2025-01-11 10:16:14.79	357.78	10.35	
2025-01-11 10:16:14.99	357.75	10.36	
2025-01-11 10:16:15.20	357.72	10.38	
2025-01-11 10:16:15.40	357.69	10.39	
2025-01-11 10:16:15.61	357.66	10.40	
2025-01-11 10:16:15.81	357.63	10.42	
2025-01-11 10:16:16.02	357.60	10.43	
2025-01-11 10:16:16.22	357.57	10.44	
2025-01-11 10:16:16.43	357.54	10.46	
2025-01-11 10:16:16.63	357.52	10.47	
2025-01-11 10:16:16.84	357.48	10.49	
2025-01-11 10:16:17.04	357.46	10.50	
2025-01-11 10:16:17.24	357.43	10.51	
2025-01-11 10:16:17.45	357.40	10.53	
2025-01-11 10:16:17.66	357.36	10.54	
2025-01-11 10:16:17.86	357.34	10.55	
2025-01-11 10:16:18.06	357.31	10.57	
2025-01-11 10:16:18.27	357.27	10.58	
2025-01-11 10:16:18.47	357.25	10.60	
2025-01-11 10:16:18.68	357.21	10.61	
2025-01-11 10:16:18.88	357.19	10.62	
2025-01-11 10:16:19.09	357.15	10.64	
2025-01-11 10:16:19.29	357.12	10.65	
2025-01-11 10:16:19.50	357.09	10.67	
2025-01-11 10:16:19.71	357.06	10.68	
2025-01-11 10:16:19.91	357.03	10.69	
2025-01-11 10:16:20.12	357.00	10.71	
2025-01-11 10:16:20.32	356.97	10.72	
2025-01-11 10:16:20.53	356.94	10.73	
2025-01-11 10:16:20.73	356.91	10.75	
2025-01-11 10:16:20.94	356.88	10.76	
2025-01-11 10:16:21.14	356.85	10.78	
2025-01-11 10:16:21.35	356.82	10.79	
2025-01-11 10:16:21.55	356.79	10.80	
2025-01-11 10:16:21.76	356.76	10.82	
2025-01-11 10:16:21.96	356.73	10.83	
2025-01-11 10:16:22.17	356.70	10.85	
2025-01-11 10:16:22.37	356.67	10.86	
2025-01-11 10:16:22.58	356.63	10.87	
2025-01-11 10:16:22.78	356.60	10.89	
2025-01-11 10:16:22.99	356.57	10.90	
2025-01-11 10:16:23.19	356.54	10.91	
2025-01-11 10:16:23.40	356.51	10.93	
2025-01-11 10:16:23.60	356.48	10.94	
2025-01-11 10:16:23.81	356.45	10.96	
2025-01-11 10:16:24.02	356.42	10.97	
2025-01-11 10:16:24.22	356.39	10.98	
2025-01-11 10:16:24.42	356.36	11.00	
2025-01-11 10:16:24.63	356.32	11.01	
2025-01-11 10:16:24.84	356.29	11.03	
2025-01-11 10:16:25.04	356.26	11.04	
2025-01-11 10:16:25.24	356.23	11.05	
2025-01-11 10:16:25.45	356.20	11.07	
2025-01-11 10:16:25.65	356.17	11.08	
2025-01-11 10:16:25.86	356.14	11.09	
2025-01-11 10:16:26.07	356.10	11.11	
2025-01-11 10:16:26.27	356.07	11.12	
2025-01-11 10:16:26.48	356.04	11.14	
2025-01-11 10:16:26.68	356.01	11.15	
2025-01-11 10:16:26.89	355.98	11.16	
2025-01-11 10:16:27.09	355.95	11.18	
2025-01-11 10:16:27.30	355.92	11.19	
2025-01-11 10:16:27.50	355.89	11.21	
2025-01-11 10:16:27.71	355.85	11.22	
2025-01-11 10:16:27.91	355.82	11.23	
2025-01-11 10:16:28.12	355.79	11.25	
2025-01-11 10:16:28.32	355.76	11.26	
2025-01-11 10:16:28.53	355.73	11.27	
2025-01-11 10:16:28.73	355.70	11.29	
2025-01-11 10:16:28.94	355.66	11.30	
2025-01-11 10:16:29.14	355.63	11.32	
2025-01-11 10:16:29.35	355.60	11.33	
2025-01-11 10:16:29.55	355.57	11.34	
2025-01-11 10:16:29.76	355.54	11.36	
2025-01-11 10:16:29.96	355.50	11.37	
2025-01-11 10:16:30.17	355.47	11.39	
2025-01-11 10:16:30.38	355.44	11.40	
2025-01-11 10:16:30.58	355.41	11.41	
2025-01-11 10:16:30.78	355.38	11.43	
2025-01-11 10:16:30.99	355.34	11.44	
2025-01-11 10:16:31.20	355.31	11.46	
2025-01-11 10:16:31.40	355.28	11.47	
2025-01-11 10:16:31.61	355.25	11.48	
2025-01-11 10:16:31.81	355.21	11.50	
2025-01-11 10:16:32.01	355.18	11.51	
2025-01-11 10:16:32.22	355.15	11.52	
2025-01-11 10:16:32.42	355.12	11.54	
2025-01-11 10:16:32.63	355.08	11.55	
2025-01-11 10:16:32.84	355.05	11.57	
2025-01-11 10:16:33.05	355.02	11.58	
2025-01-11 10:16:33.26	354.98	11.59	
2025-01-11 10:16:33.47	354.95	11.61	
2025-01-11 10:16:33.67	354.92	11.62	
2025-01-11 10:16:33.88	354.89	11.64	
2025-01-11 10:16:34.08	354.85	11.65	
2025-01-11 10:16:34.29	354.82	11.66	
2025-01-11 10:16:34.49	354.79	11.68	
2025-01-11 10:16:34.70	354.76	11.69	
2025-01-11 10:16:34.91	354.72	11.71	
2025-01-11 10:16:35.11	354.69	11.72	
2025-01-11 10:16:35.31	354.66	11.73	
2025-01-11 10:16:35.52	354.62	11.75	
2025-01-11 10:16:35.73	354.59	11.76	
2025-01-11 10:16:35.93	354.56	11.78	
2025-01-11 10:16:36.13	354.53	11.79	
2025-01-11 10:16:36.34	354.49	11.80	
2025-01-11 10:16:36.55	354.46	11.82	
2025-01-11 10:16:36.75	354.43	11.83	
2025-01-11 10:16:36.96	354.39	11.84	
2025-01-11 10:16:37.16	354.36	11.86	
2025-01-11 10:16:37.37	354.33	11.87	
2025-01-11 10:16:37.57	354.29	11.89	
2025-01-11 10:16:37.78	354.26	11.90	
2025-01-11 10:16:37.99	354.23	11.91	
2025-01-11 10:16:38.19	354.19	11.93	
2025-01-11 10:16:38.40	354.16	11.94	
2025-01-11 10:16:38.60	354.13	11.96	
2025-01-11 10:16:38.81	354.09	11.97	
2025-01-11 10:16:39.01	354.06	11.98	
2025-01-11 10:16:39.22	354.02	12.00	
2025-01-11 10:16:39.44	353.99	12.01	
2025-01-11 10:16:39.64	353.96	12.03	
2025-01-11 10:16:39.85	353.92	12.04	
2025-01-11 10:16:40.05	353.89	12.05	
2025-01-11 10:16:40.26	353.85	12.07	
2025-01-11 10:16:40.46	353.82	12.08	
2025-01-11 10:16:40.67	353.79	12.10	
2025-01-11 10:16:40.87	353.75	12.11	
2025-01-11 10:16:41.07	353.72	12.12	
2025-01-11 10:16:41.28	353.69	12.14	
2025-01-11 10:16:41.48	353.65	12.15	
2025-01-11 10:16:41.69	353.62	12.16	
2025-01-11 10:16:41.89	353.59	12.18	
2025-01-11 10:16:42.10	353.55	12.19	
2025-01-11 10:16:42.31	353.52	12.21	
2025-01-11 10:16:42.51	353.48	12.22	
2025-01-11 10:16:42.71	353.45	12.23	
2025-01-11 10:16:42.92	353.41	12.25	
2025-01-11 10:16:43.13	353.38	12.26	
2025-01-11 10:16:43.33	353.35	12.28	
2025-01-11 10:16:43.54	353.31	12.29	
2025-01-11 10:16:43.74	353.28	12.30	
2025-01-11 10:16:43.95	353.24	12.32	
2025-01-11 10:16:44.15	353.21	12.33	
2025-01-11 10:16:44.36	353.17	12.35	
2025-01-11 10:16:44.57	353.14	12.36	
2025-01-11 10:16:44.77	353.10	12.37	
2025-01-11 10:16:44.98	353.07	12.39	
2025-01-11 10:16:45.18	353.04	12.40	
2025-01-11 10:16:45.39	353.00	12.41	
2025-01-11 10:16:45.59	352.97	12.43	
2025-01-11 10:16:45.79	352.93	12.44	
2025-01-11 10:16:46.00	352.90	12.46	
2025-01-11 10:16:46.21	352.86	12.47	
2025-01-11 10:16:46.41	352.83	12.48	
2025-01-11 10:16:46.62	352.79	12.50	
2025-01-11 10:16:46.82	352.76	12.51	
2025-01-11 10:16:47.02	352.72	12.52	
2025-01-11 10:16:47.23	352.69	12.54	
2025-01-11 10:16:47.43	352.65	12.55	
2025-01-11 10:16:47.64	352.62	12.57	
2025-01-11 10:16:47.85	352.58	12.58	
2025-01-11 10:16:48.05	352.55	12.59	
2025-01-11 10:16:48.26	352.51	12.61	
2025-01-11 10:16:48.46	352.48	12.62	
2025-01-11 10:16:48.67	352.44	12.64	
2025-01-11 10:16:48.87	352.41	12.65	
2025-01-11 10:16:49.07	352.37	12.66	
2025-01-11 10:16:49.28	352.34	12.68	
2025-01-11 10:16:49.48	352.30	12.69	
2025-01-11 10:16:49.69	352.27	12.70	
2025-01-11 10:16:49.90	352.23	12.72	
2025-01-11 10:16:50.10	352.20	12.73	
2025-01-11 10:16:50.31	352.16	12.75	
2025-01-11 10:16:50.51	352.13	12.76	
2025-01-11 10:16:50.72	352.09	12.77	
2025-01-11 10:16:50.92	352.05	12.79	
2025-01-11 10:16:51.13	352.02	12.80	
2025-01-11 10:16:51.33	351.98	12.82	
2025-01-11 10:16:51.54	351.95	12.83	
2025-01-11 10:16:51.75	351.91	12.84	
2025-01-11 10:16:51.95	351.88	12.86	
2025-01-11 10:16:52.16	351.84	12.87	
2025-01-11 10:16:52.36	351.80	12.88	
2025-01-11 10:16:52.57	351.77	12.90	
2025-01-11 10:16:52.77	351.73	12.91	
2025-01-11 10:16:52.98	351.70	12.93	
2025-01-11 10:16:53.18	351.66	12.94	
2025-01-11 10:16:53.39	351.62	12.95	
2025-01-11 10:16:53.59	351.59	12.97	
2025-01-11 10:16:53.79	351.55	12.98	
2025-01-11 10:16:54.00	351.52	12.99	
2025-01-11 10:16:54.21	351.48	13.01	
2025-01-11 10:16:54.41	351.44	13.02	
2025-01-11 10:16:54.62	351.41	13.04	
2025-01-11 10:16:54.82	351.37	13.05	
2025-01-11 10:16:55.03	351.33	13.06	
2025-01-11 10:16:55.23	351.30	13.08	
2025-01-11 10:16:55.44	351.26	13.09	
2025-01-11 10:16:55.64	351.23	13.10	
2025-01-11 10:16:55.85	351.19	13.12	
2025-01-11 10:16:56.06	351.15	13.13	
2025-01-11 10:16:56.26	351.12	13.15	
2025-01-11 10:16:56.47	351.08	13.16	
2025-01-11 10:16:56.67	351.04	13.17	
2025-01-11 10:16:56.88	351.01	13.19	
2025-01-11 10:16:57.08	350.97	13.20	
2025-01-11 10:16:57.28	350.93	13.21	
2025-01-11 10:16:57.49	350.90	13.23	
2025-01-11 10:16:57.69	350.86	13.24	
2025-01-11 10:16:57.90	350.82	13.26	
2025-01-11 10:16:58.10	350.79	13.27	
2025-01-11 10:16:58.31	350.75	13.28	
2025-01-11 10:16:58.52	350.71	13.30	
2025-01-11 10:16:58.72	350.68	13.31	
2025-01-11 10:16:58.92	350.64	13.32	
2025-01-11 10:16:59.13	350.60	13.34	
2025-01-11 10:16:59.34	350.56	13.35	
2025-01-11 10:16:59.54	350.53	13.37	
2025-01-11 10:16:59.75	350.49	13.38	
2025-01-11 10:16:59.95	350.45	13.39	
2025-01-11 10:17:00.15	350.42	13.41	
2025-01-11 10:17:00.36	350.38	13.42	
2025-01-11 10:17:00.56	350.34	13.43	
2025-01-11 10:17:00.77	350.30	13.45	
2025-01-11 10:17:00.97	350.27	13.46	
2025-01-11 10:17:01.18	350.23	13.48	
2025-01-11 10:17:01.38	350.19	13.49	
2025-01-11 10:17:01.59	350.15	13.50	
2025-01-11 10:17:01.79	350.12	13.52	
2025-01-11 10:17:02.00	350.08	13.53	
2025-01-11 10:17:02.20	350.04	13.54	
2025-01-11 10:17:02.41	350.00	13.56	
2025-01-11 10:17:02.61	349.97	13.57	
2025-01-11 10:17:02.82	349.93	13.59	
2025-01-11 10:17:03.02	349.89	13.60	
2025-01-11 10:17:03.23	349.85	13.61	
2025-01-11 10:17:03.43	349.82	13.63	
2025-01-11 10:17:03.64	349.78	13.64	
2025-01-11 10:17:03.84	349.74	13.65	
2025-01-11 10:17:04.04	349.70	13.67	
2025-01-11 10:17:04.25	349.66	13.68	
2025-01-11 10:17:04.46	349.63	13.69	
2025-01-11 10:17:04.66	349.59	13.71	
2025-01-11 10:17:04.87	349.55	13.72	
2025-01-11 10:17:05.07	349.51	13.73	
2025-01-11 10:17:05.28	349.47	13.75	
2025-01-11 10:17:05.48	349.44	13.76	
2025-01-11 10:17:05.69	349.40	13.78	
2025-01-11 10:17:05.89	349.36	13.79	
2025-01-11 10:17:06.10	349.32	13.80	
2025-01-11 10:17:06.30	349.28	13.82	
2025-01-11 10:17:06.51	349.24	13.83	
2025-01-11 10:17:06.71	349.21	13.84	
2025-01-11 10:17:06.92	349.17	13.86	
2025-01-11 10:17:07.12	349.13	13.87	
2025-01-11 10:17:07.33	349.09	13.88	
2025-01-11 10:17:07.53	349.05	13.90	
2025-01-11 10:17:07.74	349.01	13.91	
2025-01-11 10:17:07.94	348.98	13.93	
2025-01-11 10:17:08.15	348.94	13.94	
2025-01-11 10:17:08.35	348.90	13.95	
2025-01-11 10:17:08.56	348.86	13.97	
2025-01-11 10:17:08.77	348.82	13.98	
2025-01-11 10:17:08.97	348.78	13.99	
2025-01-11 10:17:09.18	348.74	14.01	
2025-01-11 10:17:09.38	348.70	14.02	
2025-01-11 10:17:09.59	348.66	14.03	
2025-01-11 10:17:09.79	348.62	14.05	
2025-01-11 10:17:10.00	348.58	14.06	
2025-01-11 10:17:10.20	348.55	14.07	
2025-01-11 10:17:10.40	348.51	14.09	
2025-01-11 10:17:10.61	348.47	14.10	
2025-01-11 10:17:10.81	348.43	14.11	
2025-01-11 10:17:11.02	348.39	14.13	
2025-01-11 10:17:11.23	348.35	14.14	
2025-01-11 10:17:11.43	348.31	14.16	
2025-01-11 10:17:11.64	348.27	14.17	
2025-01-11 10:17:11.84	348.23	14.18	
2025-01-11 10:17:12.05	348.19	14.20	
2025-01-11 10:17:12.25	348.15	14.21	
2025-01-11 10:17:12.46	348.11	14.22	
2025-01-11 10:17:12.66	348.08	14.24	
2025-01-11 10:17:12.87	348.03	14.25	
2025-01-11 10:17:13.07	348.00	14.26	
2025-01-11 10:17:13.28	347.96	14.28	
2025-01-11 10:17:13.48	347.92	14.29	
2025-01-11 10:17:13.69	347.88	14.30	
2025-01-11 10:17:13.89	347.84	14.32	
2025-01-11 10:17:14.10	347.80	14.33	
2025-01-11 10:17:14.31	347.76	14.34	
2025-01-11 10:17:14.51	347.72	14.36	
2025-01-11 10:17:14.72	347.68	14.37	
2025-01-11 10:17:14.92	347.64	14.38	
2025-01-11 10:17:15.13	347.60	14.40	
2025-01-11 10:17:15.34	347.55	14.41	
2025-01-11 10:17:15.54	347.52	14.43	
2025-01-11 10:17:15.74	347.48	14.44	
2025-01-11 10:17:15.95	347.44	14.45	
2025-01-11 10:17:16.16	347.39	14.47	
2025-01-11 10:17:16.36	347.35	14.48	
2025-01-11 10:17:16.57	347.31	14.49	
2025-01-11 10:17:16.77	347.27	14.51	
2025-01-11 10:17:16.98	347.23	14.52	
2025-01-11 10:17:17.18	347.19	14.53	
2025-01-11 10:17:17.39	347.15	14.55	
2025-01-11 10:17:17.59	347.11	14.56	
2025-01-11 10:17:17.80	347.07	14.57	
2025-01-11 10:17:18.00	347.03	14.59	
2025-01-11 10:17:18.21	346.99	14.60	
2025-01-11 10:17:18.41	346.95	14.61	
2025-01-11 10:17:18.62	346.91	14.63	
2025-01-11 10:17:18.82	346.87	14.64	
2025-01-11 10:17:19.03	346.83	14.65	
2025-01-11 10:17:19.23	346.79	14.67	
2025-01-11 10:17:19.44	346.75	14.68	
2025-01-11 10:17:19.65	346.70	14.69	
2025-01-11 10:17:19.85	346.66	14.71	
2025-01-11 10:17:20.06	346.62	14.72	
2025-01-11 10:17:20.26	346.58	14.73	
2025-01-11 10:17:20.47	346.54	14.75	
2025-01-11 10:17:20.67	346.50	14.76	
2025-01-11 10:17:20.88	346.46	14.77	
2025-01-11 10:17:21.08	346.42	14.79	
2025-01-11 10:17:21.29	346.38	14.80	
2025-01-11 10:17:21.49	346.34	14.81	
2025-01-11 10:17:21.70	346.29	14.83	
2025-01-11 10:17:21.91	346.25	14.84	
2025-01-11 10:17:22.11	346.21	14.85	
2025-01-11 10:17:22.31	346.17	14.86	
2025-01-11 10:17:22.52	346.13	14.88	
2025-01-11 10:17:22.72	346.09	14.89	
2025-01-11 10:17:22.93	346.04	14.90	
2025-01-11 10:17:23.13	346.00	14.92	
2025-01-11 10:17:23.34	345.96	14.93	
2025-01-11 10:17:23.54	345.92	14.94	
2025-01-11 10:17:23.75	345.88	14.96	
2025-01-11 10:17:23.96	345.84	14.97	
2025-01-11 10:17:24.16	345.79	14.98	
2025-01-11 10:17:24.37	345.75	15.00	
2025-01-11 10:17:24.57	345.71	15.01	
2025-01-11 10:17:24.78	345.67	15.02	
2025-01-11 10:17:24.98	345.63	15.04	
2025-01-11 10:17:25.19	345.58	15.05	
2025-01-11 10:17:25.39	345.54	15.06	
2025-01-11 10:17:25.60	345.50	15.08	
2025-01-11 10:17:25.80	345.46	15.09	
2025-01-11 10:17:26.01	345.42	15.10	
2025-01-11 10:17:26.21	345.38	15.11	
2025-01-11 10:17:26.42	345.33	15.13	
2025-01-11 10:17:26.62	345.29	15.14	
2025-01-11 10:17:26.83	345.25	15.15	
2025-01-11 10:17:27.03	345.21	15.17	
2025-01-11 10:17:27.24	345.16	15.18	
2025-01-11 10:17:27.44	345.12	15.19	
2025-01-11 10:17:27.65	345.08	15.21	
2025-01-11 10:17:27.85	345.04	15.22	
2025-01-11 10:17:28.06	344.99	15.23	
2025-01-11 10:17:28.27	344.95	15.25	
2025-01-11 10:17:28.47	344.91	15.26	
2025-01-11 10:17:28.67	344.87	15.27	
2025-01-11 10:17:28.88	344.82	15.28	
2025-01-11 10:17:29.09	344.78	15.30	
2025-01-11 10:17:29.29	344.74	15.31	
2025-01-11 10:17:29.50	344.69	15.32	
2025-01-11 10:17:29.70	344.65	15.34	
2025-01-11 10:17:29.91	344.61	15.35	
2025-01-11 10:17:30.11	344.57	15.36	
2025-01-11 10:17:30.32	344.52	15.38	
2025-01-11 10:17:30.52	344.48	15.39	
2025-01-11 10:17:30.72	344.44	15.40	
2025-01-11 10:17:30.93	344.39	15.41	
2025-01-11 10:17:31.14	344.35	15.43	
2025-01-11 10:17:31.34	344.31	15.44	
2025-01-11 10:17:31.55	344.26	15.45	
2025-01-11 10:17:31.75	344.22	15.47	
2025-01-11 10:17:31.96	344.18	15.48	
2025-01-11 10:17:32.16	344.13	15.49	
2025-01-11 10:17:32.37	344.09	15.50	
2025-01-11 10:17:32.58	344.05	15.52	
2025-01-11 10:17:32.78	344.00	15.53	
2025-01-11 10:17:32.99	343.96	15.54	
2025-01-11 10:17:33.19	343.92	15.56	
2025-01-11 10:17:33.39	343.87	15.57	
2025-01-11 10:17:33.60	343.83	15.58	
2025-01-11 10:17:33.80	343.79	15.59	
2025-01-11 10:17:34.01	343.74	15.61	
2025-01-11 10:17:34.21	343.70	15.62	
2025-01-11 10:17:34.42	343.65	15.63	
2025-01-11 10:17:34.62	343.61	15.65	
2025-01-11 10:17:34.83	343.57	15.66	
2025-01-11 10:17:35.03	343.52	15.67	
2025-01-11 10:17:35.24	343.48	15.68	
2025-01-11 10:17:35.44	343.44	15.70	
2025-01-11 10:17:35.65	343.39	15.71	
2025-01-11 10:17:35.85	343.35	15.72	
2025-01-11 10:17:36.06	343.30	15.73	
2025-01-11 10:17:36.26	343.26	15.75	
2025-01-11 10:17:36.47	343.21	15.76	
2025-01-11 10:17:36.67	343.17	15.77	
2025-01-11 10:17:36.88	343.13	15.79	
2025-01-11 10:17:37.10	343.08	15.80	
2025-01-11 10:17:37.30	343.04	15.81	
2025-01-11 10:17:37.51	342.99	15.82	
2025-01-11 10:17:37.71	342.95	15.84	
2025-01-11 10:17:37.92	342.90	15.85	
2025-01-11 10:17:38.12	342.86	15.86	
2025-01-11 10:17:38.33	342.81	15.87	
2025-01-11 10:17:38.54	342.77	15.89	
2025-01-11 10:17:38.74	342.72	15.90	
2025-01-11 10:17:38.95	342.68	15.91	
2025-01-11 10:17:39.15	342.63	15.92	
2025-01-11 10:17:39.36	342.59	15.94	
2025-01-11 10:17:39.56	342.54	15.95	
2025-01-11 10:17:39.77	342.50	15.96	
2025-01-11 10:17:39.97	342.45	15.97	
2025-01-11 10:17:40.18	342.41	15.99	
2025-01-11 10:17:40.38	342.36	16.00	
2025-01-11 10:17:40.59	342.32	16.01	
2025-01-11 10:17:40.79	342.27	16.02	
2025-01-11 10:17:41.00	342.23	16.04	
2025-01-11 10:17:41.20	342.18	16.05	
2025-01-11 10:17:41.42	342.14	16.06	
2025-01-11 10:17:41.63	342.09	16.08	
2025-01-11 10:17:41.83	342.05	16.09	
2025-01-11 10:17:42.04	342.00	16.10	
2025-01-11 10:17:42.25	341.95	16.11	
2025-01-11 10:17:42.46	341.91	16.13	
2025-01-11 10:17:42.67	341.86	16.14	
2025-01-11 10:17:42.87	341.82	16.15	
2025-01-11 10:17:43.08	341.77	16.16	
2025-01-11 10:17:43.28	341.72	16.18	
2025-01-11 10:17:43.49	341.68	16.19	
2025-01-11 10:17:43.70	341.63	16.20	
2025-01-11 10:17:43.90	341.59	16.21	
2025-01-11 10:17:44.11	341.54	16.23	
2025-01-11 10:17:44.31	341.50	16.24	
2025-01-11 10:17:44.52	341.45	16.25	
2025-01-11 10:17:44.72	341.40	16.26	
2025-01-11 10:17:44.93	341.36	16.27	
2025-01-11 10:17:45.13	341.31	16.29	
2025-01-11 10:17:45.34	341.27	16.30	
2025-01-11 10:17:45.55	341.22	16.31	
2025-01-11 10:17:45.76	341.17	16.32	
2025-01-11 10:17:45.97	341.12	16.34	
2025-01-11 10:17:46.17	341.08	16.35	
2025-01-11 10:17:46.38	341.03	16.36	
2025-01-11 10:17:46.58	340.99	16.37	
2025-01-11 10:17:46.79	340.94	16.39	
2025-01-11 10:17:46.99	340.89	16.40	
2025-01-11 10:17:47.20	340.85	16.41	
2025-01-11 10:17:47.40	340.80	16.42	
2025-01-11 10:17:47.61	340.75	16.43	
2025-01-11 10:17:47.81	340.71	16.45	
2025-01-11 10:17:48.02	340.66	16.46	
2025-01-11 10:17:48.22	340.62	16.47	
2025-01-11 10:17:48.43	340.57	16.48	
2025-01-11 10:17:48.63	340.52	16.49	
2025-01-11 10:17:48.84	340.48	16.51	
2025-01-11 10:17:49.04	340.43	16.52	
2025-01-11 10:17:49.25	340.38	16.53	
2025-01-11 10:17:49.46	340.33	16.54	
2025-01-11 10:17:49.66	340.29	16.55	
2025-01-11 10:17:49.88	340.24	16.57	
2025-01-11 10:17:50.08	340.19	16.58	
2025-01-11 10:17:50.29	340.14	16.59	
2025-01-11 10:17:50.49	340.10	16.60	
2025-01-11 10:17:50.70	340.05	16.62	
2025-01-11 10:17:50.90	340.01	16.63	
2025-01-11 10:17:51.11	339.96	16.64	
2025-01-11 10:17:51.31	339.91	16.65	
2025-01-11 10:17:51.52	339.86	16.66	
2025-01-11 10:17:51.72	339.82	16.67	
2025-01-11 10:17:51.93	339.77	16.69	
2025-01-11 10:17:52.13	339.72	16.70	
2025-01-11 10:17:52.34	339.67	16.71	
2025-01-11 10:17:52.54	339.63	16.72	
2025-01-11 10:17:52.75	339.58	16.73	
2025-01-11 10:17:52.95	339.53	16.75	
2025-01-11 10:17:53.16	339.48	16.76	
2025-01-11 10:17:53.36	339.44	16.77	
2025-01-11 10:17:53.57	339.39	16.78	
2025-01-11 10:17:53.77	339.34	16.79	
2025-01-11 10:17:53.98	339.29	16.80	
2025-01-11 10:17:54.18	339.25	16.82	
2025-01-11 10:17:54.39	339.20	16.83	
2025-01-11 10:17:54.59	339.15	16.84	
2025-01-11 10:17:54.80	339.10	16.85	
2025-01-11 10:17:55.01	339.05	16.86	
2025-01-11 10:17:55.21	339.01	16.87	
2025-01-11 10:17:55.41	338.96	16.89	
2025-01-11 10:17:55.62	338.91	16.90	
2025-01-11 10:17:55.82	338.87	16.91	
2025-01-11 10:17:56.03	338.82	16.92	
2025-01-11 10:17:56.23	338.77	16.93	
2025-01-11 10:17:56.44	338.72	16.94	
2025-01-11 10:17:56.64	338.67	16.96	
2025-01-11 10:17:56.85	338.62	16.97	
2025-01-11 10:17:57.06	338.57	16.98	
2025-01-11 10:17:57.26	338.53	16.99	
2025-01-11 10:17:57.46	338.48	17.00	
2025-01-11 10:17:57.67	338.43	17.01	
2025-01-11 10:17:57.88	338.38	17.03	
2025-01-11 10:17:58.08	338.33	17.04	
2025-01-11 10:17:58.29	338.28	17.05	
2025-01-11 10:17:58.49	338.24	17.06	
2025-01-11 10:17:58.70	338.19	17.07	
2025-01-11 10:17:58.90	338.14	17.08	
2025-01-11 10:17:59.11	338.09	17.09	
2025-01-11 10:17:59.31	338.04	17.10	
2025-01-11 10:17:59.52	337.99	17.12	
2025-01-11 10:17:59.72	337.95	17.13	
2025-01-11 10:17:59.93	337.90	17.14	
2025-01-11 10:18:00.13	337.85	17.15	
2025-01-11 10:18:00.34	337.80	17.16	
2025-01-11 10:18:00.54	337.75	17.17	
2025-01-11 10:18:00.74	337.70	17.18	
2025-01-11 10:18:00.95	337.65	17.20	
2025-01-11 10:18:01.16	337.60	17.21	
2025-01-11 10:18:01.36	337.55	17.22	
2025-01-11 10:18:01.56	337.51	17.23	
2025-01-11 10:18:01.77	337.46	17.24	
2025-01-11 10:18:01.97	337.41	17.25	
2025-01-11 10:18:02.18	337.36	17.26	
2025-01-11 10:18:02.38	337.31	17.27	
2025-01-11 10:18:02.59	337.26	17.28	
2025-01-11 10:18:02.79	337.21	17.30	
2025-01-11 10:18:03.00	337.16	17.31	
2025-01-11 10:18:03.20	337.11	17.32	
2025-01-11 10:18:03.41	337.06	17.33	
2025-01-11 10:18:03.61	337.01	17.34	
2025-01-11 10:18:03.82	336.96	17.35	
2025-01-11 10:18:04.02	336.91	17.36	
2025-01-11 10:18:04.23	336.86	17.37	
2025-01-11 10:18:04.44	336.81	17.38	
2025-01-11 10:18:04.64	336.76	17.40	
2025-01-11 10:18:04.85	336.71	17.41	
2025-01-11 10:18:05.05	336.67	17.42	
2025-01-11 10:18:05.26	336.61	17.43	
2025-01-11 10:18:05.47	336.56	17.44	
2025-01-11 10:18:05.67	336.51	17.45	
2025-01-11 10:18:05.89	336.46	17.46	
2025-01-11 10:18:06.09	336.41	17.47	
2025-01-11 10:18:06.30	336.36	17.48	
2025-01-11 10:18:06.51	336.31	17.49	
2025-01-11 10:18:06.71	336.26	17.51	
2025-01-11 10:18:06.92	336.21	17.52	
2025-01-11 10:18:07.12	336.16	17.53	
2025-01-11 10:18:07.33	336.11	17.54	
2025-01-11 10:18:07.53	336.06	17.55	
2025-01-11 10:18:07.74	336.01	17.56	
2025-01-11 10:18:07.94	335.96	17.57	
2025-01-11 10:18:08.15	335.91	17.58	
2025-01-11 10:18:08.36	335.86	17.59	
2025-01-11 10:18:08.56	335.81	17.60	
2025-01-11 10:18:08.77	335.76	17.61	
2025-01-11 10:18:08.97	335.71	17.62	
2025-01-11 10:18:09.17	335.66	17.63	
2025-01-11 10:18:09.38	335.61	17.64	
2025-01-11 10:18:09.58	335.56	17.66	
2025-01-11 10:18:09.79	335.50	17.67	
2025-01-11 10:18:09.99	335.46	17.68	
2025-01-11 10:18:10.20	335.40	17.69	
2025-01-11 10:18:10.40	335.35	17.70	
2025-01-11 10:18:10.61	335.30	17.71	
2025-01-11 10:18:10.81	335.25	17.72	
2025-01-11 10:18:11.02	335.20	17.73	
2025-01-11 10:18:11.22	335.15	17.74	
2025-01-11 10:18:11.43	335.10	17.75	
2025-01-11 10:18:11.63	335.05	17.76	
2025-01-11 10:18:11.84	335.00	17.77	
2025-01-11 10:18:12.04	334.95	17.78	
2025-01-11 10:18:12.25	334.89	17.79	
2025-01-11 10:18:12.45	334.84	17.80	
2025-01-11 10:18:12.66	334.79	17.81	
2025-01-11 10:18:12.87	334.74	17.82	
2025-01-11 10:18:13.07	334.69	17.83	
2025-01-11 10:18:13.28	334.64	17.84	
2025-01-11 10:18:13.48	334.59	17.85	
2025-01-11 10:18:13.69	334.53	17.86	
2025-01-11 10:18:13.89	334.48	17.87	
2025-01-11 10:18:14.10	334.43	17.88	
2025-01-11 10:18:14.30	334.38	17.89	
2025-01-11 10:18:14.51	334.33	17.90	
2025-01-11 10:18:14.71	334.28	17.91	
2025-01-11 10:18:14.92	334.23	17.93	
2025-01-11 10:18:15.12	334.18	17.94	
2025-01-11 10:18:15.33	334.12	17.95	
2025-01-11 10:18:15.53	334.07	17.96	
2025-01-11 10:18:15.74	334.02	17.97	
2025-01-11 10:18:15.94	333.97	17.98	
2025-01-11 10:18:16.15	333.92	17.99	
2025-01-11 10:18:16.35	333.86	18.00	
2025-01-11 10:18:16.55	333.81	18.01	
2025-01-11 10:18:16.76	333.76	18.02	
2025-01-11 10:18:16.97	333.71	18.03	
2025-01-11 10:18:17.17	333.66	18.04	
2025-01-11 10:18:17.38	333.60	18.05	
2025-01-11 10:18:17.58	333.55	18.06	
2025-01-11 10:18:17.79	333.50	18.07	
2025-01-11 10:18:17.99	333.45	18.07	
2025-01-11 10:18:18.20	333.40	18.08	
2025-01-11 10:18:18.40	333.34	18.09	
2025-01-11 10:18:18.61	333.29	18.10	
2025-01-11 10:18:18.81	333.24	18.11	
2025-01-11 10:18:19.02	333.19	18.12	
2025-01-11 10:18:19.22	333.14	18.13	
2025-01-11 10:18:19.43	333.08	18.14	
2025-01-11 10:18:19.63	333.03	18.15	
2025-01-11 10:18:19.84	332.98	18.16	
2025-01-11 10:18:20.04	332.93	18.17	
2025-01-11 10:18:20.25	332.87	18.18	
2025-01-11 10:18:20.45	332.82	18.19	
2025-01-11 10:18:20.66	332.77	18.20	
2025-01-11 10:18:20.86	332.72	18.21	
2025-01-11 10:18:21.07	332.66	18.22	
2025-01-11 10:18:21.27	332.61	18.23	
2025-01-11 10:18:21.48	332.56	18.24	
2025-01-11 10:18:21.69	332.50	18.25	
2025-01-11 10:18:21.89	332.45	18.26	
2025-01-11 10:18:22.10	332.40	18.27	
2025-01-11 10:18:22.30	332.35	18.28	
2025-01-11 10:18:22.51	332.29	18.29	
2025-01-11 10:18:22.72	332.24	18.30	
2025-01-11 10:18:22.92	332.19	18.31	
2025-01-11 10:18:23.12	332.13	18.32	
2025-01-11 10:18:23.33	332.08	18.32	
2025-01-11 10:18:23.53	332.03	18.33	
2025-01-11 10:18:23.74	331.97	18.34	
2025-01-11 10:18:23.94	331.92	18.35	
2025-01-11 10:18:24.15	331.87	18.36	
2025-01-11 10:18:24.35	331.81	18.37	
2025-01-11 10:18:24.56	331.76	18.38	
2025-01-11 10:18:24.77	331.71	18.39	
2025-01-11 10:18:24.97	331.65	18.40	
2025-01-11 10:18:25.18	331.60	18.41	
2025-01-11 10:18:25.38	331.55	18.42	
2025-01-11 10:18:25.59	331.49	18.43	
2025-01-11 10:18:25.79	331.44	18.44	
2025-01-11 10:18:26.00	331.39	18.44	
2025-01-11 10:18:26.21	331.33	18.45	
2025-01-11 10:18:26.42	331.28	18.46	
2025-01-11 10:18:26.63	331.22	18.47	
2025-01-11 10:18:26.83	331.17	18.48	
2025-01-11 10:18:27.04	331.11	18.49	
2025-01-11 10:18:27.24	331.06	18.50	
2025-01-11 10:18:27.45	331.01	18.51	
2025-01-11 10:18:27.65	330.95	18.52	
2025-01-11 10:18:27.86	330.90	18.53	
2025-01-11 10:18:28.06	330.85	18.53	
2025-01-11 10:18:28.26	330.79	18.54	
2025-01-11 10:18:28.47	330.74	18.55	
2025-01-11 10:18:28.68	330.68	18.56	
2025-01-11 10:18:28.88	330.63	18.57	
2025-01-11 10:18:29.09	330.57	18.58	
2025-01-11 10:18:29.29	330.52	18.59	
2025-01-11 10:18:29.49	330.47	18.60	
2025-01-11 10:18:29.70	330.41	18.60	
2025-01-11 10:18:29.91	330.36	18.61	
2025-01-11 10:18:30.11	330.31	18.62	
2025-01-11 10:18:30.32	330.25	18.63	
2025-01-11 10:18:30.52	330.20	18.64	
2025-01-11 10:18:30.73	330.14	18.65	
2025-01-11 10:18:30.93	330.09	18.66	
2025-01-11 10:18:31.14	330.03	18.67	
2025-01-11 10:18:31.34	329.98	18.67	
2025-01-11 10:18:31.56	329.92	18.68	
2025-01-11 10:18:31.77	329.87	18.69	
2025-01-11 10:18:31.97	329.81	18.70	
2025-01-11 10:18:32.18	329.76	18.71	
2025-01-11 10:18:32.38	329.70	18.72	
2025-01-11 10:18:32.59	329.65	18.72	
2025-01-11 10:18:32.79	329.59	18.73	
2025-01-11 10:18:33.00	329.54	18.74	
2025-01-11 10:18:33.20	329.49	18.75	
2025-01-11 10:18:33.41	329.43	18.76	
2025-01-11 10:18:33.61	329.38	18.77	
2025-01-11 10:18:33.82	329.32	18.77	
2025-01-11 10:18:34.02	329.27	18.78	
2025-01-11 10:18:34.23	329.21	18.79	
2025-01-11 10:18:34.43	329.16	18.80	
2025-01-11 10:18:34.65	329.10	18.81	
2025-01-11 10:18:34.85	329.04	18.82	
2025-01-11 10:18:35.06	328.99	18.82	
2025-01-11 10:18:35.27	328.93	18.83	
2025-01-11 10:18:35.47	328.88	18.84	
2025-01-11 10:18:35.68	328.82	18.85	
2025-01-11 10:18:35.88	328.77	18.86	
2025-01-11 10:18:36.09	328.71	18.86	
2025-01-11 10:18:36.29	328.66	18.87	
2025-01-11 10:18:36.49	328.60	18.88	
2025-01-11 10:18:36.70	328.55	18.89	
2025-01-11 10:18:36.90	328.49	18.90	
2025-01-11 10:18:37.11	328.44	18.90	
2025-01-11 10:18:37.31	328.38	18.91	
2025-01-11 10:18:37.52	328.33	18.92	
2025-01-11 10:18:37.72	328.27	18.93	
2025-01-11 10:18:37.93	328.22	18.93	
2025-01-11 10:18:38.13	328.16	18.94	
2025-01-11 10:18:38.34	328.11	18.95	
2025-01-11 10:18:38.54	328.05	18.96	
2025-01-11 10:18:38.75	327.99	18.97	
2025-01-11 10:18:38.95	327.94	18.97	
2025-01-11 10:18:39.16	327.88	18.98	
2025-01-11 10:18:39.36	327.83	18.99	
2025-01-11 10:18:39.57	327.77	19.00	
2025-01-11 10:18:39.78	327.71	19.00	
2025-01-11 10:18:39.98	327.66	19.01	
2025-01-11 10:18:40.19	327.60	19.02	
2025-01-11 10:18:40.39	327.55	19.03	
2025-01-11 10:18:40.60	327.49	19.03	
2025-01-11 10:18:40.80	327.44	19.04	
2025-01-11 10:18:41.01	327.38	19.05	
2025-01-11 10:18:41.23	327.32	19.06	
2025-01-11 10:18:41.43	327.27	19.06	
2025-01-11 10:18:41.64	327.21	19.07	
2025-01-11 10:18:41.85	327.15	19.08	
2025-01-11 10:18:42.05	327.10	19.09	
2025-01-11 10:18:42.25	327.04	19.09	
2025-01-11 10:18:42.46	326.98	19.10	
2025-01-11 10:18:42.66	326.93	19.11	
2025-01-11 10:18:42.87	326.87	19.11	
2025-01-11 10:18:43.08	326.82	19.12	
2025-01-11 10:18:43.28	326.76	19.13	
2025-01-11 10:18:43.49	326.70	19.14	
2025-01-11 10:18:43.69	326.65	19.14	
2025-01-11 10:18:43.90	326.59	19.15	
2025-01-11 10:18:44.10	326.54	19.16	
2025-01-11 10:18:44.31	326.48	19.16	
2025-01-11 10:18:44.51	326.42	19.17	
2025-01-11 10:18:44.72	326.37	19.18	
2025-01-11 10:18:44.92	326.31	19.18	
2025-01-11 10:18:45.13	326.25	19.19	
2025-01-11 10:18:45.33	326.20	19.20	
2025-01-11 10:18:45.55	326.14	19.21	
2025-01-11 10:18:45.76	326.08	19.21	
2025-01-11 10:18:45.96	326.02	19.22	
2025-01-11 10:18:46.17	325.97	19.23	
2025-01-11 10:18:46.38	325.91	19.23	
2025-01-11 10:18:46.58	325.85	19.24	
2025-01-11 10:18:46.78	325.80	19.25	
2025-01-11 10:18:46.99	325.74	19.25	
2025-01-11 10:18:47.20	325.68	19.26	
2025-01-11 10:18:47.40	325.63	19.27	
2025-01-11 10:18:47.60	325.57	19.27	
2025-01-11 10:18:47.81	325.51	19.28	
2025-01-11 10:18:48.02	325.45	19.29	
2025-01-11 10:18:48.22	325.40	19.29	
2025-01-11 10:18:48.43	325.34	19.30	
2025-01-11 10:18:48.63	325.29	19.31	
2025-01-11 10:18:48.84	325.23	19.31	
2025-01-11 10:18:49.04	325.17	19.32	
2025-01-11 10:18:49.25	325.11	19.33	
2025-01-11 10:18:49.46	325.06	19.33	
2025-01-11 10:18:49.66	325.00	19.34	
2025-01-11 10:18:49.87	324.94	19.34	
2025-01-11 10:18:50.07	324.89	19.35	
2025-01-11 10:18:50.28	324.83	19.36	
2025-01-11 10:18:50.48	324.77	19.36	
2025-01-11 10:18:50.69	324.71	19.37	
2025-01-11 10:18:50.89	324.66	19.38	
2025-01-11 10:18:51.10	324.60	19.38	
2025-01-11 10:18:51.30	324.54	19.39	
2025-01-11 10:18:51.51	324.48	19.39	
2025-01-11 10:18:51.71	324.43	19.40	
2025-01-11 10:18:51.92	324.37	19.41	
2025-01-11 10:18:52.13	324.31	19.41	
2025-01-11 10:18:52.33	324.26	19.42	
2025-01-11 10:18:52.53	324.20	19.42	
2025-01-11 10:18:52.74	324.14	19.43	
2025-01-11 10:18:52.94	324.09	19.44	
2025-01-11 10:18:53.15	324.03	19.44	
2025-01-11 10:18:53.35	323.97	19.45	
2025-01-11 10:18:53.56	323.91	19.45	
2025-01-11 10:18:53.76	323.86	19.46	
2025-01-11 10:18:53.97	323.80	19.46	
2025-01-11 10:18:54.17	323.74	19.47	
2025-01-11 10:18:54.38	323.68	19.48	
2025-01-11 10:18:54.58	323.63	19.48	
2025-01-11 10:18:54.79	323.57	19.49	
2025-01-11 10:18:54.99	323.51	19.49	
2025-01-11 10:18:55.20	323.45	19.50	
2025-01-11 10:18:55.41	323.39	19.50	
2025-01-11 10:18:55.61	323.34	19.51	
2025-01-11 10:18:55.82	323.28	19.52	
2025-01-11 10:18:56.02	323.22	19.52	
2025-01-11 10:18:56.23	323.16	19.53	
2025-01-11 10:18:56.43	323.11	19.53	
2025-01-11 10:18:56.64	323.05	19.54	
2025-01-11 10:18:56.84	322.99	19.54	
2025-01-11 10:18:57.05	322.93	19.55	
2025-01-11 10:18:57.27	322.87	19.55	
2025-01-11 10:18:57.47	322.81	19.56	
2025-01-11 10:18:57.68	322.75	19.56	
2025-01-11 10:18:57.88	322.70	19.57	
2025-01-11 10:18:58.09	322.64	19.57	
2025-01-11 10:18:58.29	322.58	19.58	
2025-01-11 10:18:58.49	322.52	19.58	
2025-01-11 10:18:58.70	322.46	19.59	
2025-01-11 10:18:58.91	322.41	19.59	
2025-01-11 10:18:59.11	322.35	19.60	
2025-01-11 10:18:59.33	322.29	19.61	
2025-01-11 10:18:59.53	322.23	19.61	
2025-01-11 10:18:59.74	322.17	19.62	
2025-01-11 10:18:59.95	322.11	19.62	
2025-01-11 10:19:00.15	322.05	19.63	
2025-01-11 10:19:00.35	322.00	19.63	
2025-01-11 10:19:00.56	321.94	19.63	
2025-01-11 10:19:00.77	321.88	19.64	
2025-01-11 10:19:00.98	321.82	19.64	
2025-01-11 10:19:01.18	321.76	19.65	
2025-01-11 10:19:01.38	321.70	19.65	
2025-01-11 10:19:01.59	321.64	19.66	
2025-01-11 10:19:01.79	321.59	19.66	
2025-01-11 10:19:02.00	321.53	19.67	
2025-01-11 10:19:02.21	321.47	19.67	
2025-01-11 10:19:02.41	321.41	19.68	
2025-01-11 10:19:02.63	321.35	19.68	
2025-01-11 10:19:02.84	321.29	19.69	
2025-01-11 10:19:03.04	321.23	19.69	
2025-01-11 10:19:03.25	321.17	19.70	
2025-01-11 10:19:03.46	321.11	19.70	
2025-01-11 10:19:03.66	321.06	19.70	
2025-01-11 10:19:03.86	321.00	19.71	
2025-01-11 10:19:04.07	320.94	19.71	
2025-01-11 10:19:04.28	320.88	19.72	
2025-01-11 10:19:04.48	320.82	19.72	
2025-01-11 10:19:04.70	320.76	19.73	
2025-01-11 10:19:04.90	320.70	19.73	
2025-01-11 10:19:05.11	320.64	19.74	
2025-01-11 10:19:05.31	320.58	19.74	
2025-01-11 10:19:05.52	320.52	19.74	
2025-01-11 10:19:05.73	320.46	19.75	
2025-01-11 10:19:05.93	320.41	19.75	
2025-01-11 10:19:06.13	320.35	19.76	
2025-01-11 10:19:06.34	320.29	19.76	
2025-01-11 10:19:06.55	320.23	19.76	
2025-01-11 10:19:06.75	320.17	19.77	
2025-01-11 10:19:06.96	320.11	19.77	
2025-01-11 10:19:07.16	320.06	19.78	
2025-01-11 10:19:07.37	319.99	19.78	
2025-01-11 10:19:07.57	319.94	19.78	
2025-01-11 10:19:07.78	319.88	19.79	
2025-01-11 10:19:08.00	319.81	19.79	
2025-01-11 10:19:08.20	319.76	19.80	
2025-01-11 10:19:08.41	319.70	19.80	
2025-01-11 10:19:08.61	319.64	19.80	
2025-01-11 10:19:08.82	319.58	19.81	
2025-01-11 10:19:09.02	319.52	19.81	
2025-01-11 10:19:09.23	319.46	19.81	
2025-01-11 10:19:09.43	319.40	19.82	
2025-01-11 10:19:09.64	319.34	19.82	
2025-01-11 10:19:09.84	319.29	19.82	
2025-01-11 10:19:10.04	319.23	19.83	
2025-01-11 10:19:10.25	319.17	19.83	
2025-01-11 10:19:10.45	319.11	19.83	
2025-01-11 10:19:10.66	319.05	19.84	
2025-01-11 10:19:10.86	318.99	19.84	
2025-01-11 10:19:11.07	318.93	19.84	
2025-01-11 10:19:11.27	318.87	19.85	
2025-01-11 10:19:11.48	318.81	19.85	
2025-01-11 10:19:11.68	318.76	19.85	
2025-01-11 10:19:11.89	318.70	19.86	
2025-01-11 10:19:12.09	318.64	19.86	
2025-01-11 10:19:12.30	318.58	19.86	
2025-01-11 10:19:12.51	318.52	19.87	
2025-01-11 10:19:12.71	318.46	19.87	
2025-01-11 10:19:12.92	318.40	19.87	
2025-01-11 10:19:13.12	318.34	19.88	
2025-01-11 10:19:13.33	318.28	19.88	
2025-01-11 10:19:13.54	318.22	19.88	
2025-01-11 10:19:13.74	318.16	19.89	
2025-01-11 10:19:13.94	318.10	19.89	
2025-01-11 10:19:14.15	318.04	19.89	
2025-01-11 10:19:14.37	317.98	19.89	
2025-01-11 10:19:14.57	317.92	19.90	
2025-01-11 10:19:14.78	317.86	19.90	
2025-01-11 10:19:14.98	317.80	19.90	
2025-01-11 10:19:15.19	317.74	19.91	
2025-01-11 10:19:15.39	317.68	19.91	
2025-01-11 10:19:15.60	317.62	19.91	
2025-01-11 10:19:15.81	317.56	19.91	
2025-01-11 10:19:16.01	317.51	19.92	
2025-01-11 10:19:16.22	317.44	19.92	
2025-01-11 10:19:16.43	317.38	19.92	
2025-01-11 10:19:16.64	317.32	19.92	
2025-01-11 10:19:16.85	317.26	19.93	
2025-01-11 10:19:17.05	317.20	19.93	
2025-01-11 10:19:17.26	317.14	19.93	
2025-01-11 10:19:17.46	317.09	19.93	
2025-01-11 10:19:17.67	317.02	19.94	
2025-01-11 10:19:17.87	316.97	19.94	
2025-01-11 10:19:18.08	316.91	19.94	
2025-01-11 10:19:18.28	316.85	19.94	
2025-01-11 10:19:18.49	316.79	19.95	
2025-01-11 10:19:18.69	316.73	19.95	
2025-01-11 10:19:18.90	316.67	19.95	
2025-01-11 10:19:19.11	316.61	19.95	
2025-01-11 10:19:19.31	316.55	19.95	
2025-01-11 10:19:19.52	316.49	19.96	
2025-01-11 10:19:19.72	316.43	19.96	
2025-01-11 10:19:19.93	316.37	19.96	
2025-01-11 10:19:20.13	316.31	19.96	
2025-01-11 10:19:20.34	316.25	19.96	
2025-01-11 10:19:20.54	316.19	19.97	
2025-01-11 10:19:20.75	316.13	19.97	
2025-01-11 10:19:20.95	316.07	19.97	
2025-01-11 10:19:21.16	316.01	19.97	
2025-01-11 10:19:21.36	315.95	19.97	
2025-01-11 10:19:21.57	315.89	19.98	
2025-01-11 10:19:21.77	315.83	19.98	
2025-01-11 10:19:21.98	315.77	19.98	
2025-01-11 10:19:22.19	315.71	19.98	
2025-01-11 10:19:22.39	315.65	19.98	
2025-01-11 10:19:22.60	315.59	19.98	
2025-01-11 10:19:22.80	315.53	19.99	
2025-01-11 10:19:23.00	315.48	19.99	
2025-01-11 10:19:23.21	315.42	19.99	
2025-01-11 10:19:23.42	315.35	19.99	
2025-01-11 10:19:23.62	315.30	19.99	
2025-01-11 10:19:23.83	315.23	19.99	
2025-01-11 10:19:24.03	315.18	20.00	
2025-01-11 10:19:24.24	315.12	20.00	
2025-01-11 10:19:24.44	315.06	20.00	
2025-01-11 10:19:24.65	315.00	20.00	
2025-01-11 10:19:24.85	314.94	20.00	
2025-01-11 10:19:25.06	314.88	20.00	
2025-01-11 10:19:25.26	314.82	20.00	
2025-01-11 10:19:25.47	314.76	20.00	
2025-01-11 10:19:25.68	314.70	20.01	
2025-01-11 10:19:25.88	314.64	20.01	
2025-01-11 10:19:26.09	314.58	20.01	
2025-01-11 10:19:26.29	314.52	20.01	
2025-01-11 10:19:26.50	314.46	20.01	
2025-01-11 10:19:26.70	314.40	20.01	
2025-01-11 10:19:26.91	314.34	20.01	
2025-01-11 10:19:27.11	314.28	20.01	
2025-01-11 10:19:27.32	314.22	20.01	
2025-01-11 10:19:27.52	314.16	20.01	
2025-01-11 10:19:27.73	314.10	20.02	
2025-01-11 10:19:27.93	314.04	20.02	
2025-01-11 10:19:28.14	313.98	20.02	
2025-01-11 10:19:28.34	313.92	20.02	
2025-01-11 10:19:28.55	313.86	20.02	
2025-01-11 10:19:28.75	313.80	20.02	
2025-01-11 10:19:28.96	313.74	20.02	
2025-01-11 10:19:29.17	313.68	20.02	
2025-01-11 10:19:29.37	313.62	20.02	
2025-01-11 10:19:29.58	313.56	20.02	
2025-01-11 10:19:29.78	313.50	20.02	
2025-01-11 10:19:29.99	313.44	20.02	
2025-01-11 10:19:30.19	313.38	20.02	
2025-01-11 10:19:30.40	313.32	20.02	
2025-01-11 10:19:30.60	313.26	20.02	
2025-01-11 10:19:30.81	313.20	20.02	
2025-01-11 10:19:31.01	313.14	20.02	
2025-01-11 10:19:31.22	313.08	20.03	
2025-01-11 10:19:31.44	313.02	20.03	
2025-01-11 10:19:31.64	312.96	20.03	
2025-01-11 10:19:31.85	312.90	20.03	
2025-01-11 10:19:32.05	312.84	20.03	
2025-01-11 10:19:32.26	312.78	20.03	
2025-01-11 10:19:32.46	312.72	20.03	
2025-01-11 10:19:32.67	312.66	20.03	
2025-01-11 10:19:32.87	312.60	20.03	
2025-01-11 10:19:33.08	312.54	20.03	
2025-01-11 10:19:33.29	312.48	20.03	
2025-01-11 10:19:33.49	312.42	20.03	
2025-01-11 10:19:33.70	312.36	20.03	
2025-01-11 10:19:33.90	312.30	20.03	
2025-01-11 10:19:34.11	312.24	20.03	
2025-01-11 10:19:34.31	312.18	20.03	
2025-01-11 10:19:34.52	312.12	20.03	
2025-01-11 10:19:34.72	312.06	20.03	
2025-01-11 10:19:34.93	312.00	20.03	
2025-01-11 10:19:35.13	311.94	20.03	
2025-01-11 10:19:35.33	311.88	20.02	
2025-01-11 10:19:35.54	311.82	20.02	
2025-01-11 10:19:35.74	311.76	20.02	
2025-01-11 10:19:35.95	311.70	20.02	
2025-01-11 10:19:36.15	311.64	20.02	
2025-01-11 10:19:36.36	311.58	20.02	
2025-01-11 10:19:36.57	311.52	20.02	
2025-01-11 10:19:36.77	311.46	20.02	
2025-01-11 10:19:36.98	311.40	20.02	
2025-01-11 10:19:37.18	311.34	20.02	
2025-01-11 10:19:37.39	311.28	20.02	
2025-01-11 10:19:37.59	311.22	20.02	
2025-01-11 10:19:37.81	311.16	20.02	
2025-01-11 10:19:38.01	311.10	20.02	
2025-01-11 10:19:38.22	311.04	20.02	
2025-01-11 10:19:38.42	310.98	20.02	
2025-01-11 10:19:38.64	310.92	20.02	
2025-01-11 10:19:38.85	310.86	20.01	
2025-01-11 10:19:39.05	310.80	20.01	
2025-01-11 10:19:39.26	310.74	20.01	
2025-01-11 10:19:39.46	310.68	20.01	
2025-01-11 10:19:39.66	310.62	20.01	
2025-01-11 10:19:39.87	310.56	20.01	
2025-01-11 10:19:40.07	310.50	20.01	
2025-01-11 10:19:40.28	310.44	20.01	
2025-01-11 10:19:40.49	310.38	20.01	
2025-01-11 10:19:40.69	310.32	20.01	
2025-01-11 10:19:40.90	310.26	20.00	
2025-01-11 10:19:41.10	310.20	20.00	
2025-01-11 10:19:41.31	310.14	20.00	
2025-01-11 10:19:41.51	310.08	20.00	
2025-01-11 10:19:41.72	310.02	20.00	
2025-01-11 10:19:41.92	309.96	20.00	
2025-01-11 10:19:42.14	309.90	20.00	
2025-01-11 10:19:42.35	309.84	20.00	
2025-01-11 10:19:42.56	309.77	19.99	
2025-01-11 10:19:42.76	309.72	19.99	
2025-01-11 10:19:42.96	309.66	19.99	
2025-01-11 10:19:43.17	309.60	19.99	
2025-01-11 10:19:43.37	309.54	19.99	
2025-01-11 10:19:43.58	309.48	19.99	
2025-01-11 10:19:43.78	309.42	19.99	
2025-01-11 10:19:43.99	309.36	19.98	
2025-01-11 10:19:44.19	309.30	19.98	
2025-01-11 10:19:44.40	309.24	19.98	
2025-01-11 10:19:44.61	309.18	19.98	
2025-01-11 10:19:44.81	309.12	19.98	
2025-01-11 10:19:45.02	309.06	19.97	
2025-01-11 10:19:45.22	309.00	19.97	
2025-01-11 10:19:45.43	308.94	19.97	
2025-01-11 10:19:45.63	308.88	19.97	
2025-01-11 10:19:45.84	308.82	19.97	
2025-01-11 10:19:46.04	308.76	19.97	
2025-01-11 10:19:46.25	308.70	19.96	
2025-01-11 10:19:46.45	308.64	19.96	
2025-01-11 10:19:46.66	308.58	19.96	
2025-01-11 10:19:46.86	308.52	19.96	
2025-01-11 10:19:47.07	308.46	19.96	
2025-01-11 10:19:47.27	308.40	19.95	
2025-01-11 10:19:47.47	308.35	19.95	
2025-01-11 10:19:47.68	308.29	19.95	
2025-01-11 10:19:47.89	308.22	19.95	
2025-01-11 10:19:48.09	308.17	19.94	
2025-01-11 10:19:48.30	308.11	19.94	
2025-01-11 10:19:48.50	308.05	19.94	
2025-01-11 10:19:48.71	307.99	19.94	
2025-01-11 10:19:48.91	307.93	19.94	
2025-01-11 10:19:49.12	307.87	19.93	
2025-01-11 10:19:49.32	307.81	19.93	
2025-01-11 10:19:49.53	307.75	19.93	
2025-01-11 10:19:49.73	307.69	19.93	
2025-01-11 10:19:49.94	307.63	19.92	
2025-01-11 10:19:50.15	307.57	19.92	
2025-01-11 10:19:50.35	307.51	19.92	
2025-01-11 10:19:50.55	307.45	19.92	
2025-01-11 10:19:50.76	307.39	19.91	
2025-01-11 10:19:50.96	307.33	19.91	
2025-01-11 10:19:51.17	307.27	19.91	
2025-01-11 10:19:51.38	307.21	19.90	
2025-01-11 10:19:51.58	307.16	19.90	
2025-01-11 10:19:51.79	307.09	19.90	
2025-01-11 10:19:51.99	307.04	19.90	
2025-01-11 10:19:52.20	306.98	19.89	
2025-01-11 10:19:52.40	306.92	19.89	
2025-01-11 10:19:52.61	306.86	19.89	
2025-01-11 10:19:52.81	306.80	19.88	
2025-01-11 10:19:53.02	306.74	19.88	
2025-01-11 10:19:53.23	306.68	19.88	
2025-01-11 10:19:53.43	306.62	19.88	
2025-01-11 10:19:53.64	306.56	19.87	
2025-01-11 10:19:53.84	306.50	19.87	
2025-01-11 10:19:54.05	306.44	19.87	
2025-01-11 10:19:54.25	306.38	19.86	
2025-01-11 10:19:54.46	306.32	19.86	
2025-01-11 10:19:54.66	306.27	19.86	
2025-01-11 10:19:54.86	306.21	19.85	
2025-01-11 10:19:55.07	306.15	19.85	
2025-01-11 10:19:55.28	306.09	19.85	
2025-01-11 10:19:55.48	306.03	19.84	
2025-01-11 10:19:55.69	305.97	19.84	
2025-01-11 10:19:55.89	305.91	19.84	
2025-01-11 10:19:56.09	305.85	19.83	
2025-01-11 10:19:56.30	305.79	19.83	
2025-01-11 10:19:56.50	305.74	19.83	
2025-01-11 10:19:56.71	305.67	19.82	
2025-01-11 10:19:56.91	305.62	19.82	
2025-01-11 10:19:57.12	305.56	19.82	
2025-01-11 10:19:57.33	305.50	19.81	
2025-01-11 10:19:57.53	305.44	19.81	
2025-01-11 10:19:57.74	305.38	19.80	
2025-01-11 10:19:57.95	305.32	19.80	
2025-01-11 10:19:58.16	305.26	19.80	
2025-01-11 10:19:58.37	305.20	19.79	
2025-01-11 10:19:58.57	305.14	19.79	
2025-01-11 10:19:58.78	305.08	19.79	
2025-01-11 10:19:58.99	305.02	19.78	
2025-01-11 10:19:59.19	304.96	19.78	
2025-01-11 10:19:59.39	304.90	19.77	
2025-01-11 10:19:59.60	304.84	19.77	
2025-01-11 10:19:59.81	304.78	19.77	
2025-01-11 10:20:00.01	304.73	19.76	
2025-01-11 10:20:00.23	304.66	19.76	
2025-01-11 10:20:00.43	304.61	19.75	
2025-01-11 10:20:00.64	304.55	19.75	
2025-01-11 10:20:00.84	304.49	19.74	
2025-01-11 10:20:01.05	304.43	19.74	
2025-01-11 10:20:01.26	304.37	19.74	
2025-01-11 10:20:01.46	304.31	19.73	
2025-01-11 10:20:01.67	304.25	19.73	
2025-01-11 10:20:01.87	304.19	19.72	
2025-01-11 10:20:02.08	304.13	19.72	
2025-01-11 10:20:02.28	304.08	19.72	
2025-01-11 10:20:02.50	304.01	19.71	
2025-01-11 10:20:02.70	303.96	19.71	
2025-01-11 10:20:02.91	303.90	19.70	
2025-01-11 10:20:03.11	303.84	19.70	
2025-01-11 10:20:03.32	303.78	19.69	
2025-01-11 10:20:03.52	303.72	19.69	
2025-01-11 10:20:03.73	303.66	19.68	
2025-01-11 10:20:03.93	303.61	19.68	
2025-01-11 10:20:04.14	303.55	19.67	
2025-01-11 10:20:04.35	303.49	19.67	
2025-01-11 10:20:04.55	303.43	19.67	
2025-01-11 10:20:04.76	303.37	19.66	
2025-01-11 10:20:04.96	303.31	19.66	
2025-01-11 10:20:05.17	303.25	19.65	
2025-01-11 10:20:05.37	303.20	19.65	
2025-01-11 10:20:05.57	303.14	19.64	
2025-01-11 10:20:05.78	303.08	19.64	
2025-01-11 10:20:05.98	303.02	19.63	
2025-01-11 10:20:06.19	302.96	19.63	
2025-01-11 10:20:06.40	302.90	19.62	
2025-01-11 10:20:06.60	302.85	19.62	
2025-01-11 10:20:06.81	302.79	19.61	
2025-01-11 10:20:07.01	302.73	19.61	
2025-01-11 10:20:07.22	302.67	19.60	
2025-01-11 10:20:07.42	302.61	19.60	
2025-01-11 10:20:07.62	302.56	19.59	
2025-01-11 10:20:07.83	302.50	19.59	
2025-01-11 10:20:08.03	302.44	19.58	
2025-01-11 10:20:08.24	302.38	19.58	
2025-01-11 10:20:08.44	302.33	19.57	
2025-01-11 10:20:08.65	302.27	19.57	
2025-01-11 10:20:08.85	302.21	19.56	
2025-01-11 10:20:09.06	302.15	19.56	
2025-01-11 10:20:09.26	302.09	19.55	
2025-01-11 10:20:09.47	302.03	19.55	
2025-01-11 10:20:09.68	301.98	19.54	
2025-01-11 10:20:09.89	301.92	19.53	
2025-01-11 10:20:10.10	301.86	19.53	
2025-01-11 10:20:10.31	301.80	19.52	
2025-01-11 10:20:10.51	301.74	19.52	
2025-01-11 10:20:10.71	301.68	19.51	
2025-01-11 10:20:10.92	301.63	19.51	
2025-01-11 10:20:11.12	301.57	19.50	
2025-01-11 10:20:11.33	301.51	19.50	
2025-01-11 10:20:11.53	301.45	19.49	
2025-01-11 10:20:11.74	301.39	19.48	
2025-01-11 10:20:11.94	301.34	19.48	
2025-01-11 10:20:12.15	301.28	19.47	
2025-01-11 10:20:12.36	301.22	19.47	
2025-01-11 10:20:12.56	301.16	19.46	
2025-01-11 10:20:12.77	301.11	19.46	
2025-01-11 10:20:12.97	301.05	19.45	
2025-01-11 10:20:13.18	300.99	19.44	
2025-01-11 10:20:13.38	300.93	19.44	
2025-01-11 10:20:13.59	300.88	19.43	
2025-01-11 10:20:13.79	300.82	19.43	
2025-01-11 10:20:14.00	300.76	19.42	
2025-01-11 10:20:14.20	300.70	19.41	
2025-01-11 10:20:14.41	300.65	19.41	
