passes_logs/2025/01/11/SPB_Silybum_02/SPB_Silybum_02__20250111_080235_SUOMI_NPP_rec.log

#Pass ID: 20250111_080235_SUOMI NPP
#Satellite: SUOMI NPP
#Configuration: NPP
#Start time: 2025-01-11 08:02:36

#Version: 2.0.20230423
#Station: SPB_Silybum_02
#Location: 30.233357 lon 59.946436 lat
#TLE: 1 37849U 11061A   25010.83173011  .00000170  00000+0  10148-3 0  9996
#TLE: 2 37849  98.7441 311.8732 0001811  47.3940 312.7388 14.19536379684322

#Time	Az	El	Level	Level2	SNR	BER	Gain	Gain2
2025-01-11 08:02:38.44	94.90	4.16	
2025-01-11 08:02:38.64	94.88	4.18	
2025-01-11 08:02:38.85	94.86	4.19	
2025-01-11 08:02:39.07	94.84	4.20	
2025-01-11 08:02:39.27	94.83	4.21	
2025-01-11 08:02:39.48	94.81	4.22	
2025-01-11 08:02:39.68	94.79	4.23	
2025-01-11 08:02:39.89	94.77	4.25	
2025-01-11 08:02:40.09	94.75	4.26	
2025-01-11 08:02:40.30	94.74	4.27	
2025-01-11 08:02:40.50	94.72	4.28	
2025-01-11 08:02:40.71	94.70	4.29	
2025-01-11 08:02:40.91	94.68	4.30	
2025-01-11 08:02:41.13	94.66	4.32	
2025-01-11 08:02:41.34	94.65	4.33	
2025-01-11 08:02:41.54	94.63	4.34	
2025-01-11 08:02:41.75	94.61	4.35	
2025-01-11 08:02:41.96	94.59	4.36	
2025-01-11 08:02:42.16	94.58	4.37	
2025-01-11 08:02:42.37	94.56	4.39	
2025-01-11 08:02:42.57	94.54	4.40	
2025-01-11 08:02:42.78	94.52	4.41	
2025-01-11 08:02:42.98	94.50	4.42	
2025-01-11 08:02:43.19	94.49	4.43	
2025-01-11 08:02:43.39	94.47	4.44	
2025-01-11 08:02:43.60	94.45	4.46	
2025-01-11 08:02:43.80	94.43	4.47	
2025-01-11 08:02:44.01	94.41	4.48	
2025-01-11 08:02:44.22	94.39	4.49	
2025-01-11 08:02:44.42	94.38	4.50	
2025-01-11 08:02:44.63	94.36	4.51	
2025-01-11 08:02:44.83	94.34	4.53	
2025-01-11 08:02:45.04	94.32	4.54	
2025-01-11 08:02:45.24	94.30	4.55	
2025-01-11 08:02:45.45	94.29	4.56	
2025-01-11 08:02:45.65	94.27	4.57	
2025-01-11 08:02:45.86	94.25	4.58	
2025-01-11 08:02:46.06	94.23	4.60	
2025-01-11 08:02:46.27	94.21	4.61	
2025-01-11 08:02:46.47	94.20	4.62	
2025-01-11 08:02:46.67	94.18	4.63	
2025-01-11 08:02:46.88	94.16	4.64	
2025-01-11 08:02:47.09	94.14	4.65	
2025-01-11 08:02:47.29	94.12	4.67	
2025-01-11 08:02:47.50	94.10	4.68	
2025-01-11 08:02:47.70	94.09	4.69	
2025-01-11 08:02:47.91	94.07	4.70	
2025-01-11 08:02:48.11	94.05	4.71	
2025-01-11 08:02:48.32	94.03	4.72	
2025-01-11 08:02:48.52	94.01	4.74	
2025-01-11 08:02:48.73	93.99	4.75	
2025-01-11 08:02:48.93	93.98	4.76	
2025-01-11 08:02:49.14	93.96	4.77	
2025-01-11 08:02:49.34	93.94	4.78	
2025-01-11 08:02:49.55	93.92	4.79	
2025-01-11 08:02:49.75	93.90	4.81	
2025-01-11 08:02:49.96	93.88	4.82	
2025-01-11 08:02:50.17	93.87	4.83	
2025-01-11 08:02:50.37	93.85	4.84	
2025-01-11 08:02:50.58	93.83	4.85	
2025-01-11 08:02:50.78	93.81	4.86	
2025-01-11 08:02:50.98	93.79	4.88	
2025-01-11 08:02:51.19	93.77	4.89	
2025-01-11 08:02:51.40	93.75	4.90	
2025-01-11 08:02:51.60	93.74	4.91	
2025-01-11 08:02:51.80	93.72	4.92	
2025-01-11 08:02:52.01	93.70	4.93	
2025-01-11 08:02:52.21	93.68	4.95	
2025-01-11 08:02:52.42	93.66	4.96	
2025-01-11 08:02:52.63	93.64	4.97	
2025-01-11 08:02:52.83	93.62	4.98	
2025-01-11 08:02:53.03	93.61	4.99	
2025-01-11 08:02:53.24	93.59	5.00	
2025-01-11 08:02:53.45	93.57	5.02	
2025-01-11 08:02:53.65	93.55	5.03	
2025-01-11 08:02:53.86	93.53	5.04	
2025-01-11 08:02:54.06	93.51	5.05	
2025-01-11 08:02:54.27	93.49	5.06	
2025-01-11 08:02:54.47	93.47	5.08	
2025-01-11 08:02:54.68	93.46	5.09	
2025-01-11 08:02:54.88	93.44	5.10	
2025-01-11 08:02:55.10	93.42	5.11	
2025-01-11 08:02:55.31	93.40	5.12	
2025-01-11 08:02:55.51	93.38	5.13	
2025-01-11 08:02:55.71	93.36	5.15	
2025-01-11 08:02:55.92	93.34	5.16	
2025-01-11 08:02:56.12	93.32	5.17	
2025-01-11 08:02:56.33	93.30	5.18	
2025-01-11 08:02:56.53	93.29	5.19	
2025-01-11 08:02:56.75	93.27	5.21	
2025-01-11 08:02:56.96	93.25	5.22	
2025-01-11 08:02:57.16	93.23	5.23	
2025-01-11 08:02:57.37	93.21	5.24	
2025-01-11 08:02:57.57	93.19	5.25	
2025-01-11 08:02:57.78	93.17	5.27	
2025-01-11 08:02:57.98	93.15	5.28	
2025-01-11 08:02:58.19	93.13	5.29	
2025-01-11 08:02:58.39	93.11	5.30	
2025-01-11 08:02:58.59	93.09	5.31	
2025-01-11 08:02:58.80	93.07	5.32	
2025-01-11 08:02:59.00	93.06	5.34	
2025-01-11 08:02:59.21	93.04	5.35	
2025-01-11 08:02:59.43	93.02	5.36	
2025-01-11 08:02:59.63	93.00	5.37	
2025-01-11 08:02:59.84	92.98	5.38	
2025-01-11 08:03:00.04	92.96	5.40	
2025-01-11 08:03:00.24	92.94	5.41	
2025-01-11 08:03:00.45	92.92	5.42	
2025-01-11 08:03:00.65	92.90	5.43	
2025-01-11 08:03:00.86	92.88	5.44	
2025-01-11 08:03:01.06	92.86	5.45	
2025-01-11 08:03:01.27	92.84	5.47	
2025-01-11 08:03:01.47	92.82	5.48	
2025-01-11 08:03:01.68	92.80	5.49	
2025-01-11 08:03:01.88	92.79	5.50	
2025-01-11 08:03:02.09	92.77	5.51	
2025-01-11 08:03:02.29	92.75	5.53	
2025-01-11 08:03:02.51	92.73	5.54	
2025-01-11 08:03:02.72	92.71	5.55	
2025-01-11 08:03:02.92	92.69	5.56	
2025-01-11 08:03:03.13	92.67	5.57	
2025-01-11 08:03:03.33	92.65	5.59	
2025-01-11 08:03:03.54	92.63	5.60	
2025-01-11 08:03:03.74	92.61	5.61	
2025-01-11 08:03:03.95	92.59	5.62	
2025-01-11 08:03:04.15	92.57	5.63	
2025-01-11 08:03:04.36	92.55	5.64	
2025-01-11 08:03:04.56	92.53	5.66	
2025-01-11 08:03:04.76	92.51	5.67	
2025-01-11 08:03:04.97	92.49	5.68	
2025-01-11 08:03:05.17	92.47	5.69	
2025-01-11 08:03:05.38	92.45	5.70	
2025-01-11 08:03:05.59	92.43	5.72	
2025-01-11 08:03:05.79	92.41	5.73	
2025-01-11 08:03:05.99	92.39	5.74	
2025-01-11 08:03:06.20	92.37	5.75	
2025-01-11 08:03:06.41	92.35	5.76	
2025-01-11 08:03:06.61	92.34	5.78	
2025-01-11 08:03:06.82	92.31	5.79	
2025-01-11 08:03:07.02	92.30	5.80	
2025-01-11 08:03:07.23	92.28	5.81	
2025-01-11 08:03:07.43	92.26	5.82	
2025-01-11 08:03:07.64	92.24	5.83	
2025-01-11 08:03:07.84	92.22	5.85	
2025-01-11 08:03:08.05	92.20	5.86	
2025-01-11 08:03:08.26	92.18	5.87	
2025-01-11 08:03:08.46	92.16	5.88	
2025-01-11 08:03:08.67	92.14	5.89	
2025-01-11 08:03:08.87	92.12	5.91	
2025-01-11 08:03:09.08	92.10	5.92	
2025-01-11 08:03:09.28	92.08	5.93	
2025-01-11 08:03:09.49	92.06	5.94	
2025-01-11 08:03:09.69	92.04	5.95	
2025-01-11 08:03:09.90	92.02	5.97	
2025-01-11 08:03:10.10	92.00	5.98	
2025-01-11 08:03:10.31	91.98	5.99	
2025-01-11 08:03:10.51	91.96	6.00	
2025-01-11 08:03:10.72	91.94	6.01	
2025-01-11 08:03:10.92	91.92	6.03	
2025-01-11 08:03:11.13	91.90	6.04	
2025-01-11 08:03:11.33	91.88	6.05	
2025-01-11 08:03:11.54	91.86	6.06	
2025-01-11 08:03:11.74	91.84	6.07	
2025-01-11 08:03:11.95	91.82	6.09	
2025-01-11 08:03:12.15	91.80	6.10	
2025-01-11 08:03:12.36	91.78	6.11	
2025-01-11 08:03:12.56	91.76	6.12	
2025-01-11 08:03:12.77	91.73	6.13	
2025-01-11 08:03:12.98	91.71	6.15	
2025-01-11 08:03:13.18	91.69	6.16	
2025-01-11 08:03:13.39	91.67	6.17	
2025-01-11 08:03:13.59	91.65	6.18	
2025-01-11 08:03:13.80	91.63	6.19	
2025-01-11 08:03:14.00	91.61	6.20	
2025-01-11 08:03:14.21	91.59	6.22	
2025-01-11 08:03:14.41	91.57	6.23	
2025-01-11 08:03:14.62	91.55	6.24	
2025-01-11 08:03:14.82	91.53	6.25	
2025-01-11 08:03:15.03	91.51	6.26	
2025-01-11 08:03:15.23	91.49	6.28	
2025-01-11 08:03:15.43	91.47	6.29	
2025-01-11 08:03:15.64	91.45	6.30	
2025-01-11 08:03:15.84	91.43	6.31	
2025-01-11 08:03:16.05	91.41	6.32	
2025-01-11 08:03:16.26	91.39	6.34	
2025-01-11 08:03:16.46	91.37	6.35	
2025-01-11 08:03:16.66	91.35	6.36	
2025-01-11 08:03:16.87	91.33	6.37	
2025-01-11 08:03:17.08	91.31	6.38	
2025-01-11 08:03:17.28	91.29	6.40	
2025-01-11 08:03:17.48	91.27	6.41	
2025-01-11 08:03:17.69	91.24	6.42	
2025-01-11 08:03:17.90	91.22	6.43	
2025-01-11 08:03:18.10	91.20	6.44	
2025-01-11 08:03:18.31	91.18	6.46	
2025-01-11 08:03:18.51	91.16	6.47	
2025-01-11 08:03:18.71	91.14	6.48	
2025-01-11 08:03:18.92	91.12	6.49	
2025-01-11 08:03:19.13	91.10	6.50	
2025-01-11 08:03:19.33	91.08	6.52	
2025-01-11 08:03:19.54	91.06	6.53	
2025-01-11 08:03:19.74	91.04	6.54	
2025-01-11 08:03:19.95	91.02	6.55	
2025-01-11 08:03:20.15	91.00	6.56	
2025-01-11 08:03:20.36	90.97	6.58	
2025-01-11 08:03:20.57	90.95	6.59	
2025-01-11 08:03:20.78	90.93	6.60	
2025-01-11 08:03:20.99	90.91	6.61	
2025-01-11 08:03:21.19	90.89	6.63	
2025-01-11 08:03:21.40	90.87	6.64	
2025-01-11 08:03:21.60	90.85	6.65	
2025-01-11 08:03:21.82	90.82	6.66	
2025-01-11 08:03:22.03	90.80	6.67	
2025-01-11 08:03:22.23	90.78	6.69	
2025-01-11 08:03:22.44	90.76	6.70	
2025-01-11 08:03:22.64	90.74	6.71	
2025-01-11 08:03:22.85	90.72	6.72	
2025-01-11 08:03:23.05	90.70	6.73	
2025-01-11 08:03:23.25	90.68	6.75	
2025-01-11 08:03:23.46	90.66	6.76	
2025-01-11 08:03:23.67	90.63	6.77	
2025-01-11 08:03:23.87	90.61	6.78	
2025-01-11 08:03:24.09	90.59	6.80	
2025-01-11 08:03:24.29	90.57	6.81	
2025-01-11 08:03:24.50	90.55	6.82	
2025-01-11 08:03:24.70	90.53	6.83	
2025-01-11 08:03:24.92	90.51	6.84	
2025-01-11 08:03:25.12	90.48	6.86	
2025-01-11 08:03:25.33	90.46	6.87	
2025-01-11 08:03:25.53	90.44	6.88	
2025-01-11 08:03:25.74	90.42	6.89	
2025-01-11 08:03:25.94	90.40	6.90	
2025-01-11 08:03:26.15	90.38	6.92	
2025-01-11 08:03:26.35	90.36	6.93	
2025-01-11 08:03:26.56	90.33	6.94	
2025-01-11 08:03:26.77	90.31	6.95	
2025-01-11 08:03:26.97	90.29	6.97	
2025-01-11 08:03:27.17	90.27	6.98	
2025-01-11 08:03:27.38	90.25	6.99	
2025-01-11 08:03:27.59	90.23	7.00	
2025-01-11 08:03:27.79	90.21	7.01	
2025-01-11 08:03:28.00	90.18	7.03	
2025-01-11 08:03:28.20	90.16	7.04	
2025-01-11 08:03:28.41	90.14	7.05	
2025-01-11 08:03:28.61	90.12	7.06	
2025-01-11 08:03:28.82	90.10	7.07	
2025-01-11 08:03:29.02	90.08	7.09	
2025-01-11 08:03:29.23	90.05	7.10	
2025-01-11 08:03:29.43	90.03	7.11	
2025-01-11 08:03:29.64	90.01	7.12	
2025-01-11 08:03:29.84	89.99	7.14	
2025-01-11 08:03:30.05	89.97	7.15	
2025-01-11 08:03:30.25	89.95	7.16	
2025-01-11 08:03:30.46	89.92	7.17	
2025-01-11 08:03:30.66	89.90	7.18	
2025-01-11 08:03:30.87	89.88	7.20	
2025-01-11 08:03:31.07	89.86	7.21	
2025-01-11 08:03:31.27	89.84	7.22	
2025-01-11 08:03:31.48	89.82	7.23	
2025-01-11 08:03:31.69	89.79	7.24	
2025-01-11 08:03:31.89	89.77	7.26	
2025-01-11 08:03:32.10	89.75	7.27	
2025-01-11 08:03:32.30	89.73	7.28	
2025-01-11 08:03:32.51	89.71	7.29	
2025-01-11 08:03:32.71	89.68	7.30	
2025-01-11 08:03:32.92	89.66	7.32	
2025-01-11 08:03:33.12	89.64	7.33	
2025-01-11 08:03:33.33	89.62	7.34	
2025-01-11 08:03:33.55	89.59	7.35	
2025-01-11 08:03:33.75	89.57	7.37	
2025-01-11 08:03:33.96	89.55	7.38	
2025-01-11 08:03:34.16	89.53	7.39	
2025-01-11 08:03:34.37	89.51	7.40	
2025-01-11 08:03:34.57	89.48	7.42	
2025-01-11 08:03:34.78	89.46	7.43	
2025-01-11 08:03:34.98	89.44	7.44	
2025-01-11 08:03:35.19	89.42	7.45	
2025-01-11 08:03:35.40	89.39	7.46	
2025-01-11 08:03:35.60	89.37	7.48	
2025-01-11 08:03:35.81	89.35	7.49	
2025-01-11 08:03:36.01	89.33	7.50	
2025-01-11 08:03:36.22	89.31	7.51	
2025-01-11 08:03:36.42	89.28	7.52	
2025-01-11 08:03:36.63	89.26	7.54	
2025-01-11 08:03:36.83	89.24	7.55	
2025-01-11 08:03:37.03	89.22	7.56	
2025-01-11 08:03:37.24	89.19	7.57	
2025-01-11 08:03:37.44	89.17	7.59	
2025-01-11 08:03:37.65	89.15	7.60	
2025-01-11 08:03:37.85	89.13	7.61	
2025-01-11 08:03:38.06	89.10	7.62	
2025-01-11 08:03:38.27	89.08	7.63	
2025-01-11 08:03:38.47	89.06	7.65	
2025-01-11 08:03:38.68	89.04	7.66	
2025-01-11 08:03:38.88	89.01	7.67	
2025-01-11 08:03:39.08	88.99	7.68	
2025-01-11 08:03:39.29	88.97	7.70	
2025-01-11 08:03:39.50	88.95	7.71	
2025-01-11 08:03:39.70	88.92	7.72	
2025-01-11 08:03:39.92	88.90	7.73	
2025-01-11 08:03:40.13	88.88	7.75	
2025-01-11 08:03:40.33	88.85	7.76	
2025-01-11 08:03:40.54	88.83	7.77	
2025-01-11 08:03:40.74	88.81	7.78	
2025-01-11 08:03:40.94	88.79	7.79	
2025-01-11 08:03:41.15	88.76	7.81	
2025-01-11 08:03:41.36	88.74	7.82	
2025-01-11 08:03:41.56	88.72	7.83	
2025-01-11 08:03:41.77	88.69	7.84	
2025-01-11 08:03:41.97	88.67	7.85	
2025-01-11 08:03:42.18	88.65	7.87	
2025-01-11 08:03:42.38	88.63	7.88	
2025-01-11 08:03:42.59	88.60	7.89	
2025-01-11 08:03:42.79	88.58	7.90	
2025-01-11 08:03:43.00	88.56	7.92	
2025-01-11 08:03:43.20	88.54	7.93	
2025-01-11 08:03:43.40	88.51	7.94	
2025-01-11 08:03:43.61	88.49	7.95	
2025-01-11 08:03:43.81	88.47	7.96	
2025-01-11 08:03:44.02	88.44	7.98	
2025-01-11 08:03:44.22	88.42	7.99	
2025-01-11 08:03:44.43	88.40	8.00	
2025-01-11 08:03:44.64	88.37	8.01	
2025-01-11 08:03:44.84	88.35	8.03	
2025-01-11 08:03:45.05	88.33	8.04	
2025-01-11 08:03:45.25	88.30	8.05	
2025-01-11 08:03:45.46	88.28	8.06	
2025-01-11 08:03:45.66	88.26	8.08	
2025-01-11 08:03:45.87	88.23	8.09	
2025-01-11 08:03:46.07	88.21	8.10	
2025-01-11 08:03:46.28	88.19	8.11	
2025-01-11 08:03:46.48	88.17	8.12	
2025-01-11 08:03:46.69	88.14	8.14	
2025-01-11 08:03:46.89	88.12	8.15	
2025-01-11 08:03:47.10	88.09	8.16	
2025-01-11 08:03:47.30	88.07	8.17	
2025-01-11 08:03:47.51	88.05	8.19	
2025-01-11 08:03:47.72	88.02	8.20	
2025-01-11 08:03:47.92	88.00	8.21	
2025-01-11 08:03:48.13	87.98	8.22	
2025-01-11 08:03:48.34	87.95	8.24	
2025-01-11 08:03:48.55	87.93	8.25	
2025-01-11 08:03:48.76	87.91	8.26	
2025-01-11 08:03:48.96	87.88	8.27	
2025-01-11 08:03:49.17	87.86	8.28	
2025-01-11 08:03:49.37	87.84	8.30	
2025-01-11 08:03:49.58	87.81	8.31	
2025-01-11 08:03:49.78	87.79	8.32	
2025-01-11 08:03:49.99	87.76	8.33	
2025-01-11 08:03:50.19	87.74	8.35	
2025-01-11 08:03:50.40	87.72	8.36	
2025-01-11 08:03:50.60	87.69	8.37	
2025-01-11 08:03:50.81	87.67	8.38	
2025-01-11 08:03:51.01	87.65	8.40	
2025-01-11 08:03:51.22	87.62	8.41	
2025-01-11 08:03:51.42	87.60	8.42	
2025-01-11 08:03:51.63	87.57	8.43	
2025-01-11 08:03:51.83	87.55	8.44	
2025-01-11 08:03:52.04	87.53	8.46	
2025-01-11 08:03:52.24	87.50	8.47	
2025-01-11 08:03:52.45	87.48	8.48	
2025-01-11 08:03:52.65	87.46	8.49	
2025-01-11 08:03:52.86	87.43	8.51	
2025-01-11 08:03:53.06	87.41	8.52	
2025-01-11 08:03:53.27	87.38	8.53	
2025-01-11 08:03:53.47	87.36	8.54	
2025-01-11 08:03:53.67	87.34	8.55	
2025-01-11 08:03:53.88	87.31	8.57	
2025-01-11 08:03:54.09	87.29	8.58	
2025-01-11 08:03:54.29	87.26	8.59	
2025-01-11 08:03:54.50	87.24	8.60	
2025-01-11 08:03:54.70	87.22	8.62	
2025-01-11 08:03:54.91	87.19	8.63	
2025-01-11 08:03:55.11	87.17	8.64	
2025-01-11 08:03:55.32	87.14	8.65	
2025-01-11 08:03:55.52	87.12	8.67	
2025-01-11 08:03:55.73	87.10	8.68	
2025-01-11 08:03:55.93	87.07	8.69	
2025-01-11 08:03:56.14	87.05	8.70	
2025-01-11 08:03:56.34	87.02	8.71	
2025-01-11 08:03:56.55	87.00	8.73	
2025-01-11 08:03:56.76	86.97	8.74	
2025-01-11 08:03:56.97	86.95	8.75	
2025-01-11 08:03:57.18	86.92	8.77	
2025-01-11 08:03:57.38	86.90	8.78	
2025-01-11 08:03:57.59	86.87	8.79	
2025-01-11 08:03:57.80	86.85	8.80	
2025-01-11 08:03:58.00	86.83	8.81	
2025-01-11 08:03:58.21	86.80	8.83	
2025-01-11 08:03:58.41	86.78	8.84	
2025-01-11 08:03:58.62	86.75	8.85	
2025-01-11 08:03:58.82	86.73	8.86	
2025-01-11 08:03:59.03	86.70	8.88	
2025-01-11 08:03:59.23	86.68	8.89	
2025-01-11 08:03:59.44	86.65	8.90	
2025-01-11 08:03:59.64	86.63	8.91	
2025-01-11 08:03:59.85	86.60	8.93	
2025-01-11 08:04:00.05	86.58	8.94	
2025-01-11 08:04:00.25	86.56	8.95	
2025-01-11 08:04:00.47	86.53	8.96	
2025-01-11 08:04:00.68	86.50	8.98	
2025-01-11 08:04:00.88	86.48	8.99	
2025-01-11 08:04:01.09	86.46	9.00	
2025-01-11 08:04:01.29	86.43	9.01	
2025-01-11 08:04:01.50	86.41	9.02	
2025-01-11 08:04:01.70	86.38	9.04	
2025-01-11 08:04:01.91	86.36	9.05	
2025-01-11 08:04:02.12	86.33	9.06	
2025-01-11 08:04:02.32	86.31	9.07	
2025-01-11 08:04:02.52	86.28	9.09	
2025-01-11 08:04:02.73	86.26	9.10	
2025-01-11 08:04:02.94	86.23	9.11	
2025-01-11 08:04:03.14	86.21	9.12	
2025-01-11 08:04:03.36	86.18	9.14	
2025-01-11 08:04:03.57	86.15	9.15	
2025-01-11 08:04:03.77	86.13	9.16	
2025-01-11 08:04:03.98	86.10	9.17	
2025-01-11 08:04:04.18	86.08	9.19	
2025-01-11 08:04:04.39	86.05	9.20	
2025-01-11 08:04:04.59	86.03	9.21	
2025-01-11 08:04:04.80	86.00	9.22	
2025-01-11 08:04:05.00	85.98	9.24	
2025-01-11 08:04:05.21	85.95	9.25	
2025-01-11 08:04:05.41	85.93	9.26	
2025-01-11 08:04:05.62	85.90	9.27	
2025-01-11 08:04:05.82	85.88	9.29	
2025-01-11 08:04:06.03	85.85	9.30	
2025-01-11 08:04:06.23	85.83	9.31	
2025-01-11 08:04:06.44	85.80	9.32	
2025-01-11 08:04:06.64	85.78	9.33	
2025-01-11 08:04:06.85	85.75	9.35	
2025-01-11 08:04:07.05	85.73	9.36	
2025-01-11 08:04:07.25	85.70	9.37	
2025-01-11 08:04:07.46	85.68	9.38	
2025-01-11 08:04:07.66	85.65	9.40	
2025-01-11 08:04:07.87	85.63	9.41	
2025-01-11 08:04:08.08	85.60	9.42	
2025-01-11 08:04:08.28	85.57	9.43	
2025-01-11 08:04:08.49	85.55	9.45	
2025-01-11 08:04:08.69	85.52	9.46	
2025-01-11 08:04:08.90	85.50	9.47	
2025-01-11 08:04:09.10	85.47	9.48	
2025-01-11 08:04:09.31	85.45	9.50	
2025-01-11 08:04:09.51	85.42	9.51	
2025-01-11 08:04:09.72	85.40	9.52	
2025-01-11 08:04:09.92	85.37	9.53	
2025-01-11 08:04:10.13	85.34	9.55	
2025-01-11 08:04:10.34	85.32	9.56	
2025-01-11 08:04:10.54	85.29	9.57	
2025-01-11 08:04:10.74	85.27	9.58	
2025-01-11 08:04:10.95	85.24	9.59	
2025-01-11 08:04:11.15	85.22	9.61	
2025-01-11 08:04:11.36	85.19	9.62	
2025-01-11 08:04:11.56	85.16	9.63	
2025-01-11 08:04:11.77	85.14	9.64	
2025-01-11 08:04:11.97	85.11	9.66	
2025-01-11 08:04:12.18	85.09	9.67	
2025-01-11 08:04:12.38	85.06	9.68	
2025-01-11 08:04:12.59	85.03	9.69	
2025-01-11 08:04:12.79	85.01	9.71	
2025-01-11 08:04:13.00	84.98	9.72	
2025-01-11 08:04:13.20	84.96	9.73	
2025-01-11 08:04:13.41	84.93	9.74	
2025-01-11 08:04:13.61	84.90	9.76	
2025-01-11 08:04:13.82	84.88	9.77	
2025-01-11 08:04:14.02	84.85	9.78	
2025-01-11 08:04:14.22	84.83	9.79	
2025-01-11 08:04:14.43	84.80	9.80	
2025-01-11 08:04:14.64	84.77	9.82	
2025-01-11 08:04:14.84	84.75	9.83	
2025-01-11 08:04:15.04	84.72	9.84	
2025-01-11 08:04:15.25	84.70	9.85	
2025-01-11 08:04:15.46	84.67	9.87	
2025-01-11 08:04:15.66	84.64	9.88	
2025-01-11 08:04:15.86	84.62	9.89	
2025-01-11 08:04:16.08	84.59	9.90	
2025-01-11 08:04:16.29	84.56	9.92	
2025-01-11 08:04:16.49	84.54	9.93	
2025-01-11 08:04:16.71	84.51	9.94	
2025-01-11 08:04:16.91	84.48	9.95	
2025-01-11 08:04:17.13	84.45	9.97	
2025-01-11 08:04:17.34	84.43	9.98	
2025-01-11 08:04:17.54	84.40	9.99	
2025-01-11 08:04:17.75	84.37	10.01	
2025-01-11 08:04:17.96	84.35	10.02	
2025-01-11 08:04:18.16	84.32	10.03	
2025-01-11 08:04:18.37	84.29	10.04	
2025-01-11 08:04:18.57	84.27	10.05	
2025-01-11 08:04:18.78	84.24	10.07	
2025-01-11 08:04:18.98	84.21	10.08	
2025-01-11 08:04:19.19	84.19	10.09	
2025-01-11 08:04:19.39	84.16	10.10	
2025-01-11 08:04:19.60	84.13	10.12	
2025-01-11 08:04:19.80	84.11	10.13	
2025-01-11 08:04:20.01	84.08	10.14	
2025-01-11 08:04:20.22	84.05	10.15	
2025-01-11 08:04:20.43	84.02	10.17	
2025-01-11 08:04:20.64	84.00	10.18	
2025-01-11 08:04:20.84	83.97	10.19	
2025-01-11 08:04:21.05	83.94	10.20	
2025-01-11 08:04:21.25	83.92	10.22	
2025-01-11 08:04:21.47	83.89	10.23	
2025-01-11 08:04:21.68	83.86	10.24	
2025-01-11 08:04:21.88	83.83	10.25	
2025-01-11 08:04:22.09	83.81	10.27	
2025-01-11 08:04:22.30	83.78	10.28	
2025-01-11 08:04:22.50	83.75	10.29	
2025-01-11 08:04:22.71	83.72	10.30	
2025-01-11 08:04:22.91	83.70	10.32	
2025-01-11 08:04:23.12	83.67	10.33	
2025-01-11 08:04:23.33	83.64	10.34	
2025-01-11 08:04:23.53	83.62	10.35	
2025-01-11 08:04:23.73	83.59	10.37	
2025-01-11 08:04:23.94	83.56	10.38	
2025-01-11 08:04:24.14	83.54	10.39	
2025-01-11 08:04:24.35	83.51	10.40	
2025-01-11 08:04:24.55	83.48	10.42	
2025-01-11 08:04:24.76	83.45	10.43	
2025-01-11 08:04:24.96	83.43	10.44	
2025-01-11 08:04:25.17	83.40	10.45	
2025-01-11 08:04:25.38	83.37	10.47	
2025-01-11 08:04:25.58	83.34	10.48	
2025-01-11 08:04:25.79	83.31	10.49	
2025-01-11 08:04:25.99	83.29	10.50	
2025-01-11 08:04:26.19	83.26	10.52	
2025-01-11 08:04:26.40	83.23	10.53	
2025-01-11 08:04:26.61	83.20	10.54	
2025-01-11 08:04:26.82	83.18	10.55	
2025-01-11 08:04:27.03	83.15	10.57	
2025-01-11 08:04:27.23	83.12	10.58	
2025-01-11 08:04:27.44	83.09	10.59	
2025-01-11 08:04:27.64	83.07	10.60	
2025-01-11 08:04:27.85	83.04	10.62	
2025-01-11 08:04:28.05	83.01	10.63	
2025-01-11 08:04:28.26	82.98	10.64	
2025-01-11 08:04:28.46	82.96	10.65	
2025-01-11 08:04:28.67	82.93	10.67	
2025-01-11 08:04:28.87	82.90	10.68	
2025-01-11 08:04:29.08	82.87	10.69	
2025-01-11 08:04:29.28	82.84	10.70	
2025-01-11 08:04:29.49	82.82	10.71	
2025-01-11 08:04:29.70	82.79	10.73	
2025-01-11 08:04:29.90	82.76	10.74	
2025-01-11 08:04:30.11	82.73	10.75	
2025-01-11 08:04:30.31	82.70	10.76	
2025-01-11 08:04:30.52	82.68	10.78	
2025-01-11 08:04:30.72	82.65	10.79	
2025-01-11 08:04:30.93	82.62	10.80	
2025-01-11 08:04:31.13	82.59	10.81	
2025-01-11 08:04:31.34	82.56	10.83	
2025-01-11 08:04:31.54	82.54	10.84	
2025-01-11 08:04:31.75	82.51	10.85	
2025-01-11 08:04:31.95	82.48	10.86	
2025-01-11 08:04:32.17	82.45	10.88	
2025-01-11 08:04:32.38	82.42	10.89	
2025-01-11 08:04:32.58	82.39	10.90	
2025-01-11 08:04:32.79	82.36	10.91	
2025-01-11 08:04:32.99	82.34	10.93	
2025-01-11 08:04:33.20	82.31	10.94	
2025-01-11 08:04:33.40	82.28	10.95	
2025-01-11 08:04:33.60	82.25	10.96	
2025-01-11 08:04:33.81	82.22	10.98	
2025-01-11 08:04:34.01	82.20	10.99	
2025-01-11 08:04:34.22	82.17	11.00	
2025-01-11 08:04:34.42	82.14	11.01	
2025-01-11 08:04:34.63	82.11	11.02	
2025-01-11 08:04:34.83	82.08	11.04	
2025-01-11 08:04:35.04	82.05	11.05	
2025-01-11 08:04:35.24	82.02	11.06	
2025-01-11 08:04:35.45	82.00	11.07	
2025-01-11 08:04:35.65	81.97	11.09	
2025-01-11 08:04:35.86	81.94	11.10	
2025-01-11 08:04:36.06	81.91	11.11	
2025-01-11 08:04:36.27	81.88	11.12	
2025-01-11 08:04:36.47	81.85	11.14	
2025-01-11 08:04:36.68	81.82	11.15	
2025-01-11 08:04:36.89	81.79	11.16	
2025-01-11 08:04:37.09	81.77	11.17	
2025-01-11 08:04:37.29	81.74	11.19	
2025-01-11 08:04:37.50	81.71	11.20	
2025-01-11 08:04:37.70	81.68	11.21	
2025-01-11 08:04:37.91	81.65	11.22	
2025-01-11 08:04:38.11	81.62	11.23	
2025-01-11 08:04:38.32	81.59	11.25	
2025-01-11 08:04:38.54	81.56	11.26	
2025-01-11 08:04:38.74	81.53	11.27	
2025-01-11 08:04:38.95	81.50	11.29	
2025-01-11 08:04:39.15	81.48	11.30	
2025-01-11 08:04:39.36	81.45	11.31	
2025-01-11 08:04:39.56	81.42	11.32	
2025-01-11 08:04:39.77	81.39	11.33	
2025-01-11 08:04:39.97	81.36	11.35	
2025-01-11 08:04:40.17	81.33	11.36	
2025-01-11 08:04:40.38	81.30	11.37	
2025-01-11 08:04:40.58	81.27	11.38	
2025-01-11 08:04:40.79	81.24	11.40	
2025-01-11 08:04:40.99	81.21	11.41	
2025-01-11 08:04:41.20	81.18	11.42	
2025-01-11 08:04:41.41	81.15	11.43	
2025-01-11 08:04:41.61	81.13	11.45	
2025-01-11 08:04:41.81	81.10	11.46	
2025-01-11 08:04:42.02	81.07	11.47	
2025-01-11 08:04:42.23	81.04	11.48	
2025-01-11 08:04:42.43	81.01	11.50	
2025-01-11 08:04:42.64	80.98	11.51	
2025-01-11 08:04:42.86	80.95	11.52	
2025-01-11 08:04:43.06	80.92	11.53	
2025-01-11 08:04:43.27	80.89	11.55	
2025-01-11 08:04:43.47	80.86	11.56	
2025-01-11 08:04:43.68	80.83	11.57	
2025-01-11 08:04:43.90	80.80	11.58	
2025-01-11 08:04:44.10	80.77	11.60	
2025-01-11 08:04:44.31	80.74	11.61	
2025-01-11 08:04:44.52	80.71	11.62	
2025-01-11 08:04:44.72	80.68	11.63	
2025-01-11 08:04:44.92	80.65	11.64	
2025-01-11 08:04:45.13	80.62	11.66	
2025-01-11 08:04:45.33	80.59	11.67	
2025-01-11 08:04:45.54	80.56	11.68	
2025-01-11 08:04:45.75	80.53	11.69	
2025-01-11 08:04:45.95	80.50	11.71	
2025-01-11 08:04:46.16	80.47	11.72	
2025-01-11 08:04:46.36	80.44	11.73	
2025-01-11 08:04:46.57	80.41	11.74	
2025-01-11 08:04:46.77	80.38	11.76	
2025-01-11 08:04:46.98	80.35	11.77	
2025-01-11 08:04:47.18	80.32	11.78	
2025-01-11 08:04:47.39	80.29	11.79	
2025-01-11 08:04:47.59	80.26	11.81	
2025-01-11 08:04:47.80	80.23	11.82	
2025-01-11 08:04:48.00	80.20	11.83	
2025-01-11 08:04:48.21	80.17	11.84	
2025-01-11 08:04:48.42	80.14	11.85	
2025-01-11 08:04:48.62	80.11	11.87	
2025-01-11 08:04:48.83	80.08	11.88	
2025-01-11 08:04:49.03	80.05	11.89	
2025-01-11 08:04:49.25	80.02	11.90	
2025-01-11 08:04:49.46	79.98	11.92	
2025-01-11 08:04:49.66	79.95	11.93	
2025-01-11 08:04:49.87	79.92	11.94	
2025-01-11 08:04:50.07	79.89	11.95	
2025-01-11 08:04:50.28	79.86	11.97	
2025-01-11 08:04:50.49	79.83	11.98	
2025-01-11 08:04:50.69	79.80	11.99	
2025-01-11 08:04:50.90	79.77	12.00	
2025-01-11 08:04:51.10	79.74	12.02	
2025-01-11 08:04:51.31	79.71	12.03	
2025-01-11 08:04:51.51	79.68	12.04	
2025-01-11 08:04:51.72	79.65	12.05	
2025-01-11 08:04:51.92	79.62	12.06	
2025-01-11 08:04:52.13	79.59	12.08	
2025-01-11 08:04:52.33	79.56	12.09	
2025-01-11 08:04:52.54	79.53	12.10	
2025-01-11 08:04:52.74	79.50	12.11	
2025-01-11 08:04:52.95	79.46	12.13	
2025-01-11 08:04:53.16	79.43	12.14	
2025-01-11 08:04:53.36	79.40	12.15	
2025-01-11 08:04:53.57	79.37	12.16	
2025-01-11 08:04:53.77	79.34	12.18	
2025-01-11 08:04:53.98	79.31	12.19	
2025-01-11 08:04:54.18	79.28	12.20	
2025-01-11 08:04:54.39	79.25	12.21	
2025-01-11 08:04:54.59	79.22	12.22	
2025-01-11 08:04:54.80	79.19	12.24	
2025-01-11 08:04:55.00	79.16	12.25	
2025-01-11 08:04:55.21	79.12	12.26	
2025-01-11 08:04:55.42	79.09	12.27	
2025-01-11 08:04:55.62	79.06	12.29	
2025-01-11 08:04:55.82	79.03	12.30	
2025-01-11 08:04:56.03	79.00	12.31	
2025-01-11 08:04:56.23	78.97	12.32	
2025-01-11 08:04:56.44	78.94	12.33	
2025-01-11 08:04:56.66	78.90	12.35	
2025-01-11 08:04:56.86	78.87	12.36	
2025-01-11 08:04:57.07	78.84	12.37	
2025-01-11 08:04:57.28	78.81	12.38	
2025-01-11 08:04:57.48	78.78	12.40	
2025-01-11 08:04:57.68	78.75	12.41	
2025-01-11 08:04:57.89	78.72	12.42	
2025-01-11 08:04:58.10	78.68	12.43	
2025-01-11 08:04:58.30	78.65	12.45	
2025-01-11 08:04:58.51	78.62	12.46	
2025-01-11 08:04:58.71	78.59	12.47	
2025-01-11 08:04:58.92	78.56	12.48	
2025-01-11 08:04:59.12	78.53	12.49	
2025-01-11 08:04:59.33	78.50	12.51	
2025-01-11 08:04:59.53	78.47	12.52	
2025-01-11 08:04:59.74	78.43	12.53	
2025-01-11 08:04:59.94	78.40	12.54	
2025-01-11 08:05:00.15	78.37	12.56	
2025-01-11 08:05:00.35	78.34	12.57	
2025-01-11 08:05:00.56	78.31	12.58	
2025-01-11 08:05:00.76	78.28	12.59	
2025-01-11 08:05:00.97	78.24	12.60	
2025-01-11 08:05:01.17	78.21	12.62	
2025-01-11 08:05:01.38	78.18	12.63	
2025-01-11 08:05:01.58	78.15	12.64	
2025-01-11 08:05:01.79	78.12	12.65	
2025-01-11 08:05:02.00	78.08	12.67	
2025-01-11 08:05:02.20	78.05	12.68	
2025-01-11 08:05:02.41	78.02	12.69	
2025-01-11 08:05:02.61	77.99	12.70	
2025-01-11 08:05:02.82	77.96	12.71	
2025-01-11 08:05:03.02	77.92	12.73	
2025-01-11 08:05:03.23	77.89	12.74	
2025-01-11 08:05:03.43	77.86	12.75	
2025-01-11 08:05:03.64	77.83	12.76	
2025-01-11 08:05:03.84	77.80	12.77	
2025-01-11 08:05:04.05	77.76	12.79	
2025-01-11 08:05:04.25	77.73	12.80	
2025-01-11 08:05:04.46	77.70	12.81	
2025-01-11 08:05:04.67	77.67	12.82	
2025-01-11 08:05:04.87	77.63	12.84	
2025-01-11 08:05:05.08	77.60	12.85	
2025-01-11 08:05:05.28	77.57	12.86	
2025-01-11 08:05:05.48	77.54	12.87	
2025-01-11 08:05:05.69	77.50	12.88	
2025-01-11 08:05:05.90	77.47	12.90	
2025-01-11 08:05:06.10	77.44	12.91	
2025-01-11 08:05:06.31	77.41	12.92	
2025-01-11 08:05:06.51	77.37	12.93	
2025-01-11 08:05:06.72	77.34	12.94	
2025-01-11 08:05:06.92	77.31	12.96	
2025-01-11 08:05:07.13	77.28	12.97	
2025-01-11 08:05:07.33	77.24	12.98	
2025-01-11 08:05:07.54	77.21	12.99	
2025-01-11 08:05:07.74	77.18	13.00	
2025-01-11 08:05:07.95	77.15	13.02	
2025-01-11 08:05:08.15	77.11	13.03	
2025-01-11 08:05:08.36	77.08	13.04	
2025-01-11 08:05:08.56	77.05	13.05	
2025-01-11 08:05:08.77	77.02	13.07	
2025-01-11 08:05:08.97	76.98	13.08	
2025-01-11 08:05:09.18	76.95	13.09	
2025-01-11 08:05:09.38	76.92	13.10	
2025-01-11 08:05:09.59	76.88	13.11	
2025-01-11 08:05:09.79	76.85	13.12	
2025-01-11 08:05:10.00	76.82	13.14	
2025-01-11 08:05:10.21	76.78	13.15	
2025-01-11 08:05:10.41	76.75	13.16	
2025-01-11 08:05:10.62	76.72	13.17	
2025-01-11 08:05:10.82	76.69	13.19	
2025-01-11 08:05:11.03	76.65	13.20	
2025-01-11 08:05:11.23	76.62	13.21	
2025-01-11 08:05:11.44	76.59	13.22	
2025-01-11 08:05:11.66	76.55	13.23	
2025-01-11 08:05:11.86	76.52	13.25	
2025-01-11 08:05:12.07	76.48	13.26	
2025-01-11 08:05:12.27	76.45	13.27	
2025-01-11 08:05:12.48	76.42	13.28	
2025-01-11 08:05:12.68	76.38	13.29	
2025-01-11 08:05:12.89	76.35	13.31	
2025-01-11 08:05:13.09	76.32	13.32	
2025-01-11 08:05:13.30	76.28	13.33	
2025-01-11 08:05:13.51	76.25	13.34	
2025-01-11 08:05:13.71	76.22	13.35	
2025-01-11 08:05:13.92	76.18	13.37	
2025-01-11 08:05:14.12	76.15	13.38	
2025-01-11 08:05:14.33	76.12	13.39	
2025-01-11 08:05:14.53	76.08	13.40	
2025-01-11 08:05:14.74	76.05	13.41	
2025-01-11 08:05:14.94	76.02	13.43	
2025-01-11 08:05:15.15	75.98	13.44	
2025-01-11 08:05:15.35	75.95	13.45	
2025-01-11 08:05:15.56	75.91	13.46	
2025-01-11 08:05:15.76	75.88	13.47	
2025-01-11 08:05:15.97	75.85	13.49	
2025-01-11 08:05:16.17	75.81	13.50	
2025-01-11 08:05:16.38	75.78	13.51	
2025-01-11 08:05:16.58	75.75	13.52	
2025-01-11 08:05:16.79	75.71	13.53	
2025-01-11 08:05:16.99	75.68	13.55	
2025-01-11 08:05:17.20	75.64	13.56	
2025-01-11 08:05:17.40	75.61	13.57	
2025-01-11 08:05:17.61	75.58	13.58	
2025-01-11 08:05:17.81	75.54	13.59	
2025-01-11 08:05:18.01	75.51	13.60	
2025-01-11 08:05:18.22	75.48	13.62	
2025-01-11 08:05:18.42	75.44	13.63	
2025-01-11 08:05:18.63	75.41	13.64	
2025-01-11 08:05:18.84	75.37	13.65	
2025-01-11 08:05:19.04	75.34	13.66	
2025-01-11 08:05:19.25	75.30	13.68	
2025-01-11 08:05:19.45	75.27	13.69	
2025-01-11 08:05:19.66	75.24	13.70	
2025-01-11 08:05:19.86	75.20	13.71	
2025-01-11 08:05:20.07	75.17	13.72	
2025-01-11 08:05:20.27	75.13	13.74	
2025-01-11 08:05:20.48	75.10	13.75	
2025-01-11 08:05:20.68	75.06	13.76	
2025-01-11 08:05:20.89	75.03	13.77	
2025-01-11 08:05:21.09	75.00	13.78	
2025-01-11 08:05:21.30	74.96	13.79	
2025-01-11 08:05:21.50	74.93	13.81	
2025-01-11 08:05:21.71	74.89	13.82	
2025-01-11 08:05:21.91	74.86	13.83	
2025-01-11 08:05:22.12	74.82	13.84	
2025-01-11 08:05:22.32	74.79	13.85	
2025-01-11 08:05:22.53	74.75	13.87	
2025-01-11 08:05:22.73	74.72	13.88	
2025-01-11 08:05:22.94	74.68	13.89	
2025-01-11 08:05:23.14	74.65	13.90	
2025-01-11 08:05:23.35	74.61	13.91	
2025-01-11 08:05:23.55	74.58	13.92	
2025-01-11 08:05:23.76	74.55	13.94	
2025-01-11 08:05:23.97	74.51	13.95	
2025-01-11 08:05:24.17	74.48	13.96	
2025-01-11 08:05:24.37	74.44	13.97	
2025-01-11 08:05:24.58	74.41	13.98	
2025-01-11 08:05:24.79	74.37	14.00	
2025-01-11 08:05:24.99	74.34	14.01	
2025-01-11 08:05:25.19	74.30	14.02	
2025-01-11 08:05:25.40	74.27	14.03	
2025-01-11 08:05:25.61	74.23	14.04	
2025-01-11 08:05:25.81	74.20	14.05	
2025-01-11 08:05:26.02	74.16	14.07	
2025-01-11 08:05:26.22	74.13	14.08	
2025-01-11 08:05:26.43	74.09	14.09	
2025-01-11 08:05:26.63	74.06	14.10	
2025-01-11 08:05:26.83	74.02	14.11	
2025-01-11 08:05:27.04	73.99	14.12	
2025-01-11 08:05:27.24	73.95	14.14	
2025-01-11 08:05:27.45	73.91	14.15	
2025-01-11 08:05:27.65	73.88	14.16	
2025-01-11 08:05:27.86	73.84	14.17	
2025-01-11 08:05:28.07	73.81	14.18	
2025-01-11 08:05:28.27	73.77	14.19	
2025-01-11 08:05:28.48	73.74	14.21	
2025-01-11 08:05:28.68	73.70	14.22	
2025-01-11 08:05:28.89	73.67	14.23	
2025-01-11 08:05:29.09	73.63	14.24	
2025-01-11 08:05:29.30	73.59	14.25	
2025-01-11 08:05:29.50	73.56	14.26	
2025-01-11 08:05:29.71	73.52	14.28	
2025-01-11 08:05:29.91	73.49	14.29	
2025-01-11 08:05:30.12	73.45	14.30	
2025-01-11 08:05:30.33	73.42	14.31	
2025-01-11 08:05:30.53	73.38	14.32	
2025-01-11 08:05:30.73	73.35	14.33	
2025-01-11 08:05:30.94	73.31	14.35	
2025-01-11 08:05:31.14	73.27	14.36	
2025-01-11 08:05:31.35	73.24	14.37	
2025-01-11 08:05:31.56	73.20	14.38	
2025-01-11 08:05:31.76	73.17	14.39	
2025-01-11 08:05:31.97	73.13	14.40	
2025-01-11 08:05:32.17	73.09	14.41	
2025-01-11 08:05:32.38	73.06	14.43	
2025-01-11 08:05:32.58	73.02	14.44	
2025-01-11 08:05:32.79	72.99	14.45	
2025-01-11 08:05:32.99	72.95	14.46	
2025-01-11 08:05:33.20	72.91	14.47	
2025-01-11 08:05:33.40	72.88	14.48	
2025-01-11 08:05:33.61	72.84	14.50	
2025-01-11 08:05:33.81	72.81	14.51	
2025-01-11 08:05:34.02	72.77	14.52	
2025-01-11 08:05:34.22	72.73	14.53	
2025-01-11 08:05:34.43	72.70	14.54	
2025-01-11 08:05:34.63	72.66	14.55	
2025-01-11 08:05:34.84	72.62	14.56	
2025-01-11 08:05:35.04	72.59	14.58	
2025-01-11 08:05:35.25	72.55	14.59	
2025-01-11 08:05:35.46	72.51	14.60	
2025-01-11 08:05:35.66	72.48	14.61	
2025-01-11 08:05:35.87	72.44	14.62	
2025-01-11 08:05:36.07	72.41	14.63	
2025-01-11 08:05:36.28	72.37	14.64	
2025-01-11 08:05:36.48	72.33	14.66	
2025-01-11 08:05:36.69	72.30	14.67	
2025-01-11 08:05:36.89	72.26	14.68	
2025-01-11 08:05:37.09	72.22	14.69	
2025-01-11 08:05:37.30	72.19	14.70	
2025-01-11 08:05:37.50	72.15	14.71	
2025-01-11 08:05:37.71	72.11	14.72	
2025-01-11 08:05:37.91	72.08	14.74	
2025-01-11 08:05:38.12	72.04	14.75	
2025-01-11 08:05:38.32	72.00	14.76	
2025-01-11 08:05:38.53	71.97	14.77	
2025-01-11 08:05:38.73	71.93	14.78	
2025-01-11 08:05:38.94	71.89	14.79	
2025-01-11 08:05:39.14	71.86	14.80	
2025-01-11 08:05:39.35	71.82	14.81	
2025-01-11 08:05:39.55	71.78	14.83	
2025-01-11 08:05:39.76	71.74	14.84	
2025-01-11 08:05:39.96	71.71	14.85	
2025-01-11 08:05:40.17	71.67	14.86	
2025-01-11 08:05:40.37	71.63	14.87	
2025-01-11 08:05:40.58	71.60	14.88	
2025-01-11 08:05:40.79	71.56	14.89	
2025-01-11 08:05:40.99	71.52	14.91	
2025-01-11 08:05:41.20	71.48	14.92	
2025-01-11 08:05:41.40	71.45	14.93	
2025-01-11 08:05:41.61	71.41	14.94	
2025-01-11 08:05:41.81	71.37	14.95	
2025-01-11 08:05:42.02	71.34	14.96	
2025-01-11 08:05:42.22	71.30	14.97	
2025-01-11 08:05:42.43	71.26	14.98	
2025-01-11 08:05:42.63	71.22	15.00	
2025-01-11 08:05:42.84	71.19	15.01	
2025-01-11 08:05:43.04	71.15	15.02	
2025-01-11 08:05:43.25	71.11	15.03	
2025-01-11 08:05:43.45	71.07	15.04	
2025-01-11 08:05:43.66	71.04	15.05	
2025-01-11 08:05:43.86	71.00	15.06	
2025-01-11 08:05:44.08	70.96	15.07	
2025-01-11 08:05:44.28	70.92	15.09	
2025-01-11 08:05:44.48	70.89	15.10	
2025-01-11 08:05:44.69	70.85	15.11	
2025-01-11 08:05:44.89	70.81	15.12	
2025-01-11 08:05:45.10	70.77	15.13	
2025-01-11 08:05:45.30	70.73	15.14	
2025-01-11 08:05:45.51	70.70	15.15	
2025-01-11 08:05:45.71	70.66	15.16	
2025-01-11 08:05:45.92	70.62	15.17	
2025-01-11 08:05:46.12	70.58	15.18	
2025-01-11 08:05:46.33	70.54	15.20	
2025-01-11 08:05:46.54	70.51	15.21	
2025-01-11 08:05:46.74	70.47	15.22	
2025-01-11 08:05:46.94	70.43	15.23	
2025-01-11 08:05:47.15	70.39	15.24	
2025-01-11 08:05:47.36	70.35	15.25	
2025-01-11 08:05:47.56	70.32	15.26	
2025-01-11 08:05:47.77	70.28	15.27	
2025-01-11 08:05:47.97	70.24	15.28	
2025-01-11 08:05:48.17	70.20	15.30	
2025-01-11 08:05:48.38	70.16	15.31	
2025-01-11 08:05:48.59	70.13	15.32	
2025-01-11 08:05:48.79	70.09	15.33	
2025-01-11 08:05:48.99	70.05	15.34	
2025-01-11 08:05:49.20	70.01	15.35	
2025-01-11 08:05:49.41	69.97	15.36	
2025-01-11 08:05:49.61	69.93	15.37	
2025-01-11 08:05:49.82	69.90	15.38	
2025-01-11 08:05:50.03	69.86	15.39	
2025-01-11 08:05:50.24	69.82	15.41	
2025-01-11 08:05:50.44	69.78	15.42	
2025-01-11 08:05:50.65	69.74	15.43	
2025-01-11 08:05:50.85	69.70	15.44	
2025-01-11 08:05:51.06	69.66	15.45	
2025-01-11 08:05:51.26	69.63	15.46	
2025-01-11 08:05:51.47	69.59	15.47	
2025-01-11 08:05:51.67	69.55	15.48	
2025-01-11 08:05:51.88	69.51	15.49	
2025-01-11 08:05:52.08	69.47	15.50	
2025-01-11 08:05:52.29	69.43	15.51	
2025-01-11 08:05:52.50	69.39	15.53	
2025-01-11 08:05:52.70	69.35	15.54	
2025-01-11 08:05:52.91	69.31	15.55	
2025-01-11 08:05:53.11	69.28	15.56	
2025-01-11 08:05:53.32	69.24	15.57	
2025-01-11 08:05:53.52	69.20	15.58	
2025-01-11 08:05:53.73	69.16	15.59	
2025-01-11 08:05:53.93	69.12	15.60	
2025-01-11 08:05:54.13	69.08	15.61	
2025-01-11 08:05:54.34	69.04	15.62	
2025-01-11 08:05:54.54	69.00	15.63	
2025-01-11 08:05:54.75	68.96	15.64	
2025-01-11 08:05:54.95	68.93	15.65	
2025-01-11 08:05:55.16	68.89	15.67	
2025-01-11 08:05:55.36	68.85	15.68	
2025-01-11 08:05:55.57	68.81	15.69	
2025-01-11 08:05:55.77	68.77	15.70	
2025-01-11 08:05:55.98	68.73	15.71	
2025-01-11 08:05:56.18	68.69	15.72	
2025-01-11 08:05:56.38	68.65	15.73	
2025-01-11 08:05:56.59	68.61	15.74	
2025-01-11 08:05:56.79	68.57	15.75	
2025-01-11 08:05:57.00	68.53	15.76	
2025-01-11 08:05:57.21	68.49	15.77	
2025-01-11 08:05:57.41	68.46	15.78	
2025-01-11 08:05:57.61	68.42	15.79	
2025-01-11 08:05:57.82	68.38	15.80	
2025-01-11 08:05:58.02	68.34	15.81	
2025-01-11 08:05:58.23	68.30	15.83	
2025-01-11 08:05:58.43	68.26	15.84	
2025-01-11 08:05:58.64	68.22	15.85	
2025-01-11 08:05:58.84	68.18	15.86	
2025-01-11 08:05:59.05	68.14	15.87	
2025-01-11 08:05:59.26	68.10	15.88	
2025-01-11 08:05:59.46	68.06	15.89	
2025-01-11 08:05:59.66	68.02	15.90	
2025-01-11 08:05:59.87	67.98	15.91	
2025-01-11 08:06:00.09	67.94	15.92	
2025-01-11 08:06:00.29	67.90	15.93	
2025-01-11 08:06:00.50	67.86	15.94	
2025-01-11 08:06:00.70	67.82	15.95	
2025-01-11 08:06:00.92	67.78	15.96	
2025-01-11 08:06:01.12	67.74	15.97	
2025-01-11 08:06:01.33	67.70	15.98	
2025-01-11 08:06:01.53	67.66	15.99	
2025-01-11 08:06:01.74	67.62	16.01	
2025-01-11 08:06:01.94	67.58	16.02	
2025-01-11 08:06:02.15	67.54	16.03	
2025-01-11 08:06:02.35	67.50	16.04	
2025-01-11 08:06:02.56	67.46	16.05	
2025-01-11 08:06:02.76	67.42	16.06	
2025-01-11 08:06:02.97	67.38	16.07	
2025-01-11 08:06:03.17	67.34	16.08	
2025-01-11 08:06:03.38	67.30	16.09	
2025-01-11 08:06:03.59	67.25	16.10	
2025-01-11 08:06:03.79	67.21	16.11	
2025-01-11 08:06:03.99	67.18	16.12	
2025-01-11 08:06:04.20	67.13	16.13	
2025-01-11 08:06:04.41	67.09	16.14	
2025-01-11 08:06:04.61	67.05	16.15	
2025-01-11 08:06:04.82	67.01	16.16	
2025-01-11 08:06:05.02	66.97	16.17	
2025-01-11 08:06:05.23	66.93	16.18	
2025-01-11 08:06:05.43	66.89	16.19	
2025-01-11 08:06:05.64	66.85	16.20	
2025-01-11 08:06:05.85	66.81	16.21	
2025-01-11 08:06:06.05	66.77	16.22	
2025-01-11 08:06:06.25	66.73	16.23	
2025-01-11 08:06:06.46	66.69	16.24	
2025-01-11 08:06:06.67	66.65	16.25	
2025-01-11 08:06:06.87	66.61	16.26	
2025-01-11 08:06:07.08	66.56	16.27	
2025-01-11 08:06:07.29	66.52	16.28	
2025-01-11 08:06:07.49	66.48	16.29	
2025-01-11 08:06:07.70	66.44	16.30	
2025-01-11 08:06:07.90	66.40	16.31	
2025-01-11 08:06:08.10	66.36	16.32	
2025-01-11 08:06:08.31	66.32	16.33	
2025-01-11 08:06:08.52	66.28	16.34	
2025-01-11 08:06:08.72	66.24	16.35	
2025-01-11 08:06:08.93	66.20	16.37	
2025-01-11 08:06:09.13	66.16	16.37	
2025-01-11 08:06:09.34	66.11	16.39	
2025-01-11 08:06:09.54	66.07	16.40	
2025-01-11 08:06:09.75	66.03	16.41	
2025-01-11 08:06:09.95	65.99	16.42	
2025-01-11 08:06:10.16	65.95	16.43	
2025-01-11 08:06:10.36	65.91	16.44	
2025-01-11 08:06:10.57	65.87	16.45	
2025-01-11 08:06:10.77	65.83	16.46	
2025-01-11 08:06:10.98	65.78	16.47	
2025-01-11 08:06:11.19	65.74	16.48	
2025-01-11 08:06:11.39	65.70	16.49	
2025-01-11 08:06:11.60	65.66	16.50	
2025-01-11 08:06:11.80	65.62	16.51	
2025-01-11 08:06:12.01	65.58	16.52	
2025-01-11 08:06:12.21	65.54	16.52	
2025-01-11 08:06:12.42	65.49	16.53	
2025-01-11 08:06:12.62	65.45	16.54	
2025-01-11 08:06:12.83	65.41	16.55	
2025-01-11 08:06:13.03	65.37	16.56	
2025-01-11 08:06:13.24	65.33	16.57	
2025-01-11 08:06:13.44	65.29	16.58	
2025-01-11 08:06:13.65	65.24	16.59	
2025-01-11 08:06:13.85	65.20	16.60	
2025-01-11 08:06:14.06	65.16	16.61	
2025-01-11 08:06:14.27	65.12	16.62	
2025-01-11 08:06:14.47	65.08	16.63	
2025-01-11 08:06:14.67	65.04	16.64	
2025-01-11 08:06:14.88	64.99	16.65	
2025-01-11 08:06:15.09	64.95	16.66	
2025-01-11 08:06:15.29	64.91	16.67	
2025-01-11 08:06:15.49	64.87	16.68	
2025-01-11 08:06:15.70	64.83	16.69	
2025-01-11 08:06:15.90	64.79	16.70	
2025-01-11 08:06:16.11	64.74	16.71	
2025-01-11 08:06:16.31	64.70	16.72	
2025-01-11 08:06:16.52	64.66	16.73	
2025-01-11 08:06:16.72	64.62	16.74	
2025-01-11 08:06:16.93	64.58	16.75	
2025-01-11 08:06:17.13	64.53	16.76	
2025-01-11 08:06:17.34	64.49	16.77	
2025-01-11 08:06:17.54	64.45	16.78	
2025-01-11 08:06:17.75	64.41	16.79	
2025-01-11 08:06:17.96	64.36	16.80	
2025-01-11 08:06:18.16	64.32	16.81	
2025-01-11 08:06:18.37	64.28	16.82	
2025-01-11 08:06:18.57	64.24	16.83	
2025-01-11 08:06:18.77	64.20	16.84	
2025-01-11 08:06:18.98	64.15	16.85	
2025-01-11 08:06:19.19	64.11	16.85	
2025-01-11 08:06:19.39	64.07	16.86	
2025-01-11 08:06:19.60	64.02	16.87	
2025-01-11 08:06:19.80	63.98	16.88	
2025-01-11 08:06:20.01	63.94	16.89	
2025-01-11 08:06:20.21	63.90	16.90	
2025-01-11 08:06:20.42	63.85	16.91	
2025-01-11 08:06:20.62	63.81	16.92	
2025-01-11 08:06:20.83	63.77	16.93	
2025-01-11 08:06:21.03	63.73	16.94	
2025-01-11 08:06:21.24	63.68	16.95	
2025-01-11 08:06:21.44	63.64	16.96	
2025-01-11 08:06:21.65	63.60	16.97	
2025-01-11 08:06:21.85	63.56	16.98	
2025-01-11 08:06:22.06	63.51	16.99	
2025-01-11 08:06:22.26	63.47	17.00	
2025-01-11 08:06:22.47	63.43	17.01	
2025-01-11 08:06:22.67	63.39	17.01	
2025-01-11 08:06:22.88	63.34	17.02	
2025-01-11 08:06:23.10	63.30	17.03	
2025-01-11 08:06:23.30	63.25	17.04	
2025-01-11 08:06:23.51	63.21	17.05	
2025-01-11 08:06:23.72	63.17	17.06	
2025-01-11 08:06:23.92	63.13	17.07	
2025-01-11 08:06:24.12	63.08	17.08	
2025-01-11 08:06:24.33	63.04	17.09	
2025-01-11 08:06:24.54	63.00	17.10	
2025-01-11 08:06:24.74	62.95	17.11	
2025-01-11 08:06:24.95	62.91	17.12	
2025-01-11 08:06:25.15	62.87	17.13	
2025-01-11 08:06:25.36	62.82	17.13	
2025-01-11 08:06:25.56	62.78	17.14	
2025-01-11 08:06:25.77	62.74	17.15	
2025-01-11 08:06:25.97	62.69	17.16	
2025-01-11 08:06:26.18	62.65	17.17	
2025-01-11 08:06:26.38	62.61	17.18	
2025-01-11 08:06:26.59	62.56	17.19	
2025-01-11 08:06:26.80	62.52	17.20	
2025-01-11 08:06:27.00	62.48	17.21	
2025-01-11 08:06:27.21	62.43	17.22	
2025-01-11 08:06:27.41	62.39	17.23	
2025-01-11 08:06:27.63	62.34	17.23	
2025-01-11 08:06:27.83	62.30	17.24	
2025-01-11 08:06:28.04	62.26	17.25	
2025-01-11 08:06:28.25	62.21	17.26	
2025-01-11 08:06:28.45	62.17	17.27	
2025-01-11 08:06:28.65	62.13	17.28	
2025-01-11 08:06:28.86	62.08	17.29	
2025-01-11 08:06:29.07	62.04	17.30	
2025-01-11 08:06:29.27	61.99	17.31	
2025-01-11 08:06:29.49	61.95	17.32	
2025-01-11 08:06:29.70	61.90	17.32	
2025-01-11 08:06:29.90	61.86	17.33	
2025-01-11 08:06:30.10	61.82	17.34	
2025-01-11 08:06:30.31	61.77	17.35	
2025-01-11 08:06:30.51	61.73	17.36	
2025-01-11 08:06:30.72	61.69	17.37	
2025-01-11 08:06:30.92	61.64	17.38	
2025-01-11 08:06:31.13	61.60	17.39	
2025-01-11 08:06:31.33	61.55	17.39	
2025-01-11 08:06:31.54	61.51	17.40	
2025-01-11 08:06:31.74	61.47	17.41	
2025-01-11 08:06:31.95	61.42	17.42	
2025-01-11 08:06:32.16	61.38	17.43	
2025-01-11 08:06:32.36	61.33	17.44	
2025-01-11 08:06:32.57	61.29	17.45	
2025-01-11 08:06:32.77	61.25	17.46	
2025-01-11 08:06:32.98	61.20	17.46	
2025-01-11 08:06:33.19	61.16	17.47	
2025-01-11 08:06:33.39	61.11	17.48	
2025-01-11 08:06:33.60	61.07	17.49	
2025-01-11 08:06:33.80	61.02	17.50	
2025-01-11 08:06:34.01	60.98	17.51	
2025-01-11 08:06:34.21	60.94	17.52	
2025-01-11 08:06:34.42	60.89	17.52	
2025-01-11 08:06:34.62	60.85	17.53	
2025-01-11 08:06:34.82	60.80	17.54	
2025-01-11 08:06:35.03	60.76	17.55	
2025-01-11 08:06:35.24	60.71	17.56	
2025-01-11 08:06:35.44	60.67	17.57	
2025-01-11 08:06:35.65	60.62	17.57	
2025-01-11 08:06:35.85	60.58	17.58	
2025-01-11 08:06:36.05	60.54	17.59	
2025-01-11 08:06:36.26	60.49	17.60	
2025-01-11 08:06:36.47	60.45	17.61	
2025-01-11 08:06:36.67	60.40	17.62	
2025-01-11 08:06:36.88	60.36	17.62	
2025-01-11 08:06:37.08	60.31	17.63	
2025-01-11 08:06:37.29	60.27	17.64	
2025-01-11 08:06:37.49	60.22	17.65	
2025-01-11 08:06:37.70	60.18	17.66	
2025-01-11 08:06:37.91	60.13	17.67	
2025-01-11 08:06:38.11	60.09	17.67	
2025-01-11 08:06:38.32	60.04	17.68	
2025-01-11 08:06:38.52	60.00	17.69	
2025-01-11 08:06:38.72	59.96	17.70	
2025-01-11 08:06:38.93	59.91	17.71	
2025-01-11 08:06:39.13	59.87	17.72	
2025-01-11 08:06:39.34	59.82	17.72	
2025-01-11 08:06:39.55	59.77	17.73	
2025-01-11 08:06:39.75	59.73	17.74	
2025-01-11 08:06:39.95	59.69	17.75	
2025-01-11 08:06:40.16	59.64	17.76	
2025-01-11 08:06:40.36	59.60	17.76	
2025-01-11 08:06:40.57	59.55	17.77	
2025-01-11 08:06:40.78	59.50	17.78	
2025-01-11 08:06:40.98	59.46	17.79	
2025-01-11 08:06:41.18	59.42	17.80	
2025-01-11 08:06:41.39	59.37	17.80	
2025-01-11 08:06:41.60	59.32	17.81	
2025-01-11 08:06:41.80	59.28	17.82	
2025-01-11 08:06:42.01	59.23	17.83	
2025-01-11 08:06:42.21	59.19	17.84	
2025-01-11 08:06:42.41	59.14	17.84	
2025-01-11 08:06:42.62	59.10	17.85	
2025-01-11 08:06:42.82	59.05	17.86	
2025-01-11 08:06:43.03	59.01	17.87	
2025-01-11 08:06:43.23	58.96	17.87	
2025-01-11 08:06:43.44	58.92	17.88	
2025-01-11 08:06:43.64	58.87	17.89	
2025-01-11 08:06:43.85	58.83	17.90	
2025-01-11 08:06:44.05	58.78	17.91	
2025-01-11 08:06:44.26	58.74	17.91	
2025-01-11 08:06:44.46	58.69	17.92	
2025-01-11 08:06:44.67	58.64	17.93	
2025-01-11 08:06:44.88	58.60	17.94	
2025-01-11 08:06:45.08	58.55	17.94	
2025-01-11 08:06:45.29	58.51	17.95	
2025-01-11 08:06:45.49	58.46	17.96	
2025-01-11 08:06:45.70	58.42	17.97	
2025-01-11 08:06:45.90	58.37	17.98	
2025-01-11 08:06:46.11	58.32	17.98	
2025-01-11 08:06:46.31	58.28	17.99	
2025-01-11 08:06:46.52	58.23	18.00	
2025-01-11 08:06:46.72	58.19	18.01	
2025-01-11 08:06:46.93	58.14	18.01	
2025-01-11 08:06:47.13	58.10	18.02	
2025-01-11 08:06:47.34	58.05	18.03	
2025-01-11 08:06:47.55	58.00	18.04	
2025-01-11 08:06:47.75	57.96	18.04	
2025-01-11 08:06:47.95	57.91	18.05	
2025-01-11 08:06:48.16	57.87	18.06	
2025-01-11 08:06:48.36	57.82	18.07	
2025-01-11 08:06:48.57	57.78	18.07	
2025-01-11 08:06:48.78	57.73	18.08	
2025-01-11 08:06:48.98	57.68	18.09	
2025-01-11 08:06:49.19	57.64	18.10	
2025-01-11 08:06:49.39	57.59	18.10	
2025-01-11 08:06:49.60	57.54	18.11	
2025-01-11 08:06:49.81	57.50	18.12	
2025-01-11 08:06:50.01	57.45	18.12	
2025-01-11 08:06:50.22	57.40	18.13	
2025-01-11 08:06:50.42	57.36	18.14	
2025-01-11 08:06:50.63	57.31	18.15	
2025-01-11 08:06:50.83	57.27	18.15	
2025-01-11 08:06:51.04	57.22	18.16	
2025-01-11 08:06:51.24	57.17	18.17	
2025-01-11 08:06:51.45	57.13	18.18	
2025-01-11 08:06:51.65	57.08	18.18	
2025-01-11 08:06:51.86	57.03	18.19	
2025-01-11 08:06:52.06	56.99	18.20	
2025-01-11 08:06:52.27	56.94	18.20	
2025-01-11 08:06:52.47	56.90	18.21	
2025-01-11 08:06:52.68	56.85	18.22	
2025-01-11 08:06:52.88	56.80	18.23	
2025-01-11 08:06:53.09	56.76	18.23	
2025-01-11 08:06:53.29	56.71	18.24	
2025-01-11 08:06:53.50	56.66	18.25	
2025-01-11 08:06:53.70	56.62	18.25	
2025-01-11 08:06:53.91	56.57	18.26	
2025-01-11 08:06:54.11	56.53	18.27	
2025-01-11 08:06:54.32	56.48	18.27	
2025-01-11 08:06:54.52	56.43	18.28	
2025-01-11 08:06:54.73	56.38	18.29	
2025-01-11 08:06:54.93	56.34	18.29	
2025-01-11 08:06:55.14	56.29	18.30	
2025-01-11 08:06:55.34	56.25	18.31	
2025-01-11 08:06:55.54	56.20	18.32	
2025-01-11 08:06:55.75	56.15	18.32	
2025-01-11 08:06:55.95	56.11	18.33	
2025-01-11 08:06:56.16	56.06	18.34	
2025-01-11 08:06:56.36	56.01	18.34	
2025-01-11 08:06:56.57	55.97	18.35	
2025-01-11 08:06:56.77	55.92	18.36	
2025-01-11 08:06:56.98	55.87	18.36	
2025-01-11 08:06:57.18	55.83	18.37	
2025-01-11 08:06:57.39	55.78	18.38	
2025-01-11 08:06:57.59	55.73	18.38	
2025-01-11 08:06:57.80	55.68	18.39	
2025-01-11 08:06:58.00	55.64	18.40	
2025-01-11 08:06:58.21	55.59	18.40	
2025-01-11 08:06:58.41	55.55	18.41	
2025-01-11 08:06:58.62	55.50	18.42	
2025-01-11 08:06:58.82	55.45	18.42	
2025-01-11 08:06:59.03	55.40	18.43	
2025-01-11 08:06:59.23	55.36	18.43	
2025-01-11 08:06:59.44	55.31	18.44	
2025-01-11 08:06:59.64	55.26	18.45	
2025-01-11 08:06:59.85	55.21	18.45	
2025-01-11 08:07:00.05	55.17	18.46	
2025-01-11 08:07:00.26	55.12	18.47	
2025-01-11 08:07:00.46	55.07	18.47	
2025-01-11 08:07:00.66	55.03	18.48	
2025-01-11 08:07:00.87	54.98	18.49	
2025-01-11 08:07:01.08	54.93	18.49	
2025-01-11 08:07:01.28	54.89	18.50	
2025-01-11 08:07:01.48	54.84	18.51	
2025-01-11 08:07:01.69	54.79	18.51	
2025-01-11 08:07:01.89	54.74	18.52	
2025-01-11 08:07:02.10	54.70	18.52	
2025-01-11 08:07:02.30	54.65	18.53	
2025-01-11 08:07:02.51	54.60	18.54	
2025-01-11 08:07:02.73	54.55	18.54	
2025-01-11 08:07:02.93	54.50	18.55	
2025-01-11 08:07:03.14	54.46	18.56	
2025-01-11 08:07:03.34	54.41	18.56	
2025-01-11 08:07:03.55	54.36	18.57	
2025-01-11 08:07:03.75	54.31	18.57	
2025-01-11 08:07:03.96	54.27	18.58	
2025-01-11 08:07:04.16	54.22	18.59	
2025-01-11 08:07:04.37	54.17	18.59	
2025-01-11 08:07:04.57	54.12	18.60	
2025-01-11 08:07:04.78	54.08	18.60	
2025-01-11 08:07:04.99	54.03	18.61	
2025-01-11 08:07:05.20	53.98	18.62	
2025-01-11 08:07:05.40	53.93	18.62	
2025-01-11 08:07:05.61	53.88	18.63	
2025-01-11 08:07:05.81	53.84	18.63	
2025-01-11 08:07:06.01	53.79	18.64	
2025-01-11 08:07:06.22	53.74	18.65	
2025-01-11 08:07:06.43	53.69	18.65	
2025-01-11 08:07:06.63	53.65	18.66	
2025-01-11 08:07:06.84	53.60	18.66	
2025-01-11 08:07:07.04	53.55	18.67	
2025-01-11 08:07:07.25	53.50	18.67	
2025-01-11 08:07:07.45	53.46	18.68	
2025-01-11 08:07:07.66	53.41	18.69	
2025-01-11 08:07:07.86	53.36	18.69	
2025-01-11 08:07:08.07	53.31	18.70	
2025-01-11 08:07:08.27	53.26	18.70	
2025-01-11 08:07:08.48	53.21	18.71	
2025-01-11 08:07:08.68	53.17	18.71	
2025-01-11 08:07:08.89	53.12	18.72	
2025-01-11 08:07:09.09	53.07	18.73	
2025-01-11 08:07:09.30	53.02	18.73	
2025-01-11 08:07:09.50	52.98	18.74	
2025-01-11 08:07:09.71	52.93	18.74	
2025-01-11 08:07:09.91	52.88	18.75	
2025-01-11 08:07:10.12	52.83	18.75	
2025-01-11 08:07:10.32	52.78	18.76	
2025-01-11 08:07:10.53	52.73	18.76	
2025-01-11 08:07:10.73	52.69	18.77	
2025-01-11 08:07:10.94	52.64	18.77	
2025-01-11 08:07:11.16	52.59	18.78	
2025-01-11 08:07:11.36	52.54	18.79	
2025-01-11 08:07:11.57	52.49	18.79	
2025-01-11 08:07:11.78	52.44	18.80	
2025-01-11 08:07:11.98	52.39	18.80	
2025-01-11 08:07:12.19	52.34	18.81	
2025-01-11 08:07:12.39	52.30	18.81	
2025-01-11 08:07:12.60	52.25	18.82	
2025-01-11 08:07:12.80	52.20	18.82	
2025-01-11 08:07:13.01	52.15	18.83	
2025-01-11 08:07:13.21	52.10	18.83	
2025-01-11 08:07:13.42	52.06	18.84	
2025-01-11 08:07:13.62	52.01	18.84	
2025-01-11 08:07:13.83	51.96	18.85	
2025-01-11 08:07:14.03	51.91	18.85	
2025-01-11 08:07:14.24	51.86	18.86	
2025-01-11 08:07:14.44	51.81	18.86	
2025-01-11 08:07:14.65	51.77	18.87	
2025-01-11 08:07:14.86	51.72	18.87	
2025-01-11 08:07:15.06	51.67	18.88	
2025-01-11 08:07:15.27	51.62	18.88	
2025-01-11 08:07:15.48	51.57	18.89	
2025-01-11 08:07:15.69	51.52	18.89	
2025-01-11 08:07:15.89	51.47	18.90	
2025-01-11 08:07:16.10	51.42	18.90	
2025-01-11 08:07:16.30	51.37	18.91	
2025-01-11 08:07:16.52	51.32	18.91	
2025-01-11 08:07:16.72	51.28	18.92	
2025-01-11 08:07:16.93	51.23	18.92	
2025-01-11 08:07:17.14	51.18	18.93	
2025-01-11 08:07:17.34	51.13	18.93	
2025-01-11 08:07:17.54	51.08	18.94	
2025-01-11 08:07:17.75	51.03	18.94	
2025-01-11 08:07:17.96	50.98	18.95	
2025-01-11 08:07:18.16	50.93	18.95	
2025-01-11 08:07:18.37	50.88	18.96	
2025-01-11 08:07:18.58	50.83	18.96	
2025-01-11 08:07:18.79	50.78	18.97	
2025-01-11 08:07:19.00	50.73	18.97	
2025-01-11 08:07:19.20	50.69	18.98	
2025-01-11 08:07:19.41	50.64	18.98	
2025-01-11 08:07:19.61	50.59	18.99	
2025-01-11 08:07:19.81	50.54	18.99	
2025-01-11 08:07:20.02	50.49	18.99	
2025-01-11 08:07:20.22	50.44	19.00	
2025-01-11 08:07:20.43	50.39	19.00	
2025-01-11 08:07:20.63	50.35	19.01	
2025-01-11 08:07:20.84	50.30	19.01	
2025-01-11 08:07:21.04	50.25	19.02	
2025-01-11 08:07:21.25	50.20	19.02	
2025-01-11 08:07:21.46	50.15	19.03	
2025-01-11 08:07:21.66	50.10	19.03	
2025-01-11 08:07:21.86	50.05	19.03	
2025-01-11 08:07:22.07	50.00	19.04	
2025-01-11 08:07:22.27	49.96	19.04	
2025-01-11 08:07:22.48	49.91	19.05	
2025-01-11 08:07:22.69	49.85	19.05	
2025-01-11 08:07:22.89	49.81	19.06	
2025-01-11 08:07:23.09	49.76	19.06	
2025-01-11 08:07:23.30	49.71	19.06	
2025-01-11 08:07:23.51	49.66	19.07	
2025-01-11 08:07:23.71	49.61	19.07	
2025-01-11 08:07:23.92	49.56	19.08	
2025-01-11 08:07:24.12	49.51	19.08	
2025-01-11 08:07:24.33	49.46	19.08	
2025-01-11 08:07:24.54	49.41	19.09	
2025-01-11 08:07:24.74	49.36	19.09	
2025-01-11 08:07:24.94	49.32	19.10	
2025-01-11 08:07:25.15	49.27	19.10	
2025-01-11 08:07:25.35	49.22	19.10	
2025-01-11 08:07:25.56	49.17	19.11	
2025-01-11 08:07:25.76	49.12	19.11	
2025-01-11 08:07:25.97	49.07	19.12	
2025-01-11 08:07:26.19	49.02	19.12	
2025-01-11 08:07:26.39	48.97	19.12	
2025-01-11 08:07:26.59	48.92	19.13	
2025-01-11 08:07:26.80	48.87	19.13	
2025-01-11 08:07:27.01	48.82	19.14	
2025-01-11 08:07:27.22	48.77	19.14	
2025-01-11 08:07:27.43	48.72	19.14	
2025-01-11 08:07:27.64	48.67	19.15	
2025-01-11 08:07:27.84	48.62	19.15	
2025-01-11 08:07:28.05	48.57	19.15	
2025-01-11 08:07:28.25	48.52	19.16	
2025-01-11 08:07:28.46	48.47	19.16	
2025-01-11 08:07:28.66	48.42	19.17	
2025-01-11 08:07:28.87	48.37	19.17	
2025-01-11 08:07:29.08	48.32	19.17	
2025-01-11 08:07:29.28	48.27	19.18	
2025-01-11 08:07:29.48	48.23	19.18	
2025-01-11 08:07:29.69	48.17	19.18	
2025-01-11 08:07:29.89	48.13	19.19	
2025-01-11 08:07:30.10	48.08	19.19	
2025-01-11 08:07:30.30	48.03	19.19	
2025-01-11 08:07:30.51	47.98	19.20	
2025-01-11 08:07:30.71	47.93	19.20	
2025-01-11 08:07:30.92	47.88	19.20	
2025-01-11 08:07:31.12	47.83	19.21	
2025-01-11 08:07:31.33	47.78	19.21	
2025-01-11 08:07:31.53	47.73	19.21	
2025-01-11 08:07:31.74	47.68	19.22	
2025-01-11 08:07:31.94	47.63	19.22	
2025-01-11 08:07:32.15	47.58	19.22	
2025-01-11 08:07:32.35	47.53	19.23	
2025-01-11 08:07:32.56	47.48	19.23	
2025-01-11 08:07:32.76	47.43	19.23	
2025-01-11 08:07:32.97	47.38	19.24	
2025-01-11 08:07:33.17	47.33	19.24	
2025-01-11 08:07:33.38	47.28	19.24	
2025-01-11 08:07:33.58	47.24	19.25	
2025-01-11 08:07:33.79	47.18	19.25	
2025-01-11 08:07:33.99	47.14	19.25	
2025-01-11 08:07:34.20	47.08	19.26	
2025-01-11 08:07:34.40	47.04	19.26	
2025-01-11 08:07:34.61	46.99	19.26	
2025-01-11 08:07:34.81	46.94	19.26	
2025-01-11 08:07:35.02	46.89	19.27	
2025-01-11 08:07:35.23	46.84	19.27	
2025-01-11 08:07:35.43	46.79	19.27	
2025-01-11 08:07:35.63	46.74	19.28	
2025-01-11 08:07:35.84	46.69	19.28	
2025-01-11 08:07:36.04	46.64	19.28	
2025-01-11 08:07:36.25	46.59	19.28	
2025-01-11 08:07:36.45	46.54	19.29	
2025-01-11 08:07:36.66	46.49	19.29	
2025-01-11 08:07:36.86	46.44	19.29	
2025-01-11 08:07:37.07	46.39	19.30	
2025-01-11 08:07:37.27	46.34	19.30	
2025-01-11 08:07:37.48	46.29	19.30	
2025-01-11 08:07:37.68	46.24	19.30	
2025-01-11 08:07:37.89	46.19	19.31	
2025-01-11 08:07:38.09	46.14	19.31	
2025-01-11 08:07:38.30	46.09	19.31	
2025-01-11 08:07:38.50	46.04	19.31	
2025-01-11 08:07:38.71	45.99	19.32	
2025-01-11 08:07:38.91	45.94	19.32	
2025-01-11 08:07:39.12	45.89	19.32	
2025-01-11 08:07:39.32	45.84	19.32	
2025-01-11 08:07:39.53	45.79	19.33	
2025-01-11 08:07:39.74	45.74	19.33	
2025-01-11 08:07:39.94	45.69	19.33	
2025-01-11 08:07:40.14	45.64	19.33	
2025-01-11 08:07:40.35	45.59	19.34	
2025-01-11 08:07:40.55	45.54	19.34	
2025-01-11 08:07:40.76	45.49	19.34	
2025-01-11 08:07:40.97	45.44	19.34	
2025-01-11 08:07:41.17	45.39	19.34	
2025-01-11 08:07:41.37	45.34	19.35	
2025-01-11 08:07:41.58	45.29	19.35	
2025-01-11 08:07:41.79	45.24	19.35	
2025-01-11 08:07:41.99	45.19	19.35	
2025-01-11 08:07:42.21	45.14	19.36	
2025-01-11 08:07:42.41	45.09	19.36	
2025-01-11 08:07:42.62	45.04	19.36	
2025-01-11 08:07:42.82	44.99	19.36	
2025-01-11 08:07:43.03	44.94	19.36	
2025-01-11 08:07:43.25	44.89	19.37	
2025-01-11 08:07:43.45	44.84	19.37	
2025-01-11 08:07:43.66	44.78	19.37	
2025-01-11 08:07:43.87	44.73	19.37	
2025-01-11 08:07:44.07	44.68	19.37	
2025-01-11 08:07:44.27	44.64	19.38	
2025-01-11 08:07:44.48	44.58	19.38	
2025-01-11 08:07:44.69	44.53	19.38	
2025-01-11 08:07:44.89	44.48	19.38	
2025-01-11 08:07:45.09	44.44	19.38	
2025-01-11 08:07:45.30	44.38	19.39	
2025-01-11 08:07:45.50	44.34	19.39	
2025-01-11 08:07:45.71	44.28	19.39	
2025-01-11 08:07:45.91	44.24	19.39	
2025-01-11 08:07:46.12	44.18	19.39	
2025-01-11 08:07:46.33	44.13	19.39	
2025-01-11 08:07:46.53	44.08	19.40	
2025-01-11 08:07:46.73	44.04	19.40	
2025-01-11 08:07:46.94	43.98	19.40	
2025-01-11 08:07:47.15	43.93	19.40	
2025-01-11 08:07:47.35	43.88	19.40	
2025-01-11 08:07:47.55	43.83	19.40	
2025-01-11 08:07:47.76	43.78	19.41	
2025-01-11 08:07:47.97	43.73	19.41	
2025-01-11 08:07:48.17	43.68	19.41	
2025-01-11 08:07:48.38	43.63	19.41	
2025-01-11 08:07:48.58	43.58	19.41	
2025-01-11 08:07:48.79	43.53	19.41	
2025-01-11 08:07:49.00	43.48	19.41	
2025-01-11 08:07:49.20	43.43	19.42	
2025-01-11 08:07:49.41	43.38	19.42	
2025-01-11 08:07:49.61	43.33	19.42	
2025-01-11 08:07:49.82	43.28	19.42	
2025-01-11 08:07:50.02	43.23	19.42	
2025-01-11 08:07:50.23	43.18	19.42	
2025-01-11 08:07:50.43	43.13	19.42	
2025-01-11 08:07:50.64	43.08	19.43	
2025-01-11 08:07:50.84	43.03	19.43	
2025-01-11 08:07:51.05	42.98	19.43	
2025-01-11 08:07:51.25	42.93	19.43	
2025-01-11 08:07:51.46	42.88	19.43	
2025-01-11 08:07:51.67	42.83	19.43	
2025-01-11 08:07:51.87	42.78	19.43	
2025-01-11 08:07:52.07	42.73	19.43	
2025-01-11 08:07:52.28	42.68	19.43	
2025-01-11 08:07:52.49	42.63	19.44	
2025-01-11 08:07:52.69	42.58	19.44	
2025-01-11 08:07:52.90	42.53	19.44	
2025-01-11 08:07:53.10	42.48	19.44	
2025-01-11 08:07:53.31	42.42	19.44	
2025-01-11 08:07:53.51	42.38	19.44	
2025-01-11 08:07:53.72	42.32	19.44	
2025-01-11 08:07:53.92	42.28	19.44	
2025-01-11 08:07:54.13	42.22	19.44	
2025-01-11 08:07:54.33	42.17	19.44	
2025-01-11 08:07:54.54	42.12	19.44	
2025-01-11 08:07:54.75	42.07	19.44	
2025-01-11 08:07:54.95	42.02	19.45	
2025-01-11 08:07:55.15	41.97	19.45	
2025-01-11 08:07:55.36	41.92	19.45	
2025-01-11 08:07:55.56	41.87	19.45	
2025-01-11 08:07:55.77	41.82	19.45	
2025-01-11 08:07:55.97	41.77	19.45	
2025-01-11 08:07:56.18	41.72	19.45	
2025-01-11 08:07:56.38	41.67	19.45	
2025-01-11 08:07:56.59	41.62	19.45	
2025-01-11 08:07:56.79	41.57	19.45	
2025-01-11 08:07:57.00	41.52	19.45	
2025-01-11 08:07:57.20	41.47	19.45	
2025-01-11 08:07:57.41	41.42	19.45	
2025-01-11 08:07:57.61	41.37	19.45	
2025-01-11 08:07:57.82	41.32	19.45	
2025-01-11 08:07:58.02	41.27	19.45	
2025-01-11 08:07:58.23	41.22	19.45	
2025-01-11 08:07:58.44	41.17	19.45	
2025-01-11 08:07:58.64	41.12	19.45	
2025-01-11 08:07:58.85	41.07	19.46	
2025-01-11 08:07:59.05	41.02	19.46	
2025-01-11 08:07:59.27	40.96	19.46	
2025-01-11 08:07:59.47	40.91	19.46	
2025-01-11 08:07:59.68	40.86	19.46	
2025-01-11 08:07:59.89	40.81	19.46	
2025-01-11 08:08:00.09	40.76	19.46	
2025-01-11 08:08:00.29	40.71	19.46	
2025-01-11 08:08:00.50	40.66	19.46	
2025-01-11 08:08:00.70	40.61	19.46	
2025-01-11 08:08:00.91	40.56	19.46	
2025-01-11 08:08:01.11	40.51	19.46	
2025-01-11 08:08:01.32	40.46	19.46	
2025-01-11 08:08:01.52	40.41	19.46	
2025-01-11 08:08:01.73	40.36	19.46	
2025-01-11 08:08:01.93	40.31	19.46	
2025-01-11 08:08:02.14	40.26	19.46	
2025-01-11 08:08:02.34	40.21	19.46	
2025-01-11 08:08:02.55	40.16	19.46	
2025-01-11 08:08:02.75	40.11	19.46	
2025-01-11 08:08:02.96	40.06	19.46	
2025-01-11 08:08:03.16	40.01	19.46	
2025-01-11 08:08:03.37	39.96	19.46	
2025-01-11 08:08:03.57	39.91	19.46	
2025-01-11 08:08:03.78	39.86	19.46	
2025-01-11 08:08:03.98	39.81	19.46	
2025-01-11 08:08:04.19	39.76	19.46	
2025-01-11 08:08:04.39	39.71	19.45	
2025-01-11 08:08:04.60	39.66	19.45	
2025-01-11 08:08:04.80	39.61	19.45	
2025-01-11 08:08:05.01	39.56	19.45	
2025-01-11 08:08:05.21	39.51	19.45	
2025-01-11 08:08:05.42	39.46	19.45	
2025-01-11 08:08:05.62	39.41	19.45	
2025-01-11 08:08:05.83	39.35	19.45	
2025-01-11 08:08:06.03	39.31	19.45	
2025-01-11 08:08:06.24	39.25	19.45	
2025-01-11 08:08:06.44	39.21	19.45	
2025-01-11 08:08:06.65	39.15	19.45	
2025-01-11 08:08:06.85	39.10	19.45	
2025-01-11 08:08:07.06	39.05	19.45	
2025-01-11 08:08:07.26	39.00	19.45	
2025-01-11 08:08:07.47	38.95	19.45	
2025-01-11 08:08:07.67	38.90	19.45	
2025-01-11 08:08:07.88	38.85	19.45	
2025-01-11 08:08:08.08	38.80	19.44	
2025-01-11 08:08:08.29	38.75	19.44	
2025-01-11 08:08:08.49	38.70	19.44	
2025-01-11 08:08:08.70	38.65	19.44	
2025-01-11 08:08:08.90	38.60	19.44	
2025-01-11 08:08:09.11	38.55	19.44	
2025-01-11 08:08:09.31	38.50	19.44	
2025-01-11 08:08:09.52	38.45	19.44	
2025-01-11 08:08:09.73	38.40	19.44	
2025-01-11 08:08:09.93	38.35	19.44	
2025-01-11 08:08:10.13	38.30	19.44	
2025-01-11 08:08:10.34	38.25	19.44	
2025-01-11 08:08:10.54	38.20	19.43	
2025-01-11 08:08:10.75	38.15	19.43	
2025-01-11 08:08:10.95	38.10	19.43	
2025-01-11 08:08:11.16	38.05	19.43	
2025-01-11 08:08:11.36	38.00	19.43	
2025-01-11 08:08:11.57	37.95	19.43	
2025-01-11 08:08:11.78	37.90	19.43	
2025-01-11 08:08:11.99	37.85	19.43	
2025-01-11 08:08:12.19	37.80	19.43	
2025-01-11 08:08:12.40	37.75	19.42	
2025-01-11 08:08:12.60	37.70	19.42	
2025-01-11 08:08:12.81	37.64	19.42	
2025-01-11 08:08:13.02	37.59	19.42	
2025-01-11 08:08:13.22	37.54	19.42	
2025-01-11 08:08:13.43	37.49	19.42	
2025-01-11 08:08:13.63	37.44	19.42	
2025-01-11 08:08:13.84	37.39	19.41	
2025-01-11 08:08:14.05	37.34	19.41	
2025-01-11 08:08:14.26	37.29	19.41	
2025-01-11 08:08:14.47	37.24	19.41	
2025-01-11 08:08:14.68	37.19	19.41	
2025-01-11 08:08:14.88	37.14	19.41	
2025-01-11 08:08:15.09	37.09	19.41	
2025-01-11 08:08:15.29	37.04	19.40	
2025-01-11 08:08:15.50	36.99	19.40	
2025-01-11 08:08:15.70	36.94	19.40	
2025-01-11 08:08:15.91	36.89	19.40	
2025-01-11 08:08:16.11	36.84	19.40	
2025-01-11 08:08:16.32	36.79	19.40	
2025-01-11 08:08:16.52	36.74	19.39	
2025-01-11 08:08:16.73	36.69	19.39	
2025-01-11 08:08:16.93	36.64	19.39	
2025-01-11 08:08:17.14	36.59	19.39	
2025-01-11 08:08:17.34	36.54	19.39	
2025-01-11 08:08:17.55	36.49	19.39	
2025-01-11 08:08:17.75	36.44	19.38	
2025-01-11 08:08:17.96	36.39	19.38	
2025-01-11 08:08:18.16	36.34	19.38	
2025-01-11 08:08:18.37	36.29	19.38	
2025-01-11 08:08:18.57	36.24	19.38	
2025-01-11 08:08:18.78	36.19	19.37	
2025-01-11 08:08:18.99	36.14	19.37	
2025-01-11 08:08:19.19	36.09	19.37	
2025-01-11 08:08:19.40	36.04	19.37	
2025-01-11 08:08:19.60	35.99	19.37	
2025-01-11 08:08:19.81	35.94	19.36	
2025-01-11 08:08:20.01	35.89	19.36	
2025-01-11 08:08:20.21	35.84	19.36	
2025-01-11 08:08:20.42	35.79	19.36	
2025-01-11 08:08:20.62	35.74	19.36	
2025-01-11 08:08:20.83	35.69	19.35	
2025-01-11 08:08:21.03	35.64	19.35	
2025-01-11 08:08:21.24	35.59	19.35	
