passes_logs/2025/01/11/SPB_Silybum_02/SPB_Silybum_02__20250111_083640_TERRA_rec.log

#Pass ID: 20250111_083640_TERRA
#Satellite: TERRA
#Configuration: TERRA
#Start time: 2025-01-11 08:36:40

#Version: 2.0.20230423
#Station: SPB_Silybum_02
#Location: 30.233357 lon 59.946436 lat
#TLE: 1 25994U 99068A   25010.80464720  .00000833  00000+0  18136-3 0  9995
#TLE: 2 25994  98.0224  73.9683 0003536  80.9361 344.1935 14.60387279333461

#Time	Az	El	Level	Level2	SNR	BER	Gain	Gain2
2025-01-11 08:36:42.22	15.46	4.11	
2025-01-11 08:36:42.43	15.46	4.13	
2025-01-11 08:36:42.63	15.46	4.14	
2025-01-11 08:36:42.84	15.45	4.16	
2025-01-11 08:36:43.04	15.45	4.17	
2025-01-11 08:36:43.25	15.45	4.19	
2025-01-11 08:36:43.45	15.45	4.20	
2025-01-11 08:36:43.66	15.45	4.22	
2025-01-11 08:36:43.86	15.45	4.23	
2025-01-11 08:36:44.07	15.44	4.25	
2025-01-11 08:36:44.28	15.44	4.26	
2025-01-11 08:36:44.48	15.44	4.28	
2025-01-11 08:36:44.69	15.44	4.29	
2025-01-11 08:36:44.89	15.44	4.31	
2025-01-11 08:36:45.10	15.44	4.32	
2025-01-11 08:36:45.30	15.43	4.34	
2025-01-11 08:36:45.51	15.43	4.35	
2025-01-11 08:36:45.72	15.43	4.37	
2025-01-11 08:36:45.93	15.43	4.38	
2025-01-11 08:36:46.13	15.43	4.40	
2025-01-11 08:36:46.34	15.42	4.41	
2025-01-11 08:36:46.54	15.42	4.42	
2025-01-11 08:36:46.75	15.42	4.44	
2025-01-11 08:36:46.95	15.42	4.45	
2025-01-11 08:36:47.16	15.42	4.47	
2025-01-11 08:36:47.36	15.41	4.48	
2025-01-11 08:36:47.56	15.41	4.50	
2025-01-11 08:36:47.77	15.41	4.51	
2025-01-11 08:36:47.98	15.41	4.53	
2025-01-11 08:36:48.18	15.41	4.54	
2025-01-11 08:36:48.39	15.41	4.56	
2025-01-11 08:36:48.59	15.40	4.57	
2025-01-11 08:36:48.80	15.40	4.59	
2025-01-11 08:36:49.00	15.40	4.60	
2025-01-11 08:36:49.20	15.40	4.62	
2025-01-11 08:36:49.41	15.40	4.63	
2025-01-11 08:36:49.62	15.39	4.65	
2025-01-11 08:36:49.82	15.39	4.66	
2025-01-11 08:36:50.03	15.39	4.68	
2025-01-11 08:36:50.23	15.39	4.69	
2025-01-11 08:36:50.44	15.39	4.71	
2025-01-11 08:36:50.64	15.39	4.72	
2025-01-11 08:36:50.85	15.38	4.74	
2025-01-11 08:36:51.05	15.38	4.75	
2025-01-11 08:36:51.26	15.38	4.77	
2025-01-11 08:36:51.46	15.38	4.78	
2025-01-11 08:36:51.67	15.38	4.80	
2025-01-11 08:36:51.87	15.37	4.81	
2025-01-11 08:36:52.08	15.37	4.83	
2025-01-11 08:36:52.28	15.37	4.85	
2025-01-11 08:36:52.49	15.37	4.86	
2025-01-11 08:36:52.69	15.37	4.88	
2025-01-11 08:36:52.90	15.36	4.89	
2025-01-11 08:36:53.10	15.36	4.91	
2025-01-11 08:36:53.31	15.36	4.92	
2025-01-11 08:36:53.51	15.36	4.94	
2025-01-11 08:36:53.72	15.36	4.95	
2025-01-11 08:36:53.92	15.35	4.97	
2025-01-11 08:36:54.13	15.35	4.98	
2025-01-11 08:36:54.34	15.35	5.00	
2025-01-11 08:36:54.54	15.35	5.01	
2025-01-11 08:36:54.75	15.35	5.03	
2025-01-11 08:36:54.95	15.34	5.04	
2025-01-11 08:36:55.15	15.34	5.06	
2025-01-11 08:36:55.36	15.34	5.07	
2025-01-11 08:36:55.56	15.34	5.09	
2025-01-11 08:36:55.77	15.34	5.10	
2025-01-11 08:36:55.97	15.33	5.12	
2025-01-11 08:36:56.18	15.33	5.14	
2025-01-11 08:36:56.38	15.33	5.15	
2025-01-11 08:36:56.60	15.33	5.17	
2025-01-11 08:36:56.81	15.33	5.18	
2025-01-11 08:36:57.01	15.32	5.20	
2025-01-11 08:36:57.21	15.32	5.21	
2025-01-11 08:36:57.42	15.32	5.23	
2025-01-11 08:36:57.63	15.32	5.24	
2025-01-11 08:36:57.83	15.32	5.26	
2025-01-11 08:36:58.04	15.31	5.27	
2025-01-11 08:36:58.25	15.31	5.29	
2025-01-11 08:36:58.46	15.31	5.31	
2025-01-11 08:36:58.67	15.31	5.32	
2025-01-11 08:36:58.87	15.31	5.34	
2025-01-11 08:36:59.08	15.30	5.35	
2025-01-11 08:36:59.28	15.30	5.37	
2025-01-11 08:36:59.49	15.30	5.38	
2025-01-11 08:36:59.69	15.30	5.40	
2025-01-11 08:36:59.90	15.30	5.41	
2025-01-11 08:37:00.10	15.29	5.43	
2025-01-11 08:37:00.30	15.29	5.45	
2025-01-11 08:37:00.51	15.29	5.46	
2025-01-11 08:37:00.71	15.29	5.48	
2025-01-11 08:37:00.92	15.29	5.49	
2025-01-11 08:37:01.12	15.28	5.51	
2025-01-11 08:37:01.33	15.28	5.52	
2025-01-11 08:37:01.55	15.28	5.54	
2025-01-11 08:37:01.75	15.28	5.56	
2025-01-11 08:37:01.96	15.28	5.57	
2025-01-11 08:37:02.16	15.27	5.59	
2025-01-11 08:37:02.37	15.27	5.60	
2025-01-11 08:37:02.57	15.27	5.62	
2025-01-11 08:37:02.78	15.27	5.63	
2025-01-11 08:37:02.98	15.27	5.65	
2025-01-11 08:37:03.19	15.26	5.66	
2025-01-11 08:37:03.39	15.26	5.68	
2025-01-11 08:37:03.60	15.26	5.70	
2025-01-11 08:37:03.80	15.26	5.71	
2025-01-11 08:37:04.01	15.25	5.73	
2025-01-11 08:37:04.21	15.25	5.74	
2025-01-11 08:37:04.42	15.25	5.76	
2025-01-11 08:37:04.62	15.25	5.77	
2025-01-11 08:37:04.83	15.25	5.79	
2025-01-11 08:37:05.03	15.24	5.81	
2025-01-11 08:37:05.24	15.24	5.82	
2025-01-11 08:37:05.44	15.24	5.84	
2025-01-11 08:37:05.65	15.24	5.85	
2025-01-11 08:37:05.85	15.24	5.87	
2025-01-11 08:37:06.06	15.23	5.89	
2025-01-11 08:37:06.26	15.23	5.90	
2025-01-11 08:37:06.47	15.23	5.92	
2025-01-11 08:37:06.67	15.23	5.93	
2025-01-11 08:37:06.88	15.22	5.95	
2025-01-11 08:37:07.08	15.22	5.96	
2025-01-11 08:37:07.29	15.22	5.98	
2025-01-11 08:37:07.49	15.22	6.00	
2025-01-11 08:37:07.70	15.22	6.01	
2025-01-11 08:37:07.90	15.21	6.03	
2025-01-11 08:37:08.11	15.21	6.04	
2025-01-11 08:37:08.31	15.21	6.06	
2025-01-11 08:37:08.52	15.21	6.08	
2025-01-11 08:37:08.72	15.21	6.09	
2025-01-11 08:37:08.93	15.20	6.11	
2025-01-11 08:37:09.13	15.20	6.12	
2025-01-11 08:37:09.34	15.20	6.14	
2025-01-11 08:37:09.54	15.20	6.16	
2025-01-11 08:37:09.75	15.19	6.17	
2025-01-11 08:37:09.95	15.19	6.19	
2025-01-11 08:37:10.16	15.19	6.20	
2025-01-11 08:37:10.36	15.19	6.22	
2025-01-11 08:37:10.57	15.19	6.24	
2025-01-11 08:37:10.77	15.18	6.25	
2025-01-11 08:37:10.98	15.18	6.27	
2025-01-11 08:37:11.20	15.18	6.29	
2025-01-11 08:37:11.40	15.18	6.30	
2025-01-11 08:37:11.61	15.17	6.32	
2025-01-11 08:37:11.81	15.17	6.33	
2025-01-11 08:37:12.02	15.17	6.35	
2025-01-11 08:37:12.22	15.17	6.37	
2025-01-11 08:37:12.43	15.16	6.38	
2025-01-11 08:37:12.63	15.16	6.40	
2025-01-11 08:37:12.84	15.16	6.41	
2025-01-11 08:37:13.04	15.16	6.43	
2025-01-11 08:37:13.25	15.16	6.45	
2025-01-11 08:37:13.45	15.15	6.46	
2025-01-11 08:37:13.66	15.15	6.48	
2025-01-11 08:37:13.86	15.15	6.50	
2025-01-11 08:37:14.07	15.15	6.51	
2025-01-11 08:37:14.27	15.14	6.53	
2025-01-11 08:37:14.48	15.14	6.54	
2025-01-11 08:37:14.68	15.14	6.56	
2025-01-11 08:37:14.89	15.14	6.58	
2025-01-11 08:37:15.09	15.14	6.59	
2025-01-11 08:37:15.30	15.13	6.61	
2025-01-11 08:37:15.51	15.13	6.63	
2025-01-11 08:37:15.71	15.13	6.64	
2025-01-11 08:37:15.92	15.13	6.66	
2025-01-11 08:37:16.12	15.12	6.67	
2025-01-11 08:37:16.33	15.12	6.69	
2025-01-11 08:37:16.53	15.12	6.71	
2025-01-11 08:37:16.74	15.12	6.72	
2025-01-11 08:37:16.95	15.11	6.74	
2025-01-11 08:37:17.15	15.11	6.76	
2025-01-11 08:37:17.36	15.11	6.77	
2025-01-11 08:37:17.56	15.11	6.79	
2025-01-11 08:37:17.76	15.10	6.81	
2025-01-11 08:37:17.97	15.10	6.82	
2025-01-11 08:37:18.17	15.10	6.84	
2025-01-11 08:37:18.38	15.10	6.86	
2025-01-11 08:37:18.58	15.10	6.87	
2025-01-11 08:37:18.79	15.09	6.89	
2025-01-11 08:37:18.99	15.09	6.90	
2025-01-11 08:37:19.20	15.09	6.92	
2025-01-11 08:37:19.40	15.09	6.94	
2025-01-11 08:37:19.60	15.08	6.95	
2025-01-11 08:37:19.81	15.08	6.97	
2025-01-11 08:37:20.02	15.08	6.99	
2025-01-11 08:37:20.22	15.08	7.00	
2025-01-11 08:37:20.43	15.07	7.02	
2025-01-11 08:37:20.63	15.07	7.04	
2025-01-11 08:37:20.84	15.07	7.05	
2025-01-11 08:37:21.04	15.07	7.07	
2025-01-11 08:37:21.25	15.06	7.09	
2025-01-11 08:37:21.45	15.06	7.10	
2025-01-11 08:37:21.66	15.06	7.12	
2025-01-11 08:37:21.86	15.06	7.14	
2025-01-11 08:37:22.07	15.05	7.15	
2025-01-11 08:37:22.27	15.05	7.17	
2025-01-11 08:37:22.48	15.05	7.19	
2025-01-11 08:37:22.68	15.05	7.20	
2025-01-11 08:37:22.88	15.04	7.22	
2025-01-11 08:37:23.09	15.04	7.24	
2025-01-11 08:37:23.30	15.04	7.25	
2025-01-11 08:37:23.50	15.04	7.27	
2025-01-11 08:37:23.71	15.03	7.29	
2025-01-11 08:37:23.93	15.03	7.31	
2025-01-11 08:37:24.13	15.03	7.32	
2025-01-11 08:37:24.34	15.03	7.34	
2025-01-11 08:37:24.54	15.02	7.36	
2025-01-11 08:37:24.75	15.02	7.37	
2025-01-11 08:37:24.95	15.02	7.39	
2025-01-11 08:37:25.16	15.02	7.41	
2025-01-11 08:37:25.36	15.01	7.42	
2025-01-11 08:37:25.57	15.01	7.44	
2025-01-11 08:37:25.77	15.01	7.46	
2025-01-11 08:37:25.98	15.01	7.48	
2025-01-11 08:37:26.18	15.00	7.49	
2025-01-11 08:37:26.39	15.00	7.51	
2025-01-11 08:37:26.60	15.00	7.53	
2025-01-11 08:37:26.80	15.00	7.54	
2025-01-11 08:37:27.01	14.99	7.56	
2025-01-11 08:37:27.21	14.99	7.58	
2025-01-11 08:37:27.41	14.99	7.59	
2025-01-11 08:37:27.62	14.99	7.61	
2025-01-11 08:37:27.83	14.98	7.63	
2025-01-11 08:37:28.03	14.98	7.65	
2025-01-11 08:37:28.23	14.98	7.66	
2025-01-11 08:37:28.44	14.98	7.68	
2025-01-11 08:37:28.64	14.97	7.70	
2025-01-11 08:37:28.85	14.97	7.71	
2025-01-11 08:37:29.06	14.97	7.73	
2025-01-11 08:37:29.26	14.97	7.75	
2025-01-11 08:37:29.47	14.96	7.77	
2025-01-11 08:37:29.67	14.96	7.78	
2025-01-11 08:37:29.88	14.96	7.80	
2025-01-11 08:37:30.08	14.96	7.82	
2025-01-11 08:37:30.30	14.95	7.83	
2025-01-11 08:37:30.51	14.95	7.85	
2025-01-11 08:37:30.71	14.95	7.87	
2025-01-11 08:37:30.92	14.94	7.89	
2025-01-11 08:37:31.12	14.94	7.90	
2025-01-11 08:37:31.33	14.94	7.92	
2025-01-11 08:37:31.53	14.94	7.94	
2025-01-11 08:37:31.74	14.93	7.96	
2025-01-11 08:37:31.94	14.93	7.97	
2025-01-11 08:37:32.15	14.93	7.99	
2025-01-11 08:37:32.36	14.93	8.01	
2025-01-11 08:37:32.56	14.92	8.03	
2025-01-11 08:37:32.76	14.92	8.04	
2025-01-11 08:37:32.97	14.92	8.06	
2025-01-11 08:37:33.18	14.92	8.08	
2025-01-11 08:37:33.38	14.91	8.09	
2025-01-11 08:37:33.60	14.91	8.11	
2025-01-11 08:37:33.81	14.91	8.13	
2025-01-11 08:37:34.01	14.90	8.15	
2025-01-11 08:37:34.22	14.90	8.17	
2025-01-11 08:37:34.42	14.90	8.18	
2025-01-11 08:37:34.64	14.90	8.20	
2025-01-11 08:37:34.85	14.89	8.22	
2025-01-11 08:37:35.05	14.89	8.24	
2025-01-11 08:37:35.26	14.89	8.25	
2025-01-11 08:37:35.46	14.89	8.27	
2025-01-11 08:37:35.67	14.88	8.29	
2025-01-11 08:37:35.87	14.88	8.31	
2025-01-11 08:37:36.08	14.88	8.32	
2025-01-11 08:37:36.29	14.87	8.34	
2025-01-11 08:37:36.49	14.87	8.36	
2025-01-11 08:37:36.69	14.87	8.38	
2025-01-11 08:37:36.90	14.87	8.40	
2025-01-11 08:37:37.10	14.86	8.41	
2025-01-11 08:37:37.31	14.86	8.43	
2025-01-11 08:37:37.51	14.86	8.45	
2025-01-11 08:37:37.72	14.86	8.47	
2025-01-11 08:37:37.92	14.85	8.48	
2025-01-11 08:37:38.13	14.85	8.50	
2025-01-11 08:37:38.34	14.85	8.52	
2025-01-11 08:37:38.54	14.84	8.54	
2025-01-11 08:37:38.75	14.84	8.56	
2025-01-11 08:37:38.95	14.84	8.57	
2025-01-11 08:37:39.15	14.84	8.59	
2025-01-11 08:37:39.36	14.83	8.61	
2025-01-11 08:37:39.57	14.83	8.63	
2025-01-11 08:37:39.77	14.83	8.64	
2025-01-11 08:37:39.98	14.82	8.66	
2025-01-11 08:37:40.18	14.82	8.68	
2025-01-11 08:37:40.39	14.82	8.70	
2025-01-11 08:37:40.59	14.82	8.71	
2025-01-11 08:37:40.80	14.81	8.73	
2025-01-11 08:37:41.00	14.81	8.75	
2025-01-11 08:37:41.21	14.81	8.77	
2025-01-11 08:37:41.41	14.80	8.79	
2025-01-11 08:37:41.62	14.80	8.80	
2025-01-11 08:37:41.82	14.80	8.82	
2025-01-11 08:37:42.04	14.80	8.84	
2025-01-11 08:37:42.24	14.79	8.86	
2025-01-11 08:37:42.45	14.79	8.88	
2025-01-11 08:37:42.65	14.79	8.90	
2025-01-11 08:37:42.86	14.78	8.91	
2025-01-11 08:37:43.06	14.78	8.93	
2025-01-11 08:37:43.27	14.78	8.95	
2025-01-11 08:37:43.48	14.77	8.97	
2025-01-11 08:37:43.68	14.77	8.99	
2025-01-11 08:37:43.88	14.77	9.00	
2025-01-11 08:37:44.09	14.77	9.02	
2025-01-11 08:37:44.29	14.76	9.04	
2025-01-11 08:37:44.50	14.76	9.06	
2025-01-11 08:37:44.70	14.76	9.08	
2025-01-11 08:37:44.91	14.75	9.09	
2025-01-11 08:37:45.11	14.75	9.11	
2025-01-11 08:37:45.33	14.75	9.13	
2025-01-11 08:37:45.54	14.75	9.15	
2025-01-11 08:37:45.74	14.74	9.17	
2025-01-11 08:37:45.95	14.74	9.19	
2025-01-11 08:37:46.15	14.74	9.21	
2025-01-11 08:37:46.36	14.73	9.22	
2025-01-11 08:37:46.56	14.73	9.24	
2025-01-11 08:37:46.77	14.73	9.26	
2025-01-11 08:37:46.98	14.72	9.28	
2025-01-11 08:37:47.19	14.72	9.30	
2025-01-11 08:37:47.40	14.72	9.32	
2025-01-11 08:37:47.61	14.72	9.34	
2025-01-11 08:37:47.81	14.71	9.35	
2025-01-11 08:37:48.02	14.71	9.37	
2025-01-11 08:37:48.23	14.71	9.39	
2025-01-11 08:37:48.44	14.70	9.41	
2025-01-11 08:37:48.65	14.70	9.43	
2025-01-11 08:37:48.85	14.70	9.45	
2025-01-11 08:37:49.06	14.69	9.47	
2025-01-11 08:37:49.26	14.69	9.48	
2025-01-11 08:37:49.47	14.69	9.50	
2025-01-11 08:37:49.68	14.68	9.52	
2025-01-11 08:37:49.88	14.68	9.54	
2025-01-11 08:37:50.09	14.68	9.56	
2025-01-11 08:37:50.29	14.67	9.58	
2025-01-11 08:37:50.50	14.67	9.60	
2025-01-11 08:37:50.70	14.67	9.61	
2025-01-11 08:37:50.91	14.67	9.63	
2025-01-11 08:37:51.11	14.66	9.65	
2025-01-11 08:37:51.32	14.66	9.67	
2025-01-11 08:37:51.52	14.66	9.69	
2025-01-11 08:37:51.73	14.65	9.71	
2025-01-11 08:37:51.93	14.65	9.73	
2025-01-11 08:37:52.14	14.65	9.75	
2025-01-11 08:37:52.34	14.64	9.76	
2025-01-11 08:37:52.55	14.64	9.78	
2025-01-11 08:37:52.75	14.64	9.80	
2025-01-11 08:37:52.96	14.63	9.82	
2025-01-11 08:37:53.16	14.63	9.84	
2025-01-11 08:37:53.37	14.63	9.86	
2025-01-11 08:37:53.57	14.62	9.88	
2025-01-11 08:37:53.77	14.62	9.89	
2025-01-11 08:37:53.98	14.62	9.91	
2025-01-11 08:37:54.19	14.62	9.93	
2025-01-11 08:37:54.39	14.61	9.95	
2025-01-11 08:37:54.59	14.61	9.97	
2025-01-11 08:37:54.80	14.61	9.99	
2025-01-11 08:37:55.00	14.60	10.01	
2025-01-11 08:37:55.21	14.60	10.03	
2025-01-11 08:37:55.41	14.60	10.05	
2025-01-11 08:37:55.62	14.59	10.07	
2025-01-11 08:37:55.83	14.59	10.08	
2025-01-11 08:37:56.03	14.59	10.10	
2025-01-11 08:37:56.24	14.58	10.12	
2025-01-11 08:37:56.44	14.58	10.14	
2025-01-11 08:37:56.65	14.58	10.16	
2025-01-11 08:37:56.85	14.57	10.18	
2025-01-11 08:37:57.07	14.57	10.20	
2025-01-11 08:37:57.27	14.57	10.22	
2025-01-11 08:37:57.48	14.56	10.24	
2025-01-11 08:37:57.69	14.56	10.26	
2025-01-11 08:37:57.89	14.56	10.28	
2025-01-11 08:37:58.10	14.55	10.30	
2025-01-11 08:37:58.30	14.55	10.31	
2025-01-11 08:37:58.51	14.55	10.33	
2025-01-11 08:37:58.71	14.54	10.35	
2025-01-11 08:37:58.92	14.54	10.37	
2025-01-11 08:37:59.12	14.54	10.39	
2025-01-11 08:37:59.32	14.53	10.41	
2025-01-11 08:37:59.53	14.53	10.43	
2025-01-11 08:37:59.74	14.53	10.45	
2025-01-11 08:37:59.94	14.52	10.47	
2025-01-11 08:38:00.16	14.52	10.49	
2025-01-11 08:38:00.36	14.52	10.51	
2025-01-11 08:38:00.57	14.51	10.53	
2025-01-11 08:38:00.78	14.51	10.55	
2025-01-11 08:38:00.98	14.51	10.57	
2025-01-11 08:38:01.19	14.50	10.59	
2025-01-11 08:38:01.39	14.50	10.61	
2025-01-11 08:38:01.60	14.50	10.63	
2025-01-11 08:38:01.80	14.49	10.65	
2025-01-11 08:38:02.01	14.49	10.66	
2025-01-11 08:38:02.21	14.49	10.68	
2025-01-11 08:38:02.42	14.48	10.70	
2025-01-11 08:38:02.62	14.48	10.72	
2025-01-11 08:38:02.83	14.47	10.74	
2025-01-11 08:38:03.03	14.47	10.76	
2025-01-11 08:38:03.24	14.47	10.78	
2025-01-11 08:38:03.44	14.46	10.80	
2025-01-11 08:38:03.65	14.46	10.82	
2025-01-11 08:38:03.85	14.46	10.84	
2025-01-11 08:38:04.06	14.45	10.86	
2025-01-11 08:38:04.27	14.45	10.88	
2025-01-11 08:38:04.47	14.45	10.90	
2025-01-11 08:38:04.67	14.44	10.92	
2025-01-11 08:38:04.88	14.44	10.94	
2025-01-11 08:38:05.08	14.44	10.96	
2025-01-11 08:38:05.29	14.43	10.98	
2025-01-11 08:38:05.49	14.43	11.00	
2025-01-11 08:38:05.70	14.43	11.02	
2025-01-11 08:38:05.91	14.42	11.04	
2025-01-11 08:38:06.11	14.42	11.06	
2025-01-11 08:38:06.32	14.42	11.08	
2025-01-11 08:38:06.52	14.41	11.10	
2025-01-11 08:38:06.73	14.41	11.12	
2025-01-11 08:38:06.93	14.40	11.14	
2025-01-11 08:38:07.14	14.40	11.16	
2025-01-11 08:38:07.34	14.40	11.18	
2025-01-11 08:38:07.55	14.39	11.20	
2025-01-11 08:38:07.75	14.39	11.22	
2025-01-11 08:38:07.96	14.39	11.24	
2025-01-11 08:38:08.16	14.38	11.26	
2025-01-11 08:38:08.37	14.38	11.28	
2025-01-11 08:38:08.58	14.38	11.30	
2025-01-11 08:38:08.78	14.37	11.32	
2025-01-11 08:38:08.99	14.37	11.34	
2025-01-11 08:38:09.20	14.36	11.36	
2025-01-11 08:38:09.40	14.36	11.38	
2025-01-11 08:38:09.61	14.36	11.40	
2025-01-11 08:38:09.82	14.35	11.42	
2025-01-11 08:38:10.03	14.35	11.44	
2025-01-11 08:38:10.24	14.35	11.46	
2025-01-11 08:38:10.44	14.34	11.48	
2025-01-11 08:38:10.65	14.34	11.50	
2025-01-11 08:38:10.85	14.34	11.52	
2025-01-11 08:38:11.05	14.33	11.54	
2025-01-11 08:38:11.26	14.33	11.56	
2025-01-11 08:38:11.47	14.32	11.58	
2025-01-11 08:38:11.67	14.32	11.60	
2025-01-11 08:38:11.88	14.32	11.62	
2025-01-11 08:38:12.08	14.31	11.64	
2025-01-11 08:38:12.29	14.31	11.66	
2025-01-11 08:38:12.49	14.31	11.68	
2025-01-11 08:38:12.70	14.30	11.71	
2025-01-11 08:38:12.90	14.30	11.73	
2025-01-11 08:38:13.11	14.29	11.75	
2025-01-11 08:38:13.31	14.29	11.77	
2025-01-11 08:38:13.52	14.29	11.79	
2025-01-11 08:38:13.73	14.28	11.81	
2025-01-11 08:38:13.93	14.28	11.83	
2025-01-11 08:38:14.13	14.27	11.85	
2025-01-11 08:38:14.34	14.27	11.87	
2025-01-11 08:38:14.55	14.27	11.89	
2025-01-11 08:38:14.75	14.26	11.91	
2025-01-11 08:38:14.96	14.26	11.93	
2025-01-11 08:38:15.16	14.26	11.95	
2025-01-11 08:38:15.36	14.25	11.97	
2025-01-11 08:38:15.57	14.25	11.99	
2025-01-11 08:38:15.78	14.24	12.01	
2025-01-11 08:38:15.98	14.24	12.04	
2025-01-11 08:38:16.18	14.24	12.06	
2025-01-11 08:38:16.39	14.23	12.08	
2025-01-11 08:38:16.59	14.23	12.10	
2025-01-11 08:38:16.80	14.22	12.12	
2025-01-11 08:38:17.00	14.22	12.14	
2025-01-11 08:38:17.21	14.22	12.16	
2025-01-11 08:38:17.41	14.21	12.18	
2025-01-11 08:38:17.62	14.21	12.20	
2025-01-11 08:38:17.83	14.21	12.22	
2025-01-11 08:38:18.03	14.20	12.24	
2025-01-11 08:38:18.23	14.20	12.26	
2025-01-11 08:38:18.44	14.19	12.29	
2025-01-11 08:38:18.64	14.19	12.31	
2025-01-11 08:38:18.85	14.19	12.33	
2025-01-11 08:38:19.05	14.18	12.35	
2025-01-11 08:38:19.26	14.18	12.37	
2025-01-11 08:38:19.46	14.17	12.39	
2025-01-11 08:38:19.67	14.17	12.41	
2025-01-11 08:38:19.88	14.17	12.43	
2025-01-11 08:38:20.08	14.16	12.45	
2025-01-11 08:38:20.29	14.16	12.48	
2025-01-11 08:38:20.49	14.15	12.50	
2025-01-11 08:38:20.70	14.15	12.52	
2025-01-11 08:38:20.91	14.14	12.54	
2025-01-11 08:38:21.11	14.14	12.56	
2025-01-11 08:38:21.32	14.14	12.58	
2025-01-11 08:38:21.52	14.13	12.60	
2025-01-11 08:38:21.73	14.13	12.62	
2025-01-11 08:38:21.93	14.12	12.65	
2025-01-11 08:38:22.14	14.12	12.67	
2025-01-11 08:38:22.35	14.12	12.69	
2025-01-11 08:38:22.55	14.11	12.71	
2025-01-11 08:38:22.75	14.11	12.73	
2025-01-11 08:38:22.96	14.10	12.75	
2025-01-11 08:38:23.16	14.10	12.77	
2025-01-11 08:38:23.37	14.10	12.80	
2025-01-11 08:38:23.57	14.09	12.82	
2025-01-11 08:38:23.77	14.09	12.84	
2025-01-11 08:38:23.98	14.08	12.86	
2025-01-11 08:38:24.19	14.08	12.88	
2025-01-11 08:38:24.39	14.08	12.90	
2025-01-11 08:38:24.60	14.07	12.92	
2025-01-11 08:38:24.80	14.07	12.95	
2025-01-11 08:38:25.01	14.06	12.97	
2025-01-11 08:38:25.21	14.06	12.99	
2025-01-11 08:38:25.42	14.05	13.01	
2025-01-11 08:38:25.62	14.05	13.03	
2025-01-11 08:38:25.82	14.05	13.05	
2025-01-11 08:38:26.03	14.04	13.08	
2025-01-11 08:38:26.24	14.04	13.10	
2025-01-11 08:38:26.44	14.03	13.12	
2025-01-11 08:38:26.65	14.03	13.14	
2025-01-11 08:38:26.85	14.02	13.16	
2025-01-11 08:38:27.05	14.02	13.18	
2025-01-11 08:38:27.26	14.02	13.21	
2025-01-11 08:38:27.46	14.01	13.23	
2025-01-11 08:38:27.67	14.01	13.25	
2025-01-11 08:38:27.87	14.00	13.27	
2025-01-11 08:38:28.08	14.00	13.29	
2025-01-11 08:38:28.29	13.99	13.32	
2025-01-11 08:38:28.49	13.99	13.34	
2025-01-11 08:38:28.70	13.99	13.36	
2025-01-11 08:38:28.90	13.98	13.38	
2025-01-11 08:38:29.11	13.98	13.40	
2025-01-11 08:38:29.31	13.97	13.43	
2025-01-11 08:38:29.52	13.97	13.45	
2025-01-11 08:38:29.72	13.96	13.47	
2025-01-11 08:38:29.93	13.96	13.49	
2025-01-11 08:38:30.13	13.95	13.51	
2025-01-11 08:38:30.34	13.95	13.54	
2025-01-11 08:38:30.54	13.95	13.56	
2025-01-11 08:38:30.75	13.94	13.58	
2025-01-11 08:38:30.95	13.94	13.60	
2025-01-11 08:38:31.16	13.93	13.63	
2025-01-11 08:38:31.36	13.93	13.65	
2025-01-11 08:38:31.57	13.92	13.67	
2025-01-11 08:38:31.77	13.92	13.69	
2025-01-11 08:38:31.98	13.91	13.72	
2025-01-11 08:38:32.18	13.91	13.74	
2025-01-11 08:38:32.39	13.91	13.76	
2025-01-11 08:38:32.60	13.90	13.78	
2025-01-11 08:38:32.80	13.90	13.81	
2025-01-11 08:38:33.01	13.89	13.83	
2025-01-11 08:38:33.21	13.89	13.85	
2025-01-11 08:38:33.41	13.88	13.87	
2025-01-11 08:38:33.62	13.88	13.90	
2025-01-11 08:38:33.82	13.87	13.92	
2025-01-11 08:38:34.03	13.87	13.94	
2025-01-11 08:38:34.24	13.86	13.96	
2025-01-11 08:38:34.44	13.86	13.99	
2025-01-11 08:38:34.65	13.86	14.01	
2025-01-11 08:38:34.85	13.85	14.03	
2025-01-11 08:38:35.06	13.85	14.05	
2025-01-11 08:38:35.26	13.84	14.08	
2025-01-11 08:38:35.47	13.84	14.10	
2025-01-11 08:38:35.67	13.83	14.12	
2025-01-11 08:38:35.88	13.83	14.15	
2025-01-11 08:38:36.08	13.82	14.17	
2025-01-11 08:38:36.29	13.82	14.19	
2025-01-11 08:38:36.49	13.81	14.21	
2025-01-11 08:38:36.70	13.81	14.24	
2025-01-11 08:38:36.90	13.80	14.26	
2025-01-11 08:38:37.11	13.80	14.28	
2025-01-11 08:38:37.32	13.79	14.31	
2025-01-11 08:38:37.52	13.79	14.33	
2025-01-11 08:38:37.72	13.79	14.35	
2025-01-11 08:38:37.93	13.78	14.37	
2025-01-11 08:38:38.13	13.78	14.40	
2025-01-11 08:38:38.34	13.77	14.42	
2025-01-11 08:38:38.54	13.77	14.44	
2025-01-11 08:38:38.75	13.76	14.47	
2025-01-11 08:38:38.95	13.76	14.49	
2025-01-11 08:38:39.16	13.75	14.51	
2025-01-11 08:38:39.37	13.75	14.54	
2025-01-11 08:38:39.57	13.74	14.56	
2025-01-11 08:38:39.79	13.74	14.58	
2025-01-11 08:38:40.00	13.73	14.61	
2025-01-11 08:38:40.20	13.73	14.63	
2025-01-11 08:38:40.41	13.72	14.66	
2025-01-11 08:38:40.61	13.72	14.68	
2025-01-11 08:38:40.81	13.71	14.70	
2025-01-11 08:38:41.02	13.71	14.72	
2025-01-11 08:38:41.23	13.70	14.75	
2025-01-11 08:38:41.43	13.70	14.77	
2025-01-11 08:38:41.64	13.69	14.80	
2025-01-11 08:38:41.84	13.69	14.82	
2025-01-11 08:38:42.04	13.68	14.84	
2025-01-11 08:38:42.25	13.68	14.87	
2025-01-11 08:38:42.45	13.67	14.89	
2025-01-11 08:38:42.66	13.67	14.91	
2025-01-11 08:38:42.87	13.66	14.94	
2025-01-11 08:38:43.07	13.66	14.96	
2025-01-11 08:38:43.27	13.65	14.98	
2025-01-11 08:38:43.48	13.65	15.01	
2025-01-11 08:38:43.69	13.64	15.03	
2025-01-11 08:38:43.89	13.64	15.06	
2025-01-11 08:38:44.11	13.63	15.08	
2025-01-11 08:38:44.32	13.63	15.11	
2025-01-11 08:38:44.52	13.62	15.13	
2025-01-11 08:38:44.73	13.62	15.15	
2025-01-11 08:38:44.93	13.61	15.18	
2025-01-11 08:38:45.13	13.61	15.20	
2025-01-11 08:38:45.34	13.60	15.22	
2025-01-11 08:38:45.54	13.60	15.25	
2025-01-11 08:38:45.75	13.59	15.27	
2025-01-11 08:38:45.95	13.59	15.30	
2025-01-11 08:38:46.16	13.58	15.32	
2025-01-11 08:38:46.36	13.58	15.34	
2025-01-11 08:38:46.57	13.57	15.37	
2025-01-11 08:38:46.77	13.57	15.39	
2025-01-11 08:38:46.98	13.56	15.42	
2025-01-11 08:38:47.18	13.56	15.44	
2025-01-11 08:38:47.39	13.55	15.46	
2025-01-11 08:38:47.59	13.55	15.49	
2025-01-11 08:38:47.80	13.54	15.51	
2025-01-11 08:38:48.01	13.54	15.54	
2025-01-11 08:38:48.21	13.53	15.56	
2025-01-11 08:38:48.42	13.53	15.59	
2025-01-11 08:38:48.62	13.52	15.61	
2025-01-11 08:38:48.83	13.51	15.64	
2025-01-11 08:38:49.03	13.51	15.66	
2025-01-11 08:38:49.24	13.50	15.68	
2025-01-11 08:38:49.45	13.50	15.71	
2025-01-11 08:38:49.65	13.49	15.73	
2025-01-11 08:38:49.85	13.49	15.76	
2025-01-11 08:38:50.06	13.48	15.78	
2025-01-11 08:38:50.26	13.48	15.81	
2025-01-11 08:38:50.47	13.47	15.83	
2025-01-11 08:38:50.67	13.47	15.86	
2025-01-11 08:38:50.88	13.46	15.88	
2025-01-11 08:38:51.09	13.46	15.91	
2025-01-11 08:38:51.29	13.45	15.93	
2025-01-11 08:38:51.50	13.45	15.96	
2025-01-11 08:38:51.70	13.44	15.98	
2025-01-11 08:38:51.91	13.43	16.00	
2025-01-11 08:38:52.11	13.43	16.03	
2025-01-11 08:38:52.32	13.42	16.05	
2025-01-11 08:38:52.52	13.42	16.08	
2025-01-11 08:38:52.73	13.41	16.10	
2025-01-11 08:38:52.93	13.41	16.13	
2025-01-11 08:38:53.14	13.40	16.15	
2025-01-11 08:38:53.34	13.40	16.18	
2025-01-11 08:38:53.55	13.39	16.20	
2025-01-11 08:38:53.75	13.39	16.23	
2025-01-11 08:38:53.96	13.38	16.25	
2025-01-11 08:38:54.16	13.37	16.28	
2025-01-11 08:38:54.36	13.37	16.30	
2025-01-11 08:38:54.57	13.36	16.33	
2025-01-11 08:38:54.77	13.36	16.35	
2025-01-11 08:38:54.98	13.35	16.38	
2025-01-11 08:38:55.18	13.35	16.40	
2025-01-11 08:38:55.39	13.34	16.43	
2025-01-11 08:38:55.59	13.34	16.45	
2025-01-11 08:38:55.81	13.33	16.48	
2025-01-11 08:38:56.02	13.32	16.51	
2025-01-11 08:38:56.22	13.32	16.53	
2025-01-11 08:38:56.43	13.31	16.56	
2025-01-11 08:38:56.63	13.31	16.58	
2025-01-11 08:38:56.83	13.30	16.61	
2025-01-11 08:38:57.04	13.29	16.63	
2025-01-11 08:38:57.24	13.29	16.66	
2025-01-11 08:38:57.45	13.28	16.69	
2025-01-11 08:38:57.65	13.28	16.71	
2025-01-11 08:38:57.86	13.27	16.74	
2025-01-11 08:38:58.06	13.27	16.76	
2025-01-11 08:38:58.27	13.26	16.79	
2025-01-11 08:38:58.47	13.25	16.81	
2025-01-11 08:38:58.68	13.25	16.84	
2025-01-11 08:38:58.88	13.24	16.86	
2025-01-11 08:38:59.09	13.24	16.89	
2025-01-11 08:38:59.29	13.23	16.92	
2025-01-11 08:38:59.50	13.23	16.94	
2025-01-11 08:38:59.71	13.22	16.97	
2025-01-11 08:38:59.91	13.21	16.99	
2025-01-11 08:39:00.13	13.21	17.02	
2025-01-11 08:39:00.33	13.20	17.05	
2025-01-11 08:39:00.54	13.20	17.07	
2025-01-11 08:39:00.75	13.19	17.10	
2025-01-11 08:39:00.95	13.18	17.13	
2025-01-11 08:39:01.17	13.18	17.15	
2025-01-11 08:39:01.37	13.17	17.18	
2025-01-11 08:39:01.58	13.17	17.21	
2025-01-11 08:39:01.78	13.16	17.23	
2025-01-11 08:39:01.99	13.15	17.26	
2025-01-11 08:39:02.19	13.15	17.28	
2025-01-11 08:39:02.40	13.14	17.31	
2025-01-11 08:39:02.60	13.14	17.34	
2025-01-11 08:39:02.81	13.13	17.36	
2025-01-11 08:39:03.01	13.12	17.39	
2025-01-11 08:39:03.22	13.12	17.42	
2025-01-11 08:39:03.42	13.11	17.44	
2025-01-11 08:39:03.63	13.10	17.47	
2025-01-11 08:39:03.83	13.10	17.50	
2025-01-11 08:39:04.04	13.09	17.52	
2025-01-11 08:39:04.24	13.09	17.55	
2025-01-11 08:39:04.45	13.08	17.58	
2025-01-11 08:39:04.65	13.07	17.60	
2025-01-11 08:39:04.86	13.07	17.63	
2025-01-11 08:39:05.06	13.06	17.65	
2025-01-11 08:39:05.27	13.06	17.68	
2025-01-11 08:39:05.47	13.05	17.71	
2025-01-11 08:39:05.68	13.04	17.74	
2025-01-11 08:39:05.88	13.04	17.76	
2025-01-11 08:39:06.09	13.03	17.79	
2025-01-11 08:39:06.29	13.02	17.82	
2025-01-11 08:39:06.51	13.02	17.84	
2025-01-11 08:39:06.72	13.01	17.87	
2025-01-11 08:39:06.92	13.01	17.90	
2025-01-11 08:39:07.13	13.00	17.93	
2025-01-11 08:39:07.33	12.99	17.95	
2025-01-11 08:39:07.54	12.99	17.98	
2025-01-11 08:39:07.74	12.98	18.01	
2025-01-11 08:39:07.95	12.97	18.03	
2025-01-11 08:39:08.15	12.97	18.06	
2025-01-11 08:39:08.36	12.96	18.09	
2025-01-11 08:39:08.58	12.95	18.12	
2025-01-11 08:39:08.78	12.95	18.14	
2025-01-11 08:39:08.99	12.94	18.17	
2025-01-11 08:39:09.19	12.93	18.20	
2025-01-11 08:39:09.40	12.93	18.23	
2025-01-11 08:39:09.60	12.92	18.25	
2025-01-11 08:39:09.81	12.91	18.28	
2025-01-11 08:39:10.02	12.91	18.31	
2025-01-11 08:39:10.22	12.90	18.34	
2025-01-11 08:39:10.43	12.89	18.37	
2025-01-11 08:39:10.63	12.89	18.39	
2025-01-11 08:39:10.84	12.88	18.42	
2025-01-11 08:39:11.04	12.88	18.45	
2025-01-11 08:39:11.25	12.87	18.48	
2025-01-11 08:39:11.46	12.86	18.50	
2025-01-11 08:39:11.66	12.86	18.53	
2025-01-11 08:39:11.87	12.85	18.56	
2025-01-11 08:39:12.08	12.84	18.59	
2025-01-11 08:39:12.28	12.84	18.62	
2025-01-11 08:39:12.49	12.83	18.64	
2025-01-11 08:39:12.69	12.82	18.67	
2025-01-11 08:39:12.91	12.81	18.70	
2025-01-11 08:39:13.11	12.81	18.73	
2025-01-11 08:39:13.32	12.80	18.76	
2025-01-11 08:39:13.52	12.79	18.78	
2025-01-11 08:39:13.73	12.79	18.81	
2025-01-11 08:39:13.95	12.78	18.84	
2025-01-11 08:39:14.15	12.77	18.87	
2025-01-11 08:39:14.36	12.77	18.90	
2025-01-11 08:39:14.56	12.76	18.93	
2025-01-11 08:39:14.77	12.75	18.96	
2025-01-11 08:39:14.97	12.75	18.98	
2025-01-11 08:39:15.18	12.74	19.01	
2025-01-11 08:39:15.38	12.73	19.04	
2025-01-11 08:39:15.59	12.73	19.07	
2025-01-11 08:39:15.79	12.72	19.10	
2025-01-11 08:39:16.00	12.71	19.13	
2025-01-11 08:39:16.20	12.70	19.15	
2025-01-11 08:39:16.41	12.70	19.18	
2025-01-11 08:39:16.61	12.69	19.21	
2025-01-11 08:39:16.82	12.68	19.24	
2025-01-11 08:39:17.02	12.68	19.27	
2025-01-11 08:39:17.23	12.67	19.30	
2025-01-11 08:39:17.43	12.66	19.33	
2025-01-11 08:39:17.64	12.66	19.35	
2025-01-11 08:39:17.84	12.65	19.38	
2025-01-11 08:39:18.05	12.64	19.41	
2025-01-11 08:39:18.27	12.63	19.44	
2025-01-11 08:39:18.47	12.63	19.47	
2025-01-11 08:39:18.68	12.62	19.50	
2025-01-11 08:39:18.89	12.61	19.53	
2025-01-11 08:39:19.09	12.60	19.56	
2025-01-11 08:39:19.30	12.60	19.59	
2025-01-11 08:39:19.50	12.59	19.62	
2025-01-11 08:39:19.70	12.58	19.65	
2025-01-11 08:39:19.91	12.58	19.68	
2025-01-11 08:39:20.12	12.57	19.71	
2025-01-11 08:39:20.32	12.56	19.73	
2025-01-11 08:39:20.53	12.55	19.76	
2025-01-11 08:39:20.73	12.55	19.79	
2025-01-11 08:39:20.94	12.54	19.82	
2025-01-11 08:39:21.14	12.53	19.85	
2025-01-11 08:39:21.34	12.52	19.88	
2025-01-11 08:39:21.55	12.52	19.91	
2025-01-11 08:39:21.76	12.51	19.94	
2025-01-11 08:39:21.96	12.50	19.97	
2025-01-11 08:39:22.17	12.49	20.00	
2025-01-11 08:39:22.38	12.49	20.03	
2025-01-11 08:39:22.59	12.48	20.06	
2025-01-11 08:39:22.80	12.47	20.09	
2025-01-11 08:39:23.00	12.46	20.12	
2025-01-11 08:39:23.21	12.46	20.15	
2025-01-11 08:39:23.41	12.45	20.18	
2025-01-11 08:39:23.62	12.44	20.21	
2025-01-11 08:39:23.82	12.43	20.24	
2025-01-11 08:39:24.03	12.43	20.27	
2025-01-11 08:39:24.24	12.42	20.30	
2025-01-11 08:39:24.44	12.41	20.33	
2025-01-11 08:39:24.64	12.40	20.36	
2025-01-11 08:39:24.85	12.40	20.39	
2025-01-11 08:39:25.05	12.39	20.42	
2025-01-11 08:39:25.26	12.38	20.45	
2025-01-11 08:39:25.46	12.37	20.48	
2025-01-11 08:39:25.67	12.37	20.51	
2025-01-11 08:39:25.87	12.36	20.54	
2025-01-11 08:39:26.08	12.35	20.57	
2025-01-11 08:39:26.28	12.34	20.60	
2025-01-11 08:39:26.49	12.33	20.63	
2025-01-11 08:39:26.71	12.33	20.66	
2025-01-11 08:39:26.91	12.32	20.69	
2025-01-11 08:39:27.12	12.31	20.72	
2025-01-11 08:39:27.32	12.30	20.75	
2025-01-11 08:39:27.53	12.29	20.79	
2025-01-11 08:39:27.73	12.29	20.82	
2025-01-11 08:39:27.94	12.28	20.85	
2025-01-11 08:39:28.14	12.27	20.88	
2025-01-11 08:39:28.35	12.26	20.91	
2025-01-11 08:39:28.55	12.26	20.94	
2025-01-11 08:39:28.76	12.25	20.97	
2025-01-11 08:39:28.96	12.24	21.00	
2025-01-11 08:39:29.17	12.23	21.03	
2025-01-11 08:39:29.37	12.22	21.06	
2025-01-11 08:39:29.58	12.21	21.09	
2025-01-11 08:39:29.79	12.21	21.13	
2025-01-11 08:39:29.99	12.20	21.16	
2025-01-11 08:39:30.19	12.19	21.19	
2025-01-11 08:39:30.40	12.18	21.22	
2025-01-11 08:39:30.61	12.17	21.25	
2025-01-11 08:39:30.81	12.17	21.28	
2025-01-11 08:39:31.01	12.16	21.31	
2025-01-11 08:39:31.22	12.15	21.34	
2025-01-11 08:39:31.42	12.14	21.37	
2025-01-11 08:39:31.63	12.13	21.41	
2025-01-11 08:39:31.83	12.12	21.44	
2025-01-11 08:39:32.04	12.12	21.47	
2025-01-11 08:39:32.25	12.11	21.50	
2025-01-11 08:39:32.45	12.10	21.53	
2025-01-11 08:39:32.66	12.09	21.56	
2025-01-11 08:39:32.86	12.08	21.60	
2025-01-11 08:39:33.07	12.07	21.63	
2025-01-11 08:39:33.27	12.07	21.66	
2025-01-11 08:39:33.48	12.06	21.69	
2025-01-11 08:39:33.69	12.05	21.72	
2025-01-11 08:39:33.89	12.04	21.75	
2025-01-11 08:39:34.10	12.03	21.79	
2025-01-11 08:39:34.30	12.02	21.82	
2025-01-11 08:39:34.51	12.01	21.85	
2025-01-11 08:39:34.71	12.01	21.88	
2025-01-11 08:39:34.92	12.00	21.92	
2025-01-11 08:39:35.12	11.99	21.95	
2025-01-11 08:39:35.33	11.98	21.98	
2025-01-11 08:39:35.53	11.97	22.01	
2025-01-11 08:39:35.74	11.96	22.04	
2025-01-11 08:39:35.94	11.95	22.08	
2025-01-11 08:39:36.15	11.95	22.11	
2025-01-11 08:39:36.36	11.94	22.14	
2025-01-11 08:39:36.56	11.93	22.17	
2025-01-11 08:39:36.77	11.92	22.21	
2025-01-11 08:39:36.97	11.91	22.24	
2025-01-11 08:39:37.18	11.90	22.27	
2025-01-11 08:39:37.38	11.89	22.30	
2025-01-11 08:39:37.58	11.88	22.34	
2025-01-11 08:39:37.79	11.88	22.37	
2025-01-11 08:39:38.00	11.87	22.40	
2025-01-11 08:39:38.20	11.86	22.43	
2025-01-11 08:39:38.41	11.85	22.47	
2025-01-11 08:39:38.61	11.84	22.50	
2025-01-11 08:39:38.82	11.83	22.53	
2025-01-11 08:39:39.02	11.82	22.57	
2025-01-11 08:39:39.23	11.81	22.60	
2025-01-11 08:39:39.43	11.80	22.63	
2025-01-11 08:39:39.64	11.79	22.67	
2025-01-11 08:39:39.84	11.79	22.70	
2025-01-11 08:39:40.05	11.78	22.73	
2025-01-11 08:39:40.25	11.77	22.77	
2025-01-11 08:39:40.46	11.76	22.80	
2025-01-11 08:39:40.66	11.75	22.83	
2025-01-11 08:39:40.87	11.74	22.87	
2025-01-11 08:39:41.07	11.73	22.90	
2025-01-11 08:39:41.28	11.72	22.93	
2025-01-11 08:39:41.48	11.71	22.97	
2025-01-11 08:39:41.69	11.70	23.00	
2025-01-11 08:39:41.89	11.69	23.03	
2025-01-11 08:39:42.10	11.68	23.07	
2025-01-11 08:39:42.30	11.67	23.10	
2025-01-11 08:39:42.51	11.67	23.13	
2025-01-11 08:39:42.71	11.66	23.17	
2025-01-11 08:39:42.92	11.65	23.20	
2025-01-11 08:39:43.13	11.64	23.24	
2025-01-11 08:39:43.33	11.63	23.27	
2025-01-11 08:39:43.54	11.62	23.31	
2025-01-11 08:39:43.74	11.61	23.34	
2025-01-11 08:39:43.95	11.60	23.37	
2025-01-11 08:39:44.15	11.59	23.41	
2025-01-11 08:39:44.36	11.58	23.44	
2025-01-11 08:39:44.57	11.57	23.48	
2025-01-11 08:39:44.77	11.56	23.51	
2025-01-11 08:39:44.98	11.55	23.55	
2025-01-11 08:39:45.18	11.54	23.58	
2025-01-11 08:39:45.39	11.53	23.61	
2025-01-11 08:39:45.59	11.52	23.65	
2025-01-11 08:39:45.80	11.51	23.68	
2025-01-11 08:39:46.00	11.50	23.72	
2025-01-11 08:39:46.21	11.49	23.75	
2025-01-11 08:39:46.41	11.48	23.79	
2025-01-11 08:39:46.62	11.47	23.82	
2025-01-11 08:39:46.82	11.46	23.86	
2025-01-11 08:39:47.03	11.45	23.89	
2025-01-11 08:39:47.24	11.44	23.93	
2025-01-11 08:39:47.44	11.43	23.96	
2025-01-11 08:39:47.65	11.42	24.00	
2025-01-11 08:39:47.85	11.41	24.03	
2025-01-11 08:39:48.06	11.40	24.07	
2025-01-11 08:39:48.26	11.39	24.10	
2025-01-11 08:39:48.47	11.38	24.14	
2025-01-11 08:39:48.67	11.37	24.17	
2025-01-11 08:39:48.88	11.36	24.21	
2025-01-11 08:39:49.08	11.35	24.24	
2025-01-11 08:39:49.29	11.34	24.28	
2025-01-11 08:39:49.49	11.33	24.31	
2025-01-11 08:39:49.70	11.32	24.35	
2025-01-11 08:39:49.90	11.31	24.38	
2025-01-11 08:39:50.10	11.30	24.42	
2025-01-11 08:39:50.32	11.29	24.46	
2025-01-11 08:39:50.53	11.28	24.49	
2025-01-11 08:39:50.73	11.27	24.53	
2025-01-11 08:39:50.94	11.26	24.57	
2025-01-11 08:39:51.14	11.25	24.60	
2025-01-11 08:39:51.35	11.24	24.64	
2025-01-11 08:39:51.55	11.23	24.67	
2025-01-11 08:39:51.76	11.22	24.71	
2025-01-11 08:39:51.97	11.21	24.75	
2025-01-11 08:39:52.17	11.20	24.78	
2025-01-11 08:39:52.39	11.18	24.82	
2025-01-11 08:39:52.59	11.17	24.86	
2025-01-11 08:39:52.80	11.16	24.89	
2025-01-11 08:39:53.00	11.15	24.93	
2025-01-11 08:39:53.21	11.14	24.96	
2025-01-11 08:39:53.41	11.13	25.00	
2025-01-11 08:39:53.62	11.12	25.04	
2025-01-11 08:39:53.82	11.11	25.07	
2025-01-11 08:39:54.03	11.10	25.11	
2025-01-11 08:39:54.23	11.09	25.15	
2025-01-11 08:39:54.44	11.08	25.18	
2025-01-11 08:39:54.64	11.07	25.22	
2025-01-11 08:39:54.85	11.06	25.26	
2025-01-11 08:39:55.05	11.05	25.29	
2025-01-11 08:39:55.26	11.03	25.33	
2025-01-11 08:39:55.46	11.02	25.37	
2025-01-11 08:39:55.67	11.01	25.41	
2025-01-11 08:39:55.87	11.00	25.44	
2025-01-11 08:39:56.08	10.99	25.48	
2025-01-11 08:39:56.28	10.98	25.52	
2025-01-11 08:39:56.49	10.97	25.55	
2025-01-11 08:39:56.69	10.96	25.59	
2025-01-11 08:39:56.90	10.95	25.63	
2025-01-11 08:39:57.11	10.93	25.67	
2025-01-11 08:39:57.31	10.92	25.70	
2025-01-11 08:39:57.52	10.91	25.74	
2025-01-11 08:39:57.72	10.90	25.78	
2025-01-11 08:39:57.93	10.89	25.82	
2025-01-11 08:39:58.13	10.88	25.85	
2025-01-11 08:39:58.34	10.87	25.89	
2025-01-11 08:39:58.54	10.85	25.93	
2025-01-11 08:39:58.75	10.84	25.97	
2025-01-11 08:39:58.95	10.83	26.01	
2025-01-11 08:39:59.16	10.82	26.04	
2025-01-11 08:39:59.36	10.81	26.08	
2025-01-11 08:39:59.57	10.80	26.12	
2025-01-11 08:39:59.77	10.79	26.16	
2025-01-11 08:39:59.98	10.77	26.20	
2025-01-11 08:40:00.18	10.76	26.23	
2025-01-11 08:40:00.38	10.75	26.27	
2025-01-11 08:40:00.59	10.74	26.31	
2025-01-11 08:40:00.79	10.73	26.35	
2025-01-11 08:40:01.00	10.71	26.39	
2025-01-11 08:40:01.20	10.70	26.43	
2025-01-11 08:40:01.41	10.69	26.46	
2025-01-11 08:40:01.61	10.68	26.50	
2025-01-11 08:40:01.82	10.67	26.54	
2025-01-11 08:40:02.03	10.65	26.58	
2025-01-11 08:40:02.23	10.64	26.62	
2025-01-11 08:40:02.44	10.63	26.66	
2025-01-11 08:40:02.65	10.62	26.70	
2025-01-11 08:40:02.85	10.61	26.74	
2025-01-11 08:40:03.05	10.59	26.78	
2025-01-11 08:40:03.26	10.58	26.82	
2025-01-11 08:40:03.47	10.57	26.86	
2025-01-11 08:40:03.67	10.56	26.89	
2025-01-11 08:40:03.88	10.55	26.93	
2025-01-11 08:40:04.08	10.53	26.97	
2025-01-11 08:40:04.29	10.52	27.01	
2025-01-11 08:40:04.49	10.51	27.05	
2025-01-11 08:40:04.70	10.50	27.09	
2025-01-11 08:40:04.90	10.48	27.13	
2025-01-11 08:40:05.11	10.47	27.17	
2025-01-11 08:40:05.31	10.46	27.21	
2025-01-11 08:40:05.52	10.45	27.25	
2025-01-11 08:40:05.72	10.43	27.29	
2025-01-11 08:40:05.93	10.42	27.33	
2025-01-11 08:40:06.13	10.41	27.37	
2025-01-11 08:40:06.34	10.40	27.41	
2025-01-11 08:40:06.55	10.38	27.45	
2025-01-11 08:40:06.75	10.37	27.49	
2025-01-11 08:40:06.96	10.36	27.53	
2025-01-11 08:40:07.16	10.34	27.57	
2025-01-11 08:40:07.37	10.33	27.61	
2025-01-11 08:40:07.57	10.32	27.65	
2025-01-11 08:40:07.78	10.31	27.69	
2025-01-11 08:40:07.98	10.29	27.73	
2025-01-11 08:40:08.19	10.28	27.77	
2025-01-11 08:40:08.39	10.27	27.81	
2025-01-11 08:40:08.60	10.25	27.86	
2025-01-11 08:40:08.80	10.24	27.90	
2025-01-11 08:40:09.01	10.23	27.94	
2025-01-11 08:40:09.21	10.21	27.98	
2025-01-11 08:40:09.43	10.20	28.02	
2025-01-11 08:40:09.64	10.19	28.06	
2025-01-11 08:40:09.84	10.17	28.10	
2025-01-11 08:40:10.05	10.16	28.15	
2025-01-11 08:40:10.25	10.15	28.19	
2025-01-11 08:40:10.46	10.13	28.23	
2025-01-11 08:40:10.66	10.12	28.27	
2025-01-11 08:40:10.87	10.11	28.31	
2025-01-11 08:40:11.08	10.09	28.35	
2025-01-11 08:40:11.28	10.08	28.39	
2025-01-11 08:40:11.48	10.07	28.44	
2025-01-11 08:40:11.69	10.05	28.48	
2025-01-11 08:40:11.90	10.04	28.52	
2025-01-11 08:40:12.10	10.02	28.56	
2025-01-11 08:40:12.31	10.01	28.60	
2025-01-11 08:40:12.51	10.00	28.65	
2025-01-11 08:40:12.71	9.98	28.69	
2025-01-11 08:40:12.92	9.97	28.73	
2025-01-11 08:40:13.12	9.96	28.77	
2025-01-11 08:40:13.33	9.94	28.81	
2025-01-11 08:40:13.54	9.93	28.86	
2025-01-11 08:40:13.74	9.91	28.90	
2025-01-11 08:40:13.95	9.90	28.94	
2025-01-11 08:40:14.15	9.89	28.98	
2025-01-11 08:40:14.36	9.87	29.03	
2025-01-11 08:40:14.56	9.86	29.07	
2025-01-11 08:40:14.78	9.84	29.11	
2025-01-11 08:40:14.99	9.83	29.16	
2025-01-11 08:40:15.19	9.81	29.20	
2025-01-11 08:40:15.40	9.80	29.24	
2025-01-11 08:40:15.61	9.78	29.29	
2025-01-11 08:40:15.81	9.77	29.33	
2025-01-11 08:40:16.02	9.75	29.37	
2025-01-11 08:40:16.22	9.74	29.42	
2025-01-11 08:40:16.43	9.73	29.46	
2025-01-11 08:40:16.63	9.71	29.50	
2025-01-11 08:40:16.84	9.70	29.55	
2025-01-11 08:40:17.04	9.68	29.59	
2025-01-11 08:40:17.24	9.67	29.63	
2025-01-11 08:40:17.45	9.65	29.68	
2025-01-11 08:40:17.65	9.64	29.72	
2025-01-11 08:40:17.86	9.62	29.76	
2025-01-11 08:40:18.06	9.61	29.81	
2025-01-11 08:40:18.27	9.59	29.85	
2025-01-11 08:40:18.47	9.58	29.89	
2025-01-11 08:40:18.68	9.56	29.94	
2025-01-11 08:40:18.89	9.55	29.98	
2025-01-11 08:40:19.09	9.53	30.03	
2025-01-11 08:40:19.30	9.52	30.07	
2025-01-11 08:40:19.50	9.50	30.12	
2025-01-11 08:40:19.70	9.49	30.16	
2025-01-11 08:40:19.91	9.47	30.21	
2025-01-11 08:40:20.11	9.46	30.25	
2025-01-11 08:40:20.32	9.44	30.29	
2025-01-11 08:40:20.52	9.43	30.34	
2025-01-11 08:40:20.73	9.41	30.38	
2025-01-11 08:40:20.93	9.39	30.43	
2025-01-11 08:40:21.14	9.38	30.47	
2025-01-11 08:40:21.34	9.36	30.52	
2025-01-11 08:40:21.55	9.35	30.56	
2025-01-11 08:40:21.75	9.33	30.61	
2025-01-11 08:40:21.96	9.32	30.65	
2025-01-11 08:40:22.16	9.30	30.70	
2025-01-11 08:40:22.37	9.28	30.74	
2025-01-11 08:40:22.58	9.27	30.79	
2025-01-11 08:40:22.78	9.25	30.83	
2025-01-11 08:40:22.99	9.24	30.88	
2025-01-11 08:40:23.19	9.22	30.93	
2025-01-11 08:40:23.40	9.20	30.97	
2025-01-11 08:40:23.60	9.19	31.02	
2025-01-11 08:40:23.80	9.17	31.06	
2025-01-11 08:40:24.01	9.16	31.11	
2025-01-11 08:40:24.21	9.14	31.15	
2025-01-11 08:40:24.41	9.12	31.20	
2025-01-11 08:40:24.62	9.11	31.25	
2025-01-11 08:40:24.82	9.09	31.29	
2025-01-11 08:40:25.03	9.07	31.34	
2025-01-11 08:40:25.23	9.06	31.38	
2025-01-11 08:40:25.44	9.04	31.43	
2025-01-11 08:40:25.64	9.02	31.48	
2025-01-11 08:40:25.85	9.01	31.52	
2025-01-11 08:40:26.05	8.99	31.57	
2025-01-11 08:40:26.26	8.97	31.62	
2025-01-11 08:40:26.46	8.96	31.66	
2025-01-11 08:40:26.67	8.94	31.71	
2025-01-11 08:40:26.87	8.92	31.76	
2025-01-11 08:40:27.08	8.91	31.81	
2025-01-11 08:40:27.28	8.89	31.85	
2025-01-11 08:40:27.49	8.87	31.90	
2025-01-11 08:40:27.69	8.85	31.95	
2025-01-11 08:40:27.90	8.84	31.99	
2025-01-11 08:40:28.11	8.82	32.04	
2025-01-11 08:40:28.31	8.80	32.09	
2025-01-11 08:40:28.52	8.78	32.14	
2025-01-11 08:40:28.72	8.77	32.18	
2025-01-11 08:40:28.93	8.75	32.23	
2025-01-11 08:40:29.13	8.73	32.28	
2025-01-11 08:40:29.33	8.71	32.33	
2025-01-11 08:40:29.54	8.70	32.38	
2025-01-11 08:40:29.74	8.68	32.42	
2025-01-11 08:40:29.95	8.66	32.47	
2025-01-11 08:40:30.16	8.64	32.52	
2025-01-11 08:40:30.36	8.63	32.57	
2025-01-11 08:40:30.57	8.61	32.62	
2025-01-11 08:40:30.77	8.59	32.67	
2025-01-11 08:40:30.98	8.57	32.72	
2025-01-11 08:40:31.18	8.55	32.76	
2025-01-11 08:40:31.39	8.53	32.81	
2025-01-11 08:40:31.59	8.52	32.86	
2025-01-11 08:40:31.79	8.50	32.91	
2025-01-11 08:40:32.00	8.48	32.96	
2025-01-11 08:40:32.21	8.46	33.01	
2025-01-11 08:40:32.41	8.44	33.06	
2025-01-11 08:40:32.62	8.42	33.11	
2025-01-11 08:40:32.83	8.40	33.16	
2025-01-11 08:40:33.04	8.39	33.21	
2025-01-11 08:40:33.24	8.37	33.26	
2025-01-11 08:40:33.45	8.35	33.31	
2025-01-11 08:40:33.65	8.33	33.35	
2025-01-11 08:40:33.86	8.31	33.41	
2025-01-11 08:40:34.06	8.29	33.45	
2025-01-11 08:40:34.27	8.27	33.50	
2025-01-11 08:40:34.47	8.25	33.55	
2025-01-11 08:40:34.68	8.23	33.60	
2025-01-11 08:40:34.89	8.21	33.66	
2025-01-11 08:40:35.09	8.20	33.71	
2025-01-11 08:40:35.30	8.18	33.76	
2025-01-11 08:40:35.50	8.16	33.81	
2025-01-11 08:40:35.71	8.14	33.86	
2025-01-11 08:40:35.91	8.12	33.91	
2025-01-11 08:40:36.12	8.10	33.96	
2025-01-11 08:40:36.32	8.08	34.01	
2025-01-11 08:40:36.53	8.06	34.06	
2025-01-11 08:40:36.73	8.04	34.11	
2025-01-11 08:40:36.94	8.02	34.16	
2025-01-11 08:40:37.14	8.00	34.21	
2025-01-11 08:40:37.35	7.98	34.26	
2025-01-11 08:40:37.55	7.96	34.31	
2025-01-11 08:40:37.76	7.94	34.37	
2025-01-11 08:40:37.97	7.92	34.42	
2025-01-11 08:40:38.17	7.90	34.47	
2025-01-11 08:40:38.38	7.88	34.52	
2025-01-11 08:40:38.58	7.86	34.57	
2025-01-11 08:40:38.79	7.84	34.63	
2025-01-11 08:40:38.99	7.82	34.68	
2025-01-11 08:40:39.20	7.79	34.73	
2025-01-11 08:40:39.40	7.77	34.78	
2025-01-11 08:40:39.61	7.75	34.83	
2025-01-11 08:40:39.81	7.73	34.88	
2025-01-11 08:40:40.02	7.71	34.94	
2025-01-11 08:40:40.23	7.69	34.99	
2025-01-11 08:40:40.45	7.67	35.05	
2025-01-11 08:40:40.65	7.65	35.10	
2025-01-11 08:40:40.86	7.62	35.15	
2025-01-11 08:40:41.06	7.60	35.20	
2025-01-11 08:40:41.27	7.58	35.26	
2025-01-11 08:40:41.47	7.56	35.31	
2025-01-11 08:40:41.68	7.54	35.36	
2025-01-11 08:40:41.88	7.52	35.42	
2025-01-11 08:40:42.09	7.50	35.47	
2025-01-11 08:40:42.29	7.47	35.52	
2025-01-11 08:40:42.50	7.45	35.58	
2025-01-11 08:40:42.70	7.43	35.63	
2025-01-11 08:40:42.91	7.41	35.68	
2025-01-11 08:40:43.11	7.39	35.74	
2025-01-11 08:40:43.32	7.36	35.79	
2025-01-11 08:40:43.52	7.34	35.84	
2025-01-11 08:40:43.73	7.32	35.90	
2025-01-11 08:40:43.93	7.30	35.95	
2025-01-11 08:40:44.14	7.27	36.01	
2025-01-11 08:40:44.34	7.25	36.06	
2025-01-11 08:40:44.55	7.23	36.11	
2025-01-11 08:40:44.75	7.21	36.17	
2025-01-11 08:40:44.96	7.18	36.22	
2025-01-11 08:40:45.17	7.16	36.28	
2025-01-11 08:40:45.37	7.14	36.33	
2025-01-11 08:40:45.58	7.11	36.39	
2025-01-11 08:40:45.78	7.09	36.44	
2025-01-11 08:40:45.98	7.07	36.49	
2025-01-11 08:40:46.19	7.05	36.55	
2025-01-11 08:40:46.39	7.02	36.60	
2025-01-11 08:40:46.60	7.00	36.66	
2025-01-11 08:40:46.80	6.98	36.72	
2025-01-11 08:40:47.01	6.95	36.77	
2025-01-11 08:40:47.21	6.93	36.83	
2025-01-11 08:40:47.41	6.91	36.88	
2025-01-11 08:40:47.62	6.88	36.94	
2025-01-11 08:40:47.82	6.86	36.99	
2025-01-11 08:40:48.03	6.83	37.05	
2025-01-11 08:40:48.23	6.81	37.10	
2025-01-11 08:40:48.44	6.79	37.16	
2025-01-11 08:40:48.64	6.76	37.22	
2025-01-11 08:40:48.85	6.74	37.27	
2025-01-11 08:40:49.05	6.71	37.33	
2025-01-11 08:40:49.26	6.69	37.39	
2025-01-11 08:40:49.46	6.66	37.44	
2025-01-11 08:40:49.67	6.64	37.50	
2025-01-11 08:40:49.87	6.61	37.55	
2025-01-11 08:40:50.08	6.59	37.61	
2025-01-11 08:40:50.29	6.56	37.67	
2025-01-11 08:40:50.49	6.54	37.73	
2025-01-11 08:40:50.70	6.51	37.78	
2025-01-11 08:40:50.90	6.49	37.84	
2025-01-11 08:40:51.11	6.46	37.90	
2025-01-11 08:40:51.31	6.44	37.95	
2025-01-11 08:40:51.52	6.41	38.01	
2025-01-11 08:40:51.72	6.39	38.07	
2025-01-11 08:40:51.93	6.36	38.13	
2025-01-11 08:40:52.13	6.33	38.18	
2025-01-11 08:40:52.34	6.31	38.24	
2025-01-11 08:40:52.54	6.28	38.30	
2025-01-11 08:40:52.75	6.26	38.36	
2025-01-11 08:40:52.96	6.23	38.42	
2025-01-11 08:40:53.16	6.20	38.48	
2025-01-11 08:40:53.36	6.18	38.53	
2025-01-11 08:40:53.57	6.15	38.59	
2025-01-11 08:40:53.77	6.12	38.65	
2025-01-11 08:40:53.98	6.10	38.71	
2025-01-11 08:40:54.18	6.07	38.77	
2025-01-11 08:40:54.39	6.04	38.83	
2025-01-11 08:40:54.59	6.02	38.89	
2025-01-11 08:40:54.80	5.99	38.95	
2025-01-11 08:40:55.00	5.96	39.00	
2025-01-11 08:40:55.20	5.94	39.06	
2025-01-11 08:40:55.41	5.91	39.12	
2025-01-11 08:40:55.62	5.88	39.18	
2025-01-11 08:40:55.82	5.85	39.24	
2025-01-11 08:40:56.03	5.82	39.30	
2025-01-11 08:40:56.23	5.80	39.36	
2025-01-11 08:40:56.45	5.77	39.42	
2025-01-11 08:40:56.65	5.74	39.48	
2025-01-11 08:40:56.86	5.71	39.54	
2025-01-11 08:40:57.06	5.68	39.60	
2025-01-11 08:40:57.27	5.65	39.66	
2025-01-11 08:40:57.47	5.63	39.72	
2025-01-11 08:40:57.68	5.60	39.79	
2025-01-11 08:40:57.88	5.57	39.84	
2025-01-11 08:40:58.09	5.54	39.91	
2025-01-11 08:40:58.29	5.51	39.97	
2025-01-11 08:40:58.51	5.48	40.03	
2025-01-11 08:40:58.72	5.45	40.09	
2025-01-11 08:40:58.92	5.42	40.15	
2025-01-11 08:40:59.13	5.39	40.22	
2025-01-11 08:40:59.33	5.36	40.28	
2025-01-11 08:40:59.54	5.33	40.34	
2025-01-11 08:40:59.74	5.30	40.40	
2025-01-11 08:40:59.95	5.27	40.46	
2025-01-11 08:41:00.17	5.24	40.53	
2025-01-11 08:41:00.37	5.21	40.59	
2025-01-11 08:41:00.58	5.18	40.65	
2025-01-11 08:41:00.78	5.15	40.71	
2025-01-11 08:41:00.99	5.12	40.78	
2025-01-11 08:41:01.20	5.09	40.84	
2025-01-11 08:41:01.40	5.06	40.90	
2025-01-11 08:41:01.60	5.03	40.96	
2025-01-11 08:41:01.81	5.00	41.02	
2025-01-11 08:41:02.01	4.96	41.09	
2025-01-11 08:41:02.22	4.93	41.15	
2025-01-11 08:41:02.42	4.90	41.21	
2025-01-11 08:41:02.63	4.87	41.28	
2025-01-11 08:41:02.83	4.84	41.34	
2025-01-11 08:41:03.04	4.81	41.40	
2025-01-11 08:41:03.24	4.78	41.46	
2025-01-11 08:41:03.45	4.74	41.53	
2025-01-11 08:41:03.65	4.71	41.59	
2025-01-11 08:41:03.86	4.68	41.66	
2025-01-11 08:41:04.06	4.65	41.72	
2025-01-11 08:41:04.27	4.61	41.78	
2025-01-11 08:41:04.48	4.58	41.85	
2025-01-11 08:41:04.68	4.55	41.91	
2025-01-11 08:41:04.89	4.51	41.98	
2025-01-11 08:41:05.09	4.48	42.04	
2025-01-11 08:41:05.30	4.45	42.10	
2025-01-11 08:41:05.50	4.42	42.17	
2025-01-11 08:41:05.70	4.38	42.23	
2025-01-11 08:41:05.91	4.35	42.30	
2025-01-11 08:41:06.11	4.31	42.36	
2025-01-11 08:41:06.32	4.28	42.43	
2025-01-11 08:41:06.52	4.25	42.49	
2025-01-11 08:41:06.73	4.21	42.56	
2025-01-11 08:41:06.93	4.18	42.62	
2025-01-11 08:41:07.14	4.14	42.69	
2025-01-11 08:41:07.34	4.11	42.75	
2025-01-11 08:41:07.55	4.07	42.82	
2025-01-11 08:41:07.75	4.04	42.88	
2025-01-11 08:41:07.96	4.00	42.95	
2025-01-11 08:41:08.16	3.97	43.01	
2025-01-11 08:41:08.37	3.93	43.08	
2025-01-11 08:41:08.57	3.90	43.15	
2025-01-11 08:41:08.78	3.86	43.21	
2025-01-11 08:41:08.98	3.83	43.28	
2025-01-11 08:41:09.19	3.79	43.35	
2025-01-11 08:41:09.39	3.75	43.41	
2025-01-11 08:41:09.60	3.72	43.48	
2025-01-11 08:41:09.80	3.68	43.54	
2025-01-11 08:41:10.01	3.64	43.61	
2025-01-11 08:41:10.21	3.61	43.68	
2025-01-11 08:41:10.42	3.57	43.75	
2025-01-11 08:41:10.62	3.53	43.81	
2025-01-11 08:41:10.83	3.50	43.88	
2025-01-11 08:41:11.04	3.46	43.95	
2025-01-11 08:41:11.24	3.42	44.02	
2025-01-11 08:41:11.44	3.38	44.08	
2025-01-11 08:41:11.65	3.35	44.15	
2025-01-11 08:41:11.86	3.31	44.22	
2025-01-11 08:41:12.06	3.27	44.29	
2025-01-11 08:41:12.28	3.23	44.36	
2025-01-11 08:41:12.48	3.19	44.43	
2025-01-11 08:41:12.69	3.15	44.50	
2025-01-11 08:41:12.89	3.11	44.56	
2025-01-11 08:41:13.10	3.07	44.63	
2025-01-11 08:41:13.30	3.03	44.70	
2025-01-11 08:41:13.50	3.00	44.77	
2025-01-11 08:41:13.71	2.95	44.84	
2025-01-11 08:41:13.92	2.91	44.91	
2025-01-11 08:41:14.12	2.87	44.97	
2025-01-11 08:41:14.33	2.83	45.05	
2025-01-11 08:41:14.53	2.79	45.11	
2025-01-11 08:41:14.74	2.75	45.18	
2025-01-11 08:41:14.94	2.71	45.25	
2025-01-11 08:41:15.15	2.67	45.32	
2025-01-11 08:41:15.35	2.63	45.39	
2025-01-11 08:41:15.55	2.59	45.46	
2025-01-11 08:41:15.76	2.55	45.53	
2025-01-11 08:41:15.97	2.51	45.60	
2025-01-11 08:41:16.17	2.46	45.67	
2025-01-11 08:41:16.38	2.42	45.74	
2025-01-11 08:41:16.58	2.38	45.81	
2025-01-11 08:41:16.78	2.34	45.88	
2025-01-11 08:41:16.99	2.30	45.95	
2025-01-11 08:41:17.20	2.25	46.02	
2025-01-11 08:41:17.40	2.21	46.09	
2025-01-11 08:41:17.61	2.16	46.17	
2025-01-11 08:41:17.81	2.12	46.24	
2025-01-11 08:41:18.02	2.08	46.31	
2025-01-11 08:41:18.22	2.03	46.38	
2025-01-11 08:41:18.43	1.99	46.45	
2025-01-11 08:41:18.63	1.95	46.52	
2025-01-11 08:41:18.84	1.90	46.59	
2025-01-11 08:41:19.04	1.86	46.66	
2025-01-11 08:41:19.25	1.81	46.74	
2025-01-11 08:41:19.45	1.77	46.81	
2025-01-11 08:41:19.66	1.72	46.88	
2025-01-11 08:41:19.86	1.68	46.95	
2025-01-11 08:41:20.07	1.63	47.03	
2025-01-11 08:41:20.28	1.58	47.10	
2025-01-11 08:41:20.48	1.54	47.17	
2025-01-11 08:41:20.68	1.49	47.24	
2025-01-11 08:41:20.89	1.44	47.32	
2025-01-11 08:41:21.09	1.40	47.39	
2025-01-11 08:41:21.30	1.35	47.46	
2025-01-11 08:41:21.50	1.30	47.53	
2025-01-11 08:41:21.71	1.26	47.61	
2025-01-11 08:41:21.91	1.21	47.68	
2025-01-11 08:41:22.12	1.16	47.75	
2025-01-11 08:41:22.32	1.11	47.83	
2025-01-11 08:41:22.53	1.06	47.90	
2025-01-11 08:41:22.74	1.01	47.98	
2025-01-11 08:41:22.94	0.97	48.05	
2025-01-11 08:41:23.14	0.92	48.12	
2025-01-11 08:41:23.36	0.86	48.20	
2025-01-11 08:41:23.57	0.81	48.28	
2025-01-11 08:41:23.77	0.76	48.35	
2025-01-11 08:41:23.98	0.71	48.42	
2025-01-11 08:41:24.18	0.66	48.50	
2025-01-11 08:41:24.39	0.61	48.57	
2025-01-11 08:41:24.59	0.56	48.65	
2025-01-11 08:41:24.80	0.51	48.72	
2025-01-11 08:41:25.00	0.46	48.79	
2025-01-11 08:41:25.20	0.41	48.87	
2025-01-11 08:41:25.41	0.36	48.94	
2025-01-11 08:41:25.62	0.30	49.02	
2025-01-11 08:41:25.82	0.25	49.10	
2025-01-11 08:41:26.03	0.20	49.17	
2025-01-11 08:41:26.23	0.15	49.25	
2025-01-11 08:41:26.44	0.09	49.32	
2025-01-11 08:41:26.64	0.04	49.40	
2025-01-11 08:41:26.85	359.98	49.48	
2025-01-11 08:41:27.05	359.93	49.55	
2025-01-11 08:41:27.25	359.88	49.62	
2025-01-11 08:41:27.46	359.82	49.70	
2025-01-11 08:41:27.66	359.77	49.78	
2025-01-11 08:41:27.87	359.71	49.85	
2025-01-11 08:41:28.07	359.66	49.93	
2025-01-11 08:41:28.28	359.60	50.01	
2025-01-11 08:41:28.48	359.55	50.08	
2025-01-11 08:41:28.69	359.49	50.16	
2025-01-11 08:41:28.90	359.43	50.24	
2025-01-11 08:41:29.10	359.37	50.31	
2025-01-11 08:41:29.30	359.32	50.39	
2025-01-11 08:41:29.51	359.26	50.47	
2025-01-11 08:41:29.72	359.20	50.55	
2025-01-11 08:41:29.92	359.14	50.62	
2025-01-11 08:41:30.13	359.08	50.70	
2025-01-11 08:41:30.33	359.03	50.78	
2025-01-11 08:41:30.54	358.97	50.86	
2025-01-11 08:41:30.74	358.91	50.93	
2025-01-11 08:41:30.95	358.85	51.01	
2025-01-11 08:41:31.16	358.79	51.09	
2025-01-11 08:41:31.36	358.73	51.17	
2025-01-11 08:41:31.57	358.66	51.25	
2025-01-11 08:41:31.77	358.60	51.33	
2025-01-11 08:41:31.98	358.54	51.41	
2025-01-11 08:41:32.18	358.48	51.48	
2025-01-11 08:41:32.39	358.42	51.56	
2025-01-11 08:41:32.59	358.36	51.64	
2025-01-11 08:41:32.80	358.29	51.72	
2025-01-11 08:41:33.00	358.23	51.80	
2025-01-11 08:41:33.21	358.17	51.88	
2025-01-11 08:41:33.41	358.10	51.96	
2025-01-11 08:41:33.62	358.04	52.04	
2025-01-11 08:41:33.82	357.98	52.11	
2025-01-11 08:41:34.03	357.91	52.20	
2025-01-11 08:41:34.23	357.85	52.27	
2025-01-11 08:41:34.44	357.78	52.36	
2025-01-11 08:41:34.66	357.71	52.44	
2025-01-11 08:41:34.86	357.64	52.52	
2025-01-11 08:41:35.07	357.58	52.60	
2025-01-11 08:41:35.27	357.51	52.68	
2025-01-11 08:41:35.48	357.44	52.76	
2025-01-11 08:41:35.68	357.38	52.84	
2025-01-11 08:41:35.88	357.31	52.92	
2025-01-11 08:41:36.09	357.24	53.00	
2025-01-11 08:41:36.29	357.17	53.08	
2025-01-11 08:41:36.50	357.10	53.16	
2025-01-11 08:41:36.70	357.03	53.24	
2025-01-11 08:41:36.91	356.96	53.32	
2025-01-11 08:41:37.11	356.89	53.40	
2025-01-11 08:41:37.32	356.82	53.48	
2025-01-11 08:41:37.52	356.75	53.56	
2025-01-11 08:41:37.73	356.68	53.65	
2025-01-11 08:41:37.93	356.61	53.72	
2025-01-11 08:41:38.13	356.54	53.80	
2025-01-11 08:41:38.34	356.46	53.89	
2025-01-11 08:41:38.54	356.39	53.97	
2025-01-11 08:41:38.75	356.31	54.05	
2025-01-11 08:41:38.95	356.24	54.13	
2025-01-11 08:41:39.17	356.16	54.22	
2025-01-11 08:41:39.38	356.09	54.30	
2025-01-11 08:41:39.58	356.01	54.38	
2025-01-11 08:41:39.79	355.93	54.47	
2025-01-11 08:41:40.01	355.85	54.55	
2025-01-11 08:41:40.21	355.78	54.63	
2025-01-11 08:41:40.42	355.70	54.72	
2025-01-11 08:41:40.62	355.62	54.80	
2025-01-11 08:41:40.83	355.54	54.88	
2025-01-11 08:41:41.03	355.47	54.96	
2025-01-11 08:41:41.24	355.38	55.05	
2025-01-11 08:41:41.45	355.30	55.13	
2025-01-11 08:41:41.65	355.22	55.21	
2025-01-11 08:41:41.86	355.14	55.30	
2025-01-11 08:41:42.06	355.06	55.38	
2025-01-11 08:41:42.27	354.98	55.46	
2025-01-11 08:41:42.47	354.90	55.54	
2025-01-11 08:41:42.68	354.82	55.63	
2025-01-11 08:41:42.88	354.73	55.71	
2025-01-11 08:41:43.08	354.65	55.79	
2025-01-11 08:41:43.29	354.57	55.88	
2025-01-11 08:41:43.49	354.48	55.96	
2025-01-11 08:41:43.70	354.40	56.04	
2025-01-11 08:41:43.90	354.31	56.13	
2025-01-11 08:41:44.11	354.23	56.21	
2025-01-11 08:41:44.31	354.14	56.29	
2025-01-11 08:41:44.52	354.05	56.38	
2025-01-11 08:41:44.72	353.97	56.46	
2025-01-11 08:41:44.93	353.88	56.55	
2025-01-11 08:41:45.14	353.79	56.63	
2025-01-11 08:41:45.35	353.69	56.72	
2025-01-11 08:41:45.57	353.60	56.81	
2025-01-11 08:41:45.77	353.51	56.89	
2025-01-11 08:41:45.98	353.42	56.98	
2025-01-11 08:41:46.18	353.33	57.06	
2025-01-11 08:41:46.38	353.24	57.14	
2025-01-11 08:41:46.59	353.14	57.23	
2025-01-11 08:41:46.79	353.05	57.31	
2025-01-11 08:41:47.00	352.95	57.40	
2025-01-11 08:41:47.22	352.85	57.49	
2025-01-11 08:41:47.42	352.76	57.57	
2025-01-11 08:41:47.63	352.66	57.66	
2025-01-11 08:41:47.83	352.57	57.74	
2025-01-11 08:41:48.04	352.47	57.83	
2025-01-11 08:41:48.24	352.37	57.91	
2025-01-11 08:41:48.45	352.27	58.00	
2025-01-11 08:41:48.65	352.18	58.08	
2025-01-11 08:41:48.86	352.07	58.17	
2025-01-11 08:41:49.06	351.98	58.25	
2025-01-11 08:41:49.27	351.87	58.34	
2025-01-11 08:41:49.47	351.77	58.42	
2025-01-11 08:41:49.68	351.67	58.51	
2025-01-11 08:41:49.88	351.57	58.59	
2025-01-11 08:41:50.09	351.46	58.68	
2025-01-11 08:41:50.30	351.36	58.76	
2025-01-11 08:41:50.50	351.25	58.85	
2025-01-11 08:41:50.72	351.14	58.94	
2025-01-11 08:41:50.92	351.04	59.02	
2025-01-11 08:41:51.13	350.93	59.11	
2025-01-11 08:41:51.33	350.82	59.19	
2025-01-11 08:41:51.54	350.71	59.28	
2025-01-11 08:41:51.74	350.61	59.36	
2025-01-11 08:41:51.95	350.49	59.45	
2025-01-11 08:41:52.15	350.39	59.53	
2025-01-11 08:41:52.36	350.27	59.62	
2025-01-11 08:41:52.56	350.16	59.71	
2025-01-11 08:41:52.76	350.05	59.79	
2025-01-11 08:41:52.97	349.94	59.88	
2025-01-11 08:41:53.17	349.82	59.96	
2025-01-11 08:41:53.38	349.71	60.05	
2025-01-11 08:41:53.58	349.59	60.13	
2025-01-11 08:41:53.79	349.47	60.22	
2025-01-11 08:41:53.99	349.36	60.30	
2025-01-11 08:41:54.19	349.24	60.39	
2025-01-11 08:41:54.40	349.12	60.47	
2025-01-11 08:41:54.61	349.00	60.56	
2025-01-11 08:41:54.81	348.88	60.65	
2025-01-11 08:41:55.03	348.75	60.74	
2025-01-11 08:41:55.23	348.63	60.82	
2025-01-11 08:41:55.44	348.51	60.91	
2025-01-11 08:41:55.64	348.38	60.99	
2025-01-11 08:41:55.85	348.26	61.08	
2025-01-11 08:41:56.06	348.13	61.17	
2025-01-11 08:41:56.27	348.00	61.26	
2025-01-11 08:41:56.47	347.87	61.34	
2025-01-11 08:41:56.68	347.74	61.43	
2025-01-11 08:41:56.88	347.62	61.51	
2025-01-11 08:41:57.09	347.48	61.60	
2025-01-11 08:41:57.29	347.35	61.68	
2025-01-11 08:41:57.50	347.22	61.77	
2025-01-11 08:41:57.70	347.09	61.85	
2025-01-11 08:41:57.91	346.95	61.94	
2025-01-11 08:41:58.11	346.82	62.03	
2025-01-11 08:41:58.32	346.68	62.11	
2025-01-11 08:41:58.52	346.55	62.20	
2025-01-11 08:41:58.73	346.41	62.28	
2025-01-11 08:41:58.93	346.27	62.37	
2025-01-11 08:41:59.14	346.13	62.46	
2025-01-11 08:41:59.36	345.98	62.55	
2025-01-11 08:41:59.56	345.84	62.63	
2025-01-11 08:41:59.77	345.69	62.72	
2025-01-11 08:41:59.97	345.55	62.80	
2025-01-11 08:42:00.18	345.40	62.89	
2025-01-11 08:42:00.38	345.26	62.97	
2025-01-11 08:42:00.58	345.12	63.05	
2025-01-11 08:42:00.79	344.97	63.14	
2025-01-11 08:42:00.99	344.82	63.22	
2025-01-11 08:42:01.20	344.67	63.31	
2025-01-11 08:42:01.41	344.51	63.40	
2025-01-11 08:42:01.61	344.36	63.48	
2025-01-11 08:42:01.82	344.21	63.57	
2025-01-11 08:42:02.02	344.05	63.65	
2025-01-11 08:42:02.23	343.89	63.74	
2025-01-11 08:42:02.43	343.74	63.82	
2025-01-11 08:42:02.64	343.58	63.91	
2025-01-11 08:42:02.84	343.42	63.99	
2025-01-11 08:42:03.04	343.27	64.07	
2025-01-11 08:42:03.25	343.10	64.16	
2025-01-11 08:42:03.45	342.94	64.24	
2025-01-11 08:42:03.66	342.77	64.33	
2025-01-11 08:42:03.86	342.61	64.41	
2025-01-11 08:42:04.07	342.44	64.49	
2025-01-11 08:42:04.28	342.27	64.58	
2025-01-11 08:42:04.48	342.11	64.66	
2025-01-11 08:42:04.68	341.94	64.74	
2025-01-11 08:42:04.89	341.76	64.83	
2025-01-11 08:42:05.10	341.59	64.91	
2025-01-11 08:42:05.30	341.42	65.00	
2025-01-11 08:42:05.51	341.24	65.08	
2025-01-11 08:42:05.73	341.05	65.17	
2025-01-11 08:42:05.93	340.87	65.25	
2025-01-11 08:42:06.14	340.69	65.34	
2025-01-11 08:42:06.34	340.51	65.42	
2025-01-11 08:42:06.55	340.33	65.50	
2025-01-11 08:42:06.75	340.15	65.58	
2025-01-11 08:42:06.96	339.96	65.67	
2025-01-11 08:42:07.17	339.77	65.75	
2025-01-11 08:42:07.37	339.58	65.83	
2025-01-11 08:42:07.58	339.39	65.91	
2025-01-11 08:42:07.78	339.20	65.99	
2025-01-11 08:42:07.98	339.02	66.07	
2025-01-11 08:42:08.19	338.82	66.16	
2025-01-11 08:42:08.40	338.62	66.24	
2025-01-11 08:42:08.60	338.43	66.32	
2025-01-11 08:42:08.81	338.22	66.40	
2025-01-11 08:42:09.01	338.03	66.48	
2025-01-11 08:42:09.22	337.82	66.56	
2025-01-11 08:42:09.42	337.63	66.64	
2025-01-11 08:42:09.63	337.42	66.72	
2025-01-11 08:42:09.83	337.22	66.80	
2025-01-11 08:42:10.04	337.00	66.88	
2025-01-11 08:42:10.24	336.80	66.96	
2025-01-11 08:42:10.45	336.58	67.04	
2025-01-11 08:42:10.65	336.38	67.12	
2025-01-11 08:42:10.86	336.16	67.20	
2025-01-11 08:42:11.06	335.95	67.28	
2025-01-11 08:42:11.27	335.73	67.36	
2025-01-11 08:42:11.47	335.51	67.43	
2025-01-11 08:42:11.68	335.29	67.51	
2025-01-11 08:42:11.88	335.07	67.59	
2025-01-11 08:42:12.09	334.84	67.67	
2025-01-11 08:42:12.29	334.62	67.74	
2025-01-11 08:42:12.50	334.39	67.82	
2025-01-11 08:42:12.70	334.17	67.90	
2025-01-11 08:42:12.91	333.93	67.98	
2025-01-11 08:42:13.11	333.70	68.05	
2025-01-11 08:42:13.32	333.46	68.13	
2025-01-11 08:42:13.52	333.23	68.20	
2025-01-11 08:42:13.73	332.99	68.28	
2025-01-11 08:42:13.93	332.76	68.35	
2025-01-11 08:42:14.14	332.51	68.43	
2025-01-11 08:42:14.34	332.27	68.50	
2025-01-11 08:42:14.55	332.02	68.58	
2025-01-11 08:42:14.75	331.78	68.65	
2025-01-11 08:42:14.96	331.53	68.73	
2025-01-11 08:42:15.16	331.28	68.80	
2025-01-11 08:42:15.36	331.04	68.87	
2025-01-11 08:42:15.57	330.78	68.94	
2025-01-11 08:42:15.77	330.53	69.02	
2025-01-11 08:42:15.98	330.26	69.09	
2025-01-11 08:42:16.18	330.01	69.16	
2025-01-11 08:42:16.40	329.73	69.24	
2025-01-11 08:42:16.60	329.47	69.31	
2025-01-11 08:42:16.81	329.20	69.38	
2025-01-11 08:42:17.02	328.92	69.45	
2025-01-11 08:42:17.22	328.66	69.52	
2025-01-11 08:42:17.43	328.38	69.59	
2025-01-11 08:42:17.63	328.11	69.66	
2025-01-11 08:42:17.84	327.83	69.73	
2025-01-11 08:42:18.05	327.55	69.80	
2025-01-11 08:42:18.25	327.27	69.86	
2025-01-11 08:42:18.47	326.97	69.94	
2025-01-11 08:42:18.67	326.69	70.00	
2025-01-11 08:42:18.88	326.40	70.07	
2025-01-11 08:42:19.09	326.10	70.14	
2025-01-11 08:42:19.29	325.82	70.20	
2025-01-11 08:42:19.49	325.53	70.27	
2025-01-11 08:42:19.70	325.23	70.33	
2025-01-11 08:42:19.90	324.94	70.40	
2025-01-11 08:42:20.11	324.64	70.46	
2025-01-11 08:42:20.32	324.33	70.53	
2025-01-11 08:42:20.52	324.03	70.59	
2025-01-11 08:42:20.73	323.72	70.65	
2025-01-11 08:42:20.93	323.42	70.71	
2025-01-11 08:42:21.14	323.10	70.78	
2025-01-11 08:42:21.34	322.80	70.84	
2025-01-11 08:42:21.55	322.48	70.90	
2025-01-11 08:42:21.75	322.17	70.96	
2025-01-11 08:42:21.96	321.84	71.02	
2025-01-11 08:42:22.16	321.53	71.08	
2025-01-11 08:42:22.37	321.20	71.14	
2025-01-11 08:42:22.57	320.89	71.19	
2025-01-11 08:42:22.79	320.54	71.26	
2025-01-11 08:42:23.00	320.20	71.31	
2025-01-11 08:42:23.20	319.88	71.37	
2025-01-11 08:42:23.41	319.53	71.43	
2025-01-11 08:42:23.61	319.21	71.48	
2025-01-11 08:42:23.82	318.86	71.54	
2025-01-11 08:42:24.02	318.53	71.59	
2025-01-11 08:42:24.23	318.18	71.64	
2025-01-11 08:42:24.43	317.85	71.70	
2025-01-11 08:42:24.64	317.49	71.75	
