passes_logs/2025/01/11/SPB_Silybum_02/SPB_Silybum_02__20250111_195138_TERRA_rec.log

#Pass ID: 20250111_195138_TERRA
#Satellite: TERRA
#Configuration: TERRA
#Start time: 2025-01-11 19:51:36

#Version: 2.0.20230423
#Station: SPB_Silybum_02
#Location: 30.233357 lon 59.946436 lat
#TLE: 1 25994U 99068A   25010.80464720  .00000833  00000+0  18136-3 0  9995
#TLE: 2 25994  98.0224  73.9683 0003536  80.9361 344.1935 14.60387279333461

#Time	Az	El	Level	Level2	SNR	BER	Gain	Gain2
2025-01-11 19:51:38.82	204.12	4.02	
2025-01-11 19:51:39.03	204.14	4.03	
2025-01-11 19:51:39.24	204.15	4.05	
2025-01-11 19:51:39.44	204.17	4.06	
2025-01-11 19:51:39.65	204.19	4.07	
2025-01-11 19:51:39.86	204.20	4.09	
2025-01-11 19:51:40.06	204.22	4.10	
2025-01-11 19:51:40.26	204.23	4.11	
2025-01-11 19:51:40.47	204.25	4.13	
2025-01-11 19:51:40.68	204.27	4.14	
2025-01-11 19:51:40.88	204.28	4.15	
2025-01-11 19:51:41.09	204.30	4.17	
2025-01-11 19:51:41.29	204.32	4.18	
2025-01-11 19:51:41.50	204.33	4.19	
2025-01-11 19:51:41.70	204.35	4.20	
2025-01-11 19:51:41.91	204.37	4.22	
2025-01-11 19:51:42.11	204.38	4.23	
2025-01-11 19:51:42.32	204.40	4.24	
2025-01-11 19:51:42.52	204.42	4.26	
2025-01-11 19:51:42.73	204.43	4.27	
2025-01-11 19:51:42.93	204.45	4.28	
2025-01-11 19:51:43.15	204.47	4.30	
2025-01-11 19:51:43.35	204.48	4.31	
2025-01-11 19:51:43.56	204.50	4.32	
2025-01-11 19:51:43.76	204.52	4.34	
2025-01-11 19:51:43.97	204.53	4.35	
2025-01-11 19:51:44.17	204.55	4.36	
2025-01-11 19:51:44.38	204.57	4.38	
2025-01-11 19:51:44.58	204.58	4.39	
2025-01-11 19:51:44.79	204.60	4.40	
2025-01-11 19:51:44.99	204.62	4.41	
2025-01-11 19:51:45.20	204.63	4.43	
2025-01-11 19:51:45.40	204.65	4.44	
2025-01-11 19:51:45.61	204.67	4.45	
2025-01-11 19:51:45.81	204.68	4.47	
2025-01-11 19:51:46.02	204.70	4.48	
2025-01-11 19:51:46.23	204.72	4.49	
2025-01-11 19:51:46.43	204.73	4.51	
2025-01-11 19:51:46.63	204.75	4.52	
2025-01-11 19:51:46.84	204.77	4.53	
2025-01-11 19:51:47.04	204.78	4.55	
2025-01-11 19:51:47.25	204.80	4.56	
2025-01-11 19:51:47.45	204.82	4.57	
2025-01-11 19:51:47.66	204.83	4.59	
2025-01-11 19:51:47.86	204.85	4.60	
2025-01-11 19:51:48.07	204.87	4.61	
2025-01-11 19:51:48.27	204.88	4.63	
2025-01-11 19:51:48.47	204.90	4.64	
2025-01-11 19:51:48.68	204.92	4.65	
2025-01-11 19:51:48.89	204.94	4.67	
2025-01-11 19:51:49.09	204.95	4.68	
2025-01-11 19:51:49.30	204.97	4.69	
2025-01-11 19:51:49.50	204.99	4.71	
2025-01-11 19:51:49.70	205.00	4.72	
2025-01-11 19:51:49.91	205.02	4.73	
2025-01-11 19:51:50.11	205.04	4.74	
2025-01-11 19:51:50.32	205.05	4.76	
2025-01-11 19:51:50.53	205.07	4.77	
2025-01-11 19:51:50.73	205.09	4.79	
2025-01-11 19:51:50.94	205.11	4.80	
2025-01-11 19:51:51.14	205.12	4.81	
2025-01-11 19:51:51.35	205.14	4.83	
2025-01-11 19:51:51.55	205.16	4.84	
2025-01-11 19:51:51.77	205.18	4.85	
2025-01-11 19:51:51.98	205.19	4.87	
2025-01-11 19:51:52.18	205.21	4.88	
2025-01-11 19:51:52.39	205.23	4.89	
2025-01-11 19:51:52.59	205.25	4.91	
2025-01-11 19:51:52.80	205.26	4.92	
2025-01-11 19:51:53.00	205.28	4.93	
2025-01-11 19:51:53.21	205.30	4.95	
2025-01-11 19:51:53.41	205.31	4.96	
2025-01-11 19:51:53.62	205.33	4.97	
2025-01-11 19:51:53.82	205.35	4.99	
2025-01-11 19:51:54.03	205.37	5.00	
2025-01-11 19:51:54.23	205.38	5.01	
2025-01-11 19:51:54.44	205.40	5.03	
2025-01-11 19:51:54.64	205.42	5.04	
2025-01-11 19:51:54.85	205.44	5.05	
2025-01-11 19:51:55.05	205.45	5.07	
2025-01-11 19:51:55.26	205.47	5.08	
2025-01-11 19:51:55.46	205.49	5.09	
2025-01-11 19:51:55.67	205.51	5.11	
2025-01-11 19:51:55.87	205.52	5.12	
2025-01-11 19:51:56.08	205.54	5.13	
2025-01-11 19:51:56.28	205.56	5.15	
2025-01-11 19:51:56.49	205.58	5.16	
2025-01-11 19:51:56.69	205.59	5.17	
2025-01-11 19:51:56.90	205.61	5.19	
2025-01-11 19:51:57.10	205.63	5.20	
2025-01-11 19:51:57.31	205.65	5.21	
2025-01-11 19:51:57.51	205.66	5.23	
2025-01-11 19:51:57.72	205.68	5.24	
2025-01-11 19:51:57.93	205.70	5.26	
2025-01-11 19:51:58.13	205.72	5.27	
2025-01-11 19:51:58.33	205.74	5.28	
2025-01-11 19:51:58.54	205.75	5.30	
2025-01-11 19:51:58.74	205.77	5.31	
2025-01-11 19:51:58.95	205.79	5.32	
2025-01-11 19:51:59.15	205.81	5.34	
2025-01-11 19:51:59.36	205.83	5.35	
2025-01-11 19:51:59.57	205.84	5.36	
2025-01-11 19:51:59.77	205.86	5.38	
2025-01-11 19:51:59.97	205.88	5.39	
2025-01-11 19:52:00.18	205.90	5.40	
2025-01-11 19:52:00.38	205.91	5.42	
2025-01-11 19:52:00.59	205.93	5.43	
2025-01-11 19:52:00.79	205.95	5.44	
2025-01-11 19:52:01.00	205.97	5.46	
2025-01-11 19:52:01.20	205.99	5.47	
2025-01-11 19:52:01.41	206.00	5.49	
2025-01-11 19:52:01.61	206.02	5.50	
2025-01-11 19:52:01.82	206.04	5.51	
2025-01-11 19:52:02.02	206.06	5.53	
2025-01-11 19:52:02.23	206.08	5.54	
2025-01-11 19:52:02.44	206.09	5.55	
2025-01-11 19:52:02.65	206.11	5.57	
2025-01-11 19:52:02.86	206.13	5.58	
2025-01-11 19:52:03.06	206.15	5.60	
2025-01-11 19:52:03.27	206.17	5.61	
2025-01-11 19:52:03.47	206.19	5.62	
2025-01-11 19:52:03.68	206.20	5.64	
2025-01-11 19:52:03.88	206.22	5.65	
2025-01-11 19:52:04.09	206.24	5.66	
2025-01-11 19:52:04.30	206.26	5.68	
2025-01-11 19:52:04.51	206.28	5.69	
2025-01-11 19:52:04.72	206.30	5.71	
2025-01-11 19:52:04.92	206.32	5.72	
2025-01-11 19:52:05.13	206.33	5.73	
2025-01-11 19:52:05.33	206.35	5.75	
2025-01-11 19:52:05.54	206.37	5.76	
2025-01-11 19:52:05.74	206.39	5.77	
2025-01-11 19:52:05.95	206.41	5.79	
2025-01-11 19:52:06.16	206.43	5.80	
2025-01-11 19:52:06.36	206.44	5.82	
2025-01-11 19:52:06.57	206.46	5.83	
2025-01-11 19:52:06.77	206.48	5.84	
2025-01-11 19:52:06.98	206.50	5.86	
2025-01-11 19:52:07.18	206.52	5.87	
2025-01-11 19:52:07.39	206.54	5.88	
2025-01-11 19:52:07.59	206.56	5.90	
2025-01-11 19:52:07.80	206.57	5.91	
2025-01-11 19:52:08.00	206.59	5.93	
2025-01-11 19:52:08.21	206.61	5.94	
2025-01-11 19:52:08.41	206.63	5.95	
2025-01-11 19:52:08.62	206.65	5.97	
2025-01-11 19:52:08.82	206.67	5.98	
2025-01-11 19:52:09.02	206.69	5.99	
2025-01-11 19:52:09.23	206.70	6.01	
2025-01-11 19:52:09.43	206.72	6.02	
2025-01-11 19:52:09.64	206.74	6.04	
2025-01-11 19:52:09.85	206.76	6.05	
2025-01-11 19:52:10.05	206.78	6.06	
2025-01-11 19:52:10.26	206.80	6.08	
2025-01-11 19:52:10.46	206.82	6.09	
2025-01-11 19:52:10.67	206.84	6.11	
2025-01-11 19:52:10.87	206.85	6.12	
2025-01-11 19:52:11.08	206.87	6.13	
2025-01-11 19:52:11.28	206.89	6.15	
2025-01-11 19:52:11.49	206.91	6.16	
2025-01-11 19:52:11.70	206.93	6.17	
2025-01-11 19:52:11.90	206.95	6.19	
2025-01-11 19:52:12.11	206.97	6.20	
2025-01-11 19:52:12.31	206.99	6.22	
2025-01-11 19:52:12.52	207.01	6.23	
2025-01-11 19:52:12.72	207.03	6.24	
2025-01-11 19:52:12.93	207.04	6.26	
2025-01-11 19:52:13.14	207.06	6.27	
2025-01-11 19:52:13.35	207.08	6.29	
2025-01-11 19:52:13.56	207.10	6.30	
2025-01-11 19:52:13.76	207.12	6.31	
2025-01-11 19:52:13.97	207.14	6.33	
2025-01-11 19:52:14.17	207.16	6.34	
2025-01-11 19:52:14.38	207.18	6.36	
2025-01-11 19:52:14.58	207.20	6.37	
2025-01-11 19:52:14.79	207.22	6.38	
2025-01-11 19:52:14.99	207.24	6.40	
2025-01-11 19:52:15.19	207.26	6.41	
2025-01-11 19:52:15.40	207.28	6.43	
2025-01-11 19:52:15.60	207.29	6.44	
2025-01-11 19:52:15.80	207.31	6.45	
2025-01-11 19:52:16.01	207.33	6.47	
2025-01-11 19:52:16.21	207.35	6.48	
2025-01-11 19:52:16.42	207.37	6.50	
2025-01-11 19:52:16.62	207.39	6.51	
2025-01-11 19:52:16.83	207.41	6.52	
2025-01-11 19:52:17.04	207.43	6.54	
2025-01-11 19:52:17.24	207.45	6.55	
2025-01-11 19:52:17.44	207.47	6.57	
2025-01-11 19:52:17.65	207.49	6.58	
2025-01-11 19:52:17.86	207.51	6.59	
2025-01-11 19:52:18.06	207.53	6.61	
2025-01-11 19:52:18.27	207.55	6.62	
2025-01-11 19:52:18.47	207.57	6.64	
2025-01-11 19:52:18.68	207.59	6.65	
2025-01-11 19:52:18.88	207.61	6.66	
2025-01-11 19:52:19.09	207.63	6.68	
2025-01-11 19:52:19.29	207.64	6.69	
2025-01-11 19:52:19.50	207.66	6.71	
2025-01-11 19:52:19.70	207.68	6.72	
2025-01-11 19:52:19.91	207.70	6.74	
2025-01-11 19:52:20.11	207.72	6.75	
2025-01-11 19:52:20.32	207.74	6.76	
2025-01-11 19:52:20.54	207.76	6.78	
2025-01-11 19:52:20.74	207.78	6.79	
2025-01-11 19:52:20.95	207.80	6.81	
2025-01-11 19:52:21.15	207.82	6.82	
2025-01-11 19:52:21.36	207.84	6.84	
2025-01-11 19:52:21.56	207.86	6.85	
2025-01-11 19:52:21.77	207.88	6.86	
2025-01-11 19:52:21.97	207.90	6.88	
2025-01-11 19:52:22.18	207.92	6.89	
2025-01-11 19:52:22.38	207.94	6.91	
2025-01-11 19:52:22.59	207.96	6.92	
2025-01-11 19:52:22.79	207.98	6.93	
2025-01-11 19:52:23.00	208.00	6.95	
2025-01-11 19:52:23.20	208.02	6.96	
2025-01-11 19:52:23.41	208.04	6.98	
2025-01-11 19:52:23.61	208.06	6.99	
2025-01-11 19:52:23.81	208.08	7.00	
2025-01-11 19:52:24.02	208.10	7.02	
2025-01-11 19:52:24.23	208.12	7.03	
2025-01-11 19:52:24.43	208.14	7.05	
2025-01-11 19:52:24.64	208.16	7.06	
2025-01-11 19:52:24.85	208.18	7.08	
2025-01-11 19:52:25.06	208.21	7.09	
2025-01-11 19:52:25.26	208.23	7.11	
2025-01-11 19:52:25.47	208.25	7.12	
2025-01-11 19:52:25.67	208.27	7.13	
2025-01-11 19:52:25.89	208.29	7.15	
2025-01-11 19:52:26.10	208.31	7.16	
2025-01-11 19:52:26.30	208.33	7.18	
2025-01-11 19:52:26.51	208.35	7.19	
2025-01-11 19:52:26.71	208.37	7.21	
2025-01-11 19:52:26.91	208.39	7.22	
2025-01-11 19:52:27.12	208.41	7.24	
2025-01-11 19:52:27.32	208.43	7.25	
2025-01-11 19:52:27.53	208.45	7.26	
2025-01-11 19:52:27.74	208.47	7.28	
2025-01-11 19:52:27.95	208.49	7.29	
2025-01-11 19:52:28.15	208.51	7.31	
2025-01-11 19:52:28.36	208.53	7.32	
2025-01-11 19:52:28.56	208.55	7.34	
2025-01-11 19:52:28.77	208.57	7.35	
2025-01-11 19:52:28.97	208.59	7.37	
2025-01-11 19:52:29.18	208.62	7.38	
2025-01-11 19:52:29.39	208.64	7.39	
2025-01-11 19:52:29.59	208.66	7.41	
2025-01-11 19:52:29.79	208.68	7.42	
2025-01-11 19:52:30.00	208.70	7.44	
2025-01-11 19:52:30.21	208.72	7.45	
2025-01-11 19:52:30.41	208.74	7.47	
2025-01-11 19:52:30.62	208.76	7.48	
2025-01-11 19:52:30.82	208.78	7.50	
2025-01-11 19:52:31.02	208.80	7.51	
2025-01-11 19:52:31.23	208.82	7.52	
2025-01-11 19:52:31.43	208.84	7.54	
2025-01-11 19:52:31.64	208.86	7.55	
2025-01-11 19:52:31.84	208.89	7.57	
2025-01-11 19:52:32.05	208.91	7.58	
2025-01-11 19:52:32.25	208.93	7.60	
2025-01-11 19:52:32.46	208.95	7.61	
2025-01-11 19:52:32.67	208.97	7.63	
2025-01-11 19:52:32.87	208.99	7.64	
2025-01-11 19:52:33.08	209.01	7.65	
2025-01-11 19:52:33.28	209.03	7.67	
2025-01-11 19:52:33.49	209.05	7.68	
2025-01-11 19:52:33.69	209.07	7.70	
2025-01-11 19:52:33.90	209.10	7.71	
2025-01-11 19:52:34.10	209.12	7.73	
2025-01-11 19:52:34.31	209.14	7.74	
2025-01-11 19:52:34.51	209.16	7.76	
2025-01-11 19:52:34.72	209.18	7.77	
2025-01-11 19:52:34.92	209.20	7.79	
2025-01-11 19:52:35.13	209.22	7.80	
2025-01-11 19:52:35.34	209.25	7.81	
2025-01-11 19:52:35.55	209.27	7.83	
2025-01-11 19:52:35.76	209.29	7.84	
2025-01-11 19:52:35.96	209.31	7.86	
2025-01-11 19:52:36.17	209.33	7.87	
2025-01-11 19:52:36.37	209.35	7.89	
2025-01-11 19:52:36.58	209.37	7.90	
2025-01-11 19:52:36.78	209.40	7.92	
2025-01-11 19:52:36.99	209.42	7.93	
2025-01-11 19:52:37.19	209.44	7.95	
2025-01-11 19:52:37.40	209.46	7.96	
2025-01-11 19:52:37.60	209.48	7.98	
2025-01-11 19:52:37.81	209.50	7.99	
2025-01-11 19:52:38.01	209.52	8.01	
2025-01-11 19:52:38.22	209.55	8.02	
2025-01-11 19:52:38.42	209.57	8.03	
2025-01-11 19:52:38.63	209.59	8.05	
2025-01-11 19:52:38.83	209.61	8.06	
2025-01-11 19:52:39.04	209.63	8.08	
2025-01-11 19:52:39.25	209.66	8.09	
2025-01-11 19:52:39.45	209.68	8.11	
2025-01-11 19:52:39.66	209.70	8.12	
2025-01-11 19:52:39.86	209.72	8.14	
2025-01-11 19:52:40.07	209.74	8.15	
2025-01-11 19:52:40.27	209.76	8.17	
2025-01-11 19:52:40.48	209.79	8.18	
2025-01-11 19:52:40.68	209.81	8.20	
2025-01-11 19:52:40.89	209.83	8.21	
2025-01-11 19:52:41.09	209.85	8.23	
2025-01-11 19:52:41.30	209.87	8.24	
2025-01-11 19:52:41.51	209.90	8.26	
2025-01-11 19:52:41.72	209.92	8.27	
2025-01-11 19:52:41.92	209.94	8.29	
2025-01-11 19:52:42.12	209.96	8.30	
2025-01-11 19:52:42.33	209.98	8.32	
2025-01-11 19:52:42.54	210.01	8.33	
2025-01-11 19:52:42.74	210.03	8.34	
2025-01-11 19:52:42.95	210.05	8.36	
2025-01-11 19:52:43.15	210.07	8.37	
2025-01-11 19:52:43.36	210.10	8.39	
2025-01-11 19:52:43.56	210.12	8.40	
2025-01-11 19:52:43.77	210.14	8.42	
2025-01-11 19:52:43.97	210.16	8.43	
2025-01-11 19:52:44.18	210.18	8.45	
2025-01-11 19:52:44.39	210.21	8.46	
2025-01-11 19:52:44.59	210.23	8.48	
2025-01-11 19:52:44.80	210.25	8.49	
2025-01-11 19:52:45.00	210.27	8.51	
2025-01-11 19:52:45.21	210.30	8.52	
2025-01-11 19:52:45.41	210.32	8.54	
2025-01-11 19:52:45.62	210.34	8.55	
2025-01-11 19:52:45.83	210.36	8.57	
2025-01-11 19:52:46.03	210.39	8.58	
2025-01-11 19:52:46.24	210.41	8.60	
2025-01-11 19:52:46.44	210.43	8.61	
2025-01-11 19:52:46.65	210.45	8.63	
2025-01-11 19:52:46.85	210.48	8.64	
2025-01-11 19:52:47.06	210.50	8.66	
2025-01-11 19:52:47.26	210.52	8.67	
2025-01-11 19:52:47.47	210.54	8.69	
2025-01-11 19:52:47.67	210.57	8.70	
2025-01-11 19:52:47.88	210.59	8.72	
2025-01-11 19:52:48.09	210.61	8.73	
2025-01-11 19:52:48.29	210.64	8.75	
2025-01-11 19:52:48.50	210.66	8.76	
2025-01-11 19:52:48.70	210.68	8.78	
2025-01-11 19:52:48.91	210.70	8.79	
2025-01-11 19:52:49.12	210.73	8.81	
2025-01-11 19:52:49.32	210.75	8.82	
2025-01-11 19:52:49.53	210.77	8.84	
2025-01-11 19:52:49.73	210.80	8.85	
2025-01-11 19:52:49.94	210.82	8.87	
2025-01-11 19:52:50.14	210.84	8.88	
2025-01-11 19:52:50.35	210.87	8.90	
2025-01-11 19:52:50.55	210.89	8.91	
2025-01-11 19:52:50.76	210.91	8.93	
2025-01-11 19:52:50.96	210.93	8.94	
2025-01-11 19:52:51.17	210.96	8.96	
2025-01-11 19:52:51.37	210.98	8.97	
2025-01-11 19:52:51.58	211.00	8.99	
2025-01-11 19:52:51.78	211.03	9.00	
2025-01-11 19:52:51.99	211.05	9.02	
2025-01-11 19:52:52.19	211.07	9.03	
2025-01-11 19:52:52.40	211.10	9.05	
2025-01-11 19:52:52.60	211.12	9.06	
2025-01-11 19:52:52.80	211.14	9.08	
2025-01-11 19:52:53.01	211.17	9.09	
2025-01-11 19:52:53.22	211.19	9.11	
2025-01-11 19:52:53.42	211.21	9.12	
2025-01-11 19:52:53.63	211.24	9.14	
2025-01-11 19:52:53.83	211.26	9.15	
2025-01-11 19:52:54.04	211.28	9.17	
2025-01-11 19:52:54.24	211.31	9.18	
2025-01-11 19:52:54.45	211.33	9.20	
2025-01-11 19:52:54.65	211.35	9.22	
2025-01-11 19:52:54.86	211.38	9.23	
2025-01-11 19:52:55.06	211.40	9.25	
2025-01-11 19:52:55.27	211.42	9.26	
2025-01-11 19:52:55.48	211.45	9.28	
2025-01-11 19:52:55.68	211.47	9.29	
2025-01-11 19:52:55.89	211.50	9.31	
2025-01-11 19:52:56.09	211.52	9.32	
2025-01-11 19:52:56.30	211.54	9.34	
2025-01-11 19:52:56.50	211.57	9.35	
2025-01-11 19:52:56.71	211.59	9.37	
2025-01-11 19:52:56.91	211.61	9.38	
2025-01-11 19:52:57.12	211.64	9.40	
2025-01-11 19:52:57.32	211.66	9.41	
2025-01-11 19:52:57.53	211.69	9.43	
2025-01-11 19:52:57.73	211.71	9.44	
2025-01-11 19:52:57.94	211.73	9.46	
2025-01-11 19:52:58.14	211.76	9.47	
2025-01-11 19:52:58.35	211.78	9.49	
2025-01-11 19:52:58.55	211.81	9.50	
2025-01-11 19:52:58.76	211.83	9.52	
2025-01-11 19:52:58.96	211.85	9.54	
2025-01-11 19:52:59.17	211.88	9.55	
2025-01-11 19:52:59.37	211.90	9.57	
2025-01-11 19:52:59.58	211.93	9.58	
2025-01-11 19:52:59.79	211.95	9.60	
2025-01-11 19:52:59.99	211.97	9.61	
2025-01-11 19:53:00.19	212.00	9.63	
2025-01-11 19:53:00.40	212.02	9.64	
2025-01-11 19:53:00.60	212.05	9.66	
2025-01-11 19:53:00.81	212.07	9.67	
2025-01-11 19:53:01.01	212.10	9.69	
2025-01-11 19:53:01.22	212.12	9.70	
2025-01-11 19:53:01.42	212.14	9.72	
2025-01-11 19:53:01.63	212.17	9.74	
2025-01-11 19:53:01.83	212.19	9.75	
2025-01-11 19:53:02.04	212.22	9.77	
2025-01-11 19:53:02.24	212.24	9.78	
2025-01-11 19:53:02.45	212.27	9.80	
2025-01-11 19:53:02.65	212.29	9.81	
2025-01-11 19:53:02.86	212.32	9.83	
2025-01-11 19:53:03.06	212.34	9.84	
2025-01-11 19:53:03.28	212.37	9.86	
2025-01-11 19:53:03.49	212.39	9.88	
2025-01-11 19:53:03.69	212.42	9.89	
2025-01-11 19:53:03.90	212.44	9.91	
2025-01-11 19:53:04.10	212.47	9.92	
2025-01-11 19:53:04.31	212.49	9.94	
2025-01-11 19:53:04.51	212.52	9.95	
2025-01-11 19:53:04.72	212.54	9.97	
2025-01-11 19:53:04.92	212.56	9.98	
2025-01-11 19:53:05.13	212.59	10.00	
2025-01-11 19:53:05.33	212.61	10.01	
2025-01-11 19:53:05.54	212.64	10.03	
2025-01-11 19:53:05.74	212.66	10.04	
2025-01-11 19:53:05.95	212.69	10.06	
2025-01-11 19:53:06.15	212.71	10.08	
2025-01-11 19:53:06.36	212.74	10.09	
2025-01-11 19:53:06.56	212.76	10.11	
2025-01-11 19:53:06.77	212.79	10.12	
2025-01-11 19:53:06.97	212.81	10.14	
2025-01-11 19:53:07.18	212.84	10.15	
2025-01-11 19:53:07.39	212.87	10.17	
2025-01-11 19:53:07.59	212.89	10.19	
2025-01-11 19:53:07.79	212.92	10.20	
2025-01-11 19:53:08.00	212.94	10.22	
2025-01-11 19:53:08.21	212.97	10.23	
2025-01-11 19:53:08.41	212.99	10.25	
2025-01-11 19:53:08.63	213.02	10.26	
2025-01-11 19:53:08.83	213.04	10.28	
2025-01-11 19:53:09.04	213.07	10.30	
2025-01-11 19:53:09.24	213.09	10.31	
2025-01-11 19:53:09.45	213.12	10.33	
2025-01-11 19:53:09.65	213.15	10.34	
2025-01-11 19:53:09.86	213.17	10.36	
2025-01-11 19:53:10.06	213.20	10.37	
2025-01-11 19:53:10.27	213.22	10.39	
2025-01-11 19:53:10.48	213.25	10.41	
2025-01-11 19:53:10.68	213.27	10.42	
2025-01-11 19:53:10.89	213.30	10.44	
2025-01-11 19:53:11.09	213.33	10.45	
2025-01-11 19:53:11.30	213.35	10.47	
2025-01-11 19:53:11.51	213.38	10.48	
2025-01-11 19:53:11.71	213.40	10.50	
2025-01-11 19:53:11.91	213.43	10.51	
2025-01-11 19:53:12.12	213.45	10.53	
2025-01-11 19:53:12.33	213.48	10.55	
2025-01-11 19:53:12.53	213.51	10.56	
2025-01-11 19:53:12.74	213.53	10.58	
2025-01-11 19:53:12.94	213.56	10.59	
2025-01-11 19:53:13.15	213.59	10.61	
2025-01-11 19:53:13.35	213.61	10.63	
2025-01-11 19:53:13.56	213.64	10.64	
2025-01-11 19:53:13.76	213.66	10.66	
2025-01-11 19:53:13.97	213.69	10.67	
2025-01-11 19:53:14.17	213.71	10.69	
2025-01-11 19:53:14.38	213.74	10.70	
2025-01-11 19:53:14.58	213.77	10.72	
2025-01-11 19:53:14.79	213.79	10.74	
2025-01-11 19:53:14.99	213.82	10.75	
2025-01-11 19:53:15.20	213.85	10.77	
2025-01-11 19:53:15.40	213.87	10.78	
2025-01-11 19:53:15.61	213.90	10.80	
2025-01-11 19:53:15.82	213.93	10.82	
2025-01-11 19:53:16.02	213.95	10.83	
2025-01-11 19:53:16.23	213.98	10.85	
2025-01-11 19:53:16.43	214.00	10.86	
2025-01-11 19:53:16.64	214.03	10.88	
2025-01-11 19:53:16.84	214.06	10.89	
2025-01-11 19:53:17.05	214.08	10.91	
2025-01-11 19:53:17.25	214.11	10.93	
2025-01-11 19:53:17.45	214.14	10.94	
2025-01-11 19:53:17.66	214.16	10.96	
2025-01-11 19:53:17.87	214.19	10.97	
2025-01-11 19:53:18.07	214.22	10.99	
2025-01-11 19:53:18.28	214.24	11.01	
2025-01-11 19:53:18.48	214.27	11.02	
2025-01-11 19:53:18.69	214.30	11.04	
2025-01-11 19:53:18.89	214.32	11.05	
2025-01-11 19:53:19.10	214.35	11.07	
2025-01-11 19:53:19.30	214.38	11.08	
2025-01-11 19:53:19.50	214.40	11.10	
2025-01-11 19:53:19.71	214.43	11.12	
2025-01-11 19:53:19.91	214.46	11.13	
2025-01-11 19:53:20.12	214.49	11.15	
2025-01-11 19:53:20.32	214.51	11.16	
2025-01-11 19:53:20.53	214.54	11.18	
2025-01-11 19:53:20.74	214.57	11.20	
2025-01-11 19:53:20.94	214.59	11.21	
2025-01-11 19:53:21.15	214.62	11.23	
2025-01-11 19:53:21.35	214.65	11.24	
2025-01-11 19:53:21.55	214.67	11.26	
2025-01-11 19:53:21.77	214.70	11.28	
2025-01-11 19:53:21.97	214.73	11.29	
2025-01-11 19:53:22.18	214.76	11.31	
2025-01-11 19:53:22.38	214.79	11.32	
2025-01-11 19:53:22.59	214.81	11.34	
2025-01-11 19:53:22.79	214.84	11.36	
2025-01-11 19:53:23.00	214.87	11.37	
2025-01-11 19:53:23.21	214.90	11.39	
2025-01-11 19:53:23.41	214.92	11.41	
2025-01-11 19:53:23.61	214.95	11.42	
2025-01-11 19:53:23.82	214.98	11.44	
2025-01-11 19:53:24.02	215.01	11.45	
2025-01-11 19:53:24.23	215.03	11.47	
2025-01-11 19:53:24.43	215.06	11.49	
2025-01-11 19:53:24.64	215.09	11.50	
2025-01-11 19:53:24.85	215.12	11.52	
2025-01-11 19:53:25.05	215.14	11.53	
2025-01-11 19:53:25.26	215.17	11.55	
2025-01-11 19:53:25.47	215.20	11.57	
2025-01-11 19:53:25.67	215.23	11.58	
2025-01-11 19:53:25.87	215.26	11.60	
2025-01-11 19:53:26.08	215.28	11.61	
2025-01-11 19:53:26.29	215.31	11.63	
2025-01-11 19:53:26.49	215.34	11.65	
2025-01-11 19:53:26.70	215.37	11.66	
2025-01-11 19:53:26.90	215.40	11.68	
2025-01-11 19:53:27.10	215.42	11.69	
2025-01-11 19:53:27.31	215.45	11.71	
2025-01-11 19:53:27.51	215.48	11.73	
2025-01-11 19:53:27.73	215.51	11.74	
2025-01-11 19:53:27.93	215.54	11.76	
2025-01-11 19:53:28.13	215.56	11.78	
2025-01-11 19:53:28.34	215.59	11.79	
2025-01-11 19:53:28.54	215.62	11.81	
2025-01-11 19:53:28.75	215.65	11.83	
2025-01-11 19:53:28.97	215.68	11.84	
2025-01-11 19:53:29.17	215.71	11.86	
2025-01-11 19:53:29.38	215.74	11.88	
2025-01-11 19:53:29.58	215.77	11.89	
2025-01-11 19:53:29.79	215.79	11.91	
2025-01-11 19:53:29.99	215.82	11.92	
2025-01-11 19:53:30.20	215.85	11.94	
2025-01-11 19:53:30.40	215.88	11.96	
2025-01-11 19:53:30.61	215.91	11.97	
2025-01-11 19:53:30.82	215.94	11.99	
2025-01-11 19:53:31.02	215.97	12.01	
2025-01-11 19:53:31.22	215.99	12.02	
2025-01-11 19:53:31.43	216.02	12.04	
2025-01-11 19:53:31.63	216.05	12.05	
2025-01-11 19:53:31.84	216.08	12.07	
2025-01-11 19:53:32.05	216.11	12.09	
2025-01-11 19:53:32.25	216.14	12.10	
2025-01-11 19:53:32.46	216.17	12.12	
2025-01-11 19:53:32.66	216.20	12.14	
2025-01-11 19:53:32.87	216.23	12.15	
2025-01-11 19:53:33.07	216.25	12.17	
2025-01-11 19:53:33.28	216.28	12.18	
2025-01-11 19:53:33.48	216.31	12.20	
2025-01-11 19:53:33.69	216.34	12.22	
2025-01-11 19:53:33.90	216.37	12.23	
2025-01-11 19:53:34.10	216.40	12.25	
2025-01-11 19:53:34.32	216.43	12.27	
2025-01-11 19:53:34.52	216.46	12.28	
2025-01-11 19:53:34.73	216.49	12.30	
2025-01-11 19:53:34.93	216.52	12.32	
2025-01-11 19:53:35.14	216.55	12.33	
2025-01-11 19:53:35.34	216.58	12.35	
2025-01-11 19:53:35.55	216.61	12.37	
2025-01-11 19:53:35.75	216.64	12.38	
2025-01-11 19:53:35.96	216.67	12.40	
2025-01-11 19:53:36.16	216.70	12.41	
2025-01-11 19:53:36.36	216.72	12.43	
2025-01-11 19:53:36.57	216.75	12.45	
2025-01-11 19:53:36.78	216.79	12.46	
2025-01-11 19:53:36.98	216.81	12.48	
2025-01-11 19:53:37.19	216.84	12.50	
2025-01-11 19:53:37.39	216.87	12.51	
2025-01-11 19:53:37.59	216.90	12.53	
2025-01-11 19:53:37.80	216.93	12.55	
2025-01-11 19:53:38.00	216.96	12.56	
2025-01-11 19:53:38.21	216.99	12.58	
2025-01-11 19:53:38.41	217.02	12.60	
2025-01-11 19:53:38.62	217.05	12.61	
2025-01-11 19:53:38.82	217.08	12.63	
2025-01-11 19:53:39.03	217.11	12.65	
2025-01-11 19:53:39.24	217.14	12.66	
2025-01-11 19:53:39.44	217.17	12.68	
2025-01-11 19:53:39.65	217.20	12.70	
2025-01-11 19:53:39.85	217.23	12.71	
2025-01-11 19:53:40.06	217.26	12.73	
2025-01-11 19:53:40.26	217.29	12.74	
2025-01-11 19:53:40.46	217.32	12.76	
2025-01-11 19:53:40.67	217.35	12.78	
2025-01-11 19:53:40.87	217.38	12.79	
2025-01-11 19:53:41.08	217.41	12.81	
2025-01-11 19:53:41.28	217.44	12.83	
2025-01-11 19:53:41.49	217.48	12.84	
2025-01-11 19:53:41.69	217.50	12.86	
2025-01-11 19:53:41.90	217.54	12.88	
2025-01-11 19:53:42.10	217.57	12.89	
2025-01-11 19:53:42.31	217.60	12.91	
2025-01-11 19:53:42.51	217.63	12.93	
2025-01-11 19:53:42.72	217.66	12.94	
2025-01-11 19:53:42.92	217.69	12.96	
2025-01-11 19:53:43.13	217.72	12.98	
2025-01-11 19:53:43.33	217.75	12.99	
2025-01-11 19:53:43.54	217.78	13.01	
2025-01-11 19:53:43.74	217.81	13.03	
2025-01-11 19:53:43.95	217.84	13.04	
2025-01-11 19:53:44.15	217.87	13.06	
2025-01-11 19:53:44.36	217.90	13.08	
2025-01-11 19:53:44.56	217.94	13.09	
2025-01-11 19:53:44.77	217.97	13.11	
2025-01-11 19:53:44.97	218.00	13.13	
2025-01-11 19:53:45.18	218.03	13.14	
2025-01-11 19:53:45.38	218.06	13.16	
2025-01-11 19:53:45.59	218.09	13.18	
2025-01-11 19:53:45.80	218.12	13.19	
2025-01-11 19:53:46.00	218.15	13.21	
2025-01-11 19:53:46.20	218.18	13.23	
2025-01-11 19:53:46.41	218.22	13.24	
2025-01-11 19:53:46.61	218.25	13.26	
2025-01-11 19:53:46.82	218.28	13.28	
2025-01-11 19:53:47.02	218.31	13.29	
2025-01-11 19:53:47.23	218.34	13.31	
2025-01-11 19:53:47.43	218.37	13.33	
2025-01-11 19:53:47.64	218.40	13.34	
2025-01-11 19:53:47.84	218.44	13.36	
2025-01-11 19:53:48.05	218.47	13.38	
2025-01-11 19:53:48.25	218.50	13.39	
2025-01-11 19:53:48.46	218.53	13.41	
2025-01-11 19:53:48.67	218.56	13.43	
2025-01-11 19:53:48.87	218.59	13.44	
2025-01-11 19:53:49.08	218.63	13.46	
2025-01-11 19:53:49.28	218.66	13.48	
2025-01-11 19:53:49.49	218.69	13.49	
2025-01-11 19:53:49.69	218.72	13.51	
2025-01-11 19:53:49.90	218.75	13.53	
2025-01-11 19:53:50.10	218.79	13.54	
2025-01-11 19:53:50.31	218.82	13.56	
2025-01-11 19:53:50.51	218.85	13.58	
2025-01-11 19:53:50.72	218.88	13.59	
2025-01-11 19:53:50.93	218.92	13.61	
2025-01-11 19:53:51.13	218.95	13.63	
2025-01-11 19:53:51.34	218.98	13.65	
2025-01-11 19:53:51.54	219.01	13.66	
2025-01-11 19:53:51.75	219.04	13.68	
2025-01-11 19:53:51.96	219.08	13.70	
2025-01-11 19:53:52.16	219.11	13.71	
2025-01-11 19:53:52.36	219.14	13.73	
2025-01-11 19:53:52.57	219.17	13.75	
2025-01-11 19:53:52.77	219.21	13.76	
2025-01-11 19:53:52.98	219.24	13.78	
2025-01-11 19:53:53.18	219.27	13.80	
2025-01-11 19:53:53.39	219.30	13.81	
2025-01-11 19:53:53.59	219.34	13.83	
2025-01-11 19:53:53.80	219.37	13.85	
2025-01-11 19:53:54.00	219.40	13.86	
2025-01-11 19:53:54.21	219.43	13.88	
2025-01-11 19:53:54.42	219.47	13.90	
2025-01-11 19:53:54.62	219.50	13.92	
2025-01-11 19:53:54.82	219.53	13.93	
2025-01-11 19:53:55.03	219.57	13.95	
2025-01-11 19:53:55.24	219.60	13.97	
2025-01-11 19:53:55.44	219.63	13.98	
2025-01-11 19:53:55.66	219.67	14.00	
2025-01-11 19:53:55.87	219.70	14.02	
2025-01-11 19:53:56.07	219.73	14.04	
2025-01-11 19:53:56.28	219.77	14.05	
2025-01-11 19:53:56.48	219.80	14.07	
2025-01-11 19:53:56.69	219.83	14.09	
2025-01-11 19:53:56.89	219.87	14.10	
2025-01-11 19:53:57.10	219.90	14.12	
2025-01-11 19:53:57.30	219.93	14.14	
2025-01-11 19:53:57.51	219.97	14.15	
2025-01-11 19:53:57.71	220.00	14.17	
2025-01-11 19:53:57.92	220.03	14.19	
2025-01-11 19:53:58.13	220.07	14.21	
2025-01-11 19:53:58.33	220.10	14.22	
2025-01-11 19:53:58.54	220.13	14.24	
2025-01-11 19:53:58.74	220.17	14.26	
2025-01-11 19:53:58.94	220.20	14.27	
2025-01-11 19:53:59.15	220.23	14.29	
2025-01-11 19:53:59.36	220.27	14.31	
2025-01-11 19:53:59.56	220.30	14.32	
2025-01-11 19:53:59.77	220.34	14.34	
2025-01-11 19:53:59.97	220.37	14.36	
2025-01-11 19:54:00.18	220.40	14.38	
2025-01-11 19:54:00.38	220.44	14.39	
2025-01-11 19:54:00.59	220.47	14.41	
2025-01-11 19:54:00.79	220.51	14.43	
2025-01-11 19:54:01.00	220.54	14.44	
2025-01-11 19:54:01.20	220.57	14.46	
2025-01-11 19:54:01.41	220.61	14.48	
2025-01-11 19:54:01.62	220.64	14.50	
2025-01-11 19:54:01.82	220.68	14.51	
2025-01-11 19:54:02.03	220.71	14.53	
2025-01-11 19:54:02.23	220.75	14.55	
2025-01-11 19:54:02.44	220.78	14.56	
2025-01-11 19:54:02.64	220.81	14.58	
2025-01-11 19:54:02.85	220.85	14.60	
2025-01-11 19:54:03.05	220.88	14.61	
2025-01-11 19:54:03.26	220.92	14.63	
2025-01-11 19:54:03.46	220.95	14.65	
2025-01-11 19:54:03.67	220.99	14.67	
2025-01-11 19:54:03.87	221.02	14.68	
2025-01-11 19:54:04.08	221.06	14.70	
2025-01-11 19:54:04.28	221.09	14.72	
2025-01-11 19:54:04.49	221.13	14.73	
2025-01-11 19:54:04.69	221.16	14.75	
2025-01-11 19:54:04.90	221.20	14.77	
2025-01-11 19:54:05.10	221.23	14.79	
2025-01-11 19:54:05.32	221.27	14.80	
2025-01-11 19:54:05.53	221.30	14.82	
2025-01-11 19:54:05.73	221.34	14.84	
2025-01-11 19:54:05.94	221.37	14.86	
2025-01-11 19:54:06.14	221.41	14.87	
2025-01-11 19:54:06.34	221.44	14.89	
2025-01-11 19:54:06.55	221.48	14.91	
2025-01-11 19:54:06.75	221.51	14.92	
2025-01-11 19:54:06.96	221.55	14.94	
2025-01-11 19:54:07.16	221.58	14.96	
2025-01-11 19:54:07.37	221.62	14.98	
2025-01-11 19:54:07.57	221.65	14.99	
2025-01-11 19:54:07.77	221.69	15.01	
2025-01-11 19:54:07.98	221.72	15.03	
2025-01-11 19:54:08.19	221.76	15.04	
2025-01-11 19:54:08.39	221.79	15.06	
2025-01-11 19:54:08.60	221.83	15.08	
2025-01-11 19:54:08.80	221.87	15.09	
2025-01-11 19:54:09.01	221.90	15.11	
2025-01-11 19:54:09.21	221.94	15.13	
2025-01-11 19:54:09.42	221.97	15.15	
2025-01-11 19:54:09.62	222.01	15.16	
2025-01-11 19:54:09.83	222.05	15.18	
2025-01-11 19:54:10.03	222.08	15.20	
2025-01-11 19:54:10.24	222.12	15.22	
2025-01-11 19:54:10.45	222.15	15.23	
2025-01-11 19:54:10.65	222.19	15.25	
2025-01-11 19:54:10.86	222.23	15.27	
2025-01-11 19:54:11.06	222.26	15.28	
2025-01-11 19:54:11.27	222.30	15.30	
2025-01-11 19:54:11.47	222.33	15.32	
2025-01-11 19:54:11.69	222.37	15.34	
2025-01-11 19:54:11.90	222.41	15.36	
2025-01-11 19:54:12.10	222.44	15.37	
2025-01-11 19:54:12.31	222.48	15.39	
2025-01-11 19:54:12.51	222.52	15.41	
2025-01-11 19:54:12.73	222.56	15.43	
2025-01-11 19:54:12.94	222.59	15.44	
2025-01-11 19:54:13.14	222.63	15.46	
2025-01-11 19:54:13.35	222.67	15.48	
2025-01-11 19:54:13.56	222.70	15.50	
2025-01-11 19:54:13.77	222.74	15.51	
2025-01-11 19:54:13.98	222.78	15.53	
2025-01-11 19:54:14.18	222.82	15.55	
2025-01-11 19:54:14.39	222.85	15.56	
2025-01-11 19:54:14.59	222.89	15.58	
2025-01-11 19:54:14.80	222.93	15.60	
2025-01-11 19:54:15.00	222.96	15.62	
2025-01-11 19:54:15.21	223.00	15.63	
2025-01-11 19:54:15.41	223.04	15.65	
2025-01-11 19:54:15.62	223.08	15.67	
2025-01-11 19:54:15.82	223.11	15.69	
2025-01-11 19:54:16.03	223.15	15.70	
2025-01-11 19:54:16.23	223.19	15.72	
2025-01-11 19:54:16.44	223.22	15.74	
2025-01-11 19:54:16.64	223.26	15.75	
2025-01-11 19:54:16.85	223.30	15.77	
2025-01-11 19:54:17.05	223.33	15.79	
2025-01-11 19:54:17.26	223.37	15.81	
2025-01-11 19:54:17.46	223.41	15.82	
2025-01-11 19:54:17.67	223.45	15.84	
2025-01-11 19:54:17.87	223.48	15.86	
2025-01-11 19:54:18.08	223.52	15.88	
2025-01-11 19:54:18.28	223.56	15.89	
2025-01-11 19:54:18.49	223.60	15.91	
2025-01-11 19:54:18.69	223.64	15.93	
2025-01-11 19:54:18.90	223.67	15.95	
2025-01-11 19:54:19.10	223.71	15.96	
2025-01-11 19:54:19.30	223.75	15.98	
2025-01-11 19:54:19.51	223.79	16.00	
2025-01-11 19:54:19.72	223.83	16.02	
2025-01-11 19:54:19.92	223.86	16.03	
2025-01-11 19:54:20.13	223.90	16.05	
2025-01-11 19:54:20.33	223.94	16.07	
2025-01-11 19:54:20.54	223.98	16.08	
2025-01-11 19:54:20.74	224.02	16.10	
2025-01-11 19:54:20.95	224.05	16.12	
2025-01-11 19:54:21.15	224.09	16.14	
2025-01-11 19:54:21.36	224.13	16.15	
2025-01-11 19:54:21.56	224.17	16.17	
2025-01-11 19:54:21.77	224.21	16.19	
2025-01-11 19:54:21.97	224.25	16.21	
2025-01-11 19:54:22.18	224.28	16.22	
2025-01-11 19:54:22.38	224.32	16.24	
2025-01-11 19:54:22.58	224.36	16.26	
2025-01-11 19:54:22.79	224.40	16.28	
2025-01-11 19:54:23.00	224.44	16.29	
2025-01-11 19:54:23.20	224.48	16.31	
2025-01-11 19:54:23.40	224.51	16.33	
2025-01-11 19:54:23.61	224.55	16.34	
2025-01-11 19:54:23.82	224.59	16.36	
2025-01-11 19:54:24.02	224.63	16.38	
2025-01-11 19:54:24.23	224.67	16.40	
2025-01-11 19:54:24.43	224.71	16.41	
2025-01-11 19:54:24.64	224.75	16.43	
2025-01-11 19:54:24.84	224.79	16.45	
2025-01-11 19:54:25.05	224.83	16.47	
2025-01-11 19:54:25.25	224.87	16.48	
2025-01-11 19:54:25.46	224.91	16.50	
2025-01-11 19:54:25.66	224.95	16.52	
2025-01-11 19:54:25.87	224.99	16.54	
2025-01-11 19:54:26.07	225.02	16.55	
2025-01-11 19:54:26.28	225.06	16.57	
2025-01-11 19:54:26.49	225.10	16.59	
2025-01-11 19:54:26.69	225.14	16.61	
2025-01-11 19:54:26.90	225.18	16.62	
2025-01-11 19:54:27.10	225.22	16.64	
2025-01-11 19:54:27.31	225.26	16.66	
2025-01-11 19:54:27.51	225.30	16.68	
2025-01-11 19:54:27.72	225.34	16.69	
2025-01-11 19:54:27.92	225.38	16.71	
2025-01-11 19:54:28.13	225.42	16.73	
2025-01-11 19:54:28.33	225.46	16.75	
2025-01-11 19:54:28.54	225.50	16.76	
2025-01-11 19:54:28.74	225.54	16.78	
2025-01-11 19:54:28.95	225.58	16.80	
2025-01-11 19:54:29.15	225.62	16.81	
2025-01-11 19:54:29.36	225.66	16.83	
2025-01-11 19:54:29.56	225.70	16.85	
2025-01-11 19:54:29.78	225.74	16.87	
2025-01-11 19:54:29.99	225.79	16.89	
2025-01-11 19:54:30.19	225.83	16.90	
2025-01-11 19:54:30.39	225.87	16.92	
2025-01-11 19:54:30.60	225.91	16.94	
2025-01-11 19:54:30.80	225.95	16.96	
2025-01-11 19:54:31.01	225.99	16.97	
2025-01-11 19:54:31.21	226.03	16.99	
2025-01-11 19:54:31.42	226.07	17.01	
2025-01-11 19:54:31.63	226.11	17.03	
2025-01-11 19:54:31.83	226.15	17.04	
2025-01-11 19:54:32.04	226.19	17.06	
2025-01-11 19:54:32.24	226.23	17.08	
2025-01-11 19:54:32.45	226.27	17.10	
2025-01-11 19:54:32.65	226.31	17.11	
2025-01-11 19:54:32.86	226.36	17.13	
2025-01-11 19:54:33.06	226.40	17.15	
2025-01-11 19:54:33.27	226.44	17.17	
2025-01-11 19:54:33.47	226.48	17.18	
2025-01-11 19:54:33.68	226.52	17.20	
2025-01-11 19:54:33.88	226.56	17.22	
2025-01-11 19:54:34.10	226.60	17.24	
2025-01-11 19:54:34.31	226.65	17.25	
2025-01-11 19:54:34.51	226.69	17.27	
2025-01-11 19:54:34.72	226.73	17.29	
2025-01-11 19:54:34.92	226.77	17.31	
2025-01-11 19:54:35.14	226.81	17.32	
2025-01-11 19:54:35.35	226.86	17.34	
2025-01-11 19:54:35.55	226.90	17.36	
2025-01-11 19:54:35.76	226.94	17.38	
2025-01-11 19:54:35.97	226.98	17.39	
2025-01-11 19:54:36.17	227.02	17.41	
2025-01-11 19:54:36.37	227.06	17.43	
2025-01-11 19:54:36.58	227.11	17.45	
2025-01-11 19:54:36.78	227.15	17.46	
2025-01-11 19:54:36.99	227.19	17.48	
2025-01-11 19:54:37.20	227.23	17.50	
2025-01-11 19:54:37.41	227.28	17.52	
2025-01-11 19:54:37.62	227.32	17.53	
2025-01-11 19:54:37.82	227.36	17.55	
2025-01-11 19:54:38.03	227.41	17.57	
2025-01-11 19:54:38.23	227.45	17.59	
2025-01-11 19:54:38.44	227.49	17.60	
2025-01-11 19:54:38.64	227.53	17.62	
2025-01-11 19:54:38.85	227.57	17.64	
2025-01-11 19:54:39.05	227.62	17.66	
2025-01-11 19:54:39.26	227.66	17.67	
2025-01-11 19:54:39.46	227.70	17.69	
2025-01-11 19:54:39.67	227.74	17.71	
2025-01-11 19:54:39.87	227.79	17.73	
2025-01-11 19:54:40.08	227.83	17.74	
2025-01-11 19:54:40.29	227.87	17.76	
2025-01-11 19:54:40.49	227.92	17.78	
2025-01-11 19:54:40.70	227.96	17.80	
2025-01-11 19:54:40.90	228.00	17.81	
2025-01-11 19:54:41.11	228.05	17.83	
2025-01-11 19:54:41.31	228.09	17.85	
2025-01-11 19:54:41.52	228.13	17.87	
2025-01-11 19:54:41.72	228.17	17.88	
2025-01-11 19:54:41.93	228.22	17.90	
2025-01-11 19:54:42.14	228.26	17.92	
2025-01-11 19:54:42.34	228.30	17.94	
2025-01-11 19:54:42.55	228.35	17.95	
2025-01-11 19:54:42.75	228.39	17.97	
2025-01-11 19:54:42.96	228.44	17.99	
2025-01-11 19:54:43.16	228.48	18.01	
2025-01-11 19:54:43.37	228.52	18.02	
2025-01-11 19:54:43.57	228.57	18.04	
2025-01-11 19:54:43.78	228.61	18.06	
2025-01-11 19:54:43.98	228.65	18.07	
2025-01-11 19:54:44.19	228.70	18.09	
2025-01-11 19:54:44.39	228.74	18.11	
2025-01-11 19:54:44.60	228.79	18.13	
2025-01-11 19:54:44.80	228.83	18.14	
2025-01-11 19:54:45.01	228.87	18.16	
2025-01-11 19:54:45.22	228.92	18.18	
2025-01-11 19:54:45.42	228.96	18.20	
2025-01-11 19:54:45.63	229.01	18.21	
2025-01-11 19:54:45.85	229.05	18.23	
2025-01-11 19:54:46.05	229.10	18.25	
2025-01-11 19:54:46.26	229.14	18.27	
2025-01-11 19:54:46.46	229.19	18.29	
2025-01-11 19:54:46.67	229.23	18.30	
2025-01-11 19:54:46.87	229.27	18.32	
2025-01-11 19:54:47.08	229.32	18.34	
2025-01-11 19:54:47.28	229.36	18.35	
2025-01-11 19:54:47.49	229.41	18.37	
2025-01-11 19:54:47.69	229.45	18.39	
2025-01-11 19:54:47.90	229.50	18.41	
2025-01-11 19:54:48.10	229.54	18.42	
2025-01-11 19:54:48.31	229.59	18.44	
2025-01-11 19:54:48.52	229.63	18.46	
2025-01-11 19:54:48.72	229.68	18.48	
2025-01-11 19:54:48.92	229.72	18.49	
2025-01-11 19:54:49.13	229.77	18.51	
2025-01-11 19:54:49.33	229.81	18.53	
2025-01-11 19:54:49.54	229.86	18.55	
2025-01-11 19:54:49.74	229.90	18.56	
2025-01-11 19:54:49.95	229.95	18.58	
2025-01-11 19:54:50.15	229.99	18.60	
2025-01-11 19:54:50.36	230.04	18.61	
2025-01-11 19:54:50.57	230.09	18.63	
2025-01-11 19:54:50.77	230.13	18.65	
2025-01-11 19:54:50.98	230.18	18.67	
2025-01-11 19:54:51.18	230.22	18.68	
2025-01-11 19:54:51.39	230.27	18.70	
2025-01-11 19:54:51.59	230.31	18.72	
2025-01-11 19:54:51.80	230.36	18.74	
2025-01-11 19:54:52.00	230.40	18.75	
2025-01-11 19:54:52.21	230.45	18.77	
2025-01-11 19:54:52.41	230.50	18.79	
2025-01-11 19:54:52.62	230.54	18.81	
2025-01-11 19:54:52.82	230.59	18.82	
2025-01-11 19:54:53.03	230.63	18.84	
2025-01-11 19:54:53.23	230.68	18.86	
2025-01-11 19:54:53.44	230.73	18.87	
2025-01-11 19:54:53.64	230.77	18.89	
2025-01-11 19:54:53.85	230.82	18.91	
2025-01-11 19:54:54.05	230.86	18.93	
2025-01-11 19:54:54.26	230.91	18.94	
2025-01-11 19:54:54.46	230.96	18.96	
2025-01-11 19:54:54.67	231.00	18.98	
2025-01-11 19:54:54.87	231.05	18.99	
2025-01-11 19:54:55.08	231.10	19.01	
2025-01-11 19:54:55.28	231.14	19.03	
2025-01-11 19:54:55.49	231.19	19.05	
2025-01-11 19:54:55.69	231.24	19.06	
2025-01-11 19:54:55.90	231.28	19.08	
2025-01-11 19:54:56.10	231.33	19.10	
2025-01-11 19:54:56.31	231.38	19.11	
2025-01-11 19:54:56.51	231.42	19.13	
2025-01-11 19:54:56.72	231.47	19.15	
2025-01-11 19:54:56.92	231.52	19.17	
2025-01-11 19:54:57.13	231.57	19.18	
2025-01-11 19:54:57.33	231.61	19.20	
2025-01-11 19:54:57.54	231.66	19.22	
2025-01-11 19:54:57.74	231.71	19.23	
2025-01-11 19:54:57.95	231.76	19.25	
2025-01-11 19:54:58.15	231.80	19.27	
2025-01-11 19:54:58.36	231.85	19.29	
2025-01-11 19:54:58.56	231.90	19.30	
2025-01-11 19:54:58.77	231.95	19.32	
2025-01-11 19:54:58.97	231.99	19.34	
2025-01-11 19:54:59.18	232.04	19.35	
2025-01-11 19:54:59.39	232.09	19.37	
2025-01-11 19:54:59.59	232.14	19.39	
2025-01-11 19:54:59.79	232.18	19.41	
2025-01-11 19:55:00.00	232.23	19.42	
2025-01-11 19:55:00.20	232.28	19.44	
2025-01-11 19:55:00.41	232.33	19.46	
2025-01-11 19:55:00.61	232.37	19.47	
2025-01-11 19:55:00.82	232.42	19.49	
2025-01-11 19:55:01.02	232.47	19.51	
2025-01-11 19:55:01.23	232.52	19.53	
2025-01-11 19:55:01.43	232.57	19.54	
2025-01-11 19:55:01.64	232.62	19.56	
2025-01-11 19:55:01.84	232.66	19.58	
2025-01-11 19:55:02.05	232.71	19.59	
2025-01-11 19:55:02.25	232.76	19.61	
2025-01-11 19:55:02.46	232.81	19.63	
2025-01-11 19:55:02.67	232.86	19.65	
2025-01-11 19:55:02.87	232.91	19.66	
2025-01-11 19:55:03.07	232.96	19.68	
2025-01-11 19:55:03.28	233.01	19.70	
2025-01-11 19:55:03.48	233.05	19.71	
2025-01-11 19:55:03.69	233.10	19.73	
2025-01-11 19:55:03.89	233.15	19.75	
2025-01-11 19:55:04.10	233.20	19.76	
2025-01-11 19:55:04.31	233.25	19.78	
2025-01-11 19:55:04.51	233.30	19.80	
2025-01-11 19:55:04.71	233.35	19.81	
2025-01-11 19:55:04.92	233.40	19.83	
2025-01-11 19:55:05.12	233.45	19.85	
2025-01-11 19:55:05.33	233.50	19.86	
2025-01-11 19:55:05.54	233.55	19.88	
2025-01-11 19:55:05.74	233.59	19.90	
2025-01-11 19:55:05.95	233.65	19.92	
2025-01-11 19:55:06.15	233.69	19.93	
2025-01-11 19:55:06.36	233.74	19.95	
2025-01-11 19:55:06.56	233.79	19.97	
2025-01-11 19:55:06.77	233.84	19.98	
2025-01-11 19:55:06.98	233.90	20.00	
2025-01-11 19:55:07.19	233.95	20.02	
2025-01-11 19:55:07.40	234.00	20.04	
2025-01-11 19:55:07.60	234.05	20.05	
2025-01-11 19:55:07.81	234.10	20.07	
2025-01-11 19:55:08.01	234.15	20.09	
2025-01-11 19:55:08.22	234.20	20.10	
2025-01-11 19:55:08.42	234.25	20.12	
2025-01-11 19:55:08.63	234.30	20.14	
2025-01-11 19:55:08.83	234.35	20.15	
2025-01-11 19:55:09.04	234.40	20.17	
2025-01-11 19:55:09.24	234.45	20.19	
2025-01-11 19:55:09.45	234.50	20.20	
2025-01-11 19:55:09.65	234.55	20.22	
2025-01-11 19:55:09.86	234.60	20.24	
2025-01-11 19:55:10.06	234.65	20.25	
2025-01-11 19:55:10.27	234.70	20.27	
2025-01-11 19:55:10.47	234.75	20.29	
2025-01-11 19:55:10.68	234.80	20.30	
2025-01-11 19:55:10.88	234.85	20.32	
2025-01-11 19:55:11.09	234.90	20.34	
2025-01-11 19:55:11.29	234.95	20.35	
2025-01-11 19:55:11.50	235.01	20.37	
2025-01-11 19:55:11.70	235.06	20.39	
2025-01-11 19:55:11.91	235.11	20.40	
2025-01-11 19:55:12.11	235.16	20.42	
2025-01-11 19:55:12.32	235.21	20.44	
2025-01-11 19:55:12.52	235.26	20.45	
2025-01-11 19:55:12.73	235.31	20.47	
2025-01-11 19:55:12.93	235.36	20.49	
2025-01-11 19:55:13.14	235.42	20.50	
2025-01-11 19:55:13.35	235.47	20.52	
2025-01-11 19:55:13.56	235.52	20.54	
2025-01-11 19:55:13.77	235.58	20.55	
2025-01-11 19:55:13.97	235.63	20.57	
2025-01-11 19:55:14.18	235.68	20.59	
2025-01-11 19:55:14.39	235.73	20.60	
2025-01-11 19:55:14.59	235.78	20.62	
2025-01-11 19:55:14.80	235.84	20.64	
2025-01-11 19:55:15.00	235.89	20.65	
2025-01-11 19:55:15.21	235.94	20.67	
2025-01-11 19:55:15.41	235.99	20.68	
2025-01-11 19:55:15.62	236.04	20.70	
2025-01-11 19:55:15.82	236.10	20.72	
2025-01-11 19:55:16.03	236.15	20.73	
2025-01-11 19:55:16.23	236.20	20.75	
2025-01-11 19:55:16.44	236.25	20.77	
2025-01-11 19:55:16.64	236.30	20.78	
2025-01-11 19:55:16.85	236.36	20.80	
2025-01-11 19:55:17.05	236.41	20.82	
2025-01-11 19:55:17.26	236.46	20.83	
2025-01-11 19:55:17.46	236.51	20.85	
2025-01-11 19:55:17.67	236.57	20.87	
2025-01-11 19:55:17.87	236.62	20.88	
2025-01-11 19:55:18.08	236.67	20.90	
2025-01-11 19:55:18.28	236.73	20.91	
2025-01-11 19:55:18.49	236.78	20.93	
2025-01-11 19:55:18.70	236.83	20.95	
2025-01-11 19:55:18.90	236.89	20.96	
2025-01-11 19:55:19.10	236.94	20.98	
2025-01-11 19:55:19.31	236.99	21.00	
2025-01-11 19:55:19.52	237.05	21.01	
2025-01-11 19:55:19.72	237.10	21.03	
2025-01-11 19:55:19.94	237.16	21.05	
2025-01-11 19:55:20.15	237.21	21.06	
2025-01-11 19:55:20.35	237.26	21.08	
2025-01-11 19:55:20.56	237.32	21.09	
2025-01-11 19:55:20.76	237.37	21.11	
2025-01-11 19:55:20.98	237.43	21.13	
2025-01-11 19:55:21.19	237.48	21.14	
2025-01-11 19:55:21.39	237.54	21.16	
2025-01-11 19:55:21.59	237.59	21.18	
2025-01-11 19:55:21.80	237.64	21.19	
2025-01-11 19:55:22.01	237.70	21.21	
2025-01-11 19:55:22.21	237.75	21.22	
2025-01-11 19:55:22.42	237.81	21.24	
2025-01-11 19:55:22.62	237.86	21.26	
2025-01-11 19:55:22.83	237.92	21.27	
2025-01-11 19:55:23.03	237.97	21.29	
2025-01-11 19:55:23.24	238.02	21.30	
2025-01-11 19:55:23.44	238.08	21.32	
2025-01-11 19:55:23.65	238.13	21.34	
2025-01-11 19:55:23.86	238.19	21.35	
2025-01-11 19:55:24.06	238.24	21.37	
2025-01-11 19:55:24.26	238.29	21.38	
2025-01-11 19:55:24.47	238.35	21.40	
2025-01-11 19:55:24.67	238.40	21.41	
2025-01-11 19:55:24.88	238.46	21.43	
2025-01-11 19:55:25.08	238.51	21.45	
2025-01-11 19:55:25.29	238.57	21.46	
2025-01-11 19:55:25.49	238.62	21.48	
2025-01-11 19:55:25.70	238.68	21.49	
2025-01-11 19:55:25.90	238.73	21.51	
2025-01-11 19:55:26.11	238.79	21.53	
2025-01-11 19:55:26.31	238.84	21.54	
2025-01-11 19:55:26.52	238.90	21.56	
2025-01-11 19:55:26.72	238.95	21.57	
2025-01-11 19:55:26.93	239.01	21.59	
2025-01-11 19:55:27.13	239.06	21.60	
2025-01-11 19:55:27.35	239.12	21.62	
2025-01-11 19:55:27.56	239.18	21.64	
2025-01-11 19:55:27.76	239.24	21.65	
2025-01-11 19:55:27.97	239.29	21.67	
2025-01-11 19:55:28.17	239.35	21.68	
2025-01-11 19:55:28.38	239.40	21.70	
2025-01-11 19:55:28.58	239.46	21.71	
2025-01-11 19:55:28.79	239.52	21.73	
2025-01-11 19:55:28.99	239.57	21.75	
2025-01-11 19:55:29.20	239.63	21.76	
2025-01-11 19:55:29.40	239.68	21.78	
2025-01-11 19:55:29.61	239.74	21.79	
2025-01-11 19:55:29.81	239.79	21.81	
2025-01-11 19:55:30.02	239.85	21.82	
2025-01-11 19:55:30.22	239.91	21.84	
2025-01-11 19:55:30.43	239.96	21.85	
2025-01-11 19:55:30.64	240.02	21.87	
2025-01-11 19:55:30.85	240.08	21.89	
2025-01-11 19:55:31.06	240.14	21.90	
2025-01-11 19:55:31.26	240.19	21.92	
2025-01-11 19:55:31.47	240.25	21.93	
2025-01-11 19:55:31.67	240.31	21.95	
2025-01-11 19:55:31.88	240.36	21.96	
2025-01-11 19:55:32.08	240.42	21.98	
2025-01-11 19:55:32.29	240.48	21.99	
2025-01-11 19:55:32.49	240.53	22.01	
2025-01-11 19:55:32.70	240.59	22.02	
2025-01-11 19:55:32.90	240.65	22.04	
2025-01-11 19:55:33.11	240.71	22.05	
2025-01-11 19:55:33.32	240.76	22.07	
2025-01-11 19:55:33.52	240.82	22.08	
2025-01-11 19:55:33.72	240.88	22.10	
2025-01-11 19:55:33.93	240.93	22.12	
2025-01-11 19:55:34.14	240.99	22.13	
2025-01-11 19:55:34.34	241.05	22.15	
2025-01-11 19:55:34.55	241.11	22.16	
2025-01-11 19:55:34.75	241.16	22.18	
2025-01-11 19:55:34.96	241.22	22.19	
2025-01-11 19:55:35.16	241.28	22.21	
2025-01-11 19:55:35.37	241.34	22.22	
2025-01-11 19:55:35.59	241.40	22.24	
2025-01-11 19:55:35.79	241.46	22.25	
2025-01-11 19:55:36.00	241.52	22.27	
2025-01-11 19:55:36.20	241.57	22.28	
2025-01-11 19:55:36.41	241.63	22.30	
2025-01-11 19:55:36.61	241.69	22.31	
2025-01-11 19:55:36.82	241.75	22.33	
2025-01-11 19:55:37.02	241.81	22.34	
2025-01-11 19:55:37.23	241.86	22.36	
2025-01-11 19:55:37.43	241.92	22.37	
2025-01-11 19:55:37.64	241.98	22.39	
2025-01-11 19:55:37.85	242.04	22.40	
2025-01-11 19:55:38.05	242.10	22.42	
2025-01-11 19:55:38.26	242.16	22.43	
2025-01-11 19:55:38.46	242.22	22.44	
2025-01-11 19:55:38.67	242.28	22.46	
2025-01-11 19:55:38.87	242.33	22.47	
2025-01-11 19:55:39.08	242.39	22.49	
2025-01-11 19:55:39.28	242.45	22.50	
2025-01-11 19:55:39.49	242.51	22.52	
2025-01-11 19:55:39.69	242.57	22.53	
2025-01-11 19:55:39.90	242.63	22.55	
2025-01-11 19:55:40.10	242.69	22.56	
2025-01-11 19:55:40.31	242.75	22.58	
2025-01-11 19:55:40.51	242.80	22.59	
2025-01-11 19:55:40.72	242.86	22.61	
2025-01-11 19:55:40.93	242.92	22.62	
2025-01-11 19:55:41.13	242.98	22.63	
2025-01-11 19:55:41.34	243.04	22.65	
2025-01-11 19:55:41.54	243.10	22.66	
2025-01-11 19:55:41.75	243.16	22.68	
2025-01-11 19:55:41.95	243.22	22.69	
2025-01-11 19:55:42.16	243.28	22.71	
2025-01-11 19:55:42.36	243.34	22.72	
2025-01-11 19:55:42.57	243.40	22.74	
2025-01-11 19:55:42.77	243.46	22.75	
2025-01-11 19:55:42.98	243.52	22.76	
2025-01-11 19:55:43.19	243.58	22.78	
2025-01-11 19:55:43.39	243.64	22.79	
2025-01-11 19:55:43.59	243.70	22.81	
2025-01-11 19:55:43.80	243.76	22.82	
2025-01-11 19:55:44.01	243.82	22.83	
2025-01-11 19:55:44.21	243.88	22.85	
2025-01-11 19:55:44.42	243.94	22.86	
2025-01-11 19:55:44.62	244.00	22.88	
2025-01-11 19:55:44.83	244.06	22.89	
2025-01-11 19:55:45.03	244.12	22.90	
2025-01-11 19:55:45.24	244.18	22.92	
2025-01-11 19:55:45.44	244.24	22.93	
2025-01-11 19:55:45.64	244.30	22.95	
2025-01-11 19:55:45.85	244.36	22.96	
2025-01-11 19:55:46.06	244.43	22.98	
2025-01-11 19:55:46.26	244.48	22.99	
2025-01-11 19:55:46.47	244.55	23.00	
2025-01-11 19:55:46.67	244.61	23.02	
2025-01-11 19:55:46.87	244.67	23.03	
2025-01-11 19:55:47.08	244.73	23.04	
2025-01-11 19:55:47.29	244.79	23.06	
2025-01-11 19:55:47.49	244.85	23.07	
2025-01-11 19:55:47.70	244.91	23.09	
2025-01-11 19:55:47.90	244.97	23.10	
2025-01-11 19:55:48.11	245.03	23.11	
2025-01-11 19:55:48.31	245.09	23.13	
2025-01-11 19:55:48.51	245.15	23.14	
2025-01-11 19:55:48.72	245.22	23.15	
2025-01-11 19:55:48.92	245.28	23.17	
2025-01-11 19:55:49.13	245.34	23.18	
2025-01-11 19:55:49.34	245.40	23.19	
2025-01-11 19:55:49.54	245.46	23.21	
2025-01-11 19:55:49.74	245.52	23.22	
2025-01-11 19:55:49.95	245.59	23.23	
2025-01-11 19:55:50.16	245.65	23.25	
2025-01-11 19:55:50.36	245.71	23.26	
2025-01-11 19:55:50.57	245.77	23.27	
2025-01-11 19:55:50.77	245.83	23.29	
2025-01-11 19:55:50.97	245.89	23.30	
2025-01-11 19:55:51.18	245.96	23.31	
2025-01-11 19:55:51.38	246.02	23.33	
2025-01-11 19:55:51.59	246.08	23.34	
2025-01-11 19:55:51.79	246.14	23.35	
2025-01-11 19:55:52.00	246.21	23.37	
2025-01-11 19:55:52.20	246.27	23.38	
2025-01-11 19:55:52.41	246.33	23.39	
2025-01-11 19:55:52.61	246.39	23.41	
2025-01-11 19:55:52.82	246.45	23.42	
2025-01-11 19:55:53.02	246.52	23.43	
2025-01-11 19:55:53.23	246.58	23.45	
2025-01-11 19:55:53.44	246.64	23.46	
2025-01-11 19:55:53.64	246.70	23.47	
2025-01-11 19:55:53.85	246.77	23.48	
2025-01-11 19:55:54.05	246.83	23.50	
2025-01-11 19:55:54.26	246.89	23.51	
2025-01-11 19:55:54.46	246.96	23.52	
2025-01-11 19:55:54.67	247.02	23.54	
2025-01-11 19:55:54.87	247.08	23.55	
2025-01-11 19:55:55.08	247.15	23.56	
2025-01-11 19:55:55.28	247.21	23.57	
2025-01-11 19:55:55.49	247.27	23.59	
2025-01-11 19:55:55.69	247.33	23.60	
2025-01-11 19:55:55.90	247.40	23.61	
2025-01-11 19:55:56.10	247.46	23.63	
2025-01-11 19:55:56.30	247.52	23.64	
2025-01-11 19:55:56.51	247.59	23.65	
2025-01-11 19:55:56.72	247.65	23.66	
2025-01-11 19:55:56.92	247.71	23.68	
2025-01-11 19:55:57.13	247.78	23.69	
2025-01-11 19:55:57.33	247.84	23.70	
2025-01-11 19:55:57.54	247.91	23.71	
2025-01-11 19:55:57.74	247.97	23.73	
2025-01-11 19:55:57.95	248.03	23.74	
2025-01-11 19:55:58.15	248.10	23.75	
2025-01-11 19:55:58.36	248.16	23.76	
2025-01-11 19:55:58.56	248.22	23.77	
2025-01-11 19:55:58.77	248.29	23.79	
2025-01-11 19:55:58.97	248.35	23.80	
2025-01-11 19:55:59.18	248.42	23.81	
2025-01-11 19:55:59.38	248.48	23.82	
2025-01-11 19:55:59.59	248.55	23.84	
2025-01-11 19:55:59.80	248.61	23.85	
2025-01-11 19:56:00.00	248.67	23.86	
2025-01-11 19:56:00.21	248.74	23.87	
2025-01-11 19:56:00.41	248.80	23.88	
2025-01-11 19:56:00.61	248.86	23.90	
2025-01-11 19:56:00.82	248.93	23.91	
2025-01-11 19:56:01.03	249.00	23.92	
2025-01-11 19:56:01.23	249.06	23.93	
2025-01-11 19:56:01.44	249.13	23.94	
2025-01-11 19:56:01.64	249.19	23.96	
2025-01-11 19:56:01.85	249.26	23.97	
2025-01-11 19:56:02.05	249.32	23.98	
2025-01-11 19:56:02.26	249.38	23.99	
2025-01-11 19:56:02.46	249.45	24.00	
2025-01-11 19:56:02.67	249.51	24.01	
2025-01-11 19:56:02.87	249.58	24.03	
2025-01-11 19:56:03.08	249.64	24.04	
2025-01-11 19:56:03.28	249.71	24.05	
2025-01-11 19:56:03.49	249.77	24.06	
2025-01-11 19:56:03.69	249.84	24.07	
2025-01-11 19:56:03.90	249.90	24.08	
2025-01-11 19:56:04.10	249.97	24.10	
2025-01-11 19:56:04.31	250.04	24.11	
2025-01-11 19:56:04.51	250.10	24.12	
2025-01-11 19:56:04.72	250.17	24.13	
2025-01-11 19:56:04.92	250.23	24.14	
2025-01-11 19:56:05.13	250.30	24.15	
2025-01-11 19:56:05.33	250.36	24.16	
2025-01-11 19:56:05.54	250.43	24.17	
2025-01-11 19:56:05.74	250.49	24.19	
2025-01-11 19:56:05.95	250.56	24.20	
2025-01-11 19:56:06.16	250.63	24.21	
2025-01-11 19:56:06.36	250.69	24.22	
2025-01-11 19:56:06.57	250.76	24.23	
2025-01-11 19:56:06.77	250.82	24.24	
2025-01-11 19:56:06.98	250.89	24.25	
2025-01-11 19:56:07.18	250.95	24.26	
2025-01-11 19:56:07.39	251.02	24.27	
2025-01-11 19:56:07.59	251.09	24.29	
2025-01-11 19:56:07.80	251.15	24.30	
2025-01-11 19:56:08.00	251.22	24.31	
2025-01-11 19:56:08.21	251.29	24.32	
2025-01-11 19:56:08.42	251.35	24.33	
2025-01-11 19:56:08.62	251.42	24.34	
2025-01-11 19:56:08.83	251.49	24.35	
2025-01-11 19:56:09.03	251.55	24.36	
2025-01-11 19:56:09.23	251.62	24.37	
2025-01-11 19:56:09.44	251.68	24.38	
2025-01-11 19:56:09.65	251.75	24.39	
2025-01-11 19:56:09.85	251.82	24.40	
2025-01-11 19:56:10.06	251.89	24.41	
2025-01-11 19:56:10.26	251.95	24.42	
2025-01-11 19:56:10.47	252.02	24.44	
2025-01-11 19:56:10.67	252.08	24.45	
2025-01-11 19:56:10.88	252.15	24.46	
2025-01-11 19:56:11.08	252.22	24.47	
2025-01-11 19:56:11.29	252.29	24.48	
2025-01-11 19:56:11.50	252.35	24.49	
2025-01-11 19:56:11.70	252.42	24.50	
2025-01-11 19:56:11.91	252.49	24.51	
2025-01-11 19:56:12.11	252.55	24.52	
2025-01-11 19:56:12.32	252.62	24.53	
2025-01-11 19:56:12.52	252.69	24.54	
2025-01-11 19:56:12.73	252.76	24.55	
2025-01-11 19:56:12.93	252.82	24.56	
2025-01-11 19:56:13.14	252.89	24.57	
2025-01-11 19:56:13.34	252.96	24.58	
2025-01-11 19:56:13.55	253.03	24.59	
2025-01-11 19:56:13.76	253.09	24.60	
2025-01-11 19:56:13.96	253.16	24.61	
2025-01-11 19:56:14.17	253.23	24.62	
2025-01-11 19:56:14.37	253.30	24.63	
2025-01-11 19:56:14.58	253.36	24.64	
2025-01-11 19:56:14.78	253.43	24.65	
2025-01-11 19:56:14.99	253.50	24.66	
2025-01-11 19:56:15.19	253.57	24.67	
2025-01-11 19:56:15.40	253.64	24.68	
2025-01-11 19:56:15.60	253.70	24.69	
2025-01-11 19:56:15.81	253.77	24.70	
2025-01-11 19:56:16.01	253.84	24.70	
2025-01-11 19:56:16.22	253.91	24.71	
2025-01-11 19:56:16.42	253.97	24.72	
2025-01-11 19:56:16.62	254.04	24.73	
2025-01-11 19:56:16.83	254.11	24.74	
2025-01-11 19:56:17.04	254.18	24.75	
2025-01-11 19:56:17.25	254.25	24.76	
2025-01-11 19:56:17.45	254.31	24.77	
2025-01-11 19:56:17.66	254.38	24.78	
2025-01-11 19:56:17.86	254.45	24.79	
2025-01-11 19:56:18.07	254.52	24.80	
2025-01-11 19:56:18.28	254.59	24.81	
2025-01-11 19:56:18.48	254.66	24.82	
2025-01-11 19:56:18.69	254.73	24.83	
2025-01-11 19:56:18.89	254.79	24.83	
2025-01-11 19:56:19.10	254.86	24.84	
2025-01-11 19:56:19.30	254.93	24.85	
2025-01-11 19:56:19.51	255.00	24.86	
2025-01-11 19:56:19.71	255.07	24.87	
2025-01-11 19:56:19.92	255.14	24.88	
2025-01-11 19:56:20.12	255.21	24.89	
2025-01-11 19:56:20.33	255.28	24.90	
2025-01-11 19:56:20.53	255.34	24.90	
2025-01-11 19:56:20.74	255.41	24.91	
2025-01-11 19:56:20.95	255.48	24.92	
2025-01-11 19:56:21.15	255.55	24.93	
2025-01-11 19:56:21.35	255.62	24.94	
2025-01-11 19:56:21.56	255.69	24.95	
2025-01-11 19:56:21.76	255.76	24.96	
2025-01-11 19:56:21.97	255.83	24.96	
2025-01-11 19:56:22.17	255.89	24.97	
2025-01-11 19:56:22.38	255.96	24.98	
2025-01-11 19:56:22.59	256.04	24.99	
2025-01-11 19:56:22.79	256.10	25.00	
2025-01-11 19:56:23.00	256.17	25.01	
2025-01-11 19:56:23.20	256.24	25.01	
2025-01-11 19:56:23.41	256.31	25.02	
2025-01-11 19:56:23.62	256.38	25.03	
2025-01-11 19:56:23.82	256.45	25.04	
2025-01-11 19:56:24.02	256.52	25.05	
2025-01-11 19:56:24.23	256.59	25.05	
2025-01-11 19:56:24.43	256.66	25.06	
2025-01-11 19:56:24.64	256.73	25.07	
2025-01-11 19:56:24.85	256.80	25.08	
2025-01-11 19:56:25.05	256.87	25.09	
2025-01-11 19:56:25.26	256.94	25.09	
2025-01-11 19:56:25.46	257.01	25.10	
2025-01-11 19:56:25.67	257.08	25.11	
2025-01-11 19:56:25.87	257.15	25.12	
2025-01-11 19:56:26.08	257.22	25.12	
2025-01-11 19:56:26.28	257.29	25.13	
2025-01-11 19:56:26.49	257.36	25.14	
2025-01-11 19:56:26.69	257.43	25.15	
2025-01-11 19:56:26.90	257.50	25.15	
2025-01-11 19:56:27.10	257.56	25.16	
2025-01-11 19:56:27.31	257.64	25.17	
2025-01-11 19:56:27.51	257.70	25.18	
2025-01-11 19:56:27.72	257.78	25.18	
2025-01-11 19:56:27.92	257.84	25.19	
2025-01-11 19:56:28.13	257.92	25.20	
2025-01-11 19:56:28.33	257.98	25.20	
2025-01-11 19:56:28.54	258.06	25.21	
2025-01-11 19:56:28.74	258.12	25.22	
2025-01-11 19:56:28.95	258.20	25.23	
2025-01-11 19:56:29.15	258.27	25.23	
2025-01-11 19:56:29.36	258.34	25.24	
2025-01-11 19:56:29.56	258.41	25.25	
2025-01-11 19:56:29.77	258.48	25.25	
2025-01-11 19:56:29.97	258.55	25.26	
2025-01-11 19:56:30.18	258.62	25.27	
2025-01-11 19:56:30.38	258.69	25.27	
2025-01-11 19:56:30.59	258.76	25.28	
2025-01-11 19:56:30.79	258.83	25.29	
2025-01-11 19:56:31.00	258.90	25.29	
2025-01-11 19:56:31.21	258.97	25.30	
2025-01-11 19:56:31.41	259.04	25.31	
2025-01-11 19:56:31.61	259.11	25.31	
2025-01-11 19:56:31.82	259.18	25.32	
2025-01-11 19:56:32.02	259.25	25.33	
2025-01-11 19:56:32.23	259.32	25.33	
2025-01-11 19:56:32.45	259.40	25.34	
2025-01-11 19:56:32.65	259.47	25.34	
2025-01-11 19:56:32.86	259.54	25.35	
2025-01-11 19:56:33.07	259.61	25.36	
2025-01-11 19:56:33.27	259.68	25.36	
2025-01-11 19:56:33.47	259.75	25.37	
2025-01-11 19:56:33.68	259.82	25.38	
2025-01-11 19:56:33.88	259.89	25.38	
2025-01-11 19:56:34.09	259.97	25.39	
2025-01-11 19:56:34.29	260.03	25.39	
2025-01-11 19:56:34.50	260.11	25.40	
2025-01-11 19:56:34.70	260.18	25.41	
2025-01-11 19:56:34.91	260.25	25.41	
2025-01-11 19:56:35.11	260.32	25.42	
2025-01-11 19:56:35.32	260.39	25.42	
2025-01-11 19:56:35.52	260.46	25.43	
2025-01-11 19:56:35.73	260.53	25.43	
2025-01-11 19:56:35.93	260.60	25.44	
2025-01-11 19:56:36.14	260.68	25.44	
2025-01-11 19:56:36.34	260.75	25.45	
2025-01-11 19:56:36.55	260.82	25.46	
2025-01-11 19:56:36.75	260.89	25.46	
2025-01-11 19:56:36.96	260.96	25.47	
2025-01-11 19:56:37.17	261.03	25.47	
2025-01-11 19:56:37.37	261.10	25.48	
2025-01-11 19:56:37.58	261.18	25.48	
2025-01-11 19:56:37.78	261.25	25.49	
2025-01-11 19:56:37.99	261.32	25.49	
2025-01-11 19:56:38.19	261.39	25.50	
2025-01-11 19:56:38.40	261.46	25.50	
2025-01-11 19:56:38.60	261.53	25.51	
2025-01-11 19:56:38.80	261.60	25.51	
2025-01-11 19:56:39.01	261.67	25.52	
2025-01-11 19:56:39.22	261.75	25.52	
2025-01-11 19:56:39.42	261.82	25.53	
2025-01-11 19:56:39.63	261.89	25.53	
2025-01-11 19:56:39.83	261.96	25.54	
2025-01-11 19:56:40.04	262.03	25.54	
2025-01-11 19:56:40.24	262.10	25.55	
2025-01-11 19:56:40.45	262.18	25.55	
2025-01-11 19:56:40.65	262.25	25.56	
2025-01-11 19:56:40.86	262.32	25.56	
2025-01-11 19:56:41.06	262.39	25.56	
2025-01-11 19:56:41.26	262.46	25.57	
2025-01-11 19:56:41.47	262.53	25.57	
2025-01-11 19:56:41.68	262.61	25.58	
2025-01-11 19:56:41.88	262.68	25.58	
2025-01-11 19:56:42.09	262.75	25.59	
2025-01-11 19:56:42.29	262.82	25.59	
2025-01-11 19:56:42.50	262.89	25.59	
2025-01-11 19:56:42.70	262.96	25.60	
2025-01-11 19:56:42.91	263.04	25.60	
2025-01-11 19:56:43.11	263.11	25.61	
2025-01-11 19:56:43.32	263.18	25.61	
2025-01-11 19:56:43.52	263.25	25.61	
2025-01-11 19:56:43.73	263.33	25.62	
2025-01-11 19:56:43.93	263.40	25.62	
2025-01-11 19:56:44.13	263.47	25.63	
2025-01-11 19:56:44.34	263.54	25.63	
2025-01-11 19:56:44.55	263.61	25.63	
2025-01-11 19:56:44.75	263.68	25.64	
2025-01-11 19:56:44.96	263.76	25.64	
2025-01-11 19:56:45.16	263.83	25.64	
2025-01-11 19:56:45.37	263.90	25.65	
2025-01-11 19:56:45.57	263.97	25.65	
2025-01-11 19:56:45.78	264.05	25.65	
2025-01-11 19:56:45.98	264.12	25.66	
2025-01-11 19:56:46.19	264.19	25.66	
2025-01-11 19:56:46.39	264.26	25.66	
2025-01-11 19:56:46.60	264.33	25.67	
2025-01-11 19:56:46.81	264.41	25.67	
2025-01-11 19:56:47.01	264.48	25.67	
2025-01-11 19:56:47.22	264.55	25.68	
2025-01-11 19:56:47.42	264.62	25.68	
2025-01-11 19:56:47.63	264.70	25.68	
2025-01-11 19:56:47.83	264.77	25.69	
2025-01-11 19:56:48.04	264.84	25.69	
2025-01-11 19:56:48.24	264.91	25.69	
2025-01-11 19:56:48.46	264.99	25.70	
2025-01-11 19:56:48.67	265.06	25.70	
2025-01-11 19:56:48.87	265.13	25.70	
2025-01-11 19:56:49.08	265.21	25.70	
2025-01-11 19:56:49.29	265.28	25.71	
2025-01-11 19:56:49.49	265.35	25.71	
2025-01-11 19:56:49.70	265.43	25.71	
2025-01-11 19:56:49.90	265.50	25.71	
2025-01-11 19:56:50.11	265.57	25.72	
2025-01-11 19:56:50.31	265.64	25.72	
2025-01-11 19:56:50.52	265.72	25.72	
2025-01-11 19:56:50.72	265.79	25.72	
2025-01-11 19:56:50.93	265.86	25.73	
2025-01-11 19:56:51.14	265.94	25.73	
2025-01-11 19:56:51.34	266.01	25.73	
2025-01-11 19:56:51.55	266.08	25.73	
2025-01-11 19:56:51.75	266.15	25.73	
2025-01-11 19:56:51.96	266.23	25.74	
2025-01-11 19:56:52.16	266.30	25.74	
2025-01-11 19:56:52.37	266.37	25.74	
2025-01-11 19:56:52.57	266.44	25.74	
2025-01-11 19:56:52.79	266.52	25.74	
2025-01-11 19:56:52.99	266.59	25.75	
2025-01-11 19:56:53.20	266.66	25.75	
2025-01-11 19:56:53.40	266.74	25.75	
2025-01-11 19:56:53.61	266.81	25.75	
2025-01-11 19:56:53.83	266.89	25.75	
2025-01-11 19:56:54.03	266.96	25.75	
2025-01-11 19:56:54.24	267.03	25.76	
2025-01-11 19:56:54.44	267.10	25.76	
2025-01-11 19:56:54.65	267.18	25.76	
2025-01-11 19:56:54.85	267.25	25.76	
2025-01-11 19:56:55.06	267.32	25.76	
2025-01-11 19:56:55.27	267.40	25.76	
2025-01-11 19:56:55.47	267.47	25.76	
2025-01-11 19:56:55.68	267.54	25.77	
2025-01-11 19:56:55.88	267.61	25.77	
2025-01-11 19:56:56.09	267.69	25.77	
2025-01-11 19:56:56.29	267.76	25.77	
2025-01-11 19:56:56.50	267.83	25.77	
2025-01-11 19:56:56.70	267.90	25.77	
2025-01-11 19:56:56.91	267.98	25.77	
2025-01-11 19:56:57.11	268.05	25.77	
2025-01-11 19:56:57.32	268.12	25.77	
2025-01-11 19:56:57.52	268.19	25.77	
2025-01-11 19:56:57.73	268.27	25.77	
2025-01-11 19:56:57.94	268.34	25.78	
2025-01-11 19:56:58.14	268.41	25.78	
2025-01-11 19:56:58.35	268.49	25.78	
2025-01-11 19:56:58.55	268.56	25.78	
2025-01-11 19:56:58.75	268.63	25.78	
2025-01-11 19:56:58.96	268.71	25.78	
2025-01-11 19:56:59.18	268.78	25.78	
2025-01-11 19:56:59.39	268.86	25.78	
2025-01-11 19:56:59.59	268.93	25.78	
2025-01-11 19:56:59.80	269.00	25.78	
2025-01-11 19:57:00.01	269.08	25.78	
2025-01-11 19:57:00.22	269.15	25.78	
2025-01-11 19:57:00.42	269.22	25.78	
2025-01-11 19:57:00.63	269.30	25.78	
2025-01-11 19:57:00.83	269.37	25.78	
2025-01-11 19:57:01.04	269.44	25.78	
2025-01-11 19:57:01.24	269.51	25.78	
2025-01-11 19:57:01.45	269.59	25.78	
2025-01-11 19:57:01.66	269.66	25.78	
2025-01-11 19:57:01.86	269.73	25.78	
2025-01-11 19:57:02.07	269.81	25.78	
2025-01-11 19:57:02.29	269.89	25.78	
2025-01-11 19:57:02.49	269.96	25.78	
2025-01-11 19:57:02.70	270.03	25.78	
2025-01-11 19:57:02.90	270.10	25.78	
2025-01-11 19:57:03.11	270.18	25.78	
2025-01-11 19:57:03.31	270.25	25.78	
2025-01-11 19:57:03.52	270.32	25.78	
2025-01-11 19:57:03.72	270.39	25.78	
2025-01-11 19:57:03.93	270.47	25.77	
2025-01-11 19:57:04.13	270.54	25.77	
2025-01-11 19:57:04.33	270.61	25.77	
2025-01-11 19:57:04.54	270.68	25.77	
2025-01-11 19:57:04.75	270.76	25.77	
2025-01-11 19:57:04.95	270.83	25.77	
2025-01-11 19:57:05.16	270.90	25.77	
2025-01-11 19:57:05.36	270.97	25.77	
2025-01-11 19:57:05.57	271.05	25.77	
2025-01-11 19:57:05.78	271.12	25.77	
2025-01-11 19:57:05.98	271.19	25.76	
2025-01-11 19:57:06.19	271.27	25.76	
2025-01-11 19:57:06.39	271.34	25.76	
2025-01-11 19:57:06.60	271.41	25.76	
2025-01-11 19:57:06.80	271.48	25.76	
2025-01-11 19:57:07.01	271.56	25.76	
2025-01-11 19:57:07.21	271.63	25.76	
2025-01-11 19:57:07.42	271.70	25.76	
2025-01-11 19:57:07.62	271.77	25.75	
2025-01-11 19:57:07.83	271.85	25.75	
2025-01-11 19:57:08.03	271.92	25.75	
2025-01-11 19:57:08.24	271.99	25.75	
2025-01-11 19:57:08.44	272.06	25.75	
2025-01-11 19:57:08.65	272.14	25.75	
2025-01-11 19:57:08.85	272.21	25.74	
2025-01-11 19:57:09.06	272.28	25.74	
2025-01-11 19:57:09.27	272.36	25.74	
2025-01-11 19:57:09.47	272.43	25.74	
2025-01-11 19:57:09.68	272.50	25.74	
2025-01-11 19:57:09.88	272.57	25.73	
2025-01-11 19:57:10.09	272.65	25.73	
2025-01-11 19:57:10.29	272.72	25.73	
2025-01-11 19:57:10.50	272.79	25.73	
2025-01-11 19:57:10.70	272.86	25.73	
2025-01-11 19:57:10.92	272.94	25.72	
2025-01-11 19:57:11.13	273.01	25.72	
2025-01-11 19:57:11.33	273.08	25.72	
2025-01-11 19:57:11.54	273.16	25.72	
2025-01-11 19:57:11.74	273.23	25.71	
2025-01-11 19:57:11.96	273.31	25.71	
