passes_logs/2026/01/24/planumMaritime01/planumMaritime01__20260124_113241_METEOR-M2_4_rec.log

#Pass ID: 20260124_113241_METEOR-M2 4
#Satellite: METEOR-M2 4
#Configuration: METEOR-M2 4
#Start time: 2026-01-24 11:32:46.756706

#LorettStation: 1.0.0 05.05.2024
#Station: planumMaritime01
#Location: 37.49445 lon 55.92918 lat
#TLE: 1 59051U 24039A   26022.99662541  .00000092  00000+0  61079-4 0  9999
#TLE: 2 59051  98.6828 344.2711 0006195 224.4084 135.6597 14.22408952 98628

#Time	Az	El	Level	SNR
2026-01-24 11:32:48.930177	168.6	10.2	-80.7	0.0
2026-01-24 11:32:50.060397	168.6	10.3	-79.9	0.0
2026-01-24 11:32:51.188280	168.6	10.4	-79.7	2.8
2026-01-24 11:32:52.317595	168.7	10.5	-77.9	7.3
2026-01-24 11:32:53.444694	168.7	10.6	-77.9	8.0
2026-01-24 11:32:54.573857	168.7	10.7	-77.9	7.6
2026-01-24 11:32:55.703439	168.7	10.8	-77.5	6.9
2026-01-24 11:32:56.832148	168.7	10.9	-77.6	8.3
2026-01-24 11:32:57.958740	168.8	11.0	-78.0	8.1
2026-01-24 11:32:59.089302	168.8	11.1	-77.8	7.2
2026-01-24 11:33:00.216757	168.8	11.2	-77.1	8.3
2026-01-24 11:33:01.343831	168.8	11.3	-77.7	5.3
2026-01-24 11:33:02.471526	168.9	11.4	-77.1	8.4
2026-01-24 11:33:03.601433	168.9	11.5	-78.1	8.7
2026-01-24 11:33:04.729061	168.9	11.6	-77.8	8.0
2026-01-24 11:33:05.855883	168.9	11.7	-77.3	8.3
2026-01-24 11:33:06.984798	169.0	11.8	-78.0	8.2
2026-01-24 11:33:08.110726	169.0	11.9	-77.7	8.7
2026-01-24 11:33:09.239395	169.0	12.0	-77.6	6.9
2026-01-24 11:33:10.371980	169.0	12.1	-77.3	7.0
2026-01-24 11:33:11.509719	169.1	12.3	-77.4	8.5
2026-01-24 11:33:12.652283	169.1	12.4	-77.2	8.7
2026-01-24 11:33:13.789814	169.1	12.5	-77.5	7.9
2026-01-24 11:33:14.926855	169.1	12.6	-77.6	8.8
2026-01-24 11:33:16.063303	169.2	12.7	-77.5	8.6
2026-01-24 11:33:17.205652	169.2	12.8	-77.5	8.7
2026-01-24 11:33:18.342203	169.2	12.9	-77.1	8.5
2026-01-24 11:33:19.478326	169.2	13.0	-76.9	7.5
2026-01-24 11:33:20.615502	169.3	13.1	-76.7	6.8
2026-01-24 11:33:21.750179	169.3	13.3	-77.3	8.0
2026-01-24 11:33:22.889046	169.3	13.4	-77.4	8.8
2026-01-24 11:33:24.027253	169.3	13.5	-77.5	8.8
2026-01-24 11:33:25.164699	169.4	13.6	-77.5	8.8
2026-01-24 11:33:26.301766	169.4	13.7	-77.5	8.0
2026-01-24 11:33:27.440124	169.4	13.8	-77.6	9.0
2026-01-24 11:33:28.576094	169.4	13.9	-77.5	7.8
2026-01-24 11:33:29.712972	169.5	14.1	-77.1	8.2
2026-01-24 11:33:30.847788	169.5	14.2	-76.9	8.4
2026-01-24 11:33:31.988733	169.5	14.3	-77.3	7.2
2026-01-24 11:33:33.126256	169.5	14.4	-76.9	9.1
2026-01-24 11:33:34.261041	169.6	14.5	-77.3	8.2
2026-01-24 11:33:35.399737	169.6	14.7	-76.3	5.8
2026-01-24 11:33:36.537213	169.6	14.8	-77.4	7.0
2026-01-24 11:33:37.673326	169.7	14.9	-77.3	7.1
2026-01-24 11:33:38.809588	169.7	15.0	-77.2	8.9
2026-01-24 11:33:39.947894	169.7	15.1	-77.4	8.4
2026-01-24 11:33:41.086445	169.7	15.3	-77.3	8.7
2026-01-24 11:33:42.226733	169.8	15.4	-77.2	8.2
2026-01-24 11:33:43.363153	169.8	15.5	-77.2	7.9
2026-01-24 11:33:44.500379	169.8	15.6	-77.0	8.2
2026-01-24 11:33:45.637918	169.9	15.8	-76.5	7.0
2026-01-24 11:33:46.776536	169.9	15.9	-77.2	7.7
2026-01-24 11:33:47.913373	169.9	16.0	-77.5	8.0
2026-01-24 11:33:49.052315	170.0	16.1	-76.4	7.2
2026-01-24 11:33:50.191418	170.0	16.3	-77.2	7.8
2026-01-24 11:33:51.329236	170.0	16.4	-76.9	9.1
2026-01-24 11:33:52.469477	170.1	16.5	-77.0	8.2
2026-01-24 11:33:53.605435	170.1	16.6	-76.8	8.1
2026-01-24 11:33:54.743348	170.1	16.8	-77.2	7.6
2026-01-24 11:33:55.880412	170.1	16.9	-76.9	8.6
2026-01-24 11:33:57.012286	170.2	17.0	-76.8	8.3
2026-01-24 11:33:58.144750	170.2	17.2	-77.1	9.2
2026-01-24 11:33:59.278081	170.2	17.3	-77.0	8.8
2026-01-24 11:34:00.410048	170.3	17.4	-76.1	9.1
2026-01-24 11:34:01.542307	170.3	17.6	-76.4	9.2
2026-01-24 11:34:02.678980	170.3	17.7	-76.2	8.5
2026-01-24 11:34:03.810644	170.4	17.8	-76.5	8.1
2026-01-24 11:34:04.943066	170.4	18.0	-76.7	8.9
2026-01-24 11:34:06.074831	170.5	18.1	-76.6	8.7
2026-01-24 11:34:07.207819	170.5	18.3	-77.0	8.9
2026-01-24 11:34:08.339733	170.5	18.4	-76.9	8.6
2026-01-24 11:34:09.472618	170.6	18.5	-76.6	9.0
2026-01-24 11:34:10.605009	170.6	18.7	-76.4	7.7
2026-01-24 11:34:11.736104	170.6	18.8	-76.4	7.8
2026-01-24 11:34:12.868023	170.7	19.0	-76.2	8.7
2026-01-24 11:34:14.003663	170.7	19.1	-76.8	8.7
2026-01-24 11:34:15.136761	170.7	19.2	-76.9	9.2
2026-01-24 11:34:16.269414	170.8	19.4	-76.5	8.9
2026-01-24 11:34:17.400107	170.8	19.5	-76.1	7.5
2026-01-24 11:34:18.529435	170.8	19.7	-76.4	8.3
2026-01-24 11:34:19.659367	170.9	19.8	-76.5	8.9
2026-01-24 11:34:20.789530	170.9	20.0	-76.4	8.5
2026-01-24 11:34:21.918497	171.0	20.1	-76.7	9.6
2026-01-24 11:34:23.048299	171.0	20.3	-77.0	9.3
2026-01-24 11:34:24.179560	171.0	20.4	-76.8	9.6
2026-01-24 11:34:25.307622	171.1	20.6	-76.5	8.0
2026-01-24 11:34:26.438668	171.1	20.7	-76.2	7.6
2026-01-24 11:34:27.570187	171.2	20.9	-76.9	9.0
2026-01-24 11:34:28.700178	171.2	21.0	-76.4	9.2
2026-01-24 11:34:29.829830	171.2	21.2	-77.0	8.9
2026-01-24 11:34:30.963056	171.3	21.3	-76.7	10.0
2026-01-24 11:34:32.095803	171.3	21.5	-77.5	8.9
2026-01-24 11:34:33.229473	171.4	21.7	-76.6	9.0
2026-01-24 11:34:34.361637	171.4	21.8	-76.7	8.2
2026-01-24 11:34:35.497818	171.5	22.0	-76.5	9.1
2026-01-24 11:34:36.639257	171.5	22.1	-76.6	8.7
2026-01-24 11:34:37.774920	171.5	22.3	-76.6	9.0
2026-01-24 11:34:38.910552	171.6	22.5	-76.9	8.9
2026-01-24 11:34:40.049400	171.6	22.6	-76.8	8.5
2026-01-24 11:34:41.184037	171.7	22.8	-76.6	8.1
2026-01-24 11:34:42.318508	171.7	23.0	-77.0	8.2
2026-01-24 11:34:43.452002	171.8	23.1	-76.8	8.4
2026-01-24 11:34:44.588132	171.8	23.3	-76.1	7.4
2026-01-24 11:34:45.724109	171.9	23.5	-76.3	8.3
2026-01-24 11:34:46.861926	171.9	23.6	-76.6	9.8
2026-01-24 11:34:47.999869	172.0	23.8	-76.7	10.5
2026-01-24 11:34:49.136519	172.0	24.0	-76.9	10.0
2026-01-24 11:34:50.266433	172.1	24.1	-76.6	9.5
2026-01-24 11:34:51.392137	172.1	24.3	-77.0	9.2
2026-01-24 11:34:52.520492	172.2	24.5	-76.4	8.9
2026-01-24 11:34:53.648104	172.2	24.7	-76.7	9.5
2026-01-24 11:34:54.777236	172.3	24.8	-76.6	10.5
2026-01-24 11:34:55.906127	172.3	25.0	-76.4	9.9
2026-01-24 11:34:57.034050	172.4	25.2	-76.8	9.4
2026-01-24 11:34:58.159919	172.4	25.4	-77.0	10.0
2026-01-24 11:34:59.286685	172.5	25.6	-76.8	9.4
2026-01-24 11:35:00.414511	172.5	25.8	-77.3	9.9
2026-01-24 11:35:01.543410	172.6	25.9	-76.6	9.5
2026-01-24 11:35:02.673811	172.6	26.1	-76.9	11.0
2026-01-24 11:35:03.803653	172.7	26.3	-76.7	9.5
2026-01-24 11:35:04.934480	172.8	26.5	-76.7	8.9
2026-01-24 11:35:06.065009	172.8	26.7	-76.3	9.7
2026-01-24 11:35:07.192235	172.9	26.9	-77.0	10.1
2026-01-24 11:35:08.320542	172.9	27.1	-77.1	10.7
2026-01-24 11:35:09.451679	173.0	27.3	-76.8	10.0
2026-01-24 11:35:10.577592	173.0	27.5	-76.8	10.9
2026-01-24 11:35:11.709026	173.1	27.7	-76.7	10.5
2026-01-24 11:35:12.835526	173.2	27.9	-76.9	10.8
2026-01-24 11:35:13.965159	173.2	28.1	-76.8	9.7
2026-01-24 11:35:15.101281	173.3	28.3	-77.1	9.9
2026-01-24 11:35:16.236039	173.4	28.5	-76.9	10.6
2026-01-24 11:35:17.373856	173.4	28.7	-77.3	9.9
2026-01-24 11:35:18.509415	173.5	28.9	-77.4	10.5
2026-01-24 11:35:19.644593	173.5	29.1	-77.1	9.9
2026-01-24 11:35:20.782388	173.6	29.3	-75.9	7.5
2026-01-24 11:35:21.920220	173.7	29.5	-76.7	9.3
2026-01-24 11:35:23.060160	173.8	29.7	-77.3	10.1
2026-01-24 11:35:24.197367	173.8	29.9	-76.7	9.0
2026-01-24 11:35:25.333511	173.9	30.2	-77.5	10.3
2026-01-24 11:35:26.469876	174.0	30.4	-77.4	10.4
2026-01-24 11:35:27.608875	174.0	30.6	-77.4	10.4
2026-01-24 11:35:28.746842	174.1	30.8	-77.3	9.9
2026-01-24 11:35:29.882558	174.2	31.0	-76.8	9.6
2026-01-24 11:35:31.020498	174.3	31.3	-76.9	11.2
2026-01-24 11:35:32.157106	174.3	31.5	-77.0	10.8
2026-01-24 11:35:33.291584	174.4	31.7	-77.1	9.8
2026-01-24 11:35:34.430489	174.5	31.9	-76.9	10.9
2026-01-24 11:35:35.567100	174.6	32.2	-77.1	8.8
2026-01-24 11:35:36.703508	174.6	32.4	-77.1	9.5
2026-01-24 11:35:37.836962	174.7	32.6	-77.2	10.7
2026-01-24 11:35:38.973077	174.8	32.9	-77.2	10.9
2026-01-24 11:35:40.109883	174.9	33.1	-77.4	12.1
2026-01-24 11:35:41.244446	175.0	33.4	-77.4	11.4
2026-01-24 11:35:42.378198	175.1	33.6	-77.1	10.9
2026-01-24 11:35:43.513716	175.2	33.8	-77.5	11.0
2026-01-24 11:35:44.653217	175.2	34.1	-77.4	10.8
2026-01-24 11:35:45.788032	175.3	34.3	-77.4	11.1
2026-01-24 11:35:46.926775	175.4	34.6	-77.5	10.5
2026-01-24 11:35:48.063472	175.5	34.8	-77.0	10.3
2026-01-24 11:35:49.204028	175.6	35.1	-77.4	11.6
2026-01-24 11:35:50.341586	175.7	35.3	-76.9	11.8
2026-01-24 11:35:51.481364	175.8	35.6	-77.6	12.7
2026-01-24 11:35:52.619008	175.9	35.9	-77.2	11.9
2026-01-24 11:35:53.758867	176.0	36.1	-77.0	12.4
2026-01-24 11:35:54.893124	176.1	36.4	-77.3	12.7
2026-01-24 11:35:56.031821	176.2	36.6	-77.3	12.0
2026-01-24 11:35:57.168725	176.3	36.9	-77.3	12.5
2026-01-24 11:35:58.304199	176.4	37.2	-77.8	12.9
2026-01-24 11:35:59.443862	176.5	37.5	-77.1	12.0
2026-01-24 11:36:00.580567	176.6	37.7	-77.4	11.9
2026-01-24 11:36:01.719241	176.7	38.0	-77.6	12.9
2026-01-24 11:36:02.856518	176.9	38.3	-78.0	13.1
2026-01-24 11:36:03.993337	177.0	38.6	-78.1	12.3
2026-01-24 11:36:05.128882	177.1	38.8	-77.8	12.4
2026-01-24 11:36:06.266884	177.2	39.1	-78.1	13.0
2026-01-24 11:36:07.404117	177.3	39.4	-78.1	12.3
2026-01-24 11:36:08.541186	177.4	39.7	-78.2	12.4
2026-01-24 11:36:09.676110	177.6	40.0	-77.9	13.1
2026-01-24 11:36:10.814365	177.7	40.3	-77.8	12.5
2026-01-24 11:36:11.948836	177.8	40.6	-78.2	12.7
2026-01-24 11:36:13.084938	178.0	40.9	-78.2	12.9
2026-01-24 11:36:14.220537	178.1	41.2	-78.3	13.2
2026-01-24 11:36:15.357023	178.2	41.5	-78.4	13.1
2026-01-24 11:36:16.492829	178.4	41.8	-78.4	12.9
2026-01-24 11:36:17.630944	178.5	42.1	-78.6	12.6
2026-01-24 11:36:18.769813	178.7	42.4	-78.8	12.4
2026-01-24 11:36:19.906721	178.8	42.7	-79.1	12.0
2026-01-24 11:36:21.042308	179.0	43.0	-79.0	12.5
2026-01-24 11:36:22.181526	179.1	43.4	-79.4	11.5
2026-01-24 11:36:23.314551	179.3	43.7	-79.4	12.0
2026-01-24 11:36:24.448156	179.4	44.0	-79.2	11.4
2026-01-24 11:36:25.585197	179.6	44.3	-79.1	10.9
2026-01-24 11:36:26.720581	179.8	44.7	-79.1	11.3
2026-01-24 11:36:27.855816	179.9	45.0	-79.3	11.1
2026-01-24 11:36:28.993134	180.1	45.3	-79.3	11.2
2026-01-24 11:36:30.127770	180.3	45.7	-79.1	11.4
2026-01-24 11:36:31.261224	180.4	46.0	-79.3	11.3
2026-01-24 11:36:32.395763	180.6	46.3	-79.4	11.6
2026-01-24 11:36:33.532634	180.8	46.7	-79.6	10.8
2026-01-24 11:36:34.668810	181.0	47.0	-79.7	11.1
2026-01-24 11:36:35.805309	181.2	47.4	-79.5	10.3
2026-01-24 11:36:36.942957	181.4	47.7	-79.6	10.4
2026-01-24 11:36:38.082380	181.6	48.1	-79.5	10.3
2026-01-24 11:36:39.217653	181.8	48.4	-79.6	10.0
2026-01-24 11:36:40.354885	182.0	48.8	-79.3	9.5
2026-01-24 11:36:41.492441	182.3	49.1	-79.7	10.5
2026-01-24 11:36:42.629509	182.5	49.5	-80.0	10.1
2026-01-24 11:36:43.767706	182.7	49.9	-79.8	10.4
2026-01-24 11:36:44.906436	182.9	50.2	-79.7	9.8
2026-01-24 11:36:46.046332	183.2	50.6	-79.9	10.2
2026-01-24 11:36:47.183580	183.4	51.0	-79.6	9.1
2026-01-24 11:36:48.319512	183.7	51.4	-79.8	9.6
2026-01-24 11:36:49.456920	183.9	51.7	-79.7	9.2
2026-01-24 11:36:50.589869	184.2	52.1	-80.2	9.5
2026-01-24 11:36:51.716933	184.5	52.5	-80.2	10.1
2026-01-24 11:36:52.843671	184.8	52.9	-79.8	9.7
2026-01-24 11:36:53.972177	185.0	53.2	-79.7	10.0
2026-01-24 11:36:55.102879	185.3	53.6	-79.7	10.4
2026-01-24 11:36:56.234472	185.6	54.0	-79.8	10.4
2026-01-24 11:36:57.365762	185.9	54.4	-79.8	10.6
2026-01-24 11:36:58.494264	186.3	54.8	-79.7	10.4
2026-01-24 11:36:59.624063	186.6	55.2	-80.1	10.2
2026-01-24 11:37:00.755755	186.9	55.6	-80.0	10.1
2026-01-24 11:37:01.886227	187.3	56.0	-79.9	9.5
2026-01-24 11:37:03.015147	187.6	56.4	-80.0	10.1
2026-01-24 11:37:04.148504	188.0	56.8	-80.1	9.5
2026-01-24 11:37:05.278423	188.4	57.2	-80.0	9.8
2026-01-24 11:37:06.408067	188.7	57.6	-80.1	10.6
2026-01-24 11:37:07.536412	189.1	58.0	-80.1	10.0
2026-01-24 11:37:08.665622	189.5	58.4	-80.2	9.8
2026-01-24 11:37:09.793715	190.0	58.8	-80.1	9.5
2026-01-24 11:37:10.923024	190.4	59.3	-80.1	9.8
2026-01-24 11:37:12.049937	190.8	59.7	-79.9	8.1
2026-01-24 11:37:13.180604	191.3	60.1	-80.2	9.5
2026-01-24 11:37:14.310695	191.8	60.5	-79.6	9.0
2026-01-24 11:37:15.445465	192.3	60.9	-79.6	7.7
2026-01-24 11:37:16.584978	192.8	61.3	-80.1	9.1
2026-01-24 11:37:17.722186	193.3	61.8	-79.7	9.1
2026-01-24 11:37:18.861210	193.9	62.2	-80.2	10.6
2026-01-24 11:37:19.999772	194.5	62.6	-80.1	9.7
2026-01-24 11:37:21.137158	195.0	63.0	-80.2	9.9
2026-01-24 11:37:22.273773	195.7	63.4	-80.2	9.8
2026-01-24 11:37:23.413206	196.3	63.9	-80.3	10.3
2026-01-24 11:37:24.551260	196.9	64.3	-80.2	10.2
2026-01-24 11:37:25.686150	197.6	64.7	-80.2	9.4
2026-01-24 11:37:26.824081	198.3	65.1	-80.1	10.1
2026-01-24 11:37:27.962300	199.1	65.5	-80.1	9.5
2026-01-24 11:37:29.099241	199.8	66.0	-79.9	9.8
2026-01-24 11:37:30.231623	200.6	66.4	-80.0	9.4
2026-01-24 11:37:31.366032	201.4	66.8	-80.1	8.2
2026-01-24 11:37:32.498080	202.3	67.2	-79.7	8.9
2026-01-24 11:37:33.631750	203.2	67.6	-80.0	9.9
2026-01-24 11:37:34.763443	204.1	68.0	-80.2	9.7
2026-01-24 11:37:35.894371	205.0	68.4	-80.2	9.4
2026-01-24 11:37:37.023624	206.0	68.8	-80.2	7.9
2026-01-24 11:37:38.154001	207.1	69.2	-80.4	7.9
2026-01-24 11:37:39.286277	208.1	69.6	-80.2	9.2
2026-01-24 11:37:40.419783	209.2	69.9	-79.8	8.7
2026-01-24 11:37:41.553995	210.4	70.3	-79.9	9.0
2026-01-24 11:37:42.686993	211.6	70.7	-79.5	8.2
2026-01-24 11:37:43.820231	212.9	71.1	-79.0	6.6
2026-01-24 11:37:44.958125	214.2	71.4	-79.5	8.6
2026-01-24 11:37:46.093115	215.6	71.8	-79.7	10.2
2026-01-24 11:37:47.230117	217.0	72.1	-79.4	9.9
2026-01-24 11:37:48.363249	218.5	72.4	-78.9	10.1
2026-01-24 11:37:49.497563	220.0	72.7	-78.9	9.6
2026-01-24 11:37:50.633640	221.6	73.0	-78.9	9.4
2026-01-24 11:37:51.767576	223.3	73.3	-78.6	8.8
2026-01-24 11:37:52.904679	225.0	73.6	-78.9	10.7
2026-01-24 11:37:54.040065	226.8	73.9	-78.3	9.6
2026-01-24 11:37:55.174119	228.6	74.1	-78.5	10.9
2026-01-24 11:37:56.308321	230.5	74.4	-78.4	9.8
2026-01-24 11:37:57.445543	232.5	74.6	-78.6	8.7
2026-01-24 11:37:58.580099	234.5	74.8	-78.8	9.2
2026-01-24 11:37:59.713897	236.6	75.0	-78.6	8.6
2026-01-24 11:38:00.848704	238.7	75.1	-78.5	8.5
2026-01-24 11:38:01.984043	240.8	75.3	-78.1	7.5
2026-01-24 11:38:03.118760	243.1	75.4	-78.8	8.6
2026-01-24 11:38:04.252663	245.3	75.5	-78.3	8.4
2026-01-24 11:38:05.388088	247.6	75.6	-77.6	7.8
2026-01-24 11:38:06.523591	249.9	75.6	-78.0	9.2
2026-01-24 11:38:07.657136	252.2	75.7	-78.0	9.1
2026-01-24 11:38:08.789725	254.5	75.7	-77.7	8.4
2026-01-24 11:38:09.922475	256.8	75.7	-77.4	7.6
2026-01-24 11:38:11.053791	259.1	75.6	-78.0	9.4
2026-01-24 11:38:12.187666	261.4	75.6	-77.1	5.9
2026-01-24 11:38:13.319613	263.6	75.5	-77.9	8.2
2026-01-24 11:38:14.453388	265.9	75.4	-77.0	6.8
2026-01-24 11:38:15.585943	268.1	75.3	-77.5	6.2
2026-01-24 11:38:16.719102	270.3	75.2	-77.8	6.0
2026-01-24 11:38:17.854650	272.4	75.0	-78.0	5.9
2026-01-24 11:38:18.986383	274.5	74.8	-77.6	5.3
2026-01-24 11:38:20.120313	276.5	74.6	-78.6	6.7
2026-01-24 11:38:21.254510	278.5	74.4	-78.1	5.8
2026-01-24 11:38:22.387473	280.4	74.2	-77.7	4.6
2026-01-24 11:38:23.522486	282.3	74.0	-77.6	4.6
2026-01-24 11:38:24.654378	284.0	73.7	-77.8	4.7
2026-01-24 11:38:25.788676	285.8	73.4	-77.8	5.3
2026-01-24 11:38:26.920478	287.5	73.1	-77.3	4.3
2026-01-24 11:38:28.054052	289.1	72.8	-77.7	6.0
2026-01-24 11:38:29.189505	290.6	72.5	-76.9	5.0
2026-01-24 11:38:30.322307	292.1	72.2	-76.5	6.1
2026-01-24 11:38:31.456828	293.6	71.9	-76.5	6.0
2026-01-24 11:38:32.591279	294.9	71.5	-77.2	4.7
2026-01-24 11:38:33.725704	296.3	71.2	-76.8	5.1
2026-01-24 11:38:34.860740	297.6	70.8	-77.3	5.2
2026-01-24 11:38:35.996217	298.8	70.4	-77.1	5.9
2026-01-24 11:38:37.130238	300.0	70.1	-76.6	3.6
2026-01-24 11:38:38.267296	301.1	69.7	-77.6	6.2
2026-01-24 11:38:39.403189	302.2	69.3	-76.7	4.7
2026-01-24 11:38:40.540285	303.2	68.9	-76.4	1.6
2026-01-24 11:38:41.676900	304.3	68.5	-77.9	6.0
2026-01-24 11:38:42.813285	305.2	68.1	-77.1	3.8
2026-01-24 11:38:43.951149	306.2	67.7	-76.3	1.5
2026-01-24 11:38:45.088484	307.1	67.3	-76.9	2.9
2026-01-24 11:38:46.225976	307.9	66.9	-76.5	4.6
2026-01-24 11:38:47.362726	308.7	66.5	-76.3	4.8
2026-01-24 11:38:48.499264	309.5	66.1	-77.1	5.4
2026-01-24 11:38:49.635438	310.3	65.7	-77.0	4.3
2026-01-24 11:38:50.773076	311.0	65.3	-77.5	6.0
2026-01-24 11:38:51.906360	311.8	64.8	-76.9	7.0
2026-01-24 11:38:53.043435	312.4	64.4	-77.0	7.1
2026-01-24 11:38:54.179693	313.1	64.0	-76.7	6.8
2026-01-24 11:38:55.306571	313.7	63.6	-76.6	3.2
2026-01-24 11:38:56.436193	314.3	63.2	-75.7	1.1
2026-01-24 11:38:57.566776	314.9	62.8	-76.7	4.7
2026-01-24 11:38:58.696166	315.5	62.3	-76.3	1.0
2026-01-24 11:38:59.825403	316.1	61.9	-76.4	0.0
2026-01-24 11:39:00.957882	316.6	61.5	-77.2	3.2
2026-01-24 11:39:02.087746	317.1	61.1	-77.2	3.6
2026-01-24 11:39:03.215570	317.6	60.7	-75.8	1.6
2026-01-24 11:39:04.346324	318.1	60.3	-75.6	0.0
2026-01-24 11:39:05.476947	318.6	59.8	-76.6	3.0
2026-01-24 11:39:06.606324	319.0	59.4	-77.2	2.7
2026-01-24 11:39:07.736499	319.5	59.0	-76.4	0.0
2026-01-24 11:39:08.867605	319.9	58.6	-76.6	0.0
2026-01-24 11:39:09.997383	320.3	58.2	-77.2	2.3
2026-01-24 11:39:11.125926	320.7	57.8	-77.9	3.4
2026-01-24 11:39:12.254443	321.1	57.4	-76.3	1.7
2026-01-24 11:39:13.382435	321.5	57.0	-77.1	0.8
2026-01-24 11:39:14.512539	321.8	56.6	-76.5	0.4
2026-01-24 11:39:15.640535	322.2	56.2	-76.6	1.6
2026-01-24 11:39:16.772994	322.5	55.8	-76.2	1.1
2026-01-24 11:39:17.899670	322.9	55.4	-75.2	0.0
2026-01-24 11:39:19.035976	323.2	55.0	-77.8	3.1
2026-01-24 11:39:20.173457	323.5	54.6	-76.3	0.0
2026-01-24 11:39:21.311563	323.8	54.2	-75.8	0.8
2026-01-24 11:39:22.447279	324.1	53.8	-76.9	0.0
2026-01-24 11:39:23.583049	324.4	53.4	-77.1	2.0
2026-01-24 11:39:24.723480	324.7	53.0	-76.8	1.0
2026-01-24 11:39:25.861521	325.0	52.7	-76.0	0.2
2026-01-24 11:39:26.998478	325.3	52.3	-76.4	1.2
2026-01-24 11:39:28.134758	325.6	51.9	-75.4	0.0
2026-01-24 11:39:29.272981	325.8	51.5	-75.6	0.0
2026-01-24 11:39:30.410549	326.1	51.1	-77.0	1.5
2026-01-24 11:39:31.550457	326.3	50.8	-75.6	0.0
2026-01-24 11:39:32.686806	326.6	50.4	-77.5	0.4
2026-01-24 11:39:33.822794	326.8	50.0	-76.2	0.0
2026-01-24 11:39:34.959144	327.0	49.7	-77.0	1.0
2026-01-24 11:39:36.097689	327.3	49.3	-76.9	0.9
2026-01-24 11:39:37.233713	327.5	48.9	-75.9	0.6
2026-01-24 11:39:38.371501	327.7	48.6	-76.5	2.2
2026-01-24 11:39:39.508472	327.9	48.2	-73.8	0.0
2026-01-24 11:39:40.646216	328.1	47.9	-76.7	0.0
2026-01-24 11:39:41.784198	328.3	47.5	-76.5	4.1
2026-01-24 11:39:42.924507	328.5	47.2	-74.6	0.0
2026-01-24 11:39:44.063473	328.7	46.8	-76.5	3.4
2026-01-24 11:39:45.203393	328.9	46.5	-75.9	3.1
2026-01-24 11:39:46.339752	329.1	46.2	-75.0	0.8
2026-01-24 11:39:47.477771	329.3	45.8	-74.4	0.0
2026-01-24 11:39:48.615503	329.4	45.5	-74.8	1.1
2026-01-24 11:39:49.750731	329.6	45.2	-74.2	0.0
2026-01-24 11:39:50.886426	329.8	44.8	-75.7	3.3
2026-01-24 11:39:52.024121	329.9	44.5	-74.6	3.0
2026-01-24 11:39:53.161196	330.1	44.2	-75.8	3.8
2026-01-24 11:39:54.298993	330.3	43.9	-74.5	0.0
2026-01-24 11:39:55.436203	330.4	43.5	-74.5	1.3
2026-01-24 11:39:56.574254	330.6	43.2	-76.3	4.0
2026-01-24 11:39:57.712615	330.7	42.9	-75.1	3.2
2026-01-24 11:39:58.849274	330.9	42.6	-75.1	2.4
2026-01-24 11:39:59.985760	331.0	42.3	-75.9	3.0
2026-01-24 11:40:01.121684	331.2	42.0	-75.3	3.0
2026-01-24 11:40:02.259193	331.3	41.7	-75.5	5.1
2026-01-24 11:40:03.396620	331.4	41.4	-75.3	3.6
2026-01-24 11:40:04.534255	331.6	41.1	-74.4	0.4
2026-01-24 11:40:05.670820	331.7	40.8	-75.4	4.9
2026-01-24 11:40:06.809780	331.8	40.5	-75.5	4.1
2026-01-24 11:40:07.949997	332.0	40.2	-74.9	1.1
2026-01-24 11:40:09.091424	332.1	39.9	-73.5	0.9
2026-01-24 11:40:10.229869	332.2	39.6	-73.9	0.0
2026-01-24 11:40:11.368653	332.3	39.3	-74.1	0.9
2026-01-24 11:40:12.506843	332.5	39.0	-74.7	2.1
2026-01-24 11:40:13.644082	332.6	38.7	-74.8	1.9
2026-01-24 11:40:14.779081	332.7	38.5	-74.9	3.5
2026-01-24 11:40:15.917572	332.8	38.2	-74.3	0.9
2026-01-24 11:40:17.053875	332.9	37.9	-72.8	0.0
2026-01-24 11:40:18.191355	333.0	37.6	-74.6	2.8
2026-01-24 11:40:19.329244	333.1	37.4	-71.9	0.0
2026-01-24 11:40:20.467570	333.3	37.1	-73.5	0.0
2026-01-24 11:40:21.604673	333.4	36.8	-72.2	0.0
2026-01-24 11:40:22.738134	333.5	36.6	-73.2	0.6
2026-01-24 11:40:23.872757	333.6	36.3	-74.0	4.2
2026-01-24 11:40:25.007202	333.7	36.0	-72.3	0.0
2026-01-24 11:40:26.144462	333.8	35.8	-72.9	0.9
2026-01-24 11:40:27.278289	333.9	35.5	-73.5	1.0
2026-01-24 11:40:28.412749	334.0	35.3	-72.1	0.8
2026-01-24 11:40:29.547914	334.1	35.0	-72.3	0.1
2026-01-24 11:40:30.684458	334.1	34.8	-69.9	0.0
2026-01-24 11:40:31.822002	334.2	34.5	-71.6	0.0
2026-01-24 11:40:32.956365	334.3	34.3	-71.5	0.0
2026-01-24 11:40:34.092061	334.4	34.0	-72.5	0.0
2026-01-24 11:40:35.226944	334.5	33.8	-70.0	0.0
2026-01-24 11:40:36.360904	334.6	33.5	-71.9	0.0
2026-01-24 11:40:37.496472	334.7	33.3	-71.2	0.0
2026-01-24 11:40:38.633501	334.8	33.1	-71.8	0.0
2026-01-24 11:40:39.767715	334.8	32.8	-71.5	0.0
2026-01-24 11:40:40.903775	334.9	32.6	-72.6	0.0
2026-01-24 11:40:42.040323	335.0	32.4	-71.7	0.0
2026-01-24 11:40:43.176137	335.1	32.1	-70.2	0.0
2026-01-24 11:40:44.313655	335.2	31.9	-71.2	0.0
2026-01-24 11:40:45.448513	335.2	31.7	-70.9	0.0
2026-01-24 11:40:46.586302	335.3	31.4	-72.6	0.0
2026-01-24 11:40:47.723513	335.4	31.2	-73.4	1.0
2026-01-24 11:40:48.859583	335.5	31.0	-74.1	0.9
2026-01-24 11:40:49.998142	335.5	30.8	-72.7	0.0
2026-01-24 11:40:51.133456	335.6	30.6	-72.3	0.0
2026-01-24 11:40:52.271801	335.7	30.3	-72.9	0.0
2026-01-24 11:40:53.406749	335.8	30.1	-72.5	0.0
2026-01-24 11:40:54.542740	335.8	29.9	-71.6	0.0
2026-01-24 11:40:55.680156	335.9	29.7	-71.3	0.0
2026-01-24 11:40:56.807591	336.0	29.5	-72.3	0.0
2026-01-24 11:40:57.935534	336.0	29.3	-72.1	0.0
2026-01-24 11:40:59.062740	336.1	29.1	-72.8	0.0
2026-01-24 11:41:00.189117	336.2	28.9	-71.6	0.0
2026-01-24 11:41:01.316507	336.2	28.7	-71.3	0.0
2026-01-24 11:41:02.441848	336.3	28.5	-71.6	0.0
2026-01-24 11:41:03.568383	336.4	28.3	-70.7	0.0
2026-01-24 11:41:04.696655	336.4	28.1	-70.5	0.0
2026-01-24 11:41:05.823069	336.5	27.9	-72.5	0.0
2026-01-24 11:41:06.949290	336.5	27.7	-69.6	0.0
2026-01-24 11:41:08.080580	336.6	27.5	-72.3	0.0
2026-01-24 11:41:09.205893	336.7	27.3	-70.7	0.0
2026-01-24 11:41:10.334060	336.7	27.1	-70.5	0.0
2026-01-24 11:41:11.460372	336.8	26.9	-70.8	0.0
2026-01-24 11:41:12.588003	336.8	26.7	-71.4	0.0
2026-01-24 11:41:13.714873	336.9	26.5	-69.2	0.0
2026-01-24 11:41:14.841335	337.0	26.3	-70.3	0.0
2026-01-24 11:41:15.968674	337.0	26.2	-70.6	0.0
2026-01-24 11:41:17.099449	337.1	26.0	-70.4	0.0
2026-01-24 11:41:18.227048	337.1	25.8	-70.5	0.0
2026-01-24 11:41:19.355051	337.2	25.6	-69.6	0.0
2026-01-24 11:41:20.485516	337.2	25.4	-69.4	0.0
2026-01-24 11:41:21.616556	337.3	25.2	-68.9	0.0
2026-01-24 11:41:22.749894	337.3	25.1	-69.4	0.0
2026-01-24 11:41:23.884588	337.4	24.9	-69.0	0.0
2026-01-24 11:41:25.017166	337.4	24.7	-69.9	0.0
2026-01-24 11:41:26.152814	337.5	24.5	-69.2	0.0
2026-01-24 11:41:27.287686	337.5	24.4	-70.6	0.0
2026-01-24 11:41:28.423224	337.6	24.2	-71.0	0.0
2026-01-24 11:41:29.557263	337.6	24.0	-70.8	0.0
2026-01-24 11:41:30.693293	337.7	23.8	-71.0	0.0
2026-01-24 11:41:31.824260	337.7	23.7	-72.1	0.0
2026-01-24 11:41:32.956655	337.8	23.5	-71.5	0.0
2026-01-24 11:41:34.091297	337.8	23.3	-70.6	0.0
2026-01-24 11:41:35.226066	337.9	23.2	-71.3	0.0
2026-01-24 11:41:36.357325	337.9	23.0	-70.6	0.0
2026-01-24 11:41:37.492407	338.0	22.8	-68.9	0.0
2026-01-24 11:41:38.626023	338.0	22.7	-71.2	0.0
2026-01-24 11:41:39.760329	338.1	22.5	-70.0	0.0
2026-01-24 11:41:40.896662	338.1	22.3	-68.9	0.0
2026-01-24 11:41:42.034819	338.2	22.2	-66.2	0.0
2026-01-24 11:41:43.171591	338.2	22.0	-68.3	0.0
2026-01-24 11:41:44.307248	338.2	21.9	-69.2	0.0
2026-01-24 11:41:45.443424	338.3	21.7	-70.7	0.0
2026-01-24 11:41:46.581060	338.3	21.6	-70.3	0.0
2026-01-24 11:41:47.719783	338.4	21.4	-69.3	0.0
2026-01-24 11:41:48.855661	338.4	21.2	-66.3	0.0
2026-01-24 11:41:49.996599	338.5	21.1	-65.4	0.0
2026-01-24 11:41:51.136598	338.5	20.9	-68.8	0.0
2026-01-24 11:41:52.272183	338.5	20.8	-70.6	0.0
2026-01-24 11:41:53.410077	338.6	20.6	-69.2	0.0
2026-01-24 11:41:54.550335	338.6	20.5	-70.2	0.0
2026-01-24 11:41:55.686201	338.7	20.3	-68.8	0.0
2026-01-24 11:41:56.821813	338.7	20.2	-70.3	0.0
2026-01-24 11:41:57.957754	338.7	20.0	-68.6	0.0
2026-01-24 11:41:59.091624	338.8	19.9	-70.5	0.0
2026-01-24 11:42:00.223924	338.8	19.7	-70.5	0.0
2026-01-24 11:42:01.359319	338.9	19.6	-65.3	0.0
2026-01-24 11:42:02.494435	338.9	19.4	-67.6	0.0
2026-01-24 11:42:03.630600	338.9	19.3	-66.9	0.0
2026-01-24 11:42:04.763746	339.0	19.2	-69.4	0.0
2026-01-24 11:42:05.896997	339.0	19.0	-68.9	0.0
2026-01-24 11:42:07.031647	339.0	18.9	-69.9	0.0
2026-01-24 11:42:08.165486	339.1	18.7	-67.7	0.0
2026-01-24 11:42:09.299852	339.1	18.6	-69.3	0.0
2026-01-24 11:42:10.433891	339.2	18.5	-68.6	0.0
2026-01-24 11:42:11.571094	339.2	18.3	-65.3	0.0
2026-01-24 11:42:12.706480	339.2	18.2	-69.7	0.0
2026-01-24 11:42:13.836018	339.3	18.1	-70.2	0.0
2026-01-24 11:42:14.970872	339.3	17.9	-68.7	0.0
2026-01-24 11:42:16.105031	339.3	17.8	-70.6	0.0
2026-01-24 11:42:17.235291	339.4	17.6	-69.8	0.0
2026-01-24 11:42:18.370506	339.4	17.5	-69.7	0.0
2026-01-24 11:42:19.503829	339.4	17.4	-65.8	0.0
2026-01-24 11:42:20.636882	339.5	17.2	-71.3	0.0
2026-01-24 11:42:21.772400	339.5	17.1	-71.5	0.0
2026-01-24 11:42:22.905324	339.5	17.0	-69.5	0.0
2026-01-24 11:42:24.039530	339.6	16.9	-69.7	0.0
2026-01-24 11:42:25.173631	339.6	16.7	-71.0	0.0
2026-01-24 11:42:26.306952	339.6	16.6	-71.2	0.0
2026-01-24 11:42:27.439595	339.7	16.5	-73.2	0.0
2026-01-24 11:42:28.572163	339.7	16.3	-71.3	0.0
2026-01-24 11:42:29.705111	339.7	16.2	-73.0	0.0
2026-01-24 11:42:30.839464	339.8	16.1	-71.6	0.0
2026-01-24 11:42:31.975931	339.8	16.0	-67.9	0.0
2026-01-24 11:42:33.112610	339.8	15.8	-71.8	0.0
2026-01-24 11:42:34.251621	339.9	15.7	-72.8	0.0
2026-01-24 11:42:35.389066	339.9	15.6	-73.3	0.0
2026-01-24 11:42:36.528157	339.9	15.5	-72.5	0.0
2026-01-24 11:42:37.667338	339.9	15.3	-72.7	0.0
2026-01-24 11:42:38.807681	340.0	15.2	-73.6	0.0
2026-01-24 11:42:39.944756	340.0	15.1	-72.0	0.0
2026-01-24 11:42:41.081296	340.0	15.0	-72.8	0.0
2026-01-24 11:42:42.216432	340.1	14.9	-73.0	0.0
2026-01-24 11:42:43.354707	340.1	14.7	-73.4	0.0
2026-01-24 11:42:44.491347	340.1	14.6	-71.4	0.0
2026-01-24 11:42:45.631351	340.1	14.5	-70.3	0.0
2026-01-24 11:42:46.770097	340.2	14.4	-74.4	0.0
2026-01-24 11:42:47.908943	340.2	14.3	-70.4	0.0
2026-01-24 11:42:49.047894	340.2	14.2	-72.8	0.0
2026-01-24 11:42:50.180880	340.3	14.0	-73.1	0.0
2026-01-24 11:42:51.320592	340.3	13.9	-72.5	0.0
2026-01-24 11:42:52.456194	340.3	13.8	-73.8	0.0
2026-01-24 11:42:53.591438	340.3	13.7	-74.3	0.0
2026-01-24 11:42:54.728108	340.4	13.6	-70.3	0.0
2026-01-24 11:42:55.864160	340.4	13.5	-72.7	0.0
2026-01-24 11:42:57.000878	340.4	13.4	-70.4	0.0
2026-01-24 11:42:58.137499	340.5	13.2	-73.8	0.0
2026-01-24 11:42:59.275313	340.5	13.1	-72.3	0.0
2026-01-24 11:43:00.410254	340.5	13.0	-74.8	0.0
2026-01-24 11:43:01.546449	340.5	12.9	-72.2	0.0
2026-01-24 11:43:02.676157	340.6	12.8	-70.8	0.0
2026-01-24 11:43:03.806329	340.6	12.7	-70.5	0.0
2026-01-24 11:43:04.935976	340.6	12.6	-71.8	0.0
2026-01-24 11:43:06.063698	340.6	12.5	-73.0	0.0
2026-01-24 11:43:07.191347	340.7	12.4	-73.9	0.0
2026-01-24 11:43:08.319207	340.7	12.3	-71.6	0.0
2026-01-24 11:43:09.449042	340.7	12.2	-71.6	0.0
2026-01-24 11:43:10.577141	340.7	12.1	-71.3	0.0
2026-01-24 11:43:11.706510	340.8	11.9	-73.0	0.0
2026-01-24 11:43:12.836190	340.8	11.8	-74.7	0.0
2026-01-24 11:43:13.966985	340.8	11.7	-73.3	0.0
2026-01-24 11:43:15.096029	340.8	11.6	-73.7	0.0
2026-01-24 11:43:16.225555	340.9	11.5	-74.9	0.0
2026-01-24 11:43:17.355325	340.9	11.4	-73.9	0.0
2026-01-24 11:43:18.482146	340.9	11.3	-73.9	0.0
2026-01-24 11:43:19.610643	340.9	11.2	-70.9	0.0
2026-01-24 11:43:20.739236	341.0	11.1	-72.9	0.0
2026-01-24 11:43:21.866212	341.0	11.0	-74.4	0.0
2026-01-24 11:43:22.995644	341.0	10.9	-73.7	0.0
2026-01-24 11:43:24.125244	341.0	10.8	-71.5	0.0
2026-01-24 11:43:25.253383	341.1	10.7	-72.0	0.0
2026-01-24 11:43:26.382416	341.1	10.6	-71.4	0.0
2026-01-24 11:43:27.520246	341.1	10.5	-70.4	0.0
2026-01-24 11:43:28.657335	341.1	10.4	-73.5	0.0
2026-01-24 11:43:29.796292	341.1	10.3	-71.6	0.0
2026-01-24 11:43:30.930057	341.2	10.2	-76.3	0.0
2026-01-24 11:43:32.068541	341.2	10.1	-77.4	0.0
#Closed at: 2026-01-24 11:32:41.762505