passes_logs/2026/01/24/planumMaritime01/planumMaritime01__20260124_075453_METOP-B_rec.log

#Pass ID: 20260124_075453_METOP-B
#Satellite: METOP-B
#Configuration: METOP-B
#Start time: 2026-01-24 07:54:58.945194

#LorettStation: 1.0.0 05.05.2024
#Station: planumMaritime01
#Location: 37.49445 lon 55.92918 lat
#TLE: 1 38771U 12049A   26022.97235704  .00000260  00000+0  13896-3 0  9998
#TLE: 2 38771  98.6736  77.2202 0003075  60.7389 299.4096 14.21426861692635

#Time	Az	El	Level	SNR
2026-01-24 07:55:03.146994	9.6	10.4	-62.0	0.0
2026-01-24 07:55:04.275507	9.6	10.5	-63.6	0.0
2026-01-24 07:55:05.402176	9.5	10.5	-62.8	0.0
2026-01-24 07:55:06.528181	9.5	10.6	-61.1	0.0
2026-01-24 07:55:07.656177	9.4	10.7	-62.9	0.0
2026-01-24 07:55:08.782240	9.4	10.8	-61.0	0.0
2026-01-24 07:55:09.908513	9.3	10.9	-60.7	0.0
2026-01-24 07:55:11.035433	9.3	11.0	-62.1	0.0
2026-01-24 07:55:12.161726	9.2	11.1	-61.2	0.0
2026-01-24 07:55:13.288520	9.1	11.2	-59.7	0.0
2026-01-24 07:55:14.418587	9.1	11.3	-61.3	0.0
2026-01-24 07:55:15.546689	9.0	11.4	-61.5	0.0
2026-01-24 07:55:16.671903	9.0	11.5	-59.5	0.0
2026-01-24 07:55:17.799383	8.9	11.6	-60.7	0.0
2026-01-24 07:55:18.925327	8.9	11.7	-60.9	0.0
2026-01-24 07:55:20.052124	8.8	11.8	-61.2	0.0
2026-01-24 07:55:21.179152	8.7	11.9	-61.7	0.0
2026-01-24 07:55:22.305342	8.7	12.0	-59.0	0.0
2026-01-24 07:55:23.431562	8.6	12.1	-60.8	0.0
2026-01-24 07:55:24.557785	8.6	12.2	-61.8	0.0
2026-01-24 07:55:25.684020	8.5	12.4	-63.0	0.0
2026-01-24 07:55:26.812616	8.5	12.5	-61.3	0.0
2026-01-24 07:55:27.939247	8.4	12.6	-60.9	0.0
2026-01-24 07:55:29.064812	8.3	12.7	-60.4	0.0
2026-01-24 07:55:30.191180	8.3	12.8	-59.6	0.0
2026-01-24 07:55:31.315645	8.2	12.9	-57.5	0.0
2026-01-24 07:55:32.443858	8.1	13.0	-58.2	0.0
2026-01-24 07:55:33.568958	8.1	13.1	-56.3	0.0
2026-01-24 07:55:34.694372	8.0	13.2	-59.7	0.0
2026-01-24 07:55:35.821681	8.0	13.3	-60.7	0.0
2026-01-24 07:55:36.947968	7.9	13.4	-59.3	0.0
2026-01-24 07:55:38.075118	7.8	13.5	-61.5	0.0
2026-01-24 07:55:39.202655	7.8	13.6	-61.6	0.0
2026-01-24 07:55:40.329958	7.7	13.7	-62.1	0.0
2026-01-24 07:55:41.455864	7.6	13.8	-62.3	0.0
2026-01-24 07:55:42.581647	7.6	14.0	-60.9	0.0
2026-01-24 07:55:43.707231	7.5	14.1	-61.2	0.0
2026-01-24 07:55:44.834407	7.4	14.2	-62.5	0.0
2026-01-24 07:55:45.961515	7.4	14.3	-60.6	0.0
2026-01-24 07:55:47.087706	7.3	14.4	-60.5	0.0
2026-01-24 07:55:48.214724	7.2	14.5	-60.2	0.0
2026-01-24 07:55:49.342348	7.1	14.6	-62.4	0.0
2026-01-24 07:55:50.470603	7.1	14.7	-61.1	0.0
2026-01-24 07:55:51.599627	7.0	14.9	-61.1	0.0
2026-01-24 07:55:52.723791	6.9	15.0	-62.2	0.0
2026-01-24 07:55:53.851858	6.9	15.1	-62.2	0.0
2026-01-24 07:55:54.979407	6.8	15.2	-62.2	0.0
2026-01-24 07:55:56.108824	6.7	15.3	-62.9	0.0
2026-01-24 07:55:57.238194	6.6	15.4	-63.7	0.0
2026-01-24 07:55:58.363807	6.6	15.5	-60.7	0.0
2026-01-24 07:55:59.491060	6.5	15.7	-61.5	0.0
2026-01-24 07:56:00.617081	6.4	15.8	-61.8	0.0
2026-01-24 07:56:01.744265	6.3	15.9	-60.9	0.0
2026-01-24 07:56:02.872379	6.3	16.0	-62.3	0.0
2026-01-24 07:56:04.000546	6.2	16.1	-62.8	0.0
2026-01-24 07:56:05.128940	6.1	16.3	-63.1	0.0
2026-01-24 07:56:06.257505	6.0	16.4	-61.5	0.0
2026-01-24 07:56:07.383495	5.9	16.5	-60.5	0.0
2026-01-24 07:56:08.510574	5.9	16.6	-63.7	0.0
2026-01-24 07:56:09.637219	5.8	16.7	-62.1	0.0
2026-01-24 07:56:10.763109	5.7	16.9	-63.1	0.0
2026-01-24 07:56:11.890178	5.6	17.0	-62.9	0.0
2026-01-24 07:56:13.016156	5.5	17.1	-62.3	0.0
2026-01-24 07:56:14.142030	5.4	17.2	-62.0	0.0
2026-01-24 07:56:15.272765	5.4	17.4	-63.1	0.0
2026-01-24 07:56:16.398294	5.3	17.5	-63.1	0.0
2026-01-24 07:56:17.527575	5.2	17.6	-60.1	0.0
2026-01-24 07:56:18.653386	5.1	17.7	-63.1	0.0
2026-01-24 07:56:19.781591	5.0	17.9	-62.9	0.0
2026-01-24 07:56:20.909080	4.9	18.0	-63.1	0.0
2026-01-24 07:56:22.035254	4.8	18.1	-62.7	0.0
2026-01-24 07:56:23.162322	4.7	18.3	-63.2	0.0
2026-01-24 07:56:24.287655	4.7	18.4	-62.7	0.0
2026-01-24 07:56:25.414729	4.6	18.5	-62.1	0.0
2026-01-24 07:56:26.541377	4.5	18.6	-60.2	0.0
2026-01-24 07:56:27.667762	4.4	18.8	-60.7	0.0
2026-01-24 07:56:28.793639	4.3	18.9	-62.3	0.0
2026-01-24 07:56:29.919840	4.2	19.0	-62.6	0.0
2026-01-24 07:56:31.046659	4.1	19.2	-62.0	0.0
2026-01-24 07:56:32.172227	4.0	19.3	-62.9	0.0
2026-01-24 07:56:33.299623	3.9	19.4	-60.5	0.0
2026-01-24 07:56:34.426685	3.8	19.6	-60.9	0.0
2026-01-24 07:56:35.552033	3.7	19.7	-63.1	0.0
2026-01-24 07:56:36.679372	3.6	19.9	-61.5	0.0
2026-01-24 07:56:37.805984	3.5	20.0	-64.0	0.0
2026-01-24 07:56:38.931607	3.4	20.1	-62.7	0.0
2026-01-24 07:56:40.057423	3.3	20.3	-59.9	0.0
2026-01-24 07:56:41.184887	3.2	20.4	-63.6	0.0
2026-01-24 07:56:42.310516	3.1	20.5	-61.8	0.0
2026-01-24 07:56:43.435912	3.0	20.7	-64.0	0.0
2026-01-24 07:56:44.560818	2.9	20.8	-64.1	0.0
2026-01-24 07:56:45.687219	2.8	21.0	-59.3	0.0
2026-01-24 07:56:46.812849	2.6	21.1	-62.9	0.0
2026-01-24 07:56:47.938356	2.5	21.3	-62.9	0.0
2026-01-24 07:56:49.063772	2.4	21.4	-62.2	0.0
2026-01-24 07:56:50.188885	2.3	21.5	-63.3	0.0
2026-01-24 07:56:51.313786	2.2	21.7	-62.4	0.0
2026-01-24 07:56:52.440102	2.1	21.8	-64.3	0.0
2026-01-24 07:56:53.567454	2.0	22.0	-58.4	0.0
2026-01-24 07:56:54.693588	1.8	22.1	-62.6	0.0
2026-01-24 07:56:55.819824	1.7	22.3	-63.5	0.0
2026-01-24 07:56:56.945344	1.6	22.4	-62.2	0.0
2026-01-24 07:56:58.070779	1.5	22.6	-63.8	0.0
2026-01-24 07:56:59.196131	1.4	22.7	-64.1	0.0
2026-01-24 07:57:00.319330	1.2	22.9	-63.7	0.0
2026-01-24 07:57:01.447173	1.1	23.0	-63.4	0.0
2026-01-24 07:57:02.572713	1.0	23.2	-64.4	0.0
2026-01-24 07:57:03.698331	0.9	23.3	-63.0	0.0
2026-01-24 07:57:04.825349	0.7	23.5	-62.2	0.0
2026-01-24 07:57:05.950342	0.6	23.6	-63.3	0.0
2026-01-24 07:57:07.076590	0.5	23.8	-61.7	0.0
2026-01-24 07:57:08.202140	0.3	24.0	-62.8	0.0
2026-01-24 07:57:09.328820	0.2	24.1	-62.8	0.0
2026-01-24 07:57:10.454368	0.1	24.3	-62.1	0.0
2026-01-24 07:57:11.580686	359.9	24.4	-61.8	0.0
2026-01-24 07:57:12.706756	359.8	24.6	-64.0	0.0
2026-01-24 07:57:13.834032	359.7	24.8	-60.4	0.0
2026-01-24 07:57:14.960995	359.5	24.9	-58.6	0.0
2026-01-24 07:57:16.089483	359.4	25.1	-60.5	0.0
2026-01-24 07:57:17.216775	359.2	25.2	-60.1	0.0
2026-01-24 07:57:18.342247	359.1	25.4	-60.3	0.0
2026-01-24 07:57:19.468691	358.9	25.6	-60.9	0.0
2026-01-24 07:57:20.592835	358.8	25.7	-62.3	0.0
2026-01-24 07:57:21.719903	358.6	25.9	-63.4	0.0
2026-01-24 07:57:22.846483	358.5	26.1	-64.5	0.0
2026-01-24 07:57:23.972739	358.3	26.2	-64.4	0.0
2026-01-24 07:57:25.099500	358.2	26.4	-62.7	0.0
2026-01-24 07:57:26.227097	358.0	26.6	-63.8	0.0
2026-01-24 07:57:27.354832	357.9	26.7	-65.1	0.0
2026-01-24 07:57:28.480855	357.7	26.9	-65.1	0.0
2026-01-24 07:57:29.606180	357.5	27.1	-62.9	0.0
2026-01-24 07:57:30.732189	357.4	27.3	-64.1	0.0
2026-01-24 07:57:31.857499	357.2	27.4	-64.8	0.0
2026-01-24 07:57:32.986067	357.0	27.6	-64.9	0.0
2026-01-24 07:57:34.112555	356.9	27.8	-65.1	0.0
2026-01-24 07:57:35.239278	356.7	28.0	-64.4	0.0
2026-01-24 07:57:36.366136	356.5	28.1	-63.1	0.0
2026-01-24 07:57:37.491185	356.3	28.3	-60.6	0.0
2026-01-24 07:57:38.615757	356.2	28.5	-63.8	0.0
2026-01-24 07:57:39.740416	356.0	28.7	-64.5	0.0
2026-01-24 07:57:40.869224	355.8	28.9	-64.7	0.0
2026-01-24 07:57:41.995365	355.6	29.0	-64.3	0.0
2026-01-24 07:57:43.124146	355.4	29.2	-64.5	0.0
2026-01-24 07:57:44.251474	355.2	29.4	-63.8	0.0
2026-01-24 07:57:45.379520	355.0	29.6	-64.4	0.0
2026-01-24 07:57:46.506379	354.9	29.8	-63.9	0.0
2026-01-24 07:57:47.633653	354.7	30.0	-63.2	0.0
2026-01-24 07:57:48.759685	354.5	30.1	-62.3	0.0
2026-01-24 07:57:49.885148	354.3	30.3	-64.2	0.0
2026-01-24 07:57:51.010934	354.1	30.5	-64.1	0.0
2026-01-24 07:57:52.137474	353.9	30.7	-64.2	0.0
2026-01-24 07:57:53.265335	353.6	30.9	-64.8	0.0
2026-01-24 07:57:54.391064	353.4	31.1	-65.1	0.0
2026-01-24 07:57:55.518348	353.2	31.3	-65.1	0.0
2026-01-24 07:57:56.644344	353.0	31.5	-64.3	0.0
2026-01-24 07:57:57.772659	352.8	31.7	-63.8	0.0
2026-01-24 07:57:58.899551	352.6	31.9	-65.1	0.0
2026-01-24 07:58:00.024869	352.4	32.1	-63.5	0.0
2026-01-24 07:58:01.151613	352.1	32.2	-64.3	0.0
2026-01-24 07:58:02.278598	351.9	32.4	-64.2	0.0
2026-01-24 07:58:03.403375	351.7	32.6	-63.5	0.0
2026-01-24 07:58:04.528743	351.4	32.8	-65.3	0.0
2026-01-24 07:58:05.654653	351.2	33.0	-66.2	0.0
2026-01-24 07:58:06.780641	351.0	33.2	-65.3	0.0
2026-01-24 07:58:07.905391	350.7	33.4	-64.6	0.0
2026-01-24 07:58:09.032305	350.5	33.6	-66.4	0.0
2026-01-24 07:58:10.158132	350.2	33.8	-64.9	0.0
2026-01-24 07:58:11.286121	350.0	34.0	-66.1	0.0
2026-01-24 07:58:12.410543	349.7	34.2	-67.2	0.0
2026-01-24 07:58:13.538408	349.5	34.4	-62.2	0.0
2026-01-24 07:58:14.665216	349.2	34.7	-67.1	0.0
2026-01-24 07:58:15.791259	348.9	34.9	-67.2	0.0
2026-01-24 07:58:16.918057	348.7	35.1	-67.1	0.0
2026-01-24 07:58:18.047184	348.4	35.3	-67.1	0.0
2026-01-24 07:58:19.173553	348.1	35.5	-66.4	0.0
2026-01-24 07:58:20.298399	347.8	35.7	-67.3	0.0
2026-01-24 07:58:21.425266	347.5	35.9	-66.5	0.0
2026-01-24 07:58:22.551963	347.3	36.1	-67.3	0.0
2026-01-24 07:58:23.677402	347.0	36.3	-66.5	0.0
2026-01-24 07:58:24.804497	346.7	36.5	-66.8	0.0
2026-01-24 07:58:25.930333	346.4	36.7	-67.4	0.0
2026-01-24 07:58:27.054713	346.1	36.9	-67.0	0.0
2026-01-24 07:58:28.182735	345.8	37.1	-67.0	0.0
2026-01-24 07:58:29.308650	345.5	37.4	-66.1	0.0
2026-01-24 07:58:30.433725	345.2	37.6	-66.9	0.0
2026-01-24 07:58:31.561083	344.8	37.8	-65.8	0.0
2026-01-24 07:58:32.688432	344.5	38.0	-65.8	0.0
2026-01-24 07:58:33.814738	344.2	38.2	-66.0	0.0
2026-01-24 07:58:34.939910	343.9	38.4	-66.7	0.0
2026-01-24 07:58:36.066072	343.5	38.6	-65.6	0.0
2026-01-24 07:58:37.193423	343.2	38.8	-66.2	0.0
2026-01-24 07:58:38.319318	342.8	39.1	-67.8	1.6
2026-01-24 07:58:39.444853	342.5	39.3	-67.7	3.0
2026-01-24 07:58:40.570926	342.1	39.5	-65.8	0.0
2026-01-24 07:58:41.697673	341.8	39.7	-65.5	0.0
2026-01-24 07:58:42.825435	341.4	39.9	-66.9	0.0
2026-01-24 07:58:43.952480	341.0	40.1	-67.5	0.0
2026-01-24 07:58:45.080060	340.7	40.3	-67.5	1.8
2026-01-24 07:58:46.206327	340.3	40.6	-68.8	1.6
2026-01-24 07:58:47.331846	339.9	40.8	-68.0	0.0
2026-01-24 07:58:48.458215	339.5	41.0	-69.0	1.4
2026-01-24 07:58:49.585426	339.1	41.2	-65.9	0.0
2026-01-24 07:58:50.710881	338.7	41.4	-68.6	0.3
2026-01-24 07:58:51.838153	338.3	41.6	-69.1	3.2
2026-01-24 07:58:52.964634	337.9	41.8	-69.2	3.4
2026-01-24 07:58:54.089673	337.5	42.0	-69.3	4.6
2026-01-24 07:58:55.218400	337.1	42.2	-68.5	3.0
2026-01-24 07:58:56.344080	336.7	42.5	-68.9	3.1
2026-01-24 07:58:57.471188	336.2	42.7	-69.2	2.3
2026-01-24 07:58:58.598644	335.8	42.9	-69.3	2.4
2026-01-24 07:58:59.724481	335.3	43.1	-69.6	3.3
2026-01-24 07:59:00.850080	334.9	43.3	-69.6	4.0
2026-01-24 07:59:01.980148	334.4	43.5	-69.5	4.6
2026-01-24 07:59:03.107306	334.0	43.7	-69.6	4.0
2026-01-24 07:59:04.233407	333.5	43.9	-69.3	4.0
2026-01-24 07:59:05.359618	333.0	44.1	-69.1	3.0
2026-01-24 07:59:06.487045	332.6	44.3	-69.3	2.4
2026-01-24 07:59:07.615323	332.1	44.5	-68.8	2.9
2026-01-24 07:59:08.741434	331.6	44.7	-69.2	3.4
2026-01-24 07:59:09.867903	331.1	44.9	-67.6	0.0
2026-01-24 07:59:10.993703	330.6	45.1	-67.6	0.0
2026-01-24 07:59:12.122476	330.1	45.3	-69.5	3.2
2026-01-24 07:59:13.251280	329.6	45.5	-68.6	1.9
2026-01-24 07:59:14.380849	329.0	45.7	-68.6	0.0
2026-01-24 07:59:15.506448	328.5	45.9	-69.4	6.3
2026-01-24 07:59:16.636187	328.0	46.1	-68.3	0.0
2026-01-24 07:59:17.761861	327.4	46.3	-66.7	1.4
2026-01-24 07:59:18.888853	326.9	46.4	-69.4	5.0
2026-01-24 07:59:20.016143	326.3	46.6	-68.4	2.4
2026-01-24 07:59:21.141681	325.8	46.8	-68.4	3.0
2026-01-24 07:59:22.270654	325.2	47.0	-66.5	0.0
2026-01-24 07:59:23.398521	324.6	47.2	-68.6	1.6
2026-01-24 07:59:24.524424	324.0	47.3	-67.7	1.9
2026-01-24 07:59:25.652186	323.4	47.5	-68.5	2.2
2026-01-24 07:59:26.782427	322.8	47.7	-68.7	1.8
2026-01-24 07:59:27.909168	322.2	47.8	-69.2	3.4
2026-01-24 07:59:29.036678	321.6	48.0	-68.5	1.4
2026-01-24 07:59:30.163921	321.0	48.2	-69.0	0.8
2026-01-24 07:59:31.292117	320.4	48.3	-67.9	0.0
2026-01-24 07:59:32.416840	319.8	48.5	-68.8	3.5
2026-01-24 07:59:33.543000	319.1	48.6	-68.2	1.5
2026-01-24 07:59:34.669437	318.5	48.8	-68.0	0.5
2026-01-24 07:59:35.798076	317.9	48.9	-67.6	0.0
2026-01-24 07:59:36.925702	317.2	49.1	-68.5	0.1
2026-01-24 07:59:38.050864	316.6	49.2	-68.6	3.6
2026-01-24 07:59:39.177893	315.9	49.3	-67.2	0.0
2026-01-24 07:59:40.303794	315.2	49.5	-67.9	0.0
2026-01-24 07:59:41.430115	314.5	49.6	-68.8	0.7
2026-01-24 07:59:42.555934	313.9	49.7	-69.2	1.1
2026-01-24 07:59:43.683432	313.2	49.8	-69.3	3.4
2026-01-24 07:59:44.809302	312.5	49.9	-69.4	2.4
2026-01-24 07:59:45.935598	311.8	50.0	-67.7	0.0
2026-01-24 07:59:47.062011	311.1	50.1	-69.2	4.5
2026-01-24 07:59:48.188847	310.4	50.2	-68.5	1.8
2026-01-24 07:59:49.314549	309.7	50.3	-67.1	0.0
2026-01-24 07:59:50.441953	309.0	50.4	-68.7	1.5
2026-01-24 07:59:51.568912	308.3	50.5	-68.1	1.4
2026-01-24 07:59:52.696366	307.5	50.6	-68.5	2.2
2026-01-24 07:59:53.823852	306.8	50.7	-68.9	2.9
2026-01-24 07:59:54.950958	306.1	50.7	-68.5	2.8
2026-01-24 07:59:56.076314	305.3	50.8	-68.3	1.2
2026-01-24 07:59:57.206390	304.6	50.9	-66.7	1.7
2026-01-24 07:59:58.332148	303.9	50.9	-68.8	0.9
2026-01-24 07:59:59.459239	303.1	51.0	-67.9	0.0
2026-01-24 08:00:00.584473	302.4	51.0	-69.3	1.7
2026-01-24 08:00:01.712642	301.6	51.1	-71.0	5.8
2026-01-24 08:00:02.839193	300.9	51.1	-66.3	3.1
2026-01-24 08:00:03.967190	300.1	51.2	-69.6	5.8
2026-01-24 08:00:05.094216	299.4	51.2	-69.6	5.6
2026-01-24 08:00:06.219780	298.6	51.2	-68.4	2.2
2026-01-24 08:00:07.346049	297.9	51.2	-69.2	2.8
2026-01-24 08:00:08.470438	297.1	51.2	-68.7	5.2
2026-01-24 08:00:09.597288	296.4	51.2	-69.2	3.2
2026-01-24 08:00:10.723006	295.6	51.2	-69.1	4.3
2026-01-24 08:00:11.847604	294.8	51.2	-69.5	4.6
2026-01-24 08:00:12.973657	294.1	51.2	-67.7	0.0
2026-01-24 08:00:14.099426	293.3	51.2	-69.1	5.3
2026-01-24 08:00:15.226093	292.6	51.2	-69.9	3.2
2026-01-24 08:00:16.354518	291.8	51.2	-67.5	0.0
2026-01-24 08:00:17.481506	291.1	51.1	-69.9	1.4
2026-01-24 08:00:18.607573	290.3	51.1	-70.2	2.4
2026-01-24 08:00:19.734747	289.6	51.1	-70.2	2.4
2026-01-24 08:00:20.860356	288.8	51.0	-69.2	4.0
2026-01-24 08:00:21.986913	288.1	51.0	-69.2	2.0
2026-01-24 08:00:23.116473	287.3	50.9	-68.5	2.9
2026-01-24 08:00:24.242285	286.6	50.9	-69.7	5.8
2026-01-24 08:00:25.368922	285.9	50.8	-68.6	2.4
2026-01-24 08:00:26.496259	285.1	50.7	-69.1	6.6
2026-01-24 08:00:27.622223	284.4	50.6	-69.6	5.1
2026-01-24 08:00:28.746898	283.7	50.6	-69.2	2.1
2026-01-24 08:00:29.871821	283.0	50.5	-69.7	2.6
2026-01-24 08:00:30.998521	282.3	50.4	-70.0	5.1
2026-01-24 08:00:32.125903	281.5	50.3	-71.1	6.3
2026-01-24 08:00:33.250297	280.8	50.2	-70.7	5.1
2026-01-24 08:00:34.376476	280.1	50.1	-70.6	6.3
2026-01-24 08:00:35.503272	279.4	50.0	-69.8	4.0
2026-01-24 08:00:36.629025	278.7	49.9	-70.6	7.9
2026-01-24 08:00:37.755708	278.0	49.8	-70.9	5.7
2026-01-24 08:00:38.882120	277.4	49.6	-70.7	5.1
2026-01-24 08:00:40.008390	276.7	49.5	-70.5	7.7
2026-01-24 08:00:41.134742	276.0	49.4	-71.6	7.6
2026-01-24 08:00:42.265871	275.3	49.3	-70.8	7.4
2026-01-24 08:00:43.391722	274.7	49.1	-70.3	4.5
2026-01-24 08:00:44.518859	274.0	49.0	-71.0	5.9
2026-01-24 08:00:45.646884	273.4	48.9	-70.7	6.4
2026-01-24 08:00:46.773425	272.7	48.7	-70.4	4.0
2026-01-24 08:00:47.906526	272.1	48.6	-70.4	5.3
2026-01-24 08:00:49.031150	271.5	48.4	-70.8	5.9
2026-01-24 08:00:50.157198	270.8	48.3	-71.7	8.2
2026-01-24 08:00:51.284349	270.2	48.1	-72.1	8.2
2026-01-24 08:00:52.410582	269.6	47.9	-72.2	8.3
2026-01-24 08:00:53.536178	269.0	47.8	-72.0	7.3
2026-01-24 08:00:54.663357	268.4	47.6	-72.1	7.0
2026-01-24 08:00:55.788703	267.8	47.4	-72.0	6.6
2026-01-24 08:00:56.913077	267.2	47.3	-71.8	6.0
2026-01-24 08:00:58.037940	266.6	47.1	-72.1	6.7
2026-01-24 08:00:59.166047	266.1	46.9	-72.2	6.3
2026-01-24 08:01:00.292402	265.5	46.7	-72.5	7.0
2026-01-24 08:01:01.418353	264.9	46.5	-72.9	7.7
2026-01-24 08:01:02.544558	264.4	46.4	-72.8	6.9
2026-01-24 08:01:03.669120	263.8	46.2	-73.1	7.3
2026-01-24 08:01:04.793797	263.3	46.0	-72.3	6.9
2026-01-24 08:01:05.919284	262.8	45.8	-73.0	7.1
2026-01-24 08:01:07.046360	262.2	45.6	-73.2	8.4
2026-01-24 08:01:08.171817	261.7	45.4	-72.9	6.6
2026-01-24 08:01:09.296729	261.2	45.2	-72.7	6.2
2026-01-24 08:01:10.424940	260.7	45.0	-72.5	5.9
2026-01-24 08:01:11.550940	260.2	44.8	-72.7	6.6
2026-01-24 08:01:12.678436	259.7	44.6	-72.3	5.8
2026-01-24 08:01:13.806093	259.2	44.4	-73.5	8.1
2026-01-24 08:01:14.931981	258.7	44.2	-73.2	7.8
2026-01-24 08:01:16.060156	258.3	44.0	-73.0	8.4
2026-01-24 08:01:17.187875	257.8	43.8	-73.6	8.4
2026-01-24 08:01:18.314643	257.3	43.6	-73.1	7.8
2026-01-24 08:01:19.440820	256.9	43.4	-73.3	8.9
2026-01-24 08:01:20.567090	256.4	43.2	-73.1	7.8
2026-01-24 08:01:21.695925	256.0	43.0	-72.4	6.7
2026-01-24 08:01:22.822429	255.5	42.8	-73.0	7.3
2026-01-24 08:01:23.948921	255.1	42.6	-73.2	9.3
2026-01-24 08:01:25.076821	254.6	42.4	-73.0	7.2
2026-01-24 08:01:26.203682	254.2	42.1	-72.9	8.7
2026-01-24 08:01:27.330657	253.8	41.9	-72.8	9.0
2026-01-24 08:01:28.457108	253.4	41.7	-73.1	8.4
2026-01-24 08:01:29.582591	253.0	41.5	-72.9	8.1
2026-01-24 08:01:30.708245	252.6	41.3	-72.8	7.6
2026-01-24 08:01:31.837135	252.2	41.1	-72.8	8.5
2026-01-24 08:01:32.964322	251.8	40.9	-73.1	8.5
2026-01-24 08:01:34.089434	251.4	40.7	-73.3	9.5
2026-01-24 08:01:35.213936	251.0	40.4	-72.9	8.6
2026-01-24 08:01:36.341723	250.6	40.2	-73.0	8.6
2026-01-24 08:01:37.465607	250.3	40.0	-73.2	9.3
2026-01-24 08:01:38.593636	249.9	39.8	-73.3	8.6
2026-01-24 08:01:39.720990	249.5	39.6	-72.9	8.2
2026-01-24 08:01:40.847118	249.2	39.4	-72.8	8.3
2026-01-24 08:01:41.973260	248.8	39.2	-72.7	8.8
2026-01-24 08:01:43.098665	248.5	38.9	-73.2	9.5
2026-01-24 08:01:44.224188	248.1	38.7	-72.7	9.3
2026-01-24 08:01:45.350088	247.8	38.5	-73.5	10.2
2026-01-24 08:01:46.476895	247.5	38.3	-73.3	9.6
2026-01-24 08:01:47.604683	247.1	38.1	-72.9	8.2
2026-01-24 08:01:48.729683	246.8	37.9	-73.0	9.6
2026-01-24 08:01:49.857486	246.5	37.7	-73.0	9.3
2026-01-24 08:01:50.983018	246.2	37.4	-73.3	9.8
2026-01-24 08:01:52.110310	245.9	37.2	-73.2	9.0
2026-01-24 08:01:53.236779	245.5	37.0	-73.3	8.2
2026-01-24 08:01:54.363452	245.2	36.8	-73.5	7.9
2026-01-24 08:01:55.489379	244.9	36.6	-73.0	8.3
2026-01-24 08:01:56.613846	244.6	36.4	-73.2	8.7
2026-01-24 08:01:57.742406	244.4	36.2	-73.5	8.8
2026-01-24 08:01:58.868888	244.1	36.0	-73.3	8.7
2026-01-24 08:01:59.995903	243.8	35.8	-73.3	9.1
2026-01-24 08:02:01.121424	243.5	35.6	-73.6	9.1
2026-01-24 08:02:02.247551	243.2	35.3	-73.0	9.4
2026-01-24 08:02:03.372397	242.9	35.1	-73.3	8.6
2026-01-24 08:02:04.498444	242.7	34.9	-72.6	8.5
2026-01-24 08:02:05.624565	242.4	34.7	-73.3	8.9
2026-01-24 08:02:06.749503	242.1	34.5	-73.2	10.0
2026-01-24 08:02:07.875926	241.9	34.3	-73.0	9.6
2026-01-24 08:02:09.002731	241.6	34.1	-73.3	9.4
2026-01-24 08:02:10.128315	241.4	33.9	-73.2	9.1
2026-01-24 08:02:11.255214	241.1	33.7	-73.6	9.3
2026-01-24 08:02:12.380752	240.9	33.5	-73.5	8.9
2026-01-24 08:02:13.506895	240.6	33.3	-73.2	7.3
2026-01-24 08:02:14.631744	240.4	33.1	-73.4	8.0
2026-01-24 08:02:15.758270	240.1	32.9	-73.6	7.3
2026-01-24 08:02:16.885122	239.9	32.7	-73.6	7.1
2026-01-24 08:02:18.009940	239.7	32.5	-73.1	7.5
2026-01-24 08:02:19.135299	239.4	32.3	-73.0	6.3
2026-01-24 08:02:20.262340	239.2	32.1	-73.1	5.6
2026-01-24 08:02:21.388178	239.0	31.9	-73.1	7.6
2026-01-24 08:02:22.512566	238.8	31.7	-73.3	7.4
2026-01-24 08:02:23.639952	238.5	31.5	-73.0	9.1
2026-01-24 08:02:24.765279	238.3	31.3	-73.1	6.7
2026-01-24 08:02:25.892344	238.1	31.1	-73.0	7.9
2026-01-24 08:02:27.019018	237.9	31.0	-73.0	9.2
2026-01-24 08:02:28.143309	237.7	30.8	-72.6	8.1
2026-01-24 08:02:29.267559	237.5	30.6	-72.9	7.9
2026-01-24 08:02:30.394320	237.3	30.4	-72.8	7.4
2026-01-24 08:02:31.523199	237.1	30.2	-73.3	7.8
2026-01-24 08:02:32.649621	236.9	30.0	-73.6	8.0
2026-01-24 08:02:33.776554	236.7	29.8	-73.7	7.7
2026-01-24 08:02:34.902269	236.5	29.6	-73.5	7.0
2026-01-24 08:02:36.028650	236.3	29.4	-73.4	7.0
2026-01-24 08:02:37.156575	236.1	29.3	-73.6	7.3
2026-01-24 08:02:38.283026	235.9	29.1	-73.5	7.3
2026-01-24 08:02:39.410274	235.7	28.9	-73.9	6.4
2026-01-24 08:02:40.535397	235.5	28.7	-73.5	6.9
2026-01-24 08:02:41.662115	235.4	28.5	-73.8	8.0
2026-01-24 08:02:42.788112	235.2	28.4	-73.6	7.9
2026-01-24 08:02:43.914868	235.0	28.2	-73.7	7.1
2026-01-24 08:02:45.040487	234.8	28.0	-74.1	7.8
2026-01-24 08:02:46.165345	234.6	27.8	-73.9	7.6
2026-01-24 08:02:47.292887	234.5	27.6	-73.7	6.9
2026-01-24 08:02:48.418139	234.3	27.5	-74.2	7.5
2026-01-24 08:02:49.544585	234.1	27.3	-73.7	6.4
2026-01-24 08:02:50.672233	234.0	27.1	-73.0	5.4
2026-01-24 08:02:51.797551	233.8	26.9	-73.7	5.3
2026-01-24 08:02:52.922135	233.6	26.8	-73.9	7.4
2026-01-24 08:02:54.049394	233.5	26.6	-73.6	4.7
2026-01-24 08:02:55.175452	233.3	26.4	-74.1	7.1
2026-01-24 08:02:56.303120	233.2	26.3	-74.0	7.1
2026-01-24 08:02:57.430102	233.0	26.1	-74.0	6.9
2026-01-24 08:02:58.556350	232.9	25.9	-73.2	5.2
2026-01-24 08:02:59.681441	232.7	25.8	-73.9	6.1
2026-01-24 08:03:00.807876	232.6	25.6	-73.3	5.3
2026-01-24 08:03:01.934380	232.4	25.4	-73.9	5.7
2026-01-24 08:03:03.062031	232.3	25.3	-73.9	7.2
2026-01-24 08:03:04.188607	232.1	25.1	-74.3	6.6
2026-01-24 08:03:05.314227	232.0	24.9	-74.5	7.2
2026-01-24 08:03:06.439858	231.8	24.8	-74.3	5.3
2026-01-24 08:03:07.566541	231.7	24.6	-73.5	4.4
2026-01-24 08:03:08.692487	231.5	24.4	-74.1	5.5
2026-01-24 08:03:09.819218	231.4	24.3	-74.2	4.9
2026-01-24 08:03:10.945580	231.3	24.1	-73.5	5.1
2026-01-24 08:03:12.071903	231.1	24.0	-73.1	5.0
2026-01-24 08:03:13.197466	231.0	23.8	-73.9	4.1
2026-01-24 08:03:14.323159	230.9	23.7	-74.0	5.4
2026-01-24 08:03:15.450154	230.7	23.5	-74.0	4.8
2026-01-24 08:03:16.577290	230.6	23.3	-73.9	5.2
2026-01-24 08:03:17.706071	230.5	23.2	-74.0	4.4
2026-01-24 08:03:18.834907	230.3	23.0	-73.9	5.4
2026-01-24 08:03:19.962140	230.2	22.9	-73.8	4.5
2026-01-24 08:03:21.088772	230.1	22.7	-73.7	5.6
2026-01-24 08:03:22.213224	230.0	22.6	-73.7	5.6
2026-01-24 08:03:23.340649	229.8	22.4	-74.1	4.8
2026-01-24 08:03:24.467192	229.7	22.3	-74.1	6.0
2026-01-24 08:03:25.594873	229.6	22.1	-74.2	5.0
2026-01-24 08:03:26.719749	229.5	22.0	-73.4	3.0
2026-01-24 08:03:27.847240	229.4	21.8	-73.7	5.1
2026-01-24 08:03:28.972772	229.2	21.7	-73.7	4.9
2026-01-24 08:03:30.098745	229.1	21.5	-73.5	4.7
2026-01-24 08:03:31.225547	229.0	21.4	-72.4	4.0
2026-01-24 08:03:32.351611	228.9	21.2	-73.1	4.7
2026-01-24 08:03:33.477563	228.8	21.1	-73.7	4.9
2026-01-24 08:03:34.602162	228.7	21.0	-74.4	5.9
2026-01-24 08:03:35.728117	228.6	20.8	-73.9	4.0
2026-01-24 08:03:36.853687	228.5	20.7	-73.8	3.7
2026-01-24 08:03:37.982248	228.4	20.5	-73.1	4.2
2026-01-24 08:03:39.109180	228.2	20.4	-73.3	4.5
2026-01-24 08:03:40.236044	228.1	20.3	-73.1	2.7
2026-01-24 08:03:41.360811	228.0	20.1	-73.0	4.1
2026-01-24 08:03:42.487773	227.9	20.0	-73.4	2.9
2026-01-24 08:03:43.615808	227.8	19.8	-73.6	3.1
2026-01-24 08:03:44.747384	227.7	19.7	-74.0	4.2
2026-01-24 08:03:45.873855	227.6	19.6	-73.2	2.4
2026-01-24 08:03:46.998511	227.5	19.4	-73.8	2.8
2026-01-24 08:03:48.126544	227.4	19.3	-73.3	3.8
2026-01-24 08:03:49.252084	227.3	19.2	-72.5	2.3
2026-01-24 08:03:50.377702	227.2	19.0	-73.2	2.1
2026-01-24 08:03:51.504758	227.1	18.9	-72.3	2.2
2026-01-24 08:03:52.631195	227.0	18.8	-72.7	2.9
2026-01-24 08:03:53.757080	226.9	18.6	-72.6	0.0
2026-01-24 08:03:54.884168	226.8	18.5	-73.0	1.8
2026-01-24 08:03:56.011194	226.8	18.4	-73.3	2.8
2026-01-24 08:03:57.138200	226.7	18.2	-72.9	1.5
2026-01-24 08:03:58.263425	226.6	18.1	-73.8	2.5
2026-01-24 08:03:59.390708	226.5	18.0	-73.2	1.9
2026-01-24 08:04:00.517810	226.4	17.8	-73.0	2.9
2026-01-24 08:04:01.643323	226.3	17.7	-73.0	1.5
2026-01-24 08:04:02.769438	226.2	17.6	-73.7	2.4
2026-01-24 08:04:03.895208	226.1	17.5	-73.3	2.9
2026-01-24 08:04:05.019741	226.0	17.3	-73.0	2.2
2026-01-24 08:04:06.145195	225.9	17.2	-72.6	2.5
2026-01-24 08:04:07.271770	225.9	17.1	-73.4	2.2
2026-01-24 08:04:08.398600	225.8	17.0	-72.9	2.7
2026-01-24 08:04:09.523468	225.7	16.8	-73.1	0.8
2026-01-24 08:04:10.649814	225.6	16.7	-73.1	1.6
2026-01-24 08:04:11.775910	225.5	16.6	-73.3	3.5
2026-01-24 08:04:12.901673	225.4	16.5	-73.2	0.0
2026-01-24 08:04:14.027387	225.4	16.3	-73.0	0.5
2026-01-24 08:04:15.153752	225.3	16.2	-72.7	0.0
2026-01-24 08:04:16.283181	225.2	16.1	-72.7	2.7
2026-01-24 08:04:17.408803	225.1	16.0	-72.5	0.6
2026-01-24 08:04:18.534280	225.0	15.9	-72.6	0.0
2026-01-24 08:04:19.659984	225.0	15.7	-73.3	0.0
2026-01-24 08:04:20.787074	224.9	15.6	-72.7	0.0
2026-01-24 08:04:21.911901	224.8	15.5	-72.9	0.0
2026-01-24 08:04:23.035602	224.7	15.4	-73.0	0.0
2026-01-24 08:04:24.159879	224.7	15.3	-72.3	0.0
2026-01-24 08:04:25.285535	224.6	15.2	-72.6	0.0
2026-01-24 08:04:26.412791	224.5	15.0	-72.7	0.0
2026-01-24 08:04:27.538856	224.4	14.9	-72.5	0.0
2026-01-24 08:04:28.664157	224.4	14.8	-73.0	0.0
2026-01-24 08:04:29.792781	224.3	14.7	-72.7	0.0
2026-01-24 08:04:30.917393	224.2	14.6	-72.2	0.0
2026-01-24 08:04:32.043392	224.1	14.5	-72.5	0.0
2026-01-24 08:04:33.169671	224.1	14.4	-72.7	0.0
2026-01-24 08:04:34.294636	224.0	14.2	-72.2	0.0
2026-01-24 08:04:35.418976	223.9	14.1	-71.7	0.0
2026-01-24 08:04:36.544819	223.9	14.0	-72.0	0.0
2026-01-24 08:04:37.673251	223.8	13.9	-72.0	0.0
2026-01-24 08:04:38.798096	223.7	13.8	-72.4	0.0
2026-01-24 08:04:39.925161	223.7	13.7	-72.8	0.0
2026-01-24 08:04:41.050083	223.6	13.6	-72.4	0.0
2026-01-24 08:04:42.175859	223.5	13.5	-72.5	0.0
2026-01-24 08:04:43.300188	223.5	13.4	-72.9	0.0
2026-01-24 08:04:44.427423	223.4	13.3	-72.5	0.0
2026-01-24 08:04:45.553100	223.3	13.1	-72.3	0.0
2026-01-24 08:04:46.681048	223.3	13.0	-71.6	0.0
2026-01-24 08:04:47.808432	223.2	12.9	-72.6	0.0
2026-01-24 08:04:48.935356	223.1	12.8	-72.3	0.0
2026-01-24 08:04:50.061954	223.1	12.7	-72.0	0.0
2026-01-24 08:04:51.188316	223.0	12.6	-72.5	0.7
2026-01-24 08:04:52.313349	223.0	12.5	-71.6	0.0
2026-01-24 08:04:53.438415	222.9	12.4	-71.8	0.0
2026-01-24 08:04:54.563893	222.8	12.3	-71.5	0.0
2026-01-24 08:04:55.689787	222.8	12.2	-71.7	0.0
2026-01-24 08:04:56.816941	222.7	12.1	-72.7	0.0
2026-01-24 08:04:57.944148	222.6	12.0	-72.6	0.0
2026-01-24 08:04:59.069783	222.6	11.9	-72.0	0.0
2026-01-24 08:05:00.195813	222.5	11.8	-72.4	0.0
2026-01-24 08:05:01.321831	222.5	11.7	-72.5	0.0
2026-01-24 08:05:02.448516	222.4	11.6	-72.4	0.0
2026-01-24 08:05:03.573458	222.4	11.5	-71.8	0.0
2026-01-24 08:05:04.699842	222.3	11.4	-72.0	0.0
2026-01-24 08:05:05.825539	222.2	11.3	-71.6	0.0
2026-01-24 08:05:06.950547	222.2	11.2	-71.6	0.0
2026-01-24 08:05:08.074907	222.1	11.1	-71.8	0.0
2026-01-24 08:05:09.200300	222.1	11.0	-72.3	0.0
2026-01-24 08:05:10.326402	222.0	10.9	-73.3	0.0
2026-01-24 08:05:11.452735	222.0	10.8	-74.8	0.0
2026-01-24 08:05:12.579612	221.9	10.7	-76.6	0.0
2026-01-24 08:05:13.703849	221.9	10.6	-76.1	0.0
2026-01-24 08:05:14.828645	221.8	10.5	-77.2	0.0
2026-01-24 08:05:15.957064	221.7	10.4	-77.0	0.0
2026-01-24 08:05:17.083426	221.7	10.3	-78.0	0.0
2026-01-24 08:05:18.208931	221.6	10.2	-78.1	0.0
2026-01-24 08:05:19.335253	221.6	10.1	-78.0	0.0
2026-01-24 08:05:20.461754	221.5	10.0	-78.0	0.0
#Closed at: 2026-01-24 07:54:53.952022