passes_logs/2026/01/24/planumMaritime01/planumMaritime01__20260124_014321_METEOR-M2_4_rec.log

#Pass ID: 20260124_014321_METEOR-M2 4
#Satellite: METEOR-M2 4
#Configuration: METEOR-M2 4
#Start time: 2026-01-24 01:43:26.839849

#LorettStation: 1.0.0 05.05.2024
#Station: planumMaritime01
#Location: 37.49445 lon 55.92918 lat
#TLE: 1 59051U 24039A   26022.99662541  .00000092  00000+0  61079-4 0  9999
#TLE: 2 59051  98.6828 344.2711 0006195 224.4084 135.6597 14.22408952 98628

#Time	Az	El	Level	SNR
2026-01-24 01:43:29.015215	9.7	10.2	-75.3	0.0
2026-01-24 01:43:30.145750	9.6	10.3	-74.8	0.0
2026-01-24 01:43:31.282281	9.6	10.4	-74.4	0.0
2026-01-24 01:43:32.419926	9.5	10.5	-73.0	0.0
2026-01-24 01:43:33.555931	9.5	10.6	-72.9	0.0
2026-01-24 01:43:34.693058	9.4	10.7	-73.1	0.0
2026-01-24 01:43:35.832813	9.4	10.8	-72.9	0.0
2026-01-24 01:43:36.971735	9.3	10.9	-72.8	0.0
2026-01-24 01:43:38.105278	9.3	11.0	-73.3	0.0
2026-01-24 01:43:39.240025	9.2	11.1	-72.7	0.0
2026-01-24 01:43:40.375818	9.2	11.2	-73.5	0.0
2026-01-24 01:43:41.517850	9.1	11.3	-73.7	0.0
2026-01-24 01:43:42.653157	9.0	11.4	-73.7	0.0
2026-01-24 01:43:43.788190	9.0	11.5	-70.7	0.0
2026-01-24 01:43:44.922912	8.9	11.6	-72.0	0.0
2026-01-24 01:43:46.054747	8.9	11.7	-73.5	0.0
2026-01-24 01:43:47.190606	8.8	11.8	-70.6	0.0
2026-01-24 01:43:48.325868	8.8	11.9	-72.9	0.0
2026-01-24 01:43:49.461062	8.7	12.0	-72.9	0.0
2026-01-24 01:43:50.597865	8.6	12.1	-72.4	0.0
2026-01-24 01:43:51.734029	8.6	12.2	-73.0	0.0
2026-01-24 01:43:52.870369	8.5	12.3	-73.2	0.0
2026-01-24 01:43:54.003453	8.5	12.4	-73.3	0.0
2026-01-24 01:43:55.139226	8.4	12.5	-73.4	0.0
2026-01-24 01:43:56.273058	8.3	12.6	-72.6	0.0
2026-01-24 01:43:57.408707	8.3	12.7	-71.1	0.0
2026-01-24 01:43:58.543336	8.2	12.8	-71.7	0.0
2026-01-24 01:43:59.677206	8.1	12.9	-73.7	0.0
2026-01-24 01:44:00.807014	8.1	13.0	-73.9	0.0
2026-01-24 01:44:01.940467	8.0	13.1	-72.8	0.0
2026-01-24 01:44:03.073412	8.0	13.2	-73.0	0.0
2026-01-24 01:44:04.207481	7.9	13.3	-73.8	0.0
2026-01-24 01:44:05.340593	7.8	13.4	-72.7	0.0
2026-01-24 01:44:06.470907	7.8	13.6	-73.3	0.0
2026-01-24 01:44:07.605001	7.7	13.7	-74.7	0.0
2026-01-24 01:44:08.736226	7.6	13.8	-74.4	0.0
2026-01-24 01:44:09.869974	7.6	13.9	-71.6	0.0
2026-01-24 01:44:11.004161	7.5	14.0	-73.1	0.0
2026-01-24 01:44:12.135773	7.4	14.1	-71.0	0.0
2026-01-24 01:44:13.269023	7.4	14.2	-73.2	0.0
2026-01-24 01:44:14.402605	7.3	14.3	-73.1	0.0
2026-01-24 01:44:15.534143	7.2	14.4	-71.9	0.0
2026-01-24 01:44:16.666589	7.1	14.6	-74.2	0.0
2026-01-24 01:44:17.803863	7.1	14.7	-72.3	0.0
2026-01-24 01:44:18.939895	7.0	14.8	-74.1	0.0
2026-01-24 01:44:20.077668	6.9	14.9	-76.0	0.0
2026-01-24 01:44:21.217085	6.9	15.0	-73.8	0.0
2026-01-24 01:44:22.357688	6.8	15.1	-71.9	0.0
2026-01-24 01:44:23.494135	6.7	15.2	-74.5	0.0
2026-01-24 01:44:24.631889	6.6	15.4	-74.3	0.0
2026-01-24 01:44:25.770477	6.6	15.5	-70.3	0.0
2026-01-24 01:44:26.907075	6.5	15.6	-72.3	0.0
2026-01-24 01:44:28.044500	6.4	15.7	-75.1	0.0
2026-01-24 01:44:29.182269	6.3	15.8	-73.8	0.0
2026-01-24 01:44:30.318910	6.2	16.0	-74.1	0.0
2026-01-24 01:44:31.453808	6.2	16.1	-73.3	0.0
2026-01-24 01:44:32.593711	6.1	16.2	-72.3	0.0
2026-01-24 01:44:33.732020	6.0	16.3	-74.0	0.0
2026-01-24 01:44:34.873006	5.9	16.4	-73.5	0.0
2026-01-24 01:44:36.011710	5.8	16.6	-73.4	0.0
2026-01-24 01:44:37.146659	5.8	16.7	-73.5	0.0
2026-01-24 01:44:38.281452	5.7	16.8	-74.8	0.0
2026-01-24 01:44:39.415098	5.6	16.9	-73.8	0.0
2026-01-24 01:44:40.548250	5.5	17.1	-73.8	0.0
2026-01-24 01:44:41.681698	5.4	17.2	-73.1	0.0
2026-01-24 01:44:42.817399	5.3	17.3	-71.8	0.0
2026-01-24 01:44:43.952095	5.2	17.4	-70.7	0.0
2026-01-24 01:44:45.086567	5.2	17.6	-71.7	0.0
2026-01-24 01:44:46.221264	5.1	17.7	-73.1	0.0
2026-01-24 01:44:47.358876	5.0	17.8	-72.7	0.0
2026-01-24 01:44:48.492529	4.9	17.9	-73.4	0.0
2026-01-24 01:44:49.623659	4.8	18.1	-72.6	0.0
2026-01-24 01:44:50.761120	4.7	18.2	-74.1	0.0
2026-01-24 01:44:51.897799	4.6	18.3	-73.5	0.0
2026-01-24 01:44:53.031939	4.5	18.5	-74.1	0.0
2026-01-24 01:44:54.162935	4.4	18.6	-73.5	0.0
2026-01-24 01:44:55.292032	4.3	18.7	-72.4	0.0
2026-01-24 01:44:56.423216	4.2	18.9	-72.4	0.0
2026-01-24 01:44:57.552485	4.1	19.0	-71.9	0.0
2026-01-24 01:44:58.687466	4.0	19.1	-73.2	0.0
2026-01-24 01:44:59.826715	4.0	19.3	-73.1	0.0
2026-01-24 01:45:00.960049	3.9	19.4	-72.5	0.0
2026-01-24 01:45:02.094510	3.8	19.5	-73.2	0.0
2026-01-24 01:45:03.229326	3.7	19.7	-73.1	0.0
2026-01-24 01:45:04.356710	3.5	19.8	-73.0	0.0
2026-01-24 01:45:05.483524	3.4	19.9	-72.5	0.0
2026-01-24 01:45:06.612812	3.3	20.1	-72.3	0.0
2026-01-24 01:45:07.744820	3.2	20.2	-70.7	0.0
2026-01-24 01:45:08.872002	3.1	20.3	-73.0	0.0
2026-01-24 01:45:10.002335	3.0	20.5	-73.3	0.0
2026-01-24 01:45:11.131746	2.9	20.6	-73.2	0.0
2026-01-24 01:45:12.259179	2.8	20.8	-73.2	0.0
2026-01-24 01:45:13.389050	2.7	20.9	-72.9	0.0
2026-01-24 01:45:14.519467	2.6	21.1	-72.1	0.0
2026-01-24 01:45:15.649947	2.5	21.2	-71.3	0.0
2026-01-24 01:45:16.780187	2.4	21.3	-72.2	0.0
2026-01-24 01:45:17.914716	2.3	21.5	-73.1	0.0
2026-01-24 01:45:19.050364	2.1	21.6	-72.7	0.0
2026-01-24 01:45:20.184477	2.0	21.8	-72.8	0.0
2026-01-24 01:45:21.322411	1.9	21.9	-72.8	0.0
2026-01-24 01:45:22.460427	1.8	22.1	-73.2	0.0
2026-01-24 01:45:23.596736	1.7	22.2	-72.0	0.0
2026-01-24 01:45:24.732525	1.5	22.4	-72.5	0.0
2026-01-24 01:45:25.868825	1.4	22.5	-71.6	0.0
2026-01-24 01:45:27.009631	1.3	22.7	-70.5	0.0
2026-01-24 01:45:28.143062	1.2	22.8	-72.9	0.0
2026-01-24 01:45:29.277119	1.0	23.0	-72.4	0.0
2026-01-24 01:45:30.414641	0.9	23.1	-72.6	0.0
2026-01-24 01:45:31.553649	0.8	23.3	-72.0	0.0
2026-01-24 01:45:32.689975	0.7	23.4	-72.5	0.0
2026-01-24 01:45:33.825976	0.5	23.6	-72.7	0.0
2026-01-24 01:45:34.964757	0.4	23.8	-73.1	0.0
2026-01-24 01:45:36.098933	0.3	23.9	-72.0	0.0
2026-01-24 01:45:37.235308	0.1	24.1	-71.8	0.0
2026-01-24 01:45:38.370745	360.0	24.2	-72.4	0.0
2026-01-24 01:45:39.506044	359.8	24.4	-72.3	0.0
2026-01-24 01:45:40.643096	359.7	24.6	-72.3	0.0
2026-01-24 01:45:41.780653	359.6	24.7	-72.1	0.0
2026-01-24 01:45:42.916771	359.4	24.9	-72.5	0.0
2026-01-24 01:45:44.057580	359.3	25.0	-73.4	0.0
2026-01-24 01:45:45.193990	359.1	25.2	-74.0	0.0
2026-01-24 01:45:46.331248	359.0	25.4	-73.9	0.0
2026-01-24 01:45:47.472455	358.8	25.5	-72.1	0.0
2026-01-24 01:45:48.607707	358.7	25.7	-73.4	0.0
2026-01-24 01:45:49.747736	358.5	25.9	-73.5	0.0
2026-01-24 01:45:50.884852	358.4	26.0	-73.8	0.0
2026-01-24 01:45:52.023073	358.2	26.2	-73.7	0.0
2026-01-24 01:45:53.161534	358.1	26.4	-73.9	0.0
2026-01-24 01:45:54.298070	357.9	26.5	-74.1	0.0
2026-01-24 01:45:55.434571	357.7	26.7	-73.9	0.0
2026-01-24 01:45:56.574652	357.6	26.9	-74.3	0.0
2026-01-24 01:45:57.712004	357.4	27.1	-73.6	0.0
2026-01-24 01:45:58.850058	357.2	27.2	-73.4	0.0
2026-01-24 01:45:59.992374	357.1	27.4	-73.2	0.0
2026-01-24 01:46:01.131958	356.9	27.6	-73.4	0.0
2026-01-24 01:46:02.268238	356.7	27.8	-73.4	0.0
2026-01-24 01:46:03.404755	356.5	27.9	-73.9	0.0
2026-01-24 01:46:04.542888	356.4	28.1	-73.7	0.0
2026-01-24 01:46:05.679935	356.2	28.3	-74.9	0.0
2026-01-24 01:46:06.817457	356.0	28.5	-71.7	0.0
2026-01-24 01:46:07.955875	355.8	28.7	-71.6	0.0
2026-01-24 01:46:09.093517	355.6	28.8	-73.4	0.0
2026-01-24 01:46:10.232646	355.5	29.0	-72.6	0.0
2026-01-24 01:46:11.368675	355.3	29.2	-72.0	0.0
2026-01-24 01:46:12.509133	355.1	29.4	-73.1	0.0
2026-01-24 01:46:13.647635	354.9	29.6	-73.1	0.0
2026-01-24 01:46:14.785369	354.7	29.8	-74.1	0.0
2026-01-24 01:46:15.922598	354.5	30.0	-74.8	0.0
2026-01-24 01:46:17.064782	354.3	30.1	-74.8	0.0
2026-01-24 01:46:18.204927	354.1	30.3	-73.0	0.0
2026-01-24 01:46:19.343054	353.9	30.5	-75.0	0.0
2026-01-24 01:46:20.482254	353.7	30.7	-74.1	0.0
2026-01-24 01:46:21.621663	353.5	30.9	-74.8	0.0
2026-01-24 01:46:22.761658	353.2	31.1	-75.7	0.0
2026-01-24 01:46:23.899221	353.0	31.3	-75.3	0.9
2026-01-24 01:46:25.038039	352.8	31.5	-75.9	1.6
2026-01-24 01:46:26.176968	352.6	31.7	-75.5	2.0
2026-01-24 01:46:27.317041	352.4	31.9	-74.7	0.0
2026-01-24 01:46:28.450913	352.1	32.1	-73.9	0.6
2026-01-24 01:46:29.581651	351.9	32.3	-74.9	0.0
2026-01-24 01:46:30.713267	351.7	32.5	-75.5	2.8
2026-01-24 01:46:31.847856	351.4	32.7	-73.8	2.8
2026-01-24 01:46:32.981876	351.2	32.8	-75.2	3.6
2026-01-24 01:46:34.115613	351.0	33.0	-75.7	3.3
2026-01-24 01:46:35.251743	350.7	33.2	-75.4	3.8
2026-01-24 01:46:36.386617	350.5	33.4	-74.8	3.7
2026-01-24 01:46:37.519117	350.2	33.7	-75.5	1.9
2026-01-24 01:46:38.654071	350.0	33.9	-75.5	5.6
2026-01-24 01:46:39.789312	349.7	34.1	-75.2	3.7
2026-01-24 01:46:40.924883	349.4	34.3	-75.4	2.0
2026-01-24 01:46:42.059209	349.2	34.5	-75.9	3.2
2026-01-24 01:46:43.193035	348.9	34.7	-75.6	2.7
2026-01-24 01:46:44.328235	348.6	34.9	-75.3	1.9
2026-01-24 01:46:45.466410	348.4	35.1	-75.8	4.6
2026-01-24 01:46:46.603393	348.1	35.3	-75.8	4.4
2026-01-24 01:46:47.740156	347.8	35.5	-76.1	3.0
2026-01-24 01:46:48.879913	347.5	35.7	-76.0	6.4
2026-01-24 01:46:50.019470	347.2	35.9	-76.2	5.7
2026-01-24 01:46:51.157888	346.9	36.1	-76.0	6.4
2026-01-24 01:46:52.294991	346.7	36.3	-76.5	5.0
2026-01-24 01:46:53.437153	346.4	36.5	-76.1	5.7
2026-01-24 01:46:54.576728	346.0	36.8	-77.0	7.4
2026-01-24 01:46:55.714836	345.7	37.0	-76.8	6.2
2026-01-24 01:46:56.851817	345.4	37.2	-70.7	0.0
2026-01-24 01:46:57.989713	345.1	37.4	-76.9	6.2
2026-01-24 01:46:59.125724	344.8	37.6	-77.0	7.3
2026-01-24 01:47:00.257384	344.5	37.8	-76.6	6.7
2026-01-24 01:47:01.387209	344.1	38.0	-77.0	8.0
2026-01-24 01:47:02.517531	343.8	38.2	-77.0	6.9
2026-01-24 01:47:03.646758	343.5	38.4	-77.2	6.8
2026-01-24 01:47:04.776179	343.1	38.7	-77.6	7.4
2026-01-24 01:47:05.904058	342.8	38.9	-77.8	7.6
2026-01-24 01:47:07.033783	342.4	39.1	-77.8	7.4
2026-01-24 01:47:08.163212	342.1	39.3	-77.8	5.0
2026-01-24 01:47:09.293626	341.7	39.5	-77.7	8.1
2026-01-24 01:47:10.423196	341.4	39.7	-78.1	6.4
2026-01-24 01:47:11.553259	341.0	39.9	-78.2	7.7
2026-01-24 01:47:12.685661	340.6	40.1	-78.1	7.2
2026-01-24 01:47:13.814725	340.2	40.4	-78.4	8.9
2026-01-24 01:47:14.941031	339.9	40.6	-78.7	7.4
2026-01-24 01:47:16.071137	339.5	40.8	-79.0	7.9
2026-01-24 01:47:17.201062	339.1	41.0	-78.4	7.4
2026-01-24 01:47:18.331385	338.7	41.2	-79.1	9.1
2026-01-24 01:47:19.460638	338.3	41.4	-78.2	6.3
2026-01-24 01:47:20.588993	337.9	41.6	-78.6	6.1
2026-01-24 01:47:21.718957	337.5	41.8	-77.9	4.4
2026-01-24 01:47:22.846108	337.0	42.0	-78.6	6.5
2026-01-24 01:47:23.980411	336.6	42.3	-78.1	7.3
2026-01-24 01:47:25.117985	336.2	42.5	-78.6	8.6
2026-01-24 01:47:26.255859	335.7	42.7	-78.7	8.9
2026-01-24 01:47:27.393288	335.3	42.9	-77.9	6.5
2026-01-24 01:47:28.532520	334.8	43.1	-78.6	8.3
2026-01-24 01:47:29.671657	334.4	43.3	-79.0	8.6
2026-01-24 01:47:30.811473	333.9	43.5	-78.7	7.8
2026-01-24 01:47:31.949422	333.4	43.7	-78.8	5.7
2026-01-24 01:47:33.087680	333.0	43.9	-78.6	4.4
2026-01-24 01:47:34.224709	332.5	44.1	-78.4	8.0
2026-01-24 01:47:35.364032	332.0	44.3	-79.1	8.7
2026-01-24 01:47:36.506004	331.5	44.5	-77.5	7.8
2026-01-24 01:47:37.642323	331.0	44.7	-78.9	9.1
2026-01-24 01:47:38.779835	330.5	44.9	-79.2	5.6
2026-01-24 01:47:39.918806	330.0	45.1	-78.7	8.1
2026-01-24 01:47:41.058264	329.5	45.3	-79.3	4.8
2026-01-24 01:47:42.195451	328.9	45.5	-79.0	6.4
2026-01-24 01:47:43.332870	328.4	45.7	-79.1	5.5
2026-01-24 01:47:44.474379	327.9	45.9	-79.3	7.7
2026-01-24 01:47:45.610197	327.3	46.1	-79.6	8.5
2026-01-24 01:47:46.749642	326.8	46.2	-79.5	8.3
2026-01-24 01:47:47.887722	326.2	46.4	-79.9	8.5
2026-01-24 01:47:49.026183	325.6	46.6	-79.6	7.3
2026-01-24 01:47:50.165810	325.1	46.8	-79.6	8.8
2026-01-24 01:47:51.303873	324.5	47.0	-79.0	5.2
2026-01-24 01:47:52.439735	323.9	47.1	-79.4	7.6
2026-01-24 01:47:53.578121	323.3	47.3	-79.4	6.2
2026-01-24 01:47:54.715285	322.7	47.5	-79.9	8.5
2026-01-24 01:47:55.852856	322.1	47.6	-79.7	7.6
2026-01-24 01:47:56.991903	321.5	47.8	-80.1	8.5
2026-01-24 01:47:58.129838	320.9	48.0	-80.4	8.9
2026-01-24 01:47:59.267950	320.2	48.1	-80.5	6.8
2026-01-24 01:48:00.406100	319.6	48.3	-79.5	8.3
2026-01-24 01:48:01.544890	319.0	48.4	-80.3	5.3
2026-01-24 01:48:02.684013	318.3	48.6	-80.2	7.6
2026-01-24 01:48:03.822792	317.7	48.7	-80.1	5.7
2026-01-24 01:48:04.960715	317.0	48.8	-80.0	8.0
2026-01-24 01:48:06.099532	316.4	49.0	-80.6	9.6
2026-01-24 01:48:07.235709	315.7	49.1	-80.4	7.2
2026-01-24 01:48:08.371476	315.0	49.2	-80.3	8.5
2026-01-24 01:48:09.510167	314.4	49.4	-79.7	7.1
2026-01-24 01:48:10.650443	313.7	49.5	-80.0	9.7
2026-01-24 01:48:11.787912	313.0	49.6	-79.9	5.8
2026-01-24 01:48:12.926068	312.3	49.7	-80.2	8.6
2026-01-24 01:48:14.062569	311.6	49.8	-79.7	5.2
2026-01-24 01:48:15.197466	310.9	49.9	-79.9	7.6
2026-01-24 01:48:16.336695	310.2	50.0	-80.0	7.2
2026-01-24 01:48:17.472905	309.5	50.1	-80.7	8.1
2026-01-24 01:48:18.610458	308.7	50.2	-80.6	8.2
2026-01-24 01:48:19.746627	308.0	50.3	-80.6	6.3
2026-01-24 01:48:20.882818	307.3	50.4	-80.0	7.8
2026-01-24 01:48:22.020825	306.6	50.5	-80.2	3.2
2026-01-24 01:48:23.156523	305.8	50.5	-80.5	5.2
2026-01-24 01:48:24.293171	305.1	50.6	-77.8	1.5
2026-01-24 01:48:25.428865	304.4	50.6	-79.7	6.3
2026-01-24 01:48:26.565868	303.6	50.7	-80.6	7.6
2026-01-24 01:48:27.701036	302.9	50.8	-79.5	3.2
2026-01-24 01:48:28.836827	302.1	50.8	-79.8	4.3
2026-01-24 01:48:29.971082	301.4	50.8	-80.5	7.8
2026-01-24 01:48:31.103535	300.6	50.9	-80.0	6.4
2026-01-24 01:48:32.236929	299.9	50.9	-80.1	7.6
2026-01-24 01:48:33.374142	299.1	50.9	-80.2	8.9
2026-01-24 01:48:34.511270	298.4	51.0	-79.5	8.0
2026-01-24 01:48:35.645608	297.6	51.0	-80.1	9.6
2026-01-24 01:48:36.778428	296.9	51.0	-79.8	6.8
2026-01-24 01:48:37.911593	296.1	51.0	-79.9	9.5
2026-01-24 01:48:39.044626	295.4	51.0	-79.5	5.9
2026-01-24 01:48:40.179579	294.6	51.0	-80.3	9.2
2026-01-24 01:48:41.316771	293.8	51.0	-80.2	9.3
2026-01-24 01:48:42.456615	293.1	50.9	-80.6	8.7
2026-01-24 01:48:43.590676	292.3	50.9	-80.9	5.6
2026-01-24 01:48:44.723884	291.6	50.9	-81.1	7.8
2026-01-24 01:48:45.856051	290.8	50.9	-80.7	4.0
2026-01-24 01:48:46.990861	290.1	50.8	-81.0	4.7
2026-01-24 01:48:48.123903	289.3	50.8	-81.0	6.6
2026-01-24 01:48:49.257242	288.6	50.7	-80.5	3.4
2026-01-24 01:48:50.391730	287.8	50.7	-81.2	7.1
2026-01-24 01:48:51.526058	287.1	50.6	-81.0	8.0
2026-01-24 01:48:52.655099	286.4	50.6	-81.2	8.9
2026-01-24 01:48:53.788214	285.6	50.5	-80.6	7.7
2026-01-24 01:48:54.926157	284.9	50.4	-80.8	8.4
2026-01-24 01:48:56.061453	284.2	50.3	-80.6	7.9
2026-01-24 01:48:57.195038	283.4	50.3	-80.7	9.2
2026-01-24 01:48:58.328794	282.7	50.2	-80.4	9.1
2026-01-24 01:48:59.465066	282.0	50.1	-80.3	7.3
2026-01-24 01:49:00.597396	281.3	50.0	-80.0	9.8
2026-01-24 01:49:01.729634	280.6	49.9	-80.3	10.6
2026-01-24 01:49:02.858425	279.9	49.8	-80.3	10.3
2026-01-24 01:49:03.991105	279.2	49.7	-80.3	10.3
2026-01-24 01:49:05.119620	278.5	49.6	-80.4	8.5
2026-01-24 01:49:06.249698	277.8	49.4	-80.5	9.2
2026-01-24 01:49:07.376883	277.2	49.3	-80.6	8.7
2026-01-24 01:49:08.505743	276.5	49.2	-81.0	8.7
2026-01-24 01:49:09.633837	275.8	49.1	-80.8	10.4
2026-01-24 01:49:10.764162	275.2	48.9	-81.0	8.7
2026-01-24 01:49:11.892985	274.5	48.8	-81.2	9.4
2026-01-24 01:49:13.020714	273.8	48.7	-81.0	7.8
2026-01-24 01:49:14.150565	273.2	48.5	-81.1	8.8
2026-01-24 01:49:15.281654	272.6	48.4	-81.3	9.6
2026-01-24 01:49:16.409812	271.9	48.2	-81.1	10.1
2026-01-24 01:49:17.537940	271.3	48.1	-81.2	10.2
2026-01-24 01:49:18.668125	270.7	47.9	-80.9	8.7
2026-01-24 01:49:19.798379	270.1	47.8	-81.1	9.7
2026-01-24 01:49:20.928462	269.5	47.6	-81.0	11.0
2026-01-24 01:49:22.057416	268.9	47.4	-81.0	10.7
2026-01-24 01:49:23.186319	268.3	47.3	-80.9	10.1
2026-01-24 01:49:24.314416	267.7	47.1	-80.6	11.4
2026-01-24 01:49:25.443934	267.1	46.9	-80.5	11.4
2026-01-24 01:49:26.575657	266.5	46.7	-80.6	12.3
2026-01-24 01:49:27.709987	266.0	46.6	-80.4	11.4
2026-01-24 01:49:28.845495	265.4	46.4	-80.7	11.1
2026-01-24 01:49:29.978898	264.8	46.2	-80.7	11.1
2026-01-24 01:49:31.113723	264.3	46.0	-80.7	11.1
2026-01-24 01:49:32.245376	263.7	45.8	-80.7	10.8
2026-01-24 01:49:33.380186	263.2	45.6	-80.8	11.1
2026-01-24 01:49:34.512784	262.7	45.5	-80.7	11.3
2026-01-24 01:49:35.649505	262.1	45.3	-80.9	11.0
2026-01-24 01:49:36.781252	261.6	45.1	-80.9	11.2
2026-01-24 01:49:37.913264	261.1	44.9	-80.6	9.6
2026-01-24 01:49:39.045794	260.6	44.7	-80.7	10.2
2026-01-24 01:49:40.178179	260.1	44.5	-81.0	10.2
2026-01-24 01:49:41.314490	259.6	44.3	-81.0	11.2
2026-01-24 01:49:42.449061	259.1	44.1	-81.2	11.0
2026-01-24 01:49:43.585313	258.6	43.9	-81.1	10.8
2026-01-24 01:49:44.722877	258.2	43.7	-81.1	10.7
2026-01-24 01:49:45.862681	257.7	43.5	-81.3	10.3
2026-01-24 01:49:47.000026	257.2	43.2	-80.9	11.3
2026-01-24 01:49:48.137264	256.8	43.0	-81.0	11.6
2026-01-24 01:49:49.272784	256.3	42.8	-81.1	10.7
2026-01-24 01:49:50.412989	255.9	42.6	-80.8	11.4
2026-01-24 01:49:51.549151	255.4	42.4	-80.6	11.5
2026-01-24 01:49:52.689069	255.0	42.2	-80.8	11.6
2026-01-24 01:49:53.826154	254.6	42.0	-81.0	11.3
2026-01-24 01:49:54.962337	254.1	41.8	-80.9	11.7
2026-01-24 01:49:56.102943	253.7	41.6	-80.9	11.0
2026-01-24 01:49:57.240138	253.3	41.3	-81.0	12.3
2026-01-24 01:49:58.377332	252.9	41.1	-80.9	11.3
2026-01-24 01:49:59.514916	252.5	40.9	-81.0	11.5
2026-01-24 01:50:00.649259	252.1	40.7	-81.0	11.5
2026-01-24 01:50:01.783950	251.7	40.5	-80.8	11.7
2026-01-24 01:50:02.917843	251.3	40.3	-80.9	11.6
2026-01-24 01:50:04.051119	250.9	40.1	-80.8	11.5
2026-01-24 01:50:05.185812	250.6	39.8	-80.8	11.1
2026-01-24 01:50:06.320878	250.2	39.6	-80.5	11.7
2026-01-24 01:50:07.453402	249.8	39.4	-80.8	11.8
2026-01-24 01:50:08.589965	249.5	39.2	-80.8	11.5
2026-01-24 01:50:09.728370	249.1	39.0	-80.8	12.3
2026-01-24 01:50:10.861863	248.8	38.8	-80.5	10.8
2026-01-24 01:50:11.996791	248.4	38.6	-80.5	11.6
2026-01-24 01:50:13.134923	248.1	38.3	-80.2	11.8
2026-01-24 01:50:14.275666	247.7	38.1	-80.4	12.5
2026-01-24 01:50:15.410264	247.4	37.9	-80.7	12.7
2026-01-24 01:50:16.547283	247.1	37.7	-80.5	12.5
2026-01-24 01:50:17.683681	246.8	37.5	-80.2	12.2
2026-01-24 01:50:18.820305	246.4	37.3	-80.4	11.5
2026-01-24 01:50:19.957899	246.1	37.1	-80.8	12.4
2026-01-24 01:50:21.097450	245.8	36.8	-80.8	12.1
2026-01-24 01:50:22.234369	245.5	36.6	-80.6	12.9
2026-01-24 01:50:23.369747	245.2	36.4	-80.4	12.5
2026-01-24 01:50:24.504513	244.9	36.2	-80.6	12.9
2026-01-24 01:50:25.640722	244.6	36.0	-80.3	12.2
2026-01-24 01:50:26.773091	244.3	35.8	-80.5	11.4
2026-01-24 01:50:27.906706	244.0	35.6	-80.3	12.6
2026-01-24 01:50:29.039725	243.7	35.4	-80.2	13.2
2026-01-24 01:50:30.174995	243.4	35.2	-80.3	12.5
2026-01-24 01:50:31.307824	243.2	35.0	-80.1	11.7
2026-01-24 01:50:32.441618	242.9	34.7	-80.0	12.6
2026-01-24 01:50:33.574278	242.6	34.5	-79.9	12.1
2026-01-24 01:50:34.710605	242.4	34.3	-80.0	11.4
2026-01-24 01:50:35.847496	242.1	34.1	-80.2	12.7
2026-01-24 01:50:36.984505	241.8	33.9	-80.5	12.0
2026-01-24 01:50:38.120325	241.6	33.7	-80.5	11.8
2026-01-24 01:50:39.256061	241.3	33.5	-80.4	11.6
2026-01-24 01:50:40.395171	241.1	33.3	-80.2	11.9
2026-01-24 01:50:41.532728	240.8	33.1	-80.3	12.1
2026-01-24 01:50:42.669403	240.6	32.9	-80.3	10.5
2026-01-24 01:50:43.804745	240.3	32.7	-80.2	12.1
2026-01-24 01:50:44.941649	240.1	32.5	-80.2	11.3
2026-01-24 01:50:46.077088	239.9	32.3	-80.3	12.4
2026-01-24 01:50:47.216023	239.6	32.1	-80.1	11.9
2026-01-24 01:50:48.353558	239.4	31.9	-79.8	11.9
2026-01-24 01:50:49.491166	239.2	31.7	-80.1	12.6
2026-01-24 01:50:50.628736	239.0	31.5	-79.7	12.6
2026-01-24 01:50:51.767352	238.7	31.3	-79.5	12.5
2026-01-24 01:50:52.905295	238.5	31.1	-79.5	11.2
2026-01-24 01:50:54.045961	238.3	30.9	-79.5	12.8
2026-01-24 01:50:55.182019	238.1	30.7	-79.8	13.3
2026-01-24 01:50:56.314952	237.9	30.6	-79.7	11.9
2026-01-24 01:50:57.448381	237.7	30.4	-79.6	12.1
2026-01-24 01:50:58.582265	237.5	30.2	-79.8	12.4
2026-01-24 01:50:59.713184	237.3	30.0	-79.4	10.8
2026-01-24 01:51:00.846298	237.0	29.8	-79.8	12.1
2026-01-24 01:51:01.980441	236.9	29.6	-79.8	12.0
2026-01-24 01:51:03.111857	236.7	29.4	-79.9	12.1
2026-01-24 01:51:04.248625	236.5	29.2	-80.3	11.8
2026-01-24 01:51:05.381746	236.3	29.1	-80.1	11.2
2026-01-24 01:51:06.513828	236.1	28.9	-80.1	12.0
2026-01-24 01:51:07.645915	235.9	28.7	-79.2	10.7
2026-01-24 01:51:08.779862	235.7	28.5	-79.9	11.4
2026-01-24 01:51:09.913130	235.5	28.3	-79.8	11.7
2026-01-24 01:51:11.043874	235.3	28.1	-80.0	12.9
2026-01-24 01:51:12.183091	235.2	28.0	-79.8	11.5
2026-01-24 01:51:13.318764	235.0	27.8	-79.7	12.4
2026-01-24 01:51:14.454261	234.8	27.6	-80.1	12.2
2026-01-24 01:51:15.591240	234.6	27.4	-80.1	12.2
2026-01-24 01:51:16.729183	234.5	27.3	-79.5	12.3
2026-01-24 01:51:17.863915	234.3	27.1	-79.8	12.6
2026-01-24 01:51:18.998103	234.1	26.9	-79.9	11.8
2026-01-24 01:51:20.135040	234.0	26.7	-79.4	12.6
2026-01-24 01:51:21.272178	233.8	26.6	-79.9	11.8
2026-01-24 01:51:22.408468	233.6	26.4	-79.8	12.3
2026-01-24 01:51:23.546383	233.5	26.2	-80.0	13.6
2026-01-24 01:51:24.683700	233.3	26.0	-79.6	12.6
2026-01-24 01:51:25.820156	233.2	25.9	-79.9	12.7
2026-01-24 01:51:26.954454	233.0	25.7	-80.1	12.2
2026-01-24 01:51:28.081529	232.9	25.5	-79.9	12.2
2026-01-24 01:51:29.211622	232.7	25.4	-79.9	12.2
2026-01-24 01:51:30.341739	232.6	25.2	-80.4	11.5
2026-01-24 01:51:31.471582	232.4	25.0	-80.0	11.4
2026-01-24 01:51:32.600963	232.3	24.9	-80.2	11.8
2026-01-24 01:51:33.730614	232.1	24.7	-79.8	11.3
2026-01-24 01:51:34.858500	232.0	24.6	-80.0	10.9
2026-01-24 01:51:35.987301	231.8	24.4	-80.0	11.0
2026-01-24 01:51:37.116262	231.7	24.2	-80.1	11.7
2026-01-24 01:51:38.245100	231.6	24.1	-79.8	11.3
2026-01-24 01:51:39.373218	231.4	23.9	-79.7	11.1
2026-01-24 01:51:40.502557	231.3	23.8	-79.3	10.6
2026-01-24 01:51:41.630784	231.1	23.6	-79.7	11.7
2026-01-24 01:51:42.760184	231.0	23.4	-79.7	11.3
2026-01-24 01:51:43.891252	230.9	23.3	-79.8	10.8
2026-01-24 01:51:45.019596	230.7	23.1	-79.8	11.1
2026-01-24 01:51:46.149511	230.6	23.0	-80.0	11.3
2026-01-24 01:51:47.280357	230.5	22.8	-80.2	11.1
2026-01-24 01:51:48.415574	230.4	22.7	-79.6	11.7
2026-01-24 01:51:49.554903	230.2	22.5	-79.6	11.0
2026-01-24 01:51:50.690509	230.1	22.4	-79.9	11.7
2026-01-24 01:51:51.827455	230.0	22.2	-80.0	11.0
2026-01-24 01:51:52.962309	229.9	22.1	-79.8	10.6
2026-01-24 01:51:54.094729	229.7	21.9	-79.6	10.7
2026-01-24 01:51:55.230856	229.6	21.8	-79.8	10.8
2026-01-24 01:51:56.363903	229.5	21.6	-79.5	12.1
2026-01-24 01:51:57.499360	229.4	21.5	-79.4	10.0
2026-01-24 01:51:58.634683	229.3	21.3	-79.6	10.4
2026-01-24 01:51:59.768821	229.2	21.2	-79.5	11.5
2026-01-24 01:52:00.904230	229.0	21.0	-79.6	10.5
2026-01-24 01:52:02.039897	228.9	20.9	-79.8	10.2
2026-01-24 01:52:03.177399	228.8	20.7	-79.6	10.3
2026-01-24 01:52:04.312167	228.7	20.6	-80.0	10.7
2026-01-24 01:52:05.449769	228.6	20.5	-79.4	10.5
2026-01-24 01:52:06.582777	228.5	20.3	-79.9	12.3
2026-01-24 01:52:07.719210	228.4	20.2	-79.7	12.2
2026-01-24 01:52:08.853751	228.3	20.0	-80.0	10.5
2026-01-24 01:52:09.990411	228.2	19.9	-80.5	9.9
2026-01-24 01:52:11.128177	228.1	19.8	-80.0	10.7
2026-01-24 01:52:12.263199	228.0	19.6	-80.1	8.8
2026-01-24 01:52:13.398830	227.9	19.5	-79.7	11.2
2026-01-24 01:52:14.537776	227.8	19.3	-79.7	10.3
2026-01-24 01:52:15.674041	227.7	19.2	-79.3	9.2
2026-01-24 01:52:16.807938	227.6	19.1	-79.7	10.9
2026-01-24 01:52:17.944221	227.5	18.9	-79.5	10.8
2026-01-24 01:52:19.080336	227.4	18.8	-79.7	9.1
2026-01-24 01:52:20.215890	227.3	18.7	-79.7	10.1
2026-01-24 01:52:21.354092	227.2	18.5	-79.7	10.3
2026-01-24 01:52:22.491170	227.1	18.4	-80.0	11.7
2026-01-24 01:52:23.626707	227.0	18.3	-79.9	9.8
2026-01-24 01:52:24.762774	226.9	18.1	-79.6	8.2
2026-01-24 01:52:25.902749	226.8	18.0	-79.4	9.3
2026-01-24 01:52:27.042522	226.7	17.9	-79.5	10.7
2026-01-24 01:52:28.179437	226.6	17.7	-79.4	11.3
2026-01-24 01:52:29.317040	226.5	17.6	-79.6	8.7
2026-01-24 01:52:30.453671	226.4	17.5	-80.0	9.9
2026-01-24 01:52:31.590549	226.3	17.4	-79.8	11.8
2026-01-24 01:52:32.728505	226.2	17.2	-79.6	10.6
2026-01-24 01:52:33.863587	226.1	17.1	-79.4	8.2
2026-01-24 01:52:35.000275	226.1	17.0	-79.5	11.1
2026-01-24 01:52:36.134873	226.0	16.9	-79.5	9.5
2026-01-24 01:52:37.271073	225.9	16.7	-79.7	10.6
2026-01-24 01:52:38.405353	225.8	16.6	-79.6	7.9
2026-01-24 01:52:39.542534	225.7	16.5	-79.8	7.3
2026-01-24 01:52:40.677589	225.6	16.4	-80.0	10.7
2026-01-24 01:52:41.811817	225.6	16.2	-79.6	9.1
2026-01-24 01:52:42.945378	225.5	16.1	-79.2	9.9
2026-01-24 01:52:44.080929	225.4	16.0	-79.1	9.8
2026-01-24 01:52:45.215863	225.3	15.9	-79.1	9.3
2026-01-24 01:52:46.347989	225.2	15.8	-79.9	10.0
2026-01-24 01:52:47.482012	225.2	15.6	-79.9	11.5
2026-01-24 01:52:48.615670	225.1	15.5	-79.7	10.0
2026-01-24 01:52:49.749352	225.0	15.4	-80.2	10.9
2026-01-24 01:52:50.882614	224.9	15.3	-79.7	11.2
2026-01-24 01:52:52.015392	224.8	15.2	-80.0	10.9
2026-01-24 01:52:53.147700	224.8	15.0	-79.4	8.7
2026-01-24 01:52:54.279973	224.7	14.9	-79.7	11.1
2026-01-24 01:52:55.412853	224.6	14.8	-79.6	10.9
2026-01-24 01:52:56.543750	224.5	14.7	-79.4	7.0
2026-01-24 01:52:57.674830	224.5	14.6	-79.3	7.3
2026-01-24 01:52:58.805341	224.4	14.5	-79.4	9.7
2026-01-24 01:52:59.939357	224.3	14.4	-79.6	9.7
2026-01-24 01:53:01.069105	224.3	14.2	-79.0	8.6
2026-01-24 01:53:02.198827	224.2	14.1	-79.3	9.1
2026-01-24 01:53:03.328461	224.1	14.0	-79.5	10.4
2026-01-24 01:53:04.459262	224.0	13.9	-79.8	9.3
2026-01-24 01:53:05.586709	224.0	13.8	-79.6	8.5
2026-01-24 01:53:06.717964	223.9	13.7	-79.6	10.5
2026-01-24 01:53:07.844697	223.8	13.6	-80.0	9.5
2026-01-24 01:53:08.974823	223.8	13.5	-79.9	9.3
2026-01-24 01:53:10.104590	223.7	13.4	-80.0	8.7
2026-01-24 01:53:11.232563	223.6	13.2	-79.6	8.3
2026-01-24 01:53:12.360049	223.6	13.1	-79.6	7.8
2026-01-24 01:53:13.487774	223.5	13.0	-79.7	9.0
2026-01-24 01:53:14.616481	223.4	12.9	-79.6	9.1
2026-01-24 01:53:15.742991	223.4	12.8	-79.7	9.4
2026-01-24 01:53:16.869386	223.3	12.7	-79.8	9.4
2026-01-24 01:53:17.996088	223.2	12.6	-79.4	8.8
2026-01-24 01:53:19.120796	223.2	12.5	-79.6	9.4
2026-01-24 01:53:20.247731	223.1	12.4	-79.3	9.3
2026-01-24 01:53:21.371240	223.1	12.3	-79.7	6.7
2026-01-24 01:53:22.499732	223.0	12.2	-79.7	5.8
2026-01-24 01:53:23.625240	222.9	12.1	-80.1	6.8
2026-01-24 01:53:24.752749	222.9	12.0	-79.5	9.5
2026-01-24 01:53:25.878542	222.8	11.9	-79.8	8.1
2026-01-24 01:53:27.005608	222.8	11.8	-79.8	5.5
2026-01-24 01:53:28.132757	222.7	11.7	-80.0	7.2
2026-01-24 01:53:29.257970	222.6	11.6	-80.1	7.3
2026-01-24 01:53:30.386729	222.6	11.5	-79.2	6.1
2026-01-24 01:53:31.512960	222.5	11.4	-79.8	4.3
2026-01-24 01:53:32.638602	222.5	11.3	-79.5	9.4
2026-01-24 01:53:33.766022	222.4	11.2	-80.1	5.5
2026-01-24 01:53:34.893552	222.3	11.1	-79.6	7.8
2026-01-24 01:53:36.019487	222.3	11.0	-79.3	9.5
2026-01-24 01:53:37.148245	222.2	10.9	-80.1	9.6
2026-01-24 01:53:38.279115	222.2	10.8	-82.7	7.7
2026-01-24 01:53:39.408107	222.1	10.7	-83.8	1.8
2026-01-24 01:53:40.539002	222.1	10.6	-84.9	0.0
2026-01-24 01:53:41.667780	222.0	10.5	-85.5	0.0
2026-01-24 01:53:42.799848	222.0	10.4	-85.3	0.0
2026-01-24 01:53:43.931236	221.9	10.3	-85.1	0.0
2026-01-24 01:53:45.060445	221.9	10.2	-85.0	0.7
2026-01-24 01:53:46.189387	221.8	10.1	-85.1	1.2
#Closed at: 2026-01-24 01:43:21.846864