passes_logs/2026/01/16/R3.2S_Murmansk_2ch/R3.2S_Murmansk_2ch__20260116_055141_SUOMI_NPP_rec.log

#Pass ID: 20260116_055141_SUOMI NPP
#Satellite: SUOMI NPP
#Configuration: NPP
#almurnet v.1.7.20251203
#Start time: 2026-01-16 05:51:41

#Version: 2.2.20231116
#Station: R3.2S_Murmansk_2ch
#Location: 33.079688 lon 68.888172 lat
#TLE: 1 37849U 11061A   26015.59739646  .00000050  00000+0  44779-4 0  9992
#TLE: 2 37849  98.7811 317.6408 0002446  62.6499 297.4925 14.19525346736798

#Time	Az	El	Level	Level2	SNR	BER	BlckErr	Temp	State	Recorded	gain1	gain2
2026-01-16 05:51:41.89	72.12	2.03	-49.7	-65.9	3.8	1.49e+00	0	31	0	0	65	23394
2026-01-16 05:51:42.90	72.06	2.08	-49.7	-65.9	3.8	1.49e+00	0	31	104	0	64	24816
2026-01-16 05:51:43.91	72.00	2.14	-49.8	-65.9	3.8	1.49e+00	0	31	104	0	64	24893
2026-01-16 05:51:44.92	71.93	2.20	-49.8	-65.9	3.8	1.49e+00	0	31	104	0	64	24891
2026-01-16 05:51:45.93	71.87	2.26	-49.8	-65.9	3.8	1.49e+00	0	31	104	0	64	24905
2026-01-16 05:51:46.93	71.80	2.31	-49.7	-65.9	3.8	1.49e+00	0	31	104	0	64	24723
2026-01-16 05:51:47.94	71.74	2.37	-49.7	-65.9	3.8	1.49e+00	0	31	104	0	64	24811
2026-01-16 05:51:48.95	71.68	2.43	-49.7	-65.9	3.8	1.49e+00	0	31	104	0	64	24828
2026-01-16 05:51:49.96	71.61	2.49	-49.7	-65.9	3.8	1.49e+00	0	31	104	0	64	24772
2026-01-16 05:51:50.97	71.55	2.55	-49.7	-65.9	3.8	1.49e+00	0	31	104	0	64	24743
2026-01-16 05:51:51.98	71.48	2.61	-49.7	-65.9	3.8	1.49e+00	0	31	104	0	64	24738
2026-01-16 05:51:52.99	71.41	2.66	-49.7	-65.9	3.8	1.49e+00	0	31	104	0	64	24823
2026-01-16 05:51:54.00	71.35	2.72	-49.7	-65.9	3.8	1.49e+00	0	31	104	0	64	24787
2026-01-16 05:51:55.01	71.28	2.78	-49.7	-65.9	3.8	1.49e+00	0	31	104	0	64	24880
2026-01-16 05:51:56.02	71.22	2.84	-49.7	-65.9	3.8	1.49e+00	0	32	104	0	64	24815
2026-01-16 05:51:57.03	71.15	2.90	-49.7	-65.9	3.8	1.49e+00	0	32	104	0	64	24829
2026-01-16 05:51:58.03	71.08	2.96	-49.7	-65.9	3.8	1.49e+00	0	32	104	0	64	24827
2026-01-16 05:51:59.05	71.01	3.02	-49.7	-65.9	3.8	1.49e+00	0	31	104	0	64	24828
2026-01-16 05:52:00.05	70.95	3.08	-49.7	-65.9	3.8	1.49e+00	0	32	104	0	64	24800
2026-01-16 05:52:01.06	70.88	3.13	-49.7	-65.9	3.8	1.49e+00	0	32	104	0	64	24726
2026-01-16 05:52:02.07	70.81	3.19	-49.7	-65.9	3.8	1.49e+00	0	32	104	0	64	24715
2026-01-16 05:52:03.08	70.74	3.25	-49.7	-65.9	3.8	1.49e+00	0	32	104	0	64	24765
2026-01-16 05:52:04.09	70.67	3.31	-49.7	-65.9	3.8	1.49e+00	0	32	104	0	64	24782
2026-01-16 05:52:05.10	70.61	3.37	-49.7	-65.9	3.8	1.49e+00	0	32	104	0	64	24740
2026-01-16 05:52:06.11	70.54	3.43	-49.7	-65.9	3.8	1.49e+00	0	32	104	0	64	24770
2026-01-16 05:52:07.12	70.47	3.49	-49.7	-65.9	3.8	1.49e+00	0	32	104	0	64	24868
2026-01-16 05:52:08.13	70.40	3.55	-49.7	-65.9	3.8	1.49e+00	0	32	104	0	64	24828
2026-01-16 05:52:09.14	70.33	3.61	-49.7	-65.9	3.8	1.49e+00	0	32	104	0	64	24710
2026-01-16 05:52:10.15	70.26	3.67	-49.8	-65.8	3.8	1.49e+00	0	32	104	0	64	24659
2026-01-16 05:52:11.16	70.18	3.73	-49.7	-65.8	3.8	1.49e+00	0	32	104	0	64	24635
2026-01-16 05:52:12.17	70.11	3.79	-49.7	-65.9	3.8	1.49e+00	0	32	104	0	64	24723
2026-01-16 05:52:13.18	70.04	3.85	-49.8	-65.9	3.8	1.49e+00	0	32	104	0	64	24748
2026-01-16 05:52:14.19	69.97	3.91	-49.7	-65.9	3.8	1.49e+00	0	32	104	0	64	24778
2026-01-16 05:52:15.20	69.90	3.97	-49.7	-65.9	3.8	1.49e+00	0	32	104	0	64	24703
2026-01-16 05:52:16.21	69.83	4.03	-49.7	-65.8	3.8	1.49e+00	0	32	104	0	64	24418
2026-01-16 05:52:17.22	69.75	4.09	-49.7	-65.5	3.8	1.49e+00	0	32	104	0	64	23610
2026-01-16 05:52:18.22	69.68	4.15	-49.7	-65.3	3.8	1.49e+00	0	32	104	0	64	23305
2026-01-16 05:52:19.23	69.61	4.22	-49.7	-64.9	3.8	1.49e+00	0	32	104	0	64	22017
2026-01-16 05:52:20.24	69.53	4.28	-49.7	-64.0	3.8	1.49e+00	0	32	104	0	64	19940
2026-01-16 05:52:21.25	69.46	4.34	-49.6	-63.1	4.0	1.48e+00	0	32	104	0	64	18021
2026-01-16 05:52:22.26	69.39	4.40	-49.6	-62.9	3.9	1.49e+00	0	32	104	0	64	17549
2026-01-16 05:52:23.27	69.31	4.46	-49.5	-61.9	4.3	1.37e+00	0	32	0	0	64	15707
2026-01-16 05:52:24.28	69.24	4.52	-49.5	-61.3	4.5	1.17e+00	0	32	0	1048576	64	14620
2026-01-16 05:52:25.29	69.16	4.58	-49.3	-59.9	5.1	6.85e-01	0	32	0	3145728	64	12468
2026-01-16 05:52:26.30	69.08	4.64	-49.2	-58.7	5.9	3.53e-01	0	32	0	5242880	64	10801
2026-01-16 05:52:27.31	69.01	4.71	-49.0	-57.5	6.8	3.24e-01	0	32	0	7340032	64	9399
2026-01-16 05:52:28.32	68.93	4.77	-48.8	-56.8	7.4	9.93e-02	0	32	0	8388608	64	8667
2026-01-16 05:52:29.32	68.86	4.83	-48.9	-57.3	7.1	1.37e-01	0	32	0	10485760	64	9185
2026-01-16 05:52:30.33	68.78	4.89	-48.9	-57.0	7.2	1.93e-01	0	32	0	12582912	64	8953
2026-01-16 05:52:31.34	68.70	4.95	-48.3	-54.8	9.2	1.79e-02	0	32	0	14680064	63	7334
2026-01-16 05:52:32.35	68.62	5.01	-49.1	-57.8	6.7	6.84e-02	0	32	0	16777216	63	10343
2026-01-16 05:52:33.36	68.55	5.08	-48.6	-55.4	8.6	1.27e-01	0	32	0	17825792	63	7826
2026-01-16 05:52:34.37	68.47	5.14	-48.1	-53.7	10.4	9.30e-04	0	32	0	19922944	62	6834
2026-01-16 05:52:35.37	68.39	5.20	-48.8	-56.2	8.1	4.82e-02	0	32	0	22020096	62	9134
2026-01-16 05:52:36.38	68.31	5.26	-48.8	-56.1	7.8	8.64e-01	0	32	0	24117248	64	8028
2026-01-16 05:52:37.39	68.23	5.32	-48.7	-55.5	9.1	2.20e-06	0	32	0	26214400	62	8455
2026-01-16 05:52:38.40	68.15	5.39	-48.7	-56.1	7.7	7.42e-01	0	33	0	27262976	64	8027
2026-01-16 05:52:39.41	68.07	5.45	-47.2	-51.4	12.6	0.00e+00	0	32	0	29360128	59	6224
2026-01-16 05:52:40.42	67.99	5.51	-46.9	-51.0	12.6	7.60e-06	0	33	0	31457280	60	5612
2026-01-16 05:52:41.43	67.91	5.58	-46.5	-50.2	13.4	5.30e-06	0	32	0	33554432	59	5423
2026-01-16 05:52:42.44	67.83	5.64	-47.2	-51.4	12.6	0.00e+00	0	32	0	35651584	59	6215
2026-01-16 05:52:43.45	67.75	5.70	-47.0	-50.9	13.0	3.80e-06	0	32	0	36700160	59	5894
2026-01-16 05:52:44.46	67.67	5.77	-46.9	-50.8	13.0	7.00e-07	0	32	0	38797312	59	5808
2026-01-16 05:52:45.47	67.58	5.83	-47.2	-51.3	12.6	7.00e-07	0	32	0	40894464	59	6162
2026-01-16 05:52:46.48	67.50	5.89	-46.7	-50.3	13.3	0.00e+00	0	32	0	42991616	59	5523
2026-01-16 05:52:47.49	67.42	5.96	-46.9	-50.8	13.0	0.00e+00	0	32	0	45088768	59	5832
2026-01-16 05:52:48.50	67.33	6.02	-46.5	-50.1	13.5	7.00e-07	0	33	0	47185920	59	5355
2026-01-16 05:52:49.50	67.25	6.08	-46.8	-50.5	13.2	0.00e+00	0	32	0	48234496	59	5642
2026-01-16 05:52:50.52	67.17	6.15	-46.9	-50.7	13.1	0.00e+00	0	33	0	50331648	59	5725
2026-01-16 05:52:51.52	67.08	6.21	-46.4	-49.8	13.7	0.00e+00	0	33	0	52428800	59	5201
2026-01-16 05:52:52.53	67.00	6.27	-46.8	-50.6	13.2	0.00e+00	0	33	0	54525952	59	5676
2026-01-16 05:52:53.54	66.91	6.34	-46.9	-50.6	13.1	0.00e+00	0	33	0	56623104	59	5705
2026-01-16 05:52:54.55	66.83	6.40	-46.6	-50.2	13.4	0.00e+00	0	33	0	57671680	59	5446
2026-01-16 05:52:55.56	66.74	6.47	-46.9	-50.7	13.1	0.00e+00	0	33	0	59768832	59	5753
2026-01-16 05:52:56.57	66.65	6.53	-46.9	-50.7	13.1	0.00e+00	0	32	0	61865984	59	5728
2026-01-16 05:52:57.58	66.57	6.59	-46.5	-50.0	13.6	0.00e+00	0	33	0	63963136	59	5317
2026-01-16 05:52:58.59	66.48	6.66	-46.7	-50.4	13.4	0.00e+00	0	33	0	66060288	59	5548
2026-01-16 05:52:59.60	66.39	6.72	-46.7	-50.3	13.4	0.00e+00	0	32	0	67108864	59	5472
2026-01-16 05:53:00.60	66.30	6.79	-46.8	-50.4	13.4	0.00e+00	0	33	0	69206016	59	5569
2026-01-16 05:53:01.61	66.22	6.85	-46.9	-50.7	13.2	0.00e+00	0	33	0	71303168	59	5738
2026-01-16 05:53:02.62	66.13	6.92	-46.9	-50.8	13.1	0.00e+00	0	33	0	73400320	59	5823
2026-01-16 05:53:03.63	66.04	6.98	-46.8	-50.6	13.2	7.00e-07	0	33	0	75497472	59	5663
2026-01-16 05:53:04.64	65.95	7.05	-47.0	-50.9	13.0	7.00e-07	0	33	0	76546048	59	5881
2026-01-16 05:53:05.65	65.86	7.11	-47.2	-51.4	12.7	7.00e-07	0	33	0	78643200	59	6227
2026-01-16 05:53:06.66	65.77	7.18	-47.0	-51.1	12.8	1.50e-06	0	33	0	80740352	59	6008
2026-01-16 05:53:07.67	65.68	7.24	-46.9	-50.9	13.0	0.00e+00	0	33	0	82837504	59	5858
2026-01-16 05:53:08.68	65.58	7.31	-46.8	-50.6	13.2	0.00e+00	0	33	0	84934656	59	5685
2026-01-16 05:53:09.69	65.49	7.37	-46.8	-50.6	13.2	0.00e+00	0	33	0	85983232	59	5696
2026-01-16 05:53:10.70	65.40	7.44	-46.6	-50.3	13.4	1.50e-06	0	33	0	88080384	59	5509
2026-01-16 05:53:11.71	65.31	7.51	-46.7	-50.4	13.4	0.00e+00	0	33	0	90177536	59	5559
2026-01-16 05:53:12.72	65.21	7.57	-47.0	-51.0	13.0	0.00e+00	0	33	0	92274688	59	5946
2026-01-16 05:53:13.73	65.12	7.64	-46.8	-50.6	13.3	0.00e+00	0	33	0	94371840	59	5673
2026-01-16 05:53:14.74	65.03	7.70	-46.8	-50.6	13.3	2.20e-06	0	33	0	95420416	59	5708
2026-01-16 05:53:15.75	64.93	7.77	-46.6	-50.2	13.5	0.00e+00	0	33	0	97517568	59	5455
2026-01-16 05:53:16.76	64.84	7.84	-46.7	-50.4	13.4	0.00e+00	0	33	0	99614720	59	5556
2026-01-16 05:53:17.76	64.74	7.90	-46.5	-50.2	13.6	0.00e+00	0	33	0	101711872	59	5411
2026-01-16 05:53:18.78	64.65	7.97	-46.4	-50.0	13.7	0.00e+00	0	33	0	103809024	59	5281
2026-01-16 05:53:19.78	64.55	8.04	-46.5	-50.1	13.7	0.00e+00	0	33	0	104857600	59	5367
2026-01-16 05:53:20.79	64.45	8.10	-46.4	-50.0	13.7	0.00e+00	0	33	0	106954752	59	5298
2026-01-16 05:53:21.80	64.36	8.17	-46.3	-49.8	13.9	0.00e+00	0	33	0	109051904	59	5160
2026-01-16 05:53:22.81	64.26	8.24	-46.1	-49.4	14.1	0.00e+00	0	33	0	111149056	58	5237
2026-01-16 05:53:23.82	64.16	8.30	-46.2	-49.6	14.0	0.00e+00	0	33	0	113246208	58	5348
2026-01-16 05:53:24.83	64.06	8.37	-46.3	-49.7	13.9	0.00e+00	0	33	0	114294784	58	5437
2026-01-16 05:53:25.84	63.96	8.44	-46.2	-49.6	14.0	0.00e+00	0	33	0	116391936	58	5374
2026-01-16 05:53:26.85	63.86	8.50	-46.3	-49.6	14.0	0.00e+00	0	33	0	118489088	58	5387
2026-01-16 05:53:27.85	63.76	8.57	-46.2	-49.5	14.1	0.00e+00	0	33	0	120586240	58	5305
2026-01-16 05:53:28.86	63.66	8.64	-46.2	-49.5	14.1	0.00e+00	0	33	0	122683392	58	5298
2026-01-16 05:53:29.87	63.56	8.71	-46.1	-49.4	14.2	0.00e+00	0	33	0	123731968	58	5219
2026-01-16 05:53:30.88	63.46	8.77	-46.1	-49.4	14.1	0.00e+00	0	33	0	125829120	58	5264
2026-01-16 05:53:31.89	63.36	8.84	-46.1	-49.3	14.2	0.00e+00	0	33	0	127926272	58	5175
2026-01-16 05:53:32.90	63.26	8.91	-46.2	-49.4	14.2	0.00e+00	0	33	0	130023424	58	5260
2026-01-16 05:53:33.91	63.15	8.98	-46.0	-49.2	14.3	0.00e+00	0	33	0	132120576	58	5110
2026-01-16 05:53:34.92	63.05	9.04	-46.2	-49.4	14.2	0.00e+00	0	33	0	133169152	58	5256
2026-01-16 05:53:35.93	62.95	9.11	-46.2	-49.4	14.2	0.00e+00	0	33	0	135266304	58	5264
2026-01-16 05:53:36.94	62.84	9.18	-46.0	-49.1	14.3	0.00e+00	0	33	0	137363456	58	5083
2026-01-16 05:53:37.95	62.74	9.25	-46.1	-49.2	14.3	0.00e+00	0	33	0	139460608	58	5129
2026-01-16 05:53:38.96	62.63	9.32	-46.2	-49.4	14.2	0.00e+00	0	33	0	141557760	58	5252
2026-01-16 05:53:39.97	62.53	9.39	-46.2	-49.4	14.2	0.00e+00	0	33	0	143654912	58	5221
2026-01-16 05:53:40.98	62.42	9.45	-46.3	-49.6	14.1	0.00e+00	0	33	0	144703488	58	5366
2026-01-16 05:53:41.98	62.31	9.52	-46.5	-49.8	14.0	0.00e+00	0	33	0	146800640	58	5494
2026-01-16 05:53:43.00	62.21	9.59	-46.3	-49.4	14.2	0.00e+00	0	33	0	148897792	58	5274
2026-01-16 05:53:44.00	62.10	9.66	-46.2	-49.4	14.2	0.00e+00	0	33	0	150994944	58	5246
2026-01-16 05:53:45.01	61.99	9.73	-46.2	-49.4	14.2	0.00e+00	0	33	0	153092096	58	5244
2026-01-16 05:53:46.02	61.88	9.80	-46.2	-49.4	14.2	0.00e+00	0	33	0	154140672	58	5248
2026-01-16 05:53:47.03	61.77	9.87	-46.3	-49.6	14.1	0.00e+00	0	33	0	156237824	58	5342
2026-01-16 05:53:48.04	61.66	9.94	-46.4	-49.6	14.1	0.00e+00	0	33	0	158334976	58	5397
2026-01-16 05:53:49.05	61.55	10.01	-46.5	-49.9	13.9	0.00e+00	0	33	0	160432128	58	5553
2026-01-16 05:53:50.06	61.44	10.08	-46.4	-49.7	14.1	0.00e+00	0	33	0	162529280	58	5408
2026-01-16 05:53:51.07	61.33	10.14	-46.4	-49.6	14.1	0.00e+00	0	33	0	163577856	58	5370
2026-01-16 05:53:52.08	61.21	10.21	-46.5	-49.7	14.1	0.00e+00	0	33	0	165675008	58	5425
2026-01-16 05:53:53.09	61.10	10.28	-46.5	-49.7	14.0	0.00e+00	0	33	0	167772160	58	5462
2026-01-16 05:53:54.10	60.99	10.35	-46.4	-49.6	14.2	0.00e+00	0	33	0	169869312	58	5367
2026-01-16 05:53:55.11	60.87	10.42	-46.5	-49.8	14.0	0.00e+00	0	33	0	171966464	58	5467
2026-01-16 05:53:56.12	60.76	10.49	-46.4	-49.5	14.2	0.00e+00	0	33	0	173015040	58	5303
2026-01-16 05:53:57.13	60.65	10.56	-46.6	-50.0	13.9	0.00e+00	0	33	0	175112192	58	5611
2026-01-16 05:53:58.14	60.53	10.63	-46.4	-49.6	14.1	0.00e+00	0	33	0	177209344	58	5391
2026-01-16 05:53:59.14	60.41	10.70	-46.3	-49.5	14.2	0.00e+00	0	33	0	179306496	58	5315
2026-01-16 05:54:00.15	60.30	10.77	-46.5	-49.9	13.9	0.00e+00	0	33	0	181403648	58	5530
2026-01-16 05:54:01.16	60.18	10.84	-46.5	-49.7	14.0	0.00e+00	0	33	0	182452224	58	5460
2026-01-16 05:54:02.17	60.06	10.91	-46.4	-49.6	14.1	0.00e+00	0	33	0	184549376	58	5386
2026-01-16 05:54:03.18	59.94	10.98	-46.3	-49.5	14.2	0.00e+00	0	33	0	186646528	58	5327
2026-01-16 05:54:04.19	59.82	11.05	-46.3	-49.5	14.2	0.00e+00	0	33	0	188743680	58	5295
2026-01-16 05:54:05.20	59.70	11.13	-46.2	-49.4	14.3	0.00e+00	0	33	0	190840832	58	5225
2026-01-16 05:54:06.21	59.58	11.20	-46.2	-49.3	14.3	0.00e+00	0	33	0	191889408	58	5214
2026-01-16 05:54:07.22	59.46	11.27	-46.2	-49.4	14.3	0.00e+00	0	33	0	193986560	58	5220
2026-01-16 05:54:08.23	59.34	11.34	-46.2	-49.3	14.3	0.00e+00	0	33	0	196083712	58	5197
2026-01-16 05:54:09.24	59.22	11.41	-46.2	-49.3	14.3	0.00e+00	0	33	0	198180864	58	5175
2026-01-16 05:54:10.25	59.10	11.48	-46.3	-49.4	14.2	0.00e+00	0	33	0	200278016	58	5267
2026-01-16 05:54:11.25	58.98	11.55	-46.1	-49.0	14.5	0.00e+00	0	33	0	201326592	58	5038
2026-01-16 05:54:12.26	58.85	11.62	-46.2	-49.2	14.4	0.00e+00	0	33	0	203423744	58	5135
2026-01-16 05:54:13.27	58.73	11.69	-46.0	-48.9	14.5	0.00e+00	0	33	0	205520896	58	4974
2026-01-16 05:54:14.28	58.60	11.76	-45.9	-48.8	14.6	0.00e+00	0	33	0	207618048	58	4921
2026-01-16 05:54:15.29	58.48	11.83	-46.0	-48.9	14.5	0.00e+00	0	33	0	209715200	58	4981
2026-01-16 05:54:16.30	58.35	11.91	-46.0	-48.9	14.6	0.00e+00	0	33	0	211812352	58	4967
2026-01-16 05:54:17.31	58.22	11.98	-46.0	-48.9	14.6	0.00e+00	0	33	0	212860928	58	4983
2026-01-16 05:54:18.32	58.09	12.05	-45.8	-48.7	14.7	0.00e+00	0	33	0	214958080	58	4820
2026-01-16 05:54:19.33	57.97	12.12	-45.8	-48.6	14.8	0.00e+00	0	33	0	217055232	58	4788
2026-01-16 05:54:20.34	57.84	12.19	-45.9	-48.8	14.7	0.00e+00	0	33	0	219152384	58	4906
2026-01-16 05:54:21.35	57.71	12.26	-45.8	-48.6	14.8	0.00e+00	0	33	0	221249536	58	4784
2026-01-16 05:54:22.36	57.58	12.34	-45.7	-48.5	14.9	0.00e+00	0	33	0	222298112	58	4724
2026-01-16 05:54:23.37	57.45	12.41	-45.6	-48.4	14.9	0.00e+00	0	33	0	224395264	57	4927
2026-01-16 05:54:24.38	57.32	12.48	-45.6	-48.4	14.8	0.00e+00	0	33	0	226492416	57	4950
2026-01-16 05:54:25.39	57.18	12.55	-45.6	-48.3	14.9	0.00e+00	0	33	0	228589568	57	4914
2026-01-16 05:54:26.40	57.05	12.62	-45.7	-48.5	14.8	0.00e+00	0	33	0	230686720	57	5011
2026-01-16 05:54:27.41	56.92	12.70	-45.8	-48.6	14.8	0.00e+00	0	33	0	231735296	57	5047
2026-01-16 05:54:28.42	56.78	12.77	-45.7	-48.5	14.8	0.00e+00	0	33	0	233832448	57	5001
2026-01-16 05:54:29.43	56.65	12.84	-45.6	-48.3	15.0	0.00e+00	0	33	0	235929600	57	4893
2026-01-16 05:54:30.43	56.51	12.91	-45.5	-48.2	15.0	0.00e+00	0	33	0	238026752	57	4835
2026-01-16 05:54:31.44	56.38	12.99	-45.5	-48.2	14.9	0.00e+00	0	33	0	240123904	57	4866
2026-01-16 05:54:32.45	56.24	13.06	-45.5	-48.2	15.0	0.00e+00	0	33	0	241172480	57	4818
2026-01-16 05:54:33.46	56.10	13.13	-45.5	-48.1	15.0	0.00e+00	0	33	0	243269632	57	4809
2026-01-16 05:54:34.47	55.96	13.20	-45.7	-48.4	14.9	0.00e+00	0	33	0	245366784	57	4969
2026-01-16 05:54:35.48	55.83	13.28	-45.7	-48.4	14.9	0.00e+00	0	33	0	247463936	57	4948
2026-01-16 05:54:36.49	55.69	13.35	-45.6	-48.3	14.9	0.00e+00	0	33	0	249561088	57	4895
2026-01-16 05:54:37.50	55.55	13.42	-45.5	-48.2	15.0	0.00e+00	0	33	0	250609664	57	4835
2026-01-16 05:54:38.51	55.40	13.49	-45.5	-48.2	15.0	0.00e+00	0	33	0	252706816	57	4843
2026-01-16 05:54:39.51	55.26	13.57	-45.4	-48.1	15.0	0.00e+00	0	33	0	254803968	57	4767
2026-01-16 05:54:40.52	55.12	13.64	-45.4	-48.1	15.0	0.00e+00	0	33	0	256901120	57	4809
2026-01-16 05:54:41.53	54.98	13.71	-45.4	-48.1	15.0	0.00e+00	0	33	0	258998272	57	4798
2026-01-16 05:54:42.54	54.83	13.78	-45.4	-48.2	15.0	0.00e+00	0	33	0	260046848	57	4826
2026-01-16 05:54:43.55	54.69	13.86	-45.4	-48.2	15.0	0.00e+00	0	33	0	262144000	57	4836
2026-01-16 05:54:44.56	54.54	13.93	-45.5	-48.3	14.9	0.00e+00	0	33	0	264241152	57	4911
2026-01-16 05:54:45.57	54.40	14.00	-45.4	-48.2	15.0	0.00e+00	0	33	0	266338304	57	4860
2026-01-16 05:54:46.58	54.25	14.08	-45.5	-48.5	14.8	0.00e+00	0	33	0	268435456	57	4986
2026-01-16 05:54:47.59	54.10	14.15	-45.4	-48.2	15.0	0.00e+00	0	33	0	269484032	57	4831
2026-01-16 05:54:48.60	53.96	14.22	-45.5	-48.3	14.9	0.00e+00	0	33	0	271581184	57	4916
2026-01-16 05:54:49.61	53.81	14.29	-45.6	-48.6	14.8	0.00e+00	0	33	0	273678336	57	5087
2026-01-16 05:54:50.62	53.66	14.37	-45.5	-48.4	14.9	0.00e+00	0	33	0	275775488	57	4973
2026-01-16 05:54:51.63	53.51	14.44	-45.7	-48.7	14.7	0.00e+00	0	33	0	277872640	57	5148
2026-01-16 05:54:52.64	53.35	14.51	-45.7	-48.8	14.7	0.00e+00	0	33	0	279969792	57	5165
2026-01-16 05:54:53.65	53.20	14.59	-45.8	-48.9	14.6	0.00e+00	0	33	0	281018368	57	5222
2026-01-16 05:54:54.65	53.05	14.66	-45.7	-48.7	14.7	0.00e+00	0	33	0	283115520	57	5135
2026-01-16 05:54:55.66	52.90	14.73	-45.8	-48.9	14.6	0.00e+00	0	33	0	285212672	57	5248
2026-01-16 05:54:56.67	52.74	14.81	-45.8	-48.8	14.7	0.00e+00	0	33	0	287309824	57	5202
2026-01-16 05:54:57.68	52.59	14.88	-45.7	-48.7	14.7	0.00e+00	0	33	0	288358400	57	5134
2026-01-16 05:54:58.69	52.43	14.95	-45.6	-48.6	14.8	0.00e+00	0	33	0	290455552	57	5043
2026-01-16 05:54:59.70	52.27	15.03	-45.6	-48.5	14.9	0.00e+00	0	33	0	292552704	57	5018
2026-01-16 05:55:00.71	52.12	15.10	-45.7	-48.6	14.8	0.00e+00	0	33	0	294649856	57	5070
2026-01-16 05:55:01.72	51.96	15.17	-45.8	-48.8	14.7	0.00e+00	0	33	0	296747008	57	5181
2026-01-16 05:55:02.72	51.80	15.24	-45.6	-48.5	14.9	0.00e+00	0	33	0	297795584	57	5019
2026-01-16 05:55:03.73	51.64	15.32	-45.6	-48.5	14.8	0.00e+00	0	33	0	299892736	57	5034
2026-01-16 05:55:04.74	51.48	15.39	-45.9	-48.9	14.6	0.00e+00	0	33	0	301989888	57	5250
2026-01-16 05:55:05.75	51.32	15.46	-46.0	-49.1	14.5	0.00e+00	0	33	0	304087040	57	5389
2026-01-16 05:55:06.76	51.16	15.54	-46.1	-49.3	14.4	0.00e+00	0	33	0	306184192	57	5520
2026-01-16 05:55:07.77	50.99	15.61	-46.1	-49.5	14.3	0.00e+00	0	33	0	308281344	57	5597
2026-01-16 05:55:08.78	50.83	15.68	-46.1	-49.3	14.3	0.00e+00	0	33	0	309329920	57	5526
2026-01-16 05:55:09.79	50.67	15.76	-46.1	-49.3	14.3	0.00e+00	0	33	0	311427072	57	5517
2026-01-16 05:55:10.79	50.50	15.83	-46.0	-49.2	14.4	0.00e+00	0	33	0	313524224	57	5453
2026-01-16 05:55:11.80	50.34	15.90	-46.1	-49.4	14.3	0.00e+00	0	33	0	315621376	57	5549
2026-01-16 05:55:12.81	50.17	15.97	-46.2	-49.5	14.3	0.00e+00	0	33	0	317718528	57	5623
2026-01-16 05:55:13.82	50.00	16.05	-46.0	-49.2	14.4	0.00e+00	0	33	0	318767104	57	5460
2026-01-16 05:55:14.83	49.83	16.12	-45.9	-49.0	14.6	0.00e+00	0	33	0	320864256	57	5320
2026-01-16 05:55:15.84	49.66	16.19	-45.7	-48.7	14.8	0.00e+00	0	33	0	322961408	57	5107
2026-01-16 05:55:16.85	49.49	16.27	-45.8	-48.7	14.7	0.00e+00	0	33	0	325058560	57	5154
2026-01-16 05:55:17.86	49.32	16.34	-45.6	-48.5	14.8	0.00e+00	0	33	0	327155712	57	4991
2026-01-16 05:55:18.87	49.15	16.41	-45.7	-48.6	14.8	0.00e+00	0	33	0	328204288	57	5075
2026-01-16 05:55:19.88	48.97	16.48	-45.7	-48.7	14.7	0.00e+00	0	33	0	330301440	57	5151
2026-01-16 05:55:20.89	48.80	16.56	-45.7	-48.7	14.8	0.00e+00	0	33	0	332398592	57	5115
2026-01-16 05:55:21.89	48.63	16.63	-45.8	-48.8	14.7	0.00e+00	0	33	0	334495744	57	5197
2026-01-16 05:55:22.90	48.45	16.70	-45.7	-48.6	14.8	0.00e+00	0	33	0	336592896	57	5095
2026-01-16 05:55:23.91	48.28	16.77	-45.7	-48.7	14.8	0.00e+00	0	33	0	337641472	57	5115
2026-01-16 05:55:24.92	48.10	16.85	-45.6	-48.6	14.8	0.00e+00	0	33	0	339738624	57	5059
2026-01-16 05:55:25.93	47.92	16.92	-45.6	-48.6	14.8	0.00e+00	0	33	0	341835776	57	5055
2026-01-16 05:55:26.94	47.74	16.99	-45.8	-48.8	14.7	0.00e+00	0	33	0	343932928	57	5192
2026-01-16 05:55:27.95	47.56	17.06	-45.9	-49.0	14.7	0.00e+00	0	33	0	346030080	57	5281
2026-01-16 05:55:28.96	47.38	17.14	-45.9	-48.9	14.7	0.00e+00	0	33	0	347078656	57	5257
2026-01-16 05:55:29.97	47.20	17.21	-45.6	-48.5	14.9	0.00e+00	0	33	0	349175808	57	4999
2026-01-16 05:55:30.98	47.02	17.28	-45.8	-48.7	14.7	0.00e+00	0	33	0	351272960	57	5117
2026-01-16 05:55:31.99	46.83	17.35	-46.0	-49.1	14.5	0.00e+00	0	33	0	353370112	57	5349
2026-01-16 05:55:33.00	46.65	17.42	-46.0	-49.0	14.6	0.00e+00	0	33	0	355467264	57	5318
2026-01-16 05:55:34.01	46.46	17.49	-46.3	-49.5	14.2	0.00e+00	0	33	0	356515840	57	5647
2026-01-16 05:55:35.01	46.28	17.57	-46.0	-49.1	14.5	0.00e+00	0	33	0	358612992	57	5374
2026-01-16 05:55:36.02	46.09	17.64	-46.1	-49.3	14.4	0.00e+00	0	33	0	360710144	57	5479
2026-01-16 05:55:37.03	45.90	17.71	-45.9	-48.9	14.6	0.00e+00	0	33	0	362807296	57	5231
2026-01-16 05:55:38.04	45.71	17.78	-45.9	-48.9	14.6	0.00e+00	0	33	0	364904448	57	5251
2026-01-16 05:55:39.05	45.52	17.85	-45.9	-48.8	14.6	0.00e+00	0	33	0	365953024	57	5184
2026-01-16 05:55:40.06	45.33	17.92	-45.8	-48.6	14.8	0.00e+00	0	33	0	368050176	57	5077
2026-01-16 05:55:41.07	45.14	17.99	-45.6	-48.3	14.9	0.00e+00	0	33	0	370147328	57	4909
2026-01-16 05:55:42.08	44.95	18.06	-45.3	-48.0	15.1	0.00e+00	0	33	0	372244480	57	4712
2026-01-16 05:55:43.09	44.76	18.13	-45.3	-47.8	15.2	0.00e+00	0	33	0	374341632	56	4903
2026-01-16 05:55:44.10	44.56	18.20	-45.2	-47.7	15.2	0.00e+00	0	33	0	376438784	56	4835
2026-01-16 05:55:45.11	44.37	18.27	-45.0	-47.5	15.4	0.00e+00	0	33	0	377487360	56	4730
2026-01-16 05:55:46.12	44.17	18.35	-45.2	-47.8	15.2	0.00e+00	0	33	0	379584512	56	4880
2026-01-16 05:55:47.12	43.98	18.41	-45.3	-47.9	15.1	0.00e+00	0	33	0	381681664	56	4942
2026-01-16 05:55:48.13	43.78	18.48	-45.3	-47.9	15.1	0.00e+00	0	33	0	383778816	56	4977
2026-01-16 05:55:49.14	43.58	18.55	-45.1	-47.8	15.2	0.00e+00	0	33	0	385875968	56	4880
2026-01-16 05:55:50.15	43.38	18.62	-45.1	-47.7	15.2	0.00e+00	0	33	0	386924544	56	4868
2026-01-16 05:55:51.16	43.18	18.69	-45.0	-47.7	15.2	0.00e+00	0	33	0	389021696	56	4825
2026-01-16 05:55:52.17	42.98	18.76	-44.9	-47.5	15.3	0.00e+00	0	33	0	391118848	56	4735
2026-01-16 05:55:53.18	42.77	18.83	-44.9	-47.6	15.3	0.00e+00	0	33	0	393216000	56	4779
2026-01-16 05:55:54.19	42.57	18.90	-44.5	-47.0	15.4	0.00e+00	0	33	0	395313152	55	4750
2026-01-16 05:55:55.20	42.37	18.97	-44.5	-47.1	15.4	0.00e+00	0	33	0	396361728	55	4765
2026-01-16 05:55:56.21	42.16	19.04	-44.4	-46.8	15.5	0.00e+00	0	33	0	398458880	55	4629
2026-01-16 05:55:57.22	41.95	19.11	-44.0	-46.3	15.7	0.00e+00	0	33	0	400556032	54	4630
2026-01-16 05:55:58.23	41.75	19.17	-44.1	-46.4	15.7	0.00e+00	0	33	0	402653184	54	4689
2026-01-16 05:55:59.24	41.54	19.24	-44.3	-46.6	15.6	0.00e+00	0	33	0	404750336	54	4782
2026-01-16 05:56:00.25	41.33	19.31	-44.4	-46.8	15.5	0.00e+00	0	33	0	405798912	54	4884
2026-01-16 05:56:01.26	41.12	19.38	-44.4	-46.8	15.5	0.00e+00	0	33	0	407896064	54	4911
2026-01-16 05:56:02.27	40.91	19.44	-44.5	-47.0	15.3	0.00e+00	0	33	0	409993216	54	5012
2026-01-16 05:56:03.28	40.70	19.51	-44.4	-46.7	15.6	0.00e+00	0	33	0	412090368	54	4862
2026-01-16 05:56:04.29	40.48	19.58	-44.3	-46.6	15.7	0.00e+00	0	33	0	414187520	54	4783
2026-01-16 05:56:05.29	40.27	19.64	-44.3	-46.6	15.6	0.00e+00	0	33	0	415236096	54	4814
2026-01-16 05:56:06.30	40.06	19.71	-44.2	-46.4	15.7	0.00e+00	0	33	0	417333248	54	4700
2026-01-16 05:56:07.31	39.84	19.77	-44.1	-46.3	15.8	0.00e+00	0	33	0	419430400	54	4599
2026-01-16 05:56:08.32	39.63	19.84	-44.1	-46.2	15.8	0.00e+00	0	33	0	421527552	54	4598
2026-01-16 05:56:09.33	39.41	19.91	-44.0	-46.2	15.8	0.00e+00	0	33	0	423624704	54	4557
2026-01-16 05:56:10.34	39.19	19.97	-44.0	-46.2	15.8	0.00e+00	0	33	0	424673280	54	4570
2026-01-16 05:56:11.35	38.97	20.04	-44.1	-46.3	15.8	0.00e+00	0	33	0	426770432	54	4617
2026-01-16 05:56:12.36	38.75	20.10	-44.1	-46.4	15.7	0.00e+00	0	33	0	428867584	54	4660
2026-01-16 05:56:13.37	38.53	20.17	-44.2	-46.4	15.7	0.00e+00	0	33	0	430964736	54	4687
2026-01-16 05:56:14.38	38.31	20.23	-44.2	-46.5	15.7	0.00e+00	0	33	0	433061888	54	4748
2026-01-16 05:56:15.39	38.08	20.29	-44.1	-46.4	15.8	0.00e+00	0	33	0	434110464	54	4681
2026-01-16 05:56:16.40	37.86	20.36	-44.1	-46.3	15.8	0.00e+00	0	33	0	436207616	54	4624
2026-01-16 05:56:17.40	37.64	20.42	-44.1	-46.4	15.7	0.00e+00	0	33	0	438304768	54	4689
2026-01-16 05:56:18.41	37.41	20.48	-44.1	-46.4	15.7	0.00e+00	0	33	0	440401920	54	4692
2026-01-16 05:56:19.42	37.18	20.54	-44.1	-46.4	15.7	0.00e+00	0	33	0	442499072	54	4667
2026-01-16 05:56:20.43	36.96	20.61	-44.0	-46.2	15.8	0.00e+00	0	33	0	444596224	54	4589
2026-01-16 05:56:21.44	36.73	20.67	-43.9	-46.0	16.0	0.00e+00	0	33	0	445644800	54	4478
2026-01-16 05:56:22.45	36.50	20.73	-43.7	-45.8	16.0	0.00e+00	0	33	0	447741952	54	4365
2026-01-16 05:56:23.46	36.27	20.79	-43.8	-46.0	16.0	0.00e+00	0	33	0	449839104	54	4446
2026-01-16 05:56:24.47	36.04	20.85	-43.8	-46.0	16.0	0.00e+00	0	33	0	451936256	54	4443
2026-01-16 05:56:25.48	35.80	20.91	-43.9	-46.0	16.0	0.00e+00	0	33	0	452984832	54	4481
2026-01-16 05:56:26.49	35.57	20.97	-43.8	-45.9	16.0	0.00e+00	0	33	0	455081984	54	4397
2026-01-16 05:56:27.50	35.34	21.03	-43.6	-45.6	16.1	0.00e+00	0	33	0	457179136	53	4538
2026-01-16 05:56:28.51	35.10	21.09	-43.7	-45.7	16.1	0.00e+00	0	33	0	459276288	53	4570
2026-01-16 05:56:29.52	34.86	21.15	-43.6	-45.6	16.1	0.00e+00	0	33	0	461373440	53	4540
2026-01-16 05:56:30.53	34.63	21.21	-43.7	-45.7	16.1	0.00e+00	0	33	0	462422016	53	4553
2026-01-16 05:56:31.53	34.39	21.27	-43.6	-45.6	16.1	0.00e+00	0	33	0	464519168	53	4535
2026-01-16 05:56:32.55	34.15	21.33	-43.5	-45.5	16.1	0.00e+00	0	33	0	466616320	53	4451
2026-01-16 05:56:33.55	33.91	21.38	-43.4	-45.4	16.2	0.00e+00	0	33	0	468713472	53	4393
2026-01-16 05:56:34.56	33.67	21.44	-43.3	-45.2	16.3	0.00e+00	0	33	0	470810624	53	4316
2026-01-16 05:56:35.57	33.43	21.50	-43.5	-45.4	16.2	0.00e+00	0	33	0	472907776	53	4419
2026-01-16 05:56:36.58	33.19	21.55	-43.6	-45.5	16.2	0.00e+00	0	33	0	473956352	53	4483
2026-01-16 05:56:37.59	32.95	21.61	-43.7	-45.8	16.1	0.00e+00	0	33	0	476053504	53	4602
2026-01-16 05:56:38.60	32.70	21.66	-43.6	-45.6	16.1	0.00e+00	0	33	0	478150656	53	4519
2026-01-16 05:56:39.61	32.46	21.72	-43.6	-45.6	16.1	0.00e+00	0	33	0	480247808	53	4515
2026-01-16 05:56:40.62	32.21	21.77	-43.4	-45.3	16.3	0.00e+00	0	33	0	482344960	53	4349
2026-01-16 05:56:41.63	31.96	21.83	-43.4	-45.4	16.2	0.00e+00	0	33	0	483393536	53	4396
2026-01-16 05:56:42.64	31.72	21.88	-43.6	-45.5	16.2	0.00e+00	0	33	0	485490688	53	4484
2026-01-16 05:56:43.65	31.47	21.93	-43.9	-45.9	16.0	0.00e+00	0	33	0	487587840	53	4699
2026-01-16 05:56:44.65	31.22	21.99	-44.0	-46.0	16.0	0.00e+00	0	33	0	489684992	53	4749
2026-01-16 05:56:45.66	30.97	22.04	-43.9	-45.8	16.0	0.00e+00	0	33	0	491782144	53	4648
2026-01-16 05:56:46.67	30.72	22.09	-43.8	-45.8	16.1	0.00e+00	0	33	0	492830720	53	4608
2026-01-16 05:56:47.68	30.47	22.14	-44.0	-46.0	16.0	0.00e+00	0	33	0	494927872	53	4722
2026-01-16 05:56:48.69	30.21	22.19	-44.1	-46.1	15.9	0.00e+00	0	33	0	497025024	53	4786
2026-01-16 05:56:49.70	29.96	22.24	-43.9	-45.9	16.0	0.00e+00	0	33	0	499122176	53	4691
2026-01-16 05:56:50.71	29.71	22.29	-44.0	-46.0	16.0	0.00e+00	0	33	0	501219328	53	4734
2026-01-16 05:56:51.72	29.45	22.34	-43.8	-45.8	16.1	0.00e+00	0	33	0	502267904	53	4629
2026-01-16 05:56:52.73	29.19	22.39	-43.9	-45.9	16.0	0.00e+00	0	33	0	504365056	53	4689
2026-01-16 05:56:53.74	28.94	22.44	-43.9	-45.9	16.0	0.00e+00	0	33	0	506462208	53	4696
2026-01-16 05:56:54.75	28.68	22.49	-43.9	-45.9	16.1	0.00e+00	0	33	0	508559360	53	4655
2026-01-16 05:56:55.76	28.42	22.53	-43.8	-45.7	16.1	0.00e+00	0	33	0	510656512	53	4577
2026-01-16 05:56:56.77	28.16	22.58	-43.5	-45.4	16.2	0.00e+00	0	33	0	511705088	53	4429
2026-01-16 05:56:57.78	27.90	22.63	-43.5	-45.3	16.3	0.00e+00	0	33	0	513802240	53	4391
2026-01-16 05:56:58.79	27.64	22.67	-43.6	-45.5	16.2	0.00e+00	0	33	0	515899392	53	4446
2026-01-16 05:56:59.80	27.38	22.72	-43.6	-45.5	16.2	0.00e+00	0	33	0	517996544	53	4470
2026-01-16 05:57:00.81	27.12	22.76	-43.6	-45.4	16.2	0.00e+00	0	33	0	520093696	53	4437
2026-01-16 05:57:01.82	26.86	22.80	-43.6	-45.5	16.2	0.00e+00	0	33	0	521142272	53	4451
2026-01-16 05:57:02.83	26.59	22.85	-43.6	-45.5	16.2	0.00e+00	0	33	0	523239424	53	4456
2026-01-16 05:57:03.84	26.33	22.89	-43.4	-45.2	16.3	0.00e+00	0	33	0	525336576	53	4330
2026-01-16 05:57:04.84	26.06	22.93	-43.3	-45.0	16.4	0.00e+00	0	33	0	527433728	53	4234
2026-01-16 05:57:05.85	25.80	22.97	-43.3	-45.1	16.4	0.00e+00	0	33	0	529530880	53	4273
2026-01-16 05:57:06.86	25.53	23.01	-43.4	-45.3	16.3	0.00e+00	0	33	0	530579456	53	4353
2026-01-16 05:57:07.87	25.26	23.05	-43.7	-45.5	16.2	0.00e+00	0	33	0	532676608	53	4484
2026-01-16 05:57:08.88	25.00	23.09	-43.9	-45.8	16.2	0.00e+00	0	33	0	534773760	53	4635
2026-01-16 05:57:09.89	24.73	23.13	-43.9	-45.7	16.1	0.00e+00	0	33	0	536870912	53	4594
2026-01-16 05:57:10.90	24.46	23.17	-43.9	-45.8	16.1	0.00e+00	0	33	0	538968064	53	4649
2026-01-16 05:57:11.91	24.19	23.21	-44.1	-46.1	16.0	0.00e+00	0	33	0	541065216	53	4766
2026-01-16 05:57:12.92	23.92	23.25	-44.6	-46.7	15.7	0.00e+00	0	33	0	542113792	54	4862
2026-01-16 05:57:13.93	23.65	23.28	-44.9	-47.2	15.5	0.00e+00	0	33	0	544210944	54	5125
2026-01-16 05:57:14.94	23.37	23.32	-45.1	-47.6	15.3	0.00e+00	0	33	0	546308096	55	5058
2026-01-16 05:57:15.94	23.10	23.35	-45.2	-47.6	15.3	0.00e+00	0	33	0	548405248	55	5083
2026-01-16 05:57:16.95	22.83	23.39	-45.1	-47.5	15.4	0.00e+00	0	33	0	550502400	55	5034
2026-01-16 05:57:17.96	22.56	23.42	-45.6	-48.2	15.1	0.00e+00	0	33	0	551550976	56	5144
2026-01-16 05:57:18.97	22.28	23.45	-45.6	-48.2	15.1	0.00e+00	0	33	0	553648128	56	5130
2026-01-16 05:57:19.98	22.01	23.49	-45.2	-47.7	15.3	0.00e+00	0	33	0	555745280	56	4835
2026-01-16 05:57:20.99	21.73	23.52	-45.0	-47.4	15.5	0.00e+00	0	33	0	557842432	56	4685
2026-01-16 05:57:22.00	21.46	23.55	-44.8	-47.1	15.6	0.00e+00	0	33	0	559939584	56	4534
2026-01-16 05:57:23.01	21.18	23.58	-44.5	-46.8	15.7	0.00e+00	0	33	0	560988160	55	4600
2026-01-16 05:57:24.02	20.90	23.61	-44.6	-46.9	15.7	0.00e+00	0	33	0	563085312	55	4659
2026-01-16 05:57:25.03	20.63	23.64	-44.7	-47.0	15.6	0.00e+00	0	33	0	565182464	55	4748
2026-01-16 05:57:26.04	20.35	23.67	-44.7	-47.0	15.6	0.00e+00	0	33	0	567279616	55	4722
2026-01-16 05:57:27.05	20.07	23.69	-44.8	-47.1	15.6	0.00e+00	0	33	0	569376768	55	4784
2026-01-16 05:57:28.06	19.79	23.72	-44.9	-47.2	15.5	0.00e+00	0	33	0	570425344	55	4857
2026-01-16 05:57:29.07	19.51	23.75	-44.7	-47.0	15.6	0.00e+00	0	33	0	572522496	55	4737
2026-01-16 05:57:30.08	19.23	23.77	-44.6	-46.9	15.6	0.00e+00	0	33	0	574619648	55	4687
2026-01-16 05:57:31.09	18.95	23.80	-44.8	-47.1	15.5	0.00e+00	0	33	0	576716800	55	4792
2026-01-16 05:57:32.10	18.67	23.82	-45.0	-47.5	15.3	0.00e+00	0	33	0	578813952	55	4998
2026-01-16 05:57:33.10	18.39	23.85	-45.1	-47.7	15.2	0.00e+00	0	33	0	579862528	55	5143
2026-01-16 05:57:34.11	18.11	23.87	-45.2	-47.9	15.1	0.00e+00	0	33	0	581959680	55	5248
2026-01-16 05:57:35.12	17.83	23.89	-45.2	-47.8	15.2	0.00e+00	0	33	0	584056832	55	5197
2026-01-16 05:57:36.13	17.54	23.91	-45.0	-47.5	15.3	0.00e+00	0	33	0	586153984	55	4991
2026-01-16 05:57:37.14	17.26	23.93	-45.2	-47.8	15.2	0.00e+00	0	33	0	588251136	55	5166
2026-01-16 05:57:38.15	16.98	23.95	-45.6	-48.3	15.1	0.00e+00	0	33	0	589299712	56	5163
2026-01-16 05:57:39.16	16.69	23.97	-45.8	-48.5	14.9	0.00e+00	0	33	0	591396864	56	5327
2026-01-16 05:57:40.17	16.41	23.99	-45.7	-48.5	14.9	0.00e+00	0	33	0	593494016	56	5323
2026-01-16 05:57:41.18	16.12	24.01	-45.8	-48.6	14.8	0.00e+00	0	33	0	595591168	57	5088
2026-01-16 05:57:42.19	15.84	24.02	-45.6	-48.4	14.9	0.00e+00	0	33	0	597688320	57	4974
2026-01-16 05:57:43.19	15.56	24.04	-45.5	-48.2	15.1	0.00e+00	0	33	0	598736896	57	4866
2026-01-16 05:57:44.20	15.27	24.05	-45.6	-48.4	15.0	0.00e+00	0	33	0	600834048	57	4934
2026-01-16 05:57:45.21	14.99	24.07	-45.4	-48.0	15.2	0.00e+00	0	33	0	602931200	57	4739
2026-01-16 05:57:46.22	14.70	24.08	-45.6	-48.2	15.1	0.00e+00	0	33	0	605028352	57	4857
2026-01-16 05:57:47.23	14.41	24.09	-45.6	-48.3	15.1	0.00e+00	0	33	0	607125504	57	4890
2026-01-16 05:57:48.24	14.13	24.11	-45.7	-48.4	15.0	0.00e+00	0	33	0	609222656	57	4942
2026-01-16 05:57:49.25	13.84	24.12	-45.6	-48.4	14.9	0.00e+00	0	33	0	610271232	57	4956
2026-01-16 05:57:50.26	13.55	24.13	-45.8	-48.8	14.7	0.00e+00	0	33	0	612368384	57	5165
2026-01-16 05:57:51.27	13.27	24.14	-45.8	-48.7	14.7	0.00e+00	0	33	0	614465536	57	5133
2026-01-16 05:57:52.28	12.98	24.15	-45.7	-48.5	14.9	0.00e+00	0	33	0	616562688	57	5039
2026-01-16 05:57:53.29	12.69	24.16	-45.7	-48.5	14.9	0.00e+00	0	33	0	618659840	57	5018
2026-01-16 05:57:54.30	12.41	24.16	-45.7	-48.4	15.0	0.00e+00	0	33	0	619708416	57	4978
2026-01-16 05:57:55.31	12.12	24.17	-45.3	-48.0	15.2	0.00e+00	0	33	0	621805568	57	4713
2026-01-16 05:57:56.32	11.83	24.18	-45.1	-47.6	15.3	0.00e+00	0	33	0	623902720	56	4766
2026-01-16 05:57:57.33	11.54	24.18	-44.5	-46.9	15.6	0.00e+00	0	33	0	625999872	55	4660
2026-01-16 05:57:58.34	11.26	24.19	-44.3	-46.6	15.6	0.00e+00	0	33	0	628097024	55	4540
2026-01-16 05:57:59.35	10.97	24.19	-44.3	-46.6	15.7	0.00e+00	0	33	0	629145600	55	4508
2026-01-16 05:58:00.35	10.68	24.19	-44.5	-46.9	15.5	0.00e+00	0	33	0	631242752	55	4697
2026-01-16 05:58:01.36	10.39	24.19	-44.8	-47.2	15.4	0.00e+00	0	33	0	633339904	55	4868
2026-01-16 05:58:02.37	10.11	24.19	-44.9	-47.5	15.4	0.00e+00	0	33	0	635437056	55	4997
2026-01-16 05:58:03.38	9.82	24.19	-45.1	-47.8	15.1	0.00e+00	0	33	0	637534208	55	5199
2026-01-16 05:58:04.39	9.53	24.19	-45.1	-47.7	15.1	0.00e+00	0	33	0	638582784	55	5149
2026-01-16 05:58:05.40	9.24	24.19	-45.0	-47.6	15.2	0.00e+00	0	33	0	640679936	55	5070
2026-01-16 05:58:06.41	8.96	24.19	-44.8	-47.4	15.3	0.00e+00	0	33	0	642777088	55	4948
2026-01-16 05:58:07.42	8.67	24.19	-44.9	-47.5	15.2	0.00e+00	0	33	0	644874240	55	5009
2026-01-16 05:58:08.43	8.38	24.18	-44.8	-47.3	15.4	0.00e+00	0	33	0	646971392	55	4882
2026-01-16 05:58:09.44	8.09	24.18	-44.9	-47.5	15.3	0.00e+00	0	33	0	648019968	55	4986
2026-01-16 05:58:10.45	7.80	24.18	-44.6	-47.0	15.5	0.00e+00	0	33	0	650117120	55	4721
2026-01-16 05:58:11.45	7.52	24.17	-44.5	-46.8	15.6	0.00e+00	0	33	0	652214272	55	4645
2026-01-16 05:58:12.46	7.23	24.16	-44.4	-46.7	15.6	0.00e+00	0	33	0	654311424	55	4551
2026-01-16 05:58:13.47	6.94	24.16	-44.3	-46.6	15.7	0.00e+00	0	33	0	656408576	55	4500
2026-01-16 05:58:14.48	6.66	24.15	-44.3	-46.5	15.7	0.00e+00	0	33	0	657457152	55	4486
2026-01-16 05:58:15.49	6.37	24.14	-44.4	-46.7	15.6	0.00e+00	0	33	0	659554304	55	4569
2026-01-16 05:58:16.50	6.08	24.13	-44.5	-46.7	15.7	0.00e+00	0	33	0	661651456	55	4590
2026-01-16 05:58:17.51	5.80	24.12	-44.4	-46.6	15.8	0.00e+00	0	33	0	663748608	55	4529
2026-01-16 05:58:18.52	5.51	24.11	-44.2	-46.3	15.9	0.00e+00	0	33	0	665845760	55	4366
2026-01-16 05:58:19.53	5.22	24.09	-44.3	-46.4	15.9	0.00e+00	0	33	0	666894336	55	4427
2026-01-16 05:58:20.54	4.94	24.08	-44.5	-46.7	15.7	0.00e+00	0	33	0	668991488	55	4558
2026-01-16 05:58:21.55	4.65	24.07	-44.3	-46.4	15.8	0.00e+00	0	33	0	671088640	54	4686
2026-01-16 05:58:22.56	4.37	24.05	-44.2	-46.3	15.9	0.00e+00	0	33	0	673185792	54	4599
2026-01-16 05:58:23.57	4.08	24.04	-44.1	-46.2	16.0	0.00e+00	0	33	0	675282944	54	4549
2026-01-16 05:58:24.58	3.80	24.02	-43.8	-45.8	16.2	0.00e+00	0	33	0	676331520	54	4343
2026-01-16 05:58:25.59	3.51	24.01	-43.9	-45.8	16.1	0.00e+00	0	33	0	678428672	54	4370
2026-01-16 05:58:26.60	3.23	23.99	-43.9	-45.8	16.1	0.00e+00	0	33	0	680525824	54	4382
2026-01-16 05:58:27.61	2.94	23.97	-44.0	-45.9	16.1	0.00e+00	0	33	0	682622976	54	4424
2026-01-16 05:58:28.61	2.66	23.95	-43.6	-45.5	16.2	0.00e+00	0	33	0	684720128	53	4474
2026-01-16 05:58:29.63	2.38	23.93	-43.4	-45.2	16.3	0.00e+00	0	33	0	685768704	53	4318
2026-01-16 05:58:30.63	2.10	23.91	-43.1	-44.8	16.4	0.00e+00	0	33	0	687865856	52	4381
2026-01-16 05:58:31.64	1.81	23.89	-42.8	-44.5	16.6	0.00e+00	0	33	0	689963008	52	4214
2026-01-16 05:58:32.65	1.53	23.87	-43.2	-44.9	16.4	0.00e+00	0	33	0	692060160	52	4422
2026-01-16 05:58:33.66	1.25	23.85	-43.4	-45.2	16.3	0.00e+00	0	33	0	694157312	52	4574
2026-01-16 05:58:34.67	0.97	23.82	-43.4	-45.2	16.3	0.00e+00	0	33	0	695205888	52	4551
2026-01-16 05:58:35.68	0.69	23.80	-43.5	-45.2	16.3	0.00e+00	0	33	0	697303040	52	4586
2026-01-16 05:58:36.69	0.41	23.77	-43.4	-45.1	16.4	0.00e+00	0	33	0	699400192	52	4538
2026-01-16 05:58:37.70	0.13	23.75	-43.6	-45.4	16.2	0.00e+00	0	33	0	701497344	52	4661
2026-01-16 05:58:38.71	359.85	23.72	-43.6	-45.4	16.3	0.00e+00	0	33	0	703594496	52	4677
2026-01-16 05:58:39.72	359.57	23.69	-43.7	-45.5	16.2	0.00e+00	0	33	0	705691648	52	4739
2026-01-16 05:58:40.72	359.29	23.67	-43.6	-45.4	16.2	0.00e+00	0	33	0	706740224	52	4685
2026-01-16 05:58:41.73	359.01	23.64	-43.7	-45.5	16.2	0.00e+00	0	33	0	708837376	52	4758
2026-01-16 05:58:42.74	358.74	23.61	-43.8	-45.7	16.1	0.00e+00	0	33	0	710934528	52	4831
2026-01-16 05:58:43.75	358.46	23.58	-43.9	-45.8	16.1	0.00e+00	0	33	0	713031680	53	4636
2026-01-16 05:58:44.76	358.18	23.55	-44.1	-46.1	16.0	0.00e+00	0	33	0	715128832	53	4761
2026-01-16 05:58:45.77	357.91	23.52	-43.9	-45.8	16.1	0.00e+00	0	33	0	716177408	53	4618
2026-01-16 05:58:46.78	357.63	23.49	-43.8	-45.6	16.2	0.00e+00	0	33	0	718274560	53	4540
2026-01-16 05:58:47.79	357.36	23.45	-43.8	-45.6	16.2	0.00e+00	0	33	0	720371712	53	4514
2026-01-16 05:58:48.80	357.08	23.42	-43.8	-45.6	16.2	0.00e+00	0	33	0	722468864	53	4540
2026-01-16 05:58:49.81	356.81	23.39	-44.0	-45.9	16.0	0.00e+00	0	33	0	724566016	53	4675
2026-01-16 05:58:50.81	356.54	23.35	-44.4	-46.4	15.9	0.00e+00	0	33	0	725614592	54	4665
2026-01-16 05:58:51.82	356.27	23.32	-44.2	-46.2	16.0	0.00e+00	0	33	0	727711744	54	4568
2026-01-16 05:58:52.83	356.00	23.28	-44.1	-46.0	16.0	0.00e+00	0	33	0	729808896	54	4473
2026-01-16 05:58:53.84	355.72	23.25	-43.8	-45.7	16.2	0.00e+00	0	33	0	731906048	54	4315
2026-01-16 05:58:54.85	355.45	23.21	-43.9	-45.8	16.1	0.00e+00	0	33	0	734003200	54	4372
2026-01-16 05:58:55.86	355.18	23.17	-43.9	-45.8	16.1	0.00e+00	0	33	0	735051776	54	4363
2026-01-16 05:58:56.87	354.91	23.13	-44.1	-46.0	16.0	0.00e+00	0	33	0	737148928	54	4476
2026-01-16 05:58:57.88	354.65	23.09	-44.2	-46.2	16.0	0.00e+00	0	33	0	739246080	54	4594
2026-01-16 05:58:58.89	354.38	23.05	-44.5	-46.6	15.8	0.00e+00	0	33	0	741343232	54	4767
2026-01-16 05:58:59.90	354.11	23.01	-44.4	-46.5	15.9	0.00e+00	0	33	0	743440384	54	4747
2026-01-16 05:59:00.91	353.84	22.97	-44.6	-46.7	15.6	0.00e+00	0	33	0	744488960	54	4859
2026-01-16 05:59:01.92	353.58	22.93	-44.7	-46.9	15.7	0.00e+00	0	33	0	746586112	54	4941
2026-01-16 05:59:02.93	353.31	22.89	-44.5	-46.6	15.8	0.00e+00	0	33	0	748683264	54	4783
2026-01-16 05:59:03.94	353.05	22.85	-44.6	-46.8	15.7	0.00e+00	0	33	0	750780416	54	4906
2026-01-16 05:59:04.95	352.79	22.80	-44.7	-47.0	15.6	0.00e+00	0	33	0	752877568	54	5020
2026-01-16 05:59:05.96	352.52	22.76	-45.0	-47.5	15.4	0.00e+00	0	33	0	753926144	55	4986
2026-01-16 05:59:06.97	352.26	22.72	-45.3	-47.8	15.2	0.00e+00	0	33	0	756023296	55	5191
2026-01-16 05:59:07.98	352.00	22.67	-45.5	-48.1	15.1	0.00e+00	0	33	0	758120448	56	5098
2026-01-16 05:59:08.99	351.74	22.63	-45.5	-48.1	15.1	0.00e+00	0	33	0	760217600	56	5080
2026-01-16 05:59:09.99	351.48	22.58	-45.3	-47.8	15.3	0.00e+00	0	33	0	762314752	56	4874
2026-01-16 05:59:11.00	351.22	22.53	-45.2	-47.7	15.3	0.00e+00	0	33	0	763363328	56	4843
2026-01-16 05:59:12.01	350.96	22.49	-45.2	-47.7	15.3	0.00e+00	0	33	0	765460480	56	4861
2026-01-16 05:59:13.02	350.71	22.44	-45.1	-47.6	15.4	0.00e+00	0	33	0	767557632	56	4769
2026-01-16 05:59:14.03	350.45	22.39	-45.1	-47.6	15.4	0.00e+00	0	33	0	769654784	56	4771
2026-01-16 05:59:15.04	350.19	22.34	-45.2	-47.7	15.3	0.00e+00	0	33	0	771751936	56	4857
2026-01-16 05:59:16.05	349.94	22.29	-45.2	-47.8	15.3	0.00e+00	0	33	0	773849088	56	4871
2026-01-16 05:59:17.06	349.69	22.24	-45.4	-48.0	15.2	0.00e+00	0	33	0	774897664	56	5018
2026-01-16 05:59:18.07	349.43	22.19	-45.3	-47.9	15.2	0.00e+00	0	33	0	776994816	56	4940
2026-01-16 05:59:19.08	349.18	22.14	-45.2	-47.7	15.3	0.00e+00	0	33	0	779091968	56	4861
2026-01-16 05:59:20.09	348.93	22.09	-45.1	-47.6	15.3	0.00e+00	0	33	0	781189120	56	4787
2026-01-16 05:59:21.10	348.68	22.04	-44.9	-47.4	15.5	0.00e+00	0	33	0	783286272	56	4653
2026-01-16 05:59:22.11	348.43	21.99	-45.0	-47.4	15.4	0.00e+00	0	33	0	784334848	56	4667
2026-01-16 05:59:23.11	348.18	21.93	-45.3	-47.8	15.3	0.00e+00	0	33	0	786432000	56	4900
2026-01-16 05:59:24.12	347.93	21.88	-45.1	-47.6	15.4	0.00e+00	0	33	0	788529152	56	4770
2026-01-16 05:59:25.14	347.68	21.83	-45.3	-47.8	15.2	0.00e+00	0	33	0	790626304	56	4924
2026-01-16 05:59:26.14	347.44	21.77	-45.2	-47.8	15.3	0.00e+00	0	33	0	792723456	56	4881
2026-01-16 05:59:27.15	347.19	21.72	-45.4	-48.0	15.2	0.00e+00	0	33	0	793772032	56	5023
2026-01-16 05:59:28.16	346.95	21.66	-45.5	-48.1	15.1	0.00e+00	0	33	0	795869184	56	5084
2026-01-16 05:59:29.17	346.70	21.61	-45.7	-48.5	14.9	0.00e+00	0	33	0	797966336	56	5290
2026-01-16 05:59:30.18	346.46	21.55	-45.9	-48.9	14.7	0.00e+00	0	33	0	800063488	56	5545
2026-01-16 05:59:31.19	346.22	21.50	-46.0	-49.0	14.6	0.00e+00	0	33	0	802160640	57	5322
2026-01-16 05:59:32.20	345.98	21.44	-45.7	-48.6	14.8	0.00e+00	0	33	0	803209216	57	5065
2026-01-16 05:59:33.21	345.74	21.38	-45.4	-48.1	15.1	0.00e+00	0	33	0	805306368	57	4775
2026-01-16 05:59:34.22	345.50	21.33	-45.3	-47.9	15.2	0.00e+00	0	33	0	807403520	56	4946
2026-01-16 05:59:35.23	345.26	21.27	-45.1	-47.7	15.3	0.00e+00	0	33	0	809500672	56	4820
2026-01-16 05:59:36.24	345.02	21.21	-45.3	-47.9	15.2	0.00e+00	0	33	0	811597824	56	4977
2026-01-16 05:59:37.25	344.78	21.15	-45.4	-48.0	15.1	0.00e+00	0	33	0	812646400	56	5040
2026-01-16 05:59:38.26	344.55	21.09	-45.7	-48.6	14.9	0.00e+00	0	33	0	814743552	56	5369
2026-01-16 05:59:39.27	344.31	21.03	-46.0	-49.2	14.4	0.00e+00	0	33	0	816840704	57	5421
2026-01-16 05:59:40.28	344.08	20.97	-46.5	-50.1	13.9	0.00e+00	0	33	0	818937856	58	5717
2026-01-16 05:59:41.28	343.85	20.91	-46.4	-49.9	14.0	0.00e+00	0	33	0	821035008	58	5566
2026-01-16 05:59:42.30	343.61	20.85	-46.4	-49.9	14.0	0.00e+00	0	33	0	822083584	58	5577
2026-01-16 05:59:43.30	343.38	20.79	-46.1	-49.4	14.3	0.00e+00	0	33	0	824180736	58	5268
2026-01-16 05:59:44.31	343.15	20.73	-45.8	-48.8	14.8	0.00e+00	0	33	0	826277888	58	4881
2026-01-16 05:59:45.32	342.92	20.67	-45.5	-48.3	15.0	0.00e+00	0	33	0	828375040	57	4872
2026-01-16 05:59:46.33	342.70	20.61	-45.3	-48.1	15.1	0.00e+00	0	33	0	830472192	56	5051
2026-01-16 05:59:47.34	342.47	20.55	-45.0	-47.6	15.4	0.00e+00	0	33	0	831520768	56	4775
2026-01-16 05:59:48.35	342.24	20.48	-44.8	-47.2	15.5	0.00e+00	0	33	0	833617920	56	4588
2026-01-16 05:59:49.36	342.02	20.42	-44.7	-47.1	15.6	0.00e+00	0	33	0	835715072	56	4524
2026-01-16 05:59:50.36	341.79	20.36	-44.6	-47.0	15.5	0.00e+00	0	33	0	837812224	55	4745
2026-01-16 05:59:51.37	341.57	20.29	-44.6	-47.0	15.5	0.00e+00	0	33	0	839909376	55	4718
2026-01-16 05:59:52.38	341.35	20.23	-44.4	-46.8	15.6	0.00e+00	0	33	0	840957952	55	4616
2026-01-16 05:59:53.39	341.12	20.17	-44.3	-46.6	15.7	0.00e+00	0	33	0	843055104	55	4535
2026-01-16 05:59:54.40	340.90	20.10	-44.2	-46.4	15.7	0.00e+00	0	33	0	845152256	54	4702
2026-01-16 05:59:55.41	340.68	20.04	-44.1	-46.2	15.8	0.00e+00	0	33	0	847249408	54	4587
2026-01-16 05:59:56.42	340.46	19.97	-43.9	-46.1	15.9	0.00e+00	0	33	0	849346560	54	4506
2026-01-16 05:59:57.43	340.25	19.91	-43.8	-45.9	16.0	0.00e+00	0	33	0	850395136	54	4396
2026-01-16 05:59:58.44	340.03	19.84	-43.6	-45.6	16.1	0.00e+00	0	33	0	852492288	53	4509
2026-01-16 05:59:59.45	339.81	19.78	-43.3	-45.2	16.2	0.00e+00	0	33	0	854589440	53	4337
2026-01-16 06:00:00.46	339.60	19.71	-43.4	-45.3	16.2	0.00e+00	0	33	0	856686592	53	4383
2026-01-16 06:00:01.47	339.38	19.64	-43.4	-45.3	16.1	0.00e+00	0	33	0	858783744	53	4385
2026-01-16 06:00:02.48	339.17	19.58	-43.6	-45.7	16.0	0.00e+00	0	33	0	859832320	53	4568
2026-01-16 06:00:03.49	338.96	19.51	-43.8	-46.0	15.9	0.00e+00	0	33	0	861929472	53	4719
2026-01-16 06:00:04.50	338.74	19.45	-44.2	-46.5	15.6	0.00e+00	0	33	0	864026624	53	5023
2026-01-16 06:00:05.51	338.53	19.38	-44.5	-46.9	15.4	0.00e+00	0	33	0	866123776	54	4929
2026-01-16 06:00:06.52	338.32	19.31	-44.8	-47.3	15.3	0.00e+00	0	33	0	868220928	54	5169
2026-01-16 06:00:07.53	338.12	19.24	-44.8	-47.4	15.2	0.00e+00	0	33	0	870318080	55	4950
2026-01-16 06:00:08.53	337.91	19.18	-45.1	-47.9	15.0	0.00e+00	0	33	0	871366656	55	5228
2026-01-16 06:00:09.54	337.70	19.11	-45.2	-47.9	15.0	0.00e+00	0	33	0	873463808	55	5278
2026-01-16 06:00:10.55	337.50	19.04	-45.3	-48.2	14.8	0.00e+00	0	33	0	875560960	55	5434
2026-01-16 06:00:11.56	337.29	18.97	-45.1	-47.8	15.1	0.00e+00	0	33	0	877658112	55	5192
2026-01-16 06:00:12.57	337.09	18.90	-45.0	-47.7	15.2	0.00e+00	0	33	0	879755264	55	5101
2026-01-16 06:00:13.58	336.88	18.83	-44.8	-47.4	15.3	0.00e+00	0	33	0	880803840	55	4957
2026-01-16 06:00:14.59	336.68	18.77	-44.6	-47.1	15.4	0.00e+00	0	33	0	882900992	55	4782
2026-01-16 06:00:15.60	336.48	18.70	-44.5	-47.0	15.5	0.00e+00	0	33	0	884998144	55	4726
2026-01-16 06:00:16.61	336.28	18.63	-44.3	-46.7	15.6	0.00e+00	0	33	0	887095296	55	4559
2026-01-16 06:00:17.61	336.08	18.56	-44.3	-46.6	15.7	0.00e+00	0	33	0	889192448	55	4509
2026-01-16 06:00:18.62	335.88	18.49	-44.2	-46.4	15.8	0.00e+00	0	33	0	890241024	54	4700
2026-01-16 06:00:19.63	335.69	18.42	-43.9	-46.1	15.9	0.00e+00	0	33	0	892338176	54	4504
2026-01-16 06:00:20.64	335.49	18.35	-43.6	-45.6	16.1	0.00e+00	0	33	0	894435328	53	4525
2026-01-16 06:00:21.65	335.29	18.28	-43.5	-45.6	16.1	0.00e+00	0	33	0	896532480	53	4514
2026-01-16 06:00:22.66	335.10	18.21	-43.7	-45.8	16.0	0.00e+00	0	33	0	898629632	53	4639
2026-01-16 06:00:23.67	334.90	18.14	-44.1	-46.4	15.8	0.00e+00	0	33	0	899678208	53	4932
2026-01-16 06:00:24.68	334.71	18.07	-44.5	-46.8	15.6	0.00e+00	0	33	0	901775360	54	4910
2026-01-16 06:00:25.68	334.52	18.00	-44.6	-47.0	15.5	0.00e+00	0	33	0	903872512	54	5008
2026-01-16 06:00:26.69	334.33	17.93	-44.4	-46.8	15.6	0.00e+00	0	33	0	905969664	54	4886
2026-01-16 06:00:27.70	334.14	17.86	-44.4	-46.7	15.6	0.00e+00	0	33	0	908066816	54	4863
2026-01-16 06:00:28.71	333.95	17.78	-44.2	-46.4	15.8	0.00e+00	0	33	0	909115392	54	4702
2026-01-16 06:00:29.72	333.76	17.71	-44.2	-46.5	15.7	0.00e+00	0	33	0	911212544	54	4728
2026-01-16 06:00:30.73	333.57	17.64	-44.4	-46.7	15.6	0.00e+00	0	33	0	913309696	54	4823
2026-01-16 06:00:31.74	333.39	17.57	-44.4	-46.7	15.6	0.00e+00	0	33	0	915406848	54	4844
2026-01-16 06:00:32.75	333.20	17.50	-44.7	-47.1	15.5	0.00e+00	0	33	0	917504000	54	5066
2026-01-16 06:00:33.76	333.02	17.43	-44.9	-47.3	15.4	0.00e+00	0	33	0	918552576	54	5218
2026-01-16 06:00:34.77	332.83	17.36	-44.9	-47.3	15.4	0.00e+00	0	33	0	920649728	54	5217
2026-01-16 06:00:35.78	332.65	17.28	-44.8	-47.2	15.4	0.00e+00	0	33	0	922746880	54	5132
2026-01-16 06:00:36.79	332.47	17.21	-44.6	-47.0	15.6	0.00e+00	0	33	0	924844032	54	5003
2026-01-16 06:00:37.80	332.28	17.14	-44.5	-46.8	15.7	0.00e+00	0	33	0	926941184	54	4908
2026-01-16 06:00:38.81	332.10	17.07	-44.5	-46.7	15.7	0.00e+00	0	33	0	927989760	54	4854
2026-01-16 06:00:39.82	331.92	17.00	-44.5	-46.8	15.7	0.00e+00	0	33	0	930086912	54	4873
2026-01-16 06:00:40.82	331.75	16.92	-44.4	-46.6	15.7	0.00e+00	0	33	0	932184064	54	4803
2026-01-16 06:00:41.83	331.57	16.85	-44.3	-46.5	15.8	0.00e+00	0	33	0	934281216	54	4750
2026-01-16 06:00:42.84	331.39	16.78	-44.1	-46.2	15.9	0.00e+00	0	33	0	936378368	54	4572
2026-01-16 06:00:43.85	331.22	16.71	-44.1	-46.2	15.9	0.00e+00	0	33	0	938475520	54	4558
2026-01-16 06:00:44.86	331.04	16.64	-44.1	-46.2	15.9	0.00e+00	0	33	0	939524096	54	4561
2026-01-16 06:00:45.87	330.87	16.56	-44.1	-46.1	16.0	0.00e+00	0	33	0	941621248	54	4535
2026-01-16 06:00:46.88	330.69	16.49	-44.3	-46.4	15.8	0.00e+00	0	33	0	943718400	54	4704
2026-01-16 06:00:47.89	330.52	16.42	-44.3	-46.5	15.8	0.00e+00	0	33	0	945815552	54	4707
2026-01-16 06:00:48.90	330.35	16.34	-44.4	-46.6	15.8	0.00e+00	0	33	0	947912704	54	4784
2026-01-16 06:00:49.90	330.18	16.27	-44.5	-46.6	15.8	0.00e+00	0	33	0	948961280	54	4802
2026-01-16 06:00:50.91	330.01	16.20	-44.3	-46.4	15.9	0.00e+00	0	33	0	951058432	54	4668
2026-01-16 06:00:51.92	329.84	16.13	-44.0	-46.0	16.0	0.00e+00	0	33	0	953155584	54	4478
2026-01-16 06:00:52.93	329.67	16.05	-43.8	-45.7	16.2	0.00e+00	0	33	0	955252736	54	4323
2026-01-16 06:00:53.94	329.50	15.98	-43.4	-45.2	16.3	0.00e+00	0	33	0	957349888	53	4332
2026-01-16 06:00:54.95	329.33	15.91	-43.5	-45.3	16.3	0.00e+00	0	33	0	958398464	53	4389
2026-01-16 06:00:55.96	329.17	15.84	-43.6	-45.4	16.3	0.00e+00	0	33	0	960495616	53	4436
2026-01-16 06:00:56.97	329.00	15.76	-43.6	-45.5	16.2	0.00e+00	0	33	0	962592768	53	4464
2026-01-16 06:00:57.98	328.84	15.69	-43.7	-45.6	16.2	0.00e+00	0	33	0	964689920	53	4535
2026-01-16 06:00:58.99	328.67	15.62	-43.9	-45.8	16.1	0.00e+00	0	33	0	966787072	53	4625
2026-01-16 06:01:00.00	328.51	15.54	-44.0	-46.0	16.0	0.00e+00	0	33	0	967835648	53	4756
2026-01-16 06:01:01.01	328.35	15.47	-44.1	-46.1	16.0	0.00e+00	0	34	0	969932800	53	4774
2026-01-16 06:01:02.02	328.19	15.40	-44.1	-46.1	16.0	0.00e+00	0	33	0	972029952	53	4801
2026-01-16 06:01:03.03	328.03	15.32	-44.3	-46.4	15.9	0.00e+00	0	33	0	974127104	53	4967
2026-01-16 06:01:04.03	327.87	15.25	-44.4	-46.5	15.8	0.00e+00	0	33	0	976224256	53	4994
2026-01-16 06:01:05.05	327.71	15.18	-44.3	-46.4	15.8	0.00e+00	0	33	0	977272832	53	4967
2026-01-16 06:01:06.05	327.55	15.11	-44.2	-46.2	15.9	0.00e+00	0	33	0	979369984	53	4842
2026-01-16 06:01:07.06	327.40	15.03	-44.1	-46.0	16.0	0.00e+00	0	33	0	981467136	53	4756
2026-01-16 06:01:08.07	327.24	14.96	-43.9	-45.8	16.1	0.00e+00	0	33	0	983564288	53	4648
2026-01-16 06:01:09.08	327.08	14.89	-43.8	-45.7	16.2	0.00e+00	0	33	0	985661440	53	4548
2026-01-16 06:01:10.09	326.93	14.81	-43.6	-45.4	16.2	0.00e+00	0	33	0	986710016	53	4433
2026-01-16 06:01:11.10	326.77	14.74	-43.6	-45.5	16.2	0.00e+00	0	33	0	988807168	53	4461
2026-01-16 06:01:12.11	326.62	14.67	-43.6	-45.4	16.2	0.00e+00	0	33	0	990904320	53	4417
2026-01-16 06:01:13.12	326.47	14.59	-44.0	-45.9	16.0	0.00e+00	0	33	0	993001472	53	4696
2026-01-16 06:01:14.13	326.32	14.52	-44.2	-46.3	15.8	0.00e+00	0	33	0	995098624	53	4901
2026-01-16 06:01:15.14	326.17	14.45	-44.6	-46.7	15.7	0.00e+00	0	33	0	996147200	54	4863
2026-01-16 06:01:16.15	326.01	14.37	-44.8	-47.0	15.6	0.00e+00	0	33	0	998244352	54	5025
2026-01-16 06:01:17.16	325.87	14.30	-44.7	-47.0	15.6	0.00e+00	0	33	0	1000341504	54	4997
2026-01-16 06:01:18.17	325.72	14.23	-44.8	-47.1	15.5	0.00e+00	0	33	0	1002438656	55	4790
2026-01-16 06:01:19.18	325.57	14.16	-44.7	-46.9	15.6	0.00e+00	0	33	0	1004535808	55	4704
2026-01-16 06:01:20.18	325.42	14.08	-44.7	-46.9	15.6	0.00e+00	0	33	0	1006632960	55	4700
2026-01-16 06:01:21.19	325.28	14.01	-44.5	-46.7	15.7	0.00e+00	0	33	0	1007681536	55	4565
2026-01-16 06:01:22.20	325.13	13.94	-44.5	-46.7	15.7	0.00e+00	0	33	0	1009778688	55	4562
2026-01-16 06:01:23.21	324.98	13.86	-44.5	-46.6	15.8	0.00e+00	0	33	0	1011875840	55	4510
2026-01-16 06:01:24.22	324.84	13.79	-44.3	-46.4	15.8	0.00e+00	0	33	0	1013972992	55	4438
2026-01-16 06:01:25.23	324.70	13.72	-44.4	-46.5	15.8	0.00e+00	0	33	0	1015021568	55	4477
2026-01-16 06:01:26.24	324.55	13.65	-44.4	-46.5	15.9	0.00e+00	0	33	0	1017118720	55	4452
2026-01-16 06:01:27.25	324.41	13.57	-44.3	-46.3	15.9	0.00e+00	0	33	0	1019215872	55	4385
2026-01-16 06:01:28.26	324.27	13.50	-44.1	-46.1	16.0	0.00e+00	0	33	0	1021313024	54	4516
2026-01-16 06:01:29.27	324.13	13.43	-44.1	-46.1	16.0	0.00e+00	0	33	0	1023410176	54	4540
2026-01-16 06:01:30.27	323.99	13.36	-44.0	-46.0	16.0	0.00e+00	0	33	0	1024458752	54	4470
2026-01-16 06:01:31.28	323.85	13.28	-44.3	-46.4	15.8	0.00e+00	0	33	0	1026555904	54	4667
2026-01-16 06:01:32.29	323.71	13.21	-44.6	-46.8	15.7	0.00e+00	0	33	0	1028653056	54	4881
2026-01-16 06:01:33.30	323.57	13.14	-44.7	-46.9	15.6	0.00e+00	0	33	0	1030750208	54	4950
2026-01-16 06:01:34.31	323.44	13.07	-45.0	-47.4	15.4	0.00e+00	0	33	0	1032847360	55	4928
2026-01-16 06:01:35.32	323.30	12.99	-45.3	-47.8	15.2	0.00e+00	0	33	0	1034944512	55	5202
2026-01-16 06:01:36.33	323.16	12.92	-45.7	-48.2	15.1	0.00e+00	0	33	0	1035993088	56	5153
2026-01-16 06:01:37.34	323.03	12.85	-45.7	-48.3	15.1	0.00e+00	0	33	0	1038090240	56	5182
2026-01-16 06:01:38.35	322.89	12.78	-45.8	-48.4	15.0	0.00e+00	0	33	0	1040187392	56	5223
2026-01-16 06:01:39.36	322.76	12.71	-45.5	-48.0	15.2	0.00e+00	0	34	0	1042284544	56	5023
2026-01-16 06:01:40.37	322.63	12.63	-45.4	-47.8	15.3	0.00e+00	0	33	0	1044381696	56	4896
2026-01-16 06:01:41.38	322.49	12.56	-45.2	-47.5	15.4	0.00e+00	0	33	0	1045430272	56	4729
2026-01-16 06:01:42.39	322.36	12.49	-45.1	-47.3	15.5	0.00e+00	0	33	0	1047527424	56	4649
2026-01-16 06:01:43.40	322.23	12.42	-45.0	-47.3	15.6	0.00e+00	0	33	0	1049624576	56	4603
2026-01-16 06:01:44.40	322.10	12.35	-45.0	-47.2	15.6	0.00e+00	0	33	0	1051721728	56	4585
2026-01-16 06:01:45.41	321.97	12.27	-44.8	-47.0	15.7	0.00e+00	0	33	0	1053818880	56	4482
2026-01-16 06:01:46.42	321.84	12.20	-44.8	-46.9	15.7	0.00e+00	0	33	0	1054867456	56	4436
2026-01-16 06:01:47.43	321.71	12.13	-45.0	-47.3	15.5	0.00e+00	0	34	0	1056964608	56	4613
2026-01-16 06:01:48.44	321.58	12.06	-45.0	-47.2	15.5	0.00e+00	0	33	0	1059061760	56	4585
2026-01-16 06:01:49.45	321.46	11.99	-44.9	-47.1	15.7	0.00e+00	0	33	0	1061158912	56	4507
2026-01-16 06:01:50.46	321.33	11.92	-44.8	-47.0	15.6	0.00e+00	0	33	0	1063256064	56	4477
2026-01-16 06:01:51.47	321.20	11.85	-44.8	-47.0	15.6	0.00e+00	0	33	0	1064304640	56	4489
2026-01-16 06:01:52.48	321.08	11.77	-44.8	-47.0	15.7	0.00e+00	0	33	0	1066401792	56	4456
2026-01-16 06:01:53.49	320.95	11.70	-44.8	-46.9	15.7	0.00e+00	0	33	0	1068498944	56	4430
2026-01-16 06:01:54.50	320.83	11.63	-44.8	-47.0	15.6	0.00e+00	0	33	0	1070596096	55	4742
2026-01-16 06:01:55.51	320.71	11.56	-44.6	-46.8	15.6	0.00e+00	0	33	0	1072693248	55	4633
2026-01-16 06:01:56.51	320.58	11.49	-44.8	-47.0	15.5	0.00e+00	0	33	0	1073741824	55	4724
2026-01-16 06:01:57.52	320.46	11.42	-44.9	-47.2	15.5	0.00e+00	0	33	0	1075838976	55	4833
2026-01-16 06:01:58.53	320.34	11.35	-45.0	-47.4	15.3	0.00e+00	0	33	0	1077936128	55	4964
2026-01-16 06:01:59.54	320.22	11.28	-45.2	-47.6	15.2	0.00e+00	0	33	0	1080033280	55	5082
2026-01-16 06:02:00.55	320.10	11.21	-45.3	-47.7	15.2	0.00e+00	0	33	0	1082130432	55	5152
2026-01-16 06:02:01.56	319.98	11.14	-45.3	-47.8	15.1	0.00e+00	0	33	0	1083179008	55	5212
2026-01-16 06:02:02.57	319.86	11.07	-45.3	-47.8	15.1	0.00e+00	0	33	0	1085276160	55	5193
2026-01-16 06:02:03.58	319.74	11.00	-45.3	-47.8	15.1	0.00e+00	0	33	0	1087373312	55	5179
2026-01-16 06:02:04.59	319.62	10.93	-45.5	-48.0	15.1	0.00e+00	0	33	0	1089470464	56	5030
2026-01-16 06:02:05.60	319.50	10.85	-45.5	-48.1	15.1	0.00e+00	0	33	0	1091567616	56	5079
2026-01-16 06:02:06.60	319.39	10.79	-45.4	-47.9	15.1	0.00e+00	0	33	0	1092616192	56	4982
2026-01-16 06:02:07.62	319.27	10.71	-45.5	-48.1	15.1	0.00e+00	0	33	0	1094713344	56	5065
2026-01-16 06:02:08.62	319.15	10.65	-45.8	-48.5	14.9	0.00e+00	0	33	0	1096810496	56	5284
2026-01-16 06:02:09.63	319.04	10.58	-45.7	-48.4	14.9	0.00e+00	0	33	0	1098907648	56	5256
2026-01-16 06:02:10.64	318.92	10.51	-45.9	-48.7	14.7	0.00e+00	0	33	0	1101004800	56	5457
2026-01-16 06:02:11.65	318.81	10.44	-46.1	-48.9	14.6	0.00e+00	0	33	0	1103101952	57	5270
2026-01-16 06:02:12.66	318.70	10.37	-46.1	-49.0	14.6	0.00e+00	0	33	0	1104150528	57	5285
2026-01-16 06:02:13.67	318.58	10.30	-46.2	-49.2	14.5	0.00e+00	0	33	0	1106247680	57	5409
2026-01-16 06:02:14.68	318.47	10.23	-46.1	-49.0	14.6	0.00e+00	0	33	0	1108344832	57	5310
2026-01-16 06:02:15.69	318.36	10.16	-46.2	-49.1	14.5	0.00e+00	0	33	0	1110441984	57	5377
2026-01-16 06:02:16.70	318.25	10.09	-46.0	-48.8	14.7	0.00e+00	0	33	0	1112539136	57	5197
2026-01-16 06:02:17.70	318.14	10.02	-45.8	-48.5	14.9	0.00e+00	0	33	0	1113587712	57	5008
2026-01-16 06:02:18.71	318.03	9.95	-45.7	-48.3	14.9	0.00e+00	0	33	0	1115684864	57	4920
2026-01-16 06:02:19.72	317.92	9.88	-45.5	-48.1	15.1	0.00e+00	0	33	0	1117782016	57	4775
2026-01-16 06:02:20.73	317.81	9.81	-45.4	-47.9	15.2	0.00e+00	0	33	0	1119879168	57	4679
2026-01-16 06:02:21.74	317.70	9.74	-45.3	-47.7	15.3	0.00e+00	0	33	0	1121976320	57	4584
2026-01-16 06:02:22.75	317.59	9.67	-45.5	-48.0	15.1	0.00e+00	0	33	0	1123024896	57	4711
2026-01-16 06:02:23.76	317.48	9.61	-45.3	-47.7	15.2	0.00e+00	0	33	0	1125122048	57	4591
2026-01-16 06:02:24.77	317.37	9.54	-45.3	-47.8	15.2	0.00e+00	0	34	0	1127219200	57	4606
2026-01-16 06:02:25.78	317.27	9.47	-45.4	-47.9	15.2	0.00e+00	0	33	0	1129316352	57	4665
2026-01-16 06:02:26.79	317.16	9.40	-45.6	-48.2	15.0	0.00e+00	0	33	0	1131413504	57	4820
2026-01-16 06:02:27.80	317.06	9.33	-45.8	-48.4	14.9	0.00e+00	0	33	0	1132462080	57	4967
2026-01-16 06:02:28.80	316.95	9.26	-45.9	-48.6	14.8	0.00e+00	0	33	0	1134559232	57	5052
2026-01-16 06:02:29.81	316.85	9.20	-46.0	-48.7	14.7	0.00e+00	0	33	0	1136656384	57	5131
2026-01-16 06:02:30.82	316.74	9.13	-46.0	-48.8	14.7	0.00e+00	0	33	0	1138753536	57	5176
2026-01-16 06:02:31.83	316.64	9.06	-46.1	-49.0	14.5	0.00e+00	0	33	0	1140850688	57	5303
2026-01-16 06:02:32.84	316.54	8.99	-46.0	-48.8	14.6	0.00e+00	0	33	0	1141899264	57	5200
2026-01-16 06:02:33.85	316.43	8.92	-46.1	-48.9	14.6	0.00e+00	0	33	0	1143996416	57	5256
2026-01-16 06:02:34.86	316.33	8.86	-46.0	-48.8	14.6	0.00e+00	0	33	0	1146093568	57	5201
2026-01-16 06:02:35.87	316.23	8.79	-46.0	-48.8	14.7	0.00e+00	0	33	0	1148190720	57	5164
2026-01-16 06:02:36.88	316.13	8.72	-46.0	-48.8	14.7	0.00e+00	0	33	0	1150287872	57	5182
2026-01-16 06:02:37.89	316.03	8.65	-45.9	-48.7	14.7	0.00e+00	0	33	0	1151336448	57	5117
2026-01-16 06:02:38.90	315.93	8.59	-45.8	-48.5	14.8	0.00e+00	0	33	0	1153433600	57	4987
2026-01-16 06:02:39.91	315.83	8.52	-45.8	-48.5	14.8	0.00e+00	0	33	0	1155530752	57	5019
2026-01-16 06:02:40.92	315.73	8.45	-45.8	-48.4	14.8	0.00e+00	0	34	0	1157627904	57	4963
2026-01-16 06:02:41.93	315.63	8.38	-45.9	-48.6	14.7	0.00e+00	0	33	0	1159725056	57	5090
2026-01-16 06:02:42.94	315.53	8.32	-45.8	-48.4	14.8	0.00e+00	0	33	0	1160773632	57	4973
2026-01-16 06:02:43.95	315.43	8.25	-45.9	-48.7	14.7	0.00e+00	0	33	0	1162870784	57	5141
2026-01-16 06:02:44.96	315.33	8.18	-46.0	-48.8	14.7	0.00e+00	0	33	0	1164967936	57	5171
2026-01-16 06:02:45.97	315.24	8.12	-46.1	-48.9	14.5	0.00e+00	0	33	0	1167065088	57	5275
2026-01-16 06:02:46.98	315.14	8.05	-46.2	-49.1	14.4	0.00e+00	0	33	0	1169162240	57	5370
2026-01-16 06:02:47.98	315.05	7.98	-46.2	-49.2	14.4	0.00e+00	0	33	0	1170210816	57	5407
2026-01-16 06:02:48.99	314.95	7.92	-46.3	-49.3	14.3	0.00e+00	0	33	0	1172307968	57	5525
2026-01-16 06:02:50.00	314.85	7.85	-46.4	-49.5	14.2	0.00e+00	0	33	0	1174405120	58	5289
2026-01-16 06:02:51.01	314.76	7.79	-46.7	-49.9	13.9	0.00e+00	0	33	0	1176502272	58	5592
2026-01-16 06:02:52.02	314.67	7.72	-46.6	-49.8	14.0	0.00e+00	0	33	0	1178599424	58	5489
2026-01-16 06:02:53.03	314.57	7.65	-46.8	-50.1	13.8	0.00e+00	0	33	0	1180696576	58	5715
2026-01-16 06:02:54.04	314.48	7.59	-46.9	-50.3	13.7	0.00e+00	0	33	0	1181745152	59	5489
2026-01-16 06:02:55.05	314.39	7.52	-46.8	-50.1	13.8	0.00e+00	0	33	0	1183842304	59	5391
2026-01-16 06:02:56.06	314.29	7.46	-46.9	-50.5	13.5	0.00e+00	0	33	0	1185939456	59	5599
2026-01-16 06:02:57.07	314.20	7.39	-47.0	-50.6	13.5	0.00e+00	0	33	0	1188036608	59	5682
2026-01-16 06:02:58.08	314.11	7.32	-47.1	-50.7	13.4	7.00e-07	0	33	0	1189085184	59	5732
2026-01-16 06:02:59.09	314.02	7.26	-47.1	-50.8	13.3	0.00e+00	0	34	0	1191182336	59	5805
2026-01-16 06:03:00.10	313.93	7.19	-47.1	-50.8	13.3	0.00e+00	0	33	0	1193279488	59	5833
2026-01-16 06:03:01.11	313.84	7.13	-47.1	-50.8	13.3	0.00e+00	0	33	0	1195376640	59	5806
2026-01-16 06:03:02.11	313.75	7.06	-47.2	-50.9	13.2	0.00e+00	0	33	0	1197473792	59	5906
2026-01-16 06:03:03.12	313.66	7.00	-47.1	-50.8	13.3	0.00e+00	0	33	0	1198522368	59	5827
2026-01-16 06:03:04.13	313.57	6.93	-47.1	-50.7	13.3	7.00e-07	0	33	0	1200619520	59	5733
2026-01-16 06:03:05.14	313.48	6.87	-47.0	-50.6	13.3	7.00e-07	0	33	0	1202716672	59	5709
2026-01-16 06:03:06.15	313.39	6.80	-47.1	-50.7	13.3	0.00e+00	0	33	0	1204813824	59	5748
2026-01-16 06:03:07.16	313.30	6.74	-47.0	-50.6	13.4	0.00e+00	0	33	0	1206910976	59	5691
2026-01-16 06:03:08.17	313.22	6.68	-47.0	-50.7	13.3	0.00e+00	0	33	0	1209008128	59	5724
2026-01-16 06:03:09.18	313.13	6.61	-47.0	-50.5	13.4	0.00e+00	0	33	0	1210056704	59	5646
2026-01-16 06:03:10.19	313.04	6.55	-46.9	-50.4	13.4	0.00e+00	0	33	0	1212153856	59	5587
2026-01-16 06:03:11.20	312.96	6.48	-47.0	-50.6	13.4	0.00e+00	0	33	0	1214251008	59	5673
2026-01-16 06:03:12.21	312.87	6.42	-47.0	-50.6	13.4	0.00e+00	0	33	0	1216348160	59	5683
2026-01-16 06:03:13.22	312.78	6.35	-46.9	-50.5	13.5	0.00e+00	0	33	0	1218445312	59	5604
2026-01-16 06:03:14.23	312.70	6.29	-47.0	-50.5	13.5	0.00e+00	0	33	0	1219493888	59	5619
2026-01-16 06:03:15.24	312.61	6.23	-47.0	-50.7	13.3	7.00e-07	0	33	0	1221591040	59	5730
2026-01-16 06:03:16.25	312.53	6.16	-47.1	-50.8	13.2	0.00e+00	0	33	0	1223688192	59	5798
2026-01-16 06:03:17.26	312.45	6.10	-47.2	-50.9	13.1	0.00e+00	0	34	0	1225785344	59	5881
2026-01-16 06:03:18.26	312.36	6.04	-47.3	-51.1	13.0	0.00e+00	0	34	0	1227882496	59	6048
2026-01-16 06:03:19.27	312.28	5.97	-47.3	-51.2	12.9	7.00e-07	0	34	0	1228931072	59	6114
2026-01-16 06:03:20.28	312.20	5.91	-47.2	-51.1	13.0	0.00e+00	0	33	0	1231028224	59	6033
2026-01-16 06:03:21.29	312.11	5.85	-47.3	-51.2	12.9	7.00e-07	0	33	0	1233125376	59	6096
