passes_logs/2026/01/16/R3.2S_Murmansk_2ch/R3.2S_Murmansk_2ch__20260116_025815_AQUA_rec.log

#Pass ID: 20260116_025815_AQUA
#Satellite: AQUA
#Configuration: AQUA
#almurnet v.1.7.20251203
#Start time: 2026-01-16 02:58:15

#Version: 2.2.20231116
#Station: R3.2S_Murmansk_2ch
#Location: 33.079688 lon 68.888172 lat
#TLE: 1 27424U 02022A   26015.64967716  .00000624  00000+0  13471-3 0  9995
#TLE: 2 27424  98.4082 342.0879 0002031  77.4941  33.3914 14.61821794260984

#Time	Az	El	Level	Level2	SNR	BER	BlckErr	Temp	State	Recorded	gain1	gain2
2026-01-16 02:58:15.03	25.57	1.96	-48.9	-67.9	3.8	7.49e-01	0	31	0	0	66	32531
2026-01-16 02:58:16.03	25.55	2.03	-48.9	-67.9	3.9	7.46e-01	0	31	104	0	65	34299
2026-01-16 02:58:17.04	25.53	2.10	-48.9	-67.9	3.8	7.45e-01	0	31	104	0	65	34286
2026-01-16 02:58:18.05	25.52	2.16	-48.9	-67.9	3.8	7.42e-01	0	31	104	0	65	34307
2026-01-16 02:58:19.06	25.50	2.23	-48.9	-67.9	3.8	7.45e-01	0	31	104	0	65	34352
2026-01-16 02:58:20.07	25.48	2.30	-48.9	-67.9	3.8	7.48e-01	0	31	104	0	65	34317
2026-01-16 02:58:21.08	25.47	2.36	-48.9	-67.9	3.8	7.48e-01	0	31	104	0	65	34287
2026-01-16 02:58:22.09	25.45	2.43	-48.9	-67.9	3.8	7.48e-01	0	31	104	0	65	34219
2026-01-16 02:58:23.10	25.43	2.50	-48.9	-67.9	3.8	7.48e-01	0	31	104	0	65	34322
2026-01-16 02:58:24.11	25.41	2.57	-48.9	-67.9	3.8	7.46e-01	0	31	104	0	65	34293
2026-01-16 02:58:25.12	25.40	2.63	-48.9	-67.9	3.8	7.44e-01	0	31	104	0	65	34319
2026-01-16 02:58:26.13	25.38	2.70	-48.8	-67.9	3.8	7.46e-01	0	31	104	0	65	34235
2026-01-16 02:58:27.14	25.36	2.77	-48.8	-67.9	3.8	7.44e-01	0	31	104	0	65	34122
2026-01-16 02:58:28.15	25.34	2.84	-48.8	-67.8	3.8	7.47e-01	0	31	104	0	65	33779
2026-01-16 02:58:29.16	25.32	2.91	-48.8	-67.8	3.8	7.47e-01	0	31	104	0	65	33975
2026-01-16 02:58:30.16	25.31	2.98	-48.8	-67.8	3.8	7.47e-01	0	31	104	0	65	33924
2026-01-16 02:58:31.17	25.29	3.05	-48.9	-67.8	3.8	7.44e-01	0	31	104	0	65	33891
2026-01-16 02:58:32.18	25.27	3.11	-48.9	-67.8	3.8	7.44e-01	0	31	104	0	65	33825
2026-01-16 02:58:33.19	25.25	3.18	-48.9	-67.8	3.8	7.46e-01	0	31	104	0	65	33943
2026-01-16 02:58:34.20	25.23	3.25	-48.9	-67.8	3.8	7.42e-01	0	31	104	0	65	34068
2026-01-16 02:58:35.21	25.21	3.32	-48.9	-67.8	3.8	7.45e-01	0	32	104	0	65	33870
2026-01-16 02:58:36.22	25.20	3.39	-48.8	-67.7	3.8	7.45e-01	0	32	104	0	65	33430
2026-01-16 02:58:37.23	25.18	3.46	-48.8	-67.3	3.8	7.43e-01	0	32	104	0	65	31872
2026-01-16 02:58:38.24	25.16	3.53	-48.7	-66.9	3.8	7.46e-01	0	32	104	0	65	30600
2026-01-16 02:58:39.25	25.14	3.60	-48.6	-66.2	3.8	7.46e-01	0	32	104	0	65	28264
2026-01-16 02:58:40.26	25.12	3.68	-48.5	-65.8	3.8	7.46e-01	0	32	104	0	65	26809
2026-01-16 02:58:41.27	25.10	3.75	-48.3	-64.8	3.8	7.47e-01	0	32	104	0	65	23987
2026-01-16 02:58:42.28	25.08	3.82	-47.9	-63.6	3.8	7.46e-01	0	32	104	0	65	20818
2026-01-16 02:58:43.29	25.06	3.89	-47.5	-62.3	3.8	7.47e-01	0	32	104	0	64	19021
2026-01-16 02:58:44.30	25.04	3.96	-47.1	-61.5	3.8	7.47e-01	0	32	104	0	63	18335
2026-01-16 02:58:45.30	25.02	4.03	-46.8	-60.8	3.8	7.49e-01	0	32	104	0	62	17970
2026-01-16 02:58:46.31	25.00	4.10	-46.6	-60.2	3.8	7.44e-01	0	32	104	0	62	16817
2026-01-16 02:58:47.32	24.98	4.18	-46.4	-59.9	3.8	7.45e-01	0	32	104	0	62	16306
2026-01-16 02:58:48.33	24.96	4.25	-46.7	-60.6	3.8	7.44e-01	0	32	104	0	61	18530
2026-01-16 02:58:49.34	24.94	4.32	-46.4	-59.9	3.9	7.44e-01	0	32	104	0	61	17139
2026-01-16 02:58:50.35	24.92	4.39	-46.4	-59.8	3.8	7.44e-01	0	32	104	0	61	17058
2026-01-16 02:58:51.36	24.90	4.47	-46.7	-60.5	3.8	7.43e-01	0	32	104	0	61	18447
2026-01-16 02:58:52.37	24.88	4.54	-46.8	-60.7	3.8	7.47e-01	0	32	104	0	61	18879
2026-01-16 02:58:53.38	24.86	4.61	-46.7	-60.4	3.8	7.44e-01	0	32	104	0	61	18224
2026-01-16 02:58:54.39	24.84	4.69	-47.3	-61.8	3.8	7.47e-01	0	32	104	0	62	20135
2026-01-16 02:58:55.40	24.82	4.76	-47.3	-61.9	3.8	7.44e-01	0	32	104	0	62	20318
2026-01-16 02:58:56.41	24.79	4.84	-47.4	-62.0	3.8	7.46e-01	0	32	104	0	62	20754
2026-01-16 02:58:57.42	24.77	4.91	-47.7	-62.9	3.8	7.43e-01	0	32	104	0	63	21562
2026-01-16 02:58:58.43	24.75	4.98	-47.8	-63.1	3.8	7.46e-01	0	32	104	0	63	22012
2026-01-16 02:58:59.44	24.73	5.06	-47.7	-62.5	3.8	7.46e-01	0	32	104	0	63	20770
2026-01-16 02:59:00.45	24.71	5.13	-47.3	-61.5	3.9	7.46e-01	0	32	104	0	63	18446
2026-01-16 02:59:01.46	24.68	5.21	-47.9	-63.1	3.8	7.45e-01	0	32	104	0	63	22214
2026-01-16 02:59:02.46	24.66	5.28	-47.7	-62.6	3.9	7.43e-01	0	32	104	0	64	19626
2026-01-16 02:59:03.47	24.64	5.36	-48.0	-63.1	3.8	7.47e-01	0	32	104	0	63	22031
2026-01-16 02:59:04.48	24.62	5.44	-47.7	-62.6	3.9	7.42e-01	0	32	104	0	64	19780
2026-01-16 02:59:05.49	24.59	5.51	-45.9	-58.7	3.8	7.45e-01	0	32	104	0	60	15856
2026-01-16 02:59:06.50	24.57	5.59	-45.4	-57.9	3.8	7.47e-01	0	32	104	0	59	15303
2026-01-16 02:59:07.51	24.55	5.67	-45.7	-58.2	3.8	7.46e-01	0	32	104	0	59	15810
2026-01-16 02:59:08.52	24.53	5.74	-46.5	-59.6	3.9	7.46e-01	0	32	104	0	62	15622
2026-01-16 02:59:09.53	24.50	5.82	-48.4	-64.2	3.8	7.47e-01	0	32	104	0	64	23588
2026-01-16 02:59:10.54	24.48	5.90	-47.2	-61.1	3.9	7.42e-01	0	32	104	0	63	17517
2026-01-16 02:59:11.55	24.46	5.97	-47.3	-61.0	3.8	7.44e-01	0	32	104	0	62	18426
2026-01-16 02:59:12.56	24.43	6.05	-46.0	-58.9	3.8	7.45e-01	0	32	104	0	61	15364
2026-01-16 02:59:13.57	24.41	6.13	-44.0	-55.9	3.8	7.43e-01	0	32	104	0	57	13578
2026-01-16 02:59:14.58	24.38	6.21	-44.0	-55.9	3.9	7.44e-01	0	32	104	0	57	13650
2026-01-16 02:59:15.58	24.36	6.29	-45.1	-57.3	3.9	7.46e-01	0	32	104	0	57	16034
2026-01-16 02:59:16.59	24.33	6.37	-46.6	-59.7	3.8	7.47e-01	0	32	104	0	60	17793
2026-01-16 02:59:17.60	24.31	6.45	-48.5	-64.1	3.8	7.49e-01	0	32	104	0	64	23329
2026-01-16 02:59:18.61	24.29	6.53	-46.9	-60.4	3.8	7.46e-01	0	32	104	0	63	16225
2026-01-16 02:59:19.62	24.26	6.61	-48.7	-65.1	3.7	7.46e-01	0	32	104	0	65	24910
2026-01-16 02:59:20.63	24.23	6.69	-46.5	-59.7	3.9	7.43e-01	0	32	104	0	62	15902
2026-01-16 02:59:21.64	24.21	6.77	-45.5	-57.9	3.8	7.46e-01	0	32	104	0	59	15330
2026-01-16 02:59:22.65	24.18	6.85	-45.3	-57.7	3.8	7.45e-01	0	32	104	0	59	14912
2026-01-16 02:59:23.66	24.16	6.93	-48.2	-63.2	3.8	7.48e-01	0	32	104	0	64	21241
2026-01-16 02:59:24.67	24.13	7.01	-47.1	-60.5	3.8	7.47e-01	0	32	104	0	63	16479
2026-01-16 02:59:25.68	24.11	7.09	-49.0	-66.1	3.8	7.48e-01	0	32	104	0	65	27935
2026-01-16 02:59:26.69	24.08	7.17	-45.4	-57.5	3.9	7.45e-01	0	32	104	0	59	14594
2026-01-16 02:59:27.70	24.05	7.25	-47.7	-61.8	3.8	7.48e-01	0	32	104	0	63	19093
2026-01-16 02:59:28.71	24.03	7.34	-44.8	-56.8	3.8	7.46e-01	0	32	104	0	58	14337
2026-01-16 02:59:29.71	24.00	7.42	-43.6	-55.4	3.8	7.43e-01	0	32	104	0	56	13613
2026-01-16 02:59:30.72	23.97	7.50	-43.6	-55.4	3.8	7.47e-01	0	32	104	0	56	13674
2026-01-16 02:59:31.74	23.95	7.58	-48.2	-62.9	3.8	7.46e-01	0	32	104	0	64	20502
2026-01-16 02:59:32.74	23.92	7.67	-46.2	-59.0	3.8	7.45e-01	0	32	104	0	61	15517
2026-01-16 02:59:33.76	23.89	7.75	-49.3	-66.9	3.8	7.47e-01	0	32	104	0	66	28694
2026-01-16 02:59:34.77	23.86	7.84	-44.7	-56.7	3.8	7.46e-01	0	32	104	0	58	14153
2026-01-16 02:59:35.77	23.84	7.92	-48.0	-62.3	3.8	7.49e-01	0	32	104	0	63	20182
2026-01-16 02:59:36.78	23.81	8.00	-44.0	-55.9	3.9	7.45e-01	0	33	104	0	57	13617
2026-01-16 02:59:37.79	23.78	8.09	-43.3	-55.0	3.8	7.43e-01	0	32	104	0	55	13808
2026-01-16 02:59:38.80	23.75	8.17	-43.3	-55.0	3.9	7.46e-01	0	32	104	0	55	13827
2026-01-16 02:59:39.81	23.72	8.26	-45.3	-57.6	3.8	7.46e-01	0	32	104	0	58	15592
2026-01-16 02:59:40.82	23.69	8.35	-47.4	-61.0	3.8	7.47e-01	0	32	104	0	62	18338
2026-01-16 02:59:41.83	23.66	8.43	-49.3	-66.5	3.8	7.49e-01	0	32	104	0	66	27464
2026-01-16 02:59:42.84	23.63	8.52	-43.7	-55.4	3.9	7.46e-01	0	33	104	0	56	13725
2026-01-16 02:59:43.85	23.60	8.61	-49.1	-65.6	3.8	7.44e-01	0	32	104	0	65	26175
2026-01-16 02:59:44.86	23.57	8.69	-43.8	-55.5	3.9	7.44e-01	0	32	104	0	56	13823
2026-01-16 02:59:45.87	23.54	8.78	-43.7	-55.3	3.9	7.46e-01	0	32	104	0	56	13564
2026-01-16 02:59:46.88	23.51	8.87	-43.3	-55.0	3.8	7.45e-01	0	32	104	0	55	13848
2026-01-16 02:59:47.89	23.48	8.96	-49.4	-66.2	3.8	7.48e-01	0	32	104	0	66	26590
2026-01-16 02:59:48.89	23.45	9.04	-46.1	-58.6	3.8	7.47e-01	0	32	104	0	59	16606
2026-01-16 02:59:49.90	23.42	9.13	-49.6	-67.9	3.8	7.49e-01	0	32	104	0	66	32284
2026-01-16 02:59:50.91	23.39	9.22	-43.5	-55.1	3.8	7.48e-01	0	33	104	0	56	13255
2026-01-16 02:59:51.92	23.36	9.31	-48.2	-62.6	3.8	7.44e-01	0	32	104	0	64	19751
2026-01-16 02:59:52.93	23.33	9.40	-43.4	-55.0	3.9	7.45e-01	0	32	104	0	56	13049
2026-01-16 02:59:53.94	23.29	9.49	-42.8	-54.3	3.9	7.41e-01	0	33	104	0	54	13476
2026-01-16 02:59:54.95	23.26	9.58	-42.5	-54.0	3.9	7.47e-01	0	32	104	0	54	12966
2026-01-16 02:59:55.96	23.23	9.67	-48.2	-62.6	3.9	7.46e-01	0	32	104	0	64	19724
2026-01-16 02:59:56.97	23.20	9.77	-47.2	-60.8	3.8	7.49e-01	0	33	104	0	62	17899
2026-01-16 02:59:57.98	23.16	9.86	-49.5	-67.1	3.8	7.44e-01	0	33	104	0	66	29555
2026-01-16 02:59:58.99	23.13	9.95	-43.3	-55.0	3.9	7.46e-01	0	32	104	0	55	13786
2026-01-16 03:00:00.00	23.10	10.04	-49.3	-66.0	3.8	7.48e-01	0	33	104	0	66	25954
2026-01-16 03:00:01.01	23.06	10.14	-43.3	-55.0	3.9	7.42e-01	0	33	104	0	55	13771
2026-01-16 03:00:02.02	23.03	10.23	-43.3	-54.9	3.9	7.44e-01	0	33	104	0	55	13624
2026-01-16 03:00:03.03	22.99	10.32	-43.0	-54.6	3.8	7.45e-01	0	32	104	0	55	13148
2026-01-16 03:00:04.04	22.96	10.42	-46.2	-59.0	3.9	7.47e-01	0	32	104	0	60	16317
2026-01-16 03:00:05.05	22.93	10.51	-46.1	-58.6	3.8	7.46e-01	0	33	104	0	59	16646
2026-01-16 03:00:06.06	22.89	10.61	-49.7	-68.1	3.8	7.45e-01	0	33	104	0	67	31297
2026-01-16 03:00:07.06	22.86	10.70	-43.2	-54.7	3.9	7.44e-01	0	32	104	0	55	13377
2026-01-16 03:00:08.07	22.82	10.80	-48.1	-62.4	3.9	7.44e-01	0	33	104	0	64	19197
2026-01-16 03:00:09.08	22.78	10.89	-43.2	-54.8	3.9	7.48e-01	0	33	104	0	55	13542
2026-01-16 03:00:10.09	22.75	10.99	-42.7	-54.3	3.8	7.47e-01	0	33	104	0	54	13450
2026-01-16 03:00:11.10	22.71	11.09	-42.3	-53.7	3.8	7.43e-01	0	33	104	0	53	13337
2026-01-16 03:00:12.11	22.67	11.18	-46.6	-59.7	3.9	7.44e-01	0	33	104	0	62	15787
2026-01-16 03:00:13.12	22.64	11.28	-47.2	-60.5	3.8	7.44e-01	0	32	104	0	62	17452
2026-01-16 03:00:14.13	22.60	11.38	-49.2	-65.6	3.9	7.45e-01	0	33	104	0	66	24755
2026-01-16 03:00:15.14	22.56	11.48	-43.5	-55.1	3.8	7.44e-01	0	32	104	0	55	13926
2026-01-16 03:00:16.15	22.52	11.58	-49.1	-65.2	3.9	7.44e-01	0	33	104	0	66	23838
2026-01-16 03:00:17.15	22.49	11.67	-43.1	-54.7	3.8	7.43e-01	0	33	104	0	55	13355
2026-01-16 03:00:18.16	22.45	11.77	-43.0	-54.6	3.9	7.44e-01	0	33	104	0	54	13928
2026-01-16 03:00:19.17	22.41	11.87	-42.7	-54.2	3.9	7.42e-01	0	33	104	0	54	13384
2026-01-16 03:00:20.18	22.37	11.97	-47.5	-61.3	3.9	7.46e-01	0	33	104	0	64	16917
2026-01-16 03:00:21.19	22.33	12.08	-46.2	-58.7	3.8	7.46e-01	0	33	104	0	60	15805
2026-01-16 03:00:22.20	22.29	12.18	-49.4	-66.2	3.9	7.41e-01	0	32	104	0	67	25161
2026-01-16 03:00:23.21	22.25	12.28	-43.4	-54.9	3.8	7.47e-01	0	33	104	0	54	14501
2026-01-16 03:00:24.22	22.21	12.38	-47.6	-61.2	3.9	7.44e-01	0	33	104	0	64	16803
2026-01-16 03:00:25.23	22.17	12.49	-42.7	-54.2	3.9	7.45e-01	0	33	104	0	54	13342
2026-01-16 03:00:26.24	22.13	12.59	-42.2	-53.6	3.9	7.47e-01	0	33	104	0	53	13184
2026-01-16 03:00:27.25	22.08	12.69	-42.0	-53.4	3.8	7.47e-01	0	33	104	0	53	12908
2026-01-16 03:00:28.26	22.04	12.80	-44.8	-57.2	3.9	7.46e-01	0	33	104	0	59	14118
2026-01-16 03:00:29.27	22.00	12.90	-47.4	-60.6	3.8	7.43e-01	0	33	104	0	62	17614
2026-01-16 03:00:30.28	21.96	13.01	-48.3	-62.9	3.9	7.43e-01	0	33	104	0	66	18134
2026-01-16 03:00:31.29	21.92	13.11	-44.5	-56.3	3.8	7.45e-01	0	33	104	0	56	15145
2026-01-16 03:00:32.30	21.87	13.22	-48.7	-63.8	3.9	7.43e-01	0	33	104	0	66	20226
2026-01-16 03:00:33.31	21.83	13.33	-43.0	-54.5	3.8	7.46e-01	0	33	104	0	55	13015
2026-01-16 03:00:34.32	21.78	13.43	-42.5	-54.0	3.8	7.45e-01	0	33	104	0	54	13023
2026-01-16 03:00:35.33	21.74	13.54	-42.9	-54.4	3.8	7.46e-01	0	33	104	0	53	14458
2026-01-16 03:00:36.34	21.69	13.65	-46.7	-59.5	3.8	7.46e-01	0	33	104	0	62	15557
2026-01-16 03:00:37.35	21.65	13.76	-46.9	-59.6	3.8	7.46e-01	0	33	104	0	61	16646
2026-01-16 03:00:38.36	21.60	13.87	-48.5	-63.1	4.0	7.45e-01	0	33	104	0	66	18711
2026-01-16 03:00:39.37	21.56	13.98	-44.6	-56.4	3.8	7.44e-01	0	33	104	0	56	15312
2026-01-16 03:00:40.38	21.51	14.09	-46.5	-59.3	3.9	7.43e-01	0	33	104	0	62	15062
2026-01-16 03:00:41.39	21.46	14.20	-42.4	-53.9	3.9	7.41e-01	0	33	104	0	54	12860
2026-01-16 03:00:42.39	21.42	14.31	-42.0	-53.4	3.8	7.46e-01	0	33	104	0	53	12905
2026-01-16 03:00:43.41	21.37	14.42	-43.1	-54.6	3.8	7.44e-01	0	33	104	0	53	14801
2026-01-16 03:00:44.42	21.32	14.54	-45.9	-58.2	3.9	7.43e-01	0	33	104	0	60	15021
2026-01-16 03:00:45.43	21.27	14.65	-47.7	-61.3	3.8	7.46e-01	0	33	104	0	63	18072
2026-01-16 03:00:46.43	21.22	14.76	-46.7	-59.4	3.8	7.47e-01	0	33	104	0	62	15327
2026-01-16 03:00:47.44	21.18	14.88	-46.4	-58.9	3.8	7.46e-01	0	33	104	0	60	16313
2026-01-16 03:00:48.45	21.13	14.99	-47.3	-60.3	3.9	7.39e-01	0	33	104	0	63	15994
2026-01-16 03:00:49.46	21.08	15.11	-42.2	-53.6	3.9	7.44e-01	0	33	104	0	53	13256
2026-01-16 03:00:50.47	21.02	15.22	-42.1	-53.5	3.9	7.42e-01	0	33	104	0	53	13088
2026-01-16 03:00:51.48	20.97	15.34	-44.7	-56.5	3.8	7.48e-01	0	33	104	0	56	15521
2026-01-16 03:00:52.49	20.92	15.46	-42.5	-53.9	3.8	7.43e-01	0	33	104	0	54	12895
2026-01-16 03:00:53.50	20.87	15.58	-47.9	-61.5	3.8	7.45e-01	0	33	104	0	63	18365
2026-01-16 03:00:54.51	20.82	15.69	-46.5	-59.2	3.9	7.42e-01	0	33	104	0	62	15014
2026-01-16 03:00:55.52	20.76	15.81	-46.0	-58.2	3.8	7.47e-01	0	33	104	0	59	15871
2026-01-16 03:00:56.53	20.71	15.93	-44.7	-56.5	3.8	7.44e-01	0	33	104	0	58	13767
2026-01-16 03:00:57.54	20.66	16.05	-41.8	-53.1	3.8	7.48e-01	0	33	104	0	52	13222
2026-01-16 03:00:58.55	20.60	16.17	-41.5	-52.8	3.9	7.44e-01	0	32	104	0	52	12724
2026-01-16 03:00:59.55	20.55	16.30	-45.9	-58.2	3.8	7.43e-01	0	33	104	0	59	15766
2026-01-16 03:01:00.56	20.49	16.42	-43.6	-55.3	3.8	7.44e-01	0	33	104	0	56	13427
2026-01-16 03:01:01.57	20.44	16.54	-48.2	-62.1	3.9	7.46e-01	0	33	104	0	64	18670
2026-01-16 03:01:02.58	20.38	16.66	-44.2	-55.8	3.9	7.43e-01	0	33	104	0	57	13482
2026-01-16 03:01:03.59	20.32	16.79	-48.4	-62.4	3.8	7.43e-01	0	33	104	0	64	19249
2026-01-16 03:01:04.60	20.26	16.91	-43.9	-55.7	3.9	7.45e-01	0	33	104	0	57	13283
2026-01-16 03:01:05.61	20.21	17.04	-42.0	-53.3	3.8	7.47e-01	0	33	104	0	53	12763
2026-01-16 03:01:06.62	20.15	17.17	-42.0	-53.4	3.9	7.48e-01	0	33	104	0	53	12835
2026-01-16 03:01:07.63	20.09	17.29	-49.8	-66.4	3.7	7.47e-01	0	33	104	0	67	25593
2026-01-16 03:01:08.64	20.03	17.42	-45.5	-57.6	3.9	7.45e-01	0	33	104	0	59	14727
2026-01-16 03:01:09.65	19.97	17.55	-49.1	-64.0	3.8	7.47e-01	0	33	104	0	65	21992
2026-01-16 03:01:10.65	19.91	17.68	-44.1	-55.8	3.9	7.47e-01	0	33	104	0	57	13539
2026-01-16 03:01:11.67	19.85	17.81	-47.4	-60.5	3.8	7.47e-01	0	33	104	0	62	17297
2026-01-16 03:01:12.67	19.78	17.94	-43.5	-55.1	3.9	7.43e-01	0	33	104	0	56	13216
2026-01-16 03:01:13.68	19.72	18.07	-42.1	-53.5	3.9	7.47e-01	0	33	104	0	53	13095
2026-01-16 03:01:14.69	19.66	18.20	-42.1	-53.4	3.8	7.43e-01	0	33	104	0	53	12949
2026-01-16 03:01:15.70	19.59	18.33	-47.9	-61.4	3.8	7.50e-01	0	33	104	0	63	18223
2026-01-16 03:01:16.71	19.53	18.47	-44.1	-55.7	3.8	7.44e-01	0	33	104	0	55	15009
2026-01-16 03:01:17.72	19.46	18.60	-49.3	-64.8	3.8	7.47e-01	0	33	104	0	66	22583
2026-01-16 03:01:18.73	19.40	18.74	-43.1	-54.6	3.9	7.47e-01	0	33	104	0	55	13191
2026-01-16 03:01:19.74	19.33	18.87	-49.1	-64.0	3.8	7.46e-01	0	33	104	0	65	21961
2026-01-16 03:01:20.75	19.26	19.01	-42.5	-53.9	3.9	7.44e-01	0	33	104	0	54	12947
2026-01-16 03:01:21.76	19.20	19.15	-42.1	-53.5	3.9	7.48e-01	0	33	104	0	53	13046
2026-01-16 03:01:22.77	19.13	19.28	-41.8	-53.0	3.9	7.48e-01	0	33	104	0	52	13090
2026-01-16 03:01:23.77	19.06	19.42	-47.4	-60.4	3.9	7.43e-01	0	33	104	0	62	17219
2026-01-16 03:01:24.78	18.99	19.56	-45.3	-57.4	3.8	7.41e-01	0	33	104	0	58	15283
2026-01-16 03:01:25.79	18.92	19.70	-49.4	-64.9	3.8	7.41e-01	0	33	104	0	66	22935
2026-01-16 03:01:26.80	18.85	19.84	-42.8	-54.1	3.8	7.44e-01	0	33	104	0	54	13147
2026-01-16 03:01:27.81	18.77	19.99	-49.1	-64.1	3.8	7.44e-01	0	33	104	0	65	22249
2026-01-16 03:01:28.82	18.70	20.13	-42.7	-54.1	3.8	7.47e-01	0	33	104	0	54	13149
2026-01-16 03:01:29.83	18.63	20.27	-42.3	-53.6	3.9	7.43e-01	0	33	104	0	53	13231
2026-01-16 03:01:30.84	18.55	20.42	-42.4	-53.8	3.9	7.41e-01	0	33	104	0	53	13464
2026-01-16 03:01:31.85	18.48	20.56	-50.0	-67.2	3.7	7.48e-01	0	33	104	0	67	28057
2026-01-16 03:01:32.86	18.40	20.71	-45.7	-57.9	3.8	7.46e-01	0	33	104	0	60	14435
2026-01-16 03:01:33.87	18.32	20.86	-49.8	-66.4	3.8	7.48e-01	0	33	104	0	67	25849
2026-01-16 03:01:34.88	18.25	21.01	-42.2	-53.6	3.8	7.42e-01	0	33	104	0	53	13166
2026-01-16 03:01:35.89	18.17	21.16	-48.5	-62.4	3.8	7.45e-01	0	33	104	0	64	19236
2026-01-16 03:01:36.90	18.09	21.31	-42.5	-53.9	3.9	7.43e-01	0	33	104	0	54	12942
2026-01-16 03:01:37.91	18.01	21.46	-42.1	-53.4	3.8	7.45e-01	0	33	104	0	53	12937
2026-01-16 03:01:38.92	17.93	21.61	-42.3	-53.7	3.9	7.46e-01	0	33	104	0	53	13296
2026-01-16 03:01:39.93	17.84	21.76	-48.0	-61.7	3.8	7.46e-01	0	33	104	0	63	18852
2026-01-16 03:01:40.93	17.76	21.91	-46.5	-59.0	3.9	7.43e-01	0	33	104	0	60	16381
2026-01-16 03:01:41.94	17.68	22.07	-50.0	-67.0	3.8	7.46e-01	0	33	104	0	67	27593
2026-01-16 03:01:42.96	17.59	22.23	-42.7	-54.2	3.8	7.47e-01	0	33	104	0	54	13261
2026-01-16 03:01:43.96	17.51	22.38	-49.5	-65.3	3.8	7.45e-01	0	33	104	0	66	23874
2026-01-16 03:01:44.97	17.42	22.54	-42.7	-54.0	3.9	7.46e-01	0	33	104	0	54	13109
2026-01-16 03:01:45.98	17.33	22.70	-42.5	-53.9	3.8	7.44e-01	0	33	104	0	54	12899
2026-01-16 03:01:46.99	17.25	22.86	-42.2	-53.6	3.8	7.42e-01	0	33	104	0	53	13173
2026-01-16 03:01:48.00	17.16	23.02	-50.3	-68.0	3.8	7.45e-01	0	33	104	0	68	29102
2026-01-16 03:01:49.01	17.06	23.18	-46.8	-59.5	3.8	7.48e-01	0	33	104	0	61	16325
2026-01-16 03:01:50.02	16.97	23.34	-50.0	-66.9	3.8	7.44e-01	0	33	104	0	67	27324
2026-01-16 03:01:51.03	16.88	23.51	-42.7	-54.2	3.9	7.48e-01	0	33	104	0	54	13301
2026-01-16 03:01:52.04	16.79	23.67	-49.6	-65.5	3.8	7.45e-01	0	33	104	0	67	23232
2026-01-16 03:01:53.05	16.69	23.84	-42.7	-54.1	3.8	7.46e-01	0	33	104	0	54	13231
2026-01-16 03:01:54.06	16.60	24.01	-42.8	-54.2	3.9	7.46e-01	0	33	104	0	54	13363
2026-01-16 03:01:55.07	16.50	24.17	-42.5	-53.8	3.8	7.41e-01	0	33	104	0	54	12804
2026-01-16 03:01:56.08	16.40	24.34	-50.0	-67.1	3.9	7.43e-01	0	33	104	0	68	26452
2026-01-16 03:01:57.09	16.30	24.51	-46.1	-58.3	3.8	7.44e-01	0	33	104	0	60	15164
2026-01-16 03:01:58.09	16.20	24.68	-49.9	-66.5	3.8	7.46e-01	0	33	104	0	67	25864
2026-01-16 03:01:59.11	16.10	24.86	-43.3	-54.8	3.8	7.46e-01	0	33	104	0	55	13472
2026-01-16 03:02:00.12	16.00	25.03	-48.6	-62.9	3.8	7.45e-01	0	33	104	0	65	19241
2026-01-16 03:02:01.12	15.89	25.20	-43.0	-54.5	3.8	7.46e-01	0	33	104	0	55	13091
2026-01-16 03:02:02.13	15.79	25.38	-42.7	-54.2	3.8	7.45e-01	0	33	104	0	54	13277
2026-01-16 03:02:03.14	15.68	25.56	-42.6	-54.0	3.9	7.42e-01	0	33	104	0	54	13003
2026-01-16 03:02:04.15	15.57	25.74	-45.6	-57.8	3.9	7.46e-01	0	33	104	0	60	14355
2026-01-16 03:02:05.16	15.46	25.92	-46.9	-59.5	3.8	7.46e-01	0	33	104	0	61	16423
2026-01-16 03:02:06.17	15.35	26.10	-49.2	-64.3	3.9	7.43e-01	0	33	104	0	67	20241
2026-01-16 03:02:07.18	15.24	26.28	-42.8	-54.2	3.9	7.47e-01	0	33	104	0	54	13375
2026-01-16 03:02:08.19	15.13	26.46	-49.5	-65.0	3.8	7.47e-01	0	33	104	0	67	22004
2026-01-16 03:02:09.20	15.01	26.65	-42.5	-53.9	3.9	7.46e-01	0	33	104	0	54	12887
2026-01-16 03:02:10.21	14.90	26.83	-42.2	-53.6	3.9	7.46e-01	0	33	104	0	53	13225
2026-01-16 03:02:11.22	14.78	27.02	-42.1	-53.5	3.8	7.46e-01	0	33	104	0	53	13005
2026-01-16 03:02:12.22	14.66	27.21	-46.6	-59.2	3.9	7.46e-01	0	33	104	0	62	14976
2026-01-16 03:02:13.23	14.54	27.39	-46.7	-59.3	3.8	7.42e-01	0	33	104	0	61	16060
2026-01-16 03:02:14.24	14.42	27.59	-48.6	-62.7	3.9	7.46e-01	0	33	104	0	66	17805
2026-01-16 03:02:15.25	14.29	27.78	-42.8	-54.1	3.9	7.47e-01	0	33	104	0	53	14010
2026-01-16 03:02:16.26	14.17	27.97	-49.2	-64.3	3.8	7.43e-01	0	33	104	0	66	21433
2026-01-16 03:02:17.27	14.04	28.17	-42.1	-53.4	3.8	7.46e-01	0	33	104	0	53	12863
2026-01-16 03:02:18.28	13.91	28.36	-42.0	-53.3	3.9	7.43e-01	0	33	104	0	53	12810
2026-01-16 03:02:19.29	13.78	28.56	-43.3	-54.9	3.8	7.47e-01	0	33	104	0	54	14448
2026-01-16 03:02:20.30	13.65	28.76	-49.4	-65.0	3.9	7.39e-01	0	33	104	0	68	20776
2026-01-16 03:02:21.31	13.51	28.96	-46.3	-58.5	3.8	7.44e-01	0	33	104	0	60	15554
2026-01-16 03:02:22.32	13.38	29.16	-48.8	-63.2	3.9	7.40e-01	0	33	104	0	67	17760
2026-01-16 03:02:23.33	13.24	29.36	-44.5	-56.1	3.8	7.44e-01	0	33	104	0	56	14876
2026-01-16 03:02:24.34	13.10	29.57	-46.9	-59.5	3.8	7.45e-01	0	33	104	0	63	14620
2026-01-16 03:02:25.34	12.96	29.77	-42.1	-53.4	3.9	7.44e-01	0	33	104	0	53	12869
2026-01-16 03:02:26.35	12.82	29.98	-42.0	-53.3	3.8	7.45e-01	0	33	104	0	52	13469
2026-01-16 03:02:27.36	12.67	30.18	-42.2	-53.5	3.8	7.46e-01	0	33	104	0	52	13758
2026-01-16 03:02:28.37	12.53	30.39	-42.7	-54.0	3.8	7.45e-01	0	33	104	0	54	13014
2026-01-16 03:02:29.38	12.38	30.60	-47.1	-59.7	3.9	7.42e-01	0	33	104	0	61	16702
2026-01-16 03:02:30.39	12.23	30.82	-46.8	-59.0	3.9	7.42e-01	0	33	104	0	62	14666
2026-01-16 03:02:31.40	12.07	31.03	-44.4	-56.1	3.8	7.47e-01	0	33	104	0	56	14765
2026-01-16 03:02:32.41	11.92	31.25	-47.3	-60.4	3.9	7.45e-01	0	33	104	0	64	15376
2026-01-16 03:02:33.42	11.76	31.46	-41.4	-52.6	3.8	7.45e-01	0	33	104	0	52	12460
2026-01-16 03:02:34.43	11.60	31.68	-41.5	-52.7	3.8	7.43e-01	0	33	104	0	52	12632
2026-01-16 03:02:35.44	11.44	31.90	-45.6	-57.6	3.8	7.45e-01	0	33	104	0	58	15651
2026-01-16 03:02:36.45	11.27	32.12	-46.9	-59.6	3.9	7.47e-01	0	33	104	0	63	14738
2026-01-16 03:02:37.46	11.10	32.35	-47.5	-60.2	3.8	7.44e-01	0	33	104	0	62	16757
2026-01-16 03:02:38.47	10.93	32.57	-47.5	-60.6	3.8	7.46e-01	0	33	104	0	64	15665
2026-01-16 03:02:39.48	10.76	32.80	-46.6	-58.9	3.8	7.50e-01	0	33	104	0	60	16156
2026-01-16 03:02:40.49	10.59	33.02	-45.3	-57.1	3.9	7.44e-01	0	33	104	0	59	13944
2026-01-16 03:02:41.50	10.41	33.25	-42.0	-53.3	3.8	7.47e-01	0	33	104	0	53	12708
2026-01-16 03:02:42.50	10.23	33.48	-42.2	-53.5	3.8	7.46e-01	0	33	104	0	53	13043
2026-01-16 03:02:43.51	10.05	33.71	-42.7	-54.4	3.8	7.43e-01	0	33	104	0	53	14529
2026-01-16 03:02:44.52	9.86	33.95	-42.6	-54.0	3.8	7.47e-01	0	33	104	0	53	13770
2026-01-16 03:02:45.53	9.68	34.18	-48.2	-61.7	3.8	7.44e-01	0	33	104	0	64	17746
2026-01-16 03:02:46.54	9.49	34.42	-45.1	-57.0	3.9	7.43e-01	0	33	104	0	59	13816
2026-01-16 03:02:47.55	9.29	34.66	-48.2	-61.9	3.8	7.48e-01	0	33	104	0	64	18120
2026-01-16 03:02:48.56	9.09	34.90	-44.4	-56.2	3.9	7.43e-01	0	33	104	0	58	13325
2026-01-16 03:02:49.57	8.89	35.14	-42.6	-54.0	3.8	7.43e-01	0	33	104	0	54	13078
2026-01-16 03:02:50.58	8.69	35.38	-42.8	-54.2	3.8	7.46e-01	0	33	104	0	54	13411
2026-01-16 03:02:51.59	8.49	35.63	-48.6	-62.3	3.8	7.43e-01	0	33	104	0	64	19119
2026-01-16 03:02:52.60	8.28	35.87	-43.2	-54.6	3.8	7.45e-01	0	33	104	0	54	13894
2026-01-16 03:02:53.61	8.06	36.12	-48.7	-62.8	3.8	7.48e-01	0	33	104	0	65	19055
2026-01-16 03:02:54.62	7.85	36.37	-44.7	-56.4	3.9	7.42e-01	0	33	104	0	58	13590
2026-01-16 03:02:55.63	7.63	36.62	-49.5	-64.3	3.8	7.43e-01	0	33	104	0	66	21489
2026-01-16 03:02:56.64	7.40	36.87	-43.3	-55.2	3.9	7.41e-01	0	33	104	0	56	13302
2026-01-16 03:02:57.64	7.18	37.12	-43.3	-54.8	3.8	7.44e-01	0	33	104	0	55	13515
2026-01-16 03:02:58.66	6.95	37.38	-43.5	-55.0	3.9	7.43e-01	0	33	104	0	55	13850
2026-01-16 03:02:59.66	6.71	37.64	-50.5	-67.9	3.7	7.48e-01	0	33	104	0	68	28904
2026-01-16 03:03:00.67	6.48	37.90	-47.1	-59.8	3.9	7.42e-01	0	33	104	0	63	15216
2026-01-16 03:03:01.68	6.23	38.16	-49.6	-65.2	3.8	7.46e-01	0	33	104	0	67	22367
2026-01-16 03:03:02.69	5.99	38.42	-44.3	-56.3	3.8	7.41e-01	0	33	104	0	58	13551
2026-01-16 03:03:03.70	5.74	38.68	-48.9	-62.9	3.8	7.42e-01	0	33	104	0	65	19337
2026-01-16 03:03:04.71	5.48	38.95	-44.1	-55.7	3.8	7.46e-01	0	33	104	0	57	13304
2026-01-16 03:03:05.72	5.22	39.21	-43.6	-55.1	3.8	7.47e-01	0	33	104	0	56	13242
2026-01-16 03:03:06.73	4.96	39.48	-44.0	-55.7	3.8	7.46e-01	0	33	104	0	56	14196
2026-01-16 03:03:07.74	4.69	39.75	-48.1	-62.0	3.8	7.49e-01	0	33	104	0	64	18453
2026-01-16 03:03:08.75	4.42	40.02	-45.4	-57.2	3.9	7.42e-01	0	33	104	0	58	15019
2026-01-16 03:03:09.76	4.14	40.29	-49.6	-64.4	3.8	7.47e-01	0	33	104	0	66	21652
2026-01-16 03:03:10.77	3.86	40.57	-43.9	-55.6	3.8	7.42e-01	0	33	104	0	57	13119
2026-01-16 03:03:11.78	3.57	40.84	-50.1	-66.2	3.8	7.46e-01	0	33	104	0	67	25090
2026-01-16 03:03:12.79	3.28	41.12	-43.5	-55.0	3.9	7.45e-01	0	33	104	0	56	13002
2026-01-16 03:03:13.79	2.99	41.39	-43.4	-54.8	3.8	7.46e-01	0	33	104	0	55	13538
2026-01-16 03:03:14.80	2.68	41.67	-43.5	-55.0	3.9	7.46e-01	0	33	104	0	55	13844
2026-01-16 03:03:15.81	2.37	41.96	-50.9	-69.4	3.8	7.47e-01	0	33	104	0	69	32308
2026-01-16 03:03:16.82	2.06	42.24	-46.9	-59.4	3.8	7.47e-01	0	33	104	0	63	14471
2026-01-16 03:03:17.83	1.74	42.52	-49.9	-65.5	3.9	7.49e-01	0	33	104	0	67	23076
2026-01-16 03:03:18.84	1.42	42.81	-43.4	-54.9	3.9	7.45e-01	0	33	104	0	56	12912
2026-01-16 03:03:19.85	1.08	43.09	-49.1	-63.2	3.8	7.44e-01	0	33	104	0	65	19872
2026-01-16 03:03:20.86	0.75	43.38	-43.4	-54.9	3.9	7.44e-01	0	33	104	0	56	12958
2026-01-16 03:03:21.86	0.41	43.66	-43.4	-54.9	3.9	7.43e-01	0	33	104	0	56	12895
2026-01-16 03:03:22.88	0.05	43.96	-43.0	-54.4	3.9	7.44e-01	0	33	104	0	55	12902
2026-01-16 03:03:23.88	359.70	44.24	-50.9	-69.4	3.8	7.47e-01	0	33	104	0	69	32181
2026-01-16 03:03:24.89	359.34	44.53	-46.2	-58.5	3.9	7.46e-01	0	33	104	0	61	14590
2026-01-16 03:03:25.90	358.97	44.83	-49.7	-64.8	3.8	7.44e-01	0	33	104	0	67	21439
2026-01-16 03:03:26.91	358.59	45.12	-42.9	-54.2	3.8	7.46e-01	0	33	104	0	55	12660
2026-01-16 03:03:27.92	358.20	45.41	-49.3	-63.6	3.9	7.46e-01	0	33	104	0	66	19810
2026-01-16 03:03:28.93	357.81	45.71	-43.3	-54.8	3.8	7.44e-01	0	33	104	0	55	13565
2026-01-16 03:03:29.94	357.41	46.00	-43.3	-54.8	3.8	7.42e-01	0	33	104	0	55	13456
2026-01-16 03:03:30.95	357.00	46.30	-43.0	-54.3	3.8	7.46e-01	0	33	104	0	55	12772
2026-01-16 03:03:31.96	356.59	46.60	-49.6	-64.6	3.8	7.44e-01	0	33	104	0	66	22104
2026-01-16 03:03:32.97	356.17	46.90	-46.4	-58.6	3.8	7.45e-01	0	33	104	0	60	15723
2026-01-16 03:03:33.98	355.73	47.19	-49.9	-65.5	3.8	7.45e-01	0	33	104	0	67	23191
2026-01-16 03:03:34.99	355.29	47.49	-42.9	-54.4	3.8	7.45e-01	0	33	104	0	55	12841
2026-01-16 03:03:35.99	354.85	47.79	-50.2	-66.4	3.8	7.46e-01	0	33	104	0	68	24264
2026-01-16 03:03:37.00	354.39	48.09	-43.2	-54.6	3.8	7.44e-01	0	33	104	0	55	13138
2026-01-16 03:03:38.01	353.93	48.39	-43.4	-54.9	3.8	7.45e-01	0	33	104	0	55	13717
2026-01-16 03:03:39.02	353.45	48.69	-43.1	-54.6	3.8	7.46e-01	0	33	104	0	55	13200
2026-01-16 03:03:40.03	352.96	48.98	-50.7	-68.4	3.8	7.45e-01	0	33	104	0	69	28873
2026-01-16 03:03:41.04	352.47	49.28	-46.2	-58.5	3.8	7.47e-01	0	33	104	0	60	15567
2026-01-16 03:03:42.05	351.96	49.58	-49.6	-64.5	3.8	7.44e-01	0	33	104	0	67	20586
2026-01-16 03:03:43.06	351.45	49.88	-43.0	-54.5	3.8	7.45e-01	0	33	104	0	55	13058
2026-01-16 03:03:44.07	350.92	50.18	-50.3	-66.5	3.8	7.46e-01	0	33	104	0	68	24614
2026-01-16 03:03:45.08	350.38	50.48	-42.7	-54.1	3.9	7.46e-01	0	33	104	0	54	13201
2026-01-16 03:03:46.09	349.84	50.77	-42.3	-53.6	3.8	7.47e-01	0	33	104	0	53	13118
2026-01-16 03:03:47.10	349.28	51.07	-42.5	-53.9	3.9	7.47e-01	0	33	104	0	53	13631
2026-01-16 03:03:48.11	348.71	51.36	-50.8	-69.0	3.8	7.47e-01	0	33	104	0	69	31001
2026-01-16 03:03:49.12	348.13	51.66	-46.1	-58.2	3.9	7.43e-01	0	33	104	0	59	15866
2026-01-16 03:03:50.13	347.53	51.95	-48.6	-62.1	3.9	7.41e-01	0	33	104	0	66	16607
2026-01-16 03:03:51.14	346.93	52.24	-42.3	-53.7	3.9	7.43e-01	0	33	104	0	53	13414
2026-01-16 03:03:52.14	346.32	52.53	-50.2	-66.2	3.8	7.44e-01	0	33	104	0	68	23644
2026-01-16 03:03:53.16	345.68	52.82	-42.2	-53.5	3.8	7.46e-01	0	33	104	0	53	13079
2026-01-16 03:03:54.16	345.05	53.10	-41.8	-53.0	3.8	7.47e-01	0	33	104	0	52	13102
2026-01-16 03:03:55.17	344.39	53.39	-42.3	-53.6	3.8	7.44e-01	0	33	104	0	52	13941
2026-01-16 03:03:56.18	343.72	53.67	-48.7	-62.5	3.9	7.45e-01	0	33	104	0	66	17342
2026-01-16 03:03:57.19	343.04	53.95	-45.9	-58.1	3.9	7.41e-01	0	33	104	0	60	14818
2026-01-16 03:03:58.20	342.35	54.22	-48.3	-61.3	3.9	7.44e-01	0	33	104	0	65	15946
2026-01-16 03:03:59.21	341.64	54.50	-43.4	-54.7	3.8	7.43e-01	0	33	104	0	55	13367
2026-01-16 03:04:00.22	340.92	54.77	-49.2	-63.4	3.9	7.42e-01	0	33	104	0	67	18177
2026-01-16 03:04:01.23	340.18	55.04	-43.2	-54.6	3.8	7.46e-01	0	33	104	0	55	13161
2026-01-16 03:04:02.24	339.43	55.30	-42.7	-53.9	3.8	7.47e-01	0	33	104	0	54	12881
2026-01-16 03:04:03.25	338.67	55.56	-43.5	-55.0	3.8	7.47e-01	0	33	104	0	54	14678
2026-01-16 03:04:04.26	337.89	55.82	-50.0	-65.6	3.9	7.46e-01	0	33	104	0	69	20930
2026-01-16 03:04:05.26	337.10	56.07	-45.1	-47.4	16.3	5.99e-01	0	33	104	0	59	4570
2026-01-16 03:04:06.27	336.29	56.32	-48.7	-53.5	13.4	6.00e-01	0	33	0	1572864	66	6145
2026-01-16 03:04:07.28	335.47	56.56	-43.3	-45.2	17.2	6.02e-01	0	33	0	3670016	54	4724
2026-01-16 03:04:08.29	334.63	56.80	-47.4	-50.8	15.1	6.06e-01	0	33	0	5242880	64	5044
2026-01-16 03:04:09.30	333.78	57.04	-43.0	-44.8	17.2	6.01e-01	0	33	0	7340032	55	4286
2026-01-16 03:04:10.31	332.91	57.27	-42.7	-44.4	17.3	6.03e-01	0	33	0	8912896	54	4329
2026-01-16 03:04:11.32	332.03	57.49	-43.1	-44.9	17.2	6.01e-01	0	33	0	11010048	54	4578
2026-01-16 03:04:12.33	331.14	57.71	-43.2	-45.0	17.2	6.03e-01	0	33	0	13107200	54	4639
2026-01-16 03:04:13.34	330.23	57.92	-43.2	-45.0	17.2	6.02e-01	0	33	0	14680064	55	4359
2026-01-16 03:04:14.35	329.30	58.13	-43.0	-44.8	17.3	6.02e-01	0	33	0	16777216	55	4255
2026-01-16 03:04:15.36	328.36	58.33	-43.2	-45.0	17.2	6.00e-01	0	33	0	18350080	55	4362
2026-01-16 03:04:16.37	327.41	58.53	-42.9	-44.6	17.3	6.00e-01	0	33	0	20447232	54	4441
2026-01-16 03:04:17.38	326.44	58.71	-43.4	-45.3	17.1	6.00e-01	0	33	0	22544384	54	4789
2026-01-16 03:04:18.39	325.46	58.89	-43.4	-45.2	17.1	6.00e-01	0	33	0	24117248	54	4747
2026-01-16 03:04:19.40	324.46	59.06	-43.2	-45.0	17.2	6.01e-01	0	33	0	26214400	54	4610
2026-01-16 03:04:20.40	323.47	59.23	-43.7	-45.6	17.1	6.00e-01	0	33	0	27787264	55	4700
2026-01-16 03:04:21.41	322.45	59.39	-43.4	-45.3	17.2	6.06e-01	0	33	0	29884416	55	4501
2026-01-16 03:04:22.42	321.41	59.53	-43.2	-45.0	17.2	6.01e-01	0	33	0	31981568	55	4355
2026-01-16 03:04:23.43	320.37	59.68	-43.2	-45.0	17.2	6.02e-01	0	33	0	33554432	55	4391
2026-01-16 03:04:24.44	319.31	59.81	-43.5	-45.4	17.1	6.06e-01	0	33	0	35651584	55	4591
2026-01-16 03:04:25.45	318.25	59.93	-43.3	-45.2	17.2	6.00e-01	0	33	0	37748736	55	4464
2026-01-16 03:04:26.46	317.17	60.05	-43.2	-45.0	17.2	5.99e-01	0	33	0	39321600	55	4359
2026-01-16 03:04:27.47	316.09	60.15	-43.5	-45.3	17.1	6.05e-01	0	33	0	41418752	55	4533
2026-01-16 03:04:28.48	314.99	60.25	-43.2	-45.0	17.2	6.01e-01	0	33	0	42991616	55	4346
2026-01-16 03:04:29.49	313.89	60.34	-43.2	-45.0	17.2	6.03e-01	0	33	0	45088768	55	4351
2026-01-16 03:04:30.50	312.78	60.42	-43.2	-45.0	17.2	6.00e-01	0	33	0	47185920	55	4352
2026-01-16 03:04:31.51	311.66	60.49	-43.5	-45.4	17.1	6.02e-01	0	33	0	48758784	55	4587
2026-01-16 03:04:32.52	310.54	60.55	-43.2	-45.0	17.2	6.01e-01	0	33	0	50855936	55	4342
2026-01-16 03:04:33.52	309.43	60.60	-43.5	-45.4	17.1	6.00e-01	0	33	0	52428800	55	4570
2026-01-16 03:04:34.53	308.30	60.64	-43.9	-45.9	17.0	6.03e-01	0	33	0	54525952	55	4834
2026-01-16 03:04:35.54	307.16	60.67	-43.4	-45.2	17.1	6.04e-01	0	33	0	56623104	55	4465
2026-01-16 03:04:36.55	306.03	60.69	-43.7	-45.7	17.0	6.02e-01	0	33	0	58195968	55	4718
2026-01-16 03:04:37.56	304.89	60.70	-44.2	-46.3	16.9	6.02e-01	0	33	0	60293120	56	4760
2026-01-16 03:04:38.57	303.75	60.70	-43.8	-45.7	17.0	6.00e-01	0	33	0	62390272	56	4457
2026-01-16 03:04:39.58	302.61	60.69	-43.8	-45.7	17.1	6.02e-01	0	33	0	63963136	56	4482
2026-01-16 03:04:40.59	301.48	60.67	-43.7	-45.6	17.2	6.02e-01	0	33	0	66060288	56	4403
2026-01-16 03:04:41.60	300.34	60.64	-43.7	-45.5	17.1	6.00e-01	0	33	0	67633152	56	4385
2026-01-16 03:04:42.61	299.21	60.60	-43.3	-45.1	17.2	6.03e-01	0	33	0	69730304	55	4408
2026-01-16 03:04:43.62	298.08	60.55	-43.7	-45.6	17.1	6.02e-01	0	33	0	71303168	55	4674
2026-01-16 03:04:44.63	296.96	60.49	-43.6	-45.4	17.1	6.01e-01	0	33	0	73400320	55	4593
2026-01-16 03:04:45.64	295.84	60.42	-43.6	-45.5	17.1	6.02e-01	0	33	0	75497472	55	4641
2026-01-16 03:04:46.65	294.73	60.35	-43.8	-45.7	17.0	6.01e-01	0	33	0	77070336	55	4724
2026-01-16 03:04:47.65	293.64	60.26	-43.7	-45.7	17.0	6.03e-01	0	33	0	79167488	55	4717
2026-01-16 03:04:48.66	292.55	60.16	-43.7	-45.6	17.0	6.04e-01	0	33	0	80740352	55	4690
2026-01-16 03:04:49.67	291.46	60.06	-43.5	-45.4	17.1	6.01e-01	0	33	0	82837504	55	4564
2026-01-16 03:04:50.68	290.38	59.94	-43.9	-45.9	17.0	6.01e-01	0	33	0	84934656	55	4823
2026-01-16 03:04:51.69	289.32	59.82	-43.6	-45.4	17.1	6.01e-01	0	33	0	86507520	55	4597
2026-01-16 03:04:52.70	288.26	59.69	-43.9	-45.9	17.0	6.00e-01	0	33	0	88604672	55	4854
2026-01-16 03:04:53.71	287.21	59.54	-43.5	-45.4	17.1	5.98e-01	0	33	0	90701824	55	4563
2026-01-16 03:04:54.72	286.18	59.40	-43.9	-45.9	17.0	6.01e-01	0	33	0	92274688	55	4819
2026-01-16 03:04:55.73	285.16	59.24	-43.3	-45.2	17.1	6.03e-01	0	33	0	94371840	55	4442
2026-01-16 03:04:56.74	284.15	59.07	-43.5	-45.4	17.1	6.00e-01	0	33	0	95944704	55	4559
2026-01-16 03:04:57.75	283.15	58.90	-43.6	-45.5	17.0	6.02e-01	0	33	0	98041856	55	4646
2026-01-16 03:04:58.76	282.17	58.72	-43.2	-45.0	17.2	6.01e-01	0	33	0	100139008	55	4368
2026-01-16 03:04:59.77	281.20	58.54	-42.8	-44.5	17.3	6.02e-01	0	33	0	101711872	54	4353
2026-01-16 03:05:00.78	280.24	58.34	-43.2	-45.1	17.1	6.04e-01	0	33	0	103809024	54	4652
2026-01-16 03:05:01.79	279.30	58.14	-43.5	-45.5	17.1	6.04e-01	0	33	0	105906176	54	4872
2026-01-16 03:05:02.80	278.38	57.94	-42.6	-44.3	17.3	6.01e-01	0	33	0	107479040	54	4288
2026-01-16 03:05:03.80	277.47	57.73	-42.6	-44.3	17.3	6.01e-01	0	33	0	109576192	54	4269
2026-01-16 03:05:04.81	276.57	57.51	-43.4	-45.3	17.1	6.00e-01	0	33	0	111149056	54	4766
2026-01-16 03:05:05.82	275.69	57.28	-43.2	-45.0	17.1	6.03e-01	0	33	0	113246208	54	4640
2026-01-16 03:05:06.83	274.82	57.05	-42.8	-44.6	17.2	6.03e-01	0	33	0	115343360	54	4413
2026-01-16 03:05:07.84	273.97	56.82	-42.8	-44.6	17.2	6.02e-01	0	33	0	116916224	54	4397
2026-01-16 03:05:08.85	273.13	56.58	-43.2	-45.0	17.2	6.03e-01	0	33	0	119013376	54	4639
2026-01-16 03:05:09.86	272.30	56.33	-43.3	-45.1	17.2	6.00e-01	0	33	0	120586240	54	4668
2026-01-16 03:05:10.87	271.49	56.08	-43.0	-44.9	17.2	6.03e-01	0	33	0	122683392	54	4549
2026-01-16 03:05:11.88	270.70	55.83	-43.2	-45.0	17.2	6.00e-01	0	33	0	124780544	54	4611
2026-01-16 03:05:12.89	269.92	55.57	-43.2	-45.1	17.1	6.05e-01	0	33	0	126353408	54	4669
2026-01-16 03:05:13.90	269.15	55.31	-43.0	-44.8	17.2	6.00e-01	0	33	0	128450560	54	4516
2026-01-16 03:05:14.91	268.40	55.05	-42.9	-44.6	17.3	6.04e-01	0	33	0	130023424	54	4437
2026-01-16 03:05:15.92	267.66	54.78	-43.3	-45.2	17.1	6.01e-01	0	33	0	132120576	54	4714
2026-01-16 03:05:16.93	266.94	54.51	-43.2	-45.0	17.2	6.03e-01	0	33	0	134217728	54	4644
2026-01-16 03:05:17.94	266.23	54.23	-42.2	-43.8	17.4	6.02e-01	0	33	0	135790592	53	4272
2026-01-16 03:05:18.94	265.54	53.96	-42.4	-44.1	17.3	6.02e-01	0	33	0	137887744	53	4431
2026-01-16 03:05:19.96	264.85	53.68	-42.8	-44.5	17.2	6.00e-01	0	33	0	139460608	53	4637
2026-01-16 03:05:20.96	264.18	53.40	-42.0	-43.6	17.4	6.03e-01	0	33	0	141557760	53	4170
2026-01-16 03:05:21.97	263.53	53.11	-41.3	-42.8	17.5	6.00e-01	0	33	0	143654912	51	4274
2026-01-16 03:05:22.98	262.88	52.83	-41.0	-42.5	17.6	6.04e-01	0	33	0	145227776	51	4102
2026-01-16 03:05:23.99	262.25	52.54	-41.7	-43.3	17.4	6.02e-01	0	33	0	147324928	51	4541
2026-01-16 03:05:25.00	261.63	52.25	-41.9	-43.6	17.3	6.02e-01	0	33	0	148897792	51	4673
2026-01-16 03:05:26.01	261.03	51.96	-41.2	-42.7	17.5	6.01e-01	0	33	0	150994944	51	4218
2026-01-16 03:05:27.02	260.43	51.66	-41.4	-43.0	17.5	6.00e-01	0	33	0	153092096	51	4358
2026-01-16 03:05:28.03	259.85	51.37	-41.4	-42.9	17.5	6.02e-01	0	33	0	154664960	51	4324
2026-01-16 03:05:29.04	259.28	51.07	-41.7	-43.4	17.4	5.99e-01	0	33	0	156762112	51	4549
2026-01-16 03:05:30.05	258.72	50.78	-41.8	-43.4	17.4	6.03e-01	0	33	0	158859264	51	4549
2026-01-16 03:05:31.06	258.17	50.48	-41.8	-43.4	17.4	6.03e-01	0	33	0	160432128	51	4580
2026-01-16 03:05:32.06	257.64	50.18	-41.5	-43.1	17.5	5.99e-01	0	33	0	162529280	51	4413
2026-01-16 03:05:33.07	257.11	49.89	-42.1	-43.8	17.4	6.00e-01	0	33	0	164102144	52	4497
2026-01-16 03:05:34.08	256.59	49.59	-42.0	-43.7	17.4	6.00e-01	0	33	0	166199296	52	4482
2026-01-16 03:05:35.09	256.09	49.29	-41.5	-43.1	17.5	6.00e-01	0	33	0	168296448	52	4177
2026-01-16 03:05:36.10	255.59	48.99	-41.5	-43.1	17.5	6.02e-01	0	33	0	169869312	52	4176
2026-01-16 03:05:37.11	255.10	48.69	-41.5	-43.0	17.5	6.03e-01	0	33	0	171966464	52	4142
2026-01-16 03:05:38.12	254.62	48.39	-41.2	-42.8	17.5	6.03e-01	0	33	0	174063616	51	4256
2026-01-16 03:05:39.13	254.16	48.09	-42.0	-43.7	17.3	6.00e-01	0	33	0	175636480	51	4706
2026-01-16 03:05:40.14	253.70	47.79	-42.1	-43.7	17.4	5.99e-01	0	33	0	177733632	52	4486
2026-01-16 03:05:41.15	253.25	47.49	-41.5	-43.1	17.5	6.02e-01	0	33	0	179306496	52	4174
2026-01-16 03:05:42.16	252.81	47.19	-41.6	-43.2	17.4	6.03e-01	0	33	0	181403648	52	4197
2026-01-16 03:05:43.17	252.37	46.89	-41.5	-43.0	17.5	6.02e-01	0	33	0	182976512	51	4381
2026-01-16 03:05:44.18	251.95	46.59	-41.7	-43.3	17.4	6.04e-01	0	33	0	185073664	51	4535
2026-01-16 03:05:45.19	251.53	46.29	-41.8	-43.4	17.4	6.01e-01	0	33	0	187170816	51	4579
2026-01-16 03:05:46.20	251.12	46.00	-41.8	-43.4	17.4	6.04e-01	0	33	0	188743680	51	4597
2026-01-16 03:05:47.21	250.72	45.70	-41.6	-43.2	17.4	6.01e-01	0	33	0	190840832	51	4474
2026-01-16 03:05:48.22	250.33	45.40	-41.7	-43.2	17.4	6.01e-01	0	33	0	192413696	51	4492
2026-01-16 03:05:49.23	249.94	45.11	-41.7	-43.3	17.4	6.03e-01	0	33	0	194510848	51	4495
2026-01-16 03:05:50.23	249.57	44.82	-42.0	-43.6	17.4	5.98e-01	0	33	0	196608000	51	4696
2026-01-16 03:05:51.24	249.20	44.52	-42.1	-43.8	17.4	6.03e-01	0	33	0	198180864	52	4514
2026-01-16 03:05:52.25	248.83	44.23	-42.2	-43.9	17.3	6.02e-01	0	33	0	200278016	52	4557
2026-01-16 03:05:53.26	248.48	43.94	-42.0	-43.7	17.4	6.00e-01	0	33	0	202375168	52	4454
2026-01-16 03:05:54.27	248.12	43.65	-42.0	-43.6	17.4	6.01e-01	0	33	0	203948032	52	4412
2026-01-16 03:05:55.28	247.78	43.36	-42.1	-43.8	17.3	6.00e-01	0	33	0	206045184	52	4495
2026-01-16 03:05:56.29	247.44	43.07	-42.2	-43.9	17.3	6.04e-01	0	33	0	207618048	52	4551
2026-01-16 03:05:57.30	247.11	42.79	-42.2	-43.8	17.3	6.03e-01	0	33	0	209715200	52	4545
2026-01-16 03:05:58.31	246.78	42.50	-42.7	-44.5	17.2	6.04e-01	0	33	0	211812352	53	4626
2026-01-16 03:05:59.32	246.46	42.22	-42.6	-44.4	17.2	6.02e-01	0	33	0	213385216	53	4580
2026-01-16 03:06:00.32	246.15	41.94	-42.4	-44.1	17.3	6.03e-01	0	33	0	215482368	53	4411
2026-01-16 03:06:01.33	245.84	41.66	-42.4	-44.1	17.3	6.03e-01	0	33	0	217055232	53	4405
2026-01-16 03:06:02.34	245.54	41.38	-43.1	-44.9	17.1	6.02e-01	0	33	0	219152384	54	4578
2026-01-16 03:06:03.35	245.24	41.10	-43.3	-45.2	17.1	5.99e-01	0	33	0	221249536	54	4744
2026-01-16 03:06:04.36	244.95	40.82	-43.0	-44.8	17.2	6.03e-01	0	33	0	222822400	54	4499
2026-01-16 03:06:05.37	244.66	40.54	-43.0	-44.8	17.2	6.03e-01	0	33	0	224919552	54	4519
2026-01-16 03:06:06.38	244.38	40.27	-43.4	-45.3	17.1	5.99e-01	0	33	0	227016704	54	4798
2026-01-16 03:06:07.39	244.10	40.00	-43.4	-45.3	17.1	6.01e-01	0	33	0	228589568	54	4787
2026-01-16 03:06:08.40	243.82	39.72	-43.4	-45.4	17.0	6.02e-01	0	33	0	230686720	54	4818
2026-01-16 03:06:09.41	243.56	39.45	-43.0	-44.8	17.2	6.00e-01	0	33	0	232259584	54	4540
2026-01-16 03:06:10.42	243.29	39.19	-42.9	-44.6	17.2	6.02e-01	0	33	0	234356736	54	4441
2026-01-16 03:06:11.43	243.03	38.92	-43.2	-45.0	17.2	5.99e-01	0	33	0	236453888	54	4624
2026-01-16 03:06:12.44	242.78	38.65	-43.3	-45.2	17.1	6.04e-01	0	33	0	238026752	54	4740
2026-01-16 03:06:13.45	242.53	38.39	-43.7	-45.6	17.0	6.04e-01	0	33	0	240123904	55	4700
2026-01-16 03:06:14.45	242.28	38.13	-43.9	-45.9	16.9	6.01e-01	0	33	0	241696768	55	4847
2026-01-16 03:06:15.46	242.04	37.87	-43.6	-45.6	17.0	6.01e-01	0	33	0	243793920	55	4655
2026-01-16 03:06:16.47	241.80	37.61	-43.3	-45.1	17.2	6.02e-01	0	33	0	245891072	55	4429
2026-01-16 03:06:17.48	241.56	37.35	-43.3	-45.2	17.1	6.02e-01	0	33	0	247463936	55	4462
2026-01-16 03:06:18.49	241.33	37.09	-43.8	-45.8	16.9	6.00e-01	0	33	0	249561088	55	4812
2026-01-16 03:06:19.50	241.10	36.84	-44.0	-46.1	16.9	6.00e-01	0	33	0	251133952	55	4933
2026-01-16 03:06:20.51	240.88	36.58	-43.8	-45.7	17.0	6.00e-01	0	33	0	253231104	55	4757
2026-01-16 03:06:21.52	240.66	36.33	-43.7	-45.6	17.0	6.03e-01	0	33	0	255328256	55	4702
2026-01-16 03:06:22.53	240.44	36.08	-43.3	-45.1	17.1	6.02e-01	0	33	0	256901120	55	4424
2026-01-16 03:06:23.54	240.23	35.83	-43.2	-45.1	17.2	5.98e-01	0	33	0	258998272	55	4394
2026-01-16 03:06:24.55	240.02	35.59	-43.3	-45.2	17.1	6.01e-01	0	33	0	260571136	55	4461
2026-01-16 03:06:25.56	239.81	35.34	-43.2	-45.1	17.2	6.01e-01	0	33	0	262668288	55	4407
2026-01-16 03:06:26.57	239.61	35.10	-43.0	-44.8	17.2	6.00e-01	0	33	0	264765440	55	4269
2026-01-16 03:06:27.57	239.41	34.86	-42.7	-44.5	17.2	6.00e-01	0	33	0	266338304	54	4364
2026-01-16 03:06:28.58	239.21	34.62	-42.3	-44.0	17.3	6.00e-01	0	33	0	268435456	53	4351
2026-01-16 03:06:29.59	239.02	34.38	-42.2	-43.9	17.3	6.03e-01	0	33	0	270532608	53	4327
2026-01-16 03:06:30.60	238.83	34.14	-42.3	-43.9	17.3	5.99e-01	0	33	0	272105472	53	4339
2026-01-16 03:06:31.61	238.64	33.91	-42.2	-43.9	17.4	6.01e-01	0	33	0	274202624	53	4306
2026-01-16 03:06:32.62	238.45	33.67	-42.1	-43.8	17.3	6.02e-01	0	33	0	275775488	53	4275
2026-01-16 03:06:33.63	238.27	33.44	-42.1	-43.8	17.3	6.02e-01	0	33	0	277872640	53	4256
2026-01-16 03:06:34.64	238.09	33.21	-42.0	-43.7	17.4	6.02e-01	0	33	0	279969792	53	4220
2026-01-16 03:06:35.64	237.91	32.98	-42.0	-43.7	17.4	6.02e-01	0	33	0	281542656	53	4210
2026-01-16 03:06:36.65	237.74	32.75	-42.0	-43.7	17.4	6.00e-01	0	33	0	283639808	53	4227
2026-01-16 03:06:37.66	237.57	32.53	-41.8	-43.5	17.4	6.06e-01	0	33	0	285212672	52	4362
2026-01-16 03:06:38.67	237.40	32.30	-41.7	-43.3	17.4	5.98e-01	0	33	0	287309824	52	4263
2026-01-16 03:06:39.68	237.23	32.08	-41.7	-43.3	17.4	6.00e-01	0	33	0	289406976	52	4276
2026-01-16 03:06:40.69	237.06	31.85	-41.5	-43.1	17.5	6.02e-01	0	33	0	290979840	52	4167
2026-01-16 03:06:41.70	236.90	31.63	-41.4	-43.0	17.5	6.01e-01	0	33	0	293076992	51	4375
2026-01-16 03:06:42.71	236.74	31.41	-41.5	-43.1	17.4	6.00e-01	0	33	0	294649856	51	4439
2026-01-16 03:06:43.72	236.58	31.20	-41.6	-43.2	17.4	6.04e-01	0	33	0	296747008	51	4472
2026-01-16 03:06:44.72	236.43	30.98	-41.7	-43.4	17.4	6.00e-01	0	33	0	298844160	51	4558
2026-01-16 03:06:45.73	236.27	30.77	-41.7	-43.4	17.4	6.03e-01	0	33	0	300417024	51	4572
2026-01-16 03:06:46.75	236.12	30.55	-41.7	-43.3	17.4	6.04e-01	0	33	0	302514176	51	4528
2026-01-16 03:06:47.75	235.97	30.34	-41.7	-43.3	17.4	6.04e-01	0	33	0	304087040	51	4513
2026-01-16 03:06:48.76	235.82	30.13	-41.5	-43.1	17.4	6.02e-01	0	33	0	306184192	51	4427
2026-01-16 03:06:49.77	235.68	29.92	-41.5	-43.1	17.4	5.99e-01	0	33	0	308281344	51	4403
2026-01-16 03:06:50.78	235.53	29.72	-41.5	-43.1	17.4	6.03e-01	0	33	0	309854208	51	4404
2026-01-16 03:06:51.79	235.39	29.51	-41.5	-43.1	17.5	6.04e-01	0	33	0	311951360	51	4429
2026-01-16 03:06:52.80	235.25	29.31	-41.6	-43.2	17.4	6.04e-01	0	33	0	313524224	51	4477
2026-01-16 03:06:53.81	235.11	29.10	-41.6	-43.2	17.4	6.02e-01	0	33	0	315621376	51	4469
2026-01-16 03:06:54.82	234.98	28.90	-41.6	-43.3	17.4	6.01e-01	0	33	0	317718528	51	4496
2026-01-16 03:06:55.83	234.84	28.70	-41.7	-43.3	17.4	6.03e-01	0	33	0	319291392	51	4514
2026-01-16 03:06:56.84	234.71	28.50	-41.6	-43.3	17.4	6.00e-01	0	33	0	321388544	51	4504
2026-01-16 03:06:57.85	234.58	28.30	-41.6	-43.2	17.4	6.01e-01	0	33	0	323485696	51	4484
2026-01-16 03:06:58.85	234.45	28.11	-41.6	-43.2	17.4	6.00e-01	0	33	0	325058560	51	4489
2026-01-16 03:06:59.86	234.32	27.91	-41.5	-43.2	17.4	6.00e-01	0	33	0	327155712	51	4443
2026-01-16 03:07:00.87	234.20	27.72	-41.6	-43.2	17.4	6.01e-01	0	33	0	328728576	51	4476
2026-01-16 03:07:01.88	234.07	27.53	-41.7	-43.3	17.3	6.01e-01	0	33	0	330825728	51	4529
2026-01-16 03:07:02.89	233.95	27.34	-41.7	-43.4	17.3	6.02e-01	0	33	0	332922880	51	4562
2026-01-16 03:07:03.90	233.83	27.15	-41.9	-43.6	17.3	6.01e-01	0	33	0	334495744	51	4662
2026-01-16 03:07:04.91	233.71	26.96	-42.0	-43.6	17.3	5.99e-01	0	33	0	336592896	51	4700
2026-01-16 03:07:05.92	233.59	26.77	-42.0	-43.8	17.3	6.00e-01	0	33	0	338165760	52	4501
2026-01-16 03:07:06.93	233.47	26.58	-42.1	-43.8	17.3	6.02e-01	0	33	0	340262912	52	4532
2026-01-16 03:07:07.93	233.36	26.40	-42.1	-43.8	17.3	6.02e-01	0	33	0	342360064	52	4516
2026-01-16 03:07:08.94	233.25	26.22	-42.2	-43.9	17.3	6.04e-01	0	33	0	343932928	52	4576
2026-01-16 03:07:09.95	233.13	26.03	-42.0	-43.7	17.3	6.02e-01	0	33	0	346030080	52	4458
2026-01-16 03:07:10.96	233.02	25.85	-41.9	-43.6	17.4	6.02e-01	0	33	0	347602944	52	4417
2026-01-16 03:07:11.97	232.91	25.67	-42.0	-43.7	17.4	6.01e-01	0	33	0	349700096	52	4468
2026-01-16 03:07:12.98	232.80	25.49	-41.8	-43.5	17.4	6.04e-01	0	33	0	351797248	52	4363
2026-01-16 03:07:13.99	232.70	25.32	-41.9	-43.6	17.4	6.03e-01	0	33	0	353370112	52	4402
2026-01-16 03:07:15.00	232.59	25.14	-42.0	-43.7	17.4	6.02e-01	0	33	0	355467264	52	4458
2026-01-16 03:07:16.01	232.49	24.96	-42.0	-43.6	17.4	6.04e-01	0	33	0	357040128	52	4440
2026-01-16 03:07:17.02	232.38	24.79	-42.0	-43.7	17.4	6.00e-01	0	33	0	359137280	52	4455
2026-01-16 03:07:18.03	232.28	24.62	-42.0	-43.7	17.3	6.01e-01	0	33	0	361234432	52	4473
2026-01-16 03:07:19.04	232.18	24.44	-41.9	-43.6	17.4	6.02e-01	0	33	0	362807296	52	4432
2026-01-16 03:07:20.05	232.08	24.27	-42.0	-43.7	17.3	6.01e-01	0	33	0	364904448	52	4465
2026-01-16 03:07:21.06	231.98	24.10	-42.1	-43.8	17.3	6.01e-01	0	33	0	367001600	52	4517
2026-01-16 03:07:22.07	231.88	23.94	-42.0	-43.7	17.3	6.00e-01	0	33	0	368574464	52	4473
2026-01-16 03:07:23.07	231.79	23.77	-42.0	-43.7	17.3	6.01e-01	0	33	0	370671616	52	4471
2026-01-16 03:07:24.08	231.69	23.60	-42.0	-43.7	17.3	6.01e-01	0	33	0	372244480	52	4476
2026-01-16 03:07:25.09	231.60	23.44	-42.0	-43.8	17.3	6.01e-01	0	33	0	374341632	52	4494
2026-01-16 03:07:26.10	231.51	23.27	-42.1	-43.8	17.3	5.99e-01	0	33	0	376438784	52	4532
2026-01-16 03:07:27.11	231.41	23.11	-42.1	-43.8	17.3	6.01e-01	0	33	0	378011648	52	4542
2026-01-16 03:07:28.12	231.32	22.95	-42.2	-44.0	17.3	6.02e-01	0	33	0	380108800	52	4610
2026-01-16 03:07:29.13	231.23	22.79	-42.1	-43.9	17.3	6.01e-01	0	33	0	381681664	52	4553
2026-01-16 03:07:30.14	231.14	22.63	-42.1	-43.8	17.3	6.04e-01	0	33	0	383778816	52	4511
2026-01-16 03:07:31.15	231.06	22.47	-42.1	-43.8	17.3	5.99e-01	0	33	0	385875968	52	4531
2026-01-16 03:07:32.16	230.97	22.31	-42.1	-43.8	17.3	6.02e-01	0	33	0	387448832	52	4516
2026-01-16 03:07:33.17	230.88	22.15	-42.1	-43.8	17.3	6.01e-01	0	33	0	389545984	52	4535
2026-01-16 03:07:34.18	230.80	21.99	-42.1	-43.8	17.3	6.04e-01	0	33	0	391643136	52	4544
2026-01-16 03:07:35.18	230.71	21.84	-42.1	-43.8	17.3	6.00e-01	0	33	0	393216000	52	4502
2026-01-16 03:07:36.19	230.63	21.69	-42.0	-43.7	17.3	6.01e-01	0	33	0	395313152	52	4471
2026-01-16 03:07:37.20	230.55	21.53	-42.0	-43.7	17.3	5.99e-01	0	33	0	396886016	52	4472
2026-01-16 03:07:38.21	230.47	21.38	-42.1	-43.8	17.3	6.02e-01	0	33	0	398983168	52	4534
2026-01-16 03:07:39.22	230.39	21.23	-42.1	-43.9	17.3	6.02e-01	0	33	0	401080320	52	4550
2026-01-16 03:07:40.23	230.31	21.08	-42.1	-43.8	17.3	6.01e-01	0	33	0	402653184	52	4537
2026-01-16 03:07:41.24	230.23	20.93	-42.2	-43.9	17.3	6.03e-01	0	33	0	404750336	52	4592
2026-01-16 03:07:42.25	230.15	20.78	-42.1	-43.9	17.3	6.01e-01	0	33	0	406323200	52	4553
2026-01-16 03:07:43.26	230.07	20.63	-42.2	-43.9	17.3	6.01e-01	0	33	0	408420352	52	4581
2026-01-16 03:07:44.27	229.99	20.49	-42.2	-43.9	17.3	6.02e-01	0	33	0	410517504	52	4595
2026-01-16 03:07:45.28	229.92	20.34	-42.2	-43.9	17.3	6.00e-01	0	33	0	412090368	52	4573
2026-01-16 03:07:46.29	229.84	20.19	-42.0	-43.8	17.3	6.01e-01	0	33	0	414187520	52	4498
2026-01-16 03:07:47.30	229.77	20.05	-42.1	-43.8	17.3	6.01e-01	0	33	0	415760384	52	4535
2026-01-16 03:07:48.31	229.70	19.91	-42.0	-43.7	17.3	6.02e-01	0	33	0	417857536	52	4480
2026-01-16 03:07:49.32	229.62	19.76	-42.0	-43.8	17.3	6.01e-01	0	33	0	419954688	52	4499
2026-01-16 03:07:50.33	229.55	19.62	-42.1	-43.8	17.3	5.99e-01	0	33	0	421527552	52	4513
2026-01-16 03:07:51.33	229.48	19.48	-42.0	-43.8	17.3	6.01e-01	0	33	0	423624704	52	4496
2026-01-16 03:07:52.35	229.41	19.34	-41.9	-43.7	17.3	6.01e-01	0	33	0	425197568	52	4445
2026-01-16 03:07:53.35	229.34	19.20	-42.0	-43.7	17.3	6.01e-01	0	33	0	427294720	52	4468
2026-01-16 03:07:54.36	229.27	19.06	-42.0	-43.7	17.3	6.03e-01	0	33	0	429391872	52	4486
2026-01-16 03:07:55.37	229.20	18.93	-42.0	-43.7	17.3	6.04e-01	0	33	0	430964736	52	4468
2026-01-16 03:07:56.38	229.13	18.79	-42.1	-43.8	17.3	6.03e-01	0	33	0	433061888	52	4527
2026-01-16 03:07:57.39	229.07	18.65	-42.2	-43.9	17.2	6.04e-01	0	33	0	435159040	52	4576
2026-01-16 03:07:58.40	229.00	18.52	-42.1	-43.9	17.3	6.01e-01	0	33	0	436731904	52	4549
2026-01-16 03:07:59.41	228.94	18.38	-42.1	-43.9	17.3	6.00e-01	0	33	0	438829056	52	4567
2026-01-16 03:08:00.42	228.87	18.25	-42.2	-44.0	17.2	6.04e-01	0	33	0	440401920	52	4601
2026-01-16 03:08:01.43	228.81	18.12	-42.0	-43.8	17.3	6.01e-01	0	33	0	442499072	52	4506
2026-01-16 03:08:02.44	228.74	17.98	-42.0	-43.7	17.3	6.03e-01	0	33	0	444596224	52	4491
2026-01-16 03:08:03.45	228.68	17.85	-42.0	-43.7	17.3	6.01e-01	0	33	0	446169088	52	4472
2026-01-16 03:08:04.45	228.62	17.72	-42.0	-43.7	17.3	6.02e-01	0	33	0	448266240	52	4475
2026-01-16 03:08:05.46	228.55	17.59	-42.0	-43.7	17.3	6.02e-01	0	33	0	449839104	52	4465
2026-01-16 03:08:06.47	228.49	17.46	-42.0	-43.7	17.3	6.05e-01	0	33	0	451936256	52	4469
2026-01-16 03:08:07.48	228.43	17.33	-42.1	-43.8	17.3	6.02e-01	0	33	0	454033408	52	4526
2026-01-16 03:08:08.49	228.37	17.21	-41.9	-43.6	17.3	6.02e-01	0	33	0	455606272	52	4422
2026-01-16 03:08:09.50	228.31	17.08	-42.0	-43.7	17.3	6.01e-01	0	33	0	457703424	52	4468
2026-01-16 03:08:10.51	228.25	16.95	-41.9	-43.6	17.4	6.01e-01	0	33	0	459276288	52	4413
2026-01-16 03:08:11.52	228.19	16.83	-41.9	-43.6	17.4	6.02e-01	0	33	0	461373440	52	4405
2026-01-16 03:08:12.52	228.14	16.70	-41.8	-43.5	17.3	6.03e-01	0	33	0	463470592	52	4382
2026-01-16 03:08:13.53	228.08	16.58	-41.8	-43.5	17.3	6.00e-01	0	33	0	465043456	52	4384
2026-01-16 03:08:14.54	228.02	16.45	-41.8	-43.5	17.3	6.03e-01	0	33	0	467140608	52	4358
2026-01-16 03:08:15.55	227.97	16.33	-41.8	-43.5	17.4	6.03e-01	0	33	0	468713472	52	4353
2026-01-16 03:08:16.56	227.91	16.21	-41.9	-43.6	17.3	6.03e-01	0	33	0	470810624	52	4396
2026-01-16 03:08:17.57	227.85	16.09	-41.8	-43.5	17.4	6.03e-01	0	33	0	472907776	52	4369
2026-01-16 03:08:18.58	227.80	15.97	-41.8	-43.5	17.4	6.02e-01	0	33	0	474480640	52	4389
2026-01-16 03:08:19.59	227.74	15.84	-41.8	-43.6	17.4	6.00e-01	0	33	0	476577792	52	4392
2026-01-16 03:08:20.60	227.69	15.72	-41.7	-43.4	17.4	6.02e-01	0	33	0	478150656	52	4338
2026-01-16 03:08:21.61	227.64	15.60	-41.8	-43.5	17.4	6.02e-01	0	33	0	480247808	52	4390
2026-01-16 03:08:22.62	227.58	15.49	-41.9	-43.6	17.4	6.01e-01	0	33	0	482344960	52	4396
2026-01-16 03:08:23.63	227.53	15.37	-41.7	-43.4	17.4	6.00e-01	0	33	0	483917824	52	4327
2026-01-16 03:08:24.63	227.48	15.25	-41.7	-43.4	17.4	6.03e-01	0	33	0	486014976	52	4323
2026-01-16 03:08:25.64	227.43	15.13	-41.8	-43.5	17.4	6.01e-01	0	33	0	488112128	52	4362
2026-01-16 03:08:26.65	227.38	15.02	-41.9	-43.6	17.3	6.02e-01	0	33	0	489684992	52	4421
2026-01-16 03:08:27.66	227.33	14.90	-41.9	-43.6	17.3	6.00e-01	0	33	0	491782144	52	4417
2026-01-16 03:08:28.67	227.28	14.79	-41.9	-43.6	17.3	6.03e-01	0	33	0	493355008	52	4430
2026-01-16 03:08:29.68	227.23	14.67	-41.9	-43.6	17.3	6.03e-01	0	33	0	495452160	52	4409
2026-01-16 03:08:30.69	227.18	14.56	-42.0	-43.8	17.3	6.01e-01	0	33	0	497549312	52	4504
2026-01-16 03:08:31.70	227.13	14.44	-41.9	-43.7	17.3	6.00e-01	0	33	0	499122176	52	4448
2026-01-16 03:08:32.70	227.08	14.33	-41.9	-43.7	17.3	6.01e-01	0	33	0	501219328	52	4456
2026-01-16 03:08:33.71	227.03	14.22	-42.0	-43.8	17.3	6.03e-01	0	33	0	502792192	52	4496
2026-01-16 03:08:34.72	226.98	14.11	-41.9	-43.7	17.3	6.03e-01	0	33	0	504889344	52	4449
2026-01-16 03:08:35.73	226.94	14.00	-42.1	-43.9	17.3	6.01e-01	0	33	0	506986496	52	4579
2026-01-16 03:08:36.74	226.89	13.89	-42.0	-43.8	17.3	6.02e-01	0	33	0	508559360	52	4503
2026-01-16 03:08:37.75	226.84	13.78	-42.1	-43.8	17.3	6.00e-01	0	33	0	510656512	52	4544
2026-01-16 03:08:38.76	226.80	13.67	-42.2	-44.0	17.3	6.03e-01	0	33	0	512229376	52	4618
2026-01-16 03:08:39.77	226.75	13.56	-42.3	-44.1	17.2	6.04e-01	0	33	0	514326528	52	4694
2026-01-16 03:08:40.78	226.71	13.45	-42.2	-44.0	17.3	6.00e-01	0	33	0	516423680	52	4618
2026-01-16 03:08:41.79	226.66	13.34	-42.3	-44.1	17.2	6.03e-01	0	33	0	517996544	52	4677
2026-01-16 03:08:42.80	226.62	13.23	-42.1	-43.9	17.2	6.03e-01	0	33	0	520093696	52	4572
2026-01-16 03:08:43.81	226.57	13.13	-42.2	-44.0	17.2	6.01e-01	0	33	0	521666560	52	4613
2026-01-16 03:08:44.82	226.53	13.02	-42.1	-43.9	17.2	6.02e-01	0	33	0	523763712	52	4583
2026-01-16 03:08:45.82	226.49	12.91	-42.1	-43.9	17.3	6.01e-01	0	33	0	525860864	52	4584
2026-01-16 03:08:46.83	226.44	12.81	-42.2	-43.9	17.2	6.01e-01	0	33	0	527433728	52	4586
2026-01-16 03:08:47.84	226.40	12.70	-42.2	-44.0	17.2	6.00e-01	0	33	0	529530880	52	4612
2026-01-16 03:08:48.85	226.36	12.60	-42.1	-43.9	17.2	6.02e-01	0	33	0	531103744	52	4575
2026-01-16 03:08:49.86	226.31	12.49	-42.1	-43.9	17.2	6.00e-01	0	33	0	533200896	52	4553
2026-01-16 03:08:50.87	226.27	12.39	-42.1	-43.9	17.3	6.00e-01	0	33	0	535298048	52	4566
2026-01-16 03:08:51.88	226.23	12.29	-42.2	-44.0	17.2	6.00e-01	0	33	0	536870912	52	4643
2026-01-16 03:08:52.89	226.19	12.19	-42.2	-43.9	17.2	6.02e-01	0	33	0	538968064	52	4594
2026-01-16 03:08:53.90	226.15	12.08	-42.1	-43.9	17.2	5.99e-01	0	33	0	541065216	52	4559
2026-01-16 03:08:54.91	226.11	11.98	-42.1	-43.9	17.2	6.01e-01	0	33	0	542638080	52	4565
2026-01-16 03:08:55.92	226.07	11.88	-42.2	-43.9	17.2	6.05e-01	0	33	0	544735232	52	4597
2026-01-16 03:08:56.93	226.03	11.78	-42.3	-44.1	17.2	6.01e-01	0	33	0	546308096	52	4667
2026-01-16 03:08:57.94	225.99	11.68	-42.3	-44.1	17.2	6.01e-01	0	33	0	548405248	52	4667
2026-01-16 03:08:58.95	225.95	11.58	-42.3	-44.2	17.1	6.02e-01	0	33	0	550502400	52	4723
2026-01-16 03:08:59.96	225.91	11.48	-42.4	-44.2	17.1	6.00e-01	0	33	0	552075264	52	4743
2026-01-16 03:09:00.96	225.87	11.38	-42.4	-44.2	17.1	6.01e-01	0	33	0	554172416	52	4744
2026-01-16 03:09:01.98	225.84	11.28	-42.4	-44.3	17.1	6.01e-01	0	33	0	556269568	52	4765
2026-01-16 03:09:02.98	225.80	11.18	-42.6	-44.5	17.1	6.02e-01	0	33	0	557842432	52	4882
2026-01-16 03:09:03.99	225.76	11.09	-42.4	-44.3	17.1	6.03e-01	0	33	0	559939584	52	4791
2026-01-16 03:09:05.00	225.72	10.99	-42.4	-44.3	17.1	6.02e-01	0	33	0	561512448	52	4796
2026-01-16 03:09:06.01	225.69	10.89	-42.5	-44.4	17.1	6.02e-01	0	33	0	563609600	52	4843
2026-01-16 03:09:07.02	225.65	10.79	-42.5	-44.4	17.1	6.00e-01	0	33	0	565706752	52	4825
2026-01-16 03:09:08.03	225.61	10.70	-42.4	-44.3	17.1	6.02e-01	0	33	0	567279616	52	4779
2026-01-16 03:09:09.04	225.58	10.60	-42.5	-44.4	17.1	6.00e-01	0	33	0	569376768	52	4830
2026-01-16 03:09:10.05	225.54	10.51	-42.4	-44.3	17.1	6.00e-01	0	33	0	570949632	52	4762
2026-01-16 03:09:11.06	225.50	10.41	-42.4	-44.2	17.2	6.02e-01	0	33	0	573046784	52	4750
2026-01-16 03:09:12.07	225.47	10.32	-42.4	-44.2	17.1	6.01e-01	0	33	0	574619648	52	4752
2026-01-16 03:09:13.08	225.43	10.22	-42.3	-44.2	17.1	6.00e-01	0	33	0	576716800	52	4744
2026-01-16 03:09:14.09	225.40	10.13	-42.3	-44.2	17.1	6.02e-01	0	33	0	578813952	52	4727
2026-01-16 03:09:15.10	225.37	10.04	-42.4	-44.3	17.1	6.01e-01	0	33	0	580386816	52	4784
2026-01-16 03:09:16.11	225.33	9.94	-42.4	-44.3	17.1	5.98e-01	0	33	0	582483968	52	4783
2026-01-16 03:09:17.11	225.30	9.85	-42.4	-44.3	17.1	6.02e-01	0	33	0	584581120	52	4760
2026-01-16 03:09:18.12	225.26	9.76	-42.4	-44.3	17.1	6.02e-01	0	33	0	586153984	52	4762
2026-01-16 03:09:19.13	225.23	9.67	-42.4	-44.2	17.1	6.02e-01	0	33	0	588251136	52	4751
2026-01-16 03:09:20.14	225.20	9.58	-42.3	-44.1	17.2	6.01e-01	0	33	0	589824000	52	4675
2026-01-16 03:09:21.15	225.16	9.48	-42.6	-44.5	17.1	6.00e-01	0	33	0	591921152	52	4889
2026-01-16 03:09:22.16	225.13	9.39	-42.5	-44.4	17.1	6.02e-01	0	33	0	594018304	52	4829
2026-01-16 03:09:23.17	225.10	9.30	-42.5	-44.4	17.1	6.00e-01	0	33	0	595591168	52	4861
2026-01-16 03:09:24.18	225.07	9.21	-42.4	-44.3	17.1	6.01e-01	0	33	0	597688320	52	4798
2026-01-16 03:09:25.19	225.03	9.12	-42.5	-44.4	17.1	6.00e-01	0	33	0	599261184	53	4569
2026-01-16 03:09:26.20	225.00	9.03	-42.6	-44.5	17.1	6.02e-01	0	33	0	601358336	53	4609
2026-01-16 03:09:27.21	224.97	8.94	-42.6	-44.5	17.0	6.04e-01	0	33	0	603455488	53	4639
2026-01-16 03:09:28.22	224.94	8.86	-42.5	-44.4	17.1	6.02e-01	0	33	0	605028352	53	4594
2026-01-16 03:09:29.23	224.91	8.77	-42.8	-44.7	17.1	6.00e-01	0	33	0	607125504	53	4735
2026-01-16 03:09:30.23	224.88	8.68	-42.7	-44.6	17.1	6.02e-01	0	33	0	609222656	53	4688
2026-01-16 03:09:31.24	224.85	8.59	-42.8	-44.7	17.1	6.00e-01	0	33	0	610795520	53	4738
2026-01-16 03:09:32.25	224.82	8.50	-42.6	-44.6	17.1	6.00e-01	0	33	0	612892672	53	4672
2026-01-16 03:09:33.26	224.79	8.42	-42.7	-44.6	17.1	6.00e-01	0	33	0	614465536	53	4672
2026-01-16 03:09:34.27	224.76	8.33	-42.8	-44.8	17.0	6.01e-01	0	33	0	616562688	53	4766
2026-01-16 03:09:35.28	224.73	8.24	-42.9	-44.9	17.0	5.99e-01	0	33	0	618659840	53	4819
2026-01-16 03:09:36.29	224.70	8.16	-42.8	-44.7	17.0	6.03e-01	0	33	0	620232704	53	4751
2026-01-16 03:09:37.30	224.67	8.07	-43.0	-45.0	17.0	6.02e-01	0	33	0	622329856	53	4903
2026-01-16 03:09:38.31	224.64	7.99	-42.7	-44.7	17.1	6.02e-01	0	33	0	623902720	53	4735
2026-01-16 03:09:39.32	224.61	7.90	-42.7	-44.7	17.0	6.00e-01	0	33	0	625999872	53	4710
2026-01-16 03:09:40.32	224.58	7.82	-42.7	-44.7	17.0	6.01e-01	0	33	0	628097024	53	4717
2026-01-16 03:09:41.33	224.55	7.73	-42.7	-44.6	17.0	6.00e-01	0	33	0	629669888	53	4696
2026-01-16 03:09:42.34	224.52	7.65	-42.9	-44.9	17.0	6.04e-01	0	33	0	631767040	53	4846
2026-01-16 03:09:43.35	224.49	7.57	-42.8	-44.8	17.0	6.02e-01	0	33	0	633339904	53	4797
2026-01-16 03:09:44.36	224.47	7.48	-42.7	-44.7	17.0	6.03e-01	0	33	0	635437056	53	4752
2026-01-16 03:09:45.37	224.44	7.40	-42.9	-44.9	17.0	6.03e-01	0	33	0	637534208	53	4862
2026-01-16 03:09:46.38	224.41	7.32	-42.9	-45.0	16.9	6.00e-01	0	33	0	639107072	53	4894
2026-01-16 03:09:47.39	224.38	7.23	-43.0	-45.1	16.9	6.02e-01	0	33	0	641204224	54	4687
2026-01-16 03:09:48.40	224.36	7.15	-43.2	-45.4	16.9	6.00e-01	0	33	0	642777088	54	4829
2026-01-16 03:09:49.41	224.33	7.07	-43.1	-45.2	16.9	6.02e-01	0	33	0	644874240	54	4759
2026-01-16 03:09:50.42	224.30	6.99	-43.5	-45.7	16.7	6.02e-01	0	33	0	646971392	54	5036
2026-01-16 03:09:51.42	224.28	6.90	-43.0	-45.0	17.0	6.01e-01	0	33	0	648544256	54	4617
2026-01-16 03:09:52.43	224.25	6.82	-43.4	-45.6	16.8	6.02e-01	0	33	0	650641408	54	4948
2026-01-16 03:09:53.44	224.22	6.74	-43.2	-45.3	16.8	5.97e-01	0	33	0	652738560	54	4788
2026-01-16 03:09:54.45	224.20	6.66	-43.0	-45.0	16.9	6.03e-01	0	33	0	654311424	54	4650
2026-01-16 03:09:55.46	224.17	6.58	-43.0	-45.1	16.9	6.01e-01	0	33	0	656408576	54	4694
2026-01-16 03:09:56.47	224.14	6.50	-43.0	-45.1	16.9	5.99e-01	0	33	0	657981440	54	4692
2026-01-16 03:09:57.48	224.12	6.42	-43.0	-45.0	17.0	6.02e-01	0	33	0	660078592	54	4628
2026-01-16 03:09:58.49	224.09	6.34	-43.6	-45.8	16.7	6.02e-01	0	33	0	662175744	54	5052
2026-01-16 03:09:59.50	224.07	6.26	-43.5	-45.6	16.7	6.02e-01	0	33	0	663748608	54	4983
2026-01-16 03:10:00.51	224.04	6.18	-43.2	-45.3	16.8	5.99e-01	0	33	0	665845760	54	4792
2026-01-16 03:10:01.52	224.02	6.10	-43.4	-45.6	16.8	5.99e-01	0	33	0	667418624	55	4674
2026-01-16 03:10:02.53	223.99	6.03	-43.2	-45.3	16.8	5.98e-01	0	33	0	669515776	55	4545
2026-01-16 03:10:03.54	223.97	5.95	-43.3	-45.4	16.8	5.99e-01	0	33	0	671612928	55	4594
2026-01-16 03:10:04.55	223.94	5.87	-43.4	-45.6	16.8	6.00e-01	0	33	0	673185792	55	4653
2026-01-16 03:10:05.56	223.92	5.79	-43.0	-45.1	16.9	5.99e-01	0	33	0	675282944	55	4411
2026-01-16 03:10:06.57	223.90	5.71	-43.2	-45.4	16.8	5.98e-01	0	33	0	676855808	55	4581
2026-01-16 03:10:07.57	223.87	5.64	-43.6	-45.8	16.7	6.01e-01	0	33	0	678952960	55	4800
2026-01-16 03:10:08.58	223.85	5.56	-43.4	-45.7	16.7	6.02e-01	0	33	0	681050112	55	4710
2026-01-16 03:10:09.59	223.83	5.48	-43.1	-45.2	16.9	6.03e-01	0	33	0	682622976	55	4489
2026-01-16 03:10:10.60	223.80	5.41	-43.6	-45.9	16.7	6.00e-01	0	33	0	684720128	55	4833
2026-01-16 03:10:11.61	223.78	5.33	-43.6	-45.9	16.6	6.01e-01	0	33	0	686292992	55	4854
2026-01-16 03:10:12.62	223.75	5.25	-43.9	-46.4	16.5	6.03e-01	0	33	0	688390144	55	5105
2026-01-16 03:10:13.63	223.73	5.18	-44.1	-46.7	16.3	6.02e-01	0	33	0	690487296	56	4986
2026-01-16 03:10:14.64	223.71	5.10	-44.4	-47.1	16.2	6.02e-01	0	33	0	692060160	56	5246
2026-01-16 03:10:15.65	223.69	5.03	-44.4	-47.1	16.2	6.03e-01	0	33	0	694157312	56	5226
