passes_logs/2026/01/16/R3.2S_Murmansk_2ch/R3.2S_Murmansk_2ch__20260116_073026_SUOMI_NPP_rec.log

#Pass ID: 20260116_073026_SUOMI NPP
#Satellite: SUOMI NPP
#Configuration: NPP
#almurnet v.1.7.20251203
#Start time: 2026-01-16 07:30:26

#Version: 2.2.20231116
#Station: R3.2S_Murmansk_2ch
#Location: 33.079688 lon 68.888172 lat
#TLE: 1 37849U 11061A   26015.94982489  .00000054  00000+0  46705-4 0  9991
#TLE: 2 37849  98.7812 317.9902 0002438  62.0366 298.1057 14.19525452736847

#Time	Az	El	Level	Level2	SNR	BER	BlckErr	Temp	State	Recorded	gain1	gain2
2026-01-16 07:30:26.76	104.01	1.99	-49.7	-65.9	3.8	1.49e+00	0	31	0	0	66	22076
2026-01-16 07:30:27.77	103.97	2.05	-49.7	-65.9	3.8	1.49e+00	0	31	104	0	64	24696
2026-01-16 07:30:28.78	103.93	2.11	-49.7	-65.9	3.8	1.49e+00	0	31	104	0	64	24704
2026-01-16 07:30:29.79	103.88	2.17	-49.7	-65.9	3.8	1.49e+00	0	31	104	0	64	24747
2026-01-16 07:30:30.79	103.84	2.23	-49.7	-65.9	3.8	1.49e+00	0	31	104	0	64	24719
2026-01-16 07:30:31.80	103.79	2.30	-49.7	-65.8	3.8	1.49e+00	0	31	104	0	64	24647
2026-01-16 07:30:32.81	103.75	2.36	-49.7	-65.8	3.8	1.49e+00	0	31	104	0	64	24683
2026-01-16 07:30:33.82	103.70	2.42	-49.7	-65.9	3.8	1.49e+00	0	31	104	0	64	24736
2026-01-16 07:30:34.82	103.65	2.48	-49.7	-65.8	3.8	1.49e+00	0	31	104	0	64	24639
2026-01-16 07:30:35.84	103.61	2.55	-49.7	-65.8	3.8	1.49e+00	0	31	104	0	64	24567
2026-01-16 07:30:36.85	103.56	2.61	-49.7	-65.8	3.8	1.49e+00	0	32	104	0	64	24663
2026-01-16 07:30:37.86	103.52	2.67	-49.7	-65.8	3.8	1.49e+00	0	31	104	0	64	24629
2026-01-16 07:30:38.86	103.47	2.73	-49.7	-65.8	3.8	1.49e+00	0	31	104	0	64	24492
2026-01-16 07:30:39.87	103.42	2.80	-49.7	-65.8	3.8	1.49e+00	0	31	104	0	64	24629
2026-01-16 07:30:40.88	103.38	2.86	-49.7	-65.8	3.8	1.49e+00	0	32	104	0	64	24673
2026-01-16 07:30:41.89	103.33	2.92	-49.7	-65.9	3.8	1.49e+00	0	31	104	0	64	24742
2026-01-16 07:30:42.90	103.28	2.98	-49.7	-65.9	3.8	1.49e+00	0	31	104	0	64	24699
2026-01-16 07:30:43.91	103.23	3.05	-49.7	-65.9	3.8	1.49e+00	0	31	104	0	64	24721
2026-01-16 07:30:44.92	103.18	3.11	-49.7	-65.8	3.8	1.49e+00	0	32	104	0	64	24663
2026-01-16 07:30:45.93	103.14	3.18	-49.7	-65.8	3.8	1.49e+00	0	32	104	0	64	24571
2026-01-16 07:30:46.94	103.09	3.24	-49.7	-65.8	3.8	1.49e+00	0	32	104	0	64	24564
2026-01-16 07:30:47.95	103.04	3.30	-49.7	-65.8	3.8	1.49e+00	0	32	104	0	64	24428
2026-01-16 07:30:48.95	102.99	3.37	-49.7	-65.7	3.8	1.49e+00	0	32	104	0	64	24195
2026-01-16 07:30:49.96	102.94	3.43	-49.7	-65.7	3.8	1.49e+00	0	32	104	0	64	24317
2026-01-16 07:30:50.97	102.89	3.49	-49.7	-65.7	3.8	1.49e+00	0	32	104	0	64	24352
2026-01-16 07:30:51.98	102.84	3.56	-49.7	-65.8	3.8	1.49e+00	0	32	104	0	64	24610
2026-01-16 07:30:52.99	102.79	3.62	-49.7	-65.9	3.8	1.49e+00	0	32	104	0	64	24728
2026-01-16 07:30:54.00	102.74	3.69	-49.7	-65.9	3.8	1.49e+00	0	32	104	0	64	24733
2026-01-16 07:30:55.01	102.69	3.75	-49.7	-65.7	3.8	1.49e+00	0	32	104	0	64	24351
2026-01-16 07:30:56.02	102.64	3.82	-49.7	-65.5	3.8	1.49e+00	0	32	104	0	64	23714
2026-01-16 07:30:57.03	102.59	3.88	-49.7	-65.1	3.8	1.49e+00	0	32	104	0	64	22637
2026-01-16 07:30:58.04	102.54	3.95	-49.7	-64.7	3.8	1.49e+00	0	32	104	0	64	21576
2026-01-16 07:30:59.04	102.49	4.01	-49.6	-64.0	3.8	1.49e+00	0	32	104	0	64	19947
2026-01-16 07:31:00.05	102.44	4.08	-49.6	-63.1	3.9	1.49e+00	0	32	104	0	64	17934
2026-01-16 07:31:01.05	102.39	4.14	-49.6	-62.3	4.2	1.39e+00	0	32	0	0	64	16342
2026-01-16 07:31:02.06	102.34	4.21	-49.5	-61.6	4.4	1.34e+00	62	32	0	0	64	15092
2026-01-16 07:31:03.07	102.28	4.27	-49.5	-60.9	4.7	9.72e-01	0	32	0	2097152	64	14025
2026-01-16 07:31:04.08	102.23	4.34	-49.4	-60.1	5.1	6.09e-01	0	32	0	4194304	64	12751
2026-01-16 07:31:05.09	102.18	4.41	-49.3	-58.8	5.9	4.62e-01	0	32	0	5242880	64	10951
2026-01-16 07:31:06.10	102.13	4.47	-49.2	-58.6	6.0	3.16e-01	0	32	0	7340032	64	10733
2026-01-16 07:31:07.11	102.07	4.54	-49.2	-58.0	6.4	2.46e-01	0	32	0	9437184	64	10016
2026-01-16 07:31:08.12	102.02	4.60	-49.0	-57.4	6.9	1.65e-01	0	32	0	11534336	64	9325
2026-01-16 07:31:09.12	101.97	4.67	-49.0	-56.9	7.3	1.54e-01	0	32	0	13631488	64	8833
2026-01-16 07:31:10.13	101.91	4.74	-49.0	-56.9	7.3	9.73e-02	0	32	0	14680064	64	8849
2026-01-16 07:31:11.14	101.86	4.80	-48.9	-56.8	7.4	9.70e-02	0	32	0	16777216	64	8673
2026-01-16 07:31:12.15	101.80	4.87	-49.0	-57.3	6.9	9.99e-02	0	32	0	18874368	64	9252
2026-01-16 07:31:13.16	101.75	4.94	-49.0	-57.2	7.1	1.31e-01	0	32	0	20971520	64	9092
2026-01-16 07:31:14.17	101.69	5.01	-49.1	-57.6	6.8	1.54e-01	0	32	0	23068672	64	9520
2026-01-16 07:31:15.18	101.64	5.07	-49.2	-58.3	6.2	2.19e-01	0	32	0	24117248	64	10312
2026-01-16 07:31:16.19	101.58	5.14	-48.9	-56.2	8.1	1.42e-01	0	32	0	26214400	64	8121
2026-01-16 07:31:17.20	101.53	5.21	-49.0	-56.6	7.7	5.90e-02	0	32	0	28311552	64	8513
2026-01-16 07:31:18.21	101.47	5.28	-49.7	-63.9	3.8	5.89e-01	0	32	104	29360128	64	19716
2026-01-16 07:31:19.22	101.41	5.35	-47.7	-52.0	11.8	4.57e-01	0	32	0	29360128	61	5978
2026-01-16 07:31:20.23	101.36	5.41	-49.7	-61.0	4.7	4.92e-01	0	32	0	31457280	64	14123
2026-01-16 07:31:21.24	101.30	5.48	-47.9	-52.4	11.6	2.75e-02	0	32	0	33554432	62	5866
2026-01-16 07:31:22.25	101.24	5.55	-47.5	-51.6	12.1	4.04e-05	0	32	0	35651584	61	5697
2026-01-16 07:31:23.25	101.19	5.62	-47.8	-52.2	11.8	1.14e-05	0	32	0	36700160	61	6078
2026-01-16 07:31:24.26	101.13	5.69	-47.9	-52.4	11.7	7.09e-05	0	32	0	38797312	61	6215
2026-01-16 07:31:25.27	101.07	5.76	-47.7	-52.0	11.8	7.55e-05	0	32	0	40894464	61	5989
2026-01-16 07:31:26.28	101.01	5.83	-47.9	-52.4	11.5	3.28e-05	0	32	0	42991616	61	6240
2026-01-16 07:31:27.29	100.95	5.89	-47.7	-52.0	11.9	3.12e-05	0	32	0	45088768	61	5945
2026-01-16 07:31:28.30	100.89	5.96	-47.6	-51.8	12.1	2.28e-05	0	32	0	46137344	61	5801
2026-01-16 07:31:29.31	100.84	6.03	-47.3	-51.1	12.7	8.30e-06	0	32	0	48234496	61	5343
2026-01-16 07:31:30.32	100.78	6.10	-47.0	-50.6	12.9	0.00e+00	0	32	0	50331648	60	5376
2026-01-16 07:31:31.33	100.72	6.17	-46.9	-50.4	13.1	0.00e+00	0	32	0	52428800	60	5259
2026-01-16 07:31:32.34	100.66	6.24	-46.8	-50.2	13.2	0.00e+00	0	32	0	54525952	60	5124
2026-01-16 07:31:33.35	100.60	6.31	-46.9	-50.2	13.5	0.00e+00	0	32	0	56623104	59	5407
2026-01-16 07:31:34.35	100.54	6.38	-47.1	-50.5	13.3	0.00e+00	0	32	0	57671680	59	5611
2026-01-16 07:31:35.36	100.47	6.45	-46.9	-50.2	13.5	0.00e+00	0	33	0	59768832	59	5435
2026-01-16 07:31:36.37	100.41	6.52	-47.0	-50.3	13.4	0.00e+00	0	32	0	61865984	59	5504
2026-01-16 07:31:37.38	100.35	6.60	-47.0	-50.3	13.4	0.00e+00	0	32	0	63963136	59	5510
2026-01-16 07:31:38.39	100.29	6.67	-47.2	-50.8	13.0	1.50e-06	0	32	0	66060288	59	5848
2026-01-16 07:31:39.40	100.23	6.74	-47.1	-50.6	13.3	0.00e+00	0	33	0	67108864	59	5691
2026-01-16 07:31:40.41	100.16	6.81	-47.2	-50.7	13.2	0.00e+00	0	33	0	69206016	59	5748
2026-01-16 07:31:41.42	100.10	6.88	-46.8	-50.0	13.7	0.00e+00	0	32	0	71303168	59	5337
2026-01-16 07:31:42.43	100.04	6.95	-47.0	-50.4	13.4	0.00e+00	0	33	0	73400320	59	5530
2026-01-16 07:31:43.44	99.97	7.02	-47.1	-50.5	13.3	7.00e-07	0	32	0	75497472	59	5621
2026-01-16 07:31:44.45	99.91	7.10	-47.1	-50.5	13.3	0.00e+00	0	32	0	76546048	59	5633
2026-01-16 07:31:45.46	99.85	7.17	-47.0	-50.3	13.5	0.00e+00	0	32	0	78643200	59	5468
2026-01-16 07:31:46.47	99.78	7.24	-47.0	-50.3	13.5	7.00e-07	0	33	0	80740352	59	5509
2026-01-16 07:31:47.48	99.72	7.31	-46.9	-50.2	13.5	0.00e+00	0	33	0	82837504	59	5415
2026-01-16 07:31:48.48	99.65	7.38	-46.9	-50.1	13.6	0.00e+00	0	33	0	84934656	59	5399
2026-01-16 07:31:49.49	99.59	7.46	-46.9	-50.1	13.7	0.00e+00	0	33	0	85983232	59	5378
2026-01-16 07:31:50.50	99.52	7.53	-46.8	-50.0	13.8	0.00e+00	0	33	0	88080384	59	5292
2026-01-16 07:31:51.51	99.45	7.60	-47.1	-50.5	13.4	0.00e+00	0	32	0	90177536	59	5599
2026-01-16 07:31:52.52	99.39	7.68	-47.1	-50.4	13.4	0.00e+00	0	33	0	92274688	59	5558
2026-01-16 07:31:53.53	99.32	7.75	-47.0	-50.2	13.6	0.00e+00	0	33	0	94371840	59	5454
2026-01-16 07:31:54.53	99.25	7.82	-46.8	-50.0	13.7	7.00e-07	0	32	0	95420416	59	5281
2026-01-16 07:31:55.54	99.18	7.90	-46.9	-50.1	13.7	0.00e+00	0	32	0	97517568	59	5353
2026-01-16 07:31:56.55	99.12	7.97	-46.6	-50.1	13.6	0.00e+00	0	33	0	99614720	59	5361
2026-01-16 07:31:57.56	99.05	8.05	-46.4	-49.8	13.8	0.00e+00	0	33	0	101711872	59	5181
2026-01-16 07:31:58.57	98.98	8.12	-46.4	-49.7	13.9	0.00e+00	0	32	0	103809024	59	5124
2026-01-16 07:31:59.58	98.91	8.20	-46.4	-49.8	13.8	0.00e+00	0	33	0	104857600	59	5195
2026-01-16 07:32:00.59	98.84	8.27	-46.4	-49.8	13.8	0.00e+00	0	33	0	106954752	59	5173
2026-01-16 07:32:01.60	98.77	8.34	-46.5	-50.0	13.6	0.00e+00	0	33	0	109051904	59	5324
2026-01-16 07:32:02.61	98.70	8.42	-46.3	-49.6	13.9	0.00e+00	0	33	0	111149056	59	5063
2026-01-16 07:32:03.62	98.63	8.50	-46.3	-49.7	13.8	0.00e+00	0	33	0	113246208	59	5146
2026-01-16 07:32:04.62	98.56	8.57	-46.4	-49.8	13.8	0.00e+00	0	33	0	114294784	59	5181
2026-01-16 07:32:05.63	98.49	8.65	-46.5	-50.1	13.6	0.00e+00	0	33	0	116391936	59	5341
2026-01-16 07:32:06.64	98.42	8.72	-46.4	-49.8	13.8	0.00e+00	0	33	0	118489088	59	5160
2026-01-16 07:32:07.65	98.34	8.80	-46.4	-49.8	13.8	0.00e+00	0	33	0	120586240	59	5204
2026-01-16 07:32:08.66	98.27	8.87	-46.4	-49.8	13.8	0.00e+00	0	33	0	122683392	58	5482
2026-01-16 07:32:09.67	98.20	8.95	-46.3	-49.7	13.9	0.00e+00	0	33	0	124780544	58	5403
2026-01-16 07:32:10.68	98.12	9.03	-46.0	-49.1	14.3	0.00e+00	0	33	0	125829120	58	5049
2026-01-16 07:32:11.69	98.05	9.10	-45.8	-48.9	14.3	0.00e+00	0	33	0	127926272	58	4964
2026-01-16 07:32:12.70	97.98	9.18	-45.9	-49.1	14.3	0.00e+00	0	33	0	130023424	58	5051
2026-01-16 07:32:13.71	97.90	9.26	-45.9	-48.9	14.3	0.00e+00	0	33	0	132120576	58	4977
2026-01-16 07:32:14.72	97.83	9.34	-46.0	-49.2	14.2	0.00e+00	0	33	0	134217728	58	5136
2026-01-16 07:32:15.73	97.75	9.41	-46.0	-49.2	14.2	0.00e+00	0	33	0	135266304	58	5141
2026-01-16 07:32:16.74	97.67	9.49	-45.8	-48.8	14.4	0.00e+00	0	33	0	137363456	58	4906
2026-01-16 07:32:17.75	97.60	9.57	-45.9	-49.0	14.3	0.00e+00	0	33	0	139460608	58	5025
2026-01-16 07:32:18.75	97.52	9.65	-45.8	-48.9	14.4	0.00e+00	0	33	0	141557760	58	4950
2026-01-16 07:32:19.76	97.45	9.72	-45.9	-49.0	14.3	0.00e+00	0	33	0	143654912	58	4988
2026-01-16 07:32:20.77	97.37	9.80	-45.8	-48.8	14.4	0.00e+00	0	33	0	144703488	58	4924
2026-01-16 07:32:21.78	97.29	9.88	-45.9	-48.9	14.4	0.00e+00	0	33	0	146800640	58	4980
2026-01-16 07:32:22.79	97.21	9.96	-45.8	-48.8	14.4	0.00e+00	0	33	0	148897792	58	4896
2026-01-16 07:32:23.80	97.13	10.04	-45.2	-48.4	14.5	0.00e+00	0	33	0	150994944	57	4961
2026-01-16 07:32:24.81	97.05	10.12	-45.5	-48.4	14.7	0.00e+00	0	33	0	153092096	57	4942
2026-01-16 07:32:25.82	96.97	10.20	-45.5	-48.3	14.7	0.00e+00	0	33	0	154140672	57	4926
2026-01-16 07:32:26.83	96.89	10.28	-45.5	-48.3	14.7	0.00e+00	0	33	0	156237824	57	4912
2026-01-16 07:32:27.84	96.81	10.36	-45.6	-48.4	14.6	0.00e+00	0	33	0	158334976	57	4973
2026-01-16 07:32:28.85	96.73	10.44	-45.6	-48.5	14.6	0.00e+00	0	33	0	160432128	57	4984
2026-01-16 07:32:29.85	96.65	10.52	-45.5	-48.3	14.7	0.00e+00	0	33	0	162529280	57	4922
2026-01-16 07:32:30.86	96.57	10.60	-45.6	-48.6	14.6	0.00e+00	0	33	0	163577856	57	5046
2026-01-16 07:32:31.87	96.48	10.68	-45.7	-48.6	14.6	0.00e+00	0	33	0	165675008	57	5052
2026-01-16 07:32:32.88	96.40	10.76	-45.7	-48.6	14.6	0.00e+00	0	33	0	167772160	57	5045
2026-01-16 07:32:33.89	96.32	10.84	-45.7	-48.6	14.6	0.00e+00	0	33	0	169869312	57	5046
2026-01-16 07:32:34.90	96.23	10.92	-45.6	-48.4	14.7	0.00e+00	0	33	0	171966464	57	4974
2026-01-16 07:32:35.91	96.15	11.00	-45.5	-48.3	14.8	0.00e+00	0	33	0	173015040	57	4915
2026-01-16 07:32:36.92	96.06	11.09	-45.7	-48.5	14.6	0.00e+00	0	33	0	175112192	57	5029
2026-01-16 07:32:37.93	95.98	11.17	-45.6	-48.5	14.6	0.00e+00	0	33	0	177209344	57	5005
2026-01-16 07:32:38.94	95.89	11.25	-45.6	-48.4	14.7	0.00e+00	0	33	0	179306496	57	4948
2026-01-16 07:32:39.95	95.81	11.33	-45.9	-48.9	14.4	0.00e+00	0	33	0	181403648	57	5259
2026-01-16 07:32:40.95	95.72	11.41	-45.7	-48.5	14.7	0.00e+00	0	33	0	182452224	57	5021
2026-01-16 07:32:41.96	95.63	11.50	-45.7	-48.5	14.6	0.00e+00	0	33	0	184549376	57	5034
2026-01-16 07:32:42.97	95.54	11.58	-45.7	-48.6	14.5	0.00e+00	0	33	0	186646528	57	5078
2026-01-16 07:32:43.98	95.46	11.66	-45.9	-48.9	14.4	0.00e+00	0	33	0	188743680	57	5225
2026-01-16 07:32:44.99	95.37	11.75	-45.8	-48.7	14.5	0.00e+00	0	33	0	190840832	57	5123
2026-01-16 07:32:46.00	95.28	11.83	-45.9	-48.9	14.4	0.00e+00	0	33	0	191889408	57	5266
2026-01-16 07:32:47.01	95.19	11.91	-46.0	-49.0	14.4	0.00e+00	0	33	0	193986560	57	5322
2026-01-16 07:32:48.02	95.10	12.00	-46.0	-49.0	14.4	0.00e+00	0	33	0	196083712	57	5318
2026-01-16 07:32:49.03	95.00	12.08	-45.7	-48.5	14.7	0.00e+00	0	33	0	198180864	57	5008
2026-01-16 07:32:50.04	94.91	12.17	-45.7	-48.5	14.7	0.00e+00	0	33	0	200278016	57	5008
2026-01-16 07:32:51.05	94.82	12.25	-45.7	-48.5	14.7	0.00e+00	0	33	0	201326592	57	4994
2026-01-16 07:32:52.06	94.73	12.34	-45.6	-48.3	14.8	0.00e+00	0	33	0	203423744	57	4916
2026-01-16 07:32:53.07	94.63	12.42	-45.6	-48.4	14.8	0.00e+00	0	33	0	205520896	57	4959
2026-01-16 07:32:54.08	94.54	12.51	-45.5	-48.2	14.8	0.00e+00	0	33	0	207618048	57	4867
2026-01-16 07:32:55.09	94.45	12.59	-45.6	-48.3	14.8	0.00e+00	0	33	0	209715200	57	4911
2026-01-16 07:32:56.10	94.35	12.68	-45.6	-48.3	14.8	0.00e+00	0	33	0	210763776	57	4905
2026-01-16 07:32:57.10	94.26	12.77	-45.5	-48.3	14.8	0.00e+00	0	33	0	212860928	57	4897
2026-01-16 07:32:58.11	94.16	12.85	-45.5	-48.3	14.8	0.00e+00	0	33	0	214958080	57	4896
2026-01-16 07:32:59.12	94.06	12.94	-45.4	-48.1	14.9	0.00e+00	0	33	0	217055232	57	4776
2026-01-16 07:33:00.13	93.97	13.02	-45.4	-48.0	14.9	0.00e+00	0	33	0	219152384	57	4756
2026-01-16 07:33:01.14	93.87	13.11	-45.2	-47.8	15.1	0.00e+00	0	33	0	221249536	57	4618
2026-01-16 07:33:02.15	93.77	13.20	-45.2	-47.8	15.1	0.00e+00	0	33	0	222298112	57	4634
2026-01-16 07:33:03.16	93.67	13.29	-45.3	-47.9	15.1	0.00e+00	0	33	0	224395264	57	4670
2026-01-16 07:33:04.17	93.57	13.37	-45.4	-48.1	14.9	0.00e+00	0	33	0	226492416	57	4767
2026-01-16 07:33:05.18	93.47	13.46	-45.4	-48.0	15.0	0.00e+00	0	33	0	228589568	57	4749
2026-01-16 07:33:06.19	93.37	13.55	-45.3	-47.9	15.1	0.00e+00	0	33	0	230686720	57	4670
2026-01-16 07:33:07.20	93.27	13.64	-45.3	-47.8	15.1	0.00e+00	0	33	0	231735296	57	4617
2026-01-16 07:33:08.20	93.17	13.73	-45.5	-48.1	15.0	0.00e+00	0	33	0	233832448	57	4782
2026-01-16 07:33:09.21	93.06	13.82	-45.3	-47.9	15.1	0.00e+00	0	33	0	235929600	57	4660
2026-01-16 07:33:10.22	92.96	13.90	-45.3	-47.7	15.2	0.00e+00	0	33	0	238026752	56	4867
2026-01-16 07:33:11.23	92.85	13.99	-45.3	-47.8	15.1	0.00e+00	0	33	0	240123904	56	4912
2026-01-16 07:33:12.24	92.75	14.08	-45.2	-47.6	15.2	0.00e+00	0	33	0	241172480	56	4767
2026-01-16 07:33:13.25	92.64	14.17	-45.2	-47.6	15.2	0.00e+00	0	33	0	243269632	56	4805
2026-01-16 07:33:14.26	92.54	14.26	-45.2	-47.6	15.2	0.00e+00	0	33	0	245366784	56	4794
2026-01-16 07:33:15.27	92.43	14.35	-45.2	-47.6	15.2	0.00e+00	0	33	0	247463936	56	4804
2026-01-16 07:33:16.28	92.32	14.44	-45.2	-47.7	15.2	0.00e+00	0	33	0	249561088	56	4823
2026-01-16 07:33:17.29	92.22	14.53	-45.1	-47.5	15.3	0.00e+00	0	33	0	250609664	56	4712
2026-01-16 07:33:18.30	92.11	14.62	-45.1	-47.5	15.3	0.00e+00	0	33	0	252706816	56	4728
2026-01-16 07:33:19.31	92.00	14.72	-45.0	-47.3	15.3	0.00e+00	0	33	0	254803968	56	4602
2026-01-16 07:33:20.32	91.89	14.81	-45.0	-47.3	15.3	0.00e+00	0	33	0	256901120	56	4621
2026-01-16 07:33:21.32	91.78	14.90	-45.2	-47.5	15.2	0.00e+00	0	33	0	258998272	56	4759
2026-01-16 07:33:22.34	91.66	14.99	-45.2	-47.6	15.3	0.00e+00	0	33	0	260046848	56	4781
2026-01-16 07:33:23.34	91.55	15.08	-45.1	-47.4	15.3	0.00e+00	0	33	0	262144000	56	4696
2026-01-16 07:33:24.35	91.44	15.17	-45.3	-47.6	15.2	0.00e+00	0	33	0	264241152	56	4814
2026-01-16 07:33:25.36	91.33	15.27	-45.3	-47.7	15.2	0.00e+00	0	33	0	266338304	56	4828
2026-01-16 07:33:26.37	91.21	15.36	-45.2	-47.6	15.3	0.00e+00	0	33	0	268435456	56	4771
2026-01-16 07:33:27.38	91.10	15.45	-45.2	-47.6	15.2	0.00e+00	0	33	0	269484032	56	4788
2026-01-16 07:33:28.39	90.98	15.55	-45.0	-47.3	15.4	0.00e+00	0	33	0	271581184	56	4633
2026-01-16 07:33:29.40	90.86	15.64	-45.2	-47.5	15.3	0.00e+00	0	33	0	273678336	56	4747
2026-01-16 07:33:30.41	90.75	15.73	-45.1	-47.4	15.4	0.00e+00	0	33	0	275775488	56	4700
2026-01-16 07:33:31.42	90.63	15.83	-45.2	-47.6	15.3	0.00e+00	0	33	0	277872640	56	4765
2026-01-16 07:33:32.42	90.51	15.92	-45.2	-47.6	15.2	0.00e+00	0	33	0	278921216	56	4805
2026-01-16 07:33:33.43	90.39	16.01	-45.3	-47.9	15.1	0.00e+00	0	33	0	281018368	56	4933
2026-01-16 07:33:34.44	90.27	16.11	-45.3	-47.9	15.1	0.00e+00	0	33	0	283115520	56	4950
2026-01-16 07:33:35.45	90.15	16.20	-45.3	-47.8	15.1	0.00e+00	0	33	0	285212672	56	4920
2026-01-16 07:33:36.46	90.03	16.30	-45.3	-47.9	15.1	0.00e+00	0	33	0	287309824	56	4939
2026-01-16 07:33:37.47	89.90	16.39	-45.4	-48.0	15.0	0.00e+00	0	33	0	289406976	56	5019
2026-01-16 07:33:38.48	89.78	16.49	-45.1	-47.5	15.3	0.00e+00	0	33	0	290455552	56	4746
2026-01-16 07:33:39.49	89.66	16.59	-45.2	-47.7	15.2	0.00e+00	0	33	0	292552704	56	4863
2026-01-16 07:33:40.50	89.53	16.68	-45.2	-47.7	15.2	0.00e+00	0	33	0	294649856	56	4844
2026-01-16 07:33:41.51	89.40	16.78	-45.0	-47.4	15.4	0.00e+00	0	33	0	296747008	56	4673
2026-01-16 07:33:42.52	89.28	16.87	-45.3	-47.8	15.2	0.00e+00	0	33	0	298844160	56	4897
2026-01-16 07:33:43.53	89.15	16.97	-45.4	-47.9	15.1	0.00e+00	0	33	0	299892736	56	4970
2026-01-16 07:33:44.54	89.02	17.07	-45.3	-47.8	15.2	0.00e+00	0	33	0	301989888	56	4903
2026-01-16 07:33:45.55	88.89	17.17	-45.4	-48.0	15.1	0.00e+00	0	33	0	304087040	56	4997
2026-01-16 07:33:46.56	88.76	17.26	-45.1	-47.6	15.3	0.00e+00	0	33	0	306184192	56	4771
2026-01-16 07:33:47.57	88.63	17.36	-45.0	-47.3	15.4	0.00e+00	0	33	0	308281344	56	4650
2026-01-16 07:33:48.57	88.50	17.46	-45.0	-47.3	15.5	0.00e+00	0	33	0	309329920	56	4605
2026-01-16 07:33:49.58	88.37	17.56	-44.8	-47.0	15.6	0.00e+00	0	33	0	311427072	56	4489
2026-01-16 07:33:50.59	88.23	17.65	-45.0	-47.4	15.4	0.00e+00	0	33	0	313524224	56	4653
2026-01-16 07:33:51.60	88.10	17.75	-45.2	-47.5	15.3	0.00e+00	0	33	0	315621376	56	4754
2026-01-16 07:33:52.61	87.96	17.85	-45.3	-47.8	15.3	0.00e+00	0	33	0	317718528	56	4903
2026-01-16 07:33:53.62	87.83	17.95	-45.5	-48.0	15.1	0.00e+00	0	33	0	318767104	56	5009
2026-01-16 07:33:54.63	87.69	18.05	-45.6	-48.3	15.0	0.00e+00	0	33	0	320864256	56	5172
2026-01-16 07:33:55.63	87.55	18.15	-45.5	-47.9	15.1	0.00e+00	0	33	0	322961408	56	4978
2026-01-16 07:33:56.65	87.41	18.25	-45.4	-47.8	15.2	0.00e+00	0	33	0	325058560	56	4891
2026-01-16 07:33:57.66	87.27	18.35	-45.4	-47.8	15.3	0.00e+00	0	33	0	327155712	56	4887
2026-01-16 07:33:58.66	87.13	18.45	-45.4	-47.8	15.2	0.00e+00	0	33	0	328204288	56	4900
2026-01-16 07:33:59.67	86.99	18.55	-45.6	-48.1	15.0	0.00e+00	0	33	0	330301440	56	5082
2026-01-16 07:34:00.68	86.84	18.65	-46.0	-48.7	14.8	0.00e+00	0	33	0	332398592	57	5112
2026-01-16 07:34:01.69	86.70	18.75	-46.1	-49.0	14.6	0.00e+00	0	33	0	334495744	57	5282
2026-01-16 07:34:02.70	86.56	18.85	-46.2	-49.1	14.5	0.00e+00	0	33	0	336592896	57	5384
2026-01-16 07:34:03.71	86.41	18.95	-46.0	-48.7	14.8	0.00e+00	0	33	0	337641472	57	5125
2026-01-16 07:34:04.72	86.26	19.06	-45.9	-48.6	14.8	0.00e+00	0	33	0	339738624	57	5077
2026-01-16 07:34:05.73	86.11	19.16	-45.9	-48.5	14.8	0.00e+00	0	33	0	341835776	57	5040
2026-01-16 07:34:06.74	85.97	19.26	-45.7	-48.4	14.9	0.00e+00	0	33	0	343932928	57	4948
2026-01-16 07:34:07.75	85.82	19.36	-45.7	-48.3	15.0	0.00e+00	0	33	0	346030080	57	4920
2026-01-16 07:34:08.75	85.67	19.46	-45.8	-48.4	14.9	0.00e+00	0	33	0	347078656	57	4981
2026-01-16 07:34:09.76	85.51	19.56	-45.6	-48.2	15.1	0.00e+00	0	33	0	349175808	57	4849
2026-01-16 07:34:10.77	85.36	19.67	-45.8	-48.5	14.8	0.00e+00	0	33	0	351272960	57	4992
2026-01-16 07:34:11.78	85.21	19.77	-45.5	-48.0	15.2	0.00e+00	0	33	0	353370112	57	4706
2026-01-16 07:34:12.79	85.05	19.87	-45.4	-47.9	15.1	0.00e+00	0	33	0	355467264	57	4671
2026-01-16 07:34:13.80	84.90	19.98	-45.5	-48.0	15.2	0.00e+00	0	33	0	356515840	57	4727
2026-01-16 07:34:14.81	84.74	20.08	-45.5	-48.1	15.1	0.00e+00	0	33	0	358612992	57	4772
2026-01-16 07:34:15.82	84.58	20.18	-45.7	-48.3	15.0	0.00e+00	0	33	0	360710144	57	4909
2026-01-16 07:34:16.82	84.42	20.29	-45.7	-48.4	14.9	0.00e+00	0	33	0	362807296	57	4958
2026-01-16 07:34:17.84	84.26	20.39	-45.4	-48.0	15.2	0.00e+00	0	33	0	364904448	57	4708
2026-01-16 07:34:18.84	84.10	20.50	-45.6	-48.2	15.1	0.00e+00	0	33	0	365953024	57	4823
2026-01-16 07:34:19.85	83.94	20.60	-45.5	-48.0	15.2	0.00e+00	0	33	0	368050176	57	4746
2026-01-16 07:34:20.86	83.77	20.71	-45.5	-48.0	15.2	0.00e+00	0	33	0	370147328	57	4733
2026-01-16 07:34:21.87	83.61	20.81	-45.7	-48.4	15.0	0.00e+00	0	33	0	372244480	57	4933
2026-01-16 07:34:22.88	83.44	20.92	-45.6	-48.1	15.1	0.00e+00	0	33	0	374341632	57	4811
2026-01-16 07:34:23.89	83.27	21.02	-45.8	-48.4	15.0	0.00e+00	0	33	0	375390208	57	4969
2026-01-16 07:34:24.90	83.10	21.13	-45.5	-48.0	15.1	0.00e+00	0	33	0	377487360	57	4758
2026-01-16 07:34:25.91	82.93	21.23	-45.3	-47.8	15.3	0.00e+00	0	33	0	379584512	57	4606
2026-01-16 07:34:26.92	82.76	21.34	-45.5	-48.0	15.2	0.00e+00	0	33	0	381681664	57	4753
2026-01-16 07:34:27.93	82.59	21.44	-45.8	-48.3	15.0	0.00e+00	0	33	0	383778816	57	4926
2026-01-16 07:34:28.94	82.42	21.55	-45.7	-48.2	15.1	0.00e+00	0	33	0	384827392	57	4838
2026-01-16 07:34:29.95	82.24	21.66	-45.8	-48.4	15.0	0.00e+00	0	33	0	386924544	57	4930
2026-01-16 07:34:30.95	82.07	21.76	-45.9	-48.5	15.0	0.00e+00	0	33	0	389021696	57	4990
2026-01-16 07:34:31.96	81.89	21.87	-45.8	-48.4	15.0	0.00e+00	0	33	0	391118848	57	4952
2026-01-16 07:34:32.97	81.71	21.98	-45.7	-48.2	15.1	0.00e+00	0	33	0	393216000	57	4855
2026-01-16 07:34:33.98	81.53	22.08	-45.8	-48.4	15.0	0.00e+00	0	33	0	395313152	57	4952
2026-01-16 07:34:34.99	81.35	22.19	-45.9	-48.5	15.0	0.00e+00	0	33	0	396361728	57	5002
2026-01-16 07:34:36.00	81.17	22.30	-46.0	-48.7	14.8	0.00e+00	0	33	0	398458880	57	5120
2026-01-16 07:34:37.01	80.99	22.40	-46.1	-48.9	14.7	0.00e+00	0	33	0	400556032	57	5262
2026-01-16 07:34:38.02	80.80	22.51	-46.0	-48.8	14.8	0.00e+00	0	33	0	402653184	57	5215
2026-01-16 07:34:39.03	80.62	22.62	-46.1	-49.0	14.7	0.00e+00	0	33	0	404750336	57	5309
2026-01-16 07:34:40.04	80.43	22.73	-46.3	-49.3	14.4	0.00e+00	0	33	0	405798912	57	5490
2026-01-16 07:34:41.05	80.24	22.83	-46.1	-49.0	14.6	0.00e+00	0	33	0	407896064	57	5321
2026-01-16 07:34:42.06	80.05	22.94	-46.1	-49.1	14.6	0.00e+00	0	33	0	409993216	57	5372
2026-01-16 07:34:43.07	79.86	23.05	-46.1	-49.1	14.6	0.00e+00	0	33	0	412090368	58	5082
2026-01-16 07:34:44.07	79.67	23.16	-46.1	-49.0	14.7	0.00e+00	0	33	0	414187520	58	5022
2026-01-16 07:34:45.08	79.48	23.27	-46.0	-49.0	14.6	0.00e+00	0	33	0	415236096	58	4999
2026-01-16 07:34:46.09	79.28	23.37	-46.0	-49.0	14.7	0.00e+00	0	33	0	417333248	58	4999
2026-01-16 07:34:47.10	79.09	23.48	-45.8	-48.7	14.8	0.00e+00	0	33	0	419430400	58	4853
2026-01-16 07:34:48.11	78.89	23.59	-45.8	-48.5	14.9	0.00e+00	0	33	0	421527552	58	4757
2026-01-16 07:34:49.12	78.69	23.70	-45.6	-48.3	15.1	0.00e+00	0	33	0	423624704	57	4909
2026-01-16 07:34:50.13	78.49	23.81	-45.6	-48.2	15.1	0.00e+00	0	33	0	424673280	57	4838
2026-01-16 07:34:51.14	78.28	23.92	-45.6	-48.1	15.2	0.00e+00	0	33	0	426770432	57	4798
2026-01-16 07:34:52.15	78.08	24.03	-45.5	-48.0	15.2	0.00e+00	0	33	0	428867584	57	4742
2026-01-16 07:34:53.16	77.88	24.14	-45.8	-48.4	15.1	0.00e+00	0	33	0	430964736	57	4963
2026-01-16 07:34:54.17	77.67	24.24	-45.7	-48.3	15.1	0.00e+00	0	33	0	433061888	57	4923
2026-01-16 07:34:55.18	77.46	24.35	-45.5	-48.0	15.2	0.00e+00	0	33	0	434110464	57	4751
2026-01-16 07:34:56.19	77.25	24.46	-45.5	-48.0	15.2	0.00e+00	0	33	0	436207616	57	4723
2026-01-16 07:34:57.20	77.04	24.57	-45.5	-47.9	15.3	0.00e+00	0	33	0	438304768	57	4669
2026-01-16 07:34:58.21	76.83	24.68	-45.6	-48.1	15.2	0.00e+00	0	33	0	440401920	57	4792
2026-01-16 07:34:59.21	76.62	24.79	-45.8	-48.4	15.0	0.00e+00	0	33	0	442499072	57	4942
2026-01-16 07:35:00.22	76.40	24.90	-45.8	-48.4	15.0	0.00e+00	0	33	0	443547648	57	4971
2026-01-16 07:35:01.23	76.19	25.01	-45.8	-48.5	15.0	0.00e+00	0	33	0	445644800	57	5003
2026-01-16 07:35:02.24	75.97	25.12	-45.8	-48.4	15.1	0.00e+00	0	33	0	447741952	57	4942
2026-01-16 07:35:03.25	75.75	25.22	-45.9	-48.4	15.0	0.00e+00	0	33	0	449839104	57	4979
2026-01-16 07:35:04.26	75.53	25.33	-45.5	-48.0	15.2	0.00e+00	0	33	0	451936256	57	4731
2026-01-16 07:35:05.27	75.30	25.44	-45.7	-48.2	15.1	0.00e+00	0	33	0	452984832	57	4850
2026-01-16 07:35:06.28	75.08	25.55	-45.7	-48.2	15.1	0.00e+00	0	33	0	455081984	57	4825
2026-01-16 07:35:07.29	74.85	25.66	-45.4	-47.8	15.3	0.00e+00	0	33	0	457179136	57	4636
2026-01-16 07:35:08.29	74.63	25.77	-45.7	-48.3	15.1	0.00e+00	0	33	0	459276288	57	4897
2026-01-16 07:35:09.31	74.39	25.88	-45.7	-48.3	15.1	0.00e+00	0	33	0	461373440	57	4879
2026-01-16 07:35:10.31	74.17	25.99	-45.8	-48.4	15.1	0.00e+00	0	33	0	463470592	57	4955
2026-01-16 07:35:11.32	73.93	26.09	-45.5	-48.1	15.2	0.00e+00	0	33	0	464519168	57	4764
2026-01-16 07:35:12.33	73.70	26.20	-45.4	-47.8	15.4	0.00e+00	0	33	0	466616320	57	4630
2026-01-16 07:35:13.34	73.46	26.31	-45.4	-47.9	15.3	0.00e+00	0	33	0	468713472	57	4669
2026-01-16 07:35:14.35	73.23	26.42	-45.5	-47.9	15.3	0.00e+00	0	33	0	470810624	57	4683
2026-01-16 07:35:15.36	72.99	26.53	-45.6	-48.0	15.3	0.00e+00	0	33	0	472907776	57	4722
2026-01-16 07:35:16.37	72.75	26.64	-45.8	-48.3	15.2	0.00e+00	0	33	0	473956352	57	4909
2026-01-16 07:35:17.38	72.50	26.74	-46.1	-48.7	15.0	0.00e+00	0	33	0	476053504	57	5104
2026-01-16 07:35:18.39	72.26	26.85	-46.4	-49.1	14.8	0.00e+00	0	33	0	478150656	57	5367
2026-01-16 07:35:19.40	72.02	26.96	-46.3	-49.0	14.8	0.00e+00	0	33	0	480247808	58	5031
2026-01-16 07:35:20.41	71.77	27.07	-46.5	-49.4	14.6	0.00e+00	0	33	0	482344960	58	5255
2026-01-16 07:35:21.42	71.52	27.17	-46.2	-48.9	14.9	0.00e+00	0	33	0	483393536	58	4948
2026-01-16 07:35:22.42	71.27	27.28	-46.1	-48.7	15.1	0.00e+00	0	33	0	485490688	58	4854
2026-01-16 07:35:23.44	71.02	27.39	-45.6	-48.0	15.3	0.00e+00	0	33	0	487587840	57	4724
2026-01-16 07:35:24.45	70.76	27.50	-45.3	-47.5	15.5	0.00e+00	0	33	0	489684992	57	4489
2026-01-16 07:35:25.46	70.51	27.60	-45.2	-47.4	15.6	0.00e+00	0	33	0	491782144	56	4684
2026-01-16 07:35:26.46	70.25	27.71	-45.0	-47.1	15.7	0.00e+00	0	33	0	492830720	56	4534
2026-01-16 07:35:27.47	69.99	27.81	-44.7	-46.8	15.8	0.00e+00	0	33	0	494927872	56	4374
2026-01-16 07:35:28.48	69.73	27.92	-44.8	-47.0	15.8	0.00e+00	0	33	0	497025024	56	4448
2026-01-16 07:35:29.49	69.47	28.03	-44.9	-47.1	15.7	0.00e+00	0	33	0	499122176	56	4535
2026-01-16 07:35:30.50	69.20	28.13	-44.9	-47.3	15.6	0.00e+00	0	33	0	501219328	56	4615
2026-01-16 07:35:31.51	68.94	28.24	-45.3	-48.0	15.3	0.00e+00	0	33	0	502267904	56	4991
2026-01-16 07:35:32.51	68.67	28.34	-45.5	-48.3	15.1	0.00e+00	0	33	0	504365056	56	5165
2026-01-16 07:35:33.53	68.40	28.44	-45.1	-47.6	15.5	0.00e+00	0	33	0	506462208	56	4798
2026-01-16 07:35:34.53	68.13	28.55	-45.4	-47.9	15.2	0.00e+00	0	33	0	508559360	56	4964
2026-01-16 07:35:35.54	67.86	28.65	-45.3	-47.7	15.3	0.00e+00	0	33	0	510656512	56	4830
2026-01-16 07:35:36.55	67.58	28.75	-45.6	-48.2	15.1	0.00e+00	0	33	0	511705088	56	5116
2026-01-16 07:35:37.56	67.31	28.86	-46.0	-48.8	14.8	0.00e+00	0	33	0	513802240	57	5169
2026-01-16 07:35:38.57	67.03	28.96	-46.3	-49.3	14.5	0.00e+00	0	33	0	515899392	57	5507
2026-01-16 07:35:39.58	66.75	29.06	-46.5	-49.7	14.2	0.00e+00	0	33	0	517996544	58	5463
2026-01-16 07:35:40.59	66.47	29.16	-46.8	-50.2	13.9	0.00e+00	0	33	0	520093696	58	5786
2026-01-16 07:35:41.60	66.18	29.27	-46.8	-50.3	13.9	0.00e+00	0	33	0	521142272	59	5521
2026-01-16 07:35:42.61	65.90	29.37	-47.0	-50.6	13.7	0.00e+00	0	33	0	523239424	59	5701
2026-01-16 07:35:43.62	65.61	29.47	-46.7	-50.0	14.1	0.00e+00	0	33	0	525336576	59	5319
2026-01-16 07:35:44.63	65.32	29.57	-46.5	-49.7	14.3	0.00e+00	0	33	0	527433728	59	5124
2026-01-16 07:35:45.63	65.03	29.67	-46.4	-49.3	14.5	0.00e+00	0	33	0	529530880	59	4926
2026-01-16 07:35:46.64	64.74	29.77	-46.3	-49.2	14.5	0.00e+00	0	33	0	530579456	59	4870
2026-01-16 07:35:47.65	64.44	29.86	-46.6	-49.8	14.2	0.00e+00	0	33	0	532676608	59	5193
2026-01-16 07:35:48.66	64.15	29.96	-46.6	-49.9	14.1	0.00e+00	0	33	0	534773760	59	5244
2026-01-16 07:35:49.67	63.85	30.06	-46.7	-50.0	14.0	0.00e+00	0	33	0	536870912	59	5330
2026-01-16 07:35:50.68	63.55	30.16	-46.9	-50.5	13.7	0.00e+00	0	33	0	538968064	59	5653
2026-01-16 07:35:51.69	63.24	30.25	-47.0	-50.8	13.6	0.00e+00	0	33	0	540016640	59	5797
2026-01-16 07:35:52.70	62.94	30.35	-47.3	-51.2	13.3	0.00e+00	0	33	0	542113792	59	6128
2026-01-16 07:35:53.71	62.63	30.44	-47.3	-51.2	13.3	0.00e+00	0	33	0	544210944	59	6123
2026-01-16 07:35:54.72	62.33	30.54	-47.2	-51.3	13.0	0.00e+00	0	33	0	546308096	60	5801
2026-01-16 07:35:55.73	62.02	30.63	-47.4	-51.5	12.9	0.00e+00	0	33	0	548405248	60	5991
2026-01-16 07:35:56.74	61.71	30.73	-47.7	-52.1	12.5	7.00e-07	0	33	0	549453824	60	6356
2026-01-16 07:35:57.75	61.39	30.82	-47.9	-52.7	11.9	3.96e-05	0	33	0	551550976	61	6483
2026-01-16 07:35:58.75	61.08	30.91	-47.7	-52.2	12.3	4.50e-06	0	33	0	553648128	61	6066
2026-01-16 07:35:59.76	60.77	31.00	-47.5	-51.6	12.8	7.00e-07	0	33	0	555745280	61	5711
2026-01-16 07:36:00.77	60.45	31.09	-47.2	-51.1	13.1	7.00e-07	0	33	0	557842432	60	5696
2026-01-16 07:36:01.78	60.13	31.18	-47.2	-51.2	13.1	0.00e+00	0	33	0	559939584	60	5724
2026-01-16 07:36:02.79	59.81	31.27	-47.0	-50.8	13.4	7.00e-07	0	33	0	560988160	60	5475
2026-01-16 07:36:03.80	59.48	31.36	-46.8	-50.5	13.6	0.00e+00	0	33	0	563085312	60	5287
2026-01-16 07:36:04.81	59.16	31.45	-47.1	-50.9	13.5	0.00e+00	0	33	0	565182464	59	5896
2026-01-16 07:36:05.82	58.83	31.53	-47.2	-51.1	13.4	0.00e+00	0	33	0	567279616	59	6016
2026-01-16 07:36:06.83	58.50	31.62	-47.2	-50.9	13.5	7.00e-07	0	33	0	569376768	59	5914
2026-01-16 07:36:07.84	58.17	31.71	-47.3	-51.2	13.3	0.00e+00	0	33	0	570425344	59	6069
2026-01-16 07:36:08.85	57.84	31.79	-47.0	-50.7	13.6	0.00e+00	0	33	0	572522496	59	5750
2026-01-16 07:36:09.86	57.50	31.87	-47.2	-51.1	13.4	0.00e+00	0	33	0	574619648	59	5995
2026-01-16 07:36:10.87	57.17	31.96	-47.2	-51.1	13.1	0.00e+00	0	33	0	576716800	60	5712
2026-01-16 07:36:11.88	56.83	32.04	-47.0	-50.7	13.5	0.00e+00	0	33	0	578813952	60	5444
2026-01-16 07:36:12.89	56.49	32.12	-46.9	-50.5	13.6	0.00e+00	0	33	0	579862528	60	5332
2026-01-16 07:36:13.90	56.15	32.20	-47.0	-50.8	13.4	0.00e+00	0	33	0	581959680	60	5505
2026-01-16 07:36:14.90	55.81	32.28	-47.5	-52.0	12.6	7.00e-07	0	33	0	584056832	60	6313
2026-01-16 07:36:15.91	55.46	32.35	-47.6	-52.3	12.2	1.90e-05	0	33	0	586153984	60	6513
2026-01-16 07:36:16.92	55.12	32.43	-47.1	-51.4	12.8	7.00e-07	0	33	0	588251136	60	5867
2026-01-16 07:36:17.93	54.77	32.51	-47.0	-51.1	13.3	0.00e+00	0	33	0	589299712	59	6018
2026-01-16 07:36:18.94	54.42	32.58	-47.0	-51.1	13.3	0.00e+00	0	33	0	591396864	59	6015
2026-01-16 07:36:19.95	54.07	32.66	-47.3	-51.6	13.0	0.00e+00	0	33	0	593494016	59	6357
2026-01-16 07:36:20.96	53.72	32.73	-47.2	-51.4	12.9	0.00e+00	0	33	0	595591168	60	5915
2026-01-16 07:36:21.97	53.36	32.80	-47.3	-51.4	12.9	0.00e+00	0	33	0	597688320	60	5885
2026-01-16 07:36:22.98	53.01	32.87	-47.2	-51.3	13.0	0.00e+00	0	33	0	598736896	60	5820
2026-01-16 07:36:23.99	52.65	32.94	-47.1	-51.0	13.2	0.00e+00	0	33	0	600834048	60	5648
2026-01-16 07:36:25.00	52.29	33.01	-46.8	-50.5	13.6	0.00e+00	0	33	0	602931200	60	5281
2026-01-16 07:36:26.01	51.93	33.08	-46.5	-49.9	14.2	0.00e+00	0	33	0	605028352	59	5238
2026-01-16 07:36:27.02	51.57	33.14	-46.1	-49.0	14.7	0.00e+00	0	33	0	607125504	58	5022
2026-01-16 07:36:28.02	51.21	33.21	-45.6	-48.3	15.0	0.00e+00	0	33	0	608174080	57	4886
2026-01-16 07:36:29.03	50.85	33.27	-45.0	-47.5	15.4	0.00e+00	0	33	0	610271232	56	4714
2026-01-16 07:36:30.04	50.48	33.33	-45.0	-47.5	15.4	0.00e+00	0	33	0	612368384	56	4714
2026-01-16 07:36:31.05	50.11	33.40	-45.0	-47.5	15.4	0.00e+00	0	33	0	614465536	56	4707
2026-01-16 07:36:32.06	49.74	33.46	-45.0	-47.4	15.4	0.00e+00	0	33	0	616562688	56	4697
2026-01-16 07:36:33.07	49.37	33.52	-44.9	-47.3	15.5	0.00e+00	0	33	0	617611264	56	4631
2026-01-16 07:36:34.08	49.00	33.57	-44.9	-47.4	15.5	0.00e+00	0	33	0	619708416	56	4660
2026-01-16 07:36:35.09	48.63	33.63	-45.1	-47.6	15.3	0.00e+00	0	33	0	621805568	56	4788
2026-01-16 07:36:36.10	48.26	33.68	-45.5	-48.3	15.0	0.00e+00	0	33	0	623902720	56	5169
2026-01-16 07:36:37.11	47.88	33.74	-45.8	-48.8	14.7	0.00e+00	0	33	0	625999872	56	5499
2026-01-16 07:36:38.12	47.50	33.79	-46.3	-49.6	14.4	0.00e+00	0	33	0	628097024	57	5699
2026-01-16 07:36:39.13	47.13	33.84	-46.3	-49.6	14.3	0.00e+00	0	33	0	629145600	57	5676
2026-01-16 07:36:40.14	46.75	33.89	-46.0	-49.0	14.7	0.00e+00	0	33	0	631242752	57	5313
2026-01-16 07:36:41.14	46.37	33.94	-45.6	-48.4	14.9	0.00e+00	0	33	0	633339904	57	4977
2026-01-16 07:36:42.15	45.99	33.99	-45.0	-47.4	15.4	0.00e+00	0	33	0	635437056	56	4694
2026-01-16 07:36:43.16	45.61	34.03	-44.5	-46.8	15.7	0.00e+00	0	33	0	637534208	55	4599
2026-01-16 07:36:44.17	45.22	34.08	-44.3	-46.5	15.8	0.00e+00	0	33	0	638582784	55	4481
2026-01-16 07:36:45.18	44.84	34.12	-44.6	-47.0	15.6	0.00e+00	0	33	0	640679936	55	4728
2026-01-16 07:36:46.19	44.45	34.16	-44.4	-46.6	15.7	0.00e+00	0	33	0	642777088	55	4533
2026-01-16 07:36:47.20	44.07	34.20	-44.1	-46.3	15.9	0.00e+00	0	33	0	644874240	54	4601
2026-01-16 07:36:48.20	43.68	34.24	-44.1	-46.2	15.9	0.00e+00	0	33	0	645922816	54	4588
2026-01-16 07:36:49.21	43.30	34.28	-44.5	-46.8	15.6	0.00e+00	0	33	0	648019968	54	4890
2026-01-16 07:36:50.22	42.91	34.32	-45.1	-47.6	15.3	0.00e+00	0	33	0	650117120	55	5084
2026-01-16 07:36:51.23	42.52	34.35	-45.8	-48.7	14.8	0.00e+00	0	33	0	652214272	56	5459
2026-01-16 07:36:52.24	42.13	34.38	-45.7	-48.5	14.9	0.00e+00	0	33	0	654311424	56	5284
2026-01-16 07:36:53.25	41.73	34.41	-45.5	-48.1	15.1	0.00e+00	0	33	0	656408576	56	5078
2026-01-16 07:36:54.26	41.34	34.44	-45.1	-47.5	15.4	0.00e+00	0	33	0	657457152	56	4740
2026-01-16 07:36:55.27	40.95	34.47	-45.5	-48.1	15.2	0.00e+00	0	33	0	659554304	56	5087
2026-01-16 07:36:56.28	40.56	34.50	-45.7	-48.4	15.0	0.00e+00	0	33	0	661651456	56	5254
2026-01-16 07:36:57.29	40.16	34.52	-45.9	-48.6	14.9	0.00e+00	0	33	0	663748608	57	5095
2026-01-16 07:36:58.30	39.77	34.55	-45.9	-48.6	15.0	0.00e+00	0	33	0	665845760	57	5093
2026-01-16 07:36:59.30	39.37	34.57	-46.1	-48.8	14.9	0.00e+00	0	33	0	666894336	57	5203
2026-01-16 07:37:00.32	38.97	34.59	-46.0	-48.6	15.0	0.00e+00	0	33	0	668991488	57	5072
2026-01-16 07:37:01.32	38.58	34.61	-45.8	-48.3	15.2	0.00e+00	0	33	0	671088640	57	4898
2026-01-16 07:37:02.33	38.19	34.63	-45.4	-47.8	15.4	0.00e+00	0	33	0	673185792	57	4601
2026-01-16 07:37:03.34	37.79	34.65	-45.2	-47.5	15.6	0.00e+00	0	34	0	675282944	57	4442
2026-01-16 07:37:04.35	37.39	34.66	-45.5	-47.8	15.4	0.00e+00	0	33	0	676331520	56	4910
2026-01-16 07:37:05.36	36.99	34.67	-45.8	-48.3	15.2	0.00e+00	0	34	0	678428672	56	5169
2026-01-16 07:37:06.37	36.59	34.68	-45.8	-48.3	15.2	0.00e+00	0	33	0	680525824	56	5198
2026-01-16 07:37:07.38	36.20	34.69	-45.5	-47.9	15.3	0.00e+00	0	33	0	682622976	56	4979
2026-01-16 07:37:08.39	35.80	34.70	-45.7	-48.2	15.2	0.00e+00	0	34	0	684720128	56	5159
2026-01-16 07:37:09.40	35.40	34.71	-45.9	-48.6	15.0	0.00e+00	0	33	0	685768704	57	5068
2026-01-16 07:37:10.41	35.00	34.71	-46.3	-49.1	14.8	0.00e+00	0	33	0	687865856	57	5383
2026-01-16 07:37:11.42	34.60	34.72	-46.2	-49.0	14.9	0.00e+00	0	34	0	689963008	58	4994
2026-01-16 07:37:12.43	34.20	34.72	-46.1	-48.8	14.9	0.00e+00	0	33	0	692060160	58	4907
2026-01-16 07:37:13.44	33.80	34.72	-46.1	-48.9	14.9	0.00e+00	0	33	0	694157312	58	4963
2026-01-16 07:37:14.45	33.40	34.72	-46.3	-49.3	14.6	0.00e+00	0	33	0	695205888	58	5210
2026-01-16 07:37:15.46	33.00	34.72	-46.2	-49.2	14.6	0.00e+00	0	33	0	697303040	58	5155
2026-01-16 07:37:16.47	32.60	34.71	-46.0	-48.8	14.9	0.00e+00	0	34	0	699400192	58	4909
2026-01-16 07:37:17.48	32.20	34.71	-45.9	-48.6	15.0	0.00e+00	0	33	0	701497344	58	4779
2026-01-16 07:37:18.49	31.81	34.70	-45.9	-48.6	14.9	0.00e+00	0	33	0	703594496	58	4805
2026-01-16 07:37:19.49	31.41	34.69	-46.1	-49.1	14.6	0.00e+00	0	33	0	704643072	58	5077
2026-01-16 07:37:20.50	31.01	34.68	-46.3	-49.4	14.4	0.00e+00	0	33	0	706740224	58	5274
2026-01-16 07:37:21.51	30.61	34.67	-46.2	-49.5	14.3	0.00e+00	0	34	0	708837376	58	5283
2026-01-16 07:37:22.52	30.22	34.65	-46.1	-49.3	14.5	0.00e+00	0	33	0	710934528	58	5162
2026-01-16 07:37:23.53	29.82	34.64	-45.6	-48.3	15.1	0.00e+00	0	33	0	713031680	57	4872
2026-01-16 07:37:24.54	29.42	34.62	-45.1	-47.6	15.4	0.00e+00	0	33	0	714080256	56	4781
2026-01-16 07:37:25.55	29.03	34.60	-45.1	-47.5	15.4	0.00e+00	0	33	0	716177408	56	4727
2026-01-16 07:37:26.56	28.63	34.58	-45.7	-48.5	14.9	0.00e+00	0	33	0	718274560	56	5283
2026-01-16 07:37:27.57	28.23	34.56	-46.3	-49.5	14.3	0.00e+00	0	34	0	720371712	57	5622
2026-01-16 07:37:28.58	27.84	34.54	-46.6	-50.2	13.9	0.00e+00	0	33	0	722468864	58	5740
2026-01-16 07:37:29.59	27.44	34.51	-46.8	-50.5	13.8	0.00e+00	0	33	0	724566016	58	5992
2026-01-16 07:37:30.60	27.05	34.49	-46.4	-49.8	14.2	0.00e+00	0	33	0	725614592	58	5486
2026-01-16 07:37:31.61	26.66	34.46	-46.0	-49.1	14.6	0.00e+00	0	33	0	727711744	58	5048
2026-01-16 07:37:32.62	26.27	34.43	-45.9	-48.9	14.7	0.00e+00	0	33	0	729808896	58	4938
2026-01-16 07:37:33.63	25.87	34.40	-45.9	-49.0	14.7	0.00e+00	0	33	0	731906048	58	5009
2026-01-16 07:37:34.64	25.48	34.37	-46.0	-49.2	14.6	0.00e+00	0	33	0	734003200	58	5104
2026-01-16 07:37:35.64	25.10	34.33	-46.2	-49.3	14.6	0.00e+00	0	33	0	735051776	58	5198
2026-01-16 07:37:36.65	24.71	34.30	-46.4	-49.7	14.4	0.00e+00	0	33	0	737148928	58	5437
2026-01-16 07:37:37.66	24.32	34.26	-46.4	-49.7	14.3	0.00e+00	0	33	0	739246080	58	5445
2026-01-16 07:37:38.67	23.93	34.22	-46.7	-50.3	13.9	0.00e+00	0	33	0	741343232	58	5820
2026-01-16 07:37:39.68	23.54	34.18	-46.5	-50.0	14.0	0.00e+00	0	33	0	743440384	58	5628
2026-01-16 07:37:40.69	23.16	34.14	-46.4	-49.9	14.0	0.00e+00	0	33	0	744488960	58	5567
2026-01-16 07:37:41.70	22.77	34.10	-46.4	-49.8	14.1	0.00e+00	0	33	0	746586112	58	5501
2026-01-16 07:37:42.70	22.39	34.06	-46.1	-49.3	14.5	0.00e+00	0	33	0	748683264	58	5181
2026-01-16 07:37:43.71	22.01	34.01	-45.5	-48.3	15.0	0.00e+00	0	33	0	750780416	57	4901
2026-01-16 07:37:44.72	21.63	33.97	-45.5	-48.3	15.1	0.00e+00	0	33	0	752877568	57	4888
2026-01-16 07:37:45.73	21.25	33.92	-45.6	-48.3	15.0	0.00e+00	0	33	0	753926144	57	4917
2026-01-16 07:37:46.74	20.87	33.87	-45.8	-48.7	14.8	0.00e+00	0	33	0	756023296	57	5155
2026-01-16 07:37:47.75	20.49	33.82	-46.0	-49.0	14.6	0.00e+00	0	33	0	758120448	57	5332
2026-01-16 07:37:48.76	20.12	33.77	-45.8	-48.9	14.6	0.00e+00	0	33	0	760217600	57	5256
2026-01-16 07:37:49.77	19.74	33.71	-45.8	-48.9	14.7	0.00e+00	0	33	0	762314752	57	5258
2026-01-16 07:37:50.78	19.37	33.66	-45.6	-48.5	14.9	0.00e+00	0	33	0	763363328	57	4987
2026-01-16 07:37:51.79	18.99	33.60	-45.7	-48.6	15.0	0.00e+00	0	33	0	765460480	57	5071
2026-01-16 07:37:52.80	18.62	33.55	-45.4	-48.2	15.1	0.00e+00	0	33	0	767557632	57	4840
2026-01-16 07:37:53.80	18.25	33.49	-45.2	-47.8	15.3	0.00e+00	0	33	0	769654784	57	4642
2026-01-16 07:37:54.81	17.88	33.43	-45.1	-47.7	15.3	0.00e+00	0	33	0	771751936	56	4864
2026-01-16 07:37:55.82	17.52	33.37	-45.3	-48.1	15.1	0.00e+00	0	33	0	772800512	56	5062
2026-01-16 07:37:56.83	17.15	33.31	-45.7	-48.7	14.8	0.00e+00	0	33	0	774897664	56	5457
2026-01-16 07:37:57.84	16.79	33.24	-46.4	-49.9	14.1	0.00e+00	0	33	0	776994816	57	5872
2026-01-16 07:37:58.85	16.42	33.18	-46.7	-50.4	13.8	0.00e+00	0	33	0	779091968	58	5868
2026-01-16 07:37:59.86	16.06	33.11	-46.6	-50.1	14.0	0.00e+00	0	33	0	781189120	58	5672
2026-01-16 07:38:00.87	15.70	33.05	-46.2	-49.2	14.6	0.00e+00	0	33	0	782237696	58	5158
2026-01-16 07:38:01.88	15.34	32.98	-45.5	-48.2	15.1	0.00e+00	0	33	0	784334848	57	4827
2026-01-16 07:38:02.89	14.98	32.91	-45.1	-47.5	15.4	0.00e+00	0	33	0	786432000	56	4753
2026-01-16 07:38:03.90	14.63	32.84	-45.2	-47.8	15.3	0.00e+00	0	34	0	788529152	56	4887
2026-01-16 07:38:04.90	14.28	32.77	-45.5	-48.1	15.1	0.00e+00	0	33	0	790626304	56	5090
2026-01-16 07:38:05.91	13.92	32.70	-45.7	-48.4	15.0	0.00e+00	0	33	0	792723456	56	5259
2026-01-16 07:38:06.92	13.57	32.62	-45.9	-48.8	14.8	0.00e+00	0	33	0	793772032	57	5193
2026-01-16 07:38:07.93	13.22	32.55	-46.5	-49.8	14.3	0.00e+00	0	33	0	795869184	58	5474
2026-01-16 07:38:08.94	12.87	32.47	-46.9	-50.5	13.8	0.00e+00	0	33	0	797966336	58	5963
2026-01-16 07:38:09.95	12.53	32.40	-47.3	-51.4	13.2	0.00e+00	0	33	0	800063488	59	6257
2026-01-16 07:38:10.96	12.18	32.32	-47.1	-51.1	13.2	0.00e+00	0	33	0	802160640	60	5686
2026-01-16 07:38:11.97	11.84	32.24	-47.1	-51.1	13.2	0.00e+00	0	34	0	803209216	60	5686
2026-01-16 07:38:12.98	11.50	32.16	-46.8	-50.5	13.6	0.00e+00	0	33	0	805306368	60	5320
2026-01-16 07:38:13.98	11.16	32.08	-46.5	-49.7	14.3	0.00e+00	0	33	0	807403520	59	5133
2026-01-16 07:38:14.99	10.82	32.00	-46.7	-50.0	14.1	0.00e+00	0	34	0	809500672	59	5334
2026-01-16 07:38:16.00	10.49	31.92	-47.1	-50.8	13.6	0.00e+00	0	34	0	810549248	59	5839
2026-01-16 07:38:17.01	10.15	31.84	-47.1	-51.0	13.4	0.00e+00	0	33	0	812646400	59	5944
2026-01-16 07:38:18.02	9.82	31.75	-47.1	-51.1	13.3	0.00e+00	0	33	0	814743552	59	6014
2026-01-16 07:38:19.03	9.49	31.67	-46.6	-50.1	13.9	0.00e+00	0	34	0	816840704	59	5356
2026-01-16 07:38:20.04	9.16	31.58	-46.2	-49.4	14.3	0.00e+00	0	33	0	818937856	59	4943
2026-01-16 07:38:21.04	8.84	31.50	-46.0	-49.1	14.5	0.00e+00	0	33	0	821035008	58	5060
2026-01-16 07:38:22.05	8.51	31.41	-45.8	-48.7	14.8	0.00e+00	0	33	0	822083584	57	5150
2026-01-16 07:38:23.06	8.19	31.32	-45.9	-48.9	14.7	0.00e+00	0	33	0	824180736	57	5261
2026-01-16 07:38:24.07	7.86	31.24	-45.6	-48.4	15.0	0.00e+00	0	34	0	826277888	57	4967
2026-01-16 07:38:25.08	7.54	31.15	-45.1	-47.6	15.4	0.00e+00	0	33	0	828375040	56	4808
2026-01-16 07:38:26.09	7.22	31.06	-45.1	-47.6	15.4	0.00e+00	0	33	0	830472192	56	4761
2026-01-16 07:38:27.10	6.91	30.96	-45.4	-48.0	15.1	0.00e+00	0	33	0	831520768	56	5033
2026-01-16 07:38:28.11	6.59	30.87	-46.0	-49.0	14.7	0.00e+00	0	33	0	833617920	57	5291
2026-01-16 07:38:29.12	6.28	30.78	-46.5	-49.9	13.9	0.00e+00	0	34	0	835715072	58	5559
2026-01-16 07:38:30.13	5.97	30.69	-47.0	-50.8	13.6	0.00e+00	0	33	0	837812224	59	5811
2026-01-16 07:38:31.14	5.66	30.60	-47.1	-50.9	13.5	0.00e+00	0	33	0	839909376	59	5909
2026-01-16 07:38:32.15	5.35	30.50	-46.8	-50.3	13.9	0.00e+00	0	33	0	840957952	59	5508
2026-01-16 07:38:33.16	5.04	30.41	-46.3	-49.4	14.5	0.00e+00	0	33	0	843055104	59	4965
2026-01-16 07:38:34.17	4.74	30.31	-45.9	-48.7	14.9	0.00e+00	0	33	0	845152256	58	4842
2026-01-16 07:38:35.17	4.44	30.22	-45.7	-48.4	15.1	0.00e+00	0	33	0	847249408	58	4672
2026-01-16 07:38:36.18	4.14	30.12	-45.7	-48.4	15.0	0.00e+00	0	33	0	849346560	57	4963
2026-01-16 07:38:37.19	3.84	30.02	-46.3	-49.4	14.5	0.00e+00	0	33	0	850395136	57	5579
2026-01-16 07:38:38.20	3.54	29.92	-47.1	-50.7	13.7	0.00e+00	0	33	0	852492288	59	5784
2026-01-16 07:38:39.21	3.25	29.83	-47.4	-51.4	13.0	7.00e-07	0	33	0	854589440	60	5890
2026-01-16 07:38:40.22	2.95	29.73	-46.7	-50.2	13.8	0.00e+00	0	33	0	856686592	60	5134
2026-01-16 07:38:41.23	2.66	29.63	-47.0	-50.5	13.9	0.00e+00	0	33	0	858783744	59	5622
2026-01-16 07:38:42.24	2.37	29.53	-46.5	-49.7	14.4	0.00e+00	0	33	0	859832320	59	5137
2026-01-16 07:38:43.25	2.08	29.43	-46.4	-49.4	14.5	0.00e+00	0	33	0	861929472	59	4983
2026-01-16 07:38:44.26	1.80	29.33	-46.3	-49.4	14.6	0.00e+00	0	34	0	864026624	59	4940
2026-01-16 07:38:45.26	1.52	29.23	-46.4	-49.5	14.5	0.00e+00	0	33	0	866123776	59	5014
2026-01-16 07:38:46.27	1.23	29.13	-46.6	-49.7	14.5	0.00e+00	0	33	0	868220928	59	5108
2026-01-16 07:38:47.28	0.95	29.03	-46.9	-50.3	14.1	0.00e+00	0	33	0	869269504	59	5487
2026-01-16 07:38:48.29	0.67	28.92	-47.0	-50.3	14.1	0.00e+00	0	33	0	871366656	59	5528
2026-01-16 07:38:49.30	0.40	28.82	-47.2	-50.9	13.4	0.00e+00	0	33	0	873463808	60	5532
2026-01-16 07:38:50.31	0.12	28.72	-47.0	-50.5	13.7	0.00e+00	0	33	0	875560960	60	5330
2026-01-16 07:38:51.32	359.85	28.61	-46.8	-50.1	14.2	0.00e+00	0	33	0	877658112	59	5345
2026-01-16 07:38:52.33	359.58	28.51	-46.5	-49.4	14.6	0.00e+00	0	33	0	878706688	59	4940
2026-01-16 07:38:53.33	359.31	28.41	-46.4	-49.3	14.7	0.00e+00	0	33	0	880803840	59	4881
2026-01-16 07:38:54.34	359.04	28.30	-46.2	-48.9	14.9	0.00e+00	0	33	0	882900992	58	4965
2026-01-16 07:38:55.35	358.77	28.20	-46.1	-48.8	15.0	0.00e+00	0	33	0	884998144	58	4886
2026-01-16 07:38:56.36	358.51	28.09	-46.1	-48.8	15.0	0.00e+00	0	33	0	887095296	58	4908
2026-01-16 07:38:57.37	358.25	27.99	-46.2	-49.0	14.8	0.00e+00	0	33	0	889192448	58	4992
2026-01-16 07:38:58.38	357.98	27.88	-46.3	-49.1	14.8	0.00e+00	0	33	0	890241024	58	5057
2026-01-16 07:38:59.39	357.72	27.78	-46.5	-49.5	14.5	0.00e+00	0	34	0	892338176	58	5310
2026-01-16 07:39:00.40	357.47	27.67	-46.7	-49.7	14.4	0.00e+00	0	33	0	894435328	58	5404
2026-01-16 07:39:01.41	357.21	27.57	-46.3	-49.1	14.7	0.00e+00	0	33	0	896532480	58	5074
2026-01-16 07:39:02.42	356.96	27.46	-45.9	-48.4	15.1	0.00e+00	0	33	0	898629632	58	4682
2026-01-16 07:39:03.43	356.70	27.35	-45.4	-47.7	15.5	0.00e+00	0	34	0	899678208	57	4574
2026-01-16 07:39:04.44	356.45	27.25	-45.3	-47.6	15.5	0.00e+00	0	33	0	901775360	56	4763
2026-01-16 07:39:05.45	356.20	27.14	-45.1	-47.3	15.7	0.00e+00	0	34	0	903872512	56	4615
2026-01-16 07:39:06.46	355.96	27.03	-45.4	-47.7	15.5	0.00e+00	0	33	0	905969664	56	4824
2026-01-16 07:39:07.47	355.71	26.92	-45.4	-47.8	15.5	0.00e+00	0	33	0	908066816	56	4873
2026-01-16 07:39:08.48	355.47	26.82	-45.6	-47.9	15.4	0.00e+00	0	33	0	909115392	56	4981
2026-01-16 07:39:09.49	355.22	26.71	-45.5	-47.8	15.4	0.00e+00	0	33	0	911212544	56	4913
2026-01-16 07:39:10.49	354.98	26.60	-45.2	-47.5	15.5	0.00e+00	0	33	0	913309696	56	4720
2026-01-16 07:39:11.50	354.75	26.49	-45.1	-47.3	15.6	0.00e+00	0	33	0	915406848	56	4633
2026-01-16 07:39:12.51	354.51	26.39	-44.9	-47.1	15.7	0.00e+00	0	33	0	917504000	56	4499
2026-01-16 07:39:13.52	354.27	26.28	-44.4	-46.4	15.9	0.00e+00	0	33	0	918552576	55	4420
2026-01-16 07:39:14.53	354.04	26.17	-44.4	-46.3	16.0	0.00e+00	0	33	0	920649728	55	4382
2026-01-16 07:39:15.54	353.80	26.06	-44.3	-46.2	16.0	0.00e+00	0	33	0	922746880	55	4340
2026-01-16 07:39:16.55	353.57	25.95	-44.5	-46.6	15.9	0.00e+00	0	33	0	924844032	55	4521
2026-01-16 07:39:17.56	353.34	25.84	-44.8	-47.0	15.7	0.00e+00	0	33	0	926941184	55	4717
2026-01-16 07:39:18.57	353.12	25.74	-45.1	-47.5	15.5	0.00e+00	0	33	0	927989760	55	5015
2026-01-16 07:39:19.58	352.89	25.63	-45.6	-48.1	15.3	0.00e+00	0	33	0	930086912	56	5094
2026-01-16 07:39:20.58	352.67	25.52	-45.4	-47.8	15.4	0.00e+00	0	33	0	932184064	56	4915
2026-01-16 07:39:21.60	352.44	25.41	-45.5	-47.9	15.4	0.00e+00	0	34	0	934281216	56	4942
2026-01-16 07:39:22.60	352.22	25.30	-45.1	-47.3	15.6	0.00e+00	0	33	0	936378368	56	4626
2026-01-16 07:39:23.61	352.00	25.19	-44.4	-46.4	15.9	0.00e+00	0	33	0	937426944	55	4433
2026-01-16 07:39:24.62	351.78	25.08	-44.3	-46.3	16.0	0.00e+00	0	33	0	939524096	55	4348
2026-01-16 07:39:25.63	351.57	24.98	-44.3	-46.3	16.0	0.00e+00	0	33	0	941621248	55	4384
2026-01-16 07:39:26.64	351.35	24.87	-44.4	-46.4	16.0	0.00e+00	0	33	0	943718400	55	4406
2026-01-16 07:39:27.65	351.14	24.76	-44.4	-46.4	15.9	0.00e+00	0	33	0	945815552	55	4440
2026-01-16 07:39:28.66	350.92	24.65	-44.6	-46.7	15.8	0.00e+00	0	33	0	946864128	55	4571
2026-01-16 07:39:29.67	350.71	24.54	-44.4	-46.4	15.9	0.00e+00	0	34	0	948961280	55	4426
2026-01-16 07:39:30.68	350.50	24.43	-44.3	-46.4	15.9	0.00e+00	0	33	0	951058432	54	4666
2026-01-16 07:39:31.69	350.29	24.32	-44.4	-46.5	15.9	0.00e+00	0	33	0	953155584	54	4723
2026-01-16 07:39:32.70	350.09	24.21	-44.5	-46.6	15.9	0.00e+00	0	33	0	955252736	54	4768
2026-01-16 07:39:33.71	349.88	24.11	-44.5	-46.6	15.8	0.00e+00	0	33	0	956301312	54	4794
2026-01-16 07:39:34.71	349.68	24.00	-44.3	-46.4	15.9	0.00e+00	0	33	0	958398464	54	4652
2026-01-16 07:39:35.73	349.48	23.89	-44.2	-46.2	16.0	0.00e+00	0	33	0	960495616	54	4555
2026-01-16 07:39:36.73	349.28	23.78	-44.1	-46.0	16.1	0.00e+00	0	33	0	962592768	54	4477
2026-01-16 07:39:37.74	349.08	23.67	-44.2	-46.1	16.1	0.00e+00	0	33	0	964689920	54	4505
2026-01-16 07:39:38.75	348.88	23.57	-44.5	-46.5	15.9	0.00e+00	0	33	0	965738496	54	4730
2026-01-16 07:39:39.76	348.68	23.46	-44.3	-46.3	16.0	0.00e+00	0	33	0	967835648	54	4615
2026-01-16 07:39:40.77	348.49	23.35	-44.6	-46.7	15.8	0.00e+00	0	33	0	969932800	54	4838
2026-01-16 07:39:41.78	348.29	23.24	-44.6	-46.7	15.8	0.00e+00	0	33	0	972029952	54	4848
2026-01-16 07:39:42.79	348.10	23.13	-44.8	-46.9	15.7	0.00e+00	0	33	0	974127104	55	4682
2026-01-16 07:39:43.80	347.91	23.02	-44.7	-46.8	15.8	0.00e+00	0	33	0	975175680	55	4604
2026-01-16 07:39:44.81	347.72	22.92	-44.7	-46.8	15.8	0.00e+00	0	33	0	977272832	55	4615
2026-01-16 07:39:45.82	347.53	22.81	-44.6	-46.7	15.8	0.00e+00	0	33	0	979369984	55	4562
2026-01-16 07:39:46.83	347.34	22.70	-44.7	-46.8	15.8	0.00e+00	0	33	0	981467136	55	4626
2026-01-16 07:39:47.83	347.16	22.60	-45.0	-47.2	15.6	0.00e+00	0	34	0	983564288	55	4835
2026-01-16 07:39:48.84	346.97	22.49	-45.0	-47.2	15.6	0.00e+00	0	33	0	985661440	55	4870
2026-01-16 07:39:49.85	346.79	22.38	-45.6	-48.1	15.3	0.00e+00	0	33	0	986710016	56	5077
2026-01-16 07:39:50.86	346.61	22.27	-45.5	-47.9	15.4	0.00e+00	0	33	0	988807168	56	4939
2026-01-16 07:39:51.87	346.43	22.17	-45.5	-48.0	15.4	0.00e+00	0	33	0	990904320	56	4996
2026-01-16 07:39:52.88	346.25	22.06	-45.4	-47.7	15.5	0.00e+00	0	33	0	993001472	56	4845
2026-01-16 07:39:53.89	346.07	21.95	-45.4	-47.7	15.5	0.00e+00	0	33	0	995098624	56	4821
2026-01-16 07:39:54.90	345.89	21.85	-45.2	-47.5	15.6	0.00e+00	0	34	0	996147200	56	4730
2026-01-16 07:39:55.91	345.72	21.74	-45.3	-47.6	15.5	0.00e+00	0	33	0	998244352	56	4803
2026-01-16 07:39:56.92	345.54	21.64	-45.4	-47.7	15.5	0.00e+00	0	33	0	1000341504	56	4867
2026-01-16 07:39:57.93	345.37	21.53	-45.5	-47.9	15.4	0.00e+00	0	33	0	1002438656	56	4941
2026-01-16 07:39:58.94	345.20	21.42	-45.9	-48.4	15.1	0.00e+00	0	33	0	1004535808	56	5274
2026-01-16 07:39:59.95	345.02	21.32	-45.9	-48.4	15.1	0.00e+00	0	33	0	1005584384	57	4962
2026-01-16 07:40:00.96	344.85	21.21	-45.8	-48.4	15.2	0.00e+00	0	33	0	1007681536	57	4930
2026-01-16 07:40:01.97	344.69	21.11	-45.7	-48.2	15.2	0.00e+00	0	33	0	1009778688	57	4863
2026-01-16 07:40:02.98	344.52	21.00	-45.9	-48.5	15.1	0.00e+00	0	34	0	1011875840	57	5022
2026-01-16 07:40:03.98	344.35	20.90	-45.6	-48.1	15.2	0.00e+00	0	34	0	1013972992	57	4800
2026-01-16 07:40:04.99	344.19	20.79	-45.6	-48.1	15.3	0.00e+00	0	33	0	1015021568	57	4791
2026-01-16 07:40:06.00	344.02	20.69	-45.7	-48.2	15.2	0.00e+00	0	33	0	1017118720	57	4849
2026-01-16 07:40:07.01	343.86	20.58	-45.7	-48.2	15.1	0.00e+00	0	33	0	1019215872	57	4847
2026-01-16 07:40:08.02	343.70	20.48	-45.6	-48.1	15.2	0.00e+00	0	33	0	1021313024	57	4771
2026-01-16 07:40:09.03	343.54	20.38	-45.6	-48.1	15.2	0.00e+00	0	33	0	1023410176	57	4769
2026-01-16 07:40:10.04	343.38	20.27	-45.4	-47.8	15.3	0.00e+00	0	33	0	1024458752	57	4636
2026-01-16 07:40:11.05	343.22	20.17	-45.1	-47.3	15.6	0.00e+00	0	33	0	1026555904	56	4645
2026-01-16 07:40:12.06	343.06	20.07	-44.9	-47.1	15.6	0.00e+00	0	33	0	1028653056	56	4544
2026-01-16 07:40:13.07	342.91	19.96	-44.8	-46.9	15.8	0.00e+00	0	33	0	1030750208	56	4409
2026-01-16 07:40:14.08	342.75	19.86	-44.8	-47.0	15.8	0.00e+00	0	33	0	1032847360	56	4443
2026-01-16 07:40:15.08	342.60	19.76	-44.7	-46.8	15.8	0.00e+00	0	33	0	1033895936	56	4381
2026-01-16 07:40:16.09	342.45	19.65	-44.7	-46.8	15.7	0.00e+00	0	33	0	1035993088	55	4624
2026-01-16 07:40:17.10	342.29	19.55	-44.4	-46.4	15.9	0.00e+00	0	33	0	1038090240	55	4436
2026-01-16 07:40:18.11	342.14	19.45	-44.4	-46.5	15.8	0.00e+00	0	33	0	1040187392	55	4467
2026-01-16 07:40:19.12	341.99	19.35	-44.6	-46.6	15.8	0.00e+00	0	33	0	1042284544	55	4537
2026-01-16 07:40:20.13	341.84	19.25	-44.7	-46.8	15.7	0.00e+00	0	33	0	1043333120	55	4622
2026-01-16 07:40:21.14	341.69	19.14	-44.4	-46.4	15.8	0.00e+00	0	33	0	1045430272	55	4441
2026-01-16 07:40:22.14	341.55	19.04	-44.4	-46.5	15.9	0.00e+00	0	33	0	1047527424	55	4453
2026-01-16 07:40:23.15	341.40	18.94	-44.5	-46.6	15.9	0.00e+00	0	33	0	1049624576	55	4507
2026-01-16 07:40:24.17	341.26	18.84	-44.2	-46.1	16.0	0.00e+00	0	34	0	1051721728	54	4541
2026-01-16 07:40:25.17	341.11	18.74	-44.3	-46.3	15.9	0.00e+00	0	33	0	1053818880	54	4639
2026-01-16 07:40:26.18	340.97	18.64	-44.3	-46.2	16.0	0.00e+00	0	33	0	1054867456	54	4590
2026-01-16 07:40:27.19	340.83	18.54	-44.2	-46.2	15.9	0.00e+00	0	33	0	1056964608	54	4566
2026-01-16 07:40:28.20	340.69	18.44	-44.3	-46.3	15.9	0.00e+00	0	33	0	1059061760	54	4635
2026-01-16 07:40:29.21	340.55	18.34	-44.6	-46.8	15.7	0.00e+00	0	33	0	1061158912	54	4872
2026-01-16 07:40:30.22	340.41	18.24	-44.7	-46.8	15.7	0.00e+00	0	33	0	1063256064	54	4925
2026-01-16 07:40:31.23	340.27	18.14	-44.8	-47.0	15.6	0.00e+00	0	33	0	1064304640	54	5034
2026-01-16 07:40:32.24	340.13	18.04	-45.3	-47.7	15.3	0.00e+00	0	33	0	1066401792	55	5130
2026-01-16 07:40:33.25	340.00	17.94	-45.8	-48.3	15.1	0.00e+00	0	33	0	1068498944	56	5198
2026-01-16 07:40:34.26	339.86	17.84	-46.2	-49.0	14.7	0.00e+00	0	33	0	1070596096	57	5322
2026-01-16 07:40:35.27	339.72	17.75	-46.6	-49.7	14.4	0.00e+00	0	33	0	1072693248	58	5406
2026-01-16 07:40:36.28	339.59	17.65	-47.0	-50.3	13.9	0.00e+00	0	33	0	1073741824	59	5515
2026-01-16 07:40:37.28	339.46	17.55	-47.1	-50.6	13.6	0.00e+00	0	33	0	1075838976	60	5355
2026-01-16 07:40:38.30	339.33	17.45	-47.0	-50.5	13.7	0.00e+00	0	33	0	1077936128	60	5280
2026-01-16 07:40:39.30	339.20	17.36	-47.0	-50.5	13.6	0.00e+00	0	33	0	1080033280	60	5314
2026-01-16 07:40:40.31	339.07	17.26	-47.0	-50.2	14.1	0.00e+00	0	33	0	1082130432	59	5443
2026-01-16 07:40:41.32	338.94	17.16	-46.8	-49.9	14.2	0.00e+00	0	33	0	1083179008	59	5249
2026-01-16 07:40:42.33	338.81	17.06	-46.2	-49.0	14.7	0.00e+00	0	33	0	1085276160	59	4717
2026-01-16 07:40:43.34	338.68	16.97	-46.0	-48.7	14.9	0.00e+00	0	34	0	1087373312	58	4841
2026-01-16 07:40:44.35	338.55	16.87	-45.9	-48.5	15.1	0.00e+00	0	33	0	1089470464	58	4725
2026-01-16 07:40:45.36	338.43	16.77	-45.4	-47.8	15.4	0.00e+00	0	33	0	1091567616	57	4608
2026-01-16 07:40:46.37	338.30	16.68	-45.4	-47.7	15.4	0.00e+00	0	33	0	1092616192	57	4580
2026-01-16 07:40:47.38	338.18	16.58	-45.2	-47.6	15.5	0.00e+00	0	33	0	1094713344	57	4503
2026-01-16 07:40:48.39	338.05	16.49	-45.6	-48.1	15.2	0.00e+00	0	33	0	1096810496	57	4784
2026-01-16 07:40:49.39	337.93	16.39	-45.9	-48.5	15.0	0.00e+00	0	33	0	1098907648	57	5014
2026-01-16 07:40:50.40	337.81	16.30	-46.0	-48.7	14.9	0.00e+00	0	33	0	1101004800	57	5132
2026-01-16 07:40:51.41	337.69	16.20	-46.2	-49.1	14.7	0.00e+00	0	33	0	1102053376	57	5349
2026-01-16 07:40:52.42	337.57	16.11	-46.3	-49.2	14.6	0.00e+00	0	33	0	1104150528	57	5411
2026-01-16 07:40:53.43	337.45	16.01	-46.3	-49.2	14.6	0.00e+00	0	34	0	1106247680	58	5117
2026-01-16 07:40:54.44	337.33	15.92	-46.3	-49.1	14.7	0.00e+00	0	33	0	1108344832	58	5068
2026-01-16 07:40:55.45	337.21	15.83	-46.0	-48.7	14.9	0.00e+00	0	33	0	1110441984	58	4844
2026-01-16 07:40:56.46	337.09	15.73	-45.8	-48.4	15.1	7.00e-07	0	34	0	1111490560	58	4683
2026-01-16 07:40:57.47	336.98	15.64	-45.6	-48.1	15.2	0.00e+00	0	33	0	1113587712	57	4762
2026-01-16 07:40:58.48	336.86	15.55	-45.6	-48.0	15.2	0.00e+00	0	34	0	1115684864	57	4753
2026-01-16 07:40:59.49	336.75	15.45	-45.5	-47.9	15.3	0.00e+00	0	33	0	1117782016	57	4681
2026-01-16 07:41:00.50	336.63	15.36	-45.4	-47.8	15.3	0.00e+00	0	33	0	1119879168	57	4630
2026-01-16 07:41:01.50	336.52	15.27	-45.5	-47.9	15.3	0.00e+00	0	33	0	1120927744	57	4702
2026-01-16 07:41:02.51	336.41	15.18	-45.4	-47.8	15.3	0.00e+00	0	33	0	1123024896	57	4631
2026-01-16 07:41:03.52	336.29	15.08	-45.5	-48.0	15.2	0.00e+00	0	33	0	1125122048	57	4711
2026-01-16 07:41:04.53	336.18	14.99	-45.5	-48.0	15.2	0.00e+00	0	34	0	1127219200	57	4734
2026-01-16 07:41:05.54	336.07	14.90	-45.6	-48.1	15.1	0.00e+00	0	33	0	1129316352	57	4804
2026-01-16 07:41:06.55	335.96	14.81	-45.6	-48.2	15.1	0.00e+00	0	34	0	1130364928	57	4832
2026-01-16 07:41:07.55	335.85	14.72	-45.7	-48.3	15.0	0.00e+00	0	33	0	1132462080	57	4917
2026-01-16 07:41:08.57	335.74	14.63	-45.8	-48.4	14.9	0.00e+00	0	33	0	1134559232	57	4965
2026-01-16 07:41:09.57	335.64	14.54	-45.9	-48.6	14.9	0.00e+00	0	33	0	1136656384	57	5068
2026-01-16 07:41:10.58	335.53	14.45	-45.8	-48.5	14.9	0.00e+00	0	34	0	1138753536	57	5003
2026-01-16 07:41:11.59	335.42	14.36	-45.9	-48.6	14.9	0.00e+00	0	33	0	1139802112	57	5075
2026-01-16 07:41:12.60	335.32	14.27	-46.0	-48.7	14.8	0.00e+00	0	34	0	1141899264	57	5138
2026-01-16 07:41:13.61	335.21	14.18	-46.0	-48.7	14.8	0.00e+00	0	33	0	1143996416	57	5140
2026-01-16 07:41:14.62	335.11	14.09	-46.1	-48.9	14.7	0.00e+00	0	33	0	1146093568	57	5222
2026-01-16 07:41:15.63	335.00	14.00	-46.2	-48.9	14.7	0.00e+00	0	34	0	1148190720	57	5276
2026-01-16 07:41:16.64	334.90	13.91	-46.1	-48.9	14.7	0.00e+00	0	33	0	1150287872	57	5245
2026-01-16 07:41:17.65	334.80	13.82	-46.0	-48.7	14.9	0.00e+00	0	33	0	1151336448	57	5116
2026-01-16 07:41:18.66	334.69	13.73	-45.9	-48.5	15.0	0.00e+00	0	33	0	1153433600	57	4999
2026-01-16 07:41:19.67	334.59	13.65	-45.7	-48.3	15.1	0.00e+00	0	33	0	1155530752	57	4877
2026-01-16 07:41:20.68	334.49	13.56	-45.7	-48.2	15.1	0.00e+00	0	33	0	1157627904	57	4840
2026-01-16 07:41:21.68	334.39	13.47	-45.5	-47.9	15.3	0.00e+00	0	33	0	1159725056	57	4697
2026-01-16 07:41:22.69	334.29	13.38	-45.5	-47.9	15.2	0.00e+00	0	33	0	1160773632	57	4705
2026-01-16 07:41:23.70	334.19	13.30	-45.5	-47.9	15.3	0.00e+00	0	33	0	1162870784	57	4704
2026-01-16 07:41:24.71	334.09	13.21	-45.5	-47.9	15.3	0.00e+00	0	34	0	1164967936	57	4669
2026-01-16 07:41:25.72	334.00	13.12	-45.6	-48.0	15.2	0.00e+00	0	33	0	1167065088	57	4741
2026-01-16 07:41:26.73	333.90	13.03	-45.9	-48.5	15.0	0.00e+00	0	34	0	1169162240	57	4993
2026-01-16 07:41:27.74	333.80	12.95	-46.0	-48.6	14.9	0.00e+00	0	33	0	1170210816	57	5076
2026-01-16 07:41:28.75	333.71	12.86	-46.2	-49.0	14.6	0.00e+00	0	33	0	1172307968	57	5324
2026-01-16 07:41:29.76	333.61	12.78	-46.4	-49.4	14.4	0.00e+00	0	33	0	1174405120	57	5540
2026-01-16 07:41:30.77	333.52	12.69	-46.8	-50.0	14.1	0.00e+00	0	33	0	1176502272	58	5599
2026-01-16 07:41:31.78	333.42	12.60	-46.9	-50.2	14.0	0.00e+00	0	33	0	1178599424	59	5414
2026-01-16 07:41:32.79	333.33	12.52	-47.2	-50.8	13.6	0.00e+00	0	33	0	1179648000	59	5838
2026-01-16 07:41:33.80	333.23	12.43	-47.2	-50.8	13.2	0.00e+00	0	33	0	1181745152	60	5483
2026-01-16 07:41:34.80	333.14	12.35	-47.2	-50.9	13.3	5.30e-06	0	33	0	1183842304	60	5543
2026-01-16 07:41:35.81	333.05	12.27	-47.1	-50.7	13.3	1.50e-06	0	33	0	1185939456	60	5430
2026-01-16 07:41:36.82	332.96	12.18	-47.0	-50.4	13.6	0.00e+00	0	33	0	1188036608	60	5268
2026-01-16 07:41:37.83	332.87	12.10	-46.9	-50.3	13.6	0.00e+00	0	34	0	1189085184	60	5212
2026-01-16 07:41:38.84	332.78	12.01	-46.8	-50.2	13.7	0.00e+00	0	33	0	1191182336	60	5111
2026-01-16 07:41:39.85	332.69	11.93	-46.7	-50.0	13.9	0.00e+00	0	33	0	1193279488	60	5009
2026-01-16 07:41:40.86	332.60	11.84	-46.8	-50.0	14.0	0.00e+00	0	33	0	1195376640	59	5318
2026-01-16 07:41:41.87	332.51	11.76	-46.6	-49.8	14.2	0.00e+00	0	33	0	1197473792	59	5171
2026-01-16 07:41:42.88	332.42	11.68	-46.5	-49.5	14.4	0.00e+00	0	33	0	1198522368	59	4995
2026-01-16 07:41:43.89	332.33	11.60	-46.3	-49.3	14.5	0.00e+00	0	33	0	1200619520	59	4886
2026-01-16 07:41:44.90	332.24	11.51	-46.2	-49.1	14.6	0.00e+00	0	33	0	1202716672	59	4768
2026-01-16 07:41:45.90	332.16	11.43	-46.1	-49.0	14.6	0.00e+00	0	33	0	1204813824	58	4996
2026-01-16 07:41:46.91	332.07	11.35	-46.0	-48.8	14.7	0.00e+00	0	33	0	1206910976	58	4891
2026-01-16 07:41:47.92	331.99	11.27	-45.9	-48.6	14.7	0.00e+00	0	33	0	1207959552	58	4796
2026-01-16 07:41:48.93	331.90	11.18	-45.9	-48.6	14.7	0.00e+00	0	33	0	1210056704	58	4778
2026-01-16 07:41:49.94	331.82	11.10	-45.7	-48.3	15.0	0.00e+00	0	34	0	1212153856	58	4636
2026-01-16 07:41:50.95	331.73	11.02	-45.7	-48.3	14.9	0.00e+00	0	33	0	1214251008	57	4885
2026-01-16 07:41:51.96	331.65	10.94	-45.6	-48.3	14.9	0.00e+00	0	33	0	1216348160	57	4880
2026-01-16 07:41:52.97	331.56	10.86	-45.6	-48.1	15.0	0.00e+00	0	33	0	1218445312	57	4788
2026-01-16 07:41:53.98	331.48	10.78	-45.7	-48.3	14.9	0.00e+00	0	33	0	1219493888	57	4879
2026-01-16 07:41:54.99	331.40	10.70	-45.6	-48.2	15.0	0.00e+00	0	33	0	1221591040	57	4816
2026-01-16 07:41:56.00	331.32	10.62	-45.6	-48.2	15.0	0.00e+00	0	33	0	1223688192	57	4832
2026-01-16 07:41:57.00	331.24	10.54	-45.5	-48.0	15.1	0.00e+00	0	33	0	1225785344	57	4743
2026-01-16 07:41:58.01	331.16	10.46	-45.6	-48.2	15.0	0.00e+00	0	33	0	1227882496	57	4832
2026-01-16 07:41:59.02	331.07	10.38	-45.6	-48.2	15.0	0.00e+00	0	33	0	1228931072	57	4819
2026-01-16 07:42:00.03	330.99	10.30	-45.7	-48.3	15.0	0.00e+00	0	34	0	1231028224	57	4882
2026-01-16 07:42:01.04	330.92	10.22	-45.8	-48.4	14.9	0.00e+00	0	33	0	1233125376	57	4969
2026-01-16 07:42:02.05	330.84	10.14	-45.7	-48.4	14.9	0.00e+00	0	33	0	1235222528	57	4936
2026-01-16 07:42:03.05	330.76	10.06	-46.0	-48.7	14.7	0.00e+00	0	34	0	1236271104	57	5158
2026-01-16 07:42:04.07	330.68	9.98	-45.9	-48.5	14.8	0.00e+00	0	33	0	1238368256	57	5035
