passes_logs/2026/01/16/R3.2S_Murmansk_2ch/R3.2S_Murmansk_2ch__20260116_041239_SUOMI_NPP_rec.log

#Pass ID: 20260116_041239_SUOMI NPP
#Satellite: SUOMI NPP
#Configuration: NPP
#almurnet v.1.7.20251203
#Start time: 2026-01-16 04:12:40

#Version: 2.2.20231116
#Station: R3.2S_Murmansk_2ch
#Location: 33.079688 lon 68.888172 lat
#TLE: 1 37849U 11061A   26015.59739646  .00000050  00000+0  44779-4 0  9992
#TLE: 2 37849  98.7811 317.6408 0002446  62.6499 297.4925 14.19525346736798

#Time	Az	El	Level	Level2	SNR	BER	BlckErr	Temp	State	Recorded	gain1	gain2
2026-01-16 04:12:40.70	48.56	2.10	-49.6	-65.8	3.8	1.49e+00	0	31	0	0	65	23137
2026-01-16 04:12:41.71	48.50	2.15	-49.6	-65.8	3.8	1.49e+00	0	31	104	0	64	24522
2026-01-16 04:12:42.72	48.44	2.21	-49.6	-65.8	3.8	1.49e+00	0	31	104	0	64	24488
2026-01-16 04:12:43.73	48.38	2.27	-49.6	-65.8	3.8	1.49e+00	0	31	104	0	64	24502
2026-01-16 04:12:44.74	48.32	2.33	-49.6	-65.8	3.8	1.49e+00	0	31	104	0	64	24575
2026-01-16 04:12:45.75	48.25	2.39	-49.7	-65.8	3.8	1.49e+00	0	31	104	0	64	24602
2026-01-16 04:12:46.76	48.19	2.45	-49.6	-65.8	3.8	1.49e+00	0	31	104	0	64	24532
2026-01-16 04:12:47.77	48.13	2.50	-49.7	-65.8	3.8	1.49e+00	0	31	104	0	64	24597
2026-01-16 04:12:48.78	48.07	2.56	-49.7	-65.8	3.8	1.49e+00	0	31	104	0	64	24484
2026-01-16 04:12:49.79	48.00	2.62	-49.6	-65.8	3.8	1.49e+00	0	31	104	0	64	24573
2026-01-16 04:12:50.80	47.94	2.68	-49.6	-65.8	3.8	1.49e+00	0	31	104	0	64	24516
2026-01-16 04:12:51.81	47.88	2.74	-49.7	-65.8	3.8	1.49e+00	0	31	104	0	64	24571
2026-01-16 04:12:52.82	47.81	2.80	-49.6	-65.8	3.8	1.49e+00	0	31	104	0	64	24607
2026-01-16 04:12:53.83	47.75	2.86	-49.6	-65.8	3.8	1.49e+00	0	31	104	0	64	24577
2026-01-16 04:12:54.84	47.68	2.92	-49.7	-65.8	3.8	1.49e+00	0	31	104	0	64	24646
2026-01-16 04:12:55.85	47.62	2.98	-49.6	-65.8	3.8	1.49e+00	0	31	104	0	64	24622
2026-01-16 04:12:56.86	47.55	3.04	-49.6	-65.8	3.8	1.49e+00	0	31	104	0	64	24508
2026-01-16 04:12:57.87	47.49	3.10	-49.7	-65.8	3.8	1.49e+00	0	31	104	0	64	24467
2026-01-16 04:12:58.88	47.42	3.16	-49.6	-65.8	3.8	1.49e+00	0	31	104	0	64	24488
2026-01-16 04:12:59.89	47.36	3.22	-49.7	-65.8	3.8	1.49e+00	0	31	104	0	64	24494
2026-01-16 04:13:00.90	47.29	3.28	-49.6	-65.8	3.8	1.49e+00	0	31	104	0	64	24568
2026-01-16 04:13:01.90	47.23	3.34	-49.7	-65.8	3.8	1.49e+00	0	32	104	0	64	24585
2026-01-16 04:13:02.91	47.16	3.40	-49.6	-65.8	3.8	1.49e+00	0	32	104	0	64	24545
2026-01-16 04:13:03.92	47.09	3.46	-49.7	-65.8	3.8	1.49e+00	0	32	104	0	64	24556
2026-01-16 04:13:04.93	47.02	3.52	-49.7	-65.8	3.8	1.49e+00	0	32	104	0	64	24594
2026-01-16 04:13:05.94	46.96	3.58	-49.7	-65.8	3.8	1.49e+00	0	32	104	0	64	24547
2026-01-16 04:13:06.95	46.89	3.64	-49.7	-65.8	3.8	1.49e+00	0	32	104	0	64	24465
2026-01-16 04:13:07.96	46.82	3.70	-49.7	-65.7	3.8	1.49e+00	0	32	104	0	64	24375
2026-01-16 04:13:08.97	46.75	3.76	-49.7	-65.7	3.8	1.49e+00	0	32	104	0	64	24387
2026-01-16 04:13:09.98	46.68	3.82	-49.7	-65.8	3.8	1.49e+00	0	32	104	0	64	24524
2026-01-16 04:13:10.98	46.62	3.88	-49.7	-65.8	3.8	1.49e+00	0	32	104	0	64	24541
2026-01-16 04:13:11.99	46.55	3.94	-49.7	-65.8	3.8	1.49e+00	0	32	104	0	64	24448
2026-01-16 04:13:13.00	46.48	4.00	-49.7	-65.6	3.8	1.49e+00	0	32	104	0	64	23987
2026-01-16 04:13:14.01	46.41	4.06	-49.7	-65.3	3.8	1.49e+00	0	32	104	0	64	23304
2026-01-16 04:13:15.02	46.34	4.12	-49.6	-65.1	3.8	1.49e+00	0	32	104	0	64	22549
2026-01-16 04:13:16.03	46.27	4.19	-49.6	-64.8	3.8	1.49e+00	0	32	104	0	64	21873
2026-01-16 04:13:17.04	46.19	4.25	-49.6	-64.4	3.8	1.49e+00	0	32	104	0	64	20806
2026-01-16 04:13:18.05	46.12	4.31	-49.6	-64.0	3.8	1.49e+00	0	32	104	0	64	20007
2026-01-16 04:13:19.06	46.05	4.37	-49.6	-63.4	3.9	1.49e+00	0	32	104	0	64	18620
2026-01-16 04:13:20.07	45.98	4.43	-49.5	-63.3	4.0	1.47e+00	0	32	104	0	64	18372
2026-01-16 04:13:21.08	45.91	4.49	-49.5	-62.0	4.3	1.38e+00	0	32	0	0	64	15942
2026-01-16 04:13:22.09	45.84	4.56	-49.4	-60.9	4.6	9.32e-01	0	32	0	1048576	64	13957
2026-01-16 04:13:23.10	45.76	4.62	-49.3	-60.3	4.9	7.84e-01	0	32	0	3145728	64	13048
2026-01-16 04:13:24.10	45.69	4.68	-49.1	-58.5	6.0	3.46e-01	0	32	0	5242880	64	10547
2026-01-16 04:13:25.11	45.62	4.74	-49.1	-58.6	5.9	2.91e-01	0	32	0	6291456	64	10774
2026-01-16 04:13:26.12	45.54	4.80	-48.8	-57.1	7.1	1.80e-01	0	32	0	8388608	64	8984
2026-01-16 04:13:27.13	45.47	4.87	-48.9	-57.7	6.6	2.05e-01	0	32	0	10485760	64	9620
2026-01-16 04:13:28.14	45.39	4.93	-48.9	-57.7	6.5	1.55e-01	0	32	0	12582912	64	9684
2026-01-16 04:13:29.15	45.32	4.99	-48.9	-57.3	6.9	1.24e-01	0	32	0	14680064	64	9237
2026-01-16 04:13:30.16	45.24	5.05	-49.0	-57.8	6.5	1.37e-01	0	32	0	15728640	64	9728
2026-01-16 04:13:31.17	45.17	5.12	-48.7	-56.0	8.1	1.10e-01	0	32	0	17825792	63	8457
2026-01-16 04:13:32.18	45.09	5.18	-47.7	-52.8	11.1	5.49e-05	0	32	0	19922944	60	6958
2026-01-16 04:13:33.19	45.02	5.24	-49.3	-61.0	4.5	8.88e-01	5	32	0	20971520	64	14100
2026-01-16 04:13:34.19	44.94	5.31	-47.8	-52.9	10.9	2.96e-03	0	32	0	23068672	62	6236
2026-01-16 04:13:35.21	44.86	5.37	-48.5	-54.9	9.1	2.71e-02	0	32	0	25165824	62	7881
2026-01-16 04:13:36.21	44.79	5.43	-47.4	-52.0	11.7	6.10e-05	0	32	0	27262976	61	5940
2026-01-16 04:13:37.22	44.71	5.50	-47.5	-52.2	11.5	9.99e-05	0	32	0	28311552	61	6096
2026-01-16 04:13:38.23	44.63	5.56	-47.0	-51.2	12.4	8.31e-05	0	32	0	30408704	60	5756
2026-01-16 04:13:39.24	44.55	5.62	-47.0	-51.1	12.5	1.67e-05	0	32	0	32505856	60	5657
2026-01-16 04:13:40.25	44.48	5.69	-47.1	-51.2	12.3	1.44e-05	0	32	0	34603008	60	5788
2026-01-16 04:13:41.26	44.40	5.75	-47.0	-51.0	12.8	0.00e+00	0	32	0	36700160	59	5968
2026-01-16 04:13:42.27	44.32	5.81	-46.8	-50.6	13.1	2.20e-06	0	32	0	37748736	59	5662
2026-01-16 04:13:43.28	44.24	5.88	-47.0	-51.0	12.9	0.00e+00	0	32	0	39845888	59	5926
2026-01-16 04:13:44.29	44.16	5.94	-46.7	-50.4	13.2	7.00e-07	0	32	0	41943040	59	5568
2026-01-16 04:13:45.30	44.08	6.01	-46.8	-50.6	13.1	0.00e+00	0	32	0	44040192	59	5717
2026-01-16 04:13:46.31	44.00	6.07	-46.7	-50.4	13.3	0.00e+00	0	32	0	46137344	59	5576
2026-01-16 04:13:47.32	43.91	6.14	-46.9	-50.7	13.1	7.00e-07	0	32	0	47185920	59	5769
2026-01-16 04:13:48.33	43.83	6.20	-46.5	-50.2	13.5	0.00e+00	0	32	0	49283072	59	5410
2026-01-16 04:13:49.33	43.75	6.26	-46.7	-50.5	13.3	0.00e+00	0	32	0	51380224	59	5596
2026-01-16 04:13:50.34	43.67	6.33	-46.7	-50.4	13.3	0.00e+00	0	32	0	53477376	59	5550
2026-01-16 04:13:51.35	43.59	6.39	-46.8	-50.7	13.1	7.00e-07	0	32	0	55574528	59	5753
2026-01-16 04:13:52.36	43.50	6.46	-46.9	-50.8	13.1	7.00e-07	0	32	0	56623104	59	5790
2026-01-16 04:13:53.37	43.42	6.52	-46.6	-50.2	13.4	0.00e+00	0	32	0	58720256	59	5451
2026-01-16 04:13:54.38	43.34	6.59	-46.5	-50.1	13.5	0.00e+00	0	32	0	60817408	59	5389
2026-01-16 04:13:55.39	43.25	6.65	-47.0	-50.9	13.0	7.00e-07	0	32	0	62914560	59	5886
2026-01-16 04:13:56.40	43.17	6.72	-46.7	-50.4	13.3	0.00e+00	0	32	0	65011712	59	5568
2026-01-16 04:13:57.41	43.08	6.79	-46.6	-50.2	13.5	0.00e+00	0	32	0	66060288	59	5452
2026-01-16 04:13:58.42	43.00	6.85	-46.7	-50.4	13.4	0.00e+00	0	32	0	68157440	59	5569
2026-01-16 04:13:59.43	42.91	6.92	-46.6	-50.1	13.6	0.00e+00	0	32	0	70254592	59	5366
2026-01-16 04:14:00.44	42.83	6.98	-46.8	-50.4	13.4	0.00e+00	0	32	0	72351744	59	5576
2026-01-16 04:14:01.45	42.74	7.05	-46.8	-50.5	13.4	0.00e+00	0	32	0	74448896	59	5609
2026-01-16 04:14:02.46	42.65	7.11	-46.8	-50.4	13.4	0.00e+00	0	32	0	75497472	59	5592
2026-01-16 04:14:03.47	42.56	7.18	-46.8	-50.5	13.4	0.00e+00	0	32	0	77594624	59	5608
2026-01-16 04:14:04.47	42.48	7.25	-47.0	-50.7	13.3	0.00e+00	0	33	0	79691776	59	5729
2026-01-16 04:14:05.48	42.39	7.31	-47.0	-50.8	13.2	0.00e+00	0	32	0	81788928	59	5830
2026-01-16 04:14:06.49	42.30	7.38	-47.0	-50.7	13.2	0.00e+00	0	32	0	83886080	59	5776
2026-01-16 04:14:07.50	42.21	7.45	-47.1	-50.8	13.2	0.00e+00	0	33	0	84934656	59	5827
2026-01-16 04:14:08.51	42.12	7.51	-47.1	-50.8	13.2	0.00e+00	0	33	0	87031808	59	5832
2026-01-16 04:14:09.52	42.03	7.58	-47.1	-50.9	13.1	7.00e-07	0	32	0	89128960	59	5868
2026-01-16 04:14:10.53	41.94	7.65	-47.3	-51.2	12.9	0.00e+00	0	32	0	91226112	59	6079
2026-01-16 04:14:11.54	41.85	7.71	-46.9	-50.4	13.5	0.00e+00	0	32	0	93323264	59	5576
2026-01-16 04:14:12.55	41.76	7.78	-46.9	-50.6	13.4	0.00e+00	0	33	0	94371840	59	5659
2026-01-16 04:14:13.56	41.67	7.85	-47.1	-50.9	13.2	0.00e+00	0	33	0	96468992	59	5865
2026-01-16 04:14:14.56	41.58	7.91	-47.0	-50.7	13.3	0.00e+00	0	33	0	98566144	59	5740
2026-01-16 04:14:15.57	41.48	7.98	-46.9	-50.5	13.3	0.00e+00	0	33	0	100663296	59	5614
2026-01-16 04:14:16.58	41.39	8.05	-46.8	-50.4	13.5	0.00e+00	0	32	0	102760448	59	5536
2026-01-16 04:14:17.59	41.30	8.12	-46.8	-50.4	13.5	0.00e+00	0	32	0	103809024	59	5568
2026-01-16 04:14:18.60	41.20	8.18	-47.2	-51.1	13.0	0.00e+00	0	32	0	105906176	59	6035
2026-01-16 04:14:19.61	41.11	8.25	-47.1	-51.0	13.1	0.00e+00	0	32	0	108003328	59	5927
2026-01-16 04:14:20.62	41.01	8.32	-47.3	-51.4	12.8	0.00e+00	0	33	0	110100480	59	6222
2026-01-16 04:14:21.63	40.92	8.39	-47.1	-51.1	12.8	7.00e-07	0	33	0	112197632	60	5665
2026-01-16 04:14:22.64	40.82	8.46	-47.0	-50.9	12.9	3.80e-06	0	33	0	113246208	60	5554
2026-01-16 04:14:23.65	40.73	8.52	-46.9	-50.6	13.1	1.50e-06	0	32	0	115343360	60	5397
2026-01-16 04:14:24.66	40.63	8.59	-46.8	-50.6	13.2	0.00e+00	0	33	0	117440512	60	5352
2026-01-16 04:14:25.67	40.53	8.66	-46.9	-50.6	13.3	0.00e+00	0	33	0	119537664	59	5703
2026-01-16 04:14:26.68	40.43	8.73	-46.7	-50.4	13.5	0.00e+00	0	32	0	121634816	59	5540
2026-01-16 04:14:27.69	40.34	8.80	-46.7	-50.2	13.6	0.00e+00	0	33	0	123731968	59	5464
2026-01-16 04:14:28.70	40.24	8.87	-46.5	-50.0	13.7	0.00e+00	0	33	0	124780544	59	5331
2026-01-16 04:14:29.71	40.14	8.94	-46.6	-50.2	13.6	0.00e+00	0	33	0	126877696	59	5447
2026-01-16 04:14:30.71	40.04	9.00	-46.5	-50.0	13.7	0.00e+00	0	33	0	128974848	59	5340
2026-01-16 04:14:31.72	39.94	9.07	-46.7	-50.3	13.6	0.00e+00	0	33	0	131072000	59	5517
2026-01-16 04:14:32.73	39.84	9.14	-46.6	-50.2	13.6	0.00e+00	0	33	0	133169152	59	5462
2026-01-16 04:14:33.74	39.74	9.21	-46.5	-50.1	13.8	0.00e+00	0	33	0	134217728	59	5352
2026-01-16 04:14:34.75	39.64	9.28	-46.6	-50.0	13.8	0.00e+00	0	33	0	136314880	59	5335
2026-01-16 04:14:35.76	39.54	9.35	-46.3	-49.6	14.1	0.00e+00	0	33	0	138412032	59	5077
2026-01-16 04:14:36.77	39.43	9.42	-46.2	-49.5	14.2	0.00e+00	0	33	0	140509184	58	5325
2026-01-16 04:14:37.78	39.33	9.49	-46.3	-49.7	14.0	0.00e+00	0	33	0	142606336	58	5403
2026-01-16 04:14:38.79	39.23	9.56	-46.4	-49.7	14.0	0.00e+00	0	33	0	143654912	58	5451
2026-01-16 04:14:39.80	39.12	9.63	-46.5	-49.9	13.9	0.00e+00	0	33	0	145752064	58	5565
2026-01-16 04:14:40.81	39.02	9.70	-46.3	-49.6	14.1	0.00e+00	0	32	0	147849216	58	5346
2026-01-16 04:14:41.82	38.91	9.77	-46.2	-49.4	14.2	0.00e+00	0	33	0	149946368	58	5258
2026-01-16 04:14:42.83	38.81	9.84	-46.3	-49.6	14.1	0.00e+00	0	33	0	152043520	58	5399
2026-01-16 04:14:43.84	38.70	9.91	-46.2	-49.4	14.2	0.00e+00	0	32	0	153092096	58	5270
2026-01-16 04:14:44.84	38.59	9.98	-46.1	-49.3	14.3	0.00e+00	0	33	0	155189248	58	5206
2026-01-16 04:14:45.85	38.49	10.05	-46.2	-49.4	14.2	0.00e+00	0	33	0	157286400	58	5233
2026-01-16 04:14:46.86	38.38	10.12	-46.1	-49.2	14.4	0.00e+00	0	33	0	159383552	58	5114
2026-01-16 04:14:47.87	38.27	10.19	-46.0	-49.1	14.4	0.00e+00	0	33	0	161480704	58	5071
2026-01-16 04:14:48.88	38.16	10.26	-45.9	-49.0	14.5	0.00e+00	0	33	0	162529280	58	4988
2026-01-16 04:14:49.89	38.05	10.33	-46.0	-49.0	14.5	0.00e+00	0	32	0	164626432	58	4997
2026-01-16 04:14:50.90	37.94	10.41	-46.1	-49.2	14.3	0.00e+00	0	33	0	166723584	58	5117
2026-01-16 04:14:51.91	37.83	10.48	-46.2	-49.3	14.3	0.00e+00	0	33	0	168820736	58	5160
2026-01-16 04:14:52.92	37.72	10.55	-46.2	-49.4	14.3	0.00e+00	0	33	0	170917888	58	5231
2026-01-16 04:14:53.93	37.61	10.62	-46.2	-49.3	14.3	0.00e+00	0	33	0	171966464	58	5181
2026-01-16 04:14:54.94	37.50	10.69	-46.2	-49.4	14.2	0.00e+00	0	33	0	174063616	58	5232
2026-01-16 04:14:55.95	37.39	10.76	-46.2	-49.4	14.3	0.00e+00	0	32	0	176160768	58	5221
2026-01-16 04:14:56.96	37.27	10.83	-46.0	-48.9	14.5	0.00e+00	0	33	0	178257920	58	4979
2026-01-16 04:14:57.97	37.16	10.91	-46.1	-49.1	14.4	0.00e+00	0	33	0	180355072	58	5053
2026-01-16 04:14:58.98	37.04	10.98	-46.1	-49.2	14.4	0.00e+00	0	33	0	181403648	58	5109
2026-01-16 04:14:59.99	36.93	11.05	-46.2	-49.3	14.3	0.00e+00	0	33	0	183500800	58	5183
2026-01-16 04:15:01.00	36.81	11.12	-46.3	-49.4	14.3	0.00e+00	0	33	0	185597952	58	5233
2026-01-16 04:15:02.01	36.70	11.19	-46.3	-49.4	14.3	0.00e+00	0	32	0	187695104	58	5248
2026-01-16 04:15:03.02	36.58	11.27	-46.2	-49.2	14.4	0.00e+00	0	33	0	189792256	58	5147
2026-01-16 04:15:04.02	36.46	11.34	-46.3	-49.4	14.3	0.00e+00	0	33	0	191889408	58	5237
2026-01-16 04:15:05.03	36.35	11.41	-46.3	-49.5	14.2	0.00e+00	0	32	0	192937984	58	5281
2026-01-16 04:15:06.04	36.23	11.48	-46.2	-49.2	14.4	0.00e+00	0	33	0	195035136	58	5156
2026-01-16 04:15:07.05	36.11	11.56	-46.2	-49.3	14.3	0.00e+00	0	33	0	197132288	58	5188
2026-01-16 04:15:08.06	35.99	11.63	-46.3	-49.4	14.2	0.00e+00	0	33	0	199229440	58	5259
2026-01-16 04:15:09.07	35.87	11.70	-46.3	-49.4	14.3	0.00e+00	0	33	0	201326592	58	5253
2026-01-16 04:15:10.08	35.75	11.77	-46.4	-49.5	14.2	0.00e+00	0	33	0	202375168	58	5322
2026-01-16 04:15:11.09	35.63	11.85	-46.4	-49.6	14.2	0.00e+00	0	32	0	204472320	58	5366
2026-01-16 04:15:12.10	35.50	11.92	-46.4	-49.5	14.2	0.00e+00	0	33	0	206569472	58	5316
2026-01-16 04:15:13.11	35.38	11.99	-46.6	-49.9	14.0	0.00e+00	0	33	0	208666624	58	5587
2026-01-16 04:15:14.11	35.26	12.07	-46.6	-49.9	13.9	0.00e+00	0	33	0	210763776	58	5551
2026-01-16 04:15:15.13	35.13	12.14	-46.6	-49.9	14.0	0.00e+00	0	33	0	211812352	58	5568
2026-01-16 04:15:16.13	35.01	12.21	-46.5	-49.7	14.1	0.00e+00	0	33	0	213909504	58	5452
2026-01-16 04:15:17.14	34.88	12.29	-46.4	-49.5	14.2	0.00e+00	0	33	0	216006656	58	5319
2026-01-16 04:15:18.15	34.76	12.36	-46.2	-49.3	14.4	0.00e+00	0	33	0	218103808	58	5160
2026-01-16 04:15:19.16	34.63	12.43	-46.1	-49.1	14.4	0.00e+00	0	33	0	220200960	58	5093
2026-01-16 04:15:20.17	34.50	12.51	-46.3	-49.3	14.3	0.00e+00	0	33	0	221249536	58	5190
2026-01-16 04:15:21.18	34.38	12.58	-46.0	-48.8	14.6	0.00e+00	0	33	0	223346688	58	4893
2026-01-16 04:15:22.18	34.25	12.65	-45.9	-48.7	14.6	0.00e+00	0	33	0	225443840	58	4847
2026-01-16 04:15:23.19	34.12	12.73	-45.9	-48.8	14.6	0.00e+00	0	33	0	227540992	58	4872
2026-01-16 04:15:24.20	33.99	12.80	-45.6	-48.3	14.9	0.00e+00	0	33	0	229638144	57	4897
2026-01-16 04:15:25.21	33.86	12.88	-45.5	-48.2	14.9	0.00e+00	0	33	0	230686720	57	4822
2026-01-16 04:15:26.22	33.73	12.95	-45.6	-48.2	14.9	0.00e+00	0	33	0	232783872	57	4855
2026-01-16 04:15:27.23	33.59	13.02	-45.4	-48.0	15.0	0.00e+00	0	33	0	234881024	57	4739
2026-01-16 04:15:28.24	33.46	13.10	-45.3	-47.8	15.1	0.00e+00	0	33	0	236978176	57	4641
2026-01-16 04:15:29.25	33.33	13.17	-45.3	-47.9	15.1	0.00e+00	0	33	0	239075328	57	4679
2026-01-16 04:15:30.26	33.19	13.25	-45.5	-48.1	15.0	0.00e+00	0	33	0	240123904	57	4764
2026-01-16 04:15:31.27	33.06	13.32	-45.4	-47.9	15.1	0.00e+00	0	33	0	242221056	57	4691
2026-01-16 04:15:32.28	32.92	13.40	-45.4	-48.0	15.0	0.00e+00	0	33	0	244318208	57	4750
2026-01-16 04:15:33.29	32.79	13.47	-45.3	-47.8	15.1	0.00e+00	0	33	0	246415360	57	4605
2026-01-16 04:15:34.30	32.65	13.55	-45.3	-47.9	15.1	0.00e+00	0	33	0	248512512	57	4669
2026-01-16 04:15:35.30	32.52	13.62	-45.3	-47.8	15.1	0.00e+00	0	33	0	249561088	57	4646
2026-01-16 04:15:36.31	32.38	13.70	-45.4	-47.9	15.1	0.00e+00	0	33	0	251658240	57	4687
2026-01-16 04:15:37.32	32.24	13.77	-45.4	-48.0	15.1	0.00e+00	0	33	0	253755392	57	4715
2026-01-16 04:15:38.33	32.10	13.85	-45.5	-48.1	15.0	0.00e+00	0	33	0	255852544	57	4778
2026-01-16 04:15:39.34	31.96	13.92	-45.5	-48.1	15.0	0.00e+00	0	33	0	257949696	57	4799
2026-01-16 04:15:40.35	31.82	14.00	-45.6	-48.2	15.0	0.00e+00	0	33	0	258998272	57	4848
2026-01-16 04:15:41.36	31.67	14.07	-45.6	-48.2	15.0	0.00e+00	0	33	0	261095424	57	4830
2026-01-16 04:15:42.37	31.53	14.15	-45.5	-48.1	15.0	0.00e+00	0	33	0	263192576	57	4799
2026-01-16 04:15:43.37	31.39	14.22	-45.4	-48.0	15.1	0.00e+00	0	33	0	265289728	57	4714
2026-01-16 04:15:44.38	31.25	14.30	-45.4	-47.9	15.1	0.00e+00	0	33	0	267386880	57	4690
2026-01-16 04:15:45.39	31.10	14.37	-45.3	-47.7	15.2	0.00e+00	0	33	0	268435456	57	4592
2026-01-16 04:15:46.40	30.96	14.45	-45.4	-47.9	15.1	0.00e+00	0	33	0	270532608	56	4940
2026-01-16 04:15:47.41	30.81	14.52	-45.5	-48.0	15.0	0.00e+00	0	33	0	272629760	56	5022
2026-01-16 04:15:48.42	30.66	14.60	-45.4	-48.0	15.0	0.00e+00	0	33	0	274726912	56	5002
2026-01-16 04:15:49.43	30.51	14.67	-45.3	-47.9	15.1	0.00e+00	0	33	0	276824064	56	4930
2026-01-16 04:15:50.44	30.37	14.75	-45.3	-47.9	15.1	0.00e+00	0	33	0	277872640	56	4940
2026-01-16 04:15:51.45	30.22	14.82	-45.4	-48.0	15.0	0.00e+00	0	33	0	279969792	56	5014
2026-01-16 04:15:52.46	30.07	14.90	-45.2	-47.8	15.1	0.00e+00	0	33	0	282066944	56	4907
2026-01-16 04:15:53.47	29.91	14.98	-45.2	-47.7	15.1	0.00e+00	0	33	0	284164096	56	4848
2026-01-16 04:15:54.47	29.76	15.05	-45.2	-47.7	15.1	0.00e+00	0	33	0	286261248	56	4825
2026-01-16 04:15:55.48	29.61	15.13	-45.1	-47.6	15.2	0.00e+00	0	33	0	288358400	56	4798
2026-01-16 04:15:56.50	29.46	15.20	-45.2	-47.8	15.1	0.00e+00	0	33	0	289406976	56	4874
2026-01-16 04:15:57.50	29.30	15.28	-45.3	-48.0	15.0	0.00e+00	0	33	0	291504128	56	5020
2026-01-16 04:15:58.51	29.15	15.35	-45.6	-48.5	14.7	0.00e+00	0	33	0	293601280	56	5318
2026-01-16 04:15:59.52	28.99	15.43	-45.7	-48.6	14.6	0.00e+00	0	33	0	295698432	56	5400
2026-01-16 04:16:00.53	28.84	15.51	-45.6	-48.5	14.7	0.00e+00	0	33	0	297795584	56	5281
2026-01-16 04:16:01.54	28.68	15.58	-45.6	-48.5	14.7	0.00e+00	0	33	0	298844160	56	5313
2026-01-16 04:16:02.55	28.52	15.66	-45.6	-48.4	14.8	0.00e+00	0	33	0	300941312	56	5251
2026-01-16 04:16:03.56	28.36	15.73	-45.7	-48.6	14.7	0.00e+00	0	33	0	303038464	56	5379
2026-01-16 04:16:04.57	28.20	15.81	-45.8	-48.7	14.6	0.00e+00	0	33	0	305135616	56	5457
2026-01-16 04:16:05.58	28.04	15.88	-45.9	-48.9	14.6	0.00e+00	0	33	0	307232768	56	5539
2026-01-16 04:16:06.59	27.88	15.96	-46.0	-49.1	14.4	0.00e+00	0	33	0	308281344	57	5368
2026-01-16 04:16:07.60	27.72	16.04	-46.1	-49.1	14.3	0.00e+00	0	33	0	310378496	57	5390
2026-01-16 04:16:08.61	27.55	16.11	-45.9	-48.9	14.6	0.00e+00	0	33	0	312475648	57	5230
2026-01-16 04:16:09.61	27.39	16.19	-45.8	-48.7	14.7	0.00e+00	0	33	0	314572800	57	5112
2026-01-16 04:16:10.62	27.23	16.26	-45.8	-48.6	14.7	0.00e+00	0	33	0	316669952	57	5076
2026-01-16 04:16:11.63	27.06	16.34	-45.7	-48.4	14.8	0.00e+00	0	33	0	317718528	57	4978
2026-01-16 04:16:12.64	26.90	16.42	-45.8	-48.6	14.7	0.00e+00	0	33	0	319815680	57	5075
2026-01-16 04:16:13.65	26.73	16.49	-45.9	-48.8	14.6	0.00e+00	0	33	0	321912832	57	5201
2026-01-16 04:16:14.66	26.56	16.57	-46.0	-49.0	14.5	0.00e+00	0	33	0	324009984	57	5312
2026-01-16 04:16:15.67	26.39	16.64	-45.9	-48.7	14.6	0.00e+00	0	33	0	326107136	57	5153
2026-01-16 04:16:16.68	26.22	16.72	-45.9	-48.7	14.7	0.00e+00	0	33	0	327155712	57	5138
2026-01-16 04:16:17.69	26.05	16.79	-45.9	-48.8	14.6	0.00e+00	0	33	0	329252864	57	5200
2026-01-16 04:16:18.70	25.88	16.87	-46.0	-49.0	14.5	0.00e+00	0	33	0	331350016	57	5312
2026-01-16 04:16:19.71	25.71	16.95	-45.7	-48.6	14.7	0.00e+00	0	33	0	333447168	57	5056
2026-01-16 04:16:20.72	25.53	17.02	-45.8	-48.7	14.6	0.00e+00	0	33	0	335544320	57	5158
2026-01-16 04:16:21.73	25.36	17.10	-45.8	-48.7	14.7	0.00e+00	0	33	0	336592896	57	5125
2026-01-16 04:16:22.74	25.18	17.17	-45.9	-48.9	14.5	0.00e+00	0	33	0	338690048	57	5250
2026-01-16 04:16:23.75	25.01	17.25	-45.8	-48.6	14.7	0.00e+00	0	33	0	340787200	57	5093
2026-01-16 04:16:24.75	24.83	17.32	-45.8	-48.7	14.6	0.00e+00	0	33	0	342884352	57	5119
2026-01-16 04:16:25.76	24.65	17.40	-45.6	-48.5	14.7	0.00e+00	0	33	0	344981504	57	4993
2026-01-16 04:16:26.77	24.47	17.47	-45.4	-48.1	14.9	0.00e+00	0	33	0	346030080	57	4772
2026-01-16 04:16:27.78	24.29	17.55	-45.4	-48.1	15.0	0.00e+00	0	33	0	348127232	57	4774
2026-01-16 04:16:28.79	24.11	17.63	-45.5	-48.3	14.8	0.00e+00	0	33	0	350224384	57	4878
2026-01-16 04:16:29.80	23.93	17.70	-45.8	-48.8	14.6	0.00e+00	0	33	0	352321536	57	5177
2026-01-16 04:16:30.81	23.75	17.78	-45.7	-48.6	14.7	0.00e+00	0	33	0	354418688	57	5075
2026-01-16 04:16:31.82	23.56	17.85	-45.8	-48.8	14.6	0.00e+00	0	33	0	356515840	57	5175
2026-01-16 04:16:32.83	23.38	17.93	-45.7	-48.6	14.7	0.00e+00	0	33	0	357564416	57	5075
2026-01-16 04:16:33.84	23.19	18.00	-45.6	-48.4	14.8	0.00e+00	0	33	0	359661568	57	4979
2026-01-16 04:16:34.85	23.01	18.08	-45.6	-48.4	14.8	0.00e+00	0	33	0	361758720	57	4959
2026-01-16 04:16:35.86	22.82	18.15	-45.6	-48.3	14.9	0.00e+00	0	33	0	363855872	57	4909
2026-01-16 04:16:36.87	22.63	18.22	-45.4	-48.0	15.0	0.00e+00	0	33	0	365953024	57	4746
2026-01-16 04:16:37.88	22.44	18.30	-45.6	-48.3	14.9	0.00e+00	0	33	0	367001600	57	4887
2026-01-16 04:16:38.89	22.25	18.37	-45.5	-48.2	15.0	0.00e+00	0	33	0	369098752	57	4835
2026-01-16 04:16:39.89	22.06	18.45	-45.7	-48.4	14.9	0.00e+00	0	33	0	371195904	57	4961
2026-01-16 04:16:40.90	21.87	18.52	-45.6	-48.3	15.0	0.00e+00	0	33	0	373293056	57	4875
2026-01-16 04:16:41.91	21.68	18.60	-45.5	-48.1	15.1	0.00e+00	0	33	0	375390208	57	4799
2026-01-16 04:16:42.92	21.49	18.67	-45.7	-48.4	14.9	0.00e+00	0	33	0	376438784	57	4947
2026-01-16 04:16:43.93	21.29	18.74	-45.8	-48.6	14.8	0.00e+00	0	33	0	378535936	57	5042
2026-01-16 04:16:44.94	21.10	18.82	-45.8	-48.7	14.8	0.00e+00	0	33	0	380633088	57	5118
2026-01-16 04:16:45.95	20.90	18.89	-46.0	-48.9	14.6	0.00e+00	0	33	0	382730240	57	5270
2026-01-16 04:16:46.96	20.70	18.96	-45.8	-48.6	14.7	0.00e+00	0	33	0	384827392	57	5092
2026-01-16 04:16:47.97	20.50	19.04	-45.7	-48.4	14.9	0.00e+00	0	33	0	385875968	57	4951
2026-01-16 04:16:48.98	20.30	19.11	-45.5	-48.1	15.1	0.00e+00	0	33	0	387973120	57	4797
2026-01-16 04:16:49.99	20.10	19.18	-45.5	-48.1	15.1	0.00e+00	0	33	0	390070272	57	4783
2026-01-16 04:16:51.00	19.90	19.26	-45.5	-48.1	15.1	0.00e+00	0	33	0	392167424	57	4780
2026-01-16 04:16:52.00	19.70	19.33	-45.4	-48.0	15.1	0.00e+00	0	33	0	394264576	57	4743
2026-01-16 04:16:53.01	19.50	19.40	-45.6	-48.3	15.0	0.00e+00	0	33	0	395313152	57	4892
2026-01-16 04:16:54.02	19.29	19.47	-45.2	-47.8	15.3	0.00e+00	0	33	0	397410304	57	4605
2026-01-16 04:16:55.03	19.09	19.55	-45.2	-47.7	15.2	0.00e+00	0	33	0	399507456	56	4842
2026-01-16 04:16:56.04	18.88	19.62	-44.8	-47.2	15.4	0.00e+00	0	33	0	401604608	56	4582
2026-01-16 04:16:57.05	18.67	19.69	-44.8	-47.2	15.4	0.00e+00	0	33	0	403701760	56	4594
2026-01-16 04:16:58.06	18.46	19.76	-44.9	-47.5	15.3	0.00e+00	0	33	0	404750336	56	4726
2026-01-16 04:16:59.07	18.25	19.83	-44.9	-47.5	15.3	0.00e+00	0	33	0	406847488	56	4732
2026-01-16 04:17:00.08	18.04	19.90	-45.0	-47.6	15.2	0.00e+00	0	33	0	408944640	56	4778
2026-01-16 04:17:01.09	17.83	19.98	-44.8	-47.3	15.4	0.00e+00	0	33	0	411041792	56	4607
2026-01-16 04:17:02.10	17.62	20.05	-44.1	-46.4	15.7	0.00e+00	0	33	0	413138944	54	4674
2026-01-16 04:17:03.11	17.41	20.12	-44.1	-46.3	15.7	0.00e+00	0	33	0	414187520	54	4638
2026-01-16 04:17:04.12	17.19	20.19	-44.1	-46.4	15.7	0.00e+00	0	33	0	416284672	54	4658
2026-01-16 04:17:05.13	16.98	20.26	-44.2	-46.4	15.7	0.00e+00	0	33	0	418381824	54	4679
2026-01-16 04:17:06.14	16.76	20.33	-44.2	-46.5	15.6	0.00e+00	0	33	0	420478976	54	4708
2026-01-16 04:17:07.14	16.55	20.40	-44.2	-46.5	15.6	0.00e+00	0	33	0	422576128	54	4727
2026-01-16 04:17:08.15	16.33	20.47	-44.1	-46.3	15.7	0.00e+00	0	33	0	424673280	54	4629
2026-01-16 04:17:09.16	16.11	20.54	-44.1	-46.3	15.7	0.00e+00	0	33	0	425721856	54	4651
2026-01-16 04:17:10.17	15.89	20.60	-44.2	-46.4	15.7	0.00e+00	0	33	0	427819008	54	4702
2026-01-16 04:17:11.18	15.67	20.67	-44.1	-46.3	15.7	0.00e+00	0	33	0	429916160	54	4634
2026-01-16 04:17:12.19	15.44	20.74	-44.3	-46.6	15.6	0.00e+00	0	33	0	432013312	54	4777
2026-01-16 04:17:13.20	15.22	20.81	-44.3	-46.6	15.6	0.00e+00	0	33	0	434110464	54	4768
2026-01-16 04:17:14.21	15.00	20.88	-44.2	-46.5	15.6	0.00e+00	0	33	0	435159040	54	4758
2026-01-16 04:17:15.22	14.77	20.94	-44.2	-46.4	15.7	0.00e+00	0	33	0	437256192	54	4699
2026-01-16 04:17:16.23	14.54	21.01	-43.9	-46.0	15.8	0.00e+00	0	33	0	439353344	54	4492
2026-01-16 04:17:17.24	14.32	21.08	-43.9	-46.1	15.8	0.00e+00	0	33	0	441450496	54	4518
2026-01-16 04:17:18.24	14.09	21.14	-44.1	-46.3	15.7	0.00e+00	0	33	0	442499072	54	4631
2026-01-16 04:17:19.25	13.86	21.21	-44.1	-46.4	15.7	0.00e+00	0	33	0	444596224	54	4667
2026-01-16 04:17:20.26	13.63	21.28	-44.0	-46.2	15.8	0.00e+00	0	33	0	446693376	54	4575
2026-01-16 04:17:21.27	13.40	21.34	-44.0	-46.2	15.8	0.00e+00	0	33	0	448790528	54	4589
2026-01-16 04:17:22.28	13.17	21.41	-43.9	-46.1	15.8	0.00e+00	0	33	0	450887680	54	4501
2026-01-16 04:17:23.29	12.93	21.47	-44.0	-46.2	15.8	0.00e+00	0	33	0	452984832	54	4554
2026-01-16 04:17:24.30	12.70	21.54	-44.0	-46.2	15.8	0.00e+00	0	33	0	454033408	54	4548
2026-01-16 04:17:25.31	12.46	21.60	-43.8	-45.9	15.9	0.00e+00	0	33	0	456130560	54	4429
2026-01-16 04:17:26.32	12.23	21.67	-43.8	-46.0	15.9	0.00e+00	0	33	0	458227712	54	4447
2026-01-16 04:17:27.33	11.99	21.73	-43.9	-46.1	15.8	0.00e+00	0	33	0	460324864	54	4527
2026-01-16 04:17:28.34	11.75	21.79	-43.8	-45.9	15.9	0.00e+00	0	33	0	462422016	54	4430
2026-01-16 04:17:29.35	11.51	21.86	-43.7	-45.7	16.0	0.00e+00	0	33	0	463470592	53	4582
2026-01-16 04:17:30.36	11.27	21.92	-43.6	-45.5	16.0	0.00e+00	0	33	0	465567744	53	4483
2026-01-16 04:17:31.36	11.03	21.98	-43.5	-45.4	16.1	0.00e+00	0	33	0	467664896	53	4439
2026-01-16 04:17:32.37	10.79	22.04	-43.6	-45.6	16.1	0.00e+00	0	33	0	469762048	53	4494
2026-01-16 04:17:33.38	10.55	22.10	-43.7	-45.7	16.0	0.00e+00	0	33	0	471859200	53	4588
2026-01-16 04:17:34.39	10.30	22.16	-43.8	-45.8	16.0	0.00e+00	0	33	0	472907776	53	4607
2026-01-16 04:17:35.40	10.06	22.22	-43.7	-45.7	16.1	0.00e+00	0	33	0	475004928	53	4547
2026-01-16 04:17:36.41	9.81	22.28	-43.6	-45.5	16.1	0.00e+00	0	33	0	477102080	53	4457
2026-01-16 04:17:37.42	9.57	22.34	-43.6	-45.5	16.1	0.00e+00	0	33	0	479199232	53	4485
2026-01-16 04:17:38.43	9.32	22.40	-43.6	-45.5	16.1	0.00e+00	0	33	0	481296384	53	4459
2026-01-16 04:17:39.44	9.07	22.46	-43.7	-45.6	16.1	0.00e+00	0	33	0	482344960	53	4529
2026-01-16 04:17:40.45	8.82	22.52	-43.6	-45.5	16.1	0.00e+00	0	33	0	484442112	53	4453
2026-01-16 04:17:41.46	8.57	22.58	-43.6	-45.5	16.1	0.00e+00	0	33	0	486539264	53	4454
2026-01-16 04:17:42.47	8.32	22.64	-43.7	-45.6	16.1	0.00e+00	0	33	0	488636416	53	4512
2026-01-16 04:17:43.48	8.06	22.69	-43.4	-45.2	16.2	0.00e+00	0	33	0	490733568	53	4335
2026-01-16 04:17:44.49	7.81	22.75	-43.2	-45.1	16.3	0.00e+00	0	33	0	491782144	53	4249
2026-01-16 04:17:45.50	7.56	22.81	-43.4	-45.2	16.2	0.00e+00	0	33	0	493879296	53	4338
2026-01-16 04:17:46.51	7.30	22.86	-43.6	-45.6	16.1	0.00e+00	0	33	0	495976448	53	4511
2026-01-16 04:17:47.52	7.04	22.92	-43.6	-45.5	16.1	0.00e+00	0	33	0	498073600	53	4492
2026-01-16 04:17:48.53	6.79	22.97	-43.5	-45.4	16.2	0.00e+00	0	33	0	500170752	53	4414
2026-01-16 04:17:49.53	6.53	23.02	-43.5	-45.4	16.2	0.00e+00	0	33	0	501219328	53	4421
2026-01-16 04:17:50.54	6.27	23.08	-43.7	-45.7	16.1	0.00e+00	0	33	0	503316480	53	4570
2026-01-16 04:17:51.55	6.01	23.13	-43.9	-45.9	16.0	0.00e+00	0	33	0	505413632	53	4704
2026-01-16 04:17:52.56	5.75	23.18	-44.1	-46.1	15.9	0.00e+00	0	33	0	507510784	53	4803
2026-01-16 04:17:53.57	5.49	23.23	-44.1	-46.1	16.0	0.00e+00	0	33	0	509607936	53	4769
2026-01-16 04:17:54.58	5.23	23.29	-44.1	-46.1	15.9	0.00e+00	0	33	0	510656512	53	4781
2026-01-16 04:17:55.59	4.96	23.34	-43.8	-45.8	16.1	0.00e+00	0	33	0	512753664	53	4612
2026-01-16 04:17:56.60	4.70	23.39	-43.8	-45.7	16.1	0.00e+00	0	33	0	514850816	53	4580
2026-01-16 04:17:57.61	4.43	23.44	-43.7	-45.6	16.1	0.00e+00	0	33	0	516947968	53	4537
2026-01-16 04:17:58.62	4.17	23.48	-43.8	-45.7	16.1	0.00e+00	0	33	0	519045120	53	4595
2026-01-16 04:17:59.63	3.90	23.53	-44.0	-45.9	16.0	0.00e+00	0	33	0	521142272	53	4700
2026-01-16 04:18:00.64	3.63	23.58	-43.8	-45.8	16.1	0.00e+00	0	33	0	522190848	53	4601
2026-01-16 04:18:01.65	3.36	23.63	-43.6	-45.5	16.2	0.00e+00	0	33	0	524288000	53	4448
2026-01-16 04:18:02.66	3.09	23.68	-43.5	-45.3	16.2	0.00e+00	0	33	0	526385152	53	4357
2026-01-16 04:18:03.67	2.82	23.72	-43.5	-45.4	16.2	0.00e+00	0	33	0	528482304	53	4395
2026-01-16 04:18:04.68	2.55	23.77	-43.5	-45.4	16.2	0.00e+00	0	33	0	530579456	53	4402
2026-01-16 04:18:05.69	2.28	23.81	-43.7	-45.6	16.1	0.00e+00	0	33	0	531628032	53	4530
2026-01-16 04:18:06.69	2.01	23.86	-43.6	-45.4	16.2	0.00e+00	0	33	0	533725184	53	4441
2026-01-16 04:18:07.70	1.74	23.90	-43.6	-45.4	16.2	0.00e+00	0	33	0	535822336	53	4430
2026-01-16 04:18:08.71	1.46	23.94	-43.3	-45.0	16.3	0.00e+00	0	33	0	537919488	53	4233
2026-01-16 04:18:09.72	1.19	23.98	-43.1	-44.8	16.4	0.00e+00	0	33	0	540016640	52	4390
2026-01-16 04:18:10.73	0.91	24.03	-43.1	-44.9	16.4	0.00e+00	0	33	0	541065216	52	4409
2026-01-16 04:18:11.74	0.64	24.07	-43.2	-45.0	16.3	0.00e+00	0	33	0	543162368	52	4453
2026-01-16 04:18:12.75	0.36	24.11	-43.4	-45.2	16.2	0.00e+00	0	33	0	545259520	52	4570
2026-01-16 04:18:13.76	0.08	24.15	-43.6	-45.4	16.2	0.00e+00	0	33	0	547356672	52	4698
2026-01-16 04:18:14.77	359.80	24.19	-43.8	-45.7	16.1	0.00e+00	0	33	0	549453824	52	4859
2026-01-16 04:18:15.78	359.53	24.22	-44.0	-45.9	16.0	0.00e+00	0	33	0	550502400	53	4705
2026-01-16 04:18:16.78	359.25	24.26	-44.1	-46.1	15.9	0.00e+00	0	33	0	552599552	53	4809
2026-01-16 04:18:17.79	358.97	24.30	-44.3	-46.4	15.8	0.00e+00	0	33	0	554696704	53	4978
2026-01-16 04:18:18.80	358.69	24.33	-45.0	-47.3	15.5	0.00e+00	0	33	0	556793856	55	4885
2026-01-16 04:18:19.81	358.40	24.37	-45.3	-47.8	15.2	0.00e+00	0	33	0	558891008	55	5185
2026-01-16 04:18:20.82	358.12	24.41	-45.6	-48.1	15.3	0.00e+00	0	33	0	559939584	56	5087
2026-01-16 04:18:21.83	357.84	24.44	-45.7	-48.3	15.0	0.00e+00	0	33	0	562036736	56	5215
2026-01-16 04:18:22.84	357.56	24.47	-45.6	-48.2	15.1	0.00e+00	0	33	0	564133888	56	5134
2026-01-16 04:18:23.85	357.27	24.51	-45.4	-47.8	15.3	0.00e+00	0	33	0	566231040	56	4899
2026-01-16 04:18:24.86	356.99	24.54	-45.3	-47.7	15.2	0.00e+00	0	33	0	568328192	56	4864
2026-01-16 04:18:25.87	356.70	24.57	-45.2	-47.6	15.3	0.00e+00	0	33	0	569376768	56	4808
2026-01-16 04:18:26.87	356.42	24.60	-45.1	-47.5	15.4	0.00e+00	0	33	0	571473920	56	4749
2026-01-16 04:18:27.88	356.13	24.63	-45.1	-47.4	15.5	0.00e+00	0	33	0	573571072	56	4678
2026-01-16 04:18:28.89	355.84	24.66	-45.0	-47.3	15.5	0.00e+00	0	33	0	575668224	56	4625
2026-01-16 04:18:29.90	355.56	24.69	-44.6	-46.8	15.7	0.00e+00	0	33	0	577765376	55	4636
2026-01-16 04:18:30.91	355.27	24.71	-44.7	-47.0	15.5	0.00e+00	0	33	0	578813952	55	4736
2026-01-16 04:18:31.92	354.98	24.74	-44.9	-47.4	15.4	0.00e+00	0	33	0	580911104	55	4942
2026-01-16 04:18:32.93	354.69	24.77	-45.1	-47.5	15.3	0.00e+00	0	33	0	583008256	55	5018
2026-01-16 04:18:33.94	354.40	24.79	-45.1	-47.5	15.3	0.00e+00	0	33	0	585105408	55	5005
2026-01-16 04:18:34.95	354.11	24.82	-45.0	-47.5	15.3	0.00e+00	0	33	0	587202560	55	4992
2026-01-16 04:18:35.96	353.82	24.84	-44.8	-47.2	15.4	0.00e+00	0	33	0	589299712	55	4867
2026-01-16 04:18:36.97	353.53	24.86	-44.8	-47.1	15.5	0.00e+00	0	33	0	590348288	55	4806
2026-01-16 04:18:37.98	353.24	24.88	-45.1	-47.7	15.2	0.00e+00	0	33	0	592445440	55	5127
2026-01-16 04:18:38.99	352.95	24.90	-45.6	-48.5	14.9	0.00e+00	0	33	0	594542592	56	5288
2026-01-16 04:18:40.00	352.65	24.93	-45.9	-48.7	14.8	0.00e+00	0	33	0	596639744	57	5137
2026-01-16 04:18:41.01	352.36	24.94	-45.7	-48.5	14.9	0.00e+00	0	33	0	598736896	57	5006
2026-01-16 04:18:42.02	352.07	24.96	-45.7	-48.3	15.0	0.00e+00	0	33	0	599785472	57	4923
2026-01-16 04:18:43.03	351.78	24.98	-45.3	-47.9	15.2	0.00e+00	0	33	0	601882624	56	4938
2026-01-16 04:18:44.04	351.48	25.00	-45.4	-48.0	15.1	0.00e+00	0	33	0	603979776	56	5004
2026-01-16 04:18:45.05	351.19	25.02	-45.5	-48.2	14.9	0.00e+00	0	33	0	606076928	56	5156
2026-01-16 04:18:46.06	350.89	25.03	-45.6	-48.3	14.9	0.00e+00	0	33	0	608174080	56	5188
2026-01-16 04:18:47.07	350.60	25.05	-45.6	-48.4	15.0	0.00e+00	0	33	0	609222656	56	5245
2026-01-16 04:18:48.07	350.31	25.06	-45.5	-48.2	15.1	0.00e+00	0	33	0	611319808	56	5121
2026-01-16 04:18:49.08	350.01	25.07	-45.2	-47.7	15.3	0.00e+00	0	33	0	613416960	56	4862
2026-01-16 04:18:50.09	349.72	25.09	-45.2	-47.6	15.3	0.00e+00	0	33	0	615514112	56	4807
2026-01-16 04:18:51.10	349.42	25.10	-45.4	-47.9	15.2	0.00e+00	0	33	0	617611264	56	4974
2026-01-16 04:18:52.11	349.13	25.11	-45.6	-48.3	15.0	0.00e+00	0	33	0	618659840	56	5203
2026-01-16 04:18:53.12	348.83	25.12	-45.6	-48.4	14.9	0.00e+00	0	33	0	620756992	56	5219
2026-01-16 04:18:54.13	348.53	25.13	-45.9	-48.8	14.7	0.00e+00	0	33	0	622854144	57	5197
2026-01-16 04:18:55.14	348.24	25.13	-46.0	-49.0	14.6	0.00e+00	0	33	0	624951296	57	5312
2026-01-16 04:18:56.15	347.94	25.14	-45.9	-48.7	14.8	0.00e+00	0	33	0	627048448	57	5137
2026-01-16 04:18:57.16	347.65	25.15	-45.5	-48.2	15.1	0.00e+00	0	33	0	628097024	57	4838
2026-01-16 04:18:58.17	347.35	25.15	-45.5	-48.0	15.2	0.00e+00	0	33	0	630194176	57	4748
2026-01-16 04:18:59.17	347.05	25.16	-45.0	-47.4	15.4	0.00e+00	0	33	0	632291328	56	4699
2026-01-16 04:19:00.18	346.76	25.16	-45.0	-47.3	15.5	0.00e+00	0	33	0	634388480	56	4642
2026-01-16 04:19:01.19	346.46	25.17	-44.8	-47.2	15.5	0.00e+00	0	33	0	636485632	56	4553
2026-01-16 04:19:02.20	346.16	25.17	-44.9	-47.2	15.5	0.00e+00	0	33	0	637534208	56	4583
2026-01-16 04:19:03.21	345.87	25.17	-45.1	-47.5	15.4	0.00e+00	0	33	0	639631360	56	4734
2026-01-16 04:19:04.22	345.57	25.17	-45.3	-47.9	15.2	0.00e+00	0	33	0	641728512	56	4946
2026-01-16 04:19:05.23	345.27	25.17	-45.3	-47.9	15.2	0.00e+00	0	33	0	643825664	56	4960
2026-01-16 04:19:06.24	344.98	25.17	-45.2	-47.8	15.3	0.00e+00	0	33	0	645922816	56	4876
2026-01-16 04:19:07.25	344.68	25.17	-45.4	-48.1	15.1	0.00e+00	0	33	0	646971392	56	5050
2026-01-16 04:19:08.26	344.38	25.16	-45.5	-48.2	15.0	0.00e+00	0	33	0	649068544	56	5133
2026-01-16 04:19:09.27	344.09	25.16	-45.4	-48.1	15.0	0.00e+00	0	33	0	651165696	56	5072
2026-01-16 04:19:10.28	343.79	25.16	-45.6	-48.4	14.9	0.00e+00	0	33	0	653262848	56	5225
2026-01-16 04:19:11.29	343.49	25.15	-45.6	-48.5	14.9	0.00e+00	0	33	0	655360000	56	5284
2026-01-16 04:19:12.30	343.20	25.14	-45.4	-48.1	15.1	0.00e+00	0	33	0	656408576	56	5045
2026-01-16 04:19:13.31	342.90	25.14	-45.1	-47.6	15.4	0.00e+00	0	33	0	658505728	56	4783
2026-01-16 04:19:14.32	342.60	25.13	-44.7	-47.0	15.6	0.00e+00	0	33	0	660602880	56	4462
2026-01-16 04:19:15.32	342.31	25.12	-44.2	-46.4	15.8	0.00e+00	0	33	0	662700032	55	4392
2026-01-16 04:19:16.33	342.01	25.11	-44.0	-46.0	15.9	0.00e+00	0	33	0	664797184	54	4474
2026-01-16 04:19:17.34	341.72	25.10	-44.0	-46.1	15.9	0.00e+00	0	33	0	665845760	54	4525
2026-01-16 04:19:18.35	341.42	25.09	-44.1	-46.3	15.8	0.00e+00	0	33	0	667942912	54	4608
2026-01-16 04:19:19.36	341.13	25.08	-44.3	-46.4	15.8	0.00e+00	0	33	0	670040064	54	4695
2026-01-16 04:19:20.37	340.83	25.07	-44.4	-46.5	15.8	0.00e+00	0	33	0	672137216	54	4750
2026-01-16 04:19:21.38	340.54	25.05	-44.4	-46.5	15.8	0.00e+00	0	33	0	674234368	54	4755
2026-01-16 04:19:22.39	340.24	25.04	-44.2	-46.2	15.9	0.00e+00	0	33	0	675282944	54	4586
2026-01-16 04:19:23.40	339.95	25.02	-44.3	-46.4	15.8	0.00e+00	0	33	0	677380096	54	4692
2026-01-16 04:19:24.41	339.65	25.01	-44.3	-46.4	15.9	0.00e+00	0	33	0	679477248	54	4664
2026-01-16 04:19:25.42	339.36	24.99	-44.2	-46.2	15.9	0.00e+00	0	33	0	681574400	54	4581
2026-01-16 04:19:26.42	339.07	24.97	-43.8	-45.7	16.2	0.00e+00	0	33	0	683671552	54	4305
2026-01-16 04:19:27.43	338.78	24.95	-43.8	-45.7	16.2	0.00e+00	0	33	0	685768704	54	4300
2026-01-16 04:19:28.44	338.48	24.93	-43.5	-45.3	16.3	0.00e+00	0	33	0	686817280	53	4372
2026-01-16 04:19:29.45	338.19	24.91	-43.6	-45.4	16.3	0.00e+00	0	33	0	688914432	53	4419
2026-01-16 04:19:30.46	337.90	24.89	-43.7	-45.5	16.2	0.00e+00	0	33	0	691011584	53	4471
2026-01-16 04:19:31.47	337.61	24.87	-43.9	-45.8	16.1	0.00e+00	0	33	0	693108736	53	4621
2026-01-16 04:19:32.48	337.32	24.85	-43.8	-45.6	16.2	0.00e+00	0	33	0	695205888	53	4528
2026-01-16 04:19:33.49	337.03	24.83	-43.3	-45.1	16.4	0.00e+00	0	33	0	696254464	53	4255
2026-01-16 04:19:34.50	336.74	24.80	-43.0	-44.6	16.5	0.00e+00	0	33	0	698351616	52	4289
2026-01-16 04:19:35.51	336.45	24.78	-43.1	-44.7	16.4	0.00e+00	0	33	0	700448768	52	4336
2026-01-16 04:19:36.52	336.16	24.75	-43.2	-44.9	16.5	0.00e+00	0	33	0	702545920	52	4402
2026-01-16 04:19:37.53	335.87	24.72	-43.3	-45.1	16.4	0.00e+00	0	33	0	704643072	52	4512
2026-01-16 04:19:38.54	335.58	24.70	-43.5	-45.2	16.3	0.00e+00	0	33	0	705691648	52	4589
2026-01-16 04:19:39.55	335.29	24.67	-43.5	-45.3	16.3	0.00e+00	0	33	0	707788800	52	4622
2026-01-16 04:19:40.56	335.00	24.64	-43.8	-45.6	16.2	0.00e+00	0	33	0	709885952	52	4807
2026-01-16 04:19:41.57	334.72	24.61	-43.9	-45.8	16.2	0.00e+00	0	33	0	711983104	53	4624
2026-01-16 04:19:42.57	334.43	24.58	-44.0	-45.8	16.1	0.00e+00	0	33	0	714080256	53	4633
2026-01-16 04:19:43.58	334.15	24.55	-43.7	-45.5	16.2	0.00e+00	0	33	0	715128832	53	4477
2026-01-16 04:19:44.59	333.86	24.52	-43.9	-45.7	16.2	0.00e+00	0	33	0	717225984	53	4577
2026-01-16 04:19:45.60	333.58	24.49	-44.0	-45.8	16.1	0.00e+00	0	33	0	719323136	53	4628
2026-01-16 04:19:46.61	333.29	24.45	-44.0	-45.9	16.2	0.00e+00	0	33	0	721420288	53	4667
2026-01-16 04:19:47.62	333.01	24.42	-44.0	-45.9	16.1	0.00e+00	0	33	0	723517440	53	4683
2026-01-16 04:19:48.63	332.73	24.39	-44.0	-45.9	16.1	0.00e+00	0	33	0	724566016	53	4660
2026-01-16 04:19:49.64	332.45	24.35	-44.1	-45.9	16.1	0.00e+00	0	33	0	726663168	53	4685
2026-01-16 04:19:50.65	332.16	24.31	-44.0	-45.9	16.1	0.00e+00	0	33	0	728760320	53	4671
2026-01-16 04:19:51.66	331.88	24.28	-44.5	-46.4	16.0	0.00e+00	0	33	0	730857472	54	4696
2026-01-16 04:19:52.67	331.60	24.24	-44.8	-46.9	15.7	0.00e+00	0	33	0	732954624	54	4946
2026-01-16 04:19:53.68	331.32	24.20	-44.9	-47.0	15.7	0.00e+00	0	33	0	734003200	54	5034
2026-01-16 04:19:54.69	331.04	24.16	-44.7	-46.7	15.8	0.00e+00	0	33	0	736100352	55	4581
2026-01-16 04:19:55.70	330.77	24.12	-44.2	-46.1	16.1	0.00e+00	0	33	0	738197504	55	4270
2026-01-16 04:19:56.71	330.49	24.08	-44.0	-45.8	16.2	0.00e+00	0	33	0	740294656	54	4391
2026-01-16 04:19:57.72	330.21	24.04	-43.9	-45.7	16.2	0.00e+00	0	33	0	742391808	54	4333
2026-01-16 04:19:58.72	329.94	24.00	-44.1	-46.0	16.1	0.00e+00	0	33	0	743440384	54	4447
2026-01-16 04:19:59.73	329.66	23.96	-44.2	-46.1	16.0	0.00e+00	0	33	0	745537536	54	4527
2026-01-16 04:20:00.74	329.39	23.92	-44.3	-46.3	15.9	0.00e+00	0	33	0	747634688	54	4637
2026-01-16 04:20:01.75	329.12	23.87	-44.6	-46.7	15.8	0.00e+00	0	33	0	749731840	54	4815
2026-01-16 04:20:02.76	328.84	23.83	-44.7	-46.8	15.7	0.00e+00	0	33	0	751828992	55	4617
2026-01-16 04:20:03.77	328.57	23.79	-45.0	-47.2	15.5	0.00e+00	0	33	0	753926144	55	4865
2026-01-16 04:20:04.78	328.30	23.74	-45.0	-47.2	15.5	0.00e+00	0	33	0	754974720	55	4869
2026-01-16 04:20:05.79	328.03	23.69	-45.0	-47.2	15.5	0.00e+00	0	33	0	757071872	55	4865
2026-01-16 04:20:06.80	327.76	23.65	-45.1	-47.4	15.4	1.50e-06	0	33	0	759169024	55	4960
2026-01-16 04:20:07.81	327.49	23.60	-45.1	-47.6	15.3	0.00e+00	0	33	0	761266176	55	5042
2026-01-16 04:20:08.82	327.22	23.55	-45.6	-48.2	15.2	0.00e+00	0	33	0	763363328	56	5104
2026-01-16 04:20:09.83	326.95	23.51	-45.7	-48.4	15.0	0.00e+00	0	33	0	764411904	56	5231
2026-01-16 04:20:10.84	326.69	23.46	-45.7	-48.4	15.0	0.00e+00	0	33	0	766509056	57	4968
2026-01-16 04:20:11.85	326.42	23.41	-45.3	-47.8	15.3	2.20e-06	0	33	0	768606208	57	4616
2026-01-16 04:20:12.86	326.16	23.36	-45.1	-47.6	15.4	0.00e+00	0	33	0	770703360	56	4771
2026-01-16 04:20:13.86	325.90	23.31	-45.0	-47.3	15.5	0.00e+00	0	33	0	772800512	56	4639
2026-01-16 04:20:14.87	325.63	23.26	-44.9	-47.3	15.5	0.00e+00	0	33	0	773849088	56	4603
2026-01-16 04:20:15.88	325.37	23.20	-44.9	-47.3	15.6	0.00e+00	0	33	0	775946240	56	4625
2026-01-16 04:20:16.89	325.11	23.15	-45.1	-47.6	15.4	0.00e+00	0	33	0	778043392	56	4774
2026-01-16 04:20:17.90	324.85	23.10	-45.5	-48.1	15.2	0.00e+00	0	33	0	780140544	56	5044
2026-01-16 04:20:18.91	324.59	23.05	-45.7	-48.4	15.0	0.00e+00	0	33	0	782237696	56	5242
2026-01-16 04:20:19.92	324.33	22.99	-45.9	-48.7	14.8	0.00e+00	0	33	0	783286272	56	5458
2026-01-16 04:20:20.93	324.07	22.94	-45.7	-48.5	14.9	0.00e+00	0	33	0	785383424	57	5030
2026-01-16 04:20:21.94	323.82	22.88	-45.5	-48.1	15.1	0.00e+00	0	33	0	787480576	57	4813
2026-01-16 04:20:22.95	323.56	22.83	-45.6	-48.2	15.1	0.00e+00	0	33	0	789577728	57	4867
2026-01-16 04:20:23.96	323.30	22.77	-45.5	-48.2	15.1	0.00e+00	0	33	0	791674880	57	4842
2026-01-16 04:20:24.97	323.05	22.72	-45.4	-48.0	15.2	0.00e+00	0	33	0	792723456	57	4745
2026-01-16 04:20:25.98	322.80	22.66	-45.5	-48.1	15.2	0.00e+00	0	33	0	794820608	57	4781
2026-01-16 04:20:26.98	322.55	22.60	-45.5	-48.2	15.1	0.00e+00	0	33	0	796917760	57	4841
2026-01-16 04:20:27.99	322.30	22.55	-45.4	-47.9	15.2	0.00e+00	0	33	0	799014912	57	4702
2026-01-16 04:20:29.00	322.05	22.49	-45.5	-48.1	15.2	0.00e+00	0	33	0	801112064	57	4780
2026-01-16 04:20:30.01	321.80	22.43	-45.7	-48.5	15.0	0.00e+00	0	33	0	802160640	57	4985
2026-01-16 04:20:31.02	321.55	22.37	-46.0	-48.8	14.7	0.00e+00	0	33	0	804257792	57	5217
2026-01-16 04:20:32.03	321.30	22.31	-45.8	-48.7	14.8	0.00e+00	0	33	0	806354944	57	5102
2026-01-16 04:20:33.04	321.05	22.25	-45.8	-48.6	14.9	0.00e+00	0	33	0	808452096	57	5051
2026-01-16 04:20:34.05	320.81	22.19	-45.3	-47.8	15.3	0.00e+00	0	33	0	810549248	57	4635
2026-01-16 04:20:35.06	320.56	22.13	-45.1	-47.6	15.3	0.00e+00	0	33	0	811597824	56	4795
2026-01-16 04:20:36.07	320.32	22.07	-44.9	-47.4	15.5	0.00e+00	0	33	0	813694976	56	4653
2026-01-16 04:20:37.08	320.08	22.01	-45.3	-48.0	15.2	0.00e+00	0	33	0	815792128	56	4997
2026-01-16 04:20:38.09	319.83	21.94	-45.4	-48.1	15.2	0.00e+00	0	33	0	817889280	56	5055
2026-01-16 04:20:39.10	319.59	21.88	-45.7	-48.5	15.0	0.00e+00	0	33	0	819986432	56	5290
2026-01-16 04:20:40.10	319.36	21.82	-46.1	-49.1	14.6	0.00e+00	0	33	0	822083584	57	5380
2026-01-16 04:20:41.11	319.12	21.76	-46.3	-49.6	14.2	0.00e+00	0	33	0	823132160	57	5712
2026-01-16 04:20:42.12	318.88	21.69	-46.5	-50.0	14.0	0.00e+00	0	33	0	825229312	58	5613
2026-01-16 04:20:43.13	318.64	21.63	-46.4	-49.8	14.2	0.00e+00	0	33	0	827326464	58	5512
2026-01-16 04:20:44.14	318.41	21.57	-46.1	-49.3	14.4	0.00e+00	0	33	0	829423616	58	5205
2026-01-16 04:20:45.15	318.17	21.50	-45.7	-48.6	14.9	0.00e+00	0	33	0	831520768	58	4802
2026-01-16 04:20:46.16	317.94	21.44	-45.3	-47.9	15.2	0.00e+00	0	33	0	832569344	57	4690
2026-01-16 04:20:47.17	317.70	21.37	-45.0	-47.5	15.5	0.00e+00	0	33	0	834666496	56	4730
2026-01-16 04:20:48.18	317.47	21.30	-45.1	-47.6	15.4	0.00e+00	0	33	0	836763648	56	4763
2026-01-16 04:20:49.19	317.24	21.24	-44.9	-47.3	15.6	0.00e+00	0	33	0	838860800	56	4623
2026-01-16 04:20:50.20	317.01	21.17	-44.8	-47.2	15.6	0.00e+00	0	33	0	839909376	56	4556
2026-01-16 04:20:51.21	316.78	21.11	-45.0	-47.5	15.4	0.00e+00	0	33	0	842006528	56	4742
2026-01-16 04:20:52.22	316.55	21.04	-45.1	-47.6	15.3	0.00e+00	0	33	0	844103680	56	4810
2026-01-16 04:20:53.23	316.33	20.97	-45.1	-47.6	15.3	0.00e+00	0	33	0	846200832	56	4814
2026-01-16 04:20:54.23	316.10	20.91	-45.1	-47.6	15.3	0.00e+00	0	33	0	848297984	56	4794
2026-01-16 04:20:55.24	315.88	20.84	-44.9	-47.3	15.5	0.00e+00	0	33	0	850395136	56	4626
2026-01-16 04:20:56.25	315.66	20.77	-44.8	-47.2	15.6	0.00e+00	0	33	0	851443712	56	4558
2026-01-16 04:20:57.26	315.43	20.70	-44.2	-46.5	15.8	0.00e+00	0	33	0	853540864	55	4444
2026-01-16 04:20:58.27	315.21	20.63	-44.2	-46.4	15.8	0.00e+00	0	33	0	855638016	54	4695
2026-01-16 04:20:59.28	314.99	20.56	-44.0	-46.1	16.0	0.00e+00	0	33	0	857735168	54	4500
2026-01-16 04:21:00.29	314.77	20.49	-43.9	-45.9	16.0	0.00e+00	0	33	0	859832320	54	4440
2026-01-16 04:21:01.30	314.55	20.43	-43.6	-45.6	16.1	0.00e+00	0	33	0	860880896	53	4531
2026-01-16 04:21:02.31	314.33	20.36	-43.4	-45.3	16.2	0.00e+00	0	33	0	862978048	53	4372
2026-01-16 04:21:03.32	314.12	20.29	-43.5	-45.5	16.1	0.00e+00	0	33	0	865075200	53	4462
2026-01-16 04:21:04.33	313.90	20.22	-43.8	-45.8	16.0	0.00e+00	0	33	0	867172352	53	4638
2026-01-16 04:21:05.34	313.68	20.15	-44.0	-46.2	15.8	0.00e+00	0	33	0	869269504	53	4849
2026-01-16 04:21:06.35	313.47	20.07	-44.1	-46.3	15.8	0.00e+00	0	33	0	870318080	53	4922
2026-01-16 04:21:07.36	313.26	20.00	-44.4	-46.7	15.6	0.00e+00	0	33	0	872415232	53	5129
2026-01-16 04:21:08.37	313.05	19.93	-44.6	-47.0	15.5	0.00e+00	0	33	0	874512384	54	4998
2026-01-16 04:21:09.38	312.83	19.86	-44.8	-47.2	15.4	0.00e+00	0	33	0	876609536	54	5148
2026-01-16 04:21:10.39	312.62	19.79	-44.9	-47.4	15.3	0.00e+00	0	33	0	878706688	54	5273
2026-01-16 04:21:11.40	312.42	19.72	-44.8	-47.4	15.3	0.00e+00	0	33	0	879755264	54	5227
2026-01-16 04:21:12.41	312.21	19.65	-44.8	-47.4	15.3	0.00e+00	0	33	0	881852416	55	4948
2026-01-16 04:21:13.42	312.00	19.58	-44.8	-47.3	15.3	0.00e+00	0	33	0	883949568	55	4901
2026-01-16 04:21:14.43	311.79	19.50	-44.8	-47.3	15.3	0.00e+00	0	33	0	886046720	55	4913
2026-01-16 04:21:15.44	311.59	19.43	-44.7	-47.2	15.4	0.00e+00	0	33	0	888143872	55	4822
2026-01-16 04:21:16.44	311.39	19.36	-44.7	-47.1	15.4	0.00e+00	0	33	0	889192448	55	4798
2026-01-16 04:21:17.45	311.18	19.29	-44.5	-46.9	15.5	0.00e+00	0	33	0	891289600	55	4670
2026-01-16 04:21:18.46	310.98	19.21	-44.6	-47.0	15.5	0.00e+00	0	33	0	893386752	55	4751
2026-01-16 04:21:19.47	310.78	19.14	-44.6	-47.1	15.5	0.00e+00	0	33	0	895483904	55	4766
2026-01-16 04:21:20.48	310.58	19.07	-44.3	-46.6	15.7	0.00e+00	0	33	0	897581056	55	4525
2026-01-16 04:21:21.49	310.38	18.99	-44.2	-46.4	15.8	0.00e+00	0	33	0	898629632	55	4432
2026-01-16 04:21:22.50	310.18	18.92	-44.4	-46.7	15.7	0.00e+00	0	33	0	900726784	55	4556
2026-01-16 04:21:23.51	309.99	18.85	-44.5	-46.8	15.6	0.00e+00	0	33	0	902823936	55	4649
2026-01-16 04:21:24.52	309.79	18.77	-44.7	-47.1	15.5	0.00e+00	0	33	0	904921088	55	4802
2026-01-16 04:21:25.53	309.59	18.70	-44.9	-47.4	15.3	0.00e+00	0	33	0	907018240	55	4944
2026-01-16 04:21:26.53	309.40	18.63	-45.0	-47.5	15.3	0.00e+00	0	33	0	908066816	55	5007
2026-01-16 04:21:27.54	309.21	18.55	-44.6	-47.0	15.5	0.00e+00	0	33	0	910163968	55	4752
2026-01-16 04:21:28.55	309.02	18.48	-44.5	-46.8	15.5	0.00e+00	0	33	0	912261120	55	4650
2026-01-16 04:21:29.56	308.82	18.40	-44.3	-46.5	15.8	0.00e+00	0	33	0	914358272	55	4489
2026-01-16 04:21:30.57	308.63	18.33	-44.4	-46.7	15.7	0.00e+00	0	33	0	916455424	54	4828
2026-01-16 04:21:31.58	308.44	18.25	-44.3	-46.6	15.7	0.00e+00	0	33	0	918552576	54	4780
2026-01-16 04:21:32.59	308.25	18.18	-44.4	-46.7	15.6	0.00e+00	0	33	0	919601152	54	4856
2026-01-16 04:21:33.60	308.07	18.10	-44.6	-47.0	15.5	0.00e+00	0	33	0	921698304	54	4986
2026-01-16 04:21:34.61	307.88	18.03	-44.7	-47.2	15.5	0.00e+00	0	33	0	923795456	54	5110
2026-01-16 04:21:35.62	307.69	17.95	-44.7	-47.1	15.5	0.00e+00	0	33	0	925892608	54	5054
2026-01-16 04:21:36.63	307.51	17.88	-44.5	-46.7	15.7	0.00e+00	0	33	0	927989760	54	4868
2026-01-16 04:21:37.64	307.32	17.80	-44.3	-46.5	15.8	0.00e+00	0	33	0	929038336	54	4753
2026-01-16 04:21:38.65	307.14	17.73	-44.4	-46.5	15.8	0.00e+00	0	33	0	931135488	54	4753
2026-01-16 04:21:39.66	306.96	17.65	-44.1	-46.2	15.9	0.00e+00	0	33	0	933232640	54	4575
2026-01-16 04:21:40.66	306.78	17.58	-44.0	-46.1	15.9	0.00e+00	0	33	0	935329792	54	4533
2026-01-16 04:21:41.67	306.60	17.50	-43.9	-46.0	16.0	0.00e+00	0	33	0	937426944	54	4450
2026-01-16 04:21:42.68	306.42	17.43	-43.9	-45.9	16.0	0.00e+00	0	33	0	938475520	54	4440
2026-01-16 04:21:43.69	306.24	17.35	-43.8	-45.7	16.1	0.00e+00	0	33	0	940572672	53	4585
2026-01-16 04:21:44.70	306.06	17.28	-43.8	-45.8	16.1	0.00e+00	0	33	0	942669824	53	4618
2026-01-16 04:21:45.71	305.89	17.20	-43.9	-45.9	16.1	0.00e+00	0	33	0	944766976	53	4659
2026-01-16 04:21:46.72	305.71	17.13	-43.9	-45.9	16.0	0.00e+00	0	33	0	946864128	53	4705
2026-01-16 04:21:47.73	305.54	17.05	-44.3	-46.4	15.9	0.00e+00	0	33	0	947912704	53	4927
2026-01-16 04:21:48.74	305.36	16.98	-44.3	-46.4	15.8	0.00e+00	0	33	0	950009856	53	4946
2026-01-16 04:21:49.75	305.19	16.90	-44.4	-46.6	15.8	0.00e+00	0	33	0	952107008	54	4778
2026-01-16 04:21:50.76	305.02	16.82	-44.4	-46.5	15.8	0.00e+00	0	33	0	954204160	54	4755
2026-01-16 04:21:51.77	304.84	16.75	-44.2	-46.3	15.9	0.00e+00	0	33	0	956301312	54	4603
2026-01-16 04:21:52.78	304.67	16.67	-43.7	-45.6	16.2	0.00e+00	0	33	0	957349888	54	4285
2026-01-16 04:21:53.79	304.50	16.60	-43.6	-45.4	16.3	0.00e+00	0	33	0	959447040	53	4423
2026-01-16 04:21:54.79	304.34	16.52	-43.6	-45.4	16.3	0.00e+00	0	33	0	961544192	53	4411
2026-01-16 04:21:55.80	304.17	16.45	-43.6	-45.4	16.3	0.00e+00	0	33	0	963641344	53	4425
2026-01-16 04:21:56.81	304.00	16.37	-43.4	-45.2	16.3	0.00e+00	0	33	0	965738496	53	4325
2026-01-16 04:21:57.82	303.84	16.29	-43.6	-45.4	16.3	0.00e+00	0	33	0	966787072	53	4439
2026-01-16 04:21:58.83	303.67	16.22	-43.8	-45.7	16.2	0.00e+00	0	33	0	968884224	53	4589
2026-01-16 04:21:59.84	303.51	16.14	-43.7	-45.6	16.2	0.00e+00	0	33	0	970981376	53	4523
2026-01-16 04:22:00.85	303.34	16.07	-43.9	-45.8	16.1	0.00e+00	0	33	0	973078528	53	4648
2026-01-16 04:22:01.86	303.18	15.99	-44.0	-46.0	16.0	0.00e+00	0	33	0	975175680	53	4708
2026-01-16 04:22:02.87	303.02	15.91	-44.1	-46.1	16.0	0.00e+00	0	33	0	976224256	53	4792
2026-01-16 04:22:03.88	302.86	15.84	-44.1	-46.1	16.0	0.00e+00	0	33	0	978321408	53	4795
2026-01-16 04:22:04.88	302.70	15.76	-44.2	-46.2	15.9	0.00e+00	0	33	0	980418560	53	4859
2026-01-16 04:22:05.89	302.54	15.69	-44.3	-46.3	15.9	0.00e+00	0	33	0	982515712	53	4903
2026-01-16 04:22:06.90	302.38	15.61	-44.1	-46.0	16.0	0.00e+00	0	33	0	984612864	53	4748
2026-01-16 04:22:07.91	302.22	15.53	-44.0	-45.9	16.1	0.00e+00	0	33	0	986710016	53	4704
2026-01-16 04:22:08.92	302.06	15.46	-43.9	-45.8	16.1	0.00e+00	0	33	0	987758592	53	4612
2026-01-16 04:22:09.93	301.91	15.38	-43.6	-45.4	16.3	0.00e+00	0	33	0	989855744	53	4417
2026-01-16 04:22:10.94	301.75	15.31	-43.6	-45.4	16.3	0.00e+00	0	33	0	991952896	53	4437
2026-01-16 04:22:11.95	301.60	15.23	-43.8	-45.6	16.2	0.00e+00	0	33	0	994050048	53	4544
2026-01-16 04:22:12.96	301.44	15.15	-44.0	-45.9	16.0	0.00e+00	0	33	0	996147200	53	4697
2026-01-16 04:22:13.97	301.29	15.08	-44.3	-46.3	15.9	0.00e+00	0	33	0	997195776	53	4918
2026-01-16 04:22:14.98	301.14	15.00	-44.6	-46.8	15.7	0.00e+00	0	33	0	999292928	54	4887
2026-01-16 04:22:15.99	300.99	14.93	-44.9	-47.2	15.5	0.00e+00	0	33	0	1001390080	54	5118
2026-01-16 04:22:17.00	300.84	14.85	-45.1	-47.4	15.4	0.00e+00	0	33	0	1003487232	55	4963
2026-01-16 04:22:18.01	300.69	14.78	-45.0	-47.4	15.5	0.00e+00	0	33	0	1005584384	55	4927
2026-01-16 04:22:19.02	300.54	14.70	-44.9	-47.2	15.5	0.00e+00	0	33	0	1006632960	55	4858
2026-01-16 04:22:20.03	300.39	14.62	-44.8	-47.0	15.6	0.00e+00	0	33	0	1008730112	55	4707
2026-01-16 04:22:21.04	300.24	14.55	-44.6	-46.8	15.7	0.00e+00	0	33	0	1010827264	55	4631
2026-01-16 04:22:22.04	300.10	14.47	-44.4	-46.5	15.8	0.00e+00	0	33	0	1012924416	55	4486
2026-01-16 04:22:23.05	299.95	14.40	-44.4	-46.4	15.9	0.00e+00	0	33	0	1015021568	55	4426
2026-01-16 04:22:24.06	299.80	14.32	-44.4	-46.5	15.8	0.00e+00	0	33	0	1016070144	55	4453
2026-01-16 04:22:25.07	299.66	14.25	-44.4	-46.5	15.9	0.00e+00	0	33	0	1018167296	55	4453
2026-01-16 04:22:26.08	299.52	14.17	-44.2	-46.2	16.0	0.00e+00	0	33	0	1020264448	55	4339
2026-01-16 04:22:27.09	299.37	14.10	-44.2	-46.2	15.9	0.00e+00	0	33	0	1022361600	54	4590
2026-01-16 04:22:28.10	299.23	14.02	-44.3	-46.3	15.9	0.00e+00	0	33	0	1024458752	54	4635
2026-01-16 04:22:29.11	299.09	13.95	-44.1	-46.1	16.0	0.00e+00	0	33	0	1025507328	54	4531
2026-01-16 04:22:30.12	298.95	13.87	-44.2	-46.2	16.0	0.00e+00	0	33	0	1027604480	54	4551
2026-01-16 04:22:31.13	298.81	13.80	-44.2	-46.2	16.0	0.00e+00	0	33	0	1029701632	54	4589
2026-01-16 04:22:32.14	298.67	13.72	-44.5	-46.6	15.8	0.00e+00	0	33	0	1031798784	54	4776
2026-01-16 04:22:33.15	298.53	13.65	-44.8	-46.9	15.7	0.00e+00	0	33	0	1033895936	54	4973
2026-01-16 04:22:34.16	298.39	13.57	-45.1	-47.4	15.5	0.00e+00	0	33	0	1034944512	55	4975
2026-01-16 04:22:35.17	298.25	13.50	-45.5	-48.0	15.3	0.00e+00	0	33	0	1037041664	56	4997
2026-01-16 04:22:36.18	298.12	13.42	-45.6	-48.1	15.2	0.00e+00	0	33	0	1039138816	56	5068
2026-01-16 04:22:37.19	297.98	13.35	-45.9	-48.5	15.0	0.00e+00	0	33	0	1041235968	57	5013
2026-01-16 04:22:38.19	297.85	13.27	-45.8	-48.3	15.1	0.00e+00	0	33	0	1043333120	57	4917
2026-01-16 04:22:39.20	297.71	13.20	-45.7	-48.2	15.2	0.00e+00	0	33	0	1044381696	57	4833
2026-01-16 04:22:40.21	297.58	13.13	-45.4	-47.7	15.4	0.00e+00	0	33	0	1046478848	57	4593
2026-01-16 04:22:41.22	297.45	13.05	-45.2	-47.5	15.5	0.00e+00	0	33	0	1048576000	57	4474
2026-01-16 04:22:42.23	297.31	12.98	-44.9	-47.1	15.7	0.00e+00	0	33	0	1050673152	56	4530
2026-01-16 04:22:43.24	297.18	12.90	-44.8	-46.9	15.8	0.00e+00	0	33	0	1052770304	56	4429
2026-01-16 04:22:44.25	297.05	12.83	-44.6	-46.7	15.8	0.00e+00	0	33	0	1054867456	55	4571
2026-01-16 04:22:45.26	296.92	12.75	-44.4	-46.4	15.9	0.00e+00	0	33	0	1055916032	55	4411
2026-01-16 04:22:46.27	296.79	12.68	-44.6	-46.7	15.8	0.00e+00	0	33	0	1058013184	55	4582
2026-01-16 04:22:47.28	296.66	12.61	-44.7	-46.8	15.7	0.00e+00	0	33	0	1060110336	55	4635
2026-01-16 04:22:48.29	296.53	12.53	-44.8	-47.0	15.7	0.00e+00	0	33	0	1062207488	55	4710
2026-01-16 04:22:49.30	296.40	12.46	-44.9	-47.1	15.6	0.00e+00	0	33	0	1064304640	55	4764
2026-01-16 04:22:50.31	296.28	12.38	-44.8	-47.0	15.7	0.00e+00	0	33	0	1065353216	55	4708
2026-01-16 04:22:51.32	296.15	12.31	-44.7	-46.8	15.8	0.00e+00	0	33	0	1067450368	55	4635
2026-01-16 04:22:52.33	296.03	12.24	-44.6	-46.7	15.8	0.00e+00	0	33	0	1069547520	55	4593
2026-01-16 04:22:53.34	295.90	12.16	-44.9	-47.1	15.6	0.00e+00	0	33	0	1071644672	55	4786
2026-01-16 04:22:54.35	295.78	12.09	-44.7	-46.9	15.7	0.00e+00	0	33	0	1072693248	55	4670
2026-01-16 04:22:55.36	295.65	12.02	-44.7	-46.9	15.7	0.00e+00	0	33	0	1074790400	55	4660
2026-01-16 04:22:56.36	295.53	11.94	-44.9	-47.1	15.6	0.00e+00	0	33	0	1076887552	55	4789
2026-01-16 04:22:57.37	295.41	11.87	-45.0	-47.3	15.5	0.00e+00	0	33	0	1078984704	55	4902
2026-01-16 04:22:58.38	295.28	11.80	-45.2	-47.5	15.3	0.00e+00	0	33	0	1081081856	55	5041
2026-01-16 04:22:59.39	295.16	11.73	-45.3	-47.8	15.2	0.00e+00	0	33	0	1083179008	55	5186
2026-01-16 04:23:00.40	295.04	11.65	-45.7	-48.3	15.1	0.00e+00	0	33	0	1084227584	56	5169
2026-01-16 04:23:01.41	294.92	11.58	-45.6	-48.2	15.1	0.00e+00	0	33	0	1086324736	56	5106
2026-01-16 04:23:02.42	294.80	11.51	-45.9	-48.5	14.9	0.00e+00	0	33	0	1088421888	57	5031
2026-01-16 04:23:03.43	294.68	11.43	-45.8	-48.4	15.0	0.00e+00	0	33	0	1090519040	57	4942
2026-01-16 04:23:04.44	294.57	11.36	-45.7	-48.3	15.1	0.00e+00	0	33	0	1092616192	57	4872
2026-01-16 04:23:05.45	294.45	11.29	-45.8	-48.4	15.0	0.00e+00	0	33	0	1093664768	57	4931
2026-01-16 04:23:06.46	294.33	11.22	-45.6	-48.1	15.1	0.00e+00	0	33	0	1095761920	57	4788
2026-01-16 04:23:07.47	294.21	11.15	-45.9	-48.6	14.9	0.00e+00	0	33	0	1097859072	57	5057
2026-01-16 04:23:08.48	294.10	11.07	-45.9	-48.6	14.9	0.00e+00	0	33	0	1099956224	57	5093
2026-01-16 04:23:09.49	293.98	11.00	-46.3	-49.1	14.6	0.00e+00	0	33	0	1102053376	57	5392
2026-01-16 04:23:10.50	293.87	10.93	-46.1	-49.0	14.6	0.00e+00	0	33	0	1103101952	57	5292
2026-01-16 04:23:11.51	293.75	10.86	-46.4	-49.4	14.4	0.00e+00	0	33	0	1105199104	57	5559
2026-01-16 04:23:12.52	293.64	10.79	-46.4	-49.4	14.4	0.00e+00	0	33	0	1107296256	58	5219
2026-01-16 04:23:13.52	293.53	10.71	-46.4	-49.3	14.5	0.00e+00	0	33	0	1109393408	58	5197
2026-01-16 04:23:14.53	293.41	10.64	-46.5	-49.5	14.4	0.00e+00	0	33	0	1111490560	58	5299
2026-01-16 04:23:15.54	293.30	10.57	-46.3	-49.2	14.6	0.00e+00	0	33	0	1112539136	58	5129
2026-01-16 04:23:16.55	293.19	10.50	-46.2	-49.0	14.7	0.00e+00	0	33	0	1114636288	58	4991
2026-01-16 04:23:17.56	293.08	10.43	-45.9	-48.6	14.9	0.00e+00	0	33	0	1116733440	58	4780
2026-01-16 04:23:18.57	292.97	10.36	-45.8	-48.4	15.0	0.00e+00	0	33	0	1118830592	58	4694
2026-01-16 04:23:19.58	292.86	10.29	-45.8	-48.3	15.1	0.00e+00	0	33	0	1120927744	58	4602
2026-01-16 04:23:20.59	292.75	10.22	-45.6	-48.0	15.2	0.00e+00	0	33	0	1121976320	57	4726
2026-01-16 04:23:21.60	292.64	10.14	-45.5	-47.9	15.2	0.00e+00	0	33	0	1124073472	57	4700
2026-01-16 04:23:22.61	292.53	10.07	-45.4	-47.8	15.3	0.00e+00	0	33	0	1126170624	57	4625
2026-01-16 04:23:23.62	292.43	10.00	-45.6	-48.0	15.2	0.00e+00	0	33	0	1128267776	57	4712
2026-01-16 04:23:24.63	292.32	9.93	-45.4	-47.8	15.3	0.00e+00	0	33	0	1130364928	57	4630
2026-01-16 04:23:25.64	292.21	9.86	-45.5	-48.0	15.2	0.00e+00	0	33	0	1131413504	57	4713
2026-01-16 04:23:26.64	292.11	9.79	-45.7	-48.2	15.1	0.00e+00	0	33	0	1133510656	57	4863
2026-01-16 04:23:27.65	292.00	9.72	-45.9	-48.4	15.0	0.00e+00	0	33	0	1135607808	57	4975
2026-01-16 04:23:28.66	291.90	9.65	-46.0	-48.6	14.9	0.00e+00	0	33	0	1137704960	57	5073
2026-01-16 04:23:29.67	291.79	9.58	-46.0	-48.7	14.8	0.00e+00	0	33	0	1139802112	57	5136
2026-01-16 04:23:30.68	291.69	9.51	-46.2	-49.0	14.7	0.00e+00	0	33	0	1140850688	57	5314
2026-01-16 04:23:31.69	291.59	9.44	-46.1	-48.8	14.8	0.00e+00	0	33	0	1142947840	57	5168
2026-01-16 04:23:32.70	291.48	9.37	-46.3	-49.1	14.6	0.00e+00	0	33	0	1145044992	57	5367
2026-01-16 04:23:33.71	291.38	9.30	-46.2	-49.0	14.7	0.00e+00	0	33	0	1147142144	57	5304
2026-01-16 04:23:34.72	291.28	9.23	-46.0	-48.7	14.9	0.00e+00	0	33	0	1149239296	57	5122
2026-01-16 04:23:35.73	291.18	9.16	-45.9	-48.5	14.9	0.00e+00	0	33	0	1150287872	57	5025
2026-01-16 04:23:36.74	291.08	9.10	-45.8	-48.4	15.0	0.00e+00	0	33	0	1152385024	57	4944
2026-01-16 04:23:37.74	290.98	9.03	-45.9	-48.5	14.9	0.00e+00	0	33	0	1154482176	57	5015
2026-01-16 04:23:38.75	290.88	8.96	-45.9	-48.5	14.9	0.00e+00	0	33	0	1156579328	57	5016
2026-01-16 04:23:39.76	290.78	8.89	-45.5	-47.9	15.3	0.00e+00	0	33	0	1158676480	57	4672
2026-01-16 04:23:40.77	290.68	8.82	-45.8	-48.3	15.0	0.00e+00	0	33	0	1160773632	57	4895
2026-01-16 04:23:41.78	290.58	8.75	-45.7	-48.2	15.1	0.00e+00	0	33	0	1161822208	57	4862
2026-01-16 04:23:42.79	290.48	8.68	-45.8	-48.4	15.0	0.00e+00	0	33	0	1163919360	57	4929
2026-01-16 04:23:43.80	290.38	8.61	-45.7	-48.2	15.0	0.00e+00	0	33	0	1166016512	57	4861
2026-01-16 04:23:44.81	290.29	8.55	-45.7	-48.2	15.1	0.00e+00	0	33	0	1168113664	57	4856
2026-01-16 04:23:45.82	290.19	8.48	-46.0	-48.7	14.8	0.00e+00	0	33	0	1170210816	57	5125
2026-01-16 04:23:46.83	290.09	8.41	-46.2	-48.9	14.7	0.00e+00	0	33	0	1171259392	57	5260
2026-01-16 04:23:47.84	290.00	8.34	-46.3	-49.1	14.6	0.00e+00	0	33	0	1173356544	58	5065
2026-01-16 04:23:48.85	289.90	8.27	-46.1	-48.9	14.7	0.00e+00	0	33	0	1175453696	58	4942
2026-01-16 04:23:49.86	289.81	8.20	-46.3	-49.2	14.5	0.00e+00	0	33	0	1177550848	58	5150
2026-01-16 04:23:50.87	289.71	8.14	-46.5	-49.5	14.3	0.00e+00	0	33	0	1179648000	58	5311
2026-01-16 04:23:51.88	289.62	8.07	-46.7	-49.8	14.1	0.00e+00	0	33	0	1180696576	58	5513
2026-01-16 04:23:52.88	289.53	8.00	-46.6	-49.6	14.3	0.00e+00	0	33	0	1182793728	58	5366
2026-01-16 04:23:53.89	289.43	7.94	-46.9	-50.1	13.9	0.00e+00	0	33	0	1184890880	58	5690
2026-01-16 04:23:54.90	289.34	7.87	-47.0	-50.4	13.8	0.00e+00	0	33	0	1186988032	59	5545
2026-01-16 04:23:55.91	289.25	7.80	-46.9	-50.2	13.9	0.00e+00	0	33	0	1189085184	59	5439
2026-01-16 04:23:56.92	289.16	7.73	-47.0	-50.3	13.8	0.00e+00	0	33	0	1190133760	59	5516
2026-01-16 04:23:57.93	289.07	7.67	-47.1	-50.6	13.6	0.00e+00	0	33	0	1192230912	59	5670
2026-01-16 04:23:58.94	288.98	7.60	-47.1	-50.7	13.3	0.00e+00	0	33	0	1194328064	60	5422
2026-01-16 04:23:59.95	288.89	7.53	-47.0	-50.4	13.5	0.00e+00	0	33	0	1196425216	60	5260
2026-01-16 04:24:00.96	288.80	7.47	-46.9	-50.3	13.6	0.00e+00	0	33	0	1198522368	60	5189
2026-01-16 04:24:01.97	288.71	7.40	-46.9	-50.3	13.5	0.00e+00	0	33	0	1199570944	60	5215
2026-01-16 04:24:02.98	288.62	7.33	-46.8	-50.1	13.7	0.00e+00	0	33	0	1201668096	60	5065
2026-01-16 04:24:03.99	288.53	7.27	-47.0	-50.6	13.4	0.00e+00	0	33	0	1203765248	60	5342
2026-01-16 04:24:05.00	288.44	7.20	-47.0	-50.5	13.4	0.00e+00	0	33	0	1205862400	60	5312
2026-01-16 04:24:06.01	288.35	7.13	-46.7	-50.1	13.7	0.00e+00	0	33	0	1207959552	60	5044
2026-01-16 04:24:07.02	288.26	7.07	-47.2	-51.0	13.2	0.00e+00	0	33	0	1209008128	60	5654
2026-01-16 04:24:08.03	288.18	7.00	-46.9	-50.4	13.5	0.00e+00	0	33	0	1211105280	60	5243
2026-01-16 04:24:09.03	288.09	6.94	-47.2	-50.8	13.2	0.00e+00	0	33	0	1213202432	60	5469
2026-01-16 04:24:10.05	288.01	6.87	-46.9	-50.4	13.4	0.00e+00	0	33	0	1215299584	60	5265
2026-01-16 04:24:11.05	287.92	6.80	-47.0	-50.4	13.4	0.00e+00	0	33	0	1217396736	60	5277
2026-01-16 04:24:12.06	287.83	6.74	-47.1	-50.7	13.2	0.00e+00	0	33	0	1218445312	60	5425
2026-01-16 04:24:13.07	287.75	6.67	-47.3	-51.0	13.0	7.00e-07	0	33	0	1220542464	60	5612
2026-01-16 04:24:14.08	287.67	6.61	-47.2	-50.9	13.0	3.00e-06	0	33	0	1222639616	60	5573
2026-01-16 04:24:15.09	287.58	6.54	-47.1	-50.7	13.2	0.00e+00	0	33	0	1224736768	60	5418
2026-01-16 04:24:16.10	287.50	6.48	-47.2	-50.9	13.0	0.00e+00	0	33	0	1226833920	60	5592
2026-01-16 04:24:17.11	287.41	6.41	-47.5	-51.5	12.6	7.00e-07	0	33	0	1228931072	60	5929
2026-01-16 04:24:18.12	287.33	6.35	-47.5	-51.5	12.5	3.80e-06	0	33	0	1229979648	60	5946
