passes_logs/2026/01/16/R3.2S_Murmansk_2ch/R3.2S_Murmansk_2ch__20260116_011322_NOAA_20_JPSS-1_rec.log

#Pass ID: 20260116_011322_NOAA 20 (JPSS-1)
#Satellite: NOAA 20 (JPSS-1)
#Configuration: NOAA 20
#almurnet v.1.7.20251203
#Start time: 2026-01-16 01:13:24

#Version: 2.2.20231116
#Station: R3.2S_Murmansk_2ch
#Location: 33.079688 lon 68.888172 lat
#TLE: 1 43013U 17073A   26015.61195121  .00000020  00000+0  30574-4 0  9993
#TLE: 2 43013  98.7636 316.5448 0001475  38.5247 321.6034 14.19536030422828

#Time	Az	El	Level	Level2	SNR	BER	BlckErr	Temp	State	Recorded	gain1	gain2
2026-01-16 01:13:24.26	26.71	2.13	-49.0	-65.2	3.8	1.49e+00	0	31	0	0	64	22863
2026-01-16 01:13:25.27	26.70	2.20	-49.1	-65.2	3.8	1.49e+00	0	31	104	0	63	24382
2026-01-16 01:13:26.28	26.69	2.26	-49.1	-65.2	3.8	1.49e+00	0	31	104	0	63	24342
2026-01-16 01:13:27.29	26.68	2.33	-49.1	-65.2	3.8	1.49e+00	0	31	104	0	63	24408
2026-01-16 01:13:28.30	26.67	2.39	-49.1	-65.2	3.8	1.49e+00	0	31	104	0	63	24318
2026-01-16 01:13:29.31	26.66	2.46	-49.1	-65.2	3.8	1.49e+00	0	31	104	0	63	24401
2026-01-16 01:13:30.32	26.65	2.52	-49.1	-65.2	3.8	1.49e+00	0	31	104	0	63	24277
2026-01-16 01:13:31.33	26.64	2.59	-49.1	-65.2	3.8	1.49e+00	0	31	104	0	63	24290
2026-01-16 01:13:32.34	26.63	2.65	-49.1	-65.2	3.8	1.49e+00	0	31	104	0	63	24132
2026-01-16 01:13:33.35	26.61	2.72	-49.1	-65.1	3.8	1.49e+00	0	31	104	0	63	24006
2026-01-16 01:13:34.36	26.60	2.78	-49.1	-65.0	3.8	1.49e+00	0	31	104	0	63	23842
2026-01-16 01:13:35.36	26.59	2.85	-49.1	-65.0	3.8	1.49e+00	0	31	104	0	63	23727
2026-01-16 01:13:36.37	26.58	2.92	-49.1	-65.1	3.8	1.49e+00	0	32	104	0	63	23909
2026-01-16 01:13:37.38	26.57	2.98	-49.1	-65.1	3.8	1.49e+00	0	31	104	0	63	23951
2026-01-16 01:13:38.39	26.56	3.05	-49.1	-65.2	3.8	1.49e+00	0	32	104	0	63	24155
2026-01-16 01:13:39.40	26.55	3.12	-49.1	-65.2	3.8	1.49e+00	0	31	104	0	63	24324
2026-01-16 01:13:40.41	26.54	3.18	-49.1	-65.2	3.8	1.49e+00	0	32	104	0	63	24198
2026-01-16 01:13:41.42	26.53	3.25	-49.1	-64.9	3.8	1.49e+00	0	32	104	0	63	23413
2026-01-16 01:13:42.43	26.51	3.32	-49.1	-64.2	3.8	1.49e+00	0	32	104	0	63	21648
2026-01-16 01:13:43.44	26.50	3.39	-49.0	-63.7	3.8	1.49e+00	0	32	104	0	63	20403
2026-01-16 01:13:44.45	26.49	3.45	-48.9	-61.5	4.3	1.49e+00	0	32	104	0	63	15844
2026-01-16 01:13:45.46	26.48	3.52	-48.9	-60.6	4.5	1.29e+00	5	32	0	0	63	14359
2026-01-16 01:13:46.47	26.47	3.59	-48.7	-58.6	5.6	5.26e-01	0	32	0	2097152	63	11388
2026-01-16 01:13:47.47	26.46	3.66	-48.5	-57.3	6.4	3.68e-01	0	32	0	4194304	63	9790
2026-01-16 01:13:48.48	26.44	3.72	-48.3	-56.3	7.3	9.07e-02	0	32	0	5242880	63	8729
2026-01-16 01:13:49.49	26.43	3.79	-48.6	-57.7	6.1	2.54e-01	0	32	0	7340032	63	10207
2026-01-16 01:13:50.50	26.42	3.86	-47.7	-53.6	9.8	3.43e-02	0	32	0	9437184	62	6726
2026-01-16 01:13:51.51	26.41	3.93	-47.8	-54.1	9.2	7.31e-03	0	32	0	11534336	61	7595
2026-01-16 01:13:52.52	26.40	4.00	-47.9	-54.3	9.1	5.49e-03	0	32	0	13631488	61	7797
2026-01-16 01:13:53.53	26.38	4.07	-47.4	-52.9	10.4	4.55e-03	0	32	0	14680064	61	6588
2026-01-16 01:13:54.54	26.37	4.14	-47.7	-53.6	9.7	3.18e-03	0	32	0	16777216	61	7185
2026-01-16 01:13:55.55	26.36	4.21	-48.1	-55.0	8.5	1.47e-02	0	32	0	18874368	61	8441
2026-01-16 01:13:56.56	26.35	4.28	-48.1	-55.2	8.3	5.07e-02	0	32	0	20971520	61	8598
2026-01-16 01:13:57.57	26.33	4.35	-48.0	-54.8	8.6	4.59e-02	0	32	0	23068672	61	8208
2026-01-16 01:13:58.58	26.32	4.42	-48.1	-55.1	8.3	3.72e-02	0	32	0	24117248	61	8524
2026-01-16 01:13:59.59	26.31	4.49	-48.0	-54.8	8.6	3.71e-02	0	32	0	26214400	61	8253
2026-01-16 01:14:00.60	26.30	4.56	-48.2	-55.6	8.0	4.14e-02	0	32	0	28311552	61	8972
2026-01-16 01:14:01.61	26.28	4.63	-48.4	-56.8	6.9	9.12e-02	0	32	0	30408704	61	10306
2026-01-16 01:14:02.61	26.27	4.70	-48.6	-57.8	6.2	2.21e-01	0	32	0	32505856	62	10913
2026-01-16 01:14:03.62	26.26	4.77	-48.6	-57.9	6.0	4.53e-01	0	32	0	33554432	62	11055
2026-01-16 01:14:04.63	26.24	4.84	-48.6	-58.1	6.0	2.69e-01	0	32	0	35651584	62	11356
2026-01-16 01:14:05.64	26.23	4.91	-48.6	-58.0	6.0	3.39e-01	0	32	0	37748736	62	11260
2026-01-16 01:14:06.65	26.22	4.98	-48.8	-59.3	5.2	4.24e-01	0	32	0	39845888	62	12968
2026-01-16 01:14:07.66	26.20	5.05	-47.9	-52.9	10.8	1.67e-01	0	32	0	41943040	62	6270
2026-01-16 01:14:08.67	26.19	5.13	-48.4	-54.2	9.9	8.15e-04	0	32	0	42991616	62	7248
2026-01-16 01:14:09.68	26.18	5.20	-48.7	-61.6	4.2	6.44e-02	48	32	0	45088768	63	16102
2026-01-16 01:14:10.69	26.16	5.27	-48.7	-55.7	8.2	1.49e+00	0	32	104	45088768	63	8123
2026-01-16 01:14:11.70	26.15	5.34	-49.2	-57.6	7.0	1.43e-02	0	32	0	46137344	63	10146
2026-01-16 01:14:12.71	26.13	5.41	-47.4	-51.6	12.1	1.22e-01	0	32	0	48234496	61	5674
2026-01-16 01:14:13.72	26.12	5.49	-47.5	-51.7	12.1	6.10e-06	0	32	0	50331648	61	5732
2026-01-16 01:14:14.73	26.11	5.56	-47.7	-52.1	11.8	3.28e-05	0	32	0	52428800	61	6001
2026-01-16 01:14:15.73	26.09	5.63	-47.8	-52.2	11.7	1.52e-05	0	32	0	53477376	61	6100
2026-01-16 01:14:16.74	26.08	5.71	-47.7	-52.0	11.9	2.59e-05	0	32	0	55574528	61	5953
2026-01-16 01:14:17.75	26.06	5.78	-46.8	-50.2	13.3	0.00e+00	0	32	0	57671680	60	5133
2026-01-16 01:14:18.76	26.05	5.85	-47.0	-50.4	13.1	7.00e-07	0	32	0	59768832	60	5279
2026-01-16 01:14:19.77	26.04	5.93	-47.2	-50.9	12.8	0.00e+00	0	32	0	61865984	60	5534
2026-01-16 01:14:20.78	26.02	6.00	-47.1	-50.8	13.0	0.00e+00	0	32	0	62914560	60	5476
2026-01-16 01:14:21.79	26.01	6.08	-47.2	-50.9	12.8	0.00e+00	0	32	0	65011712	60	5546
2026-01-16 01:14:22.80	25.99	6.15	-47.1	-50.5	13.4	0.00e+00	0	32	0	67108864	59	5646
2026-01-16 01:14:23.81	25.98	6.23	-47.2	-50.8	13.2	7.00e-07	0	32	0	69206016	59	5798
2026-01-16 01:14:24.82	25.96	6.30	-47.0	-50.4	13.5	0.00e+00	0	32	0	71303168	59	5533
2026-01-16 01:14:25.83	25.95	6.38	-47.1	-50.4	13.5	0.00e+00	0	32	0	72351744	59	5556
2026-01-16 01:14:26.84	25.93	6.45	-47.1	-50.6	13.1	0.00e+00	0	32	0	74448896	60	5387
2026-01-16 01:14:27.85	25.92	6.53	-47.0	-50.2	13.7	0.00e+00	0	32	0	76546048	59	5437
2026-01-16 01:14:28.86	25.90	6.60	-47.3	-50.9	13.2	0.00e+00	0	32	0	78643200	59	5873
2026-01-16 01:14:29.87	25.88	6.68	-47.0	-50.3	13.5	0.00e+00	0	32	0	80740352	59	5512
2026-01-16 01:14:30.88	25.87	6.76	-47.0	-50.3	13.6	0.00e+00	0	32	0	82837504	59	5519
2026-01-16 01:14:31.89	25.85	6.83	-47.0	-50.4	13.3	7.00e-07	0	32	0	83886080	60	5259
2026-01-16 01:14:32.90	25.84	6.91	-47.0	-50.3	13.4	0.00e+00	0	32	0	85983232	60	5200
2026-01-16 01:14:33.90	25.82	6.99	-46.9	-50.3	13.4	0.00e+00	0	32	0	88080384	60	5179
2026-01-16 01:14:34.91	25.81	7.06	-46.9	-50.2	13.5	0.00e+00	0	32	0	90177536	60	5155
2026-01-16 01:14:35.92	25.79	7.14	-46.9	-50.0	13.9	0.00e+00	0	32	0	92274688	59	5308
2026-01-16 01:14:36.93	25.77	7.22	-46.7	-49.7	14.1	0.00e+00	0	32	0	93323264	59	5108
2026-01-16 01:14:37.94	25.76	7.30	-46.7	-49.8	14.0	0.00e+00	0	32	0	95420416	59	5177
2026-01-16 01:14:38.95	25.74	7.37	-46.8	-49.8	14.0	0.00e+00	0	32	0	97517568	59	5206
2026-01-16 01:14:39.95	25.72	7.45	-46.6	-49.5	14.2	0.00e+00	0	32	0	99614720	59	5037
2026-01-16 01:14:40.96	25.71	7.53	-46.5	-49.4	14.3	0.00e+00	0	32	0	101711872	59	4950
2026-01-16 01:14:41.97	25.69	7.61	-46.6	-49.5	14.2	0.00e+00	0	32	0	102760448	59	5005
2026-01-16 01:14:42.98	25.67	7.69	-46.7	-49.7	14.1	0.00e+00	0	32	0	104857600	59	5118
2026-01-16 01:14:43.99	25.66	7.77	-46.6	-49.6	14.2	0.00e+00	0	32	0	106954752	59	5053
2026-01-16 01:14:45.00	25.64	7.85	-46.5	-49.4	14.3	0.00e+00	0	32	0	109051904	59	4928
2026-01-16 01:14:46.00	25.62	7.93	-46.6	-49.5	14.2	0.00e+00	0	32	0	111149056	59	5031
2026-01-16 01:14:47.01	25.60	8.01	-46.5	-49.4	14.3	0.00e+00	0	32	0	112197632	59	4941
2026-01-16 01:14:48.02	25.59	8.09	-46.4	-49.2	14.4	0.00e+00	0	32	0	114294784	59	4848
2026-01-16 01:14:49.03	25.57	8.17	-46.4	-49.1	14.5	0.00e+00	0	32	0	116391936	59	4806
2026-01-16 01:14:50.04	25.55	8.25	-46.5	-49.3	14.4	0.00e+00	0	33	0	118489088	59	4881
2026-01-16 01:14:51.05	25.53	8.33	-46.3	-49.1	14.5	0.00e+00	0	32	0	120586240	59	4774
2026-01-16 01:14:52.06	25.52	8.41	-46.3	-49.0	14.6	0.00e+00	0	32	0	121634816	59	4724
2026-01-16 01:14:53.07	25.50	8.49	-46.5	-49.3	14.4	0.00e+00	0	33	0	123731968	59	4920
2026-01-16 01:14:54.08	25.48	8.58	-46.5	-49.3	14.4	0.00e+00	0	32	0	125829120	59	4878
2026-01-16 01:14:55.09	25.46	8.66	-46.4	-49.2	14.4	0.00e+00	0	33	0	127926272	59	4838
2026-01-16 01:14:56.10	25.44	8.74	-46.2	-48.9	14.6	0.00e+00	0	33	0	130023424	59	4660
2026-01-16 01:14:57.11	25.42	8.82	-46.5	-49.3	14.3	0.00e+00	0	32	0	131072000	58	5181
2026-01-16 01:14:58.12	25.40	8.91	-46.2	-48.8	14.6	0.00e+00	0	32	0	133169152	58	4922
2026-01-16 01:14:59.13	25.39	8.99	-46.5	-49.3	14.4	0.00e+00	0	33	0	135266304	58	5180
2026-01-16 01:15:00.13	25.37	9.07	-46.2	-48.7	14.7	0.00e+00	0	33	0	137363456	58	4858
2026-01-16 01:15:01.14	25.35	9.16	-46.3	-49.0	14.6	0.00e+00	0	33	0	139460608	58	5013
2026-01-16 01:15:02.16	25.33	9.24	-46.2	-48.9	14.7	0.00e+00	0	32	0	140509184	58	4934
2026-01-16 01:15:03.17	25.31	9.33	-46.3	-48.9	14.7	0.00e+00	0	32	0	142606336	58	4945
2026-01-16 01:15:04.17	25.29	9.41	-46.4	-49.1	14.6	0.00e+00	0	33	0	144703488	58	5060
2026-01-16 01:15:05.18	25.27	9.49	-46.2	-48.9	14.7	0.00e+00	0	33	0	146800640	58	4938
2026-01-16 01:15:06.19	25.25	9.58	-46.3	-48.9	14.7	0.00e+00	0	32	0	148897792	58	4973
2026-01-16 01:15:07.20	25.23	9.67	-46.1	-48.7	14.8	0.00e+00	0	33	0	149946368	58	4826
2026-01-16 01:15:08.21	25.21	9.75	-46.1	-48.7	14.8	0.00e+00	0	32	0	152043520	58	4854
2026-01-16 01:15:09.22	25.19	9.84	-46.1	-48.7	14.8	0.00e+00	0	32	0	154140672	58	4819
2026-01-16 01:15:10.23	25.17	9.92	-46.2	-48.7	14.8	0.00e+00	0	33	0	156237824	58	4847
2026-01-16 01:15:11.23	25.15	10.01	-46.1	-48.7	14.8	0.00e+00	0	33	0	158334976	58	4836
2026-01-16 01:15:12.24	25.13	10.10	-46.2	-48.7	14.8	0.00e+00	0	33	0	159383552	58	4847
2026-01-16 01:15:13.25	25.11	10.18	-46.2	-48.7	14.8	0.00e+00	0	33	0	161480704	58	4861
2026-01-16 01:15:14.26	25.09	10.27	-46.3	-48.8	14.7	0.00e+00	0	33	0	163577856	58	4926
2026-01-16 01:15:15.27	25.06	10.36	-46.3	-48.9	14.7	0.00e+00	0	32	0	165675008	58	4975
2026-01-16 01:15:16.28	25.04	10.45	-46.1	-48.6	14.9	0.00e+00	0	33	0	167772160	58	4772
2026-01-16 01:15:17.29	25.02	10.54	-46.0	-48.4	15.0	0.00e+00	0	33	0	168820736	58	4680
2026-01-16 01:15:18.30	25.00	10.63	-46.0	-48.5	14.9	0.00e+00	0	33	0	170917888	58	4735
2026-01-16 01:15:19.31	24.98	10.71	-45.9	-48.3	15.0	0.00e+00	0	33	0	173015040	58	4646
2026-01-16 01:15:20.31	24.96	10.80	-46.0	-48.5	14.9	0.00e+00	0	32	0	175112192	58	4732
2026-01-16 01:15:21.32	24.93	10.89	-45.9	-48.4	15.0	0.00e+00	0	33	0	177209344	58	4664
2026-01-16 01:15:22.33	24.91	10.98	-45.9	-48.2	15.1	0.00e+00	0	33	0	179306496	58	4590
2026-01-16 01:15:23.34	24.89	11.07	-46.0	-48.4	15.0	0.00e+00	0	33	0	180355072	58	4696
2026-01-16 01:15:24.35	24.87	11.16	-45.8	-48.1	15.1	0.00e+00	0	33	0	182452224	58	4536
2026-01-16 01:15:25.36	24.84	11.26	-45.7	-48.0	15.2	0.00e+00	0	33	0	184549376	57	4734
2026-01-16 01:15:26.37	24.82	11.35	-46.0	-48.4	15.0	0.00e+00	0	32	0	186646528	57	4950
2026-01-16 01:15:27.38	24.80	11.44	-46.0	-48.5	14.9	0.00e+00	0	33	0	188743680	57	5005
2026-01-16 01:15:28.39	24.77	11.53	-45.9	-48.3	15.0	0.00e+00	0	33	0	189792256	57	4881
2026-01-16 01:15:29.40	24.75	11.62	-45.8	-48.1	15.2	0.00e+00	0	33	0	191889408	57	4783
2026-01-16 01:15:30.41	24.73	11.72	-45.7	-48.0	15.2	0.00e+00	0	33	0	193986560	57	4751
2026-01-16 01:15:31.42	24.70	11.81	-45.7	-48.0	15.2	0.00e+00	0	33	0	196083712	57	4732
2026-01-16 01:15:32.43	24.68	11.90	-45.6	-47.9	15.3	0.00e+00	0	33	0	198180864	57	4654
2026-01-16 01:15:33.44	24.66	12.00	-45.6	-47.9	15.3	0.00e+00	0	33	0	199229440	57	4662
2026-01-16 01:15:34.45	24.63	12.09	-45.6	-47.8	15.3	0.00e+00	0	33	0	201326592	57	4643
2026-01-16 01:15:35.46	24.61	12.19	-45.7	-47.9	15.3	0.00e+00	0	33	0	203423744	57	4694
2026-01-16 01:15:36.47	24.58	12.28	-45.7	-48.0	15.3	0.00e+00	0	33	0	205520896	57	4718
2026-01-16 01:15:37.48	24.56	12.38	-45.5	-47.8	15.3	0.00e+00	0	33	0	207618048	57	4610
2026-01-16 01:15:38.48	24.53	12.47	-45.5	-47.8	15.4	0.00e+00	0	33	0	208666624	57	4603
2026-01-16 01:15:39.49	24.51	12.57	-45.5	-47.7	15.4	0.00e+00	0	33	0	210763776	57	4554
2026-01-16 01:15:40.50	24.48	12.66	-45.4	-47.6	15.4	0.00e+00	0	33	0	212860928	57	4515
2026-01-16 01:15:41.51	24.46	12.76	-45.4	-47.5	15.5	0.00e+00	0	33	0	214958080	57	4489
2026-01-16 01:15:42.51	24.43	12.86	-45.4	-47.5	15.5	0.00e+00	0	33	0	217055232	57	4476
2026-01-16 01:15:43.52	24.40	12.95	-45.3	-47.4	15.5	0.00e+00	0	33	0	218103808	57	4441
2026-01-16 01:15:44.53	24.38	13.05	-45.3	-47.4	15.5	0.00e+00	0	33	0	220200960	57	4424
2026-01-16 01:15:45.54	24.35	13.15	-45.2	-47.3	15.6	0.00e+00	0	33	0	222298112	57	4385
2026-01-16 01:15:46.55	24.32	13.25	-45.4	-47.5	15.5	0.00e+00	0	32	0	224395264	57	4464
2026-01-16 01:15:47.55	24.30	13.35	-45.3	-47.4	15.6	0.00e+00	0	33	0	226492416	57	4408
2026-01-16 01:15:48.56	24.27	13.45	-45.2	-47.3	15.6	0.00e+00	0	33	0	227540992	57	4355
2026-01-16 01:15:49.57	24.24	13.55	-45.1	-47.2	15.6	0.00e+00	0	33	0	229638144	56	4560
2026-01-16 01:15:50.58	24.22	13.65	-45.1	-47.1	15.7	0.00e+00	0	33	0	231735296	56	4531
2026-01-16 01:15:51.59	24.19	13.75	-45.2	-47.3	15.6	0.00e+00	0	33	0	233832448	56	4606
2026-01-16 01:15:52.60	24.16	13.85	-45.0	-47.1	15.7	0.00e+00	0	33	0	235929600	56	4501
2026-01-16 01:15:53.61	24.13	13.95	-45.0	-47.0	15.7	0.00e+00	0	33	0	236978176	56	4471
2026-01-16 01:15:54.62	24.10	14.05	-45.0	-47.0	15.8	0.00e+00	0	33	0	239075328	56	4445
2026-01-16 01:15:55.62	24.08	14.15	-44.9	-46.9	15.8	0.00e+00	0	33	0	241172480	56	4434
2026-01-16 01:15:56.63	24.05	14.26	-44.9	-46.9	15.8	0.00e+00	0	33	0	243269632	56	4400
2026-01-16 01:15:57.64	24.02	14.36	-44.8	-46.8	15.8	0.00e+00	0	33	0	245366784	56	4370
2026-01-16 01:15:58.65	23.99	14.46	-44.9	-46.8	15.8	0.00e+00	0	33	0	246415360	56	4370
2026-01-16 01:15:59.66	23.96	14.57	-44.9	-46.8	15.8	0.00e+00	0	33	0	248512512	56	4380
2026-01-16 01:16:00.67	23.93	14.67	-44.8	-46.7	15.9	0.00e+00	0	33	0	250609664	56	4314
2026-01-16 01:16:01.68	23.90	14.78	-44.8	-46.7	15.9	0.00e+00	0	33	0	252706816	56	4305
2026-01-16 01:16:02.69	23.87	14.88	-44.8	-46.7	15.9	0.00e+00	0	33	0	254803968	56	4305
2026-01-16 01:16:03.70	23.84	14.99	-44.5	-46.5	15.9	0.00e+00	0	33	0	255852544	55	4442
2026-01-16 01:16:04.71	23.81	15.10	-44.6	-46.5	15.9	0.00e+00	0	33	0	257949696	55	4452
2026-01-16 01:16:05.72	23.78	15.20	-44.6	-46.5	15.9	0.00e+00	0	33	0	260046848	55	4456
2026-01-16 01:16:06.73	23.75	15.31	-44.6	-46.5	15.9	0.00e+00	0	33	0	262144000	55	4468
2026-01-16 01:16:07.74	23.71	15.42	-44.5	-46.4	15.9	0.00e+00	0	33	0	264241152	55	4415
2026-01-16 01:16:08.75	23.68	15.53	-44.4	-46.3	16.0	0.00e+00	0	33	0	265289728	55	4346
2026-01-16 01:16:09.75	23.65	15.63	-44.5	-46.4	16.0	0.00e+00	0	33	0	267386880	55	4407
2026-01-16 01:16:10.76	23.62	15.74	-44.5	-46.4	16.0	0.00e+00	0	33	0	269484032	55	4423
2026-01-16 01:16:11.77	23.59	15.85	-44.5	-46.3	16.0	0.00e+00	0	33	0	271581184	55	4379
2026-01-16 01:16:12.78	23.55	15.96	-44.4	-46.3	16.0	0.00e+00	0	33	0	273678336	55	4357
2026-01-16 01:16:13.79	23.52	16.07	-44.4	-46.2	16.0	0.00e+00	0	33	0	275775488	55	4340
2026-01-16 01:16:14.80	23.49	16.18	-44.4	-46.2	16.0	0.00e+00	0	33	0	276824064	55	4311
2026-01-16 01:16:15.81	23.45	16.30	-44.3	-46.1	16.1	0.00e+00	0	33	0	278921216	55	4266
2026-01-16 01:16:16.82	23.42	16.41	-44.3	-46.1	16.1	0.00e+00	0	33	0	281018368	55	4269
2026-01-16 01:16:17.83	23.38	16.52	-44.3	-46.1	16.1	0.00e+00	0	33	0	283115520	55	4258
2026-01-16 01:16:18.84	23.35	16.63	-44.2	-46.0	16.1	0.00e+00	0	33	0	285212672	54	4444
2026-01-16 01:16:19.85	23.31	16.75	-44.2	-46.0	16.1	0.00e+00	0	33	0	286261248	54	4454
2026-01-16 01:16:20.86	23.28	16.86	-44.2	-46.0	16.1	0.00e+00	0	33	0	288358400	54	4474
2026-01-16 01:16:21.87	23.24	16.98	-44.1	-45.8	16.2	0.00e+00	0	33	0	290455552	54	4384
2026-01-16 01:16:22.88	23.21	17.09	-44.1	-45.9	16.1	0.00e+00	0	33	0	292552704	54	4410
2026-01-16 01:16:23.88	23.17	17.21	-44.2	-46.0	16.1	0.00e+00	0	33	0	294649856	54	4449
2026-01-16 01:16:24.89	23.14	17.32	-44.2	-45.9	16.1	0.00e+00	0	33	0	295698432	54	4438
2026-01-16 01:16:25.90	23.10	17.44	-44.0	-45.8	16.2	0.00e+00	0	33	0	297795584	54	4367
2026-01-16 01:16:26.91	23.06	17.56	-44.1	-45.9	16.2	0.00e+00	0	33	0	299892736	54	4393
2026-01-16 01:16:27.92	23.03	17.67	-44.1	-45.9	16.1	0.00e+00	0	33	0	301989888	54	4428
2026-01-16 01:16:28.93	22.99	17.79	-44.2	-46.0	16.1	0.00e+00	0	33	0	304087040	54	4467
2026-01-16 01:16:29.94	22.95	17.91	-44.0	-45.8	16.2	0.00e+00	0	33	0	305135616	54	4355
2026-01-16 01:16:30.95	22.91	18.03	-44.1	-45.9	16.1	0.00e+00	0	33	0	307232768	54	4421
2026-01-16 01:16:31.96	22.87	18.15	-44.0	-45.7	16.3	0.00e+00	0	33	0	309329920	54	4303
2026-01-16 01:16:32.97	22.83	18.27	-44.0	-45.8	16.2	0.00e+00	0	33	0	311427072	54	4346
2026-01-16 01:16:33.98	22.79	18.39	-44.0	-45.8	16.2	0.00e+00	0	33	0	313524224	54	4356
2026-01-16 01:16:34.99	22.76	18.52	-43.9	-45.6	16.3	0.00e+00	0	33	0	314572800	54	4286
2026-01-16 01:16:36.00	22.72	18.64	-43.9	-45.7	16.3	0.00e+00	0	33	0	316669952	54	4297
2026-01-16 01:16:37.01	22.68	18.76	-44.0	-45.7	16.2	0.00e+00	0	33	0	318767104	54	4338
2026-01-16 01:16:38.01	22.63	18.88	-44.1	-45.8	16.2	0.00e+00	0	33	0	320864256	54	4368
2026-01-16 01:16:39.03	22.59	19.01	-44.0	-45.7	16.3	0.00e+00	0	33	0	322961408	54	4312
2026-01-16 01:16:40.03	22.55	19.13	-44.0	-45.7	16.3	0.00e+00	0	33	0	324009984	54	4323
2026-01-16 01:16:41.04	22.51	19.26	-44.1	-45.9	16.2	0.00e+00	0	33	0	326107136	54	4405
2026-01-16 01:16:42.05	22.47	19.38	-43.9	-45.6	16.3	0.00e+00	0	33	0	328204288	54	4268
2026-01-16 01:16:43.06	22.43	19.51	-44.0	-45.7	16.3	0.00e+00	0	33	0	330301440	54	4303
2026-01-16 01:16:44.07	22.38	19.64	-44.0	-45.7	16.3	0.00e+00	0	33	0	332398592	54	4328
2026-01-16 01:16:45.08	22.34	19.77	-43.8	-45.5	16.3	0.00e+00	0	33	0	333447168	54	4240
2026-01-16 01:16:46.09	22.30	19.90	-43.7	-45.4	16.4	0.00e+00	0	33	0	335544320	54	4178
2026-01-16 01:16:47.10	22.25	20.02	-43.7	-45.4	16.4	0.00e+00	0	33	0	337641472	54	4157
2026-01-16 01:16:48.11	22.21	20.15	-43.7	-45.4	16.4	0.00e+00	0	33	0	339738624	54	4150
2026-01-16 01:16:49.12	22.16	20.29	-43.6	-45.3	16.4	0.00e+00	0	33	0	341835776	53	4367
2026-01-16 01:16:50.13	22.12	20.42	-43.7	-45.3	16.4	0.00e+00	0	33	0	343932928	53	4376
2026-01-16 01:16:51.14	22.07	20.55	-43.6	-45.3	16.4	0.00e+00	0	33	0	344981504	53	4357
2026-01-16 01:16:52.14	22.03	20.68	-43.6	-45.3	16.4	0.00e+00	0	33	0	347078656	53	4359
2026-01-16 01:16:53.16	21.98	20.81	-43.6	-45.3	16.4	0.00e+00	0	33	0	349175808	53	4344
2026-01-16 01:16:54.16	21.93	20.95	-43.6	-45.3	16.4	0.00e+00	0	33	0	351272960	53	4351
2026-01-16 01:16:55.17	21.88	21.08	-43.6	-45.2	16.4	0.00e+00	0	33	0	353370112	53	4317
2026-01-16 01:16:56.18	21.84	21.22	-43.7	-45.3	16.4	0.00e+00	0	33	0	354418688	53	4382
2026-01-16 01:16:57.19	21.79	21.35	-43.6	-45.3	16.4	0.00e+00	0	33	0	356515840	53	4351
2026-01-16 01:16:58.20	21.74	21.49	-43.5	-45.2	16.5	0.00e+00	0	33	0	358612992	53	4298
2026-01-16 01:16:59.21	21.69	21.63	-43.5	-45.2	16.4	0.00e+00	0	33	0	360710144	53	4298
2026-01-16 01:17:00.22	21.64	21.77	-43.6	-45.3	16.4	0.00e+00	0	33	0	362807296	53	4351
2026-01-16 01:17:01.23	21.59	21.90	-43.7	-45.3	16.4	0.00e+00	0	33	0	363855872	53	4366
2026-01-16 01:17:02.24	21.54	22.04	-43.6	-45.3	16.4	0.00e+00	0	33	0	365953024	53	4351
2026-01-16 01:17:03.25	21.49	22.18	-43.5	-45.1	16.5	0.00e+00	0	33	0	368050176	53	4279
2026-01-16 01:17:04.26	21.43	22.33	-43.6	-45.2	16.5	0.00e+00	0	33	0	370147328	53	4318
2026-01-16 01:17:05.27	21.38	22.47	-43.5	-45.1	16.5	0.00e+00	0	33	0	372244480	53	4280
2026-01-16 01:17:06.28	21.33	22.61	-43.6	-45.2	16.5	0.00e+00	0	33	0	373293056	53	4325
2026-01-16 01:17:07.29	21.28	22.75	-43.5	-45.0	16.5	0.00e+00	0	33	0	375390208	53	4241
2026-01-16 01:17:08.29	21.22	22.90	-43.6	-45.2	16.5	0.00e+00	0	33	0	377487360	53	4311
2026-01-16 01:17:09.30	21.17	23.04	-43.6	-45.2	16.4	0.00e+00	0	33	0	379584512	53	4323
2026-01-16 01:17:10.31	21.11	23.19	-43.7	-45.4	16.4	0.00e+00	0	33	0	381681664	53	4404
2026-01-16 01:17:11.32	21.06	23.33	-43.6	-45.2	16.4	0.00e+00	0	33	0	382730240	53	4320
2026-01-16 01:17:12.33	21.00	23.48	-43.6	-45.2	16.4	0.00e+00	0	33	0	384827392	53	4329
2026-01-16 01:17:13.34	20.94	23.63	-43.6	-45.2	16.5	0.00e+00	0	33	0	386924544	53	4317
2026-01-16 01:17:14.35	20.89	23.78	-43.7	-45.3	16.4	0.00e+00	0	33	0	389021696	53	4372
2026-01-16 01:17:15.36	20.83	23.93	-43.6	-45.2	16.4	0.00e+00	0	33	0	391118848	53	4340
2026-01-16 01:17:16.37	20.77	24.08	-43.7	-45.3	16.4	0.00e+00	0	33	0	392167424	53	4362
2026-01-16 01:17:17.38	20.71	24.23	-43.8	-45.4	16.3	0.00e+00	0	33	0	394264576	53	4441
2026-01-16 01:17:18.39	20.65	24.38	-43.9	-45.5	16.3	0.00e+00	0	33	0	396361728	53	4488
2026-01-16 01:17:19.40	20.59	24.54	-43.9	-45.6	16.3	0.00e+00	0	33	0	398458880	53	4534
2026-01-16 01:17:20.41	20.53	24.69	-44.0	-45.7	16.2	0.00e+00	0	33	0	400556032	53	4565
2026-01-16 01:17:21.42	20.47	24.85	-44.1	-45.8	16.2	0.00e+00	0	33	0	401604608	53	4650
2026-01-16 01:17:22.42	20.41	25.00	-44.2	-46.0	16.1	0.00e+00	0	33	0	403701760	53	4734
2026-01-16 01:17:23.43	20.35	25.16	-44.2	-46.0	16.2	0.00e+00	0	33	0	405798912	53	4728
2026-01-16 01:17:24.44	20.28	25.32	-44.3	-46.1	16.1	0.00e+00	0	33	0	407896064	53	4802
2026-01-16 01:17:25.45	20.22	25.47	-44.5	-46.3	16.1	0.00e+00	0	33	0	409993216	54	4632
2026-01-16 01:17:26.46	20.15	25.63	-44.6	-46.4	16.0	0.00e+00	0	33	0	412090368	54	4698
2026-01-16 01:17:27.47	20.09	25.79	-44.7	-46.6	16.0	0.00e+00	0	33	0	413138944	54	4776
2026-01-16 01:17:28.48	20.02	25.96	-44.7	-46.6	15.9	0.00e+00	0	33	0	415236096	54	4795
2026-01-16 01:17:29.49	19.95	26.12	-44.9	-46.8	15.9	0.00e+00	0	33	0	417333248	54	4881
2026-01-16 01:17:30.50	19.89	26.28	-44.9	-46.9	15.9	0.00e+00	0	33	0	419430400	55	4678
2026-01-16 01:17:31.51	19.82	26.45	-45.0	-47.0	15.8	0.00e+00	0	33	0	421527552	55	4724
2026-01-16 01:17:32.52	19.75	26.61	-45.1	-47.1	15.8	0.00e+00	0	33	0	422576128	55	4764
2026-01-16 01:17:33.53	19.68	26.78	-45.1	-47.0	15.8	0.00e+00	0	33	0	424673280	55	4740
2026-01-16 01:17:34.54	19.61	26.94	-45.1	-47.1	15.8	0.00e+00	0	33	0	426770432	55	4797
2026-01-16 01:17:35.55	19.54	27.11	-45.3	-47.3	15.7	0.00e+00	0	33	0	428867584	55	4903
2026-01-16 01:17:36.56	19.46	27.28	-45.3	-47.3	15.7	0.00e+00	0	33	0	430964736	55	4920
2026-01-16 01:17:37.57	19.39	27.45	-45.6	-47.6	15.7	0.00e+00	0	33	0	432013312	56	4806
2026-01-16 01:17:38.58	19.32	27.62	-45.7	-47.9	15.6	0.00e+00	0	33	0	434110464	56	4937
2026-01-16 01:17:39.59	19.24	27.79	-45.9	-48.0	15.5	0.00e+00	0	33	0	436207616	56	5023
2026-01-16 01:17:40.59	19.17	27.97	-45.9	-48.2	15.4	0.00e+00	0	33	0	438304768	57	4818
2026-01-16 01:17:41.60	19.09	28.14	-46.1	-48.3	15.3	0.00e+00	0	33	0	440401920	57	4908
2026-01-16 01:17:42.61	19.01	28.32	-46.3	-48.6	15.2	0.00e+00	0	33	0	441450496	57	5058
2026-01-16 01:17:43.62	18.93	28.49	-46.3	-48.7	15.2	0.00e+00	0	33	0	443547648	57	5109
2026-01-16 01:17:44.63	18.85	28.67	-46.5	-48.9	15.1	0.00e+00	0	33	0	445644800	58	4933
2026-01-16 01:17:45.64	18.77	28.85	-46.7	-49.1	15.0	0.00e+00	0	33	0	447741952	58	5091
2026-01-16 01:17:46.65	18.69	29.03	-46.7	-49.2	14.9	0.00e+00	0	33	0	449839104	58	5117
2026-01-16 01:17:47.66	18.61	29.21	-46.8	-49.4	14.8	0.00e+00	0	33	0	450887680	58	5242
2026-01-16 01:17:48.67	18.53	29.39	-46.8	-49.4	14.8	0.00e+00	0	33	0	452984832	58	5258
2026-01-16 01:17:49.68	18.44	29.57	-47.0	-49.6	14.7	0.00e+00	0	33	0	455081984	59	5084
2026-01-16 01:17:50.69	18.36	29.75	-47.0	-49.7	14.6	0.00e+00	0	33	0	457179136	59	5140
2026-01-16 01:17:51.70	18.27	29.94	-47.1	-49.8	14.6	0.00e+00	0	33	0	459276288	59	5209
2026-01-16 01:17:52.71	18.19	30.13	-47.1	-49.8	14.6	0.00e+00	0	33	0	460324864	59	5176
2026-01-16 01:17:53.71	18.10	30.31	-47.2	-49.9	14.5	0.00e+00	0	33	0	462422016	59	5270
2026-01-16 01:17:54.72	18.01	30.50	-47.1	-49.8	14.6	0.00e+00	0	33	0	464519168	59	5161
2026-01-16 01:17:55.73	17.92	30.69	-47.2	-49.9	14.5	0.00e+00	0	33	0	466616320	59	5247
2026-01-16 01:17:56.74	17.83	30.88	-47.2	-49.9	14.5	0.00e+00	0	33	0	468713472	59	5278
2026-01-16 01:17:57.75	17.73	31.07	-47.3	-50.1	14.4	0.00e+00	0	33	0	469762048	59	5349
2026-01-16 01:17:58.76	17.64	31.26	-47.3	-50.1	14.4	0.00e+00	0	33	0	471859200	59	5361
2026-01-16 01:17:59.76	17.55	31.46	-47.4	-50.2	14.4	0.00e+00	0	33	0	473956352	59	5436
2026-01-16 01:18:00.77	17.45	31.65	-47.1	-49.9	14.3	0.00e+00	0	33	0	476053504	60	4963
2026-01-16 01:18:01.78	17.35	31.85	-47.2	-50.0	14.3	0.00e+00	0	33	0	478150656	60	5035
2026-01-16 01:18:02.79	17.26	32.05	-47.3	-50.2	14.2	0.00e+00	0	33	0	479199232	60	5133
2026-01-16 01:18:03.80	17.16	32.25	-47.5	-50.4	14.0	0.00e+00	0	33	0	481296384	60	5275
2026-01-16 01:18:04.81	17.05	32.45	-47.5	-50.4	14.0	0.00e+00	0	33	0	483393536	60	5261
2026-01-16 01:18:05.82	16.95	32.65	-47.5	-50.6	13.9	0.00e+00	0	33	0	485490688	60	5350
2026-01-16 01:18:06.83	16.85	32.85	-47.6	-50.7	13.9	0.00e+00	0	33	0	487587840	60	5410
2026-01-16 01:18:07.84	16.74	33.05	-47.6	-50.6	13.9	0.00e+00	0	33	0	488636416	60	5396
2026-01-16 01:18:08.85	16.64	33.26	-47.6	-50.6	14.0	0.00e+00	0	33	0	490733568	60	5360
2026-01-16 01:18:09.86	16.53	33.47	-47.6	-50.6	13.9	0.00e+00	0	33	0	492830720	60	5387
2026-01-16 01:18:10.87	16.42	33.67	-47.7	-50.9	13.8	0.00e+00	0	33	0	494927872	60	5544
2026-01-16 01:18:11.87	16.31	33.88	-47.6	-50.6	13.9	0.00e+00	0	33	0	497025024	60	5394
2026-01-16 01:18:12.88	16.20	34.09	-47.6	-50.7	13.9	0.00e+00	0	33	0	498073600	60	5411
2026-01-16 01:18:13.89	16.08	34.30	-47.5	-50.5	14.0	0.00e+00	0	33	0	500170752	60	5329
2026-01-16 01:18:14.90	15.97	34.52	-47.4	-50.3	14.1	0.00e+00	0	33	0	502267904	60	5216
2026-01-16 01:18:15.91	15.85	34.73	-47.3	-50.1	14.2	0.00e+00	0	33	0	504365056	60	5098
2026-01-16 01:18:16.92	15.73	34.95	-47.2	-50.0	14.3	0.00e+00	0	33	0	506462208	60	5006
2026-01-16 01:18:17.93	15.61	35.16	-47.1	-49.8	14.5	0.00e+00	0	33	0	508559360	60	4883
2026-01-16 01:18:18.94	15.49	35.38	-47.1	-49.8	14.5	0.00e+00	0	33	0	509607936	60	4902
2026-01-16 01:18:19.95	15.37	35.60	-47.0	-49.7	14.5	0.00e+00	0	33	0	511705088	60	4828
2026-01-16 01:18:20.96	15.24	35.82	-47.1	-49.8	14.5	0.00e+00	0	33	0	513802240	60	4884
2026-01-16 01:18:21.96	15.12	36.04	-46.8	-49.4	14.7	0.00e+00	0	33	0	515899392	60	4667
2026-01-16 01:18:22.97	14.99	36.27	-47.0	-49.7	14.5	0.00e+00	0	33	0	517996544	60	4829
2026-01-16 01:18:23.98	14.86	36.49	-47.1	-49.8	14.4	0.00e+00	0	33	0	519045120	60	4905
2026-01-16 01:18:24.99	14.73	36.72	-47.2	-50.0	14.3	0.00e+00	0	33	0	521142272	60	5021
2026-01-16 01:18:26.00	14.59	36.95	-47.4	-50.3	14.2	0.00e+00	0	33	0	523239424	60	5164
2026-01-16 01:18:27.01	14.46	37.18	-47.4	-50.3	14.1	0.00e+00	0	33	0	525336576	60	5210
2026-01-16 01:18:28.02	14.32	37.41	-47.7	-50.8	13.8	0.00e+00	0	33	0	527433728	60	5501
2026-01-16 01:18:29.03	14.18	37.64	-47.7	-50.9	13.8	0.00e+00	0	33	0	528482304	60	5545
2026-01-16 01:18:30.04	14.03	37.87	-47.6	-50.6	14.0	0.00e+00	0	33	0	530579456	60	5371
2026-01-16 01:18:31.05	13.89	38.11	-47.7	-50.7	13.9	0.00e+00	0	33	0	532676608	60	5459
2026-01-16 01:18:32.06	13.74	38.34	-47.6	-50.7	13.9	0.00e+00	0	33	0	534773760	60	5406
2026-01-16 01:18:33.07	13.59	38.58	-47.7	-50.8	13.8	0.00e+00	0	33	0	536870912	60	5517
2026-01-16 01:18:34.08	13.44	38.82	-47.8	-51.0	13.7	0.00e+00	0	33	0	537919488	60	5625
2026-01-16 01:18:35.09	13.29	39.06	-47.9	-51.2	13.6	0.00e+00	0	33	0	540016640	61	5420
2026-01-16 01:18:36.10	13.13	39.31	-47.8	-50.9	13.8	0.00e+00	0	33	0	542113792	61	5257
2026-01-16 01:18:37.11	12.98	39.55	-47.6	-50.6	14.0	7.00e-07	0	33	0	544210944	61	5099
2026-01-16 01:18:38.11	12.82	39.79	-47.6	-50.6	14.0	0.00e+00	0	33	0	546308096	61	5083
2026-01-16 01:18:39.12	12.65	40.04	-47.4	-50.2	14.2	0.00e+00	0	33	0	547356672	61	4854
2026-01-16 01:18:40.13	12.49	40.29	-47.4	-50.3	14.2	0.00e+00	0	33	0	549453824	61	4904
2026-01-16 01:18:41.14	12.32	40.54	-47.4	-50.2	14.3	0.00e+00	0	33	0	551550976	61	4839
2026-01-16 01:18:42.15	12.15	40.79	-47.3	-50.0	14.4	0.00e+00	0	33	0	553648128	61	4738
2026-01-16 01:18:43.16	11.98	41.04	-47.2	-49.9	14.4	0.00e+00	0	33	0	555745280	60	4967
2026-01-16 01:18:44.17	11.80	41.29	-47.1	-49.8	14.5	0.00e+00	0	33	0	556793856	60	4895
2026-01-16 01:18:45.18	11.62	41.55	-47.0	-49.6	14.5	0.00e+00	0	33	0	558891008	60	4810
2026-01-16 01:18:46.19	11.44	41.81	-46.9	-49.5	14.7	0.00e+00	0	33	0	560988160	60	4711
2026-01-16 01:18:47.20	11.25	42.07	-46.8	-49.3	14.8	0.00e+00	0	33	0	563085312	60	4626
2026-01-16 01:18:48.21	11.06	42.33	-46.8	-49.2	15.1	0.00e+00	0	33	0	565182464	59	4860
2026-01-16 01:18:49.22	10.87	42.59	-46.7	-49.0	15.2	0.00e+00	0	33	0	566231040	59	4743
2026-01-16 01:18:50.23	10.68	42.85	-46.6	-49.0	15.2	0.00e+00	0	33	0	568328192	59	4729
2026-01-16 01:18:51.24	10.48	43.11	-46.6	-48.9	15.2	0.00e+00	0	33	0	570425344	59	4670
2026-01-16 01:18:52.24	10.28	43.38	-46.6	-48.9	15.2	0.00e+00	0	33	0	572522496	59	4701
2026-01-16 01:18:53.25	10.08	43.64	-46.5	-48.9	15.2	0.00e+00	0	33	0	574619648	59	4664
2026-01-16 01:18:54.26	9.87	43.91	-46.3	-48.5	15.4	0.00e+00	0	33	0	576716800	59	4459
2026-01-16 01:18:55.27	9.66	44.18	-46.1	-48.2	15.6	0.00e+00	0	33	0	577765376	58	4596
2026-01-16 01:18:56.28	9.44	44.46	-46.1	-48.2	15.6	0.00e+00	0	33	0	579862528	58	4576
2026-01-16 01:18:57.29	9.22	44.73	-46.0	-48.2	15.6	0.00e+00	0	33	0	581959680	58	4549
2026-01-16 01:18:58.30	9.00	45.00	-46.0	-48.1	15.6	0.00e+00	0	33	0	584056832	58	4494
2026-01-16 01:18:59.31	8.77	45.28	-45.7	-47.7	15.8	0.00e+00	0	33	0	586153984	58	4334
2026-01-16 01:19:00.32	8.54	45.56	-45.6	-47.6	15.8	0.00e+00	0	33	0	587202560	57	4512
2026-01-16 01:19:01.33	8.30	45.83	-45.5	-47.5	15.9	0.00e+00	0	33	0	589299712	57	4459
2026-01-16 01:19:02.33	8.07	46.11	-45.4	-47.4	15.9	0.00e+00	0	33	0	591396864	57	4407
2026-01-16 01:19:03.34	7.82	46.39	-45.5	-47.4	15.9	0.00e+00	0	33	0	593494016	57	4418
2026-01-16 01:19:04.35	7.57	46.68	-45.5	-47.4	15.9	0.00e+00	0	33	0	594542592	57	4435
2026-01-16 01:19:05.36	7.32	46.96	-45.4	-47.4	16.0	0.00e+00	0	33	0	596639744	57	4394
2026-01-16 01:19:06.37	7.06	47.24	-45.4	-47.4	15.9	0.00e+00	0	33	0	598736896	57	4411
2026-01-16 01:19:07.38	6.80	47.53	-45.6	-47.6	15.9	0.00e+00	0	33	0	600834048	57	4507
2026-01-16 01:19:08.39	6.53	47.82	-45.8	-47.9	15.7	0.00e+00	0	33	0	602931200	57	4661
2026-01-16 01:19:09.40	6.26	48.11	-45.9	-48.0	15.7	0.00e+00	0	33	0	605028352	57	4707
2026-01-16 01:19:10.41	5.98	48.40	-45.9	-48.0	15.7	0.00e+00	0	33	0	606076928	57	4732
2026-01-16 01:19:11.42	5.70	48.69	-46.0	-48.2	15.6	0.00e+00	0	33	0	608174080	57	4827
2026-01-16 01:19:12.43	5.41	48.98	-46.0	-48.1	15.6	0.00e+00	0	33	0	610271232	57	4778
2026-01-16 01:19:13.44	5.12	49.28	-46.0	-48.1	15.6	0.00e+00	0	33	0	612368384	57	4807
2026-01-16 01:19:14.45	4.82	49.57	-46.0	-48.2	15.6	0.00e+00	0	33	0	614465536	57	4835
2026-01-16 01:19:15.46	4.51	49.87	-45.8	-47.8	15.7	0.00e+00	0	33	0	615514112	57	4629
2026-01-16 01:19:16.47	4.20	50.16	-45.6	-47.6	15.8	0.00e+00	0	33	0	617611264	57	4542
2026-01-16 01:19:17.48	3.88	50.46	-45.6	-47.6	15.8	0.00e+00	0	33	0	619708416	57	4540
2026-01-16 01:19:18.49	3.55	50.76	-45.4	-47.3	16.0	0.00e+00	0	33	0	621805568	57	4349
2026-01-16 01:19:19.49	3.23	51.06	-45.0	-46.9	16.2	0.00e+00	0	33	0	623902720	56	4401
2026-01-16 01:19:20.50	2.89	51.36	-44.9	-46.7	16.2	0.00e+00	0	33	0	624951296	56	4301
2026-01-16 01:19:21.51	2.54	51.66	-44.4	-46.1	16.4	0.00e+00	0	33	0	627048448	55	4268
2026-01-16 01:19:22.52	2.19	51.96	-44.1	-45.7	16.5	0.00e+00	0	33	0	629145600	54	4315
2026-01-16 01:19:23.53	1.83	52.27	-43.9	-45.5	16.6	0.00e+00	0	33	0	631242752	54	4221
2026-01-16 01:19:24.54	1.46	52.57	-43.9	-45.5	16.6	0.00e+00	0	33	0	633339904	54	4207
2026-01-16 01:19:25.55	1.09	52.87	-43.9	-45.5	16.6	0.00e+00	0	33	0	634388480	54	4226
2026-01-16 01:19:26.56	0.71	53.18	-43.9	-45.5	16.6	0.00e+00	0	33	0	636485632	54	4208
2026-01-16 01:19:27.57	0.32	53.48	-43.8	-45.4	16.6	0.00e+00	0	33	0	638582784	54	4161
2026-01-16 01:19:28.58	359.92	53.79	-44.0	-45.6	16.5	0.00e+00	0	33	0	640679936	54	4283
2026-01-16 01:19:29.58	359.51	54.09	-44.2	-45.9	16.5	0.00e+00	0	33	0	642777088	54	4427
2026-01-16 01:19:30.59	359.09	54.40	-44.2	-45.9	16.5	0.00e+00	0	33	0	643825664	54	4421
2026-01-16 01:19:31.60	358.67	54.71	-44.2	-45.9	16.5	0.00e+00	0	33	0	645922816	54	4415
2026-01-16 01:19:32.61	358.23	55.01	-44.7	-46.4	16.3	0.00e+00	0	33	0	648019968	54	4684
2026-01-16 01:19:33.62	357.79	55.32	-45.2	-47.1	16.0	0.00e+00	0	33	0	650117120	55	4770
2026-01-16 01:19:34.63	357.33	55.63	-45.8	-47.9	15.7	0.00e+00	0	33	0	652214272	56	4943
2026-01-16 01:19:35.64	356.87	55.94	-46.4	-48.7	15.4	0.00e+00	0	33	0	653262848	57	5106
2026-01-16 01:19:36.65	356.39	56.24	-47.3	-50.0	14.7	0.00e+00	0	33	0	655360000	59	5291
2026-01-16 01:19:37.66	355.91	56.55	-48.0	-51.2	13.7	0.00e+00	0	33	0	657457152	61	5412
2026-01-16 01:19:38.67	355.41	56.86	-48.7	-52.4	12.9	0.00e+00	0	33	0	659554304	62	5908
2026-01-16 01:19:39.68	354.90	57.16	-49.1	-53.3	12.2	3.80e-06	0	33	0	661651456	63	6176
2026-01-16 01:19:40.69	354.38	57.47	-49.3	-53.7	11.9	3.50e-05	0	33	0	662700032	63	6443
2026-01-16 01:19:41.70	353.85	57.77	-49.0	-53.1	12.4	2.13e-05	0	33	0	664797184	63	6023
2026-01-16 01:19:42.71	353.31	58.07	-48.2	-51.5	13.5	0.00e+00	0	33	0	666894336	63	5012
2026-01-16 01:19:43.72	352.75	58.38	-47.7	-50.6	14.2	0.00e+00	0	33	0	668991488	61	5086
2026-01-16 01:19:44.72	352.19	58.68	-47.3	-50.0	14.5	0.00e+00	0	33	0	671088640	61	4722
2026-01-16 01:19:45.74	351.60	58.98	-46.7	-49.2	15.0	0.00e+00	0	33	0	673185792	60	4558
2026-01-16 01:19:46.74	351.01	59.28	-46.6	-49.0	15.3	0.00e+00	0	33	0	674234368	59	4713
2026-01-16 01:19:47.75	350.40	59.57	-46.1	-48.3	15.6	0.00e+00	0	33	0	676331520	58	4613
2026-01-16 01:19:48.76	349.77	59.87	-46.2	-48.4	15.6	0.00e+00	0	33	0	678428672	58	4700
2026-01-16 01:19:49.77	349.14	60.16	-46.1	-48.2	15.6	0.00e+00	0	33	0	680525824	58	4557
2026-01-16 01:19:50.78	348.48	60.46	-45.6	-47.6	15.8	0.00e+00	0	33	0	682622976	57	4507
2026-01-16 01:19:51.79	347.81	60.75	-45.2	-47.1	16.1	0.00e+00	0	33	0	683671552	56	4494
2026-01-16 01:19:52.80	347.13	61.04	-44.9	-46.7	16.2	0.00e+00	0	33	0	685768704	56	4324
2026-01-16 01:19:53.81	346.43	61.32	-44.1	-45.7	16.5	0.00e+00	0	33	0	687865856	54	4326
2026-01-16 01:19:54.82	345.71	61.60	-43.7	-45.3	16.7	0.00e+00	0	33	0	689963008	53	4355
2026-01-16 01:19:55.83	344.98	61.89	-43.6	-45.1	16.7	0.00e+00	0	33	0	692060160	53	4291
2026-01-16 01:19:56.84	344.23	62.16	-43.6	-45.1	16.7	0.00e+00	0	33	0	693108736	53	4284
2026-01-16 01:19:57.84	343.47	62.43	-43.6	-45.1	16.7	0.00e+00	0	33	0	695205888	53	4273
2026-01-16 01:19:58.85	342.69	62.70	-43.2	-44.7	16.8	0.00e+00	0	33	0	697303040	52	4293
2026-01-16 01:19:59.86	341.88	62.97	-43.1	-44.5	16.9	0.00e+00	0	33	0	699400192	52	4237
2026-01-16 01:20:00.87	341.06	63.24	-43.2	-44.6	16.8	0.00e+00	0	33	0	701497344	52	4281
2026-01-16 01:20:01.88	340.22	63.49	-43.3	-44.8	16.8	0.00e+00	0	33	0	702545920	52	4380
2026-01-16 01:20:02.89	339.37	63.75	-43.6	-45.2	16.6	0.00e+00	0	33	0	704643072	52	4574
2026-01-16 01:20:03.90	338.49	64.00	-43.9	-45.5	16.6	0.00e+00	0	33	0	706740224	53	4453
2026-01-16 01:20:04.91	337.60	64.25	-44.2	-45.9	16.5	0.00e+00	0	33	0	708837376	53	4686
2026-01-16 01:20:05.92	336.68	64.49	-44.3	-46.0	16.4	0.00e+00	0	33	0	710934528	53	4729
2026-01-16 01:20:06.93	335.75	64.72	-44.8	-46.6	16.2	0.00e+00	0	33	0	711983104	54	4769
2026-01-16 01:20:07.94	334.79	64.95	-45.5	-47.5	15.9	0.00e+00	0	33	0	714080256	56	4710
2026-01-16 01:20:08.95	333.82	65.18	-45.6	-47.6	15.9	0.00e+00	0	33	0	716177408	56	4784
2026-01-16 01:20:09.96	332.83	65.40	-45.3	-47.1	16.1	0.00e+00	0	33	0	718274560	56	4536
2026-01-16 01:20:10.97	331.82	65.61	-45.5	-47.4	16.1	0.00e+00	0	33	0	720371712	56	4655
2026-01-16 01:20:11.98	330.78	65.81	-45.4	-47.2	16.1	0.00e+00	0	33	0	721420288	56	4588
2026-01-16 01:20:12.98	329.74	66.01	-45.5	-47.4	16.0	0.00e+00	0	33	0	723517440	56	4703
2026-01-16 01:20:13.99	328.67	66.20	-46.0	-48.1	15.7	0.00e+00	0	33	0	725614592	57	4804
2026-01-16 01:20:15.00	327.58	66.39	-46.8	-49.2	15.2	0.00e+00	0	33	0	727711744	58	5106
2026-01-16 01:20:16.01	326.48	66.57	-47.1	-49.6	15.0	0.00e+00	0	33	0	729808896	59	5091
2026-01-16 01:20:17.02	325.35	66.74	-46.7	-49.0	15.2	0.00e+00	0	33	0	730857472	59	4729
2026-01-16 01:20:18.03	324.21	66.90	-46.4	-48.6	15.5	0.00e+00	0	33	0	732954624	59	4508
2026-01-16 01:20:19.04	323.05	67.05	-46.3	-48.4	15.6	0.00e+00	0	33	0	735051776	59	4427
2026-01-16 01:20:20.05	321.87	67.19	-46.5	-48.8	15.4	0.00e+00	0	33	0	737148928	58	4879
2026-01-16 01:20:21.06	320.68	67.33	-46.7	-49.0	15.3	0.00e+00	0	33	0	739246080	58	5007
2026-01-16 01:20:22.07	319.47	67.46	-46.9	-49.3	15.1	0.00e+00	0	33	0	741343232	59	4925
2026-01-16 01:20:23.08	318.24	67.58	-47.1	-49.6	15.0	0.00e+00	0	33	0	742391808	59	5049
2026-01-16 01:20:24.09	317.01	67.68	-47.1	-49.7	14.8	0.00e+00	0	33	0	744488960	60	4838
2026-01-16 01:20:25.10	315.76	67.78	-47.2	-49.8	14.7	0.00e+00	0	33	0	746586112	60	4907
2026-01-16 01:20:26.10	314.51	67.87	-46.8	-49.2	15.0	0.00e+00	0	33	0	748683264	60	4570
2026-01-16 01:20:27.12	313.23	67.95	-47.2	-49.8	14.9	0.00e+00	0	33	0	750780416	59	5161
2026-01-16 01:20:28.12	311.96	68.02	-46.8	-49.1	15.2	0.00e+00	0	33	0	751828992	59	4800
2026-01-16 01:20:29.13	310.67	68.08	-46.6	-48.8	15.4	0.00e+00	0	33	0	753926144	59	4631
2026-01-16 01:20:30.14	309.37	68.13	-46.6	-48.9	15.4	0.00e+00	0	33	0	756023296	59	4668
2026-01-16 01:20:31.15	308.07	68.17	-46.6	-48.9	15.4	0.00e+00	0	33	0	758120448	59	4679
2026-01-16 01:20:32.16	306.77	68.19	-46.8	-49.2	15.3	0.00e+00	0	33	0	760217600	59	4821
2026-01-16 01:20:33.17	305.46	68.21	-46.9	-49.3	15.2	0.00e+00	0	33	0	761266176	59	4908
2026-01-16 01:20:34.18	304.15	68.22	-47.1	-49.6	15.0	0.00e+00	0	33	0	763363328	59	5097
2026-01-16 01:20:35.19	302.84	68.21	-47.4	-50.1	14.7	0.00e+00	0	33	0	765460480	59	5344
2026-01-16 01:20:36.20	301.53	68.20	-47.6	-50.4	14.3	0.00e+00	0	33	0	767557632	60	5257
2026-01-16 01:20:37.20	300.23	68.18	-47.6	-50.4	14.3	0.00e+00	0	33	0	769654784	60	5279
2026-01-16 01:20:38.21	298.93	68.14	-47.2	-49.9	14.6	0.00e+00	0	33	0	770703360	60	4956
2026-01-16 01:20:39.22	297.63	68.10	-47.0	-49.5	14.9	0.00e+00	0	33	0	772800512	60	4741
2026-01-16 01:20:40.23	296.34	68.04	-46.9	-49.2	15.2	0.00e+00	0	33	0	774897664	59	4859
2026-01-16 01:20:41.24	295.06	67.97	-46.6	-48.8	15.4	0.00e+00	0	33	0	776994816	59	4629
2026-01-16 01:20:42.25	293.78	67.90	-46.5	-48.8	15.4	0.00e+00	0	33	0	779091968	59	4600
2026-01-16 01:20:43.26	292.52	67.81	-46.9	-49.4	15.1	0.00e+00	0	33	0	780140544	59	4927
2026-01-16 01:20:44.27	291.26	67.72	-47.2	-49.8	14.9	0.00e+00	0	33	0	782237696	59	5163
2026-01-16 01:20:45.28	290.02	67.61	-47.0	-49.4	15.0	0.00e+00	0	33	0	784334848	59	4977
2026-01-16 01:20:46.29	288.80	67.49	-46.6	-48.8	15.4	0.00e+00	0	33	0	786432000	59	4626
2026-01-16 01:20:47.30	287.58	67.37	-46.3	-48.4	15.6	0.00e+00	0	33	0	788529152	58	4666
2026-01-16 01:20:48.31	286.38	67.24	-46.2	-48.3	15.6	0.00e+00	0	33	0	789577728	58	4645
2026-01-16 01:20:49.32	285.20	67.09	-46.3	-48.4	15.5	0.00e+00	0	33	0	791674880	58	4688
2026-01-16 01:20:50.33	284.03	66.94	-46.5	-48.7	15.5	0.00e+00	0	33	0	793772032	58	4818
2026-01-16 01:20:51.34	282.88	66.78	-46.5	-48.8	15.4	0.00e+00	0	33	0	795869184	58	4873
2026-01-16 01:20:52.35	281.75	66.62	-46.2	-48.4	15.7	0.00e+00	0	33	0	797966336	58	4659
2026-01-16 01:20:53.36	280.64	66.44	-46.1	-48.2	15.7	0.00e+00	0	33	0	799014912	58	4585
2026-01-16 01:20:54.36	279.56	66.26	-45.8	-47.8	15.9	0.00e+00	0	33	0	801112064	58	4357
2026-01-16 01:20:55.37	278.48	66.07	-45.2	-47.1	16.2	0.00e+00	0	33	0	803209216	57	4262
2026-01-16 01:20:56.38	277.42	65.87	-45.0	-46.7	16.2	0.00e+00	0	33	0	805306368	56	4333
2026-01-16 01:20:57.39	276.38	65.67	-44.8	-46.6	16.3	0.00e+00	0	33	0	807403520	56	4272
2026-01-16 01:20:58.40	275.36	65.46	-44.9	-46.6	16.3	0.00e+00	0	33	0	808452096	56	4272
2026-01-16 01:20:59.41	274.36	65.24	-45.0	-46.7	16.3	0.00e+00	0	33	0	810549248	56	4336
2026-01-16 01:21:00.42	273.38	65.02	-44.4	-46.0	16.5	0.00e+00	0	33	0	812646400	55	4234
2026-01-16 01:21:01.43	272.42	64.79	-44.0	-45.5	16.6	0.00e+00	0	33	0	814743552	54	4237
2026-01-16 01:21:02.44	271.48	64.56	-44.0	-45.6	16.6	0.00e+00	0	33	0	816840704	54	4259
2026-01-16 01:21:03.45	270.56	64.32	-43.9	-45.5	16.6	0.00e+00	0	33	0	817889280	54	4209
2026-01-16 01:21:04.46	269.66	64.07	-44.0	-45.6	16.6	0.00e+00	0	33	0	819986432	54	4287
2026-01-16 01:21:05.47	268.78	63.82	-44.5	-46.2	16.3	0.00e+00	0	33	0	822083584	54	4560
2026-01-16 01:21:06.47	267.92	63.57	-44.7	-46.4	16.2	0.00e+00	0	33	0	824180736	54	4701
2026-01-16 01:21:07.48	267.08	63.31	-44.7	-46.4	16.3	0.00e+00	0	33	0	826277888	54	4704
2026-01-16 01:21:08.49	266.25	63.05	-45.0	-46.8	16.1	0.00e+00	0	33	0	827326464	55	4611
2026-01-16 01:21:09.50	265.44	62.78	-45.2	-47.1	16.0	0.00e+00	0	33	0	829423616	55	4779
2026-01-16 01:21:10.51	264.65	62.51	-45.9	-47.9	15.8	0.00e+00	0	33	0	831520768	56	4949
2026-01-16 01:21:11.52	263.88	62.24	-46.1	-48.2	15.7	0.00e+00	0	33	0	833617920	57	4840
2026-01-16 01:21:12.53	263.12	61.96	-46.3	-48.5	15.5	0.00e+00	0	33	0	835715072	57	5011
2026-01-16 01:21:13.54	262.38	61.68	-46.5	-48.7	15.5	0.00e+00	0	33	0	837812224	58	4846
2026-01-16 01:21:14.55	261.66	61.40	-46.5	-48.7	15.4	0.00e+00	0	33	0	838860800	58	4853
2026-01-16 01:21:15.56	260.96	61.12	-46.9	-49.3	15.1	0.00e+00	0	33	0	840957952	58	5167
2026-01-16 01:21:16.57	260.27	60.83	-47.3	-49.9	14.9	0.00e+00	0	33	0	843055104	59	5230
2026-01-16 01:21:17.58	259.59	60.54	-47.2	-49.9	14.6	0.00e+00	0	33	0	845152256	60	4964
2026-01-16 01:21:18.59	258.93	60.24	-47.3	-49.9	14.6	0.00e+00	0	33	0	847249408	60	4975
2026-01-16 01:21:19.60	258.29	59.95	-47.3	-50.0	14.5	0.00e+00	0	33	0	848297984	60	5015
2026-01-16 01:21:20.60	257.67	59.66	-47.5	-50.3	14.4	0.00e+00	0	33	0	850395136	60	5185
2026-01-16 01:21:21.61	257.05	59.36	-47.3	-50.0	14.5	0.00e+00	0	33	0	852492288	60	5038
2026-01-16 01:21:22.62	256.45	59.06	-47.4	-50.2	14.4	0.00e+00	0	33	0	854589440	60	5138
2026-01-16 01:21:23.63	255.86	58.76	-47.5	-50.3	14.4	0.00e+00	0	33	0	856686592	60	5179
2026-01-16 01:21:24.64	255.29	58.46	-47.3	-50.0	14.5	0.00e+00	0	33	0	857735168	60	4999
2026-01-16 01:21:25.65	254.73	58.15	-47.1	-49.7	14.8	0.00e+00	0	33	0	859832320	60	4830
2026-01-16 01:21:26.66	254.18	57.85	-46.8	-49.2	14.9	0.00e+00	0	33	0	861929472	60	4575
2026-01-16 01:21:27.67	253.65	57.55	-46.3	-48.4	15.5	0.00e+00	0	33	0	864026624	59	4431
2026-01-16 01:21:28.68	253.12	57.24	-46.0	-48.1	15.7	0.00e+00	0	33	0	866123776	58	4520
2026-01-16 01:21:29.68	252.61	56.94	-46.3	-48.4	15.6	0.00e+00	0	33	0	867172352	58	4696
2026-01-16 01:21:30.69	252.11	56.63	-46.3	-48.4	15.6	0.00e+00	0	33	0	869269504	58	4697
2026-01-16 01:21:31.70	251.62	56.32	-46.0	-48.1	15.7	0.00e+00	0	33	0	871366656	58	4501
2026-01-16 01:21:32.71	251.14	56.02	-45.9	-47.9	15.8	0.00e+00	0	33	0	873463808	58	4431
2026-01-16 01:21:33.72	250.68	55.71	-45.6	-47.5	15.9	0.00e+00	0	33	0	875560960	57	4485
2026-01-16 01:21:34.73	250.22	55.40	-45.2	-47.1	16.1	0.00e+00	0	33	0	876609536	57	4255
2026-01-16 01:21:35.74	249.77	55.09	-45.0	-46.9	16.2	0.00e+00	0	33	0	878706688	56	4394
2026-01-16 01:21:36.75	249.33	54.78	-45.0	-46.8	16.2	0.00e+00	0	33	0	880803840	56	4387
2026-01-16 01:21:37.76	248.90	54.48	-44.9	-46.7	16.3	0.00e+00	0	33	0	882900992	56	4323
2026-01-16 01:21:38.77	248.48	54.17	-45.0	-46.8	16.2	0.00e+00	0	33	0	884998144	56	4366
2026-01-16 01:21:39.78	248.07	53.86	-45.1	-47.0	16.1	0.00e+00	0	33	0	886046720	56	4453
2026-01-16 01:21:40.79	247.67	53.56	-45.2	-47.1	16.1	0.00e+00	0	33	0	888143872	56	4500
2026-01-16 01:21:41.79	247.28	53.25	-45.4	-47.3	16.0	0.00e+00	0	33	0	890241024	56	4619
2026-01-16 01:21:42.80	246.89	52.95	-45.5	-47.4	16.0	0.00e+00	0	33	0	892338176	56	4694
2026-01-16 01:21:43.81	246.51	52.64	-45.5	-47.5	15.9	0.00e+00	0	33	0	894435328	56	4729
2026-01-16 01:21:44.82	246.14	52.34	-45.6	-47.6	15.9	0.00e+00	0	33	0	895483904	56	4783
2026-01-16 01:21:45.83	245.78	52.03	-45.5	-47.5	15.9	0.00e+00	0	33	0	897581056	56	4719
2026-01-16 01:21:46.84	245.43	51.73	-45.6	-47.5	15.9	0.00e+00	0	33	0	899678208	56	4749
2026-01-16 01:21:47.85	245.08	51.43	-45.8	-47.8	15.8	0.00e+00	0	33	0	901775360	56	4894
2026-01-16 01:21:48.86	244.74	51.13	-46.0	-48.2	15.6	0.00e+00	0	33	0	903872512	57	4829
2026-01-16 01:21:49.87	244.40	50.82	-46.5	-48.7	15.4	0.00e+00	0	33	0	905969664	58	4867
2026-01-16 01:21:50.88	244.08	50.52	-46.6	-49.0	15.3	0.00e+00	0	33	0	907018240	58	5008
2026-01-16 01:21:51.89	243.76	50.23	-46.7	-49.1	15.1	0.00e+00	0	33	0	909115392	58	5083
2026-01-16 01:21:52.90	243.44	49.93	-46.6	-48.9	15.3	0.00e+00	0	33	0	911212544	58	4968
2026-01-16 01:21:53.91	243.13	49.63	-46.3	-48.5	15.5	0.00e+00	0	33	0	913309696	58	4726
2026-01-16 01:21:54.91	242.83	49.34	-46.3	-48.5	15.5	0.00e+00	0	33	0	915406848	58	4706
2026-01-16 01:21:55.92	242.54	49.04	-46.3	-48.5	15.5	0.00e+00	0	33	0	916455424	58	4730
2026-01-16 01:21:56.93	242.25	48.75	-46.5	-48.8	15.3	0.00e+00	0	33	0	918552576	58	4881
2026-01-16 01:21:57.94	241.96	48.46	-46.9	-49.4	15.0	0.00e+00	0	33	0	920649728	59	4962
2026-01-16 01:21:58.94	241.68	48.17	-47.0	-49.4	15.0	0.00e+00	0	33	0	922746880	59	4982
2026-01-16 01:21:59.95	241.41	47.88	-47.0	-49.5	15.0	0.00e+00	0	33	0	923795456	59	5032
2026-01-16 01:22:00.96	241.14	47.59	-47.1	-49.7	14.9	0.00e+00	0	33	0	925892608	59	5103
2026-01-16 01:22:01.97	240.88	47.30	-47.1	-49.7	14.9	0.00e+00	0	33	0	927989760	59	5120
2026-01-16 01:22:02.98	240.62	47.02	-47.1	-49.7	14.9	0.00e+00	0	33	0	930086912	59	5153
2026-01-16 01:22:03.99	240.36	46.73	-46.7	-49.0	15.2	0.00e+00	0	33	0	932184064	59	4745
2026-01-16 01:22:05.00	240.11	46.45	-46.5	-48.8	15.3	0.00e+00	0	33	0	934281216	59	4626
2026-01-16 01:22:06.01	239.86	46.16	-46.8	-49.2	15.2	0.00e+00	0	33	0	935329792	59	4831
2026-01-16 01:22:07.02	239.62	45.88	-46.8	-49.2	15.1	0.00e+00	0	33	0	937426944	59	4845
2026-01-16 01:22:08.03	239.39	45.60	-46.9	-49.4	15.0	0.00e+00	0	33	0	939524096	59	4954
2026-01-16 01:22:09.04	239.15	45.33	-46.9	-49.4	15.0	0.00e+00	0	33	0	941621248	59	4958
2026-01-16 01:22:10.04	238.93	45.05	-46.7	-49.1	15.2	0.00e+00	0	33	0	943718400	59	4805
2026-01-16 01:22:11.06	238.70	44.77	-46.7	-49.0	15.2	0.00e+00	0	33	0	944766976	59	4743
2026-01-16 01:22:12.06	238.48	44.50	-46.7	-49.1	15.2	0.00e+00	0	33	0	946864128	59	4765
2026-01-16 01:22:13.07	238.26	44.23	-46.9	-49.4	15.0	0.00e+00	0	33	0	948961280	59	4942
2026-01-16 01:22:14.08	238.05	43.96	-47.3	-50.0	14.7	0.00e+00	0	33	0	951058432	59	5326
2026-01-16 01:22:15.09	237.84	43.69	-47.2	-49.9	14.5	0.00e+00	0	33	0	953155584	60	4939
2026-01-16 01:22:16.10	237.64	43.42	-47.5	-50.4	14.2	0.00e+00	0	33	0	954204160	60	5229
2026-01-16 01:22:17.11	237.43	43.15	-47.6	-50.6	14.1	0.00e+00	0	33	0	956301312	60	5358
2026-01-16 01:22:18.12	237.23	42.89	-47.6	-50.5	14.2	0.00e+00	0	33	0	958398464	60	5299
2026-01-16 01:22:19.13	237.04	42.62	-47.5	-50.4	14.2	0.00e+00	0	33	0	960495616	60	5249
2026-01-16 01:22:20.14	236.84	42.36	-47.4	-50.2	14.3	0.00e+00	0	33	0	962592768	60	5154
2026-01-16 01:22:21.15	236.65	42.10	-47.4	-50.2	14.3	0.00e+00	0	33	0	963641344	60	5139
2026-01-16 01:22:22.16	236.47	41.84	-47.3	-50.0	14.5	0.00e+00	0	33	0	965738496	60	4999
2026-01-16 01:22:23.16	236.29	41.58	-47.5	-50.3	14.2	0.00e+00	0	33	0	967835648	60	5172
2026-01-16 01:22:24.17	236.11	41.33	-47.7	-50.7	14.1	0.00e+00	0	33	0	969932800	60	5452
2026-01-16 01:22:25.18	235.93	41.07	-48.0	-51.2	13.7	0.00e+00	0	33	0	972029952	61	5456
2026-01-16 01:22:26.19	235.75	40.82	-48.1	-51.4	13.6	0.00e+00	0	33	0	973078528	61	5546
2026-01-16 01:22:27.20	235.58	40.57	-48.4	-52.0	13.1	0.00e+00	0	33	0	975175680	62	5604
2026-01-16 01:22:28.21	235.41	40.32	-48.4	-51.9	13.3	0.00e+00	0	33	0	977272832	62	5539
2026-01-16 01:22:29.22	235.25	40.07	-48.4	-51.9	13.2	0.00e+00	0	33	0	979369984	62	5580
2026-01-16 01:22:30.23	235.08	39.82	-48.3	-51.6	13.5	0.00e+00	0	33	0	981467136	62	5379
2026-01-16 01:22:31.24	234.92	39.57	-48.1	-51.4	13.6	0.00e+00	0	33	0	982515712	62	5257
2026-01-16 01:22:32.25	234.76	39.33	-47.7	-50.6	14.1	0.00e+00	0	33	0	984612864	62	4780
2026-01-16 01:22:33.26	234.60	39.08	-47.4	-50.2	14.4	0.00e+00	0	33	0	986710016	61	4848
2026-01-16 01:22:34.27	234.45	38.84	-47.3	-50.0	14.5	0.00e+00	0	33	0	988807168	61	4730
2026-01-16 01:22:35.28	234.30	38.60	-47.2	-49.9	14.5	0.00e+00	0	33	0	990904320	60	4962
2026-01-16 01:22:36.29	234.15	38.36	-47.1	-49.8	14.6	0.00e+00	0	33	0	991952896	60	4876
2026-01-16 01:22:37.29	234.00	38.13	-47.3	-50.0	14.5	0.00e+00	0	33	0	994050048	60	5027
2026-01-16 01:22:38.31	233.85	37.89	-47.2	-49.9	14.5	0.00e+00	0	33	0	996147200	60	4972
2026-01-16 01:22:39.31	233.71	37.66	-47.1	-49.8	14.6	0.00e+00	0	33	0	998244352	60	4881
2026-01-16 01:22:40.32	233.57	37.42	-46.9	-49.4	14.8	0.00e+00	0	33	0	1000341504	60	4680
2026-01-16 01:22:41.33	233.43	37.19	-46.8	-49.3	14.9	0.00e+00	0	33	0	1002438656	60	4645
2026-01-16 01:22:42.34	233.29	36.96	-46.8	-49.2	14.9	0.00e+00	0	33	0	1003487232	60	4595
2026-01-16 01:22:43.35	233.16	36.73	-46.7	-49.2	15.0	0.00e+00	0	33	0	1005584384	60	4581
2026-01-16 01:22:44.36	233.03	36.50	-46.8	-49.4	14.8	0.00e+00	0	33	0	1007681536	60	4671
2026-01-16 01:22:45.37	232.89	36.28	-46.9	-49.5	14.7	0.00e+00	0	33	0	1009778688	60	4753
2026-01-16 01:22:46.38	232.76	36.05	-47.0	-49.6	14.7	0.00e+00	0	33	0	1011875840	60	4785
2026-01-16 01:22:47.39	232.64	35.83	-46.8	-49.4	14.8	0.00e+00	0	33	0	1012924416	60	4692
2026-01-16 01:22:48.40	232.51	35.61	-47.0	-49.6	14.7	0.00e+00	0	33	0	1015021568	60	4784
2026-01-16 01:22:49.41	232.39	35.39	-46.7	-49.3	14.9	0.00e+00	0	33	0	1017118720	60	4608
2026-01-16 01:22:50.42	232.26	35.17	-46.9	-49.4	14.8	0.00e+00	0	33	0	1019215872	60	4698
2026-01-16 01:22:51.43	232.14	34.95	-47.0	-49.6	14.7	0.00e+00	0	33	0	1021313024	60	4769
2026-01-16 01:22:52.44	232.02	34.73	-47.0	-49.6	14.6	0.00e+00	0	33	0	1022361600	60	4801
2026-01-16 01:22:53.45	231.91	34.52	-46.9	-49.5	14.7	0.00e+00	0	33	0	1024458752	60	4757
2026-01-16 01:22:54.46	231.79	34.30	-46.9	-49.5	14.7	0.00e+00	0	33	0	1026555904	60	4748
2026-01-16 01:22:55.47	231.68	34.09	-46.9	-49.4	14.8	0.00e+00	0	33	0	1028653056	60	4702
2026-01-16 01:22:56.48	231.56	33.88	-46.9	-49.5	14.7	0.00e+00	0	33	0	1030750208	60	4726
2026-01-16 01:22:57.49	231.45	33.67	-47.1	-49.7	14.6	0.00e+00	0	33	0	1031798784	60	4863
2026-01-16 01:22:58.50	231.34	33.46	-47.2	-49.9	14.5	0.00e+00	0	33	0	1033895936	60	4982
2026-01-16 01:22:59.51	231.23	33.25	-47.3	-50.1	14.3	0.00e+00	0	33	0	1035993088	60	5094
2026-01-16 01:23:00.51	231.13	33.05	-47.4	-50.4	14.2	0.00e+00	0	33	0	1038090240	60	5230
2026-01-16 01:23:01.52	231.02	32.85	-47.5	-50.4	14.1	0.00e+00	0	33	0	1040187392	60	5265
2026-01-16 01:23:02.53	230.92	32.64	-47.5	-50.5	14.1	0.00e+00	0	33	0	1041235968	60	5308
2026-01-16 01:23:03.54	230.81	32.44	-47.6	-50.7	13.9	0.00e+00	0	33	0	1043333120	60	5411
2026-01-16 01:23:04.55	230.71	32.24	-47.5	-50.5	14.1	0.00e+00	0	33	0	1045430272	60	5306
2026-01-16 01:23:05.56	230.61	32.04	-47.6	-50.6	14.0	0.00e+00	0	33	0	1047527424	60	5358
2026-01-16 01:23:06.56	230.51	31.84	-47.4	-50.3	14.2	0.00e+00	0	33	0	1049624576	60	5172
2026-01-16 01:23:07.57	230.41	31.64	-47.3	-50.1	14.3	0.00e+00	0	33	0	1050673152	60	5080
2026-01-16 01:23:08.58	230.32	31.45	-47.3	-50.0	14.4	0.00e+00	0	33	0	1052770304	60	5035
2026-01-16 01:23:09.59	230.22	31.25	-47.4	-50.2	14.2	0.00e+00	0	33	0	1054867456	60	5156
2026-01-16 01:23:10.60	230.13	31.06	-47.5	-50.5	14.0	0.00e+00	0	33	0	1056964608	60	5304
2026-01-16 01:23:11.61	230.03	30.87	-47.7	-50.8	13.8	0.00e+00	0	33	0	1059061760	60	5515
2026-01-16 01:23:12.62	229.94	30.68	-47.9	-51.1	13.6	0.00e+00	0	33	0	1060110336	60	5707
2026-01-16 01:23:13.63	229.85	30.49	-48.0	-51.4	13.5	0.00e+00	0	33	0	1062207488	61	5533
2026-01-16 01:23:14.63	229.76	30.30	-48.2	-51.6	13.3	0.00e+00	0	33	0	1064304640	61	5687
2026-01-16 01:23:15.64	229.67	30.11	-48.2	-51.7	13.2	0.00e+00	0	33	0	1066401792	61	5771
2026-01-16 01:23:16.65	229.59	29.92	-48.3	-51.9	13.0	7.00e-07	0	33	0	1068498944	61	5914
2026-01-16 01:23:17.66	229.50	29.74	-48.3	-51.9	13.1	0.00e+00	0	33	0	1070596096	61	5882
2026-01-16 01:23:18.67	229.41	29.55	-48.3	-51.9	13.1	7.00e-07	0	33	0	1071644672	61	5901
2026-01-16 01:23:19.68	229.33	29.37	-48.2	-51.8	13.1	7.00e-07	0	33	0	1073741824	61	5799
2026-01-16 01:23:20.69	229.25	29.19	-48.2	-51.7	13.2	0.00e+00	0	33	0	1075838976	61	5752
2026-01-16 01:23:21.70	229.16	29.01	-48.1	-51.6	13.3	0.00e+00	0	33	0	1077936128	61	5666
2026-01-16 01:23:22.71	229.08	28.83	-48.1	-51.4	13.4	0.00e+00	0	33	0	1080033280	61	5586
2026-01-16 01:23:23.72	229.00	28.65	-47.8	-51.0	13.7	0.00e+00	0	33	0	1081081856	61	5306
2026-01-16 01:23:24.73	228.92	28.47	-47.7	-50.8	13.8	0.00e+00	0	33	0	1083179008	61	5190
2026-01-16 01:23:25.74	228.84	28.29	-47.5	-50.5	14.0	0.00e+00	0	33	0	1085276160	61	5028
2026-01-16 01:23:26.75	228.76	28.12	-47.5	-50.5	14.1	0.00e+00	0	33	0	1087373312	61	5011
2026-01-16 01:23:27.76	228.69	27.94	-47.6	-50.7	13.9	0.00e+00	0	33	0	1089470464	61	5121
2026-01-16 01:23:28.77	228.61	27.77	-47.4	-50.4	14.1	0.00e+00	0	33	0	1090519040	61	4935
2026-01-16 01:23:29.77	228.54	27.60	-47.5	-50.4	14.1	0.00e+00	0	33	0	1092616192	61	4972
2026-01-16 01:23:30.78	228.46	27.43	-47.5	-50.5	14.0	0.00e+00	0	33	0	1094713344	61	5005
2026-01-16 01:23:31.79	228.39	27.25	-47.5	-50.4	14.0	0.00e+00	0	33	0	1096810496	61	4980
2026-01-16 01:23:32.80	228.31	27.08	-47.5	-50.5	14.0	0.00e+00	0	33	0	1098907648	61	5026
2026-01-16 01:23:33.81	228.24	26.92	-47.5	-50.5	14.0	0.00e+00	0	33	0	1099956224	61	5026
2026-01-16 01:23:34.82	228.17	26.75	-47.4	-50.4	14.1	0.00e+00	0	33	0	1102053376	61	4928
2026-01-16 01:23:35.83	228.10	26.58	-47.4	-50.4	14.1	0.00e+00	0	33	0	1104150528	61	4931
2026-01-16 01:23:36.84	228.03	26.42	-47.3	-50.2	14.2	0.00e+00	0	33	0	1106247680	61	4831
2026-01-16 01:23:37.85	227.96	26.25	-47.1	-49.8	14.4	0.00e+00	0	33	0	1108344832	60	4894
2026-01-16 01:23:38.85	227.89	26.09	-47.1	-49.9	14.3	0.00e+00	0	33	0	1109393408	60	4971
2026-01-16 01:23:39.86	227.83	25.93	-47.0	-49.7	14.5	0.00e+00	0	33	0	1111490560	60	4823
2026-01-16 01:23:40.87	227.76	25.76	-47.0	-49.7	14.7	0.00e+00	0	33	0	1113587712	59	5106
2026-01-16 01:23:41.88	227.69	25.60	-47.0	-49.6	14.7	0.00e+00	0	33	0	1115684864	59	5099
2026-01-16 01:23:42.89	227.63	25.44	-46.9	-49.5	14.8	0.00e+00	0	33	0	1117782016	59	5019
2026-01-16 01:23:43.90	227.56	25.28	-47.0	-49.6	14.8	0.00e+00	0	33	0	1118830592	59	5079
2026-01-16 01:23:44.91	227.50	25.13	-46.9	-49.6	14.8	0.00e+00	0	33	0	1120927744	59	5047
2026-01-16 01:23:45.92	227.43	24.97	-47.0	-49.7	14.7	0.00e+00	0	33	0	1123024896	59	5127
2026-01-16 01:23:46.93	227.37	24.81	-47.0	-49.6	14.8	0.00e+00	0	33	0	1125122048	59	5081
2026-01-16 01:23:47.94	227.31	24.66	-47.0	-49.6	14.8	0.00e+00	0	33	0	1127219200	59	5090
2026-01-16 01:23:48.95	227.25	24.50	-47.0	-49.7	14.7	0.00e+00	0	33	0	1128267776	59	5129
2026-01-16 01:23:49.96	227.19	24.35	-47.0	-49.6	14.8	0.00e+00	0	33	0	1130364928	59	5068
2026-01-16 01:23:50.97	227.13	24.19	-46.8	-49.4	14.9	0.00e+00	0	33	0	1132462080	59	4974
2026-01-16 01:23:51.98	227.07	24.04	-46.8	-49.4	14.9	0.00e+00	0	33	0	1134559232	59	4956
2026-01-16 01:23:52.99	227.01	23.89	-46.8	-49.3	14.9	0.00e+00	0	33	0	1136656384	59	4922
2026-01-16 01:23:54.00	226.95	23.74	-46.6	-49.1	15.0	0.00e+00	0	33	0	1137704960	59	4802
2026-01-16 01:23:55.01	226.89	23.59	-46.4	-48.8	15.2	0.00e+00	0	33	0	1139802112	59	4641
2026-01-16 01:23:56.02	226.83	23.44	-46.2	-48.6	15.4	0.00e+00	0	33	0	1141899264	59	4500
2026-01-16 01:23:57.03	226.78	23.29	-46.1	-48.4	15.4	0.00e+00	0	33	0	1143996416	58	4666
2026-01-16 01:23:58.04	226.72	23.15	-46.0	-48.3	15.5	0.00e+00	0	33	0	1146093568	58	4602
2026-01-16 01:23:59.05	226.67	23.00	-46.0	-48.2	15.5	0.00e+00	0	33	0	1147142144	58	4554
2026-01-16 01:24:00.05	226.61	22.86	-46.0	-48.2	15.5	0.00e+00	0	33	0	1149239296	58	4580
2026-01-16 01:24:01.06	226.56	22.71	-45.9	-48.2	15.5	0.00e+00	0	33	0	1151336448	58	4546
2026-01-16 01:24:02.07	226.50	22.57	-46.0	-48.2	15.5	0.00e+00	0	33	0	1153433600	58	4574
2026-01-16 01:24:03.08	226.45	22.42	-45.9	-48.1	15.5	0.00e+00	0	33	0	1155530752	58	4544
2026-01-16 01:24:04.09	226.40	22.28	-45.8	-48.0	15.6	0.00e+00	0	33	0	1156579328	58	4444
2026-01-16 01:24:05.10	226.34	22.14	-45.8	-48.0	15.6	0.00e+00	0	33	0	1158676480	58	4450
2026-01-16 01:24:06.11	226.29	22.00	-45.9	-48.1	15.6	0.00e+00	0	33	0	1160773632	58	4496
2026-01-16 01:24:07.12	226.24	21.86	-45.8	-48.0	15.5	0.00e+00	0	33	0	1162870784	58	4488
2026-01-16 01:24:08.13	226.19	21.72	-46.0	-48.2	15.5	0.00e+00	0	33	0	1164967936	58	4593
2026-01-16 01:24:09.14	226.14	21.58	-46.0	-48.2	15.5	0.00e+00	0	33	0	1167065088	58	4562
2026-01-16 01:24:10.14	226.09	21.44	-46.0	-48.3	15.5	0.00e+00	0	33	0	1168113664	58	4602
2026-01-16 01:24:11.15	226.04	21.31	-46.0	-48.3	15.4	0.00e+00	0	33	0	1170210816	58	4600
2026-01-16 01:24:12.16	225.99	21.17	-46.0	-48.2	15.5	0.00e+00	0	33	0	1172307968	58	4570
2026-01-16 01:24:13.17	225.94	21.03	-46.0	-48.2	15.5	0.00e+00	0	33	0	1174405120	58	4576
2026-01-16 01:24:14.18	225.90	20.90	-45.9	-48.2	15.5	0.00e+00	0	33	0	1176502272	58	4546
2026-01-16 01:24:15.19	225.85	20.76	-45.9	-48.2	15.4	0.00e+00	0	33	0	1177550848	58	4560
2026-01-16 01:24:16.20	225.80	20.63	-45.8	-48.0	15.5	0.00e+00	0	33	0	1179648000	58	4473
2026-01-16 01:24:17.21	225.75	20.50	-45.8	-48.0	15.5	0.00e+00	0	33	0	1181745152	58	4488
2026-01-16 01:24:18.22	225.71	20.36	-45.9	-48.1	15.5	0.00e+00	0	33	0	1183842304	58	4516
2026-01-16 01:24:19.23	225.66	20.23	-45.8	-47.9	15.6	0.00e+00	0	33	0	1185939456	58	4439
2026-01-16 01:24:20.24	225.62	20.10	-45.8	-48.0	15.6	0.00e+00	0	33	0	1186988032	58	4452
2026-01-16 01:24:21.25	225.57	19.97	-45.8	-48.0	15.5	0.00e+00	0	33	0	1189085184	58	4476
2026-01-16 01:24:22.26	225.53	19.84	-45.9	-48.1	15.5	0.00e+00	0	33	0	1191182336	58	4541
2026-01-16 01:24:23.27	225.48	19.71	-46.0	-48.2	15.4	0.00e+00	0	33	0	1193279488	58	4576
2026-01-16 01:24:24.28	225.44	19.58	-46.1	-48.4	15.4	0.00e+00	0	33	0	1195376640	58	4655
2026-01-16 01:24:25.29	225.39	19.46	-46.1	-48.4	15.3	0.00e+00	0	33	0	1196425216	58	4687
2026-01-16 01:24:26.29	225.35	19.33	-46.2	-48.6	15.3	0.00e+00	0	33	0	1198522368	58	4767
2026-01-16 01:24:27.30	225.31	19.20	-46.0	-48.3	15.4	0.00e+00	0	33	0	1200619520	58	4622
2026-01-16 01:24:28.31	225.27	19.08	-46.0	-48.3	15.4	0.00e+00	0	33	0	1202716672	58	4617
2026-01-16 01:24:29.29	225.23	18.96	-46.0	-48.2	15.4	0.00e+00	0	33	0	1204813824	58	4581
2026-01-16 01:24:30.30	225.18	18.83	-46.0	-48.3	15.4	0.00e+00	0	33	0	1205862400	58	4645
2026-01-16 01:24:31.31	225.14	18.71	-46.0	-48.3	15.4	0.00e+00	0	33	0	1207959552	58	4645
2026-01-16 01:24:32.32	225.10	18.58	-46.1	-48.4	15.4	0.00e+00	0	33	0	1210056704	58	4662
2026-01-16 01:24:33.33	225.06	18.46	-46.0	-48.3	15.4	0.00e+00	0	33	0	1212153856	58	4599
2026-01-16 01:24:34.34	225.02	18.34	-46.0	-48.3	15.4	0.00e+00	0	33	0	1214251008	58	4622
2026-01-16 01:24:35.35	224.98	18.22	-45.9	-48.2	15.5	0.00e+00	0	33	0	1215299584	58	4558
2026-01-16 01:24:36.36	224.94	18.10	-46.0	-48.3	15.3	0.00e+00	0	33	0	1217396736	58	4631
2026-01-16 01:24:37.37	224.90	17.98	-45.9	-48.2	15.4	0.00e+00	0	33	0	1219493888	58	4558
2026-01-16 01:24:38.37	224.86	17.86	-46.0	-48.3	15.4	0.00e+00	0	33	0	1221591040	58	4599
2026-01-16 01:24:39.38	224.83	17.74	-46.1	-48.4	15.3	0.00e+00	0	33	0	1223688192	58	4695
2026-01-16 01:24:40.39	224.79	17.62	-46.0	-48.2	15.4	0.00e+00	0	33	0	1224736768	58	4580
2026-01-16 01:24:41.40	224.75	17.50	-46.0	-48.2	15.4	0.00e+00	0	33	0	1226833920	58	4583
2026-01-16 01:24:42.41	224.71	17.38	-45.9	-48.2	15.4	0.00e+00	0	33	0	1228931072	58	4555
2026-01-16 01:24:43.42	224.68	17.27	-45.8	-48.0	15.5	0.00e+00	0	33	0	1231028224	58	4480
2026-01-16 01:24:44.43	224.64	17.15	-45.9	-48.1	15.5	0.00e+00	0	33	0	1233125376	58	4518
2026-01-16 01:24:45.44	224.60	17.03	-45.8	-48.1	15.4	0.00e+00	0	33	0	1235222528	58	4507
2026-01-16 01:24:46.45	224.57	16.92	-45.9	-48.2	15.4	0.00e+00	0	33	0	1236271104	58	4560
2026-01-16 01:24:47.46	224.53	16.80	-46.0	-48.2	15.4	0.00e+00	0	33	0	1238368256	58	4595
2026-01-16 01:24:48.47	224.49	16.69	-46.0	-48.3	15.3	0.00e+00	0	33	0	1240465408	58	4613
2026-01-16 01:24:49.48	224.46	16.57	-46.0	-48.2	15.4	0.00e+00	0	33	0	1242562560	58	4586
2026-01-16 01:24:50.49	224.42	16.46	-45.9	-48.2	15.4	0.00e+00	0	33	0	1244659712	58	4567
2026-01-16 01:24:51.50	224.39	16.35	-46.0	-48.3	15.3	0.00e+00	0	33	0	1245708288	58	4614
2026-01-16 01:24:52.51	224.35	16.23	-46.1	-48.5	15.2	0.00e+00	0	33	0	1247805440	58	4709
2026-01-16 01:24:53.52	224.32	16.12	-46.1	-48.5	15.3	0.00e+00	0	33	0	1249902592	58	4723
2026-01-16 01:24:54.53	224.29	16.01	-46.1	-48.5	15.2	0.00e+00	0	33	0	1251999744	58	4725
2026-01-16 01:24:55.54	224.25	15.90	-46.1	-48.4	15.2	0.00e+00	0	33	0	1254096896	58	4702
2026-01-16 01:24:56.55	224.22	15.79	-46.2	-48.6	15.2	0.00e+00	0	33	0	1255145472	58	4790
2026-01-16 01:24:57.55	224.19	15.68	-46.3	-48.7	15.1	0.00e+00	0	33	0	1257242624	58	4846
2026-01-16 01:24:58.56	224.15	15.57	-46.2	-48.7	15.1	0.00e+00	0	33	0	1259339776	58	4823
2026-01-16 01:24:59.57	224.12	15.46	-46.3	-48.8	15.1	0.00e+00	0	33	0	1261436928	58	4910
