passes_logs/2026/01/16/R3.2S_Murmansk_2ch/R3.2S_Murmansk_2ch__20260116_051156_FENGYUN_3D_rec.log

#Pass ID: 20260116_051156_FENGYUN 3D
#Satellite: FENGYUN 3D
#Configuration: FENGYUN 3D
#almurnet v.1.7.20251203
#Start time: 2026-01-16 05:11:56

#Version: 2.2.20231116
#Station: R3.2S_Murmansk_2ch
#Location: 33.079688 lon 68.888172 lat
#TLE: 1 43010U 17072A   26015.63785617 -.00000279  00000+0 -10998-3 0  9991
#TLE: 2 43010  98.9933 347.4636 0002368 106.7198 253.4237 14.19694313423348

#Time	Az	El	Level	Level2	SNR	BER	BlckErr	Temp	State	Recorded	gain1	gain2
2026-01-16 05:11:56.28	39.34	1.96	-49.6	-62.7	3.8	8.45e-01	0	31	0	0	65	16302
2026-01-16 05:11:57.29	39.30	2.02	-49.6	-62.8	3.8	8.46e-01	0	31	104	0	64	17355
2026-01-16 05:11:58.30	39.25	2.08	-49.6	-62.8	3.8	8.45e-01	0	31	104	0	64	17351
2026-01-16 05:11:59.31	39.20	2.14	-49.6	-62.8	3.8	8.46e-01	0	31	104	0	64	17395
2026-01-16 05:12:00.32	39.15	2.21	-49.6	-62.8	3.8	8.45e-01	0	31	104	0	64	17291
2026-01-16 05:12:01.33	39.10	2.27	-49.6	-62.8	3.8	8.45e-01	0	31	104	0	64	17332
2026-01-16 05:12:02.34	39.05	2.33	-49.6	-62.8	3.8	8.46e-01	0	31	104	0	64	17298
2026-01-16 05:12:03.35	39.00	2.39	-49.6	-62.8	3.8	8.46e-01	0	31	104	0	64	17320
2026-01-16 05:12:04.36	38.95	2.45	-49.6	-62.7	3.8	8.46e-01	0	32	104	0	64	17200
2026-01-16 05:12:05.37	38.90	2.51	-49.6	-62.7	3.8	8.45e-01	0	32	104	0	64	17281
2026-01-16 05:12:06.37	38.86	2.57	-49.6	-62.7	3.8	8.45e-01	0	32	104	0	64	17182
2026-01-16 05:12:07.39	38.80	2.63	-49.6	-62.7	3.8	8.45e-01	0	32	104	0	64	17217
2026-01-16 05:12:08.39	38.75	2.70	-49.6	-62.7	3.8	8.46e-01	0	31	104	0	64	17155
2026-01-16 05:12:09.40	38.70	2.76	-49.6	-62.7	3.9	8.46e-01	0	31	104	0	64	17113
2026-01-16 05:12:10.41	38.65	2.82	-49.6	-62.7	3.8	8.46e-01	0	32	104	0	64	17256
2026-01-16 05:12:11.42	38.60	2.88	-49.6	-62.8	3.8	8.46e-01	0	32	104	0	64	17295
2026-01-16 05:12:12.43	38.55	2.94	-49.6	-62.8	3.8	8.46e-01	0	32	104	0	64	17322
2026-01-16 05:12:13.44	38.50	3.01	-49.6	-62.8	3.8	8.46e-01	0	32	104	0	64	17337
2026-01-16 05:12:14.45	38.45	3.07	-49.6	-62.8	3.8	8.44e-01	0	32	104	0	64	17325
2026-01-16 05:12:15.46	38.40	3.13	-49.6	-62.7	3.8	8.46e-01	0	32	104	0	64	17153
2026-01-16 05:12:16.47	38.34	3.19	-49.6	-62.7	3.8	8.45e-01	0	32	104	0	64	17120
2026-01-16 05:12:17.48	38.29	3.26	-49.6	-62.7	3.8	8.46e-01	0	32	104	0	64	17106
2026-01-16 05:12:18.48	38.24	3.32	-49.6	-62.7	3.8	8.46e-01	0	32	104	0	64	17100
2026-01-16 05:12:19.49	38.19	3.38	-49.6	-62.7	3.8	8.47e-01	0	32	104	0	64	17158
2026-01-16 05:12:20.50	38.13	3.44	-49.6	-62.7	3.8	8.46e-01	0	32	104	0	64	17183
2026-01-16 05:12:21.51	38.08	3.51	-49.6	-62.6	3.8	8.46e-01	0	32	104	0	64	17079
2026-01-16 05:12:22.52	38.03	3.57	-49.6	-62.7	3.8	8.46e-01	0	32	104	0	64	17112
2026-01-16 05:12:23.53	37.97	3.63	-49.6	-62.5	3.8	8.45e-01	0	32	104	0	64	16750
2026-01-16 05:12:24.54	37.92	3.70	-49.6	-62.1	3.8	8.45e-01	0	32	104	0	64	16112
2026-01-16 05:12:25.55	37.86	3.76	-49.6	-62.0	3.8	8.45e-01	0	32	104	0	64	15854
2026-01-16 05:12:26.56	37.81	3.83	-49.5	-61.5	3.8	8.46e-01	0	32	104	0	64	15026
2026-01-16 05:12:27.57	37.75	3.89	-49.5	-61.4	3.8	8.45e-01	0	32	104	0	64	14724
2026-01-16 05:12:28.58	37.70	3.95	-49.5	-60.8	3.9	8.45e-01	0	32	104	0	64	13821
2026-01-16 05:12:29.58	37.64	4.02	-49.4	-60.1	4.0	8.44e-01	0	32	104	0	64	12756
2026-01-16 05:12:30.59	37.59	4.08	-49.3	-59.3	4.2	8.40e-01	0	32	0	0	64	11678
2026-01-16 05:12:31.60	37.53	4.15	-49.1	-57.7	4.7	8.05e-01	0	32	0	0	64	9685
2026-01-16 05:12:32.61	37.47	4.21	-49.0	-57.2	5.0	7.98e-01	0	32	0	0	64	9160
2026-01-16 05:12:33.62	37.42	4.27	-48.7	-55.6	6.0	3.87e-01	0	32	0	3145728	64	7550
2026-01-16 05:12:34.63	37.36	4.34	-48.6	-55.1	6.3	2.23e-01	0	32	0	8388608	63	7570
2026-01-16 05:12:35.64	37.30	4.40	-48.3	-54.2	7.0	2.09e-01	0	32	0	14680064	63	6840
2026-01-16 05:12:36.65	37.25	4.47	-48.2	-53.7	7.5	1.04e-01	0	32	0	19922944	63	6470
2026-01-16 05:12:37.66	37.19	4.53	-47.6	-52.2	8.8	3.80e-02	0	32	0	26214400	61	6106
2026-01-16 05:12:38.67	37.13	4.60	-47.5	-52.0	9.0	1.64e-02	0	32	0	31457280	61	5981
2026-01-16 05:12:39.68	37.07	4.67	-47.6	-52.3	8.8	1.78e-02	0	32	0	37748736	61	6135
2026-01-16 05:12:40.69	37.01	4.73	-47.4	-51.8	9.2	1.66e-02	0	32	0	42991616	61	5811
2026-01-16 05:12:41.70	36.96	4.80	-47.7	-52.3	8.7	1.93e-02	0	32	0	48234496	61	6176
2026-01-16 05:12:42.71	36.90	4.86	-47.6	-52.1	8.9	1.66e-02	0	32	0	54525952	61	6043
2026-01-16 05:12:43.72	36.84	4.93	-47.6	-52.3	8.8	1.63e-02	0	32	0	59768832	61	6133
2026-01-16 05:12:44.73	36.78	4.99	-47.9	-52.9	8.2	3.76e-02	0	32	0	66060288	61	6619
2026-01-16 05:12:45.74	36.72	5.06	-47.5	-51.6	9.5	1.83e-02	0	32	0	71303168	61	5702
2026-01-16 05:12:46.75	36.66	5.13	-47.5	-51.8	9.3	1.53e-02	0	32	0	76546048	61	5824
2026-01-16 05:12:47.75	36.60	5.19	-48.9	-56.4	5.5	9.94e-02	0	32	0	82837504	62	9385
2026-01-16 05:12:48.77	36.54	5.26	-44.8	-46.9	13.7	6.93e-02	0	32	0	85983232	56	4426
2026-01-16 05:12:49.77	36.48	5.33	-49.1	-57.0	5.2	6.71e-02	0	33	0	92274688	63	9416
2026-01-16 05:12:50.78	36.41	5.39	-45.9	-48.6	12.5	3.59e-02	0	33	0	96468992	58	4767
2026-01-16 05:12:51.79	36.35	5.46	-45.2	-47.6	13.3	0.00e+00	0	32	0	101711872	57	4513
2026-01-16 05:12:52.80	36.29	5.53	-46.0	-48.7	12.4	2.20e-06	0	32	0	106954752	57	5122
2026-01-16 05:12:53.81	36.23	5.60	-45.3	-47.7	13.2	0.00e+00	0	33	0	113246208	57	4564
2026-01-16 05:12:54.82	36.17	5.66	-45.4	-47.8	13.1	0.00e+00	0	32	0	118489088	56	4902
2026-01-16 05:12:55.83	36.10	5.73	-44.8	-47.0	13.7	0.00e+00	0	32	0	124780544	56	4464
2026-01-16 05:12:56.84	36.04	5.80	-43.5	-45.3	14.6	0.00e+00	0	32	0	130023424	53	4352
2026-01-16 05:12:57.85	35.98	5.87	-44.3	-46.3	14.0	0.00e+00	0	33	0	135266304	53	4884
2026-01-16 05:12:58.86	35.91	5.93	-43.9	-45.8	14.3	0.00e+00	0	33	0	141557760	53	4647
2026-01-16 05:12:59.86	35.85	6.00	-43.8	-45.7	14.4	0.00e+00	0	33	0	146800640	53	4594
2026-01-16 05:13:00.87	35.79	6.07	-43.8	-45.7	14.4	0.00e+00	0	33	0	153092096	53	4567
2026-01-16 05:13:01.88	35.72	6.14	-43.3	-45.0	14.8	0.00e+00	0	33	0	158334976	53	4242
2026-01-16 05:13:02.90	35.65	6.21	-43.7	-45.6	14.5	0.00e+00	0	33	0	163577856	53	4512
2026-01-16 05:13:03.90	35.59	6.28	-44.0	-45.9	14.4	0.00e+00	0	33	0	169869312	53	4673
2026-01-16 05:13:04.91	35.52	6.34	-43.7	-45.5	14.6	0.00e+00	0	33	0	175112192	53	4488
2026-01-16 05:13:05.93	35.46	6.41	-43.7	-45.5	14.5	0.00e+00	0	33	0	181403648	53	4492
2026-01-16 05:13:06.93	35.39	6.48	-43.8	-45.6	14.5	0.00e+00	0	33	0	186646528	53	4527
2026-01-16 05:13:07.94	35.32	6.55	-43.1	-44.8	15.0	0.00e+00	0	32	0	192937984	52	4359
2026-01-16 05:13:08.95	35.26	6.62	-43.0	-44.6	15.1	0.00e+00	0	33	0	198180864	52	4284
2026-01-16 05:13:09.96	35.19	6.69	-43.1	-44.8	15.1	0.00e+00	0	33	0	203423744	52	4341
2026-01-16 05:13:10.97	35.12	6.76	-43.0	-44.6	15.1	0.00e+00	0	33	0	209715200	52	4276
2026-01-16 05:13:11.98	35.05	6.83	-42.6	-44.2	15.4	0.00e+00	0	33	0	214958080	51	4326
2026-01-16 05:13:12.99	34.99	6.90	-42.8	-44.4	15.2	0.00e+00	0	33	0	221249536	51	4411
2026-01-16 05:13:14.00	34.92	6.97	-42.3	-43.8	15.6	0.00e+00	0	33	0	226492416	51	4112
2026-01-16 05:13:15.01	34.85	7.04	-42.7	-44.3	15.3	0.00e+00	0	33	0	231735296	51	4343
2026-01-16 05:13:16.02	34.78	7.11	-42.4	-43.9	15.6	0.00e+00	0	33	0	238026752	51	4170
2026-01-16 05:13:17.03	34.71	7.18	-42.7	-44.3	15.3	0.00e+00	0	33	0	243269632	51	4366
2026-01-16 05:13:18.04	34.64	7.25	-42.4	-44.0	15.5	0.00e+00	0	33	0	249561088	51	4196
2026-01-16 05:13:19.05	34.57	7.33	-42.6	-44.2	15.4	0.00e+00	0	33	0	254803968	51	4293
2026-01-16 05:13:20.06	34.50	7.40	-42.7	-44.3	15.4	0.00e+00	0	33	0	260046848	51	4352
2026-01-16 05:13:21.07	34.43	7.47	-42.5	-44.1	15.5	0.00e+00	0	33	0	266338304	51	4259
2026-01-16 05:13:22.08	34.35	7.54	-42.5	-44.0	15.5	0.00e+00	0	33	0	271581184	51	4211
2026-01-16 05:13:23.09	34.28	7.61	-42.4	-44.0	15.5	0.00e+00	0	33	0	277872640	51	4201
2026-01-16 05:13:24.10	34.21	7.68	-42.5	-44.0	15.5	0.00e+00	0	33	0	283115520	51	4232
2026-01-16 05:13:25.11	34.14	7.75	-42.3	-43.8	15.6	0.00e+00	0	33	0	289406976	51	4109
2026-01-16 05:13:26.12	34.06	7.83	-42.4	-43.9	15.6	0.00e+00	0	33	0	294649856	51	4169
2026-01-16 05:13:27.13	33.99	7.90	-42.6	-44.1	15.5	0.00e+00	0	33	0	300941312	51	4268
2026-01-16 05:13:28.14	33.92	7.97	-42.6	-44.2	15.4	0.00e+00	0	33	0	306184192	51	4311
2026-01-16 05:13:29.15	33.84	8.04	-42.4	-43.9	15.6	0.00e+00	0	33	0	311427072	51	4186
2026-01-16 05:13:30.16	33.77	8.12	-42.5	-44.1	15.5	0.00e+00	0	33	0	317718528	51	4246
2026-01-16 05:13:31.17	33.69	8.19	-42.2	-43.7	15.7	0.00e+00	0	33	0	322961408	51	4060
2026-01-16 05:13:32.18	33.62	8.26	-42.1	-43.6	15.7	0.00e+00	0	33	0	329252864	50	4278
2026-01-16 05:13:33.19	33.54	8.34	-42.2	-43.7	15.7	0.00e+00	0	33	0	334495744	50	4306
2026-01-16 05:13:34.20	33.46	8.41	-42.1	-43.6	15.7	0.00e+00	0	33	0	339738624	50	4261
2026-01-16 05:13:35.21	33.39	8.48	-42.1	-43.6	15.7	0.00e+00	0	33	0	346030080	50	4270
2026-01-16 05:13:36.21	33.31	8.56	-42.0	-43.5	15.8	0.00e+00	0	33	0	351272960	50	4203
2026-01-16 05:13:37.23	33.23	8.63	-42.1	-43.6	15.7	0.00e+00	0	33	0	357564416	50	4248
2026-01-16 05:13:38.23	33.16	8.70	-42.1	-43.5	15.7	0.00e+00	0	33	0	362807296	50	4238
2026-01-16 05:13:39.24	33.08	8.78	-42.2	-43.7	15.7	0.00e+00	0	33	0	368050176	50	4321
2026-01-16 05:13:40.25	33.00	8.85	-42.2	-43.6	15.8	0.00e+00	0	33	0	374341632	50	4278
2026-01-16 05:13:41.26	32.92	8.93	-42.0	-43.5	15.8	0.00e+00	0	33	0	379584512	50	4203
2026-01-16 05:13:42.27	32.84	9.00	-41.8	-43.2	15.9	0.00e+00	0	33	0	385875968	50	4077
2026-01-16 05:13:43.28	32.76	9.08	-41.7	-43.1	15.9	0.00e+00	0	33	0	391118848	49	4286
2026-01-16 05:13:44.29	32.68	9.15	-41.6	-43.0	16.0	0.00e+00	0	33	0	397410304	49	4218
2026-01-16 05:13:45.30	32.60	9.23	-41.7	-43.1	16.0	0.00e+00	0	33	0	402653184	49	4285
2026-01-16 05:13:46.31	32.52	9.30	-41.7	-43.1	16.0	0.00e+00	0	33	0	407896064	49	4251
2026-01-16 05:13:47.32	32.43	9.38	-41.7	-43.1	15.9	0.00e+00	0	33	0	414187520	49	4272
2026-01-16 05:13:48.33	32.35	9.45	-41.7	-43.1	15.9	0.00e+00	0	33	0	419430400	49	4285
2026-01-16 05:13:49.34	32.27	9.53	-41.9	-43.3	15.8	0.00e+00	0	33	0	425721856	49	4384
2026-01-16 05:13:50.35	32.19	9.61	-41.7	-43.1	16.0	0.00e+00	0	33	0	430964736	49	4253
2026-01-16 05:13:51.36	32.10	9.68	-41.6	-43.0	16.0	0.00e+00	0	33	0	436207616	49	4216
2026-01-16 05:13:52.37	32.02	9.76	-41.8	-43.2	15.9	0.00e+00	0	33	0	442499072	49	4321
2026-01-16 05:13:53.38	31.93	9.83	-41.7	-43.1	16.0	0.00e+00	0	33	0	447741952	49	4264
2026-01-16 05:13:54.39	31.85	9.91	-41.6	-43.0	16.1	0.00e+00	0	33	0	454033408	49	4197
2026-01-16 05:13:55.40	31.76	9.99	-41.5	-42.8	16.1	0.00e+00	0	33	0	459276288	49	4144
2026-01-16 05:13:56.41	31.68	10.07	-41.7	-43.1	16.0	0.00e+00	0	33	0	464519168	49	4253
2026-01-16 05:13:57.42	31.59	10.14	-41.7	-43.1	16.0	0.00e+00	0	33	0	470810624	49	4276
2026-01-16 05:13:58.43	31.50	10.22	-41.7	-43.1	16.0	0.00e+00	0	33	0	476053504	49	4243
2026-01-16 05:13:59.44	31.42	10.30	-41.8	-43.2	16.0	0.00e+00	0	33	0	482344960	49	4299
2026-01-16 05:14:00.45	31.33	10.38	-41.5	-42.8	16.1	0.00e+00	0	33	0	487587840	49	4140
2026-01-16 05:14:01.46	31.24	10.45	-41.5	-42.8	16.1	0.00e+00	0	33	0	493879296	49	4140
2026-01-16 05:14:02.46	31.15	10.53	-41.5	-42.9	16.1	0.00e+00	0	33	0	499122176	49	4153
2026-01-16 05:14:03.47	31.06	10.61	-41.4	-42.8	16.1	0.00e+00	0	33	0	505413632	49	4116
2026-01-16 05:14:04.48	30.97	10.69	-41.3	-42.6	16.2	0.00e+00	0	33	0	510656512	49	4050
2026-01-16 05:14:05.49	30.88	10.77	-41.2	-42.6	16.2	0.00e+00	0	33	0	515899392	49	4012
2026-01-16 05:14:06.50	30.79	10.85	-41.4	-42.7	16.2	0.00e+00	0	33	0	522190848	49	4093
2026-01-16 05:14:07.51	30.70	10.92	-41.2	-42.6	16.2	0.00e+00	0	33	0	527433728	49	4012
2026-01-16 05:14:08.52	30.61	11.00	-41.4	-42.7	16.1	0.00e+00	0	33	0	532676608	49	4078
2026-01-16 05:14:09.53	30.52	11.08	-41.4	-42.7	16.2	0.00e+00	0	33	0	538968064	49	4086
2026-01-16 05:14:10.54	30.42	11.16	-41.3	-42.7	16.2	0.00e+00	0	33	0	544210944	49	4072
2026-01-16 05:14:11.55	30.33	11.24	-41.4	-42.7	16.2	0.00e+00	0	33	0	550502400	49	4098
2026-01-16 05:14:12.56	30.24	11.32	-41.3	-42.7	16.2	0.00e+00	0	33	0	555745280	49	4071
2026-01-16 05:14:13.57	30.14	11.40	-41.5	-42.9	16.1	0.00e+00	0	33	0	560988160	49	4148
2026-01-16 05:14:14.58	30.05	11.48	-41.5	-42.8	16.2	0.00e+00	0	33	0	567279616	49	4132
2026-01-16 05:14:15.59	29.95	11.56	-41.4	-42.7	16.2	0.00e+00	0	33	0	572522496	49	4090
2026-01-16 05:14:16.59	29.86	11.64	-41.5	-42.9	16.2	0.00e+00	0	33	0	578813952	49	4158
2026-01-16 05:14:17.60	29.76	11.73	-41.5	-42.8	16.2	0.00e+00	0	33	0	584056832	49	4137
2026-01-16 05:14:18.62	29.66	11.81	-41.7	-43.1	16.0	0.00e+00	0	33	0	590348288	49	4257
2026-01-16 05:14:19.63	29.56	11.89	-41.5	-42.9	16.2	0.00e+00	0	33	0	595591168	49	4149
2026-01-16 05:14:20.63	29.47	11.97	-41.5	-42.8	16.2	0.00e+00	0	33	0	601882624	49	4135
2026-01-16 05:14:21.64	29.37	12.05	-41.4	-42.7	16.2	0.00e+00	0	33	0	607125504	49	4082
2026-01-16 05:14:22.65	29.27	12.13	-41.1	-42.5	16.3	0.00e+00	0	33	0	612368384	48	4194
2026-01-16 05:14:23.66	29.17	12.21	-41.3	-42.6	16.3	0.00e+00	0	33	0	618659840	48	4270
2026-01-16 05:14:24.67	29.07	12.30	-41.2	-42.5	16.3	0.00e+00	0	33	0	623902720	48	4228
2026-01-16 05:14:25.68	28.97	12.38	-41.2	-42.5	16.3	0.00e+00	0	33	0	630194176	48	4226
2026-01-16 05:14:26.69	28.86	12.46	-41.1	-42.4	16.3	0.00e+00	0	33	0	635437056	48	4168
2026-01-16 05:14:27.70	28.76	12.54	-41.1	-42.4	16.3	0.00e+00	0	33	0	640679936	48	4163
2026-01-16 05:14:28.71	28.66	12.63	-41.2	-42.5	16.3	0.00e+00	0	33	0	646971392	48	4231
2026-01-16 05:14:29.72	28.55	12.71	-41.2	-42.6	16.3	0.00e+00	0	33	0	652214272	48	4244
2026-01-16 05:14:30.73	28.45	12.79	-41.1	-42.4	16.4	0.00e+00	0	33	0	658505728	48	4163
2026-01-16 05:14:31.74	28.35	12.88	-41.1	-42.4	16.3	0.00e+00	0	33	0	663748608	48	4188
2026-01-16 05:14:32.75	28.24	12.96	-41.2	-42.5	16.3	0.00e+00	0	33	0	668991488	48	4235
2026-01-16 05:14:33.76	28.13	13.05	-41.0	-42.3	16.4	0.00e+00	0	33	0	675282944	48	4111
2026-01-16 05:14:34.77	28.03	13.13	-40.9	-42.2	16.4	0.00e+00	0	33	0	680525824	48	4096
2026-01-16 05:14:35.78	27.92	13.21	-40.9	-42.2	16.4	0.00e+00	0	33	0	686817280	48	4098
2026-01-16 05:14:36.79	27.81	13.30	-40.8	-42.1	16.4	0.00e+00	0	33	0	692060160	48	4045
2026-01-16 05:14:37.80	27.70	13.38	-40.8	-42.0	16.5	0.00e+00	0	33	0	698351616	48	3995
2026-01-16 05:14:38.81	27.59	13.47	-40.8	-42.1	16.5	0.00e+00	0	33	0	703594496	48	4026
2026-01-16 05:14:39.81	27.49	13.55	-40.8	-42.1	16.5	0.00e+00	0	33	0	708837376	48	4015
2026-01-16 05:14:40.82	27.38	13.64	-40.4	-41.7	16.5	0.00e+00	0	33	0	715128832	47	4057
2026-01-16 05:14:41.83	27.26	13.72	-40.5	-41.8	16.5	0.00e+00	0	33	0	720371712	47	4109
2026-01-16 05:14:42.84	27.15	13.81	-40.5	-41.8	16.5	0.00e+00	0	33	0	726663168	47	4114
2026-01-16 05:14:43.85	27.04	13.89	-40.5	-41.8	16.5	0.00e+00	0	33	0	731906048	47	4131
2026-01-16 05:14:44.86	26.93	13.98	-40.5	-41.7	16.5	0.00e+00	0	33	0	737148928	47	4090
2026-01-16 05:14:45.87	26.81	14.07	-40.5	-41.8	16.5	0.00e+00	0	33	0	743440384	47	4135
2026-01-16 05:14:46.88	26.70	14.15	-40.4	-41.7	16.5	0.00e+00	0	33	0	748683264	47	4085
2026-01-16 05:14:47.89	26.58	14.24	-40.5	-41.8	16.5	0.00e+00	0	33	0	754974720	47	4119
2026-01-16 05:14:48.90	26.47	14.33	-40.4	-41.6	16.5	0.00e+00	0	33	0	760217600	47	4051
2026-01-16 05:14:49.91	26.35	14.41	-40.3	-41.6	16.6	0.00e+00	0	33	0	765460480	47	4010
2026-01-16 05:14:50.92	26.23	14.50	-40.4	-41.7	16.5	0.00e+00	0	33	0	771751936	47	4056
2026-01-16 05:14:51.93	26.11	14.59	-40.4	-41.7	16.5	0.00e+00	0	33	0	776994816	47	4062
2026-01-16 05:14:52.94	26.00	14.67	-40.6	-41.9	16.4	0.00e+00	0	33	0	783286272	47	4164
2026-01-16 05:14:53.95	25.88	14.76	-40.7	-42.0	16.4	0.00e+00	0	33	0	788529152	47	4226
2026-01-16 05:14:54.96	25.76	14.85	-40.5	-41.8	16.5	0.00e+00	0	33	0	794820608	47	4139
2026-01-16 05:14:55.97	25.63	14.94	-40.4	-41.7	16.5	0.00e+00	0	33	0	800063488	47	4089
2026-01-16 05:14:56.98	25.51	15.03	-40.5	-41.8	16.5	0.00e+00	0	33	0	806354944	47	4126
2026-01-16 05:14:57.99	25.39	15.11	-40.3	-41.6	16.6	0.00e+00	0	33	0	811597824	47	4016
2026-01-16 05:14:58.99	25.27	15.20	-40.2	-41.5	16.6	0.00e+00	0	33	0	816840704	47	3974
2026-01-16 05:15:00.00	25.14	15.29	-40.0	-41.3	16.6	0.00e+00	0	33	0	823132160	46	4104
2026-01-16 05:15:01.01	25.02	15.38	-40.1	-41.3	16.7	0.00e+00	0	33	0	828375040	46	4123
2026-01-16 05:15:02.02	24.89	15.47	-40.0	-41.3	16.7	0.00e+00	0	33	0	834666496	46	4108
2026-01-16 05:15:03.03	24.77	15.56	-40.0	-41.3	16.7	0.00e+00	0	33	0	839909376	46	4117
2026-01-16 05:15:04.04	24.64	15.65	-40.1	-41.3	16.6	0.00e+00	0	33	0	845152256	46	4125
2026-01-16 05:15:05.05	24.51	15.74	-40.1	-41.4	16.6	0.00e+00	0	33	0	851443712	46	4160
2026-01-16 05:15:06.06	24.38	15.83	-40.1	-41.4	16.6	0.00e+00	0	33	0	856686592	46	4154
2026-01-16 05:15:07.07	24.26	15.92	-40.1	-41.3	16.6	0.00e+00	0	33	0	861929472	46	4141
2026-01-16 05:15:08.08	24.13	16.01	-39.9	-41.1	16.7	0.00e+00	0	33	0	868220928	46	4040
2026-01-16 05:15:09.09	23.99	16.10	-39.9	-41.2	16.7	0.00e+00	0	33	0	873463808	46	4066
2026-01-16 05:15:10.10	23.86	16.19	-40.0	-41.2	16.7	0.00e+00	0	33	0	879755264	46	4088
2026-01-16 05:15:11.11	23.73	16.28	-39.9	-41.2	16.7	0.00e+00	0	33	0	884998144	46	4061
2026-01-16 05:15:12.12	23.60	16.37	-39.9	-41.1	16.7	0.00e+00	0	33	0	891289600	46	4033
2026-01-16 05:15:13.12	23.46	16.46	-39.7	-40.9	16.8	0.00e+00	0	33	0	896532480	46	3937
2026-01-16 05:15:14.14	23.33	16.55	-39.6	-40.8	16.8	0.00e+00	0	33	0	902823936	45	4118
2026-01-16 05:15:15.14	23.19	16.64	-39.5	-40.8	16.8	0.00e+00	0	33	0	908066816	45	4099
2026-01-16 05:15:16.15	23.06	16.74	-39.5	-40.7	16.8	0.00e+00	0	33	0	913309696	45	4091
2026-01-16 05:15:17.16	22.92	16.83	-39.5	-40.7	16.8	0.00e+00	0	33	0	919601152	45	4061
2026-01-16 05:15:18.17	22.78	16.92	-39.6	-40.8	16.8	0.00e+00	0	33	0	924844032	45	4118
2026-01-16 05:15:19.18	22.64	17.01	-39.6	-40.8	16.8	0.00e+00	0	33	0	931135488	45	4122
2026-01-16 05:15:20.19	22.50	17.11	-39.7	-40.9	16.7	0.00e+00	0	33	0	936378368	45	4176
2026-01-16 05:15:21.20	22.36	17.20	-39.7	-41.0	16.7	0.00e+00	0	33	0	941621248	45	4205
2026-01-16 05:15:22.21	22.22	17.29	-39.8	-41.1	16.7	0.00e+00	0	33	0	947912704	45	4247
2026-01-16 05:15:23.22	22.07	17.38	-39.8	-41.0	16.7	0.00e+00	0	33	0	953155584	45	4234
2026-01-16 05:15:24.23	21.93	17.48	-39.7	-40.9	16.7	0.00e+00	0	33	0	959447040	45	4152
2026-01-16 05:15:25.24	21.78	17.57	-39.6	-40.8	16.8	0.00e+00	0	33	0	964689920	45	4125
2026-01-16 05:15:26.25	21.64	17.66	-39.5	-40.7	16.8	0.00e+00	0	33	0	969932800	45	4056
2026-01-16 05:15:27.26	21.49	17.76	-39.6	-40.8	16.8	0.00e+00	0	33	0	976224256	45	4099
2026-01-16 05:15:28.27	21.34	17.85	-39.3	-40.5	16.9	0.00e+00	0	33	0	981467136	45	3986
2026-01-16 05:15:29.28	21.20	17.94	-39.3	-40.5	16.9	0.00e+00	0	33	0	987758592	45	3974
2026-01-16 05:15:30.29	21.05	18.04	-39.3	-40.5	16.9	0.00e+00	0	33	0	993001472	45	3989
2026-01-16 05:15:31.30	20.90	18.13	-39.2	-40.4	17.0	0.00e+00	0	33	0	999292928	45	3924
2026-01-16 05:15:32.31	20.74	18.23	-39.3	-40.4	16.9	0.00e+00	0	33	0	1004535808	44	4184
2026-01-16 05:15:33.32	20.59	18.32	-39.2	-40.4	16.9	0.00e+00	0	33	0	1009778688	44	4152
2026-01-16 05:15:34.32	20.44	18.41	-39.2	-40.4	16.9	0.00e+00	0	33	0	1016070144	44	4162
2026-01-16 05:15:35.33	20.29	18.51	-39.2	-40.4	16.9	0.00e+00	0	33	0	1021313024	44	4166
2026-01-16 05:15:36.34	20.13	18.60	-39.2	-40.3	16.9	0.00e+00	0	33	0	1027604480	44	4144
2026-01-16 05:15:37.35	19.97	18.70	-39.2	-40.4	16.9	0.00e+00	0	33	0	1032847360	44	4168
2026-01-16 05:15:38.36	19.82	18.79	-39.3	-40.4	16.9	0.00e+00	0	33	0	1038090240	44	4188
2026-01-16 05:15:39.37	19.66	18.89	-39.3	-40.5	16.8	0.00e+00	0	33	0	1044381696	44	4216
2026-01-16 05:15:40.38	19.50	18.99	-39.5	-40.7	16.8	0.00e+00	0	33	0	1049624576	44	4297
2026-01-16 05:15:41.39	19.34	19.08	-39.3	-40.5	16.9	0.00e+00	0	33	0	1055916032	44	4231
2026-01-16 05:15:42.40	19.18	19.18	-39.4	-40.5	16.9	0.00e+00	0	33	0	1061158912	44	4239
2026-01-16 05:15:43.41	19.02	19.27	-39.2	-40.4	16.9	0.00e+00	0	33	0	1066401792	44	4165
2026-01-16 05:15:44.42	18.85	19.37	-39.0	-40.2	17.0	0.00e+00	0	33	0	1072693248	44	4065
2026-01-16 05:15:45.43	18.69	19.46	-39.0	-40.1	17.0	0.00e+00	0	33	0	1077936128	44	4038
2026-01-16 05:15:46.44	18.52	19.56	-39.0	-40.2	17.0	0.00e+00	0	33	0	1084227584	44	4071
2026-01-16 05:15:47.45	18.36	19.66	-38.8	-39.9	17.0	0.00e+00	0	33	0	1089470464	44	3941
2026-01-16 05:15:48.46	18.19	19.75	-38.7	-39.9	17.1	0.00e+00	0	33	0	1095761920	44	3920
2026-01-16 05:15:49.47	18.02	19.85	-38.8	-39.9	17.0	0.00e+00	0	33	0	1101004800	44	3952
2026-01-16 05:15:50.48	17.85	19.95	-38.8	-39.9	17.0	0.00e+00	0	33	0	1107296256	44	3947
2026-01-16 05:15:51.49	17.68	20.04	-38.9	-40.0	17.0	0.00e+00	0	33	0	1112539136	44	3979
2026-01-16 05:15:52.50	17.51	20.14	-38.9	-40.0	17.0	0.00e+00	0	33	0	1117782016	44	3998
2026-01-16 05:15:53.50	17.33	20.24	-38.9	-40.1	17.0	0.00e+00	0	33	0	1124073472	44	4025
2026-01-16 05:15:54.51	17.16	20.33	-39.1	-40.2	17.0	0.00e+00	0	33	0	1129316352	44	4077
2026-01-16 05:15:55.52	16.99	20.43	-39.0	-40.2	17.0	0.00e+00	0	33	0	1135607808	44	4074
2026-01-16 05:15:56.53	16.81	20.53	-39.1	-40.2	16.9	0.00e+00	0	33	0	1140850688	44	4092
2026-01-16 05:15:57.54	16.63	20.63	-39.0	-40.2	17.0	0.00e+00	0	33	0	1146093568	44	4059
2026-01-16 05:15:58.55	16.45	20.72	-39.0	-40.2	17.0	0.00e+00	0	33	0	1152385024	44	4065
2026-01-16 05:15:59.56	16.27	20.82	-39.0	-40.1	17.0	0.00e+00	0	33	0	1157627904	44	4043
2026-01-16 05:16:00.57	16.09	20.92	-39.0	-40.2	17.0	0.00e+00	0	33	0	1162870784	44	4072
2026-01-16 05:16:01.58	15.91	21.02	-39.0	-40.2	17.0	0.00e+00	0	33	0	1169162240	44	4068
2026-01-16 05:16:02.59	15.73	21.11	-38.8	-40.0	17.0	0.00e+00	0	33	0	1174405120	44	3964
2026-01-16 05:16:03.60	15.54	21.21	-38.7	-39.9	17.0	0.00e+00	0	33	0	1180696576	44	3935
2026-01-16 05:16:04.61	15.36	21.31	-38.8	-39.9	17.0	0.00e+00	0	33	0	1185939456	44	3958
2026-01-16 05:16:05.62	15.17	21.41	-38.7	-39.9	17.1	0.00e+00	0	33	0	1192230912	44	3919
2026-01-16 05:16:06.63	14.98	21.51	-38.5	-39.7	17.1	0.00e+00	0	33	0	1197473792	43	4068
2026-01-16 05:16:07.64	14.79	21.60	-38.5	-39.6	17.1	0.00e+00	0	33	0	1203765248	43	4031
2026-01-16 05:16:08.65	14.60	21.70	-38.5	-39.6	17.1	0.00e+00	0	33	0	1209008128	43	4042
2026-01-16 05:16:09.66	14.41	21.80	-38.5	-39.6	17.1	0.00e+00	0	33	0	1214251008	43	4023
2026-01-16 05:16:10.67	14.21	21.90	-38.5	-39.7	17.1	0.00e+00	0	33	0	1220542464	43	4056
2026-01-16 05:16:11.67	14.02	21.99	-38.6	-39.7	17.0	0.00e+00	0	33	0	1225785344	43	4087
2026-01-16 05:16:12.68	13.83	22.09	-38.7	-39.9	17.0	0.00e+00	0	33	0	1232076800	43	4146
2026-01-16 05:16:13.69	13.63	22.19	-38.8	-39.9	17.0	0.00e+00	0	33	0	1237319680	43	4170
2026-01-16 05:16:14.70	13.43	22.29	-38.7	-39.8	17.0	0.00e+00	0	33	0	1242562560	43	4145
2026-01-16 05:16:15.71	13.23	22.39	-38.7	-39.9	17.0	0.00e+00	0	33	0	1248854016	43	4152
2026-01-16 05:16:16.72	13.03	22.49	-38.6	-39.7	17.1	0.00e+00	0	33	0	1254096896	43	4082
2026-01-16 05:16:17.73	12.83	22.58	-38.4	-39.5	17.1	0.00e+00	0	33	0	1260388352	43	3976
2026-01-16 05:16:18.74	12.63	22.68	-38.2	-39.3	17.2	0.00e+00	0	33	0	1265631232	43	3912
2026-01-16 05:16:19.75	12.42	22.78	-38.3	-39.4	17.2	0.00e+00	0	33	0	1270874112	43	3924
2026-01-16 05:16:20.76	12.21	22.88	-38.4	-39.6	17.1	0.00e+00	0	33	0	1277165568	43	4014
2026-01-16 05:16:21.77	12.01	22.98	-38.5	-39.6	17.1	0.00e+00	0	33	0	1282408448	43	4039
2026-01-16 05:16:22.78	11.80	23.07	-38.4	-39.6	17.1	0.00e+00	0	33	0	1288699904	43	4005
2026-01-16 05:16:23.79	11.59	23.17	-38.4	-39.6	17.1	0.00e+00	0	33	0	1293942784	43	4015
2026-01-16 05:16:24.80	11.38	23.27	-38.5	-39.6	17.1	0.00e+00	0	33	0	1300234240	43	4033
2026-01-16 05:16:25.81	11.17	23.37	-38.5	-39.6	17.1	0.00e+00	0	33	0	1305477120	43	4020
2026-01-16 05:16:26.82	10.95	23.47	-38.4	-39.5	17.1	0.00e+00	0	33	0	1311768576	43	3982
2026-01-16 05:16:27.83	10.74	23.56	-38.4	-39.5	17.1	0.00e+00	0	33	0	1317011456	43	3985
2026-01-16 05:16:28.84	10.52	23.66	-38.3	-39.4	17.2	0.00e+00	0	33	0	1322254336	43	3955
2026-01-16 05:16:29.85	10.30	23.76	-38.1	-39.2	17.2	0.00e+00	0	33	0	1328545792	42	4087
2026-01-16 05:16:30.86	10.08	23.86	-38.0	-39.1	17.2	0.00e+00	0	33	0	1333788672	42	4038
2026-01-16 05:16:31.87	9.86	23.95	-38.0	-39.1	17.2	0.00e+00	0	33	0	1339031552	42	4005
2026-01-16 05:16:32.88	9.64	24.05	-37.8	-38.9	17.2	0.00e+00	0	33	0	1345323008	42	3935
2026-01-16 05:16:33.89	9.41	24.15	-37.9	-39.0	17.2	0.00e+00	0	33	0	1350565888	42	3980
2026-01-16 05:16:34.90	9.19	24.25	-37.9	-39.0	17.2	0.00e+00	0	33	0	1356857344	42	3968
2026-01-16 05:16:35.91	8.96	24.34	-37.9	-39.0	17.2	0.00e+00	0	33	0	1362100224	42	3998
2026-01-16 05:16:36.92	8.74	24.44	-37.9	-39.0	17.2	0.00e+00	0	33	0	1367343104	42	3992
2026-01-16 05:16:37.93	8.51	24.54	-37.9	-39.0	17.2	0.00e+00	0	33	0	1373634560	42	3978
2026-01-16 05:16:38.94	8.28	24.63	-38.0	-39.1	17.2	0.00e+00	0	33	0	1378877440	42	4015
2026-01-16 05:16:39.94	8.05	24.73	-37.9	-39.0	17.2	0.00e+00	0	33	0	1385168896	42	3992
2026-01-16 05:16:40.95	7.81	24.82	-37.8	-38.9	17.3	0.00e+00	0	33	0	1390411776	42	3940
2026-01-16 05:16:41.96	7.58	24.92	-37.9	-39.0	17.2	0.00e+00	0	33	0	1396703232	42	3994
2026-01-16 05:16:42.97	7.34	25.02	-37.8	-38.9	17.3	0.00e+00	0	33	0	1401946112	42	3932
2026-01-16 05:16:43.98	7.10	25.11	-37.8	-38.9	17.3	0.00e+00	0	33	0	1408237568	42	3951
2026-01-16 05:16:44.99	6.86	25.21	-37.9	-39.0	17.2	0.00e+00	0	33	0	1413480448	42	3959
2026-01-16 05:16:46.00	6.62	25.30	-37.8	-38.9	17.3	0.00e+00	0	33	0	1418723328	42	3916
2026-01-16 05:16:47.01	6.38	25.40	-37.8	-38.9	17.2	0.00e+00	0	33	0	1425014784	42	3947
2026-01-16 05:16:48.02	6.14	25.49	-37.9	-38.9	17.2	0.00e+00	0	33	0	1430257664	42	3953
2026-01-16 05:16:49.03	5.89	25.59	-37.7	-38.8	17.3	0.00e+00	0	33	0	1436549120	42	3869
2026-01-16 05:16:50.04	5.64	25.68	-37.8	-38.9	17.3	0.00e+00	0	33	0	1441792000	42	3916
2026-01-16 05:16:51.05	5.40	25.78	-37.8	-38.8	17.3	0.00e+00	0	33	0	1447034880	42	3908
2026-01-16 05:16:52.06	5.15	25.87	-37.6	-38.7	17.3	0.00e+00	0	33	0	1453326336	41	4079
2026-01-16 05:16:53.07	4.89	25.96	-37.7	-38.7	17.3	0.00e+00	0	33	0	1458569216	41	4096
2026-01-16 05:16:54.08	4.64	26.06	-37.6	-38.7	17.3	0.00e+00	0	33	0	1464860672	41	4082
2026-01-16 05:16:55.09	4.39	26.15	-37.7	-38.8	17.3	0.00e+00	0	33	0	1470103552	41	4121
2026-01-16 05:16:56.10	4.13	26.24	-37.7	-38.8	17.3	0.00e+00	0	33	0	1475346432	41	4118
2026-01-16 05:16:57.11	3.87	26.33	-37.7	-38.8	17.2	0.00e+00	0	33	0	1481637888	41	4142
2026-01-16 05:16:58.12	3.61	26.43	-37.7	-38.8	17.2	0.00e+00	0	33	0	1486880768	41	4126
2026-01-16 05:16:59.12	3.36	26.52	-37.7	-38.7	17.3	0.00e+00	0	33	0	1493172224	41	4096
2026-01-16 05:17:00.13	3.10	26.61	-37.7	-38.8	17.2	0.00e+00	0	33	0	1498415104	41	4103
2026-01-16 05:17:01.14	2.83	26.70	-37.7	-38.8	17.2	0.00e+00	0	33	0	1504706560	41	4123
2026-01-16 05:17:02.15	2.57	26.79	-37.6	-38.6	17.3	0.00e+00	0	33	0	1509949440	41	4049
2026-01-16 05:17:03.16	2.30	26.88	-37.5	-38.6	17.3	0.00e+00	0	33	0	1515192320	41	4023
2026-01-16 05:17:04.17	2.03	26.97	-37.6	-38.7	17.3	0.00e+00	0	33	0	1521483776	41	4053
2026-01-16 05:17:05.18	1.76	27.06	-37.6	-38.7	17.3	0.00e+00	0	33	0	1526726656	41	4080
2026-01-16 05:17:06.19	1.49	27.15	-37.5	-38.6	17.3	0.00e+00	0	33	0	1533018112	41	4006
2026-01-16 05:17:07.20	1.22	27.24	-37.6	-38.6	17.3	0.00e+00	0	33	0	1538260992	41	4044
2026-01-16 05:17:08.21	0.95	27.33	-37.6	-38.7	17.3	0.00e+00	0	33	0	1543503872	41	4085
2026-01-16 05:17:09.22	0.67	27.41	-37.7	-38.8	17.3	0.00e+00	0	33	0	1549795328	41	4118
2026-01-16 05:17:10.23	0.39	27.50	-37.8	-38.9	17.2	0.00e+00	0	33	0	1555038208	41	4189
2026-01-16 05:17:11.24	0.11	27.59	-37.7	-38.8	17.3	0.00e+00	0	33	0	1561329664	41	4101
2026-01-16 05:17:12.25	359.83	27.67	-37.5	-38.6	17.3	0.00e+00	0	33	0	1566572544	41	4029
2026-01-16 05:17:13.26	359.55	27.76	-37.5	-38.5	17.3	0.00e+00	0	33	0	1571815424	41	3999
2026-01-16 05:17:14.27	359.27	27.84	-37.3	-38.4	17.4	0.00e+00	0	33	0	1578106880	41	3923
2026-01-16 05:17:15.28	358.98	27.93	-37.5	-38.5	17.3	0.00e+00	0	33	0	1583349760	41	4003
2026-01-16 05:17:16.29	358.70	28.01	-37.3	-38.4	17.4	0.00e+00	0	33	0	1589641216	41	3936
2026-01-16 05:17:17.30	358.41	28.10	-37.4	-38.5	17.4	0.00e+00	0	33	0	1594884096	41	3992
2026-01-16 05:17:18.31	358.12	28.18	-37.4	-38.4	17.4	0.00e+00	0	33	0	1601175552	41	3942
2026-01-16 05:17:19.31	357.83	28.26	-37.3	-38.3	17.4	0.00e+00	0	33	0	1606418432	41	3904
2026-01-16 05:17:20.32	357.54	28.34	-37.2	-38.3	17.4	0.00e+00	0	33	0	1612709888	41	3879
2026-01-16 05:17:21.33	357.25	28.43	-37.4	-38.4	17.4	0.00e+00	0	33	0	1617952768	41	3951
2026-01-16 05:17:22.34	356.95	28.51	-37.4	-38.5	17.4	0.00e+00	0	33	0	1623195648	41	3973
2026-01-16 05:17:23.35	356.65	28.59	-37.4	-38.5	17.3	0.00e+00	0	33	0	1629487104	41	3987
2026-01-16 05:17:24.36	356.35	28.67	-37.3	-38.4	17.4	0.00e+00	0	33	0	1634729984	41	3937
2026-01-16 05:17:25.37	356.05	28.74	-37.2	-38.3	17.4	0.00e+00	0	33	0	1641021440	41	3890
2026-01-16 05:17:26.38	355.75	28.82	-37.3	-38.3	17.4	0.00e+00	0	33	0	1646264320	41	3912
2026-01-16 05:17:27.39	355.45	28.90	-37.5	-38.5	17.4	0.00e+00	0	33	0	1651507200	41	3984
2026-01-16 05:17:28.40	355.15	28.98	-37.5	-38.6	17.4	0.00e+00	0	33	0	1657798656	41	4008
2026-01-16 05:17:29.41	354.84	29.05	-37.6	-38.6	17.3	0.00e+00	0	33	0	1663041536	41	4048
2026-01-16 05:17:30.42	354.53	29.13	-37.6	-38.6	17.3	0.00e+00	0	33	0	1668284416	41	4041
2026-01-16 05:17:31.43	354.22	29.20	-37.5	-38.6	17.3	0.00e+00	0	33	0	1674575872	41	4026
2026-01-16 05:17:32.44	353.91	29.28	-37.4	-38.5	17.4	0.00e+00	0	33	0	1679818752	41	3975
2026-01-16 05:17:33.45	353.60	29.35	-37.4	-38.5	17.4	0.00e+00	0	33	0	1686110208	41	3959
2026-01-16 05:17:34.46	353.29	29.42	-37.3	-38.4	17.4	0.00e+00	0	33	0	1691353088	41	3938
2026-01-16 05:17:35.47	352.98	29.49	-37.3	-38.4	17.4	0.00e+00	0	33	0	1697644544	41	3935
2026-01-16 05:17:36.48	352.66	29.56	-37.4	-38.4	17.4	0.00e+00	0	33	0	1702887424	41	3955
2026-01-16 05:17:37.48	352.35	29.63	-37.3	-38.3	17.4	0.00e+00	0	33	0	1709178880	41	3901
2026-01-16 05:17:38.50	352.02	29.70	-37.3	-38.3	17.4	0.00e+00	0	33	0	1714421760	41	3912
2026-01-16 05:17:39.50	351.71	29.77	-37.4	-38.4	17.4	0.00e+00	0	33	0	1719664640	41	3941
2026-01-16 05:17:40.51	351.39	29.84	-37.3	-38.4	17.4	0.00e+00	0	33	0	1725956096	41	3918
2026-01-16 05:17:41.52	351.06	29.91	-37.2	-38.2	17.4	0.00e+00	0	33	0	1731198976	40	4095
2026-01-16 05:17:42.53	350.74	29.97	-36.8	-37.9	17.5	0.00e+00	0	33	0	1737490432	40	3921
2026-01-16 05:17:43.54	350.41	30.04	-37.0	-38.0	17.4	0.00e+00	0	33	0	1742733312	40	3980
2026-01-16 05:17:44.55	350.09	30.10	-37.1	-38.1	17.4	0.00e+00	0	33	0	1747976192	40	4045
2026-01-16 05:17:45.56	349.76	30.16	-37.1	-38.2	17.4	0.00e+00	0	33	0	1754267648	40	4059
2026-01-16 05:17:46.57	349.43	30.23	-37.2	-38.3	17.4	0.00e+00	0	33	0	1759510528	40	4102
2026-01-16 05:17:47.58	349.10	30.29	-37.2	-38.3	17.4	0.00e+00	0	33	0	1765801984	40	4115
2026-01-16 05:17:48.59	348.77	30.35	-37.1	-38.1	17.4	0.00e+00	0	33	0	1771044864	40	4050
2026-01-16 05:17:49.60	348.43	30.41	-37.0	-38.0	17.4	0.00e+00	0	33	0	1776287744	40	3999
2026-01-16 05:17:50.61	348.10	30.46	-36.9	-38.0	17.5	0.00e+00	0	33	0	1782579200	40	3978
2026-01-16 05:17:51.62	347.76	30.52	-37.1	-38.1	17.4	0.00e+00	0	33	0	1787822080	40	4032
2026-01-16 05:17:52.63	347.43	30.58	-37.1	-38.2	17.4	0.00e+00	0	33	0	1794113536	40	4075
2026-01-16 05:17:53.64	347.09	30.63	-37.3	-38.4	17.4	0.00e+00	0	33	0	1799356416	40	4151
2026-01-16 05:17:54.64	346.75	30.69	-37.2	-38.3	17.4	0.00e+00	0	33	0	1805647872	40	4106
2026-01-16 05:17:55.65	346.41	30.74	-37.2	-38.3	17.4	0.00e+00	0	33	0	1810890752	40	4114
2026-01-16 05:17:56.66	346.07	30.79	-37.2	-38.2	17.4	0.00e+00	0	33	0	1816133632	40	4086
2026-01-16 05:17:57.67	345.73	30.84	-37.1	-38.1	17.5	0.00e+00	0	33	0	1822425088	40	4043
2026-01-16 05:17:58.68	345.39	30.89	-37.1	-38.1	17.4	0.00e+00	0	33	0	1827667968	40	4049
2026-01-16 05:17:59.69	345.04	30.94	-37.1	-38.1	17.5	0.00e+00	0	33	0	1833959424	40	4045
2026-01-16 05:18:00.70	344.70	30.99	-37.2	-38.2	17.4	0.00e+00	0	33	0	1839202304	40	4090
2026-01-16 05:18:01.71	344.35	31.04	-37.2	-38.2	17.4	0.00e+00	0	33	0	1844445184	40	4092
2026-01-16 05:18:02.72	344.00	31.08	-37.1	-38.2	17.4	0.00e+00	0	33	0	1850736640	40	4077
2026-01-16 05:18:03.73	343.65	31.13	-37.2	-38.2	17.4	0.00e+00	0	33	0	1855979520	40	4086
2026-01-16 05:18:04.74	343.30	31.17	-37.2	-38.3	17.4	0.00e+00	0	33	0	1862270976	40	4108
2026-01-16 05:18:05.75	342.95	31.21	-37.1	-38.1	17.4	0.00e+00	0	33	0	1867513856	40	4033
2026-01-16 05:18:06.76	342.60	31.26	-37.0	-38.1	17.4	0.00e+00	0	33	0	1872756736	40	4021
2026-01-16 05:18:07.77	342.25	31.30	-37.0	-38.1	17.4	0.00e+00	0	33	0	1879048192	40	4022
2026-01-16 05:18:08.78	341.90	31.33	-37.0	-38.0	17.5	0.00e+00	0	33	0	1884291072	40	3999
2026-01-16 05:18:09.79	341.54	31.37	-37.0	-38.1	17.4	0.00e+00	0	33	0	1890582528	40	4012
2026-01-16 05:18:10.80	341.19	31.41	-37.0	-38.0	17.5	0.00e+00	0	33	0	1895825408	40	3985
2026-01-16 05:18:11.81	340.83	31.44	-36.9	-37.9	17.5	0.00e+00	0	33	0	1902116864	40	3949
2026-01-16 05:18:12.81	340.48	31.48	-37.1	-38.1	17.4	0.00e+00	0	33	0	1907359744	40	4051
2026-01-16 05:18:13.82	340.12	31.51	-37.0	-38.1	17.5	0.00e+00	0	33	0	1913651200	40	4017
2026-01-16 05:18:14.83	339.76	31.54	-37.1	-38.2	17.4	0.00e+00	0	33	0	1918894080	40	4054
2026-01-16 05:18:15.84	339.41	31.57	-37.1	-38.1	17.4	0.00e+00	0	33	0	1924136960	40	4031
2026-01-16 05:18:16.85	339.05	31.60	-37.0	-38.0	17.4	0.00e+00	0	33	0	1930428416	40	3984
2026-01-16 05:18:17.86	338.69	31.63	-36.9	-38.0	17.5	0.00e+00	0	33	0	1935671296	40	3962
2026-01-16 05:18:18.87	338.33	31.66	-36.9	-37.9	17.5	0.00e+00	0	33	0	1940914176	40	3952
2026-01-16 05:18:19.88	337.97	31.68	-37.0	-38.0	17.4	0.00e+00	0	33	0	1947205632	40	3986
2026-01-16 05:18:20.89	337.60	31.70	-37.0	-38.0	17.5	0.00e+00	0	33	0	1952448512	40	3982
2026-01-16 05:18:21.90	337.24	31.73	-37.0	-38.0	17.5	0.00e+00	0	33	0	1958739968	40	3988
2026-01-16 05:18:22.91	336.88	31.75	-36.8	-37.9	17.5	0.00e+00	0	34	0	1963982848	40	3924
2026-01-16 05:18:23.92	336.52	31.77	-36.7	-37.7	17.5	0.00e+00	0	33	0	1969225728	40	3867
2026-01-16 05:18:24.93	336.15	31.79	-36.8	-37.8	17.4	0.00e+00	0	33	0	1975517184	39	4118
2026-01-16 05:18:25.94	335.79	31.81	-36.8	-37.8	17.4	0.00e+00	0	33	0	1980760064	39	4126
2026-01-16 05:18:26.95	335.42	31.82	-36.9	-37.9	17.4	0.00e+00	0	33	0	1987051520	39	4187
2026-01-16 05:18:27.96	335.06	31.84	-37.0	-38.1	17.4	0.00e+00	0	33	0	1992294400	39	4262
2026-01-16 05:18:28.97	334.69	31.85	-37.2	-38.3	17.3	0.00e+00	0	33	0	1998585856	39	4342
2026-01-16 05:18:29.97	334.33	31.86	-37.2	-38.3	17.3	0.00e+00	0	33	0	2003828736	39	4346
2026-01-16 05:18:30.98	333.97	31.87	-37.2	-38.2	17.3	0.00e+00	0	33	0	2010120192	39	4330
2026-01-16 05:18:31.99	333.60	31.88	-37.3	-38.3	17.3	0.00e+00	0	33	0	2015363072	39	4378
2026-01-16 05:18:33.00	333.23	31.89	-37.2	-38.3	17.3	0.00e+00	0	33	0	2020605952	39	4351
2026-01-16 05:18:34.01	332.87	31.90	-37.2	-38.2	17.3	0.00e+00	0	33	0	2026897408	39	4338
2026-01-16 05:18:35.02	332.50	31.91	-37.1	-38.1	17.4	0.00e+00	0	33	0	2032140288	39	4272
2026-01-16 05:18:36.03	332.14	31.91	-37.0	-38.1	17.4	0.00e+00	0	33	0	2038431744	39	4246
2026-01-16 05:18:37.04	331.77	31.91	-36.9	-37.9	17.4	0.00e+00	0	33	0	2043674624	39	4179
2026-01-16 05:18:38.05	331.40	31.92	-36.9	-37.9	17.4	0.00e+00	0	33	0	2048917504	39	4175
2026-01-16 05:18:39.06	331.04	31.92	-36.8	-37.8	17.5	0.00e+00	0	33	0	2055208960	39	4129
2026-01-16 05:18:40.07	330.67	31.92	-37.0	-38.0	17.4	0.00e+00	0	33	0	2060451840	39	4220
2026-01-16 05:18:41.08	330.30	31.91	-37.0	-38.1	17.4	0.00e+00	0	33	0	2066743296	39	4249
2026-01-16 05:18:42.09	329.94	31.91	-37.0	-38.0	17.4	0.00e+00	0	33	0	2071986176	39	4239
2026-01-16 05:18:43.10	329.57	31.90	-37.0	-38.1	17.4	0.00e+00	0	33	0	2077229056	39	4264
2026-01-16 05:18:44.11	329.20	31.90	-37.0	-38.1	17.4	0.00e+00	0	33	0	2083520512	39	4245
2026-01-16 05:18:45.12	328.84	31.89	-37.0	-38.0	17.4	0.00e+00	0	33	0	2088763392	39	4222
2026-01-16 05:18:46.12	328.47	31.88	-36.9	-37.9	17.4	0.00e+00	0	33	0	2095054848	39	4190
2026-01-16 05:18:47.13	328.11	31.87	-37.1	-38.1	17.4	0.00e+00	0	33	0	2100297728	39	4264
2026-01-16 05:18:48.14	327.74	31.86	-37.3	-38.3	17.3	0.00e+00	0	33	0	2106589184	39	4379
2026-01-16 05:18:49.15	327.38	31.85	-37.3	-38.4	17.3	0.00e+00	0	33	0	2111832064	39	4420
2026-01-16 05:18:50.16	327.01	31.83	-37.2	-38.2	17.4	0.00e+00	0	33	0	2117074944	39	4324
2026-01-16 05:18:51.17	326.65	31.82	-37.1	-38.2	17.4	0.00e+00	0	33	0	2123366400	39	4298
2026-01-16 05:18:52.18	326.28	31.80	-37.2	-38.2	17.4	0.00e+00	0	33	0	2128609280	39	4314
2026-01-16 05:18:53.19	325.92	31.78	-37.0	-38.1	17.4	0.00e+00	0	33	0	2134900736	39	4267
2026-01-16 05:18:54.20	325.56	31.77	-37.0	-38.0	17.4	0.00e+00	0	33	0	2140143616	39	4216
2026-01-16 05:18:55.21	325.19	31.74	-36.8	-37.8	17.4	0.00e+00	0	33	0	2145386496	39	4120
2026-01-16 05:18:56.22	324.83	31.72	-36.6	-37.6	17.5	0.00e+00	0	33	0	2151677952	39	4024
2026-01-16 05:18:57.23	324.47	31.70	-36.7	-37.7	17.5	0.00e+00	0	33	0	2156920832	39	4094
2026-01-16 05:18:58.24	324.11	31.68	-36.7	-37.8	17.5	0.00e+00	0	33	0	2163212288	39	4108
2026-01-16 05:18:59.25	323.74	31.65	-37.0	-38.0	17.4	0.00e+00	0	33	0	2168455168	39	4219
2026-01-16 05:19:00.26	323.38	31.62	-37.0	-38.0	17.4	0.00e+00	0	33	0	2173698048	39	4239
2026-01-16 05:19:01.27	323.02	31.59	-37.1	-38.1	17.4	0.00e+00	0	33	0	2179989504	39	4284
2026-01-16 05:19:02.28	322.66	31.57	-37.1	-38.1	17.3	0.00e+00	0	33	0	2185232384	39	4285
2026-01-16 05:19:03.29	322.31	31.53	-37.2	-38.3	17.3	0.00e+00	0	33	0	2191523840	39	4363
2026-01-16 05:19:04.30	321.95	31.50	-37.4	-38.4	17.3	0.00e+00	0	33	0	2196766720	40	4193
2026-01-16 05:19:05.31	321.59	31.47	-37.5	-38.6	17.3	0.00e+00	0	33	0	2203058176	40	4267
2026-01-16 05:19:06.32	321.23	31.44	-37.6	-38.7	17.3	0.00e+00	0	33	0	2208301056	40	4297
2026-01-16 05:19:07.32	320.88	31.40	-37.5	-38.6	17.3	0.00e+00	0	33	0	2214592512	40	4275
2026-01-16 05:19:08.33	320.53	31.36	-37.4	-38.5	17.4	0.00e+00	0	33	0	2219835392	40	4208
2026-01-16 05:19:09.34	320.17	31.33	-37.3	-38.4	17.4	0.00e+00	0	33	0	2225078272	40	4160
2026-01-16 05:19:10.35	319.82	31.29	-37.4	-38.4	17.4	0.00e+00	0	33	0	2231369728	40	4174
2026-01-16 05:19:11.36	319.47	31.25	-37.0	-38.0	17.5	0.00e+00	0	33	0	2236612608	40	4000
2026-01-16 05:19:12.37	319.12	31.21	-36.9	-37.9	17.5	0.00e+00	0	33	0	2242904064	40	3934
2026-01-16 05:19:13.38	318.77	31.16	-36.8	-37.8	17.6	0.00e+00	0	33	0	2248146944	40	3893
2026-01-16 05:19:14.39	318.42	31.12	-36.8	-37.8	17.5	0.00e+00	0	33	0	2253389824	40	3904
2026-01-16 05:19:15.40	318.07	31.07	-36.8	-37.8	17.5	0.00e+00	0	33	0	2259681280	40	3879
2026-01-16 05:19:16.41	317.72	31.03	-36.8	-37.9	17.5	0.00e+00	0	33	0	2264924160	40	3925
2026-01-16 05:19:17.42	317.37	30.98	-36.9	-38.0	17.5	0.00e+00	0	33	0	2270167040	40	3959
2026-01-16 05:19:18.43	317.03	30.93	-36.9	-38.0	17.5	0.00e+00	0	33	0	2276458496	40	3973
2026-01-16 05:19:19.44	316.68	30.88	-37.0	-38.0	17.5	0.00e+00	0	33	0	2281701376	40	3997
2026-01-16 05:19:20.45	316.34	30.83	-37.1	-38.2	17.4	0.00e+00	0	33	0	2287992832	40	4064
2026-01-16 05:19:21.46	316.00	30.78	-37.2	-38.2	17.4	0.00e+00	0	33	0	2293235712	40	4077
2026-01-16 05:19:22.47	315.66	30.73	-37.3	-38.4	17.3	0.00e+00	0	33	0	2299527168	40	4157
2026-01-16 05:19:23.48	315.32	30.68	-37.3	-38.4	17.4	0.00e+00	0	33	0	2304770048	40	4172
2026-01-16 05:19:24.49	314.98	30.62	-37.3	-38.4	17.4	0.00e+00	0	33	0	2311061504	40	4170
2026-01-16 05:19:25.50	314.64	30.57	-37.3	-38.3	17.4	0.00e+00	0	33	0	2316304384	40	4132
2026-01-16 05:19:26.51	314.30	30.51	-37.2	-38.2	17.4	0.00e+00	0	33	0	2321547264	40	4097
2026-01-16 05:19:27.51	313.97	30.45	-37.2	-38.3	17.4	0.00e+00	0	33	0	2327838720	40	4122
2026-01-16 05:19:28.52	313.63	30.39	-37.2	-38.3	17.4	0.00e+00	0	33	0	2333081600	40	4099
2026-01-16 05:19:29.53	313.30	30.33	-36.9	-38.0	17.5	0.00e+00	0	33	0	2339373056	40	3962
2026-01-16 05:19:30.54	312.97	30.27	-36.9	-37.9	17.5	0.00e+00	0	33	0	2344615936	40	3951
2026-01-16 05:19:31.55	312.64	30.21	-36.8	-37.9	17.5	0.00e+00	0	33	0	2349858816	40	3915
2026-01-16 05:19:32.56	312.31	30.15	-37.1	-38.1	17.5	0.00e+00	0	33	0	2356150272	40	4028
2026-01-16 05:19:33.57	311.98	30.09	-37.2	-38.3	17.4	0.00e+00	0	33	0	2361393152	40	4108
2026-01-16 05:19:34.58	311.65	30.02	-37.3	-38.3	17.4	0.00e+00	0	33	0	2367684608	40	4135
2026-01-16 05:19:35.59	311.33	29.96	-37.2	-38.3	17.4	0.00e+00	0	33	0	2372927488	40	4117
2026-01-16 05:19:36.60	311.01	29.89	-37.2	-38.3	17.4	0.00e+00	0	33	0	2378170368	40	4107
2026-01-16 05:19:37.61	310.68	29.82	-37.2	-38.2	17.4	0.00e+00	0	33	0	2384461824	40	4085
2026-01-16 05:19:38.62	310.36	29.76	-37.3	-38.4	17.4	0.00e+00	0	33	0	2389704704	40	4165
2026-01-16 05:19:39.63	310.04	29.69	-37.4	-38.5	17.4	0.00e+00	0	33	0	2395996160	40	4218
2026-01-16 05:19:40.64	309.72	29.62	-37.5	-38.6	17.3	0.00e+00	0	33	0	2401239040	40	4267
2026-01-16 05:19:41.65	309.40	29.55	-37.6	-38.7	17.3	0.00e+00	0	33	0	2407530496	40	4319
2026-01-16 05:19:42.66	309.09	29.48	-37.7	-38.8	17.3	0.00e+00	0	33	0	2412773376	40	4344
2026-01-16 05:19:43.67	308.77	29.40	-37.5	-38.6	17.3	0.00e+00	0	33	0	2418016256	40	4271
2026-01-16 05:19:44.68	308.46	29.33	-37.5	-38.6	17.4	0.00e+00	0	33	0	2424307712	40	4267
2026-01-16 05:19:45.68	308.15	29.26	-37.5	-38.5	17.3	0.00e+00	0	33	0	2429550592	40	4229
2026-01-16 05:19:46.69	307.84	29.19	-37.4	-38.5	17.4	0.00e+00	0	33	0	2435842048	40	4206
2026-01-16 05:19:47.70	307.53	29.11	-37.5	-38.5	17.3	0.00e+00	0	33	0	2441084928	40	4227
2026-01-16 05:19:48.71	307.23	29.03	-37.4	-38.5	17.4	0.00e+00	0	33	0	2446327808	40	4202
2026-01-16 05:19:49.72	306.92	28.96	-37.2	-38.3	17.4	0.00e+00	0	33	0	2452619264	40	4125
2026-01-16 05:19:50.73	306.62	28.88	-37.3	-38.4	17.4	0.00e+00	0	33	0	2457862144	40	4151
2026-01-16 05:19:51.74	306.31	28.80	-37.3	-38.4	17.4	0.00e+00	0	33	0	2464153600	40	4155
2026-01-16 05:19:52.75	306.01	28.73	-37.4	-38.5	17.4	0.00e+00	0	33	0	2469396480	40	4212
2026-01-16 05:19:53.76	305.71	28.65	-37.4	-38.5	17.3	0.00e+00	0	33	0	2474639360	40	4222
2026-01-16 05:19:54.77	305.41	28.57	-37.4	-38.4	17.4	0.00e+00	0	33	0	2480930816	40	4189
2026-01-16 05:19:55.78	305.12	28.49	-37.5	-38.5	17.3	0.00e+00	0	33	0	2486173696	40	4225
2026-01-16 05:19:56.79	304.82	28.40	-37.4	-38.4	17.4	0.00e+00	0	33	0	2492465152	40	4182
2026-01-16 05:19:57.80	304.53	28.32	-37.4	-38.4	17.4	0.00e+00	0	33	0	2497708032	40	4173
2026-01-16 05:19:58.81	304.23	28.24	-37.4	-38.4	17.4	0.00e+00	0	33	0	2502950912	40	4173
2026-01-16 05:19:59.82	303.94	28.16	-37.5	-38.6	17.3	0.00e+00	0	33	0	2509242368	40	4256
2026-01-16 05:20:00.83	303.65	28.07	-37.5	-38.6	17.3	0.00e+00	0	33	0	2514485248	40	4279
2026-01-16 05:20:01.84	303.36	27.99	-37.5	-38.5	17.4	0.00e+00	0	33	0	2520776704	40	4240
2026-01-16 05:20:02.85	303.08	27.91	-37.4	-38.5	17.4	0.00e+00	0	33	0	2526019584	40	4213
2026-01-16 05:20:03.86	302.79	27.82	-37.5	-38.5	17.4	0.00e+00	0	33	0	2532311040	40	4237
2026-01-16 05:20:04.87	302.51	27.74	-37.5	-38.6	17.3	0.00e+00	0	33	0	2537553920	40	4255
2026-01-16 05:20:05.88	302.23	27.65	-37.4	-38.5	17.3	0.00e+00	0	33	0	2543845376	40	4214
2026-01-16 05:20:06.88	301.95	27.56	-37.5	-38.6	17.3	0.00e+00	0	33	0	2549088256	40	4245
2026-01-16 05:20:07.89	301.67	27.48	-37.6	-38.6	17.4	0.00e+00	0	33	0	2554331136	40	4285
2026-01-16 05:20:08.90	301.39	27.39	-37.6	-38.7	17.3	0.00e+00	0	33	0	2560622592	40	4306
2026-01-16 05:20:09.91	301.12	27.30	-37.6	-38.7	17.3	0.00e+00	0	33	0	2565865472	40	4327
2026-01-16 05:20:10.92	300.84	27.21	-37.6	-38.7	17.3	0.00e+00	0	33	0	2572156928	40	4314
2026-01-16 05:20:11.93	300.57	27.12	-37.6	-38.7	17.3	0.00e+00	0	33	0	2577399808	40	4293
2026-01-16 05:20:12.94	300.30	27.04	-37.7	-38.7	17.3	0.00e+00	0	33	0	2582642688	40	4327
2026-01-16 05:20:13.95	300.03	26.95	-37.8	-38.8	17.3	0.00e+00	0	33	0	2588934144	40	4380
2026-01-16 05:20:14.96	299.76	26.86	-37.9	-39.0	17.3	0.00e+00	0	33	0	2594177024	41	4223
2026-01-16 05:20:15.97	299.50	26.77	-37.9	-39.0	17.3	0.00e+00	0	33	0	2599419904	41	4216
2026-01-16 05:20:16.98	299.23	26.67	-38.1	-39.2	17.2	0.00e+00	0	33	0	2605711360	41	4304
2026-01-16 05:20:17.99	298.97	26.58	-37.9	-39.0	17.2	0.00e+00	0	33	0	2610954240	41	4197
2026-01-16 05:20:19.00	298.71	26.49	-37.8	-38.9	17.3	0.00e+00	0	33	0	2617245696	41	4190
2026-01-16 05:20:20.01	298.44	26.40	-37.9	-39.0	17.3	0.00e+00	0	33	0	2622488576	41	4227
2026-01-16 05:20:21.02	298.19	26.31	-37.9	-39.0	17.3	0.00e+00	0	33	0	2628780032	41	4217
2026-01-16 05:20:22.03	297.93	26.21	-37.9	-39.0	17.3	0.00e+00	0	33	0	2634022912	41	4214
2026-01-16 05:20:23.04	297.67	26.12	-38.0	-39.0	17.3	0.00e+00	0	33	0	2640314368	41	4235
2026-01-16 05:20:24.05	297.42	26.03	-37.9	-39.0	17.2	0.00e+00	0	33	0	2645557248	41	4218
2026-01-16 05:20:25.06	297.16	25.94	-37.9	-38.9	17.2	0.00e+00	0	33	0	2650800128	41	4184
2026-01-16 05:20:26.07	296.91	25.84	-38.0	-39.1	17.2	0.00e+00	0	33	0	2657091584	41	4246
2026-01-16 05:20:27.08	296.66	25.75	-38.0	-39.1	17.2	0.00e+00	0	33	0	2662334464	41	4275
2026-01-16 05:20:28.09	296.41	25.65	-37.9	-39.0	17.2	0.00e+00	0	33	0	2668625920	41	4216
2026-01-16 05:20:29.10	296.17	25.56	-37.9	-39.0	17.3	0.00e+00	0	33	0	2673868800	41	4209
2026-01-16 05:20:30.11	295.92	25.46	-37.9	-38.9	17.3	0.00e+00	0	33	0	2679111680	41	4192
2026-01-16 05:20:31.12	295.68	25.37	-37.8	-38.9	17.3	0.00e+00	0	33	0	2685403136	41	4174
2026-01-16 05:20:32.13	295.44	25.27	-37.9	-39.0	17.2	0.00e+00	0	33	0	2690646016	41	4216
2026-01-16 05:20:33.13	295.20	25.18	-37.8	-38.9	17.3	0.00e+00	0	33	0	2696937472	41	4177
2026-01-16 05:20:34.14	294.96	25.08	-37.8	-38.9	17.3	0.00e+00	0	33	0	2702180352	41	4177
2026-01-16 05:20:35.15	294.72	24.99	-38.0	-39.0	17.2	0.00e+00	0	33	0	2707423232	41	4242
2026-01-16 05:20:36.16	294.48	24.89	-38.0	-39.1	17.2	0.00e+00	0	33	0	2713714688	41	4252
2026-01-16 05:20:37.17	294.25	24.79	-38.0	-39.1	17.3	0.00e+00	0	33	0	2718957568	41	4257
2026-01-16 05:20:38.18	294.01	24.70	-38.0	-39.1	17.2	0.00e+00	0	33	0	2725249024	41	4288
2026-01-16 05:20:39.19	293.78	24.60	-37.9	-39.0	17.2	0.00e+00	0	33	0	2730491904	41	4206
2026-01-16 05:20:40.20	293.55	24.50	-37.9	-38.9	17.2	0.00e+00	0	33	0	2736783360	41	4185
2026-01-16 05:20:41.21	293.32	24.41	-37.8	-38.9	17.3	0.00e+00	0	33	0	2742026240	41	4155
2026-01-16 05:20:42.22	293.09	24.31	-38.0	-39.1	17.3	0.00e+00	0	33	0	2747269120	41	4258
2026-01-16 05:20:43.23	292.87	24.21	-38.1	-39.2	17.2	0.00e+00	0	33	0	2753560576	41	4315
2026-01-16 05:20:44.24	292.64	24.12	-38.1	-39.2	17.2	0.00e+00	0	33	0	2758803456	41	4329
2026-01-16 05:20:45.25	292.42	24.02	-38.1	-39.2	17.2	0.00e+00	0	33	0	2765094912	41	4324
2026-01-16 05:20:46.26	292.19	23.92	-38.2	-39.3	17.2	0.00e+00	0	33	0	2770337792	41	4381
2026-01-16 05:20:47.27	291.97	23.82	-38.3	-39.4	17.2	0.00e+00	0	33	0	2775580672	41	4401
2026-01-16 05:20:48.27	291.76	23.73	-38.1	-39.2	17.2	0.00e+00	0	33	0	2781872128	41	4322
2026-01-16 05:20:49.29	291.54	23.63	-38.1	-39.2	17.2	0.00e+00	0	33	0	2787115008	41	4333
2026-01-16 05:20:50.29	291.32	23.53	-38.2	-39.3	17.2	0.00e+00	0	33	0	2793406464	41	4390
2026-01-16 05:20:51.31	291.10	23.43	-38.2	-39.3	17.1	0.00e+00	0	33	0	2798649344	41	4384
2026-01-16 05:20:52.32	290.89	23.33	-38.3	-39.4	17.1	0.00e+00	0	33	0	2803892224	41	4397
2026-01-16 05:20:53.33	290.68	23.24	-38.3	-39.4	17.1	0.00e+00	0	33	0	2810183680	41	4425
2026-01-16 05:20:54.34	290.46	23.14	-38.2	-39.3	17.2	0.00e+00	0	33	0	2815426560	41	4357
2026-01-16 05:20:55.35	290.25	23.04	-38.2	-39.3	17.2	0.00e+00	0	33	0	2821718016	41	4382
2026-01-16 05:20:56.36	290.05	22.94	-38.3	-39.4	17.1	0.00e+00	0	33	0	2826960896	41	4409
2026-01-16 05:20:57.37	289.84	22.84	-38.4	-39.5	17.2	0.00e+00	0	33	0	2833252352	41	4460
2026-01-16 05:20:58.38	289.63	22.74	-38.4	-39.5	17.1	0.00e+00	0	34	0	2838495232	41	4456
2026-01-16 05:20:59.39	289.43	22.65	-38.3	-39.5	17.1	0.00e+00	0	34	0	2844786688	41	4444
2026-01-16 05:21:00.40	289.22	22.55	-38.5	-39.6	17.1	0.00e+00	0	33	0	2850029568	42	4274
2026-01-16 05:21:01.41	289.02	22.45	-38.4	-39.5	17.2	0.00e+00	0	33	0	2855272448	42	4215
2026-01-16 05:21:02.42	288.82	22.35	-38.4	-39.5	17.2	0.00e+00	0	33	0	2861563904	42	4214
2026-01-16 05:21:03.43	288.62	22.25	-38.5	-39.6	17.2	0.00e+00	0	33	0	2866806784	42	4286
2026-01-16 05:21:04.44	288.42	22.15	-38.4	-39.5	17.2	0.00e+00	0	33	0	2873098240	42	4238
2026-01-16 05:21:05.45	288.23	22.06	-38.5	-39.6	17.2	0.00e+00	0	33	0	2878341120	42	4268
2026-01-16 05:21:06.46	288.03	21.96	-38.4	-39.5	17.1	0.00e+00	0	33	0	2883584000	42	4235
2026-01-16 05:21:07.47	287.84	21.86	-38.5	-39.6	17.1	0.00e+00	0	34	0	2889875456	42	4273
2026-01-16 05:21:08.48	287.64	21.76	-38.5	-39.6	17.1	0.00e+00	0	33	0	2895118336	42	4274
2026-01-16 05:21:09.49	287.45	21.66	-38.4	-39.5	17.1	0.00e+00	0	33	0	2901409792	42	4209
2026-01-16 05:21:10.50	287.26	21.56	-38.5	-39.6	17.1	0.00e+00	0	33	0	2906652672	42	4270
2026-01-16 05:21:11.51	287.07	21.47	-38.5	-39.6	17.2	0.00e+00	0	34	0	2911895552	42	4276
2026-01-16 05:21:12.52	286.88	21.37	-38.4	-39.6	17.1	0.00e+00	0	33	0	2918187008	42	4244
2026-01-16 05:21:13.53	286.69	21.27	-38.4	-39.5	17.2	0.00e+00	0	34	0	2923429888	42	4218
2026-01-16 05:21:14.54	286.51	21.17	-38.5	-39.5	17.1	0.00e+00	0	33	0	2929721344	42	4242
2026-01-16 05:21:15.55	286.32	21.07	-38.3	-39.4	17.2	0.00e+00	0	34	0	2934964224	42	4165
2026-01-16 05:21:16.56	286.14	20.98	-38.3	-39.4	17.2	0.00e+00	0	33	0	2941255680	42	4186
2026-01-16 05:21:17.57	285.96	20.88	-38.3	-39.4	17.2	0.00e+00	0	33	0	2946498560	42	4158
2026-01-16 05:21:18.58	285.78	20.78	-38.3	-39.4	17.2	0.00e+00	0	34	0	2952790016	42	4187
2026-01-16 05:21:19.59	285.60	20.68	-38.3	-39.4	17.2	0.00e+00	0	33	0	2958032896	42	4149
2026-01-16 05:21:20.60	285.42	20.58	-38.3	-39.5	17.2	0.00e+00	0	33	0	2963275776	42	4199
2026-01-16 05:21:21.60	285.24	20.49	-38.4	-39.5	17.1	0.00e+00	0	33	0	2969567232	42	4239
2026-01-16 05:21:22.61	285.06	20.39	-38.3	-39.4	17.2	0.00e+00	0	33	0	2974810112	42	4184
2026-01-16 05:21:23.62	284.89	20.29	-38.3	-39.4	17.2	0.00e+00	0	33	0	2981101568	42	4168
2026-01-16 05:21:24.63	284.71	20.20	-38.3	-39.4	17.2	0.00e+00	0	33	0	2986344448	42	4179
2026-01-16 05:21:25.64	284.54	20.10	-38.5	-39.6	17.1	0.00e+00	0	33	0	2991587328	42	4257
2026-01-16 05:21:26.65	284.37	20.00	-38.5	-39.6	17.1	0.00e+00	0	33	0	2997878784	42	4270
2026-01-16 05:21:27.67	284.19	19.90	-38.6	-39.7	17.1	0.00e+00	0	33	0	3003121664	42	4325
2026-01-16 05:21:28.67	284.03	19.81	-38.6	-39.7	17.1	0.00e+00	0	33	0	3009413120	42	4340
2026-01-16 05:21:29.68	283.86	19.71	-38.6	-39.8	17.1	0.00e+00	0	33	0	3014656000	42	4341
2026-01-16 05:21:30.69	283.69	19.61	-38.9	-40.1	17.0	0.00e+00	0	33	0	3019898880	42	4502
2026-01-16 05:21:31.70	283.52	19.52	-38.8	-40.0	17.1	0.00e+00	0	33	0	3026190336	43	4211
2026-01-16 05:21:32.71	283.36	19.42	-38.9	-40.1	17.0	0.00e+00	0	33	0	3031433216	43	4243
2026-01-16 05:21:33.72	283.19	19.32	-39.0	-40.1	17.0	0.00e+00	0	33	0	3037724672	43	4257
2026-01-16 05:21:34.73	283.03	19.23	-38.8	-39.9	17.1	0.00e+00	0	33	0	3042967552	43	4181
2026-01-16 05:21:35.74	282.87	19.13	-38.8	-39.9	17.1	0.00e+00	0	33	0	3049259008	43	4170
2026-01-16 05:21:36.75	282.70	19.04	-38.8	-39.9	17.1	0.00e+00	0	33	0	3054501888	43	4166
2026-01-16 05:21:37.76	282.54	18.94	-38.8	-39.9	17.0	0.00e+00	0	33	0	3059744768	43	4183
2026-01-16 05:21:38.77	282.38	18.85	-38.9	-40.0	17.0	0.00e+00	0	33	0	3066036224	43	4239
2026-01-16 05:21:39.78	282.23	18.75	-39.0	-40.2	17.0	0.00e+00	0	34	0	3071279104	43	4297
2026-01-16 05:21:40.79	282.07	18.65	-39.0	-40.2	17.0	0.00e+00	0	33	0	3077570560	43	4312
2026-01-16 05:21:41.80	281.91	18.56	-38.9	-40.1	17.1	0.00e+00	0	33	0	3082813440	43	4266
2026-01-16 05:21:42.80	281.76	18.46	-39.0	-40.2	17.0	0.00e+00	0	33	0	3088056320	43	4294
2026-01-16 05:21:43.81	281.60	18.37	-39.1	-40.3	17.0	0.00e+00	0	33	0	3094347776	43	4349
2026-01-16 05:21:44.83	281.45	18.27	-39.2	-40.4	17.0	0.00e+00	0	33	0	3099590656	43	4392
2026-01-16 05:21:45.83	281.30	18.18	-39.1	-40.3	17.0	0.00e+00	0	34	0	3105882112	43	4342
2026-01-16 05:21:46.84	281.15	18.09	-39.2	-40.3	16.9	0.00e+00	0	34	0	3111124992	43	4377
2026-01-16 05:21:47.85	281.00	17.99	-39.3	-40.4	16.9	0.00e+00	0	33	0	3116367872	43	4432
2026-01-16 05:21:48.86	280.85	17.90	-39.3	-40.5	16.9	0.00e+00	0	33	0	3122659328	43	4486
2026-01-16 05:21:49.87	280.70	17.80	-39.3	-40.5	16.9	0.00e+00	0	33	0	3127902208	43	4458
2026-01-16 05:21:50.88	280.55	17.71	-39.6	-40.8	16.9	0.00e+00	0	33	0	3134193664	44	4344
2026-01-16 05:21:51.89	280.40	17.62	-39.5	-40.7	16.9	0.00e+00	0	33	0	3139436544	44	4334
2026-01-16 05:21:52.90	280.26	17.52	-39.4	-40.6	16.9	0.00e+00	0	33	0	3145728000	44	4282
2026-01-16 05:21:53.91	280.11	17.43	-39.5	-40.7	16.9	0.00e+00	0	33	0	3150970880	44	4294
2026-01-16 05:21:54.92	279.97	17.34	-39.4	-40.6	16.9	0.00e+00	0	33	0	3156213760	44	4262
2026-01-16 05:21:55.93	279.82	17.24	-39.4	-40.6	16.9	0.00e+00	0	33	0	3162505216	44	4250
2026-01-16 05:21:56.94	279.68	17.15	-39.4	-40.6	16.9	0.00e+00	0	34	0	3167748096	44	4251
2026-01-16 05:21:57.95	279.54	17.06	-39.6	-40.8	16.9	0.00e+00	0	33	0	3174039552	44	4354
2026-01-16 05:21:58.96	279.40	16.96	-39.6	-40.7	16.9	0.00e+00	0	33	0	3179282432	44	4339
2026-01-16 05:21:59.97	279.26	16.87	-39.6	-40.8	16.9	0.00e+00	0	33	0	3184525312	44	4378
2026-01-16 05:22:00.98	279.12	16.78	-39.7	-40.8	16.8	0.00e+00	0	33	0	3190816768	44	4389
2026-01-16 05:22:01.99	278.98	16.69	-39.8	-41.0	16.8	0.00e+00	0	33	0	3196059648	44	4458
2026-01-16 05:22:03.00	278.85	16.60	-39.7	-40.9	16.8	0.00e+00	0	34	0	3202351104	44	4441
2026-01-16 05:22:04.00	278.71	16.51	-39.7	-40.9	16.8	0.00e+00	0	33	0	3207593984	44	4436
2026-01-16 05:22:05.02	278.58	16.41	-39.7	-40.9	16.9	0.00e+00	0	33	0	3212836864	44	4434
2026-01-16 05:22:06.02	278.44	16.32	-39.9	-41.1	16.8	0.00e+00	0	33	0	3219128320	44	4510
2026-01-16 05:22:07.03	278.31	16.23	-39.8	-41.0	16.9	0.00e+00	0	33	0	3224371200	44	4474
2026-01-16 05:22:08.04	278.18	16.14	-39.8	-41.0	16.8	0.00e+00	0	33	0	3230662656	44	4466
2026-01-16 05:22:09.05	278.04	16.05	-39.9	-41.1	16.8	0.00e+00	0	33	0	3235905536	44	4504
2026-01-16 05:22:10.06	277.91	15.96	-39.9	-41.1	16.7	0.00e+00	0	33	0	3242196992	45	4286
2026-01-16 05:22:11.07	277.78	15.87	-39.9	-41.2	16.8	0.00e+00	0	33	0	3247439872	45	4298
2026-01-16 05:22:12.08	277.65	15.78	-40.0	-41.3	16.7	0.00e+00	0	33	0	3253731328	45	4348
2026-01-16 05:22:13.09	277.52	15.69	-40.1	-41.3	16.7	0.00e+00	0	33	0	3258974208	45	4375
2026-01-16 05:22:14.10	277.39	15.60	-40.2	-41.5	16.6	0.00e+00	0	33	0	3264217088	45	4445
2026-01-16 05:22:15.11	277.27	15.51	-40.2	-41.5	16.6	0.00e+00	0	33	0	3270508544	45	4451
2026-01-16 05:22:16.12	277.14	15.42	-40.2	-41.5	16.7	0.00e+00	0	33	0	3275751424	45	4463
2026-01-16 05:22:17.13	277.02	15.33	-40.2	-41.4	16.7	0.00e+00	0	33	0	3282042880	45	4441
2026-01-16 05:22:18.14	276.89	15.24	-40.2	-41.4	16.7	0.00e+00	0	33	0	3287285760	45	4427
2026-01-16 05:22:19.15	276.77	15.15	-40.0	-41.3	16.7	0.00e+00	0	33	0	3292528640	45	4350
2026-01-16 05:22:20.16	276.64	15.06	-40.2	-41.4	16.7	0.00e+00	0	33	0	3298820096	45	4429
2026-01-16 05:22:21.17	276.52	14.97	-40.2	-41.4	16.7	0.00e+00	0	33	0	3304062976	45	4428
2026-01-16 05:22:22.18	276.40	14.89	-40.2	-41.4	16.6	0.00e+00	0	34	0	3310354432	45	4438
2026-01-16 05:22:23.19	276.28	14.80	-40.3	-41.5	16.6	0.00e+00	0	33	0	3315597312	45	4481
2026-01-16 05:22:24.20	276.16	14.71	-40.3	-41.5	16.6	0.00e+00	0	33	0	3320840192	45	4469
2026-01-16 05:22:25.21	276.04	14.62	-40.3	-41.5	16.6	0.00e+00	0	33	0	3327131648	45	4470
2026-01-16 05:22:26.22	275.92	14.53	-40.2	-41.4	16.7	0.00e+00	0	33	0	3332374528	45	4422
2026-01-16 05:22:27.23	275.80	14.45	-40.3	-41.6	16.6	0.00e+00	0	33	0	3338665984	45	4500
2026-01-16 05:22:28.23	275.68	14.36	-40.4	-41.7	16.6	0.00e+00	0	33	0	3343908864	45	4554
2026-01-16 05:22:29.24	275.57	14.27	-40.3	-41.6	16.6	0.00e+00	0	33	0	3350200320	45	4525
2026-01-16 05:22:30.25	275.45	14.19	-40.2	-41.5	16.6	0.00e+00	0	33	0	3355443200	45	4444
2026-01-16 05:22:31.26	275.33	14.10	-40.2	-41.5	16.6	0.00e+00	0	33	0	3360686080	45	4453
2026-01-16 05:22:32.27	275.22	14.01	-40.4	-41.7	16.6	0.00e+00	0	33	0	3366977536	45	4551
2026-01-16 05:22:33.28	275.11	13.93	-40.3	-41.6	16.6	0.00e+00	0	33	0	3372220416	45	4497
2026-01-16 05:22:34.29	274.99	13.84	-40.4	-41.6	16.6	0.00e+00	0	33	0	3378511872	45	4535
2026-01-16 05:22:35.30	274.88	13.75	-40.4	-41.6	16.6	0.00e+00	0	33	0	3383754752	46	4271
2026-01-16 05:22:36.31	274.77	13.67	-40.3	-41.6	16.6	0.00e+00	0	33	0	3388997632	46	4266
2026-01-16 05:22:37.32	274.66	13.58	-40.4	-41.6	16.6	0.00e+00	0	33	0	3395289088	46	4275
2026-01-16 05:22:38.33	274.54	13.50	-40.4	-41.7	16.6	0.00e+00	0	33	0	3400531968	46	4310
2026-01-16 05:22:39.34	274.43	13.41	-40.5	-41.8	16.5	0.00e+00	0	33	0	3406823424	46	4376
2026-01-16 05:22:40.35	274.32	13.33	-40.6	-41.9	16.5	0.00e+00	0	33	0	3412066304	46	4422
2026-01-16 05:22:41.36	274.22	13.24	-40.6	-41.9	16.5	0.00e+00	0	33	0	3417309184	46	4429
2026-01-16 05:22:42.37	274.11	13.16	-40.6	-41.9	16.5	0.00e+00	0	33	0	3423600640	46	4413
2026-01-16 05:22:43.38	274.00	13.07	-40.6	-41.9	16.5	0.00e+00	0	33	0	3428843520	46	4412
2026-01-16 05:22:44.39	273.89	12.99	-40.7	-42.0	16.5	0.00e+00	0	34	0	3435134976	46	4482
2026-01-16 05:22:45.40	273.79	12.91	-40.6	-41.9	16.5	0.00e+00	0	33	0	3440377856	46	4423
2026-01-16 05:22:46.41	273.68	12.82	-40.7	-42.0	16.4	0.00e+00	0	33	0	3446669312	46	4474
2026-01-16 05:22:47.42	273.58	12.74	-40.5	-41.8	16.5	0.00e+00	0	33	0	3451912192	46	4368
2026-01-16 05:22:48.43	273.47	12.66	-40.6	-41.9	16.5	0.00e+00	0	33	0	3458203648	46	4393
2026-01-16 05:22:49.44	273.37	12.57	-40.8	-42.1	16.4	0.00e+00	0	33	0	3463446528	46	4535
2026-01-16 05:22:50.45	273.26	12.49	-40.9	-42.2	16.4	0.00e+00	0	33	0	3468689408	46	4581
2026-01-16 05:22:51.46	273.16	12.41	-40.7	-42.0	16.5	0.00e+00	0	33	0	3474980864	46	4451
2026-01-16 05:22:52.47	273.06	12.32	-40.8	-42.1	16.4	0.00e+00	0	33	0	3480223744	46	4545
2026-01-16 05:22:53.48	272.96	12.24	-40.8	-42.1	16.4	0.00e+00	0	33	0	3486515200	46	4523
2026-01-16 05:22:54.49	272.86	12.16	-40.8	-42.1	16.4	0.00e+00	0	33	0	3491758080	46	4516
2026-01-16 05:22:55.49	272.76	12.08	-40.8	-42.1	16.4	0.00e+00	0	33	0	3497000960	46	4536
2026-01-16 05:22:56.51	272.66	11.99	-40.9	-42.2	16.4	0.00e+00	0	33	0	3503292416	46	4586
2026-01-16 05:22:57.51	272.56	11.91	-40.8	-42.1	16.4	0.00e+00	0	33	0	3508535296	47	4261
2026-01-16 05:22:58.52	272.46	11.83	-40.9	-42.2	16.4	0.00e+00	0	33	0	3514826752	47	4313
2026-01-16 05:22:59.53	272.36	11.75	-40.8	-42.2	16.4	0.00e+00	0	33	0	3520069632	47	4302
2026-01-16 05:23:00.54	272.26	11.67	-40.8	-42.1	16.4	0.00e+00	0	33	0	3525312512	47	4261
2026-01-16 05:23:01.55	272.17	11.59	-40.8	-42.1	16.4	0.00e+00	0	33	0	3531603968	47	4283
2026-01-16 05:23:02.56	272.07	11.51	-40.8	-42.2	16.4	0.00e+00	0	34	0	3536846848	47	4303
2026-01-16 05:23:03.57	271.98	11.43	-40.8	-42.1	16.4	0.00e+00	0	33	0	3543138304	47	4287
2026-01-16 05:23:04.58	271.88	11.35	-40.9	-42.2	16.4	0.00e+00	0	33	0	3548381184	47	4319
2026-01-16 05:23:05.59	271.79	11.27	-40.8	-42.1	16.4	0.00e+00	0	33	0	3554672640	47	4277
2026-01-16 05:23:06.60	271.69	11.19	-40.9	-42.2	16.4	0.00e+00	0	33	0	3559915520	47	4311
2026-01-16 05:23:07.61	271.60	11.11	-41.1	-42.4	16.3	0.00e+00	0	33	0	3565158400	47	4431
2026-01-16 05:23:08.62	271.50	11.03	-41.0	-42.3	16.3	0.00e+00	0	33	0	3571449856	47	4375
2026-01-16 05:23:09.63	271.41	10.95	-41.2	-42.5	16.2	0.00e+00	0	33	0	3576692736	47	4487
2026-01-16 05:23:10.64	271.32	10.87	-40.9	-42.3	16.3	0.00e+00	0	33	0	3582984192	47	4350
2026-01-16 05:23:11.65	271.23	10.79	-40.8	-42.1	16.4	0.00e+00	0	33	0	3588227072	47	4266
2026-01-16 05:23:12.66	271.14	10.71	-41.0	-42.3	16.3	0.00e+00	0	33	0	3593469952	47	4370
2026-01-16 05:23:13.66	271.05	10.63	-40.8	-42.2	16.3	0.00e+00	0	33	0	3599761408	47	4306
2026-01-16 05:23:14.68	270.96	10.55	-40.9	-42.2	16.3	0.00e+00	0	33	0	3605004288	47	4332
2026-01-16 05:23:15.68	270.87	10.47	-41.0	-42.4	16.2	0.00e+00	0	33	0	3611295744	47	4423
2026-01-16 05:23:16.69	270.78	10.40	-41.2	-42.6	16.1	0.00e+00	0	34	0	3616538624	47	4516
2026-01-16 05:23:17.71	270.69	10.32	-41.8	-43.2	16.0	0.00e+00	0	33	0	3621781504	48	4582
2026-01-16 05:23:18.71	270.60	10.24	-42.1	-43.6	15.8	0.00e+00	0	33	0	3628072960	49	4497
2026-01-16 05:23:19.72	270.51	10.16	-42.3	-43.8	15.7	0.00e+00	0	33	0	3633315840	49	4628
2026-01-16 05:23:20.73	270.43	10.08	-42.5	-44.1	15.5	0.00e+00	0	33	0	3639607296	50	4517
2026-01-16 05:23:21.74	270.34	10.01	-42.7	-44.3	15.4	0.00e+00	0	33	0	3644850176	50	4641
2026-01-16 05:23:22.75	270.25	9.93	-42.9	-44.5	15.2	0.00e+00	0	33	0	3651141632	50	4750
2026-01-16 05:23:23.76	270.17	9.85	-42.9	-44.5	15.2	0.00e+00	0	33	0	3656384512	50	4742
2026-01-16 05:23:24.77	270.08	9.78	-43.1	-44.8	15.1	0.00e+00	0	33	0	3661627392	51	4611
2026-01-16 05:23:25.78	270.00	9.70	-43.0	-44.7	15.1	0.00e+00	0	33	0	3667918848	51	4577
2026-01-16 05:23:26.79	269.91	9.62	-43.3	-45.0	14.9	0.00e+00	0	33	0	3673161728	51	4745
2026-01-16 05:23:27.80	269.83	9.55	-43.4	-45.3	14.7	0.00e+00	0	33	0	3679453184	52	4605
2026-01-16 05:23:28.81	269.75	9.47	-43.6	-45.5	14.5	0.00e+00	0	34	0	3684696064	52	4735
