passes_logs/2026/01/16/R3.2S_Murmansk_2ch/R3.2S_Murmansk_2ch__20260116_102216_TY-42_rec.log

#Pass ID: 20260116_102216_TY-42
#Satellite: TY-42
#Configuration: TY-42_900M
#almurnet v.1.7.20251203
#Start time: 2026-01-16 10:22:16

#Version: 2.2.20231116
#Station: R3.2S_Murmansk_2ch
#Location: 33.079688 lon 68.888172 lat
#TLE: 1 64048U 25103A   26016.24410880  .00008011  00000-0  38191-3 0 09990
#TLE: 2 64048 097.4123 091.6382 0001701 090.6906 049.3125 15.19172310 37002

#Time	Az	El	Level	Level2	SNR	BER	BlckErr	Temp	State	Recorded	gain1	gain2
2026-01-16 10:22:16.23	21.84	2.00	-49.6	-52.7	6.3	0.00e+00	0	38	0	0	66	20151
2026-01-16 10:22:17.24	21.80	2.07	-49.6	-52.8	6.2	0.00e+00	0	38	104	0	66	20222
2026-01-16 10:22:18.25	21.76	2.14	-49.6	-52.8	6.2	0.00e+00	0	38	104	0	66	20274
2026-01-16 10:22:19.26	21.72	2.21	-49.6	-52.8	6.2	0.00e+00	0	38	104	0	66	20227
2026-01-16 10:22:20.27	21.69	2.28	-49.6	-52.8	6.2	0.00e+00	0	38	104	0	66	20206
2026-01-16 10:22:21.27	21.65	2.35	-49.6	-52.8	6.2	0.00e+00	0	38	104	0	66	20226
2026-01-16 10:22:22.28	21.61	2.42	-49.6	-52.8	6.2	0.00e+00	0	38	104	0	66	20249
2026-01-16 10:22:23.29	21.57	2.49	-49.6	-52.8	6.2	0.00e+00	0	38	104	0	66	20249
2026-01-16 10:22:24.30	21.53	2.56	-49.6	-52.8	6.2	0.00e+00	0	38	104	0	66	20238
2026-01-16 10:22:25.31	21.49	2.63	-49.6	-52.8	6.2	0.00e+00	0	38	104	0	66	20255
2026-01-16 10:22:26.32	21.45	2.70	-49.6	-52.8	6.2	0.00e+00	0	38	104	0	66	20321
2026-01-16 10:22:27.33	21.41	2.77	-49.7	-52.8	6.2	0.00e+00	0	39	104	0	66	20316
2026-01-16 10:22:28.33	21.37	2.84	-49.6	-52.8	6.2	0.00e+00	0	39	104	0	66	20247
2026-01-16 10:22:29.34	21.32	2.91	-49.7	-52.8	6.2	0.00e+00	0	39	104	0	66	20247
2026-01-16 10:22:30.35	21.28	2.99	-49.7	-52.8	6.2	0.00e+00	0	39	104	0	66	20318
2026-01-16 10:22:31.36	21.24	3.06	-49.7	-52.8	6.2	0.00e+00	0	39	104	0	66	20311
2026-01-16 10:22:32.37	21.20	3.13	-49.7	-52.8	6.2	0.00e+00	0	39	104	0	66	20294
2026-01-16 10:22:33.38	21.16	3.20	-49.7	-52.8	6.2	0.00e+00	0	39	104	0	66	20266
2026-01-16 10:22:34.38	21.11	3.27	-49.7	-52.8	6.2	0.00e+00	0	39	104	0	66	20324
2026-01-16 10:22:35.39	21.07	3.35	-49.7	-52.8	6.2	0.00e+00	0	39	104	0	66	20343
2026-01-16 10:22:36.40	21.03	3.42	-49.7	-52.8	6.2	0.00e+00	0	39	104	0	66	20284
2026-01-16 10:22:37.41	20.98	3.49	-49.7	-52.8	6.2	0.00e+00	0	39	104	0	66	20275
2026-01-16 10:22:38.42	20.94	3.57	-49.7	-52.8	6.2	0.00e+00	0	39	104	0	66	20292
2026-01-16 10:22:39.43	20.89	3.64	-49.7	-52.8	6.2	0.00e+00	0	39	104	0	66	20247
2026-01-16 10:22:40.44	20.85	3.71	-49.7	-52.8	6.2	0.00e+00	0	39	104	0	66	20299
2026-01-16 10:22:41.45	20.81	3.79	-49.7	-52.8	6.2	0.00e+00	0	39	104	0	66	20344
2026-01-16 10:22:42.46	20.76	3.86	-49.7	-52.8	6.2	0.00e+00	0	39	104	0	66	20312
2026-01-16 10:22:43.47	20.71	3.94	-49.7	-52.8	6.2	0.00e+00	0	39	104	0	66	20351
2026-01-16 10:22:44.48	20.67	4.01	-49.7	-52.8	6.2	0.00e+00	0	39	104	0	66	20344
2026-01-16 10:22:45.49	20.62	4.09	-49.7	-52.8	6.2	0.00e+00	0	40	104	0	66	20318
2026-01-16 10:22:46.50	20.58	4.16	-49.7	-52.8	6.2	0.00e+00	0	39	104	0	66	20396
2026-01-16 10:22:47.50	20.53	4.24	-49.7	-52.8	6.2	0.00e+00	0	40	104	0	66	20269
2026-01-16 10:22:48.51	20.48	4.31	-49.7	-52.8	6.2	0.00e+00	0	40	104	0	66	20363
2026-01-16 10:22:49.52	20.44	4.39	-49.7	-52.8	6.2	0.00e+00	0	40	104	0	66	20378
2026-01-16 10:22:50.53	20.39	4.47	-49.7	-52.8	6.2	0.00e+00	0	40	104	0	66	20248
2026-01-16 10:22:51.54	20.34	4.54	-49.7	-52.8	6.2	0.00e+00	0	40	104	0	66	20297
2026-01-16 10:22:52.55	20.29	4.62	-49.7	-52.8	6.2	0.00e+00	0	40	104	0	66	20328
2026-01-16 10:22:53.56	20.24	4.70	-49.7	-52.8	6.2	0.00e+00	0	40	104	0	66	20351
2026-01-16 10:22:54.57	20.19	4.77	-49.7	-52.8	6.2	0.00e+00	0	40	104	0	66	20393
2026-01-16 10:22:55.58	20.14	4.85	-49.7	-52.8	6.2	0.00e+00	0	40	104	0	66	20332
2026-01-16 10:22:56.59	20.09	4.93	-49.7	-52.8	6.2	0.00e+00	0	40	104	0	66	20338
2026-01-16 10:22:57.60	20.04	5.01	-49.7	-52.9	6.2	0.00e+00	0	40	104	0	66	20429
2026-01-16 10:22:58.61	19.99	5.09	-50.0	-53.1	6.2	0.00e+00	0	40	104	0	66	21030
2026-01-16 10:22:59.61	19.94	5.17	-49.8	-53.0	6.2	0.00e+00	0	40	104	0	66	20700
2026-01-16 10:23:00.62	19.89	5.25	-49.7	-52.8	6.2	0.00e+00	0	40	104	0	66	20394
2026-01-16 10:23:01.63	19.84	5.33	-49.8	-53.0	6.2	0.00e+00	0	40	104	0	66	20731
2026-01-16 10:23:02.64	19.79	5.41	-49.7	-52.8	6.2	0.00e+00	0	40	104	0	66	20322
2026-01-16 10:23:03.65	19.73	5.49	-49.9	-53.0	6.2	0.00e+00	0	40	104	0	66	20766
2026-01-16 10:23:04.65	19.68	5.57	-49.7	-52.9	6.2	0.00e+00	0	40	104	0	66	20450
2026-01-16 10:23:05.66	19.63	5.65	-49.9	-53.1	6.2	0.00e+00	0	40	104	0	66	20899
2026-01-16 10:23:06.67	19.57	5.73	-49.8	-52.9	6.2	0.00e+00	0	40	104	0	66	20571
2026-01-16 10:23:07.68	19.52	5.81	-49.9	-53.1	6.2	0.00e+00	0	40	104	0	66	20916
2026-01-16 10:23:08.69	19.47	5.89	-49.8	-52.9	6.2	0.00e+00	0	40	104	0	66	20625
2026-01-16 10:23:09.69	19.41	5.97	-49.9	-53.1	6.2	0.00e+00	0	40	104	0	66	20972
2026-01-16 10:23:10.70	19.36	6.05	-49.8	-53.0	6.2	0.00e+00	0	40	104	0	66	20743
2026-01-16 10:23:11.71	19.30	6.14	-50.0	-53.1	6.2	0.00e+00	0	40	104	0	66	21090
2026-01-16 10:23:12.72	19.24	6.22	-49.9	-53.0	6.2	0.00e+00	0	41	104	0	66	20754
2026-01-16 10:23:13.73	19.19	6.30	-50.0	-53.2	6.2	0.00e+00	0	40	104	0	66	21145
2026-01-16 10:23:14.74	19.13	6.39	-49.9	-53.0	6.2	0.00e+00	0	40	104	0	66	20798
2026-01-16 10:23:15.75	19.07	6.47	-50.0	-53.1	6.2	0.00e+00	0	40	104	0	66	21101
2026-01-16 10:23:16.76	19.01	6.56	-49.9	-53.1	6.2	0.00e+00	0	41	104	0	66	20877
2026-01-16 10:23:17.77	18.96	6.64	-50.1	-53.2	6.2	0.00e+00	0	40	104	0	66	21223
2026-01-16 10:23:18.78	18.90	6.73	-49.9	-53.1	6.2	0.00e+00	0	41	104	0	66	20958
2026-01-16 10:23:19.79	18.84	6.81	-50.1	-53.2	6.2	0.00e+00	0	41	104	0	66	21285
2026-01-16 10:23:20.80	18.78	6.90	-50.0	-53.1	6.2	0.00e+00	0	40	104	0	66	21056
2026-01-16 10:23:21.81	18.72	6.98	-50.1	-53.3	6.2	0.00e+00	0	41	104	0	66	21384
2026-01-16 10:23:22.81	18.66	7.07	-50.0	-53.1	6.2	0.00e+00	0	41	104	0	66	21075
2026-01-16 10:23:23.83	18.59	7.16	-50.1	-53.3	6.2	0.00e+00	0	41	104	0	66	21460
2026-01-16 10:23:24.84	18.53	7.24	-50.0	-53.2	6.2	0.00e+00	0	41	104	0	66	21118
2026-01-16 10:23:25.84	18.47	7.33	-50.2	-53.3	6.2	0.00e+00	0	41	104	0	66	21427
2026-01-16 10:23:26.85	18.41	7.42	-50.0	-53.2	6.2	0.00e+00	0	41	104	0	66	21240
2026-01-16 10:23:27.86	18.34	7.51	-50.2	-53.3	6.2	0.00e+00	0	41	104	0	66	21472
2026-01-16 10:23:28.87	18.28	7.60	-50.1	-53.2	6.2	0.00e+00	0	41	104	0	66	21285
2026-01-16 10:23:29.88	18.22	7.68	-50.2	-53.3	6.2	0.00e+00	0	41	104	0	66	21552
2026-01-16 10:23:30.89	18.15	7.77	-50.1	-53.2	6.2	0.00e+00	0	41	104	0	66	21343
2026-01-16 10:23:31.90	18.09	7.86	-50.2	-53.4	6.2	0.00e+00	0	41	104	0	66	21688
2026-01-16 10:23:32.91	18.02	7.95	-50.1	-53.3	6.2	0.00e+00	0	41	104	0	66	21409
2026-01-16 10:23:33.92	17.95	8.04	-50.2	-53.4	6.2	0.00e+00	0	41	104	0	66	21655
2026-01-16 10:23:34.92	17.89	8.14	-50.2	-53.3	6.2	0.00e+00	0	41	104	0	66	21416
2026-01-16 10:23:35.93	17.82	8.23	-50.3	-53.4	6.2	0.00e+00	0	41	104	0	66	21723
2026-01-16 10:23:36.94	17.75	8.32	-50.2	-53.3	6.2	0.00e+00	0	41	104	0	66	21564
2026-01-16 10:23:37.95	17.68	8.41	-50.3	-53.4	6.2	0.00e+00	0	41	104	0	66	21805
2026-01-16 10:23:38.96	17.61	8.50	-46.7	-48.1	7.2	0.00e+00	0	41	104	0	60	16585
2026-01-16 10:23:39.97	17.54	8.60	-38.7	-39.1	11.2	0.00e+00	0	42	0	33554432	44	14915
2026-01-16 10:23:40.98	17.47	8.69	-46.9	-48.4	7.1	0.00e+00	0	42	104	92274688	60	17244
2026-01-16 10:23:41.99	17.40	8.78	-39.0	-39.4	11.1	0.00e+00	4	42	0	109051904	43	16371
2026-01-16 10:23:43.00	17.33	8.88	-46.4	-47.6	7.4	0.00e+00	0	42	104	159383552	60	15789
2026-01-16 10:23:44.01	17.26	8.97	-38.7	-39.2	11.2	0.00e+00	0	42	0	176160768	44	14975
2026-01-16 10:23:45.02	17.19	9.07	-47.0	-48.4	7.1	8.74e-02	0	42	104	226492416	60	17258
2026-01-16 10:23:46.03	17.11	9.16	-39.2	-39.7	11.0	0.00e+00	55	43	0	251658240	44	15868
2026-01-16 10:23:47.03	17.04	9.26	-46.2	-47.4	7.6	0.00e+00	0	42	104	301989888	59	16233
2026-01-16 10:23:48.05	16.96	9.36	-38.9	-39.3	11.2	0.00e+00	5	43	0	310378496	43	16188
2026-01-16 10:23:49.05	16.89	9.45	-46.6	-48.0	7.3	0.00e+00	0	42	104	352321536	60	16400
2026-01-16 10:23:50.06	16.81	9.55	-39.0	-39.4	11.1	0.00e+00	0	43	0	385875968	43	16363
2026-01-16 10:23:51.07	16.74	9.65	-46.0	-47.1	7.7	0.00e+00	0	42	104	436207616	59	15808
2026-01-16 10:23:52.08	16.66	9.75	-39.0	-39.4	11.1	0.00e+00	44	43	0	461373440	43	16347
2026-01-16 10:23:53.09	16.58	9.85	-46.5	-47.8	7.5	0.00e+00	0	42	104	503316480	59	16990
2026-01-16 10:23:54.10	16.50	9.95	-39.3	-39.7	11.0	2.87e-02	50	43	0	536870912	44	16002
2026-01-16 10:23:55.11	16.42	10.05	-44.8	-46.2	8.0	0.00e+00	0	42	104	587202560	57	15998
2026-01-16 10:23:56.12	16.34	10.15	-38.9	-39.4	11.1	0.00e+00	333	43	0	603979776	43	16262
2026-01-16 10:23:57.13	16.26	10.25	-46.2	-47.4	7.6	0.00e+00	0	42	104	645922816	59	16278
2026-01-16 10:23:58.14	16.18	10.35	-40.2	-40.3	10.8	0.00e+00	1437	43	0	679477248	45	16027
2026-01-16 10:23:59.15	16.10	10.45	-43.8	-45.2	8.5	0.00e+00	0	43	104	721420288	55	15851
2026-01-16 10:24:00.16	16.02	10.55	-39.1	-39.5	11.1	0.00e+00	51	43	0	746586112	43	16545
2026-01-16 10:24:01.16	15.93	10.65	-45.9	-47.0	7.8	0.00e+00	15	43	104	780140544	59	15613
2026-01-16 10:24:02.17	15.85	10.76	-39.3	-39.7	11.1	0.00e+00	26	43	0	822083584	44	16007
2026-01-16 10:24:03.18	15.76	10.86	-43.6	-44.4	8.8	0.00e+00	60	43	104	864026624	54	15328
2026-01-16 10:24:04.19	15.68	10.97	-39.5	-40.0	10.9	0.00e+00	972	44	0	889192448	44	16550
2026-01-16 10:24:05.20	15.59	11.07	-45.6	-46.7	7.9	0.00e+00	0	43	104	922746880	58	15913
2026-01-16 10:24:06.21	15.50	11.18	-40.1	-40.6	10.6	0.00e+00	2951	44	0	956301312	45	16678
2026-01-16 10:24:07.22	15.42	11.28	-43.5	-44.2	8.9	0.00e+00	60	43	104	998244352	54	15037
2026-01-16 10:24:08.23	15.33	11.39	-40.2	-40.8	10.5	0.00e+00	3967	44	0	1023410176	46	16074
2026-01-16 10:24:09.24	15.24	11.50	-45.0	-45.8	8.3	0.00e+00	0	43	104	1056964608	57	15282
2026-01-16 10:24:10.25	15.15	11.60	-40.3	-40.9	10.5	0.00e+00	4092	44	0	1107296256	46	16228
2026-01-16 10:24:11.26	15.06	11.71	-42.6	-43.2	9.2	0.00e+00	294	43	104	1149239296	52	15006
2026-01-16 10:24:12.27	14.96	11.82	-39.8	-40.3	10.8	0.00e+00	865	44	0	1182793728	45	16050
2026-01-16 10:24:13.28	14.87	11.93	-43.6	-44.3	8.9	0.00e+00	0	43	104	1207959552	54	15199
2026-01-16 10:24:14.28	14.78	12.04	-40.6	-41.2	10.3	0.00e+00	5286	44	0	1249902592	46	16787
2026-01-16 10:24:15.30	14.68	12.15	-41.7	-42.2	9.5	0.00e+00	534	43	104	1291845632	50	15088
2026-01-16 10:24:16.30	14.58	12.26	-40.5	-41.1	10.4	0.00e+00	4385	44	0	1358954496	46	16695
2026-01-16 10:24:17.31	14.49	12.37	-43.4	-44.0	9.0	0.00e+00	882	44	104	1392508928	54	14768
2026-01-16 10:24:18.32	14.39	12.48	-40.3	-40.9	10.5	0.00e+00	4587	44	0	1426063360	46	16236
2026-01-16 10:24:19.33	14.29	12.60	-40.5	-41.0	10.1	0.00e+00	2707	44	104	1459617792	48	14688
2026-01-16 10:24:20.34	14.19	12.71	-42.1	-42.7	10.0	5.08e-02	5511	45	0	1543503872	48	17893
2026-01-16 10:24:21.35	14.09	12.83	-42.1	-42.6	9.5	0.00e+00	0	43	104	1568669696	51	14822
2026-01-16 10:24:22.36	13.99	12.94	-40.7	-41.2	10.3	4.39e-02	5500	45	0	1610612736	46	16899
2026-01-16 10:24:23.37	13.89	13.06	-39.2	-39.7	9.8	0.00e+00	639	44	104	1652555776	45	15015
2026-01-16 10:24:24.37	13.78	13.17	-40.8	-41.4	10.2	0.00e+00	5431	44	0	1728053248	47	16373
2026-01-16 10:24:25.38	13.68	13.29	-39.1	-39.6	10.3	0.00e+00	1212	44	104	1761607680	45	14781
2026-01-16 10:24:26.39	13.57	13.40	-40.8	-41.4	10.2	0.00e+00	5512	45	0	1845493760	47	16231
2026-01-16 10:24:27.40	13.47	13.52	-38.3	-38.7	10.0	0.00e+00	225	44	104	1879048192	43	15091
2026-01-16 10:24:28.41	13.36	13.64	-41.7	-42.5	10.0	0.00e+00	5514	45	0	1954545664	48	17512
2026-01-16 10:24:29.42	13.25	13.76	-38.8	-39.2	10.1	0.00e+00	180	44	104	1979711488	45	14231
2026-01-16 10:24:30.43	13.14	13.88	-41.7	-42.5	10.0	0.00e+00	5507	45	0	2063597568	48	17406
2026-01-16 10:24:31.44	13.03	14.00	-37.7	-38.0	11.9	0.00e+00	0	45	0	2105540608	42	14771
2026-01-16 10:24:32.45	12.92	14.12	-42.8	-43.5	9.7	8.99e-02	5508	45	0	2214592512	51	16447
2026-01-16 10:24:33.46	12.80	14.24	-37.5	-37.8	11.2	0.00e+00	5511	45	104	2239758336	42	14363
2026-01-16 10:24:34.47	12.69	14.37	-41.1	-41.7	10.1	0.00e+00	5510	45	0	2323644416	47	16827
2026-01-16 10:24:35.48	12.57	14.49	-37.3	-37.6	11.2	0.00e+00	5509	44	104	2348810240	41	14945
2026-01-16 10:24:36.49	12.46	14.61	-43.6	-44.3	9.3	0.00e+00	5512	45	0	2432696320	52	17030
2026-01-16 10:24:37.50	12.34	14.74	-36.3	-37.1	11.5	0.00e+00	3782	45	104	2457862144	40	14817
2026-01-16 10:24:38.50	12.22	14.86	-42.4	-43.1	9.9	0.00e+00	5514	45	0	2550136832	50	16588
2026-01-16 10:24:39.51	12.10	14.99	-37.1	-37.5	12.3	0.00e+00	0	45	0	2592079872	41	14630
2026-01-16 10:24:40.52	11.98	15.12	-43.3	-43.9	9.4	0.00e+00	5519	45	0	2701131776	52	16359
2026-01-16 10:24:41.53	11.86	15.25	-36.0	-36.3	11.5	0.00e+00	4650	45	104	2734686208	39	14356
2026-01-16 10:24:42.54	11.73	15.37	-42.8	-43.4	9.7	3.35e-03	5528	45	0	2818572288	51	16366
2026-01-16 10:24:43.55	11.61	15.50	-36.5	-36.9	12.6	0.00e+00	0	45	0	2860515328	40	14507
2026-01-16 10:24:44.56	11.48	15.63	-43.7	-44.4	9.1	0.00e+00	5517	46	0	2977955840	53	16381
2026-01-16 10:24:45.57	11.35	15.76	-34.8	-35.4	13.1	5.20e-02	0	45	0	3011510272	37	14480
2026-01-16 10:24:46.57	11.22	15.89	-42.4	-43.0	9.9	5.20e-02	5513	45	0	3120562176	50	16579
2026-01-16 10:24:47.58	11.09	16.03	-35.9	-36.2	12.8	0.00e+00	0	45	0	3162505216	39	14218
2026-01-16 10:24:48.59	10.96	16.16	-43.6	-44.4	9.2	0.00e+00	5522	46	0	3279945728	52	17233
2026-01-16 10:24:49.60	10.83	16.29	-31.8	-32.1	13.3	0.00e+00	0	45	0	3321888768	35	11119
2026-01-16 10:24:50.61	10.69	16.43	-42.6	-43.1	9.8	1.09e-03	5411	46	0	3430940672	50	16770
2026-01-16 10:24:51.62	10.55	16.56	-35.4	-35.8	13.2	1.09e-03	0	45	0	3548381184	38	14294
2026-01-16 10:24:52.63	10.42	16.70	-43.7	-44.4	9.2	2.07e-01	5513	46	0	3665821696	53	16297
2026-01-16 10:24:53.63	10.28	16.84	-30.7	-31.0	13.9	2.07e-01	0	45	0	3774873600	28	14687
2026-01-16 10:24:54.64	10.14	16.97	-42.8	-43.4	9.7	2.07e-01	5403	46	0	3883925504	51	16374
2026-01-16 10:24:55.65	9.99	17.11	-34.9	-35.2	13.4	3.23e-01	0	45	0	4001366016	37	14185
2026-01-16 10:24:56.66	9.85	17.25	-43.3	-44.0	9.4	3.23e-01	5401	46	0	4110417920	52	16455
2026-01-16 10:24:57.67	9.70	17.39	-30.6	-30.9	14.0	2.32e-01	0	46	0	4227858432	28	14568
2026-01-16 10:24:58.68	9.56	17.53	-43.1	-43.7	9.6	2.32e-01	5399	46	0	4345298944	51	16952
2026-01-16 10:24:59.69	9.41	17.68	-31.8	-32.1	13.5	2.24e-01	0	46	0	4454350848	33	12532
2026-01-16 10:25:00.70	9.26	17.82	-43.4	-44.0	9.4	2.24e-01	5402	46	0	4571791360	52	16542
2026-01-16 10:25:01.71	9.10	17.96	-29.8	-30.1	14.3	2.04e-01	0	46	0	4680843264	26	14873
2026-01-16 10:25:02.72	8.95	18.11	-42.7	-43.3	9.8	2.04e-01	5402	46	0	4789895168	51	16155
2026-01-16 10:25:03.73	8.79	18.26	-31.3	-32.1	13.6	2.04e-01	0	46	0	4907335680	30	14801
2026-01-16 10:25:04.74	8.64	18.40	-43.4	-44.0	9.5	1.52e-01	5511	46	0	5024776192	52	16544
2026-01-16 10:25:05.75	8.48	18.55	-29.5	-29.8	14.4	1.52e-01	0	46	0	5133828096	26	14319
2026-01-16 10:25:06.76	8.31	18.70	-42.8	-43.5	9.8	1.52e-01	5400	46	0	5251268608	51	16430
2026-01-16 10:25:07.77	8.15	18.85	-31.4	-31.7	13.8	2.14e-01	0	46	0	5360320512	30	14163
2026-01-16 10:25:08.78	7.99	19.00	-43.1	-43.7	9.6	2.14e-01	5512	47	0	5477761024	52	15977
2026-01-16 10:25:09.78	7.82	19.15	-29.1	-29.3	14.5	2.14e-01	0	46	0	5595201536	25	14426
2026-01-16 10:25:10.79	7.65	19.30	-42.9	-43.5	9.8	1.06e-01	5509	47	0	5704253440	51	16427
2026-01-16 10:25:11.80	7.48	19.45	-30.9	-31.2	14.0	1.06e-01	0	46	0	5813305344	29	14151
2026-01-16 10:25:12.81	7.31	19.61	-43.1	-43.7	9.7	1.06e-01	5404	47	0	5930745856	51	16865
2026-01-16 10:25:13.82	7.13	19.76	-28.7	-28.9	14.6	2.37e-01	0	46	0	6039797760	24	14597
2026-01-16 10:25:14.83	6.95	19.92	-42.4	-43.0	10.1	2.37e-01	5511	47	0	6157238272	50	16489
2026-01-16 10:25:15.84	6.77	20.08	-30.6	-30.9	14.1	2.37e-01	0	46	0	6274678784	28	14441
2026-01-16 10:25:16.85	6.59	20.23	-42.7	-43.3	9.9	4.96e-02	5513	47	0	6383730688	51	16133
2026-01-16 10:25:17.85	6.41	20.39	-28.3	-28.6	14.7	4.96e-02	0	46	0	6501171200	23	14847
2026-01-16 10:25:18.86	6.22	20.55	-42.0	-42.5	10.3	4.96e-02	5403	47	0	6610223104	49	16565
2026-01-16 10:25:19.87	6.04	20.71	-30.2	-30.5	14.3	1.67e-01	0	46	0	6719275008	27	14629
2026-01-16 10:25:20.88	5.85	20.87	-42.4	-43.0	10.1	1.67e-01	5401	47	0	6836715520	50	16450
2026-01-16 10:25:21.89	5.65	21.04	-28.2	-28.5	14.8	1.67e-01	0	46	0	6954156032	23	14699
2026-01-16 10:25:22.90	5.46	21.20	-40.4	-40.9	10.8	7.83e-02	5355	47	0	7063207936	47	15321
2026-01-16 10:25:23.91	5.26	21.37	-29.7	-30.0	14.4	7.83e-02	0	46	0	7180648448	26	14686
2026-01-16 10:25:24.92	5.06	21.53	-42.0	-42.5	10.4	1.03e-01	5403	47	0	7289700352	49	16511
2026-01-16 10:25:25.93	4.86	21.70	-27.9	-28.2	14.8	1.03e-01	0	46	0	7407140864	22	15041
2026-01-16 10:25:26.94	4.65	21.87	-39.6	-40.0	11.3	1.03e-01	301	47	0	7524581376	46	14708
2026-01-16 10:25:27.95	4.44	22.04	-29.5	-29.7	14.5	1.03e-01	0	46	0	7633633280	26	14229
2026-01-16 10:25:28.96	4.23	22.21	-40.9	-41.4	10.5	6.86e-02	5402	47	0	7742685184	47	16325
2026-01-16 10:25:29.96	4.02	22.37	-27.7	-27.9	14.9	6.86e-02	0	46	0	7860125696	21	15369
2026-01-16 10:25:30.97	3.81	22.55	-39.2	-39.6	11.5	6.86e-02	0	46	0	7969177600	45	14800
2026-01-16 10:25:31.98	3.59	22.72	-29.1	-29.3	14.7	6.86e-02	0	46	0	8086618112	25	14428
2026-01-16 10:25:32.99	3.37	22.89	-40.6	-41.0	10.8	7.78e-02	5293	47	0	8204058624	47	15618
2026-01-16 10:25:34.00	3.14	23.07	-27.7	-28.0	14.9	7.78e-02	0	46	0	8313110528	21	15517
2026-01-16 10:25:35.01	2.92	23.25	-38.6	-38.9	11.9	8.50e-02	0	46	0	8430551040	44	14592
2026-01-16 10:25:36.02	2.69	23.42	-29.0	-29.3	14.7	8.50e-02	0	46	0	8539602944	25	14333
2026-01-16 10:25:37.03	2.45	23.60	-40.1	-40.5	11.1	8.50e-02	359	47	0	8657043456	46	15568
2026-01-16 10:25:38.04	2.22	23.78	-27.9	-28.1	15.0	8.50e-02	0	46	0	8766095360	21	15733
2026-01-16 10:25:39.05	1.98	23.96	-37.9	-38.2	12.4	4.69e-02	0	46	0	8883535872	43	14163
2026-01-16 10:25:40.06	1.74	24.14	-28.7	-28.9	14.9	4.69e-02	0	46	0	8992587776	24	14589
2026-01-16 10:25:41.06	1.50	24.32	-39.9	-40.3	11.3	5.61e-02	15	46	0	9110028288	46	15206
2026-01-16 10:25:42.08	1.24	24.51	-28.0	-28.3	15.0	5.61e-02	0	46	0	9227468800	21	16031
2026-01-16 10:25:43.08	1.00	24.69	-37.0	-37.3	12.9	5.61e-02	0	46	0	9336520704	41	14285
2026-01-16 10:25:44.09	0.74	24.88	-28.7	-28.9	14.9	5.61e-02	0	46	0	9453961216	24	14598
2026-01-16 10:25:45.10	0.48	25.06	-39.3	-39.7	11.6	4.31e-02	0	46	0	9563013120	46	14223
2026-01-16 10:25:46.11	0.22	25.25	-27.7	-28.0	15.1	4.31e-02	0	46	0	9672065024	21	15533
2026-01-16 10:25:47.12	359.95	25.44	-36.7	-36.9	13.0	4.31e-02	0	46	0	9789505536	40	14590
2026-01-16 10:25:48.13	359.69	25.63	-28.7	-28.9	14.9	6.18e-02	0	46	0	9906946048	23	15460
2026-01-16 10:25:49.14	359.41	25.82	-38.3	-38.7	12.2	6.18e-02	0	46	0	10015997952	44	14122
2026-01-16 10:25:50.15	359.14	26.01	-28.3	-28.5	14.9	1.52e-02	0	46	0	10133438464	22	15560
2026-01-16 10:25:51.16	358.86	26.20	-35.6	-35.9	13.5	1.52e-02	0	46	0	10242490368	38	14523
2026-01-16 10:25:52.17	358.57	26.40	-28.3	-28.5	15.0	1.52e-02	0	46	0	10359930880	23	14749
2026-01-16 10:25:53.17	358.29	26.59	-37.1	-37.4	12.8	1.35e-02	0	46	0	10477371392	41	14540
2026-01-16 10:25:54.18	358.00	26.78	-28.3	-28.5	15.0	1.35e-02	0	46	0	10586423296	22	15651
2026-01-16 10:25:55.17	357.71	26.98	-34.6	-34.8	13.9	1.35e-02	0	46	0	10695475200	36	14431
2026-01-16 10:25:56.18	357.41	27.17	-28.3	-28.5	15.0	2.59e-02	0	46	0	10812915712	22	15568
2026-01-16 10:25:57.19	357.10	27.37	-36.6	-36.9	13.1	2.59e-02	0	46	0	10921967616	40	14484
2026-01-16 10:25:58.20	356.79	27.57	-27.8	-28.1	15.1	2.59e-02	0	46	0	11039408128	21	15686
2026-01-16 10:25:59.21	356.48	27.77	-31.2	-31.4	14.2	2.51e-02	0	46	0	11156848640	29	14528
2026-01-16 10:26:00.22	356.16	27.97	-28.4	-28.7	15.0	2.51e-02	0	46	0	11265900544	22	15919
2026-01-16 10:26:01.23	355.84	28.17	-34.9	-35.1	13.9	2.51e-02	0	46	0	11383341056	37	14050
2026-01-16 10:26:02.24	355.52	28.37	-28.1	-28.4	15.0	2.26e-02	0	46	0	11492392960	21	16210
2026-01-16 10:26:03.25	355.19	28.58	-30.8	-31.0	14.4	2.26e-02	0	46	0	11601444864	28	14708
2026-01-16 10:26:04.25	354.86	28.78	-27.9	-28.2	15.1	2.26e-02	0	46	0	11718885376	21	15857
2026-01-16 10:26:05.26	354.52	28.98	-30.2	-30.4	14.6	2.26e-02	0	46	0	11836325888	27	14504
2026-01-16 10:26:06.27	354.17	29.19	-29.2	-29.0	14.9	1.00e-02	0	46	0	11945377792	23	15588
2026-01-16 10:26:07.28	353.82	29.40	-29.8	-30.0	14.7	1.00e-02	0	46	0	12062818304	26	14665
2026-01-16 10:26:08.29	353.47	29.60	-28.5	-28.8	14.9	1.00e-02	0	46	0	12171870208	22	16045
2026-01-16 10:26:09.30	353.11	29.81	-29.8	-30.0	14.7	1.00e-02	0	46	0	12280922112	27	13854
2026-01-16 10:26:10.31	352.75	30.02	-29.3	-29.6	14.7	1.49e-02	0	46	0	12406751232	24	15667
2026-01-16 10:26:11.31	352.38	30.22	-28.9	-29.1	14.9	1.49e-02	0	46	0	12515803136	25	14040
2026-01-16 10:26:12.32	352.01	30.43	-29.1	-29.3	14.8	1.49e-02	0	46	0	12624855040	23	16161
2026-01-16 10:26:13.33	351.63	30.64	-27.9	-28.1	15.1	1.49e-02	0	46	0	12742295552	23	13968
2026-01-16 10:26:14.34	351.24	30.85	-28.9	-29.1	14.9	8.59e-03	0	46	0	12851347456	23	15800
2026-01-16 10:26:15.35	350.85	31.06	-28.6	-28.9	15.0	8.59e-03	0	46	0	12968787968	24	14455
2026-01-16 10:26:16.35	350.46	31.27	-29.8	-30.0	14.6	8.59e-03	0	46	0	13086228480	25	15639
2026-01-16 10:26:17.36	350.06	31.48	-26.3	-26.5	15.4	1.69e-02	0	46	0	13195280384	20	13864
2026-01-16 10:26:18.37	349.65	31.69	-29.4	-29.6	14.8	1.69e-02	0	46	0	13312720896	24	15758
2026-01-16 10:26:19.38	349.24	31.90	-28.0	-28.2	15.1	1.69e-02	0	46	0	13421772800	23	14223
2026-01-16 10:26:20.39	348.82	32.12	-29.3	-29.6	14.7	3.06e-03	0	46	0	13530824704	24	15719
2026-01-16 10:26:21.39	348.39	32.33	-26.0	-26.2	15.4	3.06e-03	0	46	0	13648265216	19	14126
2026-01-16 10:26:22.40	347.96	32.54	-28.9	-29.1	14.9	3.06e-03	0	46	0	13757317120	23	15801
2026-01-16 10:26:23.41	347.53	32.75	-27.4	-27.6	15.2	6.72e-03	0	46	0	13874757632	22	14107
2026-01-16 10:26:24.42	347.08	32.96	-29.7	-29.9	14.7	6.72e-03	0	46	0	13992198144	24	16380
2026-01-16 10:26:25.43	346.63	33.17	-24.7	-24.9	15.6	6.72e-03	0	46	0	14101250048	16	14588
2026-01-16 10:26:26.44	346.18	33.38	-29.0	-29.2	14.9	6.72e-03	0	46	0	14218690560	23	16011
2026-01-16 10:26:27.45	345.71	33.59	-26.9	-27.2	15.3	5.86e-03	0	46	0	14327742464	21	14146
2026-01-16 10:26:28.46	345.25	33.81	-30.2	-30.4	14.6	5.86e-03	0	46	0	14445182976	25	16380
2026-01-16 10:26:29.47	344.77	34.02	-23.8	-24.1	15.6	5.86e-03	0	46	0	14554234880	15	13967
2026-01-16 10:26:30.47	344.29	34.22	-29.3	-29.6	14.8	5.55e-03	0	46	0	14671675392	24	15720
2026-01-16 10:26:31.48	343.80	34.43	-26.6	-26.8	15.3	5.55e-03	0	46	0	14780727296	20	14349
2026-01-16 10:26:32.49	343.31	34.64	-29.8	-30.1	14.6	1.08e-03	0	46	0	14898167808	25	15696
2026-01-16 10:26:33.50	342.81	34.85	-23.6	-23.8	15.6	1.08e-03	0	46	0	15007219712	14	14341
2026-01-16 10:26:34.51	342.30	35.06	-29.6	-29.9	14.7	1.08e-03	0	46	0	15124660224	24	16280
2026-01-16 10:26:35.52	341.78	35.26	-26.3	-26.6	15.3	2.30e-03	0	46	0	15242100736	19	14811
2026-01-16 10:26:36.53	341.26	35.47	-30.6	-30.9	14.4	2.30e-03	0	46	0	15351152640	26	16280
2026-01-16 10:26:37.54	340.73	35.67	-22.9	-23.1	15.7	2.30e-03	0	46	0	15460204544	13	14014
2026-01-16 10:26:38.55	340.19	35.87	-29.4	-29.6	14.8	3.13e-03	0	46	0	15577645056	24	15755
2026-01-16 10:26:39.55	339.65	36.07	-26.0	-26.3	15.4	3.13e-03	0	46	0	15686696960	19	14286
2026-01-16 10:26:40.56	339.10	36.27	-31.1	-31.3	14.3	3.13e-03	0	46	0	15804137472	27	16159
2026-01-16 10:26:41.57	338.54	36.47	-22.7	-22.9	15.6	1.70e-03	0	46	0	15921577984	12	14529
2026-01-16 10:26:42.58	337.97	36.67	-29.5	-29.7	14.7	1.70e-03	0	46	0	16030629888	24	15975
2026-01-16 10:26:43.59	337.40	36.86	-25.9	-26.1	15.4	1.70e-03	0	46	0	16148070400	19	14045
2026-01-16 10:26:44.60	336.82	37.06	-30.5	-30.8	14.5	3.10e-04	0	46	0	16257122304	26	16108
2026-01-16 10:26:45.61	336.23	37.25	-22.5	-22.7	15.6	3.10e-04	0	46	0	16374562816	12	14231
2026-01-16 10:26:46.62	335.64	37.44	-29.6	-29.8	14.7	3.10e-04	0	46	0	16483614720	24	16161
2026-01-16 10:26:47.63	335.03	37.63	-25.6	-25.8	15.4	1.90e-03	0	46	0	16601055232	18	14432
2026-01-16 10:26:48.63	334.43	37.81	-30.9	-31.1	14.4	1.90e-03	0	46	0	16710107136	27	15829
2026-01-16 10:26:49.64	333.81	37.99	-22.4	-22.6	15.6	1.90e-03	0	46	0	16827547648	12	14104
2026-01-16 10:26:50.65	333.19	38.17	-29.3	-29.5	14.8	1.28e-03	0	46	0	16936599552	24	15583
2026-01-16 10:26:51.66	332.56	38.35	-25.1	-25.3	15.5	1.28e-03	0	46	0	17054040064	17	14358
2026-01-16 10:26:52.67	331.92	38.52	-31.2	-31.5	14.3	1.28e-03	0	46	0	17171480576	28	15545
2026-01-16 10:26:53.68	331.27	38.70	-22.6	-22.8	15.7	3.62e-04	0	46	0	17280532480	12	14346
2026-01-16 10:26:54.69	330.62	38.86	-29.3	-29.5	14.8	3.62e-04	0	46	0	17389584384	24	15580
2026-01-16 10:26:55.70	329.95	39.03	-24.9	-25.1	15.5	3.62e-04	0	46	0	17507024896	17	14004
2026-01-16 10:26:56.71	329.29	39.19	-31.6	-31.9	14.1	1.05e-04	0	46	0	17624465408	28	16253
2026-01-16 10:26:57.72	328.61	39.35	-22.8	-23.0	15.6	1.05e-04	0	46	0	17733517312	11	15521
2026-01-16 10:26:58.73	327.93	39.51	-29.3	-29.5	14.8	8.30e-04	0	45	0	17850957824	24	15562
2026-01-16 10:26:59.73	327.25	39.66	-24.4	-24.7	15.5	8.30e-04	0	45	0	17960009728	16	14113
2026-01-16 10:27:00.75	326.55	39.80	-31.2	-31.4	14.3	8.30e-04	0	46	0	18077450240	27	16328
2026-01-16 10:27:01.76	325.85	39.95	-22.9	-23.1	15.5	6.39e-04	0	46	0	18194890752	11	15827
2026-01-16 10:27:02.76	325.14	40.09	-29.1	-29.3	14.8	6.39e-04	0	46	0	18303942656	23	16136
2026-01-16 10:27:03.77	324.43	40.22	-23.6	-23.9	15.5	6.39e-04	0	45	0	18412994560	14	14445
2026-01-16 10:27:04.78	323.71	40.35	-31.5	-31.8	14.2	6.39e-04	0	46	0	18530435072	28	16044
2026-01-16 10:27:05.79	322.98	40.48	-23.0	-23.2	15.6	5.86e-04	0	45	0	18639486976	12	15089
2026-01-16 10:27:06.80	322.25	40.60	-28.9	-29.1	14.8	5.86e-04	0	46	0	18756927488	23	15758
2026-01-16 10:27:07.81	321.51	40.72	-23.0	-23.2	15.5	5.86e-04	0	45	0	18874368000	13	14205
2026-01-16 10:27:08.82	320.77	40.83	-31.5	-31.8	14.1	3.81e-05	0	46	0	18983419904	28	16110
2026-01-16 10:27:09.83	320.02	40.94	-23.2	-23.4	15.5	3.81e-05	0	46	0	19100860416	12	15310
2026-01-16 10:27:10.84	319.26	41.04	-28.7	-28.9	14.9	1.13e-03	0	46	0	19209912320	23	15414
2026-01-16 10:27:11.85	318.50	41.14	-22.9	-23.1	15.6	1.13e-03	0	46	0	19318964224	13	14053
2026-01-16 10:27:12.86	317.74	41.23	-31.1	-31.3	14.3	2.40e-03	0	46	0	19436404736	28	15294
2026-01-16 10:27:13.87	316.97	41.32	-23.1	-23.4	15.5	2.40e-03	0	46	0	19553845248	12	15298
2026-01-16 10:27:14.88	316.20	41.40	-28.0	-28.2	15.0	2.40e-03	0	46	0	19662897152	22	15030
2026-01-16 10:27:15.89	315.42	41.48	-22.3	-22.5	15.6	2.40e-03	0	46	0	19780337664	11	14688
2026-01-16 10:27:16.90	314.64	41.55	-31.0	-31.2	14.3	1.10e-03	0	46	0	19889389568	27	15945
2026-01-16 10:27:17.91	313.86	41.61	-23.4	-23.6	15.5	1.10e-03	0	46	0	20006830080	13	14936
2026-01-16 10:27:18.92	313.07	41.67	-27.9	-28.1	15.0	1.10e-03	0	46	0	20124270592	22	14863
2026-01-16 10:27:19.92	312.29	41.72	-51.6	-54.8	6.2	2.28e-03	0	45	104	20149436416	69	21457
2026-01-16 10:27:20.93	311.49	41.77	-51.6	-54.8	6.2	2.28e-03	0	45	104	20149436416	69	21422
2026-01-16 10:27:21.94	310.70	41.81	-51.7	-54.8	6.2	2.28e-03	0	45	104	20149436416	69	21451
2026-01-16 10:27:22.95	309.90	41.85	-51.7	-54.8	6.2	2.28e-03	0	45	104	20149436416	69	21500
2026-01-16 10:27:23.96	309.10	41.88	-51.7	-54.8	6.2	2.28e-03	0	45	104	20149436416	69	21509
2026-01-16 10:27:24.97	308.30	41.90	-51.7	-54.8	6.2	2.28e-03	0	45	104	20149436416	69	21501
2026-01-16 10:27:25.98	307.50	41.92	-51.7	-54.8	6.2	2.28e-03	0	45	104	20149436416	69	21564
2026-01-16 10:27:26.99	306.70	41.93	-51.7	-54.8	6.2	2.28e-03	0	45	104	20149436416	69	21520
2026-01-16 10:27:28.00	305.90	41.93	-51.7	-54.8	6.2	2.28e-03	0	45	104	20149436416	69	21538
2026-01-16 10:27:29.01	305.10	41.93	-51.7	-54.8	6.2	2.28e-03	0	45	104	20149436416	69	21488
2026-01-16 10:27:30.02	304.29	41.93	-51.7	-54.8	6.2	2.28e-03	0	45	104	20149436416	69	21433
2026-01-16 10:27:31.03	303.49	41.91	-51.7	-54.8	6.2	2.28e-03	0	45	104	20149436416	69	21561
2026-01-16 10:27:32.04	302.69	41.89	-51.7	-54.8	6.2	2.28e-03	0	44	104	20149436416	69	21495
2026-01-16 10:27:33.05	301.89	41.87	-51.7	-54.8	6.2	2.28e-03	0	45	104	20149436416	69	21447
2026-01-16 10:27:34.06	301.09	41.84	-51.7	-54.8	6.2	0.00e+00	0	44	104	20149436416	69	21520
2026-01-16 10:27:35.07	300.30	41.80	-51.7	-54.8	6.2	0.00e+00	0	44	104	20149436416	69	21573
2026-01-16 10:27:36.08	299.50	41.76	-51.7	-54.8	6.2	0.00e+00	0	44	104	20149436416	69	21554
2026-01-16 10:27:37.08	298.72	41.71	-51.7	-54.8	6.2	0.00e+00	0	44	104	20149436416	69	21507
2026-01-16 10:27:38.09	297.93	41.65	-51.7	-54.8	6.2	0.00e+00	0	44	104	20149436416	69	21599
2026-01-16 10:27:39.10	297.14	41.59	-51.7	-54.8	6.2	0.00e+00	0	44	104	20149436416	69	21604
2026-01-16 10:27:40.11	296.36	41.53	-51.7	-54.8	6.2	0.00e+00	0	44	104	20149436416	69	21531
2026-01-16 10:27:41.12	295.58	41.45	-51.7	-54.9	6.2	0.00e+00	0	44	104	20149436416	69	21611
2026-01-16 10:27:42.13	294.80	41.38	-51.7	-54.8	6.2	0.00e+00	0	44	104	20149436416	69	21536
2026-01-16 10:27:43.14	294.03	41.29	-51.7	-54.8	6.2	0.00e+00	0	44	104	20149436416	69	21522
2026-01-16 10:27:44.15	293.26	41.21	-51.7	-54.8	6.2	0.00e+00	0	44	104	20149436416	69	21547
2026-01-16 10:27:45.16	292.50	41.11	-51.7	-54.8	6.2	0.00e+00	0	44	104	20149436416	69	21470
2026-01-16 10:27:46.16	291.74	41.01	-51.7	-54.8	6.2	0.00e+00	0	44	104	20149436416	69	21585
2026-01-16 10:27:47.17	290.99	40.91	-51.7	-54.8	6.2	0.00e+00	0	44	104	20149436416	69	21578
2026-01-16 10:27:48.18	290.24	40.80	-51.7	-54.8	6.2	0.00e+00	0	44	104	20149436416	69	21518
2026-01-16 10:27:49.19	289.50	40.69	-51.7	-54.8	6.2	0.00e+00	0	44	104	20149436416	69	21547
2026-01-16 10:27:50.20	288.76	40.57	-51.7	-54.8	6.2	0.00e+00	0	44	104	20149436416	69	21578
2026-01-16 10:27:51.21	288.03	40.44	-51.7	-54.8	6.2	0.00e+00	0	44	104	20149436416	69	21551
2026-01-16 10:27:52.22	287.30	40.32	-51.7	-54.8	6.2	0.00e+00	0	44	104	20149436416	69	21569
2026-01-16 10:27:53.23	286.58	40.18	-51.7	-54.8	6.2	0.00e+00	0	44	104	20149436416	69	21446
2026-01-16 10:27:54.24	285.87	40.05	-51.7	-54.8	6.2	0.00e+00	0	44	104	20149436416	69	21563
2026-01-16 10:27:55.25	285.16	39.90	-51.7	-54.8	6.2	0.00e+00	0	44	104	20149436416	69	21592
2026-01-16 10:27:56.26	284.46	39.76	-51.7	-54.8	6.2	0.00e+00	0	44	104	20149436416	69	21517
2026-01-16 10:27:57.27	283.76	39.61	-51.7	-54.8	6.2	0.00e+00	0	44	104	20149436416	69	21545
2026-01-16 10:27:58.28	283.08	39.46	-51.7	-54.8	6.2	0.00e+00	0	44	104	20149436416	69	21592
2026-01-16 10:27:59.29	282.40	39.30	-51.7	-54.8	6.2	0.00e+00	0	44	104	20149436416	69	21508
2026-01-16 10:28:00.30	281.72	39.14	-51.7	-54.8	6.2	0.00e+00	0	44	104	20149436416	69	21488
2026-01-16 10:28:01.30	281.06	38.98	-51.7	-54.8	6.2	0.00e+00	0	44	104	20149436416	69	21494
2026-01-16 10:28:02.31	280.40	38.81	-51.7	-54.8	6.2	0.00e+00	0	44	104	20149436416	69	21543
2026-01-16 10:28:03.32	279.75	38.64	-51.7	-54.8	6.2	0.00e+00	0	43	104	20149436416	69	21435
2026-01-16 10:28:04.33	279.10	38.47	-51.7	-54.8	6.2	0.00e+00	0	44	104	20149436416	69	21403
2026-01-16 10:28:05.34	278.47	38.29	-51.7	-54.8	6.2	0.00e+00	0	44	104	20149436416	69	21446
2026-01-16 10:28:06.35	277.83	38.12	-51.7	-54.8	6.2	0.00e+00	0	44	104	20149436416	69	21478
2026-01-16 10:28:07.36	277.21	37.93	-51.7	-54.8	6.2	0.00e+00	0	43	104	20149436416	69	21431
2026-01-16 10:28:08.36	276.60	37.75	-51.7	-54.8	6.2	0.00e+00	0	44	104	20149436416	69	21459
2026-01-16 10:28:09.37	275.99	37.57	-51.6	-54.8	6.2	0.00e+00	0	44	104	20149436416	69	21359
2026-01-16 10:28:10.38	275.39	37.38	-51.6	-54.8	6.2	0.00e+00	0	44	104	20149436416	69	21430
2026-01-16 10:28:11.39	274.79	37.19	-51.6	-54.8	6.2	0.00e+00	0	43	104	20149436416	69	21387
2026-01-16 10:28:12.40	274.21	36.99	-51.6	-54.7	6.2	0.00e+00	0	43	104	20149436416	69	21354
2026-01-16 10:28:13.41	273.63	36.80	-51.6	-54.7	6.2	0.00e+00	0	43	104	20149436416	69	21338
2026-01-16 10:28:14.42	273.05	36.60	-51.6	-54.8	6.2	0.00e+00	0	44	104	20149436416	69	21403
2026-01-16 10:28:15.43	272.49	36.41	-51.6	-54.7	6.2	0.00e+00	0	43	104	20149436416	69	21343
2026-01-16 10:28:16.44	271.93	36.21	-51.6	-54.8	6.2	0.00e+00	0	43	104	20149436416	69	21398
2026-01-16 10:28:17.44	271.39	36.01	-51.6	-54.7	6.2	0.00e+00	0	43	104	20149436416	69	21303
2026-01-16 10:28:18.45	270.84	35.80	-51.6	-54.7	6.2	0.00e+00	0	43	104	20149436416	69	21305
2026-01-16 10:28:19.46	270.30	35.60	-51.6	-54.7	6.2	0.00e+00	0	44	104	20149436416	69	21237
2026-01-16 10:28:20.47	269.78	35.40	-51.6	-54.7	6.2	0.00e+00	0	44	104	20149436416	69	21345
2026-01-16 10:28:21.48	269.25	35.19	-51.6	-54.7	6.2	0.00e+00	0	43	104	20149436416	69	21276
2026-01-16 10:28:22.49	268.74	34.98	-51.6	-54.7	6.2	0.00e+00	0	43	104	20149436416	69	21248
2026-01-16 10:28:23.50	268.23	34.77	-51.6	-54.7	6.2	0.00e+00	0	43	104	20149436416	69	21307
2026-01-16 10:28:24.51	267.73	34.57	-51.6	-54.7	6.2	0.00e+00	0	43	104	20149436416	69	21281
2026-01-16 10:28:25.52	267.23	34.36	-51.6	-54.7	6.2	0.00e+00	0	43	104	20149436416	69	21243
2026-01-16 10:28:26.53	266.74	34.15	-51.6	-54.7	6.2	0.00e+00	0	43	104	20149436416	69	21356
2026-01-16 10:28:27.54	266.26	33.94	-51.6	-54.7	6.2	0.00e+00	0	43	104	20149436416	69	21299
2026-01-16 10:28:28.55	265.79	33.72	-51.6	-54.7	6.2	0.00e+00	0	43	104	20149436416	69	21316
2026-01-16 10:28:29.56	265.32	33.51	-51.6	-54.7	6.2	0.00e+00	0	43	104	20149436416	69	21325
2026-01-16 10:28:30.57	264.86	33.30	-51.6	-54.7	6.2	0.00e+00	0	43	104	20149436416	69	21282
2026-01-16 10:28:31.58	264.40	33.09	-51.6	-54.7	6.2	0.00e+00	0	44	104	20149436416	69	21327
2026-01-16 10:28:32.59	263.95	32.88	-51.6	-54.7	6.2	0.00e+00	0	43	104	20149436416	69	21297
2026-01-16 10:28:33.60	263.51	32.66	-51.5	-54.7	6.2	0.00e+00	0	43	104	20149436416	69	21150
2026-01-16 10:28:34.60	263.08	32.45	-51.5	-54.6	6.2	0.00e+00	0	43	104	20149436416	69	21107
2026-01-16 10:28:35.61	262.65	32.24	-51.5	-54.7	6.2	0.00e+00	0	43	104	20149436416	69	21193
2026-01-16 10:28:36.62	262.22	32.03	-51.6	-54.7	6.2	0.00e+00	0	43	104	20149436416	69	21199
2026-01-16 10:28:37.63	261.80	31.82	-51.5	-54.6	6.2	0.00e+00	0	43	104	20149436416	69	21063
2026-01-16 10:28:38.64	261.39	31.60	-51.5	-54.6	6.2	0.00e+00	0	43	104	20149436416	69	21082
2026-01-16 10:28:39.65	260.98	31.39	-51.5	-54.6	6.2	0.00e+00	0	43	104	20149436416	69	21102
2026-01-16 10:28:40.66	260.58	31.18	-51.5	-54.6	6.2	0.00e+00	0	43	104	20149436416	69	21111
2026-01-16 10:28:41.67	260.19	30.97	-51.5	-54.6	6.2	0.00e+00	0	43	104	20149436416	69	21058
2026-01-16 10:28:42.68	259.80	30.76	-51.5	-54.6	6.2	0.00e+00	0	43	104	20149436416	69	21088
2026-01-16 10:28:43.69	259.41	30.55	-51.5	-54.6	6.2	0.00e+00	0	43	104	20149436416	69	21091
2026-01-16 10:28:44.70	259.03	30.34	-51.5	-54.6	6.2	0.00e+00	0	43	104	20149436416	69	20952
2026-01-16 10:28:45.71	258.66	30.13	-51.5	-54.6	6.2	0.00e+00	0	43	104	20149436416	69	20934
2026-01-16 10:28:46.72	258.29	29.92	-51.5	-54.6	6.2	0.00e+00	0	43	104	20149436416	69	20996
2026-01-16 10:28:47.73	257.93	29.71	-51.5	-54.6	6.2	0.00e+00	0	43	104	20149436416	69	20924
2026-01-16 10:28:48.74	257.57	29.50	-51.5	-54.6	6.2	0.00e+00	0	43	104	20149436416	69	20963
2026-01-16 10:28:49.74	257.22	29.30	-51.5	-54.6	6.2	0.00e+00	0	43	104	20149436416	69	20939
2026-01-16 10:28:50.75	256.87	29.09	-51.4	-54.6	6.2	0.00e+00	0	43	104	20149436416	69	20912
2026-01-16 10:28:51.76	256.53	28.89	-51.4	-54.6	6.2	0.00e+00	0	43	104	20149436416	69	20937
2026-01-16 10:28:52.77	256.19	28.68	-51.4	-54.5	6.2	0.00e+00	0	43	104	20149436416	69	20830
2026-01-16 10:28:53.78	255.85	28.48	-51.4	-54.6	6.2	0.00e+00	0	43	104	20149436416	69	20904
2026-01-16 10:28:54.79	255.52	28.27	-51.4	-54.5	6.2	0.00e+00	0	43	104	20149436416	69	20859
2026-01-16 10:28:55.80	255.20	28.07	-51.4	-54.5	6.2	0.00e+00	0	43	104	20149436416	69	20841
2026-01-16 10:28:56.81	254.88	27.87	-51.4	-54.5	6.2	0.00e+00	0	43	104	20149436416	69	20823
2026-01-16 10:28:57.82	254.56	27.67	-51.4	-54.5	6.2	0.00e+00	0	43	104	20149436416	69	20817
2026-01-16 10:28:58.83	254.25	27.47	-51.4	-54.5	6.2	0.00e+00	0	43	104	20149436416	69	20782
2026-01-16 10:28:59.84	253.94	27.27	-51.4	-54.5	6.2	0.00e+00	0	43	104	20149436416	69	20771
2026-01-16 10:29:00.81	253.65	27.08	-51.4	-54.5	6.2	0.00e+00	0	43	104	20149436416	69	20789
2026-01-16 10:29:01.83	253.35	26.88	-51.4	-54.5	6.2	0.00e+00	0	43	104	20149436416	69	20760
2026-01-16 10:29:02.83	253.06	26.68	-51.4	-54.5	6.2	0.00e+00	0	43	104	20149436416	69	20764
2026-01-16 10:29:03.84	252.77	26.49	-51.4	-54.5	6.2	0.00e+00	0	43	104	20149436416	69	20731
2026-01-16 10:29:04.85	252.48	26.29	-51.4	-54.5	6.2	0.00e+00	0	43	104	20149436416	69	20693
2026-01-16 10:29:05.86	252.19	26.10	-51.4	-54.5	6.2	0.00e+00	0	43	104	20149436416	69	20653
2026-01-16 10:29:06.87	251.91	25.90	-51.3	-54.5	6.2	0.00e+00	0	43	104	20149436416	69	20673
2026-01-16 10:29:07.88	251.64	25.71	-51.3	-54.4	6.2	0.00e+00	0	43	104	20149436416	69	20600
2026-01-16 10:29:08.89	251.37	25.52	-51.3	-54.5	6.2	0.00e+00	0	43	104	20149436416	69	20655
2026-01-16 10:29:09.90	251.10	25.33	-51.3	-54.4	6.2	0.00e+00	0	43	104	20149436416	69	20577
2026-01-16 10:29:10.91	250.83	25.14	-51.3	-54.4	6.2	0.00e+00	0	43	104	20149436416	69	20583
2026-01-16 10:29:11.92	250.57	24.96	-51.3	-54.5	6.2	0.00e+00	0	43	104	20149436416	69	20666
2026-01-16 10:29:12.93	250.31	24.77	-51.3	-54.4	6.2	0.00e+00	0	43	104	20149436416	69	20627
2026-01-16 10:29:13.94	250.06	24.58	-51.3	-54.4	6.2	0.00e+00	0	43	104	20149436416	69	20583
2026-01-16 10:29:14.95	249.81	24.40	-51.3	-54.4	6.2	0.00e+00	0	43	104	20149436416	69	20596
2026-01-16 10:29:15.96	249.56	24.21	-51.3	-54.4	6.2	0.00e+00	0	43	104	20149436416	69	20613
2026-01-16 10:29:16.97	249.31	24.03	-51.3	-54.4	6.2	0.00e+00	0	43	104	20149436416	69	20614
2026-01-16 10:29:17.98	249.07	23.85	-51.3	-54.4	6.2	0.00e+00	0	43	104	20149436416	69	20608
2026-01-16 10:29:18.99	248.83	23.67	-51.3	-54.4	6.2	0.00e+00	0	43	104	20149436416	69	20601
2026-01-16 10:29:19.99	248.60	23.49	-51.3	-54.4	6.2	0.00e+00	0	43	104	20149436416	69	20505
2026-01-16 10:29:21.00	248.37	23.31	-51.3	-54.4	6.2	0.00e+00	0	43	104	20149436416	69	20456
2026-01-16 10:29:22.01	248.14	23.13	-51.3	-54.4	6.2	0.00e+00	0	43	104	20149436416	69	20491
2026-01-16 10:29:23.02	247.91	22.96	-51.3	-54.4	6.2	0.00e+00	0	43	104	20149436416	69	20495
2026-01-16 10:29:24.03	247.69	22.78	-51.2	-54.4	6.2	0.00e+00	0	43	104	20149436416	69	20496
2026-01-16 10:29:25.04	247.47	22.61	-51.2	-54.4	6.2	0.00e+00	0	43	104	20149436416	69	20512
2026-01-16 10:29:26.05	247.25	22.43	-51.2	-54.3	6.2	0.00e+00	0	43	104	20149436416	69	20326
2026-01-16 10:29:27.06	247.03	22.26	-51.2	-54.3	6.2	0.00e+00	0	43	104	20149436416	69	20366
2026-01-16 10:29:28.07	246.82	22.09	-51.2	-54.4	6.2	0.00e+00	0	43	104	20149436416	69	20464
2026-01-16 10:29:29.08	246.61	21.92	-51.2	-54.4	6.2	0.00e+00	0	43	104	20149436416	69	20418
2026-01-16 10:29:30.09	246.40	21.75	-51.2	-54.3	6.2	0.00e+00	0	43	104	20149436416	69	20380
2026-01-16 10:29:31.10	246.20	21.58	-51.2	-54.3	6.2	0.00e+00	0	43	104	20149436416	69	20361
2026-01-16 10:29:32.10	246.00	21.42	-51.2	-54.3	6.2	0.00e+00	0	43	104	20149436416	69	20334
2026-01-16 10:29:33.11	245.80	21.25	-51.2	-54.3	6.2	0.00e+00	0	43	104	20149436416	69	20340
2026-01-16 10:29:34.12	245.60	21.09	-51.2	-54.3	6.2	0.00e+00	0	43	104	20149436416	69	20386
2026-01-16 10:29:35.13	245.40	20.92	-51.2	-54.3	6.2	0.00e+00	0	43	104	20149436416	69	20272
2026-01-16 10:29:36.14	245.21	20.76	-51.2	-54.3	6.2	0.00e+00	0	43	104	20149436416	69	20267
2026-01-16 10:29:37.15	245.02	20.60	-51.2	-54.3	6.2	0.00e+00	0	43	104	20149436416	69	20294
2026-01-16 10:29:38.16	244.83	20.44	-51.2	-54.3	6.2	0.00e+00	0	43	104	20149436416	69	20226
2026-01-16 10:29:39.17	244.65	20.28	-51.2	-54.3	6.2	0.00e+00	0	43	104	20149436416	69	20186
2026-01-16 10:29:40.18	244.46	20.12	-51.2	-54.3	6.2	0.00e+00	0	43	104	20149436416	69	20229
2026-01-16 10:29:41.19	244.28	19.96	-51.1	-54.3	6.2	0.00e+00	0	43	104	20149436416	69	20191
2026-01-16 10:29:42.20	244.10	19.80	-51.1	-54.3	6.2	0.00e+00	0	43	104	20149436416	69	20199
2026-01-16 10:29:43.21	243.92	19.64	-51.1	-54.2	6.2	0.00e+00	0	43	104	20149436416	69	20156
2026-01-16 10:29:44.22	243.75	19.49	-51.1	-54.2	6.2	0.00e+00	0	43	104	20149436416	69	20157
2026-01-16 10:29:45.23	243.58	19.33	-51.1	-54.3	6.2	0.00e+00	0	43	104	20149436416	69	20164
2026-01-16 10:29:46.24	243.41	19.18	-51.1	-54.2	6.2	0.00e+00	0	43	104	20149436416	69	20151
2026-01-16 10:29:47.25	243.24	19.03	-51.1	-54.2	6.2	0.00e+00	0	43	104	20149436416	69	20122
2026-01-16 10:29:48.26	243.07	18.88	-51.1	-54.2	6.2	0.00e+00	0	43	104	20149436416	69	20153
2026-01-16 10:29:49.27	242.90	18.73	-51.1	-54.2	6.2	0.00e+00	0	43	104	20149436416	69	20162
2026-01-16 10:29:50.28	242.74	18.58	-51.1	-54.2	6.2	0.00e+00	0	43	104	20149436416	69	20093
2026-01-16 10:29:51.28	242.58	18.43	-51.1	-54.2	6.2	0.00e+00	0	43	104	20149436416	69	20038
2026-01-16 10:29:52.29	242.42	18.28	-51.1	-54.2	6.2	0.00e+00	0	43	104	20149436416	69	20043
2026-01-16 10:29:53.30	242.26	18.14	-51.1	-54.2	6.2	0.00e+00	0	43	104	20149436416	69	20066
2026-01-16 10:29:54.31	242.11	17.99	-51.1	-54.2	6.2	0.00e+00	0	43	104	20149436416	69	20036
2026-01-16 10:29:55.32	241.95	17.84	-51.1	-54.2	6.2	0.00e+00	0	43	104	20149436416	69	20030
2026-01-16 10:29:56.33	241.80	17.70	-51.1	-54.2	6.2	0.00e+00	0	43	104	20149436416	69	20061
2026-01-16 10:29:57.34	241.65	17.56	-51.1	-54.2	6.2	0.00e+00	0	43	104	20149436416	69	19984
2026-01-16 10:29:58.34	241.50	17.42	-51.0	-54.2	6.2	0.00e+00	0	43	104	20149436416	69	20031
2026-01-16 10:29:59.35	241.35	17.27	-51.0	-54.1	6.2	0.00e+00	0	43	104	20149436416	69	19889
2026-01-16 10:30:00.36	241.21	17.13	-51.0	-54.1	6.2	0.00e+00	0	43	104	20149436416	69	19933
2026-01-16 10:30:01.37	241.06	16.99	-51.0	-54.2	6.2	0.00e+00	0	43	104	20149436416	69	19962
2026-01-16 10:30:02.38	240.92	16.85	-51.0	-54.1	6.2	0.00e+00	0	43	104	20149436416	69	19928
2026-01-16 10:30:03.39	240.78	16.72	-51.0	-54.1	6.2	0.00e+00	0	43	104	20149436416	69	19903
2026-01-16 10:30:04.40	240.64	16.58	-51.0	-54.1	6.2	0.00e+00	0	43	104	20149436416	69	19868
2026-01-16 10:30:05.41	240.50	16.44	-51.0	-54.1	6.2	0.00e+00	0	43	104	20149436416	69	19865
2026-01-16 10:30:06.42	240.36	16.31	-51.0	-54.1	6.2	0.00e+00	0	43	104	20149436416	69	19877
2026-01-16 10:30:07.43	240.23	16.17	-51.0	-54.1	6.2	0.00e+00	0	43	104	20149436416	69	19846
2026-01-16 10:30:08.44	240.10	16.04	-51.0	-54.1	6.2	0.00e+00	0	43	104	20149436416	69	19920
2026-01-16 10:30:09.45	239.96	15.90	-51.0	-54.2	6.2	0.00e+00	0	43	104	20149436416	69	19935
2026-01-16 10:30:10.46	239.83	15.77	-51.0	-54.1	6.2	0.00e+00	0	43	104	20149436416	69	19912
2026-01-16 10:30:11.47	239.70	15.64	-51.0	-54.1	6.2	0.00e+00	0	43	104	20149436416	69	19835
2026-01-16 10:30:12.48	239.57	15.51	-51.0	-54.1	6.2	0.00e+00	0	43	104	20149436416	69	19923
2026-01-16 10:30:13.48	239.45	15.38	-51.0	-54.1	6.2	0.00e+00	0	43	104	20149436416	69	19878
2026-01-16 10:30:14.50	239.32	15.25	-51.0	-54.1	6.2	0.00e+00	0	43	104	20149436416	69	19790
2026-01-16 10:30:15.50	239.20	15.12	-51.0	-54.1	6.2	0.00e+00	0	43	104	20149436416	69	19767
2026-01-16 10:30:16.51	239.08	14.99	-51.0	-54.1	6.2	0.00e+00	0	43	104	20149436416	69	19930
2026-01-16 10:30:17.52	238.95	14.87	-51.0	-54.1	6.2	0.00e+00	0	43	104	20149436416	69	19849
2026-01-16 10:30:18.53	238.83	14.74	-50.9	-54.1	6.2	0.00e+00	0	43	104	20149436416	69	19827
2026-01-16 10:30:19.54	238.71	14.61	-50.9	-54.1	6.2	0.00e+00	0	43	104	20149436416	69	19719
2026-01-16 10:30:20.55	238.60	14.49	-51.0	-54.1	6.2	0.00e+00	0	43	104	20149436416	69	19767
2026-01-16 10:30:21.56	238.48	14.37	-50.9	-54.1	6.2	0.00e+00	0	43	104	20149436416	69	19749
2026-01-16 10:30:22.57	238.36	14.24	-50.9	-54.0	6.2	0.00e+00	0	43	104	20149436416	69	19703
2026-01-16 10:30:23.58	238.25	14.12	-50.9	-54.1	6.2	0.00e+00	0	43	104	20149436416	69	19711
2026-01-16 10:30:24.59	238.14	14.00	-50.9	-54.1	6.2	0.00e+00	0	43	104	20149436416	69	19764
2026-01-16 10:30:25.60	238.02	13.88	-50.9	-54.0	6.2	0.00e+00	0	43	104	20149436416	69	19673
2026-01-16 10:30:26.60	237.91	13.76	-50.9	-54.0	6.2	0.00e+00	0	43	104	20149436416	69	19692
2026-01-16 10:30:27.62	237.80	13.63	-50.9	-54.0	6.2	0.00e+00	0	43	104	20149436416	69	19639
2026-01-16 10:30:28.63	237.69	13.52	-50.9	-54.0	6.2	0.00e+00	0	43	104	20149436416	69	19643
2026-01-16 10:30:29.63	237.59	13.40	-50.9	-54.0	6.2	0.00e+00	0	43	104	20149436416	69	19701
2026-01-16 10:30:30.64	237.48	13.28	-50.9	-54.0	6.2	0.00e+00	0	43	104	20149436416	68	20760
2026-01-16 10:30:31.65	237.37	13.16	-50.9	-54.0	6.2	0.00e+00	0	43	104	20149436416	68	20733
2026-01-16 10:30:32.66	237.27	13.05	-50.9	-54.0	6.2	0.00e+00	0	43	104	20149436416	68	20729
2026-01-16 10:30:33.67	237.16	12.93	-50.9	-54.0	6.2	0.00e+00	0	43	104	20149436416	68	20758
2026-01-16 10:30:34.68	237.06	12.81	-50.8	-54.0	6.2	0.00e+00	0	43	104	20149436416	68	20651
2026-01-16 10:30:35.69	236.96	12.70	-50.8	-54.0	6.2	0.00e+00	0	43	104	20149436416	68	20679
2026-01-16 10:30:36.70	236.86	12.58	-50.9	-54.0	6.2	0.00e+00	0	43	104	20149436416	68	20756
2026-01-16 10:30:37.71	236.76	12.47	-50.8	-54.0	6.2	0.00e+00	0	43	104	20149436416	68	20680
2026-01-16 10:30:38.72	236.66	12.36	-50.8	-53.9	6.2	0.00e+00	0	43	104	20149436416	68	20571
2026-01-16 10:30:39.73	236.56	12.25	-50.8	-53.9	6.2	0.00e+00	0	43	104	20149436416	68	20573
2026-01-16 10:30:40.73	236.47	12.13	-50.8	-53.9	6.2	0.00e+00	0	43	104	20149436416	68	20624
2026-01-16 10:30:41.74	236.37	12.02	-50.8	-54.0	6.2	0.00e+00	0	43	104	20149436416	68	20698
2026-01-16 10:30:42.75	236.27	11.91	-50.8	-53.9	6.2	0.00e+00	0	43	104	20149436416	68	20514
2026-01-16 10:30:43.76	236.18	11.80	-50.8	-53.9	6.2	0.00e+00	0	43	104	20149436416	68	20474
2026-01-16 10:30:44.77	236.09	11.69	-50.8	-54.0	6.2	0.00e+00	0	43	104	20149436416	68	20662
2026-01-16 10:30:45.78	235.99	11.58	-50.8	-53.9	6.2	0.00e+00	0	43	104	20149436416	68	20594
2026-01-16 10:30:46.79	235.90	11.48	-50.8	-53.9	6.2	0.00e+00	0	43	104	20149436416	68	20460
2026-01-16 10:30:47.80	235.81	11.37	-50.8	-53.9	6.2	0.00e+00	0	43	104	20149436416	68	20403
2026-01-16 10:30:48.81	235.72	11.26	-50.8	-53.9	6.2	0.00e+00	0	43	104	20149436416	68	20568
2026-01-16 10:30:49.82	235.63	11.15	-50.8	-53.9	6.2	0.00e+00	0	43	104	20149436416	68	20607
2026-01-16 10:30:50.82	235.54	11.05	-50.7	-53.9	6.2	0.00e+00	0	43	104	20149436416	68	20438
2026-01-16 10:30:51.83	235.46	10.94	-50.7	-53.9	6.2	0.00e+00	0	43	104	20149436416	68	20422
2026-01-16 10:30:52.84	235.37	10.84	-50.8	-53.9	6.2	0.00e+00	0	43	104	20149436416	68	20526
2026-01-16 10:30:53.85	235.28	10.73	-50.8	-53.9	6.2	0.00e+00	0	43	104	20149436416	68	20466
2026-01-16 10:30:54.86	235.20	10.63	-50.7	-53.8	6.2	0.00e+00	0	43	104	20149436416	68	20346
2026-01-16 10:30:55.87	235.11	10.53	-50.7	-53.8	6.2	0.00e+00	0	43	104	20149436416	68	20309
2026-01-16 10:30:56.88	235.03	10.42	-50.7	-53.9	6.2	0.00e+00	0	43	104	20149436416	68	20405
2026-01-16 10:30:57.89	234.95	10.32	-50.7	-53.8	6.2	0.00e+00	0	43	104	20149436416	68	20375
2026-01-16 10:30:58.90	234.86	10.22	-50.7	-53.8	6.2	0.00e+00	0	43	104	20149436416	68	20257
2026-01-16 10:30:59.91	234.78	10.12	-50.7	-53.8	6.2	0.00e+00	0	43	104	20149436416	68	20263
2026-01-16 10:31:00.91	234.70	10.02	-50.7	-53.8	6.2	0.00e+00	0	43	104	20149436416	68	20373
2026-01-16 10:31:01.92	234.62	9.92	-50.7	-53.8	6.2	0.00e+00	0	43	104	20149436416	68	20318
2026-01-16 10:31:02.93	234.54	9.82	-50.6	-53.8	6.2	0.00e+00	0	43	104	20149436416	68	20234
2026-01-16 10:31:03.94	234.46	9.72	-50.6	-53.7	6.2	0.00e+00	0	43	104	20149436416	68	20139
2026-01-16 10:31:04.95	234.38	9.62	-50.7	-53.8	6.2	0.00e+00	0	43	104	20149436416	68	20333
2026-01-16 10:31:05.96	234.31	9.52	-50.6	-53.8	6.2	0.00e+00	0	43	104	20149436416	68	20255
2026-01-16 10:31:06.96	234.23	9.42	-50.6	-53.7	6.2	0.00e+00	0	43	104	20149436416	68	20123
2026-01-16 10:31:07.97	234.15	9.33	-50.6	-53.7	6.2	0.00e+00	0	43	104	20149436416	68	20120
2026-01-16 10:31:08.98	234.08	9.23	-50.6	-53.8	6.2	0.00e+00	0	43	104	20149436416	68	20218
2026-01-16 10:31:09.99	234.00	9.13	-50.6	-53.8	6.2	0.00e+00	0	43	104	20149436416	68	20214
2026-01-16 10:31:11.00	233.93	9.04	-50.5	-53.7	6.2	0.00e+00	0	43	104	20149436416	68	19996
2026-01-16 10:31:12.01	233.86	8.94	-50.6	-53.7	6.2	0.00e+00	0	43	104	20149436416	68	19992
2026-01-16 10:31:13.02	233.78	8.84	-50.6	-53.7	6.2	0.00e+00	0	43	104	20149436416	68	20154
2026-01-16 10:31:14.03	233.71	8.75	-50.6	-53.7	6.2	0.00e+00	0	43	104	20149436416	68	20100
2026-01-16 10:31:15.03	233.64	8.66	-50.5	-53.6	6.2	0.00e+00	0	43	104	20149436416	68	19933
2026-01-16 10:31:16.04	233.57	8.56	-50.5	-53.6	6.2	0.00e+00	0	43	104	20149436416	68	19932
2026-01-16 10:31:17.05	233.50	8.47	-50.6	-53.7	6.2	0.00e+00	0	43	104	20149436416	68	20004
2026-01-16 10:31:18.06	233.43	8.38	-50.5	-53.7	6.2	0.00e+00	0	43	104	20149436416	68	19986
2026-01-16 10:31:19.07	233.36	8.28	-50.5	-53.6	6.2	0.00e+00	0	43	104	20149436416	68	19828
2026-01-16 10:31:20.08	233.29	8.19	-50.5	-53.6	6.2	0.00e+00	0	43	104	20149436416	68	19858
2026-01-16 10:31:21.09	233.22	8.10	-50.5	-53.7	6.2	0.00e+00	0	43	104	20149436416	68	19969
2026-01-16 10:31:22.10	233.15	8.01	-50.5	-53.6	6.2	0.00e+00	0	43	104	20149436416	68	19861
2026-01-16 10:31:23.11	233.08	7.92	-50.4	-53.6	6.2	0.00e+00	0	43	104	20149436416	68	19752
2026-01-16 10:31:24.12	233.02	7.83	-50.5	-53.6	6.2	0.00e+00	0	43	104	20149436416	68	19746
2026-01-16 10:31:25.12	232.95	7.74	-50.5	-53.6	6.2	0.00e+00	0	43	104	20149436416	68	19897
2026-01-16 10:31:26.13	232.89	7.65	-50.5	-53.6	6.2	0.00e+00	0	43	104	20149436416	68	19773
2026-01-16 10:31:27.14	232.82	7.56	-50.4	-53.5	6.2	0.00e+00	0	43	104	20149436416	68	19635
2026-01-16 10:31:28.15	232.76	7.47	-50.4	-53.5	6.2	0.00e+00	0	43	104	20149436416	68	19690
2026-01-16 10:31:29.16	232.69	7.38	-50.5	-53.6	6.2	0.00e+00	0	43	104	20149436416	68	19834
2026-01-16 10:31:30.17	232.63	7.29	-50.4	-53.5	6.2	0.00e+00	0	43	104	20149436416	68	19665
2026-01-16 10:31:31.18	232.57	7.20	-50.4	-53.5	6.2	0.00e+00	0	43	104	20149436416	67	20760
2026-01-16 10:31:32.19	232.50	7.11	-50.4	-53.5	6.2	0.00e+00	0	43	104	20149436416	67	20863
2026-01-16 10:31:33.20	232.44	7.03	-50.4	-53.6	6.2	0.00e+00	0	43	104	20149436416	67	20909
2026-01-16 10:31:34.21	232.38	6.94	-50.4	-53.5	6.2	0.00e+00	0	43	104	20149436416	67	20777
2026-01-16 10:31:35.21	232.32	6.85	-50.3	-53.4	6.2	0.00e+00	0	43	104	20149436416	67	20501
2026-01-16 10:31:36.22	232.26	6.77	-50.3	-53.5	6.2	0.00e+00	0	43	104	20149436416	67	20684
2026-01-16 10:31:37.23	232.20	6.68	-50.4	-53.5	6.2	0.00e+00	0	43	104	20149436416	67	20797
2026-01-16 10:31:38.24	232.14	6.60	-50.3	-53.4	6.2	0.00e+00	0	43	104	20149436416	67	20615
2026-01-16 10:31:39.25	232.08	6.51	-50.2	-53.4	6.2	0.00e+00	0	43	104	20149436416	67	20485
2026-01-16 10:31:40.26	232.02	6.43	-50.3	-53.4	6.2	0.00e+00	0	43	104	20149436416	67	20608
2026-01-16 10:31:41.27	231.96	6.34	-50.3	-53.5	6.2	0.00e+00	0	43	104	20149436416	67	20663
2026-01-16 10:31:42.28	231.90	6.26	-50.2	-53.4	6.2	0.00e+00	0	43	104	20149436416	67	20478
2026-01-16 10:31:43.29	231.85	6.17	-50.2	-53.3	6.2	0.00e+00	0	43	104	20149436416	67	20216
2026-01-16 10:31:44.30	231.79	6.09	-50.2	-53.4	6.2	0.00e+00	0	43	104	20149436416	67	20479
2026-01-16 10:31:45.31	231.73	6.01	-50.3	-53.4	6.2	0.00e+00	0	43	104	20149436416	67	20570
2026-01-16 10:31:46.31	231.68	5.93	-50.2	-53.3	6.2	0.00e+00	0	43	104	20149436416	67	20261
2026-01-16 10:31:47.32	231.62	5.84	-50.1	-53.3	6.2	0.00e+00	0	43	104	20149436416	67	20166
2026-01-16 10:31:48.33	231.56	5.76	-50.2	-53.3	6.2	0.00e+00	0	43	104	20149436416	67	20353
2026-01-16 10:31:49.34	231.51	5.68	-50.2	-53.4	6.2	0.00e+00	0	43	104	20149436416	67	20429
2026-01-16 10:31:50.35	231.46	5.60	-50.1	-53.2	6.2	0.00e+00	0	43	104	20149436416	67	20129
2026-01-16 10:31:51.36	231.40	5.52	-50.0	-53.2	6.2	0.00e+00	0	43	104	20149436416	67	20019
2026-01-16 10:31:52.37	231.35	5.44	-50.1	-53.3	6.2	0.00e+00	0	43	104	20149436416	67	20207
2026-01-16 10:31:53.38	231.29	5.35	-50.1	-53.3	6.2	0.00e+00	0	43	104	20149436416	67	20289
2026-01-16 10:31:54.39	231.24	5.27	-50.0	-53.2	6.2	0.00e+00	0	43	104	20149436416	67	19936
2026-01-16 10:31:55.40	231.19	5.19	-50.0	-53.1	6.2	0.00e+00	0	43	104	20149436416	67	19856
2026-01-16 10:31:56.41	231.14	5.11	-50.1	-53.2	6.2	0.00e+00	0	43	104	20149436416	67	20109
2026-01-16 10:31:57.42	231.08	5.04	-50.2	-53.4	6.2	0.00e+00	0	43	104	20149436416	67	20463
2026-01-16 10:31:58.43	231.03	4.96	-50.6	-53.8	6.2	0.00e+00	0	43	104	20149436416	67	21393
2026-01-16 10:31:59.44	230.98	4.88	-50.9	-54.0	6.2	0.00e+00	0	43	104	20149436416	67	22007
2026-01-16 10:32:00.44	230.93	4.80	-51.1	-54.2	6.2	0.00e+00	0	43	104	20149436416	67	22520
2026-01-16 10:32:01.45	230.88	4.72	-51.2	-54.3	6.2	0.00e+00	0	43	104	20149436416	68	21537
2026-01-16 10:32:02.46	230.83	4.64	-51.3	-54.4	6.2	0.00e+00	0	43	104	20149436416	68	21818
2026-01-16 10:32:03.47	230.78	4.57	-51.4	-54.5	6.2	0.00e+00	0	43	104	20149436416	68	21957
2026-01-16 10:32:04.48	230.73	4.49	-51.5	-54.6	6.2	0.00e+00	0	43	104	20149436416	68	22226
2026-01-16 10:32:05.49	230.68	4.41	-51.5	-54.6	6.2	0.00e+00	0	43	104	20149436416	68	22278
2026-01-16 10:32:06.50	230.63	4.33	-51.5	-54.7	6.2	0.00e+00	0	43	104	20149436416	68	22469
2026-01-16 10:32:07.51	230.59	4.26	-51.6	-54.7	6.2	0.00e+00	0	43	104	20149436416	68	22529
2026-01-16 10:32:08.52	230.54	4.18	-51.6	-54.7	6.2	0.00e+00	0	43	104	20149436416	68	22583
2026-01-16 10:32:09.53	230.49	4.11	-51.6	-54.7	6.2	0.00e+00	0	43	104	20149436416	68	22542
2026-01-16 10:32:10.53	230.44	4.03	-51.6	-54.7	6.2	0.00e+00	0	43	104	20149436416	69	21348
2026-01-16 10:32:11.55	230.40	3.95	-51.6	-54.8	6.2	0.00e+00	0	43	104	20149436416	69	21439
2026-01-16 10:32:12.55	230.35	3.88	-51.7	-54.8	6.2	0.00e+00	0	43	104	20149436416	69	21447
2026-01-16 10:32:13.56	230.30	3.80	-51.7	-54.8	6.2	0.00e+00	0	43	104	20149436416	69	21442
2026-01-16 10:32:14.57	230.26	3.73	-51.7	-54.8	6.2	0.00e+00	0	43	104	20149436416	69	21490
2026-01-16 10:32:15.58	230.21	3.66	-51.7	-54.8	6.2	0.00e+00	0	43	104	20149436416	69	21582
2026-01-16 10:32:16.59	230.17	3.58	-51.7	-54.8	6.2	0.00e+00	0	43	104	20149436416	69	21553
2026-01-16 10:32:17.59	230.12	3.51	-51.7	-54.8	6.2	0.00e+00	0	43	104	20149436416	69	21496
2026-01-16 10:32:18.60	230.08	3.43	-51.7	-54.8	6.2	0.00e+00	0	43	104	20149436416	69	21558
2026-01-16 10:32:19.61	230.03	3.36	-51.7	-54.8	6.2	0.00e+00	0	43	104	20149436416	69	21568
2026-01-16 10:32:20.62	229.99	3.29	-51.7	-54.8	6.2	0.00e+00	0	43	104	20149436416	69	21562
2026-01-16 10:32:21.63	229.94	3.21	-51.7	-54.8	6.2	0.00e+00	0	43	104	20149436416	69	21486
2026-01-16 10:32:22.64	229.90	3.14	-51.7	-54.8	6.2	0.00e+00	0	43	104	20149436416	69	21521
2026-01-16 10:32:23.65	229.86	3.07	-51.7	-54.8	6.2	0.00e+00	0	43	104	20149436416	69	21498
2026-01-16 10:32:24.66	229.81	3.00	-51.6	-54.8	6.2	0.00e+00	0	43	104	20149436416	69	21402
2026-01-16 10:32:25.67	229.77	2.93	-51.6	-54.7	6.2	0.00e+00	0	43	104	20149436416	69	21346
2026-01-16 10:32:26.68	229.73	2.85	-51.7	-54.8	6.2	0.00e+00	0	43	104	20149436416	69	21500
2026-01-16 10:32:27.69	229.69	2.78	-51.7	-54.8	6.2	0.00e+00	0	43	104	20149436416	69	21389
2026-01-16 10:32:28.70	229.65	2.71	-51.6	-54.7	6.2	0.00e+00	0	43	104	20149436416	69	21332
2026-01-16 10:32:29.71	229.60	2.64	-51.6	-54.8	6.2	0.00e+00	0	43	104	20149436416	69	21375
2026-01-16 10:32:30.71	229.56	2.57	-51.6	-54.7	6.2	0.00e+00	0	43	104	20149436416	69	21241
2026-01-16 10:32:31.72	229.52	2.50	-51.6	-54.7	6.2	0.00e+00	0	43	104	20149436416	69	21316
2026-01-16 10:32:32.73	229.48	2.43	-51.6	-54.7	6.2	0.00e+00	0	43	104	20149436416	69	21343
2026-01-16 10:32:33.74	229.44	2.36	-51.6	-54.7	6.2	0.00e+00	0	43	104	20149436416	69	21305
2026-01-16 10:32:34.75	229.40	2.29	-51.6	-54.7	6.2	0.00e+00	0	43	104	20149436416	69	21179
2026-01-16 10:32:35.76	229.36	2.22	-51.6	-54.7	6.2	0.00e+00	0	43	104	20149436416	69	21288
2026-01-16 10:32:36.77	229.32	2.15	-51.6	-54.7	6.2	0.00e+00	0	43	104	20149436416	69	21244
2026-01-16 10:32:37.78	229.28	2.08	-51.6	-54.7	6.2	0.00e+00	0	43	104	20149436416	69	21204
2026-01-16 10:32:38.79	229.24	2.01	-51.5	-54.7	6.2	0.00e+00	0	43	104	20149436416	69	21183
2026-01-16 10:32:39.80	229.20	1.94	-51.5	-54.7	6.2	0.00e+00	0	43	104	20149436416	69	21139

#Closed at: 2026-01-16 10:32:39
#Recorded file [20149 MB]: D:/lorett/data/31004_260116_132216.dat