passes_logs/2026/01/16/R3.2S_Murmansk_2ch/R3.2S_Murmansk_2ch__20260116_061157_NOAA_20_JPSS-1_rec.log

#Pass ID: 20260116_061157_NOAA 20 (JPSS-1)
#Satellite: NOAA 20 (JPSS-1)
#Configuration: NOAA 20
#almurnet v.1.7.20251203
#Start time: 2026-01-16 06:11:57

#Version: 2.2.20231116
#Station: R3.2S_Murmansk_2ch
#Location: 33.079688 lon 68.888172 lat
#TLE: 1 43013U 17073A   26015.89389188  .00000026  00000+0  33113-4 0  9999
#TLE: 2 43013  98.7636 316.8238 0001460  37.8997 322.2282 14.19536128422860

#Time	Az	El	Level	Level2	SNR	BER	BlckErr	Temp	State	Recorded	gain1	gain2
2026-01-16 06:11:57.74	79.38	2.03	-49.8	-65.9	3.8	1.49e+00	0	31	0	0	66	22178
2026-01-16 06:11:58.75	79.32	2.09	-49.7	-65.9	3.8	1.49e+00	0	31	104	0	64	24786
2026-01-16 06:11:59.76	79.26	2.14	-49.7	-65.9	3.8	1.49e+00	0	31	104	0	64	24785
2026-01-16 06:12:00.77	79.20	2.20	-49.8	-65.9	3.8	1.49e+00	0	31	104	0	64	24832
2026-01-16 06:12:01.78	79.13	2.26	-49.8	-65.9	3.8	1.49e+00	0	31	104	0	64	24853
2026-01-16 06:12:02.78	79.07	2.32	-49.7	-65.9	3.8	1.49e+00	0	31	104	0	64	24822
2026-01-16 06:12:03.79	79.01	2.38	-49.8	-65.9	3.8	1.49e+00	0	31	104	0	64	24828
2026-01-16 06:12:04.80	78.95	2.44	-49.8	-65.9	3.8	1.49e+00	0	31	104	0	64	24836
2026-01-16 06:12:05.81	78.89	2.50	-49.8	-65.9	3.8	1.49e+00	0	31	104	0	64	24860
2026-01-16 06:12:06.82	78.83	2.56	-49.8	-65.9	3.8	1.49e+00	0	32	104	0	64	24871
2026-01-16 06:12:07.83	78.76	2.62	-49.7	-65.9	3.8	1.49e+00	0	32	104	0	64	24751
2026-01-16 06:12:08.84	78.70	2.67	-49.8	-65.9	3.8	1.49e+00	0	32	104	0	64	24837
2026-01-16 06:12:09.85	78.64	2.73	-49.7	-65.9	3.8	1.49e+00	0	32	104	0	64	24844
2026-01-16 06:12:10.86	78.57	2.79	-49.8	-65.9	3.9	1.49e+00	0	32	104	0	64	24905
2026-01-16 06:12:11.87	78.51	2.85	-49.8	-65.9	3.8	1.49e+00	0	32	104	0	64	24854
2026-01-16 06:12:12.88	78.45	2.91	-49.8	-65.9	3.8	1.49e+00	0	32	104	0	64	24872
2026-01-16 06:12:13.89	78.38	2.97	-49.8	-65.9	3.8	1.49e+00	0	32	104	0	64	24875
2026-01-16 06:12:14.90	78.32	3.03	-49.8	-65.9	3.8	1.49e+00	0	32	104	0	64	24822
2026-01-16 06:12:15.91	78.25	3.09	-49.8	-65.9	3.8	1.49e+00	0	32	104	0	64	24854
2026-01-16 06:12:16.92	78.19	3.15	-49.8	-65.9	3.8	1.49e+00	0	32	104	0	64	24772
2026-01-16 06:12:17.93	78.12	3.21	-49.8	-65.9	3.8	1.49e+00	0	32	104	0	64	24902
2026-01-16 06:12:18.94	78.06	3.27	-49.8	-65.9	3.8	1.49e+00	0	32	104	0	64	24846
2026-01-16 06:12:19.95	77.99	3.33	-49.8	-65.9	3.8	1.49e+00	0	32	104	0	64	24886
2026-01-16 06:12:20.95	77.92	3.39	-49.8	-65.9	3.8	1.49e+00	0	32	104	0	64	24969
2026-01-16 06:12:21.96	77.86	3.45	-49.8	-65.9	3.8	1.49e+00	0	32	104	0	64	24899
2026-01-16 06:12:22.97	77.79	3.51	-49.8	-65.9	3.8	1.49e+00	0	32	104	0	64	24889
2026-01-16 06:12:23.98	77.72	3.57	-49.8	-65.9	3.8	1.49e+00	0	32	104	0	64	24800
2026-01-16 06:12:24.99	77.66	3.63	-49.8	-65.8	3.8	1.49e+00	0	32	104	0	64	24644
2026-01-16 06:12:26.00	77.59	3.69	-49.8	-65.9	3.8	1.49e+00	0	32	104	0	64	24749
2026-01-16 06:12:27.01	77.52	3.76	-49.8	-65.9	3.8	1.49e+00	0	32	104	0	64	24807
2026-01-16 06:12:28.02	77.45	3.82	-49.8	-65.9	3.8	1.49e+00	0	32	104	0	64	24848
2026-01-16 06:12:29.02	77.39	3.88	-49.8	-65.9	3.8	1.49e+00	0	32	104	0	64	24882
2026-01-16 06:12:30.03	77.32	3.94	-49.8	-65.9	3.8	1.49e+00	0	32	104	0	64	24821
2026-01-16 06:12:31.04	77.25	4.00	-49.8	-65.7	3.8	1.49e+00	0	32	104	0	64	24366
2026-01-16 06:12:32.05	77.18	4.06	-49.8	-65.6	3.8	1.49e+00	0	32	104	0	64	23911
2026-01-16 06:12:33.06	77.11	4.12	-49.8	-65.1	3.8	1.49e+00	0	32	104	0	64	22676
2026-01-16 06:12:34.07	77.04	4.18	-49.7	-64.7	3.8	1.49e+00	0	32	104	0	64	21735
2026-01-16 06:12:35.08	76.97	4.25	-49.7	-64.2	3.8	1.49e+00	0	32	104	0	64	20472
2026-01-16 06:12:36.09	76.90	4.31	-49.7	-63.6	3.8	1.49e+00	0	32	104	0	64	19151
2026-01-16 06:12:37.10	76.83	4.37	-49.6	-63.0	4.1	1.49e+00	0	32	104	0	64	17794
2026-01-16 06:12:38.11	76.75	4.43	-49.6	-62.4	4.2	1.40e+00	0	32	0	0	64	16553
2026-01-16 06:12:39.12	76.68	4.49	-49.6	-61.4	4.5	1.06e+00	2	32	0	1048576	64	14776
2026-01-16 06:12:40.13	76.61	4.56	-49.4	-59.8	5.2	7.43e-01	0	32	0	3145728	64	12310
2026-01-16 06:12:41.14	76.54	4.62	-49.3	-59.0	5.8	4.95e-01	0	32	0	4194304	64	11211
2026-01-16 06:12:42.14	76.47	4.68	-49.1	-57.8	6.6	2.03e-01	0	32	0	6291456	64	9746
2026-01-16 06:12:43.15	76.39	4.74	-49.0	-57.2	7.2	1.28e-01	0	32	0	8388608	64	9079
2026-01-16 06:12:44.16	76.32	4.81	-48.9	-56.6	7.8	1.03e-01	0	32	0	10485760	64	8474
2026-01-16 06:12:45.17	76.25	4.87	-48.8	-55.8	8.4	3.88e-02	0	32	0	12582912	64	7789
2026-01-16 06:12:46.18	76.17	4.93	-48.8	-56.1	8.1	5.37e-02	0	32	0	13631488	64	8052
2026-01-16 06:12:47.19	76.10	4.99	-48.9	-56.5	7.8	4.92e-02	0	32	0	15728640	64	8378
2026-01-16 06:12:48.19	76.03	5.06	-48.8	-56.0	8.1	7.31e-02	0	32	0	17825792	64	7908
2026-01-16 06:12:49.20	75.95	5.12	-47.7	-52.2	11.8	4.27e-05	0	32	0	19922944	61	6062
2026-01-16 06:12:50.21	75.88	5.18	-48.9	-55.7	8.5	4.10e-02	0	33	0	22020096	63	8169
2026-01-16 06:12:51.22	75.80	5.25	-49.5	-60.0	5.1	9.00e-01	0	33	0	23068672	64	12549
2026-01-16 06:12:52.22	75.72	5.31	-47.7	-52.0	12.0	4.50e-06	0	33	0	25165824	61	5961
2026-01-16 06:12:53.24	75.65	5.37	-49.4	-59.7	5.3	4.97e-01	0	33	0	27262976	64	12207
2026-01-16 06:12:54.24	75.57	5.44	-47.2	-50.9	12.8	1.14e-02	0	33	0	29360128	61	5273
2026-01-16 06:12:55.25	75.49	5.50	-47.2	-50.9	12.8	0.00e+00	0	33	0	31457280	60	5580
2026-01-16 06:12:56.26	75.42	5.56	-47.1	-50.7	12.9	7.00e-07	0	33	0	32505856	60	5436
2026-01-16 06:12:57.27	75.34	5.63	-47.1	-50.6	13.3	0.00e+00	0	33	0	34603008	59	5686
2026-01-16 06:12:58.28	75.26	5.69	-47.3	-51.0	13.0	1.50e-06	0	32	0	36700160	59	5924
2026-01-16 06:12:59.29	75.18	5.76	-46.9	-50.2	13.6	0.00e+00	0	33	0	38797312	59	5429
2026-01-16 06:13:00.30	75.10	5.82	-47.3	-50.9	13.1	0.00e+00	0	33	0	40894464	59	5895
2026-01-16 06:13:01.31	75.03	5.88	-47.3	-51.0	13.1	7.00e-07	0	33	0	41943040	59	5936
2026-01-16 06:13:02.32	74.95	5.95	-47.4	-51.1	13.0	0.00e+00	0	33	0	44040192	59	6024
2026-01-16 06:13:03.32	74.87	6.01	-47.1	-50.7	13.0	0.00e+00	0	33	0	46137344	60	5413
2026-01-16 06:13:04.33	74.79	6.08	-46.9	-50.3	13.2	0.00e+00	0	33	0	48234496	60	5190
2026-01-16 06:13:05.34	74.71	6.14	-47.0	-50.5	13.2	7.00e-07	0	33	0	50331648	60	5287
2026-01-16 06:13:06.35	74.63	6.21	-46.8	-50.1	13.4	7.00e-07	0	33	0	52428800	60	5089
2026-01-16 06:13:07.36	74.54	6.27	-47.1	-50.6	13.1	7.00e-07	0	33	0	53477376	60	5393
2026-01-16 06:13:08.37	74.46	6.34	-46.7	-50.0	13.5	0.00e+00	0	33	0	55574528	60	5005
2026-01-16 06:13:09.37	74.38	6.40	-46.8	-50.2	13.4	0.00e+00	0	33	0	57671680	60	5121
2026-01-16 06:13:10.39	74.30	6.47	-46.9	-50.3	13.3	0.00e+00	0	33	0	59768832	60	5196
2026-01-16 06:13:11.40	74.21	6.53	-46.8	-50.1	13.5	0.00e+00	0	33	0	61865984	60	5062
2026-01-16 06:13:12.41	74.13	6.60	-46.8	-50.1	13.5	0.00e+00	0	33	0	62914560	60	5059
2026-01-16 06:13:13.42	74.05	6.66	-47.0	-50.4	13.3	7.00e-07	0	33	0	65011712	60	5231
2026-01-16 06:13:14.43	73.96	6.73	-46.8	-50.1	13.5	0.00e+00	0	33	0	67108864	60	5070
2026-01-16 06:13:15.43	73.88	6.80	-47.1	-50.7	13.2	0.00e+00	0	33	0	69206016	60	5404
2026-01-16 06:13:16.44	73.80	6.86	-47.2	-50.7	13.1	0.00e+00	0	33	0	71303168	60	5446
2026-01-16 06:13:17.45	73.71	6.93	-47.2	-50.7	13.1	0.00e+00	0	33	0	72351744	60	5445
2026-01-16 06:13:18.46	73.62	6.99	-47.1	-50.5	13.3	0.00e+00	0	33	0	74448896	60	5303
2026-01-16 06:13:19.47	73.54	7.06	-46.8	-50.1	13.6	0.00e+00	0	33	0	76546048	60	5048
2026-01-16 06:13:20.48	73.45	7.13	-46.8	-50.1	13.6	0.00e+00	0	33	0	78643200	60	5046
2026-01-16 06:13:21.49	73.37	7.19	-46.7	-49.9	13.7	0.00e+00	0	33	0	80740352	60	4940
2026-01-16 06:13:22.50	73.28	7.26	-46.9	-50.2	13.5	0.00e+00	0	33	0	81788928	60	5106
2026-01-16 06:13:23.51	73.19	7.33	-46.9	-50.2	13.5	7.00e-07	0	33	0	83886080	60	5119
2026-01-16 06:13:24.52	73.10	7.39	-46.8	-50.0	13.6	0.00e+00	0	33	0	85983232	60	5036
2026-01-16 06:13:25.52	73.02	7.46	-46.8	-50.1	13.6	0.00e+00	0	33	0	88080384	60	5059
2026-01-16 06:13:26.53	72.93	7.53	-46.8	-49.9	13.7	0.00e+00	0	33	0	90177536	60	4980
2026-01-16 06:13:27.54	72.84	7.59	-46.8	-50.0	13.6	0.00e+00	0	33	0	91226112	60	5040
2026-01-16 06:13:28.55	72.75	7.66	-46.8	-50.0	13.6	0.00e+00	0	33	0	93323264	60	5021
2026-01-16 06:13:29.56	72.66	7.73	-46.8	-50.0	13.7	0.00e+00	0	33	0	95420416	60	5035
2026-01-16 06:13:30.57	72.57	7.80	-46.9	-50.1	13.6	0.00e+00	0	33	0	97517568	60	5089
2026-01-16 06:13:31.58	72.48	7.86	-47.0	-50.2	13.8	0.00e+00	0	33	0	99614720	59	5441
2026-01-16 06:13:32.58	72.38	7.93	-47.0	-50.3	13.7	0.00e+00	0	33	0	100663296	59	5484
2026-01-16 06:13:33.59	72.29	8.00	-47.1	-50.3	13.7	0.00e+00	0	33	0	102760448	59	5489
2026-01-16 06:13:34.60	72.20	8.07	-47.0	-50.1	13.8	0.00e+00	0	33	0	104857600	59	5395
2026-01-16 06:13:35.61	72.11	8.13	-47.0	-50.2	13.8	0.00e+00	0	33	0	106954752	59	5441
2026-01-16 06:13:36.62	72.01	8.20	-47.0	-50.2	13.8	0.00e+00	0	33	0	109051904	59	5449
2026-01-16 06:13:37.63	71.92	8.27	-46.8	-49.9	14.0	0.00e+00	0	33	0	110100480	59	5245
2026-01-16 06:13:38.64	71.83	8.34	-47.0	-50.2	13.8	0.00e+00	0	33	0	112197632	59	5443
2026-01-16 06:13:39.64	71.73	8.41	-47.1	-50.3	13.8	0.00e+00	0	33	0	114294784	59	5472
2026-01-16 06:13:40.65	71.64	8.48	-47.0	-50.1	13.9	0.00e+00	0	33	0	116391936	59	5386
2026-01-16 06:13:41.66	71.54	8.54	-47.0	-50.2	13.8	0.00e+00	0	33	0	118489088	59	5442
2026-01-16 06:13:42.67	71.45	8.61	-47.0	-50.2	13.8	0.00e+00	0	33	0	119537664	59	5445
2026-01-16 06:13:43.68	71.35	8.68	-47.1	-50.4	13.7	0.00e+00	0	33	0	121634816	59	5560
2026-01-16 06:13:44.69	71.25	8.75	-47.1	-50.3	13.7	0.00e+00	0	33	0	123731968	59	5504
2026-01-16 06:13:45.70	71.16	8.82	-47.0	-50.1	13.9	0.00e+00	0	33	0	125829120	59	5371
2026-01-16 06:13:46.71	71.06	8.89	-47.0	-50.2	13.8	0.00e+00	0	33	0	127926272	59	5438
2026-01-16 06:13:47.72	70.96	8.96	-47.0	-50.2	13.8	0.00e+00	0	33	0	128974848	59	5426
2026-01-16 06:13:48.73	70.86	9.03	-47.0	-50.1	13.9	0.00e+00	0	33	0	131072000	59	5387
2026-01-16 06:13:49.74	70.76	9.10	-47.0	-50.1	13.9	0.00e+00	0	33	0	133169152	59	5377
2026-01-16 06:13:50.75	70.66	9.17	-47.0	-50.2	13.9	0.00e+00	0	33	0	135266304	59	5430
2026-01-16 06:13:51.76	70.56	9.24	-47.1	-50.3	13.8	0.00e+00	0	33	0	137363456	59	5492
2026-01-16 06:13:52.77	70.46	9.31	-47.1	-50.2	13.8	0.00e+00	0	33	0	138412032	59	5448
2026-01-16 06:13:53.78	70.36	9.38	-46.9	-50.0	14.0	0.00e+00	0	33	0	140509184	59	5298
2026-01-16 06:13:54.79	70.26	9.45	-46.9	-49.9	14.1	0.00e+00	0	33	0	142606336	59	5267
2026-01-16 06:13:55.79	70.15	9.52	-46.9	-49.9	14.1	0.00e+00	0	33	0	144703488	59	5247
2026-01-16 06:13:56.80	70.05	9.59	-46.9	-49.9	14.1	0.00e+00	0	33	0	146800640	59	5220
2026-01-16 06:13:57.81	69.95	9.66	-46.8	-49.8	14.2	0.00e+00	0	33	0	148897792	59	5160
2026-01-16 06:13:58.82	69.84	9.73	-46.8	-49.7	14.2	0.00e+00	0	33	0	149946368	59	5104
2026-01-16 06:13:59.83	69.74	9.80	-46.7	-49.6	14.3	0.00e+00	0	33	0	152043520	59	5078
2026-01-16 06:14:00.84	69.64	9.87	-46.7	-49.5	14.3	0.00e+00	0	33	0	154140672	59	5038
2026-01-16 06:14:01.85	69.53	9.94	-46.7	-49.6	14.3	0.00e+00	0	33	0	156237824	59	5092
2026-01-16 06:14:02.86	69.42	10.01	-46.6	-49.4	14.4	0.00e+00	0	33	0	158334976	59	4969
2026-01-16 06:14:03.87	69.32	10.08	-46.7	-49.6	14.3	0.00e+00	0	33	0	159383552	59	5064
2026-01-16 06:14:04.87	69.21	10.15	-46.7	-49.6	14.3	0.00e+00	0	33	0	161480704	59	5070
2026-01-16 06:14:05.89	69.10	10.23	-46.7	-49.6	14.3	0.00e+00	0	33	0	163577856	59	5052
2026-01-16 06:14:06.89	69.00	10.30	-46.6	-49.4	14.4	0.00e+00	0	33	0	165675008	59	4980
2026-01-16 06:14:07.90	68.89	10.37	-46.6	-49.4	14.4	0.00e+00	0	33	0	167772160	59	4942
2026-01-16 06:14:08.91	68.78	10.44	-46.6	-49.4	14.4	0.00e+00	0	33	0	168820736	59	4958
2026-01-16 06:14:09.92	68.67	10.51	-46.6	-49.5	14.4	0.00e+00	0	33	0	170917888	59	4996
2026-01-16 06:14:10.93	68.56	10.58	-46.5	-49.2	14.5	0.00e+00	0	33	0	173015040	59	4858
2026-01-16 06:14:11.94	68.45	10.66	-46.6	-49.3	14.5	0.00e+00	0	33	0	175112192	59	4900
2026-01-16 06:14:12.95	68.34	10.73	-46.6	-49.4	14.4	0.00e+00	0	33	0	177209344	59	4969
2026-01-16 06:14:13.96	68.22	10.80	-46.6	-49.3	14.4	0.00e+00	0	33	0	178257920	59	4916
2026-01-16 06:14:14.97	68.11	10.87	-46.6	-49.4	14.4	0.00e+00	0	33	0	180355072	59	4976
2026-01-16 06:14:15.98	68.00	10.94	-46.7	-49.6	14.3	0.00e+00	0	33	0	182452224	59	5072
2026-01-16 06:14:16.99	67.88	11.02	-46.8	-49.6	14.3	0.00e+00	0	33	0	184549376	59	5095
2026-01-16 06:14:17.99	67.77	11.09	-46.8	-49.6	14.4	0.00e+00	0	33	0	186646528	59	5081
2026-01-16 06:14:19.00	67.66	11.16	-46.7	-49.5	14.4	0.00e+00	0	33	0	187695104	59	5013
2026-01-16 06:14:20.01	67.54	11.23	-46.6	-49.4	14.5	0.00e+00	0	33	0	189792256	59	4971
2026-01-16 06:14:21.02	67.42	11.31	-46.7	-49.6	14.4	0.00e+00	0	33	0	191889408	59	5067
2026-01-16 06:14:22.03	67.31	11.38	-46.8	-49.6	14.4	0.00e+00	0	33	0	193986560	59	5090
2026-01-16 06:14:23.04	67.19	11.45	-46.7	-49.6	14.4	0.00e+00	0	33	0	196083712	59	5046
2026-01-16 06:14:24.05	67.07	11.53	-46.8	-49.7	14.4	0.00e+00	0	33	0	197132288	59	5105
2026-01-16 06:14:25.06	66.95	11.60	-46.7	-49.6	14.4	0.00e+00	0	33	0	199229440	59	5044
2026-01-16 06:14:26.06	66.84	11.67	-46.7	-49.5	14.4	0.00e+00	0	33	0	201326592	59	5038
2026-01-16 06:14:27.07	66.72	11.75	-46.7	-49.4	14.5	0.00e+00	0	33	0	203423744	59	4972
2026-01-16 06:14:28.08	66.60	11.82	-46.6	-49.3	14.6	0.00e+00	0	33	0	205520896	59	4882
2026-01-16 06:14:29.09	66.48	11.89	-46.6	-49.3	14.6	0.00e+00	0	33	0	206569472	59	4921
2026-01-16 06:14:30.10	66.35	11.97	-46.6	-49.3	14.6	0.00e+00	0	33	0	208666624	59	4909
2026-01-16 06:14:31.11	66.23	12.04	-46.6	-49.3	14.6	0.00e+00	0	33	0	210763776	59	4877
2026-01-16 06:14:32.11	66.11	12.11	-46.5	-49.2	14.7	0.00e+00	0	33	0	212860928	59	4830
2026-01-16 06:14:33.12	65.99	12.19	-46.5	-49.2	14.7	0.00e+00	0	33	0	214958080	59	4855
2026-01-16 06:14:34.13	65.86	12.26	-46.4	-49.1	14.7	0.00e+00	0	33	0	216006656	59	4765
2026-01-16 06:14:35.14	65.74	12.34	-46.5	-49.1	14.7	0.00e+00	0	33	0	218103808	59	4814
2026-01-16 06:14:36.15	65.61	12.41	-46.5	-49.1	14.7	0.00e+00	0	33	0	220200960	59	4804
2026-01-16 06:14:37.16	65.49	12.48	-46.5	-49.2	14.7	0.00e+00	0	33	0	222298112	59	4866
2026-01-16 06:14:38.17	65.36	12.56	-46.5	-49.2	14.6	0.00e+00	0	33	0	224395264	59	4856
2026-01-16 06:14:39.17	65.23	12.63	-46.4	-49.0	14.8	0.00e+00	0	33	0	225443840	59	4736
2026-01-16 06:14:40.18	65.11	12.71	-46.4	-49.0	14.8	0.00e+00	0	33	0	227540992	59	4716
2026-01-16 06:14:41.19	64.98	12.78	-46.4	-49.0	14.8	0.00e+00	0	33	0	229638144	59	4709
2026-01-16 06:14:42.20	64.85	12.86	-46.3	-48.9	14.8	0.00e+00	0	33	0	231735296	59	4695
2026-01-16 06:14:43.21	64.72	12.93	-46.4	-48.9	14.8	0.00e+00	0	33	0	233832448	59	4697
2026-01-16 06:14:44.22	64.59	13.01	-46.4	-49.0	14.8	0.00e+00	0	33	0	234881024	59	4707
2026-01-16 06:14:45.23	64.46	13.08	-46.3	-48.9	14.9	0.00e+00	0	33	0	236978176	59	4675
2026-01-16 06:14:46.24	64.33	13.16	-46.2	-48.7	15.0	0.00e+00	0	33	0	239075328	59	4598
2026-01-16 06:14:47.25	64.19	13.23	-46.2	-48.7	15.0	0.00e+00	0	33	0	241172480	59	4557
2026-01-16 06:14:48.26	64.06	13.31	-46.2	-48.6	15.0	0.00e+00	0	33	0	243269632	58	4802
2026-01-16 06:14:49.27	63.93	13.38	-46.3	-48.8	14.9	0.00e+00	0	33	0	245366784	58	4909
2026-01-16 06:14:50.28	63.79	13.46	-46.2	-48.7	15.0	0.00e+00	0	33	0	246415360	58	4852
2026-01-16 06:14:51.29	63.66	13.53	-46.4	-48.9	14.8	0.00e+00	0	33	0	248512512	58	4964
2026-01-16 06:14:52.29	63.52	13.61	-46.4	-48.9	14.8	0.00e+00	0	33	0	250609664	58	4966
2026-01-16 06:14:53.30	63.38	13.68	-46.4	-48.9	14.8	0.00e+00	0	33	0	252706816	58	4978
2026-01-16 06:14:54.31	63.25	13.76	-46.4	-48.9	14.8	0.00e+00	0	33	0	254803968	58	4958
2026-01-16 06:14:55.32	63.11	13.84	-46.4	-48.9	14.8	0.00e+00	0	33	0	255852544	58	4964
2026-01-16 06:14:56.33	62.97	13.91	-46.4	-48.9	14.9	0.00e+00	0	33	0	257949696	58	4968
2026-01-16 06:14:57.34	62.83	13.99	-46.2	-48.7	14.9	0.00e+00	0	33	0	260046848	58	4869
2026-01-16 06:14:58.35	62.69	14.06	-46.2	-48.6	15.0	0.00e+00	0	33	0	262144000	58	4802
2026-01-16 06:14:59.36	62.55	14.14	-46.1	-48.5	15.1	0.00e+00	0	33	0	264241152	58	4723
2026-01-16 06:15:00.37	62.41	14.22	-46.1	-48.6	15.1	0.00e+00	0	33	0	265289728	58	4774
2026-01-16 06:15:01.37	62.26	14.29	-46.1	-48.6	15.0	0.00e+00	0	33	0	267386880	58	4795
2026-01-16 06:15:02.38	62.12	14.37	-46.1	-48.5	15.1	0.00e+00	0	33	0	269484032	58	4734
2026-01-16 06:15:03.39	61.98	14.44	-46.1	-48.6	15.1	0.00e+00	0	33	0	271581184	58	4761
2026-01-16 06:15:04.40	61.83	14.52	-46.2	-48.7	15.0	0.00e+00	0	33	0	273678336	58	4834
2026-01-16 06:15:05.41	61.69	14.60	-46.1	-48.5	15.1	0.00e+00	0	33	0	274726912	58	4728
2026-01-16 06:15:06.42	61.54	14.67	-46.0	-48.4	15.2	0.00e+00	0	33	0	276824064	58	4655
2026-01-16 06:15:07.42	61.39	14.75	-46.0	-48.4	15.2	0.00e+00	0	33	0	278921216	58	4675
2026-01-16 06:15:08.43	61.25	14.82	-45.8	-48.1	15.3	0.00e+00	0	33	0	281018368	58	4527
2026-01-16 06:15:09.44	61.10	14.90	-45.9	-48.2	15.2	0.00e+00	0	33	0	283115520	58	4583
2026-01-16 06:15:10.45	60.95	14.98	-45.8	-48.1	15.3	0.00e+00	0	33	0	284164096	58	4534
2026-01-16 06:15:11.46	60.80	15.05	-45.8	-48.1	15.3	0.00e+00	0	33	0	286261248	58	4521
2026-01-16 06:15:12.47	60.65	15.13	-45.8	-48.1	15.3	0.00e+00	0	33	0	288358400	58	4545
2026-01-16 06:15:13.48	60.49	15.21	-45.8	-48.1	15.3	0.00e+00	0	33	0	290455552	58	4519
2026-01-16 06:15:14.49	60.34	15.28	-45.8	-48.1	15.4	0.00e+00	0	33	0	292552704	58	4528
2026-01-16 06:15:15.50	60.19	15.36	-45.9	-48.3	15.2	0.00e+00	0	33	0	293601280	58	4612
2026-01-16 06:15:16.51	60.03	15.44	-45.9	-48.2	15.2	0.00e+00	0	33	0	295698432	58	4598
2026-01-16 06:15:17.52	59.88	15.51	-46.0	-48.4	15.2	0.00e+00	0	33	0	297795584	58	4655
2026-01-16 06:15:18.53	59.72	15.59	-46.0	-48.4	15.2	0.00e+00	0	33	0	299892736	58	4663
2026-01-16 06:15:19.54	59.57	15.67	-46.0	-48.4	15.2	0.00e+00	0	33	0	301989888	58	4689
2026-01-16 06:15:20.55	59.41	15.75	-46.1	-48.4	15.2	0.00e+00	0	33	0	303038464	58	4700
2026-01-16 06:15:21.56	59.25	15.82	-46.1	-48.5	15.1	0.00e+00	0	33	0	305135616	58	4739
2026-01-16 06:15:22.57	59.09	15.90	-46.1	-48.5	15.1	0.00e+00	0	33	0	307232768	58	4747
2026-01-16 06:15:23.57	58.93	15.98	-46.1	-48.5	15.1	0.00e+00	0	33	0	309329920	58	4758
2026-01-16 06:15:24.58	58.77	16.05	-46.2	-48.6	15.1	0.00e+00	0	33	0	311427072	58	4789
2026-01-16 06:15:25.59	58.61	16.13	-46.2	-48.6	15.1	0.00e+00	0	33	0	313524224	58	4810
2026-01-16 06:15:26.60	58.45	16.21	-46.2	-48.6	15.1	0.00e+00	0	33	0	314572800	58	4795
2026-01-16 06:15:27.61	58.28	16.28	-46.1	-48.5	15.1	0.00e+00	0	33	0	316669952	58	4727
2026-01-16 06:15:28.62	58.12	16.36	-46.1	-48.5	15.1	0.00e+00	0	33	0	318767104	58	4722
2026-01-16 06:15:29.63	57.95	16.44	-46.1	-48.5	15.1	0.00e+00	0	33	0	320864256	58	4759
2026-01-16 06:15:30.64	57.79	16.51	-46.2	-48.6	15.1	0.00e+00	0	33	0	322961408	58	4809
2026-01-16 06:15:31.65	57.62	16.59	-46.2	-48.6	15.1	0.00e+00	0	33	0	324009984	58	4786
2026-01-16 06:15:32.66	57.45	16.67	-46.2	-48.7	15.1	0.00e+00	0	33	0	326107136	58	4833
2026-01-16 06:15:33.67	57.28	16.75	-46.3	-48.8	15.0	0.00e+00	0	33	0	328204288	58	4889
2026-01-16 06:15:34.68	57.12	16.82	-46.2	-48.7	15.1	0.00e+00	0	33	0	330301440	58	4840
2026-01-16 06:15:35.69	56.94	16.90	-46.3	-48.8	15.0	0.00e+00	0	33	0	332398592	58	4876
2026-01-16 06:15:36.69	56.78	16.98	-46.2	-48.7	15.1	0.00e+00	0	33	0	333447168	58	4823
2026-01-16 06:15:37.70	56.60	17.05	-46.3	-48.7	15.1	0.00e+00	0	33	0	335544320	58	4841
2026-01-16 06:15:38.71	56.43	17.13	-46.3	-48.7	15.1	0.00e+00	0	33	0	337641472	58	4848
2026-01-16 06:15:39.72	56.26	17.21	-46.2	-48.6	15.1	0.00e+00	0	33	0	339738624	58	4806
2026-01-16 06:15:40.73	56.08	17.28	-46.3	-48.8	15.0	0.00e+00	0	33	0	341835776	58	4888
2026-01-16 06:15:41.74	55.91	17.36	-46.2	-48.7	15.1	0.00e+00	0	33	0	342884352	58	4830
2026-01-16 06:15:42.75	55.73	17.44	-46.3	-48.8	15.1	0.00e+00	0	33	0	344981504	58	4873
2026-01-16 06:15:43.76	55.55	17.51	-46.4	-48.8	15.0	0.00e+00	0	33	0	347078656	58	4918
2026-01-16 06:15:44.76	55.37	17.59	-46.4	-48.9	14.9	0.00e+00	0	33	0	349175808	58	4970
2026-01-16 06:15:45.78	55.19	17.67	-46.4	-49.0	14.9	0.00e+00	0	33	0	351272960	58	4994
2026-01-16 06:15:46.79	55.01	17.74	-46.5	-49.1	14.8	0.00e+00	0	33	0	352321536	58	5050
2026-01-16 06:15:47.79	54.83	17.82	-46.4	-49.0	14.9	0.00e+00	0	33	0	354418688	58	4988
2026-01-16 06:15:48.80	54.65	17.90	-46.5	-49.0	14.9	0.00e+00	0	33	0	356515840	58	5011
2026-01-16 06:15:49.81	54.47	17.97	-46.4	-48.9	14.9	0.00e+00	0	33	0	358612992	58	4980
2026-01-16 06:15:50.82	54.28	18.05	-46.3	-48.8	15.0	0.00e+00	0	33	0	360710144	58	4901
2026-01-16 06:15:51.83	54.10	18.12	-46.3	-48.7	15.1	0.00e+00	0	33	0	361758720	58	4862
2026-01-16 06:15:52.84	53.91	18.20	-46.2	-48.7	15.1	0.00e+00	0	33	0	363855872	58	4818
2026-01-16 06:15:53.85	53.73	18.28	-46.3	-48.7	15.1	0.00e+00	0	33	0	365953024	58	4837
2026-01-16 06:15:54.86	53.54	18.35	-46.3	-48.7	15.1	0.00e+00	0	33	0	368050176	58	4860
2026-01-16 06:15:55.87	53.35	18.43	-46.3	-48.7	15.1	0.00e+00	0	33	0	370147328	58	4864
2026-01-16 06:15:56.88	53.16	18.50	-46.3	-48.7	15.1	0.00e+00	0	33	0	371195904	58	4870
2026-01-16 06:15:57.89	52.97	18.58	-46.3	-48.7	15.1	0.00e+00	0	33	0	373293056	58	4851
2026-01-16 06:15:58.89	52.78	18.65	-46.1	-48.5	15.2	0.00e+00	0	33	0	375390208	58	4733
2026-01-16 06:15:59.90	52.59	18.73	-46.1	-48.4	15.3	0.00e+00	0	33	0	377487360	58	4675
2026-01-16 06:16:00.91	52.39	18.81	-46.0	-48.3	15.3	0.00e+00	0	33	0	379584512	58	4617
2026-01-16 06:16:01.92	52.20	18.88	-46.0	-48.3	15.4	0.00e+00	0	33	0	380633088	58	4606
2026-01-16 06:16:02.93	52.00	18.96	-46.0	-48.3	15.3	0.00e+00	0	33	0	382730240	58	4607
2026-01-16 06:16:03.94	51.81	19.03	-46.0	-48.3	15.3	0.00e+00	0	33	0	384827392	58	4649
2026-01-16 06:16:04.94	51.61	19.10	-45.9	-48.1	15.4	0.00e+00	0	33	0	386924544	58	4525
2026-01-16 06:16:05.95	51.41	19.18	-45.8	-48.1	15.5	0.00e+00	0	33	0	389021696	58	4510
2026-01-16 06:16:06.96	51.21	19.25	-45.8	-48.1	15.4	0.00e+00	0	33	0	390070272	58	4511
2026-01-16 06:16:07.97	51.01	19.33	-45.8	-48.0	15.5	0.00e+00	0	33	0	392167424	58	4455
2026-01-16 06:16:08.98	50.81	19.40	-45.7	-47.9	15.6	0.00e+00	0	33	0	394264576	58	4400
2026-01-16 06:16:09.99	50.61	19.48	-45.7	-47.8	15.5	0.00e+00	0	33	0	396361728	57	4649
2026-01-16 06:16:11.00	50.41	19.55	-45.6	-47.8	15.5	0.00e+00	0	33	0	398458880	57	4628
2026-01-16 06:16:12.01	50.20	19.62	-45.5	-47.6	15.6	0.00e+00	0	33	0	399507456	57	4523
2026-01-16 06:16:13.02	50.00	19.70	-45.3	-47.4	15.8	0.00e+00	0	33	0	401604608	57	4425
2026-01-16 06:16:14.03	49.79	19.77	-45.2	-47.2	15.8	0.00e+00	0	33	0	403701760	57	4326
2026-01-16 06:16:15.04	49.58	19.85	-45.1	-47.1	15.9	0.00e+00	0	33	0	405798912	56	4527
2026-01-16 06:16:16.04	49.38	19.92	-45.0	-47.0	15.9	0.00e+00	0	33	0	407896064	56	4463
2026-01-16 06:16:17.06	49.17	19.99	-45.0	-47.0	15.9	0.00e+00	0	33	0	409993216	56	4451
2026-01-16 06:16:18.07	48.96	20.06	-44.9	-46.8	16.0	0.00e+00	0	33	0	411041792	56	4368
2026-01-16 06:16:19.07	48.75	20.14	-44.4	-46.3	16.1	0.00e+00	0	33	0	413138944	55	4361
2026-01-16 06:16:20.09	48.53	20.21	-44.4	-46.2	16.2	0.00e+00	0	33	0	415236096	55	4338
2026-01-16 06:16:21.09	48.32	20.28	-44.3	-46.1	16.2	0.00e+00	0	33	0	417333248	55	4277
2026-01-16 06:16:22.10	48.11	20.35	-44.4	-46.2	16.2	0.00e+00	0	33	0	419430400	55	4329
2026-01-16 06:16:23.11	47.89	20.42	-44.3	-46.1	16.2	0.00e+00	0	33	0	420478976	55	4257
2026-01-16 06:16:24.12	47.67	20.50	-44.3	-46.1	16.2	0.00e+00	0	33	0	422576128	55	4266
2026-01-16 06:16:25.12	47.46	20.57	-44.2	-46.0	16.2	0.00e+00	0	33	0	424673280	55	4217
2026-01-16 06:16:26.13	47.24	20.64	-44.2	-46.0	16.2	0.00e+00	0	33	0	426770432	55	4230
2026-01-16 06:16:27.14	47.02	20.71	-44.3	-46.1	16.2	0.00e+00	0	33	0	428867584	55	4251
2026-01-16 06:16:28.15	46.80	20.78	-44.4	-46.2	16.2	0.00e+00	0	33	0	429916160	55	4305
2026-01-16 06:16:29.16	46.58	20.85	-44.3	-46.1	16.2	0.00e+00	0	33	0	432013312	55	4270
2026-01-16 06:16:30.17	46.36	20.92	-44.3	-46.0	16.3	0.00e+00	0	33	0	434110464	55	4242
2026-01-16 06:16:31.18	46.13	20.99	-44.2	-46.0	16.3	0.00e+00	0	33	0	436207616	55	4223
2026-01-16 06:16:32.19	45.91	21.06	-44.2	-46.0	16.3	0.00e+00	0	33	0	438304768	55	4228
2026-01-16 06:16:33.19	45.68	21.13	-44.2	-46.0	16.2	0.00e+00	0	34	0	439353344	55	4205
2026-01-16 06:16:34.20	45.46	21.20	-44.1	-45.9	16.3	0.00e+00	0	33	0	441450496	54	4404
2026-01-16 06:16:35.21	45.23	21.26	-44.2	-46.0	16.2	0.00e+00	0	33	0	443547648	54	4459
2026-01-16 06:16:36.22	45.00	21.33	-44.1	-45.8	16.3	0.00e+00	0	33	0	445644800	54	4370
2026-01-16 06:16:37.23	44.77	21.40	-44.1	-45.8	16.3	0.00e+00	0	33	0	447741952	54	4377
2026-01-16 06:16:38.24	44.54	21.47	-44.0	-45.7	16.3	0.00e+00	0	33	0	448790528	54	4304
2026-01-16 06:16:39.25	44.31	21.53	-44.0	-45.7	16.3	0.00e+00	0	33	0	450887680	54	4320
2026-01-16 06:16:40.26	44.08	21.60	-44.1	-45.8	16.3	0.00e+00	0	33	0	452984832	54	4389
2026-01-16 06:16:41.27	43.84	21.67	-44.0	-45.8	16.4	0.00e+00	0	33	0	455081984	54	4350
2026-01-16 06:16:42.27	43.61	21.73	-44.0	-45.7	16.4	0.00e+00	0	33	0	457179136	54	4307
2026-01-16 06:16:43.28	43.37	21.80	-44.0	-45.7	16.4	0.00e+00	0	33	0	458227712	54	4331
2026-01-16 06:16:44.29	43.14	21.87	-44.0	-45.7	16.4	0.00e+00	0	33	0	460324864	54	4338
2026-01-16 06:16:45.30	42.90	21.93	-44.0	-45.7	16.4	0.00e+00	0	33	0	462422016	54	4307
2026-01-16 06:16:46.31	42.66	22.00	-43.9	-45.7	16.4	0.00e+00	0	33	0	464519168	54	4293
2026-01-16 06:16:47.32	42.42	22.06	-44.1	-45.8	16.4	0.00e+00	0	33	0	466616320	54	4365
2026-01-16 06:16:48.33	42.18	22.13	-44.2	-46.0	16.3	0.00e+00	0	33	0	467664896	54	4443
2026-01-16 06:16:49.34	41.94	22.19	-44.2	-46.0	16.3	0.00e+00	0	33	0	469762048	54	4480
2026-01-16 06:16:50.35	41.70	22.25	-44.3	-46.1	16.3	0.00e+00	0	33	0	471859200	54	4504
2026-01-16 06:16:51.36	41.45	22.32	-44.4	-46.2	16.2	0.00e+00	0	33	0	473956352	54	4556
2026-01-16 06:16:52.37	41.21	22.38	-44.3	-46.1	16.3	0.00e+00	0	33	0	476053504	54	4510
2026-01-16 06:16:53.38	40.96	22.44	-44.2	-46.0	16.3	0.00e+00	0	33	0	477102080	54	4468
2026-01-16 06:16:54.39	40.71	22.50	-44.2	-46.0	16.3	0.00e+00	0	33	0	479199232	54	4456
2026-01-16 06:16:55.40	40.47	22.56	-44.2	-46.0	16.3	0.00e+00	0	33	0	481296384	54	4474
2026-01-16 06:16:56.41	40.22	22.62	-44.4	-46.2	16.2	0.00e+00	0	33	0	483393536	54	4548
2026-01-16 06:16:57.41	39.97	22.68	-44.4	-46.2	16.2	0.00e+00	0	33	0	485490688	54	4554
2026-01-16 06:16:58.42	39.72	22.74	-44.3	-46.1	16.2	0.00e+00	0	33	0	486539264	54	4526
2026-01-16 06:16:59.43	39.47	22.80	-44.3	-46.1	16.2	0.00e+00	0	33	0	488636416	54	4535
2026-01-16 06:17:00.44	39.22	22.86	-44.2	-45.9	16.3	0.00e+00	0	33	0	490733568	54	4427
2026-01-16 06:17:01.45	38.96	22.92	-44.1	-45.8	16.4	0.00e+00	0	33	0	492830720	54	4389
2026-01-16 06:17:02.46	38.71	22.98	-44.1	-45.9	16.3	0.00e+00	0	33	0	494927872	54	4402
2026-01-16 06:17:03.46	38.45	23.04	-44.1	-45.9	16.4	0.00e+00	0	33	0	495976448	54	4394
2026-01-16 06:17:04.47	38.20	23.09	-44.1	-45.8	16.4	0.00e+00	0	33	0	498073600	54	4354
2026-01-16 06:17:05.48	37.94	23.15	-44.1	-45.9	16.3	0.00e+00	0	33	0	500170752	54	4406
2026-01-16 06:17:06.49	37.68	23.21	-44.1	-45.8	16.4	0.00e+00	0	33	0	502267904	54	4390
2026-01-16 06:17:07.50	37.42	23.26	-44.2	-45.9	16.4	0.00e+00	0	33	0	504365056	54	4427
2026-01-16 06:17:08.51	37.16	23.32	-44.1	-45.9	16.4	0.00e+00	0	33	0	506462208	54	4413
2026-01-16 06:17:09.52	36.90	23.37	-44.2	-45.9	16.3	0.00e+00	0	33	0	507510784	54	4428
2026-01-16 06:17:10.53	36.64	23.43	-44.0	-45.7	16.4	0.00e+00	0	33	0	509607936	54	4319
2026-01-16 06:17:11.54	36.38	23.48	-43.9	-45.6	16.4	0.00e+00	0	33	0	511705088	54	4287
2026-01-16 06:17:12.55	36.11	23.53	-44.0	-45.7	16.4	0.00e+00	0	33	0	513802240	54	4305
2026-01-16 06:17:13.56	35.85	23.59	-43.9	-45.6	16.5	0.00e+00	0	33	0	515899392	54	4268
2026-01-16 06:17:14.57	35.58	23.64	-43.9	-45.6	16.5	0.00e+00	0	33	0	516947968	54	4268
2026-01-16 06:17:15.57	35.32	23.69	-43.8	-45.5	16.5	0.00e+00	0	33	0	519045120	54	4218
2026-01-16 06:17:16.58	35.05	23.74	-43.8	-45.5	16.5	0.00e+00	0	33	0	521142272	54	4226
2026-01-16 06:17:17.59	34.78	23.79	-43.7	-45.3	16.6	0.00e+00	0	33	0	523239424	54	4135
2026-01-16 06:17:18.60	34.51	23.84	-43.6	-45.2	16.6	0.00e+00	0	33	0	525336576	53	4338
2026-01-16 06:17:19.61	34.24	23.89	-43.7	-45.4	16.5	0.00e+00	0	33	0	526385152	53	4424
2026-01-16 06:17:20.62	33.97	23.94	-43.7	-45.4	16.5	0.00e+00	0	33	0	528482304	53	4412
2026-01-16 06:17:21.63	33.70	23.98	-43.8	-45.5	16.5	0.00e+00	0	33	0	530579456	53	4453
2026-01-16 06:17:22.64	33.43	24.03	-43.9	-45.6	16.5	0.00e+00	0	33	0	532676608	53	4519
2026-01-16 06:17:23.65	33.16	24.08	-44.0	-45.8	16.4	0.00e+00	0	33	0	534773760	53	4611
2026-01-16 06:17:24.65	32.88	24.12	-44.1	-45.8	16.3	0.00e+00	0	33	0	535822336	53	4634
2026-01-16 06:17:25.66	32.61	24.17	-44.1	-45.9	16.3	0.00e+00	0	33	0	537919488	53	4675
2026-01-16 06:17:26.67	32.33	24.21	-44.2	-46.0	16.3	0.00e+00	0	33	0	540016640	53	4736
2026-01-16 06:17:27.68	32.06	24.26	-44.2	-46.0	16.3	0.00e+00	0	33	0	542113792	53	4709
2026-01-16 06:17:28.69	31.78	24.30	-44.2	-45.9	16.3	0.00e+00	0	33	0	544210944	53	4692
2026-01-16 06:17:29.70	31.50	24.34	-44.2	-45.9	16.3	0.00e+00	0	33	0	545259520	53	4692
2026-01-16 06:17:30.71	31.22	24.39	-44.3	-46.0	16.2	0.00e+00	0	33	0	547356672	53	4748
2026-01-16 06:17:31.72	30.94	24.43	-44.3	-46.1	16.2	0.00e+00	0	33	0	549453824	53	4795
2026-01-16 06:17:32.73	30.66	24.47	-44.3	-46.1	16.2	0.00e+00	0	33	0	551550976	53	4804
2026-01-16 06:17:33.74	30.38	24.51	-44.5	-46.3	16.2	0.00e+00	0	33	0	553648128	54	4620
2026-01-16 06:17:34.75	30.10	24.55	-44.6	-46.4	16.1	0.00e+00	0	33	0	554696704	54	4676
2026-01-16 06:17:35.76	29.82	24.59	-44.7	-46.6	16.0	0.00e+00	0	33	0	556793856	54	4761
2026-01-16 06:17:36.76	29.54	24.62	-44.8	-46.7	16.0	0.00e+00	0	33	0	558891008	54	4851
2026-01-16 06:17:37.77	29.25	24.66	-44.9	-46.8	16.0	0.00e+00	0	33	0	560988160	54	4893
2026-01-16 06:17:38.78	28.97	24.70	-44.9	-46.8	16.0	0.00e+00	0	33	0	563085312	54	4885
2026-01-16 06:17:39.79	28.69	24.73	-45.0	-46.9	15.9	0.00e+00	0	33	0	564133888	55	4703
2026-01-16 06:17:40.80	28.40	24.77	-45.2	-47.3	15.8	0.00e+00	0	33	0	566231040	55	4875
2026-01-16 06:17:41.81	28.11	24.80	-45.3	-47.4	15.7	0.00e+00	0	33	0	568328192	55	4937
2026-01-16 06:17:42.82	27.83	24.84	-45.3	-47.4	15.7	0.00e+00	0	33	0	570425344	55	4937
2026-01-16 06:17:43.83	27.54	24.87	-45.3	-47.3	15.7	0.00e+00	0	33	0	572522496	55	4921
2026-01-16 06:17:44.84	27.25	24.90	-45.2	-47.3	15.8	0.00e+00	0	33	0	574619648	55	4890
2026-01-16 06:17:45.85	26.96	24.93	-45.4	-47.5	15.7	0.00e+00	0	33	0	575668224	55	4984
2026-01-16 06:17:46.85	26.68	24.96	-45.7	-47.8	15.6	0.00e+00	0	33	0	577765376	56	4886
2026-01-16 06:17:47.86	26.39	24.99	-45.6	-47.7	15.7	0.00e+00	0	33	0	579862528	56	4848
2026-01-16 06:17:48.87	26.10	25.02	-45.6	-47.7	15.7	0.00e+00	0	33	0	581959680	56	4862
2026-01-16 06:17:49.88	25.80	25.05	-45.7	-47.8	15.7	0.00e+00	0	33	0	583008256	56	4914
2026-01-16 06:17:50.89	25.51	25.08	-45.6	-47.7	15.7	0.00e+00	0	33	0	585105408	56	4859
2026-01-16 06:17:51.90	25.22	25.10	-45.6	-47.7	15.7	0.00e+00	0	33	0	587202560	56	4867
2026-01-16 06:17:52.91	24.93	25.13	-45.7	-47.9	15.6	0.00e+00	0	33	0	589299712	56	4948
2026-01-16 06:17:53.92	24.64	25.15	-45.8	-48.0	15.5	0.00e+00	0	33	0	591396864	56	4985
2026-01-16 06:17:54.93	24.34	25.18	-45.7	-47.8	15.6	0.00e+00	0	33	0	592445440	56	4919
2026-01-16 06:17:55.94	24.05	25.20	-45.7	-47.9	15.6	0.00e+00	0	33	0	594542592	56	4943
2026-01-16 06:17:56.95	23.75	25.22	-45.8	-48.0	15.6	0.00e+00	0	33	0	596639744	56	5008
2026-01-16 06:17:57.96	23.46	25.25	-45.9	-48.1	15.5	0.00e+00	0	33	0	598736896	57	4804
2026-01-16 06:17:58.97	23.16	25.27	-46.1	-48.3	15.4	0.00e+00	0	33	0	600834048	57	4908
2026-01-16 06:17:59.98	22.87	25.29	-46.0	-48.3	15.4	0.00e+00	0	33	0	602931200	57	4892
2026-01-16 06:18:00.99	22.57	25.31	-46.0	-48.2	15.5	0.00e+00	0	33	0	603979776	57	4825
2026-01-16 06:18:01.99	22.28	25.32	-45.9	-48.1	15.5	0.00e+00	0	33	0	606076928	57	4788
2026-01-16 06:18:03.00	21.98	25.34	-45.8	-48.0	15.6	0.00e+00	0	33	0	608174080	57	4722
2026-01-16 06:18:04.01	21.69	25.36	-45.9	-48.1	15.5	0.00e+00	0	33	0	610271232	57	4806
2026-01-16 06:18:05.02	21.39	25.38	-45.9	-48.0	15.5	0.00e+00	0	33	0	612368384	57	4753
2026-01-16 06:18:06.03	21.09	25.39	-45.9	-48.0	15.5	0.00e+00	0	33	0	613416960	57	4757
2026-01-16 06:18:07.04	20.79	25.41	-45.8	-47.9	15.6	0.00e+00	0	33	0	615514112	57	4694
2026-01-16 06:18:08.05	20.50	25.42	-45.8	-48.0	15.6	0.00e+00	0	33	0	617611264	57	4725
2026-01-16 06:18:09.06	20.20	25.43	-45.9	-48.1	15.5	0.00e+00	0	33	0	619708416	57	4770
2026-01-16 06:18:10.07	19.90	25.44	-46.0	-48.2	15.4	0.00e+00	0	33	0	621805568	57	4837
2026-01-16 06:18:11.08	19.60	25.45	-46.1	-48.4	15.4	0.00e+00	0	33	0	622854144	57	4944
2026-01-16 06:18:12.09	19.30	25.46	-46.1	-48.4	15.3	0.00e+00	0	33	0	624951296	57	4968
2026-01-16 06:18:13.09	19.01	25.47	-46.0	-48.3	15.4	0.00e+00	0	33	0	627048448	57	4896
2026-01-16 06:18:14.10	18.71	25.48	-45.9	-48.1	15.5	0.00e+00	0	33	0	629145600	57	4810
2026-01-16 06:18:15.11	18.41	25.49	-45.9	-48.1	15.5	0.00e+00	0	33	0	631242752	57	4769
2026-01-16 06:18:16.12	18.11	25.50	-45.8	-48.0	15.6	0.00e+00	0	33	0	632291328	57	4717
2026-01-16 06:18:17.13	17.81	25.50	-45.9	-48.0	15.6	0.00e+00	0	33	0	634388480	57	4756
2026-01-16 06:18:18.14	17.51	25.51	-45.6	-47.7	15.7	0.00e+00	0	33	0	636485632	57	4593
2026-01-16 06:18:19.15	17.21	25.51	-45.6	-47.7	15.7	0.00e+00	0	33	0	638582784	57	4573
2026-01-16 06:18:20.16	16.91	25.52	-45.5	-47.6	15.7	0.00e+00	0	33	0	640679936	57	4518
2026-01-16 06:18:21.17	16.61	25.52	-45.6	-47.7	15.7	0.00e+00	0	33	0	641728512	57	4587
2026-01-16 06:18:22.18	16.31	25.52	-45.7	-47.8	15.7	0.00e+00	0	33	0	643825664	57	4647
2026-01-16 06:18:23.19	16.01	25.52	-45.6	-47.7	15.7	0.00e+00	0	33	0	645922816	57	4557
2026-01-16 06:18:24.20	15.71	25.52	-45.5	-47.6	15.8	0.00e+00	0	33	0	648019968	57	4505
2026-01-16 06:18:25.21	15.41	25.52	-45.4	-47.4	15.9	0.00e+00	0	33	0	650117120	57	4416
2026-01-16 06:18:26.22	15.11	25.52	-45.2	-47.2	16.0	0.00e+00	0	33	0	651165696	57	4299
2026-01-16 06:18:27.23	14.81	25.51	-45.0	-46.9	16.1	0.00e+00	0	33	0	653262848	56	4410
2026-01-16 06:18:28.24	14.51	25.51	-45.0	-46.9	16.1	0.00e+00	0	33	0	655360000	56	4433
2026-01-16 06:18:29.25	14.21	25.51	-45.0	-46.9	16.1	0.00e+00	0	33	0	657457152	56	4415
2026-01-16 06:18:30.25	13.91	25.50	-45.0	-46.9	16.0	0.00e+00	0	33	0	659554304	56	4419
2026-01-16 06:18:31.26	13.61	25.50	-44.8	-46.7	16.2	0.00e+00	0	33	0	660602880	56	4315
2026-01-16 06:18:32.27	13.31	25.49	-44.7	-46.5	16.2	0.00e+00	0	33	0	662700032	56	4217
2026-01-16 06:18:33.28	13.01	25.48	-44.5	-46.3	16.2	0.00e+00	0	33	0	664797184	55	4374
2026-01-16 06:18:34.29	12.71	25.47	-44.5	-46.3	16.2	0.00e+00	0	33	0	666894336	55	4346
2026-01-16 06:18:35.30	12.42	25.46	-44.4	-46.1	16.3	0.00e+00	0	33	0	668991488	55	4288
2026-01-16 06:18:36.31	12.12	25.45	-44.3	-46.1	16.4	0.00e+00	0	33	0	671088640	55	4244
2026-01-16 06:18:37.32	11.82	25.44	-44.2	-45.9	16.4	0.00e+00	0	33	0	672137216	55	4182
2026-01-16 06:18:38.32	11.52	25.43	-44.1	-45.9	16.4	0.00e+00	0	33	0	674234368	54	4400
2026-01-16 06:18:39.33	11.22	25.42	-44.1	-45.9	16.4	0.00e+00	0	33	0	676331520	54	4400
2026-01-16 06:18:40.34	10.93	25.40	-44.0	-45.7	16.5	0.00e+00	0	33	0	678428672	54	4330
2026-01-16 06:18:41.35	10.63	25.39	-43.9	-45.6	16.5	0.00e+00	0	33	0	680525824	54	4279
2026-01-16 06:18:42.36	10.33	25.37	-43.8	-45.4	16.5	0.00e+00	0	33	0	681574400	54	4181
2026-01-16 06:18:43.37	10.04	25.36	-43.8	-45.4	16.5	0.00e+00	0	33	0	683671552	54	4178
2026-01-16 06:18:44.38	9.74	25.34	-43.7	-45.3	16.6	0.00e+00	0	33	0	685768704	54	4141
2026-01-16 06:18:45.39	9.44	25.32	-43.7	-45.4	16.5	0.00e+00	0	33	0	687865856	53	4402
2026-01-16 06:18:46.39	9.15	25.30	-43.7	-45.3	16.6	0.00e+00	0	33	0	689963008	53	4389
2026-01-16 06:18:47.40	8.85	25.28	-43.7	-45.4	16.6	0.00e+00	0	34	0	691011584	53	4395
2026-01-16 06:18:48.41	8.56	25.26	-43.6	-45.2	16.6	0.00e+00	0	33	0	693108736	53	4322
2026-01-16 06:18:49.42	8.26	25.24	-43.7	-45.4	16.6	0.00e+00	0	33	0	695205888	53	4400
2026-01-16 06:18:50.43	7.97	25.22	-43.8	-45.4	16.5	0.00e+00	0	33	0	697303040	53	4428
2026-01-16 06:18:51.44	7.67	25.20	-43.7	-45.3	16.6	0.00e+00	0	33	0	699400192	53	4371
2026-01-16 06:18:52.45	7.38	25.17	-43.6	-45.2	16.6	0.00e+00	0	33	0	700448768	53	4306
2026-01-16 06:18:53.46	7.09	25.15	-43.6	-45.2	16.6	0.00e+00	0	33	0	702545920	53	4330
2026-01-16 06:18:54.46	6.80	25.12	-43.6	-45.3	16.6	0.00e+00	0	33	0	704643072	53	4346
2026-01-16 06:18:55.48	6.50	25.10	-43.6	-45.2	16.6	0.00e+00	0	33	0	706740224	53	4339
2026-01-16 06:18:56.49	6.21	25.07	-43.7	-45.4	16.5	0.00e+00	0	33	0	708837376	53	4399
2026-01-16 06:18:57.50	5.92	25.04	-43.9	-45.6	16.4	0.00e+00	0	33	0	709885952	53	4525
2026-01-16 06:18:58.50	5.63	25.01	-44.0	-45.7	16.4	0.00e+00	0	33	0	711983104	53	4582
2026-01-16 06:18:59.51	5.34	24.99	-44.1	-45.8	16.4	0.00e+00	0	33	0	714080256	53	4620
2026-01-16 06:19:00.52	5.05	24.96	-44.1	-45.9	16.4	0.00e+00	0	33	0	716177408	53	4670
2026-01-16 06:19:01.53	4.76	24.92	-44.0	-45.8	16.4	0.00e+00	0	33	0	718274560	53	4615
2026-01-16 06:19:02.54	4.48	24.89	-43.9	-45.7	16.4	0.00e+00	0	33	0	719323136	53	4547
2026-01-16 06:19:03.55	4.19	24.86	-43.9	-45.6	16.5	0.00e+00	0	33	0	721420288	53	4541
2026-01-16 06:19:04.56	3.90	24.83	-44.0	-45.7	16.4	0.00e+00	0	33	0	723517440	53	4567
2026-01-16 06:19:05.57	3.61	24.79	-44.1	-45.8	16.4	0.00e+00	0	33	0	725614592	53	4624
2026-01-16 06:19:06.57	3.33	24.76	-44.2	-46.0	16.3	0.00e+00	0	33	0	727711744	53	4730
2026-01-16 06:19:07.58	3.05	24.73	-44.3	-46.1	16.3	0.00e+00	0	33	0	728760320	53	4788
2026-01-16 06:19:08.59	2.76	24.69	-44.4	-46.2	16.2	0.00e+00	0	33	0	730857472	54	4588
2026-01-16 06:19:09.60	2.48	24.65	-44.4	-46.1	16.3	0.00e+00	0	33	0	732954624	54	4536
2026-01-16 06:19:10.61	2.19	24.62	-44.5	-46.3	16.2	0.00e+00	0	33	0	735051776	54	4608
2026-01-16 06:19:11.62	1.91	24.58	-44.5	-46.3	16.2	0.00e+00	0	33	0	737148928	54	4609
2026-01-16 06:19:12.63	1.63	24.54	-44.5	-46.4	16.2	0.00e+00	0	33	0	738197504	54	4655
2026-01-16 06:19:13.64	1.35	24.50	-44.5	-46.3	16.2	0.00e+00	0	33	0	740294656	54	4624
2026-01-16 06:19:14.65	1.07	24.46	-44.5	-46.4	16.1	0.00e+00	0	33	0	742391808	54	4660
2026-01-16 06:19:15.66	0.79	24.42	-44.6	-46.4	16.2	0.00e+00	0	33	0	744488960	54	4669
2026-01-16 06:19:16.67	0.51	24.38	-44.6	-46.4	16.1	0.00e+00	0	33	0	746586112	54	4696
2026-01-16 06:19:17.68	0.23	24.33	-44.7	-46.6	16.1	0.00e+00	0	33	0	747634688	54	4777
2026-01-16 06:19:18.68	359.95	24.29	-44.9	-46.8	16.0	0.00e+00	0	33	0	749731840	54	4925
2026-01-16 06:19:19.70	359.67	24.25	-45.0	-46.9	16.0	0.00e+00	0	33	0	751828992	55	4676
2026-01-16 06:19:20.71	359.40	24.20	-45.1	-47.0	15.9	0.00e+00	0	33	0	753926144	55	4759
2026-01-16 06:19:21.71	359.13	24.16	-45.1	-47.1	15.9	0.00e+00	0	33	0	756023296	55	4794
2026-01-16 06:19:22.72	358.85	24.11	-45.2	-47.2	15.8	0.00e+00	0	33	0	757071872	55	4865
2026-01-16 06:19:23.73	358.58	24.07	-45.2	-47.3	15.8	0.00e+00	0	33	0	759169024	55	4883
2026-01-16 06:19:24.74	358.30	24.02	-45.2	-47.3	15.8	0.00e+00	0	33	0	761266176	55	4871
2026-01-16 06:19:25.75	358.03	23.97	-45.2	-47.3	15.8	0.00e+00	0	33	0	763363328	55	4875
2026-01-16 06:19:26.76	357.76	23.93	-45.3	-47.4	15.8	0.00e+00	0	33	0	765460480	55	4940
2026-01-16 06:19:27.77	357.49	23.88	-45.4	-47.4	15.7	0.00e+00	0	33	0	767557632	55	4969
2026-01-16 06:19:28.78	357.22	23.83	-45.6	-47.7	15.7	0.00e+00	0	33	0	768606208	56	4838
2026-01-16 06:19:29.79	356.95	23.78	-45.6	-47.7	15.7	0.00e+00	0	33	0	770703360	56	4830
2026-01-16 06:19:30.80	356.68	23.73	-45.6	-47.7	15.7	0.00e+00	0	33	0	772800512	56	4825
2026-01-16 06:19:31.81	356.42	23.68	-45.5	-47.6	15.8	0.00e+00	0	33	0	774897664	56	4776
2026-01-16 06:19:32.81	356.15	23.63	-45.8	-47.9	15.6	0.00e+00	0	33	0	776994816	56	4960
2026-01-16 06:19:33.83	355.89	23.58	-46.0	-48.2	15.5	0.00e+00	0	33	0	778043392	57	4824
2026-01-16 06:19:34.83	355.62	23.52	-45.9	-48.1	15.5	0.00e+00	0	33	0	780140544	57	4795
2026-01-16 06:19:35.84	355.36	23.47	-46.0	-48.2	15.5	0.00e+00	0	33	0	782237696	57	4838
2026-01-16 06:19:36.85	355.10	23.42	-45.8	-48.0	15.6	0.00e+00	0	33	0	784334848	57	4718
2026-01-16 06:19:37.86	354.84	23.36	-45.7	-47.9	15.6	0.00e+00	0	33	0	786432000	57	4655
2026-01-16 06:19:38.87	354.58	23.31	-45.6	-47.7	15.7	0.00e+00	0	33	0	787480576	57	4568
2026-01-16 06:19:39.88	354.32	23.25	-45.6	-47.7	15.7	0.00e+00	0	33	0	789577728	57	4550
2026-01-16 06:19:40.89	354.06	23.20	-45.5	-47.5	15.8	0.00e+00	0	33	0	791674880	57	4484
2026-01-16 06:19:41.90	353.80	23.14	-45.5	-47.6	15.7	0.00e+00	0	33	0	793772032	57	4511
2026-01-16 06:19:42.91	353.54	23.08	-45.6	-47.7	15.7	0.00e+00	0	33	0	795869184	57	4561
2026-01-16 06:19:43.92	353.29	23.03	-45.7	-47.8	15.7	0.00e+00	0	33	0	796917760	57	4631
2026-01-16 06:19:44.93	353.03	22.97	-45.9	-48.0	15.5	0.00e+00	0	33	0	799014912	57	4756
2026-01-16 06:19:45.93	352.78	22.91	-46.0	-48.3	15.4	0.00e+00	0	33	0	801112064	57	4877
2026-01-16 06:19:46.94	352.53	22.85	-46.0	-48.3	15.4	0.00e+00	0	33	0	803209216	57	4904
2026-01-16 06:19:47.95	352.28	22.79	-46.0	-48.3	15.4	0.00e+00	0	34	0	805306368	57	4899
2026-01-16 06:19:48.96	352.02	22.73	-45.8	-48.0	15.6	0.00e+00	0	33	0	806354944	57	4709
2026-01-16 06:19:49.97	351.77	22.67	-45.7	-47.8	15.7	0.00e+00	0	33	0	808452096	57	4642
2026-01-16 06:19:50.98	351.53	22.61	-45.5	-47.6	15.8	0.00e+00	0	33	0	810549248	57	4534
2026-01-16 06:19:51.99	351.28	22.55	-45.6	-47.7	15.7	0.00e+00	0	33	0	812646400	57	4566
2026-01-16 06:19:53.00	351.03	22.49	-45.6	-47.7	15.7	0.00e+00	0	33	0	814743552	57	4577
2026-01-16 06:19:54.01	350.78	22.43	-45.7	-47.9	15.6	0.00e+00	0	33	0	815792128	57	4672
2026-01-16 06:19:55.02	350.54	22.37	-45.7	-47.8	15.7	0.00e+00	0	33	0	817889280	57	4649
2026-01-16 06:19:56.03	350.29	22.30	-45.9	-48.1	15.5	0.00e+00	0	33	0	819986432	57	4761
2026-01-16 06:19:57.04	350.05	22.24	-45.8	-48.0	15.6	0.00e+00	0	33	0	822083584	57	4707
2026-01-16 06:19:58.05	349.81	22.18	-45.6	-47.7	15.7	0.00e+00	0	33	0	824180736	57	4570
2026-01-16 06:19:59.06	349.57	22.11	-45.6	-47.7	15.7	0.00e+00	0	33	0	825229312	57	4583
2026-01-16 06:20:00.07	349.33	22.05	-45.5	-47.6	15.7	0.00e+00	0	33	0	827326464	57	4524
2026-01-16 06:20:01.08	349.09	21.98	-45.4	-47.5	15.8	0.00e+00	0	34	0	829423616	57	4444
2026-01-16 06:20:02.09	348.85	21.92	-45.3	-47.2	15.9	0.00e+00	0	34	0	831520768	57	4339
2026-01-16 06:20:03.09	348.61	21.86	-45.2	-47.2	16.0	0.00e+00	0	33	0	833617920	57	4331
2026-01-16 06:20:04.10	348.38	21.79	-45.1	-47.1	16.0	0.00e+00	0	33	0	835715072	56	4525
2026-01-16 06:20:05.11	348.14	21.72	-45.2	-47.1	16.0	0.00e+00	0	33	0	836763648	56	4539
2026-01-16 06:20:06.12	347.91	21.66	-45.1	-47.1	16.0	0.00e+00	0	33	0	838860800	56	4508
2026-01-16 06:20:07.13	347.68	21.59	-45.0	-46.9	16.0	0.00e+00	0	33	0	840957952	56	4426
2026-01-16 06:20:08.14	347.44	21.52	-45.1	-47.0	16.0	0.00e+00	0	34	0	843055104	56	4480
2026-01-16 06:20:09.15	347.21	21.46	-45.0	-46.9	16.1	0.00e+00	0	33	0	845152256	56	4410
2026-01-16 06:20:10.16	346.98	21.39	-45.0	-46.9	16.0	0.00e+00	0	33	0	846200832	56	4401
2026-01-16 06:20:11.17	346.75	21.32	-45.0	-46.9	16.1	0.00e+00	0	33	0	848297984	56	4400
2026-01-16 06:20:12.18	346.52	21.25	-44.8	-46.7	16.1	0.00e+00	0	34	0	850395136	56	4323
2026-01-16 06:20:13.18	346.30	21.18	-44.9	-46.8	16.1	0.00e+00	0	33	0	852492288	56	4361
2026-01-16 06:20:14.19	346.07	21.12	-44.9	-46.8	16.1	0.00e+00	0	34	0	854589440	56	4345
2026-01-16 06:20:15.20	345.85	21.05	-44.9	-46.8	16.1	0.00e+00	0	33	0	855638016	56	4370
2026-01-16 06:20:16.21	345.62	20.98	-44.9	-46.8	16.1	0.00e+00	0	33	0	857735168	56	4369
2026-01-16 06:20:17.22	345.40	20.91	-44.9	-46.8	16.1	0.00e+00	0	34	0	859832320	56	4359
2026-01-16 06:20:18.23	345.18	20.84	-44.9	-46.8	16.1	0.00e+00	0	33	0	861929472	56	4365
2026-01-16 06:20:19.24	344.96	20.77	-44.9	-46.8	16.2	0.00e+00	0	33	0	864026624	56	4348
2026-01-16 06:20:20.25	344.74	20.70	-44.9	-46.8	16.1	0.00e+00	0	33	0	865075200	56	4351
2026-01-16 06:20:21.26	344.52	20.63	-44.9	-46.8	16.1	0.00e+00	0	33	0	867172352	56	4341
2026-01-16 06:20:22.27	344.30	20.56	-44.8	-46.7	16.2	0.00e+00	0	33	0	869269504	56	4330
2026-01-16 06:20:23.28	344.08	20.48	-44.9	-46.9	16.0	0.00e+00	0	33	0	871366656	56	4400
2026-01-16 06:20:24.28	343.87	20.41	-45.1	-47.0	16.0	0.00e+00	0	34	0	873463808	56	4476
2026-01-16 06:20:25.30	343.65	20.34	-45.0	-46.9	16.1	0.00e+00	0	34	0	874512384	56	4441
2026-01-16 06:20:26.31	343.44	20.27	-45.1	-47.1	16.0	0.00e+00	0	33	0	876609536	56	4495
2026-01-16 06:20:27.32	343.23	20.20	-45.1	-47.0	16.0	0.00e+00	0	33	0	878706688	56	4482
2026-01-16 06:20:28.32	343.02	20.13	-45.0	-46.9	16.1	0.00e+00	0	34	0	880803840	56	4425
2026-01-16 06:20:29.34	342.80	20.05	-45.0	-46.9	16.1	0.00e+00	0	33	0	882900992	56	4427
2026-01-16 06:20:30.34	342.60	19.98	-45.0	-46.9	16.0	0.00e+00	0	33	0	883949568	56	4402
2026-01-16 06:20:31.35	342.39	19.91	-44.9	-46.8	16.1	0.00e+00	0	34	0	886046720	56	4369
2026-01-16 06:20:32.36	342.18	19.83	-44.9	-46.8	16.1	0.00e+00	0	33	0	888143872	56	4350
2026-01-16 06:20:33.37	341.97	19.76	-44.8	-46.6	16.2	0.00e+00	0	34	0	890241024	56	4290
2026-01-16 06:20:34.38	341.77	19.69	-44.8	-46.6	16.2	0.00e+00	0	33	0	892338176	56	4269
2026-01-16 06:20:35.39	341.56	19.61	-44.8	-46.7	16.2	0.00e+00	0	33	0	893386752	56	4293
2026-01-16 06:20:36.40	341.36	19.54	-44.5	-46.4	16.2	0.00e+00	0	33	0	895483904	55	4392
2026-01-16 06:20:37.41	341.16	19.47	-44.5	-46.4	16.2	0.00e+00	0	34	0	897581056	55	4396
2026-01-16 06:20:38.42	340.95	19.39	-44.4	-46.2	16.3	0.00e+00	0	34	0	899678208	55	4306
2026-01-16 06:20:39.43	340.75	19.32	-44.3	-46.1	16.3	0.00e+00	0	33	0	901775360	55	4288
2026-01-16 06:20:40.43	340.56	19.24	-44.5	-46.3	16.2	0.00e+00	0	34	0	902823936	55	4373
2026-01-16 06:20:41.44	340.36	19.17	-44.4	-46.2	16.3	0.00e+00	0	33	0	904921088	55	4306
2026-01-16 06:20:42.45	340.16	19.10	-44.4	-46.2	16.2	0.00e+00	0	34	0	907018240	55	4302
2026-01-16 06:20:43.46	339.96	19.02	-44.3	-46.1	16.3	0.00e+00	0	34	0	909115392	55	4267
2026-01-16 06:20:44.47	339.77	18.95	-44.2	-46.0	16.3	0.00e+00	0	33	0	911212544	55	4224
2026-01-16 06:20:45.48	339.57	18.87	-44.4	-46.2	16.3	0.00e+00	0	33	0	912261120	55	4306
2026-01-16 06:20:46.49	339.38	18.80	-44.2	-46.0	16.3	0.00e+00	0	33	0	914358272	55	4222
2026-01-16 06:20:47.50	339.18	18.72	-44.2	-46.0	16.4	0.00e+00	0	33	0	916455424	55	4205
2026-01-16 06:20:48.51	338.99	18.64	-44.2	-46.0	16.4	0.00e+00	0	34	0	918552576	55	4202
2026-01-16 06:20:49.51	338.80	18.57	-44.1	-45.8	16.4	0.00e+00	0	33	0	920649728	54	4373
2026-01-16 06:20:50.52	338.61	18.49	-44.0	-45.7	16.4	0.00e+00	0	34	0	921698304	54	4326
2026-01-16 06:20:51.53	338.42	18.42	-44.1	-45.8	16.3	0.00e+00	0	34	0	923795456	54	4365
2026-01-16 06:20:52.54	338.23	18.34	-43.8	-45.5	16.5	0.00e+00	0	33	0	925892608	54	4216
2026-01-16 06:20:53.55	338.05	18.27	-44.0	-45.7	16.5	0.00e+00	0	34	0	927989760	54	4300
2026-01-16 06:20:54.56	337.86	18.19	-43.9	-45.6	16.5	0.00e+00	0	33	0	930086912	54	4273
2026-01-16 06:20:55.57	337.68	18.12	-44.0	-45.7	16.4	0.00e+00	0	33	0	932184064	54	4310
2026-01-16 06:20:56.58	337.49	18.04	-44.0	-45.7	16.4	0.00e+00	0	34	0	933232640	54	4298
2026-01-16 06:20:57.59	337.31	17.96	-44.0	-45.7	16.4	0.00e+00	0	33	0	935329792	54	4306
2026-01-16 06:20:58.60	337.13	17.89	-44.0	-45.8	16.4	0.00e+00	0	33	0	937426944	54	4341
2026-01-16 06:20:59.61	336.94	17.81	-43.9	-45.6	16.5	0.00e+00	0	33	0	939524096	54	4255
2026-01-16 06:21:00.62	336.76	17.73	-43.9	-45.6	16.5	0.00e+00	0	33	0	941621248	54	4252
2026-01-16 06:21:01.62	336.59	17.66	-43.9	-45.5	16.5	0.00e+00	0	33	0	942669824	54	4233
2026-01-16 06:21:02.63	336.41	17.58	-43.8	-45.5	16.5	0.00e+00	0	33	0	944766976	54	4212
2026-01-16 06:21:03.64	336.23	17.51	-43.8	-45.5	16.5	0.00e+00	0	34	0	946864128	54	4212
2026-01-16 06:21:04.65	336.05	17.43	-43.9	-45.6	16.5	0.00e+00	0	33	0	948961280	54	4265
2026-01-16 06:21:05.66	335.88	17.35	-43.7	-45.4	16.5	0.00e+00	0	33	0	951058432	54	4174
2026-01-16 06:21:06.67	335.70	17.28	-43.8	-45.5	16.5	0.00e+00	0	33	0	952107008	54	4213
2026-01-16 06:21:07.68	335.53	17.20	-43.8	-45.5	16.5	0.00e+00	0	33	0	954204160	54	4233
2026-01-16 06:21:08.69	335.35	17.12	-43.9	-45.6	16.5	0.00e+00	0	33	0	956301312	54	4268
2026-01-16 06:21:09.70	335.18	17.05	-44.0	-45.7	16.4	0.00e+00	0	33	0	958398464	54	4329
2026-01-16 06:21:10.71	335.01	16.97	-44.1	-45.8	16.4	0.00e+00	0	34	0	960495616	54	4371
2026-01-16 06:21:11.72	334.84	16.89	-44.1	-45.8	16.4	0.00e+00	0	33	0	961544192	54	4389
2026-01-16 06:21:12.73	334.67	16.81	-44.1	-45.9	16.4	0.00e+00	0	34	0	963641344	54	4396
2026-01-16 06:21:13.74	334.50	16.74	-44.0	-45.8	16.4	0.00e+00	0	33	0	965738496	54	4357
2026-01-16 06:21:14.75	334.33	16.66	-44.0	-45.7	16.4	0.00e+00	0	33	0	967835648	54	4313
2026-01-16 06:21:15.75	334.17	16.59	-44.1	-45.8	16.4	0.00e+00	0	33	0	969932800	54	4391
2026-01-16 06:21:16.76	334.00	16.51	-44.1	-45.8	16.3	0.00e+00	0	33	0	970981376	54	4388
2026-01-16 06:21:17.77	333.83	16.43	-44.1	-45.9	16.3	0.00e+00	0	33	0	973078528	54	4406
2026-01-16 06:21:18.78	333.67	16.35	-44.0	-45.8	16.4	0.00e+00	0	33	0	975175680	54	4364
2026-01-16 06:21:19.79	333.50	16.28	-44.1	-45.8	16.4	0.00e+00	0	34	0	977272832	54	4371
2026-01-16 06:21:20.80	333.34	16.20	-44.0	-45.8	16.4	0.00e+00	0	33	0	979369984	54	4358
2026-01-16 06:21:21.81	333.18	16.12	-44.1	-45.9	16.3	0.00e+00	0	33	0	980418560	54	4401
2026-01-16 06:21:22.82	333.02	16.05	-44.0	-45.8	16.4	0.00e+00	0	33	0	982515712	54	4356
2026-01-16 06:21:23.83	332.86	15.97	-44.1	-45.9	16.3	0.00e+00	0	33	0	984612864	54	4415
2026-01-16 06:21:24.84	332.70	15.89	-44.2	-46.0	16.3	0.00e+00	0	33	0	986710016	54	4442
2026-01-16 06:21:25.85	332.54	15.82	-44.3	-46.1	16.3	0.00e+00	0	33	0	988807168	54	4502
2026-01-16 06:21:26.85	332.38	15.74	-44.4	-46.2	16.2	0.00e+00	0	33	0	989855744	54	4572
2026-01-16 06:21:27.87	332.23	15.66	-44.4	-46.3	16.2	0.00e+00	0	34	0	991952896	54	4622
2026-01-16 06:21:28.87	332.07	15.59	-44.6	-46.5	16.1	0.00e+00	0	33	0	994050048	54	4711
2026-01-16 06:21:29.88	331.92	15.51	-44.7	-46.6	16.0	0.00e+00	0	33	0	996147200	54	4766
2026-01-16 06:21:30.89	331.76	15.43	-44.7	-46.7	16.0	0.00e+00	0	33	0	998244352	54	4831
2026-01-16 06:21:31.90	331.61	15.36	-44.8	-46.8	15.9	0.00e+00	0	34	0	1000341504	54	4876
2026-01-16 06:21:32.91	331.45	15.28	-44.8	-46.8	15.9	0.00e+00	0	34	0	1001390080	54	4896
2026-01-16 06:21:33.92	331.30	15.20	-44.9	-46.9	15.9	0.00e+00	0	34	0	1003487232	55	4667
2026-01-16 06:21:34.93	331.15	15.13	-44.9	-46.9	15.9	0.00e+00	0	33	0	1005584384	55	4656
2026-01-16 06:21:35.94	331.00	15.05	-44.9	-46.9	15.9	0.00e+00	0	33	0	1007681536	55	4675
2026-01-16 06:21:36.95	330.85	14.97	-44.9	-46.8	15.9	0.00e+00	0	33	0	1009778688	55	4640
2026-01-16 06:21:37.96	330.70	14.90	-44.8	-46.8	15.9	0.00e+00	0	33	0	1010827264	55	4599
2026-01-16 06:21:38.97	330.55	14.82	-44.8	-46.7	16.0	0.00e+00	0	33	0	1012924416	55	4571
2026-01-16 06:21:39.97	330.41	14.75	-44.9	-46.9	15.9	0.00e+00	0	33	0	1015021568	55	4654
2026-01-16 06:21:40.98	330.26	14.67	-45.0	-46.9	15.8	0.00e+00	0	34	0	1017118720	55	4705
2026-01-16 06:21:41.99	330.11	14.59	-44.9	-46.9	15.9	0.00e+00	0	33	0	1019215872	55	4657
2026-01-16 06:21:43.00	329.97	14.52	-44.9	-46.9	15.9	0.00e+00	0	34	0	1020264448	55	4660
2026-01-16 06:21:44.01	329.82	14.44	-44.9	-47.0	15.9	0.00e+00	0	33	0	1022361600	55	4707
2026-01-16 06:21:45.02	329.68	14.36	-45.1	-47.1	15.8	0.00e+00	0	33	0	1024458752	55	4813
2026-01-16 06:21:46.03	329.54	14.29	-45.0	-47.0	15.8	0.00e+00	0	33	0	1026555904	55	4731
2026-01-16 06:21:47.04	329.39	14.21	-45.1	-47.2	15.7	0.00e+00	0	34	0	1028653056	55	4819
2026-01-16 06:21:48.05	329.25	14.14	-45.1	-47.2	15.7	0.00e+00	0	34	0	1029701632	55	4837
2026-01-16 06:21:49.06	329.11	14.06	-45.1	-47.2	15.7	0.00e+00	0	33	0	1031798784	55	4849
2026-01-16 06:21:50.07	328.97	13.98	-45.2	-47.3	15.7	0.00e+00	0	33	0	1033895936	55	4876
2026-01-16 06:21:51.07	328.83	13.91	-45.1	-47.1	15.8	0.00e+00	0	33	0	1035993088	55	4811
2026-01-16 06:21:52.09	328.70	13.83	-45.1	-47.1	15.8	0.00e+00	0	34	0	1038090240	55	4804
2026-01-16 06:21:53.09	328.56	13.76	-45.1	-47.2	15.7	0.00e+00	0	33	0	1039138816	55	4820
2026-01-16 06:21:54.10	328.42	13.68	-45.1	-47.2	15.7	0.00e+00	0	33	0	1041235968	55	4831
2026-01-16 06:21:55.11	328.29	13.61	-45.1	-47.2	15.7	0.00e+00	0	34	0	1043333120	55	4844
2026-01-16 06:21:56.12	328.15	13.53	-45.2	-47.3	15.7	0.00e+00	0	34	0	1045430272	55	4897
2026-01-16 06:21:57.13	328.01	13.46	-45.2	-47.3	15.7	0.00e+00	0	34	0	1047527424	55	4918
2026-01-16 06:21:58.14	327.88	13.38	-45.3	-47.4	15.6	0.00e+00	0	33	0	1048576000	55	4977
2026-01-16 06:21:59.15	327.75	13.31	-45.4	-47.5	15.6	0.00e+00	0	33	0	1050673152	55	5016
2026-01-16 06:22:00.16	327.61	13.23	-45.3	-47.5	15.6	0.00e+00	0	34	0	1052770304	55	5014
2026-01-16 06:22:01.17	327.48	13.16	-45.3	-47.4	15.7	0.00e+00	0	34	0	1054867456	55	4955
2026-01-16 06:22:02.18	327.35	13.08	-45.3	-47.4	15.7	0.00e+00	0	33	0	1056964608	55	4955
2026-01-16 06:22:03.19	327.22	13.01	-45.4	-47.5	15.6	0.00e+00	0	33	0	1058013184	55	5037
2026-01-16 06:22:04.19	327.09	12.93	-45.3	-47.4	15.6	0.00e+00	0	33	0	1060110336	55	4975
2026-01-16 06:22:05.20	326.96	12.86	-45.3	-47.5	15.6	0.00e+00	0	33	0	1062207488	55	5006
2026-01-16 06:22:06.21	326.83	12.78	-45.6	-47.8	15.5	0.00e+00	0	33	0	1064304640	56	4902
2026-01-16 06:22:07.22	326.70	12.71	-45.6	-47.8	15.5	0.00e+00	0	33	0	1066401792	56	4916
2026-01-16 06:22:08.23	326.58	12.63	-45.7	-48.0	15.4	0.00e+00	0	33	0	1067450368	56	4998
2026-01-16 06:22:09.24	326.45	12.56	-45.9	-48.2	15.4	0.00e+00	0	34	0	1069547520	56	5110
2026-01-16 06:22:10.25	326.32	12.48	-45.8	-48.1	15.4	0.00e+00	0	34	0	1071644672	56	5043
2026-01-16 06:22:11.26	326.20	12.41	-45.8	-48.0	15.4	0.00e+00	0	34	0	1073741824	56	5033
2026-01-16 06:22:12.27	326.07	12.34	-45.8	-48.1	15.4	0.00e+00	0	34	0	1075838976	56	5086
2026-01-16 06:22:13.28	325.95	12.26	-45.7	-48.0	15.4	0.00e+00	0	33	0	1076887552	56	5008
2026-01-16 06:22:14.29	325.83	12.19	-45.7	-47.9	15.5	0.00e+00	0	33	0	1078984704	56	4958
2026-01-16 06:22:15.30	325.70	12.11	-45.7	-48.0	15.5	0.00e+00	0	33	0	1081081856	56	4999
2026-01-16 06:22:16.31	325.58	12.04	-45.7	-48.0	15.5	0.00e+00	0	33	0	1083179008	56	5010
2026-01-16 06:22:17.32	325.46	11.97	-45.8	-48.0	15.4	0.00e+00	0	33	0	1085276160	56	5024
2026-01-16 06:22:18.32	325.34	11.89	-45.7	-47.9	15.5	0.00e+00	0	34	0	1086324736	56	4982
2026-01-16 06:22:19.33	325.22	11.82	-45.7	-48.0	15.4	0.00e+00	0	33	0	1088421888	56	5011
2026-01-16 06:22:20.34	325.10	11.75	-45.8	-48.1	15.4	0.00e+00	0	34	0	1090519040	56	5053
2026-01-16 06:22:21.35	324.98	11.67	-45.8	-48.2	15.4	0.00e+00	0	34	0	1092616192	56	5101
2026-01-16 06:22:22.36	324.86	11.60	-45.9	-48.3	15.3	0.00e+00	0	33	0	1094713344	57	4886
2026-01-16 06:22:23.37	324.74	11.53	-45.9	-48.3	15.3	0.00e+00	0	33	0	1095761920	57	4889
2026-01-16 06:22:24.38	324.63	11.45	-46.0	-48.4	15.2	0.00e+00	0	33	0	1097859072	57	4972
2026-01-16 06:22:25.39	324.51	11.38	-46.1	-48.5	15.2	0.00e+00	0	34	0	1099956224	57	5018
2026-01-16 06:22:26.40	324.39	11.31	-46.1	-48.5	15.2	0.00e+00	0	34	0	1102053376	57	5017
2026-01-16 06:22:27.41	324.28	11.24	-46.1	-48.6	15.1	0.00e+00	0	34	0	1104150528	57	5058
2026-01-16 06:22:28.41	324.16	11.16	-46.2	-48.7	15.1	0.00e+00	0	34	0	1106247680	57	5115
2026-01-16 06:22:29.42	324.05	11.09	-46.2	-48.7	15.0	0.00e+00	0	34	0	1107296256	57	5147
2026-01-16 06:22:30.43	323.93	11.02	-46.3	-48.8	15.0	0.00e+00	0	34	0	1109393408	57	5167
2026-01-16 06:22:31.44	323.82	10.95	-46.3	-48.8	15.0	0.00e+00	0	33	0	1111490560	57	5205
2026-01-16 06:22:32.45	323.71	10.87	-46.4	-48.9	14.9	0.00e+00	0	34	0	1113587712	57	5266
2026-01-16 06:22:33.46	323.60	10.80	-46.4	-48.9	14.9	0.00e+00	0	34	0	1115684864	57	5278
2026-01-16 06:22:34.47	323.48	10.73	-46.3	-48.9	15.0	0.00e+00	0	34	0	1116733440	58	4961
2026-01-16 06:22:35.48	323.37	10.66	-46.4	-49.0	14.9	0.00e+00	0	34	0	1118830592	58	5024
2026-01-16 06:22:36.49	323.26	10.59	-46.4	-49.1	14.8	0.00e+00	0	33	0	1120927744	58	5045
2026-01-16 06:22:37.50	323.15	10.51	-46.5	-49.1	14.9	0.00e+00	0	33	0	1123024896	58	5064
2026-01-16 06:22:38.51	323.04	10.44	-46.5	-49.1	14.8	0.00e+00	0	34	0	1125122048	58	5068
2026-01-16 06:22:39.52	322.94	10.37	-46.5	-49.2	14.8	0.00e+00	0	34	0	1126170624	58	5135
2026-01-16 06:22:40.53	322.83	10.30	-46.6	-49.3	14.7	0.00e+00	0	33	0	1128267776	58	5184
2026-01-16 06:22:41.54	322.72	10.23	-46.6	-49.3	14.7	0.00e+00	0	34	0	1130364928	58	5212
2026-01-16 06:22:42.54	322.61	10.16	-46.6	-49.4	14.7	0.00e+00	0	34	0	1132462080	58	5233
2026-01-16 06:22:43.55	322.51	10.09	-46.7	-49.4	14.6	0.00e+00	0	34	0	1134559232	58	5251
2026-01-16 06:22:44.56	322.40	10.02	-46.7	-49.5	14.6	0.00e+00	0	33	0	1135607808	58	5315
2026-01-16 06:22:45.57	322.29	9.94	-46.7	-49.5	14.6	0.00e+00	0	33	0	1137704960	58	5297
2026-01-16 06:22:46.58	322.19	9.87	-46.7	-49.5	14.6	0.00e+00	0	33	0	1139802112	58	5301
2026-01-16 06:22:47.59	322.09	9.80	-46.7	-49.4	14.6	0.00e+00	0	34	0	1141899264	58	5262
2026-01-16 06:22:48.60	321.98	9.73	-46.6	-49.3	14.7	0.00e+00	0	34	0	1143996416	58	5184
2026-01-16 06:22:49.61	321.88	9.66	-46.6	-49.3	14.7	0.00e+00	0	34	0	1145044992	58	5183
2026-01-16 06:22:50.62	321.77	9.59	-46.6	-49.4	14.6	0.00e+00	0	34	0	1147142144	58	5237
2026-01-16 06:22:51.63	321.67	9.52	-46.7	-49.4	14.6	0.00e+00	0	33	0	1149239296	58	5270
2026-01-16 06:22:52.64	321.57	9.45	-46.6	-49.3	14.7	0.00e+00	0	34	0	1151336448	58	5202
2026-01-16 06:22:53.65	321.47	9.38	-46.7	-49.4	14.6	0.00e+00	0	34	0	1153433600	58	5273
2026-01-16 06:22:54.66	321.37	9.31	-46.7	-49.5	14.6	0.00e+00	0	34	0	1154482176	58	5286
2026-01-16 06:22:55.67	321.27	9.24	-46.6	-49.3	14.7	0.00e+00	0	33	0	1156579328	58	5183
2026-01-16 06:22:56.67	321.17	9.17	-46.6	-49.4	14.6	0.00e+00	0	34	0	1158676480	58	5242
2026-01-16 06:22:57.68	321.07	9.10	-46.6	-49.3	14.7	0.00e+00	0	34	0	1160773632	58	5194
2026-01-16 06:22:58.69	320.97	9.03	-46.6	-49.3	14.7	0.00e+00	0	34	0	1162870784	58	5205
2026-01-16 06:22:59.70	320.87	8.96	-46.6	-49.4	14.6	0.00e+00	0	34	0	1163919360	58	5238
2026-01-16 06:23:00.71	320.77	8.90	-46.6	-49.4	14.6	0.00e+00	0	34	0	1166016512	58	5255
2026-01-16 06:23:01.72	320.68	8.83	-46.7	-49.5	14.5	0.00e+00	0	34	0	1168113664	58	5318
2026-01-16 06:23:02.72	320.58	8.76	-46.7	-49.5	14.5	0.00e+00	0	34	0	1170210816	58	5331
2026-01-16 06:23:03.73	320.48	8.69	-46.8	-49.7	14.4	0.00e+00	0	33	0	1172307968	58	5403
2026-01-16 06:23:04.74	320.39	8.62	-46.8	-49.6	14.5	0.00e+00	0	34	0	1174405120	58	5385
2026-01-16 06:23:05.75	320.29	8.55	-46.8	-49.7	14.4	0.00e+00	0	34	0	1175453696	58	5444
2026-01-16 06:23:06.76	320.20	8.48	-46.8	-49.7	14.4	0.00e+00	0	34	0	1177550848	58	5437
2026-01-16 06:23:07.77	320.10	8.41	-46.9	-49.8	14.3	0.00e+00	0	34	0	1179648000	58	5471
2026-01-16 06:23:08.78	320.01	8.35	-46.9	-49.8	14.3	0.00e+00	0	33	0	1181745152	58	5518
2026-01-16 06:23:09.79	319.91	8.28	-46.8	-49.7	14.4	0.00e+00	0	34	0	1183842304	59	5117
2026-01-16 06:23:10.80	319.82	8.21	-46.9	-49.9	14.3	0.00e+00	0	34	0	1184890880	59	5235
2026-01-16 06:23:11.81	319.73	8.14	-47.0	-50.0	14.2	0.00e+00	0	34	0	1186988032	59	5288
2026-01-16 06:23:12.82	319.64	8.07	-47.0	-50.1	14.1	0.00e+00	0	34	0	1189085184	59	5374
2026-01-16 06:23:13.83	319.54	8.01	-47.1	-50.1	14.1	0.00e+00	0	34	0	1191182336	59	5387
2026-01-16 06:23:14.83	319.45	7.94	-47.1	-50.2	14.0	0.00e+00	0	34	0	1192230912	59	5459
2026-01-16 06:23:15.84	319.36	7.87	-47.1	-50.3	14.0	0.00e+00	0	34	0	1194328064	59	5476
2026-01-16 06:23:16.85	319.27	7.80	-47.1	-50.2	14.0	0.00e+00	0	33	0	1196425216	59	5449
2026-01-16 06:23:17.86	319.18	7.74	-47.1	-50.3	13.9	0.00e+00	0	34	0	1198522368	59	5481
2026-01-16 06:23:18.87	319.09	7.67	-47.2	-50.4	13.7	0.00e+00	0	34	0	1200619520	59	5585
2026-01-16 06:23:19.88	319.00	7.60	-47.2	-50.4	13.8	0.00e+00	0	34	0	1202716672	59	5560
2026-01-16 06:23:20.88	318.91	7.54	-47.2	-50.4	13.9	0.00e+00	0	34	0	1203765248	59	5536
2026-01-16 06:23:21.90	318.82	7.47	-47.2	-50.5	13.5	0.00e+00	0	34	0	1205862400	60	5293
2026-01-16 06:23:22.90	318.74	7.40	-46.9	-50.1	13.8	0.00e+00	0	33	0	1207959552	60	5077
2026-01-16 06:23:23.91	318.65	7.33	-47.0	-50.3	13.7	0.00e+00	0	33	0	1210056704	60	5169
2026-01-16 06:23:24.92	318.56	7.27	-47.1	-50.5	13.5	0.00e+00	0	33	0	1212153856	60	5302
2026-01-16 06:23:25.93	318.48	7.20	-47.0	-50.3	13.7	0.00e+00	0	34	0	1213202432	60	5168
2026-01-16 06:23:26.94	318.39	7.14	-47.1	-50.3	13.7	0.00e+00	0	34	0	1215299584	60	5213
2026-01-16 06:23:27.95	318.30	7.07	-47.0	-50.2	13.7	0.00e+00	0	34	0	1217396736	60	5157
2026-01-16 06:23:28.96	318.22	7.00	-46.9	-50.1	13.8	0.00e+00	0	33	0	1219493888	60	5088
2026-01-16 06:23:29.97	318.13	6.94	-47.1	-50.4	13.6	0.00e+00	0	34	0	1221591040	60	5264
2026-01-16 06:23:30.98	318.05	6.87	-47.0	-50.3	13.7	0.00e+00	0	34	0	1222639616	60	5179
2026-01-16 06:23:31.99	317.96	6.80	-47.1	-50.4	13.5	0.00e+00	0	33	0	1224736768	60	5277
2026-01-16 06:23:33.00	317.88	6.74	-47.1	-50.4	13.6	0.00e+00	0	34	0	1226833920	60	5245
2026-01-16 06:23:34.01	317.79	6.67	-47.1	-50.4	13.6	0.00e+00	0	34	0	1228931072	60	5247
2026-01-16 06:23:35.01	317.71	6.61	-47.0	-50.3	13.7	0.00e+00	0	34	0	1231028224	60	5174
2026-01-16 06:23:36.03	317.63	6.54	-47.0	-50.4	13.6	0.00e+00	0	33	0	1232076800	60	5221
