passes_logs/2026/01/16/R3.2S_Murmansk_2ch/R3.2S_Murmansk_2ch__20260116_015130_FENGYUN_3D_rec.log

#Pass ID: 20260116_015130_FENGYUN 3D
#Satellite: FENGYUN 3D
#Configuration: FENGYUN 3D
#almurnet v.1.7.20251203
#Start time: 2026-01-16 01:51:30

#Version: 2.2.20231116
#Station: R3.2S_Murmansk_2ch
#Location: 33.079688 lon 68.888172 lat
#TLE: 1 43010U 17072A   26015.63785617 -.00000279  00000+0 -10998-3 0  9991
#TLE: 2 43010  98.9933 347.4636 0002368 106.7198 253.4237 14.19694313423348

#Time	Az	El	Level	Level2	SNR	BER	BlckErr	Temp	State	Recorded	gain1	gain2
2026-01-16 01:51:30.41	22.16	1.99	-49.5	-61.2	3.8	8.45e-01	0	31	0	0	65	13582
2026-01-16 01:51:31.42	22.19	2.05	-49.5	-60.9	3.8	8.47e-01	0	31	104	0	64	14025
2026-01-16 01:51:32.42	22.22	2.12	-49.1	-57.3	5.0	8.42e-01	0	31	0	0	64	9222
2026-01-16 01:51:33.43	22.25	2.18	-49.5	-60.1	3.9	8.42e-01	0	31	104	0	64	12737
2026-01-16 01:51:34.44	22.28	2.24	-49.3	-58.4	4.5	8.40e-01	0	31	104	0	64	10492
2026-01-16 01:51:35.45	22.31	2.31	-49.5	-60.1	4.0	8.41e-01	0	31	0	0	64	12793
2026-01-16 01:51:36.46	22.34	2.37	-49.5	-60.6	4.0	8.45e-01	0	31	104	0	64	13454
2026-01-16 01:51:37.47	22.37	2.43	-49.4	-59.4	4.2	8.38e-01	0	31	0	0	64	11762
2026-01-16 01:51:38.48	22.41	2.50	-49.4	-59.5	4.2	8.40e-01	0	31	0	0	64	11884
2026-01-16 01:51:39.49	22.44	2.56	-49.1	-57.1	5.1	7.97e-01	0	31	0	0	64	8988
2026-01-16 01:51:40.50	22.47	2.63	-49.0	-56.9	5.2	7.82e-01	0	31	0	0	64	8776
2026-01-16 01:51:41.51	22.50	2.69	-49.1	-57.5	4.8	7.53e-01	0	31	0	0	64	9493
2026-01-16 01:51:42.52	22.53	2.75	-49.1	-57.3	5.0	7.36e-01	0	32	0	0	64	9226
2026-01-16 01:51:43.53	22.56	2.82	-48.6	-54.7	6.7	7.27e-01	0	31	0	2097152	63	7242
2026-01-16 01:51:44.54	22.59	2.88	-48.4	-54.3	7.0	1.38e-01	0	32	0	7340032	63	6957
2026-01-16 01:51:45.55	22.62	2.95	-48.5	-54.5	6.8	2.54e-01	0	32	0	13631488	63	7105
2026-01-16 01:51:46.56	22.65	3.01	-47.9	-52.8	8.4	8.89e-02	0	31	0	18874368	62	6143
2026-01-16 01:51:47.57	22.69	3.08	-48.4	-54.0	7.3	6.73e-02	0	32	0	25165824	62	7090
2026-01-16 01:51:48.58	22.72	3.14	-48.1	-53.2	8.0	1.02e-01	0	32	0	30408704	62	6444
2026-01-16 01:51:49.59	22.75	3.21	-47.9	-52.8	8.4	2.03e-02	0	32	0	35651584	62	6166
2026-01-16 01:51:50.60	22.78	3.28	-48.0	-53.1	8.1	8.32e-02	0	32	0	41943040	62	6393
2026-01-16 01:51:51.61	22.81	3.34	-47.0	-50.8	10.2	3.97e-03	0	32	0	47185920	60	5467
2026-01-16 01:51:52.61	22.84	3.41	-46.7	-50.2	10.6	1.90e-03	0	32	0	53477376	60	5124
2026-01-16 01:51:53.62	22.88	3.47	-46.8	-50.2	11.0	9.15e-05	0	32	0	58720256	58	5759
2026-01-16 01:51:54.63	22.91	3.54	-47.2	-51.1	10.3	5.48e-04	0	32	0	65011712	59	6007
2026-01-16 01:51:55.64	22.94	3.61	-45.4	-48.0	12.8	3.54e-05	0	32	0	70254592	57	4728
2026-01-16 01:51:56.65	22.97	3.67	-46.5	-49.7	11.4	2.69e-04	0	32	0	75497472	59	5130
2026-01-16 01:51:57.66	23.01	3.74	-44.6	-46.9	13.4	0.00e+00	0	32	0	81788928	55	4660
2026-01-16 01:51:58.67	23.04	3.81	-44.5	-46.7	13.5	0.00e+00	0	32	0	87031808	54	4855
2026-01-16 01:51:59.68	23.07	3.87	-45.5	-48.1	12.7	4.50e-06	0	32	0	93323264	56	5097
2026-01-16 01:52:00.69	23.11	3.94	-44.1	-46.2	13.9	0.00e+00	0	32	0	98566144	54	4593
2026-01-16 01:52:01.70	23.14	4.01	-42.6	-44.3	15.0	0.00e+00	0	32	0	103809024	51	4365
2026-01-16 01:52:02.71	23.17	4.08	-43.3	-45.2	14.5	0.00e+00	0	32	0	110100480	52	4565
2026-01-16 01:52:03.72	23.21	4.14	-43.3	-45.2	14.5	0.00e+00	0	32	0	115343360	52	4579
2026-01-16 01:52:04.73	23.24	4.21	-44.9	-47.3	13.2	0.00e+00	0	32	0	121634816	54	5162
2026-01-16 01:52:05.74	23.27	4.28	-44.5	-46.7	13.6	0.00e+00	0	32	0	126877696	55	4555
2026-01-16 01:52:06.75	23.31	4.35	-44.8	-47.1	13.3	0.00e+00	0	32	0	132120576	54	5090
2026-01-16 01:52:07.76	23.34	4.42	-45.2	-47.6	13.1	1.10e-06	0	32	0	138412032	56	4779
2026-01-16 01:52:08.77	23.38	4.48	-45.7	-48.4	12.5	2.20e-06	0	32	0	143654912	56	5227
2026-01-16 01:52:09.78	23.41	4.55	-45.9	-48.7	12.3	6.17e-05	0	32	0	149946368	57	5128
2026-01-16 01:52:10.78	23.45	4.62	-47.0	-50.6	10.8	4.50e-04	0	32	0	155189248	59	5676
2026-01-16 01:52:11.79	23.48	4.69	-47.0	-50.5	10.8	6.09e-04	0	32	0	161480704	59	5629
2026-01-16 01:52:12.80	23.52	4.76	-47.1	-50.9	10.1	2.70e-03	0	32	0	166723584	60	5585
2026-01-16 01:52:13.81	23.55	4.83	-47.6	-51.9	9.2	1.10e-02	0	32	0	173015040	60	6241
2026-01-16 01:52:14.82	23.59	4.90	-47.9	-52.9	8.4	2.75e-02	0	32	0	178257920	61	6583
2026-01-16 01:52:15.83	23.62	4.97	-48.2	-53.6	7.7	7.20e-02	0	32	0	183500800	61	7153
2026-01-16 01:52:16.84	23.66	5.04	-48.1	-53.3	7.9	5.55e-02	0	32	0	189792256	61	6937
2026-01-16 01:52:17.85	23.69	5.11	-48.4	-54.1	7.4	4.55e-02	0	32	0	195035136	61	7554
2026-01-16 01:52:18.86	23.73	5.18	-49.2	-58.3	4.5	7.12e-01	0	32	0	199229440	63	10961
2026-01-16 01:52:19.87	23.76	5.25	-47.9	-52.3	9.1	6.93e-02	0	32	0	202375168	62	5835
2026-01-16 01:52:20.88	23.80	5.32	-44.8	-47.0	13.7	1.10e-06	0	32	0	208666624	56	4454
2026-01-16 01:52:21.89	23.84	5.39	-49.4	-58.1	4.8	8.07e-02	0	32	0	213909504	64	10107
2026-01-16 01:52:22.90	23.87	5.46	-45.2	-47.4	13.4	3.23e-02	0	32	0	217055232	57	4438
2026-01-16 01:52:23.91	23.91	5.53	-44.5	-46.6	13.9	0.00e+00	0	32	0	223346688	55	4500
2026-01-16 01:52:24.92	23.94	5.60	-44.6	-46.7	13.9	0.00e+00	0	32	0	228589568	54	4829
2026-01-16 01:52:25.93	23.98	5.68	-43.2	-44.9	14.9	0.00e+00	0	32	0	234881024	52	4404
2026-01-16 01:52:26.93	24.02	5.75	-44.8	-47.0	13.7	0.00e+00	0	32	0	240123904	55	4739
2026-01-16 01:52:27.95	24.06	5.82	-43.5	-45.3	14.7	0.00e+00	0	32	0	245366784	53	4378
2026-01-16 01:52:28.95	24.09	5.89	-43.5	-45.4	14.7	0.00e+00	0	32	0	251658240	53	4392
2026-01-16 01:52:29.96	24.13	5.96	-44.0	-45.9	14.3	0.00e+00	0	32	0	256901120	53	4686
2026-01-16 01:52:30.97	24.17	6.04	-43.9	-45.7	14.5	0.00e+00	0	32	0	263192576	53	4588
2026-01-16 01:52:31.98	24.21	6.11	-43.5	-45.3	14.8	0.00e+00	0	32	0	268435456	53	4352
2026-01-16 01:52:32.99	24.24	6.18	-43.6	-45.4	14.7	0.00e+00	0	32	0	273678336	53	4422
2026-01-16 01:52:34.00	24.28	6.25	-43.0	-44.7	15.1	0.00e+00	0	32	0	279969792	52	4327
2026-01-16 01:52:35.01	24.32	6.33	-43.0	-44.6	15.1	0.00e+00	0	33	0	285212672	52	4278
2026-01-16 01:52:36.02	24.36	6.40	-43.1	-44.8	15.0	0.00e+00	0	32	0	291504128	52	4386
2026-01-16 01:52:37.03	24.40	6.47	-42.8	-44.3	15.3	0.00e+00	0	32	0	296747008	51	4389
2026-01-16 01:52:38.04	24.44	6.55	-42.6	-44.1	15.4	0.00e+00	0	33	0	301989888	51	4280
2026-01-16 01:52:39.05	24.47	6.62	-42.3	-43.9	15.6	0.00e+00	0	32	0	308281344	51	4155
2026-01-16 01:52:40.06	24.51	6.70	-42.3	-43.8	15.6	0.00e+00	0	32	0	313524224	51	4121
2026-01-16 01:52:41.07	24.55	6.77	-42.2	-43.6	15.7	0.00e+00	0	32	0	319815680	50	4282
2026-01-16 01:52:42.08	24.59	6.85	-42.0	-43.5	15.7	0.00e+00	0	32	0	325058560	50	4210
2026-01-16 01:52:43.09	24.63	6.92	-42.2	-43.7	15.7	0.00e+00	0	33	0	331350016	50	4296
2026-01-16 01:52:44.10	24.67	7.00	-42.2	-43.6	15.7	0.00e+00	0	33	0	336592896	50	4286
2026-01-16 01:52:45.11	24.71	7.07	-41.6	-43.1	15.9	0.00e+00	0	32	0	342884352	49	4243
2026-01-16 01:52:46.12	24.75	7.15	-42.1	-43.6	15.7	0.00e+00	0	32	0	348127232	49	4528
2026-01-16 01:52:47.12	24.79	7.22	-41.8	-43.3	15.8	0.00e+00	0	32	0	353370112	49	4342
2026-01-16 01:52:48.13	24.83	7.30	-42.1	-43.5	15.7	0.00e+00	0	33	0	359661568	49	4485
2026-01-16 01:52:49.14	24.87	7.37	-41.9	-43.3	15.8	0.00e+00	0	32	0	364904448	49	4383
2026-01-16 01:52:50.15	24.91	7.45	-41.8	-43.3	15.8	0.00e+00	0	33	0	371195904	49	4354
2026-01-16 01:52:51.16	24.95	7.53	-41.9	-43.3	15.8	0.00e+00	0	32	0	376438784	49	4379
2026-01-16 01:52:52.17	25.00	7.60	-41.7	-43.2	15.9	0.00e+00	0	33	0	381681664	49	4299
2026-01-16 01:52:53.18	25.04	7.68	-42.1	-43.6	15.7	0.00e+00	0	33	0	387973120	49	4513
2026-01-16 01:52:54.19	25.08	7.76	-41.5	-42.9	16.0	0.00e+00	0	33	0	393216000	49	4148
2026-01-16 01:52:55.20	25.12	7.84	-41.8	-43.3	15.9	0.00e+00	0	32	0	398458880	49	4345
2026-01-16 01:52:56.21	25.16	7.91	-41.7	-43.1	16.0	0.00e+00	0	33	0	404750336	49	4255
2026-01-16 01:52:57.22	25.21	7.99	-41.8	-43.2	15.9	0.00e+00	0	33	0	409993216	49	4300
2026-01-16 01:52:58.23	25.25	8.07	-41.4	-42.8	16.1	0.00e+00	0	33	0	416284672	49	4107
2026-01-16 01:52:59.24	25.29	8.15	-41.3	-42.7	16.1	0.00e+00	0	33	0	421527552	49	4075
2026-01-16 01:53:00.25	25.33	8.23	-41.7	-43.1	15.9	0.00e+00	0	33	0	427819008	49	4275
2026-01-16 01:53:01.26	25.38	8.31	-41.4	-42.7	16.1	0.00e+00	0	33	0	433061888	49	4090
2026-01-16 01:53:02.27	25.42	8.39	-41.3	-42.6	16.2	0.00e+00	0	33	0	439353344	49	4050
2026-01-16 01:53:03.28	25.46	8.46	-41.5	-42.9	16.0	0.00e+00	0	33	0	444596224	49	4172
2026-01-16 01:53:04.29	25.51	8.54	-41.5	-42.9	16.0	0.00e+00	0	33	0	449839104	49	4171
2026-01-16 01:53:05.30	25.55	8.62	-41.3	-42.7	16.1	0.00e+00	0	33	0	456130560	49	4071
2026-01-16 01:53:06.31	25.60	8.70	-41.3	-42.7	16.2	0.00e+00	0	33	0	461373440	49	4075
2026-01-16 01:53:07.31	25.64	8.78	-41.4	-42.7	16.1	0.00e+00	0	33	0	467664896	49	4095
2026-01-16 01:53:08.32	25.68	8.86	-41.5	-42.9	16.1	0.00e+00	0	33	0	472907776	49	4161
2026-01-16 01:53:09.33	25.73	8.95	-41.6	-42.9	16.1	0.00e+00	0	33	0	478150656	49	4190
2026-01-16 01:53:10.34	25.77	9.03	-41.3	-42.7	16.2	0.00e+00	0	33	0	484442112	49	4060
2026-01-16 01:53:11.35	25.82	9.11	-41.5	-42.8	16.1	0.00e+00	0	33	0	489684992	49	4137
2026-01-16 01:53:12.36	25.86	9.19	-41.8	-43.2	16.0	0.00e+00	0	33	0	495976448	49	4325
2026-01-16 01:53:13.36	25.91	9.27	-41.6	-43.0	16.1	0.00e+00	0	33	0	501219328	49	4229
2026-01-16 01:53:14.37	25.96	9.35	-41.7	-43.1	16.0	0.00e+00	0	33	0	506462208	49	4243
2026-01-16 01:53:15.38	26.00	9.44	-41.7	-43.1	16.0	0.00e+00	0	33	0	512753664	49	4243
2026-01-16 01:53:16.39	26.05	9.52	-41.3	-42.7	16.2	0.00e+00	0	33	0	517996544	49	4057
2026-01-16 01:53:17.40	26.10	9.60	-41.5	-42.8	16.1	0.00e+00	0	33	0	524288000	49	4132
2026-01-16 01:53:18.41	26.14	9.68	-41.5	-42.9	16.1	0.00e+00	0	33	0	529530880	49	4165
2026-01-16 01:53:19.42	26.19	9.77	-41.5	-42.9	16.1	0.00e+00	0	33	0	535822336	49	4173
2026-01-16 01:53:20.43	26.24	9.85	-41.2	-42.5	16.3	0.00e+00	0	33	0	541065216	48	4210
2026-01-16 01:53:21.44	26.28	9.93	-41.3	-42.6	16.2	0.00e+00	0	33	0	546308096	48	4272
2026-01-16 01:53:22.45	26.33	10.02	-41.3	-42.6	16.3	0.00e+00	0	33	0	552599552	48	4291
2026-01-16 01:53:23.46	26.38	10.10	-41.4	-42.7	16.2	0.00e+00	0	33	0	557842432	48	4337
2026-01-16 01:53:24.47	26.43	10.19	-41.3	-42.7	16.2	0.00e+00	0	33	0	564133888	48	4296
2026-01-16 01:53:25.48	26.48	10.27	-41.1	-42.5	16.3	0.00e+00	0	33	0	569376768	48	4213
2026-01-16 01:53:26.48	26.53	10.36	-41.2	-42.6	16.2	0.00e+00	0	33	0	574619648	48	4260
2026-01-16 01:53:27.50	26.58	10.44	-41.1	-42.5	16.3	0.00e+00	0	33	0	580911104	48	4209
2026-01-16 01:53:28.50	26.62	10.53	-41.0	-42.4	16.3	0.00e+00	0	33	0	586153984	48	4150
2026-01-16 01:53:29.52	26.67	10.62	-41.1	-42.4	16.3	0.00e+00	0	33	0	592445440	48	4164
2026-01-16 01:53:30.53	26.72	10.70	-41.2	-42.5	16.3	0.00e+00	0	33	0	597688320	48	4238
2026-01-16 01:53:31.53	26.77	10.79	-41.2	-42.6	16.3	0.00e+00	0	33	0	602931200	48	4243
2026-01-16 01:53:32.54	26.82	10.88	-41.3	-42.7	16.2	0.00e+00	0	33	0	609222656	48	4303
2026-01-16 01:53:33.55	26.88	10.96	-41.2	-42.6	16.3	0.00e+00	0	33	0	614465536	48	4265
2026-01-16 01:53:34.56	26.93	11.05	-41.0	-42.3	16.4	0.00e+00	0	33	0	620756992	48	4128
2026-01-16 01:53:35.57	26.98	11.14	-40.9	-42.2	16.4	0.00e+00	0	33	0	625999872	48	4090
2026-01-16 01:53:36.58	27.03	11.23	-40.9	-42.2	16.5	0.00e+00	0	33	0	632291328	48	4068
2026-01-16 01:53:37.59	27.08	11.32	-40.8	-42.1	16.5	0.00e+00	0	33	0	637534208	48	4033
2026-01-16 01:53:38.60	27.13	11.40	-40.8	-42.1	16.5	0.00e+00	0	33	0	642777088	48	4009
2026-01-16 01:53:39.61	27.19	11.49	-40.8	-42.1	16.5	0.00e+00	0	33	0	649068544	48	4027
2026-01-16 01:53:40.62	27.24	11.58	-40.9	-42.2	16.5	0.00e+00	0	33	0	654311424	48	4055
2026-01-16 01:53:41.63	27.29	11.67	-40.9	-42.2	16.4	0.00e+00	0	33	0	660602880	48	4085
2026-01-16 01:53:42.64	27.35	11.76	-40.8	-42.1	16.5	0.00e+00	0	33	0	665845760	48	4018
2026-01-16 01:53:43.65	27.40	11.85	-40.8	-42.1	16.5	0.00e+00	0	33	0	671088640	48	4024
2026-01-16 01:53:44.66	27.45	11.94	-40.8	-42.1	16.5	0.00e+00	0	33	0	677380096	48	4028
2026-01-16 01:53:45.67	27.51	12.04	-40.9	-42.2	16.5	0.00e+00	0	33	0	682622976	48	4062
2026-01-16 01:53:46.68	27.56	12.13	-40.9	-42.2	16.5	0.00e+00	0	33	0	688914432	48	4075
2026-01-16 01:53:47.69	27.62	12.22	-40.8	-42.1	16.6	0.00e+00	0	33	0	694157312	48	4013
2026-01-16 01:53:48.70	27.67	12.31	-40.9	-42.2	16.5	0.00e+00	0	33	0	699400192	48	4073
2026-01-16 01:53:49.71	27.73	12.40	-41.0	-42.3	16.5	0.00e+00	0	33	0	705691648	48	4099
2026-01-16 01:53:50.72	27.78	12.50	-40.9	-42.2	16.5	0.00e+00	0	33	0	710934528	48	4071
2026-01-16 01:53:51.73	27.84	12.59	-40.9	-42.2	16.5	0.00e+00	0	33	0	717225984	48	4080
2026-01-16 01:53:52.74	27.90	12.68	-40.9	-42.2	16.5	0.00e+00	0	33	0	722468864	48	4065
2026-01-16 01:53:53.75	27.95	12.78	-40.9	-42.2	16.5	0.00e+00	0	33	0	728760320	48	4063
2026-01-16 01:53:54.76	28.01	12.87	-40.9	-42.2	16.5	0.00e+00	0	33	0	734003200	48	4083
2026-01-16 01:53:55.77	28.07	12.96	-40.9	-42.2	16.5	0.00e+00	0	33	0	740294656	48	4070
2026-01-16 01:53:56.78	28.12	13.06	-40.9	-42.1	16.5	0.00e+00	0	33	0	745537536	48	4050
2026-01-16 01:53:57.79	28.18	13.15	-40.8	-42.1	16.6	0.00e+00	0	33	0	750780416	48	4015
2026-01-16 01:53:58.80	28.24	13.25	-40.8	-42.1	16.6	0.00e+00	0	33	0	757071872	48	4020
2026-01-16 01:53:59.81	28.30	13.35	-40.8	-42.1	16.6	0.00e+00	0	33	0	762314752	48	4033
2026-01-16 01:54:00.82	28.36	13.44	-40.8	-42.0	16.6	0.00e+00	0	33	0	768606208	48	3998
2026-01-16 01:54:01.83	28.42	13.54	-40.7	-42.0	16.6	0.00e+00	0	33	0	773849088	48	3975
2026-01-16 01:54:02.84	28.48	13.63	-40.8	-42.1	16.6	0.00e+00	0	33	0	779091968	48	4021
2026-01-16 01:54:03.84	28.54	13.73	-40.9	-42.1	16.6	0.00e+00	0	33	0	785383424	48	4037
2026-01-16 01:54:04.86	28.60	13.83	-40.8	-42.1	16.6	0.00e+00	0	33	0	790626304	48	4012
2026-01-16 01:54:05.87	28.66	13.93	-40.7	-41.9	16.6	0.00e+00	0	33	0	796917760	48	3950
2026-01-16 01:54:06.88	28.72	14.03	-40.3	-41.6	16.6	0.00e+00	0	33	0	802160640	47	4014
2026-01-16 01:54:07.88	28.78	14.12	-40.4	-41.6	16.6	0.00e+00	0	33	0	807403520	47	4048
2026-01-16 01:54:08.90	28.85	14.22	-40.3	-41.6	16.6	0.00e+00	0	33	0	813694976	47	4028
2026-01-16 01:54:09.90	28.91	14.32	-40.4	-41.7	16.6	0.00e+00	0	33	0	818937856	47	4067
2026-01-16 01:54:10.91	28.97	14.42	-40.4	-41.7	16.6	0.00e+00	0	33	0	825229312	47	4077
2026-01-16 01:54:11.92	29.03	14.52	-40.5	-41.8	16.5	0.00e+00	0	33	0	830472192	47	4137
2026-01-16 01:54:12.93	29.10	14.62	-40.5	-41.8	16.5	0.00e+00	0	33	0	836763648	47	4110
2026-01-16 01:54:13.94	29.16	14.72	-40.3	-41.6	16.6	0.00e+00	0	33	0	842006528	47	4031
2026-01-16 01:54:14.95	29.23	14.82	-40.3	-41.5	16.6	0.00e+00	0	33	0	847249408	47	3999
2026-01-16 01:54:15.96	29.29	14.93	-40.4	-41.6	16.6	0.00e+00	0	33	0	853540864	47	4045
2026-01-16 01:54:16.97	29.36	15.03	-40.3	-41.6	16.6	0.00e+00	0	33	0	858783744	47	4034
2026-01-16 01:54:17.98	29.42	15.13	-40.1	-41.4	16.6	0.00e+00	0	33	0	865075200	46	4172
2026-01-16 01:54:18.99	29.49	15.23	-40.1	-41.4	16.6	0.00e+00	0	33	0	870318080	46	4167
2026-01-16 01:54:20.00	29.56	15.34	-40.1	-41.3	16.7	0.00e+00	0	33	0	875560960	46	4139
2026-01-16 01:54:21.01	29.62	15.44	-40.1	-41.4	16.7	0.00e+00	0	33	0	881852416	46	4158
2026-01-16 01:54:22.02	29.69	15.55	-39.9	-41.2	16.7	0.00e+00	0	33	0	887095296	46	4062
2026-01-16 01:54:23.03	29.76	15.65	-39.9	-41.1	16.7	0.00e+00	0	33	0	893386752	46	4026
2026-01-16 01:54:24.04	29.83	15.75	-39.8	-41.1	16.8	0.00e+00	0	33	0	898629632	46	4016
2026-01-16 01:54:25.05	29.90	15.86	-39.8	-41.0	16.8	0.00e+00	0	33	0	903872512	46	3995
2026-01-16 01:54:26.06	29.96	15.97	-39.7	-41.0	16.8	0.00e+00	0	33	0	910163968	46	3968
2026-01-16 01:54:27.06	30.03	16.07	-39.8	-41.0	16.7	0.00e+00	0	33	0	915406848	46	4003
2026-01-16 01:54:28.07	30.10	16.18	-39.8	-41.0	16.8	0.00e+00	0	33	0	921698304	46	3985
2026-01-16 01:54:29.33	30.19	16.31	-39.7	-40.9	16.8	0.00e+00	0	33	0	926941184	46	3952
2026-01-16 01:54:30.05	30.24	16.39	-39.7	-40.9	16.8	0.00e+00	0	33	0	931135488	45	4156
2026-01-16 01:54:31.35	30.33	16.53	-39.7	-40.9	16.8	0.00e+00	0	33	0	938475520	45	4161
2026-01-16 01:54:32.07	30.39	16.60	-39.7	-40.9	16.8	0.00e+00	0	33	0	942669824	45	4190
2026-01-16 01:54:33.37	30.48	16.74	-39.7	-40.9	16.8	0.00e+00	0	33	0	950009856	45	4186
2026-01-16 01:54:34.09	30.53	16.82	-39.6	-40.9	16.8	0.00e+00	0	33	0	954204160	45	4150
2026-01-16 01:54:35.39	30.63	16.96	-39.5	-40.7	16.9	0.00e+00	0	33	0	961544192	45	4063
2026-01-16 01:54:36.11	30.68	17.04	-39.4	-40.6	16.9	0.00e+00	0	33	0	965738496	45	4007
2026-01-16 01:54:37.41	30.78	17.19	-39.4	-40.5	16.9	0.00e+00	0	33	0	973078528	45	4002
2026-01-16 01:54:38.13	30.83	17.26	-39.3	-40.5	16.9	0.00e+00	0	33	0	976224256	45	3988
2026-01-16 01:54:39.43	30.93	17.41	-39.4	-40.6	16.9	0.00e+00	0	33	0	983564288	45	4017
2026-01-16 01:54:40.15	30.98	17.49	-39.1	-40.3	16.9	0.00e+00	0	33	0	987758592	44	4116
2026-01-16 01:54:41.45	31.08	17.63	-39.0	-40.1	17.0	0.00e+00	0	33	0	995098624	44	4042
2026-01-16 01:54:42.17	31.13	17.71	-39.1	-40.3	17.0	0.00e+00	0	33	0	999292928	44	4110
2026-01-16 01:54:43.47	31.24	17.86	-38.9	-40.0	17.1	0.00e+00	0	33	0	1006632960	44	3994
2026-01-16 01:54:44.19	31.29	17.94	-38.8	-39.9	17.1	0.00e+00	0	33	0	1010827264	44	3934
2026-01-16 01:54:45.49	31.39	18.09	-38.8	-39.9	17.1	0.00e+00	0	33	0	1018167296	44	3930
2026-01-16 01:54:46.21	31.45	18.17	-38.9	-40.0	17.1	0.00e+00	0	33	0	1022361600	44	3985
2026-01-16 01:54:47.51	31.55	18.32	-38.9	-40.0	17.1	0.00e+00	0	33	0	1029701632	44	3982
2026-01-16 01:54:48.23	31.61	18.40	-38.9	-40.1	17.1	0.00e+00	0	33	0	1033895936	44	4023
2026-01-16 01:54:49.53	31.71	18.55	-39.0	-40.2	17.1	0.00e+00	0	33	0	1041235968	44	4065
2026-01-16 01:54:50.25	31.77	18.64	-39.2	-40.3	17.0	0.00e+00	0	33	0	1044381696	44	4133
2026-01-16 01:54:51.55	31.88	18.79	-39.2	-40.4	17.0	0.00e+00	0	33	0	1051721728	44	4164
2026-01-16 01:54:52.27	31.94	18.87	-39.2	-40.3	17.0	0.00e+00	0	33	0	1055916032	44	4142
2026-01-16 01:54:53.57	32.05	19.02	-39.2	-40.4	17.0	0.00e+00	0	33	0	1063256064	44	4169
2026-01-16 01:54:54.29	32.11	19.11	-39.3	-40.5	17.0	0.00e+00	0	33	0	1067450368	44	4220
2026-01-16 01:54:55.59	32.22	19.26	-39.1	-40.2	17.1	0.00e+00	0	33	0	1074790400	44	4096
2026-01-16 01:54:56.31	32.28	19.35	-39.0	-40.2	17.0	0.00e+00	0	33	0	1078984704	44	4075
2026-01-16 01:54:57.61	32.39	19.50	-39.1	-40.3	17.0	0.00e+00	0	33	0	1086324736	44	4129
2026-01-16 01:54:58.33	32.45	19.59	-39.1	-40.3	17.0	0.00e+00	0	33	0	1090519040	44	4138
2026-01-16 01:54:59.63	32.56	19.75	-39.2	-40.3	17.0	0.00e+00	0	33	0	1097859072	44	4142
2026-01-16 01:55:00.35	32.62	19.83	-39.0	-40.2	17.1	0.00e+00	0	33	0	1102053376	44	4056
2026-01-16 01:55:01.64	32.74	19.99	-39.0	-40.2	17.1	0.00e+00	0	33	0	1108344832	44	4059
2026-01-16 01:55:02.36	32.80	20.08	-39.1	-40.2	17.0	0.00e+00	0	33	0	1113587712	44	4084
2026-01-16 01:55:03.66	32.92	20.24	-39.0	-40.1	17.1	0.00e+00	0	33	0	1119879168	44	4049
2026-01-16 01:55:04.38	32.98	20.33	-39.0	-40.2	17.1	0.00e+00	0	33	0	1124073472	44	4058
2026-01-16 01:55:05.68	33.10	20.49	-39.0	-40.2	17.1	0.00e+00	0	33	0	1131413504	44	4075
2026-01-16 01:55:06.40	33.17	20.58	-38.9	-40.0	17.1	0.00e+00	0	33	0	1135607808	44	3997
2026-01-16 01:55:07.70	33.29	20.74	-38.8	-39.9	17.2	0.00e+00	0	33	0	1142947840	44	3940
2026-01-16 01:55:08.42	33.35	20.83	-38.5	-39.6	17.2	0.00e+00	0	33	0	1147142144	43	4037
2026-01-16 01:55:09.72	33.47	20.99	-38.4	-39.5	17.2	0.00e+00	0	33	0	1154482176	43	4004
2026-01-16 01:55:10.44	33.54	21.08	-38.6	-39.7	17.1	0.00e+00	0	33	0	1158676480	43	4062
2026-01-16 01:55:11.74	33.67	21.25	-38.4	-39.5	17.2	0.00e+00	0	33	0	1166016512	43	3971
2026-01-16 01:55:12.46	33.73	21.34	-38.4	-39.5	17.2	0.00e+00	0	33	0	1170210816	43	3987
2026-01-16 01:55:13.76	33.86	21.51	-38.3	-39.4	17.2	0.00e+00	0	33	0	1177550848	43	3947
2026-01-16 01:55:14.48	33.93	21.60	-38.3	-39.4	17.3	0.00e+00	0	33	0	1180696576	43	3919
2026-01-16 01:55:15.77	34.06	21.77	-38.4	-39.5	17.2	0.00e+00	0	33	0	1188036608	43	3989
2026-01-16 01:55:16.50	34.13	21.86	-38.4	-39.5	17.3	0.00e+00	0	33	0	1192230912	43	3966
2026-01-16 01:55:17.80	34.26	22.03	-38.3	-39.4	17.2	0.00e+00	0	33	0	1199570944	43	3951
2026-01-16 01:55:18.51	34.33	22.13	-38.2	-39.3	17.3	0.00e+00	0	33	0	1203765248	43	3908
2026-01-16 01:55:19.81	34.46	22.30	-38.3	-39.4	17.2	0.00e+00	0	33	0	1211105280	43	3940
2026-01-16 01:55:20.53	34.53	22.39	-38.4	-39.5	17.2	0.00e+00	0	33	0	1215299584	43	3974
2026-01-16 01:55:21.83	34.67	22.57	-38.3	-39.5	17.2	0.00e+00	0	33	0	1222639616	43	3963
2026-01-16 01:55:22.55	34.74	22.66	-38.3	-39.4	17.3	0.00e+00	0	33	0	1226833920	43	3947
2026-01-16 01:55:23.85	34.88	22.84	-38.4	-39.5	17.2	0.00e+00	0	33	0	1234173952	43	3984
2026-01-16 01:55:24.57	34.96	22.93	-38.4	-39.5	17.2	0.00e+00	0	33	0	1238368256	43	3980
2026-01-16 01:55:25.87	35.09	23.11	-38.4	-39.5	17.2	0.00e+00	0	33	0	1245708288	43	3980
2026-01-16 01:55:26.59	35.17	23.21	-38.3	-39.5	17.2	0.00e+00	0	33	0	1248854016	43	3968
2026-01-16 01:55:27.89	35.31	23.39	-38.4	-39.6	17.2	0.00e+00	0	33	0	1256194048	43	4005
2026-01-16 01:55:28.61	35.39	23.49	-38.2	-39.3	17.3	0.00e+00	0	33	0	1260388352	43	3913
2026-01-16 01:55:29.91	35.53	23.66	-38.2	-39.4	17.3	0.00e+00	0	33	0	1267728384	43	3916
2026-01-16 01:55:30.63	35.61	23.76	-38.3	-39.4	17.3	0.00e+00	0	33	0	1271922688	43	3925
2026-01-16 01:55:31.93	35.76	23.95	-38.2	-39.3	17.2	0.00e+00	0	33	0	1279262720	42	4137
2026-01-16 01:55:32.65	35.84	24.05	-38.1	-39.2	17.3	0.00e+00	0	33	0	1283457024	42	4087
2026-01-16 01:55:33.94	35.99	24.23	-38.0	-39.1	17.3	0.00e+00	0	33	0	1290797056	42	4020
2026-01-16 01:55:34.67	36.07	24.33	-38.0	-39.1	17.3	0.00e+00	0	33	0	1294991360	42	4046
2026-01-16 01:55:35.96	36.22	24.51	-38.0	-39.1	17.3	0.00e+00	0	33	0	1302331392	42	4021
2026-01-16 01:55:36.69	36.31	24.62	-38.0	-39.1	17.3	0.00e+00	0	33	0	1306525696	42	4045
2026-01-16 01:55:37.98	36.46	24.80	-37.8	-38.9	17.3	0.00e+00	0	33	0	1312817152	42	3923
2026-01-16 01:55:38.70	36.54	24.91	-37.9	-38.9	17.3	0.00e+00	0	33	0	1318060032	42	3958
2026-01-16 01:55:40.00	36.70	25.10	-37.9	-39.0	17.3	0.00e+00	0	33	0	1324351488	42	3968
2026-01-16 01:55:40.72	36.79	25.20	-37.9	-39.0	17.3	0.00e+00	0	33	0	1328545792	42	3959
2026-01-16 01:55:42.02	36.95	25.39	-38.0	-39.1	17.3	0.00e+00	0	33	0	1335885824	42	4015
2026-01-16 01:55:42.74	37.04	25.50	-38.0	-39.1	17.3	0.00e+00	0	33	0	1340080128	42	4039
2026-01-16 01:55:44.04	37.20	25.69	-38.0	-39.0	17.3	0.00e+00	0	33	0	1347420160	42	4001
2026-01-16 01:55:44.76	37.29	25.79	-37.9	-39.0	17.3	0.00e+00	0	33	0	1351614464	42	3995
2026-01-16 01:55:46.06	37.45	25.99	-37.9	-39.0	17.4	0.00e+00	0	33	0	1358954496	42	3962
2026-01-16 01:55:46.78	37.55	26.10	-37.8	-38.9	17.4	0.00e+00	0	33	0	1363148800	42	3929
2026-01-16 01:55:48.08	37.71	26.29	-37.8	-38.9	17.4	0.00e+00	0	33	0	1370488832	42	3927
2026-01-16 01:55:48.80	37.81	26.40	-37.9	-39.0	17.4	0.00e+00	0	33	0	1373634560	42	3970
2026-01-16 01:55:50.10	37.98	26.60	-37.7	-38.8	17.4	0.00e+00	0	33	0	1380974592	42	3872
2026-01-16 01:55:50.82	38.07	26.71	-37.8	-38.9	17.4	0.00e+00	0	33	0	1385168896	42	3915
2026-01-16 01:55:52.12	38.25	26.90	-37.6	-38.7	17.4	0.00e+00	0	33	0	1392508928	41	4081
2026-01-16 01:55:52.84	38.35	27.02	-37.6	-38.6	17.4	0.00e+00	0	33	0	1396703232	41	4043
2026-01-16 01:55:54.14	38.52	27.22	-37.7	-38.8	17.4	0.00e+00	0	33	0	1404043264	41	4123
2026-01-16 01:55:54.86	38.62	27.33	-37.8	-38.9	17.3	0.00e+00	0	33	0	1408237568	41	4157
2026-01-16 01:55:56.16	38.80	27.53	-37.7	-38.8	17.4	0.00e+00	0	33	0	1415577600	41	4111
2026-01-16 01:55:56.88	38.90	27.64	-37.8	-38.8	17.3	0.00e+00	0	33	0	1419771904	41	4142
2026-01-16 01:55:58.18	39.09	27.85	-37.7	-38.8	17.4	0.00e+00	0	33	0	1427111936	41	4135
2026-01-16 01:55:58.90	39.19	27.96	-37.6	-38.7	17.4	0.00e+00	0	33	0	1431306240	41	4070
2026-01-16 01:56:00.20	39.38	28.17	-37.6	-38.7	17.4	0.00e+00	0	33	0	1438646272	41	4087
2026-01-16 01:56:00.92	39.49	28.28	-37.7	-38.8	17.4	0.00e+00	0	33	0	1442840576	41	4105
2026-01-16 01:56:02.22	39.68	28.49	-37.4	-38.5	17.4	0.00e+00	0	33	0	1450180608	41	3965
2026-01-16 01:56:02.94	39.78	28.61	-37.5	-38.5	17.4	0.00e+00	0	33	0	1453326336	41	4001
2026-01-16 01:56:04.24	39.98	28.82	-37.5	-38.6	17.4	0.00e+00	0	33	0	1460666368	41	4034
2026-01-16 01:56:04.96	40.09	28.94	-37.5	-38.6	17.4	0.00e+00	0	33	0	1464860672	41	4006
2026-01-16 01:56:06.26	40.29	29.15	-37.6	-38.6	17.4	0.00e+00	0	34	0	1472200704	41	4051
2026-01-16 01:56:06.98	40.40	29.27	-37.5	-38.6	17.4	0.00e+00	0	33	0	1476395008	41	4033
2026-01-16 01:56:08.27	40.60	29.48	-37.5	-38.6	17.4	0.00e+00	0	33	0	1483735040	41	4013
2026-01-16 01:56:09.00	40.72	29.60	-37.4	-38.5	17.4	0.00e+00	0	33	0	1487929344	41	3976
2026-01-16 01:56:10.29	40.92	29.81	-37.5	-38.6	17.4	0.00e+00	0	33	0	1495269376	41	4019
2026-01-16 01:56:11.01	41.04	29.93	-37.6	-38.7	17.4	0.00e+00	0	33	0	1499463680	41	4057
2026-01-16 01:56:12.31	41.25	30.15	-37.7	-38.8	17.4	0.00e+00	0	33	0	1506803712	41	4128
2026-01-16 01:56:13.04	41.37	30.28	-37.8	-38.8	17.3	0.00e+00	0	33	0	1510998016	41	4142
2026-01-16 01:56:14.33	41.59	30.49	-37.7	-38.8	17.4	0.00e+00	0	33	0	1517289472	41	4130
2026-01-16 01:56:15.06	41.71	30.62	-37.7	-38.8	17.4	0.00e+00	0	33	0	1522532352	41	4099
2026-01-16 01:56:16.35	41.93	30.84	-37.5	-38.6	17.5	0.00e+00	0	33	0	1528823808	41	4032
2026-01-16 01:56:17.08	42.05	30.96	-37.5	-38.6	17.4	0.00e+00	0	33	0	1533018112	41	4035
2026-01-16 01:56:18.37	42.28	31.19	-37.6	-38.7	17.4	0.00e+00	0	33	0	1540358144	41	4059
2026-01-16 01:56:19.09	42.41	31.31	-37.5	-38.5	17.4	0.00e+00	0	33	0	1544552448	41	4000
2026-01-16 01:56:20.39	42.64	31.54	-37.5	-38.6	17.4	0.00e+00	0	33	0	1551892480	41	4015
2026-01-16 01:56:21.11	42.76	31.66	-37.6	-38.7	17.4	0.00e+00	0	33	0	1556086784	41	4054
2026-01-16 01:56:22.41	43.00	31.89	-37.5	-38.6	17.5	0.00e+00	0	33	0	1563426816	41	4017
2026-01-16 01:56:23.13	43.13	32.02	-37.5	-38.6	17.5	0.00e+00	0	33	0	1567621120	41	4018
2026-01-16 01:56:24.43	43.37	32.25	-37.6	-38.7	17.4	0.00e+00	0	33	0	1574961152	41	4064
2026-01-16 01:56:25.15	43.51	32.38	-37.7	-38.8	17.4	0.00e+00	0	33	0	1579155456	41	4106
2026-01-16 01:56:26.45	43.75	32.61	-37.4	-38.5	17.5	0.00e+00	0	33	0	1586495488	41	3979
2026-01-16 01:56:27.17	43.89	32.74	-37.3	-38.3	17.5	0.00e+00	0	33	0	1589641216	41	3911
2026-01-16 01:56:28.47	44.14	32.97	-37.3	-38.4	17.5	0.00e+00	0	33	0	1596981248	41	3930
2026-01-16 01:56:29.19	44.28	33.10	-37.3	-38.4	17.5	0.00e+00	0	33	0	1601175552	41	3927
2026-01-16 01:56:30.49	44.54	33.34	-37.1	-38.2	17.5	0.00e+00	0	33	0	1608515584	40	4065
2026-01-16 01:56:31.21	44.68	33.47	-37.1	-38.1	17.5	0.00e+00	0	33	0	1612709888	40	4032
2026-01-16 01:56:32.51	44.94	33.70	-37.2	-38.2	17.4	0.00e+00	0	33	0	1620049920	40	4090
2026-01-16 01:56:33.23	45.09	33.84	-37.3	-38.3	17.4	0.00e+00	0	33	0	1624244224	40	4124
2026-01-16 01:56:34.53	45.36	34.08	-37.4	-38.5	17.4	0.00e+00	0	33	0	1631584256	40	4215
2026-01-16 01:56:35.25	45.51	34.21	-37.6	-38.6	17.4	0.00e+00	0	33	0	1635778560	40	4284
2026-01-16 01:56:36.55	45.78	34.45	-37.4	-38.4	17.4	0.00e+00	0	33	0	1643118592	40	4191
2026-01-16 01:56:37.27	45.94	34.58	-37.3	-38.4	17.4	0.00e+00	0	33	0	1647312896	40	4174
2026-01-16 01:56:38.56	46.21	34.83	-37.2	-38.3	17.5	0.00e+00	0	33	0	1654652928	40	4108
2026-01-16 01:56:39.28	46.37	34.96	-37.0	-38.1	17.5	0.00e+00	0	33	0	1657798656	40	4017
2026-01-16 01:56:40.58	46.66	35.21	-37.0	-38.0	17.5	0.00e+00	0	33	0	1665138688	40	3982
2026-01-16 01:56:41.30	46.82	35.34	-36.8	-37.9	17.6	0.00e+00	0	33	0	1669332992	40	3924
2026-01-16 01:56:42.60	47.11	35.59	-36.9	-37.9	17.6	0.00e+00	0	33	0	1676673024	40	3952
2026-01-16 01:56:43.32	47.28	35.73	-37.0	-38.0	17.5	0.00e+00	0	33	0	1680867328	40	3997
2026-01-16 01:56:44.62	47.58	35.97	-37.2	-38.2	17.5	0.00e+00	0	33	0	1688207360	40	4085
2026-01-16 01:56:45.34	47.75	36.11	-37.3	-38.4	17.4	0.00e+00	0	33	0	1692401664	40	4159
2026-01-16 01:56:46.64	48.05	36.36	-37.4	-38.5	17.4	0.00e+00	0	33	0	1699741696	40	4194
2026-01-16 01:56:47.36	48.23	36.50	-37.4	-38.4	17.4	0.00e+00	0	33	0	1703936000	40	4185
2026-01-16 01:56:48.66	48.54	36.75	-37.1	-38.2	17.5	0.00e+00	0	33	0	1711276032	40	4069
2026-01-16 01:56:49.38	48.72	36.89	-37.0	-38.1	17.5	0.00e+00	0	33	0	1715470336	40	4023
2026-01-16 01:56:50.68	49.04	37.14	-37.0	-38.1	17.5	0.00e+00	0	33	0	1721761792	40	4016
2026-01-16 01:56:51.40	49.22	37.29	-36.9	-37.9	17.6	0.00e+00	0	33	0	1725956096	40	3928
2026-01-16 01:56:52.70	49.55	37.54	-36.7	-37.7	17.6	0.00e+00	0	33	0	1733296128	40	3853
2026-01-16 01:56:53.42	49.74	37.68	-36.7	-37.7	17.5	0.00e+00	0	33	0	1737490432	39	4098
2026-01-16 01:56:54.71	50.07	37.94	-37.0	-38.1	17.5	0.00e+00	0	33	0	1744830464	39	4250
2026-01-16 01:56:55.43	50.26	38.08	-37.1	-38.1	17.4	0.00e+00	0	33	0	1749024768	39	4278
2026-01-16 01:56:56.73	50.61	38.33	-37.3	-38.4	17.4	0.00e+00	0	33	0	1756364800	39	4403
2026-01-16 01:56:57.46	50.80	38.48	-37.4	-38.5	17.4	0.00e+00	0	33	0	1760559104	39	4469
2026-01-16 01:56:58.75	51.16	38.74	-37.5	-38.5	17.4	0.00e+00	0	33	0	1767899136	40	4238
2026-01-16 01:56:59.47	51.35	38.88	-37.4	-38.5	17.4	0.00e+00	0	33	0	1772093440	40	4201
2026-01-16 01:57:00.77	51.72	39.14	-37.3	-38.3	17.4	0.00e+00	0	33	0	1779433472	40	4142
2026-01-16 01:57:01.49	51.92	39.28	-37.3	-38.3	17.5	0.00e+00	0	33	0	1782579200	40	4122
2026-01-16 01:57:02.79	52.29	39.54	-37.2	-38.3	17.5	0.00e+00	0	33	0	1789919232	40	4099
2026-01-16 01:57:03.51	52.50	39.69	-37.2	-38.3	17.5	0.00e+00	0	33	0	1794113536	40	4118
2026-01-16 01:57:04.81	52.89	39.95	-37.3	-38.3	17.5	0.00e+00	0	33	0	1801453568	40	4139
2026-01-16 01:57:05.53	53.10	40.10	-37.3	-38.4	17.5	0.00e+00	0	33	0	1805647872	40	4153
2026-01-16 01:57:06.83	53.49	40.36	-37.4	-38.5	17.4	0.00e+00	0	33	0	1812987904	40	4194
2026-01-16 01:57:07.55	53.71	40.50	-37.3	-38.4	17.4	0.00e+00	0	33	0	1817182208	40	4162
2026-01-16 01:57:08.85	54.11	40.77	-37.1	-38.2	17.5	0.00e+00	0	33	0	1824522240	40	4061
2026-01-16 01:57:09.57	54.34	40.91	-37.0	-38.1	17.5	0.00e+00	0	33	0	1828716544	40	4010
2026-01-16 01:57:10.87	54.75	41.18	-37.2	-38.2	17.5	0.00e+00	0	33	0	1836056576	40	4077
2026-01-16 01:57:11.59	54.98	41.32	-37.3	-38.4	17.5	0.00e+00	0	33	0	1840250880	40	4173
2026-01-16 01:57:12.89	55.40	41.59	-37.4	-38.4	17.4	0.00e+00	0	33	0	1847590912	40	4173
2026-01-16 01:57:13.61	55.64	41.74	-37.4	-38.4	17.5	0.00e+00	0	33	0	1851785216	40	4182
2026-01-16 01:57:14.91	56.07	42.00	-37.4	-38.4	17.5	0.00e+00	0	33	0	1859125248	40	4186
2026-01-16 01:57:15.63	56.31	42.15	-37.5	-38.6	17.4	0.00e+00	0	33	0	1862270976	40	4243
2026-01-16 01:57:16.92	56.75	42.41	-37.7	-38.7	17.4	0.00e+00	0	33	0	1869611008	40	4336
2026-01-16 01:57:17.64	57.00	42.56	-37.6	-38.7	17.4	0.00e+00	0	33	0	1873805312	40	4318
2026-01-16 01:57:18.94	57.46	42.82	-37.3	-38.4	17.5	0.00e+00	0	33	0	1881145344	40	4154
2026-01-16 01:57:19.66	57.71	42.97	-37.2	-38.3	17.5	0.00e+00	0	33	0	1885339648	40	4120
2026-01-16 01:57:20.96	58.18	43.23	-37.4	-38.4	17.4	0.00e+00	0	33	0	1892679680	40	4179
2026-01-16 01:57:21.68	58.44	43.38	-37.4	-38.5	17.4	0.00e+00	0	33	0	1896873984	40	4201
2026-01-16 01:57:22.98	58.92	43.64	-37.4	-38.5	17.4	0.00e+00	0	33	0	1904214016	40	4196
2026-01-16 01:57:23.70	59.19	43.79	-37.4	-38.5	17.4	0.00e+00	0	33	0	1908408320	40	4212
2026-01-16 01:57:25.00	59.68	44.05	-37.6	-38.7	17.4	0.00e+00	0	33	0	1915748352	40	4313
2026-01-16 01:57:25.72	59.95	44.20	-37.5	-38.6	17.4	0.00e+00	0	33	0	1919942656	40	4271
2026-01-16 01:57:27.02	60.45	44.46	-37.7	-38.8	17.3	0.00e+00	0	33	0	1926234112	40	4368
2026-01-16 01:57:27.74	60.74	44.61	-37.8	-38.8	17.3	0.00e+00	0	33	0	1930428416	40	4377
2026-01-16 01:57:29.04	61.25	44.87	-37.7	-38.8	17.4	0.00e+00	0	33	0	1937768448	40	4346
2026-01-16 01:57:29.76	61.54	45.01	-37.7	-38.8	17.4	0.00e+00	0	33	0	1941962752	40	4361
2026-01-16 01:57:31.06	62.07	45.27	-37.7	-38.8	17.3	0.00e+00	0	33	0	1949302784	40	4347
2026-01-16 01:57:31.78	62.37	45.42	-37.8	-38.8	17.4	0.00e+00	0	33	0	1953497088	40	4375
2026-01-16 01:57:33.08	62.91	45.67	-37.6	-38.6	17.4	0.00e+00	0	33	0	1960837120	40	4272
2026-01-16 01:57:33.80	63.22	45.82	-37.6	-38.7	17.4	0.00e+00	0	33	0	1965031424	40	4293
2026-01-16 01:57:35.10	63.77	46.07	-37.7	-38.8	17.4	0.00e+00	0	33	0	1972371456	40	4369
2026-01-16 01:57:35.82	64.09	46.22	-37.8	-38.8	17.3	0.00e+00	0	33	0	1976565760	40	4384
2026-01-16 01:57:37.11	64.65	46.47	-37.6	-38.7	17.4	0.00e+00	0	33	0	1983905792	40	4329
2026-01-16 01:57:37.83	64.97	46.61	-37.6	-38.7	17.4	0.00e+00	0	33	0	1987051520	40	4310
2026-01-16 01:57:39.13	65.56	46.86	-37.6	-38.6	17.4	0.00e+00	0	34	0	1994391552	40	4284
2026-01-16 01:57:39.85	65.88	47.00	-37.5	-38.6	17.4	0.00e+00	0	33	0	1998585856	40	4249
2026-01-16 01:57:41.15	66.48	47.25	-37.8	-38.8	17.3	0.00e+00	0	33	0	2005925888	40	4383
2026-01-16 01:57:41.87	66.82	47.39	-37.8	-38.9	17.3	0.00e+00	0	33	0	2010120192	40	4401
2026-01-16 01:57:43.17	67.44	47.63	-37.7	-38.7	17.4	0.00e+00	0	33	0	2017460224	40	4339
2026-01-16 01:57:43.89	67.78	47.77	-37.7	-38.8	17.4	0.00e+00	0	33	0	2021654528	40	4354
2026-01-16 01:57:45.19	68.41	48.01	-37.7	-38.7	17.4	0.00e+00	0	33	0	2028994560	40	4339
2026-01-16 01:57:45.91	68.76	48.15	-37.8	-38.9	17.3	0.00e+00	0	33	0	2033188864	40	4410
2026-01-16 01:57:47.21	69.41	48.39	-37.8	-38.9	17.4	0.00e+00	0	33	0	2040528896	40	4420
2026-01-16 01:57:47.93	69.77	48.52	-37.9	-39.0	17.3	0.00e+00	0	33	0	2044723200	40	4443
2026-01-16 01:57:49.23	70.43	48.75	-37.4	-38.4	17.5	0.00e+00	0	33	0	2052063232	40	4180
2026-01-16 01:57:49.95	70.80	48.88	-37.2	-38.2	17.5	0.00e+00	0	33	0	2055208960	40	4084
2026-01-16 01:57:51.25	71.48	49.11	-37.3	-38.4	17.5	0.00e+00	0	33	0	2062548992	40	4156
2026-01-16 01:57:51.97	71.86	49.24	-37.5	-38.6	17.4	0.00e+00	0	33	0	2066743296	40	4249
2026-01-16 01:57:53.27	72.55	49.47	-37.8	-38.9	17.3	0.00e+00	0	33	0	2074083328	40	4394
2026-01-16 01:57:53.99	72.94	49.59	-37.7	-38.8	17.3	0.00e+00	0	33	0	2078277632	40	4383
2026-01-16 01:57:55.29	73.64	49.81	-37.6	-38.7	17.4	0.00e+00	0	34	0	2085617664	40	4308
2026-01-16 01:57:56.01	74.04	49.93	-37.6	-38.6	17.4	0.00e+00	0	33	0	2089811968	40	4273
2026-01-16 01:57:57.31	74.76	50.15	-37.8	-38.9	17.3	0.00e+00	0	33	0	2097152000	40	4416
2026-01-16 01:57:58.03	75.17	50.27	-37.9	-39.0	17.4	0.00e+00	0	33	0	2101346304	41	4207
2026-01-16 01:57:59.33	75.91	50.48	-38.0	-39.1	17.3	0.00e+00	0	33	0	2108686336	41	4282
2026-01-16 01:58:00.05	76.32	50.59	-37.9	-39.0	17.4	0.00e+00	0	33	0	2112880640	41	4238
2026-01-16 01:58:01.34	77.07	50.79	-37.9	-39.0	17.4	0.00e+00	0	33	0	2119172096	41	4222
2026-01-16 01:58:02.07	77.50	50.90	-37.9	-39.0	17.4	0.00e+00	0	33	0	2124414976	41	4229
2026-01-16 01:58:03.36	78.26	51.10	-37.8	-38.9	17.4	0.00e+00	0	33	0	2130706432	41	4176
2026-01-16 01:58:04.08	78.70	51.21	-37.8	-38.9	17.5	0.00e+00	0	33	0	2134900736	41	4151
2026-01-16 01:58:05.38	79.48	51.40	-37.8	-38.9	17.4	0.00e+00	0	33	0	2142240768	41	4152
2026-01-16 01:58:06.11	79.93	51.50	-38.2	-39.3	17.3	0.00e+00	0	33	0	2146435072	41	4379
2026-01-16 01:58:07.40	80.72	51.68	-38.6	-39.7	17.2	0.00e+00	0	33	0	2153775104	42	4328
2026-01-16 01:58:08.12	81.17	51.78	-38.5	-39.6	17.3	0.00e+00	0	33	0	2157969408	42	4267
2026-01-16 01:58:09.42	81.99	51.95	-38.4	-39.5	17.3	0.00e+00	0	33	0	2165309440	42	4200
2026-01-16 01:58:10.14	82.44	52.05	-38.6	-39.7	17.2	0.00e+00	0	33	0	2169503744	42	4311
2026-01-16 01:58:11.44	83.27	52.21	-38.2	-39.3	17.3	0.00e+00	0	33	0	2176843776	42	4140
2026-01-16 01:58:12.16	83.74	52.30	-38.0	-39.1	17.4	0.00e+00	0	33	0	2181038080	42	4031
2026-01-16 01:58:13.46	84.58	52.46	-38.1	-39.1	17.4	0.00e+00	0	34	0	2188378112	42	4041
2026-01-16 01:58:14.18	85.06	52.54	-38.1	-39.2	17.4	0.00e+00	0	33	0	2191523840	42	4097
2026-01-16 01:58:15.48	85.91	52.69	-38.1	-39.2	17.4	0.00e+00	0	33	0	2198863872	42	4065
2026-01-16 01:58:16.20	86.39	52.77	-38.1	-39.1	17.4	0.00e+00	0	33	0	2203058176	42	4043
2026-01-16 01:58:17.50	87.26	52.90	-38.0	-39.1	17.4	0.00e+00	0	33	0	2210398208	42	4009
2026-01-16 01:58:18.22	87.75	52.98	-38.0	-39.0	17.4	0.00e+00	0	33	0	2214592512	42	3995
2026-01-16 01:58:19.52	88.63	53.10	-38.1	-39.2	17.4	0.00e+00	0	33	0	2221932544	42	4059
2026-01-16 01:58:20.24	89.13	53.17	-38.2	-39.2	17.3	0.00e+00	0	33	0	2226126848	42	4097
2026-01-16 01:58:21.54	90.02	53.29	-38.1	-39.1	17.4	0.00e+00	0	33	0	2233466880	42	4044
2026-01-16 01:58:22.26	90.52	53.35	-38.1	-39.2	17.4	0.00e+00	0	33	0	2237661184	42	4082
2026-01-16 01:58:23.56	91.43	53.46	-38.3	-39.4	17.3	0.00e+00	0	33	0	2245001216	42	4148
2026-01-16 01:58:24.28	91.93	53.51	-38.4	-39.4	17.3	0.00e+00	0	33	0	2249195520	42	4193
2026-01-16 01:58:25.58	92.85	53.61	-38.2	-39.3	17.4	0.00e+00	0	33	0	2256535552	42	4134
2026-01-16 01:58:26.30	93.36	53.66	-38.2	-39.3	17.4	0.00e+00	0	33	0	2259681280	42	4105
2026-01-16 01:58:27.60	94.28	53.75	-38.4	-39.5	17.3	0.00e+00	0	34	0	2267021312	42	4209
2026-01-16 01:58:28.32	94.80	53.79	-38.1	-39.2	17.4	0.00e+00	0	33	0	2271215616	42	4068
2026-01-16 01:58:29.62	95.73	53.86	-37.8	-38.8	17.5	0.00e+00	0	33	0	2278555648	42	3907
2026-01-16 01:58:30.34	96.25	53.90	-37.9	-38.9	17.5	0.00e+00	0	33	0	2282749952	42	3945
2026-01-16 01:58:31.64	97.19	53.96	-38.2	-39.2	17.4	0.00e+00	0	33	0	2290089984	42	4089
2026-01-16 01:58:32.36	97.71	53.99	-38.4	-39.5	17.3	0.00e+00	0	33	0	2294284288	42	4207
2026-01-16 01:58:33.65	98.65	54.04	-38.5	-39.7	17.3	0.00e+00	0	33	0	2301624320	42	4295
2026-01-16 01:58:34.38	99.18	54.07	-38.7	-39.8	17.2	0.00e+00	0	33	0	2305818624	42	4372
2026-01-16 01:58:35.67	100.12	54.10	-38.6	-39.8	17.3	0.00e+00	0	33	0	2313158656	42	4344
2026-01-16 01:58:36.40	100.66	54.12	-38.6	-39.7	17.3	0.00e+00	0	33	0	2317352960	42	4325
2026-01-16 01:58:37.69	101.60	54.15	-38.4	-39.5	17.3	0.00e+00	0	33	0	2323644416	42	4230
2026-01-16 01:58:38.41	102.13	54.16	-38.5	-39.7	17.3	0.00e+00	0	33	0	2327838720	42	4295
2026-01-16 01:58:39.71	103.09	54.17	-38.8	-40.0	17.2	0.00e+00	0	33	0	2335178752	42	4462
2026-01-16 01:58:40.44	103.62	54.18	-38.5	-39.6	17.2	0.00e+00	0	33	0	2339373056	42	4289
2026-01-16 01:58:41.73	104.57	54.18	-38.5	-39.6	17.3	0.00e+00	0	33	0	2346713088	42	4267
2026-01-16 01:58:42.45	105.10	54.17	-38.6	-39.7	17.3	0.00e+00	0	33	0	2350907392	42	4331
2026-01-16 01:58:43.75	106.06	54.16	-38.9	-40.1	17.2	0.00e+00	0	33	0	2358247424	43	4264
2026-01-16 01:58:44.48	106.59	54.15	-38.7	-39.8	17.3	0.00e+00	0	33	0	2362441728	43	4123
2026-01-16 01:58:45.77	107.54	54.13	-38.6	-39.7	17.3	0.00e+00	0	33	0	2369781760	43	4056
2026-01-16 01:58:46.49	108.07	54.11	-38.4	-39.5	17.4	0.00e+00	0	33	0	2373976064	43	3987
2026-01-16 01:58:47.79	109.02	54.08	-38.4	-39.5	17.4	0.00e+00	0	33	0	2381316096	43	3995
2026-01-16 01:58:48.51	109.54	54.06	-38.3	-39.4	17.4	0.00e+00	0	33	0	2385510400	43	3952
2026-01-16 01:58:49.81	110.49	54.01	-38.1	-39.2	17.4	0.00e+00	0	33	0	2392850432	42	4080
2026-01-16 01:58:50.53	111.01	53.98	-38.1	-39.2	17.4	0.00e+00	0	33	0	2395996160	42	4065
2026-01-16 01:58:51.83	111.95	53.92	-38.0	-39.1	17.5	0.00e+00	0	33	0	2403336192	42	4024
2026-01-16 01:58:52.55	112.47	53.88	-38.1	-39.2	17.4	0.00e+00	0	33	0	2407530496	42	4078
2026-01-16 01:58:53.85	113.41	53.81	-38.2	-39.2	17.4	0.00e+00	0	33	0	2414870528	42	4095
2026-01-16 01:58:54.57	113.92	53.77	-38.2	-39.3	17.4	0.00e+00	0	33	0	2419064832	42	4117
2026-01-16 01:58:55.87	114.85	53.69	-38.2	-39.3	17.4	0.00e+00	0	33	0	2426404864	42	4104
2026-01-16 01:58:56.59	115.36	53.64	-38.0	-39.1	17.4	0.00e+00	0	34	0	2430599168	42	4019
2026-01-16 01:58:57.89	116.28	53.55	-38.1	-39.1	17.4	0.00e+00	0	33	0	2437939200	42	4040
2026-01-16 01:58:58.61	116.79	53.49	-38.3	-39.4	17.4	0.00e+00	0	33	0	2442133504	42	4146
2026-01-16 01:58:59.91	117.70	53.39	-38.7	-39.8	17.2	0.00e+00	0	33	0	2449473536	42	4376
2026-01-16 01:59:00.63	118.20	53.33	-38.6	-39.7	17.3	0.00e+00	0	33	0	2453667840	42	4326
2026-01-16 01:59:01.93	119.10	53.21	-38.5	-39.6	17.3	0.00e+00	0	34	0	2461007872	42	4271
2026-01-16 01:59:02.65	119.59	53.14	-38.6	-39.7	17.3	0.00e+00	0	34	0	2464153600	42	4294
2026-01-16 01:59:03.95	120.48	53.02	-38.4	-39.6	17.3	0.00e+00	0	33	0	2471493632	42	4244
2026-01-16 01:59:04.67	120.96	52.94	-38.3	-39.4	17.4	0.00e+00	0	33	0	2475687936	42	4169
2026-01-16 01:59:05.96	121.83	52.81	-38.4	-39.5	17.4	0.00e+00	0	33	0	2483027968	42	4218
2026-01-16 01:59:06.68	122.31	52.73	-38.2	-39.2	17.4	0.00e+00	0	33	0	2487222272	42	4096
2026-01-16 01:59:07.98	123.18	52.59	-38.2	-39.3	17.4	0.00e+00	0	34	0	2494562304	42	4126
2026-01-16 01:59:08.70	123.65	52.50	-38.2	-39.3	17.4	0.00e+00	0	33	0	2498756608	42	4123
2026-01-16 01:59:10.00	124.50	52.35	-38.2	-39.3	17.4	0.00e+00	0	33	0	2506096640	42	4119
2026-01-16 01:59:10.72	124.97	52.26	-38.3	-39.4	17.4	0.00e+00	0	33	0	2510290944	42	4152
2026-01-16 01:59:12.02	125.80	52.10	-38.3	-39.4	17.4	0.00e+00	0	33	0	2517630976	42	4183
2026-01-16 01:59:12.74	126.26	52.00	-38.5	-39.6	17.3	0.00e+00	0	33	0	2520776704	42	4273
2026-01-16 01:59:14.04	127.08	51.83	-38.2	-39.3	17.4	0.00e+00	0	34	0	2528116736	42	4131
2026-01-16 01:59:14.76	127.53	51.73	-38.1	-39.2	17.4	0.00e+00	0	34	0	2532311040	42	4087
2026-01-16 01:59:16.06	128.34	51.55	-38.1	-39.2	17.4	0.00e+00	0	33	0	2539651072	42	4072
2026-01-16 01:59:16.78	128.78	51.45	-38.1	-39.2	17.4	0.00e+00	0	34	0	2543845376	42	4081
2026-01-16 01:59:18.08	129.57	51.26	-38.1	-39.2	17.4	0.00e+00	0	33	0	2551185408	42	4060
2026-01-16 01:59:18.80	130.00	51.16	-38.0	-39.1	17.5	0.00e+00	0	33	0	2555379712	42	4033
2026-01-16 01:59:20.10	130.78	50.96	-38.0	-39.1	17.5	0.00e+00	0	33	0	2562719744	42	4019
2026-01-16 01:59:20.82	131.20	50.85	-38.1	-39.2	17.4	0.00e+00	0	33	0	2566914048	42	4067
2026-01-16 01:59:22.12	131.96	50.65	-38.1	-39.1	17.4	0.00e+00	0	33	0	2574254080	42	4042
2026-01-16 01:59:22.84	132.38	50.54	-38.1	-39.2	17.4	0.00e+00	0	34	0	2578448384	42	4056
2026-01-16 01:59:24.14	133.12	50.33	-38.1	-39.2	17.5	0.00e+00	0	34	0	2585788416	42	4062
2026-01-16 01:59:24.86	133.53	50.21	-38.1	-39.1	17.5	0.00e+00	0	33	0	2589982720	42	4042
2026-01-16 01:59:26.15	134.25	50.00	-38.1	-39.2	17.4	0.00e+00	0	33	0	2597322752	42	4073
2026-01-16 01:59:26.88	134.66	49.87	-38.1	-39.2	17.4	0.00e+00	0	34	0	2600468480	42	4082
2026-01-16 01:59:28.17	135.36	49.65	-37.9	-39.0	17.5	0.00e+00	0	33	0	2607808512	42	3972
2026-01-16 01:59:28.90	135.76	49.53	-37.8	-38.9	17.5	0.00e+00	0	34	0	2612002816	42	3919
2026-01-16 01:59:30.19	136.45	49.31	-37.8	-38.9	17.5	0.00e+00	0	34	0	2619342848	42	3918
2026-01-16 01:59:30.91	136.83	49.18	-38.0	-39.0	17.5	0.00e+00	0	33	0	2623537152	42	3996
2026-01-16 01:59:32.21	137.51	48.95	-38.3	-39.4	17.4	0.00e+00	0	33	0	2630877184	42	4157
2026-01-16 01:59:32.93	137.88	48.82	-38.4	-39.5	17.4	0.00e+00	0	33	0	2635071488	42	4233
2026-01-16 01:59:34.23	138.55	48.58	-38.3	-39.4	17.4	0.00e+00	0	34	0	2642411520	42	4168
2026-01-16 01:59:34.95	138.91	48.45	-38.2	-39.2	17.4	0.00e+00	0	33	0	2646605824	42	4079
2026-01-16 01:59:36.25	139.56	48.21	-38.1	-39.2	17.4	0.00e+00	0	34	0	2653945856	42	4083
2026-01-16 01:59:36.97	139.92	48.08	-38.2	-39.3	17.4	0.00e+00	0	34	0	2658140160	42	4111
2026-01-16 01:59:38.27	140.55	47.84	-38.1	-39.3	17.4	0.00e+00	0	33	0	2665480192	42	4102
2026-01-16 01:59:38.99	140.90	47.70	-38.1	-39.2	17.4	0.00e+00	0	33	0	2668625920	42	4061
2026-01-16 01:59:40.29	141.52	47.45	-37.9	-39.0	17.5	0.00e+00	0	34	0	2675965952	42	3995
2026-01-16 01:59:41.01	141.85	47.32	-38.0	-39.0	17.5	0.00e+00	0	33	0	2680160256	42	4004
2026-01-16 01:59:42.31	142.46	47.07	-37.9	-39.0	17.5	0.00e+00	0	33	0	2687500288	42	3963
2026-01-16 01:59:43.03	142.79	46.93	-38.1	-39.1	17.4	0.00e+00	0	34	0	2691694592	42	4050
2026-01-16 01:59:44.33	143.38	46.67	-38.2	-39.3	17.4	0.00e+00	0	34	0	2699034624	42	4123
2026-01-16 01:59:45.05	143.70	46.53	-38.3	-39.4	17.4	0.00e+00	0	33	0	2703228928	42	4164
2026-01-16 01:59:46.34	144.27	46.28	-38.2	-39.3	17.4	0.00e+00	0	33	0	2710568960	42	4124
2026-01-16 01:59:47.07	144.59	46.14	-38.2	-39.3	17.4	0.00e+00	0	34	0	2714763264	42	4135
2026-01-16 01:59:48.36	145.14	45.88	-38.0	-39.0	17.5	0.00e+00	0	34	0	2722103296	42	4003
2026-01-16 01:59:49.08	145.45	45.74	-37.9	-39.0	17.5	0.00e+00	0	34	0	2725249024	42	3991
2026-01-16 01:59:50.38	146.00	45.48	-37.9	-39.0	17.5	0.00e+00	0	34	0	2732589056	42	3975
2026-01-16 01:59:51.10	146.30	45.33	-37.8	-38.9	17.5	0.00e+00	0	34	0	2736783360	42	3915
2026-01-16 01:59:52.40	146.83	45.07	-37.6	-38.7	17.5	0.00e+00	0	33	0	2744123392	41	4062
2026-01-16 01:59:53.12	147.12	44.93	-37.6	-38.7	17.5	0.00e+00	0	33	0	2748317696	41	4081
2026-01-16 01:59:54.42	147.64	44.67	-37.8	-38.9	17.5	0.00e+00	0	34	0	2755657728	41	4147
2026-01-16 01:59:55.14	147.93	44.52	-37.6	-38.7	17.5	0.00e+00	0	33	0	2759852032	41	4074
2026-01-16 01:59:56.44	148.43	44.26	-37.4	-38.5	17.6	0.00e+00	0	34	0	2767192064	41	3963
2026-01-16 01:59:57.16	148.71	44.11	-37.4	-38.5	17.6	0.00e+00	0	33	0	2771386368	41	3978
2026-01-16 01:59:58.46	149.20	43.85	-37.7	-38.8	17.5	0.00e+00	0	33	0	2778726400	41	4118
2026-01-16 01:59:59.18	149.47	43.70	-37.8	-38.9	17.5	0.00e+00	0	33	0	2782920704	41	4168
2026-01-16 02:00:00.48	149.96	43.43	-37.8	-38.9	17.4	0.00e+00	0	33	0	2790260736	41	4179
2026-01-16 02:00:01.20	150.22	43.29	-37.8	-38.9	17.4	0.00e+00	0	33	0	2793406464	41	4188
2026-01-16 02:00:02.50	150.69	43.02	-37.6	-38.7	17.5	0.00e+00	0	33	0	2800746496	41	4060
2026-01-16 02:00:03.22	150.95	42.87	-37.7	-38.7	17.5	0.00e+00	0	34	0	2804940800	41	4080
2026-01-16 02:00:04.52	151.40	42.61	-37.5	-38.6	17.6	0.00e+00	0	34	0	2812280832	41	4020
2026-01-16 02:00:05.24	151.65	42.46	-37.6	-38.6	17.6	0.00e+00	0	34	0	2816475136	41	4040
2026-01-16 02:00:06.54	152.10	42.20	-37.6	-38.7	17.5	0.00e+00	0	34	0	2823815168	41	4061
2026-01-16 02:00:07.26	152.34	42.05	-37.4	-38.5	17.6	0.00e+00	0	33	0	2828009472	41	3976
2026-01-16 02:00:08.56	152.78	41.78	-37.4	-38.5	17.6	0.00e+00	0	34	0	2835349504	41	3968
2026-01-16 02:00:09.28	153.02	41.64	-37.4	-38.4	17.6	0.00e+00	0	33	0	2839543808	41	3957
2026-01-16 02:00:10.58	153.44	41.37	-37.3	-38.4	17.6	0.00e+00	0	33	0	2846883840	41	3916
2026-01-16 02:00:11.30	153.67	41.22	-37.3	-38.4	17.6	0.00e+00	0	33	0	2851078144	41	3919
2026-01-16 02:00:12.60	154.09	40.96	-37.5	-38.5	17.6	0.00e+00	0	33	0	2858418176	41	3993
2026-01-16 02:00:13.32	154.31	40.81	-37.5	-38.5	17.5	0.00e+00	0	33	0	2862612480	41	4002
2026-01-16 02:00:14.62	154.72	40.55	-37.5	-38.5	17.6	0.00e+00	0	33	0	2869952512	41	3991
2026-01-16 02:00:15.34	154.94	40.40	-37.5	-38.5	17.6	0.00e+00	0	33	0	2873098240	41	4004
2026-01-16 02:00:16.64	155.33	40.14	-37.4	-38.4	17.6	0.00e+00	0	34	0	2880438272	41	3947
2026-01-16 02:00:17.36	155.55	39.99	-37.4	-38.5	17.6	0.00e+00	0	34	0	2884632576	41	3970
2026-01-16 02:00:18.66	155.93	39.73	-37.2	-38.3	17.6	0.00e+00	0	33	0	2891972608	41	3886
2026-01-16 02:00:19.38	156.14	39.58	-37.1	-38.1	17.6	0.00e+00	0	34	0	2896166912	40	4020
2026-01-16 02:00:20.68	156.52	39.32	-37.1	-38.1	17.6	0.00e+00	0	33	0	2903506944	40	4034
2026-01-16 02:00:21.40	156.72	39.18	-37.1	-38.1	17.6	0.00e+00	0	34	0	2907701248	40	4049
2026-01-16 02:00:22.69	157.09	38.92	-37.1	-38.1	17.6	0.00e+00	0	34	0	2915041280	40	4027
2026-01-16 02:00:23.41	157.29	38.77	-37.1	-38.2	17.6	0.00e+00	0	33	0	2919235584	40	4068
2026-01-16 02:00:24.71	157.64	38.51	-37.3	-38.3	17.6	0.00e+00	0	33	0	2926575616	40	4128
2026-01-16 02:00:25.43	157.84	38.37	-37.3	-38.4	17.5	0.00e+00	0	33	0	2929721344	40	4167
2026-01-16 02:00:26.73	158.19	38.11	-37.4	-38.4	17.5	0.00e+00	0	33	0	2937061376	40	4186
2026-01-16 02:00:27.45	158.38	37.97	-37.4	-38.5	17.5	0.00e+00	0	34	0	2941255680	40	4213
2026-01-16 02:00:28.75	158.72	37.71	-37.3	-38.3	17.5	0.00e+00	0	34	0	2948595712	40	4133
2026-01-16 02:00:29.47	158.90	37.57	-37.1	-38.2	17.6	0.00e+00	0	33	0	2952790016	40	4061
2026-01-16 02:00:30.77	159.23	37.31	-37.1	-38.1	17.6	0.00e+00	0	33	0	2960130048	40	4036
2026-01-16 02:00:31.49	159.42	37.17	-37.1	-38.1	17.6	0.00e+00	0	33	0	2964324352	40	4049
2026-01-16 02:00:32.79	159.74	36.92	-37.1	-38.2	17.6	0.00e+00	0	33	0	2971664384	40	4054
2026-01-16 02:00:33.51	159.92	36.78	-37.1	-38.1	17.6	0.00e+00	0	33	0	2975858688	40	4050
2026-01-16 02:00:34.81	160.23	36.52	-37.1	-38.1	17.6	0.00e+00	0	34	0	2983198720	40	4050
2026-01-16 02:00:35.53	160.41	36.38	-37.1	-38.1	17.6	0.00e+00	0	34	0	2987393024	40	4029
2026-01-16 02:00:36.83	160.72	36.13	-37.1	-38.1	17.6	0.00e+00	0	34	0	2994733056	40	4047
2026-01-16 02:00:37.55	160.89	35.99	-37.1	-38.1	17.6	0.00e+00	0	34	0	2997878784	40	4035
2026-01-16 02:00:38.85	161.19	35.74	-36.8	-38.0	17.3	0.00e+00	0	33	0	3005218816	40	3980
2026-01-16 02:00:39.57	161.35	35.61	-36.8	-38.0	17.3	0.00e+00	0	33	0	3009413120	40	3982
2026-01-16 02:00:40.86	161.65	35.36	-36.8	-38.0	17.4	0.00e+00	0	33	0	3016753152	40	3980
2026-01-16 02:00:41.59	161.81	35.22	-36.8	-38.0	17.4	0.00e+00	0	33	0	3020947456	40	3993
2026-01-16 02:00:42.89	162.10	34.97	-36.7	-38.0	17.4	0.00e+00	0	33	0	3028287488	40	3967
2026-01-16 02:00:43.62	162.26	34.84	-36.7	-38.0	17.4	0.00e+00	0	33	0	3032481792	40	3975
2026-01-16 02:00:44.92	162.54	34.59	-37.0	-38.2	17.3	0.00e+00	0	33	0	3039821824	40	4085
2026-01-16 02:00:45.64	162.70	34.46	-37.0	-38.2	17.3	0.00e+00	0	33	0	3044016128	40	4088
2026-01-16 02:00:46.94	162.97	34.22	-37.1	-38.4	17.3	0.00e+00	0	33	0	3051356160	40	4170
2026-01-16 02:00:47.66	163.12	34.08	-37.1	-38.4	17.2	0.00e+00	0	33	0	3055550464	40	4156
2026-01-16 02:00:48.95	163.39	33.84	-37.0	-38.3	17.2	0.00e+00	0	33	0	3062890496	40	4112
2026-01-16 02:00:49.67	163.54	33.71	-37.0	-38.3	17.3	0.00e+00	0	33	0	3067084800	40	4102
2026-01-16 02:00:50.97	163.80	33.47	-36.9	-38.2	17.3	0.00e+00	0	33	0	3074424832	40	4070
2026-01-16 02:00:51.69	163.95	33.34	-36.8	-38.0	17.3	0.00e+00	0	33	0	3077570560	40	4000
2026-01-16 02:00:52.99	164.20	33.10	-36.8	-38.0	17.3	0.00e+00	0	33	0	3084910592	40	4004
2026-01-16 02:00:53.71	164.34	32.97	-36.8	-38.0	17.3	0.00e+00	0	33	0	3089104896	40	3998
2026-01-16 02:00:55.01	164.60	32.74	-36.9	-38.1	17.3	0.00e+00	0	33	0	3096444928	40	4032
2026-01-16 02:00:55.73	164.73	32.61	-36.8	-38.1	17.3	0.00e+00	0	33	0	3100639232	40	4019
2026-01-16 02:00:57.03	164.98	32.37	-37.1	-38.3	17.3	0.00e+00	0	33	0	3107979264	40	4133
2026-01-16 02:00:57.75	165.12	32.24	-37.1	-38.4	17.2	0.00e+00	0	33	0	3112173568	40	4163
2026-01-16 02:00:59.05	165.36	32.01	-37.2	-38.5	17.2	0.00e+00	0	33	0	3119513600	40	4240
2026-01-16 02:00:59.77	165.49	31.89	-37.3	-38.6	17.2	0.00e+00	0	33	0	3123707904	40	4287
2026-01-16 02:01:01.07	165.73	31.66	-37.5	-38.8	17.1	0.00e+00	0	33	0	3131047936	40	4372
2026-01-16 02:01:01.79	165.86	31.53	-37.4	-38.8	17.1	0.00e+00	0	33	0	3134193664	40	4343
2026-01-16 02:01:03.08	166.09	31.30	-37.4	-38.7	17.1	0.00e+00	0	34	0	3141533696	40	4330
2026-01-16 02:01:03.81	166.21	31.18	-37.5	-38.8	17.1	0.00e+00	0	33	0	3145728000	40	4349
2026-01-16 02:01:05.10	166.44	30.95	-37.2	-38.5	17.2	0.00e+00	0	33	0	3153068032	40	4220
2026-01-16 02:01:05.83	166.56	30.83	-37.1	-38.3	17.2	0.00e+00	0	33	0	3157262336	40	4145
2026-01-16 02:01:07.12	166.78	30.61	-37.1	-38.4	17.2	0.00e+00	0	33	0	3164602368	40	4150
2026-01-16 02:01:07.84	166.91	30.48	-37.1	-38.3	17.2	0.00e+00	0	33	0	3168796672	40	4138
2026-01-16 02:01:09.14	167.12	30.26	-37.0	-38.3	17.2	0.00e+00	0	33	0	3176136704	40	4126
2026-01-16 02:01:09.86	167.24	30.14	-37.1	-38.4	17.2	0.00e+00	0	33	0	3180331008	40	4166
2026-01-16 02:01:11.16	167.45	29.92	-37.2	-38.5	17.2	0.00e+00	0	33	0	3187671040	40	4220
2026-01-16 02:01:11.88	167.57	29.80	-37.3	-38.6	17.2	0.00e+00	0	33	0	3191865344	40	4269
2026-01-16 02:01:13.18	167.78	29.58	-37.4	-38.8	17.2	0.00e+00	0	33	0	3199205376	40	4342
2026-01-16 02:01:13.90	167.89	29.46	-37.4	-38.8	17.2	0.00e+00	0	33	0	3202351104	40	4343
2026-01-16 02:01:15.20	168.10	29.25	-37.4	-38.8	17.1	0.00e+00	0	33	0	3209691136	40	4342
2026-01-16 02:01:15.92	168.21	29.13	-37.4	-38.8	17.1	0.00e+00	0	33	0	3213885440	40	4343
2026-01-16 02:01:17.22	168.41	28.91	-37.4	-38.7	17.1	0.00e+00	0	33	0	3221225472	40	4329
2026-01-16 02:01:17.94	168.52	28.80	-37.3	-38.6	17.1	0.00e+00	0	33	0	3225419776	40	4285
2026-01-16 02:01:19.23	168.72	28.59	-37.3	-38.6	17.2	0.00e+00	0	33	0	3232759808	40	4285
2026-01-16 02:01:19.96	168.82	28.47	-37.3	-38.6	17.2	0.00e+00	0	33	0	3236954112	40	4274
2026-01-16 02:01:21.26	169.02	28.26	-37.3	-38.5	17.2	0.00e+00	0	34	0	3244294144	40	4233
2026-01-16 02:01:21.98	169.12	28.14	-37.3	-38.6	17.2	0.00e+00	0	33	0	3248488448	40	4255
2026-01-16 02:01:23.27	169.31	27.94	-37.3	-38.5	17.2	0.00e+00	0	34	0	3255828480	40	4237
2026-01-16 02:01:23.99	169.41	27.82	-37.2	-38.5	17.2	0.00e+00	0	33	0	3260022784	40	4216
2026-01-16 02:01:25.29	169.60	27.62	-37.3	-38.6	17.2	0.00e+00	0	33	0	3267362816	40	4262
2026-01-16 02:01:26.01	169.70	27.50	-37.3	-38.5	17.3	0.00e+00	0	33	0	3271557120	40	4233
2026-01-16 02:01:27.31	169.88	27.30	-37.3	-38.6	17.2	0.00e+00	0	33	0	3278897152	40	4261
2026-01-16 02:01:28.03	169.98	27.19	-37.3	-38.6	17.2	0.00e+00	0	33	0	3282042880	40	4248
2026-01-16 02:01:29.33	170.16	26.98	-37.3	-38.6	17.2	0.00e+00	0	33	0	3289382912	40	4258
2026-01-16 02:01:30.05	170.26	26.87	-37.3	-38.6	17.2	0.00e+00	0	33	0	3293577216	40	4267
2026-01-16 02:01:31.35	170.43	26.67	-37.4	-38.7	17.2	0.00e+00	0	34	0	3300917248	40	4321
2026-01-16 02:01:32.07	170.53	26.56	-37.3	-38.6	17.2	0.00e+00	0	34	0	3305111552	40	4276
2026-01-16 02:01:33.37	170.70	26.36	-37.5	-38.8	17.2	0.00e+00	0	33	0	3312451584	40	4343
2026-01-16 02:01:34.09	170.79	26.26	-37.4	-38.7	17.2	0.00e+00	0	33	0	3316645888	40	4296
2026-01-16 02:01:35.39	170.96	26.06	-37.3	-38.6	17.2	0.00e+00	0	33	0	3323985920	40	4260
2026-01-16 02:01:36.11	171.05	25.95	-37.3	-38.5	17.2	0.00e+00	0	34	0	3328180224	40	4239
2026-01-16 02:01:37.40	171.22	25.76	-37.3	-38.6	17.2	0.00e+00	0	33	0	3335520256	40	4266
2026-01-16 02:01:38.13	171.31	25.65	-37.5	-38.7	17.2	0.00e+00	0	33	0	3338665984	40	4336
2026-01-16 02:01:39.42	171.47	25.46	-37.4	-38.7	17.2	0.00e+00	0	33	0	3346006016	40	4313
2026-01-16 02:01:40.14	171.56	25.35	-37.4	-38.7	17.2	0.00e+00	0	33	0	3350200320	40	4311
2026-01-16 02:01:41.44	171.72	25.16	-37.5	-38.7	17.2	0.00e+00	0	33	0	3357540352	40	4332
2026-01-16 02:01:42.16	171.81	25.05	-37.5	-38.8	17.2	0.00e+00	0	33	0	3361734656	40	4367
2026-01-16 02:01:43.46	171.96	24.87	-37.6	-38.9	17.2	0.00e+00	0	33	0	3369074688	40	4408
2026-01-16 02:01:44.18	172.05	24.76	-37.6	-38.9	17.1	0.00e+00	0	34	0	3373268992	40	4401
2026-01-16 02:01:45.48	172.20	24.57	-37.6	-38.9	17.1	0.00e+00	0	33	0	3380609024	40	4419
2026-01-16 02:01:46.20	172.29	24.47	-37.6	-38.9	17.1	0.00e+00	0	33	0	3384803328	40	4438
2026-01-16 02:01:47.50	172.44	24.28	-37.6	-38.9	17.1	0.00e+00	0	33	0	3392143360	40	4413
2026-01-16 02:01:48.22	172.52	24.18	-37.6	-38.9	17.1	0.00e+00	0	34	0	3396337664	40	4421
2026-01-16 02:01:49.52	172.67	24.00	-37.6	-38.9	17.1	0.00e+00	0	33	0	3403677696	40	4432
2026-01-16 02:01:50.24	172.75	23.90	-37.6	-38.9	17.2	0.00e+00	0	33	0	3406823424	40	4399
2026-01-16 02:01:51.54	172.90	23.72	-37.6	-38.9	17.1	0.00e+00	0	33	0	3414163456	40	4399
2026-01-16 02:01:52.26	172.98	23.61	-37.7	-39.0	17.1	0.00e+00	0	34	0	3418357760	40	4448
2026-01-16 02:01:53.56	173.12	23.43	-37.7	-39.0	17.1	0.00e+00	0	33	0	3425697792	40	4458
2026-01-16 02:01:54.28	173.20	23.33	-37.6	-38.9	17.1	0.00e+00	0	34	0	3429892096	40	4426
2026-01-16 02:01:55.58	173.34	23.16	-37.6	-38.9	17.1	0.00e+00	0	33	0	3437232128	40	4424
2026-01-16 02:01:56.30	173.42	23.06	-37.6	-38.9	17.1	0.00e+00	0	34	0	3441426432	40	4434
2026-01-16 02:01:57.59	173.55	22.88	-37.8	-39.1	17.1	0.00e+00	0	33	0	3448766464	40	4495
2026-01-16 02:01:58.32	173.63	22.78	-37.7	-39.0	17.1	0.00e+00	0	33	0	3452960768	40	4488
2026-01-16 02:01:59.61	173.77	22.61	-37.8	-39.1	17.1	0.00e+00	0	34	0	3460300800	40	4523
2026-01-16 02:02:00.33	173.84	22.51	-37.8	-39.2	17.1	0.00e+00	0	33	0	3464495104	40	4548
2026-01-16 02:02:01.63	173.98	22.34	-37.9	-39.3	17.1	0.00e+00	0	33	0	3471835136	41	4346
2026-01-16 02:02:02.35	174.05	22.24	-38.0	-39.3	17.0	0.00e+00	0	33	0	3476029440	41	4390
2026-01-16 02:02:03.65	174.18	22.07	-38.1	-39.4	17.1	0.00e+00	0	33	0	3482320896	41	4419
2026-01-16 02:02:04.37	174.25	21.97	-38.1	-39.5	17.0	0.00e+00	0	33	0	3486515200	41	4454
2026-01-16 02:02:05.67	174.38	21.80	-38.2	-39.5	17.0	0.00e+00	0	33	0	3493855232	41	4474
2026-01-16 02:02:06.39	174.45	21.71	-38.2	-39.5	17.0	0.00e+00	0	34	0	3498049536	41	4479
2026-01-16 02:02:07.69	174.58	21.54	-38.2	-39.6	17.0	0.00e+00	0	33	0	3505389568	41	4517
2026-01-16 02:02:08.41	174.65	21.45	-38.2	-39.5	17.0	0.00e+00	0	33	0	3509583872	41	4489
2026-01-16 02:02:09.71	174.78	21.28	-38.2	-39.6	17.0	0.00e+00	0	34	0	3516923904	41	4514
2026-01-16 02:02:10.43	174.85	21.19	-38.2	-39.6	16.9	0.00e+00	0	34	0	3521118208	41	4517
2026-01-16 02:02:11.73	174.97	21.02	-38.2	-39.6	16.9	0.00e+00	0	34	0	3528458240	41	4524
2026-01-16 02:02:12.45	175.04	20.93	-38.2	-39.5	17.0	0.00e+00	0	33	0	3531603968	41	4488
2026-01-16 02:02:13.74	175.16	20.77	-38.3	-39.6	16.9	0.00e+00	0	33	0	3538944000	41	4531
2026-01-16 02:02:14.47	175.23	20.67	-38.3	-39.6	16.9	0.00e+00	0	34	0	3543138304	41	4539
2026-01-16 02:02:15.77	175.35	20.51	-38.3	-39.6	17.0	0.00e+00	0	33	0	3550478336	41	4535
2026-01-16 02:02:16.49	175.41	20.42	-38.3	-39.6	17.0	0.00e+00	0	34	0	3554672640	41	4536
2026-01-16 02:02:17.78	175.53	20.26	-38.2	-39.6	17.0	0.00e+00	0	33	0	3562012672	41	4516
2026-01-16 02:02:18.51	175.59	20.17	-38.2	-39.5	17.0	0.00e+00	0	34	0	3566206976	41	4491
2026-01-16 02:02:19.80	175.71	20.01	-38.2	-39.6	17.0	0.00e+00	0	33	0	3573547008	41	4503
2026-01-16 02:02:20.52	175.77	19.92	-38.2	-39.6	17.0	0.00e+00	0	33	0	3577741312	41	4508
2026-01-16 02:02:21.82	175.89	19.76	-38.3	-39.7	17.0	0.00e+00	0	34	0	3585081344	41	4554
2026-01-16 02:02:22.54	175.95	19.68	-38.4	-39.8	16.9	0.00e+00	0	33	0	3589275648	41	4600
2026-01-16 02:02:23.83	176.06	19.52	-38.4	-39.8	16.9	0.00e+00	0	34	0	3596615680	42	4342
2026-01-16 02:02:24.55	176.12	19.43	-38.4	-39.8	16.9	0.00e+00	0	33	0	3600809984	42	4342
2026-01-16 02:02:25.85	176.23	19.28	-38.5	-39.8	16.9	0.00e+00	0	34	0	3608150016	42	4386
2026-01-16 02:02:26.57	176.29	19.19	-38.6	-39.9	16.9	0.00e+00	0	33	0	3611295744	42	4422
2026-01-16 02:02:27.87	176.40	19.04	-38.7	-40.0	16.9	0.00e+00	0	33	0	3618635776	42	4472
2026-01-16 02:02:28.59	176.46	18.95	-38.7	-40.0	16.9	0.00e+00	0	33	0	3622830080	42	4480
2026-01-16 02:02:29.89	176.57	18.80	-38.7	-40.0	16.9	0.00e+00	0	34	0	3630170112	42	4479
2026-01-16 02:02:30.61	176.63	18.71	-38.7	-40.1	16.9	0.00e+00	0	34	0	3634364416	42	4499
2026-01-16 02:02:31.91	176.74	18.56	-38.8	-40.1	16.8	0.00e+00	0	33	0	3641704448	42	4538
2026-01-16 02:02:32.63	176.79	18.48	-38.8	-40.1	16.9	0.00e+00	0	33	0	3645898752	42	4532
2026-01-16 02:02:33.93	176.90	18.33	-38.8	-40.2	16.8	0.00e+00	0	34	0	3653238784	42	4582
2026-01-16 02:02:34.65	176.96	18.24	-38.9	-40.2	16.8	0.00e+00	0	34	0	3657433088	42	4598
2026-01-16 02:02:35.95	177.06	18.09	-38.9	-40.3	16.8	0.00e+00	0	33	0	3664773120	42	4603
2026-01-16 02:02:36.67	177.12	18.01	-39.0	-40.4	16.8	0.00e+00	0	33	0	3668967424	43	4394
2026-01-16 02:02:37.96	177.22	17.86	-38.9	-40.3	16.8	0.00e+00	0	33	0	3676307456	43	4369
2026-01-16 02:02:38.68	177.27	17.78	-39.0	-40.4	16.8	0.00e+00	0	33	0	3679453184	43	4400
2026-01-16 02:02:39.98	177.37	17.63	-39.0	-40.4	16.8	0.00e+00	0	33	0	3686793216	43	4435
2026-01-16 02:02:40.70	177.43	17.55	-39.1	-40.5	16.7	0.00e+00	0	34	0	3690987520	43	4444
2026-01-16 02:02:42.00	177.53	17.41	-39.1	-40.5	16.8	0.00e+00	0	34	0	3698327552	43	4443
2026-01-16 02:02:42.72	177.58	17.33	-39.1	-40.5	16.7	0.00e+00	0	33	0	3702521856	43	4481
2026-01-16 02:02:44.02	177.68	17.18	-39.2	-40.6	16.7	0.00e+00	0	34	0	3709861888	43	4539
2026-01-16 02:02:44.74	177.73	17.10	-39.2	-40.6	16.7	0.00e+00	0	34	0	3714056192	43	4539
2026-01-16 02:02:46.04	177.83	16.96	-39.3	-40.7	16.7	0.00e+00	0	33	0	3721396224	43	4570
2026-01-16 02:02:46.76	177.88	16.88	-39.3	-40.7	16.7	0.00e+00	0	34	0	3725590528	43	4593
2026-01-16 02:02:48.06	177.97	16.74	-39.3	-40.8	16.6	0.00e+00	0	34	0	3732930560	43	4609
2026-01-16 02:02:48.78	178.03	16.66	-39.4	-40.8	16.6	0.00e+00	0	33	0	3736076288	43	4648
2026-01-16 02:02:50.08	178.12	16.52	-39.6	-41.1	16.5	0.00e+00	0	33	0	3743416320	44	4514
2026-01-16 02:02:50.80	178.17	16.44	-39.6	-41.1	16.6	0.00e+00	0	33	0	3747610624	44	4505
2026-01-16 02:02:52.10	178.26	16.30	-39.7	-41.2	16.5	0.00e+00	0	34	0	3754950656	44	4578
2026-01-16 02:02:52.82	178.31	16.22	-39.8	-41.2	16.5	0.00e+00	0	34	0	3759144960	44	4584
2026-01-16 02:02:54.12	178.40	16.09	-39.8	-41.3	16.5	0.00e+00	0	33	0	3766484992	44	4601
2026-01-16 02:02:54.84	178.45	16.01	-39.8	-41.3	16.5	0.00e+00	0	33	0	3770679296	44	4601
2026-01-16 02:02:56.13	178.54	15.87	-39.9	-41.4	16.5	0.00e+00	0	33	0	3778019328	44	4656
2026-01-16 02:02:56.86	178.59	15.80	-39.8	-41.3	16.5	0.00e+00	0	33	0	3782213632	44	4623
2026-01-16 02:02:58.15	178.68	15.66	-39.9	-41.4	16.5	0.00e+00	0	33	0	3789553664	44	4661
2026-01-16 02:02:58.87	178.73	15.59	-39.9	-41.4	16.5	0.00e+00	0	34	0	3793747968	44	4687
2026-01-16 02:03:00.17	178.82	15.45	-39.9	-41.4	16.5	0.00e+00	0	33	0	3801088000	44	4655
2026-01-16 02:03:00.89	178.86	15.38	-39.8	-41.3	16.5	0.00e+00	0	34	0	3804233728	44	4630
2026-01-16 02:03:02.19	178.95	15.24	-39.8	-41.3	16.5	0.00e+00	0	34	0	3811573760	44	4636
