passes_logs/2026/01/16/R3.2S_Murmansk_2ch/R3.2S_Murmansk_2ch__20260116_033154_FENGYUN_3D_rec.log

#Pass ID: 20260116_033154_FENGYUN 3D
#Satellite: FENGYUN 3D
#Configuration: FENGYUN 3D
#almurnet v.1.7.20251203
#Start time: 2026-01-16 03:31:54

#Version: 2.2.20231116
#Station: R3.2S_Murmansk_2ch
#Location: 33.079688 lon 68.888172 lat
#TLE: 1 43010U 17072A   26015.63785617 -.00000279  00000+0 -10998-3 0  9991
#TLE: 2 43010  98.9933 347.4636 0002368 106.7198 253.4237 14.19694313423348

#Time	Az	El	Level	Level2	SNR	BER	BlckErr	Temp	State	Recorded	gain1	gain2
2026-01-16 03:31:54.30	28.43	1.97	-49.3	-62.4	3.8	8.46e-01	0	31	0	0	65	15740
2026-01-16 03:31:55.30	28.41	2.04	-49.3	-62.5	3.8	8.45e-01	0	31	104	0	63	17698
2026-01-16 03:31:56.31	28.40	2.10	-49.3	-62.5	3.8	8.46e-01	0	31	104	0	63	17753
2026-01-16 03:31:57.32	28.38	2.17	-49.3	-62.4	3.8	8.45e-01	0	31	104	0	63	17633
2026-01-16 03:31:58.33	28.37	2.23	-49.3	-62.4	3.8	8.46e-01	0	31	104	0	63	17585
2026-01-16 03:31:59.34	28.35	2.29	-49.3	-62.4	3.8	8.47e-01	0	31	104	0	63	17536
2026-01-16 03:32:00.35	28.33	2.36	-49.3	-62.1	3.8	8.46e-01	0	31	104	0	63	17068
2026-01-16 03:32:01.36	28.32	2.42	-49.3	-62.3	3.8	8.46e-01	0	31	104	0	63	17379
2026-01-16 03:32:02.37	28.30	2.49	-49.3	-62.2	3.8	8.45e-01	0	31	104	0	63	17138
2026-01-16 03:32:03.38	28.29	2.55	-49.2	-61.7	3.8	8.45e-01	0	31	104	0	63	16298
2026-01-16 03:32:04.39	28.27	2.62	-49.2	-61.3	3.8	8.47e-01	0	31	104	0	63	15571
2026-01-16 03:32:05.40	28.26	2.69	-49.2	-61.3	3.8	8.45e-01	0	31	104	0	63	15574
2026-01-16 03:32:06.41	28.24	2.75	-49.2	-61.1	3.8	8.46e-01	0	31	104	0	63	15108
2026-01-16 03:32:07.42	28.22	2.82	-49.2	-60.7	3.8	8.45e-01	0	31	104	0	63	14526
2026-01-16 03:32:08.43	28.21	2.88	-49.1	-60.2	3.8	8.44e-01	0	32	104	0	63	13601
2026-01-16 03:32:09.44	28.19	2.95	-49.1	-59.7	4.0	8.43e-01	0	31	0	0	63	12905
2026-01-16 03:32:10.44	28.17	3.02	-49.0	-59.3	4.1	8.38e-01	0	32	0	0	63	12320
2026-01-16 03:32:11.45	28.16	3.08	-49.2	-61.3	3.8	8.45e-01	0	32	104	0	63	15437
2026-01-16 03:32:12.46	28.14	3.15	-49.1	-60.4	3.9	8.45e-01	0	32	104	0	63	13964
2026-01-16 03:32:13.47	28.13	3.22	-49.3	-61.8	3.8	8.45e-01	0	32	104	0	63	16320
2026-01-16 03:32:14.48	28.11	3.28	-49.3	-62.3	3.8	8.46e-01	0	32	104	0	63	17452
2026-01-16 03:32:15.49	28.09	3.35	-49.3	-61.7	3.8	8.44e-01	0	32	104	0	63	16156
2026-01-16 03:32:16.50	28.07	3.42	-49.1	-59.5	3.9	8.44e-01	0	32	104	0	63	12590
2026-01-16 03:32:17.51	28.06	3.48	-48.8	-57.5	4.7	8.16e-01	0	32	0	0	63	9967
2026-01-16 03:32:18.52	28.04	3.55	-48.7	-56.9	5.0	7.77e-01	0	32	0	0	63	9291
2026-01-16 03:32:19.53	28.02	3.62	-48.4	-55.6	5.8	7.12e-01	0	32	0	0	63	8007
2026-01-16 03:32:20.54	28.01	3.69	-48.1	-54.3	6.7	1.72e-01	0	32	0	6291456	62	7311
2026-01-16 03:32:21.55	27.99	3.76	-47.5	-52.5	8.2	8.15e-02	0	32	0	11534336	61	6297
2026-01-16 03:32:22.56	27.97	3.82	-47.0	-51.3	9.3	2.57e-02	0	32	0	16777216	60	5809
2026-01-16 03:32:23.57	27.95	3.89	-47.2	-51.5	9.5	4.41e-03	0	32	0	23068672	59	6314
2026-01-16 03:32:24.58	27.94	3.96	-46.7	-50.4	10.5	1.50e-03	0	32	0	28311552	59	5543
2026-01-16 03:32:25.59	27.92	4.03	-46.8	-50.5	10.4	2.70e-03	0	32	0	33554432	59	5650
2026-01-16 03:32:26.59	27.90	4.10	-46.2	-49.5	11.2	5.66e-04	0	32	0	39845888	59	5025
2026-01-16 03:32:27.60	27.88	4.17	-46.4	-49.8	11.0	6.73e-04	0	32	0	45088768	58	5495
2026-01-16 03:32:28.61	27.86	4.24	-45.8	-48.8	11.8	1.37e-05	0	32	0	51380224	57	5179
2026-01-16 03:32:29.63	27.84	4.31	-46.4	-49.9	10.9	6.02e-04	0	32	0	56623104	58	5539
2026-01-16 03:32:30.64	27.83	4.38	-46.5	-49.9	10.9	4.89e-04	0	32	0	62914560	58	5585
2026-01-16 03:32:31.64	27.81	4.44	-46.6	-50.1	10.7	9.99e-04	0	32	0	68157440	58	5719
2026-01-16 03:32:32.65	27.79	4.51	-46.9	-50.9	10.1	2.68e-03	0	32	0	74448896	59	5867
2026-01-16 03:32:33.66	27.77	4.58	-47.0	-51.0	10.0	3.63e-03	0	32	0	79691776	59	5933
2026-01-16 03:32:34.67	27.75	4.66	-47.1	-51.2	9.8	6.91e-03	0	32	0	84934656	59	6100
2026-01-16 03:32:35.68	27.73	4.73	-47.1	-51.3	9.7	3.08e-03	0	32	0	91226112	59	6161
2026-01-16 03:32:36.69	27.71	4.80	-47.8	-53.1	7.7	3.25e-02	0	32	0	96468992	60	7166
2026-01-16 03:32:37.70	27.69	4.87	-47.4	-52.0	8.6	8.23e-02	0	32	0	102760448	60	6342
2026-01-16 03:32:38.71	27.68	4.94	-47.7	-53.1	7.7	5.17e-02	0	32	0	108003328	60	7151
2026-01-16 03:32:39.72	27.66	5.01	-47.9	-53.6	7.2	1.04e-01	0	32	0	113246208	61	7191
2026-01-16 03:32:40.73	27.64	5.08	-47.7	-52.4	8.7	1.89e-02	0	32	0	119537664	61	6267
2026-01-16 03:32:41.74	27.62	5.15	-47.4	-51.8	9.2	1.20e-03	0	32	0	124780544	60	6166
2026-01-16 03:32:42.75	27.60	5.22	-48.8	-58.2	4.4	4.77e-01	0	32	0	130023424	62	11447
2026-01-16 03:32:43.76	27.58	5.30	-43.9	-45.8	14.1	3.97e-02	0	32	0	133169152	54	4366
2026-01-16 03:32:44.77	27.56	5.37	-49.0	-58.0	4.6	3.92e-01	0	32	0	138412032	63	10562
2026-01-16 03:32:45.78	27.54	5.44	-45.4	-47.9	12.8	1.06e-01	0	32	0	140509184	57	4686
2026-01-16 03:32:46.79	27.52	5.51	-43.7	-45.6	14.3	0.00e+00	0	32	0	146800640	52	4776
2026-01-16 03:32:47.80	27.50	5.59	-43.5	-45.4	14.4	0.00e+00	0	32	0	152043520	52	4670
2026-01-16 03:32:48.80	27.48	5.66	-44.3	-46.4	13.8	0.00e+00	0	32	0	158334976	53	4950
2026-01-16 03:32:49.81	27.46	5.73	-43.7	-45.6	14.4	0.00e+00	0	32	0	163577856	53	4522
2026-01-16 03:32:50.82	27.43	5.81	-44.4	-46.5	13.8	0.00e+00	0	32	0	168820736	53	5016
2026-01-16 03:32:51.83	27.41	5.88	-43.5	-45.3	14.5	0.00e+00	0	32	0	175112192	53	4390
2026-01-16 03:32:52.84	27.39	5.95	-43.4	-45.2	14.6	0.00e+00	0	32	0	180355072	52	4587
2026-01-16 03:32:53.85	27.37	6.03	-42.8	-44.4	15.1	0.00e+00	0	32	0	186646528	52	4176
2026-01-16 03:32:54.86	27.35	6.10	-42.5	-44.0	15.3	0.00e+00	0	32	0	191889408	51	4234
2026-01-16 03:32:55.87	27.33	6.18	-42.6	-44.1	15.2	0.00e+00	0	32	0	197132288	51	4290
2026-01-16 03:32:56.88	27.31	6.25	-42.5	-44.0	15.3	0.00e+00	0	32	0	203423744	51	4242
2026-01-16 03:32:57.89	27.29	6.32	-42.4	-43.9	15.3	0.00e+00	0	32	0	208666624	51	4190
2026-01-16 03:32:58.90	27.26	6.40	-42.4	-44.0	15.3	0.00e+00	0	32	0	214958080	50	4463
2026-01-16 03:32:59.91	27.24	6.48	-42.4	-44.0	15.3	0.00e+00	0	32	0	220200960	50	4460
2026-01-16 03:33:00.92	27.22	6.55	-42.5	-44.1	15.2	0.00e+00	0	32	0	225443840	50	4529
2026-01-16 03:33:01.93	27.20	6.63	-42.4	-43.9	15.3	0.00e+00	0	32	0	231735296	50	4437
2026-01-16 03:33:02.94	27.18	6.70	-42.6	-44.1	15.2	0.00e+00	0	32	0	236978176	50	4544
2026-01-16 03:33:03.95	27.15	6.78	-42.4	-44.0	15.3	0.00e+00	0	32	0	243269632	50	4459
2026-01-16 03:33:04.96	27.13	6.85	-42.3	-43.8	15.4	0.00e+00	0	32	0	248512512	50	4370
2026-01-16 03:33:05.97	27.11	6.93	-42.3	-43.8	15.4	0.00e+00	0	32	0	254803968	50	4366
2026-01-16 03:33:06.98	27.09	7.01	-42.3	-43.9	15.4	0.00e+00	0	32	0	260046848	50	4395
2026-01-16 03:33:07.99	27.06	7.09	-42.3	-43.9	15.4	0.00e+00	0	32	0	265289728	50	4393
2026-01-16 03:33:09.00	27.04	7.16	-42.3	-43.8	15.5	0.00e+00	0	32	0	271581184	50	4364
2026-01-16 03:33:10.01	27.02	7.24	-42.4	-43.9	15.4	0.00e+00	0	32	0	276824064	50	4419
2026-01-16 03:33:11.02	26.99	7.32	-42.2	-43.7	15.5	0.00e+00	0	32	0	283115520	50	4311
2026-01-16 03:33:12.03	26.97	7.40	-42.0	-43.5	15.6	0.00e+00	0	32	0	288358400	50	4195
2026-01-16 03:33:13.03	26.95	7.47	-42.0	-43.5	15.6	0.00e+00	0	33	0	293601280	50	4215
2026-01-16 03:33:14.04	26.92	7.55	-42.1	-43.5	15.6	0.00e+00	0	32	0	299892736	50	4242
2026-01-16 03:33:15.05	26.90	7.63	-42.2	-43.7	15.5	0.00e+00	0	33	0	305135616	50	4334
2026-01-16 03:33:16.06	26.87	7.71	-42.4	-43.9	15.4	0.00e+00	0	32	0	311427072	50	4412
2026-01-16 03:33:17.07	26.85	7.79	-42.3	-43.9	15.4	0.00e+00	0	32	0	316669952	50	4406
2026-01-16 03:33:18.08	26.82	7.87	-42.4	-44.0	15.4	0.00e+00	0	33	0	321912832	50	4450
2026-01-16 03:33:19.09	26.80	7.95	-42.2	-43.7	15.5	0.00e+00	0	32	0	328204288	50	4330
2026-01-16 03:33:20.10	26.77	8.03	-42.2	-43.7	15.6	0.00e+00	0	33	0	333447168	50	4318
2026-01-16 03:33:21.11	26.75	8.11	-42.1	-43.5	15.6	0.00e+00	0	33	0	339738624	50	4232
2026-01-16 03:33:22.12	26.72	8.19	-42.1	-43.6	15.6	0.00e+00	0	33	0	344981504	50	4245
2026-01-16 03:33:23.13	26.70	8.27	-42.0	-43.4	15.7	0.00e+00	0	32	0	351272960	50	4178
2026-01-16 03:33:24.14	26.67	8.35	-41.9	-43.3	15.8	0.00e+00	0	32	0	356515840	50	4133
2026-01-16 03:33:25.15	26.65	8.43	-41.8	-43.2	15.8	0.00e+00	0	33	0	362807296	50	4088
2026-01-16 03:33:26.16	26.62	8.51	-41.9	-43.4	15.7	0.00e+00	0	32	0	368050176	50	4161
2026-01-16 03:33:27.17	26.60	8.59	-41.7	-43.1	15.9	0.00e+00	0	33	0	373293056	50	4020
2026-01-16 03:33:28.18	26.57	8.67	-41.6	-43.0	15.8	0.00e+00	0	33	0	379584512	49	4223
2026-01-16 03:33:29.19	26.54	8.76	-41.7	-43.1	15.8	0.00e+00	0	33	0	384827392	49	4274
2026-01-16 03:33:30.20	26.52	8.84	-41.8	-43.2	15.8	0.00e+00	0	33	0	391118848	49	4316
2026-01-16 03:33:31.21	26.49	8.92	-41.7	-43.2	15.8	0.00e+00	0	33	0	396361728	49	4306
2026-01-16 03:33:32.22	26.46	9.00	-41.7	-43.1	15.9	0.00e+00	0	33	0	401604608	49	4261
2026-01-16 03:33:33.23	26.44	9.09	-41.8	-43.2	15.8	0.00e+00	0	33	0	407896064	49	4338
2026-01-16 03:33:34.24	26.41	9.17	-41.8	-43.2	15.8	0.00e+00	0	33	0	413138944	49	4305
2026-01-16 03:33:35.25	26.38	9.25	-41.6	-43.0	15.9	0.00e+00	0	33	0	419430400	49	4198
2026-01-16 03:33:36.26	26.35	9.34	-41.9	-43.3	15.7	0.00e+00	0	33	0	424673280	49	4384
2026-01-16 03:33:37.27	26.33	9.42	-41.6	-43.0	15.9	0.00e+00	0	33	0	429916160	49	4231
2026-01-16 03:33:38.28	26.30	9.51	-41.7	-43.1	15.9	0.00e+00	0	33	0	436207616	49	4276
2026-01-16 03:33:39.29	26.27	9.59	-41.6	-43.0	15.9	0.00e+00	0	33	0	441450496	49	4240
2026-01-16 03:33:40.30	26.24	9.68	-41.9	-43.3	15.8	0.00e+00	0	33	0	447741952	49	4377
2026-01-16 03:33:41.31	26.21	9.76	-41.9	-43.4	15.7	0.00e+00	0	33	0	452984832	49	4404
2026-01-16 03:33:42.32	26.18	9.85	-41.6	-43.0	15.9	0.00e+00	0	33	0	459276288	49	4228
2026-01-16 03:33:43.33	26.16	9.93	-41.6	-43.0	15.9	0.00e+00	0	33	0	464519168	49	4207
2026-01-16 03:33:44.34	26.13	10.02	-41.6	-43.0	15.9	0.00e+00	0	33	0	469762048	49	4227
2026-01-16 03:33:45.35	26.10	10.11	-41.6	-43.0	16.0	0.00e+00	0	33	0	476053504	49	4205
2026-01-16 03:33:46.36	26.07	10.19	-41.5	-42.9	16.0	0.00e+00	0	33	0	481296384	49	4175
2026-01-16 03:33:47.37	26.04	10.28	-41.3	-42.6	16.1	0.00e+00	0	33	0	487587840	49	4036
2026-01-16 03:33:48.37	26.01	10.37	-41.3	-42.7	16.0	0.00e+00	0	33	0	492830720	49	4075
2026-01-16 03:33:49.38	25.98	10.46	-41.3	-42.7	16.1	0.00e+00	0	33	0	498073600	49	4066
2026-01-16 03:33:50.39	25.95	10.54	-41.1	-42.5	16.1	0.00e+00	0	33	0	504365056	48	4210
2026-01-16 03:33:51.40	25.92	10.63	-41.2	-42.6	16.1	0.00e+00	0	33	0	509607936	48	4254
2026-01-16 03:33:52.41	25.89	10.72	-41.0	-42.3	16.2	0.00e+00	0	33	0	515899392	48	4116
2026-01-16 03:33:53.42	25.86	10.81	-41.2	-42.5	16.1	0.00e+00	0	33	0	521142272	48	4232
2026-01-16 03:33:54.43	25.83	10.90	-41.2	-42.6	16.1	0.00e+00	0	33	0	526385152	48	4243
2026-01-16 03:33:55.44	25.79	10.99	-41.1	-42.4	16.1	0.00e+00	0	33	0	532676608	48	4182
2026-01-16 03:33:56.45	25.76	11.08	-41.1	-42.4	16.1	0.00e+00	0	33	0	537919488	48	4182
2026-01-16 03:33:57.46	25.73	11.17	-41.0	-42.3	16.2	0.00e+00	0	33	0	544210944	48	4121
2026-01-16 03:33:58.47	25.70	11.26	-41.0	-42.3	16.3	0.00e+00	0	33	0	549453824	48	4118
2026-01-16 03:33:59.48	25.67	11.35	-41.0	-42.3	16.3	0.00e+00	0	33	0	555745280	48	4118
2026-01-16 03:34:00.49	25.63	11.44	-40.8	-42.1	16.3	0.00e+00	0	33	0	560988160	48	4043
2026-01-16 03:34:01.50	25.60	11.53	-41.0	-42.3	16.2	0.00e+00	0	33	0	567279616	48	4107
2026-01-16 03:34:02.51	25.57	11.63	-40.9	-42.2	16.3	0.00e+00	0	33	0	572522496	48	4054
2026-01-16 03:34:03.52	25.53	11.72	-40.9	-42.2	16.3	0.00e+00	0	33	0	577765376	48	4077
2026-01-16 03:34:04.52	25.50	11.81	-40.8	-42.1	16.3	0.00e+00	0	33	0	584056832	48	4038
2026-01-16 03:34:05.53	25.47	11.90	-40.8	-42.1	16.3	0.00e+00	0	33	0	589299712	48	4028
2026-01-16 03:34:06.55	25.43	12.00	-40.8	-42.1	16.3	0.00e+00	0	33	0	595591168	48	4029
2026-01-16 03:34:07.55	25.40	12.09	-40.7	-42.0	16.4	0.00e+00	0	33	0	600834048	48	3991
2026-01-16 03:34:08.56	25.37	12.18	-40.5	-41.8	16.3	0.00e+00	0	33	0	606076928	47	4100
2026-01-16 03:34:09.57	25.33	12.28	-40.5	-41.8	16.3	0.00e+00	0	33	0	612368384	47	4103
2026-01-16 03:34:10.58	25.30	12.37	-40.4	-41.7	16.4	0.00e+00	0	33	0	617611264	47	4066
2026-01-16 03:34:11.59	25.26	12.47	-40.4	-41.7	16.4	0.00e+00	0	33	0	623902720	47	4074
2026-01-16 03:34:12.60	25.23	12.56	-40.4	-41.7	16.4	0.00e+00	0	33	0	629145600	47	4075
2026-01-16 03:34:13.61	25.19	12.66	-40.4	-41.7	16.4	0.00e+00	0	33	0	634388480	47	4077
2026-01-16 03:34:14.62	25.15	12.75	-40.4	-41.8	16.3	0.00e+00	0	33	0	640679936	47	4103
2026-01-16 03:34:15.63	25.12	12.85	-40.5	-41.8	16.3	0.00e+00	0	33	0	645922816	47	4136
2026-01-16 03:34:16.64	25.08	12.95	-40.4	-41.7	16.3	0.00e+00	0	33	0	652214272	47	4091
2026-01-16 03:34:17.65	25.04	13.04	-40.4	-41.8	16.3	0.00e+00	0	33	0	657457152	47	4102
2026-01-16 03:34:18.66	25.01	13.14	-40.4	-41.9	16.3	0.00e+00	0	33	0	663748608	47	4149
2026-01-16 03:34:19.67	24.97	13.24	-40.4	-41.8	16.3	0.00e+00	0	33	0	668991488	47	4108
2026-01-16 03:34:20.68	24.93	13.34	-40.3	-41.7	16.3	0.00e+00	0	33	0	674234368	47	4076
2026-01-16 03:34:21.69	24.90	13.44	-40.5	-41.9	16.2	0.00e+00	0	33	0	680525824	47	4190
2026-01-16 03:34:22.70	24.86	13.54	-40.4	-41.8	16.3	0.00e+00	0	33	0	685768704	47	4140
2026-01-16 03:34:23.71	24.82	13.64	-40.4	-41.8	16.4	0.00e+00	0	33	0	692060160	47	4123
2026-01-16 03:34:24.72	24.78	13.74	-40.4	-41.8	16.4	0.00e+00	0	33	0	697303040	47	4104
2026-01-16 03:34:25.72	24.74	13.84	-40.4	-41.7	16.4	0.00e+00	0	33	0	702545920	47	4093
2026-01-16 03:34:26.73	24.70	13.94	-40.5	-41.8	16.4	0.00e+00	0	33	0	708837376	47	4118
2026-01-16 03:34:27.74	24.66	14.04	-40.6	-41.9	16.3	0.00e+00	0	33	0	714080256	47	4170
2026-01-16 03:34:28.75	24.62	14.14	-40.4	-41.7	16.4	0.00e+00	0	33	0	720371712	47	4078
2026-01-16 03:34:29.76	24.58	14.24	-40.4	-41.7	16.4	0.00e+00	0	33	0	725614592	47	4065
2026-01-16 03:34:30.77	24.54	14.34	-40.5	-41.8	16.4	0.00e+00	0	33	0	730857472	47	4118
2026-01-16 03:34:31.78	24.50	14.45	-40.4	-41.7	16.4	0.00e+00	0	33	0	737148928	47	4092
2026-01-16 03:34:32.79	24.46	14.55	-40.3	-41.6	16.4	0.00e+00	0	33	0	742391808	47	4034
2026-01-16 03:34:33.80	24.42	14.65	-40.2	-41.5	16.4	0.00e+00	0	33	0	748683264	47	3970
2026-01-16 03:34:34.81	24.38	14.76	-40.2	-41.4	16.5	0.00e+00	0	33	0	753926144	46	4187
2026-01-16 03:34:35.82	24.34	14.86	-40.2	-41.5	16.5	0.00e+00	0	33	0	760217600	46	4197
2026-01-16 03:34:36.83	24.29	14.97	-40.0	-41.3	16.5	0.00e+00	0	33	0	765460480	46	4107
2026-01-16 03:34:37.84	24.25	15.07	-40.1	-41.4	16.5	0.00e+00	0	33	0	770703360	46	4164
2026-01-16 03:34:38.84	24.21	15.18	-40.2	-41.5	16.5	0.00e+00	0	33	0	776994816	46	4196
2026-01-16 03:34:39.85	24.17	15.28	-40.0	-41.3	16.5	0.00e+00	0	33	0	782237696	46	4100
2026-01-16 03:34:40.86	24.12	15.39	-40.0	-41.2	16.6	0.00e+00	0	33	0	788529152	46	4072
2026-01-16 03:34:41.87	24.08	15.50	-39.9	-41.1	16.6	0.00e+00	0	33	0	793772032	46	4034
2026-01-16 03:34:42.88	24.03	15.60	-40.0	-41.2	16.5	0.00e+00	0	33	0	799014912	46	4075
2026-01-16 03:34:43.89	23.99	15.71	-39.9	-41.2	16.6	0.00e+00	0	33	0	805306368	46	4063
2026-01-16 03:34:44.90	23.94	15.82	-39.8	-41.0	16.6	0.00e+00	0	33	0	810549248	46	3975
2026-01-16 03:34:45.91	23.90	15.93	-39.9	-41.1	16.6	0.00e+00	0	33	0	816840704	46	4019
2026-01-16 03:34:46.92	23.85	16.04	-39.9	-41.2	16.5	0.00e+00	0	33	0	822083584	46	4056
2026-01-16 03:34:47.93	23.81	16.15	-39.8	-41.0	16.6	0.00e+00	0	33	0	827326464	46	3979
2026-01-16 03:34:48.94	23.76	16.26	-39.7	-40.9	16.7	0.00e+00	0	33	0	833617920	46	3930
2026-01-16 03:34:49.95	23.71	16.37	-39.7	-40.9	16.6	0.00e+00	0	33	0	838860800	45	4171
2026-01-16 03:34:50.96	23.67	16.48	-39.6	-40.8	16.6	0.00e+00	0	33	0	845152256	45	4144
2026-01-16 03:34:51.97	23.62	16.59	-39.5	-40.7	16.7	0.00e+00	0	33	0	850395136	45	4085
2026-01-16 03:34:52.98	23.57	16.71	-39.5	-40.7	16.7	0.00e+00	0	33	0	856686592	45	4078
2026-01-16 03:34:53.99	23.52	16.82	-39.6	-40.8	16.7	0.00e+00	0	33	0	861929472	45	4102
2026-01-16 03:34:55.00	23.47	16.93	-39.5	-40.7	16.7	0.00e+00	0	33	0	868220928	45	4064
2026-01-16 03:34:56.01	23.42	17.05	-39.4	-40.5	16.8	0.00e+00	0	33	0	873463808	45	4000
2026-01-16 03:34:57.02	23.37	17.16	-39.2	-40.4	16.8	0.00e+00	0	33	0	878706688	45	3923
2026-01-16 03:34:58.03	23.32	17.27	-39.3	-40.4	16.8	0.00e+00	0	33	0	884998144	45	3946
2026-01-16 03:34:59.03	23.27	17.39	-39.2	-40.4	16.9	0.00e+00	0	33	0	890241024	45	3918
2026-01-16 03:35:00.04	23.22	17.50	-39.2	-40.3	16.8	0.00e+00	0	33	0	896532480	44	4139
2026-01-16 03:35:01.05	23.17	17.62	-39.0	-40.2	16.9	0.00e+00	0	33	0	901775360	44	4070
2026-01-16 03:35:02.06	23.12	17.74	-39.1	-40.2	16.8	0.00e+00	0	33	0	907018240	44	4096
2026-01-16 03:35:03.07	23.07	17.86	-39.2	-40.3	16.8	0.00e+00	0	33	0	913309696	44	4145
2026-01-16 03:35:04.08	23.02	17.97	-39.1	-40.3	16.8	0.00e+00	0	33	0	918552576	44	4129
2026-01-16 03:35:05.09	22.96	18.09	-39.0	-40.2	16.8	0.00e+00	0	33	0	924844032	44	4071
2026-01-16 03:35:06.10	22.91	18.21	-39.0	-40.1	16.8	0.00e+00	0	33	0	930086912	44	4032
2026-01-16 03:35:07.11	22.86	18.33	-39.0	-40.1	16.9	0.00e+00	0	33	0	935329792	44	4037
2026-01-16 03:35:08.12	22.80	18.45	-38.9	-40.1	16.9	0.00e+00	0	33	0	941621248	44	4005
2026-01-16 03:35:09.13	22.75	18.57	-39.0	-40.2	16.8	0.00e+00	0	33	0	946864128	44	4058
2026-01-16 03:35:10.14	22.69	18.69	-39.0	-40.2	16.8	0.00e+00	0	33	0	953155584	44	4053
2026-01-16 03:35:11.15	22.64	18.82	-38.9	-40.0	16.9	0.00e+00	0	33	0	958398464	44	3980
2026-01-16 03:35:12.16	22.58	18.94	-38.9	-40.1	16.9	0.00e+00	0	33	0	964689920	44	4017
2026-01-16 03:35:13.17	22.52	19.06	-38.9	-40.1	16.9	0.00e+00	0	33	0	969932800	44	4011
2026-01-16 03:35:14.17	22.47	19.18	-39.0	-40.2	16.8	0.00e+00	0	33	0	975175680	44	4060
2026-01-16 03:35:15.18	22.41	19.31	-38.9	-40.0	16.9	0.00e+00	0	33	0	981467136	44	3983
2026-01-16 03:35:16.19	22.35	19.43	-38.8	-39.9	16.9	0.00e+00	0	33	0	986710016	44	3949
2026-01-16 03:35:17.20	22.29	19.56	-38.6	-39.7	16.9	0.00e+00	0	33	0	993001472	43	4065
2026-01-16 03:35:18.21	22.23	19.68	-38.5	-39.6	17.0	0.00e+00	0	33	0	998244352	43	4045
2026-01-16 03:35:19.22	22.17	19.81	-38.6	-39.7	16.9	0.00e+00	0	33	0	1003487232	43	4072
2026-01-16 03:35:20.23	22.11	19.94	-38.5	-39.6	16.9	0.00e+00	0	33	0	1009778688	43	4045
2026-01-16 03:35:21.24	22.05	20.07	-38.6	-39.7	16.9	0.00e+00	0	33	0	1015021568	43	4083
2026-01-16 03:35:22.25	21.99	20.19	-38.5	-39.7	16.9	0.00e+00	0	33	0	1021313024	43	4057
2026-01-16 03:35:23.26	21.93	20.32	-38.5	-39.6	17.0	0.00e+00	0	33	0	1026555904	43	4026
2026-01-16 03:35:24.27	21.86	20.45	-38.6	-39.7	16.9	0.00e+00	0	33	0	1031798784	43	4088
2026-01-16 03:35:25.28	21.80	20.58	-38.6	-39.8	16.9	0.00e+00	0	33	0	1038090240	43	4107
2026-01-16 03:35:26.29	21.74	20.71	-38.5	-39.6	17.0	0.00e+00	0	33	0	1043333120	43	4048
2026-01-16 03:35:27.30	21.67	20.85	-38.5	-39.6	17.0	0.00e+00	0	33	0	1049624576	43	4029
2026-01-16 03:35:28.31	21.61	20.98	-38.5	-39.7	17.0	0.00e+00	0	33	0	1054867456	43	4055
2026-01-16 03:35:29.32	21.54	21.11	-38.5	-39.6	17.0	0.00e+00	0	33	0	1061158912	43	4035
2026-01-16 03:35:30.33	21.48	21.24	-38.5	-39.6	17.0	0.00e+00	0	33	0	1066401792	43	4044
2026-01-16 03:35:31.34	21.41	21.38	-38.5	-39.6	17.0	0.00e+00	0	33	0	1071644672	43	4048
2026-01-16 03:35:32.35	21.34	21.51	-38.5	-39.7	17.0	0.00e+00	0	33	0	1077936128	43	4057
2026-01-16 03:35:33.36	21.28	21.65	-38.5	-39.6	17.0	0.00e+00	0	33	0	1083179008	43	4044
2026-01-16 03:35:34.36	21.21	21.78	-38.5	-39.6	16.9	0.00e+00	0	33	0	1089470464	43	4028
2026-01-16 03:35:35.37	21.14	21.92	-38.5	-39.7	17.0	0.00e+00	0	33	0	1094713344	43	4065
2026-01-16 03:35:36.38	21.07	22.06	-38.4	-39.5	17.0	0.00e+00	0	33	0	1099956224	43	3980
2026-01-16 03:35:37.39	21.00	22.20	-38.3	-39.4	17.1	0.00e+00	0	33	0	1106247680	43	3952
2026-01-16 03:35:38.40	20.93	22.34	-38.3	-39.4	17.1	0.00e+00	0	33	0	1111490560	43	3938
2026-01-16 03:35:39.41	20.86	22.48	-38.2	-39.3	17.1	0.00e+00	0	33	0	1117782016	42	4117
2026-01-16 03:35:40.42	20.78	22.62	-38.2	-39.3	17.0	0.00e+00	0	33	0	1123024896	42	4127
2026-01-16 03:35:41.43	20.71	22.76	-38.0	-39.1	17.1	0.00e+00	0	33	0	1128267776	42	4033
2026-01-16 03:35:42.44	20.64	22.90	-38.1	-39.2	17.1	0.00e+00	0	33	0	1134559232	42	4085
2026-01-16 03:35:43.45	20.56	23.04	-38.0	-39.0	17.1	0.00e+00	0	33	0	1139802112	42	4000
2026-01-16 03:35:44.46	20.49	23.19	-37.8	-38.9	17.2	0.00e+00	0	33	0	1146093568	42	3941
2026-01-16 03:35:45.47	20.41	23.33	-37.9	-39.0	17.1	0.00e+00	0	33	0	1151336448	42	3960
2026-01-16 03:35:46.48	20.33	23.48	-37.8	-38.9	17.2	0.00e+00	0	33	0	1157627904	42	3940
2026-01-16 03:35:47.49	20.26	23.62	-37.8	-38.9	17.2	0.00e+00	0	33	0	1162870784	42	3927
2026-01-16 03:35:48.50	20.18	23.77	-37.8	-38.9	17.1	0.00e+00	0	33	0	1169162240	42	3938
2026-01-16 03:35:49.51	20.10	23.92	-38.0	-39.0	17.1	0.00e+00	0	33	0	1174405120	42	4002
2026-01-16 03:35:50.52	20.02	24.06	-38.0	-39.1	17.1	0.00e+00	0	33	0	1179648000	42	4046
2026-01-16 03:35:51.53	19.94	24.21	-38.1	-39.2	17.1	0.00e+00	0	33	0	1185939456	42	4061
2026-01-16 03:35:52.54	19.86	24.36	-38.0	-39.1	17.1	0.00e+00	0	33	0	1191182336	42	4022
2026-01-16 03:35:53.55	19.78	24.51	-38.0	-39.1	17.1	0.00e+00	0	33	0	1197473792	42	4022
2026-01-16 03:35:54.56	19.69	24.66	-37.9	-39.0	17.2	0.00e+00	0	33	0	1202716672	42	3973
2026-01-16 03:35:55.57	19.61	24.82	-37.9	-39.0	17.2	0.00e+00	0	33	0	1207959552	42	3988
2026-01-16 03:35:56.58	19.52	24.97	-37.8	-38.9	17.2	0.00e+00	0	33	0	1214251008	42	3922
2026-01-16 03:35:57.59	19.44	25.12	-37.8	-38.9	17.2	0.00e+00	0	33	0	1219493888	42	3916
2026-01-16 03:35:58.60	19.35	25.28	-37.8	-38.9	17.2	0.00e+00	0	33	0	1225785344	42	3939
2026-01-16 03:35:59.61	19.26	25.43	-37.7	-38.8	17.2	0.00e+00	0	33	0	1231028224	42	3891
2026-01-16 03:36:00.62	19.18	25.59	-37.7	-38.8	17.2	0.00e+00	0	33	0	1236271104	41	4110
2026-01-16 03:36:01.63	19.09	25.75	-37.7	-38.7	17.2	0.00e+00	0	33	0	1242562560	41	4088
2026-01-16 03:36:02.64	19.00	25.90	-37.7	-38.8	17.2	0.00e+00	0	33	0	1247805440	41	4109
2026-01-16 03:36:03.65	18.91	26.06	-37.6	-38.7	17.2	0.00e+00	0	33	0	1254096896	41	4086
2026-01-16 03:36:04.66	18.81	26.22	-37.6	-38.7	17.2	0.00e+00	0	33	0	1259339776	41	4072
2026-01-16 03:36:05.66	18.72	26.38	-37.6	-38.7	17.2	0.00e+00	0	33	0	1265631232	41	4054
2026-01-16 03:36:06.68	18.63	26.54	-37.6	-38.7	17.2	0.00e+00	0	33	0	1270874112	41	4060
2026-01-16 03:36:07.68	18.53	26.70	-37.6	-38.7	17.2	0.00e+00	0	33	0	1276116992	41	4062
2026-01-16 03:36:08.69	18.44	26.87	-37.7	-38.8	17.2	0.00e+00	0	33	0	1282408448	41	4126
2026-01-16 03:36:09.70	18.34	27.03	-37.7	-38.8	17.2	0.00e+00	0	33	0	1287651328	41	4117
2026-01-16 03:36:10.71	18.24	27.20	-37.9	-39.0	17.1	0.00e+00	0	33	0	1293942784	41	4220
2026-01-16 03:36:11.72	18.14	27.36	-37.9	-39.0	17.1	0.00e+00	0	33	0	1299185664	41	4206
2026-01-16 03:36:12.73	18.04	27.53	-37.9	-39.0	17.1	0.00e+00	0	33	0	1304428544	41	4216
2026-01-16 03:36:13.74	17.94	27.70	-37.9	-39.0	17.2	0.00e+00	0	33	0	1310720000	41	4198
2026-01-16 03:36:14.75	17.84	27.86	-37.9	-39.0	17.2	0.00e+00	0	33	0	1315962880	41	4205
2026-01-16 03:36:15.76	17.74	28.03	-37.7	-38.8	17.2	0.00e+00	0	33	0	1322254336	41	4130
2026-01-16 03:36:16.77	17.63	28.20	-37.7	-38.7	17.2	0.00e+00	0	33	0	1327497216	41	4097
2026-01-16 03:36:17.78	17.52	28.38	-37.7	-38.8	17.1	0.00e+00	0	33	0	1332740096	41	4115
2026-01-16 03:36:18.79	17.42	28.55	-37.6	-38.7	17.2	0.00e+00	0	33	0	1339031552	41	4065
2026-01-16 03:36:19.80	17.31	28.72	-37.5	-38.6	17.2	0.00e+00	0	33	0	1344274432	41	4028
2026-01-16 03:36:20.81	17.20	28.90	-37.5	-38.6	17.2	0.00e+00	0	33	0	1350565888	41	4017
2026-01-16 03:36:21.82	17.09	29.07	-37.5	-38.6	17.2	0.00e+00	0	33	0	1355808768	41	4009
2026-01-16 03:36:22.83	16.98	29.25	-37.5	-38.6	17.3	0.00e+00	0	33	0	1362100224	41	4022
2026-01-16 03:36:23.84	16.86	29.42	-37.5	-38.6	17.2	0.00e+00	0	33	0	1367343104	41	4036
2026-01-16 03:36:24.85	16.75	29.60	-37.6	-38.7	17.2	0.00e+00	0	33	0	1373634560	41	4057
2026-01-16 03:36:25.85	16.63	29.78	-37.6	-38.7	17.2	0.00e+00	0	33	0	1378877440	41	4076
2026-01-16 03:36:26.86	16.52	29.96	-37.6	-38.6	17.2	0.00e+00	0	33	0	1384120320	41	4041
2026-01-16 03:36:27.87	16.40	30.14	-37.6	-38.6	17.2	0.00e+00	0	33	0	1390411776	41	4051
2026-01-16 03:36:28.88	16.28	30.32	-37.5	-38.5	17.3	0.00e+00	0	33	0	1395654656	41	3996
2026-01-16 03:36:29.89	16.16	30.51	-37.5	-38.6	17.3	0.00e+00	0	33	0	1401946112	41	4014
2026-01-16 03:36:30.90	16.04	30.69	-37.5	-38.6	17.3	0.00e+00	0	33	0	1407188992	41	4039
2026-01-16 03:36:31.91	15.91	30.87	-37.4	-38.5	17.3	0.00e+00	0	33	0	1412431872	41	3963
2026-01-16 03:36:32.92	15.79	31.06	-37.5	-38.6	17.3	0.00e+00	0	33	0	1418723328	41	4005
2026-01-16 03:36:33.93	15.66	31.25	-37.3	-38.3	17.4	0.00e+00	0	33	0	1423966208	41	3894
2026-01-16 03:36:34.94	15.53	31.44	-37.1	-38.2	17.3	0.00e+00	0	33	0	1430257664	40	4060
2026-01-16 03:36:35.95	15.40	31.63	-37.1	-38.1	17.3	0.00e+00	0	33	0	1435500544	40	4036
2026-01-16 03:36:36.96	15.27	31.82	-37.1	-38.1	17.3	0.00e+00	0	33	0	1440743424	40	4035
2026-01-16 03:36:37.97	15.13	32.01	-37.1	-38.2	17.3	0.00e+00	0	33	0	1447034880	40	4066
2026-01-16 03:36:38.98	15.00	32.20	-37.3	-38.3	17.3	0.00e+00	0	33	0	1452277760	40	4130
2026-01-16 03:36:39.99	14.86	32.39	-37.2	-38.3	17.3	0.00e+00	0	33	0	1458569216	40	4115
2026-01-16 03:36:41.00	14.72	32.59	-37.2	-38.3	17.3	0.00e+00	0	33	0	1463812096	40	4132
2026-01-16 03:36:42.00	14.59	32.78	-37.2	-38.3	17.3	0.00e+00	0	33	0	1470103552	40	4099
2026-01-16 03:36:43.01	14.44	32.98	-37.2	-38.2	17.3	0.00e+00	0	33	0	1475346432	40	4096
2026-01-16 03:36:44.02	14.30	33.18	-37.2	-38.2	17.3	0.00e+00	0	33	0	1480589312	40	4085
2026-01-16 03:36:45.03	14.15	33.38	-37.0	-38.1	17.3	0.00e+00	0	33	0	1486880768	40	4024
2026-01-16 03:36:46.04	14.01	33.58	-37.1	-38.1	17.3	0.00e+00	0	33	0	1492123648	40	4038
2026-01-16 03:36:47.05	13.86	33.78	-37.1	-38.2	17.3	0.00e+00	0	33	0	1498415104	40	4057
2026-01-16 03:36:48.06	13.71	33.98	-37.2	-38.2	17.3	0.00e+00	0	33	0	1503657984	40	4088
2026-01-16 03:36:49.07	13.55	34.18	-37.3	-38.4	17.3	0.00e+00	0	33	0	1508900864	40	4151
2026-01-16 03:36:50.08	13.40	34.39	-37.3	-38.3	17.3	0.00e+00	0	33	0	1515192320	40	4129
2026-01-16 03:36:51.09	13.24	34.59	-37.1	-38.2	17.3	0.00e+00	0	33	0	1520435200	40	4076
2026-01-16 03:36:52.10	13.08	34.80	-37.2	-38.2	17.3	0.00e+00	0	33	0	1526726656	40	4092
2026-01-16 03:36:53.11	12.92	35.01	-37.3	-38.4	17.3	0.00e+00	0	33	0	1531969536	40	4147
2026-01-16 03:36:54.12	12.76	35.22	-37.4	-38.5	17.3	0.00e+00	0	33	0	1537212416	40	4197
2026-01-16 03:36:55.13	12.59	35.42	-37.3	-38.4	17.3	0.00e+00	0	33	0	1543503872	40	4166
2026-01-16 03:36:56.14	12.43	35.64	-37.3	-38.4	17.3	0.00e+00	0	33	0	1548746752	40	4149
2026-01-16 03:36:57.15	12.26	35.85	-37.3	-38.4	17.3	0.00e+00	0	33	0	1555038208	40	4156
2026-01-16 03:36:58.16	12.08	36.06	-37.3	-38.3	17.3	0.00e+00	0	33	0	1560281088	40	4137
2026-01-16 03:36:59.17	11.91	36.28	-37.1	-38.2	17.4	0.00e+00	0	33	0	1566572544	40	4059
2026-01-16 03:37:00.17	11.73	36.49	-37.1	-38.1	17.3	0.00e+00	0	33	0	1571815424	40	4031
2026-01-16 03:37:01.18	11.56	36.71	-37.1	-38.2	17.3	0.00e+00	0	33	0	1577058304	40	4068
2026-01-16 03:37:02.19	11.37	36.92	-37.1	-38.2	17.3	0.00e+00	0	33	0	1583349760	40	4074
2026-01-16 03:37:03.20	11.19	37.14	-37.1	-38.1	17.4	0.00e+00	0	33	0	1588592640	40	4044
2026-01-16 03:37:04.21	11.00	37.36	-37.0	-38.1	17.4	0.00e+00	0	33	0	1594884096	40	4011
2026-01-16 03:37:05.22	10.81	37.58	-37.1	-38.1	17.3	0.00e+00	0	33	0	1600126976	40	4046
2026-01-16 03:37:06.23	10.62	37.81	-37.1	-38.1	17.4	0.00e+00	0	33	0	1605369856	40	4037
2026-01-16 03:37:07.24	10.43	38.03	-37.2	-38.2	17.3	0.00e+00	0	33	0	1611661312	40	4089
2026-01-16 03:37:08.25	10.23	38.25	-37.3	-38.3	17.3	0.00e+00	0	33	0	1616904192	40	4130
2026-01-16 03:37:09.26	10.03	38.48	-37.3	-38.3	17.3	0.00e+00	0	33	0	1623195648	40	4129
2026-01-16 03:37:10.27	9.83	38.71	-37.3	-38.3	17.3	0.00e+00	0	33	0	1628438528	40	4128
2026-01-16 03:37:11.28	9.62	38.93	-37.3	-38.4	17.3	0.00e+00	0	33	0	1633681408	40	4149
2026-01-16 03:37:12.29	9.41	39.16	-37.3	-38.3	17.3	0.00e+00	0	33	0	1639972864	40	4131
2026-01-16 03:37:13.30	9.20	39.39	-37.3	-38.4	17.3	0.00e+00	0	33	0	1645215744	40	4148
2026-01-16 03:37:14.31	8.99	39.62	-37.4	-38.5	17.3	0.00e+00	0	33	0	1651507200	40	4225
2026-01-16 03:37:15.32	8.77	39.85	-37.5	-38.5	17.3	0.00e+00	0	33	0	1656750080	40	4230
2026-01-16 03:37:16.33	8.55	40.09	-37.3	-38.4	17.3	0.00e+00	0	33	0	1663041536	40	4178
2026-01-16 03:37:17.34	8.32	40.32	-37.3	-38.4	17.3	0.00e+00	0	33	0	1668284416	40	4158
2026-01-16 03:37:18.35	8.09	40.56	-37.4	-38.4	17.3	0.00e+00	0	33	0	1674575872	40	4183
2026-01-16 03:37:19.35	7.87	40.79	-37.5	-38.6	17.3	0.00e+00	0	33	0	1679818752	40	4257
2026-01-16 03:37:20.36	7.63	41.03	-37.6	-38.6	17.2	0.00e+00	0	33	0	1685061632	40	4284
2026-01-16 03:37:21.37	7.39	41.27	-37.6	-38.7	17.2	0.00e+00	0	33	0	1691353088	40	4316
2026-01-16 03:37:22.38	7.15	41.51	-37.6	-38.6	17.2	0.00e+00	0	33	0	1696595968	40	4279
2026-01-16 03:37:23.39	6.91	41.75	-37.6	-38.7	17.2	0.00e+00	0	33	0	1702887424	40	4324
2026-01-16 03:37:24.40	6.66	41.99	-37.8	-38.9	17.2	0.00e+00	0	33	0	1708130304	40	4410
2026-01-16 03:37:25.41	6.40	42.23	-37.6	-38.6	17.2	0.00e+00	0	33	0	1713373184	40	4289
2026-01-16 03:37:26.42	6.15	42.47	-37.6	-38.7	17.2	0.00e+00	0	33	0	1719664640	40	4307
2026-01-16 03:37:27.43	5.89	42.72	-37.7	-38.7	17.2	0.00e+00	0	34	0	1724907520	40	4334
2026-01-16 03:37:28.44	5.62	42.96	-37.6	-38.7	17.2	0.00e+00	0	33	0	1731198976	40	4316
2026-01-16 03:37:29.45	5.35	43.21	-37.6	-38.7	17.2	0.00e+00	0	33	0	1736441856	40	4292
2026-01-16 03:37:30.46	5.08	43.45	-37.5	-38.6	17.2	0.00e+00	0	33	0	1741684736	40	4270
2026-01-16 03:37:31.47	4.80	43.70	-37.7	-38.8	17.2	0.00e+00	0	33	0	1747976192	40	4343
2026-01-16 03:37:32.48	4.52	43.95	-37.6	-38.7	17.2	0.00e+00	0	33	0	1753219072	40	4320
2026-01-16 03:37:33.49	4.23	44.20	-37.8	-38.9	17.2	0.00e+00	0	33	0	1759510528	40	4395
2026-01-16 03:37:34.50	3.94	44.45	-37.9	-39.0	17.2	0.00e+00	0	33	0	1764753408	41	4221
2026-01-16 03:37:35.51	3.65	44.70	-38.0	-39.1	17.2	0.00e+00	0	33	0	1771044864	41	4260
2026-01-16 03:37:36.52	3.35	44.95	-38.1	-39.2	17.2	0.00e+00	0	33	0	1776287744	41	4306
2026-01-16 03:37:37.53	3.04	45.20	-38.0	-39.1	17.2	0.00e+00	0	33	0	1781530624	41	4249
2026-01-16 03:37:38.54	2.73	45.46	-37.9	-39.0	17.2	0.00e+00	0	33	0	1787822080	41	4196
2026-01-16 03:37:39.54	2.42	45.71	-37.8	-38.9	17.2	0.00e+00	0	33	0	1793064960	41	4170
2026-01-16 03:37:40.56	2.09	45.96	-37.7	-38.8	17.3	0.00e+00	0	33	0	1799356416	41	4122
2026-01-16 03:37:41.57	1.77	46.22	-37.6	-38.7	17.3	0.00e+00	0	33	0	1804599296	41	4074
2026-01-16 03:37:42.57	1.44	46.47	-38.0	-39.1	17.2	0.00e+00	0	33	0	1809842176	41	4243
2026-01-16 03:37:43.58	1.10	46.73	-38.2	-39.3	17.1	0.00e+00	0	33	0	1816133632	41	4381
2026-01-16 03:37:44.60	0.76	46.98	-38.2	-39.3	17.1	0.00e+00	0	33	0	1821376512	41	4360
2026-01-16 03:37:45.60	0.41	47.24	-38.2	-39.3	17.1	0.00e+00	0	33	0	1827667968	41	4352
2026-01-16 03:37:46.61	0.06	47.49	-38.2	-39.3	17.1	0.00e+00	0	33	0	1832910848	41	4373
2026-01-16 03:37:47.62	359.70	47.75	-38.3	-39.4	17.1	0.00e+00	0	33	0	1838153728	41	4409
2026-01-16 03:37:48.63	359.34	48.01	-38.3	-39.4	17.1	0.00e+00	0	33	0	1844445184	41	4417
2026-01-16 03:37:49.64	358.96	48.27	-38.3	-39.4	17.1	0.00e+00	0	33	0	1849688064	41	4409
2026-01-16 03:37:50.65	358.58	48.53	-38.2	-39.2	17.1	0.00e+00	0	33	0	1855979520	41	4337
2026-01-16 03:37:51.66	358.20	48.78	-38.2	-39.3	17.2	0.00e+00	0	33	0	1861222400	41	4350
2026-01-16 03:37:52.67	357.81	49.04	-38.2	-39.2	17.1	0.00e+00	0	33	0	1867513856	41	4340
2026-01-16 03:37:53.68	357.41	49.30	-38.2	-39.3	17.1	0.00e+00	0	33	0	1872756736	41	4378
2026-01-16 03:37:54.69	357.01	49.56	-38.4	-39.5	17.1	0.00e+00	0	33	0	1877999616	41	4459
2026-01-16 03:37:55.70	356.59	49.82	-38.6	-39.7	17.1	0.00e+00	0	33	0	1884291072	42	4314
2026-01-16 03:37:56.71	356.18	50.07	-38.7	-39.9	17.1	0.00e+00	0	33	0	1889533952	42	4413
2026-01-16 03:37:57.72	355.75	50.33	-38.7	-39.9	17.0	0.00e+00	0	33	0	1895825408	42	4404
2026-01-16 03:37:58.73	355.32	50.59	-38.5	-39.6	17.1	0.00e+00	0	33	0	1901068288	42	4287
2026-01-16 03:37:59.74	354.88	50.85	-38.3	-39.4	17.2	0.00e+00	0	33	0	1906311168	42	4183
2026-01-16 03:38:00.75	354.43	51.10	-38.4	-39.5	17.2	0.00e+00	0	33	0	1912602624	42	4211
2026-01-16 03:38:01.76	353.97	51.36	-38.6	-39.7	17.1	0.00e+00	0	33	0	1917845504	42	4308
2026-01-16 03:38:02.76	353.51	51.61	-38.7	-39.8	17.1	0.00e+00	0	33	0	1924136960	42	4380
2026-01-16 03:38:03.77	353.04	51.87	-38.8	-39.9	17.1	0.00e+00	0	33	0	1929379840	42	4432
2026-01-16 03:38:04.78	352.56	52.12	-38.7	-39.8	17.1	0.00e+00	0	33	0	1934622720	42	4379
2026-01-16 03:38:05.79	352.07	52.37	-38.6	-39.7	17.1	0.00e+00	0	33	0	1940914176	42	4321
2026-01-16 03:38:06.80	351.57	52.63	-38.7	-39.8	17.1	0.00e+00	0	33	0	1946157056	42	4381
2026-01-16 03:38:07.81	351.06	52.88	-38.8	-39.9	17.1	0.00e+00	0	33	0	1952448512	42	4437
2026-01-16 03:38:08.82	350.55	53.13	-38.9	-40.0	17.0	0.00e+00	0	33	0	1957691392	42	4480
2026-01-16 03:38:09.83	350.03	53.38	-38.8	-39.9	17.1	0.00e+00	0	33	0	1963982848	43	4154
2026-01-16 03:38:10.84	349.49	53.63	-38.6	-39.7	17.2	0.00e+00	0	33	0	1969225728	43	4069
2026-01-16 03:38:11.85	348.95	53.87	-38.6	-39.7	17.1	0.00e+00	0	33	0	1975517184	43	4070
2026-01-16 03:38:12.86	348.40	54.12	-38.7	-39.8	17.1	0.00e+00	0	33	0	1980760064	43	4142
2026-01-16 03:38:13.87	347.84	54.36	-38.8	-40.0	17.1	0.00e+00	0	33	0	1986002944	43	4205
2026-01-16 03:38:14.88	347.27	54.60	-38.7	-39.8	17.1	0.00e+00	0	33	0	1992294400	43	4141
2026-01-16 03:38:15.89	346.69	54.84	-38.6	-39.7	17.2	0.00e+00	0	33	0	1997537280	43	4076
2026-01-16 03:38:16.90	346.10	55.08	-38.6	-39.6	17.2	0.00e+00	0	33	0	2003828736	43	4050
2026-01-16 03:38:17.91	345.49	55.32	-38.5	-39.6	17.2	0.00e+00	0	33	0	2009071616	43	4006
2026-01-16 03:38:18.92	344.88	55.55	-38.7	-39.8	17.1	0.00e+00	0	33	0	2014314496	43	4139
2026-01-16 03:38:19.93	344.26	55.78	-38.6	-39.8	17.2	0.00e+00	0	33	0	2020605952	43	4104
2026-01-16 03:38:20.93	343.64	56.01	-38.6	-39.8	17.2	0.00e+00	0	33	0	2025848832	43	4102
2026-01-16 03:38:21.95	342.99	56.24	-38.7	-39.8	17.2	0.00e+00	0	33	0	2032140288	43	4112
2026-01-16 03:38:22.96	342.34	56.47	-38.4	-39.5	17.3	0.00e+00	0	33	0	2037383168	43	3980
2026-01-16 03:38:23.96	341.68	56.68	-38.2	-39.3	17.3	0.00e+00	0	33	0	2042626048	43	3883
2026-01-16 03:38:24.98	341.00	56.91	-38.2	-39.3	17.3	0.00e+00	0	33	0	2048917504	42	4130
2026-01-16 03:38:25.98	340.32	57.12	-38.4	-39.5	17.2	0.00e+00	0	33	0	2054160384	42	4210
2026-01-16 03:38:26.99	339.63	57.33	-38.6	-39.8	17.2	0.00e+00	0	33	0	2060451840	42	4346
2026-01-16 03:38:28.00	338.92	57.54	-38.4	-39.5	17.2	0.00e+00	0	33	0	2065694720	42	4214
2026-01-16 03:38:29.01	338.20	57.75	-38.4	-39.5	17.2	0.00e+00	0	33	0	2071986176	42	4227
2026-01-16 03:38:30.02	337.48	57.95	-38.6	-39.7	17.2	0.00e+00	0	33	0	2077229056	42	4314
2026-01-16 03:38:31.03	336.74	58.15	-38.7	-39.8	17.1	0.00e+00	0	33	0	2082471936	42	4379
2026-01-16 03:38:32.04	335.99	58.34	-38.6	-39.7	17.2	0.00e+00	0	33	0	2088763392	42	4292
2026-01-16 03:38:33.05	335.22	58.53	-38.3	-39.4	17.2	0.00e+00	0	33	0	2094006272	42	4176
2026-01-16 03:38:34.06	334.45	58.72	-38.4	-39.5	17.2	0.00e+00	0	33	0	2100297728	42	4237
2026-01-16 03:38:35.07	333.67	58.90	-38.4	-39.4	17.2	0.00e+00	0	33	0	2105540608	42	4190
2026-01-16 03:38:36.08	332.88	59.08	-38.0	-39.1	17.3	0.00e+00	0	33	0	2110783488	42	4032
2026-01-16 03:38:37.09	332.07	59.25	-38.2	-39.3	17.2	0.00e+00	0	33	0	2117074944	42	4100
2026-01-16 03:38:38.10	331.26	59.42	-38.4	-39.5	17.2	0.00e+00	0	33	0	2122317824	42	4196
2026-01-16 03:38:39.11	330.43	59.58	-38.7	-39.8	17.1	0.00e+00	0	33	0	2128609280	42	4376
2026-01-16 03:38:40.12	329.59	59.74	-38.6	-39.7	17.2	0.00e+00	0	33	0	2133852160	42	4324
2026-01-16 03:38:41.13	328.75	59.89	-38.6	-39.7	17.2	0.00e+00	0	33	0	2139095040	42	4313
2026-01-16 03:38:42.14	327.89	60.04	-38.4	-39.5	17.2	0.00e+00	0	33	0	2145386496	42	4208
2026-01-16 03:38:43.14	327.04	60.18	-38.6	-39.7	17.2	0.00e+00	0	33	0	2150629376	42	4303
2026-01-16 03:38:44.15	326.16	60.31	-38.1	-39.1	17.3	0.00e+00	0	33	0	2156920832	42	4042
2026-01-16 03:38:45.16	325.28	60.45	-37.9	-38.9	17.4	0.00e+00	0	33	0	2162163712	42	3938
2026-01-16 03:38:46.17	324.38	60.57	-38.2	-39.3	17.3	0.00e+00	0	33	0	2168455168	42	4119
2026-01-16 03:38:47.18	323.48	60.69	-38.1	-39.2	17.3	0.00e+00	0	33	0	2173698048	42	4086
2026-01-16 03:38:48.19	322.57	60.80	-37.7	-38.8	17.4	0.00e+00	0	33	0	2179989504	42	3884
2026-01-16 03:38:49.20	321.65	60.91	-37.8	-38.8	17.4	0.00e+00	0	34	0	2185232384	42	3905
2026-01-16 03:38:50.21	320.73	61.01	-38.1	-39.2	17.3	0.00e+00	0	33	0	2190475264	42	4056
2026-01-16 03:38:51.22	319.79	61.10	-38.3	-39.4	17.2	0.00e+00	0	33	0	2196766720	42	4180
2026-01-16 03:38:52.23	318.85	61.19	-38.3	-39.4	17.3	0.00e+00	0	34	0	2202009600	42	4157
2026-01-16 03:38:53.24	317.91	61.27	-38.0	-39.1	17.4	0.00e+00	0	33	0	2208301056	42	4023
2026-01-16 03:38:54.25	316.96	61.34	-38.1	-39.1	17.3	0.00e+00	0	33	0	2213543936	42	4044
2026-01-16 03:38:55.26	316.00	61.41	-37.7	-38.8	17.4	0.00e+00	0	33	0	2218786816	42	3878
2026-01-16 03:38:56.27	315.04	61.46	-37.7	-38.8	17.4	0.00e+00	0	33	0	2225078272	41	4114
2026-01-16 03:38:57.28	314.07	61.52	-37.8	-38.9	17.3	0.00e+00	0	33	0	2230321152	41	4176
2026-01-16 03:38:58.29	313.10	61.56	-38.0	-39.1	17.3	0.00e+00	0	34	0	2236612608	41	4253
2026-01-16 03:38:59.30	312.13	61.60	-38.0	-39.1	17.3	0.00e+00	0	33	0	2241855488	41	4288
2026-01-16 03:39:00.31	311.15	61.63	-37.9	-39.0	17.4	0.00e+00	0	33	0	2247098368	41	4199
2026-01-16 03:39:01.32	310.17	61.65	-38.0	-39.1	17.3	0.00e+00	0	33	0	2253389824	41	4249
2026-01-16 03:39:02.33	309.19	61.67	-37.5	-38.6	17.4	0.00e+00	0	33	0	2258632704	41	4018
2026-01-16 03:39:03.34	308.21	61.68	-37.4	-38.5	17.4	0.00e+00	0	33	0	2264924160	41	3983
2026-01-16 03:39:04.35	307.23	61.68	-37.6	-38.7	17.4	0.00e+00	0	33	0	2270167040	41	4081
2026-01-16 03:39:05.36	306.25	61.68	-37.5	-38.6	17.5	0.00e+00	0	34	0	2276458496	41	4022
2026-01-16 03:39:06.37	305.27	61.66	-37.4	-38.4	17.5	0.00e+00	0	33	0	2281701376	41	3952
2026-01-16 03:39:07.38	304.29	61.64	-37.3	-38.3	17.5	0.00e+00	0	33	0	2286944256	41	3911
2026-01-16 03:39:08.39	303.31	61.62	-37.2	-38.2	17.6	0.00e+00	0	33	0	2293235712	41	3861
2026-01-16 03:39:09.39	302.34	61.58	-37.2	-38.2	17.5	0.00e+00	0	33	0	2298478592	40	4090
2026-01-16 03:39:10.41	301.36	61.54	-37.4	-38.5	17.4	0.00e+00	0	33	0	2304770048	40	4200
2026-01-16 03:39:11.42	300.39	61.49	-37.8	-38.8	17.3	0.00e+00	0	33	0	2310012928	40	4390
2026-01-16 03:39:12.43	299.43	61.43	-37.6	-38.6	17.4	0.00e+00	0	33	0	2315255808	40	4281
2026-01-16 03:39:13.44	298.47	61.37	-37.5	-38.5	17.4	0.00e+00	0	33	0	2321547264	40	4238
2026-01-16 03:39:14.45	297.51	61.30	-37.8	-38.9	17.3	0.00e+00	0	33	0	2326790144	40	4403
2026-01-16 03:39:15.46	296.56	61.23	-37.8	-38.9	17.3	0.00e+00	0	33	0	2333081600	40	4403
2026-01-16 03:39:16.47	295.62	61.14	-37.8	-38.9	17.3	0.00e+00	0	33	0	2338324480	40	4409
2026-01-16 03:39:17.48	294.68	61.05	-37.8	-38.9	17.3	0.00e+00	0	33	0	2343567360	40	4401
2026-01-16 03:39:18.49	293.75	60.96	-37.7	-38.7	17.3	0.00e+00	0	33	0	2349858816	40	4324
2026-01-16 03:39:19.50	292.83	60.85	-37.5	-38.6	17.4	0.00e+00	0	34	0	2355101696	40	4253
2026-01-16 03:39:20.51	291.92	60.74	-37.8	-38.9	17.4	0.00e+00	0	33	0	2361393152	40	4418
2026-01-16 03:39:21.52	291.01	60.63	-38.0	-39.1	17.3	0.00e+00	0	33	0	2366636032	41	4251
2026-01-16 03:39:22.53	290.11	60.51	-38.1	-39.2	17.3	0.00e+00	0	33	0	2372927488	41	4306
2026-01-16 03:39:23.54	289.22	60.38	-38.1	-39.2	17.3	0.00e+00	0	33	0	2378170368	41	4319
2026-01-16 03:39:24.55	288.34	60.24	-38.0	-39.0	17.3	0.00e+00	0	33	0	2384461824	41	4241
2026-01-16 03:39:25.55	287.48	60.11	-37.8	-38.9	17.4	0.00e+00	0	33	0	2389704704	41	4158
2026-01-16 03:39:26.56	286.62	59.96	-37.9	-38.9	17.4	0.00e+00	0	33	0	2394947584	41	4179
2026-01-16 03:39:27.58	285.76	59.81	-37.9	-39.0	17.4	0.00e+00	0	33	0	2401239040	41	4210
2026-01-16 03:39:28.59	284.92	59.65	-37.8	-38.9	17.4	0.00e+00	0	33	0	2406481920	41	4152
2026-01-16 03:39:29.59	284.09	59.49	-37.8	-38.8	17.4	0.00e+00	0	33	0	2412773376	41	4132
2026-01-16 03:39:30.61	283.27	59.33	-37.7	-38.8	17.5	0.00e+00	0	34	0	2418016256	41	4120
2026-01-16 03:39:31.62	282.45	59.16	-37.8	-38.8	17.4	0.00e+00	0	33	0	2423259136	41	4145
2026-01-16 03:39:32.62	281.66	58.98	-37.9	-38.9	17.4	0.00e+00	0	33	0	2429550592	41	4189
2026-01-16 03:39:33.63	280.87	58.80	-37.8	-38.9	17.4	0.00e+00	0	33	0	2434793472	41	4165
2026-01-16 03:39:34.64	280.10	58.62	-37.8	-39.0	17.4	0.00e+00	0	33	0	2441084928	41	4209
2026-01-16 03:39:35.65	279.33	58.43	-37.7	-38.8	17.4	0.00e+00	0	33	0	2446327808	41	4143
2026-01-16 03:39:36.66	278.57	58.24	-37.6	-38.7	17.5	0.00e+00	0	34	0	2451570688	41	4076
2026-01-16 03:39:37.67	277.83	58.04	-37.7	-38.8	17.4	0.00e+00	0	33	0	2457862144	41	4114
2026-01-16 03:39:38.68	277.09	57.84	-37.8	-38.9	17.4	0.00e+00	0	34	0	2463105024	41	4167
2026-01-16 03:39:39.69	276.37	57.64	-37.9	-39.0	17.4	0.00e+00	0	33	0	2469396480	41	4204
2026-01-16 03:39:40.70	275.66	57.43	-38.0	-39.1	17.4	0.00e+00	0	33	0	2474639360	41	4274
2026-01-16 03:39:41.71	274.96	57.22	-38.1	-39.1	17.4	0.00e+00	0	33	0	2480930816	41	4287
2026-01-16 03:39:42.72	274.26	57.00	-37.9	-38.9	17.4	0.00e+00	0	33	0	2486173696	41	4183
2026-01-16 03:39:43.73	273.59	56.79	-37.9	-38.9	17.4	0.00e+00	0	33	0	2491416576	41	4190
2026-01-16 03:39:44.74	272.92	56.56	-38.0	-39.0	17.4	0.00e+00	0	33	0	2497708032	41	4227
2026-01-16 03:39:45.75	272.26	56.34	-37.9	-38.9	17.4	0.00e+00	0	34	0	2502950912	41	4187
2026-01-16 03:39:46.76	271.61	56.12	-38.0	-39.0	17.4	0.00e+00	0	33	0	2509242368	41	4239
2026-01-16 03:39:47.77	270.97	55.89	-37.9	-38.9	17.4	0.00e+00	0	33	0	2514485248	41	4192
2026-01-16 03:39:48.78	270.35	55.66	-38.0	-39.1	17.4	0.00e+00	0	33	0	2519728128	41	4271
2026-01-16 03:39:49.79	269.73	55.42	-37.9	-39.0	17.4	0.00e+00	0	33	0	2526019584	41	4210
2026-01-16 03:39:50.80	269.12	55.19	-38.0	-39.1	17.4	0.00e+00	0	34	0	2531262464	41	4250
2026-01-16 03:39:51.81	268.53	54.95	-38.1	-39.2	17.3	0.00e+00	0	33	0	2537553920	41	4312
2026-01-16 03:39:52.81	267.95	54.71	-38.3	-39.4	17.3	0.00e+00	0	33	0	2542796800	41	4441
2026-01-16 03:39:53.82	267.37	54.47	-38.4	-39.5	17.3	0.00e+00	0	33	0	2548039680	42	4231
2026-01-16 03:39:54.83	266.81	54.23	-38.4	-39.5	17.3	0.00e+00	0	33	0	2554331136	42	4220
2026-01-16 03:39:55.84	266.25	53.98	-38.3	-39.4	17.4	0.00e+00	0	33	0	2559574016	42	4151
2026-01-16 03:39:56.85	265.70	53.73	-38.2	-39.3	17.4	0.00e+00	0	33	0	2565865472	42	4108
2026-01-16 03:39:57.86	265.16	53.49	-37.8	-38.9	17.5	0.00e+00	0	33	0	2571108352	42	3917
2026-01-16 03:39:58.88	264.63	53.23	-37.8	-38.9	17.5	0.00e+00	0	33	0	2577399808	42	3927
2026-01-16 03:39:59.88	264.11	52.99	-37.9	-39.0	17.5	0.00e+00	0	33	0	2582642688	42	3971
2026-01-16 03:40:00.89	263.60	52.73	-38.2	-39.3	17.4	0.00e+00	0	33	0	2588934144	42	4102
2026-01-16 03:40:01.90	263.10	52.48	-38.3	-39.4	17.4	0.00e+00	0	33	0	2594177024	42	4170
2026-01-16 03:40:02.91	262.61	52.23	-38.3	-39.4	17.4	0.00e+00	0	33	0	2599419904	42	4180
2026-01-16 03:40:03.92	262.12	51.97	-38.2	-39.3	17.4	0.00e+00	0	33	0	2605711360	42	4115
2026-01-16 03:40:04.93	261.64	51.72	-38.2	-39.2	17.4	0.00e+00	0	33	0	2610954240	42	4084
2026-01-16 03:40:05.94	261.18	51.46	-38.2	-39.3	17.4	0.00e+00	0	33	0	2617245696	42	4139
2026-01-16 03:40:06.95	260.71	51.21	-38.4	-39.6	17.3	0.00e+00	0	33	0	2622488576	42	4256
2026-01-16 03:40:07.96	260.26	50.95	-38.5	-39.6	17.3	0.00e+00	0	33	0	2627731456	42	4259
2026-01-16 03:40:08.97	259.82	50.69	-38.5	-39.6	17.3	0.00e+00	0	33	0	2634022912	42	4254
2026-01-16 03:40:09.98	259.38	50.43	-38.4	-39.5	17.3	0.00e+00	0	33	0	2639265792	42	4220
2026-01-16 03:40:10.99	258.95	50.18	-38.2	-39.2	17.4	0.00e+00	0	33	0	2645557248	42	4097
2026-01-16 03:40:12.00	258.53	49.92	-38.2	-39.3	17.4	0.00e+00	0	33	0	2650800128	42	4117
2026-01-16 03:40:13.01	258.11	49.66	-38.2	-39.3	17.4	0.00e+00	0	33	0	2656043008	42	4122
2026-01-16 03:40:14.02	257.70	49.40	-38.3	-39.4	17.4	0.00e+00	0	33	0	2662334464	42	4160
2026-01-16 03:40:15.03	257.30	49.14	-38.2	-39.3	17.4	0.00e+00	0	33	0	2667577344	42	4124
2026-01-16 03:40:16.04	256.90	48.88	-38.1	-39.2	17.4	0.00e+00	0	33	0	2673868800	42	4058
2026-01-16 03:40:17.05	256.52	48.62	-38.2	-39.2	17.4	0.00e+00	0	34	0	2679111680	42	4095
2026-01-16 03:40:18.06	256.13	48.36	-38.0	-39.0	17.4	0.00e+00	0	33	0	2685403136	42	3997
2026-01-16 03:40:19.07	255.76	48.11	-38.0	-39.0	17.5	0.00e+00	0	33	0	2690646016	42	4003
2026-01-16 03:40:20.08	255.39	47.85	-38.0	-39.1	17.4	0.00e+00	0	34	0	2695888896	42	4040
2026-01-16 03:40:21.09	255.03	47.59	-38.0	-39.1	17.4	0.00e+00	0	33	0	2702180352	42	4007
2026-01-16 03:40:22.10	254.67	47.33	-37.7	-38.8	17.5	0.00e+00	0	33	0	2707423232	42	3888
2026-01-16 03:40:23.11	254.32	47.08	-37.7	-38.7	17.5	0.00e+00	0	33	0	2713714688	41	4096
2026-01-16 03:40:24.12	253.97	46.82	-37.6	-38.7	17.5	0.00e+00	0	33	0	2718957568	41	4053
2026-01-16 03:40:25.13	253.63	46.56	-37.3	-38.3	17.6	0.00e+00	0	34	0	2724200448	41	3907
2026-01-16 03:40:26.14	253.30	46.31	-37.3	-38.3	17.6	0.00e+00	0	34	0	2730491904	41	3908
2026-01-16 03:40:27.15	252.97	46.05	-37.4	-38.4	17.6	0.00e+00	0	34	0	2735734784	41	3947
2026-01-16 03:40:28.16	252.65	45.80	-37.3	-38.3	17.6	0.00e+00	0	34	0	2742026240	41	3898
2026-01-16 03:40:29.17	252.33	45.54	-37.3	-38.3	17.6	0.00e+00	0	33	0	2747269120	41	3913
2026-01-16 03:40:30.18	252.02	45.29	-37.4	-38.4	17.6	0.00e+00	0	33	0	2752512000	41	3950
2026-01-16 03:40:31.19	251.71	45.03	-37.4	-38.5	17.6	0.00e+00	0	33	0	2758803456	41	3961
2026-01-16 03:40:32.20	251.41	44.78	-37.4	-38.4	17.6	0.00e+00	0	33	0	2764046336	41	3946
2026-01-16 03:40:33.21	251.11	44.53	-37.4	-38.4	17.6	0.00e+00	0	33	0	2770337792	41	3940
2026-01-16 03:40:34.22	250.81	44.28	-37.2	-38.3	17.6	0.00e+00	0	33	0	2775580672	41	3881
2026-01-16 03:40:35.23	250.52	44.03	-37.2	-38.2	17.6	0.00e+00	0	33	0	2781872128	41	3854
2026-01-16 03:40:36.24	250.24	43.78	-37.2	-38.2	17.6	0.00e+00	0	33	0	2787115008	40	4071
2026-01-16 03:40:37.25	249.96	43.53	-37.1	-38.1	17.5	0.00e+00	0	33	0	2793406464	40	4026
2026-01-16 03:40:38.26	249.68	43.28	-37.3	-38.3	17.5	0.00e+00	0	33	0	2798649344	40	4118
2026-01-16 03:40:39.27	249.41	43.04	-37.4	-38.5	17.4	0.00e+00	0	33	0	2803892224	40	4204
2026-01-16 03:40:40.28	249.15	42.79	-37.6	-38.6	17.4	0.00e+00	0	33	0	2810183680	40	4286
2026-01-16 03:40:41.29	248.88	42.55	-37.5	-38.6	17.5	0.00e+00	0	33	0	2815426560	40	4262
2026-01-16 03:40:42.30	248.62	42.30	-37.6	-38.6	17.4	0.00e+00	0	33	0	2821718016	40	4291
2026-01-16 03:40:43.31	248.37	42.06	-37.6	-38.7	17.4	0.00e+00	0	33	0	2826960896	40	4310
2026-01-16 03:40:44.32	248.12	41.82	-37.4	-38.5	17.5	0.00e+00	0	33	0	2832203776	40	4204
2026-01-16 03:40:45.33	247.87	41.58	-37.2	-38.2	17.5	0.00e+00	0	34	0	2838495232	40	4090
2026-01-16 03:40:46.34	247.63	41.33	-37.0	-38.0	17.6	0.00e+00	0	33	0	2843738112	40	3988
2026-01-16 03:40:47.35	247.39	41.10	-37.1	-38.1	17.5	0.00e+00	0	33	0	2850029568	40	4019
2026-01-16 03:40:48.36	247.15	40.86	-37.1	-38.2	17.5	0.00e+00	0	33	0	2855272448	40	4060
2026-01-16 03:40:49.37	246.92	40.62	-37.3	-38.3	17.5	0.00e+00	0	33	0	2860515328	40	4136
2026-01-16 03:40:50.38	246.69	40.38	-37.4	-38.5	17.5	0.00e+00	0	33	0	2866806784	40	4210
2026-01-16 03:40:51.39	246.46	40.15	-37.5	-38.6	17.4	0.00e+00	0	33	0	2872049664	40	4250
2026-01-16 03:40:52.40	246.24	39.91	-37.5	-38.6	17.4	0.00e+00	0	34	0	2878341120	40	4250
2026-01-16 03:40:53.41	246.02	39.68	-37.4	-38.4	17.5	0.00e+00	0	33	0	2883584000	40	4190
2026-01-16 03:40:54.42	245.80	39.45	-37.4	-38.4	17.5	0.00e+00	0	34	0	2889875456	40	4176
2026-01-16 03:40:55.43	245.59	39.22	-37.4	-38.4	17.5	0.00e+00	0	33	0	2895118336	40	4183
2026-01-16 03:40:56.44	245.38	38.99	-37.3	-38.4	17.5	0.00e+00	0	33	0	2901409792	40	4152
2026-01-16 03:40:57.45	245.17	38.76	-37.4	-38.5	17.5	0.00e+00	0	33	0	2906652672	40	4219
2026-01-16 03:40:58.46	244.96	38.53	-37.3	-38.4	17.5	0.00e+00	0	33	0	2911895552	40	4168
2026-01-16 03:40:59.47	244.76	38.31	-37.3	-38.4	17.5	0.00e+00	0	33	0	2918187008	40	4164
2026-01-16 03:41:00.48	244.56	38.08	-37.1	-38.2	17.5	0.00e+00	0	33	0	2923429888	40	4063
2026-01-16 03:41:01.49	244.37	37.86	-37.2	-38.3	17.5	0.00e+00	0	33	0	2929721344	40	4102
2026-01-16 03:41:02.50	244.17	37.63	-37.3	-38.3	17.5	0.00e+00	0	33	0	2934964224	40	4137
2026-01-16 03:41:03.51	243.98	37.41	-37.2	-38.2	17.6	0.00e+00	0	33	0	2940207104	40	4078
2026-01-16 03:41:04.52	243.79	37.19	-37.0	-38.1	17.6	0.00e+00	0	33	0	2946498560	40	4020
2026-01-16 03:41:05.53	243.61	36.97	-37.0	-38.0	17.6	0.00e+00	0	33	0	2951741440	40	3981
2026-01-16 03:41:06.54	243.43	36.75	-37.0	-38.0	17.6	0.00e+00	0	33	0	2956984320	40	3970
2026-01-16 03:41:07.55	243.25	36.53	-36.9	-37.9	17.6	0.00e+00	0	33	0	2963275776	40	3936
2026-01-16 03:41:08.56	243.07	36.32	-37.0	-38.0	17.6	0.00e+00	0	33	0	2968518656	40	3981
2026-01-16 03:41:09.56	242.89	36.10	-37.0	-38.0	17.6	0.00e+00	0	33	0	2974810112	40	3998
2026-01-16 03:41:10.57	242.72	35.89	-37.2	-38.2	17.5	0.00e+00	0	33	0	2980052992	40	4086
2026-01-16 03:41:11.58	242.55	35.67	-37.2	-38.3	17.5	0.00e+00	0	33	0	2986344448	40	4108
2026-01-16 03:41:12.59	242.38	35.46	-37.3	-38.4	17.4	0.00e+00	0	33	0	2991587328	40	4147
2026-01-16 03:41:13.60	242.21	35.25	-37.3	-38.3	17.5	0.00e+00	0	33	0	2997878784	40	4131
2026-01-16 03:41:14.61	242.05	35.04	-37.3	-38.4	17.5	0.00e+00	0	33	0	3003121664	40	4160
2026-01-16 03:41:15.62	241.89	34.83	-37.3	-38.3	17.5	0.00e+00	0	33	0	3008364544	40	4138
2026-01-16 03:41:16.63	241.73	34.63	-37.2	-38.3	17.5	0.00e+00	0	34	0	3014656000	40	4110
2026-01-16 03:41:17.64	241.57	34.42	-37.3	-38.3	17.5	0.00e+00	0	34	0	3019898880	40	4130
2026-01-16 03:41:18.65	241.41	34.21	-37.2	-38.3	17.5	0.00e+00	0	33	0	3026190336	40	4104
2026-01-16 03:41:19.66	241.26	34.01	-37.1	-38.2	17.5	0.00e+00	0	33	0	3031433216	40	4066
2026-01-16 03:41:20.67	241.10	33.81	-37.2	-38.2	17.5	0.00e+00	0	34	0	3036676096	40	4089
2026-01-16 03:41:21.68	240.95	33.60	-37.2	-38.2	17.5	0.00e+00	0	33	0	3042967552	40	4096
2026-01-16 03:41:22.69	240.81	33.40	-37.2	-38.2	17.6	0.00e+00	0	34	0	3048210432	40	4080
2026-01-16 03:41:23.70	240.66	33.20	-37.1	-38.2	17.6	0.00e+00	0	33	0	3054501888	40	4054
2026-01-16 03:41:24.71	240.51	33.00	-37.0	-38.0	17.6	0.00e+00	0	33	0	3059744768	40	3974
2026-01-16 03:41:25.72	240.37	32.81	-37.1	-38.1	17.5	0.00e+00	0	33	0	3064987648	40	4036
2026-01-16 03:41:26.73	240.23	32.61	-37.0	-38.0	17.6	0.00e+00	0	33	0	3071279104	40	3977
2026-01-16 03:41:27.74	240.09	32.41	-37.0	-38.0	17.6	0.00e+00	0	33	0	3076521984	40	3995
2026-01-16 03:41:28.75	239.95	32.22	-37.1	-38.2	17.6	0.00e+00	0	33	0	3082813440	40	4063
2026-01-16 03:41:29.76	239.82	32.03	-37.2	-38.2	17.6	0.00e+00	0	33	0	3088056320	40	4089
2026-01-16 03:41:30.77	239.68	31.83	-37.3	-38.3	17.5	0.00e+00	0	33	0	3094347776	40	4131
2026-01-16 03:41:31.78	239.55	31.64	-37.3	-38.4	17.5	0.00e+00	0	33	0	3099590656	40	4158
2026-01-16 03:41:32.79	239.42	31.45	-37.2	-38.2	17.5	0.00e+00	0	33	0	3104833536	40	4098
2026-01-16 03:41:33.80	239.29	31.26	-37.2	-38.2	17.5	0.00e+00	0	33	0	3111124992	40	4094
2026-01-16 03:41:34.81	239.16	31.07	-37.2	-38.3	17.5	0.00e+00	0	33	0	3116367872	40	4120
2026-01-16 03:41:35.82	239.03	30.89	-37.3	-38.3	17.5	0.00e+00	0	33	0	3122659328	40	4128
2026-01-16 03:41:36.83	238.91	30.70	-37.1	-38.1	17.5	0.00e+00	0	33	0	3127902208	40	4050
2026-01-16 03:41:37.84	238.78	30.52	-37.2	-38.2	17.5	0.00e+00	0	33	0	3133145088	40	4081
2026-01-16 03:41:38.85	238.66	30.33	-37.3	-38.3	17.5	0.00e+00	0	33	0	3139436544	40	4142
2026-01-16 03:41:39.86	238.54	30.15	-37.3	-38.3	17.5	0.00e+00	0	33	0	3144679424	40	4143
2026-01-16 03:41:40.86	238.42	29.97	-37.5	-38.5	17.5	0.00e+00	0	33	0	3150970880	40	4230
2026-01-16 03:41:41.87	238.31	29.79	-37.5	-38.5	17.4	0.00e+00	0	33	0	3156213760	40	4229
2026-01-16 03:41:42.88	238.19	29.61	-37.4	-38.5	17.5	0.00e+00	0	33	0	3161456640	40	4195
2026-01-16 03:41:43.89	238.07	29.43	-37.4	-38.5	17.5	0.00e+00	0	33	0	3167748096	40	4198
2026-01-16 03:41:44.90	237.96	29.25	-37.4	-38.5	17.4	0.00e+00	0	33	0	3172990976	40	4225
2026-01-16 03:41:45.91	237.85	29.07	-37.6	-38.7	17.4	0.00e+00	0	34	0	3179282432	40	4298
2026-01-16 03:41:46.92	237.73	28.90	-37.6	-38.6	17.4	0.00e+00	0	33	0	3184525312	40	4286
2026-01-16 03:41:47.93	237.62	28.72	-37.5	-38.6	17.4	0.00e+00	0	33	0	3190816768	40	4265
2026-01-16 03:41:48.94	237.51	28.55	-37.6	-38.7	17.4	0.00e+00	0	33	0	3196059648	40	4313
2026-01-16 03:41:49.95	237.41	28.38	-37.6	-38.7	17.4	0.00e+00	0	33	0	3202351104	40	4308
2026-01-16 03:41:50.96	237.30	28.20	-37.7	-38.8	17.4	0.00e+00	0	33	0	3207593984	40	4342
2026-01-16 03:41:51.97	237.19	28.03	-37.8	-38.9	17.4	0.00e+00	0	34	0	3212836864	40	4393
2026-01-16 03:41:52.98	237.09	27.86	-37.8	-38.9	17.3	0.00e+00	0	33	0	3219128320	40	4420
2026-01-16 03:41:53.99	236.99	27.69	-37.7	-38.8	17.4	0.00e+00	0	33	0	3224371200	40	4375
2026-01-16 03:41:55.00	236.88	27.52	-37.7	-38.8	17.4	0.00e+00	0	33	0	3230662656	40	4348
2026-01-16 03:41:56.01	236.78	27.36	-37.8	-38.8	17.4	0.00e+00	0	33	0	3235905536	40	4388
2026-01-16 03:41:57.02	236.68	27.19	-37.9	-39.0	17.4	0.00e+00	0	34	0	3241148416	40	4443
2026-01-16 03:41:58.03	236.59	27.02	-37.7	-38.8	17.4	0.00e+00	0	33	0	3247439872	40	4369
2026-01-16 03:41:59.04	236.49	26.86	-37.7	-38.8	17.4	0.00e+00	0	33	0	3252682752	40	4364
2026-01-16 03:42:00.05	236.39	26.70	-37.8	-38.9	17.4	0.00e+00	0	33	0	3258974208	40	4397
2026-01-16 03:42:01.05	236.30	26.53	-37.7	-38.7	17.4	0.00e+00	0	34	0	3264217088	40	4334
2026-01-16 03:42:02.06	236.20	26.37	-37.6	-38.7	17.4	0.00e+00	0	34	0	3269459968	40	4304
2026-01-16 03:42:03.07	236.11	26.21	-37.6	-38.7	17.4	0.00e+00	0	34	0	3275751424	40	4328
2026-01-16 03:42:04.08	236.01	26.05	-37.5	-38.6	17.4	0.00e+00	0	33	0	3280994304	40	4262
2026-01-16 03:42:05.09	235.92	25.89	-37.6	-38.7	17.4	0.00e+00	0	33	0	3287285760	40	4311
2026-01-16 03:42:06.10	235.83	25.73	-37.7	-38.8	17.4	0.00e+00	0	33	0	3292528640	40	4347
2026-01-16 03:42:07.11	235.74	25.58	-37.7	-38.8	17.4	0.00e+00	0	33	0	3298820096	40	4350
2026-01-16 03:42:08.12	235.65	25.42	-37.5	-38.6	17.4	0.00e+00	0	34	0	3304062976	40	4272
2026-01-16 03:42:09.13	235.56	25.26	-37.6	-38.7	17.4	0.00e+00	0	33	0	3309305856	40	4317
2026-01-16 03:42:10.14	235.48	25.11	-37.7	-38.8	17.4	0.00e+00	0	33	0	3315597312	40	4352
2026-01-16 03:42:11.15	235.39	24.95	-37.8	-38.9	17.3	0.00e+00	0	34	0	3320840192	40	4398
2026-01-16 03:42:12.16	235.31	24.80	-37.8	-38.8	17.4	0.00e+00	0	33	0	3327131648	40	4385
2026-01-16 03:42:13.17	235.22	24.65	-37.7	-38.8	17.4	0.00e+00	0	33	0	3332374528	40	4363
2026-01-16 03:42:14.18	235.14	24.49	-37.8	-38.9	17.3	0.00e+00	0	34	0	3337617408	40	4401
2026-01-16 03:42:15.19	235.05	24.34	-37.8	-38.9	17.3	0.00e+00	0	34	0	3343908864	40	4423
2026-01-16 03:42:16.20	234.97	24.19	-37.9	-39.0	17.3	0.00e+00	0	34	0	3349151744	40	4443
2026-01-16 03:42:17.21	234.89	24.04	-37.8	-38.9	17.4	0.00e+00	0	34	0	3355443200	40	4401
2026-01-16 03:42:18.22	234.81	23.89	-37.8	-38.9	17.4	0.00e+00	0	33	0	3360686080	40	4436
2026-01-16 03:42:19.23	234.73	23.75	-37.8	-38.9	17.4	0.00e+00	0	33	0	3365928960	41	4179
2026-01-16 03:42:20.24	234.65	23.60	-37.7	-38.7	17.4	0.00e+00	0	33	0	3372220416	41	4089
2026-01-16 03:42:21.25	234.57	23.45	-37.8	-38.9	17.4	0.00e+00	0	33	0	3377463296	41	4152
2026-01-16 03:42:22.25	234.50	23.31	-37.7	-38.8	17.4	0.00e+00	0	33	0	3383754752	41	4113
2026-01-16 03:42:23.26	234.42	23.16	-37.7	-38.8	17.4	0.00e+00	0	33	0	3388997632	41	4102
2026-01-16 03:42:24.27	234.34	23.02	-37.6	-38.7	17.4	0.00e+00	0	34	0	3395289088	41	4072
2026-01-16 03:42:25.28	234.27	22.88	-37.7	-38.8	17.4	0.00e+00	0	33	0	3400531968	41	4101
2026-01-16 03:42:26.29	234.19	22.73	-37.6	-38.7	17.4	0.00e+00	0	33	0	3406823424	41	4071
2026-01-16 03:42:27.31	234.12	22.59	-37.8	-38.9	17.4	0.00e+00	0	33	0	3412066304	41	4154
2026-01-16 03:42:28.31	234.05	22.45	-37.9	-38.9	17.4	0.00e+00	0	34	0	3417309184	41	4189
2026-01-16 03:42:29.32	233.97	22.31	-37.9	-39.0	17.4	0.00e+00	0	33	0	3423600640	41	4201
2026-01-16 03:42:30.33	233.90	22.17	-37.8	-38.9	17.4	0.00e+00	0	33	0	3428843520	41	4153
2026-01-16 03:42:31.34	233.83	22.03	-37.9	-39.0	17.3	0.00e+00	0	33	0	3435134976	41	4208
2026-01-16 03:42:32.35	233.76	21.89	-37.8	-38.9	17.4	0.00e+00	0	33	0	3440377856	41	4180
2026-01-16 03:42:33.36	233.69	21.76	-37.9	-39.0	17.3	0.00e+00	0	33	0	3445620736	41	4214
2026-01-16 03:42:34.37	233.62	21.62	-38.0	-39.1	17.3	0.00e+00	0	33	0	3451912192	41	4262
2026-01-16 03:42:35.38	233.55	21.48	-37.9	-39.0	17.3	0.00e+00	0	33	0	3457155072	41	4226
2026-01-16 03:42:36.39	233.49	21.35	-38.0	-39.1	17.3	0.00e+00	0	34	0	3462397952	41	4245
2026-01-16 03:42:37.40	233.42	21.21	-38.0	-39.1	17.3	0.00e+00	0	33	0	3468689408	41	4286
2026-01-16 03:42:38.41	233.35	21.08	-38.0	-39.1	17.3	0.00e+00	0	33	0	3473932288	41	4291
2026-01-16 03:42:39.42	233.29	20.94	-38.0	-39.1	17.3	0.00e+00	0	33	0	3480223744	41	4279
2026-01-16 03:42:40.42	233.22	20.81	-38.2	-39.3	17.3	0.00e+00	0	34	0	3485466624	41	4353
2026-01-16 03:42:41.44	233.16	20.68	-38.1	-39.2	17.3	0.00e+00	0	33	0	3491758080	41	4337
2026-01-16 03:42:42.44	233.09	20.55	-38.2	-39.3	17.2	0.00e+00	0	33	0	3497000960	41	4380
2026-01-16 03:42:43.45	233.03	20.42	-38.3	-39.4	17.2	0.00e+00	0	33	0	3503292416	41	4432
2026-01-16 03:42:44.46	232.96	20.29	-38.3	-39.4	17.2	0.00e+00	0	33	0	3508535296	41	4399
2026-01-16 03:42:45.47	232.90	20.16	-38.3	-39.4	17.2	0.00e+00	0	34	0	3513778176	41	4429
2026-01-16 03:42:46.48	232.84	20.03	-38.4	-39.5	17.2	0.00e+00	0	34	0	3520069632	42	4227
2026-01-16 03:42:47.49	232.78	19.90	-38.5	-39.6	17.2	0.00e+00	0	33	0	3525312512	42	4261
2026-01-16 03:42:48.50	232.72	19.77	-38.5	-39.7	17.2	0.00e+00	0	33	0	3531603968	42	4306
2026-01-16 03:42:49.51	232.66	19.65	-38.6	-39.7	17.2	0.00e+00	0	33	0	3536846848	42	4335
2026-01-16 03:42:50.52	232.60	19.52	-38.6	-39.8	17.1	0.00e+00	0	34	0	3542089728	42	4356
2026-01-16 03:42:51.53	232.54	19.39	-38.8	-39.9	17.1	0.00e+00	0	33	0	3548381184	42	4439
2026-01-16 03:42:52.54	232.48	19.27	-38.9	-40.0	17.1	0.00e+00	0	33	0	3553624064	42	4470
2026-01-16 03:42:53.55	232.42	19.14	-38.8	-40.0	17.1	0.00e+00	0	33	0	3559915520	42	4455
2026-01-16 03:42:54.56	232.36	19.02	-38.9	-40.1	17.1	0.00e+00	0	33	0	3565158400	42	4504
2026-01-16 03:42:55.57	232.31	18.90	-39.1	-40.3	17.1	0.00e+00	0	33	0	3570401280	43	4341
2026-01-16 03:42:56.58	232.25	18.77	-38.9	-40.1	17.1	0.00e+00	0	33	0	3576692736	43	4258
2026-01-16 03:42:57.58	232.19	18.65	-38.9	-40.1	17.1	0.00e+00	0	33	0	3581935616	43	4253
2026-01-16 03:42:58.60	232.14	18.53	-39.0	-40.2	17.1	0.00e+00	0	33	0	3588227072	43	4298
2026-01-16 03:42:59.60	232.08	18.41	-39.0	-40.2	17.1	0.00e+00	0	33	0	3593469952	43	4315
2026-01-16 03:43:00.61	232.03	18.29	-39.1	-40.3	17.0	0.00e+00	0	33	0	3599761408	43	4356
2026-01-16 03:43:01.62	231.97	18.17	-39.0	-40.2	17.0	0.00e+00	0	33	0	3605004288	43	4338
2026-01-16 03:43:02.63	231.92	18.05	-39.1	-40.3	17.0	0.00e+00	0	33	0	3610247168	43	4342
2026-01-16 03:43:03.64	231.86	17.93	-39.0	-40.2	17.1	0.00e+00	0	34	0	3616538624	43	4294
2026-01-16 03:43:04.65	231.81	17.81	-38.9	-40.1	17.1	0.00e+00	0	33	0	3621781504	43	4280
2026-01-16 03:43:05.66	231.76	17.69	-39.0	-40.2	17.0	0.00e+00	0	33	0	3628072960	43	4298
2026-01-16 03:43:06.67	231.71	17.57	-39.0	-40.2	17.0	0.00e+00	0	34	0	3633315840	43	4308
2026-01-16 03:43:07.68	231.65	17.46	-39.1	-40.2	17.0	0.00e+00	0	34	0	3638558720	43	4339
2026-01-16 03:43:08.69	231.60	17.34	-39.1	-40.2	17.1	0.00e+00	0	33	0	3644850176	43	4329
2026-01-16 03:43:09.70	231.55	17.23	-38.9	-40.1	17.1	0.00e+00	0	33	0	3650093056	43	4255
2026-01-16 03:43:10.71	231.50	17.11	-38.9	-40.0	17.1	0.00e+00	0	33	0	3656384512	43	4238
2026-01-16 03:43:11.72	231.45	17.00	-39.0	-40.1	17.0	0.00e+00	0	33	0	3661627392	43	4278
2026-01-16 03:43:12.73	231.40	16.88	-39.0	-40.2	17.1	0.00e+00	0	33	0	3666870272	43	4297
2026-01-16 03:43:13.74	231.35	16.77	-39.1	-40.3	17.0	0.00e+00	0	33	0	3673161728	43	4359
2026-01-16 03:43:14.75	231.30	16.65	-39.2	-40.4	16.9	0.00e+00	0	33	0	3678404608	43	4419
2026-01-16 03:43:15.76	231.25	16.54	-39.1	-40.2	17.0	0.00e+00	0	33	0	3684696064	43	4332
2026-01-16 03:43:16.77	231.21	16.43	-38.9	-40.1	17.1	0.00e+00	0	33	0	3689938944	43	4257
2026-01-16 03:43:17.77	231.16	16.32	-39.0	-40.1	17.0	0.00e+00	0	33	0	3696230400	43	4278
2026-01-16 03:43:18.79	231.11	16.21	-39.0	-40.1	17.0	0.00e+00	0	33	0	3701473280	43	4279
2026-01-16 03:43:19.79	231.06	16.10	-39.1	-40.2	17.0	0.00e+00	0	33	0	3707764736	43	4323
2026-01-16 03:43:20.80	231.02	15.99	-39.1	-40.3	17.0	0.00e+00	0	33	0	3713007616	43	4343
2026-01-16 03:43:21.81	230.97	15.88	-39.2	-40.3	17.0	0.00e+00	0	33	0	3718250496	43	4383
2026-01-16 03:43:22.82	230.92	15.77	-39.2	-40.4	17.0	0.00e+00	0	34	0	3724541952	43	4422
2026-01-16 03:43:23.83	230.88	15.66	-39.3	-40.4	17.0	0.00e+00	0	33	0	3729784832	43	4436
2026-01-16 03:43:24.84	230.83	15.55	-39.3	-40.5	16.9	0.00e+00	0	34	0	3736076288	43	4463
2026-01-16 03:43:25.85	230.79	15.44	-39.6	-40.7	16.9	0.00e+00	0	33	0	3741319168	44	4334
