passes_logs/2026/01/16/R3.2S_Murmansk_2ch/R3.2S_Murmansk_2ch__20260116_090947_SUOMI_NPP_rec.log

#Pass ID: 20260116_090947_SUOMI NPP
#Satellite: SUOMI NPP
#Configuration: NPP
#almurnet v.1.7.20251203
#Start time: 2026-01-16 09:09:46

#Version: 2.2.20231116
#Station: R3.2S_Murmansk_2ch
#Location: 33.079688 lon 68.888172 lat
#TLE: 1 37849U 11061A   26015.94982489  .00000054  00000+0  46705-4 0  9991
#TLE: 2 37849  98.7812 317.9902 0002438  62.0366 298.1057 14.19525452736847

#Time	Az	El	Level	Level2	SNR	BER	BlckErr	Temp	State	Recorded	gain1	gain2
2026-01-16 09:09:46.48	141.34	1.96	-49.8	-66.0	3.8	1.49e+00	0	31	0	0	66	22446
2026-01-16 09:09:47.49	141.33	2.03	-49.8	-66.0	3.8	1.49e+00	0	31	104	0	64	25146
2026-01-16 09:09:48.50	141.32	2.09	-49.8	-66.0	3.8	1.49e+00	0	31	104	0	64	25196
2026-01-16 09:09:49.51	141.31	2.16	-49.9	-66.0	3.8	1.49e+00	0	31	104	0	64	25167
2026-01-16 09:09:50.52	141.30	2.22	-49.8	-66.0	3.8	1.49e+00	0	31	104	0	64	25168
2026-01-16 09:09:51.53	141.29	2.29	-49.9	-66.0	3.8	1.49e+00	0	32	104	0	64	25235
2026-01-16 09:09:52.54	141.29	2.35	-49.8	-66.0	3.8	1.49e+00	0	32	104	0	64	25166
2026-01-16 09:09:53.54	141.28	2.42	-49.8	-66.0	3.8	1.49e+00	0	32	104	0	64	25173
2026-01-16 09:09:54.55	141.27	2.48	-49.9	-66.0	3.8	1.49e+00	0	31	104	0	64	25256
2026-01-16 09:09:55.56	141.26	2.55	-49.9	-66.0	3.8	1.49e+00	0	32	104	0	64	25224
2026-01-16 09:09:56.57	141.25	2.62	-49.9	-66.0	3.8	1.49e+00	0	31	104	0	64	25190
2026-01-16 09:09:57.58	141.24	2.68	-49.9	-66.0	3.8	1.49e+00	0	31	104	0	64	25118
2026-01-16 09:09:58.59	141.23	2.75	-49.8	-66.0	3.8	1.49e+00	0	32	104	0	64	25070
2026-01-16 09:09:59.60	141.22	2.81	-49.9	-66.0	3.8	1.49e+00	0	32	104	0	64	25050
2026-01-16 09:10:00.61	141.21	2.88	-49.8	-66.0	3.8	1.49e+00	0	32	104	0	64	25068
2026-01-16 09:10:01.62	141.21	2.95	-49.9	-66.0	3.8	1.49e+00	0	32	104	0	64	25122
2026-01-16 09:10:02.63	141.20	3.02	-49.9	-66.0	3.8	1.49e+00	0	32	104	0	64	25037
2026-01-16 09:10:03.64	141.19	3.08	-49.8	-66.0	3.8	1.49e+00	0	32	104	0	64	24984
2026-01-16 09:10:04.65	141.18	3.15	-49.9	-66.0	3.8	1.49e+00	0	32	104	0	64	25052
2026-01-16 09:10:05.65	141.17	3.22	-49.9	-65.9	3.8	1.49e+00	0	32	104	0	64	24883
2026-01-16 09:10:06.67	141.16	3.29	-49.9	-65.9	3.8	1.49e+00	0	32	104	0	64	24747
2026-01-16 09:10:07.67	141.15	3.35	-49.8	-65.7	3.8	1.49e+00	0	32	104	0	64	24342
2026-01-16 09:10:08.68	141.14	3.42	-49.8	-65.5	3.8	1.49e+00	0	32	104	0	64	23849
2026-01-16 09:10:09.69	141.13	3.49	-49.8	-65.3	3.8	1.49e+00	0	32	104	0	64	23225
2026-01-16 09:10:10.70	141.12	3.56	-49.8	-65.0	3.8	1.49e+00	0	32	104	0	64	22426
2026-01-16 09:10:11.71	141.11	3.63	-49.8	-64.8	3.8	1.49e+00	0	32	104	0	64	21783
2026-01-16 09:10:12.72	141.10	3.69	-49.8	-63.8	3.9	1.49e+00	0	32	104	0	64	19493
2026-01-16 09:10:13.73	141.09	3.76	-49.8	-63.7	3.9	1.49e+00	0	32	104	0	64	19198
2026-01-16 09:10:14.74	141.08	3.83	-49.7	-62.8	4.0	1.47e+00	0	32	104	0	64	17409
2026-01-16 09:10:15.75	141.07	3.90	-49.7	-63.2	4.0	1.38e+00	0	32	0	0	64	18288
2026-01-16 09:10:16.76	141.06	3.97	-49.7	-62.1	4.3	1.46e+00	14	32	0	0	64	15978
2026-01-16 09:10:17.77	141.05	4.04	-49.7	-61.7	4.4	1.12e+00	53	32	0	1048576	64	15339
2026-01-16 09:10:18.78	141.04	4.11	-49.6	-61.0	4.7	1.10e+00	0	32	0	3145728	64	14092
2026-01-16 09:10:19.79	141.03	4.18	-49.6	-61.3	4.6	8.17e-01	0	32	0	5242880	64	14635
2026-01-16 09:10:20.80	141.02	4.25	-49.5	-59.6	5.5	6.51e-01	0	32	0	7340032	64	12007
2026-01-16 09:10:21.80	141.01	4.32	-49.3	-58.4	6.2	3.36e-01	0	32	0	8388608	64	10439
2026-01-16 09:10:22.81	141.00	4.39	-49.2	-57.5	6.9	2.31e-01	0	32	0	10485760	64	9401
2026-01-16 09:10:23.82	140.99	4.46	-48.9	-56.2	8.1	5.31e-02	0	32	0	12582912	64	8087
2026-01-16 09:10:24.83	140.98	4.53	-48.7	-55.3	8.9	2.84e-02	0	32	0	14680064	64	7327
2026-01-16 09:10:25.84	140.97	4.60	-48.5	-54.5	9.7	9.06e-03	0	32	0	16777216	63	7055
2026-01-16 09:10:26.85	140.96	4.67	-47.9	-52.8	11.1	9.05e-04	0	32	0	17825792	62	6163
2026-01-16 09:10:27.86	140.94	4.75	-47.7	-52.3	11.5	1.84e-04	0	32	0	19922944	62	5795
2026-01-16 09:10:28.87	140.93	4.82	-47.4	-51.5	12.1	4.80e-05	0	32	0	22020096	61	5651
2026-01-16 09:10:29.88	140.92	4.89	-47.1	-50.7	13.0	0.00e+00	0	32	0	24117248	59	5751
2026-01-16 09:10:30.89	140.91	4.96	-47.1	-50.8	12.7	3.00e-06	0	32	0	26214400	60	5521
2026-01-16 09:10:31.90	140.90	5.03	-46.2	-49.3	14.0	0.00e+00	0	32	0	27262976	59	4876
2026-01-16 09:10:32.91	140.89	5.11	-48.3	-53.8	10.4	0.00e+00	0	32	0	29360128	61	7307
2026-01-16 09:10:33.92	140.88	5.18	-49.2	-56.6	8.0	1.80e-02	0	33	0	31457280	63	9006
2026-01-16 09:10:34.93	140.87	5.25	-47.6	-52.1	11.6	3.00e-04	0	32	0	33554432	60	6354
2026-01-16 09:10:35.94	140.85	5.32	-47.0	-50.5	13.2	3.12e-05	0	32	0	35651584	59	5637
2026-01-16 09:10:36.94	140.84	5.40	-48.3	-53.7	10.4	7.78e-05	0	32	0	36700160	61	7286
2026-01-16 09:10:37.95	140.83	5.47	-46.5	-49.7	13.7	2.89e-05	0	32	0	38797312	59	5113
2026-01-16 09:10:38.96	140.82	5.54	-46.6	-49.8	13.6	0.00e+00	0	32	0	40894464	59	5195
2026-01-16 09:10:39.97	140.81	5.62	-46.6	-49.9	13.6	0.00e+00	0	32	0	42991616	59	5221
2026-01-16 09:10:40.98	140.80	5.69	-46.6	-49.9	13.6	0.00e+00	0	33	0	45088768	59	5234
2026-01-16 09:10:41.99	140.78	5.76	-46.6	-49.9	13.7	0.00e+00	0	32	0	46137344	59	5225
2026-01-16 09:10:43.00	140.77	5.84	-46.6	-49.9	13.7	0.00e+00	0	32	0	48234496	59	5219
2026-01-16 09:10:44.01	140.76	5.91	-46.5	-49.5	13.9	0.00e+00	0	32	0	50331648	59	5025
2026-01-16 09:10:45.02	140.75	5.99	-46.6	-49.7	13.8	0.00e+00	0	32	0	52428800	59	5151
2026-01-16 09:10:46.03	140.74	6.06	-46.4	-49.4	14.1	0.00e+00	0	32	0	54525952	59	4935
2026-01-16 09:10:47.04	140.72	6.14	-46.4	-49.5	14.0	0.00e+00	0	32	0	56623104	59	4984
2026-01-16 09:10:48.05	140.71	6.21	-46.5	-49.5	14.0	0.00e+00	0	32	0	57671680	59	4992
2026-01-16 09:10:49.05	140.70	6.29	-46.3	-49.3	14.1	0.00e+00	0	33	0	59768832	59	4876
2026-01-16 09:10:50.06	140.69	6.37	-46.5	-49.5	14.0	0.00e+00	0	33	0	61865984	59	5015
2026-01-16 09:10:51.07	140.67	6.44	-46.4	-49.3	14.1	0.00e+00	0	32	0	63963136	59	4903
2026-01-16 09:10:52.08	140.66	6.52	-46.4	-49.4	14.1	0.00e+00	0	32	0	66060288	59	4953
2026-01-16 09:10:53.09	140.65	6.59	-46.3	-49.2	14.1	0.00e+00	0	33	0	67108864	59	4867
2026-01-16 09:10:54.10	140.64	6.67	-46.4	-49.3	14.1	0.00e+00	0	33	0	69206016	58	5217
2026-01-16 09:10:55.11	140.62	6.75	-46.3	-49.2	14.2	0.00e+00	0	33	0	71303168	58	5140
2026-01-16 09:10:56.12	140.61	6.83	-46.1	-48.8	14.4	0.00e+00	0	33	0	73400320	58	4920
2026-01-16 09:10:57.13	140.60	6.90	-46.1	-48.9	14.4	0.00e+00	0	32	0	75497472	58	4967
2026-01-16 09:10:58.14	140.58	6.98	-46.3	-49.2	14.2	0.00e+00	0	32	0	76546048	58	5124
2026-01-16 09:10:59.15	140.57	7.06	-46.2	-49.0	14.3	0.00e+00	0	33	0	78643200	58	5024
2026-01-16 09:11:00.16	140.56	7.14	-46.3	-49.1	14.3	0.00e+00	0	33	0	80740352	58	5076
2026-01-16 09:11:01.17	140.54	7.22	-46.2	-49.0	14.3	0.00e+00	0	32	0	82837504	58	4996
2026-01-16 09:11:02.18	140.53	7.29	-46.3	-49.1	14.3	0.00e+00	0	33	0	84934656	58	5082
2026-01-16 09:11:03.19	140.52	7.37	-46.3	-49.2	14.2	0.00e+00	0	33	0	85983232	58	5133
2026-01-16 09:11:04.20	140.50	7.45	-46.0	-48.7	14.5	0.00e+00	0	33	0	88080384	58	4854
2026-01-16 09:11:05.21	140.49	7.53	-46.1	-48.8	14.5	0.00e+00	0	33	0	90177536	58	4925
2026-01-16 09:11:06.22	140.47	7.61	-46.4	-49.2	14.3	0.00e+00	0	33	0	92274688	58	5133
2026-01-16 09:11:07.23	140.46	7.69	-46.4	-49.2	14.2	0.00e+00	0	33	0	94371840	58	5154
2026-01-16 09:11:08.24	140.45	7.77	-46.2	-48.9	14.5	0.00e+00	0	33	0	95420416	58	4951
2026-01-16 09:11:09.25	140.43	7.85	-46.1	-48.8	14.5	0.00e+00	0	33	0	97517568	58	4917
2026-01-16 09:11:10.26	140.42	7.93	-46.1	-48.7	14.6	0.00e+00	0	33	0	99614720	58	4843
2026-01-16 09:11:11.27	140.40	8.01	-46.1	-48.7	14.6	0.00e+00	0	33	0	101711872	58	4859
2026-01-16 09:11:12.28	140.39	8.09	-46.0	-48.6	14.6	0.00e+00	0	33	0	103809024	58	4809
2026-01-16 09:11:13.29	140.37	8.18	-46.1	-48.8	14.6	0.00e+00	0	33	0	104857600	58	4907
2026-01-16 09:11:14.29	140.36	8.26	-46.1	-48.7	14.6	0.00e+00	0	33	0	106954752	58	4866
2026-01-16 09:11:15.30	140.35	8.34	-46.0	-48.5	14.7	0.00e+00	0	33	0	109051904	58	4758
2026-01-16 09:11:16.31	140.33	8.42	-46.0	-48.5	14.7	0.00e+00	0	33	0	111149056	58	4751
2026-01-16 09:11:17.32	140.32	8.50	-45.9	-48.4	14.8	0.00e+00	0	33	0	113246208	58	4674
2026-01-16 09:11:18.32	140.30	8.59	-45.9	-48.5	14.7	0.00e+00	0	33	0	114294784	58	4730
2026-01-16 09:11:19.33	140.29	8.67	-45.9	-48.5	14.8	0.00e+00	0	33	0	116391936	58	4710
2026-01-16 09:11:20.34	140.27	8.75	-45.8	-48.2	14.9	0.00e+00	0	33	0	118489088	58	4572
2026-01-16 09:11:21.35	140.25	8.84	-45.8	-48.3	14.9	0.00e+00	0	33	0	120586240	58	4628
2026-01-16 09:11:22.36	140.24	8.92	-45.8	-48.3	14.9	0.00e+00	0	33	0	122683392	58	4636
2026-01-16 09:11:23.37	140.22	9.00	-45.8	-48.2	14.9	0.00e+00	0	33	0	123731968	58	4582
2026-01-16 09:11:24.38	140.21	9.09	-45.9	-48.3	14.9	0.00e+00	0	33	0	125829120	58	4646
2026-01-16 09:11:25.39	140.19	9.17	-45.6	-48.0	15.0	0.00e+00	0	33	0	127926272	57	4724
2026-01-16 09:11:26.40	140.18	9.26	-45.8	-48.2	14.9	0.00e+00	0	33	0	130023424	57	4868
2026-01-16 09:11:27.41	140.16	9.34	-45.7	-48.1	14.9	0.00e+00	0	33	0	132120576	57	4806
2026-01-16 09:11:28.42	140.14	9.43	-45.8	-48.2	14.9	0.00e+00	0	33	0	133169152	57	4868
2026-01-16 09:11:29.42	140.13	9.51	-45.7	-48.1	15.0	0.00e+00	0	33	0	135266304	57	4813
2026-01-16 09:11:30.43	140.11	9.60	-45.7	-48.2	14.9	0.00e+00	0	33	0	137363456	57	4836
2026-01-16 09:11:31.44	140.09	9.69	-45.7	-48.1	15.0	0.00e+00	0	33	0	139460608	57	4803
2026-01-16 09:11:32.45	140.08	9.77	-45.6	-48.0	15.1	0.00e+00	0	33	0	141557760	57	4748
2026-01-16 09:11:33.46	140.06	9.86	-45.6	-47.9	15.1	0.00e+00	0	33	0	142606336	57	4701
2026-01-16 09:11:34.47	140.04	9.95	-45.8	-48.2	15.0	0.00e+00	0	33	0	144703488	57	4835
2026-01-16 09:11:35.47	140.03	10.03	-45.7	-48.1	15.1	0.00e+00	0	33	0	146800640	57	4762
2026-01-16 09:11:36.48	140.01	10.12	-45.5	-47.8	15.2	0.00e+00	0	33	0	148897792	57	4633
2026-01-16 09:11:37.49	139.99	10.21	-45.5	-47.8	15.2	0.00e+00	0	33	0	150994944	57	4603
2026-01-16 09:11:38.50	139.98	10.30	-45.5	-47.8	15.2	0.00e+00	0	33	0	153092096	57	4620
2026-01-16 09:11:39.51	139.96	10.39	-45.5	-47.8	15.2	0.00e+00	0	33	0	154140672	57	4633
2026-01-16 09:11:40.52	139.94	10.48	-45.4	-47.7	15.3	0.00e+00	0	33	0	156237824	57	4553
2026-01-16 09:11:41.53	139.92	10.57	-45.4	-47.7	15.2	0.00e+00	0	33	0	158334976	57	4564
2026-01-16 09:11:42.53	139.90	10.65	-45.5	-47.8	15.2	0.00e+00	0	33	0	160432128	57	4620
2026-01-16 09:11:43.54	139.89	10.75	-45.3	-47.6	15.3	0.00e+00	0	33	0	162529280	57	4502
2026-01-16 09:11:44.55	139.87	10.84	-45.4	-47.6	15.3	0.00e+00	0	33	0	163577856	57	4515
2026-01-16 09:11:45.56	139.85	10.93	-45.3	-47.5	15.4	0.00e+00	0	33	0	165675008	57	4459
2026-01-16 09:11:46.57	139.83	11.02	-45.3	-47.5	15.3	0.00e+00	0	33	0	167772160	56	4718
2026-01-16 09:11:47.58	139.81	11.11	-45.2	-47.4	15.4	0.00e+00	0	33	0	169869312	56	4656
2026-01-16 09:11:48.59	139.79	11.20	-45.1	-47.2	15.5	0.00e+00	0	33	0	171966464	56	4567
2026-01-16 09:11:49.60	139.78	11.29	-45.1	-47.2	15.5	0.00e+00	0	33	0	173015040	56	4577
2026-01-16 09:11:50.60	139.76	11.38	-45.2	-47.4	15.4	0.00e+00	0	33	0	175112192	56	4656
2026-01-16 09:11:51.61	139.74	11.48	-45.1	-47.2	15.5	0.00e+00	0	33	0	177209344	56	4575
2026-01-16 09:11:52.62	139.72	11.57	-45.0	-47.1	15.5	0.00e+00	0	33	0	179306496	56	4531
2026-01-16 09:11:53.63	139.70	11.66	-45.0	-47.2	15.5	0.00e+00	0	33	0	181403648	56	4546
2026-01-16 09:11:54.64	139.68	11.76	-44.9	-46.9	15.6	0.00e+00	0	33	0	182452224	56	4411
2026-01-16 09:11:55.65	139.66	11.85	-44.9	-46.9	15.6	0.00e+00	0	33	0	184549376	56	4416
2026-01-16 09:11:56.66	139.64	11.95	-44.9	-46.9	15.7	0.00e+00	0	33	0	186646528	56	4428
2026-01-16 09:11:57.67	139.62	12.04	-44.6	-46.5	15.7	0.00e+00	0	33	0	188743680	55	4478
2026-01-16 09:11:58.68	139.60	12.14	-44.7	-46.7	15.7	0.00e+00	0	33	0	190840832	55	4559
2026-01-16 09:11:59.68	139.58	12.23	-44.7	-46.7	15.6	0.00e+00	0	33	0	191889408	55	4592
2026-01-16 09:12:00.69	139.56	12.33	-44.6	-46.5	15.7	0.00e+00	0	33	0	193986560	55	4493
2026-01-16 09:12:01.70	139.54	12.43	-44.5	-46.4	15.8	0.00e+00	0	33	0	196083712	55	4429
2026-01-16 09:12:02.71	139.52	12.52	-44.4	-46.3	15.8	0.00e+00	0	33	0	198180864	55	4342
2026-01-16 09:12:03.72	139.50	12.62	-44.5	-46.5	15.8	0.00e+00	0	33	0	200278016	55	4443
2026-01-16 09:12:04.73	139.47	12.72	-44.5	-46.5	15.8	0.00e+00	0	33	0	201326592	55	4452
2026-01-16 09:12:05.74	139.45	12.82	-44.5	-46.4	15.8	0.00e+00	0	33	0	203423744	55	4436
2026-01-16 09:12:06.75	139.43	12.91	-44.4	-46.3	15.8	0.00e+00	0	33	0	205520896	55	4389
2026-01-16 09:12:07.76	139.41	13.01	-44.4	-46.3	15.8	0.00e+00	0	33	0	207618048	55	4391
2026-01-16 09:12:08.77	139.39	13.11	-44.3	-46.1	15.9	0.00e+00	0	33	0	209715200	55	4271
2026-01-16 09:12:09.78	139.37	13.21	-44.2	-46.1	15.9	0.00e+00	0	33	0	210763776	55	4273
2026-01-16 09:12:10.79	139.34	13.31	-44.1	-45.9	16.0	0.00e+00	0	33	0	212860928	54	4428
2026-01-16 09:12:11.80	139.32	13.41	-44.2	-46.1	15.9	0.00e+00	0	33	0	214958080	54	4506
2026-01-16 09:12:12.81	139.30	13.51	-44.2	-46.1	15.9	0.00e+00	0	33	0	217055232	54	4515
2026-01-16 09:12:13.82	139.28	13.61	-44.2	-46.1	15.9	0.00e+00	0	33	0	219152384	54	4496
2026-01-16 09:12:14.83	139.25	13.72	-44.2	-46.0	15.9	0.00e+00	0	33	0	221249536	54	4480
2026-01-16 09:12:15.84	139.23	13.82	-44.2	-46.0	16.0	0.00e+00	0	33	0	222298112	54	4457
2026-01-16 09:12:16.85	139.21	13.92	-44.1	-45.9	16.0	0.00e+00	0	33	0	224395264	54	4427
2026-01-16 09:12:17.86	139.18	14.02	-44.1	-46.0	16.0	0.00e+00	0	33	0	226492416	54	4443
2026-01-16 09:12:18.87	139.16	14.13	-43.8	-45.9	16.0	0.00e+00	0	33	0	228589568	54	4397
2026-01-16 09:12:19.87	139.14	14.23	-43.8	-45.9	16.0	0.00e+00	0	33	0	229638144	54	4394
2026-01-16 09:12:20.88	139.11	14.33	-43.9	-46.0	15.9	0.00e+00	0	33	0	231735296	54	4456
2026-01-16 09:12:21.89	139.09	14.44	-43.9	-46.0	15.9	0.00e+00	0	33	0	233832448	54	4489
2026-01-16 09:12:22.90	139.07	14.54	-43.8	-45.9	15.9	0.00e+00	0	33	0	235929600	54	4421
2026-01-16 09:12:23.91	139.04	14.65	-43.9	-46.0	15.9	0.00e+00	0	33	0	238026752	54	4460
2026-01-16 09:12:24.92	139.02	14.76	-43.9	-46.0	15.9	0.00e+00	0	33	0	239075328	54	4492
2026-01-16 09:12:25.93	138.99	14.86	-43.9	-46.0	15.9	0.00e+00	0	33	0	241172480	54	4479
2026-01-16 09:12:26.93	138.97	14.97	-43.8	-45.9	16.0	0.00e+00	0	33	0	243269632	54	4419
2026-01-16 09:12:27.94	138.94	15.07	-43.9	-46.0	15.9	0.00e+00	0	33	0	245366784	54	4490
2026-01-16 09:12:28.95	138.92	15.18	-44.1	-46.3	15.8	0.00e+00	0	33	0	247463936	54	4624
2026-01-16 09:12:29.96	138.89	15.29	-43.8	-45.9	16.0	0.00e+00	0	33	0	249561088	54	4407
2026-01-16 09:12:30.97	138.86	15.40	-43.9	-46.0	15.9	0.00e+00	0	33	0	250609664	54	4485
2026-01-16 09:12:31.98	138.84	15.51	-43.8	-45.9	16.0	0.00e+00	0	33	0	252706816	54	4414
2026-01-16 09:12:32.98	138.81	15.62	-43.7	-45.7	16.1	0.00e+00	0	33	0	254803968	54	4315
2026-01-16 09:12:33.99	138.78	15.73	-43.6	-45.6	16.1	0.00e+00	0	33	0	256901120	53	4500
2026-01-16 09:12:35.00	138.76	15.84	-43.6	-45.6	16.1	0.00e+00	0	33	0	258998272	53	4530
2026-01-16 09:12:36.01	138.73	15.95	-43.6	-45.6	16.0	0.00e+00	0	33	0	260046848	53	4529
2026-01-16 09:12:37.02	138.70	16.06	-43.7	-45.8	16.0	0.00e+00	0	33	0	262144000	53	4603
2026-01-16 09:12:38.03	138.68	16.17	-43.6	-45.5	16.1	0.00e+00	0	33	0	264241152	53	4491
2026-01-16 09:12:39.04	138.65	16.29	-43.6	-45.6	16.1	0.00e+00	0	33	0	266338304	53	4507
2026-01-16 09:12:40.05	138.62	16.40	-43.6	-45.6	16.1	0.00e+00	0	33	0	268435456	53	4521
2026-01-16 09:12:41.06	138.59	16.51	-43.6	-45.7	16.0	0.00e+00	0	33	0	269484032	53	4549
2026-01-16 09:12:42.07	138.56	16.63	-43.6	-45.6	16.1	0.00e+00	0	33	0	271581184	53	4536
2026-01-16 09:12:43.08	138.53	16.74	-43.6	-45.6	16.1	0.00e+00	0	33	0	273678336	53	4509
2026-01-16 09:12:44.09	138.51	16.86	-43.6	-45.6	16.1	0.00e+00	0	33	0	275775488	53	4519
2026-01-16 09:12:45.10	138.48	16.98	-43.7	-45.8	16.0	0.00e+00	0	33	0	277872640	53	4615
2026-01-16 09:12:46.11	138.45	17.09	-43.7	-45.7	16.1	0.00e+00	0	33	0	278921216	53	4576
2026-01-16 09:12:47.12	138.42	17.21	-43.6	-45.6	16.1	0.00e+00	0	33	0	281018368	53	4538
2026-01-16 09:12:48.12	138.39	17.33	-43.7	-45.7	16.1	0.00e+00	0	33	0	283115520	53	4587
2026-01-16 09:12:49.13	138.36	17.44	-43.8	-45.8	16.0	0.00e+00	0	33	0	285212672	53	4643
2026-01-16 09:12:50.14	138.33	17.56	-43.7	-45.7	16.1	0.00e+00	0	33	0	287309824	53	4588
2026-01-16 09:12:51.15	138.30	17.68	-43.9	-45.9	16.0	0.00e+00	0	33	0	288358400	53	4692
2026-01-16 09:12:52.16	138.27	17.80	-43.9	-45.9	16.0	0.00e+00	0	33	0	290455552	53	4676
2026-01-16 09:12:53.17	138.23	17.92	-44.0	-46.1	15.9	0.00e+00	0	33	0	292552704	53	4806
2026-01-16 09:12:54.18	138.20	18.04	-44.0	-46.1	15.9	0.00e+00	0	33	0	294649856	53	4778
2026-01-16 09:12:55.19	138.17	18.17	-43.9	-46.0	16.0	0.00e+00	0	33	0	296747008	53	4716
2026-01-16 09:12:56.20	138.14	18.29	-43.9	-45.9	16.0	0.00e+00	0	33	0	297795584	53	4697
2026-01-16 09:12:57.21	138.11	18.41	-43.9	-45.9	16.0	0.00e+00	0	33	0	299892736	53	4681
2026-01-16 09:12:58.21	138.07	18.53	-43.9	-45.9	16.0	0.00e+00	0	33	0	301989888	53	4704
2026-01-16 09:12:59.22	138.04	18.66	-44.0	-46.0	16.0	0.00e+00	0	33	0	304087040	53	4738
2026-01-16 09:13:00.23	138.01	18.78	-43.9	-45.9	16.0	0.00e+00	0	33	0	306184192	53	4698
2026-01-16 09:13:01.24	137.97	18.91	-43.9	-45.9	16.0	0.00e+00	0	33	0	307232768	53	4668
2026-01-16 09:13:02.25	137.94	19.03	-44.0	-45.9	16.0	0.00e+00	0	33	0	309329920	53	4702
2026-01-16 09:13:03.26	137.91	19.16	-43.9	-45.9	16.1	0.00e+00	0	33	0	311427072	53	4661
2026-01-16 09:13:04.27	137.87	19.29	-43.9	-45.9	16.1	0.00e+00	0	33	0	313524224	53	4691
2026-01-16 09:13:05.28	137.84	19.41	-43.9	-45.8	16.1	0.00e+00	0	33	0	315621376	53	4635
2026-01-16 09:13:06.29	137.80	19.54	-44.0	-45.9	16.0	0.00e+00	0	33	0	317718528	53	4692
2026-01-16 09:13:07.30	137.77	19.67	-43.9	-45.8	16.1	0.00e+00	0	33	0	318767104	53	4634
2026-01-16 09:13:08.31	137.73	19.80	-43.8	-45.7	16.1	0.00e+00	0	33	0	320864256	53	4562
2026-01-16 09:13:09.32	137.69	19.93	-43.8	-45.7	16.1	0.00e+00	0	33	0	322961408	53	4574
2026-01-16 09:13:10.33	137.66	20.06	-43.7	-45.6	16.2	0.00e+00	0	33	0	325058560	53	4533
2026-01-16 09:13:11.34	137.62	20.20	-43.8	-45.7	16.1	0.00e+00	0	33	0	327155712	53	4550
2026-01-16 09:13:12.34	137.58	20.33	-43.8	-45.7	16.2	0.00e+00	0	33	0	328204288	53	4571
2026-01-16 09:13:13.36	137.55	20.46	-43.9	-45.9	16.1	0.00e+00	0	33	0	330301440	53	4664
2026-01-16 09:13:14.36	137.51	20.59	-43.7	-45.6	16.1	0.00e+00	0	33	0	332398592	53	4541
2026-01-16 09:13:15.37	137.47	20.73	-43.7	-45.6	16.2	0.00e+00	0	33	0	334495744	53	4505
2026-01-16 09:13:16.38	137.43	20.86	-43.6	-45.4	16.2	0.00e+00	0	33	0	336592896	53	4435
2026-01-16 09:13:17.39	137.39	21.00	-43.7	-45.6	16.2	0.00e+00	0	33	0	337641472	53	4497
2026-01-16 09:13:18.40	137.35	21.14	-43.5	-45.4	16.3	0.00e+00	0	33	0	339738624	53	4420
2026-01-16 09:13:19.41	137.31	21.27	-43.6	-45.5	16.3	0.00e+00	0	33	0	341835776	53	4457
2026-01-16 09:13:20.42	137.27	21.41	-43.7	-45.7	16.2	0.00e+00	0	33	0	343932928	53	4553
2026-01-16 09:13:21.43	137.23	21.55	-43.7	-45.6	16.2	0.00e+00	0	33	0	346030080	53	4505
2026-01-16 09:13:22.44	137.19	21.69	-43.8	-45.7	16.2	0.00e+00	0	33	0	347078656	53	4593
2026-01-16 09:13:23.45	137.15	21.83	-43.7	-45.5	16.2	0.00e+00	0	33	0	349175808	53	4492
2026-01-16 09:13:24.46	137.11	21.97	-43.7	-45.6	16.2	0.00e+00	0	33	0	351272960	53	4519
2026-01-16 09:13:25.46	137.07	22.11	-43.8	-45.7	16.2	0.00e+00	0	33	0	353370112	53	4550
2026-01-16 09:13:26.47	137.02	22.26	-43.8	-45.7	16.2	0.00e+00	0	33	0	355467264	53	4585
2026-01-16 09:13:27.48	136.98	22.40	-43.9	-45.9	16.1	0.00e+00	0	33	0	356515840	53	4652
2026-01-16 09:13:28.49	136.94	22.54	-44.0	-46.0	16.1	0.00e+00	0	33	0	358612992	53	4737
2026-01-16 09:13:29.50	136.89	22.69	-43.9	-45.8	16.1	0.00e+00	0	33	0	360710144	53	4618
2026-01-16 09:13:30.51	136.85	22.83	-43.9	-45.9	16.1	0.00e+00	0	33	0	362807296	53	4655
2026-01-16 09:13:31.52	136.80	22.98	-43.8	-45.8	16.2	0.00e+00	0	33	0	364904448	53	4601
2026-01-16 09:13:32.52	136.76	23.13	-43.9	-45.9	16.1	0.00e+00	0	33	0	365953024	53	4661
2026-01-16 09:13:33.53	136.71	23.28	-43.8	-45.6	16.2	0.00e+00	0	33	0	368050176	53	4544
2026-01-16 09:13:34.55	136.67	23.43	-43.8	-45.7	16.2	0.00e+00	0	33	0	370147328	53	4563
2026-01-16 09:13:35.55	136.62	23.57	-43.7	-45.6	16.2	0.00e+00	0	33	0	372244480	53	4530
2026-01-16 09:13:36.56	136.57	23.73	-43.6	-45.5	16.3	0.00e+00	0	33	0	374341632	53	4478
2026-01-16 09:13:37.57	136.53	23.88	-43.7	-45.6	16.2	0.00e+00	0	33	0	375390208	53	4496
2026-01-16 09:13:38.58	136.48	24.03	-43.6	-45.5	16.3	0.00e+00	0	33	0	377487360	53	4464
2026-01-16 09:13:39.59	136.43	24.18	-43.7	-45.6	16.2	0.00e+00	0	33	0	379584512	53	4522
2026-01-16 09:13:40.60	136.38	24.34	-43.9	-45.8	16.1	0.00e+00	0	33	0	381681664	53	4643
2026-01-16 09:13:41.61	136.33	24.49	-43.9	-45.9	16.2	0.00e+00	0	33	0	383778816	53	4677
2026-01-16 09:13:42.62	136.28	24.65	-44.0	-46.1	16.1	0.00e+00	0	33	0	384827392	53	4765
2026-01-16 09:13:43.63	136.23	24.81	-44.4	-46.5	15.9	0.00e+00	0	33	0	386924544	53	5028
2026-01-16 09:13:44.64	136.18	24.96	-44.7	-46.9	15.7	0.00e+00	0	33	0	389021696	54	4950
2026-01-16 09:13:45.65	136.13	25.12	-44.8	-47.0	15.7	0.00e+00	0	33	0	391118848	54	5029
2026-01-16 09:13:46.66	136.07	25.28	-44.8	-47.1	15.7	0.00e+00	0	33	0	393216000	55	4781
2026-01-16 09:13:47.66	136.02	25.44	-45.2	-47.6	15.4	0.00e+00	0	33	0	394264576	55	5051
2026-01-16 09:13:48.67	135.97	25.60	-45.1	-47.4	15.6	0.00e+00	0	33	0	396361728	55	4952
2026-01-16 09:13:49.68	135.92	25.77	-44.9	-47.1	15.7	0.00e+00	0	33	0	398458880	55	4779
2026-01-16 09:13:50.69	135.86	25.93	-45.0	-47.2	15.6	0.00e+00	0	33	0	400556032	55	4849
2026-01-16 09:13:51.70	135.81	26.10	-44.7	-46.8	15.8	0.00e+00	0	33	0	402653184	55	4637
2026-01-16 09:13:52.71	135.75	26.26	-44.8	-47.0	15.7	0.00e+00	0	33	0	403701760	55	4737
2026-01-16 09:13:53.72	135.69	26.43	-45.0	-47.2	15.6	0.00e+00	0	33	0	405798912	55	4862
2026-01-16 09:13:54.73	135.64	26.60	-44.6	-46.8	15.8	0.00e+00	0	33	0	407896064	55	4606
2026-01-16 09:13:55.73	135.58	26.76	-45.1	-47.3	15.6	0.00e+00	0	33	0	409993216	55	4915
2026-01-16 09:13:56.74	135.52	26.93	-45.3	-47.7	15.4	0.00e+00	0	33	0	412090368	55	5126
2026-01-16 09:13:57.75	135.46	27.10	-45.6	-48.1	15.4	0.00e+00	0	33	0	414187520	56	5078
2026-01-16 09:13:58.76	135.40	27.27	-45.8	-48.3	15.2	0.00e+00	0	33	0	415236096	56	5209
2026-01-16 09:13:59.77	135.34	27.45	-45.8	-48.4	15.2	0.00e+00	0	33	0	417333248	57	4949
2026-01-16 09:14:00.78	135.28	27.62	-46.1	-48.8	15.0	0.00e+00	0	33	0	419430400	57	5192
2026-01-16 09:14:01.79	135.22	27.80	-46.1	-48.8	15.0	0.00e+00	0	33	0	421527552	57	5196
2026-01-16 09:14:02.79	135.16	27.97	-45.7	-48.3	15.3	0.00e+00	0	33	0	423624704	57	4880
2026-01-16 09:14:03.80	135.09	28.15	-45.9	-48.5	15.1	0.00e+00	0	33	0	424673280	57	5032
2026-01-16 09:14:04.81	135.03	28.32	-45.8	-48.5	15.1	0.00e+00	0	33	0	426770432	57	4990
2026-01-16 09:14:05.82	134.96	28.50	-45.7	-48.3	15.3	0.00e+00	0	33	0	428867584	57	4887
2026-01-16 09:14:06.83	134.90	28.68	-45.6	-48.1	15.4	0.00e+00	0	33	0	430964736	57	4764
2026-01-16 09:14:07.84	134.83	28.87	-45.4	-47.8	15.5	0.00e+00	0	33	0	433061888	57	4609
2026-01-16 09:14:08.85	134.77	29.05	-45.5	-48.0	15.4	0.00e+00	0	33	0	434110464	57	4726
2026-01-16 09:14:09.86	134.70	29.23	-45.7	-48.2	15.3	0.00e+00	0	33	0	436207616	57	4859
2026-01-16 09:14:10.87	134.63	29.42	-45.5	-47.9	15.5	0.00e+00	0	33	0	438304768	57	4669
2026-01-16 09:14:11.88	134.56	29.60	-46.1	-48.9	15.0	0.00e+00	0	33	0	440401920	57	5224
2026-01-16 09:14:12.89	134.49	29.79	-46.1	-48.9	14.9	0.00e+00	0	34	0	442499072	57	5255
2026-01-16 09:14:13.90	134.42	29.98	-46.2	-49.1	14.8	0.00e+00	0	33	0	443547648	57	5361
2026-01-16 09:14:14.91	134.35	30.17	-46.3	-49.2	14.8	0.00e+00	0	33	0	445644800	57	5419
2026-01-16 09:14:15.92	134.27	30.36	-46.3	-49.3	14.7	0.00e+00	0	33	0	447741952	57	5477
2026-01-16 09:14:16.93	134.20	30.55	-46.3	-49.3	14.8	0.00e+00	0	33	0	449839104	57	5481
2026-01-16 09:14:17.93	134.12	30.74	-46.3	-49.2	14.8	0.00e+00	0	33	0	451936256	57	5452
2026-01-16 09:14:18.94	134.05	30.94	-46.0	-48.8	15.1	0.00e+00	0	33	0	452984832	58	4873
2026-01-16 09:14:19.95	133.97	31.13	-46.0	-48.8	15.1	0.00e+00	0	33	0	455081984	58	4880
2026-01-16 09:14:20.96	133.89	31.33	-46.3	-49.1	14.9	0.00e+00	0	33	0	457179136	58	5045
2026-01-16 09:14:21.97	133.81	31.53	-46.5	-49.5	14.7	0.00e+00	0	33	0	459276288	58	5317
2026-01-16 09:14:22.98	133.74	31.73	-46.6	-49.6	14.6	0.00e+00	0	33	0	461373440	58	5348
2026-01-16 09:14:23.99	133.65	31.93	-46.8	-49.9	14.4	0.00e+00	0	33	0	462422016	59	5225
2026-01-16 09:14:25.00	133.57	32.13	-47.0	-50.2	14.2	0.00e+00	0	33	0	464519168	59	5453
2026-01-16 09:14:26.01	133.49	32.33	-47.1	-50.4	14.1	0.00e+00	0	33	0	466616320	59	5585
2026-01-16 09:14:27.01	133.41	32.54	-46.9	-49.9	14.4	0.00e+00	0	33	0	468713472	59	5279
2026-01-16 09:14:28.02	133.32	32.74	-46.8	-50.0	14.3	0.00e+00	0	33	0	470810624	59	5280
2026-01-16 09:14:29.03	133.24	32.95	-47.2	-50.7	14.0	0.00e+00	0	33	0	471859200	59	5731
2026-01-16 09:14:30.04	133.15	33.16	-46.6	-49.7	14.4	0.00e+00	0	33	0	473956352	59	5124
2026-01-16 09:14:31.05	133.06	33.37	-46.6	-49.7	14.5	0.00e+00	0	33	0	476053504	59	5145
2026-01-16 09:14:32.06	132.97	33.58	-46.4	-49.5	14.5	0.00e+00	0	33	0	478150656	59	5032
2026-01-16 09:14:33.06	132.88	33.79	-46.9	-50.4	14.0	0.00e+00	0	33	0	480247808	59	5589
2026-01-16 09:14:34.07	132.79	34.01	-47.0	-50.7	13.8	0.00e+00	0	33	0	481296384	59	5785
2026-01-16 09:14:35.08	132.69	34.22	-47.1	-51.1	13.6	0.00e+00	0	33	0	483393536	59	6049
2026-01-16 09:14:36.09	132.60	34.44	-47.1	-51.1	13.6	0.00e+00	0	33	0	485490688	59	6002
2026-01-16 09:14:37.10	132.50	34.66	-47.2	-51.3	13.3	0.00e+00	0	33	0	487587840	59	6166
2026-01-16 09:14:38.11	132.41	34.88	-47.1	-50.8	13.7	0.00e+00	0	33	0	489684992	59	5834
2026-01-16 09:14:39.12	132.31	35.10	-46.8	-50.3	14.1	0.00e+00	0	33	0	490733568	59	5482
2026-01-16 09:14:40.13	132.21	35.32	-46.2	-49.4	14.7	0.00e+00	0	33	0	492830720	59	4929
2026-01-16 09:14:41.14	132.10	35.55	-46.4	-49.5	14.6	0.00e+00	0	33	0	494927872	59	5035
2026-01-16 09:14:42.15	132.00	35.77	-46.6	-49.9	14.4	0.00e+00	0	33	0	497025024	59	5243
2026-01-16 09:14:43.16	131.90	36.00	-46.6	-50.0	14.3	0.00e+00	0	33	0	499122176	58	5628
2026-01-16 09:14:44.17	131.79	36.23	-47.0	-50.6	14.0	0.00e+00	0	33	0	500170752	59	5666
2026-01-16 09:14:45.18	131.68	36.46	-47.1	-50.9	13.8	0.00e+00	0	33	0	502267904	59	5856
2026-01-16 09:14:46.19	131.57	36.69	-47.2	-51.1	13.5	0.00e+00	0	33	0	504365056	60	5722
2026-01-16 09:14:47.20	131.46	36.92	-47.1	-50.8	13.6	0.00e+00	0	33	0	506462208	60	5521
2026-01-16 09:14:48.21	131.35	37.16	-47.0	-50.5	14.0	0.00e+00	0	33	0	508559360	59	5629
2026-01-16 09:14:49.21	131.24	37.39	-46.9	-50.4	14.1	0.00e+00	0	33	0	510656512	59	5588
2026-01-16 09:14:50.22	131.12	37.63	-46.5	-49.9	14.4	0.00e+00	0	33	0	511705088	59	5225
2026-01-16 09:14:51.23	131.00	37.87	-46.3	-49.5	14.6	0.00e+00	0	33	0	513802240	59	5013
2026-01-16 09:14:52.24	130.89	38.11	-46.1	-49.2	14.8	0.00e+00	0	33	0	515899392	58	5118
2026-01-16 09:14:53.25	130.76	38.35	-46.0	-48.9	14.9	0.00e+00	0	33	0	517996544	58	4980
2026-01-16 09:14:54.26	130.64	38.60	-46.1	-49.1	14.8	0.00e+00	0	33	0	520093696	58	5081
2026-01-16 09:14:55.27	130.52	38.84	-46.3	-49.5	14.6	0.00e+00	0	33	0	521142272	58	5282
2026-01-16 09:14:56.28	130.39	39.09	-46.8	-50.4	14.0	0.00e+00	0	33	0	523239424	59	5577
2026-01-16 09:14:57.29	130.26	39.34	-46.7	-50.1	14.2	0.00e+00	0	33	0	525336576	59	5400
2026-01-16 09:14:58.29	130.13	39.59	-47.0	-50.7	13.8	0.00e+00	0	33	0	527433728	59	5756
2026-01-16 09:14:59.30	130.00	39.84	-46.9	-50.7	13.9	0.00e+00	0	33	0	529530880	59	5740
2026-01-16 09:15:00.31	129.86	40.10	-47.0	-50.9	13.7	0.00e+00	0	33	0	530579456	59	5878
2026-01-16 09:15:01.32	129.72	40.35	-47.1	-51.0	13.6	0.00e+00	0	33	0	532676608	59	5987
2026-01-16 09:15:02.33	129.58	40.61	-47.0	-50.8	13.9	0.00e+00	0	33	0	534773760	59	5839
2026-01-16 09:15:03.34	129.44	40.87	-46.9	-50.6	14.0	0.00e+00	0	33	0	536870912	59	5662
2026-01-16 09:15:04.35	129.30	41.13	-46.8	-50.4	14.1	0.00e+00	0	33	0	538968064	59	5555
2026-01-16 09:15:05.36	129.15	41.39	-46.7	-50.1	14.3	0.00e+00	0	33	0	540016640	59	5354
2026-01-16 09:15:06.37	129.00	41.65	-46.6	-50.0	14.3	0.00e+00	0	33	0	542113792	59	5293
2026-01-16 09:15:07.38	128.85	41.92	-46.4	-49.6	14.6	0.00e+00	0	33	0	544210944	59	5084
2026-01-16 09:15:08.39	128.70	42.19	-46.3	-49.7	14.6	0.00e+00	0	33	0	546308096	59	5101
2026-01-16 09:15:09.40	128.54	42.46	-46.4	-49.7	14.5	0.00e+00	0	33	0	548405248	59	5141
2026-01-16 09:15:10.41	128.38	42.73	-46.4	-49.8	14.5	0.00e+00	0	33	0	549453824	59	5172
2026-01-16 09:15:11.41	128.22	43.00	-46.5	-50.0	14.2	0.00e+00	0	33	0	551550976	59	5334
2026-01-16 09:15:12.42	128.05	43.27	-46.6	-50.2	14.1	0.00e+00	0	33	0	553648128	59	5419
2026-01-16 09:15:13.43	127.89	43.55	-46.2	-49.7	14.4	0.00e+00	0	33	0	555745280	58	5446
2026-01-16 09:15:14.44	127.71	43.83	-46.5	-50.2	14.1	0.00e+00	0	33	0	557842432	58	5783
2026-01-16 09:15:15.44	127.54	44.10	-46.4	-50.2	14.2	0.00e+00	0	33	0	558891008	58	5755
2026-01-16 09:15:16.45	127.36	44.38	-46.5	-50.5	14.0	0.00e+00	0	33	0	560988160	58	5970
2026-01-16 09:15:17.46	127.18	44.67	-45.9	-49.2	14.7	0.00e+00	0	33	0	563085312	58	5114
2026-01-16 09:15:18.47	127.00	44.95	-45.8	-49.1	14.8	0.00e+00	0	33	0	565182464	58	5078
2026-01-16 09:15:19.48	126.81	45.24	-45.3	-48.2	15.2	0.00e+00	0	33	0	567279616	57	4861
2026-01-16 09:15:20.49	126.62	45.52	-45.1	-47.9	15.3	0.00e+00	0	33	0	568328192	56	4983
2026-01-16 09:15:21.50	126.43	45.81	-45.2	-48.1	15.3	0.00e+00	0	33	0	570425344	56	5074
2026-01-16 09:15:22.50	126.23	46.10	-45.4	-48.5	15.1	0.00e+00	0	33	0	572522496	56	5313
2026-01-16 09:15:23.51	126.03	46.39	-45.9	-49.2	14.7	0.00e+00	0	33	0	574619648	56	5734
2026-01-16 09:15:24.53	125.82	46.69	-45.7	-48.7	15.0	0.00e+00	0	33	0	576716800	57	5147
2026-01-16 09:15:25.54	125.61	46.99	-45.6	-48.6	15.0	0.00e+00	0	33	0	577765376	57	5069
2026-01-16 09:15:26.54	125.40	47.28	-45.3	-48.0	15.3	0.00e+00	0	33	0	579862528	56	4998
2026-01-16 09:15:27.55	125.18	47.58	-44.9	-47.4	15.6	0.00e+00	0	33	0	581959680	56	4657
2026-01-16 09:15:28.56	124.96	47.88	-45.0	-47.5	15.6	0.00e+00	0	33	0	584056832	56	4747
2026-01-16 09:15:29.57	124.73	48.19	-45.6	-48.4	15.2	0.00e+00	0	33	0	586153984	56	5262
2026-01-16 09:15:30.58	124.50	48.49	-45.9	-48.9	14.9	0.00e+00	0	33	0	587202560	57	5235
2026-01-16 09:15:31.59	124.27	48.80	-45.8	-48.9	14.9	0.00e+00	0	33	0	589299712	57	5249
2026-01-16 09:15:32.60	124.03	49.10	-45.6	-48.5	15.1	0.00e+00	0	33	0	591396864	57	5027
2026-01-16 09:15:33.60	123.78	49.41	-45.1	-47.6	15.6	0.00e+00	0	33	0	593494016	56	4810
2026-01-16 09:15:34.61	123.53	49.72	-45.1	-47.6	15.6	0.00e+00	0	33	0	595591168	56	4806
2026-01-16 09:15:35.62	123.28	50.03	-45.0	-47.4	15.7	0.00e+00	0	33	0	596639744	56	4679
2026-01-16 09:15:36.63	123.02	50.35	-45.1	-47.5	15.6	0.00e+00	0	33	0	598736896	56	4733
2026-01-16 09:15:37.64	122.75	50.66	-44.8	-47.1	15.9	0.00e+00	0	33	0	600834048	56	4498
2026-01-16 09:15:38.65	122.48	50.98	-44.3	-46.5	16.0	0.00e+00	0	33	0	602931200	54	4725
2026-01-16 09:15:39.65	122.20	51.29	-44.3	-46.4	16.0	0.00e+00	0	33	0	605028352	54	4676
2026-01-16 09:15:40.66	121.92	51.61	-44.3	-46.5	15.9	0.00e+00	0	33	0	607125504	54	4730
2026-01-16 09:15:41.67	121.63	51.93	-45.1	-47.6	15.5	0.00e+00	0	33	0	608174080	55	5080
2026-01-16 09:15:42.68	121.33	52.26	-45.8	-48.6	15.0	0.00e+00	0	33	0	610271232	56	5386
2026-01-16 09:15:43.68	121.03	52.58	-45.5	-48.1	15.2	0.00e+00	0	33	0	612368384	56	5060
2026-01-16 09:15:44.69	120.72	52.90	-45.0	-47.3	15.7	0.00e+00	0	34	0	614465536	56	4639
2026-01-16 09:15:45.70	120.40	53.23	-44.4	-46.4	16.0	0.00e+00	0	33	0	616562688	55	4427
2026-01-16 09:15:46.71	120.08	53.56	-44.2	-46.2	16.1	0.00e+00	0	33	0	617611264	54	4578
2026-01-16 09:15:47.72	119.74	53.88	-44.7	-46.9	15.8	0.00e+00	0	33	0	619708416	54	4935
2026-01-16 09:15:48.73	119.41	54.21	-45.5	-48.0	15.3	0.00e+00	0	33	0	621805568	56	5025
2026-01-16 09:15:49.74	119.06	54.54	-45.6	-48.2	15.2	0.00e+00	0	33	0	623902720	57	4832
2026-01-16 09:15:50.75	118.70	54.88	-45.3	-47.8	15.4	0.00e+00	0	33	0	625999872	57	4635
2026-01-16 09:15:51.75	118.34	55.20	-44.9	-47.3	15.7	0.00e+00	0	33	0	627048448	56	4607
2026-01-16 09:15:52.77	117.96	55.54	-44.6	-46.8	15.8	0.00e+00	0	33	0	629145600	55	4617
2026-01-16 09:15:53.77	117.58	55.87	-44.9	-47.2	15.6	0.00e+00	0	33	0	631242752	55	4827
2026-01-16 09:15:54.78	117.19	56.21	-45.0	-47.4	15.5	0.00e+00	0	33	0	633339904	55	4983
2026-01-16 09:15:55.79	116.79	56.54	-45.4	-48.0	15.3	0.00e+00	0	33	0	635437056	56	5001
2026-01-16 09:15:56.80	116.38	56.88	-45.2	-47.7	15.5	0.00e+00	0	33	0	636485632	56	4822
2026-01-16 09:15:57.81	115.96	57.22	-45.1	-47.5	15.5	0.00e+00	0	33	0	638582784	56	4737
2026-01-16 09:15:58.82	115.53	57.55	-45.3	-47.8	15.4	0.00e+00	0	33	0	640679936	56	4873
2026-01-16 09:15:59.83	115.08	57.89	-45.3	-47.8	15.4	0.00e+00	0	33	0	642777088	56	4892
2026-01-16 09:16:00.84	114.63	58.23	-45.9	-48.6	15.0	0.00e+00	0	33	0	644874240	56	5356
2026-01-16 09:16:01.85	114.16	58.57	-46.3	-49.4	14.6	0.00e+00	0	33	0	645922816	58	5257
2026-01-16 09:16:02.86	113.68	58.90	-46.5	-49.7	14.3	0.00e+00	0	33	0	648019968	58	5408
2026-01-16 09:16:03.86	113.20	59.24	-46.2	-49.1	14.8	0.00e+00	0	33	0	650117120	58	5076
2026-01-16 09:16:04.87	112.70	59.58	-45.7	-48.3	15.2	0.00e+00	0	33	0	652214272	58	4641
2026-01-16 09:16:05.88	112.18	59.91	-45.5	-48.1	15.3	0.00e+00	0	33	0	654311424	57	4765
2026-01-16 09:16:06.89	111.65	60.25	-45.7	-48.3	15.2	0.00e+00	0	33	0	655360000	57	4907
2026-01-16 09:16:07.90	111.10	60.59	-46.0	-48.7	15.0	0.00e+00	0	33	0	657457152	57	5143
2026-01-16 09:16:08.91	110.54	60.92	-46.1	-48.9	14.9	0.00e+00	0	33	0	659554304	57	5244
2026-01-16 09:16:09.91	109.97	61.26	-45.5	-48.1	15.3	0.00e+00	0	33	0	661651456	57	4778
2026-01-16 09:16:10.92	109.38	61.59	-45.0	-47.3	15.7	0.00e+00	0	33	0	663748608	56	4646
2026-01-16 09:16:11.93	108.78	61.93	-44.9	-47.2	15.8	0.00e+00	0	33	0	664797184	56	4560
2026-01-16 09:16:12.94	108.15	62.26	-44.9	-47.3	15.7	0.00e+00	0	33	0	666894336	56	4614
2026-01-16 09:16:13.95	107.51	62.59	-44.7	-47.0	15.8	0.00e+00	0	33	0	668991488	56	4452
2026-01-16 09:16:14.96	106.85	62.92	-43.5	-45.4	16.4	0.00e+00	0	33	0	671088640	53	4417
2026-01-16 09:16:15.97	106.18	63.25	-43.2	-44.9	16.5	0.00e+00	0	33	0	673185792	52	4421
2026-01-16 09:16:16.98	105.48	63.57	-43.9	-45.9	16.2	0.00e+00	0	33	0	675282944	52	4930
2026-01-16 09:16:17.99	104.77	63.89	-45.1	-47.6	15.5	0.00e+00	0	33	0	676331520	55	5064
2026-01-16 09:16:19.00	104.03	64.22	-44.7	-47.0	15.7	0.00e+00	0	33	0	678428672	55	4747
2026-01-16 09:16:20.01	103.27	64.53	-43.9	-45.9	16.3	0.00e+00	0	33	0	680525824	54	4403
2026-01-16 09:16:21.01	102.50	64.85	-44.0	-45.9	16.2	0.00e+00	0	33	0	682622976	53	4699
2026-01-16 09:16:22.02	101.70	65.16	-44.4	-46.5	15.9	0.00e+00	0	33	0	683671552	54	4758
2026-01-16 09:16:23.03	100.88	65.47	-45.1	-47.6	15.5	0.00e+00	0	33	0	685768704	55	5062
2026-01-16 09:16:24.04	100.03	65.78	-45.6	-48.1	15.5	0.00e+00	0	33	0	687865856	56	5096
2026-01-16 09:16:25.05	99.16	66.08	-45.9	-48.4	15.3	0.00e+00	0	33	0	689963008	57	4962
2026-01-16 09:16:26.06	98.27	66.38	-46.4	-49.1	15.0	0.00e+00	0	33	0	692060160	58	5076
2026-01-16 09:16:27.07	97.35	66.67	-46.9	-50.0	14.5	0.00e+00	0	33	0	693108736	59	5320
2026-01-16 09:16:28.08	96.41	66.96	-47.4	-50.8	14.0	0.00e+00	0	33	0	695205888	59	5813
2026-01-16 09:16:29.09	95.44	67.24	-47.1	-50.3	14.2	0.00e+00	0	33	0	697303040	59	5469
2026-01-16 09:16:30.10	94.44	67.52	-47.1	-50.2	14.3	0.00e+00	0	33	0	699400192	59	5436
2026-01-16 09:16:31.10	93.42	67.79	-45.7	-48.0	15.4	0.00e+00	0	33	0	701497344	58	4493
2026-01-16 09:16:32.11	92.37	68.06	-44.9	-46.9	15.9	0.00e+00	0	33	0	702545920	56	4425
2026-01-16 09:16:33.12	91.29	68.32	-45.1	-47.2	15.8	0.00e+00	0	33	0	704643072	56	4592
2026-01-16 09:16:34.13	90.18	68.58	-45.9	-48.3	15.3	0.00e+00	0	33	0	706740224	57	4920
2026-01-16 09:16:35.14	89.05	68.83	-45.9	-48.2	15.5	0.00e+00	0	33	0	708837376	57	4854
2026-01-16 09:16:36.15	87.88	69.07	-45.7	-48.0	15.5	0.00e+00	0	33	0	710934528	57	4720
2026-01-16 09:16:37.16	86.68	69.30	-46.3	-48.9	15.1	0.00e+00	0	33	0	713031680	58	4941
2026-01-16 09:16:38.17	85.46	69.52	-47.2	-50.5	14.0	0.00e+00	0	33	0	714080256	60	5304
2026-01-16 09:16:39.18	84.21	69.74	-46.5	-49.1	15.0	0.00e+00	0	33	0	716177408	59	4785
2026-01-16 09:16:40.19	82.93	69.95	-46.0	-48.3	15.4	0.00e+00	0	33	0	718274560	58	4629
2026-01-16 09:16:41.20	81.62	70.15	-46.9	-49.7	14.7	0.00e+00	0	33	0	720371712	58	5457
2026-01-16 09:16:42.20	80.30	70.33	-47.1	-50.2	14.2	0.00e+00	0	33	0	722468864	60	5137
2026-01-16 09:16:43.21	78.93	70.51	-46.9	-49.7	14.7	0.00e+00	0	33	0	723517440	59	5122
2026-01-16 09:16:44.22	77.55	70.68	-47.4	-50.3	14.4	0.00e+00	0	33	0	725614592	59	5498
2026-01-16 09:16:45.23	76.13	70.84	-47.2	-50.1	14.4	0.00e+00	0	33	0	727711744	60	5045
2026-01-16 09:16:46.24	74.69	70.99	-47.0	-49.9	14.4	0.00e+00	0	33	0	729808896	60	4965
2026-01-16 09:16:47.25	73.23	71.12	-48.1	-51.8	13.2	0.00e+00	0	33	0	731906048	61	5792
2026-01-16 09:16:48.26	71.75	71.25	-48.4	-52.2	12.9	0.00e+00	0	33	0	732954624	62	5781
2026-01-16 09:16:49.27	70.24	71.36	-48.5	-52.6	12.5	1.06e-05	0	33	0	735051776	62	6036
2026-01-16 09:16:50.28	68.72	71.46	-48.8	-53.3	11.8	4.65e-05	0	33	0	737148928	63	6190
2026-01-16 09:16:51.29	67.19	71.55	-47.5	-50.8	13.7	7.09e-05	0	33	0	739246080	61	5205
2026-01-16 09:16:52.30	65.63	71.62	-46.5	-49.0	15.0	0.00e+00	0	33	0	741343232	59	4754
2026-01-16 09:16:53.31	64.07	71.68	-46.5	-49.2	15.0	0.00e+00	0	33	0	742391808	59	4860
2026-01-16 09:16:54.32	62.49	71.73	-47.0	-50.2	14.2	0.00e+00	0	34	0	744488960	60	5148
2026-01-16 09:16:55.33	60.91	71.77	-47.0	-50.2	14.1	0.00e+00	0	33	0	746586112	60	5141
2026-01-16 09:16:56.33	59.34	71.79	-46.8	-49.7	14.7	0.00e+00	0	33	0	748683264	59	5112
2026-01-16 09:16:57.34	57.75	71.80	-46.9	-50.0	14.4	0.00e+00	0	33	0	750780416	59	5317
2026-01-16 09:16:58.35	56.16	71.80	-46.1	-48.6	15.2	0.00e+00	0	33	0	751828992	58	4807
2026-01-16 09:16:59.36	54.57	71.78	-46.0	-48.5	15.4	0.00e+00	0	33	0	753926144	58	4709
2026-01-16 09:17:00.37	52.98	71.75	-45.9	-48.3	15.5	0.00e+00	0	33	0	756023296	57	4903
2026-01-16 09:17:01.38	51.41	71.71	-46.1	-48.6	15.3	0.00e+00	0	33	0	758120448	58	4775
2026-01-16 09:17:02.39	49.84	71.65	-45.9	-48.2	15.6	0.00e+00	0	33	0	760217600	58	4585
2026-01-16 09:17:03.40	48.28	71.58	-46.1	-48.4	15.5	0.00e+00	0	33	0	761266176	58	4691
2026-01-16 09:17:04.41	46.74	71.50	-46.3	-48.7	15.2	0.00e+00	0	33	0	763363328	58	4861
2026-01-16 09:17:05.41	45.22	71.40	-46.3	-48.7	15.3	0.00e+00	0	33	0	765460480	58	4852
2026-01-16 09:17:06.42	43.71	71.30	-47.0	-49.8	14.6	0.00e+00	0	33	0	767557632	59	5162
2026-01-16 09:17:07.43	42.22	71.18	-47.1	-50.0	14.4	0.00e+00	0	33	0	769654784	60	5036
2026-01-16 09:17:08.44	40.75	71.05	-47.0	-49.8	14.8	0.00e+00	0	34	0	770703360	59	5169
2026-01-16 09:17:09.44	39.32	70.91	-47.1	-49.9	14.5	0.00e+00	0	33	0	772800512	59	5269
2026-01-16 09:17:10.45	37.89	70.75	-47.0	-49.8	14.7	0.00e+00	0	33	0	774897664	59	5191
2026-01-16 09:17:11.46	36.49	70.59	-47.1	-50.1	14.3	0.00e+00	0	34	0	776994816	60	5064
2026-01-16 09:17:12.47	35.12	70.41	-47.4	-50.5	14.0	0.00e+00	0	33	0	779091968	60	5305
2026-01-16 09:17:13.48	33.77	70.23	-46.8	-49.4	14.8	0.00e+00	0	34	0	781189120	59	4977
2026-01-16 09:17:14.49	32.45	70.04	-47.4	-50.6	14.2	0.00e+00	0	33	0	782237696	59	5690
2026-01-16 09:17:15.50	31.16	69.83	-48.3	-52.4	12.7	0.00e+00	0	34	0	784334848	62	5884
2026-01-16 09:17:16.50	29.91	69.62	-48.0	-51.8	13.2	2.20e-06	0	33	0	786432000	62	5470
2026-01-16 09:17:17.51	28.67	69.40	-47.2	-50.3	14.2	0.00e+00	0	33	0	788529152	60	5192
2026-01-16 09:17:18.52	27.47	69.17	-48.3	-52.3	12.9	0.00e+00	0	33	0	789577728	61	6157
2026-01-16 09:17:19.53	26.29	68.94	-47.0	-49.8	14.5	0.00e+00	0	33	0	791674880	60	4891
2026-01-16 09:17:20.54	25.14	68.69	-46.8	-49.4	15.0	0.00e+00	0	34	0	793772032	59	4968
2026-01-16 09:17:21.55	24.02	68.44	-47.1	-50.0	14.6	0.00e+00	0	33	0	795869184	59	5297
2026-01-16 09:17:22.56	22.93	68.18	-47.0	-49.8	14.5	0.00e+00	0	33	0	797966336	60	4919
2026-01-16 09:17:23.57	21.86	67.92	-47.0	-49.8	14.8	0.00e+00	0	33	0	799014912	59	5167
2026-01-16 09:17:24.58	20.83	67.65	-47.0	-49.8	14.8	0.00e+00	0	34	0	801112064	59	5188
2026-01-16 09:17:25.59	19.82	67.37	-46.4	-48.9	15.1	0.00e+00	0	33	0	803209216	59	4700
2026-01-16 09:17:26.60	18.84	67.09	-45.5	-47.6	15.7	0.00e+00	0	33	0	805306368	57	4511
2026-01-16 09:17:27.61	17.88	66.80	-45.7	-48.1	15.4	0.00e+00	0	33	0	807403520	57	4787
2026-01-16 09:17:28.62	16.95	66.51	-46.8	-49.8	14.5	0.00e+00	0	34	0	809500672	58	5476
2026-01-16 09:17:29.62	16.06	66.22	-46.5	-49.4	14.8	0.00e+00	0	33	0	810549248	59	4974
2026-01-16 09:17:30.63	15.18	65.92	-45.8	-48.2	15.4	0.00e+00	0	33	0	812646400	57	4816
2026-01-16 09:17:31.64	14.32	65.61	-45.7	-48.1	15.5	0.00e+00	0	33	0	814743552	57	4764
2026-01-16 09:17:32.65	13.49	65.31	-45.4	-47.6	15.7	0.00e+00	0	33	0	816840704	57	4542
2026-01-16 09:17:33.66	12.68	64.99	-45.4	-47.7	15.8	0.00e+00	0	33	0	818937856	57	4563
2026-01-16 09:17:34.67	11.89	64.68	-44.9	-47.0	15.9	0.00e+00	0	33	0	819986432	56	4455
2026-01-16 09:17:35.68	11.13	64.36	-43.5	-45.3	16.5	0.00e+00	0	34	0	822083584	53	4352
2026-01-16 09:17:36.69	10.38	64.04	-43.6	-45.4	16.5	0.00e+00	0	33	0	824180736	53	4423
2026-01-16 09:17:37.69	9.67	63.72	-43.8	-45.6	16.4	0.00e+00	0	34	0	826277888	53	4524
2026-01-16 09:17:38.70	8.96	63.40	-43.5	-45.3	16.5	0.00e+00	0	34	0	828375040	53	4355
2026-01-16 09:17:39.71	8.28	63.07	-43.5	-45.3	16.5	0.00e+00	0	34	0	829423616	53	4361
2026-01-16 09:17:40.72	7.61	62.75	-43.8	-45.6	16.4	0.00e+00	0	34	0	831520768	53	4514
2026-01-16 09:17:41.73	6.96	62.42	-44.4	-46.4	16.1	0.00e+00	0	33	0	833617920	54	4670
2026-01-16 09:17:42.74	6.33	62.09	-43.8	-45.7	16.4	0.00e+00	0	34	0	835715072	54	4299
2026-01-16 09:17:43.75	5.72	61.75	-44.2	-46.2	16.1	0.00e+00	0	34	0	837812224	54	4554
2026-01-16 09:17:44.76	5.12	61.42	-45.1	-47.5	15.7	0.00e+00	0	33	0	838860800	55	4995
2026-01-16 09:17:45.76	4.55	61.09	-45.3	-47.7	15.6	0.00e+00	0	34	0	840957952	56	4862
2026-01-16 09:17:46.77	3.98	60.75	-45.5	-48.0	15.4	0.00e+00	0	33	0	843055104	56	5041
2026-01-16 09:17:47.78	3.43	60.42	-45.8	-48.5	15.2	0.00e+00	0	34	0	845152256	57	5022
2026-01-16 09:17:48.79	2.89	60.08	-45.6	-48.2	15.4	0.00e+00	0	33	0	847249408	57	4824
2026-01-16 09:17:49.80	2.37	59.74	-45.6	-48.2	15.4	0.00e+00	0	33	0	848297984	57	4841
2026-01-16 09:17:50.81	1.86	59.41	-46.5	-49.6	14.7	0.00e+00	0	33	0	850395136	58	5341
2026-01-16 09:17:51.82	1.37	59.07	-46.1	-49.0	14.9	0.00e+00	0	33	0	852492288	58	4999
2026-01-16 09:17:52.83	0.88	58.73	-45.5	-48.1	15.3	0.00e+00	0	33	0	854589440	57	4760
2026-01-16 09:17:53.84	0.41	58.40	-45.2	-47.5	15.6	0.00e+00	0	33	0	856686592	56	4747
2026-01-16 09:17:54.85	359.95	58.06	-44.5	-46.7	16.0	0.00e+00	0	33	0	857735168	55	4556
2026-01-16 09:17:55.86	359.51	57.72	-45.1	-47.4	15.7	0.00e+00	0	33	0	859832320	55	4965
2026-01-16 09:17:56.87	359.07	57.38	-45.6	-48.1	15.4	0.00e+00	0	33	0	861929472	57	4789
2026-01-16 09:17:57.87	358.65	57.05	-45.2	-47.5	15.7	0.00e+00	0	33	0	864026624	56	4725
2026-01-16 09:17:58.88	358.23	56.72	-44.8	-47.0	15.9	0.00e+00	0	33	0	866123776	56	4444
2026-01-16 09:17:59.89	357.83	56.38	-44.0	-46.0	16.2	0.00e+00	0	33	0	867172352	54	4445
2026-01-16 09:18:00.90	357.43	56.05	-42.8	-44.5	16.7	0.00e+00	0	33	0	869269504	52	4231
2026-01-16 09:18:01.91	357.05	55.71	-43.0	-44.8	16.6	0.00e+00	0	33	0	871366656	52	4354
2026-01-16 09:18:02.92	356.67	55.38	-43.7	-45.6	16.3	0.00e+00	0	33	0	873463808	52	4783
2026-01-16 09:18:03.93	356.30	55.05	-43.8	-45.7	16.2	0.00e+00	0	33	0	875560960	53	4595
2026-01-16 09:18:04.94	355.94	54.72	-43.9	-45.9	16.2	0.00e+00	0	33	0	877658112	53	4655
2026-01-16 09:18:05.95	355.59	54.39	-44.9	-47.3	15.7	0.00e+00	0	33	0	878706688	55	4910
2026-01-16 09:18:06.96	355.25	54.06	-45.5	-48.1	15.4	0.00e+00	0	33	0	880803840	56	5078
2026-01-16 09:18:07.96	354.92	53.73	-45.6	-48.4	15.2	0.00e+00	0	33	0	882900992	56	5224
2026-01-16 09:18:08.97	354.59	53.41	-46.0	-48.9	15.0	0.00e+00	0	33	0	884998144	57	5264
2026-01-16 09:18:09.98	354.27	53.08	-46.2	-49.3	14.7	0.00e+00	0	33	0	887095296	57	5468
2026-01-16 09:18:10.99	353.96	52.76	-45.5	-48.2	15.2	0.00e+00	0	33	0	888143872	57	4852
2026-01-16 09:18:12.00	353.65	52.43	-45.1	-47.6	15.6	0.00e+00	0	33	0	890241024	56	4768
2026-01-16 09:18:13.01	353.35	52.11	-44.8	-47.2	15.7	0.00e+00	0	34	0	892338176	56	4555
2026-01-16 09:18:14.02	353.06	51.79	-44.9	-47.3	15.7	0.00e+00	0	34	0	894435328	56	4606
2026-01-16 09:18:15.03	352.77	51.47	-44.5	-46.7	15.9	0.00e+00	0	33	0	896532480	55	4574
2026-01-16 09:18:16.04	352.49	51.15	-44.6	-46.8	15.9	0.00e+00	0	33	0	897581056	54	4906
2026-01-16 09:18:17.05	352.22	50.84	-44.6	-46.8	15.8	0.00e+00	0	33	0	899678208	55	4639
2026-01-16 09:18:18.06	351.95	50.52	-44.2	-46.3	16.1	0.00e+00	0	33	0	901775360	55	4365
2026-01-16 09:18:19.07	351.68	50.21	-43.9	-45.9	16.2	0.00e+00	0	33	0	903872512	54	4406
2026-01-16 09:18:20.08	351.43	49.90	-44.1	-46.3	16.1	0.00e+00	0	33	0	905969664	54	4607
2026-01-16 09:18:21.09	351.17	49.58	-45.2	-47.9	15.4	0.00e+00	0	33	0	907018240	55	5220
2026-01-16 09:18:22.09	350.93	49.28	-45.6	-48.3	15.2	0.00e+00	0	33	0	909115392	56	5207
2026-01-16 09:18:23.10	350.69	48.97	-45.5	-48.2	15.3	0.00e+00	0	34	0	911212544	56	5106
2026-01-16 09:18:24.11	350.45	48.67	-45.5	-48.1	15.3	0.00e+00	0	33	0	913309696	56	5100
2026-01-16 09:18:25.12	350.22	48.36	-46.3	-49.3	14.8	0.00e+00	0	33	0	915406848	57	5477
2026-01-16 09:18:26.13	349.99	48.06	-47.1	-50.5	14.2	0.00e+00	0	33	0	916455424	59	5612
2026-01-16 09:18:27.14	349.76	47.76	-46.8	-50.0	14.4	0.00e+00	0	33	0	918552576	59	5332
2026-01-16 09:18:28.15	349.54	47.46	-46.7	-49.8	14.5	0.00e+00	0	33	0	920649728	59	5194
2026-01-16 09:18:29.16	349.33	47.16	-47.1	-50.4	14.2	0.00e+00	0	34	0	922746880	59	5584
2026-01-16 09:18:30.17	349.12	46.86	-47.6	-51.6	13.2	0.00e+00	0	33	0	924844032	60	6026
2026-01-16 09:18:31.18	348.91	46.57	-47.4	-51.2	13.5	0.00e+00	0	33	0	925892608	60	5755
2026-01-16 09:18:32.19	348.71	46.28	-46.6	-49.5	14.8	0.00e+00	0	34	0	927989760	59	4989
2026-01-16 09:18:33.19	348.51	45.99	-46.0	-48.6	15.3	0.00e+00	0	33	0	930086912	58	4764
2026-01-16 09:18:34.20	348.32	45.70	-46.1	-48.8	15.3	0.00e+00	0	33	0	932184064	58	4900
2026-01-16 09:18:35.21	348.12	45.41	-47.0	-50.3	14.3	0.00e+00	0	33	0	934281216	59	5513
2026-01-16 09:18:36.22	347.94	45.13	-46.6	-49.6	14.8	0.00e+00	0	33	0	935329792	59	5050
2026-01-16 09:18:37.23	347.75	44.84	-46.1	-48.7	15.2	0.00e+00	0	33	0	937426944	58	4868
2026-01-16 09:18:38.24	347.57	44.56	-46.3	-49.0	15.1	0.00e+00	0	33	0	939524096	58	4987
2026-01-16 09:18:39.25	347.39	44.28	-47.2	-50.5	14.2	0.00e+00	0	34	0	941621248	59	5603
2026-01-16 09:18:40.26	347.21	44.00	-47.4	-51.0	13.7	0.00e+00	0	33	0	943718400	60	5601
2026-01-16 09:18:41.27	347.04	43.72	-47.3	-50.7	13.6	0.00e+00	0	33	0	944766976	60	5461
2026-01-16 09:18:42.27	346.88	43.45	-46.5	-49.2	14.9	0.00e+00	0	33	0	946864128	59	4857
2026-01-16 09:18:43.28	346.71	43.17	-46.5	-49.3	14.9	0.00e+00	0	33	0	948961280	59	4906
2026-01-16 09:18:44.29	346.55	42.90	-46.3	-48.9	15.1	0.00e+00	0	33	0	951058432	59	4683
2026-01-16 09:18:45.30	346.39	42.63	-47.0	-50.0	14.5	0.00e+00	0	33	0	953155584	59	5331
2026-01-16 09:18:46.31	346.23	42.36	-47.0	-50.1	14.4	0.00e+00	0	34	0	954204160	59	5360
2026-01-16 09:18:47.32	346.07	42.09	-47.1	-50.2	14.3	0.00e+00	0	33	0	956301312	59	5457
2026-01-16 09:18:48.33	345.92	41.83	-46.5	-49.3	15.0	0.00e+00	0	33	0	958398464	59	4904
2026-01-16 09:18:49.33	345.77	41.57	-46.9	-49.9	14.6	0.00e+00	0	34	0	960495616	59	5237
2026-01-16 09:18:50.34	345.62	41.30	-46.8	-49.6	14.6	0.00e+00	0	33	0	962592768	59	5083
2026-01-16 09:18:51.35	345.48	41.04	-46.8	-49.7	14.8	0.00e+00	0	33	0	963641344	59	5139
2026-01-16 09:18:52.36	345.34	40.78	-46.5	-49.3	15.0	0.00e+00	0	33	0	965738496	59	4893
2026-01-16 09:18:53.37	345.20	40.53	-47.3	-50.5	14.2	0.00e+00	0	33	0	967835648	59	5656
2026-01-16 09:18:54.38	345.06	40.27	-46.9	-49.9	14.4	0.00e+00	0	33	0	969932800	60	4962
2026-01-16 09:18:55.39	344.92	40.02	-47.4	-50.8	13.9	0.00e+00	0	34	0	972029952	60	5516
2026-01-16 09:18:56.39	344.79	39.77	-48.6	-53.3	12.2	1.50e-06	0	33	0	974127104	62	6513
2026-01-16 09:18:57.40	344.66	39.52	-49.0	-54.5	11.0	1.26e-04	0	34	0	975175680	63	7069
2026-01-16 09:18:58.41	344.53	39.27	-48.8	-54.0	11.1	5.29e-04	0	34	0	977272832	63	6695
2026-01-16 09:18:59.42	344.40	39.02	-48.2	-52.5	12.4	2.20e-06	0	33	0	979369984	62	5977
2026-01-16 09:19:00.43	344.27	38.77	-47.2	-50.5	13.9	0.00e+00	0	33	0	981467136	61	5008
2026-01-16 09:19:01.44	344.15	38.53	-46.9	-49.7	14.6	0.00e+00	0	34	0	983564288	59	5155
2026-01-16 09:19:02.45	344.03	38.29	-46.1	-48.6	15.2	0.00e+00	0	34	0	984612864	58	4809
2026-01-16 09:19:03.46	343.91	38.05	-45.2	-47.5	15.8	0.00e+00	0	34	0	986710016	57	4446
2026-01-16 09:19:04.47	343.79	37.81	-44.9	-47.0	16.0	0.00e+00	0	33	0	988807168	56	4484
2026-01-16 09:19:05.48	343.67	37.57	-44.5	-46.6	16.1	0.00e+00	0	34	0	990904320	55	4504
2026-01-16 09:19:06.49	343.56	37.33	-44.8	-46.9	15.9	0.00e+00	0	34	0	993001472	55	4661
2026-01-16 09:19:07.49	343.45	37.10	-44.9	-47.1	15.8	0.00e+00	0	33	0	994050048	55	4775
2026-01-16 09:19:08.50	343.34	36.87	-45.9	-48.5	15.3	0.00e+00	0	33	0	996147200	56	5282
2026-01-16 09:19:09.51	343.23	36.63	-46.5	-49.4	14.8	0.00e+00	0	33	0	998244352	58	5247
2026-01-16 09:19:10.52	343.12	36.40	-47.3	-50.9	13.7	0.00e+00	0	34	0	1000341504	60	5538
2026-01-16 09:19:11.53	343.01	36.17	-47.4	-51.0	13.6	0.00e+00	0	34	0	1002438656	60	5593
2026-01-16 09:19:12.54	342.91	35.95	-47.2	-50.7	13.8	0.00e+00	0	33	0	1003487232	60	5406
2026-01-16 09:19:13.55	342.80	35.72	-47.3	-50.8	13.7	0.00e+00	0	34	0	1005584384	60	5488
2026-01-16 09:19:14.56	342.70	35.50	-47.3	-50.8	13.6	0.00e+00	0	33	0	1007681536	60	5520
2026-01-16 09:19:15.57	342.60	35.27	-46.9	-50.3	14.0	0.00e+00	0	34	0	1009778688	60	5181
2026-01-16 09:19:16.58	342.50	35.05	-46.7	-49.9	14.2	0.00e+00	0	33	0	1011875840	60	4970
2026-01-16 09:19:17.58	342.41	34.83	-47.3	-50.8	13.9	0.00e+00	0	33	0	1012924416	59	5819
2026-01-16 09:19:18.59	342.31	34.62	-47.9	-51.2	13.7	0.00e+00	0	33	0	1015021568	60	5754
2026-01-16 09:19:19.60	342.22	34.40	-47.2	-50.8	13.7	0.00e+00	0	34	0	1017118720	60	5503
2026-01-16 09:19:20.61	342.12	34.18	-47.1	-50.6	13.8	0.00e+00	0	33	0	1019215872	60	5378
2026-01-16 09:19:21.62	342.03	33.97	-47.1	-50.5	13.9	0.00e+00	0	33	0	1021313024	60	5304
2026-01-16 09:19:22.63	341.94	33.76	-46.9	-50.0	14.4	0.00e+00	0	34	0	1022361600	59	5334
2026-01-16 09:19:23.64	341.85	33.54	-46.5	-49.3	14.8	0.00e+00	0	34	0	1024458752	59	4904
2026-01-16 09:19:24.65	341.76	33.33	-46.2	-48.8	15.1	0.00e+00	0	33	0	1026555904	59	4631
2026-01-16 09:19:25.66	341.67	33.13	-45.8	-48.2	15.4	0.00e+00	0	34	0	1028653056	58	4565
2026-01-16 09:19:26.67	341.58	32.92	-45.7	-48.0	15.5	0.00e+00	0	33	0	1030750208	57	4758
2026-01-16 09:19:27.68	341.50	32.71	-45.5	-47.8	15.5	0.00e+00	0	33	0	1031798784	57	4642
2026-01-16 09:19:28.69	341.42	32.51	-46.0	-48.6	15.2	0.00e+00	0	33	0	1033895936	57	5074
2026-01-16 09:19:29.70	341.33	32.30	-46.2	-48.8	15.1	0.00e+00	0	33	0	1035993088	57	5169
2026-01-16 09:19:30.71	341.25	32.10	-46.4	-49.1	15.0	0.00e+00	0	34	0	1038090240	58	5043
2026-01-16 09:19:31.72	341.17	31.90	-46.4	-49.1	15.0	0.00e+00	0	33	0	1040187392	58	5090
2026-01-16 09:19:32.73	341.09	31.70	-46.7	-49.5	14.8	0.00e+00	0	33	0	1042284544	58	5305
2026-01-16 09:19:33.74	341.01	31.50	-47.3	-50.5	14.1	0.00e+00	0	33	0	1043333120	59	5648
2026-01-16 09:19:34.75	340.93	31.31	-47.5	-51.1	13.6	7.00e-07	0	33	0	1045430272	60	5663
2026-01-16 09:19:35.76	340.86	31.11	-48.0	-52.0	12.6	0.00e+00	0	34	0	1047527424	61	5933
2026-01-16 09:19:36.77	340.78	30.91	-48.5	-53.2	12.0	4.50e-06	0	33	0	1049624576	62	6452
2026-01-16 09:19:37.78	340.71	30.72	-48.4	-52.9	12.2	1.44e-05	0	33	0	1051721728	62	6271
2026-01-16 09:19:38.79	340.63	30.53	-48.1	-52.2	12.7	6.80e-06	0	33	0	1052770304	62	5753
2026-01-16 09:19:39.79	340.56	30.34	-47.6	-51.4	13.3	0.00e+00	0	34	0	1054867456	61	5529
2026-01-16 09:19:40.80	340.49	30.15	-47.2	-50.6	13.8	0.00e+00	0	33	0	1056964608	61	5057
2026-01-16 09:19:41.81	340.42	29.96	-46.8	-49.8	14.3	0.00e+00	0	33	0	1059061760	60	4900
2026-01-16 09:19:42.82	340.35	29.78	-47.0	-50.1	14.4	0.00e+00	0	34	0	1060110336	59	5362
2026-01-16 09:19:43.83	340.28	29.59	-46.9	-49.9	14.5	0.00e+00	0	33	0	1062207488	59	5232
2026-01-16 09:19:44.84	340.21	29.40	-46.7	-49.5	14.8	0.00e+00	0	33	0	1064304640	59	4997
2026-01-16 09:19:45.84	340.14	29.22	-46.8	-49.6	14.7	0.00e+00	0	33	0	1066401792	59	5085
2026-01-16 09:19:46.86	340.07	29.04	-46.8	-49.6	14.7	0.00e+00	0	34	0	1068498944	59	5098
2026-01-16 09:19:47.86	340.01	28.86	-46.6	-49.3	15.0	0.00e+00	0	34	0	1070596096	59	4883
2026-01-16 09:19:48.87	339.94	28.68	-46.4	-48.9	15.2	0.00e+00	0	33	0	1071644672	59	4670
2026-01-16 09:19:49.88	339.88	28.50	-46.2	-48.7	15.3	0.00e+00	0	34	0	1073741824	59	4548
2026-01-16 09:19:50.89	339.81	28.32	-45.9	-48.2	15.5	0.00e+00	0	34	0	1075838976	58	4575
2026-01-16 09:19:51.90	339.75	28.14	-45.4	-47.5	15.8	0.00e+00	0	33	0	1077936128	57	4489
2026-01-16 09:19:52.91	339.69	27.97	-45.2	-47.2	15.9	0.00e+00	0	34	0	1080033280	57	4329
2026-01-16 09:19:53.91	339.62	27.79	-45.0	-47.0	16.0	0.00e+00	0	34	0	1081081856	56	4476
2026-01-16 09:19:54.92	339.56	27.62	-45.2	-47.2	16.0	0.00e+00	0	34	0	1083179008	56	4566
2026-01-16 09:19:55.93	339.50	27.45	-45.4	-47.5	15.8	0.00e+00	0	34	0	1085276160	56	4724
2026-01-16 09:19:56.94	339.44	27.28	-45.7	-48.0	15.5	0.00e+00	0	33	0	1087373312	56	5001
2026-01-16 09:19:57.95	339.38	27.10	-46.1	-48.5	15.1	0.00e+00	0	33	0	1089470464	57	5016
2026-01-16 09:19:58.96	339.33	26.94	-46.6	-49.3	14.9	0.00e+00	0	34	0	1090519040	58	5176
2026-01-16 09:19:59.97	339.27	26.77	-47.2	-50.4	14.2	0.00e+00	0	33	0	1092616192	59	5556
2026-01-16 09:20:00.98	339.21	26.60	-47.3	-50.6	13.9	0.00e+00	0	34	0	1094713344	60	5386
2026-01-16 09:20:01.99	339.16	26.43	-47.6	-51.2	13.4	0.00e+00	0	34	0	1096810496	60	5788
2026-01-16 09:20:03.00	339.10	26.27	-47.4	-50.8	13.8	0.00e+00	0	33	0	1098907648	60	5512
2026-01-16 09:20:04.01	339.04	26.10	-47.2	-50.6	13.9	0.00e+00	0	34	0	1099956224	60	5346
2026-01-16 09:20:05.02	338.99	25.94	-46.9	-50.0	14.3	0.00e+00	0	34	0	1102053376	60	5028
2026-01-16 09:20:06.03	338.94	25.78	-46.7	-49.6	14.7	0.00e+00	0	34	0	1104150528	59	5084
2026-01-16 09:20:07.04	338.88	25.61	-46.3	-49.1	15.0	0.00e+00	0	34	0	1106247680	59	4784
2026-01-16 09:20:08.05	338.83	25.45	-46.1	-48.7	15.1	0.00e+00	0	33	0	1108344832	58	4857
2026-01-16 09:20:09.06	338.78	25.29	-45.9	-48.4	15.3	0.00e+00	0	34	0	1109393408	58	4693
2026-01-16 09:20:10.06	338.73	25.14	-45.7	-48.1	15.4	0.00e+00	0	34	0	1111490560	57	4791
2026-01-16 09:20:11.08	338.67	24.98	-45.7	-48.2	15.4	0.00e+00	0	33	0	1113587712	57	4835
2026-01-16 09:20:12.08	338.62	24.82	-45.4	-47.6	15.7	0.00e+00	0	34	0	1115684864	57	4539
2026-01-16 09:20:13.09	338.57	24.66	-45.5	-47.8	15.5	0.00e+00	0	33	0	1117782016	57	4637
2026-01-16 09:20:14.10	338.53	24.51	-45.4	-47.6	15.6	0.00e+00	0	34	0	1118830592	57	4545
2026-01-16 09:20:15.11	338.48	24.35	-45.3	-47.5	15.7	0.00e+00	0	33	0	1120927744	56	4744
2026-01-16 09:20:16.12	338.43	24.20	-45.2	-47.4	15.7	0.00e+00	0	33	0	1123024896	56	4679
2026-01-16 09:20:17.13	338.38	24.05	-45.1	-47.3	15.8	0.00e+00	0	33	0	1125122048	56	4621
2026-01-16 09:20:18.14	338.33	23.90	-45.2	-47.4	15.7	0.00e+00	0	34	0	1127219200	56	4673
2026-01-16 09:20:19.15	338.29	23.75	-45.3	-47.5	15.7	0.00e+00	0	34	0	1128267776	56	4716
2026-01-16 09:20:20.15	338.24	23.60	-45.3	-47.5	15.6	0.00e+00	0	34	0	1130364928	56	4756
2026-01-16 09:20:21.16	338.19	23.45	-45.2	-47.4	15.7	0.00e+00	0	34	0	1132462080	56	4670
2026-01-16 09:20:22.17	338.15	23.30	-45.2	-47.4	15.7	0.00e+00	0	34	0	1134559232	56	4664
2026-01-16 09:20:23.18	338.10	23.15	-45.3	-47.5	15.6	0.00e+00	0	34	0	1136656384	56	4758
2026-01-16 09:20:24.19	338.06	23.00	-45.1	-47.3	15.7	0.00e+00	0	34	0	1138753536	56	4636
2026-01-16 09:20:25.20	338.01	22.86	-45.1	-47.2	15.8	0.00e+00	0	34	0	1139802112	56	4593
2026-01-16 09:20:26.21	337.97	22.71	-45.0	-47.2	15.8	0.00e+00	0	34	0	1141899264	56	4584
2026-01-16 09:20:27.22	337.93	22.57	-44.9	-47.0	15.9	0.00e+00	0	34	0	1143996416	56	4471
2026-01-16 09:20:28.23	337.88	22.43	-45.0	-47.3	15.7	0.00e+00	0	34	0	1146093568	56	4610
2026-01-16 09:20:29.24	337.84	22.28	-45.2	-47.5	15.6	0.00e+00	0	33	0	1148190720	56	4750
2026-01-16 09:20:30.24	337.80	22.14	-45.4	-47.7	15.5	0.00e+00	0	33	0	1149239296	56	4861
2026-01-16 09:20:31.25	337.76	22.00	-45.2	-47.6	15.5	0.00e+00	0	34	0	1151336448	56	4766
2026-01-16 09:20:32.26	337.72	21.86	-45.3	-47.7	15.5	0.00e+00	0	34	0	1153433600	56	4839
2026-01-16 09:20:33.27	337.68	21.72	-45.5	-47.9	15.4	0.00e+00	0	33	0	1155530752	56	4975
2026-01-16 09:20:34.28	337.64	21.58	-45.5	-48.0	15.3	0.00e+00	0	34	0	1157627904	56	5022
2026-01-16 09:20:35.29	337.60	21.44	-45.8	-48.4	15.1	0.00e+00	0	33	0	1158676480	56	5260
2026-01-16 09:20:36.30	337.56	21.31	-45.9	-48.6	15.0	0.00e+00	0	33	0	1160773632	56	5365
2026-01-16 09:20:37.31	337.52	21.17	-46.0	-48.8	15.0	0.00e+00	0	33	0	1162870784	57	5172
2026-01-16 09:20:38.31	337.48	21.03	-46.1	-48.9	14.9	0.00e+00	0	34	0	1164967936	57	5259
2026-01-16 09:20:39.33	337.44	20.90	-46.3	-49.2	14.7	0.00e+00	0	33	0	1167065088	57	5447
2026-01-16 09:20:40.33	337.40	20.76	-46.7	-49.8	14.4	0.00e+00	0	34	0	1168113664	58	5515
2026-01-16 09:20:41.34	337.37	20.63	-46.8	-50.0	14.3	0.00e+00	0	34	0	1170210816	58	5647
2026-01-16 09:20:42.35	337.33	20.50	-46.8	-50.1	14.2	0.00e+00	0	34	0	1172307968	58	5679
2026-01-16 09:20:43.36	337.29	20.37	-46.9	-50.3	14.1	0.00e+00	0	34	0	1174405120	59	5480
2026-01-16 09:20:44.37	337.26	20.23	-46.8	-50.1	14.2	0.00e+00	0	34	0	1176502272	59	5394
2026-01-16 09:20:45.38	337.22	20.10	-46.8	-50.1	14.2	0.00e+00	0	34	0	1177550848	59	5370
2026-01-16 09:20:46.39	337.18	19.97	-46.6	-49.8	14.4	0.00e+00	0	33	0	1179648000	59	5168
2026-01-16 09:20:47.39	337.15	19.84	-46.8	-50.0	14.2	0.00e+00	0	34	0	1181745152	59	5315
2026-01-16 09:20:48.40	337.11	19.71	-46.7	-49.9	14.4	0.00e+00	0	34	0	1183842304	59	5220
2026-01-16 09:20:49.41	337.08	19.59	-46.3	-49.3	14.6	0.00e+00	0	33	0	1185939456	59	4911
2026-01-16 09:20:50.42	337.04	19.46	-46.1	-48.9	14.9	0.00e+00	0	34	0	1186988032	58	4968
2026-01-16 09:20:51.43	337.01	19.33	-46.3	-49.2	14.7	0.00e+00	0	33	0	1189085184	58	5112
2026-01-16 09:20:52.44	336.98	19.20	-46.1	-49.0	14.8	0.00e+00	0	34	0	1191182336	58	4989
2026-01-16 09:20:53.45	336.94	19.08	-46.0	-48.8	14.9	0.00e+00	0	33	0	1193279488	58	4904
2026-01-16 09:20:54.46	336.91	18.95	-45.9	-48.7	15.0	0.00e+00	0	33	0	1195376640	58	4827
2026-01-16 09:20:55.47	336.88	18.83	-45.9	-48.6	15.1	0.00e+00	0	33	0	1196425216	58	4761
2026-01-16 09:20:56.48	336.84	18.70	-45.9	-48.5	15.1	0.00e+00	0	34	0	1198522368	58	4741
2026-01-16 09:20:57.49	336.81	18.58	-45.9	-48.6	15.0	0.00e+00	0	34	0	1200619520	58	4797
2026-01-16 09:20:58.49	336.78	18.46	-45.9	-48.5	15.1	0.00e+00	0	33	0	1202716672	58	4734
2026-01-16 09:20:59.51	336.75	18.34	-45.7	-48.3	15.2	0.00e+00	0	34	0	1204813824	58	4620
2026-01-16 09:21:00.51	336.71	18.21	-46.0	-48.7	15.0	0.00e+00	0	33	0	1205862400	58	4870
2026-01-16 09:21:01.52	336.68	18.09	-46.0	-48.6	15.0	0.00e+00	0	34	0	1207959552	58	4810
2026-01-16 09:21:02.53	336.65	17.97	-45.8	-48.4	15.2	0.00e+00	0	34	0	1210056704	58	4660
2026-01-16 09:21:03.54	336.62	17.85	-45.8	-48.4	15.1	0.00e+00	0	33	0	1212153856	58	4682
2026-01-16 09:21:04.55	336.59	17.73	-46.1	-48.8	15.0	0.00e+00	0	33	0	1214251008	58	4911
2026-01-16 09:21:05.56	336.56	17.62	-46.1	-48.8	15.0	7.60e-06	0	34	0	1215299584	58	4908
2026-01-16 09:21:06.57	336.53	17.50	-46.2	-49.1	14.8	0.00e+00	0	34	0	1217396736	58	5042
2026-01-16 09:21:07.57	336.50	17.38	-46.3	-49.2	14.7	2.20e-06	0	34	0	1219493888	58	5150
2026-01-16 09:21:08.58	336.47	17.26	-46.4	-49.3	14.6	0.00e+00	0	33	0	1221591040	58	5194
2026-01-16 09:21:09.59	336.44	17.15	-46.5	-49.5	14.5	0.00e+00	0	33	0	1223688192	58	5310
2026-01-16 09:21:10.60	336.41	17.03	-46.6	-49.6	14.4	0.00e+00	0	33	0	1224736768	58	5386
2026-01-16 09:21:11.61	336.39	16.92	-46.6	-49.7	14.4	0.00e+00	0	33	0	1226833920	58	5464
2026-01-16 09:21:12.62	336.36	16.80	-46.8	-50.1	14.3	0.00e+00	0	34	0	1228931072	58	5671
2026-01-16 09:21:13.63	336.33	16.69	-46.8	-50.0	14.2	0.00e+00	0	34	0	1231028224	58	5625
2026-01-16 09:21:14.64	336.30	16.57	-46.8	-50.1	14.1	0.00e+00	0	34	0	1233125376	59	5373
2026-01-16 09:21:15.65	336.27	16.46	-46.8	-50.1	14.1	0.00e+00	0	34	0	1235222528	59	5343
2026-01-16 09:21:16.65	336.25	16.35	-46.8	-50.0	14.2	0.00e+00	0	33	0	1236271104	59	5331
2026-01-16 09:21:17.66	336.22	16.23	-47.0	-50.4	13.9	0.00e+00	0	34	0	1238368256	59	5573
2026-01-16 09:21:18.67	336.19	16.12	-46.8	-50.1	14.1	1.50e-06	0	34	0	1240465408	59	5394
2026-01-16 09:21:19.68	336.17	16.01	-46.8	-50.1	14.1	0.00e+00	0	34	0	1242562560	59	5395
