passes_logs/2026/01/16/R3.2S_Murmansk_2ch/R3.2S_Murmansk_2ch__20260116_084015_NOAA_21_JPSS-2_rec.log

#Pass ID: 20260116_084015_NOAA 21 (JPSS-2)
#Satellite: NOAA 21 (JPSS-2)
#Configuration: NOAA-21
#almurnet v.1.7.20251203
#Start time: 2026-01-16 08:40:17

#Version: 2.2.20231116
#Station: R3.2S_Murmansk_2ch
#Location: 33.079688 lon 68.888172 lat
#TLE: 1 54234U 22150A   26015.92901934  .00000025  00000+0  32700-4 0  9991
#TLE: 2 54234  98.7499 316.8175 0000634 284.8145  75.2961 14.19534841164946

#Time	Az	El	Level	Level2	SNR	BER	BlckErr	Temp	State	Recorded	gain1	gain2
2026-01-16 08:40:17.44	131.56	2.13	-51.6	-65.6	3.8	1.49e+00	0	31	0	0	68	19037
2026-01-16 08:40:18.45	131.55	2.19	-51.6	-65.6	3.8	1.49e+00	0	31	104	0	68	19144
2026-01-16 08:40:19.46	131.53	2.26	-51.6	-65.6	3.8	1.49e+00	0	31	104	0	68	19052
2026-01-16 08:40:20.47	131.51	2.32	-51.6	-65.6	3.8	1.49e+00	0	31	104	0	68	19090
2026-01-16 08:40:21.48	131.49	2.38	-51.6	-65.6	3.8	1.49e+00	0	31	104	0	68	19030
2026-01-16 08:40:22.49	131.47	2.45	-51.5	-65.5	3.8	1.49e+00	0	31	104	0	68	18947
2026-01-16 08:40:23.50	131.45	2.52	-51.5	-65.5	3.8	1.49e+00	0	31	104	0	68	18881
2026-01-16 08:40:24.50	131.43	2.58	-51.5	-65.4	3.8	1.49e+00	0	31	104	0	68	18724
2026-01-16 08:40:25.52	131.41	2.65	-51.4	-65.4	3.8	1.49e+00	0	31	104	0	68	18700
2026-01-16 08:40:26.52	131.39	2.71	-51.3	-65.4	3.8	1.49e+00	0	31	104	0	68	18523
2026-01-16 08:40:27.53	131.37	2.78	-51.3	-65.2	3.8	1.49e+00	0	31	104	0	68	18288
2026-01-16 08:40:28.54	131.35	2.84	-51.2	-65.2	3.8	1.49e+00	0	31	104	0	68	18126
2026-01-16 08:40:29.55	131.33	2.91	-51.0	-65.0	3.8	1.49e+00	0	31	104	0	68	17851
2026-01-16 08:40:30.56	131.31	2.98	-50.8	-64.8	3.8	1.49e+00	0	32	104	0	68	17456
2026-01-16 08:40:31.57	131.29	3.04	-50.4	-64.3	3.8	1.49e+00	0	32	104	0	67	17415
2026-01-16 08:40:32.58	131.27	3.11	-50.1	-64.0	3.8	1.49e+00	0	32	104	0	66	17837
2026-01-16 08:40:33.59	131.25	3.18	-50.1	-64.0	3.8	1.49e+00	0	32	104	0	66	17780
2026-01-16 08:40:34.60	131.23	3.24	-50.1	-64.0	3.8	1.49e+00	0	32	104	0	66	17759
2026-01-16 08:40:35.61	131.21	3.31	-50.1	-64.0	3.8	1.49e+00	0	32	104	0	66	17762
2026-01-16 08:40:36.62	131.18	3.38	-50.0	-64.0	3.8	1.49e+00	0	32	104	0	66	17757
2026-01-16 08:40:37.62	131.16	3.44	-50.0	-64.0	3.8	1.49e+00	0	32	104	0	66	17739
2026-01-16 08:40:38.63	131.14	3.51	-50.0	-64.0	3.8	1.49e+00	0	32	104	0	66	17731
2026-01-16 08:40:39.64	131.12	3.58	-50.0	-64.0	3.8	1.49e+00	0	32	104	0	66	17775
2026-01-16 08:40:40.65	131.10	3.65	-50.0	-64.0	3.8	1.49e+00	0	32	104	0	66	17692
2026-01-16 08:40:41.66	131.08	3.72	-50.0	-64.0	3.8	1.49e+00	0	32	104	0	66	17749
2026-01-16 08:40:42.67	131.06	3.78	-50.0	-63.9	3.8	1.49e+00	0	32	104	0	66	17674
2026-01-16 08:40:43.68	131.03	3.85	-50.0	-64.0	3.8	1.49e+00	0	32	104	0	66	17737
2026-01-16 08:40:44.69	131.01	3.92	-50.0	-64.0	3.8	1.49e+00	0	32	104	0	66	17725
2026-01-16 08:40:45.70	130.99	3.99	-50.0	-64.0	3.8	1.49e+00	0	32	104	0	66	17704
2026-01-16 08:40:46.71	130.97	4.06	-50.0	-64.0	3.8	1.49e+00	0	32	104	0	66	17737
2026-01-16 08:40:47.71	130.95	4.13	-50.0	-63.9	3.8	1.49e+00	0	32	104	0	66	17670
2026-01-16 08:40:48.72	130.92	4.20	-50.0	-64.0	3.8	1.49e+00	0	32	104	0	66	17695
2026-01-16 08:40:49.73	130.90	4.27	-50.0	-64.0	3.8	1.49e+00	0	32	104	0	66	17731
2026-01-16 08:40:50.74	130.88	4.34	-50.0	-63.9	3.8	1.49e+00	0	32	104	0	66	17662
2026-01-16 08:40:51.75	130.86	4.41	-50.0	-63.9	3.8	1.49e+00	0	32	104	0	66	17674
2026-01-16 08:40:52.76	130.83	4.48	-50.0	-63.9	3.8	1.49e+00	0	32	104	0	66	17679
2026-01-16 08:40:53.77	130.81	4.55	-50.0	-63.9	3.8	1.49e+00	0	32	104	0	66	17631
2026-01-16 08:40:54.78	130.79	4.62	-50.0	-64.0	3.8	1.49e+00	0	32	104	0	66	17705
2026-01-16 08:40:55.79	130.76	4.69	-50.0	-63.9	3.8	1.49e+00	0	32	104	0	66	17650
2026-01-16 08:40:56.80	130.74	4.76	-50.0	-64.0	3.8	1.49e+00	0	32	104	0	66	17732
2026-01-16 08:40:57.81	130.72	4.83	-50.0	-63.9	3.8	1.49e+00	0	32	104	0	66	17661
2026-01-16 08:40:58.82	130.69	4.90	-50.0	-63.9	3.8	1.49e+00	0	32	104	0	66	17679
2026-01-16 08:40:59.83	130.67	4.97	-50.0	-63.9	3.8	1.49e+00	0	32	104	0	66	17670
2026-01-16 08:41:00.84	130.65	5.04	-50.0	-64.0	3.8	1.49e+00	0	32	104	0	66	17712
2026-01-16 08:41:01.85	130.62	5.11	-50.0	-63.9	3.8	1.49e+00	0	32	104	0	66	17672
2026-01-16 08:41:02.86	130.60	5.18	-50.0	-64.0	3.8	1.49e+00	0	32	104	0	66	17696
2026-01-16 08:41:03.87	130.57	5.26	-50.0	-64.0	3.8	1.49e+00	0	32	104	0	66	17700
2026-01-16 08:41:04.88	130.55	5.33	-50.0	-63.9	3.8	1.49e+00	0	32	104	0	66	17677
2026-01-16 08:41:05.88	130.53	5.40	-50.0	-64.0	3.8	1.49e+00	0	32	104	0	66	17709
2026-01-16 08:41:06.89	130.50	5.47	-50.0	-64.0	3.8	1.49e+00	0	32	104	0	66	17717
2026-01-16 08:41:07.90	130.48	5.55	-50.0	-64.0	3.8	1.49e+00	0	32	104	0	66	17689
2026-01-16 08:41:08.91	130.45	5.62	-50.0	-63.9	3.8	1.49e+00	0	32	104	0	66	17643
2026-01-16 08:41:09.92	130.43	5.69	-50.0	-64.0	3.8	1.49e+00	0	32	104	0	66	17698
2026-01-16 08:41:10.93	130.40	5.77	-50.0	-63.9	3.8	1.49e+00	0	32	104	0	66	17664
2026-01-16 08:41:11.94	130.37	5.84	-50.0	-63.9	3.8	1.49e+00	0	32	104	0	66	17670
2026-01-16 08:41:12.95	130.35	5.91	-50.0	-64.0	3.8	1.49e+00	0	32	104	0	66	17757
2026-01-16 08:41:13.96	130.32	5.99	-50.0	-63.9	3.8	1.49e+00	0	32	104	0	66	17668
2026-01-16 08:41:14.97	130.30	6.06	-50.0	-64.0	3.8	1.49e+00	0	33	104	0	66	17695
2026-01-16 08:41:15.98	130.27	6.14	-50.0	-64.0	3.8	1.49e+00	0	32	104	0	66	17713
2026-01-16 08:41:16.99	130.25	6.21	-50.0	-64.0	3.8	1.49e+00	0	32	104	0	66	17701
2026-01-16 08:41:17.99	130.22	6.28	-50.0	-63.9	3.8	1.49e+00	0	32	104	0	66	17666
2026-01-16 08:41:19.00	130.19	6.36	-50.0	-63.9	3.8	1.49e+00	0	32	104	0	66	17655
2026-01-16 08:41:20.01	130.17	6.43	-50.0	-63.9	3.8	1.49e+00	0	32	104	0	66	17659
2026-01-16 08:41:21.02	130.14	6.51	-50.0	-63.9	3.8	1.49e+00	0	32	104	0	66	17601
2026-01-16 08:41:22.03	130.11	6.59	-50.0	-63.9	3.8	1.49e+00	0	33	104	0	66	17669
2026-01-16 08:41:23.04	130.09	6.66	-50.0	-63.9	3.8	1.49e+00	0	32	104	0	66	17683
2026-01-16 08:41:24.05	130.06	6.74	-50.0	-63.9	3.8	1.49e+00	0	33	104	0	66	17651
2026-01-16 08:41:25.06	130.03	6.81	-50.0	-64.0	3.8	1.49e+00	0	32	104	0	66	17687
2026-01-16 08:41:26.07	130.00	6.89	-50.0	-63.9	3.8	1.49e+00	0	32	104	0	66	17677
2026-01-16 08:41:27.08	129.98	6.97	-50.0	-63.9	3.8	1.49e+00	0	33	104	0	66	17655
2026-01-16 08:41:28.09	129.95	7.04	-50.0	-63.9	3.8	1.49e+00	0	33	104	0	66	17642
2026-01-16 08:41:29.10	129.92	7.12	-50.0	-64.0	3.8	1.49e+00	0	33	104	0	66	17701
2026-01-16 08:41:30.11	129.89	7.20	-50.0	-63.9	3.8	1.49e+00	0	33	104	0	66	17623
2026-01-16 08:41:31.12	129.86	7.28	-50.0	-63.9	3.8	1.49e+00	0	33	104	0	66	17672
2026-01-16 08:41:32.13	129.84	7.35	-50.0	-63.9	3.8	1.49e+00	0	33	104	0	66	17576
2026-01-16 08:41:33.14	129.81	7.43	-50.0	-63.9	3.8	1.49e+00	0	33	104	0	66	17663
2026-01-16 08:41:34.14	129.78	7.51	-50.0	-63.9	3.8	1.49e+00	0	33	104	0	66	17667
2026-01-16 08:41:35.15	129.75	7.59	-50.0	-63.9	3.8	1.49e+00	0	32	104	0	66	17636
2026-01-16 08:41:36.16	129.72	7.67	-49.9	-63.9	3.8	1.49e+00	0	32	104	0	66	17666
2026-01-16 08:41:37.17	129.69	7.75	-49.8	-63.9	3.8	1.49e+00	0	33	104	0	66	17680
2026-01-16 08:41:38.18	129.66	7.82	-49.8	-63.9	3.8	1.49e+00	0	33	104	0	66	17619
2026-01-16 08:41:39.19	129.63	7.90	-49.7	-63.9	3.8	1.49e+00	0	33	104	0	66	17644
2026-01-16 08:41:40.20	129.60	7.98	-49.7	-63.9	3.8	1.49e+00	0	33	104	0	66	17634
2026-01-16 08:41:41.21	129.57	8.06	-49.6	-63.9	3.8	1.49e+00	0	33	104	0	65	18616
2026-01-16 08:41:42.21	129.54	8.14	-49.5	-63.9	3.8	1.49e+00	0	33	104	0	65	18644
2026-01-16 08:41:43.22	129.51	8.22	-49.4	-63.9	3.8	1.49e+00	0	33	104	0	65	18674
2026-01-16 08:41:44.23	129.48	8.30	-49.2	-63.9	3.8	1.49e+00	0	33	104	0	65	18659
2026-01-16 08:41:45.24	129.45	8.39	-49.0	-63.9	3.8	1.49e+00	0	33	104	0	64	19755
2026-01-16 08:41:46.25	129.42	8.47	-48.7	-64.0	3.8	1.49e+00	0	33	104	0	63	21089
2026-01-16 08:41:47.25	129.39	8.55	-48.4	-64.0	3.8	1.49e+00	0	33	104	0	63	21111
2026-01-16 08:41:48.26	129.36	8.63	-48.1	-64.0	3.8	1.49e+00	0	33	104	0	62	22393
2026-01-16 08:41:49.27	129.32	8.71	-48.0	-64.0	3.8	1.49e+00	0	33	104	0	62	22397
2026-01-16 08:41:50.28	129.29	8.79	-49.5	-64.3	3.8	1.49e+00	0	33	104	0	64	20694
2026-01-16 08:41:51.29	129.26	8.88	-50.3	-64.3	3.8	1.49e+00	0	33	104	0	66	18354
2026-01-16 08:41:52.30	129.23	8.96	-48.3	-64.1	3.8	1.49e+00	0	33	104	0	63	21293
2026-01-16 08:41:53.31	129.20	9.04	-48.7	-64.2	3.8	1.49e+00	0	33	104	0	62	22839
2026-01-16 08:41:54.32	129.16	9.13	-48.0	-64.2	3.8	1.49e+00	0	33	104	0	62	22802
2026-01-16 08:41:55.33	129.13	9.21	-48.1	-64.1	3.8	1.49e+00	0	33	104	0	62	22611
2026-01-16 08:41:56.34	129.10	9.29	-47.8	-64.1	3.8	1.49e+00	0	33	104	0	62	22732
2026-01-16 08:41:57.35	129.06	9.38	-47.8	-64.1	3.8	1.49e+00	0	33	104	0	62	22780
2026-01-16 08:41:58.36	129.03	9.46	-47.6	-64.1	3.8	1.49e+00	0	33	104	0	61	24036
2026-01-16 08:41:59.37	129.00	9.55	-47.6	-64.2	3.8	1.49e+00	0	33	104	0	61	24151
2026-01-16 08:42:00.38	128.96	9.63	-47.7	-64.2	3.8	1.49e+00	0	33	104	0	61	24254
2026-01-16 08:42:01.39	128.93	9.72	-47.7	-64.2	3.8	1.49e+00	0	33	104	0	61	24303
2026-01-16 08:42:02.40	128.89	9.80	-47.7	-64.2	3.8	1.49e+00	0	33	104	0	61	24318
2026-01-16 08:42:03.41	128.86	9.89	-47.6	-64.2	3.8	1.49e+00	0	33	104	0	61	24379
2026-01-16 08:42:04.41	128.83	9.97	-47.6	-64.2	3.8	1.49e+00	0	33	104	0	61	24344
2026-01-16 08:42:05.42	128.79	10.06	-47.6	-64.2	3.8	1.49e+00	0	33	104	0	61	24379
2026-01-16 08:42:06.43	128.76	10.15	-47.6	-64.2	3.8	1.49e+00	0	33	104	0	61	24396
2026-01-16 08:42:07.44	128.72	10.23	-47.7	-64.3	3.8	1.49e+00	0	33	104	0	61	24473
2026-01-16 08:42:08.45	128.68	10.32	-47.6	-64.3	3.8	1.49e+00	0	33	104	0	61	24524
2026-01-16 08:42:09.46	128.65	10.41	-47.5	-64.3	3.8	1.49e+00	0	33	104	0	61	24517
2026-01-16 08:42:10.47	128.61	10.49	-47.5	-64.3	3.8	1.49e+00	0	33	104	0	61	24594
2026-01-16 08:42:11.48	128.58	10.58	-47.4	-64.3	3.8	1.49e+00	0	33	104	0	61	24679
2026-01-16 08:42:12.49	128.54	10.67	-47.5	-64.4	3.8	1.49e+00	0	33	104	0	61	24701
2026-01-16 08:42:13.50	128.50	10.76	-47.5	-64.4	3.8	1.49e+00	0	33	104	0	61	24722
2026-01-16 08:42:14.51	128.47	10.85	-47.4	-64.4	3.8	1.49e+00	0	33	104	0	61	24731
2026-01-16 08:42:15.52	128.43	10.94	-47.4	-64.4	3.8	1.49e+00	0	33	104	0	61	24695
2026-01-16 08:42:16.52	128.39	11.03	-47.4	-64.4	3.8	1.49e+00	0	33	104	0	61	24793
2026-01-16 08:42:17.53	128.35	11.12	-47.4	-64.4	3.8	1.49e+00	0	33	104	0	61	24834
2026-01-16 08:42:18.54	128.31	11.21	-47.4	-64.4	3.8	1.49e+00	0	33	104	0	61	24941
2026-01-16 08:42:19.55	128.28	11.30	-47.3	-64.4	3.8	1.49e+00	0	33	104	0	61	24929
2026-01-16 08:42:20.56	128.24	11.39	-47.3	-64.5	3.8	1.49e+00	0	33	104	0	61	25020
2026-01-16 08:42:21.57	128.20	11.48	-47.3	-64.5	3.8	1.49e+00	0	33	104	0	61	25011
2026-01-16 08:42:22.58	128.16	11.57	-47.3	-64.5	3.8	1.49e+00	0	33	104	0	61	25021
2026-01-16 08:42:23.59	128.12	11.66	-47.4	-64.5	3.8	1.49e+00	0	33	104	0	61	25077
2026-01-16 08:42:24.60	128.08	11.76	-47.3	-64.5	3.8	1.49e+00	0	33	104	0	61	25077
2026-01-16 08:42:25.61	128.04	11.85	-47.2	-64.5	3.8	1.49e+00	0	33	104	0	61	25147
2026-01-16 08:42:26.62	128.00	11.94	-47.2	-64.5	3.8	1.49e+00	0	33	104	0	60	26659
2026-01-16 08:42:27.63	127.96	12.04	-47.2	-64.5	3.8	1.49e+00	0	33	104	0	60	26660
2026-01-16 08:42:28.63	127.92	12.13	-47.1	-64.5	3.8	1.49e+00	0	33	104	0	60	26702
2026-01-16 08:42:29.65	127.88	12.22	-47.1	-64.5	3.8	1.49e+00	0	33	104	0	60	26762
2026-01-16 08:42:30.66	127.84	12.32	-47.1	-64.6	3.8	1.49e+00	0	33	104	0	60	26803
2026-01-16 08:42:31.67	127.80	12.41	-47.1	-64.6	3.8	1.49e+00	0	33	104	0	60	26823
2026-01-16 08:42:32.68	127.75	12.51	-47.0	-64.6	3.8	1.49e+00	0	33	104	0	60	26855
2026-01-16 08:42:33.69	127.71	12.60	-47.1	-64.6	3.8	1.49e+00	0	33	104	0	60	26990
2026-01-16 08:42:34.69	127.67	12.70	-47.0	-64.6	3.8	1.49e+00	0	33	104	0	60	26970
2026-01-16 08:42:35.70	127.63	12.79	-47.0	-64.6	3.8	1.49e+00	0	33	104	0	60	26882
2026-01-16 08:42:36.71	127.58	12.89	-47.1	-64.6	3.8	1.49e+00	0	33	104	0	60	26991
2026-01-16 08:42:37.72	127.54	12.99	-47.0	-64.6	3.8	1.49e+00	0	33	104	0	60	27027
2026-01-16 08:42:38.73	127.50	13.08	-47.0	-64.6	3.8	1.49e+00	0	33	104	0	60	27006
2026-01-16 08:42:39.74	127.45	13.18	-46.9	-64.7	3.8	1.49e+00	0	33	104	0	60	27077
2026-01-16 08:42:40.75	127.41	13.28	-46.9	-64.6	3.8	1.49e+00	0	33	104	0	60	27001
2026-01-16 08:42:41.76	127.36	13.38	-46.9	-64.7	3.8	1.49e+00	0	33	104	0	60	27103
2026-01-16 08:42:42.77	127.32	13.48	-46.9	-64.6	3.8	1.49e+00	0	33	104	0	60	26977
2026-01-16 08:42:43.78	127.27	13.57	-46.9	-64.7	3.8	1.49e+00	0	33	104	0	60	27086
2026-01-16 08:42:44.78	127.23	13.67	-46.9	-64.7	3.8	1.49e+00	0	33	104	0	60	27135
2026-01-16 08:42:45.79	127.18	13.77	-46.9	-64.7	3.8	1.49e+00	0	33	104	0	60	27091
2026-01-16 08:42:46.80	127.14	13.87	-46.8	-64.7	3.8	1.49e+00	0	33	104	0	60	27133
2026-01-16 08:42:47.81	127.09	13.97	-46.9	-64.7	3.8	1.49e+00	0	33	104	0	60	27185
2026-01-16 08:42:48.82	127.04	14.07	-46.9	-64.7	3.8	1.49e+00	0	33	104	0	60	27282
2026-01-16 08:42:49.83	126.99	14.18	-46.9	-64.7	3.8	1.49e+00	0	33	104	0	60	27277
2026-01-16 08:42:50.84	126.95	14.28	-46.8	-64.7	3.8	1.49e+00	0	33	104	0	60	27256
2026-01-16 08:42:51.85	126.90	14.38	-46.8	-64.7	3.8	1.49e+00	0	33	104	0	60	27279
2026-01-16 08:42:52.86	126.85	14.48	-46.7	-64.7	3.8	1.49e+00	0	33	104	0	60	27361
2026-01-16 08:42:53.87	126.80	14.59	-46.8	-64.7	3.8	1.49e+00	0	33	104	0	60	27286
2026-01-16 08:42:54.88	126.75	14.69	-46.8	-64.7	3.8	1.49e+00	0	33	104	0	60	27329
2026-01-16 08:42:55.89	126.70	14.79	-46.8	-64.7	3.8	1.49e+00	0	33	104	0	60	27368
2026-01-16 08:42:56.90	126.65	14.90	-46.8	-64.8	3.8	1.49e+00	0	33	104	0	60	27440
2026-01-16 08:42:57.91	126.60	15.00	-46.8	-64.8	3.8	1.49e+00	0	33	104	0	60	27508
2026-01-16 08:42:58.91	126.55	15.11	-46.7	-64.8	3.8	1.49e+00	0	33	104	0	60	27485
2026-01-16 08:42:59.92	126.50	15.21	-46.8	-65.2	3.8	1.49e+00	0	33	104	0	59	30551
2026-01-16 08:43:00.93	126.45	15.32	-46.8	-65.2	3.8	1.49e+00	0	33	104	0	59	30546
2026-01-16 08:43:01.94	126.40	15.42	-46.9	-65.2	3.8	1.49e+00	0	33	104	0	59	30616
2026-01-16 08:43:02.95	126.35	15.53	-46.8	-65.2	3.8	1.49e+00	0	33	104	0	59	30595
2026-01-16 08:43:03.96	126.30	15.64	-46.8	-65.2	3.8	1.49e+00	0	33	104	0	59	30579
2026-01-16 08:43:04.97	126.24	15.75	-46.8	-65.3	3.8	1.49e+00	0	33	104	0	59	30731
2026-01-16 08:43:05.98	126.19	15.85	-46.7	-65.2	3.8	1.49e+00	0	33	104	0	59	30699
2026-01-16 08:43:06.99	126.14	15.96	-46.7	-65.3	3.8	1.49e+00	0	33	104	0	59	30741
2026-01-16 08:43:08.00	126.08	16.07	-46.7	-65.3	3.8	1.49e+00	0	33	104	0	59	30754
2026-01-16 08:43:09.01	126.03	16.18	-46.7	-65.3	3.8	1.49e+00	0	33	104	0	59	30887
2026-01-16 08:43:10.01	125.97	16.29	-46.6	-65.3	3.8	1.49e+00	0	33	104	0	59	30858
2026-01-16 08:43:11.02	125.92	16.40	-46.7	-65.3	3.8	1.49e+00	0	33	104	0	59	30885
2026-01-16 08:43:12.03	125.86	16.51	-46.7	-65.3	3.8	1.49e+00	0	33	104	0	59	30795
2026-01-16 08:43:13.04	125.81	16.62	-46.6	-65.3	3.8	1.49e+00	0	33	104	0	59	30901
2026-01-16 08:43:14.05	125.75	16.73	-46.6	-65.3	3.8	1.49e+00	0	33	104	0	59	30848
2026-01-16 08:43:15.06	125.69	16.85	-46.6	-65.3	3.8	1.49e+00	0	33	104	0	59	30832
2026-01-16 08:43:16.07	125.63	16.96	-46.5	-65.3	3.8	1.49e+00	0	33	104	0	59	30842
2026-01-16 08:43:17.08	125.58	17.07	-46.5	-65.3	3.8	1.49e+00	0	33	104	0	59	30911
2026-01-16 08:43:18.09	125.52	17.19	-46.5	-65.3	3.8	1.49e+00	0	33	104	0	59	31024
2026-01-16 08:43:19.10	125.46	17.30	-46.4	-65.3	3.8	1.49e+00	0	33	104	0	59	30933
2026-01-16 08:43:20.11	125.40	17.42	-46.4	-65.3	3.8	1.49e+00	0	33	104	0	59	31016
2026-01-16 08:43:21.12	125.34	17.53	-46.4	-65.3	3.8	1.49e+00	0	33	104	0	59	31020
2026-01-16 08:43:22.13	125.28	17.65	-46.3	-65.3	3.8	1.49e+00	0	33	104	0	59	31030
2026-01-16 08:43:23.14	125.22	17.76	-46.3	-65.3	3.8	1.49e+00	0	33	104	0	59	31067
2026-01-16 08:43:24.14	125.16	17.88	-46.2	-65.4	3.8	1.49e+00	0	33	104	0	59	31140
2026-01-16 08:43:25.15	125.10	18.00	-46.2	-65.4	3.8	1.49e+00	0	33	104	0	59	31235
2026-01-16 08:43:26.16	125.03	18.12	-46.2	-65.4	3.8	1.49e+00	0	33	104	0	59	31227
2026-01-16 08:43:27.17	124.97	18.23	-46.1	-65.4	3.8	1.49e+00	0	33	104	0	58	33045
2026-01-16 08:43:28.18	124.91	18.35	-46.1	-65.4	3.8	1.49e+00	0	33	104	0	58	33088
2026-01-16 08:43:29.19	124.84	18.47	-46.2	-65.4	3.8	1.49e+00	0	33	104	0	58	33066
2026-01-16 08:43:30.20	124.78	18.59	-46.2	-65.4	3.8	1.49e+00	0	33	104	0	58	33114
2026-01-16 08:43:31.21	124.71	18.71	-46.2	-65.4	3.8	1.49e+00	0	33	104	0	58	33188
2026-01-16 08:43:32.22	124.65	18.83	-46.1	-65.4	3.8	1.49e+00	0	33	104	0	58	33219
2026-01-16 08:43:33.23	124.58	18.96	-46.0	-65.4	3.8	1.49e+00	0	33	104	0	58	33201
2026-01-16 08:43:34.24	124.51	19.08	-46.0	-65.4	3.8	1.49e+00	0	33	104	0	58	33242
2026-01-16 08:43:35.25	124.45	19.20	-46.0	-65.4	3.8	1.49e+00	0	33	104	0	58	33183
2026-01-16 08:43:36.26	124.38	19.33	-46.0	-65.4	3.8	1.49e+00	0	33	104	0	58	33292
2026-01-16 08:43:37.26	124.31	19.45	-45.9	-65.5	3.8	1.49e+00	0	33	104	0	58	33323
2026-01-16 08:43:38.27	124.24	19.57	-45.9	-65.4	3.8	1.49e+00	0	33	104	0	58	33288
2026-01-16 08:43:39.28	124.17	19.70	-45.9	-65.4	3.8	1.49e+00	0	33	104	0	58	33267
2026-01-16 08:43:40.29	124.10	19.82	-45.9	-65.5	3.8	1.49e+00	0	33	104	0	58	33321
2026-01-16 08:43:41.30	124.03	19.95	-46.0	-65.5	3.8	1.49e+00	0	33	104	0	58	33398
2026-01-16 08:43:42.31	123.96	20.08	-45.9	-65.5	3.8	1.49e+00	0	33	104	0	58	33381
2026-01-16 08:43:43.32	123.89	20.20	-45.9	-65.5	3.8	1.49e+00	0	33	104	0	58	33316
2026-01-16 08:43:44.33	123.82	20.33	-45.8	-65.5	3.8	1.49e+00	0	33	104	0	58	33381
2026-01-16 08:43:45.34	123.74	20.46	-45.8	-65.5	3.8	1.49e+00	0	33	104	0	58	33488
2026-01-16 08:43:46.35	123.67	20.59	-45.8	-65.5	3.8	1.49e+00	0	33	104	0	58	33552
2026-01-16 08:43:47.36	123.60	20.72	-45.7	-65.5	3.8	1.49e+00	0	33	104	0	58	33449
2026-01-16 08:43:48.37	123.52	20.85	-45.8	-65.5	3.8	1.49e+00	0	33	104	0	58	33479
2026-01-16 08:43:49.38	123.44	20.98	-45.7	-65.5	3.8	1.49e+00	0	33	104	0	58	33540
2026-01-16 08:43:50.39	123.37	21.11	-45.8	-65.5	3.8	1.49e+00	0	33	104	0	58	33551
2026-01-16 08:43:51.39	123.29	21.25	-45.8	-65.5	3.8	1.49e+00	0	33	104	0	58	33493
2026-01-16 08:43:52.40	123.21	21.38	-45.7	-65.5	3.8	1.49e+00	0	33	104	0	58	33596
2026-01-16 08:43:53.41	123.13	21.51	-45.7	-65.5	3.8	1.49e+00	0	33	104	0	58	33533
2026-01-16 08:43:54.42	123.06	21.65	-45.8	-65.5	3.8	1.49e+00	0	33	104	0	58	33669
2026-01-16 08:43:55.43	122.98	21.78	-45.8	-65.5	3.8	1.49e+00	0	33	104	0	58	33598
2026-01-16 08:43:56.44	122.89	21.92	-45.9	-65.5	3.8	1.49e+00	0	33	104	0	58	33666
2026-01-16 08:43:57.45	122.81	22.05	-45.9	-65.6	3.8	1.49e+00	0	33	104	0	58	33706
2026-01-16 08:43:58.46	122.73	22.19	-46.0	-65.6	3.8	1.49e+00	0	33	104	0	58	33711
2026-01-16 08:43:59.47	122.65	22.33	-46.1	-65.6	3.8	1.49e+00	0	33	104	0	58	33782
2026-01-16 08:44:00.48	122.56	22.47	-46.1	-65.6	3.8	1.49e+00	0	33	104	0	58	33777
2026-01-16 08:44:01.49	122.48	22.61	-46.2	-65.6	3.8	1.49e+00	0	33	104	0	58	33795
2026-01-16 08:44:02.50	122.39	22.75	-46.1	-65.6	3.8	1.49e+00	0	33	104	0	58	33842
2026-01-16 08:44:03.51	122.31	22.89	-46.2	-65.6	3.8	1.49e+00	0	33	104	0	58	33755
2026-01-16 08:44:04.52	122.22	23.03	-46.1	-65.6	3.8	1.49e+00	0	33	104	0	58	33841
2026-01-16 08:44:05.53	122.13	23.17	-46.2	-65.6	3.8	1.49e+00	0	33	104	0	58	33797
2026-01-16 08:44:06.54	122.04	23.31	-46.2	-65.6	3.8	1.49e+00	0	33	104	0	58	33863
2026-01-16 08:44:07.54	121.96	23.45	-46.2	-65.6	3.8	1.49e+00	0	33	104	0	58	33957
2026-01-16 08:44:08.55	121.87	23.60	-46.2	-65.6	3.8	1.49e+00	0	33	104	0	58	33829
2026-01-16 08:44:09.56	121.78	23.74	-46.2	-65.6	3.8	1.49e+00	0	33	104	0	58	33869
2026-01-16 08:44:10.57	121.68	23.89	-46.2	-65.6	3.8	1.49e+00	0	33	104	0	58	33903
2026-01-16 08:44:11.58	121.59	24.03	-46.2	-65.6	3.8	1.49e+00	0	33	104	0	58	33855
2026-01-16 08:44:12.59	121.50	24.18	-46.3	-65.6	3.8	1.49e+00	0	33	104	0	58	33958
2026-01-16 08:44:13.60	121.40	24.33	-46.3	-65.6	3.8	1.49e+00	0	33	104	0	58	33900
2026-01-16 08:44:14.61	121.31	24.48	-46.4	-65.6	3.8	1.49e+00	0	33	104	0	58	33941
2026-01-16 08:44:15.62	121.21	24.63	-46.5	-65.6	3.8	1.49e+00	0	33	104	0	58	33976
2026-01-16 08:44:16.63	121.11	24.78	-46.5	-65.6	3.8	1.49e+00	0	33	104	0	58	34002
2026-01-16 08:44:17.63	121.01	24.93	-46.6	-65.6	3.8	1.49e+00	0	34	104	0	58	34049
2026-01-16 08:44:18.64	120.92	25.08	-46.6	-65.6	3.8	1.49e+00	0	33	104	0	58	34034
2026-01-16 08:44:19.65	120.81	25.23	-46.6	-65.7	3.8	1.49e+00	0	33	104	0	58	34107
2026-01-16 08:44:20.66	120.71	25.38	-46.5	-65.6	3.8	1.49e+00	0	33	104	0	58	34060
2026-01-16 08:44:21.67	120.61	25.54	-46.5	-65.6	3.8	1.49e+00	0	33	104	0	58	34034
2026-01-16 08:44:22.68	120.51	25.69	-46.6	-65.6	3.8	1.49e+00	0	33	104	0	58	34015
2026-01-16 08:44:23.69	120.40	25.85	-46.6	-65.6	3.8	1.49e+00	0	33	104	0	58	34083
2026-01-16 08:44:24.70	120.30	26.00	-46.6	-65.7	3.8	1.49e+00	0	33	104	0	58	34105
2026-01-16 08:44:25.71	120.19	26.16	-46.7	-65.7	3.8	1.49e+00	0	33	104	0	58	34270
2026-01-16 08:44:26.72	120.08	26.32	-46.8	-65.7	3.8	1.49e+00	0	34	104	0	58	34236
2026-01-16 08:44:27.73	119.97	26.47	-46.9	-65.7	3.8	1.49e+00	0	34	104	0	58	34105
2026-01-16 08:44:28.74	119.86	26.63	-46.9	-65.7	3.8	1.49e+00	0	33	104	0	59	32204
2026-01-16 08:44:29.75	119.75	26.79	-47.0	-65.7	3.8	1.49e+00	0	33	104	0	59	32300
2026-01-16 08:44:30.76	119.64	26.96	-46.9	-65.7	3.8	1.49e+00	0	34	104	0	59	32237
2026-01-16 08:44:31.77	119.53	27.12	-46.8	-65.7	3.8	1.49e+00	0	34	104	0	59	32290
2026-01-16 08:44:32.78	119.41	27.28	-46.8	-65.7	3.8	1.49e+00	0	33	104	0	59	32266
2026-01-16 08:44:33.79	119.30	27.44	-46.8	-65.7	3.8	1.49e+00	0	34	104	0	59	32252
2026-01-16 08:44:34.79	119.18	27.61	-46.7	-65.7	3.8	1.49e+00	0	34	104	0	59	32310
2026-01-16 08:44:35.80	119.06	27.77	-46.7	-65.7	3.8	1.49e+00	0	33	104	0	59	32363
2026-01-16 08:44:36.81	118.94	27.94	-46.6	-65.7	3.8	1.49e+00	0	34	104	0	59	32345
2026-01-16 08:44:37.82	118.82	28.10	-46.5	-65.7	3.8	1.49e+00	0	34	104	0	59	32382
2026-01-16 08:44:38.83	118.70	28.27	-46.5	-65.7	3.8	1.49e+00	0	33	104	0	59	32444
2026-01-16 08:44:39.84	118.58	28.44	-46.5	-65.7	3.8	1.49e+00	0	33	104	0	59	32426
2026-01-16 08:44:40.85	118.45	28.61	-46.5	-65.7	3.8	1.49e+00	0	34	104	0	59	32457
2026-01-16 08:44:41.86	118.33	28.78	-46.5	-65.7	3.8	1.49e+00	0	33	104	0	59	32461
2026-01-16 08:44:42.87	118.20	28.95	-46.7	-65.7	3.8	1.49e+00	0	34	104	0	59	32460
2026-01-16 08:44:43.88	118.07	29.12	-46.7	-65.7	3.8	1.49e+00	0	33	104	0	59	32498
2026-01-16 08:44:44.89	117.94	29.30	-46.6	-65.8	3.8	1.49e+00	0	33	104	0	59	32556
2026-01-16 08:44:45.89	117.81	29.47	-46.3	-65.8	3.8	1.49e+00	0	33	104	0	59	32599
2026-01-16 08:44:46.90	117.68	29.64	-46.2	-65.8	3.8	1.49e+00	0	33	104	0	59	32555
2026-01-16 08:44:47.91	117.54	29.82	-46.0	-65.8	3.8	1.49e+00	0	34	104	0	58	34485
2026-01-16 08:44:48.92	117.40	30.00	-46.0	-65.8	3.8	1.49e+00	0	34	104	0	58	34505
2026-01-16 08:44:49.93	117.27	30.17	-45.9	-65.8	3.8	1.49e+00	0	33	104	0	58	34575
2026-01-16 08:44:50.94	117.13	30.35	-45.8	-65.8	3.8	1.49e+00	0	33	104	0	58	34596
2026-01-16 08:44:51.95	116.99	30.53	-45.8	-65.8	3.8	1.49e+00	0	34	104	0	58	34543
2026-01-16 08:44:52.96	116.84	30.71	-45.8	-65.8	3.8	1.49e+00	0	33	104	0	58	34512
2026-01-16 08:44:53.97	116.70	30.89	-45.8	-65.8	3.8	1.49e+00	0	33	104	0	58	34623
2026-01-16 08:44:54.98	116.55	31.07	-45.8	-65.8	3.8	1.49e+00	0	33	104	0	58	34585
2026-01-16 08:44:55.99	116.41	31.26	-45.7	-65.8	3.8	1.49e+00	0	33	104	0	58	34697
2026-01-16 08:44:57.00	116.26	31.44	-45.6	-65.8	3.8	1.49e+00	0	33	104	0	57	36653
2026-01-16 08:44:58.01	116.11	31.63	-45.5	-65.8	3.8	1.49e+00	0	33	104	0	57	36724
2026-01-16 08:44:59.01	115.95	31.81	-45.4	-65.8	3.8	1.49e+00	0	34	104	0	57	36724
2026-01-16 08:45:00.02	115.80	32.00	-45.4	-65.8	3.8	1.49e+00	0	33	104	0	57	36668
2026-01-16 08:45:01.03	115.64	32.18	-45.3	-65.8	3.8	1.49e+00	0	33	104	0	57	36763
2026-01-16 08:45:02.04	115.49	32.37	-45.0	-65.8	3.8	1.49e+00	0	33	104	0	56	38943
2026-01-16 08:45:03.05	115.33	32.56	-44.8	-65.8	3.8	1.49e+00	0	33	104	0	56	38967
2026-01-16 08:45:04.06	115.16	32.75	-44.8	-65.8	3.8	1.49e+00	0	34	104	0	56	38990
2026-01-16 08:45:05.07	115.00	32.94	-44.8	-65.8	3.8	1.49e+00	0	33	104	0	56	39093
2026-01-16 08:45:06.08	114.83	33.14	-44.8	-65.8	3.8	1.49e+00	0	34	104	0	56	39082
2026-01-16 08:45:07.09	114.67	33.33	-44.8	-65.9	3.8	1.49e+00	0	33	104	0	56	39164
2026-01-16 08:45:08.09	114.50	33.52	-44.8	-65.8	3.8	1.49e+00	0	33	104	0	56	39072
2026-01-16 08:45:09.11	114.32	33.72	-44.8	-65.9	3.8	1.49e+00	0	33	104	0	56	39171
2026-01-16 08:45:10.11	114.15	33.91	-44.7	-65.8	3.8	1.49e+00	0	33	104	0	56	39126
2026-01-16 08:45:11.12	113.98	34.11	-44.4	-65.7	3.8	1.49e+00	0	33	104	0	55	40777
2026-01-16 08:45:12.13	113.80	34.31	-44.3	-65.7	3.8	1.49e+00	0	33	104	0	55	40752
2026-01-16 08:45:13.14	113.62	34.51	-44.2	-65.7	3.8	1.49e+00	0	33	104	0	55	40736
2026-01-16 08:45:14.15	113.43	34.71	-44.1	-65.7	3.8	1.49e+00	0	33	104	0	54	43157
2026-01-16 08:45:15.16	113.25	34.91	-44.1	-65.7	3.8	1.49e+00	0	33	104	0	54	43275
2026-01-16 08:45:16.17	113.06	35.11	-44.1	-65.7	3.8	1.49e+00	0	33	104	0	54	43343
2026-01-16 08:45:17.18	112.87	35.31	-44.1	-65.7	3.8	1.49e+00	0	33	104	0	54	43348
2026-01-16 08:45:18.19	112.68	35.51	-43.9	-65.7	3.8	1.49e+00	0	33	104	0	54	43244
2026-01-16 08:45:19.20	112.48	35.72	-44.1	-65.7	3.8	1.49e+00	0	34	104	0	54	43294
2026-01-16 08:45:20.21	112.29	35.92	-43.9	-65.7	3.8	1.49e+00	0	33	104	0	54	43370
2026-01-16 08:45:21.22	112.09	36.13	-43.7	-65.8	3.8	1.49e+00	0	33	104	0	54	43441
2026-01-16 08:45:22.23	111.88	36.34	-43.4	-65.7	3.8	1.49e+00	0	34	104	0	53	45874
2026-01-16 08:45:23.24	111.68	36.55	-43.4	-65.7	3.8	1.49e+00	0	33	104	0	53	45928
2026-01-16 08:45:24.24	111.47	36.75	-43.3	-65.7	3.8	1.49e+00	0	33	104	0	53	45936
2026-01-16 08:45:25.25	111.26	36.96	-43.1	-65.8	3.8	1.49e+00	0	33	104	0	52	48765
2026-01-16 08:45:26.26	111.05	37.17	-43.2	-65.8	3.8	1.49e+00	0	33	104	0	52	48762
2026-01-16 08:45:27.27	110.83	37.39	-43.4	-65.8	3.8	1.49e+00	0	33	104	0	52	48857
2026-01-16 08:45:28.28	110.61	37.60	-43.6	-65.7	3.8	1.49e+00	0	33	104	0	52	48702
2026-01-16 08:45:29.29	110.39	37.81	-43.6	-65.8	3.8	1.49e+00	0	33	104	0	52	48750
2026-01-16 08:45:30.30	110.17	38.03	-43.3	-65.8	3.8	1.49e+00	0	33	104	0	52	48830
2026-01-16 08:45:31.31	109.94	38.24	-43.1	-65.8	3.8	1.49e+00	0	34	104	0	52	48911
2026-01-16 08:45:32.32	109.71	38.46	-43.1	-65.8	3.8	1.49e+00	0	33	104	0	52	48846
2026-01-16 08:45:33.33	109.48	38.67	-43.0	-65.8	3.8	1.49e+00	0	33	104	0	52	48818
2026-01-16 08:45:34.34	109.24	38.89	-42.7	-65.8	3.8	1.49e+00	0	34	104	0	52	48824
2026-01-16 08:45:35.35	109.00	39.11	-42.7	-65.8	3.8	1.49e+00	0	33	104	0	52	48813
2026-01-16 08:45:36.36	108.75	39.33	-42.7	-65.8	3.8	1.49e+00	0	33	104	0	52	48841
2026-01-16 08:45:37.37	108.51	39.55	-42.9	-65.8	3.8	1.49e+00	0	33	104	0	52	48828
2026-01-16 08:45:38.37	108.26	39.77	-43.0	-65.8	3.8	1.49e+00	0	34	104	0	52	48819
2026-01-16 08:45:39.38	108.01	39.99	-42.8	-65.8	3.8	1.49e+00	0	33	104	0	52	48952
2026-01-16 08:45:40.39	107.75	40.21	-42.6	-65.8	3.8	1.49e+00	0	34	104	0	51	52159
2026-01-16 08:45:41.40	107.49	40.43	-42.3	-65.8	3.8	1.49e+00	0	34	104	0	51	52118
2026-01-16 08:45:42.41	107.22	40.66	-42.6	-65.8	3.8	1.49e+00	0	33	104	0	51	52174
2026-01-16 08:45:43.42	106.95	40.88	-42.8	-65.9	3.8	1.49e+00	0	34	104	0	51	52229
2026-01-16 08:45:44.43	106.68	41.11	-42.8	-65.9	3.8	1.49e+00	0	33	104	0	51	52327
2026-01-16 08:45:45.44	106.41	41.33	-42.6	-65.9	3.8	1.49e+00	0	34	104	0	51	52284
2026-01-16 08:45:46.45	106.13	41.56	-42.6	-65.9	3.8	1.49e+00	0	33	104	0	51	52250
2026-01-16 08:45:47.46	105.84	41.79	-42.8	-65.9	3.8	1.49e+00	0	34	104	0	51	52221
2026-01-16 08:45:48.47	105.55	42.01	-42.7	-65.9	3.8	1.49e+00	0	33	104	0	51	52381
2026-01-16 08:45:49.48	105.26	42.24	-42.9	-65.9	3.8	1.49e+00	0	34	104	0	51	52189
2026-01-16 08:45:50.48	104.97	42.47	-42.8	-65.9	3.8	1.49e+00	0	33	104	0	51	52282
2026-01-16 08:45:51.49	104.67	42.70	-42.9	-65.9	3.8	1.49e+00	0	34	104	0	51	52412
2026-01-16 08:45:52.50	104.36	42.93	-43.0	-65.9	3.8	1.49e+00	0	34	104	0	51	52431
2026-01-16 08:45:53.51	104.05	43.16	-42.8	-65.9	3.8	1.49e+00	0	33	104	0	51	52397
2026-01-16 08:45:54.52	103.74	43.39	-42.6	-65.9	3.8	1.49e+00	0	33	104	0	51	52344
2026-01-16 08:45:55.53	103.42	43.62	-42.3	-65.9	3.8	1.49e+00	0	34	104	0	51	52344
2026-01-16 08:45:56.54	103.10	43.85	-42.4	-65.9	3.8	1.49e+00	0	34	104	0	51	52430
2026-01-16 08:45:57.55	102.77	44.08	-42.8	-65.9	3.8	1.49e+00	0	33	104	0	51	52392
2026-01-16 08:45:58.56	102.44	44.31	-42.9	-65.9	3.8	1.49e+00	0	33	104	0	51	52470
2026-01-16 08:45:59.57	102.10	44.55	-42.8	-65.9	3.8	1.49e+00	0	33	104	0	51	52403
2026-01-16 08:46:00.58	101.76	44.78	-42.6	-65.9	3.8	1.49e+00	0	33	104	0	51	52552
2026-01-16 08:46:01.59	101.41	45.01	-42.5	-65.9	3.8	1.49e+00	0	34	104	0	51	52373
2026-01-16 08:46:02.60	101.06	45.24	-42.6	-65.9	3.8	1.49e+00	0	34	104	0	51	52506
2026-01-16 08:46:03.61	100.70	45.48	-42.6	-65.9	3.8	1.49e+00	0	34	104	0	51	52472
2026-01-16 08:46:04.62	100.34	45.71	-42.6	-65.9	3.8	1.49e+00	0	33	104	0	51	52511
2026-01-16 08:46:05.63	99.97	45.94	-42.8	-65.9	3.8	1.49e+00	0	33	104	0	51	52412
2026-01-16 08:46:06.63	99.60	46.17	-42.8	-65.9	3.8	1.49e+00	0	33	104	0	51	52347
2026-01-16 08:46:07.64	99.22	46.41	-42.7	-65.9	3.8	1.49e+00	0	33	104	0	51	52418
2026-01-16 08:46:08.65	98.83	46.64	-42.8	-65.9	3.8	1.49e+00	0	33	104	0	51	52315
2026-01-16 08:46:09.66	98.44	46.87	-42.9	-65.9	3.8	1.49e+00	0	33	104	0	51	52406
2026-01-16 08:46:10.67	98.04	47.10	-43.1	-65.9	3.8	1.49e+00	0	33	104	0	51	52432
2026-01-16 08:46:11.68	97.64	47.34	-42.8	-65.9	3.8	1.49e+00	0	33	104	0	51	52492
2026-01-16 08:46:12.69	97.23	47.57	-42.6	-65.9	3.8	1.49e+00	0	33	104	0	51	52479
2026-01-16 08:46:13.70	96.81	47.80	-42.6	-65.9	3.8	1.49e+00	0	33	104	0	51	52655
2026-01-16 08:46:14.71	96.39	48.03	-42.6	-65.9	3.8	1.49e+00	0	33	104	0	51	52655
2026-01-16 08:46:15.72	95.96	48.26	-42.8	-65.9	3.8	1.49e+00	0	34	104	0	51	52738
2026-01-16 08:46:16.72	95.53	48.49	-42.9	-65.9	3.8	1.49e+00	0	33	104	0	51	52506
2026-01-16 08:46:17.73	95.09	48.72	-42.8	-65.9	3.8	1.49e+00	0	33	104	0	51	52505
2026-01-16 08:46:18.74	94.64	48.95	-42.7	-65.9	3.8	1.49e+00	0	34	104	0	51	52614
2026-01-16 08:46:19.75	94.19	49.17	-42.5	-66.0	3.8	1.49e+00	0	33	104	0	51	52935
2026-01-16 08:46:20.76	93.73	49.40	-42.7	-66.0	3.8	1.49e+00	0	34	104	0	51	52970
2026-01-16 08:46:21.77	93.26	49.63	-42.9	-65.9	3.8	1.49e+00	0	34	104	0	51	52788
2026-01-16 08:46:22.78	92.78	49.85	-42.8	-66.0	3.8	1.49e+00	0	34	104	0	51	52821
2026-01-16 08:46:23.79	92.30	50.08	-42.5	-66.0	3.8	1.49e+00	0	34	104	0	51	52984
2026-01-16 08:46:24.80	91.81	50.30	-42.3	-66.0	3.8	1.49e+00	0	33	104	0	51	53126
2026-01-16 08:46:25.80	91.32	50.52	-42.6	-66.0	3.8	1.49e+00	0	33	104	0	51	52985
2026-01-16 08:46:26.81	90.81	50.74	-43.0	-66.0	3.8	1.49e+00	0	34	104	0	51	53033
2026-01-16 08:46:27.82	90.30	50.96	-43.2	-66.0	3.8	1.49e+00	0	34	104	0	51	52881
2026-01-16 08:46:28.83	89.78	51.18	-43.0	-66.0	3.8	1.49e+00	0	34	104	0	51	52943
2026-01-16 08:46:29.84	89.26	51.39	-42.8	-66.0	3.8	1.49e+00	0	33	104	0	51	52966
2026-01-16 08:46:30.85	88.72	51.61	-42.5	-66.0	3.8	1.49e+00	0	34	104	0	51	52974
2026-01-16 08:46:31.86	88.18	51.82	-42.5	-66.0	3.8	1.49e+00	0	33	104	0	51	52999
2026-01-16 08:46:32.87	87.63	52.03	-42.8	-66.0	3.8	1.49e+00	0	34	104	0	51	52944
2026-01-16 08:46:33.88	87.07	52.24	-42.8	-66.0	3.8	1.49e+00	0	33	104	0	51	53130
2026-01-16 08:46:34.89	86.51	52.45	-42.7	-66.0	3.8	1.49e+00	0	34	104	0	51	52949
2026-01-16 08:46:35.90	85.93	52.66	-42.6	-66.0	3.8	1.49e+00	0	33	104	0	51	53007
2026-01-16 08:46:36.91	85.35	52.86	-42.5	-66.0	3.8	1.49e+00	0	34	104	0	51	52985
2026-01-16 08:46:37.92	84.76	53.06	-42.7	-66.0	3.8	1.49e+00	0	33	104	0	51	52936
2026-01-16 08:46:38.93	84.16	53.26	-42.8	-66.0	3.8	1.49e+00	0	33	104	0	51	52977
2026-01-16 08:46:39.94	83.55	53.45	-42.8	-66.0	3.8	1.49e+00	0	34	104	0	51	52983
2026-01-16 08:46:40.94	82.95	53.65	-42.6	-66.0	3.8	1.49e+00	0	33	104	0	51	53113
2026-01-16 08:46:41.95	82.32	53.84	-42.6	-66.0	3.8	1.49e+00	0	34	104	0	51	52948
2026-01-16 08:46:42.96	81.69	54.02	-42.6	-66.0	3.8	1.49e+00	0	33	104	0	51	53005
2026-01-16 08:46:43.97	81.05	54.21	-42.7	-66.0	3.8	1.49e+00	0	34	104	0	51	52998
2026-01-16 08:46:44.98	80.41	54.39	-42.8	-66.0	3.8	1.49e+00	0	34	104	0	51	52997
2026-01-16 08:46:45.99	79.75	54.57	-43.1	-66.0	3.8	1.49e+00	0	33	104	0	51	53026
2026-01-16 08:46:47.00	79.09	54.75	-43.0	-66.0	3.8	1.49e+00	0	33	104	0	51	52983
2026-01-16 08:46:48.01	78.41	54.92	-43.0	-66.0	3.8	1.49e+00	0	34	104	0	51	52922
2026-01-16 08:46:49.02	77.73	55.09	-43.2	-66.0	3.8	1.49e+00	0	34	104	0	51	52887
2026-01-16 08:46:50.03	77.04	55.25	-43.3	-66.0	3.8	1.49e+00	0	33	104	0	51	52965
2026-01-16 08:46:51.03	76.35	55.41	-43.4	-66.0	3.8	1.49e+00	0	34	104	0	51	52876
2026-01-16 08:46:52.04	75.65	55.57	-43.4	-65.9	3.8	1.49e+00	0	34	104	0	52	49537
2026-01-16 08:46:53.05	74.94	55.73	-43.4	-65.9	3.8	1.49e+00	0	34	104	0	52	49740
2026-01-16 08:46:54.06	74.22	55.88	-43.5	-65.9	3.8	1.49e+00	0	33	104	0	52	49620
2026-01-16 08:46:55.07	73.49	56.02	-43.5	-65.9	3.8	1.49e+00	0	34	104	0	52	49646
2026-01-16 08:46:56.08	72.75	56.16	-43.3	-65.9	3.8	1.49e+00	0	33	104	0	52	49703
2026-01-16 08:46:57.09	72.01	56.30	-43.3	-65.9	3.8	1.49e+00	0	33	104	0	52	49719
2026-01-16 08:46:58.10	71.26	56.44	-43.4	-65.9	3.8	1.49e+00	0	33	104	0	52	49732
2026-01-16 08:46:59.11	70.50	56.56	-43.5	-65.9	3.8	1.49e+00	0	33	104	0	52	49733
2026-01-16 08:47:00.12	69.74	56.69	-43.6	-65.9	3.8	1.49e+00	0	33	104	0	52	49603
2026-01-16 08:47:01.12	68.98	56.81	-43.6	-65.9	3.8	1.49e+00	0	34	104	0	52	49592
2026-01-16 08:47:02.13	68.20	56.92	-43.8	-65.9	3.8	1.49e+00	0	33	104	0	52	49568
2026-01-16 08:47:03.14	67.41	57.03	-43.8	-65.9	3.8	1.49e+00	0	34	104	0	53	46866
2026-01-16 08:47:04.15	66.62	57.14	-43.8	-65.9	3.8	1.49e+00	0	33	104	0	53	46889
2026-01-16 08:47:05.16	65.83	57.23	-43.5	-65.9	3.8	1.49e+00	0	34	104	0	53	46889
2026-01-16 08:47:06.17	65.03	57.33	-43.7	-65.9	3.8	1.49e+00	0	34	104	0	53	46874
2026-01-16 08:47:07.18	64.22	57.42	-43.9	-65.9	3.8	1.49e+00	0	34	104	0	53	46965
2026-01-16 08:47:08.19	63.41	57.50	-44.2	-65.9	3.8	1.49e+00	0	33	104	0	53	46872
2026-01-16 08:47:09.20	62.59	57.58	-44.2	-65.9	3.8	1.49e+00	0	33	104	0	53	46837
2026-01-16 08:47:10.21	61.77	57.65	-44.3	-65.9	3.8	1.49e+00	0	34	104	0	53	47001
2026-01-16 08:47:11.22	60.94	57.72	-44.3	-65.9	3.8	1.49e+00	0	33	104	0	53	47017
2026-01-16 08:47:12.23	60.11	57.78	-44.3	-65.9	3.8	1.49e+00	0	34	104	0	53	46964
2026-01-16 08:47:13.24	59.28	57.84	-44.3	-65.9	3.8	1.49e+00	0	34	104	0	53	46771
2026-01-16 08:47:14.25	58.44	57.89	-44.3	-65.9	3.8	1.49e+00	0	33	104	0	53	46933
2026-01-16 08:47:15.26	57.60	57.93	-44.6	-65.9	3.8	1.49e+00	0	34	104	0	54	44243
2026-01-16 08:47:16.27	56.76	57.97	-44.8	-65.9	3.8	1.49e+00	0	34	104	0	54	44333
2026-01-16 08:47:17.27	55.92	58.01	-44.8	-65.9	3.8	1.49e+00	0	34	104	0	54	44327
2026-01-16 08:47:18.28	55.08	58.03	-44.9	-65.9	3.8	1.49e+00	0	33	104	0	54	44362
2026-01-16 08:47:19.29	54.23	58.05	-44.9	-65.9	3.8	1.49e+00	0	34	104	0	55	41815
2026-01-16 08:47:20.30	53.38	58.07	-44.9	-65.9	3.8	1.49e+00	0	34	104	0	55	41823
2026-01-16 08:47:21.31	52.53	58.08	-45.1	-65.9	3.8	1.49e+00	0	33	104	0	55	41807
2026-01-16 08:47:22.32	51.68	58.08	-45.2	-65.9	3.8	1.49e+00	0	34	104	0	55	41719
2026-01-16 08:47:23.33	50.83	58.08	-45.4	-65.9	3.8	1.49e+00	0	34	104	0	55	41687
2026-01-16 08:47:24.34	49.98	58.07	-45.5	-66.1	3.8	1.49e+00	0	34	104	0	56	40100
2026-01-16 08:47:25.35	49.13	58.06	-45.6	-66.1	3.8	1.49e+00	0	34	104	0	56	40224
2026-01-16 08:47:26.36	48.28	58.04	-45.5	-66.1	3.8	1.49e+00	0	34	104	0	56	40173
2026-01-16 08:47:27.37	47.43	58.01	-45.6	-66.1	3.8	1.49e+00	0	33	104	0	56	40191
2026-01-16 08:47:28.38	46.59	57.98	-45.6	-66.0	3.8	1.49e+00	0	34	104	0	56	39961
2026-01-16 08:47:29.39	45.74	57.94	-45.6	-66.1	3.8	1.49e+00	0	34	104	0	56	40059
2026-01-16 08:47:30.40	44.90	57.90	-45.5	-66.1	3.8	1.49e+00	0	34	104	0	56	40083
2026-01-16 08:47:31.40	44.07	57.85	-45.5	-66.1	3.8	1.49e+00	0	33	104	0	56	40136
2026-01-16 08:47:32.41	43.24	57.79	-45.6	-66.1	3.8	1.49e+00	0	34	104	0	56	40220
2026-01-16 08:47:33.42	42.41	57.73	-45.7	-66.1	3.8	1.49e+00	0	34	104	0	56	40161
2026-01-16 08:47:34.43	41.58	57.67	-45.9	-66.1	3.8	1.49e+00	0	34	104	0	56	40119
2026-01-16 08:47:35.44	40.76	57.60	-45.9	-66.1	3.8	1.49e+00	0	34	104	0	57	37817
2026-01-16 08:47:36.45	39.94	57.52	-46.1	-66.1	3.8	1.49e+00	0	34	104	0	57	37808
2026-01-16 08:47:37.46	39.13	57.44	-46.2	-66.1	3.8	1.49e+00	0	34	104	0	57	37814
2026-01-16 08:47:38.47	38.32	57.35	-46.4	-66.0	3.8	1.49e+00	0	33	104	0	57	37786
2026-01-16 08:47:39.48	37.52	57.25	-46.3	-66.1	3.8	1.49e+00	0	34	104	0	57	37841
2026-01-16 08:47:40.49	36.72	57.16	-46.2	-66.0	3.8	1.49e+00	0	34	104	0	57	37635
2026-01-16 08:47:41.50	35.93	57.05	-46.1	-66.0	3.8	1.49e+00	0	34	104	0	57	37678
2026-01-16 08:47:42.51	35.15	56.94	-46.1	-66.0	3.8	1.49e+00	0	34	104	0	57	37701
2026-01-16 08:47:43.52	34.37	56.83	-46.0	-66.0	3.8	1.49e+00	0	34	104	0	57	37700
2026-01-16 08:47:44.53	33.60	56.71	-45.9	-66.0	3.8	1.49e+00	0	34	104	0	57	37733
2026-01-16 08:47:45.54	32.83	56.59	-46.0	-66.0	3.8	1.49e+00	0	34	104	0	57	37697
2026-01-16 08:47:46.55	32.08	56.46	-46.2	-66.0	3.8	1.49e+00	0	33	104	0	57	37629
2026-01-16 08:47:47.56	31.32	56.33	-46.2	-66.0	3.8	1.49e+00	0	34	104	0	57	37636
2026-01-16 08:47:48.57	30.58	56.19	-46.3	-66.0	3.8	1.49e+00	0	34	104	0	57	37692
2026-01-16 08:47:49.57	29.85	56.05	-46.3	-66.0	3.8	1.49e+00	0	34	104	0	57	37667
2026-01-16 08:47:50.58	29.12	55.91	-46.3	-66.0	3.8	1.49e+00	0	34	104	0	57	37549
2026-01-16 08:47:51.59	28.40	55.76	-46.3	-66.0	3.8	1.49e+00	0	34	104	0	57	37564
2026-01-16 08:47:52.60	27.69	55.61	-46.4	-66.0	3.8	1.49e+00	0	34	104	0	57	37551
2026-01-16 08:47:53.61	26.98	55.45	-46.3	-66.0	3.8	1.49e+00	0	34	104	0	57	37483
2026-01-16 08:47:54.62	26.29	55.29	-46.3	-66.0	3.8	1.49e+00	0	34	104	0	57	37540
2026-01-16 08:47:55.63	25.60	55.12	-46.4	-66.0	3.8	1.49e+00	0	34	104	0	57	37559
2026-01-16 08:47:56.64	24.92	54.95	-46.4	-66.0	3.8	1.49e+00	0	34	104	0	58	35515
2026-01-16 08:47:57.65	24.24	54.78	-46.3	-66.0	3.8	1.49e+00	0	34	104	0	58	35498
2026-01-16 08:47:58.66	23.58	54.61	-46.3	-66.0	3.8	1.49e+00	0	34	104	0	58	35343
2026-01-16 08:47:59.67	22.92	54.43	-46.4	-66.0	3.8	1.49e+00	0	34	104	0	58	35350
2026-01-16 08:48:00.68	22.27	54.25	-46.3	-66.0	3.8	1.49e+00	0	34	104	0	58	35421
2026-01-16 08:48:01.68	21.64	54.07	-46.4	-66.0	3.8	1.49e+00	0	34	104	0	58	35446
2026-01-16 08:48:02.69	21.01	53.88	-46.5	-66.0	3.8	1.49e+00	0	33	104	0	58	35285
2026-01-16 08:48:03.70	20.38	53.69	-46.4	-65.9	3.8	1.49e+00	0	33	104	0	58	35266
2026-01-16 08:48:04.71	19.77	53.50	-46.4	-66.0	3.8	1.49e+00	0	34	104	0	58	35320
2026-01-16 08:48:05.72	19.16	53.30	-46.4	-65.9	3.8	1.49e+00	0	34	104	0	58	35263
2026-01-16 08:48:06.73	18.56	53.10	-46.4	-65.9	3.8	1.49e+00	0	34	104	0	58	35271
2026-01-16 08:48:07.74	17.97	52.90	-46.4	-65.9	3.8	1.49e+00	0	34	104	0	58	35143
2026-01-16 08:48:08.75	17.39	52.70	-46.4	-65.9	3.8	1.49e+00	0	34	104	0	58	35155
2026-01-16 08:48:09.76	16.81	52.50	-46.3	-65.9	3.8	1.49e+00	0	34	104	0	58	35140
2026-01-16 08:48:10.77	16.25	52.29	-46.3	-65.9	3.8	1.49e+00	0	34	104	0	58	35099
2026-01-16 08:48:11.78	15.69	52.08	-46.2	-65.9	3.8	1.49e+00	0	34	104	0	58	35145
2026-01-16 08:48:12.79	15.14	51.87	-46.2	-65.9	3.8	1.49e+00	0	34	104	0	58	35167
2026-01-16 08:48:13.80	14.59	51.66	-46.1	-65.9	3.8	1.49e+00	0	34	104	0	58	34999
2026-01-16 08:48:14.81	14.06	51.45	-46.1	-65.9	3.8	1.49e+00	0	34	104	0	58	34991
2026-01-16 08:48:15.82	13.53	51.23	-46.1	-65.9	3.8	1.49e+00	0	34	104	0	58	34949
2026-01-16 08:48:16.83	13.01	51.01	-46.0	-65.9	3.8	1.49e+00	0	34	104	0	58	34895
2026-01-16 08:48:17.83	12.50	50.80	-46.0	-65.9	3.8	1.49e+00	0	34	104	0	58	34966
2026-01-16 08:48:18.84	12.00	50.58	-46.0	-65.9	3.8	1.49e+00	0	34	104	0	58	34914
2026-01-16 08:48:19.85	11.50	50.36	-46.0	-65.9	3.8	1.49e+00	0	34	104	0	58	34973
2026-01-16 08:48:20.86	11.01	50.13	-46.0	-65.9	3.8	1.49e+00	0	34	104	0	58	34880
2026-01-16 08:48:21.87	10.53	49.91	-46.0	-65.9	3.8	1.49e+00	0	34	104	0	58	34899
2026-01-16 08:48:22.88	10.05	49.69	-46.0	-65.8	3.8	1.49e+00	0	34	104	0	58	34831
2026-01-16 08:48:23.89	9.58	49.46	-46.0	-65.8	3.8	1.49e+00	0	34	104	0	58	34788
2026-01-16 08:48:24.90	9.12	49.23	-46.0	-65.8	3.8	1.49e+00	0	34	104	0	58	34753
2026-01-16 08:48:25.91	8.66	49.01	-46.1	-65.8	3.8	1.49e+00	0	34	104	0	58	34696
2026-01-16 08:48:26.92	8.21	48.78	-46.0	-65.8	3.8	1.49e+00	0	34	104	0	58	34718
2026-01-16 08:48:27.93	7.77	48.55	-46.0	-65.8	3.8	1.49e+00	0	34	104	0	58	34655
2026-01-16 08:48:28.94	7.34	48.32	-46.0	-65.8	3.8	1.49e+00	0	34	104	0	58	34540
2026-01-16 08:48:29.94	6.91	48.09	-46.0	-65.8	3.8	1.49e+00	0	34	104	0	58	34670
2026-01-16 08:48:30.95	6.49	47.86	-46.0	-65.8	3.8	1.49e+00	0	33	104	0	58	34617
2026-01-16 08:48:31.96	6.07	47.63	-51.3	-65.3	3.8	1.49e+00	0	34	104	0	67	19496
2026-01-16 08:48:32.97	5.66	47.40	-51.3	-65.3	3.8	1.49e+00	0	34	104	0	67	19439
2026-01-16 08:48:33.98	5.26	47.17	-51.3	-65.3	3.8	1.49e+00	0	34	104	0	67	19407
2026-01-16 08:48:34.99	4.86	46.94	-51.3	-65.3	3.8	1.49e+00	0	34	104	0	67	19418
2026-01-16 08:48:36.00	4.47	46.70	-51.3	-65.2	3.8	1.49e+00	0	33	104	0	67	19364
2026-01-16 08:48:37.01	4.08	46.47	-51.3	-65.2	3.8	1.49e+00	0	34	104	0	67	19372
2026-01-16 08:48:38.02	3.70	46.24	-51.2	-65.2	3.8	1.49e+00	0	33	104	0	67	19313
2026-01-16 08:48:39.03	3.33	46.01	-51.3	-65.2	3.8	1.49e+00	0	34	104	0	67	19309
2026-01-16 08:48:40.04	2.96	45.78	-51.2	-65.2	3.8	1.49e+00	0	34	104	0	67	19292
2026-01-16 08:48:41.05	2.60	45.54	-51.2	-65.2	3.8	1.49e+00	0	33	104	0	67	19261
2026-01-16 08:48:42.05	2.24	45.31	-51.2	-65.2	3.8	1.49e+00	0	34	104	0	67	19323
2026-01-16 08:48:43.07	1.88	45.08	-51.2	-65.2	3.8	1.49e+00	0	34	104	0	67	19222
2026-01-16 08:48:44.07	1.54	44.85	-51.2	-65.2	3.8	1.49e+00	0	34	104	0	67	19229
2026-01-16 08:48:45.08	1.20	44.62	-51.2	-65.2	3.8	1.49e+00	0	34	104	0	67	19199
2026-01-16 08:48:46.09	0.86	44.39	-51.2	-65.2	3.8	1.49e+00	0	34	104	0	67	19250
2026-01-16 08:48:47.10	0.53	44.15	-51.2	-65.1	3.8	1.49e+00	0	34	104	0	67	19156
2026-01-16 08:48:48.11	0.20	43.92	-51.2	-65.1	3.8	1.49e+00	0	34	104	0	67	19129
2026-01-16 08:48:49.12	359.87	43.69	-51.2	-65.1	3.8	1.49e+00	0	34	104	0	67	19103
2026-01-16 08:48:50.13	359.56	43.46	-51.2	-65.1	3.8	1.49e+00	0	34	104	0	67	19163
2026-01-16 08:48:51.14	359.24	43.23	-51.1	-65.1	3.8	1.49e+00	0	33	104	0	67	19040
2026-01-16 08:48:52.15	358.93	43.00	-51.1	-65.1	3.8	1.49e+00	0	34	104	0	67	19049
2026-01-16 08:48:53.16	358.63	42.77	-51.1	-65.1	3.8	1.49e+00	0	34	104	0	67	19030
2026-01-16 08:48:54.17	358.33	42.55	-51.1	-65.1	3.8	1.49e+00	0	34	104	0	67	19065
2026-01-16 08:48:55.17	358.03	42.32	-51.1	-65.1	3.8	1.49e+00	0	34	104	0	67	19001
2026-01-16 08:48:56.18	357.74	42.09	-51.1	-65.1	3.8	1.49e+00	0	34	104	0	67	18981
2026-01-16 08:48:57.19	357.45	41.86	-51.1	-65.1	3.8	1.49e+00	0	34	104	0	67	18954
2026-01-16 08:48:58.20	357.17	41.64	-51.1	-65.1	3.8	1.49e+00	0	34	104	0	67	19061
2026-01-16 08:48:59.21	356.89	41.41	-51.1	-65.1	3.8	1.49e+00	0	34	104	0	67	18957
2026-01-16 08:49:00.22	356.61	41.19	-51.1	-65.0	3.8	1.49e+00	0	34	104	0	67	18936
2026-01-16 08:49:01.23	356.34	40.96	-51.1	-65.0	3.8	1.49e+00	0	34	104	0	67	18854
2026-01-16 08:49:02.24	356.07	40.74	-51.1	-65.0	3.8	1.49e+00	0	34	104	0	67	18914
2026-01-16 08:49:03.25	355.80	40.52	-51.1	-65.0	3.8	1.49e+00	0	34	104	0	67	18832
2026-01-16 08:49:04.25	355.55	40.30	-51.0	-65.0	3.8	1.49e+00	0	34	104	0	67	18812
2026-01-16 08:49:05.26	355.29	40.07	-51.0	-65.0	3.8	1.49e+00	0	34	104	0	67	18870
2026-01-16 08:49:06.27	355.03	39.85	-51.0	-65.0	3.8	1.49e+00	0	34	104	0	67	18881
2026-01-16 08:49:07.28	354.78	39.63	-51.0	-65.0	3.8	1.49e+00	0	33	104	0	67	18741
2026-01-16 08:49:08.29	354.54	39.41	-51.0	-64.9	3.8	1.49e+00	0	34	104	0	67	18726
2026-01-16 08:49:09.30	354.29	39.19	-51.0	-64.9	3.8	1.49e+00	0	34	104	0	67	18724
2026-01-16 08:49:10.31	354.05	38.98	-51.0	-65.0	3.8	1.49e+00	0	34	104	0	67	18742
2026-01-16 08:49:11.32	353.81	38.76	-51.0	-64.9	3.8	1.49e+00	0	34	104	0	67	18721
2026-01-16 08:49:12.33	353.58	38.54	-51.0	-64.9	3.8	1.49e+00	0	34	104	0	67	18680
2026-01-16 08:49:13.33	353.35	38.33	-51.0	-65.0	3.8	1.49e+00	0	34	104	0	67	18734
2026-01-16 08:49:14.34	353.12	38.11	-51.0	-64.9	3.8	1.49e+00	0	34	104	0	67	18629
2026-01-16 08:49:15.35	352.90	37.90	-50.9	-64.9	3.8	1.49e+00	0	34	104	0	67	18651
2026-01-16 08:49:16.36	352.68	37.69	-50.9	-64.9	3.8	1.49e+00	0	34	104	0	67	18594
2026-01-16 08:49:17.37	352.46	37.48	-50.9	-64.9	3.8	1.49e+00	0	34	104	0	67	18635
2026-01-16 08:49:18.38	352.24	37.26	-50.9	-64.9	3.8	1.49e+00	0	34	104	0	67	18537
2026-01-16 08:49:19.39	352.03	37.05	-50.9	-64.9	3.8	1.49e+00	0	34	104	0	67	18528
2026-01-16 08:49:20.40	351.82	36.84	-50.9	-64.8	3.8	1.49e+00	0	34	104	0	67	18391
2026-01-16 08:49:21.41	351.61	36.64	-50.9	-64.8	3.8	1.49e+00	0	34	104	0	67	18509
2026-01-16 08:49:22.42	351.41	36.43	-50.9	-64.8	3.8	1.49e+00	0	34	104	0	67	18506
2026-01-16 08:49:23.43	351.20	36.22	-50.9	-64.8	3.8	1.49e+00	0	34	104	0	67	18487
2026-01-16 08:49:24.44	351.00	36.02	-50.8	-64.8	3.8	1.49e+00	0	34	104	0	67	18392
2026-01-16 08:49:25.45	350.81	35.81	-50.9	-64.8	3.8	1.49e+00	0	34	104	0	67	18480
2026-01-16 08:49:26.45	350.61	35.61	-50.8	-64.8	3.8	1.49e+00	0	33	104	0	67	18362
2026-01-16 08:49:27.46	350.42	35.41	-50.8	-64.8	3.8	1.49e+00	0	34	104	0	67	18358
2026-01-16 08:49:28.47	350.23	35.20	-50.8	-64.7	3.8	1.49e+00	0	34	104	0	67	18234
2026-01-16 08:49:29.48	350.04	35.00	-50.8	-64.8	3.8	1.49e+00	0	34	104	0	67	18352
2026-01-16 08:49:30.49	349.86	34.80	-50.8	-64.7	3.8	1.49e+00	0	34	104	0	67	18254
2026-01-16 08:49:31.50	349.67	34.60	-50.8	-64.7	3.8	1.49e+00	0	34	104	0	67	18303
2026-01-16 08:49:32.51	349.49	34.40	-50.7	-64.7	3.8	1.49e+00	0	34	104	0	67	18203
2026-01-16 08:49:33.52	349.31	34.21	-50.8	-64.7	3.8	1.49e+00	0	34	104	0	67	18237
2026-01-16 08:49:34.53	349.14	34.01	-50.7	-64.7	3.8	1.49e+00	0	34	104	0	67	18212
2026-01-16 08:49:35.54	348.96	33.81	-50.8	-64.7	3.8	1.49e+00	0	34	104	0	67	18238
2026-01-16 08:49:36.54	348.79	33.62	-50.7	-64.7	3.8	1.49e+00	0	34	104	0	67	18151
2026-01-16 08:49:37.55	348.62	33.43	-50.8	-64.7	3.8	1.49e+00	0	34	104	0	67	18178
2026-01-16 08:49:38.56	348.46	33.23	-50.7	-64.7	3.8	1.49e+00	0	34	104	0	67	18115
2026-01-16 08:49:39.57	348.29	33.04	-50.7	-64.7	3.8	1.49e+00	0	34	104	0	67	18202
2026-01-16 08:49:40.58	348.13	32.85	-50.7	-64.6	3.8	1.49e+00	0	34	104	0	67	17999
2026-01-16 08:49:41.59	347.96	32.66	-50.7	-64.7	3.8	1.49e+00	0	34	104	0	67	18122
2026-01-16 08:49:42.60	347.80	32.47	-50.7	-64.6	3.8	1.49e+00	0	33	104	0	67	17979
2026-01-16 08:49:43.61	347.65	32.28	-50.7	-64.7	3.8	1.49e+00	0	33	104	0	67	18113
2026-01-16 08:49:44.62	347.49	32.10	-50.6	-64.6	3.8	1.49e+00	0	33	104	0	67	17978
2026-01-16 08:49:45.63	347.34	31.91	-50.7	-64.7	3.8	1.49e+00	0	34	104	0	67	18104
2026-01-16 08:49:46.64	347.18	31.73	-50.6	-64.6	3.8	1.49e+00	0	34	104	0	67	17921
2026-01-16 08:49:47.65	347.03	31.54	-50.7	-64.6	3.8	1.49e+00	0	34	104	0	67	17986
2026-01-16 08:49:48.66	346.88	31.36	-50.6	-64.5	3.8	1.49e+00	0	34	104	0	67	17873
2026-01-16 08:49:49.66	346.74	31.18	-50.7	-64.6	3.8	1.49e+00	0	34	104	0	67	18027
2026-01-16 08:49:50.67	346.59	30.99	-50.6	-64.5	3.8	1.49e+00	0	34	104	0	67	17840
2026-01-16 08:49:51.68	346.45	30.81	-50.6	-64.6	3.8	1.49e+00	0	34	104	0	67	17920
2026-01-16 08:49:52.69	346.30	30.63	-50.6	-64.5	3.8	1.49e+00	0	34	104	0	67	17776
2026-01-16 08:49:53.70	346.16	30.45	-50.6	-64.6	3.8	1.49e+00	0	34	104	0	67	17955
2026-01-16 08:49:54.71	346.02	30.28	-50.5	-64.5	3.8	1.49e+00	0	34	104	0	67	17755
2026-01-16 08:49:55.72	345.89	30.10	-50.6	-64.5	3.8	1.49e+00	0	34	104	0	67	17881
2026-01-16 08:49:56.73	345.75	29.92	-50.5	-64.4	3.8	1.49e+00	0	34	104	0	67	17614
2026-01-16 08:49:57.74	345.62	29.75	-50.6	-64.6	3.8	1.49e+00	0	33	104	0	67	17909
2026-01-16 08:49:58.75	345.48	29.57	-50.5	-64.4	3.8	1.49e+00	0	33	104	0	67	17649
2026-01-16 08:49:59.76	345.35	29.40	-50.6	-64.5	3.8	1.49e+00	0	33	104	0	67	17808
2026-01-16 08:50:00.77	345.22	29.23	-50.5	-64.4	3.8	1.49e+00	0	34	104	0	67	17599
2026-01-16 08:50:01.78	345.09	29.06	-50.6	-64.5	3.8	1.49e+00	0	34	104	0	67	17762
2026-01-16 08:50:02.78	344.97	28.89	-50.5	-64.4	3.8	1.49e+00	0	34	104	0	67	17631
2026-01-16 08:50:03.79	344.84	28.72	-50.5	-64.4	3.8	1.49e+00	0	34	104	0	67	17665
2026-01-16 08:50:04.80	344.71	28.55	-50.4	-64.4	3.8	1.49e+00	0	34	104	0	67	17508
2026-01-16 08:50:05.81	344.59	28.38	-50.5	-64.4	3.8	1.49e+00	0	33	104	0	67	17677
2026-01-16 08:50:06.82	344.47	28.21	-50.4	-64.4	3.8	1.49e+00	0	34	104	0	67	17514
2026-01-16 08:50:07.83	344.35	28.04	-50.5	-64.4	3.8	1.49e+00	0	34	104	0	67	17648
2026-01-16 08:50:08.84	344.23	27.88	-50.4	-64.3	3.8	1.49e+00	0	34	104	0	67	17431
2026-01-16 08:50:09.85	344.11	27.71	-50.5	-64.4	3.8	1.49e+00	0	34	104	0	67	17620
2026-01-16 08:50:10.86	343.99	27.55	-50.4	-64.3	3.8	1.49e+00	0	34	104	0	67	17401
2026-01-16 08:50:11.87	343.88	27.39	-50.4	-64.4	3.8	1.49e+00	0	34	104	0	67	17550
2026-01-16 08:50:12.88	343.76	27.22	-50.3	-64.2	3.8	1.49e+00	0	34	104	0	67	17236
2026-01-16 08:50:13.89	343.65	27.06	-50.4	-64.4	3.8	1.49e+00	0	34	104	0	67	17571
2026-01-16 08:50:14.90	343.54	26.90	-50.3	-64.2	3.8	1.49e+00	0	34	104	0	67	17254
2026-01-16 08:50:15.91	343.43	26.74	-50.4	-64.3	3.8	1.49e+00	0	34	104	0	67	17451
2026-01-16 08:50:16.92	343.32	26.58	-50.3	-64.2	3.8	1.49e+00	0	34	104	0	67	17170
2026-01-16 08:50:17.93	343.21	26.42	-50.4	-64.3	3.8	1.49e+00	0	34	104	0	67	17449
2026-01-16 08:50:18.94	343.10	26.27	-50.2	-64.1	3.8	1.49e+00	0	34	104	0	66	17949
2026-01-16 08:50:19.95	343.00	26.11	-50.3	-64.3	3.8	1.49e+00	0	34	104	0	66	18356
2026-01-16 08:50:20.96	342.89	25.95	-50.1	-64.0	3.8	1.49e+00	0	33	104	0	66	17777
2026-01-16 08:50:21.96	342.79	25.80	-50.3	-64.2	3.8	1.49e+00	0	34	104	0	66	18235
2026-01-16 08:50:22.97	342.68	25.65	-50.0	-63.9	3.8	1.49e+00	0	34	104	0	66	17548
2026-01-16 08:50:23.98	342.58	25.49	-50.3	-64.2	3.8	1.49e+00	0	34	104	0	66	18108
2026-01-16 08:50:24.99	342.48	25.34	-49.6	-63.5	3.8	1.49e+00	0	34	104	0	65	17688
2026-01-16 08:50:26.00	342.38	25.19	-50.1	-64.1	3.8	1.49e+00	0	34	104	0	65	19012
2026-01-16 08:50:27.01	342.28	25.04	-49.3	-63.2	3.8	1.49e+00	0	34	104	0	65	17266
2026-01-16 08:50:28.02	342.18	24.89	-49.6	-63.5	3.8	1.49e+00	0	34	104	0	64	18812
2026-01-16 08:50:29.02	342.09	24.74	-49.3	-63.2	3.8	1.49e+00	0	34	104	0	64	18115
2026-01-16 08:50:30.03	341.99	24.59	-49.2	-63.2	3.8	1.49e+00	0	34	104	0	64	18195
2026-01-16 08:50:31.04	341.89	24.44	-49.4	-63.3	3.8	1.49e+00	0	34	104	0	64	18334
2026-01-16 08:50:32.05	341.80	24.29	-49.7	-63.6	3.8	1.49e+00	0	34	104	0	64	19060
2026-01-16 08:50:33.06	341.71	24.15	-49.7	-63.6	3.8	1.49e+00	0	34	104	0	64	19146
2026-01-16 08:50:34.07	341.61	24.00	-50.1	-64.0	3.8	1.49e+00	0	34	104	0	65	18828
2026-01-16 08:50:35.08	341.52	23.86	-49.8	-63.7	3.8	1.49e+00	0	34	104	0	65	18287
2026-01-16 08:50:36.09	341.43	23.71	-49.6	-63.5	3.8	1.49e+00	0	34	104	0	65	17783
2026-01-16 08:50:37.10	341.34	23.57	-49.8	-63.7	3.8	1.49e+00	0	34	104	0	65	18153
2026-01-16 08:50:38.10	341.25	23.43	-49.8	-63.7	3.8	1.49e+00	0	34	104	0	65	18181
2026-01-16 08:50:39.11	341.16	23.28	-49.8	-63.7	3.8	1.49e+00	0	34	104	0	65	18296
2026-01-16 08:50:40.12	341.08	23.14	-50.4	-64.3	3.8	1.49e+00	0	34	104	0	65	19511
2026-01-16 08:50:41.13	340.99	23.00	-50.8	-64.7	3.8	1.49e+00	0	34	104	0	66	19266
2026-01-16 08:50:42.14	340.90	22.86	-51.0	-64.7	3.8	1.49e+00	0	34	104	0	67	18222
2026-01-16 08:50:43.15	340.82	22.72	-51.2	-64.9	3.8	1.49e+00	0	34	104	0	67	18603
2026-01-16 08:50:44.16	340.73	22.58	-51.3	-65.3	3.8	1.49e+00	0	34	104	0	67	19463
2026-01-16 08:50:45.17	340.65	22.44	-51.6	-65.5	3.8	1.49e+00	0	34	104	0	68	18881
2026-01-16 08:50:46.18	340.57	22.31	-51.7	-65.5	3.8	1.49e+00	0	34	104	0	68	18926
2026-01-16 08:50:47.19	340.49	22.17	-51.8	-65.8	3.8	1.49e+00	0	34	104	0	68	19393
2026-01-16 08:50:48.20	340.40	22.03	-51.8	-65.8	3.8	1.49e+00	0	34	104	0	68	19603
2026-01-16 08:50:49.21	340.32	21.90	-51.9	-65.9	3.8	1.49e+00	0	34	104	0	68	19701
2026-01-16 08:50:50.22	340.24	21.76	-51.9	-65.9	3.8	1.49e+00	0	34	104	0	69	18652
2026-01-16 08:50:51.23	340.17	21.63	-52.0	-65.9	3.8	1.49e+00	0	34	104	0	69	18728
2026-01-16 08:50:52.24	340.09	21.50	-52.0	-65.9	3.8	1.49e+00	0	34	104	0	69	18712
2026-01-16 08:50:53.25	340.01	21.36	-52.0	-66.0	3.8	1.49e+00	0	34	104	0	69	18860
2026-01-16 08:50:54.26	339.93	21.23	-52.0	-66.0	3.8	1.49e+00	0	34	104	0	69	18800
2026-01-16 08:50:55.27	339.86	21.10	-52.0	-66.0	3.8	1.49e+00	0	34	104	0	69	18867
2026-01-16 08:50:56.28	339.78	20.97	-52.0	-66.0	3.8	1.49e+00	0	34	104	0	69	18835
2026-01-16 08:50:57.29	339.71	20.84	-52.0	-66.0	3.8	1.49e+00	0	34	104	0	69	18863
2026-01-16 08:50:58.30	339.63	20.71	-52.0	-66.0	3.8	1.49e+00	0	34	104	0	69	18827
2026-01-16 08:50:59.31	339.56	20.58	-52.0	-66.0	3.8	1.49e+00	0	34	104	0	69	18828
2026-01-16 08:51:00.32	339.48	20.45	-52.0	-66.0	3.8	1.49e+00	0	34	104	0	69	18792
2026-01-16 08:51:01.33	339.41	20.32	-52.0	-66.0	3.8	1.49e+00	0	34	104	0	69	18763
2026-01-16 08:51:02.34	339.34	20.19	-51.9	-65.9	3.8	1.49e+00	0	34	104	0	69	18709
2026-01-16 08:51:03.35	339.27	20.07	-51.9	-65.9	3.8	1.49e+00	0	33	104	0	69	18621
2026-01-16 08:51:04.35	339.20	19.94	-51.9	-65.9	3.8	1.49e+00	0	34	104	0	69	18594
2026-01-16 08:51:05.36	339.13	19.82	-51.9	-65.9	3.8	1.49e+00	0	33	104	0	69	18587
2026-01-16 08:51:06.37	339.06	19.69	-51.9	-65.9	3.8	1.49e+00	0	33	104	0	69	18527
2026-01-16 08:51:07.38	338.99	19.57	-51.9	-65.9	3.8	1.49e+00	0	34	104	0	69	18545
2026-01-16 08:51:08.39	338.92	19.44	-51.9	-65.9	3.8	1.49e+00	0	34	104	0	69	18577
2026-01-16 08:51:09.40	338.86	19.32	-51.9	-65.9	3.8	1.49e+00	0	34	104	0	69	18547
2026-01-16 08:51:10.41	338.79	19.20	-51.9	-65.9	3.8	1.49e+00	0	34	104	0	69	18585
2026-01-16 08:51:11.42	338.72	19.08	-51.8	-65.9	3.8	1.49e+00	0	34	104	0	69	18542
2026-01-16 08:51:12.43	338.66	18.95	-51.8	-65.8	3.8	1.49e+00	0	34	104	0	69	18514
2026-01-16 08:51:13.44	338.59	18.83	-51.8	-65.8	3.8	1.49e+00	0	34	104	0	69	18473
2026-01-16 08:51:14.45	338.53	18.71	-51.8	-65.8	3.8	1.49e+00	0	34	104	0	69	18434
2026-01-16 08:51:15.46	338.46	18.59	-51.9	-65.9	3.8	1.49e+00	0	34	104	0	69	18588
2026-01-16 08:51:16.46	338.40	18.47	-51.8	-65.8	3.8	1.49e+00	0	34	104	0	69	18435
2026-01-16 08:51:17.47	338.34	18.35	-51.8	-65.9	3.8	1.49e+00	0	34	104	0	69	18558
2026-01-16 08:51:18.48	338.28	18.24	-51.8	-65.8	3.8	1.49e+00	0	34	104	0	69	18447
2026-01-16 08:51:19.49	338.21	18.12	-51.8	-65.8	3.8	1.49e+00	0	34	104	0	69	18407
2026-01-16 08:51:20.50	338.15	18.00	-51.8	-65.8	3.8	1.49e+00	0	34	104	0	69	18387
2026-01-16 08:51:21.51	338.09	17.88	-51.8	-65.8	3.8	1.49e+00	0	34	104	0	69	18357
2026-01-16 08:51:22.52	338.03	17.77	-51.7	-65.8	3.8	1.49e+00	0	34	104	0	69	18349
2026-01-16 08:51:23.53	337.97	17.65	-51.8	-65.8	3.8	1.49e+00	0	34	104	0	69	18374
2026-01-16 08:51:24.54	337.91	17.54	-51.7	-65.8	3.8	1.49e+00	0	34	104	0	69	18322
2026-01-16 08:51:25.55	337.85	17.42	-51.7	-65.8	3.8	1.49e+00	0	33	104	0	69	18314
2026-01-16 08:51:26.56	337.79	17.31	-51.7	-65.7	3.8	1.49e+00	0	34	104	0	69	18299
2026-01-16 08:51:27.57	337.73	17.19	-51.7	-65.8	3.8	1.49e+00	0	34	104	0	69	18326
2026-01-16 08:51:28.58	337.68	17.08	-51.7	-65.8	3.8	1.49e+00	0	34	104	0	69	18316
2026-01-16 08:51:29.58	337.62	16.97	-51.7	-65.7	3.8	1.49e+00	0	34	104	0	69	18250
2026-01-16 08:51:30.59	337.56	16.86	-51.7	-65.7	3.8	1.49e+00	0	34	104	0	69	18272
2026-01-16 08:51:31.60	337.51	16.75	-51.7	-65.7	3.8	1.49e+00	0	34	104	0	69	18254
2026-01-16 08:51:32.61	337.45	16.63	-51.7	-65.7	3.8	1.49e+00	0	34	104	0	69	18227
2026-01-16 08:51:33.62	337.40	16.52	-51.7	-65.7	3.8	1.49e+00	0	34	104	0	69	18261
2026-01-16 08:51:34.63	337.34	16.41	-51.7	-65.7	3.8	1.49e+00	0	34	104	0	69	18187
2026-01-16 08:51:35.64	337.29	16.30	-51.7	-65.7	3.8	1.49e+00	0	34	104	0	69	18196
2026-01-16 08:51:36.65	337.23	16.19	-51.7	-65.7	3.8	1.49e+00	0	34	104	0	69	18216
2026-01-16 08:51:37.66	337.18	16.08	-51.7	-65.7	3.8	1.49e+00	0	34	104	0	69	18227
2026-01-16 08:51:38.67	337.13	15.98	-51.7	-65.7	3.8	1.49e+00	0	34	104	0	69	18195
2026-01-16 08:51:39.68	337.07	15.87	-51.7	-65.7	3.8	1.49e+00	0	34	104	0	69	18281
2026-01-16 08:51:40.68	337.02	15.76	-51.7	-65.7	3.8	1.49e+00	0	34	104	0	69	18186
2026-01-16 08:51:41.69	336.97	15.65	-51.7	-65.7	3.8	1.49e+00	0	34	104	0	69	18232
2026-01-16 08:51:42.70	336.92	15.55	-51.8	-65.8	3.8	1.49e+00	0	34	104	0	69	18324
2026-01-16 08:51:43.71	336.87	15.44	-51.7	-65.7	3.8	1.49e+00	0	34	104	0	69	18277
2026-01-16 08:51:44.72	336.81	15.34	-51.7	-65.7	3.8	1.49e+00	0	34	104	0	69	18280
2026-01-16 08:51:45.73	336.76	15.23	-51.7	-65.7	3.8	1.49e+00	0	34	104	0	69	18261
2026-01-16 08:51:46.74	336.71	15.12	-51.7	-65.7	3.8	1.49e+00	0	34	104	0	69	18218
2026-01-16 08:51:47.75	336.66	15.02	-51.7	-65.7	3.8	1.49e+00	0	34	104	0	69	18140
2026-01-16 08:51:48.76	336.61	14.92	-51.7	-65.7	3.8	1.49e+00	0	34	104	0	69	18168
2026-01-16 08:51:49.77	336.57	14.81	-51.7	-65.7	3.8	1.49e+00	0	34	104	0	69	18190
2026-01-16 08:51:50.78	336.52	14.71	-51.7	-65.7	3.8	1.49e+00	0	34	104	0	69	18221
2026-01-16 08:51:51.79	336.47	14.61	-51.7	-65.7	3.8	1.49e+00	0	34	104	0	69	18235
2026-01-16 08:51:52.80	336.42	14.50	-51.7	-65.7	3.8	1.49e+00	0	34	104	0	69	18232
2026-01-16 08:51:53.81	336.37	14.40	-51.7	-65.7	3.8	1.49e+00	0	34	104	0	69	18216
2026-01-16 08:51:54.82	336.33	14.30	-51.7	-65.7	3.8	1.49e+00	0	34	104	0	69	18180
2026-01-16 08:51:55.82	336.28	14.20	-51.7	-65.7	3.8	1.49e+00	0	34	104	0	69	18198
2026-01-16 08:51:56.84	336.23	14.10	-51.7	-65.7	3.8	1.49e+00	0	34	104	0	69	18167
2026-01-16 08:51:57.84	336.19	14.00	-51.7	-65.7	3.8	1.49e+00	0	34	104	0	69	18206
2026-01-16 08:51:58.85	336.14	13.90	-51.7	-65.7	3.8	1.49e+00	0	34	104	0	69	18181
2026-01-16 08:51:59.86	336.10	13.80	-51.7	-65.7	3.8	1.49e+00	0	34	104	0	69	18148
2026-01-16 08:52:00.87	336.05	13.70	-51.7	-65.7	3.8	1.49e+00	0	34	104	0	69	18108
2026-01-16 08:52:01.88	336.01	13.60	-51.7	-65.7	3.8	1.49e+00	0	34	104	0	69	18141
2026-01-16 08:52:02.89	335.96	13.50	-51.7	-65.7	3.8	1.49e+00	0	34	104	0	69	18220
2026-01-16 08:52:03.90	335.92	13.40	-51.7	-65.7	3.8	1.49e+00	0	34	104	0	69	18127
2026-01-16 08:52:04.91	335.87	13.31	-51.7	-65.7	3.8	1.49e+00	0	34	104	0	69	18185
2026-01-16 08:52:05.92	335.83	13.21	-51.7	-65.7	3.8	1.49e+00	0	34	104	0	69	18134
2026-01-16 08:52:06.93	335.79	13.11	-51.7	-65.7	3.8	1.49e+00	0	34	104	0	69	18180
2026-01-16 08:52:07.94	335.74	13.01	-51.7	-65.7	3.8	1.49e+00	0	34	104	0	69	18186
2026-01-16 08:52:08.95	335.70	12.92	-51.7	-65.7	3.8	1.49e+00	0	34	104	0	69	18118
2026-01-16 08:52:09.96	335.66	12.82	-51.7	-65.7	3.8	1.49e+00	0	34	104	0	69	18141
2026-01-16 08:52:10.96	335.62	12.73	-51.7	-65.7	3.8	1.49e+00	0	34	104	0	69	18122
2026-01-16 08:52:11.97	335.57	12.63	-51.6	-65.7	3.8	1.49e+00	0	34	104	0	69	18098
2026-01-16 08:52:12.98	335.53	12.54	-51.7	-65.7	3.8	1.49e+00	0	34	104	0	69	18132
2026-01-16 08:52:13.99	335.49	12.44	-51.7	-65.7	3.8	1.49e+00	0	34	104	0	69	18118
2026-01-16 08:52:15.00	335.45	12.35	-51.7	-65.7	3.8	1.49e+00	0	34	104	0	69	18144
2026-01-16 08:52:16.01	335.41	12.26	-51.7	-65.6	3.8	1.49e+00	0	34	104	0	69	18059
2026-01-16 08:52:17.02	335.37	12.16	-51.7	-65.7	3.8	1.49e+00	0	34	104	0	69	18108
2026-01-16 08:52:18.03	335.33	12.07	-51.7	-65.7	3.8	1.49e+00	0	34	104	0	69	18102
2026-01-16 08:52:19.04	335.29	11.98	-51.6	-65.7	3.8	1.49e+00	0	34	104	0	69	18168
2026-01-16 08:52:20.05	335.25	11.88	-51.7	-65.7	3.8	1.49e+00	0	34	104	0	69	18138
2026-01-16 08:52:21.06	335.21	11.79	-51.7	-65.7	3.8	1.49e+00	0	34	104	0	69	18139
2026-01-16 08:52:22.07	335.17	11.70	-51.7	-65.7	3.8	1.49e+00	0	34	104	0	69	18111
2026-01-16 08:52:23.07	335.13	11.61	-51.6	-65.6	3.8	1.49e+00	0	34	104	0	69	18094
2026-01-16 08:52:24.08	335.10	11.52	-51.7	-65.7	3.8	1.49e+00	0	34	104	0	69	18104
2026-01-16 08:52:25.09	335.06	11.43	-51.6	-65.7	3.8	1.49e+00	0	34	104	0	69	18144
2026-01-16 08:52:26.10	335.02	11.34	-51.7	-65.7	3.8	1.49e+00	0	34	104	0	69	18104
2026-01-16 08:52:27.11	334.98	11.25	-51.6	-65.7	3.8	1.49e+00	0	34	104	0	69	18097
2026-01-16 08:52:28.12	334.95	11.16	-51.6	-65.6	3.8	1.49e+00	0	34	104	0	69	18093
2026-01-16 08:52:29.13	334.91	11.07	-51.7	-65.6	3.8	1.49e+00	0	34	104	0	69	18084
2026-01-16 08:52:30.14	334.87	10.98	-51.6	-65.7	3.8	1.49e+00	0	34	104	0	69	18112
2026-01-16 08:52:31.15	334.83	10.89	-51.6	-65.7	3.8	1.49e+00	0	34	104	0	69	18119
2026-01-16 08:52:32.16	334.80	10.80	-51.6	-65.7	3.8	1.49e+00	0	34	104	0	69	18116
2026-01-16 08:52:33.17	334.76	10.71	-51.6	-65.6	3.8	1.49e+00	0	34	104	0	69	18082
2026-01-16 08:52:34.18	334.73	10.62	-51.6	-65.7	3.8	1.49e+00	0	34	104	0	69	18108
2026-01-16 08:52:35.19	334.69	10.54	-51.6	-65.7	3.8	1.49e+00	0	34	104	0	69	18110
2026-01-16 08:52:36.19	334.66	10.45	-51.6	-65.6	3.8	1.49e+00	0	34	104	0	69	18038
2026-01-16 08:52:37.20	334.62	10.36	-51.6	-65.6	3.8	1.49e+00	0	34	104	0	69	18074
2026-01-16 08:52:38.21	334.59	10.27	-51.6	-65.7	3.8	1.49e+00	0	34	104	0	69	18149
2026-01-16 08:52:39.22	334.55	10.19	-51.6	-65.6	3.8	1.49e+00	0	34	104	0	69	18073
2026-01-16 08:52:40.23	334.52	10.10	-51.6	-65.7	3.8	1.49e+00	0	34	104	0	69	18113
2026-01-16 08:52:41.24	334.48	10.02	-51.6	-65.7	3.8	1.49e+00	0	34	104	0	69	18109
