passes_logs/2026/01/16/R3.2S_Murmansk_2ch/R3.2S_Murmansk_2ch__20260116_070109_NOAA_21_JPSS-2_rec.log

#Pass ID: 20260116_070109_NOAA 21 (JPSS-2)
#Satellite: NOAA 21 (JPSS-2)
#Configuration: NOAA-21
#almurnet v.1.7.20251203
#Start time: 2026-01-16 07:01:08

#Version: 2.2.20231116
#Station: R3.2S_Murmansk_2ch
#Location: 33.079688 lon 68.888172 lat
#TLE: 1 54234U 22150A   26015.92901934  .00000025  00000+0  32700-4 0  9991
#TLE: 2 54234  98.7499 316.8175 0000634 284.8145  75.2961 14.19534841164946

#Time	Az	El	Level	Level2	SNR	BER	BlckErr	Temp	State	Recorded	gain1	gain2
2026-01-16 07:01:08.72	95.40	1.97	-51.2	-65.2	3.8	1.49e+00	0	31	0	0	67	19198
2026-01-16 07:01:09.73	95.35	2.03	-51.2	-65.2	3.8	1.49e+00	0	31	104	0	67	19261
2026-01-16 07:01:10.74	95.30	2.09	-51.2	-65.2	3.8	1.49e+00	0	31	104	0	67	19240
2026-01-16 07:01:11.75	95.25	2.15	-51.2	-65.2	3.8	1.49e+00	0	31	104	0	67	19275
2026-01-16 07:01:12.76	95.20	2.21	-51.2	-65.2	3.8	1.49e+00	0	31	104	0	67	19280
2026-01-16 07:01:13.77	95.15	2.27	-51.2	-65.2	3.8	1.49e+00	0	31	104	0	67	19279
2026-01-16 07:01:14.77	95.10	2.34	-51.2	-65.2	3.8	1.49e+00	0	31	104	0	67	19254
2026-01-16 07:01:15.78	95.05	2.40	-51.2	-65.2	3.8	1.49e+00	0	31	104	0	67	19278
2026-01-16 07:01:16.79	94.99	2.46	-51.2	-65.2	3.8	1.49e+00	0	31	104	0	67	19294
2026-01-16 07:01:17.80	94.94	2.52	-51.2	-65.2	3.8	1.49e+00	0	32	104	0	67	19307
2026-01-16 07:01:18.81	94.89	2.58	-51.2	-65.2	3.8	1.49e+00	0	31	104	0	67	19277
2026-01-16 07:01:19.82	94.83	2.64	-51.2	-65.2	3.8	1.49e+00	0	31	104	0	67	19265
2026-01-16 07:01:20.83	94.78	2.70	-51.2	-65.2	3.8	1.49e+00	0	32	104	0	67	19259
2026-01-16 07:01:21.84	94.73	2.76	-51.2	-65.2	3.8	1.49e+00	0	31	104	0	67	19287
2026-01-16 07:01:22.84	94.67	2.82	-51.2	-65.2	3.8	1.49e+00	0	32	104	0	67	19281
2026-01-16 07:01:23.85	94.62	2.89	-51.2	-65.2	3.8	1.49e+00	0	31	104	0	67	19297
2026-01-16 07:01:24.86	94.57	2.95	-51.2	-65.2	3.8	1.49e+00	0	32	104	0	67	19278
2026-01-16 07:01:25.87	94.51	3.01	-51.2	-65.2	3.8	1.49e+00	0	32	104	0	67	19270
2026-01-16 07:01:26.88	94.46	3.07	-51.2	-65.2	3.8	1.49e+00	0	32	104	0	67	19320
2026-01-16 07:01:27.89	94.40	3.13	-51.2	-65.2	3.8	1.49e+00	0	32	104	0	67	19318
2026-01-16 07:01:28.90	94.35	3.20	-51.2	-65.2	3.8	1.49e+00	0	32	104	0	67	19306
2026-01-16 07:01:29.91	94.29	3.26	-51.2	-65.2	3.8	1.49e+00	0	32	104	0	67	19302
2026-01-16 07:01:30.92	94.24	3.32	-51.2	-65.2	3.8	1.49e+00	0	32	104	0	67	19249
2026-01-16 07:01:31.93	94.18	3.38	-51.2	-65.2	3.8	1.49e+00	0	32	104	0	67	19318
2026-01-16 07:01:32.94	94.12	3.45	-51.2	-65.2	3.8	1.49e+00	0	32	104	0	67	19292
2026-01-16 07:01:33.94	94.07	3.51	-51.2	-65.2	3.8	1.49e+00	0	32	104	0	67	19281
2026-01-16 07:01:34.96	94.01	3.57	-51.2	-65.2	3.8	1.49e+00	0	32	104	0	67	19268
2026-01-16 07:01:35.97	93.95	3.64	-51.2	-65.2	3.8	1.49e+00	0	32	104	0	67	19254
2026-01-16 07:01:36.98	93.90	3.70	-51.2	-65.2	3.8	1.49e+00	0	32	104	0	67	19349
2026-01-16 07:01:37.98	93.84	3.76	-51.2	-65.2	3.8	1.49e+00	0	32	104	0	67	19271
2026-01-16 07:01:38.99	93.78	3.82	-51.2	-65.2	3.8	1.49e+00	0	32	104	0	67	19305
2026-01-16 07:01:40.00	93.72	3.89	-51.2	-65.2	3.8	1.49e+00	0	32	104	0	67	19319
2026-01-16 07:01:41.01	93.66	3.95	-51.2	-65.2	3.8	1.49e+00	0	32	104	0	67	19330
2026-01-16 07:01:42.02	93.61	4.02	-51.2	-65.2	3.8	1.49e+00	0	32	104	0	67	19284
2026-01-16 07:01:43.03	93.55	4.08	-51.2	-65.2	3.8	1.49e+00	0	32	104	0	67	19319
2026-01-16 07:01:44.04	93.49	4.14	-51.2	-65.2	3.8	1.49e+00	0	32	104	0	67	19349
2026-01-16 07:01:45.05	93.43	4.21	-51.2	-65.2	3.8	1.49e+00	0	32	104	0	67	19264
2026-01-16 07:01:46.06	93.37	4.27	-51.2	-65.2	3.8	1.49e+00	0	32	104	0	67	19325
2026-01-16 07:01:47.07	93.31	4.34	-51.2	-65.2	3.8	1.49e+00	0	32	104	0	67	19332
2026-01-16 07:01:48.07	93.25	4.40	-51.2	-65.2	3.8	1.49e+00	0	32	104	0	67	19333
2026-01-16 07:01:49.08	93.19	4.46	-51.2	-65.2	3.8	1.49e+00	0	32	104	0	67	19285
2026-01-16 07:01:50.09	93.13	4.53	-51.2	-65.2	3.8	1.49e+00	0	32	104	0	67	19277
2026-01-16 07:01:51.10	93.07	4.59	-51.2	-65.2	3.8	1.49e+00	0	32	104	0	67	19292
2026-01-16 07:01:52.11	93.01	4.66	-51.2	-65.2	3.8	1.49e+00	0	32	104	0	67	19350
2026-01-16 07:01:53.12	92.94	4.72	-51.2	-65.2	3.8	1.49e+00	0	32	104	0	67	19260
2026-01-16 07:01:54.13	92.88	4.79	-51.2	-65.2	3.8	1.49e+00	0	32	104	0	67	19327
2026-01-16 07:01:55.14	92.82	4.86	-51.2	-65.2	3.8	1.49e+00	0	32	104	0	67	19339
2026-01-16 07:01:56.15	92.76	4.92	-51.2	-65.2	3.8	1.49e+00	0	32	104	0	67	19379
2026-01-16 07:01:57.15	92.70	4.99	-51.2	-65.2	3.8	1.49e+00	0	32	104	0	67	19317
2026-01-16 07:01:58.16	92.63	5.05	-51.2	-65.2	3.8	1.49e+00	0	32	104	0	67	19336
2026-01-16 07:01:59.17	92.57	5.12	-51.2	-65.2	3.8	1.49e+00	0	32	104	0	67	19327
2026-01-16 07:02:00.18	92.51	5.18	-51.2	-65.2	3.8	1.49e+00	0	32	104	0	67	19325
2026-01-16 07:02:01.19	92.44	5.25	-51.2	-65.2	3.8	1.49e+00	0	32	104	0	67	19347
2026-01-16 07:02:02.20	92.38	5.32	-51.2	-65.2	3.8	1.49e+00	0	32	104	0	67	19317
2026-01-16 07:02:03.21	92.31	5.38	-51.2	-65.2	3.8	1.49e+00	0	32	104	0	67	19323
2026-01-16 07:02:04.22	92.25	5.45	-51.2	-65.2	3.8	1.49e+00	0	32	104	0	67	19356
2026-01-16 07:02:05.23	92.18	5.52	-51.3	-65.3	3.8	1.49e+00	0	32	104	0	67	19458
2026-01-16 07:02:06.24	92.12	5.58	-51.3	-65.3	3.8	1.49e+00	0	32	104	0	67	19407
2026-01-16 07:02:07.25	92.05	5.65	-51.3	-65.2	3.8	1.49e+00	0	32	104	0	67	19375
2026-01-16 07:02:08.26	91.98	5.72	-51.3	-65.3	3.8	1.49e+00	0	32	104	0	67	19404
2026-01-16 07:02:09.27	91.92	5.78	-51.3	-65.2	3.8	1.49e+00	0	33	104	0	67	19333
2026-01-16 07:02:10.28	91.85	5.85	-51.3	-65.3	3.8	1.49e+00	0	33	104	0	67	19428
2026-01-16 07:02:11.29	91.78	5.92	-51.3	-65.2	3.8	1.49e+00	0	32	104	0	67	19371
2026-01-16 07:02:12.29	91.72	5.99	-51.3	-65.2	3.8	1.49e+00	0	32	104	0	67	19365
2026-01-16 07:02:13.30	91.65	6.05	-51.2	-65.2	3.8	1.49e+00	0	33	104	0	67	19381
2026-01-16 07:02:14.31	91.58	6.12	-51.2	-65.2	3.8	1.49e+00	0	33	104	0	67	19367
2026-01-16 07:02:15.32	91.51	6.19	-51.2	-65.2	3.8	1.49e+00	0	33	104	0	67	19306
2026-01-16 07:02:16.33	91.44	6.26	-51.2	-65.2	3.8	1.49e+00	0	33	104	0	67	19304
2026-01-16 07:02:17.34	91.37	6.33	-51.3	-65.2	3.8	1.49e+00	0	33	104	0	67	19328
2026-01-16 07:02:18.34	91.31	6.39	-51.3	-65.2	3.8	1.49e+00	0	33	104	0	67	19383
2026-01-16 07:02:19.35	91.24	6.46	-51.3	-65.2	3.8	1.49e+00	0	33	104	0	67	19381
2026-01-16 07:02:20.36	91.17	6.53	-51.3	-65.2	3.8	1.49e+00	0	33	104	0	67	19377
2026-01-16 07:02:21.37	91.10	6.60	-51.2	-65.3	3.8	1.49e+00	0	32	104	0	67	19394
2026-01-16 07:02:22.38	91.02	6.67	-51.3	-65.2	3.8	1.49e+00	0	33	104	0	67	19371
2026-01-16 07:02:23.39	90.95	6.74	-51.2	-65.2	3.8	1.49e+00	0	33	104	0	67	19367
2026-01-16 07:02:24.40	90.88	6.81	-51.2	-65.2	3.8	1.49e+00	0	33	104	0	67	19379
2026-01-16 07:02:25.41	90.81	6.88	-51.2	-65.2	3.8	1.49e+00	0	33	104	0	67	19318
2026-01-16 07:02:26.42	90.74	6.95	-51.2	-65.2	3.8	1.49e+00	0	33	104	0	67	19343
2026-01-16 07:02:27.43	90.66	7.02	-51.3	-65.3	3.8	1.49e+00	0	33	104	0	67	19457
2026-01-16 07:02:28.44	90.59	7.09	-51.3	-65.3	3.8	1.49e+00	0	32	104	0	67	19435
2026-01-16 07:02:29.45	90.52	7.16	-51.3	-65.2	3.8	1.49e+00	0	33	104	0	67	19384
2026-01-16 07:02:30.46	90.44	7.23	-51.3	-65.3	3.8	1.49e+00	0	33	104	0	67	19416
2026-01-16 07:02:31.47	90.37	7.30	-51.3	-65.2	3.8	1.49e+00	0	33	104	0	67	19370
2026-01-16 07:02:32.47	90.30	7.37	-51.3	-65.3	3.8	1.49e+00	0	33	104	0	67	19417
2026-01-16 07:02:33.49	90.22	7.44	-51.3	-65.3	3.8	1.49e+00	0	33	104	0	67	19422
2026-01-16 07:02:34.49	90.15	7.51	-51.3	-65.3	3.8	1.49e+00	0	33	104	0	67	19499
2026-01-16 07:02:35.50	90.07	7.58	-51.3	-65.3	3.8	1.49e+00	0	33	104	0	67	19451
2026-01-16 07:02:36.51	90.00	7.65	-51.3	-65.3	3.8	1.49e+00	0	33	104	0	67	19434
2026-01-16 07:02:37.52	89.92	7.72	-51.3	-65.3	3.8	1.49e+00	0	33	104	0	67	19420
2026-01-16 07:02:38.53	89.84	7.79	-51.3	-65.3	3.8	1.49e+00	0	33	104	0	67	19437
2026-01-16 07:02:39.54	89.76	7.86	-51.3	-65.3	3.8	1.49e+00	0	33	104	0	67	19452
2026-01-16 07:02:40.55	89.69	7.93	-51.3	-65.3	3.8	1.49e+00	0	33	104	0	67	19485
2026-01-16 07:02:41.55	89.61	8.01	-51.3	-65.3	3.8	1.49e+00	0	33	104	0	67	19439
2026-01-16 07:02:42.56	89.53	8.08	-51.3	-65.3	3.8	1.49e+00	0	33	104	0	67	19446
2026-01-16 07:02:43.57	89.45	8.15	-51.3	-65.3	3.8	1.49e+00	0	33	104	0	67	19421
2026-01-16 07:02:44.58	89.37	8.22	-51.3	-65.2	3.8	1.49e+00	0	33	104	0	67	19363
2026-01-16 07:02:45.59	89.29	8.29	-51.3	-65.3	3.8	1.49e+00	0	33	104	0	67	19425
2026-01-16 07:02:46.60	89.21	8.37	-51.3	-65.3	3.8	1.49e+00	0	33	104	0	67	19407
2026-01-16 07:02:47.61	89.13	8.44	-51.3	-65.3	3.8	1.49e+00	0	33	104	0	67	19427
2026-01-16 07:02:48.61	89.05	8.51	-51.3	-65.3	3.8	1.49e+00	0	33	104	0	67	19420
2026-01-16 07:02:49.62	88.97	8.58	-51.3	-65.2	3.8	1.49e+00	0	33	104	0	67	19384
2026-01-16 07:02:50.63	88.89	8.66	-51.3	-65.3	3.8	1.49e+00	0	33	104	0	67	19411
2026-01-16 07:02:51.64	88.81	8.73	-51.3	-65.3	3.8	1.49e+00	0	33	104	0	67	19436
2026-01-16 07:02:52.65	88.73	8.80	-51.3	-65.3	3.8	1.49e+00	0	33	104	0	67	19431
2026-01-16 07:02:53.66	88.64	8.88	-51.3	-65.2	3.8	1.49e+00	0	33	104	0	67	19380
2026-01-16 07:02:54.67	88.56	8.95	-51.3	-65.3	3.8	1.49e+00	0	33	104	0	67	19445
2026-01-16 07:02:55.68	88.48	9.03	-51.3	-65.2	3.8	1.49e+00	0	33	104	0	67	19366
2026-01-16 07:02:56.69	88.39	9.10	-51.3	-65.3	3.8	1.49e+00	0	33	104	0	67	19408
2026-01-16 07:02:57.70	88.31	9.17	-51.3	-65.2	3.8	1.49e+00	0	33	104	0	67	19368
2026-01-16 07:02:58.71	88.22	9.25	-51.3	-65.3	3.8	1.49e+00	0	33	104	0	67	19416
2026-01-16 07:02:59.71	88.14	9.32	-51.3	-65.3	3.8	1.49e+00	0	33	104	0	67	19411
2026-01-16 07:03:00.72	88.05	9.40	-51.3	-65.3	3.8	1.49e+00	0	33	104	0	67	19442
2026-01-16 07:03:01.73	87.96	9.47	-51.3	-65.3	3.8	1.49e+00	0	33	104	0	67	19448
2026-01-16 07:03:02.74	87.88	9.55	-51.3	-65.3	3.8	1.49e+00	0	33	104	0	67	19430
2026-01-16 07:03:03.75	87.79	9.62	-51.3	-65.3	3.8	1.49e+00	0	33	104	0	67	19449
2026-01-16 07:03:04.75	87.70	9.70	-51.3	-65.3	3.8	1.49e+00	0	33	104	0	67	19467
2026-01-16 07:03:05.76	87.61	9.77	-51.3	-65.3	3.8	1.49e+00	0	33	104	0	67	19491
2026-01-16 07:03:06.77	87.53	9.85	-51.3	-65.3	3.8	1.49e+00	0	33	104	0	67	19519
2026-01-16 07:03:07.78	87.44	9.92	-51.3	-65.3	3.8	1.49e+00	0	33	104	0	67	19465
2026-01-16 07:03:08.79	87.35	10.00	-51.3	-65.3	3.8	1.49e+00	0	33	104	0	67	19447
2026-01-16 07:03:09.80	87.26	10.08	-51.3	-65.3	3.8	1.49e+00	0	33	104	0	67	19514
2026-01-16 07:03:10.81	87.17	10.15	-51.3	-65.3	3.8	1.49e+00	0	33	104	0	67	19397
2026-01-16 07:03:11.82	87.07	10.23	-51.3	-65.3	3.8	1.49e+00	0	33	104	0	67	19470
2026-01-16 07:03:12.83	86.98	10.31	-51.3	-65.3	3.8	1.49e+00	0	33	104	0	67	19424
2026-01-16 07:03:13.84	86.89	10.38	-51.3	-65.3	3.8	1.49e+00	0	33	104	0	67	19484
2026-01-16 07:03:14.85	86.80	10.46	-51.3	-65.3	3.8	1.49e+00	0	33	104	0	67	19454
2026-01-16 07:03:15.86	86.70	10.54	-51.3	-65.3	3.8	1.49e+00	0	33	104	0	67	19434
2026-01-16 07:03:16.86	86.61	10.61	-51.3	-65.3	3.8	1.49e+00	0	33	104	0	67	19452
2026-01-16 07:03:17.87	86.52	10.69	-51.3	-65.3	3.8	1.49e+00	0	33	104	0	67	19463
2026-01-16 07:03:18.88	86.42	10.77	-51.3	-65.3	3.8	1.49e+00	0	33	104	0	67	19480
2026-01-16 07:03:19.89	86.33	10.85	-51.3	-65.3	3.8	1.49e+00	0	33	104	0	67	19440
2026-01-16 07:03:20.90	86.23	10.93	-51.3	-65.3	3.8	1.49e+00	0	33	104	0	67	19452
2026-01-16 07:03:21.91	86.13	11.00	-51.3	-65.3	3.8	1.49e+00	0	33	104	0	67	19443
2026-01-16 07:03:22.92	86.04	11.08	-51.3	-65.3	3.8	1.49e+00	0	33	104	0	67	19443
2026-01-16 07:03:23.93	85.94	11.16	-51.3	-65.3	3.8	1.49e+00	0	33	104	0	67	19466
2026-01-16 07:03:24.94	85.84	11.24	-51.3	-65.3	3.8	1.49e+00	0	33	104	0	67	19502
2026-01-16 07:03:25.95	85.74	11.32	-51.3	-65.3	3.8	1.49e+00	0	33	104	0	67	19448
2026-01-16 07:03:26.96	85.65	11.40	-51.3	-65.3	3.8	1.49e+00	0	33	104	0	67	19434
2026-01-16 07:03:27.97	85.55	11.48	-51.3	-65.2	3.8	1.49e+00	0	33	104	0	67	19337
2026-01-16 07:03:28.97	85.45	11.55	-51.3	-65.2	3.8	1.49e+00	0	33	104	0	67	19340
2026-01-16 07:03:29.98	85.35	11.63	-51.3	-65.3	3.8	1.49e+00	0	33	104	0	67	19423
2026-01-16 07:03:30.99	85.24	11.71	-51.3	-65.3	3.8	1.49e+00	0	33	104	0	67	19427
2026-01-16 07:03:32.00	85.14	11.79	-51.3	-65.3	3.8	1.49e+00	0	33	104	0	67	19413
2026-01-16 07:03:33.01	85.04	11.87	-51.3	-65.3	3.8	1.49e+00	0	33	104	0	67	19415
2026-01-16 07:03:34.02	84.94	11.95	-51.3	-65.3	3.8	1.49e+00	0	33	104	0	67	19418
2026-01-16 07:03:35.03	84.83	12.03	-51.3	-65.3	3.8	1.49e+00	0	33	104	0	67	19422
2026-01-16 07:03:36.04	84.73	12.11	-51.3	-65.3	3.8	1.49e+00	0	33	104	0	67	19471
2026-01-16 07:03:37.05	84.62	12.20	-51.3	-65.3	3.8	1.49e+00	0	33	104	0	67	19488
2026-01-16 07:03:38.06	84.52	12.28	-51.3	-65.3	3.8	1.49e+00	0	33	104	0	67	19392
2026-01-16 07:03:39.07	84.41	12.36	-51.3	-65.3	3.8	1.49e+00	0	33	104	0	67	19432
2026-01-16 07:03:40.07	84.31	12.44	-51.3	-65.3	3.8	1.49e+00	0	33	104	0	67	19447
2026-01-16 07:03:41.08	84.20	12.52	-51.3	-65.3	3.8	1.49e+00	0	33	104	0	67	19463
2026-01-16 07:03:42.09	84.09	12.60	-51.3	-65.3	3.8	1.49e+00	0	33	104	0	67	19434
2026-01-16 07:03:43.10	83.98	12.68	-51.3	-65.3	3.8	1.49e+00	0	33	104	0	67	19488
2026-01-16 07:03:44.11	83.88	12.76	-51.3	-65.3	3.8	1.49e+00	0	33	104	0	67	19503
2026-01-16 07:03:45.12	83.77	12.85	-51.3	-65.3	3.8	1.49e+00	0	33	104	0	67	19488
2026-01-16 07:03:46.13	83.66	12.93	-51.3	-65.3	3.8	1.49e+00	0	33	104	0	67	19503
2026-01-16 07:03:47.14	83.54	13.01	-51.3	-65.3	3.8	1.49e+00	0	33	104	0	67	19504
2026-01-16 07:03:48.15	83.43	13.09	-51.3	-65.3	3.8	1.49e+00	0	33	104	0	67	19447
2026-01-16 07:03:49.16	83.32	13.18	-51.3	-65.3	3.8	1.49e+00	0	33	104	0	67	19426
2026-01-16 07:03:50.17	83.21	13.26	-51.3	-65.3	3.8	1.49e+00	0	33	104	0	67	19398
2026-01-16 07:03:51.17	83.10	13.34	-51.3	-65.3	3.8	1.49e+00	0	33	104	0	67	19393
2026-01-16 07:03:52.18	82.98	13.42	-51.3	-65.3	3.8	1.49e+00	0	33	104	0	67	19473
2026-01-16 07:03:53.19	82.87	13.51	-51.3	-65.3	3.8	1.49e+00	0	33	104	0	67	19455
2026-01-16 07:03:54.20	82.75	13.59	-51.3	-65.3	3.8	1.49e+00	0	33	104	0	67	19494
2026-01-16 07:03:55.21	82.64	13.68	-51.3	-65.3	3.8	1.49e+00	0	33	104	0	67	19503
2026-01-16 07:03:56.22	82.52	13.76	-51.3	-65.3	3.8	1.49e+00	0	33	104	0	67	19507
2026-01-16 07:03:57.23	82.40	13.84	-51.3	-65.3	3.8	1.49e+00	0	33	104	0	67	19451
2026-01-16 07:03:58.23	82.28	13.93	-51.3	-65.3	3.8	1.49e+00	0	33	104	0	67	19469
2026-01-16 07:03:59.24	82.17	14.01	-51.3	-65.3	3.8	1.49e+00	0	33	104	0	67	19398
2026-01-16 07:04:00.25	82.05	14.10	-51.3	-65.3	3.8	1.49e+00	0	33	104	0	67	19441
2026-01-16 07:04:01.26	81.93	14.18	-51.3	-65.3	3.8	1.49e+00	0	33	104	0	67	19433
2026-01-16 07:04:02.27	81.80	14.27	-51.3	-65.3	3.8	1.49e+00	0	33	104	0	67	19413
2026-01-16 07:04:03.28	81.68	14.35	-51.3	-65.3	3.8	1.49e+00	0	33	104	0	67	19495
2026-01-16 07:04:04.29	81.56	14.44	-51.3	-65.3	3.8	1.49e+00	0	33	104	0	67	19416
2026-01-16 07:04:05.30	81.44	14.52	-51.3	-65.3	3.8	1.49e+00	0	33	104	0	67	19445
2026-01-16 07:04:06.31	81.31	14.61	-51.3	-65.3	3.8	1.49e+00	0	33	104	0	67	19445
2026-01-16 07:04:07.32	81.19	14.69	-51.3	-65.3	3.8	1.49e+00	0	33	104	0	67	19431
2026-01-16 07:04:08.33	81.06	14.78	-51.3	-65.3	3.8	1.49e+00	0	33	104	0	67	19455
2026-01-16 07:04:09.34	80.94	14.87	-51.3	-65.3	3.8	1.49e+00	0	33	104	0	67	19502
2026-01-16 07:04:10.35	80.81	14.95	-51.3	-65.3	3.8	1.49e+00	0	33	104	0	67	19434
2026-01-16 07:04:11.35	80.69	15.04	-51.3	-65.3	3.8	1.49e+00	0	33	104	0	67	19408
2026-01-16 07:04:12.36	80.56	15.12	-51.3	-65.3	3.8	1.49e+00	0	33	104	0	67	19430
2026-01-16 07:04:13.37	80.43	15.21	-51.3	-65.3	3.8	1.49e+00	0	33	104	0	67	19459
2026-01-16 07:04:14.38	80.30	15.30	-51.3	-65.3	3.8	1.49e+00	0	33	104	0	67	19426
2026-01-16 07:04:15.39	80.17	15.38	-51.3	-65.3	3.8	1.49e+00	0	33	104	0	67	19453
2026-01-16 07:04:16.40	80.04	15.47	-51.3	-65.3	3.8	1.49e+00	0	33	104	0	67	19483
2026-01-16 07:04:17.41	79.90	15.56	-51.3	-65.3	3.8	1.49e+00	0	33	104	0	67	19490
2026-01-16 07:04:18.42	79.77	15.65	-51.3	-65.3	3.8	1.49e+00	0	33	104	0	67	19446
2026-01-16 07:04:19.42	79.64	15.73	-51.3	-65.3	3.8	1.49e+00	0	33	104	0	67	19481
2026-01-16 07:04:20.43	79.50	15.82	-51.3	-65.3	3.8	1.49e+00	0	33	104	0	67	19452
2026-01-16 07:04:21.44	79.37	15.91	-51.3	-65.3	3.8	1.49e+00	0	33	104	0	67	19426
2026-01-16 07:04:22.45	79.23	16.00	-51.3	-65.3	3.8	1.49e+00	0	33	104	0	67	19425
2026-01-16 07:04:23.46	79.10	16.09	-51.3	-65.3	3.8	1.49e+00	0	33	104	0	67	19426
2026-01-16 07:04:24.47	78.96	16.17	-51.3	-65.3	3.8	1.49e+00	0	33	104	0	67	19459
2026-01-16 07:04:25.48	78.82	16.26	-51.3	-65.3	3.8	1.49e+00	0	33	104	0	67	19437
2026-01-16 07:04:26.49	78.68	16.35	-51.3	-65.2	3.8	1.49e+00	0	33	104	0	67	19379
2026-01-16 07:04:27.50	78.54	16.44	-51.3	-65.3	3.8	1.49e+00	0	33	104	0	67	19444
2026-01-16 07:04:28.51	78.40	16.53	-51.3	-65.3	3.8	1.49e+00	0	33	104	0	67	19431
2026-01-16 07:04:29.51	78.26	16.62	-51.3	-65.3	3.8	1.49e+00	0	33	104	0	67	19401
2026-01-16 07:04:30.52	78.12	16.71	-51.3	-65.3	3.8	1.49e+00	0	33	104	0	67	19442
2026-01-16 07:04:31.53	77.97	16.80	-51.3	-65.3	3.8	1.49e+00	0	33	104	0	67	19450
2026-01-16 07:04:32.54	77.83	16.89	-51.3	-65.3	3.8	1.49e+00	0	33	104	0	67	19455
2026-01-16 07:04:33.55	77.68	16.97	-51.3	-65.3	3.8	1.49e+00	0	33	104	0	67	19479
2026-01-16 07:04:34.56	77.54	17.06	-51.3	-65.3	3.8	1.49e+00	0	33	104	0	67	19437
2026-01-16 07:04:35.57	77.39	17.15	-51.3	-65.3	3.8	1.49e+00	0	33	104	0	67	19419
2026-01-16 07:04:36.58	77.24	17.24	-51.3	-65.3	3.8	1.49e+00	0	33	104	0	67	19405
2026-01-16 07:04:37.59	77.09	17.33	-51.3	-65.3	3.8	1.49e+00	0	33	104	0	67	19398
2026-01-16 07:04:38.60	76.94	17.43	-51.3	-65.3	3.8	1.49e+00	0	33	104	0	67	19482
2026-01-16 07:04:39.61	76.79	17.52	-51.3	-65.3	3.8	1.49e+00	0	33	104	0	67	19489
2026-01-16 07:04:40.61	76.64	17.61	-51.3	-65.3	3.8	1.49e+00	0	33	104	0	67	19423
2026-01-16 07:04:41.62	76.49	17.70	-51.3	-65.3	3.8	1.49e+00	0	33	104	0	67	19456
2026-01-16 07:04:42.63	76.33	17.79	-51.3	-65.3	3.8	1.49e+00	0	33	104	0	67	19465
2026-01-16 07:04:43.64	76.18	17.88	-51.3	-65.3	3.8	1.49e+00	0	33	104	0	67	19497
2026-01-16 07:04:44.65	76.02	17.97	-51.3	-65.3	3.8	1.49e+00	0	33	104	0	67	19442
2026-01-16 07:04:45.66	75.87	18.06	-51.3	-65.3	3.8	1.49e+00	0	33	104	0	67	19405
2026-01-16 07:04:46.67	75.71	18.15	-51.3	-65.3	3.8	1.49e+00	0	33	104	0	67	19447
2026-01-16 07:04:47.68	75.55	18.24	-51.3	-65.3	3.8	1.49e+00	0	33	104	0	67	19456
2026-01-16 07:04:48.69	75.39	18.33	-51.3	-65.3	3.8	1.49e+00	0	33	104	0	67	19488
2026-01-16 07:04:49.70	75.23	18.43	-51.3	-65.3	3.8	1.49e+00	0	33	104	0	67	19469
2026-01-16 07:04:50.71	75.07	18.52	-51.3	-65.3	3.8	1.49e+00	0	33	104	0	67	19520
2026-01-16 07:04:51.72	74.91	18.61	-51.3	-65.3	3.8	1.49e+00	0	33	104	0	67	19444
2026-01-16 07:04:52.73	74.75	18.70	-51.3	-65.3	3.8	1.49e+00	0	33	104	0	67	19484
2026-01-16 07:04:53.74	74.58	18.79	-51.3	-65.3	3.8	1.49e+00	0	33	104	0	67	19473
2026-01-16 07:04:54.74	74.42	18.89	-51.3	-65.3	3.8	1.49e+00	0	33	104	0	67	19409
2026-01-16 07:04:55.75	74.25	18.98	-51.3	-65.3	3.8	1.49e+00	0	33	104	0	67	19425
2026-01-16 07:04:56.76	74.08	19.07	-51.3	-65.3	3.8	1.49e+00	0	33	104	0	67	19430
2026-01-16 07:04:57.77	73.92	19.16	-51.3	-65.3	3.8	1.49e+00	0	33	104	0	67	19446
2026-01-16 07:04:58.78	73.75	19.25	-51.3	-65.3	3.8	1.49e+00	0	33	104	0	67	19475
2026-01-16 07:04:59.79	73.58	19.35	-51.3	-65.3	3.8	1.49e+00	0	33	104	0	67	19556
2026-01-16 07:05:00.79	73.41	19.44	-51.3	-65.3	3.8	1.49e+00	0	33	104	0	67	19560
2026-01-16 07:05:01.80	73.23	19.53	-51.3	-65.3	3.8	1.49e+00	0	33	104	0	67	19558
2026-01-16 07:05:02.81	73.06	19.62	-51.3	-65.3	3.8	1.49e+00	0	33	104	0	67	19587
2026-01-16 07:05:03.82	72.88	19.72	-51.3	-65.3	3.8	1.49e+00	0	33	104	0	67	19561
2026-01-16 07:05:04.83	72.71	19.81	-51.4	-65.3	3.8	1.49e+00	0	33	104	0	67	19569
2026-01-16 07:05:05.84	72.53	19.90	-51.3	-65.3	3.8	1.49e+00	0	33	104	0	67	19603
2026-01-16 07:05:06.85	72.35	20.00	-51.3	-65.3	3.8	1.49e+00	0	33	104	0	67	19511
2026-01-16 07:05:07.86	72.17	20.09	-51.3	-65.3	3.8	1.49e+00	0	33	104	0	67	19558
2026-01-16 07:05:08.87	71.99	20.18	-51.3	-65.3	3.8	1.49e+00	0	33	104	0	67	19496
2026-01-16 07:05:09.88	71.81	20.28	-51.3	-65.3	3.8	1.49e+00	0	33	104	0	67	19492
2026-01-16 07:05:10.89	71.63	20.37	-51.3	-65.3	3.8	1.49e+00	0	33	104	0	67	19457
2026-01-16 07:05:11.90	71.45	20.46	-51.3	-65.3	3.8	1.49e+00	0	33	104	0	67	19508
2026-01-16 07:05:12.91	71.26	20.56	-51.3	-65.3	3.8	1.49e+00	0	33	104	0	67	19502
2026-01-16 07:05:13.91	71.08	20.65	-51.3	-65.3	3.8	1.49e+00	0	33	104	0	67	19485
2026-01-16 07:05:14.92	70.89	20.74	-51.3	-65.3	3.8	1.49e+00	0	33	104	0	67	19552
2026-01-16 07:05:15.94	70.70	20.83	-51.3	-65.3	3.8	1.49e+00	0	33	104	0	67	19505
2026-01-16 07:05:16.94	70.52	20.93	-51.3	-65.3	3.8	1.49e+00	0	33	104	0	67	19530
2026-01-16 07:05:17.95	70.32	21.02	-51.3	-65.3	3.8	1.49e+00	0	34	104	0	67	19480
2026-01-16 07:05:18.96	70.13	21.11	-51.3	-65.3	3.8	1.49e+00	0	33	104	0	67	19484
2026-01-16 07:05:19.97	69.94	21.21	-51.3	-65.3	3.8	1.49e+00	0	34	104	0	67	19467
2026-01-16 07:05:20.98	69.75	21.30	-51.3	-65.3	3.8	1.49e+00	0	33	104	0	67	19488
2026-01-16 07:05:21.99	69.55	21.39	-51.3	-65.3	3.8	1.49e+00	0	33	104	0	67	19437
2026-01-16 07:05:23.00	69.36	21.49	-51.3	-65.3	3.8	1.49e+00	0	33	104	0	67	19463
2026-01-16 07:05:24.01	69.16	21.58	-51.3	-65.3	3.8	1.49e+00	0	33	104	0	67	19502
2026-01-16 07:05:25.02	68.96	21.67	-51.3	-65.3	3.8	1.49e+00	0	33	104	0	67	19471
2026-01-16 07:05:26.03	68.76	21.77	-51.3	-65.3	3.8	1.49e+00	0	33	104	0	67	19447
2026-01-16 07:05:27.04	68.56	21.86	-51.3	-65.3	3.8	1.49e+00	0	33	104	0	67	19516
2026-01-16 07:05:28.04	68.36	21.95	-51.3	-65.3	3.8	1.49e+00	0	33	104	0	67	19533
2026-01-16 07:05:29.05	68.15	22.05	-51.3	-65.3	3.8	1.49e+00	0	33	104	0	67	19503
2026-01-16 07:05:30.06	67.95	22.14	-51.3	-65.3	3.8	1.49e+00	0	33	104	0	67	19478
2026-01-16 07:05:31.07	67.74	22.23	-51.3	-65.3	3.8	1.49e+00	0	33	104	0	67	19487
2026-01-16 07:05:32.08	67.54	22.32	-51.3	-65.3	3.8	1.49e+00	0	33	104	0	67	19492
2026-01-16 07:05:33.09	67.33	22.42	-51.3	-65.3	3.8	1.49e+00	0	33	104	0	67	19534
2026-01-16 07:05:34.10	67.12	22.51	-51.3	-65.3	3.8	1.49e+00	0	33	104	0	67	19482
2026-01-16 07:05:35.11	66.91	22.60	-51.3	-65.3	3.8	1.49e+00	0	33	104	0	67	19448
2026-01-16 07:05:36.12	66.69	22.70	-51.3	-65.3	3.8	1.49e+00	0	33	104	0	67	19505
2026-01-16 07:05:37.13	66.48	22.79	-51.3	-65.3	3.8	1.49e+00	0	34	104	0	67	19495
2026-01-16 07:05:38.14	66.27	22.88	-51.3	-65.3	3.8	1.49e+00	0	33	104	0	67	19495
2026-01-16 07:05:39.14	66.05	22.97	-51.3	-65.3	3.8	1.49e+00	0	33	104	0	67	19447
2026-01-16 07:05:40.16	65.83	23.07	-51.3	-65.3	3.8	1.49e+00	0	33	104	0	67	19450
2026-01-16 07:05:41.17	65.61	23.16	-51.3	-65.3	3.8	1.49e+00	0	34	104	0	67	19427
2026-01-16 07:05:42.18	65.39	23.25	-51.3	-65.3	3.8	1.49e+00	0	33	104	0	67	19484
2026-01-16 07:05:43.19	65.17	23.34	-51.3	-65.3	3.8	1.49e+00	0	33	104	0	67	19499
2026-01-16 07:05:44.19	64.95	23.43	-51.3	-65.3	3.8	1.49e+00	0	33	104	0	67	19458
2026-01-16 07:05:45.20	64.73	23.52	-51.3	-65.3	3.8	1.49e+00	0	33	104	0	67	19480
2026-01-16 07:05:46.21	64.50	23.61	-51.3	-65.3	3.8	1.49e+00	0	33	104	0	67	19494
2026-01-16 07:05:47.22	64.28	23.71	-51.3	-65.3	3.8	1.49e+00	0	33	104	0	67	19467
2026-01-16 07:05:48.23	64.05	23.80	-51.3	-65.3	3.8	1.49e+00	0	33	104	0	67	19498
2026-01-16 07:05:49.24	63.82	23.89	-51.3	-65.3	3.8	1.49e+00	0	33	104	0	67	19515
2026-01-16 07:05:50.24	63.59	23.98	-51.3	-65.3	3.8	1.49e+00	0	33	104	0	67	19498
2026-01-16 07:05:51.25	63.36	24.07	-51.3	-65.3	3.8	1.49e+00	0	33	104	0	67	19471
2026-01-16 07:05:52.26	63.12	24.16	-51.3	-65.3	3.8	1.49e+00	0	33	104	0	67	19508
2026-01-16 07:05:53.27	62.89	24.25	-51.3	-65.3	3.8	1.49e+00	0	33	104	0	67	19494
2026-01-16 07:05:54.28	62.65	24.34	-51.3	-65.3	3.8	1.49e+00	0	33	104	0	67	19510
2026-01-16 07:05:55.29	62.42	24.43	-51.3	-65.3	3.8	1.49e+00	0	33	104	0	67	19493
2026-01-16 07:05:56.30	62.18	24.52	-51.3	-65.3	3.8	1.49e+00	0	33	104	0	67	19481
2026-01-16 07:05:57.31	61.94	24.61	-51.3	-65.3	3.8	1.49e+00	0	33	104	0	67	19479
2026-01-16 07:05:58.31	61.70	24.69	-51.3	-65.3	3.8	1.49e+00	0	33	104	0	67	19441
2026-01-16 07:05:59.32	61.46	24.78	-51.3	-65.3	3.8	1.49e+00	0	33	104	0	67	19440
2026-01-16 07:06:00.33	61.21	24.87	-51.3	-65.3	3.8	1.49e+00	0	34	104	0	67	19471
2026-01-16 07:06:01.34	60.97	24.96	-51.3	-65.3	3.8	1.49e+00	0	33	104	0	67	19480
2026-01-16 07:06:02.35	60.72	25.05	-51.3	-65.3	3.8	1.49e+00	0	33	104	0	67	19485
2026-01-16 07:06:03.36	60.47	25.13	-51.3	-65.3	3.8	1.49e+00	0	33	104	0	67	19524
2026-01-16 07:06:04.37	60.22	25.22	-51.3	-65.3	3.8	1.49e+00	0	34	104	0	67	19490
2026-01-16 07:06:05.38	59.97	25.31	-51.3	-65.3	3.8	1.49e+00	0	33	104	0	67	19536
2026-01-16 07:06:06.39	59.72	25.40	-51.3	-65.3	3.8	1.49e+00	0	33	104	0	67	19484
2026-01-16 07:06:07.39	59.46	25.48	-51.3	-65.3	3.8	1.49e+00	0	34	104	0	67	19497
2026-01-16 07:06:08.40	59.21	25.57	-51.3	-65.3	3.8	1.49e+00	0	33	104	0	67	19483
2026-01-16 07:06:09.41	58.95	25.65	-51.3	-65.3	3.8	1.49e+00	0	33	104	0	67	19517
2026-01-16 07:06:10.42	58.69	25.74	-51.3	-65.3	3.8	1.49e+00	0	33	104	0	67	19555
2026-01-16 07:06:11.43	58.43	25.82	-51.6	-65.6	3.8	1.49e+00	0	33	104	0	68	19042
2026-01-16 07:06:12.44	58.17	25.91	-51.6	-65.6	3.8	1.49e+00	0	33	104	0	68	19133
2026-01-16 07:06:13.45	57.91	25.99	-51.7	-65.7	3.8	1.49e+00	0	34	104	0	68	19200
2026-01-16 07:06:14.46	57.65	26.07	-51.7	-65.7	3.8	1.49e+00	0	33	104	0	68	19322
2026-01-16 07:06:15.47	57.38	26.16	-51.7	-65.7	3.8	1.49e+00	0	33	104	0	68	19365
2026-01-16 07:06:16.48	57.12	26.24	-51.7	-65.7	3.8	1.49e+00	0	33	104	0	68	19337
2026-01-16 07:06:17.49	56.85	26.32	-51.7	-65.7	3.8	1.49e+00	0	33	104	0	68	19346
2026-01-16 07:06:18.50	56.58	26.40	-51.7	-65.7	3.8	1.49e+00	0	34	104	0	68	19313
2026-01-16 07:06:19.51	56.31	26.49	-51.7	-65.7	3.8	1.49e+00	0	33	104	0	68	19323
2026-01-16 07:06:20.52	56.04	26.57	-51.7	-65.7	3.8	1.49e+00	0	33	104	0	68	19220
2026-01-16 07:06:21.53	55.76	26.65	-51.7	-65.7	3.8	1.49e+00	0	34	104	0	68	19179
2026-01-16 07:06:22.54	55.49	26.73	-51.6	-65.6	3.8	1.49e+00	0	33	104	0	68	19022
2026-01-16 07:06:23.55	55.21	26.81	-51.5	-65.5	3.8	1.49e+00	0	33	104	0	68	18915
2026-01-16 07:06:24.55	54.94	26.88	-51.5	-65.5	3.8	1.49e+00	0	34	104	0	68	18764
2026-01-16 07:06:25.56	54.66	26.96	-51.4	-65.4	3.8	1.49e+00	0	33	104	0	68	18578
2026-01-16 07:06:26.57	54.38	27.04	-51.3	-65.3	3.8	1.49e+00	0	33	104	0	68	18381
2026-01-16 07:06:27.58	54.09	27.12	-51.2	-65.2	3.8	1.49e+00	0	34	104	0	68	18122
2026-01-16 07:06:28.59	53.81	27.19	-51.0	-65.0	3.8	1.49e+00	0	33	104	0	68	17838
2026-01-16 07:06:29.60	53.53	27.27	-50.8	-64.8	3.8	1.49e+00	0	33	104	0	68	17459
2026-01-16 07:06:30.61	53.24	27.35	-50.5	-64.4	3.8	1.49e+00	0	33	104	0	67	17600
2026-01-16 07:06:31.62	52.95	27.42	-50.1	-64.0	3.8	1.49e+00	0	33	104	0	66	17760
2026-01-16 07:06:32.63	52.66	27.50	-49.9	-63.8	3.8	1.49e+00	0	33	104	0	66	17429
2026-01-16 07:06:33.64	52.37	27.57	-49.9	-63.8	3.8	1.49e+00	0	33	104	0	66	17374
2026-01-16 07:06:34.64	52.09	27.64	-49.9	-63.8	3.8	1.49e+00	0	33	104	0	66	17454
2026-01-16 07:06:35.65	51.79	27.71	-49.9	-63.8	3.8	1.49e+00	0	34	104	0	66	17439
2026-01-16 07:06:36.66	51.50	27.79	-49.9	-63.8	3.8	1.49e+00	0	33	104	0	66	17422
2026-01-16 07:06:37.67	51.20	27.86	-49.9	-63.8	3.8	1.49e+00	0	34	104	0	66	17348
2026-01-16 07:06:38.68	50.91	27.93	-49.9	-63.8	3.8	1.49e+00	0	33	104	0	66	17403
2026-01-16 07:06:39.69	50.61	28.00	-49.9	-63.8	3.8	1.49e+00	0	33	104	0	66	17427
2026-01-16 07:06:40.70	50.31	28.07	-49.9	-63.8	3.8	1.49e+00	0	33	104	0	66	17389
2026-01-16 07:06:41.71	50.01	28.14	-49.9	-63.8	3.8	1.49e+00	0	34	104	0	66	17385
2026-01-16 07:06:42.72	49.71	28.20	-49.9	-63.8	3.8	1.49e+00	0	33	104	0	66	17426
2026-01-16 07:06:43.73	49.40	28.27	-49.9	-63.8	3.8	1.49e+00	0	33	104	0	66	17353
2026-01-16 07:06:44.74	49.10	28.34	-49.9	-63.8	3.8	1.49e+00	0	34	104	0	66	17381
2026-01-16 07:06:45.75	48.79	28.40	-49.9	-63.8	3.8	1.49e+00	0	33	104	0	66	17338
2026-01-16 07:06:46.76	48.49	28.47	-49.9	-63.8	3.8	1.49e+00	0	33	104	0	66	17354
2026-01-16 07:06:47.77	48.18	28.53	-49.9	-63.8	3.8	1.49e+00	0	34	104	0	66	17364
2026-01-16 07:06:48.78	47.87	28.60	-49.9	-63.8	3.8	1.49e+00	0	34	104	0	66	17359
2026-01-16 07:06:49.79	47.56	28.66	-49.9	-63.8	3.8	1.49e+00	0	33	104	0	66	17339
2026-01-16 07:06:50.79	47.25	28.72	-49.9	-63.8	3.8	1.49e+00	0	34	104	0	66	17358
2026-01-16 07:06:51.80	46.94	28.78	-49.9	-63.8	3.8	1.49e+00	0	33	104	0	66	17321
2026-01-16 07:06:52.81	46.62	28.84	-49.9	-63.8	3.8	1.49e+00	0	33	104	0	66	17401
2026-01-16 07:06:53.82	46.31	28.90	-49.9	-63.8	3.8	1.49e+00	0	33	104	0	66	17347
2026-01-16 07:06:54.83	45.99	28.96	-49.9	-63.8	3.8	1.49e+00	0	33	104	0	66	17368
2026-01-16 07:06:55.84	45.67	29.01	-49.9	-63.8	3.8	1.49e+00	0	33	104	0	66	17340
2026-01-16 07:06:56.84	45.36	29.07	-49.9	-63.8	3.8	1.49e+00	0	33	104	0	66	17328
2026-01-16 07:06:57.85	45.04	29.13	-49.9	-63.8	3.8	1.49e+00	0	33	104	0	66	17397
2026-01-16 07:06:58.86	44.72	29.18	-49.9	-63.8	3.8	1.49e+00	0	34	104	0	66	17313
2026-01-16 07:06:59.87	44.40	29.23	-49.9	-63.8	3.8	1.49e+00	0	34	104	0	66	17381
2026-01-16 07:07:00.88	44.07	29.29	-49.8	-63.8	3.8	1.49e+00	0	34	104	0	66	17295
2026-01-16 07:07:01.89	43.75	29.34	-49.8	-63.7	3.8	1.49e+00	0	34	104	0	66	17275
2026-01-16 07:07:02.90	43.42	29.39	-49.9	-63.8	3.8	1.49e+00	0	34	104	0	66	17366
2026-01-16 07:07:03.91	43.10	29.44	-49.8	-63.8	3.8	1.49e+00	0	34	104	0	66	17328
2026-01-16 07:07:04.91	42.77	29.49	-49.8	-63.8	3.8	1.49e+00	0	34	104	0	66	17305
2026-01-16 07:07:05.92	42.44	29.54	-49.9	-63.8	3.8	1.49e+00	0	34	104	0	66	17320
2026-01-16 07:07:06.93	42.11	29.59	-49.8	-63.8	3.8	1.49e+00	0	34	104	0	66	17305
2026-01-16 07:07:07.94	41.78	29.63	-49.8	-63.7	3.8	1.49e+00	0	34	104	0	66	17228
2026-01-16 07:07:08.95	41.45	29.68	-49.8	-63.8	3.8	1.49e+00	0	33	104	0	66	17335
2026-01-16 07:07:09.96	41.12	29.72	-49.9	-63.8	3.8	1.49e+00	0	34	104	0	66	17363
2026-01-16 07:07:10.97	40.79	29.76	-49.8	-63.8	3.8	1.49e+00	0	34	104	0	66	17312
2026-01-16 07:07:11.98	40.45	29.81	-49.9	-63.8	3.8	1.49e+00	0	33	104	0	66	17340
2026-01-16 07:07:12.99	40.12	29.85	-49.9	-63.8	3.8	1.49e+00	0	33	104	0	66	17294
2026-01-16 07:07:14.00	39.78	29.89	-49.9	-63.8	3.8	1.49e+00	0	33	104	0	66	17317
2026-01-16 07:07:15.01	39.45	29.93	-49.8	-63.8	3.8	1.49e+00	0	34	104	0	66	17299
2026-01-16 07:07:16.01	39.11	29.96	-49.8	-63.8	3.8	1.49e+00	0	33	104	0	66	17294
2026-01-16 07:07:17.02	38.78	30.00	-49.8	-63.8	3.8	1.49e+00	0	33	104	0	66	17285
2026-01-16 07:07:18.03	38.44	30.04	-49.8	-63.8	3.8	1.49e+00	0	34	104	0	66	17291
2026-01-16 07:07:19.04	38.10	30.07	-49.8	-63.8	3.8	1.49e+00	0	34	104	0	66	17313
2026-01-16 07:07:20.05	37.76	30.11	-49.8	-63.8	3.8	1.49e+00	0	34	104	0	66	17328
2026-01-16 07:07:21.06	37.42	30.14	-49.9	-63.8	3.8	1.49e+00	0	34	104	0	66	17335
2026-01-16 07:07:22.07	37.07	30.17	-49.8	-63.8	3.8	1.49e+00	0	34	104	0	66	17335
2026-01-16 07:07:23.08	36.73	30.20	-49.8	-63.8	3.8	1.49e+00	0	34	104	0	66	17297
2026-01-16 07:07:24.09	36.39	30.23	-49.8	-63.8	3.8	1.49e+00	0	34	104	0	66	17285
2026-01-16 07:07:25.09	36.05	30.26	-49.8	-63.7	3.8	1.49e+00	0	33	104	0	66	17240
2026-01-16 07:07:26.10	35.70	30.28	-49.8	-63.8	3.8	1.49e+00	0	33	104	0	66	17325
2026-01-16 07:07:27.11	35.36	30.31	-49.8	-63.8	3.8	1.49e+00	0	34	104	0	66	17311
2026-01-16 07:07:28.12	35.02	30.34	-49.8	-63.8	3.8	1.49e+00	0	33	104	0	66	17328
2026-01-16 07:07:29.13	34.67	30.36	-49.8	-63.8	3.8	1.49e+00	0	33	104	0	66	17338
2026-01-16 07:07:30.14	34.32	30.38	-49.8	-63.7	3.8	1.49e+00	0	34	104	0	66	17259
2026-01-16 07:07:31.15	33.98	30.40	-49.8	-63.8	3.8	1.49e+00	0	33	104	0	66	17289
2026-01-16 07:07:32.16	33.63	30.42	-49.8	-63.7	3.8	1.49e+00	0	34	104	0	66	17271
2026-01-16 07:07:33.17	33.28	30.44	-49.8	-63.7	3.8	1.49e+00	0	33	104	0	66	17241
2026-01-16 07:07:34.18	32.93	30.46	-49.8	-63.8	3.8	1.49e+00	0	34	104	0	66	17308
2026-01-16 07:07:35.19	32.59	30.48	-49.8	-63.7	3.8	1.49e+00	0	34	104	0	66	17233
2026-01-16 07:07:36.20	32.24	30.49	-49.8	-63.7	3.8	1.49e+00	0	33	104	0	66	17234
2026-01-16 07:07:37.20	31.89	30.50	-49.8	-63.7	3.8	1.49e+00	0	34	104	0	66	17247
2026-01-16 07:07:38.21	31.54	30.52	-49.8	-63.7	3.8	1.49e+00	0	34	104	0	66	17273
2026-01-16 07:07:39.22	31.19	30.53	-49.8	-63.8	3.8	1.49e+00	0	33	104	0	66	17294
2026-01-16 07:07:40.23	30.84	30.54	-49.8	-63.7	3.8	1.49e+00	0	34	104	0	66	17236
2026-01-16 07:07:41.24	30.49	30.55	-49.8	-63.7	3.8	1.49e+00	0	33	104	0	66	17280
2026-01-16 07:07:42.25	30.14	30.56	-49.8	-63.7	3.8	1.49e+00	0	34	104	0	66	17254
2026-01-16 07:07:43.26	29.79	30.56	-49.8	-63.7	3.8	1.49e+00	0	34	104	0	66	17271
2026-01-16 07:07:44.27	29.44	30.57	-49.8	-63.7	3.8	1.49e+00	0	33	104	0	66	17241
2026-01-16 07:07:45.28	29.09	30.58	-49.8	-63.7	3.8	1.49e+00	0	34	104	0	66	17265
2026-01-16 07:07:46.29	28.74	30.58	-49.8	-63.7	3.8	1.49e+00	0	34	104	0	66	17259
2026-01-16 07:07:47.30	28.39	30.58	-49.8	-63.7	3.9	1.49e+00	0	34	104	0	66	17239
2026-01-16 07:07:48.31	28.04	30.58	-49.8	-63.7	3.8	1.49e+00	0	33	104	0	66	17232
2026-01-16 07:07:49.32	27.69	30.58	-49.8	-63.7	3.8	1.49e+00	0	33	104	0	66	17256
2026-01-16 07:07:50.32	27.34	30.58	-49.8	-63.7	3.8	1.49e+00	0	34	104	0	66	17248
2026-01-16 07:07:51.33	26.99	30.58	-49.9	-63.8	3.8	1.49e+00	0	34	104	0	66	17431
2026-01-16 07:07:52.34	26.64	30.57	-50.0	-63.9	3.8	1.49e+00	0	34	104	0	66	17621
2026-01-16 07:07:53.35	26.29	30.57	-49.9	-63.9	3.8	1.49e+00	0	33	104	0	66	17499
2026-01-16 07:07:54.36	25.94	30.56	-49.9	-63.8	3.8	1.49e+00	0	33	104	0	66	17469
2026-01-16 07:07:55.37	25.59	30.55	-50.0	-63.9	3.8	1.49e+00	0	33	104	0	66	17537
2026-01-16 07:07:56.38	25.24	30.55	-49.9	-63.8	3.8	1.49e+00	0	33	104	0	66	17390
2026-01-16 07:07:57.39	24.89	30.54	-50.0	-63.9	3.8	1.49e+00	0	34	104	0	66	17605
2026-01-16 07:07:58.40	24.54	30.52	-50.0	-63.9	3.8	1.49e+00	0	34	104	0	66	17583
2026-01-16 07:07:59.41	24.19	30.51	-50.0	-64.0	3.8	1.49e+00	0	33	104	0	66	17687
2026-01-16 07:08:00.42	23.84	30.50	-50.0	-63.9	3.8	1.49e+00	0	33	104	0	66	17605
2026-01-16 07:08:01.43	23.49	30.48	-50.0	-63.9	3.8	1.49e+00	0	34	104	0	66	17659
2026-01-16 07:08:02.43	23.15	30.47	-48.3	-64.1	3.8	1.49e+00	0	33	104	0	63	21269
2026-01-16 07:08:03.44	22.80	30.45	-47.6	-64.0	3.8	1.49e+00	0	34	104	0	61	23837
2026-01-16 07:08:04.45	22.45	30.43	-48.7	-64.0	3.8	1.49e+00	0	34	104	0	63	21115
2026-01-16 07:08:05.46	22.10	30.41	-48.0	-64.0	3.8	1.49e+00	0	33	104	0	62	22374
2026-01-16 07:08:06.47	21.76	30.39	-47.8	-64.1	3.8	1.49e+00	0	33	104	0	62	22574
2026-01-16 07:08:07.48	21.41	30.37	-47.6	-64.1	3.8	1.49e+00	0	34	104	0	61	23989
2026-01-16 07:08:08.48	21.07	30.35	-47.5	-64.1	3.8	1.49e+00	0	34	104	0	61	24089
2026-01-16 07:08:09.49	20.72	30.32	-47.4	-64.1	3.8	1.49e+00	0	33	104	0	61	24103
2026-01-16 07:08:10.50	20.38	30.30	-47.3	-64.2	3.8	1.49e+00	0	33	104	0	61	24191
2026-01-16 07:08:11.51	20.03	30.27	-47.3	-64.2	3.8	1.49e+00	0	34	104	0	61	24222
2026-01-16 07:08:12.52	19.69	30.25	-47.3	-64.2	3.8	1.49e+00	0	33	104	0	61	24295
2026-01-16 07:08:13.53	19.35	30.22	-47.3	-64.2	3.8	1.49e+00	0	33	104	0	61	24362
2026-01-16 07:08:14.54	19.01	30.19	-47.3	-64.3	3.8	1.49e+00	0	34	104	0	61	24440
2026-01-16 07:08:15.55	18.66	30.16	-47.3	-64.3	3.8	1.49e+00	0	34	104	0	61	24430
2026-01-16 07:08:16.56	18.32	30.12	-47.3	-64.3	3.8	1.49e+00	0	33	104	0	61	24489
2026-01-16 07:08:17.57	17.98	30.09	-47.4	-64.3	3.8	1.49e+00	0	34	104	0	61	24590
2026-01-16 07:08:18.58	17.64	30.06	-47.1	-64.3	3.8	1.49e+00	0	34	104	0	60	26028
2026-01-16 07:08:19.59	17.30	30.02	-47.3	-64.3	3.8	1.49e+00	0	33	104	0	60	26075
2026-01-16 07:08:20.59	16.97	29.99	-47.3	-64.3	3.8	1.49e+00	0	34	104	0	60	26047
2026-01-16 07:08:21.60	16.63	29.95	-47.2	-64.3	3.8	1.49e+00	0	34	104	0	60	26111
2026-01-16 07:08:22.61	16.29	29.91	-47.3	-64.3	3.8	1.49e+00	0	34	104	0	60	26078
2026-01-16 07:08:23.62	15.96	29.87	-47.3	-64.3	3.8	1.49e+00	0	34	104	0	60	26114
2026-01-16 07:08:24.63	15.62	29.83	-47.3	-64.4	3.8	1.49e+00	0	34	104	0	60	26211
2026-01-16 07:08:25.64	15.29	29.79	-47.3	-64.4	3.8	1.49e+00	0	34	104	0	60	26269
2026-01-16 07:08:26.65	14.96	29.75	-47.3	-64.4	3.8	1.49e+00	0	34	104	0	60	26266
2026-01-16 07:08:27.66	14.62	29.70	-47.3	-64.4	3.8	1.49e+00	0	33	104	0	60	26250
2026-01-16 07:08:28.67	14.29	29.66	-47.3	-64.4	3.8	1.49e+00	0	34	104	0	60	26315
2026-01-16 07:08:29.68	13.96	29.61	-47.3	-64.4	3.8	1.49e+00	0	33	104	0	60	26313
2026-01-16 07:08:30.68	13.64	29.57	-47.2	-64.5	3.8	1.49e+00	0	34	104	0	60	26464
2026-01-16 07:08:31.69	13.31	29.52	-47.3	-64.5	3.8	1.49e+00	0	34	104	0	60	26494
2026-01-16 07:08:32.71	12.98	29.47	-47.2	-64.5	3.8	1.49e+00	0	34	104	0	60	26477
2026-01-16 07:08:33.71	12.65	29.42	-47.2	-64.5	3.8	1.49e+00	0	34	104	0	60	26593
2026-01-16 07:08:34.72	12.33	29.37	-47.3	-64.5	3.8	1.49e+00	0	34	104	0	60	26595
2026-01-16 07:08:35.73	12.00	29.32	-47.2	-64.5	3.8	1.49e+00	0	34	104	0	60	26625
2026-01-16 07:08:36.74	11.68	29.26	-47.2	-64.5	3.8	1.49e+00	0	34	104	0	60	26608
2026-01-16 07:08:37.75	11.36	29.21	-47.2	-64.5	3.8	1.49e+00	0	34	104	0	60	26635
2026-01-16 07:08:38.76	11.04	29.16	-47.2	-64.5	3.8	1.49e+00	0	34	104	0	60	26696
2026-01-16 07:08:39.77	10.72	29.10	-47.2	-64.6	3.8	1.49e+00	0	34	104	0	60	26784
2026-01-16 07:08:40.77	10.40	29.05	-47.2	-64.5	3.8	1.49e+00	0	34	104	0	60	26758
2026-01-16 07:08:41.78	10.08	28.99	-47.2	-64.6	3.8	1.49e+00	0	33	104	0	60	26825
2026-01-16 07:08:42.79	9.76	28.93	-47.2	-64.6	3.8	1.49e+00	0	33	104	0	60	26812
2026-01-16 07:08:43.80	9.45	28.87	-47.2	-64.6	3.8	1.49e+00	0	34	104	0	60	26873
2026-01-16 07:08:44.81	9.13	28.81	-47.2	-64.6	3.8	1.49e+00	0	34	104	0	60	26889
2026-01-16 07:08:45.82	8.82	28.75	-47.2	-64.6	3.8	1.49e+00	0	34	104	0	60	26875
2026-01-16 07:08:46.83	8.51	28.69	-47.1	-64.6	3.8	1.49e+00	0	34	104	0	60	26937
2026-01-16 07:08:47.84	8.20	28.63	-47.2	-64.6	3.8	1.49e+00	0	34	104	0	60	26961
2026-01-16 07:08:48.85	7.89	28.57	-47.1	-64.6	3.8	1.49e+00	0	33	104	0	60	26983
2026-01-16 07:08:49.86	7.58	28.50	-47.1	-64.6	3.8	1.49e+00	0	34	104	0	60	26980
2026-01-16 07:08:50.87	7.27	28.44	-47.1	-64.7	3.8	1.49e+00	0	34	104	0	60	27102
2026-01-16 07:08:51.87	6.97	28.38	-47.0	-64.7	3.8	1.49e+00	0	34	104	0	60	27115
2026-01-16 07:08:52.88	6.67	28.31	-47.0	-64.7	3.8	1.49e+00	0	34	104	0	60	27134
2026-01-16 07:08:53.89	6.36	28.24	-46.9	-64.7	3.8	1.49e+00	0	34	104	0	60	27143
2026-01-16 07:08:54.90	6.06	28.18	-46.9	-64.7	3.8	1.49e+00	0	34	104	0	60	27150
2026-01-16 07:08:55.91	5.76	28.11	-46.8	-64.7	3.8	1.49e+00	0	34	104	0	60	27198
2026-01-16 07:08:56.92	5.46	28.04	-46.8	-64.7	3.8	1.49e+00	0	33	104	0	60	27207
2026-01-16 07:08:57.93	5.16	27.97	-46.7	-64.7	3.8	1.49e+00	0	34	104	0	60	27284
2026-01-16 07:08:58.94	4.86	27.90	-46.8	-64.7	3.8	1.49e+00	0	33	104	0	60	27224
2026-01-16 07:08:59.95	4.57	27.83	-46.8	-65.1	3.8	1.49e+00	0	34	104	0	59	30323
2026-01-16 07:09:00.95	4.28	27.76	-46.8	-65.1	3.8	1.49e+00	0	33	104	0	59	30297
2026-01-16 07:09:01.96	3.98	27.69	-46.7	-65.2	3.8	1.49e+00	0	33	104	0	59	30386
2026-01-16 07:09:02.97	3.69	27.61	-46.8	-65.2	3.8	1.49e+00	0	34	104	0	59	30407
2026-01-16 07:09:03.98	3.40	27.54	-46.6	-65.2	3.8	1.49e+00	0	33	104	0	59	30447
2026-01-16 07:09:04.99	3.11	27.47	-46.5	-65.2	3.8	1.49e+00	0	34	104	0	59	30539
2026-01-16 07:09:06.00	2.83	27.39	-46.5	-65.2	3.8	1.49e+00	0	34	104	0	59	30600
2026-01-16 07:09:07.01	2.54	27.32	-46.5	-65.2	3.8	1.49e+00	0	33	104	0	59	30543
2026-01-16 07:09:08.02	2.25	27.24	-46.4	-65.2	3.8	1.49e+00	0	33	104	0	59	30539
2026-01-16 07:09:09.03	1.97	27.16	-46.5	-65.2	3.8	1.49e+00	0	34	104	0	59	30605
2026-01-16 07:09:10.03	1.69	27.09	-46.3	-65.2	3.8	1.49e+00	0	34	104	0	59	30536
2026-01-16 07:09:11.04	1.41	27.01	-46.3	-65.2	3.8	1.49e+00	0	34	104	0	59	30590
2026-01-16 07:09:12.05	1.13	26.93	-46.2	-65.2	3.8	1.49e+00	0	34	104	0	59	30630
2026-01-16 07:09:13.06	0.85	26.85	-46.2	-65.2	3.8	1.49e+00	0	34	104	0	59	30637
2026-01-16 07:09:14.07	0.58	26.77	-46.3	-65.2	3.8	1.49e+00	0	34	104	0	59	30674
2026-01-16 07:09:15.08	0.30	26.70	-46.3	-65.2	3.8	1.49e+00	0	34	104	0	59	30615
2026-01-16 07:09:16.09	0.03	26.62	-46.4	-65.2	3.8	1.49e+00	0	33	104	0	59	30648
2026-01-16 07:09:17.10	359.75	26.53	-46.4	-65.2	3.8	1.49e+00	0	33	104	0	59	30628
2026-01-16 07:09:18.11	359.48	26.45	-46.5	-65.2	3.8	1.49e+00	0	34	104	0	59	30636
2026-01-16 07:09:19.12	359.21	26.37	-46.3	-65.3	3.8	1.49e+00	0	34	104	0	59	30781
2026-01-16 07:09:20.13	358.95	26.29	-46.2	-65.3	3.8	1.49e+00	0	34	104	0	58	32691
2026-01-16 07:09:21.14	358.68	26.21	-46.2	-65.3	3.8	1.49e+00	0	34	104	0	58	32701
2026-01-16 07:09:22.15	358.41	26.13	-46.2	-65.3	3.8	1.49e+00	0	34	104	0	58	32645
2026-01-16 07:09:23.16	358.15	26.04	-46.2	-65.3	3.8	1.49e+00	0	34	104	0	58	32678
2026-01-16 07:09:24.17	357.89	25.96	-46.1	-65.3	3.8	1.49e+00	0	34	104	0	58	32691
2026-01-16 07:09:25.17	357.63	25.88	-46.1	-65.3	3.8	1.49e+00	0	34	104	0	58	32746
2026-01-16 07:09:26.18	357.37	25.79	-46.2	-65.3	3.8	1.49e+00	0	34	104	0	58	32771
2026-01-16 07:09:27.19	357.11	25.71	-46.1	-65.3	3.8	1.49e+00	0	34	104	0	58	32888
2026-01-16 07:09:28.20	356.85	25.62	-46.1	-65.3	3.8	1.49e+00	0	34	104	0	58	32810
2026-01-16 07:09:29.21	356.60	25.54	-46.1	-65.3	3.8	1.49e+00	0	34	104	0	58	32876
2026-01-16 07:09:30.22	356.34	25.45	-46.1	-65.3	3.8	1.49e+00	0	34	104	0	58	32908
2026-01-16 07:09:31.23	356.09	25.36	-46.1	-65.4	3.8	1.49e+00	0	34	104	0	58	32964
2026-01-16 07:09:32.24	355.84	25.28	-46.1	-65.4	3.8	1.49e+00	0	33	104	0	58	32961
2026-01-16 07:09:33.25	355.59	25.19	-46.1	-65.4	3.8	1.49e+00	0	34	104	0	58	32940
2026-01-16 07:09:34.25	355.34	25.10	-46.2	-65.4	3.8	1.49e+00	0	33	104	0	58	32932
2026-01-16 07:09:35.26	355.09	25.02	-46.1	-65.4	3.8	1.49e+00	0	33	104	0	58	32995
2026-01-16 07:09:36.27	354.85	24.93	-45.9	-65.4	3.8	1.49e+00	0	34	104	0	58	33062
2026-01-16 07:09:37.28	354.60	24.84	-45.9	-65.4	3.8	1.49e+00	0	34	104	0	58	33071
2026-01-16 07:09:38.29	354.36	24.75	-45.9	-65.4	3.8	1.49e+00	0	34	104	0	58	33118
2026-01-16 07:09:39.30	354.12	24.66	-45.7	-65.4	3.8	1.49e+00	0	34	104	0	58	33071
2026-01-16 07:09:40.31	353.88	24.57	-45.7	-65.4	3.8	1.49e+00	0	33	104	0	58	33140
2026-01-16 07:09:41.32	353.64	24.49	-45.6	-65.4	3.8	1.49e+00	0	34	104	0	57	35088
2026-01-16 07:09:42.33	353.40	24.40	-45.5	-65.4	3.8	1.49e+00	0	33	104	0	57	35147
2026-01-16 07:09:43.33	353.17	24.31	-45.5	-65.4	3.8	1.49e+00	0	34	104	0	57	35224
2026-01-16 07:09:44.34	352.93	24.22	-45.5	-65.4	3.8	1.49e+00	0	34	104	0	57	35241
2026-01-16 07:09:45.35	352.70	24.13	-45.4	-65.4	3.8	1.49e+00	0	34	104	0	57	35161
2026-01-16 07:09:46.36	352.47	24.04	-45.3	-65.5	3.8	1.49e+00	0	34	104	0	57	35376
2026-01-16 07:09:47.37	352.24	23.95	-45.2	-65.4	3.8	1.49e+00	0	34	104	0	57	35269
2026-01-16 07:09:48.38	352.01	23.86	-45.2	-65.5	3.8	1.49e+00	0	34	104	0	57	35409
2026-01-16 07:09:49.39	351.78	23.77	-45.3	-65.5	3.8	1.49e+00	0	34	104	0	56	37497
2026-01-16 07:09:50.40	351.55	23.68	-45.3	-65.5	3.8	1.49e+00	0	34	104	0	56	37484
2026-01-16 07:09:51.41	351.33	23.58	-45.4	-65.5	3.8	1.49e+00	0	33	104	0	56	37555
2026-01-16 07:09:52.42	351.10	23.49	-45.3	-65.5	3.8	1.49e+00	0	34	104	0	56	37642
2026-01-16 07:09:53.43	350.88	23.40	-45.3	-65.5	3.8	1.49e+00	0	34	104	0	56	37623
2026-01-16 07:09:54.44	350.66	23.31	-45.4	-65.5	3.8	1.49e+00	0	34	104	0	56	37595
2026-01-16 07:09:55.44	350.44	23.22	-45.4	-65.5	3.8	1.49e+00	0	34	104	0	56	37574
2026-01-16 07:09:56.45	350.22	23.13	-45.4	-65.5	3.8	1.49e+00	0	34	104	0	56	37512
2026-01-16 07:09:57.46	350.00	23.04	-45.4	-65.5	3.8	1.49e+00	0	34	104	0	56	37571
2026-01-16 07:09:58.47	349.78	22.94	-45.4	-65.5	3.8	1.49e+00	0	34	104	0	56	37720
2026-01-16 07:09:59.48	349.57	22.85	-45.4	-65.5	3.8	1.49e+00	0	34	104	0	56	37727
2026-01-16 07:10:00.49	349.36	22.76	-45.4	-65.5	3.8	1.49e+00	0	33	104	0	56	37639
2026-01-16 07:10:01.50	349.14	22.67	-45.4	-65.5	3.8	1.49e+00	0	34	104	0	56	37743
2026-01-16 07:10:02.50	348.93	22.57	-45.4	-65.5	3.8	1.49e+00	0	34	104	0	56	37718
2026-01-16 07:10:03.51	348.72	22.48	-45.4	-65.5	3.8	1.49e+00	0	34	104	0	56	37745
2026-01-16 07:10:04.52	348.52	22.39	-45.4	-65.5	3.8	1.49e+00	0	33	104	0	56	37732
2026-01-16 07:10:05.53	348.31	22.30	-45.4	-65.5	3.8	1.49e+00	0	34	104	0	56	37779
2026-01-16 07:10:06.54	348.10	22.20	-45.2	-65.5	3.8	1.49e+00	0	34	104	0	56	37785
2026-01-16 07:10:07.55	347.90	22.11	-45.2	-65.6	3.8	1.49e+00	0	34	104	0	56	37914
2026-01-16 07:10:08.56	347.69	22.02	-45.3	-65.6	3.8	1.49e+00	0	33	104	0	56	37991
2026-01-16 07:10:09.57	347.49	21.93	-45.1	-65.6	3.8	1.49e+00	0	33	104	0	56	37873
2026-01-16 07:10:10.57	347.29	21.83	-45.0	-65.6	3.8	1.49e+00	0	33	104	0	56	37929
2026-01-16 07:10:11.58	347.09	21.74	-44.9	-65.6	3.8	1.49e+00	0	33	104	0	56	38040
2026-01-16 07:10:12.59	346.89	21.65	-44.9	-65.6	3.8	1.49e+00	0	33	104	0	56	38070
2026-01-16 07:10:13.60	346.69	21.55	-44.8	-65.6	3.8	1.49e+00	0	34	104	0	56	38099
2026-01-16 07:10:14.61	346.50	21.46	-44.7	-65.6	3.8	1.49e+00	0	34	104	0	56	38217
2026-01-16 07:10:15.62	346.30	21.37	-44.7	-65.6	3.8	1.49e+00	0	34	104	0	56	38128
2026-01-16 07:10:16.63	346.11	21.27	-44.6	-65.5	3.8	1.49e+00	0	33	104	0	55	39677
2026-01-16 07:10:17.64	345.92	21.18	-44.6	-65.5	3.8	1.49e+00	0	34	104	0	55	39798
2026-01-16 07:10:18.64	345.73	21.09	-44.6	-65.5	3.8	1.49e+00	0	34	104	0	55	39693
2026-01-16 07:10:19.65	345.53	21.00	-44.7	-65.5	3.8	1.49e+00	0	34	104	0	55	39709
2026-01-16 07:10:20.66	345.35	20.90	-44.6	-65.5	3.8	1.49e+00	0	33	104	0	55	39779
2026-01-16 07:10:21.67	345.16	20.81	-44.9	-65.5	3.8	1.49e+00	0	33	104	0	55	39856
2026-01-16 07:10:22.68	344.97	20.72	-45.0	-65.5	3.8	1.49e+00	0	33	104	0	55	39809
2026-01-16 07:10:23.69	344.78	20.62	-45.1	-65.5	3.8	1.49e+00	0	34	104	0	55	39804
2026-01-16 07:10:24.70	344.60	20.53	-45.2	-65.5	3.8	1.49e+00	0	34	104	0	55	39838
2026-01-16 07:10:25.71	344.42	20.44	-45.2	-65.5	3.8	1.49e+00	0	34	104	0	55	39820
2026-01-16 07:10:26.72	344.23	20.34	-45.2	-65.5	3.8	1.49e+00	0	34	104	0	55	39798
2026-01-16 07:10:27.73	344.05	20.25	-45.2	-65.5	3.8	1.49e+00	0	34	104	0	55	40017
2026-01-16 07:10:28.73	343.87	20.16	-45.1	-65.5	3.8	1.49e+00	0	34	104	0	55	39906
2026-01-16 07:10:29.74	343.69	20.07	-45.1	-65.5	3.8	1.49e+00	0	33	104	0	55	39988
2026-01-16 07:10:30.75	343.52	19.97	-45.0	-65.5	3.8	1.49e+00	0	33	104	0	55	40007
2026-01-16 07:10:31.76	343.34	19.88	-44.9	-65.5	3.8	1.49e+00	0	34	104	0	55	40023
2026-01-16 07:10:32.77	343.16	19.79	-44.8	-65.5	3.8	1.49e+00	0	33	104	0	55	40023
2026-01-16 07:10:33.78	342.99	19.70	-44.7	-65.5	3.8	1.49e+00	0	34	104	0	55	39950
2026-01-16 07:10:34.79	342.81	19.60	-44.7	-65.6	3.8	1.49e+00	0	33	104	0	55	40072
2026-01-16 07:10:35.79	342.64	19.51	-44.6	-65.5	3.8	1.49e+00	0	34	104	0	55	39945
2026-01-16 07:10:36.80	342.47	19.42	-44.7	-65.6	3.8	1.49e+00	0	34	104	0	55	40154
2026-01-16 07:10:37.81	342.30	19.33	-44.8	-65.6	3.8	1.49e+00	0	34	104	0	55	40051
2026-01-16 07:10:38.82	342.13	19.23	-44.8	-65.6	3.8	1.49e+00	0	34	104	0	55	40190
2026-01-16 07:10:39.83	341.96	19.14	-44.9	-65.6	3.8	1.49e+00	0	33	104	0	55	40146
2026-01-16 07:10:40.84	341.80	19.05	-45.1	-65.6	3.8	1.49e+00	0	33	104	0	55	40264
2026-01-16 07:10:41.85	341.63	18.96	-45.0	-65.6	3.8	1.49e+00	0	34	104	0	55	40407
2026-01-16 07:10:42.86	341.46	18.87	-45.1	-65.6	3.8	1.49e+00	0	34	104	0	55	40502
2026-01-16 07:10:43.87	341.30	18.77	-45.1	-65.6	3.8	1.49e+00	0	34	104	0	55	40418
2026-01-16 07:10:44.88	341.14	18.68	-45.0	-65.6	3.8	1.49e+00	0	34	104	0	55	40411
2026-01-16 07:10:45.89	340.97	18.59	-45.0	-65.6	3.8	1.49e+00	0	33	104	0	55	40379
2026-01-16 07:10:46.90	340.81	18.50	-44.9	-65.6	3.8	1.49e+00	0	33	104	0	55	40338
2026-01-16 07:10:47.91	340.65	18.41	-44.7	-65.7	3.8	1.49e+00	0	33	104	0	55	40517
2026-01-16 07:10:48.91	340.49	18.32	-44.7	-65.7	3.8	1.49e+00	0	34	104	0	55	40513
2026-01-16 07:10:49.92	340.33	18.23	-44.6	-65.7	3.8	1.49e+00	0	34	104	0	55	40634
2026-01-16 07:10:50.93	340.18	18.13	-44.7	-65.7	3.8	1.49e+00	0	33	104	0	55	40677
2026-01-16 07:10:51.94	340.02	18.04	-44.7	-65.7	3.8	1.49e+00	0	34	104	0	55	40715
2026-01-16 07:10:52.95	339.87	17.95	-44.8	-65.7	3.8	1.49e+00	0	34	104	0	55	40758
2026-01-16 07:10:53.96	339.71	17.86	-44.8	-65.7	3.8	1.49e+00	0	34	104	0	55	40697
2026-01-16 07:10:54.98	339.56	17.77	-44.7	-65.7	3.8	1.49e+00	0	33	104	0	55	40731
2026-01-16 07:10:55.98	339.40	17.68	-44.6	-65.7	3.8	1.49e+00	0	34	104	0	55	40719
2026-01-16 07:10:56.99	339.25	17.59	-44.7	-65.7	3.8	1.49e+00	0	33	104	0	55	40708
2026-01-16 07:10:58.00	339.10	17.50	-44.6	-65.7	3.8	1.49e+00	0	34	104	0	55	40647
2026-01-16 07:10:59.01	338.95	17.41	-44.8	-65.7	3.8	1.49e+00	0	33	104	0	55	40820
2026-01-16 07:11:00.02	338.80	17.32	-44.7	-65.7	3.8	1.49e+00	0	34	104	0	55	40620
2026-01-16 07:11:01.03	338.65	17.23	-44.5	-65.7	3.8	1.49e+00	0	34	104	0	55	40656
2026-01-16 07:11:02.04	338.51	17.14	-44.2	-65.7	3.8	1.49e+00	0	33	104	0	55	40828
2026-01-16 07:11:03.04	338.36	17.05	-43.9	-65.7	3.8	1.49e+00	0	33	104	0	54	43296
2026-01-16 07:11:04.05	338.22	16.96	-43.8	-65.7	3.8	1.49e+00	0	34	104	0	54	43266
2026-01-16 07:11:05.06	338.07	16.87	-43.7	-65.7	3.8	1.49e+00	0	33	104	0	54	43262
2026-01-16 07:11:06.07	337.93	16.78	-43.8	-65.7	3.8	1.49e+00	0	34	104	0	54	43190
2026-01-16 07:11:07.08	337.79	16.69	-44.1	-65.7	3.8	1.49e+00	0	33	104	0	54	43236
2026-01-16 07:11:08.09	337.64	16.60	-44.2	-65.7	3.8	1.49e+00	0	34	104	0	54	43219
2026-01-16 07:11:09.10	337.50	16.51	-44.1	-65.7	3.8	1.49e+00	0	34	104	0	54	43214
2026-01-16 07:11:10.11	337.36	16.43	-44.0	-65.7	3.8	1.49e+00	0	33	104	0	54	43250
2026-01-16 07:11:11.11	337.22	16.34	-43.6	-65.7	3.8	1.49e+00	0	34	104	0	53	45707
2026-01-16 07:11:12.12	337.08	16.25	-43.3	-65.7	3.8	1.49e+00	0	34	104	0	53	45830
2026-01-16 07:11:13.13	336.95	16.16	-43.3	-65.7	3.8	1.49e+00	0	34	104	0	53	45621
2026-01-16 07:11:14.14	336.81	16.07	-43.2	-65.7	3.8	1.49e+00	0	34	104	0	53	45738
2026-01-16 07:11:15.15	336.67	15.98	-43.0	-65.7	3.8	1.49e+00	0	33	104	0	52	48454
2026-01-16 07:11:16.16	336.54	15.90	-42.8	-65.7	3.8	1.49e+00	0	34	104	0	52	48516
2026-01-16 07:11:17.17	336.40	15.81	-42.7	-65.7	3.8	1.49e+00	0	33	104	0	52	48525
2026-01-16 07:11:18.18	336.27	15.72	-42.5	-65.8	3.8	1.49e+00	0	34	104	0	51	51844
2026-01-16 07:11:19.19	336.14	15.63	-42.7	-65.8	3.8	1.49e+00	0	33	104	0	51	51692
2026-01-16 07:11:20.20	336.01	15.55	-42.7	-65.8	3.8	1.49e+00	0	34	104	0	51	51796
2026-01-16 07:11:21.21	335.87	15.46	-42.7	-65.8	3.8	1.49e+00	0	34	104	0	51	51873
2026-01-16 07:11:22.22	335.74	15.37	-42.2	-65.8	3.7	1.49e+00	0	34	104	0	50	54724
2026-01-16 07:11:23.23	335.61	15.29	-42.0	-65.8	3.8	1.49e+00	0	34	104	0	50	54781
2026-01-16 07:11:24.24	335.48	15.20	-42.0	-65.8	3.8	1.49e+00	0	34	104	0	50	54938
2026-01-16 07:11:25.25	335.36	15.11	-42.0	-65.8	3.8	1.49e+00	0	33	104	0	50	54905
2026-01-16 07:11:26.26	335.23	15.03	-41.8	-65.8	3.8	1.49e+00	0	34	104	0	50	54954
2026-01-16 07:11:27.27	335.10	14.94	-41.4	-65.8	3.8	1.49e+00	0	34	104	0	49	58136
2026-01-16 07:11:28.27	334.98	14.86	-41.4	-65.8	3.8	1.49e+00	0	34	104	0	49	58131
2026-01-16 07:11:29.29	334.85	14.77	-41.4	-65.8	3.8	1.49e+00	0	34	104	0	49	58052
2026-01-16 07:11:30.29	334.73	14.68	-41.4	-65.8	3.8	1.49e+00	0	34	104	0	49	58074
2026-01-16 07:11:31.30	334.60	14.60	-41.4	-65.8	3.8	1.49e+00	0	34	104	0	49	58141
2026-01-16 07:11:32.31	334.48	14.51	-41.4	-65.8	3.8	1.49e+00	0	34	104	0	49	58125
2026-01-16 07:11:33.32	334.36	14.43	-41.5	-65.8	3.8	1.49e+00	0	33	104	0	49	58100
2026-01-16 07:11:34.33	334.24	14.34	-41.6	-65.8	3.8	1.49e+00	0	34	104	0	49	58298
2026-01-16 07:11:35.34	334.12	14.26	-41.7	-65.8	3.8	1.49e+00	0	34	104	0	49	58147
2026-01-16 07:11:36.35	334.00	14.17	-41.6	-65.8	3.8	1.49e+00	0	34	104	0	49	58222
2026-01-16 07:11:37.35	333.88	14.09	-41.4	-65.8	3.8	1.49e+00	0	34	104	0	49	58125
2026-01-16 07:11:38.36	333.76	14.01	-41.5	-65.8	3.8	1.49e+00	0	34	104	0	49	58194
2026-01-16 07:11:39.37	333.64	13.92	-41.5	-65.8	3.8	1.49e+00	0	33	104	0	49	58238
2026-01-16 07:11:40.38	333.52	13.84	-41.3	-65.8	3.8	1.49e+00	0	34	104	0	49	58222
2026-01-16 07:11:41.39	333.41	13.75	-41.5	-65.8	3.8	1.49e+00	0	34	104	0	49	58247
2026-01-16 07:11:42.40	333.29	13.67	-41.9	-65.8	3.8	1.49e+00	0	34	104	0	49	58444
2026-01-16 07:11:43.41	333.17	13.59	-41.7	-65.8	3.8	1.49e+00	0	34	104	0	49	58348
2026-01-16 07:11:44.42	333.06	13.50	-41.5	-65.9	3.8	1.49e+00	0	34	104	0	49	58558
2026-01-16 07:11:45.42	332.95	13.42	-41.6	-65.8	3.8	1.49e+00	0	34	104	0	49	58549
2026-01-16 07:11:46.44	332.83	13.34	-41.3	-65.8	3.8	1.49e+00	0	34	104	0	49	58493
2026-01-16 07:11:47.44	332.72	13.25	-41.4	-65.8	3.8	1.49e+00	0	33	104	0	49	58450
2026-01-16 07:11:48.45	332.61	13.17	-51.6	-65.7	3.8	1.49e+00	0	34	104	0	68	19240
2026-01-16 07:11:49.46	332.50	13.09	-51.6	-65.7	3.8	1.49e+00	0	33	104	0	68	19199
2026-01-16 07:11:50.47	332.39	13.01	-51.6	-65.6	3.8	1.49e+00	0	34	104	0	68	19152
2026-01-16 07:11:51.48	332.28	12.92	-51.7	-65.6	3.8	1.49e+00	0	34	104	0	68	19163
2026-01-16 07:11:52.49	332.17	12.84	-51.7	-65.7	3.8	1.49e+00	0	34	104	0	68	19231
2026-01-16 07:11:53.50	332.06	12.76	-51.7	-65.7	3.9	1.49e+00	0	33	104	0	68	19173
2026-01-16 07:11:54.51	331.95	12.68	-51.7	-65.7	3.8	1.49e+00	0	34	104	0	68	19198
2026-01-16 07:11:55.52	331.84	12.60	-51.7	-65.7	3.8	1.49e+00	0	34	104	0	68	19227
2026-01-16 07:11:56.53	331.73	12.52	-51.7	-65.7	3.8	1.49e+00	0	34	104	0	68	19230
2026-01-16 07:11:57.54	331.63	12.44	-51.7	-65.7	3.8	1.49e+00	0	33	104	0	68	19194
2026-01-16 07:11:58.55	331.52	12.35	-51.7	-65.7	3.8	1.49e+00	0	34	104	0	68	19217
2026-01-16 07:11:59.56	331.42	12.27	-51.7	-65.7	3.8	1.49e+00	0	33	104	0	68	19306
2026-01-16 07:12:00.57	331.31	12.19	-51.7	-65.7	3.8	1.49e+00	0	34	104	0	68	19345
2026-01-16 07:12:01.57	331.21	12.11	-51.7	-65.7	3.8	1.49e+00	0	34	104	0	68	19238
2026-01-16 07:12:02.58	331.11	12.03	-51.7	-65.7	3.8	1.49e+00	0	34	104	0	68	19313
2026-01-16 07:12:03.59	331.00	11.95	-51.7	-65.7	3.8	1.49e+00	0	34	104	0	68	19371
2026-01-16 07:12:04.60	330.90	11.87	-51.7	-65.7	3.8	1.49e+00	0	34	104	0	68	19308
2026-01-16 07:12:05.61	330.80	11.79	-51.7	-65.7	3.8	1.49e+00	0	33	104	0	68	19261
2026-01-16 07:12:06.62	330.70	11.71	-51.7	-65.7	3.8	1.49e+00	0	34	104	0	68	19310
2026-01-16 07:12:07.63	330.60	11.63	-51.7	-65.7	3.8	1.49e+00	0	34	104	0	68	19347
2026-01-16 07:12:08.64	330.50	11.55	-51.7	-65.8	3.8	1.49e+00	0	34	104	0	68	19405
2026-01-16 07:12:09.65	330.40	11.48	-51.7	-65.7	3.8	1.49e+00	0	34	104	0	68	19359
2026-01-16 07:12:10.66	330.30	11.40	-51.7	-65.7	3.8	1.49e+00	0	34	104	0	68	19341
2026-01-16 07:12:11.66	330.20	11.32	-51.8	-65.7	3.8	1.49e+00	0	34	104	0	68	19367
2026-01-16 07:12:12.67	330.10	11.24	-51.8	-65.7	3.8	1.49e+00	0	34	104	0	68	19389
2026-01-16 07:12:13.68	330.01	11.16	-51.7	-65.7	3.8	1.49e+00	0	34	104	0	68	19362
2026-01-16 07:12:14.69	329.91	11.08	-51.8	-65.8	3.8	1.49e+00	0	33	104	0	68	19423
2026-01-16 07:12:15.70	329.81	11.00	-51.8	-65.8	3.8	1.49e+00	0	34	104	0	68	19420
2026-01-16 07:12:16.71	329.72	10.93	-51.8	-65.8	3.8	1.49e+00	0	33	104	0	68	19459
2026-01-16 07:12:17.72	329.62	10.85	-51.7	-65.7	3.8	1.49e+00	0	34	104	0	68	19387
2026-01-16 07:12:18.73	329.53	10.77	-51.8	-65.8	3.8	1.49e+00	0	34	104	0	68	19446
2026-01-16 07:12:19.73	329.43	10.69	-51.8	-65.8	3.8	1.49e+00	0	34	104	0	68	19476
2026-01-16 07:12:20.74	329.34	10.62	-51.8	-65.8	3.8	1.49e+00	0	34	104	0	68	19473
2026-01-16 07:12:21.75	329.25	10.54	-51.8	-65.8	3.8	1.49e+00	0	33	104	0	68	19444
2026-01-16 07:12:22.76	329.15	10.46	-51.8	-65.8	3.8	1.49e+00	0	34	104	0	68	19524
2026-01-16 07:12:23.77	329.06	10.39	-51.8	-65.8	3.8	1.49e+00	0	34	104	0	68	19520
2026-01-16 07:12:24.78	328.97	10.31	-51.8	-65.8	3.8	1.49e+00	0	34	104	0	68	19525
2026-01-16 07:12:25.79	328.88	10.23	-51.8	-65.8	3.8	1.49e+00	0	34	104	0	68	19495
2026-01-16 07:12:26.79	328.79	10.16	-51.8	-65.8	3.8	1.49e+00	0	34	104	0	68	19547
2026-01-16 07:12:27.80	328.70	10.08	-51.8	-65.8	3.8	1.49e+00	0	34	104	0	68	19591
2026-01-16 07:12:28.81	328.61	10.01	-51.8	-65.8	3.8	1.49e+00	0	34	104	0	68	19467
2026-01-16 07:12:29.82	328.52	9.93	-51.8	-65.8	3.8	1.49e+00	0	33	104	0	68	19460
2026-01-16 07:12:30.83	328.43	9.85	-51.8	-65.8	3.8	1.49e+00	0	34	104	0	68	19485
2026-01-16 07:12:31.84	328.34	9.78	-51.8	-65.8	3.8	1.49e+00	0	34	104	0	68	19503
2026-01-16 07:12:32.85	328.26	9.70	-51.8	-65.8	3.8	1.49e+00	0	34	104	0	68	19516
2026-01-16 07:12:33.86	328.17	9.63	-51.8	-65.8	3.8	1.49e+00	0	34	104	0	68	19454
2026-01-16 07:12:34.87	328.08	9.55	-51.8	-65.8	3.8	1.49e+00	0	34	104	0	68	19503
2026-01-16 07:12:35.88	328.00	9.48	-51.8	-65.8	3.8	1.49e+00	0	34	104	0	68	19548
2026-01-16 07:12:36.89	327.91	9.40	-51.8	-65.8	3.8	1.49e+00	0	34	104	0	68	19520
2026-01-16 07:12:37.90	327.82	9.33	-51.8	-65.8	3.8	1.49e+00	0	33	104	0	68	19481
2026-01-16 07:12:38.91	327.74	9.25	-51.8	-65.8	3.8	1.49e+00	0	34	104	0	68	19479
2026-01-16 07:12:39.92	327.65	9.18	-51.8	-65.8	3.8	1.49e+00	0	33	104	0	68	19520
2026-01-16 07:12:40.92	327.57	9.11	-51.8	-65.8	3.8	1.49e+00	0	34	104	0	68	19532
2026-01-16 07:12:41.93	327.49	9.03	-51.8	-65.8	3.8	1.49e+00	0	34	104	0	68	19436
2026-01-16 07:12:42.94	327.40	8.96	-51.8	-65.8	3.8	1.49e+00	0	34	104	0	68	19512
2026-01-16 07:12:43.95	327.32	8.89	-51.8	-65.8	3.8	1.49e+00	0	34	104	0	68	19543
2026-01-16 07:12:44.96	327.24	8.81	-51.8	-65.8	3.8	1.49e+00	0	34	104	0	68	19486
2026-01-16 07:12:45.97	327.16	8.74	-51.8	-65.8	3.8	1.49e+00	0	34	104	0	68	19467
2026-01-16 07:12:46.98	327.08	8.67	-51.8	-65.8	3.8	1.49e+00	0	34	104	0	68	19464
2026-01-16 07:12:47.99	326.99	8.59	-51.8	-65.8	3.8	1.49e+00	0	34	104	0	68	19525
2026-01-16 07:12:49.00	326.91	8.52	-51.8	-65.8	3.8	1.49e+00	0	34	104	0	68	19539
2026-01-16 07:12:50.00	326.83	8.45	-51.8	-65.8	3.8	1.49e+00	0	34	104	0	68	19477
2026-01-16 07:12:51.01	326.75	8.38	-51.8	-65.8	3.8	1.49e+00	0	34	104	0	68	19539
2026-01-16 07:12:52.02	326.68	8.30	-51.8	-65.8	3.8	1.49e+00	0	34	104	0	68	19475
2026-01-16 07:12:53.03	326.60	8.23	-51.8	-65.8	3.8	1.49e+00	0	34	104	0	68	19500
2026-01-16 07:12:54.04	326.52	8.16	-51.8	-65.8	3.8	1.49e+00	0	34	104	0	68	19426
2026-01-16 07:12:55.05	326.44	8.09	-51.8	-65.8	3.8	1.49e+00	0	34	104	0	68	19508
2026-01-16 07:12:56.06	326.36	8.01	-51.8	-65.8	3.8	1.49e+00	0	34	104	0	68	19455
2026-01-16 07:12:57.07	326.28	7.94	-51.8	-65.8	3.8	1.49e+00	0	34	104	0	68	19492
2026-01-16 07:12:58.08	326.21	7.87	-51.8	-65.8	3.8	1.49e+00	0	34	104	0	68	19401
2026-01-16 07:12:59.09	326.13	7.80	-51.8	-65.8	3.8	1.49e+00	0	34	104	0	68	19525
2026-01-16 07:13:00.10	326.05	7.73	-51.8	-65.8	3.8	1.49e+00	0	34	104	0	68	19487
2026-01-16 07:13:01.11	325.98	7.66	-51.8	-65.8	3.8	1.49e+00	0	34	104	0	68	19481
2026-01-16 07:13:02.12	325.90	7.59	-51.8	-65.8	3.8	1.49e+00	0	34	104	0	68	19416
2026-01-16 07:13:03.13	325.83	7.52	-51.8	-65.8	3.8	1.49e+00	0	34	104	0	68	19454
2026-01-16 07:13:04.14	325.75	7.45	-51.8	-65.8	3.8	1.49e+00	0	34	104	0	68	19467
2026-01-16 07:13:05.15	325.68	7.38	-51.8	-65.8	3.8	1.49e+00	0	34	104	0	68	19401
2026-01-16 07:13:06.16	325.61	7.31	-51.8	-65.7	3.8	1.49e+00	0	34	104	0	68	19379
2026-01-16 07:13:07.16	325.53	7.24	-51.8	-65.8	3.8	1.49e+00	0	34	104	0	68	19441
2026-01-16 07:13:08.17	325.46	7.17	-51.8	-65.8	3.8	1.49e+00	0	34	104	0	68	19408
2026-01-16 07:13:09.18	325.39	7.10	-51.8	-65.8	3.8	1.49e+00	0	33	104	0	68	19436
2026-01-16 07:13:10.19	325.31	7.03	-51.8	-65.8	3.8	1.49e+00	0	34	104	0	68	19424
2026-01-16 07:13:11.20	325.24	6.96	-51.8	-65.8	3.8	1.49e+00	0	34	104	0	68	19396
2026-01-16 07:13:12.21	325.17	6.89	-51.8	-65.8	3.8	1.49e+00	0	34	104	0	68	19391
2026-01-16 07:13:13.22	325.10	6.82	-51.8	-65.8	3.8	1.49e+00	0	34	104	0	68	19453
2026-01-16 07:13:14.23	325.03	6.75	-51.8	-65.8	3.8	1.49e+00	0	34	104	0	68	19413
2026-01-16 07:13:15.23	324.96	6.68	-51.8	-65.8	3.8	1.49e+00	0	33	104	0	68	19451
2026-01-16 07:13:16.24	324.89	6.61	-51.8	-65.8	3.8	1.49e+00	0	34	104	0	68	19394
2026-01-16 07:13:17.25	324.82	6.54	-51.7	-65.8	3.8	1.49e+00	0	34	104	0	68	19423
2026-01-16 07:13:18.26	324.75	6.47	-51.7	-65.7	3.9	1.49e+00	0	34	104	0	68	19375
2026-01-16 07:13:19.27	324.68	6.41	-51.8	-65.8	3.8	1.49e+00	0	33	104	0	68	19393
2026-01-16 07:13:20.28	324.61	6.34	-51.7	-65.7	3.8	1.49e+00	0	34	104	0	68	19387
2026-01-16 07:13:21.29	324.54	6.27	-51.7	-65.7	3.8	1.49e+00	0	34	104	0	68	19287
2026-01-16 07:13:22.29	324.47	6.20	-51.7	-65.7	3.8	1.49e+00	0	34	104	0	68	19286
2026-01-16 07:13:23.30	324.41	6.13	-51.7	-65.7	3.8	1.49e+00	0	34	104	0	68	19377
2026-01-16 07:13:24.31	324.34	6.07	-51.7	-65.7	3.8	1.49e+00	0	34	104	0	68	19281
2026-01-16 07:13:25.32	324.27	6.00	-51.7	-65.7	3.8	1.49e+00	0	33	104	0	68	19324
2026-01-16 07:13:26.33	324.20	5.93	-51.7	-65.7	3.8	1.49e+00	0	34	104	0	68	19236
2026-01-16 07:13:27.34	324.14	5.86	-51.7	-65.7	3.8	1.49e+00	0	34	104	0	68	19319
2026-01-16 07:13:28.35	324.07	5.80	-51.7	-65.7	3.8	1.49e+00	0	34	104	0	68	19276
2026-01-16 07:13:29.36	324.01	5.73	-51.7	-65.7	3.8	1.49e+00	0	34	104	0	68	19303
2026-01-16 07:13:30.37	323.94	5.66	-51.7	-65.7	3.8	1.49e+00	0	34	104	0	68	19225
2026-01-16 07:13:31.38	323.87	5.60	-51.7	-65.7	3.8	1.49e+00	0	34	104	0	68	19257
2026-01-16 07:13:32.38	323.81	5.53	-51.7	-65.7	3.8	1.49e+00	0	33	104	0	68	19246
2026-01-16 07:13:33.39	323.75	5.46	-51.7	-65.7	3.8	1.49e+00	0	34	104	0	68	19237
2026-01-16 07:13:34.40	323.68	5.40	-51.7	-65.7	3.8	1.49e+00	0	34	104	0	68	19183
2026-01-16 07:13:35.41	323.62	5.33	-51.7	-65.7	3.8	1.49e+00	0	34	104	0	68	19256
2026-01-16 07:13:36.42	323.55	5.26	-51.7	-65.7	3.8	1.49e+00	0	34	104	0	68	19214
2026-01-16 07:13:37.43	323.49	5.20	-51.7	-65.7	3.8	1.49e+00	0	34	104	0	68	19189
