passes_logs/2026/01/16/R3.2S_Murmansk_2ch/R3.2S_Murmansk_2ch__20260116_043536_AQUA_rec.log

#Pass ID: 20260116_043536_AQUA
#Satellite: AQUA
#Configuration: AQUA
#almurnet v.1.7.20251203
#Start time: 2026-01-16 04:35:37

#Version: 2.2.20231116
#Station: R3.2S_Murmansk_2ch
#Location: 33.079688 lon 68.888172 lat
#TLE: 1 27424U 02022A   26015.64967716  .00000624  00000+0  13471-3 0  9995
#TLE: 2 27424  98.4082 342.0879 0002031  77.4941  33.3914 14.61821794260984

#Time	Az	El	Level	Level2	SNR	BER	BlckErr	Temp	State	Recorded	gain1	gain2
2026-01-16 04:35:37.89	33.73	2.11	-48.7	-67.7	3.8	7.43e-01	0	31	0	0	66	31713
2026-01-16 04:35:38.90	33.67	2.17	-48.7	-67.7	3.8	7.45e-01	0	31	104	0	65	33509
2026-01-16 04:35:39.91	33.61	2.23	-48.7	-67.7	3.8	7.48e-01	0	31	104	0	65	33560
2026-01-16 04:35:40.91	33.55	2.29	-48.7	-67.7	3.8	7.44e-01	0	31	104	0	65	33575
2026-01-16 04:35:41.92	33.49	2.36	-48.7	-67.7	3.8	7.46e-01	0	31	104	0	65	33490
2026-01-16 04:35:42.93	33.43	2.42	-48.7	-67.7	3.8	7.45e-01	0	31	104	0	65	33522
2026-01-16 04:35:43.94	33.37	2.48	-48.7	-67.7	3.8	7.44e-01	0	31	104	0	65	33577
2026-01-16 04:35:44.95	33.31	2.54	-48.7	-67.7	3.8	7.43e-01	0	32	104	0	65	33577
2026-01-16 04:35:45.96	33.25	2.61	-48.7	-67.7	3.8	7.47e-01	0	31	104	0	65	33428
2026-01-16 04:35:46.97	33.19	2.67	-48.7	-67.7	3.8	7.49e-01	0	31	104	0	65	33568
2026-01-16 04:35:47.98	33.13	2.73	-48.7	-67.7	3.8	7.47e-01	0	31	104	0	65	33566
2026-01-16 04:35:48.99	33.06	2.80	-48.7	-67.7	3.8	7.43e-01	0	31	104	0	65	33565
2026-01-16 04:35:50.00	33.00	2.86	-48.6	-67.7	3.8	7.45e-01	0	31	104	0	65	33445
2026-01-16 04:35:51.01	32.94	2.92	-48.7	-67.7	3.8	7.47e-01	0	32	104	0	65	33435
2026-01-16 04:35:52.02	32.88	2.99	-48.7	-67.7	3.8	7.45e-01	0	32	104	0	65	33391
2026-01-16 04:35:53.03	32.81	3.05	-48.6	-67.7	3.9	7.47e-01	0	31	104	0	65	33409
2026-01-16 04:35:54.04	32.75	3.12	-48.6	-67.6	3.8	7.44e-01	0	32	104	0	65	33210
2026-01-16 04:35:55.04	32.69	3.18	-48.7	-67.7	3.8	7.49e-01	0	32	104	0	65	33468
2026-01-16 04:35:56.05	32.62	3.24	-48.7	-67.7	3.8	7.43e-01	0	32	104	0	65	33483
2026-01-16 04:35:57.06	32.56	3.31	-48.7	-67.7	3.8	7.44e-01	0	32	104	0	65	33361
2026-01-16 04:35:58.07	32.50	3.37	-48.7	-67.6	3.8	7.46e-01	0	32	104	0	65	33290
2026-01-16 04:35:59.08	32.43	3.44	-48.7	-67.7	3.8	7.48e-01	0	32	104	0	65	33571
2026-01-16 04:36:00.09	32.37	3.50	-48.7	-67.7	3.8	7.47e-01	0	32	104	0	65	33546
2026-01-16 04:36:01.10	32.30	3.57	-48.6	-67.6	3.8	7.45e-01	0	32	104	0	65	33187
2026-01-16 04:36:02.11	32.23	3.63	-48.6	-67.6	3.8	7.48e-01	0	32	104	0	65	33084
2026-01-16 04:36:03.12	32.17	3.70	-48.6	-67.6	3.8	7.46e-01	0	32	104	0	65	33303
2026-01-16 04:36:04.13	32.10	3.76	-48.7	-67.7	3.8	7.46e-01	0	32	104	0	65	33518
2026-01-16 04:36:05.14	32.03	3.83	-48.7	-67.7	3.8	7.47e-01	0	32	104	0	65	33516
2026-01-16 04:36:06.15	31.97	3.89	-48.7	-67.6	3.8	7.45e-01	0	32	104	0	65	33300
2026-01-16 04:36:07.16	31.90	3.96	-48.7	-67.5	3.8	7.46e-01	0	32	104	0	65	32600
2026-01-16 04:36:08.17	31.83	4.03	-48.6	-67.3	3.8	7.45e-01	0	32	104	0	65	31870
2026-01-16 04:36:09.18	31.76	4.09	-48.5	-66.9	3.8	7.46e-01	0	32	104	0	65	30401
2026-01-16 04:36:10.19	31.69	4.16	-48.5	-66.7	3.8	7.47e-01	0	32	104	0	65	29975
2026-01-16 04:36:11.20	31.62	4.23	-48.4	-66.1	3.8	7.46e-01	0	32	104	0	65	27822
2026-01-16 04:36:12.20	31.56	4.29	-48.2	-65.1	3.8	7.44e-01	0	32	104	0	65	24860
2026-01-16 04:36:13.21	31.49	4.36	-48.0	-64.2	3.8	7.44e-01	0	32	104	0	65	22411
2026-01-16 04:36:14.22	31.42	4.42	-47.8	-63.5	3.8	7.47e-01	0	32	104	0	64	21806
2026-01-16 04:36:15.23	31.35	4.49	-47.8	-63.5	3.8	7.48e-01	0	32	104	0	64	21787
2026-01-16 04:36:16.24	31.27	4.56	-47.4	-62.4	3.8	7.44e-01	0	32	104	0	64	19260
2026-01-16 04:36:17.25	31.20	4.63	-47.3	-62.0	3.8	7.51e-01	0	32	104	0	63	19407
2026-01-16 04:36:18.26	31.13	4.69	-47.3	-62.2	3.8	7.43e-01	0	32	104	0	63	19876
2026-01-16 04:36:19.27	31.06	4.76	-47.3	-62.0	3.8	7.46e-01	0	32	104	0	63	19549
2026-01-16 04:36:20.28	30.99	4.83	-47.3	-62.0	3.8	7.45e-01	0	32	104	0	63	19604
2026-01-16 04:36:21.29	30.91	4.90	-47.3	-62.0	3.8	7.46e-01	0	32	104	0	63	19602
2026-01-16 04:36:22.30	30.84	4.96	-47.6	-62.7	3.8	7.47e-01	0	32	104	0	63	21122
2026-01-16 04:36:23.31	30.77	5.03	-47.5	-62.6	3.8	7.43e-01	0	32	104	0	63	20809
2026-01-16 04:36:24.32	30.69	5.10	-47.5	-62.3	3.8	7.45e-01	0	33	104	0	63	20200
2026-01-16 04:36:25.32	30.62	5.17	-47.5	-62.0	3.8	7.49e-01	0	32	104	0	63	19491
2026-01-16 04:36:26.33	30.55	5.24	-48.2	-65.3	3.8	7.44e-01	0	32	104	0	64	26830
2026-01-16 04:36:27.34	30.47	5.31	-45.7	-58.4	3.8	7.49e-01	0	32	104	0	59	16147
2026-01-16 04:36:28.35	30.39	5.38	-48.6	-66.7	3.9	7.43e-01	0	32	104	0	65	29709
2026-01-16 04:36:29.36	30.32	5.44	-45.2	-57.6	3.8	7.43e-01	0	32	104	0	59	14807
2026-01-16 04:36:30.37	30.24	5.51	-45.2	-57.5	3.8	7.46e-01	0	32	104	0	59	14572
2026-01-16 04:36:31.38	30.17	5.58	-44.7	-56.8	3.8	7.45e-01	0	32	104	0	58	14264
2026-01-16 04:36:32.39	30.09	5.65	-48.1	-63.1	3.9	7.43e-01	0	32	104	0	65	19665
2026-01-16 04:36:33.40	30.01	5.72	-46.3	-59.2	3.8	7.47e-01	0	32	104	0	60	16832
2026-01-16 04:36:34.41	29.93	5.79	-48.9	-67.1	3.9	7.44e-01	0	32	104	0	65	31246
2026-01-16 04:36:35.42	29.85	5.86	-45.4	-57.9	3.8	7.44e-01	0	32	104	0	60	14375
2026-01-16 04:36:36.43	29.77	5.93	-48.2	-63.7	3.8	7.43e-01	0	32	104	0	64	22452
2026-01-16 04:36:37.44	29.70	6.00	-45.9	-58.7	3.8	7.46e-01	0	32	104	0	61	14907
2026-01-16 04:36:38.44	29.62	6.07	-45.1	-57.5	3.8	7.45e-01	0	32	104	0	59	14573
2026-01-16 04:36:39.45	29.54	6.14	-45.0	-57.3	3.8	7.47e-01	0	32	104	0	58	15083
2026-01-16 04:36:40.46	29.46	6.21	-44.3	-56.3	3.8	7.44e-01	0	33	104	0	57	14243
2026-01-16 04:36:41.47	29.37	6.29	-46.6	-59.6	3.9	7.46e-01	0	32	104	0	60	17639
2026-01-16 04:36:42.48	29.29	6.36	-49.0	-66.6	3.9	7.44e-01	0	32	104	0	66	27777
2026-01-16 04:36:43.49	29.21	6.43	-45.0	-57.2	3.9	7.47e-01	0	32	104	0	59	14067
2026-01-16 04:36:44.50	29.13	6.50	-47.9	-62.6	3.9	7.45e-01	0	33	104	0	64	19663
2026-01-16 04:36:45.51	29.05	6.57	-45.6	-58.0	3.8	7.45e-01	0	32	104	0	59	15479
2026-01-16 04:36:46.52	28.96	6.64	-44.7	-56.8	3.9	7.45e-01	0	33	104	0	58	14235
2026-01-16 04:36:47.53	28.88	6.71	-44.7	-56.8	3.9	7.45e-01	0	32	104	0	58	14322
2026-01-16 04:36:48.54	28.79	6.79	-44.4	-56.4	3.8	7.45e-01	0	32	104	0	57	14481
2026-01-16 04:36:49.55	28.71	6.86	-47.0	-60.2	3.8	7.43e-01	0	33	104	0	61	17885
2026-01-16 04:36:50.55	28.62	6.93	-48.5	-64.3	3.9	7.39e-01	0	33	104	0	66	21302
2026-01-16 04:36:51.56	28.54	7.00	-44.8	-56.9	3.8	7.44e-01	0	33	104	0	58	14474
2026-01-16 04:36:52.57	28.45	7.08	-47.8	-62.1	3.9	7.43e-01	0	33	104	0	64	18589
2026-01-16 04:36:53.58	28.36	7.15	-45.4	-57.8	3.8	7.44e-01	0	33	104	0	59	15173
2026-01-16 04:36:54.59	28.28	7.22	-45.2	-57.5	3.8	7.47e-01	0	33	104	0	59	14559
2026-01-16 04:36:55.60	28.19	7.30	-44.5	-56.5	3.8	7.48e-01	0	33	104	0	58	13820
2026-01-16 04:36:56.61	28.10	7.37	-44.5	-56.5	3.9	7.43e-01	0	32	104	0	58	13757
2026-01-16 04:36:57.62	28.01	7.44	-47.5	-61.1	3.8	7.46e-01	0	33	104	0	62	18582
2026-01-16 04:36:58.63	27.92	7.52	-48.2	-63.0	4.0	7.40e-01	0	32	104	0	65	19607
2026-01-16 04:36:59.64	27.83	7.59	-45.0	-57.1	3.8	7.42e-01	0	33	104	0	58	14865
2026-01-16 04:37:00.65	27.74	7.67	-47.0	-60.5	3.9	7.44e-01	0	33	104	0	63	16336
2026-01-16 04:37:01.66	27.65	7.74	-45.1	-57.2	3.9	7.47e-01	0	33	104	0	59	14179
2026-01-16 04:37:02.67	27.56	7.81	-44.6	-56.6	3.8	7.46e-01	0	33	104	0	58	13975
2026-01-16 04:37:03.67	27.47	7.89	-43.8	-55.6	3.8	7.46e-01	0	33	104	0	56	13945
2026-01-16 04:37:04.68	27.38	7.96	-44.0	-55.8	3.8	7.45e-01	0	32	104	0	57	13565
2026-01-16 04:37:05.70	27.28	8.04	-48.1	-62.3	3.9	7.51e-01	0	33	104	0	63	20183
2026-01-16 04:37:06.71	27.19	8.11	-47.3	-60.6	3.9	7.41e-01	0	33	104	0	63	16649
2026-01-16 04:37:07.71	27.10	8.19	-45.2	-57.3	3.8	7.47e-01	0	33	104	0	58	15202
2026-01-16 04:37:08.73	27.00	8.27	-46.4	-59.4	3.9	7.45e-01	0	33	104	0	62	15259
2026-01-16 04:37:09.74	26.91	8.34	-45.0	-57.2	3.9	7.46e-01	0	33	104	0	59	14071
2026-01-16 04:37:10.74	26.81	8.42	-44.9	-57.0	3.8	7.46e-01	0	33	104	0	58	14552
2026-01-16 04:37:11.75	26.71	8.49	-44.3	-56.1	3.8	7.49e-01	0	33	104	0	57	13977
2026-01-16 04:37:12.76	26.62	8.57	-44.1	-55.9	3.8	7.41e-01	0	33	104	0	57	13682
2026-01-16 04:37:13.77	26.52	8.65	-48.3	-62.8	3.8	7.45e-01	0	33	104	0	64	20252
2026-01-16 04:37:14.78	26.42	8.72	-46.9	-60.0	3.9	7.45e-01	0	33	104	0	63	15479
2026-01-16 04:37:15.79	26.32	8.80	-46.1	-58.6	3.8	7.48e-01	0	33	104	0	59	16565
2026-01-16 04:37:16.80	26.22	8.88	-45.5	-57.9	3.9	7.42e-01	0	33	104	0	60	14379
2026-01-16 04:37:17.81	26.12	8.95	-44.5	-56.5	3.9	7.45e-01	0	33	104	0	58	13775
2026-01-16 04:37:18.82	26.02	9.03	-43.9	-55.6	3.9	7.46e-01	0	33	104	0	57	13213
2026-01-16 04:37:19.83	25.92	9.11	-43.7	-55.4	3.8	7.45e-01	0	33	104	0	55	14479
2026-01-16 04:37:20.83	25.82	9.19	-43.9	-55.6	3.8	7.49e-01	0	33	104	0	56	13985
2026-01-16 04:37:21.84	25.72	9.26	-49.0	-64.7	3.8	7.46e-01	0	33	104	0	65	23636
2026-01-16 04:37:22.85	25.62	9.34	-46.2	-58.8	3.9	7.42e-01	0	33	104	0	61	15118
2026-01-16 04:37:23.86	25.51	9.42	-46.1	-59.0	3.8	7.51e-01	0	33	104	0	60	16469
2026-01-16 04:37:24.87	25.41	9.50	-45.3	-57.5	3.9	7.44e-01	0	33	104	0	59	14560
2026-01-16 04:37:25.88	25.30	9.58	-44.5	-56.4	3.8	7.48e-01	0	33	104	0	58	13644
2026-01-16 04:37:26.89	25.20	9.66	-43.8	-55.6	3.8	7.45e-01	0	33	104	0	56	13893
2026-01-16 04:37:27.90	25.09	9.74	-43.9	-55.7	3.9	7.47e-01	0	33	104	0	55	14910
2026-01-16 04:37:28.91	24.99	9.82	-43.8	-55.5	3.8	7.45e-01	0	33	104	0	56	13849
2026-01-16 04:37:29.92	24.88	9.90	-49.3	-65.6	3.8	7.49e-01	0	33	104	0	66	24933
2026-01-16 04:37:30.93	24.77	9.97	-45.9	-58.3	3.8	7.45e-01	0	33	104	0	61	14312
2026-01-16 04:37:31.94	24.66	10.05	-47.1	-60.1	3.8	7.45e-01	0	33	104	0	61	17672
2026-01-16 04:37:32.95	24.55	10.13	-44.7	-56.7	3.9	7.46e-01	0	33	104	0	58	14117
2026-01-16 04:37:33.96	24.44	10.22	-44.3	-56.2	3.8	7.49e-01	0	33	104	0	57	14139
2026-01-16 04:37:34.97	24.33	10.30	-44.0	-55.8	3.9	7.46e-01	0	33	104	0	57	13551
2026-01-16 04:37:35.98	24.22	10.38	-46.6	-59.4	3.8	7.45e-01	0	33	104	0	60	17220
2026-01-16 04:37:36.99	24.11	10.46	-44.6	-56.5	3.8	7.44e-01	0	33	104	0	58	13832
2026-01-16 04:37:38.00	24.00	10.54	-49.7	-67.4	3.7	7.51e-01	0	33	104	0	67	28842
2026-01-16 04:37:39.01	23.88	10.62	-45.6	-57.8	3.9	7.44e-01	0	33	104	0	60	14367
2026-01-16 04:37:40.02	23.77	10.70	-47.5	-60.8	3.8	7.47e-01	0	33	104	0	62	18000
2026-01-16 04:37:41.03	23.65	10.78	-44.5	-56.3	3.9	7.43e-01	0	33	104	0	58	13543
2026-01-16 04:37:42.03	23.54	10.86	-44.4	-56.3	3.9	7.46e-01	0	33	104	0	57	14319
2026-01-16 04:37:43.04	23.42	10.95	-43.9	-55.6	3.8	7.43e-01	0	33	104	0	56	13982
2026-01-16 04:37:44.05	23.31	11.03	-44.6	-56.5	3.8	7.44e-01	0	33	104	0	56	15530
2026-01-16 04:37:45.06	23.19	11.11	-43.9	-55.6	3.8	7.46e-01	0	33	104	0	56	13895
2026-01-16 04:37:46.07	23.07	11.19	-49.8	-67.7	3.8	7.48e-01	0	33	104	0	67	29713
2026-01-16 04:37:47.08	22.95	11.28	-45.4	-57.7	3.9	7.43e-01	0	33	104	0	60	14123
2026-01-16 04:37:48.09	22.83	11.36	-47.8	-61.5	3.8	7.48e-01	0	33	104	0	63	18384
2026-01-16 04:37:49.10	22.71	11.44	-44.2	-55.9	3.9	7.45e-01	0	33	104	0	57	13717
2026-01-16 04:37:50.11	22.59	11.53	-44.0	-55.8	3.8	7.44e-01	0	33	104	0	57	13478
2026-01-16 04:37:51.12	22.47	11.61	-43.6	-55.3	3.9	7.45e-01	0	33	104	0	56	13423
2026-01-16 04:37:52.13	22.34	11.69	-45.4	-57.7	3.8	7.41e-01	0	33	104	0	58	15765
2026-01-16 04:37:53.14	22.22	11.78	-43.8	-55.5	3.8	7.44e-01	0	33	104	0	55	14550
2026-01-16 04:37:54.15	22.10	11.86	-49.9	-68.2	3.8	7.48e-01	0	33	104	0	67	31738
2026-01-16 04:37:55.15	21.97	11.94	-45.5	-57.7	3.8	7.43e-01	0	33	104	0	59	14941
2026-01-16 04:37:56.16	21.85	12.03	-47.9	-61.8	3.8	7.47e-01	0	33	104	0	63	18985
2026-01-16 04:37:57.17	21.72	12.11	-44.0	-55.7	3.8	7.44e-01	0	33	104	0	57	13407
2026-01-16 04:37:58.18	21.59	12.20	-43.6	-55.2	3.9	7.48e-01	0	33	104	0	56	13406
2026-01-16 04:37:59.19	21.46	12.28	-43.4	-54.7	3.9	7.46e-01	0	33	104	0	55	13364
2026-01-16 04:38:00.20	21.33	12.37	-46.1	-58.6	3.9	7.46e-01	0	33	104	0	60	15629
2026-01-16 04:38:01.21	21.20	12.45	-43.7	-55.3	3.8	7.47e-01	0	33	104	0	55	14306
2026-01-16 04:38:02.22	21.07	12.54	-50.0	-68.4	3.8	7.48e-01	0	33	104	0	67	32353
2026-01-16 04:38:03.23	20.94	12.63	-45.4	-57.4	3.9	7.47e-01	0	33	104	0	59	14511
2026-01-16 04:38:04.24	20.81	12.71	-48.0	-61.9	3.8	7.44e-01	0	33	104	0	63	19261
2026-01-16 04:38:05.25	20.67	12.80	-43.9	-55.5	3.8	7.48e-01	0	33	104	0	56	13841
2026-01-16 04:38:06.26	20.54	12.89	-43.1	-54.7	3.9	7.46e-01	0	33	104	0	55	13342
2026-01-16 04:38:07.27	20.40	12.97	-43.1	-54.7	3.8	7.43e-01	0	33	104	0	55	13290
2026-01-16 04:38:08.28	20.27	13.06	-43.8	-55.5	3.9	7.42e-01	0	33	104	0	55	14577
2026-01-16 04:38:09.29	20.13	13.15	-43.9	-55.6	3.8	7.46e-01	0	33	104	0	55	14712
2026-01-16 04:38:10.30	19.99	13.23	-49.9	-67.8	3.8	7.43e-01	0	33	104	0	67	30267
2026-01-16 04:38:11.31	19.85	13.32	-44.9	-56.8	3.9	7.44e-01	0	33	104	0	59	13549
2026-01-16 04:38:12.31	19.71	13.41	-47.8	-61.4	3.8	7.46e-01	0	33	104	0	63	18272
2026-01-16 04:38:13.32	19.57	13.50	-43.6	-55.2	3.8	7.44e-01	0	33	104	0	56	13386
2026-01-16 04:38:14.33	19.43	13.58	-43.4	-55.0	3.9	7.46e-01	0	33	104	0	56	13031
2026-01-16 04:38:15.34	19.29	13.67	-42.7	-54.1	3.9	7.44e-01	0	33	104	0	54	13180
2026-01-16 04:38:16.35	19.15	13.76	-44.0	-55.8	3.9	7.42e-01	0	33	104	0	56	14310
2026-01-16 04:38:17.36	19.00	13.85	-44.2	-56.2	3.8	7.41e-01	0	33	104	0	56	14917
2026-01-16 04:38:18.37	18.86	13.94	-49.7	-67.0	3.9	7.42e-01	0	33	104	0	67	27537
2026-01-16 04:38:19.38	18.71	14.03	-44.5	-56.4	3.9	7.42e-01	0	33	104	0	58	13591
2026-01-16 04:38:20.39	18.56	14.12	-47.3	-60.5	3.9	7.46e-01	0	33	104	0	63	16494
2026-01-16 04:38:21.40	18.41	14.20	-43.6	-55.1	3.9	7.49e-01	0	33	104	0	56	13259
2026-01-16 04:38:22.41	18.27	14.29	-43.4	-54.9	3.8	7.40e-01	0	33	104	0	56	12921
2026-01-16 04:38:23.42	18.11	14.38	-42.7	-54.2	3.9	7.47e-01	0	33	104	0	54	13309
2026-01-16 04:38:24.43	17.96	14.47	-44.8	-56.8	3.9	7.44e-01	0	33	104	0	59	13504
2026-01-16 04:38:25.43	17.81	14.56	-45.0	-56.8	3.8	7.44e-01	0	33	104	0	57	15198
2026-01-16 04:38:26.44	17.66	14.65	-49.2	-64.9	3.9	7.42e-01	0	33	104	0	67	21672
2026-01-16 04:38:27.45	17.51	14.74	-43.9	-55.6	3.9	7.49e-01	0	33	104	0	57	13217
2026-01-16 04:38:28.46	17.35	14.83	-46.8	-59.7	3.9	7.45e-01	0	33	104	0	62	15910
2026-01-16 04:38:29.47	17.19	14.92	-43.4	-55.0	3.9	7.44e-01	0	33	104	0	55	13829
2026-01-16 04:38:30.48	17.04	15.01	-42.8	-54.2	3.9	7.45e-01	0	33	104	0	54	13319
2026-01-16 04:38:31.49	16.88	15.11	-42.8	-54.2	3.8	7.46e-01	0	33	104	0	54	13338
2026-01-16 04:38:32.50	16.72	15.20	-44.1	-55.9	3.9	7.45e-01	0	33	104	0	57	13618
2026-01-16 04:38:33.51	16.56	15.29	-45.5	-57.5	3.9	7.46e-01	0	33	104	0	58	15481
2026-01-16 04:38:34.52	16.40	15.38	-48.7	-63.4	3.9	7.44e-01	0	33	104	0	66	19238
2026-01-16 04:38:35.53	16.23	15.47	-43.6	-55.2	3.8	7.43e-01	0	33	104	0	56	13317
2026-01-16 04:38:36.54	16.07	15.56	-45.9	-58.3	3.9	7.42e-01	0	33	104	0	61	14273
2026-01-16 04:38:37.54	15.91	15.65	-43.4	-54.9	3.8	7.46e-01	0	33	104	0	55	13667
2026-01-16 04:38:38.56	15.74	15.75	-43.1	-54.6	3.9	7.47e-01	0	33	104	0	55	13221
2026-01-16 04:38:39.56	15.57	15.84	-42.6	-54.0	3.9	7.42e-01	0	33	104	0	54	13002
2026-01-16 04:38:40.57	15.41	15.93	-43.5	-55.1	3.8	7.42e-01	0	33	104	0	56	13131
2026-01-16 04:38:41.58	15.24	16.02	-46.5	-58.9	3.8	7.48e-01	0	33	104	0	60	16172
2026-01-16 04:38:42.59	15.07	16.12	-47.5	-60.9	3.9	7.47e-01	0	33	104	0	64	16216
2026-01-16 04:38:43.60	14.89	16.21	-43.2	-54.7	3.9	7.48e-01	0	33	104	0	55	13288
2026-01-16 04:38:44.61	14.72	16.30	-45.4	-57.6	3.9	7.44e-01	0	33	104	0	60	13971
2026-01-16 04:38:45.62	14.55	16.39	-43.3	-54.8	3.8	7.47e-01	0	33	104	0	55	13536
2026-01-16 04:38:46.63	14.37	16.49	-43.2	-54.8	3.9	7.46e-01	0	33	104	0	55	13417
2026-01-16 04:38:47.64	14.20	16.58	-43.7	-55.5	3.8	7.43e-01	0	33	104	0	55	14687
2026-01-16 04:38:48.65	14.02	16.67	-43.5	-55.1	3.8	7.46e-01	0	33	104	0	56	13148
2026-01-16 04:38:49.66	13.84	16.77	-47.0	-59.6	3.9	7.45e-01	0	33	104	0	61	16622
2026-01-16 04:38:50.67	13.66	16.86	-47.0	-60.0	3.9	7.46e-01	0	33	104	0	63	15495
2026-01-16 04:38:51.67	13.48	16.95	-43.2	-54.7	3.8	7.44e-01	0	33	104	0	55	13392
2026-01-16 04:38:52.68	13.30	17.05	-44.4	-56.2	3.9	7.46e-01	0	33	104	0	58	13376
2026-01-16 04:38:53.69	13.11	17.14	-43.3	-54.9	3.8	7.46e-01	0	33	104	0	55	13575
2026-01-16 04:38:54.70	12.93	17.24	-42.6	-54.0	3.8	7.46e-01	0	33	104	0	54	13069
2026-01-16 04:38:55.71	12.74	17.33	-42.9	-54.3	3.8	7.46e-01	0	33	104	0	53	14234
2026-01-16 04:38:56.72	12.56	17.43	-43.0	-54.4	3.8	7.45e-01	0	33	104	0	55	12928
2026-01-16 04:38:57.73	12.37	17.52	-48.0	-61.4	3.8	7.48e-01	0	33	104	0	63	18112
2026-01-16 04:38:58.74	12.18	17.61	-46.1	-58.4	3.9	7.48e-01	0	33	104	0	61	14460
2026-01-16 04:38:59.75	11.99	17.71	-43.7	-55.2	3.8	7.46e-01	0	33	104	0	55	14171
2026-01-16 04:39:00.76	11.79	17.80	-43.9	-55.5	3.8	7.44e-01	0	33	104	0	57	13047
2026-01-16 04:39:01.77	11.60	17.90	-43.2	-54.7	3.8	7.41e-01	0	33	104	0	55	13388
2026-01-16 04:39:02.78	11.41	17.99	-43.0	-54.4	3.9	7.45e-01	0	33	104	0	55	12930
2026-01-16 04:39:03.79	11.21	18.09	-45.1	-56.9	3.8	7.49e-01	0	33	104	0	57	15387
2026-01-16 04:39:04.80	11.01	18.18	-42.9	-54.3	3.9	7.47e-01	0	33	104	0	55	12803
2026-01-16 04:39:05.81	10.81	18.28	-48.5	-62.3	3.8	7.44e-01	0	33	104	0	64	19143
2026-01-16 04:39:06.82	10.61	18.37	-45.9	-58.2	3.8	7.48e-01	0	33	104	0	61	14109
2026-01-16 04:39:07.82	10.41	18.47	-44.1	-55.7	3.8	7.44e-01	0	33	104	0	55	14891
2026-01-16 04:39:08.83	10.21	18.56	-43.4	-54.9	3.8	7.41e-01	0	33	104	0	56	12893
2026-01-16 04:39:09.84	10.01	18.66	-43.0	-54.4	3.9	7.45e-01	0	33	104	0	55	12908
2026-01-16 04:39:10.85	9.80	18.75	-42.4	-53.8	3.8	7.44e-01	0	33	104	0	54	12670
2026-01-16 04:39:11.86	9.59	18.85	-44.5	-56.3	3.9	7.46e-01	0	33	104	0	56	15136
2026-01-16 04:39:12.87	9.38	18.94	-42.8	-54.3	3.8	7.50e-01	0	33	104	0	54	13434
2026-01-16 04:39:13.88	9.17	19.04	-48.8	-63.3	3.8	7.49e-01	0	33	104	0	65	20152
2026-01-16 04:39:14.89	8.96	19.13	-45.8	-57.9	3.9	7.48e-01	0	33	104	0	60	14466
2026-01-16 04:39:15.90	8.75	19.23	-45.1	-56.9	3.9	7.44e-01	0	33	104	0	57	15287
2026-01-16 04:39:16.91	8.54	19.33	-43.2	-54.7	3.9	7.45e-01	0	33	104	0	55	13339
2026-01-16 04:39:17.92	8.32	19.42	-43.2	-54.7	3.9	7.48e-01	0	33	104	0	55	13269
2026-01-16 04:39:18.93	8.10	19.52	-42.9	-54.4	3.9	7.47e-01	0	33	104	0	55	12847
2026-01-16 04:39:19.94	7.88	19.61	-46.6	-59.2	3.9	7.43e-01	0	33	104	0	60	16847
2026-01-16 04:39:20.94	7.67	19.71	-43.0	-54.5	3.8	7.47e-01	0	33	104	0	55	13061
2026-01-16 04:39:21.95	7.44	19.80	-49.6	-65.4	3.8	7.51e-01	0	33	104	0	66	24226
2026-01-16 04:39:22.96	7.22	19.90	-45.8	-57.9	3.8	7.46e-01	0	33	104	0	60	14456
2026-01-16 04:39:23.97	7.00	19.99	-45.5	-57.5	3.8	7.43e-01	0	33	104	0	58	15491
2026-01-16 04:39:24.98	6.77	20.09	-43.2	-54.6	3.9	7.46e-01	0	33	104	0	55	13232
2026-01-16 04:39:25.99	6.54	20.18	-42.8	-54.2	3.9	7.42e-01	0	33	104	0	54	13332
2026-01-16 04:39:27.00	6.32	20.28	-42.2	-53.6	3.9	7.43e-01	0	33	104	0	53	13112
2026-01-16 04:39:28.01	6.08	20.37	-45.7	-58.1	3.9	7.49e-01	0	33	104	0	59	15658
2026-01-16 04:39:29.02	5.85	20.47	-42.7	-54.1	3.9	7.46e-01	0	33	104	0	54	13260
2026-01-16 04:39:30.03	5.62	20.56	-49.8	-66.1	3.8	7.46e-01	0	33	104	0	67	24749
2026-01-16 04:39:31.04	5.38	20.66	-45.7	-57.8	3.8	7.42e-01	0	33	104	0	60	14231
2026-01-16 04:39:32.05	5.15	20.75	-46.1	-58.8	3.9	7.46e-01	0	33	104	0	60	16053
2026-01-16 04:39:33.06	4.91	20.85	-43.1	-54.6	3.9	7.46e-01	0	33	104	0	55	13120
2026-01-16 04:39:34.07	4.67	20.94	-43.1	-54.6	3.8	7.45e-01	0	33	104	0	55	13164
2026-01-16 04:39:35.07	4.43	21.03	-42.7	-54.1	3.8	7.40e-01	0	33	104	0	54	13110
2026-01-16 04:39:36.08	4.19	21.13	-47.3	-60.3	3.9	7.46e-01	0	33	104	0	62	16936
2026-01-16 04:39:37.09	3.94	21.22	-42.8	-54.2	3.9	7.43e-01	0	33	104	0	54	13313
2026-01-16 04:39:38.10	3.70	21.31	-50.1	-67.1	3.8	7.47e-01	0	33	104	0	67	27794
2026-01-16 04:39:39.11	3.45	21.41	-46.1	-58.4	3.8	7.46e-01	0	33	104	0	61	14504
2026-01-16 04:39:40.12	3.20	21.50	-46.6	-59.1	3.9	7.47e-01	0	33	104	0	60	16534
2026-01-16 04:39:41.13	2.95	21.60	-43.3	-54.8	3.9	7.48e-01	0	33	104	0	55	13491
2026-01-16 04:39:42.14	2.70	21.69	-43.3	-54.8	3.9	7.44e-01	0	33	104	0	55	13465
2026-01-16 04:39:43.15	2.44	21.78	-43.1	-54.6	3.9	7.45e-01	0	33	104	0	55	13140
2026-01-16 04:39:44.16	2.19	21.87	-45.9	-58.0	3.9	7.43e-01	0	33	104	0	59	15446
2026-01-16 04:39:45.17	1.93	21.97	-42.9	-54.4	3.9	7.46e-01	0	33	104	0	55	12845
2026-01-16 04:39:46.18	1.67	22.06	-50.2	-67.7	3.8	7.48e-01	0	33	104	0	68	28061
2026-01-16 04:39:47.19	1.41	22.15	-45.9	-58.1	3.9	7.43e-01	0	33	104	0	61	13944
2026-01-16 04:39:48.20	1.15	22.24	-46.9	-59.6	3.8	7.46e-01	0	33	104	0	61	16521
2026-01-16 04:39:49.21	0.88	22.33	-43.5	-55.0	3.9	7.45e-01	0	33	104	0	56	13082
2026-01-16 04:39:50.21	0.62	22.42	-43.7	-55.3	3.9	7.43e-01	0	33	104	0	56	13462
2026-01-16 04:39:51.22	0.35	22.51	-43.6	-55.2	3.9	7.43e-01	0	33	104	0	56	13339
2026-01-16 04:39:52.23	0.09	22.61	-43.3	-54.8	3.8	7.45e-01	0	33	104	0	54	14354
2026-01-16 04:39:53.24	359.82	22.70	-43.1	-54.5	3.8	7.44e-01	0	33	104	0	54	13777
2026-01-16 04:39:54.25	359.54	22.79	-50.0	-67.0	3.9	7.44e-01	0	33	104	0	68	25983
2026-01-16 04:39:55.26	359.27	22.87	-45.5	-57.7	3.9	7.43e-01	0	33	104	0	60	14063
2026-01-16 04:39:56.27	358.99	22.96	-46.7	-59.3	3.8	7.43e-01	0	33	104	0	61	16005
2026-01-16 04:39:57.28	358.72	23.05	-43.0	-54.4	3.8	7.48e-01	0	33	104	0	55	12839
2026-01-16 04:39:58.29	358.44	23.14	-42.9	-54.3	3.9	7.47e-01	0	33	104	0	54	13431
2026-01-16 04:39:59.30	358.16	23.23	-42.8	-54.2	3.8	7.44e-01	0	33	104	0	54	13318
2026-01-16 04:40:00.30	357.88	23.32	-47.6	-60.8	3.9	7.43e-01	0	33	104	0	64	16068
2026-01-16 04:40:01.32	357.59	23.40	-43.2	-54.6	3.9	7.43e-01	0	33	104	0	54	13949
2026-01-16 04:40:02.33	357.31	23.49	-49.8	-66.1	3.9	7.38e-01	0	33	104	0	68	23368
2026-01-16 04:40:03.33	357.02	23.58	-44.8	-56.4	3.8	7.45e-01	0	33	104	0	58	13627
2026-01-16 04:40:04.34	356.73	23.66	-46.2	-58.7	3.8	7.41e-01	0	33	104	0	60	15766
2026-01-16 04:40:05.35	356.44	23.75	-42.9	-54.3	3.9	7.44e-01	0	33	104	0	55	12768
2026-01-16 04:40:06.36	356.15	23.83	-43.0	-54.4	3.8	7.46e-01	0	33	104	0	54	13725
2026-01-16 04:40:07.37	355.86	23.92	-42.6	-54.0	3.8	7.45e-01	0	33	104	0	54	13017
2026-01-16 04:40:08.38	355.56	24.00	-45.7	-57.9	3.9	7.44e-01	0	33	104	0	60	14417
2026-01-16 04:40:09.39	355.26	24.09	-43.9	-55.4	3.8	7.42e-01	0	33	104	0	55	14511
2026-01-16 04:40:10.40	354.97	24.17	-49.2	-64.3	3.9	7.39e-01	0	33	104	0	67	20170
2026-01-16 04:40:11.41	354.67	24.25	-44.5	-56.3	3.9	7.43e-01	0	33	104	0	58	13454
2026-01-16 04:40:12.42	354.36	24.33	-46.3	-58.6	3.8	7.46e-01	0	33	104	0	60	15746
2026-01-16 04:40:13.43	354.06	24.42	-43.4	-54.9	3.8	7.45e-01	0	33	104	0	55	13585
2026-01-16 04:40:14.44	353.75	24.50	-42.8	-54.2	3.8	7.45e-01	0	33	104	0	54	13377
2026-01-16 04:40:15.45	353.45	24.58	-42.3	-53.6	3.8	7.46e-01	0	33	104	0	53	13199
2026-01-16 04:40:16.46	353.14	24.66	-43.0	-54.5	3.8	7.44e-01	0	33	104	0	55	12972
2026-01-16 04:40:17.47	352.83	24.74	-44.2	-56.1	3.8	7.46e-01	0	33	104	0	56	14832
2026-01-16 04:40:18.47	352.52	24.81	-48.8	-62.9	3.9	7.45e-01	0	33	104	0	66	18168
2026-01-16 04:40:19.48	352.20	24.89	-43.6	-55.2	3.8	7.46e-01	0	33	104	0	56	13366
2026-01-16 04:40:20.49	351.89	24.97	-45.6	-57.8	3.9	7.44e-01	0	33	104	0	60	14254
2026-01-16 04:40:21.50	351.57	25.05	-43.0	-54.4	3.9	7.44e-01	0	33	104	0	55	12907
2026-01-16 04:40:22.51	351.25	25.12	-42.8	-54.2	3.8	7.44e-01	0	33	104	0	54	13316
2026-01-16 04:40:23.52	350.93	25.20	-42.7	-54.1	3.8	7.47e-01	0	33	104	0	54	13212
2026-01-16 04:40:24.53	350.61	25.27	-43.8	-55.1	3.9	7.43e-01	0	33	104	0	56	13213
2026-01-16 04:40:25.54	350.29	25.34	-45.5	-57.3	3.8	7.45e-01	0	33	104	0	58	15093
2026-01-16 04:40:26.55	349.96	25.42	-47.7	-60.8	3.9	7.45e-01	0	33	104	0	64	16017
2026-01-16 04:40:27.56	349.64	25.49	-43.2	-54.6	3.8	7.46e-01	0	33	104	0	55	13212
2026-01-16 04:40:28.57	349.31	25.56	-45.2	-57.2	3.9	7.44e-01	0	33	104	0	59	14074
2026-01-16 04:40:29.58	348.98	25.63	-43.0	-54.5	3.8	7.45e-01	0	33	104	0	55	13036
2026-01-16 04:40:30.59	348.65	25.70	-42.9	-54.4	3.9	7.43e-01	0	33	104	0	55	12837
2026-01-16 04:40:31.60	348.32	25.77	-42.1	-53.5	3.8	7.45e-01	0	33	104	0	53	12979
2026-01-16 04:40:32.61	347.98	25.84	-42.5	-53.9	3.9	7.44e-01	0	33	104	0	54	12819
2026-01-16 04:40:33.62	347.65	25.90	-46.0	-57.9	3.8	7.45e-01	0	33	104	0	59	15383
2026-01-16 04:40:34.62	347.31	25.97	-47.2	-60.0	3.9	7.43e-01	0	33	104	0	63	15476
2026-01-16 04:40:35.63	346.97	26.04	-42.6	-53.9	3.8	7.43e-01	0	33	104	0	54	12867
2026-01-16 04:40:36.64	346.63	26.10	-43.4	-55.0	3.8	7.43e-01	0	33	104	0	56	12990
2026-01-16 04:40:37.65	346.29	26.16	-42.6	-54.1	3.8	7.46e-01	0	33	104	0	54	13121
2026-01-16 04:40:38.66	345.95	26.23	-42.1	-53.4	3.8	7.48e-01	0	33	104	0	53	12904
2026-01-16 04:40:39.67	345.60	26.29	-43.2	-54.9	3.8	7.45e-01	0	33	104	0	54	14527
2026-01-16 04:40:40.68	345.26	26.35	-43.3	-54.6	3.9	7.46e-01	0	33	104	0	55	13259
2026-01-16 04:40:41.69	344.91	26.41	-47.0	-59.5	3.8	7.43e-01	0	33	104	0	61	16427
2026-01-16 04:40:42.70	344.56	26.47	-46.5	-58.9	3.9	7.45e-01	0	33	104	0	62	14510
2026-01-16 04:40:43.71	344.21	26.52	-42.6	-54.0	3.9	7.44e-01	0	33	104	0	54	13065
2026-01-16 04:40:44.72	343.86	26.58	-43.5	-55.0	3.8	7.46e-01	0	33	104	0	56	13056
2026-01-16 04:40:45.73	343.51	26.64	-42.6	-53.9	3.8	7.44e-01	0	33	104	0	54	12853
2026-01-16 04:40:46.74	343.16	26.69	-42.3	-53.7	3.9	7.44e-01	0	33	104	0	53	13344
2026-01-16 04:40:47.74	342.80	26.75	-42.7	-54.1	3.8	7.43e-01	0	33	104	0	53	13904
2026-01-16 04:40:48.75	342.45	26.80	-41.9	-53.2	3.9	7.47e-01	0	33	104	0	53	12644
2026-01-16 04:40:49.76	342.09	26.85	-47.5	-60.2	3.8	7.47e-01	0	33	104	0	62	16766
2026-01-16 04:40:50.77	341.73	26.90	-46.1	-58.3	3.8	7.47e-01	0	33	104	0	61	14245
2026-01-16 04:40:51.78	341.37	26.95	-42.6	-53.9	3.9	7.47e-01	0	33	104	0	53	13634
2026-01-16 04:40:52.79	341.01	27.00	-43.0	-54.5	3.8	7.44e-01	0	33	104	0	55	13013
2026-01-16 04:40:53.80	340.65	27.04	-42.5	-53.9	3.8	7.46e-01	0	33	104	0	54	12818
2026-01-16 04:40:54.81	340.29	27.09	-42.1	-53.3	3.8	7.41e-01	0	33	104	0	53	12785
2026-01-16 04:40:55.82	339.92	27.14	-43.3	-54.8	3.8	7.46e-01	0	33	104	0	54	14368
2026-01-16 04:40:56.83	339.56	27.18	-42.3	-53.6	3.9	7.47e-01	0	33	104	0	53	13174
2026-01-16 04:40:57.84	339.19	27.22	-48.3	-61.8	3.8	7.46e-01	0	33	104	0	64	17968
2026-01-16 04:40:58.85	338.82	27.26	-46.2	-58.4	3.9	7.44e-01	0	33	104	0	61	14377
2026-01-16 04:40:59.86	338.45	27.30	-43.4	-54.9	3.8	7.47e-01	0	33	104	0	54	14386
2026-01-16 04:41:00.87	338.08	27.34	-42.8	-54.0	3.8	7.45e-01	0	33	104	0	54	13059
2026-01-16 04:41:01.87	337.72	27.38	-42.4	-53.7	3.8	7.42e-01	0	33	104	0	54	12582
2026-01-16 04:41:02.88	337.35	27.42	-42.1	-53.4	3.8	7.46e-01	0	33	104	0	53	12855
2026-01-16 04:41:03.89	336.97	27.45	-44.2	-56.0	3.9	7.47e-01	0	33	104	0	56	14647
2026-01-16 04:41:04.90	336.60	27.48	-42.3	-53.6	3.8	7.41e-01	0	33	104	0	53	13138
2026-01-16 04:41:05.91	336.23	27.52	-48.6	-62.3	3.8	7.46e-01	0	33	104	0	64	19031
2026-01-16 04:41:06.92	335.85	27.55	-46.0	-58.1	3.8	7.44e-01	0	33	104	0	61	14033
2026-01-16 04:41:07.93	335.48	27.58	-43.8	-55.5	3.8	7.47e-01	0	33	104	0	55	14544
2026-01-16 04:41:08.94	335.10	27.61	-42.5	-53.8	3.8	7.46e-01	0	33	104	0	54	12668
2026-01-16 04:41:09.95	334.72	27.63	-42.2	-53.4	3.8	7.44e-01	0	33	104	0	53	12910
2026-01-16 04:41:10.96	334.35	27.66	-42.1	-53.5	3.8	7.45e-01	0	33	104	0	53	12980
2026-01-16 04:41:11.97	333.97	27.69	-44.9	-56.6	3.8	7.47e-01	0	33	104	0	57	14804
2026-01-16 04:41:12.98	333.59	27.71	-42.3	-53.6	3.9	7.49e-01	0	33	104	0	53	13121
2026-01-16 04:41:13.99	333.21	27.73	-49.2	-63.9	3.8	7.44e-01	0	33	104	0	66	20488
2026-01-16 04:41:15.00	332.83	27.75	-46.3	-58.5	3.8	7.50e-01	0	33	104	0	61	14668
2026-01-16 04:41:16.00	332.45	27.77	-44.5	-56.2	3.8	7.45e-01	0	33	104	0	56	15009
2026-01-16 04:41:17.01	332.07	27.79	-42.4	-53.7	3.8	7.45e-01	0	33	104	0	54	12565
2026-01-16 04:41:18.02	331.69	27.81	-42.5	-53.7	3.8	7.46e-01	0	33	104	0	54	12642
2026-01-16 04:41:19.03	331.31	27.82	-42.2	-53.5	3.8	7.43e-01	0	33	104	0	53	13065
2026-01-16 04:41:20.04	330.93	27.84	-44.3	-56.0	3.9	7.44e-01	0	33	104	0	56	14653
2026-01-16 04:41:21.05	330.55	27.85	-42.1	-53.3	3.8	7.43e-01	0	33	104	0	53	12771
2026-01-16 04:41:22.06	330.16	27.86	-49.2	-63.9	3.8	7.45e-01	0	33	104	0	66	20336
2026-01-16 04:41:23.07	329.78	27.87	-46.3	-58.6	3.8	7.44e-01	0	33	104	0	61	14822
2026-01-16 04:41:24.08	329.40	27.88	-45.1	-56.9	3.8	7.44e-01	0	33	104	0	57	15330
2026-01-16 04:41:25.09	329.02	27.89	-42.5	-53.8	3.8	7.44e-01	0	33	104	0	54	12715
2026-01-16 04:41:26.10	328.63	27.89	-42.5	-53.9	3.8	7.48e-01	0	33	104	0	54	12887
2026-01-16 04:41:27.10	328.25	27.90	-42.3	-53.5	3.9	7.48e-01	0	33	104	0	53	13098
2026-01-16 04:41:28.11	327.87	27.90	-45.6	-57.6	3.8	7.48e-01	0	33	104	0	58	15619
2026-01-16 04:41:29.12	327.48	27.90	-42.2	-53.5	3.9	7.45e-01	0	33	104	0	53	13026
2026-01-16 04:41:30.13	327.10	27.90	-49.5	-64.3	3.8	7.43e-01	0	33	104	0	66	21489
2026-01-16 04:41:31.14	326.72	27.90	-46.1	-58.3	3.8	7.43e-01	0	33	104	0	61	14277
2026-01-16 04:41:32.15	326.33	27.90	-46.0	-58.0	3.8	7.44e-01	0	33	104	0	59	15515
2026-01-16 04:41:33.16	325.95	27.89	-42.6	-54.0	3.8	7.44e-01	0	33	104	0	54	13043
2026-01-16 04:41:34.17	325.57	27.89	-42.3	-53.6	3.8	7.43e-01	0	33	104	0	53	13228
2026-01-16 04:41:35.18	325.18	27.88	-42.1	-53.4	3.8	7.46e-01	0	33	104	0	53	12856
2026-01-16 04:41:36.19	324.80	27.87	-45.4	-57.3	3.8	7.43e-01	0	33	104	0	58	15120
2026-01-16 04:41:37.19	324.42	27.87	-42.2	-53.5	3.8	7.49e-01	0	33	104	0	53	13033
2026-01-16 04:41:38.21	324.03	27.85	-49.4	-64.3	3.8	7.48e-01	0	33	104	0	66	21458
2026-01-16 04:41:39.21	323.65	27.84	-45.3	-57.5	3.9	7.45e-01	0	33	104	0	60	13880
2026-01-16 04:41:40.22	323.27	27.83	-46.1	-58.2	3.8	7.43e-01	0	33	104	0	60	15047
2026-01-16 04:41:41.23	322.89	27.81	-42.6	-53.9	3.8	7.44e-01	0	33	104	0	54	12873
2026-01-16 04:41:42.24	322.51	27.80	-42.7	-54.0	3.8	7.47e-01	0	33	104	0	54	13082
2026-01-16 04:41:43.25	322.13	27.78	-42.6	-54.0	3.8	7.47e-01	0	33	104	0	54	13091
2026-01-16 04:41:44.26	321.75	27.76	-43.1	-54.5	3.8	7.46e-01	0	33	104	0	54	13827
2026-01-16 04:41:45.27	321.37	27.74	-41.9	-44.3	5.1	7.07e-01	0	33	104	0	52	4760
2026-01-16 04:41:46.28	320.99	27.72	-48.6	-53.5	13.2	6.05e-01	0	33	0	524288	66	6195
2026-01-16 04:41:47.29	320.61	27.70	-45.4	-47.8	16.4	6.06e-01	0	33	0	2097152	59	4779
2026-01-16 04:41:48.30	320.23	27.67	-46.4	-49.3	15.9	6.02e-01	0	33	0	4194304	60	5349
2026-01-16 04:41:49.31	319.85	27.65	-43.1	-44.9	17.2	6.02e-01	0	33	0	5767168	54	4561
2026-01-16 04:41:50.32	319.47	27.62	-42.8	-44.5	17.3	6.04e-01	0	33	0	7864320	54	4371
2026-01-16 04:41:51.33	319.10	27.59	-42.7	-44.4	17.4	6.03e-01	0	33	0	9961472	54	4318
2026-01-16 04:41:52.34	318.72	27.56	-42.6	-44.4	17.3	6.02e-01	0	33	0	11534336	54	4301
2026-01-16 04:41:53.35	318.35	27.53	-42.9	-44.7	17.3	6.05e-01	0	33	0	13631488	54	4468
2026-01-16 04:41:54.36	317.97	27.50	-43.3	-45.2	17.2	6.04e-01	0	33	0	15728640	54	4722
2026-01-16 04:41:55.36	317.60	27.47	-42.6	-44.3	17.4	6.01e-01	0	33	0	17301504	53	4516
2026-01-16 04:41:56.37	317.23	27.43	-42.0	-43.6	17.5	6.01e-01	0	33	0	19398656	53	4158
2026-01-16 04:41:57.38	316.86	27.40	-41.7	-43.3	17.5	6.03e-01	0	33	0	20971520	52	4261
2026-01-16 04:41:58.39	316.49	27.36	-42.1	-43.8	17.2	6.04e-01	0	33	0	23068672	52	4520
2026-01-16 04:41:59.40	316.12	27.32	-42.4	-44.2	17.4	6.06e-01	0	33	0	25165824	52	4710
2026-01-16 04:42:00.41	315.75	27.28	-42.5	-44.2	17.4	6.04e-01	0	33	0	26738688	52	4740
2026-01-16 04:42:01.42	315.38	27.24	-41.9	-43.5	17.5	6.03e-01	0	33	0	28835840	52	4372
2026-01-16 04:42:02.43	315.01	27.20	-41.6	-43.2	17.6	6.05e-01	0	33	0	30408704	52	4196
2026-01-16 04:42:03.44	314.65	27.16	-41.7	-43.3	17.5	6.03e-01	0	33	0	32505856	52	4272
2026-01-16 04:42:04.45	314.28	27.11	-42.7	-44.5	17.3	6.05e-01	0	33	0	34603008	53	4626
2026-01-16 04:42:05.46	313.92	27.07	-42.9	-44.8	17.3	6.02e-01	0	33	0	36175872	53	4795
2026-01-16 04:42:06.47	313.55	27.02	-41.9	-43.6	17.5	6.03e-01	0	33	0	38273024	52	4400
2026-01-16 04:42:07.47	313.20	26.97	-41.4	-43.0	17.6	6.03e-01	0	33	0	39845888	52	4100
2026-01-16 04:42:08.48	312.83	26.93	-41.7	-43.3	17.5	6.05e-01	0	33	0	41943040	52	4281
2026-01-16 04:42:09.50	312.47	26.87	-42.7	-44.5	17.3	6.03e-01	0	33	0	44040192	53	4638
2026-01-16 04:42:10.50	312.12	26.82	-42.7	-44.5	17.3	6.04e-01	0	33	0	45613056	53	4639
2026-01-16 04:42:11.51	311.76	26.77	-41.8	-43.4	17.5	6.04e-01	0	33	0	47710208	52	4317
2026-01-16 04:42:12.52	311.40	26.72	-42.0	-43.7	17.5	6.04e-01	0	33	0	49283072	53	4210
2026-01-16 04:42:13.53	311.05	26.66	-42.4	-44.2	17.3	6.04e-01	0	33	0	51380224	53	4449
2026-01-16 04:42:14.54	310.69	26.61	-42.5	-44.3	17.3	6.03e-01	0	33	0	53477376	52	4792
2026-01-16 04:42:15.55	310.34	26.55	-42.2	-43.9	17.4	6.03e-01	0	33	0	55050240	52	4568
2026-01-16 04:42:16.56	309.99	26.50	-42.1	-43.8	17.4	6.04e-01	0	33	0	57147392	52	4514
2026-01-16 04:42:17.57	309.64	26.44	-42.3	-44.1	17.4	6.03e-01	0	33	0	58720256	52	4660
2026-01-16 04:42:18.58	309.29	26.38	-42.0	-43.7	17.5	6.03e-01	0	33	0	60817408	52	4460
2026-01-16 04:42:19.59	308.95	26.32	-42.0	-43.7	17.4	6.06e-01	0	33	0	62914560	52	4459
2026-01-16 04:42:20.60	308.60	26.26	-42.5	-44.2	17.3	6.03e-01	0	33	0	64487424	53	4486
2026-01-16 04:42:21.61	308.26	26.19	-42.6	-44.4	17.4	6.04e-01	0	33	0	66584576	53	4550
2026-01-16 04:42:22.62	307.91	26.13	-42.3	-44.0	17.5	6.05e-01	0	33	0	68681728	53	4343
2026-01-16 04:42:23.63	307.57	26.07	-42.3	-44.0	17.4	6.04e-01	0	33	0	70254592	53	4376
2026-01-16 04:42:24.64	307.23	26.00	-42.3	-44.1	17.4	6.03e-01	0	33	0	72351744	53	4402
2026-01-16 04:42:25.64	306.90	25.94	-42.5	-44.2	17.4	6.03e-01	0	33	0	73924608	53	4490
2026-01-16 04:42:26.65	306.56	25.87	-42.4	-44.1	17.4	6.05e-01	0	33	0	76021760	53	4417
2026-01-16 04:42:27.66	306.23	25.80	-42.4	-44.2	17.4	6.04e-01	0	33	0	78118912	53	4453
2026-01-16 04:42:28.67	305.89	25.73	-42.6	-44.4	17.3	6.06e-01	0	33	0	79691776	53	4565
2026-01-16 04:42:29.68	305.56	25.66	-42.1	-43.7	17.5	6.04e-01	0	33	0	81788928	53	4220
2026-01-16 04:42:30.69	305.23	25.59	-42.1	-43.7	17.5	6.03e-01	0	33	0	83886080	53	4209
2026-01-16 04:42:31.70	304.90	25.52	-43.4	-45.3	17.1	6.05e-01	0	33	0	85458944	54	4802
2026-01-16 04:42:32.71	304.57	25.45	-43.0	-44.8	17.2	6.04e-01	0	33	0	87556096	53	4798
2026-01-16 04:42:33.72	304.25	25.38	-42.3	-44.0	17.4	6.02e-01	0	33	0	89128960	53	4379
2026-01-16 04:42:34.73	303.92	25.30	-42.3	-44.0	17.4	6.04e-01	0	33	0	91226112	53	4351
2026-01-16 04:42:35.74	303.60	25.23	-42.4	-44.1	17.4	6.03e-01	0	33	0	93323264	53	4437
2026-01-16 04:42:36.75	303.28	25.16	-42.9	-44.8	17.2	6.05e-01	0	33	0	94896128	53	4770
2026-01-16 04:42:37.75	302.96	25.08	-42.3	-44.0	17.4	6.02e-01	0	33	0	96993280	53	4379
2026-01-16 04:42:38.76	302.64	25.00	-42.3	-44.0	17.4	6.04e-01	0	33	0	98566144	53	4366
2026-01-16 04:42:39.77	302.32	24.93	-43.5	-45.5	17.1	6.03e-01	0	33	0	100663296	54	4890
2026-01-16 04:42:40.78	302.01	24.85	-43.0	-44.9	17.2	6.04e-01	0	33	0	102760448	53	4833
2026-01-16 04:42:41.79	301.70	24.77	-42.1	-43.8	17.5	6.04e-01	0	33	0	104333312	53	4244
2026-01-16 04:42:42.80	301.38	24.69	-42.8	-44.6	17.3	6.04e-01	0	33	0	106430464	54	4424
2026-01-16 04:42:43.81	301.07	24.61	-43.1	-45.0	17.2	6.03e-01	0	33	0	108003328	53	4914
2026-01-16 04:42:44.82	300.77	24.53	-42.4	-44.1	17.4	6.02e-01	0	33	0	110100480	53	4427
2026-01-16 04:42:45.83	300.46	24.45	-42.9	-44.7	17.3	6.02e-01	0	33	0	112197632	54	4445
2026-01-16 04:42:46.84	300.15	24.37	-43.3	-45.3	17.2	6.05e-01	0	33	0	113770496	54	4778
2026-01-16 04:42:47.85	299.85	24.29	-42.7	-44.5	17.4	6.03e-01	0	33	0	115867648	54	4364
2026-01-16 04:42:48.86	299.55	24.21	-42.3	-43.9	17.5	6.05e-01	0	33	0	117440512	53	4338
2026-01-16 04:42:49.87	299.25	24.12	-43.2	-45.1	17.3	6.06e-01	0	33	0	119537664	54	4669
2026-01-16 04:42:50.88	298.95	24.04	-42.8	-44.5	17.4	6.04e-01	0	33	0	121634816	54	4386
2026-01-16 04:42:51.89	298.65	23.96	-42.4	-44.1	17.4	6.04e-01	0	33	0	123207680	54	4155
2026-01-16 04:42:52.89	298.36	23.87	-43.4	-45.4	17.1	6.03e-01	0	33	0	125304832	54	4863
2026-01-16 04:42:53.90	298.07	23.79	-42.1	-43.7	17.5	6.05e-01	0	33	0	126877696	53	4239
2026-01-16 04:42:54.91	297.78	23.70	-42.6	-44.4	17.3	6.01e-01	0	33	0	128974848	53	4582
2026-01-16 04:42:55.92	297.49	23.62	-42.5	-44.3	17.4	6.03e-01	0	33	0	131072000	53	4504
2026-01-16 04:42:56.93	297.20	23.53	-42.8	-44.6	17.3	6.04e-01	0	33	0	132644864	53	4677
2026-01-16 04:42:57.94	296.91	23.44	-42.6	-44.3	17.4	6.06e-01	0	33	0	134742016	53	4537
2026-01-16 04:42:58.95	296.62	23.36	-42.5	-44.3	17.4	6.03e-01	0	33	0	136839168	53	4512
2026-01-16 04:42:59.96	296.34	23.27	-42.4	-44.2	17.4	6.02e-01	0	33	0	138412032	53	4446
2026-01-16 04:43:00.97	296.06	23.18	-42.6	-44.4	17.4	6.03e-01	0	33	0	140509184	53	4590
2026-01-16 04:43:01.98	295.78	23.09	-42.3	-44.0	17.5	6.06e-01	0	33	0	142082048	53	4382
2026-01-16 04:43:02.99	295.50	23.00	-42.7	-44.5	17.4	6.04e-01	0	33	0	144179200	53	4633
2026-01-16 04:43:03.99	295.23	22.91	-42.7	-44.4	17.4	6.04e-01	0	33	0	146276352	53	4586
2026-01-16 04:43:05.00	294.95	22.82	-42.7	-44.5	17.3	6.04e-01	0	33	0	147849216	53	4605
2026-01-16 04:43:06.01	294.68	22.73	-42.7	-44.5	17.4	6.04e-01	0	33	0	149946368	53	4649
2026-01-16 04:43:07.02	294.41	22.64	-42.4	-44.1	17.4	6.06e-01	0	33	0	151519232	53	4426
2026-01-16 04:43:08.03	294.14	22.55	-42.9	-44.7	17.3	6.04e-01	0	33	0	153616384	53	4742
2026-01-16 04:43:09.04	293.87	22.46	-42.5	-44.2	17.4	6.03e-01	0	33	0	155713536	53	4470
2026-01-16 04:43:10.05	293.60	22.37	-42.7	-44.5	17.4	6.06e-01	0	33	0	157286400	53	4600
2026-01-16 04:43:11.06	293.34	22.28	-42.7	-44.5	17.3	6.05e-01	0	33	0	159383552	53	4619
2026-01-16 04:43:12.07	293.07	22.19	-42.7	-44.5	17.3	6.05e-01	0	33	0	160956416	53	4605
2026-01-16 04:43:13.08	292.81	22.10	-43.1	-45.0	17.2	6.02e-01	0	33	0	163053568	54	4617
2026-01-16 04:43:14.09	292.55	22.00	-42.6	-44.3	17.4	6.02e-01	0	33	0	165150720	54	4289
2026-01-16 04:43:15.10	292.29	21.91	-42.9	-44.7	17.3	6.05e-01	0	33	0	166723584	54	4470
2026-01-16 04:43:16.11	292.03	21.82	-42.7	-44.5	17.3	6.04e-01	0	33	0	168820736	54	4366
2026-01-16 04:43:17.12	291.78	21.73	-43.0	-44.9	17.2	6.03e-01	0	33	0	170393600	54	4584
2026-01-16 04:43:18.13	291.52	21.63	-42.6	-44.3	17.4	6.06e-01	0	33	0	172490752	54	4291
2026-01-16 04:43:19.14	291.27	21.54	-42.9	-44.8	17.3	6.04e-01	0	33	0	174587904	54	4506
2026-01-16 04:43:20.14	291.02	21.45	-42.8	-44.6	17.3	6.03e-01	0	33	0	176160768	54	4406
2026-01-16 04:43:21.15	290.78	21.35	-42.4	-44.1	17.4	6.02e-01	0	33	0	178257920	53	4420
2026-01-16 04:43:22.16	290.53	21.26	-43.3	-45.3	17.1	6.04e-01	0	33	0	180355072	54	4797
2026-01-16 04:43:23.17	290.28	21.16	-42.2	-43.8	17.4	6.03e-01	0	33	0	181927936	53	4281
2026-01-16 04:43:24.18	290.04	21.07	-42.8	-44.6	17.2	6.04e-01	0	33	0	184025088	53	4705
2026-01-16 04:43:25.19	289.80	20.98	-42.6	-44.4	17.3	6.05e-01	0	33	0	185597952	53	4550
2026-01-16 04:43:26.20	289.55	20.88	-42.3	-44.0	17.4	6.05e-01	0	33	0	187695104	53	4366
2026-01-16 04:43:27.21	289.31	20.79	-42.9	-44.8	17.2	6.03e-01	0	33	0	189792256	53	4776
2026-01-16 04:43:28.22	289.08	20.69	-42.2	-43.9	17.4	6.05e-01	0	33	0	191365120	53	4300
2026-01-16 04:43:29.23	288.84	20.60	-42.4	-44.1	17.4	6.04e-01	0	33	0	193462272	53	4436
2026-01-16 04:43:30.24	288.61	20.50	-42.9	-44.7	17.3	6.04e-01	0	33	0	195035136	53	4741
2026-01-16 04:43:31.24	288.37	20.41	-42.3	-44.0	17.4	6.02e-01	0	33	0	197132288	53	4363
2026-01-16 04:43:32.25	288.14	20.31	-42.9	-44.8	17.2	6.02e-01	0	33	0	199229440	53	4771
2026-01-16 04:43:33.26	287.91	20.22	-42.6	-44.4	17.3	6.03e-01	0	33	0	200802304	54	4308
2026-01-16 04:43:34.27	287.68	20.12	-41.9	-43.6	17.5	6.05e-01	0	33	0	202899456	53	4150
2026-01-16 04:43:35.28	287.46	20.03	-42.8	-44.6	17.3	6.03e-01	0	33	0	204472320	53	4673
2026-01-16 04:43:36.29	287.23	19.93	-42.5	-44.3	17.3	6.05e-01	0	33	0	206569472	53	4508
2026-01-16 04:43:37.30	287.01	19.84	-42.5	-44.2	17.4	6.03e-01	0	33	0	208666624	53	4482
2026-01-16 04:43:38.31	286.78	19.74	-43.2	-45.1	17.2	6.05e-01	0	33	0	210239488	54	4661
2026-01-16 04:43:39.32	286.56	19.65	-42.7	-44.4	17.4	6.06e-01	0	33	0	212336640	54	4326
2026-01-16 04:43:40.33	286.34	19.55	-42.8	-44.6	17.3	6.01e-01	0	33	0	213909504	54	4419
2026-01-16 04:43:41.34	286.12	19.45	-43.5	-45.5	17.1	6.03e-01	0	33	0	216006656	54	4917
2026-01-16 04:43:42.35	285.91	19.36	-42.5	-44.2	17.3	6.05e-01	0	33	0	218103808	54	4235
2026-01-16 04:43:43.36	285.69	19.26	-42.0	-43.6	17.5	6.05e-01	0	33	0	219676672	53	4171
2026-01-16 04:43:44.37	285.48	19.17	-42.8	-44.6	17.3	6.04e-01	0	33	0	221773824	53	4691
2026-01-16 04:43:45.38	285.26	19.07	-42.6	-44.4	17.3	6.04e-01	0	33	0	223346688	53	4558
2026-01-16 04:43:46.39	285.05	18.98	-42.4	-44.1	17.4	6.03e-01	0	33	0	225443840	53	4405
2026-01-16 04:43:47.40	284.84	18.88	-42.7	-44.5	17.3	6.05e-01	0	33	0	227540992	53	4620
2026-01-16 04:43:48.40	284.64	18.79	-43.1	-45.1	17.2	6.03e-01	0	33	0	229113856	54	4667
2026-01-16 04:43:49.41	284.43	18.69	-42.1	-43.8	17.4	6.05e-01	0	33	0	231211008	53	4272
2026-01-16 04:43:50.42	284.22	18.60	-41.9	-43.5	17.5	6.02e-01	0	33	0	233308160	52	4374
2026-01-16 04:43:51.43	284.02	18.50	-42.7	-44.5	17.2	6.04e-01	0	33	0	234881024	53	4648
2026-01-16 04:43:52.44	283.82	18.40	-43.0	-44.9	17.2	6.05e-01	0	33	0	236978176	53	4860
2026-01-16 04:43:53.45	283.62	18.31	-42.4	-44.2	17.4	6.02e-01	0	33	0	238551040	53	4445
2026-01-16 04:43:54.46	283.42	18.21	-42.4	-44.2	17.4	6.05e-01	0	33	0	240648192	53	4446
2026-01-16 04:43:55.47	283.22	18.12	-42.8	-44.6	17.3	6.06e-01	0	33	0	242745344	53	4704
2026-01-16 04:43:56.48	283.02	18.02	-42.7	-44.5	17.3	6.06e-01	0	33	0	244318208	53	4632
2026-01-16 04:43:57.49	282.82	17.93	-42.6	-44.4	17.4	6.03e-01	0	33	0	246415360	53	4559
2026-01-16 04:43:58.50	282.63	17.83	-42.5	-44.3	17.4	6.03e-01	0	33	0	247988224	53	4502
2026-01-16 04:43:59.51	282.43	17.74	-43.1	-45.1	17.2	6.04e-01	0	33	0	250085376	53	4934
2026-01-16 04:44:00.52	282.24	17.64	-43.1	-45.1	17.2	6.04e-01	0	33	0	252182528	54	4677
2026-01-16 04:44:01.52	282.05	17.55	-42.5	-44.2	17.4	6.03e-01	0	33	0	253755392	54	4221
2026-01-16 04:44:02.53	281.86	17.46	-42.2	-43.9	17.4	6.04e-01	0	33	0	255852544	53	4297
2026-01-16 04:44:03.54	281.68	17.36	-42.4	-44.2	17.4	6.03e-01	0	33	0	257949696	53	4463
2026-01-16 04:44:04.55	281.49	17.27	-42.8	-44.7	17.3	6.05e-01	0	33	0	259522560	53	4723
2026-01-16 04:44:05.56	281.30	17.17	-42.6	-44.4	17.3	6.03e-01	0	33	0	261619712	53	4596
2026-01-16 04:44:06.57	281.12	17.08	-42.6	-44.3	17.4	6.03e-01	0	33	0	263192576	53	4521
2026-01-16 04:44:07.58	280.93	16.98	-42.5	-44.2	17.4	6.03e-01	0	33	0	265289728	53	4493
2026-01-16 04:44:08.59	280.75	16.89	-42.5	-44.3	17.3	6.03e-01	0	33	0	267386880	53	4517
2026-01-16 04:44:09.60	280.57	16.80	-42.8	-44.7	17.3	6.04e-01	0	33	0	268959744	53	4729
2026-01-16 04:44:10.61	280.39	16.70	-42.6	-44.5	17.3	6.03e-01	0	33	0	271056896	53	4606
2026-01-16 04:44:11.62	280.21	16.61	-42.4	-44.2	17.4	6.03e-01	0	33	0	272629760	53	4461
2026-01-16 04:44:12.62	280.04	16.51	-42.4	-44.1	17.4	6.05e-01	0	33	0	274726912	53	4414
2026-01-16 04:44:13.63	279.86	16.42	-42.5	-44.2	17.4	6.04e-01	0	33	0	276824064	53	4493
2026-01-16 04:44:14.64	279.69	16.33	-42.6	-44.4	17.4	6.04e-01	0	33	0	278396928	53	4589
2026-01-16 04:44:15.65	279.51	16.23	-42.8	-44.6	17.3	6.04e-01	0	33	0	280494080	53	4681
2026-01-16 04:44:16.66	279.34	16.14	-42.8	-44.6	17.3	6.03e-01	0	33	0	282066944	53	4692
2026-01-16 04:44:17.67	279.17	16.05	-42.5	-44.3	17.4	6.06e-01	0	33	0	284164096	53	4516
2026-01-16 04:44:18.68	279.00	15.96	-42.5	-44.3	17.4	6.03e-01	0	33	0	286261248	53	4506
2026-01-16 04:44:19.69	278.83	15.86	-42.6	-44.4	17.3	6.02e-01	0	33	0	287834112	53	4596
2026-01-16 04:44:20.70	278.66	15.77	-42.5	-44.3	17.3	6.02e-01	0	33	0	289931264	53	4510
2026-01-16 04:44:21.71	278.49	15.68	-42.6	-44.4	17.3	6.02e-01	0	33	0	291504128	53	4551
2026-01-16 04:44:22.72	278.33	15.59	-42.7	-44.5	17.3	6.02e-01	0	33	0	293601280	53	4632
2026-01-16 04:44:23.73	278.16	15.49	-42.6	-44.4	17.3	6.02e-01	0	33	0	295698432	53	4588
2026-01-16 04:44:24.74	278.00	15.40	-42.4	-44.2	17.3	6.03e-01	0	33	0	297271296	53	4471
2026-01-16 04:44:25.74	277.84	15.31	-42.3	-44.0	17.4	6.05e-01	0	33	0	299368448	53	4390
2026-01-16 04:44:26.75	277.68	15.22	-42.3	-44.1	17.4	6.04e-01	0	33	0	301465600	53	4392
2026-01-16 04:44:27.76	277.51	15.13	-42.6	-44.4	17.3	6.06e-01	0	33	0	303038464	53	4549
2026-01-16 04:44:28.77	277.36	15.04	-42.7	-44.6	17.3	6.04e-01	0	33	0	305135616	53	4652
2026-01-16 04:44:29.78	277.20	14.95	-42.8	-44.6	17.3	6.02e-01	0	33	0	306708480	53	4704
2026-01-16 04:44:30.79	277.04	14.86	-42.7	-44.6	17.3	6.03e-01	0	33	0	308805632	53	4664
2026-01-16 04:44:31.80	276.88	14.76	-42.6	-44.4	17.3	6.01e-01	0	33	0	310902784	53	4597
2026-01-16 04:44:32.81	276.73	14.67	-42.4	-44.2	17.4	6.01e-01	0	33	0	312475648	53	4454
2026-01-16 04:44:33.82	276.57	14.58	-42.3	-44.1	17.4	6.01e-01	0	33	0	314572800	53	4410
2026-01-16 04:44:34.83	276.42	14.49	-42.3	-44.0	17.4	6.06e-01	0	33	0	316145664	53	4363
2026-01-16 04:44:35.84	276.27	14.40	-42.3	-44.0	17.4	6.04e-01	0	33	0	318242816	53	4360
2026-01-16 04:44:36.85	276.12	14.31	-42.4	-44.2	17.4	6.04e-01	0	33	0	320339968	53	4445
2026-01-16 04:44:37.86	275.97	14.22	-42.5	-44.3	17.3	6.05e-01	0	33	0	321912832	53	4525
2026-01-16 04:44:38.86	275.82	14.13	-42.7	-44.6	17.3	6.03e-01	0	33	0	324009984	53	4654
2026-01-16 04:44:39.87	275.67	14.05	-42.8	-44.6	17.2	6.04e-01	0	33	0	325582848	53	4683
2026-01-16 04:44:40.88	275.52	13.96	-42.7	-44.5	17.2	6.06e-01	0	33	0	327680000	53	4644
2026-01-16 04:44:41.89	275.38	13.87	-42.5	-44.4	17.3	6.02e-01	0	33	0	329777152	53	4551
2026-01-16 04:44:42.90	275.23	13.78	-42.6	-44.4	17.3	6.04e-01	0	33	0	331350016	53	4562
2026-01-16 04:44:43.91	275.09	13.69	-42.6	-44.4	17.3	6.04e-01	0	33	0	333447168	53	4568
2026-01-16 04:44:44.92	274.94	13.60	-42.5	-44.3	17.3	6.04e-01	0	33	0	335020032	53	4520
2026-01-16 04:44:45.93	274.80	13.51	-42.3	-44.0	17.4	6.06e-01	0	33	0	337117184	53	4378
2026-01-16 04:44:46.94	274.66	13.42	-42.3	-44.1	17.4	6.03e-01	0	33	0	339214336	53	4414
2026-01-16 04:44:47.95	274.52	13.34	-42.5	-44.3	17.3	6.03e-01	0	33	0	340787200	53	4517
2026-01-16 04:44:48.96	274.38	13.25	-42.6	-44.5	17.3	6.04e-01	0	33	0	342884352	53	4608
2026-01-16 04:44:49.97	274.24	13.16	-42.7	-44.6	17.3	6.04e-01	0	33	0	344457216	53	4659
2026-01-16 04:44:50.97	274.10	13.08	-42.8	-44.7	17.2	6.03e-01	0	33	0	346554368	53	4706
2026-01-16 04:44:51.98	273.97	12.99	-42.8	-44.7	17.2	6.06e-01	0	33	0	348651520	53	4749
2026-01-16 04:44:52.99	273.83	12.90	-42.8	-44.7	17.3	6.05e-01	0	33	0	350224384	53	4720
2026-01-16 04:44:54.00	273.69	12.81	-42.6	-44.4	17.3	6.05e-01	0	33	0	352321536	53	4572
2026-01-16 04:44:55.01	273.56	12.73	-42.6	-44.5	17.3	6.03e-01	0	33	0	354418688	53	4617
2026-01-16 04:44:56.02	273.43	12.64	-42.5	-44.3	17.3	6.05e-01	0	33	0	355991552	53	4518
2026-01-16 04:44:57.03	273.29	12.56	-42.6	-44.4	17.3	6.05e-01	0	33	0	358088704	53	4558
2026-01-16 04:44:58.04	273.16	12.47	-42.5	-44.3	17.3	6.04e-01	0	33	0	359661568	53	4515
2026-01-16 04:44:59.05	273.03	12.38	-42.5	-44.3	17.3	6.02e-01	0	33	0	361758720	53	4503
2026-01-16 04:45:00.05	272.90	12.30	-42.6	-44.4	17.3	6.06e-01	0	33	0	363855872	53	4568
2026-01-16 04:45:01.06	272.77	12.21	-42.6	-44.5	17.3	6.03e-01	0	33	0	365428736	53	4601
2026-01-16 04:45:02.07	272.64	12.13	-42.6	-44.5	17.3	6.04e-01	0	33	0	367525888	53	4627
2026-01-16 04:45:03.08	272.52	12.04	-42.7	-44.6	17.2	6.04e-01	0	33	0	369623040	53	4688
2026-01-16 04:45:04.09	272.39	11.96	-42.7	-44.6	17.2	6.05e-01	0	33	0	371195904	53	4686
2026-01-16 04:45:05.10	272.26	11.87	-42.7	-44.6	17.2	6.03e-01	0	33	0	373293056	53	4689
2026-01-16 04:45:06.11	272.14	11.79	-42.7	-44.6	17.3	6.03e-01	0	33	0	374865920	53	4653
2026-01-16 04:45:07.12	272.01	11.70	-42.7	-44.6	17.3	6.05e-01	0	33	0	376963072	53	4660
2026-01-16 04:45:08.13	271.89	11.62	-42.6	-44.5	17.3	6.03e-01	0	33	0	378535936	53	4613
2026-01-16 04:45:09.14	271.77	11.54	-42.6	-44.5	17.3	6.05e-01	0	33	0	380633088	53	4630
2026-01-16 04:45:10.14	271.64	11.45	-42.7	-44.6	17.2	6.06e-01	0	33	0	382730240	53	4661
2026-01-16 04:45:11.15	271.52	11.37	-42.8	-44.7	17.2	6.06e-01	0	33	0	384303104	53	4715
2026-01-16 04:45:12.16	271.40	11.29	-42.8	-44.6	17.2	6.04e-01	0	33	0	386400256	53	4705
2026-01-16 04:45:13.17	271.28	11.20	-42.9	-44.8	17.2	6.03e-01	0	33	0	387973120	53	4795
2026-01-16 04:45:14.18	271.16	11.12	-42.8	-44.7	17.2	6.03e-01	0	33	0	390070272	53	4720
2026-01-16 04:45:15.19	271.04	11.04	-42.6	-44.5	17.3	6.03e-01	0	33	0	392167424	53	4626
2026-01-16 04:45:16.20	270.93	10.96	-42.8	-44.7	17.2	6.04e-01	0	33	0	393740288	53	4716
2026-01-16 04:45:17.21	270.81	10.87	-42.8	-44.8	17.2	6.03e-01	0	33	0	395837440	53	4774
2026-01-16 04:45:18.22	270.69	10.79	-43.0	-45.0	17.1	6.05e-01	0	33	0	397934592	53	4892
2026-01-16 04:45:19.23	270.58	10.71	-43.2	-45.2	17.0	6.04e-01	0	33	0	399507456	54	4712
2026-01-16 04:45:20.24	270.46	10.63	-43.2	-45.2	17.1	6.04e-01	0	33	0	401604608	54	4725
2026-01-16 04:45:21.25	270.35	10.55	-43.5	-45.6	16.9	6.03e-01	0	33	0	403177472	54	4960
2026-01-16 04:45:22.26	270.23	10.47	-43.7	-45.9	16.8	6.05e-01	0	33	0	405274624	55	4827
2026-01-16 04:45:23.27	270.12	10.38	-43.9	-46.1	16.8	6.07e-01	0	33	0	407371776	55	4959
2026-01-16 04:45:24.28	270.01	10.30	-43.8	-46.1	16.7	6.05e-01	0	33	0	408944640	55	4968
2026-01-16 04:45:25.29	269.90	10.22	-43.8	-46.1	16.7	6.04e-01	0	33	0	411041792	55	4973
2026-01-16 04:45:26.29	269.79	10.14	-43.9	-46.2	16.4	6.02e-01	0	33	0	412614656	55	5023
2026-01-16 04:45:27.30	269.68	10.06	-44.0	-46.4	16.6	6.04e-01	0	33	0	414711808	55	5126
2026-01-16 04:45:28.31	269.57	9.98	-44.0	-46.4	16.6	6.03e-01	0	33	0	416808960	55	5159
2026-01-16 04:45:29.32	269.46	9.90	-44.2	-46.7	16.6	6.01e-01	0	33	0	418381824	56	4984
2026-01-16 04:45:30.33	269.35	9.82	-44.5	-47.1	16.3	6.03e-01	0	33	0	420478976	56	5263
2026-01-16 04:45:31.34	269.24	9.74	-45.0	-47.9	16.0	6.04e-01	0	33	0	422576128	57	5430
2026-01-16 04:45:32.35	269.14	9.66	-45.6	-48.9	15.5	6.03e-01	0	33	0	424148992	59	5447
2026-01-16 04:45:33.36	269.03	9.58	-46.2	-50.0	14.8	6.03e-01	0	33	0	426246144	60	5831
2026-01-16 04:45:34.37	268.93	9.50	-46.7	-51.2	14.0	6.05e-01	0	33	0	427819008	61	6312
2026-01-16 04:45:35.38	268.82	9.43	-47.2	-52.4	13.1	6.05e-01	0	33	0	429916160	62	6860
2026-01-16 04:45:36.39	268.72	9.35	-47.4	-53.3	12.5	6.07e-01	0	33	0	432013312	62	7565
2026-01-16 04:45:37.40	268.61	9.27	-47.4	-53.4	12.3	6.07e-01	0	33	0	433586176	62	7671
2026-01-16 04:45:38.41	268.51	9.19	-47.3	-53.1	12.5	6.06e-01	0	33	0	435683328	62	7439
2026-01-16 04:45:39.42	268.41	9.11	-47.2	-52.9	12.7	6.06e-01	0	33	0	437256192	62	7219
2026-01-16 04:45:40.43	268.31	9.03	-46.6	-51.3	13.8	6.05e-01	0	33	0	439353344	62	6049
2026-01-16 04:45:41.44	268.20	8.96	-45.9	-49.9	14.6	6.05e-01	0	33	0	441450496	61	5438
2026-01-16 04:45:42.44	268.11	8.88	-45.6	-49.3	14.9	6.03e-01	0	33	0	443023360	60	5364
2026-01-16 04:45:43.45	268.01	8.80	-45.5	-49.0	15.2	6.05e-01	0	33	0	445120512	60	5208
2026-01-16 04:45:44.46	267.91	8.73	-45.7	-49.3	15.1	6.03e-01	0	33	0	446693376	60	5390
2026-01-16 04:45:45.47	267.81	8.65	-45.8	-49.5	15.0	6.03e-01	0	33	0	448790528	60	5487
2026-01-16 04:45:46.48	267.71	8.57	-45.6	-49.2	15.2	6.03e-01	0	33	0	450887680	60	5285
2026-01-16 04:45:47.49	267.61	8.50	-45.6	-49.1	15.3	6.02e-01	0	33	0	452460544	60	5250
2026-01-16 04:45:48.49	267.51	8.42	-45.5	-48.8	15.4	6.04e-01	0	33	0	454557696	60	5086
2026-01-16 04:45:49.50	267.42	8.34	-45.2	-48.3	15.7	6.04e-01	0	33	0	456130560	59	5072
2026-01-16 04:45:50.51	267.32	8.27	-44.9	-47.8	16.0	6.03e-01	0	33	0	458227712	59	4793
2026-01-16 04:45:51.52	267.23	8.19	-44.7	-47.5	16.1	6.05e-01	0	33	0	460324864	58	4907
2026-01-16 04:45:52.53	267.13	8.12	-44.2	-46.8	16.4	6.05e-01	0	33	0	461897728	57	4774
2026-01-16 04:45:53.54	267.04	8.04	-43.8	-46.3	16.6	6.02e-01	0	33	0	463994880	56	4764
2026-01-16 04:45:54.55	266.94	7.96	-43.8	-46.1	16.7	6.02e-01	0	33	0	466092032	56	4700
2026-01-16 04:45:55.56	266.85	7.89	-43.7	-46.0	16.7	6.04e-01	0	33	0	467664896	56	4621
2026-01-16 04:45:56.57	266.76	7.81	-43.6	-45.9	16.8	6.04e-01	0	33	0	469762048	56	4596
2026-01-16 04:45:57.58	266.67	7.74	-43.7	-46.0	16.7	6.04e-01	0	33	0	471334912	56	4629
2026-01-16 04:45:58.59	266.57	7.67	-43.5	-45.7	16.9	6.03e-01	0	33	0	473432064	56	4479
2026-01-16 04:45:59.60	266.48	7.59	-43.5	-45.8	16.9	6.04e-01	0	33	0	475529216	56	4494
2026-01-16 04:46:00.61	266.39	7.52	-43.6	-45.8	16.9	6.05e-01	0	33	0	477102080	56	4539
2026-01-16 04:46:01.62	266.30	7.44	-43.4	-45.5	17.0	6.03e-01	0	33	0	479199232	55	4618
2026-01-16 04:46:02.63	266.21	7.37	-43.3	-45.5	17.0	6.04e-01	0	33	0	480772096	55	4617
2026-01-16 04:46:03.64	266.12	7.29	-43.3	-45.4	17.0	6.03e-01	0	33	0	482869248	55	4558
2026-01-16 04:46:04.65	266.04	7.22	-43.5	-45.6	17.0	6.02e-01	0	33	0	484966400	55	4677
2026-01-16 04:46:05.66	265.95	7.15	-44.0	-46.3	16.7	6.05e-01	0	33	0	486539264	55	5090
2026-01-16 04:46:06.66	265.86	7.08	-43.8	-46.1	16.8	6.00e-01	0	33	0	488636416	55	4946
2026-01-16 04:46:07.67	265.77	7.00	-43.6	-45.9	16.9	6.04e-01	0	33	0	490209280	55	4823
2026-01-16 04:46:08.68	265.69	6.93	-43.9	-46.1	16.8	6.05e-01	0	33	0	492306432	55	4980
2026-01-16 04:46:09.69	265.60	6.86	-43.9	-46.1	16.8	6.01e-01	0	33	0	494403584	55	4981
2026-01-16 04:46:10.70	265.52	6.78	-43.6	-45.8	16.9	6.03e-01	0	33	0	495976448	55	4773
2026-01-16 04:46:11.71	265.43	6.71	-43.9	-46.2	16.7	6.05e-01	0	33	0	498073600	55	4994
2026-01-16 04:46:12.72	265.35	6.64	-43.5	-45.7	16.9	6.02e-01	0	33	0	499646464	55	4708
2026-01-16 04:46:13.73	265.26	6.57	-43.6	-45.8	16.9	6.05e-01	0	33	0	501743616	55	4782
2026-01-16 04:46:14.74	265.18	6.50	-43.8	-46.0	16.8	6.04e-01	0	33	0	503840768	55	4885
2026-01-16 04:46:15.75	265.09	6.42	-43.5	-45.6	16.9	6.06e-01	0	33	0	505413632	55	4704
2026-01-16 04:46:16.76	265.01	6.35	-43.8	-46.0	16.8	6.04e-01	0	33	0	507510784	55	4925
2026-01-16 04:46:17.77	264.93	6.28	-43.9	-46.3	16.7	6.03e-01	0	33	0	509083648	55	5044
2026-01-16 04:46:18.78	264.85	6.21	-43.7	-45.9	16.8	6.04e-01	0	33	0	511180800	55	4850
2026-01-16 04:46:19.79	264.77	6.14	-43.6	-45.8	16.8	6.02e-01	0	33	0	513277952	55	4791
2026-01-16 04:46:20.80	264.69	6.07	-44.4	-46.8	16.5	6.03e-01	0	33	0	514850816	56	5079
2026-01-16 04:46:21.81	264.60	6.00	-43.9	-46.2	16.8	6.02e-01	0	33	0	516947968	56	4714
2026-01-16 04:46:22.82	264.52	5.93	-44.0	-46.3	16.7	6.04e-01	0	33	0	519045120	56	4811
2026-01-16 04:46:23.83	264.44	5.86	-44.2	-46.6	16.6	6.05e-01	0	33	0	520617984	56	4961
2026-01-16 04:46:24.83	264.37	5.79	-44.2	-46.6	16.6	6.02e-01	0	33	0	522715136	56	4970
2026-01-16 04:46:25.84	264.29	5.72	-44.3	-46.7	16.6	6.04e-01	0	33	0	524288000	56	5040
2026-01-16 04:46:26.85	264.21	5.65	-44.4	-46.9	16.5	6.04e-01	0	33	0	526385152	57	4851
2026-01-16 04:46:27.86	264.13	5.58	-44.4	-46.8	16.6	6.03e-01	0	33	0	528482304	57	4796
2026-01-16 04:46:28.87	264.05	5.51	-44.3	-46.8	16.6	6.03e-01	0	33	0	530055168	57	4787
2026-01-16 04:46:29.88	263.98	5.44	-44.2	-46.7	16.6	6.05e-01	0	33	0	532152320	57	4713
2026-01-16 04:46:30.89	263.90	5.37	-44.0	-46.4	16.7	6.04e-01	0	33	0	534249472	56	4835
2026-01-16 04:46:31.90	263.82	5.30	-44.3	-46.7	16.5	6.04e-01	0	33	0	535822336	56	5030
2026-01-16 04:46:32.91	263.75	5.23	-44.3	-46.9	16.5	6.03e-01	0	33	0	537919488	56	5107
2026-01-16 04:46:33.92	263.67	5.16	-44.4	-47.0	16.5	6.04e-01	0	33	0	539492352	56	5188
2026-01-16 04:46:34.93	263.60	5.09	-44.3	-46.8	16.6	6.05e-01	0	33	0	541589504	56	5063
2026-01-16 04:46:35.94	263.52	5.02	-44.3	-46.8	16.5	6.04e-01	0	33	0	543686656	56	5056
2026-01-16 04:46:36.94	263.45	4.96	-49.6	-62.8	6.7	7.03e-01	80	33	0	545259520	66	18088
2026-01-16 04:46:37.95	263.38	4.89	-50.1	-69.0	3.8	7.45e-01	0	33	104	545259520	67	34755
2026-01-16 04:46:38.96	263.30	4.82	-50.4	-69.4	3.8	7.46e-01	0	33	104	545259520	68	34291
2026-01-16 04:46:39.97	263.23	4.75	-50.6	-69.6	3.8	7.46e-01	0	33	104	545259520	68	34983
2026-01-16 04:46:40.98	263.16	4.69	-50.7	-69.7	3.8	7.47e-01	0	33	104	545259520	69	33365
2026-01-16 04:46:41.99	263.08	4.62	-50.8	-69.8	3.8	7.43e-01	0	33	104	545259520	69	33785
2026-01-16 04:46:43.00	263.01	4.55	-50.9	-69.9	3.8	7.43e-01	0	33	104	545259520	69	34163
2026-01-16 04:46:44.01	262.94	4.48	-51.0	-70.0	3.8	7.44e-01	0	33	104	545259520	69	34496
2026-01-16 04:46:45.01	262.87	4.42	-51.0	-70.0	3.8	7.46e-01	0	33	104	545259520	69	34840
2026-01-16 04:46:46.02	262.80	4.35	-51.1	-70.1	3.8	7.47e-01	0	33	104	545259520	69	35013
2026-01-16 04:46:47.03	262.73	4.28	-51.1	-70.2	3.9	7.44e-01	0	33	104	545259520	70	33371
2026-01-16 04:46:48.04	262.66	4.22	-51.2	-70.2	3.8	7.46e-01	0	33	104	545259520	70	33490
2026-01-16 04:46:49.05	262.59	4.15	-51.2	-70.2	3.8	7.45e-01	0	33	104	545259520	70	33604
2026-01-16 04:46:50.06	262.52	4.08	-51.2	-70.2	3.8	7.48e-01	0	33	104	545259520	70	33648
2026-01-16 04:46:51.07	262.45	4.02	-51.3	-70.3	3.8	7.46e-01	0	33	104	545259520	70	33718
2026-01-16 04:46:52.08	262.38	3.95	-51.3	-70.3	3.8	7.47e-01	0	33	104	545259520	70	33861
2026-01-16 04:46:53.09	262.31	3.88	-51.3	-70.3	3.8	7.43e-01	0	33	104	545259520	70	33927
2026-01-16 04:46:54.10	262.25	3.82	-51.3	-70.3	3.8	7.44e-01	0	33	104	545259520	70	33973
2026-01-16 04:46:55.11	262.18	3.75	-51.3	-70.3	3.8	7.47e-01	0	34	104	545259520	70	34085
2026-01-16 04:46:56.12	262.11	3.69	-51.4	-70.4	3.8	7.45e-01	0	33	104	545259520	70	34173
2026-01-16 04:46:57.13	262.04	3.62	-51.4	-70.4	3.8	7.48e-01	0	33	104	545259520	70	34266
2026-01-16 04:46:58.14	261.98	3.56	-51.3	-70.3	3.8	7.43e-01	0	33	104	545259520	70	34026
2026-01-16 04:46:59.15	261.91	3.49	-51.3	-70.3	3.8	7.46e-01	0	33	104	545259520	70	33923
2026-01-16 04:47:00.16	261.85	3.43	-51.3	-70.3	3.8	7.45e-01	0	33	104	545259520	70	33782
2026-01-16 04:47:01.17	261.78	3.36	-51.2	-70.3	3.8	7.47e-01	0	33	104	545259520	70	33733
2026-01-16 04:47:02.18	261.71	3.30	-51.2	-70.3	3.8	7.47e-01	0	33	104	545259520	70	33733
2026-01-16 04:47:03.18	261.65	3.23	-51.2	-70.2	3.8	7.46e-01	0	33	104	545259520	70	33512
2026-01-16 04:47:04.19	261.59	3.17	-51.2	-70.2	3.8	7.47e-01	0	34	104	545259520	70	33624
2026-01-16 04:47:05.20	261.52	3.10	-51.2	-70.2	3.8	7.46e-01	0	33	104	545259520	70	33513
2026-01-16 04:47:06.21	261.46	3.04	-51.2	-70.2	3.8	7.43e-01	0	33	104	545259520	70	33506
2026-01-16 04:47:07.22	261.39	2.98	-51.2	-70.2	3.8	7.47e-01	0	33	104	545259520	70	33352
2026-01-16 04:47:08.23	261.33	2.91	-51.2	-70.2	3.8	7.46e-01	0	33	104	545259520	70	33386
2026-01-16 04:47:09.24	261.27	2.85	-51.1	-70.1	3.8	7.47e-01	0	33	104	545259520	70	33258
2026-01-16 04:47:10.25	261.20	2.78	-51.2	-70.2	3.8	7.42e-01	0	33	104	545259520	70	33416
2026-01-16 04:47:11.26	261.14	2.72	-51.1	-70.2	3.8	7.43e-01	0	33	104	545259520	70	33413
2026-01-16 04:47:12.27	261.08	2.66	-51.2	-70.2	3.8	7.43e-01	0	33	104	545259520	70	33426
2026-01-16 04:47:13.28	261.02	2.59	-51.2	-70.2	3.8	7.44e-01	0	33	104	545259520	70	33319
2026-01-16 04:47:14.29	260.96	2.53	-51.1	-70.1	3.8	7.46e-01	0	33	104	545259520	70	33292
2026-01-16 04:47:15.30	260.90	2.47	-51.1	-70.1	3.8	7.45e-01	0	33	104	545259520	70	33274
2026-01-16 04:47:16.30	260.84	2.40	-51.1	-70.1	3.8	7.45e-01	0	33	104	545259520	70	33254
2026-01-16 04:47:17.31	260.78	2.34	-51.1	-70.1	3.8	7.47e-01	0	33	104	545259520	70	33309
2026-01-16 04:47:18.32	260.72	2.28	-51.1	-70.1	3.8	7.44e-01	0	33	104	545259520	70	33137
2026-01-16 04:47:19.33	260.66	2.22	-51.1	-70.1	3.8	7.47e-01	0	33	104	545259520	70	33024
2026-01-16 04:47:20.34	260.60	2.15	-51.1	-70.1	3.8	7.49e-01	0	33	104	545259520	70	33147
2026-01-16 04:47:21.35	260.54	2.09	-51.1	-70.1	3.8	7.46e-01	0	33	104	545259520	70	32968
2026-01-16 04:47:22.36	260.48	2.03	-51.1	-70.1	3.8	7.48e-01	0	33	104	545259520	70	33140
2026-01-16 04:47:23.37	260.42	1.97	-51.1	-70.1	3.8	7.48e-01	0	33	104	545259520	70	33011
2026-01-16 04:47:24.38	260.36	1.91	-51.1	-70.1	3.8	7.45e-01	0	33	104	545259520	70	32942
2026-01-16 04:47:25.39	260.30	1.84	-51.1	-70.1	3.8	7.46e-01	0	34	104	545259520	70	33003

#Closed at: 2026-01-16 04:47:25
#Recorded file [545 MB]: D:/lorett/data/31004_260116_073537.dat