passes_logs/2026/01/16/R3.2S_Murmansk_2ch/R3.2S_Murmansk_2ch__20260116_075046_NOAA_20_JPSS-1_rec.log

#Pass ID: 20260116_075046_NOAA 20 (JPSS-1)
#Satellite: NOAA 20 (JPSS-1)
#Configuration: NOAA 20
#almurnet v.1.7.20251203
#Start time: 2026-01-16 07:50:45

#Version: 2.2.20231116
#Station: R3.2S_Murmansk_2ch
#Location: 33.079688 lon 68.888172 lat
#TLE: 1 43013U 17073A   26015.89389188  .00000026  00000+0  33113-4 0  9999
#TLE: 2 43013  98.7636 316.8238 0001460  37.8997 322.2282 14.19536128422860

#Time	Az	El	Level	Level2	SNR	BER	BlckErr	Temp	State	Recorded	gain1	gain2
2026-01-16 07:50:45.83	112.93	1.98	-49.9	-66.0	3.8	1.49e+00	0	31	0	0	66	22449
2026-01-16 07:50:46.84	112.90	2.04	-49.8	-66.0	3.8	1.49e+00	0	31	104	0	64	25060
2026-01-16 07:50:47.85	112.86	2.10	-49.8	-66.0	3.8	1.49e+00	0	31	104	0	64	25064
2026-01-16 07:50:48.86	112.82	2.17	-49.8	-66.0	3.8	1.49e+00	0	31	104	0	64	25039
2026-01-16 07:50:49.87	112.79	2.23	-49.8	-66.0	3.8	1.49e+00	0	31	104	0	64	25111
2026-01-16 07:50:50.88	112.75	2.29	-49.8	-66.0	3.8	1.49e+00	0	32	104	0	64	25080
2026-01-16 07:50:51.89	112.71	2.36	-49.8	-66.0	3.8	1.49e+00	0	32	104	0	64	25041
2026-01-16 07:50:52.90	112.67	2.42	-49.8	-66.0	3.8	1.49e+00	0	32	104	0	64	25001
2026-01-16 07:50:53.91	112.64	2.48	-49.8	-65.9	3.8	1.49e+00	0	31	104	0	64	24859
2026-01-16 07:50:54.91	112.60	2.55	-49.8	-65.9	3.8	1.49e+00	0	32	104	0	64	24814
2026-01-16 07:50:55.92	112.56	2.61	-49.8	-65.9	3.8	1.49e+00	0	32	104	0	64	24823
2026-01-16 07:50:56.93	112.52	2.67	-49.8	-65.8	3.8	1.49e+00	0	32	104	0	64	24606
2026-01-16 07:50:57.93	112.48	2.74	-49.8	-65.8	3.8	1.49e+00	0	32	104	0	64	24531
2026-01-16 07:50:58.94	112.44	2.80	-49.8	-65.7	3.8	1.49e+00	0	32	104	0	64	24323
2026-01-16 07:50:59.95	112.40	2.87	-49.8	-65.7	3.8	1.49e+00	0	32	104	0	64	24210
2026-01-16 07:51:00.96	112.36	2.93	-49.8	-65.6	3.8	1.49e+00	0	32	104	0	64	24057
2026-01-16 07:51:01.96	112.32	2.99	-49.8	-65.5	3.8	1.49e+00	0	32	104	0	64	23622
2026-01-16 07:51:02.97	112.29	3.06	-49.8	-65.7	3.8	1.49e+00	0	32	104	0	64	24320
2026-01-16 07:51:03.98	112.25	3.12	-49.8	-65.7	3.8	1.49e+00	0	32	104	0	64	24202
2026-01-16 07:51:04.99	112.21	3.19	-49.8	-65.6	3.8	1.49e+00	0	32	104	0	64	23886
2026-01-16 07:51:05.99	112.17	3.25	-49.8	-65.6	3.8	1.49e+00	0	32	104	0	64	23963
2026-01-16 07:51:07.00	112.12	3.32	-49.8	-65.6	3.8	1.49e+00	0	32	104	0	64	24002
2026-01-16 07:51:08.01	112.08	3.38	-49.8	-65.6	3.8	1.49e+00	0	32	104	0	64	24002
2026-01-16 07:51:09.01	112.04	3.45	-49.8	-65.7	3.8	1.49e+00	0	32	104	0	64	24212
2026-01-16 07:51:10.02	112.00	3.51	-49.9	-65.7	3.8	1.49e+00	0	32	104	0	64	24340
2026-01-16 07:51:11.03	111.96	3.58	-49.8	-65.8	3.8	1.49e+00	0	32	104	0	64	24542
2026-01-16 07:51:12.04	111.92	3.64	-49.8	-65.9	3.8	1.49e+00	0	32	104	0	64	24934
2026-01-16 07:51:13.05	111.88	3.71	-49.9	-66.0	3.8	1.49e+00	0	32	104	0	64	25040
2026-01-16 07:51:14.06	111.84	3.78	-49.8	-65.8	3.8	1.49e+00	0	32	104	0	64	24686
2026-01-16 07:51:15.06	111.79	3.84	-49.9	-65.4	3.8	1.49e+00	0	32	104	0	64	23470
2026-01-16 07:51:16.07	111.75	3.91	-49.8	-64.5	3.8	1.49e+00	0	32	104	0	64	21241
2026-01-16 07:51:17.07	111.71	3.97	-49.8	-63.8	3.9	1.49e+00	0	32	104	0	64	19403
2026-01-16 07:51:18.08	111.67	4.04	-49.7	-63.0	4.1	1.45e+00	0	32	0	0	64	17711
2026-01-16 07:51:19.09	111.62	4.11	-49.6	-61.5	4.5	1.36e+00	10	32	0	0	64	14979
2026-01-16 07:51:20.10	111.58	4.17	-49.6	-61.0	4.7	8.74e-01	0	32	0	2097152	64	14085
2026-01-16 07:51:21.11	111.54	4.24	-49.5	-59.9	5.3	5.37e-01	0	32	0	4194304	64	12458
2026-01-16 07:51:22.12	111.49	4.31	-49.4	-59.5	5.5	5.39e-01	0	32	0	6291456	64	11863
2026-01-16 07:51:23.12	111.45	4.38	-49.4	-59.3	5.6	4.49e-01	0	32	0	7340032	64	11550
2026-01-16 07:51:24.13	111.41	4.44	-49.3	-58.3	6.3	2.65e-01	0	32	0	9437184	64	10320
2026-01-16 07:51:25.14	111.36	4.51	-49.2	-58.0	6.5	2.01e-01	0	32	0	11534336	64	9950
2026-01-16 07:51:26.15	111.32	4.58	-49.1	-57.1	7.3	1.77e-01	0	32	0	13631488	64	9053
2026-01-16 07:51:27.16	111.27	4.65	-49.1	-57.0	7.3	1.14e-01	0	32	0	15728640	64	8911
2026-01-16 07:51:28.17	111.23	4.72	-48.9	-56.4	7.9	6.24e-02	0	32	0	16777216	64	8294
2026-01-16 07:51:29.18	111.18	4.78	-48.9	-56.4	7.9	6.18e-02	0	32	0	18874368	64	8315
2026-01-16 07:51:30.19	111.14	4.85	-48.8	-55.9	8.3	3.08e-02	0	32	0	20971520	64	7827
2026-01-16 07:51:31.20	111.09	4.92	-48.7	-55.5	8.7	2.37e-02	0	32	0	23068672	64	7496
2026-01-16 07:51:32.21	111.05	4.99	-48.7	-55.1	9.1	1.26e-02	0	32	0	25165824	63	7595
2026-01-16 07:51:33.21	111.00	5.06	-48.7	-55.0	9.2	1.25e-02	0	32	0	26214400	63	7516
2026-01-16 07:51:34.22	110.96	5.13	-49.5	-59.3	5.7	1.54e-01	0	33	0	28311552	64	11632
2026-01-16 07:51:35.23	110.91	5.20	-49.2	-57.1	7.4	1.59e-01	0	32	0	30408704	64	9013
2026-01-16 07:51:36.24	110.86	5.27	-49.4	-58.0	6.7	7.24e-02	0	32	0	32505856	64	10048
2026-01-16 07:51:37.25	110.82	5.34	-47.2	-50.9	12.8	1.22e-05	0	32	0	34603008	60	5571
2026-01-16 07:51:38.26	110.77	5.41	-50.0	-65.6	3.8	3.08e-01	0	32	104	35651584	65	22607
2026-01-16 07:51:39.27	110.72	5.48	-47.1	-50.7	12.9	1.10e+00	0	33	0	35651584	60	5442
2026-01-16 07:51:40.28	110.67	5.55	-47.0	-50.5	13.0	0.00e+00	0	32	0	37748736	60	5329
2026-01-16 07:51:41.29	110.62	5.62	-47.0	-50.4	13.1	0.00e+00	0	33	0	39845888	60	5271
2026-01-16 07:51:42.30	110.58	5.69	-46.9	-50.4	13.1	0.00e+00	0	32	0	40894464	60	5247
2026-01-16 07:51:43.30	110.53	5.76	-46.9	-50.4	13.2	0.00e+00	0	33	0	42991616	60	5249
2026-01-16 07:51:44.31	110.48	5.83	-47.0	-50.6	13.1	0.00e+00	0	33	0	45088768	60	5347
2026-01-16 07:51:45.32	110.43	5.90	-46.9	-50.3	13.3	7.00e-07	0	33	0	47185920	60	5181
2026-01-16 07:51:46.33	110.38	5.97	-46.9	-50.3	13.3	0.00e+00	0	33	0	49283072	60	5169
2026-01-16 07:51:47.34	110.33	6.04	-46.9	-50.3	13.3	0.00e+00	0	33	0	50331648	60	5192
2026-01-16 07:51:48.35	110.28	6.11	-46.9	-50.3	13.2	0.00e+00	0	33	0	52428800	60	5195
2026-01-16 07:51:49.36	110.23	6.18	-46.8	-50.1	13.4	0.00e+00	0	32	0	54525952	60	5062
2026-01-16 07:51:50.37	110.18	6.26	-47.0	-50.4	13.2	7.00e-07	0	33	0	56623104	60	5247
2026-01-16 07:51:51.38	110.13	6.33	-46.8	-50.1	13.4	0.00e+00	0	33	0	58720256	60	5076
2026-01-16 07:51:52.38	110.08	6.40	-47.1	-50.7	13.0	0.00e+00	0	33	0	59768832	60	5419
2026-01-16 07:51:53.39	110.03	6.47	-47.1	-50.6	13.1	0.00e+00	0	32	0	61865984	60	5347
2026-01-16 07:51:54.40	109.98	6.54	-46.8	-50.2	13.4	0.00e+00	0	33	0	63963136	60	5101
2026-01-16 07:51:55.41	109.93	6.62	-46.8	-50.0	13.5	0.00e+00	0	33	0	66060288	60	5009
2026-01-16 07:51:56.42	109.88	6.69	-47.0	-50.3	13.6	0.00e+00	0	33	0	68157440	59	5469
2026-01-16 07:51:57.42	109.82	6.76	-46.8	-50.0	13.8	0.00e+00	0	32	0	69206016	59	5288
2026-01-16 07:51:58.43	109.77	6.84	-46.9	-50.1	13.7	0.00e+00	0	33	0	71303168	59	5389
2026-01-16 07:51:59.44	109.72	6.91	-46.7	-49.8	13.9	0.00e+00	0	33	0	73400320	59	5204
2026-01-16 07:52:00.45	109.67	6.98	-46.9	-50.1	13.7	0.00e+00	0	33	0	75497472	59	5378
2026-01-16 07:52:01.46	109.61	7.06	-46.7	-49.8	13.9	0.00e+00	0	33	0	77594624	59	5175
2026-01-16 07:52:02.47	109.56	7.13	-46.6	-49.6	14.1	0.00e+00	0	33	0	78643200	59	5092
2026-01-16 07:52:03.48	109.51	7.20	-46.8	-50.0	13.8	0.00e+00	0	33	0	80740352	59	5289
2026-01-16 07:52:04.49	109.45	7.28	-46.7	-49.7	14.0	0.00e+00	0	33	0	82837504	59	5122
2026-01-16 07:52:05.50	109.40	7.35	-46.5	-49.4	14.2	0.00e+00	0	33	0	84934656	59	4978
2026-01-16 07:52:06.51	109.34	7.43	-46.5	-49.4	14.2	0.00e+00	0	33	0	87031808	59	4934
2026-01-16 07:52:07.51	109.29	7.50	-46.5	-49.4	14.2	0.00e+00	0	33	0	88080384	59	4981
2026-01-16 07:52:08.52	109.23	7.58	-46.7	-49.7	14.1	0.00e+00	0	33	0	90177536	59	5107
2026-01-16 07:52:09.53	109.18	7.65	-46.5	-49.4	14.2	0.00e+00	0	33	0	92274688	59	4932
2026-01-16 07:52:10.54	109.12	7.73	-46.4	-49.3	14.3	0.00e+00	0	33	0	94371840	59	4891
2026-01-16 07:52:11.55	109.07	7.80	-46.5	-49.4	14.2	0.00e+00	0	33	0	96468992	59	4952
2026-01-16 07:52:12.56	109.01	7.88	-46.5	-49.3	14.3	0.00e+00	0	33	0	97517568	59	4894
2026-01-16 07:52:13.57	108.95	7.96	-46.3	-49.0	14.5	0.00e+00	0	33	0	99614720	59	4756
2026-01-16 07:52:14.58	108.90	8.03	-46.4	-49.2	14.4	0.00e+00	0	33	0	101711872	59	4828
2026-01-16 07:52:15.59	108.84	8.11	-46.5	-49.3	14.3	0.00e+00	0	33	0	103809024	59	4903
2026-01-16 07:52:16.60	108.78	8.19	-46.4	-49.2	14.4	0.00e+00	0	33	0	105906176	59	4846
2026-01-16 07:52:17.60	108.72	8.26	-46.3	-49.0	14.5	0.00e+00	0	33	0	108003328	59	4749
2026-01-16 07:52:18.62	108.66	8.34	-46.4	-49.1	14.4	0.00e+00	0	33	0	109051904	59	4812
2026-01-16 07:52:19.63	108.60	8.42	-46.3	-49.0	14.5	0.00e+00	0	33	0	111149056	59	4723
2026-01-16 07:52:20.64	108.55	8.50	-46.3	-49.0	14.5	0.00e+00	0	33	0	113246208	59	4743
2026-01-16 07:52:21.64	108.49	8.57	-46.3	-49.0	14.5	0.00e+00	0	33	0	115343360	59	4712
2026-01-16 07:52:22.65	108.43	8.65	-46.3	-49.1	14.5	0.00e+00	0	33	0	117440512	59	4765
2026-01-16 07:52:23.66	108.37	8.73	-46.2	-48.8	14.7	0.00e+00	0	33	0	118489088	58	4901
2026-01-16 07:52:24.67	108.31	8.81	-46.2	-48.9	14.6	0.00e+00	0	33	0	120586240	58	4951
2026-01-16 07:52:25.68	108.25	8.89	-46.1	-48.8	14.7	0.00e+00	0	33	0	122683392	58	4883
2026-01-16 07:52:26.69	108.18	8.97	-46.3	-48.9	14.6	0.00e+00	0	33	0	124780544	58	4976
2026-01-16 07:52:27.70	108.12	9.04	-46.1	-48.7	14.7	0.00e+00	0	33	0	126877696	58	4834
2026-01-16 07:52:28.71	108.06	9.12	-46.1	-48.8	14.7	0.00e+00	0	33	0	127926272	58	4880
2026-01-16 07:52:29.72	108.00	9.20	-45.9	-48.4	14.9	0.00e+00	0	33	0	130023424	58	4674
2026-01-16 07:52:30.73	107.94	9.28	-46.1	-48.7	14.7	0.00e+00	0	33	0	132120576	58	4849
2026-01-16 07:52:31.74	107.87	9.36	-46.0	-48.5	14.8	0.00e+00	0	33	0	134217728	58	4758
2026-01-16 07:52:32.75	107.81	9.44	-46.0	-48.6	14.8	0.00e+00	0	33	0	136314880	58	4764
2026-01-16 07:52:33.76	107.75	9.52	-46.0	-48.5	14.8	0.00e+00	0	33	0	137363456	58	4737
2026-01-16 07:52:34.77	107.68	9.60	-46.0	-48.5	14.9	0.00e+00	0	33	0	139460608	58	4722
2026-01-16 07:52:35.77	107.62	9.68	-45.9	-48.4	14.9	0.00e+00	0	33	0	141557760	58	4657
2026-01-16 07:52:36.79	107.55	9.77	-46.0	-48.6	14.9	0.00e+00	0	33	0	143654912	58	4760
2026-01-16 07:52:37.79	107.49	9.85	-45.9	-48.4	14.9	0.00e+00	0	33	0	145752064	58	4679
2026-01-16 07:52:38.80	107.42	9.93	-46.0	-48.5	14.9	0.00e+00	0	33	0	146800640	58	4715
2026-01-16 07:52:39.81	107.36	10.01	-45.8	-48.3	15.0	0.00e+00	0	33	0	148897792	58	4607
2026-01-16 07:52:40.82	107.29	10.09	-45.9	-48.4	15.0	0.00e+00	0	33	0	150994944	58	4677
2026-01-16 07:52:41.83	107.23	10.18	-46.0	-48.6	14.8	0.00e+00	0	33	0	153092096	58	4770
2026-01-16 07:52:42.84	107.16	10.26	-46.1	-48.6	14.8	0.00e+00	0	33	0	155189248	58	4791
2026-01-16 07:52:43.85	107.09	10.34	-46.0	-48.4	14.9	0.00e+00	0	33	0	156237824	58	4696
2026-01-16 07:52:44.86	107.02	10.42	-46.0	-48.5	14.9	0.00e+00	0	33	0	158334976	58	4752
2026-01-16 07:52:45.86	106.96	10.51	-45.9	-48.4	15.0	0.00e+00	0	33	0	160432128	58	4680
2026-01-16 07:52:46.87	106.89	10.59	-45.9	-48.4	14.9	0.00e+00	0	33	0	162529280	58	4654
2026-01-16 07:52:47.88	106.82	10.67	-46.0	-48.5	14.9	0.00e+00	0	33	0	164626432	58	4709
2026-01-16 07:52:48.89	106.75	10.76	-46.0	-48.6	14.9	0.00e+00	0	33	0	165675008	58	4766
2026-01-16 07:52:49.90	106.68	10.84	-46.2	-48.8	14.7	0.00e+00	0	33	0	167772160	58	4885
2026-01-16 07:52:50.91	106.61	10.93	-46.1	-48.6	14.8	0.00e+00	0	33	0	169869312	58	4803
2026-01-16 07:52:51.92	106.54	11.01	-46.2	-48.7	14.8	0.00e+00	0	33	0	171966464	58	4865
2026-01-16 07:52:52.93	106.47	11.10	-46.2	-48.7	14.7	0.00e+00	0	33	0	174063616	58	4870
2026-01-16 07:52:53.94	106.39	11.18	-46.0	-48.5	14.9	0.00e+00	0	33	0	176160768	58	4735
2026-01-16 07:52:54.95	106.32	11.27	-45.9	-48.3	15.0	0.00e+00	0	33	0	177209344	58	4644
2026-01-16 07:52:55.96	106.25	11.35	-45.9	-48.4	15.0	0.00e+00	0	33	0	179306496	58	4657
2026-01-16 07:52:56.96	106.18	11.44	-46.0	-48.4	15.0	0.00e+00	0	33	0	181403648	58	4689
2026-01-16 07:52:57.97	106.10	11.52	-46.0	-48.5	14.9	0.00e+00	0	33	0	183500800	58	4740
2026-01-16 07:52:58.98	106.03	11.61	-46.0	-48.5	14.9	0.00e+00	0	33	0	184549376	58	4720
2026-01-16 07:52:59.99	105.96	11.70	-45.9	-48.3	15.1	0.00e+00	0	33	0	186646528	58	4647
2026-01-16 07:53:01.00	105.88	11.78	-46.0	-48.5	14.9	0.00e+00	0	33	0	188743680	58	4744
2026-01-16 07:53:02.01	105.81	11.87	-46.1	-48.6	14.9	0.00e+00	0	33	0	190840832	58	4769
2026-01-16 07:53:03.02	105.73	11.96	-46.0	-48.5	14.9	0.00e+00	0	33	0	192937984	58	4749
2026-01-16 07:53:04.03	105.65	12.05	-46.0	-48.4	15.0	0.00e+00	0	33	0	193986560	58	4680
2026-01-16 07:53:05.03	105.58	12.13	-46.0	-48.4	15.0	0.00e+00	0	33	0	196083712	58	4697
2026-01-16 07:53:06.04	105.50	12.22	-46.1	-48.5	14.9	0.00e+00	0	33	0	198180864	58	4756
2026-01-16 07:53:07.05	105.42	12.31	-45.9	-48.3	15.0	0.00e+00	0	33	0	200278016	58	4646
2026-01-16 07:53:08.06	105.35	12.40	-45.8	-48.2	15.1	0.00e+00	0	33	0	202375168	58	4586
2026-01-16 07:53:09.07	105.27	12.49	-45.8	-48.2	15.1	0.00e+00	0	33	0	204472320	58	4589
2026-01-16 07:53:10.08	105.19	12.58	-45.9	-48.3	15.1	0.00e+00	0	33	0	205520896	58	4625
2026-01-16 07:53:11.09	105.11	12.67	-45.9	-48.3	15.1	0.00e+00	0	33	0	207618048	58	4612
2026-01-16 07:53:12.10	105.03	12.76	-45.9	-48.4	15.0	0.00e+00	0	33	0	209715200	58	4653
2026-01-16 07:53:13.11	104.95	12.85	-45.9	-48.3	15.1	0.00e+00	0	33	0	211812352	58	4643
2026-01-16 07:53:14.12	104.87	12.94	-45.9	-48.2	15.1	0.00e+00	0	33	0	213909504	58	4593
2026-01-16 07:53:15.13	104.79	13.03	-45.9	-48.2	15.1	0.00e+00	0	33	0	214958080	58	4591
2026-01-16 07:53:16.14	104.70	13.12	-45.8	-48.2	15.1	0.00e+00	0	33	0	217055232	58	4574
2026-01-16 07:53:17.14	104.62	13.21	-45.8	-48.1	15.2	0.00e+00	0	33	0	219152384	58	4516
2026-01-16 07:53:18.15	104.54	13.30	-45.7	-48.0	15.2	0.00e+00	0	33	0	221249536	58	4471
2026-01-16 07:53:19.16	104.46	13.39	-45.7	-48.1	15.2	0.00e+00	0	33	0	223346688	58	4501
2026-01-16 07:53:20.17	104.37	13.48	-45.8	-48.2	15.2	0.00e+00	0	33	0	224395264	58	4548
2026-01-16 07:53:21.18	104.29	13.58	-45.8	-48.2	15.1	0.00e+00	0	33	0	226492416	58	4584
2026-01-16 07:53:22.19	104.20	13.67	-45.9	-48.3	15.1	0.00e+00	0	33	0	228589568	58	4630
2026-01-16 07:53:23.20	104.12	13.76	-45.9	-48.3	15.1	0.00e+00	0	33	0	230686720	58	4620
2026-01-16 07:53:24.21	104.03	13.86	-45.9	-48.3	15.1	0.00e+00	0	33	0	232783872	58	4606
2026-01-16 07:53:25.22	103.94	13.95	-45.9	-48.3	15.1	0.00e+00	0	33	0	233832448	58	4630
2026-01-16 07:53:26.23	103.85	14.04	-45.8	-48.2	15.2	0.00e+00	0	33	0	235929600	58	4575
2026-01-16 07:53:27.24	103.77	14.14	-45.8	-48.2	15.2	0.00e+00	0	33	0	238026752	58	4579
2026-01-16 07:53:28.25	103.68	14.23	-45.9	-48.3	15.1	0.00e+00	0	33	0	240123904	58	4610
2026-01-16 07:53:29.26	103.59	14.33	-45.8	-48.2	15.2	0.00e+00	0	33	0	242221056	58	4561
2026-01-16 07:53:30.26	103.50	14.42	-45.8	-48.2	15.1	0.00e+00	0	33	0	243269632	58	4575
2026-01-16 07:53:31.27	103.41	14.52	-45.8	-48.1	15.2	0.00e+00	0	33	0	245366784	58	4503
2026-01-16 07:53:32.28	103.32	14.61	-45.8	-48.2	15.2	0.00e+00	0	33	0	247463936	58	4548
2026-01-16 07:53:33.29	103.23	14.71	-45.8	-48.1	15.2	0.00e+00	0	33	0	249561088	58	4529
2026-01-16 07:53:34.30	103.13	14.80	-45.9	-48.3	15.1	0.00e+00	0	33	0	251658240	58	4620
2026-01-16 07:53:35.31	103.04	14.90	-45.9	-48.3	15.1	0.00e+00	0	33	0	252706816	58	4627
2026-01-16 07:53:36.32	102.95	15.00	-45.8	-48.2	15.2	0.00e+00	0	33	0	254803968	58	4572
2026-01-16 07:53:37.33	102.85	15.09	-45.7	-48.0	15.3	0.00e+00	0	33	0	256901120	58	4461
2026-01-16 07:53:38.34	102.76	15.19	-45.7	-48.0	15.3	0.00e+00	0	33	0	258998272	57	4736
2026-01-16 07:53:39.35	102.66	15.29	-45.6	-47.9	15.3	0.00e+00	0	33	0	261095424	57	4655
2026-01-16 07:53:40.36	102.57	15.39	-45.7	-47.9	15.3	0.00e+00	0	33	0	262144000	57	4694
2026-01-16 07:53:41.36	102.47	15.48	-45.6	-47.8	15.4	0.00e+00	0	33	0	264241152	57	4635
2026-01-16 07:53:42.37	102.37	15.58	-45.6	-47.9	15.4	0.00e+00	0	33	0	266338304	57	4655
2026-01-16 07:53:43.38	102.28	15.68	-45.6	-47.8	15.4	0.00e+00	0	33	0	268435456	57	4618
2026-01-16 07:53:44.39	102.18	15.78	-45.6	-47.8	15.3	0.00e+00	0	33	0	270532608	57	4650
2026-01-16 07:53:45.40	102.08	15.88	-45.6	-47.9	15.3	0.00e+00	0	33	0	272629760	57	4674
2026-01-16 07:53:46.41	101.98	15.98	-45.6	-47.8	15.4	0.00e+00	0	33	0	273678336	57	4614
2026-01-16 07:53:47.42	101.88	16.08	-45.5	-47.7	15.5	0.00e+00	0	33	0	275775488	57	4549
2026-01-16 07:53:48.43	101.77	16.18	-45.5	-47.7	15.4	0.00e+00	0	33	0	277872640	57	4597
2026-01-16 07:53:49.44	101.67	16.28	-45.5	-47.7	15.4	0.00e+00	0	33	0	279969792	57	4571
2026-01-16 07:53:50.45	101.57	16.38	-45.5	-47.7	15.5	0.00e+00	0	33	0	282066944	57	4558
2026-01-16 07:53:51.45	101.47	16.48	-45.5	-47.7	15.5	0.00e+00	0	33	0	283115520	57	4581
2026-01-16 07:53:52.47	101.36	16.59	-45.5	-47.7	15.5	0.00e+00	0	33	0	285212672	57	4566
2026-01-16 07:53:53.47	101.26	16.69	-45.6	-47.9	15.4	0.00e+00	0	33	0	287309824	57	4663
2026-01-16 07:53:54.48	101.15	16.79	-45.6	-47.8	15.4	0.00e+00	0	33	0	289406976	57	4632
2026-01-16 07:53:55.49	101.05	16.89	-45.5	-47.7	15.5	0.00e+00	0	33	0	291504128	57	4556
2026-01-16 07:53:56.50	100.94	17.00	-45.6	-47.8	15.4	0.00e+00	0	33	0	292552704	57	4603
2026-01-16 07:53:57.51	100.83	17.10	-45.6	-47.8	15.4	0.00e+00	0	33	0	294649856	57	4637
2026-01-16 07:53:58.52	100.72	17.20	-45.6	-47.8	15.4	0.00e+00	0	33	0	296747008	57	4603
2026-01-16 07:53:59.53	100.61	17.31	-45.6	-47.8	15.4	0.00e+00	0	33	0	298844160	57	4645
2026-01-16 07:54:00.54	100.50	17.41	-45.4	-47.6	15.5	0.00e+00	0	33	0	300941312	57	4505
2026-01-16 07:54:01.55	100.39	17.52	-45.5	-47.7	15.5	0.00e+00	0	33	0	301989888	57	4547
2026-01-16 07:54:02.56	100.28	17.62	-45.6	-47.8	15.5	0.00e+00	0	33	0	304087040	57	4617
2026-01-16 07:54:03.57	100.17	17.73	-45.6	-47.8	15.5	0.00e+00	0	33	0	306184192	57	4604
2026-01-16 07:54:04.58	100.05	17.83	-45.6	-47.8	15.5	0.00e+00	0	33	0	308281344	57	4600
2026-01-16 07:54:05.59	99.94	17.94	-45.5	-47.7	15.5	0.00e+00	0	33	0	310378496	57	4554
2026-01-16 07:54:06.60	99.82	18.05	-45.5	-47.7	15.5	0.00e+00	0	33	0	311427072	57	4548
2026-01-16 07:54:07.60	99.71	18.15	-45.5	-47.7	15.5	0.00e+00	0	33	0	313524224	57	4581
2026-01-16 07:54:08.61	99.59	18.26	-45.5	-47.7	15.5	0.00e+00	0	33	0	315621376	57	4575
2026-01-16 07:54:09.62	99.47	18.37	-45.5	-47.7	15.5	0.00e+00	0	33	0	317718528	57	4569
2026-01-16 07:54:10.63	99.35	18.48	-45.7	-47.9	15.4	0.00e+00	0	33	0	319815680	57	4686
2026-01-16 07:54:11.64	99.23	18.58	-45.7	-47.9	15.4	0.00e+00	0	33	0	320864256	57	4695
2026-01-16 07:54:12.65	99.11	18.69	-45.6	-47.8	15.4	0.00e+00	0	33	0	322961408	57	4624
2026-01-16 07:54:13.66	98.99	18.80	-45.6	-47.8	15.5	0.00e+00	0	33	0	325058560	57	4618
2026-01-16 07:54:14.67	98.87	18.91	-45.5	-47.7	15.5	0.00e+00	0	33	0	327155712	57	4586
2026-01-16 07:54:15.68	98.75	19.02	-45.6	-47.8	15.5	0.00e+00	0	33	0	329252864	57	4603
2026-01-16 07:54:16.69	98.62	19.13	-45.5	-47.7	15.5	0.00e+00	0	33	0	330301440	57	4587
2026-01-16 07:54:17.69	98.50	19.24	-45.5	-47.6	15.5	0.00e+00	0	33	0	332398592	57	4534
2026-01-16 07:54:18.70	98.38	19.35	-45.4	-47.6	15.6	0.00e+00	0	33	0	334495744	57	4507
2026-01-16 07:54:19.71	98.25	19.46	-45.5	-47.7	15.5	0.00e+00	0	33	0	336592896	57	4560
2026-01-16 07:54:20.72	98.12	19.57	-45.5	-47.7	15.5	0.00e+00	0	33	0	338690048	57	4569
2026-01-16 07:54:21.73	97.99	19.68	-45.6	-47.8	15.5	0.00e+00	0	33	0	339738624	57	4603
2026-01-16 07:54:22.74	97.86	19.80	-45.4	-47.6	15.6	0.00e+00	0	33	0	341835776	57	4513
2026-01-16 07:54:23.75	97.73	19.91	-45.5	-47.7	15.5	0.00e+00	0	33	0	343932928	57	4554
2026-01-16 07:54:24.76	97.60	20.02	-45.5	-47.7	15.5	0.00e+00	0	33	0	346030080	57	4575
2026-01-16 07:54:25.77	97.47	20.13	-45.6	-47.8	15.4	0.00e+00	0	33	0	348127232	57	4625
2026-01-16 07:54:26.78	97.33	20.25	-45.4	-47.5	15.6	0.00e+00	0	33	0	349175808	57	4489
2026-01-16 07:54:27.79	97.20	20.36	-45.5	-47.6	15.6	0.00e+00	0	33	0	351272960	57	4524
2026-01-16 07:54:28.80	97.06	20.48	-45.5	-47.6	15.6	0.00e+00	0	33	0	353370112	57	4529
2026-01-16 07:54:29.80	96.93	20.59	-45.6	-47.8	15.5	0.00e+00	0	33	0	355467264	57	4602
2026-01-16 07:54:30.82	96.79	20.70	-45.5	-47.6	15.6	0.00e+00	0	33	0	357564416	57	4540
2026-01-16 07:54:31.82	96.65	20.82	-45.6	-47.8	15.5	0.00e+00	0	33	0	358612992	57	4614
2026-01-16 07:54:32.83	96.51	20.93	-45.6	-47.7	15.5	0.00e+00	0	33	0	360710144	57	4590
2026-01-16 07:54:33.84	96.37	21.05	-45.7	-47.9	15.4	0.00e+00	0	33	0	362807296	57	4702
2026-01-16 07:54:34.85	96.23	21.17	-45.7	-48.0	15.4	0.00e+00	0	33	0	364904448	57	4706
2026-01-16 07:54:35.86	96.09	21.28	-45.8	-48.1	15.4	0.00e+00	0	33	0	367001600	57	4764
2026-01-16 07:54:36.87	95.94	21.40	-45.9	-48.2	15.3	0.00e+00	0	33	0	369098752	57	4820
2026-01-16 07:54:37.88	95.80	21.52	-45.8	-48.1	15.4	0.00e+00	0	33	0	370147328	57	4769
2026-01-16 07:54:38.89	95.65	21.63	-45.9	-48.1	15.3	0.00e+00	0	33	0	372244480	57	4807
2026-01-16 07:54:39.90	95.51	21.75	-45.8	-48.1	15.3	0.00e+00	0	33	0	374341632	57	4798
2026-01-16 07:54:40.91	95.36	21.87	-45.9	-48.2	15.3	0.00e+00	0	33	0	376438784	57	4836
2026-01-16 07:54:41.91	95.21	21.99	-46.0	-48.3	15.2	0.00e+00	0	33	0	378535936	57	4887
2026-01-16 07:54:42.92	95.06	22.11	-46.0	-48.3	15.2	0.00e+00	0	33	0	379584512	57	4925
2026-01-16 07:54:43.93	94.91	22.23	-46.0	-48.4	15.2	0.00e+00	0	33	0	381681664	57	4934
2026-01-16 07:54:44.94	94.75	22.35	-46.1	-48.4	15.2	0.00e+00	0	33	0	383778816	57	4956
2026-01-16 07:54:45.95	94.60	22.47	-45.9	-48.2	15.3	0.00e+00	0	33	0	385875968	57	4863
2026-01-16 07:54:46.96	94.44	22.59	-46.0	-48.3	15.3	0.00e+00	0	33	0	387973120	57	4883
2026-01-16 07:54:47.97	94.29	22.71	-46.0	-48.3	15.3	0.00e+00	0	33	0	389021696	57	4884
2026-01-16 07:54:48.98	94.13	22.83	-46.0	-48.3	15.3	0.00e+00	0	33	0	391118848	57	4886
2026-01-16 07:54:49.99	93.97	22.95	-46.1	-48.4	15.2	0.00e+00	0	33	0	393216000	57	4941
2026-01-16 07:54:51.00	93.81	23.07	-46.1	-48.4	15.2	0.00e+00	0	33	0	395313152	57	4972
2026-01-16 07:54:52.01	93.65	23.19	-46.1	-48.5	15.2	0.00e+00	0	33	0	397410304	57	4992
2026-01-16 07:54:53.02	93.48	23.31	-46.0	-48.3	15.2	0.00e+00	0	33	0	398458880	57	4912
2026-01-16 07:54:54.02	93.32	23.44	-46.0	-48.3	15.2	0.00e+00	0	33	0	400556032	57	4924
2026-01-16 07:54:55.04	93.15	23.56	-46.1	-48.5	15.2	0.00e+00	0	33	0	402653184	57	4984
2026-01-16 07:54:56.04	92.99	23.68	-46.0	-48.4	15.2	0.00e+00	0	33	0	404750336	57	4937
2026-01-16 07:54:57.05	92.82	23.80	-45.9	-48.2	15.3	0.00e+00	0	33	0	406847488	57	4831
2026-01-16 07:54:58.06	92.65	23.93	-45.9	-48.1	15.4	0.00e+00	0	33	0	407896064	57	4797
2026-01-16 07:54:59.07	92.48	24.05	-45.9	-48.1	15.4	0.00e+00	0	33	0	409993216	57	4808
2026-01-16 07:55:00.08	92.30	24.18	-45.9	-48.2	15.3	0.00e+00	0	33	0	412090368	57	4849
2026-01-16 07:55:01.09	92.13	24.30	-46.0	-48.3	15.3	0.00e+00	0	33	0	414187520	57	4923
2026-01-16 07:55:02.10	91.96	24.43	-45.9	-48.1	15.4	0.00e+00	0	33	0	416284672	57	4793
2026-01-16 07:55:03.11	91.78	24.55	-45.8	-48.1	15.4	0.00e+00	0	33	0	417333248	57	4776
2026-01-16 07:55:04.12	91.60	24.68	-45.8	-48.0	15.4	0.00e+00	0	33	0	419430400	57	4754
2026-01-16 07:55:05.13	91.42	24.80	-45.9	-48.2	15.3	0.00e+00	0	33	0	421527552	57	4840
2026-01-16 07:55:06.14	91.24	24.93	-46.0	-48.3	15.3	0.00e+00	0	33	0	423624704	57	4925
2026-01-16 07:55:07.15	91.06	25.06	-45.9	-48.1	15.4	0.00e+00	0	33	0	425721856	57	4791
2026-01-16 07:55:08.16	90.87	25.18	-45.9	-48.2	15.4	0.00e+00	0	33	0	426770432	57	4834
2026-01-16 07:55:09.16	90.69	25.31	-45.9	-48.2	15.4	0.00e+00	0	33	0	428867584	57	4839
2026-01-16 07:55:10.17	90.50	25.44	-46.0	-48.2	15.3	0.00e+00	0	33	0	430964736	57	4851
2026-01-16 07:55:11.18	90.31	25.56	-46.2	-48.5	15.2	0.00e+00	0	33	0	433061888	57	5033
2026-01-16 07:55:12.19	90.12	25.69	-46.1	-48.5	15.2	0.00e+00	0	33	0	435159040	57	4994
2026-01-16 07:55:13.20	89.93	25.82	-46.2	-48.6	15.2	0.00e+00	0	33	0	437256192	57	5050
2026-01-16 07:55:14.21	89.74	25.95	-46.3	-48.6	15.1	0.00e+00	0	33	0	438304768	57	5094
2026-01-16 07:55:15.22	89.54	26.08	-46.2	-48.5	15.2	0.00e+00	0	33	0	440401920	57	5015
2026-01-16 07:55:16.23	89.35	26.21	-46.3	-48.6	15.1	0.00e+00	0	33	0	442499072	57	5087
2026-01-16 07:55:17.24	89.15	26.33	-46.4	-48.8	15.1	0.00e+00	0	33	0	444596224	57	5170
2026-01-16 07:55:18.25	88.95	26.46	-46.4	-48.8	15.0	0.00e+00	0	33	0	446693376	57	5208
2026-01-16 07:55:19.26	88.75	26.59	-46.5	-48.9	15.0	0.00e+00	0	33	0	447741952	58	4973
2026-01-16 07:55:20.27	88.54	26.72	-46.5	-49.0	15.0	0.00e+00	0	33	0	449839104	58	5028
2026-01-16 07:55:21.28	88.34	26.85	-46.6	-49.1	14.9	0.00e+00	0	33	0	451936256	58	5092
2026-01-16 07:55:22.29	88.13	26.98	-46.7	-49.3	14.8	0.00e+00	0	33	0	454033408	58	5196
2026-01-16 07:55:23.30	87.92	27.11	-46.8	-49.3	14.8	0.00e+00	0	33	0	456130560	59	4926
2026-01-16 07:55:24.31	87.71	27.24	-46.8	-49.5	14.7	0.00e+00	0	33	0	457179136	59	5002
2026-01-16 07:55:25.32	87.50	27.38	-46.9	-49.6	14.6	0.00e+00	0	33	0	459276288	59	5076
2026-01-16 07:55:26.33	87.29	27.51	-47.1	-49.8	14.5	0.00e+00	0	33	0	461373440	59	5195
2026-01-16 07:55:27.33	87.08	27.64	-47.3	-50.1	14.4	0.00e+00	0	33	0	463470592	59	5374
2026-01-16 07:55:28.34	86.86	27.77	-47.3	-50.2	14.2	0.00e+00	0	33	0	465567744	59	5461
2026-01-16 07:55:29.09	86.70	27.87	-47.1	-50.0	14.2	0.00e+00	0	33	0	466616320	60	5015
2026-01-16 07:55:30.39	86.41	28.03	-47.1	-49.9	14.2	0.00e+00	0	33	0	469762048	60	4964
2026-01-16 07:55:31.11	86.25	28.13	-47.0	-49.8	14.3	0.00e+00	0	33	0	470810624	60	4904
2026-01-16 07:55:32.40	85.97	28.30	-47.1	-49.9	14.3	0.00e+00	0	33	0	472907776	60	4952
2026-01-16 07:55:33.12	85.81	28.39	-47.1	-49.9	14.2	0.00e+00	0	33	0	475004928	60	4973
2026-01-16 07:55:34.42	85.51	28.56	-47.2	-50.2	14.1	0.00e+00	0	33	0	477102080	60	5119
2026-01-16 07:55:35.14	85.35	28.66	-47.2	-50.1	14.2	0.00e+00	0	33	0	478150656	60	5057
2026-01-16 07:55:36.44	85.05	28.83	-47.2	-50.1	14.1	0.00e+00	0	33	0	481296384	60	5066
2026-01-16 07:55:37.16	84.89	28.92	-47.2	-50.2	14.1	0.00e+00	0	33	0	482344960	60	5103
2026-01-16 07:55:38.46	84.58	29.09	-47.3	-50.3	14.0	0.00e+00	0	33	0	484442112	60	5180
2026-01-16 07:55:39.18	84.41	29.19	-47.2	-50.2	14.2	0.00e+00	0	33	0	485490688	60	5110
2026-01-16 07:55:40.48	84.10	29.36	-47.1	-50.0	14.2	0.00e+00	0	33	0	488636416	60	5010
2026-01-16 07:55:41.20	83.93	29.45	-47.1	-49.9	14.2	0.00e+00	0	33	0	489684992	60	4978
2026-01-16 07:55:42.50	83.62	29.62	-47.1	-49.9	14.3	0.00e+00	0	33	0	491782144	60	4955
2026-01-16 07:55:43.22	83.44	29.72	-47.1	-49.9	14.3	0.00e+00	0	33	0	493879296	60	4944
2026-01-16 07:55:44.52	83.13	29.89	-47.1	-49.9	14.3	0.00e+00	0	33	0	495976448	60	4971
2026-01-16 07:55:45.24	82.95	29.98	-47.1	-49.9	14.3	0.00e+00	0	33	0	497025024	60	4979
2026-01-16 07:55:46.53	82.63	30.15	-47.2	-50.1	14.1	0.00e+00	0	33	0	500170752	60	5060
2026-01-16 07:55:47.26	82.44	30.25	-47.3	-50.3	14.0	0.00e+00	0	33	0	501219328	60	5183
2026-01-16 07:55:48.55	82.12	30.42	-47.4	-50.4	13.9	0.00e+00	0	33	0	503316480	60	5264
2026-01-16 07:55:49.27	81.93	30.51	-47.5	-50.5	13.9	0.00e+00	0	33	0	505413632	60	5313
2026-01-16 07:55:50.57	81.60	30.68	-47.7	-50.9	13.6	0.00e+00	0	33	0	507510784	60	5562
2026-01-16 07:55:51.29	81.41	30.78	-47.8	-51.1	13.5	0.00e+00	0	33	0	508559360	60	5700
2026-01-16 07:55:52.59	81.07	30.95	-47.8	-51.1	13.5	0.00e+00	0	33	0	510656512	60	5693
2026-01-16 07:55:53.31	80.88	31.04	-47.8	-51.1	13.5	0.00e+00	0	33	0	512753664	60	5709
2026-01-16 07:55:54.61	80.53	31.21	-47.6	-50.8	13.6	0.00e+00	0	33	0	514850816	60	5520
2026-01-16 07:55:55.33	80.34	31.31	-47.4	-50.4	14.0	0.00e+00	0	33	0	515899392	60	5257
2026-01-16 07:55:56.63	79.99	31.48	-47.4	-50.3	14.0	0.00e+00	0	33	0	519045120	60	5208
2026-01-16 07:55:57.35	79.79	31.57	-47.4	-50.3	14.0	0.00e+00	0	33	0	520093696	60	5209
2026-01-16 07:55:58.65	79.43	31.74	-47.1	-50.0	14.2	0.00e+00	0	33	0	522190848	60	4989
2026-01-16 07:55:59.37	79.23	31.83	-47.1	-50.0	14.3	0.00e+00	0	33	0	524288000	60	5011
2026-01-16 07:56:00.66	78.87	32.00	-47.1	-49.9	14.3	0.00e+00	0	33	0	526385152	60	4958
2026-01-16 07:56:01.38	78.67	32.09	-47.0	-49.7	14.4	0.00e+00	0	33	0	527433728	60	4826
2026-01-16 07:56:02.68	78.30	32.26	-46.8	-49.5	14.6	0.00e+00	0	33	0	529530880	60	4727
2026-01-16 07:56:03.40	78.09	32.36	-46.9	-49.7	14.4	0.00e+00	0	33	0	531628032	60	4825
2026-01-16 07:56:04.70	77.72	32.52	-46.9	-49.6	14.5	0.00e+00	0	33	0	533725184	60	4784
2026-01-16 07:56:05.42	77.51	32.62	-46.9	-49.6	14.5	0.00e+00	0	33	0	534773760	60	4788
2026-01-16 07:56:06.72	77.13	32.78	-46.8	-49.5	14.5	0.00e+00	0	33	0	537919488	60	4728
2026-01-16 07:56:07.44	76.91	32.88	-46.9	-49.6	14.5	0.00e+00	0	33	0	538968064	60	4813
2026-01-16 07:56:08.73	76.53	33.04	-46.9	-49.5	14.5	0.00e+00	0	33	0	541065216	60	4749
2026-01-16 07:56:09.45	76.31	33.13	-46.9	-49.7	14.5	0.00e+00	0	33	0	543162368	60	4821
2026-01-16 07:56:10.75	75.92	33.30	-47.1	-49.9	14.3	0.00e+00	0	33	0	545259520	60	4935
2026-01-16 07:56:11.47	75.70	33.39	-47.0	-49.8	14.4	0.00e+00	0	33	0	546308096	60	4873
2026-01-16 07:56:12.77	75.30	33.55	-47.2	-50.0	14.2	0.00e+00	0	33	0	549453824	60	5027
2026-01-16 07:56:13.49	75.07	33.64	-47.1	-49.9	14.3	0.00e+00	0	33	0	550502400	60	4960
2026-01-16 07:56:14.79	74.67	33.81	-47.1	-49.9	14.3	0.00e+00	0	33	0	552599552	60	4981
2026-01-16 07:56:15.51	74.44	33.90	-47.3	-50.2	14.1	0.00e+00	0	33	0	553648128	60	5107
2026-01-16 07:56:16.80	74.03	34.06	-47.6	-50.7	13.8	0.00e+00	0	33	0	556793856	60	5437
2026-01-16 07:56:17.52	73.80	34.15	-47.7	-50.8	13.7	0.00e+00	0	33	0	557842432	60	5516
2026-01-16 07:56:18.82	73.38	34.31	-47.7	-50.9	13.6	0.00e+00	0	34	0	559939584	60	5537
2026-01-16 07:56:19.54	73.15	34.39	-47.6	-50.8	13.7	0.00e+00	0	34	0	562036736	60	5484
2026-01-16 07:56:20.84	72.72	34.55	-47.5	-50.4	14.0	0.00e+00	0	33	0	564133888	60	5274
2026-01-16 07:56:21.56	72.48	34.64	-47.5	-50.5	13.9	0.00e+00	0	33	0	565182464	60	5325
2026-01-16 07:56:22.86	72.05	34.80	-47.6	-50.8	13.8	0.00e+00	0	33	0	568328192	60	5467
2026-01-16 07:56:23.58	71.81	34.88	-47.9	-51.2	13.5	0.00e+00	0	33	0	569376768	60	5768
2026-01-16 07:56:24.88	71.37	35.04	-48.0	-51.4	13.4	0.00e+00	0	33	0	571473920	61	5549
2026-01-16 07:56:25.60	71.12	35.12	-48.0	-51.4	13.4	0.00e+00	0	33	0	572522496	61	5578
2026-01-16 07:56:26.90	70.68	35.28	-47.9	-51.2	13.4	7.00e-07	0	33	0	575668224	61	5461
2026-01-16 07:56:27.62	70.43	35.36	-48.2	-51.7	13.1	0.00e+00	0	33	0	576716800	61	5775
2026-01-16 07:56:28.91	69.98	35.51	-48.2	-51.7	13.2	1.50e-06	0	33	0	578813952	61	5739
2026-01-16 07:56:29.63	69.73	35.60	-47.9	-51.3	13.5	0.00e+00	0	33	0	580911104	61	5483
2026-01-16 07:56:30.93	69.27	35.75	-47.9	-51.2	13.5	0.00e+00	0	33	0	583008256	61	5415
2026-01-16 07:56:31.65	69.02	35.83	-47.9	-51.1	13.6	0.00e+00	0	33	0	584056832	61	5382
2026-01-16 07:56:32.95	68.55	35.98	-47.6	-50.7	13.8	0.00e+00	0	33	0	587202560	61	5158
2026-01-16 07:56:33.67	68.29	36.06	-47.6	-50.7	13.9	0.00e+00	0	33	0	588251136	61	5114
2026-01-16 07:56:34.97	67.82	36.20	-47.6	-50.6	13.9	0.00e+00	0	33	0	590348288	61	5088
2026-01-16 07:56:35.69	67.56	36.28	-47.3	-50.1	14.3	0.00e+00	0	33	0	591396864	61	4789
2026-01-16 07:56:36.99	67.08	36.42	-47.4	-50.4	14.1	0.00e+00	0	34	0	594542592	61	4936
2026-01-16 07:56:37.71	66.81	36.50	-47.5	-50.5	14.0	0.00e+00	0	33	0	595591168	61	4999
2026-01-16 07:56:39.01	66.33	36.64	-47.6	-50.6	14.0	0.00e+00	0	33	0	597688320	61	5073
2026-01-16 07:56:39.73	66.06	36.72	-47.6	-50.7	13.9	0.00e+00	0	33	0	599785472	61	5126
2026-01-16 07:56:41.02	65.57	36.85	-47.7	-50.8	13.8	0.00e+00	0	33	0	601882624	61	5214
2026-01-16 07:56:41.75	65.29	36.93	-47.7	-50.9	13.7	0.00e+00	0	33	0	602931200	61	5236
2026-01-16 07:56:43.04	64.80	37.06	-47.4	-50.3	14.1	0.00e+00	0	33	0	606076928	61	4923
2026-01-16 07:56:43.76	64.52	37.14	-47.3	-50.3	14.2	0.00e+00	0	33	0	607125504	61	4879
2026-01-16 07:56:45.06	64.02	37.27	-46.9	-49.6	14.6	0.00e+00	0	33	0	609222656	60	4783
2026-01-16 07:56:45.78	63.74	37.34	-46.8	-49.4	14.7	0.00e+00	0	33	0	611319808	60	4667
2026-01-16 07:56:47.08	63.22	37.47	-46.9	-49.5	14.8	0.00e+00	0	34	0	613416960	59	4996
2026-01-16 07:56:47.80	62.94	37.54	-46.7	-49.2	15.0	0.00e+00	0	34	0	614465536	59	4861
2026-01-16 07:56:49.10	62.42	37.66	-46.4	-48.7	15.3	0.00e+00	0	33	0	616562688	59	4571
2026-01-16 07:56:49.82	62.14	37.73	-46.3	-48.6	15.4	0.00e+00	0	33	0	618659840	59	4527
2026-01-16 07:56:51.12	61.61	37.85	-46.2	-48.5	15.4	0.00e+00	0	33	0	620756992	58	4721
2026-01-16 07:56:51.84	61.32	37.91	-46.0	-48.2	15.6	0.00e+00	0	33	0	621805568	58	4592
2026-01-16 07:56:53.13	60.80	38.03	-46.1	-48.4	15.5	0.00e+00	0	33	0	624951296	58	4652
2026-01-16 07:56:53.85	60.50	38.09	-46.0	-48.2	15.5	0.00e+00	0	33	0	625999872	58	4589
2026-01-16 07:56:55.15	59.97	38.21	-45.9	-48.1	15.6	0.00e+00	0	33	0	628097024	58	4512
2026-01-16 07:56:55.87	59.67	38.27	-46.0	-48.1	15.6	0.00e+00	0	33	0	630194176	58	4525
2026-01-16 07:56:57.17	59.13	38.38	-45.6	-47.7	15.7	0.00e+00	0	33	0	632291328	57	4548
2026-01-16 07:56:57.89	58.83	38.44	-45.6	-47.6	15.8	0.00e+00	0	33	0	633339904	57	4506
2026-01-16 07:56:59.19	58.29	38.55	-45.5	-47.5	15.8	0.00e+00	0	33	0	636485632	57	4463
2026-01-16 07:56:59.91	57.98	38.60	-45.6	-47.6	15.8	0.00e+00	0	33	0	637534208	57	4542
2026-01-16 07:57:01.21	57.43	38.70	-45.3	-47.3	15.9	0.00e+00	0	33	0	639631360	57	4370
2026-01-16 07:57:01.93	57.13	38.76	-45.5	-47.5	15.9	0.00e+00	0	33	0	640679936	57	4445
2026-01-16 07:57:03.23	56.57	38.86	-45.5	-47.5	15.8	0.00e+00	0	33	0	643825664	57	4492
2026-01-16 07:57:03.95	56.26	38.91	-45.6	-47.6	15.8	0.00e+00	0	33	0	644874240	57	4522
2026-01-16 07:57:05.25	55.70	39.00	-45.5	-47.5	15.9	0.00e+00	0	33	0	646971392	57	4446
2026-01-16 07:57:05.97	55.39	39.05	-45.4	-47.4	15.9	0.00e+00	0	33	0	649068544	57	4427
2026-01-16 07:57:07.26	54.82	39.14	-45.4	-47.3	15.9	0.00e+00	0	33	0	651165696	57	4380
2026-01-16 07:57:07.99	54.50	39.19	-45.3	-47.3	16.0	0.00e+00	0	33	0	652214272	57	4345
2026-01-16 07:57:09.28	53.94	39.27	-45.3	-47.3	15.9	0.00e+00	0	33	0	655360000	57	4348
2026-01-16 07:57:10.01	53.62	39.32	-45.2	-47.1	16.0	0.00e+00	0	33	0	656408576	57	4287
2026-01-16 07:57:11.30	53.05	39.39	-44.9	-46.8	16.1	0.00e+00	0	33	0	658505728	56	4367
2026-01-16 07:57:12.02	52.73	39.44	-45.0	-46.9	16.1	0.00e+00	0	33	0	659554304	56	4418
2026-01-16 07:57:13.32	52.15	39.51	-44.8	-46.7	16.2	0.00e+00	0	33	0	662700032	56	4304
2026-01-16 07:57:14.04	51.82	39.55	-44.9	-46.8	16.1	0.00e+00	0	33	0	663748608	56	4362
2026-01-16 07:57:15.34	51.24	39.62	-44.9	-46.7	16.2	0.00e+00	0	33	0	665845760	56	4312
2026-01-16 07:57:16.06	50.92	39.65	-45.0	-46.8	16.1	0.00e+00	0	33	0	667942912	56	4389
2026-01-16 07:57:17.36	50.33	39.72	-45.0	-46.9	16.1	0.00e+00	0	33	0	670040064	56	4429
2026-01-16 07:57:18.08	50.00	39.75	-45.0	-46.9	16.1	0.00e+00	0	33	0	671088640	56	4420
2026-01-16 07:57:19.37	49.42	39.81	-44.9	-46.8	16.1	0.00e+00	0	33	0	674234368	56	4367
2026-01-16 07:57:20.10	49.08	39.84	-44.9	-46.8	16.1	0.00e+00	0	33	0	675282944	56	4364
2026-01-16 07:57:21.39	48.50	39.89	-44.8	-46.6	16.2	0.00e+00	0	33	0	677380096	56	4276
2026-01-16 07:57:22.11	48.17	39.92	-44.8	-46.6	16.2	0.00e+00	0	33	0	678428672	56	4277
2026-01-16 07:57:23.41	47.57	39.97	-44.6	-46.4	16.2	0.00e+00	0	33	0	681574400	55	4415
2026-01-16 07:57:24.13	47.24	40.00	-44.6	-46.4	16.2	0.00e+00	0	33	0	682622976	55	4436
2026-01-16 07:57:25.43	46.64	40.04	-44.8	-46.6	16.1	0.00e+00	0	33	0	684720128	55	4541
2026-01-16 07:57:26.15	46.31	40.06	-44.8	-46.6	16.2	0.00e+00	0	33	0	686817280	55	4518
2026-01-16 07:57:27.45	45.70	40.10	-45.0	-46.9	16.0	0.00e+00	0	33	0	688914432	55	4652
2026-01-16 07:57:28.17	45.37	40.12	-44.9	-46.8	16.1	0.00e+00	0	33	0	689963008	55	4625
2026-01-16 07:57:29.47	44.77	40.15	-44.9	-46.7	16.1	0.00e+00	0	33	0	693108736	55	4593
2026-01-16 07:57:30.19	44.43	40.16	-44.8	-46.6	16.1	0.00e+00	0	33	0	694157312	55	4504
2026-01-16 07:57:31.49	43.83	40.19	-44.7	-46.5	16.1	0.00e+00	0	33	0	696254464	55	4444
2026-01-16 07:57:32.21	43.49	40.20	-44.8	-46.7	16.1	0.00e+00	0	33	0	698351616	55	4556
2026-01-16 07:57:33.50	42.89	40.22	-45.2	-47.2	15.9	0.00e+00	0	33	0	700448768	55	4826
2026-01-16 07:57:34.22	42.55	40.23	-45.6	-47.6	15.8	0.00e+00	0	33	0	701497344	56	4803
2026-01-16 07:57:35.52	41.95	40.25	-45.8	-47.8	15.7	0.00e+00	0	33	0	704643072	56	4916
2026-01-16 07:57:36.24	41.61	40.25	-45.8	-47.9	15.7	0.00e+00	0	33	0	705691648	56	4935
2026-01-16 07:57:37.54	41.00	40.26	-45.9	-48.1	15.5	0.00e+00	0	33	0	707788800	57	4787
2026-01-16 07:57:38.26	40.66	40.26	-46.2	-48.4	15.4	0.00e+00	0	33	0	708837376	57	4943
2026-01-16 07:57:39.56	40.06	40.27	-46.5	-48.8	15.3	0.00e+00	0	33	0	711983104	58	4890
2026-01-16 07:57:40.28	39.72	40.27	-46.5	-48.9	15.2	0.00e+00	0	33	0	713031680	58	4959
2026-01-16 07:57:41.58	39.11	40.27	-46.6	-48.9	15.2	0.00e+00	0	33	0	715128832	58	4981
2026-01-16 07:57:42.30	38.77	40.26	-46.4	-48.7	15.3	0.00e+00	0	33	0	717225984	58	4846
2026-01-16 07:57:43.59	38.17	40.25	-46.2	-48.5	15.4	0.00e+00	0	33	0	719323136	58	4710
2026-01-16 07:57:44.31	37.83	40.25	-46.4	-48.7	15.3	0.00e+00	0	33	0	720371712	58	4835
2026-01-16 07:57:45.61	37.23	40.23	-46.9	-49.5	14.9	0.00e+00	0	33	0	722468864	59	4997
2026-01-16 07:57:46.33	36.89	40.22	-47.3	-50.1	14.5	0.00e+00	0	33	0	724566016	59	5365
2026-01-16 07:57:47.63	36.28	40.21	-47.3	-50.1	14.2	0.00e+00	0	33	0	726663168	60	5100
2026-01-16 07:57:48.35	35.95	40.19	-47.1	-49.9	14.4	0.00e+00	0	34	0	727711744	60	4936
2026-01-16 07:57:49.65	35.34	40.17	-46.9	-49.5	14.7	0.00e+00	0	33	0	730857472	60	4714
2026-01-16 07:57:50.37	35.01	40.15	-46.9	-49.5	14.6	0.00e+00	0	33	0	731906048	60	4753
2026-01-16 07:57:51.67	34.40	40.12	-46.8	-49.4	14.7	0.00e+00	0	33	0	734003200	60	4691
2026-01-16 07:57:52.39	34.07	40.10	-47.1	-49.8	14.5	0.00e+00	0	33	0	736100352	60	4926
2026-01-16 07:57:53.68	33.47	40.07	-47.7	-50.7	13.9	0.00e+00	0	33	0	738197504	60	5449
2026-01-16 07:57:54.41	33.14	40.04	-47.9	-51.2	13.6	0.00e+00	0	33	0	739246080	61	5447
2026-01-16 07:57:55.70	32.54	40.00	-48.3	-51.8	13.2	0.00e+00	0	33	0	742391808	61	5834
2026-01-16 07:57:56.42	32.21	39.98	-48.1	-51.6	13.3	0.00e+00	0	33	0	743440384	61	5685
2026-01-16 07:57:57.72	31.61	39.93	-48.2	-51.7	13.3	0.00e+00	0	33	0	745537536	61	5778
2026-01-16 07:57:58.44	31.28	39.90	-48.1	-51.5	13.3	0.00e+00	0	33	0	746586112	61	5612
2026-01-16 07:57:59.74	30.69	39.85	-48.0	-51.2	13.6	0.00e+00	0	33	0	749731840	61	5464
2026-01-16 07:58:00.46	30.36	39.82	-47.9	-51.2	13.7	0.00e+00	0	33	0	750780416	61	5412
2026-01-16 07:58:01.76	29.77	39.76	-47.8	-50.9	13.9	0.00e+00	0	33	0	752877568	61	5247
2026-01-16 07:58:02.48	29.45	39.73	-47.9	-51.1	13.7	0.00e+00	0	33	0	754974720	61	5388
2026-01-16 07:58:03.78	28.86	39.67	-48.2	-51.7	13.3	0.00e+00	0	33	0	757071872	61	5740
2026-01-16 07:58:04.50	28.53	39.63	-48.2	-51.7	13.3	0.00e+00	0	33	0	758120448	61	5748
2026-01-16 07:58:05.80	27.95	39.56	-48.2	-51.6	13.3	0.00e+00	0	33	0	761266176	61	5722
2026-01-16 07:58:06.52	27.63	39.52	-47.9	-51.1	13.7	0.00e+00	0	33	0	762314752	61	5360
2026-01-16 07:58:07.81	27.05	39.45	-47.6	-50.5	14.0	0.00e+00	0	33	0	764411904	61	5027
2026-01-16 07:58:08.54	26.73	39.41	-47.4	-50.3	14.3	0.00e+00	0	33	0	766509056	61	4907
2026-01-16 07:58:09.83	26.16	39.33	-47.1	-49.9	14.5	0.00e+00	0	33	0	768606208	60	4930
2026-01-16 07:58:10.55	25.84	39.29	-47.0	-49.7	14.5	0.00e+00	0	33	0	769654784	60	4852
2026-01-16 07:58:11.85	25.27	39.20	-46.9	-49.4	15.0	0.00e+00	0	33	0	771751936	59	4952
2026-01-16 07:58:12.57	24.96	39.16	-46.8	-49.2	15.1	0.00e+00	0	33	0	773849088	59	4850
2026-01-16 07:58:13.87	24.39	39.07	-46.7	-49.2	15.1	0.00e+00	0	33	0	775946240	59	4818
2026-01-16 07:58:14.59	24.08	39.02	-46.3	-48.5	15.5	0.00e+00	0	33	0	776994816	59	4471
2026-01-16 07:58:15.88	23.52	38.93	-46.0	-48.1	15.6	0.00e+00	0	33	0	780140544	58	4533
2026-01-16 07:58:16.61	23.21	38.87	-46.0	-48.1	15.6	0.00e+00	0	33	0	781189120	58	4521
2026-01-16 07:58:17.90	22.66	38.78	-45.5	-47.5	15.9	0.00e+00	0	33	0	783286272	57	4467
2026-01-16 07:58:18.62	22.35	38.72	-45.3	-47.3	16.0	0.00e+00	0	34	0	785383424	57	4343
2026-01-16 07:58:19.92	21.80	38.62	-45.2	-47.2	16.1	0.00e+00	0	33	0	787480576	57	4292
2026-01-16 07:58:20.64	21.49	38.57	-45.1	-46.9	16.1	0.00e+00	0	33	0	788529152	56	4438
2026-01-16 07:58:21.94	20.95	38.46	-44.9	-46.7	16.2	0.00e+00	0	33	0	790626304	56	4313
2026-01-16 07:58:22.66	20.65	38.40	-44.7	-46.5	16.3	0.00e+00	0	33	0	792723456	56	4218
2026-01-16 07:58:23.96	20.11	38.29	-44.4	-46.1	16.3	0.00e+00	0	33	0	794820608	55	4288
2026-01-16 07:58:24.68	19.81	38.23	-44.3	-46.1	16.4	0.00e+00	0	33	0	795869184	55	4243
2026-01-16 07:58:25.98	19.28	38.12	-44.4	-46.1	16.4	0.00e+00	0	33	0	799014912	55	4260
2026-01-16 07:58:26.70	18.98	38.05	-44.4	-46.2	16.3	0.00e+00	0	33	0	800063488	55	4312
2026-01-16 07:58:28.00	18.45	37.94	-44.6	-46.4	16.3	0.00e+00	0	34	0	802160640	55	4413
2026-01-16 07:58:28.72	18.16	37.87	-44.6	-46.4	16.3	0.00e+00	0	33	0	804257792	55	4414
2026-01-16 07:58:30.02	17.64	37.75	-44.5	-46.3	16.3	0.00e+00	0	33	0	806354944	55	4376
2026-01-16 07:58:30.74	17.35	37.68	-44.5	-46.3	16.3	0.00e+00	0	33	0	807403520	55	4372
2026-01-16 07:58:32.04	16.84	37.56	-44.2	-45.9	16.5	0.00e+00	0	33	0	810549248	55	4168
2026-01-16 07:58:32.76	16.55	37.49	-44.1	-45.7	16.5	0.00e+00	0	33	0	811597824	54	4337
2026-01-16 07:58:34.06	16.04	37.36	-44.0	-45.7	16.5	0.00e+00	0	33	0	813694976	54	4314
2026-01-16 07:58:34.78	15.76	37.29	-44.2	-45.9	16.4	0.00e+00	0	34	0	814743552	54	4401
2026-01-16 07:58:36.08	15.26	37.16	-44.4	-46.2	16.3	0.00e+00	0	33	0	817889280	54	4569
2026-01-16 07:58:36.80	14.98	37.09	-44.5	-46.3	16.3	0.00e+00	0	33	0	818937856	54	4631
2026-01-16 07:58:38.10	14.48	36.96	-44.7	-46.5	16.2	0.00e+00	0	33	0	821035008	54	4724
2026-01-16 07:58:38.82	14.21	36.88	-44.6	-46.4	16.2	0.00e+00	0	33	0	823132160	54	4704
2026-01-16 07:58:40.12	13.72	36.75	-44.7	-46.5	16.2	0.00e+00	0	33	0	825229312	54	4730
2026-01-16 07:58:40.84	13.45	36.67	-44.7	-46.5	16.1	0.00e+00	0	33	0	826277888	54	4718
2026-01-16 07:58:42.14	12.96	36.53	-44.7	-46.5	16.1	0.00e+00	0	33	0	829423616	54	4751
2026-01-16 07:58:42.86	12.70	36.45	-44.9	-46.8	16.0	0.00e+00	0	33	0	830472192	55	4607
2026-01-16 07:58:44.15	12.22	36.31	-45.1	-47.0	16.0	0.00e+00	0	33	0	832569344	55	4725
2026-01-16 07:58:44.87	11.96	36.23	-45.1	-47.1	15.9	0.00e+00	0	34	0	834666496	55	4779
2026-01-16 07:58:46.17	11.49	36.09	-45.2	-47.1	15.9	0.00e+00	0	33	0	836763648	55	4810
2026-01-16 07:58:46.89	11.23	36.01	-45.3	-47.3	15.9	0.00e+00	0	33	0	837812224	55	4885
2026-01-16 07:58:48.19	10.76	35.86	-45.6	-47.7	15.7	0.00e+00	0	33	0	839909376	56	4819
2026-01-16 07:58:48.91	10.51	35.78	-45.5	-47.5	15.8	0.00e+00	0	34	0	842006528	56	4737
2026-01-16 07:58:50.21	10.05	35.63	-45.3	-47.3	16.0	0.00e+00	0	33	0	844103680	56	4610
2026-01-16 07:58:50.93	9.80	35.55	-45.3	-47.3	16.0	0.00e+00	0	33	0	845152256	56	4618
2026-01-16 07:58:52.23	9.34	35.40	-45.4	-47.4	15.9	0.00e+00	0	34	0	848297984	56	4668
2026-01-16 07:58:52.95	9.10	35.31	-45.5	-47.5	15.9	0.00e+00	0	33	0	849346560	56	4726
2026-01-16 07:58:54.24	8.65	35.16	-45.3	-47.3	15.9	0.00e+00	0	33	0	851443712	56	4627
2026-01-16 07:58:54.96	8.41	35.08	-45.3	-47.2	16.0	0.00e+00	0	33	0	852492288	56	4593
2026-01-16 07:58:56.26	7.97	34.92	-45.4	-47.3	15.9	0.00e+00	0	33	0	855638016	56	4649
2026-01-16 07:58:56.98	7.73	34.83	-45.4	-47.4	15.9	0.00e+00	0	33	0	856686592	56	4682
2026-01-16 07:58:58.28	7.30	34.68	-45.4	-47.4	15.9	0.00e+00	0	34	0	858783744	56	4687
2026-01-16 07:58:59.00	7.06	34.59	-45.6	-47.6	15.8	0.00e+00	0	33	0	860880896	56	4795
2026-01-16 07:59:00.30	6.63	34.43	-45.8	-48.0	15.6	0.00e+00	0	33	0	862978048	56	4991
2026-01-16 07:59:01.02	6.40	34.34	-45.9	-48.0	15.6	0.00e+00	0	33	0	864026624	56	4999
2026-01-16 07:59:02.32	5.98	34.18	-45.9	-48.0	15.6	0.00e+00	0	33	0	867172352	56	5006
2026-01-16 07:59:03.04	5.75	34.10	-45.9	-48.0	15.6	0.00e+00	0	33	0	868220928	56	5004
2026-01-16 07:59:04.34	5.34	33.93	-46.0	-48.1	15.6	0.00e+00	0	34	0	870318080	57	4789
2026-01-16 07:59:05.06	5.11	33.85	-46.1	-48.3	15.4	0.00e+00	0	34	0	872415232	57	4923
2026-01-16 07:59:06.35	4.71	33.68	-46.5	-48.8	15.2	0.00e+00	0	33	0	874512384	58	4909
2026-01-16 07:59:07.07	4.48	33.59	-46.7	-49.1	15.1	0.00e+00	0	33	0	875560960	58	5080
2026-01-16 07:59:08.37	4.08	33.43	-46.9	-49.5	14.9	0.00e+00	0	33	0	878706688	58	5285
2026-01-16 07:59:09.09	3.86	33.34	-46.9	-49.4	14.9	0.00e+00	0	33	0	879755264	59	4979
2026-01-16 07:59:10.39	3.47	33.17	-46.8	-49.2	15.0	0.00e+00	0	33	0	881852416	59	4861
2026-01-16 07:59:11.11	3.25	33.08	-46.7	-49.2	15.1	0.00e+00	0	34	0	882900992	59	4833
2026-01-16 07:59:12.41	2.86	32.92	-46.8	-49.3	15.0	0.00e+00	0	33	0	886046720	59	4922
2026-01-16 07:59:13.13	2.65	32.83	-46.9	-49.5	14.9	0.00e+00	0	33	0	887095296	59	5018
2026-01-16 07:59:14.43	2.27	32.66	-47.2	-50.0	14.6	0.00e+00	0	33	0	889192448	59	5289
2026-01-16 07:59:15.15	2.06	32.57	-47.2	-49.9	14.6	0.00e+00	0	33	0	891289600	59	5246
2026-01-16 07:59:16.44	1.69	32.40	-47.4	-50.1	14.5	0.00e+00	0	33	0	893386752	59	5398
2026-01-16 07:59:17.16	1.48	32.31	-47.4	-50.2	14.5	0.00e+00	0	33	0	894435328	59	5424
2026-01-16 07:59:18.46	1.11	32.14	-47.4	-50.2	14.5	0.00e+00	0	33	0	897581056	59	5429
2026-01-16 07:59:19.18	0.91	32.05	-47.1	-49.8	14.5	0.00e+00	0	33	0	898629632	60	4906
2026-01-16 07:59:20.48	0.55	31.88	-47.3	-50.1	14.3	0.00e+00	0	33	0	900726784	60	5063
2026-01-16 07:59:21.20	0.35	31.79	-47.4	-50.3	14.2	0.00e+00	0	33	0	901775360	60	5168
2026-01-16 07:59:22.49	359.99	31.62	-47.4	-50.4	14.1	0.00e+00	0	33	0	904921088	60	5249
2026-01-16 07:59:23.21	359.80	31.52	-47.3	-50.1	14.3	0.00e+00	0	34	0	905969664	60	5082
2026-01-16 07:59:24.51	359.44	31.35	-47.0	-49.7	14.5	0.00e+00	0	33	0	908066816	60	4847
2026-01-16 07:59:25.23	359.25	31.26	-46.9	-49.6	14.6	0.00e+00	0	34	0	910163968	60	4766
2026-01-16 07:59:26.53	358.90	31.09	-46.9	-49.5	14.6	0.00e+00	0	33	0	912261120	60	4730
2026-01-16 07:59:27.25	358.71	31.00	-47.0	-49.6	14.6	0.00e+00	0	33	0	913309696	60	4805
2026-01-16 07:59:28.55	358.37	30.83	-47.2	-50.0	14.3	0.00e+00	0	33	0	916455424	60	4999
2026-01-16 07:59:29.27	358.19	30.73	-47.3	-50.2	14.2	0.00e+00	0	33	0	917504000	60	5133
2026-01-16 07:59:30.57	357.85	30.56	-47.2	-50.0	14.4	0.00e+00	0	33	0	919601152	60	4985
2026-01-16 07:59:31.29	357.67	30.47	-47.1	-49.9	14.4	0.00e+00	0	33	0	920649728	60	4951
2026-01-16 07:59:32.59	357.34	30.30	-46.8	-49.3	14.8	0.00e+00	0	33	0	923795456	60	4633
2026-01-16 07:59:33.31	357.16	30.20	-47.0	-49.6	14.8	0.00e+00	0	33	0	924844032	59	5075
2026-01-16 07:59:34.61	356.83	30.03	-46.8	-49.4	14.9	0.00e+00	0	33	0	926941184	59	4942
2026-01-16 07:59:35.33	356.66	29.94	-46.8	-49.2	15.0	0.00e+00	0	33	0	929038336	59	4861
2026-01-16 07:59:36.63	356.34	29.77	-46.7	-49.1	15.1	0.00e+00	0	33	0	931135488	59	4804
2026-01-16 07:59:37.35	356.16	29.67	-46.7	-49.2	15.0	0.00e+00	0	33	0	932184064	59	4852
2026-01-16 07:59:38.64	355.85	29.50	-46.8	-49.4	14.9	0.00e+00	0	33	0	935329792	59	4927
2026-01-16 07:59:39.36	355.68	29.41	-46.8	-49.3	15.0	0.00e+00	0	33	0	936378368	59	4913
2026-01-16 07:59:40.66	355.37	29.24	-46.8	-49.3	15.0	0.00e+00	0	33	0	938475520	59	4889
2026-01-16 07:59:41.38	355.20	29.15	-46.8	-49.3	15.0	0.00e+00	0	33	0	940572672	59	4906
2026-01-16 07:59:42.68	354.90	28.98	-46.6	-49.0	15.1	0.00e+00	0	33	0	942669824	59	4750
2026-01-16 07:59:43.40	354.73	28.88	-46.4	-48.7	15.3	0.00e+00	0	33	0	943718400	59	4568
2026-01-16 07:59:44.70	354.44	28.71	-46.3	-48.6	15.4	0.00e+00	0	33	0	945815552	59	4521
2026-01-16 07:59:45.42	354.27	28.62	-46.2	-48.5	15.4	0.00e+00	0	33	0	947912704	59	4461
2026-01-16 07:59:46.72	353.98	28.45	-46.3	-48.5	15.4	0.00e+00	0	33	0	950009856	59	4484
2026-01-16 07:59:47.44	353.82	28.35	-46.2	-48.5	15.4	0.00e+00	0	33	0	951058432	58	4720
2026-01-16 07:59:48.73	353.53	28.19	-46.3	-48.6	15.3	0.00e+00	0	33	0	954204160	58	4769
2026-01-16 07:59:49.45	353.37	28.09	-46.2	-48.4	15.4	0.00e+00	0	34	0	955252736	58	4692
2026-01-16 07:59:50.75	353.09	27.92	-46.2	-48.4	15.5	0.00e+00	0	33	0	957349888	58	4680
2026-01-16 07:59:51.47	352.93	27.83	-46.2	-48.5	15.4	0.00e+00	0	33	0	959447040	58	4721
2026-01-16 07:59:52.77	352.66	27.66	-46.1	-48.3	15.5	0.00e+00	0	33	0	961544192	58	4621
2026-01-16 07:59:53.49	352.50	27.57	-46.0	-48.2	15.6	0.00e+00	0	33	0	962592768	58	4560
2026-01-16 07:59:54.79	352.23	27.40	-46.1	-48.3	15.5	0.00e+00	0	33	0	964689920	58	4625
2026-01-16 07:59:55.51	352.08	27.31	-46.1	-48.4	15.4	0.00e+00	0	33	0	966787072	58	4673
2026-01-16 07:59:56.81	351.81	27.14	-46.1	-48.3	15.5	0.00e+00	0	33	0	968884224	58	4638
2026-01-16 07:59:57.53	351.66	27.05	-45.9	-48.0	15.6	0.00e+00	0	33	0	969932800	58	4486
2026-01-16 07:59:58.83	351.39	26.88	-45.9	-48.1	15.6	0.00e+00	0	33	0	973078528	58	4495
2026-01-16 07:59:59.55	351.25	26.79	-45.8	-48.0	15.7	0.00e+00	0	33	0	974127104	58	4446
2026-01-16 08:00:00.84	350.99	26.62	-45.8	-47.9	15.7	0.00e+00	0	34	0	976224256	58	4427
2026-01-16 08:00:01.56	350.85	26.53	-45.7	-47.9	15.7	0.00e+00	0	33	0	978321408	58	4398
2026-01-16 08:00:02.86	350.59	26.36	-45.7	-47.8	15.7	0.00e+00	0	33	0	980418560	58	4371
2026-01-16 08:00:03.58	350.45	26.27	-45.7	-47.8	15.7	0.00e+00	0	34	0	981467136	58	4388
2026-01-16 08:00:04.88	350.20	26.11	-45.7	-47.8	15.7	0.00e+00	0	34	0	984612864	58	4384
2026-01-16 08:00:05.60	350.06	26.02	-45.8	-48.0	15.6	0.00e+00	0	34	0	985661440	58	4452
2026-01-16 08:00:06.90	349.81	25.85	-45.8	-48.0	15.7	0.00e+00	0	34	0	987758592	58	4450
2026-01-16 08:00:07.62	349.67	25.76	-45.9	-48.1	15.6	0.00e+00	0	33	0	988807168	58	4498
2026-01-16 08:00:08.92	349.43	25.60	-46.0	-48.2	15.5	0.00e+00	0	33	0	991952896	58	4548
2026-01-16 08:00:09.64	349.29	25.50	-46.0	-48.3	15.5	0.00e+00	0	33	0	993001472	58	4619
2026-01-16 08:00:10.94	349.05	25.34	-46.0	-48.2	15.5	0.00e+00	0	33	0	995098624	58	4576
2026-01-16 08:00:11.66	348.92	25.25	-46.0	-48.2	15.5	0.00e+00	0	34	0	997195776	58	4582
2026-01-16 08:00:12.95	348.69	25.09	-46.1	-48.3	15.4	0.00e+00	0	34	0	999292928	58	4649
2026-01-16 08:00:13.67	348.56	25.00	-46.1	-48.3	15.5	0.00e+00	0	33	0	1000341504	58	4631
2026-01-16 08:00:14.97	348.32	24.84	-46.1	-48.3	15.5	0.00e+00	0	33	0	1003487232	58	4613
2026-01-16 08:00:15.69	348.20	24.75	-46.0	-48.2	15.5	0.00e+00	0	33	0	1004535808	58	4562
2026-01-16 08:00:16.99	347.97	24.59	-45.9	-48.1	15.5	0.00e+00	0	33	0	1006632960	58	4536
2026-01-16 08:00:17.71	347.84	24.50	-45.9	-48.1	15.5	0.00e+00	0	33	0	1007681536	58	4533
2026-01-16 08:00:19.00	347.62	24.34	-45.8	-48.0	15.6	0.00e+00	0	33	0	1010827264	58	4458
2026-01-16 08:00:19.72	347.49	24.25	-45.8	-47.9	15.6	0.00e+00	0	33	0	1011875840	58	4425
2026-01-16 08:00:21.02	347.27	24.09	-45.9	-48.0	15.6	0.00e+00	0	33	0	1013972992	58	4475
2026-01-16 08:00:21.74	347.15	24.00	-45.9	-48.0	15.6	0.00e+00	0	33	0	1016070144	58	4492
2026-01-16 08:00:23.04	346.93	23.84	-46.1	-48.3	15.5	0.00e+00	0	34	0	1018167296	58	4635
2026-01-16 08:00:23.76	346.81	23.76	-46.1	-48.4	15.4	0.00e+00	0	33	0	1019215872	58	4660
2026-01-16 08:00:25.06	346.60	23.60	-46.1	-48.4	15.4	0.00e+00	0	33	0	1022361600	58	4668
2026-01-16 08:00:25.78	346.48	23.51	-46.2	-48.5	15.4	0.00e+00	0	33	0	1023410176	58	4719
2026-01-16 08:00:27.08	346.27	23.35	-46.3	-48.6	15.3	0.00e+00	0	33	0	1025507328	58	4805
2026-01-16 08:00:27.79	346.15	23.27	-46.4	-48.8	15.2	0.00e+00	0	34	0	1027604480	58	4881
2026-01-16 08:00:29.09	345.95	23.11	-46.3	-48.6	15.3	0.00e+00	0	34	0	1029701632	58	4802
2026-01-16 08:00:29.82	345.83	23.02	-46.3	-48.6	15.3	0.00e+00	0	33	0	1030750208	58	4777
2026-01-16 08:00:31.11	345.63	22.87	-46.1	-48.4	15.4	0.00e+00	0	33	0	1032847360	58	4663
2026-01-16 08:00:31.83	345.52	22.78	-46.1	-48.4	15.4	0.00e+00	0	34	0	1034944512	58	4653
2026-01-16 08:00:33.13	345.31	22.63	-46.1	-48.4	15.4	0.00e+00	0	33	0	1037041664	58	4663
2026-01-16 08:00:33.85	345.20	22.54	-46.0	-48.3	15.5	0.00e+00	0	33	0	1038090240	58	4616
2026-01-16 08:00:35.15	345.00	22.39	-45.9	-48.1	15.5	0.00e+00	0	33	0	1041235968	58	4528
2026-01-16 08:00:35.87	344.90	22.30	-46.0	-48.2	15.4	0.00e+00	0	33	0	1042284544	58	4594
2026-01-16 08:00:37.17	344.70	22.15	-45.9	-48.1	15.5	0.00e+00	0	33	0	1044381696	58	4515
2026-01-16 08:00:37.89	344.59	22.07	-45.9	-48.2	15.5	0.00e+00	0	33	0	1046478848	58	4546
2026-01-16 08:00:39.19	344.40	21.91	-45.9	-48.0	15.6	0.00e+00	0	33	0	1048576000	58	4483
2026-01-16 08:00:39.91	344.30	21.83	-46.0	-48.2	15.5	0.00e+00	0	33	0	1049624576	58	4559
2026-01-16 08:00:41.21	344.11	21.68	-46.0	-48.3	15.4	0.00e+00	0	33	0	1051721728	58	4625
2026-01-16 08:00:41.93	344.00	21.59	-46.1	-48.4	15.4	0.00e+00	0	33	0	1053818880	58	4680
2026-01-16 08:00:43.23	343.82	21.44	-46.3	-48.6	15.2	0.00e+00	0	33	0	1055916032	58	4814
2026-01-16 08:00:43.95	343.71	21.36	-46.3	-48.7	15.2	0.00e+00	0	33	0	1056964608	58	4841
2026-01-16 08:00:45.25	343.53	21.21	-46.4	-48.9	15.1	0.00e+00	0	33	0	1060110336	58	4928
2026-01-16 08:00:45.97	343.43	21.13	-46.4	-48.9	15.1	0.00e+00	0	33	0	1061158912	58	4927
2026-01-16 08:00:47.26	343.25	20.98	-46.4	-48.8	15.2	0.00e+00	0	33	0	1063256064	58	4925
2026-01-16 08:00:47.99	343.15	20.90	-46.4	-48.8	15.2	0.00e+00	0	33	0	1065353216	58	4903
2026-01-16 08:00:49.28	342.97	20.75	-46.3	-48.7	15.2	0.00e+00	0	34	0	1067450368	58	4825
2026-01-16 08:00:50.00	342.87	20.67	-46.2	-48.6	15.3	0.00e+00	0	33	0	1068498944	58	4770
2026-01-16 08:00:51.30	342.70	20.52	-46.2	-48.5	15.3	0.00e+00	0	33	0	1071644672	58	4744
2026-01-16 08:00:52.02	342.60	20.44	-46.2	-48.5	15.3	0.00e+00	0	33	0	1072693248	58	4729
2026-01-16 08:00:53.32	342.43	20.30	-46.2	-48.5	15.3	0.00e+00	0	33	0	1074790400	58	4721
2026-01-16 08:00:54.04	342.34	20.21	-46.1	-48.4	15.4	0.00e+00	0	33	0	1075838976	58	4675
2026-01-16 08:00:55.34	342.17	20.07	-46.0	-48.3	15.4	0.00e+00	0	34	0	1078984704	58	4634
2026-01-16 08:00:56.06	342.07	19.99	-46.0	-48.3	15.5	0.00e+00	0	33	0	1080033280	58	4599
2026-01-16 08:00:57.36	341.90	19.85	-46.0	-48.2	15.4	0.00e+00	0	33	0	1082130432	58	4587
2026-01-16 08:00:58.08	341.81	19.77	-46.0	-48.2	15.5	0.00e+00	0	33	0	1084227584	58	4575
2026-01-16 08:00:59.38	341.65	19.62	-46.0	-48.2	15.4	0.00e+00	0	33	0	1086324736	58	4592
2026-01-16 08:01:00.10	341.56	19.54	-46.0	-48.2	15.4	0.00e+00	0	33	0	1087373312	58	4576
2026-01-16 08:01:01.40	341.39	19.40	-46.0	-48.3	15.4	0.00e+00	0	33	0	1090519040	58	4626
2026-01-16 08:01:02.12	341.31	19.32	-46.1	-48.4	15.3	0.00e+00	0	33	0	1091567616	58	4669
2026-01-16 08:01:03.42	341.14	19.18	-46.0	-48.3	15.4	0.00e+00	0	33	0	1093664768	58	4639
2026-01-16 08:01:04.14	341.06	19.10	-46.1	-48.4	15.3	0.00e+00	0	33	0	1095761920	58	4704
2026-01-16 08:01:05.44	340.90	18.96	-46.1	-48.5	15.3	0.00e+00	0	33	0	1097859072	58	4727
2026-01-16 08:01:06.16	340.81	18.88	-46.2	-48.5	15.3	0.00e+00	0	33	0	1098907648	58	4745
2026-01-16 08:01:07.45	340.66	18.74	-46.2	-48.5	15.3	0.00e+00	0	33	0	1101004800	58	4758
2026-01-16 08:01:08.18	340.57	18.67	-46.2	-48.5	15.2	0.00e+00	0	33	0	1103101952	58	4754
2026-01-16 08:01:09.47	340.42	18.53	-46.2	-48.6	15.2	0.00e+00	0	33	0	1105199104	58	4796
2026-01-16 08:01:10.19	340.34	18.45	-46.2	-48.5	15.3	0.00e+00	0	33	0	1106247680	58	4736
2026-01-16 08:01:11.49	340.18	18.31	-46.1	-48.4	15.3	0.00e+00	0	33	0	1109393408	58	4692
2026-01-16 08:01:12.21	340.10	18.24	-46.1	-48.4	15.3	0.00e+00	0	33	0	1110441984	58	4658
2026-01-16 08:01:13.51	339.95	18.10	-46.1	-48.5	15.3	0.00e+00	0	33	0	1112539136	58	4706
2026-01-16 08:01:14.23	339.87	18.02	-46.0	-48.3	15.4	0.00e+00	0	33	0	1114636288	58	4603
2026-01-16 08:01:15.53	339.72	17.89	-45.9	-48.2	15.4	0.00e+00	0	33	0	1116733440	58	4550
2026-01-16 08:01:16.25	339.64	17.81	-46.0	-48.2	15.4	0.00e+00	0	33	0	1117782016	58	4579
2026-01-16 08:01:17.55	339.50	17.68	-45.8	-48.0	15.4	0.00e+00	0	33	0	1119879168	58	4467
2026-01-16 08:01:18.27	339.42	17.60	-45.8	-48.1	15.4	0.00e+00	0	33	0	1121976320	58	4494
2026-01-16 08:01:19.57	339.28	17.47	-45.9	-48.1	15.5	0.00e+00	0	33	0	1124073472	58	4506
2026-01-16 08:01:20.29	339.20	17.39	-45.9	-48.2	15.4	0.00e+00	0	33	0	1125122048	58	4552
2026-01-16 08:01:21.58	339.06	17.26	-45.8	-48.0	15.5	0.00e+00	0	33	0	1128267776	58	4465
2026-01-16 08:01:22.31	338.98	17.19	-45.9	-48.1	15.5	0.00e+00	0	33	0	1129316352	58	4503
2026-01-16 08:01:23.60	338.84	17.05	-45.9	-48.2	15.4	0.00e+00	0	33	0	1131413504	58	4574
2026-01-16 08:01:24.32	338.77	16.98	-45.9	-48.1	15.4	0.00e+00	0	33	0	1133510656	58	4539
2026-01-16 08:01:25.62	338.63	16.85	-46.1	-48.4	15.3	0.00e+00	0	33	0	1135607808	58	4662
2026-01-16 08:01:26.34	338.55	16.78	-46.1	-48.4	15.3	0.00e+00	0	33	0	1136656384	58	4685
2026-01-16 08:01:27.64	338.42	16.64	-46.1	-48.5	15.2	0.00e+00	0	33	0	1139802112	58	4713
2026-01-16 08:01:28.36	338.35	16.57	-46.1	-48.5	15.2	0.00e+00	0	33	0	1140850688	58	4725
2026-01-16 08:01:29.66	338.21	16.44	-46.3	-48.8	15.1	0.00e+00	0	33	0	1142947840	58	4886
2026-01-16 08:01:30.38	338.14	16.37	-46.4	-48.8	15.1	0.00e+00	0	34	0	1143996416	58	4924
2026-01-16 08:01:31.68	338.01	16.24	-46.4	-48.9	15.0	0.00e+00	0	33	0	1147142144	58	4935
2026-01-16 08:01:32.40	337.94	16.17	-46.4	-49.0	15.0	0.00e+00	0	33	0	1148190720	58	4986
2026-01-16 08:01:33.70	337.81	16.04	-46.4	-48.9	15.0	0.00e+00	0	34	0	1150287872	58	4950
2026-01-16 08:01:34.42	337.74	15.97	-46.4	-48.9	15.0	0.00e+00	0	33	0	1152385024	58	4949
2026-01-16 08:01:35.72	337.61	15.84	-46.4	-48.9	15.0	0.00e+00	0	33	0	1154482176	58	4954
2026-01-16 08:01:36.44	337.54	15.77	-46.3	-48.8	15.1	0.00e+00	0	33	0	1155530752	58	4912
2026-01-16 08:01:37.74	337.41	15.64	-46.3	-48.8	15.1	0.00e+00	0	33	0	1158676480	58	4881
2026-01-16 08:01:38.46	337.34	15.57	-46.3	-48.7	15.1	0.00e+00	0	33	0	1159725056	58	4841
2026-01-16 08:01:39.76	337.22	15.45	-46.3	-48.8	15.1	0.00e+00	0	33	0	1161822208	58	4877
2026-01-16 08:01:40.48	337.15	15.38	-46.3	-48.8	15.1	0.00e+00	0	33	0	1163919360	58	4873
2026-01-16 08:01:41.77	337.03	15.25	-46.3	-48.7	15.1	0.00e+00	0	33	0	1166016512	58	4845
2026-01-16 08:01:42.50	336.96	15.18	-46.3	-48.8	15.1	0.00e+00	0	33	0	1167065088	58	4896
2026-01-16 08:01:43.80	336.84	15.06	-46.3	-48.8	15.1	0.00e+00	0	33	0	1169162240	58	4910
2026-01-16 08:01:44.51	336.78	14.99	-46.4	-48.9	15.0	0.00e+00	0	33	0	1171259392	58	4944
2026-01-16 08:01:45.81	336.66	14.86	-46.5	-49.0	14.9	0.00e+00	0	33	0	1173356544	58	5013
2026-01-16 08:01:46.53	336.59	14.80	-46.5	-49.0	14.9	0.00e+00	0	33	0	1174405120	58	5005
2026-01-16 08:01:47.83	336.47	14.67	-46.5	-49.1	14.9	0.00e+00	0	33	0	1177550848	58	5077
2026-01-16 08:01:48.55	336.41	14.60	-46.5	-49.2	14.9	0.00e+00	0	33	0	1178599424	58	5111
2026-01-16 08:01:49.85	336.29	14.48	-46.5	-49.2	14.8	0.00e+00	0	33	0	1180696576	58	5106
2026-01-16 08:01:50.57	336.23	14.41	-46.4	-49.2	14.8	0.00e+00	0	33	0	1182793728	58	5107
2026-01-16 08:01:51.87	336.12	14.29	-46.5	-49.3	14.7	0.00e+00	0	33	0	1184890880	58	5217
2026-01-16 08:01:52.59	336.05	14.23	-46.4	-49.2	14.8	0.00e+00	0	33	0	1185939456	58	5156
2026-01-16 08:01:53.89	335.94	14.10	-46.4	-49.4	14.7	0.00e+00	0	33	0	1188036608	58	5228
2026-01-16 08:01:54.61	335.88	14.04	-46.4	-49.3	14.7	0.00e+00	0	33	0	1190133760	58	5199
2026-01-16 08:01:55.91	335.77	13.92	-46.3	-49.4	14.7	0.00e+00	0	33	0	1192230912	58	5239
2026-01-16 08:01:56.63	335.70	13.85	-46.4	-49.3	14.7	0.00e+00	0	33	0	1193279488	58	5207
2026-01-16 08:01:57.93	335.59	13.73	-46.5	-49.3	14.7	0.00e+00	0	33	0	1196425216	58	5215
2026-01-16 08:01:58.65	335.53	13.67	-46.5	-49.3	14.7	0.00e+00	0	33	0	1197473792	58	5214
2026-01-16 08:01:59.94	335.43	13.55	-46.6	-49.4	14.6	0.00e+00	0	33	0	1199570944	58	5266
2026-01-16 08:02:00.67	335.37	13.48	-46.6	-49.5	14.6	0.00e+00	0	33	0	1201668096	58	5291
2026-01-16 08:02:01.96	335.26	13.36	-46.7	-49.4	14.6	0.00e+00	0	33	0	1203765248	58	5279
2026-01-16 08:02:02.68	335.20	13.30	-46.7	-49.4	14.7	0.00e+00	0	33	0	1204813824	58	5263
2026-01-16 08:02:03.98	335.09	13.18	-46.7	-49.5	14.6	0.00e+00	0	33	0	1207959552	58	5280
2026-01-16 08:02:04.70	335.04	13.12	-46.7	-49.5	14.6	0.00e+00	0	34	0	1209008128	58	5296
2026-01-16 08:02:06.00	334.93	13.00	-46.8	-49.6	14.5	0.00e+00	0	33	0	1211105280	58	5371
2026-01-16 08:02:06.72	334.87	12.94	-46.8	-49.6	14.5	0.00e+00	0	33	0	1212153856	58	5396
2026-01-16 08:02:08.02	334.77	12.82	-46.9	-49.7	14.5	0.00e+00	0	34	0	1215299584	59	5125
2026-01-16 08:02:08.74	334.71	12.76	-46.9	-49.7	14.5	0.00e+00	0	33	0	1216348160	59	5140
2026-01-16 08:02:10.04	334.61	12.64	-46.9	-49.7	14.4	0.00e+00	0	33	0	1218445312	59	5146
2026-01-16 08:02:10.76	334.56	12.58	-46.8	-49.6	14.5	0.00e+00	0	33	0	1220542464	59	5097
2026-01-16 08:02:12.06	334.46	12.46	-47.0	-49.8	14.4	0.00e+00	0	33	0	1222639616	59	5206
2026-01-16 08:02:12.78	334.40	12.40	-47.0	-50.0	14.3	0.00e+00	0	33	0	1223688192	59	5287
2026-01-16 08:02:14.07	334.30	12.29	-47.0	-50.0	14.3	0.00e+00	0	33	0	1226833920	59	5305
2026-01-16 08:02:14.79	334.25	12.23	-47.0	-50.0	14.3	0.00e+00	0	33	0	1227882496	59	5285
2026-01-16 08:02:16.09	334.15	12.11	-47.1	-50.0	14.3	0.00e+00	0	33	0	1229979648	59	5336
2026-01-16 08:02:16.81	334.10	12.05	-47.0	-49.9	14.3	0.00e+00	0	33	0	1231028224	59	5231
2026-01-16 08:02:18.11	334.00	11.94	-47.0	-50.0	14.3	0.00e+00	0	33	0	1234173952	59	5302
2026-01-16 08:02:18.83	333.95	11.88	-47.1	-50.0	14.2	0.00e+00	0	33	0	1235222528	59	5333
2026-01-16 08:02:20.13	333.85	11.76	-47.0	-50.0	14.3	1.50e-06	0	33	0	1237319680	59	5280
2026-01-16 08:02:20.85	333.80	11.70	-47.1	-50.1	14.2	0.00e+00	0	33	0	1239416832	59	5380
2026-01-16 08:02:22.14	333.70	11.59	-47.0	-49.8	14.3	0.00e+00	0	33	0	1241513984	59	5215
