passes_logs/2026/01/16/R3.2S_Murmansk_2ch/R3.2S_Murmansk_2ch__20260116_005241_SUOMI_NPP_rec.log

#Pass ID: 20260116_005241_SUOMI NPP
#Satellite: SUOMI NPP
#Configuration: NPP
#almurnet v.1.7.20251203
#Start time: 2026-01-16 00:52:43

#Version: 2.2.20231116
#Station: R3.2S_Murmansk_2ch
#Location: 33.079688 lon 68.888172 lat
#TLE: 1 37849U 11061A   26015.59739646  .00000050  00000+0  44779-4 0  9992
#TLE: 2 37849  98.7811 317.6408 0002446  62.6499 297.4925 14.19525346736798

#Time	Az	El	Level	Level2	SNR	BER	BlckErr	Temp	State	Recorded	gain1	gain2
2026-01-16 00:52:43.46	25.00	2.11	-49.5	-65.6	3.8	1.49e+00	0	31	0	0	65	22658
2026-01-16 00:52:44.47	25.00	2.18	-49.5	-65.6	3.8	1.49e+00	0	31	104	0	64	24044
2026-01-16 00:52:45.48	25.00	2.24	-49.5	-65.6	3.8	1.49e+00	0	31	104	0	64	24074
2026-01-16 00:52:46.49	25.00	2.31	-49.5	-65.6	3.8	1.49e+00	0	31	104	0	64	23971
2026-01-16 00:52:47.50	25.00	2.37	-49.5	-65.6	3.8	1.49e+00	0	31	104	0	64	23988
2026-01-16 00:52:48.51	25.00	2.44	-49.5	-65.6	3.8	1.49e+00	0	31	104	0	64	23888
2026-01-16 00:52:49.52	25.00	2.51	-49.5	-65.5	3.8	1.49e+00	0	31	104	0	64	23834
2026-01-16 00:52:50.53	25.00	2.57	-49.5	-65.6	3.8	1.49e+00	0	31	104	0	64	23886
2026-01-16 00:52:51.54	25.01	2.64	-49.5	-65.5	3.8	1.49e+00	0	31	104	0	64	23807
2026-01-16 00:52:52.55	25.01	2.70	-49.5	-65.6	3.8	1.49e+00	0	31	104	0	64	23949
2026-01-16 00:52:53.56	25.01	2.77	-49.5	-65.6	3.8	1.49e+00	0	31	104	0	64	24015
2026-01-16 00:52:54.57	25.01	2.84	-49.5	-65.6	3.8	1.49e+00	0	31	104	0	64	24062
2026-01-16 00:52:55.57	25.01	2.90	-49.5	-65.6	3.8	1.49e+00	0	31	104	0	64	23975
2026-01-16 00:52:56.58	25.01	2.97	-49.5	-65.4	3.8	1.49e+00	0	31	104	0	64	23347
2026-01-16 00:52:57.59	25.01	3.03	-49.5	-65.1	3.8	1.49e+00	0	31	104	0	64	22766
2026-01-16 00:52:58.60	25.01	3.10	-49.4	-64.2	3.8	1.49e+00	0	31	104	0	64	20487
2026-01-16 00:52:59.61	25.01	3.17	-49.4	-63.2	4.0	1.49e+00	0	31	104	0	64	18215
2026-01-16 00:53:00.62	25.01	3.24	-49.3	-62.1	4.2	1.46e+00	0	31	0	0	64	16108
2026-01-16 00:53:01.63	25.01	3.30	-49.2	-61.1	4.5	8.85e-01	2	31	0	1048576	64	14271
2026-01-16 00:53:02.64	25.01	3.37	-49.0	-58.8	5.7	7.39e-01	0	31	0	3145728	64	11012
2026-01-16 00:53:03.65	25.01	3.44	-49.0	-58.1	6.2	3.53e-01	0	31	0	4194304	64	10114
2026-01-16 00:53:04.66	25.01	3.51	-48.9	-57.6	6.4	2.27e-01	0	31	0	6291456	64	9582
2026-01-16 00:53:05.67	25.01	3.58	-48.2	-56.0	7.5	1.38e-01	0	31	0	8388608	63	8439
2026-01-16 00:53:06.67	25.01	3.64	-48.5	-55.5	8.4	4.07e-02	0	31	0	10485760	63	7971
2026-01-16 00:53:07.69	25.01	3.71	-48.5	-55.6	8.3	3.27e-02	0	31	0	12582912	63	8053
2026-01-16 00:53:08.69	25.01	3.78	-48.3	-54.7	9.2	1.97e-02	0	31	0	14680064	63	7232
2026-01-16 00:53:09.70	25.01	3.85	-47.8	-53.1	10.4	1.22e-02	0	31	0	15728640	62	6390
2026-01-16 00:53:10.71	25.01	3.92	-47.7	-52.9	10.7	3.97e-04	0	31	0	17825792	61	6641
2026-01-16 00:53:11.72	25.01	3.99	-47.6	-52.6	10.8	1.57e-03	0	32	0	19922944	61	6396
2026-01-16 00:53:12.72	25.01	4.06	-47.8	-53.2	10.4	2.33e-04	0	32	0	22020096	61	6855
2026-01-16 00:53:13.74	25.01	4.13	-48.1	-54.0	9.7	6.94e-03	0	31	0	24117248	61	7462
2026-01-16 00:53:14.74	25.01	4.19	-48.1	-54.2	9.6	4.12e-03	0	32	0	25165824	61	7643
2026-01-16 00:53:15.75	25.01	4.26	-48.5	-55.3	8.6	8.04e-03	0	32	0	27262976	62	8215
2026-01-16 00:53:16.76	25.01	4.33	-48.5	-55.5	8.4	3.31e-02	0	32	0	29360128	62	8417
2026-01-16 00:53:17.77	25.01	4.40	-48.4	-55.2	8.7	2.00e-02	0	32	0	31457280	62	8113
2026-01-16 00:53:18.78	25.01	4.47	-48.8	-56.6	7.4	6.69e-02	0	32	0	33554432	62	9559
2026-01-16 00:53:19.79	25.01	4.55	-48.6	-55.8	8.1	7.06e-02	0	32	0	34603008	62	8693
2026-01-16 00:53:20.80	25.01	4.62	-48.8	-56.7	7.4	7.33e-02	0	32	0	36700160	62	9616
2026-01-16 00:53:21.81	25.01	4.69	-49.0	-58.3	6.1	1.47e-01	0	32	0	38797312	63	10956
2026-01-16 00:53:22.82	25.01	4.76	-49.0	-58.3	6.1	4.08e-01	0	32	0	40894464	63	10957
2026-01-16 00:53:23.83	25.01	4.83	-49.2	-59.5	5.4	4.73e-01	0	32	0	42991616	63	12531
2026-01-16 00:53:24.84	25.01	4.90	-49.2	-59.4	5.4	5.67e-01	0	32	0	44040192	63	12460
2026-01-16 00:53:25.85	25.01	4.97	-49.3	-60.1	5.0	5.16e-01	0	32	0	46137344	63	13433
2026-01-16 00:53:26.86	25.01	5.04	-49.3	-60.9	4.6	8.63e-01	0	32	0	48234496	63	14866
2026-01-16 00:53:27.87	25.01	5.12	-49.4	-58.8	6.0	6.49e-01	0	32	0	50331648	63	11610
2026-01-16 00:53:28.87	25.01	5.19	-49.4	-60.1	5.2	2.78e-01	0	32	0	52428800	64	12755
2026-01-16 00:53:29.88	25.01	5.26	-49.4	-61.3	4.5	1.40e+00	0	32	0	53477376	64	14565
2026-01-16 00:53:30.89	25.01	5.33	-49.4	-58.5	6.2	7.71e-01	0	32	0	54525952	64	10592
2026-01-16 00:53:31.90	25.01	5.41	-49.5	-64.1	3.9	3.01e-01	0	32	0	55574528	64	20258
2026-01-16 00:53:32.91	25.01	5.48	-49.4	-59.1	4.5	1.49e+00	0	32	104	55574528	64	11354
2026-01-16 00:53:33.92	25.01	5.55	-49.2	-57.1	7.4	8.27e-02	0	32	0	56623104	64	9039
2026-01-16 00:53:34.93	25.01	5.63	-49.3	-57.4	7.2	1.12e-01	0	32	0	57671680	64	9297
2026-01-16 00:53:35.94	25.01	5.70	-49.2	-57.0	7.4	1.05e-01	0	32	0	59768832	64	8942
2026-01-16 00:53:36.95	25.01	5.77	-49.0	-55.8	8.6	5.17e-02	0	32	0	61865984	64	7800
2026-01-16 00:53:37.95	25.01	5.85	-49.0	-55.9	8.6	3.05e-02	0	32	0	63963136	64	7839
2026-01-16 00:53:38.96	25.01	5.92	-49.0	-55.8	8.6	2.69e-02	0	32	0	66060288	64	7772
2026-01-16 00:53:39.97	25.01	6.00	-48.7	-54.6	9.8	1.10e-02	0	32	0	67108864	63	7174
2026-01-16 00:53:40.98	25.01	6.07	-48.8	-54.8	9.7	4.58e-03	0	32	0	69206016	63	7341
2026-01-16 00:53:41.99	25.01	6.15	-48.6	-54.1	10.2	2.45e-03	0	32	0	71303168	63	6801
2026-01-16 00:53:43.00	25.01	6.22	-48.5	-53.8	10.5	1.69e-03	0	32	0	73400320	63	6542
2026-01-16 00:53:44.01	25.01	6.30	-48.4	-53.6	10.7	1.43e-03	0	32	0	75497472	63	6376
2026-01-16 00:53:45.02	25.01	6.37	-48.2	-53.1	11.2	1.14e-04	0	32	0	76546048	62	6356
2026-01-16 00:53:46.03	25.01	6.45	-48.2	-53.0	11.2	4.57e-04	0	32	0	78643200	62	6291
2026-01-16 00:53:47.04	25.01	6.52	-48.1	-52.8	11.5	1.18e-04	0	32	0	80740352	62	6152
2026-01-16 00:53:48.05	25.01	6.60	-48.1	-52.8	11.4	1.68e-04	0	32	0	82837504	62	6170
2026-01-16 00:53:49.06	25.01	6.68	-48.0	-52.3	11.9	6.86e-05	0	32	0	84934656	62	5818
2026-01-16 00:53:50.07	25.01	6.75	-48.1	-52.6	11.7	4.04e-05	0	32	0	87031808	62	6017
2026-01-16 00:53:51.08	25.00	6.83	-47.9	-52.3	11.9	4.65e-05	0	32	0	88080384	62	5800
2026-01-16 00:53:52.09	25.00	6.91	-47.9	-52.2	12.0	1.90e-05	0	32	0	90177536	62	5781
2026-01-16 00:53:53.10	25.00	6.99	-47.9	-52.1	12.0	3.35e-05	0	32	0	92274688	62	5719
2026-01-16 00:53:54.11	25.00	7.06	-47.8	-51.9	12.2	1.14e-05	0	32	0	94371840	62	5583
2026-01-16 00:53:55.11	25.00	7.14	-47.9	-52.1	12.1	1.37e-05	0	32	0	96468992	62	5693
2026-01-16 00:53:56.12	25.00	7.22	-47.6	-51.4	12.5	2.13e-05	0	32	0	97517568	61	5585
2026-01-16 00:53:57.13	25.00	7.30	-47.6	-51.6	12.4	4.50e-06	0	32	0	99614720	61	5689
2026-01-16 00:53:58.14	25.00	7.38	-47.6	-51.5	12.4	2.20e-06	0	32	0	101711872	61	5650
2026-01-16 00:53:59.15	25.00	7.45	-47.7	-51.6	12.4	0.00e+00	0	32	0	103809024	61	5707
2026-01-16 00:54:00.16	25.00	7.53	-47.6	-51.5	12.5	7.00e-07	0	32	0	105906176	61	5628
2026-01-16 00:54:01.17	25.00	7.61	-47.4	-51.0	12.9	3.80e-06	0	32	0	106954752	61	5325
2026-01-16 00:54:02.18	25.00	7.69	-47.4	-51.0	12.9	0.00e+00	0	32	0	109051904	61	5335
2026-01-16 00:54:03.19	24.99	7.77	-47.3	-50.9	13.0	7.00e-07	0	32	0	111149056	61	5276
2026-01-16 00:54:04.20	24.99	7.85	-47.4	-51.1	12.9	0.00e+00	0	32	0	113246208	61	5345
2026-01-16 00:54:05.21	24.99	7.93	-47.2	-50.6	13.2	1.50e-06	0	32	0	115343360	61	5099
2026-01-16 00:54:06.22	24.99	8.01	-47.1	-50.5	13.3	0.00e+00	0	32	0	116391936	60	5323
2026-01-16 00:54:07.23	24.99	8.09	-47.4	-50.9	13.0	0.00e+00	0	32	0	118489088	60	5573
2026-01-16 00:54:08.24	24.99	8.18	-47.1	-50.5	13.3	0.00e+00	0	32	0	120586240	60	5325
2026-01-16 00:54:09.25	24.99	8.26	-47.2	-50.7	13.2	0.00e+00	0	32	0	122683392	60	5407
2026-01-16 00:54:10.25	24.99	8.34	-47.2	-50.7	13.2	0.00e+00	0	32	0	124780544	60	5421
2026-01-16 00:54:11.26	24.98	8.42	-47.2	-50.6	13.3	0.00e+00	0	32	0	125829120	60	5388
2026-01-16 00:54:12.27	24.98	8.50	-47.2	-50.6	13.3	0.00e+00	0	32	0	127926272	60	5343
2026-01-16 00:54:13.28	24.98	8.59	-47.1	-50.4	13.4	0.00e+00	0	32	0	130023424	60	5259
2026-01-16 00:54:14.29	24.98	8.67	-47.1	-50.5	13.4	0.00e+00	0	32	0	132120576	60	5280
2026-01-16 00:54:15.30	24.98	8.75	-47.2	-50.6	13.3	0.00e+00	0	32	0	134217728	60	5359
2026-01-16 00:54:16.31	24.98	8.83	-47.2	-50.5	13.3	0.00e+00	0	32	0	135266304	60	5329
2026-01-16 00:54:17.32	24.98	8.92	-47.1	-50.3	13.5	0.00e+00	0	32	0	137363456	60	5202
2026-01-16 00:54:18.33	24.97	9.00	-47.1	-50.3	13.5	0.00e+00	0	32	0	139460608	60	5188
2026-01-16 00:54:19.34	24.97	9.09	-47.0	-50.3	13.5	0.00e+00	0	32	0	141557760	60	5162
2026-01-16 00:54:20.35	24.97	9.17	-47.1	-50.3	13.5	0.00e+00	0	32	0	143654912	60	5201
2026-01-16 00:54:21.36	24.97	9.25	-47.0	-50.2	13.6	0.00e+00	0	32	0	144703488	60	5115
2026-01-16 00:54:22.37	24.97	9.34	-47.1	-50.3	13.5	0.00e+00	0	32	0	146800640	60	5213
2026-01-16 00:54:23.38	24.97	9.43	-47.2	-50.6	13.4	0.00e+00	0	32	0	148897792	60	5348
2026-01-16 00:54:24.12	24.97	9.49	-47.1	-50.4	13.5	0.00e+00	0	32	0	150994944	60	5246
2026-01-16 00:54:25.42	24.96	9.60	-47.0	-50.2	13.6	0.00e+00	0	32	0	153092096	60	5156
2026-01-16 00:54:26.14	24.96	9.66	-46.9	-49.9	13.7	0.00e+00	0	32	0	155189248	60	4981
2026-01-16 00:54:27.44	24.96	9.77	-47.2	-50.3	13.7	0.00e+00	0	32	0	157286400	59	5519
2026-01-16 00:54:28.16	24.96	9.83	-47.2	-50.5	13.7	0.00e+00	0	32	0	158334976	59	5606
2026-01-16 00:54:29.46	24.96	9.95	-47.1	-50.2	13.9	0.00e+00	0	32	0	160432128	59	5423
2026-01-16 00:54:30.18	24.95	10.01	-47.1	-50.3	13.8	0.00e+00	0	32	0	162529280	59	5496
2026-01-16 00:54:31.48	24.95	10.12	-47.1	-50.2	13.8	0.00e+00	0	32	0	164626432	59	5421
2026-01-16 00:54:32.20	24.95	10.18	-47.1	-50.2	13.9	0.00e+00	0	32	0	165675008	59	5447
2026-01-16 00:54:33.49	24.95	10.30	-47.1	-50.3	13.9	0.00e+00	0	32	0	168820736	59	5477
2026-01-16 00:54:34.21	24.95	10.36	-47.0	-50.1	13.9	0.00e+00	0	32	0	169869312	59	5359
2026-01-16 00:54:35.51	24.94	10.47	-47.0	-50.0	14.0	0.00e+00	0	32	0	171966464	59	5320
2026-01-16 00:54:36.23	24.94	10.54	-46.9	-49.9	14.1	0.00e+00	0	32	0	173015040	59	5258
2026-01-16 00:54:37.53	24.94	10.65	-47.0	-50.0	14.0	0.00e+00	0	32	0	176160768	59	5293
2026-01-16 00:54:38.25	24.94	10.72	-46.9	-49.9	14.1	0.00e+00	0	32	0	177209344	59	5263
2026-01-16 00:54:39.55	24.93	10.83	-46.8	-49.7	14.2	0.00e+00	0	32	0	179306496	59	5136
2026-01-16 00:54:40.27	24.93	10.90	-46.9	-49.8	14.2	0.00e+00	0	32	0	181403648	59	5200
2026-01-16 00:54:41.57	24.93	11.01	-46.9	-49.8	14.2	0.00e+00	0	32	0	183500800	59	5215
2026-01-16 00:54:42.29	24.93	11.08	-46.8	-49.7	14.2	0.00e+00	0	33	0	184549376	59	5146
2026-01-16 00:54:43.59	24.93	11.20	-46.7	-49.5	14.3	0.00e+00	0	32	0	187695104	59	5041
2026-01-16 00:54:44.31	24.92	11.26	-46.7	-49.5	14.3	0.00e+00	0	32	0	188743680	59	5012
2026-01-16 00:54:45.60	24.92	11.38	-46.7	-49.5	14.4	0.00e+00	0	32	0	190840832	59	4985
2026-01-16 00:54:46.32	24.92	11.45	-46.6	-49.3	14.5	0.00e+00	0	32	0	192937984	59	4905
2026-01-16 00:54:47.62	24.91	11.57	-46.6	-49.3	14.5	0.00e+00	0	32	0	195035136	59	4882
2026-01-16 00:54:48.34	24.91	11.63	-46.6	-49.4	14.5	0.00e+00	0	32	0	196083712	59	4956
2026-01-16 00:54:49.64	24.91	11.75	-46.6	-49.3	14.5	0.00e+00	0	32	0	199229440	59	4895
2026-01-16 00:54:50.36	24.91	11.82	-46.7	-49.5	14.4	0.00e+00	0	32	0	200278016	59	4985
2026-01-16 00:54:51.66	24.90	11.94	-46.7	-49.5	14.4	0.00e+00	0	32	0	202375168	59	4987
2026-01-16 00:54:52.38	24.90	12.01	-46.5	-49.2	14.5	0.00e+00	0	33	0	203423744	59	4855
2026-01-16 00:54:53.68	24.90	12.13	-46.4	-49.1	14.6	0.00e+00	0	33	0	206569472	59	4785
2026-01-16 00:54:54.40	24.90	12.20	-46.5	-49.1	14.6	0.00e+00	0	33	0	207618048	59	4809
2026-01-16 00:54:55.70	24.89	12.32	-46.3	-48.9	14.8	0.00e+00	0	32	0	209715200	59	4659
2026-01-16 00:54:56.42	24.89	12.39	-46.3	-48.9	14.8	0.00e+00	0	32	0	211812352	59	4689
2026-01-16 00:54:57.71	24.89	12.52	-46.4	-49.0	14.8	0.00e+00	0	33	0	213909504	59	4711
2026-01-16 00:54:58.43	24.88	12.58	-46.4	-48.9	14.7	0.00e+00	0	32	0	214958080	59	4700
2026-01-16 00:54:59.73	24.88	12.71	-46.3	-48.8	14.8	0.00e+00	0	32	0	218103808	59	4647
2026-01-16 00:55:00.45	24.88	12.78	-46.2	-48.7	14.9	0.00e+00	0	33	0	219152384	59	4569
2026-01-16 00:55:01.75	24.87	12.91	-46.2	-48.7	14.9	0.00e+00	0	33	0	221249536	58	4824
2026-01-16 00:55:02.47	24.87	12.98	-46.2	-48.7	14.9	0.00e+00	0	32	0	222298112	58	4852
2026-01-16 00:55:03.77	24.87	13.10	-46.3	-48.8	14.8	0.00e+00	0	32	0	225443840	58	4901
2026-01-16 00:55:04.49	24.86	13.18	-46.3	-48.8	14.8	0.00e+00	0	32	0	226492416	58	4913
2026-01-16 00:55:05.79	24.86	13.30	-46.2	-48.7	14.9	0.00e+00	0	33	0	228589568	58	4819
2026-01-16 00:55:06.51	24.86	13.38	-46.0	-48.3	15.1	0.00e+00	0	33	0	230686720	58	4648
2026-01-16 00:55:07.80	24.85	13.50	-46.1	-48.5	15.0	0.00e+00	0	32	0	232783872	58	4734
2026-01-16 00:55:08.53	24.85	13.58	-46.0	-48.4	15.0	0.00e+00	0	33	0	233832448	58	4693
2026-01-16 00:55:09.82	24.84	13.71	-46.0	-48.4	15.1	0.00e+00	0	32	0	236978176	58	4695
2026-01-16 00:55:10.54	24.84	13.78	-46.0	-48.4	15.1	0.00e+00	0	32	0	238026752	58	4676
2026-01-16 00:55:11.84	24.84	13.91	-46.0	-48.3	15.2	0.00e+00	0	32	0	240123904	58	4646
2026-01-16 00:55:12.56	24.83	13.98	-45.9	-48.2	15.2	0.00e+00	0	32	0	241172480	58	4589
2026-01-16 00:55:13.86	24.83	14.12	-45.9	-48.3	15.2	0.00e+00	0	33	0	244318208	58	4602
2026-01-16 00:55:14.58	24.83	14.19	-45.9	-48.2	15.2	0.00e+00	0	32	0	245366784	58	4567
2026-01-16 00:55:15.88	24.82	14.32	-45.8	-48.1	15.3	0.00e+00	0	33	0	247463936	58	4527
2026-01-16 00:55:16.60	24.82	14.40	-45.7	-48.0	15.3	0.00e+00	0	33	0	249561088	58	4447
2026-01-16 00:55:17.89	24.81	14.53	-45.6	-47.8	15.4	0.00e+00	0	32	0	251658240	57	4641
2026-01-16 00:55:18.61	24.81	14.61	-45.6	-47.9	15.3	0.00e+00	0	32	0	252706816	57	4674
2026-01-16 00:55:19.91	24.80	14.74	-45.6	-47.8	15.4	0.00e+00	0	33	0	255852544	57	4603
2026-01-16 00:55:20.63	24.80	14.82	-45.6	-47.8	15.4	0.00e+00	0	32	0	256901120	57	4623
2026-01-16 00:55:21.93	24.80	14.96	-45.4	-47.6	15.5	0.00e+00	0	33	0	258998272	57	4520
2026-01-16 00:55:22.65	24.79	15.03	-45.4	-47.6	15.5	0.00e+00	0	33	0	261095424	57	4508
2026-01-16 00:55:23.95	24.79	15.17	-45.4	-47.6	15.5	0.00e+00	0	32	0	263192576	57	4527
2026-01-16 00:55:24.67	24.78	15.25	-45.5	-47.7	15.4	0.00e+00	0	32	0	264241152	57	4567
2026-01-16 00:55:25.97	24.78	15.39	-45.4	-47.6	15.5	0.00e+00	0	32	0	266338304	57	4511
2026-01-16 00:55:26.69	24.77	15.47	-45.4	-47.6	15.5	0.00e+00	0	32	0	268435456	57	4510
2026-01-16 00:55:27.99	24.77	15.61	-45.5	-47.7	15.5	0.00e+00	0	32	0	270532608	57	4549
2026-01-16 00:55:28.71	24.76	15.69	-45.3	-47.3	15.6	0.00e+00	0	32	0	271581184	57	4391
2026-01-16 00:55:30.01	24.76	15.83	-45.3	-47.4	15.6	0.00e+00	0	32	0	274726912	57	4400
2026-01-16 00:55:30.73	24.75	15.91	-45.3	-47.5	15.6	0.00e+00	0	32	0	275775488	57	4446
2026-01-16 00:55:32.02	24.75	16.05	-45.2	-47.2	15.7	0.00e+00	0	32	0	277872640	56	4593
2026-01-16 00:55:32.75	24.74	16.13	-45.3	-47.3	15.6	0.00e+00	0	33	0	279969792	56	4648
2026-01-16 00:55:34.04	24.74	16.28	-45.3	-47.3	15.6	0.00e+00	0	32	0	282066944	56	4639
2026-01-16 00:55:34.76	24.73	16.36	-45.2	-47.3	15.6	0.00e+00	0	33	0	283115520	56	4607
2026-01-16 00:55:36.06	24.73	16.51	-45.2	-47.3	15.6	0.00e+00	0	33	0	286261248	56	4642
2026-01-16 00:55:36.78	24.72	16.59	-45.1	-47.2	15.6	0.00e+00	0	32	0	287309824	56	4566
2026-01-16 00:55:38.08	24.72	16.73	-45.2	-47.3	15.7	0.00e+00	0	32	0	289406976	56	4604
2026-01-16 00:55:38.80	24.71	16.82	-45.2	-47.2	15.7	0.00e+00	0	33	0	290455552	56	4597
2026-01-16 00:55:40.10	24.70	16.97	-45.3	-47.3	15.6	0.00e+00	0	32	0	293601280	56	4643
2026-01-16 00:55:40.82	24.70	17.05	-45.3	-47.4	15.6	0.00e+00	0	32	0	294649856	56	4666
2026-01-16 00:55:42.12	24.69	17.20	-45.1	-47.1	15.7	0.00e+00	0	33	0	296747008	56	4544
2026-01-16 00:55:42.84	24.69	17.28	-45.1	-47.2	15.7	0.00e+00	0	33	0	298844160	56	4555
2026-01-16 00:55:44.14	24.68	17.44	-45.1	-47.2	15.7	0.00e+00	0	33	0	300941312	56	4550
2026-01-16 00:55:44.86	24.68	17.52	-45.2	-47.2	15.6	0.00e+00	0	32	0	301989888	56	4583
2026-01-16 00:55:46.15	24.67	17.67	-45.1	-47.1	15.7	0.00e+00	0	33	0	305135616	56	4531
2026-01-16 00:55:46.88	24.66	17.76	-45.1	-47.1	15.7	0.00e+00	0	33	0	306184192	56	4494
2026-01-16 00:55:48.17	24.66	17.91	-44.9	-46.8	15.9	0.00e+00	0	32	0	308281344	56	4363
2026-01-16 00:55:48.90	24.65	18.00	-44.9	-46.8	15.8	0.00e+00	0	32	0	309329920	56	4386
2026-01-16 00:55:50.19	24.64	18.16	-44.8	-46.8	15.9	0.00e+00	0	32	0	312475648	56	4350
2026-01-16 00:55:50.91	24.64	18.24	-44.8	-46.8	15.9	0.00e+00	0	32	0	313524224	56	4357
2026-01-16 00:55:52.21	24.63	18.40	-44.8	-46.7	15.9	0.00e+00	0	32	0	315621376	56	4309
2026-01-16 00:55:52.94	24.63	18.49	-44.7	-46.5	16.0	0.00e+00	0	32	0	317718528	56	4234
2026-01-16 00:55:54.23	24.62	18.65	-44.5	-46.3	16.0	0.00e+00	0	33	0	319815680	55	4387
2026-01-16 00:55:54.95	24.61	18.74	-44.5	-46.3	16.0	0.00e+00	0	32	0	320864256	55	4380
2026-01-16 00:55:56.25	24.60	18.90	-44.5	-46.3	16.0	0.00e+00	0	33	0	324009984	55	4389
2026-01-16 00:55:56.97	24.60	18.99	-44.5	-46.4	16.0	0.00e+00	0	33	0	325058560	55	4422
2026-01-16 00:55:58.27	24.59	19.15	-44.5	-46.4	16.0	0.00e+00	0	33	0	327155712	55	4413
2026-01-16 00:55:58.99	24.58	19.25	-44.5	-46.4	16.0	0.00e+00	0	33	0	329252864	55	4417
2026-01-16 00:56:00.29	24.57	19.41	-44.4	-46.3	16.0	0.00e+00	0	33	0	331350016	55	4343
2026-01-16 00:56:01.01	24.57	19.50	-44.5	-46.3	16.0	0.00e+00	0	33	0	332398592	55	4379
2026-01-16 00:56:02.31	24.56	19.67	-44.6	-46.5	15.9	0.00e+00	0	33	0	334495744	55	4493
2026-01-16 00:56:03.03	24.55	19.76	-44.5	-46.4	16.0	0.00e+00	0	33	0	336592896	55	4417
2026-01-16 00:56:04.33	24.54	19.93	-44.5	-46.4	16.0	0.00e+00	0	32	0	338690048	55	4405
2026-01-16 00:56:05.05	24.54	20.02	-44.6	-46.5	15.9	0.00e+00	0	33	0	339738624	55	4467
2026-01-16 00:56:06.34	24.53	20.19	-44.6	-46.5	15.9	0.00e+00	0	33	0	342884352	55	4456
2026-01-16 00:56:07.07	24.52	20.29	-44.5	-46.4	16.0	0.00e+00	0	33	0	343932928	55	4422
2026-01-16 00:56:08.36	24.51	20.46	-44.5	-46.4	16.0	0.00e+00	0	33	0	346030080	55	4416
2026-01-16 00:56:09.08	24.51	20.55	-44.5	-46.3	16.0	0.00e+00	0	33	0	348127232	55	4360
2026-01-16 00:56:10.38	24.49	20.73	-44.4	-46.3	16.0	0.00e+00	0	33	0	350224384	55	4354
2026-01-16 00:56:11.10	24.49	20.83	-44.5	-46.4	16.0	0.00e+00	0	33	0	351272960	55	4397
2026-01-16 00:56:12.40	24.48	21.00	-44.6	-46.4	16.0	0.00e+00	0	33	0	354418688	55	4431
2026-01-16 00:56:13.12	24.47	21.10	-44.6	-46.4	16.0	0.00e+00	0	33	0	355467264	55	4439
2026-01-16 00:56:14.42	24.46	21.28	-44.5	-46.3	16.0	0.00e+00	0	33	0	357564416	55	4368
2026-01-16 00:56:15.14	24.45	21.38	-44.5	-46.3	16.1	0.00e+00	0	33	0	358612992	55	4385
2026-01-16 00:56:16.43	24.44	21.55	-44.4	-46.3	16.0	0.00e+00	0	33	0	361758720	55	4352
2026-01-16 00:56:17.16	24.44	21.65	-44.5	-46.4	16.0	0.00e+00	0	33	0	362807296	55	4402
2026-01-16 00:56:18.45	24.42	21.83	-44.7	-46.6	15.9	0.00e+00	0	32	0	364904448	55	4514
2026-01-16 00:56:19.17	24.42	21.94	-44.6	-46.5	16.0	0.00e+00	0	33	0	367001600	55	4462
2026-01-16 00:56:20.47	24.40	22.12	-44.7	-46.6	15.9	0.00e+00	0	32	0	369098752	55	4543
2026-01-16 00:56:21.19	24.40	22.22	-44.7	-46.7	15.9	0.00e+00	0	33	0	370147328	55	4554
2026-01-16 00:56:22.49	24.38	22.41	-44.7	-46.6	15.9	0.00e+00	0	33	0	373293056	55	4521
2026-01-16 00:56:23.21	24.38	22.51	-44.7	-46.6	15.9	0.00e+00	0	33	0	374341632	55	4536
2026-01-16 00:56:24.51	24.36	22.70	-44.7	-46.6	15.9	0.00e+00	0	32	0	376438784	55	4529
2026-01-16 00:56:25.23	24.36	22.80	-44.7	-46.5	15.9	0.00e+00	0	33	0	377487360	55	4489
2026-01-16 00:56:26.53	24.34	22.99	-44.8	-46.8	15.8	0.00e+00	0	33	0	380633088	55	4615
2026-01-16 00:56:27.25	24.34	23.10	-44.6	-46.4	16.0	0.00e+00	0	33	0	381681664	55	4433
2026-01-16 00:56:28.55	24.32	23.29	-44.6	-46.5	15.9	0.00e+00	0	33	0	383778816	55	4487
2026-01-16 00:56:29.27	24.31	23.40	-44.7	-46.7	15.9	0.00e+00	0	33	0	385875968	55	4548
2026-01-16 00:56:30.57	24.30	23.59	-44.6	-46.5	16.0	0.00e+00	0	33	0	387973120	55	4477
2026-01-16 00:56:31.29	24.29	23.70	-44.7	-46.7	15.9	0.00e+00	0	33	0	389021696	55	4548
2026-01-16 00:56:32.59	24.28	23.90	-44.9	-46.9	15.8	0.00e+00	0	33	0	392167424	55	4670
2026-01-16 00:56:33.31	24.27	24.01	-44.9	-46.8	15.8	0.00e+00	0	33	0	393216000	55	4648
2026-01-16 00:56:34.60	24.26	24.20	-45.1	-47.1	15.7	0.00e+00	0	32	0	395313152	55	4766
2026-01-16 00:56:35.33	24.25	24.32	-44.9	-46.9	15.8	0.00e+00	0	32	0	396361728	55	4681
2026-01-16 00:56:36.62	24.23	24.52	-44.9	-46.9	15.8	0.00e+00	0	33	0	399507456	55	4666
2026-01-16 00:56:37.35	24.22	24.63	-45.3	-47.4	15.6	0.00e+00	0	33	0	400556032	55	4946
2026-01-16 00:56:38.64	24.21	24.83	-45.0	-47.0	15.7	0.00e+00	0	33	0	402653184	55	4754
2026-01-16 00:56:39.36	24.20	24.95	-44.9	-46.9	15.8	0.00e+00	0	33	0	404750336	55	4660
2026-01-16 00:56:40.66	24.18	25.15	-44.7	-46.6	16.0	0.00e+00	0	33	0	406847488	55	4542
2026-01-16 00:56:41.38	24.17	25.27	-44.9	-46.8	15.9	0.00e+00	0	33	0	407896064	55	4618
2026-01-16 00:56:42.68	24.16	25.48	-45.0	-46.9	15.8	0.00e+00	0	33	0	411041792	55	4700
2026-01-16 00:56:43.40	24.15	25.59	-44.8	-46.7	15.9	0.00e+00	0	32	0	412090368	55	4569
2026-01-16 00:56:44.70	24.13	25.80	-44.7	-46.6	15.9	0.00e+00	0	33	0	414187520	55	4511
2026-01-16 00:56:45.42	24.12	25.92	-44.9	-46.8	15.8	0.00e+00	0	33	0	416284672	55	4623
2026-01-16 00:56:46.72	24.10	26.14	-44.9	-46.9	15.8	0.00e+00	0	33	0	418381824	55	4679
2026-01-16 00:56:47.44	24.09	26.26	-44.8	-46.7	15.9	0.00e+00	0	32	0	419430400	55	4590
2026-01-16 00:56:48.73	24.08	26.47	-45.3	-47.3	15.6	0.00e+00	0	33	0	421527552	55	4922
2026-01-16 00:56:49.46	24.07	26.59	-45.7	-47.8	15.5	0.00e+00	0	33	0	423624704	56	4918
2026-01-16 00:56:50.75	24.05	26.81	-45.9	-48.1	15.4	0.00e+00	0	32	0	425721856	57	4802
2026-01-16 00:56:51.47	24.04	26.93	-46.0	-48.3	15.2	0.00e+00	0	33	0	426770432	57	4920
2026-01-16 00:56:52.77	24.02	27.16	-45.9	-48.2	15.4	0.00e+00	0	33	0	429916160	57	4832
2026-01-16 00:56:53.49	24.01	27.28	-46.4	-48.8	15.0	0.00e+00	0	33	0	430964736	58	4892
2026-01-16 00:56:54.79	23.99	27.50	-46.2	-48.6	15.1	0.00e+00	0	33	0	433061888	58	4800
2026-01-16 00:56:55.51	23.98	27.63	-46.3	-48.6	15.1	0.00e+00	0	32	0	435159040	58	4797
2026-01-16 00:56:56.81	23.96	27.86	-46.3	-48.6	15.1	0.00e+00	0	32	0	437256192	58	4797
2026-01-16 00:56:57.53	23.95	27.98	-46.1	-48.5	15.2	0.00e+00	0	32	0	438304768	58	4706
2026-01-16 00:56:58.83	23.93	28.22	-46.5	-48.9	15.0	0.00e+00	0	33	0	440401920	58	4967
2026-01-16 00:56:59.55	23.91	28.34	-46.2	-48.6	15.1	0.00e+00	0	33	0	442499072	58	4786
2026-01-16 00:57:00.85	23.89	28.58	-46.2	-48.6	15.2	0.00e+00	0	32	0	444596224	58	4763
2026-01-16 00:57:01.57	23.88	28.71	-46.5	-48.9	15.0	0.00e+00	0	33	0	445644800	58	4967
2026-01-16 00:57:02.87	23.86	28.95	-46.7	-49.3	14.8	0.00e+00	0	33	0	448790528	58	5169
2026-01-16 00:57:03.59	23.85	29.08	-46.5	-49.0	15.0	0.00e+00	0	33	0	449839104	58	5029
2026-01-16 00:57:04.88	23.82	29.32	-46.9	-49.6	14.7	0.00e+00	0	32	0	451936256	59	5070
2026-01-16 00:57:05.61	23.81	29.45	-46.9	-49.6	14.6	0.00e+00	0	33	0	454033408	59	5072
2026-01-16 00:57:06.90	23.79	29.69	-47.0	-49.7	14.6	0.00e+00	0	33	0	456130560	59	5101
2026-01-16 00:57:07.62	23.78	29.83	-46.8	-49.4	14.7	0.00e+00	0	33	0	457179136	59	4971
2026-01-16 00:57:08.92	23.75	30.08	-46.8	-49.4	14.8	0.00e+00	0	33	0	460324864	59	4941
2026-01-16 00:57:09.64	23.74	30.21	-46.8	-49.3	14.8	0.00e+00	0	33	0	461373440	59	4915
2026-01-16 00:57:10.94	23.71	30.46	-46.5	-48.9	15.1	0.00e+00	0	33	0	463470592	59	4657
2026-01-16 00:57:11.66	23.70	30.60	-46.5	-49.0	15.0	0.00e+00	0	33	0	464519168	59	4723
2026-01-16 00:57:12.96	23.67	30.86	-46.5	-49.0	15.0	0.00e+00	0	33	0	467664896	59	4726
2026-01-16 00:57:13.68	23.66	31.00	-46.9	-49.6	14.7	0.00e+00	0	33	0	468713472	59	5046
2026-01-16 00:57:14.98	23.63	31.25	-47.0	-49.6	14.7	0.00e+00	0	33	0	470810624	59	5064
2026-01-16 00:57:15.70	23.62	31.40	-47.2	-50.0	14.5	0.00e+00	0	33	0	472907776	59	5311
2026-01-16 00:57:16.99	23.59	31.66	-47.2	-50.1	14.2	0.00e+00	0	33	0	475004928	60	5083
2026-01-16 00:57:17.72	23.58	31.80	-47.4	-50.3	14.0	0.00e+00	0	33	0	476053504	60	5208
2026-01-16 00:57:19.01	23.55	32.07	-47.4	-50.4	14.0	0.00e+00	0	33	0	479199232	60	5222
2026-01-16 00:57:19.73	23.53	32.21	-47.5	-50.5	14.0	0.00e+00	0	33	0	480247808	60	5337
2026-01-16 00:57:21.03	23.51	32.48	-47.4	-50.4	14.0	0.00e+00	0	33	0	482344960	60	5274
2026-01-16 00:57:21.75	23.49	32.63	-47.4	-50.3	14.1	0.00e+00	0	33	0	484442112	60	5198
2026-01-16 00:57:23.05	23.46	32.90	-47.2	-50.1	14.1	0.00e+00	0	33	0	486539264	60	5091
2026-01-16 00:57:23.77	23.44	33.05	-47.5	-50.6	13.8	0.00e+00	0	33	0	487587840	60	5357
2026-01-16 00:57:25.07	23.41	33.33	-47.3	-50.2	14.1	0.00e+00	0	33	0	489684992	60	5150
2026-01-16 00:57:25.79	23.40	33.48	-47.5	-50.6	13.9	0.00e+00	0	33	0	491782144	60	5356
2026-01-16 00:57:27.09	23.37	33.76	-47.5	-50.5	14.0	0.00e+00	0	33	0	493879296	60	5298
2026-01-16 00:57:27.81	23.35	33.92	-47.4	-50.4	14.0	0.00e+00	0	33	0	494927872	60	5267
2026-01-16 00:57:29.11	23.32	34.20	-47.2	-50.1	14.2	0.00e+00	0	33	0	498073600	60	5073
2026-01-16 00:57:29.83	23.30	34.36	-47.0	-49.7	14.4	0.00e+00	0	33	0	499122176	60	4834
2026-01-16 00:57:31.12	23.27	34.64	-46.9	-49.6	14.7	0.00e+00	0	33	0	501219328	59	5043
2026-01-16 00:57:31.85	23.25	34.80	-46.8	-49.4	14.8	0.00e+00	0	33	0	503316480	59	4944
2026-01-16 00:57:33.14	23.21	35.09	-46.3	-48.6	15.2	0.00e+00	0	33	0	505413632	59	4539
2026-01-16 00:57:33.87	23.19	35.26	-46.4	-48.8	15.2	0.00e+00	0	33	0	506462208	58	4879
2026-01-16 00:57:35.16	23.16	35.55	-45.6	-47.7	15.7	0.00e+00	0	33	0	508559360	57	4581
2026-01-16 00:57:35.88	23.14	35.72	-45.2	-47.1	15.9	0.00e+00	0	33	0	510656512	56	4523
2026-01-16 00:57:37.18	23.10	36.02	-45.0	-46.8	16.0	0.00e+00	0	33	0	512753664	56	4390
2026-01-16 00:57:37.90	23.08	36.18	-45.0	-46.9	16.0	0.00e+00	0	33	0	513802240	56	4427
2026-01-16 00:57:39.20	23.04	36.49	-44.9	-46.7	16.1	0.00e+00	0	33	0	516947968	56	4336
2026-01-16 00:57:39.92	23.02	36.66	-44.8	-46.6	16.1	0.00e+00	0	33	0	517996544	56	4272
2026-01-16 00:57:41.21	22.98	36.96	-44.2	-45.9	16.3	0.00e+00	0	33	0	520093696	54	4414
2026-01-16 00:57:41.94	22.96	37.14	-44.3	-46.1	16.2	0.00e+00	0	33	0	522190848	54	4518
2026-01-16 00:57:43.23	22.92	37.45	-44.0	-45.7	16.4	0.00e+00	0	33	0	524288000	54	4302
2026-01-16 00:57:43.96	22.90	37.63	-43.7	-45.3	16.5	0.00e+00	0	33	0	525336576	53	4363
2026-01-16 00:57:45.25	22.86	37.94	-43.8	-45.5	16.3	0.00e+00	0	33	0	528482304	53	4475
2026-01-16 00:57:45.97	22.83	38.12	-43.9	-45.6	16.3	0.00e+00	0	33	0	529530880	53	4544
2026-01-16 00:57:47.27	22.79	38.44	-44.2	-45.9	16.2	0.00e+00	0	33	0	531628032	53	4694
2026-01-16 00:57:47.99	22.77	38.62	-44.3	-46.0	16.2	0.00e+00	0	33	0	532676608	53	4751
2026-01-16 00:57:49.29	22.72	38.95	-44.7	-46.6	16.0	0.00e+00	0	33	0	535822336	54	4794
2026-01-16 00:57:50.01	22.70	39.13	-44.2	-45.9	16.3	0.00e+00	0	33	0	536870912	54	4440
2026-01-16 00:57:51.31	22.65	39.46	-44.1	-45.8	16.3	0.00e+00	0	33	0	538968064	54	4390
2026-01-16 00:57:52.03	22.62	39.65	-44.5	-46.3	16.1	0.00e+00	0	33	0	541065216	54	4604
2026-01-16 00:57:53.33	22.57	39.99	-44.1	-45.8	16.3	0.00e+00	0	33	0	543162368	54	4381
2026-01-16 00:57:54.05	22.55	40.18	-44.0	-45.7	16.3	0.00e+00	0	33	0	544210944	54	4325
2026-01-16 00:57:55.35	22.50	40.52	-44.1	-45.7	16.3	0.00e+00	0	33	0	547356672	54	4326
2026-01-16 00:57:56.06	22.47	40.71	-43.9	-45.5	16.4	0.00e+00	0	33	0	548405248	54	4213
2026-01-16 00:57:57.36	22.42	41.05	-44.1	-45.7	16.3	0.00e+00	0	33	0	550502400	54	4323
2026-01-16 00:57:58.08	22.39	41.25	-43.6	-45.2	16.5	0.00e+00	0	33	0	551550976	53	4316
2026-01-16 00:57:59.38	22.34	41.60	-44.2	-46.0	16.2	0.00e+00	0	33	0	554696704	53	4706
2026-01-16 00:58:00.10	22.31	41.80	-44.7	-46.5	16.0	0.00e+00	0	33	0	555745280	54	4724
2026-01-16 00:58:01.40	22.25	42.15	-45.0	-46.9	15.9	0.00e+00	0	33	0	557842432	55	4703
2026-01-16 00:58:02.12	22.22	42.35	-45.0	-47.0	15.9	0.00e+00	0	33	0	559939584	55	4717
2026-01-16 00:58:03.42	22.16	42.72	-45.5	-47.5	15.7	0.00e+00	0	33	0	562036736	56	4718
2026-01-16 00:58:04.14	22.13	42.92	-45.7	-47.8	15.6	0.00e+00	0	33	0	563085312	56	4922
2026-01-16 00:58:05.44	22.07	43.29	-45.2	-47.1	15.9	0.00e+00	0	33	0	566231040	56	4526
2026-01-16 00:58:06.16	22.03	43.50	-45.5	-47.5	15.7	0.00e+00	0	33	0	567279616	56	4744
2026-01-16 00:58:07.46	21.97	43.87	-45.5	-47.6	15.8	0.00e+00	0	33	0	569376768	56	4763
2026-01-16 00:58:08.18	21.94	44.08	-45.3	-47.3	15.9	0.00e+00	0	33	0	570425344	56	4607
2026-01-16 00:58:09.48	21.87	44.46	-45.6	-47.7	15.7	0.00e+00	0	33	0	573571072	56	4842
2026-01-16 00:58:10.20	21.84	44.67	-45.9	-48.1	15.5	0.00e+00	0	33	0	574619648	57	4800
2026-01-16 00:58:11.49	21.77	45.05	-45.7	-47.8	15.6	0.00e+00	0	33	0	576716800	57	4616
2026-01-16 00:58:12.21	21.73	45.27	-45.6	-47.7	15.6	0.00e+00	0	33	0	578813952	57	4564
2026-01-16 00:58:13.51	21.66	45.66	-45.8	-47.9	15.6	0.00e+00	0	33	0	580911104	57	4657
2026-01-16 00:58:14.23	21.62	45.88	-46.0	-48.2	15.4	0.00e+00	0	33	0	581959680	57	4822
2026-01-16 00:58:15.53	21.55	46.28	-46.3	-48.6	15.4	0.00e+00	0	33	0	585105408	57	5073
2026-01-16 00:58:16.25	21.51	46.50	-46.3	-48.6	15.2	0.00e+00	0	33	0	586153984	58	4796
2026-01-16 00:58:17.55	21.43	46.90	-47.0	-49.6	14.8	0.00e+00	0	33	0	588251136	59	5048
2026-01-16 00:58:18.27	21.39	47.13	-47.1	-49.8	14.7	0.00e+00	0	33	0	590348288	59	5203
2026-01-16 00:58:19.57	21.31	47.54	-47.1	-49.8	14.7	0.00e+00	0	33	0	592445440	59	5165
2026-01-16 00:58:20.29	21.26	47.76	-47.2	-49.9	14.6	0.00e+00	0	33	0	593494016	59	5232
2026-01-16 00:58:21.59	21.18	48.18	-46.9	-49.4	14.9	0.00e+00	0	33	0	595591168	59	4960
2026-01-16 00:58:22.31	21.13	48.41	-46.6	-48.9	15.1	0.00e+00	0	33	0	597688320	59	4702
2026-01-16 00:58:23.60	21.04	48.83	-46.6	-49.1	15.1	0.00e+00	0	33	0	599785472	59	4760
2026-01-16 00:58:24.33	20.99	49.07	-46.6	-49.0	15.1	0.00e+00	0	33	0	600834048	59	4723
2026-01-16 00:58:25.62	20.90	49.49	-46.4	-48.7	15.2	0.00e+00	0	33	0	603979776	58	4819
2026-01-16 00:58:26.34	20.85	49.73	-46.3	-48.7	15.3	0.00e+00	0	33	0	605028352	58	4819
2026-01-16 00:58:27.64	20.75	50.17	-45.8	-47.9	15.6	0.00e+00	0	33	0	607125504	58	4441
2026-01-16 00:58:28.36	20.70	50.41	-45.5	-47.5	15.8	0.00e+00	0	33	0	609222656	57	4469
2026-01-16 00:58:29.66	20.60	50.85	-44.7	-46.5	16.2	0.00e+00	0	33	0	611319808	56	4220
2026-01-16 00:58:30.38	20.54	51.10	-44.3	-46.1	16.3	0.00e+00	0	33	0	612368384	55	4246
2026-01-16 00:58:31.68	20.44	51.54	-44.0	-45.7	16.4	0.00e+00	0	33	0	615514112	54	4306
2026-01-16 00:58:32.40	20.38	51.79	-44.4	-46.1	16.2	0.00e+00	0	33	0	616562688	54	4506
2026-01-16 00:58:33.70	20.27	52.24	-44.3	-46.1	16.3	0.00e+00	0	33	0	618659840	54	4506
2026-01-16 00:58:34.42	20.20	52.50	-44.2	-45.8	16.3	0.00e+00	0	33	0	619708416	54	4379
2026-01-16 00:58:35.72	20.09	52.96	-44.3	-45.9	16.3	0.00e+00	0	33	0	622854144	54	4440
2026-01-16 00:58:36.44	20.02	53.21	-44.0	-45.6	16.4	0.00e+00	0	33	0	623902720	54	4274
2026-01-16 00:58:37.74	19.90	53.68	-43.9	-45.6	16.4	0.00e+00	0	33	0	625999872	54	4245
2026-01-16 00:58:38.46	19.83	53.94	-44.1	-45.7	16.4	0.00e+00	0	33	0	628097024	54	4322
2026-01-16 00:58:39.76	19.70	54.41	-44.6	-46.4	16.2	0.00e+00	0	33	0	630194176	54	4656
2026-01-16 00:58:40.48	19.63	54.68	-44.1	-45.8	16.4	0.00e+00	0	33	0	631242752	54	4341
2026-01-16 00:58:41.77	19.49	55.15	-44.1	-45.8	16.4	0.00e+00	0	33	0	634388480	54	4343
2026-01-16 00:58:42.50	19.41	55.42	-44.0	-45.6	16.4	0.00e+00	0	33	0	635437056	53	4541
2026-01-16 00:58:43.79	19.27	55.91	-44.0	-45.7	16.4	0.00e+00	0	33	0	637534208	53	4570
2026-01-16 00:58:44.51	19.19	56.18	-44.1	-45.8	16.3	0.00e+00	0	33	0	638582784	53	4628
2026-01-16 00:58:45.81	19.04	56.67	-44.8	-46.7	16.0	0.00e+00	0	33	0	641728512	54	4848
2026-01-16 00:58:46.53	18.95	56.94	-44.9	-46.7	16.0	0.00e+00	0	33	0	642777088	55	4579
2026-01-16 00:58:47.83	18.79	57.44	-45.6	-47.7	15.7	0.00e+00	0	33	0	644874240	57	4568
2026-01-16 00:58:48.55	18.70	57.72	-46.0	-48.2	15.4	0.00e+00	0	33	0	646971392	57	4846
2026-01-16 00:58:49.85	18.53	58.22	-46.6	-49.0	15.1	0.00e+00	0	33	0	649068544	58	4988
2026-01-16 00:58:50.57	18.43	58.51	-46.8	-49.3	15.0	0.00e+00	0	33	0	650117120	59	4889
2026-01-16 00:58:51.86	18.25	59.01	-46.9	-49.3	15.0	0.00e+00	0	33	0	653262848	59	4905
2026-01-16 00:58:52.59	18.14	59.30	-46.9	-49.4	14.9	0.00e+00	0	33	0	654311424	59	4960
2026-01-16 00:58:53.88	17.95	59.82	-47.1	-49.8	14.5	0.00e+00	0	33	0	656408576	60	4889
2026-01-16 00:58:54.60	17.84	60.11	-47.4	-50.4	14.1	0.00e+00	0	33	0	658505728	60	5272
2026-01-16 00:58:55.90	17.63	60.63	-47.2	-50.0	14.2	0.00e+00	0	33	0	660602880	60	5013
2026-01-16 00:58:56.62	17.52	60.92	-46.7	-49.2	14.8	0.00e+00	0	33	0	661651456	60	4598
2026-01-16 00:58:57.92	17.30	61.45	-46.4	-48.7	15.3	0.00e+00	0	33	0	663748608	59	4550
2026-01-16 00:58:58.64	17.17	61.75	-46.1	-48.3	15.5	0.00e+00	0	33	0	665845760	58	4606
2026-01-16 00:58:59.94	16.93	62.28	-45.9	-48.0	15.7	0.00e+00	0	33	0	667942912	58	4442
2026-01-16 00:59:00.66	16.80	62.58	-45.2	-47.0	16.0	0.00e+00	0	32	0	668991488	56	4481
2026-01-16 00:59:01.96	16.54	63.12	-44.0	-45.6	16.4	0.00e+00	0	33	0	672137216	54	4272
2026-01-16 00:59:02.68	16.40	63.43	-43.8	-45.5	16.4	0.00e+00	0	33	0	673185792	54	4194
2026-01-16 00:59:03.98	16.13	63.97	-44.4	-46.1	16.2	0.00e+00	0	33	0	675282944	54	4540
2026-01-16 00:59:04.70	15.97	64.28	-44.2	-45.9	16.3	0.00e+00	0	33	0	677380096	54	4418
2026-01-16 00:59:06.00	15.68	64.83	-44.4	-46.1	16.2	0.00e+00	0	33	0	679477248	54	4528
2026-01-16 00:59:06.72	15.51	65.14	-44.6	-46.4	16.1	0.00e+00	0	33	0	680525824	55	4399
2026-01-16 00:59:08.02	15.19	65.70	-46.0	-48.1	15.5	0.00e+00	0	33	0	683671552	57	4804
2026-01-16 00:59:08.74	15.00	66.01	-46.6	-48.9	15.2	0.00e+00	0	33	0	684720128	58	4980
2026-01-16 00:59:10.04	14.66	66.57	-46.3	-48.6	15.4	0.00e+00	0	33	0	686817280	58	4790
2026-01-16 00:59:10.76	14.46	66.89	-46.4	-48.6	15.3	0.00e+00	0	33	0	687865856	58	4794
2026-01-16 00:59:12.06	14.09	67.45	-46.7	-49.1	15.1	0.00e+00	0	33	0	691011584	58	5057
2026-01-16 00:59:12.78	13.87	67.77	-46.8	-49.2	15.0	0.00e+00	0	33	0	692060160	58	5149
2026-01-16 00:59:14.08	13.46	68.34	-47.0	-49.6	14.7	0.00e+00	0	33	0	694157312	59	5054
2026-01-16 00:59:14.80	13.22	68.66	-46.9	-49.4	14.7	0.00e+00	0	33	0	696254464	60	4697
2026-01-16 00:59:16.10	12.77	69.24	-47.6	-50.6	14.0	0.00e+00	0	33	0	698351616	60	5373
2026-01-16 00:59:16.82	12.51	69.56	-47.8	-50.9	13.6	0.00e+00	0	33	0	699400192	61	5253
2026-01-16 00:59:18.12	12.02	70.14	-48.4	-51.9	13.1	7.00e-07	0	33	0	702545920	62	5576
2026-01-16 00:59:18.84	11.74	70.46	-48.7	-52.6	12.7	0.00e+00	0	33	0	703594496	62	6016
2026-01-16 00:59:20.13	11.20	71.04	-48.1	-51.4	13.5	0.00e+00	0	33	0	705691648	62	5267
2026-01-16 00:59:20.85	10.88	71.36	-46.7	-49.2	14.8	0.00e+00	0	33	0	706740224	60	4547
2026-01-16 00:59:22.15	10.28	71.95	-44.3	-46.0	16.3	0.00e+00	0	33	0	709885952	55	4198
2026-01-16 00:59:22.87	9.92	72.27	-44.0	-45.6	16.4	0.00e+00	0	33	0	710934528	54	4245
2026-01-16 00:59:24.17	9.25	72.86	-44.4	-46.1	16.3	0.00e+00	0	33	0	713031680	54	4522
2026-01-16 00:59:24.89	8.86	73.19	-44.4	-46.2	16.2	0.00e+00	0	33	0	715128832	54	4570
2026-01-16 00:59:26.19	8.10	73.78	-44.3	-46.0	16.2	0.00e+00	0	33	0	717225984	54	4466
2026-01-16 00:59:26.91	7.66	74.10	-44.4	-46.1	16.2	0.00e+00	0	33	0	718274560	54	4510
2026-01-16 00:59:28.21	6.81	74.69	-45.8	-47.9	15.6	0.00e+00	0	33	0	721420288	56	4981
2026-01-16 00:59:28.93	6.31	75.01	-47.0	-49.6	14.9	0.00e+00	0	33	0	722468864	59	5058
2026-01-16 00:59:30.23	5.35	75.60	-47.0	-49.6	14.7	0.00e+00	0	33	0	724566016	60	4770
2026-01-16 00:59:30.95	4.78	75.92	-46.9	-49.3	14.9	0.00e+00	0	33	0	726663168	59	4905
2026-01-16 00:59:32.25	3.68	76.51	-47.4	-50.3	14.2	0.00e+00	0	33	0	728760320	60	5167
2026-01-16 00:59:32.97	3.03	76.83	-48.3	-51.9	13.0	0.00e+00	0	33	0	729808896	62	5545
2026-01-16 00:59:34.26	1.77	77.40	-47.6	-50.5	14.0	0.00e+00	0	33	0	731906048	61	4985
2026-01-16 00:59:34.99	1.01	77.73	-47.1	-49.7	14.5	0.00e+00	0	33	0	734003200	60	4815
2026-01-16 00:59:36.29	359.54	78.30	-48.1	-51.5	13.4	0.00e+00	0	33	0	736100352	61	5608
2026-01-16 00:59:37.01	358.66	78.61	-48.3	-51.7	13.3	0.00e+00	0	33	0	737148928	62	5438
2026-01-16 00:59:38.30	356.96	79.17	-47.7	-50.7	14.0	0.00e+00	0	33	0	740294656	61	5121
2026-01-16 00:59:39.02	355.93	79.47	-48.3	-51.7	13.3	0.00e+00	0	33	0	741343232	61	5769
2026-01-16 00:59:40.32	353.91	80.02	-47.2	-49.9	14.5	0.00e+00	0	33	0	743440384	61	4694
2026-01-16 00:59:41.04	352.69	80.32	-47.0	-49.5	14.6	0.00e+00	0	33	0	745537536	60	4750
2026-01-16 00:59:42.34	350.28	80.84	-47.7	-50.8	13.9	0.00e+00	0	33	0	747634688	61	5205
2026-01-16 00:59:43.06	348.83	81.12	-46.7	-49.2	15.0	0.00e+00	0	33	0	748683264	59	4817
2026-01-16 00:59:44.35	345.98	81.62	-43.8	-45.3	16.4	0.00e+00	0	33	0	751828992	54	4137
2026-01-16 00:59:45.08	344.21	81.89	-44.0	-45.6	16.3	0.00e+00	0	33	0	752877568	54	4275
2026-01-16 00:59:46.37	340.78	82.35	-43.8	-45.5	16.4	0.00e+00	0	33	0	754974720	54	4199
2026-01-16 00:59:47.09	338.69	82.59	-43.1	-44.6	16.7	0.00e+00	0	33	0	756023296	52	4285
2026-01-16 00:59:48.39	334.55	83.00	-43.8	-45.4	16.5	0.00e+00	0	33	0	759169024	52	4668
2026-01-16 00:59:49.11	332.04	83.21	-43.8	-45.5	16.4	0.00e+00	0	33	0	760217600	54	4194
2026-01-16 00:59:50.41	327.12	83.56	-44.0	-45.6	16.4	0.00e+00	0	33	0	762314752	53	4533
2026-01-16 00:59:51.13	324.17	83.73	-44.2	-45.8	16.3	0.00e+00	0	33	0	764411904	53	4640
2026-01-16 00:59:52.43	318.45	83.99	-43.6	-45.1	16.5	0.00e+00	0	33	0	766509056	53	4271
2026-01-16 00:59:53.15	315.08	84.11	-43.2	-44.6	16.7	0.00e+00	0	33	0	767557632	52	4286
2026-01-16 00:59:54.44	308.74	84.26	-44.0	-45.6	16.4	0.00e+00	0	33	0	770703360	54	4279
2026-01-16 00:59:55.17	305.02	84.32	-44.1	-45.8	16.3	0.00e+00	0	33	0	771751936	54	4350
2026-01-16 00:59:56.46	298.33	84.36	-43.5	-45.1	16.5	0.00e+00	0	33	0	773849088	53	4254
2026-01-16 00:59:57.18	294.58	84.35	-44.5	-46.3	16.1	0.00e+00	0	33	0	774897664	54	4630
2026-01-16 00:59:58.48	287.91	84.27	-43.6	-45.2	16.5	0.00e+00	0	33	0	778043392	53	4319
2026-01-16 00:59:59.20	284.32	84.19	-43.0	-44.4	16.8	0.00e+00	0	33	0	779091968	52	4180
2026-01-16 01:00:00.50	278.12	84.00	-43.8	-45.4	16.4	0.00e+00	0	33	0	781189120	52	4693
2026-01-16 01:00:01.22	274.88	83.87	-44.6	-46.5	16.1	0.00e+00	0	33	0	783286272	54	4706
2026-01-16 01:00:02.52	269.41	83.57	-45.4	-47.3	15.8	0.00e+00	0	33	0	785383424	56	4647
2026-01-16 01:00:03.24	266.60	83.39	-45.5	-47.5	15.8	0.00e+00	0	33	0	786432000	56	4751
2026-01-16 01:00:04.54	261.94	83.02	-44.4	-46.2	16.2	0.00e+00	0	33	0	789577728	55	4298
2026-01-16 01:00:05.26	259.57	82.80	-44.2	-45.9	16.3	0.00e+00	0	33	0	790626304	54	4410
2026-01-16 01:00:06.56	255.66	82.37	-44.7	-46.5	16.1	0.00e+00	0	33	0	792723456	54	4726
2026-01-16 01:00:07.28	253.69	82.12	-44.9	-46.7	16.0	0.00e+00	0	33	0	793772032	55	4590
2026-01-16 01:00:08.58	250.44	81.64	-46.4	-48.6	15.3	0.00e+00	0	33	0	796917760	58	4811
2026-01-16 01:00:09.30	248.79	81.37	-46.7	-49.1	15.0	0.00e+00	0	33	0	797966336	58	5092
2026-01-16 01:00:10.60	246.08	80.86	-46.8	-49.3	14.9	0.00e+00	0	33	0	800063488	58	5183
2026-01-16 01:00:11.31	244.73	80.58	-47.6	-50.6	14.0	0.00e+00	0	33	0	802160640	60	5364
2026-01-16 01:00:12.61	242.46	80.04	-47.8	-50.8	13.8	0.00e+00	0	33	0	804257792	62	4924
2026-01-16 01:00:13.33	241.31	79.74	-47.0	-49.5	14.7	0.00e+00	0	33	0	805306368	60	4749
2026-01-16 01:00:14.63	239.39	79.19	-48.0	-51.2	13.6	0.00e+00	0	33	0	808452096	61	5459
2026-01-16 01:00:15.35	238.41	78.88	-47.1	-49.7	14.8	0.00e+00	0	33	0	809500672	59	5114
2026-01-16 01:00:16.65	236.78	78.32	-46.8	-49.2	15.1	0.00e+00	0	33	0	811597824	59	4827
2026-01-16 01:00:17.37	235.95	78.00	-47.4	-50.2	14.5	0.00e+00	0	33	0	813694976	59	5424
2026-01-16 01:00:18.67	234.55	77.43	-47.4	-50.2	14.2	0.00e+00	0	33	0	815792128	61	4870
2026-01-16 01:00:19.39	233.84	77.11	-46.8	-49.3	14.9	0.00e+00	0	33	0	816840704	59	4877
2026-01-16 01:00:20.69	232.63	76.53	-45.7	-47.7	15.7	0.00e+00	0	33	0	818937856	58	4316
2026-01-16 01:00:21.41	232.00	76.20	-45.9	-48.0	15.6	0.00e+00	0	33	0	821035008	57	4714
2026-01-16 01:00:22.70	230.96	75.62	-46.0	-48.2	15.5	0.00e+00	0	33	0	823132160	57	4827
2026-01-16 01:00:23.42	230.41	75.30	-46.2	-48.3	15.5	0.00e+00	0	33	0	824180736	57	4916
2026-01-16 01:00:24.72	229.49	74.71	-45.5	-47.4	15.8	0.00e+00	0	33	0	827326464	57	4427
2026-01-16 01:00:25.44	229.01	74.39	-45.8	-47.8	15.7	0.00e+00	0	33	0	828375040	57	4648
2026-01-16 01:00:26.74	228.19	73.80	-46.5	-48.9	15.1	0.00e+00	0	33	0	830472192	58	4972
2026-01-16 01:00:27.46	227.77	73.47	-46.6	-49.0	15.1	0.00e+00	0	33	0	832569344	58	5023
2026-01-16 01:00:28.76	227.04	72.88	-46.4	-48.8	15.2	0.00e+00	0	33	0	834666496	58	4889
2026-01-16 01:00:29.48	226.66	72.56	-47.0	-49.6	14.7	0.00e+00	0	33	0	835715072	59	5095
2026-01-16 01:00:30.78	226.01	71.97	-45.5	-47.5	15.8	0.00e+00	0	33	0	837812224	57	4453
2026-01-16 01:00:31.50	225.67	71.64	-45.3	-47.3	15.8	0.00e+00	0	33	0	839909376	57	4346
2026-01-16 01:00:32.80	225.09	71.06	-46.2	-48.3	15.4	0.00e+00	0	33	0	842006528	57	4904
2026-01-16 01:00:33.52	224.78	70.74	-45.9	-48.0	15.6	0.00e+00	0	33	0	843055104	57	4708
2026-01-16 01:00:34.82	224.25	70.15	-46.4	-48.6	15.3	0.00e+00	0	33	0	846200832	57	5059
2026-01-16 01:00:35.54	223.98	69.83	-47.2	-49.8	14.5	0.00e+00	0	33	0	847249408	60	4911
2026-01-16 01:00:36.83	223.50	69.25	-46.7	-49.1	15.1	0.00e+00	0	33	0	849346560	59	4762
2026-01-16 01:00:37.56	223.25	68.93	-45.6	-47.6	15.8	0.00e+00	0	33	0	851443712	57	4501
2026-01-16 01:00:38.85	222.82	68.36	-44.1	-45.7	16.4	0.00e+00	0	33	0	853540864	54	4331
2026-01-16 01:00:39.57	222.59	68.04	-44.7	-46.5	16.0	0.00e+00	0	33	0	854589440	54	4714
2026-01-16 01:00:40.87	222.19	67.47	-45.1	-47.0	15.9	0.00e+00	0	33	0	857735168	55	4738
2026-01-16 01:00:41.59	221.98	67.15	-45.1	-47.0	15.9	0.00e+00	0	33	0	858783744	55	4734
2026-01-16 01:00:42.89	221.61	66.58	-45.9	-48.1	15.5	0.00e+00	0	33	0	860880896	57	4790
2026-01-16 01:00:43.61	221.42	66.27	-44.8	-46.5	16.2	0.00e+00	0	33	0	861929472	56	4229
2026-01-16 01:00:44.91	221.08	65.71	-43.3	-44.8	16.7	0.00e+00	0	33	0	865075200	53	4125
2026-01-16 01:00:45.63	220.90	65.40	-44.2	-45.9	16.3	0.00e+00	0	33	0	866123776	53	4669
2026-01-16 01:00:46.93	220.59	64.84	-45.2	-47.2	15.8	0.00e+00	0	33	0	868220928	55	4830
2026-01-16 01:00:47.65	220.43	64.53	-45.4	-47.4	15.8	0.00e+00	0	33	0	870318080	56	4670
2026-01-16 01:00:48.95	220.14	63.98	-45.6	-47.7	15.7	0.00e+00	0	33	0	872415232	56	4822
2026-01-16 01:00:49.67	219.99	63.68	-45.9	-48.1	15.5	0.00e+00	0	33	0	873463808	57	4772
2026-01-16 01:00:50.96	219.72	63.13	-46.0	-48.1	15.5	0.00e+00	0	33	0	876609536	57	4808
2026-01-16 01:00:51.68	219.58	62.83	-46.0	-48.1	15.5	0.00e+00	0	33	0	877658112	57	4798
2026-01-16 01:00:52.98	219.33	62.29	-45.7	-47.7	15.7	0.00e+00	0	33	0	879755264	57	4597
2026-01-16 01:00:53.71	219.20	61.99	-44.7	-46.5	16.2	0.00e+00	0	33	0	881852416	56	4222
2026-01-16 01:00:55.00	218.97	61.46	-44.4	-46.1	16.3	0.00e+00	0	33	0	883949568	55	4264
2026-01-16 01:00:55.72	218.85	61.16	-43.8	-45.4	16.5	0.00e+00	0	33	0	884998144	54	4158
2026-01-16 01:00:57.02	218.63	60.63	-44.6	-46.3	16.2	0.00e+00	0	33	0	887095296	54	4649
2026-01-16 01:00:57.74	218.51	60.34	-44.9	-46.8	16.0	0.00e+00	0	33	0	889192448	55	4617
2026-01-16 01:00:59.04	218.31	59.82	-45.1	-46.9	15.9	0.00e+00	0	33	0	891289600	56	4439
2026-01-16 01:00:59.76	218.20	59.53	-44.8	-46.6	16.2	0.00e+00	0	33	0	892338176	56	4281
2026-01-16 01:01:01.06	218.01	59.01	-43.7	-45.3	16.5	0.00e+00	0	33	0	895483904	54	4110
2026-01-16 01:01:01.78	217.91	58.73	-42.9	-44.4	16.8	0.00e+00	0	33	0	896532480	52	4164
2026-01-16 01:01:03.07	217.73	58.22	-42.7	-44.1	16.8	0.00e+00	0	33	0	898629632	51	4255
2026-01-16 01:01:03.80	217.64	57.94	-42.8	-44.2	16.8	0.00e+00	0	33	0	900726784	51	4309
2026-01-16 01:01:05.09	217.47	57.44	-43.8	-45.4	16.4	0.00e+00	0	33	0	902823936	53	4423
2026-01-16 01:01:05.81	217.38	57.16	-44.1	-45.8	16.3	0.00e+00	0	33	0	903872512	53	4602
2026-01-16 01:01:07.11	217.22	56.66	-44.9	-46.8	16.0	0.00e+00	0	33	0	905969664	55	4629
2026-01-16 01:01:07.84	217.14	56.39	-44.4	-46.2	16.2	0.00e+00	0	33	0	908066816	55	4309
2026-01-16 01:01:09.13	216.99	55.90	-43.9	-45.6	16.5	0.00e+00	0	33	0	910163968	54	4247
2026-01-16 01:01:09.85	216.91	55.63	-43.7	-45.3	16.5	0.00e+00	0	33	0	911212544	54	4122
2026-01-16 01:01:11.15	216.77	55.14	-43.3	-44.8	16.6	0.00e+00	0	33	0	914358272	52	4389
2026-01-16 01:01:11.87	216.69	54.88	-43.8	-45.4	16.4	0.00e+00	0	33	0	915406848	52	4699
2026-01-16 01:01:13.17	216.56	54.40	-44.5	-46.3	16.1	0.00e+00	0	33	0	917504000	54	4624
2026-01-16 01:01:13.89	216.48	54.14	-44.7	-46.5	16.1	0.00e+00	0	33	0	919601152	54	4722
2026-01-16 01:01:15.19	216.36	53.66	-45.1	-47.0	15.9	0.00e+00	0	33	0	921698304	55	4713
2026-01-16 01:01:15.91	216.29	53.40	-45.9	-48.1	15.5	0.00e+00	0	33	0	922746880	57	4775
2026-01-16 01:01:17.20	216.17	52.94	-46.2	-48.4	15.3	0.00e+00	0	33	0	925892608	58	4688
2026-01-16 01:01:17.92	216.10	52.69	-45.7	-47.8	15.7	0.00e+00	0	33	0	926941184	58	4379
2026-01-16 01:01:19.22	215.99	52.23	-44.8	-46.5	16.2	0.00e+00	0	33	0	929038336	56	4235
2026-01-16 01:01:19.94	215.93	51.98	-44.7	-46.4	16.2	0.00e+00	0	33	0	930086912	56	4175
2026-01-16 01:01:21.24	215.82	51.52	-45.5	-47.4	15.8	0.00e+00	0	33	0	933232640	56	4680
2026-01-16 01:01:21.96	215.76	51.28	-45.4	-47.3	15.8	0.00e+00	0	33	0	934281216	56	4612
2026-01-16 01:01:23.26	215.65	50.83	-44.6	-46.4	16.1	0.00e+00	0	33	0	936378368	55	4401
2026-01-16 01:01:23.98	215.60	50.58	-44.9	-46.8	15.9	0.00e+00	0	33	0	938475520	55	4642
2026-01-16 01:01:25.27	215.50	50.15	-46.0	-48.3	15.4	0.00e+00	0	33	0	940572672	57	4880
2026-01-16 01:01:25.99	215.45	49.91	-46.4	-48.8	15.2	0.00e+00	0	33	0	941621248	58	4888
2026-01-16 01:01:27.29	215.35	49.47	-45.5	-47.5	15.8	0.00e+00	0	33	0	944766976	57	4491
2026-01-16 01:01:28.01	215.30	49.24	-45.6	-47.6	15.8	0.00e+00	0	33	0	945815552	57	4542
2026-01-16 01:01:29.31	215.21	48.81	-45.8	-47.9	15.6	0.00e+00	0	33	0	947912704	56	4933
2026-01-16 01:01:30.03	215.16	48.57	-46.8	-49.3	15.0	0.00e+00	0	33	0	948961280	58	5173
2026-01-16 01:01:31.33	215.08	48.15	-46.9	-49.4	14.9	0.00e+00	0	33	0	952107008	59	4950
2026-01-16 01:01:32.05	215.03	47.92	-47.2	-49.9	14.4	0.00e+00	0	33	0	953155584	60	4971
2026-01-16 01:01:33.35	214.95	47.51	-46.6	-48.9	15.0	0.00e+00	0	33	0	955252736	59	4685
2026-01-16 01:01:34.07	214.90	47.28	-46.7	-49.1	15.0	0.00e+00	0	33	0	957349888	59	4762
2026-01-16 01:01:35.36	214.82	46.87	-46.2	-48.3	15.5	0.00e+00	0	33	0	959447040	58	4642
2026-01-16 01:01:36.09	214.78	46.65	-46.5	-48.8	15.2	0.00e+00	0	33	0	960495616	58	4877
2026-01-16 01:01:37.38	214.70	46.25	-45.5	-47.4	15.8	0.00e+00	0	33	0	963641344	57	4433
2026-01-16 01:01:38.11	214.66	46.02	-45.5	-47.4	15.7	0.00e+00	0	33	0	964689920	57	4426
2026-01-16 01:01:39.41	214.59	45.63	-46.5	-48.8	15.2	0.00e+00	0	33	0	966787072	58	4917
2026-01-16 01:01:40.13	214.55	45.41	-47.5	-50.4	14.1	0.00e+00	0	33	0	967835648	60	5279
2026-01-16 01:01:41.42	214.48	45.02	-48.1	-51.4	13.4	0.00e+00	0	33	0	970981376	61	5538
2026-01-16 01:01:42.15	214.44	44.80	-49.0	-53.3	12.1	3.80e-06	0	33	0	972029952	63	6137
2026-01-16 01:01:43.44	214.38	44.42	-49.9	-55.7	10.4	5.42e-04	0	33	0	974127104	64	7683
2026-01-16 01:01:44.16	214.34	44.21	-49.4	-54.5	11.1	9.75e-04	0	33	0	976224256	65	6315
2026-01-16 01:01:45.46	214.28	43.83	-49.3	-54.2	11.4	4.22e-04	0	33	0	978321408	65	6077
2026-01-16 01:01:46.18	214.24	43.62	-49.2	-53.8	12.3	6.33e-05	0	33	0	979369984	63	6497
2026-01-16 01:01:47.48	214.18	43.25	-47.8	-50.9	13.7	0.00e+00	0	33	0	982515712	62	4942
2026-01-16 01:01:48.20	214.15	43.04	-46.9	-49.4	14.7	0.00e+00	0	33	0	983564288	60	4675
2026-01-16 01:01:49.49	214.09	42.68	-46.9	-49.3	14.9	0.00e+00	0	33	0	985661440	59	4916
2026-01-16 01:01:50.22	214.05	42.47	-46.6	-49.0	15.1	0.00e+00	0	33	0	987758592	59	4720
2026-01-16 01:01:51.51	214.00	42.11	-46.4	-48.7	15.3	0.00e+00	0	33	0	989855744	59	4553
2026-01-16 01:01:52.24	213.96	41.91	-46.4	-48.8	15.2	0.00e+00	0	33	0	990904320	59	4618
2026-01-16 01:01:53.53	213.91	41.56	-47.5	-50.5	14.0	0.00e+00	0	33	0	993001472	60	5329
2026-01-16 01:01:54.25	213.88	41.36	-47.6	-50.7	13.9	0.00e+00	0	33	0	995098624	61	5109
2026-01-16 01:01:55.55	213.83	41.01	-48.0	-51.4	13.4	0.00e+00	0	33	0	997195776	61	5576
2026-01-16 01:01:56.27	213.80	40.82	-47.8	-50.9	13.7	0.00e+00	0	33	0	998244352	61	5265
2026-01-16 01:01:57.56	213.75	40.47	-46.7	-49.2	14.8	0.00e+00	0	33	0	1001390080	60	4573
2026-01-16 01:01:58.28	213.72	40.28	-46.1	-48.3	15.4	0.00e+00	0	33	0	1002438656	58	4633
2026-01-16 01:01:59.58	213.67	39.94	-46.1	-48.3	15.4	0.00e+00	0	33	0	1004535808	57	4922
2026-01-16 01:02:00.30	213.64	39.75	-45.7	-47.7	15.7	0.00e+00	0	33	0	1006632960	57	4594
2026-01-16 01:02:01.60	213.59	39.42	-45.5	-47.5	15.7	0.00e+00	0	33	0	1008730112	57	4493
2026-01-16 01:02:02.32	213.57	39.23	-46.3	-48.5	15.2	0.00e+00	0	33	0	1009778688	57	5035
2026-01-16 01:02:03.62	213.52	38.90	-47.4	-50.2	14.4	0.00e+00	0	33	0	1012924416	59	5429
2026-01-16 01:02:04.34	213.50	38.72	-47.2	-49.9	14.4	0.00e+00	0	33	0	1013972992	60	4965
2026-01-16 01:02:05.64	213.45	38.39	-46.9	-49.5	14.6	0.00e+00	0	33	0	1016070144	60	4714
2026-01-16 01:02:06.36	213.43	38.21	-47.3	-50.1	14.2	0.00e+00	0	33	0	1017118720	60	5090
2026-01-16 01:02:07.66	213.39	37.89	-47.0	-49.6	14.5	0.00e+00	0	33	0	1020264448	60	4794
2026-01-16 01:02:08.38	213.36	37.71	-47.0	-49.6	14.5	0.00e+00	0	33	0	1021313024	60	4809
2026-01-16 01:02:09.68	213.32	37.40	-46.7	-49.2	14.9	0.00e+00	0	33	0	1023410176	59	4836
2026-01-16 01:02:10.40	213.30	37.22	-46.6	-49.0	15.1	0.00e+00	0	33	0	1025507328	59	4709
2026-01-16 01:02:11.70	213.26	36.91	-45.8	-48.0	15.6	0.00e+00	0	33	0	1027604480	58	4444
2026-01-16 01:02:12.42	213.24	36.74	-45.8	-47.9	15.6	0.00e+00	0	33	0	1028653056	58	4417
2026-01-16 01:02:13.71	213.20	36.43	-46.5	-49.0	15.0	0.00e+00	0	33	0	1031798784	58	4994
2026-01-16 01:02:14.44	213.18	36.26	-46.8	-49.3	14.8	0.00e+00	0	33	0	1032847360	58	5193
2026-01-16 01:02:15.73	213.14	35.96	-47.4	-50.2	14.4	0.00e+00	0	33	0	1034944512	59	5428
2026-01-16 01:02:16.45	213.12	35.79	-47.2	-49.9	14.3	0.00e+00	0	33	0	1035993088	60	4983
2026-01-16 01:02:17.75	213.08	35.49	-46.8	-49.3	14.8	0.00e+00	0	33	0	1039138816	59	4925
2026-01-16 01:02:18.47	213.06	35.33	-46.2	-48.5	15.3	0.00e+00	0	33	0	1040187392	58	4720
2026-01-16 01:02:19.77	213.03	35.03	-45.7	-47.8	15.6	0.00e+00	0	33	0	1042284544	58	4342
2026-01-16 01:02:20.49	213.01	34.87	-45.6	-47.7	15.7	0.00e+00	0	33	0	1044381696	57	4557
2026-01-16 01:02:21.79	212.97	34.58	-45.4	-47.4	15.8	0.00e+00	0	33	0	1046478848	56	4685
2026-01-16 01:02:22.51	212.95	34.42	-45.7	-47.8	15.6	0.00e+00	0	33	0	1047527424	56	4915
2026-01-16 01:02:23.81	212.92	34.14	-46.5	-48.8	15.1	0.00e+00	0	33	0	1050673152	58	4917
2026-01-16 01:02:24.53	212.90	33.98	-47.3	-50.1	14.5	0.00e+00	0	33	0	1051721728	59	5362
2026-01-16 01:02:25.83	212.87	33.70	-48.0	-51.4	13.4	0.00e+00	0	33	0	1053818880	61	5568
2026-01-16 01:02:26.55	212.85	33.54	-48.5	-52.4	12.7	7.00e-07	0	33	0	1055916032	62	5867
2026-01-16 01:02:27.84	212.82	33.26	-49.0	-53.3	11.9	7.60e-06	0	33	0	1058013184	63	6183
2026-01-16 01:02:28.57	212.80	33.11	-48.6	-52.6	12.5	1.75e-05	0	33	0	1059061760	63	5687
2026-01-16 01:02:29.86	212.77	32.84	-47.9	-51.3	13.5	3.00e-06	0	33	0	1061158912	62	5184
2026-01-16 01:02:30.58	212.76	32.69	-47.6	-50.7	13.8	0.00e+00	0	33	0	1063256064	61	5158
2026-01-16 01:02:31.88	212.73	32.41	-46.9	-49.6	14.5	0.00e+00	0	33	0	1065353216	60	4799
2026-01-16 01:02:32.60	212.71	32.27	-46.7	-49.3	14.9	0.00e+00	0	33	0	1066401792	59	4872
2026-01-16 01:02:33.90	212.68	32.00	-46.3	-48.6	15.2	0.00e+00	0	33	0	1069547520	59	4544
2026-01-16 01:02:34.62	212.67	31.85	-46.3	-48.7	15.2	0.00e+00	0	33	0	1070596096	58	4841
2026-01-16 01:02:35.92	212.64	31.59	-46.1	-48.3	15.4	0.00e+00	0	33	0	1072693248	58	4620
2026-01-16 01:02:36.64	212.63	31.44	-46.2	-48.5	15.3	0.00e+00	0	33	0	1074790400	58	4741
2026-01-16 01:02:37.94	212.60	31.18	-46.2	-48.5	15.3	0.00e+00	0	33	0	1076887552	58	4721
2026-01-16 01:02:38.66	212.58	31.04	-46.3	-48.6	15.3	0.00e+00	0	33	0	1077936128	58	4765
2026-01-16 01:02:39.96	212.56	30.78	-46.4	-48.8	15.1	0.00e+00	0	33	0	1081081856	58	4921
2026-01-16 01:02:40.68	212.54	30.64	-46.6	-49.0	15.0	0.00e+00	0	33	0	1082130432	58	5031
2026-01-16 01:02:41.98	212.52	30.39	-46.3	-48.7	15.2	0.00e+00	0	33	0	1084227584	58	4837
2026-01-16 01:02:42.70	212.50	30.25	-46.3	-48.7	15.2	0.00e+00	0	33	0	1085276160	58	4817
2026-01-16 01:02:43.99	212.48	30.00	-46.4	-48.9	15.0	0.00e+00	0	33	0	1088421888	58	4937
2026-01-16 01:02:44.72	212.47	29.86	-46.4	-48.9	15.1	0.00e+00	0	33	0	1089470464	58	4933
2026-01-16 01:02:46.01	212.44	29.62	-46.6	-49.1	15.0	0.00e+00	0	33	0	1091567616	58	5049
2026-01-16 01:02:46.73	212.43	29.49	-46.6	-49.2	14.9	0.00e+00	0	33	0	1093664768	58	5109
2026-01-16 01:02:48.03	212.41	29.24	-46.8	-49.4	14.8	0.00e+00	0	33	0	1095761920	58	5241
2026-01-16 01:02:48.75	212.39	29.11	-47.0	-49.8	14.5	0.00e+00	0	33	0	1096810496	59	5180
2026-01-16 01:02:50.05	212.37	28.87	-47.2	-50.1	14.0	0.00e+00	0	33	0	1099956224	60	5080
2026-01-16 01:02:50.77	212.36	28.74	-47.4	-50.5	13.9	0.00e+00	0	33	0	1101004800	60	5280
2026-01-16 01:02:52.07	212.34	28.50	-47.6	-50.9	13.7	0.00e+00	0	33	0	1103101952	60	5537
2026-01-16 01:02:52.79	212.32	28.37	-47.1	-49.9	14.2	7.00e-07	0	33	0	1104150528	60	4961
2026-01-16 01:02:54.09	212.30	28.14	-47.4	-50.4	14.0	0.00e+00	0	33	0	1107296256	60	5274
2026-01-16 01:02:54.81	212.29	28.01	-47.0	-49.8	14.4	0.00e+00	0	33	0	1108344832	60	4911
2026-01-16 01:02:56.11	212.27	27.78	-46.8	-49.4	14.6	0.00e+00	0	33	0	1110441984	60	4695
2026-01-16 01:02:56.83	212.26	27.65	-46.7	-49.3	14.9	0.00e+00	0	33	0	1112539136	59	4872
2026-01-16 01:02:58.12	212.24	27.43	-46.1	-48.4	15.3	0.00e+00	0	33	0	1114636288	58	4704
2026-01-16 01:02:58.85	212.23	27.30	-45.9	-48.1	15.5	0.00e+00	0	33	0	1115684864	58	4503
2026-01-16 01:03:00.14	212.21	27.08	-45.5	-47.6	15.6	0.00e+00	0	33	0	1118830592	57	4514
2026-01-16 01:03:00.86	212.20	26.95	-45.5	-47.6	15.7	0.00e+00	0	33	0	1119879168	57	4516
2026-01-16 01:03:02.16	212.18	26.73	-45.1	-47.1	15.8	0.00e+00	0	33	0	1121976320	56	4521
2026-01-16 01:03:02.88	212.17	26.61	-44.9	-46.8	16.0	0.00e+00	0	33	0	1123024896	56	4360
2026-01-16 01:03:04.18	212.15	26.39	-44.5	-46.3	16.1	0.00e+00	0	33	0	1126170624	55	4387
2026-01-16 01:03:04.90	212.14	26.27	-44.6	-46.5	16.1	0.00e+00	0	33	0	1127219200	55	4446
2026-01-16 01:03:06.20	212.12	26.05	-44.8	-46.7	16.0	0.00e+00	0	33	0	1129316352	55	4553
2026-01-16 01:03:06.92	212.11	25.93	-44.9	-46.9	15.9	0.00e+00	0	33	0	1131413504	55	4662
2026-01-16 01:03:08.22	212.09	25.72	-45.6	-47.8	15.6	0.00e+00	0	33	0	1133510656	56	4879
2026-01-16 01:03:08.94	212.08	25.60	-45.9	-48.2	15.4	0.00e+00	0	33	0	1134559232	57	4839
2026-01-16 01:03:10.24	212.06	25.39	-46.8	-49.5	14.7	0.00e+00	0	33	0	1137704960	58	5284
2026-01-16 01:03:10.96	212.05	25.28	-47.1	-49.9	14.4	0.00e+00	0	33	0	1138753536	59	5276
2026-01-16 01:03:12.26	212.04	25.07	-47.3	-50.4	13.9	0.00e+00	0	33	0	1140850688	60	5237
2026-01-16 01:03:12.98	212.03	24.95	-47.5	-50.7	13.7	0.00e+00	0	33	0	1142947840	60	5432
2026-01-16 01:03:14.27	212.01	24.75	-47.2	-50.2	14.1	0.00e+00	0	33	0	1145044992	60	5132
2026-01-16 01:03:14.99	212.00	24.63	-46.7	-49.5	14.5	0.00e+00	0	33	0	1146093568	60	4714
2026-01-16 01:03:16.29	211.99	24.43	-46.9	-49.7	14.6	0.00e+00	0	33	0	1148190720	59	5109
2026-01-16 01:03:17.01	211.98	24.32	-46.9	-49.6	14.7	0.00e+00	0	33	0	1150287872	59	5059
2026-01-16 01:03:18.31	211.96	24.12	-46.0	-48.3	15.3	0.00e+00	0	33	0	1152385024	58	4629
2026-01-16 01:03:19.03	211.95	24.01	-45.8	-48.0	15.5	0.00e+00	0	33	0	1153433600	58	4486
2026-01-16 01:03:20.33	211.94	23.81	-45.3	-47.4	15.7	0.00e+00	0	33	0	1156579328	57	4399
2026-01-16 01:03:21.05	211.93	23.70	-45.4	-47.5	15.7	0.00e+00	0	33	0	1157627904	57	4487
2026-01-16 01:03:22.34	211.92	23.51	-45.2	-47.3	15.7	0.00e+00	0	33	0	1159725056	56	4622
2026-01-16 01:03:23.07	211.91	23.40	-45.0	-47.0	15.9	0.00e+00	0	33	0	1161822208	56	4485
2026-01-16 01:03:24.36	211.89	23.20	-45.0	-47.0	15.9	0.00e+00	0	33	0	1163919360	56	4470
2026-01-16 01:03:25.08	211.89	23.10	-45.2	-47.2	15.8	0.00e+00	0	33	0	1164967936	56	4553
2026-01-16 01:03:26.38	211.87	22.90	-45.0	-46.9	15.9	0.00e+00	0	33	0	1167065088	56	4413
2026-01-16 01:03:27.10	211.86	22.80	-45.0	-46.9	15.9	0.00e+00	0	33	0	1169162240	56	4412
2026-01-16 01:03:28.40	211.85	22.61	-45.2	-47.2	15.7	0.00e+00	0	33	0	1171259392	56	4598
2026-01-16 01:03:29.12	211.84	22.50	-44.9	-46.9	15.9	0.00e+00	0	33	0	1172307968	56	4393
2026-01-16 01:03:30.42	211.83	22.32	-45.0	-46.9	15.9	0.00e+00	0	33	0	1175453696	56	4422
2026-01-16 01:03:31.14	211.82	22.21	-45.1	-47.1	15.8	0.00e+00	0	33	0	1176502272	56	4519
2026-01-16 01:03:32.44	211.81	22.03	-44.9	-46.8	15.9	0.00e+00	0	33	0	1178599424	56	4354
2026-01-16 01:03:33.16	211.80	21.93	-44.8	-46.7	16.0	0.00e+00	0	33	0	1180696576	56	4337
2026-01-16 01:03:34.46	211.79	21.74	-45.0	-46.9	15.9	0.00e+00	0	33	0	1182793728	56	4427
2026-01-16 01:03:35.18	211.78	21.64	-45.0	-47.0	15.8	0.00e+00	0	33	0	1183842304	56	4474
2026-01-16 01:03:36.47	211.77	21.46	-45.1	-47.1	15.8	0.00e+00	0	33	0	1186988032	56	4505
2026-01-16 01:03:37.20	211.76	21.36	-45.2	-47.2	15.8	0.00e+00	0	33	0	1188036608	56	4577
2026-01-16 01:03:38.49	211.75	21.18	-45.1	-47.1	15.8	0.00e+00	0	33	0	1190133760	56	4535
2026-01-16 01:03:39.22	211.74	21.08	-45.1	-47.2	15.8	0.00e+00	0	33	0	1191182336	56	4546
2026-01-16 01:03:40.52	211.73	20.91	-45.5	-47.7	15.6	0.00e+00	0	33	0	1194328064	56	4815
2026-01-16 01:03:41.24	211.73	20.81	-45.3	-47.3	15.7	0.00e+00	0	33	0	1195376640	56	4627
2026-01-16 01:03:42.53	211.71	20.63	-45.4	-47.5	15.7	0.00e+00	0	33	0	1197473792	56	4732
2026-01-16 01:03:43.26	211.71	20.54	-45.5	-47.6	15.6	0.00e+00	0	33	0	1199570944	56	4799
2026-01-16 01:03:44.55	211.70	20.36	-45.4	-47.5	15.6	0.00e+00	0	33	0	1201668096	56	4751
2026-01-16 01:03:45.27	211.69	20.27	-45.6	-47.7	15.4	0.00e+00	0	33	0	1202716672	56	4862
2026-01-16 01:03:46.57	211.68	20.10	-45.6	-47.8	15.5	0.00e+00	0	33	0	1205862400	56	4900
2026-01-16 01:03:47.29	211.67	20.00	-45.7	-48.0	15.4	0.00e+00	0	33	0	1206910976	56	4989
2026-01-16 01:03:48.59	211.66	19.83	-45.9	-48.1	15.3	0.00e+00	0	33	0	1209008128	56	5085
2026-01-16 01:03:49.31	211.66	19.74	-45.6	-47.7	15.5	0.00e+00	0	33	0	1211105280	56	4863
2026-01-16 01:03:50.61	211.65	19.57	-45.6	-47.7	15.5	0.00e+00	0	33	0	1213202432	56	4865
2026-01-16 01:03:51.33	211.64	19.48	-45.7	-47.9	15.4	0.00e+00	0	33	0	1214251008	56	4941
2026-01-16 01:03:52.63	211.63	19.31	-45.8	-48.0	15.3	0.00e+00	0	33	0	1216348160	56	5039
2026-01-16 01:03:53.35	211.62	19.22	-46.1	-48.4	15.2	0.00e+00	0	33	0	1218445312	57	4981
2026-01-16 01:03:54.65	211.61	19.06	-46.1	-48.5	15.1	0.00e+00	0	33	0	1220542464	57	5025
2026-01-16 01:03:55.37	211.61	18.97	-46.1	-48.6	15.1	0.00e+00	0	33	0	1221591040	57	5042
2026-01-16 01:03:56.66	211.60	18.80	-46.5	-49.2	14.8	0.00e+00	0	33	0	1224736768	58	5102
2026-01-16 01:03:57.38	211.59	18.71	-46.5	-49.1	14.8	0.00e+00	0	33	0	1225785344	58	5079
2026-01-16 01:03:58.68	211.58	18.55	-46.9	-49.8	14.4	0.00e+00	0	33	0	1227882496	59	5167
2026-01-16 01:03:59.40	211.58	18.46	-47.1	-50.0	14.3	0.00e+00	0	33	0	1229979648	59	5315
2026-01-16 01:04:00.70	211.57	18.30	-46.9	-49.8	14.2	0.00e+00	0	33	0	1232076800	60	4919
2026-01-16 01:04:01.42	211.56	18.22	-47.1	-50.1	14.0	0.00e+00	0	33	0	1233125376	60	5047
2026-01-16 01:04:02.72	211.56	18.06	-47.5	-50.8	13.5	0.00e+00	0	33	0	1235222528	60	5494
2026-01-16 01:04:03.44	211.55	17.97	-47.5	-50.7	13.6	0.00e+00	0	33	0	1237319680	60	5456
2026-01-16 01:04:04.74	211.54	17.82	-47.5	-50.9	13.5	0.00e+00	0	33	0	1239416832	60	5543
2026-01-16 01:04:05.46	211.54	17.73	-47.8	-51.4	13.1	0.00e+00	0	33	0	1240465408	60	5870
2026-01-16 01:04:06.76	211.53	17.57	-47.6	-51.0	13.4	0.00e+00	0	33	0	1243611136	60	5630
2026-01-16 01:04:07.48	211.52	17.49	-47.7	-51.1	13.3	0.00e+00	0	33	0	1244659712	60	5704
2026-01-16 01:04:08.78	211.52	17.34	-47.7	-51.2	13.3	0.00e+00	0	33	0	1246756864	61	5414
2026-01-16 01:04:09.50	211.51	17.25	-47.6	-50.9	13.5	0.00e+00	0	33	0	1248854016	61	5244
2026-01-16 01:04:10.79	211.50	17.10	-47.6	-51.0	13.4	0.00e+00	0	33	0	1250951168	61	5320
2026-01-16 01:04:11.52	211.50	17.01	-47.5	-50.7	13.6	0.00e+00	0	33	0	1251999744	61	5158
2026-01-16 01:04:12.81	211.49	16.87	-47.3	-50.4	13.8	0.00e+00	0	33	0	1255145472	61	4972
2026-01-16 01:04:13.54	211.49	16.78	-47.1	-50.2	13.9	0.00e+00	0	33	0	1256194048	60	5119
2026-01-16 01:04:14.83	211.48	16.63	-46.9	-49.8	14.1	0.00e+00	0	33	0	1258291200	60	4884
2026-01-16 01:04:15.55	211.47	16.55	-46.9	-49.9	14.1	0.00e+00	0	33	0	1259339776	60	4941
2026-01-16 01:04:16.85	211.47	16.40	-46.8	-49.6	14.3	0.00e+00	0	33	0	1262485504	60	4787
2026-01-16 01:04:17.57	211.46	16.32	-46.8	-49.6	14.3	0.00e+00	0	33	0	1263534080	60	4782
2026-01-16 01:04:18.87	211.45	16.18	-47.1	-50.0	14.3	0.00e+00	0	33	0	1265631232	59	5318
2026-01-16 01:04:19.59	211.45	16.10	-46.9	-49.8	14.4	0.00e+00	0	33	0	1267728384	59	5180
