passes_logs/2026/01/16/R3.2S_Murmansk_2ch/R3.2S_Murmansk_2ch__20260116_023256_SUOMI_NPP_rec.log

#Pass ID: 20260116_023256_SUOMI NPP
#Satellite: SUOMI NPP
#Configuration: NPP
#almurnet v.1.7.20251203
#Start time: 2026-01-16 02:32:56

#Version: 2.2.20231116
#Station: R3.2S_Murmansk_2ch
#Location: 33.079688 lon 68.888172 lat
#TLE: 1 37849U 11061A   26015.59739646  .00000050  00000+0  44779-4 0  9992
#TLE: 2 37849  98.7811 317.6408 0002446  62.6499 297.4925 14.19525346736798

#Time	Az	El	Level	Level2	SNR	BER	BlckErr	Temp	State	Recorded	gain1	gain2
2026-01-16 02:32:56.08	33.78	1.99	-49.5	-65.7	3.8	1.49e+00	0	31	0	0	65	22936
2026-01-16 02:32:57.08	33.75	2.05	-49.6	-65.7	3.8	1.49e+00	0	31	104	0	64	24308
2026-01-16 02:32:58.09	33.71	2.11	-49.6	-65.7	3.8	1.49e+00	0	31	104	0	64	24333
2026-01-16 02:32:59.10	33.67	2.17	-49.6	-65.8	3.8	1.49e+00	0	31	104	0	64	24411
2026-01-16 02:33:00.11	33.63	2.23	-49.6	-65.7	3.8	1.49e+00	0	31	104	0	64	24321
2026-01-16 02:33:01.11	33.59	2.30	-49.6	-65.7	3.8	1.49e+00	0	31	104	0	64	24261
2026-01-16 02:33:02.12	33.56	2.36	-49.6	-65.7	3.8	1.49e+00	0	31	104	0	64	24302
2026-01-16 02:33:03.13	33.52	2.42	-49.6	-65.7	3.8	1.49e+00	0	31	104	0	64	24341
2026-01-16 02:33:04.14	33.48	2.48	-49.6	-65.7	3.8	1.49e+00	0	31	104	0	64	24272
2026-01-16 02:33:05.15	33.44	2.55	-49.6	-65.7	3.8	1.49e+00	0	31	104	0	64	24259
2026-01-16 02:33:06.16	33.40	2.61	-49.6	-65.7	3.8	1.49e+00	0	31	104	0	64	24332
2026-01-16 02:33:07.17	33.36	2.67	-49.6	-65.7	3.8	1.49e+00	0	31	104	0	64	24361
2026-01-16 02:33:08.18	33.32	2.74	-49.6	-65.7	3.8	1.49e+00	0	31	104	0	64	24305
2026-01-16 02:33:09.19	33.28	2.80	-49.6	-65.7	3.8	1.49e+00	0	31	104	0	64	24314
2026-01-16 02:33:10.20	33.24	2.86	-49.6	-65.7	3.8	1.49e+00	0	31	104	0	64	24317
2026-01-16 02:33:11.21	33.20	2.93	-49.6	-65.7	3.8	1.49e+00	0	31	104	0	64	24366
2026-01-16 02:33:12.22	33.16	2.99	-49.6	-65.6	3.8	1.49e+00	0	31	104	0	64	24095
2026-01-16 02:33:13.23	33.12	3.06	-49.6	-65.6	3.8	1.49e+00	0	31	104	0	64	24043
2026-01-16 02:33:14.24	33.08	3.12	-49.6	-65.5	3.8	1.49e+00	0	31	104	0	64	23708
2026-01-16 02:33:15.25	33.03	3.18	-49.6	-65.5	3.8	1.49e+00	0	31	104	0	64	23656
2026-01-16 02:33:16.26	32.99	3.25	-49.6	-65.4	3.8	1.49e+00	0	31	104	0	64	23391
2026-01-16 02:33:17.27	32.95	3.31	-49.6	-65.2	3.8	1.49e+00	0	32	104	0	64	22847
2026-01-16 02:33:18.28	32.91	3.38	-49.5	-64.9	3.8	1.49e+00	0	31	104	0	64	22082
2026-01-16 02:33:19.28	32.87	3.44	-49.6	-65.4	3.8	1.49e+00	0	31	104	0	64	23468
2026-01-16 02:33:20.30	32.82	3.51	-49.5	-65.0	3.8	1.49e+00	0	31	104	0	64	22320
2026-01-16 02:33:21.30	32.78	3.57	-49.5	-65.0	3.8	1.49e+00	0	31	104	0	64	22332
2026-01-16 02:33:22.32	32.74	3.64	-49.5	-64.4	3.8	1.49e+00	0	31	104	0	64	20782
2026-01-16 02:33:23.33	32.70	3.70	-49.5	-63.9	3.8	1.49e+00	0	31	104	0	64	19774
2026-01-16 02:33:24.33	32.65	3.77	-49.5	-64.8	3.8	1.49e+00	0	32	104	0	64	21881
2026-01-16 02:33:25.34	32.61	3.83	-49.5	-64.8	3.8	1.49e+00	0	32	104	0	64	21811
2026-01-16 02:33:26.35	32.57	3.90	-49.6	-65.0	3.8	1.49e+00	0	32	104	0	64	22271
2026-01-16 02:33:27.36	32.52	3.97	-49.6	-65.1	3.8	1.49e+00	0	32	104	0	64	22763
2026-01-16 02:33:28.37	32.48	4.03	-49.6	-65.0	3.8	1.49e+00	0	32	104	0	64	22440
2026-01-16 02:33:29.38	32.44	4.10	-49.5	-64.1	3.8	1.49e+00	0	32	104	0	64	20207
2026-01-16 02:33:30.39	32.39	4.17	-49.5	-62.9	4.0	1.49e+00	0	32	104	0	64	17612
2026-01-16 02:33:31.40	32.35	4.23	-49.3	-60.9	4.7	1.24e+00	0	32	0	0	64	13914
2026-01-16 02:33:32.41	32.30	4.30	-49.3	-60.1	5.0	7.11e-01	0	32	0	2097152	64	12688
2026-01-16 02:33:33.42	32.26	4.37	-49.1	-58.5	6.0	3.24e-01	0	32	0	4194304	64	10640
2026-01-16 02:33:34.43	32.21	4.43	-48.9	-57.3	6.9	1.49e-01	0	32	0	6291456	64	9213
2026-01-16 02:33:35.43	32.17	4.50	-48.5	-55.3	8.6	1.24e-01	0	32	0	7340032	63	7760
2026-01-16 02:33:36.44	32.12	4.57	-48.6	-55.9	8.1	4.82e-02	0	32	0	9437184	63	8300
2026-01-16 02:33:37.45	32.07	4.63	-48.2	-54.4	9.5	1.16e-02	0	32	0	11534336	63	7002
2026-01-16 02:33:38.46	32.03	4.70	-48.2	-54.3	9.5	1.11e-02	0	32	0	13631488	62	7353
2026-01-16 02:33:39.47	31.98	4.77	-48.4	-55.2	8.7	1.44e-02	0	32	0	15728640	62	8091
2026-01-16 02:33:40.48	31.94	4.84	-48.2	-54.4	9.5	5.27e-03	0	32	0	16777216	62	7394
2026-01-16 02:33:41.49	31.89	4.91	-48.4	-55.1	8.8	1.17e-02	0	32	0	18874368	62	8075
2026-01-16 02:33:42.50	31.84	4.97	-48.5	-55.6	8.3	3.25e-02	0	32	0	20971520	62	8524
2026-01-16 02:33:43.51	31.79	5.04	-48.0	-53.5	10.5	1.30e-02	0	32	0	23068672	62	6648
2026-01-16 02:33:44.52	31.75	5.11	-46.8	-50.7	12.6	2.45e-03	0	32	0	25165824	60	5422
2026-01-16 02:33:45.52	31.70	5.18	-49.4	-57.8	7.0	4.50e-06	0	32	0	26214400	63	10308
2026-01-16 02:33:46.53	31.65	5.25	-47.7	-52.4	11.3	2.01e-01	0	32	0	28311552	62	5905
2026-01-16 02:33:47.54	31.60	5.32	-47.7	-52.5	11.5	0.00e+00	0	32	0	30408704	60	6670
2026-01-16 02:33:48.55	31.55	5.39	-47.9	-53.0	10.8	1.59e-01	0	32	0	32505856	62	6309
2026-01-16 02:33:49.56	31.50	5.45	-46.5	-50.0	13.4	3.00e-06	0	32	0	34603008	59	5288
2026-01-16 02:33:50.57	31.46	5.52	-46.9	-50.7	13.0	0.00e+00	0	32	0	35651584	59	5724
2026-01-16 02:33:51.58	31.41	5.59	-46.8	-50.6	13.0	0.00e+00	0	32	0	37748736	59	5710
2026-01-16 02:33:52.59	31.36	5.66	-46.9	-50.7	13.0	0.00e+00	0	32	0	39845888	59	5745
2026-01-16 02:33:53.60	31.31	5.73	-47.2	-51.2	12.6	7.00e-07	0	32	0	41943040	59	6104
2026-01-16 02:33:54.61	31.26	5.80	-47.0	-50.9	12.9	7.00e-07	0	32	0	44040192	59	5881
2026-01-16 02:33:55.62	31.21	5.87	-47.1	-51.1	12.7	7.00e-07	0	32	0	45088768	59	6029
2026-01-16 02:33:56.63	31.16	5.94	-47.0	-50.8	12.9	0.00e+00	0	32	0	47185920	59	5849
2026-01-16 02:33:57.64	31.10	6.02	-47.0	-50.8	12.9	0.00e+00	0	32	0	49283072	59	5850
2026-01-16 02:33:58.65	31.05	6.09	-47.1	-51.0	12.9	7.00e-07	0	32	0	51380224	59	5952
2026-01-16 02:33:59.66	31.00	6.16	-47.0	-50.8	13.0	0.00e+00	0	32	0	53477376	59	5823
2026-01-16 02:34:00.67	30.95	6.23	-46.7	-50.3	13.4	7.00e-07	0	32	0	54525952	59	5492
2026-01-16 02:34:01.68	30.90	6.30	-47.1	-51.0	12.9	0.00e+00	0	32	0	56623104	59	5939
2026-01-16 02:34:02.68	30.85	6.37	-46.9	-50.6	13.2	0.00e+00	0	32	0	58720256	59	5681
2026-01-16 02:34:03.69	30.79	6.44	-47.0	-50.8	13.0	0.00e+00	0	32	0	60817408	59	5803
2026-01-16 02:34:04.70	30.74	6.51	-46.7	-50.2	13.4	0.00e+00	0	32	0	62914560	59	5443
2026-01-16 02:34:05.71	30.69	6.59	-46.5	-49.9	13.6	0.00e+00	0	32	0	65011712	59	5251
2026-01-16 02:34:06.72	30.63	6.66	-46.6	-50.0	13.6	0.00e+00	0	32	0	66060288	59	5314
2026-01-16 02:34:07.73	30.58	6.73	-46.6	-50.2	13.5	0.00e+00	0	32	0	68157440	59	5407
2026-01-16 02:34:08.74	30.53	6.80	-46.5	-50.0	13.6	0.00e+00	0	32	0	70254592	59	5309
2026-01-16 02:34:09.75	30.47	6.88	-46.6	-50.1	13.5	0.00e+00	0	32	0	72351744	59	5384
2026-01-16 02:34:10.76	30.42	6.95	-46.4	-49.8	13.7	0.00e+00	0	32	0	74448896	59	5179
2026-01-16 02:34:11.77	30.36	7.02	-46.4	-49.7	13.8	0.00e+00	0	32	0	75497472	59	5137
2026-01-16 02:34:12.78	30.31	7.10	-46.4	-49.7	13.8	0.00e+00	0	32	0	77594624	59	5143
2026-01-16 02:34:13.79	30.25	7.17	-46.4	-49.7	13.8	0.00e+00	0	32	0	79691776	59	5127
2026-01-16 02:34:14.80	30.20	7.24	-46.3	-49.5	13.9	0.00e+00	0	32	0	81788928	59	5039
2026-01-16 02:34:15.81	30.14	7.32	-46.4	-49.7	13.8	0.00e+00	0	32	0	83886080	59	5147
2026-01-16 02:34:16.82	30.08	7.39	-46.2	-49.4	14.0	0.00e+00	0	32	0	84934656	59	4972
2026-01-16 02:34:17.83	30.03	7.46	-46.4	-49.7	13.8	0.00e+00	0	32	0	87031808	59	5126
2026-01-16 02:34:18.83	29.97	7.54	-46.5	-49.8	13.8	0.00e+00	0	32	0	89128960	59	5182
2026-01-16 02:34:19.84	29.91	7.61	-46.5	-49.8	13.8	0.00e+00	0	32	0	91226112	59	5195
2026-01-16 02:34:20.85	29.86	7.69	-46.5	-49.9	13.7	0.00e+00	0	32	0	93323264	59	5252
2026-01-16 02:34:21.86	29.80	7.76	-46.5	-49.8	13.8	0.00e+00	0	32	0	94371840	59	5196
2026-01-16 02:34:22.87	29.74	7.84	-46.2	-49.3	14.1	0.00e+00	0	32	0	96468992	58	5201
2026-01-16 02:34:23.88	29.68	7.91	-46.0	-49.1	14.3	0.00e+00	0	32	0	98566144	58	5049
2026-01-16 02:34:24.89	29.62	7.99	-46.1	-49.1	14.2	0.00e+00	0	32	0	100663296	58	5093
2026-01-16 02:34:25.90	29.56	8.06	-46.0	-49.1	14.3	0.00e+00	0	32	0	102760448	58	5045
2026-01-16 02:34:26.91	29.50	8.14	-46.2	-49.4	14.1	0.00e+00	0	32	0	103809024	58	5231
2026-01-16 02:34:27.92	29.44	8.22	-46.2	-49.4	14.1	0.00e+00	0	32	0	105906176	58	5222
2026-01-16 02:34:28.93	29.38	8.29	-46.1	-49.2	14.2	0.00e+00	0	32	0	108003328	58	5138
2026-01-16 02:34:29.94	29.32	8.37	-46.1	-49.2	14.2	0.00e+00	0	32	0	110100480	58	5136
2026-01-16 02:34:30.94	29.26	8.45	-46.2	-49.4	14.1	0.00e+00	0	32	0	112197632	58	5274
2026-01-16 02:34:31.95	29.20	8.52	-46.2	-49.4	14.1	0.00e+00	0	32	0	113246208	58	5263
2026-01-16 02:34:32.96	29.14	8.60	-46.1	-49.2	14.2	0.00e+00	0	32	0	115343360	58	5159
2026-01-16 02:34:33.97	29.08	8.68	-46.3	-49.5	14.0	0.00e+00	0	32	0	117440512	58	5329
2026-01-16 02:34:34.98	29.02	8.75	-46.1	-49.3	14.1	0.00e+00	0	32	0	119537664	58	5211
2026-01-16 02:34:35.99	28.95	8.83	-46.1	-49.2	14.3	0.00e+00	0	33	0	121634816	58	5104
2026-01-16 02:34:37.00	28.89	8.91	-46.0	-49.2	14.3	0.00e+00	0	32	0	122683392	58	5110
2026-01-16 02:34:38.01	28.83	8.99	-45.9	-49.0	14.4	0.00e+00	0	32	0	124780544	58	4992
2026-01-16 02:34:39.02	28.76	9.07	-46.0	-49.0	14.3	0.00e+00	0	32	0	126877696	58	5030
2026-01-16 02:34:40.03	28.70	9.14	-46.2	-49.4	14.1	0.00e+00	0	32	0	128974848	58	5266
2026-01-16 02:34:41.03	28.64	9.22	-46.1	-49.2	14.2	0.00e+00	0	32	0	131072000	58	5128
2026-01-16 02:34:42.04	28.57	9.30	-45.8	-48.7	14.5	0.00e+00	0	32	0	133169152	58	4862
2026-01-16 02:34:43.05	28.51	9.38	-45.8	-48.8	14.5	0.00e+00	0	32	0	134217728	58	4914
2026-01-16 02:34:44.06	28.44	9.46	-46.0	-49.1	14.3	0.00e+00	0	32	0	136314880	58	5070
2026-01-16 02:34:45.07	28.38	9.54	-46.1	-49.2	14.2	0.00e+00	0	32	0	138412032	58	5123
2026-01-16 02:34:46.08	28.31	9.62	-46.0	-49.0	14.4	0.00e+00	0	32	0	140509184	58	5040
2026-01-16 02:34:47.09	28.24	9.70	-45.9	-48.9	14.4	0.00e+00	0	32	0	142606336	58	4982
2026-01-16 02:34:48.10	28.18	9.78	-45.8	-48.8	14.5	0.00e+00	0	33	0	143654912	58	4896
2026-01-16 02:34:49.11	28.11	9.86	-45.7	-48.7	14.6	0.00e+00	0	32	0	145752064	58	4817
2026-01-16 02:34:50.12	28.04	9.94	-45.8	-48.8	14.5	0.00e+00	0	32	0	147849216	58	4873
2026-01-16 02:34:51.13	27.97	10.02	-45.9	-48.9	14.4	0.00e+00	0	33	0	149946368	58	4978
2026-01-16 02:34:52.14	27.90	10.10	-45.8	-48.7	14.6	0.00e+00	0	32	0	152043520	58	4822
2026-01-16 02:34:53.15	27.83	10.18	-45.8	-48.7	14.6	0.00e+00	0	32	0	153092096	57	5103
2026-01-16 02:34:54.15	27.77	10.27	-45.5	-48.4	14.7	0.00e+00	0	32	0	155189248	57	4930
2026-01-16 02:34:55.16	27.70	10.35	-45.5	-48.2	14.8	0.00e+00	0	32	0	157286400	57	4866
2026-01-16 02:34:56.17	27.63	10.43	-45.5	-48.2	14.8	0.00e+00	0	33	0	159383552	57	4828
2026-01-16 02:34:57.18	27.55	10.51	-45.6	-48.4	14.7	0.00e+00	0	32	0	161480704	57	4929
2026-01-16 02:34:58.19	27.48	10.59	-45.4	-48.1	14.9	0.00e+00	0	33	0	162529280	57	4809
2026-01-16 02:34:59.20	27.41	10.68	-45.4	-48.2	14.8	0.00e+00	0	33	0	164626432	57	4824
2026-01-16 02:35:00.21	27.34	10.76	-45.4	-48.1	14.9	0.00e+00	0	32	0	166723584	57	4803
2026-01-16 02:35:01.22	27.27	10.84	-45.6	-48.4	14.7	0.00e+00	0	33	0	168820736	57	4939
2026-01-16 02:35:02.23	27.19	10.93	-45.6	-48.3	14.7	0.00e+00	0	33	0	170917888	57	4891
2026-01-16 02:35:03.24	27.12	11.01	-45.5	-48.2	14.8	0.00e+00	0	33	0	171966464	57	4849
2026-01-16 02:35:04.25	27.05	11.09	-45.5	-48.2	14.8	0.00e+00	0	33	0	174063616	57	4858
2026-01-16 02:35:05.26	26.97	11.18	-45.6	-48.3	14.8	0.00e+00	0	32	0	176160768	57	4885
2026-01-16 02:35:06.26	26.90	11.26	-45.6	-48.4	14.7	0.00e+00	0	33	0	178257920	57	4930
2026-01-16 02:35:07.27	26.82	11.35	-45.6	-48.3	14.8	0.00e+00	0	33	0	180355072	57	4878
2026-01-16 02:35:08.28	26.75	11.43	-45.5	-48.2	14.8	0.00e+00	0	33	0	181403648	57	4834
2026-01-16 02:35:09.29	26.67	11.52	-45.6	-48.3	14.8	0.00e+00	0	33	0	183500800	57	4880
2026-01-16 02:35:10.30	26.60	11.60	-45.6	-48.2	14.8	0.00e+00	0	32	0	185597952	57	4839
2026-01-16 02:35:11.31	26.52	11.69	-45.5	-48.2	14.8	0.00e+00	0	33	0	187695104	57	4826
2026-01-16 02:35:12.32	26.44	11.77	-45.6	-48.2	14.8	0.00e+00	0	33	0	189792256	57	4848
2026-01-16 02:35:13.33	26.36	11.86	-45.6	-48.3	14.8	0.00e+00	0	33	0	190840832	57	4894
2026-01-16 02:35:14.34	26.29	11.95	-45.6	-48.3	14.8	0.00e+00	0	33	0	192937984	57	4910
2026-01-16 02:35:15.35	26.21	12.03	-45.5	-48.1	14.9	0.00e+00	0	33	0	195035136	57	4788
2026-01-16 02:35:16.36	26.13	12.12	-45.5	-48.1	14.9	0.00e+00	0	33	0	197132288	57	4803
2026-01-16 02:35:17.37	26.05	12.21	-45.5	-48.1	14.9	0.00e+00	0	33	0	199229440	57	4800
2026-01-16 02:35:18.37	25.97	12.29	-45.6	-48.2	14.8	0.00e+00	0	33	0	200278016	57	4856
2026-01-16 02:35:19.38	25.89	12.38	-45.5	-48.1	14.9	0.00e+00	0	33	0	202375168	57	4788
2026-01-16 02:35:20.39	25.81	12.47	-45.5	-48.1	14.9	0.00e+00	0	33	0	204472320	57	4806
2026-01-16 02:35:21.40	25.72	12.56	-45.6	-48.3	14.8	0.00e+00	0	33	0	206569472	57	4887
2026-01-16 02:35:22.41	25.64	12.65	-45.5	-48.1	14.9	0.00e+00	0	33	0	208666624	57	4780
2026-01-16 02:35:23.42	25.56	12.73	-45.4	-48.0	15.0	0.00e+00	0	33	0	209715200	57	4723
2026-01-16 02:35:24.43	25.48	12.82	-45.3	-47.8	15.0	0.00e+00	0	33	0	211812352	57	4651
2026-01-16 02:35:25.44	25.39	12.91	-45.4	-48.0	14.9	0.00e+00	0	33	0	213909504	57	4747
2026-01-16 02:35:26.45	25.31	13.00	-45.4	-48.0	15.0	0.00e+00	0	33	0	216006656	57	4733
2026-01-16 02:35:27.46	25.22	13.09	-45.3	-47.8	15.1	0.00e+00	0	33	0	218103808	57	4617
2026-01-16 02:35:28.47	25.14	13.18	-45.5	-48.2	14.9	0.00e+00	0	33	0	219152384	57	4827
2026-01-16 02:35:29.48	25.05	13.27	-45.5	-48.1	14.9	0.00e+00	0	33	0	221249536	57	4798
2026-01-16 02:35:30.49	24.96	13.36	-45.3	-47.9	15.0	0.00e+00	0	33	0	223346688	57	4691
2026-01-16 02:35:31.50	24.88	13.45	-45.5	-48.2	14.9	0.00e+00	0	33	0	225443840	57	4826
2026-01-16 02:35:32.51	24.79	13.54	-45.5	-48.3	14.8	0.00e+00	0	33	0	227540992	57	4882
2026-01-16 02:35:33.51	24.70	13.63	-45.6	-48.4	14.7	0.00e+00	0	33	0	229638144	57	4942
2026-01-16 02:35:34.52	24.61	13.73	-45.8	-48.7	14.6	0.00e+00	0	33	0	230686720	57	5102
2026-01-16 02:35:35.53	24.52	13.82	-45.8	-48.6	14.6	0.00e+00	0	33	0	232783872	57	5076
2026-01-16 02:35:36.54	24.43	13.91	-45.9	-48.8	14.5	0.00e+00	0	33	0	234881024	57	5173
2026-01-16 02:35:37.55	24.34	14.00	-45.6	-48.3	14.8	0.00e+00	0	33	0	236978176	57	4904
2026-01-16 02:35:38.56	24.25	14.10	-45.7	-48.4	14.7	0.00e+00	0	33	0	239075328	57	4981
2026-01-16 02:35:39.57	24.16	14.19	-45.6	-48.3	14.7	0.00e+00	0	33	0	240123904	57	4914
2026-01-16 02:35:40.58	24.07	14.28	-45.6	-48.4	14.7	0.00e+00	0	33	0	242221056	57	4961
2026-01-16 02:35:41.59	23.98	14.38	-45.7	-48.4	14.7	0.00e+00	0	33	0	244318208	57	4983
2026-01-16 02:35:42.60	23.88	14.47	-45.5	-48.1	14.9	0.00e+00	0	33	0	246415360	57	4799
2026-01-16 02:35:43.61	23.79	14.56	-45.1	-47.5	15.2	0.00e+00	0	33	0	248512512	56	4721
2026-01-16 02:35:44.62	23.69	14.66	-45.3	-47.8	15.1	0.00e+00	0	33	0	249561088	56	4916
2026-01-16 02:35:45.63	23.60	14.75	-45.1	-47.6	15.2	0.00e+00	0	33	0	251658240	56	4769
2026-01-16 02:35:46.63	23.50	14.85	-45.1	-47.5	15.3	0.00e+00	0	33	0	253755392	56	4737
2026-01-16 02:35:47.64	23.41	14.94	-45.2	-47.7	15.1	0.00e+00	0	33	0	255852544	56	4837
2026-01-16 02:35:48.65	23.31	15.04	-45.2	-47.7	15.2	0.00e+00	0	33	0	257949696	56	4819
2026-01-16 02:35:49.66	23.21	15.13	-45.2	-47.6	15.2	0.00e+00	0	33	0	258998272	56	4814
2026-01-16 02:35:50.67	23.11	15.23	-45.2	-47.6	15.2	0.00e+00	0	33	0	261095424	56	4769
2026-01-16 02:35:51.68	23.01	15.33	-45.0	-47.3	15.4	0.00e+00	0	33	0	263192576	56	4615
2026-01-16 02:35:52.69	22.91	15.42	-45.2	-47.6	15.2	0.00e+00	0	33	0	265289728	56	4770
2026-01-16 02:35:53.69	22.81	15.52	-45.3	-47.6	15.2	0.00e+00	0	33	0	267386880	56	4804
2026-01-16 02:35:54.71	22.71	15.62	-45.3	-47.7	15.2	0.00e+00	0	33	0	268435456	56	4849
2026-01-16 02:35:55.72	22.61	15.71	-45.2	-47.6	15.2	0.00e+00	0	33	0	270532608	56	4776
2026-01-16 02:35:56.72	22.51	15.81	-45.4	-47.8	15.2	0.00e+00	0	33	0	272629760	56	4924
2026-01-16 02:35:57.73	22.40	15.91	-45.5	-47.9	15.1	0.00e+00	0	33	0	274726912	56	4979
2026-01-16 02:35:58.75	22.30	16.01	-45.2	-47.6	15.3	0.00e+00	0	33	0	276824064	56	4778
2026-01-16 02:35:59.75	22.19	16.11	-45.2	-47.5	15.3	0.00e+00	0	33	0	277872640	56	4737
2026-01-16 02:36:00.76	22.09	16.21	-45.4	-47.8	15.1	0.00e+00	0	33	0	279969792	56	4924
2026-01-16 02:36:01.77	21.98	16.31	-45.5	-47.9	15.1	0.00e+00	0	33	0	282066944	56	4961
2026-01-16 02:36:02.78	21.88	16.41	-45.7	-48.3	15.0	0.00e+00	0	33	0	284164096	56	5171
2026-01-16 02:36:03.79	21.77	16.51	-45.6	-48.1	15.0	0.00e+00	0	33	0	286261248	56	5093
2026-01-16 02:36:04.80	21.66	16.61	-45.5	-47.9	15.1	0.00e+00	0	33	0	287309824	56	4969
2026-01-16 02:36:05.81	21.55	16.71	-45.7	-48.3	14.9	0.00e+00	0	33	0	289406976	56	5175
2026-01-16 02:36:06.81	21.44	16.81	-45.5	-48.0	15.0	0.00e+00	0	33	0	291504128	56	5016
2026-01-16 02:36:07.82	21.33	16.91	-45.3	-47.7	15.2	0.00e+00	0	33	0	293601280	56	4827
2026-01-16 02:36:08.83	21.22	17.01	-45.3	-47.7	15.2	0.00e+00	0	33	0	295698432	56	4861
2026-01-16 02:36:09.84	21.11	17.11	-45.4	-47.9	15.2	0.00e+00	0	33	0	297795584	56	4935
2026-01-16 02:36:10.85	20.99	17.21	-45.4	-47.8	15.2	0.00e+00	0	33	0	298844160	56	4882
2026-01-16 02:36:11.85	20.88	17.31	-45.3	-47.6	15.2	0.00e+00	0	33	0	300941312	56	4814
2026-01-16 02:36:12.86	20.77	17.42	-45.1	-47.5	15.2	0.00e+00	0	33	0	303038464	56	4706
2026-01-16 02:36:13.87	20.65	17.52	-45.3	-47.7	15.2	0.00e+00	0	33	0	305135616	56	4858
2026-01-16 02:36:14.88	20.53	17.62	-45.4	-47.8	15.2	0.00e+00	0	33	0	306184192	56	4873
2026-01-16 02:36:15.89	20.42	17.73	-45.4	-47.8	15.2	0.00e+00	0	32	0	308281344	56	4910
2026-01-16 02:36:16.90	20.30	17.83	-45.4	-47.7	15.2	0.00e+00	0	33	0	310378496	56	4857
2026-01-16 02:36:17.91	20.18	17.94	-45.5	-47.9	15.1	0.00e+00	0	33	0	312475648	56	4944
2026-01-16 02:36:18.92	20.06	18.04	-45.4	-47.8	15.2	0.00e+00	0	32	0	314572800	56	4892
2026-01-16 02:36:19.93	19.94	18.14	-45.4	-47.7	15.3	0.00e+00	0	33	0	315621376	56	4854
2026-01-16 02:36:20.94	19.82	18.25	-45.6	-48.0	15.1	0.00e+00	0	33	0	317718528	56	4994
2026-01-16 02:36:21.95	19.70	18.36	-45.5	-47.9	15.2	0.00e+00	0	33	0	319815680	56	4958
2026-01-16 02:36:22.96	19.57	18.46	-45.3	-47.6	15.3	0.00e+00	0	33	0	321912832	56	4803
2026-01-16 02:36:23.96	19.45	18.57	-45.2	-47.5	15.4	0.00e+00	0	33	0	324009984	56	4718
2026-01-16 02:36:24.97	19.33	18.67	-45.2	-47.5	15.4	0.00e+00	0	33	0	326107136	56	4721
2026-01-16 02:36:25.98	19.20	18.78	-45.2	-47.4	15.4	0.00e+00	0	33	0	327155712	56	4685
2026-01-16 02:36:26.99	19.07	18.89	-45.2	-47.4	15.4	0.00e+00	0	33	0	329252864	56	4678
2026-01-16 02:36:28.00	18.95	18.99	-45.4	-47.7	15.3	0.00e+00	0	33	0	331350016	56	4843
2026-01-16 02:36:29.01	18.82	19.10	-45.2	-47.4	15.4	0.00e+00	0	33	0	333447168	56	4688
2026-01-16 02:36:30.02	18.69	19.21	-45.3	-47.5	15.4	0.00e+00	0	33	0	335544320	56	4759
2026-01-16 02:36:31.03	18.56	19.32	-45.4	-47.7	15.3	0.00e+00	0	33	0	336592896	56	4847
2026-01-16 02:36:32.04	18.43	19.43	-45.5	-47.8	15.3	0.00e+00	0	33	0	338690048	56	4883
2026-01-16 02:36:33.05	18.29	19.54	-45.4	-47.6	15.4	0.00e+00	0	33	0	340787200	56	4809
2026-01-16 02:36:34.06	18.16	19.65	-45.5	-47.8	15.2	0.00e+00	0	33	0	342884352	56	4902
2026-01-16 02:36:35.07	18.03	19.75	-45.4	-47.7	15.3	0.00e+00	0	33	0	344981504	56	4861
2026-01-16 02:36:36.07	17.89	19.86	-45.3	-47.5	15.4	0.00e+00	0	33	0	346030080	56	4750
2026-01-16 02:36:37.08	17.76	19.97	-45.4	-47.7	15.3	0.00e+00	0	33	0	348127232	56	4846
2026-01-16 02:36:38.09	17.62	20.08	-45.5	-47.8	15.2	0.00e+00	0	33	0	350224384	56	4910
2026-01-16 02:36:39.10	17.48	20.20	-45.6	-48.0	15.2	0.00e+00	0	33	0	352321536	56	5010
2026-01-16 02:36:40.11	17.34	20.31	-45.7	-48.2	15.0	0.00e+00	0	33	0	354418688	56	5105
2026-01-16 02:36:41.12	17.20	20.42	-45.6	-48.1	15.1	0.00e+00	0	33	0	355467264	56	5047
2026-01-16 02:36:42.12	17.06	20.53	-45.6	-48.2	15.0	0.00e+00	0	33	0	357564416	56	5103
2026-01-16 02:36:43.13	16.92	20.64	-45.6	-48.1	15.1	0.00e+00	0	33	0	359661568	56	5043
2026-01-16 02:36:44.14	16.77	20.75	-45.4	-47.9	15.2	0.00e+00	0	33	0	361758720	56	4935
2026-01-16 02:36:45.15	16.63	20.87	-45.5	-47.9	15.2	0.00e+00	0	33	0	363855872	56	4971
2026-01-16 02:36:46.16	16.48	20.98	-45.5	-48.0	15.1	0.00e+00	0	33	0	364904448	56	5011
2026-01-16 02:36:47.17	16.34	21.09	-45.2	-47.6	15.4	0.00e+00	0	33	0	367001600	56	4768
2026-01-16 02:36:48.18	16.19	21.21	-45.2	-47.5	15.4	0.00e+00	0	33	0	369098752	56	4750
2026-01-16 02:36:49.19	16.04	21.32	-45.1	-47.5	15.4	0.00e+00	0	33	0	371195904	56	4714
2026-01-16 02:36:50.20	15.89	21.43	-45.4	-47.8	15.2	0.00e+00	0	33	0	373293056	56	4920
2026-01-16 02:36:51.21	15.74	21.55	-45.3	-47.8	15.2	0.00e+00	0	33	0	374341632	56	4882
2026-01-16 02:36:52.22	15.59	21.66	-45.5	-48.0	15.1	0.00e+00	0	33	0	376438784	56	5035
2026-01-16 02:36:53.23	15.43	21.78	-45.6	-48.2	15.0	0.00e+00	0	33	0	378535936	56	5104
2026-01-16 02:36:54.24	15.28	21.89	-45.8	-48.5	14.9	0.00e+00	0	33	0	380633088	56	5312
2026-01-16 02:36:55.25	15.12	22.01	-46.1	-48.9	14.7	0.00e+00	0	33	0	382730240	57	5240
2026-01-16 02:36:56.26	14.97	22.13	-45.9	-48.7	14.8	0.00e+00	0	33	0	383778816	57	5112
2026-01-16 02:36:57.27	14.81	22.24	-46.0	-48.7	14.8	0.00e+00	0	33	0	385875968	57	5154
2026-01-16 02:36:58.28	14.65	22.36	-45.9	-48.5	14.9	0.00e+00	0	33	0	387973120	57	5040
2026-01-16 02:36:59.28	14.49	22.48	-45.9	-48.5	14.9	0.00e+00	0	33	0	390070272	57	5019
2026-01-16 02:37:00.29	14.33	22.59	-46.0	-48.8	14.7	0.00e+00	0	33	0	392167424	57	5167
2026-01-16 02:37:01.30	14.16	22.71	-46.0	-48.8	14.8	0.00e+00	0	33	0	394264576	57	5162
2026-01-16 02:37:02.31	14.00	22.83	-46.1	-48.8	14.7	0.00e+00	0	33	0	395313152	57	5197
2026-01-16 02:37:03.32	13.83	22.95	-46.0	-48.8	14.7	0.00e+00	0	33	0	397410304	57	5185
2026-01-16 02:37:04.33	13.67	23.06	-46.2	-49.0	14.6	0.00e+00	0	33	0	399507456	57	5333
2026-01-16 02:37:05.34	13.50	23.18	-46.0	-48.8	14.8	0.00e+00	0	33	0	401604608	57	5175
2026-01-16 02:37:06.35	13.33	23.30	-45.9	-48.5	14.9	0.00e+00	0	33	0	403701760	57	5020
2026-01-16 02:37:07.36	13.16	23.42	-45.9	-48.5	14.9	0.00e+00	0	33	0	404750336	57	5037
2026-01-16 02:37:08.37	12.98	23.54	-45.7	-48.4	15.0	0.00e+00	0	33	0	406847488	57	4931
2026-01-16 02:37:09.38	12.81	23.66	-45.6	-48.1	15.1	0.00e+00	0	33	0	408944640	57	4785
2026-01-16 02:37:10.39	12.64	23.78	-45.5	-47.9	15.2	0.00e+00	0	33	0	411041792	57	4702
2026-01-16 02:37:11.39	12.46	23.90	-45.5	-47.9	15.3	0.00e+00	0	33	0	413138944	57	4686
2026-01-16 02:37:12.40	12.28	24.02	-45.4	-47.9	15.2	0.00e+00	0	33	0	414187520	57	4666
2026-01-16 02:37:13.41	12.10	24.14	-45.4	-47.8	15.2	0.00e+00	0	33	0	416284672	57	4626
2026-01-16 02:37:14.42	11.92	24.26	-45.0	-47.3	15.5	0.00e+00	0	33	0	418381824	56	4633
2026-01-16 02:37:15.43	11.74	24.38	-45.3	-47.8	15.2	0.00e+00	0	33	0	420478976	56	4899
2026-01-16 02:37:16.44	11.56	24.50	-45.3	-47.7	15.3	0.00e+00	0	33	0	422576128	56	4869
2026-01-16 02:37:17.45	11.37	24.63	-45.0	-47.3	15.5	0.00e+00	0	33	0	423624704	56	4640
2026-01-16 02:37:18.46	11.19	24.75	-45.1	-47.4	15.5	0.00e+00	0	33	0	425721856	56	4665
2026-01-16 02:37:19.47	11.00	24.87	-44.7	-46.9	15.6	0.00e+00	0	33	0	427819008	56	4421
2026-01-16 02:37:20.48	10.81	24.99	-44.8	-47.1	15.5	0.00e+00	0	33	0	429916160	55	4784
2026-01-16 02:37:21.49	10.62	25.11	-44.8	-47.1	15.5	0.00e+00	0	33	0	432013312	55	4776
2026-01-16 02:37:22.50	10.43	25.24	-45.1	-47.5	15.4	0.00e+00	0	33	0	433061888	55	5002
2026-01-16 02:37:23.51	10.23	25.36	-45.6	-48.0	15.2	0.00e+00	0	33	0	435159040	56	5035
2026-01-16 02:37:24.52	10.04	25.48	-45.8	-48.3	15.0	0.00e+00	0	33	0	437256192	56	5185
2026-01-16 02:37:25.53	9.84	25.61	-46.0	-48.6	14.9	0.00e+00	0	33	0	439353344	57	5096
2026-01-16 02:37:26.54	9.64	25.73	-46.1	-48.8	14.8	0.00e+00	0	33	0	441450496	57	5174
2026-01-16 02:37:27.55	9.44	25.85	-46.0	-48.6	14.9	0.00e+00	0	33	0	442499072	57	5094
2026-01-16 02:37:28.56	9.24	25.98	-46.1	-48.8	14.8	0.00e+00	0	33	0	444596224	57	5192
2026-01-16 02:37:29.56	9.04	26.10	-46.1	-48.9	14.7	0.00e+00	0	33	0	446693376	57	5233
2026-01-16 02:37:30.57	8.83	26.23	-46.3	-49.2	14.6	0.00e+00	0	33	0	448790528	57	5403
2026-01-16 02:37:31.58	8.63	26.35	-46.3	-49.1	14.6	0.00e+00	0	33	0	450887680	58	5075
2026-01-16 02:37:32.59	8.42	26.48	-46.5	-49.5	14.4	0.00e+00	0	33	0	451936256	58	5314
2026-01-16 02:37:33.60	8.21	26.60	-46.6	-49.8	14.2	0.00e+00	0	33	0	454033408	58	5491
2026-01-16 02:37:34.61	8.00	26.73	-46.8	-50.0	14.1	0.00e+00	0	33	0	456130560	58	5637
2026-01-16 02:37:35.62	7.78	26.85	-46.5	-49.5	14.4	0.00e+00	0	33	0	458227712	59	5006
2026-01-16 02:37:36.63	7.57	26.98	-46.7	-49.9	14.1	0.00e+00	0	33	0	460324864	59	5262
2026-01-16 02:37:37.64	7.35	27.10	-46.8	-50.1	14.0	0.00e+00	0	33	0	462422016	59	5370
2026-01-16 02:37:38.65	7.13	27.23	-46.9	-50.3	13.8	0.00e+00	0	33	0	463470592	59	5520
2026-01-16 02:37:39.66	6.91	27.35	-47.1	-50.7	13.6	0.00e+00	0	33	0	465567744	59	5759
2026-01-16 02:37:40.67	6.69	27.48	-47.1	-50.7	13.6	0.00e+00	0	33	0	467664896	59	5782
2026-01-16 02:37:41.67	6.47	27.60	-47.3	-51.1	13.4	0.00e+00	0	33	0	469762048	59	6015
2026-01-16 02:37:42.68	6.24	27.73	-47.4	-51.4	13.2	0.00e+00	0	33	0	471859200	59	6226
2026-01-16 02:37:43.69	6.02	27.85	-47.0	-50.5	13.7	0.00e+00	0	33	0	472907776	59	5641
2026-01-16 02:37:44.70	5.79	27.98	-47.1	-50.6	13.7	0.00e+00	0	33	0	475004928	59	5710
2026-01-16 02:37:45.71	5.56	28.11	-46.8	-50.3	13.9	0.00e+00	0	33	0	477102080	59	5474
2026-01-16 02:37:46.72	5.32	28.23	-46.5	-49.7	14.2	0.00e+00	0	33	0	479199232	59	5144
2026-01-16 02:37:47.73	5.09	28.36	-46.4	-49.5	14.4	0.00e+00	0	33	0	480247808	59	5013
2026-01-16 02:37:48.74	4.85	28.48	-46.4	-49.5	14.5	0.00e+00	0	33	0	482344960	59	5006
2026-01-16 02:37:49.75	4.61	28.61	-46.4	-49.5	14.4	0.00e+00	0	33	0	484442112	58	5300
2026-01-16 02:37:50.76	4.37	28.74	-46.5	-49.5	14.4	0.00e+00	0	33	0	486539264	58	5319
2026-01-16 02:37:51.77	4.13	28.86	-46.4	-49.3	14.5	0.00e+00	0	33	0	488636416	58	5203
2026-01-16 02:37:52.77	3.89	28.99	-46.4	-49.3	14.5	0.00e+00	0	33	0	490733568	58	5194
2026-01-16 02:37:53.78	3.64	29.11	-46.3	-49.1	14.6	0.00e+00	0	33	0	491782144	58	5093
2026-01-16 02:37:54.79	3.39	29.24	-46.2	-49.1	14.7	0.00e+00	0	33	0	493879296	58	5049
2026-01-16 02:37:55.80	3.14	29.37	-45.9	-48.6	14.9	0.00e+00	0	33	0	495976448	58	4801
2026-01-16 02:37:56.81	2.89	29.49	-46.0	-48.6	14.9	0.00e+00	0	33	0	498073600	58	4801
2026-01-16 02:37:57.82	2.64	29.62	-46.3	-49.2	14.7	0.00e+00	0	33	0	500170752	58	5114
2026-01-16 02:37:58.83	2.38	29.74	-46.2	-49.0	14.8	0.00e+00	0	33	0	501219328	58	5003
2026-01-16 02:37:59.84	2.12	29.87	-46.3	-49.2	14.6	0.00e+00	0	33	0	503316480	58	5113
2026-01-16 02:38:00.85	1.86	30.00	-46.2	-49.0	14.7	0.00e+00	0	33	0	505413632	58	4999
2026-01-16 02:38:01.86	1.60	30.12	-46.3	-49.2	14.6	0.00e+00	0	33	0	507510784	58	5101
2026-01-16 02:38:02.87	1.34	30.25	-46.5	-49.6	14.3	0.00e+00	0	33	0	509607936	58	5343
2026-01-16 02:38:03.88	1.07	30.37	-46.6	-49.6	14.3	0.00e+00	0	33	0	510656512	58	5402
2026-01-16 02:38:04.89	0.80	30.50	-46.9	-50.2	14.0	0.00e+00	0	33	0	512753664	59	5458
2026-01-16 02:38:05.90	0.53	30.62	-46.9	-50.2	14.0	0.00e+00	0	33	0	514850816	59	5460
2026-01-16 02:38:06.91	0.26	30.75	-46.9	-50.1	14.1	0.00e+00	0	33	0	516947968	59	5383
2026-01-16 02:38:07.92	359.98	30.87	-46.8	-49.9	14.2	0.00e+00	0	33	0	519045120	59	5277
2026-01-16 02:38:08.92	359.71	30.99	-46.8	-49.9	14.3	0.00e+00	0	33	0	520093696	59	5227
2026-01-16 02:38:09.93	359.43	31.12	-46.7	-49.8	14.3	0.00e+00	0	33	0	522190848	59	5176
2026-01-16 02:38:10.94	359.15	31.24	-46.4	-49.3	14.6	0.00e+00	0	33	0	524288000	59	4904
2026-01-16 02:38:11.95	358.87	31.37	-46.5	-49.5	14.5	0.00e+00	0	33	0	526385152	59	5015
2026-01-16 02:38:12.96	358.58	31.49	-46.6	-49.5	14.5	0.00e+00	0	33	0	528482304	59	5015
2026-01-16 02:38:13.97	358.29	31.61	-46.6	-49.6	14.4	0.00e+00	0	33	0	529530880	59	5071
2026-01-16 02:38:14.98	358.00	31.73	-46.5	-49.5	14.5	0.00e+00	0	33	0	531628032	59	5017
2026-01-16 02:38:15.99	357.71	31.86	-46.5	-49.4	14.6	0.00e+00	0	33	0	533725184	59	4976
2026-01-16 02:38:17.00	357.42	31.98	-46.3	-49.2	14.7	0.00e+00	0	33	0	535822336	59	4827
2026-01-16 02:38:18.01	357.12	32.10	-46.3	-49.1	14.7	0.00e+00	0	33	0	537919488	58	5048
2026-01-16 02:38:19.02	356.82	32.22	-46.4	-49.3	14.6	0.00e+00	0	33	0	538968064	58	5185
2026-01-16 02:38:20.03	356.52	32.34	-46.4	-49.4	14.4	0.00e+00	0	33	0	541065216	58	5221
2026-01-16 02:38:21.04	356.21	32.46	-46.6	-49.9	14.2	0.00e+00	0	33	0	543162368	58	5535
2026-01-16 02:38:22.04	355.91	32.58	-46.6	-50.0	14.1	0.00e+00	0	33	0	545259520	58	5614
2026-01-16 02:38:23.05	355.60	32.70	-46.6	-50.1	13.9	0.00e+00	0	33	0	547356672	58	5678
2026-01-16 02:38:24.06	355.29	32.82	-46.6	-50.1	13.9	0.00e+00	0	33	0	548405248	58	5699
2026-01-16 02:38:25.07	354.98	32.94	-46.6	-50.2	13.8	0.00e+00	0	33	0	550502400	58	5754
2026-01-16 02:38:26.08	354.67	33.06	-46.9	-51.0	13.5	0.00e+00	0	33	0	552599552	58	6277
2026-01-16 02:38:27.09	354.35	33.17	-46.9	-51.0	13.3	0.00e+00	0	33	0	554696704	59	5929
2026-01-16 02:38:28.10	354.03	33.29	-46.8	-50.9	13.4	0.00e+00	0	33	0	556793856	59	5898
2026-01-16 02:38:29.11	353.71	33.41	-46.7	-50.6	13.5	0.00e+00	0	33	0	558891008	59	5687
2026-01-16 02:38:30.12	353.38	33.52	-47.1	-51.4	13.0	0.00e+00	0	33	0	559939584	59	6249
2026-01-16 02:38:31.13	353.06	33.64	-47.1	-51.5	12.8	7.00e-07	0	33	0	562036736	60	5946
2026-01-16 02:38:32.14	352.73	33.75	-47.1	-51.4	12.9	0.00e+00	0	33	0	564133888	60	5867
2026-01-16 02:38:33.15	352.40	33.87	-47.2	-51.5	12.9	1.50e-06	0	33	0	566231040	60	5935
2026-01-16 02:38:34.16	352.06	33.98	-47.3	-51.8	12.8	7.00e-07	0	33	0	568328192	60	6134
2026-01-16 02:38:35.17	351.73	34.09	-47.4	-51.9	12.6	1.50e-06	0	33	0	569376768	60	6268
2026-01-16 02:38:36.18	351.39	34.20	-47.6	-52.4	12.2	4.50e-06	0	33	0	571473920	60	6576
2026-01-16 02:38:37.19	351.05	34.31	-47.9	-53.3	11.5	1.46e-04	0	33	0	573571072	61	6917
2026-01-16 02:38:38.19	350.71	34.42	-48.0	-53.3	11.4	6.86e-05	0	33	0	575668224	61	6945
2026-01-16 02:38:39.20	350.36	34.53	-48.3	-54.1	10.9	1.61e-04	0	33	0	577765376	61	7605
2026-01-16 02:38:40.21	350.01	34.64	-48.0	-53.3	11.5	2.52e-04	0	33	0	578813952	61	6914
2026-01-16 02:38:41.22	349.66	34.75	-47.8	-52.9	11.9	5.18e-05	0	33	0	580911104	61	6588
2026-01-16 02:38:42.23	349.31	34.86	-47.3	-51.4	12.9	9.90e-06	0	33	0	583008256	61	5561
2026-01-16 02:38:43.24	348.96	34.96	-47.1	-51.1	13.1	0.00e+00	0	33	0	585105408	60	5714
2026-01-16 02:38:44.25	348.60	35.07	-46.8	-50.5	13.5	0.00e+00	0	33	0	587202560	60	5336
2026-01-16 02:38:45.26	348.24	35.17	-46.5	-50.0	14.0	0.00e+00	0	33	0	588251136	59	5285
2026-01-16 02:38:46.27	347.88	35.27	-46.4	-49.8	14.1	0.00e+00	0	33	0	590348288	59	5215
2026-01-16 02:38:47.28	347.52	35.38	-46.4	-49.9	14.1	0.00e+00	0	33	0	592445440	59	5222
2026-01-16 02:38:48.29	347.15	35.48	-46.4	-49.9	14.1	0.00e+00	0	33	0	594542592	59	5234
2026-01-16 02:38:49.30	346.78	35.58	-46.8	-50.6	13.7	0.00e+00	0	33	0	596639744	59	5680
2026-01-16 02:38:50.30	346.41	35.68	-47.2	-51.7	12.9	0.00e+00	0	33	0	597688320	59	6431
2026-01-16 02:38:51.31	346.04	35.77	-47.2	-51.6	13.0	7.00e-07	0	33	0	599785472	59	6405
2026-01-16 02:38:52.32	345.67	35.87	-47.0	-51.2	13.3	0.00e+00	0	33	0	601882624	59	6083
2026-01-16 02:38:53.33	345.29	35.97	-46.7	-50.6	13.6	0.00e+00	0	33	0	603979776	59	5705
2026-01-16 02:38:54.34	344.91	36.06	-46.7	-50.5	13.7	0.00e+00	0	33	0	606076928	59	5639
2026-01-16 02:38:55.35	344.53	36.16	-46.6	-50.3	13.9	0.00e+00	0	33	0	607125504	59	5512
2026-01-16 02:38:56.36	344.14	36.25	-47.1	-51.2	13.3	0.00e+00	0	33	0	609222656	59	6077
2026-01-16 02:38:57.37	343.76	36.34	-47.2	-51.5	13.1	7.00e-07	0	33	0	611319808	59	6329
2026-01-16 02:38:58.38	343.37	36.43	-47.0	-50.8	13.6	0.00e+00	0	33	0	613416960	59	5812
2026-01-16 02:38:59.39	342.98	36.52	-46.1	-49.3	14.4	0.00e+00	0	33	0	615514112	58	5210
2026-01-16 02:39:00.40	342.58	36.61	-45.5	-48.3	14.9	0.00e+00	0	33	0	616562688	57	4904
2026-01-16 02:39:01.41	342.19	36.69	-45.0	-47.8	15.1	0.00e+00	0	33	0	618659840	56	4878
2026-01-16 02:39:02.41	341.80	36.78	-45.0	-47.7	15.2	0.00e+00	0	33	0	620756992	56	4857
2026-01-16 02:39:03.42	341.40	36.86	-45.5	-48.6	14.8	0.00e+00	0	33	0	622854144	56	5401
2026-01-16 02:39:04.43	341.00	36.94	-45.5	-48.5	14.7	0.00e+00	0	33	0	624951296	56	5337
2026-01-16 02:39:05.44	340.59	37.02	-45.3	-48.4	14.8	0.00e+00	0	33	0	627048448	56	5223
2026-01-16 02:39:06.45	340.19	37.10	-45.0	-47.7	15.2	0.00e+00	0	33	0	628097024	56	4836
2026-01-16 02:39:07.46	339.78	37.18	-44.5	-47.1	15.4	0.00e+00	0	33	0	630194176	55	4778
2026-01-16 02:39:08.47	339.37	37.25	-44.6	-47.2	15.4	0.00e+00	0	33	0	632291328	55	4858
2026-01-16 02:39:09.48	338.96	37.33	-44.8	-47.6	15.2	0.00e+00	0	33	0	634388480	55	5089
2026-01-16 02:39:10.49	338.55	37.40	-44.9	-47.6	15.2	0.00e+00	0	33	0	636485632	55	5081
2026-01-16 02:39:11.50	338.13	37.47	-44.8	-47.3	15.4	0.00e+00	0	33	0	637534208	55	4918
2026-01-16 02:39:12.51	337.72	37.54	-44.5	-46.9	15.6	0.00e+00	0	33	0	639631360	55	4684
2026-01-16 02:39:13.52	337.30	37.61	-44.6	-47.1	15.5	0.00e+00	0	33	0	641728512	55	4783
2026-01-16 02:39:14.53	336.88	37.68	-44.8	-47.4	15.3	0.00e+00	0	33	0	643825664	55	4960
2026-01-16 02:39:15.54	336.46	37.74	-44.8	-47.4	15.3	0.00e+00	0	33	0	645922816	55	4974
2026-01-16 02:39:16.55	336.03	37.81	-45.1	-47.9	15.1	0.00e+00	0	33	0	646971392	55	5235
2026-01-16 02:39:17.55	335.61	37.87	-45.0	-47.7	15.2	0.00e+00	0	33	0	649068544	55	5139
2026-01-16 02:39:18.56	335.18	37.93	-45.4	-48.4	14.8	0.00e+00	0	33	0	651165696	55	5579
2026-01-16 02:39:19.57	334.76	37.99	-45.6	-48.8	14.7	0.00e+00	0	33	0	653262848	56	5518
2026-01-16 02:39:20.58	334.33	38.04	-44.9	-47.7	15.2	0.00e+00	0	33	0	655360000	56	4860
2026-01-16 02:39:21.59	333.90	38.10	-44.8	-47.5	15.3	0.00e+00	0	33	0	656408576	56	4717
2026-01-16 02:39:22.60	333.46	38.15	-44.3	-46.7	15.6	0.00e+00	0	33	0	658505728	55	4555
2026-01-16 02:39:23.61	333.03	38.20	-43.6	-45.8	16.0	0.00e+00	0	33	0	660602880	53	4608
2026-01-16 02:39:24.62	332.59	38.25	-43.3	-45.3	16.2	0.00e+00	0	33	0	662700032	53	4391
2026-01-16 02:39:25.63	332.16	38.30	-43.3	-45.3	16.2	0.00e+00	0	33	0	664797184	52	4627
2026-01-16 02:39:26.64	331.72	38.35	-43.4	-45.4	16.1	0.00e+00	0	33	0	665845760	52	4703
2026-01-16 02:39:27.64	331.28	38.39	-43.4	-45.4	16.2	0.00e+00	0	33	0	667942912	52	4685
2026-01-16 02:39:28.65	330.84	38.43	-43.7	-45.7	16.1	0.00e+00	0	33	0	670040064	52	4846
2026-01-16 02:39:29.66	330.40	38.47	-43.8	-45.7	16.1	0.00e+00	0	33	0	672137216	52	4870
2026-01-16 02:39:30.67	329.96	38.51	-43.9	-45.9	16.1	0.00e+00	0	33	0	674234368	53	4673
2026-01-16 02:39:31.68	329.52	38.55	-44.3	-46.4	15.9	0.00e+00	0	33	0	675282944	53	4936
2026-01-16 02:39:32.69	329.07	38.58	-44.3	-46.3	16.0	0.00e+00	0	33	0	677380096	54	4641
2026-01-16 02:39:33.70	328.62	38.61	-44.0	-46.0	16.1	0.00e+00	0	33	0	679477248	54	4473
2026-01-16 02:39:34.71	328.18	38.64	-44.0	-46.0	16.0	0.00e+00	0	33	0	681574400	54	4471
2026-01-16 02:39:35.72	327.73	38.67	-44.2	-46.3	16.0	0.00e+00	0	33	0	683671552	54	4611
2026-01-16 02:39:36.73	327.28	38.70	-44.6	-46.8	15.8	0.00e+00	0	33	0	684720128	54	4910
2026-01-16 02:39:37.74	326.83	38.72	-44.6	-46.7	15.8	0.00e+00	0	33	0	686817280	54	4858
2026-01-16 02:39:38.75	326.38	38.75	-44.4	-46.4	15.9	0.00e+00	0	33	0	688914432	54	4698
2026-01-16 02:39:39.76	325.93	38.77	-44.2	-46.3	15.9	0.00e+00	0	33	0	691011584	54	4630
2026-01-16 02:39:40.77	325.48	38.79	-44.2	-46.3	15.9	0.00e+00	0	33	0	693108736	54	4617
2026-01-16 02:39:41.77	325.04	38.80	-44.1	-46.1	16.1	0.00e+00	0	33	0	694157312	54	4533
2026-01-16 02:39:42.79	324.58	38.82	-44.4	-46.4	15.9	0.00e+00	0	33	0	696254464	54	4692
2026-01-16 02:39:43.80	324.13	38.83	-44.8	-47.0	15.7	0.00e+00	0	33	0	698351616	54	5031
2026-01-16 02:39:44.80	323.68	38.84	-44.8	-47.0	15.6	0.00e+00	0	33	0	700448768	55	4755
2026-01-16 02:39:45.81	323.23	38.85	-44.3	-46.3	16.0	0.00e+00	0	33	0	702545920	55	4379
2026-01-16 02:39:46.82	322.78	38.86	-43.8	-45.6	16.2	0.00e+00	0	33	0	703594496	54	4286
2026-01-16 02:39:47.83	322.32	38.86	-44.0	-45.9	16.1	0.00e+00	0	33	0	705691648	54	4412
2026-01-16 02:39:48.84	321.87	38.86	-44.4	-46.6	15.8	0.00e+00	0	33	0	707788800	54	4768
2026-01-16 02:39:49.85	321.42	38.86	-45.2	-47.7	15.3	0.00e+00	0	33	0	709885952	55	5144
2026-01-16 02:39:50.86	320.96	38.86	-45.8	-48.6	14.9	0.00e+00	0	33	0	711983104	56	5367
2026-01-16 02:39:51.87	320.51	38.86	-46.0	-48.9	14.8	0.00e+00	0	33	0	713031680	57	5255
2026-01-16 02:39:52.88	320.06	38.85	-46.0	-49.0	14.7	0.00e+00	0	33	0	715128832	57	5326
2026-01-16 02:39:53.89	319.61	38.85	-46.1	-49.0	14.8	0.00e+00	0	33	0	717225984	57	5330
2026-01-16 02:39:54.89	319.16	38.84	-45.7	-48.4	15.1	0.00e+00	0	33	0	719323136	57	4950
2026-01-16 02:39:55.90	318.71	38.82	-45.6	-48.1	15.3	0.00e+00	0	33	0	721420288	57	4804
2026-01-16 02:39:56.91	318.25	38.81	-45.8	-48.4	15.1	0.00e+00	0	33	0	723517440	57	4937
2026-01-16 02:39:57.92	317.80	38.79	-46.0	-48.8	14.9	0.00e+00	0	33	0	724566016	57	5170
2026-01-16 02:39:58.93	317.35	38.78	-46.1	-49.1	14.7	0.00e+00	0	33	0	726663168	57	5344
2026-01-16 02:39:59.94	316.90	38.76	-46.2	-49.3	14.6	0.00e+00	0	33	0	728760320	57	5468
2026-01-16 02:40:00.95	316.45	38.74	-46.1	-49.0	14.7	0.00e+00	0	33	0	730857472	57	5325
2026-01-16 02:40:01.96	316.00	38.71	-45.9	-48.7	14.9	0.00e+00	0	33	0	732954624	57	5139
2026-01-16 02:40:02.97	315.55	38.69	-45.5	-48.2	15.2	0.00e+00	0	33	0	734003200	56	5106
2026-01-16 02:40:03.98	315.11	38.66	-45.6	-48.2	15.1	0.00e+00	0	33	0	736100352	56	5150
2026-01-16 02:40:04.99	314.66	38.63	-46.4	-49.6	14.5	0.00e+00	0	33	0	738197504	58	5395
2026-01-16 02:40:06.00	314.21	38.60	-47.2	-51.3	13.3	0.00e+00	0	33	0	740294656	59	6166
2026-01-16 02:40:07.01	313.77	38.56	-47.3	-51.6	12.9	0.00e+00	0	33	0	742391808	60	6032
2026-01-16 02:40:08.02	313.32	38.53	-47.0	-51.0	13.2	0.00e+00	0	33	0	743440384	60	5654
2026-01-16 02:40:09.03	312.88	38.49	-46.8	-50.7	13.7	0.00e+00	0	33	0	745537536	59	5753
2026-01-16 02:40:10.04	312.44	38.45	-46.6	-50.3	13.8	0.00e+00	0	33	0	747634688	59	5504
2026-01-16 02:40:11.05	312.00	38.41	-46.5	-50.1	13.9	0.00e+00	0	33	0	749731840	58	5706
2026-01-16 02:40:12.05	311.56	38.37	-46.7	-50.5	13.7	0.00e+00	0	33	0	751828992	58	5960
2026-01-16 02:40:13.06	311.12	38.32	-46.8	-50.7	13.6	0.00e+00	0	33	0	752877568	58	6104
2026-01-16 02:40:14.07	310.68	38.27	-47.2	-51.8	12.9	0.00e+00	0	33	0	754974720	59	6529
2026-01-16 02:40:15.08	310.25	38.23	-47.3	-51.9	12.6	0.00e+00	0	33	0	757071872	59	6641
2026-01-16 02:40:16.09	309.81	38.18	-46.9	-51.1	13.1	2.20e-06	0	33	0	759169024	60	5710
2026-01-16 02:40:17.10	309.38	38.12	-46.9	-51.0	13.4	0.00e+00	0	33	0	761266176	59	5936
2026-01-16 02:40:18.11	308.95	38.07	-46.2	-49.6	14.1	0.00e+00	0	33	0	762314752	59	5098
2026-01-16 02:40:19.12	308.52	38.01	-46.0	-49.4	14.3	0.00e+00	0	33	0	764411904	58	5277
2026-01-16 02:40:20.13	308.09	37.96	-45.8	-49.2	14.4	0.00e+00	0	33	0	766509056	58	5115
2026-01-16 02:40:21.14	307.66	37.90	-45.7	-49.1	14.4	0.00e+00	0	33	0	768606208	57	5395
2026-01-16 02:40:22.15	307.23	37.83	-46.0	-49.7	14.0	0.00e+00	0	33	0	770703360	57	5767
2026-01-16 02:40:23.15	306.81	37.77	-46.4	-50.5	13.6	0.00e+00	0	33	0	771751936	58	5976
2026-01-16 02:40:24.16	306.39	37.71	-47.3	-52.6	12.1	2.20e-06	0	33	0	773849088	59	7151
2026-01-16 02:40:25.17	305.97	37.64	-47.5	-53.5	11.2	2.67e-05	0	33	0	775946240	60	7526
2026-01-16 02:40:26.18	305.55	37.57	-47.2	-52.7	11.8	2.25e-04	0	33	0	778043392	60	6823
2026-01-16 02:40:27.19	305.13	37.51	-46.8	-51.6	12.5	4.50e-06	0	33	0	780140544	60	6034
2026-01-16 02:40:28.20	304.72	37.43	-46.3	-50.4	13.5	7.00e-07	0	33	0	781189120	59	5562
2026-01-16 02:40:29.21	304.30	37.36	-45.7	-49.2	14.2	0.00e+00	0	33	0	783286272	58	5116
2026-01-16 02:40:30.22	303.89	37.29	-45.6	-49.0	14.4	0.00e+00	0	33	0	785383424	57	5296
2026-01-16 02:40:31.23	303.48	37.21	-45.5	-48.8	14.5	0.00e+00	0	33	0	787480576	57	5201
2026-01-16 02:40:32.24	303.07	37.14	-45.6	-48.9	14.4	0.00e+00	0	33	0	789577728	57	5275
2026-01-16 02:40:33.24	302.67	37.06	-45.9	-49.5	14.2	0.00e+00	0	33	0	791674880	57	5597
2026-01-16 02:40:34.26	302.26	36.98	-46.2	-49.9	14.0	0.00e+00	0	33	0	792723456	57	5879
2026-01-16 02:40:35.27	301.86	36.90	-45.8	-49.3	14.3	0.00e+00	0	33	0	794820608	57	5506
2026-01-16 02:40:36.28	301.46	36.81	-44.7	-47.4	15.3	0.00e+00	0	33	0	796917760	56	4664
2026-01-16 02:40:37.28	301.06	36.73	-43.8	-45.9	15.9	0.00e+00	0	33	0	799014912	54	4434
2026-01-16 02:40:38.30	300.66	36.64	-43.5	-45.5	16.1	0.00e+00	0	33	0	801112064	53	4458
2026-01-16 02:40:39.30	300.27	36.56	-43.6	-45.6	16.1	0.00e+00	0	33	0	802160640	53	4528
2026-01-16 02:40:40.31	299.88	36.47	-43.9	-46.0	15.9	0.00e+00	0	33	0	804257792	53	4724
2026-01-16 02:40:41.32	299.49	36.38	-44.1	-46.3	15.8	0.00e+00	0	33	0	806354944	53	4893
2026-01-16 02:40:42.33	299.10	36.29	-44.4	-46.8	15.6	0.00e+00	0	33	0	808452096	54	4921
2026-01-16 02:40:43.34	298.72	36.20	-44.5	-46.9	15.6	0.00e+00	0	33	0	810549248	54	4957
2026-01-16 02:40:44.35	298.33	36.10	-44.8	-47.4	15.3	0.00e+00	0	33	0	811597824	54	5236
2026-01-16 02:40:45.36	297.95	36.01	-44.9	-47.6	15.3	0.00e+00	0	33	0	813694976	55	5058
2026-01-16 02:40:46.37	297.57	35.91	-45.0	-47.7	15.2	0.00e+00	0	33	0	815792128	55	5150
2026-01-16 02:40:47.38	297.20	35.82	-45.3	-48.0	15.1	0.00e+00	0	33	0	817889280	55	5338
2026-01-16 02:40:48.39	296.82	35.72	-44.6	-46.9	15.6	0.00e+00	0	33	0	819986432	55	4692
2026-01-16 02:40:49.40	296.45	35.62	-44.6	-46.9	15.7	0.00e+00	0	33	0	821035008	55	4698
2026-01-16 02:40:50.41	296.08	35.52	-45.6	-48.4	15.0	0.00e+00	0	33	0	823132160	56	5262
2026-01-16 02:40:51.42	295.71	35.42	-46.0	-49.2	14.6	0.00e+00	0	33	0	825229312	57	5427
2026-01-16 02:40:52.43	295.35	35.32	-46.1	-49.4	14.4	0.00e+00	0	33	0	827326464	57	5541
2026-01-16 02:40:53.43	294.99	35.22	-46.0	-49.0	14.6	0.00e+00	0	33	0	829423616	57	5333
2026-01-16 02:40:54.44	294.63	35.11	-46.9	-50.1	14.3	0.00e+00	0	33	0	830472192	58	5691
2026-01-16 02:40:55.45	294.27	35.01	-46.5	-49.9	14.2	0.00e+00	0	33	0	832569344	58	5551
2026-01-16 02:40:56.46	293.91	34.90	-46.1	-49.3	14.6	0.00e+00	0	33	0	834666496	58	5170
2026-01-16 02:40:57.47	293.56	34.80	-45.9	-48.7	14.9	0.00e+00	0	33	0	836763648	58	4840
2026-01-16 02:40:58.48	293.20	34.69	-46.0	-48.8	14.9	0.00e+00	0	33	0	838860800	57	5204
2026-01-16 02:40:59.49	292.86	34.58	-45.3	-47.9	15.3	0.00e+00	0	33	0	839909376	57	4669
2026-01-16 02:41:00.50	292.51	34.47	-45.5	-48.1	15.3	0.00e+00	0	33	0	842006528	57	4788
2026-01-16 02:41:01.51	292.16	34.36	-44.9	-47.2	15.6	0.00e+00	0	33	0	844103680	56	4569
2026-01-16 02:41:02.52	291.82	34.25	-45.1	-47.5	15.5	0.00e+00	0	33	0	846200832	56	4711
2026-01-16 02:41:03.53	291.48	34.14	-45.7	-48.3	15.2	0.00e+00	0	33	0	848297984	56	5197
2026-01-16 02:41:04.53	291.15	34.03	-46.1	-49.0	14.7	0.00e+00	0	33	0	849346560	57	5296
2026-01-16 02:41:05.54	290.81	33.91	-45.7	-48.4	15.0	0.00e+00	0	33	0	851443712	57	4950
2026-01-16 02:41:06.56	290.48	33.80	-45.2	-47.6	15.4	0.00e+00	0	33	0	853540864	57	4509
2026-01-16 02:41:07.56	290.15	33.69	-44.8	-47.0	15.7	0.00e+00	0	33	0	855638016	56	4446
2026-01-16 02:41:08.57	289.82	33.57	-45.3	-47.8	15.3	0.00e+00	0	33	0	857735168	56	4872
2026-01-16 02:41:09.58	289.49	33.46	-46.0	-48.8	14.9	0.00e+00	0	33	0	859832320	57	5189
2026-01-16 02:41:10.59	289.17	33.34	-46.3	-49.2	14.6	0.00e+00	0	33	0	860880896	57	5423
2026-01-16 02:41:11.60	288.85	33.22	-45.8	-48.4	15.0	0.00e+00	0	33	0	862978048	57	4980
2026-01-16 02:41:12.61	288.53	33.11	-46.0	-48.7	15.0	0.00e+00	0	33	0	865075200	57	5131
2026-01-16 02:41:13.62	288.21	32.99	-46.0	-48.7	14.9	0.00e+00	0	33	0	867172352	57	5153
2026-01-16 02:41:14.63	287.90	32.87	-45.7	-48.4	15.0	0.00e+00	0	33	0	868220928	57	4939
2026-01-16 02:41:15.64	287.59	32.75	-45.3	-47.7	15.4	0.00e+00	0	33	0	870318080	57	4585
2026-01-16 02:41:16.65	287.28	32.63	-45.4	-47.9	15.4	0.00e+00	0	33	0	872415232	57	4658
2026-01-16 02:41:17.66	286.97	32.51	-45.9	-48.6	15.0	0.00e+00	0	33	0	874512384	57	5045
2026-01-16 02:41:18.67	286.67	32.39	-46.4	-49.4	14.5	0.00e+00	0	33	0	876609536	57	5588
2026-01-16 02:41:19.68	286.36	32.27	-46.1	-49.0	14.7	0.00e+00	0	33	0	877658112	58	5005
2026-01-16 02:41:20.68	286.07	32.15	-46.5	-49.6	14.4	0.00e+00	0	33	0	879755264	58	5381
2026-01-16 02:41:21.69	285.77	32.03	-46.8	-50.1	14.1	0.00e+00	0	33	0	881852416	58	5688
2026-01-16 02:41:22.70	285.47	31.91	-47.3	-50.9	13.7	0.00e+00	0	33	0	883949568	59	5856
2026-01-16 02:41:23.71	285.18	31.78	-47.3	-50.9	13.4	0.00e+00	0	33	0	886046720	60	5591
2026-01-16 02:41:24.71	284.89	31.66	-47.5	-51.3	13.3	0.00e+00	0	33	0	888143872	60	5825
2026-01-16 02:41:25.72	284.60	31.54	-47.2	-50.7	13.6	0.00e+00	0	33	0	889192448	60	5448
2026-01-16 02:41:26.73	284.31	31.41	-47.0	-50.3	13.8	0.00e+00	0	33	0	891289600	60	5215
2026-01-16 02:41:27.74	284.03	31.29	-47.1	-50.4	14.1	0.00e+00	0	33	0	893386752	59	5536
2026-01-16 02:41:28.75	283.74	31.17	-47.3	-50.7	13.8	0.00e+00	0	33	0	895483904	59	5782
2026-01-16 02:41:29.76	283.46	31.04	-47.1	-50.5	13.7	0.00e+00	0	33	0	897581056	60	5280
2026-01-16 02:41:30.77	283.18	30.92	-46.9	-50.2	13.9	0.00e+00	0	33	0	898629632	60	5107
2026-01-16 02:41:31.78	282.91	30.79	-46.9	-50.0	14.2	0.00e+00	0	33	0	900726784	59	5315
2026-01-16 02:41:32.79	282.63	30.67	-46.5	-49.4	14.7	0.00e+00	0	33	0	902823936	59	4939
2026-01-16 02:41:33.80	282.36	30.54	-46.2	-48.8	15.0	0.00e+00	0	33	0	904921088	58	4879
2026-01-16 02:41:34.81	282.09	30.42	-45.8	-48.3	15.2	0.00e+00	0	33	0	907018240	58	4616
2026-01-16 02:41:35.82	281.82	30.29	-45.4	-47.8	15.4	0.00e+00	0	33	0	908066816	57	4603
2026-01-16 02:41:36.83	281.56	30.17	-45.1	-47.3	15.6	0.00e+00	0	33	0	910163968	56	4603
2026-01-16 02:41:37.84	281.29	30.04	-44.8	-46.9	15.8	0.00e+00	0	33	0	912261120	56	4402
2026-01-16 02:41:38.85	281.03	29.92	-44.5	-46.5	15.9	0.00e+00	0	33	0	914358272	55	4493
2026-01-16 02:41:39.86	280.77	29.79	-44.8	-47.0	15.8	0.00e+00	0	33	0	916455424	55	4713
2026-01-16 02:41:40.86	280.52	29.67	-45.1	-47.4	15.6	0.00e+00	0	33	0	917504000	55	4956
2026-01-16 02:41:41.87	280.26	29.54	-45.8	-48.3	15.2	0.00e+00	0	33	0	919601152	57	4897
2026-01-16 02:41:42.88	280.01	29.41	-46.2	-48.9	14.9	0.00e+00	0	33	0	921698304	57	5261
2026-01-16 02:41:43.89	279.76	29.29	-46.6	-49.4	14.6	0.00e+00	0	33	0	923795456	58	5277
2026-01-16 02:41:44.90	279.51	29.16	-47.0	-50.2	14.2	0.00e+00	0	33	0	925892608	59	5433
2026-01-16 02:41:45.91	279.26	29.03	-47.2	-50.5	14.0	0.00e+00	0	33	0	926941184	59	5619
2026-01-16 02:41:46.92	279.01	28.91	-47.1	-50.4	14.0	0.00e+00	0	33	0	929038336	59	5554
2026-01-16 02:41:47.93	278.77	28.78	-46.7	-49.8	14.4	0.00e+00	0	33	0	931135488	59	5174
2026-01-16 02:41:48.94	278.53	28.65	-46.6	-49.5	14.6	0.00e+00	0	33	0	933232640	59	5003
2026-01-16 02:41:49.95	278.29	28.53	-46.2	-48.9	14.9	0.00e+00	0	33	0	935329792	58	4946
2026-01-16 02:41:50.96	278.05	28.40	-45.9	-48.4	15.1	0.00e+00	0	33	0	936378368	58	4671
2026-01-16 02:41:51.97	277.82	28.28	-45.8	-48.3	15.2	0.00e+00	0	33	0	938475520	57	4921
2026-01-16 02:41:52.97	277.58	28.15	-46.0	-48.6	15.0	0.00e+00	0	33	0	940572672	57	5097
2026-01-16 02:41:53.98	277.35	28.02	-45.7	-48.1	15.2	0.00e+00	0	33	0	942669824	57	4811
2026-01-16 02:41:54.99	277.12	27.90	-45.6	-48.0	15.3	0.00e+00	0	33	0	944766976	57	4752
2026-01-16 02:41:56.00	276.89	27.77	-45.3	-47.5	15.5	0.00e+00	0	33	0	945815552	56	4752
2026-01-16 02:41:57.01	276.67	27.65	-45.0	-47.1	15.7	0.00e+00	0	33	0	947912704	56	4545
2026-01-16 02:41:58.02	276.44	27.52	-45.0	-47.2	15.7	0.00e+00	0	33	0	950009856	56	4582
2026-01-16 02:41:59.03	276.22	27.39	-44.7	-46.8	15.8	0.00e+00	0	33	0	952107008	56	4384
2026-01-16 02:42:00.04	276.00	27.27	-44.5	-46.6	15.8	0.00e+00	0	33	0	954204160	55	4526
2026-01-16 02:42:01.05	275.78	27.14	-44.5	-46.6	15.8	0.00e+00	0	33	0	956301312	55	4525
2026-01-16 02:42:02.06	275.56	27.02	-44.6	-46.7	15.8	0.00e+00	0	33	0	957349888	55	4572
2026-01-16 02:42:03.06	275.34	26.89	-44.5	-46.6	15.8	0.00e+00	0	33	0	959447040	55	4519
2026-01-16 02:42:04.07	275.13	26.77	-44.8	-46.9	15.7	0.00e+00	0	33	0	961544192	55	4692
2026-01-16 02:42:05.08	274.92	26.64	-45.0	-47.3	15.5	0.00e+00	0	33	0	963641344	55	4901
2026-01-16 02:42:06.09	274.71	26.52	-45.4	-47.8	15.3	0.00e+00	0	33	0	965738496	55	5188
2026-01-16 02:42:07.10	274.50	26.39	-45.8	-48.4	15.0	0.00e+00	0	33	0	966787072	56	5241
2026-01-16 02:42:08.11	274.29	26.27	-46.1	-48.8	14.8	0.00e+00	0	33	0	968884224	57	5214
2026-01-16 02:42:09.12	274.08	26.14	-46.2	-48.9	14.8	0.00e+00	0	33	0	970981376	57	5273
2026-01-16 02:42:10.13	273.88	26.02	-46.0	-48.7	14.9	0.00e+00	0	33	0	973078528	57	5123
2026-01-16 02:42:11.14	273.67	25.89	-46.1	-48.8	14.9	0.00e+00	0	33	0	975175680	57	5165
2026-01-16 02:42:12.15	273.47	25.77	-46.1	-48.8	14.9	0.00e+00	0	33	0	976224256	57	5215
2026-01-16 02:42:13.16	273.27	25.64	-45.9	-48.4	15.0	0.00e+00	0	33	0	978321408	57	4967
2026-01-16 02:42:14.17	273.08	25.52	-45.9	-48.6	15.0	0.00e+00	0	33	0	980418560	57	5049
2026-01-16 02:42:15.18	272.88	25.40	-45.8	-48.3	15.1	0.00e+00	0	33	0	982515712	57	4910
2026-01-16 02:42:16.19	272.68	25.27	-45.6	-48.1	15.2	0.00e+00	0	33	0	984612864	57	4791
2026-01-16 02:42:17.20	272.49	25.15	-45.5	-47.9	15.3	0.00e+00	0	33	0	985661440	57	4698
2026-01-16 02:42:18.21	272.30	25.03	-45.7	-48.2	15.2	0.00e+00	0	33	0	987758592	57	4827
2026-01-16 02:42:19.22	272.11	24.90	-45.3	-47.6	15.5	0.00e+00	0	33	0	989855744	57	4518
2026-01-16 02:42:20.22	271.92	24.78	-45.3	-47.6	15.5	0.00e+00	0	33	0	991952896	57	4507
2026-01-16 02:42:21.23	271.73	24.66	-45.3	-47.6	15.5	0.00e+00	0	33	0	994050048	56	4791
2026-01-16 02:42:22.24	271.55	24.54	-45.3	-47.6	15.5	0.00e+00	0	33	0	995098624	56	4772
2026-01-16 02:42:23.25	271.36	24.42	-45.5	-47.8	15.3	0.00e+00	0	33	0	997195776	56	4923
2026-01-16 02:42:24.26	271.18	24.29	-45.4	-47.7	15.4	0.00e+00	0	33	0	999292928	56	4828
2026-01-16 02:42:25.27	271.00	24.17	-45.5	-47.9	15.3	0.00e+00	0	33	0	1001390080	56	4941
2026-01-16 02:42:26.28	270.82	24.05	-45.3	-47.7	15.4	0.00e+00	0	33	0	1003487232	56	4843
2026-01-16 02:42:27.28	270.64	23.93	-45.4	-47.8	15.4	0.00e+00	0	33	0	1004535808	56	4891
2026-01-16 02:42:28.29	270.46	23.81	-45.4	-47.8	15.4	0.00e+00	0	33	0	1006632960	56	4885
2026-01-16 02:42:29.30	270.29	23.69	-45.7	-48.2	15.2	0.00e+00	0	33	0	1008730112	56	5138
2026-01-16 02:42:30.31	270.11	23.57	-45.6	-48.1	15.2	0.00e+00	0	33	0	1010827264	56	5070
2026-01-16 02:42:31.32	269.94	23.45	-45.6	-48.1	15.2	0.00e+00	0	33	0	1012924416	56	5048
2026-01-16 02:42:32.33	269.77	23.33	-45.8	-48.4	15.1	0.00e+00	0	33	0	1013972992	57	4936
2026-01-16 02:42:33.34	269.59	23.21	-46.0	-48.6	15.0	0.00e+00	0	33	0	1016070144	57	5075
2026-01-16 02:42:34.35	269.43	23.09	-46.0	-48.7	14.9	0.00e+00	0	33	0	1018167296	57	5121
2026-01-16 02:42:35.36	269.26	22.98	-46.2	-49.0	14.7	0.00e+00	0	33	0	1020264448	57	5338
2026-01-16 02:42:36.37	269.09	22.86	-46.4	-49.3	14.6	0.00e+00	0	33	0	1022361600	58	5182
2026-01-16 02:42:37.38	268.92	22.74	-46.2	-49.0	14.8	0.00e+00	0	33	0	1023410176	58	4993
2026-01-16 02:42:38.39	268.76	22.62	-46.4	-49.3	14.5	0.00e+00	0	33	0	1025507328	58	5213
2026-01-16 02:42:39.40	268.60	22.50	-46.3	-49.2	14.6	0.00e+00	0	33	0	1027604480	58	5137
2026-01-16 02:42:40.41	268.44	22.39	-46.1	-48.8	14.9	0.00e+00	0	33	0	1029701632	58	4900
2026-01-16 02:42:41.42	268.28	22.27	-45.7	-48.3	15.1	0.00e+00	0	33	0	1031798784	58	4600
2026-01-16 02:42:42.43	268.12	22.15	-45.6	-48.0	15.3	0.00e+00	0	33	0	1032847360	57	4756
2026-01-16 02:42:43.43	267.96	22.04	-45.1	-47.4	15.6	0.00e+00	0	33	0	1034944512	56	4670
2026-01-16 02:42:44.44	267.80	21.92	-44.9	-47.1	15.7	0.00e+00	0	33	0	1037041664	56	4527
2026-01-16 02:42:45.45	267.65	21.80	-45.0	-47.2	15.6	0.00e+00	0	33	0	1039138816	56	4588
2026-01-16 02:42:46.46	267.49	21.69	-44.9	-47.1	15.7	0.00e+00	0	33	0	1041235968	56	4499
2026-01-16 02:42:47.47	267.34	21.57	-45.2	-47.5	15.5	0.00e+00	0	33	0	1042284544	56	4709
2026-01-16 02:42:48.48	267.19	21.46	-45.4	-47.7	15.4	0.00e+00	0	33	0	1044381696	56	4867
2026-01-16 02:42:49.49	267.04	21.34	-45.7	-48.1	15.2	0.00e+00	0	33	0	1046478848	56	5053
2026-01-16 02:42:50.50	266.89	21.23	-45.5	-47.8	15.3	0.00e+00	0	33	0	1048576000	56	4913
2026-01-16 02:42:51.51	266.74	21.12	-45.6	-48.0	15.3	0.00e+00	0	33	0	1050673152	56	5003
2026-01-16 02:42:52.52	266.59	21.00	-45.4	-47.7	15.4	0.00e+00	0	33	0	1051721728	56	4869
2026-01-16 02:42:53.53	266.44	20.89	-45.2	-47.4	15.5	0.00e+00	0	33	0	1053818880	56	4698
2026-01-16 02:42:54.54	266.30	20.78	-44.8	-47.0	15.8	0.00e+00	0	33	0	1055916032	56	4445
2026-01-16 02:42:55.54	266.15	20.66	-44.9	-47.0	15.8	0.00e+00	0	33	0	1058013184	56	4449
2026-01-16 02:42:56.56	266.01	20.55	-44.7	-46.8	15.8	0.00e+00	0	33	0	1060110336	56	4345
2026-01-16 02:42:57.56	265.87	20.44	-44.4	-46.4	15.9	0.00e+00	0	33	0	1062207488	55	4430
2026-01-16 02:42:58.57	265.73	20.33	-44.8	-47.0	15.6	0.00e+00	0	33	0	1063256064	55	4744
2026-01-16 02:42:59.58	265.59	20.22	-45.2	-47.6	15.4	0.00e+00	0	33	0	1065353216	55	5047
2026-01-16 02:43:00.59	265.45	20.10	-45.6	-48.1	15.2	0.00e+00	0	33	0	1067450368	56	5048
2026-01-16 02:43:01.60	265.31	19.99	-46.1	-48.7	14.9	0.00e+00	0	33	0	1069547520	57	5158
2026-01-16 02:43:02.61	265.17	19.88	-46.7	-49.7	14.3	0.00e+00	0	33	0	1071644672	58	5454
2026-01-16 02:43:03.62	265.04	19.77	-46.9	-50.1	14.1	0.00e+00	0	33	0	1072693248	59	5369
2026-01-16 02:43:04.63	264.90	19.66	-47.3	-50.9	13.6	0.00e+00	0	33	0	1074790400	59	5860
2026-01-16 02:43:05.64	264.77	19.55	-47.1	-50.7	13.5	0.00e+00	0	33	0	1076887552	60	5405
2026-01-16 02:43:06.65	264.63	19.44	-47.0	-50.5	13.6	0.00e+00	0	33	0	1078984704	60	5290
2026-01-16 02:43:07.66	264.50	19.34	-47.2	-50.8	13.4	7.00e-07	0	33	0	1081081856	60	5480
2026-01-16 02:43:08.67	264.37	19.23	-47.1	-50.6	13.5	0.00e+00	0	33	0	1082130432	60	5372
2026-01-16 02:43:09.68	264.24	19.12	-46.8	-50.2	13.8	0.00e+00	0	33	0	1084227584	60	5125
2026-01-16 02:43:10.69	264.11	19.01	-46.9	-50.1	14.1	0.00e+00	0	33	0	1086324736	59	5375
2026-01-16 02:43:11.70	263.98	18.90	-46.6	-49.6	14.4	0.00e+00	0	33	0	1088421888	59	5066
2026-01-16 02:43:12.71	263.85	18.79	-46.2	-49.0	14.7	0.00e+00	0	33	0	1090519040	59	4751
2026-01-16 02:43:13.72	263.73	18.69	-45.9	-48.6	15.0	0.00e+00	0	33	0	1091567616	58	4765
2026-01-16 02:43:14.72	263.60	18.58	-45.9	-48.6	15.0	0.00e+00	0	33	0	1093664768	58	4779
2026-01-16 02:43:15.73	263.48	18.48	-45.9	-48.5	15.0	0.00e+00	0	33	0	1095761920	58	4726
2026-01-16 02:43:16.74	263.35	18.37	-46.0	-48.7	14.8	0.00e+00	0	33	0	1097859072	58	4847
2026-01-16 02:43:17.76	263.23	18.26	-46.3	-49.1	14.6	0.00e+00	0	33	0	1099956224	58	5091
2026-01-16 02:43:18.76	263.11	18.16	-46.4	-49.3	14.6	0.00e+00	0	33	0	1101004800	58	5162
2026-01-16 02:43:19.77	262.99	18.05	-46.5	-49.5	14.4	0.00e+00	0	33	0	1103101952	58	5334
2026-01-16 02:43:20.78	262.87	17.95	-46.7	-49.9	14.1	0.00e+00	0	33	0	1105199104	58	5560
2026-01-16 02:43:21.79	262.75	17.84	-46.6	-49.7	14.3	0.00e+00	0	33	0	1107296256	58	5445
2026-01-16 02:43:22.80	262.63	17.74	-46.4	-49.4	14.4	0.00e+00	0	33	0	1109393408	58	5244
2026-01-16 02:43:23.81	262.51	17.63	-46.1	-48.9	14.7	0.00e+00	0	33	0	1110441984	58	4953
2026-01-16 02:43:24.82	262.39	17.53	-46.1	-48.8	14.8	0.00e+00	0	33	0	1112539136	58	4872
2026-01-16 02:43:25.83	262.28	17.43	-45.6	-48.0	15.2	0.00e+00	0	33	0	1114636288	57	4747
2026-01-16 02:43:26.84	262.16	17.32	-45.4	-47.8	15.3	0.00e+00	0	33	0	1116733440	57	4649
2026-01-16 02:43:27.85	262.05	17.22	-45.4	-47.8	15.3	0.00e+00	0	33	0	1118830592	57	4602
2026-01-16 02:43:28.85	261.93	17.12	-45.3	-47.6	15.4	0.00e+00	0	33	0	1119879168	57	4539
2026-01-16 02:43:29.86	261.82	17.02	-45.2	-47.5	15.3	0.00e+00	0	33	0	1121976320	56	4757
2026-01-16 02:43:30.87	261.71	16.92	-45.2	-47.6	15.3	0.00e+00	0	33	0	1124073472	56	4809
2026-01-16 02:43:31.88	261.60	16.81	-45.6	-48.2	15.0	0.00e+00	0	33	0	1126170624	56	5117
2026-01-16 02:43:32.89	261.49	16.71	-45.7	-48.3	15.0	0.00e+00	0	33	0	1128267776	56	5180
2026-01-16 02:43:33.90	261.38	16.61	-45.8	-48.5	14.9	0.00e+00	0	33	0	1130364928	56	5280
2026-01-16 02:43:34.91	261.27	16.51	-46.0	-48.8	14.7	0.00e+00	0	33	0	1131413504	57	5186
2026-01-16 02:43:35.92	261.16	16.41	-45.9	-48.7	14.8	0.00e+00	0	33	0	1133510656	57	5123
2026-01-16 02:43:36.93	261.05	16.31	-46.0	-48.8	14.7	0.00e+00	0	33	0	1135607808	57	5173
2026-01-16 02:43:37.94	260.94	16.21	-46.0	-48.7	14.8	0.00e+00	0	33	0	1137704960	57	5126
2026-01-16 02:43:38.94	260.84	16.11	-45.9	-48.6	14.9	0.00e+00	0	33	0	1139802112	57	5051
2026-01-16 02:43:39.95	260.73	16.01	-45.9	-48.5	14.9	0.00e+00	0	33	0	1140850688	57	5041
2026-01-16 02:43:40.96	260.63	15.92	-45.9	-48.5	14.9	0.00e+00	0	33	0	1142947840	57	5039
2026-01-16 02:43:41.97	260.52	15.82	-46.0	-48.6	14.9	0.00e+00	0	33	0	1145044992	57	5094
2026-01-16 02:43:42.98	260.42	15.72	-46.0	-48.7	14.8	0.00e+00	0	33	0	1147142144	57	5143
2026-01-16 02:43:43.99	260.32	15.62	-46.2	-49.0	14.7	0.00e+00	0	33	0	1149239296	57	5286
2026-01-16 02:43:45.00	260.22	15.52	-46.0	-48.6	14.8	0.00e+00	0	33	0	1150287872	57	5094
2026-01-16 02:43:46.01	260.11	15.43	-46.1	-48.8	14.7	0.00e+00	0	33	0	1152385024	57	5214
2026-01-16 02:43:47.02	260.01	15.33	-46.1	-48.8	14.8	0.00e+00	0	33	0	1154482176	57	5189
2026-01-16 02:43:48.03	259.91	15.23	-46.0	-48.7	14.8	0.00e+00	0	33	0	1156579328	57	5117
2026-01-16 02:43:49.04	259.81	15.14	-45.9	-48.5	14.9	0.00e+00	0	33	0	1158676480	57	4986
2026-01-16 02:43:50.05	259.72	15.04	-45.8	-48.4	15.0	0.00e+00	0	33	0	1159725056	57	4957
2026-01-16 02:43:51.06	259.62	14.94	-45.9	-48.4	15.0	0.00e+00	0	33	0	1161822208	57	4979
2026-01-16 02:43:52.07	259.52	14.85	-45.7	-48.1	15.1	0.00e+00	0	33	0	1163919360	57	4798
2026-01-16 02:43:53.08	259.42	14.75	-45.7	-48.3	15.1	0.00e+00	0	33	0	1166016512	57	4882
2026-01-16 02:43:54.08	259.33	14.66	-46.0	-48.6	14.9	0.00e+00	0	33	0	1168113664	57	5056
2026-01-16 02:43:55.09	259.23	14.56	-45.9	-48.5	15.0	0.00e+00	0	33	0	1169162240	57	4987
2026-01-16 02:43:56.10	259.14	14.47	-46.0	-48.7	14.8	0.00e+00	0	33	0	1171259392	57	5128
2026-01-16 02:43:57.11	259.04	14.38	-46.2	-49.0	14.7	0.00e+00	0	33	0	1173356544	57	5307
2026-01-16 02:43:58.12	258.95	14.28	-46.4	-49.3	14.5	0.00e+00	0	33	0	1175453696	58	5174
2026-01-16 02:43:59.13	258.86	14.19	-46.6	-49.6	14.3	0.00e+00	0	33	0	1177550848	58	5389
2026-01-16 02:44:00.14	258.76	14.10	-46.9	-50.2	13.9	0.00e+00	0	33	0	1178599424	59	5425
2026-01-16 02:44:01.15	258.67	14.00	-46.8	-50.0	14.0	0.00e+00	0	33	0	1180696576	59	5340
2026-01-16 02:44:02.16	258.58	13.91	-46.8	-50.1	13.9	0.00e+00	0	33	0	1182793728	59	5362
2026-01-16 02:44:03.17	258.49	13.82	-46.9	-50.2	13.9	0.00e+00	0	33	0	1184890880	59	5419
2026-01-16 02:44:04.18	258.40	13.72	-46.9	-50.1	14.0	0.00e+00	0	33	0	1186988032	59	5392
2026-01-16 02:44:05.19	258.31	13.63	-46.6	-49.8	14.0	0.00e+00	0	33	0	1188036608	59	5191
2026-01-16 02:44:06.20	258.22	13.54	-46.7	-49.8	14.1	0.00e+00	0	33	0	1190133760	59	5191
2026-01-16 02:44:07.20	258.13	13.45	-46.5	-49.6	14.3	0.00e+00	0	33	0	1192230912	59	5058
2026-01-16 02:44:08.21	258.05	13.36	-46.2	-49.1	14.6	0.00e+00	0	33	0	1194328064	59	4784
2026-01-16 02:44:09.22	257.96	13.27	-46.0	-48.8	14.7	0.00e+00	0	33	0	1196425216	58	4876
2026-01-16 02:44:10.23	257.87	13.18	-45.9	-48.5	14.9	0.00e+00	0	33	0	1197473792	58	4744
2026-01-16 02:44:11.24	257.79	13.09	-45.8	-48.5	14.9	0.00e+00	0	33	0	1199570944	58	4706
2026-01-16 02:44:12.25	257.70	13.00	-45.8	-48.4	14.9	0.00e+00	0	33	0	1201668096	58	4695
2026-01-16 02:44:13.26	257.61	12.91	-45.7	-48.3	14.9	0.00e+00	0	33	0	1203765248	57	4874
2026-01-16 02:44:14.27	257.53	12.82	-45.8	-48.4	14.9	0.00e+00	0	33	0	1205862400	57	4945
2026-01-16 02:44:15.28	257.45	12.73	-45.7	-48.3	14.9	0.00e+00	0	33	0	1206910976	57	4911
2026-01-16 02:44:16.29	257.36	12.64	-45.7	-48.3	14.9	0.00e+00	0	33	0	1209008128	57	4898
2026-01-16 02:44:17.30	257.28	12.55	-45.9	-48.5	14.8	0.00e+00	0	33	0	1211105280	57	5034
2026-01-16 02:44:18.31	257.20	12.46	-45.8	-48.5	14.8	0.00e+00	0	33	0	1213202432	57	4986
2026-01-16 02:44:19.32	257.12	12.38	-45.7	-48.3	14.9	0.00e+00	0	33	0	1215299584	57	4880
2026-01-16 02:44:20.33	257.03	12.29	-45.7	-48.3	14.9	0.00e+00	0	33	0	1216348160	57	4889
2026-01-16 02:44:21.33	256.95	12.20	-45.7	-48.3	14.9	0.00e+00	0	33	0	1218445312	57	4905
2026-01-16 02:44:22.34	256.87	12.11	-45.8	-48.4	14.9	0.00e+00	0	33	0	1220542464	57	4950
2026-01-16 02:44:23.36	256.79	12.03	-45.8	-48.5	14.8	0.00e+00	0	33	0	1222639616	57	5002
2026-01-16 02:44:24.36	256.71	11.94	-45.8	-48.5	14.8	0.00e+00	0	33	0	1224736768	57	5002
2026-01-16 02:44:25.37	256.63	11.85	-45.8	-48.4	14.9	0.00e+00	0	33	0	1226833920	57	4952
2026-01-16 02:44:26.38	256.56	11.77	-45.9	-48.6	14.8	0.00e+00	0	33	0	1227882496	57	5058
2026-01-16 02:44:27.39	256.48	11.68	-45.9	-48.6	14.8	0.00e+00	0	33	0	1229979648	57	5057
2026-01-16 02:44:28.40	256.40	11.59	-45.9	-48.6	14.8	0.00e+00	0	33	0	1232076800	57	5048
2026-01-16 02:44:29.41	256.32	11.51	-45.9	-48.6	14.8	0.00e+00	0	33	0	1234173952	57	5085
2026-01-16 02:44:30.42	256.25	11.42	-46.0	-48.7	14.7	0.00e+00	0	33	0	1236271104	57	5125
2026-01-16 02:44:31.43	256.17	11.34	-45.9	-48.5	14.8	0.00e+00	0	33	0	1237319680	57	5013
2026-01-16 02:44:32.43	256.10	11.25	-45.9	-48.6	14.7	0.00e+00	0	33	0	1239416832	57	5094
