passes_logs/2026/01/19/T1/T1__20260119_060356_FENGYUN_3E_rec.log

#Pass ID: 20260119_060356_FENGYUN 3E
#Satellite: FENGYUN 3E
#Configuration: FENGYUN 3E
#almurnet v.1.7.20251203
#Start time: 2026-01-19 06:03:58

#Version: 2.0.20230620
#Station: T1
#Location: 37.570604 lon 55.790049 lat
#TLE: 1 49008U 21062A   26017.96535346 -.00000182  00000+0 -64922-4 0  9998
#TLE: 2 49008  98.7483  23.0589 0002171 131.9722 228.1640 14.19885139235265

#Time	Az	El	Level	Level2	SNR	BER	BlckErr	Temp	State	Recorded	gain1	gain2
2026-01-19 06:03:58.28	3.83	5.12	-47.1	-60.9	3.8	8.47e-01	0	39	0	0	65	16831
2026-01-19 06:03:59.27	3.74	5.18	-45.2	-60.8	3.8	8.46e-01	0	39	104	0	59	23486
2026-01-19 06:04:00.27	3.64	5.23	-45.2	-60.8	3.8	8.46e-01	0	39	104	0	59	23488
2026-01-19 06:04:01.27	3.54	5.29	-45.2	-60.8	3.8	8.47e-01	0	39	104	0	59	23514
2026-01-19 06:04:02.26	3.44	5.34	-45.2	-60.8	3.8	8.46e-01	0	39	104	0	59	23424
2026-01-19 06:04:03.26	3.34	5.40	-45.2	-60.7	3.8	8.47e-01	0	39	104	0	59	23274
2026-01-19 06:04:04.26	3.24	5.45	-45.2	-60.8	3.8	8.47e-01	0	40	104	0	59	23312
2026-01-19 06:04:05.25	3.14	5.50	-45.2	-60.7	3.8	8.47e-01	0	39	104	0	59	23293
2026-01-19 06:04:06.25	3.04	5.56	-45.2	-60.7	3.8	8.46e-01	0	39	104	0	59	23190
2026-01-19 06:04:07.24	2.93	5.61	-45.2	-60.7	3.8	8.46e-01	0	40	104	0	59	23113
2026-01-19 06:04:08.24	2.83	5.67	-45.2	-60.7	3.8	8.47e-01	0	40	104	0	59	23084
2026-01-19 06:04:09.24	2.73	5.72	-45.2	-60.7	3.8	8.47e-01	0	40	104	0	59	23086
2026-01-19 06:04:10.24	2.63	5.78	-45.2	-60.7	3.8	8.47e-01	0	40	104	0	59	23112
2026-01-19 06:04:11.23	2.52	5.83	-45.2	-60.7	3.8	8.47e-01	0	40	104	0	59	23193
2026-01-19 06:04:12.23	2.42	5.88	-45.2	-60.8	3.8	8.47e-01	0	40	104	0	59	23351
2026-01-19 06:04:13.23	2.32	5.94	-45.2	-60.7	3.8	8.46e-01	0	40	104	0	59	23149
2026-01-19 06:04:14.23	2.21	5.99	-45.2	-60.8	3.8	8.47e-01	0	40	104	0	59	23390
2026-01-19 06:04:15.22	2.11	6.05	-45.2	-60.7	3.8	8.48e-01	0	40	104	0	59	23285
2026-01-19 06:04:16.22	2.00	6.10	-45.2	-60.8	3.8	8.47e-01	0	40	104	0	59	23313
2026-01-19 06:04:17.22	1.90	6.16	-45.2	-60.8	3.8	8.47e-01	0	40	104	0	59	23420
2026-01-19 06:04:18.22	1.79	6.21	-45.2	-60.8	3.8	8.47e-01	0	40	104	0	59	23441
2026-01-19 06:04:19.22	1.68	6.27	-45.2	-60.8	3.8	8.47e-01	0	40	104	0	59	23376
2026-01-19 06:04:20.21	1.58	6.32	-45.2	-60.8	3.8	8.46e-01	0	40	104	0	59	23409
2026-01-19 06:04:21.21	1.47	6.38	-45.2	-60.8	3.8	8.48e-01	0	40	104	0	59	23579
2026-01-19 06:04:22.21	1.36	6.43	-45.2	-60.8	3.8	8.46e-01	0	40	104	0	59	23453
2026-01-19 06:04:23.21	1.25	6.49	-45.2	-60.8	3.8	8.48e-01	0	40	104	0	59	23459
2026-01-19 06:04:24.20	1.15	6.54	-45.2	-60.8	3.8	8.47e-01	0	40	104	0	59	23478
2026-01-19 06:04:25.20	1.04	6.60	-45.2	-60.8	3.8	8.47e-01	0	40	104	0	59	23491
2026-01-19 06:04:26.20	0.93	6.65	-45.2	-60.8	3.8	8.47e-01	0	40	104	0	59	23520
2026-01-19 06:04:27.20	0.82	6.71	-45.2	-60.8	3.8	8.46e-01	0	40	104	0	59	23529
2026-01-19 06:04:28.20	0.71	6.76	-45.2	-60.8	3.8	8.48e-01	0	40	104	0	59	23551
2026-01-19 06:04:29.19	0.60	6.82	-45.2	-60.8	3.8	8.47e-01	0	40	104	0	59	23457
2026-01-19 06:04:30.19	0.49	6.87	-45.2	-60.8	3.8	8.48e-01	0	40	104	0	59	23375
2026-01-19 06:04:31.19	0.37	6.93	-45.2	-60.8	3.8	8.47e-01	0	41	104	0	59	23428
2026-01-19 06:04:32.19	0.26	6.98	-45.2	-60.8	3.8	8.48e-01	0	41	104	0	59	23337
2026-01-19 06:04:33.19	0.15	7.04	-45.2	-60.8	3.8	8.47e-01	0	41	104	0	59	23361
2026-01-19 06:04:34.18	0.04	7.09	-45.2	-60.7	3.8	8.46e-01	0	41	104	0	59	23268
2026-01-19 06:04:35.18	359.92	7.15	-45.2	-60.8	3.8	8.46e-01	0	41	104	0	59	23357
2026-01-19 06:04:36.18	359.81	7.20	-45.2	-60.8	3.8	8.47e-01	0	41	104	0	59	23459
2026-01-19 06:04:37.18	359.69	7.26	-45.2	-60.7	3.8	8.47e-01	0	41	104	0	59	23227
2026-01-19 06:04:38.18	359.58	7.31	-45.2	-60.7	3.8	8.47e-01	0	41	104	0	59	23293
2026-01-19 06:04:39.17	359.47	7.37	-45.2	-60.7	3.8	8.47e-01	0	41	104	0	59	23262
2026-01-19 06:04:40.17	359.35	7.42	-45.2	-60.6	3.8	8.47e-01	0	41	104	0	59	23021
2026-01-19 06:04:41.17	359.23	7.48	-45.2	-60.7	3.8	8.46e-01	0	41	104	0	59	23107
2026-01-19 06:04:42.17	359.12	7.53	-45.2	-60.8	3.8	8.47e-01	0	41	104	0	59	23339
2026-01-19 06:04:43.17	359.00	7.59	-45.2	-60.8	3.8	8.47e-01	0	41	104	0	59	23326
2026-01-19 06:04:44.16	358.88	7.64	-45.2	-60.8	3.8	8.46e-01	0	41	104	0	59	23354
2026-01-19 06:04:45.16	358.77	7.70	-45.2	-60.7	3.8	8.47e-01	0	41	104	0	59	23306
2026-01-19 06:04:46.15	358.65	7.75	-45.2	-60.7	3.8	8.46e-01	0	41	104	0	59	23132
2026-01-19 06:04:47.15	358.53	7.81	-45.2	-60.8	3.8	8.47e-01	0	41	104	0	59	23317
2026-01-19 06:04:48.15	358.41	7.86	-45.2	-60.7	3.8	8.47e-01	0	41	104	0	59	23180
2026-01-19 06:04:49.15	358.29	7.92	-45.2	-60.7	3.8	8.47e-01	0	41	104	0	59	23289
2026-01-19 06:04:50.14	358.17	7.97	-45.2	-60.7	3.8	8.46e-01	0	41	104	0	59	23191
2026-01-19 06:04:51.14	358.05	8.03	-45.2	-60.6	3.8	8.47e-01	0	41	104	0	59	22890
2026-01-19 06:04:52.14	357.93	8.08	-45.2	-60.3	3.8	8.47e-01	0	41	104	0	59	22176
2026-01-19 06:04:53.14	357.81	8.14	-45.2	-60.0	3.8	8.47e-01	0	41	104	0	59	21367
2026-01-19 06:04:54.14	357.68	8.19	-45.2	-59.7	3.8	8.47e-01	0	41	104	0	59	20553
2026-01-19 06:04:55.13	357.56	8.25	-45.2	-59.4	3.8	8.47e-01	0	41	104	0	59	19964
2026-01-19 06:04:56.13	357.44	8.30	-45.1	-59.3	3.8	8.45e-01	0	41	104	0	59	19822
2026-01-19 06:04:57.13	357.32	8.36	-45.2	-59.2	3.8	8.46e-01	0	41	104	0	59	19483
2026-01-19 06:04:58.13	357.19	8.41	-45.1	-59.1	3.8	8.45e-01	0	41	104	0	59	19207
2026-01-19 06:04:59.13	357.07	8.47	-45.1	-58.6	3.8	8.46e-01	0	41	104	0	59	18184
2026-01-19 06:05:00.12	356.94	8.52	-45.1	-57.7	4.1	8.43e-01	0	41	0	0	59	16332
2026-01-19 06:05:01.12	356.82	8.58	-44.9	-56.2	4.5	8.27e-01	0	41	0	0	59	13795
2026-01-19 06:05:02.12	356.69	8.63	-44.8	-54.1	5.7	7.38e-01	0	41	0	0	59	10897
2026-01-19 06:05:03.12	356.56	8.69	-44.4	-52.0	7.5	1.40e-01	0	41	0	6291456	59	8465
2026-01-19 06:05:04.11	356.44	8.74	-43.9	-49.9	9.6	2.27e-02	0	41	0	13631488	58	7086
2026-01-19 06:05:05.11	356.31	8.80	-43.2	-47.9	11.7	8.28e-04	0	41	0	20971520	57	5983
2026-01-19 06:05:06.11	356.18	8.85	-42.3	-46.1	13.4	3.20e-05	0	41	0	28311552	55	5449
2026-01-19 06:05:07.11	356.05	8.91	-41.6	-44.8	14.7	0.00e+00	0	41	0	35651584	54	4958
2026-01-19 06:05:08.10	355.93	8.96	-40.6	-43.9	15.6	0.00e+00	0	41	0	42991616	52	4997
2026-01-19 06:05:09.10	355.80	9.02	-40.7	-43.4	16.2	0.00e+00	0	41	0	50331648	52	4727
2026-01-19 06:05:10.10	355.67	9.07	-41.3	-44.1	15.5	0.00e+00	0	41	0	56623104	52	5147
2026-01-19 06:05:11.10	355.54	9.13	-42.2	-45.7	13.9	1.10e-06	0	41	0	63963136	54	5483
2026-01-19 06:05:12.10	355.40	9.18	-41.3	-44.1	15.5	0.00e+00	0	41	0	71303168	52	5145
2026-01-19 06:05:13.10	355.27	9.24	-45.5	-51.2	8.3	4.52e-02	0	41	0	78643200	60	7330
2026-01-19 06:05:14.10	355.14	9.29	-39.6	-41.7	17.9	0.00e+00	0	41	0	85983232	49	4603
2026-01-19 06:05:15.09	355.01	9.35	-39.1	-41.2	18.4	0.00e+00	0	41	0	93323264	49	4367
2026-01-19 06:05:16.09	354.88	9.40	-39.1	-41.1	18.4	0.00e+00	0	41	0	100663296	48	4591
2026-01-19 06:05:17.09	354.74	9.46	-39.0	-40.9	18.7	0.00e+00	0	41	0	108003328	48	4469
2026-01-19 06:05:18.09	354.61	9.51	-38.9	-40.7	18.8	0.00e+00	0	41	0	115343360	48	4390
2026-01-19 06:05:19.08	354.48	9.56	-38.8	-40.6	19.0	0.00e+00	0	41	0	121634816	48	4296
2026-01-19 06:05:20.07	354.34	9.62	-38.9	-40.6	19.0	0.00e+00	0	41	0	128974848	48	4296
2026-01-19 06:05:21.08	354.20	9.67	-38.8	-40.5	19.1	0.00e+00	0	41	0	136314880	48	4251
2026-01-19 06:05:22.07	354.07	9.73	-38.7	-40.4	19.2	0.00e+00	0	42	0	143654912	48	4217
2026-01-19 06:05:23.06	353.93	9.78	-38.8	-40.3	19.3	0.00e+00	0	41	0	150994944	48	4172
2026-01-19 06:05:24.06	353.80	9.84	-38.7	-40.2	19.3	0.00e+00	0	41	0	157286400	48	4143
2026-01-19 06:05:25.06	353.66	9.89	-38.9	-40.3	19.3	0.00e+00	0	41	0	164626432	48	4179
2026-01-19 06:05:26.06	353.52	9.95	-38.9	-40.3	19.3	0.00e+00	0	41	0	171966464	48	4182
2026-01-19 06:05:27.06	353.38	10.00	-39.1	-40.5	19.2	0.00e+00	0	42	0	179306496	48	4248
2026-01-19 06:05:28.05	353.24	10.05	-39.1	-40.5	19.2	0.00e+00	0	41	0	186646528	48	4246
2026-01-19 06:05:29.05	353.10	10.11	-39.1	-40.5	19.2	0.00e+00	0	41	0	193986560	48	4245
2026-01-19 06:05:30.04	352.96	10.16	-39.3	-40.7	19.0	0.00e+00	0	41	0	201326592	48	4350
2026-01-19 06:05:31.04	352.82	10.22	-39.2	-40.6	19.0	0.00e+00	0	41	0	208666624	48	4329
2026-01-19 06:05:32.03	352.68	10.27	-39.2	-40.7	19.0	0.00e+00	0	41	0	216006656	48	4346
2026-01-19 06:05:33.03	352.54	10.32	-39.2	-40.7	18.9	0.00e+00	0	41	0	222298112	48	4373
2026-01-19 06:05:34.03	352.40	10.38	-39.1	-40.8	18.9	0.00e+00	0	41	0	229638144	48	4397
2026-01-19 06:05:35.03	352.26	10.43	-39.1	-40.8	18.9	0.00e+00	0	41	0	236978176	48	4394
2026-01-19 06:05:36.03	352.11	10.49	-39.0	-40.7	19.0	0.00e+00	0	41	0	244318208	48	4355
2026-01-19 06:05:37.02	351.97	10.54	-39.0	-40.7	19.0	0.00e+00	0	41	0	251658240	48	4358
2026-01-19 06:05:38.02	351.82	10.59	-39.0	-40.8	18.9	0.00e+00	0	41	0	258998272	48	4399
2026-01-19 06:05:39.02	351.68	10.65	-39.0	-40.8	18.9	0.00e+00	0	42	0	265289728	48	4409
2026-01-19 06:05:40.02	351.53	10.70	-38.9	-40.7	19.0	0.00e+00	0	42	0	272629760	48	4352
2026-01-19 06:05:41.01	351.39	10.75	-38.9	-40.6	19.0	0.00e+00	0	42	0	279969792	48	4329
2026-01-19 06:05:42.01	351.24	10.81	-38.9	-40.6	19.1	0.00e+00	0	42	0	287309824	48	4312
2026-01-19 06:05:43.01	351.09	10.86	-39.2	-40.7	18.9	0.00e+00	0	41	0	294649856	48	4390
2026-01-19 06:05:44.00	350.95	10.91	-39.2	-40.7	19.0	0.00e+00	0	42	0	301989888	48	4369
2026-01-19 06:05:45.00	350.80	10.97	-39.2	-40.7	19.0	0.00e+00	0	42	0	309329920	48	4364
2026-01-19 06:05:46.00	350.65	11.02	-39.0	-40.4	19.3	0.00e+00	0	42	0	316669952	48	4234
2026-01-19 06:05:46.99	350.50	11.07	-39.0	-40.4	19.3	0.00e+00	0	42	0	322961408	48	4200
2026-01-19 06:05:47.99	350.35	11.13	-39.0	-40.3	19.4	0.00e+00	0	42	0	330301440	48	4163
2026-01-19 06:05:48.99	350.20	11.18	-39.1	-40.3	19.4	0.00e+00	0	41	0	337641472	48	4178
2026-01-19 06:05:49.99	350.05	11.23	-39.1	-40.3	19.4	0.00e+00	0	42	0	344981504	48	4159
2026-01-19 06:05:50.99	349.90	11.29	-39.1	-40.3	19.4	0.00e+00	0	42	0	352321536	48	4172
2026-01-19 06:05:51.99	349.74	11.34	-39.1	-40.3	19.4	0.00e+00	0	42	0	359661568	48	4170
2026-01-19 06:05:52.99	349.59	11.39	-39.2	-40.4	19.3	0.00e+00	0	42	0	367001600	48	4238
2026-01-19 06:05:53.99	349.44	11.45	-39.0	-40.3	19.4	0.00e+00	0	41	0	374341632	48	4154
2026-01-19 06:05:54.99	349.28	11.50	-39.0	-40.2	19.5	0.00e+00	0	41	0	381681664	48	4143
2026-01-19 06:05:55.98	349.13	11.55	-39.1	-40.3	19.4	0.00e+00	0	41	0	387973120	48	4164
2026-01-19 06:05:56.97	348.97	11.60	-39.2	-40.4	19.3	0.00e+00	0	42	0	395313152	48	4213
2026-01-19 06:05:57.97	348.82	11.65	-39.1	-40.4	19.3	0.00e+00	0	42	0	402653184	48	4208
2026-01-19 06:05:58.97	348.66	11.71	-39.1	-40.4	19.3	0.00e+00	0	42	0	409993216	48	4194
2026-01-19 06:05:59.97	348.50	11.76	-39.1	-40.4	19.3	0.00e+00	0	41	0	417333248	48	4218
2026-01-19 06:06:00.97	348.35	11.81	-39.2	-40.5	19.2	0.00e+00	0	41	0	423624704	48	4279
2026-01-19 06:06:01.97	348.19	11.86	-39.1	-40.4	19.3	0.00e+00	0	42	0	430964736	48	4215
2026-01-19 06:06:02.96	348.03	11.91	-39.1	-40.4	19.3	0.00e+00	0	42	0	438304768	48	4242
2026-01-19 06:06:03.96	347.87	11.97	-39.0	-40.3	19.4	0.00e+00	0	42	0	445644800	48	4173
2026-01-19 06:06:04.96	347.71	12.02	-39.0	-40.3	19.4	0.00e+00	0	41	0	452984832	48	4163
2026-01-19 06:06:05.96	347.55	12.07	-39.0	-40.3	19.4	0.00e+00	0	42	0	460324864	48	4156
2026-01-19 06:06:06.96	347.39	12.12	-39.0	-40.2	19.5	0.00e+00	0	42	0	467664896	48	4110
2026-01-19 06:06:07.95	347.23	12.17	-39.0	-40.2	19.5	0.00e+00	0	42	0	475004928	48	4114
2026-01-19 06:06:08.95	347.07	12.22	-38.9	-40.0	19.7	0.00e+00	0	42	0	482344960	48	4032
2026-01-19 06:06:09.95	346.90	12.27	-38.8	-39.9	19.8	0.00e+00	0	41	0	488636416	48	3992
2026-01-19 06:06:10.95	346.74	12.32	-38.9	-39.9	19.8	0.00e+00	0	42	0	495976448	48	3985
2026-01-19 06:06:11.95	346.58	12.38	-38.8	-39.8	19.9	0.00e+00	0	42	0	503316480	48	3947
2026-01-19 06:06:12.95	346.41	12.43	-39.0	-40.0	19.7	0.00e+00	0	42	0	510656512	48	4034
2026-01-19 06:06:13.95	346.25	12.48	-38.9	-39.9	19.8	0.00e+00	0	42	0	517996544	48	3996
2026-01-19 06:06:14.94	346.08	12.53	-38.9	-39.9	19.8	0.00e+00	0	42	0	525336576	48	3991
2026-01-19 06:06:15.95	345.92	12.58	-38.9	-39.9	19.8	0.00e+00	0	42	0	532676608	48	3998
2026-01-19 06:06:16.94	345.75	12.63	-38.8	-40.0	19.8	0.00e+00	0	42	0	540016640	48	4008
2026-01-19 06:06:17.93	345.58	12.68	-38.9	-40.0	19.7	0.00e+00	0	42	0	547356672	48	4014
2026-01-19 06:06:18.93	345.42	12.73	-38.8	-39.9	19.8	0.00e+00	0	42	0	553648128	48	3989
2026-01-19 06:06:19.93	345.25	12.78	-38.7	-39.9	19.9	0.00e+00	0	42	0	560988160	48	3965
2026-01-19 06:06:20.93	345.08	12.83	-38.6	-39.7	20.0	0.00e+00	0	42	0	568328192	48	3903
2026-01-19 06:06:21.93	344.91	12.88	-38.6	-39.7	20.0	0.00e+00	0	42	0	575668224	48	3894
2026-01-19 06:06:22.93	344.74	12.92	-38.6	-39.7	20.0	0.00e+00	0	42	0	583008256	48	3889
2026-01-19 06:06:23.93	344.57	12.97	-38.5	-39.6	19.8	0.00e+00	0	42	0	589299712	47	4078
2026-01-19 06:06:24.93	344.40	13.02	-38.3	-39.4	20.0	0.00e+00	0	42	0	596639744	47	3970
2026-01-19 06:06:25.93	344.22	13.07	-38.4	-39.5	19.9	0.00e+00	0	42	0	603979776	47	4019
2026-01-19 06:06:26.93	344.05	13.12	-38.4	-39.4	20.0	0.00e+00	0	42	0	611319808	47	3996
2026-01-19 06:06:27.93	343.88	13.17	-38.3	-39.4	20.1	0.00e+00	0	42	0	618659840	47	3973
2026-01-19 06:06:28.93	343.70	13.22	-38.2	-39.3	20.2	0.00e+00	0	42	0	625999872	47	3916
2026-01-19 06:06:29.93	343.53	13.27	-38.3	-39.4	20.0	0.00e+00	0	42	0	633339904	47	3989
2026-01-19 06:06:30.93	343.35	13.31	-38.2	-39.4	20.1	0.00e+00	0	42	0	640679936	47	3963
2026-01-19 06:06:31.92	343.18	13.36	-38.2	-39.4	20.1	0.00e+00	0	42	0	648019968	47	3963
2026-01-19 06:06:32.92	343.00	13.41	-38.3	-39.4	20.0	0.00e+00	0	42	0	654311424	47	3987
2026-01-19 06:06:33.91	342.83	13.46	-38.4	-39.5	20.0	0.00e+00	0	42	0	661651456	47	4026
2026-01-19 06:06:34.91	342.65	13.50	-38.4	-39.5	20.0	0.00e+00	0	42	0	668991488	47	4010
2026-01-19 06:06:35.91	342.47	13.55	-38.3	-39.4	20.0	0.00e+00	0	42	0	676331520	47	3997
2026-01-19 06:06:36.90	342.30	13.60	-38.4	-39.5	20.0	0.00e+00	0	42	0	683671552	47	4016
2026-01-19 06:06:37.90	342.12	13.64	-38.3	-39.4	20.0	0.00e+00	0	42	0	691011584	47	3992
2026-01-19 06:06:38.90	341.94	13.69	-38.3	-39.4	20.1	0.00e+00	0	42	0	698351616	47	3967
2026-01-19 06:06:39.90	341.76	13.74	-38.3	-39.4	20.1	0.00e+00	0	42	0	705691648	47	3970
2026-01-19 06:06:40.90	341.58	13.78	-38.5	-39.6	19.9	0.00e+00	0	42	0	713031680	47	4063
2026-01-19 06:06:41.90	341.40	13.83	-38.3	-39.4	20.1	0.00e+00	0	42	0	719323136	47	3974
2026-01-19 06:06:42.90	341.21	13.87	-38.3	-39.4	20.0	0.00e+00	0	42	0	726663168	47	3973
2026-01-19 06:06:43.90	341.03	13.92	-38.3	-39.4	20.1	0.00e+00	0	42	0	734003200	47	3972
2026-01-19 06:06:44.90	340.85	13.97	-38.4	-39.4	20.0	0.00e+00	0	42	0	741343232	47	3997
2026-01-19 06:06:45.89	340.67	14.01	-38.3	-39.4	20.1	0.00e+00	0	42	0	748683264	47	3965
2026-01-19 06:06:46.89	340.48	14.06	-38.3	-39.3	20.2	0.00e+00	0	42	0	756023296	47	3924
2026-01-19 06:06:47.89	340.30	14.10	-38.3	-39.4	20.1	0.00e+00	0	42	0	763363328	47	3961
2026-01-19 06:06:48.89	340.11	14.14	-38.3	-39.3	20.1	0.00e+00	0	42	0	770703360	47	3943
2026-01-19 06:06:49.88	339.93	14.19	-38.3	-39.4	20.0	0.00e+00	0	42	0	776994816	47	3994
2026-01-19 06:06:50.88	339.74	14.23	-38.0	-39.1	20.3	0.00e+00	0	42	0	784334848	46	4091
2026-01-19 06:06:51.88	339.55	14.28	-38.0	-39.0	20.4	0.00e+00	0	42	0	791674880	46	4045
2026-01-19 06:06:52.88	339.37	14.32	-38.0	-39.1	20.4	0.00e+00	0	42	0	799014912	46	4066
2026-01-19 06:06:53.88	339.18	14.36	-38.0	-39.0	20.4	0.00e+00	0	42	0	806354944	46	4051
2026-01-19 06:06:54.87	338.99	14.41	-38.0	-39.0	20.4	0.00e+00	0	42	0	813694976	46	4050
2026-01-19 06:06:55.87	338.80	14.45	-38.0	-39.0	20.4	0.00e+00	0	42	0	819986432	46	4049
2026-01-19 06:06:56.87	338.61	14.49	-38.0	-39.1	20.4	0.00e+00	0	42	0	827326464	46	4055
2026-01-19 06:06:57.87	338.42	14.53	-38.1	-39.2	20.3	0.00e+00	0	42	0	834666496	46	4099
2026-01-19 06:06:58.86	338.23	14.58	-38.1	-39.1	20.3	0.00e+00	0	42	0	842006528	46	4093
2026-01-19 06:06:59.86	338.04	14.62	-38.1	-39.1	20.3	0.00e+00	0	42	0	849346560	46	4098
2026-01-19 06:07:00.86	337.85	14.66	-38.1	-39.2	20.3	0.00e+00	0	42	0	856686592	46	4113
2026-01-19 06:07:01.86	337.66	14.70	-38.2	-39.2	20.2	0.00e+00	0	42	0	864026624	46	4135
2026-01-19 06:07:02.86	337.46	14.74	-38.2	-39.2	20.3	0.00e+00	0	42	0	871366656	46	4115
2026-01-19 06:07:03.86	337.27	14.78	-38.2	-39.2	20.3	0.00e+00	0	42	0	878706688	46	4127
2026-01-19 06:07:04.85	337.08	14.82	-38.1	-39.1	20.3	0.00e+00	0	42	0	884998144	46	4080
2026-01-19 06:07:05.85	336.88	14.86	-38.1	-39.0	20.4	0.00e+00	0	42	0	892338176	46	4050
2026-01-19 06:07:06.84	336.69	14.90	-38.1	-39.0	20.4	0.00e+00	0	42	0	899678208	46	4038
2026-01-19 06:07:07.84	336.49	14.94	-38.2	-39.1	20.3	0.00e+00	0	42	0	907018240	46	4087
2026-01-19 06:07:08.84	336.30	14.98	-38.2	-39.1	20.3	0.00e+00	0	42	0	914358272	46	4089
2026-01-19 06:07:09.83	336.10	15.02	-38.1	-39.1	20.4	0.00e+00	0	42	0	921698304	46	4077
2026-01-19 06:07:10.83	335.90	15.06	-38.1	-39.0	20.4	0.00e+00	0	42	0	927989760	46	4042
2026-01-19 06:07:11.82	335.71	15.10	-38.2	-39.1	20.3	0.00e+00	0	42	0	935329792	46	4094
2026-01-19 06:07:12.82	335.51	15.14	-38.1	-39.1	20.4	0.00e+00	0	42	0	942669824	46	4066
2026-01-19 06:07:13.82	335.31	15.18	-38.0	-39.0	20.4	0.00e+00	0	42	0	950009856	46	4038
2026-01-19 06:07:14.81	335.11	15.22	-38.1	-39.1	20.4	0.00e+00	0	42	0	957349888	46	4064
2026-01-19 06:07:15.81	334.91	15.25	-38.2	-39.2	20.3	0.00e+00	0	42	0	964689920	46	4127
2026-01-19 06:07:16.80	334.71	15.29	-38.1	-39.1	20.4	0.00e+00	0	42	0	972029952	46	4055
2026-01-19 06:07:17.80	334.51	15.33	-38.1	-39.1	20.3	0.00e+00	0	42	0	979369984	46	4083
2026-01-19 06:07:18.80	334.31	15.36	-38.0	-38.9	20.5	0.00e+00	0	42	0	985661440	46	3996
2026-01-19 06:07:19.80	334.11	15.40	-37.9	-38.8	20.6	0.00e+00	0	42	0	993001472	46	3950
2026-01-19 06:07:20.80	333.91	15.44	-37.8	-38.7	20.7	0.00e+00	0	42	0	1000341504	46	3897
2026-01-19 06:07:21.80	333.70	15.47	-37.8	-38.8	20.6	0.00e+00	0	42	0	1007681536	46	3939
2026-01-19 06:07:22.79	333.50	15.51	-37.7	-38.7	20.8	0.00e+00	0	42	0	1015021568	46	3869
2026-01-19 06:07:23.78	333.30	15.54	-37.8	-38.8	20.6	0.00e+00	0	42	0	1022361600	46	3921
2026-01-19 06:07:24.78	333.10	15.58	-37.8	-38.8	20.6	0.00e+00	0	42	0	1029701632	46	3928
2026-01-19 06:07:25.78	332.89	15.61	-37.7	-38.7	20.7	0.00e+00	0	42	0	1037041664	46	3880
2026-01-19 06:07:26.78	332.68	15.65	-37.8	-38.8	20.7	0.00e+00	0	42	0	1044381696	46	3916
2026-01-19 06:07:27.78	332.48	15.68	-37.7	-38.7	20.8	0.00e+00	0	42	0	1050673152	46	3878
2026-01-19 06:07:28.77	332.27	15.71	-37.9	-38.9	20.5	0.00e+00	0	42	0	1058013184	46	3976
2026-01-19 06:07:29.77	332.07	15.75	-37.8	-38.7	20.7	0.00e+00	0	42	0	1065353216	46	3894
2026-01-19 06:07:30.77	331.86	15.78	-37.8	-38.7	20.7	0.00e+00	0	42	0	1072693248	46	3902
2026-01-19 06:07:31.77	331.65	15.81	-37.7	-38.7	20.7	0.00e+00	0	42	0	1080033280	46	3887
2026-01-19 06:07:32.76	331.45	15.85	-37.8	-38.8	20.6	0.00e+00	0	42	0	1086324736	46	3944
2026-01-19 06:07:33.76	331.24	15.88	-38.0	-38.9	20.5	0.00e+00	0	42	0	1093664768	46	3999
2026-01-19 06:07:34.76	331.03	15.91	-38.0	-38.9	20.5	0.00e+00	0	42	0	1101004800	46	3989
2026-01-19 06:07:35.76	330.82	15.94	-37.9	-38.8	20.6	0.00e+00	0	42	0	1108344832	46	3948
2026-01-19 06:07:36.76	330.61	15.97	-37.9	-38.9	20.6	0.00e+00	0	42	0	1115684864	46	3980
2026-01-19 06:07:37.76	330.40	16.00	-37.9	-38.9	20.6	0.00e+00	0	42	0	1123024896	46	3968
2026-01-19 06:07:38.76	330.19	16.03	-38.0	-38.9	20.5	0.00e+00	0	42	0	1130364928	46	4003
2026-01-19 06:07:39.76	329.97	16.06	-38.0	-38.9	20.5	0.00e+00	0	42	0	1137704960	46	3999
2026-01-19 06:07:40.76	329.76	16.09	-38.0	-38.9	20.5	0.00e+00	0	42	0	1145044992	46	3982
2026-01-19 06:07:41.76	329.55	16.12	-37.9	-38.9	20.6	0.00e+00	0	42	0	1151336448	46	3961
2026-01-19 06:07:42.76	329.34	16.15	-37.9	-38.8	20.6	0.00e+00	0	42	0	1158676480	46	3942
2026-01-19 06:07:43.77	329.12	16.18	-38.0	-39.0	20.5	0.00e+00	0	42	0	1166016512	46	4012
2026-01-19 06:07:44.76	328.91	16.21	-38.0	-38.9	20.5	0.00e+00	0	42	0	1173356544	46	3997
2026-01-19 06:07:45.76	328.70	16.23	-37.8	-38.7	20.7	0.00e+00	0	42	0	1180696576	46	3907
2026-01-19 06:07:46.77	328.48	16.26	-37.8	-38.8	20.7	0.00e+00	0	42	0	1188036608	46	3918
2026-01-19 06:07:47.77	328.26	16.29	-37.8	-38.8	20.7	0.00e+00	0	42	0	1195376640	46	3919
2026-01-19 06:07:48.77	328.05	16.32	-37.6	-38.6	20.8	0.00e+00	0	42	0	1202716672	46	3839
2026-01-19 06:07:49.77	327.83	16.34	-37.7	-38.7	20.8	0.00e+00	0	42	0	1210056704	46	3878
2026-01-19 06:07:50.77	327.62	16.37	-37.7	-38.7	20.7	0.00e+00	0	42	0	1216348160	46	3897
2026-01-19 06:07:51.77	327.40	16.39	-37.5	-38.5	20.9	0.00e+00	0	42	0	1223688192	45	4037
2026-01-19 06:07:52.77	327.18	16.42	-37.6	-38.6	20.9	0.00e+00	0	42	0	1231028224	45	4070
2026-01-19 06:07:53.77	326.97	16.44	-37.4	-38.3	21.1	0.00e+00	0	42	0	1238368256	45	3953
2026-01-19 06:07:54.77	326.75	16.47	-37.4	-38.4	21.0	0.00e+00	0	42	0	1245708288	45	3983
2026-01-19 06:07:55.77	326.53	16.49	-37.5	-38.5	21.0	0.00e+00	0	42	0	1253048320	45	4007
2026-01-19 06:07:56.77	326.31	16.51	-37.4	-38.4	21.0	0.00e+00	0	42	0	1260388352	45	3999
2026-01-19 06:07:57.77	326.10	16.54	-37.3	-38.3	21.1	0.00e+00	0	42	0	1267728384	45	3939
2026-01-19 06:07:58.77	325.88	16.56	-37.3	-38.3	21.1	0.00e+00	0	42	0	1274019840	45	3938
2026-01-19 06:07:59.77	325.66	16.58	-37.3	-38.3	21.1	0.00e+00	0	42	0	1281359872	45	3915
2026-01-19 06:08:00.78	325.44	16.60	-37.4	-38.3	21.1	0.00e+00	0	42	0	1288699904	45	3956
2026-01-19 06:08:01.78	325.22	16.63	-37.4	-38.4	21.1	0.00e+00	0	42	0	1296039936	45	3970
2026-01-19 06:08:02.78	325.00	16.65	-37.5	-38.4	21.0	0.00e+00	0	42	0	1303379968	45	3994
2026-01-19 06:08:03.78	324.78	16.67	-37.5	-38.4	21.0	0.00e+00	0	42	0	1310720000	45	3990
2026-01-19 06:08:04.78	324.55	16.69	-37.4	-38.3	21.1	0.00e+00	0	42	0	1318060032	45	3934
2026-01-19 06:08:05.78	324.33	16.71	-37.4	-38.3	21.2	0.00e+00	0	42	0	1325400064	45	3919
2026-01-19 06:08:06.78	324.11	16.73	-37.4	-38.3	21.2	0.00e+00	0	42	0	1332740096	45	3917
2026-01-19 06:08:07.78	323.89	16.74	-37.2	-38.1	21.3	0.00e+00	0	42	0	1340080128	45	3865
2026-01-19 06:08:08.78	323.67	16.76	-37.3	-38.2	21.3	0.00e+00	0	42	0	1346371584	45	3874
2026-01-19 06:08:09.77	323.45	16.78	-37.2	-38.1	21.3	0.00e+00	0	42	0	1353711616	45	3838
2026-01-19 06:08:10.77	323.23	16.80	-37.2	-38.2	21.2	0.00e+00	0	42	0	1361051648	45	3874
2026-01-19 06:08:11.77	323.00	16.82	-37.2	-38.1	21.3	0.00e+00	0	42	0	1368391680	45	3839
2026-01-19 06:08:12.77	322.78	16.83	-36.9	-37.9	21.6	0.00e+00	0	42	0	1375731712	44	3959
2026-01-19 06:08:13.77	322.56	16.85	-37.0	-37.9	21.5	0.00e+00	0	42	0	1383071744	44	3969
2026-01-19 06:08:14.76	322.34	16.87	-36.9	-37.8	21.6	0.00e+00	0	42	0	1390411776	44	3938
2026-01-19 06:08:15.76	322.11	16.88	-36.9	-37.8	21.6	0.00e+00	0	42	0	1397751808	44	3946
2026-01-19 06:08:16.76	321.89	16.90	-36.9	-37.9	21.5	0.00e+00	0	42	0	1404043264	44	3966
2026-01-19 06:08:17.76	321.66	16.91	-37.0	-37.9	21.5	0.00e+00	0	42	0	1411383296	44	3993
2026-01-19 06:08:18.76	321.44	16.92	-37.1	-38.0	21.4	0.00e+00	0	42	0	1418723328	44	4041
2026-01-19 06:08:19.75	321.22	16.94	-37.2	-38.1	21.3	0.00e+00	0	42	0	1426063360	44	4082
2026-01-19 06:08:20.75	320.99	16.95	-37.3	-38.2	21.2	0.00e+00	0	42	0	1433403392	44	4128
2026-01-19 06:08:21.75	320.77	16.96	-37.3	-38.2	21.2	0.00e+00	0	42	0	1440743424	44	4145
2026-01-19 06:08:22.75	320.54	16.98	-37.3	-38.3	21.2	0.00e+00	0	42	0	1448083456	44	4156
2026-01-19 06:08:23.74	320.32	16.99	-37.3	-38.2	21.2	0.00e+00	0	42	0	1455423488	44	4117
2026-01-19 06:08:24.74	320.09	17.00	-37.2	-38.2	21.2	0.00e+00	0	42	0	1461714944	44	4100
2026-01-19 06:08:25.74	319.87	17.01	-37.1	-38.0	21.3	0.00e+00	0	42	0	1469054976	44	4050
2026-01-19 06:08:26.74	319.64	17.02	-37.2	-38.1	21.3	0.00e+00	0	42	0	1476395008	44	4077
2026-01-19 06:08:27.75	319.41	17.03	-37.1	-38.0	21.4	0.00e+00	0	42	0	1483735040	44	4028
2026-01-19 06:08:28.75	319.19	17.04	-37.0	-37.9	21.5	0.00e+00	0	42	0	1491075072	44	3989
2026-01-19 06:08:29.75	318.96	17.05	-37.0	-37.9	21.5	0.00e+00	0	42	0	1498415104	44	3961
2026-01-19 06:08:30.75	318.73	17.06	-37.0	-37.9	21.5	0.00e+00	0	42	0	1505755136	44	3965
2026-01-19 06:08:31.75	318.51	17.07	-36.9	-37.8	21.6	0.00e+00	0	42	0	1513095168	44	3942
2026-01-19 06:08:32.75	318.28	17.08	-37.0	-38.0	21.5	0.00e+00	0	42	0	1520435200	44	4005
2026-01-19 06:08:33.74	318.06	17.08	-37.0	-37.9	21.5	0.00e+00	0	42	0	1526726656	44	3991
2026-01-19 06:08:34.74	317.83	17.09	-37.0	-37.9	21.5	0.00e+00	0	42	0	1534066688	44	3999
2026-01-19 06:08:35.73	317.60	17.10	-37.0	-38.0	21.5	0.00e+00	0	42	0	1541406720	44	4005
2026-01-19 06:08:36.73	317.38	17.10	-36.9	-37.8	21.6	0.00e+00	0	42	0	1548746752	44	3934
2026-01-19 06:08:37.74	317.15	17.11	-36.9	-37.8	21.6	0.00e+00	0	42	0	1556086784	44	3931
2026-01-19 06:08:38.73	316.92	17.11	-36.9	-37.9	21.6	0.00e+00	0	42	0	1563426816	44	3962
2026-01-19 06:08:39.73	316.69	17.12	-36.8	-37.7	21.7	0.00e+00	0	42	0	1569718272	44	3883
2026-01-19 06:08:40.73	316.47	17.12	-36.8	-37.7	21.7	0.00e+00	0	42	0	1577058304	44	3893
2026-01-19 06:08:41.72	316.24	17.13	-36.9	-37.8	21.6	0.00e+00	0	42	0	1584398336	44	3943
2026-01-19 06:08:42.72	316.01	17.13	-37.0	-37.9	21.6	0.00e+00	0	42	0	1591738368	44	3959
2026-01-19 06:08:43.72	315.79	17.13	-37.0	-37.9	21.5	0.00e+00	0	42	0	1599078400	44	3970
2026-01-19 06:08:44.72	315.56	17.14	-37.0	-37.9	21.5	0.00e+00	0	42	0	1606418432	44	3970
2026-01-19 06:08:45.72	315.33	17.14	-37.0	-37.9	21.5	0.00e+00	0	42	0	1613758464	44	3988
2026-01-19 06:08:46.72	315.10	17.14	-37.1	-38.1	21.4	0.00e+00	0	42	0	1621098496	44	4052
2026-01-19 06:08:47.72	314.87	17.14	-37.1	-38.0	21.4	0.00e+00	0	42	0	1627389952	44	4039
2026-01-19 06:08:48.72	314.65	17.14	-37.2	-38.1	21.4	0.00e+00	0	42	0	1634729984	44	4069
2026-01-19 06:08:49.71	314.42	17.14	-37.3	-38.2	21.2	0.00e+00	0	42	0	1642070016	44	4128
2026-01-19 06:08:50.71	314.19	17.14	-37.3	-38.2	21.2	0.00e+00	0	42	0	1649410048	44	4139
2026-01-19 06:08:51.71	313.96	17.14	-37.3	-38.2	21.3	0.00e+00	0	42	0	1656750080	44	4107
2026-01-19 06:08:52.71	313.74	17.14	-37.4	-38.3	21.2	0.00e+00	0	42	0	1664090112	44	4160
2026-01-19 06:08:53.70	313.51	17.14	-37.3	-38.2	21.2	0.00e+00	0	42	0	1671430144	44	4135
2026-01-19 06:08:54.70	313.28	17.13	-37.3	-38.2	21.2	0.00e+00	0	42	0	1678770176	44	4142
2026-01-19 06:08:55.70	313.05	17.13	-37.5	-38.4	21.0	0.00e+00	0	42	0	1686110208	44	4216
2026-01-19 06:08:56.70	312.83	17.13	-37.4	-38.4	21.1	0.00e+00	0	42	0	1692401664	44	4203
2026-01-19 06:08:57.70	312.60	17.13	-37.4	-38.4	21.1	0.00e+00	0	42	0	1699741696	44	4202
2026-01-19 06:08:58.69	312.37	17.12	-37.5	-38.4	21.0	0.00e+00	0	42	0	1707081728	44	4236
2026-01-19 06:08:59.69	312.15	17.12	-37.6	-38.5	21.0	0.00e+00	0	42	0	1714421760	44	4261
2026-01-19 06:09:00.69	311.92	17.11	-37.5	-38.4	21.1	0.00e+00	0	42	0	1721761792	44	4231
2026-01-19 06:09:01.69	311.69	17.11	-37.3	-38.2	21.2	0.00e+00	0	42	0	1729101824	44	4112
2026-01-19 06:09:02.69	311.46	17.10	-37.2	-38.1	21.4	0.00e+00	0	42	0	1736441856	44	4056
2026-01-19 06:09:03.68	311.24	17.09	-37.1	-38.0	21.4	0.00e+00	0	42	0	1743781888	44	4027
2026-01-19 06:09:04.68	311.01	17.09	-37.1	-38.0	21.5	0.00e+00	0	42	0	1750073344	44	4017
2026-01-19 06:09:05.68	310.78	17.08	-37.1	-38.0	21.4	0.00e+00	0	42	0	1757413376	44	4026
2026-01-19 06:09:06.68	310.56	17.07	-37.1	-38.0	21.4	0.00e+00	0	42	0	1764753408	44	4014
2026-01-19 06:09:07.68	310.33	17.06	-37.2	-38.1	21.3	0.00e+00	0	42	0	1772093440	44	4074
2026-01-19 06:09:08.67	310.11	17.06	-37.2	-38.2	21.3	0.00e+00	0	42	0	1779433472	44	4099
2026-01-19 06:09:09.67	309.88	17.05	-37.2	-38.1	21.3	0.00e+00	0	42	0	1786773504	44	4080
2026-01-19 06:09:10.66	309.65	17.04	-37.4	-38.3	21.2	0.00e+00	0	42	0	1793064960	44	4154
2026-01-19 06:09:11.66	309.43	17.03	-37.3	-38.2	21.2	0.00e+00	0	42	0	1800404992	44	4124
2026-01-19 06:09:12.66	309.20	17.02	-37.3	-38.2	21.2	0.00e+00	0	42	0	1807745024	44	4144
2026-01-19 06:09:13.65	308.98	17.01	-37.3	-38.2	21.2	0.00e+00	0	42	0	1815085056	44	4137
2026-01-19 06:09:14.65	308.75	16.99	-37.1	-38.0	21.4	0.00e+00	0	42	0	1822425088	44	4041
2026-01-19 06:09:15.65	308.53	16.98	-37.0	-37.9	21.5	0.00e+00	0	42	0	1829765120	44	3982
2026-01-19 06:09:16.64	308.30	16.97	-37.1	-37.9	21.5	0.00e+00	0	42	0	1837105152	44	4002
2026-01-19 06:09:17.64	308.08	16.96	-37.0	-37.9	21.6	0.00e+00	0	42	0	1844445184	44	3970
2026-01-19 06:09:18.64	307.85	16.95	-37.0	-37.8	21.6	0.00e+00	0	42	0	1851785216	44	3956
2026-01-19 06:09:19.64	307.63	16.93	-37.1	-38.0	21.4	0.00e+00	0	42	0	1858076672	44	4005
2026-01-19 06:09:20.64	307.40	16.92	-37.0	-37.9	21.5	0.00e+00	0	42	0	1865416704	44	3978
2026-01-19 06:09:21.64	307.18	16.90	-37.2	-38.1	21.4	0.00e+00	0	43	0	1872756736	44	4058
2026-01-19 06:09:22.63	306.96	16.89	-37.2	-38.0	21.4	0.00e+00	0	42	0	1880096768	44	4045
2026-01-19 06:09:23.62	306.73	16.87	-37.2	-38.1	21.3	0.00e+00	0	42	0	1887436800	44	4080
2026-01-19 06:09:24.62	306.51	16.86	-37.4	-38.3	21.2	0.00e+00	0	42	0	1893728256	44	4148
2026-01-19 06:09:25.62	306.29	16.84	-37.4	-38.3	21.2	0.00e+00	0	42	0	1901068288	44	4168
2026-01-19 06:09:26.62	306.06	16.82	-37.4	-38.3	21.2	0.00e+00	0	42	0	1908408320	44	4151
2026-01-19 06:09:27.61	305.84	16.81	-37.4	-38.3	21.2	0.00e+00	0	42	0	1915748352	44	4159
2026-01-19 06:09:28.61	305.62	16.79	-37.4	-38.3	21.1	0.00e+00	0	42	0	1923088384	44	4176
2026-01-19 06:09:29.61	305.40	16.77	-37.4	-38.3	21.2	0.00e+00	0	42	0	1930428416	44	4171
2026-01-19 06:09:30.61	305.17	16.75	-37.4	-38.3	21.2	0.00e+00	0	42	0	1937768448	44	4164
2026-01-19 06:09:31.61	304.95	16.74	-37.4	-38.3	21.2	0.00e+00	0	42	0	1945108480	44	4159
2026-01-19 06:09:32.60	304.73	16.72	-37.5	-38.4	21.1	0.00e+00	0	42	0	1952448512	44	4219
2026-01-19 06:09:33.60	304.51	16.70	-37.5	-38.4	21.0	0.00e+00	0	42	0	1958739968	44	4238
2026-01-19 06:09:34.59	304.29	16.68	-37.4	-38.3	21.1	0.00e+00	0	42	0	1966080000	44	4177
2026-01-19 06:09:35.59	304.07	16.66	-37.4	-38.3	21.1	0.00e+00	0	42	0	1973420032	44	4171
2026-01-19 06:09:36.59	303.85	16.64	-37.5	-38.4	21.1	0.00e+00	0	42	0	1980760064	44	4204
2026-01-19 06:09:37.59	303.63	16.61	-37.5	-38.4	21.0	0.00e+00	0	42	0	1988100096	44	4237
2026-01-19 06:09:38.58	303.41	16.59	-37.5	-38.4	21.0	0.00e+00	0	43	0	1995440128	44	4231
2026-01-19 06:09:39.58	303.19	16.57	-37.7	-38.6	20.9	0.00e+00	0	42	0	2002780160	44	4316
2026-01-19 06:09:40.58	302.97	16.55	-37.6	-38.5	21.0	0.00e+00	0	42	0	2010120192	44	4266
2026-01-19 06:09:41.58	302.75	16.53	-37.6	-38.5	20.9	0.00e+00	0	42	0	2017460224	44	4286
2026-01-19 06:09:42.58	302.53	16.50	-37.5	-38.4	21.1	0.00e+00	0	42	0	2023751680	44	4219
2026-01-19 06:09:43.58	302.32	16.48	-37.6	-38.5	21.0	0.00e+00	0	42	0	2031091712	44	4253
2026-01-19 06:09:44.57	302.10	16.46	-37.7	-38.7	20.8	0.00e+00	0	42	0	2038431744	44	4345
2026-01-19 06:09:45.57	301.88	16.43	-37.6	-38.6	20.9	0.00e+00	0	42	0	2045771776	44	4293
2026-01-19 06:09:46.57	301.66	16.41	-37.7	-38.6	20.8	0.00e+00	0	42	0	2053111808	44	4326
2026-01-19 06:09:47.56	301.45	16.38	-37.7	-38.6	20.9	0.00e+00	0	42	0	2059403264	44	4315
2026-01-19 06:09:48.56	301.23	16.36	-37.7	-38.6	20.8	0.00e+00	0	42	0	2066743296	44	4322
2026-01-19 06:09:49.56	301.02	16.33	-37.7	-38.6	20.8	0.00e+00	0	42	0	2074083328	44	4325
2026-01-19 06:09:50.56	300.80	16.30	-37.9	-38.8	20.7	0.00e+00	0	43	0	2081423360	45	4165
2026-01-19 06:09:51.56	300.58	16.28	-37.7	-38.6	20.9	0.00e+00	0	42	0	2088763392	45	4071
2026-01-19 06:09:52.55	300.37	16.25	-37.6	-38.5	20.9	0.00e+00	0	42	0	2096103424	45	4027
2026-01-19 06:09:53.55	300.16	16.22	-37.6	-38.6	20.9	0.00e+00	0	42	0	2103443456	45	4060
2026-01-19 06:09:54.54	299.94	16.19	-37.6	-38.5	20.9	0.00e+00	0	42	0	2110783488	45	4026
2026-01-19 06:09:55.54	299.73	16.17	-37.6	-38.6	20.9	0.00e+00	0	42	0	2118123520	45	4057
2026-01-19 06:09:56.54	299.52	16.14	-37.7	-38.6	20.8	0.00e+00	0	42	0	2124414976	45	4081
2026-01-19 06:09:57.54	299.30	16.11	-37.7	-38.6	20.8	0.00e+00	0	42	0	2131755008	45	4088
2026-01-19 06:09:58.53	299.09	16.08	-37.7	-38.6	20.9	0.00e+00	0	42	0	2139095040	45	4077
2026-01-19 06:09:59.53	298.88	16.05	-37.7	-38.6	20.8	0.00e+00	0	42	0	2146435072	45	4076
2026-01-19 06:10:00.52	298.67	16.02	-37.6	-38.5	20.9	0.00e+00	0	42	0	2153775104	45	4039
2026-01-19 06:10:01.52	298.46	15.99	-37.6	-38.5	20.9	0.00e+00	0	42	0	2161115136	45	4028
2026-01-19 06:10:02.52	298.25	15.96	-37.7	-38.6	20.8	0.00e+00	0	42	0	2167406592	45	4064
2026-01-19 06:10:03.51	298.04	15.93	-37.6	-38.5	20.7	0.00e+00	0	43	0	2174746624	45	4041
2026-01-19 06:10:04.51	297.83	15.90	-37.6	-38.6	20.9	0.00e+00	0	42	0	2182086656	45	4057
2026-01-19 06:10:05.51	297.62	15.86	-37.8	-38.7	20.8	0.00e+00	0	42	0	2189426688	45	4117
2026-01-19 06:10:06.51	297.41	15.83	-37.7	-38.7	20.8	0.00e+00	0	42	0	2196766720	45	4103
2026-01-19 06:10:07.50	297.20	15.80	-37.8	-38.7	20.8	0.00e+00	0	42	0	2204106752	45	4116
2026-01-19 06:10:08.50	297.00	15.77	-37.9	-38.8	20.6	0.00e+00	0	42	0	2211446784	45	4169
2026-01-19 06:10:09.50	296.79	15.73	-37.9	-38.8	20.7	0.00e+00	0	42	0	2218786816	45	4173
2026-01-19 06:10:10.50	296.58	15.70	-37.9	-38.8	20.7	0.00e+00	0	42	0	2225078272	45	4181
2026-01-19 06:10:11.49	296.38	15.67	-37.9	-38.8	20.6	0.00e+00	0	42	0	2232418304	45	4183
2026-01-19 06:10:12.49	296.17	15.63	-37.9	-38.8	20.6	0.00e+00	0	43	0	2239758336	45	4179
2026-01-19 06:10:13.49	295.96	15.60	-37.9	-38.9	20.6	0.00e+00	0	42	0	2247098368	45	4197
2026-01-19 06:10:14.49	295.76	15.56	-37.8	-38.7	20.7	0.00e+00	0	42	0	2254438400	45	4143
2026-01-19 06:10:15.49	295.55	15.53	-37.7	-38.6	20.9	0.00e+00	0	42	0	2261778432	45	4065
2026-01-19 06:10:16.49	295.35	15.49	-37.7	-38.6	20.9	0.00e+00	0	42	0	2269118464	45	4066
2026-01-19 06:10:17.49	295.14	15.46	-37.8	-38.7	20.8	0.00e+00	0	42	0	2276458496	45	4123
2026-01-19 06:10:18.49	294.94	15.42	-37.8	-38.7	20.7	0.00e+00	0	42	0	2283798528	45	4136
2026-01-19 06:10:19.49	294.74	15.38	-37.9	-38.8	20.6	0.00e+00	0	42	0	2290089984	45	4191
2026-01-19 06:10:20.48	294.54	15.35	-38.1	-39.0	20.5	0.00e+00	0	42	0	2297430016	45	4267
2026-01-19 06:10:21.47	294.34	15.31	-38.0	-39.0	20.5	0.00e+00	0	42	0	2304770048	45	4256
2026-01-19 06:10:22.47	294.13	15.27	-38.1	-39.1	20.4	0.00e+00	0	42	0	2312110080	45	4308
2026-01-19 06:10:23.47	293.93	15.24	-38.2	-39.1	20.4	0.00e+00	0	43	0	2319450112	45	4312
2026-01-19 06:10:24.47	293.73	15.20	-38.3	-39.2	20.3	0.00e+00	0	42	0	2325741568	46	4128
2026-01-19 06:10:25.46	293.53	15.16	-38.2	-39.2	20.3	0.00e+00	0	42	0	2333081600	46	4111
2026-01-19 06:10:26.46	293.34	15.12	-38.1	-39.1	20.5	0.00e+00	0	42	0	2340421632	46	4060
2026-01-19 06:10:27.46	293.14	15.08	-38.2	-39.1	20.4	0.00e+00	0	43	0	2347761664	46	4071
2026-01-19 06:10:28.46	292.94	15.04	-38.1	-39.0	20.5	0.00e+00	0	43	0	2355101696	46	4033
2026-01-19 06:10:29.46	292.74	15.00	-37.9	-38.8	20.7	0.00e+00	0	43	0	2362441728	46	3935
2026-01-19 06:10:30.45	292.54	14.97	-37.8	-38.7	20.8	0.00e+00	0	42	0	2369781760	46	3905
2026-01-19 06:10:31.45	292.35	14.93	-37.8	-38.7	20.7	0.00e+00	0	42	0	2377121792	46	3900
2026-01-19 06:10:32.45	292.15	14.89	-37.8	-38.7	20.8	0.00e+00	0	43	0	2384461824	46	3898
2026-01-19 06:10:33.45	291.95	14.84	-37.9	-38.8	20.7	0.00e+00	0	42	0	2390753280	46	3948
2026-01-19 06:10:34.45	291.76	14.80	-38.0	-38.9	20.5	0.00e+00	0	42	0	2398093312	46	3995
2026-01-19 06:10:35.44	291.57	14.76	-38.0	-38.9	20.6	0.00e+00	0	42	0	2405433344	46	3989
2026-01-19 06:10:36.44	291.37	14.72	-38.1	-39.0	20.5	0.00e+00	0	42	0	2412773376	46	4038
2026-01-19 06:10:37.44	291.18	14.68	-38.1	-39.1	20.5	0.00e+00	0	42	0	2420113408	46	4058
2026-01-19 06:10:38.44	290.99	14.64	-38.2	-39.1	20.4	0.00e+00	0	42	0	2427453440	46	4082
2026-01-19 06:10:39.43	290.79	14.60	-38.2	-39.1	20.4	0.00e+00	0	42	0	2434793472	46	4098
2026-01-19 06:10:40.43	290.60	14.56	-38.1	-39.0	20.5	0.00e+00	0	42	0	2442133504	46	4050
2026-01-19 06:10:41.43	290.41	14.51	-38.2	-39.2	20.3	0.00e+00	0	43	0	2448424960	46	4121
2026-01-19 06:10:42.42	290.22	14.47	-38.2	-39.2	20.3	0.00e+00	0	42	0	2455764992	46	4122
2026-01-19 06:10:43.42	290.03	14.43	-38.2	-39.1	20.4	0.00e+00	0	43	0	2463105024	46	4090
2026-01-19 06:10:44.42	289.84	14.38	-38.2	-39.2	20.4	0.00e+00	0	42	0	2470445056	46	4101
2026-01-19 06:10:45.41	289.65	14.34	-38.4	-39.4	20.2	0.00e+00	0	42	0	2477785088	46	4199
2026-01-19 06:10:46.41	289.47	14.30	-38.4	-39.3	20.2	0.00e+00	0	42	0	2485125120	46	4178
2026-01-19 06:10:47.41	289.28	14.25	-38.2	-39.2	20.4	0.00e+00	0	42	0	2491416576	46	4110
2026-01-19 06:10:48.40	289.09	14.21	-38.2	-39.1	20.4	0.00e+00	0	42	0	2498756608	46	4093
2026-01-19 06:10:49.40	288.90	14.17	-38.3	-39.3	20.2	0.00e+00	0	42	0	2506096640	46	4165
2026-01-19 06:10:50.40	288.72	14.12	-38.3	-39.3	20.3	0.00e+00	0	42	0	2513436672	46	4157
2026-01-19 06:10:51.40	288.53	14.08	-38.4	-39.3	20.2	0.00e+00	0	42	0	2520776704	46	4178
2026-01-19 06:10:52.39	288.35	14.03	-38.4	-39.4	20.2	0.00e+00	0	42	0	2528116736	46	4199
2026-01-19 06:10:53.39	288.16	13.99	-38.4	-39.3	20.2	0.00e+00	0	42	0	2535456768	46	4191
2026-01-19 06:10:54.39	287.98	13.94	-38.3	-39.3	20.3	0.00e+00	0	42	0	2542796800	46	4152
2026-01-19 06:10:55.39	287.80	13.90	-38.4	-39.3	20.2	0.00e+00	0	42	0	2550136832	46	4185
2026-01-19 06:10:56.39	287.61	13.85	-38.3	-39.2	20.3	0.00e+00	0	42	0	2556428288	46	4130
2026-01-19 06:10:57.38	287.43	13.80	-38.3	-39.2	20.3	0.00e+00	0	42	0	2563768320	46	4129
2026-01-19 06:10:58.38	287.25	13.76	-38.3	-39.2	20.3	0.00e+00	0	42	0	2571108352	46	4141
2026-01-19 06:10:59.38	287.07	13.71	-38.2	-39.2	20.3	0.00e+00	0	42	0	2578448384	46	4115
2026-01-19 06:11:00.38	286.89	13.67	-38.4	-39.4	20.1	0.00e+00	0	43	0	2585788416	46	4202
2026-01-19 06:11:01.38	286.71	13.62	-38.3	-39.2	20.3	0.00e+00	0	43	0	2593128448	46	4130
2026-01-19 06:11:02.37	286.53	13.57	-38.3	-39.3	20.2	0.00e+00	0	42	0	2599419904	46	4148
2026-01-19 06:11:03.37	286.35	13.52	-38.3	-39.3	20.2	0.00e+00	0	42	0	2606759936	46	4154
2026-01-19 06:11:04.37	286.17	13.48	-38.4	-39.3	20.2	0.00e+00	0	42	0	2614099968	46	4182
2026-01-19 06:11:05.36	285.99	13.43	-38.2	-39.2	20.3	0.00e+00	0	43	0	2621440000	46	4119
2026-01-19 06:11:06.36	285.82	13.38	-38.3	-39.2	20.2	0.00e+00	0	42	0	2628780032	46	4140
2026-01-19 06:11:07.36	285.64	13.33	-38.3	-39.2	20.3	0.00e+00	0	42	0	2636120064	46	4136
2026-01-19 06:11:08.35	285.47	13.29	-38.2	-39.2	20.3	0.00e+00	0	42	0	2643460096	46	4105
2026-01-19 06:11:09.35	285.29	13.24	-38.3	-39.3	20.2	0.00e+00	0	42	0	2650800128	46	4167
2026-01-19 06:11:10.35	285.11	13.19	-38.2	-39.2	20.3	0.00e+00	0	42	0	2657091584	46	4108
2026-01-19 06:11:11.35	284.94	13.14	-38.2	-39.2	20.3	0.00e+00	0	43	0	2664431616	46	4107
2026-01-19 06:11:12.34	284.77	13.09	-38.2	-39.2	20.4	0.00e+00	0	42	0	2671771648	46	4101
2026-01-19 06:11:13.34	284.59	13.04	-38.1	-39.1	20.4	0.00e+00	0	43	0	2679111680	46	4058
2026-01-19 06:11:14.34	284.42	13.00	-38.1	-39.0	20.5	0.00e+00	0	43	0	2686451712	46	4043
2026-01-19 06:11:15.33	284.25	12.95	-38.2	-39.2	20.3	0.00e+00	0	42	0	2693791744	46	4120
2026-01-19 06:11:16.33	284.08	12.90	-38.2	-39.1	20.4	0.00e+00	0	43	0	2701131776	46	4088
2026-01-19 06:11:17.33	283.91	12.85	-38.1	-39.1	20.4	0.00e+00	0	43	0	2708471808	46	4065
2026-01-19 06:11:18.33	283.74	12.80	-38.2	-39.1	20.4	0.00e+00	0	43	0	2714763264	46	4086
2026-01-19 06:11:19.32	283.57	12.75	-38.2	-39.2	20.3	0.00e+00	0	42	0	2722103296	46	4117
2026-01-19 06:11:20.31	283.40	12.70	-38.3	-39.3	20.2	0.00e+00	0	42	0	2729443328	46	4165
2026-01-19 06:11:21.30	283.24	12.65	-38.4	-39.3	20.2	0.00e+00	0	42	0	2736783360	46	4193
2026-01-19 06:11:22.30	283.07	12.60	-38.5	-39.4	20.1	0.00e+00	0	42	0	2744123392	46	4240
2026-01-19 06:11:23.30	282.90	12.55	-38.5	-39.5	20.0	0.00e+00	0	42	0	2751463424	46	4271
2026-01-19 06:11:24.29	282.73	12.50	-38.6	-39.6	19.9	0.00e+00	0	42	0	2758803456	46	4302
2026-01-19 06:11:25.29	282.57	12.45	-38.6	-39.5	20.0	0.00e+00	0	43	0	2765094912	46	4285
2026-01-19 06:11:26.29	282.40	12.40	-38.6	-39.6	19.9	0.00e+00	0	42	0	2772434944	46	4327
2026-01-19 06:11:27.28	282.24	12.35	-38.7	-39.7	19.8	0.00e+00	0	43	0	2779774976	47	4104
2026-01-19 06:11:28.28	282.07	12.30	-38.8	-39.8	19.7	0.00e+00	0	42	0	2787115008	47	4149
2026-01-19 06:11:29.28	281.91	12.24	-38.7	-39.7	19.8	0.00e+00	0	42	0	2794455040	47	4117
2026-01-19 06:11:30.27	281.75	12.19	-38.8	-39.8	19.7	0.00e+00	0	42	0	2800746496	47	4169
2026-01-19 06:11:31.27	281.58	12.14	-38.8	-39.8	19.7	0.00e+00	0	43	0	2808086528	47	4182
2026-01-19 06:11:32.27	281.42	12.09	-38.8	-39.8	19.6	0.00e+00	0	42	0	2815426560	47	4173
2026-01-19 06:11:33.26	281.26	12.04	-38.7	-39.7	19.8	0.00e+00	0	42	0	2822766592	47	4125
2026-01-19 06:11:34.25	281.10	11.99	-38.7	-39.7	19.8	0.00e+00	0	43	0	2830106624	47	4101
2026-01-19 06:11:35.25	280.94	11.94	-38.7	-39.6	19.8	0.00e+00	0	42	0	2837446656	47	4092
2026-01-19 06:11:36.24	280.78	11.89	-38.7	-39.7	19.8	0.00e+00	0	42	0	2844786688	47	4105
2026-01-19 06:11:37.24	280.62	11.83	-38.7	-39.7	19.8	0.00e+00	0	42	0	2852126720	47	4110
2026-01-19 06:11:38.24	280.46	11.78	-38.6	-39.6	19.8	0.00e+00	0	42	0	2859466752	47	4077
2026-01-19 06:11:39.24	280.31	11.73	-38.5	-39.5	20.0	0.00e+00	0	43	0	2865758208	47	4011
2026-01-19 06:11:40.24	280.15	11.68	-38.6	-39.5	19.9	0.00e+00	0	42	0	2873098240	47	4043
2026-01-19 06:11:41.24	279.99	11.62	-38.6	-39.6	19.9	0.00e+00	0	42	0	2880438272	47	4077
2026-01-19 06:11:42.24	279.83	11.57	-38.7	-39.7	19.8	0.00e+00	0	43	0	2887778304	47	4099
2026-01-19 06:11:43.23	279.68	11.52	-38.7	-39.7	19.8	0.00e+00	0	42	0	2895118336	47	4112
2026-01-19 06:11:44.23	279.52	11.47	-38.7	-39.7	19.8	0.00e+00	0	42	0	2902458368	47	4132
2026-01-19 06:11:45.23	279.37	11.41	-38.6	-39.6	19.9	0.00e+00	0	42	0	2909798400	47	4080
2026-01-19 06:11:46.23	279.21	11.36	-38.8	-39.8	19.7	0.00e+00	0	42	0	2916089856	47	4171
2026-01-19 06:11:47.23	279.06	11.31	-39.0	-40.0	19.4	0.00e+00	0	43	0	2923429888	47	4285
2026-01-19 06:11:48.22	278.91	11.26	-38.8	-39.8	19.7	0.00e+00	0	42	0	2930769920	47	4150
2026-01-19 06:11:49.22	278.75	11.20	-38.9	-39.9	19.6	0.00e+00	0	43	0	2938109952	47	4204
2026-01-19 06:11:50.21	278.60	11.15	-38.8	-39.8	19.7	0.00e+00	0	43	0	2945449984	47	4175
2026-01-19 06:11:51.20	278.45	11.10	-38.8	-39.8	19.7	0.00e+00	0	42	0	2952790016	47	4167
2026-01-19 06:11:52.20	278.30	11.04	-38.8	-39.8	19.7	0.00e+00	0	42	0	2960130048	47	4155
2026-01-19 06:11:53.20	278.15	10.99	-38.8	-39.8	19.6	0.00e+00	0	42	0	2966421504	47	4176
2026-01-19 06:11:54.20	278.00	10.94	-39.0	-40.0	19.5	0.00e+00	0	42	0	2973761536	47	4252
2026-01-19 06:11:55.19	277.85	10.88	-38.8	-39.8	19.6	0.00e+00	0	42	0	2981101568	47	4184
2026-01-19 06:11:56.19	277.71	10.83	-38.9	-39.9	19.5	0.00e+00	0	42	0	2988441600	47	4217
2026-01-19 06:11:57.18	277.56	10.78	-39.0	-40.0	19.5	0.00e+00	0	42	0	2995781632	47	4252
2026-01-19 06:11:58.18	277.41	10.72	-38.9	-39.9	19.5	0.00e+00	0	42	0	3003121664	47	4216
2026-01-19 06:11:59.18	277.26	10.67	-39.0	-40.0	19.5	0.00e+00	0	42	0	3010461696	47	4270
2026-01-19 06:12:00.17	277.12	10.61	-38.9	-40.0	19.5	0.00e+00	0	42	0	3016753152	47	4246
2026-01-19 06:12:01.17	276.97	10.56	-38.9	-39.9	19.5	0.00e+00	0	42	0	3024093184	47	4233
2026-01-19 06:12:02.17	276.83	10.51	-38.9	-39.9	19.5	0.00e+00	0	42	0	3031433216	47	4237
2026-01-19 06:12:03.16	276.68	10.45	-39.0	-40.1	19.4	0.00e+00	0	42	0	3038773248	47	4292
2026-01-19 06:12:04.16	276.54	10.40	-38.9	-39.9	19.5	0.00e+00	0	43	0	3046113280	47	4226
2026-01-19 06:12:05.16	276.39	10.34	-39.0	-40.0	19.4	0.00e+00	0	42	0	3053453312	47	4285
2026-01-19 06:12:06.16	276.25	10.29	-39.0	-40.0	19.4	0.00e+00	0	43	0	3060793344	47	4286
2026-01-19 06:12:07.15	276.11	10.24	-39.0	-40.0	19.4	0.00e+00	0	43	0	3067084800	47	4285
2026-01-19 06:12:08.15	275.97	10.18	-39.1	-40.1	19.3	0.00e+00	0	43	0	3074424832	47	4318
2026-01-19 06:12:09.15	275.82	10.13	-39.0	-40.1	19.4	0.00e+00	0	43	0	3081764864	47	4300
2026-01-19 06:12:10.14	275.68	10.07	-39.1	-40.1	19.3	0.00e+00	0	42	0	3089104896	47	4339
2026-01-19 06:12:11.14	275.54	10.02	-39.1	-40.1	19.3	0.00e+00	0	42	0	3096444928	47	4313
2026-01-19 06:12:12.13	275.41	9.96	-39.0	-40.0	19.4	0.00e+00	0	42	0	3103784960	47	4286
2026-01-19 06:12:13.13	275.27	9.91	-39.1	-40.2	19.2	0.00e+00	0	43	0	3111124992	47	4368
2026-01-19 06:12:14.12	275.13	9.86	-39.1	-40.2	19.2	0.00e+00	0	42	0	3117416448	47	4349
2026-01-19 06:12:15.12	274.99	9.80	-39.3	-40.3	19.1	0.00e+00	0	42	0	3124756480	47	4432
2026-01-19 06:12:16.11	274.85	9.75	-39.4	-40.4	19.2	0.00e+00	0	42	0	3132096512	48	4233
2026-01-19 06:12:17.11	274.71	9.69	-39.4	-40.4	19.2	0.00e+00	0	43	0	3139436544	48	4219
2026-01-19 06:12:18.11	274.58	9.64	-39.5	-40.5	19.1	0.00e+00	0	42	0	3146776576	48	4283
2026-01-19 06:12:19.11	274.44	9.58	-39.5	-40.6	19.1	0.00e+00	0	42	0	3154116608	48	4298
2026-01-19 06:12:20.10	274.31	9.53	-39.5	-40.5	19.1	0.00e+00	0	42	0	3161456640	48	4277
2026-01-19 06:12:21.09	274.17	9.47	-39.5	-40.5	19.1	0.00e+00	0	43	0	3168796672	48	4273
2026-01-19 06:12:22.09	274.04	9.42	-39.4	-40.5	19.1	0.00e+00	0	42	0	3175088128	48	4263
2026-01-19 06:12:23.09	273.90	9.36	-39.3	-40.3	19.3	0.00e+00	0	42	0	3182428160	48	4174
2026-01-19 06:12:24.08	273.77	9.31	-39.3	-40.3	19.3	0.00e+00	0	42	0	3189768192	48	4181
2026-01-19 06:12:25.08	273.64	9.25	-39.3	-40.4	19.2	0.00e+00	0	43	0	3197108224	48	4204
2026-01-19 06:12:26.07	273.50	9.20	-39.2	-40.2	19.4	0.00e+00	0	43	0	3204448256	48	4121
2026-01-19 06:12:27.07	273.37	9.14	-39.3	-40.3	19.3	0.00e+00	0	42	0	3210739712	48	4177
2026-01-19 06:12:28.06	273.24	9.09	-39.2	-40.2	19.3	0.00e+00	0	43	0	3218079744	48	4142
2026-01-19 06:12:29.07	273.11	9.03	-39.3	-40.3	19.3	0.00e+00	0	42	0	3225419776	48	4182
2026-01-19 06:12:30.07	272.98	8.98	-49.6	-57.2	3.9	3.30e-01	0	43	104	3231711232	69	8743
2026-01-19 06:12:31.07	272.85	8.92	-50.4	-61.0	3.8	8.48e-01	0	42	104	3231711232	70	12712
2026-01-19 06:12:32.06	272.72	8.87	-50.4	-61.4	3.8	8.47e-01	0	42	104	3231711232	70	13310
2026-01-19 06:12:33.06	272.59	8.81	-50.7	-61.5	3.8	8.47e-01	0	42	104	3231711232	70	13551
2026-01-19 06:12:34.06	272.46	8.76	-50.7	-61.6	3.8	8.46e-01	0	42	104	3231711232	70	13636
2026-01-19 06:12:35.05	272.33	8.70	-50.8	-61.6	3.8	8.47e-01	0	43	104	3231711232	71	12935
2026-01-19 06:12:36.05	272.20	8.65	-50.9	-61.6	3.8	8.47e-01	0	43	104	3231711232	71	12912
2026-01-19 06:12:37.05	272.08	8.59	-50.9	-61.6	3.8	8.48e-01	0	42	104	3231711232	71	12916
2026-01-19 06:12:38.05	271.95	8.54	-51.1	-61.7	3.8	8.45e-01	0	43	104	3231711232	71	13059
2026-01-19 06:12:39.05	271.82	8.48	-51.0	-61.7	3.8	8.46e-01	0	43	104	3231711232	71	13057
2026-01-19 06:12:40.05	271.70	8.43	-51.0	-61.7	3.8	8.47e-01	0	43	104	3231711232	71	13038
2026-01-19 06:12:41.05	271.57	8.37	-51.0	-61.7	3.8	8.46e-01	0	42	104	3231711232	71	13067
2026-01-19 06:12:42.04	271.45	8.32	-51.0	-61.7	3.8	8.46e-01	0	43	104	3231711232	71	12967
2026-01-19 06:12:43.04	271.32	8.26	-51.0	-61.6	3.8	8.47e-01	0	43	104	3231711232	71	12929
2026-01-19 06:12:44.04	271.20	8.21	-51.0	-61.7	3.8	8.46e-01	0	43	104	3231711232	71	12970
2026-01-19 06:12:45.04	271.08	8.15	-51.0	-61.6	3.8	8.47e-01	0	43	104	3231711232	71	12953
2026-01-19 06:12:46.04	270.95	8.10	-51.0	-61.7	3.8	8.46e-01	0	43	104	3231711232	71	13058
2026-01-19 06:12:47.04	270.83	8.04	-51.0	-61.7	3.8	8.47e-01	0	43	104	3231711232	71	13032
2026-01-19 06:12:48.03	270.71	7.99	-51.0	-61.7	3.8	8.48e-01	0	43	104	3231711232	71	13038
2026-01-19 06:12:49.03	270.59	7.93	-51.0	-61.7	3.8	8.47e-01	0	42	104	3231711232	71	13053
2026-01-19 06:12:50.03	270.47	7.87	-51.0	-61.6	3.8	8.47e-01	0	43	104	3231711232	71	12930
2026-01-19 06:12:51.03	270.35	7.82	-50.9	-61.7	3.8	8.47e-01	0	43	104	3231711232	71	13030
2026-01-19 06:12:52.03	270.22	7.76	-50.9	-61.7	3.8	8.47e-01	0	43	104	3231711232	71	12993
2026-01-19 06:12:53.03	270.10	7.71	-50.9	-61.7	3.8	8.48e-01	0	43	104	3231711232	71	12976
2026-01-19 06:12:54.03	269.99	7.65	-50.8	-61.6	3.8	8.47e-01	0	43	104	3231711232	71	12959
2026-01-19 06:12:55.03	269.87	7.60	-50.8	-61.6	3.8	8.47e-01	0	43	104	3231711232	71	12872
2026-01-19 06:12:56.02	269.75	7.54	-50.9	-61.7	3.8	8.46e-01	0	43	104	3231711232	71	12974
2026-01-19 06:12:57.02	269.63	7.49	-50.9	-61.5	3.8	8.46e-01	0	43	104	3231711232	71	12806
2026-01-19 06:12:58.02	269.51	7.43	-50.9	-61.5	3.8	8.46e-01	0	43	104	3231711232	71	12807
2026-01-19 06:12:59.02	269.40	7.38	-50.9	-61.6	3.8	8.46e-01	0	43	104	3231711232	71	12864
2026-01-19 06:13:00.01	269.28	7.32	-50.9	-61.6	3.8	8.47e-01	0	43	104	3231711232	71	12844
2026-01-19 06:13:01.01	269.16	7.27	-50.8	-61.6	3.8	8.47e-01	0	43	104	3231711232	71	12819
2026-01-19 06:13:02.01	269.05	7.21	-50.8	-61.6	3.8	8.47e-01	0	43	104	3231711232	71	12814
2026-01-19 06:13:03.00	268.93	7.16	-50.5	-61.6	3.8	8.48e-01	0	43	104	3231711232	71	12814
2026-01-19 06:13:04.00	268.82	7.10	-50.5	-61.5	3.8	8.46e-01	0	43	104	3231711232	71	12750
2026-01-19 06:13:05.00	268.71	7.05	-50.5	-61.5	3.8	8.47e-01	0	43	104	3231711232	71	12722
2026-01-19 06:13:06.00	268.59	6.99	-50.5	-61.6	3.8	8.46e-01	0	43	104	3231711232	71	12877
2026-01-19 06:13:07.00	268.48	6.94	-50.5	-61.5	3.8	8.47e-01	0	43	104	3231711232	71	12754
2026-01-19 06:13:08.00	268.36	6.88	-50.5	-61.5	3.8	8.47e-01	0	43	104	3231711232	71	12791
2026-01-19 06:13:08.99	268.25	6.83	-50.5	-61.6	3.8	8.47e-01	0	42	104	3231711232	71	12815
2026-01-19 06:13:09.99	268.14	6.77	-50.5	-61.5	3.8	8.47e-01	0	43	104	3231711232	71	12728
2026-01-19 06:13:10.99	268.03	6.71	-50.5	-61.5	3.8	8.47e-01	0	43	104	3231711232	71	12733
2026-01-19 06:13:11.98	267.92	6.66	-50.5	-61.5	3.8	8.47e-01	0	43	104	3231711232	71	12744
2026-01-19 06:13:12.98	267.81	6.61	-50.5	-61.5	3.8	8.46e-01	0	43	104	3231711232	71	12780
2026-01-19 06:13:13.98	267.70	6.55	-50.5	-61.5	3.8	8.47e-01	0	42	104	3231711232	71	12781
2026-01-19 06:13:14.97	267.59	6.50	-50.5	-61.5	3.8	8.47e-01	0	43	104	3231711232	71	12768
2026-01-19 06:13:15.97	267.48	6.44	-50.5	-61.5	3.8	8.47e-01	0	42	104	3231711232	71	12759
2026-01-19 06:13:16.97	267.37	6.39	-50.5	-61.6	3.8	8.47e-01	0	43	104	3231711232	71	12853
2026-01-19 06:13:17.96	267.26	6.33	-50.5	-61.5	3.8	8.48e-01	0	42	104	3231711232	71	12788
2026-01-19 06:13:18.95	267.15	6.28	-50.5	-61.5	3.8	8.47e-01	0	43	104	3231711232	71	12758
2026-01-19 06:13:19.95	267.05	6.22	-50.5	-61.5	3.8	8.47e-01	0	43	104	3231711232	71	12738
2026-01-19 06:13:20.95	266.94	6.17	-50.5	-61.6	3.8	8.47e-01	0	43	104	3231711232	71	12834
2026-01-19 06:13:21.94	266.83	6.11	-50.5	-61.5	3.8	8.47e-01	0	43	104	3231711232	71	12790
2026-01-19 06:13:22.94	266.73	6.06	-50.5	-61.5	3.8	8.47e-01	0	43	104	3231711232	71	12768
2026-01-19 06:13:23.94	266.62	6.00	-50.5	-61.5	3.8	8.46e-01	0	43	104	3231711232	71	12774
2026-01-19 06:13:24.93	266.51	5.95	-50.5	-61.5	3.8	8.47e-01	0	43	104	3231711232	71	12765
2026-01-19 06:13:25.93	266.41	5.89	-50.5	-61.5	3.8	8.47e-01	0	43	104	3231711232	71	12765
2026-01-19 06:13:26.93	266.30	5.84	-50.5	-61.5	3.8	8.46e-01	0	43	104	3231711232	71	12753
2026-01-19 06:13:27.93	266.20	5.78	-50.5	-61.5	3.8	8.46e-01	0	43	104	3231711232	71	12766
2026-01-19 06:13:28.93	266.09	5.73	-50.5	-61.5	3.8	8.46e-01	0	43	104	3231711232	71	12719
2026-01-19 06:13:29.92	265.99	5.67	-50.5	-61.6	3.8	8.45e-01	0	43	104	3231711232	71	12837
2026-01-19 06:13:30.92	265.89	5.62	-50.5	-61.5	3.8	8.47e-01	0	43	104	3231711232	71	12735
2026-01-19 06:13:31.92	265.79	5.56	-50.5	-61.5	3.8	8.47e-01	0	42	104	3231711232	71	12740
2026-01-19 06:13:32.92	265.68	5.51	-50.5	-61.5	3.8	8.46e-01	0	43	104	3231711232	71	12734
2026-01-19 06:13:33.91	265.58	5.46	-50.5	-61.5	3.8	8.46e-01	0	43	104	3231711232	71	12781
2026-01-19 06:13:34.91	265.48	5.40	-50.5	-61.6	3.8	8.47e-01	0	43	104	3231711232	71	12814
2026-01-19 06:13:35.91	265.38	5.35	-50.5	-61.6	3.8	8.47e-01	0	43	104	3231711232	71	12816
2026-01-19 06:13:36.90	265.28	5.29	-50.5	-61.6	3.8	8.46e-01	0	43	104	3231711232	71	12829
2026-01-19 06:13:37.90	265.18	5.24	-50.5	-61.5	3.8	8.47e-01	0	43	104	3231711232	71	12724
2026-01-19 06:13:38.90	265.08	5.18	-50.4	-61.5	3.8	8.48e-01	0	43	104	3231711232	71	12772
2026-01-19 06:13:39.90	264.98	5.13	-50.5	-61.5	3.8	8.46e-01	0	43	104	3231711232	71	12665
2026-01-19 06:13:40.90	264.88	5.07	-50.4	-61.5	3.8	8.47e-01	0	43	104	3231711232	71	12682
2026-01-19 06:13:41.89	264.78	5.02	-50.4	-61.5	3.8	8.47e-01	0	43	104	3231711232	71	12767
2026-01-19 06:13:42.89	264.68	4.97	-50.4	-61.5	3.8	8.46e-01	0	43	104	3231711232	71	12700

#Closed at: 2026-01-19 06:13:43
#Recorded file [3231 MB]: D:/Data/31040_260119_090358.dat