passes_logs/2026/01/19/T1/T1__20260119_002058_NOAA_20_JPSS-1_rec.log

#Pass ID: 20260119_002058_NOAA 20 (JPSS-1)
#Satellite: NOAA 20 (JPSS-1)
#Configuration: NOAA 20
#almurnet v.1.7.20251203
#Start time: 2026-01-19 00:20:58

#Version: 2.0.20230620
#Station: T1
#Location: 37.570604 lon 55.790049 lat
#TLE: 1 43013U 17073A   26017.93796159  .00000077  00000+0  57252-4 0  9992
#TLE: 2 43013  98.7639 318.8464 0001390  34.9771 325.1496 14.19536703423157

#Time	Az	El	Level	Level2	SNR	BER	BlckErr	Temp	State	Recorded	gain1	gain2
2026-01-19 00:20:58.99	12.25	5.07	-47.2	-64.8	3.8	1.49e+00	0	41	0	0	66	26654
2026-01-19 00:20:59.98	12.22	5.14	-47.2	-64.7	3.8	1.49e+00	0	41	104	0	65	27983
2026-01-19 00:21:00.98	12.19	5.21	-47.2	-64.7	3.8	1.49e+00	0	41	104	0	65	27895
2026-01-19 00:21:01.97	12.15	5.28	-47.2	-64.7	3.8	1.49e+00	0	41	104	0	65	27855
2026-01-19 00:21:02.96	12.12	5.35	-47.2	-64.7	3.8	1.49e+00	0	41	104	0	65	27838
2026-01-19 00:21:03.96	12.09	5.42	-47.2	-64.7	3.8	1.49e+00	0	41	104	0	65	27963
2026-01-19 00:21:04.95	12.06	5.49	-47.2	-64.7	3.8	1.49e+00	0	41	104	0	65	27883
2026-01-19 00:21:05.94	12.03	5.56	-47.2	-64.7	3.8	1.49e+00	0	41	104	0	65	27996
2026-01-19 00:21:06.94	12.00	5.63	-47.2	-64.7	3.8	1.49e+00	0	41	104	0	65	27850
2026-01-19 00:21:07.93	11.96	5.70	-47.2	-64.7	3.8	1.49e+00	0	41	104	0	65	27933
2026-01-19 00:21:08.92	11.93	5.77	-47.2	-64.7	3.8	1.49e+00	0	41	104	0	65	28025
2026-01-19 00:21:09.92	11.90	5.84	-47.2	-64.7	3.8	1.49e+00	0	41	104	0	65	27994
2026-01-19 00:21:10.91	11.87	5.91	-47.2	-64.7	3.8	1.49e+00	0	41	104	0	65	28015
2026-01-19 00:21:11.90	11.83	5.98	-47.2	-64.7	3.8	1.49e+00	0	41	104	0	65	28001
2026-01-19 00:21:12.90	11.80	6.06	-47.2	-64.7	3.8	1.49e+00	0	41	104	0	65	27896
2026-01-19 00:21:13.89	11.77	6.13	-47.2	-64.7	3.8	1.49e+00	0	41	104	0	65	27800
2026-01-19 00:21:14.88	11.73	6.20	-47.2	-64.6	3.8	1.49e+00	0	41	104	0	65	27556
2026-01-19 00:21:15.87	11.70	6.27	-47.2	-64.5	3.8	1.49e+00	0	41	104	0	65	27190
2026-01-19 00:21:16.87	11.67	6.34	-47.2	-64.3	3.8	1.49e+00	0	42	104	0	65	26500
2026-01-19 00:21:17.86	11.63	6.42	-47.1	-64.1	3.8	1.49e+00	0	41	104	0	65	25868
2026-01-19 00:21:18.85	11.60	6.49	-47.1	-63.8	3.8	1.49e+00	0	41	104	0	65	25038
2026-01-19 00:21:19.85	11.56	6.56	-47.1	-63.5	3.8	1.49e+00	0	41	104	0	65	24201
2026-01-19 00:21:20.84	11.53	6.64	-47.1	-63.2	3.8	1.49e+00	0	42	104	0	65	23358
2026-01-19 00:21:21.84	11.49	6.71	-47.2	-62.9	3.8	1.49e+00	0	41	104	0	65	22645
2026-01-19 00:21:22.83	11.46	6.78	-47.1	-62.6	3.9	1.49e+00	0	42	104	0	65	21841
2026-01-19 00:21:23.82	11.42	6.86	-47.1	-62.5	4.0	1.48e+00	0	42	104	0	65	21527
2026-01-19 00:21:24.82	11.39	6.93	-47.1	-62.5	3.9	1.49e+00	0	42	104	0	65	21713
2026-01-19 00:21:25.81	11.35	7.01	-47.1	-62.6	3.8	1.48e+00	0	42	104	0	65	21973
2026-01-19 00:21:26.80	11.32	7.08	-47.1	-62.8	3.8	1.49e+00	0	42	104	0	65	22351
2026-01-19 00:21:27.80	11.28	7.16	-47.1	-63.1	3.8	1.49e+00	0	42	104	0	65	23258
2026-01-19 00:21:28.79	11.25	7.23	-47.1	-63.4	3.8	1.49e+00	0	42	104	0	65	23998
2026-01-19 00:21:29.78	11.21	7.30	-47.1	-63.7	3.8	1.49e+00	0	42	104	0	65	24934
2026-01-19 00:21:30.78	11.17	7.38	-47.1	-64.1	3.8	1.49e+00	0	42	104	0	65	26002
2026-01-19 00:21:31.77	11.14	7.46	-47.2	-64.4	3.8	1.49e+00	0	42	104	0	65	26828
2026-01-19 00:21:32.76	11.10	7.53	-47.2	-64.6	3.8	1.49e+00	0	42	104	0	65	27496
2026-01-19 00:21:33.76	11.06	7.61	-47.2	-64.7	3.8	1.49e+00	0	42	104	0	65	27790
2026-01-19 00:21:34.75	11.02	7.68	-47.2	-64.5	3.8	1.49e+00	0	42	104	0	65	27235
2026-01-19 00:21:35.74	10.99	7.76	-47.2	-63.9	3.8	1.49e+00	0	42	104	0	65	25380
2026-01-19 00:21:36.74	10.95	7.84	-47.1	-62.8	3.8	1.49e+00	0	42	104	0	65	22361
2026-01-19 00:21:37.73	10.91	7.91	-47.0	-60.9	4.3	1.45e+00	0	42	0	0	65	17989
2026-01-19 00:21:38.72	10.87	7.99	-46.9	-59.1	5.0	1.01e+00	0	42	0	1048576	65	14670
2026-01-19 00:21:39.72	10.83	8.07	-46.7	-57.3	6.3	3.74e-01	0	42	0	3145728	65	11937
2026-01-19 00:21:40.71	10.79	8.15	-46.4	-55.4	8.0	1.32e-01	0	42	0	5242880	64	10167
2026-01-19 00:21:41.70	10.76	8.22	-46.1	-54.0	9.5	3.20e-02	0	42	0	7340032	64	8580
2026-01-19 00:21:42.70	10.72	8.30	-45.9	-52.7	10.9	3.58e-03	0	42	0	8388608	63	7849
2026-01-19 00:21:43.69	10.68	8.38	-45.6	-51.7	12.0	6.29e-04	0	42	0	10485760	63	6993
2026-01-19 00:21:44.68	10.64	8.46	-45.2	-50.8	12.9	9.30e-05	0	42	0	12582912	62	6712
2026-01-19 00:21:45.68	10.60	8.54	-44.9	-50.0	13.7	1.67e-05	0	42	0	14680064	61	6460
2026-01-19 00:21:46.67	10.56	8.61	-44.6	-49.5	14.2	1.50e-06	0	42	0	15728640	61	6067
2026-01-19 00:21:47.66	10.52	8.69	-44.5	-49.2	14.5	0.00e+00	0	42	0	17825792	61	5905
2026-01-19 00:21:48.66	10.48	8.77	-44.4	-49.0	14.7	7.00e-07	0	42	0	19922944	60	6114
2026-01-19 00:21:49.65	10.43	8.85	-44.4	-49.1	14.6	1.50e-06	0	42	0	22020096	60	6145
2026-01-19 00:21:50.64	10.39	8.93	-44.6	-49.4	14.3	7.00e-07	0	42	0	24117248	60	6405
2026-01-19 00:21:51.64	10.35	9.01	-44.8	-49.7	14.0	7.00e-07	0	42	0	25165824	60	6632
2026-01-19 00:21:52.63	10.31	9.09	-45.2	-50.5	13.2	8.30e-06	0	42	0	27262976	61	6839
2026-01-19 00:21:53.63	10.27	9.17	-46.6	-54.6	9.0	1.29e-04	0	42	0	29360128	64	9271
2026-01-19 00:21:54.62	10.23	9.25	-44.2	-48.7	14.8	6.38e-02	0	42	0	31457280	60	5879
2026-01-19 00:21:55.74	10.18	9.35	-42.5	-46.0	17.6	0.00e+00	0	42	0	33554432	57	5135
2026-01-19 00:21:56.63	10.14	9.42	-44.4	-49.3	14.7	0.00e+00	0	42	0	34603008	59	6658
2026-01-19 00:21:57.77	10.09	9.51	-42.8	-46.4	17.2	8.06e-03	0	42	0	36700160	57	5352
2026-01-19 00:21:58.68	10.05	9.59	-42.4	-45.9	17.7	0.00e+00	0	42	0	38797312	56	5398
2026-01-19 00:21:59.87	10.00	9.68	-42.5	-46.1	17.6	0.00e+00	0	42	0	40894464	56	5474
2026-01-19 00:22:00.72	9.96	9.76	-42.4	-46.0	17.7	0.00e+00	0	42	0	42991616	56	5403
2026-01-19 00:22:02.05	9.90	9.87	-42.6	-46.1	17.5	0.00e+00	0	42	0	45088768	56	5518
2026-01-19 00:22:02.76	9.87	9.93	-42.4	-45.9	17.8	0.00e+00	0	42	0	46137344	56	5362
2026-01-19 00:22:04.26	9.80	10.05	-42.4	-45.8	17.8	0.00e+00	0	42	0	49283072	56	5331
2026-01-19 00:22:05.22	9.76	10.13	-42.4	-45.9	17.8	0.00e+00	0	42	0	51380224	56	5350
2026-01-19 00:22:06.22	9.71	10.22	-42.3	-45.8	17.9	0.00e+00	0	43	0	52428800	56	5300
2026-01-19 00:22:07.21	9.67	10.30	-42.5	-46.1	17.8	0.00e+00	0	43	0	54525952	56	5465
2026-01-19 00:22:08.21	9.62	10.38	-42.4	-45.7	17.9	0.00e+00	0	42	0	56623104	56	5270
2026-01-19 00:22:09.20	9.58	10.47	-42.3	-45.7	17.9	0.00e+00	0	43	0	58720256	56	5253
2026-01-19 00:22:10.20	9.53	10.55	-42.3	-45.7	18.0	0.00e+00	0	42	0	59768832	56	5241
2026-01-19 00:22:11.19	9.48	10.64	-42.3	-45.7	18.0	0.00e+00	0	42	0	61865984	56	5224
2026-01-19 00:22:12.19	9.44	10.72	-42.3	-45.6	18.1	0.00e+00	0	43	0	63963136	56	5206
2026-01-19 00:22:13.19	9.39	10.81	-42.3	-45.7	17.9	0.00e+00	0	43	0	66060288	56	5263
2026-01-19 00:22:14.24	9.34	10.90	-42.4	-45.7	18.0	0.00e+00	0	43	0	68157440	56	5247
2026-01-19 00:22:15.19	9.29	10.98	-42.4	-45.7	18.0	0.00e+00	0	43	0	69206016	56	5272
2026-01-19 00:22:16.18	9.24	11.07	-42.3	-45.5	18.1	0.00e+00	0	43	0	71303168	56	5148
2026-01-19 00:22:17.33	9.19	11.17	-42.4	-45.6	18.1	0.00e+00	0	43	0	73400320	56	5174
2026-01-19 00:22:18.22	9.14	11.25	-42.3	-45.5	18.2	0.00e+00	0	43	0	75497472	56	5135
2026-01-19 00:22:19.53	9.08	11.36	-42.3	-45.5	18.2	0.00e+00	0	42	0	77594624	56	5117
2026-01-19 00:22:20.24	9.04	11.43	-42.4	-45.6	18.1	0.00e+00	0	43	0	78643200	56	5165
2026-01-19 00:22:21.73	8.97	11.56	-42.4	-45.5	18.2	0.00e+00	0	43	0	81788928	56	5105
2026-01-19 00:22:22.44	8.93	11.62	-42.4	-45.4	18.3	0.00e+00	0	43	0	82837504	56	5076
2026-01-19 00:22:23.77	8.86	11.74	-42.5	-45.5	18.2	0.00e+00	0	43	0	85983232	56	5130
2026-01-19 00:22:24.48	8.83	11.80	-42.4	-45.4	18.3	0.00e+00	0	42	0	87031808	56	5081
2026-01-19 00:22:25.76	8.76	11.92	-42.3	-45.3	18.4	0.00e+00	0	43	0	89128960	56	5008
2026-01-19 00:22:26.49	8.72	11.98	-42.3	-45.4	18.4	0.00e+00	0	43	0	91226112	56	5045
2026-01-19 00:22:27.77	8.66	12.10	-42.3	-45.3	18.4	0.00e+00	0	43	0	93323264	56	5003
2026-01-19 00:22:28.48	8.62	12.16	-42.3	-45.3	18.5	0.00e+00	0	43	0	94371840	56	4985
2026-01-19 00:22:29.76	8.55	12.28	-42.4	-45.3	18.5	0.00e+00	0	43	0	96468992	56	5008
2026-01-19 00:22:30.49	8.51	12.35	-42.5	-45.4	18.3	0.00e+00	0	43	0	98566144	56	5080
2026-01-19 00:22:31.77	8.44	12.47	-42.4	-45.3	18.4	0.00e+00	0	43	0	100663296	56	5033
2026-01-19 00:22:32.49	8.40	12.53	-42.4	-45.4	18.4	0.00e+00	0	43	0	101711872	56	5051
2026-01-19 00:22:33.77	8.34	12.65	-42.6	-45.5	18.3	0.00e+00	0	43	0	104857600	56	5129
2026-01-19 00:22:34.48	8.30	12.72	-42.6	-45.5	18.3	0.00e+00	0	43	0	105906176	56	5139
2026-01-19 00:22:35.76	8.23	12.83	-42.5	-45.5	18.3	0.00e+00	0	43	0	108003328	56	5102
2026-01-19 00:22:36.47	8.19	12.90	-42.4	-45.3	18.5	0.00e+00	0	43	0	109051904	56	5006
2026-01-19 00:22:37.75	8.11	13.02	-42.4	-45.2	18.5	0.00e+00	0	43	0	112197632	56	4970
2026-01-19 00:22:38.46	8.07	13.09	-42.4	-45.2	18.6	0.00e+00	0	43	0	113246208	56	4928
2026-01-19 00:22:39.74	8.00	13.21	-42.4	-45.2	18.6	0.00e+00	0	43	0	115343360	56	4962
2026-01-19 00:22:40.59	7.95	13.29	-42.4	-45.1	18.6	0.00e+00	0	43	0	117440512	56	4920
2026-01-19 00:22:41.73	7.89	13.40	-42.4	-45.2	18.5	0.00e+00	0	43	0	119537664	56	4981
2026-01-19 00:22:42.80	7.83	13.50	-42.4	-45.1	18.6	0.00e+00	0	43	0	121634816	56	4926
2026-01-19 00:22:43.83	7.77	13.60	-42.4	-45.2	18.6	0.00e+00	0	43	0	123731968	56	4931
2026-01-19 00:22:44.82	7.71	13.69	-42.5	-45.3	18.5	0.00e+00	0	43	0	124780544	56	4991
2026-01-19 00:22:45.82	7.65	13.79	-42.4	-45.2	18.6	0.00e+00	0	43	0	126877696	56	4948
2026-01-19 00:22:46.81	7.59	13.89	-42.5	-45.2	18.6	0.00e+00	0	43	0	128974848	56	4973
2026-01-19 00:22:47.80	7.53	13.98	-42.5	-45.2	18.6	0.00e+00	0	43	0	131072000	56	4945
2026-01-19 00:22:48.80	7.47	14.08	-42.4	-45.1	18.7	0.00e+00	0	43	0	133169152	56	4923
2026-01-19 00:22:49.79	7.41	14.18	-42.4	-45.1	18.7	0.00e+00	0	43	0	134217728	56	4901
2026-01-19 00:22:50.79	7.35	14.27	-42.5	-45.1	18.6	0.00e+00	0	43	0	136314880	56	4923
2026-01-19 00:22:51.78	7.29	14.37	-42.5	-45.2	18.6	0.00e+00	0	43	0	138412032	56	4928
2026-01-19 00:22:52.77	7.23	14.47	-42.4	-45.1	18.7	0.00e+00	0	43	0	140509184	56	4903
2026-01-19 00:22:53.77	7.16	14.57	-42.4	-45.1	18.7	0.00e+00	0	43	0	141557760	56	4871
2026-01-19 00:22:54.76	7.10	14.67	-42.4	-45.1	18.8	0.00e+00	0	43	0	143654912	56	4871
2026-01-19 00:22:55.76	7.04	14.77	-42.5	-45.1	18.8	0.00e+00	0	43	0	145752064	56	4891
2026-01-19 00:22:56.76	6.97	14.87	-42.4	-45.0	18.8	0.00e+00	0	43	0	147849216	56	4860
2026-01-19 00:22:57.75	6.91	14.97	-42.4	-45.0	18.7	0.00e+00	0	43	0	149946368	56	4862
2026-01-19 00:22:58.76	6.84	15.07	-42.4	-45.0	18.8	0.00e+00	0	43	0	150994944	56	4863
2026-01-19 00:22:59.79	6.78	15.18	-42.5	-45.1	18.7	0.00e+00	0	43	0	153092096	56	4884
2026-01-19 00:23:00.78	6.71	15.28	-42.5	-45.1	18.7	0.00e+00	0	43	0	155189248	56	4881
2026-01-19 00:23:01.78	6.64	15.38	-42.4	-45.0	18.9	0.00e+00	0	43	0	157286400	56	4829
2026-01-19 00:23:02.85	6.57	15.49	-42.5	-45.1	18.8	0.00e+00	0	43	0	159383552	56	4886
2026-01-19 00:23:03.70	6.52	15.58	-42.5	-45.1	18.7	0.00e+00	0	43	0	160432128	56	4922
2026-01-19 00:23:05.09	6.42	15.72	-42.5	-45.0	18.8	0.00e+00	0	43	0	163577856	56	4858
2026-01-19 00:23:05.80	6.37	15.79	-42.5	-45.0	18.7	0.00e+00	0	43	0	164626432	56	4870
2026-01-19 00:23:07.10	6.28	15.93	-42.5	-45.0	18.8	0.00e+00	0	43	0	166723584	56	4839
2026-01-19 00:23:07.81	6.23	16.00	-42.5	-45.0	18.9	0.00e+00	0	43	0	167772160	56	4852
2026-01-19 00:23:09.09	6.15	16.14	-42.5	-45.1	18.8	0.00e+00	0	43	0	170917888	56	4876
2026-01-19 00:23:09.81	6.09	16.21	-42.5	-45.0	18.8	0.00e+00	0	43	0	171966464	56	4863
2026-01-19 00:23:11.09	6.00	16.35	-42.6	-45.1	18.7	0.00e+00	0	43	0	174063616	56	4909
2026-01-19 00:23:11.82	5.95	16.43	-42.5	-45.0	18.8	0.00e+00	0	43	0	176160768	56	4854
2026-01-19 00:23:13.09	5.86	16.56	-42.6	-45.1	18.8	0.00e+00	0	43	0	178257920	56	4909
2026-01-19 00:23:13.82	5.81	16.64	-42.6	-45.2	18.7	0.00e+00	0	43	0	179306496	56	4937
2026-01-19 00:23:15.10	5.71	16.78	-42.5	-45.0	18.9	0.00e+00	0	43	0	182452224	56	4836
2026-01-19 00:23:15.82	5.66	16.86	-42.6	-45.1	18.7	0.00e+00	0	43	0	183500800	56	4894
2026-01-19 00:23:17.10	5.57	17.00	-42.6	-45.1	18.8	0.00e+00	0	43	0	185597952	56	4882
2026-01-19 00:23:18.11	5.49	17.11	-42.6	-45.1	18.7	0.00e+00	0	43	0	187695104	56	4914
2026-01-19 00:23:19.37	5.40	17.25	-42.7	-45.2	18.7	0.00e+00	0	43	0	189792256	56	4932
2026-01-19 00:23:20.17	5.33	17.33	-42.6	-45.1	18.8	0.00e+00	0	43	0	191889408	56	4883
2026-01-19 00:23:21.58	5.23	17.49	-42.6	-45.1	18.8	0.00e+00	0	43	0	193986560	56	4900
2026-01-19 00:23:22.29	5.17	17.57	-42.6	-45.1	18.8	0.00e+00	0	43	0	195035136	56	4880
2026-01-19 00:23:23.57	5.07	17.71	-42.7	-45.1	18.8	0.00e+00	0	43	0	198180864	56	4910
2026-01-19 00:23:24.29	5.02	17.79	-42.6	-45.1	18.8	0.00e+00	0	43	0	199229440	56	4883
2026-01-19 00:23:25.58	4.91	17.94	-42.6	-45.0	18.9	0.00e+00	0	43	0	201326592	56	4854
2026-01-19 00:23:26.29	4.86	18.02	-42.6	-45.1	18.8	0.00e+00	0	43	0	202375168	56	4875
2026-01-19 00:23:27.57	4.75	18.16	-42.7	-45.1	18.8	0.00e+00	0	43	0	205520896	56	4923
2026-01-19 00:23:28.29	4.70	18.24	-42.6	-45.1	18.8	0.00e+00	0	43	0	206569472	56	4910
2026-01-19 00:23:29.57	4.59	18.39	-42.6	-45.1	18.8	0.00e+00	0	43	0	208666624	56	4892
2026-01-19 00:23:30.28	4.53	18.47	-42.6	-45.1	18.8	0.00e+00	0	43	0	210763776	56	4912
2026-01-19 00:23:31.56	4.43	18.62	-42.5	-45.0	18.9	0.00e+00	0	43	0	212860928	56	4843
2026-01-19 00:23:32.27	4.37	18.70	-42.6	-45.1	18.9	0.00e+00	0	43	0	213909504	56	4895
2026-01-19 00:23:33.55	4.26	18.85	-42.6	-45.0	18.9	0.00e+00	0	43	0	217055232	56	4861
2026-01-19 00:23:34.26	4.20	18.93	-42.5	-45.0	18.9	0.00e+00	0	43	0	218103808	56	4850
2026-01-19 00:23:35.54	4.09	19.08	-42.6	-45.1	18.9	0.00e+00	0	43	0	220200960	56	4884
2026-01-19 00:23:36.27	4.03	19.17	-42.6	-45.1	18.9	0.00e+00	0	43	0	221249536	56	4891
2026-01-19 00:23:37.66	3.91	19.33	-42.6	-45.2	18.8	0.00e+00	0	43	0	224395264	56	4941
2026-01-19 00:23:38.37	3.84	19.42	-42.6	-45.2	18.8	0.00e+00	0	43	0	225443840	56	4943
2026-01-19 00:23:39.65	3.73	19.57	-42.6	-45.1	18.9	0.00e+00	0	43	0	227540992	56	4878
2026-01-19 00:23:40.37	3.67	19.65	-42.7	-45.2	18.8	0.00e+00	0	43	0	229638144	56	4956
2026-01-19 00:23:41.76	3.54	19.82	-42.7	-45.3	18.7	0.00e+00	0	43	0	231735296	56	5003
2026-01-19 00:23:42.47	3.48	19.91	-42.7	-45.2	18.8	0.00e+00	0	43	0	232783872	56	4960
2026-01-19 00:23:43.75	3.36	20.06	-42.8	-45.3	18.7	0.00e+00	0	43	0	235929600	56	4988
2026-01-19 00:23:44.48	3.29	20.15	-42.7	-45.2	18.7	0.00e+00	0	43	0	236978176	56	4965
2026-01-19 00:23:45.75	3.17	20.31	-42.8	-45.3	18.7	0.00e+00	0	43	0	239075328	56	4997
2026-01-19 00:23:46.48	3.10	20.39	-42.9	-45.3	18.6	0.00e+00	0	43	0	241172480	56	5038
2026-01-19 00:23:47.76	2.98	20.55	-42.8	-45.3	18.7	0.00e+00	0	43	0	243269632	56	4993
2026-01-19 00:23:48.48	2.92	20.64	-42.9	-45.4	18.6	0.00e+00	0	43	0	244318208	56	5047
2026-01-19 00:23:49.76	2.79	20.80	-42.9	-45.4	18.6	0.00e+00	0	43	0	247463936	56	5060
2026-01-19 00:23:50.48	2.72	20.89	-43.0	-45.5	18.5	0.00e+00	0	43	0	248512512	56	5115
2026-01-19 00:23:51.76	2.60	21.05	-43.0	-45.5	18.5	0.00e+00	0	43	0	250609664	56	5104
2026-01-19 00:23:52.58	2.52	21.15	-43.1	-45.6	18.4	0.00e+00	0	43	0	252706816	56	5167
2026-01-19 00:23:53.71	2.40	21.30	-43.1	-45.6	18.4	0.00e+00	0	43	0	254803968	56	5189
2026-01-19 00:23:54.57	2.32	21.41	-43.2	-45.7	18.3	0.00e+00	0	43	0	255852544	57	4975
2026-01-19 00:23:55.70	2.20	21.55	-43.2	-45.8	18.2	0.00e+00	0	43	0	257949696	57	5006
2026-01-19 00:23:56.79	2.09	21.69	-43.3	-45.9	18.1	0.00e+00	0	43	0	260046848	57	5083
2026-01-19 00:23:57.82	1.99	21.82	-43.3	-46.0	18.1	0.00e+00	0	43	0	262144000	57	5102
2026-01-19 00:23:58.98	1.87	21.97	-43.3	-45.9	18.0	0.00e+00	0	43	0	264241152	57	5096
2026-01-19 00:23:59.84	1.77	22.08	-43.4	-46.0	18.0	0.00e+00	0	43	0	265289728	57	5123
2026-01-19 00:24:00.97	1.66	22.23	-43.3	-46.0	18.0	0.00e+00	0	43	0	268435456	57	5138
2026-01-19 00:24:01.83	1.56	22.34	-43.4	-46.1	17.9	0.00e+00	0	43	0	269484032	57	5212
2026-01-19 00:24:02.96	1.44	22.49	-43.4	-46.1	18.0	0.00e+00	0	43	0	271581184	57	5199
2026-01-19 00:24:03.81	1.35	22.60	-43.5	-46.2	17.8	0.00e+00	0	43	0	273678336	57	5279
2026-01-19 00:24:04.95	1.22	22.76	-43.5	-46.3	17.8	0.00e+00	0	43	0	275775488	57	5284
2026-01-19 00:24:05.80	1.13	22.87	-43.6	-46.4	17.6	0.00e+00	0	43	0	276824064	57	5368
2026-01-19 00:24:06.94	1.00	23.02	-43.8	-46.5	17.5	0.00e+00	0	43	0	278921216	58	5146
2026-01-19 00:24:07.79	0.91	23.14	-43.8	-46.6	17.5	0.00e+00	0	43	0	281018368	58	5182
2026-01-19 00:24:08.92	0.78	23.29	-43.9	-46.7	17.4	0.00e+00	0	43	0	283115520	58	5222
2026-01-19 00:24:09.78	0.68	23.40	-44.0	-46.8	17.3	0.00e+00	0	43	0	284164096	58	5336
2026-01-19 00:24:10.91	0.55	23.56	-44.0	-46.7	17.3	0.00e+00	0	43	0	286261248	58	5276
2026-01-19 00:24:11.77	0.45	23.68	-44.1	-46.9	17.2	0.00e+00	0	43	0	288358400	59	5073
2026-01-19 00:24:12.98	0.31	23.84	-44.2	-46.9	17.1	0.00e+00	0	43	0	290455552	59	5096
2026-01-19 00:24:13.84	0.21	23.96	-44.3	-47.1	17.0	0.00e+00	0	43	0	292552704	59	5168
2026-01-19 00:24:15.07	0.06	24.13	-44.2	-47.0	17.1	0.00e+00	0	43	0	294649856	59	5125
2026-01-19 00:24:15.92	359.95	24.25	-44.2	-47.0	17.1	0.00e+00	0	43	0	295698432	59	5144
2026-01-19 00:24:17.12	359.81	24.42	-44.2	-47.0	17.1	0.00e+00	0	43	0	297795584	59	5135
2026-01-19 00:24:17.97	359.70	24.54	-44.1	-46.9	17.2	0.00e+00	0	43	0	299892736	59	5084
2026-01-19 00:24:19.11	359.56	24.70	-44.2	-47.0	17.1	0.00e+00	0	43	0	301989888	59	5137
2026-01-19 00:24:19.96	359.45	24.82	-44.1	-46.9	17.2	0.00e+00	0	43	0	304087040	59	5052
2026-01-19 00:24:21.10	359.31	24.98	-44.2	-47.0	17.1	0.00e+00	0	43	0	306184192	59	5142
2026-01-19 00:24:21.95	359.20	25.10	-44.3	-47.1	17.0	0.00e+00	0	43	0	307232768	59	5178
2026-01-19 00:24:23.09	359.05	25.26	-44.3	-47.2	17.0	0.00e+00	0	43	0	309329920	59	5220
2026-01-19 00:24:24.02	358.93	25.40	-44.3	-47.2	16.9	0.00e+00	0	43	0	311427072	59	5234
2026-01-19 00:24:25.02	358.80	25.54	-44.4	-47.3	16.9	0.00e+00	0	43	0	313524224	59	5304
2026-01-19 00:24:26.01	358.67	25.69	-44.5	-47.4	16.7	0.00e+00	0	43	0	314572800	59	5369
2026-01-19 00:24:27.00	358.54	25.83	-44.6	-47.6	16.5	0.00e+00	0	43	0	316669952	59	5487
2026-01-19 00:24:28.00	358.40	25.98	-44.6	-47.6	16.6	0.00e+00	0	43	0	318767104	60	5196
2026-01-19 00:24:28.99	358.27	26.12	-44.7	-47.6	16.5	0.00e+00	0	43	0	320864256	60	5217
2026-01-19 00:24:29.99	358.13	26.27	-44.8	-47.9	16.3	0.00e+00	0	43	0	321912832	60	5356
2026-01-19 00:24:30.98	357.99	26.42	-44.8	-47.9	16.3	0.00e+00	0	43	0	324009984	60	5348
2026-01-19 00:24:31.98	357.85	26.57	-44.8	-47.8	16.3	0.00e+00	0	43	0	326107136	60	5320
2026-01-19 00:24:32.97	357.71	26.72	-44.9	-47.9	16.3	0.00e+00	0	43	0	328204288	60	5371
2026-01-19 00:24:33.97	357.57	26.87	-44.9	-47.9	16.3	0.00e+00	0	43	0	330301440	60	5370
2026-01-19 00:24:34.96	357.42	27.01	-44.9	-48.0	16.3	0.00e+00	0	43	0	331350016	60	5424
2026-01-19 00:24:35.99	357.27	27.17	-45.0	-48.0	16.2	0.00e+00	0	43	0	333447168	60	5440
2026-01-19 00:24:36.98	357.13	27.32	-45.0	-48.0	16.2	0.00e+00	0	43	0	335544320	60	5451
2026-01-19 00:24:37.98	356.98	27.47	-45.1	-48.2	16.0	0.00e+00	0	43	0	337641472	60	5539
2026-01-19 00:24:38.97	356.83	27.63	-45.0	-48.0	16.2	0.00e+00	0	43	0	338690048	60	5439
2026-01-19 00:24:39.96	356.68	27.78	-45.1	-48.2	16.1	0.00e+00	0	43	0	340787200	60	5530
2026-01-19 00:24:40.96	356.52	27.93	-44.9	-48.0	16.2	0.00e+00	0	43	0	342884352	60	5412
2026-01-19 00:24:41.95	356.37	28.09	-44.9	-47.9	16.3	0.00e+00	0	43	0	344981504	60	5365
2026-01-19 00:24:42.95	356.21	28.24	-44.9	-47.9	16.3	0.00e+00	0	43	0	347078656	60	5392
2026-01-19 00:24:43.94	356.06	28.40	-44.8	-47.7	16.5	0.00e+00	0	43	0	348127232	60	5241
2026-01-19 00:24:44.94	355.90	28.56	-44.8	-47.7	16.5	0.00e+00	0	43	0	350224384	60	5272
2026-01-19 00:24:45.93	355.74	28.71	-44.8	-47.7	16.6	0.00e+00	0	43	0	352321536	60	5222
2026-01-19 00:24:46.92	355.58	28.87	-44.6	-47.4	16.8	0.00e+00	0	43	0	354418688	60	5072
2026-01-19 00:24:47.92	355.41	29.03	-44.5	-47.4	16.9	0.00e+00	0	43	0	355467264	60	5060
2026-01-19 00:24:48.93	355.25	29.19	-44.5	-47.4	16.9	0.00e+00	0	43	0	357564416	60	5051
2026-01-19 00:24:49.95	355.07	29.35	-44.4	-47.3	17.0	0.00e+00	0	43	0	359661568	60	4985
2026-01-19 00:24:50.98	354.90	29.52	-44.3	-47.2	17.0	0.00e+00	0	43	0	361758720	60	4975
2026-01-19 00:24:51.97	354.73	29.68	-44.3	-47.2	17.1	0.00e+00	0	43	0	363855872	60	4930
2026-01-19 00:24:52.97	354.56	29.84	-44.4	-47.3	16.9	0.00e+00	0	43	0	365953024	60	5029
2026-01-19 00:24:53.96	354.38	30.00	-44.5	-47.5	16.8	0.00e+00	0	43	0	367001600	60	5112
2026-01-19 00:24:54.96	354.21	30.17	-44.5	-47.5	16.8	0.00e+00	0	43	0	369098752	60	5108
2026-01-19 00:24:55.95	354.03	30.33	-44.6	-47.6	16.7	0.00e+00	0	43	0	371195904	60	5166
2026-01-19 00:24:56.95	353.85	30.49	-44.7	-47.7	16.6	0.00e+00	0	43	0	373293056	60	5248
2026-01-19 00:24:57.95	353.67	30.66	-44.8	-47.8	16.4	0.00e+00	0	43	0	374341632	60	5315
2026-01-19 00:24:58.94	353.49	30.82	-44.8	-47.7	16.6	0.00e+00	0	43	0	376438784	60	5271
2026-01-19 00:24:59.93	353.30	30.99	-45.0	-48.0	16.3	0.00e+00	0	43	0	378535936	60	5407
2026-01-19 00:25:00.93	353.11	31.16	-45.0	-48.1	16.2	0.00e+00	0	43	0	380633088	60	5482
2026-01-19 00:25:01.92	352.92	31.32	-45.1	-48.2	16.1	0.00e+00	0	43	0	382730240	60	5545
2026-01-19 00:25:02.94	352.73	31.49	-45.1	-48.2	16.0	0.00e+00	0	43	0	383778816	60	5588
2026-01-19 00:25:03.98	352.53	31.67	-45.0	-48.2	16.1	0.00e+00	0	43	0	385875968	60	5535
2026-01-19 00:25:04.95	352.34	31.83	-45.0	-48.2	16.1	0.00e+00	0	43	0	387973120	60	5537
2026-01-19 00:25:05.95	352.14	32.00	-45.2	-48.4	15.9	0.00e+00	0	43	0	390070272	61	5352
2026-01-19 00:25:06.94	351.94	32.17	-45.2	-48.4	15.5	0.00e+00	0	43	0	392167424	61	5391
2026-01-19 00:25:07.94	351.74	32.35	-45.3	-48.5	15.8	0.00e+00	0	43	0	393216000	61	5416
2026-01-19 00:25:08.93	351.53	32.52	-45.3	-48.6	15.7	0.00e+00	0	43	0	395313152	61	5500
2026-01-19 00:25:09.93	351.33	32.69	-45.4	-48.7	15.6	0.00e+00	0	43	0	397410304	61	5540
2026-01-19 00:25:10.92	351.12	32.86	-45.3	-48.6	15.7	0.00e+00	0	43	0	399507456	61	5474
2026-01-19 00:25:11.92	350.91	33.03	-45.3	-48.7	15.6	0.00e+00	0	43	0	400556032	61	5549
2026-01-19 00:25:12.91	350.70	33.21	-45.3	-48.6	15.7	0.00e+00	0	43	0	402653184	61	5505
2026-01-19 00:25:13.90	350.48	33.38	-45.3	-48.8	15.5	0.00e+00	0	43	0	404750336	61	5614
2026-01-19 00:25:14.90	350.26	33.55	-45.3	-48.8	15.5	0.00e+00	0	43	0	406847488	61	5646
2026-01-19 00:25:15.89	350.05	33.73	-45.4	-49.0	15.3	0.00e+00	0	43	0	408944640	61	5752
2026-01-19 00:25:16.89	349.82	33.90	-45.7	-49.4	14.8	0.00e+00	0	43	0	409993216	62	5688
2026-01-19 00:25:17.88	349.60	34.08	-45.7	-49.4	14.9	0.00e+00	0	43	0	412090368	62	5687
2026-01-19 00:25:18.88	349.37	34.26	-45.7	-49.2	15.1	0.00e+00	0	43	0	414187520	62	5576
2026-01-19 00:25:19.95	349.12	34.45	-45.5	-48.9	15.4	0.00e+00	0	43	0	416284672	62	5353
2026-01-19 00:25:20.84	348.92	34.61	-45.6	-49.0	15.3	0.00e+00	0	43	0	417333248	62	5425
2026-01-19 00:25:21.97	348.65	34.81	-45.6	-49.1	15.3	7.00e-07	0	43	0	419430400	62	5483
2026-01-19 00:25:22.89	348.43	34.97	-45.4	-48.7	15.7	0.00e+00	0	43	0	421527552	62	5225
2026-01-19 00:25:23.90	348.19	35.15	-45.3	-48.6	15.7	0.00e+00	0	43	0	423624704	62	5184
2026-01-19 00:25:24.89	347.94	35.33	-45.1	-48.3	16.0	0.00e+00	0	43	0	425721856	62	5012
2026-01-19 00:25:25.89	347.70	35.51	-45.2	-48.4	15.9	0.00e+00	0	43	0	426770432	62	5056
2026-01-19 00:25:26.88	347.45	35.69	-44.5	-47.8	16.3	0.00e+00	0	43	0	428867584	61	4999
2026-01-19 00:25:27.88	347.20	35.87	-44.7	-47.6	16.7	0.00e+00	0	43	0	430964736	61	4888
2026-01-19 00:25:28.87	346.94	36.05	-44.7	-47.7	16.7	0.00e+00	0	43	0	433061888	61	4931
2026-01-19 00:25:29.87	346.69	36.24	-44.7	-47.7	16.6	0.00e+00	0	43	0	435159040	61	4978
2026-01-19 00:25:30.87	346.43	36.42	-44.8	-47.8	16.4	0.00e+00	0	43	0	436207616	61	5039
2026-01-19 00:25:31.86	346.16	36.60	-44.8	-47.9	16.4	0.00e+00	0	43	0	438304768	61	5097
2026-01-19 00:25:32.85	345.90	36.78	-45.0	-48.3	15.9	0.00e+00	0	43	0	440401920	61	5285
2026-01-19 00:25:33.85	345.63	36.96	-44.8	-48.0	16.4	0.00e+00	0	43	0	442499072	61	5109
2026-01-19 00:25:34.84	345.36	37.15	-44.7	-47.9	16.4	0.00e+00	0	43	0	443547648	61	5048
2026-01-19 00:25:35.84	345.08	37.33	-44.8	-47.9	16.4	0.00e+00	0	43	0	445644800	61	5097
2026-01-19 00:25:36.83	344.81	37.51	-44.8	-47.9	16.4	0.00e+00	0	43	0	447741952	61	5068
2026-01-19 00:25:37.83	344.52	37.70	-44.7	-47.8	16.5	0.00e+00	0	43	0	449839104	61	4986
2026-01-19 00:25:38.82	344.24	37.88	-44.7	-47.7	16.7	0.00e+00	0	43	0	451936256	61	4947
2026-01-19 00:25:39.81	343.95	38.06	-44.7	-47.7	16.6	0.00e+00	0	43	0	452984832	61	4950
2026-01-19 00:25:40.81	343.66	38.25	-44.9	-47.8	16.4	0.00e+00	0	43	0	455081984	61	5027
2026-01-19 00:25:41.80	343.37	38.43	-45.1	-48.1	16.2	0.00e+00	0	43	0	457179136	61	5176
2026-01-19 00:25:42.80	343.07	38.62	-45.3	-48.3	16.0	0.00e+00	0	43	0	459276288	61	5311
2026-01-19 00:25:43.80	342.77	38.80	-45.3	-48.3	16.0	0.00e+00	0	43	0	460324864	61	5333
2026-01-19 00:25:44.79	342.46	38.99	-45.3	-48.4	15.9	0.00e+00	0	43	0	462422016	61	5381
2026-01-19 00:25:45.79	342.15	39.17	-45.3	-48.3	16.0	0.00e+00	0	43	0	464519168	61	5337
2026-01-19 00:25:46.86	341.82	39.37	-45.4	-48.5	15.8	0.00e+00	0	43	0	466616320	61	5421
2026-01-19 00:25:47.75	341.54	39.54	-45.3	-48.4	16.0	0.00e+00	0	43	0	468713472	61	5350
2026-01-19 00:25:48.89	341.17	39.75	-45.3	-48.4	15.9	0.00e+00	0	43	0	469762048	61	5386
2026-01-19 00:25:49.74	340.90	39.91	-45.3	-48.5	15.7	0.00e+00	0	43	0	471859200	61	5461
2026-01-19 00:25:51.10	340.45	40.16	-45.1	-48.3	16.0	0.00e+00	0	43	0	475004928	61	5317
2026-01-19 00:25:51.81	340.21	40.29	-45.0	-48.2	16.1	0.00e+00	0	43	0	476053504	61	5266
2026-01-19 00:25:53.28	339.72	40.56	-44.7	-47.8	16.4	0.00e+00	0	43	0	478150656	61	5038
2026-01-19 00:25:53.99	339.48	40.69	-44.8	-47.9	16.4	0.00e+00	0	43	0	480247808	61	5062
2026-01-19 00:25:55.27	339.03	40.93	-44.8	-47.8	16.4	0.00e+00	0	43	0	482344960	61	5026
2026-01-19 00:25:56.00	338.78	41.06	-44.7	-47.5	16.7	0.00e+00	0	43	0	483393536	61	4868
2026-01-19 00:25:57.28	338.33	41.30	-44.9	-47.9	16.5	0.00e+00	0	43	0	485490688	61	5051
2026-01-19 00:25:57.99	338.07	41.43	-45.1	-48.2	16.2	0.00e+00	0	43	0	487587840	61	5236
2026-01-19 00:25:59.26	337.61	41.66	-45.6	-48.9	15.4	0.00e+00	0	43	0	489684992	61	5710
2026-01-19 00:25:59.99	337.35	41.80	-45.9	-49.4	14.9	0.00e+00	0	43	0	490733568	62	5711
2026-01-19 00:26:01.27	336.87	42.03	-46.1	-50.0	14.4	0.00e+00	0	43	0	493879296	63	5731
2026-01-19 00:26:01.98	336.61	42.16	-46.0	-49.8	14.5	0.00e+00	0	43	0	494927872	63	5609
2026-01-19 00:26:03.26	336.13	42.39	-45.6	-49.3	15.0	0.00e+00	0	43	0	497025024	63	5300
2026-01-19 00:26:04.06	335.82	42.54	-45.6	-49.3	15.0	0.00e+00	0	43	0	499122176	63	5333
2026-01-19 00:26:05.52	335.25	42.80	-45.5	-49.2	15.0	0.00e+00	0	43	0	501219328	62	5591
2026-01-19 00:26:06.23	334.98	42.93	-45.3	-48.7	15.6	0.00e+00	0	43	0	503316480	62	5277
2026-01-19 00:26:07.51	334.47	43.16	-45.2	-48.5	15.8	0.00e+00	0	43	0	505413632	62	5157
2026-01-19 00:26:08.22	334.18	43.29	-45.4	-48.7	15.6	0.00e+00	0	43	0	506462208	62	5275
2026-01-19 00:26:09.50	333.66	43.52	-45.5	-48.8	15.6	0.00e+00	0	43	0	508559360	62	5289
2026-01-19 00:26:10.21	333.37	43.64	-45.5	-48.8	15.6	0.00e+00	0	43	0	510656512	62	5295
2026-01-19 00:26:11.49	332.84	43.87	-45.6	-48.8	15.6	0.00e+00	0	43	0	512753664	62	5294
2026-01-19 00:26:12.21	332.54	43.99	-45.2	-48.2	16.0	0.00e+00	0	43	0	513802240	62	4979
2026-01-19 00:26:13.49	332.00	44.22	-45.1	-48.1	16.3	0.00e+00	0	43	0	516947968	62	4877
2026-01-19 00:26:14.21	331.69	44.34	-45.2	-48.3	16.0	0.00e+00	0	43	0	517996544	62	5005
2026-01-19 00:26:15.48	331.14	44.56	-45.4	-48.7	15.6	0.00e+00	0	43	0	520093696	62	5228
2026-01-19 00:26:16.20	330.82	44.68	-45.6	-49.0	15.4	0.00e+00	0	43	0	521142272	62	5423
2026-01-19 00:26:17.48	330.25	44.90	-45.5	-48.9	15.4	0.00e+00	0	44	0	524288000	62	5382
2026-01-19 00:26:18.20	329.93	45.02	-45.4	-48.7	15.6	0.00e+00	0	43	0	525336576	62	5279
2026-01-19 00:26:19.52	329.33	45.24	-44.8	-47.9	16.4	0.00e+00	0	43	0	527433728	61	5063
2026-01-19 00:26:20.23	329.01	45.36	-44.6	-47.5	16.8	0.00e+00	0	43	0	529530880	61	4854
2026-01-19 00:26:21.58	328.38	45.58	-44.5	-47.3	17.0	0.00e+00	0	43	0	531628032	60	5041
2026-01-19 00:26:22.29	328.05	45.70	-44.5	-47.3	17.0	0.00e+00	0	43	0	532676608	60	5032
2026-01-19 00:26:23.57	327.45	45.91	-44.6	-47.5	16.8	0.00e+00	0	43	0	535822336	60	5125
2026-01-19 00:26:24.29	327.10	46.02	-44.6	-47.5	16.8	0.00e+00	0	43	0	536870912	60	5112
2026-01-19 00:26:25.57	326.49	46.23	-44.6	-47.5	16.7	0.00e+00	0	43	0	538968064	60	5153
2026-01-19 00:26:26.29	326.14	46.34	-44.6	-47.5	16.8	0.00e+00	0	43	0	540016640	60	5113
2026-01-19 00:26:27.72	325.43	46.56	-44.5	-47.4	16.9	0.00e+00	0	43	0	543162368	60	5070
2026-01-19 00:26:28.43	325.08	46.67	-44.5	-47.3	16.9	0.00e+00	0	43	0	544210944	60	5038
2026-01-19 00:26:29.77	324.41	46.87	-44.2	-47.0	17.2	0.00e+00	0	43	0	547356672	60	4869
2026-01-19 00:26:30.48	324.04	46.98	-44.0	-46.7	17.6	0.00e+00	0	43	0	548405248	60	4691
2026-01-19 00:26:31.77	323.38	47.17	-44.0	-46.7	17.5	0.00e+00	0	43	0	550502400	59	4962
2026-01-19 00:26:32.49	323.01	47.27	-44.1	-46.7	17.5	0.00e+00	0	43	0	551550976	59	4971
2026-01-19 00:26:33.77	322.34	47.46	-44.1	-46.8	17.4	0.00e+00	0	43	0	554696704	59	5000
2026-01-19 00:26:34.50	321.96	47.56	-44.1	-46.7	17.5	0.00e+00	0	43	0	555745280	59	4974
2026-01-19 00:26:35.78	321.28	47.74	-44.2	-46.9	17.3	0.00e+00	0	43	0	557842432	59	5069
2026-01-19 00:26:36.52	320.88	47.84	-44.2	-46.9	17.3	0.00e+00	0	43	0	559939584	59	5076
2026-01-19 00:26:37.80	320.19	48.01	-44.7	-47.6	16.7	0.00e+00	0	43	0	562036736	60	5168
2026-01-19 00:26:38.52	319.79	48.11	-45.0	-48.0	16.3	0.00e+00	0	43	0	563085312	60	5451
2026-01-19 00:26:39.80	319.09	48.27	-45.2	-48.3	16.1	0.00e+00	0	43	0	566231040	61	5291
2026-01-19 00:26:40.60	318.64	48.37	-45.2	-48.4	15.9	0.00e+00	0	43	0	567279616	61	5362
2026-01-19 00:26:42.03	317.84	48.55	-45.3	-48.5	15.7	0.00e+00	0	43	0	570425344	61	5461
2026-01-19 00:26:42.74	317.44	48.64	-45.4	-48.7	15.7	0.00e+00	0	43	0	571473920	61	5533
2026-01-19 00:26:44.01	316.72	48.79	-45.4	-48.6	15.7	0.00e+00	0	43	0	573571072	61	5509
2026-01-19 00:26:44.74	316.30	48.87	-45.6	-49.0	15.3	0.00e+00	0	43	0	574619648	61	5733
2026-01-19 00:26:46.02	315.55	49.02	-45.6	-48.9	15.4	0.00e+00	0	44	0	577765376	62	5360
2026-01-19 00:26:46.74	315.13	49.10	-45.7	-49.1	15.2	0.00e+00	0	43	0	578813952	62	5478
2026-01-19 00:26:48.02	314.38	49.23	-46.1	-49.7	14.6	7.00e-07	0	43	0	580911104	62	5920
2026-01-19 00:26:48.76	313.95	49.31	-46.3	-50.2	14.1	7.00e-07	0	43	0	583008256	63	5883
2026-01-19 00:26:50.04	313.18	49.44	-46.3	-50.1	14.2	1.50e-06	0	44	0	585105408	63	5841
2026-01-19 00:26:50.75	312.76	49.51	-46.2	-49.9	14.5	1.50e-06	0	43	0	586153984	63	5665
2026-01-19 00:26:52.03	311.99	49.63	-46.0	-49.7	14.6	0.00e+00	0	43	0	588251136	63	5558
2026-01-19 00:26:52.74	311.55	49.70	-45.9	-49.5	14.8	0.00e+00	0	43	0	590348288	63	5419
2026-01-19 00:26:54.02	310.77	49.81	-46.0	-49.7	14.6	7.00e-07	0	43	0	592445440	63	5555
2026-01-19 00:26:54.73	310.34	49.87	-45.7	-49.3	15.0	1.50e-06	0	43	0	593494016	63	5287
2026-01-19 00:26:56.15	309.46	49.98	-45.4	-48.6	15.8	0.00e+00	0	43	0	596639744	62	5189
2026-01-19 00:26:56.86	309.02	50.04	-45.3	-48.5	15.9	0.00e+00	0	43	0	597688320	62	5127
2026-01-19 00:26:58.14	308.22	50.13	-45.5	-48.9	15.4	0.00e+00	0	43	0	599785472	62	5370
2026-01-19 00:26:59.18	307.57	50.21	-45.7	-49.3	15.2	0.00e+00	0	44	0	601882624	62	5621
2026-01-19 00:27:00.47	306.75	50.29	-45.4	-48.6	15.7	0.00e+00	0	43	0	605028352	62	5215
2026-01-19 00:27:01.18	306.30	50.34	-44.7	-47.7	16.7	0.00e+00	0	44	0	606076928	61	4951
2026-01-19 00:27:02.47	305.48	50.41	-43.9	-46.5	17.7	0.00e+00	0	43	0	608174080	59	4838
2026-01-19 00:27:03.20	305.02	50.45	-43.9	-46.6	17.7	0.00e+00	0	43	0	609222656	59	4874
2026-01-19 00:27:04.48	304.20	50.52	-43.7	-46.2	18.0	0.00e+00	0	43	0	612368384	59	4679
2026-01-19 00:27:05.22	303.72	50.55	-43.5	-45.9	18.3	0.00e+00	0	43	0	613416960	59	4541
2026-01-19 00:27:06.50	302.89	50.61	-43.5	-46.0	18.3	0.00e+00	0	43	0	615514112	58	4856
2026-01-19 00:27:07.21	302.43	50.64	-43.4	-45.9	18.3	0.00e+00	0	43	0	617611264	58	4788
2026-01-19 00:27:08.49	301.60	50.68	-43.3	-45.8	18.4	0.00e+00	0	43	0	619708416	58	4713
2026-01-19 00:27:09.20	301.14	50.71	-43.2	-45.7	18.6	0.00e+00	0	44	0	620756992	58	4665
2026-01-19 00:27:10.48	300.31	50.74	-43.0	-45.4	18.8	0.00e+00	0	44	0	622854144	58	4498
2026-01-19 00:27:11.19	299.85	50.76	-43.0	-45.3	18.8	0.00e+00	0	43	0	624951296	57	4752
2026-01-19 00:27:12.66	298.89	50.79	-42.9	-45.2	18.9	0.00e+00	0	43	0	627048448	57	4688
2026-01-19 00:27:13.37	298.42	50.80	-42.8	-45.2	19.0	0.00e+00	0	43	0	629145600	57	4660
2026-01-19 00:27:14.71	297.54	50.82	-42.7	-45.0	19.2	0.00e+00	0	43	0	631242752	57	4579
2026-01-19 00:27:15.42	297.08	50.82	-42.7	-45.0	19.2	0.00e+00	0	43	0	632291328	57	4592
2026-01-19 00:27:16.70	296.24	50.83	-43.0	-45.3	18.9	0.00e+00	0	43	0	635437056	57	4736
2026-01-19 00:27:17.44	295.75	50.83	-42.8	-45.1	19.0	0.00e+00	0	43	0	636485632	57	4624
2026-01-19 00:27:18.72	294.91	50.82	-42.4	-44.6	19.5	0.00e+00	0	43	0	638582784	56	4644
2026-01-19 00:27:19.43	294.45	50.82	-42.3	-44.5	19.7	0.00e+00	0	43	0	639631360	56	4576
2026-01-19 00:27:20.71	293.61	50.80	-42.4	-44.7	19.5	0.00e+00	0	43	0	642777088	56	4669
2026-01-19 00:27:21.43	293.14	50.79	-42.5	-44.7	19.4	0.00e+00	0	43	0	643825664	56	4700
2026-01-19 00:27:22.71	292.30	50.76	-43.0	-45.4	18.9	0.00e+00	0	44	0	645922816	56	5059
2026-01-19 00:27:23.47	291.80	50.74	-43.3	-45.7	18.4	0.00e+00	0	43	0	648019968	57	4971
2026-01-19 00:27:24.75	290.97	50.71	-43.4	-45.8	18.4	0.00e+00	0	43	0	650117120	57	5035
2026-01-19 00:27:25.51	290.48	50.68	-43.5	-45.9	18.3	0.00e+00	0	43	0	651165696	57	5098
2026-01-19 00:27:26.79	289.64	50.64	-43.4	-45.8	18.4	0.00e+00	0	43	0	654311424	57	5003
2026-01-19 00:27:27.59	289.13	50.61	-43.2	-45.5	18.6	0.00e+00	0	43	0	655360000	57	4870
2026-01-19 00:27:29.01	288.21	50.54	-43.1	-45.5	18.7	0.00e+00	0	43	0	658505728	57	4815
2026-01-19 00:27:29.72	287.75	50.51	-43.3	-45.7	18.5	0.00e+00	0	43	0	659554304	57	4983
2026-01-19 00:27:31.00	286.93	50.44	-43.5	-46.0	18.2	0.00e+00	0	43	0	661651456	57	5105
2026-01-19 00:27:31.71	286.48	50.40	-43.6	-46.1	18.1	0.00e+00	0	43	0	662700032	57	5188
2026-01-19 00:27:33.26	285.49	50.31	-43.5	-46.0	18.3	0.00e+00	0	43	0	665845760	57	5105
2026-01-19 00:27:33.97	285.04	50.27	-43.6	-46.1	18.2	0.00e+00	0	43	0	666894336	58	4871
2026-01-19 00:27:35.25	284.24	50.18	-43.5	-46.0	18.2	0.00e+00	0	43	0	670040064	58	4830
2026-01-19 00:27:35.97	283.79	50.13	-43.5	-45.9	18.2	0.00e+00	0	43	0	671088640	58	4812
2026-01-19 00:27:37.25	282.99	50.03	-43.4	-45.9	18.3	0.00e+00	0	43	0	673185792	58	4778
2026-01-19 00:27:37.96	282.54	49.98	-43.5	-45.9	18.3	0.00e+00	0	43	0	675282944	58	4810
2026-01-19 00:27:39.48	281.60	49.85	-43.8	-46.3	17.9	0.00e+00	0	43	0	677380096	58	5006
2026-01-19 00:27:40.19	281.17	49.79	-43.8	-46.3	17.9	0.00e+00	0	43	0	678428672	58	5035
2026-01-19 00:27:41.47	280.39	49.68	-43.9	-46.6	17.7	0.00e+00	0	43	0	681574400	58	5179
2026-01-19 00:27:42.19	279.95	49.61	-43.7	-46.3	17.9	0.00e+00	0	43	0	682622976	58	5022
2026-01-19 00:27:43.57	279.12	49.48	-43.9	-46.5	17.6	0.00e+00	0	44	0	685768704	58	5158
2026-01-19 00:27:44.28	278.69	49.41	-43.9	-46.5	17.7	0.00e+00	0	43	0	686817280	58	5128
2026-01-19 00:27:45.62	277.90	49.27	-43.9	-46.5	17.7	0.00e+00	0	43	0	688914432	58	5115
2026-01-19 00:27:46.33	277.48	49.20	-44.0	-46.6	17.7	0.00e+00	0	43	0	689963008	58	5199
2026-01-19 00:27:47.61	276.72	49.06	-44.5	-47.2	17.0	0.00e+00	0	43	0	693108736	59	5279
2026-01-19 00:27:48.67	276.11	48.94	-44.7	-47.6	16.7	0.00e+00	0	43	0	695205888	60	5201
2026-01-19 00:27:49.82	275.44	48.81	-45.0	-48.0	16.3	0.00e+00	0	43	0	697303040	60	5410
2026-01-19 00:27:50.67	274.96	48.71	-45.2	-48.2	16.1	0.00e+00	0	43	0	698351616	61	5271
2026-01-19 00:27:51.81	274.31	48.57	-45.0	-48.0	16.3	0.00e+00	0	43	0	700448768	61	5120
2026-01-19 00:27:52.66	273.83	48.47	-44.9	-47.8	16.6	0.00e+00	0	43	0	702545920	61	4986
2026-01-19 00:27:53.80	273.19	48.33	-44.5	-47.4	16.9	0.00e+00	0	44	0	704643072	61	4760
2026-01-19 00:27:54.65	272.72	48.22	-44.6	-47.4	16.8	0.00e+00	0	44	0	705691648	61	4787
2026-01-19 00:27:55.82	272.08	48.06	-44.6	-47.4	16.9	0.00e+00	0	43	0	707788800	61	4797
2026-01-19 00:27:56.67	271.61	47.95	-44.9	-47.9	16.5	0.00e+00	0	43	0	709885952	61	5044
2026-01-19 00:27:57.81	270.99	47.80	-45.1	-48.2	16.1	0.00e+00	0	44	0	711983104	61	5235
2026-01-19 00:27:58.66	270.54	47.68	-45.4	-48.7	15.7	0.00e+00	0	43	0	714080256	61	5538
2026-01-19 00:27:59.80	269.93	47.52	-45.3	-48.5	15.8	0.00e+00	0	44	0	716177408	61	5457
2026-01-19 00:28:00.70	269.46	47.39	-45.3	-48.4	15.8	0.00e+00	0	43	0	717225984	61	5387
2026-01-19 00:28:01.91	268.83	47.22	-45.2	-48.2	16.1	0.00e+00	0	43	0	719323136	61	5244
2026-01-19 00:28:02.76	268.39	47.09	-45.0	-47.9	16.4	0.00e+00	0	43	0	721420288	61	5089
2026-01-19 00:28:04.03	267.74	46.90	-44.5	-47.3	17.0	0.00e+00	0	43	0	723517440	61	4725
2026-01-19 00:28:04.83	267.34	46.78	-44.4	-47.2	17.1	0.00e+00	0	44	0	725614592	60	4960
2026-01-19 00:28:05.97	266.76	46.61	-44.3	-47.0	17.2	0.00e+00	0	43	0	727711744	60	4851
2026-01-19 00:28:06.82	266.34	46.48	-44.3	-47.0	17.2	0.00e+00	0	44	0	728760320	60	4839
2026-01-19 00:28:08.14	265.69	46.27	-44.3	-47.1	17.2	0.00e+00	0	43	0	731906048	60	4872
2026-01-19 00:28:08.85	265.35	46.16	-44.4	-47.2	17.1	0.00e+00	0	43	0	732954624	60	4935
2026-01-19 00:28:10.13	264.73	45.95	-44.4	-47.2	17.1	0.00e+00	0	43	0	735051776	60	4953
2026-01-19 00:28:10.86	264.38	45.83	-44.3	-47.0	17.4	0.00e+00	0	43	0	736100352	60	4843
2026-01-19 00:28:12.14	263.78	45.63	-44.1	-46.8	17.4	0.00e+00	0	43	0	739246080	60	4753
2026-01-19 00:28:12.88	263.43	45.50	-43.9	-46.5	17.6	0.00e+00	0	43	0	740294656	59	4857
2026-01-19 00:28:14.15	262.85	45.29	-43.9	-46.5	17.7	0.00e+00	0	43	0	742391808	59	4840
2026-01-19 00:28:14.91	262.50	45.17	-43.7	-46.3	17.9	0.00e+00	0	44	0	744488960	59	4717
2026-01-19 00:28:16.19	261.92	44.95	-43.7	-46.2	18.0	0.00e+00	0	43	0	746586112	59	4684
2026-01-19 00:28:16.90	261.60	44.83	-43.8	-46.4	17.9	0.00e+00	0	43	0	747634688	59	4763
2026-01-19 00:28:18.18	261.04	44.61	-44.0	-46.6	17.5	0.00e+00	0	43	0	749731840	59	4923
2026-01-19 00:28:18.92	260.71	44.48	-44.2	-46.9	17.3	0.00e+00	0	43	0	751828992	59	5066
2026-01-19 00:28:20.20	260.16	44.26	-44.2	-47.0	17.3	0.00e+00	0	43	0	753926144	59	5140
2026-01-19 00:28:20.93	259.85	44.13	-44.1	-46.9	17.4	0.00e+00	0	43	0	754974720	59	5063
2026-01-19 00:28:22.21	259.31	43.91	-43.8	-46.3	17.9	0.00e+00	0	43	0	758120448	59	4738
2026-01-19 00:28:22.91	259.01	43.79	-43.8	-46.3	17.9	0.00e+00	0	44	0	759169024	59	4733
2026-01-19 00:28:24.25	258.46	43.55	-43.8	-46.4	17.8	0.00e+00	0	43	0	761266176	59	4771
2026-01-19 00:28:24.97	258.16	43.42	-44.0	-46.7	17.6	0.00e+00	0	43	0	763363328	59	4933
2026-01-19 00:28:26.25	257.64	43.19	-44.1	-46.7	17.5	0.00e+00	0	44	0	765460480	59	4951
2026-01-19 00:28:26.96	257.36	43.07	-44.2	-46.9	17.3	0.00e+00	0	43	0	766509056	59	5064
2026-01-19 00:28:28.23	256.86	42.84	-44.4	-47.1	17.1	0.00e+00	0	43	0	768606208	59	5181
2026-01-19 00:28:28.94	256.58	42.71	-44.5	-47.2	17.0	0.00e+00	0	44	0	770703360	59	5269
2026-01-19 00:28:30.22	256.08	42.48	-44.2	-46.8	17.4	0.00e+00	0	43	0	772800512	59	5030
2026-01-19 00:28:30.93	255.81	42.35	-44.0	-46.7	17.5	0.00e+00	0	43	0	773849088	59	4939
2026-01-19 00:28:32.21	255.33	42.11	-43.8	-46.4	17.8	0.00e+00	0	44	0	776994816	59	4789
2026-01-19 00:28:32.94	255.05	41.98	-43.7	-46.2	17.9	0.00e+00	0	44	0	778043392	59	4686
2026-01-19 00:28:34.22	254.58	41.74	-43.6	-46.1	18.1	0.00e+00	0	43	0	780140544	59	4614
2026-01-19 00:28:34.97	254.31	41.61	-43.6	-46.1	18.0	0.00e+00	0	43	0	781189120	59	4648
2026-01-19 00:28:36.25	253.84	41.37	-44.0	-46.5	17.7	0.00e+00	0	43	0	784334848	59	4870
2026-01-19 00:28:36.99	253.58	41.23	-44.4	-47.1	17.1	0.00e+00	0	44	0	785383424	59	5166
2026-01-19 00:28:38.27	253.13	41.00	-44.5	-47.2	17.0	0.00e+00	0	43	0	787480576	59	5274
2026-01-19 00:28:39.00	252.87	40.86	-44.1	-46.7	17.5	0.00e+00	0	44	0	789577728	59	4947
2026-01-19 00:28:40.28	252.43	40.62	-43.7	-46.2	18.0	0.00e+00	0	43	0	791674880	59	4652
2026-01-19 00:28:41.00	252.19	40.49	-43.7	-46.2	18.0	0.00e+00	0	44	0	792723456	59	4672
2026-01-19 00:28:42.28	251.75	40.25	-44.0	-46.6	17.6	0.00e+00	0	44	0	795869184	59	4879
2026-01-19 00:28:43.02	251.51	40.11	-44.0	-46.6	17.6	0.00e+00	0	43	0	796917760	59	4906
2026-01-19 00:28:44.30	251.09	39.88	-44.3	-47.0	17.2	0.00e+00	0	43	0	799014912	59	5157
2026-01-19 00:28:45.24	250.78	39.70	-44.5	-47.3	16.9	0.00e+00	0	44	0	801112064	59	5302
2026-01-19 00:28:46.24	250.46	39.51	-44.5	-47.3	16.9	0.00e+00	0	44	0	803209216	59	5315
2026-01-19 00:28:47.23	250.14	39.33	-44.7	-47.6	16.7	0.00e+00	0	44	0	804257792	60	5196
2026-01-19 00:28:48.22	249.83	39.14	-44.5	-47.3	16.9	0.00e+00	0	43	0	806354944	60	5039
2026-01-19 00:28:49.22	249.52	38.96	-44.6	-47.5	16.8	0.00e+00	0	43	0	808452096	60	5116
2026-01-19 00:28:50.22	249.22	38.77	-44.8	-47.8	16.4	0.00e+00	0	43	0	810549248	60	5309
2026-01-19 00:28:51.21	248.91	38.59	-45.0	-48.1	16.2	0.00e+00	0	43	0	812646400	60	5495
2026-01-19 00:28:52.21	248.61	38.40	-44.8	-47.8	16.5	0.00e+00	0	43	0	813694976	60	5306
2026-01-19 00:28:53.20	248.32	38.22	-44.8	-47.8	16.5	0.00e+00	0	43	0	815792128	60	5289
2026-01-19 00:28:54.24	248.02	38.02	-44.9	-47.9	16.5	0.00e+00	0	43	0	817889280	60	5341
2026-01-19 00:28:55.23	247.73	37.84	-45.0	-48.0	16.3	0.00e+00	0	43	0	819986432	60	5413
2026-01-19 00:28:56.23	247.44	37.65	-45.2	-48.3	15.9	0.00e+00	0	43	0	821035008	61	5326
2026-01-19 00:28:57.33	247.13	37.45	-45.3	-48.5	15.8	0.00e+00	0	43	0	823132160	61	5410
2026-01-19 00:28:58.23	246.88	37.28	-45.3	-48.5	15.8	0.00e+00	0	43	0	825229312	61	5422
2026-01-19 00:28:59.35	246.57	37.08	-45.3	-48.4	15.8	0.00e+00	0	43	0	827326464	61	5397
2026-01-19 00:29:00.20	246.33	36.92	-45.2	-48.3	15.9	0.00e+00	0	43	0	829423616	61	5327
2026-01-19 00:29:01.34	246.03	36.71	-45.4	-48.6	15.6	0.00e+00	0	43	0	831520768	61	5484
2026-01-19 00:29:02.19	245.80	36.55	-45.6	-48.8	15.4	0.00e+00	0	44	0	832569344	61	5637
2026-01-19 00:29:03.33	245.50	36.35	-45.6	-48.8	15.5	0.00e+00	0	43	0	834666496	61	5632
2026-01-19 00:29:04.18	245.27	36.19	-45.6	-48.9	15.4	0.00e+00	0	44	0	836763648	61	5688
2026-01-19 00:29:05.32	244.98	35.98	-45.8	-49.2	15.2	0.00e+00	0	44	0	838860800	62	5531
2026-01-19 00:29:06.17	244.76	35.83	-45.8	-49.2	15.0	0.00e+00	0	43	0	839909376	62	5587
2026-01-19 00:29:07.31	244.47	35.62	-45.8	-49.1	15.1	0.00e+00	0	44	0	842006528	62	5505
2026-01-19 00:29:08.16	244.26	35.46	-45.5	-48.6	15.6	0.00e+00	0	43	0	844103680	62	5211
2026-01-19 00:29:09.30	243.98	35.26	-45.4	-48.5	15.8	0.00e+00	0	43	0	846200832	62	5127
2026-01-19 00:29:10.15	243.77	35.10	-45.3	-48.4	15.9	0.00e+00	0	43	0	847249408	62	5046
2026-01-19 00:29:11.29	243.49	34.90	-45.3	-48.4	15.9	0.00e+00	0	43	0	849346560	62	5048
2026-01-19 00:29:12.14	243.29	34.74	-45.3	-48.4	15.9	0.00e+00	0	43	0	851443712	62	5066
2026-01-19 00:29:13.49	242.97	34.50	-45.5	-48.7	15.6	0.00e+00	0	43	0	853540864	62	5240
2026-01-19 00:29:14.21	242.80	34.37	-45.6	-48.8	15.5	0.00e+00	0	44	0	855638016	62	5298
2026-01-19 00:29:15.49	242.51	34.15	-45.8	-49.1	15.2	0.00e+00	0	43	0	857735168	62	5494
2026-01-19 00:29:16.20	242.35	34.02	-46.1	-49.6	14.7	7.00e-07	0	43	0	858783744	62	5805
2026-01-19 00:29:17.48	242.06	33.79	-46.0	-49.5	14.8	7.00e-07	0	44	0	860880896	62	5739
2026-01-19 00:29:18.20	241.90	33.66	-46.0	-49.4	14.9	0.00e+00	0	43	0	862978048	62	5670
2026-01-19 00:29:19.48	241.61	33.44	-45.7	-49.0	15.2	0.00e+00	0	44	0	865075200	62	5457
2026-01-19 00:29:20.29	241.43	33.30	-45.7	-49.0	15.3	0.00e+00	0	43	0	866123776	62	5423
2026-01-19 00:29:21.43	241.19	33.10	-45.6	-48.8	15.4	0.00e+00	0	44	0	869269504	62	5336
2026-01-19 00:29:22.28	241.01	32.95	-45.5	-48.8	15.5	7.00e-07	0	43	0	870318080	62	5285
2026-01-19 00:29:23.42	240.76	32.75	-45.3	-48.4	15.8	0.00e+00	0	44	0	872415232	62	5091
2026-01-19 00:29:24.27	240.59	32.60	-45.4	-48.6	15.7	0.00e+00	0	43	0	874512384	62	5181
2026-01-19 00:29:25.41	240.35	32.40	-45.3	-48.5	15.8	0.00e+00	0	43	0	876609536	62	5108
2026-01-19 00:29:26.26	240.18	32.26	-45.3	-48.5	15.8	0.00e+00	0	43	0	877658112	62	5103
2026-01-19 00:29:27.40	239.94	32.06	-45.5	-48.7	15.6	0.00e+00	0	43	0	879755264	62	5227
2026-01-19 00:29:28.26	239.77	31.91	-45.6	-48.8	15.5	0.00e+00	0	43	0	881852416	62	5305
2026-01-19 00:29:29.39	239.55	31.72	-45.6	-48.9	15.3	0.00e+00	0	43	0	883949568	62	5368
2026-01-19 00:29:30.25	239.38	31.57	-45.6	-48.9	15.3	0.00e+00	0	43	0	884998144	62	5384
2026-01-19 00:29:31.51	239.13	31.36	-45.7	-49.1	15.2	0.00e+00	0	43	0	888143872	62	5471
2026-01-19 00:29:32.30	238.98	31.23	-45.7	-49.1	15.2	0.00e+00	0	43	0	889192448	62	5496
2026-01-19 00:29:33.48	238.76	31.03	-45.7	-49.0	15.2	0.00e+00	0	43	0	891289600	62	5461
2026-01-19 00:29:34.33	238.60	30.89	-45.6	-48.9	15.2	0.00e+00	0	43	0	893386752	62	5391
2026-01-19 00:29:35.47	238.38	30.69	-45.6	-48.9	15.3	0.00e+00	0	43	0	895483904	62	5382
2026-01-19 00:29:36.33	238.23	30.55	-45.6	-48.8	15.5	0.00e+00	0	43	0	896532480	62	5296
2026-01-19 00:29:37.46	238.02	30.36	-45.4	-48.6	15.7	0.00e+00	0	43	0	898629632	62	5174
2026-01-19 00:29:38.31	237.87	30.22	-45.3	-48.3	15.9	0.00e+00	0	43	0	900726784	62	5041
2026-01-19 00:29:39.45	237.66	30.04	-45.2	-48.2	16.0	0.00e+00	0	43	0	902823936	62	4971
2026-01-19 00:29:40.31	237.51	29.89	-44.9	-47.9	16.3	0.00e+00	0	44	0	903872512	61	5070
2026-01-19 00:29:41.45	237.31	29.71	-44.9	-47.9	16.4	0.00e+00	0	43	0	905969664	61	5063
2026-01-19 00:29:42.30	237.16	29.57	-44.9	-47.9	16.3	0.00e+00	0	44	0	908066816	61	5086
2026-01-19 00:29:43.43	236.97	29.39	-45.0	-48.0	16.2	0.00e+00	0	43	0	910163968	61	5142
2026-01-19 00:29:44.28	236.82	29.25	-45.0	-48.1	16.1	0.00e+00	0	43	0	911212544	61	5173
2026-01-19 00:29:45.42	236.63	29.07	-45.0	-48.0	16.2	0.00e+00	0	44	0	913309696	61	5134
2026-01-19 00:29:46.27	236.49	28.93	-44.9	-48.0	16.3	0.00e+00	0	43	0	915406848	61	5101
2026-01-19 00:29:47.41	236.30	28.75	-44.8	-47.8	16.4	0.00e+00	0	43	0	917504000	61	5004
2026-01-19 00:29:48.26	236.16	28.61	-44.9	-47.9	16.3	0.00e+00	0	43	0	919601152	61	5071
2026-01-19 00:29:49.40	235.98	28.43	-45.0	-48.0	16.3	0.00e+00	0	43	0	921698304	61	5105
2026-01-19 00:29:50.25	235.84	28.30	-44.9	-47.8	16.4	0.00e+00	0	43	0	922746880	61	5036
2026-01-19 00:29:51.39	235.66	28.12	-44.5	-47.3	16.9	0.00e+00	0	44	0	924844032	61	4729
2026-01-19 00:29:52.24	235.53	27.99	-44.4	-47.2	17.0	0.00e+00	0	43	0	926941184	60	4956
2026-01-19 00:29:53.52	235.33	27.79	-44.4	-47.2	17.0	0.00e+00	0	43	0	929038336	60	4946
2026-01-19 00:29:54.25	235.22	27.67	-44.4	-47.2	17.0	0.00e+00	0	43	0	930086912	60	4969
2026-01-19 00:29:55.53	235.02	27.48	-44.4	-47.2	17.0	0.00e+00	0	43	0	933232640	60	4974
2026-01-19 00:29:56.25	234.92	27.36	-44.5	-47.3	17.0	0.00e+00	0	44	0	934281216	60	4988
2026-01-19 00:29:57.53	234.73	27.17	-44.5	-47.3	16.8	0.00e+00	0	44	0	936378368	60	5036
2026-01-19 00:29:58.26	234.62	27.06	-44.6	-47.5	16.7	0.00e+00	0	43	0	937426944	60	5116
2026-01-19 00:29:59.54	234.43	26.86	-44.4	-47.2	16.9	0.00e+00	0	43	0	940572672	60	4980
2026-01-19 00:30:00.26	234.33	26.75	-44.2	-46.9	17.2	0.00e+00	0	44	0	941621248	60	4809
2026-01-19 00:30:01.54	234.14	26.56	-44.2	-46.9	17.3	0.00e+00	0	43	0	943718400	60	4779
2026-01-19 00:30:02.26	234.04	26.45	-44.3	-47.1	17.1	0.00e+00	0	43	0	945815552	60	4880
2026-01-19 00:30:03.54	233.86	26.26	-44.3	-47.1	17.1	0.00e+00	0	43	0	947912704	60	4889
2026-01-19 00:30:04.28	233.76	26.15	-44.3	-47.1	17.0	0.00e+00	0	43	0	948961280	60	4926
2026-01-19 00:30:05.56	233.58	25.96	-44.5	-47.4	16.8	0.00e+00	0	43	0	951058432	60	5049
2026-01-19 00:30:06.27	233.48	25.86	-44.5	-47.4	16.7	0.00e+00	0	44	0	953155584	60	5096
2026-01-19 00:30:07.57	233.31	25.67	-44.6	-47.5	16.7	0.00e+00	0	43	0	955252736	60	5114
2026-01-19 00:30:08.28	233.21	25.56	-44.6	-47.6	16.6	0.00e+00	0	43	0	956301312	60	5165
2026-01-19 00:30:09.56	233.04	25.38	-44.6	-47.6	16.6	0.00e+00	0	43	0	959447040	60	5186
2026-01-19 00:30:10.28	232.94	25.27	-44.6	-47.5	16.7	0.00e+00	0	43	0	960495616	60	5144
2026-01-19 00:30:11.66	232.76	25.07	-44.4	-47.3	16.9	0.00e+00	0	44	0	962592768	60	5017
2026-01-19 00:30:12.37	232.67	24.97	-44.4	-47.2	17.0	0.00e+00	0	43	0	964689920	60	4961
2026-01-19 00:30:13.73	232.50	24.78	-44.3	-47.1	17.0	0.00e+00	0	43	0	966787072	60	4914
2026-01-19 00:30:14.44	232.41	24.68	-44.2	-47.0	17.2	0.00e+00	0	43	0	967835648	60	4828
2026-01-19 00:30:15.78	232.24	24.49	-44.1	-46.8	17.4	0.00e+00	0	43	0	970981376	60	4723
2026-01-19 00:30:16.49	232.15	24.39	-44.1	-46.8	17.4	0.00e+00	0	43	0	972029952	60	4715
2026-01-19 00:30:17.83	231.99	24.20	-44.0	-46.6	17.5	0.00e+00	0	43	0	974127104	59	4898
2026-01-19 00:30:18.54	231.90	24.10	-44.0	-46.7	17.4	0.00e+00	0	43	0	976224256	59	4936
2026-01-19 00:30:19.82	231.74	23.92	-44.1	-46.7	17.4	0.00e+00	0	44	0	978321408	59	4966
2026-01-19 00:30:20.55	231.66	23.82	-44.0	-46.7	17.4	0.00e+00	0	44	0	979369984	59	4932
2026-01-19 00:30:21.82	231.51	23.64	-44.0	-46.7	17.4	0.00e+00	0	43	0	982515712	59	4935
2026-01-19 00:30:22.53	231.42	23.55	-44.0	-46.6	17.5	0.00e+00	0	43	0	983564288	59	4893
2026-01-19 00:30:23.81	231.27	23.37	-44.0	-46.7	17.4	0.00e+00	0	43	0	985661440	59	4962
2026-01-19 00:30:24.53	231.19	23.27	-44.0	-46.7	17.4	0.00e+00	0	43	0	986710016	59	4945
2026-01-19 00:30:25.81	231.04	23.10	-44.1	-46.8	17.3	0.00e+00	0	43	0	989855744	59	5002
2026-01-19 00:30:26.53	230.96	23.00	-44.0	-46.6	17.4	0.00e+00	0	43	0	990904320	59	4922
2026-01-19 00:30:27.81	230.82	22.83	-44.0	-46.7	17.4	0.00e+00	0	43	0	993001472	59	4970
2026-01-19 00:30:28.52	230.74	22.73	-43.9	-46.6	17.5	0.00e+00	0	44	0	995098624	59	4883
2026-01-19 00:30:29.80	230.60	22.56	-44.0	-46.6	17.4	0.00e+00	0	44	0	997195776	59	4920
2026-01-19 00:30:30.52	230.52	22.47	-43.9	-46.6	17.5	0.00e+00	0	43	0	998244352	59	4882
2026-01-19 00:30:31.80	230.38	22.30	-44.0	-46.7	17.4	0.00e+00	0	43	0	1000341504	59	4932
2026-01-19 00:30:32.67	230.28	22.18	-44.1	-46.8	17.3	0.00e+00	0	43	0	1002438656	59	4985
2026-01-19 00:30:34.11	230.13	21.99	-44.1	-46.8	17.3	0.00e+00	0	44	0	1005584384	59	4999
2026-01-19 00:30:35.23	230.01	21.85	-44.0	-46.7	17.4	0.00e+00	0	43	0	1007681536	59	4964
2026-01-19 00:30:36.08	229.92	21.74	-44.1	-46.7	17.3	0.00e+00	0	43	0	1008730112	59	4975
2026-01-19 00:30:37.22	229.80	21.59	-44.1	-46.7	17.3	0.00e+00	0	43	0	1010827264	59	4975
2026-01-19 00:30:38.07	229.72	21.48	-44.0	-46.7	17.4	0.00e+00	0	43	0	1012924416	59	4969
2026-01-19 00:30:39.21	229.60	21.34	-43.9	-46.6	17.5	0.00e+00	0	43	0	1015021568	59	4896
2026-01-19 00:30:40.06	229.51	21.23	-43.9	-46.5	17.5	0.00e+00	0	43	0	1016070144	59	4839
2026-01-19 00:30:41.20	229.40	21.08	-44.0	-46.7	17.3	0.00e+00	0	43	0	1018167296	59	4963
2026-01-19 00:30:42.09	229.31	20.97	-43.9	-46.6	17.5	0.00e+00	0	43	0	1020264448	59	4884
2026-01-19 00:30:43.39	229.18	20.81	-43.8	-46.4	17.6	0.00e+00	0	43	0	1022361600	59	4809
2026-01-19 00:30:44.10	229.11	20.72	-43.9	-46.5	17.5	0.00e+00	0	43	0	1023410176	59	4868
2026-01-19 00:30:45.38	228.99	20.56	-43.9	-46.6	17.4	0.00e+00	0	43	0	1026555904	59	4886
2026-01-19 00:30:46.09	228.92	20.47	-44.0	-46.7	17.3	0.00e+00	0	43	0	1027604480	59	4965
2026-01-19 00:30:47.36	228.80	20.31	-44.1	-46.8	17.2	0.00e+00	0	43	0	1029701632	59	5019
2026-01-19 00:30:48.07	228.73	20.23	-44.1	-46.8	17.2	0.00e+00	0	43	0	1030750208	59	5022
2026-01-19 00:30:49.35	228.61	20.07	-44.0	-46.7	17.3	0.00e+00	0	43	0	1033895936	59	4970
2026-01-19 00:30:50.06	228.54	19.98	-44.0	-46.7	17.3	0.00e+00	0	43	0	1034944512	59	4949
2026-01-19 00:30:51.34	228.43	19.83	-44.0	-46.7	17.3	0.00e+00	0	43	0	1037041664	59	4961
2026-01-19 00:30:52.07	228.36	19.74	-44.1	-46.8	17.2	0.00e+00	0	43	0	1039138816	59	5004
2026-01-19 00:30:53.34	228.24	19.58	-44.1	-46.8	17.2	0.00e+00	0	43	0	1041235968	59	5011
2026-01-19 00:30:54.07	228.18	19.50	-44.1	-46.8	17.2	0.00e+00	0	43	0	1042284544	59	5017
2026-01-19 00:30:55.35	228.06	19.34	-43.9	-46.6	17.4	0.00e+00	0	43	0	1045430272	59	4874
2026-01-19 00:30:56.07	228.00	19.26	-43.9	-46.5	17.5	0.00e+00	0	43	0	1046478848	59	4840
2026-01-19 00:30:57.37	227.88	19.10	-43.8	-46.5	17.5	0.00e+00	0	43	0	1048576000	59	4832
2026-01-19 00:30:58.08	227.82	19.02	-43.9	-46.5	17.5	0.00e+00	0	43	0	1049624576	59	4854
2026-01-19 00:30:59.44	227.70	18.86	-44.0	-46.7	17.3	0.00e+00	0	43	0	1052770304	59	4953
2026-01-19 00:31:00.15	227.64	18.78	-44.0	-46.7	17.3	0.00e+00	0	43	0	1053818880	59	4940
2026-01-19 00:31:01.49	227.53	18.62	-44.1	-46.8	17.2	0.00e+00	0	43	0	1055916032	59	5009
2026-01-19 00:31:02.20	227.47	18.54	-44.1	-46.9	17.2	0.00e+00	0	43	0	1058013184	59	5049
2026-01-19 00:31:03.48	227.36	18.39	-44.2	-46.9	17.1	0.00e+00	0	43	0	1060110336	59	5094
2026-01-19 00:31:04.21	227.30	18.31	-44.3	-47.1	16.9	0.00e+00	0	43	0	1061158912	59	5183
2026-01-19 00:31:05.58	227.19	18.15	-44.3	-47.1	16.9	0.00e+00	0	43	0	1064304640	59	5167
2026-01-19 00:31:06.29	227.13	18.07	-44.3	-47.1	16.9	0.00e+00	0	43	0	1065353216	59	5216
2026-01-19 00:31:07.65	227.02	17.91	-44.4	-47.2	16.8	0.00e+00	0	43	0	1068498944	59	5279
2026-01-19 00:31:08.36	226.96	17.83	-44.5	-47.4	16.6	0.00e+00	0	44	0	1069547520	59	5351
2026-01-19 00:31:09.64	226.86	17.69	-44.6	-47.6	16.4	0.00e+00	0	43	0	1071644672	59	5470
2026-01-19 00:31:10.70	226.78	17.57	-44.6	-47.5	16.5	0.00e+00	0	43	0	1073741824	60	5144
2026-01-19 00:31:11.55	226.71	17.47	-44.6	-47.5	16.5	0.00e+00	0	43	0	1075838976	60	5157
2026-01-19 00:31:12.69	226.62	17.35	-44.5	-47.4	16.7	0.00e+00	0	43	0	1076887552	60	5075
2026-01-19 00:31:13.54	226.55	17.25	-44.6	-47.5	16.5	0.00e+00	0	43	0	1078984704	60	5149
2026-01-19 00:31:14.68	226.47	17.13	-44.5	-47.4	16.7	0.00e+00	0	43	0	1081081856	60	5064
2026-01-19 00:31:15.53	226.40	17.03	-44.3	-47.1	16.9	0.00e+00	0	43	0	1083179008	60	4922
2026-01-19 00:31:16.67	226.32	16.91	-44.4	-47.3	16.7	0.00e+00	0	43	0	1085276160	60	5028
2026-01-19 00:31:17.52	226.25	16.82	-44.4	-47.3	16.7	0.00e+00	0	44	0	1086324736	60	5003
2026-01-19 00:31:18.66	226.17	16.69	-44.4	-47.3	16.7	0.00e+00	0	43	0	1088421888	60	5008
2026-01-19 00:31:19.51	226.10	16.60	-44.5	-47.4	16.7	0.00e+00	0	43	0	1090519040	60	5059
2026-01-19 00:31:20.65	226.02	16.48	-44.4	-47.3	16.7	0.00e+00	0	44	0	1092616192	60	4999
2026-01-19 00:31:21.50	225.96	16.39	-44.5	-47.4	16.7	0.00e+00	0	43	0	1093664768	60	5053
2026-01-19 00:31:22.64	225.87	16.26	-44.6	-47.5	16.5	0.00e+00	0	44	0	1095761920	60	5122
2026-01-19 00:31:23.72	225.80	16.15	-44.4	-47.3	16.7	0.00e+00	0	44	0	1097859072	60	4986
2026-01-19 00:31:24.75	225.72	16.04	-44.4	-47.3	16.7	0.00e+00	0	44	0	1099956224	60	4987
2026-01-19 00:31:25.75	225.65	15.93	-44.5	-47.4	16.6	0.00e+00	0	44	0	1102053376	60	5056
2026-01-19 00:31:26.74	225.58	15.83	-44.4	-47.3	16.6	0.00e+00	0	43	0	1104150528	60	5034
2026-01-19 00:31:27.73	225.51	15.73	-44.4	-47.2	16.8	0.00e+00	0	43	0	1105199104	60	4960
2026-01-19 00:31:28.73	225.44	15.62	-44.3	-47.1	16.9	0.00e+00	0	43	0	1107296256	60	4905
2026-01-19 00:31:29.72	225.38	15.52	-44.2	-47.1	16.9	0.00e+00	0	43	0	1109393408	60	4878
2026-01-19 00:31:30.72	225.31	15.41	-44.3	-47.2	16.8	0.00e+00	0	43	0	1111490560	60	4947
2026-01-19 00:31:31.71	225.24	15.31	-44.2	-47.0	17.0	0.00e+00	0	43	0	1113587712	60	4818
2026-01-19 00:31:32.71	225.17	15.21	-44.1	-47.0	17.0	0.00e+00	0	43	0	1114636288	60	4822
2026-01-19 00:31:33.70	225.11	15.11	-44.1	-46.9	17.1	0.00e+00	0	43	0	1116733440	60	4783
2026-01-19 00:31:34.69	225.04	15.01	-44.1	-47.0	17.0	0.00e+00	0	44	0	1118830592	60	4821
2026-01-19 00:31:35.69	224.98	14.91	-44.2	-47.0	16.9	0.00e+00	0	43	0	1120927744	60	4853
2026-01-19 00:31:36.76	224.90	14.80	-44.2	-47.0	16.9	0.00e+00	0	43	0	1123024896	60	4865
2026-01-19 00:31:37.64	224.85	14.71	-44.2	-47.0	17.0	0.00e+00	0	44	0	1124073472	60	4827
2026-01-19 00:31:38.95	224.76	14.58	-44.3	-47.1	16.8	0.00e+00	0	43	0	1127219200	60	4922
2026-01-19 00:31:39.66	224.72	14.51	-44.2	-47.0	16.9	0.00e+00	0	43	0	1128267776	60	4845
2026-01-19 00:31:40.94	224.64	14.38	-44.4	-47.3	16.7	0.00e+00	0	43	0	1130364928	60	5014
2026-01-19 00:31:41.68	224.59	14.30	-44.5	-47.4	16.6	0.00e+00	0	44	0	1131413504	60	5069
2026-01-19 00:31:43.20	224.49	14.15	-44.7	-47.7	16.3	0.00e+00	0	43	0	1134559232	60	5238
2026-01-19 00:31:43.91	224.45	14.08	-44.6	-47.6	16.3	0.00e+00	0	44	0	1135607808	60	5186
2026-01-19 00:31:45.27	224.37	13.95	-44.7	-47.7	16.2	0.00e+00	0	43	0	1138753536	60	5261
2026-01-19 00:31:45.98	224.32	13.88	-44.8	-47.9	16.1	0.00e+00	0	44	0	1139802112	60	5344
2026-01-19 00:31:47.26	224.24	13.76	-44.9	-47.9	16.0	0.00e+00	0	43	0	1141899264	60	5396
2026-01-19 00:31:47.97	224.20	13.69	-44.9	-48.0	15.9	0.00e+00	0	43	0	1143996416	60	5445
2026-01-19 00:31:49.25	224.12	13.56	-45.0	-48.1	15.9	0.00e+00	0	44	0	1146093568	60	5479
2026-01-19 00:31:49.95	224.08	13.50	-44.9	-48.0	15.9	0.00e+00	0	43	0	1147142144	60	5451
2026-01-19 00:31:51.23	224.01	13.37	-45.0	-48.1	15.8	0.00e+00	0	43	0	1149239296	60	5518
2026-01-19 00:31:51.94	223.96	13.30	-44.9	-48.1	15.9	0.00e+00	0	44	0	1151336448	60	5471
2026-01-19 00:31:53.28	223.89	13.18	-45.0	-48.1	15.8	0.00e+00	0	43	0	1153433600	60	5501
2026-01-19 00:31:53.99	223.85	13.11	-44.9	-48.1	15.8	0.00e+00	0	43	0	1154482176	60	5480
2026-01-19 00:31:55.27	223.77	12.99	-44.8	-47.9	16.0	0.00e+00	0	43	0	1157627904	60	5377
2026-01-19 00:31:55.98	223.73	12.92	-44.9	-47.9	16.0	0.00e+00	0	43	0	1158676480	60	5375
2026-01-19 00:31:57.26	223.66	12.80	-44.9	-47.9	16.0	0.00e+00	0	43	0	1160773632	60	5391
2026-01-19 00:31:57.97	223.62	12.73	-44.8	-47.9	16.0	0.00e+00	0	44	0	1161822208	60	5374
2026-01-19 00:31:59.24	223.55	12.62	-44.8	-47.8	16.0	0.00e+00	0	43	0	1164967936	60	5326
2026-01-19 00:31:59.97	223.51	12.55	-44.8	-47.9	16.0	0.00e+00	0	43	0	1166016512	60	5351
2026-01-19 00:32:01.25	223.43	12.43	-44.8	-47.9	16.0	0.00e+00	0	43	0	1168113664	60	5366
2026-01-19 00:32:01.97	223.39	12.36	-44.8	-47.8	16.0	0.00e+00	0	43	0	1170210816	60	5316
2026-01-19 00:32:03.27	223.32	12.24	-44.8	-47.9	16.0	0.00e+00	0	44	0	1172307968	60	5369
2026-01-19 00:32:03.98	223.28	12.18	-44.8	-47.9	16.0	0.00e+00	0	43	0	1173356544	60	5353
2026-01-19 00:32:05.29	223.21	12.06	-44.9	-48.0	15.9	0.00e+00	0	43	0	1176502272	60	5445
2026-01-19 00:32:06.00	223.18	11.99	-45.0	-48.1	15.8	0.00e+00	0	43	0	1177550848	60	5482
2026-01-19 00:32:07.28	223.11	11.88	-45.0	-48.2	15.7	0.00e+00	0	43	0	1179648000	60	5550
2026-01-19 00:32:07.99	223.07	11.81	-45.0	-48.2	15.7	0.00e+00	0	44	0	1180696576	60	5537
2026-01-19 00:32:09.27	223.00	11.70	-45.0	-48.2	15.7	0.00e+00	0	43	0	1183842304	60	5538
2026-01-19 00:32:09.98	222.97	11.63	-45.0	-48.1	15.7	0.00e+00	0	44	0	1184890880	60	5506
2026-01-19 00:32:11.26	222.90	11.52	-45.0	-48.2	15.7	0.00e+00	0	44	0	1186988032	60	5537
2026-01-19 00:32:12.00	222.86	11.45	-45.0	-48.2	15.6	0.00e+00	0	43	0	1189085184	60	5581
2026-01-19 00:32:13.27	222.80	11.34	-45.1	-48.3	15.6	0.00e+00	0	43	0	1191182336	60	5593
2026-01-19 00:32:14.02	222.76	11.27	-45.0	-48.2	15.6	0.00e+00	0	43	0	1192230912	60	5568
2026-01-19 00:32:15.30	222.69	11.16	-45.2	-48.5	15.3	0.00e+00	0	44	0	1195376640	61	5405
2026-01-19 00:32:16.02	222.66	11.10	-45.2	-48.5	15.3	0.00e+00	0	43	0	1196425216	61	5433
2026-01-19 00:32:17.30	222.59	10.98	-45.1	-48.4	15.4	0.00e+00	0	43	0	1198522368	61	5363
2026-01-19 00:32:18.12	222.55	10.91	-45.0	-48.3	15.5	0.00e+00	0	43	0	1200619520	61	5303
2026-01-19 00:32:19.25	222.50	10.81	-45.1	-48.4	15.4	0.00e+00	0	43	0	1202716672	61	5362
2026-01-19 00:32:20.11	222.45	10.74	-45.2	-48.5	15.3	0.00e+00	0	43	0	1203765248	61	5404
2026-01-19 00:32:21.24	222.40	10.64	-45.1	-48.3	15.5	0.00e+00	0	43	0	1205862400	61	5320
2026-01-19 00:32:22.10	222.36	10.57	-45.0	-48.3	15.5	0.00e+00	0	44	0	1207959552	61	5283
2026-01-19 00:32:23.23	222.30	10.47	-45.2	-48.5	15.3	0.00e+00	0	44	0	1210056704	61	5408
2026-01-19 00:32:24.40	222.25	10.37	-45.0	-48.3	15.5	0.00e+00	0	43	0	1212153856	61	5303
2026-01-19 00:32:25.25	222.21	10.30	-44.9	-48.0	15.7	0.00e+00	0	43	0	1213202432	61	5155
2026-01-19 00:32:26.39	222.15	10.20	-44.8	-48.0	15.8	0.00e+00	0	43	0	1215299584	61	5104
2026-01-19 00:32:27.24	222.11	10.13	-44.8	-48.0	15.8	0.00e+00	0	43	0	1217396736	61	5116
2026-01-19 00:32:28.38	222.06	10.03	-44.8	-48.0	15.7	0.00e+00	0	43	0	1219493888	61	5148
2026-01-19 00:32:29.23	222.02	9.96	-44.9	-48.1	15.6	0.00e+00	0	44	0	1220542464	61	5189
2026-01-19 00:32:30.37	221.97	9.86	-44.9	-48.2	15.5	0.00e+00	0	44	0	1222639616	61	5232
2026-01-19 00:32:31.22	221.93	9.79	-45.0	-48.4	15.3	0.00e+00	0	44	0	1224736768	61	5362
2026-01-19 00:32:32.39	221.87	9.70	-45.1	-48.5	15.1	0.00e+00	0	44	0	1226833920	61	5453
2026-01-19 00:32:33.24	221.83	9.62	-45.2	-48.8	14.9	0.00e+00	0	44	0	1228931072	61	5611
2026-01-19 00:32:34.44	221.78	9.52	-45.3	-48.9	14.8	0.00e+00	0	43	0	1231028224	61	5667
2026-01-19 00:32:35.29	221.74	9.45	-45.2	-48.8	14.9	7.00e-07	0	43	0	1232076800	61	5621
2026-01-19 00:32:36.43	221.69	9.36	-45.2	-48.9	14.7	0.00e+00	0	43	0	1234173952	61	5712
