passes_logs/2026/01/19/T1/T1__20260119_231148_NOAA_21_JPSS-2_rec.log

#Pass ID: 20260119_231148_NOAA 21 (JPSS-2)
#Satellite: NOAA 21 (JPSS-2)
#Configuration: NOAA 21
#almurnet v.1.7.20251203
#Start time: 2026-01-19 23:11:48

#Version: 2.0.20230620
#Station: T1
#Location: 37.570604 lon 55.790049 lat
#TLE: 1 54234U 22150A   26019.31231101  .00000073  00000+0  55355-4 0  9994
#TLE: 2 54234  98.7504 320.1599 0000604 258.3686 101.7423 14.19535697165426

#Time	Az	El	Level	Level2	SNR	BER	BlckErr	Temp	State	Recorded	gain1	gain2
2026-01-19 23:11:48.29	19.81	5.02	-48.9	-63.2	3.8	1.49e+00	0	38	0	0	69	18610
2026-01-19 23:11:49.28	19.84	5.08	-48.9	-63.1	3.8	1.49e+00	0	38	104	0	68	19555
2026-01-19 23:11:50.27	19.87	5.15	-48.9	-63.2	3.8	1.49e+00	0	38	104	0	68	19633
2026-01-19 23:11:51.26	19.90	5.22	-48.9	-63.1	3.8	1.49e+00	0	38	104	0	68	19560
2026-01-19 23:11:52.26	19.93	5.29	-48.9	-63.1	3.8	1.49e+00	0	38	104	0	68	19527
2026-01-19 23:11:53.25	19.96	5.36	-48.9	-63.1	3.8	1.49e+00	0	38	104	0	68	19478
2026-01-19 23:11:54.24	20.00	5.43	-48.9	-63.1	3.8	1.49e+00	0	38	104	0	68	19483
2026-01-19 23:11:55.24	20.03	5.50	-48.9	-63.1	3.8	1.49e+00	0	38	104	0	68	19479
2026-01-19 23:11:56.25	20.06	5.58	-48.9	-63.1	3.8	1.49e+00	0	38	104	0	68	19464
2026-01-19 23:11:57.27	20.09	5.65	-48.9	-63.1	3.8	1.49e+00	0	38	104	0	68	19454
2026-01-19 23:11:58.29	20.12	5.72	-48.9	-63.1	3.8	1.49e+00	0	38	104	0	68	19533
2026-01-19 23:11:59.30	20.16	5.79	-48.9	-63.1	3.8	1.49e+00	0	39	104	0	68	19556
2026-01-19 23:12:00.36	20.19	5.87	-48.9	-63.1	3.8	1.49e+00	0	38	104	0	68	19558
2026-01-19 23:12:01.29	20.22	5.94	-48.9	-63.2	3.8	1.49e+00	0	38	104	0	68	19672
2026-01-19 23:12:02.41	20.26	6.02	-48.9	-63.2	3.8	1.49e+00	0	38	104	0	68	19713
2026-01-19 23:12:03.29	20.29	6.08	-48.9	-63.2	3.8	1.49e+00	0	39	104	0	68	19741
2026-01-19 23:12:04.60	20.33	6.18	-48.9	-63.2	3.8	1.49e+00	0	38	104	0	68	19719
2026-01-19 23:12:05.31	20.35	6.23	-48.9	-63.2	3.8	1.49e+00	0	39	104	0	68	19791
2026-01-19 23:12:06.79	20.40	6.33	-48.9	-63.2	3.8	1.49e+00	0	39	104	0	68	19771
2026-01-19 23:12:07.50	20.42	6.39	-48.9	-63.2	3.8	1.49e+00	0	39	104	0	68	19757
2026-01-19 23:12:08.84	20.47	6.49	-48.9	-63.2	3.8	1.49e+00	0	38	104	0	68	19684
2026-01-19 23:12:09.55	20.49	6.54	-48.9	-63.2	3.8	1.49e+00	0	39	104	0	68	19664
2026-01-19 23:12:10.83	20.54	6.63	-48.9	-63.1	3.8	1.49e+00	0	39	104	0	68	19401
2026-01-19 23:12:11.54	20.56	6.68	-48.9	-63.0	3.8	1.49e+00	0	39	104	0	68	19237
2026-01-19 23:12:12.81	20.60	6.78	-48.9	-62.8	3.8	1.49e+00	0	39	104	0	68	18929
2026-01-19 23:12:13.52	20.63	6.83	-48.9	-62.7	3.8	1.49e+00	0	39	104	0	68	18664
2026-01-19 23:12:14.80	20.67	6.93	-48.8	-62.4	3.8	1.49e+00	0	39	104	0	68	18053
2026-01-19 23:12:15.52	20.70	6.98	-48.8	-62.3	3.8	1.49e+00	0	39	104	0	68	17759
2026-01-19 23:12:16.80	20.74	7.08	-48.8	-61.9	3.8	1.49e+00	0	39	104	0	68	17070
2026-01-19 23:12:17.51	20.76	7.13	-48.8	-61.8	3.8	1.49e+00	0	39	104	0	68	16696
2026-01-19 23:12:18.79	20.81	7.23	-48.8	-61.5	3.8	1.49e+00	0	39	104	0	68	16128
2026-01-19 23:12:19.50	20.83	7.28	-48.8	-61.3	3.9	1.48e+00	0	39	104	0	68	15807
2026-01-19 23:12:20.78	20.88	7.38	-48.7	-60.6	4.0	1.48e+00	0	39	104	0	68	14699
2026-01-19 23:12:21.49	20.90	7.43	-48.7	-60.5	4.0	1.48e+00	0	39	104	0	68	14454
2026-01-19 23:12:22.79	20.95	7.53	-48.7	-60.3	4.0	1.48e+00	0	39	104	0	68	14199
2026-01-19 23:12:23.50	20.98	7.59	-48.7	-60.3	4.0	1.48e+00	0	39	104	0	68	14095
2026-01-19 23:12:24.78	21.02	7.68	-48.7	-60.7	3.9	1.47e+00	0	39	104	0	68	14758
2026-01-19 23:12:25.49	21.05	7.74	-48.7	-60.3	4.1	1.48e+00	0	39	104	0	68	14133
2026-01-19 23:12:26.83	21.10	7.84	-48.7	-60.8	3.9	1.47e+00	0	39	104	0	68	14882
2026-01-19 23:12:27.54	21.12	7.90	-48.7	-60.8	3.9	1.48e+00	0	39	104	0	68	14959
2026-01-19 23:12:28.82	21.17	8.00	-48.7	-60.4	4.0	1.48e+00	0	39	104	0	68	14352
2026-01-19 23:12:29.53	21.19	8.05	-48.7	-60.4	4.0	1.48e+00	0	39	104	0	68	14370
2026-01-19 23:12:30.81	21.24	8.15	-48.7	-60.6	3.9	1.47e+00	0	39	104	0	68	14582
2026-01-19 23:12:31.53	21.27	8.21	-48.7	-60.4	3.9	1.48e+00	0	39	104	0	68	14367
2026-01-19 23:12:32.81	21.32	8.31	-48.7	-60.3	3.9	1.46e+00	0	40	104	0	68	14064
2026-01-19 23:12:33.53	21.34	8.37	-48.6	-60.0	3.9	1.47e+00	0	39	104	0	68	13666
2026-01-19 23:12:34.81	21.39	8.47	-48.5	-58.6	4.6	1.36e+00	0	39	104	0	68	11552
2026-01-19 23:12:35.53	21.42	8.52	-48.4	-58.5	4.0	1.08e+00	0	39	104	0	68	11548
2026-01-19 23:12:36.81	21.47	8.63	-48.2	-56.5	5.7	4.60e-01	0	40	0	0	68	9122
2026-01-19 23:12:37.52	21.49	8.68	-48.0	-55.8	6.3	3.45e-01	0	39	0	0	68	8401
2026-01-19 23:12:38.80	21.54	8.78	-47.5	-54.2	7.5	1.38e-01	0	40	0	0	67	7394
2026-01-19 23:12:39.52	21.57	8.84	-47.3	-53.5	8.2	7.20e-02	0	40	0	0	66	7236
2026-01-19 23:12:40.80	21.62	8.95	-46.9	-52.2	9.5	1.86e-02	0	39	0	0	65	6645
2026-01-19 23:12:41.51	21.65	9.00	-46.7	-51.7	9.9	9.53e-03	0	40	0	0	65	6264
2026-01-19 23:12:42.79	21.70	9.11	-46.2	-50.5	11.3	3.01e-03	0	39	0	0	64	5761
2026-01-19 23:12:43.51	21.73	9.17	-47.1	-52.4	9.4	1.27e-03	0	39	0	0	64	7180
2026-01-19 23:12:44.79	21.78	9.27	-46.2	-50.8	10.8	1.12e-02	0	40	0	0	64	5989
2026-01-19 23:12:45.50	21.80	9.33	-47.7	-55.2	6.9	1.77e-02	0	39	0	0	66	8787
2026-01-19 23:12:46.78	21.85	9.43	-43.8	-46.5	15.2	5.59e-03	0	40	0	0	59	4866
2026-01-19 23:12:47.49	21.88	9.49	-42.8	-45.2	16.6	0.00e+00	0	39	0	0	57	4684
2026-01-19 23:12:48.77	21.93	9.60	-42.2	-44.5	17.2	0.00e+00	0	40	0	0	56	4575
2026-01-19 23:12:49.48	21.96	9.66	-41.7	-43.9	17.6	0.00e+00	0	40	0	0	55	4535
2026-01-19 23:12:50.77	22.02	9.76	-41.7	-43.9	17.7	0.00e+00	0	40	0	0	55	4520
2026-01-19 23:12:51.49	22.05	9.82	-41.5	-43.7	17.8	0.00e+00	0	40	0	0	55	4421
2026-01-19 23:12:52.77	22.10	9.93	-41.6	-43.8	17.8	0.00e+00	0	40	0	0	55	4454
2026-01-19 23:12:53.48	22.13	9.99	-41.6	-43.8	17.7	0.00e+00	0	40	0	0	55	4470
2026-01-19 23:12:54.76	22.18	10.10	-41.6	-43.7	17.8	0.00e+00	0	40	0	0	55	4435
2026-01-19 23:12:55.50	22.21	10.16	-41.6	-43.7	17.8	0.00e+00	0	40	0	0	55	4424
2026-01-19 23:12:56.78	22.26	10.27	-41.4	-43.5	18.0	0.00e+00	0	40	0	0	54	4578
2026-01-19 23:12:57.50	22.29	10.33	-41.5	-43.5	18.0	0.00e+00	0	40	0	0	54	4585
2026-01-19 23:12:58.77	22.35	10.44	-41.4	-43.5	18.0	0.00e+00	0	40	0	0	54	4561
2026-01-19 23:12:59.61	22.38	10.51	-41.4	-43.4	18.1	0.00e+00	0	40	0	0	54	4510
2026-01-19 23:13:01.03	22.45	10.63	-41.4	-43.3	18.2	0.00e+00	0	40	0	0	54	4486
2026-01-19 23:13:01.74	22.48	10.69	-41.4	-43.4	18.2	0.00e+00	0	40	0	0	54	4505
2026-01-19 23:13:03.23	22.54	10.82	-41.4	-43.4	18.2	0.00e+00	0	40	0	0	54	4504
2026-01-19 23:13:03.94	22.57	10.89	-41.3	-43.3	18.3	0.00e+00	0	40	0	0	54	4451
2026-01-19 23:13:05.22	22.63	11.00	-41.4	-43.3	18.3	0.00e+00	0	40	0	0	54	4474
2026-01-19 23:13:06.28	22.67	11.09	-41.4	-43.4	18.2	0.00e+00	0	40	0	0	54	4495
2026-01-19 23:13:07.16	22.71	11.17	-41.4	-43.3	18.2	0.00e+00	0	40	0	0	54	4479
2026-01-19 23:13:08.30	22.76	11.27	-41.4	-43.3	18.2	0.00e+00	0	40	0	0	54	4478
2026-01-19 23:13:09.15	22.80	11.34	-41.4	-43.3	18.3	0.00e+00	0	40	0	0	54	4462
2026-01-19 23:13:10.29	22.85	11.44	-41.4	-43.3	18.3	0.00e+00	0	40	0	0	54	4460
2026-01-19 23:13:11.14	22.89	11.52	-41.4	-43.3	18.3	0.00e+00	0	40	0	0	54	4462
2026-01-19 23:13:12.28	22.94	11.62	-41.3	-43.2	18.4	0.00e+00	0	40	0	0	54	4422
2026-01-19 23:13:13.13	22.98	11.70	-41.3	-43.2	18.4	0.00e+00	0	40	0	0	54	4403
2026-01-19 23:13:14.42	23.04	11.81	-41.3	-43.2	18.4	0.00e+00	0	40	0	0	54	4399
2026-01-19 23:13:15.14	23.08	11.88	-41.3	-43.2	18.4	0.00e+00	0	40	0	0	54	4425
2026-01-19 23:13:16.42	23.13	12.00	-41.3	-43.2	18.4	0.00e+00	0	40	0	0	54	4397
2026-01-19 23:13:17.13	23.17	12.06	-41.3	-43.2	18.4	0.00e+00	0	40	0	0	54	4404
2026-01-19 23:13:18.41	23.23	12.18	-41.2	-43.1	18.5	0.00e+00	0	40	0	0	54	4343
2026-01-19 23:13:19.12	23.26	12.24	-41.1	-43.0	18.6	0.00e+00	0	40	0	0	54	4322
2026-01-19 23:13:20.72	23.34	12.39	-41.2	-43.0	18.6	0.00e+00	0	40	0	0	54	4340
2026-01-19 23:13:21.29	23.37	12.44	-41.2	-43.0	18.6	0.00e+00	0	40	0	0	54	4329
2026-01-19 23:13:23.20	23.46	12.62	-41.1	-42.9	18.7	0.00e+00	0	40	0	0	54	4280
2026-01-19 23:13:24.11	23.50	12.70	-41.0	-42.9	18.7	0.00e+00	0	40	0	0	54	4255
2026-01-19 23:13:25.11	23.55	12.80	-41.0	-42.9	18.8	0.00e+00	0	40	0	0	54	4249
2026-01-19 23:13:26.10	23.60	12.89	-41.1	-43.0	18.7	0.00e+00	0	40	0	0	54	4301
2026-01-19 23:13:27.10	23.65	12.99	-41.0	-42.9	18.8	0.00e+00	0	40	0	0	54	4260
2026-01-19 23:13:28.10	23.70	13.08	-41.1	-42.9	18.7	0.00e+00	0	40	0	0	54	4287
2026-01-19 23:13:29.09	23.75	13.17	-41.1	-42.9	18.8	0.00e+00	0	40	0	0	54	4279
2026-01-19 23:13:30.15	23.80	13.28	-41.0	-42.9	18.8	0.00e+00	0	40	0	0	54	4260
2026-01-19 23:13:31.05	23.85	13.36	-41.1	-43.0	18.7	0.00e+00	0	40	0	0	54	4299
2026-01-19 23:13:32.15	23.90	13.47	-40.9	-42.8	18.9	0.00e+00	0	40	0	0	53	4449
2026-01-19 23:13:33.00	23.95	13.55	-41.0	-42.9	18.8	0.00e+00	0	40	0	0	53	4511
2026-01-19 23:13:34.14	24.01	13.66	-40.9	-42.8	18.9	0.00e+00	0	40	0	0	53	4484
2026-01-19 23:13:35.00	24.05	13.74	-40.9	-42.8	18.9	0.00e+00	0	40	0	0	53	4450
2026-01-19 23:13:36.13	24.11	13.85	-41.0	-42.9	18.8	0.00e+00	0	40	0	0	53	4518
2026-01-19 23:13:36.98	24.15	13.94	-40.9	-42.8	18.8	0.00e+00	0	40	0	0	53	4475
2026-01-19 23:13:38.12	24.22	14.05	-40.8	-42.7	19.0	0.00e+00	0	40	0	0	53	4415
2026-01-19 23:13:39.24	24.27	14.16	-40.9	-42.8	18.9	0.00e+00	0	40	0	0	53	4463
2026-01-19 23:13:40.10	24.32	14.25	-41.0	-42.9	18.8	0.00e+00	0	40	0	0	53	4517
2026-01-19 23:13:41.24	24.38	14.36	-40.8	-42.7	19.0	0.00e+00	0	40	0	0	53	4428
2026-01-19 23:13:42.09	24.43	14.44	-40.9	-42.8	18.9	0.00e+00	0	40	0	0	53	4454
2026-01-19 23:13:43.23	24.49	14.56	-41.0	-42.9	18.8	0.00e+00	0	40	0	0	53	4519
2026-01-19 23:13:44.08	24.54	14.64	-41.0	-42.9	18.8	0.00e+00	0	40	0	0	53	4524
2026-01-19 23:13:45.21	24.60	14.76	-41.0	-42.9	18.8	0.00e+00	0	40	0	0	53	4497
2026-01-19 23:13:46.07	24.65	14.85	-40.9	-42.8	19.0	0.00e+00	0	40	0	0	53	4445
2026-01-19 23:13:47.20	24.71	14.96	-41.0	-42.9	18.8	0.00e+00	0	40	0	0	53	4505
2026-01-19 23:13:48.06	24.76	15.05	-40.9	-42.7	19.0	0.00e+00	0	40	0	0	53	4441
2026-01-19 23:13:49.19	24.82	15.16	-40.9	-42.8	18.9	0.00e+00	0	40	0	0	53	4444
2026-01-19 23:13:50.05	24.87	15.25	-40.9	-42.7	18.9	0.00e+00	0	40	0	0	53	4438
2026-01-19 23:13:51.18	24.94	15.37	-41.0	-42.8	18.9	0.00e+00	0	40	0	0	53	4481
2026-01-19 23:13:52.03	24.99	15.46	-41.1	-42.9	18.8	0.00e+00	0	40	0	0	53	4533
2026-01-19 23:13:53.17	25.05	15.58	-40.9	-42.8	18.9	0.00e+00	0	40	0	0	53	4442
2026-01-19 23:13:54.02	25.10	15.67	-40.9	-42.7	19.0	0.00e+00	0	40	0	0	53	4402
2026-01-19 23:13:55.16	25.17	15.79	-40.9	-42.8	19.0	0.00e+00	0	40	0	0	53	4445
2026-01-19 23:13:56.22	25.23	15.90	-40.8	-42.6	19.1	0.00e+00	0	40	0	0	53	4377
2026-01-19 23:13:57.26	25.29	16.01	-40.9	-42.7	19.0	0.00e+00	0	40	0	0	53	4403
2026-01-19 23:13:58.21	25.35	16.11	-40.9	-42.8	19.0	0.00e+00	0	40	0	0	53	4453
2026-01-19 23:13:59.20	25.41	16.22	-40.8	-42.7	19.1	0.00e+00	0	40	0	0	53	4394
2026-01-19 23:14:00.19	25.47	16.32	-40.9	-42.7	19.0	0.00e+00	0	40	0	0	53	4436
2026-01-19 23:14:01.19	25.53	16.43	-40.9	-42.7	19.0	0.00e+00	0	40	0	0	53	4441
2026-01-19 23:14:02.18	25.59	16.54	-41.0	-42.9	18.9	0.00e+00	0	40	0	0	53	4506
2026-01-19 23:14:03.18	25.66	16.65	-41.1	-43.0	18.8	0.00e+00	0	40	0	0	53	4563
2026-01-19 23:14:04.17	25.72	16.76	-41.0	-42.9	18.8	0.00e+00	0	40	0	0	53	4502
2026-01-19 23:14:05.17	25.78	16.87	-41.0	-42.9	18.8	0.00e+00	0	40	0	0	53	4540
2026-01-19 23:14:06.16	25.84	16.97	-41.0	-43.0	18.8	0.00e+00	0	40	0	0	53	4547
2026-01-19 23:14:07.16	25.91	17.09	-40.9	-42.8	18.9	0.00e+00	0	40	0	0	53	4485
2026-01-19 23:14:08.15	25.97	17.20	-40.9	-42.9	18.9	0.00e+00	0	40	0	0	53	4496
2026-01-19 23:14:09.18	26.04	17.31	-40.9	-42.9	18.9	0.00e+00	0	40	0	0	53	4507
2026-01-19 23:14:10.17	26.10	17.42	-41.0	-42.9	18.8	0.00e+00	0	40	0	0	53	4533
2026-01-19 23:14:11.16	26.17	17.53	-41.1	-43.0	18.7	0.00e+00	0	40	0	0	53	4584
2026-01-19 23:14:12.25	26.24	17.66	-41.1	-43.0	18.7	0.00e+00	0	40	0	0	53	4590
2026-01-19 23:14:13.14	26.30	17.76	-40.9	-42.9	18.9	0.00e+00	0	40	0	0	53	4500
2026-01-19 23:14:14.28	26.37	17.89	-41.0	-42.9	18.8	0.00e+00	0	40	0	0	53	4514
2026-01-19 23:14:15.19	26.44	17.99	-41.0	-42.9	18.8	0.00e+00	0	40	0	0	53	4535
2026-01-19 23:14:16.38	26.52	18.13	-41.0	-42.9	18.9	0.00e+00	0	40	0	0	53	4515
2026-01-19 23:14:17.23	26.57	18.23	-40.9	-42.8	18.9	0.00e+00	0	40	0	0	53	4485
2026-01-19 23:14:18.57	26.67	18.38	-40.9	-42.9	18.9	0.00e+00	0	40	0	0	53	4495
2026-01-19 23:14:19.28	26.72	18.47	-41.0	-42.9	18.7	0.00e+00	0	40	0	0	53	4537
2026-01-19 23:14:20.57	26.81	18.62	-41.1	-43.1	18.7	0.00e+00	0	40	0	0	53	4617
2026-01-19 23:14:21.28	26.86	18.70	-41.1	-43.0	18.8	0.00e+00	0	40	0	0	53	4562
2026-01-19 23:14:22.56	26.95	18.85	-41.1	-43.0	18.8	0.00e+00	0	40	0	0	53	4569
2026-01-19 23:14:23.29	27.00	18.94	-41.0	-42.9	18.9	0.00e+00	0	40	0	0	53	4537
2026-01-19 23:14:24.56	27.09	19.09	-41.0	-42.9	18.8	0.00e+00	0	40	0	0	53	4539
2026-01-19 23:14:25.29	27.15	19.18	-40.9	-42.8	18.9	0.00e+00	0	40	0	0	53	4481
2026-01-19 23:14:26.57	27.24	19.33	-41.0	-42.9	18.9	0.00e+00	0	40	0	0	53	4504
2026-01-19 23:14:27.28	27.29	19.42	-41.1	-42.9	18.8	0.00e+00	0	40	0	0	53	4535
2026-01-19 23:14:28.56	27.39	19.57	-41.0	-42.9	18.9	0.00e+00	0	40	0	0	53	4494
2026-01-19 23:14:29.27	27.44	19.66	-41.0	-42.8	18.9	0.00e+00	0	40	0	0	53	4477
2026-01-19 23:14:30.55	27.54	19.82	-40.9	-42.7	19.0	0.00e+00	0	40	0	0	53	4415
2026-01-19 23:14:31.28	27.59	19.91	-40.9	-42.7	19.0	0.00e+00	0	40	0	0	53	4423
2026-01-19 23:14:32.62	27.69	20.07	-40.9	-42.7	19.0	0.00e+00	0	40	0	0	53	4419
2026-01-19 23:14:33.33	27.75	20.16	-40.9	-42.7	19.0	0.00e+00	0	40	0	0	53	4427
2026-01-19 23:14:34.68	27.85	20.33	-40.9	-42.7	19.0	0.00e+00	0	40	0	0	53	4413
2026-01-19 23:14:35.39	27.91	20.42	-40.9	-42.6	19.1	0.00e+00	0	40	0	0	53	4389
2026-01-19 23:14:36.73	28.02	20.59	-40.7	-42.5	19.2	0.00e+00	0	40	0	0	53	4314
2026-01-19 23:14:37.44	28.07	20.68	-40.6	-42.3	19.3	0.00e+00	0	40	0	0	53	4228
2026-01-19 23:14:38.72	28.18	20.84	-40.5	-42.3	19.4	0.00e+00	0	40	0	0	53	4198
2026-01-19 23:14:39.43	28.23	20.93	-40.5	-42.2	19.4	0.00e+00	0	40	0	0	52	4406
2026-01-19 23:14:40.72	28.34	21.10	-40.5	-42.2	19.4	0.00e+00	0	40	0	0	52	4428
2026-01-19 23:14:41.43	28.40	21.19	-40.5	-42.2	19.4	0.00e+00	0	40	0	0	52	4417
2026-01-19 23:14:42.71	28.50	21.36	-40.4	-42.2	19.4	0.00e+00	0	40	0	0	52	4398
2026-01-19 23:14:43.44	28.56	21.45	-40.2	-41.9	19.6	0.00e+00	0	40	0	0	52	4282
2026-01-19 23:14:44.72	28.67	21.62	-40.2	-41.9	19.7	0.00e+00	0	40	0	0	52	4273
2026-01-19 23:14:45.43	28.73	21.71	-40.2	-41.9	19.7	0.00e+00	0	40	0	0	52	4244
2026-01-19 23:14:46.71	28.84	21.88	-40.0	-41.7	19.9	0.00e+00	0	40	0	0	52	4175
2026-01-19 23:14:47.50	28.91	21.99	-40.0	-41.7	20.0	0.00e+00	0	40	0	0	51	4392
2026-01-19 23:14:48.67	29.01	22.14	-39.9	-41.6	20.1	0.00e+00	0	40	0	0	51	4352
2026-01-19 23:14:49.69	29.10	22.28	-39.9	-41.6	20.1	0.00e+00	0	40	0	0	51	4347
2026-01-19 23:14:50.86	29.20	22.44	-40.0	-41.7	20.0	0.00e+00	0	40	0	0	51	4401
2026-01-19 23:14:51.72	29.28	22.56	-40.0	-41.7	20.0	0.00e+00	0	40	0	0	51	4431
2026-01-19 23:14:53.09	29.40	22.74	-39.9	-41.5	20.2	0.00e+00	0	40	0	0	51	4332
2026-01-19 23:14:53.80	29.47	22.84	-39.8	-41.5	20.2	0.00e+00	0	40	0	0	51	4300
2026-01-19 23:14:55.08	29.59	23.02	-39.7	-41.3	20.4	0.00e+00	0	40	0	0	51	4217
2026-01-19 23:14:55.82	29.66	23.12	-39.7	-41.4	20.4	0.00e+00	0	40	0	0	51	4248
2026-01-19 23:14:57.10	29.77	23.30	-39.8	-41.5	20.3	0.00e+00	0	40	0	0	51	4296
2026-01-19 23:14:57.83	29.84	23.40	-39.7	-41.4	20.3	0.00e+00	0	40	0	0	51	4257
2026-01-19 23:14:59.11	29.97	23.58	-39.8	-41.4	20.3	0.00e+00	0	40	0	0	51	4267
2026-01-19 23:14:59.82	30.03	23.68	-39.8	-41.4	20.3	0.00e+00	0	40	0	0	51	4289
2026-01-19 23:15:01.10	30.16	23.86	-39.8	-41.5	20.3	0.00e+00	0	40	0	0	51	4315
2026-01-19 23:15:01.96	30.24	23.98	-39.8	-41.4	20.3	0.00e+00	0	40	0	0	51	4282
2026-01-19 23:15:03.10	30.35	24.15	-39.8	-41.5	20.3	0.00e+00	0	40	0	0	51	4305
2026-01-19 23:15:04.14	30.46	24.30	-39.8	-41.5	20.3	0.00e+00	0	40	0	0	51	4318
2026-01-19 23:15:05.09	30.55	24.44	-39.9	-41.6	20.2	0.00e+00	0	40	0	0	51	4345
2026-01-19 23:15:06.34	30.68	24.62	-39.9	-41.6	20.2	0.00e+00	0	40	0	0	51	4390
2026-01-19 23:15:07.22	30.77	24.75	-39.9	-41.6	20.3	0.00e+00	0	40	0	0	51	4355
2026-01-19 23:15:08.53	30.90	24.94	-39.8	-41.5	20.3	0.00e+00	0	40	0	0	51	4310
2026-01-19 23:15:09.24	30.98	25.04	-40.0	-41.7	20.2	0.00e+00	0	40	0	0	51	4400
2026-01-19 23:15:10.72	31.13	25.26	-40.0	-41.6	20.2	0.00e+00	0	40	0	0	51	4389
2026-01-19 23:15:11.44	31.21	25.37	-40.1	-41.8	20.2	0.00e+00	0	40	0	0	51	4445
2026-01-19 23:15:12.78	31.35	25.57	-40.2	-41.9	20.0	0.00e+00	0	40	0	0	51	4498
2026-01-19 23:15:13.49	31.43	25.68	-40.2	-41.9	20.0	0.00e+00	0	40	0	0	51	4530
2026-01-19 23:15:14.86	31.58	25.89	-40.3	-42.0	19.9	0.00e+00	0	40	0	0	51	4579
2026-01-19 23:15:15.57	31.66	26.00	-40.4	-42.1	19.8	0.00e+00	0	40	0	0	51	4630
2026-01-19 23:15:16.85	31.80	26.19	-40.4	-42.1	19.8	0.00e+00	0	40	0	0	51	4640
2026-01-19 23:15:17.58	31.88	26.31	-40.6	-42.3	19.7	0.00e+00	0	40	0	0	51	4734
2026-01-19 23:15:18.85	32.02	26.50	-40.6	-42.3	19.5	0.00e+00	0	40	0	0	52	4488
2026-01-19 23:15:19.56	32.11	26.62	-40.7	-42.4	19.4	0.00e+00	0	40	0	0	52	4545
2026-01-19 23:15:20.85	32.26	26.82	-40.7	-42.4	19.4	0.00e+00	0	40	0	0	52	4536
2026-01-19 23:15:21.56	32.34	26.93	-40.7	-42.5	19.3	0.00e+00	0	40	0	0	52	4580
2026-01-19 23:15:22.84	32.49	27.13	-40.8	-42.5	19.3	0.00e+00	0	40	0	0	52	4597
2026-01-19 23:15:23.57	32.58	27.25	-40.7	-42.5	19.4	0.00e+00	0	40	0	0	52	4573
2026-01-19 23:15:24.84	32.73	27.45	-40.8	-42.5	19.3	0.00e+00	0	40	0	0	52	4595
2026-01-19 23:15:25.66	32.83	27.58	-40.8	-42.5	19.3	0.00e+00	0	40	0	0	52	4578
2026-01-19 23:15:27.10	33.00	27.82	-40.7	-42.5	19.4	0.00e+00	0	40	0	0	52	4547
2026-01-19 23:15:27.81	33.09	27.93	-40.8	-42.5	19.4	0.00e+00	0	40	0	0	52	4576
2026-01-19 23:15:29.30	33.28	28.17	-40.8	-42.5	19.4	0.00e+00	0	40	0	0	52	4589
2026-01-19 23:15:30.01	33.37	28.29	-40.7	-42.4	19.5	0.00e+00	0	40	0	0	52	4537
2026-01-19 23:15:31.28	33.53	28.50	-40.7	-42.5	19.4	0.00e+00	0	40	0	0	52	4559
2026-01-19 23:15:32.01	33.63	28.62	-40.7	-42.4	19.4	0.00e+00	0	40	0	0	52	4545
2026-01-19 23:15:33.29	33.79	28.84	-40.7	-42.4	19.4	0.00e+00	0	40	0	0	52	4541
2026-01-19 23:15:34.01	33.89	28.96	-40.8	-42.6	19.4	0.00e+00	0	40	0	0	52	4601
2026-01-19 23:15:35.29	34.06	29.17	-40.9	-42.7	19.2	0.00e+00	0	40	0	0	52	4667
2026-01-19 23:15:36.00	34.15	29.29	-40.9	-42.6	19.3	0.00e+00	0	40	0	0	52	4648
2026-01-19 23:15:37.28	34.33	29.51	-40.8	-42.6	19.3	0.00e+00	0	40	0	0	52	4608
2026-01-19 23:15:38.11	34.44	29.65	-40.9	-42.7	19.2	0.00e+00	0	40	0	0	52	4652
2026-01-19 23:15:39.25	34.60	29.85	-40.9	-42.6	19.2	0.00e+00	0	40	0	0	52	4644
2026-01-19 23:15:40.10	34.72	30.00	-40.8	-42.6	19.3	0.00e+00	0	40	0	0	52	4616
2026-01-19 23:15:41.24	34.88	30.19	-40.8	-42.6	19.3	0.00e+00	0	40	0	0	52	4602
2026-01-19 23:15:42.10	35.00	30.34	-40.6	-42.4	19.4	0.00e+00	0	40	0	0	52	4519
2026-01-19 23:15:43.23	35.17	30.54	-40.7	-42.4	19.4	0.00e+00	0	40	0	0	52	4535
2026-01-19 23:15:44.40	35.34	30.75	-40.6	-42.3	19.5	0.00e+00	0	40	0	0	52	4475
2026-01-19 23:15:45.41	35.49	30.93	-40.5	-42.3	19.6	0.00e+00	0	40	0	0	52	4456
2026-01-19 23:15:46.41	35.64	31.11	-40.4	-42.2	19.7	0.00e+00	0	40	0	0	52	4396
2026-01-19 23:15:47.40	35.79	31.29	-40.5	-42.3	19.6	0.00e+00	0	40	0	0	52	4456
2026-01-19 23:15:48.40	35.94	31.47	-40.6	-42.3	19.6	0.00e+00	0	40	0	0	52	4473
2026-01-19 23:15:49.39	36.09	31.65	-40.7	-42.4	19.5	0.00e+00	0	40	0	0	52	4524
2026-01-19 23:15:50.39	36.25	31.83	-40.7	-42.4	19.5	0.00e+00	0	40	0	0	52	4544
2026-01-19 23:15:51.39	36.41	32.01	-40.6	-42.3	19.6	0.00e+00	0	40	0	0	52	4485
2026-01-19 23:15:52.38	36.57	32.19	-40.6	-42.3	19.6	0.00e+00	0	40	0	0	52	4481
2026-01-19 23:15:53.37	36.73	32.38	-40.6	-42.3	19.6	0.00e+00	0	40	0	0	52	4462
2026-01-19 23:15:54.37	36.89	32.56	-40.5	-42.2	19.7	0.00e+00	0	40	0	0	52	4418
2026-01-19 23:15:55.36	37.05	32.75	-40.6	-42.3	19.6	0.00e+00	0	40	0	0	52	4461
2026-01-19 23:15:56.36	37.22	32.93	-40.7	-42.4	19.5	0.00e+00	0	40	0	0	52	4524
2026-01-19 23:15:57.35	37.39	33.12	-40.7	-42.5	19.5	0.00e+00	0	40	0	0	52	4568
2026-01-19 23:15:58.35	37.56	33.31	-40.9	-42.6	19.4	0.00e+00	0	40	0	0	52	4645
2026-01-19 23:15:59.35	37.73	33.50	-41.1	-42.9	19.2	0.00e+00	0	40	0	0	52	4766
2026-01-19 23:16:00.44	37.92	33.71	-41.4	-43.2	18.9	0.00e+00	0	40	0	0	53	4675
2026-01-19 23:16:01.32	38.08	33.88	-41.5	-43.3	18.7	0.00e+00	0	40	0	0	53	4754
2026-01-19 23:16:02.46	38.28	34.10	-41.7	-43.6	18.5	0.00e+00	0	40	0	0	54	4636
2026-01-19 23:16:03.39	38.45	34.28	-42.0	-43.9	18.2	0.00e+00	0	40	0	0	54	4789
2026-01-19 23:16:04.39	38.63	34.47	-42.3	-44.2	17.9	0.00e+00	0	40	0	0	55	4699
2026-01-19 23:16:05.38	38.82	34.67	-42.3	-44.2	17.8	0.00e+00	0	40	0	0	55	4702
2026-01-19 23:16:06.38	39.00	34.86	-42.4	-44.3	17.8	0.00e+00	0	40	0	0	55	4755
2026-01-19 23:16:07.38	39.19	35.06	-42.4	-44.4	17.7	0.00e+00	0	40	0	0	55	4781
2026-01-19 23:16:08.37	39.38	35.26	-42.6	-44.6	17.5	0.00e+00	0	40	0	0	55	4919
2026-01-19 23:16:09.37	39.58	35.46	-42.6	-44.6	17.6	0.00e+00	0	40	0	0	55	4891
2026-01-19 23:16:10.36	39.77	35.65	-42.5	-44.5	17.7	0.00e+00	0	40	0	0	55	4823
2026-01-19 23:16:11.36	39.97	35.86	-42.4	-44.4	17.8	0.00e+00	0	40	0	0	55	4785
2026-01-19 23:16:12.35	40.17	36.06	-42.4	-44.4	17.8	0.00e+00	0	40	0	0	55	4764
2026-01-19 23:16:13.34	40.37	36.26	-42.4	-44.3	17.8	0.00e+00	0	40	0	0	55	4745
2026-01-19 23:16:14.39	40.59	36.47	-42.3	-44.2	17.9	0.00e+00	0	40	0	0	55	4698
2026-01-19 23:16:15.34	40.79	36.66	-42.4	-44.3	17.9	0.00e+00	0	40	0	0	55	4746
2026-01-19 23:16:16.44	41.02	36.89	-42.6	-44.6	17.6	0.00e+00	0	40	0	0	55	4888
2026-01-19 23:16:17.32	41.21	37.07	-42.5	-44.5	17.7	0.00e+00	0	40	0	0	55	4837
2026-01-19 23:16:18.64	41.49	37.35	-42.5	-44.5	17.7	0.00e+00	0	40	0	0	55	4842
2026-01-19 23:16:19.34	41.65	37.49	-42.3	-44.3	17.9	0.00e+00	0	40	0	0	55	4730
2026-01-19 23:16:20.86	41.99	37.81	-42.1	-44.1	18.1	0.00e+00	0	40	0	0	55	4599
2026-01-19 23:16:21.58	42.15	37.96	-42.0	-43.9	18.2	0.00e+00	0	40	0	0	55	4531
2026-01-19 23:16:22.85	42.44	38.23	-42.0	-43.9	18.2	0.00e+00	0	40	0	0	55	4498
2026-01-19 23:16:23.56	42.61	38.38	-42.1	-44.0	18.1	0.00e+00	0	40	0	0	55	4566
2026-01-19 23:16:24.84	42.91	38.65	-42.3	-44.2	17.8	0.00e+00	0	40	0	0	55	4695
2026-01-19 23:16:25.55	43.08	38.80	-42.5	-44.5	17.6	0.00e+00	0	40	0	0	55	4817
2026-01-19 23:16:26.83	43.38	39.08	-42.8	-44.8	17.4	0.00e+00	0	40	0	0	56	4741
2026-01-19 23:16:27.55	43.56	39.23	-43.0	-45.0	17.2	0.00e+00	0	40	0	0	56	4838
2026-01-19 23:16:28.83	43.88	39.51	-42.8	-44.8	17.4	0.00e+00	0	40	0	0	56	4726
2026-01-19 23:16:29.55	44.06	39.67	-42.8	-44.7	17.4	0.00e+00	0	40	0	0	56	4705
2026-01-19 23:16:30.83	44.38	39.94	-42.9	-44.9	17.3	0.00e+00	0	40	0	0	56	4813
2026-01-19 23:16:31.54	44.57	40.10	-43.0	-45.1	17.3	0.00e+00	0	40	0	0	56	4883
2026-01-19 23:16:32.82	44.90	40.38	-43.0	-45.1	17.3	0.00e+00	0	40	0	0	56	4880
2026-01-19 23:16:33.71	45.13	40.57	-43.1	-45.2	17.2	0.00e+00	0	40	0	0	56	4957
2026-01-19 23:16:34.85	45.44	40.83	-43.1	-45.1	17.2	0.00e+00	0	40	0	0	57	4630
2026-01-19 23:16:35.70	45.67	41.01	-43.0	-45.0	17.3	0.00e+00	0	40	0	0	57	4572
2026-01-19 23:16:36.84	45.99	41.27	-43.1	-45.2	17.1	0.00e+00	0	40	0	0	57	4689
2026-01-19 23:16:37.69	46.22	41.45	-43.3	-45.4	17.0	0.00e+00	0	40	0	0	57	4781
2026-01-19 23:16:38.83	46.55	41.71	-43.2	-45.3	17.0	0.00e+00	0	40	0	0	57	4741
2026-01-19 23:16:39.68	46.79	41.90	-43.2	-45.3	17.1	0.00e+00	0	40	0	0	57	4709
2026-01-19 23:16:40.81	47.12	42.15	-43.2	-45.3	17.1	0.00e+00	0	40	0	0	57	4707
2026-01-19 23:16:41.67	47.37	42.35	-43.2	-45.3	17.1	0.00e+00	0	40	0	0	57	4734
2026-01-19 23:16:42.80	47.71	42.60	-43.3	-45.4	17.0	0.00e+00	0	40	0	0	57	4769
2026-01-19 23:16:43.66	47.97	42.79	-43.4	-45.5	16.9	0.00e+00	0	40	0	0	57	4870
2026-01-19 23:16:44.79	48.32	43.05	-43.7	-46.0	16.5	0.00e+00	0	40	0	0	58	4820
2026-01-19 23:16:45.64	48.58	43.24	-43.7	-45.9	16.5	0.00e+00	0	40	0	0	58	4767
2026-01-19 23:16:46.78	48.94	43.50	-43.5	-45.6	16.8	0.00e+00	0	40	0	0	58	4646
2026-01-19 23:16:47.63	49.21	43.69	-43.4	-45.4	16.9	0.00e+00	0	40	0	0	58	4544
2026-01-19 23:16:48.77	49.58	43.95	-43.4	-45.5	16.9	0.00e+00	0	40	0	0	58	4550
2026-01-19 23:16:49.62	49.86	44.15	-43.4	-45.5	16.8	0.00e+00	0	40	0	0	58	4588
2026-01-19 23:16:50.76	50.25	44.41	-43.5	-45.7	16.7	0.00e+00	0	40	0	0	58	4675
2026-01-19 23:16:51.61	50.53	44.60	-43.4	-45.6	16.9	0.00e+00	0	40	0	0	58	4608
2026-01-19 23:16:52.75	50.92	44.86	-43.3	-45.4	17.0	0.00e+00	0	40	0	0	58	4499
2026-01-19 23:16:53.60	51.22	45.06	-43.3	-45.4	16.9	0.00e+00	0	40	0	0	58	4525
2026-01-19 23:16:54.74	51.62	45.32	-43.2	-45.3	17.0	0.00e+00	0	40	0	0	58	4479
2026-01-19 23:16:55.59	51.93	45.51	-43.1	-45.1	17.2	0.00e+00	0	41	0	0	58	4385
2026-01-19 23:16:56.73	52.34	45.78	-42.9	-44.9	17.3	0.00e+00	0	40	0	0	57	4525
2026-01-19 23:16:57.59	52.66	45.97	-42.7	-44.7	17.5	0.00e+00	0	40	0	0	57	4403
2026-01-19 23:16:58.83	53.13	46.26	-42.8	-44.8	17.4	0.00e+00	0	40	0	0	57	4492
2026-01-19 23:16:59.68	53.45	46.45	-42.9	-44.9	17.3	0.00e+00	0	40	0	0	57	4543
2026-01-19 23:17:00.82	53.89	46.71	-43.2	-45.2	17.1	0.00e+00	0	40	0	0	57	4700
2026-01-19 23:17:01.67	54.22	46.91	-43.1	-45.2	17.2	0.00e+00	0	40	0	0	57	4700
2026-01-19 23:17:02.98	54.74	47.21	-43.2	-45.3	17.1	0.00e+00	0	40	0	0	57	4719
2026-01-19 23:17:03.70	55.03	47.37	-43.0	-45.0	17.4	0.00e+00	0	40	0	0	57	4597
2026-01-19 23:17:04.98	55.56	47.67	-42.9	-44.9	17.5	0.00e+00	0	40	0	0	57	4522
2026-01-19 23:17:05.69	55.85	47.83	-42.6	-44.5	17.8	0.00e+00	0	40	0	0	57	4320
2026-01-19 23:17:07.22	56.50	48.18	-42.4	-44.2	18.1	0.00e+00	0	40	0	0	56	4432
2026-01-19 23:17:07.93	56.80	48.34	-42.4	-44.3	18.0	0.00e+00	0	40	0	0	56	4460
2026-01-19 23:17:09.21	57.36	48.63	-42.3	-44.3	18.1	0.00e+00	0	40	0	0	56	4444
2026-01-19 23:17:10.25	57.82	48.86	-42.4	-44.3	18.0	0.00e+00	0	40	0	0	56	4446
2026-01-19 23:17:11.18	58.24	49.07	-41.8	-43.7	18.4	0.00e+00	0	40	0	0	55	4397
2026-01-19 23:17:12.18	58.70	49.30	-41.8	-43.7	18.4	0.00e+00	0	40	0	0	55	4397
2026-01-19 23:17:13.17	59.15	49.52	-41.8	-43.6	18.5	0.00e+00	0	40	0	0	55	4365
2026-01-19 23:17:14.17	59.62	49.74	-41.9	-43.8	18.3	0.00e+00	0	40	0	0	55	4454
2026-01-19 23:17:15.17	60.10	49.97	-42.0	-43.9	18.2	0.00e+00	0	40	0	0	55	4512
2026-01-19 23:17:16.16	60.58	50.18	-42.1	-44.0	18.1	0.00e+00	0	40	0	0	55	4552
2026-01-19 23:17:17.16	61.07	50.41	-42.3	-44.2	18.0	0.00e+00	0	40	0	0	55	4688
2026-01-19 23:17:18.15	61.56	50.62	-42.3	-44.2	17.9	0.00e+00	0	40	0	0	55	4695
2026-01-19 23:17:19.15	62.06	50.84	-42.5	-44.5	17.6	0.00e+00	0	40	0	0	55	4847
2026-01-19 23:17:20.14	62.57	51.05	-42.6	-44.6	17.5	0.00e+00	0	40	0	0	55	4889
2026-01-19 23:17:21.35	63.20	51.31	-42.5	-44.5	17.7	0.00e+00	0	40	0	0	55	4846
2026-01-19 23:17:22.23	63.66	51.50	-42.2	-44.1	18.1	0.00e+00	0	40	0	0	55	4646
2026-01-19 23:17:23.37	64.27	51.74	-42.0	-43.8	18.4	0.00e+00	0	41	0	0	55	4476
2026-01-19 23:17:24.22	64.73	51.92	-42.0	-43.9	18.4	0.00e+00	0	40	0	0	55	4499
2026-01-19 23:17:25.36	65.36	52.16	-41.5	-43.3	18.6	0.00e+00	0	40	0	0	55	4239
2026-01-19 23:17:26.21	65.83	52.34	-41.4	-43.2	18.8	0.00e+00	0	40	0	0	54	4416
2026-01-19 23:17:27.35	66.48	52.57	-41.4	-43.2	18.8	0.00e+00	0	40	0	0	54	4424
2026-01-19 23:17:28.41	67.09	52.78	-41.4	-43.1	18.9	0.00e+00	0	40	0	0	54	4384
2026-01-19 23:17:29.45	67.69	52.99	-41.4	-43.1	18.9	0.00e+00	0	40	0	0	54	4386
2026-01-19 23:17:30.40	68.25	53.18	-41.4	-43.2	18.8	0.00e+00	0	40	0	0	54	4424
2026-01-19 23:17:31.39	68.85	53.37	-41.7	-43.5	18.5	0.00e+00	0	40	0	0	54	4570
2026-01-19 23:17:32.39	69.45	53.57	-41.9	-43.8	18.2	0.00e+00	0	40	0	0	54	4706
2026-01-19 23:17:33.38	70.06	53.76	-42.1	-44.0	18.0	0.00e+00	0	40	0	0	54	4828
2026-01-19 23:17:34.38	70.68	53.95	-41.8	-43.7	18.2	0.00e+00	0	40	0	0	54	4690
2026-01-19 23:17:35.37	71.30	54.13	-41.7	-43.5	18.4	0.00e+00	0	40	0	0	54	4582
2026-01-19 23:17:36.36	71.94	54.31	-41.7	-43.5	18.5	0.00e+00	0	40	0	0	54	4598
2026-01-19 23:17:37.36	72.58	54.49	-41.6	-43.4	18.8	0.00e+00	0	40	0	0	54	4516
2026-01-19 23:17:38.36	73.24	54.67	-41.4	-43.2	18.8	0.00e+00	0	40	0	0	54	4433
2026-01-19 23:17:39.35	73.89	54.84	-41.4	-43.3	18.7	0.00e+00	0	40	0	0	54	4453
2026-01-19 23:17:40.41	74.60	55.02	-41.2	-43.0	19.1	0.00e+00	0	40	0	0	54	4299
2026-01-19 23:17:41.29	75.20	55.17	-40.7	-42.4	19.5	0.00e+00	0	40	0	0	53	4272
2026-01-19 23:17:42.60	76.10	55.38	-40.4	-42.1	19.8	0.00e+00	0	40	0	0	52	4363
2026-01-19 23:17:43.32	76.60	55.50	-40.4	-42.1	19.8	0.00e+00	0	40	0	0	52	4369
2026-01-19 23:17:44.60	77.50	55.70	-40.8	-42.5	19.4	0.00e+00	0	40	0	0	52	4561
2026-01-19 23:17:45.32	78.01	55.81	-41.1	-42.9	19.1	0.00e+00	0	40	0	0	52	4763
2026-01-19 23:17:46.60	78.93	56.00	-41.1	-42.9	19.2	0.00e+00	0	40	0	0	53	4499
2026-01-19 23:17:47.31	79.45	56.10	-40.8	-42.5	19.5	0.00e+00	0	40	0	0	53	4327
2026-01-19 23:17:48.59	80.39	56.28	-40.4	-42.1	19.8	0.00e+00	0	40	0	0	52	4368
2026-01-19 23:17:49.30	80.91	56.38	-40.3	-42.0	19.9	0.00e+00	0	40	0	0	52	4306
2026-01-19 23:17:50.58	81.87	56.55	-40.5	-42.2	19.7	0.00e+00	0	40	0	0	52	4427
2026-01-19 23:17:51.29	82.40	56.64	-40.4	-42.1	19.9	0.00e+00	0	40	0	0	52	4369
2026-01-19 23:17:52.57	83.38	56.80	-40.1	-41.7	20.3	0.00e+00	0	40	0	0	51	4424
2026-01-19 23:17:53.31	83.95	56.89	-39.7	-41.3	20.6	0.00e+00	0	40	0	0	51	4217
2026-01-19 23:17:54.61	84.96	57.04	-39.9	-41.6	20.3	0.00e+00	0	40	0	0	51	4353
2026-01-19 23:17:55.32	85.51	57.11	-40.1	-41.8	20.1	0.00e+00	0	40	0	0	51	4480
2026-01-19 23:17:56.60	86.52	57.25	-40.2	-41.8	20.2	0.00e+00	0	40	0	0	51	4493
2026-01-19 23:17:57.64	87.35	57.35	-40.5	-42.2	19.8	0.00e+00	0	40	0	0	51	4703
2026-01-19 23:17:58.92	88.37	57.47	-40.8	-42.6	19.4	0.00e+00	0	40	0	0	52	4617
2026-01-19 23:17:59.68	88.98	57.54	-40.7	-42.5	19.5	0.00e+00	0	40	0	0	52	4561
2026-01-19 23:18:00.96	90.02	57.64	-40.4	-42.1	19.9	0.00e+00	0	40	0	0	52	4380
2026-01-19 23:18:01.67	90.60	57.70	-40.2	-41.9	20.0	0.00e+00	0	40	0	0	52	4272
2026-01-19 23:18:02.95	91.65	57.79	-40.2	-41.9	19.9	0.00e+00	0	40	0	0	52	4287
2026-01-19 23:18:03.66	92.24	57.84	-40.1	-41.8	20.0	0.00e+00	0	40	0	0	52	4198
2026-01-19 23:18:04.95	93.31	57.91	-40.1	-41.8	20.0	0.00e+00	0	40	0	0	51	4456
2026-01-19 23:18:05.66	93.90	57.95	-40.1	-41.8	20.0	0.00e+00	0	40	0	0	51	4468
2026-01-19 23:18:06.94	94.97	58.02	-40.1	-41.8	20.1	0.00e+00	0	40	0	0	51	4464
2026-01-19 23:18:07.68	95.59	58.05	-40.1	-41.8	20.0	0.00e+00	0	40	0	0	51	4469
2026-01-19 23:18:08.95	96.66	58.10	-40.1	-41.8	20.1	0.00e+00	0	40	0	0	51	4480
2026-01-19 23:18:09.68	97.28	58.12	-40.2	-41.9	20.0	0.00e+00	0	40	0	0	51	4498
2026-01-19 23:18:11.02	98.41	58.16	-40.4	-42.2	19.5	0.00e+00	0	40	0	0	51	4654
2026-01-19 23:18:11.73	99.01	58.17	-40.6	-42.3	19.3	0.00e+00	0	40	0	0	51	4732
2026-01-19 23:18:13.01	100.10	58.19	-40.3	-42.0	19.5	0.00e+00	0	40	0	0	51	4597
2026-01-19 23:18:13.73	100.71	58.20	-40.3	-42.0	19.7	0.00e+00	0	40	0	0	51	4587
2026-01-19 23:18:15.13	101.90	58.21	-40.1	-41.8	19.9	0.00e+00	0	40	0	0	51	4468
2026-01-19 23:18:16.11	102.73	58.20	-40.2	-41.8	20.0	0.00e+00	0	40	0	0	51	4493
2026-01-19 23:18:17.11	103.58	58.19	-40.2	-41.9	20.1	0.00e+00	0	40	0	0	51	4504
2026-01-19 23:18:18.44	104.71	58.17	-40.0	-41.7	20.2	0.00e+00	0	40	0	0	51	4395
2026-01-19 23:18:19.18	105.34	58.16	-40.1	-41.7	19.9	0.00e+00	0	40	0	0	51	4424
2026-01-19 23:18:20.46	106.42	58.12	-40.5	-42.2	19.4	0.00e+00	0	40	0	0	51	4673
2026-01-19 23:18:21.17	107.02	58.10	-40.6	-42.3	19.5	0.00e+00	0	40	0	0	52	4477
2026-01-19 23:18:22.45	108.09	58.05	-40.5	-42.3	19.8	0.00e+00	0	40	0	0	52	4452
2026-01-19 23:18:23.18	108.71	58.01	-40.5	-42.2	19.7	0.00e+00	0	40	0	0	52	4423
2026-01-19 23:18:24.46	109.78	57.95	-40.7	-42.4	19.4	0.00e+00	0	40	0	0	52	4544
2026-01-19 23:18:25.17	110.37	57.91	-40.5	-42.2	19.7	0.00e+00	0	40	0	0	52	4429
2026-01-19 23:18:26.44	111.42	57.83	-40.2	-41.9	20.1	0.00e+00	0	40	0	0	52	4250
2026-01-19 23:18:27.17	112.02	57.78	-40.0	-41.7	20.4	0.00e+00	0	40	0	0	51	4411
2026-01-19 23:18:28.45	113.08	57.69	-40.4	-42.2	19.9	0.00e+00	0	40	0	0	51	4654
2026-01-19 23:18:29.18	113.67	57.63	-40.8	-42.5	19.5	0.00e+00	0	40	0	0	52	4586
2026-01-19 23:18:30.53	114.77	57.52	-40.6	-42.3	19.7	0.00e+00	0	40	0	0	52	4454
2026-01-19 23:18:31.24	115.34	57.45	-40.4	-42.1	19.8	0.00e+00	0	40	0	0	52	4350
2026-01-19 23:18:32.52	116.36	57.33	-40.4	-42.1	19.9	0.00e+00	0	40	0	0	52	4345
2026-01-19 23:18:33.25	116.95	57.26	-40.4	-42.1	19.9	0.00e+00	0	40	0	0	52	4344
2026-01-19 23:18:34.64	118.04	57.12	-40.4	-42.1	20.0	0.00e+00	0	40	0	0	52	4358
2026-01-19 23:18:35.35	118.60	57.04	-40.5	-42.2	19.9	0.00e+00	0	40	0	0	52	4436
2026-01-19 23:18:36.63	119.59	56.89	-40.5	-42.2	19.7	0.00e+00	0	40	0	0	52	4434
2026-01-19 23:18:37.34	120.14	56.81	-40.5	-42.2	19.8	0.00e+00	0	40	0	0	52	4394
2026-01-19 23:18:38.76	121.22	56.63	-40.4	-42.1	19.9	0.00e+00	0	40	0	0	52	4341
2026-01-19 23:18:39.47	121.76	56.54	-40.9	-42.6	19.5	0.00e+00	0	40	0	0	52	4623
2026-01-19 23:18:40.75	122.72	56.37	-41.6	-43.5	18.8	0.00e+00	0	40	0	0	53	4831
2026-01-19 23:18:41.48	123.26	56.27	-41.7	-43.5	18.7	0.00e+00	0	40	0	0	54	4583
2026-01-19 23:18:42.75	124.19	56.09	-41.4	-43.2	18.8	0.00e+00	0	40	0	0	54	4430
2026-01-19 23:18:43.47	124.71	55.99	-41.3	-43.1	18.9	0.00e+00	0	40	0	0	54	4357
2026-01-19 23:18:44.74	125.63	55.80	-41.1	-42.8	19.3	0.00e+00	0	40	0	0	54	4223
2026-01-19 23:18:45.47	126.15	55.68	-41.0	-42.8	19.4	0.00e+00	0	40	0	0	54	4211
2026-01-19 23:18:46.75	127.05	55.48	-41.3	-43.0	19.2	0.00e+00	0	40	0	0	54	4337
2026-01-19 23:18:47.48	127.55	55.37	-41.5	-43.3	18.8	0.00e+00	0	40	0	0	54	4487
2026-01-19 23:18:48.76	128.43	55.16	-41.2	-43.0	19.2	0.00e+00	0	40	0	0	54	4338
2026-01-19 23:18:49.47	128.92	55.04	-41.0	-42.8	19.4	0.00e+00	0	40	0	0	54	4232
2026-01-19 23:18:50.75	129.78	54.82	-41.0	-42.7	19.3	0.00e+00	0	40	0	0	53	4436
2026-01-19 23:18:51.58	130.33	54.67	-41.3	-43.1	18.9	0.00e+00	0	40	0	0	53	4638
2026-01-19 23:18:52.72	131.07	54.47	-41.8	-43.7	18.5	0.00e+00	0	40	0	0	54	4698
2026-01-19 23:18:53.57	131.62	54.32	-41.9	-43.8	18.6	0.00e+00	0	40	0	0	54	4707
2026-01-19 23:18:55.07	132.58	54.04	-42.1	-44.0	18.1	0.00e+00	0	40	0	0	54	4825
2026-01-19 23:18:55.78	133.03	53.91	-42.3	-44.2	17.8	0.00e+00	0	40	0	0	55	4689
2026-01-19 23:18:57.06	133.82	53.66	-41.9	-43.7	18.3	0.00e+00	0	40	0	0	55	4437
2026-01-19 23:18:57.79	134.27	53.52	-41.5	-43.3	18.8	0.00e+00	0	40	0	0	55	4233
2026-01-19 23:18:59.06	135.04	53.27	-41.3	-43.1	19.0	0.00e+00	0	40	0	0	54	4376
2026-01-19 23:18:59.79	135.47	53.13	-41.4	-43.2	18.9	0.00e+00	0	40	0	0	54	4400
2026-01-19 23:19:01.07	136.23	52.87	-41.3	-43.1	19.1	0.00e+00	0	40	0	0	54	4343
2026-01-19 23:19:01.86	136.68	52.72	-41.4	-43.2	19.0	0.00e+00	0	40	0	0	54	4398
2026-01-19 23:19:03.06	137.37	52.47	-41.9	-43.7	18.5	0.00e+00	0	40	0	0	54	4685
2026-01-19 23:19:03.91	137.85	52.30	-42.2	-44.1	18.0	0.00e+00	0	40	0	0	55	4630
2026-01-19 23:19:05.05	138.49	52.06	-42.0	-43.9	18.1	0.00e+00	0	40	0	0	55	4521
2026-01-19 23:19:05.90	138.95	51.88	-41.9	-43.8	18.2	0.00e+00	0	40	0	0	55	4448
2026-01-19 23:19:07.04	139.57	51.64	-42.0	-43.9	18.0	0.00e+00	0	40	0	0	55	4499
2026-01-19 23:19:07.89	140.02	51.46	-42.0	-43.9	18.0	0.00e+00	0	40	0	0	55	4521
2026-01-19 23:19:09.03	140.62	51.21	-41.8	-43.6	18.5	0.00e+00	0	40	0	0	55	4352
2026-01-19 23:19:09.88	141.07	51.03	-41.8	-43.6	18.5	0.00e+00	0	40	0	0	55	4361
2026-01-19 23:19:11.01	141.64	50.78	-42.1	-44.0	18.2	0.00e+00	0	40	0	0	55	4576
2026-01-19 23:19:11.87	142.08	50.59	-42.3	-44.3	18.0	0.00e+00	0	40	0	0	55	4708
2026-01-19 23:19:13.00	142.64	50.35	-42.5	-44.5	17.7	0.00e+00	0	40	0	0	55	4847
2026-01-19 23:19:13.85	143.06	50.16	-42.3	-44.3	17.8	0.00e+00	0	40	0	0	55	4733
2026-01-19 23:19:15.09	143.65	49.88	-42.2	-44.1	17.8	0.00e+00	0	40	0	0	55	4621
2026-01-19 23:19:16.33	144.24	49.61	-42.4	-44.3	17.8	0.00e+00	0	40	0	0	55	4751
2026-01-19 23:19:17.19	144.64	49.41	-42.3	-44.2	18.1	0.00e+00	0	40	0	0	55	4677
2026-01-19 23:19:18.32	145.16	49.16	-42.5	-44.4	17.9	0.00e+00	0	40	0	0	55	4782
2026-01-19 23:19:19.18	145.56	48.96	-42.6	-44.6	17.7	0.00e+00	0	40	0	0	55	4904
2026-01-19 23:19:20.32	146.06	48.70	-43.2	-45.2	17.3	0.00e+00	0	40	0	0	56	4976
2026-01-19 23:19:21.17	146.44	48.51	-43.5	-45.6	17.0	0.00e+00	0	40	0	0	57	4889
2026-01-19 23:19:22.31	146.93	48.25	-43.8	-46.0	16.5	0.00e+00	0	40	0	0	58	4852
2026-01-19 23:19:23.16	147.30	48.06	-44.2	-46.5	16.0	0.00e+00	0	40	0	0	58	5110
2026-01-19 23:19:24.30	147.78	47.80	-43.9	-46.1	16.3	0.00e+00	0	40	0	0	59	4619
2026-01-19 23:19:25.15	148.13	47.60	-43.7	-45.9	16.5	0.00e+00	0	40	0	0	59	4531
2026-01-19 23:19:26.29	148.60	47.34	-43.0	-45.0	17.5	0.00e+00	0	40	0	0	58	4315
2026-01-19 23:19:27.16	148.95	47.14	-42.6	-44.5	18.0	0.00e+00	0	40	0	0	57	4301
2026-01-19 23:19:28.30	149.41	46.88	-42.5	-44.4	18.0	0.00e+00	0	40	0	0	56	4540
2026-01-19 23:19:29.15	149.74	46.68	-42.7	-44.6	17.8	0.00e+00	0	40	0	0	56	4648
2026-01-19 23:19:30.29	150.18	46.42	-43.2	-45.2	17.3	0.00e+00	0	40	0	0	57	4702
2026-01-19 23:19:31.30	150.56	46.18	-43.5	-45.6	17.0	0.00e+00	0	40	0	0	57	4879
2026-01-19 23:19:32.47	151.00	45.91	-43.6	-45.7	16.9	0.00e+00	0	40	0	0	57	4954
2026-01-19 23:19:33.32	151.32	45.72	-43.6	-45.7	16.7	0.00e+00	0	40	0	0	58	4681
2026-01-19 23:19:34.46	151.73	45.46	-43.2	-45.3	17.2	0.00e+00	0	40	0	0	58	4443
2026-01-19 23:19:35.31	152.04	45.26	-42.7	-44.6	17.7	0.00e+00	0	40	0	0	57	4367
2026-01-19 23:19:36.45	152.44	45.00	-42.6	-44.5	17.8	0.00e+00	0	40	0	0	57	4334
2026-01-19 23:19:37.30	152.74	44.80	-42.5	-44.4	17.9	0.00e+00	0	40	0	0	56	4536
2026-01-19 23:19:38.44	153.13	44.54	-43.0	-45.0	17.6	0.00e+00	0	40	0	0	56	4819
2026-01-19 23:19:39.29	153.42	44.34	-43.2	-45.2	17.2	0.00e+00	0	40	0	0	57	4701
2026-01-19 23:19:40.43	153.80	44.08	-43.2	-45.2	17.3	0.00e+00	0	40	0	0	57	4662
2026-01-19 23:19:41.28	154.08	43.89	-43.7	-45.8	16.7	0.00e+00	0	40	0	0	58	4756
2026-01-19 23:19:42.42	154.45	43.63	-44.0	-46.3	16.3	0.00e+00	0	40	0	0	58	4988
2026-01-19 23:19:43.27	154.72	43.43	-44.0	-46.3	16.2	0.00e+00	0	40	0	0	58	5007
2026-01-19 23:19:44.42	155.09	43.17	-44.0	-46.2	16.2	0.00e+00	0	40	0	0	58	4954
2026-01-19 23:19:45.28	155.35	42.97	-43.6	-45.8	16.6	0.00e+00	0	40	0	0	58	4725
2026-01-19 23:19:46.41	155.70	42.72	-43.4	-45.4	16.9	0.00e+00	0	40	0	0	58	4543
2026-01-19 23:19:47.27	155.96	42.52	-43.3	-45.3	17.1	0.00e+00	0	40	0	0	58	4481
2026-01-19 23:19:48.40	156.30	42.27	-43.1	-45.1	17.3	0.00e+00	0	40	0	0	58	4390
2026-01-19 23:19:49.26	156.55	42.07	-42.7	-44.6	17.9	0.00e+00	0	40	0	0	57	4346
2026-01-19 23:19:50.58	156.94	41.77	-43.0	-45.0	17.4	0.00e+00	0	40	0	0	57	4551
2026-01-19 23:19:51.30	157.14	41.61	-43.3	-45.4	17.0	0.00e+00	0	40	0	0	57	4778
2026-01-19 23:19:52.58	157.50	41.33	-44.0	-46.2	16.3	0.00e+00	0	40	0	0	58	4945
2026-01-19 23:19:53.30	157.70	41.17	-44.3	-46.7	15.8	0.00e+00	0	40	0	0	59	4945
2026-01-19 23:19:54.58	158.06	40.88	-44.1	-46.3	16.2	0.00e+00	0	40	0	0	59	4745
2026-01-19 23:19:55.31	158.25	40.72	-43.7	-45.8	16.6	0.00e+00	0	40	0	0	59	4478
2026-01-19 23:19:56.59	158.60	40.44	-42.9	-44.9	17.4	0.00e+00	0	40	0	0	57	4510
2026-01-19 23:19:57.30	158.78	40.28	-42.8	-44.8	17.5	0.00e+00	0	40	0	0	57	4469
2026-01-19 23:19:58.58	159.12	40.00	-42.9	-44.8	17.5	0.00e+00	0	40	0	0	57	4469
2026-01-19 23:19:59.48	159.35	39.80	-42.7	-44.6	17.7	0.00e+00	0	40	0	0	57	4376
2026-01-19 23:20:00.57	159.63	39.56	-42.6	-44.6	17.8	0.00e+00	0	40	0	0	57	4354
2026-01-19 23:20:01.43	159.84	39.37	-42.8	-44.8	17.5	0.00e+00	0	40	0	0	57	4492
2026-01-19 23:20:02.56	160.12	39.13	-43.0	-45.0	17.2	0.00e+00	0	40	0	0	57	4597
2026-01-19 23:20:03.41	160.33	38.95	-43.0	-45.0	17.3	0.00e+00	0	40	0	0	57	4582
2026-01-19 23:20:04.55	160.60	38.70	-43.0	-45.0	17.2	0.00e+00	0	40	0	0	57	4579
2026-01-19 23:20:05.40	160.80	38.52	-42.9	-45.0	17.3	0.00e+00	0	40	0	0	57	4552
2026-01-19 23:20:06.54	161.07	38.27	-43.1	-45.1	17.3	0.00e+00	0	40	0	0	57	4630
2026-01-19 23:20:07.39	161.27	38.09	-42.9	-44.9	17.6	0.00e+00	0	40	0	0	57	4516
2026-01-19 23:20:08.61	161.55	37.83	-42.7	-44.7	17.7	0.00e+00	0	40	0	0	57	4423
2026-01-19 23:20:09.46	161.74	37.66	-42.7	-44.6	17.7	0.00e+00	0	40	0	0	57	4387
2026-01-19 23:20:10.60	161.99	37.42	-42.4	-44.3	18.0	0.00e+00	0	40	0	0	56	4490
2026-01-19 23:20:11.45	162.18	37.24	-42.1	-44.0	18.3	0.00e+00	0	40	0	0	56	4312
2026-01-19 23:20:12.59	162.43	37.00	-42.0	-43.9	18.4	0.00e+00	0	40	0	0	56	4262
2026-01-19 23:20:13.44	162.61	36.82	-41.6	-43.5	18.6	0.00e+00	0	40	0	0	55	4311
2026-01-19 23:20:14.58	162.85	36.59	-41.5	-43.3	18.8	0.00e+00	0	40	0	0	54	4463
2026-01-19 23:20:15.43	163.03	36.41	-41.6	-43.4	18.6	0.00e+00	0	40	0	0	54	4521
2026-01-19 23:20:16.57	163.26	36.18	-41.9	-43.9	18.2	0.00e+00	0	40	0	0	54	4765
2026-01-19 23:20:17.42	163.44	36.00	-42.3	-44.3	17.8	0.00e+00	0	40	0	0	55	4737
2026-01-19 23:20:18.55	163.67	35.78	-42.4	-44.5	17.7	0.00e+00	0	40	0	0	55	4817
2026-01-19 23:20:19.41	163.84	35.60	-42.4	-44.4	17.8	0.00e+00	0	40	0	0	55	4788
2026-01-19 23:20:20.54	164.06	35.37	-42.1	-44.0	18.1	0.00e+00	0	40	0	0	55	4579
2026-01-19 23:20:21.39	164.23	35.20	-42.0	-43.9	18.3	0.00e+00	0	40	0	0	55	4503
2026-01-19 23:20:22.53	164.45	34.98	-41.7	-43.5	18.6	0.00e+00	0	40	0	0	55	4338
2026-01-19 23:20:23.38	164.61	34.81	-41.5	-43.3	18.8	0.00e+00	0	40	0	0	55	4234
2026-01-19 23:20:24.52	164.82	34.58	-41.5	-43.3	18.9	0.00e+00	0	40	0	0	54	4457
2026-01-19 23:20:25.37	164.98	34.41	-41.3	-43.1	19.1	0.00e+00	0	40	0	0	54	4358
2026-01-19 23:20:26.51	165.19	34.19	-41.7	-43.5	18.6	0.00e+00	0	40	0	0	54	4589
2026-01-19 23:20:27.36	165.34	34.02	-41.9	-43.8	18.4	0.00e+00	0	40	0	0	54	4757
2026-01-19 23:20:28.59	165.56	33.79	-42.1	-44.1	18.2	0.00e+00	0	40	0	0	55	4611
2026-01-19 23:20:29.45	165.71	33.62	-42.2	-44.1	18.0	0.00e+00	0	40	0	0	55	4645
2026-01-19 23:20:30.58	165.91	33.40	-42.3	-44.3	17.9	0.00e+00	0	40	0	0	55	4729
2026-01-19 23:20:31.44	166.06	33.24	-42.1	-44.1	18.1	0.00e+00	0	40	0	0	55	4599
2026-01-19 23:20:32.57	166.25	33.02	-42.0	-43.9	18.1	0.00e+00	0	40	0	0	55	4544
2026-01-19 23:20:33.42	166.40	32.86	-41.8	-43.7	18.3	0.00e+00	0	40	0	0	55	4423
2026-01-19 23:20:34.56	166.59	32.65	-41.5	-43.4	18.6	0.00e+00	0	40	0	0	55	4254
2026-01-19 23:20:35.42	166.73	32.48	-41.4	-43.3	18.7	0.00e+00	0	40	0	0	54	4455
2026-01-19 23:20:36.55	166.92	32.27	-41.4	-43.2	18.8	0.00e+00	0	40	0	0	54	4419
2026-01-19 23:20:37.40	167.05	32.12	-41.1	-42.9	19.1	0.00e+00	0	40	0	0	54	4257
2026-01-19 23:20:38.54	167.23	31.90	-41.1	-42.9	19.1	0.00e+00	0	40	0	0	54	4286
2026-01-19 23:20:39.39	167.37	31.75	-41.2	-43.0	19.1	0.00e+00	0	40	0	0	54	4293
2026-01-19 23:20:40.53	167.55	31.54	-41.0	-42.7	19.2	0.00e+00	0	40	0	0	53	4426
2026-01-19 23:20:41.38	167.68	31.38	-40.9	-42.7	19.2	0.00e+00	0	40	0	0	53	4395
2026-01-19 23:20:42.52	167.85	31.18	-40.9	-42.6	19.2	0.00e+00	0	40	0	0	53	4382
2026-01-19 23:20:43.37	167.98	31.02	-40.7	-42.5	19.4	0.00e+00	0	40	0	0	53	4295
2026-01-19 23:20:44.51	168.15	30.82	-40.6	-42.4	19.6	0.00e+00	0	40	0	0	53	4245
2026-01-19 23:20:45.36	168.28	30.67	-40.6	-42.3	19.6	0.00e+00	0	40	0	0	53	4229
2026-01-19 23:20:46.50	168.45	30.46	-40.6	-42.3	19.6	0.00e+00	0	40	0	0	53	4229
2026-01-19 23:20:47.35	168.57	30.31	-40.7	-42.4	19.5	0.00e+00	0	40	0	0	53	4280
2026-01-19 23:20:48.49	168.73	30.11	-40.8	-42.6	19.3	0.00e+00	0	40	0	0	53	4359
2026-01-19 23:20:49.34	168.85	29.96	-40.8	-42.6	19.3	0.00e+00	0	40	0	0	53	4343
2026-01-19 23:20:50.47	169.01	29.77	-40.8	-42.6	19.3	0.00e+00	0	40	0	0	53	4375
2026-01-19 23:20:51.33	169.13	29.62	-40.9	-42.6	19.3	0.00e+00	0	40	0	0	53	4386
2026-01-19 23:20:52.47	169.29	29.42	-40.9	-42.7	19.2	0.00e+00	0	40	0	0	53	4420
2026-01-19 23:20:53.32	169.40	29.28	-41.0	-42.8	19.1	0.00e+00	0	40	0	0	53	4443
2026-01-19 23:20:54.46	169.56	29.08	-41.0	-42.8	19.1	0.00e+00	0	40	0	0	53	4457
2026-01-19 23:20:55.31	169.67	28.94	-41.0	-42.8	19.0	0.00e+00	0	40	0	0	53	4486
2026-01-19 23:20:56.45	169.82	28.74	-41.1	-42.9	19.0	0.00e+00	0	40	0	0	53	4508
2026-01-19 23:20:57.30	169.93	28.60	-41.0	-42.8	19.1	0.00e+00	0	40	0	0	53	4460
2026-01-19 23:20:58.52	170.09	28.40	-40.9	-42.7	19.2	0.00e+00	0	40	0	0	53	4420
2026-01-19 23:20:59.37	170.20	28.26	-41.0	-42.8	19.1	0.00e+00	0	40	0	0	53	4449
2026-01-19 23:21:00.50	170.34	28.07	-40.7	-42.5	19.4	0.00e+00	0	40	0	0	53	4302
2026-01-19 23:21:01.36	170.45	27.93	-40.5	-42.2	19.6	0.00e+00	0	40	0	0	53	4178
2026-01-19 23:21:02.49	170.59	27.74	-40.3	-42.0	19.7	0.00e+00	0	40	0	0	52	4334
2026-01-19 23:21:03.35	170.70	27.60	-40.3	-42.0	19.7	0.00e+00	0	40	0	0	52	4320
2026-01-19 23:21:04.49	170.84	27.42	-40.4	-42.1	19.7	0.00e+00	0	40	0	0	52	4342
2026-01-19 23:21:05.34	170.94	27.28	-40.2	-41.9	19.7	0.00e+00	0	40	0	0	52	4286
2026-01-19 23:21:06.69	171.10	27.06	-40.3	-42.0	19.7	0.00e+00	0	40	0	0	52	4321
2026-01-19 23:21:07.40	171.18	26.95	-40.4	-42.1	19.7	0.00e+00	0	40	0	0	52	4360
2026-01-19 23:21:08.68	171.33	26.75	-40.3	-42.1	19.8	0.00e+00	0	40	0	0	52	4344
2026-01-19 23:21:09.40	171.42	26.63	-40.3	-42.0	19.9	0.00e+00	0	40	0	0	52	4299
2026-01-19 23:21:10.68	171.57	26.43	-40.3	-42.0	19.9	0.00e+00	0	40	0	0	52	4294
2026-01-19 23:21:11.41	171.65	26.32	-40.2	-41.9	20.0	0.00e+00	0	40	0	0	52	4262
2026-01-19 23:21:12.69	171.79	26.12	-40.0	-41.7	20.2	0.00e+00	0	40	0	0	52	4165
2026-01-19 23:21:13.56	171.89	25.98	-40.0	-41.7	20.2	0.00e+00	0	40	0	0	52	4154
2026-01-19 23:21:14.69	172.01	25.81	-40.1	-41.7	20.1	0.00e+00	0	40	0	0	52	4187
2026-01-19 23:21:15.55	172.11	25.68	-40.0	-41.7	20.2	0.00e+00	0	40	0	0	51	4413
2026-01-19 23:21:16.68	172.23	25.50	-40.1	-41.8	20.1	0.00e+00	0	40	0	0	51	4480
2026-01-19 23:21:17.54	172.32	25.37	-40.2	-41.9	20.0	0.00e+00	0	40	0	0	51	4528
2026-01-19 23:21:18.67	172.44	25.20	-40.3	-42.0	19.9	0.00e+00	0	40	0	0	51	4552
2026-01-19 23:21:19.53	172.53	25.07	-40.4	-42.1	19.8	0.00e+00	0	40	0	0	51	4613
2026-01-19 23:21:20.66	172.65	24.91	-40.5	-42.2	19.7	0.00e+00	0	40	0	0	51	4671
2026-01-19 23:21:21.51	172.74	24.78	-40.5	-42.2	19.7	0.00e+00	0	40	0	0	51	4692
2026-01-19 23:21:22.65	172.86	24.61	-40.6	-42.3	19.6	0.00e+00	0	40	0	0	51	4727
2026-01-19 23:21:23.50	172.94	24.48	-40.6	-42.3	19.7	0.00e+00	0	40	0	0	51	4734
2026-01-19 23:21:24.64	173.06	24.32	-40.6	-42.3	19.6	0.00e+00	0	40	0	0	51	4722
2026-01-19 23:21:25.49	173.14	24.19	-40.6	-42.4	19.5	0.00e+00	0	40	0	0	52	4506
2026-01-19 23:21:26.63	173.26	24.03	-40.6	-42.4	19.4	0.00e+00	0	40	0	0	52	4514
2026-01-19 23:21:27.48	173.34	23.91	-40.7	-42.5	19.3	0.00e+00	0	40	0	0	52	4552
2026-01-19 23:21:28.62	173.45	23.74	-40.8	-42.6	19.2	0.00e+00	0	40	0	0	52	4632
2026-01-19 23:21:29.47	173.53	23.62	-40.8	-42.6	19.1	0.00e+00	0	40	0	0	52	4643
2026-01-19 23:21:30.61	173.64	23.46	-40.8	-42.6	19.1	0.00e+00	0	40	0	0	52	4645
2026-01-19 23:21:31.70	173.75	23.30	-40.9	-42.6	19.1	0.00e+00	0	40	0	0	52	4651
2026-01-19 23:21:32.72	173.84	23.16	-40.9	-42.6	19.1	0.00e+00	0	40	0	0	52	4649
2026-01-19 23:21:33.72	173.94	23.02	-40.9	-42.7	19.0	0.00e+00	0	40	0	0	52	4665
2026-01-19 23:21:34.72	174.03	22.88	-40.8	-42.6	19.1	0.00e+00	0	40	0	0	52	4635
2026-01-19 23:21:35.95	174.14	22.71	-40.8	-42.6	19.1	0.00e+00	0	40	0	0	52	4645
2026-01-19 23:21:36.83	174.22	22.59	-40.8	-42.6	19.1	0.00e+00	0	40	0	0	52	4621
2026-01-19 23:21:37.97	174.32	22.43	-40.8	-42.7	19.0	0.00e+00	0	40	0	0	52	4652
2026-01-19 23:21:38.82	174.40	22.32	-40.7	-42.5	19.2	0.00e+00	0	40	0	0	52	4586
2026-01-19 23:21:39.96	174.50	22.16	-40.7	-42.5	19.2	0.00e+00	0	40	0	0	52	4576
2026-01-19 23:21:40.82	174.57	22.05	-40.8	-42.6	19.2	0.00e+00	0	40	0	0	52	4613
2026-01-19 23:21:41.95	174.67	21.89	-40.7	-42.5	19.3	0.00e+00	0	40	0	0	52	4561
2026-01-19 23:21:42.81	174.75	21.78	-40.6	-42.4	19.4	0.00e+00	0	40	0	0	52	4540
2026-01-19 23:21:43.94	174.84	21.63	-40.3	-42.0	19.7	0.00e+00	0	40	0	0	52	4328
2026-01-19 23:21:44.80	174.92	21.51	-40.2	-41.9	19.8	0.00e+00	0	40	0	0	52	4270
2026-01-19 23:21:45.93	175.01	21.36	-40.2	-41.9	19.8	0.00e+00	0	40	0	0	52	4283
2026-01-19 23:21:46.79	175.08	21.25	-40.0	-41.8	19.9	0.00e+00	0	40	0	0	52	4198
2026-01-19 23:21:47.92	175.18	21.10	-40.0	-41.7	20.0	0.00e+00	0	40	0	0	52	4153
2026-01-19 23:21:48.78	175.25	20.99	-40.1	-41.8	19.9	0.00e+00	0	40	0	0	51	4455
2026-01-19 23:21:49.98	175.34	20.84	-40.1	-41.8	19.9	0.00e+00	0	40	0	0	51	4478
2026-01-19 23:21:50.83	175.41	20.73	-40.2	-41.9	19.7	0.00e+00	0	40	0	0	51	4544
2026-01-19 23:21:51.97	175.50	20.58	-40.3	-42.0	19.7	0.00e+00	0	40	0	0	51	4568
2026-01-19 23:21:52.82	175.57	20.47	-40.4	-42.1	19.6	0.00e+00	0	40	0	0	51	4629
2026-01-19 23:21:54.10	175.67	20.31	-40.5	-42.3	19.2	0.00e+00	0	40	0	0	51	4740
2026-01-19 23:21:54.82	175.73	20.22	-40.6	-42.4	19.2	0.00e+00	0	40	0	0	52	4539
2026-01-19 23:21:56.10	175.83	20.06	-40.7	-42.5	19.2	0.00e+00	0	40	0	0	52	4556
2026-01-19 23:21:56.81	175.88	19.97	-40.8	-42.6	19.1	0.00e+00	0	40	0	0	52	4621
2026-01-19 23:21:58.09	175.98	19.81	-40.8	-42.6	19.2	0.00e+00	0	40	0	0	52	4613
2026-01-19 23:21:58.82	176.04	19.72	-40.8	-42.6	19.2	0.00e+00	0	40	0	0	52	4623
2026-01-19 23:22:00.09	176.13	19.56	-40.9	-42.7	19.1	0.00e+00	0	40	0	0	52	4682
2026-01-19 23:22:00.88	176.19	19.46	-40.8	-42.6	19.2	0.00e+00	0	40	0	0	52	4612
2026-01-19 23:22:02.07	176.28	19.32	-40.7	-42.5	19.3	0.00e+00	0	40	0	0	52	4574
2026-01-19 23:22:02.92	176.34	19.21	-40.7	-42.5	19.2	0.00e+00	0	40	0	0	52	4593
2026-01-19 23:22:04.06	176.42	19.08	-40.7	-42.5	19.3	0.00e+00	0	40	0	0	52	4546
2026-01-19 23:22:04.91	176.48	18.97	-40.6	-42.4	19.3	0.00e+00	0	40	0	0	52	4530
2026-01-19 23:22:06.05	176.57	18.84	-40.7	-42.4	19.3	0.00e+00	0	40	0	0	52	4542
2026-01-19 23:22:06.90	176.63	18.73	-40.6	-42.4	19.3	0.00e+00	0	40	0	0	52	4514
2026-01-19 23:22:08.04	176.71	18.60	-40.6	-42.4	19.3	0.00e+00	0	40	0	0	52	4532
2026-01-19 23:22:08.89	176.77	18.50	-40.7	-42.5	19.2	0.00e+00	0	40	0	0	52	4593
2026-01-19 23:22:10.03	176.85	18.36	-40.7	-42.5	19.2	0.00e+00	0	40	0	0	52	4570
2026-01-19 23:22:10.88	176.91	18.26	-40.8	-42.6	19.1	0.00e+00	0	40	0	0	52	4630
2026-01-19 23:22:12.10	176.99	18.12	-40.9	-42.7	19.0	0.00e+00	0	40	0	0	52	4682
2026-01-19 23:22:12.95	177.05	18.02	-40.8	-42.6	19.1	0.00e+00	0	40	0	0	52	4643
2026-01-19 23:22:14.09	177.12	17.89	-40.9	-42.8	19.0	0.00e+00	0	40	0	0	52	4719
2026-01-19 23:22:14.94	177.18	17.79	-41.0	-42.8	19.0	0.00e+00	0	40	0	0	52	4749
2026-01-19 23:22:16.08	177.26	17.66	-41.0	-42.9	18.9	0.00e+00	0	40	0	0	52	4762
2026-01-19 23:22:17.01	177.32	17.55	-41.0	-42.9	18.9	0.00e+00	0	40	0	0	52	4784
2026-01-19 23:22:18.00	177.38	17.44	-41.1	-42.9	18.9	0.00e+00	0	40	0	0	52	4813
2026-01-19 23:22:19.00	177.45	17.33	-41.1	-43.0	18.8	0.00e+00	0	40	0	0	52	4849
2026-01-19 23:22:20.00	177.51	17.21	-41.3	-43.1	18.6	0.00e+00	0	40	0	0	53	4649
2026-01-19 23:22:20.99	177.58	17.10	-41.2	-43.1	18.7	0.00e+00	0	40	0	0	53	4617
2026-01-19 23:22:21.99	177.64	16.99	-41.2	-43.1	18.7	0.00e+00	0	40	0	0	53	4610
2026-01-19 23:22:22.98	177.71	16.88	-41.2	-43.1	18.7	0.00e+00	0	40	0	0	53	4638
2026-01-19 23:22:23.98	177.77	16.77	-41.2	-43.1	18.7	0.00e+00	0	40	0	0	53	4612
2026-01-19 23:22:24.97	177.83	16.66	-41.3	-43.1	18.7	0.00e+00	0	40	0	0	53	4649
2026-01-19 23:22:25.97	177.89	16.55	-41.3	-43.2	18.7	0.00e+00	0	40	0	0	53	4676
2026-01-19 23:22:26.96	177.95	16.44	-41.2	-43.1	18.7	0.00e+00	0	40	0	0	53	4646
2026-01-19 23:22:27.96	178.01	16.33	-41.2	-43.1	18.8	0.00e+00	0	40	0	0	53	4610
2026-01-19 23:22:28.95	178.08	16.22	-41.3	-43.2	18.6	0.00e+00	0	40	0	0	53	4692
2026-01-19 23:22:29.94	178.13	16.12	-41.4	-43.3	18.5	0.00e+00	0	40	0	0	53	4740
2026-01-19 23:22:30.94	178.19	16.01	-41.3	-43.2	18.6	0.00e+00	0	40	0	0	53	4668
2026-01-19 23:22:31.93	178.25	15.90	-41.3	-43.2	18.6	0.00e+00	0	40	0	0	53	4691
2026-01-19 23:22:32.93	178.31	15.79	-41.3	-43.2	18.6	0.00e+00	0	40	0	0	53	4705
2026-01-19 23:22:33.92	178.37	15.69	-41.3	-43.2	18.6	0.00e+00	0	40	0	0	53	4692
2026-01-19 23:22:34.92	178.43	15.58	-41.3	-43.2	18.6	0.00e+00	0	40	0	0	53	4686
2026-01-19 23:22:35.91	178.49	15.48	-41.3	-43.2	18.6	0.00e+00	0	40	0	0	53	4681
2026-01-19 23:22:36.91	178.55	15.37	-41.3	-43.2	18.6	0.00e+00	0	40	0	0	53	4701
2026-01-19 23:22:37.90	178.60	15.27	-41.4	-43.4	18.5	0.00e+00	0	40	0	0	53	4760
2026-01-19 23:22:38.90	178.66	15.16	-41.3	-43.2	18.6	0.00e+00	0	40	0	0	53	4678
2026-01-19 23:22:39.89	178.71	15.06	-41.3	-43.2	18.6	0.00e+00	0	40	0	0	53	4679
2026-01-19 23:22:40.89	178.77	14.96	-41.4	-43.3	18.5	0.00e+00	0	40	0	0	53	4712
2026-01-19 23:22:41.89	178.83	14.85	-41.4	-43.3	18.5	0.00e+00	0	40	0	0	53	4728
2026-01-19 23:22:42.88	178.88	14.75	-41.3	-43.2	18.6	0.00e+00	0	40	0	0	53	4656
2026-01-19 23:22:43.95	178.94	14.64	-41.4	-43.3	18.5	0.00e+00	0	40	0	0	53	4725
2026-01-19 23:22:44.84	178.99	14.55	-41.3	-43.2	18.6	0.00e+00	0	40	0	0	53	4664
2026-01-19 23:22:45.98	179.05	14.44	-41.3	-43.2	18.5	0.00e+00	0	40	0	0	53	4694
2026-01-19 23:22:46.83	179.10	14.35	-41.4	-43.3	18.5	0.00e+00	0	40	0	0	53	4719
2026-01-19 23:22:47.97	179.16	14.24	-41.3	-43.3	18.5	0.00e+00	0	40	0	0	53	4708
2026-01-19 23:22:48.83	179.20	14.15	-41.3	-43.2	18.5	0.00e+00	0	40	0	0	53	4699
2026-01-19 23:22:49.96	179.26	14.04	-41.5	-43.4	18.3	0.00e+00	0	40	0	0	53	4802
2026-01-19 23:22:50.81	179.31	13.95	-41.4	-43.3	18.4	0.00e+00	0	40	0	0	53	4723
2026-01-19 23:22:51.95	179.37	13.84	-41.4	-43.4	18.3	0.00e+00	0	40	0	0	53	4780
2026-01-19 23:22:52.80	179.41	13.76	-41.4	-43.4	18.3	0.00e+00	0	40	0	0	53	4782
2026-01-19 23:22:53.94	179.47	13.64	-41.5	-43.5	18.2	0.00e+00	0	40	0	0	53	4845
2026-01-19 23:22:54.79	179.52	13.56	-41.5	-43.5	18.2	0.00e+00	0	40	0	0	53	4850
2026-01-19 23:22:56.00	179.58	13.44	-41.5	-43.5	18.3	0.00e+00	0	40	0	0	53	4819
2026-01-19 23:22:56.85	179.62	13.36	-41.5	-43.5	18.2	0.00e+00	0	40	0	0	53	4832
2026-01-19 23:22:57.99	179.68	13.25	-41.5	-43.5	18.2	0.00e+00	0	40	0	0	53	4827
2026-01-19 23:22:58.84	179.72	13.17	-41.5	-43.5	18.2	0.00e+00	0	40	0	0	53	4834
2026-01-19 23:22:59.97	179.78	13.06	-41.5	-43.5	18.2	0.00e+00	0	40	0	0	53	4841
2026-01-19 23:23:00.83	179.82	12.98	-41.4	-43.4	18.3	0.00e+00	0	40	0	0	53	4771
2026-01-19 23:23:01.96	179.88	12.87	-41.5	-43.4	18.3	0.00e+00	0	40	0	0	53	4813
2026-01-19 23:23:02.81	179.92	12.79	-41.4	-43.4	18.3	0.00e+00	0	40	0	0	53	4785
2026-01-19 23:23:03.95	179.97	12.68	-41.5	-43.4	18.3	0.00e+00	0	40	0	0	53	4800
2026-01-19 23:23:04.80	180.01	12.60	-41.4	-43.4	18.3	0.00e+00	0	40	0	0	53	4772
2026-01-19 23:23:05.94	180.07	12.49	-41.4	-43.4	18.3	0.00e+00	0	40	0	0	53	4764
2026-01-19 23:23:06.79	180.11	12.41	-41.4	-43.4	18.3	0.00e+00	0	40	0	0	53	4764
2026-01-19 23:23:07.93	180.16	12.31	-41.5	-43.4	18.3	0.00e+00	0	40	0	0	53	4806
2026-01-19 23:23:08.79	180.20	12.23	-41.3	-43.3	18.4	0.00e+00	0	40	0	0	53	4733
2026-01-19 23:23:09.99	180.26	12.11	-41.3	-43.3	18.4	0.00e+00	0	40	0	0	53	4706
2026-01-19 23:23:10.84	180.30	12.04	-41.4	-43.4	18.3	0.00e+00	0	40	0	0	53	4789
2026-01-19 23:23:12.03	180.36	11.93	-41.4	-43.4	18.2	0.00e+00	0	40	0	0	53	4780
2026-01-19 23:23:12.88	180.39	11.85	-41.3	-43.3	18.3	0.00e+00	0	40	0	0	53	4740
2026-01-19 23:23:14.02	180.45	11.74	-41.4	-43.3	18.3	0.00e+00	0	40	0	0	53	4758
2026-01-19 23:23:14.87	180.49	11.67	-41.4	-43.3	18.3	0.00e+00	0	40	0	0	53	4738
2026-01-19 23:23:16.14	180.54	11.55	-41.3	-43.3	18.4	0.00e+00	0	40	0	0	53	4724
2026-01-19 23:23:16.92	180.58	11.48	-41.4	-43.4	18.3	0.00e+00	0	40	0	0	53	4791
2026-01-19 23:23:18.12	180.63	11.37	-41.4	-43.4	18.3	0.00e+00	0	40	0	0	53	4760
2026-01-19 23:23:18.98	180.67	11.30	-41.4	-43.3	18.3	0.00e+00	0	40	0	0	53	4749
2026-01-19 23:23:20.11	180.72	11.19	-41.4	-43.3	18.3	0.00e+00	0	40	0	0	53	4750
2026-01-19 23:23:20.96	180.76	11.12	-41.4	-43.3	18.3	0.00e+00	0	40	0	0	53	4753
2026-01-19 23:23:22.10	180.81	11.02	-41.4	-43.4	18.3	0.00e+00	0	40	0	0	53	4764
2026-01-19 23:23:22.96	180.85	10.94	-41.4	-43.4	18.2	0.00e+00	0	40	0	0	53	4769
2026-01-19 23:23:24.09	180.89	10.84	-41.4	-43.3	18.3	0.00e+00	0	40	0	0	53	4730
2026-01-19 23:23:24.95	180.93	10.77	-41.5	-43.4	18.2	0.00e+00	0	40	0	0	53	4779
2026-01-19 23:23:26.08	180.98	10.67	-41.4	-43.3	18.3	0.00e+00	0	40	0	0	53	4744
2026-01-19 23:23:26.94	181.02	10.59	-41.4	-43.3	18.3	0.00e+00	0	40	0	0	53	4759
2026-01-19 23:23:28.08	181.06	10.49	-41.5	-43.4	18.2	0.00e+00	0	40	0	0	53	4784
2026-01-19 23:23:29.17	181.11	10.40	-41.5	-43.4	18.2	0.00e+00	0	40	0	0	53	4796
2026-01-19 23:23:30.02	181.15	10.33	-41.6	-43.5	18.1	0.00e+00	0	40	0	0	53	4867
2026-01-19 23:23:31.16	181.19	10.23	-41.5	-43.5	18.1	0.00e+00	0	40	0	0	53	4819
2026-01-19 23:23:32.01	181.23	10.15	-41.6	-43.5	18.0	0.00e+00	0	40	0	0	53	4859
2026-01-19 23:23:33.14	181.28	10.06	-41.6	-43.6	18.0	0.00e+00	0	40	0	0	53	4907
2026-01-19 23:23:34.33	181.32	9.96	-41.7	-43.7	17.9	0.00e+00	0	40	0	0	53	4942
2026-01-19 23:23:35.18	181.36	9.88	-41.8	-43.8	17.8	0.00e+00	0	40	0	0	54	4730
2026-01-19 23:23:36.32	181.40	9.79	-41.8	-43.8	17.7	0.00e+00	0	40	0	0	54	4731
2026-01-19 23:23:37.17	181.44	9.72	-41.9	-43.9	17.6	0.00e+00	0	40	0	0	54	4810
2026-01-19 23:23:38.31	181.48	9.62	-42.0	-44.1	17.5	0.00e+00	0	40	0	0	54	4876
2026-01-19 23:23:39.16	181.52	9.55	-41.9	-44.0	17.6	0.00e+00	0	40	0	0	54	4842
2026-01-19 23:23:40.30	181.56	9.45	-42.0	-44.1	17.5	0.00e+00	0	40	0	0	54	4909
2026-01-19 23:23:41.15	181.60	9.38	-42.0	-44.1	17.5	0.00e+00	0	40	0	0	54	4898
2026-01-19 23:23:42.31	181.64	9.29	-42.1	-44.2	17.3	0.00e+00	0	40	0	0	54	4981
2026-01-19 23:23:43.16	181.68	9.22	-42.2	-44.3	17.2	0.00e+00	0	40	0	0	54	5033
2026-01-19 23:23:44.29	181.72	9.12	-42.2	-44.4	17.2	0.00e+00	0	40	0	0	55	4793
2026-01-19 23:23:45.15	181.75	9.05	-42.3	-44.5	17.1	0.00e+00	0	40	0	0	55	4827
2026-01-19 23:23:46.28	181.80	8.96	-49.6	-63.1	3.8	7.15e-01	0	40	104	0	70	17283
2026-01-19 23:23:47.14	181.83	8.89	-49.9	-63.3	3.8	1.49e+00	0	40	104	0	70	17858
2026-01-19 23:23:48.27	181.87	8.80	-50.3	-63.5	3.8	1.49e+00	0	40	104	0	71	17280
2026-01-19 23:23:49.12	181.90	8.73	-50.2	-63.7	3.8	1.49e+00	0	40	104	0	71	17540
2026-01-19 23:23:50.27	181.95	8.64	-50.5	-63.7	3.8	1.49e+00	0	40	104	0	71	17643
2026-01-19 23:23:51.12	181.98	8.57	-50.7	-63.8	3.8	1.49e+00	0	40	104	0	71	17717
2026-01-19 23:23:52.32	182.02	8.47	-50.5	-63.8	3.8	1.49e+00	0	40	104	0	72	16744
2026-01-19 23:23:53.17	182.06	8.40	-50.6	-63.8	3.8	1.49e+00	0	40	104	0	72	16725
2026-01-19 23:23:54.39	182.10	8.31	-50.7	-63.8	3.8	1.49e+00	0	40	104	0	72	16709
2026-01-19 23:23:55.24	182.13	8.24	-50.5	-63.8	3.8	1.49e+00	0	40	104	0	72	16724
2026-01-19 23:23:56.43	182.18	8.14	-50.7	-63.8	3.8	1.49e+00	0	40	104	0	72	16775
2026-01-19 23:23:57.29	182.21	8.07	-50.8	-63.8	3.8	1.49e+00	0	40	104	0	72	16748
2026-01-19 23:23:58.49	182.25	7.98	-50.8	-63.8	3.8	1.49e+00	0	40	104	0	72	16785
2026-01-19 23:23:59.34	182.28	7.91	-50.8	-63.8	3.8	1.49e+00	0	40	104	0	72	16838
2026-01-19 23:24:00.53	182.32	7.82	-50.8	-63.8	3.8	1.49e+00	0	40	104	0	72	16847
2026-01-19 23:24:01.38	182.35	7.75	-50.6	-63.8	3.8	1.49e+00	0	40	104	0	72	16863
2026-01-19 23:24:02.58	182.40	7.66	-50.9	-63.9	3.8	1.49e+00	0	40	104	0	72	16905
2026-01-19 23:24:03.43	182.43	7.59	-50.7	-63.8	3.8	1.49e+00	0	40	104	0	72	16814
2026-01-19 23:24:04.63	182.47	7.50	-50.5	-63.8	3.8	1.49e+00	0	40	104	0	72	16775
2026-01-19 23:24:05.48	182.50	7.44	-50.7	-63.8	3.8	1.49e+00	0	40	104	0	72	16824
2026-01-19 23:24:06.68	182.54	7.34	-50.9	-63.8	3.8	1.49e+00	0	40	104	0	72	16823
2026-01-19 23:24:07.53	182.57	7.28	-50.8	-63.8	3.8	1.49e+00	0	40	104	0	72	16842
2026-01-19 23:24:08.67	182.61	7.19	-50.5	-63.8	3.8	1.49e+00	0	40	104	0	72	16842
2026-01-19 23:24:09.52	182.64	7.13	-50.8	-63.8	3.8	1.49e+00	0	40	104	0	72	16871
2026-01-19 23:24:10.66	182.67	7.04	-50.8	-63.8	3.8	1.49e+00	0	40	104	0	72	16880
2026-01-19 23:24:11.51	182.70	6.97	-50.7	-63.8	3.8	1.49e+00	0	40	104	0	72	16868
2026-01-19 23:24:12.64	182.74	6.89	-50.7	-63.8	3.8	1.49e+00	0	40	104	0	72	16829
2026-01-19 23:24:13.49	182.77	6.82	-50.4	-63.8	3.8	1.49e+00	0	40	104	0	72	16829
2026-01-19 23:24:14.63	182.81	6.74	-50.4	-63.8	3.8	1.49e+00	0	40	104	0	72	16780
2026-01-19 23:24:15.48	182.84	6.68	-50.4	-63.8	3.8	1.49e+00	0	40	104	0	72	16743
2026-01-19 23:24:16.62	182.87	6.59	-50.4	-63.8	3.8	1.49e+00	0	40	104	0	72	16725
2026-01-19 23:24:17.47	182.90	6.53	-50.4	-63.8	3.8	1.49e+00	0	40	104	0	72	16726
2026-01-19 23:24:18.60	182.94	6.44	-50.4	-63.8	3.8	1.49e+00	0	40	104	0	72	16786
2026-01-19 23:24:19.46	182.97	6.38	-50.4	-63.8	3.8	1.49e+00	0	40	104	0	72	16777
2026-01-19 23:24:20.59	183.00	6.29	-50.4	-63.8	3.8	1.49e+00	0	40	104	0	72	16740
2026-01-19 23:24:21.44	183.03	6.23	-50.4	-63.8	3.8	1.49e+00	0	40	104	0	72	16764
2026-01-19 23:24:22.58	183.07	6.15	-50.4	-63.8	3.8	1.49e+00	0	40	104	0	72	16815
2026-01-19 23:24:23.43	183.10	6.09	-50.4	-63.8	3.8	1.49e+00	0	40	104	0	72	16787
2026-01-19 23:24:24.56	183.13	6.00	-50.4	-63.8	3.8	1.49e+00	0	40	104	0	72	16704
2026-01-19 23:24:25.42	183.16	5.94	-50.4	-63.8	3.8	1.49e+00	0	40	104	0	72	16715
2026-01-19 23:24:26.55	183.19	5.86	-50.4	-63.8	3.8	1.49e+00	0	40	104	0	72	16729
2026-01-19 23:24:27.40	183.22	5.80	-50.4	-63.7	3.8	1.49e+00	0	40	104	0	72	16691
2026-01-19 23:24:28.54	183.26	5.71	-50.4	-63.8	3.8	1.49e+00	0	40	104	0	72	16700
2026-01-19 23:24:29.39	183.28	5.65	-50.4	-63.7	3.8	1.49e+00	0	40	104	0	72	16692
2026-01-19 23:24:30.53	183.32	5.57	-50.4	-63.8	3.8	1.49e+00	0	40	104	0	72	16739
2026-01-19 23:24:31.38	183.34	5.51	-50.4	-63.8	3.8	1.49e+00	0	40	104	0	72	16725
2026-01-19 23:24:32.51	183.38	5.43	-50.4	-63.7	3.8	1.49e+00	0	40	104	0	72	16685
