passes_logs/2026/01/19/T1/T1__20260119_070637_KHAYYAM_rec.log

#Pass ID: 20260119_070637_KHAYYAM
#Satellite: KHAYYAM
#Configuration: KHAYYAM_480M
#almurnet v.1.7.20251203
#Start time: 2026-01-19 07:06:38

#Version: 2.0.20230620
#Station: T1
#Location: 37.570604 lon 55.790049 lat
#TLE: 1 53370U 22096A   26018.96039649  .00006023  00000+0  24699-3 0  9993
#TLE: 2 53370  97.3564 285.8991 0001704 106.9069 253.2356 15.24618437191849

#Time	Az	El	Level	Level2	SNR	BER	BlckErr	Temp	State	Recorded	gain1	gain2
2026-01-19 07:06:38.32	134.68	5.09	-52.5	-57.0	3.6	0.00e+00	0	45	0	0	76	24390
2026-01-19 07:06:39.30	134.61	5.17	-52.4	-56.9	3.7	0.00e+00	0	46	104	0	75	25644
2026-01-19 07:06:40.30	134.53	5.24	-52.4	-56.9	3.7	0.00e+00	0	46	104	0	75	25591
2026-01-19 07:06:41.29	134.46	5.32	-52.4	-57.0	3.7	0.00e+00	0	46	104	0	75	25686
2026-01-19 07:06:42.31	134.38	5.40	-52.4	-57.0	3.7	0.00e+00	0	46	104	0	75	25680
2026-01-19 07:06:43.34	134.31	5.48	-52.4	-56.9	3.7	0.00e+00	0	46	104	0	75	25632
2026-01-19 07:06:44.36	134.23	5.56	-52.4	-57.0	3.7	0.00e+00	0	46	104	0	75	25711
2026-01-19 07:06:45.39	134.15	5.64	-52.4	-56.9	3.7	0.00e+00	0	46	104	0	75	25641
2026-01-19 07:06:46.40	134.07	5.72	-52.4	-57.0	3.7	0.00e+00	0	46	104	0	75	25701
2026-01-19 07:06:47.45	133.99	5.81	-52.4	-57.0	3.7	0.00e+00	0	46	104	0	75	25679
2026-01-19 07:06:48.38	133.92	5.88	-52.4	-56.9	3.7	0.00e+00	0	46	104	0	75	25674
2026-01-19 07:06:49.50	133.83	5.97	-52.4	-56.9	3.7	0.00e+00	0	47	104	0	75	25671
2026-01-19 07:06:50.39	133.76	6.04	-52.4	-56.9	3.7	0.00e+00	0	47	104	0	75	25656
2026-01-19 07:06:51.69	133.65	6.15	-52.4	-57.0	3.7	0.00e+00	0	47	104	0	75	25692
2026-01-19 07:06:52.40	133.60	6.20	-52.5	-57.0	3.7	0.00e+00	0	47	104	0	75	25690
2026-01-19 07:06:53.68	133.49	6.31	-52.5	-56.9	3.7	0.00e+00	0	47	104	0	75	25624
2026-01-19 07:06:54.39	133.43	6.37	-52.4	-56.9	3.7	0.00e+00	0	47	104	0	75	25654
2026-01-19 07:06:55.67	133.33	6.47	-52.4	-57.0	3.7	0.00e+00	0	47	104	0	75	25695
2026-01-19 07:06:56.38	133.27	6.53	-52.4	-56.9	3.7	0.00e+00	0	47	104	0	75	25587
2026-01-19 07:06:57.66	133.16	6.64	-52.4	-56.9	3.7	0.00e+00	0	47	104	0	75	25653
2026-01-19 07:06:58.37	133.10	6.69	-52.4	-56.9	3.7	0.00e+00	0	47	104	0	75	25659
2026-01-19 07:06:59.65	132.99	6.80	-52.4	-56.9	3.7	0.00e+00	0	47	104	0	75	25639
2026-01-19 07:07:00.36	132.93	6.86	-52.4	-57.0	3.7	0.00e+00	0	47	104	0	75	25703
2026-01-19 07:07:01.63	132.82	6.97	-52.4	-56.9	3.7	0.00e+00	0	48	104	0	75	25661
2026-01-19 07:07:02.37	132.76	7.03	-52.4	-56.9	3.7	0.00e+00	0	48	104	0	75	25617
2026-01-19 07:07:03.65	132.65	7.14	-52.4	-56.9	3.7	0.00e+00	0	48	104	0	75	25635
2026-01-19 07:07:04.36	132.58	7.20	-52.4	-56.9	3.7	0.00e+00	0	48	104	0	75	25575
2026-01-19 07:07:05.73	132.46	7.31	-52.4	-56.9	3.7	0.00e+00	0	48	104	0	75	25629
2026-01-19 07:07:06.44	132.40	7.37	-52.4	-56.9	3.7	0.00e+00	0	48	104	0	75	25612
2026-01-19 07:07:07.77	132.28	7.49	-52.4	-56.9	3.7	0.00e+00	0	48	104	0	75	25599
2026-01-19 07:07:08.48	132.21	7.55	-52.4	-56.9	3.7	0.00e+00	0	48	104	0	75	25597
2026-01-19 07:07:09.83	132.09	7.67	-52.4	-56.9	3.7	0.00e+00	0	48	104	0	75	25618
2026-01-19 07:07:10.54	132.02	7.73	-52.4	-56.9	3.7	0.00e+00	0	48	104	0	75	25626
2026-01-19 07:07:11.82	131.90	7.84	-52.4	-56.9	3.7	0.00e+00	0	48	104	0	75	25579
2026-01-19 07:07:12.53	131.84	7.90	-52.4	-56.9	3.7	0.00e+00	0	48	104	0	75	25587
2026-01-19 07:07:13.81	131.71	8.01	-52.4	-56.9	3.7	0.00e+00	0	48	104	0	75	25488
2026-01-19 07:07:14.53	131.65	8.08	-52.4	-56.9	3.7	0.00e+00	0	48	104	0	75	25484
2026-01-19 07:07:15.81	131.52	8.19	-52.4	-56.8	3.7	0.00e+00	0	48	104	0	75	25368
2026-01-19 07:07:16.52	131.45	8.25	-52.4	-56.8	3.7	0.00e+00	0	48	104	0	75	25315
2026-01-19 07:07:17.80	131.33	8.37	-52.4	-56.8	3.7	0.00e+00	0	48	104	0	75	25337
2026-01-19 07:07:18.51	131.26	8.43	-52.4	-56.8	3.7	0.00e+00	0	48	104	0	75	25302
2026-01-19 07:07:19.78	131.13	8.54	-52.4	-56.9	3.7	0.00e+00	0	49	104	0	75	25401
2026-01-19 07:07:20.49	131.06	8.61	-52.4	-56.9	3.7	0.00e+00	0	49	104	0	75	25488
2026-01-19 07:07:21.77	130.93	8.72	-52.4	-56.9	3.7	0.00e+00	0	49	104	0	75	25396
2026-01-19 07:07:22.48	130.86	8.79	-52.4	-56.9	3.7	0.00e+00	0	49	104	0	75	25490
2026-01-19 07:07:23.76	130.73	8.91	-52.4	-56.9	3.7	0.00e+00	0	48	104	0	75	25572
2026-01-19 07:07:24.47	130.66	8.97	-52.4	-56.9	3.7	0.00e+00	0	49	104	0	75	25526
2026-01-19 07:07:25.74	130.52	9.09	-52.6	-57.1	3.7	0.00e+00	0	49	104	0	75	26018
2026-01-19 07:07:26.71	130.42	9.18	-52.3	-56.9	3.7	0.00e+00	0	49	104	0	75	25393
2026-01-19 07:07:27.70	130.32	9.27	-52.5	-57.0	3.7	0.00e+00	0	49	104	0	75	25831
2026-01-19 07:07:28.70	130.21	9.36	-52.4	-57.0	3.7	0.00e+00	0	49	104	0	75	25738
2026-01-19 07:07:29.69	130.10	9.46	-52.4	-56.9	3.7	0.00e+00	0	49	104	0	75	25504
2026-01-19 07:07:30.68	130.00	9.55	-52.6	-57.0	3.7	0.00e+00	0	49	104	0	75	25919
2026-01-19 07:07:31.68	129.89	9.64	-52.4	-56.9	3.7	0.00e+00	0	49	104	0	75	25400
2026-01-19 07:07:32.67	129.78	9.74	-52.6	-57.0	3.7	0.00e+00	0	49	104	0	75	25957
2026-01-19 07:07:33.67	129.67	9.83	-52.6	-57.1	3.7	0.00e+00	0	49	104	0	75	25999
2026-01-19 07:07:34.71	129.55	9.93	-52.8	-57.3	3.7	0.00e+00	0	49	104	0	76	25205
2026-01-19 07:07:35.69	129.44	10.03	-52.5	-57.0	3.7	0.00e+00	0	49	104	0	76	24417
2026-01-19 07:07:36.76	129.32	10.13	-52.8	-57.3	3.7	0.00e+00	0	49	104	0	76	25112
2026-01-19 07:07:37.61	129.22	10.21	-52.9	-57.3	3.7	0.00e+00	0	49	104	0	76	25319
2026-01-19 07:07:38.97	129.06	10.35	-52.8	-57.2	3.7	0.00e+00	0	49	104	0	76	24971
2026-01-19 07:07:39.68	128.98	10.42	-52.7	-57.2	3.7	0.00e+00	0	49	104	0	76	25049
2026-01-19 07:07:40.96	128.83	10.54	-52.9	-57.4	3.7	0.00e+00	0	49	104	0	76	25493
2026-01-19 07:07:41.67	128.74	10.61	-52.8	-57.2	3.7	0.00e+00	0	49	104	0	76	25072
2026-01-19 07:07:42.95	128.59	10.74	-52.6	-57.0	3.7	0.00e+00	0	49	104	0	76	24359
2026-01-19 07:07:43.66	128.50	10.81	-52.8	-57.2	3.7	0.00e+00	0	49	104	0	76	24957
2026-01-19 07:07:44.94	128.35	10.94	-52.7	-57.2	3.7	0.00e+00	0	49	104	0	76	25026
2026-01-19 07:07:45.65	128.26	11.01	-52.6	-57.1	3.7	0.00e+00	0	49	104	0	76	24659
2026-01-19 07:07:46.93	128.10	11.14	-52.2	-57.0	3.7	0.00e+00	0	49	104	0	76	24285
2026-01-19 07:07:47.66	128.01	11.21	-52.5	-57.2	3.7	0.00e+00	0	49	104	0	76	24810
2026-01-19 07:07:48.94	127.85	11.34	-52.5	-57.2	3.7	0.00e+00	0	49	104	0	76	24922
2026-01-19 07:07:49.65	127.76	11.41	-52.2	-57.0	3.7	0.00e+00	0	50	104	0	76	24447
2026-01-19 07:07:50.92	127.59	11.54	-52.3	-57.0	3.7	0.00e+00	0	50	104	0	76	24505
2026-01-19 07:07:51.64	127.50	11.62	-52.3	-57.1	3.7	0.00e+00	0	49	104	0	76	24741
2026-01-19 07:07:52.91	127.34	11.75	-52.4	-57.2	3.7	0.00e+00	0	49	104	0	76	24944
2026-01-19 07:07:53.64	127.24	11.83	-52.3	-57.1	3.7	0.00e+00	0	49	104	0	76	24781
2026-01-19 07:07:54.92	127.07	11.96	-52.7	-57.2	3.7	0.00e+00	0	50	104	0	76	25087
2026-01-19 07:07:55.63	126.97	12.03	-52.5	-57.2	3.7	0.00e+00	0	50	104	0	76	25066
2026-01-19 07:07:57.03	126.78	12.18	-52.8	-57.3	3.7	0.00e+00	0	50	104	0	76	25233
2026-01-19 07:07:57.74	126.69	12.26	-52.9	-57.5	3.7	0.00e+00	0	50	104	0	76	25720
2026-01-19 07:07:59.07	126.50	12.40	-53.1	-57.5	3.7	0.00e+00	0	50	104	0	76	25875
2026-01-19 07:08:00.07	126.36	12.51	-52.8	-57.4	3.7	0.00e+00	0	50	104	0	76	25468
2026-01-19 07:08:01.07	126.22	12.61	-53.1	-57.4	3.7	0.00e+00	0	50	104	0	76	25647
2026-01-19 07:08:02.43	126.03	12.76	-53.1	-57.5	3.7	0.00e+00	0	50	104	0	76	25922
2026-01-19 07:08:03.17	125.92	12.84	-53.2	-57.6	3.7	0.00e+00	0	50	104	0	77	24595
2026-01-19 07:08:04.45	125.74	12.98	-53.2	-57.5	3.7	0.00e+00	0	50	104	0	77	24419
2026-01-19 07:08:05.22	125.62	13.07	-53.3	-57.6	3.7	0.00e+00	0	50	104	0	77	24719
2026-01-19 07:08:06.50	125.44	13.21	-53.2	-57.6	3.7	0.00e+00	0	50	104	0	77	24717
2026-01-19 07:08:07.21	125.33	13.29	-53.3	-57.7	3.7	0.00e+00	0	50	104	0	77	24957
2026-01-19 07:08:08.49	125.14	13.43	-53.3	-57.7	3.7	0.00e+00	0	50	104	0	77	24975
2026-01-19 07:08:09.21	125.03	13.51	-53.3	-57.8	3.7	0.00e+00	0	50	104	0	77	25185
2026-01-19 07:08:10.49	124.83	13.65	-53.2	-57.6	3.7	0.00e+00	0	50	104	0	77	24529
2026-01-19 07:08:11.20	124.72	13.73	-53.3	-57.6	3.7	0.00e+00	0	50	104	0	77	24752
2026-01-19 07:08:12.48	124.52	13.88	-53.3	-57.7	3.7	0.00e+00	0	50	104	0	77	24921
2026-01-19 07:08:13.19	124.41	13.96	-53.2	-57.6	3.7	0.00e+00	0	50	104	0	77	24654
2026-01-19 07:08:14.47	124.21	14.10	-53.3	-57.6	3.7	0.00e+00	0	50	104	0	77	24722
2026-01-19 07:08:15.18	124.09	14.19	-53.2	-57.6	3.7	0.00e+00	0	50	104	0	77	24634
2026-01-19 07:08:16.62	123.86	14.35	-53.2	-57.6	3.7	0.00e+00	0	50	104	0	77	24650
2026-01-19 07:08:17.33	123.74	14.43	-53.3	-57.6	3.7	0.00e+00	0	50	104	0	77	24766
2026-01-19 07:08:18.61	123.53	14.58	-53.3	-57.6	3.7	0.00e+00	0	50	104	0	77	24791
2026-01-19 07:08:19.68	123.35	14.71	-53.3	-57.7	3.7	0.00e+00	0	50	104	0	77	24879
2026-01-19 07:08:20.82	123.16	14.84	-53.3	-57.7	3.7	0.00e+00	0	50	104	0	77	24997
2026-01-19 07:08:21.85	122.98	14.96	-53.3	-57.7	3.7	0.00e+00	0	50	104	0	77	24964
2026-01-19 07:08:22.84	122.81	15.08	-53.3	-57.7	3.7	0.00e+00	0	50	104	0	77	24940
2026-01-19 07:08:23.84	122.64	15.20	-53.3	-57.8	3.7	0.00e+00	0	50	104	0	77	25149
2026-01-19 07:08:24.83	122.47	15.32	-53.3	-57.7	3.7	0.00e+00	0	50	104	0	77	24892
2026-01-19 07:08:25.83	122.29	15.44	-53.2	-57.6	3.7	0.00e+00	0	50	104	0	77	24659
2026-01-19 07:08:26.82	122.11	15.56	-53.1	-57.6	3.7	0.00e+00	0	50	104	0	77	24529
2026-01-19 07:08:27.82	121.93	15.68	-53.1	-57.6	3.7	0.00e+00	0	50	104	0	77	24560
2026-01-19 07:08:28.81	121.75	15.80	-53.1	-57.6	3.7	0.00e+00	0	50	104	0	77	24602
2026-01-19 07:08:29.81	121.56	15.92	-53.1	-57.6	3.7	0.00e+00	0	50	104	0	77	24582
2026-01-19 07:08:30.80	121.38	16.04	-53.1	-57.6	3.7	0.00e+00	0	50	104	0	77	24715
2026-01-19 07:08:31.79	121.19	16.17	-53.1	-57.6	3.7	0.00e+00	0	50	104	0	77	24608
2026-01-19 07:08:32.79	121.00	16.29	-53.1	-57.6	3.7	0.00e+00	0	50	104	0	77	24693
2026-01-19 07:08:33.79	120.81	16.42	-53.1	-57.6	3.7	0.00e+00	0	50	104	0	77	24682
2026-01-19 07:08:34.83	120.61	16.55	-53.1	-57.6	3.7	0.00e+00	0	50	104	0	77	24686
2026-01-19 07:08:35.81	120.42	16.67	-53.1	-57.6	3.7	0.00e+00	0	50	104	0	77	24704
2026-01-19 07:08:36.80	120.22	16.79	-53.2	-57.7	3.7	0.00e+00	0	50	104	0	77	24889
2026-01-19 07:08:37.80	120.02	16.92	-53.1	-57.6	3.7	0.00e+00	0	50	104	0	77	24738
2026-01-19 07:08:38.79	119.82	17.05	-53.1	-57.7	3.7	0.00e+00	0	50	104	0	77	24966
2026-01-19 07:08:39.79	119.62	17.17	-53.1	-57.6	3.7	0.00e+00	0	50	104	0	77	24798
2026-01-19 07:08:40.78	119.42	17.30	-53.3	-57.7	3.7	0.00e+00	0	50	104	0	77	25060
2026-01-19 07:08:41.78	119.21	17.43	-53.2	-57.7	3.7	0.00e+00	0	50	104	0	77	25044
2026-01-19 07:08:42.77	119.00	17.56	-53.3	-57.8	3.7	0.00e+00	0	50	104	0	77	25218
2026-01-19 07:08:43.77	118.79	17.69	-53.3	-57.8	3.7	0.00e+00	0	50	104	0	77	25192
2026-01-19 07:08:44.76	118.58	17.82	-53.4	-57.8	3.7	0.00e+00	0	51	104	0	77	25356
2026-01-19 07:08:45.76	118.36	17.95	-53.3	-57.8	3.7	0.00e+00	0	50	104	0	77	25163
2026-01-19 07:08:46.76	118.14	18.08	-53.4	-57.8	3.7	0.00e+00	0	50	104	0	77	25157
2026-01-19 07:08:47.75	117.92	18.21	-53.4	-57.8	3.7	0.00e+00	0	51	104	0	77	25156
2026-01-19 07:08:48.75	117.70	18.34	-53.3	-57.8	3.7	0.00e+00	0	50	104	0	77	25100
2026-01-19 07:08:49.74	117.48	18.48	-53.3	-57.8	3.7	0.00e+00	0	50	104	0	77	25139
2026-01-19 07:08:50.78	117.24	18.62	-53.4	-57.8	3.7	0.00e+00	0	50	104	0	77	25317
2026-01-19 07:08:51.74	117.02	18.74	-53.3	-57.8	3.7	0.00e+00	0	50	104	0	77	25253
2026-01-19 07:08:52.83	116.77	18.89	-53.3	-57.8	3.7	0.00e+00	0	50	104	0	77	25262
2026-01-19 07:08:53.72	116.56	19.01	-53.4	-57.9	3.7	0.00e+00	0	51	104	0	77	25409
2026-01-19 07:08:55.03	116.25	19.19	-53.3	-57.8	3.7	0.00e+00	0	50	104	0	77	25265
2026-01-19 07:08:55.74	116.08	19.29	-53.3	-57.8	3.7	0.00e+00	0	51	104	0	77	25352
2026-01-19 07:08:57.23	115.72	19.49	-53.3	-57.8	3.7	0.00e+00	0	50	104	0	77	25297
2026-01-19 07:08:57.94	115.54	19.59	-53.3	-57.8	3.7	0.00e+00	0	51	104	0	77	25332
2026-01-19 07:08:59.22	115.22	19.76	-53.3	-57.8	3.7	0.00e+00	0	50	104	0	77	25266
2026-01-19 07:08:59.93	115.05	19.86	-53.4	-57.9	3.7	0.00e+00	0	51	104	0	77	25404
2026-01-19 07:09:01.21	114.72	20.04	-53.3	-57.8	3.7	0.00e+00	0	50	104	0	77	25193
2026-01-19 07:09:01.93	114.54	20.14	-53.5	-57.9	3.7	0.00e+00	0	50	104	0	77	25604
2026-01-19 07:09:03.21	114.21	20.32	-53.5	-57.9	3.7	0.00e+00	0	50	104	0	77	25525
2026-01-19 07:09:03.92	114.02	20.42	-53.4	-57.8	3.7	0.00e+00	0	50	104	0	77	25367
2026-01-19 07:09:05.20	113.68	20.60	-53.5	-57.9	3.7	0.00e+00	0	51	104	0	77	25511
2026-01-19 07:09:05.92	113.49	20.70	-53.2	-57.7	3.7	0.00e+00	0	51	104	0	77	25064
2026-01-19 07:09:07.19	113.15	20.88	-52.9	-57.5	3.7	0.00e+00	0	50	104	0	77	24388
2026-01-19 07:09:08.00	112.93	20.99	-53.1	-57.6	3.7	0.00e+00	0	51	104	0	77	24778
2026-01-19 07:09:09.13	112.62	21.15	-53.1	-57.7	3.7	0.00e+00	0	51	104	0	77	24900
2026-01-19 07:09:10.21	112.32	21.31	-53.1	-57.6	3.7	0.00e+00	0	51	104	0	77	24727
2026-01-19 07:09:11.23	112.03	21.45	-53.2	-57.8	3.7	0.00e+00	0	51	104	0	77	25287
2026-01-19 07:09:12.40	111.70	21.62	-53.2	-57.7	3.7	0.00e+00	0	50	104	0	77	25081
2026-01-19 07:09:13.26	111.45	21.74	-53.2	-57.9	3.7	0.00e+00	0	51	104	0	77	25428
2026-01-19 07:09:14.39	111.12	21.91	-53.2	-57.8	3.7	0.00e+00	0	51	104	0	77	25294
2026-01-19 07:09:15.24	110.87	22.03	-53.1	-57.7	3.7	0.00e+00	0	51	104	0	77	25046
2026-01-19 07:09:16.38	110.53	22.19	-53.2	-57.8	3.7	0.00e+00	0	51	104	0	77	25300
2026-01-19 07:09:17.23	110.27	22.32	-53.0	-57.6	3.7	0.00e+00	0	51	104	0	77	24717
2026-01-19 07:09:18.37	109.93	22.48	-53.2	-57.7	3.7	0.00e+00	0	51	104	0	77	25041
2026-01-19 07:09:19.22	109.67	22.61	-53.1	-57.7	3.7	0.00e+00	0	51	104	0	77	24987
2026-01-19 07:09:20.36	109.31	22.77	-53.1	-57.7	3.7	0.00e+00	0	51	104	0	77	24915
2026-01-19 07:09:21.21	109.05	22.90	-53.2	-57.8	3.7	0.00e+00	0	51	104	0	77	25179
2026-01-19 07:09:22.35	108.69	23.06	-53.2	-57.8	3.7	0.00e+00	0	51	104	0	77	25187
2026-01-19 07:09:23.20	108.41	23.19	-53.2	-57.7	3.7	0.00e+00	0	50	104	0	77	25092
2026-01-19 07:09:24.38	108.03	23.36	-53.3	-57.8	3.7	0.00e+00	0	51	104	0	77	25359
2026-01-19 07:09:25.23	107.75	23.48	-53.2	-57.8	3.7	0.00e+00	0	51	104	0	77	25136
2026-01-19 07:09:26.37	107.38	23.65	-53.1	-57.7	3.7	0.00e+00	0	51	104	0	77	25017
2026-01-19 07:09:27.22	107.09	23.77	-53.2	-57.8	3.7	0.00e+00	0	51	104	0	77	25209
2026-01-19 07:09:28.36	106.71	23.94	-53.2	-57.7	3.7	0.00e+00	0	51	104	0	77	25044
2026-01-19 07:09:29.21	106.42	24.07	-53.3	-57.8	3.7	0.00e+00	0	51	104	0	77	25301
2026-01-19 07:09:30.35	106.03	24.23	-53.2	-57.8	3.7	0.00e+00	0	51	104	0	77	25199
2026-01-19 07:09:31.20	105.73	24.36	-53.4	-57.9	3.7	0.00e+00	0	51	104	0	77	25621
2026-01-19 07:09:32.34	105.33	24.52	-53.2	-57.9	3.7	0.00e+00	0	50	104	0	77	25400
2026-01-19 07:09:33.19	105.03	24.65	-53.5	-58.0	3.7	0.00e+00	0	51	104	0	77	25798
2026-01-19 07:09:34.33	104.62	24.82	-53.5	-58.0	3.7	0.00e+00	0	51	104	0	77	25697
2026-01-19 07:09:35.40	104.23	24.97	-53.3	-57.8	3.7	0.00e+00	0	51	104	0	77	25285
2026-01-19 07:09:36.43	103.85	25.12	-53.3	-57.8	3.7	0.00e+00	0	50	104	0	77	25367
2026-01-19 07:09:37.42	103.48	25.27	-53.4	-57.9	3.7	0.00e+00	0	51	104	0	77	25464
2026-01-19 07:09:38.42	103.11	25.41	-53.5	-57.9	3.7	0.00e+00	0	51	104	0	77	25494
2026-01-19 07:09:39.41	102.73	25.56	-53.4	-57.9	3.7	0.00e+00	0	51	104	0	77	25538
2026-01-19 07:09:40.40	102.35	25.70	-53.4	-57.9	3.7	0.00e+00	0	51	104	0	77	25498
2026-01-19 07:09:41.40	101.97	25.85	-53.6	-58.0	3.7	0.00e+00	0	51	104	0	77	25715
2026-01-19 07:09:42.39	101.58	25.99	-53.5	-57.9	3.7	0.00e+00	0	51	104	0	77	25482
2026-01-19 07:09:43.39	101.18	26.13	-53.4	-57.8	3.7	0.00e+00	0	51	104	0	77	25111
2026-01-19 07:09:44.38	100.79	26.27	-53.5	-57.8	3.7	0.00e+00	0	51	104	0	77	25274
2026-01-19 07:09:45.38	100.39	26.42	-53.4	-57.6	3.7	0.00e+00	0	51	104	0	77	24770
2026-01-19 07:09:46.37	99.99	26.56	-53.4	-57.7	3.7	0.00e+00	0	51	104	0	77	24965
2026-01-19 07:09:47.37	99.57	26.70	-53.3	-57.6	3.7	0.00e+00	0	51	104	0	77	24799
2026-01-19 07:09:48.41	99.14	26.85	-53.3	-57.6	3.7	0.00e+00	0	51	104	0	77	24626
2026-01-19 07:09:49.40	98.73	26.99	-53.0	-57.5	3.7	0.00e+00	0	50	104	0	77	24252
2026-01-19 07:09:50.44	98.29	27.13	-53.2	-57.7	3.7	0.00e+00	0	51	104	0	77	25075
2026-01-19 07:09:51.45	97.86	27.27	-53.2	-57.7	3.7	0.00e+00	0	51	104	0	77	25019
2026-01-19 07:09:52.49	97.41	27.42	-53.2	-57.7	3.7	0.00e+00	0	51	104	0	77	25067
2026-01-19 07:09:53.45	96.99	27.55	-53.3	-57.7	3.7	0.00e+00	0	51	104	0	77	25068
2026-01-19 07:09:54.45	96.55	27.69	-53.4	-57.7	3.7	0.00e+00	0	51	104	0	77	24954
2026-01-19 07:09:55.44	96.11	27.82	-53.3	-57.7	3.7	0.00e+00	0	51	104	0	77	24857
2026-01-19 07:09:56.44	95.67	27.96	-53.3	-57.7	3.7	0.00e+00	0	51	104	0	77	24824
2026-01-19 07:09:57.43	95.22	28.09	-53.2	-57.6	3.7	0.00e+00	0	51	104	0	77	24736
2026-01-19 07:09:58.42	94.77	28.22	-53.3	-57.7	3.7	0.00e+00	0	51	104	0	77	25009
2026-01-19 07:09:59.42	94.31	28.35	-53.5	-57.9	3.7	0.00e+00	0	51	104	0	77	25465
2026-01-19 07:10:00.42	93.84	28.48	-53.4	-57.8	3.7	0.00e+00	0	51	104	0	77	25324
2026-01-19 07:10:01.41	93.38	28.61	-53.5	-57.9	3.7	0.00e+00	0	51	104	0	77	25664
2026-01-19 07:10:02.41	92.91	28.74	-53.2	-57.7	3.7	0.00e+00	0	51	104	0	77	25078
2026-01-19 07:10:03.40	92.43	28.86	-52.9	-57.6	3.7	0.00e+00	0	51	104	0	77	24558
2026-01-19 07:10:04.40	91.95	28.99	-52.9	-57.6	3.7	0.00e+00	0	51	104	0	77	24539
2026-01-19 07:10:05.39	91.47	29.11	-53.2	-57.8	3.7	0.00e+00	0	51	104	0	77	25118
2026-01-19 07:10:06.39	90.99	29.24	-53.4	-57.9	3.7	0.00e+00	0	51	104	0	77	25587
2026-01-19 07:10:07.38	90.50	29.36	-53.4	-57.9	3.7	0.00e+00	0	51	104	0	77	25547
2026-01-19 07:10:08.38	90.00	29.47	-53.4	-57.9	3.7	0.00e+00	0	50	104	0	77	25612
2026-01-19 07:10:09.37	89.50	29.59	-53.0	-57.7	3.7	0.00e+00	0	51	104	0	77	25043
2026-01-19 07:10:10.37	89.00	29.71	-53.0	-57.7	3.7	0.00e+00	0	51	104	0	77	24887
2026-01-19 07:10:11.36	88.50	29.82	-53.2	-57.8	3.7	0.00e+00	0	51	104	0	77	25345
2026-01-19 07:10:12.56	87.88	29.95	-53.2	-57.8	3.7	0.00e+00	0	51	104	0	77	25244
2026-01-19 07:10:13.42	87.44	30.05	-53.1	-57.8	3.7	0.00e+00	0	51	104	0	77	25281
2026-01-19 07:10:14.56	86.84	30.17	-52.8	-57.6	3.7	0.00e+00	0	51	104	0	77	24572
2026-01-19 07:10:15.41	86.40	30.26	-52.7	-57.5	3.7	0.00e+00	0	51	104	0	77	24515
2026-01-19 07:10:16.54	85.80	30.38	-52.7	-57.5	3.7	0.00e+00	0	51	104	0	77	24405
2026-01-19 07:10:17.40	85.34	30.47	-52.7	-57.5	3.7	0.00e+00	0	51	104	0	77	24510
2026-01-19 07:10:18.53	84.74	30.58	-52.9	-57.7	3.7	0.00e+00	0	51	104	0	77	24986
2026-01-19 07:10:19.39	84.28	30.67	-53.0	-57.8	3.7	0.00e+00	0	51	104	0	77	25181
2026-01-19 07:10:20.53	83.66	30.78	-52.9	-57.8	3.7	0.00e+00	0	51	104	0	77	25117
2026-01-19 07:10:21.38	83.19	30.86	-52.8	-57.6	3.7	0.00e+00	0	51	104	0	77	24792
2026-01-19 07:10:22.52	82.57	30.96	-52.6	-57.5	3.7	0.00e+00	0	51	104	0	77	24491
2026-01-19 07:10:23.37	82.10	31.03	-52.8	-57.7	3.7	0.00e+00	0	51	104	0	77	24881
2026-01-19 07:10:24.55	81.44	31.14	-52.9	-57.7	3.7	0.00e+00	0	51	104	0	77	25026
2026-01-19 07:10:25.40	80.97	31.21	-52.9	-57.8	3.7	0.00e+00	0	51	104	0	77	25204
2026-01-19 07:10:26.60	80.29	31.30	-53.2	-57.9	3.7	0.00e+00	0	51	104	0	77	25488
2026-01-19 07:10:27.45	79.81	31.37	-53.3	-57.9	3.7	0.00e+00	0	51	104	0	77	25490
2026-01-19 07:10:28.59	79.17	31.46	-53.4	-57.9	3.7	0.00e+00	0	51	104	0	77	25610
2026-01-19 07:10:29.45	78.67	31.52	-53.4	-57.7	3.7	0.00e+00	0	51	104	0	77	24994
2026-01-19 07:10:30.58	78.03	31.60	-53.3	-57.8	3.7	0.00e+00	0	51	104	0	77	25128
2026-01-19 07:10:31.44	77.53	31.65	-53.4	-57.8	3.7	0.00e+00	0	51	104	0	77	25314
2026-01-19 07:10:32.57	76.88	31.73	-53.5	-57.9	3.7	0.00e+00	0	51	104	0	77	25608
2026-01-19 07:10:33.43	76.38	31.78	-53.5	-57.9	3.7	0.00e+00	0	51	104	0	77	25640
2026-01-19 07:10:34.56	75.72	31.84	-53.3	-57.9	3.7	0.00e+00	0	51	104	0	77	25413
2026-01-19 07:10:35.41	75.22	31.89	-53.2	-57.8	3.7	0.00e+00	0	51	104	0	77	25280
2026-01-19 07:10:36.55	74.55	31.95	-53.2	-57.8	3.7	0.00e+00	0	51	104	0	77	25218
2026-01-19 07:10:37.40	74.05	31.99	-53.3	-57.7	3.7	0.00e+00	0	51	104	0	77	25084
2026-01-19 07:10:38.54	73.38	32.04	-53.4	-57.8	3.7	0.00e+00	0	51	104	0	77	25097
2026-01-19 07:10:39.39	72.87	32.08	-53.3	-57.7	3.7	0.00e+00	0	51	104	0	77	25078
2026-01-19 07:10:40.53	72.20	32.13	-53.4	-57.8	3.7	0.00e+00	0	51	104	0	77	25266
2026-01-19 07:10:41.38	71.69	32.16	-53.6	-58.0	3.7	0.00e+00	0	51	104	0	77	25803
2026-01-19 07:10:42.52	71.01	32.20	-53.5	-58.0	3.7	0.00e+00	0	51	104	0	77	25914
2026-01-19 07:10:43.37	70.50	32.22	-53.5	-58.0	3.7	0.00e+00	0	51	104	0	77	25911
2026-01-19 07:10:44.51	69.82	32.25	-53.5	-58.0	3.7	0.00e+00	0	50	104	0	77	25920
2026-01-19 07:10:45.36	69.31	32.27	-53.5	-58.0	3.7	0.00e+00	0	51	104	0	77	25764
2026-01-19 07:10:46.50	68.62	32.29	-53.5	-58.0	3.7	0.00e+00	0	51	104	0	77	25813
2026-01-19 07:10:47.35	68.11	32.31	-53.6	-58.0	3.7	0.00e+00	0	51	104	0	77	25746
2026-01-19 07:10:48.71	67.29	32.33	-53.6	-58.0	3.7	0.00e+00	0	51	104	0	77	25874
2026-01-19 07:10:49.42	66.86	32.33	-53.6	-58.1	3.7	0.00e+00	0	51	104	0	77	26116
2026-01-19 07:10:50.70	66.09	32.34	-53.6	-58.0	3.7	0.00e+00	0	51	104	0	77	25781
2026-01-19 07:10:51.42	65.66	32.34	-53.5	-58.0	3.7	0.00e+00	0	51	104	0	77	25797
2026-01-19 07:10:52.70	64.88	32.34	-53.6	-58.0	3.7	0.00e+00	0	51	104	0	77	25802
2026-01-19 07:10:53.48	64.41	32.34	-53.5	-57.9	3.7	0.00e+00	0	51	104	0	77	25605
2026-01-19 07:10:54.76	63.64	32.33	-53.5	-57.9	3.7	0.00e+00	0	51	104	0	77	25597
2026-01-19 07:10:55.47	63.21	32.32	-53.4	-57.9	3.7	0.00e+00	0	51	104	0	77	25540
2026-01-19 07:10:56.75	62.44	32.31	-53.6	-58.1	3.7	0.00e+00	0	51	104	0	77	26092
2026-01-19 07:10:57.58	61.94	32.29	-53.6	-58.1	3.7	0.00e+00	0	51	104	0	77	26130
2026-01-19 07:10:58.72	61.26	32.27	-53.6	-58.1	3.7	0.00e+00	0	51	104	0	77	26101
2026-01-19 07:10:59.57	60.75	32.25	-53.6	-58.1	3.7	0.00e+00	0	51	104	0	77	26078
2026-01-19 07:11:00.71	60.06	32.22	-53.5	-58.0	3.7	0.00e+00	0	51	104	0	77	25886
2026-01-19 07:11:01.81	59.41	32.18	-53.3	-57.9	3.7	0.00e+00	0	51	104	0	77	25598
2026-01-19 07:11:02.84	58.79	32.15	-53.4	-57.9	3.7	0.00e+00	0	51	104	0	77	25543
2026-01-19 07:11:03.83	58.20	32.11	-53.3	-57.9	3.7	0.00e+00	0	51	104	0	77	25468
2026-01-19 07:11:04.83	57.61	32.07	-53.5	-57.9	3.7	0.00e+00	0	51	104	0	77	25465
2026-01-19 07:11:05.82	57.02	32.03	-53.5	-58.1	3.7	0.00e+00	0	51	104	0	77	25980
2026-01-19 07:11:06.82	56.44	31.98	-53.4	-58.0	3.7	0.00e+00	0	51	104	0	77	25764
2026-01-19 07:11:07.81	55.85	31.93	-53.4	-58.0	3.7	0.00e+00	0	51	104	0	77	25800
2026-01-19 07:11:08.81	55.27	31.88	-53.4	-57.7	3.7	0.00e+00	0	51	104	0	77	25012
2026-01-19 07:11:09.80	54.69	31.82	-53.6	-58.0	3.7	0.00e+00	0	51	104	0	77	25746
2026-01-19 07:11:10.79	54.11	31.76	-53.4	-57.7	3.7	0.00e+00	0	51	104	0	77	25094
2026-01-19 07:11:11.79	53.54	31.70	-53.4	-57.8	3.7	0.00e+00	0	51	104	0	77	25138
2026-01-19 07:11:12.86	52.92	31.63	-53.5	-57.9	3.7	0.00e+00	0	51	104	0	77	25428
2026-01-19 07:11:13.75	52.41	31.57	-53.2	-57.5	3.7	0.00e+00	0	51	104	0	77	24292
2026-01-19 07:11:14.89	51.76	31.49	-52.9	-57.4	3.7	0.00e+00	0	51	104	0	77	24228
2026-01-19 07:11:15.74	51.27	31.43	-52.9	-57.4	3.7	0.00e+00	0	51	104	0	77	24053
2026-01-19 07:11:17.10	50.51	31.32	-53.1	-57.6	3.7	0.00e+00	0	51	104	0	77	24802
2026-01-19 07:11:17.81	50.11	31.27	-53.4	-57.8	3.7	0.00e+00	0	51	104	0	77	25307
2026-01-19 07:11:19.09	49.39	31.16	-53.5	-58.0	3.7	0.00e+00	0	51	104	0	77	25824
2026-01-19 07:11:19.80	49.00	31.10	-53.5	-57.9	3.7	0.00e+00	0	51	104	0	77	25598
2026-01-19 07:11:21.08	48.29	30.99	-53.4	-57.8	3.7	0.00e+00	0	51	104	0	77	25313
2026-01-19 07:11:21.88	47.85	30.92	-53.6	-58.0	3.7	0.00e+00	0	51	104	0	77	25946
2026-01-19 07:11:23.02	47.23	30.82	-53.6	-58.0	3.7	0.00e+00	0	51	104	0	77	25927
2026-01-19 07:11:23.87	46.76	30.74	-53.6	-58.1	3.7	0.00e+00	0	51	104	0	77	26104
2026-01-19 07:11:25.01	46.15	30.63	-53.7	-58.0	3.7	0.00e+00	0	51	104	0	77	25895
2026-01-19 07:11:25.86	45.69	30.54	-53.5	-57.9	3.7	0.00e+00	0	51	104	0	77	25648
2026-01-19 07:11:27.00	45.09	30.43	-53.5	-58.0	3.7	0.00e+00	0	51	104	0	77	25776
2026-01-19 07:11:27.85	44.64	30.34	-53.5	-58.0	3.7	0.00e+00	0	51	104	0	77	25694
2026-01-19 07:11:28.99	44.04	30.22	-53.5	-57.9	3.7	0.00e+00	0	51	104	0	77	25545
2026-01-19 07:11:29.84	43.60	30.13	-53.5	-57.9	3.7	0.00e+00	0	51	104	0	77	25491
2026-01-19 07:11:30.97	43.01	30.01	-53.4	-57.7	3.7	0.00e+00	0	51	104	0	77	24934
2026-01-19 07:11:31.83	42.57	29.91	-53.4	-57.7	3.7	0.00e+00	0	51	104	0	77	24964
2026-01-19 07:11:33.11	41.92	29.77	-53.4	-57.7	3.7	0.00e+00	0	51	104	0	77	24843
2026-01-19 07:11:33.85	41.55	29.68	-53.4	-57.6	3.7	0.00e+00	0	51	104	0	77	24612
2026-01-19 07:11:35.13	40.90	29.53	-53.3	-57.6	3.7	0.00e+00	0	51	104	0	77	24672
2026-01-19 07:11:35.84	40.55	29.45	-53.3	-57.5	3.7	0.00e+00	0	51	104	0	77	24463
2026-01-19 07:11:37.12	39.92	29.30	-53.3	-57.8	3.7	0.00e+00	0	51	104	0	77	25113
2026-01-19 07:11:37.89	39.54	29.20	-53.3	-57.7	3.7	0.00e+00	0	51	104	0	77	25041
2026-01-19 07:11:39.17	38.92	29.05	-53.2	-57.5	3.7	0.00e+00	0	51	104	0	77	24430
2026-01-19 07:11:39.91	38.57	28.95	-53.3	-57.5	3.7	0.00e+00	0	51	104	0	77	24481
2026-01-19 07:11:41.19	37.96	28.79	-53.1	-57.4	3.7	0.00e+00	0	51	104	0	77	24116
2026-01-19 07:11:41.90	37.62	28.70	-52.6	-56.3	3.7	0.00e+00	0	51	104	0	77	21355
2026-01-19 07:11:43.18	37.02	28.54	-52.6	-56.3	3.7	0.00e+00	0	51	104	0	77	21315
2026-01-19 07:11:43.90	36.69	28.45	-52.5	-56.2	3.7	0.00e+00	0	51	104	0	77	20970
2026-01-19 07:11:45.19	36.09	28.28	-52.9	-56.9	3.7	0.00e+00	0	51	104	0	77	22672
2026-01-19 07:11:45.90	35.77	28.18	-53.2	-57.4	3.7	0.00e+00	0	51	104	0	77	24167
2026-01-19 07:11:47.18	35.19	28.01	-53.0	-57.0	3.7	0.00e+00	0	51	104	0	77	23025
2026-01-19 07:11:47.89	34.87	27.92	-53.0	-56.9	3.7	0.00e+00	0	51	104	0	77	22674
2026-01-19 07:11:49.28	34.26	27.73	-53.4	-57.5	3.7	0.00e+00	0	51	104	0	77	24286
2026-01-19 07:11:49.99	33.94	27.64	-52.8	-56.7	3.7	0.00e+00	0	51	104	0	77	22268
2026-01-19 07:11:51.27	33.39	27.46	-53.1	-57.2	3.7	0.00e+00	0	51	104	0	77	23539
2026-01-19 07:11:51.98	33.08	27.36	-52.9	-57.2	3.7	0.00e+00	0	51	104	0	77	23462
2026-01-19 07:11:53.26	32.53	27.19	-53.2	-57.8	3.7	0.00e+00	0	51	104	0	77	25338
2026-01-19 07:11:53.97	32.23	27.09	-53.1	-57.7	3.6	0.00e+00	0	51	104	0	77	24977
2026-01-19 07:11:55.25	31.70	26.91	-53.0	-57.4	3.7	0.00e+00	0	51	104	0	77	24163
2026-01-19 07:11:55.96	31.40	26.81	-52.6	-57.0	3.7	0.00e+00	0	51	104	0	77	22891
2026-01-19 07:11:57.24	30.88	26.63	-52.9	-57.4	3.7	0.00e+00	0	51	104	0	77	23969
2026-01-19 07:11:57.96	30.59	26.53	-53.1	-57.7	3.7	0.00e+00	0	51	104	0	77	24871
2026-01-19 07:11:59.24	30.07	26.34	-52.7	-57.4	3.7	0.00e+00	0	51	104	0	77	24072
2026-01-19 07:12:00.06	29.74	26.23	-52.9	-57.4	3.7	0.00e+00	0	51	104	0	77	24161
2026-01-19 07:12:01.50	29.18	26.02	-52.6	-57.5	3.7	0.00e+00	0	51	104	0	77	24321
2026-01-19 07:12:02.21	28.90	25.92	-52.8	-57.5	3.7	0.00e+00	0	51	104	0	77	24386
2026-01-19 07:12:03.69	28.33	25.71	-53.0	-57.7	3.7	0.00e+00	0	51	104	0	77	24973
2026-01-19 07:12:04.66	27.96	25.57	-53.2	-57.7	3.7	0.00e+00	0	51	104	0	77	25083
2026-01-19 07:12:05.97	27.47	25.38	-53.5	-57.9	3.7	0.00e+00	0	51	104	0	77	25451
2026-01-19 07:12:06.68	27.20	25.27	-53.3	-57.7	3.7	0.00e+00	0	51	104	0	77	24820
2026-01-19 07:12:07.96	26.73	25.09	-53.5	-57.8	3.7	0.00e+00	0	51	104	0	77	25267
2026-01-19 07:12:08.68	26.47	24.98	-53.3	-57.5	3.7	0.00e+00	0	51	104	0	77	24517
2026-01-19 07:12:09.96	26.01	24.80	-53.3	-57.7	3.7	0.00e+00	0	51	104	0	77	24859
2026-01-19 07:12:10.69	25.75	24.69	-53.0	-57.2	3.7	0.00e+00	0	51	104	0	77	23460
2026-01-19 07:12:11.96	25.30	24.51	-53.3	-57.7	3.7	0.00e+00	0	51	104	0	77	24892
2026-01-19 07:12:12.71	25.04	24.40	-52.7	-56.6	3.7	0.00e+00	0	51	104	0	77	22009
2026-01-19 07:12:13.99	24.59	24.21	-52.5	-56.4	3.7	0.00e+00	0	51	104	0	77	21396
2026-01-19 07:12:14.72	24.34	24.10	-52.4	-56.3	3.7	0.00e+00	0	51	104	0	76	22520
2026-01-19 07:12:16.00	23.91	23.92	-51.9	-56.2	3.7	0.00e+00	0	51	104	0	75	23684
2026-01-19 07:12:16.72	23.67	23.81	-51.5	-56.2	3.7	0.00e+00	0	51	104	0	75	23478
2026-01-19 07:12:18.12	23.21	23.61	-51.7	-56.4	3.7	0.00e+00	0	51	104	0	75	24186
2026-01-19 07:12:18.83	22.97	23.51	-51.5	-56.2	3.7	0.00e+00	0	51	104	0	75	23666
2026-01-19 07:12:20.14	22.55	23.31	-51.7	-56.3	3.7	0.00e+00	0	51	104	0	75	23747
2026-01-19 07:12:20.85	22.32	23.21	-51.8	-56.5	3.7	0.00e+00	0	51	104	0	75	24306
2026-01-19 07:12:22.16	21.90	23.02	-51.5	-55.9	3.7	0.00e+00	0	51	104	0	75	22698
2026-01-19 07:12:23.12	21.60	22.88	-51.5	-55.8	3.7	0.00e+00	0	51	104	0	74	23958
2026-01-19 07:12:24.12	21.29	22.74	-51.4	-55.6	3.7	0.00e+00	0	51	104	0	74	23395
2026-01-19 07:12:25.11	20.99	22.59	-52.4	-56.8	3.7	0.00e+00	0	51	104	0	75	25264
2026-01-19 07:12:26.11	20.68	22.45	-52.8	-57.2	3.7	0.00e+00	0	51	104	0	76	24811
2026-01-19 07:12:27.10	20.39	22.31	-52.8	-57.2	3.7	0.00e+00	0	51	104	0	76	24954
2026-01-19 07:12:28.10	20.09	22.16	-52.7	-57.2	3.7	0.00e+00	0	51	104	0	76	24871
2026-01-19 07:12:29.09	19.80	22.02	-52.7	-57.2	3.7	0.00e+00	0	51	104	0	76	24980
2026-01-19 07:12:30.09	19.51	21.88	-52.7	-57.3	3.7	0.00e+00	0	51	104	0	76	25144
2026-01-19 07:12:31.08	19.22	21.74	-52.6	-57.2	3.7	0.00e+00	0	51	104	0	76	25089
2026-01-19 07:12:32.11	18.93	21.59	-52.6	-57.3	3.7	0.00e+00	0	51	104	0	76	25274
2026-01-19 07:12:33.10	18.65	21.45	-52.0	-57.0	3.7	0.00e+00	0	51	104	0	76	24258
2026-01-19 07:12:34.16	18.35	21.30	-52.4	-57.2	3.7	0.00e+00	0	51	104	0	76	25012
2026-01-19 07:12:35.02	18.11	21.18	-52.2	-57.2	3.7	0.00e+00	0	51	104	0	76	24879
2026-01-19 07:12:36.15	17.81	21.02	-51.9	-57.0	3.7	0.00e+00	0	51	104	0	75	25698
2026-01-19 07:12:37.01	17.57	20.90	-52.7	-57.4	3.7	0.00e+00	0	51	104	0	75	27107
2026-01-19 07:12:38.14	17.27	20.74	-52.0	-57.0	3.7	0.00e+00	0	51	104	0	75	25903
2026-01-19 07:12:39.17	17.00	20.59	-52.5	-57.3	3.7	0.00e+00	0	51	104	0	75	26752
2026-01-19 07:12:40.34	16.69	20.43	-52.7	-57.3	3.7	0.00e+00	0	51	104	0	76	25200
2026-01-19 07:12:41.22	16.46	20.31	-52.4	-57.0	3.7	0.00e+00	0	51	104	0	76	24292
2026-01-19 07:12:42.36	16.17	20.15	-52.6	-57.1	3.7	0.00e+00	0	51	104	0	76	24616
2026-01-19 07:12:43.27	15.94	20.02	-52.4	-56.9	3.7	0.00e+00	0	51	104	0	76	24213
2026-01-19 07:12:44.47	15.64	19.86	-52.2	-57.1	3.7	0.00e+00	0	51	104	0	76	24719
2026-01-19 07:12:45.33	15.43	19.74	-52.4	-57.2	3.7	0.00e+00	0	51	104	0	76	25089
2026-01-19 07:12:46.46	15.15	19.59	-52.1	-57.0	3.7	0.00e+00	0	51	104	0	76	24304
2026-01-19 07:12:47.31	14.94	19.47	-52.5	-57.3	3.7	0.00e+00	0	51	104	0	76	25258
2026-01-19 07:12:48.45	14.67	19.32	-53.3	-57.8	3.7	0.00e+00	0	51	104	0	77	25124
2026-01-19 07:12:49.30	14.47	19.20	-53.4	-57.9	3.7	0.00e+00	0	51	104	0	77	25564
2026-01-19 07:12:50.44	14.20	19.05	-53.4	-57.9	3.7	0.00e+00	0	51	104	0	77	25387
2026-01-19 07:12:51.29	14.00	18.93	-53.3	-57.8	3.7	0.00e+00	0	51	104	0	77	25250
2026-01-19 07:12:52.43	13.74	18.78	-53.1	-57.6	3.7	0.00e+00	0	51	104	0	77	24795
2026-01-19 07:12:53.28	13.55	18.67	-52.7	-57.4	3.7	0.00e+00	0	51	104	0	77	24095
2026-01-19 07:12:54.43	13.29	18.52	-53.1	-57.6	3.7	0.00e+00	0	51	104	0	77	24573
2026-01-19 07:12:55.28	13.10	18.40	-52.2	-57.0	3.7	0.00e+00	0	51	104	0	76	24362
2026-01-19 07:12:56.42	12.84	18.25	-51.3	-56.6	3.7	0.00e+00	0	51	104	0	74	26016
2026-01-19 07:12:57.27	12.66	18.14	-50.9	-56.2	3.7	0.00e+00	0	51	104	0	73	26515
2026-01-19 07:12:58.41	12.41	17.99	-51.2	-56.5	3.7	0.00e+00	0	51	104	0	73	27388
2026-01-19 07:12:59.26	12.23	17.88	-50.9	-56.3	3.7	0.00e+00	0	51	104	0	73	26696
2026-01-19 07:13:00.59	11.94	17.71	-51.0	-56.4	3.7	0.00e+00	0	51	104	0	73	26940
2026-01-19 07:13:01.30	11.80	17.62	-50.8	-56.3	3.7	0.00e+00	0	51	104	0	73	26595
2026-01-19 07:13:02.79	11.49	17.43	-50.6	-56.1	3.7	0.00e+00	0	51	104	0	73	26061
2026-01-19 07:13:03.50	11.34	17.33	-50.5	-56.1	3.7	0.00e+00	0	51	104	0	73	26036
2026-01-19 07:13:04.84	11.07	17.16	-50.0	-55.8	3.7	0.00e+00	0	51	104	0	72	26664
2026-01-19 07:13:05.55	10.93	17.07	-49.9	-55.6	3.7	0.00e+00	0	51	104	0	71	27655
2026-01-19 07:13:06.83	10.67	16.91	-50.4	-56.1	3.7	0.00e+00	0	51	104	0	71	29324
2026-01-19 07:13:07.54	10.53	16.82	-50.1	-55.9	3.7	0.00e+00	0	51	104	0	71	28703
2026-01-19 07:13:08.82	10.28	16.66	-50.6	-56.2	3.7	0.00e+00	0	51	104	0	71	29753
2026-01-19 07:13:09.53	10.14	16.57	-50.7	-56.3	3.7	0.00e+00	0	51	104	0	72	28186
2026-01-19 07:13:10.82	9.90	16.41	-50.6	-56.1	3.7	0.00e+00	0	51	104	0	72	27805
2026-01-19 07:13:11.53	9.76	16.33	-50.8	-56.3	3.7	0.00e+00	0	51	104	0	72	28188
2026-01-19 07:13:12.80	9.52	16.17	-51.0	-56.3	3.7	0.00e+00	0	51	104	0	72	28482
2026-01-19 07:13:13.59	9.38	16.07	-50.5	-56.0	3.7	0.00e+00	0	51	104	0	72	27501
2026-01-19 07:13:14.78	9.16	15.93	-50.9	-56.3	3.7	0.00e+00	0	51	104	0	72	28421
2026-01-19 07:13:15.63	9.00	15.82	-50.6	-56.2	3.7	0.00e+00	0	51	104	0	72	27985
2026-01-19 07:13:16.77	8.80	15.69	-50.8	-56.2	3.7	0.00e+00	0	51	104	0	72	28114
2026-01-19 07:13:17.63	8.64	15.58	-51.6	-56.8	3.7	0.00e+00	0	51	104	0	73	28219
2026-01-19 07:13:18.76	8.44	15.45	-51.8	-56.8	3.7	0.00e+00	0	51	104	0	74	26682
2026-01-19 07:13:19.61	8.29	15.35	-51.8	-56.8	3.7	0.00e+00	0	51	104	0	74	26763
2026-01-19 07:13:20.75	8.10	15.21	-51.9	-56.8	3.7	0.00e+00	0	51	104	0	74	26800
2026-01-19 07:13:21.60	7.95	15.11	-51.4	-56.6	3.7	0.00e+00	0	51	104	0	74	26022
2026-01-19 07:13:22.74	7.76	14.98	-50.9	-56.3	3.7	0.00e+00	0	51	104	0	73	26582
2026-01-19 07:13:23.59	7.61	14.88	-51.0	-56.3	3.7	0.00e+00	0	51	104	0	73	26648
2026-01-19 07:13:24.73	7.42	14.74	-51.2	-56.5	3.7	0.00e+00	0	51	104	0	73	27226
2026-01-19 07:13:25.58	7.28	14.64	-51.2	-56.5	3.7	0.00e+00	0	51	104	0	73	27305
2026-01-19 07:13:26.71	7.10	14.51	-51.3	-56.8	3.7	0.00e+00	0	51	104	0	73	28157
2026-01-19 07:13:27.57	6.96	14.41	-50.4	-56.2	3.7	0.00e+00	0	51	104	0	72	27862
2026-01-19 07:13:28.70	6.77	14.29	-51.0	-56.4	3.7	0.00e+00	0	51	104	0	72	28766
2026-01-19 07:13:29.73	6.61	14.17	-50.9	-56.4	3.7	0.00e+00	0	51	104	0	72	28601
2026-01-19 07:13:30.88	6.43	14.04	-50.7	-56.3	3.7	0.00e+00	0	51	104	0	72	28394
2026-01-19 07:13:31.75	6.29	13.94	-50.6	-56.3	3.7	0.00e+00	0	52	104	0	72	28160
2026-01-19 07:13:32.89	6.12	13.81	-50.3	-56.1	3.7	0.00e+00	0	51	104	0	72	27615
2026-01-19 07:13:33.74	5.99	13.72	-50.2	-56.0	3.7	0.00e+00	0	51	104	0	72	27325
2026-01-19 07:13:34.88	5.81	13.59	-50.4	-56.2	3.7	0.00e+00	0	51	104	0	72	28046
2026-01-19 07:13:35.73	5.69	13.49	-50.6	-56.2	3.7	0.00e+00	0	51	104	0	72	28145
2026-01-19 07:13:36.87	5.52	13.37	-50.7	-56.3	3.7	0.00e+00	0	51	104	0	72	28425
2026-01-19 07:13:37.72	5.39	13.27	-50.5	-56.1	3.7	0.00e+00	0	51	104	0	72	27820
2026-01-19 07:13:38.86	5.22	13.15	-51.5	-56.7	3.7	0.00e+00	0	51	104	0	73	27844
2026-01-19 07:13:39.71	5.10	13.06	-50.8	-56.2	3.7	0.00e+00	0	51	104	0	73	26552
2026-01-19 07:13:40.85	4.94	12.93	-51.2	-56.7	3.7	0.00e+00	0	51	104	0	73	27909
2026-01-19 07:13:41.70	4.81	12.84	-51.4	-56.7	3.7	0.00e+00	0	51	104	0	73	27914
2026-01-19 07:13:42.84	4.65	12.72	-50.5	-56.0	3.7	0.00e+00	0	51	104	0	73	25764
2026-01-19 07:13:43.69	4.53	12.63	-51.5	-56.6	3.7	0.00e+00	0	51	104	0	73	27643
2026-01-19 07:13:44.91	4.37	12.50	-50.4	-56.0	3.7	0.00e+00	0	51	104	0	72	27441
2026-01-19 07:13:45.76	4.25	12.41	-50.8	-56.2	3.7	0.00e+00	0	51	104	0	72	28063
2026-01-19 07:13:46.89	4.10	12.29	-51.1	-56.5	3.7	0.00e+00	0	51	104	0	73	27282
2026-01-19 07:13:47.74	3.98	12.20	-51.6	-56.8	3.7	0.00e+00	0	51	104	0	73	28245
2026-01-19 07:13:48.88	3.83	12.08	-52.2	-57.2	3.7	0.00e+00	0	51	104	0	74	27936
2026-01-19 07:13:49.73	3.72	11.99	-52.2	-57.2	3.7	0.00e+00	0	51	104	0	75	26369
2026-01-19 07:13:50.87	3.57	11.87	-52.1	-57.1	3.7	0.00e+00	0	51	104	0	75	26105
2026-01-19 07:13:51.72	3.45	11.78	-52.1	-57.1	3.7	0.00e+00	0	51	104	0	75	26157
2026-01-19 07:13:52.86	3.31	11.67	-52.2	-57.3	3.7	0.00e+00	0	51	104	0	75	26682
2026-01-19 07:13:53.71	3.20	11.58	-52.7	-57.4	3.7	0.00e+00	0	51	104	0	75	27139
2026-01-19 07:13:54.85	3.05	11.46	-51.4	-56.7	3.7	0.00e+00	0	51	104	0	74	26420
2026-01-19 07:13:55.70	2.95	11.38	-51.0	-56.5	3.7	0.00e+00	0	51	104	0	74	25748
2026-01-19 07:13:56.84	2.81	11.26	-50.8	-56.4	3.7	0.00e+00	0	51	104	0	73	26957
2026-01-19 07:13:57.69	2.70	11.18	-50.8	-56.4	3.7	0.00e+00	0	51	104	0	73	27072
2026-01-19 07:13:58.83	2.56	11.06	-51.2	-56.6	3.7	0.00e+00	0	51	104	0	73	27731
2026-01-19 07:13:59.68	2.46	10.98	-51.8	-57.0	3.7	0.00e+00	0	51	104	0	74	27239
2026-01-19 07:14:00.82	2.32	10.86	-52.5	-57.4	3.7	0.00e+00	0	51	104	0	75	27014
2026-01-19 07:14:01.67	2.22	10.78	-51.8	-57.1	3.7	0.00e+00	0	51	104	0	75	26086
2026-01-19 07:14:03.03	2.06	10.65	-49.6	-55.6	3.7	0.00e+00	0	51	104	0	71	27580
2026-01-19 07:14:03.74	1.97	10.58	-52.2	-57.3	3.7	0.00e+00	0	51	104	0	75	26827
2026-01-19 07:14:05.02	1.83	10.45	-49.2	-55.4	3.7	0.00e+00	0	51	104	0	70	28618
2026-01-19 07:14:05.73	1.74	10.38	-49.7	-55.8	3.7	0.00e+00	0	51	104	0	70	30094
2026-01-19 07:14:07.01	1.60	10.26	-50.9	-56.5	3.7	0.00e+00	0	51	104	0	72	29099
2026-01-19 07:14:07.74	1.51	10.19	-51.3	-56.8	3.7	0.00e+00	0	51	104	0	73	28479
2026-01-19 07:14:09.02	1.37	10.07	-51.5	-57.0	3.7	0.00e+00	0	51	104	0	73	28947
2026-01-19 07:14:09.76	1.29	10.00	-51.4	-57.0	3.7	0.00e+00	0	51	104	0	73	28887
2026-01-19 07:14:11.03	1.15	9.88	-49.7	-55.8	3.7	0.00e+00	0	51	104	0	71	28167
2026-01-19 07:14:11.76	1.07	9.81	-51.4	-56.8	3.7	0.00e+00	0	51	104	0	73	28401
2026-01-19 07:14:13.04	0.93	9.69	-49.3	-55.4	3.7	0.00e+00	0	51	104	0	70	28722
2026-01-19 07:14:13.75	0.85	9.62	-49.1	-55.3	3.7	0.00e+00	0	51	104	0	70	28209
2026-01-19 07:14:15.03	0.72	9.50	-49.1	-55.3	3.7	0.00e+00	0	51	104	0	69	30011
2026-01-19 07:14:15.76	0.64	9.43	-49.1	-55.3	3.7	0.00e+00	0	51	104	0	69	29862
2026-01-19 07:14:17.03	0.50	9.31	-49.1	-55.2	3.7	0.00e+00	0	51	104	0	69	29739
2026-01-19 07:14:17.74	0.43	9.25	-49.4	-55.5	3.7	0.00e+00	0	51	104	0	69	30643
2026-01-19 07:14:19.02	0.30	9.13	-49.0	-55.1	3.7	0.00e+00	0	52	104	0	69	29434
2026-01-19 07:14:19.73	0.23	9.07	-50.1	-55.9	3.7	0.00e+00	0	51	104	0	70	30410
2026-01-19 07:14:21.25	0.07	8.93	-49.9	-55.8	3.6	0.00e+00	0	51	104	0	71	28377
2026-01-19 07:14:21.96	360.00	8.86	-51.9	-57.1	3.7	0.00e+00	0	51	104	0	75	26135
2026-01-19 07:14:23.23	359.87	8.75	-50.9	-56.3	3.7	0.00e+00	0	51	104	0	73	26714
2026-01-19 07:14:23.94	359.80	8.68	-51.7	-56.9	3.7	0.00e+00	0	51	104	0	75	25407
2026-01-19 07:14:25.22	359.68	8.57	-52.5	-57.5	3.7	0.00e+00	0	51	104	0	76	25714
2026-01-19 07:14:25.93	359.61	8.51	-53.0	-57.8	3.7	0.00e+00	0	51	104	0	76	26707
2026-01-19 07:14:27.21	359.48	8.39	-52.9	-57.8	3.7	0.00e+00	0	51	104	0	77	25118
2026-01-19 07:14:27.96	359.41	8.32	-53.1	-57.8	3.7	0.00e+00	0	51	104	0	77	25305
2026-01-19 07:14:29.24	359.29	8.21	-53.2	-57.9	3.7	0.00e+00	0	51	104	0	77	25600
2026-01-19 07:14:30.01	359.22	8.14	-52.0	-57.3	3.7	0.00e+00	0	51	104	0	76	25127
2026-01-19 07:14:31.29	359.10	8.03	-53.6	-58.2	3.7	0.00e+00	0	51	104	0	78	25010
2026-01-19 07:14:32.06	359.02	7.97	-53.5	-58.1	3.7	0.00e+00	0	51	104	0	77	25986
2026-01-19 07:14:33.34	358.91	7.85	-53.6	-58.1	3.7	0.00e+00	0	51	104	0	77	26155
2026-01-19 07:14:34.12	358.83	7.79	-53.6	-58.2	3.7	0.00e+00	0	51	104	0	78	24890
2026-01-19 07:14:35.69	358.69	7.65	-53.5	-58.2	3.7	0.00e+00	0	51	104	0	78	24819
2026-01-19 07:14:36.40	358.63	7.59	-53.7	-58.2	3.7	0.00e+00	0	51	104	0	78	25038
2026-01-19 07:14:37.75	358.51	7.48	-52.8	-57.8	3.7	0.00e+00	0	51	104	0	77	25162
2026-01-19 07:14:38.46	358.44	7.42	-53.1	-58.0	3.7	0.00e+00	0	51	104	0	77	25702
2026-01-19 07:14:39.80	358.33	7.30	-53.5	-58.1	3.7	0.00e+00	0	51	104	0	78	24701
2026-01-19 07:14:40.51	358.26	7.24	-53.6	-58.2	3.7	0.00e+00	0	51	104	0	78	24946
2026-01-19 07:14:41.85	358.15	7.13	-53.8	-58.3	3.7	0.00e+00	0	51	104	0	78	25278
2026-01-19 07:14:42.56	358.09	7.07	-53.9	-58.4	3.7	0.00e+00	0	51	104	0	78	25446
2026-01-19 07:14:43.84	357.98	6.96	-53.9	-58.3	3.7	0.00e+00	0	51	104	0	78	25345
2026-01-19 07:14:44.55	357.92	6.90	-53.5	-58.1	3.7	0.00e+00	0	51	104	0	78	24690
2026-01-19 07:14:45.82	357.81	6.80	-53.7	-58.2	3.7	0.00e+00	0	51	104	0	78	24882
2026-01-19 07:14:46.53	357.75	6.74	-53.6	-58.1	3.7	0.00e+00	0	51	104	0	78	24600
2026-01-19 07:14:47.81	357.65	6.64	-53.2	-57.6	3.7	0.00e+00	0	51	104	0	78	23303
2026-01-19 07:14:48.53	357.59	6.58	-53.3	-57.8	3.7	0.00e+00	0	51	104	0	78	23873
2026-01-19 07:14:49.81	357.48	6.47	-52.7	-57.5	3.7	0.00e+00	0	51	104	0	77	24469
2026-01-19 07:14:50.52	357.43	6.42	-52.8	-57.5	3.7	0.00e+00	0	51	104	0	77	24414
2026-01-19 07:14:51.80	357.32	6.31	-52.8	-57.5	3.7	0.00e+00	0	51	104	0	77	24315
2026-01-19 07:14:52.52	357.27	6.25	-52.8	-57.5	3.7	0.00e+00	0	51	104	0	77	24405
2026-01-19 07:14:53.80	357.16	6.15	-52.7	-57.5	3.7	0.00e+00	0	51	104	0	77	24296
2026-01-19 07:14:54.51	357.11	6.09	-52.7	-57.5	3.7	0.00e+00	0	51	104	0	77	24318
2026-01-19 07:14:55.79	357.01	5.99	-52.7	-57.5	3.7	0.00e+00	0	51	104	0	77	24405
2026-01-19 07:14:56.51	356.95	5.93	-52.7	-57.5	3.7	0.00e+00	0	51	104	0	77	24357
2026-01-19 07:14:57.79	356.85	5.83	-52.7	-57.5	3.7	0.00e+00	0	51	104	0	77	24294
2026-01-19 07:14:58.50	356.80	5.78	-52.7	-57.5	3.7	0.00e+00	0	51	104	0	77	24299
2026-01-19 07:14:59.78	356.70	5.68	-52.7	-57.4	3.7	0.00e+00	0	51	104	0	77	24222
2026-01-19 07:15:00.49	356.65	5.62	-52.7	-57.5	3.7	0.00e+00	0	51	104	0	77	24268
2026-01-19 07:15:01.76	356.56	5.52	-52.7	-57.5	3.7	0.00e+00	0	51	104	0	77	24348
2026-01-19 07:15:02.49	356.50	5.47	-52.7	-57.5	3.7	0.00e+00	0	51	104	0	77	24299
2026-01-19 07:15:03.76	356.41	5.37	-52.7	-57.4	3.7	0.00e+00	0	51	104	0	77	24241
2026-01-19 07:15:04.49	356.35	5.31	-52.7	-57.5	3.7	0.00e+00	0	51	104	0	77	24309
2026-01-19 07:15:05.77	356.26	5.21	-52.7	-57.4	3.7	0.00e+00	0	51	104	0	77	24216
2026-01-19 07:15:06.49	356.21	5.16	-52.7	-57.4	3.7	0.00e+00	0	51	104	0	77	24242
2026-01-19 07:15:07.77	356.12	5.06	-52.7	-57.5	3.7	0.00e+00	0	51	104	0	77	24258
2026-01-19 07:15:08.48	356.07	5.00	-52.7	-57.5	3.7	0.00e+00	0	51	104	0	77	24316

#Closed at: 2026-01-19 07:15:09
#Recorded file [0 MB]: D:/Data/31040_260119_100638.dat