passes_logs/2026/01/19/T1/T1__20260119_092123_NOAA_21_JPSS-2_rec.log

#Pass ID: 20260119_092123_NOAA 21 (JPSS-2)
#Satellite: NOAA 21 (JPSS-2)
#Configuration: NOAA 21
#almurnet v.1.7.20251203
#Start time: 2026-01-19 09:21:24

#Version: 2.0.20230620
#Station: T1
#Location: 37.570604 lon 55.790049 lat
#TLE: 1 54234U 22150A   26018.88939962  .00000052  00000+0  45304-4 0  9995
#TLE: 2 54234  98.7504 319.7421 0000606 261.7569  98.3539 14.19535520165361

#Time	Az	El	Level	Level2	SNR	BER	BlckErr	Temp	State	Recorded	gain1	gain2
2026-01-19 09:21:24.12	142.39	5.06	-49.6	-62.6	3.8	1.49e+00	0	39	0	0	71	15414
2026-01-19 09:21:25.11	142.36	5.13	-49.6	-62.4	3.8	1.49e+00	0	39	104	0	71	15191
2026-01-19 09:21:26.10	142.33	5.20	-49.6	-62.4	3.8	1.49e+00	0	39	104	0	71	15180
2026-01-19 09:21:27.09	142.30	5.27	-49.6	-62.4	3.8	1.49e+00	0	39	104	0	71	15114
2026-01-19 09:21:28.08	142.27	5.34	-49.5	-62.4	3.8	1.49e+00	0	39	104	0	71	15123
2026-01-19 09:21:29.08	142.24	5.41	-49.6	-62.4	3.8	1.49e+00	0	39	104	0	71	15160
2026-01-19 09:21:30.07	142.21	5.48	-49.6	-62.4	3.8	1.49e+00	0	39	104	0	71	15096
2026-01-19 09:21:31.06	142.18	5.56	-49.5	-62.4	3.8	1.49e+00	0	39	104	0	71	15064
2026-01-19 09:21:32.06	142.15	5.63	-49.5	-62.2	3.8	1.49e+00	0	39	104	0	71	14840
2026-01-19 09:21:33.05	142.12	5.70	-49.5	-62.1	3.8	1.49e+00	0	39	104	0	71	14563
2026-01-19 09:21:34.05	142.09	5.77	-49.5	-62.0	3.8	1.49e+00	0	39	104	0	71	14521
2026-01-19 09:21:35.04	142.06	5.84	-49.5	-61.8	3.8	1.49e+00	0	39	104	0	70	15036
2026-01-19 09:21:36.04	142.03	5.92	-49.5	-61.6	3.8	1.49e+00	0	39	104	0	70	14674
2026-01-19 09:21:37.03	142.00	5.99	-49.5	-61.5	3.8	1.49e+00	0	39	104	0	70	14488
2026-01-19 09:21:38.02	141.97	6.06	-49.5	-61.4	3.8	1.49e+00	0	39	104	0	70	14314
2026-01-19 09:21:39.02	141.94	6.13	-49.4	-61.3	3.8	1.49e+00	0	39	104	0	70	14177
2026-01-19 09:21:40.01	141.91	6.21	-49.4	-61.4	3.8	1.49e+00	0	39	104	0	70	14276
2026-01-19 09:21:41.00	141.88	6.28	-49.4	-61.5	3.8	1.49e+00	0	39	104	0	70	14531
2026-01-19 09:21:41.99	141.84	6.35	-49.5	-61.8	3.8	1.49e+00	0	39	104	0	70	14985
2026-01-19 09:21:42.99	141.81	6.43	-49.5	-62.1	3.8	1.49e+00	0	39	104	0	70	15469
2026-01-19 09:21:43.98	141.78	6.50	-49.6	-62.4	3.8	1.49e+00	0	39	104	0	70	16102
2026-01-19 09:21:44.97	141.75	6.57	-49.6	-62.6	3.8	1.49e+00	0	40	104	0	70	16414
2026-01-19 09:21:45.97	141.71	6.65	-49.6	-62.7	3.8	1.49e+00	0	40	104	0	70	16662
2026-01-19 09:21:46.96	141.68	6.72	-49.6	-62.7	3.8	1.49e+00	0	39	104	0	70	16553
2026-01-19 09:21:47.95	141.65	6.80	-49.6	-62.6	3.8	1.49e+00	0	39	104	0	70	16348
2026-01-19 09:21:48.95	141.62	6.87	-49.5	-62.2	3.8	1.49e+00	0	39	104	0	70	15737
2026-01-19 09:21:49.94	141.58	6.95	-49.5	-61.9	3.8	1.49e+00	0	39	104	0	70	15094
2026-01-19 09:21:50.94	141.55	7.02	-49.4	-61.5	3.8	1.49e+00	0	39	104	0	70	14507
2026-01-19 09:21:51.93	141.52	7.10	-49.4	-60.8	3.9	1.49e+00	0	39	104	0	70	13340
2026-01-19 09:21:52.93	141.48	7.17	-49.3	-60.2	4.0	1.48e+00	0	39	104	0	70	12383
2026-01-19 09:21:53.92	141.45	7.25	-49.2	-59.5	4.0	1.47e+00	0	40	104	0	70	11488
2026-01-19 09:21:54.91	141.41	7.33	-49.1	-59.0	3.9	1.45e+00	0	39	104	0	70	10826
2026-01-19 09:21:55.91	141.38	7.40	-48.9	-57.1	5.0	1.13e+00	0	40	104	0	69	9223
2026-01-19 09:21:56.90	141.34	7.48	-48.5	-55.6	6.0	3.95e-01	0	39	0	0	69	7776
2026-01-19 09:21:57.90	141.31	7.56	-48.1	-54.1	7.3	1.46e-01	0	39	0	0	68	6935
2026-01-19 09:21:58.89	141.27	7.63	-47.4	-52.6	8.7	5.52e-02	0	40	0	0	66	6496
2026-01-19 09:21:59.88	141.24	7.71	-46.8	-51.2	10.1	1.08e-02	0	40	0	0	65	5858
2026-01-19 09:22:00.88	141.20	7.79	-46.2	-50.1	11.2	2.18e-03	0	39	0	0	64	5469
2026-01-19 09:22:01.87	141.17	7.87	-45.7	-49.1	12.3	2.33e-04	0	39	0	0	63	5190
2026-01-19 09:22:02.86	141.13	7.94	-45.3	-48.5	13.0	7.32e-05	0	40	0	0	62	5124
2026-01-19 09:22:03.86	141.10	8.02	-44.7	-47.6	13.8	9.10e-06	0	39	0	0	61	4920
2026-01-19 09:22:04.85	141.06	8.10	-44.3	-47.1	14.4	7.00e-07	0	39	0	0	60	4895
2026-01-19 09:22:05.85	141.02	8.18	-44.3	-47.0	14.5	7.00e-07	0	39	0	0	60	4831
2026-01-19 09:22:06.84	140.99	8.26	-44.1	-46.8	14.6	1.50e-06	0	39	0	0	60	4743
2026-01-19 09:22:07.83	140.95	8.34	-44.2	-46.8	14.6	0.00e+00	0	39	0	0	60	4751
2026-01-19 09:22:08.83	140.91	8.42	-44.4	-47.2	14.3	1.50e-06	0	39	0	0	60	4942
2026-01-19 09:22:09.82	140.88	8.50	-44.7	-47.6	13.8	8.30e-06	0	39	0	0	60	5206
2026-01-19 09:22:10.82	140.84	8.58	-45.2	-48.3	13.1	1.98e-05	0	39	0	0	60	5650
2026-01-19 09:22:11.81	140.80	8.66	-45.8	-49.2	12.2	1.61e-04	0	39	0	0	62	5569
2026-01-19 09:22:12.80	140.76	8.74	-46.3	-50.2	11.2	6.34e-04	0	39	0	0	63	5874
2026-01-19 09:22:13.79	140.72	8.82	-46.9	-51.3	10.0	4.48e-03	0	39	0	0	64	6333
2026-01-19 09:22:14.79	140.69	8.90	-47.5	-52.9	8.3	3.35e-02	0	39	0	0	65	7137
2026-01-19 09:22:15.78	140.65	8.98	-48.1	-54.6	6.7	1.56e-01	0	39	0	0	66	8243
2026-01-19 09:22:16.78	140.61	9.06	-48.6	-56.5	5.3	4.86e-01	0	39	0	0	67	9681
2026-01-19 09:22:17.77	140.57	9.14	-48.4	-55.2	6.4	5.24e-01	0	39	0	0	68	7848
2026-01-19 09:22:18.76	140.53	9.22	-49.2	-59.3	3.9	5.98e-01	0	40	104	0	68	12552
2026-01-19 09:22:19.75	140.49	9.31	-48.6	-56.0	5.7	6.60e-01	0	40	0	0	69	8145
2026-01-19 09:22:20.75	140.45	9.39	-45.8	-49.3	12.1	2.10e-02	0	39	0	0	63	5290
2026-01-19 09:22:21.74	140.41	9.47	-49.3	-61.2	3.8	9.96e-01	0	39	104	0	69	14736
2026-01-19 09:22:22.73	140.37	9.55	-46.7	-50.9	10.1	1.48e+00	0	39	104	0	65	5702
2026-01-19 09:22:23.73	140.33	9.64	-44.2	-46.8	14.7	3.80e-06	0	39	0	0	60	4742
2026-01-19 09:22:24.72	140.29	9.72	-42.8	-45.0	16.4	0.00e+00	0	39	0	0	57	4596
2026-01-19 09:22:25.72	140.25	9.80	-42.0	-44.1	17.4	0.00e+00	0	39	0	0	56	4368
2026-01-19 09:22:26.71	140.21	9.89	-41.9	-43.9	17.4	0.00e+00	0	39	0	0	55	4524
2026-01-19 09:22:27.70	140.17	9.97	-41.5	-43.5	17.8	0.00e+00	0	40	0	0	55	4327
2026-01-19 09:22:28.70	140.12	10.06	-41.4	-43.3	18.0	0.00e+00	0	39	0	0	54	4473
2026-01-19 09:22:29.69	140.08	10.14	-41.4	-43.3	18.0	0.00e+00	0	39	0	0	54	4468
2026-01-19 09:22:30.68	140.04	10.23	-41.2	-43.1	18.2	0.00e+00	0	39	0	0	54	4359
2026-01-19 09:22:31.68	140.00	10.31	-41.2	-43.1	18.1	0.00e+00	0	39	0	0	54	4383
2026-01-19 09:22:32.67	139.95	10.40	-41.3	-43.3	18.0	0.00e+00	0	39	0	0	54	4445
2026-01-19 09:22:33.66	139.91	10.48	-41.4	-43.3	18.0	0.00e+00	0	39	0	0	54	4466
2026-01-19 09:22:34.66	139.87	10.57	-41.2	-43.2	18.1	0.00e+00	0	39	0	0	54	4392
2026-01-19 09:22:35.65	139.82	10.65	-41.2	-43.1	18.2	0.00e+00	0	39	0	0	54	4349
2026-01-19 09:22:36.64	139.78	10.74	-41.2	-43.1	18.2	0.00e+00	0	39	0	0	54	4345
2026-01-19 09:22:37.64	139.74	10.83	-41.0	-42.9	18.4	0.00e+00	0	39	0	0	54	4277
2026-01-19 09:22:38.63	139.69	10.92	-40.9	-42.7	18.5	0.00e+00	0	39	0	0	53	4441
2026-01-19 09:22:39.62	139.65	11.00	-40.9	-42.8	18.5	0.00e+00	0	39	0	0	53	4446
2026-01-19 09:22:40.61	139.60	11.09	-40.7	-42.6	18.7	0.00e+00	0	39	0	0	53	4358
2026-01-19 09:22:41.61	139.56	11.18	-40.8	-42.6	18.6	0.00e+00	0	40	0	0	53	4380
2026-01-19 09:22:42.60	139.51	11.27	-40.8	-42.6	18.6	0.00e+00	0	39	0	0	53	4383
2026-01-19 09:22:43.60	139.47	11.36	-40.8	-42.7	18.6	0.00e+00	0	39	0	0	53	4415
2026-01-19 09:22:44.59	139.42	11.45	-40.8	-42.6	18.7	0.00e+00	0	39	0	0	53	4361
2026-01-19 09:22:45.58	139.37	11.53	-40.6	-42.4	18.9	0.00e+00	0	39	0	0	53	4265
2026-01-19 09:22:46.58	139.33	11.62	-40.7	-42.5	18.8	0.00e+00	0	39	0	0	53	4315
2026-01-19 09:22:47.57	139.28	11.71	-40.7	-42.5	18.8	0.00e+00	0	39	0	0	53	4306
2026-01-19 09:22:48.56	139.23	11.80	-40.6	-42.4	18.9	0.00e+00	0	39	0	0	53	4258
2026-01-19 09:22:49.55	139.19	11.89	-40.5	-42.3	18.9	0.00e+00	0	39	0	0	53	4233
2026-01-19 09:22:50.55	139.14	11.99	-40.6	-42.4	18.9	0.00e+00	0	39	0	0	52	4507
2026-01-19 09:22:51.54	139.09	12.08	-40.5	-42.2	19.0	0.00e+00	0	39	0	0	52	4432
2026-01-19 09:22:52.53	139.04	12.17	-40.5	-42.3	19.0	0.00e+00	0	39	0	0	52	4464
2026-01-19 09:22:53.53	138.99	12.26	-40.4	-42.2	19.1	0.00e+00	0	39	0	0	52	4404
2026-01-19 09:22:54.52	138.94	12.35	-40.5	-42.2	19.0	0.00e+00	0	39	0	0	52	4440
2026-01-19 09:22:55.51	138.89	12.44	-40.5	-42.3	18.9	0.00e+00	0	39	0	0	52	4473
2026-01-19 09:22:56.51	138.84	12.54	-40.3	-42.1	19.1	0.00e+00	0	39	0	0	52	4365
2026-01-19 09:22:57.50	138.79	12.63	-40.3	-42.1	19.1	0.00e+00	0	39	0	0	52	4360
2026-01-19 09:22:58.50	138.74	12.73	-40.5	-42.2	19.0	0.00e+00	0	39	0	0	52	4441
2026-01-19 09:22:59.49	138.69	12.82	-40.4	-42.2	19.0	0.00e+00	0	39	0	0	52	4438
2026-01-19 09:23:00.49	138.64	12.91	-40.4	-42.2	19.0	0.00e+00	0	39	0	0	52	4437
2026-01-19 09:23:01.48	138.59	13.01	-40.4	-42.2	19.1	0.00e+00	0	39	0	0	52	4395
2026-01-19 09:23:02.47	138.54	13.10	-40.3	-42.1	19.1	0.00e+00	0	39	0	0	52	4365
2026-01-19 09:23:03.47	138.48	13.20	-40.3	-42.0	19.2	0.00e+00	0	40	0	0	52	4335
2026-01-19 09:23:04.46	138.43	13.29	-40.3	-42.1	19.1	0.00e+00	0	39	0	0	52	4364
2026-01-19 09:23:05.45	138.38	13.39	-40.4	-42.2	19.0	0.00e+00	0	40	0	0	52	4404
2026-01-19 09:23:06.45	138.33	13.49	-40.5	-42.3	18.9	0.00e+00	0	39	0	0	52	4476
2026-01-19 09:23:07.44	138.27	13.58	-40.5	-42.3	18.9	0.00e+00	0	39	0	0	52	4476
2026-01-19 09:23:08.43	138.22	13.68	-40.4	-42.2	19.1	0.00e+00	0	39	0	0	52	4400
2026-01-19 09:23:09.43	138.16	13.78	-40.3	-42.1	19.1	0.00e+00	0	39	0	0	52	4369
2026-01-19 09:23:10.42	138.11	13.87	-40.3	-42.1	19.1	0.00e+00	0	39	0	0	52	4380
2026-01-19 09:23:11.41	138.05	13.97	-40.3	-42.1	19.1	0.00e+00	0	39	0	0	52	4372
2026-01-19 09:23:12.40	138.00	14.07	-40.3	-42.1	19.1	0.00e+00	0	39	0	0	52	4387
2026-01-19 09:23:13.40	137.94	14.17	-40.4	-42.1	19.1	0.00e+00	0	39	0	0	52	4387
2026-01-19 09:23:14.39	137.89	14.27	-40.5	-42.3	19.0	0.00e+00	0	39	0	0	52	4449
2026-01-19 09:23:15.38	137.83	14.37	-40.4	-42.1	19.1	0.00e+00	0	39	0	0	52	4391
2026-01-19 09:23:16.37	137.77	14.47	-40.5	-42.2	19.0	0.00e+00	0	39	0	0	52	4440
2026-01-19 09:23:17.37	137.71	14.57	-40.4	-42.2	19.1	0.00e+00	0	39	0	0	52	4406
2026-01-19 09:23:18.36	137.66	14.67	-40.5	-42.3	19.0	0.00e+00	0	39	0	0	52	4484
2026-01-19 09:23:19.36	137.60	14.77	-40.5	-42.3	19.0	0.00e+00	0	39	0	0	52	4467
2026-01-19 09:23:20.35	137.54	14.87	-40.4	-42.1	19.1	0.00e+00	0	39	0	0	52	4389
2026-01-19 09:23:21.34	137.48	14.97	-40.4	-42.2	19.1	0.00e+00	0	39	0	0	52	4433
2026-01-19 09:23:22.34	137.42	15.08	-40.5	-42.3	19.0	0.00e+00	0	39	0	0	52	4471
2026-01-19 09:23:23.33	137.36	15.18	-40.4	-42.2	19.1	0.00e+00	0	39	0	0	52	4405
2026-01-19 09:23:24.32	137.30	15.28	-40.4	-42.2	19.1	0.00e+00	0	39	0	0	52	4439
2026-01-19 09:23:25.31	137.24	15.38	-40.3	-42.1	19.2	0.00e+00	0	39	0	0	52	4380
2026-01-19 09:23:26.31	137.18	15.49	-40.4	-42.1	19.2	0.00e+00	0	39	0	0	52	4380
2026-01-19 09:23:27.30	137.12	15.59	-40.3	-42.1	19.2	0.00e+00	0	39	0	0	52	4363
2026-01-19 09:23:28.29	137.05	15.70	-40.3	-42.1	19.2	0.00e+00	0	39	0	0	52	4356
2026-01-19 09:23:29.29	136.99	15.80	-40.4	-42.2	19.1	0.00e+00	0	39	0	0	52	4412
2026-01-19 09:23:30.28	136.93	15.91	-40.5	-42.3	19.1	0.00e+00	0	39	0	0	52	4456
2026-01-19 09:23:31.27	136.87	16.01	-40.5	-42.3	19.0	0.00e+00	0	39	0	0	52	4471
2026-01-19 09:23:32.27	136.80	16.12	-40.6	-42.4	18.9	0.00e+00	0	39	0	0	52	4536
2026-01-19 09:23:33.26	136.74	16.23	-40.5	-42.3	18.9	0.00e+00	0	39	0	0	52	4481
2026-01-19 09:23:34.26	136.67	16.34	-40.4	-42.2	19.1	0.00e+00	0	39	0	0	52	4405
2026-01-19 09:23:35.25	136.61	16.44	-40.5	-42.2	19.1	0.00e+00	0	39	0	0	52	4439
2026-01-19 09:23:36.24	136.54	16.55	-40.4	-42.2	19.1	0.00e+00	0	39	0	0	52	4405
2026-01-19 09:23:37.24	136.47	16.66	-40.4	-42.2	19.1	0.00e+00	0	39	0	0	52	4414
2026-01-19 09:23:38.23	136.41	16.77	-40.6	-42.4	18.9	0.00e+00	0	39	0	0	52	4515
2026-01-19 09:23:39.22	136.34	16.88	-40.5	-42.3	19.1	0.00e+00	0	39	0	0	52	4466
2026-01-19 09:23:40.22	136.27	16.99	-40.5	-42.2	19.1	0.00e+00	0	39	0	0	52	4436
2026-01-19 09:23:41.21	136.20	17.10	-40.5	-42.3	19.0	0.00e+00	0	39	0	0	52	4460
2026-01-19 09:23:42.20	136.13	17.21	-40.6	-42.3	19.0	0.00e+00	0	39	0	0	52	4489
2026-01-19 09:23:43.20	136.06	17.32	-40.6	-42.4	18.9	0.00e+00	0	39	0	0	52	4511
2026-01-19 09:23:44.19	135.99	17.43	-40.6	-42.4	18.9	0.00e+00	0	39	0	0	52	4511
2026-01-19 09:23:45.18	135.92	17.55	-40.7	-42.5	18.9	0.00e+00	0	39	0	0	52	4557
2026-01-19 09:23:46.18	135.85	17.66	-40.7	-42.6	18.8	0.00e+00	0	40	0	0	52	4613
2026-01-19 09:23:47.17	135.78	17.77	-40.7	-42.6	18.8	0.00e+00	0	39	0	0	52	4616
2026-01-19 09:23:48.16	135.71	17.88	-40.8	-42.6	18.8	0.00e+00	0	39	0	0	52	4613
2026-01-19 09:23:49.16	135.64	18.00	-40.7	-42.6	18.8	0.00e+00	0	39	0	0	52	4618
2026-01-19 09:23:50.15	135.56	18.11	-40.8	-42.6	18.7	0.00e+00	0	39	0	0	52	4648
2026-01-19 09:23:51.14	135.49	18.23	-40.9	-42.8	18.6	0.00e+00	0	39	0	0	52	4726
2026-01-19 09:23:52.14	135.41	18.34	-40.9	-42.7	18.7	0.00e+00	0	39	0	0	52	4684
2026-01-19 09:23:53.13	135.34	18.46	-41.0	-42.8	18.6	0.00e+00	0	39	0	0	52	4752
2026-01-19 09:23:54.13	135.26	18.58	-41.0	-42.9	18.6	0.00e+00	0	39	0	0	52	4768
2026-01-19 09:23:55.12	135.19	18.69	-41.0	-42.8	18.6	0.00e+00	0	39	0	0	52	4749
2026-01-19 09:23:56.11	135.11	18.81	-40.8	-42.6	18.8	0.00e+00	0	39	0	0	52	4646
2026-01-19 09:23:57.11	135.03	18.93	-40.8	-42.6	18.9	0.00e+00	0	39	0	0	52	4610
2026-01-19 09:23:58.10	134.95	19.05	-40.7	-42.5	18.9	0.00e+00	0	39	0	0	52	4586
2026-01-19 09:23:59.09	134.87	19.17	-40.7	-42.5	18.9	0.00e+00	0	39	0	0	52	4586
2026-01-19 09:24:00.09	134.79	19.29	-40.6	-42.4	19.0	0.00e+00	0	39	0	0	52	4518
2026-01-19 09:24:01.08	134.71	19.41	-40.6	-42.5	19.0	0.00e+00	0	39	0	0	52	4546
2026-01-19 09:24:02.07	134.63	19.53	-40.5	-42.3	19.1	0.00e+00	0	39	0	0	52	4456
2026-01-19 09:24:03.07	134.55	19.65	-40.6	-42.4	19.0	0.00e+00	0	39	0	0	52	4517
2026-01-19 09:24:04.06	134.47	19.77	-40.3	-42.1	19.2	0.00e+00	0	39	0	0	52	4376
2026-01-19 09:24:05.06	134.39	19.89	-40.4	-42.1	19.2	0.00e+00	0	39	0	0	52	4383
2026-01-19 09:24:06.05	134.30	20.02	-40.4	-42.2	19.2	0.00e+00	0	39	0	0	52	4408
2026-01-19 09:24:07.04	134.22	20.14	-40.3	-42.0	19.3	0.00e+00	0	39	0	0	52	4333
2026-01-19 09:24:08.04	134.13	20.26	-40.2	-42.0	19.4	0.00e+00	0	39	0	0	52	4304
2026-01-19 09:24:09.03	134.05	20.39	-40.1	-41.9	19.5	0.00e+00	0	39	0	0	52	4243
2026-01-19 09:24:10.02	133.96	20.51	-40.1	-41.8	19.5	0.00e+00	0	39	0	0	52	4221
2026-01-19 09:24:11.02	133.88	20.64	-40.2	-41.9	19.4	0.00e+00	0	39	0	0	52	4274
2026-01-19 09:24:12.01	133.79	20.76	-40.1	-41.9	19.5	0.00e+00	0	39	0	0	52	4247
2026-01-19 09:24:13.00	133.70	20.89	-40.0	-41.8	19.5	0.00e+00	0	39	0	0	52	4205
2026-01-19 09:24:14.00	133.61	21.02	-40.0	-41.7	19.6	0.00e+00	0	39	0	0	52	4176
2026-01-19 09:24:14.99	133.52	21.15	-40.0	-41.7	19.7	0.00e+00	0	39	0	0	51	4439
2026-01-19 09:24:15.99	133.43	21.28	-39.9	-41.6	19.8	0.00e+00	0	39	0	0	51	4388
2026-01-19 09:24:16.98	133.34	21.40	-39.7	-41.5	19.9	0.00e+00	0	39	0	0	51	4296
2026-01-19 09:24:17.97	133.25	21.53	-39.6	-41.3	20.1	0.00e+00	0	39	0	0	51	4214
2026-01-19 09:24:18.97	133.15	21.66	-39.6	-41.3	20.1	0.00e+00	0	39	0	0	51	4233
2026-01-19 09:24:19.96	133.06	21.79	-39.6	-41.3	20.0	0.00e+00	0	39	0	0	51	4236
2026-01-19 09:24:20.95	132.96	21.93	-39.6	-41.3	20.1	0.00e+00	0	39	0	0	51	4241
2026-01-19 09:24:21.95	132.87	22.06	-39.4	-41.1	20.3	0.00e+00	0	39	0	0	50	4358
2026-01-19 09:24:22.94	132.77	22.19	-39.4	-41.1	20.3	0.00e+00	0	39	0	0	50	4341
2026-01-19 09:24:23.93	132.68	22.32	-39.3	-41.0	20.4	0.00e+00	0	39	0	0	50	4303
2026-01-19 09:24:24.93	132.58	22.46	-39.4	-41.1	20.2	0.00e+00	0	39	0	0	50	4355
2026-01-19 09:24:25.92	132.48	22.59	-39.2	-40.8	20.5	0.00e+00	0	40	0	0	50	4231
2026-01-19 09:24:26.91	132.38	22.73	-39.2	-40.8	20.5	0.00e+00	0	39	0	0	50	4235
2026-01-19 09:24:27.90	132.28	22.86	-39.2	-40.8	20.5	0.00e+00	0	39	0	0	50	4224
2026-01-19 09:24:28.90	132.18	23.00	-39.3	-41.0	20.3	0.00e+00	0	39	0	0	50	4305
2026-01-19 09:24:29.89	132.07	23.13	-39.2	-40.9	20.4	0.00e+00	0	40	0	0	50	4261
2026-01-19 09:24:30.89	131.97	23.27	-39.3	-41.0	20.3	0.00e+00	0	39	0	0	50	4317
2026-01-19 09:24:31.88	131.87	23.41	-39.4	-41.1	20.2	0.00e+00	0	39	0	0	50	4354
2026-01-19 09:24:32.87	131.76	23.55	-39.5	-41.2	20.1	0.00e+00	0	39	0	0	50	4406
2026-01-19 09:24:33.86	131.65	23.69	-39.5	-41.2	20.2	0.00e+00	0	39	0	0	50	4409
2026-01-19 09:24:34.86	131.55	23.83	-39.6	-41.3	20.0	0.00e+00	0	39	0	0	50	4482
2026-01-19 09:24:35.85	131.44	23.97	-39.7	-41.4	20.0	0.00e+00	0	39	0	0	50	4519
2026-01-19 09:24:36.85	131.33	24.11	-39.7	-41.4	20.0	0.00e+00	0	39	0	0	50	4532
2026-01-19 09:24:37.84	131.22	24.25	-39.7	-41.4	20.0	0.00e+00	0	39	0	0	50	4497
2026-01-19 09:24:38.83	131.11	24.39	-39.7	-41.4	20.0	0.00e+00	0	39	0	0	50	4516
2026-01-19 09:24:39.83	131.00	24.54	-39.7	-41.4	20.0	0.00e+00	0	39	0	0	50	4527
2026-01-19 09:24:40.82	130.88	24.68	-39.6	-41.3	20.1	0.00e+00	0	39	0	0	50	4466
2026-01-19 09:24:41.82	130.77	24.83	-39.7	-41.3	20.1	0.00e+00	0	39	0	0	50	4490
2026-01-19 09:24:42.81	130.65	24.97	-39.8	-41.4	20.0	0.00e+00	0	39	0	0	50	4537
2026-01-19 09:24:43.80	130.54	25.12	-39.6	-41.2	20.2	0.00e+00	0	39	0	0	50	4432
2026-01-19 09:24:44.79	130.42	25.26	-39.6	-41.3	20.1	0.00e+00	0	39	0	0	50	4477
2026-01-19 09:24:45.79	130.30	25.41	-39.7	-41.4	20.0	0.00e+00	0	39	0	0	50	4526
2026-01-19 09:24:46.78	130.18	25.56	-39.8	-41.5	19.9	0.00e+00	0	39	0	0	50	4560
2026-01-19 09:24:47.78	130.06	25.71	-39.9	-41.6	19.8	0.00e+00	0	39	0	0	50	4634
2026-01-19 09:24:48.77	129.94	25.86	-40.0	-41.7	19.7	0.00e+00	0	39	0	0	50	4702
2026-01-19 09:24:49.76	129.81	26.01	-40.0	-41.8	19.7	0.00e+00	0	39	0	0	50	4710
2026-01-19 09:24:50.75	129.69	26.16	-40.2	-42.0	19.4	0.00e+00	0	39	0	0	51	4560
2026-01-19 09:24:51.75	129.56	26.31	-40.2	-42.0	19.4	0.00e+00	0	39	0	0	51	4586
2026-01-19 09:24:52.74	129.44	26.46	-40.3	-42.1	19.3	0.00e+00	0	39	0	0	51	4635
2026-01-19 09:24:53.73	129.31	26.61	-40.5	-42.3	19.2	0.00e+00	0	39	0	0	51	4725
2026-01-19 09:24:54.73	129.18	26.77	-40.5	-42.3	19.2	0.00e+00	0	39	0	0	51	4731
2026-01-19 09:24:55.72	129.05	26.92	-40.4	-42.2	19.3	0.00e+00	0	39	0	0	51	4698
2026-01-19 09:24:56.71	128.91	27.07	-40.6	-42.3	19.2	0.00e+00	0	39	0	0	51	4755
2026-01-19 09:24:57.71	128.78	27.23	-40.5	-42.3	19.3	0.00e+00	0	39	0	0	51	4742
2026-01-19 09:24:58.70	128.65	27.39	-40.6	-42.4	19.1	0.00e+00	0	39	0	0	52	4514
2026-01-19 09:24:59.69	128.51	27.54	-40.4	-42.2	19.3	0.00e+00	0	39	0	0	52	4403
2026-01-19 09:25:00.68	128.37	27.70	-40.5	-42.3	19.2	0.00e+00	0	39	0	0	52	4442
2026-01-19 09:25:01.68	128.23	27.86	-40.4	-42.1	19.3	0.00e+00	0	39	0	0	52	4368
2026-01-19 09:25:02.67	128.09	28.02	-40.4	-42.2	19.2	0.00e+00	0	39	0	0	52	4392
2026-01-19 09:25:03.67	127.95	28.18	-40.4	-42.2	19.2	0.00e+00	0	39	0	0	52	4395
2026-01-19 09:25:04.66	127.81	28.34	-40.3	-42.1	19.2	0.00e+00	0	39	0	0	52	4359
2026-01-19 09:25:05.65	127.66	28.50	-40.3	-42.1	19.2	0.00e+00	0	39	0	0	52	4361
2026-01-19 09:25:06.64	127.52	28.66	-40.4	-42.2	19.2	0.00e+00	0	39	0	0	52	4412
2026-01-19 09:25:07.64	127.37	28.82	-40.4	-42.1	19.2	0.00e+00	0	39	0	0	52	4386
2026-01-19 09:25:08.63	127.22	28.99	-40.4	-42.3	19.1	0.00e+00	0	39	0	0	52	4446
2026-01-19 09:25:09.62	127.07	29.15	-40.5	-42.4	19.0	0.00e+00	0	39	0	0	52	4496
2026-01-19 09:25:10.61	126.92	29.32	-40.5	-42.3	19.1	0.00e+00	0	39	0	0	52	4479
2026-01-19 09:25:11.61	126.76	29.48	-40.5	-42.3	19.1	0.00e+00	0	39	0	0	52	4485
2026-01-19 09:25:12.60	126.61	29.65	-40.4	-42.1	19.3	0.00e+00	0	39	0	0	52	4387
2026-01-19 09:25:13.59	126.45	29.81	-40.3	-42.1	19.4	0.00e+00	0	39	0	0	52	4348
2026-01-19 09:25:14.59	126.29	29.98	-40.2	-42.0	19.5	0.00e+00	0	39	0	0	52	4306
2026-01-19 09:25:15.58	126.13	30.15	-40.0	-41.7	19.7	0.00e+00	0	39	0	0	52	4176
2026-01-19 09:25:16.57	125.97	30.32	-40.1	-41.8	19.7	0.00e+00	0	39	0	0	51	4482
2026-01-19 09:25:17.57	125.81	30.49	-40.0	-41.7	19.7	0.00e+00	0	39	0	0	51	4422
2026-01-19 09:25:18.56	125.64	30.66	-40.0	-41.7	19.6	0.00e+00	0	39	0	0	51	4414
2026-01-19 09:25:19.55	125.47	30.83	-40.1	-41.8	19.5	0.00e+00	0	39	0	0	51	4467
2026-01-19 09:25:20.54	125.31	31.00	-40.2	-41.9	19.3	0.00e+00	0	39	0	0	51	4537
2026-01-19 09:25:21.54	125.13	31.18	-40.3	-42.1	19.2	0.00e+00	0	39	0	0	51	4619
2026-01-19 09:25:22.53	124.96	31.35	-40.3	-42.1	19.2	0.00e+00	0	39	0	0	51	4625
2026-01-19 09:25:23.52	124.79	31.53	-40.4	-42.2	19.2	0.00e+00	0	39	0	0	51	4681
2026-01-19 09:25:24.52	124.61	31.70	-40.5	-42.3	19.2	0.00e+00	0	39	0	0	51	4721
2026-01-19 09:25:25.51	124.43	31.88	-40.6	-42.4	19.2	0.00e+00	0	39	0	0	51	4760
2026-01-19 09:25:26.50	124.25	32.05	-40.5	-42.3	19.3	0.00e+00	0	39	0	0	51	4707
2026-01-19 09:25:27.50	124.07	32.23	-40.4	-42.1	19.5	0.00e+00	0	39	0	0	51	4633
2026-01-19 09:25:28.49	123.88	32.41	-40.3	-42.1	19.5	0.00e+00	0	39	0	0	51	4614
2026-01-19 09:25:29.48	123.70	32.59	-40.4	-42.2	19.4	0.00e+00	0	39	0	0	51	4663
2026-01-19 09:25:30.48	123.51	32.77	-40.3	-42.0	19.5	0.00e+00	0	39	0	0	51	4584
2026-01-19 09:25:31.47	123.32	32.95	-40.3	-42.0	19.5	0.00e+00	0	39	0	0	51	4579
2026-01-19 09:25:32.46	123.12	33.13	-40.2	-42.0	19.5	0.00e+00	0	39	0	0	51	4548
2026-01-19 09:25:33.46	122.93	33.31	-40.2	-41.9	19.5	0.00e+00	0	39	0	0	51	4531
2026-01-19 09:25:34.45	122.73	33.49	-40.4	-42.2	19.2	0.00e+00	0	39	0	0	51	4677
2026-01-19 09:25:35.44	122.53	33.67	-40.6	-42.4	19.1	0.00e+00	0	39	0	0	51	4799
2026-01-19 09:25:36.43	122.33	33.86	-40.7	-42.6	18.9	0.00e+00	0	39	0	0	52	4612
2026-01-19 09:25:37.43	122.12	34.04	-41.0	-42.8	18.8	0.00e+00	0	39	0	0	52	4744
2026-01-19 09:25:38.42	121.92	34.23	-41.0	-42.9	18.7	0.00e+00	0	39	0	0	52	4789
2026-01-19 09:25:39.42	121.71	34.41	-41.2	-43.1	18.5	0.00e+00	0	39	0	0	53	4631
2026-01-19 09:25:40.41	121.50	34.60	-41.2	-43.0	18.6	0.00e+00	0	39	0	0	53	4592
2026-01-19 09:25:41.40	121.28	34.79	-41.2	-43.0	18.6	0.00e+00	0	39	0	0	53	4581
2026-01-19 09:25:42.39	121.07	34.97	-41.3	-43.1	18.4	0.00e+00	0	39	0	0	53	4649
2026-01-19 09:25:43.39	120.85	35.16	-41.3	-43.1	18.4	0.00e+00	0	39	0	0	53	4630
2026-01-19 09:25:44.38	120.63	35.35	-41.3	-43.1	18.4	0.00e+00	0	39	0	0	53	4635
2026-01-19 09:25:45.38	120.40	35.54	-41.4	-43.2	18.3	0.00e+00	0	39	0	0	53	4704
2026-01-19 09:25:46.37	120.17	35.73	-41.6	-43.4	18.1	0.00e+00	0	39	0	0	53	4813
2026-01-19 09:25:47.36	119.95	35.92	-41.6	-43.5	18.1	0.00e+00	0	39	0	0	53	4822
2026-01-19 09:25:48.36	119.71	36.12	-41.7	-43.6	17.9	0.00e+00	0	39	0	0	54	4649
2026-01-19 09:25:49.35	119.48	36.31	-41.8	-43.8	17.9	0.00e+00	0	39	0	0	54	4706
2026-01-19 09:25:50.35	119.24	36.50	-41.9	-43.8	17.9	0.00e+00	0	39	0	0	54	4736
2026-01-19 09:25:51.34	119.00	36.69	-41.9	-43.8	17.9	0.00e+00	0	39	0	0	54	4728
2026-01-19 09:25:52.33	118.76	36.89	-41.9	-43.8	17.9	0.00e+00	0	39	0	0	54	4755
2026-01-19 09:25:53.33	118.51	37.08	-42.1	-44.1	17.7	0.00e+00	0	39	0	0	54	4900
2026-01-19 09:25:54.32	118.26	37.28	-42.2	-44.2	17.5	0.00e+00	0	39	0	0	55	4694
2026-01-19 09:25:55.31	118.01	37.47	-42.4	-44.4	17.3	0.00e+00	0	39	0	0	55	4798
2026-01-19 09:25:56.31	117.75	37.67	-42.3	-44.4	17.4	0.00e+00	0	39	0	0	55	4763
2026-01-19 09:25:57.30	117.49	37.86	-42.3	-44.4	17.3	0.00e+00	0	39	0	0	55	4783
2026-01-19 09:25:58.29	117.23	38.06	-42.2	-44.3	17.5	0.00e+00	0	39	0	0	55	4718
2026-01-19 09:25:59.28	116.97	38.26	-42.3	-44.3	17.4	0.00e+00	0	39	0	0	55	4738
2026-01-19 09:26:00.28	116.70	38.46	-41.9	-43.9	17.8	0.00e+00	0	39	0	0	55	4524
2026-01-19 09:26:01.27	116.43	38.65	-41.9	-43.9	17.9	0.00e+00	0	39	0	0	55	4504
2026-01-19 09:26:02.26	116.15	38.85	-42.0	-44.0	17.8	0.00e+00	0	39	0	0	55	4556
2026-01-19 09:26:03.26	115.87	39.05	-41.8	-43.8	17.9	0.00e+00	0	39	0	0	55	4465
2026-01-19 09:26:04.25	115.59	39.25	-42.0	-44.0	17.7	0.00e+00	0	39	0	0	55	4572
2026-01-19 09:26:05.24	115.31	39.45	-42.1	-44.2	17.6	0.00e+00	0	39	0	0	55	4668
2026-01-19 09:26:06.24	115.02	39.65	-42.0	-44.0	17.8	0.00e+00	0	39	0	0	55	4546
2026-01-19 09:26:07.23	114.72	39.85	-41.9	-43.9	17.9	0.00e+00	0	39	0	0	55	4514
2026-01-19 09:26:08.22	114.43	40.05	-41.8	-43.7	18.0	0.00e+00	0	39	0	0	55	4415
2026-01-19 09:26:09.22	114.13	40.25	-41.6	-43.4	18.2	0.00e+00	0	39	0	0	55	4283
2026-01-19 09:26:10.21	113.82	40.45	-41.8	-43.7	17.9	0.00e+00	0	39	0	0	55	4395
2026-01-19 09:26:11.20	113.52	40.65	-41.9	-43.8	17.7	0.00e+00	0	39	0	0	55	4490
2026-01-19 09:26:12.20	113.20	40.85	-42.1	-44.1	17.6	0.00e+00	0	39	0	0	55	4612
2026-01-19 09:26:13.19	112.89	41.06	-42.0	-43.9	17.8	0.00e+00	0	39	0	0	55	4537
2026-01-19 09:26:14.19	112.57	41.26	-42.1	-44.0	17.7	0.00e+00	0	39	0	0	55	4586
2026-01-19 09:26:15.18	112.25	41.46	-42.1	-44.1	17.6	0.00e+00	0	39	0	0	55	4609
2026-01-19 09:26:16.17	111.92	41.66	-42.1	-44.1	17.6	0.00e+00	0	39	0	0	55	4630
2026-01-19 09:26:17.17	111.59	41.86	-42.3	-44.2	17.3	0.00e+00	0	40	0	0	55	4702
2026-01-19 09:26:18.16	111.25	42.06	-42.5	-44.5	17.0	0.00e+00	0	39	0	0	55	4837
2026-01-19 09:26:19.15	110.91	42.27	-42.9	-45.1	16.5	0.00e+00	0	39	0	0	56	4871
2026-01-19 09:26:20.15	110.57	42.47	-43.0	-45.2	16.4	0.00e+00	0	39	0	0	56	4943
2026-01-19 09:26:21.14	110.22	42.67	-43.3	-45.5	16.3	0.00e+00	0	39	0	0	57	4830
2026-01-19 09:26:22.13	109.87	42.87	-43.2	-45.4	16.5	0.00e+00	0	39	0	0	57	4775
2026-01-19 09:26:23.13	109.51	43.07	-43.2	-45.3	16.6	0.00e+00	0	39	0	0	57	4740
2026-01-19 09:26:24.12	109.15	43.27	-43.1	-45.2	16.6	0.00e+00	0	39	0	0	57	4693
2026-01-19 09:26:25.12	108.78	43.48	-43.2	-45.4	16.5	0.00e+00	0	39	0	0	57	4788
2026-01-19 09:26:26.11	108.41	43.68	-43.0	-45.1	16.8	0.00e+00	0	39	0	0	57	4644
2026-01-19 09:26:27.10	108.03	43.88	-43.0	-45.1	16.7	0.00e+00	0	39	0	0	57	4627
2026-01-19 09:26:28.10	107.65	44.08	-43.2	-45.4	16.4	0.00e+00	0	39	0	0	57	4788
2026-01-19 09:26:29.09	107.27	44.28	-43.1	-45.2	16.6	0.00e+00	0	39	0	0	57	4692
2026-01-19 09:26:30.08	106.88	44.47	-43.0	-45.1	16.8	0.00e+00	0	39	0	0	57	4635
2026-01-19 09:26:31.08	106.48	44.67	-42.8	-44.9	17.0	0.00e+00	0	39	0	0	57	4529
2026-01-19 09:26:32.07	106.08	44.87	-42.6	-44.7	17.2	0.00e+00	0	39	0	0	57	4422
2026-01-19 09:26:33.06	105.68	45.07	-42.6	-44.7	17.1	0.00e+00	0	39	0	0	57	4429
2026-01-19 09:26:34.06	105.26	45.27	-42.5	-44.6	17.2	0.00e+00	0	39	0	0	57	4367
2026-01-19 09:26:35.05	104.85	45.46	-42.6	-44.6	17.2	0.00e+00	0	39	0	0	57	4379
2026-01-19 09:26:36.04	104.43	45.66	-42.6	-44.6	17.3	0.00e+00	0	39	0	0	57	4383
2026-01-19 09:26:37.04	104.00	45.85	-42.5	-44.5	17.4	0.00e+00	0	39	0	0	56	4555
2026-01-19 09:26:38.03	103.57	46.04	-42.4	-44.5	17.4	0.00e+00	0	39	0	0	56	4547
2026-01-19 09:26:39.02	103.14	46.24	-42.4	-44.4	17.4	0.00e+00	0	39	0	0	56	4527
2026-01-19 09:26:40.02	102.69	46.43	-42.4	-44.4	17.4	0.00e+00	0	39	0	0	56	4497
2026-01-19 09:26:41.01	102.25	46.62	-42.1	-44.1	17.7	0.00e+00	0	40	0	0	56	4368
2026-01-19 09:26:42.00	101.79	46.81	-42.3	-44.3	17.6	0.00e+00	0	39	0	0	56	4445
2026-01-19 09:26:42.99	101.34	47.00	-42.2	-44.1	17.7	0.00e+00	0	39	0	0	56	4379
2026-01-19 09:26:43.99	100.87	47.19	-42.3	-44.2	17.6	0.00e+00	0	39	0	0	56	4439
2026-01-19 09:26:44.98	100.40	47.37	-42.4	-44.4	17.5	0.00e+00	0	39	0	0	56	4521
2026-01-19 09:26:45.97	99.93	47.55	-42.4	-44.4	17.5	0.00e+00	0	39	0	0	56	4535
2026-01-19 09:26:46.97	99.45	47.74	-42.4	-44.4	17.6	0.00e+00	0	39	0	0	56	4522
2026-01-19 09:26:47.96	98.96	47.92	-42.3	-44.2	17.7	0.00e+00	0	39	0	0	56	4405
2026-01-19 09:26:48.95	98.47	48.10	-42.2	-44.1	17.8	0.00e+00	0	39	0	0	56	4385
2026-01-19 09:26:49.95	97.97	48.28	-42.5	-44.5	17.4	0.00e+00	0	39	0	0	56	4588
2026-01-19 09:26:50.94	97.47	48.46	-42.8	-45.0	17.0	0.00e+00	0	39	0	0	56	4824
2026-01-19 09:26:51.93	96.96	48.63	-42.8	-44.9	17.1	0.00e+00	0	40	0	0	56	4810
2026-01-19 09:26:52.93	96.44	48.81	-42.9	-45.0	17.0	0.00e+00	0	40	0	0	56	4851
2026-01-19 09:26:53.92	95.92	48.98	-42.8	-44.9	17.1	0.00e+00	0	40	0	0	56	4762
2026-01-19 09:26:54.92	95.39	49.15	-42.3	-44.3	17.6	0.00e+00	0	39	0	0	56	4471
2026-01-19 09:26:55.91	94.86	49.32	-42.2	-44.2	17.7	0.00e+00	0	39	0	0	56	4426
2026-01-19 09:26:56.91	94.32	49.48	-42.4	-44.4	17.5	0.00e+00	0	39	0	0	56	4533
2026-01-19 09:26:57.90	93.77	49.65	-42.5	-44.7	17.3	0.00e+00	0	39	0	0	56	4661
2026-01-19 09:26:58.90	93.22	49.81	-42.5	-44.5	17.5	0.00e+00	0	39	0	0	56	4595
2026-01-19 09:26:59.89	92.67	49.97	-42.4	-44.4	17.6	0.00e+00	0	39	0	0	56	4517
2026-01-19 09:27:00.88	92.11	50.12	-42.3	-44.3	17.7	0.00e+00	0	39	0	0	56	4444
2026-01-19 09:27:01.88	91.53	50.28	-42.3	-44.3	17.7	0.00e+00	0	39	0	0	56	4462
2026-01-19 09:27:02.87	90.96	50.43	-42.1	-44.1	17.9	0.00e+00	0	39	0	0	56	4382
2026-01-19 09:27:03.86	90.38	50.58	-41.5	-43.4	18.3	0.00e+00	0	39	0	0	55	4289
2026-01-19 09:27:04.86	89.80	50.73	-41.0	-42.8	18.9	0.00e+00	0	39	0	0	54	4222
2026-01-19 09:27:05.85	89.21	50.87	-40.7	-42.5	19.2	0.00e+00	0	39	0	0	53	4292
2026-01-19 09:27:06.84	88.61	51.01	-40.6	-42.4	19.2	0.00e+00	0	39	0	0	53	4251
2026-01-19 09:27:07.84	88.01	51.15	-40.9	-42.8	18.8	0.00e+00	0	39	0	0	53	4446
2026-01-19 09:27:08.83	87.40	51.28	-41.1	-43.0	18.6	0.00e+00	0	39	0	0	53	4568
2026-01-19 09:27:09.82	86.79	51.41	-41.3	-43.2	18.4	0.00e+00	0	39	0	0	53	4695
2026-01-19 09:27:10.82	86.17	51.54	-41.3	-43.2	18.4	0.00e+00	0	39	0	0	53	4663
2026-01-19 09:27:11.81	85.55	51.67	-41.3	-43.3	18.3	0.00e+00	0	39	0	0	53	4708
2026-01-19 09:27:12.80	84.92	51.79	-41.3	-43.3	18.2	0.00e+00	0	39	0	0	53	4713
2026-01-19 09:27:13.79	84.29	51.91	-41.6	-43.6	17.9	0.00e+00	0	39	0	0	53	4878
2026-01-19 09:27:14.79	83.64	52.03	-41.8	-43.8	17.7	0.00e+00	0	39	0	0	54	4717
2026-01-19 09:27:15.78	83.00	52.14	-41.6	-43.5	18.0	0.00e+00	0	39	0	0	54	4589
2026-01-19 09:27:16.77	82.36	52.25	-41.8	-43.7	17.9	0.00e+00	0	39	0	0	54	4693
2026-01-19 09:27:17.76	81.70	52.35	-41.8	-43.8	17.8	0.00e+00	0	39	0	0	54	4729
2026-01-19 09:27:18.76	81.04	52.45	-41.8	-43.8	17.7	0.00e+00	0	39	0	0	54	4720
2026-01-19 09:27:19.75	80.38	52.55	-41.4	-43.4	18.0	0.00e+00	0	39	0	0	54	4496
2026-01-19 09:27:20.75	79.71	52.65	-41.4	-43.3	18.1	0.00e+00	0	39	0	0	54	4482
2026-01-19 09:27:21.74	79.04	52.74	-41.4	-43.2	18.3	0.00e+00	0	39	0	0	54	4425
2026-01-19 09:27:22.73	78.37	52.82	-41.4	-43.2	18.4	0.00e+00	0	39	0	0	54	4413
2026-01-19 09:27:23.73	77.68	52.90	-41.5	-43.4	18.2	0.00e+00	0	39	0	0	54	4533
2026-01-19 09:27:24.72	77.00	52.98	-41.5	-43.4	18.3	0.00e+00	0	39	0	0	54	4512
2026-01-19 09:27:25.71	76.32	53.06	-41.2	-43.0	18.6	0.00e+00	0	39	0	0	54	4338
2026-01-19 09:27:26.71	75.63	53.13	-40.9	-42.7	18.9	0.00e+00	0	39	0	0	53	4395
2026-01-19 09:27:27.70	74.94	53.19	-40.6	-42.3	19.0	0.00e+00	0	39	0	0	53	4229
2026-01-19 09:27:28.69	74.24	53.25	-40.4	-42.1	19.2	0.00e+00	0	39	0	0	52	4348
2026-01-19 09:27:29.69	73.54	53.31	-40.9	-42.7	18.8	0.00e+00	0	39	0	0	52	4695
2026-01-19 09:27:30.68	72.84	53.36	-41.2	-43.1	18.4	0.00e+00	0	39	0	0	53	4607
2026-01-19 09:27:31.67	72.14	53.41	-41.4	-43.2	18.1	0.00e+00	0	39	0	0	53	4702
2026-01-19 09:27:32.67	71.43	53.46	-41.4	-43.3	17.9	0.00e+00	0	39	0	0	53	4716
2026-01-19 09:27:33.66	70.72	53.50	-41.3	-43.1	18.0	0.00e+00	0	39	0	0	53	4643
2026-01-19 09:27:34.66	70.01	53.53	-41.3	-43.2	18.1	0.00e+00	0	39	0	0	53	4667
2026-01-19 09:27:35.65	69.30	53.56	-41.1	-42.9	18.4	0.00e+00	0	39	0	0	53	4538
2026-01-19 09:27:36.64	68.59	53.59	-41.2	-43.0	18.5	0.00e+00	0	39	0	0	53	4590
2026-01-19 09:27:37.64	67.87	53.61	-41.5	-43.4	18.3	0.00e+00	0	39	0	0	53	4766
2026-01-19 09:27:38.63	67.16	53.63	-41.7	-43.6	18.1	0.00e+00	0	39	0	0	54	4634
2026-01-19 09:27:39.62	66.44	53.64	-41.5	-43.4	18.3	0.00e+00	0	39	0	0	54	4534
2026-01-19 09:27:40.62	65.72	53.65	-40.9	-42.7	18.9	0.00e+00	0	39	0	0	53	4419
2026-01-19 09:27:41.61	65.01	53.66	-40.9	-42.7	18.9	0.00e+00	0	39	0	0	53	4401
2026-01-19 09:27:42.60	64.29	53.65	-41.1	-42.9	18.7	0.00e+00	0	39	0	0	53	4543
2026-01-19 09:27:43.60	63.57	53.65	-41.3	-43.2	18.6	0.00e+00	0	39	0	0	53	4672
2026-01-19 09:27:44.59	62.86	53.64	-41.8	-43.7	18.1	0.00e+00	0	39	0	0	54	4676
2026-01-19 09:27:45.58	62.15	53.62	-41.6	-43.4	18.4	0.00e+00	0	39	0	0	54	4533
2026-01-19 09:27:46.58	61.43	53.61	-41.5	-43.4	18.4	0.00e+00	0	39	0	0	54	4517
2026-01-19 09:27:47.57	60.72	53.58	-41.8	-43.7	18.0	0.00e+00	0	39	0	0	54	4688
2026-01-19 09:27:48.56	60.01	53.55	-41.6	-43.6	18.2	0.00e+00	0	39	0	0	54	4599
2026-01-19 09:27:49.56	59.29	53.52	-41.8	-43.8	18.1	0.00e+00	0	39	0	0	54	4711
2026-01-19 09:27:50.55	58.58	53.49	-42.0	-43.9	17.9	0.00e+00	0	39	0	0	54	4785
2026-01-19 09:27:51.54	57.88	53.44	-42.0	-44.0	17.9	0.00e+00	0	39	0	0	54	4846
2026-01-19 09:27:52.53	57.18	53.40	-41.6	-43.5	18.4	0.00e+00	0	39	0	0	54	4566
2026-01-19 09:27:53.53	56.47	53.35	-41.0	-42.8	19.0	0.00e+00	0	39	0	0	54	4210
2026-01-19 09:27:54.52	55.77	53.29	-40.9	-42.7	19.0	0.00e+00	0	39	0	0	53	4410
2026-01-19 09:27:55.51	55.08	53.24	-41.1	-42.9	18.8	0.00e+00	0	39	0	0	53	4518
2026-01-19 09:27:56.51	54.38	53.17	-41.7	-43.7	18.0	0.00e+00	0	39	0	0	54	4656
2026-01-19 09:27:57.50	53.69	53.11	-42.2	-44.2	17.4	0.00e+00	0	39	0	0	55	4699
2026-01-19 09:27:58.49	53.00	53.03	-41.9	-43.9	17.8	0.00e+00	0	39	0	0	55	4504
2026-01-19 09:27:59.49	52.31	52.96	-41.9	-43.9	17.7	0.00e+00	0	39	0	0	55	4515
2026-01-19 09:28:00.48	51.64	52.88	-41.6	-43.5	18.2	0.00e+00	0	40	0	0	55	4325
2026-01-19 09:28:01.48	50.95	52.80	-41.4	-43.3	18.4	0.00e+00	0	39	0	0	54	4449
2026-01-19 09:28:02.47	50.28	52.71	-41.5	-43.4	18.3	0.00e+00	0	39	0	0	54	4529
2026-01-19 09:28:03.47	49.61	52.62	-41.8	-43.7	18.0	0.00e+00	0	39	0	0	54	4690
2026-01-19 09:28:04.46	48.95	52.52	-41.5	-43.4	18.3	0.00e+00	0	39	0	0	54	4498
2026-01-19 09:28:05.45	48.29	52.42	-40.8	-42.6	19.0	0.00e+00	0	39	0	0	53	4378
2026-01-19 09:28:06.44	47.64	52.32	-40.5	-42.2	19.3	0.00e+00	0	39	0	0	52	4429
2026-01-19 09:28:07.44	46.98	52.21	-40.6	-42.3	19.1	0.00e+00	0	39	0	0	52	4488
2026-01-19 09:28:08.43	46.34	52.11	-41.0	-42.8	18.7	0.00e+00	0	39	0	0	52	4723
2026-01-19 09:28:09.42	45.70	51.99	-41.4	-43.3	18.2	0.00e+00	0	39	0	0	53	4714
2026-01-19 09:28:10.41	45.06	51.88	-41.4	-43.3	18.1	0.00e+00	0	39	0	0	53	4733
2026-01-19 09:28:11.41	44.43	51.76	-41.2	-43.0	18.4	0.00e+00	0	39	0	0	53	4573
2026-01-19 09:28:12.40	43.80	51.63	-41.0	-42.8	18.7	0.00e+00	0	39	0	0	53	4464
2026-01-19 09:28:13.40	43.18	51.51	-40.8	-42.5	19.0	0.00e+00	0	39	0	0	53	4327
2026-01-19 09:28:14.39	42.56	51.38	-41.1	-42.9	18.7	0.00e+00	0	39	0	0	52	4760
2026-01-19 09:28:15.38	41.96	51.24	-42.1	-44.0	17.5	0.00e+00	0	39	0	0	54	4861
2026-01-19 09:28:16.37	41.35	51.11	-42.5	-44.6	17.0	0.00e+00	0	39	0	0	55	4905
2026-01-19 09:28:17.37	40.75	50.97	-42.2	-44.2	17.3	0.00e+00	0	39	0	0	55	4668
2026-01-19 09:28:18.36	40.16	50.83	-41.4	-43.2	18.2	0.00e+00	0	39	0	0	54	4439
2026-01-19 09:28:19.35	39.57	50.68	-40.5	-42.2	19.2	0.00e+00	0	39	0	0	53	4192
2026-01-19 09:28:20.35	38.99	50.54	-40.4	-42.2	19.4	0.00e+00	0	39	0	0	52	4397
2026-01-19 09:28:21.34	38.41	50.39	-41.5	-43.3	18.2	0.00e+00	0	39	0	0	53	4758
2026-01-19 09:28:22.33	37.84	50.24	-43.1	-45.3	16.6	0.00e+00	0	39	0	0	56	4994
2026-01-19 09:28:23.33	37.27	50.08	-43.5	-45.8	16.1	0.00e+00	0	39	0	0	57	5031
2026-01-19 09:28:24.32	36.72	49.92	-42.8	-44.9	16.8	0.00e+00	0	39	0	0	57	4532
2026-01-19 09:28:25.31	36.17	49.76	-42.2	-44.2	17.5	0.00e+00	0	39	0	0	56	4420
2026-01-19 09:28:26.30	35.62	49.60	-41.7	-43.6	18.0	0.00e+00	0	39	0	0	55	4379
2026-01-19 09:28:27.30	35.08	49.44	-41.6	-43.5	18.2	0.00e+00	0	39	0	0	55	4311
2026-01-19 09:28:28.29	34.54	49.27	-42.2	-44.2	17.6	0.00e+00	0	39	0	0	55	4674
2026-01-19 09:28:29.28	34.01	49.11	-42.9	-45.0	16.9	0.00e+00	0	39	0	0	56	4862
2026-01-19 09:28:30.28	33.49	48.93	-42.9	-45.1	16.9	0.00e+00	0	39	0	0	57	4602
2026-01-19 09:28:31.27	32.97	48.76	-42.4	-44.5	17.5	0.00e+00	0	39	0	0	56	4555
2026-01-19 09:28:32.26	32.46	48.59	-42.1	-44.1	17.7	0.00e+00	0	39	0	0	56	4382
2026-01-19 09:28:33.26	31.95	48.41	-42.2	-44.3	17.5	0.00e+00	0	39	0	0	56	4449
2026-01-19 09:28:34.25	31.45	48.24	-42.5	-44.5	17.3	0.00e+00	0	39	0	0	56	4583
2026-01-19 09:28:35.24	30.96	48.06	-43.0	-45.2	16.8	0.00e+00	0	39	0	0	56	4945
2026-01-19 09:28:36.23	30.47	47.88	-43.6	-45.8	16.2	0.00e+00	0	39	0	0	57	5039
2026-01-19 09:28:37.23	29.98	47.70	-43.9	-46.3	15.7	0.00e+00	0	39	0	0	58	5010
2026-01-19 09:28:38.22	29.51	47.51	-43.4	-45.6	16.2	0.00e+00	0	39	0	0	58	4618
2026-01-19 09:28:39.21	29.03	47.33	-42.3	-44.3	17.3	0.00e+00	0	39	0	0	56	4473
2026-01-19 09:28:40.21	28.56	47.14	-41.4	-43.3	18.3	0.00e+00	0	39	0	0	54	4456
2026-01-19 09:28:41.20	28.11	46.96	-41.1	-42.9	18.6	0.00e+00	0	39	0	0	54	4271
2026-01-19 09:28:42.19	27.65	46.77	-41.5	-43.3	18.4	0.00e+00	0	39	0	0	54	4483
2026-01-19 09:28:43.19	27.20	46.58	-42.4	-44.4	17.5	0.00e+00	0	39	0	0	55	4786
2026-01-19 09:28:44.18	26.76	46.39	-43.6	-45.8	16.2	0.00e+00	0	39	0	0	57	5026
2026-01-19 09:28:45.17	26.32	46.20	-44.0	-46.4	15.5	0.00e+00	0	39	0	0	58	5098
2026-01-19 09:28:46.17	25.88	46.01	-43.6	-45.9	15.8	0.00e+00	0	39	0	0	58	4797
2026-01-19 09:28:47.16	25.45	45.81	-42.9	-45.0	16.5	0.00e+00	0	39	0	0	57	4560
2026-01-19 09:28:48.15	25.03	45.62	-42.1	-44.1	17.4	0.00e+00	0	39	0	0	56	4357
2026-01-19 09:28:49.14	24.62	45.43	-41.7	-43.6	17.9	0.00e+00	0	39	0	0	55	4380
2026-01-19 09:28:50.14	24.20	45.23	-41.5	-43.4	18.2	0.00e+00	0	39	0	0	55	4271
2026-01-19 09:28:51.13	23.79	45.03	-42.3	-44.3	17.4	0.00e+00	0	39	0	0	55	4737
2026-01-19 09:28:52.12	23.39	44.84	-43.5	-45.8	16.2	0.00e+00	0	39	0	0	57	5032
2026-01-19 09:28:53.12	22.99	44.64	-44.3	-46.8	15.3	0.00e+00	0	39	0	0	59	5012
2026-01-19 09:28:54.11	22.60	44.44	-44.3	-46.9	15.2	0.00e+00	0	39	0	0	59	5042
2026-01-19 09:28:55.10	22.21	44.24	-43.5	-45.7	16.2	0.00e+00	0	39	0	0	58	4683
2026-01-19 09:28:56.10	21.83	44.04	-42.8	-44.8	17.0	0.00e+00	0	39	0	0	57	4489
2026-01-19 09:28:57.09	21.45	43.84	-42.1	-44.0	17.8	0.00e+00	0	39	0	0	56	4340
2026-01-19 09:28:58.08	21.08	43.65	-41.5	-43.4	18.3	0.00e+00	0	39	0	0	55	4250
2026-01-19 09:28:59.08	20.71	43.44	-41.3	-43.2	18.6	0.00e+00	0	39	0	0	54	4394
2026-01-19 09:29:00.07	20.34	43.25	-41.1	-42.9	18.9	0.00e+00	0	39	0	0	54	4244
2026-01-19 09:29:01.06	19.99	43.05	-41.9	-43.8	18.0	0.00e+00	0	39	0	0	54	4757
2026-01-19 09:29:02.06	19.63	42.84	-43.1	-45.2	16.9	0.00e+00	0	39	0	0	56	4960
2026-01-19 09:29:03.05	19.28	42.64	-43.2	-45.4	16.5	0.00e+00	0	39	0	0	57	4800
2026-01-19 09:29:04.05	18.93	42.44	-42.6	-44.6	17.0	0.00e+00	0	39	0	0	57	4375
2026-01-19 09:29:05.04	18.59	42.24	-41.8	-43.7	17.6	0.00e+00	0	39	0	0	55	4432
2026-01-19 09:29:06.03	18.25	42.04	-41.6	-43.5	17.9	0.00e+00	0	39	0	0	55	4331
2026-01-19 09:29:07.03	17.92	41.84	-41.7	-43.6	17.9	0.00e+00	0	39	0	0	55	4360
2026-01-19 09:29:08.02	17.59	41.64	-42.3	-44.3	17.3	0.00e+00	0	39	0	0	55	4745
2026-01-19 09:29:09.01	17.27	41.44	-43.0	-45.1	16.8	0.00e+00	0	39	0	0	56	4887
2026-01-19 09:29:10.01	16.94	41.24	-43.0	-45.2	16.7	0.00e+00	0	39	0	0	56	4936
2026-01-19 09:29:11.00	16.63	41.04	-43.2	-45.4	16.5	0.00e+00	0	39	0	0	57	4787
2026-01-19 09:29:11.99	16.31	40.84	-43.5	-45.7	16.2	0.00e+00	0	39	0	0	57	4976
2026-01-19 09:29:12.98	16.01	40.64	-43.6	-46.0	16.1	0.00e+00	0	39	0	0	58	4817
2026-01-19 09:29:13.98	15.70	40.43	-43.1	-45.4	16.7	0.00e+00	0	39	0	0	58	4505
2026-01-19 09:29:14.97	15.40	40.24	-42.6	-44.7	17.3	0.00e+00	0	39	0	0	57	4441
2026-01-19 09:29:15.96	15.10	40.04	-42.1	-44.1	17.8	0.00e+00	0	39	0	0	56	4350
2026-01-19 09:29:16.96	14.81	39.84	-41.6	-43.5	18.2	0.00e+00	0	39	0	0	55	4322
2026-01-19 09:29:17.95	14.52	39.64	-41.7	-43.6	18.1	0.00e+00	0	39	0	0	55	4372
2026-01-19 09:29:18.94	14.23	39.44	-41.6	-43.5	18.3	0.00e+00	0	39	0	0	55	4303
2026-01-19 09:29:19.94	13.95	39.24	-42.0	-43.9	17.8	0.00e+00	0	39	0	0	55	4528
2026-01-19 09:29:20.93	13.67	39.04	-42.4	-44.4	17.5	0.00e+00	0	39	0	0	55	4790
2026-01-19 09:29:21.92	13.39	38.84	-43.1	-45.3	16.6	0.00e+00	0	39	0	0	57	4743
2026-01-19 09:29:22.91	13.12	38.65	-43.3	-45.6	16.2	0.00e+00	0	39	0	0	57	4877
2026-01-19 09:29:23.91	12.85	38.45	-43.2	-45.5	16.2	0.00e+00	0	39	0	0	57	4819
2026-01-19 09:29:24.90	12.58	38.25	-42.7	-44.8	16.9	0.00e+00	0	39	0	0	57	4470
2026-01-19 09:29:25.89	12.32	38.06	-42.7	-44.8	17.0	0.00e+00	0	39	0	0	57	4471
2026-01-19 09:29:26.89	12.06	37.86	-42.6	-44.7	17.2	0.00e+00	0	39	0	0	57	4414
2026-01-19 09:29:27.88	11.80	37.66	-42.4	-44.5	17.3	0.00e+00	0	39	0	0	56	4574
2026-01-19 09:29:28.87	11.55	37.47	-42.3	-44.4	17.4	0.00e+00	0	39	0	0	56	4512
2026-01-19 09:29:29.86	11.30	37.28	-42.3	-44.3	17.4	0.00e+00	0	39	0	0	56	4476
2026-01-19 09:29:30.86	11.05	37.08	-41.7	-43.7	17.9	0.00e+00	0	39	0	0	55	4403
2026-01-19 09:29:31.85	10.80	36.89	-41.5	-43.4	18.2	0.00e+00	0	39	0	0	55	4281
2026-01-19 09:29:32.85	10.56	36.70	-41.7	-43.7	18.0	0.00e+00	0	39	0	0	55	4395
2026-01-19 09:29:33.84	10.32	36.50	-42.0	-44.0	17.7	0.00e+00	0	39	0	0	55	4582
2026-01-19 09:29:34.83	10.09	36.31	-42.3	-44.3	17.4	0.00e+00	0	39	0	0	55	4759
2026-01-19 09:29:35.83	9.85	36.12	-42.2	-44.2	17.4	0.00e+00	0	39	0	0	55	4702
2026-01-19 09:29:36.82	9.62	35.93	-41.8	-43.7	17.8	0.00e+00	0	39	0	0	55	4424
2026-01-19 09:29:37.81	9.39	35.74	-41.4	-43.3	18.1	0.00e+00	0	39	0	0	54	4474
2026-01-19 09:29:38.81	9.17	35.55	-41.2	-43.1	18.3	0.00e+00	0	39	0	0	54	4359
2026-01-19 09:29:39.80	8.95	35.36	-41.1	-42.9	18.6	0.00e+00	0	39	0	0	54	4260
2026-01-19 09:29:40.79	8.73	35.18	-41.0	-42.9	18.8	0.00e+00	0	39	0	0	54	4248
2026-01-19 09:29:41.78	8.51	34.99	-41.1	-43.0	18.7	0.00e+00	0	39	0	0	53	4560
2026-01-19 09:29:42.78	8.29	34.80	-41.4	-43.3	18.4	0.00e+00	0	39	0	0	53	4748
2026-01-19 09:29:43.77	8.08	34.62	-41.8	-43.8	18.1	0.00e+00	0	39	0	0	54	4713
2026-01-19 09:29:44.77	7.87	34.43	-41.9	-43.9	17.9	0.00e+00	0	39	0	0	54	4778
2026-01-19 09:29:45.76	7.66	34.25	-41.8	-43.9	17.9	0.00e+00	0	39	0	0	54	4781
2026-01-19 09:29:46.75	7.46	34.06	-41.6	-43.6	18.2	0.00e+00	0	39	0	0	54	4608
2026-01-19 09:29:47.75	7.25	33.88	-41.2	-43.2	18.6	0.00e+00	0	40	0	0	54	4398
2026-01-19 09:29:48.74	7.05	33.69	-41.0	-42.9	18.8	0.00e+00	0	39	0	0	54	4270
2026-01-19 09:29:49.73	6.86	33.51	-40.9	-42.8	18.9	0.00e+00	0	39	0	0	53	4447
2026-01-19 09:29:50.73	6.66	33.33	-40.9	-42.7	19.0	0.00e+00	0	39	0	0	53	4420
2026-01-19 09:29:51.72	6.47	33.15	-40.8	-42.7	19.0	0.00e+00	0	39	0	0	53	4397
2026-01-19 09:29:52.71	6.28	32.97	-40.9	-42.7	18.9	0.00e+00	0	39	0	0	53	4421
2026-01-19 09:29:53.71	6.08	32.79	-40.9	-42.7	18.9	0.00e+00	0	39	0	0	53	4417
2026-01-19 09:29:54.70	5.90	32.61	-40.6	-42.4	19.2	0.00e+00	0	39	0	0	53	4278
2026-01-19 09:29:55.69	5.71	32.44	-40.7	-42.5	19.2	0.00e+00	0	39	0	0	53	4310
2026-01-19 09:29:56.69	5.53	32.26	-40.7	-42.5	19.1	0.00e+00	0	39	0	0	53	4331
2026-01-19 09:29:57.68	5.35	32.08	-40.7	-42.5	19.2	0.00e+00	0	39	0	0	53	4328
2026-01-19 09:29:58.67	5.17	31.91	-40.6	-42.4	19.3	0.00e+00	0	39	0	0	53	4246
2026-01-19 09:29:59.67	4.99	31.73	-40.4	-42.2	19.4	0.00e+00	0	39	0	0	52	4439
2026-01-19 09:30:00.66	4.82	31.56	-40.4	-42.2	19.4	0.00e+00	0	39	0	0	52	4419
2026-01-19 09:30:01.65	4.64	31.38	-40.4	-42.2	19.3	0.00e+00	0	39	0	0	52	4428
2026-01-19 09:30:02.65	4.47	31.21	-40.2	-42.0	19.4	0.00e+00	0	39	0	0	52	4325
2026-01-19 09:30:03.64	4.30	31.04	-40.1	-41.9	19.5	0.00e+00	0	39	0	0	52	4243
2026-01-19 09:30:04.64	4.13	30.87	-40.0	-41.8	19.6	0.00e+00	0	39	0	0	52	4201
2026-01-19 09:30:05.63	3.97	30.70	-39.8	-41.5	19.8	0.00e+00	0	39	0	0	51	4333
2026-01-19 09:30:06.62	3.80	30.53	-39.8	-41.5	19.9	0.00e+00	0	39	0	0	51	4293
2026-01-19 09:30:07.61	3.64	30.36	-39.9	-41.7	19.7	0.00e+00	0	39	0	0	51	4395
2026-01-19 09:30:08.60	3.48	30.19	-39.9	-41.6	19.7	0.00e+00	0	39	0	0	51	4374
2026-01-19 09:30:09.60	3.32	30.02	-40.2	-41.9	19.5	0.00e+00	0	39	0	0	51	4542
2026-01-19 09:30:10.59	3.16	29.86	-40.5	-42.3	19.3	0.00e+00	0	39	0	0	51	4706
2026-01-19 09:30:11.58	3.01	29.69	-40.5	-42.3	19.3	0.00e+00	0	39	0	0	51	4732
2026-01-19 09:30:12.58	2.85	29.52	-40.7	-42.5	19.1	0.00e+00	0	39	0	0	51	4829
2026-01-19 09:30:13.57	2.70	29.36	-40.7	-42.5	19.1	0.00e+00	0	39	0	0	52	4554
2026-01-19 09:30:14.57	2.55	29.19	-40.7	-42.5	19.1	0.00e+00	0	39	0	0	52	4557
2026-01-19 09:30:15.56	2.40	29.03	-40.7	-42.5	19.1	0.00e+00	0	39	0	0	52	4583
2026-01-19 09:30:16.55	2.25	28.87	-40.6	-42.4	19.1	0.00e+00	0	39	0	0	52	4507
2026-01-19 09:30:17.55	2.10	28.71	-40.5	-42.3	19.2	0.00e+00	0	39	0	0	52	4477
2026-01-19 09:30:18.54	1.96	28.55	-40.5	-42.3	19.2	0.00e+00	0	39	0	0	52	4448
2026-01-19 09:30:19.53	1.82	28.39	-40.3	-42.1	19.3	0.00e+00	0	39	0	0	52	4370
2026-01-19 09:30:20.53	1.67	28.23	-40.2	-41.9	19.4	0.00e+00	0	39	0	0	52	4270
2026-01-19 09:30:21.52	1.53	28.07	-40.2	-41.9	19.4	0.00e+00	0	39	0	0	52	4275
2026-01-19 09:30:22.51	1.39	27.91	-40.1	-41.9	19.5	0.00e+00	0	39	0	0	52	4244
2026-01-19 09:30:23.50	1.26	27.75	-39.9	-41.6	19.8	0.00e+00	0	39	0	0	51	4350
2026-01-19 09:30:24.50	1.12	27.60	-39.7	-41.4	19.9	0.00e+00	0	39	0	0	51	4257
2026-01-19 09:30:25.49	0.98	27.44	-39.5	-41.2	20.2	0.00e+00	0	39	0	0	51	4164
2026-01-19 09:30:26.49	0.85	27.28	-39.4	-41.1	20.3	0.00e+00	0	39	0	0	50	4358
2026-01-19 09:30:27.48	0.72	27.13	-39.6	-41.2	20.3	0.00e+00	0	39	0	0	50	4433
2026-01-19 09:30:28.47	0.59	26.98	-39.4	-41.0	20.5	0.00e+00	0	39	0	0	50	4316
2026-01-19 09:30:29.47	0.46	26.82	-39.3	-41.0	20.5	0.00e+00	0	39	0	0	50	4302
2026-01-19 09:30:30.46	0.33	26.67	-39.4	-41.1	20.5	0.00e+00	0	39	0	0	50	4346
2026-01-19 09:30:31.45	0.20	26.52	-39.4	-41.0	20.4	0.00e+00	0	39	0	0	50	4336
2026-01-19 09:30:32.45	0.08	26.37	-39.3	-40.9	20.6	0.00e+00	0	39	0	0	50	4274
2026-01-19 09:30:33.44	359.95	26.22	-39.4	-41.1	20.4	0.00e+00	0	39	0	0	50	4364
2026-01-19 09:30:34.43	359.83	26.07	-39.6	-41.2	20.3	0.00e+00	0	39	0	0	50	4424
2026-01-19 09:30:35.43	359.71	25.92	-39.6	-41.3	20.3	0.00e+00	0	39	0	0	50	4445
2026-01-19 09:30:36.42	359.58	25.77	-39.7	-41.4	20.2	0.00e+00	0	39	0	0	50	4509
2026-01-19 09:30:37.42	359.46	25.62	-39.8	-41.5	20.1	0.00e+00	0	39	0	0	50	4559
2026-01-19 09:30:38.41	359.34	25.47	-39.9	-41.6	20.0	0.00e+00	0	39	0	0	50	4622
2026-01-19 09:30:39.40	359.23	25.33	-39.9	-41.6	20.0	0.00e+00	0	39	0	0	50	4626
2026-01-19 09:30:40.40	359.11	25.18	-39.9	-41.7	19.9	0.00e+00	0	39	0	0	50	4660
2026-01-19 09:30:41.39	359.00	25.04	-40.0	-41.7	19.9	0.00e+00	0	39	0	0	50	4696
2026-01-19 09:30:42.39	358.88	24.89	-40.0	-41.8	19.8	0.00e+00	0	39	0	0	50	4726
2026-01-19 09:30:43.38	358.77	24.75	-40.2	-41.9	19.7	0.00e+00	0	39	0	0	51	4524
2026-01-19 09:30:44.37	358.65	24.61	-40.3	-42.0	19.6	0.00e+00	0	39	0	0	51	4588
2026-01-19 09:30:45.37	358.54	24.46	-40.4	-42.2	19.4	0.00e+00	0	39	0	0	51	4683
2026-01-19 09:30:46.36	358.43	24.32	-40.4	-42.2	19.4	0.00e+00	0	39	0	0	51	4676
2026-01-19 09:30:47.36	358.32	24.18	-40.5	-42.3	19.3	0.00e+00	0	39	0	0	51	4717
2026-01-19 09:30:48.35	358.22	24.04	-40.4	-42.2	19.3	0.00e+00	0	39	0	0	51	4698
2026-01-19 09:30:49.34	358.11	23.90	-40.3	-42.1	19.4	0.00e+00	0	39	0	0	51	4649
2026-01-19 09:30:50.34	358.00	23.76	-40.3	-42.1	19.3	0.00e+00	0	39	0	0	51	4641
2026-01-19 09:30:51.33	357.90	23.62	-40.3	-42.2	19.3	0.00e+00	0	39	0	0	51	4655
2026-01-19 09:30:52.32	357.79	23.48	-40.1	-41.9	19.5	0.00e+00	0	39	0	0	51	4539
2026-01-19 09:30:53.32	357.69	23.35	-40.0	-41.8	19.5	0.00e+00	0	39	0	0	51	4483
2026-01-19 09:30:54.31	357.59	23.21	-40.0	-41.8	19.6	0.00e+00	0	39	0	0	51	4456
2026-01-19 09:30:55.30	357.49	23.07	-39.9	-41.7	19.7	0.00e+00	0	39	0	0	51	4402
2026-01-19 09:30:56.30	357.38	22.94	-40.0	-41.7	19.6	0.00e+00	0	39	0	0	51	4425
2026-01-19 09:30:57.29	357.28	22.80	-40.0	-41.7	19.7	0.00e+00	0	39	0	0	51	4409
2026-01-19 09:30:58.28	357.19	22.67	-40.1	-41.9	19.6	0.00e+00	0	39	0	0	51	4504
2026-01-19 09:30:59.27	357.09	22.54	-40.0	-41.7	19.7	0.00e+00	0	39	0	0	51	4433
2026-01-19 09:31:00.27	356.99	22.40	-40.0	-41.7	19.7	0.00e+00	0	39	0	0	51	4411
2026-01-19 09:31:01.26	356.89	22.27	-39.9	-41.6	19.8	0.00e+00	0	39	0	0	51	4383
2026-01-19 09:31:02.25	356.80	22.14	-39.9	-41.6	19.9	0.00e+00	0	39	0	0	51	4367
2026-01-19 09:31:03.25	356.70	22.01	-40.0	-41.8	19.7	0.00e+00	0	39	0	0	51	4449
2026-01-19 09:31:04.24	356.61	21.88	-39.9	-41.6	19.9	0.00e+00	0	39	0	0	51	4378
2026-01-19 09:31:05.23	356.52	21.75	-40.0	-41.7	19.8	0.00e+00	0	39	0	0	51	4424
2026-01-19 09:31:06.23	356.43	21.62	-40.0	-41.7	19.9	0.00e+00	0	39	0	0	51	4408
2026-01-19 09:31:07.22	356.33	21.49	-40.1	-41.8	19.7	0.00e+00	0	39	0	0	51	4486
2026-01-19 09:31:08.21	356.24	21.36	-39.9	-41.7	19.9	0.00e+00	0	39	0	0	51	4404
2026-01-19 09:31:09.21	356.15	21.23	-39.9	-41.6	19.9	0.00e+00	0	39	0	0	51	4362
2026-01-19 09:31:10.20	356.07	21.11	-39.9	-41.6	19.9	0.00e+00	0	39	0	0	51	4362
2026-01-19 09:31:11.19	355.98	20.98	-39.9	-41.6	19.9	0.00e+00	0	40	0	0	51	4388
2026-01-19 09:31:12.18	355.89	20.85	-39.9	-41.6	19.9	0.00e+00	0	39	0	0	51	4355
2026-01-19 09:31:13.18	355.80	20.73	-39.9	-41.7	19.9	0.00e+00	0	39	0	0	51	4396
2026-01-19 09:31:14.17	355.72	20.60	-39.9	-41.6	19.9	0.00e+00	0	39	0	0	51	4381
2026-01-19 09:31:15.16	355.63	20.48	-39.9	-41.6	19.9	0.00e+00	0	39	0	0	51	4373
2026-01-19 09:31:16.16	355.55	20.35	-40.0	-41.7	19.8	0.00e+00	0	39	0	0	51	4416
2026-01-19 09:31:17.15	355.46	20.23	-39.9	-41.6	19.8	0.00e+00	0	39	0	0	51	4390
2026-01-19 09:31:18.14	355.38	20.11	-39.9	-41.6	19.8	0.00e+00	0	39	0	0	51	4369
2026-01-19 09:31:19.14	355.30	19.99	-39.9	-41.7	19.8	0.00e+00	0	39	0	0	51	4394
2026-01-19 09:31:20.13	355.22	19.86	-40.0	-41.7	19.7	0.00e+00	0	39	0	0	51	4425
2026-01-19 09:31:21.13	355.13	19.74	-40.0	-41.7	19.7	0.00e+00	0	39	0	0	51	4436
2026-01-19 09:31:22.12	355.05	19.62	-40.0	-41.8	19.6	0.00e+00	0	39	0	0	51	4444
2026-01-19 09:31:23.11	354.97	19.50	-40.0	-41.8	19.6	0.00e+00	0	39	0	0	51	4443
2026-01-19 09:31:24.11	354.90	19.38	-40.0	-41.8	19.5	0.00e+00	0	39	0	0	51	4487
2026-01-19 09:31:25.10	354.82	19.26	-39.9	-41.7	19.6	0.00e+00	0	39	0	0	51	4437
2026-01-19 09:31:26.10	354.74	19.14	-39.9	-41.7	19.6	0.00e+00	0	39	0	0	51	4441
2026-01-19 09:31:27.09	354.66	19.03	-40.0	-41.8	19.5	0.00e+00	0	39	0	0	51	4463
2026-01-19 09:31:28.08	354.59	18.91	-40.0	-41.9	19.4	0.00e+00	0	39	0	0	51	4502
2026-01-19 09:31:29.08	354.51	18.79	-40.0	-41.8	19.5	0.00e+00	0	39	0	0	51	4493
2026-01-19 09:31:30.07	354.43	18.68	-40.0	-41.8	19.5	0.00e+00	0	39	0	0	51	4445
2026-01-19 09:31:31.06	354.36	18.56	-40.0	-41.8	19.5	0.00e+00	0	39	0	0	51	4477
2026-01-19 09:31:32.05	354.28	18.45	-40.0	-41.8	19.5	0.00e+00	0	39	0	0	51	4477
2026-01-19 09:31:33.05	354.21	18.33	-40.0	-41.8	19.5	0.00e+00	0	39	0	0	51	4482
2026-01-19 09:31:34.04	354.14	18.22	-40.0	-41.8	19.5	0.00e+00	0	39	0	0	51	4481
2026-01-19 09:31:35.03	354.07	18.10	-40.0	-41.9	19.5	0.00e+00	0	39	0	0	51	4496
2026-01-19 09:31:36.03	353.99	17.99	-39.9	-41.7	19.6	0.00e+00	0	39	0	0	51	4400
2026-01-19 09:31:37.02	353.92	17.87	-39.8	-41.6	19.7	0.00e+00	0	39	0	0	51	4380
2026-01-19 09:31:38.01	353.85	17.76	-39.9	-41.7	19.6	0.00e+00	0	39	0	0	51	4424
2026-01-19 09:31:39.01	353.78	17.65	-39.9	-41.7	19.7	0.00e+00	0	39	0	0	51	4414
2026-01-19 09:31:40.00	353.71	17.54	-40.0	-41.8	19.6	0.00e+00	0	39	0	0	51	4474
2026-01-19 09:31:40.99	353.64	17.43	-40.0	-41.8	19.6	0.00e+00	0	39	0	0	51	4462
2026-01-19 09:31:41.99	353.57	17.32	-40.1	-41.9	19.5	0.00e+00	0	39	0	0	51	4516
2026-01-19 09:31:42.98	353.51	17.21	-40.1	-41.9	19.5	0.00e+00	0	39	0	0	51	4543
2026-01-19 09:31:43.97	353.44	17.10	-40.2	-41.9	19.5	0.00e+00	0	39	0	0	51	4540
2026-01-19 09:31:44.97	353.37	16.99	-40.3	-42.0	19.4	0.00e+00	0	39	0	0	51	4597
2026-01-19 09:31:45.96	353.30	16.88	-40.4	-42.2	19.3	0.00e+00	0	39	0	0	51	4677
2026-01-19 09:31:46.95	353.24	16.77	-40.4	-42.3	19.2	0.00e+00	0	39	0	0	51	4707
2026-01-19 09:31:47.94	353.17	16.66	-40.5	-42.3	19.2	0.00e+00	0	39	0	0	51	4746
2026-01-19 09:31:48.94	353.11	16.55	-40.5	-42.3	19.1	0.00e+00	0	39	0	0	51	4757
2026-01-19 09:31:49.93	353.04	16.45	-40.6	-42.5	19.0	0.00e+00	0	39	0	0	51	4816
2026-01-19 09:31:50.92	352.98	16.34	-40.7	-42.6	18.9	0.00e+00	0	39	0	0	52	4611
2026-01-19 09:31:51.91	352.92	16.23	-40.5	-42.4	19.1	0.00e+00	0	39	0	0	52	4501
2026-01-19 09:31:52.91	352.85	16.13	-40.6	-42.5	19.0	0.00e+00	0	39	0	0	52	4557
2026-01-19 09:31:53.90	352.79	16.02	-40.6	-42.6	18.9	0.00e+00	0	39	0	0	52	4601
2026-01-19 09:31:54.89	352.73	15.92	-40.7	-42.7	18.8	0.00e+00	0	39	0	0	52	4673
2026-01-19 09:31:55.89	352.67	15.81	-40.8	-42.7	18.8	0.00e+00	0	39	0	0	52	4667
2026-01-19 09:31:56.88	352.61	15.71	-40.8	-42.8	18.7	0.00e+00	0	39	0	0	52	4725
2026-01-19 09:31:57.87	352.55	15.60	-40.9	-42.8	18.6	0.00e+00	0	39	0	0	52	4747
2026-01-19 09:31:58.87	352.48	15.50	-40.9	-42.9	18.6	0.00e+00	0	39	0	0	52	4771
2026-01-19 09:31:59.86	352.42	15.40	-40.8	-42.8	18.7	0.00e+00	0	39	0	0	52	4708
2026-01-19 09:32:00.85	352.37	15.29	-41.0	-42.9	18.6	0.00e+00	0	39	0	0	52	4790
2026-01-19 09:32:01.85	352.31	15.19	-40.9	-42.8	18.6	0.00e+00	0	39	0	0	52	4741
2026-01-19 09:32:02.84	352.25	15.09	-40.8	-42.8	18.7	0.00e+00	0	39	0	0	52	4714
2026-01-19 09:32:03.83	352.19	14.99	-40.8	-42.7	18.7	0.00e+00	0	39	0	0	52	4699
2026-01-19 09:32:04.83	352.13	14.89	-40.8	-42.7	18.7	0.00e+00	0	39	0	0	52	4702
2026-01-19 09:32:05.82	352.07	14.79	-40.8	-42.8	18.6	0.00e+00	0	39	0	0	52	4731
2026-01-19 09:32:06.82	352.02	14.69	-40.9	-42.8	18.6	0.00e+00	0	39	0	0	52	4756
2026-01-19 09:32:07.81	351.96	14.59	-40.9	-42.8	18.6	0.00e+00	0	39	0	0	52	4747
2026-01-19 09:32:08.80	351.90	14.49	-40.9	-42.9	18.6	0.00e+00	0	39	0	0	52	4770
2026-01-19 09:32:09.80	351.85	14.39	-41.0	-42.9	18.5	0.00e+00	0	39	0	0	52	4793
2026-01-19 09:32:10.79	351.79	14.29	-41.0	-42.9	18.5	0.00e+00	0	39	0	0	52	4775
2026-01-19 09:32:11.78	351.74	14.19	-40.7	-42.6	18.8	0.00e+00	0	39	0	0	52	4638
2026-01-19 09:32:12.78	351.68	14.09	-40.6	-42.5	18.8	0.00e+00	0	39	0	0	52	4585
2026-01-19 09:32:13.77	351.63	13.99	-40.6	-42.5	18.9	0.00e+00	0	39	0	0	52	4575
2026-01-19 09:32:14.76	351.58	13.90	-40.6	-42.5	18.8	0.00e+00	0	39	0	0	52	4585
2026-01-19 09:32:15.76	351.52	13.80	-40.6	-42.5	18.8	0.00e+00	0	39	0	0	52	4595
2026-01-19 09:32:16.75	351.47	13.70	-40.5	-42.4	18.9	0.00e+00	0	39	0	0	52	4528
2026-01-19 09:32:17.74	351.42	13.61	-40.6	-42.5	18.9	0.00e+00	0	39	0	0	52	4568
2026-01-19 09:32:18.74	351.36	13.51	-40.6	-42.5	18.8	0.00e+00	0	39	0	0	52	4589
2026-01-19 09:32:19.73	351.31	13.42	-40.5	-42.4	19.0	0.00e+00	0	39	0	0	52	4500
2026-01-19 09:32:20.72	351.26	13.32	-40.5	-42.5	18.9	0.00e+00	0	39	0	0	52	4546
2026-01-19 09:32:21.72	351.21	13.23	-40.4	-42.4	19.0	0.00e+00	0	39	0	0	52	4500
2026-01-19 09:32:22.71	351.16	13.13	-40.4	-42.5	18.9	0.00e+00	0	39	0	0	52	4546
2026-01-19 09:32:23.71	351.11	13.04	-40.4	-42.5	18.9	0.00e+00	0	39	0	0	52	4560
2026-01-19 09:32:24.70	351.06	12.94	-40.3	-42.5	18.9	0.00e+00	0	39	0	0	52	4571
2026-01-19 09:32:25.69	351.01	12.85	-40.3	-42.5	18.9	0.00e+00	0	39	0	0	52	4581
2026-01-19 09:32:26.69	350.96	12.76	-40.3	-42.5	18.9	0.00e+00	0	39	0	0	52	4586
2026-01-19 09:32:27.68	350.91	12.66	-40.3	-42.5	18.9	0.00e+00	0	39	0	0	52	4584
2026-01-19 09:32:28.67	350.86	12.57	-40.5	-42.7	18.7	0.00e+00	0	39	0	0	52	4674
2026-01-19 09:32:29.67	350.81	12.48	-40.5	-42.7	18.8	0.00e+00	0	39	0	0	52	4655
2026-01-19 09:32:30.66	350.76	12.39	-40.5	-42.7	18.7	0.00e+00	0	39	0	0	52	4690
2026-01-19 09:32:31.65	350.72	12.30	-40.6	-42.7	18.7	0.00e+00	0	39	0	0	52	4680
2026-01-19 09:32:32.65	350.67	12.20	-40.6	-42.8	18.7	0.00e+00	0	39	0	0	52	4715
2026-01-19 09:32:33.64	350.62	12.11	-40.6	-42.7	18.7	0.00e+00	0	39	0	0	52	4680
2026-01-19 09:32:34.63	350.57	12.02	-40.7	-42.8	18.6	0.00e+00	0	39	0	0	52	4749
2026-01-19 09:32:35.62	350.53	11.93	-40.7	-42.9	18.6	0.00e+00	0	39	0	0	52	4774
2026-01-19 09:32:36.62	350.48	11.84	-40.7	-42.8	18.6	0.00e+00	0	39	0	0	52	4743
2026-01-19 09:32:37.61	350.44	11.75	-40.7	-42.9	18.5	0.00e+00	0	39	0	0	52	4805
2026-01-19 09:32:38.60	350.39	11.66	-40.7	-42.8	18.6	0.00e+00	0	39	0	0	52	4758
2026-01-19 09:32:39.60	350.34	11.57	-40.7	-43.0	18.5	0.00e+00	0	39	0	0	52	4822
2026-01-19 09:32:40.59	350.30	11.49	-40.7	-43.0	18.5	0.00e+00	0	39	0	0	52	4829
2026-01-19 09:32:41.58	350.25	11.40	-40.7	-42.9	18.5	0.00e+00	0	39	0	0	52	4804
2026-01-19 09:32:42.58	350.21	11.31	-40.7	-42.9	18.5	0.00e+00	0	39	0	0	52	4776
2026-01-19 09:32:43.57	350.17	11.22	-40.7	-43.0	18.4	0.00e+00	0	39	0	0	52	4837
2026-01-19 09:32:44.56	350.12	11.13	-40.6	-42.8	18.6	0.00e+00	0	39	0	0	52	4732
2026-01-19 09:32:45.56	350.08	11.05	-40.6	-42.9	18.5	0.00e+00	0	39	0	0	52	4773
2026-01-19 09:32:46.55	350.04	10.96	-40.6	-42.9	18.5	0.00e+00	0	39	0	0	52	4789
2026-01-19 09:32:47.54	349.99	10.87	-40.6	-43.0	18.4	0.00e+00	0	39	0	0	52	4860
2026-01-19 09:32:48.54	349.95	10.79	-40.5	-43.1	18.3	0.00e+00	0	39	0	0	52	4883
2026-01-19 09:32:49.53	349.91	10.70	-40.4	-42.9	18.4	0.00e+00	0	39	0	0	52	4804
2026-01-19 09:32:50.52	349.86	10.62	-40.4	-43.0	18.4	0.00e+00	0	39	0	0	52	4832
2026-01-19 09:32:51.52	349.82	10.53	-40.4	-43.1	18.3	0.00e+00	0	39	0	0	52	4905
2026-01-19 09:32:52.51	349.78	10.44	-40.2	-42.9	18.5	0.00e+00	0	39	0	0	52	4778
2026-01-19 09:32:53.50	349.74	10.36	-40.4	-43.1	18.3	0.00e+00	0	39	0	0	52	4902
2026-01-19 09:32:54.50	349.70	10.27	-40.5	-43.1	18.3	0.00e+00	0	39	0	0	52	4874
2026-01-19 09:32:55.49	349.66	10.19	-40.5	-43.1	18.3	0.00e+00	0	39	0	0	52	4907
2026-01-19 09:32:56.48	349.62	10.11	-40.4	-43.0	18.3	0.00e+00	0	39	0	0	52	4859
2026-01-19 09:32:57.48	349.58	10.02	-40.6	-43.1	18.2	0.00e+00	0	39	0	0	52	4910
2026-01-19 09:32:58.47	349.54	9.94	-40.8	-43.2	18.1	0.00e+00	0	39	0	0	52	4983
2026-01-19 09:32:59.46	349.50	9.86	-40.8	-43.2	18.2	0.00e+00	0	39	0	0	52	4930
2026-01-19 09:33:00.46	349.46	9.77	-40.9	-43.3	18.0	0.00e+00	0	39	0	0	52	5027
2026-01-19 09:33:01.45	349.42	9.69	-41.0	-43.4	18.0	0.00e+00	0	39	0	0	52	5044
2026-01-19 09:33:02.45	349.38	9.61	-41.2	-43.5	17.8	0.00e+00	0	39	0	0	53	4841
2026-01-19 09:33:03.44	349.34	9.52	-41.2	-43.6	17.8	0.00e+00	0	39	0	0	53	4874
2026-01-19 09:33:04.43	349.30	9.44	-41.2	-43.5	17.8	0.00e+00	0	39	0	0	53	4870
2026-01-19 09:33:05.43	349.26	9.36	-41.2	-43.6	17.8	0.00e+00	0	39	0	0	53	4881
2026-01-19 09:33:06.42	349.22	9.28	-41.2	-43.5	17.8	0.00e+00	0	39	0	0	53	4859
2026-01-19 09:33:07.41	349.19	9.20	-41.2	-43.6	17.8	0.00e+00	0	39	0	0	53	4872
2026-01-19 09:33:08.41	349.15	9.12	-41.1	-43.5	17.8	0.00e+00	0	39	0	0	53	4825
2026-01-19 09:33:09.40	349.11	9.04	-41.3	-43.8	17.6	0.00e+00	0	39	0	0	53	4986
2026-01-19 09:33:10.40	349.07	8.96	-46.8	-62.8	3.8	1.49e+00	0	39	104	0	64	23626
2026-01-19 09:33:11.39	349.04	8.88	-48.4	-63.2	3.8	1.49e+00	0	39	104	0	68	19754
2026-01-19 09:33:12.38	349.00	8.80	-49.3	-63.3	3.8	1.49e+00	0	39	104	0	69	18873
2026-01-19 09:33:13.38	348.96	8.72	-50.1	-63.4	3.8	1.49e+00	0	39	104	0	70	18032
2026-01-19 09:33:14.37	348.93	8.64	-49.0	-63.5	3.8	1.49e+00	0	39	104	0	70	18137
2026-01-19 09:33:15.36	348.89	8.56	-50.2	-63.5	3.8	1.49e+00	0	39	104	0	71	17148
2026-01-19 09:33:16.36	348.85	8.48	-50.0	-63.5	3.8	1.49e+00	0	39	104	0	71	17255
2026-01-19 09:33:17.35	348.82	8.40	-50.2	-63.6	3.8	1.49e+00	0	39	104	0	71	17316
2026-01-19 09:33:18.35	348.78	8.32	-50.3	-63.6	3.8	1.49e+00	0	39	104	0	71	17359
2026-01-19 09:33:19.34	348.75	8.24	-50.3	-63.6	3.8	1.49e+00	0	39	104	0	71	17436
2026-01-19 09:33:20.33	348.71	8.16	-50.2	-63.6	3.8	1.49e+00	0	39	104	0	71	17360
2026-01-19 09:33:21.33	348.68	8.09	-50.2	-63.6	3.8	1.49e+00	0	39	104	0	71	17390
2026-01-19 09:33:22.32	348.64	8.01	-50.5	-63.6	3.8	1.49e+00	0	39	104	0	71	17405
2026-01-19 09:33:23.31	348.61	7.93	-50.5	-63.6	3.8	1.49e+00	0	39	104	0	71	17432
2026-01-19 09:33:24.30	348.57	7.85	-50.5	-63.6	3.8	1.49e+00	0	39	104	0	71	17476
2026-01-19 09:33:25.30	348.54	7.78	-50.6	-63.6	3.8	1.49e+00	0	39	104	0	71	17402
2026-01-19 09:33:26.29	348.51	7.70	-50.2	-63.6	3.8	1.49e+00	0	39	104	0	71	17377
2026-01-19 09:33:27.29	348.47	7.62	-50.3	-63.6	3.8	1.49e+00	0	39	104	0	71	17438
2026-01-19 09:33:28.28	348.44	7.55	-50.5	-63.6	3.8	1.49e+00	0	39	104	0	71	17425
2026-01-19 09:33:29.27	348.41	7.47	-50.5	-63.6	3.8	1.49e+00	0	39	104	0	71	17415
2026-01-19 09:33:30.27	348.37	7.39	-50.5	-63.6	3.8	1.49e+00	0	39	104	0	71	17434
2026-01-19 09:33:31.26	348.34	7.32	-50.6	-63.6	3.8	1.49e+00	0	39	104	0	71	17432
2026-01-19 09:33:32.25	348.31	7.24	-50.6	-63.6	3.8	1.49e+00	0	39	104	0	71	17416
2026-01-19 09:33:33.25	348.27	7.17	-50.5	-63.6	3.8	1.49e+00	0	39	104	0	71	17390
2026-01-19 09:33:34.24	348.24	7.09	-50.6	-63.6	3.8	1.49e+00	0	39	104	0	71	17449
2026-01-19 09:33:35.23	348.21	7.02	-50.5	-63.6	3.8	1.49e+00	0	39	104	0	71	17393
2026-01-19 09:33:36.23	348.18	6.94	-50.6	-63.6	3.8	1.49e+00	0	39	104	0	71	17380
2026-01-19 09:33:37.22	348.15	6.87	-50.5	-63.6	3.8	1.49e+00	0	39	104	0	71	17426
2026-01-19 09:33:38.21	348.11	6.80	-50.2	-63.6	3.8	1.49e+00	0	39	104	0	71	17344
2026-01-19 09:33:39.21	348.08	6.72	-50.2	-63.6	3.8	1.49e+00	0	39	104	0	71	17291
2026-01-19 09:33:40.20	348.05	6.65	-50.2	-63.6	3.8	1.49e+00	0	39	104	0	71	17299
2026-01-19 09:33:41.19	348.02	6.57	-50.2	-63.6	3.8	1.49e+00	0	39	104	0	71	17329
2026-01-19 09:33:42.19	347.99	6.50	-50.2	-63.6	3.8	1.49e+00	0	39	104	0	71	17341
2026-01-19 09:33:43.18	347.96	6.43	-50.2	-63.6	3.8	1.49e+00	0	39	104	0	71	17318
2026-01-19 09:33:44.17	347.93	6.35	-50.2	-63.6	3.8	1.49e+00	0	39	104	0	71	17369
2026-01-19 09:33:45.17	347.90	6.28	-50.2	-63.6	3.8	1.49e+00	0	39	104	0	71	17313
2026-01-19 09:33:46.16	347.87	6.21	-50.2	-63.6	3.8	1.49e+00	0	39	104	0	71	17298
2026-01-19 09:33:47.15	347.84	6.14	-50.2	-63.6	3.8	1.49e+00	0	39	104	0	71	17302
2026-01-19 09:33:48.15	347.81	6.06	-50.2	-63.5	3.8	1.49e+00	0	39	104	0	71	17260
2026-01-19 09:33:49.14	347.78	5.99	-50.2	-63.5	3.8	1.49e+00	0	39	104	0	71	17259
2026-01-19 09:33:50.13	347.75	5.92	-50.2	-63.5	3.8	1.49e+00	0	39	104	0	71	17255
2026-01-19 09:33:51.13	347.72	5.85	-50.2	-63.5	3.8	1.49e+00	0	39	104	0	71	17252
2026-01-19 09:33:52.12	347.69	5.78	-50.2	-63.5	3.8	1.49e+00	0	39	104	0	71	17259
2026-01-19 09:33:53.11	347.66	5.71	-50.2	-63.5	3.8	1.49e+00	0	39	104	0	71	17227
2026-01-19 09:33:54.11	347.63	5.63	-50.2	-63.5	3.8	1.49e+00	0	39	104	0	71	17281
