passes_logs/2026/01/19/T1/T1__20260119_234128_SUOMI_NPP_rec.log

#Pass ID: 20260119_234128_SUOMI NPP
#Satellite: SUOMI NPP
#Configuration: NPP
#almurnet v.1.7.20251203
#Start time: 2026-01-19 23:41:29

#Version: 2.0.20230620
#Station: T1
#Location: 37.570604 lon 55.790049 lat
#TLE: 1 37849U 11061A   26019.26265094  .00000081  00000+0  59609-4 0  9993
#TLE: 2 37849  98.7817 321.2746 0002356  56.2510 303.8890 14.19526363737315

#Time	Az	El	Level	Level2	SNR	BER	BlckErr	Temp	State	Recorded	gain1	gain2
2026-01-19 23:41:29.11	16.91	5.05	-49.5	-65.2	3.8	1.49e+00	0	37	0	0	69	23452
2026-01-19 23:41:30.10	16.92	5.12	-49.5	-65.2	3.8	1.49e+00	0	37	104	0	70	22149
2026-01-19 23:41:31.13	16.92	5.20	-49.5	-65.2	3.8	1.49e+00	0	37	104	0	70	22061
2026-01-19 23:41:32.15	16.93	5.27	-49.5	-65.2	3.8	1.49e+00	0	37	104	0	70	22021
2026-01-19 23:41:33.16	16.94	5.34	-49.5	-65.1	3.8	1.49e+00	0	37	104	0	70	21986
2026-01-19 23:41:34.22	16.95	5.42	-49.5	-65.1	3.8	1.49e+00	0	37	104	0	70	21911
2026-01-19 23:41:35.12	16.96	5.49	-49.5	-65.1	3.8	1.49e+00	0	37	104	0	70	21845
2026-01-19 23:41:36.24	16.97	5.57	-49.5	-65.1	3.8	1.49e+00	0	37	104	0	70	21872
2026-01-19 23:41:37.16	16.97	5.63	-49.5	-65.0	3.8	1.49e+00	0	37	104	0	70	21717
2026-01-19 23:41:38.33	16.98	5.72	-49.5	-65.0	3.8	1.49e+00	0	37	104	0	70	21750
2026-01-19 23:41:39.21	16.99	5.78	-49.5	-65.0	3.8	1.49e+00	0	37	104	0	70	21699
2026-01-19 23:41:40.52	17.00	5.88	-49.5	-65.1	3.8	1.49e+00	0	37	104	0	70	21815
2026-01-19 23:41:41.23	17.01	5.93	-49.5	-65.0	3.8	1.49e+00	0	37	104	0	70	21706
2026-01-19 23:41:42.73	17.02	6.04	-49.5	-65.1	3.8	1.49e+00	0	37	104	0	70	21782
2026-01-19 23:41:43.44	17.03	6.09	-49.5	-65.1	3.8	1.49e+00	0	37	104	0	70	21832
2026-01-19 23:41:44.76	17.04	6.19	-49.5	-65.1	3.8	1.49e+00	0	37	104	0	70	21912
2026-01-19 23:41:45.47	17.04	6.25	-49.5	-65.1	3.8	1.49e+00	0	37	104	0	70	21942
2026-01-19 23:41:46.81	17.05	6.35	-49.5	-65.1	3.8	1.49e+00	0	37	104	0	70	21865
2026-01-19 23:41:47.52	17.06	6.40	-49.5	-65.1	3.8	1.49e+00	0	37	104	0	70	21876
2026-01-19 23:41:48.80	17.07	6.49	-49.5	-65.1	3.8	1.49e+00	0	38	104	0	70	21795
2026-01-19 23:41:49.51	17.08	6.55	-49.5	-65.0	3.8	1.49e+00	0	37	104	0	70	21644
2026-01-19 23:41:50.79	17.09	6.64	-49.5	-65.0	3.8	1.49e+00	0	37	104	0	70	21567
2026-01-19 23:41:51.50	17.09	6.70	-49.5	-64.9	3.8	1.49e+00	0	38	104	0	70	21356
2026-01-19 23:41:52.77	17.10	6.79	-49.5	-64.8	3.8	1.49e+00	0	38	104	0	70	21081
2026-01-19 23:41:53.48	17.11	6.85	-49.4	-64.6	3.8	1.49e+00	0	38	104	0	70	20768
2026-01-19 23:41:54.76	17.12	6.95	-49.4	-64.5	3.8	1.49e+00	0	38	104	0	70	20313
2026-01-19 23:41:55.47	17.13	7.00	-49.4	-64.3	3.8	1.49e+00	0	37	104	0	70	19949
2026-01-19 23:41:56.75	17.14	7.10	-49.4	-64.0	3.8	1.49e+00	0	38	104	0	70	19203
2026-01-19 23:41:57.45	17.15	7.15	-49.4	-63.8	3.8	1.49e+00	0	38	104	0	70	18945
2026-01-19 23:41:58.73	17.16	7.25	-49.4	-63.5	3.8	1.49e+00	0	38	104	0	70	18237
2026-01-19 23:41:59.44	17.16	7.31	-49.4	-63.4	3.8	1.49e+00	0	38	104	0	70	18000
2026-01-19 23:42:00.72	17.17	7.41	-49.4	-63.1	3.8	1.49e+00	0	38	104	0	70	17421
2026-01-19 23:42:01.43	17.18	7.46	-49.4	-62.9	3.8	1.49e+00	0	38	104	0	70	16924
2026-01-19 23:42:02.72	17.19	7.56	-49.3	-62.7	3.8	1.48e+00	0	38	104	0	70	16581
2026-01-19 23:42:03.43	17.20	7.62	-49.3	-62.3	4.0	1.48e+00	0	38	104	0	70	15936
2026-01-19 23:42:04.79	17.21	7.73	-49.3	-62.0	4.1	1.44e+00	0	38	0	0	70	15357
2026-01-19 23:42:05.50	17.22	7.78	-49.3	-62.1	3.9	1.43e+00	0	38	104	0	70	15485
2026-01-19 23:42:06.84	17.23	7.89	-49.2	-61.5	4.2	1.39e+00	0	38	0	0	70	14482
2026-01-19 23:42:07.55	17.23	7.94	-49.2	-61.3	4.2	1.36e+00	0	38	0	0	70	14156
2026-01-19 23:42:08.82	17.25	8.05	-49.2	-60.8	4.5	1.29e+00	0	38	0	1048576	70	13266
2026-01-19 23:42:09.54	17.25	8.10	-49.1	-60.4	4.6	1.03e+00	0	38	0	2097152	70	12687
2026-01-19 23:42:10.81	17.26	8.21	-49.1	-59.8	4.9	8.13e-01	0	38	0	5242880	70	11906
2026-01-19 23:42:11.52	17.27	8.26	-49.0	-59.4	5.1	6.68e-01	0	38	0	6291456	70	11327
2026-01-19 23:42:12.80	17.28	8.37	-48.9	-58.5	5.6	4.64e-01	0	38	0	8388608	69	10881
2026-01-19 23:42:13.52	17.29	8.42	-48.8	-58.1	5.9	4.13e-01	0	38	0	10485760	69	10382
2026-01-19 23:42:14.80	17.30	8.53	-48.7	-57.3	6.6	2.42e-01	0	38	0	12582912	69	9434
2026-01-19 23:42:15.51	17.31	8.59	-48.6	-56.6	7.1	1.67e-01	0	38	0	13631488	69	8759
2026-01-19 23:42:16.79	17.32	8.69	-48.4	-55.8	8.0	8.28e-02	0	38	0	15728640	68	8396
2026-01-19 23:42:17.50	17.32	8.75	-48.3	-55.6	8.2	6.56e-02	0	38	0	17825792	68	8218
2026-01-19 23:42:18.77	17.34	8.85	-48.2	-55.1	8.7	4.15e-02	0	38	0	19922944	68	7752
2026-01-19 23:42:19.48	17.34	8.91	-48.1	-54.8	9.0	2.89e-02	0	38	0	20971520	68	7467
2026-01-19 23:42:20.76	17.35	9.02	-48.0	-54.5	9.3	1.80e-02	0	38	0	23068672	68	7232
2026-01-19 23:42:21.49	17.36	9.08	-48.1	-54.9	8.9	1.68e-02	0	38	0	25165824	68	7572
2026-01-19 23:42:22.77	17.37	9.19	-49.0	-61.1	4.4	8.40e-02	0	38	0	27262976	68	15518
2026-01-19 23:42:23.48	17.38	9.25	-48.5	-56.3	7.1	1.33e+00	0	38	0	28311552	68	8899
2026-01-19 23:42:24.79	17.39	9.36	-47.1	-52.1	11.7	2.20e-06	0	38	0	30408704	64	6953
2026-01-19 23:42:25.50	17.40	9.42	-45.6	-49.3	14.5	4.83e-04	0	38	0	31457280	63	5302
2026-01-19 23:42:26.84	17.41	9.53	-46.7	-51.2	12.7	2.20e-06	0	38	0	34603008	64	6241
2026-01-19 23:42:27.55	17.42	9.59	-47.1	-52.0	11.7	2.27e-04	0	38	0	35651584	65	6484
2026-01-19 23:42:28.83	17.43	9.70	-46.9	-51.6	12.2	2.66e-04	0	39	0	37748736	65	6170
2026-01-19 23:42:29.55	17.44	9.76	-46.5	-50.9	12.9	1.19e-04	0	39	0	38797312	65	5670
2026-01-19 23:42:30.83	17.45	9.87	-46.0	-49.9	13.8	6.10e-06	0	39	0	41943040	64	5397
2026-01-19 23:42:31.54	17.46	9.93	-45.9	-49.7	14.2	2.20e-06	0	38	0	42991616	63	5590
2026-01-19 23:42:32.81	17.47	10.04	-45.7	-49.4	14.5	0.00e+00	0	39	0	45088768	63	5361
2026-01-19 23:42:33.53	17.47	10.10	-45.6	-49.1	14.8	7.00e-07	0	39	0	47185920	63	5197
2026-01-19 23:42:34.80	17.49	10.21	-45.4	-48.8	15.1	0.00e+00	0	39	0	49283072	62	5326
2026-01-19 23:42:35.56	17.49	10.28	-45.6	-49.2	14.7	0.00e+00	0	39	0	50331648	62	5556
2026-01-19 23:42:36.84	17.51	10.39	-45.4	-48.8	15.1	0.00e+00	0	39	0	53477376	62	5322
2026-01-19 23:42:37.58	17.51	10.46	-45.5	-48.9	15.0	0.00e+00	0	38	0	54525952	62	5379
2026-01-19 23:42:38.86	17.53	10.57	-45.3	-48.7	15.2	0.00e+00	0	39	0	56623104	62	5234
2026-01-19 23:42:39.58	17.53	10.63	-45.3	-48.7	15.2	0.00e+00	0	39	0	57671680	62	5260
2026-01-19 23:42:40.86	17.55	10.75	-45.1	-48.3	15.6	0.00e+00	0	39	0	60817408	62	5022
2026-01-19 23:42:41.57	17.55	10.81	-44.9	-48.0	15.9	0.00e+00	0	39	0	61865984	61	5125
2026-01-19 23:42:42.85	17.57	10.93	-44.5	-47.5	16.4	0.00e+00	0	39	0	63963136	61	4848
2026-01-19 23:42:43.56	17.57	10.99	-44.5	-47.5	16.3	0.00e+00	0	38	0	66060288	61	4855
2026-01-19 23:42:44.84	17.59	11.10	-44.6	-47.5	16.4	0.00e+00	0	39	0	68157440	61	4864
2026-01-19 23:42:45.55	17.59	11.17	-44.4	-47.4	16.5	0.00e+00	0	39	0	69206016	60	5042
2026-01-19 23:42:46.83	17.61	11.29	-44.4	-47.4	16.5	0.00e+00	0	39	0	71303168	60	5059
2026-01-19 23:42:47.54	17.61	11.35	-44.5	-47.4	16.5	0.00e+00	0	39	0	73400320	60	5074
2026-01-19 23:42:48.82	17.63	11.47	-44.3	-47.1	16.7	0.00e+00	0	39	0	75497472	60	4918
2026-01-19 23:42:49.54	17.63	11.53	-44.1	-46.9	16.9	0.00e+00	0	39	0	76546048	60	4797
2026-01-19 23:42:50.83	17.65	11.65	-44.1	-46.9	17.0	0.00e+00	0	39	0	78643200	60	4764
2026-01-19 23:42:51.57	17.65	11.72	-44.1	-46.8	17.0	0.00e+00	0	38	0	80740352	59	5025
2026-01-19 23:42:52.84	17.67	11.84	-44.1	-46.9	17.0	0.00e+00	0	39	0	82837504	59	5074
2026-01-19 23:42:53.55	17.68	11.91	-44.0	-46.7	17.2	0.00e+00	0	39	0	83886080	59	4942
2026-01-19 23:42:54.83	17.69	12.03	-43.9	-46.6	17.3	0.00e+00	0	39	0	87031808	59	4904
2026-01-19 23:42:55.56	17.70	12.09	-43.8	-46.5	17.3	0.00e+00	0	39	0	88080384	59	4846
2026-01-19 23:42:56.84	17.71	12.21	-43.7	-46.3	17.5	0.00e+00	0	39	0	90177536	59	4740
2026-01-19 23:42:57.56	17.72	12.28	-43.7	-46.3	17.6	0.00e+00	0	39	0	92274688	59	4716
2026-01-19 23:42:58.84	17.73	12.40	-43.7	-46.3	17.5	0.00e+00	0	39	0	94371840	59	4729
2026-01-19 23:42:59.57	17.74	12.47	-43.8	-46.4	17.5	0.00e+00	0	39	0	95420416	59	4778
2026-01-19 23:43:00.84	17.75	12.60	-43.7	-46.3	17.5	0.00e+00	0	39	0	97517568	59	4747
2026-01-19 23:43:01.57	17.76	12.67	-43.5	-46.0	17.8	0.00e+00	0	39	0	99614720	59	4581
2026-01-19 23:43:02.85	17.77	12.79	-43.6	-46.1	17.7	0.00e+00	0	39	0	101711872	59	4634
2026-01-19 23:43:03.59	17.78	12.86	-43.6	-46.1	17.7	0.00e+00	0	39	0	102760448	59	4632
2026-01-19 23:43:04.87	17.80	12.99	-43.6	-46.1	17.7	0.00e+00	0	39	0	105906176	58	4893
2026-01-19 23:43:05.58	17.80	13.06	-43.5	-46.1	17.8	0.00e+00	0	39	0	106954752	58	4879
2026-01-19 23:43:06.85	17.82	13.18	-43.4	-45.9	17.9	0.00e+00	0	39	0	109051904	58	4792
2026-01-19 23:43:07.57	17.82	13.25	-43.5	-46.0	17.8	0.00e+00	0	39	0	110100480	58	4847
2026-01-19 23:43:08.85	17.84	13.38	-43.5	-46.0	17.9	0.00e+00	0	39	0	113246208	58	4829
2026-01-19 23:43:09.69	17.85	13.46	-43.5	-46.1	17.8	0.00e+00	0	39	0	114294784	58	4875
2026-01-19 23:43:11.10	17.86	13.60	-43.4	-45.9	17.9	0.00e+00	0	39	0	117440512	58	4800
2026-01-19 23:43:11.81	17.87	13.67	-43.5	-45.9	17.9	0.00e+00	0	39	0	118489088	58	4813
2026-01-19 23:43:13.09	17.89	13.80	-43.4	-45.9	18.0	0.00e+00	0	39	0	120586240	58	4794
2026-01-19 23:43:13.80	17.89	13.87	-43.4	-45.9	18.0	0.00e+00	0	39	0	122683392	58	4783
2026-01-19 23:43:15.08	17.91	14.00	-43.5	-46.0	17.9	0.00e+00	0	39	0	124780544	58	4843
2026-01-19 23:43:15.80	17.92	14.08	-43.5	-46.0	17.9	0.00e+00	0	39	0	125829120	58	4868
2026-01-19 23:43:17.08	17.93	14.21	-43.5	-46.0	17.9	0.00e+00	0	39	0	128974848	58	4817
2026-01-19 23:43:17.89	17.94	14.29	-43.3	-45.8	18.1	0.00e+00	0	39	0	130023424	58	4713
2026-01-19 23:43:19.02	17.95	14.41	-43.4	-45.9	18.0	0.00e+00	0	39	0	132120576	58	4796
2026-01-19 23:43:19.88	17.96	14.50	-43.4	-45.8	18.1	0.00e+00	0	39	0	133169152	58	4744
2026-01-19 23:43:21.02	17.98	14.62	-43.4	-45.9	18.0	0.00e+00	0	39	0	135266304	58	4777
2026-01-19 23:43:21.87	17.99	14.71	-43.4	-45.9	17.9	0.00e+00	0	39	0	137363456	58	4809
2026-01-19 23:43:23.01	18.00	14.83	-43.4	-45.9	18.0	0.00e+00	0	39	0	139460608	58	4801
2026-01-19 23:43:23.86	18.01	14.92	-43.4	-45.9	17.9	0.00e+00	0	39	0	141557760	58	4797
2026-01-19 23:43:25.00	18.02	15.04	-43.4	-45.9	18.0	0.00e+00	0	39	0	143654912	58	4786
2026-01-19 23:43:25.85	18.03	15.13	-43.3	-45.7	18.2	0.00e+00	0	39	0	144703488	58	4695
2026-01-19 23:43:26.99	18.05	15.25	-43.3	-45.8	18.1	0.00e+00	0	39	0	146800640	58	4719
2026-01-19 23:43:27.84	18.06	15.34	-43.1	-45.6	18.2	0.00e+00	0	39	0	148897792	58	4625
2026-01-19 23:43:28.98	18.07	15.46	-43.2	-45.7	18.2	0.00e+00	0	39	0	150994944	58	4663
2026-01-19 23:43:29.83	18.08	15.56	-43.1	-45.6	18.3	0.00e+00	0	39	0	152043520	58	4632
2026-01-19 23:43:30.97	18.09	15.68	-43.2	-45.7	18.2	0.00e+00	0	39	0	154140672	58	4660
2026-01-19 23:43:31.82	18.10	15.77	-43.2	-45.7	18.2	0.00e+00	0	39	0	156237824	58	4662
2026-01-19 23:43:32.96	18.12	15.90	-43.1	-45.6	18.3	0.00e+00	0	39	0	158334976	58	4626
2026-01-19 23:43:33.81	18.13	15.99	-43.2	-45.7	18.2	0.00e+00	0	39	0	159383552	58	4677
2026-01-19 23:43:34.94	18.14	16.12	-43.2	-45.7	18.2	0.00e+00	0	39	0	161480704	58	4672
2026-01-19 23:43:35.80	18.15	16.21	-43.2	-45.7	18.2	0.00e+00	0	39	0	163577856	58	4687
2026-01-19 23:43:36.93	18.17	16.34	-43.2	-45.7	18.2	0.00e+00	0	39	0	165675008	58	4673
2026-01-19 23:43:37.78	18.18	16.43	-42.9	-45.4	18.5	0.00e+00	0	39	0	167772160	57	4785
2026-01-19 23:43:39.01	18.19	16.57	-42.9	-45.4	18.5	0.00e+00	0	39	0	169869312	57	4792
2026-01-19 23:43:39.87	18.21	16.67	-42.8	-45.3	18.5	0.00e+00	0	39	0	170917888	57	4754
2026-01-19 23:43:41.07	18.22	16.81	-42.8	-45.3	18.5	0.00e+00	0	39	0	173015040	57	4735
2026-01-19 23:43:41.92	18.23	16.91	-43.0	-45.6	18.3	0.00e+00	0	39	0	175112192	57	4873
2026-01-19 23:43:43.10	18.25	17.04	-43.1	-45.6	18.3	0.00e+00	0	39	0	177209344	57	4916
2026-01-19 23:43:43.96	18.26	17.14	-42.9	-45.4	18.5	0.00e+00	0	39	0	179306496	57	4806
2026-01-19 23:43:45.09	18.27	17.27	-43.0	-45.6	18.3	0.00e+00	0	39	0	181403648	57	4871
2026-01-19 23:43:45.95	18.28	17.37	-43.2	-45.7	18.2	0.00e+00	0	39	0	182452224	57	4971
2026-01-19 23:43:47.08	18.30	17.50	-43.2	-45.8	18.1	0.00e+00	0	39	0	184549376	57	4999
2026-01-19 23:43:47.94	18.31	17.61	-43.3	-45.9	18.0	0.00e+00	0	39	0	186646528	57	5063
2026-01-19 23:43:49.07	18.32	17.74	-43.5	-46.1	17.9	0.00e+00	0	39	0	188743680	57	5168
2026-01-19 23:43:50.00	18.34	17.85	-43.5	-46.1	17.9	0.00e+00	0	39	0	189792256	57	5172
2026-01-19 23:43:51.00	18.35	17.97	-43.4	-46.0	17.9	0.00e+00	0	39	0	191889408	57	5148
2026-01-19 23:43:51.99	18.36	18.09	-43.6	-46.3	17.7	0.00e+00	0	39	0	193986560	57	5293
2026-01-19 23:43:52.99	18.38	18.21	-43.7	-46.3	17.7	0.00e+00	0	39	0	196083712	57	5293
2026-01-19 23:43:53.98	18.39	18.33	-43.8	-46.4	17.5	0.00e+00	0	39	0	198180864	58	5095
2026-01-19 23:43:54.98	18.41	18.45	-43.7	-46.4	17.6	0.00e+00	0	39	0	199229440	58	5061
2026-01-19 23:43:55.97	18.42	18.57	-43.8	-46.4	17.6	0.00e+00	0	39	0	201326592	58	5081
2026-01-19 23:43:56.97	18.43	18.70	-43.8	-46.5	17.5	0.00e+00	0	39	0	203423744	58	5128
2026-01-19 23:43:57.96	18.45	18.82	-43.8	-46.5	17.5	0.00e+00	0	39	0	205520896	58	5153
2026-01-19 23:43:58.96	18.46	18.94	-43.8	-46.5	17.5	0.00e+00	0	39	0	206569472	58	5138
2026-01-19 23:43:59.96	18.47	19.07	-43.9	-46.6	17.4	0.00e+00	0	39	0	208666624	58	5217
2026-01-19 23:44:00.94	18.49	19.19	-44.1	-46.8	17.3	0.00e+00	0	39	0	210763776	58	5315
2026-01-19 23:44:01.94	18.50	19.32	-44.1	-46.8	17.2	0.00e+00	0	39	0	212860928	58	5339
2026-01-19 23:44:02.93	18.52	19.44	-44.2	-47.0	17.0	0.00e+00	0	39	0	214958080	59	5142
2026-01-19 23:44:03.93	18.53	19.57	-44.1	-46.9	17.2	0.00e+00	0	39	0	216006656	59	5069
2026-01-19 23:44:04.93	18.55	19.70	-44.1	-46.8	17.3	0.00e+00	0	39	0	218103808	59	5035
2026-01-19 23:44:05.92	18.56	19.83	-44.2	-47.0	17.1	0.00e+00	0	39	0	220200960	59	5143
2026-01-19 23:44:06.92	18.58	19.96	-44.2	-47.0	16.8	0.00e+00	0	39	0	222298112	59	5117
2026-01-19 23:44:07.91	18.59	20.09	-44.4	-47.2	16.9	0.00e+00	0	39	0	223346688	59	5271
2026-01-19 23:44:08.90	18.61	20.22	-44.5	-47.5	16.6	0.00e+00	0	39	0	225443840	59	5429
2026-01-19 23:44:09.90	18.62	20.35	-44.5	-47.5	16.6	0.00e+00	0	39	0	227540992	59	5415
2026-01-19 23:44:10.89	18.64	20.48	-44.5	-47.6	16.6	0.00e+00	0	39	0	229638144	60	5162
2026-01-19 23:44:11.89	18.65	20.61	-44.6	-47.7	16.5	0.00e+00	0	39	0	231735296	60	5246
2026-01-19 23:44:12.93	18.67	20.75	-44.6	-47.7	16.5	0.00e+00	0	39	0	232783872	60	5264
2026-01-19 23:44:13.92	18.68	20.88	-44.6	-47.8	16.4	0.00e+00	0	39	0	234881024	60	5281
2026-01-19 23:44:14.92	18.70	21.02	-44.8	-47.9	16.2	0.00e+00	0	39	0	236978176	60	5389
2026-01-19 23:44:15.91	18.71	21.15	-44.7	-47.9	16.3	0.00e+00	0	39	0	239075328	60	5363
2026-01-19 23:44:16.90	18.73	21.29	-44.8	-48.0	16.1	0.00e+00	0	39	0	240123904	60	5459
2026-01-19 23:44:17.90	18.74	21.43	-44.8	-48.0	16.2	0.00e+00	0	39	0	242221056	60	5403
2026-01-19 23:44:18.89	18.76	21.56	-44.7	-47.9	16.3	0.00e+00	0	39	0	244318208	60	5344
2026-01-19 23:44:19.89	18.78	21.70	-44.8	-47.9	16.3	0.00e+00	0	39	0	246415360	60	5368
2026-01-19 23:44:20.88	18.79	21.84	-44.9	-48.0	16.2	0.00e+00	0	39	0	248512512	60	5461
2026-01-19 23:44:21.88	18.81	21.98	-44.6	-47.7	16.5	0.00e+00	0	39	0	249561088	60	5228
2026-01-19 23:44:22.87	18.82	22.12	-44.7	-47.8	16.4	0.00e+00	0	39	0	251658240	60	5281
2026-01-19 23:44:23.87	18.84	22.26	-44.8	-47.9	16.3	0.00e+00	0	39	0	253755392	60	5362
2026-01-19 23:44:24.86	18.86	22.40	-44.8	-47.8	16.4	0.00e+00	0	39	0	255852544	60	5319
2026-01-19 23:44:25.86	18.87	22.55	-44.8	-47.9	16.3	0.00e+00	0	39	0	256901120	60	5385
2026-01-19 23:44:26.87	18.89	22.69	-45.0	-48.2	16.0	0.00e+00	0	39	0	258998272	60	5548
2026-01-19 23:44:27.89	18.91	22.84	-44.9	-48.0	16.2	0.00e+00	0	39	0	261095424	60	5432
2026-01-19 23:44:28.89	18.93	22.99	-45.0	-48.0	16.1	0.00e+00	0	39	0	263192576	60	5455
2026-01-19 23:44:29.95	18.94	23.14	-45.0	-48.1	16.1	0.00e+00	0	39	0	265289728	60	5501
2026-01-19 23:44:30.85	18.96	23.28	-44.9	-47.9	16.3	0.00e+00	0	39	0	266338304	61	5088
2026-01-19 23:44:31.88	18.98	23.43	-45.1	-48.2	16.0	0.00e+00	0	39	0	268435456	61	5265
2026-01-19 23:44:32.87	18.99	23.58	-44.9	-47.9	16.2	0.00e+00	0	39	0	270532608	61	5096
2026-01-19 23:44:33.87	19.01	23.73	-45.1	-48.2	16.1	0.00e+00	0	39	0	272629760	61	5240
2026-01-19 23:44:34.87	19.03	23.88	-44.9	-47.8	16.4	0.00e+00	0	39	0	274726912	61	5033
2026-01-19 23:44:35.86	19.05	24.03	-44.6	-47.5	16.7	0.00e+00	0	39	0	275775488	61	4853
2026-01-19 23:44:36.86	19.07	24.18	-44.8	-47.7	16.4	0.00e+00	0	39	0	277872640	61	4976
2026-01-19 23:44:37.85	19.08	24.33	-44.7	-47.7	16.5	0.00e+00	0	39	0	279969792	61	4942
2026-01-19 23:44:38.85	19.10	24.49	-44.6	-47.4	16.8	0.00e+00	0	39	0	282066944	61	4809
2026-01-19 23:44:39.84	19.12	24.64	-44.9	-47.8	16.4	0.00e+00	0	39	0	283115520	61	5029
2026-01-19 23:44:40.84	19.14	24.80	-44.6	-47.4	16.8	0.00e+00	0	39	0	285212672	61	4796
2026-01-19 23:44:41.83	19.16	24.96	-44.6	-47.5	16.7	0.00e+00	0	39	0	287309824	61	4822
2026-01-19 23:44:42.83	19.18	25.12	-44.9	-47.8	16.4	0.00e+00	0	39	0	289406976	61	5011
2026-01-19 23:44:43.84	19.20	25.28	-44.7	-47.6	16.7	0.00e+00	0	39	0	291504128	60	5161
2026-01-19 23:44:44.83	19.22	25.43	-44.6	-47.5	16.7	0.00e+00	0	39	0	292552704	60	5129
2026-01-19 23:44:45.83	19.24	25.60	-44.5	-47.3	16.9	0.00e+00	0	39	0	294649856	60	4995
2026-01-19 23:44:46.93	19.26	25.78	-44.3	-47.0	17.2	0.00e+00	0	39	0	296747008	60	4859
2026-01-19 23:44:47.82	19.27	25.92	-44.3	-47.1	17.1	0.00e+00	0	39	0	298844160	60	4906
2026-01-19 23:44:48.95	19.30	26.11	-44.2	-46.9	17.3	0.00e+00	0	39	0	300941312	60	4787
2026-01-19 23:44:49.81	19.31	26.25	-44.0	-46.6	17.6	0.00e+00	0	39	0	301989888	59	4904
2026-01-19 23:44:50.94	19.34	26.44	-43.9	-46.6	17.5	0.00e+00	0	39	0	304087040	59	4913
2026-01-19 23:44:51.79	19.35	26.58	-44.0	-46.7	17.5	0.00e+00	0	39	0	306184192	59	4939
2026-01-19 23:44:52.93	19.38	26.77	-43.7	-46.3	17.6	0.00e+00	0	39	0	308281344	59	4747
2026-01-19 23:44:53.78	19.40	26.92	-43.7	-46.4	17.8	0.00e+00	0	39	0	309329920	59	4762
2026-01-19 23:44:54.92	19.42	27.11	-44.0	-46.7	17.4	0.00e+00	0	39	0	311427072	59	4947
2026-01-19 23:44:55.77	19.44	27.26	-43.7	-46.4	17.7	0.00e+00	0	39	0	313524224	59	4769
2026-01-19 23:44:56.91	19.46	27.45	-43.9	-46.6	17.6	0.00e+00	0	39	0	315621376	59	4878
2026-01-19 23:44:57.76	19.48	27.60	-44.0	-46.7	17.4	0.00e+00	0	39	0	317718528	59	4974
2026-01-19 23:44:58.92	19.51	27.80	-44.0	-46.6	17.5	0.00e+00	0	39	0	319815680	59	4913
2026-01-19 23:44:59.77	19.52	27.95	-44.0	-46.6	17.5	0.00e+00	0	39	0	320864256	59	4909
2026-01-19 23:45:00.94	19.55	28.16	-43.7	-46.3	17.8	0.00e+00	0	39	0	322961408	59	4740
2026-01-19 23:45:01.79	19.57	28.31	-43.9	-46.6	17.6	0.00e+00	0	39	0	325058560	59	4871
2026-01-19 23:45:02.99	19.60	28.53	-43.8	-46.4	17.7	0.00e+00	0	39	0	327155712	59	4773
2026-01-19 23:45:03.84	19.62	28.68	-43.7	-46.3	17.8	0.00e+00	0	39	0	328204288	58	5002
2026-01-19 23:45:05.04	19.64	28.90	-43.9	-46.6	17.6	0.00e+00	0	39	0	331350016	58	5167
2026-01-19 23:45:05.90	19.66	29.06	-43.9	-46.5	17.7	0.00e+00	0	39	0	332398592	58	5111
2026-01-19 23:45:07.04	19.69	29.27	-43.8	-46.3	17.9	0.00e+00	0	39	0	334495744	58	5016
2026-01-19 23:45:07.89	19.71	29.43	-43.9	-46.5	17.6	0.00e+00	0	39	0	336592896	58	5148
2026-01-19 23:45:09.03	19.74	29.64	-44.0	-46.6	17.5	0.00e+00	0	39	0	338690048	58	5208
2026-01-19 23:45:09.88	19.76	29.80	-44.2	-46.9	17.3	0.00e+00	0	39	0	339738624	59	5078
2026-01-19 23:45:11.02	19.78	30.02	-44.3	-47.0	17.2	0.00e+00	0	39	0	341835776	59	5114
2026-01-19 23:45:11.88	19.81	30.18	-44.2	-46.9	17.3	0.00e+00	0	39	0	343932928	59	5062
2026-01-19 23:45:13.02	19.83	30.40	-44.2	-46.9	17.3	0.00e+00	0	39	0	346030080	59	5070
2026-01-19 23:45:13.87	19.86	30.56	-44.3	-47.0	17.2	0.00e+00	0	39	0	347078656	59	5132
2026-01-19 23:45:15.01	19.88	30.78	-44.3	-47.0	17.2	0.00e+00	0	39	0	349175808	59	5146
2026-01-19 23:45:15.86	19.91	30.95	-44.3	-47.0	17.2	0.00e+00	0	39	0	351272960	59	5103
2026-01-19 23:45:17.00	19.94	31.18	-44.5	-47.3	17.0	0.00e+00	0	39	0	353370112	60	4997
2026-01-19 23:45:17.85	19.96	31.34	-44.7	-47.5	16.8	0.00e+00	0	39	0	354418688	60	5101
2026-01-19 23:45:18.99	19.99	31.57	-44.9	-47.8	16.5	0.00e+00	0	39	0	356515840	60	5295
2026-01-19 23:45:19.84	20.01	31.74	-45.2	-48.3	16.1	0.00e+00	0	39	0	358612992	61	5282
2026-01-19 23:45:20.98	20.04	31.97	-45.4	-48.5	15.8	0.00e+00	0	39	0	360710144	61	5426
2026-01-19 23:45:21.83	20.06	32.15	-45.5	-48.7	15.6	0.00e+00	0	39	0	362807296	61	5560
2026-01-19 23:45:22.97	20.10	32.38	-46.1	-49.6	14.6	1.50e-06	0	39	0	364904448	63	5514
2026-01-19 23:45:23.82	20.12	32.56	-46.0	-49.4	14.9	0.00e+00	0	39	0	365953024	63	5402
2026-01-19 23:45:24.96	20.15	32.80	-46.1	-49.7	14.7	0.00e+00	0	39	0	368050176	63	5555
2026-01-19 23:45:25.81	20.18	32.97	-46.2	-49.8	14.5	1.50e-06	0	39	0	370147328	63	5624
2026-01-19 23:45:26.95	20.21	33.21	-46.2	-49.8	14.5	7.00e-07	0	39	0	372244480	63	5619
2026-01-19 23:45:27.80	20.23	33.39	-46.4	-50.1	14.3	7.00e-07	0	39	0	373293056	63	5837
2026-01-19 23:45:28.93	20.27	33.64	-46.4	-50.2	14.2	0.00e+00	0	39	0	375390208	63	5869
2026-01-19 23:45:29.79	20.29	33.82	-46.2	-49.8	14.5	7.00e-07	0	39	0	377487360	63	5648
2026-01-19 23:45:30.92	20.33	34.07	-46.5	-50.3	14.2	7.00e-07	0	39	0	379584512	63	5948
2026-01-19 23:45:31.78	20.35	34.26	-46.1	-49.7	14.7	0.00e+00	0	39	0	380633088	63	5536
2026-01-19 23:45:32.92	20.39	34.51	-45.8	-49.3	14.9	7.00e-07	0	39	0	382730240	63	5284
2026-01-19 23:45:33.77	20.41	34.69	-46.0	-49.5	14.9	0.00e+00	0	39	0	384827392	63	5454
2026-01-19 23:45:34.94	20.45	34.96	-45.4	-48.6	15.7	0.00e+00	0	39	0	386924544	62	5215
2026-01-19 23:45:35.79	20.48	35.15	-45.1	-48.2	16.1	0.00e+00	0	39	0	389021696	62	4976
2026-01-19 23:45:36.93	20.52	35.41	-45.0	-48.2	16.2	0.00e+00	0	39	0	391118848	61	5226
2026-01-19 23:45:37.78	20.54	35.60	-44.7	-47.7	16.6	0.00e+00	0	39	0	392167424	61	4973
2026-01-19 23:45:39.09	20.59	35.90	-44.6	-47.6	16.8	0.00e+00	0	39	0	394264576	60	5173
2026-01-19 23:45:39.80	20.61	36.07	-44.5	-47.4	16.9	0.00e+00	0	39	0	396361728	60	5083
2026-01-19 23:45:41.08	20.65	36.36	-44.3	-47.1	17.3	0.00e+00	0	39	0	398458880	60	4881
2026-01-19 23:45:41.79	20.68	36.53	-44.0	-46.6	17.7	0.00e+00	0	39	0	399507456	59	4926
2026-01-19 23:45:43.07	20.72	36.83	-43.5	-46.0	18.2	0.00e+00	0	40	0	402653184	58	4828
2026-01-19 23:45:43.80	20.75	37.01	-43.5	-46.1	18.2	0.00e+00	0	40	0	403701760	58	4871
2026-01-19 23:45:45.08	20.80	37.31	-43.4	-45.9	18.3	0.00e+00	0	39	0	405798912	58	4773
2026-01-19 23:45:45.79	20.82	37.49	-43.1	-45.5	18.6	0.00e+00	0	39	0	406847488	58	4559
2026-01-19 23:45:47.07	20.87	37.80	-42.5	-44.8	19.2	0.00e+00	0	39	0	409993216	57	4476
2026-01-19 23:45:47.78	20.89	37.97	-42.8	-45.1	18.9	0.00e+00	0	40	0	411041792	57	4616
2026-01-19 23:45:49.06	20.94	38.29	-42.5	-44.7	19.3	0.00e+00	0	39	0	413138944	56	4699
2026-01-19 23:45:50.04	20.98	38.53	-42.7	-45.0	19.0	0.00e+00	0	39	0	415236096	56	4840
2026-01-19 23:45:51.04	21.02	38.78	-42.8	-45.1	19.0	0.00e+00	0	40	0	417333248	56	4899
2026-01-19 23:45:52.03	21.06	39.03	-42.6	-44.9	19.1	0.00e+00	0	39	0	419430400	56	4794
2026-01-19 23:45:53.02	21.10	39.29	-42.7	-44.9	19.2	0.00e+00	0	39	0	420478976	56	4784
2026-01-19 23:45:54.02	21.14	39.54	-42.7	-44.9	19.1	0.00e+00	0	39	0	422576128	56	4807
2026-01-19 23:45:55.01	21.18	39.80	-42.9	-45.2	18.9	0.00e+00	0	39	0	424673280	56	4963
2026-01-19 23:45:56.01	21.22	40.06	-43.1	-45.5	18.7	0.00e+00	0	39	0	426770432	56	5116
2026-01-19 23:45:57.01	21.26	40.32	-43.3	-45.7	18.5	0.00e+00	0	39	0	427819008	57	4942
2026-01-19 23:45:58.00	21.31	40.58	-43.5	-46.0	18.2	0.00e+00	0	39	0	429916160	58	4822
2026-01-19 23:45:59.00	21.35	40.85	-43.7	-46.1	18.1	0.00e+00	0	39	0	432013312	58	4923
2026-01-19 23:45:59.99	21.39	41.12	-44.0	-46.6	17.7	0.00e+00	0	39	0	434110464	58	5167
2026-01-19 23:46:00.99	21.44	41.39	-43.9	-46.4	17.8	0.00e+00	0	39	0	436207616	59	4792
2026-01-19 23:46:01.98	21.48	41.66	-44.2	-46.8	17.5	0.00e+00	0	39	0	437256192	59	4990
2026-01-19 23:46:02.97	21.53	41.93	-44.3	-46.9	17.4	0.00e+00	0	39	0	439353344	59	5072
2026-01-19 23:46:03.97	21.58	42.20	-44.1	-46.7	17.6	0.00e+00	0	39	0	441450496	59	4932
2026-01-19 23:46:04.96	21.63	42.48	-44.3	-46.9	17.3	0.00e+00	0	39	0	443547648	59	5086
2026-01-19 23:46:05.96	21.67	42.76	-43.7	-46.1	18.1	0.00e+00	0	39	0	444596224	59	4632
2026-01-19 23:46:06.95	21.72	43.04	-44.0	-46.5	17.7	0.00e+00	0	39	0	446693376	59	4856
2026-01-19 23:46:07.94	21.77	43.32	-43.9	-46.3	17.8	0.00e+00	0	39	0	448790528	59	4752
2026-01-19 23:46:08.94	21.82	43.61	-43.5	-45.9	18.2	0.00e+00	0	39	0	450887680	59	4545
2026-01-19 23:46:09.93	21.88	43.89	-43.7	-46.1	18.1	0.00e+00	0	39	0	452984832	58	4906
2026-01-19 23:46:10.93	21.93	44.18	-43.5	-45.9	18.3	0.00e+00	0	39	0	454033408	58	4776
2026-01-19 23:46:12.00	21.99	44.50	-43.7	-46.2	18.1	0.00e+00	0	39	0	456130560	58	4942
2026-01-19 23:46:12.85	22.03	44.75	-43.7	-46.2	18.0	0.00e+00	0	39	0	458227712	58	4958
2026-01-19 23:46:13.99	22.10	45.09	-44.3	-46.9	17.4	0.00e+00	0	39	0	460324864	59	5089
2026-01-19 23:46:14.85	22.14	45.35	-44.5	-47.3	17.1	0.00e+00	0	39	0	461373440	59	5284
2026-01-19 23:46:15.98	22.21	45.69	-45.0	-48.0	16.4	0.00e+00	0	39	0	463470592	60	5459
2026-01-19 23:46:16.84	22.26	45.95	-45.2	-48.2	16.2	0.00e+00	0	39	0	465567744	61	5259
2026-01-19 23:46:17.97	22.33	46.30	-45.6	-48.9	15.6	0.00e+00	0	39	0	467664896	61	5666
2026-01-19 23:46:18.83	22.38	46.56	-45.8	-49.1	15.3	0.00e+00	0	39	0	468713472	62	5527
2026-01-19 23:46:19.96	22.45	46.91	-46.0	-49.4	15.1	0.00e+00	0	39	0	470810624	62	5674
2026-01-19 23:46:20.82	22.50	47.18	-46.2	-49.7	14.7	0.00e+00	0	39	0	472907776	63	5536
2026-01-19 23:46:21.96	22.58	47.54	-45.9	-49.2	15.3	0.00e+00	0	40	0	475004928	63	5239
2026-01-19 23:46:22.81	22.63	47.81	-46.0	-49.3	15.2	0.00e+00	0	39	0	477102080	63	5293
2026-01-19 23:46:23.98	22.71	48.19	-45.9	-49.1	15.4	0.00e+00	0	39	0	479199232	63	5176
2026-01-19 23:46:24.83	22.77	48.46	-45.4	-48.4	16.0	0.00e+00	0	40	0	480247808	62	5098
2026-01-19 23:46:25.97	22.85	48.83	-45.2	-48.2	16.2	0.00e+00	0	39	0	482344960	61	5271
2026-01-19 23:46:26.82	22.91	49.11	-44.9	-47.7	16.6	0.00e+00	0	39	0	484442112	61	4952
2026-01-19 23:46:27.96	22.99	49.49	-44.5	-47.2	17.0	0.00e+00	0	39	0	486539264	61	4680
2026-01-19 23:46:28.81	23.05	49.77	-43.8	-46.2	18.0	0.00e+00	0	39	0	487587840	59	4675
2026-01-19 23:46:29.95	23.14	50.15	-43.4	-45.7	18.5	0.00e+00	0	39	0	489684992	58	4696
2026-01-19 23:46:30.80	23.21	50.44	-42.8	-45.1	19.0	0.00e+00	0	39	0	491782144	57	4611
2026-01-19 23:46:31.94	23.30	50.82	-42.1	-44.1	19.8	0.00e+00	0	39	0	493879296	56	4386
2026-01-19 23:46:32.79	23.36	51.11	-41.9	-44.0	19.8	0.00e+00	0	39	0	494927872	55	4559
2026-01-19 23:46:33.93	23.46	51.51	-42.0	-44.1	19.8	0.00e+00	0	39	0	497025024	55	4614
2026-01-19 23:46:34.78	23.53	51.80	-42.5	-44.7	19.2	0.00e+00	0	40	0	499122176	55	4978
2026-01-19 23:46:35.91	23.63	52.20	-42.6	-44.9	19.0	0.00e+00	0	39	0	501219328	55	5076
2026-01-19 23:46:36.76	23.70	52.49	-42.8	-45.1	19.0	0.00e+00	0	39	0	503316480	56	4908
2026-01-19 23:46:37.90	23.80	52.90	-43.0	-45.4	18.8	0.00e+00	0	39	0	505413632	57	4766
2026-01-19 23:46:38.75	23.88	53.20	-42.9	-45.2	18.9	0.00e+00	0	39	0	506462208	57	4693
2026-01-19 23:46:39.98	24.00	53.64	-42.6	-44.8	19.2	0.00e+00	0	39	0	508559360	57	4477
2026-01-19 23:46:40.83	24.08	53.95	-42.3	-44.6	19.4	0.00e+00	0	39	0	510656512	56	4605
2026-01-19 23:46:42.00	24.20	54.38	-42.5	-44.7	19.4	0.00e+00	0	39	0	512753664	56	4685
2026-01-19 23:46:42.86	24.28	54.69	-42.3	-44.5	19.6	0.00e+00	0	39	0	513802240	56	4554
2026-01-19 23:46:43.99	24.40	55.11	-41.8	-43.9	19.9	0.00e+00	0	39	0	515899392	55	4539
2026-01-19 23:46:44.85	24.49	55.43	-41.6	-43.7	20.0	0.00e+00	0	39	0	517996544	55	4423
2026-01-19 23:46:45.98	24.62	55.85	-41.6	-43.7	20.1	0.00e+00	0	39	0	520093696	54	4662
2026-01-19 23:46:46.83	24.71	56.17	-41.2	-43.3	20.4	0.00e+00	0	39	0	522190848	54	4464
2026-01-19 23:46:47.97	24.84	56.61	-41.4	-43.4	20.4	0.00e+00	0	39	0	524288000	54	4538
2026-01-19 23:46:48.82	24.95	56.93	-41.5	-43.6	20.2	0.00e+00	0	39	0	525336576	54	4626
2026-01-19 23:46:49.96	25.08	57.37	-41.6	-43.7	20.2	0.00e+00	0	39	0	527433728	54	4692
2026-01-19 23:46:50.81	25.19	57.70	-41.9	-44.0	19.8	0.00e+00	0	39	0	529530880	54	4842
2026-01-19 23:46:51.95	25.34	58.14	-41.7	-43.8	20.0	0.00e+00	0	39	0	531628032	54	4723
2026-01-19 23:46:52.80	25.45	58.48	-41.8	-43.9	19.9	0.00e+00	0	39	0	532676608	54	4791
2026-01-19 23:46:53.94	25.60	58.92	-41.9	-44.1	19.8	0.00e+00	0	39	0	534773760	54	4880
2026-01-19 23:46:54.80	25.73	59.27	-41.7	-43.8	20.0	0.00e+00	0	39	0	536870912	54	4741
2026-01-19 23:46:55.93	25.89	59.72	-41.1	-43.2	20.5	0.00e+00	0	39	0	538968064	54	4399
2026-01-19 23:46:56.79	26.02	60.06	-41.2	-43.2	20.5	0.00e+00	0	39	0	540016640	54	4399
2026-01-19 23:46:58.02	26.21	60.56	-42.0	-44.1	19.8	0.00e+00	0	39	0	543162368	54	4900
2026-01-19 23:46:58.87	26.34	60.90	-42.7	-45.1	19.0	0.00e+00	0	39	0	544210944	56	4877
2026-01-19 23:47:00.01	26.53	61.37	-42.8	-45.2	19.0	0.00e+00	0	39	0	546308096	56	4936
2026-01-19 23:47:00.86	26.67	61.72	-42.5	-44.7	19.5	0.00e+00	0	40	0	548405248	56	4686
2026-01-19 23:47:02.00	26.87	62.19	-41.5	-43.6	20.2	0.00e+00	0	39	0	550502400	55	4346
2026-01-19 23:47:02.85	27.02	62.55	-41.0	-43.0	20.7	0.00e+00	0	39	0	551550976	54	4316
2026-01-19 23:47:03.99	27.24	63.02	-41.0	-43.0	20.7	0.00e+00	0	39	0	553648128	53	4586
2026-01-19 23:47:04.84	27.40	63.38	-41.0	-43.0	20.8	0.00e+00	0	39	0	555745280	53	4551
2026-01-19 23:47:05.98	27.63	63.86	-41.1	-43.1	20.6	0.00e+00	0	39	0	557842432	53	4624
2026-01-19 23:47:06.83	27.81	64.22	-41.5	-43.6	20.3	0.00e+00	0	39	0	558891008	53	4874
2026-01-19 23:47:07.97	28.05	64.71	-42.3	-44.5	19.4	0.00e+00	0	39	0	560988160	55	4867
2026-01-19 23:47:08.82	28.24	65.07	-43.0	-45.4	18.9	0.00e+00	0	39	0	563085312	56	5042
2026-01-19 23:47:09.96	28.51	65.57	-43.3	-45.7	18.5	0.00e+00	0	39	0	565182464	57	4928
2026-01-19 23:47:10.81	28.71	65.93	-43.2	-45.5	18.7	0.00e+00	0	39	0	566231040	57	4840
2026-01-19 23:47:11.98	29.00	66.44	-43.1	-45.4	18.8	0.00e+00	0	39	0	568328192	57	4797
2026-01-19 23:47:12.83	29.23	66.82	-43.1	-45.4	18.7	0.00e+00	0	39	0	570425344	57	4812
2026-01-19 23:47:14.00	29.54	67.33	-44.0	-46.6	17.7	0.00e+00	0	39	0	572522496	58	5177
2026-01-19 23:47:14.85	29.78	67.70	-44.5	-47.2	17.2	0.00e+00	0	39	0	574619648	59	5243
2026-01-19 23:47:16.04	30.14	68.23	-45.8	-49.1	15.4	0.00e+00	0	39	0	576716800	62	5467
2026-01-19 23:47:16.89	30.40	68.61	-46.3	-49.7	14.7	0.00e+00	0	39	0	577765376	63	5566
2026-01-19 23:47:18.03	30.77	69.12	-46.2	-49.6	14.8	0.00e+00	0	39	0	579862528	63	5517
2026-01-19 23:47:18.88	31.06	69.50	-46.3	-49.7	14.8	0.00e+00	0	40	0	581959680	63	5581
2026-01-19 23:47:20.13	31.50	70.06	-46.9	-50.9	13.7	1.50e-06	0	39	0	584056832	64	6017
2026-01-19 23:47:20.98	31.82	70.44	-46.3	-49.8	14.7	7.00e-07	0	39	0	586153984	64	5286
2026-01-19 23:47:22.12	32.27	70.96	-45.5	-48.4	15.9	0.00e+00	0	39	0	588251136	63	4797
2026-01-19 23:47:22.97	32.62	71.34	-44.9	-47.6	16.7	0.00e+00	0	39	0	589299712	61	4922
2026-01-19 23:47:24.11	33.12	71.86	-44.2	-46.8	17.5	0.00e+00	0	39	0	591396864	60	4753
2026-01-19 23:47:25.09	33.57	72.31	-43.6	-46.0	18.2	0.00e+00	0	39	0	593494016	58	4860
2026-01-19 23:47:26.26	34.14	72.84	-43.3	-45.6	18.6	0.00e+00	0	39	0	595591168	58	4632
2026-01-19 23:47:27.12	34.58	73.23	-43.3	-45.7	18.6	0.00e+00	0	39	0	597688320	58	4683
2026-01-19 23:47:28.48	35.32	73.85	-43.7	-46.2	18.0	0.00e+00	0	39	0	599785472	58	4963
2026-01-19 23:47:29.19	35.74	74.18	-43.6	-46.1	18.1	0.00e+00	0	39	0	600834048	58	4915
2026-01-19 23:47:30.47	36.53	74.76	-43.7	-46.2	18.1	0.00e+00	0	40	0	603979776	58	4947
2026-01-19 23:47:31.19	37.00	75.09	-43.7	-46.1	18.2	0.00e+00	0	39	0	605028352	58	4899
2026-01-19 23:47:32.76	38.12	75.81	-43.7	-46.2	18.0	0.00e+00	0	39	0	608174080	58	4972
2026-01-19 23:47:33.40	38.60	76.10	-43.9	-46.5	17.8	0.00e+00	0	39	0	609222656	58	5111
2026-01-19 23:47:34.82	39.76	76.75	-44.4	-47.1	17.2	0.00e+00	0	39	0	611319808	59	5168
2026-01-19 23:47:35.53	40.39	77.07	-45.0	-47.9	16.5	0.00e+00	0	39	0	613416960	60	5365
2026-01-19 23:47:36.81	41.60	77.65	-45.4	-48.5	16.0	0.00e+00	0	39	0	615514112	61	5429
2026-01-19 23:47:37.54	42.34	77.98	-45.6	-48.7	15.6	0.00e+00	0	40	0	616562688	62	5255
2026-01-19 23:47:38.82	43.75	78.55	-45.8	-49.0	15.6	0.00e+00	0	39	0	618659840	62	5414
2026-01-19 23:47:39.55	44.62	78.87	-46.6	-50.3	14.0	1.50e-06	0	39	0	620756992	64	5642
2026-01-19 23:47:40.82	46.26	79.43	-45.9	-49.2	15.5	0.00e+00	0	39	0	622854144	63	5220
2026-01-19 23:47:41.54	47.27	79.74	-46.0	-49.4	15.0	0.00e+00	0	39	0	623902720	63	5345
2026-01-19 23:47:42.81	49.22	80.29	-46.4	-49.9	14.7	0.00e+00	0	39	0	627048448	63	5696
2026-01-19 23:47:43.52	50.40	80.59	-46.3	-49.8	14.8	0.00e+00	0	39	0	628097024	63	5605
2026-01-19 23:47:44.80	52.74	81.12	-45.6	-48.7	15.7	0.00e+00	0	39	0	630194176	62	5262
2026-01-19 23:47:45.51	54.17	81.41	-45.1	-48.1	16.4	0.00e+00	0	39	0	631242752	62	4887
2026-01-19 23:47:46.79	56.99	81.91	-44.3	-47.0	17.4	0.00e+00	0	39	0	634388480	60	4819
2026-01-19 23:47:47.67	59.14	82.25	-43.7	-46.1	18.0	0.00e+00	0	39	0	635437056	59	4643
2026-01-19 23:47:49.11	63.09	82.78	-43.4	-45.8	18.4	0.00e+00	0	39	0	638582784	58	4734
2026-01-19 23:47:49.82	65.25	83.02	-43.2	-45.5	18.6	0.00e+00	0	39	0	639631360	58	4568
2026-01-19 23:47:51.11	69.59	83.44	-41.4	-43.5	20.2	0.00e+00	0	39	0	641728512	55	4301
2026-01-19 23:47:51.82	72.21	83.65	-41.0	-43.0	20.6	0.00e+00	0	39	0	643825664	53	4593
2026-01-19 23:47:53.09	77.35	84.00	-41.5	-43.6	20.2	0.00e+00	0	39	0	645922816	53	4916
2026-01-19 23:47:53.82	80.56	84.17	-42.0	-44.3	19.6	0.00e+00	0	39	0	646971392	54	4986
2026-01-19 23:47:55.08	86.55	84.43	-42.2	-44.4	19.4	0.00e+00	0	39	0	650117120	55	4807
2026-01-19 23:47:55.95	90.98	84.57	-41.9	-44.1	19.7	0.00e+00	0	39	0	651165696	55	4631
2026-01-19 23:47:57.09	97.09	84.70	-41.6	-43.8	20.0	0.00e+00	0	39	0	653262848	55	4482
2026-01-19 23:47:57.94	101.81	84.76	-41.5	-43.6	20.1	0.00e+00	0	39	0	655360000	54	4637
2026-01-19 23:47:59.08	108.24	84.78	-40.0	-41.9	21.6	0.00e+00	0	39	0	657457152	51	4494
2026-01-19 23:47:59.93	113.02	84.75	-40.1	-42.0	21.5	0.00e+00	0	39	0	658505728	51	4595
2026-01-19 23:48:01.07	119.28	84.65	-42.0	-44.3	19.7	0.00e+00	0	39	0	660602880	54	4994
2026-01-19 23:48:01.92	123.78	84.55	-42.0	-44.1	19.7	0.00e+00	0	39	0	662700032	55	4651
2026-01-19 23:48:03.06	129.48	84.35	-41.2	-43.2	20.5	0.00e+00	0	39	0	664797184	54	4411
2026-01-19 23:48:03.91	133.46	84.17	-41.6	-43.7	20.1	0.00e+00	0	39	0	665845760	54	4674
2026-01-19 23:48:05.05	138.38	83.89	-42.0	-44.2	19.8	0.00e+00	0	39	0	667942912	55	4653
2026-01-19 23:48:05.90	141.75	83.65	-41.7	-43.8	20.1	0.00e+00	0	39	0	670040064	55	4455
2026-01-19 23:48:07.04	145.88	83.30	-42.6	-44.8	19.2	0.00e+00	0	40	0	672137216	55	5012
2026-01-19 23:48:07.89	148.67	83.02	-44.1	-46.7	17.7	0.00e+00	0	39	0	674234368	58	5249
2026-01-19 23:48:09.03	152.07	82.62	-44.4	-47.2	17.2	0.00e+00	0	39	0	676331520	60	4958
2026-01-19 23:48:09.88	154.37	82.31	-45.0	-48.1	16.3	0.00e+00	0	39	0	677380096	60	5476
2026-01-19 23:48:11.02	157.17	81.87	-46.2	-49.8	14.5	0.00e+00	0	39	0	679477248	64	5299
2026-01-19 23:48:11.87	159.06	81.54	-47.2	-51.4	13.0	7.60e-06	0	39	0	681574400	65	6015
2026-01-19 23:48:13.01	161.37	81.07	-45.6	-48.7	15.6	7.00e-07	0	40	0	683671552	63	4972
2026-01-19 23:48:13.86	162.94	80.72	-44.7	-47.4	16.8	0.00e+00	0	39	0	684720128	61	4811
2026-01-19 23:48:14.99	164.85	80.24	-45.4	-48.4	16.0	0.00e+00	0	39	0	686817280	61	5387
2026-01-19 23:48:15.85	166.18	79.88	-45.7	-48.8	15.7	0.00e+00	0	39	0	688914432	62	5323
2026-01-19 23:48:16.98	167.78	79.38	-46.5	-50.0	14.4	0.00e+00	0	39	0	691011584	63	5738
2026-01-19 23:48:17.83	168.89	79.01	-46.8	-50.6	13.8	3.80e-06	0	39	0	692060160	64	5848
2026-01-19 23:48:18.97	170.26	78.51	-47.1	-51.3	12.9	1.17e-04	0	39	0	694157312	65	5967
2026-01-19 23:48:19.82	171.20	78.13	-46.4	-50.0	14.3	3.05e-05	0	39	0	696254464	64	5406
2026-01-19 23:48:20.96	172.38	77.61	-45.8	-48.9	15.5	0.00e+00	0	39	0	698351616	63	5093
2026-01-19 23:48:21.81	173.19	77.23	-46.7	-50.5	13.9	1.50e-06	0	39	0	699400192	64	5757
2026-01-19 23:48:22.95	174.20	76.71	-46.0	-49.3	15.1	1.50e-06	0	39	0	701497344	63	5300
2026-01-19 23:48:23.80	174.91	76.32	-45.8	-49.1	15.4	0.00e+00	0	39	0	703594496	63	5209
2026-01-19 23:48:24.94	175.79	75.80	-45.3	-48.4	16.1	0.00e+00	0	39	0	705691648	62	5094
2026-01-19 23:48:25.79	176.41	75.42	-44.6	-47.4	17.0	0.00e+00	0	39	0	707788800	61	4798
2026-01-19 23:48:26.92	177.18	74.90	-44.4	-47.0	17.5	0.00e+00	0	39	0	709885952	59	5102
2026-01-19 23:48:27.78	177.73	74.50	-45.7	-48.8	15.7	0.00e+00	0	39	0	710934528	61	5604
2026-01-19 23:48:28.91	178.41	73.99	-47.3	-51.7	12.9	8.30e-06	0	39	0	713031680	65	6258
2026-01-19 23:48:29.77	178.90	73.59	-46.4	-50.1	14.4	9.10e-06	0	39	0	715128832	64	5484
2026-01-19 23:48:30.90	179.50	73.08	-48.6	-54.6	9.9	1.98e-03	0	39	0	717225984	67	7725
2026-01-19 23:48:31.75	179.93	72.69	-48.5	-54.0	9.9	2.38e-02	0	39	0	718274560	68	6877
2026-01-19 23:48:32.89	180.48	72.17	-47.8	-52.5	11.9	2.86e-03	0	39	0	720371712	67	6078
2026-01-19 23:48:33.75	180.87	71.77	-47.5	-51.9	12.6	9.15e-04	0	39	0	722468864	66	6045
2026-01-19 23:48:34.88	181.36	71.26	-47.6	-52.2	12.1	1.40e-04	0	39	0	724566016	66	6213
2026-01-19 23:48:35.73	181.70	70.88	-47.6	-52.1	12.3	2.88e-04	0	39	0	725614592	66	6134
2026-01-19 23:48:37.09	182.23	70.26	-48.3	-53.8	10.6	5.69e-04	0	39	0	728760320	67	7067
2026-01-19 23:48:37.80	182.49	69.94	-47.4	-51.7	12.6	1.83e-03	0	39	0	729808896	66	5892
2026-01-19 23:48:39.08	182.94	69.36	-44.2	-46.8	17.4	0.00e+00	0	39	0	731906048	60	4736
2026-01-19 23:48:39.81	183.19	69.04	-43.9	-46.4	17.9	0.00e+00	0	39	0	734003200	59	4786
2026-01-19 23:48:41.09	183.60	68.46	-44.3	-46.9	17.4	0.00e+00	0	39	0	736100352	59	5083
2026-01-19 23:48:41.84	183.83	68.13	-44.3	-46.9	17.4	0.00e+00	0	39	0	737148928	59	5053
2026-01-19 23:48:43.12	184.20	67.56	-44.9	-47.8	16.6	0.00e+00	0	39	0	740294656	60	5295
2026-01-19 23:48:43.85	184.41	67.24	-45.2	-48.3	16.1	0.00e+00	0	39	0	741343232	61	5291
2026-01-19 23:48:45.13	184.76	66.68	-44.2	-46.8	17.5	0.00e+00	0	39	0	743440384	60	4751
2026-01-19 23:48:45.98	184.97	66.31	-43.4	-45.8	18.4	0.00e+00	0	39	0	745537536	58	4718
2026-01-19 23:48:47.12	185.26	65.81	-43.7	-46.2	18.0	0.00e+00	0	39	0	747634688	58	4949
2026-01-19 23:48:48.18	185.51	65.35	-43.3	-45.7	18.5	0.00e+00	0	39	0	749731840	58	4664
2026-01-19 23:48:49.23	185.75	64.90	-42.4	-44.6	19.4	0.00e+00	0	39	0	750780416	56	4631
2026-01-19 23:48:50.24	185.97	64.46	-42.0	-44.1	19.7	0.00e+00	0	39	0	752877568	56	4379
2026-01-19 23:48:51.24	186.18	64.04	-43.5	-46.0	18.3	0.00e+00	0	39	0	754974720	57	5129
2026-01-19 23:48:52.23	186.38	63.62	-44.4	-47.2	17.1	0.00e+00	0	39	0	757071872	59	5262
2026-01-19 23:48:53.23	186.58	63.19	-43.7	-46.2	18.1	0.00e+00	0	39	0	759169024	59	4654
2026-01-19 23:48:54.22	186.77	62.78	-42.8	-45.1	19.0	0.00e+00	0	39	0	760217600	57	4608
2026-01-19 23:48:55.22	186.95	62.36	-41.7	-43.8	20.1	0.00e+00	0	39	0	762314752	55	4448
2026-01-19 23:48:56.53	187.19	61.81	-41.7	-43.8	20.1	0.00e+00	0	39	0	765460480	54	4709
2026-01-19 23:48:57.24	187.31	61.52	-42.9	-45.1	19.0	0.00e+00	0	39	0	766509056	56	4916
2026-01-19 23:48:58.52	187.52	60.99	-45.5	-48.5	16.0	0.00e+00	0	39	0	768606208	61	5460
2026-01-19 23:48:59.24	187.64	60.70	-47.1	-51.3	13.1	0.00e+00	0	39	0	769654784	64	6302
2026-01-19 23:49:00.52	187.83	60.18	-46.0	-49.3	15.0	1.37e-05	0	39	0	772800512	63	5295
2026-01-19 23:49:01.23	187.94	59.89	-45.6	-48.8	15.7	0.00e+00	0	39	0	773849088	62	5284
2026-01-19 23:49:02.51	188.13	59.38	-43.5	-45.9	18.3	0.00e+00	0	39	0	775946240	59	4533
2026-01-19 23:49:03.22	188.23	59.10	-44.0	-46.5	17.8	0.00e+00	0	39	0	776994816	59	4838
2026-01-19 23:49:04.50	188.41	58.59	-44.1	-46.7	17.5	0.00e+00	0	39	0	780140544	59	4978
2026-01-19 23:49:05.21	188.50	58.31	-44.6	-47.3	17.1	0.00e+00	0	39	0	781189120	59	5303
2026-01-19 23:49:06.50	188.67	57.80	-45.3	-48.3	16.1	0.00e+00	0	39	0	783286272	61	5338
2026-01-19 23:49:07.21	188.76	57.53	-45.4	-48.5	15.9	0.00e+00	0	39	0	785383424	61	5404
2026-01-19 23:49:08.57	188.93	57.00	-42.5	-44.6	19.4	0.00e+00	0	39	0	787480576	57	4375
2026-01-19 23:49:09.28	189.01	56.73	-42.1	-44.2	19.8	0.00e+00	0	39	0	788529152	56	4416
2026-01-19 23:49:10.56	189.16	56.24	-42.3	-44.5	19.5	0.00e+00	0	39	0	791674880	55	4842
2026-01-19 23:49:11.27	189.24	55.97	-43.8	-46.3	18.0	0.00e+00	0	39	0	792723456	58	5004
2026-01-19 23:49:12.55	189.38	55.49	-43.3	-45.7	18.5	0.00e+00	0	39	0	794820608	58	4668
2026-01-19 23:49:13.26	189.46	55.22	-42.7	-44.9	19.2	0.00e+00	0	39	0	795869184	57	4524
2026-01-19 23:49:14.54	189.59	54.75	-42.9	-45.2	19.0	0.00e+00	0	39	0	799014912	56	4957
2026-01-19 23:49:15.25	189.67	54.49	-43.6	-46.0	18.2	0.00e+00	0	39	0	800063488	57	5158
2026-01-19 23:49:16.53	189.79	54.02	-44.3	-47.0	17.3	0.00e+00	0	39	0	802160640	59	5140
2026-01-19 23:49:17.24	189.86	53.76	-43.8	-46.3	18.0	0.00e+00	0	39	0	804257792	59	4746
2026-01-19 23:49:18.52	189.98	53.30	-42.9	-45.3	18.9	0.00e+00	0	39	0	806354944	57	4721
2026-01-19 23:49:19.24	190.05	53.04	-42.9	-45.2	19.0	0.00e+00	0	39	0	807403520	57	4660
2026-01-19 23:49:20.52	190.17	52.58	-44.3	-47.0	17.3	0.00e+00	0	39	0	809500672	59	5110
2026-01-19 23:49:21.24	190.23	52.33	-44.5	-47.2	17.0	0.00e+00	0	39	0	811597824	59	5275
2026-01-19 23:49:22.51	190.34	51.88	-45.3	-48.5	15.9	0.00e+00	0	40	0	813694976	61	5427
2026-01-19 23:49:23.23	190.40	51.63	-45.3	-48.5	15.9	0.00e+00	0	39	0	814743552	61	5412
2026-01-19 23:49:24.50	190.51	51.19	-45.5	-48.6	15.8	0.00e+00	0	39	0	816840704	62	5214
2026-01-19 23:49:25.23	190.57	50.94	-45.7	-48.9	15.5	7.00e-07	0	39	0	818937856	62	5401
2026-01-19 23:49:26.63	190.68	50.46	-44.7	-47.5	16.9	0.00e+00	0	39	0	821035008	61	4849
2026-01-19 23:49:27.35	190.73	50.21	-44.3	-47.0	17.3	0.00e+00	0	39	0	823132160	60	4859
2026-01-19 23:49:28.62	190.83	49.79	-44.1	-46.7	17.6	0.00e+00	0	39	0	825229312	59	4974
2026-01-19 23:49:29.34	190.88	49.55	-44.4	-47.1	17.2	0.00e+00	0	39	0	826277888	59	5172
2026-01-19 23:49:30.76	190.99	49.08	-45.1	-48.0	16.4	0.00e+00	0	39	0	829423616	60	5443
2026-01-19 23:49:31.47	191.04	48.84	-46.2	-49.6	14.6	0.00e+00	0	39	0	830472192	63	5521
2026-01-19 23:49:32.75	191.13	48.42	-47.5	-52.2	12.1	8.62e-05	0	39	0	832569344	65	6597
2026-01-19 23:49:33.46	191.17	48.19	-47.5	-52.2	11.9	1.04e-03	0	39	0	833617920	66	6225
2026-01-19 23:49:34.74	191.26	47.78	-44.5	-47.2	17.0	0.00e+00	0	39	0	836763648	61	4696
2026-01-19 23:49:35.45	191.31	47.56	-43.0	-45.3	18.8	0.00e+00	0	39	0	837812224	57	4711
2026-01-19 23:49:36.73	191.39	47.15	-41.7	-43.8	20.0	0.00e+00	0	39	0	839909376	55	4452
2026-01-19 23:49:37.47	191.43	46.92	-41.8	-43.9	19.9	0.00e+00	0	39	0	842006528	55	4511
2026-01-19 23:49:38.74	191.51	46.52	-42.2	-44.4	19.4	0.00e+00	0	39	0	844103680	55	4763
2026-01-19 23:49:39.47	191.56	46.29	-43.3	-45.7	18.5	0.00e+00	0	39	0	845152256	57	4940
2026-01-19 23:49:40.75	191.63	45.90	-44.1	-46.7	17.5	0.00e+00	0	39	0	848297984	59	4976
2026-01-19 23:49:41.46	191.68	45.68	-44.7	-47.5	16.8	0.00e+00	0	39	0	849346560	60	5147
2026-01-19 23:49:42.74	191.75	45.29	-45.1	-48.1	16.3	0.00e+00	0	39	0	851443712	60	5489
2026-01-19 23:49:43.57	191.80	45.04	-44.6	-47.5	16.8	0.00e+00	0	39	0	853540864	60	5119
2026-01-19 23:49:44.71	191.86	44.70	-44.1	-46.8	17.2	0.00e+00	0	39	0	855638016	60	4749
2026-01-19 23:49:45.56	191.91	44.45	-43.3	-45.7	18.4	0.00e+00	0	39	0	856686592	58	4664
2026-01-19 23:49:46.70	191.97	44.12	-42.2	-44.4	19.6	0.00e+00	0	39	0	858783744	56	4499
2026-01-19 23:49:47.81	192.03	43.79	-41.1	-43.1	20.6	0.00e+00	0	39	0	860880896	54	4359
2026-01-19 23:49:48.66	192.07	43.55	-41.0	-42.9	20.7	0.00e+00	0	39	0	862978048	53	4535
2026-01-19 23:49:49.80	192.13	43.22	-41.3	-43.3	20.4	0.00e+00	0	39	0	865075200	53	4754
2026-01-19 23:49:50.65	192.17	42.97	-42.3	-44.4	19.4	0.00e+00	0	39	0	866123776	55	4805
2026-01-19 23:49:51.78	192.22	42.65	-43.5	-45.9	18.3	0.00e+00	0	39	0	868220928	57	5051
2026-01-19 23:49:52.64	192.27	42.41	-44.8	-47.6	16.7	0.00e+00	0	39	0	870318080	60	5204
2026-01-19 23:49:53.77	192.32	42.10	-46.2	-49.8	14.7	0.00e+00	0	39	0	872415232	63	5597
2026-01-19 23:49:54.63	192.36	41.86	-46.5	-50.5	13.8	3.80e-06	0	39	0	873463808	64	5743
2026-01-19 23:49:55.76	192.41	41.55	-46.0	-49.5	14.8	7.00e-07	0	39	0	875560960	63	5410
2026-01-19 23:49:56.61	192.45	41.31	-44.9	-47.8	16.4	0.00e+00	0	39	0	877658112	61	5007
2026-01-19 23:49:57.75	192.50	41.01	-43.6	-46.0	18.1	0.00e+00	0	39	0	879755264	59	4568
2026-01-19 23:49:58.60	192.54	40.78	-42.5	-44.7	19.3	0.00e+00	0	39	0	880803840	56	4672
2026-01-19 23:49:59.74	192.59	40.47	-42.3	-44.5	19.4	0.00e+00	0	39	0	883949568	55	4841
2026-01-19 23:50:00.59	192.63	40.25	-42.5	-44.7	19.2	0.00e+00	0	39	0	884998144	55	4946
2026-01-19 23:50:01.73	192.67	39.95	-43.8	-46.2	18.0	0.00e+00	0	39	0	887095296	58	4943
2026-01-19 23:50:02.58	192.71	39.72	-44.3	-46.9	17.3	0.00e+00	0	39	0	889192448	59	5076
2026-01-19 23:50:03.72	192.76	39.43	-45.9	-49.1	15.3	0.00e+00	0	39	0	891289600	62	5507
2026-01-19 23:50:04.57	192.79	39.21	-46.9	-50.9	13.5	1.50e-06	0	39	0	892338176	64	6027
2026-01-19 23:50:05.71	192.83	38.92	-47.5	-52.1	12.2	9.90e-06	0	39	0	894435328	65	6540
2026-01-19 23:50:06.56	192.87	38.70	-48.7	-55.0	9.2	3.51e-03	0	39	0	896532480	67	8134
2026-01-19 23:50:07.70	192.91	38.42	-49.3	-57.1	7.4	1.00e-01	0	39	0	898629632	69	9253
2026-01-19 23:50:08.55	192.94	38.20	-49.3	-57.0	7.4	8.27e-02	0	39	0	899678208	69	9091
2026-01-19 23:50:09.70	192.99	37.92	-48.8	-55.2	9.0	4.56e-02	0	39	0	901775360	69	7399
2026-01-19 23:50:10.56	193.02	37.71	-47.8	-52.8	11.4	1.38e-02	0	39	0	903872512	67	6284
2026-01-19 23:50:11.69	193.06	37.43	-46.3	-49.8	14.4	4.95e-05	0	39	0	905969664	64	5311
2026-01-19 23:50:12.55	193.09	37.22	-45.0	-47.8	16.4	0.00e+00	0	40	0	907018240	62	4735
2026-01-19 23:50:13.68	193.13	36.95	-44.1	-46.7	17.5	0.00e+00	0	39	0	909115392	60	4684
2026-01-19 23:50:14.54	193.16	36.74	-43.7	-46.1	18.0	0.00e+00	0	39	0	911212544	59	4627
2026-01-19 23:50:15.67	193.20	36.47	-43.7	-46.1	18.0	0.00e+00	0	40	0	913309696	58	4913
2026-01-19 23:50:16.64	193.23	36.24	-43.8	-46.2	17.9	0.00e+00	0	39	0	915406848	58	4973
2026-01-19 23:50:17.82	193.27	35.97	-44.7	-47.5	16.8	0.00e+00	0	39	0	917504000	60	5116
2026-01-19 23:50:18.71	193.30	35.76	-46.0	-49.3	15.0	0.00e+00	0	39	0	918552576	62	5624
2026-01-19 23:50:19.84	193.34	35.50	-47.4	-51.6	12.7	2.97e-05	0	39	0	920649728	65	6181
2026-01-19 23:50:20.70	193.37	35.30	-47.9	-52.8	11.5	6.20e-04	0	39	0	922746880	66	6703
2026-01-19 23:50:22.07	193.41	34.99	-48.6	-54.5	9.6	3.76e-03	0	39	0	924844032	67	7633
2026-01-19 23:50:22.78	193.43	34.83	-49.0	-55.5	8.6	3.01e-02	0	39	0	926941184	68	8174
2026-01-19 23:50:24.06	193.47	34.55	-49.0	-55.8	8.4	5.70e-02	0	39	0	929038336	69	7953
2026-01-19 23:50:24.77	193.50	34.39	-49.3	-56.9	7.4	6.79e-02	0	39	0	930086912	69	9027
2026-01-19 23:50:26.05	193.53	34.11	-48.9	-55.5	8.8	7.47e-02	0	39	0	933232640	69	7653
2026-01-19 23:50:26.79	193.56	33.94	-48.4	-54.2	10.0	9.54e-03	0	39	0	934281216	68	7032
2026-01-19 23:50:28.07	193.59	33.67	-47.6	-52.5	11.6	1.48e-03	0	40	0	936378368	67	6107
2026-01-19 23:50:28.89	193.62	33.49	-47.3	-52.0	12.4	5.03e-04	0	39	0	938475520	66	6091
2026-01-19 23:50:30.03	193.65	33.24	-47.1	-51.4	12.8	3.12e-05	0	39	0	940572672	65	6023
2026-01-19 23:50:30.88	193.68	33.06	-46.8	-50.8	13.4	3.80e-06	0	39	0	941621248	65	5646
2026-01-19 23:50:32.02	193.71	32.82	-46.9	-51.0	13.2	7.60e-06	0	39	0	943718400	65	5751
2026-01-19 23:50:32.87	193.73	32.64	-46.2	-49.8	14.5	0.00e+00	0	39	0	945815552	64	5306
2026-01-19 23:50:34.01	193.76	32.40	-45.8	-49.1	15.2	7.00e-07	0	39	0	947912704	63	5188
2026-01-19 23:50:34.86	193.79	32.23	-45.9	-49.2	15.1	0.00e+00	0	39	0	948961280	63	5259
2026-01-19 23:50:36.00	193.82	31.99	-45.5	-48.7	15.7	0.00e+00	0	39	0	951058432	63	4969
2026-01-19 23:50:36.85	193.84	31.82	-45.6	-48.8	15.7	0.00e+00	0	39	0	953155584	62	5297
2026-01-19 23:50:37.99	193.87	31.59	-45.0	-48.0	16.3	0.00e+00	0	39	0	955252736	62	4825
2026-01-19 23:50:38.84	193.89	31.42	-45.0	-47.9	16.3	0.00e+00	0	39	0	956301312	62	4810
2026-01-19 23:50:39.98	193.92	31.19	-44.9	-47.8	16.5	0.00e+00	0	39	0	958398464	61	5023
2026-01-19 23:50:40.83	193.94	31.02	-44.8	-47.6	16.7	0.00e+00	0	39	0	960495616	61	4886
2026-01-19 23:50:41.97	193.97	30.79	-44.7	-47.4	16.8	0.00e+00	0	39	0	962592768	61	4811
2026-01-19 23:50:42.82	193.99	30.63	-44.8	-47.6	16.7	0.00e+00	0	39	0	964689920	60	5177
2026-01-19 23:50:43.96	194.02	30.41	-45.0	-47.9	16.3	0.00e+00	0	39	0	966787072	61	5089
2026-01-19 23:50:44.81	194.04	30.24	-45.3	-48.3	16.0	0.00e+00	0	39	0	967835648	61	5333
2026-01-19 23:50:45.95	194.07	30.02	-45.9	-49.2	15.1	0.00e+00	0	39	0	969932800	62	5578
2026-01-19 23:50:46.80	194.09	29.86	-46.2	-49.8	14.6	0.00e+00	0	39	0	972029952	63	5602
2026-01-19 23:50:47.94	194.12	29.64	-46.6	-50.5	13.8	1.50e-06	0	39	0	974127104	63	6107
2026-01-19 23:50:48.79	194.14	29.48	-47.0	-51.2	13.0	1.14e-05	0	39	0	975175680	64	6230
2026-01-19 23:50:49.93	194.16	29.27	-47.4	-52.0	12.2	1.52e-04	0	39	0	977272832	65	6448
2026-01-19 23:50:50.78	194.18	29.11	-47.5	-52.1	12.0	4.51e-04	0	39	0	979369984	65	6567
2026-01-19 23:50:52.02	194.21	28.88	-47.3	-51.9	12.3	3.45e-04	0	39	0	981467136	65	6393
2026-01-19 23:50:52.87	194.23	28.73	-46.6	-50.4	13.7	1.37e-04	0	39	0	983564288	65	5397
2026-01-19 23:50:54.00	194.26	28.52	-46.3	-50.0	14.3	3.00e-06	0	39	0	985661440	64	5406
2026-01-19 23:50:54.86	194.28	28.36	-45.7	-49.0	15.3	0.00e+00	0	39	0	986710016	63	5133
2026-01-19 23:50:56.00	194.30	28.16	-45.0	-48.0	16.2	0.00e+00	0	39	0	988807168	62	4836
2026-01-19 23:50:56.85	194.32	28.01	-44.5	-47.2	16.9	0.00e+00	0	39	0	990904320	60	4960
2026-01-19 23:50:57.99	194.34	27.80	-43.9	-46.5	17.6	0.00e+00	0	40	0	993001472	59	4832
2026-01-19 23:50:58.84	194.36	27.65	-43.8	-46.2	17.8	0.00e+00	0	39	0	994050048	59	4704
2026-01-19 23:50:59.98	194.39	27.45	-43.4	-45.8	18.2	0.00e+00	0	39	0	996147200	58	4747
2026-01-19 23:51:00.83	194.40	27.31	-43.3	-45.7	18.4	0.00e+00	0	39	0	998244352	58	4674
2026-01-19 23:51:01.97	194.43	27.11	-43.3	-45.7	18.4	0.00e+00	0	39	0	1000341504	58	4654
2026-01-19 23:51:02.82	194.45	26.96	-43.3	-45.7	18.3	0.00e+00	0	39	0	1001390080	58	4655
2026-01-19 23:51:03.96	194.47	26.77	-43.4	-45.7	18.3	0.00e+00	0	40	0	1003487232	58	4699
2026-01-19 23:51:04.81	194.49	26.62	-43.5	-45.9	18.1	0.00e+00	0	40	0	1005584384	58	4812
2026-01-19 23:51:05.95	194.51	26.43	-43.6	-46.0	18.0	0.00e+00	0	39	0	1007681536	58	4865
2026-01-19 23:51:06.80	194.53	26.29	-43.7	-46.1	18.0	0.00e+00	0	39	0	1008730112	58	4910
2026-01-19 23:51:07.97	194.55	26.09	-43.5	-45.9	18.1	0.00e+00	0	39	0	1011875840	58	4808
2026-01-19 23:51:08.82	194.57	25.95	-43.3	-45.7	18.3	0.00e+00	0	39	0	1012924416	58	4665
2026-01-19 23:51:09.96	194.59	25.76	-43.5	-46.0	18.0	0.00e+00	0	39	0	1015021568	58	4835
2026-01-19 23:51:10.81	194.60	25.62	-43.2	-45.5	18.5	0.00e+00	0	39	0	1017118720	58	4593
2026-01-19 23:51:11.94	194.63	25.44	-43.2	-45.5	18.5	0.00e+00	0	39	0	1019215872	58	4594
2026-01-19 23:51:12.79	194.64	25.30	-43.3	-45.7	18.2	0.00e+00	0	39	0	1020264448	58	4689
2026-01-19 23:51:13.93	194.66	25.12	-43.1	-45.4	18.5	0.00e+00	0	39	0	1022361600	58	4532
2026-01-19 23:51:14.79	194.68	24.98	-43.1	-45.5	18.4	0.00e+00	0	39	0	1024458752	57	4859
2026-01-19 23:51:15.92	194.70	24.80	-43.1	-45.5	18.5	0.00e+00	0	39	0	1026555904	57	4821
2026-01-19 23:51:16.78	194.72	24.66	-43.2	-45.6	18.4	0.00e+00	0	39	0	1027604480	57	4908
2026-01-19 23:51:17.91	194.74	24.49	-43.3	-45.7	18.2	0.00e+00	0	40	0	1029701632	57	4981
2026-01-19 23:51:18.77	194.75	24.35	-42.9	-45.3	18.7	0.00e+00	0	39	0	1031798784	57	4712
2026-01-19 23:51:19.90	194.77	24.18	-43.0	-45.3	18.6	0.00e+00	0	39	0	1033895936	57	4733
2026-01-19 23:51:20.76	194.79	24.04	-42.9	-45.2	18.7	0.00e+00	0	39	0	1034944512	57	4683
2026-01-19 23:51:21.91	194.81	23.87	-42.9	-45.3	18.7	0.00e+00	0	39	0	1037041664	57	4722
2026-01-19 23:51:22.76	194.82	23.74	-43.0	-45.3	18.6	0.00e+00	0	39	0	1039138816	57	4735
2026-01-19 23:51:23.90	194.84	23.57	-42.8	-45.1	18.8	0.00e+00	0	39	0	1041235968	57	4630
2026-01-19 23:51:24.75	194.86	23.44	-42.7	-45.0	19.0	0.00e+00	0	39	0	1043333120	57	4554
2026-01-19 23:51:25.89	194.87	23.27	-42.5	-44.7	19.1	0.00e+00	0	39	0	1045430272	57	4435
2026-01-19 23:51:26.74	194.89	23.14	-42.8	-45.1	18.8	0.00e+00	0	39	0	1046478848	57	4637
2026-01-19 23:51:27.88	194.91	22.97	-42.8	-45.2	18.7	0.00e+00	0	40	0	1048576000	57	4655
2026-01-19 23:51:28.78	194.92	22.84	-42.7	-45.0	18.9	0.00e+00	0	39	0	1050673152	57	4578
2026-01-19 23:51:30.09	194.94	22.65	-42.7	-45.0	18.9	0.00e+00	0	39	0	1052770304	57	4592
2026-01-19 23:51:30.80	194.96	22.54	-42.6	-44.9	19.0	0.00e+00	0	39	0	1053818880	57	4496
2026-01-19 23:51:32.08	194.98	22.36	-42.4	-44.7	19.1	0.00e+00	0	40	0	1056964608	56	4673
2026-01-19 23:51:32.79	194.99	22.26	-42.4	-44.6	19.2	0.00e+00	0	39	0	1058013184	56	4626
2026-01-19 23:51:34.07	195.01	22.07	-42.1	-44.3	19.5	0.00e+00	0	39	0	1060110336	56	4472
2026-01-19 23:51:34.90	195.02	21.95	-42.1	-44.3	19.5	0.00e+00	0	39	0	1062207488	56	4483
2026-01-19 23:51:36.04	195.04	21.79	-41.8	-44.0	19.6	0.00e+00	0	39	0	1064304640	55	4558
2026-01-19 23:51:36.89	195.05	21.67	-41.9	-44.1	19.5	0.00e+00	0	39	0	1065353216	55	4637
2026-01-19 23:51:38.03	195.07	21.51	-42.1	-44.3	19.4	0.00e+00	0	39	0	1067450368	55	4719
2026-01-19 23:51:38.88	195.08	21.40	-42.0	-44.2	19.4	0.00e+00	0	40	0	1069547520	55	4680
2026-01-19 23:51:40.02	195.10	21.24	-42.1	-44.3	19.3	0.00e+00	0	39	0	1071644672	55	4749
2026-01-19 23:51:40.87	195.11	21.12	-42.4	-44.7	18.9	0.00e+00	0	39	0	1072693248	55	4939
2026-01-19 23:51:42.00	195.13	20.97	-42.5	-44.8	18.9	0.00e+00	0	39	0	1074790400	55	5018
2026-01-19 23:51:42.86	195.14	20.85	-43.0	-45.4	18.6	0.00e+00	0	39	0	1076887552	56	5082
2026-01-19 23:51:44.07	195.16	20.69	-43.3	-45.9	18.1	0.00e+00	0	39	0	1078984704	57	5045
2026-01-19 23:51:44.92	195.17	20.57	-43.5	-46.0	17.9	0.00e+00	0	39	0	1081081856	57	5148
2026-01-19 23:51:46.06	195.19	20.42	-43.8	-46.4	17.6	0.00e+00	0	39	0	1083179008	58	5075
2026-01-19 23:51:46.91	195.20	20.30	-43.9	-46.6	17.4	0.00e+00	0	39	0	1084227584	58	5218
2026-01-19 23:51:48.05	195.22	20.15	-44.1	-46.8	17.2	0.00e+00	0	39	0	1086324736	58	5324
2026-01-19 23:51:48.91	195.23	20.04	-44.3	-47.1	17.0	0.00e+00	0	39	0	1088421888	59	5174
2026-01-19 23:51:50.04	195.25	19.89	-44.3	-47.1	16.8	0.00e+00	0	39	0	1090519040	59	5210
2026-01-19 23:51:50.90	195.26	19.78	-44.2	-47.0	17.0	0.00e+00	0	39	0	1091567616	59	5152
2026-01-19 23:51:52.03	195.28	19.63	-44.3	-47.2	16.9	0.00e+00	0	39	0	1093664768	59	5230
2026-01-19 23:51:52.89	195.29	19.52	-44.3	-47.2	16.9	0.00e+00	0	39	0	1095761920	59	5234
2026-01-19 23:51:54.02	195.30	19.38	-44.2	-47.1	16.9	0.00e+00	0	39	0	1097859072	59	5202
2026-01-19 23:51:54.87	195.31	19.27	-44.3	-47.2	16.8	0.00e+00	0	40	0	1098907648	59	5270
2026-01-19 23:51:56.01	195.33	19.12	-44.3	-47.3	16.8	0.00e+00	0	39	0	1101004800	59	5283
2026-01-19 23:51:56.86	195.34	19.02	-44.2	-47.0	17.0	0.00e+00	0	39	0	1103101952	59	5135
2026-01-19 23:51:58.00	195.36	18.87	-44.3	-47.2	16.8	0.00e+00	0	39	0	1105199104	59	5270
2026-01-19 23:51:58.86	195.37	18.76	-44.3	-47.3	16.7	0.00e+00	0	39	0	1106247680	59	5285
2026-01-19 23:51:59.99	195.38	18.62	-44.3	-47.2	16.8	0.00e+00	0	39	0	1109393408	59	5267
2026-01-19 23:52:00.85	195.39	18.52	-44.3	-47.2	16.8	0.00e+00	0	39	0	1110441984	59	5247
2026-01-19 23:52:02.10	195.41	18.36	-44.4	-47.3	16.6	0.00e+00	0	39	0	1112539136	59	5331
2026-01-19 23:52:02.95	195.42	18.26	-44.5	-47.5	16.6	0.00e+00	0	39	0	1114636288	59	5423
2026-01-19 23:52:04.09	195.44	18.12	-44.3	-47.2	16.8	0.00e+00	0	40	0	1116733440	59	5277
2026-01-19 23:52:04.94	195.45	18.02	-44.2	-47.1	16.9	0.00e+00	0	39	0	1117782016	59	5199
2026-01-19 23:52:06.08	195.46	17.88	-44.3	-47.2	16.8	0.00e+00	0	39	0	1119879168	59	5260
2026-01-19 23:52:06.93	195.47	17.78	-44.2	-47.0	16.9	0.00e+00	0	39	0	1121976320	59	5151
2026-01-19 23:52:08.06	195.49	17.64	-44.2	-47.1	16.9	0.00e+00	0	39	0	1124073472	59	5189
2026-01-19 23:52:08.92	195.50	17.54	-44.1	-46.9	17.0	0.00e+00	0	39	0	1126170624	59	5087
2026-01-19 23:52:10.05	195.51	17.40	-43.9	-46.7	17.3	0.00e+00	0	40	0	1128267776	59	4949
2026-01-19 23:52:10.91	195.52	17.30	-44.0	-46.8	17.1	0.00e+00	0	39	0	1129316352	59	5023
2026-01-19 23:52:12.04	195.54	17.17	-43.9	-46.7	17.3	0.00e+00	0	39	0	1131413504	59	4928
2026-01-19 23:52:12.89	195.55	17.07	-43.9	-46.7	17.3	0.00e+00	0	39	0	1133510656	59	4958
2026-01-19 23:52:14.03	195.56	16.94	-44.0	-46.8	17.2	0.00e+00	0	39	0	1135607808	59	5021
2026-01-19 23:52:14.88	195.57	16.84	-43.9	-46.8	17.2	0.00e+00	0	39	0	1136656384	59	4997
2026-01-19 23:52:16.02	195.59	16.71	-44.0	-46.8	17.1	0.00e+00	0	39	0	1138753536	59	5028
2026-01-19 23:52:16.87	195.60	16.61	-44.0	-46.9	17.1	0.00e+00	0	39	0	1140850688	59	5050
2026-01-19 23:52:18.06	195.61	16.48	-44.1	-47.0	17.0	0.00e+00	0	39	0	1142947840	59	5106
2026-01-19 23:52:18.91	195.62	16.38	-44.2	-47.1	16.8	0.00e+00	0	39	0	1143996416	59	5208
2026-01-19 23:52:20.05	195.63	16.25	-44.2	-47.1	16.8	0.00e+00	0	39	0	1146093568	59	5194
2026-01-19 23:52:20.90	195.64	16.15	-44.1	-47.0	16.8	0.00e+00	0	39	0	1148190720	59	5152
2026-01-19 23:52:22.04	195.66	16.03	-44.2	-47.2	16.8	0.00e+00	0	39	0	1150287872	59	5233
2026-01-19 23:52:22.89	195.67	15.93	-44.3	-47.2	16.7	0.00e+00	0	39	0	1151336448	59	5270
2026-01-19 23:52:24.03	195.68	15.80	-44.3	-47.3	16.7	0.00e+00	0	39	0	1154482176	59	5290
2026-01-19 23:52:24.88	195.69	15.71	-44.4	-47.4	16.6	0.00e+00	0	39	0	1155530752	59	5353
2026-01-19 23:52:26.02	195.70	15.59	-44.5	-47.5	16.5	0.00e+00	0	39	0	1157627904	59	5431
2026-01-19 23:52:26.87	195.71	15.49	-44.5	-47.6	16.4	0.00e+00	0	39	0	1159725056	59	5482
2026-01-19 23:52:28.01	195.73	15.37	-44.6	-47.8	16.2	0.00e+00	0	39	0	1161822208	60	5300
2026-01-19 23:52:28.86	195.73	15.28	-44.8	-47.9	16.1	0.00e+00	0	39	0	1162870784	60	5395
2026-01-19 23:52:29.99	195.75	15.15	-44.6	-47.7	16.3	0.00e+00	0	39	0	1164967936	60	5270
2026-01-19 23:52:30.84	195.76	15.06	-44.8	-48.0	16.1	0.00e+00	0	39	0	1167065088	60	5419
2026-01-19 23:52:31.98	195.77	14.94	-44.8	-48.1	16.0	0.00e+00	0	39	0	1169162240	60	5474
2026-01-19 23:52:32.83	195.78	14.85	-45.0	-48.3	15.7	0.00e+00	0	39	0	1170210816	60	5624
2026-01-19 23:52:34.13	195.79	14.71	-45.0	-48.4	15.7	0.00e+00	0	39	0	1173356544	60	5679
2026-01-19 23:52:34.84	195.80	14.64	-44.9	-48.2	15.9	0.00e+00	0	39	0	1174405120	60	5542
2026-01-19 23:52:36.12	195.81	14.50	-45.0	-48.3	15.7	0.00e+00	0	39	0	1176502272	60	5634
2026-01-19 23:52:36.83	195.82	14.43	-44.9	-48.2	15.8	0.00e+00	0	39	0	1177550848	60	5554
2026-01-19 23:52:38.12	195.84	14.29	-45.0	-48.3	15.8	0.00e+00	0	39	0	1180696576	60	5607
2026-01-19 23:52:38.87	195.84	14.21	-44.8	-48.0	15.9	0.00e+00	0	39	0	1181745152	60	5457
2026-01-19 23:52:40.15	195.86	14.08	-44.7	-47.9	16.1	0.00e+00	0	39	0	1183842304	60	5344
2026-01-19 23:52:40.86	195.86	14.01	-44.7	-47.8	16.2	0.00e+00	0	39	0	1185939456	60	5321
2026-01-19 23:52:42.14	195.88	13.88	-44.5	-47.6	16.2	0.00e+00	0	39	0	1188036608	60	5213
2026-01-19 23:52:42.85	195.89	13.81	-44.4	-47.5	16.5	0.00e+00	0	39	0	1189085184	60	5121
2026-01-19 23:52:44.12	195.90	13.68	-44.5	-47.5	16.4	0.00e+00	0	39	0	1191182336	60	5151
2026-01-19 23:52:45.05	195.91	13.58	-44.3	-47.3	16.6	0.00e+00	0	39	0	1193279488	60	5036
2026-01-19 23:52:46.35	195.92	13.45	-44.5	-47.6	16.4	0.00e+00	0	39	0	1195376640	60	5169
2026-01-19 23:52:47.09	195.93	13.38	-44.4	-47.5	16.5	0.00e+00	0	39	0	1197473792	60	5118
2026-01-19 23:52:48.37	195.94	13.25	-44.2	-47.2	16.8	0.00e+00	0	39	0	1199570944	60	4947
2026-01-19 23:52:49.08	195.95	13.18	-44.4	-47.4	16.5	0.00e+00	0	39	0	1200619520	60	5094
2026-01-19 23:52:50.72	195.97	13.02	-44.4	-47.4	16.5	0.00e+00	0	39	0	1203765248	60	5088
2026-01-19 23:52:51.29	195.97	12.96	-44.4	-47.5	16.4	0.00e+00	0	39	0	1204813824	60	5111
2026-01-19 23:52:52.99	195.99	12.79	-44.2	-47.2	16.7	0.00e+00	0	39	0	1207959552	60	4978
2026-01-19 23:52:53.56	195.99	12.74	-44.2	-47.2	16.8	0.00e+00	0	39	0	1209008128	60	4944
2026-01-19 23:52:55.27	196.01	12.57	-44.1	-47.1	16.9	0.00e+00	0	40	0	1212153856	60	4888
2026-01-19 23:52:55.84	196.02	12.52	-44.1	-46.9	16.9	0.00e+00	0	39	0	1213202432	59	5094
2026-01-19 23:52:57.54	196.03	12.35	-44.0	-46.8	17.0	0.00e+00	0	39	0	1216348160	59	5013
2026-01-19 23:52:58.11	196.04	12.30	-43.8	-46.7	17.2	0.00e+00	0	39	0	1217396736	59	4937
2026-01-19 23:52:59.86	196.06	12.13	-43.8	-46.6	17.2	0.00e+00	0	40	0	1221591040	59	4894
2026-01-19 23:53:00.43	196.06	12.08	-43.8	-46.7	17.1	0.00e+00	0	39	0	1222639616	59	4942
2026-01-19 23:53:02.13	196.08	11.91	-43.9	-46.7	17.1	0.00e+00	0	39	0	1225785344	59	4975
2026-01-19 23:53:02.70	196.08	11.86	-43.9	-46.8	17.1	0.00e+00	0	39	0	1226833920	59	4987
2026-01-19 23:53:04.41	196.10	11.70	-43.9	-46.8	17.1	0.00e+00	0	39	0	1229979648	59	4994
2026-01-19 23:53:04.98	196.10	11.65	-43.8	-46.7	17.1	0.00e+00	0	39	0	1231028224	59	4940
