passes_logs/2026/01/19/T1/T1__20260119_122933_FENGYUN_3D_rec.log

#Pass ID: 20260119_122933_FENGYUN 3D
#Satellite: FENGYUN 3D
#Configuration: FENGYUN 3D
#almurnet v.1.7.20251203
#Start time: 2026-01-19 12:29:33

#Version: 2.0.20230620
#Station: T1
#Location: 37.570604 lon 55.790049 lat
#TLE: 1 43010U 17072A   26018.95027258  .00000058  00000+0  49274-4 0  9992
#TLE: 2 43010  98.9939 350.8271 0002416 102.0826 258.0620 14.19696908423819

#Time	Az	El	Level	Level2	SNR	BER	BlckErr	Temp	State	Recorded	gain1	gain2
2026-01-19 12:29:33.30	176.24	4.98	-46.9	-60.1	3.8	8.46e-01	0	37	0	0	64	17391
2026-01-19 12:29:34.29	176.28	5.05	-46.9	-60.1	3.8	8.47e-01	0	37	104	0	65	16350
2026-01-19 12:29:35.29	176.31	5.12	-46.9	-60.1	3.8	8.48e-01	0	37	104	0	65	16472
2026-01-19 12:29:36.28	176.34	5.19	-46.9	-60.1	3.8	8.47e-01	0	37	104	0	65	16331
2026-01-19 12:29:37.27	176.37	5.26	-46.9	-60.1	3.8	8.47e-01	0	37	104	0	65	16391
2026-01-19 12:29:38.26	176.40	5.33	-46.9	-60.1	3.8	8.47e-01	0	37	104	0	65	16410
2026-01-19 12:29:39.26	176.43	5.40	-46.9	-60.1	3.8	8.47e-01	0	37	104	0	65	16388
2026-01-19 12:29:40.25	176.46	5.47	-46.9	-60.1	3.8	8.46e-01	0	37	104	0	65	16338
2026-01-19 12:29:41.24	176.49	5.55	-46.9	-60.1	3.8	8.47e-01	0	37	104	0	65	16369
2026-01-19 12:29:42.24	176.52	5.62	-46.9	-60.1	3.8	8.47e-01	0	37	104	0	65	16435
2026-01-19 12:29:43.23	176.55	5.69	-46.9	-60.1	3.8	8.47e-01	0	37	104	0	65	16350
2026-01-19 12:29:44.22	176.58	5.76	-46.9	-60.1	3.8	8.47e-01	0	37	104	0	65	16391
2026-01-19 12:29:45.22	176.62	5.83	-46.9	-60.1	3.8	8.46e-01	0	38	104	0	65	16375
2026-01-19 12:29:46.21	176.65	5.90	-46.9	-60.1	3.8	8.47e-01	0	38	104	0	65	16333
2026-01-19 12:29:47.20	176.68	5.98	-46.9	-60.1	3.8	8.47e-01	0	38	104	0	65	16385
2026-01-19 12:29:48.20	176.71	6.05	-46.9	-60.0	3.8	8.48e-01	0	37	104	0	65	16314
2026-01-19 12:29:49.19	176.74	6.12	-46.9	-60.1	3.8	8.46e-01	0	38	104	0	65	16327
2026-01-19 12:29:50.18	176.78	6.20	-46.9	-60.1	3.8	8.47e-01	0	38	104	0	65	16368
2026-01-19 12:29:51.17	176.81	6.27	-46.9	-60.1	3.8	8.48e-01	0	38	104	0	65	16348
2026-01-19 12:29:52.17	176.84	6.34	-46.9	-60.1	3.8	8.47e-01	0	38	104	0	65	16333
2026-01-19 12:29:53.16	176.87	6.42	-46.8	-60.1	3.8	8.47e-01	0	38	104	0	65	16415
2026-01-19 12:29:54.15	176.91	6.49	-46.9	-60.0	3.8	8.48e-01	0	38	104	0	65	16309
2026-01-19 12:29:55.14	176.94	6.56	-46.9	-60.1	3.8	8.48e-01	0	38	104	0	65	16445
2026-01-19 12:29:56.14	176.97	6.64	-46.9	-60.1	3.8	8.47e-01	0	38	104	0	65	16374
2026-01-19 12:29:57.13	177.01	6.71	-46.9	-60.1	3.8	8.46e-01	0	38	104	0	65	16376
2026-01-19 12:29:58.12	177.04	6.79	-46.9	-60.1	3.8	8.47e-01	0	38	104	0	65	16389
2026-01-19 12:29:59.12	177.07	6.86	-46.9	-60.1	3.8	8.46e-01	0	38	104	0	65	16385
2026-01-19 12:30:00.11	177.11	6.94	-46.9	-60.1	3.8	8.47e-01	0	38	104	0	65	16337
2026-01-19 12:30:01.10	177.14	7.01	-46.9	-60.1	3.8	8.47e-01	0	38	104	0	65	16410
2026-01-19 12:30:02.10	177.18	7.09	-46.9	-60.1	3.8	8.47e-01	0	38	104	0	65	16369
2026-01-19 12:30:03.09	177.21	7.16	-46.8	-60.1	3.8	8.48e-01	0	38	104	0	65	16363
2026-01-19 12:30:04.08	177.25	7.24	-46.9	-60.1	3.8	8.46e-01	0	38	104	0	65	16358
2026-01-19 12:30:05.08	177.28	7.32	-46.8	-60.1	3.8	8.47e-01	0	38	104	0	65	16378
2026-01-19 12:30:06.07	177.32	7.39	-46.9	-60.1	3.8	8.46e-01	0	38	104	0	65	16412
2026-01-19 12:30:07.06	177.35	7.47	-46.9	-60.1	3.8	8.47e-01	0	38	104	0	65	16335
2026-01-19 12:30:08.05	177.39	7.54	-46.9	-60.1	3.8	8.47e-01	0	38	104	0	65	16416
2026-01-19 12:30:09.05	177.42	7.62	-46.9	-60.1	3.8	8.47e-01	0	38	104	0	65	16369
2026-01-19 12:30:10.04	177.46	7.70	-46.9	-60.1	3.8	8.46e-01	0	38	104	0	65	16339
2026-01-19 12:30:11.03	177.49	7.78	-46.9	-60.1	3.8	8.47e-01	0	38	104	0	65	16369
2026-01-19 12:30:12.03	177.53	7.85	-46.9	-60.1	3.8	8.47e-01	0	38	104	0	65	16357
2026-01-19 12:30:13.02	177.56	7.93	-46.9	-60.1	3.8	8.45e-01	0	38	104	0	65	16381
2026-01-19 12:30:14.01	177.60	8.01	-46.9	-60.1	3.8	8.48e-01	0	38	104	0	65	16373
2026-01-19 12:30:15.01	177.64	8.09	-46.9	-60.1	3.8	8.47e-01	0	38	104	0	65	16392
2026-01-19 12:30:16.00	177.67	8.17	-46.9	-60.1	3.8	8.47e-01	0	38	104	0	65	16410
2026-01-19 12:30:16.99	177.71	8.25	-46.9	-60.1	3.8	8.46e-01	0	38	104	0	65	16374
2026-01-19 12:30:17.99	177.75	8.33	-46.9	-60.1	3.8	8.46e-01	0	38	104	0	65	16381
2026-01-19 12:30:18.98	177.78	8.40	-46.9	-60.0	3.8	8.47e-01	0	39	104	0	65	16271
2026-01-19 12:30:19.97	177.82	8.48	-46.9	-60.1	3.8	8.47e-01	0	39	104	0	65	16396
2026-01-19 12:30:20.96	177.86	8.56	-46.9	-60.1	3.8	8.48e-01	0	39	104	0	65	16397
2026-01-19 12:30:21.96	177.90	8.64	-46.9	-60.1	3.8	8.47e-01	0	38	104	0	65	16325
2026-01-19 12:30:22.95	177.94	8.72	-46.9	-60.1	3.8	8.48e-01	0	39	104	0	65	16330
2026-01-19 12:30:23.94	177.97	8.80	-46.9	-60.1	3.8	8.46e-01	0	39	104	0	65	16390
2026-01-19 12:30:24.94	178.01	8.89	-46.8	-60.1	3.8	8.48e-01	0	39	104	0	65	16322
2026-01-19 12:30:25.93	178.05	8.97	-46.9	-60.1	3.8	8.46e-01	0	39	104	0	65	16427
2026-01-19 12:30:26.92	178.09	9.05	-46.9	-60.1	3.8	8.47e-01	0	39	104	0	65	16381
2026-01-19 12:30:27.91	178.13	9.13	-46.9	-60.1	3.8	8.47e-01	0	39	104	0	65	16418
2026-01-19 12:30:28.91	178.17	9.21	-46.9	-60.1	3.8	8.47e-01	0	38	104	0	65	16325
2026-01-19 12:30:29.90	178.21	9.29	-46.9	-60.1	3.8	8.48e-01	0	39	104	0	65	16391
2026-01-19 12:30:30.89	178.25	9.38	-46.9	-60.1	3.8	8.47e-01	0	39	104	0	65	16328
2026-01-19 12:30:31.89	178.29	9.46	-46.9	-60.1	3.8	8.47e-01	0	39	104	0	65	16406
2026-01-19 12:30:32.88	178.33	9.54	-46.9	-60.1	3.8	8.46e-01	0	39	104	0	65	16398
2026-01-19 12:30:33.87	178.37	9.62	-46.9	-60.1	3.8	8.48e-01	0	39	104	0	65	16374
2026-01-19 12:30:34.87	178.41	9.71	-46.9	-60.1	3.8	8.47e-01	0	39	104	0	65	16350
2026-01-19 12:30:35.86	178.45	9.79	-46.9	-60.1	3.8	8.46e-01	0	39	104	0	65	16369
2026-01-19 12:30:36.85	178.49	9.88	-46.9	-60.1	3.8	8.47e-01	0	39	104	0	65	16410
2026-01-19 12:30:37.85	178.53	9.96	-46.9	-60.1	3.8	8.48e-01	0	39	104	0	65	16354
2026-01-19 12:30:38.84	178.57	10.05	-46.9	-60.1	3.8	8.48e-01	0	39	104	0	65	16384
2026-01-19 12:30:39.83	178.61	10.13	-46.9	-60.1	3.8	8.46e-01	0	39	104	0	65	16418
2026-01-19 12:30:40.83	178.65	10.22	-46.9	-60.1	3.8	8.47e-01	0	39	104	0	65	16471
2026-01-19 12:30:41.82	178.70	10.30	-46.9	-60.1	3.8	8.47e-01	0	39	104	0	65	16372
2026-01-19 12:30:42.81	178.74	10.39	-46.9	-60.1	3.8	8.47e-01	0	39	104	0	65	16359
2026-01-19 12:30:43.80	178.78	10.47	-46.9	-60.1	3.8	8.47e-01	0	39	104	0	65	16353
2026-01-19 12:30:44.80	178.82	10.56	-46.9	-60.1	3.8	8.47e-01	0	39	104	0	65	16470
2026-01-19 12:30:45.79	178.87	10.64	-46.9	-60.1	3.8	8.47e-01	0	39	104	0	65	16342
2026-01-19 12:30:46.78	178.91	10.73	-46.9	-60.1	3.8	8.47e-01	0	39	104	0	65	16419
2026-01-19 12:30:47.78	178.95	10.82	-46.9	-60.1	3.8	8.46e-01	0	39	104	0	65	16371
2026-01-19 12:30:48.77	179.00	10.91	-46.9	-60.1	3.8	8.48e-01	0	39	104	0	65	16324
2026-01-19 12:30:49.76	179.04	10.99	-46.9	-60.1	3.8	8.47e-01	0	39	104	0	65	16406
2026-01-19 12:30:50.75	179.08	11.08	-46.9	-60.1	3.8	8.47e-01	0	39	104	0	65	16411
2026-01-19 12:30:51.75	179.13	11.17	-46.9	-60.1	3.8	8.47e-01	0	39	104	0	65	16391
2026-01-19 12:30:52.74	179.17	11.26	-46.9	-60.1	3.8	8.47e-01	0	39	104	0	65	16354
2026-01-19 12:30:53.73	179.22	11.35	-46.9	-60.1	3.8	8.46e-01	0	39	104	0	65	16376
2026-01-19 12:30:54.73	179.26	11.44	-46.9	-60.1	3.8	8.47e-01	0	39	104	0	65	16346
2026-01-19 12:30:55.72	179.31	11.53	-46.9	-60.1	3.8	8.46e-01	0	39	104	0	65	16391
2026-01-19 12:30:56.71	179.35	11.62	-46.9	-60.1	3.8	8.47e-01	0	39	104	0	65	16391
2026-01-19 12:30:57.71	179.40	11.71	-46.9	-60.1	3.8	8.47e-01	0	39	104	0	65	16389
2026-01-19 12:30:58.70	179.45	11.80	-46.9	-60.1	3.8	8.48e-01	0	39	104	0	65	16420
2026-01-19 12:30:59.69	179.49	11.89	-46.9	-60.1	3.8	8.47e-01	0	39	104	0	65	16414
2026-01-19 12:31:00.69	179.54	11.98	-46.9	-60.1	3.8	8.47e-01	0	39	104	0	65	16398
2026-01-19 12:31:01.68	179.59	12.07	-46.9	-60.1	3.8	8.46e-01	0	39	104	0	65	16399
2026-01-19 12:31:02.67	179.63	12.16	-46.9	-60.1	3.8	8.46e-01	0	39	104	0	65	16437
2026-01-19 12:31:03.66	179.68	12.25	-46.9	-60.1	3.8	8.46e-01	0	39	104	0	65	16353
2026-01-19 12:31:04.66	179.73	12.35	-46.9	-60.1	3.8	8.46e-01	0	39	104	0	65	16452
2026-01-19 12:31:05.65	179.78	12.44	-46.9	-60.1	3.8	8.47e-01	0	39	104	0	65	16387
2026-01-19 12:31:06.64	179.83	12.53	-46.9	-60.1	3.8	8.46e-01	0	39	104	0	65	16413
2026-01-19 12:31:07.63	179.87	12.63	-46.9	-60.1	3.8	8.46e-01	0	39	104	0	65	16439
2026-01-19 12:31:08.63	179.92	12.72	-46.9	-60.1	3.8	8.47e-01	0	39	104	0	65	16354
2026-01-19 12:31:09.62	179.97	12.81	-46.9	-60.1	3.8	8.47e-01	0	39	104	0	65	16430
2026-01-19 12:31:10.61	180.02	12.91	-46.9	-60.1	3.8	8.47e-01	0	39	104	0	65	16449
2026-01-19 12:31:11.61	180.07	13.00	-46.9	-60.1	3.8	8.47e-01	0	39	104	0	65	16432
2026-01-19 12:31:12.60	180.12	13.10	-46.9	-60.1	3.8	8.47e-01	0	39	104	0	65	16426
2026-01-19 12:31:13.59	180.17	13.19	-46.9	-60.1	3.8	8.47e-01	0	39	104	0	65	16404
2026-01-19 12:31:14.59	180.22	13.29	-46.9	-60.1	3.8	8.47e-01	0	39	104	0	65	16414
2026-01-19 12:31:15.58	180.27	13.39	-46.9	-60.1	3.8	8.47e-01	0	39	104	0	65	16356
2026-01-19 12:31:16.57	180.33	13.48	-46.9	-60.1	3.8	8.47e-01	0	39	104	0	65	16420
2026-01-19 12:31:17.57	180.38	13.58	-46.9	-60.1	3.8	8.47e-01	0	39	104	0	65	16354
2026-01-19 12:31:18.56	180.43	13.68	-46.9	-60.1	3.8	8.49e-01	0	39	104	0	65	16383
2026-01-19 12:31:19.55	180.48	13.78	-46.9	-60.1	3.8	8.47e-01	0	39	104	0	65	16397
2026-01-19 12:31:20.55	180.53	13.88	-46.9	-60.1	3.8	8.48e-01	0	39	104	0	65	16414
2026-01-19 12:31:21.54	180.59	13.97	-46.9	-60.1	3.8	8.47e-01	0	39	104	0	65	16447
2026-01-19 12:31:22.53	180.64	14.07	-46.9	-60.1	3.8	8.46e-01	0	39	104	0	65	16321
2026-01-19 12:31:23.52	180.69	14.17	-46.9	-60.1	3.8	8.47e-01	0	39	104	0	65	16358
2026-01-19 12:31:24.52	180.75	14.27	-46.9	-60.1	3.8	8.47e-01	0	39	104	0	65	16347
2026-01-19 12:31:25.51	180.80	14.37	-46.9	-60.1	3.8	8.47e-01	0	39	104	0	65	16391
2026-01-19 12:31:26.50	180.86	14.47	-46.9	-60.1	3.8	8.47e-01	0	39	104	0	65	16439
2026-01-19 12:31:27.50	180.91	14.57	-46.9	-60.1	3.8	8.46e-01	0	39	104	0	65	16389
2026-01-19 12:31:28.49	180.97	14.67	-46.9	-60.1	3.8	8.46e-01	0	39	104	0	65	16333
2026-01-19 12:31:29.48	181.02	14.78	-46.9	-60.1	3.8	8.46e-01	0	39	104	0	65	16419
2026-01-19 12:31:30.48	181.08	14.88	-46.9	-60.1	3.8	8.47e-01	0	39	104	0	65	16413
2026-01-19 12:31:31.47	181.14	14.98	-46.9	-60.1	3.8	8.46e-01	0	39	104	0	65	16447
2026-01-19 12:31:32.46	181.19	15.08	-46.9	-60.1	3.8	8.46e-01	0	40	104	0	65	16383
2026-01-19 12:31:33.46	181.25	15.19	-46.9	-60.1	3.8	8.47e-01	0	39	104	0	65	16369
2026-01-19 12:31:34.45	181.31	15.29	-46.9	-60.1	3.8	8.47e-01	0	39	104	0	65	16424
2026-01-19 12:31:35.44	181.37	15.39	-46.9	-60.1	3.8	8.47e-01	0	40	104	0	65	16395
2026-01-19 12:31:36.43	181.42	15.50	-46.9	-60.1	3.8	8.47e-01	0	39	104	0	65	16428
2026-01-19 12:31:37.43	181.48	15.60	-46.8	-60.1	3.8	8.48e-01	0	39	104	0	65	16413
2026-01-19 12:31:38.42	181.54	15.71	-46.9	-60.1	3.8	8.48e-01	0	39	104	0	65	16446
2026-01-19 12:31:39.41	181.60	15.82	-46.9	-60.1	3.8	8.47e-01	0	39	104	0	65	16403
2026-01-19 12:31:40.41	181.66	15.92	-46.9	-60.1	3.8	8.47e-01	0	39	104	0	65	16491
2026-01-19 12:31:41.40	181.72	16.03	-46.9	-60.1	3.8	8.47e-01	0	40	104	0	65	16447
2026-01-19 12:31:42.39	181.78	16.14	-46.9	-60.1	3.8	8.47e-01	0	40	104	0	65	16433
2026-01-19 12:31:43.39	181.84	16.24	-46.9	-60.1	3.8	8.48e-01	0	39	104	0	65	16374
2026-01-19 12:31:44.38	181.91	16.35	-46.9	-60.2	3.8	8.47e-01	0	40	104	0	65	16504
2026-01-19 12:31:45.37	181.97	16.46	-46.9	-60.1	3.8	8.46e-01	0	40	104	0	65	16399
2026-01-19 12:31:46.36	182.03	16.57	-46.9	-60.1	3.8	8.48e-01	0	39	104	0	65	16441
2026-01-19 12:31:47.36	182.09	16.68	-46.9	-60.1	3.8	8.47e-01	0	39	104	0	65	16411
2026-01-19 12:31:48.35	182.16	16.79	-46.9	-60.1	3.8	8.47e-01	0	39	104	0	65	16411
2026-01-19 12:31:49.34	182.22	16.90	-46.9	-60.1	3.8	8.47e-01	0	39	104	0	65	16394
2026-01-19 12:31:50.34	182.28	17.01	-46.9	-60.1	3.8	8.47e-01	0	39	104	0	65	16453
2026-01-19 12:31:51.33	182.35	17.12	-46.9	-60.1	3.8	8.47e-01	0	39	104	0	65	16413
2026-01-19 12:31:52.32	182.41	17.23	-46.9	-60.1	3.8	8.47e-01	0	39	104	0	65	16462
2026-01-19 12:31:53.32	182.48	17.35	-46.9	-60.1	3.8	8.47e-01	0	39	104	0	65	16451
2026-01-19 12:31:54.31	182.55	17.46	-46.9	-60.1	3.8	8.47e-01	0	39	104	0	65	16450
2026-01-19 12:31:55.30	182.61	17.57	-46.9	-60.2	3.8	8.48e-01	0	40	104	0	65	16518
2026-01-19 12:31:56.30	182.68	17.69	-46.9	-60.1	3.8	8.47e-01	0	40	104	0	65	16417
2026-01-19 12:31:57.29	182.75	17.80	-46.9	-60.1	3.8	8.47e-01	0	40	104	0	65	16465
2026-01-19 12:31:58.28	182.81	17.91	-46.9	-60.1	3.8	8.48e-01	0	40	104	0	65	16431
2026-01-19 12:31:59.27	182.88	18.03	-46.9	-60.1	3.8	8.48e-01	0	40	104	0	65	16441
2026-01-19 12:32:00.27	182.95	18.15	-46.9	-60.1	3.8	8.47e-01	0	40	104	0	65	16438
2026-01-19 12:32:01.26	183.02	18.26	-46.9	-60.1	3.8	8.47e-01	0	40	104	0	65	16402
2026-01-19 12:32:02.25	183.09	18.38	-46.9	-60.1	3.8	8.47e-01	0	40	104	0	65	16415
2026-01-19 12:32:03.25	183.16	18.50	-46.9	-60.1	3.8	8.46e-01	0	40	104	0	65	16316
2026-01-19 12:32:04.24	183.23	18.61	-46.9	-60.1	3.8	8.47e-01	0	40	104	0	65	16392
2026-01-19 12:32:05.23	183.30	18.73	-46.9	-60.1	3.8	8.47e-01	0	40	104	0	65	16464
2026-01-19 12:32:06.23	183.38	18.85	-46.9	-60.2	3.8	8.47e-01	0	40	104	0	65	16505
2026-01-19 12:32:07.22	183.45	18.97	-46.9	-60.1	3.8	8.47e-01	0	40	104	0	65	16404
2026-01-19 12:32:08.21	183.52	19.09	-46.9	-60.1	3.8	8.47e-01	0	40	104	0	65	16424
2026-01-19 12:32:09.20	183.60	19.21	-46.9	-60.1	3.8	8.46e-01	0	40	104	0	65	16479
2026-01-19 12:32:10.20	183.67	19.33	-46.9	-60.1	3.8	8.47e-01	0	40	104	0	65	16467
2026-01-19 12:32:11.19	183.74	19.45	-46.9	-60.1	3.8	8.47e-01	0	40	104	0	65	16503
2026-01-19 12:32:12.18	183.82	19.57	-46.9	-60.1	3.8	8.47e-01	0	40	104	0	65	16403
2026-01-19 12:32:13.18	183.90	19.70	-46.9	-60.1	3.8	8.47e-01	0	40	104	0	65	16481
2026-01-19 12:32:14.17	183.97	19.82	-46.9	-60.1	3.8	8.47e-01	0	40	104	0	65	16390
2026-01-19 12:32:15.16	184.05	19.94	-46.9	-60.1	3.8	8.46e-01	0	40	104	0	65	16491
2026-01-19 12:32:16.16	184.13	20.07	-46.9	-60.1	3.8	8.49e-01	0	40	104	0	65	16403
2026-01-19 12:32:17.15	184.21	20.19	-46.9	-60.1	3.8	8.47e-01	0	40	104	0	65	16442
2026-01-19 12:32:18.14	184.28	20.32	-46.9	-60.1	3.8	8.47e-01	0	40	104	0	65	16397
2026-01-19 12:32:19.13	184.36	20.45	-46.9	-60.2	3.8	8.48e-01	0	40	104	0	65	16531
2026-01-19 12:32:20.13	184.44	20.57	-46.9	-60.2	3.8	8.47e-01	0	40	104	0	65	16511
2026-01-19 12:32:21.12	184.53	20.70	-46.9	-60.1	3.8	8.47e-01	0	40	104	0	65	16411
2026-01-19 12:32:22.11	184.61	20.83	-46.9	-60.1	3.8	8.47e-01	0	40	104	0	65	16350
2026-01-19 12:32:23.11	184.69	20.96	-46.9	-60.1	3.8	8.48e-01	0	40	104	0	65	16417
2026-01-19 12:32:24.10	184.77	21.09	-46.9	-60.2	3.8	8.47e-01	0	40	104	0	65	16513
2026-01-19 12:32:25.09	184.86	21.21	-46.9	-60.1	3.8	8.46e-01	0	40	104	0	65	16351
2026-01-19 12:32:26.08	184.94	21.34	-46.9	-60.1	3.8	8.48e-01	0	40	104	0	65	16481
2026-01-19 12:32:27.08	185.02	21.48	-46.9	-60.1	3.8	8.47e-01	0	40	104	0	65	16386
2026-01-19 12:32:28.07	185.11	21.61	-46.9	-60.1	3.8	8.48e-01	0	40	104	0	65	16409
2026-01-19 12:32:29.06	185.20	21.74	-46.9	-60.1	3.8	8.47e-01	0	40	104	0	65	16496
2026-01-19 12:32:30.06	185.28	21.87	-46.9	-60.1	3.8	8.47e-01	0	40	104	0	65	16462
2026-01-19 12:32:31.05	185.37	22.01	-46.9	-60.1	3.8	8.46e-01	0	40	104	0	65	16461
2026-01-19 12:32:32.04	185.46	22.14	-46.9	-60.1	3.8	8.47e-01	0	39	104	0	65	16434
2026-01-19 12:32:33.04	185.55	22.28	-46.9	-60.1	3.8	8.47e-01	0	39	104	0	65	16460
2026-01-19 12:32:34.03	185.64	22.41	-46.9	-60.1	3.8	8.47e-01	0	40	104	0	65	16450
2026-01-19 12:32:35.02	185.73	22.55	-46.9	-60.1	3.8	8.48e-01	0	40	104	0	65	16461
2026-01-19 12:32:36.01	185.82	22.68	-46.9	-60.1	3.8	8.47e-01	0	40	104	0	65	16487
2026-01-19 12:32:37.01	185.91	22.82	-46.9	-60.1	3.8	8.47e-01	0	40	104	0	65	16500
2026-01-19 12:32:38.00	186.00	22.96	-46.9	-60.1	3.8	8.46e-01	0	40	104	0	65	16492
2026-01-19 12:32:38.99	186.10	23.10	-46.9	-60.1	3.8	8.47e-01	0	40	104	0	65	16476
2026-01-19 12:32:39.98	186.19	23.24	-46.9	-60.1	3.8	8.47e-01	0	40	104	0	65	16432
2026-01-19 12:32:40.98	186.29	23.38	-46.9	-60.1	3.8	8.47e-01	0	40	104	0	65	16415
2026-01-19 12:32:41.97	186.38	23.52	-46.9	-60.1	3.8	8.47e-01	0	40	104	0	65	16384
2026-01-19 12:32:42.96	186.48	23.66	-46.9	-60.1	3.8	8.47e-01	0	40	104	0	65	16440
2026-01-19 12:32:43.96	186.58	23.80	-46.9	-60.1	3.8	8.46e-01	0	40	104	0	65	16466
2026-01-19 12:32:44.95	186.68	23.94	-46.9	-60.1	3.8	8.48e-01	0	40	104	0	65	16448
2026-01-19 12:32:45.94	186.78	24.09	-46.9	-60.1	3.8	8.47e-01	0	40	104	0	65	16487
2026-01-19 12:32:46.94	186.88	24.23	-46.9	-60.1	3.8	8.46e-01	0	40	104	0	65	16376
2026-01-19 12:32:47.93	186.98	24.38	-46.9	-60.1	3.8	8.46e-01	0	40	104	0	65	16427
2026-01-19 12:32:48.92	187.08	24.52	-46.9	-60.1	3.8	8.47e-01	0	40	104	0	65	16468
2026-01-19 12:32:49.91	187.18	24.67	-46.9	-60.1	3.8	8.47e-01	0	40	104	0	65	16428
2026-01-19 12:32:50.91	187.29	24.82	-46.9	-60.2	3.8	8.47e-01	0	40	104	0	65	16506
2026-01-19 12:32:51.90	187.39	24.96	-46.9	-60.1	3.8	8.49e-01	0	40	104	0	65	16447
2026-01-19 12:32:52.89	187.50	25.11	-46.9	-60.2	3.8	8.47e-01	0	40	104	0	65	16549
2026-01-19 12:32:53.89	187.61	25.26	-46.9	-60.1	3.8	8.47e-01	0	40	104	0	65	16415
2026-01-19 12:32:54.88	187.72	25.41	-46.9	-60.1	3.8	8.48e-01	0	40	104	0	65	16472
2026-01-19 12:32:55.87	187.82	25.56	-46.9	-60.2	3.8	8.47e-01	0	40	104	0	65	16506
2026-01-19 12:32:56.87	187.94	25.71	-46.9	-60.1	3.8	8.47e-01	0	40	104	0	65	16477
2026-01-19 12:32:57.86	188.05	25.87	-46.9	-60.1	3.8	8.47e-01	0	40	104	0	65	16437
2026-01-19 12:32:58.85	188.16	26.02	-46.9	-60.1	3.8	8.46e-01	0	40	104	0	65	16391
2026-01-19 12:32:59.84	188.27	26.17	-46.9	-60.1	3.8	8.46e-01	0	40	104	0	65	16437
2026-01-19 12:33:00.84	188.39	26.33	-46.9	-60.1	3.8	8.47e-01	0	40	104	0	65	16447
2026-01-19 12:33:01.83	188.50	26.48	-46.9	-60.1	3.8	8.48e-01	0	40	104	0	65	16438
2026-01-19 12:33:02.82	188.62	26.64	-46.9	-60.1	3.8	8.47e-01	0	40	104	0	65	16443
2026-01-19 12:33:03.82	188.73	26.80	-46.9	-60.1	3.8	8.47e-01	0	40	104	0	65	16456
2026-01-19 12:33:04.81	188.85	26.95	-46.9	-60.1	3.8	8.47e-01	0	40	104	0	65	16434
2026-01-19 12:33:05.80	188.97	27.11	-46.9	-60.1	3.8	8.46e-01	0	40	104	0	65	16428
2026-01-19 12:33:06.79	189.09	27.27	-46.9	-60.1	3.8	8.45e-01	0	40	104	0	65	16374
2026-01-19 12:33:07.79	189.22	27.43	-46.9	-60.1	3.8	8.47e-01	0	40	104	0	65	16419
2026-01-19 12:33:08.78	189.34	27.59	-46.9	-60.1	3.8	8.46e-01	0	40	104	0	65	16422
2026-01-19 12:33:09.77	189.46	27.75	-46.9	-60.1	3.8	8.46e-01	0	40	104	0	65	16435
2026-01-19 12:33:10.76	189.59	27.91	-46.9	-60.1	3.8	8.47e-01	0	40	104	0	65	16410
2026-01-19 12:33:11.76	189.72	28.08	-46.9	-60.1	3.8	8.47e-01	0	40	104	0	65	16477
2026-01-19 12:33:12.75	189.84	28.24	-46.9	-60.1	3.8	8.48e-01	0	40	104	0	65	16339
2026-01-19 12:33:13.74	189.97	28.41	-46.9	-60.1	3.8	8.47e-01	0	40	104	0	65	16346
2026-01-19 12:33:14.73	190.10	28.57	-46.9	-60.1	3.8	8.47e-01	0	40	104	0	65	16422
2026-01-19 12:33:15.73	190.24	28.74	-46.9	-60.1	3.8	8.47e-01	0	40	104	0	65	16431
2026-01-19 12:33:16.72	190.37	28.91	-46.9	-60.1	3.8	8.48e-01	0	40	104	0	65	16403
2026-01-19 12:33:17.71	190.50	29.08	-46.9	-60.1	3.8	8.47e-01	0	40	104	0	65	16462
2026-01-19 12:33:18.71	190.64	29.25	-46.9	-60.1	3.8	8.48e-01	0	40	104	0	65	16429
2026-01-19 12:33:19.70	190.78	29.42	-46.9	-60.1	3.8	8.46e-01	0	40	104	0	65	16350
2026-01-19 12:33:20.69	190.92	29.59	-46.9	-60.1	3.8	8.46e-01	0	40	104	0	65	16452
2026-01-19 12:33:21.69	191.06	29.76	-46.9	-60.1	3.8	8.48e-01	0	40	104	0	65	16423
2026-01-19 12:33:22.68	191.20	29.93	-46.9	-60.1	3.8	8.46e-01	0	40	104	0	65	16368
2026-01-19 12:33:23.67	191.34	30.10	-46.9	-60.1	3.8	8.46e-01	0	40	104	0	65	16400
2026-01-19 12:33:24.67	191.49	30.28	-46.9	-60.1	3.8	8.48e-01	0	40	104	0	65	16404
2026-01-19 12:33:25.66	191.64	30.45	-46.9	-60.1	3.8	8.47e-01	0	40	104	0	65	16398
2026-01-19 12:33:26.65	191.78	30.63	-46.9	-60.1	3.8	8.47e-01	0	40	104	0	65	16407
2026-01-19 12:33:27.64	191.93	30.81	-46.9	-60.1	3.8	8.47e-01	0	40	104	0	65	16497
2026-01-19 12:33:28.64	192.08	30.99	-46.9	-60.1	3.8	8.46e-01	0	40	104	0	65	16360
2026-01-19 12:33:29.63	192.24	31.16	-46.9	-60.1	3.8	8.47e-01	0	40	104	0	65	16424
2026-01-19 12:33:30.62	192.39	31.34	-46.9	-60.1	3.8	8.46e-01	0	40	104	0	65	16421
2026-01-19 12:33:31.61	192.55	31.52	-46.9	-60.1	3.8	8.46e-01	0	40	104	0	65	16411
2026-01-19 12:33:32.61	192.71	31.71	-46.9	-60.1	3.8	8.47e-01	0	40	104	0	65	16432
2026-01-19 12:33:33.60	192.87	31.89	-46.9	-60.1	3.8	8.46e-01	0	40	104	0	65	16381
2026-01-19 12:33:34.59	193.03	32.07	-46.9	-60.1	3.8	8.46e-01	0	40	104	0	65	16362
2026-01-19 12:33:35.59	193.19	32.26	-46.9	-60.1	3.8	8.47e-01	0	40	104	0	65	16455
2026-01-19 12:33:36.58	193.36	32.44	-46.9	-60.1	3.8	8.46e-01	0	40	104	0	65	16472
2026-01-19 12:33:37.57	193.52	32.63	-46.9	-60.1	3.8	8.47e-01	0	40	104	0	65	16429
2026-01-19 12:33:38.57	193.69	32.81	-46.9	-60.1	3.8	8.47e-01	0	40	104	0	65	16430
2026-01-19 12:33:39.56	193.86	33.00	-46.9	-60.1	3.8	8.46e-01	0	40	104	0	65	16422
2026-01-19 12:33:40.55	194.03	33.19	-46.9	-60.1	3.8	8.46e-01	0	40	104	0	65	16431
2026-01-19 12:33:41.55	194.21	33.38	-46.9	-60.1	3.8	8.48e-01	0	40	104	0	65	16426
2026-01-19 12:33:42.54	194.39	33.57	-46.9	-60.1	3.8	8.48e-01	0	40	104	0	65	16402
2026-01-19 12:33:43.53	194.56	33.76	-46.9	-60.1	3.8	8.46e-01	0	40	104	0	65	16401
2026-01-19 12:33:44.53	194.75	33.95	-46.9	-60.1	3.8	8.47e-01	0	40	104	0	65	16401
2026-01-19 12:33:45.52	194.93	34.15	-46.9	-60.1	3.8	8.48e-01	0	40	104	0	65	16442
2026-01-19 12:33:46.51	195.11	34.34	-46.9	-60.1	3.8	8.46e-01	0	40	104	0	65	16400
2026-01-19 12:33:47.50	195.30	34.53	-46.9	-60.1	3.8	8.47e-01	0	40	104	0	65	16379
2026-01-19 12:33:48.50	195.49	34.73	-46.9	-60.1	3.8	8.47e-01	0	40	104	0	65	16364
2026-01-19 12:33:49.49	195.68	34.93	-46.9	-60.1	3.8	8.47e-01	0	40	104	0	65	16375
2026-01-19 12:33:50.48	195.87	35.12	-46.9	-60.1	3.8	8.46e-01	0	40	104	0	65	16447
2026-01-19 12:33:51.48	196.07	35.32	-46.9	-60.1	3.8	8.47e-01	0	40	104	0	65	16398
2026-01-19 12:33:52.47	196.27	35.52	-46.9	-60.1	3.8	8.47e-01	0	40	104	0	65	16367
2026-01-19 12:33:53.46	196.47	35.72	-46.9	-60.1	3.8	8.47e-01	0	40	104	0	65	16376
2026-01-19 12:33:54.46	196.67	35.92	-46.9	-60.1	3.8	8.48e-01	0	40	104	0	65	16363
2026-01-19 12:33:55.45	196.88	36.12	-46.9	-60.1	3.8	8.47e-01	0	40	104	0	65	16442
2026-01-19 12:33:56.44	197.09	36.33	-46.9	-60.1	3.8	8.46e-01	0	40	104	0	65	16403
2026-01-19 12:33:57.43	197.30	36.53	-46.9	-60.1	3.8	8.46e-01	0	40	104	0	65	16453
2026-01-19 12:33:58.43	197.51	36.73	-46.9	-60.1	3.8	8.48e-01	0	40	104	0	65	16376
2026-01-19 12:33:59.42	197.73	36.94	-46.9	-60.1	3.8	8.47e-01	0	40	104	0	65	16460
2026-01-19 12:34:00.41	197.95	37.14	-46.9	-60.1	3.8	8.46e-01	0	40	104	0	65	16346
2026-01-19 12:34:01.41	198.17	37.35	-46.9	-60.1	3.8	8.47e-01	0	40	104	0	65	16380
2026-01-19 12:34:02.40	198.39	37.56	-46.9	-60.1	3.8	8.47e-01	0	40	104	0	65	16451
2026-01-19 12:34:03.39	198.62	37.77	-46.9	-60.1	3.8	8.46e-01	0	40	104	0	65	16447
2026-01-19 12:34:04.38	198.85	37.98	-46.9	-60.1	3.8	8.47e-01	0	40	104	0	65	16393
2026-01-19 12:34:05.38	199.08	38.19	-46.9	-60.1	3.8	8.47e-01	0	40	104	0	65	16423
2026-01-19 12:34:06.37	199.32	38.40	-46.9	-60.1	3.8	8.47e-01	0	40	104	0	65	16383
2026-01-19 12:34:07.36	199.56	38.61	-46.9	-60.1	3.8	8.47e-01	0	40	104	0	65	16396
2026-01-19 12:34:08.36	199.80	38.82	-46.9	-60.1	3.8	8.47e-01	0	40	104	0	65	16349
2026-01-19 12:34:09.35	200.05	39.04	-46.9	-60.1	3.8	8.46e-01	0	40	104	0	65	16385
2026-01-19 12:34:10.34	200.29	39.25	-46.9	-60.1	3.8	8.47e-01	0	40	104	0	65	16395
2026-01-19 12:34:11.34	200.55	39.47	-46.9	-60.1	3.8	8.47e-01	0	40	104	0	65	16385
2026-01-19 12:34:12.33	200.80	39.68	-46.9	-60.1	3.8	8.48e-01	0	40	104	0	65	16367
2026-01-19 12:34:13.32	201.06	39.90	-46.9	-60.1	3.8	8.46e-01	0	40	104	0	65	16425
2026-01-19 12:34:14.32	201.32	40.11	-46.9	-60.1	3.8	8.47e-01	0	40	104	0	65	16409
2026-01-19 12:34:15.31	201.59	40.33	-46.9	-60.1	3.8	8.48e-01	0	40	104	0	65	16383
2026-01-19 12:34:16.30	201.85	40.55	-46.8	-60.1	3.8	8.47e-01	0	40	104	0	65	16351
2026-01-19 12:34:17.29	202.12	40.77	-46.9	-60.1	3.8	8.48e-01	0	40	104	0	65	16373
2026-01-19 12:34:18.29	202.40	40.99	-46.9	-60.1	3.8	8.46e-01	0	40	104	0	65	16457
2026-01-19 12:34:19.28	202.68	41.21	-46.9	-60.1	3.8	8.47e-01	0	40	104	0	65	16466
2026-01-19 12:34:20.27	202.96	41.43	-46.9	-60.1	3.8	8.48e-01	0	40	104	0	65	16426
2026-01-19 12:34:21.26	203.25	41.65	-46.9	-60.1	3.8	8.47e-01	0	40	104	0	65	16432
2026-01-19 12:34:22.26	203.54	41.87	-46.9	-60.1	3.8	8.47e-01	0	40	104	0	65	16398
2026-01-19 12:34:23.25	203.84	42.09	-46.9	-60.1	3.8	8.48e-01	0	40	104	0	65	16444
2026-01-19 12:34:24.24	204.14	42.31	-46.9	-60.1	3.8	8.47e-01	0	40	104	0	65	16380
2026-01-19 12:34:25.24	204.44	42.54	-46.9	-60.1	3.8	8.47e-01	0	40	104	0	65	16365
2026-01-19 12:34:26.23	204.75	42.76	-46.9	-60.1	3.8	8.46e-01	0	40	104	0	65	16381
2026-01-19 12:34:27.22	205.06	42.98	-46.9	-60.1	3.8	8.47e-01	0	40	104	0	65	16440
2026-01-19 12:34:28.21	205.37	43.21	-46.9	-60.1	3.8	8.47e-01	0	40	104	0	65	16342
2026-01-19 12:34:29.21	205.70	43.44	-46.9	-60.1	3.8	8.47e-01	0	40	104	0	65	16373
2026-01-19 12:34:30.20	206.02	43.66	-46.9	-60.1	3.8	8.47e-01	0	40	104	0	65	16384
2026-01-19 12:34:31.19	206.35	43.88	-46.9	-60.1	3.8	8.47e-01	0	40	104	0	65	16434
2026-01-19 12:34:32.19	206.68	44.11	-46.8	-60.1	3.8	8.47e-01	0	40	104	0	65	16446
2026-01-19 12:34:33.18	207.02	44.34	-46.9	-60.1	3.8	8.48e-01	0	40	104	0	65	16411
2026-01-19 12:34:34.17	207.36	44.56	-46.9	-60.1	3.8	8.47e-01	0	40	104	0	65	16342
2026-01-19 12:34:35.16	207.71	44.79	-46.8	-60.1	3.8	8.47e-01	0	40	104	0	65	16432
2026-01-19 12:34:36.16	208.07	45.02	-46.9	-60.1	3.8	8.47e-01	0	40	104	0	65	16410
2026-01-19 12:34:37.15	208.42	45.24	-46.9	-60.1	3.8	8.47e-01	0	40	104	0	65	16380
2026-01-19 12:34:38.14	208.79	45.47	-46.9	-60.1	3.8	8.47e-01	0	40	104	0	65	16347
2026-01-19 12:34:39.14	209.16	45.70	-46.9	-60.1	3.8	8.46e-01	0	40	104	0	65	16384
2026-01-19 12:34:40.13	209.53	45.92	-46.9	-60.1	3.8	8.47e-01	0	40	104	0	65	16369
2026-01-19 12:34:41.12	209.91	46.15	-46.9	-60.1	3.8	8.47e-01	0	40	104	0	65	16358
2026-01-19 12:34:42.12	210.30	46.38	-46.8	-60.1	3.8	8.47e-01	0	40	104	0	65	16341
2026-01-19 12:34:43.11	210.68	46.60	-46.9	-60.1	3.8	8.47e-01	0	40	104	0	65	16432
2026-01-19 12:34:44.10	211.08	46.83	-46.9	-60.1	3.8	8.47e-01	0	40	104	0	65	16377
2026-01-19 12:34:45.10	211.48	47.05	-46.9	-60.1	3.8	8.48e-01	0	40	104	0	65	16448
2026-01-19 12:34:46.09	211.89	47.28	-46.9	-60.1	3.8	8.48e-01	0	40	104	0	65	16317
2026-01-19 12:34:47.08	212.30	47.50	-46.9	-60.1	3.8	8.47e-01	0	40	104	0	65	16408
2026-01-19 12:34:48.07	212.72	47.73	-46.9	-60.1	3.8	8.46e-01	0	40	104	0	65	16451
2026-01-19 12:34:49.07	213.15	47.95	-46.9	-60.1	3.8	8.47e-01	0	40	104	0	65	16389
2026-01-19 12:34:50.06	213.58	48.18	-46.9	-60.1	3.8	8.46e-01	0	40	104	0	65	16399
2026-01-19 12:34:51.05	214.01	48.40	-46.9	-60.1	3.8	8.48e-01	0	40	104	0	65	16399
2026-01-19 12:34:52.05	214.46	48.62	-46.8	-60.1	3.8	8.46e-01	0	40	104	0	65	16392
2026-01-19 12:34:53.04	214.91	48.84	-46.9	-60.2	3.8	8.47e-01	0	40	104	0	65	16511
2026-01-19 12:34:54.03	215.36	49.07	-46.9	-60.1	3.8	8.46e-01	0	40	104	0	65	16429
2026-01-19 12:34:55.02	215.82	49.28	-46.9	-60.1	3.8	8.45e-01	0	40	104	0	65	16420
2026-01-19 12:34:56.02	216.30	49.51	-46.9	-60.1	3.8	8.48e-01	0	40	104	0	65	16421
2026-01-19 12:34:57.01	216.77	49.72	-46.9	-60.1	3.8	8.46e-01	0	40	104	0	65	16399
2026-01-19 12:34:58.00	217.25	49.94	-46.9	-60.1	3.8	8.48e-01	0	40	104	0	65	16398
2026-01-19 12:34:59.00	217.75	50.16	-46.9	-60.1	3.8	8.46e-01	0	40	104	0	65	16449
2026-01-19 12:34:59.99	218.24	50.37	-46.9	-60.1	3.8	8.47e-01	0	40	104	0	65	16403
2026-01-19 12:35:00.98	218.74	50.58	-46.9	-60.1	3.8	8.46e-01	0	40	104	0	65	16460
2026-01-19 12:35:01.97	219.25	50.80	-46.9	-60.1	3.8	8.48e-01	0	40	104	0	65	16445
2026-01-19 12:35:02.97	219.77	51.01	-46.9	-60.1	3.8	8.47e-01	0	40	104	0	65	16413
2026-01-19 12:35:03.96	220.30	51.22	-46.9	-60.1	3.8	8.47e-01	0	40	104	0	65	16465
2026-01-19 12:35:04.95	220.83	51.42	-46.9	-60.1	3.8	8.47e-01	0	40	104	0	65	16401
2026-01-19 12:35:05.95	221.37	51.63	-46.9	-60.1	3.8	8.45e-01	0	40	104	0	65	16434
2026-01-19 12:35:06.94	221.92	51.84	-46.8	-60.1	3.8	8.48e-01	0	40	104	0	65	16391
2026-01-19 12:35:07.93	222.47	52.04	-46.9	-60.1	3.8	8.46e-01	0	40	104	0	65	16374
2026-01-19 12:35:08.93	223.04	52.24	-46.9	-60.1	3.8	8.46e-01	0	40	104	0	65	16454
2026-01-19 12:35:09.92	223.61	52.44	-46.9	-60.1	3.8	8.48e-01	0	40	104	0	65	16434
2026-01-19 12:35:10.91	224.18	52.63	-46.9	-60.1	3.8	8.47e-01	0	40	104	0	65	16471
2026-01-19 12:35:11.91	224.77	52.83	-46.9	-60.1	3.8	8.47e-01	0	40	104	0	65	16424
2026-01-19 12:35:12.90	225.36	53.02	-46.9	-60.1	3.8	8.47e-01	0	40	104	0	65	16405
2026-01-19 12:35:13.89	225.96	53.21	-46.9	-60.1	3.8	8.47e-01	0	40	104	0	65	16423
2026-01-19 12:35:14.88	226.57	53.40	-46.9	-60.1	3.8	8.47e-01	0	40	104	0	65	16422
2026-01-19 12:35:15.88	227.19	53.58	-46.9	-60.1	3.8	8.47e-01	0	40	104	0	65	16362
2026-01-19 12:35:16.87	227.81	53.76	-46.9	-60.1	3.8	8.46e-01	0	40	104	0	65	16418
2026-01-19 12:35:17.86	228.44	53.94	-46.9	-60.1	3.8	8.47e-01	0	40	104	0	65	16353
2026-01-19 12:35:18.86	229.08	54.12	-46.9	-60.1	3.8	8.48e-01	0	40	104	0	65	16437
2026-01-19 12:35:19.85	229.73	54.29	-46.9	-60.1	3.8	8.46e-01	0	40	104	0	65	16375
2026-01-19 12:35:20.84	230.38	54.46	-46.9	-60.1	3.8	8.47e-01	0	40	104	0	65	16410
2026-01-19 12:35:21.84	231.05	54.63	-46.9	-60.1	3.8	8.48e-01	0	40	104	0	65	16406
2026-01-19 12:35:22.83	231.72	54.79	-46.9	-60.1	3.8	8.47e-01	0	40	104	0	65	16392
2026-01-19 12:35:23.82	232.39	54.95	-46.9	-60.1	3.8	8.46e-01	0	40	104	0	65	16434
2026-01-19 12:35:24.81	233.08	55.11	-46.9	-60.1	3.8	8.47e-01	0	40	104	0	65	16414
2026-01-19 12:35:25.81	233.77	55.26	-46.9	-60.1	3.8	8.48e-01	0	40	104	0	65	16428
2026-01-19 12:35:26.80	234.47	55.41	-46.9	-60.1	3.8	8.48e-01	0	40	104	0	65	16405
2026-01-19 12:35:27.79	235.18	55.56	-46.9	-60.1	3.8	8.48e-01	0	40	104	0	65	16492
2026-01-19 12:35:28.79	235.90	55.70	-46.9	-60.1	3.8	8.48e-01	0	40	104	0	65	16468
2026-01-19 12:35:29.78	236.62	55.84	-46.9	-60.1	3.8	8.47e-01	0	40	104	0	65	16416
2026-01-19 12:35:30.77	237.34	55.97	-46.9	-60.1	3.8	8.47e-01	0	40	104	0	65	16388
2026-01-19 12:35:31.77	238.08	56.10	-46.9	-60.1	3.8	8.47e-01	0	40	104	0	65	16437
2026-01-19 12:35:32.76	238.82	56.23	-46.9	-60.1	3.8	8.47e-01	0	40	104	0	65	16481
2026-01-19 12:35:33.75	239.57	56.35	-46.9	-60.1	3.8	8.47e-01	0	40	104	0	65	16408
2026-01-19 12:35:34.75	240.33	56.46	-46.9	-60.1	3.8	8.46e-01	0	40	104	0	65	16397
2026-01-19 12:35:35.74	241.09	56.58	-46.9	-60.1	3.8	8.46e-01	0	40	104	0	65	16416
2026-01-19 12:35:36.73	241.86	56.68	-46.9	-60.1	3.8	8.47e-01	0	40	104	0	65	16467
2026-01-19 12:35:37.73	242.64	56.79	-46.9	-60.1	3.8	8.47e-01	0	40	104	0	65	16380
2026-01-19 12:35:38.72	243.41	56.88	-46.9	-60.1	3.8	8.46e-01	0	40	104	0	65	16458
2026-01-19 12:35:39.71	244.19	56.98	-46.9	-60.1	3.8	8.47e-01	0	40	104	0	65	16394
2026-01-19 12:35:40.70	244.98	57.06	-46.9	-60.1	3.8	8.47e-01	0	40	104	0	65	16408
2026-01-19 12:35:41.70	245.78	57.15	-46.9	-60.1	3.8	8.46e-01	0	40	104	0	65	16402
2026-01-19 12:35:42.69	246.58	57.23	-46.9	-60.1	3.8	8.48e-01	0	40	104	0	65	16377
2026-01-19 12:35:43.68	247.38	57.30	-46.9	-60.1	3.8	8.46e-01	0	40	104	0	65	16411
2026-01-19 12:35:44.67	248.18	57.36	-46.9	-60.1	3.8	8.47e-01	0	40	104	0	65	16465
2026-01-19 12:35:45.67	249.00	57.43	-46.9	-60.1	3.8	8.45e-01	0	40	104	0	65	16462
2026-01-19 12:35:46.66	249.81	57.48	-46.9	-60.1	3.8	8.46e-01	0	40	104	0	65	16401
2026-01-19 12:35:47.65	250.63	57.53	-46.8	-60.1	3.8	8.48e-01	0	40	104	0	65	16381
2026-01-19 12:35:48.65	251.45	57.58	-46.9	-60.1	3.8	8.48e-01	0	40	104	0	65	16401
2026-01-19 12:35:49.64	252.28	57.62	-46.9	-60.1	3.8	8.48e-01	0	40	104	0	65	16386
2026-01-19 12:35:50.63	253.10	57.66	-46.9	-60.2	3.8	8.47e-01	0	40	104	0	65	16514
2026-01-19 12:35:51.62	253.92	57.69	-46.9	-60.1	3.8	8.47e-01	0	40	104	0	65	16387
2026-01-19 12:35:52.62	254.76	57.71	-46.9	-60.1	3.8	8.45e-01	0	40	104	0	65	16434
2026-01-19 12:35:53.61	255.59	57.73	-46.9	-60.1	3.8	8.48e-01	0	40	104	0	65	16433
2026-01-19 12:35:54.60	256.42	57.74	-46.9	-60.1	3.8	8.48e-01	0	40	104	0	65	16436
2026-01-19 12:35:55.59	257.25	57.75	-46.9	-60.1	3.8	8.48e-01	0	40	104	0	65	16443
2026-01-19 12:35:56.59	258.08	57.75	-46.9	-60.1	3.8	8.47e-01	0	40	104	0	65	16392
2026-01-19 12:35:57.58	258.91	57.74	-46.9	-60.1	3.8	8.47e-01	0	40	104	0	65	16440
2026-01-19 12:35:58.57	259.74	57.73	-46.9	-60.1	3.8	8.46e-01	0	40	104	0	65	16383
2026-01-19 12:35:59.57	260.58	57.72	-46.9	-60.1	3.8	8.47e-01	0	40	104	0	65	16374
2026-01-19 12:36:00.56	261.41	57.70	-46.9	-60.1	3.8	8.47e-01	0	40	104	0	65	16502
2026-01-19 12:36:01.55	262.23	57.67	-46.9	-60.1	3.8	8.46e-01	0	40	104	0	65	16446
2026-01-19 12:36:02.55	263.06	57.64	-46.9	-60.1	3.8	8.47e-01	0	40	104	0	65	16480
2026-01-19 12:36:03.54	263.89	57.60	-46.9	-60.1	3.8	8.47e-01	0	40	104	0	65	16388
2026-01-19 12:36:04.53	264.70	57.56	-46.9	-60.1	3.8	8.47e-01	0	40	104	0	65	16439
2026-01-19 12:36:05.52	265.52	57.51	-46.9	-60.1	3.8	8.47e-01	0	40	104	0	65	16447
2026-01-19 12:36:06.52	266.34	57.45	-46.9	-60.1	3.8	8.47e-01	0	40	104	0	65	16422
2026-01-19 12:36:07.51	267.15	57.40	-46.9	-60.1	3.8	8.48e-01	0	40	104	0	65	16379
2026-01-19 12:36:08.50	267.96	57.33	-46.9	-60.1	3.8	8.48e-01	0	40	104	0	65	16438
2026-01-19 12:36:09.50	268.77	57.26	-46.9	-60.1	3.8	8.47e-01	0	40	104	0	65	16468
2026-01-19 12:36:10.49	269.57	57.19	-46.9	-60.1	3.8	8.48e-01	0	40	104	0	65	16483
2026-01-19 12:36:11.48	270.36	57.11	-46.9	-60.2	3.8	8.47e-01	0	40	104	0	65	16522
2026-01-19 12:36:12.48	271.16	57.02	-46.9	-60.1	3.8	8.47e-01	0	40	104	0	65	16399
2026-01-19 12:36:13.47	271.94	56.93	-46.9	-60.1	3.8	8.46e-01	0	40	104	0	65	16381
2026-01-19 12:36:14.46	272.72	56.83	-46.9	-60.1	3.8	8.48e-01	0	40	104	0	65	16461
2026-01-19 12:36:15.45	273.49	56.73	-46.9	-60.1	3.8	8.46e-01	0	40	104	0	65	16394
2026-01-19 12:36:16.45	274.27	56.63	-46.9	-60.1	3.8	8.48e-01	0	40	104	0	65	16430
2026-01-19 12:36:17.44	275.03	56.52	-46.9	-60.1	3.8	8.46e-01	0	40	104	0	65	16365
2026-01-19 12:36:18.43	275.78	56.41	-46.9	-60.2	3.8	8.47e-01	0	40	104	0	65	16507
2026-01-19 12:36:19.43	276.54	56.29	-46.9	-60.1	3.8	8.46e-01	0	40	104	0	65	16430
2026-01-19 12:36:20.42	277.28	56.16	-46.9	-60.1	3.8	8.46e-01	0	40	104	0	65	16436
2026-01-19 12:36:21.41	278.02	56.04	-46.9	-60.1	3.8	8.47e-01	0	40	104	0	65	16411
2026-01-19 12:36:22.41	278.76	55.90	-46.9	-60.1	3.8	8.46e-01	0	40	104	0	65	16422
2026-01-19 12:36:23.40	279.48	55.77	-46.9	-60.1	3.8	8.48e-01	0	40	104	0	65	16443
2026-01-19 12:36:24.39	280.19	55.63	-46.9	-60.1	3.8	8.47e-01	0	40	104	0	65	16410
2026-01-19 12:36:25.39	280.91	55.49	-46.9	-60.1	3.8	8.46e-01	0	40	104	0	65	16446
2026-01-19 12:36:26.38	281.61	55.34	-46.9	-60.1	3.8	8.48e-01	0	40	104	0	65	16446
2026-01-19 12:36:27.37	282.30	55.19	-46.9	-60.1	3.8	8.46e-01	0	40	104	0	65	16416
2026-01-19 12:36:28.36	282.99	55.03	-46.9	-60.1	3.8	8.48e-01	0	40	104	0	65	16411
2026-01-19 12:36:29.36	283.67	54.87	-46.9	-60.1	3.8	8.47e-01	0	40	104	0	65	16384
2026-01-19 12:36:30.35	284.34	54.71	-46.9	-60.2	3.8	8.46e-01	0	40	104	0	65	16504
2026-01-19 12:36:31.34	285.01	54.55	-46.9	-60.1	3.8	8.47e-01	0	40	104	0	65	16466
2026-01-19 12:36:32.33	285.66	54.38	-46.9	-60.1	3.8	8.46e-01	0	40	104	0	65	16426
2026-01-19 12:36:33.33	286.32	54.21	-46.8	-60.1	3.8	8.46e-01	0	40	104	0	65	16397
2026-01-19 12:36:34.32	286.96	54.04	-46.9	-60.1	3.8	8.47e-01	0	40	104	0	65	16361
2026-01-19 12:36:35.31	287.59	53.86	-46.9	-60.1	3.8	8.47e-01	0	40	104	0	65	16415
2026-01-19 12:36:36.31	288.22	53.68	-46.9	-60.1	3.8	8.48e-01	0	40	104	0	65	16371
2026-01-19 12:36:37.30	288.84	53.50	-46.9	-60.2	3.8	8.47e-01	0	40	104	0	65	16512
2026-01-19 12:36:38.29	289.45	53.31	-46.9	-60.1	3.8	8.47e-01	0	40	104	0	65	16410
2026-01-19 12:36:39.28	290.05	53.12	-46.9	-60.1	3.8	8.48e-01	0	40	104	0	65	16416
2026-01-19 12:36:40.28	290.65	52.93	-46.9	-60.1	3.8	8.48e-01	0	40	104	0	65	16398
2026-01-19 12:36:41.27	291.23	52.74	-46.9	-60.1	3.8	8.48e-01	0	40	104	0	65	16435
2026-01-19 12:36:42.26	291.81	52.55	-46.9	-60.1	3.8	8.48e-01	0	40	104	0	65	16411
2026-01-19 12:36:43.26	292.39	52.35	-46.9	-60.1	3.8	8.46e-01	0	40	104	0	65	16392
2026-01-19 12:36:44.25	292.95	52.15	-46.9	-60.1	3.8	8.47e-01	0	40	104	0	65	16458
2026-01-19 12:36:45.24	293.51	51.95	-46.9	-60.1	3.8	8.47e-01	0	40	104	0	65	16422
2026-01-19 12:36:46.23	294.06	51.75	-46.9	-60.1	3.8	8.47e-01	0	40	104	0	65	16440
2026-01-19 12:36:47.23	294.60	51.54	-46.9	-60.1	3.8	8.46e-01	0	40	104	0	65	16396
2026-01-19 12:36:48.22	295.14	51.33	-46.9	-60.1	3.8	8.47e-01	0	40	104	0	65	16410
2026-01-19 12:36:49.21	295.66	51.13	-46.9	-60.1	3.8	8.48e-01	0	40	104	0	65	16449
2026-01-19 12:36:50.21	296.19	50.92	-46.9	-60.1	3.8	8.48e-01	0	40	104	0	65	16422
2026-01-19 12:36:51.20	296.70	50.71	-46.9	-60.1	3.8	8.47e-01	0	40	104	0	65	16453
2026-01-19 12:36:52.19	297.20	50.49	-46.9	-60.1	3.8	8.49e-01	0	40	104	0	65	16431
2026-01-19 12:36:53.18	297.70	50.28	-46.9	-60.1	3.8	8.46e-01	0	40	104	0	65	16451
2026-01-19 12:36:54.18	298.20	50.07	-46.9	-60.1	3.8	8.47e-01	0	40	104	0	65	16434
2026-01-19 12:36:55.17	298.68	49.85	-46.9	-60.1	3.8	8.46e-01	0	40	104	0	65	16437
2026-01-19 12:36:56.16	299.16	49.63	-46.9	-60.1	3.8	8.47e-01	0	40	104	0	65	16467
2026-01-19 12:36:57.16	299.63	49.41	-46.9	-60.1	3.8	8.46e-01	0	40	104	0	65	16372
2026-01-19 12:36:58.15	300.10	49.20	-46.9	-60.1	3.8	8.46e-01	0	40	104	0	65	16439
2026-01-19 12:36:59.14	300.55	48.98	-46.9	-60.1	3.8	8.47e-01	0	40	104	0	65	16421
2026-01-19 12:37:00.13	301.01	48.76	-46.9	-60.1	3.8	8.46e-01	0	40	104	0	65	16363
2026-01-19 12:37:01.13	301.45	48.53	-46.9	-60.1	3.8	8.46e-01	0	40	104	0	65	16455
2026-01-19 12:37:02.12	301.89	48.31	-46.9	-60.1	3.8	8.46e-01	0	40	104	0	65	16401
2026-01-19 12:37:03.11	302.32	48.09	-46.9	-60.1	3.8	8.47e-01	0	40	104	0	65	16443
2026-01-19 12:37:04.11	302.75	47.87	-46.9	-60.2	3.8	8.47e-01	0	40	104	0	65	16527
2026-01-19 12:37:05.10	303.17	47.64	-46.9	-60.1	3.8	8.48e-01	0	40	104	0	65	16446
2026-01-19 12:37:06.09	303.59	47.42	-46.9	-60.1	3.8	8.47e-01	0	40	104	0	65	16371
2026-01-19 12:37:07.09	304.00	47.19	-46.9	-60.1	3.8	8.46e-01	0	40	104	0	65	16421
2026-01-19 12:37:08.08	304.40	46.97	-46.9	-60.1	3.8	8.47e-01	0	40	104	0	65	16423
2026-01-19 12:37:09.07	304.80	46.75	-46.9	-60.1	3.8	8.46e-01	0	40	104	0	65	16382
2026-01-19 12:37:10.06	305.19	46.52	-46.9	-60.1	3.8	8.47e-01	0	40	104	0	65	16485
2026-01-19 12:37:11.06	305.58	46.29	-46.9	-60.1	3.8	8.47e-01	0	40	104	0	65	16488
2026-01-19 12:37:12.05	305.96	46.07	-46.9	-60.1	3.8	8.48e-01	0	40	104	0	65	16479
2026-01-19 12:37:13.04	306.33	45.85	-46.9	-60.1	3.8	8.48e-01	0	40	104	0	65	16432
2026-01-19 12:37:14.04	306.71	45.62	-46.9	-60.1	3.8	8.47e-01	0	40	104	0	65	16439
2026-01-19 12:37:15.03	307.07	45.39	-46.9	-60.1	3.8	8.46e-01	0	40	104	0	65	16343
2026-01-19 12:37:16.02	307.43	45.17	-46.9	-60.1	3.8	8.47e-01	0	40	104	0	65	16344
2026-01-19 12:37:17.02	307.79	44.94	-46.9	-60.1	3.8	8.45e-01	0	40	104	0	65	16416
2026-01-19 12:37:18.01	308.14	44.72	-46.9	-60.1	3.8	8.47e-01	0	40	104	0	65	16472
2026-01-19 12:37:19.00	308.48	44.49	-46.9	-60.1	3.8	8.48e-01	0	40	104	0	65	16416
2026-01-19 12:37:19.99	308.82	44.27	-46.9	-60.1	3.8	8.47e-01	0	40	104	0	65	16482
2026-01-19 12:37:20.98	309.16	44.04	-46.9	-60.1	3.8	8.48e-01	0	40	104	0	65	16463
2026-01-19 12:37:21.98	309.49	43.82	-46.9	-60.1	3.8	8.47e-01	0	40	104	0	65	16446
2026-01-19 12:37:22.97	309.82	43.59	-46.9	-60.1	3.8	8.48e-01	0	40	104	0	65	16485
2026-01-19 12:37:23.96	310.14	43.37	-46.9	-60.0	3.8	8.48e-01	0	40	104	0	65	16298
2026-01-19 12:37:24.96	310.46	43.14	-46.9	-60.1	3.8	8.47e-01	0	40	104	0	65	16464
2026-01-19 12:37:25.95	310.77	42.92	-46.9	-60.1	3.8	8.48e-01	0	40	104	0	65	16412
2026-01-19 12:37:26.94	311.08	42.70	-46.9	-60.1	3.8	8.47e-01	0	40	104	0	65	16419
2026-01-19 12:37:27.93	311.38	42.48	-46.9	-60.1	3.8	8.47e-01	0	40	104	0	65	16453
2026-01-19 12:37:28.93	311.68	42.26	-46.9	-60.1	3.8	8.48e-01	0	40	104	0	65	16471
2026-01-19 12:37:29.92	311.98	42.03	-46.9	-60.1	3.8	8.46e-01	0	40	104	0	65	16460
2026-01-19 12:37:30.91	312.27	41.81	-46.9	-60.1	3.8	8.48e-01	0	40	104	0	65	16409
2026-01-19 12:37:31.91	312.56	41.59	-46.9	-60.1	3.8	8.46e-01	0	40	104	0	65	16434
2026-01-19 12:37:32.90	312.85	41.37	-46.9	-60.1	3.8	8.46e-01	0	40	104	0	65	16410
2026-01-19 12:37:33.89	313.13	41.15	-46.9	-60.1	3.8	8.47e-01	0	40	104	0	65	16376
2026-01-19 12:37:34.89	313.41	40.93	-46.9	-60.1	3.8	8.47e-01	0	40	104	0	65	16375
2026-01-19 12:37:35.88	313.68	40.72	-46.9	-60.1	3.8	8.48e-01	0	40	104	0	65	16423
2026-01-19 12:37:36.87	313.95	40.50	-46.9	-60.1	3.8	8.47e-01	0	40	104	0	65	16465
2026-01-19 12:37:37.86	314.21	40.28	-46.9	-60.1	3.8	8.47e-01	0	40	104	0	65	16442
2026-01-19 12:37:38.86	314.48	40.07	-46.9	-60.1	3.8	8.47e-01	0	40	104	0	65	16448
2026-01-19 12:37:39.85	314.74	39.85	-46.9	-60.1	3.8	8.47e-01	0	40	104	0	65	16358
2026-01-19 12:37:40.84	314.99	39.64	-46.9	-60.1	3.8	8.47e-01	0	40	104	0	65	16443
2026-01-19 12:37:41.84	315.25	39.42	-46.9	-60.1	3.8	8.48e-01	0	40	104	0	65	16438
2026-01-19 12:37:42.83	315.50	39.21	-46.9	-60.1	3.8	8.47e-01	0	40	104	0	65	16433
2026-01-19 12:37:43.82	315.74	39.00	-46.9	-60.1	3.8	8.48e-01	0	40	104	0	65	16361
2026-01-19 12:37:44.81	315.99	38.79	-46.9	-60.1	3.8	8.47e-01	0	40	104	0	65	16399
2026-01-19 12:37:45.81	316.23	38.57	-46.9	-60.1	3.8	8.47e-01	0	40	104	0	65	16430
2026-01-19 12:37:46.80	316.47	38.36	-46.9	-60.1	3.8	8.47e-01	0	40	104	0	65	16410
2026-01-19 12:37:47.79	316.70	38.16	-46.9	-60.1	3.8	8.47e-01	0	40	104	0	65	16370
2026-01-19 12:37:48.79	316.93	37.95	-46.9	-60.1	3.8	8.47e-01	0	40	104	0	65	16502
2026-01-19 12:37:49.78	317.16	37.74	-46.9	-60.1	3.8	8.48e-01	0	40	104	0	65	16376
2026-01-19 12:37:50.77	317.38	37.53	-46.9	-60.1	3.8	8.47e-01	0	40	104	0	65	16427
2026-01-19 12:37:51.77	317.61	37.32	-46.9	-60.1	3.8	8.47e-01	0	40	104	0	65	16444
2026-01-19 12:37:52.76	317.83	37.12	-46.9	-60.1	3.8	8.47e-01	0	40	104	0	65	16433
2026-01-19 12:37:53.75	318.05	36.92	-46.9	-60.1	3.8	8.47e-01	0	40	104	0	65	16431
2026-01-19 12:37:54.74	318.26	36.71	-46.9	-60.1	3.8	8.47e-01	0	40	104	0	65	16371
2026-01-19 12:37:55.74	318.47	36.51	-46.9	-60.1	3.8	8.47e-01	0	40	104	0	65	16383
2026-01-19 12:37:56.73	318.68	36.31	-46.9	-60.1	3.8	8.47e-01	0	40	104	0	65	16411
2026-01-19 12:37:57.72	318.89	36.11	-46.9	-60.1	3.8	8.45e-01	0	40	104	0	65	16496
2026-01-19 12:37:58.72	319.09	35.90	-46.9	-60.1	3.8	8.46e-01	0	40	104	0	65	16435
2026-01-19 12:37:59.71	319.30	35.70	-46.9	-60.1	3.8	8.47e-01	0	40	104	0	65	16470
2026-01-19 12:38:00.70	319.50	35.51	-46.9	-60.1	3.8	8.46e-01	0	40	104	0	65	16458
2026-01-19 12:38:01.69	319.69	35.31	-46.9	-60.1	3.8	8.46e-01	0	40	104	0	65	16354
2026-01-19 12:38:02.69	319.89	35.11	-47.0	-60.1	3.8	8.47e-01	0	40	104	0	65	16483
2026-01-19 12:38:03.68	320.08	34.92	-47.0	-60.1	3.8	8.46e-01	0	40	104	0	65	16477
2026-01-19 12:38:04.67	320.27	34.72	-46.9	-60.1	3.8	8.47e-01	0	40	104	0	65	16423
2026-01-19 12:38:05.67	320.46	34.53	-46.9	-60.1	3.8	8.47e-01	0	40	104	0	65	16421
2026-01-19 12:38:06.66	320.65	34.33	-46.9	-60.1	3.8	8.46e-01	0	40	104	0	65	16503
2026-01-19 12:38:07.65	320.83	34.14	-46.9	-60.1	3.8	8.46e-01	0	40	104	0	65	16476
2026-01-19 12:38:08.65	321.01	33.95	-46.9	-60.1	3.8	8.47e-01	0	40	104	0	65	16434
2026-01-19 12:38:09.64	321.19	33.76	-46.9	-60.1	3.8	8.47e-01	0	40	104	0	65	16405
2026-01-19 12:38:10.63	321.37	33.57	-46.9	-60.1	3.8	8.47e-01	0	40	104	0	65	16501
2026-01-19 12:38:11.63	321.55	33.38	-46.9	-60.1	3.8	8.47e-01	0	40	104	0	65	16398
2026-01-19 12:38:12.62	321.72	33.19	-46.9	-60.1	3.8	8.47e-01	0	40	104	0	65	16481
2026-01-19 12:38:13.61	321.89	33.00	-46.9	-60.1	3.8	8.47e-01	0	40	104	0	65	16361
2026-01-19 12:38:14.61	322.06	32.82	-46.9	-60.1	3.8	8.47e-01	0	40	104	0	65	16459
2026-01-19 12:38:15.60	322.23	32.63	-46.9	-60.1	3.8	8.47e-01	0	40	104	0	65	16463
2026-01-19 12:38:16.59	322.39	32.45	-46.9	-60.1	3.8	8.48e-01	0	40	104	0	65	16472
2026-01-19 12:38:17.58	322.56	32.26	-46.9	-60.1	3.8	8.47e-01	0	40	104	0	65	16491
2026-01-19 12:38:18.58	322.72	32.08	-47.0	-60.2	3.8	8.47e-01	0	40	104	0	65	16520
2026-01-19 12:38:19.57	322.88	31.90	-46.9	-60.1	3.8	8.47e-01	0	40	104	0	65	16441
2026-01-19 12:38:20.56	323.04	31.72	-47.0	-60.1	3.8	8.47e-01	0	40	104	0	65	16379
2026-01-19 12:38:21.56	323.20	31.54	-46.9	-60.1	3.8	8.46e-01	0	40	104	0	65	16429
2026-01-19 12:38:22.55	323.35	31.36	-46.9	-60.1	3.8	8.48e-01	0	40	104	0	65	16449
2026-01-19 12:38:23.54	323.51	31.18	-46.9	-60.1	3.8	8.46e-01	0	40	104	0	65	16463
2026-01-19 12:38:24.54	323.66	31.00	-46.9	-60.1	3.8	8.46e-01	0	40	104	0	65	16429
2026-01-19 12:38:25.53	323.81	30.83	-46.9	-60.1	3.8	8.47e-01	0	40	104	0	65	16503
2026-01-19 12:38:26.52	323.96	30.65	-46.9	-60.1	3.8	8.46e-01	0	40	104	0	65	16478
2026-01-19 12:38:27.52	324.11	30.48	-46.9	-60.1	3.8	8.47e-01	0	40	104	0	65	16426
2026-01-19 12:38:28.51	324.25	30.30	-46.9	-60.1	3.8	8.47e-01	0	40	104	0	65	16451
2026-01-19 12:38:29.50	324.40	30.13	-46.9	-60.1	3.8	8.46e-01	0	40	104	0	65	16430
2026-01-19 12:38:30.49	324.54	29.96	-47.0	-60.1	3.8	8.47e-01	0	40	104	0	65	16381
2026-01-19 12:38:31.49	324.68	29.78	-46.9	-60.1	3.8	8.46e-01	0	40	104	0	65	16495
2026-01-19 12:38:32.48	324.82	29.61	-46.9	-60.2	3.8	8.48e-01	0	40	104	0	65	16536
2026-01-19 12:38:33.47	324.96	29.45	-46.9	-60.1	3.8	8.46e-01	0	40	104	0	65	16433
2026-01-19 12:38:34.47	325.10	29.28	-46.9	-60.2	3.8	8.47e-01	0	40	104	0	65	16504
2026-01-19 12:38:35.46	325.23	29.11	-47.0	-60.1	3.8	8.48e-01	0	40	104	0	65	16447
2026-01-19 12:38:36.45	325.37	28.94	-46.9	-60.1	3.8	8.48e-01	0	40	104	0	65	16453
2026-01-19 12:38:37.45	325.50	28.77	-46.9	-60.1	3.8	8.47e-01	0	40	104	0	65	16445
2026-01-19 12:38:38.44	325.63	28.61	-46.9	-60.1	3.8	8.47e-01	0	40	104	0	65	16478
2026-01-19 12:38:39.43	325.76	28.44	-46.9	-60.1	3.8	8.48e-01	0	39	104	0	65	16423
2026-01-19 12:38:40.43	325.89	28.28	-46.9	-60.1	3.8	8.47e-01	0	40	104	0	65	16401
2026-01-19 12:38:41.42	326.02	28.12	-46.9	-60.2	3.8	8.48e-01	0	40	104	0	65	16525
2026-01-19 12:38:42.41	326.15	27.96	-46.9	-60.1	3.8	8.46e-01	0	40	104	0	65	16466
2026-01-19 12:38:43.40	326.27	27.79	-46.9	-60.1	3.8	8.47e-01	0	40	104	0	65	16435
2026-01-19 12:38:44.40	326.40	27.63	-46.9	-60.1	3.8	8.46e-01	0	40	104	0	65	16480
2026-01-19 12:38:45.39	326.52	27.47	-46.9	-60.1	3.8	8.46e-01	0	40	104	0	65	16445
2026-01-19 12:38:46.38	326.64	27.31	-46.9	-60.1	3.8	8.47e-01	0	40	104	0	65	16492
2026-01-19 12:38:47.38	326.76	27.16	-46.9	-60.1	3.8	8.47e-01	0	40	104	0	65	16458
2026-01-19 12:38:48.37	326.88	27.00	-46.9	-60.1	3.8	8.48e-01	0	40	104	0	65	16500
2026-01-19 12:38:49.36	327.00	26.84	-46.9	-60.1	3.8	8.46e-01	0	40	104	0	65	16448
2026-01-19 12:38:50.35	327.12	26.69	-46.9	-60.1	3.8	8.48e-01	0	40	104	0	65	16434
2026-01-19 12:38:51.35	327.23	26.53	-46.9	-60.1	3.8	8.47e-01	0	40	104	0	65	16415
2026-01-19 12:38:52.34	327.35	26.38	-46.9	-60.1	3.8	8.47e-01	0	40	104	0	65	16468
2026-01-19 12:38:53.33	327.46	26.22	-46.9	-60.1	3.8	8.48e-01	0	40	104	0	65	16483
2026-01-19 12:38:54.33	327.58	26.07	-46.9	-60.1	3.8	8.46e-01	0	40	104	0	65	16460
2026-01-19 12:38:55.32	327.69	25.92	-46.9	-60.1	3.8	8.47e-01	0	40	104	0	65	16424
2026-01-19 12:38:56.31	327.80	25.77	-46.9	-60.1	3.8	8.45e-01	0	40	104	0	65	16468
2026-01-19 12:38:57.31	327.91	25.62	-46.9	-60.1	3.8	8.46e-01	0	40	104	0	65	16475
2026-01-19 12:38:58.30	328.02	25.47	-46.9	-60.1	3.8	8.47e-01	0	40	104	0	65	16422
2026-01-19 12:38:59.29	328.13	25.32	-46.9	-60.1	3.8	8.47e-01	0	40	104	0	65	16497
2026-01-19 12:39:00.28	328.23	25.17	-46.9	-60.1	3.8	8.47e-01	0	40	104	0	65	16479
2026-01-19 12:39:01.28	328.34	25.02	-46.9	-60.1	3.8	8.47e-01	0	40	104	0	65	16477
2026-01-19 12:39:02.27	328.44	24.88	-46.9	-60.1	3.8	8.47e-01	0	40	104	0	65	16453
2026-01-19 12:39:03.26	328.55	24.73	-46.9	-60.1	3.8	8.48e-01	0	40	104	0	65	16452
2026-01-19 12:39:04.26	328.65	24.58	-46.9	-60.1	3.8	8.47e-01	0	40	104	0	65	16394
2026-01-19 12:39:05.25	328.75	24.44	-46.9	-60.1	3.8	8.46e-01	0	40	104	0	65	16404
2026-01-19 12:39:06.24	328.85	24.30	-46.9	-60.1	3.8	8.47e-01	0	40	104	0	65	16380
2026-01-19 12:39:07.23	328.95	24.15	-46.9	-60.1	3.8	8.47e-01	0	40	104	0	65	16417
2026-01-19 12:39:08.23	329.06	24.01	-46.9	-60.1	3.8	8.46e-01	0	40	104	0	65	16440
2026-01-19 12:39:09.22	329.15	23.87	-46.9	-60.1	3.8	8.47e-01	0	40	104	0	65	16418
2026-01-19 12:39:10.21	329.25	23.73	-46.9	-60.1	3.8	8.47e-01	0	40	104	0	65	16493
2026-01-19 12:39:11.20	329.35	23.59	-46.9	-60.1	3.8	8.46e-01	0	40	104	0	65	16457
2026-01-19 12:39:12.20	329.44	23.45	-46.9	-60.1	3.8	8.47e-01	0	40	104	0	65	16467
2026-01-19 12:39:13.19	329.54	23.31	-46.9	-60.1	3.8	8.46e-01	0	40	104	0	65	16469
2026-01-19 12:39:14.18	329.63	23.17	-46.9	-60.2	3.8	8.48e-01	0	40	104	0	65	16504
2026-01-19 12:39:15.18	329.73	23.03	-46.9	-60.1	3.8	8.46e-01	0	40	104	0	65	16435
2026-01-19 12:39:16.17	329.82	22.89	-47.0	-60.1	3.8	8.46e-01	0	40	104	0	65	16389
2026-01-19 12:39:17.16	329.91	22.76	-46.9	-60.1	3.8	8.47e-01	0	40	104	0	65	16458
2026-01-19 12:39:18.16	330.01	22.62	-46.9	-60.1	3.8	8.46e-01	0	40	104	0	65	16376
2026-01-19 12:39:19.15	330.10	22.49	-46.9	-60.1	3.8	8.46e-01	0	40	104	0	65	16425
2026-01-19 12:39:20.14	330.19	22.35	-46.9	-60.1	3.8	8.46e-01	0	40	104	0	65	16418
2026-01-19 12:39:21.14	330.28	22.22	-46.9	-60.1	3.8	8.48e-01	0	40	104	0	65	16420
2026-01-19 12:39:22.13	330.36	22.09	-46.9	-60.2	3.8	8.48e-01	0	40	104	0	65	16511
2026-01-19 12:39:23.12	330.45	21.95	-46.9	-60.1	3.8	8.46e-01	0	40	104	0	65	16449
2026-01-19 12:39:24.12	330.54	21.82	-46.9	-60.2	3.8	8.47e-01	0	40	104	0	65	16509
2026-01-19 12:39:25.11	330.63	21.69	-46.9	-60.1	3.8	8.46e-01	0	40	104	0	65	16445
2026-01-19 12:39:26.10	330.71	21.56	-46.9	-60.1	3.8	8.47e-01	0	40	104	0	65	16499
2026-01-19 12:39:27.10	330.80	21.43	-46.9	-60.1	3.8	8.48e-01	0	40	104	0	65	16496
2026-01-19 12:39:28.09	330.88	21.30	-46.9	-60.1	3.8	8.47e-01	0	40	104	0	65	16451
2026-01-19 12:39:29.08	330.96	21.17	-46.9	-60.1	3.8	8.47e-01	0	39	104	0	65	16442
2026-01-19 12:39:30.07	331.05	21.04	-46.9	-60.1	3.8	8.48e-01	0	40	104	0	65	16487
2026-01-19 12:39:31.07	331.13	20.91	-46.9	-60.1	3.8	8.47e-01	0	40	104	0	65	16458
2026-01-19 12:39:32.06	331.21	20.79	-46.9	-60.2	3.8	8.47e-01	0	40	104	0	65	16517
2026-01-19 12:39:33.05	331.29	20.66	-46.9	-60.1	3.8	8.48e-01	0	40	104	0	65	16379
2026-01-19 12:39:34.05	331.37	20.53	-46.9	-60.1	3.8	8.47e-01	0	40	104	0	65	16419
2026-01-19 12:39:35.04	331.45	20.41	-46.9	-60.1	3.8	8.48e-01	0	40	104	0	65	16441
2026-01-19 12:39:36.03	331.53	20.29	-46.9	-60.1	3.8	8.47e-01	0	40	104	0	65	16430
2026-01-19 12:39:37.02	331.61	20.16	-46.9	-60.1	3.8	8.47e-01	0	40	104	0	65	16483
2026-01-19 12:39:38.02	331.69	20.04	-46.9	-60.1	3.8	8.47e-01	0	40	104	0	65	16465
2026-01-19 12:39:39.01	331.77	19.91	-46.9	-60.1	3.8	8.45e-01	0	40	104	0	65	16395
2026-01-19 12:39:40.00	331.84	19.79	-46.9	-60.1	3.8	8.47e-01	0	40	104	0	65	16454
2026-01-19 12:39:41.00	331.92	19.67	-46.9	-60.1	3.8	8.47e-01	0	40	104	0	65	16445
2026-01-19 12:39:41.99	332.00	19.55	-46.9	-60.1	3.8	8.47e-01	0	40	104	0	65	16442
2026-01-19 12:39:42.98	332.07	19.43	-46.9	-60.1	3.8	8.47e-01	0	40	104	0	65	16443
2026-01-19 12:39:43.97	332.14	19.31	-46.9	-60.1	3.8	8.45e-01	0	40	104	0	65	16464
2026-01-19 12:39:44.97	332.22	19.19	-46.9	-60.1	3.8	8.47e-01	0	40	104	0	65	16392
2026-01-19 12:39:45.96	332.29	19.07	-46.9	-60.1	3.8	8.45e-01	0	40	104	0	65	16407
2026-01-19 12:39:46.95	332.36	18.95	-46.9	-60.1	3.8	8.48e-01	0	40	104	0	65	16453
2026-01-19 12:39:47.95	332.44	18.83	-46.9	-60.1	3.8	8.46e-01	0	40	104	0	65	16428
2026-01-19 12:39:48.94	332.51	18.71	-46.9	-60.1	3.8	8.48e-01	0	40	104	0	65	16489
2026-01-19 12:39:49.93	332.58	18.60	-46.9	-60.2	3.8	8.47e-01	0	40	104	0	65	16511
2026-01-19 12:39:50.93	332.65	18.48	-46.9	-60.1	3.8	8.47e-01	0	40	104	0	65	16438
2026-01-19 12:39:51.92	332.72	18.36	-46.9	-60.1	3.8	8.47e-01	0	40	104	0	65	16470
2026-01-19 12:39:52.91	332.79	18.25	-46.9	-60.1	3.8	8.47e-01	0	40	104	0	65	16413
2026-01-19 12:39:53.90	332.86	18.13	-46.9	-60.1	3.8	8.47e-01	0	40	104	0	65	16436
2026-01-19 12:39:54.90	332.93	18.02	-46.9	-60.2	3.8	8.48e-01	0	40	104	0	65	16510
2026-01-19 12:39:55.89	333.00	17.91	-46.9	-60.2	3.8	8.47e-01	0	40	104	0	65	16518
2026-01-19 12:39:56.88	333.07	17.79	-46.9	-60.1	3.8	8.47e-01	0	40	104	0	65	16457
2026-01-19 12:39:57.88	333.13	17.68	-46.9	-60.1	3.8	8.46e-01	0	40	104	0	65	16437
2026-01-19 12:39:58.87	333.20	17.57	-46.9	-60.1	3.8	8.47e-01	0	40	104	0	65	16454
2026-01-19 12:39:59.86	333.27	17.45	-46.9	-60.1	3.8	8.47e-01	0	40	104	0	65	16469
2026-01-19 12:40:00.86	333.33	17.34	-46.9	-60.2	3.8	8.48e-01	0	40	104	0	65	16509
2026-01-19 12:40:01.85	333.40	17.23	-46.9	-60.1	3.8	8.48e-01	0	40	104	0	65	16502
2026-01-19 12:40:02.84	333.46	17.12	-46.9	-60.1	3.8	8.46e-01	0	40	104	0	65	16390
2026-01-19 12:40:03.84	333.53	17.01	-46.9	-60.1	3.8	8.46e-01	0	40	104	0	65	16423
2026-01-19 12:40:04.83	333.59	16.90	-46.9	-60.1	3.8	8.46e-01	0	40	104	0	65	16464
2026-01-19 12:40:05.82	333.66	16.79	-46.9	-60.1	3.8	8.48e-01	0	40	104	0	65	16468
2026-01-19 12:40:06.82	333.72	16.68	-46.9	-60.1	3.8	8.49e-01	0	40	104	0	65	16467
2026-01-19 12:40:07.81	333.78	16.57	-46.9	-60.1	3.8	8.47e-01	0	40	104	0	65	16391
2026-01-19 12:40:08.80	333.85	16.47	-46.9	-60.1	3.8	8.46e-01	0	40	104	0	65	16457
2026-01-19 12:40:09.79	333.91	16.36	-46.9	-60.1	3.8	8.46e-01	0	40	104	0	65	16394
2026-01-19 12:40:10.79	333.97	16.25	-46.9	-60.1	3.8	8.48e-01	0	40	104	0	65	16468
2026-01-19 12:40:11.78	334.03	16.15	-46.9	-60.1	3.8	8.45e-01	0	40	104	0	65	16430
2026-01-19 12:40:12.77	334.09	16.04	-46.9	-60.1	3.8	8.47e-01	0	40	104	0	65	16459
2026-01-19 12:40:13.76	334.15	15.93	-46.9	-60.1	3.8	8.47e-01	0	40	104	0	65	16377
2026-01-19 12:40:14.76	334.21	15.83	-46.9	-60.1	3.8	8.47e-01	0	40	104	0	65	16389
2026-01-19 12:40:15.75	334.27	15.72	-46.9	-60.1	3.8	8.48e-01	0	40	104	0	65	16447
2026-01-19 12:40:16.74	334.33	15.62	-46.9	-60.1	3.8	8.47e-01	0	40	104	0	65	16391
2026-01-19 12:40:17.74	334.39	15.52	-46.9	-60.1	3.8	8.47e-01	0	40	104	0	65	16497
2026-01-19 12:40:18.73	334.45	15.41	-46.9	-60.1	3.8	8.47e-01	0	40	104	0	65	16398
2026-01-19 12:40:19.72	334.51	15.31	-46.9	-60.1	3.8	8.47e-01	0	40	104	0	65	16450
2026-01-19 12:40:20.71	334.56	15.21	-46.9	-60.1	3.8	8.47e-01	0	40	104	0	65	16403
2026-01-19 12:40:21.71	334.62	15.10	-46.9	-60.1	3.8	8.48e-01	0	40	104	0	65	16461
2026-01-19 12:40:22.70	334.68	15.00	-46.9	-60.1	3.8	8.47e-01	0	40	104	0	65	16452
2026-01-19 12:40:23.69	334.74	14.90	-46.9	-60.1	3.8	8.47e-01	0	40	104	0	65	16418
2026-01-19 12:40:24.69	334.79	14.80	-46.9	-60.1	3.8	8.47e-01	0	40	104	0	65	16441
2026-01-19 12:40:25.68	334.85	14.70	-46.9	-60.1	3.8	8.46e-01	0	40	104	0	65	16413
2026-01-19 12:40:26.67	334.90	14.60	-46.9	-60.1	3.8	8.47e-01	0	40	104	0	65	16479
2026-01-19 12:40:27.67	334.96	14.50	-46.9	-60.1	3.8	8.47e-01	0	40	104	0	65	16494
2026-01-19 12:40:28.66	335.01	14.40	-46.9	-60.1	3.8	8.47e-01	0	40	104	0	65	16416
2026-01-19 12:40:29.65	335.07	14.30	-46.9	-60.1	3.8	8.47e-01	0	40	104	0	65	16371
2026-01-19 12:40:30.64	335.12	14.20	-46.9	-60.1	3.8	8.47e-01	0	40	104	0	65	16362
2026-01-19 12:40:31.64	335.18	14.10	-46.9	-60.2	3.8	8.48e-01	0	39	104	0	65	16555
2026-01-19 12:40:32.63	335.23	14.00	-46.9	-60.1	3.8	8.46e-01	0	40	104	0	65	16452
2026-01-19 12:40:33.62	335.28	13.91	-46.9	-60.1	3.8	8.47e-01	0	40	104	0	65	16450
2026-01-19 12:40:34.62	335.34	13.81	-46.9	-60.1	3.8	8.48e-01	0	40	104	0	65	16431
2026-01-19 12:40:35.61	335.39	13.71	-46.9	-60.1	3.8	8.46e-01	0	40	104	0	65	16400
2026-01-19 12:40:36.60	335.44	13.62	-46.9	-60.1	3.8	8.47e-01	0	40	104	0	65	16492
2026-01-19 12:40:37.59	335.49	13.52	-46.9	-60.1	3.8	8.47e-01	0	40	104	0	65	16443
2026-01-19 12:40:38.59	335.55	13.42	-46.9	-60.1	3.8	8.46e-01	0	40	104	0	65	16482
2026-01-19 12:40:39.58	335.60	13.33	-46.9	-60.1	3.8	8.46e-01	0	40	104	0	65	16415
2026-01-19 12:40:40.57	335.65	13.23	-46.9	-60.1	3.8	8.46e-01	0	40	104	0	65	16434
2026-01-19 12:40:41.57	335.70	13.14	-46.9	-60.1	3.8	8.48e-01	0	40	104	0	65	16424
2026-01-19 12:40:42.56	335.75	13.04	-46.9	-60.1	3.8	8.47e-01	0	40	104	0	65	16450
2026-01-19 12:40:43.55	335.80	12.95	-46.9	-60.1	3.8	8.48e-01	0	40	104	0	65	16471
2026-01-19 12:40:44.55	335.85	12.86	-46.9	-60.1	3.8	8.46e-01	0	40	104	0	65	16454
2026-01-19 12:40:45.54	335.90	12.76	-46.9	-60.1	3.8	8.48e-01	0	40	104	0	65	16462
2026-01-19 12:40:46.53	335.95	12.67	-46.9	-60.1	3.8	8.47e-01	0	40	104	0	65	16423
2026-01-19 12:40:47.53	336.00	12.58	-46.9	-60.1	3.8	8.49e-01	0	40	104	0	65	16372
2026-01-19 12:40:48.52	336.05	12.49	-46.9	-60.1	3.8	8.46e-01	0	40	104	0	65	16464
2026-01-19 12:40:49.51	336.10	12.39	-46.9	-60.1	3.8	8.46e-01	0	40	104	0	65	16369
2026-01-19 12:40:50.50	336.14	12.30	-46.9	-60.1	3.8	8.45e-01	0	40	104	0	65	16458
2026-01-19 12:40:51.49	336.19	12.21	-46.9	-60.1	3.8	8.47e-01	0	40	104	0	65	16467
2026-01-19 12:40:52.49	336.24	12.12	-46.9	-60.1	3.8	8.48e-01	0	40	104	0	65	16451
2026-01-19 12:40:53.48	336.29	12.03	-46.9	-60.1	3.8	8.47e-01	0	40	104	0	65	16390
2026-01-19 12:40:54.47	336.33	11.94	-46.9	-60.2	3.8	8.48e-01	0	40	104	0	65	16509
2026-01-19 12:40:55.47	336.38	11.85	-46.9	-60.1	3.8	8.47e-01	0	40	104	0	65	16423
2026-01-19 12:40:56.46	336.43	11.76	-46.9	-60.1	3.8	8.47e-01	0	40	104	0	65	16485
2026-01-19 12:40:57.45	336.47	11.67	-46.9	-60.1	3.8	8.46e-01	0	40	104	0	65	16465
2026-01-19 12:40:58.44	336.52	11.58	-46.9	-60.1	3.8	8.46e-01	0	40	104	0	65	16483
2026-01-19 12:40:59.44	336.57	11.49	-46.9	-60.1	3.8	8.46e-01	0	40	104	0	65	16379
2026-01-19 12:41:00.43	336.61	11.40	-46.9	-60.1	3.8	8.47e-01	0	40	104	0	65	16427
2026-01-19 12:41:01.42	336.66	11.32	-46.9	-60.1	3.8	8.48e-01	0	40	104	0	65	16493
2026-01-19 12:41:02.42	336.70	11.23	-46.9	-60.1	3.8	8.47e-01	0	40	104	0	65	16435
2026-01-19 12:41:03.41	336.75	11.14	-46.9	-60.1	3.8	8.47e-01	0	40	104	0	65	16467
2026-01-19 12:41:04.40	336.79	11.05	-46.9	-60.1	3.8	8.47e-01	0	40	104	0	65	16383
2026-01-19 12:41:05.39	336.84	10.97	-46.9	-60.1	3.8	8.47e-01	0	40	104	0	65	16408
2026-01-19 12:41:06.39	336.88	10.88	-46.9	-60.1	3.8	8.46e-01	0	40	104	0	65	16426
2026-01-19 12:41:07.38	336.93	10.79	-46.9	-60.1	3.8	8.47e-01	0	40	104	0	65	16378
2026-01-19 12:41:08.37	336.97	10.71	-46.9	-60.1	3.8	8.47e-01	0	40	104	0	65	16455
2026-01-19 12:41:09.37	337.01	10.62	-46.9	-60.1	3.8	8.47e-01	0	40	104	0	65	16472
2026-01-19 12:41:10.36	337.06	10.54	-46.9	-60.1	3.8	8.48e-01	0	40	104	0	65	16447
2026-01-19 12:41:11.35	337.10	10.45	-46.9	-60.1	3.8	8.46e-01	0	40	104	0	65	16467
2026-01-19 12:41:12.34	337.14	10.37	-46.9	-60.1	3.8	8.46e-01	0	40	104	0	65	16419
2026-01-19 12:41:13.34	337.18	10.28	-46.9	-60.1	3.8	8.47e-01	0	40	104	0	65	16449
2026-01-19 12:41:14.33	337.23	10.20	-46.9	-60.1	3.8	8.47e-01	0	40	104	0	65	16421
2026-01-19 12:41:15.32	337.27	10.11	-46.9	-60.1	3.8	8.46e-01	0	40	104	0	65	16461
2026-01-19 12:41:16.32	337.31	10.03	-46.9	-60.1	3.8	8.47e-01	0	40	104	0	65	16478
2026-01-19 12:41:17.31	337.35	9.94	-46.9	-60.1	3.8	8.48e-01	0	40	104	0	65	16418
2026-01-19 12:41:18.30	337.39	9.86	-46.9	-60.1	3.8	8.48e-01	0	40	104	0	65	16501
2026-01-19 12:41:19.29	337.44	9.78	-46.9	-60.1	3.8	8.48e-01	0	40	104	0	65	16465
2026-01-19 12:41:20.29	337.48	9.70	-46.9	-60.1	3.8	8.47e-01	0	40	104	0	65	16502
2026-01-19 12:41:21.28	337.52	9.61	-46.9	-60.1	3.8	8.47e-01	0	40	104	0	65	16468
2026-01-19 12:41:22.27	337.56	9.53	-46.9	-60.1	3.8	8.46e-01	0	40	104	0	65	16489
2026-01-19 12:41:23.27	337.60	9.45	-46.9	-60.1	3.8	8.47e-01	0	40	104	0	65	16437
2026-01-19 12:41:24.26	337.64	9.37	-46.9	-60.1	3.8	8.47e-01	0	40	104	0	65	16449
2026-01-19 12:41:25.25	337.68	9.29	-46.9	-60.1	3.8	8.47e-01	0	40	104	0	65	16390
2026-01-19 12:41:26.24	337.72	9.21	-46.9	-60.1	3.8	8.47e-01	0	40	104	0	65	16487
2026-01-19 12:41:27.24	337.76	9.12	-46.9	-60.1	3.8	8.47e-01	0	40	104	0	65	16432
2026-01-19 12:41:28.23	337.80	9.04	-46.9	-60.2	3.8	8.47e-01	0	40	104	0	65	16519
2026-01-19 12:41:29.22	337.84	8.96	-46.9	-60.1	3.8	8.47e-01	0	40	104	0	65	16446
2026-01-19 12:41:30.22	337.88	8.88	-46.9	-60.1	3.8	8.48e-01	0	40	104	0	65	16446
2026-01-19 12:41:31.21	337.92	8.80	-46.9	-60.1	3.8	8.47e-01	0	40	104	0	65	16371
2026-01-19 12:41:32.20	337.95	8.72	-46.9	-60.1	3.8	8.46e-01	0	40	104	0	65	16453
2026-01-19 12:41:33.19	337.99	8.64	-46.9	-60.1	3.8	8.46e-01	0	40	104	0	65	16405
2026-01-19 12:41:34.19	338.03	8.56	-46.9	-60.1	3.8	8.47e-01	0	40	104	0	65	16463
2026-01-19 12:41:35.18	338.07	8.49	-46.9	-60.1	3.8	8.47e-01	0	40	104	0	65	16410
2026-01-19 12:41:36.17	338.11	8.41	-46.9	-60.1	3.8	8.48e-01	0	40	104	0	65	16379
2026-01-19 12:41:37.17	338.14	8.33	-46.9	-60.1	3.8	8.47e-01	0	40	104	0	65	16428
2026-01-19 12:41:38.16	338.18	8.25	-46.9	-60.1	3.8	8.46e-01	0	40	104	0	65	16380
2026-01-19 12:41:39.15	338.22	8.17	-46.9	-60.1	3.8	8.46e-01	0	40	104	0	65	16488
2026-01-19 12:41:40.14	338.26	8.10	-46.9	-60.1	3.8	8.46e-01	0	40	104	0	65	16444
2026-01-19 12:41:41.14	338.29	8.02	-46.9	-60.1	3.8	8.48e-01	0	40	104	0	65	16424
2026-01-19 12:41:42.13	338.33	7.94	-46.9	-60.1	3.8	8.46e-01	0	40	104	0	65	16412
2026-01-19 12:41:43.12	338.37	7.86	-46.9	-60.1	3.8	8.46e-01	0	40	104	0	65	16428
