passes_logs/2026/01/19/T1/T1__20260119_101128_NOAA_20_JPSS-1_rec.log

#Pass ID: 20260119_101128_NOAA 20 (JPSS-1)
#Satellite: NOAA 20 (JPSS-1)
#Configuration: NOAA 20
#almurnet v.1.7.20251203
#Start time: 2026-01-19 10:11:28

#Version: 2.0.20230620
#Station: T1
#Location: 37.570604 lon 55.790049 lat
#TLE: 1 43013U 17073A   26018.92475364  .00000071  00000+0  54435-4 0  9998
#TLE: 2 43013  98.7641 319.8227 0001354  33.6678 326.4584 14.19536868423299

#Time	Az	El	Level	Level2	SNR	BER	BlckErr	Temp	State	Recorded	gain1	gain2
2026-01-19 10:11:28.16	168.47	4.97	-50.0	-65.4	3.8	1.49e+00	0	39	0	0	71	21441
2026-01-19 10:11:29.15	168.49	5.04	-46.4	-64.7	3.8	1.49e+00	0	39	104	0	63	31361
2026-01-19 10:11:30.14	168.50	5.11	-46.4	-64.7	3.8	1.49e+00	0	39	104	0	63	31284
2026-01-19 10:11:31.13	168.52	5.18	-46.4	-64.7	3.8	1.49e+00	0	39	104	0	63	31304
2026-01-19 10:11:32.12	168.53	5.25	-46.4	-64.7	3.8	1.49e+00	0	39	104	0	63	31362
2026-01-19 10:11:33.12	168.55	5.32	-46.5	-64.8	3.8	1.49e+00	0	40	104	0	63	31591
2026-01-19 10:11:34.11	168.57	5.39	-46.5	-64.9	3.8	1.49e+00	0	40	104	0	63	31816
2026-01-19 10:11:35.10	168.58	5.47	-46.5	-64.9	3.8	1.49e+00	0	40	104	0	63	31962
2026-01-19 10:11:36.10	168.60	5.54	-46.6	-64.9	3.8	1.49e+00	0	40	104	0	63	32175
2026-01-19 10:11:37.09	168.62	5.61	-46.6	-64.9	3.8	1.49e+00	0	40	104	0	63	32138
2026-01-19 10:11:38.08	168.63	5.68	-46.5	-65.0	3.8	1.49e+00	0	40	104	0	63	32187
2026-01-19 10:11:39.08	168.65	5.76	-46.6	-65.0	3.8	1.49e+00	0	40	104	0	63	32206
2026-01-19 10:11:40.07	168.66	5.83	-46.6	-64.9	3.8	1.49e+00	0	40	104	0	64	30109
2026-01-19 10:11:41.06	168.68	5.90	-46.6	-64.7	3.8	1.49e+00	0	40	104	0	64	29472
2026-01-19 10:11:42.06	168.70	5.98	-46.5	-64.6	3.8	1.49e+00	0	40	104	0	64	29113
2026-01-19 10:11:43.05	168.72	6.05	-46.4	-64.4	3.8	1.49e+00	0	40	104	0	64	28628
2026-01-19 10:11:44.04	168.73	6.12	-46.5	-64.3	3.8	1.49e+00	0	40	104	0	64	28155
2026-01-19 10:11:45.03	168.75	6.20	-46.4	-64.2	3.8	1.49e+00	0	40	104	0	64	27871
2026-01-19 10:11:46.03	168.77	6.27	-46.4	-64.1	3.8	1.49e+00	0	40	104	0	64	27515
2026-01-19 10:11:47.02	168.78	6.35	-46.4	-64.1	3.8	1.49e+00	0	40	104	0	64	27628
2026-01-19 10:11:48.01	168.80	6.42	-46.4	-64.2	3.8	1.49e+00	0	40	104	0	64	27739
2026-01-19 10:11:49.00	168.82	6.50	-46.4	-64.3	3.8	1.49e+00	0	40	104	0	64	28150
2026-01-19 10:11:50.00	168.84	6.57	-46.4	-64.4	3.8	1.49e+00	0	40	104	0	64	28591
2026-01-19 10:11:50.99	168.85	6.65	-46.4	-64.5	3.8	1.49e+00	0	40	104	0	64	28986
2026-01-19 10:11:51.98	168.87	6.72	-46.4	-64.7	3.8	1.49e+00	0	40	104	0	64	29601
2026-01-19 10:11:52.97	168.89	6.80	-46.4	-64.8	3.8	1.49e+00	0	40	104	0	64	29907
2026-01-19 10:11:53.97	168.91	6.88	-46.5	-64.9	3.8	1.49e+00	0	40	104	0	64	30234
2026-01-19 10:11:54.96	168.92	6.95	-46.4	-65.0	3.8	1.49e+00	0	40	104	0	64	30475
2026-01-19 10:11:55.95	168.94	7.03	-46.3	-65.0	3.8	1.49e+00	0	40	104	0	64	30416
2026-01-19 10:11:56.95	168.96	7.11	-46.4	-65.0	3.8	1.49e+00	0	41	104	0	64	30454
2026-01-19 10:11:57.94	168.98	7.18	-46.4	-64.9	3.8	1.49e+00	0	40	104	0	64	30292
2026-01-19 10:11:58.93	169.00	7.26	-46.5	-64.8	3.8	1.49e+00	0	41	104	0	64	29719
2026-01-19 10:11:59.92	169.01	7.34	-46.5	-64.4	3.8	1.49e+00	0	41	104	0	64	28582
2026-01-19 10:12:00.92	169.03	7.41	-46.4	-63.9	3.8	1.49e+00	0	41	104	0	64	26792
2026-01-19 10:12:01.91	169.05	7.49	-46.4	-63.0	3.8	1.49e+00	0	41	104	0	64	24307
2026-01-19 10:12:02.90	169.07	7.57	-46.4	-61.6	4.2	1.46e+00	0	41	0	0	64	20737
2026-01-19 10:12:03.90	169.09	7.65	-46.3	-60.4	4.5	1.36e+00	0	41	0	0	64	17995
2026-01-19 10:12:04.89	169.11	7.73	-46.2	-59.0	5.2	6.63e-01	0	41	0	2097152	64	15329
2026-01-19 10:12:05.88	169.12	7.81	-46.1	-58.2	5.8	4.32e-01	0	41	0	4194304	64	13963
2026-01-19 10:12:06.87	169.14	7.89	-46.0	-57.4	6.3	3.20e-01	0	41	0	6291456	64	12788
2026-01-19 10:12:07.87	169.16	7.97	-45.9	-56.6	7.1	2.05e-01	0	41	0	7340032	63	12251
2026-01-19 10:12:08.86	169.18	8.04	-45.9	-56.1	7.3	1.11e-01	0	41	0	9437184	63	11655
2026-01-19 10:12:09.85	169.20	8.12	-45.9	-55.7	7.9	8.20e-02	0	41	0	11534336	63	11120
2026-01-19 10:12:10.85	169.22	8.21	-45.8	-55.5	8.2	6.15e-02	0	41	0	13631488	63	10801
2026-01-19 10:12:11.84	169.24	8.29	-45.8	-55.6	8.1	5.72e-02	0	41	0	14680064	63	10936
2026-01-19 10:12:12.83	169.26	8.37	-45.8	-55.8	7.8	7.05e-02	0	41	0	16777216	63	11236
2026-01-19 10:12:13.82	169.28	8.45	-45.9	-56.2	7.4	9.49e-02	0	41	0	18874368	63	11780
2026-01-19 10:12:14.82	169.30	8.53	-46.0	-56.9	6.8	1.37e-01	0	41	0	20971520	63	12759
2026-01-19 10:12:15.81	169.32	8.61	-46.1	-57.9	6.0	2.90e-01	0	41	0	23068672	63	14318
2026-01-19 10:12:16.80	169.34	8.69	-46.1	-58.9	5.3	4.63e-01	0	41	0	24117248	63	16072
2026-01-19 10:12:17.79	169.36	8.77	-46.3	-60.8	4.4	7.76e-01	0	41	0	26214400	63	19996
2026-01-19 10:12:18.79	169.38	8.86	-46.3	-61.7	4.2	1.21e+00	0	41	0	27262976	63	22009
2026-01-19 10:12:19.78	169.40	8.94	-46.4	-63.0	3.8	1.49e+00	0	41	104	27262976	63	25753
2026-01-19 10:12:20.77	169.42	9.02	-46.4	-64.0	3.8	1.49e+00	0	41	104	27262976	63	28686
2026-01-19 10:12:21.76	169.44	9.10	-46.6	-57.4	6.3	1.49e+00	0	41	104	27262976	64	12738
2026-01-19 10:12:22.76	169.46	9.19	-46.4	-64.3	3.8	3.58e-01	0	41	104	27262976	64	28204
2026-01-19 10:12:23.75	169.48	9.27	-46.9	-61.5	3.9	1.49e+00	0	41	104	27262976	64	20523
2026-01-19 10:12:24.74	169.50	9.35	-46.0	-52.8	10.8	3.48e-01	0	41	0	27262976	63	7982
2026-01-19 10:12:25.73	169.52	9.44	-46.9	-63.0	3.8	1.70e-02	0	41	104	29360128	64	24358
2026-01-19 10:12:26.73	169.54	9.52	-46.3	-54.4	6.7	1.36e+00	0	41	104	29360128	64	9019
2026-01-19 10:12:27.72	169.56	9.61	-45.6	-51.6	12.5	1.79e-04	0	41	0	30408704	62	7305
2026-01-19 10:12:28.71	169.58	9.69	-45.6	-51.8	12.0	1.12e-04	0	41	0	32505856	62	7478
2026-01-19 10:12:29.70	169.60	9.78	-45.2	-50.5	13.4	5.56e-05	0	41	0	33554432	62	6459
2026-01-19 10:12:30.70	169.62	9.86	-44.9	-49.8	14.0	1.50e-06	0	41	0	35651584	61	6330
2026-01-19 10:12:31.69	169.64	9.95	-44.7	-49.5	14.4	0.00e+00	0	41	0	37748736	61	6071
2026-01-19 10:12:32.68	169.66	10.04	-44.7	-49.2	14.7	0.00e+00	0	41	0	39845888	61	5903
2026-01-19 10:12:33.68	169.69	10.12	-44.6	-49.1	14.8	0.00e+00	0	41	0	41943040	60	6135
2026-01-19 10:12:34.67	169.71	10.21	-44.5	-48.9	15.0	0.00e+00	0	41	0	42991616	60	6044
2026-01-19 10:12:35.66	169.73	10.30	-44.5	-48.9	15.1	7.00e-07	0	41	0	45088768	60	6012
2026-01-19 10:12:36.66	169.75	10.38	-44.3	-48.6	15.2	0.00e+00	0	41	0	47185920	60	5855
2026-01-19 10:12:37.65	169.77	10.47	-44.2	-48.2	15.6	0.00e+00	0	41	0	49283072	60	5571
2026-01-19 10:12:38.64	169.79	10.56	-44.0	-47.9	15.9	0.00e+00	0	41	0	50331648	60	5390
2026-01-19 10:12:39.63	169.82	10.65	-44.1	-48.0	15.9	0.00e+00	0	41	0	52428800	60	5464
2026-01-19 10:12:40.62	169.84	10.74	-44.0	-47.9	16.0	0.00e+00	0	41	0	54525952	60	5349
2026-01-19 10:12:41.62	169.86	10.83	-43.9	-47.5	16.4	0.00e+00	0	41	0	56623104	59	5430
2026-01-19 10:12:42.61	169.88	10.91	-43.9	-47.4	16.5	0.00e+00	0	41	0	58720256	59	5365
2026-01-19 10:12:43.60	169.91	11.00	-43.8	-47.3	16.6	0.00e+00	0	41	0	59768832	59	5288
2026-01-19 10:12:44.60	169.93	11.09	-43.9	-47.2	16.7	0.00e+00	0	41	0	61865984	59	5262
2026-01-19 10:12:45.59	169.95	11.18	-43.7	-46.9	17.0	0.00e+00	0	42	0	63963136	59	5078
2026-01-19 10:12:46.58	169.98	11.27	-43.7	-46.9	16.9	0.00e+00	0	41	0	66060288	59	5094
2026-01-19 10:12:47.58	170.00	11.37	-43.8	-47.1	16.8	0.00e+00	0	42	0	67108864	59	5164
2026-01-19 10:12:48.57	170.02	11.46	-43.9	-47.0	16.9	0.00e+00	0	42	0	69206016	59	5115
2026-01-19 10:12:49.56	170.04	11.55	-43.8	-46.8	17.1	0.00e+00	0	41	0	71303168	59	5041
2026-01-19 10:12:50.55	170.07	11.64	-43.9	-46.9	17.0	0.00e+00	0	41	0	73400320	59	5096
2026-01-19 10:12:51.55	170.09	11.73	-43.9	-46.9	17.1	0.00e+00	0	41	0	74448896	59	5054
2026-01-19 10:12:52.54	170.12	11.83	-43.9	-46.8	17.1	0.00e+00	0	42	0	76546048	59	5023
2026-01-19 10:12:53.53	170.14	11.92	-43.9	-46.8	17.1	0.00e+00	0	41	0	78643200	59	5028
2026-01-19 10:12:54.52	170.16	12.01	-44.0	-46.9	17.0	0.00e+00	0	42	0	80740352	59	5060
2026-01-19 10:12:55.52	170.19	12.11	-44.0	-46.9	17.0	0.00e+00	0	41	0	82837504	59	5070
2026-01-19 10:12:56.51	170.21	12.20	-44.0	-46.9	17.0	0.00e+00	0	41	0	83886080	59	5066
2026-01-19 10:12:57.50	170.24	12.29	-43.9	-46.7	17.2	0.00e+00	0	42	0	85983232	59	4983
2026-01-19 10:12:58.50	170.26	12.39	-43.8	-46.6	17.3	0.00e+00	0	41	0	88080384	59	4904
2026-01-19 10:12:59.49	170.29	12.48	-43.8	-46.6	17.4	0.00e+00	0	42	0	90177536	59	4892
2026-01-19 10:13:00.48	170.31	12.58	-43.9	-46.7	17.3	0.00e+00	0	41	0	91226112	59	4951
2026-01-19 10:13:01.48	170.34	12.68	-43.9	-46.7	17.3	0.00e+00	0	42	0	93323264	59	4950
2026-01-19 10:13:02.47	170.36	12.77	-43.8	-46.5	17.4	0.00e+00	0	42	0	95420416	59	4851
2026-01-19 10:13:03.46	170.39	12.87	-43.8	-46.5	17.4	0.00e+00	0	41	0	97517568	59	4850
2026-01-19 10:13:04.45	170.41	12.97	-43.9	-46.6	17.4	0.00e+00	0	42	0	99614720	59	4879
2026-01-19 10:13:05.45	170.44	13.06	-43.9	-46.6	17.4	0.00e+00	0	42	0	100663296	59	4885
2026-01-19 10:13:06.44	170.46	13.16	-43.9	-46.6	16.1	0.00e+00	0	42	0	102760448	59	4877
2026-01-19 10:13:07.43	170.49	13.26	-43.8	-46.5	17.5	0.00e+00	0	42	0	104857600	59	4818
2026-01-19 10:13:08.43	170.51	13.36	-43.9	-46.5	17.4	0.00e+00	0	42	0	106954752	59	4851
2026-01-19 10:13:09.42	170.54	13.46	-43.8	-46.4	17.6	0.00e+00	0	42	0	108003328	59	4811
2026-01-19 10:13:10.41	170.57	13.56	-43.8	-46.4	17.5	0.00e+00	0	42	0	110100480	59	4804
2026-01-19 10:13:11.40	170.59	13.66	-43.7	-46.3	17.6	0.00e+00	0	42	0	112197632	59	4757
2026-01-19 10:13:12.40	170.62	13.76	-43.7	-46.4	17.6	0.00e+00	0	42	0	114294784	59	4792
2026-01-19 10:13:13.39	170.65	13.86	-43.7	-46.4	17.5	0.00e+00	0	42	0	116391936	59	4800
2026-01-19 10:13:14.38	170.67	13.96	-43.7	-46.4	17.5	0.00e+00	0	41	0	117440512	59	4811
2026-01-19 10:13:15.38	170.70	14.06	-43.7	-46.4	17.6	0.00e+00	0	42	0	119537664	59	4796
2026-01-19 10:13:16.37	170.73	14.16	-43.7	-46.4	17.5	0.00e+00	0	42	0	121634816	59	4812
2026-01-19 10:13:17.36	170.76	14.26	-43.6	-46.4	17.6	0.00e+00	0	42	0	123731968	59	4771
2026-01-19 10:13:18.36	170.78	14.37	-43.6	-46.3	17.7	0.00e+00	0	42	0	124780544	59	4741
2026-01-19 10:13:19.35	170.81	14.47	-43.6	-46.3	17.6	0.00e+00	0	42	0	126877696	59	4750
2026-01-19 10:13:20.34	170.84	14.57	-43.8	-46.5	17.5	0.00e+00	0	42	0	128974848	59	4815
2026-01-19 10:13:21.33	170.87	14.68	-43.7	-46.3	17.7	0.00e+00	0	42	0	131072000	59	4750
2026-01-19 10:13:22.33	170.90	14.78	-43.6	-46.3	17.7	0.00e+00	0	41	0	133169152	59	4716
2026-01-19 10:13:23.32	170.92	14.89	-43.6	-46.3	17.7	0.00e+00	0	42	0	134217728	59	4710
2026-01-19 10:13:24.31	170.95	14.99	-43.6	-46.3	17.7	0.00e+00	0	42	0	136314880	59	4726
2026-01-19 10:13:25.31	170.98	15.10	-43.6	-46.3	17.8	0.00e+00	0	42	0	138412032	59	4710
2026-01-19 10:13:26.30	171.01	15.20	-43.5	-46.2	17.8	0.00e+00	0	42	0	140509184	59	4668
2026-01-19 10:13:27.29	171.04	15.31	-43.6	-46.3	17.7	0.00e+00	0	42	0	141557760	59	4712
2026-01-19 10:13:28.28	171.07	15.42	-43.5	-46.2	17.7	0.00e+00	0	42	0	143654912	59	4695
2026-01-19 10:13:29.28	171.10	15.53	-43.5	-46.2	17.8	0.00e+00	0	42	0	145752064	59	4671
2026-01-19 10:13:30.27	171.13	15.63	-43.5	-46.1	17.9	0.00e+00	0	42	0	147849216	58	4914
2026-01-19 10:13:31.26	171.16	15.74	-43.5	-46.1	17.9	0.00e+00	0	42	0	149946368	58	4919
2026-01-19 10:13:32.26	171.19	15.85	-43.5	-46.2	17.9	0.00e+00	0	42	0	150994944	58	4929
2026-01-19 10:13:33.25	171.22	15.96	-43.4	-46.1	18.0	0.00e+00	0	42	0	153092096	58	4873
2026-01-19 10:13:34.24	171.25	16.07	-43.5	-46.2	17.9	0.00e+00	0	42	0	155189248	58	4928
2026-01-19 10:13:35.23	171.28	16.18	-43.5	-46.2	17.9	0.00e+00	0	42	0	157286400	58	4928
2026-01-19 10:13:36.23	171.31	16.29	-43.5	-46.2	17.8	0.00e+00	0	42	0	158334976	58	4936
2026-01-19 10:13:37.22	171.34	16.40	-43.5	-46.1	17.9	0.00e+00	0	42	0	160432128	58	4902
2026-01-19 10:13:38.21	171.37	16.52	-43.6	-46.2	17.9	0.00e+00	0	42	0	162529280	58	4947
2026-01-19 10:13:39.20	171.41	16.63	-43.6	-46.2	17.9	0.00e+00	0	42	0	164626432	58	4929
2026-01-19 10:13:40.20	171.44	16.74	-43.6	-46.2	17.8	0.00e+00	0	42	0	165675008	58	4976
2026-01-19 10:13:41.19	171.47	16.86	-43.6	-46.2	17.9	0.00e+00	0	42	0	167772160	58	4956
2026-01-19 10:13:42.18	171.50	16.97	-43.7	-46.3	17.8	0.00e+00	0	42	0	169869312	58	4992
2026-01-19 10:13:43.18	171.53	17.09	-43.7	-46.3	17.8	0.00e+00	0	42	0	171966464	58	4994
2026-01-19 10:13:44.17	171.57	17.20	-43.7	-46.3	17.8	0.00e+00	0	42	0	174063616	58	4997
2026-01-19 10:13:45.16	171.60	17.32	-43.8	-46.4	17.7	0.00e+00	0	42	0	175112192	58	5069
2026-01-19 10:13:46.15	171.63	17.43	-43.7	-46.4	17.7	0.00e+00	0	42	0	177209344	58	5057
2026-01-19 10:13:47.15	171.67	17.55	-43.6	-46.2	17.9	0.00e+00	0	42	0	179306496	58	4960
2026-01-19 10:13:48.14	171.70	17.67	-43.7	-46.3	17.7	0.00e+00	0	42	0	181403648	58	5036
2026-01-19 10:13:49.13	171.73	17.78	-43.7	-46.3	17.8	0.00e+00	0	42	0	182452224	58	5019
2026-01-19 10:13:50.12	171.77	17.90	-43.7	-46.3	17.7	0.00e+00	0	42	0	184549376	58	5041
2026-01-19 10:13:51.12	171.80	18.02	-43.8	-46.4	17.6	0.00e+00	0	42	0	186646528	58	5076
2026-01-19 10:13:52.11	171.84	18.14	-43.8	-46.4	17.6	0.00e+00	0	42	0	188743680	58	5098
2026-01-19 10:13:53.10	171.87	18.26	-43.8	-46.5	17.6	0.00e+00	0	42	0	190840832	58	5116
2026-01-19 10:13:54.09	171.91	18.38	-43.9	-46.6	17.5	0.00e+00	0	42	0	191889408	58	5174
2026-01-19 10:13:55.09	171.94	18.50	-43.8	-46.5	17.6	0.00e+00	0	42	0	193986560	58	5137
2026-01-19 10:13:56.08	171.98	18.63	-43.8	-46.4	17.7	0.00e+00	0	42	0	196083712	58	5088
2026-01-19 10:13:57.07	172.01	18.75	-43.8	-46.4	17.7	0.00e+00	0	42	0	198180864	58	5061
2026-01-19 10:13:58.07	172.05	18.87	-43.9	-46.5	17.6	0.00e+00	0	42	0	199229440	58	5155
2026-01-19 10:13:59.06	172.09	19.00	-43.9	-46.5	17.6	0.00e+00	0	42	0	201326592	58	5133
2026-01-19 10:14:00.05	172.12	19.12	-43.9	-46.5	17.5	0.00e+00	0	42	0	203423744	58	5158
2026-01-19 10:14:01.04	172.16	19.24	-43.9	-46.6	17.5	0.00e+00	0	42	0	205520896	58	5179
2026-01-19 10:14:02.04	172.20	19.37	-43.9	-46.6	17.5	0.00e+00	0	42	0	207618048	58	5188
2026-01-19 10:14:03.03	172.24	19.50	-44.0	-46.6	17.5	0.00e+00	0	42	0	208666624	58	5218
2026-01-19 10:14:04.02	172.27	19.62	-44.0	-46.7	17.4	0.00e+00	0	42	0	210763776	58	5231
2026-01-19 10:14:05.01	172.31	19.75	-44.0	-46.7	17.4	0.00e+00	0	42	0	212860928	58	5273
2026-01-19 10:14:06.01	172.35	19.88	-44.0	-46.8	17.4	0.00e+00	0	42	0	214958080	58	5292
2026-01-19 10:14:07.00	172.39	20.01	-44.1	-46.8	17.3	0.00e+00	0	42	0	216006656	58	5334
2026-01-19 10:14:07.99	172.43	20.14	-44.1	-46.8	17.3	0.00e+00	0	42	0	218103808	58	5328
2026-01-19 10:14:08.99	172.47	20.27	-44.2	-46.9	17.1	0.00e+00	0	42	0	220200960	59	5098
2026-01-19 10:14:09.98	172.51	20.40	-44.2	-46.9	17.2	0.00e+00	0	42	0	222298112	59	5084
2026-01-19 10:14:10.97	172.55	20.53	-44.2	-46.9	17.2	0.00e+00	0	42	0	224395264	59	5086
2026-01-19 10:14:11.97	172.59	20.66	-44.1	-46.9	17.3	0.00e+00	0	42	0	225443840	59	5042
2026-01-19 10:14:12.96	172.63	20.80	-44.1	-46.9	17.3	0.00e+00	0	42	0	227540992	59	5049
2026-01-19 10:14:13.95	172.67	20.93	-44.2	-47.1	17.1	0.00e+00	0	42	0	229638144	59	5163
2026-01-19 10:14:14.95	172.71	21.06	-44.1	-46.9	17.2	0.00e+00	0	42	0	231735296	59	5088
2026-01-19 10:14:15.94	172.75	21.20	-44.2	-47.0	17.2	0.00e+00	0	42	0	232783872	59	5107
2026-01-19 10:14:16.93	172.79	21.33	-44.3	-47.1	17.1	0.00e+00	0	42	0	234881024	59	5192
2026-01-19 10:14:17.92	172.84	21.47	-44.3	-47.2	16.9	0.00e+00	0	42	0	236978176	59	5274
2026-01-19 10:14:18.92	172.88	21.61	-44.3	-47.2	16.9	0.00e+00	0	42	0	239075328	59	5267
2026-01-19 10:14:19.91	172.92	21.75	-44.4	-47.3	16.9	0.00e+00	0	42	0	241172480	59	5304
2026-01-19 10:14:20.90	172.97	21.88	-44.4	-47.2	16.9	0.00e+00	0	42	0	242221056	59	5267
2026-01-19 10:14:21.90	173.01	22.02	-44.4	-47.3	16.8	0.00e+00	0	42	0	244318208	59	5307
2026-01-19 10:14:22.89	173.05	22.16	-44.5	-47.4	16.7	0.00e+00	0	42	0	246415360	59	5375
2026-01-19 10:14:23.88	173.10	22.31	-44.5	-47.4	16.7	0.00e+00	0	42	0	248512512	59	5384
2026-01-19 10:14:24.87	173.14	22.45	-44.5	-47.4	16.7	0.00e+00	0	42	0	249561088	59	5372
2026-01-19 10:14:25.87	173.19	22.59	-44.5	-47.4	16.8	0.00e+00	0	42	0	251658240	59	5379
2026-01-19 10:14:26.86	173.23	22.73	-44.5	-47.4	16.8	0.00e+00	0	42	0	253755392	59	5349
2026-01-19 10:14:27.85	173.28	22.88	-44.5	-47.4	16.8	0.00e+00	0	42	0	255852544	59	5350
2026-01-19 10:14:28.84	173.33	23.02	-44.5	-47.4	16.8	0.00e+00	0	42	0	256901120	59	5366
2026-01-19 10:14:29.84	173.37	23.17	-44.5	-47.3	16.9	0.00e+00	0	42	0	258998272	59	5288
2026-01-19 10:14:30.83	173.42	23.31	-44.6	-47.4	16.8	0.00e+00	0	42	0	261095424	59	5358
2026-01-19 10:14:31.82	173.47	23.46	-44.4	-47.2	17.0	0.00e+00	0	42	0	263192576	59	5251
2026-01-19 10:14:32.82	173.52	23.61	-44.4	-47.1	17.0	0.00e+00	0	42	0	265289728	59	5200
2026-01-19 10:14:33.81	173.56	23.76	-44.4	-47.2	17.0	0.00e+00	0	42	0	266338304	59	5249
2026-01-19 10:14:34.80	173.61	23.91	-44.4	-47.2	17.0	0.00e+00	0	42	0	268435456	59	5251
2026-01-19 10:14:35.80	173.66	24.06	-44.4	-47.1	17.1	0.00e+00	0	42	0	270532608	59	5183
2026-01-19 10:14:36.79	173.71	24.21	-44.5	-47.2	16.9	0.00e+00	0	42	0	272629760	59	5275
2026-01-19 10:14:37.78	173.76	24.36	-44.3	-47.0	17.1	0.00e+00	0	42	0	273678336	59	5145
2026-01-19 10:14:38.78	173.81	24.52	-44.2	-46.9	17.2	0.00e+00	0	42	0	275775488	59	5084
2026-01-19 10:14:39.77	173.86	24.67	-44.1	-46.8	17.4	0.00e+00	0	42	0	277872640	59	5013
2026-01-19 10:14:40.76	173.92	24.82	-44.1	-46.8	17.4	0.00e+00	0	42	0	279969792	59	4996
2026-01-19 10:14:41.75	173.97	24.98	-44.2	-46.9	17.3	0.00e+00	0	42	0	282066944	59	5044
2026-01-19 10:14:42.75	174.02	25.14	-44.1	-46.7	17.4	0.00e+00	0	42	0	283115520	59	4968
2026-01-19 10:14:43.74	174.07	25.29	-44.0	-46.6	17.6	0.00e+00	0	42	0	285212672	59	4911
2026-01-19 10:14:44.73	174.13	25.45	-43.9	-46.5	17.7	0.00e+00	0	42	0	287309824	59	4818
2026-01-19 10:14:45.72	174.18	25.61	-43.9	-46.5	17.7	0.00e+00	0	42	0	289406976	59	4825
2026-01-19 10:14:46.72	174.24	25.77	-43.9	-46.5	17.7	0.00e+00	0	42	0	290455552	59	4846
2026-01-19 10:14:47.71	174.29	25.93	-43.9	-46.5	17.7	0.00e+00	0	42	0	292552704	59	4838
2026-01-19 10:14:48.70	174.35	26.10	-43.9	-46.5	17.6	0.00e+00	0	42	0	294649856	59	4855
2026-01-19 10:14:49.70	174.40	26.26	-43.8	-46.4	17.8	0.00e+00	0	42	0	296747008	59	4771
2026-01-19 10:14:50.69	174.46	26.42	-43.8	-46.4	17.7	0.00e+00	0	42	0	298844160	59	4808
2026-01-19 10:14:51.68	174.52	26.59	-43.8	-46.4	17.8	0.00e+00	0	42	0	299892736	59	4775
2026-01-19 10:14:52.68	174.57	26.76	-43.8	-46.4	17.8	0.00e+00	0	42	0	301989888	59	4772
2026-01-19 10:14:53.67	174.63	26.92	-43.9	-46.4	17.8	0.00e+00	0	42	0	304087040	59	4800
2026-01-19 10:14:54.66	174.69	27.09	-43.9	-46.5	17.7	0.00e+00	0	42	0	306184192	59	4852
2026-01-19 10:14:55.66	174.75	27.26	-44.0	-46.6	17.6	0.00e+00	0	42	0	307232768	59	4906
2026-01-19 10:14:56.65	174.81	27.43	-44.0	-46.6	17.5	0.00e+00	0	42	0	309329920	59	4920
2026-01-19 10:14:57.64	174.87	27.60	-44.2	-46.9	17.3	0.00e+00	0	42	0	311427072	59	5055
2026-01-19 10:14:58.63	174.93	27.77	-44.3	-47.0	17.2	0.00e+00	0	42	0	313524224	59	5156
2026-01-19 10:14:59.63	175.00	27.95	-44.4	-47.2	17.0	0.00e+00	0	42	0	315621376	59	5233
2026-01-19 10:15:00.62	175.06	28.12	-44.5	-47.3	17.0	0.00e+00	0	42	0	316669952	59	5282
2026-01-19 10:15:01.61	175.12	28.30	-44.6	-47.4	16.9	0.00e+00	0	42	0	318767104	59	5353
2026-01-19 10:15:02.60	175.19	28.47	-44.8	-47.6	16.7	0.00e+00	0	42	0	320864256	60	5190
2026-01-19 10:15:03.60	175.25	28.65	-44.8	-47.7	16.6	0.00e+00	0	42	0	322961408	60	5244
2026-01-19 10:15:04.59	175.32	28.83	-44.8	-47.7	16.6	0.00e+00	0	42	0	324009984	60	5221
2026-01-19 10:15:05.58	175.38	29.01	-45.0	-48.0	16.3	0.00e+00	0	42	0	326107136	60	5437
2026-01-19 10:15:06.58	175.45	29.19	-45.1	-48.1	16.2	0.00e+00	0	42	0	328204288	60	5500
2026-01-19 10:15:07.57	175.52	29.38	-45.2	-48.3	16.1	0.00e+00	0	42	0	330301440	61	5289
2026-01-19 10:15:08.56	175.58	29.56	-45.1	-48.1	16.2	0.00e+00	0	42	0	332398592	61	5207
2026-01-19 10:15:09.55	175.65	29.74	-45.2	-48.2	16.1	0.00e+00	0	42	0	333447168	61	5247
2026-01-19 10:15:10.55	175.72	29.93	-45.2	-48.4	16.0	0.00e+00	0	42	0	335544320	61	5346
2026-01-19 10:15:11.54	175.79	30.12	-45.3	-48.4	15.9	0.00e+00	0	42	0	337641472	61	5354
2026-01-19 10:15:12.53	175.87	30.30	-45.2	-48.4	15.9	0.00e+00	0	42	0	339738624	61	5373
2026-01-19 10:15:13.53	175.94	30.49	-45.4	-48.7	15.6	0.00e+00	0	42	0	340787200	61	5530
2026-01-19 10:15:14.52	176.01	30.68	-45.5	-48.7	15.6	0.00e+00	0	42	0	342884352	61	5558
2026-01-19 10:15:15.51	176.08	30.87	-45.6	-48.9	15.4	0.00e+00	0	42	0	344981504	62	5366
2026-01-19 10:15:16.50	176.16	31.07	-45.6	-48.8	15.6	0.00e+00	0	42	0	347078656	62	5286
2026-01-19 10:15:17.50	176.23	31.26	-45.6	-48.8	15.5	0.00e+00	0	42	0	348127232	62	5318
2026-01-19 10:15:18.49	176.31	31.46	-45.7	-48.9	15.5	0.00e+00	0	42	0	350224384	62	5361
2026-01-19 10:15:19.48	176.39	31.65	-45.6	-48.8	15.5	0.00e+00	0	42	0	352321536	62	5330
2026-01-19 10:15:20.47	176.47	31.85	-45.6	-48.8	15.5	0.00e+00	0	42	0	354418688	62	5325
2026-01-19 10:15:21.47	176.55	32.05	-45.5	-48.7	15.7	0.00e+00	0	42	0	356515840	62	5234
2026-01-19 10:15:22.46	176.62	32.25	-45.4	-48.6	15.7	0.00e+00	0	42	0	357564416	62	5216
2026-01-19 10:15:23.45	176.71	32.45	-45.4	-48.5	15.8	0.00e+00	0	42	0	359661568	62	5146
2026-01-19 10:15:24.45	176.79	32.66	-45.2	-48.2	16.1	0.00e+00	0	42	0	361758720	62	4972
2026-01-19 10:15:25.44	176.87	32.86	-45.1	-48.1	16.3	0.00e+00	0	42	0	363855872	62	4873
2026-01-19 10:15:26.43	176.95	33.07	-45.0	-48.0	16.4	0.00e+00	0	42	0	364904448	61	5118
2026-01-19 10:15:27.42	177.04	33.27	-44.9	-47.7	16.6	0.00e+00	0	42	0	367001600	61	4966
2026-01-19 10:15:28.42	177.13	33.48	-44.9	-47.8	16.5	0.00e+00	0	42	0	369098752	61	5000
2026-01-19 10:15:29.41	177.21	33.69	-44.7	-47.5	16.8	0.00e+00	0	42	0	371195904	61	4837
2026-01-19 10:15:30.40	177.30	33.90	-44.5	-47.2	17.1	0.00e+00	0	42	0	373293056	61	4676
2026-01-19 10:15:31.40	177.39	34.12	-44.4	-47.1	17.3	0.00e+00	0	42	0	374341632	60	4880
2026-01-19 10:15:32.39	177.48	34.33	-44.2	-46.9	17.4	0.00e+00	0	42	0	376438784	60	4774
2026-01-19 10:15:33.38	177.57	34.54	-44.1	-46.8	17.5	0.00e+00	0	42	0	378535936	60	4725
2026-01-19 10:15:34.37	177.66	34.76	-44.0	-46.6	17.7	0.00e+00	0	42	0	380633088	59	4885
2026-01-19 10:15:35.37	177.76	34.98	-43.8	-46.3	17.9	0.00e+00	0	42	0	381681664	59	4753
2026-01-19 10:15:36.36	177.85	35.20	-43.6	-46.1	18.1	0.00e+00	0	42	0	383778816	59	4627
2026-01-19 10:15:37.35	177.95	35.42	-43.7	-46.1	18.1	0.00e+00	0	42	0	385875968	59	4638
2026-01-19 10:15:38.35	178.05	35.64	-43.6	-46.1	18.1	0.00e+00	0	42	0	387973120	59	4631
2026-01-19 10:15:39.34	178.15	35.87	-43.8	-46.3	17.9	0.00e+00	0	42	0	390070272	59	4751
2026-01-19 10:15:40.33	178.25	36.09	-43.8	-46.3	18.0	0.00e+00	0	42	0	391118848	59	4722
2026-01-19 10:15:41.32	178.35	36.32	-43.7	-46.3	18.0	0.00e+00	0	42	0	393216000	59	4720
2026-01-19 10:15:42.32	178.45	36.55	-43.8	-46.3	17.9	0.00e+00	0	42	0	395313152	59	4734
2026-01-19 10:15:43.31	178.55	36.78	-43.6	-46.1	18.1	0.00e+00	0	42	0	397410304	59	4610
2026-01-19 10:15:44.30	178.66	37.01	-43.5	-46.0	18.2	0.00e+00	0	42	0	398458880	59	4568
2026-01-19 10:15:45.30	178.77	37.24	-43.6	-46.0	18.2	0.00e+00	0	42	0	400556032	59	4593
2026-01-19 10:15:46.29	178.88	37.48	-43.7	-46.2	18.1	0.00e+00	0	42	0	402653184	59	4652
2026-01-19 10:15:47.28	178.99	37.71	-43.9	-46.4	17.8	0.00e+00	0	42	0	404750336	59	4805
2026-01-19 10:15:48.28	179.10	37.95	-44.1	-46.7	17.6	0.00e+00	0	42	0	406847488	59	4937
2026-01-19 10:15:49.27	179.21	38.19	-44.1	-46.7	17.6	0.00e+00	0	42	0	407896064	59	4940
2026-01-19 10:15:50.26	179.33	38.43	-44.1	-46.7	17.5	0.00e+00	0	42	0	409993216	59	4982
2026-01-19 10:15:51.25	179.44	38.67	-44.2	-46.9	17.4	0.00e+00	0	42	0	412090368	59	5066
2026-01-19 10:15:52.25	179.56	38.92	-44.3	-47.0	17.3	0.00e+00	0	42	0	414187520	59	5111
2026-01-19 10:15:53.24	179.68	39.16	-44.3	-46.9	17.3	0.00e+00	0	42	0	415236096	59	5087
2026-01-19 10:15:54.23	179.80	39.41	-44.3	-47.0	17.4	0.00e+00	0	42	0	417333248	59	5105
2026-01-19 10:15:55.23	179.93	39.66	-44.3	-47.0	17.3	0.00e+00	0	42	0	419430400	59	5101
2026-01-19 10:15:56.22	180.05	39.91	-44.3	-47.0	17.3	0.00e+00	0	42	0	421527552	59	5103
2026-01-19 10:15:57.21	180.18	40.16	-44.2	-46.8	17.4	0.00e+00	0	42	0	423624704	59	4992
2026-01-19 10:15:58.20	180.31	40.41	-44.4	-47.0	17.3	0.00e+00	0	42	0	424673280	59	5127
2026-01-19 10:15:59.20	180.44	40.67	-44.4	-47.1	17.2	0.00e+00	0	42	0	426770432	59	5200
2026-01-19 10:16:00.19	180.57	40.93	-44.6	-47.4	17.0	0.00e+00	0	42	0	428867584	59	5371
2026-01-19 10:16:01.18	180.71	41.19	-44.8	-47.7	16.7	0.00e+00	0	42	0	430964736	60	5222
2026-01-19 10:16:02.18	180.85	41.45	-44.9	-47.8	16.6	0.00e+00	0	42	0	432013312	60	5281
2026-01-19 10:16:03.17	180.99	41.71	-44.8	-47.6	16.7	0.00e+00	0	42	0	434110464	60	5212
2026-01-19 10:16:04.16	181.13	41.97	-44.7	-47.5	16.9	0.00e+00	0	42	0	436207616	60	5132
2026-01-19 10:16:05.15	181.27	42.24	-44.6	-47.3	17.0	0.00e+00	0	42	0	438304768	60	5037
2026-01-19 10:16:06.15	181.42	42.51	-44.5	-47.2	17.2	0.00e+00	0	42	0	439353344	60	4945
2026-01-19 10:16:07.14	181.57	42.78	-44.7	-47.4	16.9	0.00e+00	0	42	0	441450496	60	5098
2026-01-19 10:16:08.13	181.72	43.05	-44.9	-47.8	16.6	0.00e+00	0	42	0	443547648	60	5332
2026-01-19 10:16:09.13	181.88	43.32	-45.0	-47.9	16.5	0.00e+00	0	42	0	445644800	60	5371
2026-01-19 10:16:10.12	182.03	43.59	-45.1	-48.0	16.4	0.00e+00	0	42	0	447741952	60	5430
2026-01-19 10:16:11.11	182.19	43.87	-45.3	-48.4	16.0	0.00e+00	0	42	0	448790528	61	5347
2026-01-19 10:16:12.10	182.35	44.15	-45.5	-48.6	15.8	0.00e+00	0	42	0	450887680	61	5504
2026-01-19 10:16:13.10	182.52	44.43	-45.4	-48.5	15.9	0.00e+00	0	42	0	452984832	61	5413
2026-01-19 10:16:14.09	182.69	44.71	-45.4	-48.4	16.0	0.00e+00	0	42	0	455081984	61	5372
2026-01-19 10:16:15.08	182.86	44.99	-45.4	-48.5	15.9	0.00e+00	0	42	0	456130560	61	5451
2026-01-19 10:16:16.08	183.03	45.28	-45.6	-48.7	15.7	0.00e+00	0	42	0	458227712	61	5580
2026-01-19 10:16:17.07	183.21	45.56	-45.9	-49.2	15.3	0.00e+00	0	42	0	460324864	62	5537
2026-01-19 10:16:18.06	183.39	45.85	-45.8	-48.9	15.5	0.00e+00	0	42	0	462422016	62	5400
2026-01-19 10:16:19.05	183.57	46.14	-45.7	-48.8	15.6	0.00e+00	0	42	0	464519168	62	5309
2026-01-19 10:16:20.05	183.76	46.43	-45.4	-48.4	16.0	0.00e+00	0	42	0	465567744	62	5060
2026-01-19 10:16:21.04	183.95	46.72	-45.4	-48.5	15.9	0.00e+00	0	42	0	467664896	62	5119
2026-01-19 10:16:22.03	184.14	47.02	-45.5	-48.6	15.9	0.00e+00	0	42	0	469762048	62	5209
2026-01-19 10:16:23.03	184.34	47.32	-45.8	-49.0	15.5	0.00e+00	0	42	0	471859200	62	5414
2026-01-19 10:16:24.02	184.54	47.62	-45.9	-49.2	15.3	0.00e+00	0	42	0	472907776	62	5541
2026-01-19 10:16:25.01	184.74	47.92	-45.9	-49.2	15.2	0.00e+00	0	42	0	475004928	62	5585
2026-01-19 10:16:26.00	184.95	48.22	-45.9	-49.2	15.2	0.00e+00	0	42	0	477102080	62	5585
2026-01-19 10:16:27.00	185.17	48.52	-45.5	-48.6	15.8	0.00e+00	0	42	0	479199232	62	5194
2026-01-19 10:16:27.99	185.38	48.83	-45.0	-47.9	16.4	0.00e+00	0	42	0	481296384	62	4813
2026-01-19 10:16:28.98	185.60	49.13	-44.9	-47.7	16.7	0.00e+00	0	42	0	482344960	61	4950
2026-01-19 10:16:29.97	185.83	49.44	-44.5	-47.3	17.1	0.00e+00	0	42	0	484442112	61	4710
2026-01-19 10:16:30.97	186.06	49.75	-44.1	-46.7	17.6	0.00e+00	0	42	0	486539264	60	4700
2026-01-19 10:16:31.96	186.29	50.07	-44.1	-46.7	17.8	0.00e+00	0	42	0	488636416	60	4661
2026-01-19 10:16:32.95	186.53	50.38	-43.6	-46.1	18.2	0.00e+00	0	42	0	489684992	59	4639
2026-01-19 10:16:33.95	186.78	50.70	-43.5	-45.9	18.3	0.00e+00	0	42	0	491782144	59	4526
2026-01-19 10:16:34.94	187.03	51.01	-43.1	-45.5	18.8	0.00e+00	0	42	0	493879296	58	4576
2026-01-19 10:16:35.93	187.28	51.33	-42.8	-45.1	19.1	0.00e+00	0	42	0	495976448	57	4624
2026-01-19 10:16:36.92	187.54	51.65	-42.5	-44.7	19.5	0.00e+00	0	42	0	498073600	57	4440
2026-01-19 10:16:37.92	187.81	51.97	-42.2	-44.4	19.8	0.00e+00	0	42	0	499122176	56	4524
2026-01-19 10:16:38.91	188.08	52.30	-41.8	-43.9	20.1	0.00e+00	0	42	0	501219328	55	4532
2026-01-19 10:16:39.90	188.36	52.62	-41.7	-43.9	20.1	0.00e+00	0	42	0	503316480	55	4514
2026-01-19 10:16:40.90	188.64	52.95	-41.6	-43.8	20.2	0.00e+00	0	42	0	505413632	55	4442
2026-01-19 10:16:41.89	188.93	53.28	-41.4	-43.5	20.5	0.00e+00	0	42	0	506462208	54	4555
2026-01-19 10:16:42.88	189.23	53.60	-41.2	-43.3	20.6	0.00e+00	0	42	0	508559360	54	4473
2026-01-19 10:16:43.87	189.53	53.93	-41.2	-43.3	20.5	0.00e+00	0	42	0	510656512	54	4455
2026-01-19 10:16:44.87	189.84	54.27	-41.1	-43.1	20.8	0.00e+00	0	42	0	512753664	54	4370
2026-01-19 10:16:45.86	190.16	54.60	-41.0	-43.0	20.9	0.00e+00	0	42	0	514850816	53	4550
2026-01-19 10:16:46.85	190.48	54.93	-41.1	-43.1	20.8	0.00e+00	0	42	0	515899392	53	4632
2026-01-19 10:16:47.85	190.82	55.27	-41.5	-43.5	20.4	0.00e+00	0	42	0	517996544	53	4865
2026-01-19 10:16:48.84	191.16	55.61	-41.8	-43.9	20.1	0.00e+00	0	42	0	520093696	54	4809
2026-01-19 10:16:49.83	191.50	55.94	-42.0	-44.1	19.9	0.00e+00	0	42	0	522190848	54	4920
2026-01-19 10:16:50.83	191.86	56.29	-42.1	-44.3	19.7	0.00e+00	0	42	0	523239424	55	4738
2026-01-19 10:16:51.82	192.23	56.62	-42.3	-44.5	19.6	0.00e+00	0	42	0	525336576	55	4865
2026-01-19 10:16:52.81	192.60	56.96	-42.4	-44.7	19.4	0.00e+00	0	42	0	527433728	55	4935
2026-01-19 10:16:53.80	192.98	57.30	-42.5	-44.7	19.4	0.00e+00	0	42	0	529530880	55	4971
2026-01-19 10:16:54.79	193.38	57.65	-42.5	-44.8	19.3	0.00e+00	0	42	0	530579456	55	4996
2026-01-19 10:16:55.79	193.78	57.99	-42.3	-44.5	19.5	0.00e+00	0	42	0	532676608	55	4867
2026-01-19 10:16:56.78	194.20	58.33	-42.2	-44.4	19.6	0.00e+00	0	42	0	534773760	55	4794
2026-01-19 10:16:57.77	194.62	58.68	-42.1	-44.3	19.8	0.00e+00	0	42	0	536870912	55	4717
2026-01-19 10:16:58.76	195.05	59.02	-41.7	-43.8	20.2	0.00e+00	0	42	0	538968064	55	4466
2026-01-19 10:16:59.76	195.50	59.37	-41.5	-43.6	20.5	0.00e+00	0	42	0	540016640	55	4352
2026-01-19 10:17:00.75	195.96	59.71	-41.7	-43.8	20.2	0.00e+00	0	42	0	542113792	55	4472
2026-01-19 10:17:01.74	196.43	60.06	-41.2	-43.2	20.7	0.00e+00	0	42	0	544210944	54	4433
2026-01-19 10:17:02.73	196.91	60.40	-40.9	-42.8	21.0	0.00e+00	0	42	0	546308096	53	4491
2026-01-19 10:17:03.73	197.42	60.75	-40.2	-42.2	21.6	0.00e+00	0	42	0	547356672	52	4393
2026-01-19 10:17:04.72	197.93	61.10	-40.1	-42.0	21.8	0.00e+00	0	42	0	549453824	52	4333
2026-01-19 10:17:05.71	198.45	61.44	-40.2	-42.2	21.7	0.00e+00	0	42	0	551550976	52	4408
2026-01-19 10:17:06.70	198.99	61.79	-40.2	-42.2	21.6	0.00e+00	0	42	0	553648128	52	4406
2026-01-19 10:17:07.70	199.55	62.14	-40.3	-42.3	21.5	0.00e+00	0	42	0	555745280	52	4463
2026-01-19 10:17:08.69	200.12	62.48	-40.5	-42.5	21.3	0.00e+00	0	42	0	556793856	52	4571
2026-01-19 10:17:09.68	200.70	62.82	-40.7	-42.6	21.2	0.00e+00	0	42	0	558891008	52	4651
2026-01-19 10:17:10.68	201.31	63.17	-40.7	-42.6	21.2	0.00e+00	0	42	0	560988160	52	4640
2026-01-19 10:17:11.67	201.93	63.51	-40.8	-42.8	21.1	0.00e+00	0	42	0	563085312	52	4711
2026-01-19 10:17:12.66	202.57	63.85	-41.0	-43.1	20.9	0.00e+00	0	42	0	564133888	52	4871
2026-01-19 10:17:13.65	203.23	64.19	-41.5	-43.6	20.4	0.00e+00	0	42	0	566231040	53	4881
2026-01-19 10:17:14.65	203.91	64.53	-42.0	-44.2	19.8	0.00e+00	0	42	0	568328192	54	4965
2026-01-19 10:17:15.64	204.61	64.86	-42.4	-44.7	19.4	0.00e+00	0	42	0	570425344	55	4942
2026-01-19 10:17:16.63	205.32	65.19	-42.7	-44.9	19.2	0.00e+00	0	42	0	572522496	55	5077
2026-01-19 10:17:17.63	206.07	65.53	-43.1	-45.4	18.9	0.00e+00	0	42	0	573571072	56	5071
2026-01-19 10:17:18.62	206.83	65.86	-43.6	-46.0	18.4	0.00e+00	0	42	0	575668224	57	5109
2026-01-19 10:17:19.61	207.62	66.18	-43.9	-46.4	18.0	0.00e+00	0	42	0	577765376	58	5068
2026-01-19 10:17:20.60	208.42	66.51	-43.9	-46.5	17.9	0.00e+00	0	42	0	579862528	58	5105
2026-01-19 10:17:21.60	209.27	66.83	-43.7	-46.2	18.2	0.00e+00	0	42	0	580911104	58	4930
2026-01-19 10:17:22.59	210.12	67.15	-43.9	-46.4	17.9	0.00e+00	0	42	0	583008256	58	5096
2026-01-19 10:17:23.58	211.01	67.46	-44.5	-47.1	17.2	0.00e+00	0	42	0	585105408	59	5204
2026-01-19 10:17:24.57	211.92	67.77	-44.9	-47.8	16.7	0.00e+00	0	42	0	587202560	60	5290
2026-01-19 10:17:25.57	212.87	68.08	-44.7	-47.5	16.9	0.00e+00	0	42	0	589299712	60	5157
2026-01-19 10:17:26.56	213.84	68.38	-44.2	-46.8	17.6	0.00e+00	0	42	0	590348288	60	4747
2026-01-19 10:17:27.55	214.83	68.67	-43.8	-46.3	18.0	0.00e+00	0	42	0	592445440	59	4731
2026-01-19 10:17:28.55	215.87	68.97	-43.9	-46.5	17.9	0.00e+00	0	42	0	594542592	59	4846
2026-01-19 10:17:29.54	216.93	69.25	-44.4	-47.1	17.3	0.00e+00	0	42	0	596639744	59	5186
2026-01-19 10:17:30.53	218.02	69.53	-44.7	-47.6	16.9	0.00e+00	0	42	0	597688320	60	5205
2026-01-19 10:17:31.53	219.15	69.81	-45.0	-48.0	16.5	0.00e+00	0	42	0	599785472	61	5111
2026-01-19 10:17:32.52	220.30	70.07	-45.3	-48.4	16.1	0.00e+00	0	42	0	601882624	61	5346
2026-01-19 10:17:33.51	221.49	70.33	-45.1	-48.1	16.4	0.00e+00	0	42	0	603979776	61	5172
2026-01-19 10:17:34.50	222.71	70.58	-44.7	-47.5	16.9	0.00e+00	0	42	0	605028352	61	4853
2026-01-19 10:17:35.50	223.97	70.83	-44.6	-47.4	17.0	0.00e+00	0	42	0	607125504	61	4773
2026-01-19 10:17:36.49	225.26	71.06	-44.5	-47.2	17.2	0.00e+00	0	42	0	609222656	60	4960
2026-01-19 10:17:37.48	226.58	71.29	-44.6	-47.3	17.2	0.00e+00	0	42	0	611319808	60	4997
2026-01-19 10:17:38.47	227.93	71.51	-44.8	-47.7	16.8	0.00e+00	0	42	0	613416960	60	5244
2026-01-19 10:17:39.47	229.34	71.72	-45.1	-48.1	16.4	0.00e+00	0	42	0	614465536	61	5161
2026-01-19 10:17:40.46	230.76	71.92	-44.7	-47.5	16.9	0.00e+00	0	42	0	616562688	61	4832
2026-01-19 10:17:41.45	232.21	72.11	-44.3	-47.0	17.5	0.00e+00	0	42	0	618659840	60	4824
2026-01-19 10:17:42.45	233.71	72.28	-44.2	-46.7	17.7	0.00e+00	0	42	0	620756992	60	4702
2026-01-19 10:17:43.44	235.23	72.45	-44.4	-47.1	17.3	0.00e+00	0	42	0	621805568	60	4916
2026-01-19 10:17:44.43	236.77	72.60	-44.7	-47.5	17.0	0.00e+00	0	42	0	623902720	60	5118
2026-01-19 10:17:45.42	238.34	72.75	-44.9	-47.7	16.7	0.00e+00	0	42	0	625999872	60	5250
2026-01-19 10:17:46.42	239.96	72.88	-44.2	-46.8	17.6	0.00e+00	0	42	0	628097024	60	4727
2026-01-19 10:17:47.41	241.58	72.99	-43.5	-45.9	18.5	0.00e+00	0	42	0	630194176	58	4782
2026-01-19 10:17:48.40	243.23	73.10	-43.5	-45.9	18.5	0.00e+00	0	42	0	631242752	58	4806
2026-01-19 10:17:49.40	244.91	73.19	-43.9	-46.5	18.0	0.00e+00	0	42	0	633339904	58	5121
2026-01-19 10:17:50.39	246.59	73.27	-43.1	-45.5	18.8	0.00e+00	0	42	0	635437056	58	4552
2026-01-19 10:17:51.38	248.29	73.33	-42.6	-44.9	19.4	0.00e+00	0	42	0	637534208	57	4510
2026-01-19 10:17:52.38	250.02	73.38	-42.8	-45.0	19.3	0.00e+00	0	42	0	638582784	57	4581
2026-01-19 10:17:53.37	251.73	73.42	-43.1	-45.4	19.0	0.00e+00	0	42	0	640679936	57	4782
2026-01-19 10:17:54.34	253.42	73.44	-42.8	-45.1	19.2	0.00e+00	0	42	0	642777088	57	4602
2026-01-19 10:17:55.34	255.17	73.44	-42.6	-44.8	19.5	0.00e+00	0	42	0	644874240	57	4470
2026-01-19 10:17:56.33	256.90	73.44	-42.5	-44.7	19.5	0.00e+00	0	42	0	646971392	56	4702
2026-01-19 10:17:57.32	258.62	73.41	-42.8	-45.1	19.1	0.00e+00	0	42	0	648019968	56	4926
2026-01-19 10:17:58.32	260.36	73.38	-43.8	-46.2	18.2	0.00e+00	0	42	0	650117120	58	4982
2026-01-19 10:17:59.31	262.07	73.33	-44.0	-46.6	17.9	0.00e+00	0	42	0	652214272	58	5172
2026-01-19 10:18:00.30	263.76	73.26	-43.8	-46.4	18.1	0.00e+00	0	42	0	654311424	58	5053
2026-01-19 10:18:01.30	265.46	73.18	-43.8	-46.3	18.1	0.00e+00	0	42	0	655360000	58	4999
2026-01-19 10:18:02.29	267.12	73.09	-44.1	-46.7	17.7	0.00e+00	0	42	0	657457152	59	4973
2026-01-19 10:18:03.28	268.77	72.99	-44.3	-47.0	17.4	0.00e+00	0	42	0	659554304	59	5107
2026-01-19 10:18:04.27	270.39	72.87	-44.5	-47.2	17.3	0.00e+00	0	42	0	661651456	59	5244
2026-01-19 10:18:05.27	272.00	72.74	-44.7	-47.5	16.9	0.00e+00	0	42	0	663748608	60	5129
2026-01-19 10:18:06.26	273.57	72.59	-44.7	-47.4	17.1	0.00e+00	0	42	0	664797184	60	5071
2026-01-19 10:18:07.25	275.11	72.44	-44.4	-47.1	17.3	0.00e+00	0	42	0	666894336	60	4907
2026-01-19 10:18:08.24	276.62	72.27	-44.1	-46.8	17.7	0.00e+00	0	42	0	668991488	60	4707
2026-01-19 10:18:09.24	278.12	72.09	-43.9	-46.4	18.0	0.00e+00	0	42	0	671088640	59	4795
2026-01-19 10:18:10.23	279.57	71.91	-44.6	-47.4	17.1	0.00e+00	0	42	0	672137216	59	5355
2026-01-19 10:18:11.22	280.99	71.71	-45.3	-48.3	16.2	0.00e+00	0	42	0	674234368	61	5300
2026-01-19 10:18:12.22	282.39	71.50	-45.2	-48.1	16.3	0.00e+00	0	42	0	676331520	61	5211
2026-01-19 10:18:13.21	283.74	71.28	-44.4	-47.1	17.3	0.00e+00	0	42	0	678428672	60	4903
2026-01-19 10:18:14.20	285.05	71.05	-44.2	-46.8	17.7	0.00e+00	0	42	0	680525824	60	4724
2026-01-19 10:18:15.19	286.34	70.81	-44.3	-46.9	17.6	0.00e+00	0	42	0	681574400	59	5042
2026-01-19 10:18:16.19	287.60	70.57	-45.0	-47.9	16.6	0.00e+00	0	42	0	683671552	60	5365
2026-01-19 10:18:17.18	288.81	70.32	-45.3	-48.3	16.1	0.00e+00	0	42	0	685768704	61	5326
2026-01-19 10:18:18.17	290.00	70.06	-44.8	-47.6	16.8	0.00e+00	0	42	0	687865856	61	4923
2026-01-19 10:18:19.16	291.15	69.79	-44.6	-47.3	17.1	0.00e+00	0	42	0	688914432	61	4758
2026-01-19 10:18:20.16	292.28	69.52	-45.0	-47.9	16.6	0.00e+00	0	42	0	691011584	61	5052
2026-01-19 10:18:21.15	293.36	69.24	-44.9	-47.7	16.8	0.00e+00	0	42	0	693108736	61	4955
2026-01-19 10:18:22.14	294.42	68.95	-44.8	-47.7	16.8	0.00e+00	0	42	0	695205888	61	4932
2026-01-19 10:18:23.14	295.45	68.66	-45.2	-48.2	16.4	0.00e+00	0	42	0	696254464	61	5229
2026-01-19 10:18:24.13	296.44	68.36	-46.3	-49.8	14.8	0.00e+00	0	43	0	698351616	63	5602
2026-01-19 10:18:25.12	297.41	68.06	-46.7	-50.5	13.9	1.50e-06	0	42	0	700448768	64	5776
2026-01-19 10:18:26.12	298.35	67.76	-45.7	-48.8	15.6	0.00e+00	0	42	0	702545920	63	5027
2026-01-19 10:18:27.11	299.26	67.45	-45.7	-48.8	15.7	0.00e+00	0	42	0	704643072	62	5297
2026-01-19 10:18:28.10	300.14	67.14	-46.4	-49.8	14.7	0.00e+00	0	42	0	705691648	63	5638
2026-01-19 10:18:29.09	301.00	66.82	-46.9	-50.8	13.6	9.10e-06	0	42	0	707788800	64	5961
2026-01-19 10:18:30.08	301.83	66.50	-45.9	-49.1	15.3	0.00e+00	0	42	0	709885952	63	5218
2026-01-19 10:18:31.08	302.64	66.17	-44.9	-47.8	16.7	0.00e+00	0	42	0	711983104	61	5001
2026-01-19 10:18:32.07	303.43	65.85	-44.4	-47.0	17.5	0.00e+00	0	42	0	713031680	60	4844
2026-01-19 10:18:33.06	304.19	65.52	-44.3	-46.9	17.5	0.00e+00	0	42	0	715128832	60	4807
2026-01-19 10:18:34.06	304.93	65.19	-44.4	-47.1	17.3	0.00e+00	0	42	0	717225984	60	4905
2026-01-19 10:18:35.05	305.65	64.86	-43.5	-45.9	18.5	0.00e+00	0	42	0	719323136	59	4501
2026-01-19 10:18:36.04	306.34	64.52	-42.2	-44.4	19.9	0.00e+00	0	42	0	721420288	56	4496
2026-01-19 10:18:37.03	307.01	64.19	-41.3	-43.4	20.6	0.00e+00	0	43	0	722468864	54	4499
2026-01-19 10:18:38.03	307.68	63.84	-41.3	-43.3	20.7	0.00e+00	0	42	0	724566016	54	4453
2026-01-19 10:18:39.02	308.31	63.51	-41.4	-43.4	20.5	0.00e+00	0	42	0	726663168	54	4542
2026-01-19 10:18:40.01	308.93	63.17	-40.6	-42.5	21.3	0.00e+00	0	43	0	728760320	53	4330
2026-01-19 10:18:41.01	309.54	62.82	-39.7	-41.5	22.3	0.00e+00	0	42	0	729808896	51	4336
2026-01-19 10:18:42.00	310.12	62.48	-39.4	-41.2	22.6	0.00e+00	0	42	0	731906048	50	4409
2026-01-19 10:18:42.99	310.69	62.14	-39.5	-41.4	22.5	0.00e+00	0	42	0	734003200	50	4500
2026-01-19 10:18:43.99	311.25	61.79	-40.2	-42.1	21.8	0.00e+00	0	43	0	736100352	51	4643
2026-01-19 10:18:44.98	311.78	61.45	-40.4	-42.4	21.6	0.00e+00	0	42	0	737148928	51	4784
2026-01-19 10:18:45.97	312.31	61.10	-39.9	-41.8	22.1	0.00e+00	0	42	0	739246080	51	4463
2026-01-19 10:18:46.97	312.82	60.76	-39.7	-41.6	22.3	0.00e+00	0	42	0	741343232	51	4368
2026-01-19 10:18:47.96	313.32	60.41	-40.5	-42.4	21.5	0.00e+00	0	42	0	743440384	51	4804
2026-01-19 10:18:48.95	313.80	60.07	-41.9	-44.1	20.0	0.00e+00	0	43	0	745537536	54	4891
2026-01-19 10:18:49.94	314.27	59.72	-42.9	-45.3	19.1	0.00e+00	0	42	0	746586112	56	4992
2026-01-19 10:18:50.93	314.72	59.38	-42.4	-44.7	19.6	0.00e+00	0	42	0	748683264	56	4663
2026-01-19 10:18:51.93	315.17	59.03	-41.7	-43.9	20.2	0.00e+00	0	42	0	750780416	55	4515
2026-01-19 10:18:52.92	315.61	58.69	-41.7	-43.8	20.2	0.00e+00	0	42	0	752877568	55	4475
2026-01-19 10:18:53.91	316.03	58.35	-42.9	-45.2	19.1	0.00e+00	0	42	0	754974720	56	4967
2026-01-19 10:18:54.91	316.44	58.00	-44.6	-47.4	17.1	0.00e+00	0	42	0	756023296	59	5361
2026-01-19 10:18:55.90	316.85	57.66	-46.0	-49.5	15.0	0.00e+00	0	42	0	758120448	62	5736
2026-01-19 10:18:56.89	317.24	57.32	-44.6	-47.6	16.8	0.00e+00	0	43	0	760217600	61	4885
2026-01-19 10:18:57.89	317.62	56.98	-42.6	-44.9	19.4	0.00e+00	0	42	0	762314752	57	4497
2026-01-19 10:18:58.88	318.00	56.64	-41.6	-43.6	20.4	0.00e+00	0	42	0	763363328	55	4388
2026-01-19 10:18:59.87	318.36	56.30	-41.9	-44.1	20.0	0.00e+00	0	42	0	765460480	55	4605
2026-01-19 10:19:00.87	318.72	55.96	-43.0	-45.3	19.0	0.00e+00	0	42	0	767557632	56	5020
2026-01-19 10:19:01.86	319.06	55.63	-43.7	-46.2	18.2	0.00e+00	0	42	0	769654784	58	4942
2026-01-19 10:19:02.85	319.40	55.30	-42.9	-45.2	19.0	0.00e+00	0	42	0	771751936	57	4693
2026-01-19 10:19:03.84	319.73	54.96	-41.7	-43.8	20.2	0.00e+00	0	42	0	772800512	55	4478
2026-01-19 10:19:04.84	320.06	54.63	-40.6	-42.6	21.3	0.00e+00	0	42	0	774897664	53	4377
2026-01-19 10:19:05.83	320.38	54.30	-40.5	-42.4	21.5	0.00e+00	0	42	0	776994816	52	4528
2026-01-19 10:19:06.82	320.69	53.97	-40.2	-42.1	21.8	0.00e+00	0	42	0	779091968	52	4373
2026-01-19 10:19:07.82	320.99	53.63	-41.2	-43.3	20.7	0.00e+00	0	42	0	780140544	53	4727
2026-01-19 10:19:08.81	321.29	53.31	-41.8	-44.0	20.1	0.00e+00	0	42	0	782237696	54	4823
2026-01-19 10:19:09.80	321.57	52.98	-41.6	-43.7	20.3	0.00e+00	0	42	0	784334848	54	4680
2026-01-19 10:19:10.80	321.86	52.66	-40.7	-42.7	21.2	0.00e+00	0	42	0	786432000	53	4405
2026-01-19 10:19:11.79	322.14	52.33	-40.0	-41.9	21.8	0.00e+00	0	42	0	787480576	52	4290
2026-01-19 10:19:12.78	322.41	52.01	-40.1	-42.0	21.9	0.00e+00	0	42	0	789577728	51	4582
2026-01-19 10:19:13.78	322.67	51.69	-40.9	-43.0	21.0	0.00e+00	0	42	0	791674880	52	4821
2026-01-19 10:19:14.77	322.93	51.37	-41.8	-44.0	20.1	0.00e+00	0	42	0	793772032	54	4844
2026-01-19 10:19:15.76	323.19	51.06	-43.1	-45.5	18.9	0.00e+00	0	42	0	795869184	56	5125
2026-01-19 10:19:16.75	323.43	50.74	-43.5	-46.0	18.3	0.00e+00	0	42	0	796917760	57	5142
2026-01-19 10:19:17.75	323.68	50.42	-44.2	-46.9	17.5	0.00e+00	0	42	0	799014912	59	5053
2026-01-19 10:19:18.74	323.92	50.11	-44.2	-46.9	17.5	0.00e+00	0	42	0	801112064	59	5067
2026-01-19 10:19:19.73	324.15	49.80	-43.8	-46.3	18.0	0.00e+00	0	42	0	803209216	59	4737
2026-01-19 10:19:20.73	324.38	49.49	-43.7	-46.1	18.2	0.00e+00	0	42	0	804257792	59	4640
2026-01-19 10:19:21.72	324.61	49.18	-44.2	-46.8	17.6	0.00e+00	0	42	0	806354944	59	5004
2026-01-19 10:19:22.71	324.83	48.88	-45.2	-48.2	16.3	0.00e+00	0	43	0	808452096	61	5230
2026-01-19 10:19:23.71	325.05	48.57	-46.5	-50.1	14.3	0.00e+00	0	42	0	810549248	63	5851
2026-01-19 10:19:24.70	325.26	48.27	-46.5	-50.4	14.0	1.50e-06	0	42	0	812646400	63	6051
2026-01-19 10:19:25.69	325.47	47.97	-46.0	-49.6	14.9	0.00e+00	0	42	0	813694976	63	5469
2026-01-19 10:19:26.68	325.67	47.67	-45.3	-48.5	16.0	0.00e+00	0	42	0	815792128	62	5123
2026-01-19 10:19:27.68	325.87	47.37	-44.9	-47.8	16.6	0.00e+00	0	42	0	817889280	61	5017
2026-01-19 10:19:28.67	326.07	47.08	-44.9	-47.9	16.6	0.00e+00	0	42	0	819986432	61	5043
2026-01-19 10:19:29.66	326.26	46.79	-44.4	-47.2	17.2	0.00e+00	0	42	0	821035008	60	4961
2026-01-19 10:19:30.66	326.45	46.49	-44.5	-47.2	17.3	0.00e+00	0	42	0	823132160	60	4946
2026-01-19 10:19:31.65	326.64	46.20	-44.4	-47.1	17.4	0.00e+00	0	42	0	825229312	60	4884
2026-01-19 10:19:32.64	326.82	45.91	-44.8	-47.7	16.7	0.00e+00	0	43	0	827326464	60	5244
2026-01-19 10:19:33.63	327.00	45.63	-45.8	-49.1	15.3	0.00e+00	0	42	0	828375040	62	5502
2026-01-19 10:19:34.63	327.18	45.34	-46.1	-49.6	14.9	0.00e+00	0	42	0	830472192	62	5804
2026-01-19 10:19:35.62	327.35	45.06	-45.1	-48.2	16.2	0.00e+00	0	42	0	832569344	62	4969
2026-01-19 10:19:36.61	327.52	44.78	-43.7	-46.3	18.0	0.00e+00	0	42	0	834666496	59	4740
2026-01-19 10:19:37.60	327.69	44.50	-42.6	-44.8	19.4	0.00e+00	0	43	0	836763648	57	4483
2026-01-19 10:19:38.59	327.85	44.22	-42.3	-44.5	19.7	0.00e+00	0	42	0	837812224	56	4580
2026-01-19 10:19:39.59	328.02	43.94	-41.9	-44.0	20.1	0.00e+00	0	43	0	839909376	55	4568
2026-01-19 10:19:40.58	328.18	43.67	-41.9	-44.0	20.0	0.00e+00	0	42	0	842006528	55	4574
2026-01-19 10:19:41.57	328.33	43.40	-42.2	-44.4	19.6	0.00e+00	0	42	0	844103680	55	4787
2026-01-19 10:19:42.57	328.49	43.12	-43.5	-45.9	18.5	0.00e+00	0	42	0	845152256	57	5064
2026-01-19 10:19:43.56	328.64	42.86	-44.5	-47.2	17.1	0.00e+00	0	42	0	847249408	59	5256
2026-01-19 10:19:44.55	328.79	42.59	-44.8	-47.7	16.7	0.00e+00	0	43	0	849346560	60	5260
2026-01-19 10:19:45.55	328.94	42.32	-44.7	-47.6	16.8	0.00e+00	0	42	0	851443712	60	5203
2026-01-19 10:19:46.54	329.08	42.06	-44.1	-46.7	17.6	0.00e+00	0	42	0	853540864	60	4669
2026-01-19 10:19:47.53	329.22	41.79	-43.5	-46.0	18.3	0.00e+00	0	42	0	854589440	59	4555
2026-01-19 10:19:48.53	329.36	41.53	-43.1	-45.4	18.8	0.00e+00	0	42	0	856686592	58	4532
2026-01-19 10:19:49.52	329.50	41.27	-42.4	-44.6	19.6	0.00e+00	0	42	0	858783744	56	4636
2026-01-19 10:19:50.51	329.63	41.02	-42.3	-44.5	19.7	0.00e+00	0	42	0	860880896	56	4569
2026-01-19 10:19:51.50	329.77	40.76	-42.8	-45.3	19.1	0.00e+00	0	43	0	861929472	56	4984
2026-01-19 10:19:52.50	329.90	40.50	-43.4	-46.0	18.3	0.00e+00	0	43	0	864026624	57	5124
2026-01-19 10:19:53.49	330.03	40.25	-44.0	-46.9	17.4	0.00e+00	0	43	0	866123776	58	5370
2026-01-19 10:19:54.48	330.16	40.00	-44.8	-48.1	16.3	0.00e+00	0	42	0	868220928	60	5485
2026-01-19 10:19:55.48	330.28	39.75	-45.1	-48.4	16.0	0.00e+00	0	43	0	870318080	61	5388
2026-01-19 10:19:56.47	330.41	39.50	-44.8	-47.9	16.5	0.00e+00	0	43	0	871366656	61	5091
2026-01-19 10:19:57.46	330.53	39.26	-44.3	-47.1	17.2	0.00e+00	0	43	0	873463808	60	4887
2026-01-19 10:19:58.45	330.65	39.02	-43.9	-46.4	17.9	0.00e+00	0	42	0	875560960	59	4805
2026-01-19 10:19:59.45	330.77	38.77	-43.8	-46.3	18.0	0.00e+00	0	42	0	877658112	59	4726
2026-01-19 10:20:00.44	330.88	38.53	-43.3	-45.7	18.6	0.00e+00	0	42	0	878706688	58	4660
2026-01-19 10:20:01.43	331.00	38.29	-43.1	-45.4	18.8	0.00e+00	0	43	0	880803840	58	4516
2026-01-19 10:20:02.42	331.11	38.05	-42.7	-45.0	19.2	0.00e+00	0	42	0	882900992	57	4557
2026-01-19 10:20:03.42	331.23	37.82	-42.8	-45.1	19.1	0.00e+00	0	43	0	884998144	57	4651
2026-01-19 10:20:04.41	331.34	37.58	-42.9	-45.3	18.9	0.00e+00	0	43	0	887095296	57	4748
2026-01-19 10:20:05.40	331.44	37.35	-43.3	-45.9	18.4	0.00e+00	0	43	0	888143872	57	5044
2026-01-19 10:20:06.39	331.55	37.12	-43.8	-46.6	17.8	0.00e+00	0	43	0	890241024	58	5163
2026-01-19 10:20:07.39	331.66	36.89	-44.1	-46.9	17.4	0.00e+00	0	42	0	892338176	58	5379
2026-01-19 10:20:08.38	331.76	36.66	-44.3	-47.1	17.2	0.00e+00	0	43	0	894435328	59	5202
2026-01-19 10:20:09.37	331.87	36.43	-44.3	-47.2	17.2	0.00e+00	0	42	0	895483904	59	5241
2026-01-19 10:20:10.37	331.97	36.20	-44.4	-47.1	17.2	0.00e+00	0	42	0	897581056	59	5190
2026-01-19 10:20:11.36	332.07	35.98	-44.1	-46.7	17.5	0.00e+00	0	43	0	899678208	59	4981
2026-01-19 10:20:12.35	332.17	35.76	-43.7	-46.3	18.0	0.00e+00	0	42	0	901775360	59	4716
2026-01-19 10:20:13.35	332.27	35.53	-43.8	-46.3	18.0	0.00e+00	0	43	0	903872512	59	4726
2026-01-19 10:20:14.34	332.36	35.31	-43.5	-46.0	18.3	0.00e+00	0	43	0	904921088	59	4565
2026-01-19 10:20:15.33	332.46	35.10	-43.5	-45.9	18.4	0.00e+00	0	43	0	907018240	58	4779
2026-01-19 10:20:16.32	332.55	34.88	-43.4	-45.8	18.4	0.00e+00	0	43	0	909115392	58	4745
2026-01-19 10:20:17.32	332.64	34.66	-43.3	-45.7	18.6	0.00e+00	0	42	0	911212544	58	4659
2026-01-19 10:20:18.31	332.74	34.45	-43.2	-45.6	18.6	0.00e+00	0	42	0	912261120	58	4648
2026-01-19 10:20:19.30	332.83	34.24	-43.2	-45.6	18.6	0.00e+00	0	42	0	914358272	58	4640
2026-01-19 10:20:20.30	332.92	34.02	-43.3	-45.8	18.5	0.00e+00	0	42	0	916455424	58	4710
2026-01-19 10:20:21.29	333.00	33.81	-43.6	-46.2	18.1	0.00e+00	0	43	0	918552576	58	4927
2026-01-19 10:20:22.28	333.09	33.61	-44.0	-46.6	17.7	0.00e+00	0	43	0	919601152	58	5216
2026-01-19 10:20:23.28	333.18	33.40	-44.2	-47.0	17.3	0.00e+00	0	43	0	921698304	59	5150
2026-01-19 10:20:24.27	333.26	33.19	-44.5	-47.5	16.9	0.00e+00	0	43	0	923795456	59	5431
2026-01-19 10:20:25.26	333.35	32.99	-44.7	-47.9	16.5	0.00e+00	0	42	0	925892608	60	5387
2026-01-19 10:20:26.26	333.43	32.78	-44.8	-48.0	16.4	0.00e+00	0	43	0	927989760	60	5457
2026-01-19 10:20:27.25	333.51	32.58	-44.9	-48.3	16.1	0.00e+00	0	43	0	929038336	60	5604
2026-01-19 10:20:28.24	333.59	32.38	-44.8	-48.1	16.3	0.00e+00	0	42	0	931135488	60	5465
2026-01-19 10:20:29.23	333.67	32.18	-44.7	-47.9	16.5	0.00e+00	0	42	0	933232640	60	5392
2026-01-19 10:20:30.23	333.75	31.98	-44.7	-47.9	16.5	0.00e+00	0	43	0	935329792	60	5353
2026-01-19 10:20:31.22	333.83	31.79	-44.8	-47.9	16.5	0.00e+00	0	43	0	936378368	60	5349
2026-01-19 10:20:32.21	333.91	31.59	-44.7	-47.7	16.7	0.00e+00	0	43	0	938475520	60	5264
2026-01-19 10:20:33.20	333.99	31.40	-44.7	-47.7	16.7	0.00e+00	0	42	0	940572672	60	5261
2026-01-19 10:20:34.20	334.06	31.20	-44.7	-47.7	16.6	0.00e+00	0	43	0	942669824	60	5260
2026-01-19 10:20:35.19	334.14	31.01	-44.6	-47.5	16.9	0.00e+00	0	42	0	944766976	60	5105
2026-01-19 10:20:36.18	334.21	30.82	-44.6	-47.5	16.8	0.00e+00	0	42	0	945815552	60	5152
2026-01-19 10:20:37.18	334.29	30.63	-44.4	-47.2	17.2	0.00e+00	0	42	0	947912704	60	4938
2026-01-19 10:20:38.17	334.36	30.44	-44.2	-47.0	17.4	0.00e+00	0	42	0	950009856	60	4824
2026-01-19 10:20:39.16	334.43	30.25	-44.1	-46.8	17.5	0.00e+00	0	42	0	952107008	60	4737
2026-01-19 10:20:40.15	334.50	30.07	-44.0	-46.8	17.5	0.00e+00	0	42	0	953155584	60	4737
2026-01-19 10:20:41.15	334.57	29.88	-43.8	-46.5	17.8	0.00e+00	0	42	0	955252736	59	4864
2026-01-19 10:20:42.14	334.64	29.70	-43.7	-46.4	17.9	0.00e+00	0	42	0	957349888	59	4792
2026-01-19 10:20:43.13	334.71	29.52	-43.7	-46.5	17.8	0.00e+00	0	43	0	959447040	59	4843
2026-01-19 10:20:44.13	334.78	29.34	-43.5	-46.3	17.9	0.00e+00	0	42	0	961544192	59	4747
2026-01-19 10:20:45.12	334.84	29.16	-43.5	-46.3	18.0	0.00e+00	0	42	0	962592768	58	4988
2026-01-19 10:20:46.11	334.91	28.98	-43.6	-46.4	17.9	0.00e+00	0	43	0	964689920	58	5047
2026-01-19 10:20:47.10	334.98	28.80	-43.7	-46.4	17.8	0.00e+00	0	42	0	966787072	58	5100
2026-01-19 10:20:48.10	335.04	28.62	-43.8	-46.5	17.8	0.00e+00	0	42	0	968884224	58	5142
2026-01-19 10:20:49.09	335.11	28.45	-43.9	-46.7	17.6	0.00e+00	0	42	0	969932800	58	5232
2026-01-19 10:20:50.08	335.17	28.27	-43.9	-46.6	17.7	0.00e+00	0	42	0	972029952	58	5196
2026-01-19 10:20:51.07	335.23	28.10	-43.9	-46.6	17.7	0.00e+00	0	43	0	974127104	58	5183
2026-01-19 10:20:52.07	335.30	27.92	-43.9	-46.6	17.7	0.00e+00	0	43	0	976224256	58	5198
2026-01-19 10:20:53.06	335.36	27.75	-43.8	-46.5	17.8	0.00e+00	0	43	0	978321408	58	5104
2026-01-19 10:20:54.05	335.42	27.58	-43.6	-46.2	18.1	0.00e+00	0	42	0	979369984	58	4936
2026-01-19 10:20:55.05	335.48	27.41	-43.3	-45.8	18.5	0.00e+00	0	43	0	981467136	58	4706
2026-01-19 10:20:56.04	335.54	27.24	-43.0	-45.4	18.8	0.00e+00	0	43	0	983564288	58	4542
2026-01-19 10:20:57.03	335.60	27.08	-42.9	-45.3	18.9	0.00e+00	0	42	0	985661440	57	4737
2026-01-19 10:20:58.02	335.66	26.91	-42.8	-45.1	19.1	0.00e+00	0	42	0	986710016	57	4630
2026-01-19 10:20:59.02	335.72	26.74	-42.5	-44.8	19.4	0.00e+00	0	42	0	988807168	57	4457
2026-01-19 10:21:00.01	335.77	26.58	-42.4	-44.6	19.5	0.00e+00	0	43	0	990904320	56	4644
2026-01-19 10:21:01.00	335.83	26.42	-42.2	-44.5	19.7	0.00e+00	0	43	0	993001472	56	4548
2026-01-19 10:21:01.99	335.89	26.25	-42.1	-44.4	19.7	0.00e+00	0	42	0	995098624	56	4509
2026-01-19 10:21:02.99	335.94	26.09	-42.1	-44.4	19.7	0.00e+00	0	42	0	996147200	56	4511
2026-01-19 10:21:03.98	336.00	25.93	-42.2	-44.4	19.7	0.00e+00	0	42	0	998244352	56	4542
2026-01-19 10:21:04.97	336.05	25.77	-42.2	-44.5	19.6	0.00e+00	0	42	0	1000341504	56	4565
2026-01-19 10:21:05.97	336.11	25.61	-42.3	-44.6	19.5	0.00e+00	0	43	0	1002438656	56	4651
2026-01-19 10:21:06.96	336.16	25.45	-42.4	-44.8	19.3	0.00e+00	0	43	0	1003487232	56	4745
2026-01-19 10:21:07.95	336.22	25.30	-42.6	-45.1	19.1	0.00e+00	0	43	0	1005584384	56	4910
2026-01-19 10:21:08.95	336.27	25.14	-42.7	-45.2	19.0	0.00e+00	0	42	0	1007681536	56	4959
2026-01-19 10:21:09.94	336.32	24.99	-42.7	-45.2	18.9	0.00e+00	0	42	0	1009778688	56	4976
2026-01-19 10:21:10.93	336.38	24.83	-42.8	-45.4	18.8	0.00e+00	0	42	0	1010827264	56	5043
2026-01-19 10:21:11.92	336.43	24.68	-42.9	-45.5	18.7	0.00e+00	0	42	0	1012924416	56	5118
2026-01-19 10:21:12.92	336.48	24.53	-43.0	-45.5	18.6	0.00e+00	0	42	0	1015021568	56	5140
2026-01-19 10:21:13.91	336.53	24.37	-43.1	-45.6	18.6	0.00e+00	0	43	0	1017118720	56	5188
2026-01-19 10:21:14.90	336.58	24.22	-42.9	-45.4	18.8	0.00e+00	0	42	0	1019215872	56	5049
2026-01-19 10:21:15.90	336.63	24.07	-43.0	-45.4	18.8	0.00e+00	0	43	0	1020264448	56	5079
2026-01-19 10:21:16.89	336.68	23.92	-43.0	-45.4	18.8	0.00e+00	0	42	0	1022361600	56	5079
2026-01-19 10:21:17.88	336.73	23.78	-43.0	-45.4	18.7	0.00e+00	0	42	0	1024458752	56	5090
2026-01-19 10:21:18.87	336.78	23.63	-42.9	-45.4	18.8	0.00e+00	0	42	0	1026555904	56	5062
2026-01-19 10:21:19.87	336.82	23.48	-42.7	-45.1	19.0	0.00e+00	0	42	0	1027604480	56	4898
2026-01-19 10:21:20.86	336.87	23.34	-42.5	-44.9	19.2	0.00e+00	0	42	0	1029701632	56	4795
2026-01-19 10:21:21.85	336.92	23.19	-42.5	-45.0	19.2	0.00e+00	0	43	0	1031798784	56	4820
2026-01-19 10:21:22.85	336.97	23.05	-42.3	-44.7	19.4	0.00e+00	0	43	0	1033895936	56	4652
2026-01-19 10:21:23.84	337.01	22.90	-42.1	-44.5	19.6	0.00e+00	0	43	0	1035993088	56	4576
2026-01-19 10:21:24.83	337.06	22.76	-42.2	-44.6	19.5	0.00e+00	0	42	0	1037041664	56	4607
2026-01-19 10:21:25.82	337.11	22.62	-42.1	-44.5	19.6	0.00e+00	0	43	0	1039138816	56	4592
2026-01-19 10:21:26.82	337.15	22.48	-42.1	-44.5	19.6	0.00e+00	0	43	0	1041235968	56	4591
2026-01-19 10:21:27.81	337.20	22.34	-42.1	-44.6	19.5	0.00e+00	0	42	0	1043333120	56	4621
2026-01-19 10:21:28.80	337.24	22.20	-42.2	-44.6	19.4	0.00e+00	0	43	0	1044381696	56	4641
2026-01-19 10:21:29.80	337.28	22.06	-42.3	-44.7	19.4	0.00e+00	0	42	0	1046478848	56	4687
2026-01-19 10:21:30.79	337.33	21.92	-42.3	-44.8	19.3	0.00e+00	0	42	0	1048576000	56	4712
2026-01-19 10:21:31.78	337.37	21.78	-42.3	-44.7	19.4	0.00e+00	0	42	0	1050673152	56	4653
2026-01-19 10:21:32.77	337.42	21.65	-42.4	-44.8	19.3	0.00e+00	0	42	0	1052770304	56	4739
2026-01-19 10:21:33.77	337.46	21.51	-42.4	-44.8	19.3	0.00e+00	0	42	0	1053818880	56	4715
2026-01-19 10:21:34.76	337.50	21.37	-42.5	-44.9	19.3	0.00e+00	0	42	0	1055916032	56	4762
2026-01-19 10:21:35.75	337.54	21.24	-42.5	-44.9	19.2	0.00e+00	0	43	0	1058013184	56	4789
2026-01-19 10:21:36.74	337.59	21.11	-42.4	-44.8	19.3	0.00e+00	0	42	0	1060110336	56	4735
2026-01-19 10:21:37.74	337.63	20.97	-42.4	-44.9	19.2	0.00e+00	0	43	0	1061158912	56	4764
2026-01-19 10:21:38.73	337.67	20.84	-42.4	-44.9	19.2	0.00e+00	0	42	0	1063256064	56	4814
2026-01-19 10:21:39.72	337.71	20.71	-42.3	-44.8	19.3	0.00e+00	0	42	0	1065353216	56	4742
2026-01-19 10:21:40.72	337.75	20.58	-42.4	-45.0	19.1	0.00e+00	0	43	0	1067450368	56	4830
2026-01-19 10:21:41.71	337.79	20.45	-42.2	-44.8	19.3	0.00e+00	0	43	0	1069547520	56	4711
2026-01-19 10:21:42.70	337.83	20.32	-42.3	-44.9	19.2	0.00e+00	0	42	0	1070596096	56	4790
2026-01-19 10:21:43.69	337.87	20.19	-42.3	-44.8	19.3	0.00e+00	0	42	0	1072693248	56	4741
2026-01-19 10:21:44.69	337.91	20.06	-42.2	-44.7	19.3	0.00e+00	0	43	0	1074790400	56	4678
2026-01-19 10:21:45.68	337.95	19.93	-42.3	-44.7	19.3	0.00e+00	0	42	0	1076887552	56	4703
2026-01-19 10:21:46.67	337.99	19.81	-42.4	-44.7	19.3	0.00e+00	0	43	0	1077936128	56	4695
2026-01-19 10:21:47.67	338.03	19.68	-42.3	-44.5	19.5	0.00e+00	0	43	0	1080033280	56	4596
2026-01-19 10:21:48.66	338.06	19.55	-42.3	-44.6	19.5	0.00e+00	0	43	0	1082130432	56	4602
2026-01-19 10:21:49.65	338.10	19.43	-42.4	-44.6	19.4	0.00e+00	0	43	0	1084227584	56	4639
2026-01-19 10:21:50.64	338.14	19.30	-42.3	-44.5	19.5	0.00e+00	0	42	0	1086324736	56	4588
2026-01-19 10:21:51.64	338.18	19.18	-42.2	-44.5	19.5	0.00e+00	0	42	0	1087373312	56	4564
2026-01-19 10:21:52.63	338.21	19.06	-42.3	-44.6	19.5	0.00e+00	0	42	0	1089470464	56	4616
2026-01-19 10:21:53.62	338.25	18.93	-42.3	-44.5	19.5	0.00e+00	0	43	0	1091567616	56	4596
2026-01-19 10:21:54.62	338.29	18.81	-42.2	-44.5	19.5	0.00e+00	0	43	0	1093664768	56	4580
2026-01-19 10:21:55.61	338.32	18.69	-42.2	-44.6	19.5	0.00e+00	0	43	0	1094713344	56	4614
2026-01-19 10:21:56.60	338.36	18.57	-42.3	-44.6	19.4	0.00e+00	0	42	0	1096810496	56	4651
2026-01-19 10:21:57.59	338.40	18.45	-42.3	-44.7	19.4	0.00e+00	0	43	0	1098907648	56	4672
2026-01-19 10:21:58.59	338.43	18.33	-42.4	-44.8	19.3	0.00e+00	0	43	0	1101004800	56	4713
2026-01-19 10:21:59.58	338.47	18.21	-42.4	-44.8	19.3	0.00e+00	0	43	0	1102053376	56	4725
2026-01-19 10:22:00.57	338.50	18.09	-42.5	-44.9	19.1	0.00e+00	0	42	0	1104150528	56	4811
2026-01-19 10:22:01.57	338.54	17.97	-42.6	-45.0	19.0	0.00e+00	0	43	0	1106247680	56	4848
2026-01-19 10:22:02.56	338.57	17.86	-42.7	-45.2	18.9	0.00e+00	0	43	0	1108344832	56	4940
2026-01-19 10:22:03.55	338.61	17.74	-42.8	-45.2	18.8	0.00e+00	0	42	0	1110441984	56	4974
2026-01-19 10:22:04.55	338.64	17.62	-42.9	-45.3	18.7	0.00e+00	0	43	0	1111490560	56	5035
2026-01-19 10:22:05.54	338.68	17.51	-43.0	-45.4	18.7	0.00e+00	0	43	0	1113587712	56	5064
2026-01-19 10:22:06.53	338.71	17.39	-43.1	-45.5	18.6	0.00e+00	0	43	0	1115684864	56	5126
2026-01-19 10:22:07.52	338.74	17.28	-43.2	-45.6	18.5	0.00e+00	0	43	0	1117782016	56	5180
2026-01-19 10:22:08.52	338.78	17.16	-43.3	-45.7	18.3	0.00e+00	0	43	0	1118830592	57	4982
2026-01-19 10:22:09.51	338.81	17.05	-43.3	-45.8	18.2	0.00e+00	0	42	0	1120927744	57	5026
2026-01-19 10:22:10.50	338.84	16.93	-43.4	-45.9	18.1	0.00e+00	0	43	0	1123024896	57	5099
2026-01-19 10:22:11.49	338.87	16.82	-43.4	-46.1	18.0	0.00e+00	0	42	0	1125122048	57	5177
2026-01-19 10:22:12.49	338.91	16.71	-43.5	-46.2	17.9	0.00e+00	0	42	0	1127219200	57	5237
2026-01-19 10:22:13.48	338.94	16.60	-43.4	-46.2	17.9	0.00e+00	0	43	0	1128267776	57	5223
2026-01-19 10:22:14.47	338.97	16.49	-43.4	-46.3	17.8	0.00e+00	0	42	0	1130364928	57	5291
2026-01-19 10:22:15.47	339.00	16.38	-43.4	-46.2	17.9	0.00e+00	0	43	0	1132462080	57	5254
2026-01-19 10:22:16.46	339.03	16.27	-43.4	-46.3	17.8	0.00e+00	0	43	0	1134559232	57	5300
2026-01-19 10:22:17.45	339.07	16.16	-43.5	-46.4	17.8	0.00e+00	0	43	0	1135607808	57	5342
2026-01-19 10:22:18.45	339.10	16.05	-43.5	-46.4	17.7	0.00e+00	0	42	0	1137704960	57	5351
2026-01-19 10:22:19.44	339.13	15.94	-43.5	-46.4	17.7	0.00e+00	0	43	0	1139802112	57	5348
2026-01-19 10:22:20.43	339.16	15.83	-43.6	-46.5	17.6	0.00e+00	0	43	0	1141899264	57	5452
2026-01-19 10:22:21.43	339.19	15.72	-43.6	-46.4	17.7	0.00e+00	0	43	0	1143996416	57	5377
2026-01-19 10:22:22.42	339.22	15.61	-43.6	-46.4	17.6	0.00e+00	0	43	0	1145044992	57	5391
2026-01-19 10:22:23.41	339.25	15.51	-43.6	-46.4	17.7	0.00e+00	0	42	0	1147142144	57	5378
2026-01-19 10:22:24.41	339.28	15.40	-43.6	-46.5	17.6	0.00e+00	0	42	0	1149239296	57	5410
2026-01-19 10:22:25.40	339.31	15.29	-43.5	-46.3	17.7	0.00e+00	0	42	0	1151336448	57	5331
2026-01-19 10:22:26.39	339.34	15.19	-43.6	-46.4	17.7	0.00e+00	0	43	0	1152385024	57	5373
2026-01-19 10:22:27.39	339.37	15.08	-43.5	-46.4	17.7	0.00e+00	0	42	0	1154482176	57	5366
2026-01-19 10:22:28.38	339.40	14.98	-43.5	-46.4	17.7	0.00e+00	0	43	0	1156579328	57	5383
2026-01-19 10:22:29.37	339.43	14.88	-43.5	-46.5	17.6	0.00e+00	0	43	0	1158676480	57	5418
2026-01-19 10:22:30.36	339.46	14.77	-43.5	-46.5	17.5	0.00e+00	0	42	0	1160773632	57	5461
2026-01-19 10:22:31.36	339.49	14.67	-43.4	-46.5	17.6	0.00e+00	0	42	0	1161822208	57	5423
2026-01-19 10:22:32.35	339.51	14.57	-43.3	-46.3	17.7	0.00e+00	0	43	0	1163919360	57	5322
2026-01-19 10:22:33.34	339.54	14.46	-43.2	-46.3	17.8	0.00e+00	0	42	0	1166016512	57	5283
2026-01-19 10:22:34.34	339.57	14.36	-43.3	-46.4	17.7	0.00e+00	0	43	0	1168113664	57	5354
2026-01-19 10:22:35.33	339.60	14.26	-43.3	-46.3	17.7	0.00e+00	0	43	0	1169162240	57	5319
2026-01-19 10:22:36.32	339.63	14.16	-43.4	-46.4	17.6	0.00e+00	0	43	0	1171259392	57	5398
2026-01-19 10:22:37.31	339.65	14.06	-43.3	-46.4	17.7	0.00e+00	0	43	0	1173356544	57	5357
2026-01-19 10:22:38.31	339.68	13.96	-43.5	-46.5	17.5	0.00e+00	0	43	0	1175453696	57	5412
2026-01-19 10:22:39.30	339.71	13.86	-43.4	-46.4	17.6	0.00e+00	0	43	0	1177550848	57	5380
2026-01-19 10:22:40.29	339.74	13.76	-43.5	-46.5	17.5	0.00e+00	0	43	0	1178599424	57	5456
2026-01-19 10:22:41.29	339.76	13.66	-43.6	-46.6	17.4	0.00e+00	0	43	0	1180696576	57	5470
2026-01-19 10:22:42.28	339.79	13.56	-43.6	-46.6	17.5	0.00e+00	0	43	0	1182793728	57	5466
2026-01-19 10:22:43.27	339.82	13.46	-43.7	-46.5	17.5	0.00e+00	0	43	0	1184890880	57	5425
2026-01-19 10:22:44.27	339.85	13.36	-43.8	-46.7	17.3	0.00e+00	0	42	0	1185939456	58	5248
2026-01-19 10:22:45.26	339.87	13.27	-43.8	-46.8	17.3	0.00e+00	0	43	0	1188036608	58	5281
2026-01-19 10:22:46.25	339.90	13.17	-43.8	-46.7	17.3	0.00e+00	0	43	0	1190133760	58	5269
2026-01-19 10:22:47.24	339.92	13.07	-43.8	-46.8	17.2	0.00e+00	0	43	0	1192230912	58	5300
2026-01-19 10:22:48.24	339.95	12.98	-43.8	-46.9	17.1	0.00e+00	0	43	0	1193279488	58	5343
2026-01-19 10:22:49.23	339.98	12.88	-43.7	-46.8	17.2	0.00e+00	0	43	0	1195376640	58	5301
