passes_logs/2026/01/19/T1/T1__20260119_095052_SUOMI_NPP_rec.log

#Pass ID: 20260119_095052_SUOMI NPP
#Satellite: SUOMI NPP
#Configuration: NPP
#almurnet v.1.7.20251203
#Start time: 2026-01-19 09:50:52

#Version: 2.0.20230620
#Station: T1
#Location: 37.570604 lon 55.790049 lat
#TLE: 1 37849U 11061A   26018.91022273  .00000066  00000+0  52264-4 0  9997
#TLE: 2 37849  98.7816 320.9252 0002364  56.8129 303.3273 14.19526186737260

#Time	Az	El	Level	Level2	SNR	BER	BlckErr	Temp	State	Recorded	gain1	gain2
2026-01-19 09:50:52.20	155.38	5.02	-49.6	-64.9	3.8	1.49e+00	0	38	0	0	70	21479
2026-01-19 09:50:53.19	155.38	5.09	-49.6	-64.9	3.8	1.49e+00	0	38	104	0	71	20073
2026-01-19 09:50:54.18	155.37	5.16	-49.7	-64.8	3.8	1.49e+00	0	38	104	0	71	19986
2026-01-19 09:50:55.17	155.36	5.23	-49.6	-64.9	3.8	1.49e+00	0	38	104	0	71	20143
2026-01-19 09:50:56.17	155.36	5.30	-49.6	-64.9	3.8	1.49e+00	0	38	104	0	71	20234
2026-01-19 09:50:57.16	155.35	5.38	-49.7	-65.0	3.8	1.49e+00	0	38	104	0	71	20431
2026-01-19 09:50:58.15	155.34	5.45	-49.6	-65.0	3.8	1.49e+00	0	38	104	0	71	20399
2026-01-19 09:50:59.15	155.34	5.52	-49.7	-65.0	3.8	1.49e+00	0	38	104	0	71	20348
2026-01-19 09:51:00.14	155.33	5.59	-49.6	-64.9	3.8	1.49e+00	0	39	104	0	71	20105
2026-01-19 09:51:01.14	155.32	5.67	-49.7	-64.8	3.8	1.49e+00	0	38	104	0	71	19910
2026-01-19 09:51:02.13	155.31	5.74	-49.7	-64.6	3.8	1.49e+00	0	39	104	0	71	19465
2026-01-19 09:51:03.12	155.31	5.81	-49.6	-64.3	3.8	1.49e+00	0	39	104	0	71	18867
2026-01-19 09:51:04.12	155.30	5.89	-49.6	-64.0	3.8	1.49e+00	0	39	104	0	71	18247
2026-01-19 09:51:05.11	155.29	5.96	-49.6	-63.8	3.8	1.49e+00	0	39	104	0	71	17780
2026-01-19 09:51:06.11	155.28	6.03	-49.6	-63.6	3.8	1.49e+00	0	39	104	0	71	17383
2026-01-19 09:51:07.10	155.28	6.11	-49.6	-63.6	3.8	1.49e+00	0	39	104	0	71	17289
2026-01-19 09:51:08.09	155.27	6.18	-49.6	-63.4	3.8	1.49e+00	0	39	104	0	71	16979
2026-01-19 09:51:09.09	155.26	6.26	-49.5	-63.5	3.8	1.49e+00	0	39	104	0	71	17154
2026-01-19 09:51:10.08	155.25	6.33	-49.6	-63.7	3.8	1.49e+00	0	39	104	0	71	17516
2026-01-19 09:51:11.07	155.25	6.41	-49.6	-63.9	3.8	1.49e+00	0	39	104	0	71	17901
2026-01-19 09:51:12.07	155.24	6.48	-49.6	-64.1	3.8	1.49e+00	0	39	104	0	71	18460
2026-01-19 09:51:13.06	155.23	6.56	-49.6	-64.4	3.8	1.49e+00	0	39	104	0	71	19044
2026-01-19 09:51:14.05	155.22	6.63	-49.6	-64.6	3.8	1.49e+00	0	39	104	0	71	19555
2026-01-19 09:51:15.05	155.22	6.71	-49.7	-64.8	3.8	1.49e+00	0	39	104	0	71	20014
2026-01-19 09:51:16.04	155.21	6.79	-49.7	-64.9	3.8	1.49e+00	0	39	104	0	71	20243
2026-01-19 09:51:17.03	155.20	6.86	-49.6	-65.0	3.8	1.49e+00	0	39	104	0	71	20387
2026-01-19 09:51:18.03	155.19	6.94	-49.7	-65.0	3.8	1.49e+00	0	39	104	0	71	20409
2026-01-19 09:51:19.02	155.18	7.02	-49.6	-65.0	3.8	1.49e+00	0	39	104	0	71	20310
2026-01-19 09:51:20.01	155.17	7.09	-49.7	-64.8	3.8	1.49e+00	0	39	104	0	71	20030
2026-01-19 09:51:21.01	155.17	7.17	-49.6	-64.5	3.8	1.49e+00	0	39	104	0	71	19297
2026-01-19 09:51:22.00	155.16	7.25	-49.6	-64.0	3.8	1.49e+00	0	39	104	0	71	18162
2026-01-19 09:51:23.00	155.15	7.33	-49.5	-63.1	3.8	1.49e+00	0	39	104	0	71	16487
2026-01-19 09:51:23.99	155.14	7.41	-49.5	-62.1	3.9	1.48e+00	0	39	104	0	70	15551
2026-01-19 09:51:24.98	155.13	7.48	-49.3	-60.9	4.4	1.41e+00	0	39	0	0	70	13454
2026-01-19 09:51:25.98	155.12	7.56	-49.2	-59.5	4.9	8.69e-01	0	39	0	1048576	70	11539
2026-01-19 09:51:26.97	155.12	7.64	-49.1	-58.4	5.6	5.54e-01	0	39	0	3145728	70	10101
2026-01-19 09:51:27.96	155.11	7.72	-48.8	-57.3	6.5	3.21e-01	0	39	0	5242880	69	9437
2026-01-19 09:51:28.96	155.10	7.80	-48.5	-56.1	7.5	1.33e-01	0	40	0	7340032	69	8264
2026-01-19 09:51:29.95	155.09	7.88	-48.4	-55.2	8.3	6.53e-02	0	39	0	9437184	68	7899
2026-01-19 09:51:30.94	155.08	7.96	-48.1	-54.5	9.1	3.23e-02	0	40	0	10485760	68	7258
2026-01-19 09:51:31.93	155.07	8.04	-48.0	-54.2	9.5	2.10e-02	0	39	0	12582912	68	6979
2026-01-19 09:51:32.93	155.06	8.12	-47.7	-53.6	9.9	1.10e-02	0	40	0	14680064	67	6903
2026-01-19 09:51:33.92	155.05	8.20	-47.7	-53.5	10.0	7.04e-03	0	40	0	16777216	67	6817
2026-01-19 09:51:34.91	155.05	8.28	-47.6	-53.2	10.3	5.63e-03	0	40	0	17825792	67	6618
2026-01-19 09:51:35.91	155.04	8.36	-47.7	-53.5	10.0	7.71e-03	0	39	0	19922944	67	6879
2026-01-19 09:51:36.90	155.03	8.44	-47.8	-53.6	9.8	9.79e-03	0	40	0	22020096	67	6942
2026-01-19 09:51:37.89	155.02	8.52	-47.9	-54.1	9.4	1.15e-02	0	40	0	24117248	67	7364
2026-01-19 09:51:38.89	155.01	8.61	-48.2	-54.9	8.5	2.63e-02	0	40	0	26214400	67	8078
2026-01-19 09:51:39.88	155.00	8.69	-48.4	-55.8	7.7	7.07e-02	0	40	0	27262976	67	8923
2026-01-19 09:51:40.87	154.99	8.77	-48.6	-56.8	6.7	1.50e-01	0	40	0	29360128	67	10031
2026-01-19 09:51:41.87	154.98	8.85	-49.0	-58.2	5.8	2.82e-01	0	40	0	31457280	68	11082
2026-01-19 09:51:42.86	154.97	8.94	-49.2	-59.5	5.0	5.05e-01	0	40	0	33554432	69	12210
2026-01-19 09:51:43.85	154.96	9.02	-49.3	-60.8	4.4	9.74e-01	0	40	0	34603008	69	14167
2026-01-19 09:51:44.85	154.95	9.10	-49.2	-59.8	4.8	1.16e+00	0	40	0	36700160	69	12546
2026-01-19 09:51:45.84	154.94	9.19	-49.6	-63.6	3.8	1.15e+00	0	40	104	37748736	69	19405
2026-01-19 09:51:46.83	154.93	9.27	-48.7	-57.4	6.3	1.49e+00	0	40	0	37748736	69	9522
2026-01-19 09:51:47.83	154.92	9.36	-46.3	-50.5	13.1	1.90e-02	0	40	0	39845888	64	5731
2026-01-19 09:51:48.82	154.91	9.44	-49.4	-63.6	3.8	4.97e-02	0	40	104	40894464	69	19565
2026-01-19 09:51:49.81	154.90	9.52	-46.7	-51.2	12.2	1.49e+00	0	40	0	40894464	65	5910
2026-01-19 09:51:50.80	154.89	9.61	-45.8	-49.5	14.1	7.00e-07	0	40	0	42991616	63	5442
2026-01-19 09:51:51.80	154.88	9.70	-45.7	-49.3	14.5	6.10e-06	0	40	0	44040192	63	5281
2026-01-19 09:51:52.79	154.87	9.78	-45.2	-48.6	15.2	0.00e+00	0	40	0	46137344	62	5161
2026-01-19 09:51:53.78	154.86	9.87	-44.9	-48.1	15.6	0.00e+00	0	40	0	48234496	61	5201
2026-01-19 09:51:54.77	154.85	9.95	-44.8	-47.9	15.8	0.00e+00	0	40	0	50331648	61	5087
2026-01-19 09:51:55.77	154.84	10.04	-44.5	-47.5	16.3	0.00e+00	0	40	0	51380224	61	4825
2026-01-19 09:51:56.76	154.83	10.13	-44.6	-47.6	16.2	0.00e+00	0	40	0	53477376	61	4871
2026-01-19 09:51:57.75	154.82	10.21	-44.5	-47.5	16.3	0.00e+00	0	40	0	55574528	60	5108
2026-01-19 09:51:58.75	154.81	10.30	-44.3	-47.2	16.5	0.00e+00	0	40	0	57671680	60	4968
2026-01-19 09:51:59.74	154.80	10.39	-44.5	-47.4	16.4	0.00e+00	0	40	0	58720256	60	5070
2026-01-19 09:52:00.73	154.78	10.48	-44.5	-47.5	16.3	1.43e-03	0	40	0	60817408	60	5125
2026-01-19 09:52:01.73	154.77	10.57	-44.3	-47.2	16.5	0.00e+00	0	40	0	62914560	60	4956
2026-01-19 09:52:02.72	154.76	10.66	-44.5	-47.5	16.3	0.00e+00	0	40	0	65011712	60	5106
2026-01-19 09:52:03.71	154.75	10.74	-44.2	-47.1	16.7	0.00e+00	0	40	0	67108864	60	4897
2026-01-19 09:52:04.70	154.74	10.83	-44.0	-46.8	16.9	0.00e+00	0	40	0	68157440	60	4740
2026-01-19 09:52:05.70	154.73	10.92	-44.1	-46.8	16.9	0.00e+00	0	40	0	70254592	59	5033
2026-01-19 09:52:06.69	154.72	11.01	-44.0	-46.7	17.0	0.00e+00	0	40	0	72351744	59	4958
2026-01-19 09:52:07.68	154.71	11.10	-44.0	-46.8	16.9	0.00e+00	0	40	0	74448896	59	5004
2026-01-19 09:52:08.68	154.69	11.20	-44.0	-46.7	17.0	0.00e+00	0	40	0	75497472	59	4967
2026-01-19 09:52:09.67	154.68	11.29	-43.8	-46.6	17.2	0.00e+00	0	40	0	77594624	59	4880
2026-01-19 09:52:10.66	154.67	11.38	-44.0	-46.8	16.9	0.00e+00	0	40	0	79691776	59	5030
2026-01-19 09:52:11.65	154.66	11.47	-44.0	-46.8	17.0	0.00e+00	0	40	0	81788928	59	5014
2026-01-19 09:52:12.65	154.65	11.56	-43.8	-46.6	17.1	0.00e+00	0	40	0	83886080	59	4898
2026-01-19 09:52:13.64	154.63	11.65	-43.9	-46.6	17.1	0.00e+00	0	40	0	84934656	59	4924
2026-01-19 09:52:14.63	154.62	11.75	-43.9	-46.7	17.0	0.00e+00	0	40	0	87031808	59	4963
2026-01-19 09:52:15.63	154.61	11.84	-43.8	-46.6	17.2	0.00e+00	0	40	0	89128960	59	4877
2026-01-19 09:52:16.62	154.60	11.93	-43.8	-46.6	17.1	0.00e+00	0	40	0	91226112	59	4915
2026-01-19 09:52:17.61	154.58	12.03	-43.8	-46.7	17.1	0.00e+00	0	40	0	92274688	59	4934
2026-01-19 09:52:18.61	154.57	12.12	-43.8	-46.7	17.0	0.00e+00	0	40	0	94371840	59	4957
2026-01-19 09:52:19.60	154.56	12.22	-43.8	-46.7	17.1	0.00e+00	0	40	0	96468992	59	4951
2026-01-19 09:52:20.59	154.55	12.31	-43.9	-46.8	17.0	0.00e+00	0	40	0	98566144	59	5026
2026-01-19 09:52:21.58	154.53	12.41	-43.9	-46.7	17.1	0.00e+00	0	40	0	100663296	59	4958
2026-01-19 09:52:22.58	154.52	12.50	-44.0	-46.9	16.9	0.00e+00	0	40	0	101711872	59	5045
2026-01-19 09:52:23.57	154.51	12.60	-43.8	-46.6	17.2	0.00e+00	0	40	0	103809024	59	4884
2026-01-19 09:52:24.56	154.49	12.70	-44.0	-46.8	17.0	0.00e+00	0	40	0	105906176	59	5034
2026-01-19 09:52:25.55	154.48	12.79	-44.0	-46.8	17.0	0.00e+00	0	40	0	108003328	59	5039
2026-01-19 09:52:26.55	154.47	12.89	-44.0	-46.9	17.0	0.00e+00	0	40	0	109051904	59	5046
2026-01-19 09:52:27.54	154.45	12.99	-43.9	-46.8	17.0	0.00e+00	0	40	0	111149056	59	4984
2026-01-19 09:52:28.53	154.44	13.09	-43.9	-46.7	17.1	0.00e+00	0	40	0	113246208	59	4955
2026-01-19 09:52:29.52	154.43	13.18	-43.8	-46.6	17.2	0.00e+00	0	40	0	115343360	59	4919
2026-01-19 09:52:30.52	154.41	13.28	-43.8	-46.6	17.2	0.00e+00	0	40	0	117440512	59	4916
2026-01-19 09:52:31.51	154.40	13.38	-43.8	-46.5	17.3	0.00e+00	0	40	0	118489088	59	4863
2026-01-19 09:52:32.50	154.39	13.48	-43.7	-46.5	17.3	0.00e+00	0	40	0	120586240	59	4838
2026-01-19 09:52:33.50	154.37	13.58	-43.8	-46.5	17.2	0.00e+00	0	40	0	122683392	59	4859
2026-01-19 09:52:34.49	154.36	13.68	-43.9	-46.7	17.2	0.00e+00	0	40	0	124780544	59	4929
2026-01-19 09:52:35.48	154.34	13.78	-43.8	-46.6	17.2	0.00e+00	0	40	0	125829120	59	4890
2026-01-19 09:52:36.47	154.33	13.89	-43.7	-46.4	17.4	0.00e+00	0	40	0	127926272	59	4780
2026-01-19 09:52:37.47	154.31	13.99	-43.6	-46.3	17.5	0.00e+00	0	40	0	130023424	59	4733
2026-01-19 09:52:38.46	154.30	14.09	-43.6	-46.3	17.6	0.00e+00	0	40	0	132120576	59	4709
2026-01-19 09:52:39.45	154.28	14.19	-43.6	-46.2	17.5	0.00e+00	0	40	0	134217728	58	4977
2026-01-19 09:52:40.45	154.27	14.30	-43.5	-46.2	17.6	0.00e+00	0	41	0	135266304	58	4956
2026-01-19 09:52:41.44	154.25	14.40	-43.4	-46.1	17.7	0.00e+00	0	40	0	137363456	58	4887
2026-01-19 09:52:42.43	154.24	14.50	-43.5	-46.2	17.6	0.00e+00	0	40	0	139460608	58	4944
2026-01-19 09:52:43.42	154.22	14.61	-43.4	-46.0	17.8	0.00e+00	0	40	0	141557760	58	4835
2026-01-19 09:52:44.42	154.21	14.71	-43.3	-45.9	17.9	0.00e+00	0	40	0	142606336	58	4772
2026-01-19 09:52:45.41	154.19	14.82	-43.2	-45.8	18.0	0.00e+00	0	40	0	144703488	58	4735
2026-01-19 09:52:46.40	154.18	14.92	-43.2	-45.8	18.0	0.00e+00	0	40	0	146800640	58	4740
2026-01-19 09:52:47.39	154.16	15.03	-43.3	-45.8	18.0	0.00e+00	0	40	0	148897792	58	4742
2026-01-19 09:52:48.39	154.14	15.14	-43.2	-45.7	18.0	0.00e+00	0	40	0	149946368	58	4694
2026-01-19 09:52:49.38	154.13	15.24	-43.2	-45.8	18.0	0.00e+00	0	40	0	152043520	58	4720
2026-01-19 09:52:50.37	154.11	15.35	-43.3	-45.8	18.0	0.00e+00	0	40	0	154140672	58	4749
2026-01-19 09:52:51.37	154.10	15.46	-43.3	-45.9	17.9	0.00e+00	0	41	0	156237824	58	4761
2026-01-19 09:52:52.36	154.08	15.57	-43.4	-46.0	17.8	0.00e+00	0	40	0	158334976	58	4831
2026-01-19 09:52:53.35	154.06	15.68	-43.4	-46.0	17.8	0.00e+00	0	40	0	159383552	58	4863
2026-01-19 09:52:54.34	154.05	15.79	-43.4	-46.0	17.8	0.00e+00	0	40	0	161480704	58	4858
2026-01-19 09:52:55.34	154.03	15.90	-43.3	-45.9	17.9	0.00e+00	0	40	0	163577856	58	4809
2026-01-19 09:52:56.33	154.01	16.01	-43.3	-45.9	18.0	0.00e+00	0	40	0	165675008	58	4770
2026-01-19 09:52:57.32	153.99	16.12	-43.4	-45.9	17.9	0.00e+00	0	41	0	166723584	58	4809
2026-01-19 09:52:58.32	153.98	16.23	-43.3	-45.8	18.1	0.00e+00	0	40	0	168820736	58	4743
2026-01-19 09:52:59.31	153.96	16.34	-43.2	-45.7	18.1	0.00e+00	0	40	0	170917888	58	4688
2026-01-19 09:53:00.30	153.94	16.45	-42.9	-45.3	18.5	0.00e+00	0	40	0	173015040	57	4716
2026-01-19 09:53:01.29	153.92	16.57	-42.7	-45.1	18.6	0.00e+00	0	40	0	175112192	57	4625
2026-01-19 09:53:02.29	153.91	16.68	-42.4	-44.7	19.0	0.00e+00	0	40	0	176160768	56	4691
2026-01-19 09:53:03.28	153.89	16.80	-42.5	-44.8	18.8	0.00e+00	0	40	0	178257920	56	4721
2026-01-19 09:53:04.27	153.87	16.91	-42.3	-44.6	19.1	0.00e+00	0	40	0	180355072	56	4616
2026-01-19 09:53:05.27	153.85	17.03	-42.3	-44.5	19.2	0.00e+00	0	40	0	182452224	56	4584
2026-01-19 09:53:06.26	153.83	17.14	-42.1	-44.4	19.3	0.00e+00	0	40	0	183500800	56	4498
2026-01-19 09:53:07.25	153.81	17.26	-42.3	-44.6	19.1	0.00e+00	0	40	0	185597952	56	4617
2026-01-19 09:53:08.25	153.79	17.37	-42.4	-44.7	19.0	0.00e+00	0	41	0	187695104	56	4665
2026-01-19 09:53:09.24	153.78	17.49	-42.7	-45.1	18.6	0.00e+00	0	40	0	189792256	56	4904
2026-01-19 09:53:10.23	153.76	17.61	-42.8	-45.2	18.6	0.00e+00	0	41	0	191889408	56	4952
2026-01-19 09:53:11.22	153.74	17.73	-42.9	-45.3	18.4	0.00e+00	0	41	0	192937984	56	5022
2026-01-19 09:53:12.22	153.72	17.85	-43.0	-45.5	18.3	0.00e+00	0	40	0	195035136	57	4851
2026-01-19 09:53:13.21	153.70	17.97	-43.1	-45.6	18.2	0.00e+00	0	40	0	197132288	57	4910
2026-01-19 09:53:14.20	153.68	18.09	-43.1	-45.6	18.2	0.00e+00	0	40	0	199229440	57	4885
2026-01-19 09:53:15.20	153.66	18.21	-43.2	-45.7	18.2	0.00e+00	0	40	0	200278016	57	4949
2026-01-19 09:53:16.19	153.64	18.33	-43.1	-45.6	18.3	0.00e+00	0	40	0	202375168	57	4875
2026-01-19 09:53:17.18	153.62	18.45	-43.1	-45.5	18.3	0.00e+00	0	41	0	204472320	57	4856
2026-01-19 09:53:18.17	153.59	18.57	-42.9	-45.3	18.5	0.00e+00	0	41	0	206569472	57	4714
2026-01-19 09:53:19.17	153.57	18.70	-42.7	-45.0	18.8	0.00e+00	0	40	0	208666624	57	4580
2026-01-19 09:53:20.16	153.55	18.82	-42.6	-44.8	18.9	0.00e+00	0	41	0	209715200	57	4489
2026-01-19 09:53:21.15	153.53	18.95	-42.4	-44.6	19.1	0.00e+00	0	40	0	211812352	56	4641
2026-01-19 09:53:22.15	153.51	19.07	-42.4	-44.7	19.1	0.00e+00	0	40	0	213909504	56	4657
2026-01-19 09:53:23.14	153.49	19.20	-42.4	-44.7	19.1	0.00e+00	0	40	0	216006656	56	4668
2026-01-19 09:53:24.13	153.47	19.32	-42.5	-44.8	19.0	0.00e+00	0	41	0	217055232	56	4712
2026-01-19 09:53:25.12	153.44	19.45	-42.7	-45.0	18.8	0.00e+00	0	40	0	219152384	56	4843
2026-01-19 09:53:26.12	153.42	19.58	-42.7	-45.0	18.8	0.00e+00	0	40	0	221249536	56	4859
2026-01-19 09:53:27.11	153.40	19.71	-42.8	-45.2	18.6	0.00e+00	0	41	0	223346688	56	4958
2026-01-19 09:53:28.10	153.38	19.84	-43.0	-45.5	18.3	0.00e+00	0	41	0	225443840	56	5141
2026-01-19 09:53:29.10	153.35	19.97	-43.1	-45.6	18.3	0.00e+00	0	41	0	226492416	56	5207
2026-01-19 09:53:30.09	153.33	20.10	-43.2	-45.7	18.1	0.00e+00	0	41	0	228589568	57	4945
2026-01-19 09:53:31.08	153.31	20.23	-43.3	-45.8	18.1	0.00e+00	0	41	0	230686720	57	5039
2026-01-19 09:53:32.07	153.28	20.36	-43.2	-45.7	18.2	0.00e+00	0	40	0	232783872	57	4941
2026-01-19 09:53:33.07	153.26	20.49	-43.1	-45.6	18.3	0.00e+00	0	41	0	233832448	57	4875
2026-01-19 09:53:34.06	153.23	20.62	-43.0	-45.5	18.4	0.00e+00	0	41	0	235929600	57	4827
2026-01-19 09:53:35.05	153.21	20.76	-42.8	-45.1	18.7	0.00e+00	0	41	0	238026752	57	4631
2026-01-19 09:53:36.04	153.19	20.89	-42.7	-45.0	18.8	0.00e+00	0	41	0	240123904	57	4571
2026-01-19 09:53:37.04	153.16	21.03	-42.5	-44.7	19.1	0.00e+00	0	41	0	241172480	56	4692
2026-01-19 09:53:38.03	153.14	21.16	-42.4	-44.6	19.2	0.00e+00	0	41	0	243269632	56	4610
2026-01-19 09:53:39.02	153.11	21.30	-42.4	-44.6	19.2	0.00e+00	0	40	0	245366784	56	4638
2026-01-19 09:53:40.01	153.09	21.44	-42.4	-44.6	19.2	0.00e+00	0	41	0	247463936	56	4629
2026-01-19 09:53:41.01	153.06	21.58	-42.4	-44.6	19.2	0.00e+00	0	40	0	249561088	56	4620
2026-01-19 09:53:42.00	153.03	21.71	-42.5	-44.8	19.0	0.00e+00	0	41	0	250609664	56	4717
2026-01-19 09:53:42.99	153.01	21.85	-42.7	-45.0	18.9	0.00e+00	0	41	0	252706816	56	4820
2026-01-19 09:53:43.98	152.98	21.99	-42.9	-45.3	18.6	0.00e+00	0	41	0	254803968	56	5010
2026-01-19 09:53:44.98	152.95	22.14	-42.9	-45.3	18.6	0.00e+00	0	41	0	256901120	56	5019
2026-01-19 09:53:45.97	152.93	22.28	-43.0	-45.4	18.5	0.00e+00	0	41	0	257949696	56	5068
2026-01-19 09:53:46.96	152.90	22.42	-43.1	-45.5	18.4	0.00e+00	0	41	0	260046848	56	5102
2026-01-19 09:53:47.96	152.87	22.57	-42.9	-45.3	18.6	0.00e+00	0	41	0	262144000	56	5007
2026-01-19 09:53:48.95	152.84	22.71	-42.9	-45.2	18.6	0.00e+00	0	40	0	264241152	56	4964
2026-01-19 09:53:49.94	152.81	22.85	-43.0	-45.3	18.6	0.00e+00	0	41	0	266338304	56	5016
2026-01-19 09:53:50.94	152.79	23.00	-42.8	-45.1	18.8	0.00e+00	0	41	0	267386880	56	4892
2026-01-19 09:53:51.93	152.76	23.15	-42.8	-45.1	18.7	0.00e+00	0	41	0	269484032	56	4918
2026-01-19 09:53:52.92	152.73	23.29	-42.5	-44.7	19.1	0.00e+00	0	40	0	271581184	56	4687
2026-01-19 09:53:53.91	152.70	23.44	-42.5	-44.8	19.1	0.00e+00	0	41	0	273678336	56	4717
2026-01-19 09:53:54.91	152.67	23.59	-42.5	-44.8	19.1	0.00e+00	0	41	0	274726912	56	4708
2026-01-19 09:53:55.90	152.64	23.74	-42.4	-44.6	19.2	0.00e+00	0	40	0	276824064	56	4633
2026-01-19 09:53:56.89	152.61	23.89	-42.4	-44.7	19.2	0.00e+00	0	41	0	278921216	56	4656
2026-01-19 09:53:57.88	152.58	24.05	-42.7	-45.0	18.9	0.00e+00	0	41	0	281018368	56	4840
2026-01-19 09:53:58.88	152.55	24.20	-42.7	-45.0	18.9	0.00e+00	0	41	0	283115520	56	4864
2026-01-19 09:53:59.87	152.51	24.35	-43.0	-45.4	18.6	0.00e+00	0	41	0	284164096	56	5042
2026-01-19 09:54:00.86	152.48	24.51	-42.9	-45.3	18.6	0.00e+00	0	41	0	286261248	56	5000
2026-01-19 09:54:01.86	152.45	24.66	-43.1	-45.5	18.5	0.00e+00	0	41	0	288358400	56	5124
2026-01-19 09:54:02.85	152.42	24.82	-43.2	-45.7	18.3	0.00e+00	0	41	0	290455552	57	4937
2026-01-19 09:54:03.84	152.39	24.98	-43.1	-45.6	18.3	0.00e+00	0	41	0	291504128	57	4896
2026-01-19 09:54:04.84	152.35	25.14	-43.1	-45.5	18.4	0.00e+00	0	41	0	293601280	57	4856
2026-01-19 09:54:05.83	152.32	25.29	-43.2	-45.7	18.3	0.00e+00	0	41	0	295698432	57	4936
2026-01-19 09:54:06.82	152.29	25.45	-43.3	-45.8	18.1	0.00e+00	0	41	0	297795584	57	5039
2026-01-19 09:54:07.81	152.25	25.62	-43.6	-46.2	17.9	0.00e+00	0	41	0	299892736	57	5231
2026-01-19 09:54:08.81	152.22	25.78	-43.2	-45.7	18.2	0.00e+00	0	41	0	300941312	57	4962
2026-01-19 09:54:09.80	152.18	25.94	-43.2	-45.7	18.3	0.00e+00	0	40	0	303038464	57	4952
2026-01-19 09:54:10.79	152.15	26.11	-43.2	-45.7	18.2	0.00e+00	0	41	0	305135616	57	4969
2026-01-19 09:54:11.79	152.11	26.27	-43.1	-45.5	18.4	0.00e+00	0	41	0	307232768	57	4869
2026-01-19 09:54:12.78	152.07	26.44	-43.0	-45.5	18.4	0.00e+00	0	41	0	308281344	57	4846
2026-01-19 09:54:13.77	152.04	26.60	-42.6	-45.0	18.9	0.00e+00	0	41	0	310378496	57	4555
2026-01-19 09:54:14.76	152.00	26.77	-42.6	-45.0	18.9	0.00e+00	0	41	0	312475648	57	4556
2026-01-19 09:54:15.76	151.96	26.94	-42.8	-45.2	18.7	0.00e+00	0	41	0	314572800	57	4668
2026-01-19 09:54:16.75	151.93	27.11	-42.7	-45.1	18.8	0.00e+00	0	41	0	316669952	57	4601
2026-01-19 09:54:17.74	151.89	27.28	-42.7	-45.1	18.8	0.00e+00	0	41	0	317718528	57	4599
2026-01-19 09:54:18.74	151.85	27.46	-43.2	-45.6	18.3	0.00e+00	0	41	0	319815680	57	4911
2026-01-19 09:54:19.73	151.81	27.63	-43.2	-45.7	18.2	0.00e+00	0	41	0	321912832	57	4960
2026-01-19 09:54:20.72	151.77	27.80	-43.4	-46.0	18.0	0.00e+00	0	41	0	324009984	57	5126
2026-01-19 09:54:21.72	151.73	27.98	-43.4	-45.9	18.1	0.00e+00	0	41	0	325058560	57	5086
2026-01-19 09:54:22.71	151.69	28.16	-43.5	-46.1	17.9	0.00e+00	0	41	0	327155712	57	5200
2026-01-19 09:54:23.70	151.65	28.33	-43.6	-46.2	17.8	0.00e+00	0	41	0	329252864	57	5262
2026-01-19 09:54:24.70	151.61	28.51	-43.3	-45.9	18.1	0.00e+00	0	41	0	331350016	57	5065
2026-01-19 09:54:25.69	151.56	28.69	-43.3	-45.9	18.2	0.00e+00	0	41	0	332398592	57	5055
2026-01-19 09:54:26.68	151.52	28.87	-43.2	-45.7	18.3	0.00e+00	0	41	0	334495744	57	4960
2026-01-19 09:54:27.67	151.48	29.06	-43.2	-45.7	18.3	0.00e+00	0	41	0	336592896	57	4963
2026-01-19 09:54:28.67	151.43	29.24	-43.2	-45.7	18.3	0.00e+00	0	41	0	338690048	57	4946
2026-01-19 09:54:29.66	151.39	29.43	-43.3	-45.7	18.2	0.00e+00	0	41	0	340787200	57	4969
2026-01-19 09:54:30.65	151.35	29.61	-43.8	-46.3	17.8	0.00e+00	0	41	0	341835776	58	5016
2026-01-19 09:54:31.65	151.30	29.80	-43.9	-46.5	17.5	0.00e+00	0	41	0	343932928	58	5131
2026-01-19 09:54:32.64	151.25	29.99	-44.1	-46.8	17.3	0.00e+00	0	41	0	346030080	59	4994
2026-01-19 09:54:33.63	151.21	30.18	-44.4	-47.2	16.9	0.00e+00	0	41	0	348127232	59	5236
2026-01-19 09:54:34.62	151.16	30.37	-44.5	-47.2	16.9	0.00e+00	0	41	0	349175808	60	4982
2026-01-19 09:54:35.62	151.11	30.56	-44.5	-47.3	16.9	0.00e+00	0	41	0	351272960	60	5021
2026-01-19 09:54:36.61	151.07	30.75	-44.5	-47.4	16.8	0.00e+00	0	41	0	353370112	60	5060
2026-01-19 09:54:37.60	151.02	30.95	-44.6	-47.4	16.8	0.00e+00	0	41	0	355467264	60	5083
2026-01-19 09:54:38.60	150.97	31.14	-44.5	-47.3	16.9	0.00e+00	0	41	0	356515840	60	4994
2026-01-19 09:54:39.59	150.92	31.34	-44.5	-47.3	16.9	0.00e+00	0	41	0	358612992	60	5002
2026-01-19 09:54:40.58	150.87	31.54	-44.4	-47.1	17.1	0.00e+00	0	41	0	360710144	60	4893
2026-01-19 09:54:41.57	150.82	31.74	-44.5	-47.3	16.9	0.00e+00	0	41	0	362807296	60	5023
2026-01-19 09:54:42.57	150.76	31.94	-44.6	-47.4	16.8	0.00e+00	0	41	0	364904448	60	5064
2026-01-19 09:54:43.56	150.71	32.14	-44.9	-47.8	16.4	0.00e+00	0	41	0	365953024	60	5315
2026-01-19 09:54:44.55	150.66	32.35	-45.1	-48.0	16.2	0.00e+00	0	41	0	368050176	61	5122
2026-01-19 09:54:45.54	150.60	32.55	-45.3	-48.3	16.0	0.00e+00	0	41	0	370147328	61	5311
2026-01-19 09:54:46.54	150.55	32.76	-45.4	-48.4	15.5	0.00e+00	0	41	0	372244480	61	5383
2026-01-19 09:54:47.53	150.49	32.97	-45.2	-48.1	16.2	0.00e+00	0	41	0	374341632	61	5173
2026-01-19 09:54:48.52	150.44	33.18	-45.2	-48.2	16.0	0.00e+00	0	41	0	375390208	61	5245
2026-01-19 09:54:49.52	150.38	33.39	-45.6	-48.9	15.4	0.00e+00	0	41	0	377487360	62	5354
2026-01-19 09:54:50.51	150.32	33.60	-45.7	-48.9	15.3	0.00e+00	0	41	0	379584512	62	5391
2026-01-19 09:54:51.50	150.26	33.81	-46.1	-49.7	14.5	7.00e-07	0	41	0	381681664	62	5919
2026-01-19 09:54:52.49	150.20	34.03	-46.3	-50.0	14.2	1.50e-06	0	41	0	382730240	63	5746
2026-01-19 09:54:53.49	150.14	34.25	-46.5	-50.4	13.9	7.00e-07	0	41	0	384827392	63	6025
2026-01-19 09:54:54.48	150.08	34.46	-46.5	-50.4	13.9	0.00e+00	0	41	0	386924544	63	6048
2026-01-19 09:54:55.47	150.02	34.68	-46.1	-49.7	14.6	7.00e-07	0	41	0	389021696	63	5548
2026-01-19 09:54:56.46	149.96	34.90	-45.6	-48.9	15.3	0.00e+00	0	41	0	391118848	63	5075
2026-01-19 09:54:57.46	149.89	35.13	-45.3	-48.4	15.9	0.00e+00	0	41	0	392167424	62	5058
2026-01-19 09:54:58.45	149.83	35.35	-44.9	-47.8	16.4	0.00e+00	0	41	0	394264576	61	5009
2026-01-19 09:54:59.44	149.76	35.58	-44.8	-47.7	16.5	0.00e+00	0	41	0	396361728	61	4933
2026-01-19 09:55:00.44	149.69	35.81	-44.8	-47.7	16.4	0.00e+00	0	41	0	398458880	61	4977
2026-01-19 09:55:01.43	149.63	36.03	-44.9	-47.9	16.4	0.00e+00	0	41	0	399507456	61	5079
2026-01-19 09:55:02.42	149.56	36.26	-45.4	-48.6	15.7	0.00e+00	0	41	0	401604608	61	5467
2026-01-19 09:55:03.41	149.49	36.49	-45.8	-49.2	15.1	0.00e+00	0	41	0	403701760	62	5578
2026-01-19 09:55:04.41	149.42	36.73	-45.8	-49.2	15.0	0.00e+00	0	41	0	405798912	62	5585
2026-01-19 09:55:05.40	149.35	36.96	-45.7	-49.0	15.3	0.00e+00	0	41	0	406847488	62	5460
2026-01-19 09:55:06.39	149.27	37.20	-45.6	-48.8	15.5	0.00e+00	0	41	0	408944640	62	5329
2026-01-19 09:55:07.38	149.20	37.44	-45.2	-48.3	16.0	0.00e+00	0	41	0	411041792	61	5286
2026-01-19 09:55:08.38	149.12	37.68	-44.9	-47.8	16.5	0.00e+00	0	41	0	413138944	61	4990
2026-01-19 09:55:09.37	149.05	37.92	-44.2	-46.8	17.4	0.00e+00	0	41	0	415236096	60	4751
2026-01-19 09:55:10.36	148.97	38.17	-44.1	-46.8	17.4	0.00e+00	0	41	0	416284672	60	4710
2026-01-19 09:55:11.35	148.89	38.41	-44.0	-46.5	17.6	0.00e+00	0	41	0	418381824	59	4852
2026-01-19 09:55:12.35	148.81	38.66	-44.2	-46.8	17.4	0.00e+00	0	41	0	420478976	59	5009
2026-01-19 09:55:13.34	148.73	38.91	-44.3	-46.9	17.2	0.00e+00	0	41	0	422576128	59	5069
2026-01-19 09:55:14.33	148.65	39.16	-44.8	-47.6	16.6	0.00e+00	0	41	0	423624704	60	5199
2026-01-19 09:55:15.32	148.57	39.41	-45.1	-48.1	16.1	0.00e+00	0	41	0	425721856	61	5208
2026-01-19 09:55:16.32	148.48	39.66	-45.5	-48.6	15.6	0.00e+00	0	41	0	427819008	61	5514
2026-01-19 09:55:17.31	148.39	39.92	-46.3	-50.0	14.4	0.00e+00	0	41	0	429916160	63	5728
2026-01-19 09:55:18.30	148.31	40.18	-45.9	-49.3	15.0	0.00e+00	0	41	0	432013312	63	5297
2026-01-19 09:55:19.30	148.22	40.44	-45.5	-48.6	15.6	0.00e+00	0	41	0	433061888	62	5215
2026-01-19 09:55:20.29	148.13	40.70	-45.2	-48.1	16.1	0.00e+00	0	41	0	435159040	62	4920
2026-01-19 09:55:21.28	148.03	40.96	-45.1	-48.1	16.2	0.00e+00	0	41	0	437256192	62	4889
2026-01-19 09:55:22.27	147.94	41.23	-45.0	-47.9	16.3	0.00e+00	0	41	0	439353344	61	5094
2026-01-19 09:55:23.27	147.84	41.49	-45.1	-48.0	16.2	0.00e+00	0	41	0	440401920	61	5146
2026-01-19 09:55:24.26	147.75	41.76	-45.2	-48.1	16.1	0.00e+00	0	41	0	442499072	61	5203
2026-01-19 09:55:25.25	147.65	42.03	-45.5	-48.7	15.6	0.00e+00	0	41	0	444596224	61	5537
2026-01-19 09:55:26.25	147.55	42.31	-45.4	-48.4	15.8	0.00e+00	0	41	0	446693376	61	5381
2026-01-19 09:55:27.24	147.44	42.58	-45.3	-48.4	15.9	0.00e+00	0	41	0	447741952	61	5371
2026-01-19 09:55:28.23	147.34	42.86	-45.7	-48.9	15.4	7.00e-07	0	41	0	449839104	62	5361
2026-01-19 09:55:29.22	147.23	43.13	-45.6	-48.8	15.6	0.00e+00	0	41	0	451936256	62	5296
2026-01-19 09:55:30.22	147.13	43.42	-45.6	-48.8	15.5	0.00e+00	0	41	0	454033408	62	5286
2026-01-19 09:55:31.21	147.02	43.70	-45.5	-48.7	15.6	0.00e+00	0	41	0	456130560	62	5252
2026-01-19 09:55:32.20	146.90	43.98	-45.7	-49.0	15.4	0.00e+00	0	41	0	457179136	62	5417
2026-01-19 09:55:33.19	146.79	44.27	-45.6	-48.7	15.5	0.00e+00	0	41	0	459276288	62	5262
2026-01-19 09:55:34.19	146.67	44.56	-45.6	-48.8	15.4	0.00e+00	0	41	0	461373440	62	5333
2026-01-19 09:55:35.18	146.55	44.85	-45.3	-48.3	15.9	0.00e+00	0	41	0	463470592	62	5022
2026-01-19 09:55:36.17	146.43	45.14	-44.7	-47.6	16.6	0.00e+00	0	41	0	464519168	61	4895
2026-01-19 09:55:37.17	146.31	45.43	-44.4	-47.2	17.0	0.00e+00	0	41	0	466616320	60	4931
2026-01-19 09:55:38.16	146.19	45.73	-43.9	-46.4	17.8	0.00e+00	0	41	0	468713472	59	4791
2026-01-19 09:55:39.15	146.06	46.02	-44.0	-46.6	17.6	0.00e+00	0	41	0	470810624	58	5163
2026-01-19 09:55:40.14	145.93	46.32	-44.3	-47.0	17.2	0.00e+00	0	41	0	472907776	59	5125
2026-01-19 09:55:41.14	145.80	46.63	-44.9	-47.7	16.6	0.00e+00	0	41	0	473956352	60	5279
2026-01-19 09:55:42.13	145.66	46.93	-45.7	-48.9	15.3	0.00e+00	0	41	0	476053504	62	5384
2026-01-19 09:55:43.12	145.52	47.24	-46.1	-49.6	14.8	0.00e+00	0	41	0	478150656	62	5808
2026-01-19 09:55:44.12	145.38	47.55	-46.1	-49.5	14.8	0.00e+00	0	41	0	480247808	63	5427
2026-01-19 09:55:45.11	145.24	47.86	-45.6	-48.8	15.6	0.00e+00	0	41	0	481296384	63	5003
2026-01-19 09:55:46.10	145.09	48.17	-44.9	-47.7	16.5	0.00e+00	0	41	0	483393536	61	4971
2026-01-19 09:55:47.10	144.94	48.48	-44.5	-47.2	17.0	0.00e+00	0	41	0	485490688	61	4689
2026-01-19 09:55:48.09	144.79	48.80	-44.4	-47.0	17.3	0.00e+00	0	41	0	487587840	60	4831
2026-01-19 09:55:49.08	144.63	49.12	-44.1	-46.6	17.6	0.00e+00	0	41	0	489684992	59	4880
2026-01-19 09:55:50.07	144.47	49.44	-43.7	-46.1	18.0	0.00e+00	0	41	0	490733568	59	4604
2026-01-19 09:55:51.07	144.31	49.76	-43.2	-45.6	18.5	0.00e+00	0	41	0	492830720	58	4601
2026-01-19 09:55:52.06	144.14	50.09	-42.6	-44.8	19.2	0.00e+00	0	41	0	494927872	57	4470
2026-01-19 09:55:53.05	143.97	50.41	-42.4	-44.5	19.4	0.00e+00	0	41	0	497025024	56	4578
2026-01-19 09:55:54.05	143.80	50.74	-42.6	-44.8	19.2	0.00e+00	0	41	0	498073600	56	4723
2026-01-19 09:55:55.04	143.62	51.07	-42.8	-45.0	19.0	0.00e+00	0	41	0	500170752	56	4852
2026-01-19 09:55:56.03	143.44	51.40	-42.6	-44.7	19.2	0.00e+00	0	41	0	502267904	56	4705
2026-01-19 09:55:57.03	143.25	51.74	-42.6	-44.8	19.2	0.00e+00	0	41	0	504365056	56	4729
2026-01-19 09:55:58.02	143.06	52.08	-42.7	-45.0	19.0	0.00e+00	0	41	0	506462208	56	4816
2026-01-19 09:55:59.01	142.87	52.41	-43.4	-45.9	18.2	0.00e+00	0	41	0	507510784	57	5063
2026-01-19 09:56:00.00	142.67	52.75	-44.8	-47.8	16.5	0.00e+00	0	41	0	509607936	60	5306
2026-01-19 09:56:01.00	142.46	53.10	-45.1	-48.2	16.1	0.00e+00	0	41	0	511705088	60	5590
2026-01-19 09:56:01.99	142.25	53.44	-44.6	-47.5	16.8	0.00e+00	0	41	0	513802240	60	5120
2026-01-19 09:56:02.98	142.04	53.79	-43.6	-46.0	18.1	0.00e+00	0	41	0	514850816	59	4594
2026-01-19 09:56:03.97	141.82	54.14	-42.9	-45.2	18.8	0.00e+00	0	41	0	516947968	57	4662
2026-01-19 09:56:04.97	141.59	54.49	-42.7	-44.9	19.1	0.00e+00	0	41	0	519045120	57	4541
2026-01-19 09:56:05.96	141.36	54.84	-42.9	-45.2	18.8	0.00e+00	0	41	0	521142272	57	4678
2026-01-19 09:56:06.95	141.13	55.19	-43.1	-45.5	18.5	0.00e+00	0	41	0	523239424	57	4869
2026-01-19 09:56:07.95	140.88	55.55	-43.3	-45.8	18.3	0.00e+00	0	41	0	524288000	58	4707
2026-01-19 09:56:08.94	140.63	55.91	-42.6	-44.8	19.2	0.00e+00	0	41	0	526385152	57	4481
2026-01-19 09:56:09.93	140.38	56.27	-41.6	-43.7	20.0	0.00e+00	0	41	0	528482304	55	4414
2026-01-19 09:56:10.93	140.11	56.63	-41.7	-43.8	19.9	0.00e+00	0	41	0	530579456	54	4706
2026-01-19 09:56:11.92	139.84	57.00	-42.3	-44.5	19.3	0.00e+00	0	41	0	531628032	55	4816
2026-01-19 09:56:12.91	139.57	57.36	-42.9	-45.2	18.9	0.00e+00	0	41	0	533725184	56	4927
2026-01-19 09:56:13.90	139.29	57.73	-43.1	-45.4	18.7	0.00e+00	0	41	0	535822336	57	4788
2026-01-19 09:56:14.90	138.99	58.10	-43.3	-45.6	18.5	0.00e+00	0	41	0	537919488	57	4904
2026-01-19 09:56:15.89	138.69	58.47	-44.2	-46.9	17.3	0.00e+00	0	41	0	538968064	59	5065
2026-01-19 09:56:16.88	138.38	58.84	-44.7	-47.6	16.6	0.00e+00	0	41	0	541065216	60	5187
2026-01-19 09:56:17.88	138.06	59.21	-44.2	-47.0	17.0	0.00e+00	0	41	0	543162368	60	4853
2026-01-19 09:56:18.87	137.74	59.58	-43.8	-46.4	17.8	0.00e+00	0	41	0	545259520	59	4782
2026-01-19 09:56:19.86	137.40	59.96	-43.8	-46.5	17.8	0.00e+00	0	41	0	547356672	59	4818
2026-01-19 09:56:20.85	137.05	60.34	-43.7	-46.3	17.5	0.00e+00	0	41	0	548405248	59	4721
2026-01-19 09:56:21.85	136.69	60.72	-43.4	-45.9	18.4	0.00e+00	0	41	0	550502400	58	4761
2026-01-19 09:56:22.84	136.33	61.09	-42.5	-44.7	19.3	0.00e+00	0	41	0	552599552	56	4683
2026-01-19 09:56:23.83	135.95	61.47	-42.2	-44.4	19.6	0.00e+00	0	41	0	554696704	56	4521
2026-01-19 09:56:24.83	135.55	61.86	-42.5	-44.8	19.2	0.00e+00	0	41	0	555745280	56	4752
2026-01-19 09:56:25.82	135.15	62.24	-42.7	-45.1	19.1	0.00e+00	0	41	0	557842432	56	4871
2026-01-19 09:56:26.81	134.73	62.62	-42.5	-44.7	19.3	0.00e+00	0	41	0	559939584	56	4689
2026-01-19 09:56:27.80	134.30	63.01	-42.3	-44.5	19.5	0.00e+00	0	41	0	562036736	56	4571
2026-01-19 09:56:28.80	133.85	63.39	-42.5	-44.7	19.3	0.00e+00	0	41	0	564133888	56	4696
2026-01-19 09:56:29.79	133.39	63.78	-42.6	-44.8	19.1	0.00e+00	0	41	0	565182464	56	4738
2026-01-19 09:56:30.78	132.92	64.16	-42.6	-44.8	19.2	0.00e+00	0	41	0	567279616	56	4753
2026-01-19 09:56:31.77	132.43	64.55	-42.6	-44.8	19.2	0.00e+00	0	41	0	569376768	56	4758
2026-01-19 09:56:32.77	131.92	64.94	-42.7	-45.0	19.1	0.00e+00	0	41	0	571473920	56	4826
2026-01-19 09:56:33.76	131.39	65.32	-42.7	-45.0	19.1	0.00e+00	0	41	0	572522496	56	4824
2026-01-19 09:56:34.75	130.85	65.71	-42.9	-45.2	18.8	0.00e+00	0	41	0	574619648	56	4974
2026-01-19 09:56:35.75	130.28	66.10	-43.5	-46.0	18.2	0.00e+00	0	41	0	576716800	57	5111
2026-01-19 09:56:36.74	129.69	66.48	-44.0	-46.6	17.5	0.00e+00	0	41	0	578813952	58	5211
2026-01-19 09:56:37.73	129.09	66.87	-44.2	-46.8	17.4	0.00e+00	0	41	0	580911104	59	5027
2026-01-19 09:56:38.72	128.46	67.25	-44.0	-46.5	17.6	0.00e+00	0	41	0	581959680	59	4868
2026-01-19 09:56:39.72	127.80	67.64	-43.8	-46.3	17.8	0.00e+00	0	41	0	584056832	59	4732
2026-01-19 09:56:40.71	127.12	68.02	-43.8	-46.3	17.9	0.00e+00	0	41	0	586153984	58	4988
2026-01-19 09:56:41.70	126.42	68.40	-43.6	-46.1	18.1	0.00e+00	0	41	0	588251136	58	4879
2026-01-19 09:56:42.70	125.68	68.78	-44.4	-47.1	17.1	0.00e+00	0	41	0	589299712	59	5211
2026-01-19 09:56:43.69	124.92	69.16	-45.4	-48.6	15.8	0.00e+00	0	41	0	591396864	61	5515
2026-01-19 09:56:44.68	124.13	69.53	-45.7	-49.0	15.4	0.00e+00	0	41	0	593494016	62	5418
2026-01-19 09:56:45.67	123.31	69.91	-45.6	-48.7	15.7	0.00e+00	0	41	0	595591168	62	5253
2026-01-19 09:56:46.67	122.45	70.28	-44.8	-47.5	16.8	0.00e+00	0	41	0	597688320	61	4860
2026-01-19 09:56:47.66	121.56	70.65	-44.0	-46.6	17.7	0.00e+00	0	41	0	598736896	60	4633
2026-01-19 09:56:48.65	120.63	71.01	-44.1	-46.7	17.5	0.00e+00	0	41	0	600834048	59	4963
2026-01-19 09:56:49.64	119.67	71.37	-43.9	-46.4	17.7	0.00e+00	0	41	0	602931200	59	4811
2026-01-19 09:56:50.64	118.65	71.73	-43.8	-46.3	17.9	0.00e+00	0	41	0	605028352	59	4719
2026-01-19 09:56:51.63	117.60	72.08	-45.1	-48.1	16.3	0.00e+00	0	41	0	606076928	60	5505
2026-01-19 09:56:52.62	116.51	72.43	-45.9	-49.3	15.1	0.00e+00	0	41	0	608174080	62	5599
2026-01-19 09:56:53.62	115.36	72.78	-46.2	-49.8	14.6	0.00e+00	0	41	0	610271232	63	5641
2026-01-19 09:56:54.61	114.17	73.11	-45.5	-48.7	15.6	0.00e+00	0	41	0	612368384	62	5267
2026-01-19 09:56:55.60	112.94	73.44	-43.2	-45.5	18.4	0.00e+00	0	41	0	614465536	58	4584
2026-01-19 09:56:56.60	111.63	73.77	-42.2	-44.3	19.7	0.00e+00	0	41	0	615514112	56	4486
2026-01-19 09:56:57.59	110.29	74.08	-42.8	-45.1	19.0	0.00e+00	0	41	0	617611264	56	4923
2026-01-19 09:56:58.58	108.89	74.39	-44.0	-46.7	17.6	0.00e+00	0	41	0	619708416	58	5230
2026-01-19 09:56:59.57	107.43	74.69	-44.1	-46.7	17.4	0.00e+00	0	41	0	621805568	58	5266
2026-01-19 09:57:00.57	105.90	74.98	-44.1	-46.7	17.5	0.00e+00	0	41	0	622854144	58	5258
2026-01-19 09:57:01.56	104.32	75.26	-44.2	-46.9	17.4	0.00e+00	0	41	0	624951296	59	5047
2026-01-19 09:57:02.55	102.68	75.53	-43.7	-46.2	17.9	0.00e+00	0	41	0	627048448	59	4694
2026-01-19 09:57:03.55	100.95	75.79	-44.0	-46.7	17.3	0.00e+00	0	41	0	629145600	58	5270
2026-01-19 09:57:04.54	99.19	76.03	-43.8	-46.4	17.8	0.00e+00	0	41	0	630194176	58	5060
2026-01-19 09:57:05.53	97.35	76.27	-42.9	-45.3	18.8	0.00e+00	0	41	0	632291328	57	4720
2026-01-19 09:57:06.52	95.46	76.48	-43.5	-45.9	18.2	0.00e+00	0	41	0	634388480	57	5086
2026-01-19 09:57:07.52	93.48	76.69	-44.6	-47.4	16.8	0.00e+00	0	41	0	636485632	59	5390
2026-01-19 09:57:08.51	91.46	76.88	-44.6	-47.5	16.9	0.00e+00	0	41	0	638582784	60	5116
2026-01-19 09:57:09.50	89.39	77.05	-44.5	-47.3	16.9	0.00e+00	0	41	0	639631360	60	5040
2026-01-19 09:57:10.49	87.26	77.21	-45.4	-48.8	15.7	0.00e+00	0	41	0	641728512	61	5600
2026-01-19 09:57:11.49	85.05	77.34	-45.8	-49.2	15.1	0.00e+00	0	41	0	643825664	62	5589
2026-01-19 09:57:12.48	82.82	77.46	-45.5	-48.7	15.7	0.00e+00	0	41	0	645922816	62	5237
2026-01-19 09:57:13.47	80.55	77.56	-44.4	-47.0	17.2	0.00e+00	0	41	0	646971392	60	4860
2026-01-19 09:57:14.47	78.23	77.65	-42.7	-44.9	19.1	0.00e+00	0	41	0	649068544	57	4544
2026-01-19 09:57:15.46	75.90	77.71	-44.1	-46.7	17.5	0.00e+00	0	41	0	651165696	59	4937
2026-01-19 09:57:16.45	73.55	77.75	-44.7	-47.4	16.8	0.00e+00	0	41	0	653262848	60	5078
2026-01-19 09:57:17.44	71.19	77.77	-44.1	-46.7	17.5	0.00e+00	0	41	0	655360000	60	4656
2026-01-19 09:57:18.44	68.80	77.77	-45.5	-48.7	15.7	0.00e+00	0	41	0	656408576	61	5544
2026-01-19 09:57:19.43	66.43	77.75	-45.9	-49.3	14.8	0.00e+00	0	41	0	658505728	63	5315
2026-01-19 09:57:20.42	64.08	77.71	-43.9	-46.4	17.7	0.00e+00	0	41	0	660602880	59	4809
2026-01-19 09:57:21.41	61.75	77.65	-43.7	-46.2	18.0	0.00e+00	0	41	0	662700032	58	4939
2026-01-19 09:57:22.41	59.42	77.57	-44.3	-47.0	17.2	0.00e+00	0	41	0	663748608	59	5113
2026-01-19 09:57:23.40	57.16	77.47	-43.8	-46.3	17.9	0.00e+00	0	41	0	665845760	59	4730
2026-01-19 09:57:24.39	54.93	77.35	-44.8	-47.7	16.8	0.00e+00	0	41	0	667942912	60	5256
2026-01-19 09:57:25.39	52.72	77.21	-45.3	-48.4	16.0	0.00e+00	0	41	0	670040064	61	5393
2026-01-19 09:57:26.38	50.59	77.06	-44.6	-47.3	17.1	0.00e+00	0	41	0	672137216	60	5014
2026-01-19 09:57:27.37	48.51	76.89	-44.4	-47.0	17.3	0.00e+00	0	41	0	673185792	60	4865
2026-01-19 09:57:28.37	46.47	76.70	-43.9	-46.3	17.9	0.00e+00	0	41	0	675282944	59	4750
2026-01-19 09:57:29.36	44.51	76.49	-44.2	-46.8	17.4	0.00e+00	0	41	0	677380096	59	5013
2026-01-19 09:57:30.35	42.62	76.28	-46.2	-49.8	14.5	0.00e+00	0	41	0	679477248	63	5617
2026-01-19 09:57:31.34	40.78	76.05	-46.1	-49.5	14.7	7.60e-06	0	41	0	680525824	64	5153
2026-01-19 09:57:32.34	38.99	75.80	-45.4	-48.4	16.0	0.00e+00	0	41	0	682622976	62	5098
2026-01-19 09:57:33.33	37.29	75.54	-46.3	-49.9	14.6	0.00e+00	0	41	0	684720128	63	5717
2026-01-19 09:57:34.32	35.65	75.28	-46.2	-49.7	14.6	1.44e-05	0	41	0	686817280	64	5245
2026-01-19 09:57:35.32	34.05	74.99	-44.4	-47.2	17.0	0.00e+00	0	41	0	688914432	60	4957
2026-01-19 09:57:36.31	32.53	74.71	-45.2	-48.3	15.9	0.00e+00	0	41	0	689963008	61	5298
2026-01-19 09:57:37.30	31.07	74.41	-47.3	-51.7	12.5	9.10e-06	0	41	0	692060160	65	6272
2026-01-19 09:57:38.29	29.67	74.10	-45.9	-49.1	15.2	0.00e+00	0	41	0	694157312	63	5191
2026-01-19 09:57:39.29	28.31	73.78	-45.5	-48.6	15.8	0.00e+00	0	41	0	696254464	62	5173
2026-01-19 09:57:40.28	27.02	73.46	-44.9	-47.7	16.7	0.00e+00	0	41	0	697303040	61	4930
2026-01-19 09:57:41.27	25.78	73.13	-44.5	-47.1	17.2	0.00e+00	0	41	0	699400192	59	5215
2026-01-19 09:57:42.27	24.58	72.79	-45.7	-48.8	15.5	0.00e+00	0	41	0	701497344	62	5338
2026-01-19 09:57:43.26	23.44	72.45	-46.0	-49.4	15.1	0.00e+00	0	41	0	703594496	63	5354
2026-01-19 09:57:44.25	22.35	72.11	-45.6	-48.7	15.8	0.00e+00	0	41	0	705691648	62	5224
2026-01-19 09:57:45.24	21.30	71.76	-45.9	-49.1	15.3	0.00e+00	0	41	0	706740224	62	5507
2026-01-19 09:57:46.24	20.28	71.40	-45.9	-49.3	15.7	0.00e+00	0	41	0	708837376	62	5611
2026-01-19 09:57:47.23	19.32	71.04	-46.4	-50.1	14.3	2.20e-06	0	41	0	710934528	63	5804
2026-01-19 09:57:48.22	18.39	70.67	-46.3	-49.9	14.5	5.30e-06	0	41	0	713031680	64	5387
2026-01-19 09:57:49.21	17.50	70.31	-45.7	-48.9	15.5	0.00e+00	0	41	0	714080256	63	5051
2026-01-19 09:57:50.21	16.63	69.93	-44.0	-46.5	17.7	0.00e+00	0	41	0	716177408	59	4821
2026-01-19 09:57:51.20	15.81	69.56	-44.2	-46.8	17.5	0.00e+00	0	41	0	718274560	59	5008
2026-01-19 09:57:52.19	15.02	69.19	-44.7	-47.6	16.8	0.00e+00	0	41	0	720371712	60	5163
2026-01-19 09:57:53.19	14.25	68.81	-44.4	-47.1	17.2	0.00e+00	0	41	0	721420288	60	4924
2026-01-19 09:57:54.18	13.52	68.43	-43.7	-46.2	17.9	0.00e+00	0	41	0	723517440	59	4680
2026-01-19 09:57:55.17	12.82	68.05	-43.6	-46.0	18.2	0.00e+00	0	41	0	725614592	58	4851
2026-01-19 09:57:56.17	12.14	67.67	-44.5	-47.3	17.0	0.00e+00	0	41	0	727711744	59	5311
2026-01-19 09:57:57.16	11.48	67.29	-44.5	-47.4	17.0	0.00e+00	0	41	0	729808896	60	5043
2026-01-19 09:57:58.15	10.85	66.90	-43.3	-45.7	18.4	0.00e+00	0	41	0	730857472	58	4683
2026-01-19 09:57:59.14	10.25	66.52	-42.3	-44.5	19.6	0.00e+00	0	41	0	732954624	56	4557
2026-01-19 09:58:00.14	9.66	66.13	-41.6	-43.7	20.1	0.00e+00	0	41	0	735051776	55	4420
2026-01-19 09:58:01.13	9.09	65.75	-41.4	-43.5	20.3	0.00e+00	0	41	0	737148928	54	4590
2026-01-19 09:58:02.12	8.55	65.36	-42.2	-44.5	19.3	0.00e+00	0	41	0	738197504	55	4845
2026-01-19 09:58:03.12	8.02	64.97	-42.2	-44.5	19.4	0.00e+00	0	41	0	740294656	55	4818
2026-01-19 09:58:04.11	7.51	64.59	-42.5	-44.8	19.1	0.00e+00	0	41	0	742391808	55	5029
2026-01-19 09:58:05.10	7.02	64.21	-44.4	-47.2	17.1	0.00e+00	0	41	0	744488960	59	5234
2026-01-19 09:58:06.10	6.54	63.82	-44.0	-46.6	17.6	0.00e+00	0	41	0	746586112	59	4911
2026-01-19 09:58:07.09	6.08	63.43	-43.8	-46.3	18.0	0.00e+00	0	41	0	747634688	59	4717
2026-01-19 09:58:08.08	5.64	63.05	-45.6	-48.9	15.6	0.00e+00	0	41	0	749731840	61	5690
2026-01-19 09:58:09.08	5.20	62.67	-46.0	-49.6	14.8	7.00e-07	0	41	0	751828992	63	5520
2026-01-19 09:58:10.07	4.79	62.28	-45.5	-48.8	15.6	0.00e+00	0	41	0	753926144	62	5331
2026-01-19 09:58:11.06	4.38	61.90	-46.5	-50.5	13.8	1.50e-06	0	41	0	754974720	64	5777
2026-01-19 09:58:12.06	3.99	61.52	-47.5	-52.2	12.0	1.69e-04	0	41	0	757071872	65	6600
2026-01-19 09:58:13.05	3.61	61.14	-45.1	-48.0	16.4	1.50e-06	0	41	0	759169024	62	4826
2026-01-19 09:58:14.04	3.24	60.76	-44.2	-46.9	17.4	0.00e+00	0	41	0	761266176	60	4764
2026-01-19 09:58:15.03	2.88	60.39	-43.5	-46.1	18.2	0.00e+00	0	41	0	763363328	58	4871
2026-01-19 09:58:16.03	2.53	60.01	-42.5	-44.8	19.3	0.00e+00	0	41	0	764411904	57	4447
2026-01-19 09:58:17.02	2.20	59.64	-42.4	-44.6	19.5	0.00e+00	0	41	0	766509056	56	4619
2026-01-19 09:58:18.01	1.87	59.26	-41.9	-44.0	19.8	0.00e+00	0	41	0	768606208	55	4573
2026-01-19 09:58:19.00	1.55	58.89	-41.9	-44.1	19.9	0.00e+00	0	41	0	770703360	55	4617
2026-01-19 09:58:20.00	1.24	58.52	-42.3	-44.5	19.0	0.00e+00	0	41	0	771751936	55	4865
2026-01-19 09:58:20.99	0.94	58.15	-42.9	-45.3	18.9	0.00e+00	0	41	0	773849088	56	4988
2026-01-19 09:58:21.98	0.65	57.79	-43.2	-45.6	18.6	0.00e+00	0	41	0	775946240	57	4906
2026-01-19 09:58:22.98	0.37	57.42	-42.7	-44.9	19.2	0.00e+00	0	41	0	778043392	57	4513
2026-01-19 09:58:23.97	0.09	57.05	-42.6	-44.8	19.3	0.00e+00	0	41	0	780140544	57	4451
2026-01-19 09:58:24.96	359.82	56.69	-43.4	-45.8	18.4	0.00e+00	0	41	0	781189120	57	5041
2026-01-19 09:58:25.96	359.56	56.33	-44.4	-47.2	17.1	0.00e+00	0	41	0	783286272	59	5237
2026-01-19 09:58:26.95	359.30	55.97	-45.1	-48.1	16.4	0.00e+00	0	41	0	785383424	60	5499
2026-01-19 09:58:27.94	359.05	55.62	-44.9	-47.8	16.6	0.00e+00	0	41	0	787480576	61	5015
2026-01-19 09:58:28.94	358.81	55.26	-45.0	-47.9	16.5	0.00e+00	0	41	0	788529152	61	5093
2026-01-19 09:58:29.93	358.57	54.91	-44.9	-47.8	16.5	0.00e+00	0	41	0	790626304	61	5016
2026-01-19 09:58:30.92	358.34	54.56	-44.3	-47.0	17.3	0.00e+00	0	41	0	792723456	60	4867
2026-01-19 09:58:31.91	358.12	54.21	-44.0	-46.6	17.7	0.00e+00	0	41	0	794820608	59	4901
2026-01-19 09:58:32.91	357.90	53.86	-44.0	-46.6	17.6	0.00e+00	0	41	0	796917760	59	4913
2026-01-19 09:58:33.90	357.68	53.51	-43.3	-45.7	18.5	0.00e+00	0	41	0	797966336	58	4685
2026-01-19 09:58:34.89	357.48	53.17	-43.5	-45.9	18.2	0.00e+00	0	41	0	800063488	58	4809
2026-01-19 09:58:35.89	357.27	52.83	-43.6	-46.0	18.2	0.00e+00	0	41	0	802160640	58	4847
2026-01-19 09:58:36.88	357.07	52.49	-42.9	-45.2	19.1	0.00e+00	0	41	0	804257792	57	4697
2026-01-19 09:58:37.87	356.88	52.15	-42.6	-44.9	19.2	0.00e+00	0	41	0	805306368	56	4761
2026-01-19 09:58:38.87	356.69	51.81	-43.1	-45.4	18.8	0.00e+00	0	41	0	807403520	56	5060
2026-01-19 09:58:39.86	356.50	51.48	-44.2	-46.8	17.5	0.00e+00	0	41	0	809500672	59	5024
2026-01-19 09:58:40.85	356.32	51.15	-44.4	-47.1	17.2	0.00e+00	0	41	0	811597824	59	5183
2026-01-19 09:58:41.85	356.14	50.82	-44.6	-47.3	17.0	0.00e+00	0	41	0	812646400	59	5280
2026-01-19 09:58:42.84	355.97	50.49	-44.3	-46.9	17.4	0.00e+00	0	41	0	814743552	60	4801
2026-01-19 09:58:43.83	355.80	50.17	-45.5	-48.6	15.8	0.00e+00	0	42	0	816840704	61	5490
2026-01-19 09:58:44.82	355.63	49.84	-45.3	-48.3	15.8	0.00e+00	0	41	0	818937856	62	5022
2026-01-19 09:58:45.82	355.47	49.52	-45.1	-48.0	16.4	0.00e+00	0	42	0	821035008	62	4858
2026-01-19 09:58:46.81	355.31	49.20	-44.6	-47.4	16.9	0.00e+00	0	41	0	822083584	61	4776
2026-01-19 09:58:47.80	355.15	48.89	-45.4	-48.4	15.9	0.00e+00	0	41	0	824180736	61	5393
2026-01-19 09:58:48.79	355.00	48.57	-45.8	-49.1	15.4	0.00e+00	0	42	0	826277888	62	5487
2026-01-19 09:58:49.79	354.85	48.26	-46.5	-50.3	14.1	2.20e-06	0	41	0	828375040	64	5615
2026-01-19 09:58:50.78	354.70	47.95	-46.3	-49.9	14.4	6.80e-06	0	41	0	829423616	64	5343
2026-01-19 09:58:51.77	354.56	47.64	-45.7	-48.8	15.6	0.00e+00	0	41	0	831520768	63	5013
2026-01-19 09:58:52.77	354.42	47.33	-45.3	-48.3	16.2	0.00e+00	0	41	0	833617920	62	5038
2026-01-19 09:58:53.76	354.28	47.02	-45.1	-48.0	16.4	0.00e+00	0	41	0	835715072	62	4837
2026-01-19 09:58:54.75	354.15	46.72	-45.1	-48.0	16.3	0.00e+00	0	41	0	837812224	61	5156
2026-01-19 09:58:55.75	354.01	46.42	-45.3	-48.4	16.0	0.00e+00	0	41	0	838860800	61	5359
2026-01-19 09:58:56.74	353.88	46.12	-45.0	-47.9	16.4	0.00e+00	0	41	0	840957952	61	5084
2026-01-19 09:58:57.73	353.76	45.82	-44.0	-46.6	17.7	0.00e+00	0	41	0	843055104	60	4618
2026-01-19 09:58:58.72	353.63	45.53	-44.1	-46.7	17.5	0.00e+00	0	41	0	845152256	59	4977
2026-01-19 09:58:59.72	353.51	45.23	-44.1	-46.7	17.6	0.00e+00	0	41	0	846200832	59	4961
2026-01-19 09:59:00.71	353.39	44.94	-44.7	-47.6	16.7	0.00e+00	0	41	0	848297984	60	5175
2026-01-19 09:59:01.70	353.27	44.66	-45.0	-48.0	16.4	0.00e+00	0	41	0	850395136	60	5434
2026-01-19 09:59:02.70	353.15	44.37	-46.0	-49.5	14.9	0.00e+00	0	41	0	852492288	62	5764
2026-01-19 09:59:03.69	353.04	44.08	-46.6	-50.4	14.0	0.00e+00	0	41	0	854589440	63	6026
2026-01-19 09:59:04.68	352.93	43.80	-46.6	-50.4	13.9	1.50e-06	0	41	0	855638016	64	5679
2026-01-19 09:59:05.68	352.82	43.52	-46.5	-50.3	14.0	1.50e-06	0	41	0	857735168	64	5632
2026-01-19 09:59:06.67	352.71	43.24	-47.9	-53.1	11.2	3.90e-04	0	41	0	859832320	66	6936
2026-01-19 09:59:07.66	352.60	42.96	-48.4	-54.7	9.3	4.55e-03	0	41	0	861929472	67	7867
2026-01-19 09:59:08.65	352.50	42.69	-48.3	-54.2	9.9	1.88e-02	0	41	0	862978048	67	7444
2026-01-19 09:59:09.64	352.40	42.41	-46.3	-50.1	14.2	1.07e-03	0	41	0	865075200	64	5490
2026-01-19 09:59:10.64	352.30	42.14	-45.1	-48.2	16.2	0.00e+00	0	41	0	867172352	62	4966
2026-01-19 09:59:11.63	352.20	41.87	-44.0	-46.6	17.6	0.00e+00	0	42	0	869269504	60	4638
2026-01-19 09:59:12.62	352.10	41.60	-44.3	-47.1	17.2	0.00e+00	0	41	0	871366656	59	5164
2026-01-19 09:59:13.62	352.01	41.34	-44.8	-47.7	16.6	0.00e+00	0	41	0	872415232	60	5255
2026-01-19 09:59:14.61	351.91	41.07	-45.1	-48.1	16.2	0.00e+00	0	41	0	874512384	60	5519
2026-01-19 09:59:15.60	351.82	40.81	-45.2	-48.3	16.1	0.00e+00	0	41	0	876609536	61	5281
2026-01-19 09:59:16.60	351.73	40.55	-45.3	-48.4	15.9	0.00e+00	0	41	0	878706688	61	5383
2026-01-19 09:59:17.59	351.64	40.29	-46.5	-50.2	14.2	7.00e-07	0	41	0	879755264	63	5913
2026-01-19 09:59:18.58	351.55	40.04	-47.0	-51.3	13.0	1.83e-05	0	41	0	881852416	64	6285
2026-01-19 09:59:19.58	351.47	39.78	-47.1	-51.2	13.1	5.87e-05	0	41	0	883949568	65	5902
2026-01-19 09:59:20.57	351.38	39.53	-46.0	-49.4	14.9	0.00e+00	0	41	0	886046720	64	5051
2026-01-19 09:59:21.56	351.30	39.28	-45.1	-48.0	16.3	0.00e+00	0	41	0	888143872	62	4819
2026-01-19 09:59:22.55	351.22	39.03	-44.0	-46.5	17.7	0.00e+00	0	41	0	889192448	60	4582
2026-01-19 09:59:23.55	351.14	38.78	-43.9	-46.4	17.8	0.00e+00	0	41	0	891289600	59	4764
2026-01-19 09:59:24.54	351.06	38.53	-43.7	-46.2	18.0	0.00e+00	0	41	0	893386752	59	4685
2026-01-19 09:59:25.53	350.98	38.29	-44.4	-47.1	17.1	0.00e+00	0	41	0	895483904	59	5204
2026-01-19 09:59:26.52	350.90	38.04	-44.8	-47.9	16.6	0.00e+00	0	41	0	896532480	60	5360
2026-01-19 09:59:27.52	350.83	37.80	-45.7	-49.2	15.4	0.00e+00	0	41	0	898629632	62	5569
2026-01-19 09:59:28.51	350.75	37.56	-46.5	-50.7	13.7	5.30e-06	0	41	0	900726784	63	6235
2026-01-19 09:59:29.50	350.68	37.33	-46.3	-50.3	14.2	2.20e-06	0	41	0	902823936	63	5935
2026-01-19 09:59:30.49	350.61	37.09	-46.0	-49.8	14.7	0.00e+00	0	41	0	903872512	63	5613
2026-01-19 09:59:31.49	350.53	36.85	-45.8	-49.3	15.1	0.00e+00	0	41	0	905969664	63	5336
2026-01-19 09:59:32.48	350.46	36.62	-45.8	-49.2	15.1	0.00e+00	0	41	0	908066816	63	5275
2026-01-19 09:59:33.47	350.39	36.39	-45.8	-49.3	15.1	0.00e+00	0	41	0	910163968	62	5647
2026-01-19 09:59:34.47	350.33	36.16	-46.3	-50.1	14.3	0.00e+00	0	41	0	912261120	63	5817
2026-01-19 09:59:35.46	350.26	35.93	-46.5	-50.2	14.2	2.20e-06	0	41	0	913309696	63	5913
2026-01-19 09:59:36.45	350.19	35.71	-46.0	-49.5	14.9	0.00e+00	0	41	0	915406848	63	5435
2026-01-19 09:59:37.45	350.13	35.48	-45.7	-49.0	15.3	0.00e+00	0	41	0	917504000	63	5152
2026-01-19 09:59:38.44	350.06	35.26	-45.4	-48.5	16.0	0.00e+00	0	41	0	919601152	62	5140
2026-01-19 09:59:39.43	350.00	35.04	-44.8	-47.6	16.7	0.00e+00	0	41	0	920649728	61	4919
2026-01-19 09:59:40.42	349.94	34.82	-44.4	-47.2	17.1	0.00e+00	0	42	0	922746880	60	4937
2026-01-19 09:59:41.42	349.87	34.59	-44.5	-47.3	17.0	0.00e+00	0	41	0	924844032	60	5010
2026-01-19 09:59:42.41	349.81	34.38	-44.7	-47.6	16.7	0.00e+00	0	41	0	926941184	60	5180
2026-01-19 09:59:43.40	349.75	34.16	-44.6	-47.5	16.8	0.00e+00	0	41	0	929038336	60	5115
2026-01-19 09:59:44.40	349.69	33.95	-44.6	-47.6	16.7	0.00e+00	0	41	0	930086912	60	5216
2026-01-19 09:59:45.39	349.64	33.73	-45.0	-48.2	16.2	0.00e+00	0	42	0	932184064	60	5566
2026-01-19 09:59:46.38	349.58	33.52	-45.0	-48.3	16.0	0.00e+00	0	41	0	934281216	61	5300
2026-01-19 09:59:47.38	349.52	33.31	-46.0	-49.9	14.6	0.00e+00	0	41	0	936378368	62	6004
2026-01-19 09:59:48.37	349.47	33.10	-46.6	-50.9	13.5	0.00e+00	0	42	0	937426944	63	6352
2026-01-19 09:59:49.36	349.41	32.90	-46.9	-51.5	12.9	1.44e-05	0	41	0	939524096	64	6433
2026-01-19 09:59:50.35	349.36	32.69	-47.2	-51.8	12.5	1.44e-04	0	41	0	941621248	65	6345
2026-01-19 09:59:51.35	349.30	32.49	-47.2	-51.9	12.4	1.18e-04	0	41	0	943718400	65	6388
2026-01-19 09:59:52.34	349.25	32.28	-47.0	-51.4	12.9	5.56e-05	0	41	0	945815552	65	6036
2026-01-19 09:59:53.33	349.20	32.08	-46.7	-50.9	13.4	3.96e-05	0	41	0	946864128	65	5716
2026-01-19 09:59:54.33	349.15	31.88	-46.6	-50.9	13.5	1.14e-05	0	41	0	948961280	64	5996
2026-01-19 09:59:55.32	349.10	31.68	-46.0	-49.9	14.5	8.30e-06	0	41	0	951058432	64	5386
2026-01-19 09:59:56.31	349.05	31.48	-46.1	-50.0	14.4	1.50e-06	0	41	0	953155584	63	5786
2026-01-19 09:59:57.30	349.00	31.29	-46.0	-49.8	14.6	7.00e-07	0	42	0	954204160	63	5620
2026-01-19 09:59:58.30	348.95	31.09	-45.6	-49.1	15.3	0.00e+00	0	41	0	956301312	63	5175
2026-01-19 09:59:59.29	348.90	30.90	-45.5	-48.8	15.5	0.00e+00	0	41	0	958398464	63	5039
2026-01-19 10:00:00.28	348.85	30.70	-45.5	-48.8	15.6	0.00e+00	0	41	0	960495616	62	5286
2026-01-19 10:00:01.27	348.80	30.51	-45.2	-48.3	16.1	0.00e+00	0	41	0	962592768	62	5000
2026-01-19 10:00:02.27	348.76	30.32	-45.2	-48.3	15.9	0.00e+00	0	41	0	963641344	61	5298
2026-01-19 10:00:03.26	348.71	30.13	-44.9	-47.9	16.4	0.00e+00	0	41	0	965738496	61	5089
2026-01-19 10:00:04.25	348.67	29.95	-44.7	-47.6	16.7	0.00e+00	0	42	0	967835648	61	4919
2026-01-19 10:00:05.25	348.62	29.76	-44.6	-47.6	16.8	0.00e+00	0	41	0	969932800	61	4872
2026-01-19 10:00:06.24	348.58	29.57	-44.5	-47.4	16.9	0.00e+00	0	41	0	970981376	61	4793
2026-01-19 10:00:07.23	348.53	29.39	-44.5	-47.4	16.9	0.00e+00	0	41	0	973078528	60	5058
2026-01-19 10:00:08.22	348.49	29.21	-44.3	-47.1	17.2	0.00e+00	0	41	0	975175680	60	4908
2026-01-19 10:00:09.22	348.45	29.02	-44.5	-47.5	16.8	0.00e+00	0	42	0	977272832	60	5102
2026-01-19 10:00:10.21	348.41	28.84	-44.8	-47.8	16.2	0.00e+00	0	41	0	979369984	60	5306
2026-01-19 10:00:11.20	348.36	28.66	-45.1	-48.2	16.1	0.00e+00	0	41	0	980418560	60	5567
2026-01-19 10:00:12.20	348.32	28.48	-45.5	-48.7	15.7	0.00e+00	0	41	0	982515712	61	5580
2026-01-19 10:00:13.19	348.28	28.31	-45.5	-48.8	15.5	0.00e+00	0	41	0	984612864	62	5313
2026-01-19 10:00:14.18	348.24	28.13	-45.9	-49.4	15.0	0.00e+00	0	41	0	986710016	62	5690
2026-01-19 10:00:15.17	348.20	27.96	-46.0	-49.6	14.8	0.00e+00	0	41	0	987758592	62	5829
2026-01-19 10:00:16.17	348.16	27.78	-45.8	-49.4	14.9	0.00e+00	0	41	0	989855744	62	5720
2026-01-19 10:00:17.16	348.13	27.61	-45.7	-49.2	15.2	7.00e-07	0	42	0	991952896	62	5569
2026-01-19 10:00:18.15	348.09	27.44	-45.1	-48.4	15.8	0.00e+00	0	42	0	994050048	62	5069
2026-01-19 10:00:19.14	348.05	27.27	-44.9	-48.1	16.2	0.00e+00	0	41	0	995098624	61	5194
2026-01-19 10:00:20.14	348.01	27.10	-44.6	-47.6	16.7	0.00e+00	0	42	0	997195776	61	4911
2026-01-19 10:00:21.13	347.98	26.93	-44.5	-47.4	16.9	0.00e+00	0	42	0	999292928	60	5062
2026-01-19 10:00:22.12	347.94	26.76	-44.0	-46.7	17.6	0.00e+00	0	42	0	1001390080	59	4933
2026-01-19 10:00:23.12	347.90	26.59	-43.4	-45.9	18.2	0.00e+00	0	42	0	1003487232	58	4800
2026-01-19 10:00:24.11	347.87	26.43	-43.2	-45.7	18.4	0.00e+00	0	42	0	1004535808	58	4668
2026-01-19 10:00:25.10	347.83	26.26	-43.2	-45.7	18.4	0.00e+00	0	42	0	1006632960	58	4677
2026-01-19 10:00:26.09	347.80	26.10	-43.2	-45.6	18.5	0.00e+00	0	42	0	1008730112	58	4623
2026-01-19 10:00:27.09	347.76	25.94	-43.4	-46.0	18.2	0.00e+00	0	42	0	1010827264	58	4819
2026-01-19 10:00:28.08	347.73	25.78	-43.5	-46.1	18.0	0.00e+00	0	42	0	1011875840	58	4907
2026-01-19 10:00:29.07	347.69	25.62	-43.9	-46.6	17.6	0.00e+00	0	41	0	1013972992	58	5186
2026-01-19 10:00:30.06	347.66	25.46	-44.4	-47.4	16.9	0.00e+00	0	41	0	1016070144	59	5374
2026-01-19 10:00:31.06	347.63	25.30	-44.8	-48.0	16.3	0.00e+00	0	41	0	1018167296	60	5453
2026-01-19 10:00:32.05	347.60	25.14	-45.4	-48.9	15.5	0.00e+00	0	41	0	1020264448	61	5659
2026-01-19 10:00:33.04	347.56	24.98	-46.0	-49.8	14.5	0.00e+00	0	41	0	1021313024	62	5989
2026-01-19 10:00:34.04	347.53	24.83	-46.1	-50.0	14.3	0.00e+00	0	42	0	1023410176	63	5760
2026-01-19 10:00:35.03	347.50	24.67	-46.0	-49.8	14.5	0.00e+00	0	41	0	1025507328	63	5635
2026-01-19 10:00:36.02	347.47	24.52	-45.9	-49.6	14.8	2.20e-06	0	42	0	1027604480	63	5473
2026-01-19 10:00:37.01	347.44	24.36	-45.7	-49.1	15.2	0.00e+00	0	42	0	1028653056	63	5199
2026-01-19 10:00:38.01	347.41	24.21	-45.1	-48.3	16.0	0.00e+00	0	41	0	1030750208	62	5001
2026-01-19 10:00:39.00	347.38	24.06	-44.7	-47.8	16.5	0.00e+00	0	42	0	1032847360	61	4996
2026-01-19 10:00:39.99	347.35	23.91	-44.3	-47.2	17.0	0.00e+00	0	41	0	1034944512	60	4949
2026-01-19 10:00:40.99	347.32	23.76	-43.8	-46.6	17.6	0.00e+00	0	41	0	1037041664	59	4891
2026-01-19 10:00:41.98	347.29	23.61	-43.4	-46.2	18.0	0.00e+00	0	42	0	1038090240	58	4929
2026-01-19 10:00:42.97	347.26	23.46	-43.3	-46.0	18.1	0.00e+00	0	42	0	1040187392	58	4853
2026-01-19 10:00:43.97	347.23	23.31	-43.4	-46.2	17.9	0.00e+00	0	41	0	1042284544	58	4969
2026-01-19 10:00:44.96	347.20	23.17	-43.5	-46.4	17.8	0.00e+00	0	41	0	1044381696	58	5042
2026-01-19 10:00:45.95	347.18	23.02	-43.3	-46.1	18.0	0.00e+00	0	41	0	1045430272	58	4882
2026-01-19 10:00:46.94	347.15	22.88	-43.0	-45.6	18.4	0.00e+00	0	41	0	1047527424	58	4645
2026-01-19 10:00:47.94	347.12	22.73	-43.2	-45.9	18.2	0.00e+00	0	41	0	1049624576	58	4785
2026-01-19 10:00:48.93	347.09	22.59	-43.2	-45.9	18.2	0.00e+00	0	41	0	1051721728	58	4767
2026-01-19 10:00:49.92	347.07	22.45	-43.2	-45.8	18.3	0.00e+00	0	42	0	1053818880	58	4717
2026-01-19 10:00:50.92	347.04	22.31	-43.5	-46.1	18.0	0.00e+00	0	41	0	1054867456	58	4897
2026-01-19 10:00:51.91	347.01	22.17	-43.5	-46.0	18.0	0.00e+00	0	41	0	1056964608	58	4857
2026-01-19 10:00:52.90	346.99	22.03	-43.4	-45.9	18.1	0.00e+00	0	41	0	1059061760	58	4789
2026-01-19 10:00:53.90	346.96	21.89	-43.6	-46.1	18.0	0.00e+00	0	42	0	1061158912	58	4905
2026-01-19 10:00:54.89	346.94	21.75	-43.5	-45.9	18.1	0.00e+00	0	41	0	1062207488	58	4810
2026-01-19 10:00:55.88	346.91	21.61	-43.6	-46.1	18.0	0.00e+00	0	41	0	1064304640	58	4899
2026-01-19 10:00:56.87	346.89	21.47	-43.6	-46.2	17.9	0.00e+00	0	41	0	1066401792	58	4963
2026-01-19 10:00:57.87	346.86	21.34	-43.6	-46.2	17.9	0.00e+00	0	42	0	1068498944	58	4941
2026-01-19 10:00:58.86	346.84	21.20	-43.7	-46.3	17.8	0.00e+00	0	42	0	1070596096	58	5005
2026-01-19 10:00:59.85	346.81	21.07	-43.9	-46.6	17.5	0.00e+00	0	42	0	1071644672	58	5184
2026-01-19 10:01:00.84	346.79	20.93	-44.1	-46.9	17.4	0.00e+00	0	41	0	1073741824	58	5346
2026-01-19 10:01:01.84	346.77	20.80	-43.9	-46.7	17.4	0.00e+00	0	42	0	1075838976	58	5237
2026-01-19 10:01:02.83	346.74	20.67	-44.1	-46.8	17.2	0.00e+00	0	42	0	1077936128	59	5034
2026-01-19 10:01:03.82	346.72	20.53	-44.0	-46.8	17.3	0.00e+00	0	42	0	1078984704	59	5004
2026-01-19 10:01:04.82	346.70	20.40	-44.1	-46.9	17.3	0.00e+00	0	41	0	1081081856	59	5052
2026-01-19 10:01:05.81	346.67	20.27	-44.3	-47.1	17.1	0.00e+00	0	42	0	1083179008	59	5169
2026-01-19 10:01:06.80	346.65	20.14	-44.3	-47.1	17.0	0.00e+00	0	41	0	1085276160	59	5174
2026-01-19 10:01:07.79	346.63	20.01	-44.5	-47.3	16.8	0.00e+00	0	42	0	1086324736	59	5326
2026-01-19 10:01:08.79	346.61	19.88	-44.4	-47.2	16.9	0.00e+00	0	42	0	1088421888	59	5265
2026-01-19 10:01:09.78	346.58	19.76	-44.3	-47.1	17.0	0.00e+00	0	42	0	1090519040	59	5180
2026-01-19 10:01:10.77	346.56	19.63	-44.4	-47.3	16.9	0.00e+00	0	42	0	1092616192	59	5280
2026-01-19 10:01:11.77	346.54	19.50	-44.4	-47.4	16.7	0.00e+00	0	41	0	1094713344	59	5362
2026-01-19 10:01:12.76	346.52	19.37	-44.4	-47.4	16.7	0.00e+00	0	42	0	1095761920	59	5384
2026-01-19 10:01:13.75	346.50	19.25	-44.6	-47.7	16.4	0.00e+00	0	42	0	1097859072	59	5591
2026-01-19 10:01:14.75	346.48	19.12	-44.6	-47.8	16.4	0.00e+00	0	42	0	1099956224	60	5317
2026-01-19 10:01:15.74	346.46	19.00	-44.6	-47.9	16.3	0.00e+00	0	41	0	1102053376	60	5368
2026-01-19 10:01:16.73	346.44	18.88	-44.8	-48.1	16.1	0.00e+00	0	41	0	1103101952	60	5505
2026-01-19 10:01:17.72	346.42	18.75	-44.9	-48.3	16.0	0.00e+00	0	42	0	1105199104	60	5620
2026-01-19 10:01:18.71	346.40	18.63	-45.1	-48.4	15.8	0.00e+00	0	42	0	1107296256	60	5690
2026-01-19 10:01:19.71	346.38	18.51	-45.5	-48.9	15.3	0.00e+00	0	42	0	1109393408	61	5712
2026-01-19 10:01:20.70	346.36	18.39	-45.5	-48.9	15.3	0.00e+00	0	41	0	1111490560	61	5685
2026-01-19 10:01:21.69	346.34	18.27	-45.6	-49.1	15.2	0.00e+00	0	42	0	1112539136	62	5471
2026-01-19 10:01:22.69	346.32	18.15	-46.1	-49.8	14.4	0.00e+00	0	42	0	1114636288	62	5991
2026-01-19 10:01:23.68	346.30	18.03	-45.9	-49.7	14.5	0.00e+00	0	42	0	1116733440	62	5897
2026-01-19 10:01:24.67	346.28	17.91	-45.8	-49.7	14.6	0.00e+00	0	42	0	1118830592	62	5859
2026-01-19 10:01:25.67	346.26	17.79	-46.2	-50.4	13.8	3.00e-06	0	41	0	1119879168	63	6047
2026-01-19 10:01:26.66	346.24	17.67	-45.8	-50.0	14.2	7.00e-07	0	42	0	1121976320	63	5766
2026-01-19 10:01:27.65	346.23	17.56	-45.9	-50.5	13.9	7.00e-07	0	42	0	1124073472	63	6067
2026-01-19 10:01:28.65	346.21	17.44	-45.6	-50.0	14.2	5.30e-06	0	42	0	1126170624	63	5782
2026-01-19 10:01:29.64	346.19	17.32	-45.5	-50.1	14.1	1.50e-06	0	41	0	1127219200	63	5816
2026-01-19 10:01:30.63	346.17	17.21	-45.5	-50.1	14.2	7.00e-07	0	42	0	1129316352	62	6197
2026-01-19 10:01:31.62	346.15	17.09	-45.3	-49.7	14.5	0.00e+00	0	42	0	1131413504	62	5905
2026-01-19 10:01:32.62	346.14	16.98	-45.3	-49.7	14.5	0.00e+00	0	42	0	1133510656	62	5857
2026-01-19 10:01:33.61	346.12	16.87	-45.1	-49.2	15.0	0.00e+00	0	41	0	1135607808	62	5542
2026-01-19 10:01:34.60	346.10	16.75	-45.1	-49.2	15.0	0.00e+00	0	42	0	1136656384	61	5867
2026-01-19 10:01:35.60	346.08	16.64	-45.0	-48.8	15.4	0.00e+00	0	41	0	1138753536	61	5620
2026-01-19 10:01:36.59	346.07	16.53	-45.0	-48.7	15.5	0.00e+00	0	42	0	1140850688	61	5566
2026-01-19 10:01:37.58	346.05	16.41	-45.0	-48.6	15.6	0.00e+00	0	42	0	1142947840	61	5470
2026-01-19 10:01:38.57	346.03	16.30	-45.0	-48.5	15.7	0.00e+00	0	41	0	1145044992	61	5409
2026-01-19 10:01:39.57	346.02	16.19	-44.9	-48.3	15.9	0.00e+00	0	41	0	1146093568	61	5291
2026-01-19 10:01:40.56	346.00	16.08	-44.7	-47.9	16.2	0.00e+00	0	42	0	1148190720	61	5084
2026-01-19 10:01:41.55	345.98	15.97	-44.8	-48.0	16.1	0.00e+00	0	42	0	1150287872	61	5136
2026-01-19 10:01:42.54	345.97	15.86	-44.8	-48.0	16.2	0.00e+00	0	42	0	1152385024	61	5132
2026-01-19 10:01:43.54	345.95	15.75	-44.7	-48.0	16.2	0.00e+00	0	42	0	1153433600	61	5115
2026-01-19 10:01:44.53	345.94	15.65	-44.9	-48.2	15.9	0.00e+00	0	42	0	1155530752	61	5260
2026-01-19 10:01:45.52	345.92	15.54	-44.6	-47.9	16.2	0.00e+00	0	42	0	1157627904	61	5053
2026-01-19 10:01:46.52	345.91	15.43	-44.7	-48.1	16.1	0.00e+00	0	42	0	1159725056	61	5175
2026-01-19 10:01:47.51	345.89	15.32	-44.6	-48.1	16.0	0.00e+00	0	42	0	1161822208	61	5214
2026-01-19 10:01:48.50	345.88	15.22	-44.3	-47.8	16.3	0.00e+00	0	42	0	1162870784	60	5291
2026-01-19 10:01:49.50	345.86	15.11	-44.3	-47.7	16.4	0.00e+00	0	42	0	1164967936	60	5269
2026-01-19 10:01:50.49	345.85	15.01	-44.5	-48.1	16.0	0.00e+00	0	42	0	1167065088	60	5517
2026-01-19 10:01:51.48	345.83	14.90	-44.5	-48.1	16.0	0.00e+00	0	42	0	1169162240	60	5515
2026-01-19 10:01:52.47	345.82	14.80	-44.3	-47.8	16.3	0.00e+00	0	41	0	1170210816	60	5312
2026-01-19 10:01:53.47	345.80	14.69	-44.5	-48.0	16.1	0.00e+00	0	41	0	1172307968	60	5414
2026-01-19 10:01:54.46	345.79	14.59	-44.5	-48.0	16.0	0.00e+00	0	41	0	1174405120	60	5440
2026-01-19 10:01:55.45	345.77	14.49	-44.7	-48.3	15.8	0.00e+00	0	42	0	1176502272	60	5617
2026-01-19 10:01:56.45	345.76	14.38	-44.7	-48.2	15.9	0.00e+00	0	42	0	1177550848	60	5543
2026-01-19 10:01:57.44	345.74	14.28	-44.8	-48.3	15.8	0.00e+00	0	42	0	1179648000	60	5615
2026-01-19 10:01:58.43	345.73	14.18	-44.7	-48.2	15.9	0.00e+00	0	41	0	1181745152	60	5589
2026-01-19 10:01:59.42	345.72	14.08	-44.7	-48.1	15.9	0.00e+00	0	42	0	1183842304	60	5521
2026-01-19 10:02:00.42	345.70	13.97	-44.9	-48.3	15.8	0.00e+00	0	42	0	1185939456	60	5643
2026-01-19 10:02:01.41	345.69	13.87	-44.9	-48.4	15.7	0.00e+00	0	42	0	1186988032	60	5661
2026-01-19 10:02:02.40	345.68	13.77	-45.0	-48.4	15.7	0.00e+00	0	42	0	1189085184	60	5670
2026-01-19 10:02:03.40	345.66	13.67	-44.9	-48.3	15.8	0.00e+00	0	42	0	1191182336	60	5616
2026-01-19 10:02:04.39	345.65	13.57	-44.9	-48.3	15.8	0.00e+00	0	42	0	1193279488	60	5647
2026-01-19 10:02:05.38	345.64	13.48	-44.8	-48.4	15.7	0.00e+00	0	42	0	1194328064	60	5661
2026-01-19 10:02:06.38	345.62	13.38	-44.8	-48.4	15.7	0.00e+00	0	41	0	1196425216	60	5658
2026-01-19 10:02:07.37	345.61	13.28	-44.6	-48.3	15.8	0.00e+00	0	42	0	1198522368	60	5645
2026-01-19 10:02:08.36	345.60	13.18	-44.6	-48.4	15.7	0.00e+00	0	42	0	1200619520	60	5703
2026-01-19 10:02:09.35	345.59	13.08	-44.5	-48.2	15.9	0.00e+00	0	42	0	1202716672	60	5562
2026-01-19 10:02:10.35	345.57	12.99	-44.5	-48.3	15.7	0.00e+00	0	42	0	1203765248	60	5641
2026-01-19 10:02:11.34	345.56	12.89	-44.6	-48.4	15.6	0.00e+00	0	42	0	1205862400	60	5691
2026-01-19 10:02:12.33	345.55	12.79	-44.4	-48.1	15.9	0.00e+00	0	42	0	1207959552	60	5514
2026-01-19 10:02:13.32	345.54	12.70	-44.6	-48.3	15.7	0.00e+00	0	42	0	1210056704	60	5635
2026-01-19 10:02:14.32	345.52	12.60	-44.4	-48.0	16.1	0.00e+00	0	42	0	1211105280	60	5408
