passes_logs/2026/01/19/T1/T1__20260119_014118_AQUA_rec.log

#Pass ID: 20260119_014118_AQUA
#Satellite: AQUA
#Configuration: AQUA
#almurnet v.1.7.20251203
#Start time: 2026-01-19 01:41:19

#Version: 2.0.20230620
#Station: T1
#Location: 37.570604 lon 55.790049 lat
#TLE: 1 27424U 02022A   26017.96925465  .00000866  00000+0  18326-3 0  9999
#TLE: 2 27424  98.4087 344.4465 0002004  74.6027 356.0068 14.61826972261327

#Time	Az	El	Level	Level2	SNR	BER	BlckErr	Temp	State	Recorded	gain1	gain2
2026-01-19 01:41:19.77	13.09	5.14	-49.7	-71.4	3.8	7.49e-01	0	36	0	0	70	45081
2026-01-19 01:41:20.76	13.08	5.21	-49.7	-71.3	3.8	7.48e-01	0	37	104	0	70	44591
2026-01-19 01:41:21.76	13.06	5.29	-49.7	-71.3	3.8	7.44e-01	0	37	104	0	70	44703
2026-01-19 01:41:22.75	13.04	5.36	-49.7	-71.3	3.8	7.47e-01	0	37	104	0	70	44498
2026-01-19 01:41:23.74	13.02	5.44	-49.8	-71.3	3.8	7.47e-01	0	37	104	0	70	44486
2026-01-19 01:41:24.73	13.01	5.51	-49.7	-71.3	3.8	7.45e-01	0	37	104	0	70	44492
2026-01-19 01:41:25.73	12.99	5.59	-49.7	-71.3	3.8	7.47e-01	0	37	104	0	70	44590
2026-01-19 01:41:26.72	12.97	5.66	-49.7	-71.3	3.8	7.47e-01	0	37	104	0	70	44675
2026-01-19 01:41:27.71	12.95	5.74	-49.7	-71.3	3.8	7.47e-01	0	37	104	0	70	44848
2026-01-19 01:41:28.71	12.93	5.81	-49.7	-71.3	3.8	7.46e-01	0	37	104	0	70	44881
2026-01-19 01:41:29.70	12.92	5.89	-49.7	-71.4	3.8	7.44e-01	0	37	104	0	70	45120
2026-01-19 01:41:30.70	12.90	5.97	-49.7	-71.4	3.8	7.46e-01	0	37	104	0	70	45129
2026-01-19 01:41:31.69	12.88	6.04	-49.7	-71.4	3.8	7.44e-01	0	37	104	0	70	45103
2026-01-19 01:41:32.68	12.86	6.12	-49.8	-71.4	3.8	7.43e-01	0	37	104	0	70	45178
2026-01-19 01:41:33.68	12.84	6.20	-49.7	-71.4	3.8	7.45e-01	0	37	104	0	70	45081
2026-01-19 01:41:34.67	12.82	6.28	-49.7	-71.4	3.8	7.49e-01	0	37	104	0	70	45044
2026-01-19 01:41:35.66	12.80	6.35	-49.8	-71.3	3.8	7.45e-01	0	37	104	0	70	44835
2026-01-19 01:41:36.66	12.78	6.43	-49.7	-71.3	3.8	7.47e-01	0	37	104	0	70	44468
2026-01-19 01:41:37.65	12.76	6.51	-49.7	-71.2	3.8	7.44e-01	0	37	104	0	70	43934
2026-01-19 01:41:38.64	12.74	6.59	-49.7	-71.1	3.8	7.48e-01	0	37	104	0	70	43586
2026-01-19 01:41:39.64	12.72	6.67	-49.7	-71.0	3.8	7.45e-01	0	37	104	0	70	43077
2026-01-19 01:41:40.63	12.70	6.75	-49.7	-70.9	3.8	7.46e-01	0	37	104	0	70	42565
2026-01-19 01:41:41.63	12.68	6.83	-49.7	-70.8	3.8	7.45e-01	0	37	104	0	70	42232
2026-01-19 01:41:42.62	12.66	6.91	-49.7	-70.7	3.8	7.48e-01	0	37	104	0	70	41921
2026-01-19 01:41:43.61	12.64	6.99	-49.7	-70.8	3.8	7.46e-01	0	38	104	0	70	42023
2026-01-19 01:41:44.60	12.62	7.07	-49.7	-70.8	3.8	7.47e-01	0	37	104	0	70	42030
2026-01-19 01:41:45.60	12.60	7.15	-49.7	-70.8	3.8	7.46e-01	0	38	104	0	70	42300
2026-01-19 01:41:46.59	12.58	7.23	-49.7	-70.9	3.8	7.48e-01	0	38	104	0	70	42658
2026-01-19 01:41:47.59	12.56	7.31	-49.7	-70.9	3.8	7.45e-01	0	38	104	0	70	42868
2026-01-19 01:41:48.58	12.54	7.39	-49.7	-71.0	3.8	7.48e-01	0	38	104	0	70	42987
2026-01-19 01:41:49.58	12.52	7.47	-49.7	-70.9	3.8	7.43e-01	0	38	104	0	70	42836
2026-01-19 01:41:50.57	12.50	7.56	-49.7	-70.9	3.8	7.46e-01	0	38	104	0	70	42459
2026-01-19 01:41:51.56	12.48	7.64	-49.7	-70.6	3.8	7.46e-01	0	38	104	0	70	41394
2026-01-19 01:41:52.55	12.46	7.72	-49.6	-70.3	3.8	7.44e-01	0	38	104	0	70	39933
2026-01-19 01:41:53.55	12.43	7.80	-49.6	-69.8	3.8	7.45e-01	0	38	104	0	70	37722
2026-01-19 01:41:54.54	12.41	7.89	-49.5	-69.1	3.8	7.46e-01	0	38	104	0	70	34857
2026-01-19 01:41:55.53	12.39	7.97	-49.4	-68.3	3.8	7.46e-01	0	38	104	0	70	31583
2026-01-19 01:41:56.53	12.37	8.05	-49.2	-67.3	3.8	7.47e-01	0	38	104	0	70	28342
2026-01-19 01:41:57.52	12.35	8.14	-48.9	-66.3	3.8	7.47e-01	0	38	104	0	69	26517
2026-01-19 01:41:58.51	12.32	8.22	-48.6	-65.2	3.8	7.43e-01	0	38	104	0	69	23568
2026-01-19 01:41:59.51	12.30	8.31	-48.3	-64.2	3.8	7.47e-01	0	38	104	0	68	22043
2026-01-19 01:42:00.50	12.28	8.39	-47.8	-63.0	3.8	7.43e-01	0	38	104	0	67	20474
2026-01-19 01:42:01.49	12.25	8.48	-47.6	-62.4	3.8	7.46e-01	0	38	104	0	67	19068
2026-01-19 01:42:02.49	12.23	8.56	-47.2	-61.5	3.8	7.47e-01	0	38	104	0	66	18236
2026-01-19 01:42:03.48	12.21	8.65	-46.9	-61.0	3.8	7.45e-01	0	38	104	0	65	18273
2026-01-19 01:42:04.47	12.18	8.73	-46.8	-60.8	3.8	7.48e-01	0	38	104	0	65	17840
2026-01-19 01:42:05.47	12.16	8.82	-46.7	-60.5	3.8	7.46e-01	0	38	104	0	65	17279
2026-01-19 01:42:06.46	12.14	8.91	-46.7	-60.6	3.8	7.47e-01	0	38	104	0	65	17399
2026-01-19 01:42:07.45	12.11	9.00	-46.8	-60.8	3.8	7.44e-01	0	38	104	0	65	17874
2026-01-19 01:42:08.45	12.09	9.08	-47.1	-61.4	3.8	7.49e-01	0	38	104	0	65	19122
2026-01-19 01:42:09.44	12.06	9.17	-46.9	-61.1	3.8	7.45e-01	0	38	104	0	65	18508
2026-01-19 01:42:10.44	12.04	9.26	-46.6	-60.6	3.8	7.43e-01	0	38	104	0	65	17306
2026-01-19 01:42:11.43	12.01	9.35	-48.0	-63.9	3.9	7.45e-01	0	38	104	0	67	22541
2026-01-19 01:42:12.43	11.99	9.44	-47.4	-62.7	3.9	7.40e-01	0	38	104	0	67	19703
2026-01-19 01:42:13.42	11.96	9.53	-44.3	-57.0	3.8	7.47e-01	0	38	104	0	60	15378
2026-01-19 01:42:14.46	11.94	9.62	-44.2	-57.0	3.8	7.46e-01	0	38	104	0	60	15258
2026-01-19 01:42:15.43	11.91	9.71	-44.2	-56.8	3.8	7.48e-01	0	38	104	0	59	15935
2026-01-19 01:42:16.42	11.88	9.80	-44.1	-56.7	3.8	7.47e-01	0	38	104	0	59	15613
2026-01-19 01:42:17.42	11.86	9.89	-44.2	-56.7	3.8	7.45e-01	0	38	104	0	59	15697
2026-01-19 01:42:18.41	11.83	9.98	-44.4	-57.1	3.8	7.46e-01	0	38	104	0	59	16388
2026-01-19 01:42:19.40	11.81	10.07	-45.4	-58.5	3.8	7.44e-01	0	38	104	0	61	17197
2026-01-19 01:42:20.40	11.78	10.17	-48.1	-63.8	4.0	7.45e-01	0	38	104	0	68	21099
2026-01-19 01:42:21.39	11.75	10.26	-44.1	-56.7	3.8	7.45e-01	0	38	104	0	60	14794
2026-01-19 01:42:22.39	11.72	10.35	-46.2	-60.4	3.8	7.44e-01	0	38	104	0	64	18053
2026-01-19 01:42:23.38	11.70	10.44	-44.0	-56.7	3.8	7.44e-01	0	38	104	0	60	14747
2026-01-19 01:42:24.38	11.67	10.54	-44.2	-56.8	3.8	7.45e-01	0	38	104	0	59	15854
2026-01-19 01:42:25.37	11.64	10.63	-44.1	-56.6	3.8	7.45e-01	0	38	104	0	59	15571
2026-01-19 01:42:26.37	11.61	10.73	-43.9	-56.4	3.8	7.46e-01	0	38	104	0	59	15172
2026-01-19 01:42:27.36	11.59	10.82	-44.2	-57.4	3.8	7.45e-01	0	38	104	0	60	16097
2026-01-19 01:42:28.36	11.56	10.92	-45.0	-57.9	3.8	7.47e-01	0	38	104	0	60	16995
2026-01-19 01:42:29.35	11.53	11.01	-48.4	-64.4	3.9	7.38e-01	0	38	104	0	68	22703
2026-01-19 01:42:30.35	11.50	11.11	-44.2	-56.7	3.8	7.47e-01	0	38	104	0	59	15669
2026-01-19 01:42:31.44	11.47	11.21	-45.9	-59.6	3.8	7.40e-01	0	38	104	0	63	17441
2026-01-19 01:42:32.32	11.44	11.30	-44.1	-56.8	3.8	7.49e-01	0	38	104	0	59	15787
2026-01-19 01:42:33.46	11.41	11.41	-44.0	-56.6	3.8	7.48e-01	0	38	104	0	59	15546
2026-01-19 01:42:34.31	11.38	11.49	-43.9	-56.4	3.8	7.46e-01	0	38	104	0	59	15117
2026-01-19 01:42:35.45	11.35	11.61	-43.7	-56.3	3.8	7.44e-01	0	38	104	0	59	14917
2026-01-19 01:42:36.31	11.32	11.69	-44.1	-57.3	3.8	7.44e-01	0	38	104	0	60	15822
2026-01-19 01:42:37.44	11.29	11.80	-45.8	-59.0	3.8	7.45e-01	0	38	104	0	62	17181
2026-01-19 01:42:38.29	11.26	11.89	-48.5	-65.2	3.9	7.46e-01	0	38	104	0	68	24911
2026-01-19 01:42:39.43	11.22	12.00	-44.1	-56.5	3.8	7.47e-01	0	38	104	0	59	15398
2026-01-19 01:42:40.28	11.20	12.09	-46.3	-60.4	3.9	7.43e-01	0	38	104	0	64	18005
2026-01-19 01:42:41.42	11.16	12.20	-44.2	-56.5	3.8	7.44e-01	0	38	104	0	59	15333
2026-01-19 01:42:42.28	11.13	12.29	-43.8	-56.1	3.8	7.47e-01	0	38	104	0	59	14664
2026-01-19 01:42:43.41	11.10	12.41	-43.7	-55.9	3.8	7.44e-01	0	39	104	0	59	14352
2026-01-19 01:42:44.27	11.07	12.50	-43.7	-55.9	3.8	7.46e-01	0	38	104	0	59	14334
2026-01-19 01:42:45.47	11.03	12.62	-43.7	-55.9	3.8	7.49e-01	0	38	104	0	59	14292
2026-01-19 01:42:46.32	11.00	12.71	-44.5	-57.3	3.8	7.45e-01	0	38	104	0	60	15814
2026-01-19 01:42:47.46	10.96	12.83	-47.1	-62.3	3.9	7.45e-01	0	38	104	0	66	19876
2026-01-19 01:42:48.31	10.93	12.92	-44.1	-56.5	3.9	7.45e-01	0	39	104	0	59	15267
2026-01-19 01:42:49.61	10.89	13.05	-43.8	-56.0	3.8	7.44e-01	0	39	104	0	59	14540
2026-01-19 01:42:50.32	10.87	13.13	-44.6	-57.4	3.8	7.46e-01	0	38	104	0	60	15990
2026-01-19 01:42:51.79	10.81	13.28	-44.7	-57.5	3.8	7.46e-01	0	38	104	0	60	16268
2026-01-19 01:42:52.50	10.79	13.36	-44.5	-57.2	3.8	7.47e-01	0	38	104	0	60	15680
2026-01-19 01:42:53.78	10.74	13.50	-44.2	-56.7	3.8	7.44e-01	0	38	104	0	60	14849
2026-01-19 01:42:54.51	10.72	13.57	-43.5	-55.7	3.8	7.43e-01	0	39	104	0	59	13964
2026-01-19 01:42:55.79	10.67	13.71	-47.8	-64.8	3.8	7.49e-01	0	38	104	0	66	26648
2026-01-19 01:42:56.51	10.65	13.79	-46.6	-61.6	3.9	7.44e-01	0	39	104	0	65	19610
2026-01-19 01:42:57.79	10.60	13.93	-45.6	-58.8	3.8	7.45e-01	0	39	104	0	61	17885
2026-01-19 01:42:58.50	10.57	14.01	-44.9	-57.7	3.8	7.42e-01	0	39	104	0	61	15598
2026-01-19 01:42:59.78	10.53	14.15	-44.1	-56.6	3.8	7.45e-01	0	39	104	0	59	15460
2026-01-19 01:43:00.51	10.50	14.23	-44.0	-56.6	3.8	7.46e-01	0	38	104	0	59	15503
2026-01-19 01:43:01.79	10.45	14.37	-43.6	-56.0	3.7	7.51e-01	0	38	104	0	59	14506
2026-01-19 01:43:02.58	10.42	14.46	-43.5	-55.7	3.7	7.49e-01	0	39	104	0	59	13961
2026-01-19 01:43:03.76	10.37	14.60	-43.1	-46.0	24.3	6.03e-01	0	39	0	1048576	58	4830
2026-01-19 01:43:04.79	10.33	14.71	-47.9	-56.5	14.8	6.08e-01	0	39	0	2621440	66	10211
2026-01-19 01:43:05.94	10.29	14.84	-44.6	-48.3	22.0	6.02e-01	0	39	0	4718592	61	5312
2026-01-19 01:43:06.81	10.25	14.94	-44.9	-48.6	22.0	6.05e-01	0	39	0	6815744	60	5820
2026-01-19 01:43:08.10	10.20	15.09	-43.1	-46.0	24.2	6.01e-01	0	39	0	8912896	58	4849
2026-01-19 01:43:08.81	10.17	15.17	-43.0	-45.9	24.3	6.03e-01	0	39	0	10485760	58	4811
2026-01-19 01:43:10.09	10.12	15.32	-42.8	-45.7	24.5	6.03e-01	0	39	0	12582912	57	4950
2026-01-19 01:43:10.82	10.09	15.41	-42.9	-45.7	24.5	6.01e-01	0	39	0	14155776	57	4983
2026-01-19 01:43:12.09	10.04	15.56	-42.9	-45.8	24.4	6.05e-01	0	39	0	16252928	57	5023
2026-01-19 01:43:12.82	10.01	15.64	-42.8	-45.7	24.5	6.06e-01	0	39	0	17825792	57	4955
2026-01-19 01:43:14.10	9.95	15.80	-42.9	-45.7	24.5	6.05e-01	0	39	0	20447232	57	4956
2026-01-19 01:43:14.83	9.92	15.88	-42.9	-45.8	24.5	6.04e-01	0	39	0	21495808	57	4993
2026-01-19 01:43:16.10	9.87	16.04	-42.8	-45.7	24.6	6.02e-01	0	39	0	24117248	57	4949
2026-01-19 01:43:16.91	9.83	16.13	-42.7	-45.6	24.7	6.04e-01	0	39	0	25690112	57	4905
2026-01-19 01:43:18.05	9.78	16.27	-42.8	-45.6	24.6	6.04e-01	0	39	0	27787264	57	4912
2026-01-19 01:43:18.90	9.74	16.38	-42.8	-45.6	24.6	6.03e-01	0	39	0	29360128	57	4902
2026-01-19 01:43:20.04	9.69	16.52	-42.7	-45.6	24.7	5.99e-01	0	39	0	31457280	57	4885
2026-01-19 01:43:20.89	9.65	16.62	-42.8	-45.7	24.6	6.02e-01	0	39	0	33030144	57	4944
2026-01-19 01:43:22.03	9.60	16.76	-42.7	-45.6	24.6	6.04e-01	0	39	0	35127296	57	4911
2026-01-19 01:43:22.88	9.56	16.87	-42.8	-45.7	24.6	6.03e-01	0	39	0	36700160	57	4947
2026-01-19 01:43:24.02	9.51	17.01	-42.8	-45.7	24.6	6.02e-01	0	39	0	38797312	57	4956
2026-01-19 01:43:24.87	9.47	17.12	-42.8	-45.7	24.5	6.00e-01	0	38	0	40370176	57	4958
2026-01-19 01:43:26.12	9.41	17.28	-42.9	-45.8	24.5	6.00e-01	0	39	0	42991616	57	4986
2026-01-19 01:43:26.97	9.37	17.38	-42.9	-45.8	24.5	6.02e-01	0	39	0	44564480	57	5015
2026-01-19 01:43:28.11	9.31	17.53	-42.9	-45.8	24.5	6.01e-01	0	39	0	46661632	57	4998
2026-01-19 01:43:28.97	9.27	17.64	-42.9	-45.7	24.6	6.04e-01	0	39	0	48234496	57	4975
2026-01-19 01:43:30.10	9.22	17.79	-43.0	-45.8	24.5	6.04e-01	0	39	0	50331648	57	5020
2026-01-19 01:43:30.99	9.17	17.90	-42.9	-45.7	24.6	6.02e-01	0	39	0	51904512	57	4956
2026-01-19 01:43:32.12	9.12	18.05	-43.0	-45.8	24.5	6.03e-01	0	39	0	54001664	57	4991
2026-01-19 01:43:32.98	9.07	18.17	-42.9	-45.7	24.6	6.01e-01	0	39	0	55574528	57	4970
2026-01-19 01:43:34.11	9.01	18.32	-43.0	-45.9	24.4	6.04e-01	0	39	0	57671680	57	5050
2026-01-19 01:43:34.96	8.97	18.43	-43.0	-45.7	24.6	6.04e-01	0	39	0	59244544	57	4976
2026-01-19 01:43:36.10	8.91	18.58	-43.0	-45.7	24.6	6.01e-01	0	39	0	61341696	57	4957
2026-01-19 01:43:36.95	8.87	18.70	-43.0	-45.7	24.5	6.05e-01	0	39	0	62914560	57	4983
2026-01-19 01:43:38.09	8.80	18.85	-43.0	-45.6	24.6	6.04e-01	0	39	0	65011712	57	4919
2026-01-19 01:43:38.94	8.76	18.97	-43.0	-45.6	24.7	6.03e-01	0	39	0	66584576	57	4912
2026-01-19 01:43:40.08	8.70	19.12	-43.0	-45.6	24.7	6.01e-01	0	39	0	69206016	57	4909
2026-01-19 01:43:40.93	8.65	19.24	-43.0	-45.6	24.7	6.05e-01	0	39	0	70778880	57	4902
2026-01-19 01:43:42.08	8.59	19.40	-43.0	-45.6	24.7	6.03e-01	0	39	0	72876032	57	4916
2026-01-19 01:43:42.93	8.54	19.52	-43.1	-45.7	24.6	6.06e-01	0	39	0	74448896	57	4964
2026-01-19 01:43:44.12	8.47	19.69	-43.0	-45.7	24.6	6.02e-01	0	39	0	76546048	57	4953
2026-01-19 01:43:44.97	8.42	19.81	-43.0	-45.7	24.7	6.02e-01	0	39	0	78118912	57	4935
2026-01-19 01:43:46.11	8.35	19.97	-43.1	-45.8	24.5	6.05e-01	0	39	0	80216064	57	5020
2026-01-19 01:43:46.96	8.31	20.09	-43.1	-45.8	24.6	6.04e-01	0	39	0	81788928	57	5000
2026-01-19 01:43:48.10	8.24	20.26	-43.0	-45.7	24.6	6.04e-01	0	39	0	83886080	57	4955
2026-01-19 01:43:48.95	8.19	20.38	-43.0	-45.7	24.6	6.03e-01	0	39	0	85458944	57	4975
2026-01-19 01:43:50.09	8.12	20.55	-43.0	-45.8	24.6	6.04e-01	0	39	0	87556096	57	5007
2026-01-19 01:43:51.00	8.06	20.68	-43.1	-45.9	24.5	6.03e-01	0	39	0	89653248	57	5060
2026-01-19 01:43:52.00	8.00	20.83	-43.1	-45.9	24.5	6.03e-01	0	39	0	91226112	57	5048
2026-01-19 01:43:52.99	7.94	20.97	-43.0	-45.8	24.6	6.03e-01	0	39	0	93323264	57	5019
2026-01-19 01:43:53.99	7.88	21.12	-43.0	-45.8	24.5	6.05e-01	0	39	0	94896128	57	5033
2026-01-19 01:43:54.98	7.81	21.27	-43.1	-45.9	24.5	6.03e-01	0	39	0	96993280	57	5045
2026-01-19 01:43:55.98	7.75	21.42	-42.9	-45.7	24.6	6.04e-01	0	39	0	98566144	57	4964
2026-01-19 01:43:56.97	7.68	21.57	-42.9	-45.7	24.7	6.07e-01	0	39	0	100663296	57	4956
2026-01-19 01:43:57.97	7.62	21.73	-43.0	-45.7	24.6	6.05e-01	0	39	0	102236160	57	4968
2026-01-19 01:43:58.96	7.55	21.88	-42.9	-45.6	24.7	6.04e-01	0	39	0	104333312	57	4919
2026-01-19 01:43:59.95	7.48	22.03	-42.9	-45.6	24.7	6.05e-01	0	39	0	106430464	57	4911
2026-01-19 01:44:00.93	7.42	22.19	-43.0	-45.7	24.6	6.03e-01	0	39	0	108003328	57	4979
2026-01-19 01:44:01.96	7.35	22.35	-43.0	-45.7	24.7	6.03e-01	0	39	0	110100480	57	4934
2026-01-19 01:44:02.95	7.28	22.51	-43.1	-45.7	24.7	6.04e-01	0	39	0	111673344	57	4949
2026-01-19 01:44:03.95	7.21	22.67	-43.2	-45.8	24.6	6.03e-01	0	39	0	113770496	57	5005
2026-01-19 01:44:04.94	7.14	22.82	-43.2	-45.8	24.6	6.03e-01	0	39	0	115343360	57	4989
2026-01-19 01:44:05.94	7.06	22.99	-43.2	-45.8	24.2	6.02e-01	0	39	0	117440512	57	5000
2026-01-19 01:44:06.93	6.99	23.15	-43.3	-45.8	24.5	6.02e-01	0	39	0	119537664	57	5035
2026-01-19 01:44:07.92	6.92	23.31	-43.2	-45.8	24.5	6.03e-01	0	39	0	121110528	57	5012
2026-01-19 01:44:08.92	6.85	23.47	-43.4	-46.0	24.3	6.02e-01	0	38	0	123207680	57	5106
2026-01-19 01:44:09.91	6.77	23.64	-43.5	-46.1	24.3	6.03e-01	0	39	0	124780544	57	5188
2026-01-19 01:44:10.91	6.69	23.80	-43.5	-46.2	24.3	6.02e-01	0	39	0	126877696	57	5246
2026-01-19 01:44:11.90	6.62	23.97	-43.5	-46.2	24.2	6.04e-01	0	39	0	128450560	57	5257
2026-01-19 01:44:12.89	6.54	24.14	-43.6	-46.3	24.1	6.04e-01	0	39	0	130547712	57	5329
2026-01-19 01:44:13.89	6.46	24.31	-43.5	-46.2	24.3	6.03e-01	0	39	0	132120576	57	5247
2026-01-19 01:44:14.89	6.38	24.48	-43.4	-46.1	24.3	6.05e-01	0	39	0	134217728	57	5173
2026-01-19 01:44:15.88	6.30	24.65	-43.5	-46.2	24.3	6.02e-01	0	39	0	136314880	57	5225
2026-01-19 01:44:16.88	6.22	24.82	-43.4	-45.9	24.4	6.03e-01	0	39	0	137887744	57	5096
2026-01-19 01:44:17.87	6.14	25.00	-43.4	-45.9	24.5	6.05e-01	0	39	0	139984896	57	5064
2026-01-19 01:44:18.88	6.05	25.17	-43.5	-46.0	24.4	6.03e-01	0	39	0	141557760	57	5142
2026-01-19 01:44:19.89	5.97	25.35	-43.5	-46.0	24.4	6.02e-01	0	39	0	143654912	57	5110
2026-01-19 01:44:20.93	5.88	25.54	-43.4	-45.8	24.6	6.02e-01	0	39	0	145752064	57	5033
2026-01-19 01:44:21.94	5.79	25.72	-43.4	-45.8	24.6	6.04e-01	0	39	0	147324928	57	5013
2026-01-19 01:44:22.95	5.70	25.90	-43.5	-45.9	24.5	6.02e-01	0	39	0	149422080	57	5057
2026-01-19 01:44:23.98	5.61	26.09	-43.4	-45.7	24.7	6.03e-01	0	39	0	151519232	57	4977
2026-01-19 01:44:24.99	5.52	26.28	-43.3	-45.7	24.7	6.04e-01	0	39	0	153092096	57	4936
2026-01-19 01:44:25.98	5.43	26.46	-43.4	-45.8	24.7	6.04e-01	0	39	0	155189248	57	4984
2026-01-19 01:44:26.98	5.33	26.65	-43.3	-45.7	24.8	6.03e-01	0	39	0	156762112	57	4927
2026-01-19 01:44:27.98	5.24	26.83	-43.2	-45.6	24.8	6.04e-01	0	39	0	158859264	57	4903
2026-01-19 01:44:28.97	5.15	27.02	-43.2	-45.6	24.8	6.03e-01	0	39	0	160432128	57	4882
2026-01-19 01:44:29.97	5.05	27.21	-43.2	-45.6	24.8	6.03e-01	0	39	0	162529280	57	4875
2026-01-19 01:44:30.96	4.95	27.40	-43.1	-45.5	24.9	6.02e-01	0	39	0	164102144	57	4856
2026-01-19 01:44:31.96	4.85	27.59	-43.2	-45.6	24.8	6.03e-01	0	39	0	166199296	57	4877
2026-01-19 01:44:32.95	4.76	27.78	-43.1	-45.5	23.6	6.03e-01	0	39	0	168296448	57	4850
2026-01-19 01:44:33.95	4.65	27.98	-43.1	-45.4	24.9	6.07e-01	0	39	0	169869312	57	4810
2026-01-19 01:44:34.94	4.55	28.18	-42.9	-45.3	25.1	6.03e-01	0	39	0	171966464	57	4716
2026-01-19 01:44:35.94	4.45	28.37	-43.0	-45.3	25.0	6.04e-01	0	39	0	173539328	57	4751
2026-01-19 01:44:36.93	4.34	28.57	-43.0	-45.3	25.1	6.02e-01	0	39	0	175636480	57	4730
2026-01-19 01:44:37.93	4.24	28.77	-42.9	-45.3	22.7	6.05e-01	0	39	0	177209344	57	4719
2026-01-19 01:44:38.92	4.13	28.97	-43.0	-45.4	25.0	6.01e-01	0	39	0	179306496	57	4765
2026-01-19 01:44:39.93	4.02	29.18	-42.9	-45.3	25.1	6.05e-01	0	39	0	181403648	57	4728
2026-01-19 01:44:40.96	3.90	29.39	-43.0	-45.3	25.1	6.05e-01	0	39	0	182976512	57	4741
2026-01-19 01:44:41.95	3.79	29.60	-42.9	-45.2	25.1	6.01e-01	0	39	0	185073664	57	4698
2026-01-19 01:44:42.95	3.68	29.81	-42.7	-45.0	25.4	6.05e-01	0	39	0	186646528	57	4563
2026-01-19 01:44:43.94	3.56	30.01	-42.6	-45.0	25.4	6.03e-01	0	39	0	188743680	57	4546
2026-01-19 01:44:44.94	3.44	30.22	-42.5	-44.8	25.5	6.03e-01	0	39	0	190840832	57	4486
2026-01-19 01:44:45.93	3.33	30.44	-42.7	-45.0	25.4	6.03e-01	0	39	0	192413696	57	4567
2026-01-19 01:44:46.93	3.21	30.65	-42.8	-45.1	25.2	6.02e-01	0	39	0	194510848	57	4647
2026-01-19 01:44:47.92	3.08	30.87	-42.8	-45.2	25.2	6.03e-01	0	39	0	196083712	57	4679
2026-01-19 01:44:48.91	2.96	31.08	-42.8	-45.2	25.1	6.05e-01	0	39	0	198180864	57	4689
2026-01-19 01:44:49.91	2.83	31.30	-42.8	-45.2	25.1	6.03e-01	0	39	0	199753728	57	4695
2026-01-19 01:44:50.90	2.71	31.52	-42.8	-45.2	25.1	6.05e-01	0	39	0	201850880	57	4679
2026-01-19 01:44:51.89	2.58	31.74	-42.7	-45.2	25.2	6.03e-01	0	39	0	203423744	57	4669
2026-01-19 01:44:52.89	2.45	31.96	-42.8	-45.3	25.1	6.01e-01	0	39	0	205520896	57	4717
2026-01-19 01:44:53.88	2.31	32.19	-42.8	-45.3	25.2	6.03e-01	0	39	0	207618048	57	4706
2026-01-19 01:44:54.88	2.18	32.42	-42.9	-45.4	25.0	6.03e-01	0	39	0	209190912	57	4803
2026-01-19 01:44:55.87	2.04	32.64	-42.9	-45.4	25.0	6.05e-01	0	39	0	211288064	57	4777
2026-01-19 01:44:56.93	1.89	32.89	-42.8	-45.2	25.2	6.03e-01	0	39	0	212860928	57	4672
2026-01-19 01:44:57.81	1.77	33.09	-42.7	-45.1	25.3	6.04e-01	0	39	0	214433792	57	4608
2026-01-19 01:44:59.14	1.58	33.41	-42.8	-45.2	25.2	6.04e-01	0	39	0	217055232	57	4661
2026-01-19 01:45:00.26	1.41	33.67	-43.0	-45.3	25.1	6.02e-01	0	39	0	219152384	57	4745
2026-01-19 01:45:01.12	1.28	33.88	-43.1	-45.5	25.0	6.02e-01	0	39	0	220725248	57	4825
2026-01-19 01:45:02.25	1.11	34.15	-43.4	-45.8	24.7	6.04e-01	0	39	0	222822400	57	5021
2026-01-19 01:45:03.10	0.98	34.35	-43.5	-46.0	24.5	6.02e-01	0	39	0	224395264	57	5130
2026-01-19 01:45:04.32	0.79	34.65	-43.6	-46.1	24.4	6.04e-01	0	39	0	227016704	57	5195
2026-01-19 01:45:05.18	0.65	34.86	-43.7	-46.2	24.3	6.03e-01	0	39	0	228589568	58	4972
2026-01-19 01:45:06.31	0.47	35.14	-43.7	-46.2	24.4	6.04e-01	0	39	0	230686720	58	4943
2026-01-19 01:45:07.17	0.33	35.36	-43.5	-46.0	24.5	6.01e-01	0	39	0	232259584	58	4838
2026-01-19 01:45:08.30	0.14	35.64	-43.6	-46.1	24.5	6.02e-01	0	39	0	234356736	58	4873
2026-01-19 01:45:09.16	360.00	35.86	-43.7	-46.2	24.3	6.02e-01	0	39	0	235929600	58	4969
2026-01-19 01:45:10.47	359.77	36.19	-44.3	-47.1	23.6	6.04e-01	0	39	0	238551040	59	5172
2026-01-19 01:45:11.18	359.65	36.38	-44.6	-47.5	23.2	6.02e-01	0	39	0	239599616	59	5407
2026-01-19 01:45:12.46	359.42	36.71	-44.5	-47.5	23.1	6.03e-01	0	39	0	242221056	59	5427
2026-01-19 01:45:13.17	359.29	36.89	-44.3	-47.2	23.4	6.05e-01	0	39	0	243269632	59	5275
2026-01-19 01:45:14.45	359.05	37.23	-44.0	-46.8	23.7	6.04e-01	0	39	0	245891072	59	5034
2026-01-19 01:45:15.16	358.92	37.42	-44.1	-46.9	23.7	6.04e-01	0	39	0	247463936	59	5058
2026-01-19 01:45:16.44	358.67	37.76	-44.5	-47.4	23.2	6.04e-01	0	39	0	249561088	59	5386
2026-01-19 01:45:17.16	358.53	37.95	-44.7	-47.6	23.0	6.02e-01	0	39	0	251133952	59	5512
2026-01-19 01:45:18.44	358.28	38.30	-44.8	-47.6	22.9	6.03e-01	0	39	0	253231104	60	5211
2026-01-19 01:45:19.15	358.14	38.49	-44.8	-47.6	22.9	6.04e-01	0	39	0	254803968	60	5202
2026-01-19 01:45:20.46	357.87	38.85	-44.9	-47.5	23.0	6.04e-01	0	39	0	256901120	60	5153
2026-01-19 01:45:21.17	357.72	39.04	-44.8	-47.5	23.1	6.02e-01	0	39	0	258473984	60	5114
2026-01-19 01:45:22.45	357.45	39.40	-44.6	-47.2	23.3	6.03e-01	0	39	0	261095424	60	4963
2026-01-19 01:45:23.18	357.30	39.60	-44.7	-47.3	23.2	6.05e-01	0	39	0	262144000	60	5030
2026-01-19 01:45:24.45	357.02	39.96	-44.9	-47.7	22.9	6.05e-01	0	39	0	264765440	60	5260
2026-01-19 01:45:25.17	356.86	40.17	-44.9	-47.7	22.9	6.02e-01	0	39	0	265814016	60	5238
2026-01-19 01:45:26.44	356.57	40.53	-44.7	-47.4	23.2	6.05e-01	0	39	0	268435456	60	5069
2026-01-19 01:45:27.17	356.40	40.74	-44.7	-47.3	23.2	6.04e-01	0	39	0	269484032	60	5028
2026-01-19 01:45:28.45	356.10	41.11	-44.5	-47.2	23.3	6.04e-01	0	39	0	272105472	60	4972
2026-01-19 01:45:29.18	355.92	41.32	-44.3	-47.0	23.5	6.03e-01	0	39	0	273678336	60	4867
2026-01-19 01:45:30.75	355.54	41.78	-44.3	-47.1	23.4	6.05e-01	0	39	0	276299776	60	4907
2026-01-19 01:45:31.38	355.38	41.97	-44.2	-47.0	23.6	6.04e-01	0	39	0	277872640	60	4819
2026-01-19 01:45:32.91	354.99	42.43	-44.2	-46.8	23.7	6.04e-01	0	39	0	280494080	60	4743
2026-01-19 01:45:33.62	354.80	42.64	-44.2	-46.8	23.7	6.05e-01	0	39	0	282066944	60	4748
2026-01-19 01:45:34.90	354.46	43.02	-43.9	-46.4	24.1	6.04e-01	0	39	0	284164096	59	4790
2026-01-19 01:45:35.62	354.26	43.24	-43.8	-46.3	24.2	6.04e-01	0	39	0	285736960	59	4729
2026-01-19 01:45:36.90	353.91	43.63	-44.0	-46.5	24.1	6.03e-01	0	39	0	287834112	59	4860
2026-01-19 01:45:37.62	353.71	43.85	-44.0	-46.5	24.1	6.03e-01	0	39	0	289406976	59	4867
2026-01-19 01:45:38.90	353.34	44.25	-43.7	-46.2	24.4	6.04e-01	0	39	0	291504128	59	4669
2026-01-19 01:45:39.61	353.13	44.47	-43.5	-46.0	24.5	6.03e-01	0	39	0	293076992	59	4594
2026-01-19 01:45:41.05	352.69	44.92	-44.0	-46.7	23.9	6.05e-01	0	39	0	295698432	59	4949
2026-01-19 01:45:41.76	352.48	45.14	-43.9	-46.6	24.0	6.05e-01	0	39	0	297271296	59	4878
2026-01-19 01:45:43.12	352.05	45.57	-43.5	-46.0	24.5	6.02e-01	0	39	0	299368448	58	4857
2026-01-19 01:45:43.83	351.82	45.80	-43.6	-46.1	24.4	6.03e-01	0	39	0	300941312	58	4903
2026-01-19 01:45:45.11	351.40	46.21	-44.2	-46.8	23.9	6.04e-01	0	39	0	303562752	59	5020
2026-01-19 01:45:45.82	351.17	46.44	-44.2	-46.8	23.9	6.02e-01	0	39	0	304611328	59	4996
2026-01-19 01:45:47.26	350.67	46.90	-43.9	-46.4	24.2	6.04e-01	0	39	0	307232768	59	4788
2026-01-19 01:45:47.97	350.43	47.13	-43.9	-46.3	24.2	6.04e-01	0	39	0	308805632	59	4759
2026-01-19 01:45:49.25	349.97	47.55	-43.8	-46.2	24.4	6.03e-01	0	39	0	310902784	59	4682
2026-01-19 01:45:49.98	349.70	47.79	-44.0	-46.5	24.1	6.02e-01	0	39	0	312475648	59	4838
2026-01-19 01:45:51.25	349.23	48.20	-43.9	-46.4	24.2	6.03e-01	0	39	0	315097088	59	4785
2026-01-19 01:45:51.98	348.95	48.44	-43.8	-46.3	24.3	6.01e-01	0	39	0	316145664	59	4734
2026-01-19 01:45:53.26	348.45	48.87	-43.9	-46.5	24.1	6.05e-01	0	39	0	318767104	59	4841
2026-01-19 01:45:53.97	348.17	49.10	-43.7	-46.3	24.3	6.04e-01	0	39	0	319815680	59	4707
2026-01-19 01:45:55.25	347.65	49.53	-44.0	-46.6	24.0	6.03e-01	0	39	0	322437120	59	4902
2026-01-19 01:45:55.96	347.36	49.77	-44.2	-46.8	23.8	6.03e-01	0	39	0	323485696	59	5029
2026-01-19 01:45:57.24	346.81	50.20	-43.7	-46.2	24.4	6.05e-01	0	39	0	326107136	59	4655
2026-01-19 01:45:57.95	346.50	50.44	-43.7	-46.1	22.5	6.04e-01	0	39	0	327680000	59	4639
2026-01-19 01:45:59.23	345.93	50.87	-43.4	-45.7	24.8	6.04e-01	0	39	0	329777152	58	4704
2026-01-19 01:45:59.96	345.60	51.11	-43.4	-45.7	24.8	6.06e-01	0	39	0	331350016	58	4705
2026-01-19 01:46:01.23	345.01	51.54	-43.3	-45.7	24.8	6.03e-01	0	39	0	333447168	58	4657
2026-01-19 01:46:02.10	344.59	51.84	-43.3	-45.7	24.8	6.04e-01	0	39	0	335020032	58	4652
2026-01-19 01:46:03.24	344.04	52.22	-43.2	-45.6	24.9	6.04e-01	0	39	0	337641472	58	4608
2026-01-19 01:46:04.09	343.61	52.51	-42.8	-45.1	25.3	6.02e-01	0	39	0	339214336	57	4622
2026-01-19 01:46:05.23	343.03	52.90	-43.0	-45.3	25.2	6.03e-01	0	39	0	341311488	57	4748
2026-01-19 01:46:06.08	342.58	53.19	-43.3	-45.7	24.8	6.05e-01	0	39	0	342884352	57	4927
2026-01-19 01:46:07.22	341.97	53.58	-43.1	-45.4	25.0	6.04e-01	0	39	0	344981504	57	4799
2026-01-19 01:46:08.07	341.50	53.86	-43.3	-45.6	24.9	6.00e-01	0	39	0	346554368	57	4912
2026-01-19 01:46:09.21	340.86	54.25	-42.9	-45.2	25.2	6.03e-01	0	39	0	348651520	57	4705
2026-01-19 01:46:10.06	340.37	54.54	-43.2	-45.5	25.0	6.04e-01	0	39	0	350224384	57	4853
2026-01-19 01:46:11.20	339.70	54.92	-42.8	-45.1	25.3	6.04e-01	0	39	0	352321536	57	4613
2026-01-19 01:46:12.05	339.19	55.21	-42.9	-45.2	25.3	6.03e-01	0	39	0	353894400	57	4666
2026-01-19 01:46:13.19	338.48	55.59	-43.1	-45.5	25.0	6.03e-01	0	39	0	355991552	57	4849
2026-01-19 01:46:14.05	337.94	55.88	-43.1	-45.5	25.0	6.04e-01	0	39	0	357564416	57	4857
2026-01-19 01:46:15.18	337.20	56.26	-43.2	-45.6	24.9	6.03e-01	0	39	0	359661568	57	4908
2026-01-19 01:46:16.22	336.51	56.60	-43.2	-45.7	24.9	6.04e-01	0	39	0	361758720	57	4934
2026-01-19 01:46:17.39	335.71	56.99	-43.5	-46.0	24.5	6.04e-01	0	39	0	363855872	57	5135
2026-01-19 01:46:18.25	335.10	57.27	-43.5	-46.0	24.4	6.05e-01	0	39	0	365428736	57	5157
2026-01-19 01:46:19.38	334.29	57.64	-43.6	-46.2	24.3	6.04e-01	0	39	0	367525888	57	5222
2026-01-19 01:46:20.23	333.66	57.91	-43.7	-46.2	24.3	6.05e-01	0	39	0	369098752	58	4976
2026-01-19 01:46:21.37	332.80	58.28	-44.0	-46.5	24.1	6.05e-01	0	39	0	371195904	58	5129
2026-01-19 01:46:22.22	332.15	58.55	-44.1	-46.8	23.9	6.03e-01	0	39	0	372768768	58	5318
2026-01-19 01:46:23.36	331.25	58.90	-43.9	-46.5	24.1	6.04e-01	0	39	0	374865920	58	5143
2026-01-19 01:46:24.21	330.56	59.17	-44.0	-46.6	24.1	6.04e-01	0	39	0	376438784	58	5169
2026-01-19 01:46:25.35	329.61	59.52	-44.0	-46.5	24.1	6.02e-01	0	39	0	379060224	59	4850
2026-01-19 01:46:26.20	328.89	59.77	-44.3	-46.9	23.8	6.03e-01	0	39	0	380633088	59	5078
2026-01-19 01:46:27.34	327.90	60.11	-43.8	-46.4	24.1	6.03e-01	0	39	0	382730240	59	4760
2026-01-19 01:46:28.19	327.14	60.36	-44.2	-46.9	23.8	6.04e-01	0	39	0	384303104	59	5077
2026-01-19 01:46:29.32	326.11	60.69	-44.4	-47.1	23.6	6.04e-01	0	39	0	386400256	59	5163
2026-01-19 01:46:30.18	325.31	60.94	-44.6	-47.1	23.5	6.01e-01	0	39	0	387973120	59	5214
2026-01-19 01:46:31.41	324.13	61.28	-44.5	-47.1	23.6	6.03e-01	0	39	0	390070272	59	5163
2026-01-19 01:46:32.26	323.30	61.51	-44.9	-47.7	22.9	6.04e-01	0	39	0	391643136	60	5241
2026-01-19 01:46:33.39	322.18	61.81	-44.3	-47.0	23.6	6.02e-01	0	39	0	393740288	60	4836
2026-01-19 01:46:34.25	321.30	62.03	-44.4	-47.2	23.4	6.03e-01	0	39	0	395313152	60	4959
2026-01-19 01:46:35.38	320.12	62.32	-44.5	-47.2	23.4	6.03e-01	0	39	0	397934592	60	4942
2026-01-19 01:46:36.24	319.21	62.53	-45.0	-47.8	22.8	6.02e-01	0	39	0	399507456	60	5308
2026-01-19 01:46:37.37	317.98	62.80	-44.8	-47.4	23.2	6.04e-01	0	39	0	401604608	60	5073
2026-01-19 01:46:38.23	317.03	62.99	-44.6	-47.2	23.4	6.04e-01	0	39	0	403177472	60	4953
2026-01-19 01:46:39.36	315.76	63.24	-45.1	-47.9	22.8	6.02e-01	0	39	0	405274624	60	5358
2026-01-19 01:46:40.22	314.77	63.43	-45.0	-47.7	22.8	6.04e-01	0	39	0	406847488	60	5278
2026-01-19 01:46:41.35	313.45	63.66	-45.2	-48.0	22.6	6.03e-01	0	39	0	408944640	61	5122
2026-01-19 01:46:42.41	312.19	63.86	-45.4	-48.2	22.5	6.02e-01	0	39	0	411041792	61	5251
2026-01-19 01:46:43.28	311.14	64.02	-45.8	-48.7	21.9	6.02e-01	0	39	0	412614656	62	5260
2026-01-19 01:46:44.42	309.74	64.22	-45.4	-48.1	22.5	6.05e-01	0	39	0	414711808	62	4914
2026-01-19 01:46:45.27	308.68	64.36	-45.8	-48.7	22.0	6.05e-01	0	39	0	416284672	62	5272
2026-01-19 01:46:46.41	307.23	64.54	-46.0	-49.0	21.7	6.03e-01	0	39	0	418381824	63	5108
2026-01-19 01:46:47.27	306.13	64.66	-45.8	-48.7	22.0	6.03e-01	0	39	0	419954688	63	4951
2026-01-19 01:46:48.40	304.67	64.81	-46.1	-49.1	21.6	6.04e-01	0	39	0	422051840	63	5207
2026-01-19 01:46:49.25	303.55	64.91	-46.2	-49.3	21.5	6.03e-01	0	39	0	423624704	63	5310
2026-01-19 01:46:50.39	302.04	65.03	-45.9	-49.0	21.7	6.05e-01	0	39	0	425721856	63	5103
2026-01-19 01:46:51.24	300.91	65.11	-46.0	-49.0	21.7	6.04e-01	0	39	0	427294720	63	5132
2026-01-19 01:46:52.47	299.25	65.22	-46.4	-49.6	21.2	6.03e-01	0	39	0	429916160	63	5487
2026-01-19 01:46:53.33	298.08	65.28	-46.5	-49.7	21.0	6.04e-01	0	39	0	431489024	63	5576
2026-01-19 01:46:54.47	296.52	65.34	-46.2	-49.2	21.6	6.04e-01	0	39	0	433586176	63	5245
2026-01-19 01:46:55.32	295.36	65.38	-46.6	-49.8	20.9	6.02e-01	0	39	0	435159040	64	5316
2026-01-19 01:46:56.46	293.79	65.42	-46.5	-49.7	21.0	6.04e-01	0	39	0	437256192	64	5219
2026-01-19 01:46:57.31	292.61	65.44	-46.8	-50.2	20.5	6.04e-01	0	39	0	438829056	64	5590
2026-01-19 01:46:58.45	291.04	65.45	-46.6	-50.0	20.7	6.02e-01	0	39	0	440926208	64	5425
2026-01-19 01:46:59.30	289.86	65.44	-46.3	-49.7	20.9	6.04e-01	0	39	0	442499072	64	5225
2026-01-19 01:47:00.43	288.30	65.42	-46.6	-50.0	20.7	6.06e-01	0	39	0	444596224	64	5461
2026-01-19 01:47:01.29	287.12	65.39	-46.8	-50.4	20.2	6.05e-01	0	39	0	446169088	64	5717
2026-01-19 01:47:02.43	285.55	65.34	-46.6	-49.9	20.8	6.06e-01	0	39	0	448266240	65	5090
2026-01-19 01:47:03.28	284.39	65.30	-46.8	-50.2	20.6	6.04e-01	0	39	0	449839104	65	5221
2026-01-19 01:47:04.42	282.84	65.22	-46.5	-49.7	20.8	6.02e-01	0	39	0	451936256	65	4982
2026-01-19 01:47:05.27	281.69	65.15	-46.9	-50.3	20.5	6.01e-01	0	39	0	453509120	64	5638
2026-01-19 01:47:06.41	280.16	65.04	-46.3	-49.4	21.3	6.00e-01	0	39	0	455606272	64	5072
2026-01-19 01:47:07.26	279.04	64.95	-46.4	-49.7	20.9	6.02e-01	0	39	0	457179136	64	5255
2026-01-19 01:47:08.41	277.52	64.82	-46.4	-49.8	20.9	6.04e-01	0	39	0	459800576	64	5297
2026-01-19 01:47:09.26	276.42	64.71	-46.4	-49.7	21.1	6.04e-01	0	39	0	461373440	64	5220
2026-01-19 01:47:10.40	274.95	64.55	-46.4	-49.7	20.9	6.04e-01	0	39	0	463470592	64	5269
2026-01-19 01:47:11.25	273.87	64.42	-46.5	-50.0	20.6	6.04e-01	0	39	0	465043456	64	5408
2026-01-19 01:47:12.52	272.29	64.21	-46.6	-50.0	20.7	6.01e-01	0	39	0	467140608	64	5432
2026-01-19 01:47:13.28	271.35	64.08	-46.5	-49.8	20.9	6.03e-01	0	39	0	468713472	64	5308
2026-01-19 01:47:14.56	269.80	63.85	-46.6	-49.8	20.8	6.04e-01	0	39	0	471334912	64	5315
2026-01-19 01:47:15.28	268.94	63.71	-46.4	-49.7	21.0	6.03e-01	0	39	0	472383488	64	5235
2026-01-19 01:47:16.56	267.44	63.45	-46.4	-49.6	21.0	6.04e-01	0	39	0	475004928	64	5193
2026-01-19 01:47:17.27	266.62	63.30	-46.4	-49.5	21.1	6.04e-01	0	39	0	476053504	64	5154
2026-01-19 01:47:18.55	265.17	63.01	-46.0	-49.1	21.7	6.02e-01	0	39	0	478674944	63	5173
2026-01-19 01:47:19.27	264.37	62.85	-45.7	-48.7	22.0	6.05e-01	0	39	0	479723520	63	4957
2026-01-19 01:47:20.55	262.97	62.55	-45.9	-49.0	21.8	6.02e-01	0	39	0	482344960	62	5415
2026-01-19 01:47:21.29	262.18	62.37	-46.1	-49.2	21.6	6.03e-01	0	39	0	483917824	63	5256
2026-01-19 01:47:22.57	260.85	62.04	-45.0	-47.8	22.8	6.04e-01	0	39	0	486014976	62	4744
2026-01-19 01:47:23.28	260.12	61.86	-45.1	-48.1	22.6	6.04e-01	0	39	0	487587840	61	5174
2026-01-19 01:47:24.56	258.84	61.52	-45.7	-49.0	21.7	6.04e-01	0	39	0	489684992	61	5778
2026-01-19 01:47:25.27	258.14	61.33	-45.1	-48.0	22.6	6.04e-01	0	39	0	491257856	61	5128
2026-01-19 01:47:26.55	256.91	60.97	-45.5	-48.4	22.2	6.02e-01	0	39	0	493355008	61	5397
2026-01-19 01:47:27.27	256.24	60.77	-45.4	-48.3	22.3	6.03e-01	0	39	0	494927872	61	5335
2026-01-19 01:47:28.65	254.97	60.37	-45.4	-48.3	22.3	6.04e-01	0	39	0	497549312	61	5286
2026-01-19 01:47:29.36	254.34	60.16	-45.2	-47.9	22.7	6.05e-01	0	39	0	498597888	61	5089
2026-01-19 01:47:30.63	253.23	59.78	-45.6	-48.5	22.2	6.03e-01	0	39	0	501219328	61	5443
2026-01-19 01:47:31.68	252.34	59.46	-45.3	-48.3	22.4	6.02e-01	0	39	0	503316480	61	5280
2026-01-19 01:47:32.64	251.54	59.16	-44.8	-47.5	23.0	6.03e-01	0	39	0	504889344	61	4856
2026-01-19 01:47:33.63	250.74	58.86	-44.5	-47.1	23.5	6.04e-01	0	39	0	506986496	61	4626
2026-01-19 01:47:34.63	249.94	58.54	-44.6	-47.2	23.4	6.04e-01	0	39	0	508559360	60	4947
2026-01-19 01:47:35.62	249.18	58.23	-44.8	-47.4	23.1	6.01e-01	0	39	0	510656512	60	5079
2026-01-19 01:47:36.62	248.42	57.90	-44.0	-46.5	24.0	6.04e-01	0	39	0	512229376	60	4560
2026-01-19 01:47:37.61	247.69	57.58	-44.1	-46.6	23.9	6.03e-01	0	39	0	514326528	59	4902
2026-01-19 01:47:38.64	246.95	57.25	-44.2	-46.7	24.0	6.03e-01	0	39	0	516423680	59	4927
2026-01-19 01:47:39.68	246.22	56.91	-44.2	-46.7	23.9	6.03e-01	0	39	0	517996544	59	4940
2026-01-19 01:47:40.71	245.52	56.57	-43.9	-46.3	24.2	6.05e-01	0	39	0	520093696	59	4758
2026-01-19 01:47:41.75	244.82	56.22	-43.6	-45.9	24.6	6.05e-01	0	39	0	522190848	59	4544
2026-01-19 01:47:42.74	244.18	55.89	-43.8	-46.3	24.3	6.03e-01	0	39	0	523763712	59	4709
2026-01-19 01:47:43.73	243.55	55.56	-43.6	-46.1	24.4	6.03e-01	0	39	0	525860864	59	4619
2026-01-19 01:47:44.84	242.86	55.18	-43.3	-45.6	24.8	6.04e-01	0	39	0	527958016	58	4643
2026-01-19 01:47:45.71	242.34	54.89	-43.2	-45.5	24.9	6.03e-01	0	39	0	529530880	58	4583
2026-01-19 01:47:47.02	241.57	54.44	-43.2	-45.5	25.0	6.03e-01	0	39	0	532152320	58	4574
2026-01-19 01:47:47.73	241.16	54.20	-43.4	-45.8	24.7	6.03e-01	0	39	0	533200896	58	4722
2026-01-19 01:47:48.99	240.45	53.77	-43.1	-45.4	25.1	6.05e-01	0	39	0	535822336	58	4496
2026-01-19 01:47:49.78	240.02	53.51	-42.9	-45.2	25.2	6.03e-01	0	39	0	537395200	57	4696
2026-01-19 01:47:51.21	239.25	53.02	-42.6	-44.9	25.5	6.03e-01	0	39	0	540016640	57	4510
2026-01-19 01:47:51.92	238.88	52.78	-42.6	-44.9	25.6	6.03e-01	0	39	0	541065216	57	4499
2026-01-19 01:47:53.20	238.23	52.34	-42.9	-45.3	25.1	6.07e-01	0	39	0	543686656	57	4720
2026-01-19 01:47:53.91	237.88	52.10	-43.0	-45.4	25.1	6.06e-01	0	39	0	544735232	57	4760
2026-01-19 01:47:55.20	237.25	51.66	-42.6	-44.8	25.5	6.04e-01	0	39	0	547356672	57	4492
2026-01-19 01:47:55.92	236.91	51.42	-42.6	-44.9	25.5	6.03e-01	0	39	0	548929536	57	4522
2026-01-19 01:47:57.20	236.32	50.98	-42.6	-44.8	25.6	6.05e-01	0	39	0	551026688	57	4481
2026-01-19 01:47:57.99	235.96	50.71	-43.1	-45.4	25.0	6.06e-01	0	39	0	552599552	57	4800
2026-01-19 01:47:59.17	235.44	50.32	-43.2	-45.6	24.7	6.03e-01	0	39	0	554696704	57	4891
2026-01-19 01:48:00.02	235.07	50.03	-43.0	-45.3	25.2	6.02e-01	0	39	0	556269568	57	4716
2026-01-19 01:48:01.16	234.59	49.65	-42.9	-45.2	25.2	6.02e-01	0	39	0	558366720	57	4687
2026-01-19 01:48:02.02	234.23	49.36	-43.3	-45.6	24.9	6.05e-01	0	39	0	559939584	57	4898
2026-01-19 01:48:03.15	233.77	48.98	-43.4	-45.8	24.7	6.05e-01	0	39	0	562036736	57	5025
2026-01-19 01:48:04.00	233.44	48.70	-43.2	-45.5	24.9	6.05e-01	0	39	0	563609600	57	4838
2026-01-19 01:48:05.14	233.00	48.32	-43.4	-45.8	24.7	6.03e-01	0	39	0	565706752	57	5017
2026-01-19 01:48:05.99	232.67	48.04	-43.2	-45.5	24.5	6.04e-01	0	39	0	567803904	57	4845
2026-01-19 01:48:07.13	232.25	47.66	-43.0	-45.2	25.2	6.03e-01	0	39	0	569901056	57	4695
2026-01-19 01:48:07.98	231.94	47.38	-43.2	-45.5	24.9	6.03e-01	0	39	0	571473920	57	4854
2026-01-19 01:48:09.12	231.54	47.01	-43.3	-45.6	24.9	6.04e-01	0	39	0	573571072	57	4886
2026-01-19 01:48:09.97	231.24	46.74	-43.5	-45.9	24.6	6.03e-01	0	39	0	575143936	57	5084
2026-01-19 01:48:11.11	230.85	46.37	-43.5	-45.9	24.5	6.03e-01	0	39	0	577241088	57	5071
2026-01-19 01:48:11.96	230.57	46.09	-43.4	-45.8	24.6	6.01e-01	0	39	0	578813952	57	5038
2026-01-19 01:48:13.10	230.20	45.73	-43.0	-45.3	25.0	6.03e-01	0	39	0	580911104	57	4757
2026-01-19 01:48:14.09	229.88	45.41	-42.7	-45.1	25.3	6.05e-01	0	39	0	583008256	57	4608
2026-01-19 01:48:15.26	229.51	45.04	-43.1	-45.6	24.9	6.03e-01	0	39	0	585105408	57	4887
2026-01-19 01:48:16.11	229.25	44.77	-43.4	-45.9	24.6	6.03e-01	0	39	0	586678272	57	5069
2026-01-19 01:48:17.25	228.91	44.42	-43.5	-46.0	24.6	6.04e-01	0	39	0	588775424	57	5119
2026-01-19 01:48:18.10	228.66	44.15	-43.6	-46.0	24.5	6.02e-01	0	39	0	590348288	57	5123
2026-01-19 01:48:19.24	228.33	43.80	-43.3	-45.7	24.7	6.03e-01	0	39	0	592445440	57	4948
2026-01-19 01:48:20.09	228.09	43.54	-43.3	-45.6	24.8	6.03e-01	0	39	0	594018304	57	4921
2026-01-19 01:48:21.23	227.78	43.19	-43.4	-45.8	24.7	6.04e-01	0	39	0	596115456	57	4985
2026-01-19 01:48:22.08	227.54	42.93	-43.3	-45.7	24.8	6.03e-01	0	39	0	597688320	57	4942
2026-01-19 01:48:23.58	227.15	42.47	-43.8	-46.2	24.4	6.05e-01	0	39	0	600309760	58	4966
2026-01-19 01:48:24.29	226.96	42.26	-44.0	-46.4	24.1	6.05e-01	0	39	0	601882624	58	5098
2026-01-19 01:48:25.57	226.63	41.88	-44.1	-46.7	23.9	6.05e-01	0	39	0	604504064	58	5226
2026-01-19 01:48:26.28	226.46	41.67	-44.2	-46.8	23.8	6.03e-01	0	39	0	605552640	59	4988
2026-01-19 01:48:27.83	226.07	41.21	-44.3	-46.8	23.7	6.03e-01	0	39	0	608698368	59	5023
2026-01-19 01:48:28.54	225.90	41.00	-44.3	-46.8	23.7	6.03e-01	0	39	0	609746944	59	5019
2026-01-19 01:48:29.82	225.60	40.63	-44.2	-46.7	23.8	6.01e-01	0	39	0	612368384	59	4972
2026-01-19 01:48:30.54	225.44	40.43	-44.3	-46.9	23.7	6.04e-01	0	39	0	613416960	59	5042
2026-01-19 01:48:31.82	225.14	40.06	-44.6	-47.2	23.5	6.04e-01	0	39	0	616038400	59	5219
2026-01-19 01:48:32.55	224.98	39.85	-44.7	-47.3	23.3	6.06e-01	0	39	0	617086976	59	5305
2026-01-19 01:48:33.83	224.70	39.49	-44.6	-47.2	23.3	6.02e-01	0	39	0	619708416	60	4951
2026-01-19 01:48:34.54	224.55	39.29	-44.7	-47.3	23.2	6.04e-01	0	39	0	621281280	60	5017
2026-01-19 01:48:35.83	224.27	38.93	-44.7	-47.4	23.2	6.02e-01	0	39	0	623378432	60	5065
2026-01-19 01:48:36.54	224.13	38.73	-44.7	-47.4	23.1	6.02e-01	0	39	0	624951296	60	5060
2026-01-19 01:48:37.82	223.86	38.38	-44.6	-47.3	23.2	6.03e-01	0	39	0	627048448	60	5026
2026-01-19 01:48:38.53	223.72	38.19	-44.6	-47.2	23.2	6.03e-01	0	39	0	628621312	60	4976
2026-01-19 01:48:39.81	223.47	37.84	-44.6	-47.2	23.3	6.04e-01	0	39	0	631242752	60	4983
2026-01-19 01:48:40.66	223.30	37.61	-44.7	-47.4	23.2	6.03e-01	0	39	0	632815616	60	5051
2026-01-19 01:48:41.80	223.09	37.31	-44.9	-47.7	22.9	6.02e-01	0	39	0	634912768	60	5229
2026-01-19 01:48:42.66	222.92	37.08	-44.8	-47.6	23.0	6.03e-01	0	39	0	636485632	60	5167
2026-01-19 01:48:43.79	222.72	36.78	-44.9	-47.6	22.9	6.03e-01	0	39	0	638582784	60	5205
2026-01-19 01:48:44.64	222.56	36.56	-44.7	-47.4	23.1	6.05e-01	0	39	0	640155648	60	5064
2026-01-19 01:48:45.78	222.36	36.26	-44.6	-47.2	23.3	6.03e-01	0	39	0	642252800	60	4974
2026-01-19 01:48:46.63	222.21	36.05	-44.5	-47.2	23.3	6.03e-01	0	39	0	643825664	60	4939
2026-01-19 01:48:47.77	222.01	35.75	-44.3	-46.9	23.5	6.04e-01	0	39	0	645922816	60	4779
2026-01-19 01:48:48.62	221.87	35.54	-44.3	-46.8	23.7	6.03e-01	0	39	0	647495680	60	4736
2026-01-19 01:48:49.76	221.68	35.25	-44.3	-46.8	23.6	6.05e-01	0	39	0	649592832	60	4752
2026-01-19 01:48:50.69	221.52	35.02	-44.0	-46.5	23.9	6.04e-01	0	39	0	651165696	60	4584
2026-01-19 01:48:51.86	221.34	34.73	-44.0	-46.5	24.0	6.04e-01	0	39	0	653787136	59	4821
2026-01-19 01:48:52.72	221.20	34.52	-43.8	-46.3	24.2	6.03e-01	0	39	0	655360000	59	4709
2026-01-19 01:48:54.02	221.00	34.20	-43.9	-46.4	24.2	6.02e-01	0	39	0	657457152	59	4782
2026-01-19 01:48:54.73	220.89	34.02	-43.9	-46.4	24.2	6.05e-01	0	39	0	659030016	59	4787
2026-01-19 01:48:56.23	220.66	33.66	-43.9	-46.4	24.1	6.04e-01	0	39	0	661651456	59	4774
2026-01-19 01:48:56.94	220.55	33.49	-43.7	-46.2	24.3	6.04e-01	0	39	0	663224320	59	4688
2026-01-19 01:48:58.22	220.36	33.19	-43.7	-46.1	24.4	6.04e-01	0	39	0	665321472	59	4623
2026-01-19 01:48:58.93	220.26	33.02	-43.4	-45.8	24.5	6.04e-01	0	39	0	666894336	58	4751
2026-01-19 01:49:00.22	220.08	32.72	-43.3	-45.7	24.7	6.02e-01	0	39	0	669515776	58	4679
2026-01-19 01:49:00.93	219.98	32.56	-43.2	-45.5	24.9	6.06e-01	0	39	0	670564352	58	4586
2026-01-19 01:49:02.43	219.77	32.21	-43.0	-45.3	25.1	6.02e-01	0	39	0	673185792	58	4465
2026-01-19 01:49:03.14	219.68	32.05	-42.9	-45.2	25.1	6.01e-01	0	39	0	674758656	57	4691
2026-01-19 01:49:04.42	219.50	31.76	-43.0	-45.3	25.1	6.02e-01	0	39	0	677380096	57	4735
2026-01-19 01:49:05.13	219.41	31.60	-43.0	-45.4	25.0	6.03e-01	0	39	0	678428672	57	4768
2026-01-19 01:49:06.41	219.24	31.32	-43.1	-45.5	24.9	6.03e-01	0	39	0	681050112	57	4825
2026-01-19 01:49:07.14	219.15	31.15	-43.2	-45.5	24.8	6.02e-01	0	39	0	682098688	57	4866
2026-01-19 01:49:08.41	218.99	30.88	-43.0	-45.4	25.0	6.05e-01	0	39	0	684720128	57	4763
2026-01-19 01:49:09.12	218.90	30.72	-43.0	-45.3	25.0	6.02e-01	0	39	0	685768704	57	4731
2026-01-19 01:49:10.40	218.75	30.44	-43.0	-45.3	25.0	6.03e-01	0	39	0	688390144	57	4742
2026-01-19 01:49:11.12	218.66	30.29	-43.0	-45.3	25.0	6.00e-01	0	39	0	689963008	57	4753
2026-01-19 01:49:12.39	218.51	30.02	-43.2	-45.5	24.9	6.03e-01	0	39	0	692060160	57	4863
2026-01-19 01:49:13.12	218.42	29.86	-43.2	-45.6	24.8	6.04e-01	0	39	0	693633024	57	4883
2026-01-19 01:49:14.40	218.27	29.59	-43.3	-45.7	24.7	5.99e-01	0	39	0	695730176	57	4947
2026-01-19 01:49:15.11	218.19	29.44	-43.3	-45.8	24.6	6.02e-01	0	39	0	697303040	57	4986
2026-01-19 01:49:16.42	218.04	29.17	-43.0	-45.4	24.9	6.02e-01	0	39	0	699400192	57	4793
2026-01-19 01:49:17.13	217.96	29.03	-43.0	-45.4	24.9	6.05e-01	0	39	0	700973056	57	4786
2026-01-19 01:49:18.46	217.82	28.75	-43.0	-45.4	24.9	6.03e-01	0	39	0	703594496	57	4796
2026-01-19 01:49:19.17	217.74	28.61	-43.0	-45.3	25.0	6.05e-01	0	39	0	704643072	57	4754
2026-01-19 01:49:20.52	217.60	28.34	-43.1	-45.5	24.9	6.04e-01	0	39	0	707264512	57	4840
2026-01-19 01:49:21.23	217.52	28.20	-43.2	-45.5	24.8	6.01e-01	0	39	0	708837376	57	4868
2026-01-19 01:49:22.56	217.38	27.93	-43.1	-45.5	24.9	6.04e-01	0	39	0	710934528	57	4820
2026-01-19 01:49:23.27	217.31	27.79	-43.2	-45.5	24.9	6.01e-01	0	39	0	712507392	57	4865
2026-01-19 01:49:24.55	217.18	27.54	-43.2	-45.6	24.8	6.04e-01	0	39	0	714604544	57	4907
2026-01-19 01:49:25.26	217.11	27.40	-43.2	-45.6	24.8	6.04e-01	0	39	0	716177408	57	4901
2026-01-19 01:49:26.54	216.98	27.16	-43.4	-45.8	24.7	6.03e-01	0	39	0	718798848	57	5000
2026-01-19 01:49:27.28	216.91	27.02	-43.5	-45.9	24.5	6.05e-01	0	39	0	719847424	57	5069
2026-01-19 01:49:28.70	216.78	26.75	-43.5	-46.0	24.5	6.06e-01	0	39	0	722468864	57	5104
2026-01-19 01:49:29.41	216.71	26.61	-43.5	-45.9	24.5	6.01e-01	0	39	0	724041728	57	5089
2026-01-19 01:49:30.75	216.58	26.36	-43.6	-46.0	24.4	6.02e-01	0	39	0	726663168	57	5151
2026-01-19 01:49:31.46	216.52	26.23	-43.5	-45.9	24.5	6.04e-01	0	39	0	727711744	57	5080
2026-01-19 01:49:32.74	216.40	25.99	-43.5	-45.9	24.4	6.02e-01	0	39	0	730333184	57	5099
2026-01-19 01:49:33.46	216.33	25.86	-43.5	-45.9	24.5	6.03e-01	0	39	0	731381760	57	5076
2026-01-19 01:49:34.73	216.22	25.63	-43.5	-46.0	24.4	6.05e-01	0	39	0	734003200	57	5105
2026-01-19 01:49:35.46	216.16	25.50	-43.6	-46.1	24.3	6.04e-01	0	39	0	735576064	57	5160
2026-01-19 01:49:36.74	216.05	25.27	-43.6	-46.0	24.4	6.04e-01	0	39	0	737673216	57	5136
2026-01-19 01:49:37.45	215.99	25.14	-43.6	-46.1	24.3	6.03e-01	0	39	0	739246080	57	5164
2026-01-19 01:49:38.73	215.88	24.92	-43.7	-46.2	24.2	6.02e-01	0	39	0	741343232	58	4943
2026-01-19 01:49:39.47	215.81	24.79	-43.8	-46.2	24.2	6.02e-01	0	39	0	742916096	58	4973
2026-01-19 01:49:40.75	215.71	24.56	-43.8	-46.3	24.1	6.03e-01	0	39	0	745013248	58	4994
2026-01-19 01:49:41.55	215.64	24.42	-43.8	-46.2	24.2	6.02e-01	0	39	0	746586112	58	4975
2026-01-19 01:49:42.69	215.55	24.23	-43.8	-46.3	24.1	6.02e-01	0	39	0	748683264	58	5039
2026-01-19 01:49:43.54	215.48	24.08	-43.8	-46.3	24.1	6.03e-01	0	39	0	750256128	58	5003
2026-01-19 01:49:44.68	215.39	23.89	-43.8	-46.3	24.1	6.02e-01	0	39	0	752877568	58	5025
2026-01-19 01:49:45.80	215.31	23.70	-43.9	-46.4	24.0	6.05e-01	0	39	0	754450432	58	5061
2026-01-19 01:49:46.83	215.23	23.53	-43.9	-46.4	24.0	6.04e-01	0	39	0	756547584	58	5083
2026-01-19 01:49:47.82	215.15	23.36	-43.8	-46.3	24.1	6.05e-01	0	39	0	758644736	58	5039
2026-01-19 01:49:48.82	215.08	23.20	-43.8	-46.3	24.2	6.04e-01	0	39	0	760217600	58	4995
2026-01-19 01:49:49.81	215.00	23.03	-43.7	-46.2	24.2	6.05e-01	0	39	0	762314752	58	4969
2026-01-19 01:49:50.81	214.93	22.87	-43.8	-46.3	24.1	6.05e-01	0	39	0	763887616	58	5008
2026-01-19 01:49:51.80	214.86	22.71	-43.8	-46.3	24.1	6.05e-01	0	39	0	765984768	58	5029
2026-01-19 01:49:52.79	214.79	22.55	-43.8	-46.3	24.1	6.05e-01	0	39	0	767557632	58	5018
2026-01-19 01:49:53.79	214.71	22.39	-43.8	-46.3	24.1	6.04e-01	0	39	0	769654784	58	5039
2026-01-19 01:49:54.78	214.64	22.23	-43.9	-46.5	24.0	6.03e-01	0	39	0	771751936	58	5104
2026-01-19 01:49:55.78	214.57	22.08	-44.0	-46.5	23.9	6.03e-01	0	39	0	773324800	58	5141
2026-01-19 01:49:56.77	214.51	21.92	-44.0	-46.6	23.8	6.04e-01	0	39	0	775421952	58	5190
2026-01-19 01:49:57.76	214.44	21.77	-44.0	-46.6	23.8	6.04e-01	0	39	0	776994816	58	5201
2026-01-19 01:49:58.76	214.37	21.61	-44.0	-46.6	23.8	6.02e-01	0	39	0	779091968	58	5172
2026-01-19 01:49:59.83	214.30	21.45	-44.1	-46.7	23.7	6.03e-01	0	39	0	781189120	58	5246
2026-01-19 01:50:00.72	214.24	21.31	-44.2	-46.8	23.6	6.04e-01	0	39	0	782761984	58	5292
2026-01-19 01:50:02.01	214.16	21.12	-43.9	-46.5	23.9	6.03e-01	0	39	0	785383424	58	5130
2026-01-19 01:50:02.72	214.11	21.01	-43.9	-46.5	23.9	6.03e-01	0	39	0	786432000	58	5127
2026-01-19 01:50:04.21	214.02	20.78	-43.9	-46.4	24.0	6.05e-01	0	39	0	789053440	58	5063
2026-01-19 01:50:04.92	213.97	20.68	-43.8	-46.3	24.0	6.03e-01	0	39	0	790626304	58	5040
2026-01-19 01:50:06.27	213.89	20.48	-43.7	-46.1	24.2	6.04e-01	0	39	0	793247744	58	4921
2026-01-19 01:50:06.98	213.84	20.37	-43.7	-46.2	24.2	6.05e-01	0	39	0	794296320	58	4931
2026-01-19 01:50:08.27	213.77	20.19	-43.7	-46.2	24.2	6.05e-01	0	39	0	796917760	58	4931
2026-01-19 01:50:08.99	213.72	20.08	-43.6	-46.1	24.2	6.03e-01	0	39	0	797966336	58	4924
2026-01-19 01:50:10.27	213.65	19.90	-43.7	-46.2	24.1	6.04e-01	0	39	0	800587776	58	4982
2026-01-19 01:50:10.99	213.60	19.79	-43.7	-46.2	24.1	6.00e-01	0	39	0	802160640	58	4956
2026-01-19 01:50:12.28	213.53	19.61	-43.7	-46.2	24.0	6.03e-01	0	39	0	804257792	58	4975
2026-01-19 01:50:13.02	213.49	19.51	-43.7	-46.3	24.1	6.03e-01	0	39	0	805830656	58	4998
2026-01-19 01:50:14.29	213.41	19.33	-43.7	-46.3	24.1	6.03e-01	0	39	0	807927808	58	5002
2026-01-19 01:50:15.10	213.37	19.21	-43.8	-46.4	24.0	6.04e-01	0	39	0	809500672	58	5064
2026-01-19 01:50:16.23	213.30	19.06	-43.8	-46.4	24.0	6.02e-01	0	39	0	811597824	58	5067
2026-01-19 01:50:17.28	213.25	18.91	-43.9	-46.5	23.9	5.99e-01	0	39	0	813694976	58	5102
2026-01-19 01:50:18.46	213.18	18.75	-43.7	-46.3	24.1	6.02e-01	0	39	0	815792128	58	4998
2026-01-19 01:50:19.31	213.13	18.63	-43.8	-46.3	24.0	6.05e-01	0	39	0	817364992	58	5005
2026-01-19 01:50:20.45	213.07	18.48	-43.8	-46.3	24.0	6.04e-01	0	39	0	819462144	58	5024
2026-01-19 01:50:21.38	213.02	18.35	-43.8	-46.3	24.0	6.02e-01	0	39	0	821559296	58	5018
2026-01-19 01:50:22.37	212.97	18.22	-43.7	-46.2	24.1	6.03e-01	0	39	0	823132160	58	4947
2026-01-19 01:50:23.37	212.92	18.09	-43.6	-46.1	24.2	6.02e-01	0	39	0	825229312	58	4881
2026-01-19 01:50:24.37	212.87	17.95	-43.6	-46.1	24.2	6.03e-01	0	39	0	826802176	58	4897
2026-01-19 01:50:25.36	212.82	17.82	-43.6	-46.0	24.3	6.03e-01	0	39	0	828899328	58	4859
2026-01-19 01:50:26.35	212.77	17.69	-43.6	-46.0	24.3	6.05e-01	0	39	0	830472192	58	4846
2026-01-19 01:50:27.35	212.72	17.56	-43.6	-46.1	24.2	6.04e-01	0	39	0	832569344	58	4879
2026-01-19 01:50:28.34	212.67	17.43	-43.6	-46.0	24.3	6.05e-01	0	39	0	834666496	58	4846
2026-01-19 01:50:29.34	212.62	17.31	-43.5	-45.9	24.3	6.02e-01	0	39	0	836239360	58	4809
2026-01-19 01:50:30.33	212.57	17.18	-43.6	-46.0	24.2	6.03e-01	0	39	0	838336512	58	4864
2026-01-19 01:50:31.32	212.52	17.05	-43.6	-46.1	24.2	6.04e-01	0	39	0	839909376	58	4891
2026-01-19 01:50:32.32	212.47	16.93	-43.6	-46.1	24.2	6.02e-01	0	39	0	842006528	58	4897
2026-01-19 01:50:33.31	212.43	16.80	-43.6	-46.2	24.1	6.04e-01	0	39	0	843579392	58	4932
2026-01-19 01:50:34.31	212.38	16.68	-43.6	-46.2	24.1	6.04e-01	0	39	0	845676544	58	4938
2026-01-19 01:50:35.37	212.33	16.54	-43.6	-46.1	24.2	6.04e-01	0	39	0	847773696	58	4915
2026-01-19 01:50:36.22	212.29	16.44	-43.6	-46.1	24.1	6.04e-01	0	39	0	849346560	58	4924
2026-01-19 01:50:37.36	212.24	16.30	-43.6	-46.2	24.1	6.01e-01	0	39	0	851443712	58	4930
2026-01-19 01:50:38.21	212.20	16.19	-43.7	-46.2	24.1	6.03e-01	0	39	0	853016576	58	4960
2026-01-19 01:50:39.35	212.15	16.05	-43.8	-46.3	23.9	6.02e-01	0	39	0	855113728	58	5036
2026-01-19 01:50:40.20	212.11	15.95	-43.8	-46.3	23.9	6.03e-01	0	39	0	856686592	58	5036
2026-01-19 01:50:41.34	212.06	15.81	-43.7	-46.3	24.0	6.00e-01	0	39	0	858783744	58	4996
2026-01-19 01:50:42.19	212.02	15.71	-43.7	-46.3	24.0	6.03e-01	0	39	0	860356608	58	5008
2026-01-19 01:50:43.33	211.97	15.58	-43.8	-46.3	23.9	6.05e-01	0	39	0	862453760	58	5035
2026-01-19 01:50:44.18	211.94	15.47	-43.8	-46.3	23.9	6.03e-01	0	39	0	864026624	58	5028
2026-01-19 01:50:45.32	211.89	15.34	-43.8	-46.4	23.9	6.04e-01	0	39	0	866123776	58	5053
2026-01-19 01:50:46.17	211.85	15.24	-43.9	-46.5	23.7	6.02e-01	0	39	0	867696640	58	5153
2026-01-19 01:50:47.31	211.80	15.11	-43.8	-46.4	23.8	6.05e-01	0	39	0	870318080	58	5075
2026-01-19 01:50:48.16	211.77	15.01	-43.9	-46.4	23.8	6.03e-01	0	39	0	871890944	58	5100
2026-01-19 01:50:49.39	211.72	14.86	-43.9	-46.5	23.7	6.03e-01	0	39	0	873988096	58	5130
2026-01-19 01:50:50.25	211.68	14.77	-43.9	-46.5	23.8	6.06e-01	0	39	0	875560960	58	5105
2026-01-19 01:50:51.38	211.64	14.64	-43.9	-46.5	23.7	6.03e-01	0	39	0	877658112	58	5128
2026-01-19 01:50:52.23	211.60	14.54	-43.9	-46.4	23.8	6.06e-01	0	39	0	879230976	58	5082
2026-01-19 01:50:53.37	211.56	14.41	-43.9	-46.5	23.8	6.05e-01	0	39	0	881328128	58	5108
2026-01-19 01:50:54.22	211.53	14.31	-43.9	-46.4	23.8	6.05e-01	0	39	0	882900992	58	5064
2026-01-19 01:50:55.57	211.47	14.16	-43.8	-46.4	23.8	6.04e-01	0	39	0	885522432	58	5055
2026-01-19 01:50:56.28	211.45	14.08	-43.9	-46.5	23.7	6.06e-01	0	39	0	887095296	58	5118
2026-01-19 01:50:57.56	211.40	13.94	-43.9	-46.4	23.8	6.07e-01	0	39	0	889192448	58	5075
2026-01-19 01:50:58.28	211.37	13.86	-43.8	-46.4	23.8	6.03e-01	0	39	0	890765312	58	5055
2026-01-19 01:50:59.56	211.32	13.72	-43.8	-46.4	23.8	6.04e-01	0	39	0	892862464	58	5043
2026-01-19 01:51:00.27	211.29	13.64	-43.8	-46.3	23.9	6.03e-01	0	39	0	894435328	58	5006
2026-01-19 01:51:01.55	211.25	13.50	-43.8	-46.4	23.8	6.04e-01	0	39	0	896532480	58	5042
2026-01-19 01:51:02.26	211.22	13.43	-43.8	-46.3	23.9	6.01e-01	0	39	0	898105344	58	4988
2026-01-19 01:51:03.54	211.17	13.29	-43.7	-46.2	24.0	6.04e-01	0	39	0	900202496	58	4966
2026-01-19 01:51:04.25	211.15	13.21	-43.9	-46.4	23.8	6.04e-01	0	39	0	901775360	58	5081
2026-01-19 01:51:05.53	211.10	13.07	-43.8	-46.3	23.8	6.03e-01	0	39	0	904396800	58	5041
2026-01-19 01:51:06.26	211.08	13.00	-43.9	-46.4	23.7	6.03e-01	0	39	0	905445376	58	5081
2026-01-19 01:51:07.56	211.03	12.86	-43.9	-46.4	23.8	6.02e-01	0	39	0	908066816	58	5087
2026-01-19 01:51:08.27	211.01	12.78	-44.0	-46.5	23.7	6.03e-01	0	39	0	909115392	58	5150
2026-01-19 01:51:09.55	210.96	12.65	-43.9	-46.5	23.7	6.03e-01	0	39	0	911736832	58	5131
2026-01-19 01:51:10.27	210.94	12.58	-44.0	-46.6	23.6	6.06e-01	0	39	0	913309696	58	5170
2026-01-19 01:51:11.55	210.89	12.44	-44.0	-46.6	23.6	6.02e-01	0	39	0	915406848	58	5165
2026-01-19 01:51:12.28	210.87	12.37	-44.0	-46.6	23.6	6.06e-01	0	39	0	916979712	58	5188
2026-01-19 01:51:13.56	210.83	12.24	-44.0	-46.6	23.6	6.04e-01	0	39	0	919076864	58	5179
2026-01-19 01:51:14.28	210.80	12.16	-44.1	-46.7	23.5	6.03e-01	0	39	0	920649728	58	5228
2026-01-19 01:51:15.57	210.76	12.03	-44.0	-46.5	23.6	6.04e-01	0	39	0	923271168	58	5142
2026-01-19 01:51:16.28	210.74	11.96	-43.9	-46.5	23.7	6.03e-01	0	39	0	924319744	58	5110
2026-01-19 01:51:17.81	210.69	11.80	-44.0	-46.6	22.7	6.04e-01	0	39	0	927465472	58	5162
2026-01-19 01:51:18.52	210.66	11.73	-43.9	-46.4	23.7	6.03e-01	0	39	0	928514048	58	5095
2026-01-19 01:51:19.80	210.62	11.60	-43.8	-46.4	23.7	6.04e-01	0	39	0	931135488	58	5053
2026-01-19 01:51:20.51	210.60	11.53	-43.9	-46.5	23.7	6.05e-01	0	39	0	932184064	58	5107
2026-01-19 01:51:21.79	210.56	11.41	-44.0	-46.5	23.6	6.03e-01	0	39	0	934805504	58	5150
2026-01-19 01:51:22.52	210.54	11.33	-44.0	-46.5	23.6	6.04e-01	0	39	0	935854080	58	5156
2026-01-19 01:51:23.80	210.50	11.21	-44.0	-46.6	23.6	6.02e-01	0	39	0	938475520	58	5177
2026-01-19 01:51:24.51	210.48	11.14	-44.0	-46.6	23.5	6.04e-01	0	39	0	940048384	58	5189
2026-01-19 01:51:25.79	210.44	11.01	-44.0	-46.6	23.5	6.03e-01	0	39	0	942145536	58	5176
2026-01-19 01:51:26.51	210.42	10.94	-44.0	-46.6	23.5	6.04e-01	0	39	0	943718400	58	5206
2026-01-19 01:51:27.79	210.38	10.82	-44.1	-46.8	23.3	6.03e-01	0	39	0	945815552	58	5291
2026-01-19 01:51:28.60	210.35	10.74	-44.0	-46.7	23.5	6.04e-01	0	39	0	947388416	59	4939
2026-01-19 01:51:29.74	210.32	10.63	-43.9	-46.5	23.6	6.04e-01	0	39	0	949485568	59	4859
2026-01-19 01:51:30.59	210.30	10.55	-44.1	-46.7	23.4	6.03e-01	0	39	0	951058432	59	4981
2026-01-19 01:51:31.72	210.26	10.44	-44.0	-46.6	23.5	6.03e-01	0	39	0	953155584	59	4917
2026-01-19 01:51:32.58	210.24	10.36	-44.1	-46.7	23.4	6.00e-01	0	39	0	954728448	59	4978
2026-01-19 01:51:33.71	210.21	10.26	-44.1	-46.7	23.3	6.03e-01	0	39	0	956825600	59	4979
2026-01-19 01:51:34.57	210.18	10.18	-44.2	-46.8	23.3	6.04e-01	0	39	0	958922752	59	5026
2026-01-19 01:51:35.70	210.15	10.07	-44.1	-46.7	23.4	6.03e-01	0	39	0	960495616	59	4976
2026-01-19 01:51:36.56	210.13	9.99	-44.1	-46.8	23.4	6.03e-01	0	39	0	962592768	59	4997
2026-01-19 01:51:37.69	210.09	9.89	-44.2	-46.8	23.3	6.03e-01	0	39	0	964689920	59	5020
2026-01-19 01:51:38.54	210.07	9.81	-44.1	-46.8	23.3	6.02e-01	0	39	0	966262784	59	4985
2026-01-19 01:51:39.68	210.04	9.70	-44.2	-46.8	23.2	6.03e-01	0	39	0	968359936	59	5033
2026-01-19 01:51:40.53	210.02	9.62	-44.3	-46.9	23.2	6.04e-01	0	39	0	969932800	59	5089
2026-01-19 01:51:41.67	209.99	9.52	-44.3	-47.0	23.1	5.98e-01	0	39	0	972029952	59	5114
2026-01-19 01:51:42.52	209.96	9.44	-44.2	-46.9	23.2	6.03e-01	0	39	0	973602816	59	5072
2026-01-19 01:51:43.66	209.93	9.34	-44.3	-47.1	23.0	6.03e-01	0	39	0	975699968	59	5160
2026-01-19 01:51:44.51	209.91	9.26	-44.4	-47.1	23.0	6.06e-01	0	39	0	977272832	59	5200
2026-01-19 01:51:45.65	209.88	9.16	-44.3	-47.1	22.9	6.03e-01	0	39	0	979369984	59	5184
2026-01-19 01:51:46.50	209.86	9.09	-44.4	-47.2	22.8	6.03e-01	0	39	0	980942848	59	5256
2026-01-19 01:51:47.64	209.83	8.98	-47.1	-51.0	19.9	6.03e-01	0	39	0	983040000	64	6117
2026-01-19 01:51:48.49	209.81	8.91	-51.4	-69.7	3.8	7.49e-01	0	39	104	983564288	73	31180
2026-01-19 01:51:49.62	209.78	8.81	-51.5	-71.4	3.8	7.44e-01	0	39	104	983564288	73	37907
2026-01-19 01:51:50.47	209.76	8.73	-51.2	-71.6	3.8	7.48e-01	0	39	104	983564288	73	38976
2026-01-19 01:51:51.61	209.73	8.63	-51.5	-71.8	3.8	7.44e-01	0	39	104	983564288	73	39870
2026-01-19 01:51:52.46	209.71	8.56	-51.7	-71.9	3.8	7.47e-01	0	39	104	983564288	74	37839
2026-01-19 01:51:53.60	209.68	8.46	-51.7	-71.9	3.8	7.46e-01	0	39	104	983564288	74	38171
2026-01-19 01:51:54.45	209.66	8.39	-52.0	-71.9	3.8	7.46e-01	0	39	104	983564288	74	38245
2026-01-19 01:51:55.59	209.63	8.29	-51.9	-72.0	3.8	7.48e-01	0	39	104	983564288	74	38436
2026-01-19 01:51:56.44	209.61	8.22	-52.0	-72.0	3.8	7.47e-01	0	39	104	983564288	74	38525
2026-01-19 01:51:57.69	209.58	8.11	-51.9	-72.0	3.8	7.44e-01	0	39	104	983564288	74	38454
2026-01-19 01:51:58.54	209.56	8.04	-51.3	-72.0	3.8	7.46e-01	0	39	104	983564288	74	38519
2026-01-19 01:51:59.67	209.53	7.94	-52.1	-72.0	3.8	7.50e-01	0	39	104	983564288	75	36376
2026-01-19 01:52:00.52	209.51	7.87	-52.0	-72.0	3.8	7.45e-01	0	39	104	983564288	75	36353
2026-01-19 01:52:01.66	209.49	7.77	-51.2	-72.0	3.8	7.47e-01	0	39	104	983564288	74	38411
2026-01-19 01:52:02.51	209.47	7.70	-51.8	-72.0	3.8	7.45e-01	0	39	104	983564288	74	38339
2026-01-19 01:52:03.64	209.44	7.60	-51.9	-72.0	3.8	7.44e-01	0	39	104	983564288	74	38423
2026-01-19 01:52:04.49	209.42	7.53	-51.7	-72.0	3.8	7.43e-01	0	39	104	983564288	74	38380
2026-01-19 01:52:05.63	209.40	7.44	-51.0	-72.0	3.8	7.46e-01	0	39	104	983564288	74	38264
2026-01-19 01:52:06.48	209.38	7.37	-51.2	-72.0	3.8	7.46e-01	0	39	104	983564288	74	38262
2026-01-19 01:52:07.62	209.35	7.27	-51.2	-71.9	3.8	7.50e-01	0	39	104	983564288	73	40310
2026-01-19 01:52:08.47	209.33	7.20	-51.2	-71.9	3.8	7.45e-01	0	39	104	983564288	73	40253
2026-01-19 01:52:09.61	209.31	7.11	-51.2	-71.9	3.8	7.46e-01	0	39	104	983564288	73	40275
2026-01-19 01:52:10.46	209.29	7.04	-51.2	-71.9	3.8	7.45e-01	0	39	104	983564288	73	40198
2026-01-19 01:52:11.59	209.26	6.95	-51.2	-71.9	3.8	7.46e-01	0	39	104	983564288	73	40273
2026-01-19 01:52:12.44	209.25	6.88	-51.2	-71.9	3.8	7.45e-01	0	39	104	983564288	73	40251
2026-01-19 01:52:13.58	209.22	6.79	-51.2	-71.9	3.8	7.48e-01	0	39	104	983564288	73	40163
2026-01-19 01:52:14.43	209.20	6.72	-51.2	-71.9	3.8	7.49e-01	0	39	104	983564288	73	40212
2026-01-19 01:52:15.56	209.18	6.63	-51.2	-71.9	3.8	7.48e-01	0	39	104	983564288	73	40249
2026-01-19 01:52:16.42	209.16	6.56	-51.2	-71.9	3.8	7.47e-01	0	39	104	983564288	73	40200
2026-01-19 01:52:17.55	209.14	6.47	-51.2	-71.9	3.8	7.46e-01	0	39	104	983564288	73	40137
2026-01-19 01:52:18.40	209.12	6.40	-51.2	-71.9	3.8	7.45e-01	0	39	104	983564288	73	40173
2026-01-19 01:52:19.54	209.10	6.31	-51.2	-71.9	3.8	7.45e-01	0	39	104	983564288	73	40153
2026-01-19 01:52:20.39	209.08	6.24	-51.2	-71.9	3.8	7.45e-01	0	39	104	983564288	73	40166
2026-01-19 01:52:21.52	209.06	6.16	-51.2	-71.9	3.8	7.46e-01	0	39	104	983564288	73	40170
2026-01-19 01:52:22.38	209.04	6.09	-51.2	-71.9	3.8	7.45e-01	0	39	104	983564288	73	40248
2026-01-19 01:52:23.51	209.01	6.00	-51.2	-71.9	3.8	7.46e-01	0	39	104	983564288	73	40210
2026-01-19 01:52:24.37	209.00	5.93	-51.2	-71.9	3.8	7.47e-01	0	39	104	983564288	73	40192
2026-01-19 01:52:25.50	208.98	5.84	-51.2	-71.9	3.8	7.45e-01	0	39	104	983564288	73	40125
2026-01-19 01:52:26.35	208.96	5.78	-51.2	-71.9	3.8	7.44e-01	0	39	104	983564288	73	40149
2026-01-19 01:52:27.49	208.94	5.69	-51.2	-71.9	3.8	7.47e-01	0	39	104	983564288	73	40185
2026-01-19 01:52:28.34	208.92	5.63	-51.2	-71.9	3.8	7.46e-01	0	39	104	983564288	73	40130
2026-01-19 01:52:29.47	208.90	5.54	-51.2	-71.9	3.8	7.48e-01	0	39	104	983564288	73	40162
2026-01-19 01:52:30.33	208.88	5.47	-51.2	-71.9	3.8	7.44e-01	0	39	104	983564288	73	40166
2026-01-19 01:52:31.46	208.86	5.39	-51.2	-71.9	3.8	7.47e-01	0	39	104	983564288	73	40184
2026-01-19 01:52:32.31	208.84	5.32	-51.2	-71.9	3.8	7.47e-01	0	39	104	983564288	73	40110
2026-01-19 01:52:33.45	208.82	5.24	-51.2	-71.9	3.8	7.44e-01	0	39	104	983564288	73	40160
2026-01-19 01:52:34.30	208.81	5.17	-51.2	-71.9	3.8	7.49e-01	0	39	104	983564288	73	40157
2026-01-19 01:52:35.44	208.78	5.09	-51.2	-71.9	3.8	7.47e-01	0	39	104	983564288	73	40086
2026-01-19 01:52:36.29	208.77	5.02	-51.2	-71.9	3.8	7.47e-01	0	39	104	983564288	73	40125
2026-01-19 01:52:37.42	208.75	4.94	-51.2	-71.9	3.8	7.44e-01	0	39	104	983564288	73	40107

#Closed at: 2026-01-19 01:52:38
#Recorded file [983 MB]: D:/Data/31040_260119_044119.dat