passes_logs/2026/01/19/T1/T1__20260119_220146_SUOMI_NPP_rec.log

#Pass ID: 20260119_220146_SUOMI NPP
#Satellite: SUOMI NPP
#Configuration: NPP
#almurnet v.1.7.20251203
#Start time: 2026-01-19 22:01:46

#Version: 2.0.20230620
#Station: T1
#Location: 37.570604 lon 55.790049 lat
#TLE: 1 37849U 11061A   26019.26265094  .00000081  00000+0  59609-4 0  9993
#TLE: 2 37849  98.7817 321.2746 0002356  56.2510 303.8890 14.19526363737315

#Time	Az	El	Level	Level2	SNR	BER	BlckErr	Temp	State	Recorded	gain1	gain2
2026-01-19 22:01:46.02	32.70	5.00	-50.0	-65.4	3.8	1.49e+00	0	41	0	0	72	20074
2026-01-19 22:01:47.01	32.80	5.05	-50.0	-65.4	3.8	1.49e+00	0	41	104	0	71	21276
2026-01-19 22:01:48.00	32.89	5.11	-50.0	-65.4	3.8	1.49e+00	0	41	104	0	71	21280
2026-01-19 22:01:48.99	32.99	5.16	-50.0	-65.4	3.8	1.49e+00	0	41	104	0	71	21345
2026-01-19 22:01:49.99	33.09	5.21	-50.0	-65.4	3.8	1.49e+00	0	41	104	0	71	21326
2026-01-19 22:01:50.98	33.19	5.26	-50.0	-65.4	3.8	1.49e+00	0	41	104	0	71	21372
2026-01-19 22:01:51.97	33.29	5.32	-50.0	-65.3	3.8	1.49e+00	0	41	104	0	71	21210
2026-01-19 22:01:52.97	33.40	5.37	-50.0	-65.4	3.8	1.49e+00	0	41	104	0	71	21290
2026-01-19 22:01:53.96	33.50	5.43	-50.0	-65.3	3.8	1.49e+00	0	41	104	0	71	21218
2026-01-19 22:01:54.95	33.60	5.48	-50.0	-65.4	3.8	1.49e+00	0	41	104	0	71	21302
2026-01-19 22:01:55.95	33.70	5.53	-50.0	-65.4	3.8	1.49e+00	0	41	104	0	71	21332
2026-01-19 22:01:56.94	33.80	5.59	-50.0	-65.3	3.8	1.49e+00	0	42	104	0	71	21248
2026-01-19 22:01:57.93	33.90	5.64	-50.0	-65.4	3.8	1.49e+00	0	41	104	0	71	21282
2026-01-19 22:01:58.93	34.01	5.69	-50.0	-65.3	3.8	1.49e+00	0	41	104	0	71	21258
2026-01-19 22:01:59.92	34.11	5.75	-50.0	-65.4	3.8	1.49e+00	0	41	104	0	71	21333
2026-01-19 22:02:00.91	34.21	5.80	-50.0	-65.4	3.8	1.49e+00	0	41	104	0	71	21276
2026-01-19 22:02:01.91	34.32	5.85	-50.0	-65.3	3.8	1.49e+00	0	42	104	0	71	21214
2026-01-19 22:02:02.90	34.42	5.91	-50.0	-65.3	3.8	1.49e+00	0	42	104	0	71	21235
2026-01-19 22:02:03.89	34.53	5.96	-50.0	-65.3	3.8	1.49e+00	0	42	104	0	71	21256
2026-01-19 22:02:04.89	34.63	6.02	-50.0	-65.4	3.8	1.49e+00	0	42	104	0	71	21306
2026-01-19 22:02:05.88	34.74	6.07	-50.0	-65.3	3.8	1.49e+00	0	42	104	0	71	21202
2026-01-19 22:02:06.87	34.84	6.12	-50.0	-65.3	3.8	1.49e+00	0	42	104	0	71	21211
2026-01-19 22:02:07.87	34.95	6.18	-50.0	-65.3	3.8	1.49e+00	0	42	104	0	71	21240
2026-01-19 22:02:08.86	35.06	6.23	-50.0	-65.3	3.8	1.49e+00	0	42	104	0	71	21185
2026-01-19 22:02:09.85	35.17	6.29	-50.0	-65.3	3.8	1.49e+00	0	42	104	0	71	21188
2026-01-19 22:02:10.85	35.27	6.34	-50.0	-65.3	3.8	1.49e+00	0	42	104	0	71	21205
2026-01-19 22:02:11.84	35.38	6.39	-50.0	-65.3	3.8	1.49e+00	0	42	104	0	71	21158
2026-01-19 22:02:12.83	35.49	6.45	-50.0	-65.4	3.8	1.49e+00	0	42	104	0	71	21288
2026-01-19 22:02:13.83	35.60	6.50	-50.0	-65.4	3.8	1.49e+00	0	42	104	0	71	21266
2026-01-19 22:02:14.82	35.71	6.56	-50.0	-65.3	3.8	1.49e+00	0	42	104	0	71	21211
2026-01-19 22:02:15.81	35.82	6.61	-50.0	-65.3	3.8	1.49e+00	0	42	104	0	71	21205
2026-01-19 22:02:16.81	35.93	6.66	-50.0	-65.3	3.8	1.49e+00	0	42	104	0	71	21178
2026-01-19 22:02:17.80	36.04	6.72	-50.0	-65.3	3.8	1.49e+00	0	42	104	0	71	21175
2026-01-19 22:02:18.79	36.15	6.77	-50.0	-65.3	3.8	1.49e+00	0	42	104	0	71	21072
2026-01-19 22:02:19.79	36.26	6.83	-50.0	-65.3	3.8	1.49e+00	0	42	104	0	71	21085
2026-01-19 22:02:20.78	36.37	6.88	-50.0	-65.3	3.8	1.49e+00	0	42	104	0	71	21043
2026-01-19 22:02:21.77	36.48	6.94	-50.0	-65.3	3.8	1.49e+00	0	42	104	0	71	21082
2026-01-19 22:02:22.77	36.59	6.99	-50.0	-65.3	3.8	1.49e+00	0	42	104	0	71	21043
2026-01-19 22:02:23.76	36.71	7.04	-50.0	-65.3	3.8	1.49e+00	0	42	104	0	71	21070
2026-01-19 22:02:24.75	36.82	7.10	-50.0	-65.3	3.8	1.49e+00	0	42	104	0	71	21020
2026-01-19 22:02:25.75	36.93	7.15	-50.0	-65.3	3.8	1.49e+00	0	42	104	0	71	21113
2026-01-19 22:02:26.74	37.05	7.21	-50.0	-65.3	3.8	1.49e+00	0	42	104	0	71	21069
2026-01-19 22:02:27.74	37.16	7.26	-50.0	-65.3	3.8	1.49e+00	0	42	104	0	71	21161
2026-01-19 22:02:28.73	37.27	7.32	-50.0	-65.3	3.8	1.49e+00	0	42	104	0	71	21179
2026-01-19 22:02:29.72	37.39	7.37	-50.0	-65.3	3.8	1.49e+00	0	42	104	0	71	21169
2026-01-19 22:02:30.72	37.51	7.43	-50.0	-65.3	3.8	1.49e+00	0	42	104	0	71	21192
2026-01-19 22:02:31.71	37.62	7.48	-50.0	-65.3	3.8	1.49e+00	0	43	104	0	71	21213
2026-01-19 22:02:32.70	37.74	7.54	-50.0	-65.3	3.8	1.49e+00	0	42	104	0	71	21177
2026-01-19 22:02:33.70	37.85	7.59	-50.0	-65.3	3.8	1.49e+00	0	42	104	0	71	21195
2026-01-19 22:02:34.69	37.97	7.64	-50.0	-65.3	3.8	1.49e+00	0	42	104	0	71	21174
2026-01-19 22:02:35.68	38.09	7.70	-50.0	-65.3	3.8	1.49e+00	0	43	104	0	71	21089
2026-01-19 22:02:36.68	38.21	7.75	-50.0	-65.3	3.8	1.49e+00	0	43	104	0	71	21081
2026-01-19 22:02:37.67	38.32	7.81	-50.0	-65.2	3.8	1.49e+00	0	43	104	0	71	21006
2026-01-19 22:02:38.66	38.44	7.86	-50.0	-65.2	3.8	1.49e+00	0	43	104	0	71	20899
2026-01-19 22:02:39.66	38.56	7.92	-50.0	-65.0	3.8	1.49e+00	0	43	104	0	71	20522
2026-01-19 22:02:40.65	38.68	7.97	-50.0	-65.0	3.8	1.49e+00	0	43	104	0	71	20409
2026-01-19 22:02:41.65	38.80	8.03	-50.0	-65.0	3.8	1.49e+00	0	43	104	0	71	20411
2026-01-19 22:02:42.64	38.92	8.08	-50.0	-65.0	3.8	1.49e+00	0	42	104	0	71	20477
2026-01-19 22:02:43.63	39.04	8.14	-50.0	-65.1	3.8	1.49e+00	0	43	104	0	71	20720
2026-01-19 22:02:44.63	39.17	8.19	-50.0	-65.2	3.8	1.49e+00	0	43	104	0	71	20983
2026-01-19 22:02:45.62	39.29	8.25	-50.0	-65.3	3.8	1.49e+00	0	43	104	0	71	21138
2026-01-19 22:02:46.61	39.41	8.30	-50.0	-65.3	3.8	1.49e+00	0	43	104	0	71	21132
2026-01-19 22:02:47.61	39.53	8.36	-50.0	-65.3	3.8	1.49e+00	0	43	104	0	71	21090
2026-01-19 22:02:48.60	39.66	8.41	-50.0	-65.3	3.8	1.49e+00	0	43	104	0	71	21025
2026-01-19 22:02:49.59	39.78	8.47	-50.0	-65.2	3.8	1.49e+00	0	43	104	0	71	20970
2026-01-19 22:02:50.59	39.90	8.52	-50.0	-65.1	3.8	1.49e+00	0	43	104	0	71	20726
2026-01-19 22:02:51.58	40.03	8.58	-50.0	-65.0	3.8	1.49e+00	0	43	104	0	71	20405
2026-01-19 22:02:52.57	40.15	8.63	-49.9	-64.7	3.8	1.49e+00	0	43	104	0	71	19834
2026-01-19 22:02:53.57	40.28	8.69	-49.9	-64.6	3.8	1.49e+00	0	43	104	0	71	19462
2026-01-19 22:02:54.56	40.40	8.74	-49.9	-64.4	3.8	1.49e+00	0	43	104	0	71	18959
2026-01-19 22:02:55.55	40.53	8.80	-49.9	-64.1	3.8	1.49e+00	0	43	104	0	71	18365
2026-01-19 22:02:56.55	40.66	8.85	-49.9	-63.5	3.8	1.49e+00	0	43	104	0	71	17276
2026-01-19 22:02:57.54	40.79	8.91	-49.8	-62.2	4.1	1.48e+00	0	43	0	0	71	14810
2026-01-19 22:02:58.53	40.91	8.96	-49.6	-60.1	4.8	1.35e+00	0	43	0	0	71	11560
2026-01-19 22:02:59.53	41.04	9.02	-49.2	-57.7	6.3	3.78e-01	0	43	0	2097152	70	9342
2026-01-19 22:03:00.52	41.17	9.07	-49.4	-59.0	5.6	1.36e-01	0	43	0	4194304	69	11420
2026-01-19 22:03:01.51	41.30	9.12	-49.6	-61.1	4.4	9.09e-01	0	43	0	6291456	69	14589
2026-01-19 22:03:02.51	41.43	9.18	-49.1	-57.7	6.0	1.44e+00	0	43	0	6291456	70	9355
2026-01-19 22:03:03.50	41.56	9.23	-48.9	-56.5	7.8	6.30e-03	0	43	0	8388608	68	9157
2026-01-19 22:03:04.50	41.69	9.29	-48.2	-54.2	9.3	1.46e+00	0	43	104	9437184	68	6987
2026-01-19 22:03:05.49	41.82	9.34	-45.8	-49.2	14.9	1.50e-06	0	43	0	10485760	63	5254
2026-01-19 22:03:06.49	41.95	9.40	-45.7	-49.1	14.9	7.00e-07	0	43	0	12582912	63	5198
2026-01-19 22:03:07.49	42.09	9.45	-45.7	-49.0	15.0	7.00e-07	0	43	0	14680064	63	5148
2026-01-19 22:03:08.48	42.22	9.51	-45.8	-49.2	15.0	0.00e+00	0	43	0	16777216	63	5241
2026-01-19 22:03:09.48	42.35	9.56	-45.4	-48.7	15.4	0.00e+00	0	43	0	17825792	62	5225
2026-01-19 22:03:10.48	42.49	9.62	-45.4	-48.7	15.4	0.00e+00	0	43	0	19922944	62	5219
2026-01-19 22:03:11.47	42.62	9.67	-45.5	-48.8	15.3	0.00e+00	0	43	0	22020096	62	5282
2026-01-19 22:03:12.46	42.75	9.73	-45.4	-48.7	15.3	0.00e+00	0	43	0	24117248	62	5226
2026-01-19 22:03:13.46	42.89	9.78	-45.2	-48.3	15.7	0.00e+00	0	43	0	25165824	62	4998
2026-01-19 22:03:14.45	43.02	9.84	-45.2	-48.4	15.7	0.00e+00	0	43	0	27262976	62	5045
2026-01-19 22:03:15.45	43.16	9.89	-45.0	-48.0	15.9	0.00e+00	0	43	0	29360128	61	5129
2026-01-19 22:03:16.44	43.30	9.95	-44.8	-47.8	16.2	0.00e+00	0	43	0	31457280	61	5025
2026-01-19 22:03:17.44	43.43	10.00	-44.7	-47.6	16.3	0.00e+00	0	43	0	33554432	61	4923
2026-01-19 22:03:18.43	43.57	10.06	-44.6	-47.5	16.5	0.00e+00	0	43	0	34603008	61	4834
2026-01-19 22:03:19.43	43.71	10.11	-44.5	-47.4	16.6	0.00e+00	0	43	0	36700160	60	5056
2026-01-19 22:03:20.42	43.85	10.17	-44.5	-47.3	16.7	0.00e+00	0	43	0	38797312	60	5027
2026-01-19 22:03:21.42	43.99	10.22	-44.4	-47.2	16.8	0.00e+00	0	43	0	40894464	60	4960
2026-01-19 22:03:22.41	44.13	10.28	-44.4	-47.1	16.9	0.00e+00	0	43	0	41943040	60	4924
2026-01-19 22:03:23.42	44.27	10.33	-44.5	-47.3	16.7	0.00e+00	0	43	0	44040192	60	5024
2026-01-19 22:03:24.45	44.41	10.39	-44.3	-47.1	16.9	0.00e+00	0	43	0	46137344	60	4897
2026-01-19 22:03:25.44	44.56	10.44	-44.3	-47.0	17.0	0.00e+00	0	43	0	48234496	60	4841
2026-01-19 22:03:26.44	44.70	10.50	-44.3	-47.0	16.9	0.00e+00	0	43	0	50331648	60	4867
2026-01-19 22:03:27.54	44.85	10.56	-44.2	-46.9	17.1	0.00e+00	0	43	0	52428800	60	4782
2026-01-19 22:03:28.40	44.98	10.61	-44.1	-46.8	17.2	0.00e+00	0	43	0	53477376	59	4986
2026-01-19 22:03:29.54	45.14	10.67	-43.8	-46.4	17.5	0.00e+00	0	43	0	55574528	59	4767
2026-01-19 22:03:30.39	45.26	10.71	-43.8	-46.4	17.6	0.00e+00	0	43	0	57671680	59	4760
2026-01-19 22:03:31.53	45.43	10.78	-43.4	-45.9	17.9	0.00e+00	0	43	0	59768832	58	4792
2026-01-19 22:03:32.38	45.55	10.82	-43.4	-45.8	18.0	0.00e+00	0	43	0	60817408	58	4745
2026-01-19 22:03:33.52	45.72	10.89	-43.3	-45.8	18.1	0.00e+00	0	43	0	62914560	58	4728
2026-01-19 22:03:34.37	45.85	10.93	-43.3	-45.7	18.1	0.00e+00	0	43	0	65011712	58	4692
2026-01-19 22:03:35.51	46.01	10.99	-43.4	-45.8	18.0	0.00e+00	0	43	0	67108864	58	4746
2026-01-19 22:03:36.37	46.14	11.04	-43.4	-45.9	18.0	0.00e+00	0	43	0	68157440	58	4764
2026-01-19 22:03:37.50	46.31	11.10	-43.7	-46.2	17.7	0.00e+00	0	43	0	70254592	58	4977
2026-01-19 22:03:38.36	46.43	11.15	-43.7	-46.2	17.7	0.00e+00	0	43	0	72351744	58	4961
2026-01-19 22:03:39.50	46.61	11.21	-43.8	-46.4	17.5	0.00e+00	0	43	0	74448896	58	5072
2026-01-19 22:03:40.35	46.73	11.26	-43.9	-46.5	17.5	0.00e+00	0	43	0	75497472	58	5104
2026-01-19 22:03:41.49	46.90	11.32	-44.0	-46.6	17.3	0.00e+00	0	43	0	78643200	58	5186
2026-01-19 22:03:42.34	47.03	11.37	-43.9	-46.5	17.4	0.00e+00	0	43	0	79691776	58	5123
2026-01-19 22:03:43.48	47.20	11.43	-43.9	-46.5	17.5	0.00e+00	0	43	0	81788928	58	5154
2026-01-19 22:03:44.33	47.33	11.47	-43.8	-46.4	17.5	0.00e+00	0	43	0	83886080	58	5075
2026-01-19 22:03:45.47	47.51	11.53	-43.8	-46.4	17.6	0.00e+00	0	43	0	85983232	58	5056
2026-01-19 22:03:46.32	47.64	11.58	-43.7	-46.3	17.6	0.00e+00	0	43	0	87031808	58	5016
2026-01-19 22:03:47.46	47.81	11.64	-43.7	-46.2	17.7	0.00e+00	0	43	0	89128960	58	4967
2026-01-19 22:03:48.31	47.94	11.69	-43.7	-46.3	17.6	0.00e+00	0	43	0	91226112	58	5005
2026-01-19 22:03:49.45	48.12	11.75	-43.7	-46.3	17.6	0.00e+00	0	43	0	93323264	58	4984
2026-01-19 22:03:50.31	48.25	11.80	-43.7	-46.3	17.7	0.00e+00	0	43	0	94371840	58	5025
2026-01-19 22:03:51.44	48.43	11.86	-43.7	-46.3	17.7	0.00e+00	0	43	0	96468992	58	4991
2026-01-19 22:03:52.30	48.56	11.90	-43.8	-46.4	17.6	0.00e+00	0	43	0	98566144	58	5078
2026-01-19 22:03:53.43	48.74	11.96	-43.7	-46.3	17.6	0.00e+00	0	43	0	100663296	58	5000
2026-01-19 22:03:54.28	48.87	12.01	-43.6	-46.2	17.8	0.00e+00	0	43	0	101711872	58	4936
2026-01-19 22:03:55.42	49.05	12.07	-43.7	-46.2	17.7	0.00e+00	0	43	0	103809024	58	4960
2026-01-19 22:03:56.27	49.19	12.11	-43.7	-46.3	17.7	0.00e+00	0	43	0	105906176	58	5000
2026-01-19 22:03:57.49	49.38	12.18	-43.7	-46.3	17.7	0.00e+00	0	43	0	108003328	58	4998
2026-01-19 22:03:58.34	49.52	12.22	-43.7	-46.3	17.7	0.00e+00	0	43	0	110100480	58	4993
2026-01-19 22:03:59.48	49.70	12.28	-43.7	-46.3	17.6	0.00e+00	0	43	0	112197632	58	5008
2026-01-19 22:04:00.33	49.84	12.33	-43.8	-46.4	17.6	0.00e+00	0	43	0	113246208	58	5053
2026-01-19 22:04:01.60	50.04	12.40	-43.9	-46.5	17.6	0.00e+00	0	43	0	115343360	58	5106
2026-01-19 22:04:02.31	50.16	12.43	-43.9	-46.5	17.5	0.00e+00	0	43	0	117440512	58	5119
2026-01-19 22:04:03.81	50.40	12.51	-43.9	-46.4	17.5	0.00e+00	0	43	0	119537664	58	5098
2026-01-19 22:04:04.52	50.52	12.55	-43.9	-46.5	17.5	0.00e+00	0	43	0	121634816	58	5151
2026-01-19 22:04:05.80	50.73	12.62	-43.8	-46.3	17.6	0.00e+00	0	43	0	123731968	58	5040
2026-01-19 22:04:06.51	50.84	12.65	-43.8	-46.4	17.6	0.00e+00	0	43	0	124780544	58	5056
2026-01-19 22:04:07.79	51.06	12.72	-43.8	-46.3	17.7	0.00e+00	0	43	0	127926272	58	5012
2026-01-19 22:04:08.52	51.18	12.76	-43.7	-46.3	17.7	0.00e+00	0	43	0	128974848	58	4988
2026-01-19 22:04:09.79	51.39	12.83	-43.8	-46.3	17.7	0.00e+00	0	43	0	131072000	58	5016
2026-01-19 22:04:10.52	51.51	12.86	-43.8	-46.3	17.6	0.00e+00	0	43	0	132120576	58	5040
2026-01-19 22:04:11.80	51.72	12.93	-43.9	-46.5	17.5	0.00e+00	0	43	0	135266304	58	5101
2026-01-19 22:04:12.56	51.85	12.97	-43.9	-46.5	17.5	0.00e+00	0	43	0	136314880	58	5138
2026-01-19 22:04:13.84	52.07	13.04	-44.1	-46.8	17.3	0.00e+00	0	43	0	138412032	59	5008
2026-01-19 22:04:14.61	52.20	13.08	-44.2	-46.8	17.2	0.00e+00	0	43	0	140509184	59	5028
2026-01-19 22:04:15.89	52.41	13.14	-44.3	-47.0	17.1	0.00e+00	0	43	0	142606336	59	5112
2026-01-19 22:04:16.66	52.54	13.18	-44.3	-47.0	17.1	0.00e+00	0	43	0	143654912	59	5127
2026-01-19 22:04:18.24	52.81	13.26	-44.1	-46.7	17.2	0.00e+00	0	43	0	146800640	59	4978
2026-01-19 22:04:18.87	52.92	13.29	-44.2	-46.9	17.2	0.00e+00	0	43	0	147849216	59	5042
2026-01-19 22:04:20.38	53.18	13.37	-44.0	-46.6	17.4	0.00e+00	0	43	0	150994944	59	4925
2026-01-19 22:04:21.25	53.33	13.41	-44.1	-46.8	17.3	0.00e+00	0	43	0	153092096	59	5006
2026-01-19 22:04:22.39	53.53	13.47	-44.2	-46.9	17.2	0.00e+00	0	43	0	155189248	59	5059
2026-01-19 22:04:23.25	53.68	13.52	-44.3	-47.1	17.0	0.00e+00	0	43	0	156237824	59	5169
2026-01-19 22:04:24.38	53.88	13.57	-44.4	-47.2	16.9	0.00e+00	0	43	0	158334976	59	5257
2026-01-19 22:04:25.23	54.02	13.61	-44.5	-47.3	16.8	0.00e+00	0	43	0	160432128	59	5317
2026-01-19 22:04:26.37	54.22	13.67	-44.6	-47.4	16.7	0.00e+00	0	43	0	162529280	59	5370
2026-01-19 22:04:27.22	54.37	13.71	-44.6	-47.5	16.5	0.00e+00	0	43	0	163577856	60	5129
2026-01-19 22:04:28.36	54.58	13.77	-44.6	-47.5	16.7	0.00e+00	0	43	0	165675008	60	5118
2026-01-19 22:04:29.21	54.73	13.81	-44.6	-47.5	16.6	0.00e+00	0	43	0	167772160	60	5115
2026-01-19 22:04:30.35	54.93	13.87	-44.6	-47.4	16.7	0.00e+00	0	43	0	169869312	60	5083
2026-01-19 22:04:31.20	55.08	13.91	-44.6	-47.4	16.8	0.00e+00	0	43	0	170917888	60	5060
2026-01-19 22:04:32.34	55.28	13.97	-44.4	-47.1	17.0	0.00e+00	0	43	0	173015040	60	4920
2026-01-19 22:04:33.19	55.44	14.01	-44.3	-47.1	17.1	0.00e+00	0	43	0	175112192	60	4879
2026-01-19 22:04:34.47	55.67	14.07	-44.4	-47.2	16.9	0.00e+00	0	43	0	177209344	60	4954
2026-01-19 22:04:35.19	55.80	14.11	-44.3	-47.1	17.0	0.00e+00	0	43	0	179306496	60	4885
2026-01-19 22:04:36.48	56.03	14.17	-44.4	-47.2	17.0	0.00e+00	0	43	0	181403648	60	4948
2026-01-19 22:04:37.19	56.16	14.20	-44.4	-47.2	17.0	0.00e+00	0	43	0	182452224	60	4936
2026-01-19 22:04:38.47	56.40	14.27	-44.3	-47.0	17.1	0.00e+00	0	43	0	184549376	60	4863
2026-01-19 22:04:39.18	56.53	14.30	-44.4	-47.2	16.9	0.00e+00	0	43	0	186646528	60	4979
2026-01-19 22:04:40.46	56.76	14.36	-44.5	-47.3	16.8	0.00e+00	0	43	0	188743680	60	5027
2026-01-19 22:04:41.20	56.90	14.40	-44.6	-47.4	16.7	0.00e+00	0	43	0	189792256	60	5089
2026-01-19 22:04:42.48	57.13	14.46	-44.7	-47.6	16.6	0.00e+00	0	43	0	192937984	60	5185
2026-01-19 22:04:43.19	57.27	14.49	-44.8	-47.7	16.5	0.00e+00	0	43	0	193986560	60	5263
2026-01-19 22:04:44.47	57.50	14.55	-44.8	-47.7	16.5	0.00e+00	0	43	0	196083712	60	5266
2026-01-19 22:04:45.18	57.64	14.58	-44.7	-47.6	16.5	0.00e+00	0	43	0	197132288	60	5164
2026-01-19 22:04:46.46	57.88	14.64	-44.6	-47.4	16.7	0.00e+00	0	43	0	200278016	60	5092
2026-01-19 22:04:47.17	58.01	14.68	-44.6	-47.4	16.8	0.00e+00	0	43	0	201326592	60	5052
2026-01-19 22:04:48.53	58.27	14.74	-44.4	-47.2	17.0	0.00e+00	0	43	0	203423744	60	4956
2026-01-19 22:04:49.24	58.40	14.77	-44.4	-47.1	17.1	0.00e+00	0	43	0	205520896	60	4922
2026-01-19 22:04:50.52	58.64	14.83	-44.6	-47.5	16.8	0.00e+00	0	43	0	207618048	60	5102
2026-01-19 22:04:51.24	58.78	14.86	-44.7	-47.5	16.7	0.00e+00	0	43	0	208666624	60	5142
2026-01-19 22:04:52.71	59.06	14.93	-44.8	-47.6	16.5	0.00e+00	0	43	0	211812352	60	5210
2026-01-19 22:04:53.42	59.19	14.96	-44.9	-47.8	16.3	0.00e+00	0	43	0	212860928	60	5304
2026-01-19 22:04:54.76	59.45	15.02	-45.0	-48.0	16.2	0.00e+00	0	43	0	216006656	60	5412
2026-01-19 22:04:55.47	59.59	15.05	-45.1	-48.0	16.3	0.00e+00	0	43	0	217055232	60	5460
2026-01-19 22:04:56.75	59.84	15.11	-45.0	-48.0	16.3	0.00e+00	0	43	0	219152384	60	5435
2026-01-19 22:04:57.46	59.97	15.14	-44.8	-47.8	16.4	0.00e+00	0	43	0	220200960	60	5316
2026-01-19 22:04:58.74	60.22	15.20	-45.0	-48.1	16.1	0.00e+00	0	44	0	223346688	60	5510
2026-01-19 22:04:59.47	60.36	15.23	-45.1	-48.3	15.9	0.00e+00	0	43	0	224395264	61	5284
2026-01-19 22:05:00.75	60.61	15.29	-45.2	-48.3	15.9	0.00e+00	0	43	0	226492416	61	5337
2026-01-19 22:05:01.47	60.76	15.32	-45.4	-48.7	15.6	0.00e+00	0	43	0	228589568	61	5529
2026-01-19 22:05:02.75	61.01	15.37	-45.3	-48.4	15.9	0.00e+00	0	43	0	230686720	61	5366
2026-01-19 22:05:03.46	61.15	15.41	-45.0	-48.0	16.2	0.00e+00	0	43	0	231735296	61	5159
2026-01-19 22:05:04.74	61.40	15.46	-44.7	-47.6	16.6	0.00e+00	0	43	0	233832448	61	4878
2026-01-19 22:05:05.46	61.54	15.49	-44.7	-47.6	16.6	0.00e+00	0	43	0	235929600	61	4873
2026-01-19 22:05:06.74	61.80	15.54	-44.5	-47.3	16.9	0.00e+00	0	43	0	238026752	60	5012
2026-01-19 22:05:07.45	61.94	15.57	-44.5	-47.3	16.9	0.00e+00	0	43	0	239075328	60	5006
2026-01-19 22:05:08.73	62.19	15.63	-44.5	-47.3	16.9	0.00e+00	0	43	0	242221056	60	5039
2026-01-19 22:05:09.46	62.34	15.66	-44.5	-47.4	16.8	0.00e+00	0	43	0	243269632	60	5069
2026-01-19 22:05:10.74	62.60	15.71	-44.7	-47.6	16.6	0.00e+00	0	43	0	245366784	60	5181
2026-01-19 22:05:11.69	62.79	15.75	-44.7	-47.6	16.6	0.00e+00	0	43	0	247463936	60	5195
2026-01-19 22:05:12.68	62.99	15.79	-44.8	-47.6	16.5	0.00e+00	0	43	0	249561088	60	5217
2026-01-19 22:05:13.68	63.19	15.83	-44.7	-47.6	16.6	0.00e+00	0	43	0	250609664	60	5172
2026-01-19 22:05:14.67	63.39	15.87	-44.6	-47.4	16.8	0.00e+00	0	44	0	252706816	60	5047
2026-01-19 22:05:15.67	63.60	15.91	-44.5	-47.3	16.9	0.00e+00	0	43	0	254803968	60	5005
2026-01-19 22:05:16.66	63.80	15.95	-44.3	-47.0	17.1	0.00e+00	0	44	0	256901120	60	4840
2026-01-19 22:05:17.66	64.00	15.99	-44.3	-46.9	17.1	0.00e+00	0	44	0	257949696	60	4804
2026-01-19 22:05:18.65	64.20	16.03	-44.3	-47.0	17.2	0.00e+00	0	43	0	260046848	60	4852
2026-01-19 22:05:19.65	64.41	16.07	-44.1	-46.8	17.4	0.00e+00	0	43	0	262144000	60	4717
2026-01-19 22:05:20.64	64.61	16.10	-44.1	-46.8	17.3	0.00e+00	0	43	0	264241152	60	4749
2026-01-19 22:05:21.63	64.82	16.14	-44.0	-46.6	17.4	0.00e+00	0	44	0	266338304	59	4904
2026-01-19 22:05:22.63	65.03	16.18	-44.1	-46.6	17.5	0.00e+00	0	44	0	267386880	59	4919
2026-01-19 22:05:23.83	65.28	16.23	-43.9	-46.4	17.7	0.00e+00	0	44	0	270532608	59	4808
2026-01-19 22:05:24.71	65.46	16.26	-43.7	-46.2	17.8	0.00e+00	0	44	0	271581184	59	4697
2026-01-19 22:05:26.03	65.73	16.31	-43.7	-46.2	17.8	0.00e+00	0	43	0	274726912	59	4671
2026-01-19 22:05:26.74	65.88	16.33	-43.9	-46.4	17.7	0.00e+00	0	44	0	275775488	59	4798
2026-01-19 22:05:28.22	66.19	16.39	-43.9	-46.4	17.6	0.00e+00	0	43	0	277872640	59	4806
2026-01-19 22:05:28.93	66.34	16.41	-43.9	-46.5	17.6	0.00e+00	0	44	0	279969792	59	4835
2026-01-19 22:05:30.27	66.63	16.46	-43.8	-46.4	17.7	0.00e+00	0	44	0	282066944	59	4766
2026-01-19 22:05:30.98	66.78	16.49	-43.7	-46.2	17.8	0.00e+00	0	43	0	283115520	59	4700
2026-01-19 22:05:32.26	67.05	16.53	-43.6	-46.1	18.0	0.00e+00	0	43	0	286261248	59	4612
2026-01-19 22:05:32.97	67.20	16.55	-43.6	-46.0	18.0	0.00e+00	0	44	0	287309824	59	4597
2026-01-19 22:05:34.25	67.47	16.60	-43.6	-46.1	18.0	0.00e+00	0	43	0	289406976	59	4610
2026-01-19 22:05:34.96	67.62	16.62	-43.8	-46.3	17.8	0.00e+00	0	43	0	290455552	59	4748
2026-01-19 22:05:36.24	67.90	16.67	-44.0	-46.6	17.5	0.00e+00	0	44	0	293601280	59	4880
2026-01-19 22:05:36.96	68.05	16.69	-44.1	-46.7	17.4	0.00e+00	0	44	0	294649856	59	4963
2026-01-19 22:05:38.24	68.33	16.73	-44.4	-47.1	17.0	0.00e+00	0	44	0	296747008	59	5160
2026-01-19 22:05:38.97	68.48	16.76	-44.6	-47.3	16.9	0.00e+00	0	43	0	298844160	59	5308
2026-01-19 22:05:40.24	68.76	16.80	-44.5	-47.2	17.0	0.00e+00	0	44	0	300941312	59	5246
2026-01-19 22:05:41.08	68.94	16.82	-44.6	-47.3	16.9	0.00e+00	0	44	0	301989888	59	5322
2026-01-19 22:05:42.52	69.25	16.87	-44.5	-47.2	16.9	0.00e+00	0	44	0	305135616	59	5261
2026-01-19 22:05:43.23	69.41	16.89	-44.4	-47.1	17.0	0.00e+00	0	44	0	306184192	59	5217
2026-01-19 22:05:44.51	69.68	16.93	-44.4	-47.1	17.1	0.00e+00	0	43	0	308281344	59	5186
2026-01-19 22:05:45.22	69.84	16.95	-44.4	-47.0	17.1	0.00e+00	0	44	0	310378496	59	5146
2026-01-19 22:05:46.75	70.17	17.00	-44.0	-46.5	17.5	0.00e+00	0	44	0	313524224	59	4868
2026-01-19 22:05:47.46	70.33	17.02	-43.9	-46.5	17.7	0.00e+00	0	44	0	314572800	59	4816
2026-01-19 22:05:48.74	70.61	17.06	-43.5	-46.0	18.1	0.00e+00	0	44	0	316669952	59	4575
2026-01-19 22:05:49.47	70.77	17.08	-43.3	-45.7	18.3	0.00e+00	0	43	0	317718528	58	4685
2026-01-19 22:05:50.75	71.05	17.12	-43.2	-45.6	18.4	0.00e+00	0	44	0	320864256	58	4621
2026-01-19 22:05:51.46	71.21	17.14	-43.4	-45.9	18.2	0.00e+00	0	44	0	321912832	58	4761
2026-01-19 22:05:52.74	71.49	17.17	-43.9	-46.4	17.7	0.00e+00	0	44	0	324009984	58	5072
2026-01-19 22:05:53.46	71.65	17.19	-43.9	-46.4	17.7	0.00e+00	0	44	0	325058560	58	5092
2026-01-19 22:05:54.74	71.94	17.23	-44.2	-46.8	17.3	0.00e+00	0	43	0	328204288	59	4998
2026-01-19 22:05:55.45	72.09	17.25	-44.1	-46.7	17.4	0.00e+00	0	43	0	329252864	59	4939
2026-01-19 22:05:56.73	72.38	17.28	-44.0	-46.5	17.6	0.00e+00	0	44	0	331350016	59	4852
2026-01-19 22:05:57.45	72.54	17.30	-43.9	-46.4	17.7	0.00e+00	0	44	0	333447168	59	4812
2026-01-19 22:05:58.73	72.83	17.33	-43.9	-46.4	17.7	0.00e+00	0	43	0	335544320	59	4797
2026-01-19 22:05:59.44	72.98	17.35	-43.9	-46.5	17.6	0.00e+00	0	43	0	336592896	59	4843
2026-01-19 22:06:00.72	73.27	17.38	-44.2	-46.8	17.3	0.00e+00	0	43	0	339738624	59	5022
2026-01-19 22:06:01.43	73.43	17.40	-44.3	-47.0	17.2	0.00e+00	0	43	0	340787200	59	5127
2026-01-19 22:06:02.71	73.72	17.43	-44.4	-47.1	17.0	0.00e+00	0	43	0	342884352	59	5165
2026-01-19 22:06:03.42	73.88	17.44	-44.4	-47.0	17.1	0.00e+00	0	43	0	343932928	59	5158
2026-01-19 22:06:04.75	74.18	17.48	-44.0	-46.5	17.6	0.00e+00	0	44	0	347078656	59	4853
2026-01-19 22:06:05.46	74.34	17.49	-43.7	-46.2	17.8	0.00e+00	0	43	0	348127232	59	4701
2026-01-19 22:06:06.74	74.63	17.52	-43.7	-46.2	18.0	0.00e+00	0	43	0	350224384	59	4656
2026-01-19 22:06:07.47	74.79	17.54	-43.7	-46.2	17.9	0.00e+00	0	43	0	352321536	59	4696
2026-01-19 22:06:08.74	75.08	17.56	-43.9	-46.5	17.6	0.00e+00	0	44	0	354418688	59	4817
2026-01-19 22:06:09.45	75.24	17.58	-44.1	-46.7	17.4	0.00e+00	0	43	0	355467264	59	4977
2026-01-19 22:06:10.73	75.54	17.61	-44.2	-46.8	17.3	0.00e+00	0	44	0	357564416	59	5034
2026-01-19 22:06:11.46	75.70	17.62	-44.1	-46.7	17.4	0.00e+00	0	44	0	359661568	59	4965
2026-01-19 22:06:12.74	75.99	17.65	-43.9	-46.4	17.7	0.00e+00	0	43	0	361758720	59	4808
2026-01-19 22:06:13.48	76.16	17.66	-43.8	-46.3	17.8	0.00e+00	0	43	0	362807296	59	4711
2026-01-19 22:06:14.76	76.46	17.68	-43.8	-46.3	17.7	0.00e+00	0	44	0	365953024	59	4755
2026-01-19 22:06:15.50	76.63	17.70	-44.0	-46.6	17.6	0.00e+00	0	43	0	367001600	59	4883
2026-01-19 22:06:16.78	76.92	17.72	-44.4	-47.1	17.1	0.00e+00	0	43	0	369098752	59	5177
2026-01-19 22:06:17.53	77.09	17.74	-44.6	-47.3	16.8	0.00e+00	0	43	0	371195904	59	5334
2026-01-19 22:06:18.81	77.39	17.76	-44.9	-47.8	16.4	0.00e+00	0	43	0	373293056	60	5333
2026-01-19 22:06:19.59	77.57	17.77	-45.0	-48.0	16.3	0.00e+00	0	44	0	374341632	60	5421
2026-01-19 22:06:20.87	77.86	17.79	-45.0	-47.9	16.2	0.00e+00	0	43	0	377487360	60	5402
2026-01-19 22:06:21.66	78.04	17.80	-45.0	-48.0	16.3	0.00e+00	0	44	0	378535936	60	5423
2026-01-19 22:06:23.16	78.39	17.83	-45.1	-48.0	16.3	0.00e+00	0	43	0	381681664	60	5441
2026-01-19 22:06:23.87	78.55	17.84	-45.2	-48.2	16.1	0.00e+00	0	43	0	382730240	61	5272
2026-01-19 22:06:25.15	78.85	17.86	-45.2	-48.3	16.0	0.00e+00	0	44	0	384827392	61	5287
2026-01-19 22:06:25.86	79.01	17.87	-45.2	-48.3	15.9	0.00e+00	0	44	0	385875968	61	5324
2026-01-19 22:06:27.14	79.31	17.88	-45.2	-48.3	16.0	0.00e+00	0	43	0	389021696	61	5305
2026-01-19 22:06:27.85	79.48	17.89	-44.9	-47.8	16.4	0.00e+00	0	44	0	390070272	61	5022
2026-01-19 22:06:29.13	79.77	17.91	-44.5	-47.3	16.9	0.00e+00	0	43	0	392167424	61	4734
2026-01-19 22:06:29.90	79.95	17.92	-44.5	-47.2	17.0	0.00e+00	0	43	0	394264576	60	4980
2026-01-19 22:06:31.18	80.25	17.93	-44.4	-47.2	17.1	0.00e+00	0	43	0	396361728	60	4932
2026-01-19 22:06:31.97	80.43	17.94	-44.3	-47.1	17.1	0.00e+00	0	43	0	397410304	60	4897
2026-01-19 22:06:33.15	80.71	17.96	-44.4	-47.2	17.1	0.00e+00	0	43	0	399507456	60	4938
2026-01-19 22:06:34.00	80.91	17.97	-44.3	-47.1	17.1	0.00e+00	0	44	0	401604608	60	4908
2026-01-19 22:06:35.14	81.17	17.98	-44.1	-46.9	17.4	0.00e+00	0	44	0	403701760	60	4764
2026-01-19 22:06:36.00	81.37	17.99	-44.0	-46.7	17.4	0.00e+00	0	44	0	405798912	60	4693
2026-01-19 22:06:37.13	81.64	18.00	-44.1	-46.8	17.4	0.00e+00	0	44	0	407896064	60	4745
2026-01-19 22:06:37.99	81.84	18.00	-44.1	-46.8	17.4	0.00e+00	0	44	0	408944640	60	4715
2026-01-19 22:06:39.12	82.10	18.01	-44.2	-47.0	17.2	0.00e+00	0	43	0	411041792	60	4836
2026-01-19 22:06:39.98	82.30	18.02	-44.4	-47.2	17.0	0.00e+00	0	43	0	413138944	60	4981
2026-01-19 22:06:41.12	82.57	18.03	-44.5	-47.3	16.9	0.00e+00	0	44	0	415236096	60	5032
2026-01-19 22:06:41.97	82.77	18.03	-44.5	-47.4	16.9	0.00e+00	0	44	0	416284672	60	5044
2026-01-19 22:06:43.11	83.04	18.04	-44.5	-47.3	17.0	0.00e+00	0	43	0	418381824	60	4996
2026-01-19 22:06:43.96	83.24	18.05	-44.4	-47.2	17.1	0.00e+00	0	43	0	420478976	60	4943
2026-01-19 22:06:45.10	83.51	18.05	-44.4	-47.2	17.1	0.00e+00	0	44	0	422576128	60	4929
2026-01-19 22:06:46.41	83.81	18.06	-44.4	-47.3	16.9	0.00e+00	0	44	0	424673280	60	4987
2026-01-19 22:06:47.12	83.98	18.06	-44.4	-47.3	17.0	0.00e+00	0	43	0	426770432	60	4987
2026-01-19 22:06:48.40	84.28	18.07	-44.6	-47.6	16.7	0.00e+00	0	43	0	428867584	60	5178
2026-01-19 22:06:49.13	84.45	18.07	-44.5	-47.5	16.7	0.00e+00	0	43	0	429916160	60	5135
2026-01-19 22:06:50.46	84.76	18.07	-44.4	-47.3	16.9	0.00e+00	0	43	0	432013312	60	5029
2026-01-19 22:06:51.17	84.93	18.07	-44.3	-47.2	17.0	0.00e+00	0	43	0	434110464	60	4934
2026-01-19 22:06:52.45	85.23	18.08	-44.2	-47.0	17.2	0.00e+00	0	44	0	436207616	60	4826
2026-01-19 22:06:53.17	85.40	18.08	-43.9	-46.5	17.6	0.00e+00	0	43	0	437256192	59	4859
2026-01-19 22:06:54.45	85.70	18.08	-43.9	-46.5	17.7	0.00e+00	0	43	0	440401920	59	4845
2026-01-19 22:06:55.16	85.87	18.08	-43.9	-46.6	17.6	0.00e+00	0	43	0	441450496	59	4883
2026-01-19 22:06:56.61	86.21	18.08	-43.9	-46.6	17.5	0.00e+00	0	44	0	443547648	59	4897
2026-01-19 22:06:57.32	86.38	18.08	-44.0	-46.7	17.5	0.00e+00	0	43	0	445644800	59	4965
2026-01-19 22:06:58.60	86.68	18.08	-44.3	-47.0	17.2	0.00e+00	0	44	0	447741952	59	5149
2026-01-19 22:06:59.68	86.93	18.08	-44.3	-47.1	17.1	0.00e+00	0	44	0	449839104	59	5165
2026-01-19 22:07:00.81	87.20	18.08	-44.3	-47.0	17.2	0.00e+00	0	44	0	451936256	59	5130
2026-01-19 22:07:01.84	87.44	18.07	-44.4	-47.1	17.0	0.00e+00	0	43	0	454033408	59	5195
2026-01-19 22:07:02.84	87.67	18.07	-44.6	-47.4	16.8	0.00e+00	0	44	0	456130560	59	5350
2026-01-19 22:07:03.83	87.91	18.07	-44.8	-47.8	16.4	0.00e+00	0	44	0	457179136	60	5310
2026-01-19 22:07:04.83	88.14	18.06	-45.0	-48.0	16.3	0.00e+00	0	43	0	459276288	60	5426
2026-01-19 22:07:05.82	88.37	18.06	-45.0	-48.0	16.2	0.00e+00	0	43	0	461373440	60	5452
2026-01-19 22:07:06.81	88.61	18.05	-45.1	-48.1	16.1	0.00e+00	0	44	0	463470592	60	5516
2026-01-19 22:07:07.81	88.84	18.05	-45.1	-48.1	16.2	0.00e+00	0	43	0	464519168	60	5488
2026-01-19 22:07:08.80	89.07	18.04	-44.9	-47.9	16.3	0.00e+00	0	44	0	466616320	60	5358
2026-01-19 22:07:09.80	89.31	18.04	-44.9	-48.0	16.3	0.00e+00	0	44	0	468713472	60	5404
2026-01-19 22:07:10.84	89.55	18.03	-44.9	-47.9	16.3	0.00e+00	0	43	0	470810624	60	5392
2026-01-19 22:07:11.82	89.78	18.02	-44.9	-47.9	16.4	0.00e+00	0	44	0	472907776	60	5349
2026-01-19 22:07:12.87	90.03	18.02	-44.9	-47.9	16.4	0.00e+00	0	44	0	475004928	60	5366
2026-01-19 22:07:13.78	90.24	18.01	-44.7	-47.6	16.5	0.00e+00	0	44	0	476053504	60	5213
2026-01-19 22:07:14.99	90.53	18.00	-44.5	-47.4	16.8	0.00e+00	0	44	0	478150656	60	5084
2026-01-19 22:07:15.84	90.72	17.99	-44.5	-47.3	16.9	0.00e+00	0	44	0	480247808	60	5008
2026-01-19 22:07:17.14	91.03	17.98	-44.2	-46.8	17.4	0.00e+00	0	44	0	482344960	60	4743
2026-01-19 22:07:17.85	91.19	17.97	-44.0	-46.6	17.6	0.00e+00	0	44	0	483393536	59	4873
2026-01-19 22:07:19.13	91.49	17.96	-43.6	-46.1	17.9	0.00e+00	0	44	0	486539264	59	4631
2026-01-19 22:07:20.28	91.76	17.95	-43.4	-45.8	18.3	0.00e+00	0	44	0	488636416	58	4723
2026-01-19 22:07:21.13	91.96	17.94	-43.3	-45.8	18.2	0.00e+00	0	44	0	489684992	58	4721
2026-01-19 22:07:22.27	92.23	17.92	-43.4	-45.9	18.2	0.00e+00	0	44	0	491782144	58	4760
2026-01-19 22:07:23.12	92.42	17.91	-43.5	-45.9	18.1	0.00e+00	0	44	0	493879296	58	4802
2026-01-19 22:07:24.34	92.71	17.90	-43.9	-46.4	17.7	0.00e+00	0	44	0	495976448	58	5097
2026-01-19 22:07:25.19	92.90	17.89	-43.9	-46.5	17.6	0.00e+00	0	44	0	498073600	58	5144
2026-01-19 22:07:26.37	93.18	17.87	-44.3	-47.0	17.2	0.00e+00	0	43	0	500170752	59	5106
2026-01-19 22:07:27.23	93.38	17.86	-44.5	-47.2	16.9	0.00e+00	0	44	0	501219328	59	5252
2026-01-19 22:07:28.37	93.64	17.84	-44.5	-47.3	16.8	0.00e+00	0	44	0	503316480	59	5293
2026-01-19 22:07:29.22	93.84	17.83	-44.6	-47.4	16.8	0.00e+00	0	43	0	505413632	60	5052
2026-01-19 22:07:30.52	94.14	17.81	-44.6	-47.4	16.8	0.00e+00	0	44	0	507510784	60	5074
2026-01-19 22:07:31.23	94.30	17.80	-44.7	-47.6	16.7	0.00e+00	0	44	0	508559360	60	5163
2026-01-19 22:07:32.51	94.60	17.78	-44.6	-47.5	16.8	0.00e+00	0	44	0	511705088	60	5109
2026-01-19 22:07:33.22	94.76	17.77	-44.6	-47.4	16.8	0.00e+00	0	43	0	512753664	60	5079
2026-01-19 22:07:34.50	95.06	17.74	-44.5	-47.2	16.9	0.00e+00	0	44	0	514850816	60	4980
2026-01-19 22:07:35.21	95.22	17.73	-44.4	-47.2	17.0	0.00e+00	0	44	0	515899392	60	4954
2026-01-19 22:07:36.49	95.52	17.71	-44.1	-46.7	17.5	0.00e+00	0	43	0	519045120	60	4677
2026-01-19 22:07:37.20	95.68	17.69	-44.0	-46.6	17.6	0.00e+00	0	43	0	520093696	60	4623
2026-01-19 22:07:38.48	95.97	17.67	-43.9	-46.4	17.7	0.00e+00	0	43	0	522190848	59	4787
2026-01-19 22:07:39.19	96.14	17.66	-43.9	-46.4	17.6	0.00e+00	0	43	0	524288000	59	4807
2026-01-19 22:07:40.47	96.43	17.63	-44.0	-46.6	17.5	0.00e+00	0	44	0	526385152	59	4888
2026-01-19 22:07:41.20	96.60	17.62	-44.1	-46.7	17.4	0.00e+00	0	44	0	527433728	59	4969
2026-01-19 22:07:42.48	96.89	17.59	-44.3	-47.0	17.1	0.00e+00	0	44	0	529530880	59	5101
2026-01-19 22:07:43.19	97.05	17.58	-44.4	-47.1	17.1	0.00e+00	0	44	0	531628032	59	5164
2026-01-19 22:07:44.47	97.34	17.55	-44.3	-47.0	17.1	0.00e+00	0	44	0	533725184	59	5138
2026-01-19 22:07:45.21	97.51	17.53	-44.4	-47.1	17.0	0.00e+00	0	43	0	534773760	59	5187
2026-01-19 22:07:46.63	97.83	17.50	-44.2	-46.8	17.3	0.00e+00	0	44	0	537919488	59	5008
2026-01-19 22:07:47.34	97.99	17.48	-44.2	-46.8	17.3	0.00e+00	0	43	0	538968064	59	5019
2026-01-19 22:07:48.63	98.28	17.45	-44.0	-46.6	17.5	0.00e+00	0	44	0	541065216	59	4913
2026-01-19 22:07:49.66	98.52	17.43	-44.0	-46.5	17.6	0.00e+00	0	44	0	543162368	59	4862
2026-01-19 22:07:50.99	98.82	17.40	-43.9	-46.4	17.7	0.00e+00	0	44	0	546308096	59	4780
2026-01-19 22:07:51.70	98.98	17.38	-44.0	-46.5	17.5	0.00e+00	0	44	0	547356672	59	4857
2026-01-19 22:07:52.98	99.26	17.35	-44.0	-46.6	17.5	0.00e+00	0	44	0	549453824	59	4885
2026-01-19 22:07:53.70	99.43	17.33	-43.9	-46.4	17.7	0.00e+00	0	44	0	551550976	59	4786
2026-01-19 22:07:54.98	99.71	17.30	-43.8	-46.3	17.8	0.00e+00	0	43	0	553648128	59	4719
2026-01-19 22:07:55.70	99.87	17.28	-43.7	-46.2	17.9	0.00e+00	0	44	0	554696704	59	4668
2026-01-19 22:07:56.98	100.16	17.25	-43.4	-45.8	18.2	0.00e+00	0	44	0	556793856	58	4731
2026-01-19 22:07:57.69	100.32	17.23	-43.4	-45.8	18.3	0.00e+00	0	44	0	558891008	58	4721
2026-01-19 22:07:58.97	100.60	17.19	-43.3	-45.7	18.4	0.00e+00	0	44	0	560988160	58	4668
2026-01-19 22:07:59.69	100.76	17.17	-43.3	-45.7	18.3	0.00e+00	0	43	0	562036736	58	4677
2026-01-19 22:08:01.07	101.07	17.13	-43.4	-45.8	18.2	0.00e+00	0	44	0	565182464	58	4734
2026-01-19 22:08:01.78	101.23	17.11	-43.5	-45.9	18.2	0.00e+00	0	44	0	566231040	58	4782
2026-01-19 22:08:03.12	101.52	17.07	-43.4	-45.8	18.2	0.00e+00	0	44	0	568328192	58	4741
2026-01-19 22:08:03.83	101.68	17.05	-43.5	-45.9	18.1	0.00e+00	0	43	0	570425344	58	4811
2026-01-19 22:08:05.11	101.96	17.02	-43.6	-46.0	18.0	0.00e+00	0	44	0	572522496	58	4864
2026-01-19 22:08:05.84	102.12	16.99	-43.5	-46.0	18.1	0.00e+00	0	44	0	573571072	58	4846
2026-01-19 22:08:07.26	102.43	16.95	-43.5	-46.0	18.1	0.00e+00	0	44	0	576716800	58	4833
2026-01-19 22:08:07.97	102.59	16.93	-43.6	-46.0	18.0	0.00e+00	0	43	0	577765376	58	4852
2026-01-19 22:08:09.25	102.87	16.89	-43.5	-45.9	18.1	0.00e+00	0	44	0	579862528	58	4809
2026-01-19 22:08:09.96	103.02	16.87	-43.5	-46.0	18.1	0.00e+00	0	44	0	581959680	58	4845
2026-01-19 22:08:11.24	103.30	16.83	-43.6	-46.0	18.1	0.00e+00	0	44	0	584056832	58	4846
2026-01-19 22:08:11.98	103.46	16.80	-43.6	-46.1	17.9	0.00e+00	0	44	0	585105408	58	4908
2026-01-19 22:08:13.26	103.74	16.76	-43.4	-45.9	18.2	0.00e+00	0	44	0	587202560	58	4777
2026-01-19 22:08:13.97	103.89	16.74	-43.5	-45.9	18.1	0.00e+00	0	44	0	589299712	58	4798
2026-01-19 22:08:15.25	104.17	16.70	-43.5	-46.0	18.1	0.00e+00	0	44	0	591396864	58	4851
2026-01-19 22:08:15.96	104.32	16.67	-43.5	-46.0	18.1	0.00e+00	0	43	0	592445440	58	4825
2026-01-19 22:08:17.24	104.60	16.63	-43.8	-46.4	17.7	0.00e+00	0	43	0	595591168	58	5047
2026-01-19 22:08:17.95	104.75	16.60	-43.8	-46.3	17.7	0.00e+00	0	44	0	596639744	58	5034
2026-01-19 22:08:19.23	105.02	16.56	-43.7	-46.3	17.8	0.00e+00	0	44	0	598736896	58	4985
2026-01-19 22:08:19.94	105.17	16.54	-43.6	-46.1	17.9	0.00e+00	0	44	0	599785472	58	4897
2026-01-19 22:08:21.22	105.44	16.49	-43.4	-45.8	18.3	0.00e+00	0	44	0	602931200	58	4717
2026-01-19 22:08:21.94	105.60	16.47	-43.4	-45.8	18.3	0.00e+00	0	44	0	603979776	58	4716
2026-01-19 22:08:23.24	105.87	16.42	-43.3	-45.7	18.3	0.00e+00	0	44	0	606076928	58	4671
2026-01-19 22:08:23.95	106.02	16.39	-43.4	-45.8	18.3	0.00e+00	0	44	0	608174080	58	4717
2026-01-19 22:08:25.23	106.29	16.35	-43.5	-45.9	18.2	0.00e+00	0	44	0	610271232	58	4774
2026-01-19 22:08:25.94	106.44	16.32	-43.7	-46.1	17.9	0.00e+00	0	44	0	611319808	58	4910
2026-01-19 22:08:27.22	106.71	16.27	-43.8	-46.3	17.8	0.00e+00	0	44	0	614465536	58	5020
2026-01-19 22:08:27.95	106.86	16.25	-43.8	-46.4	17.7	0.00e+00	0	44	0	615514112	58	5054
2026-01-19 22:08:29.22	107.13	16.20	-43.7	-46.3	17.8	0.00e+00	0	44	0	617611264	58	4988
2026-01-19 22:08:29.95	107.28	16.17	-43.6	-46.2	17.9	0.00e+00	0	44	0	618659840	58	4932
2026-01-19 22:08:31.23	107.55	16.12	-43.4	-45.9	18.1	0.00e+00	0	44	0	621805568	58	4794
2026-01-19 22:08:31.96	107.70	16.09	-43.6	-46.1	18.0	0.00e+00	0	43	0	622854144	58	4881
2026-01-19 22:08:33.23	107.96	16.04	-43.7	-46.3	17.8	0.00e+00	0	44	0	624951296	58	4993
2026-01-19 22:08:33.95	108.11	16.02	-44.0	-46.6	17.5	0.00e+00	0	44	0	625999872	58	5167
2026-01-19 22:08:35.22	108.37	15.97	-44.6	-47.4	16.7	0.00e+00	0	44	0	629145600	59	5396
2026-01-19 22:08:36.09	108.55	15.93	-44.7	-47.6	16.6	0.00e+00	0	44	0	630194176	60	5176
2026-01-19 22:08:37.23	108.78	15.89	-44.9	-47.8	16.4	0.00e+00	0	44	0	632291328	60	5305
2026-01-19 22:08:38.08	108.96	15.85	-44.9	-47.8	16.4	0.00e+00	0	44	0	634388480	60	5322
2026-01-19 22:08:39.22	109.19	15.81	-44.6	-47.4	16.7	0.00e+00	0	43	0	636485632	60	5087
2026-01-19 22:08:40.07	109.36	15.77	-44.6	-47.3	16.8	0.00e+00	0	44	0	637534208	60	5036
2026-01-19 22:08:41.21	109.59	15.72	-44.3	-46.9	17.2	0.00e+00	0	44	0	639631360	60	4808
2026-01-19 22:08:42.06	109.76	15.69	-44.1	-46.7	17.4	0.00e+00	0	43	0	641728512	60	4705
2026-01-19 22:08:43.22	110.00	15.64	-43.7	-46.2	17.8	0.00e+00	0	43	0	643825664	59	4704
2026-01-19 22:08:44.07	110.17	15.60	-43.6	-46.1	17.9	0.00e+00	0	44	0	645922816	59	4627
2026-01-19 22:08:45.21	110.40	15.56	-43.6	-46.1	17.9	0.00e+00	0	44	0	648019968	59	4631
2026-01-19 22:08:46.06	110.57	15.52	-43.7	-46.2	17.8	0.00e+00	0	44	0	649068544	59	4672
2026-01-19 22:08:47.33	110.82	15.47	-43.7	-46.2	17.9	0.00e+00	0	43	0	651165696	59	4656
2026-01-19 22:08:48.13	110.98	15.43	-43.7	-46.1	17.9	0.00e+00	0	44	0	653262848	59	4644
2026-01-19 22:08:49.27	111.20	15.38	-43.7	-46.2	17.8	0.00e+00	0	43	0	655360000	59	4694
2026-01-19 22:08:50.12	111.37	15.35	-43.8	-46.4	17.6	0.00e+00	0	44	0	656408576	59	4780
2026-01-19 22:08:51.26	111.60	15.30	-43.9	-46.5	17.6	0.00e+00	0	43	0	658505728	59	4855
2026-01-19 22:08:52.11	111.76	15.26	-44.2	-46.8	17.3	0.00e+00	0	44	0	660602880	59	5036
2026-01-19 22:08:53.48	112.03	15.20	-44.7	-47.6	16.5	0.00e+00	0	43	0	662700032	59	5468
2026-01-19 22:08:54.19	112.17	15.17	-45.0	-48.1	16.1	0.00e+00	0	44	0	664797184	60	5479
2026-01-19 22:08:55.69	112.46	15.10	-45.3	-48.5	15.7	0.00e+00	0	43	0	666894336	61	5461
2026-01-19 22:08:56.40	112.60	15.07	-45.5	-48.8	15.4	0.00e+00	0	43	0	668991488	61	5634
2026-01-19 22:08:57.73	112.86	15.01	-45.4	-48.7	15.4	0.00e+00	0	44	0	671088640	61	5561
2026-01-19 22:08:58.44	113.00	14.98	-45.4	-48.6	15.6	0.00e+00	0	44	0	672137216	61	5498
2026-01-19 22:08:59.78	113.25	14.92	-45.1	-48.2	16.0	0.00e+00	0	44	0	675282944	61	5243
2026-01-19 22:09:00.49	113.39	14.88	-45.0	-48.0	16.2	0.00e+00	0	43	0	676331520	61	5114
2026-01-19 22:09:01.77	113.63	14.82	-44.9	-47.8	16.4	0.00e+00	0	43	0	678428672	61	5008
2026-01-19 22:09:02.50	113.77	14.79	-44.9	-47.8	16.3	0.00e+00	0	44	0	680525824	61	5040
2026-01-19 22:09:03.78	114.02	14.73	-44.5	-47.2	16.9	0.00e+00	0	44	0	682622976	60	4967
2026-01-19 22:09:04.49	114.15	14.70	-44.5	-47.2	16.9	0.00e+00	0	44	0	683671552	60	4959
2026-01-19 22:09:05.77	114.39	14.64	-44.3	-46.9	17.2	0.00e+00	0	44	0	685768704	60	4803
2026-01-19 22:09:06.48	114.53	14.60	-44.3	-47.1	17.1	0.00e+00	0	43	0	687865856	60	4871
2026-01-19 22:09:07.76	114.77	14.54	-44.1	-46.7	17.4	0.00e+00	0	44	0	689963008	60	4704
2026-01-19 22:09:08.49	114.90	14.51	-44.0	-46.7	17.4	0.00e+00	0	44	0	691011584	60	4653
2026-01-19 22:09:09.77	115.14	14.45	-44.3	-47.0	17.1	0.00e+00	0	44	0	694157312	60	4849
2026-01-19 22:09:10.59	115.29	14.41	-44.6	-47.4	16.8	0.00e+00	0	44	0	695205888	60	5054
2026-01-19 22:09:11.73	115.51	14.35	-44.9	-47.8	16.4	0.00e+00	0	44	0	697303040	60	5302
2026-01-19 22:09:12.59	115.66	14.31	-45.1	-48.1	16.1	0.00e+00	0	44	0	699400192	60	5470
2026-01-19 22:09:13.72	115.87	14.26	-45.0	-48.0	16.2	0.00e+00	0	44	0	701497344	60	5442
2026-01-19 22:09:14.58	116.03	14.22	-45.0	-48.0	16.2	0.00e+00	0	44	0	702545920	60	5420
2026-01-19 22:09:15.71	116.24	14.16	-44.9	-47.8	16.3	0.00e+00	0	44	0	704643072	60	5315
2026-01-19 22:09:16.57	116.39	14.12	-44.8	-47.6	16.5	0.00e+00	0	44	0	706740224	60	5207
2026-01-19 22:09:17.70	116.60	14.06	-44.6	-47.5	16.6	0.00e+00	0	44	0	708837376	60	5113
2026-01-19 22:09:18.56	116.76	14.02	-44.6	-47.5	16.6	0.00e+00	0	43	0	709885952	60	5121
2026-01-19 22:09:19.69	116.96	13.97	-44.7	-47.5	16.7	0.00e+00	0	44	0	711983104	60	5116
2026-01-19 22:09:20.54	117.11	13.92	-44.7	-47.5	16.6	0.00e+00	0	44	0	714080256	60	5141
2026-01-19 22:09:21.68	117.32	13.87	-44.7	-47.6	16.5	0.00e+00	0	44	0	716177408	60	5175
2026-01-19 22:09:22.59	117.48	13.82	-44.7	-47.5	16.5	0.00e+00	0	44	0	717225984	60	5157
2026-01-19 22:09:23.76	117.69	13.76	-44.5	-47.3	16.8	0.00e+00	0	44	0	720371712	60	5027
2026-01-19 22:09:24.65	117.85	13.72	-44.5	-47.2	16.8	0.00e+00	0	44	0	721420288	60	4977
2026-01-19 22:09:25.78	118.05	13.66	-44.1	-46.7	17.3	0.00e+00	0	44	0	723517440	60	4705
2026-01-19 22:09:26.69	118.21	13.62	-44.2	-46.8	17.3	0.00e+00	0	44	0	725614592	60	4751
2026-01-19 22:09:27.85	118.41	13.56	-44.3	-47.0	17.1	0.00e+00	0	44	0	727711744	60	4823
2026-01-19 22:09:28.71	118.56	13.51	-44.2	-46.9	17.2	0.00e+00	0	44	0	728760320	60	4787
2026-01-19 22:09:30.00	118.79	13.45	-44.6	-47.5	16.6	0.00e+00	0	44	0	731906048	60	5105
2026-01-19 22:09:30.71	118.91	13.41	-44.7	-47.5	16.6	0.00e+00	0	44	0	732954624	60	5151
2026-01-19 22:09:31.99	119.13	13.35	-44.8	-47.7	16.4	0.00e+00	0	44	0	735051776	60	5236
2026-01-19 22:09:32.72	119.26	13.31	-45.0	-48.0	16.1	0.00e+00	0	44	0	737148928	60	5451
2026-01-19 22:09:34.00	119.48	13.24	-44.7	-47.5	16.6	0.00e+00	0	44	0	739246080	60	5136
2026-01-19 22:09:34.71	119.60	13.21	-44.5	-47.3	16.8	0.00e+00	0	43	0	740294656	60	5021
2026-01-19 22:09:35.99	119.82	13.14	-44.3	-47.0	17.0	0.00e+00	0	44	0	742391808	60	4861
2026-01-19 22:09:36.70	119.94	13.11	-44.2	-46.8	17.2	0.00e+00	0	44	0	744488960	60	4750
2026-01-19 22:09:37.98	120.16	13.04	-44.0	-46.6	17.4	0.00e+00	0	44	0	746586112	59	4892
2026-01-19 22:09:38.70	120.28	13.00	-44.0	-46.6	17.4	0.00e+00	0	44	0	747634688	59	4884
2026-01-19 22:09:39.99	120.50	12.93	-43.9	-46.4	17.5	0.00e+00	0	44	0	750780416	59	4809
2026-01-19 22:09:40.70	120.62	12.90	-43.9	-46.5	17.5	0.00e+00	0	44	0	751828992	59	4862
2026-01-19 22:09:41.98	120.84	12.83	-44.2	-46.9	17.1	0.00e+00	0	44	0	753926144	59	5067
2026-01-19 22:09:42.72	120.96	12.79	-44.0	-46.8	17.2	0.00e+00	0	44	0	756023296	59	5006
2026-01-19 22:09:44.00	121.17	12.72	-44.0	-46.9	17.1	0.00e+00	0	44	0	758120448	59	5057
2026-01-19 22:09:44.72	121.29	12.69	-44.3	-47.0	17.0	0.00e+00	0	44	0	759169024	59	5114
2026-01-19 22:09:46.02	121.51	12.62	-44.2	-46.9	17.1	0.00e+00	0	44	0	761266176	59	5044
2026-01-19 22:09:46.73	121.62	12.58	-44.3	-47.0	17.0	0.00e+00	0	44	0	763363328	59	5143
2026-01-19 22:09:48.01	121.83	12.51	-44.2	-46.8	17.1	0.00e+00	0	44	0	765460480	59	5039
2026-01-19 22:09:48.74	121.95	12.47	-44.1	-46.8	17.1	0.00e+00	0	44	0	766509056	59	5039
2026-01-19 22:09:50.02	122.16	12.41	-44.3	-47.1	16.9	0.00e+00	0	44	0	768606208	59	5188
2026-01-19 22:09:50.73	122.28	12.37	-44.2	-47.0	17.0	0.00e+00	0	44	0	770703360	59	5144
2026-01-19 22:09:52.01	122.49	12.30	-44.3	-47.1	16.9	0.00e+00	0	44	0	772800512	59	5165
2026-01-19 22:09:52.72	122.60	12.26	-44.4	-47.1	16.9	0.00e+00	0	44	0	773849088	59	5181
2026-01-19 22:09:54.00	122.81	12.19	-44.2	-46.9	17.1	0.00e+00	0	44	0	776994816	59	5072
2026-01-19 22:09:54.71	122.92	12.15	-44.3	-47.0	17.0	0.00e+00	0	44	0	778043392	59	5114
2026-01-19 22:09:55.99	123.12	12.09	-44.0	-46.6	17.3	0.00e+00	0	44	0	780140544	59	4922
2026-01-19 22:09:56.71	123.24	12.05	-44.0	-46.6	17.3	0.00e+00	0	44	0	781189120	59	4912
2026-01-19 22:09:57.99	123.44	11.98	-43.7	-46.3	17.7	0.00e+00	0	44	0	784334848	59	4724
2026-01-19 22:09:58.73	123.56	11.94	-43.5	-45.9	17.9	0.00e+00	0	43	0	785383424	58	4813
2026-01-19 22:10:00.01	123.76	11.87	-43.4	-45.9	18.0	0.00e+00	0	44	0	787480576	58	4763
2026-01-19 22:10:00.75	123.88	11.83	-43.6	-46.1	17.8	0.00e+00	0	44	0	789577728	58	4879
2026-01-19 22:10:02.03	124.08	11.76	-43.5	-46.1	17.8	0.00e+00	0	44	0	791674880	58	4910
2026-01-19 22:10:02.74	124.19	11.72	-43.7	-46.3	17.6	0.00e+00	0	44	0	792723456	58	5024
2026-01-19 22:10:04.02	124.39	11.65	-44.0	-46.6	17.3	0.00e+00	0	44	0	795869184	58	5169
2026-01-19 22:10:04.73	124.50	11.61	-44.1	-46.8	17.1	0.00e+00	0	44	0	796917760	58	5307
2026-01-19 22:10:06.13	124.71	11.54	-44.1	-46.9	17.1	0.00e+00	0	44	0	799014912	59	5042
2026-01-19 22:10:06.84	124.82	11.50	-44.1	-46.8	17.1	0.00e+00	0	43	0	801112064	59	5026
2026-01-19 22:10:08.12	125.02	11.43	-44.2	-46.9	17.0	0.00e+00	0	43	0	803209216	59	5073
2026-01-19 22:10:09.21	125.18	11.37	-44.0	-46.7	17.2	0.00e+00	0	44	0	805306368	59	4930
2026-01-19 22:10:10.33	125.35	11.31	-44.0	-46.6	17.3	0.00e+00	0	44	0	807403520	59	4899
2026-01-19 22:10:11.36	125.51	11.25	-43.8	-46.4	17.4	0.00e+00	0	43	0	809500672	59	4812
2026-01-19 22:10:12.36	125.66	11.20	-43.8	-46.4	17.4	0.00e+00	0	44	0	810549248	59	4798
2026-01-19 22:10:13.35	125.81	11.14	-43.9	-46.5	17.3	0.00e+00	0	44	0	812646400	59	4846
2026-01-19 22:10:14.35	125.96	11.09	-44.0	-46.6	17.3	0.00e+00	0	44	0	814743552	59	4906
2026-01-19 22:10:15.35	126.11	11.03	-44.2	-47.0	16.9	0.00e+00	0	43	0	816840704	59	5154
2026-01-19 22:10:16.34	126.25	10.98	-44.3	-47.1	16.8	0.00e+00	0	44	0	818937856	59	5173
2026-01-19 22:10:17.34	126.40	10.92	-44.4	-47.3	16.7	0.00e+00	0	44	0	819986432	59	5290
2026-01-19 22:10:18.33	126.55	10.87	-44.5	-47.3	16.6	0.00e+00	0	44	0	822083584	59	5326
2026-01-19 22:10:19.33	126.69	10.81	-44.3	-47.2	16.8	0.00e+00	0	44	0	824180736	59	5222
2026-01-19 22:10:20.32	126.84	10.76	-44.3	-47.1	16.8	0.00e+00	0	44	0	826277888	59	5196
2026-01-19 22:10:21.32	126.98	10.70	-44.2	-46.8	17.0	0.00e+00	0	44	0	828375040	59	5039
2026-01-19 22:10:22.32	127.13	10.65	-44.1	-46.8	17.0	0.00e+00	0	44	0	829423616	59	5028
2026-01-19 22:10:23.31	127.27	10.59	-44.2	-46.9	17.0	0.00e+00	0	44	0	831520768	59	5096
2026-01-19 22:10:24.35	127.42	10.54	-44.3	-47.1	16.8	0.00e+00	0	44	0	833617920	59	5188
2026-01-19 22:10:25.34	127.57	10.48	-44.5	-47.4	16.5	0.00e+00	0	43	0	835715072	59	5352
2026-01-19 22:10:26.34	127.71	10.43	-44.6	-47.5	16.4	0.00e+00	0	44	0	836763648	59	5419
2026-01-19 22:10:27.33	127.85	10.37	-44.8	-47.8	16.2	0.00e+00	0	44	0	838860800	60	5310
2026-01-19 22:10:28.44	128.01	10.31	-44.9	-48.0	15.9	0.00e+00	0	43	0	840957952	60	5460
2026-01-19 22:10:29.32	128.13	10.26	-45.0	-48.2	15.8	0.00e+00	0	44	0	843055104	60	5537
2026-01-19 22:10:30.46	128.29	10.20	-45.0	-48.4	15.5	0.00e+00	0	44	0	845152256	60	5722
2026-01-19 22:10:31.31	128.41	10.15	-45.2	-48.4	15.6	0.00e+00	0	44	0	846200832	60	5712
2026-01-19 22:10:32.45	128.57	10.09	-45.0	-48.2	15.7	0.00e+00	0	43	0	848297984	60	5592
2026-01-19 22:10:33.30	128.69	10.04	-44.7	-48.1	15.9	0.00e+00	0	44	0	850395136	60	5488
2026-01-19 22:10:34.44	128.85	9.98	-44.6	-47.9	16.0	0.00e+00	0	44	0	852492288	60	5356
2026-01-19 22:10:35.29	128.97	9.93	-44.6	-47.8	16.1	0.00e+00	0	44	0	853540864	60	5336
2026-01-19 22:10:36.43	129.12	9.86	-44.6	-47.6	16.3	0.00e+00	0	44	0	856686592	60	5193
2026-01-19 22:10:37.28	129.24	9.82	-44.6	-47.6	16.3	0.00e+00	0	44	0	857735168	60	5187
2026-01-19 22:10:38.42	129.40	9.75	-44.6	-47.7	16.2	0.00e+00	0	44	0	859832320	60	5261
2026-01-19 22:10:39.27	129.51	9.71	-44.9	-47.9	16.0	0.00e+00	0	44	0	861929472	60	5368
2026-01-19 22:10:40.41	129.67	9.64	-44.9	-48.0	15.9	0.00e+00	0	44	0	864026624	60	5425
2026-01-19 22:10:41.26	129.78	9.60	-45.1	-48.2	15.7	0.00e+00	0	43	0	865075200	60	5568
2026-01-19 22:10:42.40	129.94	9.53	-45.0	-48.3	15.6	0.00e+00	0	44	0	867172352	60	5622
2026-01-19 22:10:43.25	130.05	9.48	-45.1	-48.3	15.6	0.00e+00	0	44	0	869269504	61	5304
2026-01-19 22:10:44.39	130.20	9.42	-45.0	-48.2	15.7	0.00e+00	0	44	0	871366656	61	5251
2026-01-19 22:10:45.24	130.32	9.37	-44.9	-48.1	15.8	0.00e+00	0	44	0	872415232	61	5189
2026-01-19 22:10:46.38	130.47	9.31	-45.0	-48.1	15.8	0.00e+00	0	44	0	874512384	61	5169
2026-01-19 22:10:47.23	130.58	9.26	-44.9	-48.0	15.9	0.00e+00	0	44	0	876609536	61	5110
2026-01-19 22:10:48.37	130.73	9.20	-44.9	-48.0	15.9	0.00e+00	0	44	0	878706688	61	5127
2026-01-19 22:10:49.22	130.84	9.15	-45.0	-48.1	15.8	0.00e+00	0	44	0	879755264	61	5183
2026-01-19 22:10:50.36	130.99	9.09	-45.1	-48.2	15.7	0.00e+00	0	43	0	881852416	61	5264
2026-01-19 22:10:51.37	131.12	9.03	-45.2	-48.5	15.4	0.00e+00	0	44	0	883949568	61	5426
2026-01-19 22:10:52.36	131.25	8.98	-50.1	-65.5	3.8	4.73e-01	0	44	104	884998144	70	22843
2026-01-19 22:10:53.35	131.38	8.92	-50.5	-65.7	3.8	1.49e+00	0	44	104	884998144	71	22024
2026-01-19 22:10:54.35	131.51	8.87	-50.6	-65.8	3.8	1.49e+00	0	44	104	884998144	71	22293
2026-01-19 22:10:55.34	131.64	8.81	-50.5	-65.9	3.8	1.49e+00	0	44	104	884998144	71	22538
2026-01-19 22:10:56.34	131.77	8.75	-50.7	-65.9	3.8	1.49e+00	0	44	104	884998144	72	21302
2026-01-19 22:10:57.33	131.89	8.70	-50.5	-65.9	3.8	1.49e+00	0	44	104	884998144	72	21338
2026-01-19 22:10:58.32	132.02	8.64	-50.6	-65.9	3.8	1.49e+00	0	44	104	884998144	72	21398
2026-01-19 22:10:59.31	132.14	8.59	-50.6	-65.9	3.8	1.49e+00	0	44	104	884998144	72	21460
2026-01-19 22:11:00.31	132.27	8.53	-50.8	-66.0	3.8	1.49e+00	0	43	104	884998144	72	21625
2026-01-19 22:11:01.30	132.39	8.48	-50.8	-66.0	3.8	1.49e+00	0	44	104	884998144	72	21680
2026-01-19 22:11:02.33	132.52	8.42	-50.7	-66.0	3.8	1.49e+00	0	44	104	884998144	72	21732
2026-01-19 22:11:03.35	132.65	8.36	-50.7	-66.0	3.8	1.49e+00	0	44	104	884998144	72	21716
2026-01-19 22:11:04.38	132.78	8.31	-50.7	-66.0	3.8	1.49e+00	0	44	104	884998144	72	21713
2026-01-19 22:11:05.40	132.90	8.25	-50.6	-66.1	3.8	1.49e+00	0	44	104	884998144	72	21840
2026-01-19 22:11:06.43	133.03	8.19	-50.5	-66.1	3.8	1.49e+00	0	44	104	884998144	72	21816
2026-01-19 22:11:07.45	133.16	8.13	-50.6	-66.0	3.8	1.49e+00	0	44	104	884998144	72	21688
2026-01-19 22:11:08.48	133.28	8.08	-50.4	-66.1	3.8	1.49e+00	0	44	104	884998144	72	21839
2026-01-19 22:11:09.50	133.41	8.02	-50.4	-66.1	3.8	1.49e+00	0	44	104	884998144	72	21856
2026-01-19 22:11:10.53	133.53	7.96	-50.4	-66.1	3.8	1.49e+00	0	44	104	884998144	72	21839
2026-01-19 22:11:11.56	133.66	7.90	-50.5	-66.1	3.8	1.49e+00	0	44	104	884998144	72	21826
2026-01-19 22:11:12.55	133.78	7.85	-50.5	-66.1	3.8	1.49e+00	0	44	104	884998144	72	21807
2026-01-19 22:11:13.54	133.90	7.79	-50.5	-66.1	3.8	1.49e+00	0	44	104	884998144	72	21776
2026-01-19 22:11:14.54	134.02	7.74	-50.5	-66.0	3.8	1.49e+00	0	44	104	884998144	72	21742
2026-01-19 22:11:15.53	134.13	7.68	-50.5	-66.0	3.8	1.49e+00	0	44	104	884998144	72	21717
2026-01-19 22:11:16.52	134.25	7.63	-50.5	-66.0	3.8	1.49e+00	0	44	104	884998144	72	21657
2026-01-19 22:11:17.52	134.37	7.57	-50.5	-66.0	3.8	1.49e+00	0	44	104	884998144	72	21729
2026-01-19 22:11:18.51	134.49	7.52	-50.5	-66.0	3.8	1.49e+00	0	44	104	884998144	72	21692
2026-01-19 22:11:19.50	134.60	7.46	-50.5	-66.0	3.8	1.49e+00	0	44	104	884998144	72	21661
2026-01-19 22:11:20.50	134.72	7.41	-50.5	-66.0	3.8	1.49e+00	0	44	104	884998144	72	21588
2026-01-19 22:11:21.49	134.84	7.35	-50.5	-66.0	3.8	1.49e+00	0	44	104	884998144	72	21619
2026-01-19 22:11:22.48	134.95	7.30	-50.5	-66.0	3.8	1.49e+00	0	44	104	884998144	72	21610
2026-01-19 22:11:23.48	135.07	7.24	-50.5	-66.0	3.8	1.49e+00	0	44	104	884998144	72	21601
2026-01-19 22:11:24.47	135.18	7.19	-50.5	-66.0	3.8	1.49e+00	0	44	104	884998144	72	21659
2026-01-19 22:11:25.46	135.30	7.13	-50.4	-66.0	3.8	1.49e+00	0	44	104	884998144	72	21631
2026-01-19 22:11:26.46	135.41	7.08	-50.4	-66.0	3.8	1.49e+00	0	44	104	884998144	72	21715
2026-01-19 22:11:27.45	135.52	7.02	-50.5	-66.0	3.8	1.49e+00	0	44	104	884998144	72	21693
2026-01-19 22:11:28.44	135.64	6.97	-50.5	-66.0	3.8	1.49e+00	0	44	104	884998144	72	21628
2026-01-19 22:11:29.44	135.75	6.91	-50.4	-66.0	3.8	1.49e+00	0	44	104	884998144	72	21675
2026-01-19 22:11:30.43	135.86	6.86	-50.5	-66.0	3.8	1.49e+00	0	44	104	884998144	72	21617
2026-01-19 22:11:31.42	135.97	6.80	-50.5	-66.0	3.8	1.49e+00	0	44	104	884998144	72	21668
2026-01-19 22:11:32.42	136.09	6.75	-50.4	-66.0	3.8	1.49e+00	0	44	104	884998144	72	21679
2026-01-19 22:11:33.41	136.20	6.69	-50.4	-66.0	3.8	1.49e+00	0	44	104	884998144	72	21633
2026-01-19 22:11:34.40	136.31	6.64	-50.4	-66.0	3.8	1.49e+00	0	44	104	884998144	72	21650
2026-01-19 22:11:35.40	136.42	6.58	-50.4	-66.0	3.8	1.49e+00	0	44	104	884998144	72	21609
2026-01-19 22:11:36.39	136.53	6.53	-50.4	-66.0	3.8	1.49e+00	0	44	104	884998144	72	21632
2026-01-19 22:11:37.38	136.64	6.47	-50.4	-66.0	3.8	1.49e+00	0	44	104	884998144	72	21659
2026-01-19 22:11:38.38	136.75	6.42	-50.4	-66.0	3.8	1.49e+00	0	44	104	884998144	72	21701
2026-01-19 22:11:39.37	136.85	6.36	-50.4	-66.0	3.8	1.49e+00	0	44	104	884998144	72	21586
2026-01-19 22:11:40.37	136.96	6.31	-50.4	-66.0	3.8	1.49e+00	0	44	104	884998144	72	21621
2026-01-19 22:11:41.36	137.07	6.25	-50.5	-66.0	3.8	1.49e+00	0	44	104	884998144	72	21562
2026-01-19 22:11:42.35	137.18	6.20	-50.4	-66.0	3.8	1.49e+00	0	44	104	884998144	72	21632
2026-01-19 22:11:43.35	137.28	6.14	-50.4	-66.0	3.8	1.49e+00	0	44	104	884998144	72	21669
2026-01-19 22:11:44.34	137.39	6.09	-50.4	-66.0	3.8	1.49e+00	0	44	104	884998144	72	21664
2026-01-19 22:11:45.33	137.50	6.04	-50.4	-66.0	3.8	1.49e+00	0	44	104	884998144	72	21559
2026-01-19 22:11:46.32	137.60	5.98	-50.5	-66.0	3.8	1.49e+00	0	44	104	884998144	72	21613
2026-01-19 22:11:47.32	137.71	5.93	-50.4	-65.9	3.8	1.49e+00	0	44	104	884998144	72	21501
2026-01-19 22:11:48.31	137.81	5.87	-50.4	-66.0	3.8	1.49e+00	0	44	104	884998144	72	21569
2026-01-19 22:11:49.30	137.92	5.82	-50.4	-66.0	3.8	1.49e+00	0	44	104	884998144	72	21629
2026-01-19 22:11:50.29	138.02	5.76	-50.4	-66.0	3.8	1.49e+00	0	44	104	884998144	72	21584
2026-01-19 22:11:51.29	138.13	5.71	-50.4	-66.0	3.8	1.49e+00	0	44	104	884998144	72	21623
2026-01-19 22:11:52.28	138.23	5.65	-50.4	-66.0	3.8	1.49e+00	0	44	104	884998144	72	21579
2026-01-19 22:11:53.27	138.33	5.60	-50.4	-65.9	3.8	1.49e+00	0	44	104	884998144	72	21451
2026-01-19 22:11:54.27	138.44	5.55	-50.4	-66.0	3.8	1.49e+00	0	44	104	884998144	72	21592
2026-01-19 22:11:55.26	138.54	5.49	-50.4	-66.0	3.8	1.49e+00	0	43	104	884998144	72	21619
2026-01-19 22:11:56.25	138.64	5.44	-50.4	-66.0	3.8	1.49e+00	0	44	104	884998144	72	21585
2026-01-19 22:11:57.25	138.74	5.38	-50.4	-66.0	3.8	1.49e+00	0	44	104	884998144	72	21551
2026-01-19 22:11:58.24	138.84	5.33	-50.4	-66.0	3.8	1.49e+00	0	44	104	884998144	72	21577
2026-01-19 22:11:59.23	138.94	5.28	-50.4	-66.0	3.8	1.49e+00	0	44	104	884998144	72	21580
2026-01-19 22:12:00.23	139.05	5.22	-50.4	-66.0	3.8	1.49e+00	0	44	104	884998144	72	21579
2026-01-19 22:12:01.22	139.15	5.17	-50.4	-66.0	3.8	1.49e+00	0	44	104	884998144	72	21627
2026-01-19 22:12:02.21	139.25	5.11	-50.4	-66.0	3.8	1.49e+00	0	44	104	884998144	72	21526
2026-01-19 22:12:03.21	139.35	5.06	-50.4	-66.0	3.8	1.49e+00	0	44	104	884998144	72	21577
2026-01-19 22:12:04.20	139.44	5.01	-50.4	-66.0	3.8	1.49e+00	0	44	104	884998144	72	21539
2026-01-19 22:12:05.19	139.54	4.95	-50.4	-66.0	3.8	1.49e+00	0	44	104	884998144	72	21550

#Closed at: 2026-01-19 22:12:06
#Recorded file [884 MB]: D:/Data/31040_260120_010146.dat