passes_logs/2026/01/19/T1/T1__20260119_155538_FENGYUN_3E_rec.log

#Pass ID: 20260119_155538_FENGYUN 3E
#Satellite: FENGYUN 3E
#Configuration: FENGYUN 3E
#almurnet v.1.7.20251203
#Start time: 2026-01-19 15:55:38

#Version: 2.0.20230620
#Station: T1
#Location: 37.570604 lon 55.790049 lat
#TLE: 1 49008U 21062A   26018.95190407 -.00000301  00000+0 -12097-3 0  9991
#TLE: 2 49008  98.7482  24.0337 0002210 129.7386 230.3985 14.19884646235406

#Time	Az	El	Level	Level2	SNR	BER	BlckErr	Temp	State	Recorded	gain1	gain2
2026-01-19 15:55:38.24	217.42	5.00	-49.9	-60.9	3.8	8.46e-01	0	37	0	0	70	12565
2026-01-19 15:55:39.23	217.51	5.06	-50.0	-60.8	3.8	8.47e-01	0	37	104	0	70	12503
2026-01-19 15:55:40.23	217.61	5.11	-50.0	-60.9	3.8	8.47e-01	0	37	104	0	70	12579
2026-01-19 15:55:41.22	217.71	5.17	-50.0	-60.8	3.8	8.47e-01	0	37	104	0	70	12453
2026-01-19 15:55:42.22	217.80	5.22	-49.9	-60.8	3.8	8.47e-01	0	37	104	0	70	12442
2026-01-19 15:55:43.21	217.90	5.28	-50.0	-60.9	3.8	8.47e-01	0	37	104	0	70	12522
2026-01-19 15:55:44.21	218.00	5.34	-50.0	-60.8	3.8	8.45e-01	0	37	104	0	70	12506
2026-01-19 15:55:45.20	218.09	5.39	-49.9	-60.8	3.8	8.47e-01	0	38	104	0	70	12481
2026-01-19 15:55:46.20	218.19	5.45	-50.0	-60.8	3.8	8.48e-01	0	37	104	0	70	12397
2026-01-19 15:55:47.19	218.29	5.50	-49.9	-60.8	3.8	8.47e-01	0	37	104	0	70	12378
2026-01-19 15:55:48.19	218.39	5.56	-50.0	-60.8	3.8	8.47e-01	0	37	104	0	70	12407
2026-01-19 15:55:49.18	218.48	5.62	-49.9	-60.8	3.8	8.47e-01	0	38	104	0	70	12492
2026-01-19 15:55:50.18	218.58	5.67	-49.9	-60.8	3.8	8.47e-01	0	38	104	0	70	12471
2026-01-19 15:55:51.18	218.68	5.73	-49.9	-60.8	3.8	8.47e-01	0	38	104	0	70	12466
2026-01-19 15:55:52.17	218.78	5.78	-49.9	-60.8	3.8	8.45e-01	0	38	104	0	70	12485
2026-01-19 15:55:53.17	218.88	5.84	-49.9	-60.9	3.8	8.48e-01	0	38	104	0	70	12542
2026-01-19 15:55:54.16	218.98	5.90	-49.9	-60.8	3.8	8.47e-01	0	38	104	0	70	12454
2026-01-19 15:55:55.16	219.09	5.95	-49.9	-60.8	3.8	8.47e-01	0	38	104	0	70	12406
2026-01-19 15:55:56.16	219.19	6.01	-49.9	-60.8	3.8	8.47e-01	0	38	104	0	70	12427
2026-01-19 15:55:57.15	219.29	6.07	-49.9	-60.8	3.8	8.46e-01	0	38	104	0	70	12469
2026-01-19 15:55:58.15	219.39	6.12	-49.9	-60.8	3.8	8.47e-01	0	38	104	0	70	12402
2026-01-19 15:55:59.14	219.49	6.18	-49.9	-60.7	3.8	8.46e-01	0	38	104	0	70	12314
2026-01-19 15:56:00.14	219.60	6.24	-49.9	-60.8	3.8	8.47e-01	0	38	104	0	70	12387
2026-01-19 15:56:01.14	219.70	6.29	-49.9	-60.8	3.8	8.47e-01	0	38	104	0	70	12473
2026-01-19 15:56:02.13	219.80	6.35	-49.9	-60.8	3.8	8.46e-01	0	38	104	0	70	12481
2026-01-19 15:56:03.13	219.91	6.41	-49.9	-60.8	3.8	8.45e-01	0	38	104	0	70	12510
2026-01-19 15:56:04.13	220.01	6.47	-50.0	-60.8	3.8	8.47e-01	0	38	104	0	70	12498
2026-01-19 15:56:05.12	220.12	6.52	-49.9	-60.7	3.8	8.47e-01	0	38	104	0	70	12363
2026-01-19 15:56:06.12	220.22	6.58	-49.9	-60.6	3.8	8.47e-01	0	38	104	0	70	12180
2026-01-19 15:56:07.11	220.33	6.64	-49.9	-60.5	3.8	8.46e-01	0	39	104	0	70	12057
2026-01-19 15:56:08.11	220.44	6.69	-49.9	-60.6	3.8	8.46e-01	0	38	104	0	70	12220
2026-01-19 15:56:09.10	220.54	6.75	-49.9	-60.7	3.8	8.48e-01	0	38	104	0	70	12330
2026-01-19 15:56:10.10	220.65	6.81	-49.9	-60.8	3.8	8.46e-01	0	38	104	0	70	12482
2026-01-19 15:56:11.10	220.76	6.87	-49.9	-60.8	3.8	8.48e-01	0	39	104	0	70	12500
2026-01-19 15:56:12.09	220.86	6.92	-49.9	-60.8	3.8	8.48e-01	0	38	104	0	70	12505
2026-01-19 15:56:13.09	220.97	6.98	-49.9	-60.8	3.8	8.47e-01	0	39	104	0	70	12435
2026-01-19 15:56:14.08	221.08	7.04	-49.9	-60.7	3.8	8.48e-01	0	38	104	0	70	12375
2026-01-19 15:56:15.08	221.19	7.10	-49.9	-60.8	3.8	8.48e-01	0	38	104	0	70	12384
2026-01-19 15:56:16.07	221.30	7.15	-49.9	-60.8	3.8	8.48e-01	0	39	104	0	70	12421
2026-01-19 15:56:17.07	221.41	7.21	-49.9	-60.7	3.8	8.47e-01	0	38	104	0	70	12332
2026-01-19 15:56:18.07	221.52	7.27	-49.9	-60.7	3.8	8.47e-01	0	38	104	0	70	12253
2026-01-19 15:56:19.06	221.63	7.33	-49.9	-60.5	3.8	8.47e-01	0	39	104	0	70	12090
2026-01-19 15:56:20.06	221.74	7.38	-49.9	-60.5	3.8	8.46e-01	0	39	104	0	70	12044
2026-01-19 15:56:21.05	221.85	7.44	-49.8	-60.3	3.8	8.47e-01	0	39	104	0	70	11767
2026-01-19 15:56:22.05	221.96	7.50	-49.8	-60.3	3.8	8.48e-01	0	39	104	0	70	11703
2026-01-19 15:56:23.04	222.08	7.56	-49.8	-60.1	3.8	8.46e-01	0	39	104	0	70	11542
2026-01-19 15:56:24.04	222.19	7.61	-49.8	-60.1	3.8	8.47e-01	0	39	104	0	70	11466
2026-01-19 15:56:25.03	222.30	7.67	-49.9	-60.3	3.8	8.46e-01	0	39	104	0	70	11700
2026-01-19 15:56:26.03	222.42	7.73	-49.9	-60.6	3.8	8.47e-01	0	39	104	0	70	12111
2026-01-19 15:56:27.02	222.53	7.79	-49.9	-60.8	3.8	8.46e-01	0	39	104	0	70	12494
2026-01-19 15:56:28.02	222.64	7.85	-49.9	-60.5	3.8	8.47e-01	0	39	104	0	70	12060
2026-01-19 15:56:29.01	222.76	7.90	-49.8	-59.7	3.8	8.47e-01	0	39	104	0	70	10960
2026-01-19 15:56:30.00	222.87	7.96	-49.6	-58.9	3.8	8.46e-01	0	39	104	0	70	10023
2026-01-19 15:56:31.00	222.99	8.02	-49.6	-58.9	3.8	8.44e-01	0	39	104	0	70	9961
2026-01-19 15:56:31.99	223.11	8.08	-49.8	-59.7	3.8	8.45e-01	0	39	104	0	70	10914
2026-01-19 15:56:32.99	223.22	8.14	-49.9	-60.8	3.8	8.47e-01	0	39	104	0	70	12401
2026-01-19 15:56:33.98	223.34	8.19	-49.7	-59.1	3.8	8.46e-01	0	39	104	0	70	10209
2026-01-19 15:56:34.98	223.46	8.25	-48.7	-54.4	5.6	7.72e-01	0	39	0	0	68	6674
2026-01-19 15:56:35.98	223.58	8.31	-46.9	-50.2	9.2	6.20e-02	0	39	0	6291456	64	5213
2026-01-19 15:56:36.97	223.69	8.37	-44.9	-47.0	12.6	3.24e-04	0	39	0	13631488	60	4526
2026-01-19 15:56:37.97	223.81	8.43	-43.4	-45.1	14.5	1.10e-06	0	39	0	20971520	57	4310
2026-01-19 15:56:38.96	223.93	8.48	-41.8	-43.2	16.3	0.00e+00	0	39	0	28311552	54	4105
2026-01-19 15:56:39.96	224.05	8.54	-41.0	-42.2	17.2	0.00e+00	0	39	0	35651584	52	4121
2026-01-19 15:56:40.95	224.17	8.60	-40.6	-41.8	17.6	0.00e+00	0	39	0	42991616	52	3921
2026-01-19 15:56:41.95	224.29	8.66	-40.6	-41.8	17.7	0.00e+00	0	39	0	49283072	51	4175
2026-01-19 15:56:42.94	224.41	8.72	-41.0	-42.3	17.3	0.00e+00	0	39	0	56623104	51	4399
2026-01-19 15:56:43.94	224.54	8.78	-41.8	-43.1	16.3	0.00e+00	0	39	0	63963136	52	4577
2026-01-19 15:56:44.93	224.66	8.84	-43.0	-44.6	14.9	0.00e+00	0	39	0	71303168	55	4565
2026-01-19 15:56:45.93	224.78	8.89	-44.4	-46.4	13.2	3.40e-06	0	39	0	78643200	58	4710
2026-01-19 15:56:46.93	224.91	8.95	-45.9	-48.6	11.0	1.04e-03	0	39	0	85983232	61	5118
2026-01-19 15:56:47.92	225.03	9.01	-47.2	-50.9	8.6	2.01e-02	0	39	0	92274688	63	5925
2026-01-19 15:56:48.92	225.15	9.07	-47.4	-51.1	8.3	4.80e-02	0	39	0	99614720	64	5758
2026-01-19 15:56:49.93	225.28	9.13	-49.3	-58.5	3.8	8.29e-01	0	39	104	104857600	67	11324
2026-01-19 15:56:50.93	225.41	9.19	-46.9	-50.0	9.8	1.72e-02	0	39	0	108003328	63	5351
2026-01-19 15:56:51.93	225.53	9.25	-42.9	-44.3	15.5	0.00e+00	0	39	0	115343360	56	4193
2026-01-19 15:56:52.92	225.66	9.31	-49.0	-54.9	5.2	1.14e-01	0	39	0	121634816	67	7506
2026-01-19 15:56:53.93	225.79	9.36	-43.0	-44.5	15.2	1.18e-02	0	39	0	126877696	57	4045
2026-01-19 15:56:54.93	225.91	9.42	-41.2	-42.4	17.3	0.00e+00	0	39	0	134217728	53	3971
2026-01-19 15:56:55.93	226.04	9.48	-40.4	-41.6	18.2	0.00e+00	0	39	0	140509184	51	4057
2026-01-19 15:56:56.93	226.17	9.54	-39.9	-41.0	18.8	0.00e+00	0	39	0	147849216	50	4012
2026-01-19 15:56:57.93	226.30	9.60	-39.8	-40.8	18.9	0.00e+00	0	39	0	155189248	50	3938
2026-01-19 15:56:58.93	226.43	9.66	-39.6	-40.6	19.1	0.00e+00	0	39	0	162529280	49	4086
2026-01-19 15:56:59.93	226.56	9.72	-39.6	-40.6	19.1	0.00e+00	0	39	0	169869312	49	4085
2026-01-19 15:57:00.93	226.69	9.78	-39.6	-40.6	19.2	0.00e+00	0	39	0	177209344	49	4067
2026-01-19 15:57:01.93	226.82	9.84	-39.6	-40.6	19.1	0.00e+00	0	39	0	184549376	49	4090
2026-01-19 15:57:02.93	226.95	9.90	-39.5	-40.5	19.2	0.00e+00	0	39	0	191889408	49	4032
2026-01-19 15:57:03.94	227.09	9.96	-39.4	-40.4	19.3	0.00e+00	0	39	0	199229440	49	3972
2026-01-19 15:57:04.94	227.22	10.01	-39.3	-40.3	19.4	0.00e+00	0	39	0	206569472	49	3941
2026-01-19 15:57:05.94	227.35	10.07	-39.2	-40.2	19.5	0.00e+00	0	39	0	213909504	49	3902
2026-01-19 15:57:06.95	227.49	10.13	-39.3	-40.3	19.5	0.00e+00	0	39	0	221249536	49	3914
2026-01-19 15:57:07.95	227.62	10.19	-39.2	-40.1	19.6	0.00e+00	0	39	0	227540992	49	3868
2026-01-19 15:57:08.95	227.76	10.25	-39.1	-40.1	19.6	0.00e+00	0	39	0	234881024	48	4090
2026-01-19 15:57:09.95	227.89	10.31	-39.2	-40.2	19.5	0.00e+00	0	39	0	242221056	48	4135
2026-01-19 15:57:10.95	228.03	10.37	-39.2	-40.2	19.5	0.00e+00	0	39	0	249561088	48	4134
2026-01-19 15:57:11.95	228.16	10.43	-39.4	-40.4	19.4	0.00e+00	0	39	0	256901120	48	4208
2026-01-19 15:57:12.96	228.30	10.49	-39.3	-40.4	19.4	0.00e+00	0	39	0	264241152	48	4197
2026-01-19 15:57:13.96	228.44	10.55	-39.3	-40.3	19.4	0.00e+00	0	39	0	271581184	48	4193
2026-01-19 15:57:14.96	228.58	10.61	-39.4	-40.4	19.4	0.00e+00	0	39	0	278921216	48	4238
2026-01-19 15:57:15.96	228.72	10.67	-39.4	-40.4	19.4	0.00e+00	0	39	0	285212672	48	4201
2026-01-19 15:57:16.96	228.86	10.72	-39.4	-40.4	19.4	0.00e+00	0	39	0	292552704	48	4204
2026-01-19 15:57:17.96	229.00	10.78	-39.3	-40.3	19.5	0.00e+00	0	39	0	299892736	48	4180
2026-01-19 15:57:18.96	229.14	10.84	-39.2	-40.2	19.6	0.00e+00	0	39	0	307232768	48	4125
2026-01-19 15:57:19.97	229.28	10.90	-39.2	-40.2	19.6	0.00e+00	0	39	0	314572800	48	4109
2026-01-19 15:57:20.97	229.42	10.96	-39.3	-40.2	19.5	0.00e+00	0	39	0	321912832	48	4137
2026-01-19 15:57:21.97	229.56	11.02	-39.3	-40.3	19.4	0.00e+00	0	39	0	329252864	48	4190
2026-01-19 15:57:22.97	229.70	11.08	-39.5	-40.5	19.3	0.00e+00	0	39	0	336592896	48	4280
2026-01-19 15:57:23.97	229.85	11.14	-39.5	-40.5	19.3	0.00e+00	0	39	0	343932928	48	4260
2026-01-19 15:57:24.97	229.99	11.20	-39.3	-40.3	19.5	0.00e+00	0	39	0	350224384	48	4183
2026-01-19 15:57:25.98	230.14	11.26	-39.5	-40.5	19.3	0.00e+00	0	39	0	357564416	48	4264
2026-01-19 15:57:26.98	230.28	11.32	-39.6	-40.6	19.2	0.00e+00	0	39	0	364904448	48	4326
2026-01-19 15:57:27.97	230.43	11.37	-39.6	-40.6	19.2	0.00e+00	0	39	0	372244480	48	4320
2026-01-19 15:57:28.98	230.57	11.43	-39.4	-40.4	19.4	0.00e+00	0	39	0	379584512	48	4220
2026-01-19 15:57:29.98	230.72	11.49	-39.6	-40.6	19.2	0.00e+00	0	39	0	386924544	48	4316
2026-01-19 15:57:30.98	230.87	11.55	-39.2	-40.2	19.5	0.00e+00	0	39	0	394264576	48	4144
2026-01-19 15:57:31.98	231.01	11.61	-39.3	-40.3	19.5	0.00e+00	0	39	0	401604608	48	4168
2026-01-19 15:57:32.99	231.16	11.67	-39.4	-40.5	19.3	0.00e+00	0	39	0	408944640	48	4244
2026-01-19 15:57:33.99	231.31	11.73	-39.1	-40.1	19.7	0.00e+00	0	39	0	415236096	48	4089
2026-01-19 15:57:34.99	231.46	11.79	-39.2	-40.1	19.6	0.00e+00	0	39	0	422576128	48	4094
2026-01-19 15:57:35.99	231.61	11.85	-39.1	-40.0	19.8	0.00e+00	0	39	0	429916160	48	4046
2026-01-19 15:57:36.99	231.76	11.90	-39.0	-40.0	19.8	0.00e+00	0	40	0	437256192	48	4007
2026-01-19 15:57:37.99	231.91	11.96	-39.1	-40.0	19.7	0.00e+00	0	40	0	444596224	48	4042
2026-01-19 15:57:38.99	232.06	12.02	-39.0	-39.9	19.9	0.00e+00	0	39	0	451936256	48	3998
2026-01-19 15:57:39.99	232.22	12.08	-38.7	-39.7	20.1	0.00e+00	0	40	0	459276288	48	3883
2026-01-19 15:57:40.99	232.37	12.14	-38.8	-39.7	20.0	0.00e+00	0	39	0	466616320	48	3911
2026-01-19 15:57:42.00	232.52	12.20	-38.8	-39.8	20.0	0.00e+00	0	39	0	473956352	48	3944
2026-01-19 15:57:43.00	232.68	12.26	-38.8	-39.7	20.0	0.00e+00	0	39	0	481296384	48	3910
2026-01-19 15:57:44.00	232.83	12.31	-38.6	-39.6	20.2	0.00e+00	0	40	0	488636416	48	3836
2026-01-19 15:57:45.00	232.99	12.37	-38.6	-39.6	20.2	0.00e+00	0	40	0	494927872	48	3845
2026-01-19 15:57:46.00	233.14	12.43	-38.4	-39.4	20.1	0.00e+00	0	39	0	502267904	47	3987
2026-01-19 15:57:47.00	233.30	12.49	-38.4	-39.4	20.1	0.00e+00	0	40	0	509607936	47	3977
2026-01-19 15:57:48.00	233.46	12.55	-38.4	-39.3	20.2	0.00e+00	0	40	0	516947968	47	3939
2026-01-19 15:57:49.00	233.62	12.61	-38.3	-39.2	20.3	0.00e+00	0	40	0	524288000	47	3903
2026-01-19 15:57:50.00	233.77	12.66	-38.3	-39.3	20.2	0.00e+00	0	40	0	531628032	47	3936
2026-01-19 15:57:51.00	233.93	12.72	-38.3	-39.2	20.3	0.00e+00	0	39	0	538968064	47	3901
2026-01-19 15:57:52.00	234.09	12.78	-38.3	-39.3	20.2	0.00e+00	0	40	0	546308096	47	3935
2026-01-19 15:57:53.00	234.25	12.84	-38.5	-39.5	20.1	0.00e+00	0	39	0	553648128	47	4018
2026-01-19 15:57:54.00	234.41	12.90	-38.6	-39.5	20.0	0.00e+00	0	39	0	559939584	47	4044
2026-01-19 15:57:55.01	234.58	12.95	-38.3	-39.3	20.2	0.00e+00	0	40	0	567279616	47	3924
2026-01-19 15:57:56.01	234.74	13.01	-38.3	-39.2	20.3	0.00e+00	0	40	0	574619648	47	3905
2026-01-19 15:57:57.01	234.90	13.07	-38.3	-39.2	20.3	0.00e+00	0	40	0	581959680	47	3889
2026-01-19 15:57:58.02	235.06	13.13	-38.3	-39.3	20.2	0.00e+00	0	39	0	589299712	47	3928
2026-01-19 15:57:59.02	235.23	13.18	-38.4	-39.3	20.2	0.00e+00	0	39	0	596639744	47	3945
2026-01-19 15:58:00.02	235.39	13.24	-38.3	-39.2	20.3	0.00e+00	0	40	0	603979776	47	3908
2026-01-19 15:58:01.02	235.56	13.30	-38.2	-39.1	20.4	0.00e+00	0	40	0	611319808	47	3848
2026-01-19 15:58:02.02	235.72	13.36	-38.3	-39.2	20.3	0.00e+00	0	39	0	618659840	47	3896
2026-01-19 15:58:03.02	235.89	13.41	-38.2	-39.2	20.3	0.00e+00	0	39	0	624951296	47	3884
2026-01-19 15:58:04.03	236.06	13.47	-38.3	-39.2	20.3	0.00e+00	0	40	0	632291328	47	3890
2026-01-19 15:58:05.03	236.23	13.53	-38.1	-39.0	20.5	0.00e+00	0	39	0	639631360	46	4030
2026-01-19 15:58:06.03	236.39	13.58	-38.1	-39.0	20.5	0.00e+00	0	40	0	646971392	46	4030
2026-01-19 15:58:07.03	236.56	13.64	-38.0	-39.0	20.5	0.00e+00	0	40	0	654311424	46	4013
2026-01-19 15:58:08.03	236.73	13.70	-38.0	-38.9	20.6	0.00e+00	0	40	0	661651456	46	3979
2026-01-19 15:58:09.03	236.90	13.75	-38.0	-38.9	20.6	0.00e+00	0	40	0	668991488	46	3993
2026-01-19 15:58:10.04	237.07	13.81	-38.1	-39.0	20.5	0.00e+00	0	40	0	676331520	46	4048
2026-01-19 15:58:11.04	237.25	13.87	-38.0	-38.9	20.6	0.00e+00	0	40	0	683671552	46	3978
2026-01-19 15:58:12.04	237.42	13.92	-38.0	-38.9	20.6	0.00e+00	0	40	0	689963008	46	3993
2026-01-19 15:58:13.04	237.59	13.98	-38.0	-38.9	20.6	0.00e+00	0	40	0	698351616	46	3985
2026-01-19 15:58:14.04	237.76	14.04	-38.1	-39.1	20.4	0.00e+00	0	40	0	704643072	46	4052
2026-01-19 15:58:15.04	237.94	14.09	-38.1	-39.0	20.5	0.00e+00	0	40	0	711983104	46	4041
2026-01-19 15:58:16.05	238.11	14.15	-38.0	-38.9	20.6	0.00e+00	0	40	0	719323136	46	3968
2026-01-19 15:58:17.05	238.29	14.20	-38.0	-39.0	20.5	0.00e+00	0	40	0	726663168	46	4006
2026-01-19 15:58:18.05	238.46	14.26	-38.0	-38.9	20.6	0.00e+00	0	40	0	734003200	46	3977
2026-01-19 15:58:19.05	238.64	14.31	-37.9	-38.8	20.7	0.00e+00	0	40	0	741343232	46	3944
2026-01-19 15:58:20.06	238.82	14.37	-38.0	-38.9	20.5	0.00e+00	0	40	0	748683264	46	4004
2026-01-19 15:58:21.06	239.00	14.43	-38.1	-39.1	20.5	0.00e+00	0	40	0	756023296	46	4052
2026-01-19 15:58:22.06	239.17	14.48	-38.2	-39.2	20.4	0.00e+00	0	40	0	763363328	46	4117
2026-01-19 15:58:23.06	239.35	14.54	-38.4	-39.3	20.2	0.00e+00	0	39	0	769654784	46	4187
2026-01-19 15:58:24.06	239.53	14.59	-38.3	-39.2	20.4	0.00e+00	0	39	0	776994816	46	4122
2026-01-19 15:58:25.07	239.71	14.65	-38.3	-39.2	20.4	0.00e+00	0	40	0	784334848	46	4122
2026-01-19 15:58:26.07	239.90	14.70	-38.0	-38.9	20.6	0.00e+00	0	40	0	791674880	46	4003
2026-01-19 15:58:27.07	240.08	14.75	-38.1	-39.1	20.5	0.00e+00	0	40	0	799014912	46	4052
2026-01-19 15:58:28.07	240.26	14.81	-38.0	-38.9	20.6	0.00e+00	0	40	0	806354944	46	3992
2026-01-19 15:58:29.08	240.44	14.86	-38.0	-38.9	20.6	0.00e+00	0	40	0	813694976	46	3999
2026-01-19 15:58:30.07	240.63	14.92	-37.8	-38.7	20.8	0.00e+00	0	40	0	821035008	46	3884
2026-01-19 15:58:31.08	240.81	14.97	-37.8	-38.7	20.8	0.00e+00	0	40	0	828375040	46	3907
2026-01-19 15:58:32.08	241.00	15.02	-37.9	-38.8	20.8	0.00e+00	0	40	0	834666496	46	3935
2026-01-19 15:58:33.08	241.18	15.08	-38.1	-39.0	20.5	0.00e+00	0	40	0	842006528	46	4032
2026-01-19 15:58:34.08	241.37	15.13	-38.1	-39.0	20.6	0.00e+00	0	40	0	849346560	46	4033
2026-01-19 15:58:35.08	241.55	15.18	-38.2	-39.2	20.4	0.00e+00	0	40	0	856686592	46	4099
2026-01-19 15:58:36.08	241.74	15.24	-37.8	-38.8	20.8	0.00e+00	0	40	0	864026624	46	3920
2026-01-19 15:58:37.09	241.93	15.29	-37.7	-38.6	20.9	0.00e+00	0	40	0	871366656	46	3868
2026-01-19 15:58:38.09	242.12	15.34	-37.9	-38.8	20.7	0.00e+00	0	40	0	878706688	46	3945
2026-01-19 15:58:39.08	242.31	15.39	-37.9	-38.9	20.7	0.00e+00	0	40	0	886046720	46	3965
2026-01-19 15:58:40.08	242.50	15.45	-38.1	-39.0	20.6	0.00e+00	0	40	0	892338176	46	4032
2026-01-19 15:58:41.08	242.69	15.50	-38.0	-39.0	20.6	0.00e+00	0	40	0	899678208	46	4021
2026-01-19 15:58:42.09	242.88	15.55	-37.9	-38.8	20.7	0.00e+00	0	40	0	907018240	46	3949
2026-01-19 15:58:43.08	243.07	15.60	-38.0	-39.0	20.6	0.00e+00	0	40	0	914358272	46	4018
2026-01-19 15:58:44.09	243.26	15.65	-37.9	-38.8	20.7	0.00e+00	0	40	0	921698304	46	3931
2026-01-19 15:58:45.09	243.46	15.71	-37.7	-38.6	20.9	0.00e+00	0	40	0	929038336	46	3863
2026-01-19 15:58:46.09	243.65	15.76	-37.5	-38.4	21.1	0.00e+00	0	40	0	936378368	45	3974
2026-01-19 15:58:47.09	243.85	15.81	-37.5	-38.4	21.1	0.00e+00	0	40	0	943718400	45	3985
2026-01-19 15:58:48.09	244.04	15.86	-37.5	-38.4	21.1	0.00e+00	0	40	0	951058432	45	3979
2026-01-19 15:58:49.09	244.24	15.91	-37.5	-38.4	21.1	0.00e+00	0	40	0	958398464	45	3973
2026-01-19 15:58:50.09	244.43	15.96	-37.3	-38.2	21.3	0.00e+00	0	40	0	965738496	45	3901
2026-01-19 15:58:51.09	244.63	16.01	-37.4	-38.3	21.2	0.00e+00	0	40	0	973078528	45	3932
2026-01-19 15:58:52.09	244.83	16.06	-37.6	-38.5	21.0	0.00e+00	0	40	0	979369984	45	4011
2026-01-19 15:58:53.09	245.03	16.11	-37.7	-38.6	20.9	0.00e+00	0	40	0	986710016	45	4069
2026-01-19 15:58:54.10	245.23	16.16	-37.7	-38.6	20.9	0.00e+00	0	40	0	994050048	45	4067
2026-01-19 15:58:55.10	245.43	16.21	-37.8	-38.7	20.9	0.00e+00	0	40	0	1001390080	45	4113
2026-01-19 15:58:56.10	245.63	16.26	-37.7	-38.6	20.9	0.00e+00	0	40	0	1008730112	45	4098
2026-01-19 15:58:57.10	245.83	16.30	-37.7	-38.6	20.9	0.00e+00	0	40	0	1016070144	45	4087
2026-01-19 15:58:58.10	246.03	16.35	-37.8	-38.7	20.8	0.00e+00	0	40	0	1023410176	45	4128
2026-01-19 15:58:59.11	246.23	16.40	-37.7	-38.6	20.9	0.00e+00	0	40	0	1030750208	45	4080
2026-01-19 15:59:00.11	246.43	16.45	-37.6	-38.5	21.0	0.00e+00	0	40	0	1037041664	45	4024
2026-01-19 15:59:01.11	246.64	16.50	-37.5	-38.4	21.1	0.00e+00	0	40	0	1044381696	45	3994
2026-01-19 15:59:02.11	246.84	16.54	-37.7	-38.6	20.9	0.00e+00	0	40	0	1051721728	45	4071
2026-01-19 15:59:03.11	247.05	16.59	-37.6	-38.5	21.0	0.00e+00	0	40	0	1059061760	45	4032
2026-01-19 15:59:04.11	247.25	16.64	-37.6	-38.5	21.0	0.00e+00	0	40	0	1066401792	45	4050
2026-01-19 15:59:05.12	247.46	16.69	-37.7	-38.6	21.0	0.00e+00	0	40	0	1073741824	45	4055
2026-01-19 15:59:06.12	247.67	16.73	-37.7	-38.7	20.9	0.00e+00	0	40	0	1081081856	45	4100
2026-01-19 15:59:07.12	247.87	16.78	-37.4	-38.3	21.2	0.00e+00	0	40	0	1088421888	45	3914
2026-01-19 15:59:08.12	248.08	16.82	-37.4	-38.3	21.2	0.00e+00	0	40	0	1095761920	45	3936
2026-01-19 15:59:09.12	248.29	16.87	-37.3	-38.2	21.3	0.00e+00	0	40	0	1102053376	45	3873
2026-01-19 15:59:10.12	248.50	16.92	-37.4	-38.3	21.2	0.00e+00	0	40	0	1109393408	45	3924
2026-01-19 15:59:11.12	248.71	16.96	-37.3	-38.2	21.3	0.00e+00	0	40	0	1116733440	45	3900
2026-01-19 15:59:12.12	248.92	17.00	-37.3	-38.2	21.3	0.00e+00	0	40	0	1124073472	45	3911
2026-01-19 15:59:13.12	249.13	17.05	-37.4	-38.3	21.3	0.00e+00	0	40	0	1131413504	45	3936
2026-01-19 15:59:14.12	249.34	17.09	-37.5	-38.4	21.2	0.00e+00	0	40	0	1138753536	45	3963
2026-01-19 15:59:15.12	249.55	17.14	-37.5	-38.4	21.1	0.00e+00	0	40	0	1146093568	45	3996
2026-01-19 15:59:16.12	249.76	17.18	-37.4	-38.3	21.2	0.00e+00	0	40	0	1153433600	45	3946
2026-01-19 15:59:17.13	249.98	17.22	-37.4	-38.3	21.2	0.00e+00	0	40	0	1160773632	45	3954
2026-01-19 15:59:18.13	250.19	17.27	-37.2	-38.1	21.4	0.00e+00	0	40	0	1167065088	45	3850
2026-01-19 15:59:19.13	250.41	17.31	-37.3	-38.2	21.3	0.00e+00	0	40	0	1174405120	45	3884
2026-01-19 15:59:20.13	250.62	17.35	-37.3	-38.2	21.3	0.00e+00	0	40	0	1181745152	45	3880
2026-01-19 15:59:21.13	250.84	17.39	-37.3	-38.2	21.3	0.00e+00	0	40	0	1189085184	45	3882
2026-01-19 15:59:22.14	251.05	17.44	-37.3	-38.2	21.3	0.00e+00	0	40	0	1196425216	45	3897
2026-01-19 15:59:23.14	251.27	17.48	-37.3	-38.2	21.3	0.00e+00	0	40	0	1203765248	45	3911
2026-01-19 15:59:24.14	251.49	17.52	-37.5	-38.4	21.1	0.00e+00	0	40	0	1211105280	45	3978
2026-01-19 15:59:25.14	251.71	17.56	-37.5	-38.4	21.1	0.00e+00	0	40	0	1218445312	45	3975
2026-01-19 15:59:26.14	251.92	17.60	-37.5	-38.4	21.1	0.00e+00	0	40	0	1225785344	45	3978
2026-01-19 15:59:27.14	252.14	17.64	-37.4	-38.3	21.3	0.00e+00	0	40	0	1233125376	45	3920
2026-01-19 15:59:28.14	252.36	17.68	-37.3	-38.2	21.3	0.00e+00	0	40	0	1240465408	45	3897
2026-01-19 15:59:29.15	252.59	17.72	-37.3	-38.2	21.3	0.00e+00	0	40	0	1246756864	45	3906
2026-01-19 15:59:30.15	252.81	17.76	-37.3	-38.2	21.3	0.00e+00	0	40	0	1254096896	45	3891
2026-01-19 15:59:31.15	253.03	17.80	-37.4	-38.3	21.3	0.00e+00	0	40	0	1261436928	45	3923
2026-01-19 15:59:32.15	253.25	17.84	-37.4	-38.3	21.2	0.00e+00	0	40	0	1268776960	45	3931
2026-01-19 15:59:33.16	253.47	17.87	-37.3	-38.2	21.3	0.00e+00	0	40	0	1276116992	45	3893
2026-01-19 15:59:34.16	253.70	17.91	-37.3	-38.2	21.3	0.00e+00	0	40	0	1283457024	45	3880
2026-01-19 15:59:35.16	253.92	17.95	-37.3	-38.2	21.3	0.00e+00	0	40	0	1290797056	45	3898
2026-01-19 15:59:36.16	254.14	17.99	-37.3	-38.2	21.3	0.00e+00	0	40	0	1298137088	45	3886
2026-01-19 15:59:37.16	254.37	18.02	-37.3	-38.2	21.3	0.00e+00	0	40	0	1305477120	45	3870
2026-01-19 15:59:38.16	254.59	18.06	-37.2	-38.1	21.4	0.00e+00	0	40	0	1311768576	45	3827
2026-01-19 15:59:39.16	254.82	18.09	-37.1	-37.9	21.5	0.00e+00	0	40	0	1319108608	44	4004
2026-01-19 15:59:40.16	255.04	18.13	-37.0	-37.9	21.6	0.00e+00	0	40	0	1326448640	44	3962
2026-01-19 15:59:41.16	255.27	18.16	-37.0	-37.9	21.6	0.00e+00	0	40	0	1333788672	44	3986
2026-01-19 15:59:42.16	255.50	18.20	-37.1	-38.0	21.5	0.00e+00	0	40	0	1341128704	44	4007
2026-01-19 15:59:43.16	255.72	18.23	-37.0	-37.9	21.6	0.00e+00	0	40	0	1348468736	44	3979
2026-01-19 15:59:44.16	255.95	18.27	-37.1	-37.9	21.6	0.00e+00	0	40	0	1355808768	44	4002
2026-01-19 15:59:45.17	256.18	18.30	-37.2	-38.1	21.4	0.00e+00	0	40	0	1363148800	44	4058
2026-01-19 15:59:46.17	256.41	18.33	-37.2	-38.1	21.4	0.00e+00	0	40	0	1370488832	44	4058
2026-01-19 15:59:47.17	256.64	18.37	-37.1	-37.9	21.5	0.00e+00	0	40	0	1376780288	44	3998
2026-01-19 15:59:48.17	256.87	18.40	-37.1	-38.0	21.5	0.00e+00	0	40	0	1384120320	44	4030
2026-01-19 15:59:49.17	257.10	18.43	-37.2	-38.1	21.4	0.00e+00	0	40	0	1391460352	44	4081
2026-01-19 15:59:50.17	257.33	18.46	-37.1	-38.0	21.4	0.00e+00	0	40	0	1398800384	44	4038
2026-01-19 15:59:51.17	257.56	18.49	-37.1	-38.0	21.5	0.00e+00	0	40	0	1406140416	44	4042
2026-01-19 15:59:52.17	257.79	18.52	-37.1	-38.0	21.5	0.00e+00	0	40	0	1413480448	44	4014
2026-01-19 15:59:53.18	258.03	18.55	-37.0	-37.9	21.6	0.00e+00	0	40	0	1420820480	44	3987
2026-01-19 15:59:54.17	258.26	18.58	-37.1	-38.0	21.5	0.00e+00	0	40	0	1428160512	44	4014
2026-01-19 15:59:55.18	258.49	18.61	-37.0	-37.9	21.6	0.00e+00	0	40	0	1434451968	44	3961
2026-01-19 15:59:56.18	258.73	18.64	-37.0	-37.9	21.6	0.00e+00	0	40	0	1441792000	44	3974
2026-01-19 15:59:57.18	258.96	18.67	-37.0	-37.8	21.6	0.00e+00	0	40	0	1449132032	44	3955
2026-01-19 15:59:58.18	259.20	18.70	-37.0	-37.8	21.6	0.00e+00	0	40	0	1456472064	44	3953
2026-01-19 15:59:59.18	259.43	18.73	-37.1	-38.0	21.5	0.00e+00	0	40	0	1463812096	44	4011
2026-01-19 16:00:00.18	259.67	18.75	-37.0	-37.9	21.6	0.00e+00	0	40	0	1471152128	44	3994
2026-01-19 16:00:01.18	259.90	18.78	-37.0	-37.9	21.6	0.00e+00	0	40	0	1478492160	44	3980
2026-01-19 16:00:02.18	260.14	18.81	-37.0	-37.9	21.6	0.00e+00	0	40	0	1485832192	44	3996
2026-01-19 16:00:03.18	260.37	18.83	-37.1	-38.0	21.5	0.00e+00	0	40	0	1493172224	44	4031
2026-01-19 16:00:04.19	260.61	18.86	-37.0	-37.9	21.6	0.00e+00	0	40	0	1499463680	44	3980
2026-01-19 16:00:05.19	260.85	18.88	-37.2	-38.1	21.5	0.00e+00	0	40	0	1506803712	44	4062
2026-01-19 16:00:06.19	261.09	18.91	-37.1	-38.0	21.5	0.00e+00	0	40	0	1514143744	44	4038
2026-01-19 16:00:07.19	261.32	18.93	-37.1	-38.0	21.5	0.00e+00	0	40	0	1521483776	44	4039
2026-01-19 16:00:08.19	261.56	18.95	-37.1	-38.0	21.4	0.00e+00	0	40	0	1528823808	44	4047
2026-01-19 16:00:09.19	261.80	18.98	-37.2	-38.1	21.4	0.00e+00	0	40	0	1536163840	44	4079
2026-01-19 16:00:10.19	262.04	19.00	-37.2	-38.1	21.4	0.00e+00	0	40	0	1543503872	44	4081
2026-01-19 16:00:11.19	262.28	19.02	-37.3	-38.2	21.3	0.00e+00	0	40	0	1550843904	44	4135
2026-01-19 16:00:12.19	262.52	19.04	-37.2	-38.1	21.4	0.00e+00	0	40	0	1558183936	44	4096
2026-01-19 16:00:13.20	262.76	19.07	-37.3	-38.2	21.4	0.00e+00	0	40	0	1565523968	44	4107
2026-01-19 16:00:14.20	263.00	19.09	-37.3	-38.2	21.3	0.00e+00	0	40	0	1572864000	44	4124
2026-01-19 16:00:15.20	263.24	19.11	-37.3	-38.3	21.3	0.00e+00	0	40	0	1579155456	44	4148
2026-01-19 16:00:16.20	263.48	19.13	-37.3	-38.2	21.3	0.00e+00	0	40	0	1586495488	44	4125
2026-01-19 16:00:17.20	263.72	19.15	-37.3	-38.2	21.3	0.00e+00	0	40	0	1593835520	44	4127
2026-01-19 16:00:18.20	263.96	19.16	-37.2	-38.2	21.4	0.00e+00	0	40	0	1601175552	44	4100
2026-01-19 16:00:19.20	264.21	19.18	-37.1	-38.0	21.6	0.00e+00	0	40	0	1608515584	44	4009
2026-01-19 16:00:20.20	264.45	19.20	-37.0	-37.8	21.7	0.00e+00	0	40	0	1615855616	44	3954
2026-01-19 16:00:21.20	264.69	19.22	-36.8	-37.7	21.8	0.00e+00	0	40	0	1623195648	44	3891
2026-01-19 16:00:22.20	264.93	19.23	-36.7	-37.6	21.9	0.00e+00	0	40	0	1630535680	44	3838
2026-01-19 16:00:23.20	265.18	19.25	-36.7	-37.5	21.9	0.00e+00	0	40	0	1637875712	44	3824
2026-01-19 16:00:24.20	265.42	19.27	-37.8	-38.8	21.0	0.00e+00	0	40	0	1644167168	45	4150
2026-01-19 16:00:25.21	265.66	19.28	-37.0	-37.8	21.7	0.00e+00	0	40	0	1651507200	44	3956
2026-01-19 16:00:26.21	265.91	19.30	-36.8	-37.6	21.9	0.00e+00	0	40	0	1658847232	44	3859
2026-01-19 16:00:27.21	266.15	19.31	-37.0	-37.8	21.7	0.00e+00	0	40	0	1666187264	44	3951
2026-01-19 16:00:28.21	266.39	19.32	-37.0	-37.9	21.7	0.00e+00	0	40	0	1673527296	44	3962
2026-01-19 16:00:29.21	266.64	19.34	-37.1	-38.0	21.5	0.00e+00	0	40	0	1680867328	44	4025
2026-01-19 16:00:30.21	266.88	19.35	-37.1	-38.0	21.5	0.00e+00	0	40	0	1688207360	44	4022
2026-01-19 16:00:31.22	267.13	19.36	-37.2	-38.1	21.4	0.00e+00	0	40	0	1695547392	44	4088
2026-01-19 16:00:32.21	267.37	19.38	-37.0	-37.9	21.6	0.00e+00	0	40	0	1702887424	44	3976
2026-01-19 16:00:33.21	267.62	19.39	-37.1	-38.0	21.5	0.00e+00	0	40	0	1709178880	44	4033
2026-01-19 16:00:34.21	267.86	19.40	-37.0	-37.9	21.6	0.00e+00	0	40	0	1716518912	44	3995
2026-01-19 16:00:35.22	268.11	19.41	-37.1	-38.0	21.5	0.00e+00	0	40	0	1723858944	44	4028
2026-01-19 16:00:36.21	268.35	19.42	-37.2	-38.1	21.4	0.00e+00	0	40	0	1731198976	44	4093
2026-01-19 16:00:37.21	268.60	19.43	-37.2	-38.1	21.4	0.00e+00	0	40	0	1738539008	44	4077
2026-01-19 16:00:38.21	268.84	19.44	-36.9	-37.8	21.7	0.00e+00	0	40	0	1745879040	44	3929
2026-01-19 16:00:39.21	269.09	19.44	-36.9	-37.8	21.7	0.00e+00	0	40	0	1753219072	44	3948
2026-01-19 16:00:40.21	269.33	19.45	-36.9	-37.8	21.7	0.00e+00	0	40	0	1760559104	44	3945
2026-01-19 16:00:41.22	269.58	19.46	-37.0	-37.9	21.6	0.00e+00	0	40	0	1766850560	44	3973
2026-01-19 16:00:42.22	269.83	19.47	-37.1	-38.0	21.6	0.00e+00	0	40	0	1774190592	44	4024
2026-01-19 16:00:43.22	270.08	19.47	-37.3	-38.2	21.4	0.00e+00	0	40	0	1781530624	44	4106
2026-01-19 16:00:44.22	270.32	19.48	-37.1	-38.0	21.6	0.00e+00	0	40	0	1788870656	44	4022
2026-01-19 16:00:45.22	270.57	19.48	-37.2	-38.1	21.5	0.00e+00	0	40	0	1796210688	44	4059
2026-01-19 16:00:46.22	270.81	19.49	-37.1	-37.9	21.6	0.00e+00	0	40	0	1803550720	44	3997
2026-01-19 16:00:47.22	271.06	19.49	-37.0	-37.9	21.6	0.00e+00	0	40	0	1810890752	44	3977
2026-01-19 16:00:48.22	271.31	19.50	-37.0	-37.9	21.6	0.00e+00	0	40	0	1818230784	44	3994
2026-01-19 16:00:49.22	271.55	19.50	-37.0	-37.9	21.7	0.00e+00	0	40	0	1825570816	44	3959
2026-01-19 16:00:50.23	271.80	19.50	-37.0	-37.9	21.6	0.00e+00	0	40	0	1831862272	44	3964
2026-01-19 16:00:51.22	272.05	19.50	-37.0	-37.8	21.7	0.00e+00	0	40	0	1839202304	44	3953
2026-01-19 16:00:52.22	272.29	19.50	-37.0	-37.9	21.6	0.00e+00	0	40	0	1846542336	44	3978
2026-01-19 16:00:53.22	272.54	19.51	-37.0	-37.9	21.6	0.00e+00	0	40	0	1853882368	44	4001
2026-01-19 16:00:54.22	272.79	19.51	-37.0	-37.9	21.7	0.00e+00	0	40	0	1861222400	44	3962
2026-01-19 16:00:55.22	273.03	19.51	-36.9	-37.8	21.7	0.00e+00	0	40	0	1868562432	44	3934
2026-01-19 16:00:56.22	273.28	19.51	-36.9	-37.8	21.7	0.00e+00	0	40	0	1875902464	44	3930
2026-01-19 16:00:57.22	273.53	19.50	-36.8	-37.7	21.8	0.00e+00	0	40	0	1883242496	44	3901
2026-01-19 16:00:58.22	273.77	19.50	-36.7	-37.6	21.9	0.00e+00	0	40	0	1890582528	44	3836
2026-01-19 16:00:59.22	274.02	19.50	-36.7	-37.6	21.9	0.00e+00	0	40	0	1896873984	44	3852
2026-01-19 16:01:00.22	274.27	19.50	-36.7	-37.5	22.0	0.00e+00	0	40	0	1904214016	44	3810
2026-01-19 16:01:01.23	274.52	19.49	-36.6	-37.4	21.9	0.00e+00	0	40	0	1911554048	43	3992
2026-01-19 16:01:02.23	274.76	19.49	-36.6	-37.4	21.9	0.00e+00	0	40	0	1918894080	43	4004
2026-01-19 16:01:03.23	275.01	19.49	-36.6	-37.5	21.8	0.00e+00	0	40	0	1926234112	43	4010
2026-01-19 16:01:04.23	275.25	19.48	-36.7	-37.6	21.8	0.00e+00	0	40	0	1933574144	43	4059
2026-01-19 16:01:05.23	275.50	19.48	-36.8	-37.7	21.7	0.00e+00	0	40	0	1940914176	43	4123
2026-01-19 16:01:06.23	275.75	19.47	-36.9	-37.8	21.6	0.00e+00	0	40	0	1948254208	43	4170
2026-01-19 16:01:07.23	275.99	19.46	-37.0	-37.8	21.6	0.00e+00	0	40	0	1954545664	43	4188
2026-01-19 16:01:08.23	276.24	19.46	-37.1	-38.0	21.4	0.00e+00	0	40	0	1961885696	43	4266
2026-01-19 16:01:09.23	276.48	19.45	-37.2	-38.0	21.3	0.00e+00	0	40	0	1969225728	43	4290
2026-01-19 16:01:10.23	276.73	19.44	-37.4	-38.3	21.3	0.00e+00	0	40	0	1976565760	44	4169
2026-01-19 16:01:11.23	276.98	19.43	-37.4	-38.3	21.3	0.00e+00	0	40	0	1983905792	44	4173
2026-01-19 16:01:12.24	277.22	19.43	-37.4	-38.3	21.3	0.00e+00	0	40	0	1991245824	44	4162
2026-01-19 16:01:13.24	277.47	19.42	-37.4	-38.3	21.3	0.00e+00	0	40	0	1998585856	44	4165
2026-01-19 16:01:14.24	277.71	19.41	-37.3	-38.2	21.4	0.00e+00	0	40	0	2005925888	44	4124
2026-01-19 16:01:15.24	277.96	19.40	-37.2	-38.2	21.4	0.00e+00	0	40	0	2013265920	44	4099
2026-01-19 16:01:16.24	278.20	19.38	-37.2	-38.1	21.5	0.00e+00	0	40	0	2019557376	44	4089
2026-01-19 16:01:17.24	278.45	19.37	-37.0	-37.9	21.6	0.00e+00	0	40	0	2026897408	44	3981
2026-01-19 16:01:18.24	278.69	19.36	-37.0	-37.9	21.7	0.00e+00	0	40	0	2034237440	44	3961
2026-01-19 16:01:19.24	278.94	19.35	-37.1	-37.9	21.6	0.00e+00	0	40	0	2041577472	44	3995
2026-01-19 16:01:20.24	279.18	19.34	-37.0	-37.9	21.6	0.00e+00	0	40	0	2048917504	44	3990
2026-01-19 16:01:21.24	279.42	19.32	-37.1	-38.0	21.5	0.00e+00	0	40	0	2056257536	44	4019
2026-01-19 16:01:22.25	279.67	19.31	-37.2	-38.1	21.4	0.00e+00	0	40	0	2063597568	44	4088
2026-01-19 16:01:23.25	279.91	19.29	-37.2	-38.1	21.5	0.00e+00	0	40	0	2070937600	44	4061
2026-01-19 16:01:24.24	280.15	19.28	-37.3	-38.2	21.4	0.00e+00	0	40	0	2078277632	44	4112
2026-01-19 16:01:25.25	280.40	19.26	-37.2	-38.1	21.4	0.00e+00	0	40	0	2085617664	44	4086
2026-01-19 16:01:26.25	280.64	19.25	-37.2	-38.1	21.4	0.00e+00	0	40	0	2092957696	44	4078
2026-01-19 16:01:27.25	280.88	19.23	-37.1	-38.0	21.5	0.00e+00	0	40	0	2100297728	44	4020
2026-01-19 16:01:28.25	281.13	19.21	-37.1	-38.0	21.5	0.00e+00	0	40	0	2106589184	44	4018
2026-01-19 16:01:29.26	281.37	19.20	-37.1	-38.0	21.5	0.00e+00	0	40	0	2113929216	44	4041
2026-01-19 16:01:30.26	281.61	19.18	-36.9	-37.7	21.7	0.00e+00	0	40	0	2121269248	44	3910
2026-01-19 16:01:31.26	281.85	19.16	-37.0	-37.9	21.7	0.00e+00	0	40	0	2128609280	44	3967
2026-01-19 16:01:32.26	282.09	19.14	-36.9	-37.8	21.7	0.00e+00	0	40	0	2135949312	44	3933
2026-01-19 16:01:33.26	282.33	19.12	-36.9	-37.8	21.7	0.00e+00	0	40	0	2143289344	44	3930
2026-01-19 16:01:34.26	282.57	19.10	-36.9	-37.8	21.7	0.00e+00	0	40	0	2150629376	44	3918
2026-01-19 16:01:35.26	282.81	19.08	-37.1	-37.9	21.6	0.00e+00	0	40	0	2157969408	44	4001
2026-01-19 16:01:36.26	283.05	19.06	-37.1	-37.9	21.6	0.00e+00	0	40	0	2164260864	44	4003
2026-01-19 16:01:37.26	283.29	19.04	-37.3	-38.2	21.3	0.00e+00	0	40	0	2171600896	44	4100
2026-01-19 16:01:38.26	283.53	19.02	-37.3	-38.2	21.4	0.00e+00	0	40	0	2178940928	44	4105
2026-01-19 16:01:39.26	283.77	19.00	-37.3	-38.2	21.4	0.00e+00	0	40	0	2186280960	44	4104
2026-01-19 16:01:40.26	284.01	18.97	-37.3	-38.2	21.3	0.00e+00	0	40	0	2193620992	44	4131
2026-01-19 16:01:41.26	284.25	18.95	-37.4	-38.3	21.3	0.00e+00	0	40	0	2200961024	44	4159
2026-01-19 16:01:42.26	284.48	18.93	-37.4	-38.3	21.2	0.00e+00	0	40	0	2208301056	44	4187
2026-01-19 16:01:43.26	284.72	18.90	-37.3	-38.2	21.3	0.00e+00	0	40	0	2215641088	44	4132
2026-01-19 16:01:44.27	284.96	18.88	-37.3	-38.2	21.4	0.00e+00	0	40	0	2222981120	44	4110
2026-01-19 16:01:45.27	285.20	18.85	-37.2	-38.1	21.4	0.00e+00	0	40	0	2229272576	44	4063
2026-01-19 16:01:46.27	285.43	18.83	-37.3	-38.1	21.4	0.00e+00	0	40	0	2236612608	44	4095
2026-01-19 16:01:47.27	285.67	18.80	-37.2	-38.1	21.5	0.00e+00	0	40	0	2243952640	44	4065
2026-01-19 16:01:48.27	285.90	18.78	-37.3	-38.1	21.4	0.00e+00	0	40	0	2251292672	44	4088
2026-01-19 16:01:49.27	286.14	18.75	-37.4	-38.3	21.2	0.00e+00	0	40	0	2258632704	44	4174
2026-01-19 16:01:50.27	286.37	18.72	-37.7	-38.6	21.0	0.00e+00	0	40	0	2265972736	44	4307
2026-01-19 16:01:51.27	286.61	18.70	-37.4	-38.3	21.2	0.00e+00	0	40	0	2273312768	44	4183
2026-01-19 16:01:52.27	286.84	18.67	-37.3	-38.1	21.4	0.00e+00	0	40	0	2280652800	44	4096
2026-01-19 16:01:53.27	287.07	18.64	-37.2	-38.1	21.4	0.00e+00	0	40	0	2286944256	44	4092
2026-01-19 16:01:54.27	287.31	18.61	-37.3	-38.1	21.4	0.00e+00	0	40	0	2294284288	44	4096
2026-01-19 16:01:55.28	287.54	18.58	-37.2	-38.1	21.4	0.00e+00	0	40	0	2301624320	44	4086
2026-01-19 16:01:56.27	287.77	18.55	-37.3	-38.2	21.4	0.00e+00	0	40	0	2308964352	44	4125
2026-01-19 16:01:57.28	288.00	18.52	-37.2	-38.1	21.4	0.00e+00	0	40	0	2316304384	44	4072
2026-01-19 16:01:58.28	288.24	18.49	-37.4	-38.3	21.1	0.00e+00	0	40	0	2323644416	44	4174
2026-01-19 16:01:59.28	288.47	18.46	-37.2	-38.1	21.4	0.00e+00	0	40	0	2330984448	44	4087
2026-01-19 16:02:00.28	288.70	18.43	-37.3	-38.2	21.3	0.00e+00	0	40	0	2338324480	44	4120
2026-01-19 16:02:01.28	288.93	18.40	-37.3	-38.1	21.4	0.00e+00	0	40	0	2345664512	44	4093
2026-01-19 16:02:02.28	289.16	18.36	-37.3	-38.2	21.3	0.00e+00	0	40	0	2351955968	44	4138
2026-01-19 16:02:03.29	289.39	18.33	-37.4	-38.3	21.2	0.00e+00	0	40	0	2359296000	44	4153
2026-01-19 16:02:04.28	289.61	18.30	-37.4	-38.3	21.3	0.00e+00	0	40	0	2366636032	44	4150
2026-01-19 16:02:05.29	289.84	18.26	-37.4	-38.3	21.2	0.00e+00	0	40	0	2373976064	44	4172
2026-01-19 16:02:06.28	290.07	18.23	-37.5	-38.4	21.1	0.00e+00	0	40	0	2381316096	44	4229
2026-01-19 16:02:07.29	290.30	18.20	-37.6	-38.5	21.0	0.00e+00	0	40	0	2388656128	44	4287
2026-01-19 16:02:08.29	290.52	18.16	-37.6	-38.6	20.9	0.00e+00	0	40	0	2395996160	44	4302
2026-01-19 16:02:09.29	290.75	18.13	-37.6	-38.5	21.1	0.00e+00	0	40	0	2403336192	44	4260
2026-01-19 16:02:10.29	290.97	18.09	-37.6	-38.5	21.0	0.00e+00	0	40	0	2410676224	44	4268
2026-01-19 16:02:11.29	291.20	18.06	-37.6	-38.5	21.0	0.00e+00	0	40	0	2418016256	44	4269
2026-01-19 16:02:12.29	291.42	18.02	-37.6	-38.4	21.1	0.00e+00	0	40	0	2425356288	44	4242
2026-01-19 16:02:13.30	291.65	17.98	-37.5	-38.4	21.1	0.00e+00	0	40	0	2432696320	44	4224
2026-01-19 16:02:14.30	291.87	17.95	-37.5	-38.3	21.1	0.00e+00	0	40	0	2438987776	44	4191
2026-01-19 16:02:15.30	292.09	17.91	-37.5	-38.4	21.1	0.00e+00	0	40	0	2446327808	44	4221
2026-01-19 16:02:16.30	292.31	17.87	-37.5	-38.4	21.1	0.00e+00	0	40	0	2453667840	44	4225
2026-01-19 16:02:17.31	292.54	17.83	-37.5	-38.4	21.1	0.00e+00	0	40	0	2461007872	44	4213
2026-01-19 16:02:18.31	292.76	17.80	-37.5	-38.4	21.1	0.00e+00	0	40	0	2468347904	44	4231
2026-01-19 16:02:19.31	292.98	17.76	-37.7	-38.6	20.9	0.00e+00	0	40	0	2475687936	44	4302
2026-01-19 16:02:20.31	293.20	17.72	-37.7	-38.6	21.0	0.00e+00	0	40	0	2483027968	44	4300
2026-01-19 16:02:21.31	293.42	17.68	-37.6	-38.5	21.1	0.00e+00	0	40	0	2490368000	44	4266
2026-01-19 16:02:22.31	293.64	17.64	-37.7	-38.6	21.0	0.00e+00	0	40	0	2496659456	44	4297
2026-01-19 16:02:23.31	293.85	17.60	-37.6	-38.5	21.1	0.00e+00	0	40	0	2503999488	44	4256
2026-01-19 16:02:24.32	294.07	17.56	-37.6	-38.5	21.1	0.00e+00	0	40	0	2511339520	44	4270
2026-01-19 16:02:25.32	294.29	17.52	-37.7	-38.6	21.0	0.00e+00	0	40	0	2518679552	44	4316
2026-01-19 16:02:26.32	294.51	17.48	-37.7	-38.6	21.0	0.00e+00	0	40	0	2526019584	44	4322
2026-01-19 16:02:27.32	294.72	17.44	-37.6	-38.6	21.0	0.00e+00	0	40	0	2533359616	44	4292
2026-01-19 16:02:28.33	294.94	17.40	-37.6	-38.5	21.1	0.00e+00	0	40	0	2540699648	44	4260
2026-01-19 16:02:29.33	295.15	17.35	-37.6	-38.5	21.1	0.00e+00	0	40	0	2548039680	44	4266
2026-01-19 16:02:30.33	295.37	17.31	-37.5	-38.4	21.1	0.00e+00	0	40	0	2555379712	44	4212
2026-01-19 16:02:31.33	295.58	17.27	-37.6	-38.5	21.1	0.00e+00	0	40	0	2561671168	44	4267
2026-01-19 16:02:32.33	295.79	17.23	-37.7	-38.6	21.0	0.00e+00	0	40	0	2569011200	44	4303
2026-01-19 16:02:33.33	296.01	17.18	-37.7	-38.6	20.9	0.00e+00	0	40	0	2576351232	44	4330
2026-01-19 16:02:34.33	296.22	17.14	-37.7	-38.7	20.9	0.00e+00	0	40	0	2583691264	44	4341
2026-01-19 16:02:35.33	296.43	17.10	-37.8	-38.8	20.8	0.00e+00	0	40	0	2591031296	45	4156
2026-01-19 16:02:36.33	296.64	17.05	-37.9	-38.8	20.8	0.00e+00	0	40	0	2598371328	45	4172
2026-01-19 16:02:37.33	296.85	17.01	-37.9	-38.9	20.7	0.00e+00	0	40	0	2605711360	45	4196
2026-01-19 16:02:38.33	297.06	16.96	-37.8	-38.7	20.8	0.00e+00	0	40	0	2613051392	45	4125
2026-01-19 16:02:39.33	297.27	16.92	-38.0	-38.9	20.7	0.00e+00	0	40	0	2620391424	45	4213
2026-01-19 16:02:40.33	297.48	16.87	-38.2	-39.1	20.4	0.00e+00	0	40	0	2626682880	45	4326
2026-01-19 16:02:41.33	297.68	16.83	-38.2	-39.1	20.5	0.00e+00	0	40	0	2634022912	45	4336
2026-01-19 16:02:42.33	297.89	16.78	-38.1	-39.0	20.5	0.00e+00	0	40	0	2641362944	45	4286
2026-01-19 16:02:43.34	298.10	16.74	-38.2	-39.2	20.4	0.00e+00	0	40	0	2648702976	46	4119
2026-01-19 16:02:44.34	298.30	16.69	-38.2	-39.1	20.5	0.00e+00	0	40	0	2656043008	46	4086
2026-01-19 16:02:45.33	298.51	16.65	-38.2	-39.2	20.4	0.00e+00	0	40	0	2663383040	46	4126
2026-01-19 16:02:46.34	298.71	16.60	-38.0	-39.0	20.6	0.00e+00	0	40	0	2670723072	46	4016
2026-01-19 16:02:47.34	298.92	16.55	-38.1	-39.0	20.6	0.00e+00	0	40	0	2678063104	46	4024
2026-01-19 16:02:48.33	299.12	16.50	-38.0	-38.9	20.7	0.00e+00	0	40	0	2684354560	46	3981
2026-01-19 16:02:49.34	299.32	16.46	-38.0	-39.0	20.6	0.00e+00	0	40	0	2691694592	46	4005
2026-01-19 16:02:50.34	299.52	16.41	-38.0	-38.9	20.6	0.00e+00	0	40	0	2700083200	46	3993
2026-01-19 16:02:51.34	299.72	16.36	-38.1	-39.0	20.6	0.00e+00	0	40	0	2706374656	46	4031
2026-01-19 16:02:52.34	299.92	16.31	-38.1	-39.1	20.5	0.00e+00	0	40	0	2713714688	46	4058
2026-01-19 16:02:53.35	300.13	16.26	-38.2	-39.1	20.5	0.00e+00	0	40	0	2721054720	46	4074
2026-01-19 16:02:54.35	300.33	16.22	-38.2	-39.1	20.5	0.00e+00	0	40	0	2728394752	46	4080
2026-01-19 16:02:55.35	300.52	16.17	-38.3	-39.2	20.4	0.00e+00	0	40	0	2735734784	46	4131
2026-01-19 16:02:56.35	300.72	16.12	-38.2	-39.2	20.4	0.00e+00	0	40	0	2743074816	46	4105
2026-01-19 16:02:57.35	300.92	16.07	-38.3	-39.2	20.4	0.00e+00	0	40	0	2750414848	46	4139
2026-01-19 16:02:58.35	301.12	16.02	-38.3	-39.3	20.4	0.00e+00	0	40	0	2757754880	46	4155
2026-01-19 16:02:59.35	301.31	15.97	-38.3	-39.3	20.4	0.00e+00	0	40	0	2765094912	46	4153
2026-01-19 16:03:00.35	301.51	15.92	-38.3	-39.3	20.3	0.00e+00	0	40	0	2771386368	46	4164
2026-01-19 16:03:01.36	301.70	15.87	-38.2	-39.2	20.4	0.00e+00	0	40	0	2778726400	46	4117
2026-01-19 16:03:02.36	301.90	15.82	-38.3	-39.3	20.3	0.00e+00	0	40	0	2786066432	46	4154
2026-01-19 16:03:03.36	302.09	15.77	-38.4	-39.4	20.3	0.00e+00	0	40	0	2793406464	46	4194
2026-01-19 16:03:04.35	302.28	15.72	-38.4	-39.4	20.2	0.00e+00	0	40	0	2800746496	46	4210
2026-01-19 16:03:05.36	302.48	15.67	-38.4	-39.3	20.3	0.00e+00	0	40	0	2808086528	46	4184
2026-01-19 16:03:06.36	302.67	15.62	-38.4	-39.3	20.3	0.00e+00	0	40	0	2815426560	46	4178
2026-01-19 16:03:07.36	302.86	15.56	-38.2	-39.1	20.5	0.00e+00	0	40	0	2822766592	46	4076
2026-01-19 16:03:08.36	303.05	15.51	-38.4	-39.3	20.3	0.00e+00	0	40	0	2829058048	46	4184
2026-01-19 16:03:09.35	303.24	15.46	-38.3	-39.3	20.3	0.00e+00	0	40	0	2836398080	46	4167
2026-01-19 16:03:10.35	303.43	15.41	-38.4	-39.4	20.2	0.00e+00	0	40	0	2843738112	46	4198
2026-01-19 16:03:11.36	303.62	15.36	-38.4	-39.3	20.2	0.00e+00	0	40	0	2851078144	46	4188
2026-01-19 16:03:12.36	303.80	15.31	-38.1	-39.1	20.5	0.00e+00	0	40	0	2858418176	46	4061
2026-01-19 16:03:13.36	303.99	15.25	-38.2	-39.2	20.4	0.00e+00	0	40	0	2865758208	46	4100
2026-01-19 16:03:14.36	304.18	15.20	-38.1	-39.1	20.5	0.00e+00	0	40	0	2873098240	46	4062
2026-01-19 16:03:15.36	304.36	15.15	-38.2	-39.1	20.5	0.00e+00	0	40	0	2880438272	46	4078
2026-01-19 16:03:16.37	304.55	15.10	-38.3	-39.2	20.4	0.00e+00	0	40	0	2887778304	46	4123
2026-01-19 16:03:17.37	304.74	15.04	-38.4	-39.3	20.3	0.00e+00	0	40	0	2894069760	46	4174
2026-01-19 16:03:18.37	304.92	14.99	-38.4	-39.3	20.3	0.00e+00	0	40	0	2901409792	46	4180
2026-01-19 16:03:19.37	305.10	14.94	-38.3	-39.3	20.3	0.00e+00	0	40	0	2908749824	46	4149
2026-01-19 16:03:20.37	305.29	14.88	-38.4	-39.3	20.3	0.00e+00	0	40	0	2916089856	46	4173
2026-01-19 16:03:21.37	305.47	14.83	-38.6	-39.5	20.1	0.00e+00	0	40	0	2923429888	46	4276
2026-01-19 16:03:22.37	305.65	14.77	-38.7	-39.6	20.0	0.00e+00	0	40	0	2930769920	46	4326
2026-01-19 16:03:23.38	305.83	14.72	-38.7	-39.7	20.0	0.00e+00	0	40	0	2938109952	46	4343
2026-01-19 16:03:24.37	306.01	14.67	-38.8	-39.8	19.8	0.00e+00	0	40	0	2945449984	47	4183
2026-01-19 16:03:25.38	306.19	14.61	-38.7	-39.7	19.9	0.00e+00	0	40	0	2952790016	47	4121
2026-01-19 16:03:26.38	306.37	14.56	-38.9	-39.9	19.7	0.00e+00	0	40	0	2959081472	47	4235
2026-01-19 16:03:27.38	306.55	14.50	-38.9	-39.9	19.7	0.00e+00	0	40	0	2966421504	47	4232
2026-01-19 16:03:28.39	306.73	14.45	-39.0	-40.0	19.6	0.00e+00	0	40	0	2973761536	47	4258
2026-01-19 16:03:29.39	306.90	14.39	-38.9	-39.9	19.7	0.00e+00	0	40	0	2981101568	47	4236
2026-01-19 16:03:30.38	307.08	14.34	-39.0	-40.0	19.6	0.00e+00	0	40	0	2988441600	47	4280
2026-01-19 16:03:31.39	307.26	14.28	-38.9	-39.9	19.7	0.00e+00	0	40	0	2995781632	47	4221
2026-01-19 16:03:32.39	307.43	14.23	-38.9	-39.9	19.7	0.00e+00	0	40	0	3003121664	47	4205
2026-01-19 16:03:33.39	307.60	14.17	-38.8	-39.8	19.8	0.00e+00	0	40	0	3010461696	47	4182
2026-01-19 16:03:34.39	307.78	14.12	-38.9	-40.0	19.7	0.00e+00	0	40	0	3016753152	47	4243
2026-01-19 16:03:35.39	307.95	14.06	-38.9	-39.9	19.7	0.00e+00	0	40	0	3025141760	47	4201
2026-01-19 16:03:36.39	308.12	14.01	-38.9	-39.9	19.7	0.00e+00	0	40	0	3032481792	47	4216
2026-01-19 16:03:37.40	308.30	13.95	-38.9	-39.9	19.7	0.00e+00	0	40	0	3038773248	47	4216
2026-01-19 16:03:38.40	308.47	13.90	-38.9	-39.9	19.7	0.00e+00	0	40	0	3046113280	47	4232
2026-01-19 16:03:39.39	308.64	13.84	-38.9	-39.9	19.7	0.00e+00	0	40	0	3053453312	47	4219
2026-01-19 16:03:40.39	308.81	13.78	-38.9	-39.9	19.7	0.00e+00	0	40	0	3060793344	47	4216
2026-01-19 16:03:41.39	308.98	13.73	-38.8	-39.7	19.8	0.00e+00	0	40	0	3068133376	47	4145
2026-01-19 16:03:42.39	309.15	13.67	-38.8	-39.9	19.7	0.00e+00	0	40	0	3075473408	47	4197
2026-01-19 16:03:43.40	309.31	13.62	-38.8	-39.8	19.7	0.00e+00	0	40	0	3082813440	47	4190
2026-01-19 16:03:44.40	309.48	13.56	-38.7	-39.7	19.8	0.00e+00	0	40	0	3090153472	47	4129
2026-01-19 16:03:45.40	309.65	13.50	-38.9	-39.9	19.7	0.00e+00	0	40	0	3097493504	47	4208
2026-01-19 16:03:46.41	309.82	13.45	-38.9	-39.9	19.6	0.00e+00	0	40	0	3103784960	47	4235
2026-01-19 16:03:47.41	309.98	13.39	-38.9	-39.9	19.7	0.00e+00	0	40	0	3111124992	47	4221
2026-01-19 16:03:48.41	310.15	13.33	-39.0	-40.0	19.6	0.00e+00	0	40	0	3118465024	47	4262
2026-01-19 16:03:49.41	310.31	13.28	-39.0	-40.1	19.5	0.00e+00	0	40	0	3125805056	47	4315
2026-01-19 16:03:50.41	310.48	13.22	-39.2	-40.2	19.3	0.00e+00	0	40	0	3133145088	47	4367
2026-01-19 16:03:51.42	310.64	13.16	-39.1	-40.2	19.4	0.00e+00	0	40	0	3140485120	47	4353
2026-01-19 16:03:52.42	310.80	13.10	-39.4	-40.4	19.5	0.00e+00	0	40	0	3147825152	48	4228
2026-01-19 16:03:53.42	310.96	13.05	-39.5	-40.6	19.3	0.00e+00	0	40	0	3155165184	48	4303
2026-01-19 16:03:54.42	311.13	12.99	-39.3	-40.4	19.4	0.00e+00	0	40	0	3162505216	48	4196
2026-01-19 16:03:55.42	311.29	12.93	-39.4	-40.4	19.4	0.00e+00	0	40	0	3168796672	48	4216
2026-01-19 16:03:56.42	311.45	12.88	-39.6	-40.6	19.3	0.00e+00	0	40	0	3176136704	48	4314
2026-01-19 16:03:57.42	311.61	12.82	-39.4	-40.4	19.5	0.00e+00	0	40	0	3183476736	48	4210
2026-01-19 16:03:58.43	311.77	12.76	-39.3	-40.3	19.5	0.00e+00	0	40	0	3190816768	48	4179
2026-01-19 16:03:59.43	311.92	12.70	-39.3	-40.3	19.5	0.00e+00	0	40	0	3198156800	48	4179
2026-01-19 16:04:00.43	312.08	12.65	-39.3	-40.3	19.5	0.00e+00	0	40	0	3205496832	48	4164
2026-01-19 16:04:01.43	312.24	12.59	-39.3	-40.3	19.5	0.00e+00	0	40	0	3212836864	48	4183
2026-01-19 16:04:02.43	312.40	12.53	-39.1	-40.1	19.7	0.00e+00	0	40	0	3220176896	48	4059
2026-01-19 16:04:03.43	312.55	12.47	-39.0	-40.0	19.8	0.00e+00	0	40	0	3226468352	48	4035
2026-01-19 16:04:04.44	312.71	12.41	-39.0	-40.0	19.8	0.00e+00	0	40	0	3233808384	48	4037
2026-01-19 16:04:05.43	312.86	12.36	-38.9	-39.9	19.9	0.00e+00	0	40	0	3241148416	48	3977
2026-01-19 16:04:06.44	313.02	12.30	-38.9	-39.9	19.9	0.00e+00	0	40	0	3248488448	48	3966
2026-01-19 16:04:07.44	313.17	12.24	-38.9	-39.9	19.9	0.00e+00	0	40	0	3255828480	48	3965
2026-01-19 16:04:08.44	313.32	12.18	-38.8	-39.8	20.0	0.00e+00	0	40	0	3263168512	48	3920
2026-01-19 16:04:09.44	313.48	12.13	-38.9	-39.9	19.8	0.00e+00	0	40	0	3270508544	48	3987
2026-01-19 16:04:10.44	313.63	12.07	-39.1	-40.1	19.7	0.00e+00	0	40	0	3277848576	48	4076
2026-01-19 16:04:11.44	313.78	12.01	-39.2	-40.2	19.6	0.00e+00	0	40	0	3285188608	48	4101
2026-01-19 16:04:12.45	313.93	11.95	-39.2	-40.3	19.5	0.00e+00	0	40	0	3292528640	48	4148
2026-01-19 16:04:13.45	314.08	11.89	-39.3	-40.4	19.4	0.00e+00	0	40	0	3299868672	48	4200
2026-01-19 16:04:14.45	314.23	11.83	-39.5	-40.5	19.3	0.00e+00	0	40	0	3307208704	48	4287
2026-01-19 16:04:15.45	314.38	11.78	-39.6	-40.6	19.2	0.00e+00	0	40	0	3313500160	48	4311
2026-01-19 16:04:16.45	314.53	11.72	-39.7	-40.7	19.1	0.00e+00	0	40	0	3320840192	48	4368
2026-01-19 16:04:17.45	314.67	11.66	-39.8	-40.8	19.0	0.00e+00	0	40	0	3328180224	48	4420
2026-01-19 16:04:18.46	314.82	11.60	-39.7	-40.8	19.1	0.00e+00	0	39	0	3335520256	48	4400
2026-01-19 16:04:19.46	314.97	11.54	-39.8	-40.8	19.0	0.00e+00	0	40	0	3342860288	48	4426
2026-01-19 16:04:20.46	315.12	11.49	-39.8	-40.8	19.0	0.00e+00	0	40	0	3350200320	49	4191
2026-01-19 16:04:21.46	315.26	11.43	-39.9	-40.9	18.9	0.00e+00	0	40	0	3357540352	49	4239
2026-01-19 16:04:22.46	315.41	11.37	-39.7	-40.7	19.1	0.00e+00	0	40	0	3364880384	49	4128
2026-01-19 16:04:23.46	315.55	11.31	-39.7	-40.7	19.1	0.00e+00	0	40	0	3371171840	49	4142
2026-01-19 16:04:24.46	315.69	11.25	-39.7	-40.7	19.1	0.00e+00	0	40	0	3378511872	49	4120
2026-01-19 16:04:25.47	315.84	11.19	-39.7	-40.7	19.1	0.00e+00	0	40	0	3385851904	49	4128
2026-01-19 16:04:26.47	315.98	11.13	-39.6	-40.6	19.1	0.00e+00	0	40	0	3393191936	49	4095
2026-01-19 16:04:27.47	316.12	11.08	-39.4	-40.5	19.3	0.00e+00	0	40	0	3400531968	49	4011
2026-01-19 16:04:28.47	316.26	11.02	-39.5	-40.5	19.3	0.00e+00	0	40	0	3407872000	49	4040
2026-01-19 16:04:29.47	316.41	10.96	-39.4	-40.4	19.4	0.00e+00	0	40	0	3415212032	49	3973
2026-01-19 16:04:30.47	316.55	10.90	-39.3	-40.4	19.4	0.00e+00	0	40	0	3422552064	49	3963
2026-01-19 16:04:31.47	316.69	10.84	-39.3	-40.3	19.5	0.00e+00	0	40	0	3429892096	49	3923
2026-01-19 16:04:32.48	316.83	10.78	-39.3	-40.3	19.5	0.00e+00	0	40	0	3436183552	49	3940
2026-01-19 16:04:33.48	316.97	10.72	-39.2	-40.3	19.5	0.00e+00	0	40	0	3443523584	49	3914
2026-01-19 16:04:34.48	317.10	10.67	-39.3	-40.3	19.4	0.00e+00	0	40	0	3450863616	49	3949
2026-01-19 16:04:35.49	317.24	10.61	-39.4	-40.5	19.3	0.00e+00	0	40	0	3458203648	49	4006
2026-01-19 16:04:36.49	317.38	10.55	-39.6	-40.6	19.2	0.00e+00	0	40	0	3465543680	49	4092
2026-01-19 16:04:37.49	317.52	10.49	-39.5	-40.5	19.2	0.00e+00	0	40	0	3472883712	49	4048
2026-01-19 16:04:38.49	317.65	10.43	-39.3	-40.4	19.4	0.00e+00	0	40	0	3480223744	49	3967
2026-01-19 16:04:39.49	317.79	10.37	-39.6	-40.6	19.2	0.00e+00	0	40	0	3487563776	49	4091
2026-01-19 16:04:40.49	317.92	10.31	-39.6	-40.7	19.1	0.00e+00	0	40	0	3494903808	49	4113
2026-01-19 16:04:41.50	318.06	10.26	-39.7	-40.8	19.0	0.00e+00	0	40	0	3502243840	49	4177
2026-01-19 16:04:42.50	318.19	10.20	-39.9	-41.0	18.7	0.00e+00	0	40	0	3509583872	49	4274
2026-01-19 16:04:43.50	318.33	10.14	-39.9	-41.0	18.7	0.00e+00	0	40	0	3516923904	49	4289
2026-01-19 16:04:44.50	318.46	10.08	-40.0	-41.1	18.6	0.00e+00	0	40	0	3523215360	49	4329
2026-01-19 16:04:45.50	318.59	10.02	-40.2	-41.3	18.5	0.00e+00	0	40	0	3530555392	49	4412
2026-01-19 16:04:46.50	318.73	9.96	-40.2	-41.4	18.4	0.00e+00	0	40	0	3537895424	49	4443
2026-01-19 16:04:47.49	318.86	9.91	-40.1	-41.3	18.5	0.00e+00	0	40	0	3545235456	49	4418
2026-01-19 16:04:48.49	318.99	9.85	-40.2	-41.4	18.4	0.00e+00	0	40	0	3552575488	49	4451
2026-01-19 16:04:49.49	319.12	9.79	-40.2	-41.3	18.4	0.00e+00	0	40	0	3559915520	49	4437
2026-01-19 16:04:50.50	319.25	9.73	-40.1	-41.3	18.5	0.00e+00	0	40	0	3567255552	49	4403
2026-01-19 16:04:51.50	319.38	9.67	-40.0	-41.2	18.5	0.00e+00	0	40	0	3574595584	49	4373
2026-01-19 16:04:52.49	319.51	9.61	-40.0	-41.1	18.6	0.00e+00	0	40	0	3580887040	49	4334
2026-01-19 16:04:53.50	319.64	9.55	-39.9	-41.0	18.7	0.00e+00	0	40	0	3588227072	49	4285
2026-01-19 16:04:54.50	319.76	9.50	-39.8	-41.0	18.7	0.00e+00	0	40	0	3595567104	49	4273
2026-01-19 16:04:55.50	319.89	9.44	-39.9	-41.1	18.6	0.00e+00	0	40	0	3602907136	49	4312
2026-01-19 16:04:56.50	320.02	9.38	-40.0	-41.2	18.5	0.00e+00	0	40	0	3610247168	49	4375
2026-01-19 16:04:57.50	320.14	9.32	-39.9	-41.1	18.6	0.00e+00	0	40	0	3617587200	49	4326
2026-01-19 16:04:58.50	320.27	9.26	-39.9	-41.1	18.6	0.00e+00	0	40	0	3624927232	49	4307
2026-01-19 16:04:59.50	320.40	9.20	-40.0	-41.2	18.5	0.00e+00	0	40	0	3632267264	49	4351
2026-01-19 16:05:00.50	320.52	9.15	-40.1	-41.3	18.4	0.00e+00	0	40	0	3639607296	49	4427
2026-01-19 16:05:01.50	320.65	9.09	-39.9	-41.1	18.6	0.00e+00	0	40	0	3645898752	49	4302
2026-01-19 16:05:02.50	320.77	9.03	-40.0	-41.2	18.5	0.00e+00	0	40	0	3653238784	49	4353
2026-01-19 16:05:03.50	320.89	8.97	-40.3	-41.5	18.3	0.00e+00	0	40	0	3660578816	49	4514
2026-01-19 16:05:04.50	321.02	8.91	-49.9	-61.3	3.8	8.48e-01	0	40	104	3663724544	69	13892
2026-01-19 16:05:05.49	321.14	8.86	-50.1	-61.4	3.8	8.47e-01	0	40	104	3663724544	70	13274
2026-01-19 16:05:06.49	321.26	8.80	-50.5	-61.6	3.8	8.47e-01	0	40	104	3663724544	70	13584
2026-01-19 16:05:07.49	321.38	8.74	-50.7	-61.7	3.8	8.47e-01	0	40	104	3663724544	70	13742
2026-01-19 16:05:08.48	321.50	8.68	-50.5	-61.7	3.8	8.48e-01	0	40	104	3663724544	70	13849
2026-01-19 16:05:09.48	321.62	8.62	-51.0	-61.8	3.8	8.46e-01	0	40	104	3663724544	71	13180
2026-01-19 16:05:10.47	321.74	8.57	-50.9	-61.7	3.8	8.47e-01	0	40	104	3663724544	71	13092
2026-01-19 16:05:11.47	321.86	8.51	-50.8	-61.8	3.8	8.47e-01	0	40	104	3663724544	71	13165
2026-01-19 16:05:12.46	321.98	8.45	-50.8	-61.8	3.8	8.48e-01	0	40	104	3663724544	71	13163
2026-01-19 16:05:13.46	322.10	8.39	-50.9	-61.8	3.8	8.47e-01	0	40	104	3663724544	71	13234
2026-01-19 16:05:14.46	322.22	8.34	-51.1	-61.9	3.8	8.48e-01	0	40	104	3663724544	71	13291
2026-01-19 16:05:15.45	322.33	8.28	-51.1	-61.8	3.8	8.47e-01	0	40	104	3663724544	71	13176
2026-01-19 16:05:16.45	322.45	8.22	-51.2	-61.8	3.8	8.47e-01	0	40	104	3663724544	71	13222
2026-01-19 16:05:17.44	322.57	8.16	-51.2	-61.8	3.8	8.46e-01	0	40	104	3663724544	71	13206
2026-01-19 16:05:18.44	322.69	8.11	-51.2	-61.8	3.8	8.48e-01	0	40	104	3663724544	71	13205
2026-01-19 16:05:19.43	322.80	8.05	-51.1	-61.8	3.8	8.47e-01	0	40	104	3663724544	71	13177
2026-01-19 16:05:20.43	322.92	7.99	-51.1	-61.8	3.8	8.47e-01	0	40	104	3663724544	71	13125
2026-01-19 16:05:21.42	323.03	7.93	-51.0	-61.8	3.8	8.47e-01	0	40	104	3663724544	71	13189
2026-01-19 16:05:22.42	323.15	7.88	-51.1	-61.7	3.8	8.47e-01	0	40	104	3663724544	71	13066
2026-01-19 16:05:23.42	323.26	7.82	-50.8	-61.7	3.8	8.47e-01	0	40	104	3663724544	71	13103
2026-01-19 16:05:24.41	323.37	7.76	-50.7	-61.7	3.8	8.47e-01	0	40	104	3663724544	71	12992
2026-01-19 16:05:25.41	323.49	7.70	-50.7	-61.7	3.8	8.48e-01	0	40	104	3663724544	71	13007
2026-01-19 16:05:26.40	323.60	7.65	-50.7	-61.7	3.8	8.47e-01	0	40	104	3663724544	71	13036
2026-01-19 16:05:27.40	323.71	7.59	-50.7	-61.7	3.8	8.48e-01	0	40	104	3663724544	71	13019
2026-01-19 16:05:28.39	323.82	7.53	-50.7	-61.8	3.8	8.47e-01	0	40	104	3663724544	71	13127
2026-01-19 16:05:29.39	323.94	7.48	-50.7	-61.7	3.8	8.47e-01	0	40	104	3663724544	71	13098
2026-01-19 16:05:30.38	324.05	7.42	-50.7	-61.7	3.8	8.46e-01	0	40	104	3663724544	71	12969
2026-01-19 16:05:31.38	324.16	7.36	-50.7	-61.7	3.8	8.46e-01	0	40	104	3663724544	71	13007
2026-01-19 16:05:32.38	324.27	7.30	-50.7	-61.7	3.8	8.47e-01	0	40	104	3663724544	71	13026
2026-01-19 16:05:33.37	324.38	7.25	-50.7	-61.7	3.8	8.47e-01	0	40	104	3663724544	71	13033
2026-01-19 16:05:34.37	324.49	7.19	-50.7	-61.7	3.8	8.47e-01	0	40	104	3663724544	71	13096
2026-01-19 16:05:35.36	324.60	7.13	-50.7	-61.7	3.8	8.48e-01	0	40	104	3663724544	71	13040
2026-01-19 16:05:36.36	324.70	7.08	-50.7	-61.7	3.8	8.47e-01	0	40	104	3663724544	71	12977
2026-01-19 16:05:37.35	324.81	7.02	-50.7	-61.7	3.8	8.48e-01	0	40	104	3663724544	71	12961
2026-01-19 16:05:38.35	324.92	6.96	-50.7	-61.7	3.8	8.47e-01	0	40	104	3663724544	71	13030
2026-01-19 16:05:39.34	325.03	6.91	-50.7	-61.7	3.8	8.46e-01	0	40	104	3663724544	71	13006
2026-01-19 16:05:40.34	325.13	6.85	-50.7	-61.6	3.8	8.47e-01	0	40	104	3663724544	71	12925
2026-01-19 16:05:41.34	325.24	6.79	-50.7	-61.7	3.8	8.47e-01	0	40	104	3663724544	71	12974
2026-01-19 16:05:42.33	325.35	6.74	-50.7	-61.7	3.8	8.47e-01	0	40	104	3663724544	71	13053
2026-01-19 16:05:43.33	325.45	6.68	-50.7	-61.6	3.8	8.46e-01	0	40	104	3663724544	71	12931
2026-01-19 16:05:44.32	325.56	6.62	-50.7	-61.7	3.8	8.47e-01	0	40	104	3663724544	71	13013
2026-01-19 16:05:45.32	325.66	6.57	-50.7	-61.7	3.8	8.48e-01	0	40	104	3663724544	71	12991
2026-01-19 16:05:46.31	325.77	6.51	-50.7	-61.7	3.8	8.46e-01	0	40	104	3663724544	71	13071
2026-01-19 16:05:47.31	325.87	6.45	-50.7	-61.7	3.8	8.46e-01	0	40	104	3663724544	71	13073
2026-01-19 16:05:48.30	325.98	6.40	-50.7	-61.7	3.8	8.48e-01	0	40	104	3663724544	71	12986
2026-01-19 16:05:49.30	326.08	6.34	-50.7	-61.7	3.8	8.47e-01	0	40	104	3663724544	71	12960
2026-01-19 16:05:50.29	326.18	6.29	-50.7	-61.6	3.8	8.47e-01	0	40	104	3663724544	71	12954
2026-01-19 16:05:51.29	326.29	6.23	-50.7	-61.7	3.8	8.47e-01	0	40	104	3663724544	71	13005
2026-01-19 16:05:52.28	326.39	6.17	-50.7	-61.6	3.8	8.47e-01	0	40	104	3663724544	71	12929
2026-01-19 16:05:53.28	326.49	6.12	-50.7	-61.7	3.8	8.46e-01	0	40	104	3663724544	71	13047
2026-01-19 16:05:54.27	326.59	6.06	-50.7	-61.6	3.8	8.47e-01	0	40	104	3663724544	71	12928
2026-01-19 16:05:55.27	326.69	6.01	-50.7	-61.6	3.8	8.46e-01	0	40	104	3663724544	71	12914
2026-01-19 16:05:56.26	326.79	5.95	-50.7	-61.6	3.8	8.47e-01	0	40	104	3663724544	71	12950
2026-01-19 16:05:57.26	326.89	5.89	-50.7	-61.6	3.8	8.47e-01	0	40	104	3663724544	71	12942
2026-01-19 16:05:58.26	326.99	5.84	-50.7	-61.7	3.8	8.48e-01	0	40	104	3663724544	71	12966
2026-01-19 16:05:59.25	327.09	5.78	-50.7	-61.6	3.8	8.46e-01	0	40	104	3663724544	71	12908
2026-01-19 16:06:00.24	327.19	5.73	-50.7	-61.7	3.8	8.47e-01	0	40	104	3663724544	71	13059
2026-01-19 16:06:01.24	327.29	5.67	-50.7	-61.7	3.8	8.47e-01	0	40	104	3663724544	71	13015
2026-01-19 16:06:02.23	327.39	5.62	-50.7	-61.6	3.8	8.47e-01	0	40	104	3663724544	71	12925
2026-01-19 16:06:03.23	327.49	5.56	-50.7	-61.6	3.8	8.47e-01	0	40	104	3663724544	71	12945
2026-01-19 16:06:04.23	327.59	5.50	-50.7	-61.7	3.8	8.47e-01	0	40	104	3663724544	71	12975
2026-01-19 16:06:05.22	327.69	5.45	-50.7	-61.7	3.8	8.47e-01	0	40	104	3663724544	71	13020
2026-01-19 16:06:06.22	327.78	5.39	-50.7	-61.6	3.8	8.47e-01	0	40	104	3663724544	71	12904
2026-01-19 16:06:07.21	327.88	5.34	-50.7	-61.6	3.8	8.48e-01	0	40	104	3663724544	71	12928
2026-01-19 16:06:08.21	327.98	5.28	-50.7	-61.7	3.8	8.45e-01	0	40	104	3663724544	71	12991
2026-01-19 16:06:09.20	328.07	5.23	-50.7	-61.6	3.8	8.47e-01	0	40	104	3663724544	71	12940
2026-01-19 16:06:10.20	328.17	5.17	-50.6	-61.6	3.8	8.47e-01	0	40	104	3663724544	71	12923
2026-01-19 16:06:11.19	328.26	5.12	-50.7	-61.6	3.8	8.46e-01	0	40	104	3663724544	71	12899
2026-01-19 16:06:12.19	328.36	5.06	-50.6	-61.6	3.8	8.47e-01	0	40	104	3663724544	71	12885
2026-01-19 16:06:13.19	328.45	5.01	-50.6	-61.6	3.8	8.47e-01	0	40	104	3663724544	71	12857
2026-01-19 16:06:14.18	328.55	4.95	-50.7	-61.6	3.8	8.46e-01	0	40	104	3663724544	71	12883

#Closed at: 2026-01-19 16:06:15
#Recorded file [3663 MB]: D:/Data/31040_260119_185538.dat