passes_logs/2026/01/19/T1/T1__20260119_000016_SUOMI_NPP_rec.log

#Pass ID: 20260119_000016_SUOMI NPP
#Satellite: SUOMI NPP
#Configuration: NPP
#almurnet v.1.7.20251203
#Start time: 2026-01-19 00:00:16

#Version: 2.0.20230620
#Station: T1
#Location: 37.570604 lon 55.790049 lat
#TLE: 1 37849U 11061A   26017.92342359  .00000077  00000+0  57567-4 0  9990
#TLE: 2 37849  98.7814 319.9468 0002389  58.5705 301.5704 14.19525998737125

#Time	Az	El	Level	Level2	SNR	BER	BlckErr	Temp	State	Recorded	gain1	gain2
2026-01-19 00:00:16.74	14.85	5.01	-49.1	-65.1	3.8	1.49e+00	0	40	0	0	69	23083
2026-01-19 00:00:17.73	14.85	5.08	-48.3	-64.7	3.8	1.49e+00	0	40	104	0	67	24852
2026-01-19 00:00:18.72	14.84	5.15	-48.3	-64.7	3.8	1.49e+00	0	40	104	0	67	24973
2026-01-19 00:00:19.72	14.83	5.22	-48.3	-64.8	3.8	1.49e+00	0	40	104	0	67	25017
2026-01-19 00:00:20.71	14.82	5.29	-48.3	-64.8	3.8	1.49e+00	0	40	104	0	67	25034
2026-01-19 00:00:21.71	14.81	5.36	-48.3	-64.8	3.8	1.49e+00	0	40	104	0	67	25032
2026-01-19 00:00:22.70	14.80	5.43	-48.3	-64.8	3.8	1.49e+00	0	40	104	0	67	25085
2026-01-19 00:00:23.69	14.79	5.51	-48.3	-64.8	3.8	1.49e+00	0	41	104	0	67	25154
2026-01-19 00:00:24.69	14.78	5.58	-48.3	-64.8	3.8	1.49e+00	0	41	104	0	67	25172
2026-01-19 00:00:25.68	14.77	5.65	-48.3	-64.8	3.8	1.49e+00	0	41	104	0	67	25071
2026-01-19 00:00:26.68	14.76	5.72	-48.3	-64.8	3.8	1.49e+00	0	41	104	0	67	25104
2026-01-19 00:00:27.67	14.75	5.80	-48.3	-64.8	3.8	1.49e+00	0	41	104	0	67	25078
2026-01-19 00:00:28.66	14.74	5.87	-48.3	-64.8	3.8	1.49e+00	0	41	104	0	67	24993
2026-01-19 00:00:29.65	14.74	5.94	-48.3	-64.7	3.8	1.49e+00	0	41	104	0	67	24915
2026-01-19 00:00:30.65	14.73	6.01	-48.3	-64.7	3.8	1.49e+00	0	41	104	0	67	24956
2026-01-19 00:00:31.64	14.72	6.09	-48.3	-64.7	3.8	1.49e+00	0	41	104	0	67	24913
2026-01-19 00:00:32.64	14.71	6.16	-48.3	-64.7	3.8	1.49e+00	0	41	104	0	67	24773
2026-01-19 00:00:33.63	14.70	6.23	-48.3	-64.7	3.8	1.49e+00	0	41	104	0	67	24777
2026-01-19 00:00:34.62	14.69	6.31	-48.3	-64.7	3.8	1.49e+00	0	41	104	0	67	24752
2026-01-19 00:00:35.62	14.68	6.38	-48.3	-64.6	3.8	1.49e+00	0	41	104	0	67	24661
2026-01-19 00:00:36.61	14.67	6.46	-48.3	-64.6	3.8	1.49e+00	0	41	104	0	67	24613
2026-01-19 00:00:37.60	14.66	6.53	-48.3	-64.5	3.8	1.49e+00	0	41	104	0	67	24336
2026-01-19 00:00:38.60	14.65	6.61	-48.3	-64.5	3.8	1.49e+00	0	41	104	0	67	24288
2026-01-19 00:00:39.59	14.64	6.68	-48.3	-64.5	3.8	1.49e+00	0	41	104	0	67	24299
2026-01-19 00:00:40.58	14.63	6.76	-48.3	-64.5	3.8	1.49e+00	0	41	104	0	67	24219
2026-01-19 00:00:41.58	14.62	6.83	-48.3	-64.5	3.8	1.49e+00	0	41	104	0	67	24188
2026-01-19 00:00:42.57	14.60	6.91	-48.3	-64.5	3.8	1.49e+00	0	42	104	0	67	24193
2026-01-19 00:00:43.56	14.59	6.98	-48.3	-64.5	3.8	1.49e+00	0	42	104	0	67	24221
2026-01-19 00:00:44.56	14.58	7.06	-48.3	-64.5	3.8	1.49e+00	0	42	104	0	67	24335
2026-01-19 00:00:45.55	14.57	7.14	-48.3	-64.6	3.8	1.49e+00	0	41	104	0	67	24418
2026-01-19 00:00:46.55	14.56	7.21	-48.3	-64.5	3.8	1.49e+00	0	42	104	0	67	24238
2026-01-19 00:00:47.54	14.55	7.29	-48.3	-64.4	3.8	1.49e+00	0	42	104	0	67	23963
2026-01-19 00:00:48.53	14.54	7.37	-48.3	-64.3	3.8	1.49e+00	0	42	104	0	67	23805
2026-01-19 00:00:49.52	14.53	7.45	-48.3	-64.1	3.8	1.49e+00	0	42	104	0	67	23231
2026-01-19 00:00:50.52	14.52	7.52	-48.2	-63.9	3.8	1.49e+00	0	42	104	0	67	22598
2026-01-19 00:00:51.51	14.51	7.60	-48.2	-63.4	3.8	1.49e+00	0	42	104	0	67	21492
2026-01-19 00:00:52.50	14.50	7.68	-48.2	-62.9	3.8	1.49e+00	0	42	104	0	67	20195
2026-01-19 00:00:53.50	14.48	7.76	-48.2	-62.3	3.8	1.48e+00	0	42	104	0	67	18755
2026-01-19 00:00:54.49	14.47	7.84	-48.1	-61.3	4.2	1.47e+00	0	42	104	0	67	16779
2026-01-19 00:00:55.49	14.46	7.92	-48.1	-60.2	4.5	1.29e+00	0	42	0	0	67	14848
2026-01-19 00:00:56.48	14.45	7.99	-47.9	-59.3	4.9	9.13e-01	0	42	0	2097152	67	13261
2026-01-19 00:00:57.47	14.44	8.07	-47.8	-58.1	5.6	4.98e-01	0	42	0	4194304	67	11641
2026-01-19 00:00:58.47	14.43	8.15	-47.7	-57.2	6.3	2.97e-01	0	42	0	6291456	67	10510
2026-01-19 00:00:59.46	14.41	8.23	-47.5	-56.1	7.2	1.92e-01	0	42	0	7340032	67	9269
2026-01-19 00:01:00.45	14.40	8.31	-47.4	-55.4	8.0	7.30e-02	0	42	0	9437184	66	8983
2026-01-19 00:01:01.45	14.39	8.39	-47.1	-54.5	8.9	4.03e-02	0	42	0	11534336	66	8136
2026-01-19 00:01:02.44	14.38	8.47	-46.9	-53.7	9.7	1.60e-02	0	42	0	13631488	65	7862
2026-01-19 00:01:03.44	14.37	8.55	-46.8	-53.3	10.2	1.12e-02	0	42	0	15728640	65	7463
2026-01-19 00:01:04.43	14.35	8.64	-46.6	-52.8	10.6	4.24e-03	0	42	0	16777216	65	7103
2026-01-19 00:01:05.42	14.34	8.72	-46.5	-52.5	10.9	2.83e-03	0	42	0	18874368	65	6875
2026-01-19 00:01:06.42	14.33	8.80	-46.5	-52.5	11.0	1.97e-03	0	42	0	20971520	64	7232
2026-01-19 00:01:07.41	14.32	8.88	-46.5	-52.4	11.1	1.58e-03	0	42	0	23068672	64	7137
2026-01-19 00:01:08.40	14.30	8.96	-46.5	-52.4	11.0	1.65e-03	0	42	0	25165824	64	7164
2026-01-19 00:01:09.40	14.29	9.04	-46.7	-53.0	10.5	2.26e-03	0	42	0	26214400	64	7647
2026-01-19 00:01:10.39	14.28	9.13	-47.2	-54.6	8.9	5.65e-03	0	42	0	28311552	64	9246
2026-01-19 00:01:11.39	14.26	9.21	-47.4	-55.8	7.4	4.47e-01	0	42	0	30408704	66	9424
2026-01-19 00:01:12.38	14.25	9.29	-45.6	-50.0	13.7	1.50e-06	0	42	0	32505856	62	6082
2026-01-19 00:01:13.38	14.24	9.38	-47.7	-56.7	6.8	1.81e-01	0	42	0	33554432	66	10424
2026-01-19 00:01:14.37	14.22	9.46	-47.9	-58.6	5.2	5.77e-01	0	42	0	35651584	66	13063
2026-01-19 00:01:15.44	14.21	9.55	-47.6	-56.7	6.9	1.69e-01	0	42	0	37748736	66	10413
2026-01-19 00:01:16.33	14.20	9.63	-47.5	-56.0	7.4	1.48e-01	0	42	0	39845888	66	9638
2026-01-19 00:01:17.47	14.18	9.72	-47.4	-55.5	7.9	6.48e-02	0	42	0	41943040	66	9088
2026-01-19 00:01:18.32	14.17	9.80	-47.1	-54.3	9.1	4.94e-02	0	42	0	42991616	66	7933
2026-01-19 00:01:19.46	14.15	9.89	-46.7	-52.7	10.8	5.95e-03	0	42	0	45088768	65	6986
2026-01-19 00:01:20.31	14.14	9.97	-46.3	-51.7	11.8	1.05e-03	0	42	0	47185920	64	6637
2026-01-19 00:01:21.45	14.13	10.07	-45.9	-50.5	13.1	5.49e-05	0	42	0	49283072	63	6100
2026-01-19 00:01:22.30	14.11	10.14	-45.5	-49.9	13.8	5.30e-06	0	42	0	50331648	63	5668
2026-01-19 00:01:23.44	14.10	10.24	-45.4	-49.6	14.1	1.50e-06	0	42	0	52428800	62	5838
2026-01-19 00:01:24.29	14.09	10.31	-45.3	-49.6	14.1	1.50e-06	0	42	0	54525952	62	5814
2026-01-19 00:01:25.42	14.07	10.41	-45.2	-49.4	14.4	7.00e-07	0	42	0	56623104	62	5673
2026-01-19 00:01:26.28	14.06	10.49	-45.2	-49.3	14.4	7.00e-07	0	42	0	57671680	62	5614
2026-01-19 00:01:27.43	14.04	10.59	-45.3	-49.5	14.2	3.00e-06	0	43	0	59768832	62	5767
2026-01-19 00:01:28.28	14.03	10.66	-44.9	-48.8	14.9	7.00e-07	0	42	0	61865984	61	5595
2026-01-19 00:01:29.48	14.01	10.77	-44.7	-48.4	15.2	0.00e+00	0	42	0	63963136	61	5385
2026-01-19 00:01:30.33	14.00	10.85	-44.5	-48.1	15.6	0.00e+00	0	42	0	66060288	60	5498
2026-01-19 00:01:31.53	13.98	10.95	-44.4	-47.8	15.9	0.00e+00	0	42	0	68157440	60	5319
2026-01-19 00:01:32.39	13.96	11.03	-44.4	-47.9	15.9	0.00e+00	0	42	0	69206016	60	5353
2026-01-19 00:01:33.52	13.95	11.13	-44.3	-47.7	16.0	0.00e+00	0	42	0	71303168	60	5253
2026-01-19 00:01:34.38	13.93	11.21	-44.3	-47.7	16.0	0.00e+00	0	42	0	73400320	60	5260
2026-01-19 00:01:35.63	13.91	11.32	-44.2	-47.6	16.1	0.00e+00	0	43	0	75497472	60	5179
2026-01-19 00:01:36.48	13.90	11.40	-44.2	-47.5	16.2	0.00e+00	0	42	0	77594624	60	5121
2026-01-19 00:01:37.62	13.88	11.51	-44.2	-47.5	16.2	0.00e+00	0	42	0	79691776	60	5138
2026-01-19 00:01:38.47	13.87	11.58	-44.0	-47.2	16.5	0.00e+00	0	43	0	80740352	60	4963
2026-01-19 00:01:39.61	13.85	11.69	-44.1	-47.3	16.4	0.00e+00	0	42	0	82837504	59	5291
2026-01-19 00:01:40.47	13.84	11.77	-44.0	-47.2	16.5	0.00e+00	0	42	0	84934656	59	5259
2026-01-19 00:01:41.60	13.82	11.87	-44.0	-47.2	16.5	0.00e+00	0	42	0	87031808	59	5242
2026-01-19 00:01:42.61	13.80	11.97	-44.0	-47.1	16.5	0.00e+00	0	43	0	89128960	59	5209
2026-01-19 00:01:43.61	13.78	12.06	-44.0	-47.1	16.5	0.00e+00	0	43	0	90177536	59	5209
2026-01-19 00:01:44.60	13.77	12.15	-43.9	-47.1	16.5	0.00e+00	0	43	0	92274688	59	5191
2026-01-19 00:01:45.60	13.75	12.25	-43.9	-47.1	16.6	0.00e+00	0	43	0	94371840	59	5180
2026-01-19 00:01:46.59	13.73	12.34	-43.8	-47.0	16.7	0.00e+00	0	43	0	96468992	59	5127
2026-01-19 00:01:47.59	13.72	12.44	-43.8	-47.0	16.7	0.00e+00	0	42	0	98566144	59	5103
2026-01-19 00:01:48.58	13.70	12.53	-43.8	-47.0	16.7	0.00e+00	0	43	0	99614720	59	5141
2026-01-19 00:01:49.58	13.68	12.63	-43.7	-46.8	16.9	0.00e+00	0	43	0	101711872	59	5022
2026-01-19 00:01:50.57	13.66	12.72	-43.6	-46.7	16.9	0.00e+00	0	42	0	103809024	59	4974
2026-01-19 00:01:51.57	13.64	12.82	-43.6	-46.7	16.9	0.00e+00	0	43	0	105906176	59	4957
2026-01-19 00:01:52.56	13.63	12.92	-43.6	-46.7	17.0	0.00e+00	0	43	0	106954752	59	4942
2026-01-19 00:01:53.56	13.61	13.01	-43.6	-46.7	17.0	0.00e+00	0	42	0	109051904	59	4969
2026-01-19 00:01:54.55	13.59	13.11	-43.6	-46.7	17.0	0.00e+00	0	42	0	111149056	59	4945
2026-01-19 00:01:55.55	13.57	13.21	-43.6	-46.7	17.0	0.00e+00	0	43	0	113246208	59	4935
2026-01-19 00:01:56.54	13.55	13.31	-43.6	-46.8	16.9	0.00e+00	0	42	0	115343360	59	4993
2026-01-19 00:01:57.54	13.54	13.40	-43.5	-46.6	17.1	0.00e+00	0	43	0	116391936	59	4915
2026-01-19 00:01:58.53	13.52	13.50	-43.6	-46.7	17.0	0.00e+00	0	43	0	118489088	59	4950
2026-01-19 00:01:59.53	13.50	13.60	-43.6	-46.8	17.0	0.00e+00	0	43	0	120586240	59	4988
2026-01-19 00:02:00.52	13.48	13.70	-43.6	-46.8	16.9	0.00e+00	0	42	0	122683392	59	5004
2026-01-19 00:02:01.52	13.46	13.80	-43.5	-46.6	17.2	0.00e+00	0	43	0	123731968	58	5176
2026-01-19 00:02:02.51	13.44	13.90	-43.4	-46.5	17.2	0.00e+00	0	43	0	125829120	58	5122
2026-01-19 00:02:03.51	13.42	14.00	-43.5	-46.7	17.0	0.00e+00	0	43	0	127926272	58	5243
2026-01-19 00:02:04.50	13.40	14.10	-43.4	-46.6	17.1	0.00e+00	0	43	0	130023424	58	5172
2026-01-19 00:02:05.50	13.38	14.21	-43.4	-46.5	17.2	0.00e+00	0	43	0	132120576	58	5117
2026-01-19 00:02:06.49	13.36	14.31	-43.4	-46.5	17.2	0.00e+00	0	43	0	133169152	58	5120
2026-01-19 00:02:07.49	13.34	14.41	-43.4	-46.5	17.2	0.00e+00	0	43	0	135266304	58	5105
2026-01-19 00:02:08.48	13.32	14.51	-43.4	-46.5	17.2	0.00e+00	0	42	0	137363456	58	5111
2026-01-19 00:02:09.48	13.30	14.62	-43.3	-46.4	17.3	0.00e+00	0	43	0	139460608	58	5049
2026-01-19 00:02:10.47	13.28	14.72	-43.1	-46.1	17.6	0.00e+00	0	43	0	140509184	58	4913
2026-01-19 00:02:11.47	13.26	14.83	-43.2	-46.2	17.5	0.00e+00	0	43	0	142606336	58	4953
2026-01-19 00:02:12.46	13.24	14.93	-43.1	-46.0	17.7	0.00e+00	0	43	0	144703488	58	4854
2026-01-19 00:02:13.46	13.21	15.04	-43.0	-46.0	17.7	0.00e+00	0	42	0	146800640	58	4844
2026-01-19 00:02:14.46	13.19	15.14	-43.0	-46.0	17.7	0.00e+00	0	43	0	148897792	58	4858
2026-01-19 00:02:15.45	13.17	15.25	-43.1	-46.0	17.6	0.00e+00	0	43	0	149946368	58	4870
2026-01-19 00:02:16.45	13.15	15.35	-43.0	-45.9	17.8	0.00e+00	0	43	0	152043520	57	5078
2026-01-19 00:02:17.44	13.13	15.46	-43.0	-46.0	17.7	0.00e+00	0	42	0	154140672	57	5104
2026-01-19 00:02:18.44	13.11	15.57	-43.0	-45.9	17.8	0.00e+00	0	43	0	156237824	57	5068
2026-01-19 00:02:19.43	13.08	15.68	-42.9	-45.8	17.9	0.00e+00	0	43	0	157286400	57	4987
2026-01-19 00:02:20.43	13.06	15.78	-42.9	-45.7	18.0	0.00e+00	0	43	0	159383552	57	4958
2026-01-19 00:02:21.42	13.04	15.89	-42.8	-45.5	18.1	0.00e+00	0	43	0	161480704	57	4861
2026-01-19 00:02:22.42	13.01	16.00	-42.7	-45.4	18.2	0.00e+00	0	43	0	163577856	57	4812
2026-01-19 00:02:23.41	12.99	16.11	-42.7	-45.5	18.3	0.00e+00	0	43	0	165675008	57	4815
2026-01-19 00:02:24.41	12.97	16.22	-42.7	-45.5	18.2	0.00e+00	0	43	0	166723584	57	4845
2026-01-19 00:02:25.40	12.94	16.33	-42.7	-45.4	18.3	0.00e+00	0	43	0	168820736	57	4770
2026-01-19 00:02:26.48	12.92	16.45	-42.7	-45.4	18.3	0.00e+00	0	43	0	170917888	57	4796
2026-01-19 00:02:27.33	12.90	16.55	-42.6	-45.3	18.4	0.00e+00	0	43	0	173015040	57	4718
2026-01-19 00:02:28.47	12.87	16.68	-42.7	-45.4	18.3	0.00e+00	0	43	0	175112192	57	4790
2026-01-19 00:02:29.32	12.85	16.77	-42.7	-45.4	18.3	0.00e+00	0	43	0	176160768	57	4785
2026-01-19 00:02:30.46	12.82	16.90	-42.8	-45.4	18.2	0.00e+00	0	43	0	178257920	57	4811
2026-01-19 00:02:31.31	12.80	17.00	-42.7	-45.3	18.4	0.00e+00	0	43	0	180355072	57	4738
2026-01-19 00:02:32.45	12.77	17.13	-42.7	-45.3	18.4	0.00e+00	0	43	0	182452224	57	4735
2026-01-19 00:02:33.30	12.75	17.23	-42.6	-45.2	18.4	0.00e+00	0	43	0	183500800	57	4683
2026-01-19 00:02:34.44	12.72	17.36	-42.6	-45.1	18.5	0.00e+00	0	43	0	185597952	57	4642
2026-01-19 00:02:35.29	12.70	17.46	-42.5	-45.1	18.5	0.00e+00	0	43	0	187695104	57	4614
2026-01-19 00:02:36.43	12.67	17.60	-42.6	-45.2	18.5	0.00e+00	0	43	0	189792256	56	4932
2026-01-19 00:02:37.28	12.65	17.70	-42.4	-45.0	18.7	0.00e+00	0	43	0	190840832	56	4822
2026-01-19 00:02:38.42	12.62	17.83	-42.5	-45.1	18.6	0.00e+00	0	43	0	192937984	56	4885
2026-01-19 00:02:39.27	12.59	17.93	-42.7	-45.2	18.5	0.00e+00	0	43	0	195035136	56	4947
2026-01-19 00:02:40.40	12.56	18.07	-42.6	-45.1	18.6	0.00e+00	0	43	0	197132288	56	4905
2026-01-19 00:02:41.26	12.54	18.17	-42.6	-45.1	18.6	0.00e+00	0	43	0	199229440	56	4924
2026-01-19 00:02:42.39	12.51	18.31	-42.6	-45.1	18.6	0.00e+00	0	43	0	200278016	56	4900
2026-01-19 00:02:43.24	12.48	18.41	-42.5	-45.0	18.7	0.00e+00	0	43	0	202375168	56	4826
2026-01-19 00:02:44.38	12.45	18.55	-42.4	-44.9	18.7	0.00e+00	0	43	0	204472320	56	4784
2026-01-19 00:02:45.23	12.43	18.65	-42.3	-44.8	18.9	0.00e+00	0	43	0	206569472	56	4720
2026-01-19 00:02:46.37	12.40	18.79	-42.4	-44.9	18.8	0.00e+00	0	43	0	208666624	56	4796
2026-01-19 00:02:47.22	12.37	18.90	-42.4	-44.9	18.8	0.00e+00	0	43	0	209715200	56	4770
2026-01-19 00:02:48.36	12.34	19.04	-42.4	-44.9	18.8	0.00e+00	0	43	0	211812352	56	4783
2026-01-19 00:02:49.22	12.31	19.15	-42.3	-44.8	18.8	0.00e+00	0	43	0	213909504	56	4718
2026-01-19 00:02:50.35	12.28	19.29	-42.3	-44.8	18.8	0.00e+00	0	43	0	216006656	56	4758
2026-01-19 00:02:51.21	12.25	19.40	-42.4	-45.0	18.7	0.00e+00	0	43	0	217055232	56	4841
2026-01-19 00:02:52.34	12.22	19.54	-42.5	-45.1	18.6	0.00e+00	0	43	0	219152384	56	4894
2026-01-19 00:02:53.20	12.19	19.65	-42.4	-45.0	18.7	0.00e+00	0	43	0	221249536	56	4839
2026-01-19 00:02:54.33	12.16	19.79	-42.6	-45.2	18.5	0.00e+00	0	43	0	223346688	56	4975
2026-01-19 00:02:55.18	12.13	19.90	-42.7	-45.3	18.4	0.00e+00	0	43	0	224395264	56	5023
2026-01-19 00:02:56.42	12.09	20.06	-42.7	-45.3	18.4	0.00e+00	0	43	0	227540992	56	5040
2026-01-19 00:02:57.27	12.07	20.17	-42.8	-45.4	18.4	0.00e+00	0	43	0	228589568	56	5055
2026-01-19 00:02:58.47	12.03	20.33	-42.8	-45.4	18.3	0.00e+00	0	43	0	230686720	56	5065
2026-01-19 00:02:59.32	12.00	20.44	-42.7	-45.3	18.4	0.00e+00	0	43	0	232783872	56	5033
2026-01-19 00:03:00.52	11.96	20.60	-42.9	-45.6	18.2	0.00e+00	0	43	0	234881024	56	5174
2026-01-19 00:03:01.37	11.93	20.71	-42.8	-45.4	18.3	0.00e+00	0	43	0	235929600	56	5085
2026-01-19 00:03:02.57	11.89	20.87	-42.9	-45.5	18.2	0.00e+00	0	43	0	239075328	56	5158
2026-01-19 00:03:03.42	11.87	20.99	-43.0	-45.6	18.2	0.00e+00	0	43	0	240123904	56	5201
2026-01-19 00:03:04.64	11.82	21.15	-42.9	-45.5	18.3	0.00e+00	0	43	0	242221056	56	5105
2026-01-19 00:03:05.49	11.79	21.27	-42.9	-45.4	18.4	0.00e+00	0	43	0	244318208	56	5049
2026-01-19 00:03:06.63	11.76	21.42	-42.8	-45.2	18.5	0.00e+00	0	43	0	246415360	56	4976
2026-01-19 00:03:07.48	11.73	21.54	-43.0	-45.5	18.3	0.00e+00	0	43	0	247463936	56	5116
2026-01-19 00:03:08.62	11.69	21.70	-42.9	-45.4	18.4	0.00e+00	0	43	0	249561088	56	5044
2026-01-19 00:03:09.47	11.65	21.81	-42.8	-45.2	18.5	0.00e+00	0	43	0	251658240	56	4949
2026-01-19 00:03:10.61	11.61	21.97	-43.0	-45.4	18.4	0.00e+00	0	43	0	253755392	56	5086
2026-01-19 00:03:11.46	11.58	22.09	-43.0	-45.5	18.3	0.00e+00	0	43	0	255852544	56	5118
2026-01-19 00:03:12.60	11.54	22.25	-42.9	-45.3	18.5	0.00e+00	0	43	0	257949696	56	4991
2026-01-19 00:03:13.62	11.50	22.40	-43.0	-45.4	18.4	0.00e+00	0	43	0	258998272	56	5065
2026-01-19 00:03:14.78	11.46	22.56	-42.8	-45.2	18.5	0.00e+00	0	43	0	261095424	56	4978
2026-01-19 00:03:15.63	11.43	22.69	-42.8	-45.2	18.6	0.00e+00	0	43	0	263192576	56	4929
2026-01-19 00:03:16.99	11.38	22.88	-42.7	-45.1	18.7	0.00e+00	0	43	0	265289728	56	4882
2026-01-19 00:03:17.70	11.35	22.98	-42.7	-45.1	18.7	0.00e+00	0	43	0	267386880	56	4877
2026-01-19 00:03:18.98	11.30	23.17	-42.6	-44.9	18.8	0.00e+00	0	43	0	269484032	56	4782
2026-01-19 00:03:19.69	11.27	23.27	-42.4	-44.6	19.1	0.00e+00	0	43	0	270532608	56	4644
2026-01-19 00:03:21.24	11.21	23.50	-42.2	-44.5	19.2	0.00e+00	0	43	0	273678336	56	4549
2026-01-19 00:03:21.95	11.18	23.61	-42.1	-44.3	19.4	0.00e+00	0	43	0	274726912	56	4448
2026-01-19 00:03:23.23	11.13	23.80	-41.7	-43.9	19.6	0.00e+00	0	43	0	277872640	55	4510
2026-01-19 00:03:23.97	11.10	23.91	-41.9	-44.1	19.4	0.00e+00	0	43	0	278921216	55	4612
2026-01-19 00:03:25.25	11.04	24.10	-41.5	-43.6	19.8	0.00e+00	0	43	0	281018368	55	4368
2026-01-19 00:03:25.96	11.01	24.21	-41.6	-43.8	19.7	0.00e+00	0	43	0	282066944	55	4462
2026-01-19 00:03:27.24	10.96	24.41	-41.7	-43.9	19.6	0.00e+00	0	43	0	285212672	55	4508
2026-01-19 00:03:27.95	10.93	24.52	-41.6	-43.7	19.8	0.00e+00	0	43	0	286261248	55	4418
2026-01-19 00:03:29.23	10.87	24.72	-41.8	-44.0	19.5	0.00e+00	0	43	0	288358400	55	4560
2026-01-19 00:03:29.98	10.84	24.83	-41.9	-44.1	19.4	0.00e+00	0	43	0	290455552	55	4627
2026-01-19 00:03:31.26	10.78	25.03	-41.9	-44.2	19.4	0.00e+00	0	43	0	292552704	55	4658
2026-01-19 00:03:32.08	10.74	25.16	-41.9	-44.1	19.4	0.00e+00	0	43	0	293601280	55	4648
2026-01-19 00:03:33.52	10.68	25.39	-42.1	-44.4	19.2	0.00e+00	0	43	0	296747008	55	4770
2026-01-19 00:03:34.23	10.65	25.50	-42.1	-44.3	19.2	0.00e+00	0	43	0	297795584	55	4754
2026-01-19 00:03:35.50	10.59	25.71	-42.2	-44.5	19.0	0.00e+00	0	43	0	300941312	55	4843
2026-01-19 00:03:36.23	10.55	25.82	-41.7	-43.9	19.6	0.00e+00	0	43	0	301989888	55	4533
2026-01-19 00:03:37.51	10.49	26.03	-41.9	-44.1	19.5	0.00e+00	0	43	0	304087040	55	4625
2026-01-19 00:03:38.23	10.46	26.15	-41.8	-44.1	19.4	0.00e+00	0	43	0	305135616	55	4607
2026-01-19 00:03:39.51	10.40	26.36	-41.8	-44.0	19.5	0.00e+00	0	43	0	308281344	55	4589
2026-01-19 00:03:40.22	10.36	26.48	-41.9	-44.1	19.4	0.00e+00	0	43	0	309329920	55	4648
2026-01-19 00:03:41.50	10.30	26.69	-41.9	-44.1	19.5	0.00e+00	0	43	0	311427072	55	4625
2026-01-19 00:03:42.23	10.26	26.81	-42.0	-44.3	19.3	0.00e+00	0	43	0	313524224	55	4714
2026-01-19 00:03:43.51	10.19	27.03	-42.5	-44.8	18.8	0.00e+00	0	43	0	315621376	55	5038
2026-01-19 00:03:44.22	10.16	27.15	-42.4	-44.7	18.9	0.00e+00	0	43	0	316669952	55	4943
2026-01-19 00:03:45.50	10.09	27.36	-42.9	-45.4	18.6	0.00e+00	0	43	0	318767104	56	5046
2026-01-19 00:03:46.23	10.05	27.49	-43.0	-45.4	18.3	0.00e+00	0	43	0	320864256	56	5065
2026-01-19 00:03:47.51	9.98	27.71	-43.2	-45.7	18.2	0.00e+00	0	43	0	322961408	57	4951
2026-01-19 00:03:48.23	9.95	27.83	-43.2	-45.7	18.1	0.00e+00	0	43	0	324009984	57	4974
2026-01-19 00:03:49.51	9.88	28.06	-43.0	-45.5	18.4	0.00e+00	0	43	0	327155712	57	4836
2026-01-19 00:03:50.22	9.84	28.18	-43.1	-45.6	18.2	0.00e+00	0	43	0	328204288	57	4914
2026-01-19 00:03:51.66	9.76	28.44	-43.1	-45.6	18.3	0.00e+00	0	43	0	330301440	57	4872
2026-01-19 00:03:52.37	9.72	28.56	-43.2	-45.7	18.1	0.00e+00	0	43	0	332398592	57	4976
2026-01-19 00:03:53.65	9.64	28.79	-43.1	-45.7	18.2	0.00e+00	0	43	0	334495744	57	4938
2026-01-19 00:03:54.38	9.60	28.92	-42.9	-45.4	18.4	0.00e+00	0	43	0	335544320	57	4769
2026-01-19 00:03:55.66	9.52	29.16	-43.3	-45.9	17.9	0.00e+00	0	43	0	338690048	57	5092
2026-01-19 00:03:56.76	9.46	29.36	-43.4	-46.0	17.9	0.00e+00	0	43	0	340787200	57	5156
2026-01-19 00:03:57.62	9.41	29.51	-43.7	-46.4	17.5	0.00e+00	0	43	0	341835776	58	5090
2026-01-19 00:03:58.76	9.34	29.73	-44.0	-46.8	17.2	0.00e+00	0	43	0	343932928	58	5308
2026-01-19 00:03:59.61	9.29	29.88	-43.9	-46.6	17.3	0.00e+00	0	43	0	346030080	59	4899
2026-01-19 00:04:00.74	9.21	30.10	-44.4	-47.3	16.7	0.00e+00	0	43	0	348127232	59	5289
2026-01-19 00:04:01.60	9.16	30.26	-44.5	-47.4	16.5	0.00e+00	0	43	0	349175808	59	5392
2026-01-19 00:04:02.88	9.08	30.50	-44.2	-47.0	16.9	0.00e+00	0	43	0	351272960	59	5142
2026-01-19 00:04:03.59	9.03	30.64	-44.4	-47.2	16.8	0.00e+00	0	43	0	353370112	59	5227
2026-01-19 00:04:04.87	8.95	30.88	-44.2	-46.9	17.0	0.00e+00	0	43	0	355467264	59	5066
2026-01-19 00:04:05.61	8.90	31.02	-44.3	-47.1	16.9	0.00e+00	0	43	0	356515840	59	5166
2026-01-19 00:04:07.14	8.80	31.32	-44.3	-47.0	17.0	0.00e+00	0	43	0	359661568	59	5123
2026-01-19 00:04:07.85	8.75	31.46	-44.4	-47.2	16.8	0.00e+00	0	43	0	360710144	59	5225
2026-01-19 00:04:09.13	8.66	31.72	-44.7	-47.6	16.4	0.00e+00	0	43	0	363855872	60	5212
2026-01-19 00:04:10.19	8.58	31.93	-44.8	-47.8	16.2	0.00e+00	0	43	0	364904448	60	5296
2026-01-19 00:04:11.37	8.50	32.16	-45.2	-48.3	15.8	0.00e+00	0	43	0	368050176	61	5301
2026-01-19 00:04:12.22	8.44	32.33	-45.1	-48.2	15.9	0.00e+00	0	43	0	369098752	61	5240
2026-01-19 00:04:13.68	8.33	32.63	-45.1	-48.2	15.9	0.00e+00	0	43	0	372244480	61	5257
2026-01-19 00:04:14.39	8.28	32.78	-45.1	-48.2	15.8	0.00e+00	0	43	0	373293056	61	5272
2026-01-19 00:04:15.67	8.18	33.04	-45.1	-48.3	15.8	0.00e+00	0	43	0	375390208	61	5334
2026-01-19 00:04:16.40	8.13	33.19	-45.1	-48.3	15.8	0.00e+00	0	43	0	377487360	61	5280
2026-01-19 00:04:17.67	8.03	33.46	-45.1	-48.3	15.8	0.00e+00	0	43	0	379584512	61	5318
2026-01-19 00:04:18.39	7.97	33.61	-45.3	-48.6	15.5	0.00e+00	0	43	0	380633088	61	5482
2026-01-19 00:04:19.66	7.87	33.88	-45.4	-48.8	15.3	0.00e+00	0	43	0	382730240	62	5327
2026-01-19 00:04:20.50	7.80	34.06	-45.5	-49.1	14.9	0.00e+00	0	43	0	384827392	62	5508
2026-01-19 00:04:21.64	7.71	34.30	-45.7	-49.4	14.8	0.00e+00	0	43	0	386924544	62	5686
2026-01-19 00:04:22.49	7.64	34.48	-45.6	-49.2	14.9	1.50e-06	0	43	0	387973120	62	5577
2026-01-19 00:04:23.63	7.54	34.73	-45.5	-49.2	15.0	1.50e-06	0	43	0	391118848	62	5535
2026-01-19 00:04:24.48	7.47	34.92	-45.3	-48.8	15.4	0.00e+00	0	43	0	392167424	62	5293
2026-01-19 00:04:25.62	7.37	35.17	-44.7	-47.9	16.2	0.00e+00	0	43	0	394264576	61	5051
2026-01-19 00:04:26.47	7.30	35.36	-44.4	-47.5	16.6	0.00e+00	0	43	0	396361728	60	5102
2026-01-19 00:04:27.61	7.19	35.61	-44.1	-47.0	17.0	0.00e+00	0	43	0	398458880	60	4844
2026-01-19 00:04:28.46	7.12	35.80	-44.0	-46.8	17.2	0.00e+00	0	43	0	399507456	60	4719
2026-01-19 00:04:29.60	7.01	36.06	-44.2	-47.0	17.0	0.00e+00	0	43	0	401604608	59	5144
2026-01-19 00:04:30.45	6.93	36.25	-44.4	-47.2	16.8	0.00e+00	0	43	0	403701760	59	5272
2026-01-19 00:04:31.59	6.83	36.52	-44.6	-47.5	16.5	0.00e+00	0	43	0	405798912	59	5432
2026-01-19 00:04:32.45	6.74	36.71	-44.6	-47.6	16.5	0.00e+00	0	43	0	406847488	60	5184
2026-01-19 00:04:33.58	6.63	36.98	-44.7	-47.7	16.4	0.00e+00	0	43	0	408944640	60	5226
2026-01-19 00:04:34.59	6.53	37.21	-44.2	-47.0	17.1	0.00e+00	0	43	0	411041792	60	4843
2026-01-19 00:04:35.76	6.42	37.49	-44.0	-46.6	17.4	0.00e+00	0	43	0	413138944	59	4903
2026-01-19 00:04:36.61	6.33	37.69	-43.5	-45.9	18.0	0.00e+00	0	43	0	415236096	58	4814
2026-01-19 00:04:37.97	6.19	38.01	-43.5	-45.9	18.0	0.00e+00	0	43	0	417333248	58	4808
2026-01-19 00:04:38.68	6.11	38.19	-43.3	-45.8	18.2	0.00e+00	0	43	0	418381824	58	4722
2026-01-19 00:04:40.16	5.96	38.54	-43.6	-46.1	17.8	0.00e+00	0	43	0	421527552	58	4891
2026-01-19 00:04:40.87	5.88	38.72	-43.8	-46.4	17.6	0.00e+00	0	43	0	422576128	58	5074
2026-01-19 00:04:42.22	5.73	39.05	-44.4	-47.2	16.8	0.00e+00	0	43	0	425721856	59	5243
2026-01-19 00:04:42.93	5.65	39.23	-44.5	-47.4	16.7	0.00e+00	0	43	0	426770432	60	5090
2026-01-19 00:04:44.21	5.50	39.54	-45.2	-48.5	15.6	0.00e+00	0	43	0	428867584	61	5406
2026-01-19 00:04:44.92	5.42	39.72	-45.2	-48.5	15.6	0.00e+00	0	43	0	430964736	61	5406
2026-01-19 00:04:46.20	5.27	40.05	-45.3	-48.8	15.4	0.00e+00	0	43	0	433061888	62	5298
2026-01-19 00:04:46.93	5.18	40.23	-45.3	-48.7	15.4	0.00e+00	0	43	0	434110464	62	5246
2026-01-19 00:04:48.21	5.03	40.56	-45.3	-48.6	15.5	0.00e+00	0	43	0	437256192	62	5186
2026-01-19 00:04:48.94	4.94	40.75	-45.0	-48.1	16.0	0.00e+00	0	43	0	438304768	62	4907
2026-01-19 00:04:50.22	4.78	41.08	-44.8	-47.9	16.2	0.00e+00	0	43	0	440401920	61	5055
2026-01-19 00:04:50.94	4.68	41.27	-44.7	-47.7	16.3	0.00e+00	0	43	0	441450496	61	4961
2026-01-19 00:04:52.21	4.52	41.60	-44.7	-47.6	16.4	0.00e+00	0	43	0	444596224	61	4917
2026-01-19 00:04:52.93	4.42	41.79	-44.7	-47.6	16.4	0.00e+00	0	43	0	445644800	61	4879
2026-01-19 00:04:54.20	4.25	42.13	-44.7	-47.7	16.4	0.00e+00	0	43	0	447741952	61	4946
2026-01-19 00:04:55.10	4.13	42.37	-45.0	-48.0	16.1	0.00e+00	0	43	0	449839104	61	5153
2026-01-19 00:04:56.11	3.99	42.64	-45.0	-48.0	16.1	0.00e+00	0	43	0	451936256	61	5136
2026-01-19 00:04:57.11	3.85	42.92	-45.1	-48.2	15.9	0.00e+00	0	43	0	452984832	61	5261
2026-01-19 00:04:58.10	3.70	43.19	-45.3	-48.6	15.7	0.00e+00	0	43	0	455081984	61	5482
2026-01-19 00:04:59.10	3.56	43.46	-45.2	-48.4	15.7	0.00e+00	0	43	0	457179136	61	5398
2026-01-19 00:05:00.09	3.41	43.74	-45.3	-48.7	15.4	0.00e+00	0	43	0	459276288	61	5571
2026-01-19 00:05:01.55	3.19	44.14	-45.7	-49.4	14.8	7.00e-07	0	43	0	461373440	62	5714
2026-01-19 00:05:02.26	3.08	44.34	-45.5	-49.0	15.2	0.00e+00	0	43	0	463470592	62	5414
2026-01-19 00:05:03.54	2.87	44.70	-45.0	-48.2	15.8	0.00e+00	0	43	0	465567744	62	4943
2026-01-19 00:05:04.25	2.76	44.91	-44.9	-48.1	16.0	0.00e+00	0	43	0	466616320	61	5178
2026-01-19 00:05:05.53	2.55	45.27	-44.5	-47.3	16.8	0.00e+00	0	43	0	468713472	60	5036
2026-01-19 00:05:06.24	2.43	45.48	-43.9	-46.5	17.5	0.00e+00	0	43	0	470810624	59	4849
2026-01-19 00:05:07.52	2.21	45.85	-43.9	-46.5	17.5	0.00e+00	0	43	0	472907776	58	5153
2026-01-19 00:05:08.25	2.09	46.06	-43.9	-46.6	17.5	0.00e+00	0	43	0	473956352	58	5162
2026-01-19 00:05:09.52	1.86	46.44	-44.7	-47.7	16.5	0.00e+00	0	43	0	477102080	60	5227
2026-01-19 00:05:10.23	1.73	46.64	-45.2	-48.3	15.8	0.00e+00	0	43	0	478150656	60	5636
2026-01-19 00:05:11.65	1.47	47.07	-45.5	-48.8	15.3	0.00e+00	0	43	0	480247808	61	5633
2026-01-19 00:05:12.37	1.34	47.28	-45.6	-48.9	15.3	0.00e+00	0	43	0	482344960	61	5698
2026-01-19 00:05:13.65	1.09	47.67	-44.8	-47.7	16.3	0.00e+00	0	43	0	484442112	61	4981
2026-01-19 00:05:14.36	0.95	47.88	-44.5	-47.3	16.7	0.00e+00	0	43	0	485490688	60	5030
2026-01-19 00:05:15.76	0.67	48.31	-44.1	-46.7	17.3	0.00e+00	0	43	0	488636416	59	4981
2026-01-19 00:05:16.47	0.53	48.53	-43.9	-46.5	17.6	0.00e+00	0	43	0	489684992	59	4867
2026-01-19 00:05:17.75	0.26	48.92	-43.4	-45.9	18.1	0.00e+00	0	43	0	491782144	58	4763
2026-01-19 00:05:18.48	0.11	49.15	-43.4	-45.8	18.2	0.00e+00	0	43	0	493879296	58	4732
2026-01-19 00:05:19.76	359.83	49.55	-42.9	-45.3	18.7	0.00e+00	0	43	0	495976448	57	4712
2026-01-19 00:05:20.47	359.67	49.77	-43.0	-45.4	18.6	0.00e+00	0	43	0	497025024	57	4778
2026-01-19 00:05:21.74	359.38	50.17	-42.6	-44.9	19.0	0.00e+00	0	43	0	500170752	56	4780
2026-01-19 00:05:22.47	359.22	50.40	-42.5	-44.8	19.1	0.00e+00	0	43	0	501219328	56	4718
2026-01-19 00:05:23.75	358.91	50.81	-43.2	-45.6	18.4	0.00e+00	0	43	0	503316480	57	4879
2026-01-19 00:05:24.49	358.74	51.05	-43.1	-45.4	18.4	0.00e+00	0	43	0	504365056	57	4806
2026-01-19 00:05:25.77	358.42	51.46	-42.6	-44.9	19.0	0.00e+00	0	43	0	507510784	57	4509
2026-01-19 00:05:26.50	358.24	51.69	-42.6	-44.8	19.0	0.00e+00	0	43	0	508559360	57	4492
2026-01-19 00:05:27.77	357.91	52.11	-43.1	-45.5	18.4	0.00e+00	0	43	0	510656512	56	5109
2026-01-19 00:05:28.48	357.72	52.34	-43.3	-45.8	18.1	0.00e+00	0	43	0	512753664	57	5029
2026-01-19 00:05:29.76	357.38	52.76	-44.0	-46.7	17.4	0.00e+00	0	43	0	514850816	59	4944
2026-01-19 00:05:30.47	357.18	52.99	-44.0	-46.7	17.4	0.00e+00	0	43	0	515899392	59	4939
2026-01-19 00:05:31.75	356.82	53.42	-43.4	-45.8	18.1	0.00e+00	0	43	0	517996544	58	4736
2026-01-19 00:05:32.46	356.62	53.65	-42.9	-45.2	18.7	0.00e+00	0	43	0	520093696	57	4692
2026-01-19 00:05:33.76	356.23	54.09	-43.1	-45.4	18.5	0.00e+00	0	43	0	522190848	56	5097
2026-01-19 00:05:34.47	356.02	54.33	-43.2	-45.7	18.2	0.00e+00	0	43	0	523239424	57	4939
2026-01-19 00:05:35.75	355.62	54.76	-43.5	-46.0	17.9	0.00e+00	0	43	0	526385152	58	4824
2026-01-19 00:05:36.47	355.40	55.00	-44.0	-46.6	17.4	0.00e+00	0	43	0	527433728	58	5215
2026-01-19 00:05:37.75	354.98	55.44	-43.7	-46.3	17.7	0.00e+00	0	43	0	529530880	58	5002
2026-01-19 00:05:38.47	354.74	55.68	-43.3	-45.8	18.1	0.00e+00	0	43	0	530579456	58	4749
2026-01-19 00:05:39.74	354.31	56.12	-42.2	-44.4	19.4	0.00e+00	0	43	0	533725184	56	4516
2026-01-19 00:05:40.46	354.06	56.36	-41.7	-43.8	19.8	0.00e+00	0	43	0	534773760	55	4481
2026-01-19 00:05:41.74	353.60	56.80	-41.3	-43.4	20.2	0.00e+00	0	43	0	536870912	54	4532
2026-01-19 00:05:42.48	353.32	57.06	-41.6	-43.8	19.9	0.00e+00	0	43	0	538968064	54	4730
2026-01-19 00:05:43.76	352.84	57.50	-42.3	-44.5	19.2	0.00e+00	0	43	0	541065216	55	4848
2026-01-19 00:05:44.47	352.57	57.75	-42.9	-45.3	18.7	0.00e+00	0	43	0	542113792	56	5000
2026-01-19 00:05:45.75	352.06	58.19	-42.6	-45.0	19.0	0.00e+00	0	43	0	544210944	56	4816
2026-01-19 00:05:46.57	351.72	58.48	-42.6	-44.9	19.0	0.00e+00	0	43	0	546308096	56	4794
2026-01-19 00:05:47.71	351.25	58.88	-43.0	-45.5	18.4	0.00e+00	0	43	0	548405248	57	4857
2026-01-19 00:05:48.57	350.88	59.18	-43.7	-46.3	17.7	0.00e+00	0	43	0	549453824	57	5314
2026-01-19 00:05:49.70	350.38	59.57	-44.3	-47.1	16.9	0.00e+00	0	43	0	552599552	59	5164
2026-01-19 00:05:50.56	349.99	59.87	-44.8	-47.8	16.3	0.00e+00	0	43	0	553648128	60	5309
2026-01-19 00:05:51.69	349.46	60.27	-44.5	-47.4	16.7	0.00e+00	0	43	0	555745280	60	5095
2026-01-19 00:05:52.54	349.05	60.57	-44.5	-47.5	16.6	0.00e+00	0	43	0	557842432	60	5150
2026-01-19 00:05:53.68	348.49	60.97	-44.2	-47.0	17.1	0.00e+00	0	43	0	559939584	60	4868
2026-01-19 00:05:54.53	348.06	61.27	-44.1	-46.9	17.1	0.00e+00	0	43	0	560988160	59	5054
2026-01-19 00:05:55.67	347.46	61.67	-43.7	-46.3	17.6	0.00e+00	0	43	0	563085312	59	4714
2026-01-19 00:05:56.54	347.00	61.97	-43.3	-45.8	18.2	0.00e+00	0	43	0	565182464	58	4722
2026-01-19 00:05:57.67	346.37	62.37	-42.1	-44.3	19.5	0.00e+00	0	43	0	567279616	56	4461
2026-01-19 00:05:58.53	345.88	62.67	-41.4	-43.5	20.1	0.00e+00	0	43	0	568328192	54	4576
2026-01-19 00:05:59.66	345.22	63.06	-41.4	-43.5	20.1	0.00e+00	0	43	0	570425344	54	4572
2026-01-19 00:06:00.52	344.70	63.36	-42.3	-44.6	19.2	0.00e+00	0	43	0	572522496	55	4903
2026-01-19 00:06:01.65	344.00	63.76	-43.2	-45.7	18.3	0.00e+00	0	43	0	574619648	57	4947
2026-01-19 00:06:02.50	343.46	64.05	-42.3	-44.6	19.3	0.00e+00	0	43	0	575668224	56	4602
2026-01-19 00:06:03.64	342.71	64.44	-41.7	-43.9	19.8	0.00e+00	0	43	0	577765376	55	4498
2026-01-19 00:06:04.50	342.12	64.74	-42.0	-44.2	19.5	0.00e+00	0	43	0	579862528	55	4680
2026-01-19 00:06:05.63	341.33	65.12	-42.9	-45.3	18.6	0.00e+00	0	43	0	581959680	56	5034
2026-01-19 00:06:06.82	340.47	65.53	-43.6	-46.3	17.6	0.00e+00	0	43	0	584056832	57	5323
2026-01-19 00:06:07.84	339.70	65.87	-43.6	-46.3	17.7	0.00e+00	0	43	0	586153984	58	4995
2026-01-19 00:06:09.01	338.80	66.26	-43.9	-46.6	17.5	0.00e+00	0	43	0	588251136	58	5171
2026-01-19 00:06:09.87	338.11	66.55	-43.2	-45.6	18.4	0.00e+00	0	43	0	590348288	58	4628
2026-01-19 00:06:11.00	337.18	66.92	-43.1	-45.4	18.5	0.00e+00	0	43	0	592445440	57	4813
2026-01-19 00:06:11.86	336.44	67.20	-43.3	-45.7	18.2	0.00e+00	0	43	0	593494016	57	4977
2026-01-19 00:06:12.99	335.45	67.56	-43.7	-46.2	17.9	0.00e+00	0	43	0	595591168	58	4968
2026-01-19 00:06:13.85	334.67	67.83	-43.9	-46.4	17.6	0.00e+00	0	43	0	597688320	58	5071
2026-01-19 00:06:14.99	333.60	68.19	-44.1	-46.7	17.3	0.00e+00	0	43	0	599785472	59	4966
2026-01-19 00:06:15.84	332.79	68.45	-44.8	-47.7	16.3	0.00e+00	0	43	0	600834048	60	5264
2026-01-19 00:06:16.97	331.66	68.80	-46.5	-50.4	13.8	0.00e+00	0	43	0	602931200	63	5993
2026-01-19 00:06:17.83	330.78	69.05	-46.5	-50.4	13.4	1.22e-05	0	43	0	605028352	64	5695
2026-01-19 00:06:18.96	329.59	69.38	-46.1	-49.6	14.6	3.00e-06	0	43	0	607125504	63	5490
2026-01-19 00:06:19.82	328.65	69.63	-46.4	-50.1	14.2	0.00e+00	0	43	0	608174080	63	5798
2026-01-19 00:06:20.99	327.33	69.96	-46.9	-51.1	13.0	1.43e-04	0	43	0	610271232	65	5853
2026-01-19 00:06:21.84	326.35	70.20	-46.8	-50.9	13.2	1.43e-04	0	43	0	612368384	65	5700
2026-01-19 00:06:22.98	324.99	70.50	-45.6	-48.9	15.4	1.50e-06	0	43	0	614465536	63	5093
2026-01-19 00:06:23.83	323.95	70.72	-44.8	-47.7	16.4	0.00e+00	0	43	0	615514112	61	4971
2026-01-19 00:06:24.96	322.52	71.01	-44.1	-46.7	17.4	0.00e+00	0	43	0	618659840	59	4950
2026-01-19 00:06:25.81	321.42	71.22	-44.2	-46.9	17.1	0.00e+00	0	43	0	619708416	59	5099
2026-01-19 00:06:26.95	319.90	71.48	-44.4	-47.1	17.1	0.00e+00	0	43	0	621805568	60	4886
2026-01-19 00:06:27.80	318.74	71.68	-44.4	-47.1	17.1	0.00e+00	0	43	0	623902720	60	4886
2026-01-19 00:06:28.94	317.14	71.92	-44.5	-47.3	16.7	0.00e+00	0	43	0	625999872	60	5010
2026-01-19 00:06:29.79	315.92	72.10	-44.7	-47.6	16.5	0.00e+00	0	43	0	627048448	60	5175
2026-01-19 00:06:30.93	314.24	72.32	-44.3	-47.0	17.2	0.00e+00	0	43	0	629145600	60	4828
2026-01-19 00:06:31.78	312.95	72.48	-44.1	-46.8	17.4	0.00e+00	0	43	0	631242752	60	4706
2026-01-19 00:06:32.92	311.20	72.68	-43.9	-46.5	17.6	0.00e+00	0	43	0	633339904	59	4816
2026-01-19 00:06:33.77	309.86	72.82	-43.7	-46.3	17.8	0.00e+00	0	43	0	634388480	59	4719
2026-01-19 00:06:34.97	307.94	72.99	-45.7	-49.2	15.0	0.00e+00	0	43	0	636485632	62	5533
2026-01-19 00:06:35.82	306.55	73.11	-45.7	-49.1	15.1	0.00e+00	0	43	0	638582784	62	5493
2026-01-19 00:06:36.99	304.61	73.25	-45.6	-48.9	15.3	0.00e+00	0	43	0	640679936	61	5705
2026-01-19 00:06:37.84	303.18	73.35	-45.8	-49.2	15.1	0.00e+00	0	43	0	642777088	62	5570
2026-01-19 00:06:39.03	301.15	73.46	-45.4	-48.5	15.7	0.00e+00	0	43	0	644874240	62	5138
2026-01-19 00:06:39.88	299.68	73.53	-44.5	-47.3	16.9	0.00e+00	0	43	0	645922816	60	5014
2026-01-19 00:06:41.02	297.70	73.60	-45.5	-48.8	15.4	0.00e+00	0	43	0	648019968	61	5598
2026-01-19 00:06:41.87	296.21	73.65	-46.4	-50.2	13.9	3.80e-06	0	43	0	650117120	63	5870
2026-01-19 00:06:43.14	293.97	73.69	-45.7	-49.0	15.1	8.30e-06	0	43	0	652214272	63	5106
2026-01-19 00:06:43.93	292.57	73.71	-45.6	-49.0	15.1	0.00e+00	0	43	0	653262848	63	5114
2026-01-19 00:06:45.13	290.44	73.72	-46.2	-49.9	14.3	7.00e-07	0	43	0	656408576	63	5700
2026-01-19 00:06:45.98	288.93	73.71	-46.5	-50.4	13.7	2.36e-05	0	43	0	657457152	64	5704
2026-01-19 00:06:47.12	286.91	73.68	-45.3	-48.4	15.9	0.00e+00	0	43	0	659554304	62	5095
2026-01-19 00:06:47.97	285.41	73.65	-45.3	-48.4	15.7	0.00e+00	0	43	0	661651456	62	5092
2026-01-19 00:06:49.11	283.41	73.58	-44.4	-47.1	17.0	0.00e+00	0	43	0	663748608	60	4899
2026-01-19 00:06:49.97	281.92	73.53	-44.1	-46.8	17.3	0.00e+00	0	43	0	664797184	59	4985
2026-01-19 00:06:51.10	279.97	73.43	-43.9	-46.6	17.5	0.00e+00	0	43	0	666894336	59	4896
2026-01-19 00:06:51.95	278.52	73.35	-43.0	-45.4	18.6	0.00e+00	0	43	0	668991488	58	4523
2026-01-19 00:06:53.09	276.61	73.22	-43.0	-45.4	18.6	0.00e+00	0	43	0	671088640	57	4782
2026-01-19 00:06:53.94	275.20	73.12	-43.7	-46.3	17.8	0.00e+00	0	43	0	672137216	58	5011
2026-01-19 00:06:55.08	273.34	72.96	-43.8	-46.4	17.8	0.00e+00	0	43	0	674234368	58	5080
2026-01-19 00:06:55.93	271.98	72.83	-43.7	-46.3	17.7	0.00e+00	0	43	0	676331520	58	5011
2026-01-19 00:06:57.07	270.19	72.65	-43.2	-45.5	18.4	0.00e+00	0	43	0	678428672	58	4591
2026-01-19 00:06:57.92	268.88	72.50	-42.9	-45.2	18.9	0.00e+00	0	43	0	679477248	57	4665
2026-01-19 00:06:59.06	267.16	72.29	-44.0	-46.7	17.5	0.00e+00	0	43	0	682622976	58	5224
2026-01-19 00:07:00.32	265.31	72.04	-44.1	-46.7	17.4	0.00e+00	0	43	0	684720128	59	4934
2026-01-19 00:07:01.12	264.17	71.87	-45.0	-48.0	16.2	0.00e+00	0	43	0	685768704	60	5431
2026-01-19 00:07:02.26	262.57	71.62	-45.6	-48.8	15.5	0.00e+00	0	43	0	687865856	61	5593
2026-01-19 00:07:03.12	261.40	71.43	-45.7	-49.1	15.1	0.00e+00	0	43	0	689963008	62	5468
2026-01-19 00:07:04.25	259.91	71.16	-46.5	-50.5	13.5	4.50e-06	0	43	0	692060160	64	5781
2026-01-19 00:07:05.10	258.81	70.95	-46.7	-50.9	13.1	3.96e-05	0	43	0	693108736	64	6046
2026-01-19 00:07:06.24	257.38	70.66	-46.4	-50.4	13.8	1.44e-05	0	43	0	695205888	63	6040
2026-01-19 00:07:07.09	256.34	70.43	-46.9	-51.3	12.9	3.35e-05	0	43	0	697303040	64	6339
2026-01-19 00:07:08.28	254.94	70.11	-46.7	-50.8	13.4	5.03e-05	0	43	0	699400192	64	5986
2026-01-19 00:07:09.13	253.96	69.88	-46.0	-49.6	14.4	6.80e-06	0	43	0	700448768	64	5187
2026-01-19 00:07:10.31	252.64	69.54	-46.8	-51.0	13.2	8.30e-06	0	43	0	703594496	64	6113
2026-01-19 00:07:11.16	251.73	69.29	-46.5	-50.4	13.7	1.52e-05	0	44	0	704643072	64	5692
2026-01-19 00:07:12.30	250.53	68.96	-45.7	-49.0	15.1	0.00e+00	0	43	0	706740224	63	5145
2026-01-19 00:07:13.15	249.67	68.70	-45.5	-48.8	15.5	0.00e+00	0	43	0	708837376	62	5285
2026-01-19 00:07:14.29	248.54	68.35	-45.3	-48.3	16.0	0.00e+00	0	43	0	710934528	62	5029
2026-01-19 00:07:15.14	247.73	68.09	-43.7	-46.2	17.7	0.00e+00	0	43	0	711983104	59	4658
2026-01-19 00:07:16.28	246.67	67.73	-44.4	-47.1	17.1	0.00e+00	0	43	0	714080256	59	5175
2026-01-19 00:07:17.21	245.84	67.43	-44.9	-47.9	16.3	0.00e+00	0	43	0	716177408	61	5085
2026-01-19 00:07:18.38	244.82	67.05	-44.0	-46.6	17.5	0.00e+00	0	43	0	718274560	60	4619
2026-01-19 00:07:19.23	244.11	66.77	-43.5	-45.9	18.0	0.00e+00	0	43	0	720371712	58	4809
2026-01-19 00:07:20.57	243.02	66.33	-43.7	-46.2	17.8	0.00e+00	0	43	0	722468864	58	4957
2026-01-19 00:07:21.28	242.46	66.09	-42.8	-45.1	18.9	0.00e+00	0	43	0	723517440	57	4609
2026-01-19 00:07:22.77	241.32	65.59	-42.7	-45.0	18.9	0.00e+00	0	43	0	726663168	56	4861
2026-01-19 00:07:23.48	240.80	65.35	-42.4	-44.7	19.2	0.00e+00	0	43	0	727711744	56	4660
2026-01-19 00:07:24.76	239.88	64.92	-41.1	-43.2	20.4	0.00e+00	0	43	0	729808896	54	4395
2026-01-19 00:07:25.48	239.39	64.67	-41.2	-43.3	20.3	0.00e+00	0	43	0	731906048	53	4722
2026-01-19 00:07:26.76	238.52	64.23	-41.7	-43.8	19.9	0.00e+00	0	43	0	734003200	54	4742
2026-01-19 00:07:27.47	238.06	63.98	-41.7	-43.8	19.9	0.00e+00	0	43	0	735051776	54	4743
2026-01-19 00:07:28.75	237.25	63.54	-41.2	-43.2	20.3	0.00e+00	0	43	0	738197504	54	4432
2026-01-19 00:07:29.50	236.79	63.28	-41.3	-43.3	20.3	0.00e+00	0	43	0	739246080	54	4491
2026-01-19 00:07:30.78	236.03	62.83	-42.5	-44.8	18.9	0.00e+00	0	43	0	741343232	55	4994
2026-01-19 00:07:31.57	235.57	62.55	-42.6	-45.0	18.8	0.00e+00	0	43	0	743440384	55	5123
2026-01-19 00:07:32.74	234.91	62.14	-43.3	-45.8	18.3	0.00e+00	0	43	0	745537536	57	5001
2026-01-19 00:07:33.59	234.45	61.84	-43.8	-46.5	17.6	0.00e+00	0	43	0	746586112	58	5135
2026-01-19 00:07:34.73	233.84	61.44	-44.3	-47.1	16.9	0.00e+00	0	43	0	748683264	59	5193
2026-01-19 00:07:35.58	233.41	61.14	-44.5	-47.3	16.8	0.00e+00	0	43	0	750780416	59	5330
2026-01-19 00:07:36.72	232.83	60.74	-44.8	-47.8	16.3	0.00e+00	0	43	0	752877568	61	5026
2026-01-19 00:07:37.57	232.42	60.44	-44.7	-47.7	16.5	0.00e+00	0	43	0	753926144	61	4931
2026-01-19 00:07:38.71	231.88	60.04	-43.5	-46.0	18.1	0.00e+00	0	43	0	756023296	59	4553
2026-01-19 00:07:39.57	231.48	59.74	-44.3	-47.0	17.1	0.00e+00	0	43	0	758120448	59	5143
2026-01-19 00:07:40.70	230.97	59.34	-43.7	-46.3	17.8	0.00e+00	0	43	0	760217600	59	4741
2026-01-19 00:07:41.55	230.60	59.05	-43.2	-45.6	18.3	0.00e+00	0	43	0	762314752	58	4621
2026-01-19 00:07:42.69	230.12	58.65	-42.7	-45.0	19.0	0.00e+00	0	43	0	763363328	57	4554
2026-01-19 00:07:43.54	229.76	58.35	-43.1	-45.5	18.4	0.00e+00	0	43	0	765460480	57	4830
2026-01-19 00:07:44.68	229.30	57.95	-43.3	-45.7	18.2	0.00e+00	0	43	0	767557632	57	4972
2026-01-19 00:07:45.53	228.97	57.65	-43.7	-46.2	17.8	0.00e+00	0	43	0	769654784	58	4932
2026-01-19 00:07:46.67	228.53	57.26	-43.5	-46.0	18.1	0.00e+00	0	43	0	771751936	58	4844
2026-01-19 00:07:47.68	228.16	56.91	-42.7	-45.0	18.9	0.00e+00	0	43	0	772800512	57	4560
2026-01-19 00:07:48.85	227.73	56.50	-41.4	-43.5	20.1	0.00e+00	0	43	0	775946240	54	4575
2026-01-19 00:07:49.72	227.42	56.20	-41.1	-43.1	20.5	0.00e+00	0	43	0	776994816	54	4388
2026-01-19 00:07:51.05	226.97	55.75	-41.4	-43.5	20.1	0.00e+00	0	43	0	779091968	53	4824
2026-01-19 00:07:51.76	226.73	55.50	-42.0	-44.3	19.5	0.00e+00	0	43	0	781189120	54	4984
2026-01-19 00:07:53.03	226.31	55.07	-42.5	-44.8	19.0	0.00e+00	0	43	0	783286272	55	4999
2026-01-19 00:07:53.75	226.08	54.83	-42.3	-44.5	19.2	0.00e+00	0	43	0	784334848	55	4865
2026-01-19 00:07:55.25	225.61	54.32	-44.1	-46.7	17.3	0.00e+00	0	43	0	787480576	58	5276
2026-01-19 00:07:55.96	225.40	54.08	-44.5	-47.3	16.8	0.00e+00	0	43	0	788529152	59	5298
2026-01-19 00:07:57.24	225.02	53.65	-44.7	-47.7	16.5	0.00e+00	0	43	0	790626304	60	5221
2026-01-19 00:07:57.96	224.81	53.41	-45.1	-48.3	15.9	0.00e+00	0	43	0	792723456	60	5622
2026-01-19 00:07:59.24	224.45	52.99	-44.9	-48.1	16.0	0.00e+00	0	43	0	794820608	61	5175
2026-01-19 00:07:59.95	224.25	52.75	-44.3	-47.2	17.1	0.00e+00	0	43	0	795869184	60	4946
2026-01-19 00:08:01.23	223.91	52.33	-43.6	-46.2	17.8	0.00e+00	0	43	0	799014912	58	4965
2026-01-19 00:08:01.94	223.72	52.10	-43.7	-46.3	17.7	0.00e+00	0	43	0	800063488	58	5035
2026-01-19 00:08:03.24	223.38	51.67	-43.6	-46.1	17.8	0.00e+00	0	43	0	802160640	58	4912
2026-01-19 00:08:03.95	223.20	51.44	-43.3	-45.8	18.2	0.00e+00	0	43	0	804257792	58	4709
2026-01-19 00:08:05.24	222.88	51.02	-43.0	-45.3	18.6	0.00e+00	0	43	0	806354944	57	4744
2026-01-19 00:08:06.09	222.68	50.75	-43.4	-45.9	18.1	0.00e+00	0	43	0	807403520	57	5046
2026-01-19 00:08:07.23	222.41	50.39	-43.1	-45.4	18.5	0.00e+00	0	43	0	809500672	57	4786
2026-01-19 00:08:08.08	222.21	50.12	-42.6	-44.8	19.0	0.00e+00	0	43	0	811597824	57	4493
2026-01-19 00:08:09.58	221.87	49.64	-42.8	-45.2	18.7	0.00e+00	0	43	0	814743552	56	4952
2026-01-19 00:08:10.29	221.72	49.42	-43.0	-45.4	18.6	0.00e+00	0	43	0	815792128	57	4783
2026-01-19 00:08:11.57	221.44	49.02	-43.2	-45.7	18.3	0.00e+00	0	43	0	817889280	57	4929
2026-01-19 00:08:12.28	221.29	48.80	-43.1	-45.5	18.5	0.00e+00	0	43	0	818937856	57	4824
2026-01-19 00:08:13.56	221.02	48.40	-43.0	-45.2	18.7	0.00e+00	0	43	0	822083584	57	4702
2026-01-19 00:08:14.30	220.87	48.18	-43.2	-45.5	18.4	0.00e+00	0	43	0	823132160	57	4855
2026-01-19 00:08:15.58	220.62	47.79	-44.5	-47.3	16.8	0.00e+00	0	43	0	825229312	59	5303
2026-01-19 00:08:16.31	220.47	47.56	-44.5	-47.3	16.7	0.00e+00	0	43	0	827326464	60	5036
2026-01-19 00:08:17.59	220.23	47.18	-44.2	-46.8	17.2	0.00e+00	0	43	0	829423616	60	4751
2026-01-19 00:08:18.30	220.10	46.96	-44.8	-47.7	16.4	0.00e+00	0	43	0	830472192	60	5271
2026-01-19 00:08:19.58	219.86	46.58	-46.5	-50.4	14.0	0.00e+00	0	43	0	832569344	63	6024
2026-01-19 00:08:20.29	219.73	46.37	-46.5	-50.4	13.7	1.06e-05	0	43	0	834666496	64	5722
2026-01-19 00:08:21.57	219.51	46.00	-44.9	-47.8	16.3	0.00e+00	0	43	0	836763648	61	5028
2026-01-19 00:08:22.28	219.38	45.79	-44.1	-46.8	17.2	0.00e+00	0	43	0	837812224	60	4706
2026-01-19 00:08:23.56	219.16	45.42	-43.9	-46.5	17.5	0.00e+00	0	43	0	840957952	59	4869
2026-01-19 00:08:24.29	219.04	45.20	-44.7	-47.8	16.4	0.00e+00	0	43	0	842006528	60	5302
2026-01-19 00:08:25.56	218.83	44.84	-44.6	-47.5	16.5	0.00e+00	0	43	0	844103680	60	5147
2026-01-19 00:08:26.27	218.72	44.64	-44.8	-47.8	16.6	0.00e+00	0	43	0	845152256	60	5299
2026-01-19 00:08:27.55	218.51	44.27	-43.7	-46.3	17.7	0.00e+00	0	43	0	848297984	59	4731
2026-01-19 00:08:28.28	218.40	44.07	-44.5	-47.4	16.7	0.00e+00	0	43	0	849346560	59	5350
2026-01-19 00:08:29.56	218.20	43.71	-45.6	-48.9	15.3	0.00e+00	0	43	0	851443712	62	5384
2026-01-19 00:08:30.27	218.10	43.51	-46.7	-50.8	13.3	5.30e-06	0	43	0	853540864	64	5968
2026-01-19 00:08:31.55	217.91	43.16	-45.9	-49.4	14.7	2.20e-06	0	43	0	855638016	63	5383
2026-01-19 00:08:32.26	217.80	42.96	-45.7	-49.1	15.1	0.00e+00	0	43	0	856686592	62	5475
2026-01-19 00:08:33.54	217.62	42.61	-45.5	-48.7	15.5	0.00e+00	0	43	0	858783744	62	5260
2026-01-19 00:08:34.26	217.52	42.42	-45.9	-49.5	14.8	0.00e+00	0	43	0	860880896	62	5735
2026-01-19 00:08:35.54	217.34	42.07	-45.5	-48.8	15.4	7.00e-07	0	43	0	862978048	62	5299
2026-01-19 00:08:36.27	217.24	41.88	-45.3	-48.6	15.5	0.00e+00	0	44	0	864026624	62	5190
2026-01-19 00:08:37.55	217.07	41.54	-44.5	-47.4	16.7	0.00e+00	0	43	0	867172352	61	4762
2026-01-19 00:08:38.26	216.98	41.35	-44.5	-47.3	16.8	0.00e+00	0	43	0	868220928	60	5012
2026-01-19 00:08:39.54	216.82	41.01	-44.6	-47.5	16.8	0.00e+00	0	43	0	870318080	60	5121
2026-01-19 00:08:40.25	216.73	40.83	-44.1	-46.7	17.3	0.00e+00	0	43	0	871366656	59	4982
2026-01-19 00:08:41.52	216.57	40.50	-45.1	-48.1	15.9	0.00e+00	0	43	0	874512384	60	5520
2026-01-19 00:08:42.25	216.48	40.31	-44.8	-47.7	16.4	0.00e+00	0	43	0	875560960	61	4957
2026-01-19 00:08:43.53	216.32	39.98	-45.8	-49.1	15.1	0.00e+00	0	43	0	877658112	62	5491
2026-01-19 00:08:44.25	216.24	39.80	-45.8	-49.2	15.0	0.00e+00	0	43	0	879755264	62	5535
2026-01-19 00:08:45.61	216.08	39.46	-45.8	-49.3	14.9	1.50e-06	0	43	0	881852416	62	5625
2026-01-19 00:08:46.32	216.00	39.28	-45.7	-49.1	15.1	0.00e+00	0	43	0	882900992	62	5501
2026-01-19 00:08:47.66	215.84	38.95	-47.1	-51.8	12.3	0.00e+00	0	43	0	886046720	64	6676
2026-01-19 00:08:48.37	215.77	38.77	-47.1	-51.9	12.1	2.51e-04	0	43	0	887095296	65	6383
2026-01-19 00:08:49.74	215.62	38.43	-47.4	-52.3	11.6	8.09e-04	0	43	0	889192448	65	6692
2026-01-19 00:08:50.45	215.54	38.26	-46.2	-50.0	14.1	1.14e-04	0	43	0	891289600	64	5446
2026-01-19 00:08:51.78	215.40	37.94	-45.7	-49.1	15.0	7.00e-07	0	43	0	893386752	63	5190
2026-01-19 00:08:52.49	215.32	37.77	-45.2	-48.3	15.8	0.00e+00	0	43	0	894435328	62	5000
2026-01-19 00:08:53.77	215.19	37.46	-43.8	-46.4	17.6	0.00e+00	0	43	0	897581056	59	4783
2026-01-19 00:08:54.48	215.12	37.29	-43.2	-45.7	18.3	0.00e+00	0	43	0	898629632	58	4664
2026-01-19 00:08:55.76	214.99	36.99	-43.2	-45.6	18.3	0.00e+00	0	43	0	900726784	57	4900
2026-01-19 00:08:56.48	214.92	36.82	-43.0	-45.4	18.4	0.00e+00	0	43	0	901775360	57	4806
2026-01-19 00:08:57.76	214.80	36.53	-43.0	-45.4	18.5	0.00e+00	0	43	0	904921088	57	4800
2026-01-19 00:08:58.50	214.72	36.36	-43.3	-45.8	18.1	0.00e+00	0	43	0	905969664	57	4997
2026-01-19 00:08:59.78	214.60	36.06	-43.4	-45.9	18.0	0.00e+00	0	43	0	908066816	57	5065
2026-01-19 00:09:00.50	214.54	35.90	-43.8	-46.4	17.5	0.00e+00	0	43	0	910163968	58	5043
2026-01-19 00:09:01.78	214.42	35.61	-44.4	-47.2	16.8	0.00e+00	0	43	0	912261120	59	5226
2026-01-19 00:09:02.49	214.36	35.45	-45.0	-48.1	16.0	0.00e+00	0	43	0	913309696	60	5510
2026-01-19 00:09:03.77	214.24	35.16	-46.2	-50.0	14.2	0.00e+00	0	43	0	915406848	63	5729
2026-01-19 00:09:04.48	214.18	35.01	-46.6	-50.8	13.4	1.50e-06	0	43	0	917504000	63	6311
2026-01-19 00:09:05.76	214.07	34.72	-47.1	-51.7	12.3	9.68e-05	0	43	0	919601152	64	6630
2026-01-19 00:09:06.59	214.00	34.54	-46.7	-50.9	13.1	2.59e-05	0	44	0	920649728	64	6046
2026-01-19 00:09:07.72	213.90	34.30	-46.1	-49.8	14.2	3.00e-06	0	43	0	923795456	64	5292
2026-01-19 00:09:08.80	213.81	34.06	-45.9	-49.3	14.5	7.00e-07	0	43	0	925892608	63	5335
2026-01-19 00:09:09.81	213.73	33.85	-46.0	-49.6	14.4	2.20e-06	0	43	0	926941184	63	5495
2026-01-19 00:09:10.80	213.65	33.64	-45.8	-49.2	14.8	0.00e+00	0	43	0	929038336	63	5278
2026-01-19 00:09:11.80	213.57	33.42	-46.0	-49.6	14.5	0.00e+00	0	43	0	931135488	62	5845
2026-01-19 00:09:12.79	213.49	33.22	-45.5	-48.8	15.3	0.00e+00	0	43	0	933232640	62	5314
2026-01-19 00:09:13.79	213.42	33.01	-45.4	-48.5	15.5	0.00e+00	0	43	0	934281216	62	5148
2026-01-19 00:09:14.78	213.34	32.80	-45.0	-48.0	16.1	0.00e+00	0	43	0	936378368	61	5134
2026-01-19 00:09:15.78	213.26	32.60	-44.5	-47.4	16.6	0.00e+00	0	43	0	938475520	60	5048
2026-01-19 00:09:16.77	213.19	32.39	-44.6	-47.5	16.6	0.00e+00	0	43	0	940572672	60	5134
2026-01-19 00:09:17.77	213.12	32.19	-44.5	-47.4	16.7	0.00e+00	0	43	0	942669824	60	5059
2026-01-19 00:09:18.76	213.04	31.99	-44.6	-47.5	16.5	0.00e+00	0	43	0	943718400	60	5152
2026-01-19 00:09:19.76	212.97	31.79	-44.7	-47.6	16.4	0.00e+00	0	43	0	945815552	60	5214
2026-01-19 00:09:20.75	212.90	31.59	-45.0	-48.1	16.0	0.00e+00	0	43	0	947912704	60	5465
2026-01-19 00:09:21.75	212.83	31.39	-45.3	-48.6	15.5	0.00e+00	0	43	0	950009856	61	5473
2026-01-19 00:09:22.74	212.76	31.20	-45.0	-48.1	15.7	8.30e-06	0	43	0	951058432	61	5205
2026-01-19 00:09:23.74	212.70	31.00	-45.7	-49.2	14.9	0.00e+00	0	43	0	953155584	62	5549
2026-01-19 00:09:24.73	212.63	30.81	-45.9	-49.5	14.5	1.50e-06	0	43	0	955252736	62	5766
2026-01-19 00:09:25.72	212.56	30.62	-46.4	-50.3	13.6	1.13e-04	0	43	0	957349888	63	5939
2026-01-19 00:09:26.72	212.50	30.43	-47.0	-51.5	12.5	6.56e-05	0	43	0	959447040	64	6424
2026-01-19 00:09:27.72	212.43	30.24	-47.3	-52.1	11.8	2.43e-04	0	43	0	960495616	65	6545
2026-01-19 00:09:28.71	212.37	30.05	-47.2	-52.0	12.1	3.66e-04	0	43	0	962592768	65	6442
2026-01-19 00:09:29.71	212.31	29.86	-47.0	-51.5	12.4	4.07e-04	0	43	0	964689920	65	6120
2026-01-19 00:09:30.70	212.24	29.67	-47.1	-51.6	12.4	1.33e-04	0	43	0	966787072	65	6175
2026-01-19 00:09:31.70	212.18	29.49	-47.1	-51.6	12.4	8.92e-05	0	43	0	967835648	65	6173
2026-01-19 00:09:32.69	212.12	29.31	-46.6	-50.7	13.2	7.62e-05	0	43	0	969932800	65	5584
2026-01-19 00:09:33.68	212.06	29.12	-46.3	-50.2	13.6	2.38e-04	0	43	0	972029952	64	5568
2026-01-19 00:09:34.76	212.00	28.93	-46.3	-50.3	13.4	1.02e-03	0	43	0	974127104	64	5643
2026-01-19 00:09:35.64	211.95	28.77	-46.1	-49.8	14.1	7.54e-04	0	43	0	976224256	64	5305
2026-01-19 00:09:36.78	211.88	28.56	-46.1	-50.0	14.0	4.50e-06	0	43	0	977272832	64	5420
2026-01-19 00:09:37.71	211.83	28.40	-46.2	-50.1	13.9	9.91e-05	0	43	0	979369984	64	5486
2026-01-19 00:09:38.89	211.76	28.19	-45.7	-49.3	14.7	7.00e-07	0	43	0	981467136	63	5338
2026-01-19 00:09:39.77	211.71	28.03	-45.4	-48.8	14.9	2.46e-04	0	43	0	983564288	62	5326
2026-01-19 00:09:41.08	211.64	27.80	-45.1	-48.4	15.1	4.85e-04	0	43	0	985661440	61	5395
2026-01-19 00:09:41.79	211.60	27.68	-44.6	-47.6	15.9	4.71e-04	0	43	0	986710016	61	4891
2026-01-19 00:09:43.27	211.52	27.42	-44.0	-46.8	16.9	0.00e+00	0	43	0	989855744	60	4747
2026-01-19 00:09:44.25	211.47	27.25	-43.3	-45.9	17.4	3.80e-06	0	43	0	991952896	58	4792
2026-01-19 00:09:45.25	211.41	27.08	-42.9	-45.4	17.8	3.05e-05	0	43	0	994050048	57	4787
2026-01-19 00:09:46.24	211.36	26.91	-42.8	-45.2	18.4	7.00e-07	0	43	0	995098624	56	4930
2026-01-19 00:09:47.24	211.31	26.74	-42.6	-44.9	18.8	0.00e+00	0	43	0	997195776	56	4770
2026-01-19 00:09:48.24	211.26	26.58	-42.5	-44.8	18.9	0.00e+00	0	43	0	999292928	56	4721
2026-01-19 00:09:49.23	211.21	26.41	-42.4	-44.7	19.0	0.00e+00	0	43	0	1001390080	56	4687
2026-01-19 00:09:50.23	211.16	26.24	-42.9	-45.2	18.5	0.00e+00	0	43	0	1003487232	56	4973
2026-01-19 00:09:51.22	211.11	26.08	-43.0	-45.4	18.4	0.00e+00	0	43	0	1004535808	56	5051
2026-01-19 00:09:52.21	211.06	25.92	-43.2	-45.7	18.1	0.00e+00	0	43	0	1006632960	57	4970
2026-01-19 00:09:53.29	211.01	25.74	-43.8	-46.4	17.6	0.00e+00	0	43	0	1008730112	58	5080
2026-01-19 00:09:54.14	210.97	25.61	-44.2	-46.9	17.1	0.00e+00	0	43	0	1010827264	58	5392
2026-01-19 00:09:55.48	210.90	25.39	-44.8	-47.9	16.2	0.00e+00	0	43	0	1012924416	60	5355
2026-01-19 00:09:56.19	210.87	25.28	-45.0	-48.2	15.9	0.00e+00	0	43	0	1013972992	60	5540
2026-01-19 00:09:57.68	210.80	25.04	-45.9	-49.5	14.6	0.00e+00	0	43	0	1017118720	62	5778
2026-01-19 00:09:58.39	210.77	24.93	-45.9	-49.6	14.5	0.00e+00	0	43	0	1018167296	62	5802
2026-01-19 00:09:59.73	210.71	24.72	-46.3	-50.2	13.8	3.00e-06	0	43	0	1021313024	63	5893
2026-01-19 00:10:00.44	210.68	24.61	-46.3	-50.3	13.7	2.20e-06	0	43	0	1022361600	63	5974
2026-01-19 00:10:01.78	210.62	24.40	-46.1	-50.0	14.1	3.80e-06	0	43	0	1024458752	63	5724
2026-01-19 00:10:02.49	210.59	24.29	-45.8	-49.3	14.7	3.00e-06	0	43	0	1025507328	63	5312
2026-01-19 00:10:03.84	210.53	24.08	-45.5	-48.9	15.1	0.00e+00	0	43	0	1028653056	62	5354
2026-01-19 00:10:04.55	210.50	23.97	-45.5	-48.9	15.1	0.00e+00	0	43	0	1029701632	62	5343
2026-01-19 00:10:05.83	210.44	23.78	-45.0	-48.1	15.9	0.00e+00	0	43	0	1031798784	62	4884
2026-01-19 00:10:06.54	210.41	23.67	-45.0	-48.1	16.0	0.00e+00	0	43	0	1033895936	61	5173
2026-01-19 00:10:07.82	210.36	23.48	-44.7	-47.6	16.4	0.00e+00	0	43	0	1035993088	60	5188
2026-01-19 00:10:08.53	210.33	23.38	-44.6	-47.5	16.5	0.00e+00	0	43	0	1037041664	60	5149
2026-01-19 00:10:09.81	210.28	23.19	-44.5	-47.4	16.6	0.00e+00	0	43	0	1040187392	60	5084
2026-01-19 00:10:10.53	210.25	23.08	-44.4	-47.3	16.7	0.00e+00	0	43	0	1041235968	60	5022
2026-01-19 00:10:11.81	210.20	22.89	-44.5	-47.4	16.6	0.00e+00	0	43	0	1043333120	60	5061
2026-01-19 00:10:12.59	210.17	22.78	-44.3	-47.2	16.8	0.00e+00	0	43	0	1045430272	60	4939
2026-01-19 00:10:13.87	210.12	22.59	-44.4	-47.2	16.8	0.00e+00	0	43	0	1047527424	60	4952
2026-01-19 00:10:14.58	210.09	22.49	-44.1	-46.8	17.1	0.00e+00	0	43	0	1048576000	60	4747
2026-01-19 00:10:15.86	210.04	22.31	-44.1	-46.9	17.1	0.00e+00	0	43	0	1050673152	60	4794
2026-01-19 00:10:16.58	210.02	22.21	-44.1	-46.8	17.1	0.00e+00	0	43	0	1052770304	60	4725
2026-01-19 00:10:17.86	209.97	22.02	-43.7	-46.3	17.6	0.00e+00	0	44	0	1054867456	59	4715
2026-01-19 00:10:18.57	209.94	21.92	-43.7	-46.4	17.5	0.00e+00	0	43	0	1055916032	59	4762
2026-01-19 00:10:19.85	209.89	21.74	-43.5	-46.1	17.7	0.00e+00	0	43	0	1059061760	59	4625
2026-01-19 00:10:20.56	209.87	21.65	-43.4	-45.9	17.9	0.00e+00	0	43	0	1060110336	58	4798
2026-01-19 00:10:21.84	209.82	21.47	-43.5	-46.1	17.7	0.00e+00	0	44	0	1062207488	58	4902
2026-01-19 00:10:22.56	209.80	21.37	-43.5	-46.1	17.7	0.00e+00	0	43	0	1063256064	58	4904
2026-01-19 00:10:23.85	209.75	21.19	-43.4	-45.9	17.9	0.00e+00	0	43	0	1066401792	58	4812
2026-01-19 00:10:24.57	209.72	21.09	-43.3	-45.7	18.0	0.00e+00	0	43	0	1067450368	58	4703
2026-01-19 00:10:25.85	209.68	20.92	-43.4	-45.9	17.9	0.00e+00	0	43	0	1069547520	58	4785
2026-01-19 00:10:26.56	209.66	20.82	-43.5	-46.1	17.7	0.00e+00	0	43	0	1071644672	58	4899
2026-01-19 00:10:27.84	209.61	20.65	-43.6	-46.2	17.6	0.00e+00	0	43	0	1073741824	58	4971
2026-01-19 00:10:28.57	209.59	20.56	-43.7	-46.3	17.5	0.00e+00	0	43	0	1074790400	58	5014
2026-01-19 00:10:29.84	209.54	20.39	-43.9	-46.6	17.3	0.00e+00	0	43	0	1076887552	58	5173
2026-01-19 00:10:30.57	209.52	20.29	-43.8	-46.5	17.3	0.00e+00	0	43	0	1078984704	58	5132
2026-01-19 00:10:31.85	209.48	20.12	-43.8	-46.4	17.4	0.00e+00	0	43	0	1081081856	58	5093
2026-01-19 00:10:32.59	209.45	20.02	-44.0	-46.7	17.2	0.00e+00	0	43	0	1082130432	58	5224
2026-01-19 00:10:34.15	209.40	19.82	-43.8	-46.5	17.4	0.00e+00	0	43	0	1085276160	58	5109
2026-01-19 00:10:34.86	209.38	19.73	-43.7	-46.3	17.6	0.00e+00	0	43	0	1086324736	58	5001
2026-01-19 00:10:36.14	209.34	19.57	-43.9	-46.6	17.3	0.00e+00	0	43	0	1089470464	58	5197
2026-01-19 00:10:37.18	209.31	19.43	-43.8	-46.4	17.4	0.00e+00	0	43	0	1090519040	58	5095
2026-01-19 00:10:38.48	209.27	19.27	-43.8	-46.4	17.4	0.00e+00	0	43	0	1093664768	58	5100
2026-01-19 00:10:39.22	209.25	19.17	-43.9	-46.6	17.2	0.00e+00	0	43	0	1094713344	58	5203
2026-01-19 00:10:40.50	209.21	19.01	-43.8	-46.5	17.4	0.00e+00	0	43	0	1096810496	58	5121
2026-01-19 00:10:41.21	209.19	18.92	-44.0	-46.7	17.1	0.00e+00	0	43	0	1098907648	58	5238
2026-01-19 00:10:42.86	209.14	18.72	-43.9	-46.6	17.2	0.00e+00	0	43	0	1102053376	58	5176
2026-01-19 00:10:43.42	209.12	18.65	-44.1	-46.8	17.0	0.00e+00	0	43	0	1103101952	58	5305
2026-01-19 00:10:45.13	209.07	18.44	-44.6	-47.5	16.3	0.00e+00	0	43	0	1106247680	59	5446
2026-01-19 00:10:45.76	209.05	18.36	-44.7	-47.7	16.2	0.00e+00	0	43	0	1107296256	59	5536
2026-01-19 00:10:47.29	209.01	18.18	-44.7	-47.8	16.1	0.00e+00	0	44	0	1110441984	60	5311
2026-01-19 00:10:48.00	208.99	18.09	-45.1	-48.3	15.7	0.00e+00	0	43	0	1111490560	60	5593
2026-01-19 00:10:49.28	208.95	17.94	-45.0	-48.2	15.8	0.00e+00	0	43	0	1113587712	60	5538
2026-01-19 00:10:49.99	208.93	17.85	-45.1	-48.3	15.6	0.00e+00	0	44	0	1114636288	60	5645
2026-01-19 00:10:51.27	208.90	17.70	-45.6	-49.1	14.8	0.00e+00	0	43	0	1117782016	61	5835
2026-01-19 00:10:52.00	208.88	17.61	-45.6	-49.0	14.9	7.00e-07	0	43	0	1118830592	61	5788
2026-01-19 00:10:53.28	208.84	17.46	-45.7	-49.2	14.8	0.00e+00	0	43	0	1120927744	62	5565
2026-01-19 00:10:53.99	208.82	17.38	-45.8	-49.3	14.7	0.00e+00	0	43	0	1123024896	62	5602
2026-01-19 00:10:55.27	208.79	17.23	-45.4	-48.8	15.2	0.00e+00	0	43	0	1125122048	62	5295
2026-01-19 00:10:56.20	208.76	17.12	-45.4	-48.8	15.2	0.00e+00	0	43	0	1127219200	62	5283
2026-01-19 00:10:57.20	208.74	17.00	-45.2	-48.4	15.5	0.00e+00	0	43	0	1128267776	62	5050
2026-01-19 00:10:58.19	208.71	16.89	-45.2	-48.4	15.6	0.00e+00	0	43	0	1130364928	62	5063
2026-01-19 00:10:59.18	208.69	16.77	-44.9	-48.0	15.9	0.00e+00	0	43	0	1132462080	61	5146
2026-01-19 00:11:00.18	208.66	16.66	-44.8	-47.9	16.1	0.00e+00	0	43	0	1134559232	61	5046
2026-01-19 00:11:01.17	208.64	16.55	-44.6	-47.6	16.2	0.00e+00	0	44	0	1135607808	61	4923
2026-01-19 00:11:02.16	208.61	16.43	-44.4	-47.3	16.6	0.00e+00	0	43	0	1137704960	60	4993
2026-01-19 00:11:03.17	208.58	16.32	-44.2	-47.1	16.7	0.00e+00	0	43	0	1139802112	60	4893
2026-01-19 00:11:04.17	208.56	16.21	-44.4	-47.2	16.6	0.00e+00	0	43	0	1141899264	60	4981
2026-01-19 00:11:05.16	208.54	16.10	-44.3	-47.2	16.7	0.00e+00	0	43	0	1143996416	60	4959
2026-01-19 00:11:06.16	208.51	15.99	-44.4	-47.3	16.6	0.00e+00	0	43	0	1145044992	60	5015
2026-01-19 00:11:07.16	208.49	15.88	-44.3	-47.2	16.7	0.00e+00	0	43	0	1147142144	60	4937
2026-01-19 00:11:08.15	208.46	15.77	-44.4	-47.3	16.5	0.00e+00	0	44	0	1149239296	60	5037
2026-01-19 00:11:09.15	208.44	15.66	-44.4	-47.2	16.6	0.00e+00	0	43	0	1151336448	60	4976
2026-01-19 00:11:10.14	208.42	15.55	-44.6	-47.6	16.3	0.00e+00	0	43	0	1152385024	60	5173
2026-01-19 00:11:11.14	208.39	15.44	-44.7	-47.8	16.1	0.00e+00	0	44	0	1154482176	60	5292
2026-01-19 00:11:12.14	208.37	15.33	-44.6	-47.6	16.2	0.00e+00	0	43	0	1156579328	60	5190
2026-01-19 00:11:13.13	208.35	15.22	-45.0	-48.1	15.8	0.00e+00	0	43	0	1158676480	60	5477
2026-01-19 00:11:14.46	208.32	15.08	-45.2	-48.4	15.5	0.00e+00	0	43	0	1160773632	61	5347
2026-01-19 00:11:15.20	208.30	15.00	-45.2	-48.5	15.4	0.00e+00	0	43	0	1162870784	61	5427
2026-01-19 00:11:16.48	208.27	14.87	-45.5	-49.0	14.9	0.00e+00	0	43	0	1164967936	61	5739
2026-01-19 00:11:17.27	208.25	14.78	-45.5	-48.9	14.9	0.00e+00	0	43	0	1166016512	61	5701
2026-01-19 00:11:18.74	208.22	14.63	-45.5	-48.8	15.0	1.50e-06	0	43	0	1169162240	61	5636
2026-01-19 00:11:19.45	208.21	14.55	-45.5	-48.9	15.0	0.00e+00	0	43	0	1170210816	62	5378
2026-01-19 00:11:20.73	208.18	14.42	-45.6	-49.1	14.7	7.00e-07	0	43	0	1172307968	62	5505
2026-01-19 00:11:21.44	208.16	14.35	-45.7	-49.3	14.6	0.00e+00	0	43	0	1174405120	62	5593
2026-01-19 00:11:22.72	208.14	14.21	-45.8	-49.4	14.4	0.00e+00	0	43	0	1176502272	62	5713
2026-01-19 00:11:23.43	208.12	14.14	-45.6	-49.1	14.7	7.00e-07	0	43	0	1177550848	62	5511
2026-01-19 00:11:24.71	208.09	14.01	-45.3	-48.6	15.2	7.00e-07	0	43	0	1180696576	62	5189
2026-01-19 00:11:25.53	208.08	13.92	-45.2	-48.4	15.4	0.00e+00	0	43	0	1181745152	62	5058
2026-01-19 00:11:26.67	208.05	13.81	-45.2	-48.4	15.5	0.00e+00	0	43	0	1183842304	62	5060
2026-01-19 00:11:27.52	208.04	13.72	-45.0	-48.1	15.7	0.00e+00	0	43	0	1185939456	62	4900
2026-01-19 00:11:28.66	208.01	13.61	-45.1	-48.3	15.5	0.00e+00	0	43	0	1188036608	61	5286
2026-01-19 00:11:29.51	207.99	13.52	-44.9	-48.1	15.7	0.00e+00	0	43	0	1189085184	61	5167
2026-01-19 00:11:30.65	207.97	13.41	-44.6	-47.7	16.1	0.00e+00	0	43	0	1191182336	61	4939
2026-01-19 00:11:31.80	207.95	13.29	-44.5	-47.5	16.2	0.00e+00	0	43	0	1193279488	61	4859
2026-01-19 00:11:32.85	207.93	13.19	-44.3	-47.3	16.6	0.00e+00	0	43	0	1195376640	60	4986
2026-01-19 00:11:33.81	207.91	13.09	-44.3	-47.1	16.6	0.00e+00	0	43	0	1197473792	60	4918
2026-01-19 00:11:34.80	207.89	13.00	-44.2	-47.0	16.7	0.00e+00	0	43	0	1199570944	60	4847
2026-01-19 00:11:35.79	207.87	12.90	-44.4	-47.3	16.5	0.00e+00	0	43	0	1200619520	60	5019
2026-01-19 00:11:36.79	207.85	12.80	-44.2	-47.0	16.7	0.00e+00	0	43	0	1202716672	60	4857
2026-01-19 00:11:37.78	207.83	12.70	-44.0	-46.8	17.0	0.00e+00	0	43	0	1204813824	59	4986
2026-01-19 00:11:38.77	207.81	12.61	-43.9	-46.6	17.1	0.00e+00	0	43	0	1206910976	59	4885
2026-01-19 00:11:39.77	207.80	12.51	-43.7	-46.4	17.2	0.00e+00	0	43	0	1207959552	59	4804
2026-01-19 00:11:40.76	207.78	12.42	-43.7	-46.4	17.2	0.00e+00	0	43	0	1210056704	59	4792
2026-01-19 00:11:41.76	207.76	12.32	-43.9	-46.6	17.0	0.00e+00	0	43	0	1212153856	59	4922
2026-01-19 00:11:42.80	207.74	12.22	-44.0	-46.7	16.9	0.00e+00	0	43	0	1214251008	59	4982
2026-01-19 00:11:43.75	207.72	12.13	-43.5	-46.2	17.4	0.00e+00	0	43	0	1216348160	59	4659
2026-01-19 00:11:44.74	207.70	12.04	-43.7	-46.3	17.3	0.00e+00	0	43	0	1217396736	59	4756
2026-01-19 00:11:45.74	207.69	11.94	-43.6	-46.3	17.3	0.00e+00	0	43	0	1219493888	59	4722
2026-01-19 00:11:46.86	207.67	11.84	-43.8	-46.5	17.1	0.00e+00	0	43	0	1221591040	58	5130
2026-01-19 00:11:47.76	207.65	11.75	-43.6	-46.3	17.3	0.00e+00	0	43	0	1223688192	58	4997
2026-01-19 00:11:48.77	207.63	11.66	-43.6	-46.2	17.4	0.00e+00	0	43	0	1225785344	58	4976
2026-01-19 00:11:49.76	207.62	11.57	-43.7	-46.3	17.2	0.00e+00	0	43	0	1226833920	58	5035
2026-01-19 00:11:50.76	207.60	11.48	-43.7	-46.3	17.3	0.00e+00	0	43	0	1228931072	58	5030
2026-01-19 00:11:51.75	207.58	11.38	-43.6	-46.3	17.3	0.00e+00	0	43	0	1231028224	58	5006
2026-01-19 00:11:52.75	207.57	11.29	-43.8	-46.5	17.1	0.00e+00	0	43	0	1233125376	58	5146
2026-01-19 00:11:54.06	207.54	11.17	-43.7	-46.4	17.2	0.00e+00	0	43	0	1235222528	58	5060
2026-01-19 00:11:54.77	207.53	11.11	-43.9	-46.6	17.0	0.00e+00	0	43	0	1236271104	58	5192
