passes_logs/2026/01/19/T1/T1__20260119_213349_KHAYYAM_rec.log

#Pass ID: 20260119_213349_KHAYYAM
#Satellite: KHAYYAM
#Configuration: KHAYYAM_480M
#almurnet v.1.7.20251203
#Start time: 2026-01-19 21:33:49

#Version: 2.0.20230620
#Station: T1
#Location: 37.570604 lon 55.790049 lat
#TLE: 1 53370U 22096A   26019.28855774  .00006875  00000+0  28144-3 0  9998
#TLE: 2 53370  97.3563 286.2214 0001716 107.2778 252.8647 15.24623927191898

#Time	Az	El	Level	Level2	SNR	BER	BlckErr	Temp	State	Recorded	gain1	gain2
2026-01-19 21:33:49.82	10.77	5.02	-52.0	-57.0	3.5	0.00e+00	0	45	0	0	75	25966
2026-01-19 21:33:50.81	10.74	5.10	-47.7	-54.0	3.8	0.00e+00	0	46	104	0	65	32394
2026-01-19 21:33:51.80	10.72	5.18	-47.6	-54.0	3.8	0.00e+00	0	46	104	0	65	32536
2026-01-19 21:33:52.80	10.70	5.26	-47.6	-53.9	3.8	0.00e+00	0	46	104	0	65	32195
2026-01-19 21:33:53.79	10.68	5.34	-47.6	-53.9	3.8	0.00e+00	0	46	104	0	65	32240
2026-01-19 21:33:54.79	10.66	5.42	-47.6	-53.9	3.8	0.00e+00	0	46	104	0	65	32236
2026-01-19 21:33:55.78	10.64	5.50	-47.6	-53.9	3.8	0.00e+00	0	46	104	0	65	32282
2026-01-19 21:33:56.77	10.61	5.59	-47.6	-54.0	3.8	0.00e+00	0	46	104	0	65	32501
2026-01-19 21:33:57.77	10.59	5.67	-47.6	-54.0	3.8	0.00e+00	0	46	104	0	65	32478
2026-01-19 21:33:58.76	10.57	5.75	-47.6	-53.9	3.8	0.00e+00	0	46	104	0	65	32161
2026-01-19 21:33:59.76	10.55	5.84	-47.6	-54.0	3.8	0.00e+00	0	46	104	0	65	32452
2026-01-19 21:34:00.75	10.52	5.92	-47.6	-54.0	3.8	0.00e+00	0	46	104	0	65	32384
2026-01-19 21:34:01.74	10.50	6.00	-47.6	-54.0	3.8	0.00e+00	0	47	104	0	65	32435
2026-01-19 21:34:02.74	10.48	6.09	-47.6	-54.0	3.8	0.00e+00	0	47	104	0	65	32346
2026-01-19 21:34:03.73	10.45	6.17	-47.6	-54.0	3.8	0.00e+00	0	47	104	0	65	32613
2026-01-19 21:34:04.72	10.43	6.26	-47.6	-54.0	3.8	0.00e+00	0	47	104	0	65	32556
2026-01-19 21:34:05.72	10.41	6.34	-47.6	-54.0	3.8	0.00e+00	0	47	104	0	65	32414
2026-01-19 21:34:06.71	10.38	6.43	-47.6	-53.9	3.8	0.00e+00	0	47	104	0	65	32122
2026-01-19 21:34:07.71	10.36	6.51	-47.6	-53.9	3.8	0.00e+00	0	47	104	0	65	32162
2026-01-19 21:34:08.70	10.33	6.60	-47.6	-54.0	3.8	0.00e+00	0	47	104	0	65	32344
2026-01-19 21:34:09.69	10.31	6.69	-47.6	-54.0	3.8	0.00e+00	0	47	104	0	65	32471
2026-01-19 21:34:10.69	10.28	6.77	-47.6	-53.9	3.8	0.00e+00	0	47	104	0	65	32279
2026-01-19 21:34:11.68	10.26	6.86	-47.6	-54.0	3.8	0.00e+00	0	47	104	0	65	32346
2026-01-19 21:34:12.67	10.23	6.95	-47.6	-54.0	3.8	0.00e+00	0	48	104	0	65	32624
2026-01-19 21:34:13.67	10.21	7.04	-47.6	-54.0	3.8	0.00e+00	0	48	104	0	65	32343
2026-01-19 21:34:14.66	10.18	7.13	-47.6	-54.0	3.8	0.00e+00	0	47	104	0	65	32363
2026-01-19 21:34:15.65	10.15	7.21	-47.6	-54.0	3.8	0.00e+00	0	48	104	0	65	32610
2026-01-19 21:34:16.65	10.13	7.31	-47.6	-54.0	3.8	0.00e+00	0	48	104	0	65	32407
2026-01-19 21:34:17.64	10.10	7.39	-47.6	-54.0	3.8	0.00e+00	0	48	104	0	65	32536
2026-01-19 21:34:18.63	10.07	7.49	-47.6	-53.9	3.8	0.00e+00	0	48	104	0	65	32252
2026-01-19 21:34:19.63	10.05	7.58	-47.7	-53.9	3.8	0.00e+00	0	48	104	0	65	32325
2026-01-19 21:34:20.62	10.02	7.67	-47.7	-54.0	3.8	0.00e+00	0	48	104	0	65	32549
2026-01-19 21:34:21.61	9.99	7.76	-47.7	-54.0	3.8	0.00e+00	0	48	104	0	65	32580
2026-01-19 21:34:22.61	9.96	7.85	-47.7	-54.0	3.8	0.00e+00	0	48	104	0	65	32623
2026-01-19 21:34:23.60	9.94	7.94	-47.6	-54.0	3.8	0.00e+00	0	48	104	0	65	32335
2026-01-19 21:34:24.60	9.91	8.04	-47.6	-54.0	3.8	0.00e+00	0	48	104	0	65	32518
2026-01-19 21:34:25.59	9.88	8.13	-47.6	-53.9	3.8	0.00e+00	0	48	104	0	65	32198
2026-01-19 21:34:26.58	9.85	8.23	-47.6	-54.0	3.8	0.00e+00	0	48	104	0	65	32460
2026-01-19 21:34:27.58	9.82	8.32	-47.6	-54.0	3.8	0.00e+00	0	48	104	0	65	32484
2026-01-19 21:34:28.57	9.79	8.41	-47.7	-53.9	3.8	0.00e+00	0	48	104	0	65	32287
2026-01-19 21:34:29.56	9.76	8.51	-47.7	-54.1	3.8	0.00e+00	0	48	104	0	65	32761
2026-01-19 21:34:30.56	9.73	8.61	-47.7	-54.0	3.8	0.00e+00	0	49	104	0	65	32483
2026-01-19 21:34:31.55	9.70	8.70	-47.7	-54.0	3.8	0.00e+00	0	49	104	0	65	32358
2026-01-19 21:34:32.54	9.67	8.80	-47.6	-54.0	3.8	0.00e+00	0	49	104	0	65	32512
2026-01-19 21:34:33.54	9.64	8.90	-47.7	-54.0	3.8	0.00e+00	0	49	104	0	65	32494
2026-01-19 21:34:34.53	9.61	9.00	-47.6	-54.0	3.8	0.00e+00	0	49	104	0	65	32475
2026-01-19 21:34:35.52	9.58	9.09	-47.7	-54.0	3.8	0.00e+00	0	49	104	0	65	32441
2026-01-19 21:34:36.52	9.55	9.19	-48.0	-54.4	3.8	0.00e+00	0	49	104	0	66	32164
2026-01-19 21:34:37.52	9.51	9.29	-47.8	-54.3	3.8	0.00e+00	0	49	104	0	67	29897
2026-01-19 21:34:38.51	9.48	9.39	-47.5	-54.0	3.8	0.00e+00	0	49	104	0	66	30714
2026-01-19 21:34:39.50	9.45	9.49	-47.6	-54.1	3.8	0.00e+00	0	49	104	0	66	31100
2026-01-19 21:34:40.50	9.42	9.60	-48.0	-54.3	3.8	0.00e+00	0	49	104	0	66	31606
2026-01-19 21:34:41.49	9.38	9.70	-47.8	-54.2	3.8	0.00e+00	0	49	104	0	67	29798
2026-01-19 21:34:42.49	9.35	9.80	-47.8	-54.3	3.8	0.00e+00	0	49	104	0	67	30065
2026-01-19 21:34:43.49	9.31	9.90	-47.9	-54.4	3.8	0.00e+00	0	49	104	0	67	30458
2026-01-19 21:34:44.48	9.28	10.01	-47.9	-54.3	3.8	0.00e+00	0	49	104	0	67	30116
2026-01-19 21:34:45.52	9.24	10.12	-47.5	-54.1	3.8	0.00e+00	0	49	104	0	67	29187
2026-01-19 21:34:46.47	9.21	10.22	-47.9	-54.4	3.8	0.00e+00	0	49	104	0	67	30514
2026-01-19 21:34:47.46	9.18	10.32	-47.9	-54.4	3.8	0.00e+00	0	49	104	0	67	30193
2026-01-19 21:34:48.46	9.14	10.43	-47.7	-54.1	3.8	0.00e+00	0	49	104	0	67	29402
2026-01-19 21:34:49.45	9.10	10.53	-47.7	-54.2	3.8	0.00e+00	0	49	104	0	67	29497
2026-01-19 21:34:50.44	9.07	10.64	-47.8	-54.2	3.8	0.00e+00	0	49	104	0	67	29727
2026-01-19 21:34:51.44	9.03	10.75	-48.0	-54.3	3.8	0.00e+00	0	49	104	0	67	30034
2026-01-19 21:34:52.43	8.99	10.86	-48.1	-54.4	3.8	0.00e+00	0	50	104	0	67	30368
2026-01-19 21:34:53.43	8.96	10.96	-48.1	-54.5	3.8	0.00e+00	0	50	104	0	67	30563
2026-01-19 21:34:54.42	8.92	11.07	-48.3	-54.8	3.8	0.00e+00	0	49	104	0	67	31715
2026-01-19 21:34:55.42	8.88	11.18	-49.7	-55.9	3.7	0.00e+00	0	49	104	0	70	30210
2026-01-19 21:34:56.41	8.84	11.30	-48.8	-55.0	3.8	0.00e+00	0	49	104	0	69	29114
2026-01-19 21:34:57.41	8.80	11.41	-48.2	-54.6	3.8	0.00e+00	0	50	104	0	68	29257
2026-01-19 21:34:58.40	8.76	11.52	-48.2	-54.7	3.8	0.00e+00	0	50	104	0	68	29604
2026-01-19 21:34:59.40	8.72	11.63	-48.4	-54.9	3.8	0.00e+00	0	50	104	0	68	30340
2026-01-19 21:35:00.39	8.68	11.75	-48.7	-55.0	3.8	0.00e+00	0	50	104	0	68	30555
2026-01-19 21:35:01.45	8.64	11.87	-48.8	-55.0	3.8	0.00e+00	0	50	104	0	68	30776
2026-01-19 21:35:02.35	8.60	11.97	-48.8	-55.1	3.7	0.00e+00	0	50	104	0	68	30884
2026-01-19 21:35:03.47	8.55	12.10	-49.9	-55.7	3.7	0.00e+00	0	50	104	0	70	29764
2026-01-19 21:35:04.32	8.52	12.20	-50.8	-56.5	3.7	0.00e+00	0	50	104	0	72	29121
2026-01-19 21:35:05.68	8.46	12.36	-50.0	-56.0	3.7	0.00e+00	0	50	104	0	71	29102
2026-01-19 21:35:06.39	8.43	12.45	-49.7	-55.9	3.7	0.00e+00	0	49	104	0	71	28615
2026-01-19 21:35:07.67	8.37	12.60	-49.9	-56.0	3.7	0.00e+00	0	50	104	0	71	29035
2026-01-19 21:35:08.41	8.34	12.69	-49.8	-56.0	3.7	0.00e+00	0	50	104	0	71	29061
2026-01-19 21:35:09.69	8.28	12.84	-50.1	-56.1	3.7	0.00e+00	0	50	104	0	71	29212
2026-01-19 21:35:10.48	8.25	12.94	-50.1	-56.0	3.7	0.00e+00	0	50	104	0	71	29082
2026-01-19 21:35:11.68	8.19	13.09	-49.9	-55.8	3.7	0.00e+00	0	50	104	0	71	28177
2026-01-19 21:35:12.53	8.15	13.19	-51.0	-56.6	3.7	0.00e+00	0	50	104	0	72	29309
2026-01-19 21:35:13.66	8.10	13.33	-51.3	-56.9	3.7	0.00e+00	0	50	104	0	73	28539
2026-01-19 21:35:14.71	8.05	13.46	-51.1	-56.7	3.7	0.00e+00	0	50	104	0	73	28068
2026-01-19 21:35:15.65	8.01	13.58	-51.5	-57.0	3.7	0.00e+00	0	50	104	0	73	28936
2026-01-19 21:35:16.65	7.96	13.71	-51.3	-56.9	3.7	0.00e+00	0	50	104	0	73	28520
2026-01-19 21:35:17.93	7.90	13.87	-51.4	-56.9	3.7	0.00e+00	0	50	104	0	73	28531
2026-01-19 21:35:18.68	7.86	13.97	-51.3	-56.8	3.7	0.00e+00	0	50	104	0	73	28260
2026-01-19 21:35:19.96	7.79	14.14	-51.2	-56.6	3.7	0.00e+00	0	50	104	0	73	27701
2026-01-19 21:35:20.69	7.76	14.23	-51.2	-56.7	3.7	0.00e+00	0	50	104	0	73	27908
2026-01-19 21:35:21.97	7.69	14.40	-51.7	-57.1	3.7	0.00e+00	0	50	104	0	74	27734
2026-01-19 21:35:22.69	7.65	14.49	-51.4	-56.8	3.7	0.00e+00	0	50	104	0	74	26598
2026-01-19 21:35:23.97	7.59	14.67	-51.4	-56.8	3.7	0.00e+00	0	50	104	0	74	26748
2026-01-19 21:35:24.68	7.55	14.76	-51.3	-56.8	3.7	0.00e+00	0	50	104	0	74	26586
2026-01-19 21:35:25.96	7.48	14.93	-51.4	-56.7	3.7	0.00e+00	0	50	104	0	74	26358
2026-01-19 21:35:26.67	7.44	15.03	-51.4	-56.7	3.7	0.00e+00	0	50	104	0	74	26401
2026-01-19 21:35:27.95	7.37	15.21	-51.6	-56.9	3.7	0.00e+00	0	50	104	0	74	26904
2026-01-19 21:35:28.66	7.33	15.30	-51.7	-57.0	3.7	0.00e+00	0	50	104	0	74	27220
2026-01-19 21:35:29.94	7.26	15.48	-51.9	-57.1	3.7	0.00e+00	0	50	104	0	74	27632
2026-01-19 21:35:30.66	7.22	15.58	-51.7	-57.1	3.7	0.00e+00	0	50	104	0	74	27558
2026-01-19 21:35:31.94	7.15	15.76	-51.7	-57.0	3.7	0.00e+00	0	50	104	0	74	27296
2026-01-19 21:35:32.67	7.10	15.87	-51.7	-57.1	3.7	0.00e+00	0	50	104	0	74	27628
2026-01-19 21:35:33.95	7.03	16.05	-52.3	-57.3	3.7	0.00e+00	0	50	104	0	75	26595
2026-01-19 21:35:34.67	6.99	16.16	-51.7	-57.0	3.7	0.00e+00	0	50	104	0	75	25861
2026-01-19 21:35:35.95	6.91	16.34	-52.4	-57.4	3.7	0.00e+00	0	50	104	0	75	27133
2026-01-19 21:35:36.66	6.87	16.45	-51.7	-57.0	3.7	0.00e+00	0	50	104	0	75	25815
2026-01-19 21:35:37.94	6.79	16.64	-52.6	-57.4	3.7	0.00e+00	0	50	104	0	75	27027
2026-01-19 21:35:38.67	6.74	16.74	-52.1	-57.3	3.7	0.00e+00	0	50	104	0	75	26635
2026-01-19 21:35:39.94	6.66	16.93	-52.8	-57.4	3.7	0.00e+00	0	50	104	0	76	25413
2026-01-19 21:35:40.65	6.61	17.04	-52.5	-57.5	3.7	0.00e+00	0	50	104	0	76	25897
2026-01-19 21:35:41.93	6.53	17.24	-52.7	-57.6	3.7	0.00e+00	0	50	104	0	76	26087
2026-01-19 21:35:42.64	6.48	17.35	-52.5	-57.2	3.7	0.00e+00	0	50	104	0	76	24810
2026-01-19 21:35:43.92	6.40	17.55	-52.6	-57.3	3.7	0.00e+00	0	50	104	0	76	25244
2026-01-19 21:35:44.63	6.35	17.66	-52.2	-56.9	3.7	0.00e+00	0	50	104	0	76	24132
2026-01-19 21:35:46.06	6.25	17.88	-52.5	-57.2	3.7	0.00e+00	0	50	104	0	75	26508
2026-01-19 21:35:46.77	6.20	17.99	-52.6	-57.3	3.7	0.00e+00	0	50	104	0	75	26608
2026-01-19 21:35:48.09	6.11	18.21	-52.7	-57.3	3.7	0.00e+00	0	50	104	0	75	26618
2026-01-19 21:35:48.80	6.06	18.32	-52.8	-57.3	3.7	0.00e+00	0	50	104	0	76	25231
2026-01-19 21:35:50.08	5.97	18.53	-52.8	-57.1	3.7	0.00e+00	0	50	104	0	76	24768
2026-01-19 21:35:51.16	5.89	18.71	-52.7	-57.0	3.7	0.00e+00	0	50	104	0	76	24468
2026-01-19 21:35:52.31	5.80	18.90	-51.2	-56.5	3.7	0.00e+00	0	50	104	0	73	27231
2026-01-19 21:35:53.16	5.74	19.04	-51.3	-56.6	3.7	0.00e+00	0	50	104	0	73	27658
2026-01-19 21:35:54.30	5.65	19.23	-51.6	-56.7	3.7	0.00e+00	0	51	104	0	74	26354
2026-01-19 21:35:55.15	5.59	19.38	-51.2	-56.6	3.7	0.00e+00	0	51	104	0	74	26073
2026-01-19 21:35:56.29	5.50	19.57	-51.8	-57.0	3.7	0.00e+00	0	50	104	0	75	25701
2026-01-19 21:35:57.14	5.43	19.72	-51.6	-56.8	3.7	0.00e+00	0	50	104	0	74	26790
2026-01-19 21:35:58.28	5.34	19.92	-51.2	-56.6	3.7	0.00e+00	0	51	104	0	74	26015
2026-01-19 21:35:59.13	5.27	20.07	-51.5	-56.7	3.7	0.00e+00	0	50	104	0	74	26397
2026-01-19 21:36:00.39	5.16	20.29	-52.0	-57.0	3.7	0.00e+00	0	51	104	0	74	27462
2026-01-19 21:36:01.18	5.10	20.43	-52.3	-57.2	3.7	0.00e+00	0	50	104	0	75	26323
2026-01-19 21:36:02.39	4.99	20.65	-52.6	-57.4	3.7	0.00e+00	0	50	104	0	75	26896
2026-01-19 21:36:03.24	4.92	20.81	-52.7	-57.4	3.7	0.00e+00	0	51	104	0	75	27025
2026-01-19 21:36:04.49	4.81	21.04	-52.9	-57.7	3.7	0.00e+00	0	50	104	0	77	25035
2026-01-19 21:36:05.34	4.74	21.20	-52.8	-57.7	3.7	0.00e+00	0	51	104	0	76	26571
2026-01-19 21:36:06.48	4.63	21.41	-53.4	-58.1	3.7	0.00e+00	0	50	104	0	77	26173
2026-01-19 21:36:07.33	4.55	21.57	-53.3	-58.0	3.7	0.00e+00	0	51	104	0	77	25746
2026-01-19 21:36:08.47	4.45	21.79	-53.4	-58.1	3.7	0.00e+00	0	51	104	0	77	26191
2026-01-19 21:36:09.32	4.37	21.95	-53.4	-58.1	3.7	0.00e+00	0	50	104	0	77	26144
2026-01-19 21:36:10.46	4.26	22.17	-53.4	-58.1	3.7	0.00e+00	0	50	104	0	77	26110
2026-01-19 21:36:11.31	4.18	22.34	-53.4	-58.1	3.7	0.00e+00	0	51	104	0	77	26083
2026-01-19 21:36:12.45	4.06	22.57	-53.3	-58.0	3.7	0.00e+00	0	51	104	0	77	25938
2026-01-19 21:36:13.30	3.98	22.74	-53.1	-57.7	3.7	0.00e+00	0	51	104	0	77	25023
2026-01-19 21:36:14.44	3.86	22.97	-52.7	-57.6	3.7	0.00e+00	0	51	104	0	77	24561
2026-01-19 21:36:15.29	3.77	23.14	-52.5	-57.4	3.7	0.00e+00	0	51	104	0	77	24201
2026-01-19 21:36:16.43	3.65	23.38	-53.0	-57.9	3.7	0.00e+00	0	51	104	0	76	26964
2026-01-19 21:36:17.28	3.56	23.55	-53.0	-57.8	3.7	0.00e+00	0	51	104	0	76	26875
2026-01-19 21:36:18.42	3.44	23.79	-53.1	-57.9	3.7	0.00e+00	0	50	104	0	76	27049
2026-01-19 21:36:19.27	3.35	23.97	-53.2	-57.9	3.7	0.00e+00	0	51	104	0	76	27192
2026-01-19 21:36:20.41	3.22	24.21	-53.2	-58.0	3.7	0.00e+00	0	51	104	0	77	25751
2026-01-19 21:36:21.26	3.12	24.40	-53.3	-58.0	3.7	0.00e+00	0	51	104	0	77	25835
2026-01-19 21:36:22.40	2.99	24.65	-53.4	-58.1	3.7	0.00e+00	0	51	104	0	77	26043
2026-01-19 21:36:23.25	2.89	24.83	-53.6	-58.2	3.7	0.00e+00	0	50	104	0	77	26462
2026-01-19 21:36:24.50	2.74	25.11	-53.5	-58.2	3.7	0.00e+00	0	51	104	0	77	26480
2026-01-19 21:36:25.35	2.64	25.30	-53.7	-58.3	3.7	0.00e+00	0	51	104	0	78	25342
2026-01-19 21:36:26.57	2.49	25.58	-53.5	-58.3	3.7	0.00e+00	0	50	104	0	78	25101
2026-01-19 21:36:27.42	2.38	25.77	-53.5	-58.2	3.7	0.00e+00	0	51	104	0	78	24919
2026-01-19 21:36:28.55	2.24	26.04	-53.6	-58.3	3.7	0.00e+00	0	51	104	0	78	25211
2026-01-19 21:36:29.41	2.13	26.24	-53.6	-58.2	3.7	0.00e+00	0	51	104	0	78	24958
2026-01-19 21:36:30.55	1.98	26.51	-53.8	-58.3	3.7	0.00e+00	0	50	104	0	78	25377
2026-01-19 21:36:31.40	1.87	26.71	-53.8	-58.4	3.7	0.00e+00	0	51	104	0	78	25595
2026-01-19 21:36:32.53	1.71	26.98	-54.0	-58.5	3.7	0.00e+00	0	51	104	0	78	25750
2026-01-19 21:36:33.38	1.59	27.19	-54.1	-58.6	3.7	0.00e+00	0	51	104	0	78	25992
2026-01-19 21:36:34.52	1.43	27.47	-53.7	-58.4	3.7	0.00e+00	0	51	104	0	78	25510
2026-01-19 21:36:35.37	1.31	27.68	-53.7	-58.4	3.7	0.00e+00	0	51	104	0	78	25400
2026-01-19 21:36:36.51	1.15	27.97	-53.7	-58.3	3.7	0.00e+00	0	51	104	0	78	25311
2026-01-19 21:36:37.36	1.02	28.18	-53.6	-58.3	3.7	0.00e+00	0	51	104	0	78	25241
2026-01-19 21:36:38.50	0.85	28.47	-53.7	-58.2	3.7	0.00e+00	0	51	104	0	78	25092
2026-01-19 21:36:39.35	0.72	28.69	-53.7	-58.3	3.7	0.00e+00	0	51	104	0	78	25200
2026-01-19 21:36:40.49	0.54	28.99	-53.9	-58.4	3.7	0.00e+00	0	51	104	0	78	25514
2026-01-19 21:36:41.34	0.40	29.22	-53.9	-58.5	3.7	0.00e+00	0	50	104	0	78	25739
2026-01-19 21:36:42.48	0.22	29.52	-53.9	-58.5	3.7	0.00e+00	0	51	104	0	78	25766
2026-01-19 21:36:43.33	0.08	29.75	-53.9	-58.4	3.7	0.00e+00	0	51	104	0	78	25652
2026-01-19 21:36:44.47	359.88	30.06	-53.7	-58.3	3.7	0.00e+00	0	51	104	0	78	25331
2026-01-19 21:36:45.32	359.74	30.29	-53.7	-58.3	3.7	0.00e+00	0	50	104	0	78	25277
2026-01-19 21:36:46.46	359.54	30.61	-53.7	-58.2	3.7	0.00e+00	0	51	104	0	78	25048
2026-01-19 21:36:47.31	359.39	30.85	-53.7	-58.3	3.7	0.00e+00	0	51	104	0	78	25262
2026-01-19 21:36:48.45	359.18	31.18	-53.8	-58.3	3.7	0.00e+00	0	51	104	0	78	25193
2026-01-19 21:36:49.30	359.02	31.42	-53.9	-58.4	3.7	0.00e+00	0	51	104	0	78	25603
2026-01-19 21:36:50.44	358.80	31.75	-53.5	-58.3	3.7	0.00e+00	0	51	104	0	78	25125
2026-01-19 21:36:51.29	358.64	32.00	-53.6	-58.3	3.7	0.00e+00	0	51	104	0	78	25364
2026-01-19 21:36:52.43	358.42	32.34	-53.1	-58.0	3.7	0.00e+00	0	51	104	0	78	24513
2026-01-19 21:36:53.28	358.25	32.59	-53.1	-58.1	3.7	0.00e+00	0	51	104	0	78	24568
2026-01-19 21:36:54.42	358.01	32.94	-53.1	-58.0	3.7	0.00e+00	0	51	104	0	77	25931
2026-01-19 21:36:55.27	357.83	33.20	-53.0	-58.0	3.7	0.00e+00	0	51	104	0	77	25680
2026-01-19 21:36:56.41	357.59	33.55	-53.8	-58.3	3.7	0.00e+00	0	51	104	0	78	25318
2026-01-19 21:36:57.26	357.41	33.82	-53.6	-58.2	3.7	0.00e+00	0	51	104	0	78	24842
2026-01-19 21:36:58.40	357.15	34.18	-53.5	-58.2	3.7	0.00e+00	0	51	104	0	78	24855
2026-01-19 21:36:59.28	356.95	34.46	-53.6	-58.2	3.7	0.00e+00	0	51	104	0	78	24810
2026-01-19 21:37:00.59	356.65	34.88	-53.6	-58.3	3.7	0.00e+00	0	51	104	0	78	25204
2026-01-19 21:37:01.30	356.48	35.11	-53.7	-58.3	3.7	0.00e+00	0	51	104	0	78	25372
2026-01-19 21:37:02.58	356.17	35.53	-53.7	-58.4	3.7	0.00e+00	0	51	104	0	78	25449
2026-01-19 21:37:03.31	355.99	35.78	-53.7	-58.4	3.7	0.00e+00	0	51	104	0	78	25478
2026-01-19 21:37:04.59	355.66	36.21	-53.0	-58.0	3.7	0.00e+00	0	51	104	0	77	25783
2026-01-19 21:37:05.30	355.48	36.45	-52.9	-57.9	3.7	0.00e+00	0	51	104	0	77	25453
2026-01-19 21:37:06.58	355.14	36.89	-52.4	-57.6	3.7	0.00e+00	0	51	104	0	76	26086
2026-01-19 21:37:07.31	354.94	37.14	-52.5	-57.6	3.7	0.00e+00	0	51	104	0	76	26165
2026-01-19 21:37:08.59	354.58	37.59	-53.0	-57.9	3.7	0.00e+00	0	51	104	0	76	27092
2026-01-19 21:37:09.33	354.37	37.85	-53.3	-58.2	3.7	0.00e+00	0	51	104	0	77	26336
2026-01-19 21:37:10.60	354.00	38.31	-54.2	-58.7	3.7	0.00e+00	0	51	104	0	79	24933
2026-01-19 21:37:11.31	353.79	38.57	-54.2	-58.7	3.7	0.00e+00	0	51	104	0	79	24964
2026-01-19 21:37:12.64	353.38	39.05	-53.9	-58.5	3.7	0.00e+00	0	51	104	0	79	24417
2026-01-19 21:37:13.35	353.16	39.31	-53.9	-58.5	3.7	0.00e+00	0	51	104	0	79	24295
2026-01-19 21:37:14.63	352.75	39.79	-54.0	-58.5	3.7	0.00e+00	0	51	104	0	79	24506
2026-01-19 21:37:15.70	352.40	40.19	-53.9	-58.5	3.7	0.00e+00	0	51	104	0	79	24432
2026-01-19 21:37:16.84	352.01	40.63	-53.3	-58.1	3.7	0.00e+00	0	51	104	0	78	24714
2026-01-19 21:37:17.69	351.71	40.95	-53.1	-57.9	3.7	0.00e+00	0	51	104	0	78	24211
2026-01-19 21:37:18.83	351.31	41.39	-53.3	-58.1	3.7	0.00e+00	0	51	104	0	78	24594
2026-01-19 21:37:19.68	351.00	41.73	-53.6	-58.3	3.7	0.00e+00	0	51	104	0	78	25152
2026-01-19 21:37:20.82	350.57	42.18	-53.6	-58.4	3.7	0.00e+00	0	51	104	0	78	25390
2026-01-19 21:37:21.68	350.24	42.52	-53.9	-58.5	3.7	0.00e+00	0	51	104	0	78	25908
2026-01-19 21:37:22.81	349.79	42.97	-53.9	-58.5	3.7	0.00e+00	0	51	104	0	78	25933
2026-01-19 21:37:23.66	349.44	43.32	-53.7	-58.5	3.7	0.00e+00	0	51	104	0	78	25730
2026-01-19 21:37:24.80	348.97	43.78	-53.5	-58.4	3.7	0.00e+00	0	51	104	0	78	25485
2026-01-19 21:37:25.65	348.61	44.13	-53.0	-58.2	3.7	0.00e+00	0	51	104	0	78	24830
2026-01-19 21:37:26.79	348.10	44.61	-52.9	-58.2	3.7	0.00e+00	0	51	104	0	77	26288
2026-01-19 21:37:27.64	347.72	44.96	-53.5	-58.4	3.7	0.00e+00	0	51	104	0	77	26954
2026-01-19 21:37:28.78	347.19	45.44	-53.8	-58.5	3.7	0.00e+00	0	51	104	0	78	25883
2026-01-19 21:37:29.63	346.78	45.80	-54.2	-58.7	3.7	0.00e+00	0	51	104	0	79	24898
2026-01-19 21:37:30.77	346.22	46.29	-54.1	-58.6	3.7	0.00e+00	0	51	104	0	79	24745
2026-01-19 21:37:31.62	345.79	46.65	-54.2	-58.7	3.7	0.00e+00	0	51	104	0	79	24868
2026-01-19 21:37:32.76	345.20	47.14	-54.1	-58.6	3.7	0.00e+00	0	51	104	0	79	24616
2026-01-19 21:37:33.61	344.75	47.51	-53.5	-58.3	3.7	0.00e+00	0	51	104	0	79	23790
2026-01-19 21:37:34.75	344.12	48.01	-53.4	-58.3	3.7	0.00e+00	0	51	104	0	78	25174
2026-01-19 21:37:35.60	343.64	48.38	-53.5	-58.3	3.7	0.00e+00	0	51	104	0	78	25303
2026-01-19 21:37:36.74	342.97	48.88	-53.7	-58.4	3.7	0.00e+00	0	51	104	0	78	25615
2026-01-19 21:37:37.59	342.46	49.26	-54.1	-58.7	3.7	0.00e+00	0	51	104	0	78	26311
2026-01-19 21:37:38.73	341.76	49.76	-54.1	-58.7	3.7	0.00e+00	0	51	104	0	79	24969
2026-01-19 21:37:39.58	341.21	50.14	-54.1	-58.6	3.7	0.00e+00	0	51	104	0	79	24778
2026-01-19 21:37:40.72	340.46	50.65	-53.8	-58.4	3.7	0.00e+00	0	51	104	0	79	24181
2026-01-19 21:37:41.57	339.89	51.03	-53.6	-58.4	3.7	0.00e+00	0	51	104	0	79	23978
2026-01-19 21:37:42.71	339.09	51.54	-53.6	-58.3	3.7	0.00e+00	0	51	104	0	79	23924
2026-01-19 21:37:43.56	338.48	51.92	-54.0	-58.6	3.7	0.00e+00	0	51	104	0	79	24651
2026-01-19 21:37:44.70	337.63	52.43	-54.2	-58.7	3.7	0.00e+00	0	51	104	0	79	24932
2026-01-19 21:37:45.55	336.98	52.81	-54.2	-58.7	3.7	0.00e+00	0	51	104	0	79	24936
2026-01-19 21:37:46.69	336.08	53.32	-54.2	-58.7	3.7	0.00e+00	0	51	104	0	79	24964
2026-01-19 21:37:47.54	335.38	53.69	-53.9	-58.6	3.7	0.00e+00	0	51	104	0	79	24524
2026-01-19 21:37:48.68	334.42	54.20	-53.5	-58.3	3.7	0.00e+00	0	51	104	0	79	23762
2026-01-19 21:37:49.53	333.69	54.57	-53.7	-58.4	3.7	0.00e+00	0	51	104	0	79	24137
2026-01-19 21:37:50.67	332.66	55.07	-53.8	-58.5	3.7	0.00e+00	0	51	104	0	79	24387
2026-01-19 21:37:51.52	331.88	55.44	-53.4	-58.3	3.7	0.00e+00	0	51	104	0	78	25163
2026-01-19 21:37:52.66	330.79	55.93	-53.1	-58.1	3.7	0.00e+00	0	51	104	0	78	24612
2026-01-19 21:37:53.51	329.95	56.30	-53.8	-58.4	3.7	0.00e+00	0	51	104	0	78	25588
2026-01-19 21:37:54.65	328.79	56.78	-53.6	-58.3	3.7	0.00e+00	0	51	104	0	78	25303
2026-01-19 21:37:55.50	327.90	57.13	-53.1	-58.0	3.7	0.00e+00	0	51	104	0	78	24511
2026-01-19 21:37:56.63	326.68	57.60	-54.0	-58.5	3.7	0.00e+00	0	51	104	0	78	25799
2026-01-19 21:37:57.49	325.72	57.94	-53.9	-58.4	3.7	0.00e+00	0	51	104	0	78	25606
2026-01-19 21:37:58.62	324.43	58.39	-53.3	-58.1	3.7	0.00e+00	0	51	104	0	78	24701
2026-01-19 21:37:59.47	323.42	58.72	-53.3	-58.2	3.7	0.00e+00	0	51	104	0	78	24842
2026-01-19 21:38:00.61	322.03	59.16	-54.1	-58.5	3.7	0.00e+00	0	51	104	0	78	25733
2026-01-19 21:38:01.46	320.97	59.47	-53.9	-58.3	3.7	0.00e+00	0	51	104	0	78	25346
2026-01-19 21:38:02.60	319.50	59.88	-53.6	-58.2	3.7	0.00e+00	0	51	104	0	78	24892
2026-01-19 21:38:03.46	318.35	60.18	-53.5	-58.2	3.7	0.00e+00	0	51	104	0	78	24992
2026-01-19 21:38:04.59	316.81	60.57	-53.8	-58.2	3.7	0.00e+00	0	51	104	0	78	24996
2026-01-19 21:38:05.45	315.61	60.85	-54.2	-58.4	3.7	0.00e+00	0	51	104	0	78	25632
2026-01-19 21:38:06.60	313.96	61.20	-54.2	-58.5	3.7	0.00e+00	0	51	104	0	79	24487
2026-01-19 21:38:07.45	312.71	61.46	-54.0	-58.5	3.7	0.00e+00	0	51	104	0	79	24349
2026-01-19 21:38:08.68	310.85	61.80	-54.2	-58.6	3.7	0.00e+00	0	51	104	0	79	24660
2026-01-19 21:38:09.54	309.52	62.03	-54.3	-58.7	3.7	0.00e+00	0	51	104	0	79	25055
2026-01-19 21:38:10.68	307.72	62.31	-54.3	-58.7	3.7	0.00e+00	0	51	104	0	79	25051
2026-01-19 21:38:11.53	306.35	62.51	-54.2	-58.7	3.7	0.00e+00	0	51	104	0	79	24883
2026-01-19 21:38:12.67	304.48	62.75	-54.3	-58.7	3.7	0.00e+00	0	51	104	0	79	24873
2026-01-19 21:38:13.52	303.06	62.91	-54.3	-58.7	3.7	0.00e+00	0	51	104	0	79	24844
2026-01-19 21:38:14.66	301.13	63.11	-54.1	-58.5	3.7	0.00e+00	0	51	104	0	79	24436
2026-01-19 21:38:15.68	299.38	63.26	-54.2	-58.6	3.7	0.00e+00	0	51	104	0	79	24530
2026-01-19 21:38:16.85	297.34	63.41	-54.2	-58.5	3.7	0.00e+00	0	51	104	0	79	24256
2026-01-19 21:38:17.74	295.78	63.50	-54.3	-58.6	3.7	0.00e+00	0	51	104	0	79	24643
2026-01-19 21:38:18.87	293.77	63.59	-54.3	-58.6	3.7	0.00e+00	0	51	104	0	79	24660
2026-01-19 21:38:19.79	292.13	63.65	-53.7	-58.2	3.7	0.00e+00	0	51	104	0	79	23501
2026-01-19 21:38:20.97	290.01	63.69	-53.6	-58.1	3.7	0.00e+00	0	51	104	0	79	23210
2026-01-19 21:38:21.84	288.45	63.70	-53.7	-58.1	3.7	0.00e+00	0	51	104	0	79	23253
2026-01-19 21:38:22.98	286.40	63.69	-53.7	-58.1	3.7	0.00e+00	0	51	104	0	79	23181
2026-01-19 21:38:23.83	284.88	63.66	-54.0	-58.4	3.7	0.00e+00	0	51	104	0	79	24239
2026-01-19 21:38:24.96	282.86	63.60	-54.1	-58.3	3.7	0.00e+00	0	51	104	0	79	23924
2026-01-19 21:38:25.82	281.33	63.53	-54.1	-58.5	3.7	0.00e+00	0	51	104	0	79	24461
2026-01-19 21:38:26.95	279.34	63.42	-54.0	-58.5	3.7	0.00e+00	0	51	104	0	79	24493
2026-01-19 21:38:27.81	277.83	63.31	-53.9	-58.4	3.7	0.00e+00	0	51	104	0	79	24218
2026-01-19 21:38:28.94	275.88	63.15	-53.8	-58.4	3.7	0.00e+00	0	51	104	0	79	24066
2026-01-19 21:38:29.79	274.43	63.01	-53.8	-58.4	3.7	0.00e+00	0	51	104	0	79	24145
2026-01-19 21:38:30.93	272.52	62.80	-54.3	-58.7	3.7	0.00e+00	0	51	104	0	79	25082
2026-01-19 21:38:31.78	271.11	62.63	-54.3	-58.7	3.7	0.00e+00	0	51	104	0	79	25007
2026-01-19 21:38:32.94	269.23	62.37	-54.2	-58.7	3.7	0.00e+00	0	51	104	0	79	25037
2026-01-19 21:38:33.79	267.87	62.16	-54.2	-58.8	3.7	0.00e+00	0	51	104	0	79	25108
2026-01-19 21:38:34.99	266.00	61.85	-54.0	-58.6	3.7	0.00e+00	0	51	104	0	79	24698
2026-01-19 21:38:35.84	264.71	61.62	-53.9	-58.5	3.7	0.00e+00	0	51	104	0	79	24518
2026-01-19 21:38:36.98	263.01	61.29	-53.6	-58.4	3.7	0.00e+00	0	51	104	0	79	24163
2026-01-19 21:38:37.83	261.77	61.03	-53.3	-58.3	3.7	0.00e+00	0	51	104	0	78	25169
2026-01-19 21:38:39.10	259.97	60.62	-54.0	-58.6	3.7	0.00e+00	0	51	104	0	78	26106
2026-01-19 21:38:39.84	258.95	60.37	-53.8	-58.5	3.7	0.00e+00	0	51	104	0	78	25793
2026-01-19 21:38:41.12	257.23	59.93	-54.0	-58.6	3.7	0.00e+00	0	51	104	0	78	26025
2026-01-19 21:38:41.83	256.31	59.68	-54.1	-58.7	3.7	0.00e+00	0	51	104	0	78	26476
2026-01-19 21:38:43.11	254.68	59.20	-54.1	-58.5	3.7	0.00e+00	0	51	104	0	78	25899
2026-01-19 21:38:43.88	253.73	58.91	-54.0	-58.5	3.7	0.00e+00	0	51	104	0	78	25866
2026-01-19 21:38:45.16	252.20	58.42	-54.1	-58.6	3.7	0.00e+00	0	51	104	0	78	26228
2026-01-19 21:38:45.87	251.38	58.14	-54.2	-58.7	3.7	0.00e+00	0	51	104	0	79	25013
2026-01-19 21:38:47.15	249.94	57.62	-54.3	-58.7	3.7	0.00e+00	0	51	104	0	79	24905
2026-01-19 21:38:47.86	249.16	57.33	-54.3	-58.7	3.7	0.00e+00	0	51	104	0	79	25068
2026-01-19 21:38:49.14	247.81	56.79	-54.3	-58.7	3.7	0.00e+00	0	51	104	0	79	24975
2026-01-19 21:38:49.86	247.07	56.49	-54.3	-58.7	3.7	0.00e+00	0	51	104	0	79	24987
2026-01-19 21:38:51.13	245.80	55.95	-54.0	-58.6	3.7	0.00e+00	0	51	104	0	79	24608
2026-01-19 21:38:52.16	244.81	55.50	-54.0	-58.6	3.7	0.00e+00	0	51	104	0	79	24642
2026-01-19 21:38:53.45	243.62	54.94	-54.4	-58.8	3.7	0.00e+00	0	51	104	0	79	25197
2026-01-19 21:38:54.19	242.96	54.61	-54.2	-58.7	3.7	0.00e+00	0	51	104	0	79	25041
2026-01-19 21:38:55.47	241.84	54.05	-54.2	-58.6	3.7	0.00e+00	0	51	104	0	79	24673
2026-01-19 21:38:56.18	241.25	53.73	-54.2	-58.6	3.7	0.00e+00	0	51	104	0	79	24785
2026-01-19 21:38:57.46	240.20	53.16	-53.9	-58.6	3.7	0.00e+00	0	51	104	0	79	24540
2026-01-19 21:38:58.19	239.63	52.84	-53.9	-58.5	3.7	0.00e+00	0	51	104	0	79	24369
2026-01-19 21:38:59.47	238.65	52.26	-53.8	-58.4	3.7	0.00e+00	0	51	104	0	79	24107
2026-01-19 21:39:00.21	238.10	51.93	-53.7	-58.3	3.7	0.00e+00	0	51	104	0	79	23922
2026-01-19 21:39:01.48	237.18	51.36	-53.7	-58.4	3.7	0.00e+00	0	51	104	0	79	24103
2026-01-19 21:39:02.19	236.69	51.04	-53.9	-58.4	3.7	0.00e+00	0	51	104	0	79	24171
2026-01-19 21:39:03.47	235.82	50.47	-54.2	-58.6	3.7	0.00e+00	0	51	104	0	79	24623
2026-01-19 21:39:04.20	235.34	50.14	-54.2	-58.6	3.7	0.00e+00	0	51	104	0	79	24566
2026-01-19 21:39:05.52	234.50	49.55	-54.3	-58.8	3.7	0.00e+00	0	51	104	0	79	25176
2026-01-19 21:39:06.24	234.06	49.23	-54.4	-58.8	3.7	0.00e+00	0	51	104	0	79	25271
2026-01-19 21:39:07.58	233.25	48.64	-54.4	-58.8	3.7	0.00e+00	0	51	104	0	79	25267
2026-01-19 21:39:08.54	232.70	48.21	-54.3	-58.7	3.7	0.00e+00	0	51	104	0	79	24955
2026-01-19 21:39:09.54	232.14	47.77	-54.4	-58.7	3.7	0.00e+00	0	51	104	0	79	25054
2026-01-19 21:39:10.53	231.60	47.34	-54.1	-58.6	3.7	0.00e+00	0	51	104	0	79	24668
2026-01-19 21:39:11.53	231.07	46.91	-53.7	-58.4	3.7	0.00e+00	0	51	104	0	79	24144
2026-01-19 21:39:12.52	230.56	46.48	-53.5	-58.3	3.7	0.00e+00	0	51	104	0	79	23795
2026-01-19 21:39:13.52	230.05	46.05	-53.6	-58.3	3.7	0.00e+00	0	51	104	0	78	25334
2026-01-19 21:39:14.52	229.57	45.62	-53.7	-58.3	3.7	0.00e+00	0	51	104	0	78	25286
2026-01-19 21:39:15.51	229.10	45.20	-54.0	-58.5	3.7	0.00e+00	0	51	104	0	78	25727
2026-01-19 21:39:16.55	228.62	44.76	-54.0	-58.4	3.7	0.00e+00	0	51	104	0	78	25636
2026-01-19 21:39:17.55	228.17	44.35	-54.0	-58.4	3.7	0.00e+00	0	51	104	0	78	25643
2026-01-19 21:39:18.55	227.74	43.93	-54.2	-58.6	3.7	0.00e+00	0	51	104	0	79	24764
2026-01-19 21:39:19.54	227.32	43.52	-54.3	-58.6	3.7	0.00e+00	0	51	104	0	79	24667
2026-01-19 21:39:20.54	226.90	43.11	-54.2	-58.5	3.7	0.00e+00	0	51	104	0	79	24493
2026-01-19 21:39:21.53	226.50	42.71	-54.0	-58.3	3.7	0.00e+00	0	51	104	0	79	23929
2026-01-19 21:39:22.52	226.12	42.31	-53.9	-58.4	3.7	0.00e+00	0	51	104	0	79	24019
2026-01-19 21:39:23.52	225.73	41.92	-54.0	-58.3	3.7	0.00e+00	0	51	104	0	79	23914
2026-01-19 21:39:24.51	225.37	41.53	-54.0	-58.3	3.7	0.00e+00	0	51	104	0	79	23915
2026-01-19 21:39:25.51	225.00	41.13	-54.1	-58.5	3.7	0.00e+00	0	51	104	0	79	24455
2026-01-19 21:39:26.50	224.65	40.75	-54.0	-58.5	3.7	0.00e+00	0	51	104	0	79	24306
2026-01-19 21:39:27.50	224.31	40.37	-53.8	-58.4	3.7	0.00e+00	0	51	104	0	79	24063
2026-01-19 21:39:28.49	223.97	39.99	-53.7	-58.3	3.7	0.00e+00	0	51	104	0	79	23944
2026-01-19 21:39:29.48	223.65	39.61	-54.1	-58.6	3.7	0.00e+00	0	51	104	0	79	24717
2026-01-19 21:39:30.48	223.33	39.24	-54.1	-58.6	3.7	0.00e+00	0	51	104	0	79	24573
2026-01-19 21:39:31.47	223.02	38.87	-54.1	-58.5	3.7	0.00e+00	0	51	104	0	79	24513
2026-01-19 21:39:32.48	222.71	38.50	-54.1	-58.5	3.7	0.00e+00	0	51	104	0	79	24459
2026-01-19 21:39:33.48	222.41	38.14	-54.1	-58.6	3.7	0.00e+00	0	51	104	0	79	24530
2026-01-19 21:39:34.54	222.10	37.76	-54.1	-58.6	3.7	0.00e+00	0	51	104	0	79	24598
2026-01-19 21:39:35.40	221.86	37.46	-54.1	-58.6	3.7	0.00e+00	0	51	104	0	79	24588
2026-01-19 21:39:36.54	221.54	37.05	-54.1	-58.5	3.7	0.00e+00	0	51	104	0	79	24503
2026-01-19 21:39:37.40	221.31	36.75	-54.1	-58.6	3.7	0.00e+00	0	51	104	0	79	24691
2026-01-19 21:39:38.53	221.00	36.36	-54.2	-58.7	3.7	0.00e+00	0	51	104	0	79	24869
2026-01-19 21:39:39.39	220.78	36.07	-54.1	-58.6	3.7	0.00e+00	0	51	104	0	79	24660
2026-01-19 21:39:40.52	220.49	35.69	-54.0	-58.6	3.7	0.00e+00	0	51	104	0	79	24548
2026-01-19 21:39:41.38	220.28	35.40	-54.0	-58.6	3.7	0.00e+00	0	51	104	0	79	24524
2026-01-19 21:39:42.51	220.00	35.03	-54.0	-58.5	3.7	0.00e+00	0	51	104	0	79	24467
2026-01-19 21:39:43.37	219.80	34.75	-53.9	-58.5	3.7	0.00e+00	0	51	104	0	79	24339
2026-01-19 21:39:44.51	219.53	34.38	-53.9	-58.5	3.7	0.00e+00	0	51	104	0	79	24261
2026-01-19 21:39:45.36	219.34	34.10	-53.9	-58.5	3.7	0.00e+00	0	51	104	0	79	24327
2026-01-19 21:39:46.50	219.08	33.74	-53.8	-58.4	3.7	0.00e+00	0	51	104	0	79	24094
2026-01-19 21:39:47.35	218.90	33.47	-53.8	-58.4	3.7	0.00e+00	0	51	104	0	79	24139
2026-01-19 21:39:48.52	218.65	33.11	-53.8	-58.4	3.7	0.00e+00	0	51	104	0	79	24013
2026-01-19 21:39:49.37	218.47	32.85	-54.0	-58.5	3.7	0.00e+00	0	51	104	0	79	24478
2026-01-19 21:39:50.57	218.22	32.48	-53.9	-58.4	3.7	0.00e+00	0	51	104	0	79	24183
2026-01-19 21:39:51.43	218.05	32.23	-53.7	-58.3	3.7	0.00e+00	0	51	104	0	79	23905
2026-01-19 21:39:52.56	217.83	31.89	-53.6	-58.2	3.7	0.00e+00	0	51	104	0	79	23641
2026-01-19 21:39:53.42	217.66	31.64	-53.6	-58.2	3.7	0.00e+00	0	51	104	0	79	23498
2026-01-19 21:39:54.55	217.45	31.31	-53.5	-58.1	3.7	0.00e+00	0	51	104	0	79	23268
2026-01-19 21:39:55.41	217.29	31.06	-53.6	-58.1	3.7	0.00e+00	0	51	104	0	79	23266
2026-01-19 21:39:56.54	217.08	30.74	-53.7	-58.2	3.7	0.00e+00	0	51	104	0	79	23421
2026-01-19 21:39:57.40	216.92	30.49	-53.8	-58.2	3.7	0.00e+00	0	51	104	0	79	23653
2026-01-19 21:39:58.53	216.73	30.18	-53.9	-58.3	3.7	0.00e+00	0	51	104	0	79	23743
2026-01-19 21:39:59.38	216.58	29.94	-53.9	-58.3	3.7	0.00e+00	0	51	104	0	79	23757
2026-01-19 21:40:00.52	216.39	29.63	-53.9	-58.3	3.7	0.00e+00	0	51	104	0	79	23840
2026-01-19 21:40:01.37	216.25	29.40	-53.8	-58.3	3.7	0.00e+00	0	51	104	0	79	23693
2026-01-19 21:40:02.51	216.06	29.09	-53.8	-58.1	3.7	0.00e+00	0	51	104	0	79	23362
2026-01-19 21:40:03.36	215.92	28.87	-53.8	-58.1	3.7	0.00e+00	0	51	104	0	79	23278
2026-01-19 21:40:04.50	215.74	28.57	-53.7	-58.1	3.7	0.00e+00	0	51	104	0	79	23235
2026-01-19 21:40:05.35	215.61	28.35	-53.7	-58.1	3.7	0.00e+00	0	51	104	0	79	23163
2026-01-19 21:40:06.58	215.43	28.03	-53.8	-58.3	3.7	0.00e+00	0	51	104	0	79	23838
2026-01-19 21:40:07.44	215.30	27.81	-53.9	-58.3	3.7	0.00e+00	0	51	104	0	79	23955
2026-01-19 21:40:08.58	215.13	27.53	-53.8	-58.3	3.7	0.00e+00	0	51	104	0	79	23913
2026-01-19 21:40:09.43	215.01	27.31	-53.9	-58.4	3.7	0.00e+00	0	51	104	0	79	23997
2026-01-19 21:40:10.57	214.85	27.03	-53.9	-58.4	3.7	0.00e+00	0	51	104	0	79	24159
2026-01-19 21:40:11.42	214.73	26.83	-53.9	-58.4	3.7	0.00e+00	0	51	104	0	79	24180
2026-01-19 21:40:12.56	214.58	26.55	-53.9	-58.4	3.7	0.00e+00	0	51	104	0	79	24099
2026-01-19 21:40:13.41	214.46	26.35	-53.8	-58.4	3.7	0.00e+00	0	51	104	0	79	24089
2026-01-19 21:40:14.55	214.31	26.08	-53.7	-58.1	3.7	0.00e+00	0	51	104	0	79	23241
2026-01-19 21:40:15.40	214.20	25.88	-53.6	-58.1	3.7	0.00e+00	0	51	104	0	79	23222
2026-01-19 21:40:16.54	214.06	25.61	-53.7	-58.1	3.7	0.00e+00	0	51	104	0	79	23296
2026-01-19 21:40:17.39	213.95	25.42	-53.6	-58.1	3.7	0.00e+00	0	51	104	0	79	23259
2026-01-19 21:40:18.53	213.81	25.16	-53.7	-58.2	3.7	0.00e+00	0	51	104	0	79	23623
2026-01-19 21:40:19.38	213.70	24.97	-53.7	-58.2	3.7	0.00e+00	0	51	104	0	79	23605
2026-01-19 21:40:20.52	213.57	24.71	-53.7	-58.2	3.7	0.00e+00	0	51	104	0	79	23664
2026-01-19 21:40:21.37	213.47	24.52	-53.7	-58.3	3.7	0.00e+00	0	51	104	0	79	23718
2026-01-19 21:40:22.51	213.34	24.27	-53.7	-58.2	3.7	0.00e+00	0	51	104	0	79	23440
2026-01-19 21:40:23.36	213.24	24.09	-53.6	-58.1	3.7	0.00e+00	0	51	104	0	79	23328
2026-01-19 21:40:24.50	213.11	23.85	-53.7	-58.2	3.7	0.00e+00	0	51	104	0	79	23498
2026-01-19 21:40:25.35	213.02	23.66	-53.6	-58.1	3.7	0.00e+00	0	51	104	0	79	23215
2026-01-19 21:40:26.48	212.89	23.43	-53.6	-58.2	3.7	0.00e+00	0	51	104	0	79	23499
2026-01-19 21:40:27.34	212.80	23.25	-53.7	-58.2	3.7	0.00e+00	0	51	104	0	79	23556
2026-01-19 21:40:28.47	212.68	23.01	-53.6	-58.1	3.7	0.00e+00	0	51	104	0	79	23280
2026-01-19 21:40:29.42	212.58	22.82	-53.7	-58.2	3.7	0.00e+00	0	51	104	0	79	23568
2026-01-19 21:40:30.42	212.48	22.62	-53.7	-58.2	3.7	0.00e+00	0	51	104	0	79	23635
2026-01-19 21:40:31.41	212.38	22.42	-53.7	-58.2	3.7	0.00e+00	0	51	104	0	79	23616
2026-01-19 21:40:32.41	212.28	22.22	-53.7	-58.2	3.7	0.00e+00	0	51	104	0	79	23539
2026-01-19 21:40:33.40	212.19	22.02	-53.7	-58.2	3.7	0.00e+00	0	51	104	0	79	23428
2026-01-19 21:40:34.40	212.09	21.83	-53.7	-58.3	3.7	0.00e+00	0	51	104	0	79	23845
2026-01-19 21:40:35.39	211.99	21.64	-53.7	-58.1	3.7	0.00e+00	0	51	104	0	79	23415
2026-01-19 21:40:36.39	211.90	21.44	-53.7	-58.2	3.7	0.00e+00	0	51	104	0	79	23546
2026-01-19 21:40:37.38	211.81	21.26	-53.5	-58.0	3.7	0.00e+00	0	52	104	0	79	23126
2026-01-19 21:40:38.38	211.72	21.07	-53.6	-58.1	3.6	0.00e+00	0	51	104	0	79	23364
2026-01-19 21:40:39.40	211.63	20.88	-53.4	-58.0	3.7	0.00e+00	0	51	104	0	78	24456
2026-01-19 21:40:40.44	211.53	20.69	-53.4	-58.0	3.7	0.00e+00	0	51	104	0	78	24291
2026-01-19 21:40:41.42	211.45	20.51	-53.4	-58.0	3.7	0.00e+00	0	51	104	0	78	24266
2026-01-19 21:40:42.42	211.36	20.32	-53.5	-58.2	3.7	0.00e+00	0	51	104	0	78	24885
2026-01-19 21:40:43.41	211.28	20.15	-53.7	-58.2	3.7	0.00e+00	0	51	104	0	78	25069
2026-01-19 21:40:44.41	211.20	19.97	-53.5	-58.1	3.7	0.00e+00	0	51	104	0	78	24662
2026-01-19 21:40:45.40	211.11	19.79	-53.7	-58.2	3.7	0.00e+00	0	51	104	0	78	25077
2026-01-19 21:40:46.40	211.03	19.62	-53.7	-58.2	3.7	0.00e+00	0	51	104	0	78	24930
2026-01-19 21:40:47.40	210.95	19.44	-53.7	-58.1	3.7	0.00e+00	0	51	104	0	78	24796
2026-01-19 21:40:48.39	210.87	19.27	-53.8	-58.3	3.7	0.00e+00	0	51	104	0	78	25101
2026-01-19 21:40:49.39	210.80	19.10	-53.7	-58.1	3.7	0.00e+00	0	51	104	0	78	24581
2026-01-19 21:40:50.38	210.72	18.93	-53.7	-58.1	3.7	0.00e+00	0	51	104	0	78	24771
2026-01-19 21:40:51.38	210.64	18.76	-53.7	-58.1	3.7	0.00e+00	0	51	104	0	78	24747
2026-01-19 21:40:52.38	210.57	18.60	-53.7	-58.1	3.7	0.00e+00	0	51	104	0	78	24595
2026-01-19 21:40:53.37	210.49	18.43	-53.8	-58.1	3.7	0.00e+00	0	51	104	0	78	24781
2026-01-19 21:40:54.37	210.42	18.27	-53.8	-58.2	3.7	0.00e+00	0	51	104	0	78	24987
2026-01-19 21:40:55.37	210.35	18.11	-53.8	-58.3	3.7	0.00e+00	0	51	104	0	78	25167
2026-01-19 21:40:56.36	210.28	17.95	-53.8	-58.2	3.7	0.00e+00	0	51	104	0	78	24856
2026-01-19 21:40:57.36	210.21	17.79	-53.8	-58.3	3.7	0.00e+00	0	51	104	0	78	25120
2026-01-19 21:40:58.35	210.14	17.63	-53.9	-58.3	3.7	0.00e+00	0	51	104	0	78	25302
2026-01-19 21:40:59.35	210.07	17.47	-53.8	-58.2	3.6	0.00e+00	0	51	104	0	78	25081
2026-01-19 21:41:00.34	210.00	17.32	-53.8	-58.3	3.7	0.00e+00	0	51	104	0	78	25200
2026-01-19 21:41:01.34	209.94	17.16	-53.8	-58.2	3.7	0.00e+00	0	51	104	0	78	24879
2026-01-19 21:41:02.34	209.87	17.01	-53.8	-58.2	3.7	0.00e+00	0	51	104	0	78	24951
2026-01-19 21:41:03.33	209.81	16.86	-53.6	-58.0	3.7	0.00e+00	0	51	104	0	78	24480
2026-01-19 21:41:04.33	209.74	16.71	-53.8	-58.2	3.7	0.00e+00	0	51	104	0	78	24869
2026-01-19 21:41:05.32	209.68	16.56	-53.5	-58.0	3.7	0.00e+00	0	51	104	0	78	24267
2026-01-19 21:41:06.32	209.61	16.41	-53.6	-58.0	3.7	0.00e+00	0	51	104	0	78	24462
2026-01-19 21:41:07.31	209.55	16.26	-53.5	-58.0	3.7	0.00e+00	0	51	104	0	78	24416
2026-01-19 21:41:08.31	209.49	16.11	-53.5	-57.9	3.7	0.00e+00	0	51	104	0	78	24229
2026-01-19 21:41:09.30	209.43	15.97	-53.5	-58.0	3.7	0.00e+00	0	51	104	0	78	24321
2026-01-19 21:41:10.30	209.37	15.83	-53.6	-58.0	3.7	0.00e+00	0	51	104	0	78	24336
2026-01-19 21:41:11.30	209.31	15.68	-53.6	-58.1	3.7	0.00e+00	0	51	104	0	78	24749
2026-01-19 21:41:12.34	209.25	15.53	-53.6	-58.0	3.7	0.00e+00	0	51	104	0	78	24436
2026-01-19 21:41:13.33	209.19	15.39	-53.6	-58.1	3.7	0.00e+00	0	51	104	0	78	24701
2026-01-19 21:41:14.33	209.14	15.25	-53.6	-58.1	3.7	0.00e+00	0	51	104	0	78	24528
2026-01-19 21:41:15.32	209.08	15.12	-53.5	-58.0	3.7	0.00e+00	0	51	104	0	78	24371
2026-01-19 21:41:16.44	209.02	14.96	-53.6	-58.1	3.7	0.00e+00	0	51	104	0	78	24722
2026-01-19 21:41:17.33	208.97	14.84	-53.5	-58.0	3.7	0.00e+00	0	51	104	0	78	24300
2026-01-19 21:41:18.46	208.91	14.68	-53.5	-58.0	3.7	0.00e+00	0	52	104	0	78	24333
2026-01-19 21:41:19.32	208.86	14.57	-53.4	-57.9	3.7	0.00e+00	0	51	104	0	78	24085
2026-01-19 21:41:20.45	208.80	14.42	-53.5	-57.9	3.7	0.00e+00	0	51	104	0	78	24214
2026-01-19 21:41:21.31	208.75	14.30	-53.4	-57.8	3.7	0.00e+00	0	51	104	0	78	23897
2026-01-19 21:41:22.45	208.69	14.15	-53.4	-57.9	3.7	0.00e+00	0	51	104	0	78	24065
2026-01-19 21:41:23.30	208.65	14.04	-53.3	-57.8	3.7	0.00e+00	0	51	104	0	78	23915
2026-01-19 21:41:24.44	208.59	13.89	-53.4	-57.9	3.7	0.00e+00	0	51	104	0	78	24009
2026-01-19 21:41:25.29	208.55	13.78	-53.3	-57.8	3.7	0.00e+00	0	51	104	0	78	23840
2026-01-19 21:41:26.43	208.49	13.63	-53.4	-57.9	3.7	0.00e+00	0	51	104	0	78	24134
2026-01-19 21:41:27.28	208.45	13.52	-53.3	-57.8	3.7	0.00e+00	0	51	104	0	78	23934
2026-01-19 21:41:28.42	208.40	13.38	-53.3	-57.8	3.7	0.00e+00	0	51	104	0	78	23880
2026-01-19 21:41:29.27	208.35	13.27	-53.3	-57.8	3.7	0.00e+00	0	51	104	0	78	23894
2026-01-19 21:41:30.41	208.30	13.13	-53.3	-57.9	3.7	0.00e+00	0	51	104	0	78	24002
2026-01-19 21:41:31.26	208.26	13.02	-53.4	-57.9	3.7	0.00e+00	0	51	104	0	78	24075
2026-01-19 21:41:32.52	208.20	12.87	-53.3	-57.8	3.7	0.00e+00	0	51	104	0	78	23829
2026-01-19 21:41:33.31	208.16	12.77	-53.4	-57.9	3.7	0.00e+00	0	51	104	0	78	24031
2026-01-19 21:41:34.53	208.11	12.62	-53.3	-57.8	3.7	0.00e+00	0	51	104	0	78	23853
2026-01-19 21:41:35.38	208.07	12.52	-53.3	-57.9	3.7	0.00e+00	0	51	104	0	78	23990
2026-01-19 21:41:36.52	208.02	12.38	-53.4	-57.9	3.7	0.00e+00	0	51	104	0	78	24167
2026-01-19 21:41:37.37	207.98	12.28	-53.4	-57.9	3.7	0.00e+00	0	51	104	0	78	24058
2026-01-19 21:41:38.51	207.93	12.14	-53.1	-57.8	3.7	0.00e+00	0	51	104	0	78	23719
2026-01-19 21:41:39.36	207.89	12.04	-53.1	-57.7	3.7	0.00e+00	0	51	104	0	77	25008
2026-01-19 21:41:40.50	207.84	11.91	-53.3	-57.8	3.7	0.00e+00	0	51	104	0	77	25341
2026-01-19 21:41:41.35	207.81	11.81	-53.0	-57.7	3.7	0.00e+00	0	51	104	0	77	25025
2026-01-19 21:41:42.49	207.76	11.68	-52.9	-57.6	3.7	0.00e+00	0	52	104	0	77	24601
2026-01-19 21:41:43.34	207.73	11.58	-52.8	-57.5	3.7	0.00e+00	0	51	104	0	77	24343
2026-01-19 21:41:44.48	207.68	11.45	-53.0	-57.7	3.7	0.00e+00	0	51	104	0	77	25028
2026-01-19 21:41:45.33	207.64	11.35	-52.8	-57.5	3.7	0.00e+00	0	51	104	0	77	24335
2026-01-19 21:41:46.47	207.60	11.22	-52.8	-57.5	3.7	0.00e+00	0	51	104	0	77	24278
2026-01-19 21:41:47.32	207.56	11.13	-52.7	-57.4	3.7	0.00e+00	0	51	104	0	77	24227
2026-01-19 21:41:48.46	207.52	11.00	-52.8	-57.4	3.7	0.00e+00	0	51	104	0	77	24200
2026-01-19 21:41:49.31	207.48	10.91	-52.7	-57.4	3.7	0.00e+00	0	51	104	0	77	24118
2026-01-19 21:41:50.45	207.44	10.78	-52.8	-57.5	3.7	0.00e+00	0	51	104	0	77	24347
2026-01-19 21:41:51.40	207.40	10.68	-52.7	-57.4	3.7	0.00e+00	0	51	104	0	77	24019
2026-01-19 21:41:52.39	207.37	10.57	-52.7	-57.5	3.7	0.00e+00	0	51	104	0	77	24253
2026-01-19 21:41:53.39	207.33	10.46	-52.6	-57.4	3.7	0.00e+00	0	51	104	0	77	23992
2026-01-19 21:41:54.38	207.29	10.35	-52.7	-57.4	3.7	0.00e+00	0	51	104	0	77	24140
2026-01-19 21:41:55.38	207.25	10.24	-52.5	-57.3	3.7	0.00e+00	0	51	104	0	76	25260
2026-01-19 21:41:56.37	207.22	10.14	-52.6	-57.4	3.7	0.00e+00	0	51	104	0	76	25406
2026-01-19 21:41:57.37	207.18	10.03	-52.5	-57.3	3.7	0.00e+00	0	51	104	0	76	25216
2026-01-19 21:41:58.36	207.15	9.93	-52.4	-57.2	3.7	0.00e+00	0	51	104	0	76	25001
2026-01-19 21:41:59.36	207.11	9.82	-52.1	-57.0	3.7	0.00e+00	0	51	104	0	76	24417
2026-01-19 21:42:00.35	207.08	9.72	-52.5	-57.3	3.7	0.00e+00	0	51	104	0	76	25238
2026-01-19 21:42:01.35	207.04	9.62	-52.2	-57.0	3.7	0.00e+00	0	51	104	0	76	24482
2026-01-19 21:42:02.34	207.01	9.51	-52.1	-56.9	3.7	0.00e+00	0	51	104	0	76	24171
2026-01-19 21:42:03.34	206.97	9.41	-52.1	-56.9	3.7	0.00e+00	0	51	104	0	76	24123
2026-01-19 21:42:04.33	206.94	9.31	-52.2	-57.1	3.7	0.00e+00	0	51	104	0	76	24688
2026-01-19 21:42:05.36	206.90	9.21	-52.2	-56.9	3.7	0.00e+00	0	51	104	0	76	24088
2026-01-19 21:42:06.36	206.87	9.11	-52.1	-56.9	3.7	0.00e+00	0	51	104	0	76	24133
2026-01-19 21:42:07.35	206.84	9.01	-52.1	-56.7	3.7	0.00e+00	0	51	104	0	76	23680
2026-01-19 21:42:08.34	206.81	8.91	-52.9	-57.6	3.7	0.00e+00	0	51	104	0	76	26034
2026-01-19 21:42:09.34	206.77	8.81	-53.7	-58.2	3.7	0.00e+00	0	51	104	0	78	24871
2026-01-19 21:42:10.33	206.74	8.71	-53.7	-58.2	3.7	0.00e+00	0	51	104	0	78	24853
2026-01-19 21:42:11.32	206.71	8.61	-53.7	-58.2	3.7	0.00e+00	0	51	104	0	78	24813
2026-01-19 21:42:12.32	206.68	8.51	-53.6	-58.2	3.7	0.00e+00	0	51	104	0	78	24989
2026-01-19 21:42:13.31	206.65	8.42	-54.1	-58.6	3.7	0.00e+00	0	51	104	0	78	25987
2026-01-19 21:42:14.30	206.62	8.32	-53.7	-58.3	3.7	0.00e+00	0	51	104	0	78	25239
2026-01-19 21:42:15.30	206.59	8.23	-54.1	-58.6	3.7	0.00e+00	0	51	104	0	78	26237
2026-01-19 21:42:16.29	206.56	8.13	-54.2	-58.6	3.7	0.00e+00	0	51	104	0	79	24693
2026-01-19 21:42:17.31	206.53	8.03	-54.3	-58.7	3.7	0.00e+00	0	51	104	0	79	24863
2026-01-19 21:42:18.34	206.49	7.94	-54.3	-58.8	3.7	0.00e+00	0	51	104	0	79	25256
2026-01-19 21:42:19.37	206.46	7.84	-53.9	-58.5	3.7	0.00e+00	0	51	104	0	79	24455
2026-01-19 21:42:20.39	206.43	7.74	-53.3	-58.2	3.7	0.00e+00	0	51	104	0	78	25054
2026-01-19 21:42:21.40	206.40	7.65	-54.2	-58.6	3.7	0.00e+00	0	51	104	0	79	24679
2026-01-19 21:42:22.45	206.37	7.55	-54.0	-58.5	3.7	0.00e+00	0	51	104	0	79	24492
2026-01-19 21:42:23.38	206.35	7.46	-53.5	-58.3	3.7	0.00e+00	0	51	104	0	78	25359
2026-01-19 21:42:24.50	206.32	7.36	-54.3	-58.8	3.7	0.00e+00	0	51	104	0	79	25173
2026-01-19 21:42:25.39	206.29	7.28	-54.3	-58.7	3.6	0.00e+00	0	51	104	0	79	24861
2026-01-19 21:42:26.70	206.25	7.16	-53.7	-58.1	3.7	0.00e+00	0	51	104	0	78	24770
2026-01-19 21:42:27.41	206.24	7.10	-53.6	-58.3	3.7	0.00e+00	0	51	104	0	78	25375
2026-01-19 21:42:28.68	206.20	6.98	-53.2	-57.9	3.7	0.00e+00	0	51	104	0	78	24078
2026-01-19 21:42:29.39	206.18	6.92	-53.3	-57.9	3.7	0.00e+00	0	51	104	0	78	24142
2026-01-19 21:42:30.67	206.15	6.80	-53.3	-57.9	3.7	0.00e+00	0	51	104	0	78	24146
2026-01-19 21:42:31.38	206.13	6.74	-53.3	-57.9	3.7	0.00e+00	0	51	104	0	78	24185
2026-01-19 21:42:32.66	206.09	6.63	-53.3	-58.0	3.7	0.00e+00	0	51	104	0	78	24243
2026-01-19 21:42:33.37	206.08	6.56	-53.3	-57.9	3.7	0.00e+00	0	51	104	0	78	24167
2026-01-19 21:42:34.64	206.04	6.45	-53.3	-57.9	3.7	0.00e+00	0	51	104	0	78	24123
2026-01-19 21:42:35.37	206.02	6.39	-53.3	-57.9	3.7	0.00e+00	0	51	104	0	78	24174
2026-01-19 21:42:36.65	205.99	6.28	-53.3	-57.9	3.7	0.00e+00	0	51	104	0	78	24198
2026-01-19 21:42:37.36	205.97	6.22	-53.3	-57.9	3.7	0.00e+00	0	51	104	0	78	24127
2026-01-19 21:42:38.63	205.94	6.11	-53.3	-57.9	3.7	0.00e+00	0	51	104	0	78	24227
2026-01-19 21:42:39.36	205.92	6.04	-53.3	-57.9	3.7	0.00e+00	0	51	104	0	78	24164
2026-01-19 21:42:40.64	205.89	5.93	-53.3	-57.9	3.7	0.00e+00	0	51	104	0	78	24173
2026-01-19 21:42:41.36	205.87	5.87	-53.3	-57.9	3.7	0.00e+00	0	51	104	0	78	24226
2026-01-19 21:42:42.64	205.84	5.76	-53.3	-57.9	3.7	0.00e+00	0	51	104	0	78	24190
2026-01-19 21:42:43.35	205.83	5.71	-53.3	-57.9	3.7	0.00e+00	0	51	104	0	78	24132
2026-01-19 21:42:44.63	205.79	5.60	-53.3	-57.9	3.7	0.00e+00	0	51	104	0	78	24152
2026-01-19 21:42:45.34	205.78	5.54	-53.3	-57.9	3.7	0.00e+00	0	51	104	0	78	24137
2026-01-19 21:42:46.61	205.75	5.43	-53.3	-57.9	3.7	0.00e+00	0	51	104	0	78	24181
2026-01-19 21:42:47.32	205.73	5.37	-53.3	-57.9	3.7	0.00e+00	0	51	104	0	78	24199
2026-01-19 21:42:48.60	205.70	5.27	-53.3	-57.9	3.7	0.00e+00	0	51	104	0	78	24141
2026-01-19 21:42:49.32	205.69	5.21	-53.3	-57.9	3.7	0.00e+00	0	51	104	0	78	24195
2026-01-19 21:42:50.60	205.66	5.10	-53.3	-57.9	3.7	0.00e+00	0	51	104	0	78	24142
2026-01-19 21:42:51.33	205.64	5.04	-53.3	-57.9	3.7	0.00e+00	0	51	104	0	78	24135
2026-01-19 21:42:52.60	205.61	4.94	-53.3	-57.9	3.7	0.00e+00	0	51	104	0	78	24114

#Closed at: 2026-01-19 21:42:53
#Recorded file [0 MB]: D:/Data/31040_260120_003349.dat