passes_logs/2026/01/19/T1/T1__20260119_042307_FENGYUN_3E_rec.log

#Pass ID: 20260119_042307_FENGYUN 3E
#Satellite: FENGYUN 3E
#Configuration: FENGYUN 3E
#almurnet v.1.7.20251203
#Start time: 2026-01-19 04:23:07

#Version: 2.0.20230620
#Station: T1
#Location: 37.570604 lon 55.790049 lat
#TLE: 1 49008U 21062A   26017.96535346 -.00000182  00000+0 -64922-4 0  9998
#TLE: 2 49008  98.7483  23.0589 0002171 131.9722 228.1640 14.19885139235265

#Time	Az	El	Level	Level2	SNR	BER	BlckErr	Temp	State	Recorded	gain1	gain2
2026-01-19 04:23:07.74	13.67	5.01	-49.5	-61.0	3.8	8.46e-01	0	41	0	0	68	14257
2026-01-19 04:23:08.73	13.65	5.08	-49.1	-60.6	3.8	8.48e-01	0	41	104	0	68	13573
2026-01-19 04:23:09.72	13.64	5.15	-49.2	-60.5	3.8	8.47e-01	0	41	104	0	68	13530
2026-01-19 04:23:10.71	13.62	5.22	-49.2	-60.5	3.8	8.47e-01	0	41	104	0	68	13422
2026-01-19 04:23:11.71	13.60	5.30	-49.1	-60.5	3.8	8.48e-01	0	41	104	0	68	13418
2026-01-19 04:23:12.70	13.58	5.37	-49.2	-60.5	3.8	8.48e-01	0	41	104	0	68	13554
2026-01-19 04:23:13.69	13.56	5.44	-49.1	-60.6	3.8	8.46e-01	0	41	104	0	68	13647
2026-01-19 04:23:14.69	13.54	5.51	-49.2	-60.6	3.8	8.47e-01	0	41	104	0	68	13694
2026-01-19 04:23:15.68	13.52	5.58	-49.1	-60.7	3.8	8.46e-01	0	41	104	0	68	13809
2026-01-19 04:23:16.67	13.50	5.65	-49.2	-60.7	3.8	8.48e-01	0	41	104	0	68	13820
2026-01-19 04:23:17.67	13.49	5.73	-49.2	-60.9	3.8	8.47e-01	0	41	104	0	68	14061
2026-01-19 04:23:18.66	13.47	5.80	-49.2	-60.8	3.8	8.48e-01	0	41	104	0	68	13922
2026-01-19 04:23:19.65	13.45	5.87	-49.2	-60.9	3.8	8.46e-01	0	41	104	0	68	14093
2026-01-19 04:23:20.65	13.43	5.94	-49.2	-60.9	3.8	8.47e-01	0	41	104	0	68	14107
2026-01-19 04:23:21.64	13.41	6.01	-49.2	-60.8	3.8	8.47e-01	0	42	104	0	68	13942
2026-01-19 04:23:22.63	13.39	6.09	-49.2	-60.7	3.8	8.47e-01	0	42	104	0	68	13849
2026-01-19 04:23:23.63	13.37	6.16	-49.2	-60.6	3.8	8.47e-01	0	42	104	0	68	13691
2026-01-19 04:23:24.62	13.35	6.23	-49.2	-60.5	3.8	8.48e-01	0	42	104	0	68	13563
2026-01-19 04:23:25.62	13.33	6.31	-49.1	-60.3	3.8	8.47e-01	0	42	104	0	68	13163
2026-01-19 04:23:26.61	13.31	6.38	-49.1	-60.0	3.8	8.47e-01	0	42	104	0	68	12744
2026-01-19 04:23:27.60	13.29	6.46	-49.1	-59.8	3.8	8.46e-01	0	42	104	0	68	12390
2026-01-19 04:23:28.60	13.27	6.53	-49.0	-59.4	3.8	8.47e-01	0	42	104	0	68	11893
2026-01-19 04:23:29.59	13.24	6.60	-49.0	-59.2	3.8	8.46e-01	0	42	104	0	68	11667
2026-01-19 04:23:30.58	13.22	6.68	-49.0	-59.1	3.8	8.45e-01	0	42	104	0	68	11519
2026-01-19 04:23:31.58	13.20	6.75	-49.0	-59.0	3.8	8.45e-01	0	42	104	0	68	11322
2026-01-19 04:23:32.57	13.18	6.83	-49.0	-58.9	3.8	8.45e-01	0	42	104	0	68	11203
2026-01-19 04:23:33.56	13.16	6.90	-49.0	-59.0	3.8	8.46e-01	0	42	104	0	68	11334
2026-01-19 04:23:34.56	13.14	6.98	-49.0	-59.2	3.8	8.46e-01	0	42	104	0	68	11556
2026-01-19 04:23:35.55	13.12	7.05	-49.1	-59.5	3.8	8.47e-01	0	42	104	0	68	11973
2026-01-19 04:23:36.55	13.10	7.13	-49.1	-59.7	3.8	8.45e-01	0	42	104	0	68	12292
2026-01-19 04:23:37.54	13.07	7.21	-49.1	-60.0	3.8	8.47e-01	0	42	104	0	68	12756
2026-01-19 04:23:38.53	13.05	7.28	-49.1	-60.3	3.8	8.47e-01	0	42	104	0	68	13156
2026-01-19 04:23:39.53	13.03	7.36	-49.1	-60.4	3.8	8.46e-01	0	42	104	0	68	13384
2026-01-19 04:23:40.52	13.01	7.44	-49.2	-60.4	3.8	8.47e-01	0	42	104	0	68	13410
2026-01-19 04:23:41.51	12.99	7.51	-49.2	-60.3	3.8	8.46e-01	0	42	104	0	68	13223
2026-01-19 04:23:42.51	12.96	7.59	-49.1	-59.9	3.8	8.47e-01	0	42	104	0	68	12522
2026-01-19 04:23:43.50	12.94	7.67	-49.0	-59.1	3.8	8.46e-01	0	42	104	0	68	11486
2026-01-19 04:23:44.49	12.92	7.75	-48.8	-57.7	4.1	8.44e-01	0	42	104	0	68	9800
2026-01-19 04:23:45.49	12.89	7.82	-48.7	-56.5	4.5	8.32e-01	0	42	0	0	68	8551
2026-01-19 04:23:46.48	12.87	7.90	-48.1	-54.7	5.3	7.47e-01	0	42	0	0	67	7348
2026-01-19 04:23:47.47	12.85	7.98	-47.6	-53.1	6.5	2.86e-01	0	42	0	4194304	66	6467
2026-01-19 04:23:48.47	12.82	8.06	-47.2	-51.7	7.8	1.00e-01	0	42	0	11534336	65	5813
2026-01-19 04:23:49.46	12.80	8.14	-46.6	-50.4	9.2	3.04e-02	0	42	0	18874368	63	5632
2026-01-19 04:23:50.46	12.78	8.22	-45.9	-49.1	10.6	5.95e-03	0	42	0	26214400	62	5101
2026-01-19 04:23:51.45	12.75	8.30	-45.2	-47.9	11.8	8.07e-04	0	42	0	33554432	61	4728
2026-01-19 04:23:52.44	12.73	8.38	-44.6	-46.9	12.9	1.32e-04	0	42	0	39845888	60	4482
2026-01-19 04:23:53.44	12.71	8.46	-44.1	-46.2	13.5	2.40e-05	0	43	0	47185920	59	4358
2026-01-19 04:23:54.43	12.68	8.54	-43.5	-45.5	14.2	2.20e-06	0	42	0	54525952	57	4494
2026-01-19 04:23:55.42	12.66	8.62	-43.1	-44.9	14.8	0.00e+00	0	42	0	61865984	57	4222
2026-01-19 04:23:56.42	12.63	8.70	-42.9	-44.6	15.1	0.00e+00	0	43	0	69206016	56	4327
2026-01-19 04:23:57.41	12.61	8.78	-42.7	-44.3	15.4	0.00e+00	0	43	0	76546048	56	4189
2026-01-19 04:23:58.40	12.58	8.86	-42.7	-44.4	15.4	0.00e+00	0	43	0	82837504	56	4195
2026-01-19 04:23:59.40	12.56	8.94	-42.4	-44.1	15.5	0.00e+00	0	43	0	90177536	55	4297
2026-01-19 04:24:00.39	12.53	9.02	-42.9	-44.6	14.9	0.00e+00	0	43	0	97517568	55	4590
2026-01-19 04:24:01.38	12.51	9.10	-43.7	-45.7	14.2	0.00e+00	0	42	0	104857600	56	4885
2026-01-19 04:24:02.44	12.48	9.19	-47.3	-51.8	7.8	9.44e-02	0	42	0	112197632	64	6203
2026-01-19 04:24:03.34	12.46	9.27	-45.6	-48.4	11.1	1.10e-01	0	43	0	118489088	62	4720
2026-01-19 04:24:04.38	12.43	9.35	-39.9	-41.1	18.4	0.00e+00	0	43	0	125829120	50	4085
2026-01-19 04:24:05.38	12.40	9.44	-39.7	-40.8	18.8	0.00e+00	0	43	0	133169152	49	4164
2026-01-19 04:24:06.37	12.38	9.52	-43.9	-45.8	13.7	3.98e-03	0	42	0	140509184	58	4436
2026-01-19 04:24:07.37	12.35	9.60	-39.3	-40.4	19.1	0.00e+00	0	42	0	147849216	49	4004
2026-01-19 04:24:08.36	12.32	9.69	-39.2	-40.3	19.3	0.00e+00	0	42	0	155189248	49	3932
2026-01-19 04:24:09.36	12.30	9.77	-39.0	-40.1	19.4	0.00e+00	0	43	0	162529280	48	4094
2026-01-19 04:24:10.35	12.27	9.86	-39.1	-40.2	19.4	0.00e+00	0	43	0	169869312	48	4106
2026-01-19 04:24:11.34	12.24	9.94	-39.1	-40.1	19.4	0.00e+00	0	43	0	177209344	48	4097
2026-01-19 04:24:12.34	12.22	10.03	-39.0	-40.1	19.5	0.00e+00	0	43	0	183500800	48	4061
2026-01-19 04:24:13.33	12.19	10.11	-39.0	-40.0	19.6	0.00e+00	0	43	0	190840832	48	4038
2026-01-19 04:24:14.33	12.16	10.20	-39.0	-40.1	19.5	0.00e+00	0	43	0	198180864	48	4064
2026-01-19 04:24:15.32	12.13	10.28	-38.8	-39.9	19.7	0.00e+00	0	43	0	205520896	48	3971
2026-01-19 04:24:16.32	12.10	10.37	-38.8	-39.9	19.7	0.00e+00	0	43	0	212860928	48	3978
2026-01-19 04:24:17.34	12.08	10.46	-38.9	-40.0	19.6	0.00e+00	0	43	0	220200960	48	4029
2026-01-19 04:24:18.37	12.05	10.55	-38.8	-39.9	19.7	0.00e+00	0	43	0	227540992	48	3981
2026-01-19 04:24:19.37	12.02	10.64	-38.7	-39.7	19.9	0.00e+00	0	43	0	234881024	48	3905
2026-01-19 04:24:20.42	11.99	10.73	-38.6	-39.7	19.6	0.00e+00	0	43	0	242221056	47	4118
2026-01-19 04:24:21.33	11.96	10.81	-38.5	-39.6	19.8	0.00e+00	0	43	0	248512512	47	4058
2026-01-19 04:24:22.34	11.93	10.90	-38.6	-39.6	19.7	0.00e+00	0	43	0	255852544	47	4094
2026-01-19 04:24:23.52	11.89	11.00	-38.5	-39.6	19.8	0.00e+00	0	43	0	264241152	47	4066
2026-01-19 04:24:24.38	11.87	11.08	-38.4	-39.5	19.9	0.00e+00	0	43	0	270532608	47	4014
2026-01-19 04:24:25.52	11.84	11.18	-38.5	-39.6	19.8	0.00e+00	0	43	0	278921216	47	4066
2026-01-19 04:24:26.37	11.81	11.26	-38.5	-39.5	19.8	0.00e+00	0	43	0	285212672	47	4032
2026-01-19 04:24:27.51	11.77	11.36	-38.7	-39.7	19.7	0.00e+00	0	43	0	293601280	47	4129
2026-01-19 04:24:28.36	11.75	11.44	-38.6	-39.6	19.8	0.00e+00	0	43	0	299892736	47	4082
2026-01-19 04:24:29.50	11.71	11.54	-38.3	-39.4	20.0	0.00e+00	0	43	0	308281344	47	3965
2026-01-19 04:24:30.35	11.69	11.62	-38.3	-39.3	20.0	0.00e+00	0	43	0	313524224	47	3951
2026-01-19 04:24:31.49	11.65	11.72	-38.4	-39.4	20.0	0.00e+00	0	43	0	321912832	47	3986
2026-01-19 04:24:32.34	11.62	11.80	-38.2	-39.2	20.2	0.00e+00	0	43	0	328204288	47	3898
2026-01-19 04:24:33.48	11.59	11.90	-38.1	-39.1	20.3	0.00e+00	0	43	0	336592896	46	4076
2026-01-19 04:24:34.33	11.56	11.98	-38.2	-39.2	20.2	0.00e+00	0	43	0	342884352	46	4142
2026-01-19 04:24:35.47	11.52	12.09	-38.1	-39.1	20.3	0.00e+00	0	43	0	350224384	46	4060
2026-01-19 04:24:36.32	11.50	12.17	-38.1	-39.1	20.2	0.00e+00	0	43	0	356515840	46	4098
2026-01-19 04:24:37.46	11.46	12.27	-38.0	-39.0	20.4	0.00e+00	0	43	0	364904448	46	4021
2026-01-19 04:24:38.31	11.43	12.35	-38.0	-39.0	20.4	0.00e+00	0	43	0	371195904	46	4021
2026-01-19 04:24:39.45	11.39	12.46	-37.9	-38.9	20.5	0.00e+00	0	43	0	379584512	46	3985
2026-01-19 04:24:40.30	11.36	12.54	-38.0	-39.0	20.4	0.00e+00	0	43	0	385875968	46	4044
2026-01-19 04:24:41.44	11.33	12.65	-37.9	-38.9	20.5	0.00e+00	0	43	0	393216000	46	3982
2026-01-19 04:24:42.29	11.30	12.73	-38.1	-39.1	20.3	0.00e+00	0	43	0	400556032	46	4068
2026-01-19 04:24:43.43	11.26	12.84	-38.0	-39.0	20.4	0.00e+00	0	43	0	407896064	46	4016
2026-01-19 04:24:44.28	11.23	12.92	-37.9	-38.9	20.5	0.00e+00	0	43	0	414187520	46	3986
2026-01-19 04:24:45.42	11.19	13.03	-38.0	-39.0	20.4	0.00e+00	0	43	0	422576128	46	4008
2026-01-19 04:24:46.27	11.16	13.11	-38.0	-39.0	20.4	0.00e+00	0	43	0	428867584	46	4046
2026-01-19 04:24:47.41	11.12	13.22	-38.0	-39.0	20.4	0.00e+00	0	43	0	437256192	46	4032
2026-01-19 04:24:48.26	11.09	13.31	-37.9	-39.0	20.5	0.00e+00	0	43	0	443547648	46	4008
2026-01-19 04:24:49.40	11.05	13.42	-37.9	-38.9	20.5	0.00e+00	0	43	0	451936256	46	3984
2026-01-19 04:24:50.25	11.02	13.50	-37.9	-38.9	20.5	0.00e+00	0	43	0	457179136	46	3984
2026-01-19 04:24:51.39	10.98	13.61	-37.8	-38.8	20.6	0.00e+00	0	43	0	465567744	46	3939
2026-01-19 04:24:52.24	10.95	13.70	-37.9	-39.0	20.5	0.00e+00	0	43	0	471859200	46	4017
2026-01-19 04:24:53.49	10.90	13.82	-37.9	-38.9	20.5	0.00e+00	0	43	0	481296384	46	3984
2026-01-19 04:24:54.34	10.87	13.91	-37.9	-38.9	20.5	0.00e+00	0	43	0	487587840	46	3974
2026-01-19 04:24:55.48	10.83	14.02	-37.9	-39.0	20.5	0.00e+00	0	43	0	494927872	46	4007
2026-01-19 04:24:56.33	10.79	14.11	-37.9	-38.9	20.5	0.00e+00	0	43	0	501219328	46	3987
2026-01-19 04:24:57.60	10.75	14.24	-37.8	-38.9	20.5	0.00e+00	0	43	0	510656512	46	3967
2026-01-19 04:24:58.40	10.72	14.32	-37.8	-38.8	20.6	0.00e+00	0	43	0	515899392	46	3951
2026-01-19 04:24:59.53	10.67	14.43	-37.8	-38.9	20.6	0.00e+00	0	43	0	524288000	46	3962
2026-01-19 04:25:00.39	10.64	14.52	-37.9	-38.9	20.5	0.00e+00	0	43	0	530579456	46	3985
2026-01-19 04:25:01.52	10.60	14.64	-37.7	-38.8	20.7	0.00e+00	0	43	0	538968064	46	3918
2026-01-19 04:25:02.38	10.56	14.72	-37.8	-38.8	20.6	0.00e+00	0	43	0	545259520	46	3928
2026-01-19 04:25:03.51	10.52	14.84	-37.6	-38.6	20.8	0.00e+00	0	43	0	553648128	46	3848
2026-01-19 04:25:04.37	10.48	14.93	-37.8	-38.8	20.6	0.00e+00	0	43	0	558891008	45	4165
2026-01-19 04:25:05.50	10.44	15.05	-37.7	-38.7	20.7	0.00e+00	0	43	0	567279616	45	4143
2026-01-19 04:25:06.36	10.40	15.14	-37.7	-38.7	20.7	0.00e+00	0	43	0	573571072	45	4140
2026-01-19 04:25:07.49	10.36	15.26	-37.8	-38.9	20.6	0.00e+00	0	43	0	581959680	45	4195
2026-01-19 04:25:08.35	10.32	15.35	-37.7	-38.7	20.7	0.00e+00	0	43	0	588251136	45	4144
2026-01-19 04:25:09.48	10.27	15.47	-37.7	-38.8	20.7	0.00e+00	0	43	0	596639744	45	4153
2026-01-19 04:25:10.34	10.24	15.56	-37.7	-38.8	20.7	0.00e+00	0	43	0	602931200	45	4151
2026-01-19 04:25:11.48	10.19	15.68	-37.7	-38.7	20.8	0.00e+00	0	43	0	610271232	45	4116
2026-01-19 04:25:12.33	10.15	15.77	-37.7	-38.8	20.7	0.00e+00	0	43	0	616562688	45	4155
2026-01-19 04:25:13.58	10.10	15.91	-37.6	-38.6	20.8	0.00e+00	0	43	0	625999872	45	4088
2026-01-19 04:25:14.43	10.06	16.00	-37.6	-38.7	20.8	0.00e+00	0	43	0	632291328	45	4099
2026-01-19 04:25:15.57	10.01	16.12	-37.6	-38.6	20.8	0.00e+00	0	43	0	640679936	45	4085
2026-01-19 04:25:16.42	9.98	16.22	-37.6	-38.6	20.8	0.00e+00	0	43	0	645922816	45	4088
2026-01-19 04:25:17.56	9.93	16.34	-37.7	-38.7	20.7	0.00e+00	0	43	0	654311424	45	4132
2026-01-19 04:25:18.41	9.89	16.44	-37.4	-38.4	21.0	0.00e+00	0	43	0	660602880	45	3980
2026-01-19 04:25:19.55	9.84	16.56	-37.5	-38.6	20.9	0.00e+00	0	43	0	668991488	45	4053
2026-01-19 04:25:20.40	9.80	16.66	-37.4	-38.4	21.0	0.00e+00	0	43	0	675282944	45	3989
2026-01-19 04:25:21.54	9.75	16.78	-37.4	-38.4	21.0	0.00e+00	0	43	0	683671552	45	3980
2026-01-19 04:25:22.39	9.71	16.88	-37.4	-38.4	21.0	0.00e+00	0	43	0	689963008	45	3991
2026-01-19 04:25:23.52	9.65	17.01	-37.2	-38.2	21.2	0.00e+00	0	43	0	697303040	45	3895
2026-01-19 04:25:24.38	9.61	17.11	-37.2	-38.2	21.2	0.00e+00	0	43	0	703594496	45	3882
2026-01-19 04:25:25.51	9.56	17.23	-37.2	-38.2	21.2	0.00e+00	0	43	0	711983104	45	3879
2026-01-19 04:25:26.37	9.52	17.33	-37.2	-38.1	21.3	0.00e+00	0	43	0	718274560	45	3863
2026-01-19 04:25:27.50	9.47	17.46	-37.0	-38.0	21.4	0.00e+00	0	43	0	726663168	44	4027
2026-01-19 04:25:28.36	9.42	17.56	-37.2	-38.2	21.2	0.00e+00	0	43	0	732954624	44	4128
2026-01-19 04:25:29.49	9.37	17.69	-37.0	-37.9	21.5	0.00e+00	0	43	0	741343232	44	3984
2026-01-19 04:25:30.35	9.33	17.79	-36.9	-37.9	21.5	0.00e+00	0	43	0	746586112	44	3962
2026-01-19 04:25:31.49	9.27	17.93	-36.9	-37.8	21.5	0.00e+00	0	43	0	754974720	44	3947
2026-01-19 04:25:32.34	9.23	18.02	-36.9	-37.9	21.5	0.00e+00	0	43	0	761266176	44	3971
2026-01-19 04:25:33.47	9.17	18.16	-37.0	-37.9	21.5	0.00e+00	0	43	0	769654784	44	3974
2026-01-19 04:25:34.32	9.13	18.26	-36.7	-37.7	21.7	0.00e+00	0	43	0	775946240	44	3873
2026-01-19 04:25:35.46	9.07	18.39	-36.7	-37.7	21.7	0.00e+00	0	43	0	784334848	44	3869
2026-01-19 04:25:36.31	9.03	18.50	-36.7	-37.6	21.8	0.00e+00	0	43	0	789577728	44	3863
2026-01-19 04:25:37.45	8.97	18.63	-36.7	-37.7	21.7	0.00e+00	0	43	0	797966336	44	3872
2026-01-19 04:25:38.30	8.92	18.74	-36.6	-37.6	21.8	0.00e+00	0	43	0	804257792	44	3827
2026-01-19 04:25:39.45	8.86	18.88	-36.5	-37.4	21.8	0.00e+00	0	43	0	812646400	43	3984
2026-01-19 04:25:40.30	8.82	18.98	-36.6	-37.5	21.7	0.00e+00	0	43	0	818937856	43	4034
2026-01-19 04:25:41.44	8.75	19.12	-36.5	-37.4	21.8	0.00e+00	0	43	0	826277888	43	3979
2026-01-19 04:25:42.29	8.71	19.22	-36.4	-37.3	21.9	0.00e+00	0	43	0	833617920	43	3944
2026-01-19 04:25:43.43	8.65	19.36	-36.5	-37.4	21.9	0.00e+00	0	43	0	840957952	43	3962
2026-01-19 04:25:44.28	8.60	19.47	-36.5	-37.4	21.8	0.00e+00	0	43	0	847249408	43	4000
2026-01-19 04:25:45.42	8.53	19.61	-36.4	-37.3	21.9	0.00e+00	0	43	0	855638016	43	3930
2026-01-19 04:25:46.27	8.49	19.72	-36.4	-37.3	21.9	0.00e+00	0	43	0	861929472	43	3918
2026-01-19 04:25:47.47	8.42	19.87	-36.4	-37.3	21.9	0.00e+00	0	43	0	870318080	43	3930
2026-01-19 04:25:48.33	8.37	19.98	-36.4	-37.3	21.9	0.00e+00	0	43	0	876609536	43	3935
2026-01-19 04:25:49.47	8.30	20.12	-36.4	-37.3	21.9	0.00e+00	0	43	0	884998144	43	3929
2026-01-19 04:25:50.32	8.25	20.23	-36.3	-37.2	22.0	0.00e+00	0	43	0	891289600	43	3901
2026-01-19 04:25:51.46	8.19	20.38	-36.2	-37.1	22.2	0.00e+00	0	43	0	899678208	43	3827
2026-01-19 04:25:52.31	8.14	20.49	-36.2	-37.0	22.2	0.00e+00	0	43	0	905969664	43	3822
2026-01-19 04:25:53.45	8.07	20.64	-36.1	-37.0	22.2	0.00e+00	0	43	0	913309696	43	3797
2026-01-19 04:25:54.30	8.02	20.75	-36.0	-36.9	22.2	0.00e+00	0	43	0	919601152	42	3995
2026-01-19 04:25:55.43	7.95	20.90	-36.0	-36.9	22.3	0.00e+00	0	43	0	927989760	42	3994
2026-01-19 04:25:56.29	7.90	21.01	-36.0	-36.9	22.4	0.00e+00	0	43	0	934281216	42	3967
2026-01-19 04:25:57.42	7.83	21.16	-36.0	-36.9	22.4	0.00e+00	0	43	0	942669824	42	3970
2026-01-19 04:25:58.28	7.77	21.27	-35.9	-36.8	22.4	0.00e+00	0	43	0	947912704	42	3950
2026-01-19 04:25:59.41	7.70	21.42	-36.0	-36.9	22.4	0.00e+00	0	43	0	956301312	42	3960
2026-01-19 04:26:00.27	7.64	21.54	-36.0	-36.9	22.2	0.00e+00	0	43	0	962592768	42	3985
2026-01-19 04:26:01.40	7.57	21.69	-35.9	-36.7	22.5	0.00e+00	0	43	0	970981376	42	3904
2026-01-19 04:26:02.26	7.52	21.81	-35.7	-36.6	22.6	0.00e+00	0	43	0	977272832	42	3830
2026-01-19 04:26:03.43	7.44	21.97	-35.8	-36.7	22.5	0.00e+00	0	43	0	985661440	42	3881
2026-01-19 04:26:04.28	7.38	22.08	-35.7	-36.6	22.6	0.00e+00	0	43	0	991952896	42	3844
2026-01-19 04:26:05.50	7.30	22.25	-35.5	-36.4	22.8	0.00e+00	0	43	0	1000341504	41	3965
2026-01-19 04:26:06.35	7.24	22.37	-35.6	-36.4	22.7	0.00e+00	0	43	0	1006632960	41	3990
2026-01-19 04:26:07.49	7.17	22.53	-35.6	-36.4	22.7	0.00e+00	0	43	0	1015021568	41	3990
2026-01-19 04:26:08.34	7.11	22.65	-35.5	-36.4	22.8	0.00e+00	0	43	0	1021313024	41	3960
2026-01-19 04:26:09.48	7.03	22.81	-35.5	-36.3	22.8	0.00e+00	0	43	0	1029701632	41	3941
2026-01-19 04:26:10.33	6.97	22.93	-35.4	-36.3	22.8	0.00e+00	0	43	0	1034944512	41	3927
2026-01-19 04:26:11.67	6.87	23.12	-35.5	-36.3	22.8	0.00e+00	0	43	0	1045430272	41	3942
2026-01-19 04:26:12.39	6.82	23.22	-35.6	-36.4	22.7	0.00e+00	0	43	0	1050673152	41	3992
2026-01-19 04:26:13.67	6.73	23.41	-35.7	-36.5	22.7	0.00e+00	0	43	0	1060110336	41	4033
2026-01-19 04:26:14.38	6.68	23.51	-35.7	-36.6	22.6	0.00e+00	0	43	0	1064304640	41	4056
2026-01-19 04:26:15.66	6.58	23.69	-35.9	-36.7	22.5	0.00e+00	0	43	0	1073741824	41	4127
2026-01-19 04:26:16.46	6.53	23.81	-35.7	-36.5	22.6	0.00e+00	0	43	0	1080033280	41	4048
2026-01-19 04:26:17.60	6.44	23.98	-35.9	-36.7	22.5	0.00e+00	0	43	0	1088421888	41	4132
2026-01-19 04:26:18.45	6.38	24.10	-35.9	-36.7	22.5	0.00e+00	0	43	0	1094713344	41	4131
2026-01-19 04:26:19.59	6.29	24.27	-35.8	-36.7	22.5	0.00e+00	0	43	0	1102053376	41	4120
2026-01-19 04:26:20.44	6.22	24.40	-35.7	-36.5	22.7	0.00e+00	0	43	0	1108344832	41	4026
2026-01-19 04:26:21.58	6.13	24.57	-35.8	-36.7	22.6	0.00e+00	0	43	0	1116733440	41	4099
2026-01-19 04:26:22.43	6.07	24.70	-35.7	-36.5	22.7	0.00e+00	0	43	0	1123024896	41	4048
2026-01-19 04:26:23.57	5.97	24.87	-35.7	-36.6	22.6	0.00e+00	0	43	0	1131413504	41	4062
2026-01-19 04:26:24.42	5.91	25.00	-35.7	-36.5	22.7	0.00e+00	0	43	0	1137704960	41	4026
2026-01-19 04:26:25.56	5.81	25.18	-35.8	-36.6	22.6	0.00e+00	0	43	0	1145044992	41	4094
2026-01-19 04:26:26.41	5.74	25.31	-35.9	-36.7	22.5	0.00e+00	0	43	0	1151336448	41	4143
2026-01-19 04:26:27.55	5.65	25.48	-36.0	-36.9	22.4	0.00e+00	0	43	0	1159725056	41	4213
2026-01-19 04:26:28.40	5.58	25.61	-36.1	-37.0	22.3	0.00e+00	0	43	0	1166016512	41	4251
2026-01-19 04:26:29.54	5.48	25.79	-36.1	-36.9	22.3	0.00e+00	0	43	0	1174405120	41	4241
2026-01-19 04:26:30.39	5.41	25.93	-36.0	-36.9	22.4	0.00e+00	0	43	0	1180696576	41	4200
2026-01-19 04:26:31.53	5.31	26.11	-36.0	-36.9	22.4	0.00e+00	0	43	0	1188036608	41	4206
2026-01-19 04:26:32.38	5.24	26.24	-36.0	-36.9	22.4	0.00e+00	0	43	0	1194328064	41	4208
2026-01-19 04:26:33.52	5.14	26.42	-36.0	-36.9	22.4	0.00e+00	0	43	0	1202716672	41	4199
2026-01-19 04:26:34.37	5.06	26.56	-36.0	-36.9	22.4	0.00e+00	0	43	0	1209008128	41	4203
2026-01-19 04:26:35.50	4.96	26.74	-35.9	-36.8	22.5	0.00e+00	0	43	0	1217396736	41	4163
2026-01-19 04:26:36.35	4.88	26.88	-35.9	-36.8	22.5	0.00e+00	0	43	0	1223688192	41	4171
2026-01-19 04:26:37.49	4.78	27.07	-35.8	-36.6	22.6	0.00e+00	0	43	0	1232076800	41	4080
2026-01-19 04:26:38.34	4.70	27.21	-35.8	-36.7	22.6	0.00e+00	0	43	0	1238368256	41	4115
2026-01-19 04:26:39.48	4.59	27.40	-35.8	-36.7	22.6	0.00e+00	0	43	0	1245708288	41	4125
2026-01-19 04:26:40.33	4.51	27.54	-35.8	-36.7	22.3	0.00e+00	0	43	0	1251999744	41	4120
2026-01-19 04:26:41.46	4.40	27.73	-35.7	-36.5	22.7	0.00e+00	0	43	0	1260388352	41	4050
2026-01-19 04:26:42.31	4.32	27.87	-35.6	-36.5	22.7	0.00e+00	0	43	0	1266679808	41	4023
2026-01-19 04:26:43.45	4.21	28.06	-35.5	-36.3	22.9	0.00e+00	0	43	0	1275068416	41	3950
2026-01-19 04:26:44.30	4.12	28.21	-35.4	-36.3	22.9	0.00e+00	0	43	0	1281359872	41	3927
2026-01-19 04:26:45.44	4.01	28.40	-35.3	-36.1	23.0	0.00e+00	0	43	0	1288699904	41	3857
2026-01-19 04:26:46.29	3.92	28.55	-35.2	-36.0	23.2	0.00e+00	0	43	0	1294991360	41	3798
2026-01-19 04:26:47.42	3.80	28.74	-35.0	-35.9	23.3	0.00e+00	0	43	0	1303379968	40	3959
2026-01-19 04:26:48.27	3.72	28.89	-35.0	-35.8	23.3	0.00e+00	0	43	0	1309671424	40	3929
2026-01-19 04:26:49.41	3.60	29.09	-35.0	-35.8	23.3	0.00e+00	0	43	0	1318060032	40	3931
2026-01-19 04:26:50.26	3.51	29.24	-34.9	-35.7	23.4	0.00e+00	0	43	0	1323302912	40	3913
2026-01-19 04:26:51.40	3.38	29.44	-35.0	-35.8	23.3	0.00e+00	0	43	0	1331691520	40	3936
2026-01-19 04:26:52.25	3.29	29.59	-35.0	-35.8	23.3	0.00e+00	0	43	0	1337982976	40	3925
2026-01-19 04:26:53.38	3.17	29.79	-34.9	-35.7	23.4	0.00e+00	0	43	0	1346371584	40	3903
2026-01-19 04:26:54.23	3.07	29.95	-35.0	-35.8	23.3	0.00e+00	0	43	0	1352663040	40	3931
2026-01-19 04:26:55.37	2.95	30.15	-34.9	-35.7	23.4	0.00e+00	0	43	0	1361051648	40	3909
2026-01-19 04:26:56.22	2.85	30.31	-35.0	-35.8	23.3	0.00e+00	0	43	0	1366294528	40	3944
2026-01-19 04:26:57.35	2.72	30.51	-35.0	-35.8	23.3	0.00e+00	0	43	0	1374683136	40	3952
2026-01-19 04:26:58.21	2.62	30.67	-34.9	-35.7	23.4	0.00e+00	0	43	0	1380974592	40	3907
2026-01-19 04:26:59.34	2.49	30.88	-35.1	-35.9	23.3	0.00e+00	0	43	0	1389363200	40	3978
2026-01-19 04:27:00.19	2.39	31.04	-35.1	-35.9	23.3	0.00e+00	0	43	0	1395654656	40	3987
2026-01-19 04:27:01.33	2.25	31.25	-35.0	-35.9	23.3	0.00e+00	0	43	0	1404043264	40	3964
2026-01-19 04:27:02.18	2.15	31.41	-35.1	-35.9	23.2	0.00e+00	0	43	0	1409286144	40	3995
2026-01-19 04:27:03.31	2.01	31.62	-35.2	-36.0	23.2	0.00e+00	0	43	0	1417674752	40	4021
2026-01-19 04:27:04.16	1.90	31.78	-35.1	-35.9	23.3	0.00e+00	0	43	0	1423966208	40	3979
2026-01-19 04:27:05.30	1.76	32.00	-35.2	-36.0	23.2	0.00e+00	0	43	0	1432354816	40	4051
2026-01-19 04:27:06.15	1.65	32.16	-35.2	-36.1	23.1	0.00e+00	0	43	0	1438646272	40	4062
2026-01-19 04:27:07.28	1.50	32.38	-35.3	-36.2	23.0	0.00e+00	0	43	0	1447034880	40	4114
2026-01-19 04:27:08.14	1.39	32.55	-35.3	-36.1	23.1	0.00e+00	0	43	0	1452277760	40	4083
2026-01-19 04:27:09.27	1.24	32.77	-35.5	-36.3	22.9	0.00e+00	0	43	0	1460666368	40	4177
2026-01-19 04:27:10.12	1.12	32.94	-35.4	-36.2	23.0	0.00e+00	0	43	0	1466957824	40	4142
2026-01-19 04:27:11.26	0.97	33.16	-35.5	-36.3	23.0	0.00e+00	0	43	0	1475346432	40	4163
2026-01-19 04:27:12.11	0.85	33.33	-35.5	-36.3	22.9	0.00e+00	0	43	0	1481637888	40	4188
2026-01-19 04:27:13.24	0.70	33.56	-35.5	-36.3	23.0	0.00e+00	0	43	0	1490026496	40	4154
2026-01-19 04:27:14.10	0.57	33.73	-35.5	-36.3	22.9	0.00e+00	0	43	0	1496317952	40	4190
2026-01-19 04:27:15.23	0.41	33.96	-35.4	-36.3	23.0	0.00e+00	0	43	0	1503657984	40	4148
2026-01-19 04:27:16.08	0.29	34.13	-35.4	-36.3	23.0	0.00e+00	0	43	0	1509949440	40	4155
2026-01-19 04:27:17.22	0.12	34.36	-35.4	-36.2	23.0	0.00e+00	0	43	0	1518338048	40	4119
2026-01-19 04:27:18.07	360.00	34.54	-35.4	-36.2	23.0	0.00e+00	0	43	0	1524629504	40	4127
2026-01-19 04:27:19.21	359.83	34.77	-35.5	-36.3	23.0	0.00e+00	0	43	0	1533018112	40	4176
2026-01-19 04:27:20.06	359.70	34.95	-35.3	-36.1	23.1	0.00e+00	0	43	0	1539309568	40	4097
2026-01-19 04:27:21.19	359.52	35.19	-35.4	-36.2	23.0	0.00e+00	0	43	0	1547698176	40	4140
2026-01-19 04:27:22.04	359.39	35.36	-35.4	-36.2	23.1	0.00e+00	0	43	0	1552941056	40	4109
2026-01-19 04:27:23.18	359.21	35.60	-35.4	-36.2	23.0	0.00e+00	0	43	0	1561329664	40	4127
2026-01-19 04:27:24.03	359.07	35.79	-35.4	-36.2	23.0	0.00e+00	0	43	0	1567621120	40	4122
2026-01-19 04:27:25.17	358.89	36.03	-35.5	-36.4	22.9	0.00e+00	0	43	0	1576009728	40	4208
2026-01-19 04:27:26.01	358.75	36.21	-35.5	-36.3	22.9	0.00e+00	0	43	0	1582301184	40	4169
2026-01-19 04:27:27.15	358.56	36.45	-35.6	-36.4	22.8	0.00e+00	0	43	0	1590689792	40	4238
2026-01-19 04:27:28.00	358.42	36.64	-35.6	-36.5	22.8	0.00e+00	0	43	0	1595932672	40	4265
2026-01-19 04:27:29.14	358.22	36.89	-35.6	-36.4	22.8	0.00e+00	0	43	0	1604321280	40	4238
2026-01-19 04:27:29.99	358.07	37.07	-35.5	-36.4	22.9	0.00e+00	0	43	0	1610612736	40	4215
2026-01-19 04:27:31.12	357.87	37.32	-35.6	-36.4	22.9	0.00e+00	0	43	0	1619001344	41	3992
2026-01-19 04:27:31.97	357.72	37.51	-35.5	-36.4	22.9	0.00e+00	0	43	0	1625292800	41	3964
2026-01-19 04:27:33.11	357.51	37.76	-35.5	-36.3	23.0	0.00e+00	0	43	0	1632632832	41	3936
2026-01-19 04:27:33.96	357.36	37.95	-35.5	-36.4	22.9	0.00e+00	0	43	0	1638924288	41	3971
2026-01-19 04:27:35.09	357.15	38.21	-35.7	-36.5	22.8	0.00e+00	0	43	0	1647312896	41	4031
2026-01-19 04:27:35.95	356.99	38.40	-35.7	-36.5	22.8	0.00e+00	0	43	0	1653604352	41	4020
2026-01-19 04:27:37.08	356.77	38.66	-35.6	-36.4	22.9	0.00e+00	0	43	0	1661992960	41	4001
2026-01-19 04:27:37.93	356.60	38.85	-35.8	-36.7	22.7	0.00e+00	0	43	0	1668284416	41	4108
2026-01-19 04:27:39.07	356.38	39.11	-36.0	-36.9	22.5	0.00e+00	0	43	0	1675624448	41	4213
2026-01-19 04:27:39.92	356.21	39.31	-36.0	-36.8	22.6	0.00e+00	0	43	0	1681915904	41	4168
2026-01-19 04:27:41.05	355.98	39.57	-36.0	-36.9	22.5	0.00e+00	0	43	0	1690304512	41	4212
2026-01-19 04:27:41.91	355.80	39.77	-36.1	-37.0	22.4	0.00e+00	0	43	0	1696595968	41	4245
2026-01-19 04:27:43.04	355.57	40.04	-36.3	-37.2	22.3	0.00e+00	0	43	0	1704984576	42	4104
2026-01-19 04:27:43.89	355.39	40.24	-36.2	-37.1	22.3	0.00e+00	0	43	0	1711276032	42	4075
2026-01-19 04:27:45.03	355.14	40.51	-36.2	-37.0	22.4	0.00e+00	0	43	0	1718616064	42	4031
2026-01-19 04:27:45.88	354.96	40.71	-36.4	-37.2	22.1	0.00e+00	0	43	0	1724907520	42	4123
2026-01-19 04:27:47.01	354.71	40.98	-36.4	-37.2	22.2	0.00e+00	0	43	0	1733296128	42	4135
2026-01-19 04:27:47.87	354.51	41.18	-36.1	-37.0	22.4	0.00e+00	0	43	0	1739587584	42	4021
2026-01-19 04:27:49.00	354.26	41.45	-36.1	-36.9	22.5	0.00e+00	0	43	0	1747976192	42	3993
2026-01-19 04:27:49.85	354.06	41.66	-36.0	-36.9	22.5	0.00e+00	0	43	0	1754267648	42	3962
2026-01-19 04:27:50.99	353.79	41.94	-36.0	-36.8	22.5	0.00e+00	0	43	0	1761607680	42	3942
2026-01-19 04:27:51.84	353.59	42.14	-36.0	-36.9	22.6	0.00e+00	0	43	0	1767899136	42	3962
2026-01-19 04:27:52.97	353.31	42.42	-36.2	-37.1	22.4	0.00e+00	0	43	0	1776287744	42	4052
2026-01-19 04:27:53.82	353.11	42.63	-36.3	-37.1	22.3	0.00e+00	0	43	0	1782579200	42	4093
2026-01-19 04:27:54.96	352.82	42.91	-36.3	-37.2	22.3	0.00e+00	0	43	0	1790967808	42	4123
2026-01-19 04:27:55.81	352.61	43.12	-36.6	-37.5	22.0	0.00e+00	0	43	0	1797259264	42	4244
2026-01-19 04:27:56.95	352.31	43.40	-36.6	-37.5	22.0	0.00e+00	0	43	0	1805647872	43	4026
2026-01-19 04:27:57.80	352.09	43.62	-36.6	-37.5	22.0	0.00e+00	0	43	0	1811939328	43	4012
2026-01-19 04:27:58.93	351.79	43.90	-36.4	-37.3	22.2	0.00e+00	0	43	0	1819279360	43	3937
2026-01-19 04:27:59.78	351.56	44.11	-36.5	-37.4	22.1	0.00e+00	0	43	0	1825570816	43	3969
2026-01-19 04:28:00.92	351.25	44.40	-36.7	-37.6	21.9	0.00e+00	0	43	0	1833959424	43	4069
2026-01-19 04:28:01.77	351.01	44.62	-36.7	-37.6	21.9	0.00e+00	0	43	0	1840250880	43	4060
2026-01-19 04:28:02.90	350.69	44.90	-36.5	-37.4	22.1	0.00e+00	0	43	0	1848639488	43	3972
2026-01-19 04:28:03.76	350.44	45.12	-36.4	-37.3	22.1	0.00e+00	0	43	0	1853882368	43	3939
2026-01-19 04:28:04.89	350.11	45.41	-36.4	-37.2	22.2	0.00e+00	0	43	0	1862270976	43	3907
2026-01-19 04:28:05.74	349.86	45.63	-36.3	-37.2	22.2	0.00e+00	0	43	0	1868562432	43	3887
2026-01-19 04:28:06.88	349.51	45.92	-36.4	-37.2	22.2	0.00e+00	0	43	0	1876951040	43	3898
2026-01-19 04:28:07.73	349.25	46.14	-36.4	-37.3	22.2	0.00e+00	0	43	0	1883242496	43	3918
2026-01-19 04:28:08.86	348.90	46.43	-36.5	-37.4	22.2	0.00e+00	0	43	0	1891631104	43	3962
2026-01-19 04:28:09.72	348.62	46.66	-36.7	-37.5	22.0	0.00e+00	0	43	0	1896873984	43	4047
2026-01-19 04:28:10.85	348.26	46.95	-37.0	-37.9	21.7	0.00e+00	0	43	0	1905262592	43	4208
2026-01-19 04:28:11.70	347.98	47.17	-37.1	-38.0	21.6	0.00e+00	0	43	0	1911554048	43	4265
2026-01-19 04:28:12.84	347.60	47.47	-37.4	-38.3	21.4	0.00e+00	0	43	0	1919942656	44	4179
2026-01-19 04:28:13.69	347.31	47.69	-37.7	-38.6	21.1	0.00e+00	0	43	0	1926234112	45	4058
2026-01-19 04:28:14.83	346.91	47.99	-38.0	-38.9	20.9	0.00e+00	0	43	0	1934622720	45	4218
2026-01-19 04:28:15.68	346.62	48.21	-38.2	-39.1	20.6	0.00e+00	0	43	0	1939865600	45	4338
2026-01-19 04:28:16.81	346.21	48.51	-38.4	-39.3	20.5	0.00e+00	0	43	0	1948254208	46	4185
2026-01-19 04:28:17.66	345.90	48.74	-38.3	-39.3	20.5	0.00e+00	0	43	0	1954545664	46	4163
2026-01-19 04:28:18.80	345.48	49.04	-38.5	-39.5	20.3	0.00e+00	0	43	0	1962934272	46	4273
2026-01-19 04:28:19.65	345.16	49.26	-38.4	-39.4	20.5	0.00e+00	0	43	0	1969225728	46	4222
2026-01-19 04:28:20.79	344.72	49.56	-38.2	-39.2	20.7	0.00e+00	0	43	0	1977614336	46	4103
2026-01-19 04:28:21.64	344.39	49.79	-38.3	-39.2	20.6	0.00e+00	0	43	0	1982857216	46	4143
2026-01-19 04:28:22.77	343.94	50.09	-38.2	-39.1	20.7	0.00e+00	0	43	0	1991245824	46	4082
2026-01-19 04:28:23.63	343.60	50.31	-38.3	-39.3	20.6	0.00e+00	0	43	0	1997537280	46	4159
2026-01-19 04:28:24.76	343.13	50.61	-38.3	-39.3	20.5	0.00e+00	0	43	0	2005925888	46	4159
2026-01-19 04:28:25.61	342.78	50.84	-38.2	-39.1	20.7	0.00e+00	0	43	0	2012217344	46	4074
2026-01-19 04:28:26.75	342.29	51.14	-38.1	-39.0	20.8	0.00e+00	0	43	0	2020605952	46	4021
2026-01-19 04:28:27.60	341.92	51.36	-38.2	-39.1	20.6	0.00e+00	0	43	0	2026897408	46	4076
2026-01-19 04:28:28.73	341.43	51.66	-38.1	-39.0	20.8	0.00e+00	0	43	0	2034237440	46	4026
2026-01-19 04:28:29.58	341.04	51.88	-38.3	-39.3	20.6	0.00e+00	0	43	0	2040528896	46	4153
2026-01-19 04:28:30.72	340.52	52.18	-38.5	-39.5	20.4	0.00e+00	0	43	0	2048917504	46	4258
2026-01-19 04:28:31.57	340.13	52.41	-38.8	-39.7	20.1	0.00e+00	0	43	0	2055208960	47	4140
2026-01-19 04:28:32.71	339.59	52.71	-39.7	-40.8	19.4	0.00e+00	0	43	0	2063597568	48	4412
2026-01-19 04:28:33.56	339.18	52.93	-38.6	-39.6	20.2	0.00e+00	0	43	0	2069889024	47	4076
2026-01-19 04:28:34.69	338.62	53.22	-38.6	-39.6	20.3	0.00e+00	0	43	0	2078277632	47	4060
2026-01-19 04:28:35.55	338.20	53.45	-38.5	-39.5	20.3	0.00e+00	0	43	0	2083520512	47	4015
2026-01-19 04:28:36.68	337.62	53.74	-38.5	-39.5	20.3	0.00e+00	0	43	0	2091909120	47	4021
2026-01-19 04:28:37.53	337.18	53.96	-38.5	-39.5	20.2	0.00e+00	0	43	0	2098200576	47	4013
2026-01-19 04:28:38.67	336.58	54.25	-38.9	-39.8	20.0	0.00e+00	0	43	0	2106589184	47	4192
2026-01-19 04:28:39.52	336.12	54.47	-39.3	-40.3	19.7	0.00e+00	0	43	0	2112880640	48	4180
2026-01-19 04:28:40.66	335.50	54.76	-39.7	-40.8	19.4	0.00e+00	0	43	0	2121269248	49	4146
2026-01-19 04:28:41.51	335.03	54.97	-39.5	-40.5	19.6	0.00e+00	0	43	0	2126512128	49	4027
2026-01-19 04:28:42.64	334.39	55.26	-39.3	-40.3	19.8	0.00e+00	0	43	0	2134900736	49	3950
2026-01-19 04:28:43.49	333.90	55.47	-38.9	-39.9	20.2	0.00e+00	0	43	0	2141192192	48	3966
2026-01-19 04:28:44.63	333.23	55.75	-38.9	-39.9	20.2	0.00e+00	0	43	0	2149580800	48	3967
2026-01-19 04:28:45.48	332.73	55.96	-38.9	-39.9	20.2	0.00e+00	0	43	0	2155872256	48	3972
2026-01-19 04:28:46.62	332.03	56.24	-39.1	-40.0	20.1	0.00e+00	0	43	0	2163212288	48	4050
2026-01-19 04:28:47.47	331.51	56.44	-39.4	-40.4	19.6	0.00e+00	0	43	0	2169503744	48	4230
2026-01-19 04:28:48.60	330.80	56.71	-39.4	-40.4	19.7	0.00e+00	0	43	0	2177892352	48	4227
2026-01-19 04:28:49.46	330.25	56.92	-39.6	-40.7	19.5	0.00e+00	0	43	0	2184183808	49	4104
2026-01-19 04:28:50.59	329.51	57.18	-39.7	-40.7	19.4	0.00e+00	0	43	0	2192572416	49	4127
2026-01-19 04:28:51.44	328.95	57.38	-39.4	-40.4	19.7	0.00e+00	0	43	0	2198863872	49	3974
2026-01-19 04:28:52.58	328.18	57.64	-39.2	-40.2	19.9	0.00e+00	0	43	0	2206203904	49	3886
2026-01-19 04:28:53.43	327.60	57.83	-38.7	-39.6	20.5	0.00e+00	0	43	0	2212495360	48	3835
2026-01-19 04:28:54.56	326.81	58.09	-39.0	-39.9	20.2	0.00e+00	0	43	0	2220883968	48	3994
2026-01-19 04:28:55.42	326.21	58.28	-39.0	-39.9	20.1	0.00e+00	0	43	0	2227175424	48	4004
2026-01-19 04:28:56.55	325.39	58.52	-39.4	-40.4	19.8	0.00e+00	0	43	0	2235564032	48	4209
2026-01-19 04:28:57.40	324.77	58.70	-39.4	-40.3	19.8	0.00e+00	0	43	0	2241855488	48	4192
2026-01-19 04:28:58.54	323.92	58.94	-39.3	-40.3	19.7	0.00e+00	0	43	0	2249195520	48	4181
2026-01-19 04:28:59.39	323.28	59.12	-39.7	-40.7	19.4	0.00e+00	0	43	0	2256535552	48	4363
2026-01-19 04:29:00.52	322.42	59.35	-39.6	-40.6	19.4	0.00e+00	0	43	0	2263875584	49	4069
2026-01-19 04:29:01.38	321.75	59.52	-40.1	-41.1	19.0	0.00e+00	0	43	0	2270167040	49	4336
2026-01-19 04:29:02.51	320.85	59.74	-40.1	-41.1	19.0	0.00e+00	0	43	0	2278555648	49	4337
2026-01-19 04:29:03.36	320.17	59.90	-40.0	-41.1	19.1	0.00e+00	0	43	0	2284847104	49	4304
2026-01-19 04:29:04.50	319.24	60.11	-39.6	-40.6	19.3	0.00e+00	0	43	0	2293235712	49	4058
2026-01-19 04:29:05.35	318.54	60.26	-39.6	-40.6	18.8	0.00e+00	0	43	0	2299527168	49	4079
2026-01-19 04:29:06.49	317.59	60.46	-39.8	-40.8	18.2	0.00e+00	0	43	0	2306867200	49	4174
2026-01-19 04:29:07.34	316.87	60.61	-40.0	-41.1	18.2	0.00e+00	0	43	0	2313158656	49	4302
2026-01-19 04:29:08.47	315.90	60.79	-40.1	-41.2	18.6	0.00e+00	0	43	0	2321547264	50	4101
2026-01-19 04:29:09.32	315.15	60.93	-39.8	-40.8	19.1	0.00e+00	0	43	0	2327838720	50	3943
2026-01-19 04:29:10.46	314.15	61.10	-39.4	-40.3	19.7	0.00e+00	0	43	0	2336227328	49	3939
2026-01-19 04:29:11.31	313.39	61.23	-39.0	-40.0	19.6	0.00e+00	0	43	0	2342518784	48	4015
2026-01-19 04:29:12.45	312.36	61.39	-39.4	-40.4	19.6	0.00e+00	0	43	0	2349858816	48	4207
2026-01-19 04:29:13.30	311.59	61.51	-39.6	-40.6	18.7	0.00e+00	0	43	0	2356150272	48	4308
2026-01-19 04:29:14.43	310.54	61.66	-40.2	-41.2	18.0	0.00e+00	0	43	0	2364538880	49	4382
2026-01-19 04:29:15.28	309.75	61.76	-40.0	-41.0	18.8	0.00e+00	0	43	0	2370830336	50	4040
2026-01-19 04:29:16.42	308.68	61.90	-39.7	-40.7	18.7	0.00e+00	0	43	0	2379218944	50	3881
2026-01-19 04:29:17.27	307.87	61.99	-39.3	-40.3	19.5	0.00e+00	0	43	0	2384461824	49	3916
2026-01-19 04:29:18.41	306.78	62.11	-39.6	-40.6	19.4	0.00e+00	0	43	0	2392850432	49	4053
2026-01-19 04:29:19.26	305.95	62.20	-39.7	-40.7	19.1	0.00e+00	0	43	0	2399141888	49	4125
2026-01-19 04:29:20.39	304.85	62.30	-40.2	-41.3	18.5	0.00e+00	0	43	0	2407530496	49	4395
2026-01-19 04:29:21.25	304.01	62.37	-40.3	-41.4	18.6	0.00e+00	0	43	0	2413821952	50	4212
2026-01-19 04:29:22.38	302.89	62.46	-40.3	-41.3	18.7	0.00e+00	0	43	0	2422210560	50	4189
2026-01-19 04:29:23.23	302.05	62.52	-40.1	-41.1	18.8	0.00e+00	0	43	0	2427453440	50	4077
2026-01-19 04:29:24.37	300.91	62.59	-39.9	-40.9	19.1	0.00e+00	0	43	0	2435842048	50	3968
2026-01-19 04:29:25.22	300.05	62.64	-39.8	-40.7	19.1	0.00e+00	0	43	0	2442133504	50	3911
2026-01-19 04:29:26.35	298.91	62.69	-39.7	-40.7	18.9	0.00e+00	0	43	0	2450522112	49	4100
2026-01-19 04:29:27.20	298.05	62.73	-40.0	-41.0	18.7	0.00e+00	0	43	0	2456813568	49	4281
2026-01-19 04:29:28.34	296.89	62.77	-40.4	-41.5	18.5	0.00e+00	0	43	0	2465202176	50	4260
2026-01-19 04:29:29.19	296.03	62.79	-40.5	-41.6	18.5	0.00e+00	0	43	0	2471493632	50	4312
2026-01-19 04:29:30.33	294.86	62.81	-40.3	-41.4	18.8	0.00e+00	0	43	0	2478833664	50	4200
2026-01-19 04:29:31.18	293.99	62.82	-40.1	-41.1	19.0	0.00e+00	0	43	0	2485125120	50	4087
2026-01-19 04:29:32.31	292.84	62.82	-40.0	-41.0	19.2	0.00e+00	0	43	0	2493513728	50	4023
2026-01-19 04:29:33.17	291.96	62.82	-40.2	-41.2	18.9	0.00e+00	0	43	0	2499805184	50	4128
2026-01-19 04:29:34.30	290.80	62.80	-40.5	-41.6	18.6	0.00e+00	0	43	0	2508193792	50	4298
2026-01-19 04:29:35.15	289.94	62.79	-40.9	-42.1	18.1	0.00e+00	0	43	0	2514485248	51	4301
2026-01-19 04:29:36.28	288.79	62.76	-40.6	-41.6	18.6	0.00e+00	0	43	0	2521825280	51	4086
2026-01-19 04:29:37.14	287.91	62.73	-40.3	-41.3	18.8	0.00e+00	0	43	0	2528116736	51	3951
2026-01-19 04:29:38.27	286.77	62.68	-40.1	-41.1	19.0	0.00e+00	0	43	0	2536505344	50	4089
2026-01-19 04:29:39.12	285.91	62.64	-40.2	-41.2	18.9	0.00e+00	0	43	0	2542796800	50	4122
2026-01-19 04:29:40.26	284.76	62.57	-40.5	-41.6	18.6	0.00e+00	0	43	0	2551185408	50	4293
2026-01-19 04:29:41.11	283.92	62.52	-40.5	-41.5	18.6	0.00e+00	0	43	0	2557476864	50	4291
2026-01-19 04:29:42.24	282.79	62.44	-40.7	-41.8	18.4	0.00e+00	0	43	0	2565865472	51	4170
2026-01-19 04:29:43.09	281.95	62.37	-40.8	-41.9	18.3	0.00e+00	0	43	0	2571108352	51	4218
2026-01-19 04:29:44.23	280.83	62.27	-40.9	-42.0	18.1	0.00e+00	0	43	0	2579496960	51	4273
2026-01-19 04:29:45.08	280.01	62.19	-40.7	-41.7	18.4	0.00e+00	0	43	0	2585788416	51	4136
2026-01-19 04:29:46.22	278.90	62.08	-40.8	-41.9	18.3	0.00e+00	0	43	0	2594177024	51	4215
2026-01-19 04:29:47.07	278.09	61.99	-41.0	-42.1	18.2	0.00e+00	0	43	0	2600468480	51	4304
2026-01-19 04:29:48.20	277.02	61.86	-41.2	-42.4	17.8	0.00e+00	0	43	0	2608857088	52	4210
2026-01-19 04:29:49.05	276.22	61.76	-41.5	-42.7	17.5	0.00e+00	0	43	0	2614099968	52	4342
2026-01-19 04:29:50.19	275.15	61.62	-41.8	-43.0	17.1	0.00e+00	0	43	0	2622488576	53	4285
2026-01-19 04:29:51.04	274.37	61.50	-41.9	-43.2	17.0	0.00e+00	0	43	0	2628780032	53	4341
2026-01-19 04:29:52.17	273.34	61.35	-41.6	-42.9	17.3	0.00e+00	0	43	0	2637168640	53	4196
2026-01-19 04:29:53.03	272.56	61.22	-41.8	-43.0	17.2	0.00e+00	0	43	0	2643460096	53	4258
2026-01-19 04:29:54.16	271.55	61.05	-41.7	-42.8	17.3	0.00e+00	0	43	0	2650800128	53	4190
2026-01-19 04:29:55.01	270.81	60.92	-42.1	-43.3	16.8	0.00e+00	0	43	0	2657091584	53	4419
2026-01-19 04:29:56.15	269.81	60.74	-42.1	-43.3	16.8	0.00e+00	0	43	0	2665480192	53	4435
2026-01-19 04:29:57.00	269.08	60.60	-42.4	-43.7	16.5	0.00e+00	0	43	0	2671771648	54	4373
2026-01-19 04:29:58.13	268.13	60.40	-42.3	-43.5	16.6	0.00e+00	0	43	0	2680160256	54	4291
2026-01-19 04:29:58.98	267.41	60.25	-42.4	-43.7	16.5	0.00e+00	0	43	0	2686451712	54	4376
2026-01-19 04:30:00.12	266.47	60.05	-42.0	-43.3	16.9	0.00e+00	0	43	0	2693791744	54	4155
2026-01-19 04:30:00.97	265.78	59.89	-42.0	-43.3	16.9	0.00e+00	0	43	0	2700083200	54	4162
2026-01-19 04:30:02.10	264.88	59.67	-41.9	-43.2	17.0	0.00e+00	0	43	0	2708471808	54	4108
2026-01-19 04:30:02.95	264.21	59.51	-42.2	-43.5	16.7	0.00e+00	0	43	0	2714763264	54	4278
2026-01-19 04:30:04.09	263.32	59.28	-42.5	-43.8	16.4	0.00e+00	0	43	0	2723151872	54	4395
2026-01-19 04:30:04.94	262.67	59.11	-42.3	-43.6	16.6	0.00e+00	0	43	0	2729443328	54	4301
2026-01-19 04:30:06.08	261.81	58.87	-42.5	-43.8	16.4	0.00e+00	0	43	0	2736783360	54	4427
2026-01-19 04:30:06.93	261.18	58.69	-42.4	-43.7	16.5	0.00e+00	0	43	0	2743074816	54	4361
2026-01-19 04:30:08.06	260.35	58.45	-42.7	-44.1	16.1	0.00e+00	0	43	0	2751463424	54	4567
2026-01-19 04:30:08.91	259.74	58.27	-42.7	-44.1	16.0	0.00e+00	0	43	0	2757754880	55	4337
2026-01-19 04:30:10.05	258.94	58.01	-42.8	-44.2	16.0	1.10e-06	0	43	0	2766143488	55	4372
2026-01-19 04:30:10.90	258.34	57.82	-43.3	-44.7	15.5	0.00e+00	0	43	0	2772434944	55	4625
2026-01-19 04:30:12.03	257.57	57.56	-43.5	-45.0	15.4	0.00e+00	0	43	0	2779774976	56	4518
2026-01-19 04:30:12.88	257.00	57.37	-43.7	-45.2	15.1	0.00e+00	0	43	0	2786066432	56	4639
2026-01-19 04:30:14.02	256.25	57.10	-43.4	-44.8	15.5	0.00e+00	0	43	0	2794455040	56	4425
2026-01-19 04:30:14.87	255.69	56.90	-43.5	-45.0	15.4	0.00e+00	0	43	0	2800746496	56	4518
2026-01-19 04:30:16.01	254.96	56.63	-43.4	-44.8	15.5	0.00e+00	0	43	0	2809135104	56	4437
2026-01-19 04:30:16.86	254.43	56.43	-43.6	-45.1	15.3	0.00e+00	0	43	0	2815426560	56	4564
2026-01-19 04:30:17.99	253.73	56.15	-43.6	-45.1	15.3	0.00e+00	0	43	0	2823815168	56	4561
2026-01-19 04:30:18.84	253.22	55.94	-43.5	-44.9	15.5	0.00e+00	0	43	0	2830106624	56	4468
2026-01-19 04:30:19.98	252.54	55.66	-43.7	-45.2	15.2	0.00e+00	0	43	0	2837446656	56	4617
2026-01-19 04:30:20.83	252.04	55.45	-43.6	-45.1	15.3	0.00e+00	0	43	0	2843738112	56	4567
2026-01-19 04:30:21.96	251.39	55.17	-44.2	-45.8	14.6	0.00e+00	0	43	0	2852126720	57	4662
2026-01-19 04:30:22.81	250.91	54.95	-43.9	-45.5	14.9	1.10e-06	0	43	0	2858418176	58	4253
2026-01-19 04:30:23.95	250.28	54.66	-43.7	-45.2	15.1	0.00e+00	0	43	0	2866806784	58	4121
2026-01-19 04:30:24.80	249.81	54.45	-43.7	-45.1	15.1	1.10e-06	0	43	0	2872049664	58	4096
2026-01-19 04:30:25.94	249.20	54.15	-43.6	-45.1	15.3	0.00e+00	0	43	0	2880438272	57	4295
2026-01-19 04:30:26.79	248.75	53.93	-44.2	-45.8	14.5	1.10e-06	0	43	0	2886729728	57	4668
2026-01-19 04:30:27.92	248.17	53.64	-44.2	-45.7	14.6	3.40e-06	0	43	0	2895118336	58	4377
2026-01-19 04:30:28.77	247.74	53.42	-44.1	-45.7	14.7	0.00e+00	0	43	0	2901409792	58	4357
2026-01-19 04:30:29.91	247.17	53.12	-44.1	-45.7	14.6	0.00e+00	0	43	0	2909798400	58	4362
2026-01-19 04:30:30.76	246.75	52.90	-43.9	-45.5	14.9	1.10e-06	0	43	0	2915041280	58	4261
2026-01-19 04:30:31.89	246.21	52.61	-44.6	-46.3	14.0	1.10e-06	0	43	0	2923429888	58	4688
2026-01-19 04:30:32.75	245.80	52.38	-44.4	-46.1	14.2	3.40e-06	0	43	0	2929721344	58	4561
2026-01-19 04:30:33.88	245.28	52.08	-44.3	-45.9	14.4	0.00e+00	0	43	0	2938109952	58	4468
2026-01-19 04:30:34.73	244.89	51.86	-44.3	-45.9	14.4	0.00e+00	0	43	0	2944401408	58	4462
2026-01-19 04:30:35.87	244.38	51.56	-44.0	-45.6	14.8	0.00e+00	0	43	0	2952790016	58	4296
2026-01-19 04:30:36.72	244.00	51.33	-44.2	-45.9	14.5	0.00e+00	0	43	0	2958032896	58	4455
2026-01-19 04:30:37.85	243.51	51.03	-44.1	-45.7	14.6	1.10e-06	0	43	0	2966421504	58	4358
2026-01-19 04:30:38.70	243.15	50.81	-44.1	-45.7	14.6	0.00e+00	0	43	0	2972712960	58	4363
2026-01-19 04:30:39.84	242.67	50.50	-44.5	-46.1	14.2	1.10e-06	0	43	0	2981101568	58	4595
2026-01-19 04:30:40.69	242.33	50.28	-44.2	-45.8	14.5	1.10e-06	0	43	0	2987393024	58	4435
2026-01-19 04:30:41.83	241.87	49.97	-44.5	-46.2	14.2	1.10e-06	0	43	0	2995781632	58	4610
2026-01-19 04:30:42.68	241.53	49.75	-44.7	-46.4	13.9	4.50e-06	0	43	0	3001024512	58	4736
2026-01-19 04:30:43.81	241.09	49.45	-44.3	-46.0	14.3	2.20e-06	0	43	0	3009413120	58	4513
2026-01-19 04:30:44.66	240.76	49.22	-44.1	-45.7	14.6	0.00e+00	0	43	0	3015704576	58	4384
2026-01-19 04:30:45.80	240.33	48.92	-44.1	-45.7	14.6	0.00e+00	0	43	0	3024093184	58	4351
2026-01-19 04:30:46.65	240.02	48.70	-43.9	-45.5	14.8	0.00e+00	0	43	0	3030384640	58	4259
2026-01-19 04:30:47.78	239.61	48.40	-44.1	-45.7	14.6	0.00e+00	0	43	0	3037724672	58	4371
2026-01-19 04:30:48.64	239.30	48.17	-44.3	-45.9	14.3	0.00e+00	0	43	0	3044016128	58	4487
2026-01-19 04:30:49.77	238.90	47.87	-44.0	-45.6	14.7	1.10e-06	0	43	0	3052404736	58	4298
2026-01-19 04:30:50.62	238.61	47.65	-44.0	-45.6	14.8	0.00e+00	0	43	0	3058696192	58	4301
2026-01-19 04:30:51.76	238.22	47.35	-43.8	-45.3	15.0	0.00e+00	0	43	0	3067084800	58	4187
2026-01-19 04:30:52.61	237.94	47.13	-43.6	-45.1	15.2	0.00e+00	0	43	0	3073376256	58	4094
2026-01-19 04:30:53.74	237.57	46.83	-44.0	-45.6	14.6	0.00e+00	0	43	0	3081764864	58	4312
2026-01-19 04:30:54.59	237.29	46.61	-44.0	-45.6	14.7	0.00e+00	0	42	0	3088056320	58	4320
2026-01-19 04:30:55.73	236.93	46.31	-43.8	-45.4	14.9	1.10e-06	0	43	0	3095396352	58	4204
2026-01-19 04:30:56.58	236.66	46.09	-43.9	-45.4	14.9	0.00e+00	0	43	0	3101687808	58	4223
2026-01-19 04:30:57.71	236.32	45.80	-44.0	-45.5	14.8	0.00e+00	0	43	0	3110076416	58	4266
2026-01-19 04:30:58.57	236.06	45.58	-44.0	-45.6	14.7	0.00e+00	0	43	0	3116367872	58	4318
2026-01-19 04:30:59.70	235.72	45.29	-44.4	-46.0	14.3	2.20e-06	0	42	0	3124756480	58	4520
2026-01-19 04:31:00.55	235.47	45.07	-44.5	-46.1	14.2	6.80e-06	0	43	0	3131047936	58	4590
2026-01-19 04:31:01.69	235.14	44.78	-44.2	-45.9	14.4	1.10e-06	0	43	0	3138387968	58	4442
2026-01-19 04:31:02.54	234.90	44.56	-44.2	-45.8	14.5	2.20e-06	0	43	0	3144679424	58	4398
2026-01-19 04:31:03.67	234.59	44.27	-44.2	-45.8	14.5	0.00e+00	0	43	0	3153068032	58	4416
2026-01-19 04:31:04.52	234.35	44.06	-43.9	-45.5	14.8	1.10e-06	0	43	0	3159359488	58	4248
2026-01-19 04:31:05.66	234.04	43.77	-44.0	-45.6	14.7	0.00e+00	0	42	0	3167748096	58	4315
2026-01-19 04:31:06.51	233.82	43.56	-44.2	-45.8	14.5	0.00e+00	0	43	0	3174039552	58	4410
2026-01-19 04:31:07.65	233.52	43.27	-44.1	-45.6	14.6	0.00e+00	0	42	0	3181379584	58	4339
2026-01-19 04:31:08.50	233.30	43.06	-43.8	-45.4	14.9	1.10e-06	0	43	0	3187671040	58	4197
2026-01-19 04:31:09.63	233.01	42.78	-44.0	-45.6	14.7	0.00e+00	0	43	0	3196059648	58	4299
2026-01-19 04:31:10.48	232.80	42.57	-43.9	-45.4	14.9	0.00e+00	0	42	0	3202351104	58	4221
2026-01-19 04:31:11.62	232.52	42.29	-43.7	-45.3	15.0	1.10e-06	0	43	0	3210739712	58	4157
2026-01-19 04:31:12.47	232.31	42.08	-43.7	-45.3	15.0	0.00e+00	0	43	0	3217031168	58	4153
2026-01-19 04:31:13.61	232.04	41.80	-44.1	-45.7	14.6	0.00e+00	0	42	0	3224371200	58	4349
2026-01-19 04:31:14.46	231.84	41.59	-43.9	-45.5	14.8	0.00e+00	0	43	0	3230662656	58	4244
2026-01-19 04:31:15.59	231.58	41.32	-44.0	-45.5	14.8	0.00e+00	0	43	0	3239051264	58	4276
2026-01-19 04:31:16.44	231.39	41.11	-43.9	-45.5	14.8	0.00e+00	0	43	0	3245342720	58	4250
2026-01-19 04:31:17.58	231.13	40.84	-44.1	-45.6	14.6	0.00e+00	0	43	0	3253731328	58	4336
2026-01-19 04:31:18.43	230.94	40.63	-43.9	-45.5	14.8	0.00e+00	0	43	0	3258974208	58	4251
2026-01-19 04:31:19.57	230.69	40.36	-44.1	-45.7	14.5	0.00e+00	0	43	0	3267362816	58	4378
2026-01-19 04:31:20.42	230.51	40.16	-44.3	-45.9	14.3	0.00e+00	0	43	0	3273654272	58	4480
2026-01-19 04:31:21.55	230.27	39.90	-44.3	-46.0	14.3	2.20e-06	0	42	0	3282042880	58	4498
2026-01-19 04:31:22.41	230.09	39.69	-44.3	-45.9	14.3	2.20e-06	0	42	0	3288334336	58	4469
2026-01-19 04:31:23.54	229.86	39.43	-44.4	-46.1	14.2	3.40e-06	0	43	0	3296722944	58	4568
2026-01-19 04:31:24.39	229.69	39.23	-44.5	-46.2	14.1	1.10e-06	0	43	0	3303014400	58	4600
2026-01-19 04:31:25.53	229.46	38.97	-44.2	-45.8	14.4	0.00e+00	0	43	0	3310354432	58	4432
2026-01-19 04:31:26.38	229.29	38.77	-44.2	-45.8	14.4	0.00e+00	0	42	0	3316645888	58	4441
2026-01-19 04:31:27.51	229.07	38.51	-44.3	-45.9	14.3	0.00e+00	0	43	0	3325034496	58	4479
2026-01-19 04:31:28.37	228.91	38.32	-44.4	-46.0	14.2	3.40e-06	0	43	0	3331325952	58	4540
2026-01-19 04:31:29.50	228.69	38.06	-44.1	-45.7	14.6	0.00e+00	0	42	0	3339714560	58	4375
2026-01-19 04:31:30.35	228.53	37.87	-44.1	-45.8	14.5	0.00e+00	0	42	0	3346006016	58	4400
2026-01-19 04:31:31.49	228.32	37.61	-44.2	-45.9	14.4	0.00e+00	0	43	0	3353346048	58	4457
2026-01-19 04:31:32.34	228.17	37.42	-44.3	-46.0	14.2	1.10e-06	0	42	0	3360686080	58	4528
2026-01-19 04:31:33.47	227.97	37.17	-44.1	-45.7	14.6	0.00e+00	0	42	0	3368026112	58	4361
2026-01-19 04:31:34.32	227.82	36.99	-44.2	-45.8	14.4	1.10e-06	0	42	0	3374317568	58	4440
2026-01-19 04:31:35.46	227.62	36.74	-44.2	-45.8	14.3	2.20e-06	0	43	0	3382706176	58	4441
2026-01-19 04:31:36.31	227.47	36.55	-44.5	-46.2	14.0	1.10e-06	0	42	0	3388997632	58	4648
2026-01-19 04:31:37.44	227.28	36.30	-44.4	-46.0	14.2	2.20e-06	0	43	0	3397386240	58	4529
2026-01-19 04:31:38.30	227.14	36.12	-44.5	-46.2	14.0	1.10e-06	0	42	0	3402629120	58	4632
2026-01-19 04:31:39.43	226.95	35.87	-44.5	-46.3	14.0	4.50e-06	0	43	0	3411017728	58	4659
2026-01-19 04:31:40.28	226.81	35.69	-44.6	-46.4	13.9	8.00e-06	0	43	0	3417309184	58	4723
2026-01-19 04:31:41.42	226.63	35.45	-44.3	-46.0	14.2	4.50e-06	0	42	0	3425697792	58	4531
2026-01-19 04:31:42.27	226.49	35.27	-44.2	-45.9	14.3	1.10e-06	0	42	0	3431989248	58	4472
2026-01-19 04:31:43.41	226.32	35.03	-44.1	-45.7	14.5	1.10e-06	0	43	0	3440377856	58	4377
2026-01-19 04:31:44.26	226.18	34.85	-44.2	-45.8	14.5	0.00e+00	0	43	0	3445620736	58	4415
2026-01-19 04:31:45.39	226.01	34.62	-44.1	-45.7	14.5	0.00e+00	0	43	0	3454009344	58	4367
2026-01-19 04:31:46.24	225.88	34.44	-43.9	-45.5	14.7	0.00e+00	0	42	0	3460300800	58	4256
2026-01-19 04:31:47.38	225.72	34.21	-44.0	-45.6	14.6	0.00e+00	0	42	0	3468689408	58	4334
2026-01-19 04:31:48.23	225.59	34.03	-44.1	-45.7	14.6	1.10e-06	0	42	0	3474980864	58	4359
2026-01-19 04:31:49.36	225.43	33.80	-44.3	-45.9	14.3	1.10e-06	0	42	0	3483369472	58	4477
2026-01-19 04:31:50.22	225.30	33.63	-44.2	-45.8	14.5	0.00e+00	0	42	0	3488612352	58	4408
2026-01-19 04:31:51.35	225.14	33.40	-44.2	-45.9	14.4	0.00e+00	0	42	0	3497000960	58	4442
2026-01-19 04:31:52.20	225.03	33.23	-44.3	-45.9	14.3	1.10e-06	0	42	0	3503292416	58	4473
2026-01-19 04:31:53.34	224.87	33.00	-44.4	-46.1	14.1	1.10e-06	0	42	0	3511681024	58	4558
2026-01-19 04:31:54.19	224.75	32.83	-44.5	-46.2	14.0	4.50e-06	0	42	0	3517972480	58	4635
2026-01-19 04:31:55.32	224.60	32.61	-44.5	-46.2	14.0	2.20e-06	0	42	0	3526361088	58	4628
2026-01-19 04:31:56.17	224.49	32.44	-44.5	-46.2	14.0	3.40e-06	0	42	0	3531603968	58	4628
2026-01-19 04:31:57.31	224.34	32.22	-44.7	-46.5	13.8	1.02e-05	0	42	0	3539992576	58	4774
2026-01-19 04:31:58.16	224.23	32.06	-44.8	-46.6	13.6	6.80e-06	0	42	0	3546284032	59	4552
2026-01-19 04:31:59.30	224.08	31.84	-44.9	-46.7	13.5	1.02e-05	0	42	0	3554672640	59	4650
2026-01-19 04:32:00.15	223.97	31.68	-44.7	-46.4	13.7	9.10e-06	0	42	0	3560964096	59	4480
2026-01-19 04:32:01.28	223.83	31.46	-44.7	-46.5	13.7	1.02e-05	0	42	0	3568304128	59	4510
2026-01-19 04:32:02.13	223.73	31.30	-44.8	-46.6	13.5	6.80e-06	0	43	0	3574595584	59	4597
2026-01-19 04:32:03.27	223.59	31.08	-44.9	-46.8	13.4	1.25e-05	0	42	0	3582984192	59	4652
2026-01-19 04:32:04.12	223.49	30.92	-44.9	-46.8	13.4	1.71e-05	0	42	0	3589275648	59	4666
2026-01-19 04:32:05.25	223.35	30.71	-44.9	-46.7	13.5	1.94e-05	0	42	0	3597664256	59	4603
2026-01-19 04:32:06.11	223.25	30.56	-44.8	-46.6	13.6	4.50e-06	0	43	0	3603955712	59	4571
2026-01-19 04:32:07.24	223.12	30.35	-44.9	-46.7	13.5	6.80e-06	0	42	0	3612344320	59	4618
2026-01-19 04:32:08.09	223.02	30.19	-44.9	-46.7	13.5	8.00e-06	0	43	0	3618635776	59	4601
2026-01-19 04:32:09.23	222.89	29.98	-45.0	-46.8	13.4	1.83e-05	0	42	0	3625975808	59	4669
2026-01-19 04:32:10.08	222.79	29.83	-44.9	-46.8	13.4	1.60e-05	0	43	0	3632267264	59	4660
2026-01-19 04:32:11.21	222.67	29.63	-44.7	-46.5	13.7	9.10e-06	0	43	0	3640655872	59	4524
2026-01-19 04:32:12.06	222.57	29.47	-44.9	-46.7	13.5	4.50e-06	0	42	0	3646947328	59	4604
2026-01-19 04:32:13.20	222.45	29.27	-44.9	-46.7	13.5	1.83e-05	0	42	0	3655335936	59	4640
2026-01-19 04:32:14.05	222.36	29.12	-45.1	-47.0	13.2	1.94e-05	0	42	0	3661627392	59	4763
2026-01-19 04:32:15.19	222.24	28.92	-45.0	-46.9	13.3	2.97e-05	0	43	0	3668967424	59	4728
2026-01-19 04:32:16.04	222.15	28.77	-45.0	-46.8	13.3	1.83e-05	0	42	0	3675258880	59	4691
2026-01-19 04:32:17.17	222.03	28.57	-44.8	-46.6	13.5	1.60e-05	0	43	0	3683647488	59	4575
2026-01-19 04:32:18.02	221.94	28.43	-44.8	-46.7	13.5	1.94e-05	0	42	0	3689938944	59	4601
2026-01-19 04:32:19.16	221.83	28.23	-44.9	-46.7	13.5	1.25e-05	0	42	0	3698327552	59	4635
2026-01-19 04:32:20.01	221.74	28.08	-44.9	-46.8	13.4	1.02e-05	0	42	0	3704619008	59	4669
2026-01-19 04:32:21.15	221.63	27.89	-44.8	-46.6	13.5	1.37e-05	0	42	0	3711959040	59	4598
2026-01-19 04:32:22.00	221.54	27.75	-44.8	-46.5	13.6	6.80e-06	0	42	0	3718250496	59	4545
2026-01-19 04:32:23.13	221.43	27.56	-44.7	-46.4	13.7	8.00e-06	0	42	0	3726639104	59	4479
2026-01-19 04:32:23.98	221.35	27.41	-44.7	-46.4	13.7	4.50e-06	0	43	0	3732930560	59	4481
2026-01-19 04:32:25.12	221.24	27.22	-44.8	-46.6	13.5	9.10e-06	0	42	0	3741319168	59	4591
2026-01-19 04:32:25.97	221.16	27.08	-44.9	-46.7	13.4	1.71e-05	0	42	0	3747610624	59	4633
2026-01-19 04:32:27.10	221.06	26.90	-45.0	-46.8	13.3	1.94e-05	0	42	0	3754950656	59	4697
2026-01-19 04:32:27.95	220.98	26.76	-44.9	-46.8	13.4	1.94e-05	0	43	0	3761242112	59	4674
2026-01-19 04:32:29.09	220.87	26.57	-44.9	-46.7	13.4	1.94e-05	0	43	0	3769630720	59	4620
2026-01-19 04:32:29.94	220.80	26.43	-44.9	-46.8	13.3	2.51e-05	0	42	0	3775922176	59	4681
2026-01-19 04:32:31.08	220.69	26.25	-45.1	-47.0	13.1	4.00e-05	0	42	0	3784310784	59	4787
2026-01-19 04:32:31.93	220.62	26.11	-45.1	-47.0	13.1	2.05e-05	0	43	0	3789553664	59	4806
2026-01-19 04:32:33.06	220.52	25.93	-45.3	-47.3	12.8	5.95e-05	0	43	0	3797942272	59	4949
2026-01-19 04:32:33.91	220.45	25.80	-45.3	-47.3	12.9	5.83e-05	0	42	0	3804233728	60	4689
2026-01-19 04:32:35.05	220.35	25.62	-45.2	-47.2	13.1	4.00e-05	0	43	0	3812622336	60	4610
2026-01-19 04:32:35.90	220.27	25.48	-45.1	-47.1	13.1	4.00e-05	0	43	0	3818913792	60	4582
2026-01-19 04:32:37.03	220.18	25.31	-45.1	-47.2	13.1	3.43e-05	0	42	0	3827302400	60	4615
2026-01-19 04:32:37.88	220.11	25.18	-45.2	-47.2	13.0	2.51e-05	0	42	0	3832545280	60	4644
2026-01-19 04:32:39.02	220.01	25.00	-45.1	-47.1	13.2	4.11e-05	0	42	0	3840933888	60	4576
2026-01-19 04:32:39.87	219.94	24.87	-45.2	-47.2	13.0	3.89e-05	0	43	0	3847225344	60	4646
2026-01-19 04:32:41.01	219.85	24.70	-45.3	-47.3	12.9	4.80e-05	0	42	0	3855613952	60	4699
2026-01-19 04:32:41.86	219.78	24.57	-45.1	-47.1	13.1	3.66e-05	0	42	0	3861905408	60	4569
2026-01-19 04:32:42.99	219.69	24.40	-45.2	-47.1	13.1	2.40e-05	0	42	0	3870294016	60	4598
2026-01-19 04:32:43.85	219.63	24.27	-45.1	-47.1	13.2	2.63e-05	0	42	0	3876585472	60	4546
2026-01-19 04:32:44.98	219.54	24.10	-45.1	-47.0	13.3	3.89e-05	0	43	0	3883925504	60	4513
2026-01-19 04:32:45.83	219.47	23.97	-45.2	-47.2	13.0	2.63e-05	0	43	0	3890216960	60	4639
2026-01-19 04:32:46.97	219.39	23.80	-45.4	-47.4	12.8	6.52e-05	0	42	0	3898605568	60	4713
2026-01-19 04:32:47.82	219.32	23.68	-45.4	-47.5	12.7	6.52e-05	0	42	0	3904897024	60	4761
2026-01-19 04:32:48.95	219.24	23.51	-45.4	-47.4	12.8	5.14e-05	0	43	0	3913285632	60	4727
2026-01-19 04:32:49.80	219.17	23.39	-45.3	-47.3	12.9	5.72e-05	0	42	0	3919577088	60	4669
2026-01-19 04:32:50.94	219.09	23.22	-45.2	-47.2	13.0	4.46e-05	0	42	0	3926917120	60	4609
2026-01-19 04:32:51.79	219.03	23.10	-45.3	-47.3	12.9	4.80e-05	0	42	0	3933208576	60	4681
2026-01-19 04:32:52.92	218.95	22.94	-45.4	-47.4	12.8	5.49e-05	0	42	0	3941597184	60	4727
2026-01-19 04:32:53.78	218.88	22.82	-45.4	-47.4	12.7	7.09e-05	0	42	0	3947888640	60	4758
2026-01-19 04:32:54.91	218.80	22.65	-45.4	-47.4	12.7	9.26e-05	0	43	0	3956277248	60	4755
2026-01-19 04:32:55.76	218.75	22.53	-45.4	-47.4	12.7	9.95e-05	0	43	0	3962568704	60	4759
2026-01-19 04:32:56.90	218.67	22.37	-45.3	-47.4	12.8	7.43e-05	0	42	0	3970957312	60	4709
2026-01-19 04:32:57.75	218.61	22.26	-45.3	-47.3	12.8	5.26e-05	0	42	0	3976200192	60	4705
2026-01-19 04:32:58.88	218.53	22.10	-45.3	-47.4	12.8	5.49e-05	0	42	0	3984588800	60	4735
2026-01-19 04:32:59.73	218.47	21.98	-45.3	-47.3	12.8	6.63e-05	0	42	0	3990880256	60	4687
2026-01-19 04:33:00.87	218.40	21.82	-45.4	-47.5	12.7	8.01e-05	0	42	0	3999268864	60	4786
2026-01-19 04:33:01.72	218.34	21.71	-45.5	-47.7	12.5	1.36e-04	0	42	0	4005560320	60	4873
2026-01-19 04:33:02.86	218.27	21.55	-45.6	-47.8	12.4	1.33e-04	0	42	0	4013948928	60	4935
2026-01-19 04:33:03.71	218.21	21.44	-45.5	-47.7	12.4	1.59e-04	0	42	0	4019191808	60	4908
2026-01-19 04:33:04.84	218.14	21.29	-45.5	-47.7	12.4	1.53e-04	0	43	0	4027580416	60	4901
2026-01-19 04:33:05.69	218.08	21.17	-45.5	-47.7	12.4	1.74e-04	0	42	0	4033871872	60	4897
2026-01-19 04:33:06.83	218.01	21.02	-45.5	-47.6	12.5	1.18e-04	0	43	0	4042260480	60	4845
2026-01-19 04:33:07.68	217.96	20.91	-45.4	-47.6	12.5	1.30e-04	0	42	0	4048551936	60	4830
2026-01-19 04:33:08.82	217.89	20.76	-45.6	-47.8	12.3	1.96e-04	0	42	0	4055891968	60	4968
2026-01-19 04:33:09.67	217.83	20.64	-45.7	-48.0	12.1	2.97e-04	0	42	0	4062183424	60	5071
2026-01-19 04:33:10.80	217.76	20.50	-45.7	-48.0	12.1	3.13e-04	0	42	0	4070572032	61	4786
2026-01-19 04:33:11.66	217.71	20.38	-45.7	-47.9	12.1	2.36e-04	0	43	0	4076863488	61	4745
2026-01-19 04:33:12.79	217.64	20.24	-45.7	-48.0	12.1	3.32e-04	0	42	0	4085252096	61	4789
2026-01-19 04:33:13.64	217.59	20.13	-45.7	-47.9	12.2	2.73e-04	0	43	0	4091543552	61	4730
2026-01-19 04:33:14.78	217.53	19.98	-45.5	-47.7	12.4	2.23e-04	0	43	0	4098883584	61	4626
2026-01-19 04:33:15.63	217.48	19.87	-45.6	-47.8	12.2	2.06e-04	0	42	0	4105175040	61	4688
2026-01-19 04:33:16.76	217.41	19.73	-45.6	-47.8	12.3	1.60e-04	0	42	0	4113563648	61	4680
2026-01-19 04:33:17.61	217.36	19.62	-45.6	-47.8	12.3	2.31e-04	0	42	0	4119855104	61	4665
2026-01-19 04:33:18.75	217.30	19.48	-45.6	-47.8	12.3	2.39e-04	0	43	0	4128243712	61	4657
2026-01-19 04:33:19.60	217.25	19.37	-45.6	-47.8	12.2	2.06e-04	0	43	0	4134535168	61	4681
2026-01-19 04:33:20.74	217.18	19.23	-45.7	-47.9	12.2	2.36e-04	0	42	0	4141875200	61	4726
2026-01-19 04:33:21.59	217.14	19.12	-45.6	-47.9	12.2	2.79e-04	0	42	0	4149215232	61	4714
2026-01-19 04:33:22.72	217.07	18.98	-45.5	-47.7	12.3	2.22e-04	0	42	0	4156555264	61	4623
2026-01-19 04:33:23.58	217.03	18.88	-45.5	-47.7	12.4	1.72e-04	0	43	0	4162846720	61	4610
2026-01-19 04:33:24.71	216.97	18.74	-45.4	-47.5	12.5	1.28e-04	0	43	0	4171235328	61	4539
2026-01-19 04:33:25.56	216.92	18.64	-45.5	-47.7	12.4	1.61e-04	0	42	0	4177526784	61	4614
2026-01-19 04:33:26.70	216.86	18.50	-45.5	-47.8	12.3	1.88e-04	0	42	0	4185915392	61	4660
2026-01-19 04:33:27.55	216.81	18.39	-45.5	-47.7	12.4	1.52e-04	0	42	0	4192206848	61	4637
2026-01-19 04:33:28.69	216.75	18.26	-45.6	-47.8	12.2	2.05e-04	0	42	0	4199546880	61	4683
2026-01-19 04:33:29.54	216.71	18.16	-45.7	-48.1	11.9	3.64e-04	0	42	0	4205838336	61	4815
2026-01-19 04:33:30.67	216.65	18.02	-45.8	-48.2	11.8	3.80e-04	0	42	0	4214226944	61	4884
2026-01-19 04:33:31.52	216.61	17.92	-45.7	-48.0	12.0	4.06e-04	0	42	0	4220518400	61	4805
2026-01-19 04:33:32.66	216.55	17.79	-45.6	-47.9	12.1	3.22e-04	0	42	0	4228907008	61	4738
2026-01-19 04:33:33.51	216.51	17.69	-45.8	-48.1	11.9	3.18e-04	0	42	0	4235198464	61	4851
2026-01-19 04:33:34.65	216.45	17.55	-45.6	-47.9	12.1	3.24e-04	0	42	0	4242538496	61	4756
2026-01-19 04:33:35.50	216.41	17.45	-45.6	-47.9	12.1	3.23e-04	0	42	0	4248829952	61	4743
2026-01-19 04:33:36.63	216.35	17.32	-45.7	-48.0	12.0	3.81e-04	0	42	0	4257218560	61	4797
2026-01-19 04:33:37.48	216.31	17.23	-45.7	-48.0	12.0	3.87e-04	0	42	0	4263510016	61	4806
2026-01-19 04:33:38.62	216.26	17.10	-45.8	-48.1	11.9	5.02e-04	0	42	0	4271898624	61	4849
2026-01-19 04:33:39.47	216.21	17.00	-45.9	-48.3	11.7	5.39e-04	0	42	0	4277141504	61	4971
2026-01-19 04:33:40.61	216.16	16.87	-45.9	-48.3	11.7	7.00e-04	0	42	0	4285530112	61	4945
2026-01-19 04:33:41.46	216.12	16.77	-46.0	-48.4	11.6	6.99e-04	0	42	0	4291821568	61	4992
2026-01-19 04:33:42.59	216.07	16.64	-46.0	-48.5	11.5	7.66e-04	0	42	0	4300210176	61	5048
2026-01-19 04:33:43.44	216.03	16.55	-46.0	-48.4	11.5	9.20e-04	0	42	0	4306501632	61	5040
2026-01-19 04:33:44.58	215.97	16.42	-46.0	-48.4	11.6	8.47e-04	0	42	0	4314890240	61	5013
2026-01-19 04:33:45.43	215.94	16.33	-45.9	-48.3	11.6	7.63e-04	0	42	0	4320133120	61	4961
2026-01-19 04:33:46.57	215.88	16.20	-45.9	-48.3	11.6	7.29e-04	0	42	0	4328521728	61	4956
2026-01-19 04:33:47.42	215.85	16.11	-45.9	-48.3	11.6	7.52e-04	0	42	0	4334813184	61	4973
2026-01-19 04:33:48.55	215.79	15.98	-46.0	-48.4	11.5	9.17e-04	0	42	0	4343201792	61	5038
2026-01-19 04:33:49.41	215.76	15.89	-46.0	-48.5	11.4	1.03e-03	0	42	0	4349493248	61	5077
2026-01-19 04:33:50.54	215.71	15.77	-46.1	-48.6	11.4	1.14e-03	0	42	0	4357881856	61	5118
2026-01-19 04:33:51.39	215.67	15.67	-46.1	-48.6	11.3	1.19e-03	0	42	0	4364173312	61	5122
2026-01-19 04:33:52.53	215.62	15.55	-46.1	-48.6	11.3	1.30e-03	0	42	0	4371513344	61	5152
2026-01-19 04:33:53.38	215.58	15.46	-46.1	-48.6	11.3	1.39e-03	0	42	0	4377804800	61	5120
2026-01-19 04:33:54.51	215.54	15.34	-46.1	-48.7	11.2	1.36e-03	0	42	0	4386193408	61	5162
2026-01-19 04:33:55.36	215.50	15.25	-46.1	-48.6	11.3	1.30e-03	0	42	0	4392484864	61	5137
2026-01-19 04:33:56.50	215.45	15.13	-46.1	-48.5	11.4	1.19e-03	0	42	0	4400873472	61	5100
2026-01-19 04:33:57.35	215.42	15.04	-46.0	-48.5	11.4	1.09e-03	0	42	0	4407164928	61	5065
2026-01-19 04:33:58.49	215.37	14.92	-46.1	-48.6	11.3	1.09e-03	0	42	0	4414504960	61	5114
2026-01-19 04:33:59.34	215.33	14.83	-46.0	-48.5	11.4	1.11e-03	0	42	0	4420796416	61	5079
2026-01-19 04:34:00.47	215.29	14.71	-46.0	-48.4	11.5	9.70e-04	0	42	0	4429185024	61	5036
2026-01-19 04:34:01.33	215.25	14.62	-46.1	-48.5	11.4	1.14e-03	0	42	0	4435476480	61	5082
2026-01-19 04:34:02.46	215.21	14.50	-46.1	-48.6	11.4	1.34e-03	0	42	0	4443865088	61	5116
2026-01-19 04:34:03.31	215.17	14.42	-46.2	-48.7	11.2	1.46e-03	0	42	0	4450156544	61	5194
2026-01-19 04:34:04.45	215.13	14.30	-46.2	-48.7	11.1	1.61e-03	0	42	0	4458545152	61	5193
2026-01-19 04:34:05.30	215.09	14.21	-46.2	-48.7	11.2	1.55e-03	0	42	0	4463788032	61	5165
2026-01-19 04:34:06.43	215.05	14.10	-46.3	-48.9	11.0	1.90e-03	0	43	0	4472176640	62	4989
2026-01-19 04:34:07.28	215.02	14.01	-46.4	-49.0	10.9	2.11e-03	0	42	0	4478468096	62	5046
2026-01-19 04:34:08.42	214.97	13.89	-46.3	-48.8	11.0	1.91e-03	0	42	0	4486856704	62	4983
2026-01-19 04:34:09.27	214.94	13.81	-46.2	-48.8	11.1	1.71e-03	0	42	0	4493148160	62	4930
2026-01-19 04:34:10.40	214.90	13.70	-46.2	-48.7	11.2	1.79e-03	0	42	0	4501536768	62	4890
2026-01-19 04:34:11.26	214.86	13.61	-46.2	-48.7	11.2	1.56e-03	0	42	0	4506779648	62	4876
2026-01-19 04:34:12.39	214.82	13.50	-46.2	-48.7	11.1	1.71e-03	0	42	0	4515168256	62	4900
2026-01-19 04:34:13.24	214.79	13.41	-46.2	-48.8	11.1	1.87e-03	0	42	0	4521459712	62	4955
2026-01-19 04:34:14.38	214.75	13.30	-46.2	-48.7	11.1	1.89e-03	0	42	0	4529848320	62	4907
2026-01-19 04:34:15.23	214.72	13.22	-46.3	-48.9	11.0	1.95e-03	0	42	0	4536139776	62	4988
2026-01-19 04:34:16.36	214.68	13.11	-46.2	-48.7	11.1	2.32e-03	0	42	0	4544528384	62	4926
2026-01-19 04:34:17.21	214.64	13.02	-46.4	-49.0	10.8	2.58e-03	0	42	0	4549771264	62	5066
2026-01-19 04:34:18.35	214.60	12.91	-46.5	-49.2	10.5	3.30e-03	0	42	0	4558159872	62	5214
2026-01-19 04:34:19.20	214.57	12.83	-46.4	-49.1	10.7	3.72e-03	0	42	0	4564451328	62	5147
2026-01-19 04:34:20.33	214.53	12.72	-46.4	-49.1	10.7	3.39e-03	0	42	0	4572839936	62	5155
2026-01-19 04:34:21.19	214.50	12.64	-46.5	-49.2	10.6	3.92e-03	0	42	0	4579131392	62	5207
2026-01-19 04:34:22.32	214.46	12.53	-46.6	-49.3	10.4	5.02e-03	0	42	0	4586471424	62	5271
2026-01-19 04:34:23.17	214.43	12.45	-46.6	-49.4	10.4	4.43e-03	0	42	0	4592762880	62	5282
2026-01-19 04:34:24.31	214.39	12.34	-46.6	-49.3	10.4	4.64e-03	0	42	0	4601151488	62	5277
2026-01-19 04:34:25.16	214.37	12.26	-46.5	-49.3	10.5	4.66e-03	0	42	0	4607442944	62	5220
2026-01-19 04:34:26.29	214.33	12.15	-46.4	-49.1	10.6	4.00e-03	0	42	0	4615831552	62	5157
2026-01-19 04:34:27.14	214.30	12.07	-46.6	-49.4	10.3	4.45e-03	0	42	0	4622123008	62	5313
2026-01-19 04:34:28.28	214.26	11.97	-46.5	-49.3	10.5	4.97e-03	0	42	0	4629463040	62	5267
2026-01-19 04:34:29.13	214.23	11.89	-46.4	-49.2	10.6	3.94e-03	0	42	0	4635754496	62	5172
