passes_logs/2026/01/19/T1/T1__20260119_005844_FENGYUN_3D_rec.log

#Pass ID: 20260119_005844_FENGYUN 3D
#Satellite: FENGYUN 3D
#Configuration: FENGYUN 3D
#almurnet v.1.7.20251203
#Start time: 2026-01-19 00:58:44

#Version: 2.0.20230620
#Station: T1
#Location: 37.570604 lon 55.790049 lat
#TLE: 1 43010U 17072A   26017.96359538  .00000271  00000+0  15011-3 0  9999
#TLE: 2 43010  98.9936 349.8252 0002386 103.8840 256.2601 14.19697057423673

#Time	Az	El	Level	Level2	SNR	BER	BlckErr	Temp	State	Recorded	gain1	gain2
2026-01-19 00:58:44.74	22.79	5.03	-48.8	-61.8	3.8	8.48e-01	0	40	0	0	69	15812
2026-01-19 00:58:45.73	22.84	5.10	-48.8	-61.6	3.8	8.46e-01	0	39	104	0	68	16337
2026-01-19 00:58:46.73	22.89	5.17	-48.8	-61.6	3.8	8.48e-01	0	39	104	0	68	16337
2026-01-19 00:58:47.72	22.94	5.23	-48.8	-61.5	3.8	8.46e-01	0	40	104	0	68	16265
2026-01-19 00:58:48.71	22.98	5.30	-48.8	-61.5	3.8	8.47e-01	0	40	104	0	68	16212
2026-01-19 00:58:49.71	23.03	5.37	-48.8	-61.4	3.8	8.47e-01	0	40	104	0	68	16084
2026-01-19 00:58:50.70	23.08	5.44	-48.8	-61.4	3.8	8.46e-01	0	40	104	0	68	16119
2026-01-19 00:58:51.70	23.13	5.50	-48.8	-61.4	3.8	8.46e-01	0	40	104	0	68	16092
2026-01-19 00:58:52.69	23.18	5.57	-48.8	-61.4	3.8	8.47e-01	0	40	104	0	68	16123
2026-01-19 00:58:53.68	23.23	5.64	-48.8	-61.5	3.8	8.47e-01	0	40	104	0	68	16261
2026-01-19 00:58:54.68	23.28	5.71	-48.8	-61.5	3.8	8.46e-01	0	40	104	0	68	16302
2026-01-19 00:58:55.67	23.33	5.78	-48.8	-61.6	3.8	8.47e-01	0	40	104	0	68	16403
2026-01-19 00:58:56.66	23.38	5.85	-48.8	-61.6	3.8	8.46e-01	0	40	104	0	68	16371
2026-01-19 00:58:57.66	23.43	5.92	-48.8	-61.6	3.8	8.46e-01	0	40	104	0	68	16473
2026-01-19 00:58:58.65	23.48	5.99	-48.8	-61.6	3.8	8.48e-01	0	40	104	0	68	16494
2026-01-19 00:58:59.64	23.53	6.05	-48.8	-61.7	3.8	8.47e-01	0	40	104	0	68	16519
2026-01-19 00:59:00.64	23.58	6.12	-48.8	-61.7	3.8	8.48e-01	0	40	104	0	68	16574
2026-01-19 00:59:01.63	23.63	6.19	-48.8	-61.6	3.8	8.48e-01	0	40	104	0	68	16496
2026-01-19 00:59:02.62	23.68	6.26	-48.8	-61.6	3.8	8.47e-01	0	40	104	0	68	16444
2026-01-19 00:59:03.62	23.74	6.33	-48.8	-61.5	3.8	8.47e-01	0	40	104	0	68	16305
2026-01-19 00:59:04.61	23.79	6.40	-48.8	-61.5	3.8	8.47e-01	0	40	104	0	68	16283
2026-01-19 00:59:05.61	23.84	6.48	-48.8	-61.5	3.8	8.46e-01	0	40	104	0	68	16241
2026-01-19 00:59:06.60	23.89	6.55	-48.8	-61.5	3.8	8.47e-01	0	40	104	0	68	16247
2026-01-19 00:59:07.59	23.94	6.62	-48.8	-61.5	3.8	8.47e-01	0	40	104	0	68	16267
2026-01-19 00:59:08.59	24.00	6.69	-48.8	-61.5	3.8	8.47e-01	0	40	104	0	68	16301
2026-01-19 00:59:09.58	24.05	6.76	-48.8	-61.6	3.8	8.48e-01	0	40	104	0	68	16388
2026-01-19 00:59:10.57	24.10	6.83	-48.8	-61.6	3.8	8.46e-01	0	41	104	0	68	16439
2026-01-19 00:59:11.57	24.16	6.90	-48.8	-61.6	3.8	8.47e-01	0	41	104	0	68	16336
2026-01-19 00:59:12.56	24.21	6.97	-48.8	-61.5	3.8	8.47e-01	0	40	104	0	68	16187
2026-01-19 00:59:13.55	24.26	7.05	-48.8	-61.4	3.8	8.46e-01	0	41	104	0	68	15962
2026-01-19 00:59:14.55	24.32	7.12	-48.7	-61.1	3.8	8.46e-01	0	41	104	0	68	15563
2026-01-19 00:59:15.54	24.37	7.19	-48.7	-60.9	3.8	8.47e-01	0	41	104	0	68	15057
2026-01-19 00:59:16.54	24.43	7.26	-48.7	-60.5	3.8	8.47e-01	0	41	104	0	68	14458
2026-01-19 00:59:17.53	24.48	7.34	-48.7	-60.3	3.8	8.46e-01	0	41	104	0	68	14133
2026-01-19 00:59:18.52	24.54	7.41	-48.6	-60.0	3.8	8.47e-01	0	41	104	0	68	13671
2026-01-19 00:59:19.52	24.59	7.48	-48.6	-59.8	3.8	8.46e-01	0	41	104	0	68	13407
2026-01-19 00:59:20.51	24.65	7.55	-48.6	-59.7	3.8	8.47e-01	0	41	104	0	68	13189
2026-01-19 00:59:21.50	24.71	7.63	-48.6	-59.7	3.8	8.46e-01	0	41	104	0	68	13187
2026-01-19 00:59:22.50	24.76	7.70	-48.6	-59.5	3.9	8.44e-01	0	41	104	0	68	12928
2026-01-19 00:59:23.49	24.82	7.78	-48.6	-59.6	3.9	8.45e-01	0	41	104	0	68	12989
2026-01-19 00:59:24.49	24.88	7.85	-48.6	-59.6	3.9	8.46e-01	0	41	104	0	68	13020
2026-01-19 00:59:25.48	24.93	7.92	-48.6	-59.7	3.8	8.45e-01	0	41	104	0	68	13141
2026-01-19 00:59:26.47	24.99	8.00	-48.6	-59.6	3.8	8.46e-01	0	41	104	0	68	13034
2026-01-19 00:59:27.46	25.05	8.07	-48.6	-59.6	3.8	8.46e-01	0	41	104	0	68	12998
2026-01-19 00:59:28.46	25.10	8.15	-48.5	-59.3	4.0	8.45e-01	0	41	104	0	68	12558
2026-01-19 00:59:29.45	25.16	8.22	-48.5	-59.1	3.8	8.45e-01	0	41	104	0	68	12292
2026-01-19 00:59:30.44	25.22	8.30	-48.4	-58.5	4.1	8.41e-01	0	41	0	0	68	11446
2026-01-19 00:59:31.44	25.28	8.37	-48.3	-57.6	4.4	8.35e-01	0	41	0	0	68	10326
2026-01-19 00:59:32.43	25.34	8.45	-48.2	-56.7	4.8	8.19e-01	0	41	0	0	68	9287
2026-01-19 00:59:33.42	25.40	8.52	-47.7	-55.1	5.6	7.25e-01	0	41	0	0	67	8183
2026-01-19 00:59:34.42	25.46	8.60	-47.4	-53.9	6.5	3.32e-01	0	41	0	5242880	66	7586
2026-01-19 00:59:35.41	25.52	8.68	-46.8	-52.2	8.1	9.55e-02	0	41	0	10485760	65	6605
2026-01-19 00:59:36.40	25.58	8.75	-46.1	-50.7	9.6	2.85e-02	0	41	0	16777216	64	5918
2026-01-19 00:59:37.40	25.64	8.83	-45.5	-49.4	11.0	3.88e-03	0	41	0	22020096	63	5391
2026-01-19 00:59:38.39	25.70	8.91	-44.8	-48.4	12.1	5.50e-04	0	41	0	27262976	61	5345
2026-01-19 00:59:39.39	25.76	8.98	-44.2	-47.4	13.1	1.11e-04	0	41	0	32505856	60	5073
2026-01-19 00:59:40.38	25.82	9.06	-42.7	-45.3	15.3	1.48e-05	0	41	0	38797312	57	4714
2026-01-19 00:59:41.37	25.88	9.14	-44.2	-47.3	13.3	3.42e-04	0	41	0	44040192	60	5005
2026-01-19 00:59:42.37	25.94	9.22	-45.3	-49.0	11.4	2.29e-02	0	41	0	49283072	62	5419
2026-01-19 00:59:43.42	26.01	9.30	-45.2	-49.0	11.5	1.94e-05	0	41	0	55574528	60	6121
2026-01-19 00:59:44.37	26.07	9.37	-45.9	-50.3	9.8	5.68e-01	0	41	0	60817408	64	5601
2026-01-19 00:59:45.36	26.13	9.45	-39.6	-41.6	18.8	0.00e+00	0	41	0	66060288	51	4388
2026-01-19 00:59:46.36	26.20	9.53	-39.8	-41.8	18.6	0.00e+00	0	41	0	71303168	51	4471
2026-01-19 00:59:47.35	26.26	9.61	-39.6	-41.5	18.8	0.00e+00	0	41	0	77594624	51	4340
2026-01-19 00:59:48.35	26.32	9.69	-39.6	-41.5	18.9	0.00e+00	0	41	0	82837504	51	4327
2026-01-19 00:59:49.34	26.39	9.77	-39.6	-41.6	18.8	0.00e+00	0	41	0	88080384	51	4367
2026-01-19 00:59:50.33	26.45	9.85	-39.8	-41.7	18.7	0.00e+00	0	41	0	93323264	51	4429
2026-01-19 00:59:51.33	26.52	9.93	-39.6	-41.5	18.9	0.00e+00	0	41	0	99614720	51	4338
2026-01-19 00:59:52.32	26.58	10.01	-39.6	-41.5	18.9	0.00e+00	0	41	0	104857600	51	4317
2026-01-19 00:59:53.32	26.65	10.09	-39.6	-41.6	18.8	0.00e+00	0	41	0	111149056	51	4352
2026-01-19 00:59:54.31	26.71	10.17	-39.5	-41.4	19.0	0.00e+00	0	41	0	116391936	50	4518
2026-01-19 00:59:55.31	26.78	10.25	-39.4	-41.3	19.1	0.00e+00	0	41	0	121634816	50	4483
2026-01-19 00:59:56.30	26.85	10.33	-39.2	-41.0	19.4	0.00e+00	0	41	0	127926272	50	4336
2026-01-19 00:59:57.30	26.91	10.41	-39.2	-41.2	19.3	0.00e+00	0	41	0	133169152	50	4392
2026-01-19 00:59:58.29	26.98	10.49	-39.2	-41.1	19.4	0.00e+00	0	41	0	138412032	50	4348
2026-01-19 00:59:59.29	27.05	10.57	-39.1	-41.0	19.4	0.00e+00	0	41	0	143654912	50	4330
2026-01-19 01:00:00.28	27.12	10.66	-39.1	-41.0	19.5	0.00e+00	0	41	0	149946368	50	4306
2026-01-19 01:00:01.28	27.18	10.74	-38.9	-40.8	19.6	0.00e+00	0	41	0	155189248	49	4481
2026-01-19 01:00:02.27	27.25	10.82	-39.1	-41.0	19.4	0.00e+00	0	41	0	161480704	49	4572
2026-01-19 01:00:03.27	27.32	10.90	-38.9	-40.8	19.7	0.00e+00	0	41	0	166723584	49	4447
2026-01-19 01:00:04.26	27.39	10.99	-39.0	-40.8	19.6	0.00e+00	0	41	0	171966464	49	4491
2026-01-19 01:00:05.26	27.46	11.07	-38.9	-40.8	19.6	0.00e+00	0	42	0	178257920	49	4473
2026-01-19 01:00:06.25	27.53	11.15	-39.0	-40.9	19.5	0.00e+00	0	41	0	183500800	49	4514
2026-01-19 01:00:07.25	27.60	11.24	-39.0	-40.9	19.5	0.00e+00	0	41	0	188743680	49	4528
2026-01-19 01:00:08.24	27.67	11.32	-39.0	-40.9	19.6	0.00e+00	0	42	0	193986560	49	4501
2026-01-19 01:00:09.24	27.74	11.41	-38.9	-40.8	19.7	0.00e+00	0	42	0	200278016	49	4466
2026-01-19 01:00:10.24	27.82	11.49	-38.8	-40.7	19.7	0.00e+00	0	42	0	205520896	49	4431
2026-01-19 01:00:11.23	27.89	11.57	-38.9	-40.8	19.7	0.00e+00	0	42	0	211812352	49	4458
2026-01-19 01:00:12.23	27.96	11.66	-38.9	-40.8	19.6	0.00e+00	0	41	0	217055232	49	4489
2026-01-19 01:00:13.25	28.04	11.75	-38.7	-40.6	19.8	0.00e+00	0	42	0	223346688	49	4371
2026-01-19 01:00:14.28	28.11	11.84	-38.8	-40.7	19.7	0.00e+00	0	41	0	228589568	49	4409
2026-01-19 01:00:15.28	28.19	11.92	-38.7	-40.6	19.8	0.00e+00	0	41	0	233832448	49	4362
2026-01-19 01:00:16.27	28.26	12.01	-38.7	-40.6	19.8	0.00e+00	0	42	0	240123904	49	4366
2026-01-19 01:00:17.27	28.33	12.09	-38.7	-40.6	19.9	0.00e+00	0	42	0	245366784	49	4350
2026-01-19 01:00:18.26	28.41	12.18	-38.7	-40.6	19.9	0.00e+00	0	42	0	250609664	49	4341
2026-01-19 01:00:19.26	28.48	12.27	-38.6	-40.4	20.1	0.00e+00	0	42	0	256901120	48	4534
2026-01-19 01:00:20.25	28.56	12.35	-38.4	-40.2	20.2	0.00e+00	0	41	0	262144000	48	4420
2026-01-19 01:00:21.24	28.64	12.44	-38.5	-40.3	20.2	0.00e+00	0	42	0	267386880	48	4462
2026-01-19 01:00:22.24	28.71	12.53	-38.5	-40.3	20.2	0.00e+00	0	42	0	273678336	48	4460
2026-01-19 01:00:23.23	28.79	12.62	-38.3	-40.2	20.3	0.00e+00	0	42	0	278921216	48	4395
2026-01-19 01:00:24.23	28.87	12.71	-38.2	-40.0	20.5	0.00e+00	0	41	0	284164096	48	4312
2026-01-19 01:00:25.22	28.94	12.79	-38.1	-39.9	20.5	0.00e+00	0	42	0	290455552	48	4277
2026-01-19 01:00:26.22	29.02	12.88	-38.2	-40.0	20.5	0.00e+00	0	42	0	295698432	48	4302
2026-01-19 01:00:27.21	29.10	12.97	-38.2	-40.0	20.5	0.00e+00	0	42	0	300941312	48	4301
2026-01-19 01:00:28.21	29.18	13.06	-38.2	-40.0	20.5	0.00e+00	0	42	0	307232768	48	4307
2026-01-19 01:00:29.20	29.26	13.15	-38.1	-39.9	20.6	0.00e+00	0	42	0	312475648	48	4258
2026-01-19 01:00:30.24	29.34	13.24	-38.2	-40.0	20.5	0.00e+00	0	42	0	317718528	48	4313
2026-01-19 01:00:31.27	29.43	13.34	-38.3	-40.1	20.4	0.00e+00	0	42	0	324009984	48	4362
2026-01-19 01:00:32.27	29.51	13.43	-38.2	-40.0	20.5	0.00e+00	0	42	0	329252864	48	4306
2026-01-19 01:00:33.34	29.60	13.53	-38.2	-40.0	20.5	0.00e+00	0	42	0	335544320	48	4305
2026-01-19 01:00:34.22	29.67	13.61	-38.2	-40.0	20.5	0.00e+00	0	42	0	340787200	48	4326
2026-01-19 01:00:35.53	29.78	13.73	-38.1	-39.9	20.5	0.00e+00	0	42	0	348127232	48	4277
2026-01-19 01:00:36.24	29.84	13.79	-38.1	-39.9	20.6	0.00e+00	0	42	0	352321536	48	4260
2026-01-19 01:00:37.71	29.96	13.93	-38.3	-40.1	20.4	0.00e+00	0	42	0	360710144	48	4346
2026-01-19 01:00:38.42	30.02	13.99	-38.2	-40.0	20.5	0.00e+00	0	42	0	363855872	48	4305
2026-01-19 01:00:39.77	30.14	14.12	-38.1	-39.9	20.6	0.00e+00	0	41	0	372244480	48	4264
2026-01-19 01:00:40.48	30.20	14.19	-38.1	-39.9	20.6	0.00e+00	0	42	0	375390208	48	4266
2026-01-19 01:00:41.76	30.31	14.31	-38.1	-39.9	20.6	0.00e+00	0	42	0	382730240	48	4244
2026-01-19 01:00:42.49	30.37	14.37	-38.0	-39.8	20.7	0.00e+00	0	42	0	386924544	48	4228
2026-01-19 01:00:43.77	30.48	14.50	-37.9	-39.7	20.6	0.00e+00	0	42	0	394264576	47	4428
2026-01-19 01:00:44.48	30.54	14.56	-37.9	-39.7	20.6	0.00e+00	0	42	0	398458880	47	4429
2026-01-19 01:00:45.76	30.66	14.68	-37.8	-39.5	20.7	0.00e+00	0	42	0	405798912	47	4340
2026-01-19 01:00:46.47	30.72	14.75	-37.9	-39.6	20.6	0.00e+00	0	41	0	409993216	47	4382
2026-01-19 01:00:47.75	30.83	14.87	-37.8	-39.6	20.7	0.00e+00	0	42	0	417333248	47	4353
2026-01-19 01:00:48.49	30.90	14.94	-37.7	-39.5	20.8	0.00e+00	0	42	0	420478976	47	4327
2026-01-19 01:00:49.77	31.02	15.07	-37.8	-39.6	20.7	0.00e+00	0	41	0	427819008	47	4354
2026-01-19 01:00:50.50	31.08	15.14	-37.8	-39.6	20.7	0.00e+00	0	42	0	432013312	47	4347
2026-01-19 01:00:51.77	31.20	15.26	-37.7	-39.5	20.8	0.00e+00	0	42	0	439353344	47	4336
2026-01-19 01:00:52.59	31.27	15.34	-37.8	-39.6	20.7	0.00e+00	0	42	0	443547648	47	4382
2026-01-19 01:00:53.73	31.38	15.45	-37.8	-39.6	20.7	0.00e+00	0	42	0	450887680	47	4353
2026-01-19 01:00:54.58	31.46	15.54	-37.7	-39.6	20.7	0.00e+00	0	42	0	455081984	47	4346
2026-01-19 01:00:55.72	31.57	15.65	-37.7	-39.5	20.8	0.00e+00	0	42	0	461373440	47	4326
2026-01-19 01:00:56.57	31.65	15.73	-37.8	-39.6	20.7	0.00e+00	0	42	0	466616320	47	4356
2026-01-19 01:00:57.71	31.76	15.84	-37.6	-39.3	20.9	0.00e+00	0	42	0	472907776	47	4242
2026-01-19 01:00:58.56	31.84	15.93	-37.5	-39.3	21.0	0.00e+00	0	42	0	478150656	47	4225
2026-01-19 01:00:59.70	31.95	16.04	-37.5	-39.3	21.0	0.00e+00	0	42	0	484442112	46	4461
2026-01-19 01:01:00.55	32.03	16.13	-37.4	-39.2	21.1	0.00e+00	0	42	0	488636416	46	4427
2026-01-19 01:01:01.69	32.14	16.24	-37.4	-39.2	21.1	0.00e+00	0	42	0	494927872	46	4394
2026-01-19 01:01:02.54	32.22	16.33	-37.4	-39.2	21.1	0.00e+00	0	42	0	500170752	46	4416
2026-01-19 01:01:03.68	32.34	16.44	-37.3	-39.1	21.2	0.00e+00	0	42	0	506462208	46	4350
2026-01-19 01:01:04.53	32.42	16.53	-37.3	-39.1	21.2	0.00e+00	0	42	0	510656512	46	4351
2026-01-19 01:01:05.67	32.53	16.64	-37.2	-39.0	21.3	0.00e+00	0	42	0	517996544	46	4312
2026-01-19 01:01:06.60	32.63	16.74	-37.2	-39.0	21.3	0.00e+00	0	42	0	523239424	46	4303
2026-01-19 01:01:07.76	32.75	16.86	-37.3	-39.1	21.2	0.00e+00	0	42	0	529530880	46	4354
2026-01-19 01:01:08.65	32.84	16.95	-37.2	-38.9	21.3	0.00e+00	0	42	0	534773760	46	4282
2026-01-19 01:01:09.79	32.95	17.07	-37.1	-38.9	21.4	0.00e+00	0	42	0	541065216	46	4244
2026-01-19 01:01:10.64	33.04	17.15	-37.2	-38.9	21.4	0.00e+00	0	42	0	545259520	46	4267
2026-01-19 01:01:12.00	33.18	17.29	-37.0	-38.7	21.5	0.00e+00	0	42	0	553648128	46	4189
2026-01-19 01:01:12.71	33.26	17.37	-37.0	-38.7	21.6	0.00e+00	0	42	0	556793856	45	4415
2026-01-19 01:01:13.99	33.39	17.50	-37.0	-38.7	21.5	0.00e+00	0	42	0	564133888	45	4424
2026-01-19 01:01:14.70	33.47	17.58	-36.9	-38.6	21.7	0.00e+00	0	42	0	568328192	45	4350
2026-01-19 01:01:15.98	33.61	17.71	-36.8	-38.6	21.7	0.00e+00	0	42	0	575668224	45	4341
2026-01-19 01:01:16.69	33.68	17.79	-36.8	-38.5	21.7	0.00e+00	0	42	0	579862528	45	4338
2026-01-19 01:01:17.97	33.82	17.92	-36.9	-38.6	21.6	0.00e+00	0	42	0	587202560	45	4375
2026-01-19 01:01:18.68	33.90	18.00	-36.8	-38.5	21.7	0.00e+00	0	42	0	590348288	45	4320
2026-01-19 01:01:19.96	34.04	18.13	-36.8	-38.5	21.7	0.00e+00	0	42	0	597688320	45	4327
2026-01-19 01:01:20.69	34.12	18.21	-36.8	-38.6	21.7	0.00e+00	0	42	0	601882624	45	4345
2026-01-19 01:01:21.97	34.26	18.35	-36.7	-38.4	21.8	0.00e+00	0	42	0	609222656	45	4286
2026-01-19 01:01:22.71	34.35	18.43	-36.7	-38.5	21.8	0.00e+00	0	42	0	613416960	45	4293
2026-01-19 01:01:23.99	34.49	18.57	-36.7	-38.5	21.7	0.00e+00	0	42	0	620756992	45	4331
2026-01-19 01:01:24.73	34.57	18.65	-36.6	-38.6	21.5	0.00e+00	0	42	0	624951296	45	4364
2026-01-19 01:01:26.01	34.72	18.79	-36.9	-38.8	21.4	0.00e+00	0	42	0	632291328	45	4455
2026-01-19 01:01:26.74	34.80	18.87	-37.1	-38.9	21.3	0.00e+00	0	42	0	636485632	45	4531
2026-01-19 01:01:28.02	34.95	19.01	-37.1	-38.9	21.4	0.00e+00	0	42	0	643825664	45	4516
2026-01-19 01:01:28.74	35.04	19.09	-37.1	-38.9	21.4	0.00e+00	0	42	0	646971392	45	4534
2026-01-19 01:01:30.02	35.19	19.23	-37.0	-38.8	21.5	0.00e+00	0	42	0	654311424	45	4458
2026-01-19 01:01:30.75	35.27	19.31	-37.0	-38.7	21.6	0.00e+00	0	42	0	658505728	45	4431
2026-01-19 01:01:32.03	35.43	19.45	-37.0	-38.8	21.6	0.00e+00	0	42	0	665845760	45	4450
2026-01-19 01:01:32.74	35.51	19.53	-36.9	-38.6	21.6	0.00e+00	0	42	0	670040064	45	4384
2026-01-19 01:01:34.22	35.69	19.70	-36.6	-38.3	21.4	0.00e+00	0	42	0	678428672	45	4217
2026-01-19 01:01:34.93	35.78	19.78	-36.5	-38.2	22.0	0.00e+00	0	42	0	682622976	45	4184
2026-01-19 01:01:36.28	35.94	19.93	-36.5	-38.2	22.0	0.00e+00	0	42	0	689963008	45	4191
2026-01-19 01:01:37.26	36.07	20.04	-36.5	-38.3	22.0	0.00e+00	0	42	0	695205888	45	4195
2026-01-19 01:01:38.57	36.23	20.19	-36.5	-38.2	22.0	0.00e+00	0	42	0	702545920	45	4168
2026-01-19 01:01:39.28	36.32	20.27	-36.3	-38.0	22.2	0.00e+00	0	42	0	706740224	44	4325
2026-01-19 01:01:40.57	36.48	20.42	-36.1	-37.8	22.4	0.00e+00	0	42	0	714080256	44	4208
2026-01-19 01:01:41.28	36.57	20.50	-36.1	-37.7	22.5	0.00e+00	0	42	0	718274560	44	4185
2026-01-19 01:01:42.56	36.74	20.65	-36.0	-37.7	22.5	0.00e+00	0	42	0	725614592	44	4159
2026-01-19 01:01:43.27	36.83	20.73	-36.0	-37.7	22.5	0.00e+00	0	42	0	728760320	44	4181
2026-01-19 01:01:44.55	37.00	20.88	-36.0	-37.7	22.5	0.00e+00	0	42	0	736100352	44	4152
2026-01-19 01:01:45.26	37.09	20.96	-36.1	-37.8	22.4	0.00e+00	0	42	0	740294656	44	4200
2026-01-19 01:01:46.54	37.26	21.11	-36.3	-37.9	22.3	0.00e+00	0	42	0	747634688	44	4289
2026-01-19 01:01:47.27	37.36	21.19	-36.3	-38.0	22.2	0.00e+00	0	42	0	751828992	44	4315
2026-01-19 01:01:48.55	37.53	21.35	-36.4	-38.1	22.2	0.00e+00	0	42	0	759169024	44	4369
2026-01-19 01:01:49.26	37.63	21.43	-36.5	-38.2	22.1	0.00e+00	0	42	0	763363328	44	4405
2026-01-19 01:01:50.54	37.80	21.58	-36.6	-38.2	22.0	0.00e+00	0	42	0	769654784	44	4439
2026-01-19 01:01:51.26	37.90	21.67	-36.6	-38.3	22.0	0.00e+00	0	42	0	773849088	44	4445
2026-01-19 01:01:52.54	38.08	21.82	-36.5	-38.2	22.1	0.00e+00	0	42	0	781189120	44	4422
2026-01-19 01:01:53.27	38.18	21.91	-36.5	-38.2	22.1	0.00e+00	0	42	0	785383424	44	4428
2026-01-19 01:01:54.69	38.38	22.08	-36.5	-38.2	22.1	0.00e+00	0	42	0	793772032	44	4409
2026-01-19 01:01:55.65	38.52	22.19	-36.4	-38.1	22.2	0.00e+00	0	42	0	799014912	44	4354
2026-01-19 01:01:56.96	38.70	22.35	-36.3	-38.0	22.3	0.00e+00	0	42	0	806354944	44	4310
2026-01-19 01:01:57.67	38.81	22.44	-36.3	-38.0	22.3	0.00e+00	0	42	0	810549248	44	4305
2026-01-19 01:01:58.95	38.99	22.59	-36.2	-37.9	22.3	0.00e+00	0	42	0	817889280	44	4266
2026-01-19 01:01:59.68	39.10	22.68	-36.1	-37.8	22.4	0.00e+00	0	42	0	821035008	44	4220
2026-01-19 01:02:00.96	39.29	22.84	-36.1	-37.8	22.4	0.00e+00	0	42	0	828375040	44	4229
2026-01-19 01:02:01.67	39.39	22.93	-36.1	-37.8	22.4	0.00e+00	0	42	0	832569344	44	4217
2026-01-19 01:02:02.95	39.58	23.08	-36.1	-37.8	22.5	0.00e+00	0	42	0	839909376	44	4204
2026-01-19 01:02:03.69	39.70	23.18	-36.0	-37.7	22.5	0.00e+00	0	42	0	844103680	44	4175
2026-01-19 01:02:04.97	39.89	23.34	-35.8	-37.4	22.6	0.00e+00	0	42	0	851443712	43	4289
2026-01-19 01:02:05.68	40.00	23.42	-35.8	-37.4	22.6	0.00e+00	0	42	0	855638016	43	4277
2026-01-19 01:02:07.02	40.21	23.59	-35.6	-37.3	22.8	0.00e+00	0	42	0	862978048	43	4204
2026-01-19 01:02:07.73	40.32	23.68	-35.5	-37.2	22.8	0.00e+00	0	42	0	867172352	43	4173
2026-01-19 01:02:09.08	40.53	23.85	-35.6	-37.3	22.8	0.00e+00	0	42	0	874512384	43	4214
2026-01-19 01:02:10.04	40.68	23.97	-35.6	-37.3	22.8	0.00e+00	0	42	0	879755264	43	4204
2026-01-19 01:02:11.04	40.84	24.10	-35.7	-37.3	22.7	0.00e+00	0	42	0	884998144	43	4238
2026-01-19 01:02:12.03	41.00	24.22	-35.7	-37.3	22.7	0.00e+00	0	42	0	891289600	43	4229
2026-01-19 01:02:13.02	41.16	24.35	-35.5	-37.2	22.8	0.00e+00	0	42	0	896532480	43	4170
2026-01-19 01:02:14.02	41.33	24.48	-35.5	-37.2	22.8	0.00e+00	0	42	0	901775360	43	4152
2026-01-19 01:02:15.01	41.49	24.61	-35.6	-37.3	22.7	0.00e+00	0	42	0	908066816	43	4212
2026-01-19 01:02:16.01	41.66	24.73	-35.7	-37.4	22.7	0.00e+00	0	42	0	913309696	43	4264
2026-01-19 01:02:17.01	41.82	24.86	-35.9	-37.6	22.5	0.00e+00	0	42	0	918552576	43	4359
2026-01-19 01:02:18.00	41.99	24.99	-35.8	-37.5	22.6	0.00e+00	0	42	0	924844032	43	4293
2026-01-19 01:02:19.00	42.16	25.12	-35.8	-37.4	22.6	0.00e+00	0	42	0	930086912	43	4276
2026-01-19 01:02:19.99	42.33	25.25	-35.6	-37.2	22.8	0.00e+00	0	42	0	935329792	43	4173
2026-01-19 01:02:20.99	42.50	25.38	-35.5	-37.1	22.9	0.00e+00	0	42	0	941621248	42	4377
2026-01-19 01:02:21.98	42.68	25.51	-35.5	-37.2	22.9	0.00e+00	0	42	0	946864128	42	4395
2026-01-19 01:02:22.98	42.85	25.64	-35.4	-37.1	23.0	0.00e+00	0	42	0	952107008	42	4345
2026-01-19 01:02:23.97	43.03	25.77	-35.4	-37.1	23.0	0.00e+00	0	42	0	958398464	42	4362
2026-01-19 01:02:24.97	43.21	25.90	-35.5	-37.1	22.9	0.00e+00	0	42	0	963641344	42	4370
2026-01-19 01:02:25.96	43.38	26.04	-35.5	-37.2	22.9	0.00e+00	0	42	0	968884224	42	4396
2026-01-19 01:02:26.96	43.56	26.17	-35.4	-37.0	23.0	0.00e+00	0	42	0	975175680	42	4320
2026-01-19 01:02:27.96	43.75	26.30	-35.3	-37.0	23.0	0.00e+00	0	42	0	980418560	42	4316
2026-01-19 01:02:28.95	43.93	26.43	-35.4	-37.0	23.0	0.00e+00	0	42	0	986710016	42	4338
2026-01-19 01:02:29.95	44.12	26.57	-35.4	-37.0	23.0	0.00e+00	0	42	0	991952896	42	4336
2026-01-19 01:02:30.96	44.31	26.70	-35.3	-37.0	23.1	0.00e+00	0	42	0	997195776	42	4301
2026-01-19 01:02:31.98	44.50	26.84	-35.5	-37.1	22.9	0.00e+00	0	42	0	1003487232	42	4371
2026-01-19 01:02:33.01	44.70	26.98	-35.4	-37.1	22.9	0.00e+00	0	42	0	1008730112	42	4364
2026-01-19 01:02:34.01	44.89	27.11	-35.4	-37.0	23.0	0.00e+00	0	42	0	1015021568	42	4324
2026-01-19 01:02:35.00	45.08	27.25	-35.4	-37.1	22.9	0.00e+00	0	42	0	1020264448	42	4357
2026-01-19 01:02:36.00	45.28	27.39	-35.5	-37.1	22.9	0.00e+00	0	42	0	1025507328	42	4382
2026-01-19 01:02:37.00	45.47	27.52	-35.2	-36.9	23.2	0.00e+00	0	42	0	1031798784	42	4246
2026-01-19 01:02:37.99	45.67	27.66	-35.2	-36.8	23.2	0.00e+00	0	42	0	1037041664	42	4215
2026-01-19 01:02:38.99	45.87	27.79	-35.0	-36.7	23.3	0.00e+00	0	42	0	1042284544	42	4146
2026-01-19 01:02:39.98	46.07	27.93	-35.1	-36.7	23.3	0.00e+00	0	42	0	1048576000	42	4176
2026-01-19 01:02:40.98	46.27	28.07	-35.0	-36.7	23.3	0.00e+00	0	42	0	1053818880	42	4154
2026-01-19 01:02:41.97	46.48	28.20	-35.1	-36.8	23.2	0.00e+00	0	42	0	1059061760	42	4205
2026-01-19 01:02:42.97	46.69	28.34	-35.2	-36.8	23.2	0.00e+00	0	42	0	1065353216	42	4230
2026-01-19 01:02:43.96	46.89	28.48	-35.1	-36.7	23.3	0.00e+00	0	42	0	1070596096	42	4180
2026-01-19 01:02:44.96	47.10	28.62	-35.1	-36.8	23.2	0.00e+00	0	42	0	1075838976	42	4205
2026-01-19 01:02:45.95	47.31	28.76	-35.2	-36.8	23.2	0.00e+00	0	42	0	1082130432	42	4241
2026-01-19 01:02:46.94	47.53	28.89	-35.1	-36.8	23.2	0.00e+00	0	42	0	1087373312	42	4207
2026-01-19 01:02:47.99	47.75	29.04	-35.1	-36.7	23.3	0.00e+00	0	42	0	1092616192	42	4175
2026-01-19 01:02:48.93	47.96	29.17	-35.2	-36.8	23.2	0.00e+00	0	42	0	1098907648	42	4211
2026-01-19 01:02:49.93	48.18	29.31	-34.9	-36.6	22.8	0.00e+00	0	42	0	1104150528	41	4374
2026-01-19 01:02:50.92	48.40	29.45	-34.9	-36.6	22.8	0.00e+00	0	42	0	1109393408	41	4352
2026-01-19 01:02:51.92	48.62	29.59	-34.9	-36.6	22.8	0.00e+00	0	42	0	1115684864	41	4363
2026-01-19 01:02:52.92	48.85	29.73	-34.9	-36.6	22.8	0.00e+00	0	42	0	1120927744	41	4384
2026-01-19 01:02:53.91	49.07	29.87	-34.7	-36.4	22.9	0.00e+00	0	42	0	1126170624	41	4279
2026-01-19 01:02:54.90	49.30	30.01	-34.7	-36.4	22.9	0.00e+00	0	42	0	1132462080	41	4288
2026-01-19 01:02:55.90	49.53	30.15	-34.7	-36.3	23.0	0.00e+00	0	42	0	1137704960	41	4242
2026-01-19 01:02:56.90	49.77	30.30	-34.7	-36.4	23.0	0.00e+00	0	42	0	1142947840	41	4250
2026-01-19 01:02:57.90	50.00	30.44	-34.7	-36.4	22.9	0.00e+00	0	42	0	1149239296	41	4285
2026-01-19 01:02:58.89	50.24	30.58	-34.8	-36.5	22.9	0.00e+00	0	42	0	1154482176	41	4305
2026-01-19 01:02:59.89	50.48	30.72	-34.8	-36.6	22.8	0.00e+00	0	42	0	1159725056	41	4348
2026-01-19 01:03:00.88	50.72	30.86	-34.9	-36.6	22.8	0.00e+00	0	42	0	1166016512	41	4368
2026-01-19 01:03:01.87	50.96	31.00	-34.9	-36.6	22.8	0.00e+00	0	42	0	1171259392	41	4361
2026-01-19 01:03:02.93	51.22	31.15	-34.9	-36.6	22.8	0.00e+00	0	42	0	1177550848	41	4363
2026-01-19 01:03:03.85	51.45	31.29	-34.9	-36.6	22.8	0.00e+00	0	42	0	1182793728	41	4370
2026-01-19 01:03:04.84	51.69	31.43	-34.8	-36.5	22.9	0.00e+00	0	42	0	1188036608	41	4302
2026-01-19 01:03:06.01	51.99	31.59	-34.8	-36.6	22.8	0.00e+00	0	42	0	1194328064	41	4351
2026-01-19 01:03:06.86	52.21	31.72	-34.7	-36.4	22.9	0.00e+00	0	42	0	1199570944	41	4272
2026-01-19 01:03:08.00	52.50	31.88	-34.7	-36.4	22.9	0.00e+00	0	42	0	1205862400	41	4286
2026-01-19 01:03:08.85	52.72	32.00	-34.6	-36.4	23.0	0.00e+00	0	42	0	1211105280	41	4244
2026-01-19 01:03:09.99	53.02	32.17	-34.7	-36.4	23.0	0.00e+00	0	42	0	1216348160	41	4249
2026-01-19 01:03:10.84	53.24	32.29	-34.7	-36.5	22.9	0.00e+00	0	42	0	1221591040	41	4292
2026-01-19 01:03:11.98	53.55	32.45	-34.7	-36.4	23.0	0.00e+00	0	42	0	1227882496	41	4262
2026-01-19 01:03:12.83	53.77	32.57	-34.7	-36.4	23.0	0.00e+00	0	42	0	1233125376	41	4265
2026-01-19 01:03:13.97	54.08	32.74	-34.6	-36.3	23.1	0.00e+00	0	42	0	1239416832	41	4209
2026-01-19 01:03:14.82	54.32	32.86	-34.6	-36.3	23.0	0.00e+00	0	42	0	1243611136	41	4223
2026-01-19 01:03:15.96	54.63	33.02	-34.7	-36.4	23.0	0.00e+00	0	42	0	1250951168	41	4266
2026-01-19 01:03:16.81	54.87	33.14	-34.7	-36.4	22.9	0.00e+00	0	42	0	1255145472	41	4288
2026-01-19 01:03:17.95	55.19	33.31	-34.7	-36.4	23.0	0.00e+00	0	42	0	1261436928	41	4269
2026-01-19 01:03:18.80	55.43	33.43	-34.8	-36.5	22.9	0.00e+00	0	42	0	1266679808	41	4318
2026-01-19 01:03:19.94	55.75	33.59	-34.8	-36.5	22.8	0.00e+00	0	42	0	1272971264	41	4339
2026-01-19 01:03:20.79	56.00	33.71	-34.8	-36.5	22.9	0.00e+00	0	42	0	1277165568	41	4331
2026-01-19 01:03:22.14	56.39	33.91	-34.7	-36.4	22.9	0.00e+00	0	42	0	1285554176	41	4279
2026-01-19 01:03:22.85	56.60	34.01	-34.7	-36.4	23.0	0.00e+00	0	42	0	1289748480	41	4273
2026-01-19 01:03:24.13	56.97	34.19	-34.6	-36.3	23.1	0.00e+00	0	42	0	1296039936	41	4216
2026-01-19 01:03:24.84	57.19	34.29	-34.5	-36.2	23.1	0.00e+00	0	42	0	1300234240	41	4169
2026-01-19 01:03:26.12	57.57	34.48	-34.6	-36.3	23.0	0.00e+00	0	42	0	1307574272	40	4452
2026-01-19 01:03:26.83	57.79	34.58	-34.7	-36.4	22.9	0.00e+00	0	42	0	1311768576	40	4514
2026-01-19 01:03:28.11	58.18	34.76	-34.8	-36.6	22.8	0.00e+00	0	42	0	1319108608	40	4612
2026-01-19 01:03:28.88	58.42	34.87	-34.8	-36.5	22.8	0.00e+00	0	42	0	1323302912	40	4581
2026-01-19 01:03:30.16	58.81	35.05	-34.8	-36.5	22.8	0.00e+00	0	41	0	1330642944	40	4582
2026-01-19 01:03:30.91	59.05	35.15	-34.7	-36.4	22.9	0.00e+00	0	42	0	1334837248	40	4525
2026-01-19 01:03:32.19	59.45	35.33	-34.7	-36.4	22.9	0.00e+00	0	42	0	1342177280	40	4540
2026-01-19 01:03:32.90	59.68	35.43	-34.6	-36.3	23.0	0.00e+00	0	42	0	1346371584	40	4485
2026-01-19 01:03:34.18	60.09	35.61	-34.5	-36.2	23.1	0.00e+00	0	42	0	1352663040	40	4412
2026-01-19 01:03:35.07	60.38	35.74	-34.4	-36.1	23.2	0.00e+00	0	42	0	1357905920	40	4387
2026-01-19 01:03:36.50	60.85	35.94	-34.6	-36.3	23.1	0.00e+00	0	42	0	1366294528	40	4456
2026-01-19 01:03:37.22	61.09	36.04	-34.6	-36.3	23.0	0.00e+00	0	42	0	1370488832	40	4476
2026-01-19 01:03:38.50	61.52	36.21	-34.6	-36.4	23.1	0.00e+00	0	42	0	1377828864	40	4499
2026-01-19 01:03:39.21	61.76	36.31	-34.6	-36.3	23.1	0.00e+00	0	42	0	1380974592	40	4449
2026-01-19 01:03:40.49	62.19	36.49	-34.4	-36.1	23.2	0.00e+00	0	42	0	1388314624	40	4365
2026-01-19 01:03:41.26	62.46	36.59	-34.4	-36.1	23.2	0.00e+00	0	42	0	1392508928	40	4370
2026-01-19 01:03:42.54	62.90	36.77	-34.4	-36.1	23.3	0.00e+00	0	42	0	1399848960	40	4354
2026-01-19 01:03:43.28	63.16	36.87	-34.4	-36.1	23.3	0.00e+00	0	42	0	1404043264	40	4348
2026-01-19 01:03:44.56	63.61	37.04	-34.3	-36.0	23.3	0.00e+00	0	42	0	1411383296	40	4331
2026-01-19 01:03:45.27	63.86	37.14	-34.4	-36.1	23.3	0.00e+00	0	41	0	1415577600	40	4342
2026-01-19 01:03:46.54	64.31	37.31	-34.4	-36.1	23.2	0.00e+00	0	42	0	1422917632	40	4354
2026-01-19 01:03:47.27	64.58	37.40	-34.4	-36.1	23.2	0.00e+00	0	42	0	1427111936	40	4371
2026-01-19 01:03:48.54	65.04	37.57	-34.7	-36.4	23.0	0.00e+00	0	42	0	1434451968	40	4515
2026-01-19 01:03:49.27	65.30	37.67	-34.8	-36.5	22.9	0.00e+00	0	41	0	1437597696	40	4588
2026-01-19 01:03:50.55	65.78	37.83	-34.9	-36.6	22.8	0.00e+00	0	41	0	1444937728	40	4634
2026-01-19 01:03:51.27	66.04	37.93	-34.7	-36.4	23.0	0.00e+00	0	42	0	1449132032	40	4508
2026-01-19 01:03:52.55	66.52	38.09	-34.4	-36.1	23.2	0.00e+00	0	42	0	1456472064	40	4357
2026-01-19 01:03:53.26	66.79	38.18	-34.5	-36.2	23.2	0.00e+00	0	42	0	1460666368	40	4396
2026-01-19 01:03:54.65	67.32	38.36	-34.6	-36.3	23.1	0.00e+00	0	42	0	1468006400	40	4465
2026-01-19 01:03:55.36	67.59	38.45	-34.6	-36.3	23.1	0.00e+00	0	42	0	1472200704	40	4487
2026-01-19 01:03:56.64	68.09	38.61	-34.6	-36.3	23.1	0.00e+00	0	42	0	1479540736	40	4482
2026-01-19 01:03:57.36	68.37	38.70	-34.6	-36.3	23.1	0.00e+00	0	41	0	1483735040	40	4449
2026-01-19 01:03:58.75	68.92	38.87	-34.8	-36.5	22.9	0.00e+00	0	42	0	1491075072	40	4572
2026-01-19 01:03:59.46	69.20	38.96	-34.8	-36.5	22.9	0.00e+00	0	41	0	1495269376	40	4568
2026-01-19 01:04:00.74	69.71	39.12	-34.6	-36.3	23.1	0.00e+00	0	42	0	1502609408	40	4490
2026-01-19 01:04:01.45	69.99	39.20	-34.6	-36.3	23.1	0.00e+00	0	41	0	1506803712	40	4490
2026-01-19 01:04:02.73	70.51	39.35	-34.4	-36.1	23.2	0.00e+00	0	42	0	1513095168	40	4385
2026-01-19 01:04:03.44	70.80	39.44	-34.6	-36.3	23.1	0.00e+00	0	42	0	1517289472	40	4462
2026-01-19 01:04:04.72	71.33	39.59	-34.7	-36.4	23.0	0.00e+00	0	42	0	1524629504	40	4518
2026-01-19 01:04:05.43	71.62	39.67	-34.7	-36.4	23.0	0.00e+00	0	42	0	1528823808	40	4541
2026-01-19 01:04:06.71	72.15	39.81	-34.8	-36.5	22.9	0.00e+00	0	41	0	1536163840	40	4588
2026-01-19 01:04:07.42	72.45	39.89	-34.8	-36.5	22.9	0.00e+00	0	42	0	1540358144	40	4586
2026-01-19 01:04:08.71	72.99	40.04	-34.7	-36.4	22.9	0.00e+00	0	42	0	1547698176	40	4530
2026-01-19 01:04:09.47	73.32	40.12	-34.6	-36.4	23.0	0.00e+00	0	42	0	1551892480	40	4500
2026-01-19 01:04:10.75	73.87	40.26	-34.4	-36.1	23.2	0.00e+00	0	42	0	1559232512	40	4379
2026-01-19 01:04:11.54	74.21	40.35	-34.3	-36.0	23.4	0.00e+00	0	41	0	1563426816	40	4313
2026-01-19 01:04:12.76	74.73	40.47	-34.4	-36.1	23.3	0.00e+00	0	41	0	1569718272	40	4358
2026-01-19 01:04:13.72	75.15	40.57	-34.5	-36.2	23.1	0.00e+00	0	41	0	1574961152	40	4420
2026-01-19 01:04:14.89	75.67	40.69	-34.6	-36.3	23.0	0.00e+00	0	41	0	1582301184	40	4468
2026-01-19 01:04:15.74	76.05	40.78	-34.7	-36.4	22.9	0.00e+00	0	42	0	1586495488	40	4537
2026-01-19 01:04:17.08	76.64	40.91	-34.7	-36.4	22.9	0.00e+00	0	41	0	1593835520	40	4522
2026-01-19 01:04:17.80	76.97	40.98	-34.7	-36.4	22.9	0.00e+00	0	41	0	1598029824	40	4528
2026-01-19 01:04:19.07	77.54	41.10	-34.7	-36.4	22.9	0.00e+00	0	41	0	1605369856	40	4518
2026-01-19 01:04:19.80	77.87	41.17	-34.7	-36.5	22.9	0.00e+00	0	41	0	1609564160	40	4555
2026-01-19 01:04:21.08	78.45	41.29	-34.8	-36.5	23.0	0.00e+00	0	41	0	1616904192	40	4548
2026-01-19 01:04:21.87	78.82	41.36	-34.6	-36.3	23.1	0.00e+00	0	41	0	1621098496	40	4442
2026-01-19 01:04:23.08	79.37	41.47	-34.5	-36.2	23.1	0.00e+00	0	41	0	1628438528	40	4431
2026-01-19 01:04:23.93	79.77	41.54	-34.5	-36.2	23.1	0.00e+00	0	42	0	1632632832	40	4432
2026-01-19 01:04:25.07	80.30	41.64	-34.6	-36.3	23.1	0.00e+00	0	41	0	1638924288	40	4475
2026-01-19 01:04:25.92	80.70	41.71	-34.6	-36.3	23.0	0.00e+00	0	42	0	1644167168	40	4492
2026-01-19 01:04:27.06	81.24	41.80	-34.5	-36.1	23.2	0.00e+00	0	41	0	1650458624	40	4390
2026-01-19 01:04:27.91	81.64	41.87	-34.5	-36.2	23.2	0.00e+00	0	42	0	1655701504	40	4406
2026-01-19 01:04:29.05	82.18	41.96	-34.6	-36.3	23.1	0.00e+00	0	42	0	1661992960	40	4482
2026-01-19 01:04:29.90	82.59	42.02	-34.6	-36.3	23.1	0.00e+00	0	42	0	1666187264	40	4475
2026-01-19 01:04:31.03	83.13	42.10	-34.6	-36.3	23.1	0.00e+00	0	42	0	1672478720	40	4468
2026-01-19 01:04:31.89	83.54	42.17	-34.6	-36.3	23.1	0.00e+00	0	41	0	1677721600	40	4481
2026-01-19 01:04:33.10	84.13	42.25	-34.7	-36.5	22.9	0.00e+00	0	42	0	1685061632	40	4553
2026-01-19 01:04:33.95	84.54	42.31	-34.8	-36.5	22.9	0.00e+00	0	41	0	1689255936	40	4592
2026-01-19 01:04:35.09	85.10	42.38	-35.1	-36.9	22.6	0.00e+00	0	41	0	1695547392	40	4766
2026-01-19 01:04:36.42	85.75	42.46	-35.1	-36.8	22.6	0.00e+00	0	41	0	1702887424	40	4758
2026-01-19 01:04:37.13	86.10	42.50	-35.0	-36.8	22.7	0.00e+00	0	41	0	1707081728	40	4719
2026-01-19 01:04:38.42	86.74	42.58	-34.8	-36.5	22.9	0.00e+00	0	42	0	1714421760	40	4578
2026-01-19 01:04:39.13	87.10	42.62	-34.9	-36.6	22.8	0.00e+00	0	41	0	1718616064	40	4647
2026-01-19 01:04:40.46	87.76	42.69	-34.8	-36.5	22.9	0.00e+00	0	42	0	1725956096	40	4597
2026-01-19 01:04:41.17	88.11	42.72	-34.9	-36.6	22.8	0.00e+00	0	42	0	1730150400	40	4627
2026-01-19 01:04:42.45	88.75	42.78	-34.8	-36.5	22.9	0.00e+00	0	42	0	1737490432	40	4587
2026-01-19 01:04:43.17	89.12	42.82	-34.8	-36.5	22.9	0.00e+00	0	42	0	1740636160	40	4587
2026-01-19 01:04:44.46	89.77	42.87	-34.7	-36.4	23.0	0.00e+00	0	41	0	1747976192	40	4524
2026-01-19 01:04:45.17	90.13	42.90	-34.7	-36.5	22.9	0.00e+00	0	41	0	1752170496	40	4550
2026-01-19 01:04:46.62	90.86	42.96	-34.8	-36.5	22.9	0.00e+00	0	42	0	1760559104	40	4588
2026-01-19 01:04:47.33	91.22	42.98	-34.8	-36.5	22.9	0.00e+00	0	42	0	1764753408	40	4589
2026-01-19 01:04:48.61	91.87	43.03	-35.0	-36.7	22.7	0.00e+00	0	42	0	1772093440	40	4701
2026-01-19 01:04:49.33	92.24	43.05	-34.9	-36.7	22.7	0.00e+00	0	41	0	1775239168	40	4652
2026-01-19 01:04:50.61	92.89	43.08	-34.8	-36.5	22.9	0.00e+00	0	41	0	1782579200	40	4571
2026-01-19 01:04:51.33	93.26	43.10	-34.8	-36.5	23.0	0.00e+00	0	42	0	1786773504	40	4562
2026-01-19 01:04:52.76	94.00	43.14	-34.9	-36.6	22.9	0.00e+00	0	42	0	1795162112	40	4636
2026-01-19 01:04:53.47	94.36	43.15	-34.9	-36.6	22.8	0.00e+00	0	42	0	1799356416	40	4650
2026-01-19 01:04:54.82	95.06	43.18	-34.8	-36.5	22.9	0.00e+00	0	42	0	1806696448	40	4568
2026-01-19 01:04:55.53	95.42	43.19	-34.8	-36.5	22.9	0.00e+00	0	42	0	1810890752	40	4592
2026-01-19 01:04:56.81	96.08	43.20	-34.8	-36.5	22.9	0.00e+00	0	42	0	1818230784	40	4579
2026-01-19 01:04:57.52	96.45	43.21	-34.8	-36.5	23.0	0.00e+00	0	41	0	1821376512	40	4565
2026-01-19 01:04:58.80	97.11	43.22	-35.0	-36.7	22.7	0.00e+00	0	41	0	1828716544	40	4677
2026-01-19 01:04:59.51	97.47	43.22	-34.9	-36.6	22.8	0.00e+00	0	41	0	1832910848	40	4646
2026-01-19 01:05:00.79	98.13	43.23	-34.9	-36.6	22.9	0.00e+00	0	42	0	1840250880	40	4611
2026-01-19 01:05:01.51	98.51	43.23	-35.0	-36.7	22.8	0.00e+00	0	41	0	1844445184	40	4656
2026-01-19 01:05:02.79	99.17	43.22	-34.7	-36.5	22.9	0.00e+00	0	42	0	1851785216	40	4555
2026-01-19 01:05:03.58	99.58	43.22	-34.7	-36.5	22.9	0.00e+00	0	41	0	1855979520	40	4549
2026-01-19 01:05:04.81	100.21	43.21	-34.9	-36.6	22.8	0.00e+00	0	41	0	1863319552	40	4649
2026-01-19 01:05:05.67	100.65	43.20	-35.0	-36.8	22.7	0.00e+00	0	42	0	1867513856	40	4708
2026-01-19 01:05:06.80	101.24	43.19	-35.1	-36.9	22.6	0.00e+00	0	42	0	1873805312	40	4786
2026-01-19 01:05:07.65	101.67	43.18	-35.1	-36.8	22.7	0.00e+00	0	41	0	1879048192	40	4746
2026-01-19 01:05:08.79	102.26	43.16	-35.0	-36.7	22.8	0.00e+00	0	41	0	1885339648	40	4686
2026-01-19 01:05:09.64	102.70	43.14	-35.1	-36.8	22.7	0.00e+00	0	42	0	1889533952	40	4754
2026-01-19 01:05:10.78	103.28	43.11	-35.2	-36.9	22.6	0.00e+00	0	41	0	1895825408	41	4516
2026-01-19 01:05:11.63	103.72	43.09	-35.1	-36.9	22.6	0.00e+00	0	41	0	1901068288	41	4503
2026-01-19 01:05:12.77	104.30	43.06	-35.1	-36.8	22.7	0.00e+00	0	42	0	1907359744	41	4474
2026-01-19 01:05:13.63	104.74	43.03	-35.0	-36.8	22.7	0.00e+00	0	42	0	1912602624	41	4459
2026-01-19 01:05:14.77	105.32	43.00	-35.1	-36.9	22.6	0.00e+00	0	41	0	1918894080	41	4508
2026-01-19 01:05:15.62	105.76	42.97	-35.1	-36.9	22.6	0.00e+00	0	41	0	1924136960	41	4509
2026-01-19 01:05:16.75	106.33	42.93	-35.3	-37.0	22.5	0.00e+00	0	42	0	1930428416	41	4586
2026-01-19 01:05:17.61	106.76	42.89	-35.4	-37.1	22.4	0.00e+00	0	42	0	1934622720	41	4650
2026-01-19 01:05:18.90	107.42	42.84	-35.2	-37.0	22.5	0.00e+00	0	41	0	1941962752	41	4564
2026-01-19 01:05:19.61	107.77	42.80	-35.3	-37.0	22.5	0.00e+00	0	42	0	1946157056	41	4596
2026-01-19 01:05:21.09	108.52	42.73	-35.0	-36.7	22.8	0.00e+00	0	42	0	1954545664	41	4401
2026-01-19 01:05:21.80	108.87	42.70	-35.0	-36.8	22.8	0.00e+00	0	42	0	1958739968	41	4442
2026-01-19 01:05:23.16	109.55	42.63	-35.1	-36.8	22.7	0.00e+00	0	42	0	1966080000	41	4470
2026-01-19 01:05:23.87	109.91	42.59	-35.1	-36.8	22.6	0.00e+00	0	42	0	1970274304	41	4483
2026-01-19 01:05:25.20	110.56	42.51	-35.0	-36.7	22.8	0.00e+00	0	41	0	1977614336	41	4408
2026-01-19 01:05:25.91	110.92	42.47	-34.7	-36.5	23.0	0.00e+00	0	41	0	1981808640	41	4295
2026-01-19 01:05:27.27	111.58	42.39	-34.8	-36.5	22.9	0.00e+00	0	42	0	1989148672	41	4307
2026-01-19 01:05:27.98	111.93	42.34	-34.8	-36.6	22.8	0.00e+00	0	41	0	1993342976	41	4352
2026-01-19 01:05:29.26	112.56	42.26	-35.1	-36.8	22.6	0.00e+00	0	42	0	2000683008	41	4469
2026-01-19 01:05:29.97	112.90	42.21	-34.9	-36.6	22.8	0.00e+00	0	41	0	2003828736	41	4379
2026-01-19 01:05:31.25	113.52	42.12	-34.7	-36.4	23.0	0.00e+00	0	42	0	2011168768	41	4261
2026-01-19 01:05:31.96	113.86	42.07	-34.7	-36.4	23.0	0.00e+00	0	41	0	2015363072	41	4289
2026-01-19 01:05:33.24	114.48	41.97	-34.6	-36.3	23.1	0.00e+00	0	41	0	2022703104	41	4198
2026-01-19 01:05:33.95	114.82	41.92	-34.6	-36.3	23.1	0.00e+00	0	42	0	2026897408	41	4213
2026-01-19 01:05:35.24	115.43	41.82	-34.7	-36.3	23.0	0.00e+00	0	42	0	2034237440	41	4240
2026-01-19 01:05:36.00	115.79	41.76	-34.7	-36.4	22.9	0.00e+00	0	42	0	2038431744	41	4286
2026-01-19 01:05:37.28	116.39	41.65	-34.9	-36.6	22.8	0.00e+00	0	41	0	2045771776	41	4381
2026-01-19 01:05:38.01	116.73	41.59	-35.0	-36.8	22.7	0.00e+00	0	41	0	2049966080	41	4451
2026-01-19 01:05:39.29	117.33	41.48	-35.0	-36.8	22.6	0.00e+00	0	41	0	2056257536	41	4461
2026-01-19 01:05:40.03	117.67	41.41	-35.0	-36.7	22.7	0.00e+00	0	41	0	2060451840	41	4439
2026-01-19 01:05:41.31	118.26	41.30	-34.7	-36.4	22.9	0.00e+00	0	41	0	2067791872	41	4287
2026-01-19 01:05:42.03	118.59	41.23	-34.8	-36.5	22.8	0.00e+00	0	42	0	2071986176	41	4339
2026-01-19 01:05:43.31	119.18	41.11	-35.0	-36.8	22.6	0.00e+00	0	41	0	2079326208	41	4469
2026-01-19 01:05:44.02	119.50	41.04	-35.1	-36.8	22.6	0.00e+00	0	42	0	2083520512	41	4487
2026-01-19 01:05:45.30	120.08	40.92	-35.0	-36.8	22.7	0.00e+00	0	41	0	2090860544	41	4460
2026-01-19 01:05:46.01	120.39	40.85	-34.9	-36.6	22.8	0.00e+00	0	41	0	2095054848	41	4377
2026-01-19 01:05:47.29	120.96	40.72	-34.9	-36.6	22.9	0.00e+00	0	41	0	2101346304	41	4366
2026-01-19 01:05:48.02	121.29	40.65	-34.8	-36.5	22.9	0.00e+00	0	41	0	2105540608	41	4305
2026-01-19 01:05:49.30	121.85	40.52	-34.8	-36.6	22.9	0.00e+00	0	41	0	2112880640	41	4348
2026-01-19 01:05:50.01	122.16	40.44	-34.8	-36.5	22.9	0.00e+00	0	41	0	2117074944	41	4334
2026-01-19 01:05:51.29	122.71	40.30	-34.8	-36.5	22.9	0.00e+00	0	41	0	2124414976	41	4309
2026-01-19 01:05:52.00	123.02	40.23	-34.8	-36.5	22.9	0.00e+00	0	41	0	2128609280	41	4320
2026-01-19 01:05:53.28	123.57	40.09	-34.7	-36.5	22.9	0.00e+00	0	41	0	2134900736	41	4299
2026-01-19 01:05:53.99	123.87	40.01	-34.7	-36.4	23.0	0.00e+00	0	41	0	2139095040	41	4269
2026-01-19 01:05:55.27	124.41	39.87	-34.8	-36.5	23.0	0.00e+00	0	41	0	2146435072	41	4302
2026-01-19 01:05:56.00	124.72	39.78	-34.7	-36.4	23.0	0.00e+00	0	42	0	2150629376	41	4247
2026-01-19 01:05:57.28	125.25	39.64	-34.7	-36.4	23.0	0.00e+00	0	42	0	2157969408	41	4272
2026-01-19 01:05:58.05	125.57	39.55	-34.7	-36.4	23.0	0.00e+00	0	42	0	2162163712	41	4278
2026-01-19 01:05:59.33	126.10	39.40	-34.7	-36.4	23.0	0.00e+00	0	42	0	2169503744	41	4286
2026-01-19 01:06:00.04	126.39	39.31	-34.7	-36.4	23.1	0.00e+00	0	41	0	2173698048	41	4259
2026-01-19 01:06:01.32	126.90	39.16	-34.9	-36.6	22.9	0.00e+00	0	41	0	2181038080	41	4374
2026-01-19 01:06:02.06	127.20	39.07	-34.9	-36.6	22.8	0.00e+00	0	41	0	2185232384	41	4379
2026-01-19 01:06:03.34	127.71	38.91	-34.7	-36.4	23.0	0.00e+00	0	41	0	2191523840	41	4252
2026-01-19 01:06:04.07	128.00	38.82	-34.5	-36.2	23.2	0.00e+00	0	41	0	2195718144	41	4172
2026-01-19 01:06:05.37	128.51	38.66	-34.4	-36.1	23.3	0.00e+00	0	41	0	2203058176	40	4367
2026-01-19 01:06:06.08	128.79	38.57	-34.4	-36.1	23.3	0.00e+00	0	41	0	2207252480	40	4357
2026-01-19 01:06:07.35	129.28	38.41	-34.5	-36.2	23.2	0.00e+00	0	41	0	2214592512	40	4415
2026-01-19 01:06:08.06	129.56	38.32	-34.5	-36.3	23.1	0.00e+00	0	41	0	2218786816	40	4452
2026-01-19 01:06:09.45	130.09	38.14	-34.6	-36.3	23.1	0.00e+00	0	41	0	2226126848	40	4484
2026-01-19 01:06:10.16	130.35	38.05	-34.6	-36.3	23.1	0.00e+00	0	41	0	2230321152	40	4476
2026-01-19 01:06:11.44	130.83	37.88	-34.6	-36.3	23.1	0.00e+00	0	41	0	2237661184	40	4491
2026-01-19 01:06:12.18	131.11	37.79	-34.6	-36.3	23.1	0.00e+00	0	41	0	2241855488	40	4487
2026-01-19 01:06:13.57	131.62	37.60	-34.7	-36.4	23.0	0.00e+00	0	41	0	2249195520	40	4522
2026-01-19 01:06:14.28	131.88	37.51	-34.8	-36.5	22.9	0.00e+00	0	41	0	2253389824	40	4566
2026-01-19 01:06:15.64	132.38	37.33	-34.7	-36.4	23.0	0.00e+00	0	42	0	2260729856	40	4520
2026-01-19 01:06:16.35	132.63	37.23	-34.7	-36.4	23.0	0.00e+00	0	41	0	2264924160	40	4514
2026-01-19 01:06:17.63	133.09	37.06	-34.7	-36.4	23.0	0.00e+00	0	42	0	2272264192	40	4545
2026-01-19 01:06:18.68	133.46	36.92	-34.6	-36.3	23.1	0.00e+00	0	41	0	2278555648	40	4482
2026-01-19 01:06:19.88	133.88	36.76	-34.7	-36.5	23.0	0.00e+00	0	41	0	2284847104	40	4547
2026-01-19 01:06:20.88	134.23	36.62	-34.8	-36.5	23.0	0.00e+00	0	41	0	2291138560	40	4560
2026-01-19 01:06:21.87	134.57	36.48	-34.8	-36.5	22.9	0.00e+00	0	41	0	2296381440	40	4596
2026-01-19 01:06:22.87	134.91	36.35	-34.9	-36.7	22.8	0.00e+00	0	41	0	2301624320	40	4652
2026-01-19 01:06:23.86	135.25	36.21	-34.6	-36.3	23.1	0.00e+00	0	41	0	2307915776	40	4479
2026-01-19 01:06:24.86	135.58	36.07	-34.6	-36.3	23.1	0.00e+00	0	41	0	2313158656	40	4479
2026-01-19 01:06:25.85	135.91	35.93	-34.6	-36.3	23.0	0.00e+00	0	41	0	2318401536	40	4492
2026-01-19 01:06:26.85	136.24	35.79	-34.6	-36.3	23.0	0.00e+00	0	41	0	2324692992	40	4490
2026-01-19 01:06:27.84	136.57	35.65	-34.6	-36.3	23.0	0.00e+00	0	41	0	2329935872	40	4486
2026-01-19 01:06:28.84	136.89	35.51	-34.7	-36.5	22.9	0.00e+00	0	41	0	2335178752	40	4557
2026-01-19 01:06:29.83	137.21	35.37	-34.8	-36.6	22.8	0.00e+00	0	41	0	2341470208	40	4614
2026-01-19 01:06:30.83	137.53	35.23	-34.9	-36.7	22.7	0.00e+00	0	42	0	2346713088	40	4668
2026-01-19 01:06:31.82	137.84	35.09	-35.1	-36.8	22.6	0.00e+00	0	41	0	2351955968	40	4747
2026-01-19 01:06:32.88	138.18	34.94	-35.0	-36.8	22.6	0.00e+00	0	41	0	2358247424	40	4719
2026-01-19 01:06:33.75	138.45	34.82	-35.1	-36.9	22.6	0.00e+00	0	41	0	2363490304	40	4766
2026-01-19 01:06:35.08	138.86	34.63	-35.0	-36.8	22.7	0.00e+00	0	41	0	2370830336	40	4712
2026-01-19 01:06:35.79	139.07	34.52	-35.1	-36.8	22.6	0.00e+00	0	41	0	2373976064	40	4751
2026-01-19 01:06:37.07	139.46	34.34	-34.7	-36.4	22.9	0.00e+00	0	41	0	2381316096	40	4533
2026-01-19 01:06:37.79	139.68	34.24	-34.6	-36.4	23.0	0.00e+00	0	41	0	2385510400	40	4497
2026-01-19 01:06:39.07	140.06	34.05	-34.7	-36.4	22.9	0.00e+00	0	41	0	2392850432	40	4517
2026-01-19 01:06:39.78	140.27	33.95	-34.7	-36.5	22.9	0.00e+00	0	41	0	2397044736	40	4564
2026-01-19 01:06:41.06	140.64	33.77	-34.8	-36.5	22.8	0.00e+00	0	41	0	2404384768	40	4590
2026-01-19 01:06:41.79	140.86	33.66	-34.7	-36.5	22.9	0.00e+00	0	41	0	2408579072	40	4561
2026-01-19 01:06:43.07	141.22	33.48	-34.8	-36.6	22.8	0.00e+00	0	41	0	2415919104	40	4609
2026-01-19 01:06:43.79	141.43	33.37	-34.7	-36.4	22.9	0.00e+00	0	41	0	2419064832	40	4535
2026-01-19 01:06:45.07	141.79	33.19	-34.7	-36.4	22.7	0.00e+00	0	41	0	2426404864	40	4518
2026-01-19 01:06:45.78	141.99	33.09	-34.7	-36.5	22.8	0.00e+00	0	41	0	2430599168	40	4554
2026-01-19 01:06:47.06	142.35	32.90	-34.9	-36.7	22.7	0.00e+00	0	41	0	2437939200	40	4656
2026-01-19 01:06:47.77	142.54	32.80	-34.9	-36.7	22.7	0.00e+00	0	41	0	2442133504	40	4665
2026-01-19 01:06:49.18	142.93	32.60	-34.9	-36.6	22.7	0.00e+00	0	41	0	2449473536	40	4647
2026-01-19 01:06:49.89	143.12	32.49	-34.8	-36.5	22.8	0.00e+00	0	41	0	2453667840	40	4589
2026-01-19 01:06:51.23	143.48	32.30	-34.7	-36.4	22.9	0.00e+00	0	41	0	2461007872	40	4543
2026-01-19 01:06:51.94	143.67	32.20	-34.7	-36.4	22.9	0.00e+00	0	41	0	2465202176	40	4542
2026-01-19 01:06:53.27	144.02	32.01	-34.7	-36.5	22.8	0.00e+00	0	41	0	2472542208	40	4546
2026-01-19 01:06:53.98	144.20	31.90	-34.7	-36.5	22.9	0.00e+00	0	41	0	2476736512	40	4562
2026-01-19 01:06:55.26	144.53	31.72	-34.9	-36.6	22.7	0.00e+00	0	41	0	2484076544	40	4651
2026-01-19 01:06:55.99	144.72	31.61	-35.0	-36.8	22.5	0.00e+00	0	41	0	2488270848	40	4717
2026-01-19 01:06:57.27	145.05	31.43	-35.1	-36.9	22.4	0.00e+00	0	41	0	2495610880	40	4770
2026-01-19 01:06:57.98	145.22	31.33	-35.1	-36.9	22.4	0.00e+00	0	41	0	2499805184	40	4799
2026-01-19 01:06:59.26	145.54	31.14	-35.1	-36.8	22.5	0.00e+00	0	41	0	2507145216	40	4751
2026-01-19 01:06:59.97	145.72	31.04	-34.9	-36.7	22.6	0.00e+00	0	41	0	2510290944	40	4653
2026-01-19 01:07:01.25	146.03	30.86	-34.9	-36.6	22.7	0.00e+00	0	41	0	2517630976	40	4642
2026-01-19 01:07:01.99	146.21	30.75	-34.9	-36.7	22.6	0.00e+00	0	41	0	2521825280	40	4659
2026-01-19 01:07:03.27	146.52	30.57	-35.1	-36.8	22.5	0.00e+00	0	41	0	2529165312	40	4745
2026-01-19 01:07:04.01	146.70	30.46	-35.2	-36.9	22.4	0.00e+00	0	41	0	2533359616	40	4790
2026-01-19 01:07:05.29	147.00	30.28	-35.2	-37.0	22.5	0.00e+00	0	41	0	2540699648	41	4548
2026-01-19 01:07:06.00	147.17	30.18	-35.2	-37.0	22.4	0.00e+00	0	41	0	2544893952	41	4580
2026-01-19 01:07:07.28	147.47	29.99	-35.4	-37.2	22.3	0.00e+00	0	41	0	2551185408	41	4670
2026-01-19 01:07:08.01	147.64	29.89	-35.3	-37.1	22.3	0.00e+00	0	42	0	2555379712	41	4602
2026-01-19 01:07:09.29	147.93	29.71	-35.4	-37.2	22.3	0.00e+00	0	41	0	2562719744	41	4661
2026-01-19 01:07:10.00	148.09	29.61	-35.2	-37.0	22.4	0.00e+00	0	41	0	2566914048	41	4573
2026-01-19 01:07:11.28	148.38	29.43	-35.1	-36.9	22.5	0.00e+00	0	41	0	2574254080	41	4521
2026-01-19 01:07:11.99	148.54	29.33	-35.1	-36.9	22.5	0.00e+00	0	41	0	2578448384	41	4501
2026-01-19 01:07:13.27	148.82	29.14	-34.9	-36.7	22.7	0.00e+00	0	41	0	2585788416	41	4396
2026-01-19 01:07:13.99	148.98	29.04	-34.8	-36.5	22.8	0.00e+00	0	41	0	2588934144	41	4317
2026-01-19 01:07:15.27	149.26	28.86	-34.8	-36.6	22.8	0.00e+00	0	41	0	2596274176	41	4346
2026-01-19 01:07:15.98	149.41	28.76	-34.9	-36.6	22.7	0.00e+00	0	41	0	2600468480	41	4379
2026-01-19 01:07:17.26	149.68	28.58	-35.0	-36.7	22.6	0.00e+00	0	41	0	2607808512	41	4420
2026-01-19 01:07:17.99	149.84	28.48	-35.1	-36.9	22.5	0.00e+00	0	41	0	2612002816	41	4525
2026-01-19 01:07:19.27	150.11	28.30	-35.0	-36.8	22.6	0.00e+00	0	41	0	2619342848	41	4462
2026-01-19 01:07:19.98	150.26	28.20	-35.0	-36.8	22.5	0.00e+00	0	41	0	2623537152	41	4466
2026-01-19 01:07:21.26	150.52	28.03	-35.1	-36.8	22.6	0.00e+00	0	41	0	2630877184	41	4478
2026-01-19 01:07:21.98	150.67	27.93	-35.0	-36.8	22.6	0.00e+00	0	41	0	2634022912	41	4468
2026-01-19 01:07:23.26	150.93	27.75	-35.2	-37.0	22.5	0.00e+00	0	41	0	2641362944	41	4552
2026-01-19 01:07:23.97	151.07	27.65	-35.2	-37.0	22.5	0.00e+00	0	41	0	2645557248	41	4548
2026-01-19 01:07:25.25	151.33	27.48	-35.2	-36.9	22.5	0.00e+00	0	41	0	2652897280	41	4534
2026-01-19 01:07:25.97	151.47	27.38	-35.2	-37.0	22.5	0.00e+00	0	41	0	2657091584	41	4573
2026-01-19 01:07:27.25	151.72	27.20	-35.3	-37.0	22.4	0.00e+00	0	41	0	2664431616	41	4597
2026-01-19 01:07:27.96	151.86	27.10	-35.3	-37.1	22.4	0.00e+00	0	41	0	2667577344	41	4610
2026-01-19 01:07:29.24	152.11	26.93	-35.4	-37.2	22.3	0.00e+00	0	41	0	2674917376	41	4672
2026-01-19 01:07:29.95	152.24	26.83	-35.5	-37.2	22.3	0.00e+00	0	41	0	2679111680	41	4704
2026-01-19 01:07:31.24	152.49	26.66	-35.4	-37.2	22.3	0.00e+00	0	41	0	2686451712	41	4694
2026-01-19 01:07:31.96	152.62	26.56	-35.4	-37.2	22.3	0.00e+00	0	41	0	2690646016	41	4692
2026-01-19 01:07:33.24	152.86	26.39	-35.3	-37.1	22.3	0.00e+00	0	41	0	2697986048	41	4641
2026-01-19 01:07:33.95	153.00	26.29	-35.3	-37.1	22.3	0.00e+00	0	41	0	2702180352	41	4638
2026-01-19 01:07:35.23	153.23	26.12	-35.3	-37.1	22.4	0.00e+00	0	41	0	2708471808	41	4613
2026-01-19 01:07:35.96	153.36	26.02	-35.4	-37.2	22.3	0.00e+00	0	41	0	2712666112	41	4657
2026-01-19 01:07:37.24	153.60	25.85	-35.3	-37.0	22.4	0.00e+00	0	41	0	2720006144	41	4582
2026-01-19 01:07:37.96	153.72	25.76	-35.4	-37.1	22.3	0.00e+00	0	41	0	2724200448	41	4634
2026-01-19 01:07:39.24	153.95	25.59	-35.2	-36.9	22.5	0.00e+00	0	41	0	2731540480	41	4545
2026-01-19 01:07:39.95	154.08	25.49	-35.3	-37.0	22.4	0.00e+00	0	41	0	2735734784	41	4583
2026-01-19 01:07:41.23	154.30	25.32	-35.4	-37.2	22.2	0.00e+00	0	41	0	2743074816	41	4683
2026-01-19 01:07:42.15	154.46	25.20	-35.6	-37.4	22.1	0.00e+00	0	41	0	2748317696	41	4787
2026-01-19 01:07:43.44	154.68	25.03	-35.7	-37.5	22.0	0.00e+00	0	41	0	2754609152	42	4561
2026-01-19 01:07:44.20	154.81	24.93	-35.7	-37.6	22.0	0.00e+00	0	41	0	2759852032	42	4608
2026-01-19 01:07:45.48	155.03	24.77	-35.8	-37.6	22.0	0.00e+00	0	41	0	2766143488	42	4616
2026-01-19 01:07:46.19	155.15	24.67	-35.8	-37.7	21.9	0.00e+00	0	41	0	2770337792	42	4669
2026-01-19 01:07:47.47	155.36	24.51	-35.6	-37.4	22.1	0.00e+00	0	41	0	2777677824	42	4535
2026-01-19 01:07:48.18	155.48	24.42	-35.6	-37.4	22.1	0.00e+00	0	41	0	2781872128	42	4508
2026-01-19 01:07:49.46	155.69	24.25	-35.5	-37.3	22.2	0.00e+00	0	41	0	2789212160	42	4450
2026-01-19 01:07:50.19	155.81	24.16	-35.5	-37.2	22.2	0.00e+00	0	41	0	2793406464	42	4425
2026-01-19 01:07:51.46	156.01	24.00	-35.5	-37.3	22.2	0.00e+00	0	41	0	2800746496	42	4470
2026-01-19 01:07:52.19	156.13	23.90	-35.4	-37.2	22.3	0.00e+00	0	41	0	2803892224	42	4411
2026-01-19 01:07:53.47	156.33	23.74	-35.5	-37.2	22.3	0.00e+00	0	41	0	2811232256	42	4425
2026-01-19 01:07:54.18	156.44	23.65	-35.5	-37.3	22.2	0.00e+00	0	41	0	2815426560	42	4453
2026-01-19 01:07:55.46	156.64	23.49	-35.6	-37.4	22.1	0.00e+00	0	41	0	2822766592	42	4502
2026-01-19 01:07:56.20	156.76	23.39	-35.7	-37.4	22.1	0.00e+00	0	41	0	2826960896	42	4520
2026-01-19 01:07:57.48	156.95	23.23	-35.7	-37.4	22.0	0.00e+00	0	41	0	2834300928	42	4539
2026-01-19 01:07:58.20	157.06	23.14	-35.7	-37.4	22.1	0.00e+00	0	41	0	2838495232	42	4536
2026-01-19 01:07:59.48	157.26	22.98	-35.7	-37.4	22.0	0.00e+00	0	41	0	2844786688	42	4529
2026-01-19 01:08:00.19	157.36	22.90	-35.7	-37.5	22.0	0.00e+00	0	41	0	2848980992	42	4561
2026-01-19 01:08:01.47	157.56	22.74	-35.7	-37.5	22.0	0.00e+00	0	41	0	2856321024	42	4568
2026-01-19 01:08:02.20	157.66	22.65	-35.8	-37.5	22.0	0.00e+00	0	41	0	2860515328	42	4583
2026-01-19 01:08:03.48	157.85	22.49	-35.9	-37.6	21.9	0.00e+00	0	41	0	2867855360	42	4647
2026-01-19 01:08:04.19	157.95	22.40	-35.9	-37.7	21.8	0.00e+00	0	41	0	2872049664	42	4672
2026-01-19 01:08:05.46	158.14	22.25	-36.0	-37.8	21.7	0.00e+00	0	41	0	2879389696	42	4734
2026-01-19 01:08:06.27	158.25	22.15	-36.1	-37.9	21.6	0.00e+00	0	41	0	2883584000	42	4775
2026-01-19 01:08:07.71	158.46	21.97	-36.2	-38.1	21.5	0.00e+00	0	41	0	2891972608	43	4600
2026-01-19 01:08:08.42	158.56	21.89	-36.3	-38.2	21.4	0.00e+00	0	41	0	2895118336	43	4670
2026-01-19 01:08:09.70	158.74	21.73	-36.4	-38.3	21.3	0.00e+00	0	41	0	2902458368	43	4708
2026-01-19 01:08:10.44	158.84	21.64	-36.4	-38.3	21.3	0.00e+00	0	41	0	2906652672	43	4709
2026-01-19 01:08:11.72	159.02	21.49	-36.5	-38.4	21.2	0.00e+00	0	41	0	2913992704	43	4776
2026-01-19 01:08:12.45	159.12	21.40	-36.5	-38.4	21.2	0.00e+00	0	41	0	2918187008	43	4776
2026-01-19 01:08:13.73	159.29	21.25	-36.4	-38.3	21.3	0.00e+00	0	41	0	2925527040	43	4710
2026-01-19 01:08:14.50	159.40	21.16	-36.3	-38.1	21.4	0.00e+00	0	41	0	2929721344	43	4650
2026-01-19 01:08:15.78	159.57	21.01	-36.2	-38.0	21.5	0.00e+00	0	41	0	2937061376	43	4589
2026-01-19 01:08:16.49	159.66	20.92	-36.2	-38.0	21.6	0.00e+00	0	41	0	2941255680	43	4557
2026-01-19 01:08:17.79	159.83	20.77	-36.3	-38.1	21.4	0.00e+00	0	41	0	2948595712	43	4644
2026-01-19 01:08:18.66	159.95	20.67	-36.3	-38.1	21.5	0.00e+00	0	41	0	2952790016	43	4604
2026-01-19 01:08:20.11	160.13	20.50	-36.3	-38.0	21.5	0.00e+00	0	41	0	2961178624	43	4596
2026-01-19 01:08:20.82	160.22	20.42	-36.2	-38.0	21.5	0.00e+00	0	41	0	2965372928	43	4576
2026-01-19 01:08:22.10	160.39	20.27	-36.3	-38.1	21.5	0.00e+00	0	41	0	2972712960	43	4609
2026-01-19 01:08:22.82	160.48	20.19	-36.3	-38.0	21.6	0.00e+00	0	41	0	2976907264	43	4588
2026-01-19 01:08:24.10	160.64	20.04	-36.4	-38.2	21.4	0.00e+00	0	41	0	2984247296	43	4665
2026-01-19 01:08:24.87	160.74	19.95	-36.4	-38.2	21.4	0.00e+00	0	41	0	2988441600	43	4692
2026-01-19 01:08:26.15	160.90	19.81	-36.5	-38.3	21.3	0.00e+00	0	41	0	2995781632	43	4735
2026-01-19 01:08:26.86	160.98	19.73	-36.5	-38.3	21.3	0.00e+00	0	41	0	2998927360	43	4729
2026-01-19 01:08:28.14	161.14	19.58	-36.5	-38.3	21.3	0.00e+00	0	41	0	3006267392	43	4758
2026-01-19 01:08:28.85	161.23	19.50	-36.5	-38.3	21.3	0.00e+00	0	41	0	3010461696	43	4722
2026-01-19 01:08:30.13	161.38	19.36	-36.5	-38.3	21.3	0.00e+00	0	41	0	3017801728	43	4752
2026-01-19 01:08:30.86	161.47	19.27	-36.5	-38.3	21.3	0.00e+00	0	41	0	3021996032	43	4736
2026-01-19 01:08:32.14	161.62	19.13	-36.5	-38.3	21.3	0.00e+00	0	41	0	3029336064	43	4739
2026-01-19 01:08:32.85	161.70	19.05	-36.5	-38.3	21.3	0.00e+00	0	41	0	3033530368	43	4755
2026-01-19 01:08:34.19	161.86	18.90	-36.6	-38.4	21.2	0.00e+00	0	41	0	3040870400	43	4791
2026-01-19 01:08:34.90	161.94	18.83	-36.6	-38.4	21.2	0.00e+00	0	41	0	3045064704	43	4795
2026-01-19 01:08:36.24	162.10	18.68	-36.6	-38.5	21.1	0.00e+00	0	41	0	3052404736	43	4827
2026-01-19 01:08:36.95	162.18	18.60	-36.9	-38.7	21.1	0.00e+00	0	41	0	3056599040	44	4693
2026-01-19 01:08:38.23	162.32	18.46	-37.0	-38.8	21.0	0.00e+00	0	41	0	3062890496	44	4745
2026-01-19 01:08:38.94	162.40	18.38	-37.0	-38.9	20.9	0.00e+00	0	41	0	3067084800	44	4781
2026-01-19 01:08:40.22	162.55	18.24	-37.2	-39.0	20.6	0.00e+00	0	41	0	3074424832	44	4864
2026-01-19 01:08:40.93	162.63	18.17	-37.2	-39.0	20.8	0.00e+00	0	41	0	3078619136	45	4598
2026-01-19 01:08:42.22	162.77	18.03	-37.3	-39.2	20.6	0.00e+00	0	41	0	3085959168	45	4686
2026-01-19 01:08:42.94	162.85	17.95	-37.3	-39.2	20.6	0.00e+00	0	41	0	3090153472	45	4679
2026-01-19 01:08:44.22	162.99	17.81	-37.3	-39.2	20.6	0.00e+00	0	41	0	3097493504	45	4692
2026-01-19 01:08:44.96	163.07	17.73	-37.4	-39.3	20.5	0.00e+00	0	41	0	3101687808	45	4714
2026-01-19 01:08:46.24	163.21	17.60	-37.3	-39.2	20.6	0.00e+00	0	41	0	3107979264	45	4675
2026-01-19 01:08:47.07	163.29	17.51	-37.4	-39.3	20.5	0.00e+00	0	41	0	3113222144	45	4728
2026-01-19 01:08:48.52	163.45	17.36	-37.3	-39.2	20.6	0.00e+00	0	41	0	3121610752	45	4661
2026-01-19 01:08:49.23	163.52	17.28	-37.3	-39.1	20.6	0.00e+00	0	41	0	3124756480	45	4650
2026-01-19 01:08:50.51	163.66	17.15	-37.2	-39.1	20.7	0.00e+00	0	41	0	3132096512	45	4605
2026-01-19 01:08:51.22	163.73	17.07	-37.3	-39.1	20.7	0.00e+00	0	41	0	3136290816	45	4650
2026-01-19 01:08:52.50	163.86	16.94	-37.2	-39.0	20.8	0.00e+00	0	41	0	3143630848	45	4593
2026-01-19 01:08:53.22	163.94	16.87	-37.1	-39.0	20.8	0.00e+00	0	41	0	3147825152	45	4561
2026-01-19 01:08:54.50	164.07	16.73	-37.2	-39.1	20.7	0.00e+00	0	41	0	3155165184	45	4600
2026-01-19 01:08:55.22	164.14	16.66	-37.3	-39.2	20.7	0.00e+00	0	41	0	3159359488	45	4662
2026-01-19 01:08:56.50	164.27	16.53	-37.3	-39.2	20.6	0.00e+00	0	41	0	3165650944	45	4670
2026-01-19 01:08:57.23	164.34	16.45	-37.3	-39.1	20.7	0.00e+00	0	41	0	3169845248	45	4633
2026-01-19 01:08:58.51	164.47	16.32	-37.4	-39.3	20.5	0.00e+00	0	41	0	3177185280	45	4712
2026-01-19 01:08:59.25	164.54	16.25	-37.4	-39.3	20.5	0.00e+00	0	41	0	3181379584	45	4723
2026-01-19 01:09:00.55	164.67	16.12	-37.5	-39.4	20.5	0.00e+00	0	41	0	3188719616	45	4771
2026-01-19 01:09:01.26	164.74	16.04	-37.6	-39.5	20.4	0.00e+00	0	41	0	3192913920	45	4836
2026-01-19 01:09:02.54	164.86	15.91	-37.6	-39.5	20.3	0.00e+00	0	41	0	3200253952	45	4847
2026-01-19 01:09:03.25	164.93	15.84	-37.7	-39.6	20.3	0.00e+00	0	41	0	3204448256	45	4873
2026-01-19 01:09:04.53	165.05	15.72	-37.8	-39.7	20.2	0.00e+00	0	41	0	3210739712	46	4664
2026-01-19 01:09:05.24	165.12	15.65	-37.9	-39.8	20.1	0.00e+00	0	41	0	3214934016	46	4720
2026-01-19 01:09:06.51	165.24	15.52	-37.9	-39.8	20.1	0.00e+00	0	41	0	3222274048	46	4714
2026-01-19 01:09:07.23	165.31	15.45	-38.0	-39.9	20.0	0.00e+00	0	41	0	3226468352	46	4778
2026-01-19 01:09:08.50	165.43	15.32	-37.9	-39.9	20.1	0.00e+00	0	41	0	3233808384	46	4760
2026-01-19 01:09:09.21	165.49	15.25	-37.9	-39.8	20.1	0.00e+00	0	41	0	3238002688	46	4723
2026-01-19 01:09:10.50	165.61	15.13	-38.0	-39.9	20.1	0.00e+00	0	41	0	3245342720	46	4771
2026-01-19 01:09:11.21	165.67	15.06	-37.9	-39.8	20.1	0.00e+00	0	41	0	3248488448	46	4748
2026-01-19 01:09:12.49	165.79	14.93	-37.9	-39.8	20.1	0.00e+00	0	41	0	3255828480	46	4740
2026-01-19 01:09:13.22	165.86	14.86	-37.9	-39.8	20.2	0.00e+00	0	41	0	3260022784	46	4708
2026-01-19 01:09:14.50	165.97	14.74	-38.0	-39.9	20.1	0.00e+00	0	41	0	3267362816	46	4760
2026-01-19 01:09:15.21	166.03	14.67	-38.0	-39.9	20.1	0.00e+00	0	41	0	3271557120	46	4775
2026-01-19 01:09:16.50	166.15	14.55	-37.9	-39.8	20.1	0.00e+00	0	41	0	3278897152	46	4755
2026-01-19 01:09:17.22	166.21	14.48	-38.0	-39.9	20.1	0.00e+00	0	41	0	3283091456	46	4768
2026-01-19 01:09:18.50	166.32	14.35	-38.1	-40.0	19.9	0.00e+00	0	41	0	3289382912	46	4854
2026-01-19 01:09:19.21	166.38	14.29	-38.1	-40.0	20.0	0.00e+00	0	41	0	3293577216	46	4830
2026-01-19 01:09:20.57	166.50	14.16	-38.2	-40.1	19.8	0.00e+00	0	41	0	3300917248	47	4635
2026-01-19 01:09:21.28	166.56	14.09	-38.1	-40.1	19.9	0.00e+00	0	41	0	3305111552	47	4603
2026-01-19 01:09:22.56	166.67	13.97	-38.2	-40.2	19.8	0.00e+00	0	41	0	3312451584	47	4662
2026-01-19 01:09:23.27	166.73	13.90	-38.3	-40.2	19.7	0.00e+00	0	41	0	3316645888	47	4704
2026-01-19 01:09:24.66	166.85	13.77	-38.3	-40.2	19.7	0.00e+00	0	41	0	3323985920	47	4698
2026-01-19 01:09:25.65	166.93	13.68	-38.2	-40.2	19.8	0.00e+00	0	41	0	3330277376	47	4667
2026-01-19 01:09:26.98	167.04	13.56	-38.3	-40.3	19.7	0.00e+00	0	41	0	3337617408	47	4719
2026-01-19 01:09:27.69	167.10	13.49	-38.4	-40.3	19.6	0.00e+00	0	41	0	3341811712	47	4752
2026-01-19 01:09:28.97	167.21	13.38	-38.3	-40.3	19.6	0.00e+00	0	41	0	3349151744	47	4723
2026-01-19 01:09:29.71	167.27	13.31	-38.3	-40.3	19.7	0.00e+00	0	41	0	3353346048	47	4711
2026-01-19 01:09:30.99	167.37	13.19	-38.3	-40.3	19.6	0.00e+00	0	41	0	3359637504	47	4739
2026-01-19 01:09:31.72	167.43	13.12	-38.3	-40.3	19.6	0.00e+00	0	41	0	3363831808	47	4716
2026-01-19 01:09:32.99	167.53	13.01	-38.5	-40.5	19.4	0.00e+00	0	41	0	3371171840	47	4841
2026-01-19 01:09:33.72	167.59	12.94	-38.4	-40.4	19.6	0.00e+00	0	41	0	3375366144	47	4765
2026-01-19 01:09:35.06	167.69	12.82	-38.3	-40.3	19.6	0.00e+00	0	41	0	3382706176	47	4732
2026-01-19 01:09:35.78	167.75	12.76	-38.4	-40.4	19.5	0.00e+00	0	41	0	3386900480	47	4777
2026-01-19 01:09:37.13	167.86	12.63	-38.4	-40.4	19.5	0.00e+00	0	41	0	3394240512	47	4762
2026-01-19 01:09:37.84	167.91	12.57	-38.4	-40.4	19.5	0.00e+00	0	41	0	3398434816	47	4780
2026-01-19 01:09:39.20	168.02	12.45	-38.5	-40.5	19.4	0.00e+00	0	41	0	3406823424	47	4832
2026-01-19 01:09:39.91	168.07	12.39	-38.5	-40.5	19.4	0.00e+00	0	41	0	3409969152	47	4827
2026-01-19 01:09:41.24	168.17	12.27	-38.5	-40.5	19.4	0.00e+00	0	41	0	3417309184	47	4820
2026-01-19 01:09:41.95	168.23	12.21	-38.4	-40.4	19.5	0.00e+00	0	41	0	3421503488	47	4789
2026-01-19 01:09:43.29	168.33	12.09	-38.6	-40.6	19.3	0.00e+00	0	41	0	3428843520	47	4897
2026-01-19 01:09:44.00	168.38	12.03	-38.9	-40.8	19.3	0.00e+00	0	41	0	3433037824	48	4752
2026-01-19 01:09:45.28	168.48	11.91	-38.8	-40.8	19.4	0.00e+00	0	41	0	3440377856	48	4724
2026-01-19 01:09:46.00	168.53	11.85	-38.9	-40.9	19.3	0.00e+00	0	41	0	3444572160	48	4783
2026-01-19 01:09:47.29	168.63	11.74	-38.9	-40.9	19.3	0.00e+00	0	41	0	3451912192	48	4764
2026-01-19 01:09:48.00	168.68	11.68	-38.9	-40.9	19.2	0.00e+00	0	41	0	3456106496	48	4809
2026-01-19 01:09:49.27	168.77	11.57	-39.0	-41.0	16.3	0.00e+00	0	41	0	3462397952	48	4846
2026-01-19 01:09:49.99	168.82	11.51	-39.0	-41.1	19.1	0.00e+00	0	41	0	3466592256	48	4886
2026-01-19 01:09:51.26	168.91	11.40	-39.0	-41.1	19.1	0.00e+00	0	41	0	3473932288	48	4873
2026-01-19 01:09:51.97	168.96	11.34	-39.0	-41.0	19.1	0.00e+00	0	41	0	3478126592	48	4868
2026-01-19 01:09:53.25	169.06	11.23	-39.0	-41.1	19.1	0.00e+00	0	41	0	3485466624	48	4873
2026-01-19 01:09:54.01	169.11	11.16	-38.9	-41.0	19.1	0.00e+00	0	41	0	3489660928	48	4843
2026-01-19 01:09:55.29	169.20	11.05	-38.9	-41.0	19.1	0.00e+00	0	41	0	3497000960	48	4869
2026-01-19 01:09:56.04	169.25	10.99	-38.9	-41.1	19.1	0.00e+00	0	41	0	3501195264	48	4900
2026-01-19 01:09:57.31	169.34	10.88	-39.0	-41.2	18.9	0.00e+00	0	41	0	3508535296	48	4951
2026-01-19 01:09:58.03	169.39	10.82	-38.9	-41.1	19.0	0.00e+00	0	41	0	3511681024	48	4916
2026-01-19 01:09:59.31	169.48	10.71	-38.9	-41.1	19.0	0.00e+00	0	41	0	3519021056	48	4919
2026-01-19 01:10:00.02	169.53	10.66	-38.9	-41.1	19.1	0.00e+00	0	41	0	3523215360	48	4897
2026-01-19 01:10:01.29	169.61	10.55	-38.9	-41.1	19.0	0.00e+00	0	41	0	3530555392	48	4904
2026-01-19 01:10:02.01	169.66	10.49	-38.8	-41.1	19.1	0.00e+00	0	41	0	3534749696	48	4882
2026-01-19 01:10:03.28	169.75	10.38	-38.8	-41.0	19.1	0.00e+00	0	41	0	3542089728	48	4869
2026-01-19 01:10:04.00	169.80	10.33	-38.9	-41.1	19.1	0.00e+00	0	41	0	3546284032	48	4887
2026-01-19 01:10:05.28	169.88	10.22	-38.8	-41.0	19.1	0.00e+00	0	41	0	3552575488	48	4855
2026-01-19 01:10:05.99	169.93	10.16	-38.8	-41.1	19.1	0.00e+00	0	41	0	3556769792	48	4883
2026-01-19 01:10:07.26	170.01	10.06	-38.9	-41.1	19.0	0.00e+00	0	41	0	3564109824	48	4923
2026-01-19 01:10:07.98	170.06	10.00	-38.8	-41.1	19.0	0.00e+00	0	41	0	3568304128	48	4888
2026-01-19 01:10:09.25	170.14	9.90	-39.0	-41.2	18.9	0.00e+00	0	41	0	3575644160	48	4972
2026-01-19 01:10:09.98	170.19	9.84	-39.0	-41.2	18.9	0.00e+00	0	41	0	3578789888	48	4966
2026-01-19 01:10:11.25	170.27	9.73	-39.0	-41.2	18.9	0.00e+00	0	41	0	3586129920	48	4972
2026-01-19 01:10:11.98	170.32	9.67	-38.9	-41.2	19.0	0.00e+00	0	41	0	3590324224	48	4935
2026-01-19 01:10:13.26	170.40	9.57	-38.9	-41.2	19.0	0.00e+00	0	41	0	3597664256	48	4930
2026-01-19 01:10:14.09	170.46	9.50	-39.0	-41.3	18.8	0.00e+00	0	41	0	3601858560	48	5010
2026-01-19 01:10:15.53	170.55	9.39	-38.9	-41.2	18.9	0.00e+00	0	41	0	3610247168	48	4952
2026-01-19 01:10:16.24	170.59	9.33	-39.0	-41.2	18.9	0.00e+00	0	41	0	3614441472	48	4966
2026-01-19 01:10:17.72	170.68	9.22	-38.9	-41.2	18.9	0.00e+00	0	41	0	3622830080	48	4927
2026-01-19 01:10:18.43	170.73	9.16	-38.9	-41.2	18.9	0.00e+00	0	41	0	3627024384	48	4934
