passes_logs/2026/01/19/T1/T1__20260119_110208_NOAA_21_JPSS-2_rec.log

#Pass ID: 20260119_110208_NOAA 21 (JPSS-2)
#Satellite: NOAA 21 (JPSS-2)
#Configuration: NOAA 21
#almurnet v.1.7.20251203
#Start time: 2026-01-19 11:02:08

#Version: 2.0.20230620
#Station: T1
#Location: 37.570604 lon 55.790049 lat
#TLE: 1 54234U 22150A   26018.88939962  .00000052  00000+0  45304-4 0  9995
#TLE: 2 54234  98.7504 319.7421 0000606 261.7569  98.3539 14.19535520165361

#Time	Az	El	Level	Level2	SNR	BER	BlckErr	Temp	State	Recorded	gain1	gain2
2026-01-19 11:02:08.09	195.87	4.97	-49.2	-63.0	3.8	1.49e+00	0	40	0	0	70	17087
2026-01-19 11:02:09.08	195.93	5.04	-49.2	-62.9	3.8	1.49e+00	0	41	104	0	69	18064
2026-01-19 11:02:10.07	195.99	5.10	-49.1	-62.9	3.8	1.49e+00	0	40	104	0	69	18084
2026-01-19 11:02:11.07	196.05	5.17	-49.1	-62.9	3.8	1.49e+00	0	40	104	0	69	17971
2026-01-19 11:02:12.06	196.12	5.23	-49.1	-62.9	3.8	1.49e+00	0	41	104	0	69	17931
2026-01-19 11:02:13.05	196.18	5.30	-49.1	-62.8	3.8	1.49e+00	0	41	104	0	69	17850
2026-01-19 11:02:14.05	196.24	5.36	-49.1	-62.7	3.8	1.49e+00	0	41	104	0	69	17647
2026-01-19 11:02:15.04	196.31	5.43	-49.1	-62.6	3.8	1.49e+00	0	41	104	0	69	17398
2026-01-19 11:02:16.03	196.37	5.49	-49.1	-62.5	3.8	1.49e+00	0	41	104	0	69	17128
2026-01-19 11:02:17.02	196.44	5.56	-49.1	-62.3	3.8	1.49e+00	0	41	104	0	69	16809
2026-01-19 11:02:18.02	196.50	5.63	-49.1	-62.2	3.8	1.49e+00	0	41	104	0	69	16629
2026-01-19 11:02:19.01	196.57	5.69	-49.1	-62.1	3.8	1.49e+00	0	41	104	0	69	16434
2026-01-19 11:02:20.00	196.63	5.76	-49.1	-62.1	3.8	1.49e+00	0	41	104	0	69	16379
2026-01-19 11:02:21.00	196.70	5.83	-49.1	-62.2	3.8	1.49e+00	0	41	104	0	69	16601
2026-01-19 11:02:21.99	196.76	5.89	-49.1	-62.3	3.8	1.49e+00	0	41	104	0	69	16806
2026-01-19 11:02:22.98	196.83	5.96	-49.1	-62.5	3.8	1.49e+00	0	41	104	0	69	17087
2026-01-19 11:02:23.98	196.89	6.03	-49.1	-62.5	3.8	1.49e+00	0	41	104	0	69	17253
2026-01-19 11:02:24.97	196.96	6.09	-49.1	-62.5	3.8	1.49e+00	0	41	104	0	69	17176
2026-01-19 11:02:25.96	197.03	6.16	-49.1	-62.5	3.8	1.49e+00	0	41	104	0	69	17095
2026-01-19 11:02:26.95	197.10	6.23	-49.1	-62.4	3.8	1.49e+00	0	41	104	0	69	16899
2026-01-19 11:02:27.95	197.16	6.30	-49.1	-62.3	3.8	1.49e+00	0	41	104	0	69	16734
2026-01-19 11:02:28.94	197.23	6.36	-49.1	-62.1	3.8	1.49e+00	0	41	104	0	69	16470
2026-01-19 11:02:29.93	197.30	6.43	-49.1	-62.1	3.8	1.49e+00	0	41	104	0	69	16410
2026-01-19 11:02:30.93	197.37	6.50	-49.1	-62.2	3.8	1.49e+00	0	42	104	0	69	16547
2026-01-19 11:02:31.92	197.44	6.57	-49.1	-62.2	3.8	1.49e+00	0	41	104	0	69	16690
2026-01-19 11:02:32.91	197.51	6.64	-49.1	-62.3	3.8	1.49e+00	0	42	104	0	69	16801
2026-01-19 11:02:33.90	197.57	6.71	-49.1	-62.4	3.8	1.49e+00	0	41	104	0	69	16993
2026-01-19 11:02:34.90	197.64	6.77	-49.1	-62.6	3.8	1.49e+00	0	42	104	0	69	17322
2026-01-19 11:02:35.89	197.71	6.84	-49.1	-62.6	3.8	1.49e+00	0	41	104	0	69	17361
2026-01-19 11:02:36.88	197.78	6.91	-49.1	-62.6	3.8	1.49e+00	0	41	104	0	69	17286
2026-01-19 11:02:37.88	197.86	6.98	-49.1	-62.2	3.8	1.49e+00	0	42	104	0	69	16648
2026-01-19 11:02:38.87	197.93	7.05	-49.0	-61.6	3.8	1.49e+00	0	42	104	0	69	15549
2026-01-19 11:02:39.86	198.00	7.12	-49.0	-60.7	3.9	1.49e+00	0	42	104	0	69	14030
2026-01-19 11:02:40.85	198.07	7.19	-48.9	-60.2	4.0	1.48e+00	0	42	104	0	69	13182
2026-01-19 11:02:41.85	198.14	7.26	-48.9	-60.5	3.9	1.48e+00	0	42	104	0	69	13593
2026-01-19 11:02:42.84	198.21	7.33	-48.9	-60.8	3.8	1.48e+00	0	42	104	0	69	14139
2026-01-19 11:02:43.83	198.29	7.40	-49.0	-61.7	3.8	1.49e+00	0	42	104	0	69	15711
2026-01-19 11:02:44.83	198.36	7.47	-49.1	-62.8	3.8	1.49e+00	0	42	104	0	69	17788
2026-01-19 11:02:45.82	198.43	7.54	-49.1	-62.4	3.8	1.49e+00	0	42	104	0	69	17026
2026-01-19 11:02:46.81	198.51	7.61	-48.7	-58.7	4.4	1.49e+00	0	42	104	0	69	11082
2026-01-19 11:02:47.80	198.58	7.68	-48.0	-54.9	6.7	3.80e-01	0	42	0	0	68	7588
2026-01-19 11:02:48.80	198.65	7.75	-46.8	-51.7	9.7	2.90e-02	0	42	0	0	65	6250
2026-01-19 11:02:49.79	198.73	7.82	-45.8	-49.6	12.0	6.94e-04	0	42	0	0	63	5503
2026-01-19 11:02:50.78	198.80	7.89	-44.6	-47.7	13.9	5.30e-06	0	42	0	0	61	4967
2026-01-19 11:02:51.78	198.88	7.97	-43.7	-46.4	15.1	0.00e+00	0	42	0	0	59	4793
2026-01-19 11:02:52.77	198.96	8.04	-43.0	-45.4	16.1	0.00e+00	0	42	0	0	58	4529
2026-01-19 11:02:53.76	199.03	8.11	-42.5	-44.7	16.7	0.00e+00	0	42	0	0	57	4432
2026-01-19 11:02:54.76	199.11	8.18	-42.2	-44.4	17.1	0.00e+00	0	42	0	0	56	4534
2026-01-19 11:02:55.75	199.18	8.25	-42.2	-44.3	17.1	0.00e+00	0	42	0	0	56	4487
2026-01-19 11:02:56.74	199.26	8.32	-42.3	-44.5	17.0	0.00e+00	0	42	0	0	56	4579
2026-01-19 11:02:57.73	199.34	8.40	-42.7	-45.0	16.6	0.00e+00	0	42	0	0	56	4836
2026-01-19 11:02:58.73	199.42	8.47	-43.3	-45.8	15.8	0.00e+00	0	42	0	0	57	4996
2026-01-19 11:02:59.72	199.50	8.54	-44.1	-46.8	14.7	7.00e-07	0	42	0	0	58	5337
2026-01-19 11:03:00.71	199.57	8.61	-44.9	-48.2	13.5	3.80e-06	0	42	0	0	60	5531
2026-01-19 11:03:01.71	199.65	8.69	-45.8	-49.6	12.0	1.26e-04	0	42	0	0	62	5838
2026-01-19 11:03:02.70	199.73	8.76	-46.6	-51.2	10.4	2.38e-03	0	42	0	0	63	6584
2026-01-19 11:03:03.69	199.81	8.83	-47.2	-52.7	8.7	2.47e-02	0	42	0	0	65	7033
2026-01-19 11:03:04.69	199.89	8.91	-47.8	-54.3	7.1	1.19e-01	0	42	0	0	66	7975
2026-01-19 11:03:05.68	199.97	8.98	-48.1	-55.7	6.0	2.65e-01	0	42	0	0	66	9322
2026-01-19 11:03:06.67	200.05	9.05	-47.3	-52.7	8.8	1.88e-01	0	42	0	0	66	6634
2026-01-19 11:03:07.67	200.14	9.13	-47.8	-54.4	7.4	9.83e-03	0	42	0	0	66	8077
2026-01-19 11:03:08.66	200.22	9.20	-48.4	-55.9	6.0	4.66e-01	0	42	0	0	68	8489
2026-01-19 11:03:09.65	200.30	9.28	-46.7	-51.4	10.1	6.95e-02	0	42	0	0	65	6026
2026-01-19 11:03:10.64	200.38	9.35	-48.6	-58.1	4.6	2.08e-02	0	42	0	0	67	11626
2026-01-19 11:03:11.64	200.47	9.43	-48.0	-54.6	6.9	1.18e+00	0	42	0	0	68	7325
2026-01-19 11:03:12.63	200.55	9.50	-45.3	-48.8	12.7	2.21e-04	0	42	0	0	62	5280
2026-01-19 11:03:13.62	200.63	9.57	-43.7	-46.4	14.8	7.00e-07	0	42	0	0	59	4803
2026-01-19 11:03:14.62	200.72	9.65	-42.8	-45.2	15.8	0.00e+00	0	42	0	0	57	4672
2026-01-19 11:03:15.61	200.80	9.73	-42.1	-44.4	16.5	0.00e+00	0	42	0	0	56	4501
2026-01-19 11:03:16.60	200.89	9.80	-41.7	-43.9	16.8	0.00e+00	0	42	0	0	55	4514
2026-01-19 11:03:17.60	200.97	9.88	-41.7	-43.8	17.1	0.00e+00	0	42	0	0	55	4457
2026-01-19 11:03:18.59	201.06	9.95	-41.7	-43.7	17.3	0.00e+00	0	42	0	0	55	4435
2026-01-19 11:03:19.58	201.14	10.03	-41.7	-43.7	17.3	0.00e+00	0	42	0	0	55	4431
2026-01-19 11:03:20.57	201.23	10.10	-41.6	-43.7	17.3	0.00e+00	0	42	0	0	55	4410
2026-01-19 11:03:21.57	201.32	10.18	-41.7	-43.8	17.2	0.00e+00	0	42	0	0	55	4446
2026-01-19 11:03:22.56	201.41	10.26	-41.7	-43.8	17.1	0.00e+00	0	42	0	0	55	4452
2026-01-19 11:03:23.55	201.49	10.33	-41.5	-43.6	17.3	0.00e+00	0	42	0	0	55	4372
2026-01-19 11:03:24.55	201.58	10.41	-41.5	-43.6	17.3	0.00e+00	0	42	0	0	55	4346
2026-01-19 11:03:25.54	201.67	10.49	-41.5	-43.6	17.3	0.00e+00	0	42	0	0	55	4342
2026-01-19 11:03:26.53	201.76	10.57	-41.6	-43.7	17.2	0.00e+00	0	42	0	0	55	4401
2026-01-19 11:03:27.52	201.85	10.64	-41.5	-43.5	17.4	0.00e+00	0	42	0	0	54	4571
2026-01-19 11:03:28.52	201.94	10.72	-41.5	-43.5	17.4	0.00e+00	0	43	0	0	54	4584
2026-01-19 11:03:29.51	202.03	10.80	-41.5	-43.5	17.6	0.00e+00	0	42	0	0	54	4568
2026-01-19 11:03:30.50	202.12	10.88	-41.6	-43.6	17.6	0.00e+00	0	42	0	0	54	4625
2026-01-19 11:03:31.50	202.21	10.95	-41.5	-43.5	17.7	0.00e+00	0	42	0	0	54	4558
2026-01-19 11:03:32.49	202.31	11.03	-41.5	-43.5	17.8	0.00e+00	0	43	0	0	54	4558
2026-01-19 11:03:33.48	202.40	11.11	-41.4	-43.3	18.0	0.00e+00	0	43	0	0	54	4488
2026-01-19 11:03:34.48	202.49	11.19	-41.4	-43.4	18.0	0.00e+00	0	43	0	0	54	4500
2026-01-19 11:03:35.47	202.59	11.27	-41.3	-43.3	18.1	0.00e+00	0	43	0	0	54	4477
2026-01-19 11:03:36.46	202.68	11.35	-41.4	-43.4	18.1	0.00e+00	0	43	0	0	54	4495
2026-01-19 11:03:37.46	202.78	11.43	-41.3	-43.3	18.1	0.00e+00	0	43	0	0	54	4461
2026-01-19 11:03:38.45	202.87	11.51	-41.4	-43.4	18.0	0.00e+00	0	43	0	0	54	4496
2026-01-19 11:03:39.44	202.97	11.59	-41.3	-43.3	18.0	0.00e+00	0	42	0	0	54	4456
2026-01-19 11:03:40.44	203.06	11.67	-41.3	-43.3	18.1	0.00e+00	0	42	0	0	54	4445
2026-01-19 11:03:41.43	203.16	11.75	-41.2	-43.2	18.1	0.00e+00	0	42	0	0	54	4418
2026-01-19 11:03:42.42	203.26	11.83	-41.2	-43.1	18.1	0.00e+00	0	43	0	0	54	4383
2026-01-19 11:03:43.41	203.35	11.91	-41.3	-43.3	18.0	0.00e+00	0	43	0	0	54	4444
2026-01-19 11:03:44.41	203.45	11.99	-41.2	-43.2	18.1	0.00e+00	0	43	0	0	54	4394
2026-01-19 11:03:45.40	203.55	12.07	-41.1	-43.1	18.2	0.00e+00	0	43	0	0	54	4366
2026-01-19 11:03:46.39	203.65	12.15	-41.1	-43.1	18.2	0.00e+00	0	43	0	0	54	4356
2026-01-19 11:03:47.39	203.75	12.23	-41.1	-43.0	18.3	0.00e+00	0	43	0	0	54	4327
2026-01-19 11:03:48.38	203.85	12.31	-41.1	-43.1	18.2	0.00e+00	0	43	0	0	54	4363
2026-01-19 11:03:49.37	203.95	12.39	-41.0	-43.0	18.3	0.00e+00	0	43	0	0	54	4303
2026-01-19 11:03:50.37	204.05	12.48	-41.0	-43.0	18.3	0.00e+00	0	43	0	0	54	4296
2026-01-19 11:03:51.36	204.15	12.56	-41.1	-43.0	18.2	0.00e+00	0	43	0	0	54	4311
2026-01-19 11:03:52.35	204.25	12.64	-41.0	-42.9	18.2	0.00e+00	0	43	0	0	54	4291
2026-01-19 11:03:53.34	204.36	12.72	-41.0	-42.9	18.3	0.00e+00	0	43	0	0	54	4267
2026-01-19 11:03:54.34	204.46	12.81	-41.1	-43.0	18.3	0.00e+00	0	43	0	0	54	4300
2026-01-19 11:03:55.33	204.57	12.89	-41.1	-43.0	18.3	0.00e+00	0	43	0	0	54	4305
2026-01-19 11:03:56.32	204.67	12.97	-41.2	-43.2	18.2	0.00e+00	0	43	0	0	54	4394
2026-01-19 11:03:57.31	204.77	13.05	-41.0	-42.9	18.4	0.00e+00	0	43	0	0	54	4271
2026-01-19 11:03:58.31	204.88	13.14	-41.0	-42.9	18.5	0.00e+00	0	43	0	0	54	4252
2026-01-19 11:03:59.30	204.99	13.22	-41.0	-42.8	18.5	0.00e+00	0	43	0	0	54	4238
2026-01-19 11:04:00.29	205.09	13.31	-41.0	-42.9	18.5	0.00e+00	0	42	0	0	53	4507
2026-01-19 11:04:01.29	205.20	13.39	-40.9	-42.8	18.6	0.00e+00	0	43	0	0	53	4469
2026-01-19 11:04:02.28	205.31	13.47	-40.9	-42.8	18.6	0.00e+00	0	43	0	0	53	4462
2026-01-19 11:04:03.27	205.42	13.56	-40.9	-42.7	18.7	0.00e+00	0	43	0	0	53	4440
2026-01-19 11:04:04.27	205.53	13.64	-41.0	-42.8	18.6	0.00e+00	0	43	0	0	53	4491
2026-01-19 11:04:05.26	205.64	13.73	-41.0	-42.8	18.5	0.00e+00	0	43	0	0	53	4491
2026-01-19 11:04:06.25	205.75	13.81	-41.0	-42.8	18.6	0.00e+00	0	43	0	0	53	4479
2026-01-19 11:04:07.24	205.86	13.90	-40.9	-42.7	18.6	0.00e+00	0	43	0	0	53	4441
2026-01-19 11:04:08.24	205.97	13.98	-40.9	-42.7	18.7	0.00e+00	0	43	0	0	53	4441
2026-01-19 11:04:09.23	206.08	14.07	-40.9	-42.7	18.7	0.00e+00	0	43	0	0	53	4432
2026-01-19 11:04:10.22	206.20	14.15	-40.9	-42.7	18.7	0.00e+00	0	43	0	0	53	4441
2026-01-19 11:04:11.21	206.31	14.24	-40.9	-42.8	18.7	0.00e+00	0	43	0	0	53	4453
2026-01-19 11:04:12.21	206.43	14.33	-41.0	-42.8	18.6	0.00e+00	0	43	0	0	53	4482
2026-01-19 11:04:13.20	206.54	14.41	-40.9	-42.8	18.7	0.00e+00	0	43	0	0	53	4457
2026-01-19 11:04:14.19	206.65	14.50	-41.0	-42.9	18.6	0.00e+00	0	43	0	0	53	4512
2026-01-19 11:04:15.19	206.77	14.59	-41.0	-42.8	18.6	0.00e+00	0	43	0	0	53	4480
2026-01-19 11:04:16.18	206.89	14.67	-41.0	-42.8	18.6	0.00e+00	0	43	0	0	53	4474
2026-01-19 11:04:17.17	207.01	14.76	-41.0	-42.8	18.6	0.00e+00	0	43	0	0	53	4476
2026-01-19 11:04:18.16	207.12	14.85	-41.0	-42.8	18.6	0.00e+00	0	43	0	0	53	4489
2026-01-19 11:04:19.16	207.24	14.94	-41.0	-42.9	18.5	0.00e+00	0	43	0	0	53	4504
2026-01-19 11:04:20.15	207.36	15.02	-41.0	-42.9	18.5	0.00e+00	0	43	0	0	53	4523
2026-01-19 11:04:21.14	207.48	15.11	-41.1	-43.0	18.5	0.00e+00	0	43	0	0	53	4572
2026-01-19 11:04:22.14	207.60	15.20	-41.1	-43.0	18.5	0.00e+00	0	43	0	0	53	4554
2026-01-19 11:04:23.13	207.73	15.29	-41.1	-43.0	18.5	0.00e+00	0	43	0	0	53	4569
2026-01-19 11:04:24.12	207.85	15.38	-41.1	-43.0	18.5	0.00e+00	0	43	0	0	53	4546
2026-01-19 11:04:25.11	207.97	15.47	-41.1	-43.0	18.5	0.00e+00	0	43	0	0	53	4555
2026-01-19 11:04:26.11	208.09	15.55	-41.1	-42.9	18.6	0.00e+00	0	43	0	0	53	4540
2026-01-19 11:04:27.10	208.22	15.64	-41.1	-43.0	18.5	0.00e+00	0	43	0	0	53	4563
2026-01-19 11:04:28.09	208.34	15.73	-41.2	-43.0	18.5	0.00e+00	0	43	0	0	53	4598
2026-01-19 11:04:29.09	208.47	15.82	-41.2	-43.1	18.5	0.00e+00	0	43	0	0	53	4600
2026-01-19 11:04:30.08	208.60	15.91	-41.2	-43.1	18.5	0.00e+00	0	43	0	0	53	4613
2026-01-19 11:04:31.07	208.72	16.00	-41.2	-43.1	18.5	0.00e+00	0	43	0	0	53	4622
2026-01-19 11:04:32.06	208.85	16.09	-41.2	-43.1	18.5	0.00e+00	0	43	0	0	53	4620
2026-01-19 11:04:33.06	208.98	16.18	-41.2	-43.1	18.5	0.00e+00	0	43	0	0	53	4628
2026-01-19 11:04:34.05	209.11	16.27	-41.2	-43.1	18.5	0.00e+00	0	43	0	0	53	4625
2026-01-19 11:04:35.04	209.24	16.36	-41.3	-43.1	18.5	0.00e+00	0	43	0	0	53	4642
2026-01-19 11:04:36.04	209.37	16.46	-41.2	-43.1	18.6	0.00e+00	0	43	0	0	53	4599
2026-01-19 11:04:37.03	209.50	16.55	-41.2	-43.1	18.6	0.00e+00	0	43	0	0	53	4609
2026-01-19 11:04:38.02	209.64	16.64	-41.2	-43.1	18.5	0.00e+00	0	43	0	0	53	4616
2026-01-19 11:04:39.02	209.77	16.73	-41.4	-43.2	18.4	0.00e+00	0	43	0	0	53	4690
2026-01-19 11:04:40.01	209.91	16.82	-41.2	-43.1	18.5	0.00e+00	0	43	0	0	53	4624
2026-01-19 11:04:41.00	210.04	16.91	-41.3	-43.2	18.5	0.00e+00	0	43	0	0	53	4670
2026-01-19 11:04:41.99	210.18	17.01	-41.3	-43.1	18.5	0.00e+00	0	43	0	0	53	4646
2026-01-19 11:04:42.99	210.31	17.10	-41.2	-43.0	18.6	0.00e+00	0	43	0	0	53	4577
2026-01-19 11:04:43.98	210.45	17.19	-41.1	-43.0	18.6	0.00e+00	0	43	0	0	53	4568
2026-01-19 11:04:44.97	210.59	17.28	-41.3	-43.2	18.4	0.00e+00	0	43	0	0	53	4662
2026-01-19 11:04:45.97	210.73	17.38	-41.1	-42.9	18.6	0.00e+00	0	43	0	0	53	4545
2026-01-19 11:04:46.96	210.87	17.47	-41.1	-42.9	18.6	0.00e+00	0	43	0	0	53	4538
2026-01-19 11:04:47.95	211.01	17.56	-41.1	-42.9	18.7	0.00e+00	0	43	0	0	53	4538
2026-01-19 11:04:48.94	211.15	17.66	-41.0	-42.8	18.7	0.00e+00	0	43	0	0	53	4480
2026-01-19 11:04:49.94	211.29	17.75	-41.0	-42.9	18.7	0.00e+00	0	43	0	0	53	4506
2026-01-19 11:04:50.93	211.44	17.85	-40.9	-42.7	18.9	0.00e+00	0	43	0	0	53	4413
2026-01-19 11:04:51.92	211.58	17.94	-40.8	-42.6	19.0	0.00e+00	0	43	0	0	53	4360
2026-01-19 11:04:52.92	211.73	18.03	-40.9	-42.7	18.9	0.00e+00	0	43	0	0	53	4400
2026-01-19 11:04:53.91	211.87	18.13	-40.9	-42.7	18.9	0.00e+00	0	43	0	0	53	4398
2026-01-19 11:04:54.90	212.02	18.22	-40.8	-42.6	19.0	0.00e+00	0	43	0	0	53	4373
2026-01-19 11:04:55.90	212.17	18.32	-40.8	-42.6	19.0	0.00e+00	0	43	0	0	53	4375
2026-01-19 11:04:56.89	212.32	18.41	-40.8	-42.6	18.9	0.00e+00	0	43	0	0	53	4374
2026-01-19 11:04:57.88	212.46	18.51	-40.8	-42.6	19.0	0.00e+00	0	43	0	0	53	4358
2026-01-19 11:04:58.87	212.61	18.60	-40.9	-42.7	18.9	0.00e+00	0	43	0	0	53	4407
2026-01-19 11:04:59.87	212.77	18.70	-40.8	-42.6	18.9	0.00e+00	0	43	0	0	53	4354
2026-01-19 11:05:00.86	212.92	18.79	-40.7	-42.6	19.0	0.00e+00	0	43	0	0	53	4341
2026-01-19 11:05:01.85	213.07	18.89	-40.7	-42.5	19.1	0.00e+00	0	43	0	0	53	4304
2026-01-19 11:05:02.85	213.23	18.99	-40.6	-42.4	19.2	0.00e+00	0	43	0	0	53	4246
2026-01-19 11:05:03.84	213.38	19.08	-40.5	-42.3	19.2	0.00e+00	0	43	0	0	53	4225
2026-01-19 11:05:04.83	213.54	19.18	-40.6	-42.4	19.2	0.00e+00	0	43	0	0	53	4245
2026-01-19 11:05:05.83	213.70	19.28	-40.5	-42.3	19.2	0.00e+00	0	43	0	0	53	4225
2026-01-19 11:05:06.82	213.85	19.37	-40.6	-42.4	19.2	0.00e+00	0	43	0	0	53	4252
2026-01-19 11:05:07.81	214.01	19.47	-40.7	-42.5	19.2	0.00e+00	0	43	0	0	53	4293
2026-01-19 11:05:08.81	214.17	19.57	-40.7	-42.4	19.2	0.00e+00	0	43	0	0	53	4286
2026-01-19 11:05:09.80	214.33	19.67	-40.6	-42.4	19.2	0.00e+00	0	43	0	0	53	4285
2026-01-19 11:05:10.79	214.50	19.76	-40.6	-42.4	19.2	0.00e+00	0	43	0	0	53	4260
2026-01-19 11:05:11.78	214.66	19.86	-40.6	-42.4	19.2	0.00e+00	0	43	0	0	53	4244
2026-01-19 11:05:12.78	214.82	19.96	-40.5	-42.3	19.2	0.00e+00	0	43	0	0	53	4215
2026-01-19 11:05:13.77	214.99	20.06	-40.5	-42.3	19.2	0.00e+00	0	43	0	0	52	4467
2026-01-19 11:05:14.76	215.15	20.15	-40.6	-42.4	19.2	0.00e+00	0	43	0	0	52	4517
2026-01-19 11:05:15.75	215.32	20.25	-40.5	-42.3	19.2	0.00e+00	0	43	0	0	52	4463
2026-01-19 11:05:16.75	215.49	20.35	-40.2	-41.9	19.5	0.00e+00	0	43	0	0	52	4290
2026-01-19 11:05:17.74	215.66	20.45	-40.1	-41.8	19.7	0.00e+00	0	43	0	0	52	4219
2026-01-19 11:05:18.73	215.83	20.55	-40.1	-41.9	19.6	0.00e+00	0	43	0	0	52	4246
2026-01-19 11:05:19.73	216.00	20.65	-40.1	-41.8	19.7	0.00e+00	0	43	0	0	52	4216
2026-01-19 11:05:20.72	216.17	20.75	-40.1	-41.8	19.7	0.00e+00	0	43	0	0	52	4217
2026-01-19 11:05:21.71	216.35	20.84	-40.2	-41.9	19.6	0.00e+00	0	43	0	0	52	4281
2026-01-19 11:05:22.71	216.52	20.94	-40.1	-41.8	19.7	0.00e+00	0	43	0	0	52	4219
2026-01-19 11:05:23.70	216.70	21.04	-40.1	-41.9	19.6	0.00e+00	0	43	0	0	52	4243
2026-01-19 11:05:24.69	216.87	21.14	-40.1	-41.9	19.6	0.00e+00	0	43	0	0	52	4249
2026-01-19 11:05:25.69	217.05	21.24	-40.1	-41.9	19.6	0.00e+00	0	43	0	0	52	4255
2026-01-19 11:05:26.68	217.23	21.34	-40.1	-41.8	19.8	0.00e+00	0	43	0	0	51	4464
2026-01-19 11:05:27.67	217.41	21.44	-40.1	-41.8	19.8	0.00e+00	0	43	0	0	51	4462
2026-01-19 11:05:28.67	217.59	21.54	-40.1	-41.8	19.7	0.00e+00	0	43	0	0	51	4488
2026-01-19 11:05:29.66	217.77	21.64	-40.0	-41.7	19.9	0.00e+00	0	43	0	0	51	4411
2026-01-19 11:05:30.65	217.96	21.74	-39.8	-41.5	20.0	0.00e+00	0	43	0	0	51	4331
2026-01-19 11:05:31.64	218.14	21.84	-39.8	-41.5	20.1	0.00e+00	0	43	0	0	51	4310
2026-01-19 11:05:32.63	218.33	21.94	-39.8	-41.5	20.1	0.00e+00	0	43	0	0	51	4316
2026-01-19 11:05:33.63	218.52	22.04	-39.8	-41.5	20.1	0.00e+00	0	43	0	0	51	4295
2026-01-19 11:05:34.62	218.70	22.14	-39.7	-41.3	20.3	0.00e+00	0	43	0	0	51	4225
2026-01-19 11:05:35.61	218.89	22.24	-39.6	-41.3	20.3	0.00e+00	0	43	0	0	51	4221
2026-01-19 11:05:36.61	219.08	22.34	-39.7	-41.3	20.2	0.00e+00	0	43	0	0	51	4240
2026-01-19 11:05:37.60	219.28	22.44	-39.6	-41.3	20.3	0.00e+00	0	43	0	0	51	4203
2026-01-19 11:05:38.59	219.47	22.54	-39.8	-41.5	20.1	0.00e+00	0	43	0	0	51	4304
2026-01-19 11:05:39.59	219.66	22.65	-39.7	-41.3	20.3	0.00e+00	0	43	0	0	51	4226
2026-01-19 11:05:40.58	219.86	22.75	-39.6	-41.3	20.3	0.00e+00	0	43	0	0	51	4218
2026-01-19 11:05:41.57	220.06	22.85	-39.5	-41.2	20.3	0.00e+00	0	43	0	0	51	4168
2026-01-19 11:05:42.56	220.25	22.95	-39.5	-41.2	20.3	0.00e+00	0	43	0	0	51	4158
2026-01-19 11:05:43.56	220.45	23.05	-39.5	-41.2	20.3	0.00e+00	0	43	0	0	51	4160
2026-01-19 11:05:44.55	220.65	23.15	-39.6	-41.3	20.3	0.00e+00	0	43	0	0	51	4204
2026-01-19 11:05:45.54	220.85	23.25	-39.6	-41.2	20.3	0.00e+00	0	43	0	0	51	4192
2026-01-19 11:05:46.53	221.06	23.35	-39.6	-41.3	20.2	0.00e+00	0	43	0	0	51	4199
2026-01-19 11:05:47.53	221.26	23.45	-39.5	-41.1	20.3	0.00e+00	0	43	0	0	51	4141
2026-01-19 11:05:48.52	221.47	23.56	-39.5	-41.1	20.3	0.00e+00	0	43	0	0	51	4145
2026-01-19 11:05:49.51	221.67	23.66	-39.6	-41.3	20.2	0.00e+00	0	43	0	0	51	4208
2026-01-19 11:05:50.51	221.88	23.76	-39.6	-41.3	20.3	0.00e+00	0	43	0	0	51	4202
2026-01-19 11:05:51.50	222.09	23.86	-39.7	-41.3	20.2	0.00e+00	0	43	0	0	51	4238
2026-01-19 11:05:52.49	222.30	23.96	-39.7	-41.3	20.2	0.00e+00	0	43	0	0	51	4230
2026-01-19 11:05:53.49	222.52	24.06	-39.6	-41.2	20.2	0.00e+00	0	43	0	0	51	4192
2026-01-19 11:05:54.48	222.73	24.16	-39.5	-41.2	20.3	0.00e+00	0	43	0	0	51	4170
2026-01-19 11:05:55.47	222.95	24.26	-39.7	-41.3	20.2	0.00e+00	0	43	0	0	51	4226
2026-01-19 11:05:56.46	223.16	24.36	-39.6	-41.3	20.2	0.00e+00	0	43	0	0	51	4194
2026-01-19 11:05:57.46	223.38	24.47	-39.8	-41.4	20.1	0.00e+00	0	43	0	0	51	4287
2026-01-19 11:05:58.45	223.60	24.57	-39.7	-41.4	20.1	0.00e+00	0	43	0	0	51	4275
2026-01-19 11:05:59.44	223.82	24.67	-39.9	-41.6	20.0	0.00e+00	0	43	0	0	51	4348
2026-01-19 11:06:00.44	224.04	24.77	-39.8	-41.5	20.0	0.00e+00	0	43	0	0	51	4338
2026-01-19 11:06:01.43	224.26	24.87	-39.9	-41.6	20.0	0.00e+00	0	43	0	0	51	4347
2026-01-19 11:06:02.42	224.49	24.97	-39.8	-41.5	20.1	0.00e+00	0	43	0	0	51	4321
2026-01-19 11:06:03.41	224.71	25.07	-39.8	-41.5	20.0	0.00e+00	0	43	0	0	51	4321
2026-01-19 11:06:04.41	224.94	25.17	-39.9	-41.5	20.1	0.00e+00	0	43	0	0	51	4328
2026-01-19 11:06:05.40	225.17	25.27	-39.8	-41.5	20.1	0.00e+00	0	43	0	0	51	4298
2026-01-19 11:06:06.39	225.40	25.37	-39.9	-41.6	20.0	0.00e+00	0	43	0	0	51	4367
2026-01-19 11:06:07.38	225.63	25.47	-40.0	-41.7	19.9	0.00e+00	0	43	0	0	51	4412
2026-01-19 11:06:08.38	225.87	25.58	-40.1	-41.8	19.8	0.00e+00	0	43	0	0	51	4473
2026-01-19 11:06:09.37	226.10	25.68	-40.2	-41.9	19.7	0.00e+00	0	43	0	0	51	4543
2026-01-19 11:06:10.36	226.34	25.77	-40.3	-42.0	19.6	0.00e+00	0	43	0	0	51	4588
2026-01-19 11:06:11.36	226.57	25.88	-40.4	-42.1	19.5	0.00e+00	0	43	0	0	51	4626
2026-01-19 11:06:12.35	226.81	25.98	-40.5	-42.3	19.4	0.00e+00	0	43	0	0	51	4714
2026-01-19 11:06:13.34	227.05	26.07	-40.4	-42.2	19.5	0.00e+00	0	43	0	0	51	4671
2026-01-19 11:06:14.34	227.30	26.17	-40.5	-42.3	19.4	0.00e+00	0	43	0	0	51	4717
2026-01-19 11:06:15.33	227.54	26.27	-40.4	-42.2	19.5	0.00e+00	0	43	0	0	51	4671
2026-01-19 11:06:16.32	227.78	26.37	-40.4	-42.1	19.5	0.00e+00	0	43	0	0	51	4647
2026-01-19 11:06:17.31	228.03	26.47	-40.4	-42.1	19.6	0.00e+00	0	43	0	0	51	4620
2026-01-19 11:06:18.31	228.28	26.57	-40.3	-42.0	19.7	0.00e+00	0	43	0	0	51	4586
2026-01-19 11:06:19.30	228.53	26.67	-40.3	-42.0	19.7	0.00e+00	0	43	0	0	51	4592
2026-01-19 11:06:20.29	228.78	26.77	-40.4	-42.1	19.6	0.00e+00	0	43	0	0	51	4635
2026-01-19 11:06:21.28	229.03	26.86	-40.3	-42.1	19.7	0.00e+00	0	43	0	0	51	4611
2026-01-19 11:06:22.28	229.28	26.96	-40.4	-42.1	19.6	0.00e+00	0	43	0	0	51	4631
2026-01-19 11:06:23.27	229.54	27.06	-40.5	-42.3	19.5	0.00e+00	0	43	0	0	51	4717
2026-01-19 11:06:24.26	229.80	27.16	-40.4	-42.1	19.6	0.00e+00	0	43	0	0	51	4618
2026-01-19 11:06:25.26	230.06	27.26	-40.5	-42.2	19.6	0.00e+00	0	43	0	0	51	4684
2026-01-19 11:06:26.25	230.32	27.35	-40.5	-42.3	19.5	0.00e+00	0	43	0	0	51	4723
2026-01-19 11:06:27.24	230.58	27.45	-40.7	-42.5	19.2	0.00e+00	0	43	0	0	52	4568
2026-01-19 11:06:28.23	230.84	27.54	-40.6	-42.4	19.3	0.00e+00	0	43	0	0	52	4520
2026-01-19 11:06:29.23	231.11	27.64	-40.7	-42.4	19.2	0.00e+00	0	43	0	0	52	4543
2026-01-19 11:06:30.22	231.37	27.74	-40.6	-42.4	19.3	0.00e+00	0	43	0	0	52	4538
2026-01-19 11:06:31.21	231.64	27.83	-40.6	-42.4	19.3	0.00e+00	0	43	0	0	52	4504
2026-01-19 11:06:32.21	231.91	27.93	-40.5	-42.2	19.4	0.00e+00	0	43	0	0	52	4436
2026-01-19 11:06:33.20	232.18	28.02	-40.4	-42.2	19.5	0.00e+00	0	43	0	0	52	4405
2026-01-19 11:06:34.19	232.45	28.12	-40.3	-42.1	19.6	0.00e+00	0	43	0	0	52	4351
2026-01-19 11:06:35.18	232.73	28.21	-40.3	-42.0	19.6	0.00e+00	0	43	0	0	52	4340
2026-01-19 11:06:36.18	233.00	28.30	-40.3	-42.1	19.6	0.00e+00	0	43	0	0	52	4344
2026-01-19 11:06:37.17	233.28	28.40	-40.5	-42.2	19.4	0.00e+00	0	43	0	0	52	4436
2026-01-19 11:06:38.16	233.56	28.49	-40.6	-42.3	19.3	0.00e+00	0	43	0	0	52	4488
2026-01-19 11:06:39.16	233.84	28.58	-40.6	-42.3	19.3	0.00e+00	0	43	0	0	52	4481
2026-01-19 11:06:40.15	234.12	28.67	-40.7	-42.4	19.2	0.00e+00	0	43	0	0	52	4542
2026-01-19 11:06:41.14	234.40	28.76	-40.6	-42.4	19.2	0.00e+00	0	43	0	0	52	4511
2026-01-19 11:06:42.13	234.69	28.86	-40.6	-42.4	19.3	0.00e+00	0	43	0	0	52	4497
2026-01-19 11:06:43.13	234.98	28.95	-40.7	-42.4	19.2	0.00e+00	0	43	0	0	52	4535
2026-01-19 11:06:44.12	235.26	29.04	-40.6	-42.3	19.3	0.00e+00	0	43	0	0	52	4485
2026-01-19 11:06:45.11	235.55	29.13	-40.5	-42.3	19.3	0.00e+00	0	43	0	0	52	4455
2026-01-19 11:06:46.10	235.84	29.21	-40.5	-42.2	19.4	0.00e+00	0	43	0	0	52	4413
2026-01-19 11:06:47.10	236.14	29.30	-40.5	-42.3	19.3	0.00e+00	0	43	0	0	52	4456
2026-01-19 11:06:48.09	236.43	29.39	-40.3	-42.1	19.5	0.00e+00	0	43	0	0	52	4344
2026-01-19 11:06:49.08	236.73	29.48	-40.4	-42.1	19.5	0.00e+00	0	43	0	0	52	4369
2026-01-19 11:06:50.07	237.03	29.56	-40.4	-42.2	19.4	0.00e+00	0	43	0	0	52	4413
2026-01-19 11:06:51.07	237.33	29.65	-40.5	-42.3	19.4	0.00e+00	0	43	0	0	52	4465
2026-01-19 11:06:52.06	237.63	29.74	-40.5	-42.3	19.4	0.00e+00	0	43	0	0	52	4467
2026-01-19 11:06:53.05	237.93	29.82	-40.6	-42.4	19.3	0.00e+00	0	43	0	0	52	4516
2026-01-19 11:06:54.05	238.24	29.91	-40.6	-42.4	19.4	0.00e+00	0	43	0	0	52	4499
2026-01-19 11:06:55.04	238.54	29.99	-40.3	-42.0	19.7	0.00e+00	0	43	0	0	52	4332
2026-01-19 11:06:56.03	238.85	30.07	-40.1	-41.8	19.9	0.00e+00	0	43	0	0	52	4222
2026-01-19 11:06:57.03	239.16	30.16	-40.2	-41.9	19.7	0.00e+00	0	43	0	0	52	4274
2026-01-19 11:06:58.02	239.47	30.24	-40.2	-41.9	19.7	0.00e+00	0	43	0	0	52	4262
2026-01-19 11:06:59.01	239.78	30.32	-40.2	-41.9	19.7	0.00e+00	0	43	0	0	52	4284
2026-01-19 11:07:00.00	240.09	30.40	-40.2	-41.9	19.7	0.00e+00	0	43	0	0	52	4263
2026-01-19 11:07:01.00	240.41	30.48	-40.2	-41.9	19.8	0.00e+00	0	43	0	0	52	4265
2026-01-19 11:07:01.99	240.72	30.56	-40.2	-41.9	19.8	0.00e+00	0	43	0	0	52	4260
2026-01-19 11:07:02.98	241.04	30.64	-40.2	-41.9	19.8	0.00e+00	0	43	0	0	52	4259
2026-01-19 11:07:03.98	241.36	30.72	-40.1	-41.8	19.9	0.00e+00	0	43	0	0	52	4228
2026-01-19 11:07:04.97	241.68	30.79	-40.2	-41.9	19.8	0.00e+00	0	43	0	0	52	4285
2026-01-19 11:07:05.96	242.00	30.87	-40.3	-42.0	19.7	0.00e+00	0	43	0	0	52	4292
2026-01-19 11:07:06.96	242.33	30.94	-40.3	-42.0	19.6	0.00e+00	0	43	0	0	52	4335
2026-01-19 11:07:07.95	242.65	31.02	-40.4	-42.2	19.4	0.00e+00	0	43	0	0	52	4405
2026-01-19 11:07:08.94	242.98	31.09	-40.6	-42.3	19.3	0.00e+00	0	43	0	0	52	4491
2026-01-19 11:07:09.93	243.31	31.16	-40.5	-42.3	19.4	0.00e+00	0	43	0	0	52	4463
2026-01-19 11:07:10.93	243.64	31.24	-40.4	-42.2	19.5	0.00e+00	0	43	0	0	52	4394
2026-01-19 11:07:11.92	243.97	31.31	-40.5	-42.2	19.5	0.00e+00	0	43	0	0	52	4426
2026-01-19 11:07:12.91	244.30	31.38	-40.4	-42.1	19.5	0.00e+00	0	43	0	0	52	4374
2026-01-19 11:07:13.90	244.63	31.45	-40.5	-42.2	19.5	0.00e+00	0	43	0	0	52	4417
2026-01-19 11:07:14.90	244.97	31.52	-40.6	-42.4	19.3	0.00e+00	0	43	0	0	52	4515
2026-01-19 11:07:15.89	245.31	31.58	-40.9	-42.7	19.1	0.00e+00	0	43	0	0	52	4662
2026-01-19 11:07:16.88	245.64	31.65	-41.0	-42.8	19.0	0.00e+00	0	43	0	0	52	4750
2026-01-19 11:07:17.88	245.99	31.72	-41.1	-43.0	18.9	0.00e+00	0	43	0	0	52	4832
2026-01-19 11:07:18.87	246.33	31.78	-41.0	-42.8	19.0	0.00e+00	0	43	0	0	52	4754
2026-01-19 11:07:19.86	246.67	31.84	-40.9	-42.7	19.1	0.00e+00	0	43	0	0	52	4689
2026-01-19 11:07:20.86	247.01	31.91	-40.9	-42.7	19.0	0.00e+00	0	43	0	0	52	4689
2026-01-19 11:07:21.85	247.36	31.97	-40.8	-42.6	19.0	0.00e+00	0	43	0	0	52	4630
2026-01-19 11:07:22.84	247.70	32.03	-41.0	-42.8	18.9	0.00e+00	0	43	0	0	52	4721
2026-01-19 11:07:23.83	248.05	32.09	-41.0	-42.9	18.9	0.00e+00	0	43	0	0	52	4764
2026-01-19 11:07:24.82	248.40	32.15	-41.1	-43.0	18.8	0.00e+00	0	43	0	0	52	4824
2026-01-19 11:07:25.82	248.75	32.21	-41.0	-42.8	19.0	0.00e+00	0	43	0	0	52	4736
2026-01-19 11:07:26.81	249.10	32.26	-41.0	-42.8	18.9	0.00e+00	0	43	0	0	52	4755
2026-01-19 11:07:27.80	249.45	32.32	-41.1	-42.9	18.9	0.00e+00	0	43	0	0	52	4763
2026-01-19 11:07:28.80	249.81	32.37	-41.1	-42.9	18.8	0.00e+00	0	43	0	0	52	4783
2026-01-19 11:07:29.79	250.16	32.43	-41.2	-43.0	18.6	0.00e+00	0	43	0	0	53	4597
2026-01-19 11:07:30.78	250.51	32.48	-41.2	-43.1	18.6	0.00e+00	0	43	0	0	53	4612
2026-01-19 11:07:31.78	250.87	32.53	-41.2	-43.0	18.8	0.00e+00	0	43	0	0	53	4570
2026-01-19 11:07:32.77	251.23	32.58	-41.2	-43.0	18.8	0.00e+00	0	43	0	0	53	4562
2026-01-19 11:07:33.76	251.59	32.63	-41.0	-42.8	19.0	0.00e+00	0	43	0	0	53	4450
2026-01-19 11:07:34.75	251.95	32.68	-41.0	-42.8	19.0	0.00e+00	0	43	0	0	53	4446
2026-01-19 11:07:35.75	252.31	32.72	-40.8	-42.6	19.1	0.00e+00	0	43	0	0	53	4357
2026-01-19 11:07:36.74	252.67	32.77	-40.7	-42.5	19.2	0.00e+00	0	43	0	0	53	4315
2026-01-19 11:07:37.73	253.03	32.81	-40.7	-42.5	19.3	0.00e+00	0	43	0	0	53	4324
2026-01-19 11:07:38.72	253.39	32.86	-40.7	-42.5	19.3	0.00e+00	0	43	0	0	53	4296
2026-01-19 11:07:39.72	253.76	32.90	-40.8	-42.6	19.2	0.00e+00	0	43	0	0	53	4347
2026-01-19 11:07:40.71	254.13	32.94	-40.6	-42.4	19.3	0.00e+00	0	43	0	0	53	4250
2026-01-19 11:07:41.70	254.49	32.98	-40.6	-42.3	19.4	0.00e+00	0	43	0	0	53	4215
2026-01-19 11:07:42.70	254.86	33.02	-40.6	-42.4	19.3	0.00e+00	0	43	0	0	53	4247
2026-01-19 11:07:43.69	255.23	33.05	-40.7	-42.5	19.1	0.00e+00	0	43	0	0	53	4294
2026-01-19 11:07:44.68	255.60	33.09	-40.8	-42.6	19.1	0.00e+00	0	43	0	0	53	4365
2026-01-19 11:07:45.67	255.97	33.12	-40.9	-42.6	19.1	0.00e+00	0	43	0	0	53	4388
2026-01-19 11:07:46.67	256.34	33.16	-40.7	-42.5	19.3	0.00e+00	0	43	0	0	53	4313
2026-01-19 11:07:47.66	256.71	33.19	-40.8	-42.6	19.1	0.00e+00	0	43	0	0	53	4356
2026-01-19 11:07:48.65	257.08	33.22	-41.0	-42.8	18.9	0.00e+00	0	43	0	0	53	4456
2026-01-19 11:07:49.64	257.45	33.25	-41.2	-43.0	18.8	0.00e+00	0	43	0	0	53	4576
2026-01-19 11:07:50.64	257.83	33.28	-41.2	-43.0	18.8	0.00e+00	0	43	0	0	53	4576
2026-01-19 11:07:51.63	258.20	33.30	-41.2	-43.0	18.8	0.00e+00	0	43	0	0	53	4598
2026-01-19 11:07:52.62	258.57	33.33	-41.1	-42.9	18.9	0.00e+00	0	43	0	0	53	4529
2026-01-19 11:07:53.62	258.95	33.35	-40.9	-42.7	19.1	0.00e+00	0	43	0	0	53	4419
2026-01-19 11:07:54.61	259.33	33.38	-40.9	-42.7	19.0	0.00e+00	0	43	0	0	53	4439
2026-01-19 11:07:55.60	259.70	33.40	-40.9	-42.7	19.1	0.00e+00	0	43	0	0	53	4403
2026-01-19 11:07:56.60	260.08	33.42	-40.8	-42.6	19.1	0.00e+00	0	43	0	0	53	4380
2026-01-19 11:07:57.59	260.46	33.44	-40.8	-42.6	19.1	0.00e+00	0	43	0	0	53	4369
2026-01-19 11:07:58.58	260.83	33.45	-40.7	-42.4	19.4	0.00e+00	0	43	0	0	53	4281
2026-01-19 11:07:59.57	261.21	33.47	-40.6	-42.4	19.4	0.00e+00	0	43	0	0	53	4269
2026-01-19 11:08:00.57	261.59	33.48	-40.7	-42.5	19.3	0.00e+00	0	43	0	0	53	4305
2026-01-19 11:08:01.56	261.97	33.50	-40.9	-42.7	19.1	0.00e+00	0	43	0	0	53	4435
2026-01-19 11:08:02.55	262.35	33.51	-41.1	-42.9	18.9	0.00e+00	0	43	0	0	53	4511
2026-01-19 11:08:03.54	262.72	33.52	-41.2	-43.0	18.8	0.00e+00	0	43	0	0	53	4580
2026-01-19 11:08:04.54	263.10	33.53	-41.2	-43.0	18.8	0.00e+00	0	43	0	0	53	4598
2026-01-19 11:08:05.53	263.48	33.54	-41.4	-43.3	18.6	0.00e+00	0	43	0	0	53	4711
2026-01-19 11:08:06.52	263.86	33.54	-41.5	-43.4	18.5	0.00e+00	0	43	0	0	53	4790
2026-01-19 11:08:07.51	264.24	33.55	-41.5	-43.3	18.5	0.00e+00	0	43	0	0	53	4752
2026-01-19 11:08:08.51	264.62	33.55	-41.3	-43.2	18.7	0.00e+00	0	43	0	0	53	4657
2026-01-19 11:08:09.50	265.00	33.55	-41.2	-43.0	18.8	0.00e+00	0	43	0	0	53	4572
2026-01-19 11:08:10.49	265.38	33.56	-41.3	-43.1	18.7	0.00e+00	0	43	0	0	54	4350
2026-01-19 11:08:11.49	265.76	33.56	-41.7	-43.6	18.4	0.00e+00	0	43	0	0	54	4618
2026-01-19 11:08:12.48	266.14	33.55	-41.1	-42.9	18.9	0.00e+00	0	43	0	0	53	4502
2026-01-19 11:08:13.47	266.52	33.55	-40.9	-42.7	19.1	0.00e+00	0	43	0	0	53	4408
2026-01-19 11:08:14.46	266.90	33.55	-40.7	-42.5	19.2	0.00e+00	0	43	0	0	53	4309
2026-01-19 11:08:15.46	267.28	33.54	-41.0	-42.7	18.9	0.00e+00	0	43	0	0	53	4437
2026-01-19 11:08:16.45	267.66	33.53	-41.1	-42.9	18.8	0.00e+00	0	43	0	0	53	4537
2026-01-19 11:08:17.44	268.04	33.52	-41.3	-43.2	18.6	0.00e+00	0	43	0	0	53	4669
2026-01-19 11:08:18.43	268.41	33.51	-41.5	-43.4	18.5	0.00e+00	0	43	0	0	53	4761
2026-01-19 11:08:19.43	268.80	33.50	-41.5	-43.4	18.4	0.00e+00	0	43	0	0	53	4794
2026-01-19 11:08:20.42	269.17	33.49	-41.4	-43.3	18.6	0.00e+00	0	43	0	0	53	4708
2026-01-19 11:08:21.41	269.55	33.48	-41.2	-43.0	18.8	0.00e+00	0	43	0	0	53	4579
2026-01-19 11:08:22.41	269.93	33.46	-41.3	-43.2	18.7	0.00e+00	0	43	0	0	53	4659
2026-01-19 11:08:23.40	270.31	33.44	-41.2	-43.0	18.8	0.00e+00	0	43	0	0	53	4596
2026-01-19 11:08:24.39	270.68	33.43	-41.2	-43.0	18.8	0.00e+00	0	43	0	0	53	4581
2026-01-19 11:08:25.39	271.06	33.41	-41.1	-42.9	18.9	0.00e+00	0	43	0	0	53	4526
2026-01-19 11:08:26.38	271.44	33.39	-41.0	-42.7	19.1	0.00e+00	0	43	0	0	53	4437
2026-01-19 11:08:27.37	271.81	33.36	-40.9	-42.7	19.1	0.00e+00	0	43	0	0	53	4407
2026-01-19 11:08:28.36	272.18	33.34	-41.0	-42.8	19.0	0.00e+00	0	43	0	0	53	4453
2026-01-19 11:08:29.36	272.56	33.32	-40.8	-42.6	19.1	0.00e+00	0	43	0	0	53	4373
2026-01-19 11:08:30.35	272.93	33.29	-40.8	-42.6	19.2	0.00e+00	0	43	0	0	53	4347
2026-01-19 11:08:31.34	273.31	33.26	-41.0	-42.7	19.1	0.00e+00	0	43	0	0	53	4441
2026-01-19 11:08:32.34	273.68	33.23	-40.8	-42.5	19.3	0.00e+00	0	43	0	0	53	4325
2026-01-19 11:08:33.33	274.05	33.20	-40.9	-42.7	19.2	0.00e+00	0	43	0	0	53	4400
2026-01-19 11:08:34.32	274.42	33.17	-41.1	-42.9	18.9	0.00e+00	0	43	0	0	53	4536
2026-01-19 11:08:35.31	274.79	33.14	-41.2	-43.0	18.8	0.00e+00	0	43	0	0	53	4590
2026-01-19 11:08:36.31	275.16	33.11	-41.2	-43.1	18.8	0.00e+00	0	43	0	0	53	4612
2026-01-19 11:08:37.30	275.53	33.07	-41.2	-43.0	18.8	0.00e+00	0	43	0	0	53	4574
2026-01-19 11:08:38.29	275.90	33.03	-41.3	-43.1	18.7	0.00e+00	0	43	0	0	53	4627
2026-01-19 11:08:39.29	276.27	33.00	-41.2	-43.1	18.7	0.00e+00	0	43	0	0	53	4605
2026-01-19 11:08:40.28	276.63	32.96	-41.1	-42.9	18.9	0.00e+00	0	43	0	0	53	4528
2026-01-19 11:08:41.27	277.00	32.92	-41.0	-42.8	19.0	0.00e+00	0	43	0	0	53	4463
2026-01-19 11:08:42.27	277.36	32.88	-40.9	-42.7	19.1	0.00e+00	0	43	0	0	53	4422
2026-01-19 11:08:43.26	277.73	32.83	-41.0	-42.8	19.0	0.00e+00	0	43	0	0	53	4460
2026-01-19 11:08:44.25	278.09	32.79	-40.9	-42.7	19.1	0.00e+00	0	43	0	0	53	4411
2026-01-19 11:08:45.24	278.45	32.75	-41.0	-42.8	19.0	0.00e+00	0	43	0	0	53	4459
2026-01-19 11:08:46.24	278.81	32.70	-41.0	-42.8	19.0	0.00e+00	0	43	0	0	53	4469
2026-01-19 11:08:47.23	279.17	32.65	-40.7	-42.5	19.3	0.00e+00	0	43	0	0	53	4302
2026-01-19 11:08:48.22	279.53	32.61	-40.7	-42.5	19.2	0.00e+00	0	43	0	0	53	4317
2026-01-19 11:08:49.22	279.89	32.56	-40.9	-42.8	19.0	0.00e+00	0	43	0	0	53	4444
2026-01-19 11:08:50.21	280.24	32.50	-41.0	-42.8	19.0	0.00e+00	0	43	0	0	53	4456
2026-01-19 11:08:51.20	280.60	32.45	-41.0	-42.8	18.9	0.00e+00	0	43	0	0	53	4491
2026-01-19 11:08:52.19	280.95	32.40	-41.1	-42.9	18.8	0.00e+00	0	43	0	0	53	4538
2026-01-19 11:08:53.19	281.31	32.35	-41.0	-42.8	19.0	0.00e+00	0	43	0	0	53	4468
2026-01-19 11:08:54.18	281.66	32.29	-40.9	-42.7	19.0	0.00e+00	0	43	0	0	53	4418
2026-01-19 11:08:55.17	282.01	32.24	-40.9	-42.7	18.9	0.00e+00	0	43	0	0	53	4422
2026-01-19 11:08:56.17	282.36	32.18	-41.1	-42.9	18.7	0.00e+00	0	43	0	0	53	4509
2026-01-19 11:08:57.16	282.71	32.12	-41.0	-42.8	18.9	0.00e+00	0	43	0	0	53	4474
2026-01-19 11:08:58.15	283.05	32.06	-41.0	-42.8	19.0	0.00e+00	0	43	0	0	53	4443
2026-01-19 11:08:59.15	283.40	32.00	-41.0	-42.7	18.9	0.00e+00	0	43	0	0	53	4430
2026-01-19 11:09:00.14	283.74	31.94	-41.1	-43.0	18.8	0.00e+00	0	43	0	0	53	4549
2026-01-19 11:09:01.13	284.09	31.88	-41.1	-42.9	18.9	0.00e+00	0	43	0	0	53	4507
2026-01-19 11:09:02.13	284.43	31.82	-41.1	-42.9	18.8	0.00e+00	0	43	0	0	53	4544
2026-01-19 11:09:03.12	284.77	31.75	-41.1	-42.9	18.9	0.00e+00	0	43	0	0	53	4496
2026-01-19 11:09:04.11	285.11	31.69	-40.9	-42.7	19.0	0.00e+00	0	43	0	0	53	4401
2026-01-19 11:09:05.11	285.45	31.62	-40.7	-42.5	19.1	0.00e+00	0	43	0	0	53	4307
2026-01-19 11:09:06.10	285.78	31.55	-40.8	-42.6	19.0	0.00e+00	0	43	0	0	53	4348
2026-01-19 11:09:07.09	286.12	31.49	-40.9	-42.7	18.9	0.00e+00	0	43	0	0	53	4434
2026-01-19 11:09:08.08	286.45	31.42	-40.8	-42.5	19.2	0.00e+00	0	43	0	0	53	4328
2026-01-19 11:09:09.08	286.79	31.35	-40.8	-42.6	19.2	0.00e+00	0	43	0	0	53	4376
2026-01-19 11:09:10.07	287.12	31.28	-40.9	-42.7	19.0	0.00e+00	0	43	0	0	53	4436
2026-01-19 11:09:11.06	287.44	31.21	-40.9	-42.7	19.1	0.00e+00	0	43	0	0	53	4422
2026-01-19 11:09:12.05	287.77	31.13	-40.8	-42.6	19.2	0.00e+00	0	43	0	0	53	4376
2026-01-19 11:09:13.05	288.10	31.06	-40.8	-42.6	19.2	0.00e+00	0	43	0	0	53	4344
2026-01-19 11:09:14.04	288.42	30.99	-40.7	-42.4	19.3	0.00e+00	0	43	0	0	53	4277
2026-01-19 11:09:15.03	288.75	30.91	-40.6	-42.3	19.4	0.00e+00	0	43	0	0	53	4231
2026-01-19 11:09:16.03	289.07	30.84	-40.6	-42.3	19.4	0.00e+00	0	43	0	0	53	4233
2026-01-19 11:09:17.02	289.39	30.76	-40.5	-42.2	19.6	0.00e+00	0	43	0	0	52	4407
2026-01-19 11:09:18.01	289.71	30.68	-40.5	-42.2	19.5	0.00e+00	0	43	0	0	52	4429
2026-01-19 11:09:19.01	290.03	30.61	-40.6	-42.4	19.4	0.00e+00	0	43	0	0	52	4498
2026-01-19 11:09:20.00	290.34	30.53	-40.8	-42.6	19.2	0.00e+00	0	43	0	0	52	4602
2026-01-19 11:09:20.99	290.66	30.45	-40.9	-42.7	19.1	0.00e+00	0	43	0	0	52	4677
2026-01-19 11:09:21.99	290.97	30.37	-40.7	-42.5	19.3	0.00e+00	0	43	0	0	52	4584
2026-01-19 11:09:22.98	291.28	30.29	-40.6	-42.4	19.3	0.00e+00	0	43	0	0	52	4523
2026-01-19 11:09:23.97	291.59	30.21	-40.6	-42.4	19.3	0.00e+00	0	43	0	0	52	4503
2026-01-19 11:09:24.96	291.90	30.13	-40.5	-42.2	19.5	0.00e+00	0	43	0	0	52	4419
2026-01-19 11:09:25.95	292.21	30.04	-40.4	-42.1	19.5	0.00e+00	0	43	0	0	52	4386
2026-01-19 11:09:26.95	292.51	29.96	-40.4	-42.2	19.5	0.00e+00	0	43	0	0	52	4410
2026-01-19 11:09:27.94	292.82	29.88	-40.3	-42.1	19.5	0.00e+00	0	43	0	0	52	4363
2026-01-19 11:09:28.93	293.12	29.79	-40.4	-42.2	19.5	0.00e+00	0	43	0	0	52	4396
2026-01-19 11:09:29.93	293.42	29.71	-40.3	-42.1	19.6	0.00e+00	0	43	0	0	52	4361
2026-01-19 11:09:30.92	293.72	29.62	-40.6	-42.3	19.3	0.00e+00	0	43	0	0	52	4475
2026-01-19 11:09:31.91	294.02	29.54	-40.7	-42.4	19.3	0.00e+00	0	43	0	0	52	4525
2026-01-19 11:09:32.91	294.31	29.45	-40.5	-42.2	19.5	0.00e+00	0	43	0	0	52	4420
2026-01-19 11:09:33.90	294.61	29.36	-40.4	-42.2	19.5	0.00e+00	0	43	0	0	52	4402
2026-01-19 11:09:34.89	294.90	29.28	-40.4	-42.1	19.5	0.00e+00	0	43	0	0	52	4386
2026-01-19 11:09:35.89	295.19	29.19	-40.3	-42.0	19.6	0.00e+00	0	43	0	0	52	4312
2026-01-19 11:09:36.88	295.48	29.10	-40.2	-41.9	19.7	0.00e+00	0	43	0	0	52	4254
2026-01-19 11:09:37.87	295.77	29.01	-40.1	-41.9	19.7	0.00e+00	0	43	0	0	52	4244
2026-01-19 11:09:38.86	296.05	28.92	-40.3	-42.0	19.5	0.00e+00	0	43	0	0	52	4317
2026-01-19 11:09:39.86	296.34	28.83	-40.4	-42.1	19.4	0.00e+00	0	43	0	0	52	4368
2026-01-19 11:09:40.85	296.62	28.74	-40.3	-42.1	19.5	0.00e+00	0	43	0	0	52	4346
2026-01-19 11:09:41.84	296.90	28.65	-40.3	-42.0	19.6	0.00e+00	0	43	0	0	52	4333
2026-01-19 11:09:42.83	297.18	28.56	-40.3	-42.0	19.6	0.00e+00	0	43	0	0	52	4335
2026-01-19 11:09:43.83	297.46	28.46	-40.0	-41.7	19.8	0.00e+00	0	43	0	0	52	4186
2026-01-19 11:09:44.82	297.74	28.37	-40.1	-41.8	19.6	0.00e+00	0	43	0	0	52	4197
2026-01-19 11:09:45.81	298.02	28.28	-40.0	-41.7	19.7	0.00e+00	0	43	0	0	51	4429
2026-01-19 11:09:46.81	298.29	28.19	-40.0	-41.7	19.7	0.00e+00	0	43	0	0	51	4417
2026-01-19 11:09:47.80	298.56	28.09	-39.9	-41.6	19.8	0.00e+00	0	43	0	0	51	4383
2026-01-19 11:09:48.79	298.83	28.00	-39.7	-41.4	20.0	0.00e+00	0	43	0	0	51	4277
2026-01-19 11:09:49.78	299.10	27.91	-39.8	-41.4	20.0	0.00e+00	0	43	0	0	51	4283
2026-01-19 11:09:50.78	299.37	27.81	-39.8	-41.5	20.0	0.00e+00	0	43	0	0	51	4300
2026-01-19 11:09:51.77	299.64	27.72	-39.7	-41.4	20.1	0.00e+00	0	43	0	0	51	4263
2026-01-19 11:09:52.76	299.90	27.62	-39.8	-41.5	20.1	0.00e+00	0	43	0	0	51	4296
2026-01-19 11:09:53.76	300.17	27.53	-39.9	-41.6	20.0	0.00e+00	0	43	0	0	51	4354
2026-01-19 11:09:54.75	300.43	27.43	-39.8	-41.5	20.1	0.00e+00	0	43	0	0	51	4295
2026-01-19 11:09:55.74	300.68	27.33	-39.7	-41.4	20.2	0.00e+00	0	43	0	0	51	4260
2026-01-19 11:09:56.73	300.94	27.24	-39.7	-41.3	20.1	0.00e+00	0	43	0	0	51	4241
2026-01-19 11:09:57.73	301.20	27.14	-39.7	-41.4	20.0	0.00e+00	0	43	0	0	51	4260
2026-01-19 11:09:58.72	301.46	27.04	-39.8	-41.5	19.8	0.00e+00	0	43	0	0	51	4317
2026-01-19 11:09:59.71	301.71	26.95	-40.1	-41.8	19.6	0.00e+00	0	43	0	0	51	4470
2026-01-19 11:10:00.71	301.96	26.85	-40.1	-41.9	19.7	0.00e+00	0	43	0	0	51	4507
2026-01-19 11:10:01.70	302.21	26.75	-40.2	-41.9	19.6	0.00e+00	0	43	0	0	51	4523
2026-01-19 11:10:02.69	302.46	26.65	-39.9	-41.5	20.0	0.00e+00	0	43	0	0	51	4337
2026-01-19 11:10:03.69	302.71	26.56	-39.7	-41.3	20.2	0.00e+00	0	43	0	0	51	4238
2026-01-19 11:10:04.68	302.96	26.46	-39.7	-41.3	20.2	0.00e+00	0	43	0	0	51	4225
2026-01-19 11:10:05.67	303.20	26.36	-39.7	-41.4	20.1	0.00e+00	0	43	0	0	51	4266
2026-01-19 11:10:06.66	303.44	26.26	-39.8	-41.4	20.1	0.00e+00	0	43	0	0	51	4288
2026-01-19 11:10:07.66	303.69	26.16	-39.8	-41.4	20.1	0.00e+00	0	43	0	0	51	4291
2026-01-19 11:10:08.65	303.93	26.06	-39.8	-41.5	20.1	0.00e+00	0	43	0	0	51	4322
2026-01-19 11:10:09.64	304.16	25.97	-39.9	-41.6	20.0	0.00e+00	0	43	0	0	51	4389
2026-01-19 11:10:10.63	304.40	25.87	-40.0	-41.7	19.9	0.00e+00	0	43	0	0	51	4401
2026-01-19 11:10:11.63	304.64	25.77	-40.1	-41.8	19.8	0.00e+00	0	43	0	0	51	4449
2026-01-19 11:10:12.62	304.87	25.67	-40.0	-41.7	19.9	0.00e+00	0	43	0	0	51	4407
2026-01-19 11:10:13.61	305.10	25.57	-40.0	-41.7	20.0	0.00e+00	0	43	0	0	51	4406
2026-01-19 11:10:14.61	305.34	25.47	-40.1	-41.8	19.8	0.00e+00	0	43	0	0	51	4476
2026-01-19 11:10:15.60	305.57	25.37	-39.9	-41.5	20.1	0.00e+00	0	43	0	0	51	4336
2026-01-19 11:10:16.59	305.80	25.27	-39.7	-41.4	20.2	0.00e+00	0	43	0	0	51	4271
2026-01-19 11:10:17.58	306.02	25.17	-39.7	-41.4	20.2	0.00e+00	0	43	0	0	51	4265
2026-01-19 11:10:18.58	306.25	25.07	-39.7	-41.3	20.3	0.00e+00	0	43	0	0	51	4224
2026-01-19 11:10:19.57	306.47	24.97	-39.6	-41.3	20.3	0.00e+00	0	43	0	0	51	4207
2026-01-19 11:10:20.56	306.70	24.87	-39.6	-41.3	20.3	0.00e+00	0	43	0	0	51	4217
2026-01-19 11:10:21.56	306.92	24.77	-39.6	-41.3	20.3	0.00e+00	0	43	0	0	51	4214
2026-01-19 11:10:22.55	307.14	24.67	-39.6	-41.2	20.3	0.00e+00	0	43	0	0	51	4191
2026-01-19 11:10:23.54	307.36	24.57	-39.7	-41.3	20.3	0.00e+00	0	43	0	0	51	4239
2026-01-19 11:10:24.53	307.57	24.47	-39.7	-41.4	20.2	0.00e+00	0	43	0	0	51	4257
2026-01-19 11:10:25.53	307.79	24.37	-39.8	-41.5	20.1	0.00e+00	0	43	0	0	51	4306
2026-01-19 11:10:26.52	308.01	24.27	-39.8	-41.5	20.1	0.00e+00	0	43	0	0	51	4303
2026-01-19 11:10:27.51	308.22	24.17	-39.8	-41.4	20.1	0.00e+00	0	43	0	0	51	4289
2026-01-19 11:10:28.50	308.43	24.07	-39.8	-41.5	20.0	0.00e+00	0	43	0	0	51	4328
2026-01-19 11:10:29.50	308.64	23.97	-39.9	-41.6	20.0	0.00e+00	0	43	0	0	51	4341
2026-01-19 11:10:30.49	308.85	23.87	-39.9	-41.6	19.9	0.00e+00	0	43	0	0	51	4385
2026-01-19 11:10:31.48	309.06	23.77	-40.1	-41.8	19.8	0.00e+00	0	43	0	0	51	4460
2026-01-19 11:10:32.48	309.27	23.66	-40.1	-41.8	19.7	0.00e+00	0	43	0	0	51	4485
2026-01-19 11:10:33.47	309.47	23.56	-40.1	-41.8	19.7	0.00e+00	0	43	0	0	51	4490
2026-01-19 11:10:34.46	309.68	23.46	-40.1	-41.8	19.8	0.00e+00	0	43	0	0	51	4479
2026-01-19 11:10:35.45	309.88	23.36	-40.2	-41.9	19.7	0.00e+00	0	43	0	0	51	4512
2026-01-19 11:10:36.45	310.08	23.26	-40.2	-41.9	19.7	0.00e+00	0	43	0	0	51	4527
2026-01-19 11:10:37.44	310.28	23.16	-40.2	-41.9	19.7	0.00e+00	0	43	0	0	51	4543
2026-01-19 11:10:38.43	310.48	23.06	-40.1	-41.8	19.8	0.00e+00	0	43	0	0	51	4470
2026-01-19 11:10:39.43	310.68	22.96	-40.0	-41.7	19.8	0.00e+00	0	43	0	0	51	4438
2026-01-19 11:10:40.42	310.88	22.86	-39.9	-41.6	19.8	0.00e+00	0	43	0	0	51	4390
2026-01-19 11:10:41.41	311.07	22.76	-40.0	-41.7	19.8	0.00e+00	0	43	0	0	51	4414
2026-01-19 11:10:42.41	311.27	22.66	-40.0	-41.7	19.8	0.00e+00	0	43	0	0	51	4420
2026-01-19 11:10:43.40	311.46	22.56	-40.0	-41.7	19.8	0.00e+00	0	43	0	0	51	4433
2026-01-19 11:10:44.39	311.65	22.46	-40.0	-41.8	19.8	0.00e+00	0	43	0	0	51	4443
2026-01-19 11:10:45.38	311.84	22.36	-39.9	-41.6	19.9	0.00e+00	0	43	0	0	51	4389
2026-01-19 11:10:46.38	312.03	22.26	-39.9	-41.7	19.9	0.00e+00	0	43	0	0	51	4395
2026-01-19 11:10:47.37	312.22	22.16	-40.0	-41.7	19.8	0.00e+00	0	43	0	0	51	4431
2026-01-19 11:10:48.36	312.41	22.06	-39.9	-41.6	19.9	0.00e+00	0	43	0	0	51	4383
2026-01-19 11:10:49.35	312.59	21.96	-40.0	-41.7	19.8	0.00e+00	0	43	0	0	51	4423
2026-01-19 11:10:50.35	312.78	21.86	-40.0	-41.7	19.8	0.00e+00	0	43	0	0	51	4428
2026-01-19 11:10:51.34	312.96	21.77	-39.9	-41.7	19.9	0.00e+00	0	43	0	0	51	4395
2026-01-19 11:10:52.33	313.15	21.67	-39.9	-41.6	20.0	0.00e+00	0	43	0	0	51	4362
2026-01-19 11:10:53.33	313.33	21.57	-40.0	-41.8	19.8	0.00e+00	0	43	0	0	51	4452
2026-01-19 11:10:54.32	313.51	21.47	-40.1	-41.8	19.8	0.00e+00	0	43	0	0	51	4464
2026-01-19 11:10:55.31	313.69	21.37	-40.2	-41.9	19.7	0.00e+00	0	43	0	0	51	4521
2026-01-19 11:10:56.30	313.86	21.27	-40.0	-41.8	19.9	0.00e+00	0	43	0	0	51	4446
2026-01-19 11:10:57.30	314.04	21.17	-40.1	-41.8	19.8	0.00e+00	0	43	0	0	51	4493
2026-01-19 11:10:58.29	314.22	21.07	-40.2	-42.0	19.7	0.00e+00	0	43	0	0	51	4549
2026-01-19 11:10:59.28	314.39	20.98	-40.1	-41.9	19.8	0.00e+00	0	43	0	0	51	4498
2026-01-19 11:11:00.28	314.57	20.88	-40.2	-42.0	19.7	0.00e+00	0	43	0	0	51	4575
2026-01-19 11:11:01.27	314.74	20.78	-40.2	-41.9	19.7	0.00e+00	0	43	0	0	51	4530
2026-01-19 11:11:02.26	314.91	20.68	-40.2	-42.0	19.6	0.00e+00	0	43	0	0	51	4575
2026-01-19 11:11:03.25	315.08	20.58	-40.3	-42.0	19.6	0.00e+00	0	43	0	0	51	4583
2026-01-19 11:11:04.25	315.25	20.48	-40.2	-42.0	19.7	0.00e+00	0	43	0	0	51	4554
2026-01-19 11:11:05.24	315.42	20.39	-40.2	-41.9	19.7	0.00e+00	0	43	0	0	51	4532
2026-01-19 11:11:06.23	315.59	20.29	-40.1	-41.9	19.7	0.00e+00	0	43	0	0	51	4522
2026-01-19 11:11:07.22	315.75	20.19	-40.3	-42.1	19.6	0.00e+00	0	43	0	0	51	4599
2026-01-19 11:11:08.22	315.92	20.10	-40.2	-42.0	19.6	0.00e+00	0	43	0	0	51	4585
2026-01-19 11:11:09.21	316.08	20.00	-40.3	-42.1	19.5	0.00e+00	0	43	0	0	51	4615
2026-01-19 11:11:10.20	316.24	19.90	-40.2	-41.9	19.7	0.00e+00	0	43	0	0	51	4541
2026-01-19 11:11:11.20	316.41	19.80	-40.1	-41.9	19.8	0.00e+00	0	43	0	0	51	4498
2026-01-19 11:11:12.19	316.57	19.71	-40.1	-41.8	19.8	0.00e+00	0	43	0	0	51	4491
2026-01-19 11:11:13.18	316.73	19.61	-40.0	-41.7	19.9	0.00e+00	0	43	0	0	51	4424
2026-01-19 11:11:14.17	316.89	19.52	-39.9	-41.6	19.9	0.00e+00	0	43	0	0	51	4391
2026-01-19 11:11:15.17	317.05	19.42	-39.9	-41.7	19.9	0.00e+00	0	43	0	0	51	4393
2026-01-19 11:11:16.16	317.20	19.32	-39.9	-41.6	19.9	0.00e+00	0	43	0	0	51	4382
2026-01-19 11:11:17.15	317.36	19.23	-39.9	-41.6	19.9	0.00e+00	0	43	0	0	51	4380
2026-01-19 11:11:18.14	317.51	19.13	-39.9	-41.7	19.9	0.00e+00	0	43	0	0	51	4398
2026-01-19 11:11:19.14	317.67	19.04	-39.9	-41.6	19.9	0.00e+00	0	43	0	0	51	4391
2026-01-19 11:11:20.13	317.82	18.94	-40.0	-41.8	19.7	0.00e+00	0	43	0	0	51	4462
2026-01-19 11:11:21.12	317.98	18.85	-40.0	-41.8	19.7	0.00e+00	0	43	0	0	51	4466
2026-01-19 11:11:22.12	318.13	18.75	-40.1	-41.9	19.6	0.00e+00	0	43	0	0	51	4525
2026-01-19 11:11:23.11	318.28	18.66	-40.0	-41.8	19.7	0.00e+00	0	43	0	0	51	4473
2026-01-19 11:11:24.10	318.43	18.56	-39.9	-41.8	19.8	0.00e+00	0	43	0	0	51	4443
2026-01-19 11:11:25.09	318.58	18.47	-40.0	-41.8	19.7	0.00e+00	0	43	0	0	51	4462
2026-01-19 11:11:26.09	318.73	18.37	-40.0	-41.8	19.7	0.00e+00	0	43	0	0	51	4476
2026-01-19 11:11:27.08	318.87	18.28	-40.2	-42.0	19.6	0.00e+00	0	43	0	0	51	4567
2026-01-19 11:11:28.07	319.02	18.19	-40.1	-41.8	19.7	0.00e+00	0	43	0	0	51	4481
2026-01-19 11:11:29.07	319.16	18.09	-40.1	-41.8	19.7	0.00e+00	0	43	0	0	51	4485
2026-01-19 11:11:30.06	319.31	18.00	-40.1	-41.9	19.7	0.00e+00	0	43	0	0	51	4497
2026-01-19 11:11:31.05	319.45	17.91	-40.2	-41.9	19.6	0.00e+00	0	43	0	0	51	4545
2026-01-19 11:11:32.05	319.60	17.81	-40.2	-42.0	19.5	0.00e+00	0	43	0	0	51	4578
2026-01-19 11:11:33.04	319.74	17.72	-40.1	-41.8	19.7	0.00e+00	0	43	0	0	51	4485
2026-01-19 11:11:34.03	319.88	17.63	-40.1	-41.9	19.6	0.00e+00	0	43	0	0	51	4517
2026-01-19 11:11:35.02	320.02	17.54	-40.1	-41.9	19.6	0.00e+00	0	43	0	0	51	4527
2026-01-19 11:11:36.02	320.16	17.44	-40.2	-41.9	19.6	0.00e+00	0	43	0	0	51	4535
2026-01-19 11:11:37.01	320.30	17.35	-40.3	-42.1	19.5	0.00e+00	0	43	0	0	51	4609
2026-01-19 11:11:38.00	320.44	17.26	-40.2	-42.0	19.5	0.00e+00	0	43	0	0	51	4580
2026-01-19 11:11:39.00	320.57	17.17	-40.2	-42.0	19.6	0.00e+00	0	43	0	0	51	4579
2026-01-19 11:11:39.99	320.71	17.08	-40.2	-42.0	19.6	0.00e+00	0	43	0	0	51	4573
2026-01-19 11:11:40.98	320.84	16.98	-40.2	-42.0	19.6	0.00e+00	0	43	0	0	51	4560
2026-01-19 11:11:41.97	320.98	16.89	-40.3	-42.1	19.5	0.00e+00	0	43	0	0	51	4608
2026-01-19 11:11:42.97	321.11	16.80	-40.3	-42.0	19.5	0.00e+00	0	43	0	0	51	4589
2026-01-19 11:11:43.96	321.25	16.71	-40.4	-42.2	19.4	0.00e+00	0	43	0	0	51	4684
2026-01-19 11:11:44.95	321.38	16.62	-40.3	-42.1	19.4	0.00e+00	0	43	0	0	51	4651
2026-01-19 11:11:45.95	321.51	16.53	-40.4	-42.2	19.3	0.00e+00	0	43	0	0	51	4698
2026-01-19 11:11:46.94	321.64	16.44	-40.5	-42.4	19.2	0.00e+00	0	43	0	0	51	4777
2026-01-19 11:11:47.93	321.77	16.35	-40.6	-42.5	19.1	0.00e+00	0	43	0	0	51	4831
2026-01-19 11:11:48.93	321.90	16.26	-40.6	-42.5	19.1	0.00e+00	0	43	0	0	52	4558
2026-01-19 11:11:49.92	322.03	16.17	-40.6	-42.5	19.1	0.00e+00	0	43	0	0	52	4579
2026-01-19 11:11:50.91	322.16	16.08	-40.7	-42.6	19.0	0.00e+00	0	43	0	0	52	4605
2026-01-19 11:11:51.90	322.28	15.99	-40.6	-42.5	19.1	0.00e+00	0	43	0	0	52	4552
2026-01-19 11:11:52.89	322.41	15.90	-40.7	-42.6	19.0	0.00e+00	0	43	0	0	52	4599
2026-01-19 11:11:53.89	322.54	15.81	-40.7	-42.6	19.0	0.00e+00	0	43	0	0	52	4629
2026-01-19 11:11:54.88	322.66	15.73	-40.9	-42.7	18.8	0.00e+00	0	43	0	0	52	4703
2026-01-19 11:11:55.87	322.78	15.64	-40.9	-42.7	18.8	0.00e+00	0	43	0	0	52	4703
2026-01-19 11:11:56.87	322.91	15.55	-41.0	-42.9	18.7	0.00e+00	0	43	0	0	52	4782
2026-01-19 11:11:57.86	323.03	15.46	-41.1	-42.9	18.7	0.00e+00	0	43	0	0	52	4805
2026-01-19 11:11:58.85	323.15	15.37	-41.0	-42.9	18.7	0.00e+00	0	43	0	0	52	4789
2026-01-19 11:11:59.85	323.28	15.28	-41.0	-42.9	18.8	0.00e+00	0	43	0	0	52	4772
2026-01-19 11:12:00.84	323.40	15.20	-41.0	-42.8	18.8	0.00e+00	0	43	0	0	52	4749
2026-01-19 11:12:01.83	323.52	15.11	-41.0	-42.9	18.7	0.00e+00	0	43	0	0	52	4776
2026-01-19 11:12:02.82	323.63	15.02	-41.0	-42.8	18.8	0.00e+00	0	43	0	0	52	4746
2026-01-19 11:12:03.82	323.75	14.94	-41.0	-42.9	18.7	0.00e+00	0	43	0	0	52	4774
2026-01-19 11:12:04.81	323.87	14.85	-41.1	-42.9	18.7	0.00e+00	0	43	0	0	52	4799
2026-01-19 11:12:05.80	323.99	14.76	-41.1	-43.0	18.6	0.00e+00	0	43	0	0	52	4816
2026-01-19 11:12:06.80	324.11	14.68	-41.0	-42.9	18.6	0.00e+00	0	43	0	0	52	4798
2026-01-19 11:12:07.79	324.22	14.59	-41.1	-43.0	18.6	0.00e+00	0	43	0	0	52	4823
2026-01-19 11:12:08.78	324.34	14.51	-41.1	-43.0	18.5	0.00e+00	0	43	0	0	52	4854
2026-01-19 11:12:09.77	324.45	14.42	-41.2	-43.2	18.3	0.00e+00	0	43	0	0	53	4668
2026-01-19 11:12:10.77	324.57	14.33	-41.2	-43.2	18.3	0.00e+00	0	43	0	0	53	4686
2026-01-19 11:12:11.76	324.68	14.25	-41.2	-43.3	18.3	0.00e+00	0	43	0	0	53	4722
2026-01-19 11:12:12.75	324.79	14.16	-41.2	-43.3	18.2	0.00e+00	0	43	0	0	53	4751
2026-01-19 11:12:13.75	324.91	14.08	-41.2	-43.3	18.3	0.00e+00	0	43	0	0	53	4722
2026-01-19 11:12:14.74	325.02	14.00	-41.2	-43.3	18.3	0.00e+00	0	43	0	0	53	4738
2026-01-19 11:12:15.73	325.13	13.91	-41.3	-43.3	18.3	0.00e+00	0	43	0	0	53	4757
2026-01-19 11:12:16.72	325.24	13.83	-41.3	-43.4	18.2	0.00e+00	0	43	0	0	53	4767
2026-01-19 11:12:17.72	325.35	13.74	-41.2	-43.2	18.4	0.00e+00	0	43	0	0	53	4700
2026-01-19 11:12:18.71	325.46	13.66	-41.1	-43.2	18.4	0.00e+00	0	43	0	0	53	4657
2026-01-19 11:12:19.70	325.57	13.58	-41.2	-43.2	18.4	0.00e+00	0	43	0	0	53	4692
2026-01-19 11:12:20.69	325.67	13.49	-41.2	-43.2	18.4	0.00e+00	0	44	0	0	53	4673
2026-01-19 11:12:21.69	325.78	13.41	-41.1	-43.1	18.5	0.00e+00	0	43	0	0	53	4641
2026-01-19 11:12:22.68	325.89	13.33	-41.1	-43.1	18.5	0.00e+00	0	43	0	0	53	4612
2026-01-19 11:12:23.67	326.00	13.24	-41.2	-43.2	18.4	0.00e+00	0	43	0	0	53	4671
2026-01-19 11:12:24.67	326.10	13.16	-41.2	-43.2	18.3	0.00e+00	0	43	0	0	53	4700
2026-01-19 11:12:25.66	326.21	13.08	-41.2	-43.2	18.3	0.00e+00	0	43	0	0	53	4698
2026-01-19 11:12:26.65	326.31	13.00	-41.3	-43.4	18.2	0.00e+00	0	43	0	0	53	4776
2026-01-19 11:12:27.65	326.42	12.91	-41.3	-43.4	18.1	0.00e+00	0	43	0	0	53	4784
2026-01-19 11:12:28.64	326.52	12.83	-41.4	-43.5	18.1	0.00e+00	0	43	0	0	53	4827
2026-01-19 11:12:29.63	326.62	12.75	-41.4	-43.5	18.0	0.00e+00	0	43	0	0	53	4859
2026-01-19 11:12:30.63	326.73	12.67	-41.4	-43.5	18.1	0.00e+00	0	43	0	0	53	4834
2026-01-19 11:12:31.62	326.83	12.59	-41.4	-43.5	18.0	0.00e+00	0	43	0	0	53	4860
2026-01-19 11:12:32.61	326.93	12.51	-41.4	-43.5	18.0	0.00e+00	0	43	0	0	53	4853
2026-01-19 11:12:33.61	327.03	12.42	-41.4	-43.4	18.1	0.00e+00	0	43	0	0	53	4809
2026-01-19 11:12:34.60	327.13	12.34	-41.3	-43.4	18.2	0.00e+00	0	43	0	0	53	4775
2026-01-19 11:12:35.59	327.23	12.26	-41.4	-43.5	18.1	0.00e+00	0	43	0	0	53	4816
2026-01-19 11:12:36.58	327.33	12.18	-41.3	-43.3	18.2	0.00e+00	0	43	0	0	53	4730
2026-01-19 11:12:37.58	327.43	12.10	-41.3	-43.2	18.3	0.00e+00	0	43	0	0	53	4699
2026-01-19 11:12:38.57	327.53	12.02	-41.4	-43.3	18.2	0.00e+00	0	43	0	0	53	4739
2026-01-19 11:12:39.56	327.62	11.94	-41.3	-43.3	18.2	0.00e+00	0	43	0	0	53	4709
2026-01-19 11:12:40.56	327.72	11.86	-41.3	-43.2	18.3	0.00e+00	0	43	0	0	53	4681
2026-01-19 11:12:41.55	327.82	11.78	-41.4	-43.3	18.1	0.00e+00	0	43	0	0	53	4753
2026-01-19 11:12:42.54	327.91	11.71	-41.3	-43.3	18.2	0.00e+00	0	43	0	0	53	4736
2026-01-19 11:12:43.53	328.01	11.63	-41.4	-43.4	18.2	0.00e+00	0	43	0	0	53	4771
2026-01-19 11:12:44.53	328.11	11.55	-41.4	-43.4	18.1	0.00e+00	0	43	0	0	53	4773
2026-01-19 11:12:45.52	328.20	11.47	-41.5	-43.5	18.1	0.00e+00	0	43	0	0	53	4823
2026-01-19 11:12:46.51	328.29	11.39	-41.5	-43.5	18.0	0.00e+00	0	43	0	0	53	4836
2026-01-19 11:12:47.51	328.39	11.31	-41.6	-43.6	18.0	0.00e+00	0	43	0	0	53	4875
2026-01-19 11:12:48.50	328.48	11.23	-41.5	-43.5	18.1	0.00e+00	0	43	0	0	53	4817
2026-01-19 11:12:49.49	328.57	11.16	-41.5	-43.4	18.1	0.00e+00	0	43	0	0	53	4802
2026-01-19 11:12:50.48	328.67	11.08	-41.6	-43.5	18.0	0.00e+00	0	43	0	0	53	4866
2026-01-19 11:12:51.48	328.76	11.00	-41.5	-43.4	18.1	0.00e+00	0	43	0	0	53	4812
2026-01-19 11:12:52.47	328.85	10.92	-41.4	-43.4	18.1	0.00e+00	0	43	0	0	53	4789
2026-01-19 11:12:53.46	328.94	10.85	-41.5	-43.5	18.0	0.00e+00	0	43	0	0	53	4827
2026-01-19 11:12:54.46	329.03	10.77	-41.5	-43.5	18.1	0.00e+00	0	43	0	0	53	4820
2026-01-19 11:12:55.45	329.12	10.69	-41.7	-43.7	17.9	0.00e+00	0	43	0	0	53	4932
2026-01-19 11:12:56.44	329.21	10.62	-41.7	-43.7	17.9	0.00e+00	0	43	0	0	54	4683
2026-01-19 11:12:57.44	329.30	10.54	-41.7	-43.7	17.8	0.00e+00	0	43	0	0	54	4666
2026-01-19 11:12:58.43	329.39	10.46	-41.8	-43.9	17.7	0.00e+00	0	43	0	0	54	4774
2026-01-19 11:12:59.42	329.48	10.39	-41.7	-43.7	17.8	0.00e+00	0	43	0	0	54	4670
2026-01-19 11:13:00.41	329.57	10.31	-41.8	-43.8	17.7	0.00e+00	0	43	0	0	54	4750
2026-01-19 11:13:01.41	329.65	10.24	-41.7	-43.7	17.8	0.00e+00	0	43	0	0	54	4685
2026-01-19 11:13:02.40	329.74	10.16	-41.8	-43.9	17.7	0.00e+00	0	43	0	0	54	4764
2026-01-19 11:13:03.39	329.83	10.09	-41.8	-43.9	17.6	0.00e+00	0	43	0	0	54	4791
2026-01-19 11:13:04.39	329.91	10.01	-42.0	-44.1	17.4	0.00e+00	0	43	0	0	54	4926
2026-01-19 11:13:05.38	330.00	9.93	-41.8	-43.9	17.6	0.00e+00	0	43	0	0	54	4799
2026-01-19 11:13:06.37	330.09	9.86	-41.8	-43.8	17.6	0.00e+00	0	43	0	0	54	4758
2026-01-19 11:13:07.37	330.17	9.79	-41.9	-43.9	17.5	0.00e+00	0	43	0	0	54	4810
2026-01-19 11:13:08.36	330.26	9.71	-41.8	-43.9	17.6	0.00e+00	0	43	0	0	54	4794
2026-01-19 11:13:09.35	330.34	9.64	-41.7	-43.8	17.7	0.00e+00	0	43	0	0	54	4718
2026-01-19 11:13:10.34	330.42	9.56	-41.9	-43.9	17.5	0.00e+00	0	43	0	0	54	4803
2026-01-19 11:13:11.34	330.51	9.49	-41.8	-43.9	17.6	0.00e+00	0	43	0	0	54	4763
2026-01-19 11:13:12.33	330.59	9.41	-41.8	-43.8	17.7	0.00e+00	0	43	0	0	54	4729
2026-01-19 11:13:13.32	330.67	9.34	-41.7	-43.7	17.7	0.00e+00	0	43	0	0	54	4686
2026-01-19 11:13:14.31	330.75	9.27	-41.7	-43.8	17.7	0.00e+00	0	43	0	0	54	4707
2026-01-19 11:13:15.31	330.84	9.19	-41.7	-43.7	17.8	0.00e+00	0	43	0	0	54	4678
2026-01-19 11:13:16.30	330.92	9.12	-41.7	-43.7	17.7	0.00e+00	0	43	0	0	54	4705
2026-01-19 11:13:17.29	331.00	9.05	-41.5	-43.6	17.8	0.00e+00	0	43	0	0	54	4612
2026-01-19 11:13:18.29	331.08	8.98	-49.7	-63.2	3.8	1.06e+00	0	43	104	0	69	18526
2026-01-19 11:13:19.28	331.16	8.90	-49.9	-63.2	3.8	1.49e+00	0	43	104	0	70	17680
2026-01-19 11:13:20.27	331.24	8.83	-49.2	-63.5	3.8	1.49e+00	0	43	104	0	70	18101
2026-01-19 11:13:21.27	331.32	8.76	-49.7	-63.5	3.8	1.49e+00	0	43	104	0	71	17229
2026-01-19 11:13:22.26	331.40	8.69	-50.0	-63.6	3.8	1.49e+00	0	43	104	0	71	17380
2026-01-19 11:13:23.25	331.48	8.61	-50.0	-63.7	3.8	1.49e+00	0	43	104	0	71	17512
2026-01-19 11:13:24.24	331.56	8.54	-50.3	-63.7	3.8	1.49e+00	0	43	104	0	71	17576
2026-01-19 11:13:25.24	331.63	8.47	-49.5	-63.7	3.8	1.49e+00	0	43	104	0	71	17662
2026-01-19 11:13:26.23	331.71	8.40	-50.5	-63.8	3.8	1.49e+00	0	43	104	0	71	17788
2026-01-19 11:13:27.22	331.79	8.33	-50.5	-63.8	3.8	1.49e+00	0	43	104	0	71	17718
2026-01-19 11:13:28.22	331.87	8.26	-50.6	-63.7	3.8	1.49e+00	0	43	104	0	72	16667
2026-01-19 11:13:29.21	331.94	8.19	-50.3	-63.7	3.8	1.49e+00	0	43	104	0	72	16643
2026-01-19 11:13:30.20	332.02	8.12	-50.4	-63.8	3.8	1.49e+00	0	43	104	0	72	16731
2026-01-19 11:13:31.19	332.09	8.04	-50.3	-63.8	3.8	1.49e+00	0	43	104	0	72	16724
2026-01-19 11:13:32.19	332.17	7.97	-50.5	-63.8	3.8	1.49e+00	0	43	104	0	72	16722
2026-01-19 11:13:33.18	332.25	7.90	-50.6	-63.8	3.8	1.49e+00	0	43	104	0	72	16762
2026-01-19 11:13:34.17	332.32	7.83	-50.7	-63.8	3.8	1.49e+00	0	43	104	0	72	16702
2026-01-19 11:13:35.17	332.40	7.76	-50.8	-63.7	3.8	1.49e+00	0	43	104	0	72	16653
2026-01-19 11:13:36.16	332.47	7.69	-50.6	-63.7	3.8	1.49e+00	0	44	104	0	72	16680
2026-01-19 11:13:37.15	332.54	7.62	-50.6	-63.7	3.8	1.49e+00	0	43	104	0	72	16624
2026-01-19 11:13:38.15	332.62	7.55	-50.6	-63.7	3.8	1.49e+00	0	43	104	0	72	16650
2026-01-19 11:13:39.14	332.69	7.48	-50.6	-63.7	3.8	1.49e+00	0	43	104	0	72	16623
2026-01-19 11:13:40.13	332.76	7.42	-50.5	-63.7	3.8	1.49e+00	0	44	104	0	72	16611
2026-01-19 11:13:41.12	332.84	7.35	-50.3	-63.7	3.8	1.49e+00	0	43	104	0	72	16533
2026-01-19 11:13:42.12	332.91	7.28	-50.3	-63.7	3.8	1.49e+00	0	43	104	0	72	16546
2026-01-19 11:13:43.11	332.98	7.21	-50.3	-63.6	3.8	1.49e+00	0	44	104	0	72	16485
2026-01-19 11:13:44.10	333.05	7.14	-50.3	-63.7	3.8	1.49e+00	0	43	104	0	72	16540
2026-01-19 11:13:45.10	333.12	7.07	-50.3	-63.7	3.8	1.49e+00	0	43	104	0	72	16528
2026-01-19 11:13:46.09	333.19	7.00	-50.3	-63.6	3.8	1.49e+00	0	43	104	0	72	16462
2026-01-19 11:13:47.08	333.26	6.93	-50.3	-63.7	3.8	1.49e+00	0	43	104	0	72	16511
2026-01-19 11:13:48.07	333.33	6.87	-50.3	-63.6	3.8	1.49e+00	0	43	104	0	72	16481
2026-01-19 11:13:49.07	333.41	6.80	-50.3	-63.6	3.8	1.49e+00	0	43	104	0	72	16492
2026-01-19 11:13:50.06	333.47	6.73	-50.3	-63.6	3.8	1.49e+00	0	43	104	0	72	16458
2026-01-19 11:13:51.05	333.54	6.66	-50.3	-63.6	3.8	1.49e+00	0	44	104	0	72	16418
2026-01-19 11:13:52.05	333.61	6.60	-50.2	-63.6	3.8	1.49e+00	0	43	104	0	72	16468
2026-01-19 11:13:53.04	333.68	6.53	-50.2	-63.6	3.8	1.49e+00	0	43	104	0	72	16494
2026-01-19 11:13:54.03	333.75	6.46	-50.2	-63.6	3.8	1.49e+00	0	43	104	0	72	16440
2026-01-19 11:13:55.03	333.82	6.39	-50.3	-63.7	3.8	1.49e+00	0	43	104	0	72	16530
2026-01-19 11:13:56.02	333.89	6.33	-50.2	-63.6	3.8	1.49e+00	0	43	104	0	72	16380
2026-01-19 11:13:57.01	333.96	6.26	-50.2	-63.6	3.8	1.49e+00	0	43	104	0	72	16503
2026-01-19 11:13:58.01	334.02	6.19	-50.3	-63.6	3.8	1.49e+00	0	43	104	0	72	16431
2026-01-19 11:13:59.00	334.09	6.13	-50.2	-63.6	3.8	1.49e+00	0	44	104	0	72	16490
2026-01-19 11:13:59.99	334.16	6.06	-50.2	-63.6	3.8	1.49e+00	0	43	104	0	72	16392
2026-01-19 11:14:00.98	334.22	5.99	-50.2	-63.6	3.8	1.49e+00	0	43	104	0	72	16427
2026-01-19 11:14:01.98	334.29	5.93	-50.2	-63.6	3.8	1.49e+00	0	43	104	0	72	16457
2026-01-19 11:14:02.97	334.36	5.86	-50.2	-63.6	3.8	1.49e+00	0	43	104	0	72	16476
2026-01-19 11:14:03.96	334.42	5.80	-50.2	-63.6	3.8	1.49e+00	0	43	104	0	72	16419
2026-01-19 11:14:04.95	334.49	5.73	-50.2	-63.6	3.8	1.49e+00	0	43	104	0	72	16362
2026-01-19 11:14:05.95	334.55	5.67	-50.2	-63.6	3.8	1.49e+00	0	43	104	0	72	16462
2026-01-19 11:14:06.94	334.62	5.60	-50.2	-63.6	3.8	1.49e+00	0	43	104	0	72	16415
2026-01-19 11:14:07.93	334.68	5.53	-50.2	-63.6	3.8	1.49e+00	0	43	104	0	72	16422
2026-01-19 11:14:08.93	334.75	5.47	-50.2	-63.6	3.8	1.49e+00	0	43	104	0	72	16418
2026-01-19 11:14:09.92	334.81	5.40	-50.2	-63.6	3.8	1.49e+00	0	44	104	0	72	16460
2026-01-19 11:14:10.91	334.87	5.34	-50.2	-63.6	3.8	1.49e+00	0	43	104	0	72	16354
2026-01-19 11:14:11.91	334.94	5.27	-50.2	-63.6	3.8	1.49e+00	0	43	104	0	72	16459
2026-01-19 11:14:12.90	335.00	5.21	-50.2	-63.6	3.8	1.49e+00	0	43	104	0	72	16436
2026-01-19 11:14:13.89	335.06	5.15	-50.2	-63.6	3.8	1.49e+00	0	44	104	0	72	16424
2026-01-19 11:14:14.88	335.13	5.08	-50.2	-63.6	3.8	1.49e+00	0	43	104	0	72	16341
2026-01-19 11:14:15.88	335.19	5.02	-50.2	-63.6	3.8	1.49e+00	0	44	104	0	72	16410
2026-01-19 11:14:16.87	335.25	4.95	-50.2	-63.6	3.8	1.49e+00	0	43	104	0	72	16415

#Closed at: 2026-01-19 11:14:17
#Recorded file [0 MB]: D:/Data/31040_260119_140208.dat