passes_logs/2026/01/19/T1/T1__20260119_081235_SUOMI_NPP_rec.log

#Pass ID: 20260119_081235_SUOMI NPP
#Satellite: SUOMI NPP
#Configuration: NPP
#almurnet v.1.7.20251203
#Start time: 2026-01-19 08:12:37

#Version: 2.0.20230620
#Station: T1
#Location: 37.570604 lon 55.790049 lat
#TLE: 1 37849U 11061A   26018.91022273  .00000066  00000+0  52264-4 0  9997
#TLE: 2 37849  98.7816 320.9252 0002364  56.8129 303.3273 14.19526186737260

#Time	Az	El	Level	Level2	SNR	BER	BlckErr	Temp	State	Recorded	gain1	gain2
2026-01-19 08:12:37.81	102.90	5.13	-49.7	-64.9	3.8	1.49e+00	0	39	0	0	71	20113
2026-01-19 08:12:38.80	102.81	5.18	-49.7	-64.9	3.8	1.49e+00	0	39	104	0	71	20174
2026-01-19 08:12:39.79	102.72	5.24	-49.7	-64.9	3.8	1.49e+00	0	39	104	0	71	20097
2026-01-19 08:12:40.79	102.63	5.30	-49.7	-64.9	3.8	1.49e+00	0	39	104	0	71	20090
2026-01-19 08:12:41.78	102.54	5.36	-49.7	-64.9	3.8	1.49e+00	0	39	104	0	71	20155
2026-01-19 08:12:42.77	102.45	5.42	-49.7	-64.9	3.8	1.49e+00	0	39	104	0	71	20181
2026-01-19 08:12:43.77	102.36	5.48	-49.7	-64.9	3.8	1.49e+00	0	40	104	0	71	20116
2026-01-19 08:12:44.76	102.27	5.53	-49.7	-64.9	3.8	1.49e+00	0	40	104	0	71	20176
2026-01-19 08:12:45.75	102.17	5.59	-49.7	-64.9	3.8	1.49e+00	0	39	104	0	71	20216
2026-01-19 08:12:46.75	102.08	5.65	-49.7	-64.9	3.8	1.49e+00	0	40	104	0	71	20150
2026-01-19 08:12:47.74	101.99	5.71	-49.7	-64.9	3.8	1.49e+00	0	40	104	0	71	20155
2026-01-19 08:12:48.73	101.90	5.77	-49.7	-64.9	3.8	1.49e+00	0	40	104	0	71	20236
2026-01-19 08:12:49.73	101.80	5.83	-49.7	-64.9	3.8	1.49e+00	0	40	104	0	71	20187
2026-01-19 08:12:50.72	101.71	5.88	-49.7	-64.9	3.8	1.49e+00	0	40	104	0	71	20179
2026-01-19 08:12:51.71	101.61	5.94	-49.7	-64.9	3.8	1.49e+00	0	40	104	0	71	20185
2026-01-19 08:12:52.71	101.52	6.00	-49.7	-64.9	3.8	1.49e+00	0	40	104	0	71	20105
2026-01-19 08:12:53.70	101.43	6.06	-49.7	-64.9	3.8	1.49e+00	0	40	104	0	71	20161
2026-01-19 08:12:54.70	101.33	6.12	-49.7	-64.9	3.8	1.49e+00	0	40	104	0	71	20105
2026-01-19 08:12:55.69	101.23	6.18	-49.7	-64.8	3.8	1.49e+00	0	40	104	0	71	20061
2026-01-19 08:12:56.68	101.14	6.24	-49.7	-64.8	3.8	1.49e+00	0	40	104	0	71	19901
2026-01-19 08:12:57.68	101.04	6.30	-49.7	-64.8	3.8	1.49e+00	0	40	104	0	71	19912
2026-01-19 08:12:58.67	100.94	6.36	-49.7	-64.7	3.8	1.49e+00	0	40	104	0	71	19788
2026-01-19 08:12:59.66	100.85	6.42	-49.7	-64.7	3.8	1.49e+00	0	40	104	0	71	19711
2026-01-19 08:13:00.66	100.75	6.47	-49.7	-64.7	3.8	1.49e+00	0	40	104	0	71	19662
2026-01-19 08:13:01.65	100.65	6.53	-49.7	-64.7	3.8	1.49e+00	0	40	104	0	71	19739
2026-01-19 08:13:02.64	100.55	6.59	-49.7	-64.7	3.8	1.49e+00	0	40	104	0	71	19685
2026-01-19 08:13:03.64	100.45	6.65	-49.7	-64.7	3.8	1.49e+00	0	40	104	0	71	19810
2026-01-19 08:13:04.63	100.36	6.71	-49.7	-64.7	3.8	1.49e+00	0	40	104	0	71	19818
2026-01-19 08:13:05.62	100.26	6.77	-49.7	-64.7	3.8	1.49e+00	0	40	104	0	71	19776
2026-01-19 08:13:06.62	100.15	6.83	-49.7	-64.7	3.8	1.49e+00	0	40	104	0	71	19708
2026-01-19 08:13:07.61	100.05	6.89	-49.7	-64.7	3.8	1.49e+00	0	40	104	0	71	19623
2026-01-19 08:13:08.60	99.95	6.95	-49.7	-64.6	3.8	1.49e+00	0	40	104	0	71	19440
2026-01-19 08:13:09.60	99.85	7.01	-49.7	-64.4	3.8	1.49e+00	0	40	104	0	71	19159
2026-01-19 08:13:10.59	99.75	7.07	-49.7	-64.4	3.8	1.49e+00	0	40	104	0	71	19042
2026-01-19 08:13:11.58	99.65	7.13	-49.7	-64.3	3.8	1.49e+00	0	40	104	0	71	18904
2026-01-19 08:13:12.58	99.55	7.19	-49.7	-64.3	3.8	1.49e+00	0	40	104	0	71	18766
2026-01-19 08:13:13.57	99.44	7.25	-49.7	-64.1	3.8	1.49e+00	0	40	104	0	71	18492
2026-01-19 08:13:14.56	99.34	7.31	-49.7	-64.2	3.8	1.49e+00	0	40	104	0	71	18709
2026-01-19 08:13:15.56	99.23	7.37	-49.7	-64.4	3.8	1.49e+00	0	40	104	0	71	18975
2026-01-19 08:13:16.55	99.13	7.43	-49.7	-64.5	3.8	1.49e+00	0	40	104	0	71	19198
2026-01-19 08:13:17.55	99.02	7.49	-49.7	-64.6	3.8	1.49e+00	0	40	104	0	71	19395
2026-01-19 08:13:18.54	98.92	7.55	-49.7	-64.6	3.8	1.49e+00	0	40	104	0	71	19583
2026-01-19 08:13:19.53	98.81	7.61	-49.7	-64.6	3.8	1.49e+00	0	41	104	0	71	19441
2026-01-19 08:13:20.53	98.71	7.67	-49.7	-64.5	3.8	1.49e+00	0	40	104	0	71	19226
2026-01-19 08:13:21.52	98.60	7.73	-49.7	-64.2	3.8	1.49e+00	0	40	104	0	71	18636
2026-01-19 08:13:22.51	98.49	7.79	-49.6	-63.9	3.8	1.49e+00	0	40	104	0	71	17950
2026-01-19 08:13:23.51	98.39	7.85	-49.6	-63.5	3.8	1.49e+00	0	40	104	0	71	17270
2026-01-19 08:13:24.50	98.28	7.91	-49.6	-63.7	3.8	1.49e+00	0	40	104	0	71	17652
2026-01-19 08:13:25.49	98.17	7.97	-49.7	-64.3	3.8	1.49e+00	0	41	104	0	71	18737
2026-01-19 08:13:26.49	98.06	8.04	-49.7	-64.6	3.8	1.49e+00	0	40	104	0	71	19553
2026-01-19 08:13:27.48	97.95	8.10	-49.6	-64.1	3.8	1.49e+00	0	40	104	0	71	18387
2026-01-19 08:13:28.48	97.84	8.16	-49.5	-61.6	4.1	1.49e+00	0	40	104	0	71	13781
2026-01-19 08:13:29.47	97.73	8.22	-49.0	-57.9	5.9	5.95e-01	0	41	0	1048576	70	9521
2026-01-19 08:13:30.46	97.62	8.28	-48.4	-55.2	8.2	1.02e-01	0	41	0	3145728	68	7820
2026-01-19 08:13:31.46	97.51	8.34	-47.3	-52.4	11.0	1.37e-02	0	41	0	4194304	66	6406
2026-01-19 08:13:32.45	97.40	8.40	-46.6	-50.9	12.6	7.33e-04	0	41	0	6291456	65	5678
2026-01-19 08:13:33.46	97.28	8.46	-46.1	-50.1	13.3	5.18e-05	0	41	0	8388608	64	5512
2026-01-19 08:13:34.48	97.17	8.53	-46.1	-50.0	13.5	8.30e-06	0	40	0	10485760	63	5774
2026-01-19 08:13:35.51	97.05	8.59	-45.7	-49.4	14.1	3.00e-06	0	41	0	12582912	63	5369
2026-01-19 08:13:36.53	96.93	8.65	-45.9	-49.6	14.0	3.00e-06	0	41	0	13631488	63	5512
2026-01-19 08:13:37.56	96.81	8.71	-46.0	-49.8	13.7	2.20e-06	0	41	0	15728640	63	5656
2026-01-19 08:13:38.55	96.70	8.78	-46.6	-51.0	12.6	2.36e-05	0	41	0	17825792	63	6448
2026-01-19 08:13:39.55	96.58	8.84	-47.4	-52.7	10.8	1.18e-03	0	41	0	19922944	65	6984
2026-01-19 08:13:40.54	96.47	8.90	-48.1	-54.6	8.8	1.10e-02	0	41	0	22020096	66	8189
2026-01-19 08:13:41.53	96.35	8.96	-48.9	-57.3	6.4	1.09e-01	0	41	0	23068672	68	9976
2026-01-19 08:13:42.53	96.24	9.02	-49.3	-59.9	4.7	6.97e-01	0	41	0	25165824	69	12750
2026-01-19 08:13:43.52	96.12	9.08	-48.7	-56.6	6.6	1.30e+00	0	41	0	26214400	69	8704
2026-01-19 08:13:44.52	96.00	9.14	-48.1	-54.8	8.9	1.94e-03	0	41	0	28311552	66	8423
2026-01-19 08:13:45.51	95.88	9.21	-49.4	-61.0	4.3	5.75e-01	0	41	0	30408704	69	14494
2026-01-19 08:13:46.51	95.76	9.27	-49.2	-60.1	4.0	1.49e+00	0	41	104	30408704	69	13100
2026-01-19 08:13:47.50	95.64	9.33	-49.0	-58.4	5.9	1.00e-02	0	41	0	31457280	68	11338
2026-01-19 08:13:48.49	95.53	9.39	-49.3	-62.0	3.9	1.49e+00	0	41	104	31457280	69	16303
2026-01-19 08:13:49.49	95.40	9.45	-47.5	-53.2	10.3	3.13e-01	0	41	0	31457280	67	6586
2026-01-19 08:13:50.48	95.28	9.51	-46.7	-51.4	12.1	1.03e-03	0	41	0	33554432	65	6022
2026-01-19 08:13:51.48	95.16	9.58	-45.9	-49.6	14.0	1.83e-05	0	41	0	35651584	63	5497
2026-01-19 08:13:52.47	95.04	9.64	-46.1	-50.0	13.8	1.50e-06	0	41	0	37748736	63	5724
2026-01-19 08:13:53.46	94.92	9.70	-46.0	-49.9	13.8	3.80e-06	0	41	0	39845888	63	5691
2026-01-19 08:13:54.46	94.79	9.76	-46.5	-50.8	13.0	1.60e-05	0	41	0	40894464	63	6292
2026-01-19 08:13:55.46	94.67	9.82	-46.4	-50.5	13.2	5.56e-05	0	41	0	42991616	63	6109
2026-01-19 08:13:56.45	94.55	9.88	-46.2	-50.2	13.6	1.98e-05	0	41	0	45088768	63	5873
2026-01-19 08:13:57.45	94.42	9.95	-46.2	-50.1	13.7	1.14e-05	0	41	0	47185920	63	5816
2026-01-19 08:13:58.45	94.30	10.01	-46.0	-49.8	13.9	3.80e-06	0	41	0	48234496	63	5626
2026-01-19 08:13:59.44	94.17	10.07	-46.0	-49.8	13.9	1.50e-06	0	41	0	50331648	63	5647
2026-01-19 08:14:00.44	94.04	10.13	-46.0	-49.8	14.0	4.50e-06	0	41	0	52428800	63	5640
2026-01-19 08:14:01.44	93.92	10.20	-45.9	-49.7	14.1	2.20e-06	0	41	0	54525952	63	5533
2026-01-19 08:14:02.43	93.79	10.26	-45.6	-49.1	14.6	7.00e-07	0	41	0	56623104	63	5190
2026-01-19 08:14:03.43	93.66	10.32	-45.4	-48.8	15.0	7.00e-07	0	41	0	57671680	62	5326
2026-01-19 08:14:04.42	93.53	10.38	-45.4	-48.8	14.9	7.00e-07	0	41	0	59768832	62	5303
2026-01-19 08:14:05.42	93.40	10.44	-45.3	-48.7	15.1	0.00e+00	0	41	0	61865984	62	5231
2026-01-19 08:14:06.41	93.27	10.51	-45.4	-48.8	14.9	0.00e+00	0	41	0	63963136	62	5336
2026-01-19 08:14:07.41	93.14	10.57	-45.4	-48.8	15.0	0.00e+00	0	41	0	65011712	62	5303
2026-01-19 08:14:08.40	93.01	10.63	-45.1	-48.3	15.5	0.00e+00	0	41	0	67108864	62	4989
2026-01-19 08:14:09.43	92.88	10.69	-44.9	-48.0	15.7	0.00e+00	0	41	0	69206016	61	5127
2026-01-19 08:14:10.46	92.74	10.76	-44.8	-47.9	15.8	0.00e+00	0	41	0	71303168	61	5067
2026-01-19 08:14:11.45	92.61	10.82	-44.9	-48.0	15.7	0.00e+00	0	41	0	73400320	61	5146
2026-01-19 08:14:12.44	92.48	10.88	-45.0	-48.3	15.5	0.00e+00	0	41	0	74448896	61	5297
2026-01-19 08:14:13.43	92.34	10.94	-45.2	-48.5	15.2	0.00e+00	0	41	0	76546048	61	5446
2026-01-19 08:14:14.43	92.21	11.01	-44.9	-48.1	15.7	0.00e+00	0	41	0	78643200	61	5187
2026-01-19 08:14:15.42	92.07	11.07	-44.8	-48.0	15.7	0.00e+00	0	41	0	80740352	61	5113
2026-01-19 08:14:16.42	91.94	11.13	-44.8	-47.9	15.9	0.00e+00	0	41	0	82837504	61	5080
2026-01-19 08:14:17.42	91.80	11.19	-44.8	-47.9	15.9	0.00e+00	0	41	0	83886080	61	5060
2026-01-19 08:14:18.41	91.67	11.26	-45.1	-48.4	15.4	0.00e+00	0	41	0	85983232	61	5347
2026-01-19 08:14:19.41	91.53	11.32	-45.1	-48.3	15.5	0.00e+00	0	41	0	88080384	61	5299
2026-01-19 08:14:20.40	91.39	11.38	-45.1	-48.2	15.6	0.00e+00	0	41	0	90177536	61	5269
2026-01-19 08:14:21.40	91.25	11.44	-45.1	-48.2	15.6	0.00e+00	0	41	0	92274688	61	5261
2026-01-19 08:14:22.39	91.11	11.50	-45.0	-48.1	15.7	0.00e+00	0	41	0	93323264	61	5164
2026-01-19 08:14:23.39	90.97	11.57	-44.9	-47.9	15.9	0.00e+00	0	41	0	95420416	61	5077
2026-01-19 08:14:24.38	90.83	11.63	-44.7	-47.7	16.1	0.00e+00	0	41	0	97517568	61	4937
2026-01-19 08:14:25.37	90.69	11.69	-44.8	-47.9	15.9	0.00e+00	0	41	0	99614720	61	5064
2026-01-19 08:14:26.37	90.55	11.75	-45.0	-48.2	15.6	0.00e+00	0	41	0	100663296	61	5222
2026-01-19 08:14:27.43	90.40	11.82	-45.0	-48.2	15.6	0.00e+00	0	41	0	102760448	61	5246
2026-01-19 08:14:28.34	90.27	11.88	-44.8	-47.9	15.9	0.00e+00	0	41	0	104857600	61	5062
2026-01-19 08:14:29.48	90.11	11.95	-44.4	-47.3	16.5	0.00e+00	0	41	0	106954752	60	4995
2026-01-19 08:14:30.33	89.98	12.00	-44.3	-47.2	16.6	0.00e+00	0	41	0	109051904	60	4929
2026-01-19 08:14:31.69	89.79	12.08	-44.4	-47.4	16.4	0.00e+00	0	41	0	111149056	60	5055
2026-01-19 08:14:32.40	89.68	12.13	-44.6	-47.6	16.2	0.00e+00	0	41	0	112197632	60	5184
2026-01-19 08:14:33.68	89.50	12.21	-44.9	-48.1	15.7	0.00e+00	0	41	0	114294784	60	5522
2026-01-19 08:14:34.40	89.39	12.25	-45.2	-48.5	15.3	0.00e+00	0	41	0	116391936	61	5411
2026-01-19 08:14:35.69	89.20	12.33	-44.7	-47.7	16.1	0.00e+00	0	41	0	118489088	61	4949
2026-01-19 08:14:36.40	89.09	12.38	-44.6	-47.6	16.2	0.00e+00	0	41	0	119537664	61	4872
2026-01-19 08:14:37.67	88.90	12.46	-44.7	-47.8	16.0	0.00e+00	0	41	0	122683392	61	4996
2026-01-19 08:14:38.50	88.78	12.51	-44.7	-47.7	16.1	0.00e+00	0	41	0	123731968	61	4974
2026-01-19 08:14:39.64	88.61	12.58	-45.2	-48.5	15.3	0.00e+00	0	41	0	125829120	61	5459
2026-01-19 08:14:40.49	88.48	12.63	-45.3	-48.6	15.3	0.00e+00	0	41	0	127926272	61	5505
2026-01-19 08:14:41.63	88.31	12.70	-45.3	-48.6	15.2	0.00e+00	0	41	0	130023424	61	5522
2026-01-19 08:14:42.48	88.18	12.76	-45.0	-48.2	15.6	0.00e+00	0	41	0	131072000	61	5269
2026-01-19 08:14:43.62	88.00	12.83	-44.8	-47.9	15.9	0.00e+00	0	41	0	133169152	61	5093
2026-01-19 08:14:44.82	87.82	12.90	-44.9	-48.0	15.8	0.00e+00	0	41	0	135266304	61	5142
2026-01-19 08:14:45.84	87.66	12.96	-45.0	-48.2	15.7	0.00e+00	0	41	0	137363456	61	5238
2026-01-19 08:14:46.84	87.51	13.03	-45.2	-48.6	15.3	0.00e+00	0	41	0	139460608	61	5494
2026-01-19 08:14:47.83	87.35	13.09	-45.4	-48.8	15.0	0.00e+00	0	41	0	141557760	61	5655
2026-01-19 08:14:48.83	87.20	13.15	-45.3	-48.7	15.2	0.00e+00	0	41	0	143654912	61	5565
2026-01-19 08:14:49.82	87.04	13.21	-44.9	-48.1	15.7	0.00e+00	0	41	0	144703488	61	5190
2026-01-19 08:14:50.81	86.89	13.27	-44.7	-47.8	16.1	0.00e+00	0	41	0	146800640	61	5025
2026-01-19 08:14:51.81	86.73	13.33	-44.5	-47.6	16.3	0.00e+00	0	42	0	148897792	61	4875
2026-01-19 08:14:52.80	86.57	13.39	-44.8	-47.9	15.9	0.00e+00	0	41	0	150994944	61	5100
2026-01-19 08:14:53.80	86.41	13.46	-45.1	-48.4	15.5	0.00e+00	0	41	0	152043520	61	5381
2026-01-19 08:14:54.80	86.25	13.52	-45.1	-48.4	15.5	0.00e+00	0	41	0	154140672	61	5380
2026-01-19 08:14:55.79	86.09	13.58	-44.9	-48.1	15.8	0.00e+00	0	41	0	156237824	61	5181
2026-01-19 08:14:56.80	85.93	13.64	-44.6	-47.7	16.1	0.00e+00	0	41	0	158334976	61	4956
2026-01-19 08:14:57.83	85.76	13.70	-44.6	-47.6	16.2	0.00e+00	0	41	0	160432128	60	5179
2026-01-19 08:14:58.86	85.59	13.76	-44.8	-47.9	16.0	0.00e+00	0	41	0	161480704	60	5390
2026-01-19 08:14:59.88	85.42	13.83	-45.1	-48.4	15.5	0.00e+00	0	41	0	163577856	60	5708
2026-01-19 08:15:00.88	85.26	13.89	-45.1	-48.5	15.4	0.00e+00	0	41	0	165675008	61	5407
2026-01-19 08:15:01.88	85.10	13.95	-44.9	-48.1	15.8	0.00e+00	0	41	0	167772160	61	5189
2026-01-19 08:15:02.95	84.92	14.01	-44.7	-47.8	16.1	0.00e+00	0	41	0	169869312	61	5010
2026-01-19 08:15:03.85	84.77	14.07	-44.6	-47.7	16.2	0.00e+00	0	41	0	170917888	60	5264
2026-01-19 08:15:05.09	84.56	14.14	-44.7	-47.9	16.0	0.00e+00	0	41	0	174063616	60	5387
2026-01-19 08:15:05.95	84.42	14.20	-44.8	-48.0	15.9	7.00e-07	0	41	0	175112192	60	5456
2026-01-19 08:15:07.08	84.23	14.26	-44.5	-47.6	16.3	0.00e+00	0	41	0	177209344	60	5184
2026-01-19 08:15:07.94	84.08	14.32	-44.3	-47.3	16.6	0.00e+00	0	41	0	179306496	60	5014
2026-01-19 08:15:09.07	83.89	14.38	-43.9	-46.7	17.1	0.00e+00	0	41	0	181403648	59	4980
2026-01-19 08:15:09.93	83.74	14.44	-43.8	-46.5	17.2	0.00e+00	0	41	0	182452224	59	4868
2026-01-19 08:15:11.06	83.55	14.50	-44.0	-46.8	17.1	0.00e+00	0	41	0	184549376	59	4991
2026-01-19 08:15:11.92	83.40	14.55	-44.2	-47.0	16.8	0.00e+00	0	41	0	186646528	59	5138
2026-01-19 08:15:13.06	83.20	14.62	-43.9	-46.6	17.2	0.00e+00	0	41	0	188743680	59	4919
2026-01-19 08:15:14.00	83.04	14.68	-43.8	-46.4	17.4	0.00e+00	0	41	0	190840832	59	4805
2026-01-19 08:15:15.00	82.87	14.74	-43.7	-46.4	17.4	0.00e+00	0	41	0	191889408	59	4764
2026-01-19 08:15:15.99	82.69	14.80	-43.5	-46.1	17.6	0.00e+00	0	41	0	193986560	59	4634
2026-01-19 08:15:16.99	82.52	14.86	-43.6	-46.2	17.6	0.00e+00	0	41	0	196083712	58	4943
2026-01-19 08:15:17.98	82.34	14.91	-43.6	-46.2	17.6	0.00e+00	0	41	0	198180864	58	4961
2026-01-19 08:15:18.98	82.16	14.97	-43.6	-46.3	17.5	0.00e+00	0	41	0	199229440	58	5005
2026-01-19 08:15:19.97	81.99	15.03	-43.5	-46.2	17.6	0.00e+00	0	41	0	201326592	58	4939
2026-01-19 08:15:20.97	81.81	15.09	-43.4	-46.0	17.7	0.00e+00	0	41	0	203423744	58	4866
2026-01-19 08:15:21.96	81.63	15.15	-43.3	-45.9	17.9	0.00e+00	0	41	0	205520896	58	4810
2026-01-19 08:15:22.96	81.45	15.21	-43.1	-45.7	18.1	0.00e+00	0	41	0	207618048	58	4656
2026-01-19 08:15:23.95	81.27	15.27	-43.2	-45.8	18.0	0.00e+00	0	41	0	208666624	58	4730
2026-01-19 08:15:24.96	81.09	15.32	-43.1	-45.6	18.2	0.00e+00	0	41	0	210763776	58	4610
2026-01-19 08:15:25.99	80.90	15.38	-43.1	-45.6	18.1	0.00e+00	0	41	0	212860928	58	4619
2026-01-19 08:15:26.98	80.72	15.44	-43.2	-45.7	18.1	0.00e+00	0	41	0	214958080	58	4660
2026-01-19 08:15:27.98	80.54	15.50	-43.3	-45.8	18.0	0.00e+00	0	41	0	217055232	58	4729
2026-01-19 08:15:28.97	80.36	15.56	-43.1	-45.6	18.2	0.00e+00	0	41	0	218103808	58	4617
2026-01-19 08:15:29.97	80.17	15.61	-43.2	-45.6	18.1	0.00e+00	0	41	0	220200960	58	4631
2026-01-19 08:15:30.96	79.99	15.67	-43.1	-45.5	18.2	0.00e+00	0	41	0	222298112	58	4586
2026-01-19 08:15:31.95	79.80	15.73	-43.4	-45.9	17.9	0.00e+00	0	41	0	224395264	58	4780
2026-01-19 08:15:32.95	79.62	15.78	-43.6	-46.3	17.5	0.00e+00	0	41	0	225443840	58	4993
2026-01-19 08:15:33.94	79.43	15.84	-43.9	-46.6	17.2	0.00e+00	0	41	0	227540992	58	5175
2026-01-19 08:15:34.94	79.24	15.90	-43.7	-46.3	17.5	0.00e+00	0	41	0	229638144	58	5033
2026-01-19 08:15:35.93	79.06	15.95	-43.5	-46.1	17.7	0.00e+00	0	41	0	231735296	58	4892
2026-01-19 08:15:36.93	78.87	16.01	-43.3	-45.8	18.0	0.00e+00	0	41	0	233832448	58	4753
2026-01-19 08:15:37.93	78.68	16.06	-43.3	-45.9	17.9	0.00e+00	0	41	0	234881024	58	4786
2026-01-19 08:15:38.92	78.49	16.12	-43.6	-46.2	17.7	0.00e+00	0	41	0	236978176	58	4949
2026-01-19 08:15:39.91	78.30	16.17	-43.6	-46.3	17.6	0.00e+00	0	41	0	239075328	58	4997
2026-01-19 08:15:40.96	78.09	16.23	-43.3	-45.9	17.9	0.00e+00	0	41	0	241172480	58	4762
2026-01-19 08:15:41.93	77.91	16.29	-43.1	-45.5	18.2	0.00e+00	0	41	0	243269632	58	4598
2026-01-19 08:15:42.93	77.71	16.34	-42.9	-45.3	18.4	0.00e+00	0	41	0	244318208	57	4743
2026-01-19 08:15:43.93	77.52	16.40	-42.8	-45.1	18.6	0.00e+00	0	41	0	246415360	57	4625
2026-01-19 08:15:44.92	77.32	16.45	-43.0	-45.4	18.3	0.00e+00	0	41	0	248512512	57	4802
2026-01-19 08:15:45.92	77.13	16.50	-43.1	-45.5	18.2	0.00e+00	0	41	0	250609664	57	4869
2026-01-19 08:15:46.91	76.93	16.56	-43.0	-45.5	18.3	0.00e+00	0	41	0	251658240	57	4824
2026-01-19 08:15:47.91	76.74	16.61	-43.1	-45.6	18.2	0.00e+00	0	41	0	253755392	57	4877
2026-01-19 08:15:48.91	76.54	16.66	-43.2	-45.8	18.0	0.00e+00	0	41	0	255852544	57	4994
2026-01-19 08:15:49.90	76.34	16.72	-43.3	-45.8	17.9	0.00e+00	0	41	0	257949696	57	5026
2026-01-19 08:15:50.90	76.14	16.77	-43.4	-46.0	17.8	0.00e+00	0	41	0	260046848	57	5105
2026-01-19 08:15:51.89	75.94	16.82	-43.4	-45.9	17.9	0.00e+00	0	41	0	261095424	57	5089
2026-01-19 08:15:52.89	75.74	16.88	-43.2	-45.7	18.1	0.00e+00	0	41	0	263192576	57	4962
2026-01-19 08:15:53.88	75.54	16.93	-43.0	-45.5	18.3	0.00e+00	0	41	0	265289728	57	4828
2026-01-19 08:15:54.88	75.34	16.98	-42.8	-45.4	18.1	0.00e+00	0	41	0	267386880	57	4806
2026-01-19 08:15:55.93	75.12	17.03	-42.8	-45.4	18.2	0.00e+00	0	41	0	269484032	57	4805
2026-01-19 08:15:56.85	74.94	17.08	-42.9	-45.5	18.2	0.00e+00	0	41	0	270532608	57	4845
2026-01-19 08:15:58.00	74.70	17.14	-42.7	-45.3	18.3	0.00e+00	0	41	0	272629760	57	4726
2026-01-19 08:15:58.85	74.53	17.18	-42.6	-45.1	18.5	0.00e+00	0	41	0	274726912	57	4624
2026-01-19 08:15:59.99	74.29	17.24	-42.5	-45.0	18.6	0.00e+00	0	41	0	276824064	57	4577
2026-01-19 08:16:00.84	74.12	17.29	-42.4	-44.9	18.7	0.00e+00	0	41	0	277872640	56	4764
2026-01-19 08:16:01.98	73.88	17.34	-42.3	-44.7	18.9	0.00e+00	0	41	0	279969792	56	4662
2026-01-19 08:16:02.83	73.70	17.39	-42.1	-44.5	19.0	0.00e+00	0	41	0	282066944	56	4567
2026-01-19 08:16:03.97	73.46	17.44	-41.8	-44.2	19.2	0.00e+00	0	41	0	284164096	55	4662
2026-01-19 08:16:04.82	73.29	17.48	-41.8	-44.1	19.3	0.00e+00	0	41	0	285212672	55	4617
2026-01-19 08:16:05.96	73.05	17.54	-41.9	-44.2	19.1	0.00e+00	0	41	0	287309824	55	4672
2026-01-19 08:16:06.81	72.87	17.58	-41.9	-44.2	19.2	0.00e+00	0	41	0	289406976	55	4686
2026-01-19 08:16:07.98	72.62	17.64	-42.0	-44.3	19.1	0.00e+00	0	41	0	291504128	55	4741
2026-01-19 08:16:08.83	72.44	17.68	-42.0	-44.3	19.1	0.00e+00	0	41	0	293601280	55	4742
2026-01-19 08:16:10.02	72.18	17.74	-42.0	-44.4	19.0	0.00e+00	0	41	0	295698432	55	4778
2026-01-19 08:16:10.87	72.00	17.78	-42.2	-44.6	18.8	0.00e+00	0	41	0	296747008	55	4907
2026-01-19 08:16:12.00	71.76	17.83	-42.4	-44.8	18.6	0.00e+00	0	41	0	298844160	55	5014
2026-01-19 08:16:12.86	71.58	17.87	-42.5	-45.0	18.4	0.00e+00	0	41	0	300941312	55	5148
2026-01-19 08:16:13.99	71.33	17.92	-42.7	-45.2	18.4	0.00e+00	0	41	0	303038464	56	4973
2026-01-19 08:16:14.85	71.15	17.96	-42.7	-45.2	18.2	0.00e+00	0	41	0	304087040	56	4967
2026-01-19 08:16:15.99	70.90	18.02	-42.9	-45.4	18.2	0.00e+00	0	41	0	306184192	56	5091
2026-01-19 08:16:16.84	70.71	18.05	-43.1	-45.7	17.9	0.00e+00	0	41	0	308281344	56	5260
2026-01-19 08:16:17.99	70.46	18.11	-43.1	-45.7	18.0	0.00e+00	0	41	0	310378496	56	5260
2026-01-19 08:16:18.84	70.28	18.14	-43.0	-45.6	18.1	0.00e+00	0	41	0	312475648	56	5197
2026-01-19 08:16:19.99	70.02	18.20	-43.0	-45.6	18.0	0.00e+00	0	41	0	314572800	56	5190
2026-01-19 08:16:20.85	69.83	18.23	-42.8	-45.4	18.3	0.00e+00	0	41	0	315621376	56	5046
2026-01-19 08:16:21.99	69.58	18.28	-42.8	-45.4	18.3	0.00e+00	0	41	0	317718528	56	5045
2026-01-19 08:16:22.85	69.39	18.32	-42.5	-45.0	18.6	0.00e+00	0	41	0	319815680	56	4852
2026-01-19 08:16:24.00	69.14	18.37	-42.4	-44.8	18.8	0.00e+00	0	41	0	321912832	56	4749
2026-01-19 08:16:24.85	68.95	18.41	-42.3	-44.7	18.9	0.00e+00	0	41	0	322961408	56	4679
2026-01-19 08:16:26.00	68.69	18.46	-42.1	-44.4	19.2	0.00e+00	0	41	0	325058560	56	4523
2026-01-19 08:16:26.86	68.50	18.49	-42.1	-44.4	19.2	0.00e+00	0	41	0	327155712	56	4501
2026-01-19 08:16:28.00	68.24	18.54	-42.1	-44.4	19.2	0.00e+00	0	41	0	329252864	56	4506
2026-01-19 08:16:28.86	68.05	18.57	-42.0	-44.4	19.2	0.00e+00	0	41	0	330301440	56	4494
2026-01-19 08:16:30.00	67.79	18.62	-41.6	-43.9	19.5	0.00e+00	0	41	0	332398592	55	4517
2026-01-19 08:16:30.86	67.59	18.66	-41.7	-43.9	19.4	0.00e+00	0	41	0	334495744	55	4532
2026-01-19 08:16:32.00	67.34	18.70	-41.9	-44.2	19.2	0.00e+00	0	41	0	336592896	55	4692
2026-01-19 08:16:32.86	67.14	18.74	-41.9	-44.2	19.2	0.00e+00	0	41	0	338690048	55	4699
2026-01-19 08:16:34.00	66.88	18.78	-41.9	-44.2	19.2	0.00e+00	0	41	0	340787200	55	4682
2026-01-19 08:16:34.85	66.68	18.81	-41.9	-44.2	19.2	0.00e+00	0	41	0	341835776	55	4700
2026-01-19 08:16:36.00	66.42	18.86	-42.1	-44.4	19.1	0.00e+00	0	41	0	343932928	55	4794
2026-01-19 08:16:36.85	66.23	18.89	-42.0	-44.3	19.1	0.00e+00	0	41	0	346030080	55	4708
2026-01-19 08:16:38.00	65.96	18.93	-42.1	-44.4	19.0	0.00e+00	0	41	0	348127232	55	4787
2026-01-19 08:16:38.85	65.76	18.96	-42.2	-44.6	19.0	0.00e+00	0	41	0	349175808	55	4873
2026-01-19 08:16:40.00	65.50	19.01	-42.1	-44.4	19.0	0.00e+00	0	41	0	351272960	55	4814
2026-01-19 08:16:40.85	65.30	19.04	-42.5	-44.9	18.7	0.00e+00	0	41	0	353370112	55	5048
2026-01-19 08:16:42.00	65.03	19.08	-42.5	-44.9	18.6	0.00e+00	0	41	0	355467264	55	5091
2026-01-19 08:16:42.86	64.83	19.11	-42.6	-45.0	18.5	0.00e+00	0	41	0	356515840	55	5149
2026-01-19 08:16:44.00	64.56	19.15	-42.6	-45.1	18.5	0.00e+00	0	41	0	358612992	55	5164
2026-01-19 08:16:44.86	64.36	19.18	-43.0	-45.5	18.2	0.00e+00	0	41	0	360710144	56	5120
2026-01-19 08:16:46.00	64.09	19.22	-42.8	-45.2	18.4	0.00e+00	0	41	0	362807296	56	4972
2026-01-19 08:16:46.86	63.89	19.25	-42.6	-45.0	18.7	0.00e+00	0	41	0	364904448	56	4833
2026-01-19 08:16:48.01	63.62	19.28	-42.8	-45.2	18.5	0.00e+00	0	41	0	367001600	56	4963
2026-01-19 08:16:48.86	63.42	19.31	-43.0	-45.5	18.2	0.00e+00	0	41	0	368050176	56	5128
2026-01-19 08:16:50.01	63.15	19.35	-43.2	-45.8	18.0	0.00e+00	0	41	0	370147328	57	4984
2026-01-19 08:16:50.87	62.94	19.38	-43.2	-45.8	18.0	0.00e+00	0	41	0	372244480	57	4992
2026-01-19 08:16:52.01	62.67	19.41	-43.3	-46.0	17.7	0.00e+00	0	41	0	374341632	57	5141
2026-01-19 08:16:52.87	62.47	19.44	-43.5	-46.2	17.5	0.00e+00	0	41	0	375390208	57	5257
2026-01-19 08:16:54.02	62.19	19.47	-43.4	-46.2	17.6	0.00e+00	0	41	0	377487360	57	5222
2026-01-19 08:16:54.87	61.99	19.50	-43.4	-46.2	17.5	0.00e+00	0	41	0	379584512	57	5225
2026-01-19 08:16:56.01	61.71	19.53	-43.4	-46.1	17.6	0.00e+00	0	41	0	381681664	57	5210
2026-01-19 08:16:56.87	61.51	19.56	-43.4	-46.1	17.6	0.00e+00	0	41	0	383778816	57	5195
2026-01-19 08:16:58.01	61.23	19.59	-43.4	-46.0	17.7	0.00e+00	0	41	0	385875968	57	5128
2026-01-19 08:16:58.87	61.02	19.61	-43.2	-45.7	18.0	0.00e+00	0	41	0	386924544	57	4968
2026-01-19 08:17:00.01	60.75	19.64	-43.0	-45.5	18.2	0.00e+00	0	41	0	389021696	57	4866
2026-01-19 08:17:00.87	60.54	19.67	-42.9	-45.5	18.3	0.00e+00	0	41	0	391118848	57	4820
2026-01-19 08:17:02.01	60.26	19.70	-43.2	-45.8	17.9	0.00e+00	0	41	0	393216000	57	5020
2026-01-19 08:17:02.87	60.05	19.72	-43.4	-46.1	17.6	0.00e+00	0	41	0	394264576	57	5185
2026-01-19 08:17:04.01	59.78	19.75	-43.6	-46.4	17.4	0.00e+00	0	41	0	396361728	58	5055
2026-01-19 08:17:04.87	59.57	19.77	-43.7	-46.6	17.2	0.00e+00	0	41	0	398458880	58	5188
2026-01-19 08:17:06.01	59.29	19.80	-44.1	-47.0	16.7	0.00e+00	0	41	0	400556032	58	5452
2026-01-19 08:17:06.87	59.08	19.82	-43.8	-46.6	17.1	0.00e+00	0	41	0	401604608	58	5202
2026-01-19 08:17:08.01	58.80	19.84	-43.5	-46.3	17.5	0.00e+00	0	41	0	403701760	58	4989
2026-01-19 08:17:08.87	58.59	19.86	-43.4	-46.1	17.6	0.00e+00	0	41	0	405798912	58	4909
2026-01-19 08:17:10.01	58.31	19.89	-43.4	-46.2	17.6	0.00e+00	0	41	0	407896064	58	4942
2026-01-19 08:17:10.87	58.10	19.91	-43.7	-46.5	17.2	0.00e+00	0	41	0	409993216	58	5127
2026-01-19 08:17:12.01	57.82	19.93	-44.1	-47.2	16.6	0.00e+00	0	41	0	412090368	59	5225
2026-01-19 08:17:12.87	57.60	19.95	-44.3	-47.4	16.3	0.00e+00	0	41	0	413138944	59	5400
2026-01-19 08:17:14.02	57.32	19.97	-44.3	-47.4	16.4	0.00e+00	0	41	0	415236096	59	5374
2026-01-19 08:17:14.87	57.11	19.99	-44.2	-47.2	16.6	0.00e+00	0	41	0	417333248	59	5248
2026-01-19 08:17:16.01	56.83	20.01	-43.9	-46.9	16.9	0.00e+00	0	41	0	419430400	59	5049
2026-01-19 08:17:16.87	56.61	20.03	-43.9	-46.8	17.0	0.00e+00	0	41	0	420478976	59	4988
2026-01-19 08:17:18.02	56.33	20.05	-43.5	-46.3	17.5	0.00e+00	0	41	0	422576128	59	4738
2026-01-19 08:17:18.88	56.11	20.06	-43.6	-46.4	17.4	0.00e+00	0	41	0	424673280	58	5053
2026-01-19 08:17:20.02	55.83	20.08	-43.4	-46.1	17.5	0.00e+00	0	41	0	426770432	58	4926
2026-01-19 08:17:20.88	55.62	20.10	-43.4	-46.2	17.5	0.00e+00	0	41	0	427819008	58	4957
2026-01-19 08:17:22.03	55.33	20.11	-43.5	-46.4	17.4	0.00e+00	0	41	0	430964736	58	5069
2026-01-19 08:17:22.89	55.12	20.13	-43.6	-46.5	17.1	0.00e+00	0	41	0	432013312	58	5153
2026-01-19 08:17:24.03	54.83	20.14	-43.7	-46.7	17.0	0.00e+00	0	41	0	434110464	58	5231
2026-01-19 08:17:24.89	54.62	20.15	-43.9	-46.8	16.9	0.00e+00	0	41	0	436207616	58	5336
2026-01-19 08:17:26.03	54.33	20.17	-44.0	-47.0	16.7	0.00e+00	0	41	0	438304768	58	5454
2026-01-19 08:17:26.88	54.12	20.18	-43.8	-46.8	17.0	0.00e+00	0	41	0	439353344	58	5290
2026-01-19 08:17:28.02	53.83	20.19	-43.7	-46.6	17.1	0.00e+00	0	41	0	441450496	58	5187
2026-01-19 08:17:28.88	53.62	20.20	-43.8	-46.7	17.0	0.00e+00	0	41	0	443547648	58	5272
2026-01-19 08:17:30.03	53.33	20.22	-43.8	-46.7	17.0	0.00e+00	0	41	0	445644800	58	5261
2026-01-19 08:17:30.89	53.11	20.23	-43.6	-46.4	17.2	0.00e+00	0	41	0	446693376	58	5098
2026-01-19 08:17:32.04	52.82	20.24	-43.6	-46.4	17.3	0.00e+00	0	41	0	448790528	58	5098
2026-01-19 08:17:32.89	52.61	20.25	-43.5	-46.3	17.2	0.00e+00	0	41	0	450887680	58	5028
2026-01-19 08:17:34.03	52.32	20.26	-43.5	-46.3	17.4	0.00e+00	0	41	0	452984832	58	5006
2026-01-19 08:17:34.89	52.10	20.26	-43.4	-46.2	17.4	0.00e+00	0	41	0	455081984	58	4954
2026-01-19 08:17:36.03	51.82	20.27	-43.6	-46.4	17.3	0.00e+00	0	41	0	457179136	58	5054
2026-01-19 08:17:36.89	51.60	20.28	-43.4	-46.1	17.6	0.00e+00	0	41	0	458227712	58	4900
2026-01-19 08:17:38.04	51.31	20.28	-43.0	-45.7	17.9	0.00e+00	0	41	0	460324864	58	4658
2026-01-19 08:17:38.90	51.09	20.29	-43.0	-45.7	17.9	0.00e+00	0	41	0	462422016	58	4665
2026-01-19 08:17:40.04	50.81	20.30	-43.0	-45.6	18.0	0.00e+00	0	41	0	464519168	57	4896
2026-01-19 08:17:40.90	50.59	20.30	-43.0	-45.7	17.9	0.00e+00	0	41	0	465567744	57	4958
2026-01-19 08:17:42.04	50.30	20.30	-42.7	-45.3	18.3	0.00e+00	0	41	0	467664896	57	4730
2026-01-19 08:17:42.90	50.08	20.31	-42.8	-45.4	18.2	0.00e+00	0	41	0	469762048	57	4805
2026-01-19 08:17:44.05	49.79	20.31	-42.9	-45.5	18.2	0.00e+00	0	41	0	471859200	57	4818
2026-01-19 08:17:44.90	49.58	20.31	-43.0	-45.6	18.0	0.00e+00	0	41	0	472907776	57	4898
2026-01-19 08:17:46.04	49.29	20.31	-43.3	-46.0	17.7	0.00e+00	0	41	0	475004928	57	5114
2026-01-19 08:17:46.90	49.07	20.32	-43.4	-46.2	17.5	0.00e+00	0	41	0	477102080	57	5228
2026-01-19 08:17:48.04	48.79	20.32	-43.6	-46.4	17.3	0.00e+00	0	41	0	479199232	57	5378
2026-01-19 08:17:48.90	48.57	20.32	-43.8	-46.7	17.1	0.00e+00	0	41	0	481296384	58	5247
2026-01-19 08:17:50.04	48.28	20.32	-43.9	-46.9	16.9	0.00e+00	0	41	0	483393536	58	5366
2026-01-19 08:17:50.89	48.07	20.32	-43.9	-46.9	16.8	0.00e+00	0	41	0	484442112	58	5392
2026-01-19 08:17:52.04	47.77	20.31	-44.0	-47.0	16.7	0.00e+00	0	41	0	486539264	58	5441
2026-01-19 08:17:52.90	47.56	20.31	-44.1	-47.1	16.7	0.00e+00	0	41	0	488636416	58	5484
2026-01-19 08:17:54.04	47.27	20.31	-43.9	-46.8	17.0	0.00e+00	0	41	0	490733568	58	5302
2026-01-19 08:17:54.90	47.05	20.30	-43.6	-46.5	17.3	0.00e+00	0	41	0	491782144	58	5116
2026-01-19 08:17:56.04	46.76	20.30	-43.0	-45.7	18.0	0.00e+00	0	41	0	493879296	58	4654
2026-01-19 08:17:56.90	46.55	20.30	-42.8	-45.3	18.4	0.00e+00	0	41	0	495976448	57	4717
2026-01-19 08:17:58.05	46.26	20.29	-42.3	-44.7	18.9	0.00e+00	0	41	0	498073600	56	4675
2026-01-19 08:17:58.91	46.04	20.29	-42.2	-44.6	18.9	0.00e+00	0	41	0	499122176	56	4649
2026-01-19 08:18:00.05	45.75	20.28	-42.1	-44.4	19.1	0.00e+00	0	41	0	501219328	56	4530
2026-01-19 08:18:00.91	45.54	20.27	-42.2	-44.5	19.0	0.00e+00	0	41	0	503316480	56	4582
2026-01-19 08:18:02.05	45.25	20.26	-42.3	-44.7	18.9	0.00e+00	0	41	0	505413632	56	4663
2026-01-19 08:18:02.90	45.04	20.26	-42.0	-44.3	19.2	0.00e+00	0	41	0	507510784	56	4489
2026-01-19 08:18:04.05	44.75	20.25	-42.1	-44.4	19.1	0.00e+00	0	41	0	509607936	56	4524
2026-01-19 08:18:04.91	44.53	20.24	-41.7	-43.9	19.4	0.00e+00	0	41	0	510656512	55	4540
2026-01-19 08:18:06.05	44.24	20.23	-41.9	-44.2	19.3	0.00e+00	0	41	0	512753664	55	4659
2026-01-19 08:18:06.91	44.03	20.22	-41.8	-44.1	19.3	0.00e+00	0	41	0	514850816	55	4634
2026-01-19 08:18:08.06	43.74	20.21	-41.9	-44.3	19.2	0.00e+00	0	41	0	516947968	55	4712
2026-01-19 08:18:08.91	43.53	20.20	-41.9	-44.2	19.2	0.00e+00	0	41	0	517996544	55	4675
2026-01-19 08:18:10.06	43.24	20.18	-42.0	-44.3	19.1	0.00e+00	0	41	0	520093696	55	4739
2026-01-19 08:18:10.92	43.02	20.17	-42.2	-44.6	18.9	0.00e+00	0	41	0	522190848	55	4891
2026-01-19 08:18:12.06	42.74	20.16	-42.1	-44.5	18.9	0.00e+00	0	41	0	524288000	55	4847
2026-01-19 08:18:12.91	42.53	20.14	-42.0	-44.4	19.1	0.00e+00	0	41	0	526385152	55	4762
2026-01-19 08:18:14.06	42.24	20.13	-41.8	-44.2	19.3	0.00e+00	0	41	0	528482304	55	4653
2026-01-19 08:18:14.91	42.03	20.11	-41.9	-44.3	19.2	0.00e+00	0	41	0	529530880	55	4728
2026-01-19 08:18:16.05	41.74	20.10	-41.9	-44.2	19.3	0.00e+00	0	41	0	531628032	55	4674
2026-01-19 08:18:16.91	41.53	20.08	-41.9	-44.2	19.2	0.00e+00	0	41	0	533725184	55	4680
2026-01-19 08:18:18.05	41.25	20.06	-41.9	-44.2	19.3	0.00e+00	0	41	0	535822336	55	4677
2026-01-19 08:18:18.91	41.03	20.05	-41.9	-44.2	19.3	0.00e+00	0	41	0	536870912	55	4661
2026-01-19 08:18:20.05	40.75	20.03	-42.0	-44.3	19.2	0.00e+00	0	41	0	538968064	55	4718
2026-01-19 08:18:20.91	40.54	20.01	-42.0	-44.3	19.1	0.00e+00	0	41	0	541065216	55	4755
2026-01-19 08:18:22.05	40.25	19.99	-42.1	-44.4	18.9	0.00e+00	0	41	0	543162368	55	4799
2026-01-19 08:18:22.91	40.04	19.97	-42.3	-44.7	18.9	0.00e+00	0	41	0	544210944	55	4941
2026-01-19 08:18:24.05	39.76	19.95	-42.4	-44.8	18.8	0.00e+00	0	41	0	546308096	55	4987
2026-01-19 08:18:24.91	39.55	19.93	-42.4	-44.8	18.7	0.00e+00	0	41	0	548405248	55	5025
2026-01-19 08:18:26.05	39.27	19.91	-42.3	-44.7	18.8	0.00e+00	0	41	0	550502400	55	4949
2026-01-19 08:18:26.91	39.06	19.89	-42.3	-44.6	18.9	0.00e+00	0	41	0	552599552	55	4915
2026-01-19 08:18:28.05	38.78	19.87	-42.4	-44.8	18.7	0.00e+00	0	41	0	554696704	55	4996
2026-01-19 08:18:28.91	38.57	19.85	-42.4	-44.8	18.7	0.00e+00	0	41	0	555745280	55	4991
2026-01-19 08:18:30.05	38.29	19.82	-42.3	-44.7	18.9	0.00e+00	0	41	0	557842432	55	4930
2026-01-19 08:18:30.91	38.08	19.80	-42.1	-44.5	19.0	0.00e+00	0	41	0	559939584	55	4825
2026-01-19 08:18:32.06	37.80	19.77	-42.3	-44.7	18.8	0.00e+00	0	41	0	562036736	55	4943
2026-01-19 08:18:32.92	37.59	19.75	-42.4	-44.9	18.6	0.00e+00	0	41	0	563085312	55	5053
2026-01-19 08:18:34.06	37.31	19.72	-42.9	-45.4	18.3	0.00e+00	0	41	0	565182464	56	5079
2026-01-19 08:18:34.92	37.10	19.70	-43.4	-46.2	17.7	0.00e+00	0	41	0	567279616	57	5228
2026-01-19 08:18:36.07	36.82	19.67	-43.7	-46.5	17.3	0.00e+00	0	41	0	569376768	57	5411
2026-01-19 08:18:36.92	36.62	19.65	-44.0	-46.9	16.9	0.00e+00	0	41	0	570425344	58	5356
2026-01-19 08:18:38.07	36.34	19.62	-44.0	-46.9	16.9	0.00e+00	0	41	0	573571072	58	5363
2026-01-19 08:18:38.93	36.13	19.59	-43.9	-46.8	17.0	0.00e+00	0	41	0	574619648	58	5309
2026-01-19 08:18:40.07	35.86	19.56	-43.7	-46.5	17.3	0.00e+00	0	41	0	576716800	58	5117
2026-01-19 08:18:40.92	35.66	19.54	-43.9	-46.7	17.1	0.00e+00	0	41	0	578813952	58	5259
2026-01-19 08:18:42.07	35.38	19.50	-43.8	-46.6	17.2	0.00e+00	0	41	0	580911104	58	5199
2026-01-19 08:18:42.93	35.17	19.48	-43.7	-46.5	17.3	0.00e+00	0	41	0	581959680	58	5115
2026-01-19 08:18:44.07	34.90	19.44	-43.7	-46.5	17.3	0.00e+00	0	41	0	584056832	58	5139
2026-01-19 08:18:44.93	34.70	19.42	-43.8	-46.6	17.2	0.00e+00	0	41	0	586153984	58	5205
2026-01-19 08:18:46.07	34.43	19.38	-43.6	-46.5	17.3	0.00e+00	0	41	0	588251136	58	5106
2026-01-19 08:18:46.93	34.22	19.35	-43.7	-46.6	17.2	0.00e+00	0	41	0	589299712	58	5173
2026-01-19 08:18:48.08	33.95	19.32	-43.8	-46.7	17.1	0.00e+00	0	41	0	591396864	58	5262
2026-01-19 08:18:48.93	33.75	19.29	-43.7	-46.6	17.2	0.00e+00	0	41	0	593494016	58	5188
2026-01-19 08:18:50.08	33.48	19.25	-43.8	-46.8	17.0	0.00e+00	0	41	0	595591168	58	5295
2026-01-19 08:18:50.94	33.28	19.22	-44.1	-47.1	16.7	0.00e+00	0	41	0	596639744	58	5514
2026-01-19 08:18:52.08	33.01	19.18	-44.2	-47.3	16.6	0.00e+00	0	41	0	599785472	59	5287
2026-01-19 08:18:52.94	32.81	19.15	-43.9	-46.8	17.1	0.00e+00	0	41	0	600834048	59	4996
2026-01-19 08:18:54.08	32.54	19.11	-43.8	-46.6	17.2	0.00e+00	0	41	0	602931200	59	4889
2026-01-19 08:18:54.94	32.34	19.08	-43.5	-46.3	17.5	0.00e+00	0	41	0	605028352	59	4719
2026-01-19 08:18:56.08	32.08	19.04	-43.5	-46.2	17.6	0.00e+00	0	41	0	607125504	58	4972
2026-01-19 08:18:56.94	31.88	19.01	-43.5	-46.2	17.6	0.00e+00	0	41	0	608174080	58	4964
2026-01-19 08:18:58.09	31.61	18.97	-43.4	-46.0	17.8	0.00e+00	0	41	0	610271232	58	4862
2026-01-19 08:18:58.95	31.41	18.94	-43.5	-46.2	17.6	0.00e+00	0	41	0	612368384	58	4943
2026-01-19 08:19:00.10	31.15	18.90	-43.6	-46.4	17.4	0.00e+00	0	41	0	614465536	58	5068
2026-01-19 08:19:00.95	30.95	18.86	-43.5	-46.3	17.5	0.00e+00	0	41	0	615514112	58	4984
2026-01-19 08:19:02.10	30.69	18.82	-43.5	-46.2	17.6	0.00e+00	0	41	0	617611264	58	4977
2026-01-19 08:19:02.96	30.49	18.79	-43.5	-46.2	17.6	0.00e+00	0	41	0	619708416	58	4963
2026-01-19 08:19:04.10	30.24	18.74	-43.4	-46.1	17.7	0.00e+00	0	41	0	621805568	58	4884
2026-01-19 08:19:04.96	30.04	18.71	-43.3	-45.9	17.8	0.00e+00	0	41	0	623902720	58	4808
2026-01-19 08:19:06.10	29.78	18.66	-43.2	-45.8	17.9	0.00e+00	0	41	0	625999872	58	4732
2026-01-19 08:19:06.96	29.59	18.63	-43.0	-45.6	18.2	0.00e+00	0	41	0	627048448	58	4600
2026-01-19 08:19:08.11	29.33	18.58	-42.7	-45.2	18.5	0.00e+00	0	41	0	629145600	57	4678
2026-01-19 08:19:08.97	29.14	18.54	-42.5	-45.0	18.7	0.00e+00	0	41	0	631242752	57	4553
2026-01-19 08:19:10.11	28.88	18.50	-42.5	-44.9	18.8	0.00e+00	0	41	0	633339904	56	4794
2026-01-19 08:19:10.97	28.69	18.46	-42.6	-45.0	18.7	0.00e+00	0	41	0	634388480	56	4835
2026-01-19 08:19:12.11	28.43	18.41	-42.5	-44.9	18.8	0.00e+00	0	41	0	636485632	56	4772
2026-01-19 08:19:12.97	28.24	18.38	-42.5	-45.0	18.7	0.00e+00	0	41	0	638582784	56	4816
2026-01-19 08:19:14.11	27.99	18.33	-42.3	-44.8	18.8	0.00e+00	0	41	0	640679936	56	4716
2026-01-19 08:19:14.97	27.80	18.29	-42.4	-44.8	18.8	0.00e+00	0	41	0	641728512	56	4738
2026-01-19 08:19:16.11	27.55	18.24	-42.4	-45.0	18.7	0.00e+00	0	41	0	644874240	56	4818
2026-01-19 08:19:16.97	27.36	18.20	-42.8	-45.4	18.3	0.00e+00	0	41	0	645922816	56	5091
2026-01-19 08:19:18.11	27.11	18.15	-43.2	-46.0	17.7	0.00e+00	0	41	0	648019968	57	5116
2026-01-19 08:19:18.97	26.92	18.11	-43.5	-46.5	17.2	0.00e+00	0	41	0	650117120	57	5443
2026-01-19 08:19:20.11	26.67	18.06	-44.0	-47.2	16.6	0.00e+00	0	41	0	652214272	58	5568
2026-01-19 08:19:20.97	26.49	18.02	-44.2	-47.6	16.2	0.00e+00	0	41	0	653262848	59	5489
2026-01-19 08:19:22.11	26.24	17.97	-44.0	-47.2	16.5	0.00e+00	0	41	0	655360000	59	5263
2026-01-19 08:19:22.97	26.06	17.93	-43.9	-47.1	16.7	0.00e+00	0	41	0	657457152	59	5195
2026-01-19 08:19:24.11	25.81	17.88	-43.9	-47.2	16.7	0.00e+00	0	41	0	659554304	59	5219
2026-01-19 08:19:24.97	25.63	17.84	-44.1	-47.4	16.5	0.00e+00	0	41	0	660602880	59	5352
2026-01-19 08:19:26.12	25.38	17.78	-44.1	-47.3	16.6	0.00e+00	0	41	0	662700032	59	5319
2026-01-19 08:19:26.97	25.20	17.74	-44.2	-47.4	16.4	0.00e+00	0	41	0	664797184	59	5388
2026-01-19 08:19:28.11	24.96	17.69	-44.5	-48.0	16.0	0.00e+00	0	41	0	666894336	60	5432
2026-01-19 08:19:28.97	24.78	17.65	-44.7	-48.2	15.7	0.00e+00	0	41	0	668991488	60	5576
2026-01-19 08:19:30.12	24.53	17.59	-45.0	-48.6	15.4	0.00e+00	0	41	0	671088640	60	5851
2026-01-19 08:19:30.98	24.35	17.55	-45.0	-48.6	15.3	0.00e+00	0	41	0	672137216	60	5817
2026-01-19 08:19:32.12	24.11	17.49	-44.9	-48.4	15.5	0.00e+00	0	41	0	674234368	60	5675
2026-01-19 08:19:32.98	23.93	17.45	-44.4	-47.6	16.3	0.00e+00	0	41	0	676331520	60	5200
2026-01-19 08:19:34.12	23.70	17.40	-44.0	-47.1	16.7	0.00e+00	0	41	0	678428672	60	4925
2026-01-19 08:19:34.98	23.52	17.35	-43.7	-46.7	17.1	0.00e+00	0	41	0	679477248	59	4927
2026-01-19 08:19:36.12	23.28	17.30	-43.2	-46.0	17.8	0.00e+00	0	41	0	681574400	58	4823
2026-01-19 08:19:36.98	23.11	17.25	-43.0	-45.7	18.0	0.00e+00	0	41	0	683671552	58	4688
2026-01-19 08:19:38.12	22.87	17.19	-42.8	-45.4	18.3	0.00e+00	0	41	0	685768704	57	4771
2026-01-19 08:19:38.98	22.70	17.15	-42.9	-45.5	18.2	0.00e+00	0	41	0	686817280	57	4855
2026-01-19 08:19:40.12	22.46	17.09	-42.8	-45.5	18.2	0.00e+00	0	41	0	688914432	57	4849
2026-01-19 08:19:40.98	22.29	17.05	-42.8	-45.5	18.2	0.00e+00	0	41	0	691011584	57	4851
2026-01-19 08:19:42.12	22.06	16.99	-42.8	-45.5	18.2	0.00e+00	0	41	0	693108736	57	4864
2026-01-19 08:19:42.98	21.88	16.94	-43.0	-45.7	18.0	0.00e+00	0	41	0	695205888	57	4967
2026-01-19 08:19:44.12	21.65	16.88	-43.3	-46.2	17.6	0.00e+00	0	41	0	697303040	57	5262
2026-01-19 08:19:44.98	21.48	16.84	-43.5	-46.5	17.3	0.00e+00	0	41	0	698351616	57	5409
2026-01-19 08:19:46.13	21.25	16.78	-43.8	-46.8	16.9	0.00e+00	0	41	0	700448768	58	5313
2026-01-19 08:19:46.99	21.08	16.73	-43.9	-46.9	16.9	0.00e+00	0	41	0	702545920	58	5366
2026-01-19 08:19:48.13	20.86	16.67	-43.7	-46.7	17.1	0.00e+00	0	41	0	704643072	58	5247
2026-01-19 08:19:48.99	20.69	16.63	-43.6	-46.4	17.3	0.00e+00	0	41	0	705691648	58	5098
2026-01-19 08:19:50.13	20.46	16.57	-43.1	-45.8	17.9	0.00e+00	0	41	0	707788800	58	4756
2026-01-19 08:19:50.99	20.29	16.52	-42.9	-45.5	18.1	0.00e+00	0	41	0	709885952	57	4866
2026-01-19 08:19:52.13	20.07	16.46	-42.8	-45.5	18.2	0.00e+00	0	41	0	711983104	57	4847
2026-01-19 08:19:52.99	19.90	16.41	-42.8	-45.4	18.3	0.00e+00	0	41	0	713031680	57	4800
2026-01-19 08:19:54.14	19.68	16.35	-43.1	-46.0	17.8	0.00e+00	0	41	0	716177408	57	5102
2026-01-19 08:19:54.99	19.52	16.30	-43.3	-46.2	17.5	0.00e+00	0	41	0	717225984	57	5232
2026-01-19 08:19:56.13	19.30	16.24	-43.9	-47.0	16.8	0.00e+00	0	41	0	719323136	58	5454
2026-01-19 08:19:56.99	19.13	16.19	-44.0	-47.3	16.6	0.00e+00	0	41	0	721420288	58	5594
2026-01-19 08:19:58.13	18.91	16.13	-44.6	-48.2	15.6	0.00e+00	0	41	0	723517440	59	5920
2026-01-19 08:19:58.99	18.75	16.08	-44.6	-48.3	15.5	0.00e+00	0	41	0	724566016	60	5649
2026-01-19 08:20:00.13	18.53	16.02	-44.5	-48.1	15.7	0.00e+00	0	41	0	726663168	60	5509
2026-01-19 08:20:00.99	18.37	15.97	-44.5	-48.1	15.7	0.00e+00	0	41	0	728760320	60	5504
2026-01-19 08:20:02.13	18.16	15.90	-44.4	-47.8	16.2	0.00e+00	0	41	0	730857472	60	5286
2026-01-19 08:20:02.99	18.00	15.86	-44.1	-47.3	16.6	0.00e+00	0	41	0	731906048	60	5002
2026-01-19 08:20:04.13	17.78	15.79	-44.1	-47.2	16.7	0.00e+00	0	41	0	734003200	60	4930
2026-01-19 08:20:04.99	17.62	15.74	-44.4	-47.5	16.4	0.00e+00	0	41	0	736100352	60	5120
2026-01-19 08:20:06.14	17.41	15.68	-43.9	-46.8	17.0	0.00e+00	0	41	0	738197504	59	4990
2026-01-19 08:20:06.99	17.25	15.63	-43.7	-46.6	17.2	0.00e+00	0	41	0	739246080	59	4877
2026-01-19 08:20:08.14	17.04	15.56	-43.8	-46.6	17.2	0.00e+00	0	41	0	742391808	59	4893
2026-01-19 08:20:09.00	16.88	15.51	-43.8	-46.6	17.1	0.00e+00	0	41	0	743440384	59	4926
2026-01-19 08:20:10.15	16.67	15.45	-43.6	-46.3	17.3	0.00e+00	0	41	0	745537536	59	4754
2026-01-19 08:20:11.01	16.52	15.40	-43.6	-46.4	17.3	0.00e+00	0	41	0	747634688	59	4810
2026-01-19 08:20:12.15	16.31	15.33	-43.6	-46.4	17.4	0.00e+00	0	41	0	749731840	59	4792
2026-01-19 08:20:13.01	16.16	15.28	-43.6	-46.5	17.3	0.00e+00	0	41	0	750780416	59	4841
2026-01-19 08:20:14.15	15.95	15.22	-43.6	-46.6	17.2	0.00e+00	0	41	0	752877568	59	4880
2026-01-19 08:20:15.01	15.80	15.17	-43.7	-46.8	17.0	0.00e+00	0	41	0	754974720	59	5009
2026-01-19 08:20:16.16	15.59	15.10	-44.0	-47.3	16.5	0.00e+00	0	41	0	757071872	59	5303
2026-01-19 08:20:17.01	15.44	15.05	-44.0	-47.4	16.4	0.00e+00	0	41	0	758120448	59	5398
2026-01-19 08:20:18.16	15.24	14.98	-44.1	-47.7	16.2	0.00e+00	0	41	0	760217600	59	5558
2026-01-19 08:20:19.02	15.09	14.93	-44.1	-47.7	16.1	0.00e+00	0	41	0	762314752	59	5573
2026-01-19 08:20:20.16	14.89	14.86	-44.2	-47.8	16.1	0.00e+00	0	41	0	764411904	59	5620
2026-01-19 08:20:21.02	14.74	14.81	-43.8	-47.3	16.5	0.00e+00	0	41	0	766509056	59	5318
2026-01-19 08:20:22.16	14.54	14.75	-43.6	-47.0	16.8	0.00e+00	0	41	0	768606208	59	5101
2026-01-19 08:20:23.02	14.39	14.70	-43.4	-46.7	17.1	0.00e+00	0	41	0	769654784	58	5241
2026-01-19 08:20:24.16	14.19	14.63	-43.2	-46.4	17.3	0.00e+00	0	41	0	771751936	58	5099
2026-01-19 08:20:25.02	14.05	14.58	-43.2	-46.4	17.4	0.00e+00	0	41	0	773849088	58	5051
2026-01-19 08:20:26.17	13.85	14.51	-43.3	-46.5	17.2	0.00e+00	0	41	0	775946240	58	5122
2026-01-19 08:20:27.02	13.70	14.46	-43.6	-46.9	16.9	0.00e+00	0	41	0	776994816	58	5372
2026-01-19 08:20:28.16	13.51	14.39	-43.7	-47.1	16.7	0.00e+00	0	41	0	779091968	58	5491
2026-01-19 08:20:29.02	13.37	14.34	-43.7	-47.0	16.8	0.00e+00	0	41	0	781189120	58	5461
2026-01-19 08:20:30.17	13.17	14.27	-43.9	-47.3	16.5	0.00e+00	0	41	0	783286272	58	5638
2026-01-19 08:20:31.03	13.03	14.22	-44.0	-47.4	16.5	0.00e+00	0	41	0	784334848	58	5668
2026-01-19 08:20:32.17	12.84	14.15	-44.0	-47.3	16.5	0.00e+00	0	41	0	787480576	58	5617
2026-01-19 08:20:33.03	12.69	14.10	-44.1	-47.3	16.5	0.00e+00	0	41	0	788529152	58	5632
2026-01-19 08:20:34.17	12.51	14.03	-43.9	-47.0	16.9	0.00e+00	0	41	0	790626304	58	5450
2026-01-19 08:20:35.03	12.36	13.97	-43.8	-46.8	16.9	0.00e+00	0	41	0	792723456	58	5336
2026-01-19 08:20:36.17	12.18	13.91	-43.5	-46.4	17.3	0.00e+00	0	41	0	794820608	58	5074
2026-01-19 08:20:37.03	12.04	13.85	-43.3	-46.2	17.6	0.00e+00	0	41	0	795869184	58	4931
2026-01-19 08:20:38.18	11.85	13.78	-43.3	-46.2	17.6	0.00e+00	0	41	0	797966336	58	4933
2026-01-19 08:20:39.04	11.71	13.73	-43.1	-46.0	17.7	0.00e+00	0	41	0	800063488	58	4839
2026-01-19 08:20:40.18	11.53	13.66	-42.9	-45.8	17.9	0.00e+00	0	41	0	802160640	57	5006
2026-01-19 08:20:41.04	11.39	13.61	-42.9	-45.8	18.0	0.00e+00	0	41	0	803209216	57	4985
2026-01-19 08:20:42.18	11.20	13.54	-42.8	-45.5	18.1	0.00e+00	0	41	0	805306368	57	4858
2026-01-19 08:20:43.04	11.07	13.49	-42.8	-45.5	18.2	0.00e+00	0	41	0	807403520	57	4866
2026-01-19 08:20:44.18	10.89	13.42	-42.7	-45.4	18.3	0.00e+00	0	41	0	809500672	57	4783
2026-01-19 08:20:45.04	10.75	13.36	-42.4	-45.0	18.6	0.00e+00	0	41	0	811597824	56	4849
2026-01-19 08:20:46.18	10.57	13.30	-42.2	-44.8	18.9	0.00e+00	0	41	0	813694976	56	4720
2026-01-19 08:20:47.04	10.44	13.24	-42.0	-44.5	19.1	0.00e+00	0	41	0	814743552	56	4586
2026-01-19 08:20:48.19	10.26	13.17	-41.9	-44.4	19.0	0.00e+00	0	41	0	816840704	55	4802
2026-01-19 08:20:49.04	10.13	13.12	-41.8	-44.4	19.0	0.00e+00	0	41	0	818937856	55	4806
2026-01-19 08:20:50.19	9.95	13.05	-42.0	-44.6	18.9	0.00e+00	0	41	0	821035008	55	4904
2026-01-19 08:20:51.05	9.81	13.00	-42.1	-44.8	18.7	0.00e+00	0	41	0	822083584	55	5005
2026-01-19 08:20:52.19	9.64	12.93	-42.2	-44.8	18.6	0.00e+00	0	41	0	824180736	55	5038
2026-01-19 08:20:53.05	9.51	12.87	-42.4	-45.1	18.4	0.00e+00	0	41	0	826277888	55	5192
2026-01-19 08:20:54.19	9.34	12.80	-42.8	-45.7	18.0	0.00e+00	0	41	0	828375040	56	5238
2026-01-19 08:20:55.05	9.21	12.75	-42.9	-45.8	17.9	0.00e+00	0	41	0	829423616	56	5333
2026-01-19 08:20:56.20	9.03	12.68	-42.9	-45.9	17.8	0.00e+00	0	41	0	831520768	56	5397
2026-01-19 08:20:57.06	8.90	12.62	-42.9	-46.0	17.8	0.00e+00	0	41	0	833617920	56	5419
2026-01-19 08:20:58.20	8.73	12.55	-42.8	-45.9	17.7	0.00e+00	0	41	0	835715072	56	5379
2026-01-19 08:20:59.06	8.60	12.50	-42.9	-46.1	17.7	0.00e+00	0	41	0	837812224	56	5478
2026-01-19 08:21:00.21	8.43	12.43	-42.9	-46.1	17.6	0.00e+00	0	41	0	839909376	56	5511
2026-01-19 08:21:01.06	8.31	12.38	-42.7	-45.7	17.9	0.00e+00	0	41	0	840957952	56	5274
2026-01-19 08:21:02.21	8.14	12.31	-42.6	-45.5	18.2	0.00e+00	0	41	0	843055104	56	5121
2026-01-19 08:21:03.07	8.01	12.25	-42.4	-45.2	18.4	0.00e+00	0	41	0	845152256	56	4978
2026-01-19 08:21:04.22	7.85	12.18	-42.5	-45.2	18.4	0.00e+00	0	41	0	847249408	56	4983
2026-01-19 08:21:05.07	7.72	12.13	-42.4	-45.1	18.5	0.00e+00	0	41	0	848297984	56	4907
2026-01-19 08:21:06.22	7.56	12.06	-42.4	-45.1	18.6	0.00e+00	0	41	0	850395136	56	4896
2026-01-19 08:21:07.07	7.43	12.00	-42.4	-45.0	18.6	0.00e+00	0	41	0	852492288	56	4866
2026-01-19 08:21:08.22	7.27	11.93	-42.4	-45.2	18.5	0.00e+00	0	41	0	854589440	56	4950
2026-01-19 08:21:09.08	7.15	11.88	-42.6	-45.4	18.3	0.00e+00	0	41	0	856686592	56	5079
2026-01-19 08:21:10.22	6.99	11.81	-42.7	-45.6	18.1	0.00e+00	0	41	0	858783744	56	5171
2026-01-19 08:21:11.08	6.86	11.75	-42.9	-45.8	17.9	0.00e+00	0	41	0	859832320	56	5335
2026-01-19 08:21:12.23	6.70	11.68	-43.0	-45.8	17.8	0.00e+00	0	41	0	861929472	57	5039
2026-01-19 08:21:13.08	6.58	11.63	-43.0	-45.9	17.8	0.00e+00	0	41	0	864026624	57	5073
2026-01-19 08:21:14.23	6.42	11.56	-43.2	-46.1	17.5	0.00e+00	0	41	0	866123776	57	5174
2026-01-19 08:21:15.09	6.30	11.50	-43.3	-46.2	17.4	0.00e+00	0	41	0	867172352	57	5273
2026-01-19 08:21:16.23	6.15	11.43	-43.4	-46.5	17.2	0.00e+00	0	41	0	869269504	57	5405
2026-01-19 08:21:17.09	6.03	11.38	-43.4	-46.4	17.3	0.00e+00	0	41	0	871366656	57	5376
2026-01-19 08:21:18.24	5.87	11.31	-43.3	-46.4	17.3	0.00e+00	0	41	0	873463808	57	5363
2026-01-19 08:21:19.09	5.75	11.26	-43.5	-46.7	17.1	0.00e+00	0	41	0	874512384	57	5538
2026-01-19 08:21:20.24	5.60	11.18	-43.4	-46.6	17.1	0.00e+00	0	41	0	876609536	57	5526
2026-01-19 08:21:21.10	5.48	11.13	-43.3	-46.4	17.3	0.00e+00	0	41	0	878706688	57	5369
2026-01-19 08:21:22.24	5.33	11.06	-43.2	-46.3	17.5	0.00e+00	0	41	0	880803840	57	5295
2026-01-19 08:21:23.10	5.21	11.01	-42.8	-45.6	18.0	0.00e+00	0	41	0	882900992	57	4910
2026-01-19 08:21:24.25	5.06	10.93	-42.8	-45.5	18.1	0.00e+00	0	41	0	884998144	57	4862
2026-01-19 08:21:25.10	4.95	10.88	-42.5	-45.2	18.4	0.00e+00	0	41	0	886046720	57	4689
2026-01-19 08:21:26.25	4.79	10.81	-42.3	-44.9	18.6	0.00e+00	0	41	0	888143872	56	4797
2026-01-19 08:21:27.11	4.68	10.76	-42.5	-45.2	18.4	0.00e+00	0	41	0	890241024	56	4936
2026-01-19 08:21:28.25	4.53	10.69	-42.3	-45.0	18.6	0.00e+00	0	41	0	892338176	56	4826
2026-01-19 08:21:29.11	4.42	10.63	-42.7	-45.4	18.2	0.00e+00	0	41	0	893386752	56	5097
2026-01-19 08:21:30.26	4.27	10.56	-42.9	-45.8	17.8	0.00e+00	0	41	0	895483904	56	5288
2026-01-19 08:21:31.11	4.16	10.51	-43.1	-46.0	17.6	0.00e+00	0	41	0	897581056	56	5452
2026-01-19 08:21:32.25	4.01	10.44	-43.5	-46.6	17.1	0.00e+00	0	41	0	899678208	57	5491
2026-01-19 08:21:33.11	3.90	10.38	-43.8	-46.9	16.8	0.00e+00	0	41	0	900726784	58	5399
2026-01-19 08:21:34.24	3.76	10.31	-44.2	-47.5	16.2	0.00e+00	0	41	0	902823936	59	5407
2026-01-19 08:21:35.10	3.65	10.26	-44.1	-47.2	16.5	0.00e+00	0	41	0	904921088	59	5233
2026-01-19 08:21:36.24	3.50	10.19	-44.5	-47.6	16.1	0.00e+00	0	41	0	907018240	59	5507
2026-01-19 08:21:37.09	3.40	10.14	-44.3	-47.4	16.3	0.00e+00	0	41	0	909115392	59	5365
2026-01-19 08:21:38.23	3.25	10.07	-44.1	-47.4	16.4	0.00e+00	0	41	0	911212544	59	5357
2026-01-19 08:21:39.09	3.14	10.01	-43.9	-47.2	16.5	0.00e+00	0	41	0	912261120	59	5276
2026-01-19 08:21:40.22	3.00	9.94	-43.5	-46.9	16.9	0.00e+00	0	41	0	914358272	58	5345
2026-01-19 08:21:41.08	2.90	9.89	-43.5	-47.0	16.7	0.00e+00	0	41	0	916455424	58	5436
2026-01-19 08:21:42.22	2.76	9.82	-43.3	-46.6	17.1	0.00e+00	0	41	0	918552576	58	5175
2026-01-19 08:21:43.07	2.65	9.76	-43.6	-46.8	16.8	0.00e+00	0	41	0	919601152	58	5306
2026-01-19 08:21:44.21	2.51	9.69	-43.6	-46.7	17.0	0.00e+00	0	41	0	921698304	58	5221
2026-01-19 08:21:45.07	2.41	9.64	-43.9	-47.0	16.6	0.00e+00	0	41	0	923795456	58	5462
2026-01-19 08:21:46.21	2.27	9.57	-43.8	-46.9	16.7	0.00e+00	0	41	0	925892608	58	5341
2026-01-19 08:21:47.06	2.17	9.52	-43.8	-46.9	16.8	0.00e+00	0	41	0	926941184	58	5376
2026-01-19 08:21:48.20	2.03	9.45	-43.8	-46.9	16.7	0.00e+00	0	41	0	929038336	58	5397
2026-01-19 08:21:49.05	1.93	9.40	-43.7	-46.9	16.8	0.00e+00	0	41	0	931135488	58	5351
2026-01-19 08:21:50.19	1.79	9.32	-43.6	-47.0	16.6	0.00e+00	0	41	0	933232640	58	5457
2026-01-19 08:21:51.05	1.69	9.27	-43.5	-47.0	16.6	0.00e+00	0	41	0	935329792	58	5435
2026-01-19 08:21:52.19	1.56	9.20	-43.5	-47.1	16.5	0.00e+00	0	41	0	937426944	58	5501
2026-01-19 08:21:53.05	1.45	9.15	-43.3	-47.0	16.7	0.00e+00	0	41	0	938475520	58	5412
2026-01-19 08:21:54.19	1.32	9.08	-43.5	-47.4	16.3	0.00e+00	0	41	0	940572672	58	5660
2026-01-19 08:21:55.04	1.22	9.03	-43.6	-47.5	16.2	0.00e+00	0	41	0	942669824	58	5737
2026-01-19 08:21:56.18	1.09	8.96	-48.9	-63.5	3.8	9.37e-02	0	41	104	944766976	68	20503
2026-01-19 08:21:57.04	0.99	8.90	-49.4	-65.2	3.8	1.49e+00	0	41	104	944766976	69	23363
2026-01-19 08:21:58.18	0.86	8.83	-49.6	-65.5	3.8	1.49e+00	0	41	104	944766976	70	22810
2026-01-19 08:21:59.03	0.76	8.78	-49.4	-65.5	3.8	1.49e+00	0	41	104	944766976	70	22910
2026-01-19 08:22:00.18	0.63	8.71	-49.6	-65.6	3.8	1.49e+00	0	41	104	944766976	70	23218
2026-01-19 08:22:01.04	0.53	8.66	-50.1	-65.6	3.8	1.49e+00	0	41	104	944766976	70	23241
2026-01-19 08:22:02.18	0.40	8.59	-50.3	-65.7	3.8	1.49e+00	0	41	104	944766976	71	22049
2026-01-19 08:22:03.03	0.31	8.54	-50.3	-65.7	3.8	1.49e+00	0	41	104	944766976	71	22159
2026-01-19 08:22:04.17	0.18	8.47	-50.3	-65.7	3.8	1.49e+00	0	41	104	944766976	71	22252
2026-01-19 08:22:05.03	0.08	8.41	-50.0	-65.7	3.8	1.49e+00	0	41	104	944766976	71	22246
2026-01-19 08:22:06.17	359.96	8.34	-50.4	-65.8	3.8	1.49e+00	0	41	104	944766976	71	22315
2026-01-19 08:22:07.02	359.86	8.29	-50.3	-65.8	3.8	1.49e+00	0	41	104	944766976	71	22316
2026-01-19 08:22:08.16	359.74	8.22	-50.2	-65.8	3.8	1.49e+00	0	41	104	944766976	71	22408
2026-01-19 08:22:09.02	359.64	8.17	-50.5	-65.8	3.8	1.49e+00	0	41	104	944766976	71	22357
2026-01-19 08:22:10.16	359.52	8.10	-50.6	-65.8	3.8	1.49e+00	0	41	104	944766976	71	22314
2026-01-19 08:22:11.02	359.42	8.05	-50.5	-65.8	3.8	1.49e+00	0	41	104	944766976	71	22402
2026-01-19 08:22:12.16	359.30	7.98	-50.4	-65.8	3.8	1.49e+00	0	41	104	944766976	71	22352
2026-01-19 08:22:13.01	359.21	7.93	-50.3	-65.8	3.8	1.49e+00	0	41	104	944766976	71	22383
2026-01-19 08:22:14.16	359.09	7.86	-50.4	-65.8	3.8	1.49e+00	0	41	104	944766976	71	22341
2026-01-19 08:22:15.01	358.99	7.81	-50.5	-65.8	3.8	1.49e+00	0	41	104	944766976	71	22411
2026-01-19 08:22:16.15	358.87	7.74	-50.6	-65.8	3.8	1.49e+00	0	41	104	944766976	71	22357
2026-01-19 08:22:17.01	358.78	7.68	-50.6	-65.8	3.8	1.49e+00	0	41	104	944766976	71	22329
2026-01-19 08:22:18.15	358.66	7.61	-50.6	-65.8	3.8	1.49e+00	0	41	104	944766976	71	22492
2026-01-19 08:22:19.01	358.57	7.56	-50.6	-65.8	3.8	1.49e+00	0	41	104	944766976	71	22439
2026-01-19 08:22:20.15	358.45	7.49	-50.5	-65.8	3.8	1.49e+00	0	41	104	944766976	71	22421
2026-01-19 08:22:21.01	358.36	7.44	-50.5	-65.8	3.8	1.49e+00	0	41	104	944766976	71	22385
2026-01-19 08:22:22.15	358.24	7.37	-50.5	-65.8	3.8	1.49e+00	0	41	104	944766976	71	22309
2026-01-19 08:22:23.00	358.16	7.32	-50.4	-65.8	3.8	1.49e+00	0	41	104	944766976	71	22394
2026-01-19 08:22:24.14	358.04	7.25	-50.4	-65.8	3.8	1.49e+00	0	41	104	944766976	71	22361
2026-01-19 08:22:25.00	357.95	7.20	-50.2	-65.8	3.8	1.49e+00	0	41	104	944766976	71	22332
2026-01-19 08:22:26.14	357.83	7.13	-50.2	-65.8	3.8	1.49e+00	0	41	104	944766976	71	22319
2026-01-19 08:22:27.00	357.75	7.08	-50.2	-65.8	3.8	1.49e+00	0	41	104	944766976	71	22298
2026-01-19 08:22:28.14	357.63	7.01	-50.2	-65.7	3.8	1.49e+00	0	41	104	944766976	71	22252
2026-01-19 08:22:28.99	357.55	6.96	-50.2	-65.7	3.8	1.49e+00	0	41	104	944766976	71	22179
2026-01-19 08:22:30.13	357.43	6.89	-50.2	-65.8	3.8	1.49e+00	0	41	104	944766976	71	22267
2026-01-19 08:22:30.99	357.35	6.84	-50.2	-65.7	3.8	1.49e+00	0	41	104	944766976	71	22256
2026-01-19 08:22:32.13	357.23	6.77	-50.2	-65.8	3.8	1.49e+00	0	41	104	944766976	71	22285
2026-01-19 08:22:32.98	357.15	6.72	-50.2	-65.7	3.8	1.49e+00	0	41	104	944766976	71	22223
2026-01-19 08:22:34.13	357.03	6.65	-50.2	-65.7	3.8	1.49e+00	0	41	104	944766976	71	22221
2026-01-19 08:22:34.98	356.95	6.60	-50.2	-65.7	3.8	1.49e+00	0	41	104	944766976	71	22206
2026-01-19 08:22:36.11	356.84	6.54	-50.2	-65.8	3.8	1.49e+00	0	41	104	944766976	71	22294
2026-01-19 08:22:36.96	356.76	6.49	-50.2	-65.7	3.8	1.49e+00	0	41	104	944766976	71	22216
2026-01-19 08:22:38.10	356.65	6.42	-50.2	-65.7	3.8	1.49e+00	0	41	104	944766976	71	22252
2026-01-19 08:22:38.96	356.56	6.37	-50.2	-65.7	3.8	1.49e+00	0	41	104	944766976	71	22169
2026-01-19 08:22:40.10	356.45	6.30	-50.2	-65.7	3.8	1.49e+00	0	41	104	944766976	71	22121
2026-01-19 08:22:40.95	356.37	6.25	-50.2	-65.7	3.8	1.49e+00	0	41	104	944766976	71	22260
2026-01-19 08:22:42.08	356.27	6.18	-50.2	-65.7	3.8	1.49e+00	0	41	104	944766976	71	22233
2026-01-19 08:22:42.93	356.18	6.13	-50.2	-65.7	3.8	1.49e+00	0	41	104	944766976	71	22176
2026-01-19 08:22:44.07	356.08	6.06	-50.2	-65.7	3.8	1.49e+00	0	41	104	944766976	71	22171
2026-01-19 08:22:44.92	356.00	6.01	-50.2	-65.8	3.8	1.49e+00	0	41	104	944766976	71	22267
2026-01-19 08:22:46.06	355.89	5.95	-50.1	-65.7	3.8	1.49e+00	0	41	104	944766976	71	22241
2026-01-19 08:22:46.91	355.81	5.90	-50.1	-65.7	3.8	1.49e+00	0	41	104	94476
