passes_logs/2026/01/19/T1/T1__20260119_211532_FENGYUN_3G_rec.log

#Pass ID: 20260119_211532_FENGYUN 3G
#Satellite: FENGYUN 3G
#Configuration: FENGYUN 3G
#almurnet v.1.7.20251203
#Start time: 2026-01-19 21:15:31

#Version: 2.0.20230620
#Station: T1
#Location: 37.570604 lon 55.790049 lat
#TLE: 1 56232U 23055A   26019.29402138  .00031930  00000+0  49376-3 0  9997
#TLE: 2 56232  49.9940  33.7754 0004164  48.8313 311.3013 15.53733440156869

#Time	Az	El	Level	Level2	SNR	BER	BlckErr	Temp	State	Recorded	gain1	gain2
2026-01-19 21:15:31.90	245.00	5.06	-50.4	-69.2	3.8	8.45e-01	0	40	0	0	72	31430
2026-01-19 21:15:32.89	244.92	5.13	-50.4	-69.3	3.8	8.38e-01	0	40	104	0	72	31450
2026-01-19 21:15:33.88	244.83	5.21	-50.4	-69.2	3.8	8.48e-01	0	40	104	0	72	31339
2026-01-19 21:15:34.88	244.75	5.29	-50.4	-69.2	3.8	8.48e-01	0	40	104	0	72	31387
2026-01-19 21:15:35.87	244.66	5.36	-50.4	-69.1	3.8	8.48e-01	0	40	104	0	72	31043
2026-01-19 21:15:36.86	244.58	5.44	-50.4	-69.1	3.8	8.46e-01	0	40	104	0	72	30880
2026-01-19 21:15:37.86	244.49	5.52	-50.4	-69.0	3.8	8.47e-01	0	41	104	0	72	30702
2026-01-19 21:15:38.85	244.40	5.59	-50.3	-69.0	3.8	8.47e-01	0	41	104	0	72	30384
2026-01-19 21:15:39.84	244.32	5.67	-50.4	-68.9	3.8	8.46e-01	0	40	104	0	72	30250
2026-01-19 21:15:40.84	244.23	5.75	-50.4	-68.9	3.8	8.48e-01	0	40	104	0	72	30192
2026-01-19 21:15:41.83	244.14	5.83	-50.4	-68.8	3.8	8.48e-01	0	41	104	0	72	29753
2026-01-19 21:15:42.82	244.05	5.91	-50.4	-68.8	3.8	8.47e-01	0	41	104	0	72	29728
2026-01-19 21:15:43.82	243.96	5.99	-50.4	-68.8	3.8	8.48e-01	0	41	104	0	72	29785
2026-01-19 21:15:44.81	243.87	6.06	-50.3	-68.9	3.8	8.48e-01	0	41	104	0	72	30131
2026-01-19 21:15:45.80	243.78	6.14	-50.4	-68.9	3.8	8.48e-01	0	41	104	0	72	30351
2026-01-19 21:15:46.80	243.68	6.22	-50.3	-68.9	3.8	8.46e-01	0	41	104	0	72	30248
2026-01-19 21:15:47.79	243.59	6.30	-50.4	-68.8	3.8	8.46e-01	0	41	104	0	72	29904
2026-01-19 21:15:48.78	243.50	6.38	-50.4	-68.7	3.8	8.47e-01	0	41	104	0	72	29672
2026-01-19 21:15:49.78	243.40	6.47	-50.3	-68.7	3.8	8.48e-01	0	41	104	0	72	29553
2026-01-19 21:15:50.77	243.31	6.55	-50.4	-68.7	3.8	8.47e-01	0	41	104	0	72	29578
2026-01-19 21:15:51.76	243.21	6.63	-50.3	-68.9	3.8	8.47e-01	0	41	104	0	72	30111
2026-01-19 21:15:52.75	243.11	6.71	-50.3	-69.0	3.8	8.46e-01	0	41	104	0	72	30650
2026-01-19 21:15:53.75	243.02	6.79	-50.4	-69.1	3.8	8.47e-01	0	41	104	0	72	30921
2026-01-19 21:15:54.74	242.92	6.87	-50.3	-69.1	3.8	8.47e-01	0	41	104	0	72	31046
2026-01-19 21:15:55.74	242.82	6.96	-50.4	-69.0	3.8	8.47e-01	0	41	104	0	72	30484
2026-01-19 21:15:56.73	242.72	7.04	-50.3	-68.9	3.8	8.46e-01	0	41	104	0	72	30309
2026-01-19 21:15:57.72	242.62	7.12	-50.3	-68.9	3.8	8.46e-01	0	41	104	0	72	30258
2026-01-19 21:15:58.72	242.51	7.21	-50.4	-69.0	3.8	8.46e-01	0	41	104	0	72	30445
2026-01-19 21:15:59.71	242.41	7.29	-50.3	-69.0	3.8	8.46e-01	0	41	104	0	72	30684
2026-01-19 21:16:00.70	242.31	7.38	-50.3	-68.9	3.8	8.46e-01	0	41	104	0	72	30168
2026-01-19 21:16:01.70	242.20	7.46	-50.3	-68.4	3.8	8.48e-01	0	41	104	0	72	28578
2026-01-19 21:16:02.69	242.10	7.55	-50.3	-67.9	3.8	8.47e-01	0	41	104	0	72	26773
2026-01-19 21:16:03.68	241.99	7.63	-50.3	-67.3	3.8	8.47e-01	0	41	104	0	72	25132
2026-01-19 21:16:04.68	241.88	7.72	-50.3	-67.0	3.9	8.47e-01	0	41	104	0	72	24379
2026-01-19 21:16:05.67	241.78	7.80	-50.3	-67.3	3.8	8.45e-01	0	41	104	0	72	24988
2026-01-19 21:16:06.66	241.67	7.89	-50.3	-67.8	3.8	8.45e-01	0	41	104	0	72	26718
2026-01-19 21:16:07.66	241.56	7.98	-50.3	-68.6	3.8	8.46e-01	0	41	104	0	72	29087
2026-01-19 21:16:08.65	241.45	8.07	-50.3	-68.9	3.8	8.45e-01	0	41	104	0	72	30265
2026-01-19 21:16:09.64	241.34	8.15	-50.3	-68.5	3.8	8.45e-01	0	42	104	0	72	28859
2026-01-19 21:16:10.64	241.22	8.24	-50.3	-67.7	3.8	8.46e-01	0	41	104	0	72	26266
2026-01-19 21:16:11.63	241.11	8.33	-50.3	-67.1	3.8	8.47e-01	0	41	104	0	72	24516
2026-01-19 21:16:12.62	241.00	8.42	-50.3	-66.8	3.9	8.45e-01	0	41	104	0	72	23795
2026-01-19 21:16:13.62	240.88	8.51	-50.3	-66.1	4.1	8.45e-01	0	41	0	0	72	21819
2026-01-19 21:16:14.61	240.76	8.60	-50.2	-63.8	4.9	8.42e-01	0	41	0	0	72	16729
2026-01-19 21:16:15.60	240.65	8.69	-49.9	-60.6	7.3	5.92e-01	0	42	0	0	71	12259
2026-01-19 21:16:16.60	240.53	8.78	-49.4	-57.8	10.1	5.92e-01	0	41	0	0	70	9445
2026-01-19 21:16:17.59	240.41	8.87	-48.9	-55.8	12.3	4.05e-02	0	42	0	0	69	7925
2026-01-19 21:16:18.58	240.29	8.96	-48.5	-54.5	13.6	3.71e-04	0	42	0	0	69	6856
2026-01-19 21:16:19.58	240.17	9.05	-47.3	-51.9	16.3	3.71e-04	0	42	0	0	66	6020
2026-01-19 21:16:20.57	240.04	9.15	-46.4	-50.3	17.3	3.40e-06	0	42	0	0	64	5645
2026-01-19 21:16:21.57	239.92	9.24	-48.5	-54.7	14.4	1.10e-06	0	41	0	0	67	7819
2026-01-19 21:16:22.56	239.79	9.33	-48.7	-54.9	13.0	1.10e-06	0	42	0	0	69	7150
2026-01-19 21:16:23.56	239.67	9.43	-45.1	-48.2	19.1	3.17e-02	0	42	0	0	62	4973
2026-01-19 21:16:24.55	239.54	9.52	-44.2	-47.0	20.8	1.94e-05	0	42	0	0	60	4840
2026-01-19 21:16:25.55	239.41	9.61	-44.3	-47.1	20.7	1.94e-05	0	42	0	0	60	4920
2026-01-19 21:16:26.54	239.28	9.71	-44.3	-47.2	20.9	0.00e+00	0	42	0	0	59	5260
2026-01-19 21:16:27.53	239.15	9.80	-44.0	-46.8	20.9	0.00e+00	0	42	0	0	59	5029
2026-01-19 21:16:28.53	239.02	9.90	-43.7	-46.4	21.6	0.00e+00	0	42	0	0	59	4784
2026-01-19 21:16:29.52	238.89	10.00	-44.0	-46.7	21.4	0.00e+00	0	42	0	0	59	4962
2026-01-19 21:16:30.52	238.75	10.09	-43.6	-46.3	21.6	0.00e+00	0	42	0	0	59	4720
2026-01-19 21:16:31.52	238.62	10.19	-42.7	-45.2	22.6	0.00e+00	0	42	0	0	57	4675
2026-01-19 21:16:32.51	238.48	10.29	-42.2	-44.5	23.2	0.00e+00	0	42	0	0	56	4591
2026-01-19 21:16:33.50	238.34	10.39	-41.7	-44.0	23.5	0.00e+00	0	42	0	0	55	4571
2026-01-19 21:16:34.50	238.20	10.49	-41.7	-44.0	23.5	0.00e+00	0	42	0	0	55	4594
2026-01-19 21:16:35.49	238.06	10.58	-41.6	-43.8	23.7	0.00e+00	0	42	0	0	55	4488
2026-01-19 21:16:36.49	237.92	10.68	-41.4	-43.7	23.8	0.00e+00	0	42	0	0	54	4668
2026-01-19 21:16:37.49	237.78	10.78	-41.4	-43.7	23.8	0.00e+00	0	42	0	0	54	4683
2026-01-19 21:16:38.48	237.63	10.88	-41.4	-43.7	23.8	0.00e+00	0	42	0	0	54	4670
2026-01-19 21:16:39.48	237.49	10.99	-41.3	-43.5	24.0	0.00e+00	0	42	0	0	54	4569
2026-01-19 21:16:40.47	237.34	11.09	-41.3	-43.5	24.0	0.00e+00	0	42	0	0	54	4592
2026-01-19 21:16:41.47	237.19	11.19	-41.4	-43.6	23.9	0.00e+00	0	42	0	0	54	4644
2026-01-19 21:16:42.46	237.04	11.29	-41.3	-43.6	24.0	0.00e+00	0	42	0	0	54	4619
2026-01-19 21:16:43.46	236.89	11.39	-41.3	-43.5	24.0	0.00e+00	0	42	0	0	54	4593
2026-01-19 21:16:44.45	236.74	11.50	-41.2	-43.4	24.1	0.00e+00	0	42	0	0	54	4514
2026-01-19 21:16:45.45	236.58	11.60	-40.9	-43.1	24.3	0.00e+00	0	42	0	0	53	4622
2026-01-19 21:16:46.45	236.42	11.71	-40.9	-43.0	24.4	0.00e+00	0	42	0	0	53	4592
2026-01-19 21:16:47.44	236.27	11.81	-40.8	-42.9	24.5	0.00e+00	0	42	0	0	53	4544
2026-01-19 21:16:48.44	236.11	11.92	-40.6	-42.7	24.7	0.00e+00	0	42	0	0	53	4429
2026-01-19 21:16:49.43	235.95	12.02	-40.5	-42.7	24.7	0.00e+00	0	42	0	0	53	4405
2026-01-19 21:16:50.42	235.79	12.13	-40.6	-42.7	24.6	0.00e+00	0	42	0	0	53	4435
2026-01-19 21:16:51.42	235.62	12.24	-40.5	-42.7	24.7	0.00e+00	0	42	0	0	53	4401
2026-01-19 21:16:52.43	235.46	12.35	-40.5	-42.7	24.7	0.00e+00	0	42	0	0	53	4397
2026-01-19 21:16:53.45	235.28	12.46	-40.4	-42.6	24.8	0.00e+00	0	42	0	0	52	4614
2026-01-19 21:16:54.48	235.11	12.57	-40.5	-42.7	24.7	0.00e+00	0	42	0	0	52	4658
2026-01-19 21:16:55.48	234.94	12.68	-40.6	-42.8	24.6	0.00e+00	0	42	0	0	52	4726
2026-01-19 21:16:56.47	234.77	12.79	-40.6	-42.7	24.7	0.00e+00	0	42	0	0	52	4691
2026-01-19 21:16:57.47	234.59	12.90	-40.7	-42.8	24.6	0.00e+00	0	42	0	0	52	4736
2026-01-19 21:16:58.46	234.42	13.01	-40.6	-42.8	24.6	0.00e+00	0	42	0	0	52	4726
2026-01-19 21:16:59.46	234.24	13.12	-40.7	-42.9	24.6	0.00e+00	0	42	0	0	52	4769
2026-01-19 21:17:00.45	234.06	13.23	-40.6	-42.8	24.6	0.00e+00	0	42	0	0	52	4734
2026-01-19 21:17:01.45	233.88	13.34	-40.6	-42.7	24.7	0.00e+00	0	42	0	0	52	4694
2026-01-19 21:17:02.44	233.70	13.46	-40.2	-42.3	25.0	0.00e+00	0	42	0	0	52	4463
2026-01-19 21:17:03.44	233.52	13.57	-40.2	-42.3	25.0	0.00e+00	0	42	0	0	52	4490
2026-01-19 21:17:04.44	233.33	13.68	-40.1	-42.1	25.2	0.00e+00	0	42	0	0	52	4384
2026-01-19 21:17:05.43	233.14	13.80	-40.0	-42.1	25.2	0.00e+00	0	42	0	0	52	4379
2026-01-19 21:17:06.43	232.95	13.91	-40.0	-42.1	25.2	0.00e+00	0	42	0	0	51	4625
2026-01-19 21:17:07.42	232.76	14.03	-40.1	-42.2	25.2	0.00e+00	0	42	0	0	51	4670
2026-01-19 21:17:08.42	232.57	14.14	-40.2	-42.3	25.1	0.00e+00	0	42	0	0	51	4718
2026-01-19 21:17:09.41	232.37	14.26	-40.3	-42.4	25.1	0.00e+00	0	42	0	0	51	4762
2026-01-19 21:17:10.41	232.17	14.38	-40.3	-42.5	25.0	0.00e+00	0	42	0	0	51	4815
2026-01-19 21:17:11.40	231.97	14.49	-40.2	-42.3	25.1	0.00e+00	0	42	0	0	51	4741
2026-01-19 21:17:12.43	231.77	14.62	-40.1	-42.2	25.2	0.00e+00	0	42	0	0	51	4683
2026-01-19 21:17:13.46	231.55	14.74	-40.1	-42.2	25.2	0.00e+00	0	42	0	0	51	4655
2026-01-19 21:17:14.45	231.35	14.86	-40.0	-42.0	25.3	0.00e+00	0	42	0	0	51	4597
2026-01-19 21:17:15.56	231.12	14.99	-39.8	-41.8	25.5	0.00e+00	0	42	0	0	51	4468
2026-01-19 21:17:16.41	230.94	15.10	-39.8	-41.9	25.4	0.00e+00	0	42	0	0	51	4505
2026-01-19 21:17:17.55	230.69	15.23	-39.8	-41.9	25.5	0.00e+00	0	42	0	0	51	4504
2026-01-19 21:17:18.40	230.51	15.34	-39.8	-41.8	25.4	0.00e+00	0	42	0	0	51	4486
2026-01-19 21:17:19.54	230.26	15.48	-40.0	-42.1	25.3	0.00e+00	0	42	0	0	51	4602
2026-01-19 21:17:20.39	230.07	15.58	-39.8	-41.9	25.5	0.00e+00	0	42	0	0	51	4509
2026-01-19 21:17:21.53	229.82	15.72	-39.6	-41.7	25.6	0.00e+00	0	42	0	0	51	4404
2026-01-19 21:17:22.38	229.63	15.83	-39.7	-41.8	25.6	0.00e+00	0	42	0	0	51	4462
2026-01-19 21:17:23.52	229.37	15.97	-39.8	-41.8	25.5	0.00e+00	0	42	0	0	51	4493
2026-01-19 21:17:24.37	229.17	16.08	-39.6	-41.6	25.6	0.00e+00	0	43	0	0	51	4385
2026-01-19 21:17:25.51	228.91	16.22	-39.4	-41.4	25.8	0.00e+00	0	42	0	0	50	4514
2026-01-19 21:17:26.36	228.71	16.33	-39.3	-41.3	25.9	0.00e+00	0	42	0	0	50	4458
2026-01-19 21:17:27.57	228.42	16.48	-39.2	-41.2	26.0	0.00e+00	0	42	0	0	50	4408
2026-01-19 21:17:28.43	228.22	16.59	-39.0	-41.0	26.1	0.00e+00	0	42	0	0	50	4315
2026-01-19 21:17:29.57	227.94	16.74	-38.8	-40.8	26.3	0.00e+00	0	42	0	0	49	4453
2026-01-19 21:17:30.42	227.73	16.85	-38.9	-40.9	26.2	0.00e+00	0	42	0	0	49	4528
2026-01-19 21:17:31.56	227.45	16.99	-39.2	-41.2	26.0	0.00e+00	0	42	0	0	49	4681
2026-01-19 21:17:32.41	227.24	17.10	-39.2	-41.2	26.0	0.00e+00	0	42	0	0	49	4694
2026-01-19 21:17:33.55	226.95	17.25	-39.2	-41.2	26.0	0.00e+00	0	42	0	0	49	4671
2026-01-19 21:17:34.40	226.73	17.36	-39.2	-41.2	26.0	0.00e+00	0	42	0	0	49	4699
2026-01-19 21:17:35.54	226.43	17.51	-39.2	-41.2	26.0	0.00e+00	0	42	0	0	49	4681
2026-01-19 21:17:36.39	226.21	17.63	-39.3	-41.3	25.9	0.00e+00	0	42	0	0	49	4722
2026-01-19 21:17:37.53	225.91	17.78	-39.1	-41.1	26.1	0.00e+00	0	42	0	0	49	4627
2026-01-19 21:17:38.38	225.68	17.89	-39.0	-41.0	26.2	0.00e+00	0	42	0	0	49	4547
2026-01-19 21:17:39.52	225.38	18.04	-38.9	-40.9	26.2	0.00e+00	0	42	0	0	49	4519
2026-01-19 21:17:40.37	225.14	18.15	-39.0	-41.0	26.0	0.00e+00	0	42	0	0	49	4555
2026-01-19 21:17:41.51	224.83	18.31	-38.9	-40.9	26.2	0.00e+00	0	42	0	0	49	4524
2026-01-19 21:17:42.36	224.59	18.42	-39.0	-41.0	26.1	0.00e+00	0	42	0	0	49	4568
2026-01-19 21:17:43.52	224.26	18.58	-39.0	-40.9	26.2	0.00e+00	0	42	0	0	49	4534
2026-01-19 21:17:44.37	224.02	18.69	-39.0	-41.0	26.1	0.00e+00	0	42	0	0	49	4580
2026-01-19 21:17:45.51	223.69	18.85	-38.6	-40.6	26.5	0.00e+00	0	42	0	0	49	4348
2026-01-19 21:17:46.36	223.44	18.96	-38.6	-40.5	26.6	0.00e+00	0	43	0	0	49	4314
2026-01-19 21:17:47.50	223.11	19.12	-38.7	-40.7	26.4	0.00e+00	0	42	0	0	49	4411
2026-01-19 21:17:48.35	222.86	19.23	-38.8	-40.8	26.4	0.00e+00	0	42	0	0	49	4450
2026-01-19 21:17:49.69	222.45	19.42	-38.8	-40.8	26.4	0.00e+00	0	42	0	0	49	4451
2026-01-19 21:17:50.40	222.23	19.52	-38.8	-40.8	26.3	0.00e+00	0	42	0	0	49	4473
2026-01-19 21:17:51.68	221.84	19.69	-38.6	-40.6	26.4	0.00e+00	0	43	0	0	49	4362
2026-01-19 21:17:52.41	221.61	19.79	-38.5	-40.4	26.6	0.00e+00	0	42	0	0	49	4273
2026-01-19 21:17:53.69	221.21	19.97	-38.2	-40.1	26.8	0.00e+00	0	43	0	0	48	4380
2026-01-19 21:17:54.38	220.99	20.07	-38.2	-40.1	26.8	0.00e+00	0	42	0	0	48	4386
2026-01-19 21:17:55.80	220.53	20.26	-38.0	-39.9	27.0	0.00e+00	0	42	0	0	48	4277
2026-01-19 21:17:56.51	220.30	20.36	-38.0	-39.9	27.0	0.00e+00	0	43	0	0	48	4291
2026-01-19 21:17:57.79	219.88	20.54	-38.3	-40.2	26.8	0.00e+00	0	43	0	0	48	4413
2026-01-19 21:17:58.52	219.63	20.64	-38.4	-40.3	26.7	0.00e+00	0	42	0	0	48	4464
2026-01-19 21:17:59.80	219.20	20.82	-38.5	-40.5	26.6	0.00e+00	0	42	0	0	48	4546
2026-01-19 21:18:00.55	218.95	20.93	-38.4	-40.3	26.7	0.00e+00	0	42	0	0	48	4462
2026-01-19 21:18:01.84	218.50	21.11	-38.2	-40.1	26.8	0.00e+00	0	42	0	0	48	4387
2026-01-19 21:18:02.55	218.25	21.21	-38.0	-40.0	26.9	0.00e+00	0	42	0	0	48	4292
2026-01-19 21:18:03.82	217.81	21.39	-37.8	-39.7	26.9	0.00e+00	0	42	0	0	47	4441
2026-01-19 21:18:04.68	217.50	21.51	-37.7	-39.6	27.0	0.00e+00	0	42	0	0	47	4374
2026-01-19 21:18:05.81	217.09	21.66	-37.7	-39.6	27.1	0.00e+00	0	42	0	0	47	4366
2026-01-19 21:18:06.67	216.78	21.79	-37.6	-39.5	27.2	0.00e+00	0	42	0	0	47	4328
2026-01-19 21:18:07.80	216.36	21.94	-37.8	-39.7	27.0	0.00e+00	0	42	0	0	47	4433
2026-01-19 21:18:08.66	216.04	22.07	-37.9	-39.8	26.9	0.00e+00	0	42	0	0	47	4486
2026-01-19 21:18:09.80	215.62	22.23	-38.0	-39.9	26.9	0.00e+00	0	42	0	0	47	4520
2026-01-19 21:18:10.65	215.29	22.34	-37.9	-39.9	26.9	0.00e+00	0	42	0	0	47	4511
2026-01-19 21:18:11.79	214.86	22.50	-38.1	-40.0	26.9	0.00e+00	0	43	0	0	47	4582
2026-01-19 21:18:12.64	214.53	22.62	-38.1	-40.1	26.8	0.00e+00	0	43	0	0	47	4626
2026-01-19 21:18:13.78	214.08	22.78	-37.9	-39.9	26.9	0.00e+00	0	42	0	0	47	4507
2026-01-19 21:18:14.63	213.74	22.90	-37.8	-39.7	27.1	0.00e+00	0	42	0	0	47	4410
2026-01-19 21:18:15.88	213.24	23.08	-37.5	-39.4	27.1	0.00e+00	0	42	0	0	46	4497
2026-01-19 21:18:16.73	212.90	23.19	-37.2	-39.1	27.4	0.00e+00	0	42	0	0	46	4372
2026-01-19 21:18:17.87	212.43	23.35	-37.4	-39.3	27.3	0.00e+00	0	43	0	0	46	4463
2026-01-19 21:18:18.72	212.08	23.47	-37.5	-39.4	27.3	0.00e+00	0	42	0	0	46	4504
2026-01-19 21:18:19.86	211.60	23.63	-37.7	-39.6	27.1	0.00e+00	0	42	0	0	46	4643
2026-01-19 21:18:20.71	211.24	23.74	-37.6	-39.5	27.1	0.00e+00	0	43	0	0	46	4585
2026-01-19 21:18:22.05	210.67	23.93	-37.6	-39.5	27.1	0.00e+00	0	42	0	0	46	4575
2026-01-19 21:18:22.76	210.36	24.02	-37.6	-39.5	27.2	0.00e+00	0	43	0	0	46	4551
2026-01-19 21:18:24.04	209.80	24.20	-37.7	-39.6	27.1	0.00e+00	0	42	0	0	46	4632
2026-01-19 21:18:24.75	209.49	24.29	-37.6	-39.5	27.2	0.00e+00	0	42	0	0	46	4597
2026-01-19 21:18:26.03	208.92	24.46	-37.6	-39.6	27.2	0.00e+00	0	42	0	0	46	4605
2026-01-19 21:18:26.76	208.59	24.56	-37.7	-39.6	27.1	0.00e+00	0	42	0	0	46	4619
2026-01-19 21:18:28.04	208.01	24.73	-37.5	-39.4	27.3	0.00e+00	0	42	0	0	46	4520
2026-01-19 21:18:28.75	207.69	24.82	-37.4	-39.3	27.3	0.00e+00	0	42	0	0	46	4492
2026-01-19 21:18:30.03	207.10	24.99	-37.2	-39.1	27.4	0.00e+00	0	42	0	0	46	4376
2026-01-19 21:18:30.74	206.76	25.08	-37.2	-39.1	27.5	0.00e+00	0	42	0	0	46	4378
2026-01-19 21:18:32.02	206.16	25.25	-37.2	-39.1	27.5	0.00e+00	0	42	0	0	46	4354
2026-01-19 21:18:32.74	205.82	25.34	-37.4	-39.3	27.4	0.00e+00	0	42	0	0	46	4469
2026-01-19 21:18:34.10	205.16	25.51	-37.4	-39.3	27.4	0.00e+00	0	43	0	0	46	4474
2026-01-19 21:18:34.81	204.82	25.60	-37.5	-39.4	27.3	0.00e+00	0	43	0	0	46	4518
2026-01-19 21:18:36.15	204.16	25.77	-37.4	-39.3	27.3	0.00e+00	0	43	0	0	46	4442
2026-01-19 21:18:36.86	203.81	25.86	-37.2	-39.1	27.5	0.00e+00	0	42	0	0	46	4352
2026-01-19 21:18:38.22	203.13	26.02	-37.2	-39.1	27.5	0.00e+00	0	43	0	0	46	4349
2026-01-19 21:18:38.93	202.78	26.11	-37.0	-38.9	27.6	0.00e+00	0	42	0	0	46	4243
2026-01-19 21:18:40.25	202.11	26.26	-37.0	-38.9	27.6	0.00e+00	0	42	0	0	45	4518
2026-01-19 21:18:40.96	201.74	26.35	-37.2	-39.1	27.5	0.00e+00	0	42	0	0	45	4612
2026-01-19 21:18:42.26	201.07	26.49	-37.2	-39.1	27.5	0.00e+00	0	43	0	0	45	4631
2026-01-19 21:18:42.97	200.70	26.58	-37.1	-39.0	27.6	0.00e+00	0	43	0	0	45	4559
2026-01-19 21:18:44.25	200.03	26.72	-37.1	-38.9	27.6	0.00e+00	0	43	0	0	45	4537
2026-01-19 21:18:44.97	199.65	26.80	-37.0	-38.9	27.6	0.00e+00	0	42	0	0	45	4517
2026-01-19 21:18:46.25	198.97	26.94	-36.8	-38.7	27.7	0.00e+00	0	42	0	0	45	4409
2026-01-19 21:18:46.98	198.57	27.01	-36.8	-38.6	27.8	0.00e+00	0	43	0	0	45	4371
2026-01-19 21:18:48.26	197.88	27.15	-37.0	-38.8	27.6	0.00e+00	0	42	0	0	45	4487
2026-01-19 21:18:48.97	197.49	27.22	-37.0	-38.9	27.6	0.00e+00	0	42	0	0	45	4508
2026-01-19 21:18:50.25	196.79	27.35	-37.1	-38.9	27.6	0.00e+00	0	43	0	0	45	4530
2026-01-19 21:18:50.99	196.38	27.42	-36.9	-38.7	27.7	0.00e+00	0	42	0	0	45	4437
2026-01-19 21:18:52.27	195.67	27.54	-36.7	-38.5	27.8	0.00e+00	0	43	0	0	45	4339
2026-01-19 21:18:53.00	195.26	27.61	-36.8	-38.7	27.7	0.00e+00	0	42	0	0	45	4402
2026-01-19 21:18:54.28	194.54	27.73	-37.0	-38.9	27.6	0.00e+00	0	43	0	0	45	4522
2026-01-19 21:18:54.99	194.13	27.79	-37.0	-38.9	27.6	0.00e+00	0	42	0	0	45	4525
2026-01-19 21:18:56.27	193.40	27.90	-37.1	-38.9	27.5	0.00e+00	0	43	0	0	45	4543
2026-01-19 21:18:56.98	192.99	27.96	-36.9	-38.7	27.7	0.00e+00	0	43	0	0	45	4429
2026-01-19 21:18:58.26	192.25	28.07	-36.6	-38.5	27.8	0.00e+00	0	43	0	0	45	4310
2026-01-19 21:18:59.22	191.69	28.14	-36.5	-38.3	28.0	0.00e+00	0	43	0	0	44	4472
2026-01-19 21:19:00.22	191.11	28.22	-36.8	-38.7	27.5	0.00e+00	0	43	0	0	44	4675
2026-01-19 21:19:01.21	190.52	28.29	-36.7	-38.5	27.8	0.00e+00	0	42	0	0	44	4574
2026-01-19 21:19:02.20	189.94	28.36	-36.7	-38.5	27.8	0.00e+00	0	43	0	0	44	4591
2026-01-19 21:19:03.20	189.34	28.43	-36.7	-38.6	27.8	0.00e+00	0	43	0	0	44	4602
2026-01-19 21:19:04.20	188.75	28.49	-36.6	-38.4	27.9	0.00e+00	0	43	0	0	44	4526
2026-01-19 21:19:05.19	188.15	28.56	-36.9	-38.8	27.7	0.00e+00	0	43	0	0	44	4722
2026-01-19 21:19:06.19	187.55	28.61	-37.0	-38.8	27.6	0.00e+00	0	42	0	0	44	4754
2026-01-19 21:19:07.19	186.95	28.67	-37.3	-39.2	27.4	0.00e+00	0	42	0	0	45	4670
2026-01-19 21:19:08.18	186.34	28.72	-37.4	-39.3	27.3	0.00e+00	0	42	0	0	45	4733
2026-01-19 21:19:09.22	185.71	28.77	-37.5	-39.4	27.3	0.00e+00	0	43	0	0	45	4794
2026-01-19 21:19:10.25	185.08	28.82	-37.5	-39.4	27.3	0.00e+00	0	42	0	0	45	4783
2026-01-19 21:19:11.24	184.47	28.86	-37.4	-39.3	27.4	0.00e+00	0	42	0	0	45	4727
2026-01-19 21:19:12.24	183.86	28.90	-37.6	-39.5	27.2	0.00e+00	0	43	0	0	46	4585
2026-01-19 21:19:13.23	183.25	28.94	-37.6	-39.5	27.2	0.00e+00	0	43	0	0	46	4559
2026-01-19 21:19:14.23	182.63	28.97	-37.2	-39.1	27.5	0.00e+00	0	42	0	0	46	4378
2026-01-19 21:19:15.23	182.01	29.00	-36.9	-38.8	27.6	0.00e+00	0	43	0	0	45	4483
2026-01-19 21:19:16.43	181.27	29.04	-37.0	-38.9	27.6	0.00e+00	0	43	0	0	45	4517
2026-01-19 21:19:17.31	180.72	29.06	-36.9	-38.8	27.7	0.00e+00	0	42	0	0	45	4444
2026-01-19 21:19:18.45	180.01	29.08	-37.2	-39.1	27.5	0.00e+00	0	43	0	0	45	4630
2026-01-19 21:19:19.30	179.48	29.09	-37.3	-39.2	27.4	0.00e+00	0	43	0	0	45	4679
2026-01-19 21:19:20.44	178.77	29.11	-37.3	-39.2	27.4	0.00e+00	0	42	0	0	45	4659
2026-01-19 21:19:21.29	178.23	29.12	-37.2	-39.1	27.4	0.00e+00	0	43	0	0	45	4610
2026-01-19 21:19:22.42	177.53	29.12	-37.1	-39.0	27.5	0.00e+00	0	42	0	0	45	4570
2026-01-19 21:19:23.28	176.99	29.12	-36.9	-38.7	27.7	0.00e+00	0	43	0	0	45	4438
2026-01-19 21:19:24.41	176.28	29.12	-37.0	-38.9	27.6	0.00e+00	0	42	0	0	45	4535
2026-01-19 21:19:25.27	175.75	29.12	-37.2	-39.1	27.5	0.00e+00	0	43	0	0	45	4619
2026-01-19 21:19:26.40	175.04	29.11	-37.2	-39.1	27.4	0.00e+00	0	43	0	0	45	4633
2026-01-19 21:19:27.26	174.50	29.10	-37.3	-39.2	27.4	0.00e+00	0	42	0	0	45	4663
2026-01-19 21:19:28.39	173.80	29.09	-37.0	-38.9	27.6	0.00e+00	0	43	0	0	45	4514
2026-01-19 21:19:29.25	173.26	29.07	-37.0	-38.9	27.6	0.00e+00	0	43	0	0	45	4500
2026-01-19 21:19:30.38	172.56	29.05	-37.1	-39.0	27.5	0.00e+00	0	42	0	0	45	4556
2026-01-19 21:19:31.24	172.02	29.03	-37.2	-39.0	27.5	0.00e+00	0	43	0	0	45	4595
2026-01-19 21:19:32.38	171.32	28.99	-37.1	-39.0	27.5	0.00e+00	0	42	0	0	45	4577
2026-01-19 21:19:33.23	170.79	28.97	-37.1	-39.0	27.5	0.00e+00	0	43	0	0	45	4578
2026-01-19 21:19:34.37	170.08	28.93	-37.3	-39.2	27.4	0.00e+00	0	43	0	0	45	4689
2026-01-19 21:19:35.22	169.56	28.90	-37.3	-39.2	27.3	0.00e+00	0	43	0	0	45	4692
2026-01-19 21:19:36.67	168.67	28.84	-37.3	-39.2	27.4	0.00e+00	0	43	0	0	45	4685
2026-01-19 21:19:37.38	168.24	28.81	-37.3	-39.2	27.4	0.00e+00	0	43	0	0	45	4678
2026-01-19 21:19:38.67	167.45	28.74	-36.9	-38.8	27.7	0.00e+00	0	43	0	0	44	4713
2026-01-19 21:19:39.39	167.01	28.71	-37.0	-38.9	27.6	0.00e+00	0	42	0	0	44	4801
2026-01-19 21:19:40.67	166.24	28.64	-37.1	-39.0	27.5	0.00e+00	0	43	0	0	45	4585
2026-01-19 21:19:41.38	165.81	28.60	-37.1	-39.0	27.4	0.00e+00	0	43	0	0	45	4593
2026-01-19 21:19:42.66	165.04	28.52	-37.2	-39.1	27.5	0.00e+00	0	43	0	0	45	4611
2026-01-19 21:19:43.47	164.55	28.47	-37.2	-39.1	27.5	0.00e+00	0	43	0	0	45	4619
2026-01-19 21:19:44.60	163.88	28.39	-37.0	-38.9	27.5	0.00e+00	0	43	0	0	45	4532
2026-01-19 21:19:45.68	163.24	28.32	-36.9	-38.7	27.7	0.00e+00	0	43	0	0	45	4433
2026-01-19 21:19:46.70	162.64	28.25	-36.9	-38.8	27.6	0.00e+00	0	42	0	0	45	4457
2026-01-19 21:19:47.87	161.95	28.16	-36.9	-38.7	27.6	0.00e+00	0	43	0	0	45	4430
2026-01-19 21:19:48.72	161.46	28.09	-36.9	-38.7	27.6	0.00e+00	0	43	0	0	45	4440
2026-01-19 21:19:50.06	160.68	27.98	-36.8	-38.7	27.6	0.00e+00	0	43	0	0	45	4425
2026-01-19 21:19:50.78	160.27	27.92	-36.8	-38.7	27.7	0.00e+00	0	43	0	0	45	4425
2026-01-19 21:19:52.26	159.42	27.80	-36.6	-38.5	27.8	0.00e+00	0	42	0	0	45	4308
2026-01-19 21:19:52.97	159.02	27.73	-36.6	-38.5	27.8	0.00e+00	0	43	0	0	45	4309
2026-01-19 21:19:54.25	158.29	27.62	-36.6	-38.5	27.8	0.00e+00	0	43	0	0	45	4307
2026-01-19 21:19:54.96	157.90	27.55	-36.6	-38.5	27.8	0.00e+00	0	43	0	0	45	4302
2026-01-19 21:19:56.24	157.18	27.43	-36.2	-38.1	28.0	0.00e+00	0	43	0	0	44	4341
2026-01-19 21:19:56.95	156.79	27.36	-36.2	-38.0	28.1	0.00e+00	0	43	0	0	44	4331
2026-01-19 21:19:58.22	156.09	27.23	-36.4	-38.3	28.0	0.00e+00	0	42	0	0	44	4451
2026-01-19 21:19:58.94	155.70	27.16	-36.7	-38.6	27.7	0.00e+00	0	43	0	0	44	4624
2026-01-19 21:20:00.21	155.01	27.02	-37.2	-39.1	27.1	0.00e+00	0	43	0	0	45	4624
2026-01-19 21:20:00.93	154.63	26.95	-37.4	-39.4	27.3	0.00e+00	0	43	0	0	45	4764
2026-01-19 21:20:02.20	153.95	26.81	-37.3	-39.2	27.3	0.00e+00	0	43	0	0	45	4668
2026-01-19 21:20:03.09	153.48	26.71	-37.0	-38.9	27.5	0.00e+00	0	43	0	0	45	4544
2026-01-19 21:20:04.22	152.89	26.59	-37.0	-38.9	27.5	0.00e+00	0	43	0	0	45	4517
2026-01-19 21:20:05.08	152.44	26.49	-37.0	-38.8	27.5	0.00e+00	0	43	0	0	45	4493
2026-01-19 21:20:06.21	151.86	26.36	-37.3	-39.2	27.4	0.00e+00	0	43	0	0	45	4698
2026-01-19 21:20:07.07	151.41	26.26	-37.4	-39.4	27.2	0.00e+00	0	43	0	0	45	4777
2026-01-19 21:20:08.20	150.84	26.13	-37.3	-39.2	27.4	0.00e+00	0	43	0	0	45	4691
2026-01-19 21:20:09.05	150.41	26.02	-37.5	-39.4	27.2	0.00e+00	0	43	0	0	45	4810
2026-01-19 21:20:10.19	149.85	25.89	-37.6	-39.6	27.1	0.00e+00	0	43	0	0	46	4622
2026-01-19 21:20:11.05	149.42	25.78	-37.6	-39.5	27.2	0.00e+00	0	43	0	0	46	4569
2026-01-19 21:20:12.18	148.87	25.64	-37.5	-39.4	27.2	0.00e+00	0	43	0	0	46	4543
2026-01-19 21:20:13.03	148.45	25.53	-37.6	-39.5	27.1	0.00e+00	0	43	0	0	46	4566
2026-01-19 21:20:14.17	147.91	25.39	-37.4	-39.4	27.2	0.00e+00	0	43	0	0	46	4497
2026-01-19 21:20:15.02	147.50	25.28	-37.3	-39.2	27.4	0.00e+00	0	43	0	0	46	4408
2026-01-19 21:20:16.16	146.96	25.14	-37.3	-39.2	27.3	0.00e+00	0	43	0	0	46	4436
2026-01-19 21:20:17.13	146.51	25.01	-37.4	-39.4	27.2	0.00e+00	0	43	0	0	46	4496
2026-01-19 21:20:18.12	146.05	24.88	-37.6	-39.5	27.1	0.00e+00	0	43	0	0	46	4573
2026-01-19 21:20:19.32	145.50	24.72	-37.5	-39.4	27.2	0.00e+00	0	43	0	0	46	4517
2026-01-19 21:20:20.20	145.10	24.61	-37.4	-39.3	27.3	0.00e+00	0	43	0	0	46	4458
2026-01-19 21:20:21.34	144.59	24.46	-37.2	-39.1	27.3	0.00e+00	0	43	0	0	46	4384
2026-01-19 21:20:22.19	144.21	24.34	-37.0	-38.9	27.5	0.00e+00	0	43	0	0	46	4291
2026-01-19 21:20:23.57	143.60	24.16	-37.1	-39.0	27.5	0.00e+00	0	43	0	0	45	4555
2026-01-19 21:20:24.28	143.29	24.06	-37.2	-39.1	27.4	0.00e+00	0	42	0	0	45	4639
2026-01-19 21:20:25.56	142.74	23.89	-37.6	-39.6	27.1	0.00e+00	0	43	0	0	45	4894
2026-01-19 21:20:26.27	142.44	23.79	-37.8	-39.8	26.9	0.00e+00	0	43	0	0	46	4712
2026-01-19 21:20:27.55	141.90	23.61	-37.8	-39.8	26.9	0.00e+00	0	42	0	0	46	4727
2026-01-19 21:20:28.26	141.60	23.52	-37.9	-39.8	26.9	0.00e+00	0	43	0	0	46	4731
2026-01-19 21:20:29.54	141.07	23.34	-37.6	-39.5	27.1	0.00e+00	0	43	0	0	46	4578
2026-01-19 21:20:30.25	140.78	23.24	-37.4	-39.3	27.3	0.00e+00	0	43	0	0	46	4449
2026-01-19 21:20:31.53	140.26	23.06	-37.3	-39.3	27.3	0.00e+00	0	43	0	0	46	4444
2026-01-19 21:20:32.24	139.98	22.96	-37.6	-39.5	27.1	0.00e+00	0	42	0	0	46	4569
2026-01-19 21:20:33.52	139.47	22.79	-37.8	-39.7	26.9	0.00e+00	0	43	0	0	46	4671
2026-01-19 21:20:34.23	139.19	22.69	-37.8	-39.8	26.8	0.00e+00	0	43	0	0	46	4718
2026-01-19 21:20:35.51	138.69	22.51	-37.8	-39.7	26.9	0.00e+00	0	43	0	0	46	4695
2026-01-19 21:20:36.22	138.42	22.41	-37.8	-39.7	26.8	0.00e+00	0	43	0	0	46	4697
2026-01-19 21:20:37.50	137.93	22.23	-37.9	-39.8	26.9	0.00e+00	0	43	0	0	46	4732
2026-01-19 21:20:38.22	137.66	22.13	-37.9	-39.8	26.9	0.00e+00	0	43	0	0	46	4734
2026-01-19 21:20:39.63	137.14	21.93	-37.9	-39.9	26.7	0.00e+00	0	43	0	0	46	4775
2026-01-19 21:20:40.34	136.88	21.83	-37.8	-39.8	26.9	0.00e+00	0	43	0	0	46	4713
2026-01-19 21:20:41.62	136.41	21.65	-38.0	-39.9	26.8	0.00e+00	0	43	0	0	46	4798
2026-01-19 21:20:42.67	136.03	21.50	-38.0	-40.0	26.7	0.00e+00	0	42	0	0	46	4842
2026-01-19 21:20:43.54	135.72	21.38	-38.2	-40.2	26.6	0.00e+00	0	43	0	0	47	4690
2026-01-19 21:20:44.68	135.32	21.22	-38.3	-40.3	26.5	0.00e+00	0	43	0	0	47	4727
2026-01-19 21:20:45.53	135.03	21.10	-38.4	-40.4	26.5	0.00e+00	0	43	0	0	47	4768
2026-01-19 21:20:46.67	134.63	20.94	-38.4	-40.4	26.5	0.00e+00	0	43	0	0	47	4767
2026-01-19 21:20:47.52	134.35	20.83	-38.2	-40.2	26.6	0.00e+00	0	43	0	0	47	4656
2026-01-19 21:20:48.66	133.96	20.67	-38.1	-40.1	26.6	0.00e+00	0	43	0	0	47	4626
2026-01-19 21:20:49.51	133.68	20.55	-38.1	-40.0	26.7	0.00e+00	0	43	0	0	47	4592
2026-01-19 21:20:50.65	133.30	20.39	-38.3	-40.3	26.5	0.00e+00	0	43	0	0	47	4708
2026-01-19 21:20:51.50	133.03	20.27	-38.4	-40.4	26.4	0.00e+00	0	43	0	0	47	4774
2026-01-19 21:20:52.64	132.66	20.11	-38.5	-40.5	26.4	0.00e+00	0	43	0	0	47	4843
2026-01-19 21:20:53.49	132.39	19.99	-38.3	-40.3	26.5	0.00e+00	0	43	0	0	47	4745
2026-01-19 21:20:54.63	132.03	19.84	-38.2	-40.2	26.5	0.00e+00	0	43	0	0	47	4680
2026-01-19 21:20:55.48	131.76	19.72	-38.5	-40.5	26.3	0.00e+00	0	43	0	0	47	4855
2026-01-19 21:20:56.62	131.41	19.56	-38.5	-40.5	26.4	0.00e+00	0	43	0	0	47	4829
2026-01-19 21:20:57.47	131.15	19.45	-38.6	-40.6	26.3	0.00e+00	0	43	0	0	47	4915
2026-01-19 21:20:58.61	130.81	19.29	-38.8	-40.8	26.2	0.00e+00	0	43	0	0	48	4718
2026-01-19 21:20:59.81	130.45	19.13	-38.7	-40.6	26.3	0.00e+00	0	43	0	0	48	4642
2026-01-19 21:21:00.67	130.20	19.01	-38.6	-40.5	26.4	0.00e+00	0	43	0	0	48	4579
2026-01-19 21:21:01.80	129.87	18.86	-38.6	-40.6	26.4	0.00e+00	0	43	0	0	48	4622
2026-01-19 21:21:02.66	129.62	18.74	-38.7	-40.7	26.3	0.00e+00	0	43	0	0	48	4666
2026-01-19 21:21:03.79	129.30	18.59	-38.8	-40.7	26.2	0.00e+00	0	43	0	0	48	4702
2026-01-19 21:21:04.65	129.05	18.47	-38.9	-40.9	26.2	0.00e+00	0	43	0	0	48	4765
2026-01-19 21:21:05.79	128.73	18.32	-38.9	-40.8	26.2	0.00e+00	0	43	0	0	48	4756
2026-01-19 21:21:06.64	128.50	18.20	-38.7	-40.6	26.3	0.00e+00	0	43	0	0	48	4645
2026-01-19 21:21:07.77	128.19	18.05	-38.7	-40.7	26.2	0.00e+00	0	43	0	0	48	4678
2026-01-19 21:21:08.63	127.96	17.94	-38.9	-40.9	26.1	0.00e+00	0	43	0	0	48	4787
2026-01-19 21:21:09.91	127.62	17.77	-39.0	-41.1	26.0	0.00e+00	0	43	0	0	48	4879
2026-01-19 21:21:10.62	127.43	17.68	-39.1	-41.1	26.0	0.00e+00	0	42	0	0	48	4881
2026-01-19 21:21:12.10	127.04	17.48	-38.9	-40.9	26.1	0.00e+00	0	43	0	0	48	4796
2026-01-19 21:21:12.81	126.86	17.39	-38.9	-40.9	26.1	0.00e+00	0	43	0	0	48	4813
2026-01-19 21:21:14.09	126.53	17.22	-39.0	-40.9	25.9	0.00e+00	0	43	0	0	48	4812
2026-01-19 21:21:14.80	126.35	17.13	-39.1	-41.1	26.0	0.00e+00	0	43	0	0	48	4877
2026-01-19 21:21:16.20	126.00	16.95	-39.2	-41.3	25.8	0.00e+00	0	43	0	0	49	4710
2026-01-19 21:21:16.92	125.83	16.86	-39.3	-41.4	25.7	0.00e+00	0	43	0	0	49	4766
2026-01-19 21:21:18.20	125.51	16.69	-39.4	-41.5	25.6	0.00e+00	0	43	0	0	49	4821
2026-01-19 21:21:18.94	125.33	16.60	-39.4	-41.4	25.7	0.00e+00	0	43	0	0	49	4784
2026-01-19 21:21:20.22	125.03	16.43	-39.4	-41.4	25.7	0.00e+00	0	43	0	0	49	4786
2026-01-19 21:21:20.94	124.86	16.34	-39.2	-41.3	25.8	0.00e+00	0	43	0	0	49	4706
2026-01-19 21:21:22.22	124.56	16.18	-39.2	-41.2	25.9	0.00e+00	0	43	0	0	49	4657
2026-01-19 21:21:22.93	124.39	16.09	-39.3	-41.3	25.7	0.00e+00	0	43	0	0	49	4725
2026-01-19 21:21:24.21	124.10	15.93	-39.4	-41.4	25.7	0.00e+00	0	43	0	0	49	4798
2026-01-19 21:21:24.92	123.94	15.84	-39.4	-41.5	25.6	0.00e+00	0	43	0	0	49	4825
2026-01-19 21:21:26.20	123.65	15.69	-39.6	-41.7	25.5	0.00e+00	0	43	0	0	49	4931
2026-01-19 21:21:26.91	123.50	15.60	-39.6	-41.7	25.4	0.00e+00	0	43	0	0	49	4972
2026-01-19 21:21:28.19	123.21	15.44	-39.9	-42.0	25.2	0.00e+00	0	43	0	0	50	4850
2026-01-19 21:21:28.90	123.06	15.35	-40.0	-42.2	25.1	0.00e+00	0	43	0	0	50	4947
2026-01-19 21:21:30.18	122.78	15.20	-40.2	-42.3	25.0	0.00e+00	0	42	0	0	51	4753
2026-01-19 21:21:30.89	122.63	15.11	-40.3	-42.4	24.9	0.00e+00	0	43	0	0	51	4806
2026-01-19 21:21:32.20	122.36	14.95	-40.2	-42.3	25.0	0.00e+00	0	43	0	0	51	4744
2026-01-19 21:21:32.91	122.21	14.87	-40.1	-42.2	25.1	0.00e+00	0	43	0	0	51	4677
2026-01-19 21:21:34.22	121.94	14.71	-40.1	-42.2	25.1	0.00e+00	0	43	0	0	51	4689
2026-01-19 21:21:34.94	121.79	14.63	-40.0	-42.2	25.1	0.00e+00	0	43	0	0	51	4660
2026-01-19 21:21:36.21	121.54	14.48	-40.1	-42.2	25.0	0.00e+00	0	43	0	0	51	4695
2026-01-19 21:21:36.94	121.39	14.39	-40.2	-42.3	25.0	0.00e+00	0	43	0	0	51	4730
2026-01-19 21:21:38.22	121.14	14.24	-40.5	-42.6	24.7	0.00e+00	0	43	0	0	51	4911
2026-01-19 21:21:38.97	120.99	14.15	-40.6	-42.8	24.6	0.00e+00	0	43	0	0	51	4986
2026-01-19 21:21:40.25	120.74	14.00	-40.5	-42.7	24.6	0.00e+00	0	43	0	0	52	4679
2026-01-19 21:21:40.96	120.61	13.92	-40.6	-42.7	24.6	0.00e+00	0	43	0	0	52	4689
2026-01-19 21:21:42.24	120.36	13.77	-40.6	-42.7	24.6	0.00e+00	0	43	0	0	52	4685
2026-01-19 21:21:42.96	120.23	13.69	-40.4	-42.6	24.7	0.00e+00	0	43	0	0	52	4617
2026-01-19 21:21:44.24	119.99	13.54	-40.4	-42.5	24.7	0.00e+00	0	43	0	0	52	4573
2026-01-19 21:21:44.96	119.86	13.46	-40.5	-42.6	24.7	0.00e+00	0	43	0	0	52	4618
2026-01-19 21:21:46.24	119.62	13.32	-40.6	-42.8	24.6	0.00e+00	0	43	0	0	52	4711
2026-01-19 21:21:46.95	119.49	13.24	-40.6	-42.8	24.5	0.00e+00	0	43	0	0	52	4737
2026-01-19 21:21:48.23	119.26	13.09	-40.8	-43.0	24.3	0.00e+00	0	43	0	0	52	4823
2026-01-19 21:21:48.95	119.14	13.01	-40.9	-43.1	24.3	0.00e+00	0	43	0	0	52	4890
2026-01-19 21:21:50.23	118.91	12.87	-40.9	-43.1	24.2	0.00e+00	0	43	0	0	52	4921
2026-01-19 21:21:50.94	118.79	12.79	-40.8	-43.1	24.3	0.00e+00	0	43	0	0	52	4875
2026-01-19 21:21:52.27	118.56	12.65	-40.9	-43.2	24.2	0.00e+00	0	43	0	0	52	4939
2026-01-19 21:21:52.98	118.44	12.57	-40.9	-43.1	24.2	0.00e+00	0	43	0	0	52	4919
2026-01-19 21:21:54.26	118.22	12.43	-40.9	-43.1	24.2	0.00e+00	0	43	0	0	52	4926
2026-01-19 21:21:55.00	118.10	12.35	-41.0	-43.2	24.1	0.00e+00	0	43	0	0	52	4982
2026-01-19 21:21:56.28	117.89	12.21	-41.1	-43.3	24.0	0.00e+00	0	43	0	0	52	5004
2026-01-19 21:21:57.00	117.77	12.14	-41.1	-43.3	24.0	0.00e+00	0	43	0	0	52	5024
2026-01-19 21:21:58.28	117.56	12.00	-41.1	-43.4	24.0	0.00e+00	0	43	0	0	52	5046
2026-01-19 21:21:58.99	117.45	11.92	-41.2	-43.5	23.9	0.00e+00	0	43	0	0	53	4838
2026-01-19 21:22:00.27	117.25	11.79	-41.3	-43.6	23.8	0.00e+00	0	43	0	0	53	4895
2026-01-19 21:22:00.99	117.13	11.71	-41.3	-43.6	23.8	0.00e+00	0	43	0	0	53	4907
2026-01-19 21:22:02.28	116.93	11.58	-41.3	-43.6	23.8	0.00e+00	0	43	0	0	53	4902
2026-01-19 21:22:02.99	116.82	11.50	-41.3	-43.6	23.7	0.00e+00	0	43	0	0	53	4914
2026-01-19 21:22:04.26	116.63	11.37	-41.6	-43.9	23.5	0.00e+00	0	43	0	0	53	5052
2026-01-19 21:22:04.98	116.52	11.30	-41.5	-43.9	23.5	0.00e+00	0	43	0	0	53	5049
2026-01-19 21:22:06.25	116.33	11.17	-41.6	-44.0	23.4	0.00e+00	0	43	0	0	53	5123
2026-01-19 21:22:07.20	116.19	11.07	-41.8	-44.2	23.2	0.00e+00	0	43	0	0	54	4956
2026-01-19 21:22:08.48	116.00	10.94	-42.0	-44.3	23.1	0.00e+00	0	43	0	0	54	5039
2026-01-19 21:22:09.20	115.89	10.87	-41.9	-44.3	23.2	0.00e+00	0	43	0	0	54	4984
2026-01-19 21:22:10.81	115.66	10.71	-41.7	-44.1	23.3	0.00e+00	0	43	0	0	54	4911
2026-01-19 21:22:11.38	115.58	10.65	-41.8	-44.2	23.2	0.00e+00	0	43	0	0	54	4944
2026-01-19 21:22:13.09	115.34	10.48	-41.7	-44.0	23.3	0.00e+00	0	43	0	0	54	4856
2026-01-19 21:22:13.66	115.26	10.42	-41.6	-43.9	23.4	0.00e+00	0	43	0	0	54	4814
2026-01-19 21:22:15.36	115.02	10.26	-41.7	-44.0	23.4	0.00e+00	0	43	0	0	54	4835
2026-01-19 21:22:15.93	114.95	10.20	-41.8	-44.1	23.3	0.00e+00	0	43	0	0	54	4909
2026-01-19 21:22:17.64	114.71	10.03	-42.1	-44.5	22.9	0.00e+00	0	43	0	0	54	5118
2026-01-19 21:22:18.21	114.64	9.98	-42.2	-44.6	22.8	0.00e+00	0	42	0	0	54	5193
2026-01-19 21:22:19.91	114.41	9.81	-42.3	-44.7	22.7	0.00e+00	0	43	0	0	55	4982
2026-01-19 21:22:20.48	114.34	9.76	-42.4	-44.9	22.6	0.00e+00	0	43	0	0	55	5049
2026-01-19 21:22:22.18	114.12	9.60	-42.5	-45.1	22.4	0.00e+00	0	43	0	0	55	5160
2026-01-19 21:22:22.90	114.02	9.53	-42.5	-45.1	22.4	0.00e+00	0	43	0	0	55	5164
2026-01-19 21:22:24.18	113.86	9.41	-42.5	-45.1	22.3	0.00e+00	0	43	0	0	55	5165
2026-01-19 21:22:24.91	113.77	9.34	-42.6	-45.1	22.3	0.00e+00	0	43	0	0	55	5215
2026-01-19 21:22:26.18	113.61	9.22	-42.6	-45.1	22.3	0.00e+00	0	43	0	0	55	5205
2026-01-19 21:22:27.18	113.49	9.13	-42.9	-45.5	22.2	0.00e+00	0	43	0	0	56	5111
2026-01-19 21:22:28.18	113.36	9.04	-42.8	-45.4	22.2	0.00e+00	0	43	0	0	56	5071
2026-01-19 21:22:29.17	113.24	8.94	-50.2	-66.0	3.7	0.00e+00	0	43	104	0	71	22926
2026-01-19 21:22:30.16	113.12	8.85	-50.6	-69.2	3.8	6.24e-01	0	43	104	0	71	33267
2026-01-19 21:22:31.16	113.00	8.76	-50.7	-69.5	3.8	6.24e-01	0	43	104	0	71	34331
2026-01-19 21:22:32.15	112.89	8.67	-50.8	-69.6	3.8	8.47e-01	0	43	104	0	72	32577
2026-01-19 21:22:33.19	112.76	8.58	-50.8	-69.6	3.8	8.46e-01	0	43	104	0	72	32810
2026-01-19 21:22:34.18	112.65	8.49	-50.8	-69.7	3.8	8.46e-01	0	43	104	0	72	32955
2026-01-19 21:22:35.24	112.53	8.39	-50.8	-69.7	3.8	8.47e-01	0	43	104	0	72	33100
2026-01-19 21:22:36.17	112.42	8.31	-50.9	-69.7	3.8	8.47e-01	0	43	104	0	72	33202
2026-01-19 21:22:37.27	112.29	8.21	-50.8	-69.8	3.8	8.47e-01	0	43	104	0	72	33369
2026-01-19 21:22:38.19	112.19	8.13	-50.6	-69.8	3.8	8.47e-01	0	43	104	0	72	33434
2026-01-19 21:22:39.36	112.06	8.03	-50.7	-69.8	3.8	8.47e-01	0	43	104	0	72	33473
2026-01-19 21:22:40.24	111.96	7.95	-50.8	-69.8	3.8	8.47e-01	0	43	104	0	72	33651
2026-01-19 21:22:41.55	111.82	7.84	-50.8	-69.8	3.8	8.47e-01	0	43	104	0	72	33630
2026-01-19 21:22:42.26	111.74	7.78	-50.8	-69.9	3.8	8.46e-01	0	43	104	0	72	33710
2026-01-19 21:22:43.76	111.58	7.65	-50.9	-69.9	3.8	8.48e-01	0	43	104	0	72	33715
2026-01-19 21:22:44.47	111.50	7.58	-50.9	-69.9	3.8	8.48e-01	0	43	104	0	72	33758
2026-01-19 21:22:45.81	111.36	7.47	-50.7	-69.9	3.8	8.48e-01	0	43	104	0	72	33814
2026-01-19 21:22:46.52	111.29	7.41	-50.6	-69.9	3.8	8.46e-01	0	43	104	0	72	33742
2026-01-19 21:22:47.80	111.15	7.30	-50.6	-69.9	3.8	8.46e-01	0	43	104	0	72	33859
2026-01-19 21:22:48.51	111.08	7.24	-50.7	-69.9	3.8	8.46e-01	0	43	104	0	72	33812
2026-01-19 21:22:49.78	110.95	7.13	-50.7	-69.9	3.8	8.46e-01	0	43	104	0	72	33903
2026-01-19 21:22:50.51	110.88	7.07	-50.7	-69.9	3.8	8.47e-01	0	43	104	0	72	33732
2026-01-19 21:22:51.79	110.75	6.97	-50.7	-69.8	3.8	8.47e-01	0	43	104	0	72	33629
2026-01-19 21:22:52.50	110.68	6.91	-50.7	-69.8	3.8	8.47e-01	0	43	104	0	72	33656
2026-01-19 21:22:53.77	110.55	6.80	-50.7	-69.8	3.8	8.47e-01	0	43	104	0	72	33622
2026-01-19 21:22:54.48	110.48	6.74	-50.7	-69.8	3.8	8.47e-01	0	43	104	0	72	33502
2026-01-19 21:22:55.76	110.36	6.64	-50.7	-69.8	3.8	8.47e-01	0	43	104	0	72	33533
2026-01-19 21:22:56.47	110.29	6.58	-50.7	-69.8	3.8	8.46e-01	0	43	104	0	72	33625
2026-01-19 21:22:57.75	110.17	6.47	-50.7	-69.8	3.8	8.48e-01	0	43	104	0	72	33593
2026-01-19 21:22:58.47	110.10	6.42	-50.7	-69.8	3.8	8.48e-01	0	43	104	0	72	33537
2026-01-19 21:22:59.75	109.98	6.31	-50.7	-69.8	3.8	8.47e-01	0	43	104	0	72	33520
2026-01-19 21:23:00.46	109.91	6.26	-50.7	-69.8	3.8	8.47e-01	0	43	104	0	72	33516
2026-01-19 21:23:01.74	109.79	6.15	-50.7	-69.8	3.8	8.48e-01	0	43	104	0	72	33494
2026-01-19 21:23:02.46	109.72	6.10	-50.7	-69.8	3.8	8.48e-01	0	43	104	0	72	33490
2026-01-19 21:23:03.74	109.61	5.99	-50.7	-69.8	3.8	8.46e-01	0	43	104	0	72	33440
2026-01-19 21:23:04.46	109.54	5.94	-50.6	-69.8	3.8	8.46e-01	0	43	104	0	72	33528
2026-01-19 21:23:05.74	109.43	5.84	-50.7	-69.8	3.8	8.47e-01	0	43	104	0	72	33451
2026-01-19 21:23:06.45	109.36	5.78	-50.7	-69.8	3.8	8.47e-01	0	43	104	0	72	33450
2026-01-19 21:23:07.73	109.25	5.68	-50.7	-69.8	3.8	8.47e-01	0	43	104	0	72	33556
2026-01-19 21:23:08.45	109.19	5.62	-50.7	-69.8	3.8	8.47e-01	0	43	104	0	72	33447
2026-01-19 21:23:09.73	109.07	5.52	-50.7	-69.8	3.8	8.47e-01	0	43	104	0	72	33489
2026-01-19 21:23:10.45	109.01	5.47	-50.6	-69.8	3.8	8.47e-01	0	43	104	0	72	33540
2026-01-19 21:23:11.73	108.90	5.37	-50.6	-69.8	3.8	8.46e-01	0	43	104	0	72	33455
2026-01-19 21:23:12.44	108.84	5.31	-50.6	-69.8	3.8	8.47e-01	0	43	104	0	72	33440
2026-01-19 21:23:13.72	108.73	5.22	-50.7	-69.8	3.8	8.48e-01	0	43	104	0	72	33478
2026-01-19 21:23:14.44	108.67	5.16	-50.6	-69.8	3.8	8.48e-01	0	43	104	0	72	33458
2026-01-19 21:23:15.72	108.57	5.06	-50.7	-69.8	3.8	8.47e-01	0	43	104	0	72	33404
2026-01-19 21:23:16.45	108.51	5.01	-50.7	-69.8	3.8	8.47e-01	0	43	104	0	72	33402
2026-01-19 21:23:17.73	108.40	4.91	-50.7	-69.8	3.8	8.48e-01	0	43	104	0	72	33444

#Closed at: 2026-01-19 21:23:18
#Recorded file [0 MB]: D:/Data/31040_260120_001531.dat