passes_logs/2026/01/19/T1/T1__20260119_031925_AQUA_rec.log

#Pass ID: 20260119_031925_AQUA
#Satellite: AQUA
#Configuration: AQUA
#almurnet v.1.7.20251203
#Start time: 2026-01-19 03:19:24

#Version: 2.0.20230620
#Station: T1
#Location: 37.570604 lon 55.790049 lat
#TLE: 1 27424U 02022A   26017.96925465  .00000866  00000+0  18326-3 0  9999
#TLE: 2 27424  98.4087 344.4465 0002004  74.6027 356.0068 14.61826972261327

#Time	Az	El	Level	Level2	SNR	BER	BlckErr	Temp	State	Recorded	gain1	gain2
2026-01-19 03:19:24.92	359.31	4.98	-50.7	-72.1	3.8	7.48e-01	0	40	0	0	72	43561
2026-01-19 03:19:25.90	359.19	5.03	-47.2	-71.3	3.8	7.49e-01	0	40	104	0	65	59813
2026-01-19 03:19:26.90	359.08	5.09	-47.2	-71.3	3.8	7.45e-01	0	40	104	0	65	59848
2026-01-19 03:19:27.89	358.96	5.14	-47.2	-71.3	3.8	7.48e-01	0	40	104	0	65	59869
2026-01-19 03:19:28.89	358.85	5.20	-47.2	-71.3	3.8	7.46e-01	0	40	104	0	65	59739
2026-01-19 03:19:29.88	358.73	5.25	-47.2	-71.3	3.8	7.47e-01	0	41	104	0	65	59832
2026-01-19 03:19:30.87	358.61	5.31	-47.2	-71.3	3.8	7.44e-01	0	40	104	0	65	59680
2026-01-19 03:19:31.87	358.50	5.36	-47.2	-71.3	3.8	7.48e-01	0	41	104	0	65	59768
2026-01-19 03:19:32.86	358.38	5.42	-47.2	-71.3	3.8	7.48e-01	0	41	104	0	65	59715
2026-01-19 03:19:33.85	358.26	5.47	-47.2	-71.3	3.8	7.47e-01	0	41	104	0	65	59773
2026-01-19 03:19:34.85	358.14	5.53	-47.2	-71.3	3.8	7.45e-01	0	41	104	0	65	59771
2026-01-19 03:19:35.84	358.02	5.58	-47.2	-71.3	3.8	7.48e-01	0	41	104	0	65	59834
2026-01-19 03:19:36.83	357.90	5.64	-47.2	-71.3	3.8	7.49e-01	0	41	104	0	65	59873
2026-01-19 03:19:37.83	357.78	5.69	-47.2	-71.3	3.8	7.46e-01	0	41	104	0	65	59833
2026-01-19 03:19:38.82	357.66	5.75	-47.2	-71.3	3.8	7.48e-01	0	41	104	0	65	59727
2026-01-19 03:19:39.81	357.54	5.80	-47.2	-71.3	3.8	7.43e-01	0	41	104	0	65	59606
2026-01-19 03:19:40.80	357.42	5.86	-47.2	-71.3	3.8	7.47e-01	0	41	104	0	65	59604
2026-01-19 03:19:41.80	357.30	5.91	-47.1	-71.3	3.8	7.46e-01	0	41	104	0	65	59568
2026-01-19 03:19:42.79	357.18	5.97	-47.1	-71.3	3.8	7.46e-01	0	41	104	0	65	59537
2026-01-19 03:19:43.79	357.05	6.02	-47.1	-71.3	3.8	7.43e-01	0	41	104	0	65	59447
2026-01-19 03:19:44.78	356.93	6.08	-47.1	-71.3	3.8	7.45e-01	0	41	104	0	65	59459
2026-01-19 03:19:45.77	356.80	6.13	-47.1	-71.3	3.8	7.50e-01	0	41	104	0	65	59518
2026-01-19 03:19:46.77	356.68	6.19	-47.1	-71.3	3.8	7.45e-01	0	41	104	0	65	59610
2026-01-19 03:19:47.76	356.55	6.24	-47.1	-71.3	3.8	7.47e-01	0	41	104	0	65	59745
2026-01-19 03:19:48.75	356.43	6.30	-47.1	-71.3	3.8	7.44e-01	0	41	104	0	65	59546
2026-01-19 03:19:49.75	356.30	6.35	-47.1	-71.3	3.8	7.51e-01	0	41	104	0	65	59499
2026-01-19 03:19:50.74	356.17	6.41	-47.1	-71.3	3.8	7.48e-01	0	41	104	0	65	59328
2026-01-19 03:19:51.73	356.05	6.46	-47.2	-71.3	3.8	7.46e-01	0	41	104	0	65	59338
2026-01-19 03:19:52.73	355.92	6.52	-47.1	-71.3	3.8	7.48e-01	0	41	104	0	65	59475
2026-01-19 03:19:53.72	355.79	6.57	-47.1	-71.3	3.8	7.48e-01	0	41	104	0	65	59634
2026-01-19 03:19:54.71	355.66	6.63	-47.1	-71.3	3.8	7.44e-01	0	41	104	0	65	59624
2026-01-19 03:19:55.71	355.53	6.68	-47.1	-71.3	3.8	7.43e-01	0	41	104	0	65	59728
2026-01-19 03:19:56.70	355.40	6.74	-47.1	-71.3	3.8	7.47e-01	0	41	104	0	65	59670
2026-01-19 03:19:57.69	355.27	6.79	-47.1	-71.3	3.8	7.46e-01	0	41	104	0	65	59620
2026-01-19 03:19:58.69	355.14	6.85	-47.1	-71.3	3.8	7.48e-01	0	41	104	0	65	59616
2026-01-19 03:19:59.68	355.01	6.90	-47.1	-71.3	3.8	7.47e-01	0	41	104	0	65	59601
2026-01-19 03:20:00.67	354.88	6.96	-47.1	-71.3	3.8	7.48e-01	0	41	104	0	65	59651
2026-01-19 03:20:01.67	354.74	7.01	-47.1	-71.3	3.8	7.48e-01	0	41	104	0	65	59595
2026-01-19 03:20:02.66	354.61	7.07	-47.1	-71.3	3.8	7.48e-01	0	41	104	0	65	59638
2026-01-19 03:20:03.65	354.47	7.12	-47.1	-71.3	3.8	7.47e-01	0	42	104	0	65	59750
2026-01-19 03:20:04.65	354.34	7.18	-47.1	-71.3	3.8	7.47e-01	0	41	104	0	65	59685
2026-01-19 03:20:05.64	354.20	7.23	-47.1	-71.3	3.8	7.49e-01	0	42	104	0	65	59691
2026-01-19 03:20:06.63	354.07	7.29	-47.1	-71.3	3.8	7.47e-01	0	42	104	0	65	59707
2026-01-19 03:20:07.63	353.93	7.34	-47.1	-71.3	3.8	7.47e-01	0	42	104	0	65	59673
2026-01-19 03:20:08.62	353.79	7.40	-47.1	-71.3	3.8	7.45e-01	0	42	104	0	65	59431
2026-01-19 03:20:09.62	353.66	7.45	-47.1	-71.3	3.8	7.48e-01	0	42	104	0	65	59366
2026-01-19 03:20:10.61	353.52	7.51	-47.1	-71.2	3.8	7.45e-01	0	42	104	0	65	58830
2026-01-19 03:20:11.60	353.38	7.56	-47.1	-71.1	3.8	7.45e-01	0	42	104	0	65	58539
2026-01-19 03:20:12.60	353.24	7.62	-47.1	-71.2	3.8	7.46e-01	0	42	104	0	65	58764
2026-01-19 03:20:13.59	353.10	7.67	-47.1	-71.2	3.8	7.45e-01	0	42	104	0	65	58989
2026-01-19 03:20:14.58	352.96	7.73	-47.1	-71.2	3.8	7.46e-01	0	42	104	0	65	59183
2026-01-19 03:20:15.58	352.82	7.78	-47.1	-71.3	3.8	7.45e-01	0	42	104	0	65	59395
2026-01-19 03:20:16.57	352.68	7.84	-47.1	-71.3	3.8	7.49e-01	0	42	104	0	65	59455
2026-01-19 03:20:17.56	352.54	7.89	-47.1	-71.3	3.8	7.47e-01	0	42	104	0	65	59498
2026-01-19 03:20:18.56	352.39	7.95	-47.1	-71.3	3.8	7.46e-01	0	42	104	0	65	59282
2026-01-19 03:20:19.55	352.25	8.00	-47.1	-71.2	3.8	7.48e-01	0	42	104	0	65	59098
2026-01-19 03:20:20.54	352.11	8.06	-47.1	-71.2	3.8	7.47e-01	0	42	104	0	65	59204
2026-01-19 03:20:21.54	351.96	8.11	-47.1	-71.3	3.8	7.46e-01	0	42	104	0	65	59242
2026-01-19 03:20:22.53	351.81	8.17	-47.1	-71.2	3.8	7.45e-01	0	42	104	0	65	58972
2026-01-19 03:20:23.52	351.67	8.22	-47.1	-71.1	3.8	7.48e-01	0	42	104	0	65	58116
2026-01-19 03:20:24.52	351.52	8.28	-47.1	-70.9	3.8	7.44e-01	0	42	104	0	65	56574
2026-01-19 03:20:25.51	351.37	8.33	-47.1	-70.6	3.8	7.43e-01	0	42	104	0	65	54852
2026-01-19 03:20:26.51	351.23	8.39	-47.0	-70.4	3.8	7.48e-01	0	42	104	0	65	53640
2026-01-19 03:20:27.50	351.08	8.44	-47.0	-70.2	3.8	7.46e-01	0	42	104	0	65	52419
2026-01-19 03:20:28.49	350.93	8.50	-47.0	-69.9	3.8	7.48e-01	0	42	104	0	65	50900
2026-01-19 03:20:29.49	350.78	8.55	-47.0	-69.7	3.8	7.46e-01	0	42	104	0	65	49312
2026-01-19 03:20:30.48	350.63	8.60	-47.0	-69.3	3.8	7.49e-01	0	42	104	0	65	47585
2026-01-19 03:20:31.47	350.48	8.66	-47.0	-69.0	3.8	7.46e-01	0	42	104	0	65	45871
2026-01-19 03:20:32.47	350.33	8.71	-46.9	-68.6	3.8	7.46e-01	0	42	104	0	65	43873
2026-01-19 03:20:33.46	350.18	8.77	-46.8	-67.9	3.8	7.45e-01	0	42	104	0	65	40490
2026-01-19 03:20:34.45	350.02	8.82	-46.7	-66.5	3.8	7.50e-01	0	42	104	0	65	34254
2026-01-19 03:20:35.45	349.87	8.88	-46.3	-64.5	3.8	7.45e-01	0	42	104	0	64	28888
2026-01-19 03:20:36.44	349.71	8.93	-45.8	-62.2	3.8	7.43e-01	0	42	104	0	63	23481
2026-01-19 03:20:37.43	349.56	8.98	-45.1	-60.0	3.8	7.44e-01	0	42	104	0	62	19368
2026-01-19 03:20:38.42	349.41	9.04	-44.4	-58.5	3.8	7.44e-01	0	42	104	0	60	18157
2026-01-19 03:20:39.42	349.25	9.09	-44.7	-59.3	3.7	7.49e-01	0	42	104	0	60	20002
2026-01-19 03:20:40.41	349.09	9.15	-45.1	-61.0	3.8	7.45e-01	0	42	104	0	62	21668
2026-01-19 03:20:41.41	348.93	9.20	-44.3	-49.2	20.7	6.05e-01	0	42	0	0	59	6633
2026-01-19 03:20:42.41	348.78	9.25	-44.6	-55.1	14.1	6.04e-01	0	42	0	1572864	60	12360
2026-01-19 03:20:43.45	348.61	9.31	-44.5	-51.4	18.8	6.03e-01	0	42	0	3670016	61	7549
2026-01-19 03:20:44.43	348.45	9.36	-45.7	-62.8	7.8	6.59e-01	0	42	0	5767168	62	26716
2026-01-19 03:20:45.42	348.29	9.42	-45.9	-63.2	7.0	6.63e-01	0	42	0	7340032	62	27722
2026-01-19 03:20:46.56	348.11	9.48	-45.8	-61.2	8.9	6.34e-01	0	42	0	9437184	62	22214
2026-01-19 03:20:47.41	347.97	9.52	-45.8	-60.1	10.0	6.20e-01	0	42	0	11010048	62	19456
2026-01-19 03:20:48.55	347.79	9.58	-45.5	-60.0	10.5	6.19e-01	0	42	0	13107200	62	19307
2026-01-19 03:20:49.40	347.65	9.63	-45.2	-60.0	10.4	6.16e-01	0	42	0	14680064	62	19358
2026-01-19 03:20:50.54	347.46	9.69	-45.0	-60.5	8.8	6.28e-01	0	42	0	16777216	62	20524
2026-01-19 03:20:51.39	347.32	9.74	-45.1	-60.1	10.6	6.21e-01	0	42	0	18350080	62	19572
2026-01-19 03:20:52.53	347.13	9.80	-45.3	-58.8	12.1	6.13e-01	0	42	0	20447232	62	16820
2026-01-19 03:20:53.38	346.99	9.84	-45.5	-58.5	11.2	6.12e-01	0	42	0	22544384	62	16175
2026-01-19 03:20:54.52	346.80	9.90	-45.5	-57.7	13.1	6.06e-01	0	42	0	24117248	62	14827
2026-01-19 03:20:55.37	346.66	9.95	-45.4	-56.3	13.9	6.06e-01	0	42	0	26214400	62	12541
2026-01-19 03:20:56.51	346.47	10.01	-45.5	-56.1	14.2	6.03e-01	0	42	0	28311552	62	12298
2026-01-19 03:20:57.36	346.32	10.05	-45.4	-56.3	14.1	6.03e-01	0	42	0	29884416	62	12566
2026-01-19 03:20:58.50	346.13	10.11	-45.1	-55.3	15.2	6.03e-01	0	42	0	31981568	62	11214
2026-01-19 03:20:59.35	345.98	10.16	-45.1	-56.1	14.8	6.05e-01	0	43	0	33554432	61	13055
2026-01-19 03:21:00.60	345.77	10.22	-44.6	-53.4	16.7	6.02e-01	0	43	0	35651584	61	9561
2026-01-19 03:21:01.45	345.62	10.27	-44.5	-53.1	17.4	6.04e-01	0	42	0	37224448	60	9786
2026-01-19 03:21:02.59	345.43	10.33	-44.5	-52.7	17.3	6.03e-01	0	43	0	39321600	60	9387
2026-01-19 03:21:03.44	345.28	10.37	-44.5	-51.9	18.1	6.05e-01	0	42	0	40894464	60	8499
2026-01-19 03:21:04.58	345.08	10.43	-45.3	-52.9	17.1	6.04e-01	0	42	0	43515904	61	9010
2026-01-19 03:21:05.43	344.93	10.48	-45.8	-53.1	17.8	6.03e-01	0	43	0	45088768	62	8662
2026-01-19 03:21:06.56	344.74	10.53	-45.7	-51.9	18.3	6.03e-01	0	43	0	47185920	62	7614
2026-01-19 03:21:07.41	344.59	10.58	-45.7	-51.4	19.0	6.03e-01	0	42	0	48758784	62	7169
2026-01-19 03:21:08.55	344.39	10.64	-46.0	-51.6	18.7	6.04e-01	0	43	0	50855936	63	6897
2026-01-19 03:21:09.40	344.24	10.68	-46.0	-51.9	18.6	6.06e-01	0	42	0	52428800	63	7139
2026-01-19 03:21:10.54	344.03	10.74	-45.8	-51.6	18.3	6.03e-01	0	43	0	54525952	63	6926
2026-01-19 03:21:11.39	343.88	10.78	-45.8	-51.7	19.0	6.03e-01	0	43	0	56098816	63	6988
2026-01-19 03:21:12.53	343.68	10.84	-45.7	-51.4	18.9	6.03e-01	0	43	0	58195968	62	7175
2026-01-19 03:21:13.38	343.52	10.88	-45.9	-51.6	18.8	6.05e-01	0	43	0	59768832	62	7352
2026-01-19 03:21:14.52	343.32	10.94	-45.7	-50.9	19.3	6.06e-01	0	43	0	61865984	62	6788
2026-01-19 03:21:15.37	343.16	10.99	-45.9	-51.1	19.2	6.04e-01	0	43	0	63438848	62	6952
2026-01-19 03:21:16.50	342.96	11.04	-46.2	-51.2	19.2	6.04e-01	0	43	0	65536000	62	6969
2026-01-19 03:21:17.36	342.80	11.09	-46.3	-51.1	19.4	6.04e-01	0	42	0	67108864	63	6530
2026-01-19 03:21:18.50	342.59	11.14	-46.1	-50.5	19.7	6.04e-01	0	42	0	69206016	63	6102
2026-01-19 03:21:19.35	342.44	11.19	-45.8	-50.1	20.1	6.04e-01	0	42	0	70778880	63	5829
2026-01-19 03:21:20.49	342.23	11.24	-45.8	-50.5	19.5	6.03e-01	0	42	0	72876032	63	6122
2026-01-19 03:21:21.34	342.07	11.28	-45.6	-50.2	20.0	6.05e-01	0	42	0	74448896	63	5887
2026-01-19 03:21:22.47	341.86	11.34	-45.7	-50.5	19.7	6.04e-01	0	43	0	77070336	63	6117
2026-01-19 03:21:23.33	341.70	11.38	-45.6	-50.3	20.0	6.04e-01	0	42	0	78643200	62	6315
2026-01-19 03:21:24.67	341.45	11.45	-45.6	-49.9	20.3	6.03e-01	0	43	0	80740352	62	6034
2026-01-19 03:21:25.38	341.31	11.48	-45.2	-49.2	21.1	6.05e-01	0	43	0	82313216	62	5554
2026-01-19 03:21:26.66	341.07	11.55	-44.8	-48.3	21.9	6.04e-01	0	43	0	84410368	61	5305
2026-01-19 03:21:27.37	340.94	11.58	-44.4	-47.8	22.4	6.03e-01	0	42	0	85983232	60	5290
2026-01-19 03:21:28.65	340.69	11.64	-44.0	-47.1	23.0	6.02e-01	0	43	0	88604672	60	4920
2026-01-19 03:21:29.36	340.56	11.68	-44.2	-47.3	22.9	6.04e-01	0	43	0	89653248	59	5338
2026-01-19 03:21:30.64	340.31	11.74	-43.7	-46.9	23.3	6.02e-01	0	43	0	92274688	59	5053
2026-01-19 03:21:31.46	340.16	11.78	-43.4	-46.6	23.6	6.04e-01	0	42	0	93847552	58	5190
2026-01-19 03:21:32.60	339.94	11.83	-43.2	-46.5	23.6	6.03e-01	0	43	0	95944704	58	5148
2026-01-19 03:21:33.45	339.77	11.87	-43.1	-46.5	23.7	6.05e-01	0	43	0	97517568	58	5117
2026-01-19 03:21:34.59	339.55	11.93	-43.0	-46.4	23.8	6.02e-01	0	43	0	99614720	58	5076
2026-01-19 03:21:35.70	339.33	11.98	-43.2	-46.4	23.8	6.03e-01	0	42	0	101711872	58	5044
2026-01-19 03:21:36.73	339.13	12.03	-43.4	-46.4	23.8	6.04e-01	0	43	0	103809024	58	5045
2026-01-19 03:21:37.72	338.94	12.07	-43.6	-46.4	23.8	6.04e-01	0	43	0	105381888	58	5082
2026-01-19 03:21:38.71	338.74	12.12	-43.5	-46.4	23.8	6.01e-01	0	43	0	107479040	58	5078
2026-01-19 03:21:39.71	338.54	12.17	-43.4	-46.5	23.8	6.04e-01	0	43	0	109051904	58	5103
2026-01-19 03:21:40.70	338.35	12.21	-43.2	-46.2	23.9	6.06e-01	0	43	0	111149056	58	4980
2026-01-19 03:21:41.70	338.15	12.26	-43.0	-46.3	23.9	6.03e-01	0	43	0	112721920	58	5013
2026-01-19 03:21:42.69	337.95	12.30	-42.9	-46.3	23.9	6.02e-01	0	43	0	114819072	57	5305
2026-01-19 03:21:43.69	337.75	12.35	-42.9	-46.3	23.9	6.03e-01	0	43	0	116391936	57	5299
2026-01-19 03:21:44.69	337.55	12.39	-43.1	-46.3	23.8	6.03e-01	0	42	0	118489088	57	5328
2026-01-19 03:21:45.68	337.35	12.44	-43.1	-46.3	23.9	6.04e-01	0	42	0	120586240	57	5301
2026-01-19 03:21:46.67	337.15	12.48	-43.2	-46.3	23.8	6.04e-01	0	43	0	122159104	57	5332
2026-01-19 03:21:47.67	336.95	12.53	-43.3	-46.3	23.8	6.04e-01	0	43	0	124256256	57	5333
2026-01-19 03:21:48.74	336.73	12.57	-43.3	-46.4	23.9	6.04e-01	0	43	0	125829120	57	5347
2026-01-19 03:21:49.63	336.54	12.61	-43.3	-46.3	23.9	6.03e-01	0	43	0	127926272	57	5336
2026-01-19 03:21:50.76	336.31	12.66	-43.3	-46.3	23.9	6.03e-01	0	43	0	130023424	57	5328
2026-01-19 03:21:51.62	336.14	12.70	-43.4	-46.4	23.8	6.02e-01	0	43	0	131596288	57	5342
2026-01-19 03:21:52.75	335.90	12.75	-43.6	-46.3	23.9	6.05e-01	0	43	0	133693440	57	5328
2026-01-19 03:21:53.61	335.72	12.78	-43.7	-46.3	23.9	6.04e-01	0	43	0	135266304	57	5303
2026-01-19 03:21:54.75	335.49	12.83	-43.8	-46.4	23.9	6.06e-01	0	43	0	137363456	58	5050
2026-01-19 03:21:55.81	335.27	12.88	-43.8	-46.3	23.9	6.02e-01	0	43	0	139460608	58	5035
2026-01-19 03:21:56.83	335.05	12.92	-43.7	-46.3	23.9	6.02e-01	0	43	0	141033472	58	5028
2026-01-19 03:21:57.83	334.84	12.96	-43.6	-46.3	24.0	6.03e-01	0	43	0	143130624	58	4986
2026-01-19 03:21:58.82	334.63	13.00	-43.6	-46.3	23.9	6.02e-01	0	43	0	145227776	58	5013
2026-01-19 03:21:59.82	334.42	13.04	-43.5	-46.3	24.0	6.04e-01	0	43	0	146800640	58	4987
2026-01-19 03:22:00.81	334.21	13.09	-43.5	-46.3	24.0	6.04e-01	0	43	0	148897792	58	4996
2026-01-19 03:22:01.81	334.00	13.13	-43.5	-46.2	24.0	6.04e-01	0	43	0	150470656	58	4962
2026-01-19 03:22:02.80	333.79	13.17	-43.6	-46.3	24.0	6.05e-01	0	43	0	152567808	58	4985
2026-01-19 03:22:03.80	333.58	13.21	-43.7	-46.3	24.0	6.04e-01	0	43	0	154140672	58	4988
2026-01-19 03:22:04.79	333.36	13.24	-43.6	-46.2	24.0	6.04e-01	0	43	0	156237824	58	4962
2026-01-19 03:22:05.79	333.15	13.28	-43.7	-46.3	24.0	6.03e-01	0	43	0	157810688	58	5004
2026-01-19 03:22:06.79	332.93	13.32	-43.5	-46.2	24.1	6.02e-01	0	43	0	159907840	58	4938
2026-01-19 03:22:07.83	332.71	13.36	-43.5	-46.3	23.9	6.03e-01	0	43	0	162004992	58	5006
2026-01-19 03:22:08.82	332.49	13.40	-43.5	-46.3	23.9	6.03e-01	0	43	0	163577856	58	5004
2026-01-19 03:22:09.82	332.28	13.44	-43.5	-46.3	23.9	6.02e-01	0	43	0	165675008	58	5007
2026-01-19 03:22:10.81	332.06	13.48	-43.7	-46.4	23.9	6.04e-01	0	43	0	167247872	58	5043
2026-01-19 03:22:11.81	331.84	13.52	-43.7	-46.3	24.0	6.04e-01	0	43	0	169345024	58	5007
2026-01-19 03:22:12.80	331.62	13.55	-43.7	-46.3	23.9	6.05e-01	0	43	0	170917888	58	5022
2026-01-19 03:22:13.80	331.40	13.59	-43.6	-46.2	23.4	6.03e-01	0	43	0	173015040	58	4958
2026-01-19 03:22:14.79	331.19	13.63	-43.6	-46.2	24.1	6.02e-01	0	43	0	175112192	58	4969
2026-01-19 03:22:15.79	330.96	13.66	-43.6	-46.2	24.0	6.02e-01	0	43	0	176685056	58	4968
2026-01-19 03:22:16.78	330.75	13.70	-43.6	-46.3	24.0	6.03e-01	0	43	0	178782208	58	4997
2026-01-19 03:22:17.77	330.53	13.73	-43.7	-46.4	23.9	6.03e-01	0	43	0	180355072	58	5050
2026-01-19 03:22:18.77	330.30	13.77	-43.8	-46.4	23.8	6.04e-01	0	43	0	182452224	58	5085
2026-01-19 03:22:19.76	330.08	13.80	-43.7	-46.3	23.9	6.01e-01	0	43	0	184025088	58	5002
2026-01-19 03:22:20.84	329.84	13.84	-43.7	-46.3	24.0	6.02e-01	0	43	0	186122240	58	5004
2026-01-19 03:22:21.74	329.64	13.87	-43.7	-46.2	24.0	6.03e-01	0	43	0	188219392	58	4975
2026-01-19 03:22:22.78	329.40	13.90	-43.7	-46.3	24.0	6.03e-01	0	43	0	189792256	58	4993
2026-01-19 03:22:23.77	329.18	13.94	-43.7	-46.3	23.9	6.03e-01	0	43	0	191889408	58	5039
2026-01-19 03:22:24.77	328.95	13.97	-43.7	-46.4	23.9	6.04e-01	0	43	0	193462272	58	5044
2026-01-19 03:22:25.76	328.73	14.00	-43.7	-46.3	24.0	6.04e-01	0	43	0	195559424	58	5005
2026-01-19 03:22:26.76	328.50	14.04	-43.7	-46.3	23.1	6.04e-01	0	43	0	197132288	58	5009
2026-01-19 03:22:27.75	328.28	14.07	-43.7	-46.3	24.0	6.04e-01	0	43	0	199229440	58	5021
2026-01-19 03:22:28.75	328.05	14.10	-43.7	-46.3	23.9	6.03e-01	0	43	0	201326592	58	5033
2026-01-19 03:22:29.75	327.82	14.13	-43.6	-46.3	24.0	6.03e-01	0	43	0	202899456	58	5013
2026-01-19 03:22:30.74	327.59	14.16	-43.5	-46.4	23.9	6.03e-01	0	43	0	204996608	58	5044
2026-01-19 03:22:31.74	327.36	14.19	-43.3	-46.2	24.0	6.04e-01	0	43	0	206569472	58	4980
2026-01-19 03:22:32.73	327.13	14.22	-43.2	-46.3	24.0	6.02e-01	0	43	0	208666624	58	4997
2026-01-19 03:22:33.73	326.90	14.25	-43.3	-46.3	24.0	6.03e-01	0	43	0	210239488	58	5032
2026-01-19 03:22:34.72	326.67	14.28	-43.3	-46.3	23.9	6.04e-01	0	43	0	212336640	58	4996
2026-01-19 03:22:35.72	326.44	14.31	-43.4	-46.3	23.9	6.03e-01	0	43	0	213909504	58	5040
2026-01-19 03:22:36.71	326.21	14.33	-43.4	-46.2	24.0	6.04e-01	0	43	0	216006656	58	4979
2026-01-19 03:22:37.71	325.98	14.36	-43.4	-46.2	24.1	6.04e-01	0	43	0	218103808	58	4967
2026-01-19 03:22:38.71	325.75	14.39	-43.5	-46.3	24.0	6.01e-01	0	43	0	219676672	58	5035
2026-01-19 03:22:39.70	325.51	14.42	-43.3	-46.2	24.1	6.03e-01	0	43	0	221773824	58	4969
2026-01-19 03:22:40.70	325.28	14.44	-43.1	-46.1	24.1	6.04e-01	0	43	0	223346688	58	4908
2026-01-19 03:22:41.69	325.05	14.47	-43.2	-46.2	24.0	6.04e-01	0	43	0	225443840	58	4972
2026-01-19 03:22:42.69	324.81	14.50	-43.2	-46.3	23.9	6.05e-01	0	43	0	227016704	58	5010
2026-01-19 03:22:43.68	324.58	14.52	-43.3	-46.3	24.0	6.05e-01	0	43	0	229113856	58	4986
2026-01-19 03:22:44.68	324.34	14.55	-43.5	-46.4	23.9	6.04e-01	0	43	0	231211008	58	5045
2026-01-19 03:22:45.67	324.11	14.57	-43.5	-46.1	24.1	6.04e-01	0	43	0	232783872	58	4920
2026-01-19 03:22:46.66	323.87	14.59	-43.6	-46.2	24.1	6.03e-01	0	43	0	234881024	58	4941
2026-01-19 03:22:47.66	323.64	14.62	-43.7	-46.2	24.1	6.04e-01	0	43	0	236453888	58	4979
2026-01-19 03:22:48.73	323.38	14.64	-43.8	-46.3	24.0	6.04e-01	0	43	0	238551040	58	5014
2026-01-19 03:22:49.61	323.17	14.66	-43.8	-46.3	24.0	6.01e-01	0	43	0	240123904	58	4999
2026-01-19 03:22:50.93	322.86	14.69	-43.7	-46.3	24.0	6.02e-01	0	43	0	242745344	58	4993
2026-01-19 03:22:51.64	322.69	14.71	-43.7	-46.3	24.0	6.02e-01	0	43	0	243793920	58	4988
2026-01-19 03:22:53.12	322.33	14.74	-43.5	-46.1	24.2	6.01e-01	0	43	0	246939648	58	4900
2026-01-19 03:22:53.83	322.16	14.75	-43.5	-46.2	24.1	6.04e-01	0	43	0	247988224	58	4935
2026-01-19 03:22:55.16	321.84	14.78	-43.6	-46.3	24.0	6.03e-01	0	43	0	250609664	58	5021
2026-01-19 03:22:55.87	321.67	14.80	-43.6	-46.4	23.9	6.00e-01	0	43	0	252182528	58	5079
2026-01-19 03:22:57.22	321.35	14.82	-43.8	-46.6	23.7	5.99e-01	0	43	0	254279680	58	5189
2026-01-19 03:22:57.92	321.18	14.84	-43.7	-46.5	23.8	6.01e-01	0	43	0	255852544	58	5122
2026-01-19 03:22:59.25	320.86	14.86	-43.8	-46.5	23.8	6.03e-01	0	43	0	258473984	58	5153
2026-01-19 03:22:59.96	320.69	14.87	-43.8	-46.6	23.7	6.02e-01	0	43	0	259522560	58	5170
2026-01-19 03:23:01.25	320.37	14.90	-43.8	-46.5	23.8	6.03e-01	0	43	0	262144000	58	5124
2026-01-19 03:23:01.97	320.20	14.91	-43.7	-46.4	23.8	6.02e-01	0	43	0	263192576	58	5098
2026-01-19 03:23:03.25	319.89	14.93	-43.8	-46.5	23.8	6.03e-01	0	43	0	265814016	58	5115
2026-01-19 03:23:03.98	319.71	14.94	-43.8	-46.5	23.8	6.02e-01	0	43	0	267386880	58	5149
2026-01-19 03:23:05.26	319.40	14.96	-43.6	-46.2	24.1	6.03e-01	0	43	0	269484032	58	4966
2026-01-19 03:23:05.97	319.23	14.97	-43.8	-46.5	23.8	6.04e-01	0	43	0	271056896	58	5136
2026-01-19 03:23:07.25	318.91	14.99	-43.7	-46.3	24.0	6.03e-01	0	43	0	273154048	58	5032
2026-01-19 03:23:07.97	318.74	15.00	-43.8	-46.5	23.9	6.02e-01	0	43	0	274726912	58	5122
2026-01-19 03:23:09.25	318.43	15.02	-43.9	-46.5	23.8	6.04e-01	0	43	0	276824064	58	5135
2026-01-19 03:23:09.97	318.25	15.03	-43.9	-46.6	23.7	6.05e-01	0	43	0	278396928	58	5163
2026-01-19 03:23:11.24	317.94	15.04	-43.8	-46.3	24.0	6.01e-01	0	43	0	281018368	58	5022
2026-01-19 03:23:11.95	317.76	15.05	-43.8	-46.3	24.0	6.03e-01	0	43	0	282066944	58	5010
2026-01-19 03:23:13.23	317.45	15.07	-43.8	-46.4	24.0	6.02e-01	0	43	0	284688384	58	5060
2026-01-19 03:23:13.95	317.27	15.08	-43.8	-46.5	23.9	6.05e-01	0	43	0	285736960	58	5136
2026-01-19 03:23:15.23	316.96	15.09	-43.6	-46.3	24.0	6.07e-01	0	43	0	288358400	58	5029
2026-01-19 03:23:16.19	316.72	15.10	-43.5	-46.2	24.1	6.04e-01	0	43	0	289931264	58	4974
2026-01-19 03:23:17.19	316.48	15.11	-43.5	-46.3	24.1	6.05e-01	0	43	0	292028416	58	4985
2026-01-19 03:23:18.18	316.23	15.12	-43.8	-46.5	23.9	6.00e-01	0	43	0	293601280	58	5119
2026-01-19 03:23:19.18	315.99	15.13	-43.9	-46.6	23.7	6.05e-01	0	43	0	295698432	58	5187
2026-01-19 03:23:20.17	315.74	15.14	-44.0	-46.6	23.7	6.04e-01	0	43	0	297795584	58	5199
2026-01-19 03:23:21.16	315.50	15.14	-43.8	-46.4	23.9	6.01e-01	0	43	0	299368448	58	5071
2026-01-19 03:23:22.16	315.25	15.15	-43.8	-46.4	23.9	6.04e-01	0	43	0	301465600	58	5097
2026-01-19 03:23:23.23	314.99	15.16	-43.9	-46.5	23.7	6.02e-01	0	43	0	303038464	58	5142
2026-01-19 03:23:24.13	314.76	15.16	-43.9	-46.5	23.8	6.03e-01	0	43	0	305135616	58	5137
2026-01-19 03:23:25.38	314.45	15.17	-44.0	-46.7	23.6	6.02e-01	0	43	0	307232768	59	4973
2026-01-19 03:23:26.23	314.24	15.18	-43.9	-46.6	23.8	6.02e-01	0	43	0	308805632	59	4915
2026-01-19 03:23:27.37	313.96	15.18	-44.1	-46.9	23.4	6.05e-01	0	43	0	310902784	59	5079
2026-01-19 03:23:28.22	313.75	15.18	-44.1	-46.9	23.5	6.04e-01	0	43	0	312475648	59	5055
2026-01-19 03:23:29.36	313.47	15.19	-44.2	-47.0	23.3	6.01e-01	0	43	0	314572800	59	5105
2026-01-19 03:23:30.21	313.26	15.19	-44.0	-46.7	23.6	6.03e-01	0	43	0	316145664	59	4957
2026-01-19 03:23:31.35	312.98	15.19	-44.2	-46.9	23.4	6.03e-01	0	43	0	318242816	59	5076
2026-01-19 03:23:32.20	312.76	15.20	-43.7	-46.3	24.1	6.03e-01	0	43	0	319815680	59	4720
2026-01-19 03:23:33.34	312.48	15.20	-44.2	-47.0	23.4	6.01e-01	0	43	0	322437120	59	5111
2026-01-19 03:23:34.19	312.27	15.20	-44.1	-46.8	23.6	6.01e-01	0	43	0	324009984	59	4991
2026-01-19 03:23:35.33	311.99	15.20	-44.2	-47.0	23.3	6.04e-01	0	43	0	326107136	59	5118
2026-01-19 03:23:36.18	311.78	15.20	-43.8	-46.4	24.0	6.02e-01	0	43	0	327680000	59	4764
2026-01-19 03:23:37.49	311.45	15.20	-44.0	-46.6	23.7	6.04e-01	0	43	0	329777152	59	4914
2026-01-19 03:23:38.20	311.28	15.20	-43.9	-46.4	23.9	6.05e-01	0	43	0	331350016	59	4804
2026-01-19 03:23:39.48	310.96	15.20	-44.2	-46.9	23.4	6.04e-01	0	43	0	333971456	59	5068
2026-01-19 03:23:40.19	310.78	15.19	-44.1	-46.7	23.6	6.04e-01	0	43	0	335020032	59	4966
2026-01-19 03:23:41.74	310.40	15.19	-44.2	-46.9	23.4	6.04e-01	0	43	0	338165760	60	4761
2026-01-19 03:23:42.45	310.22	15.19	-44.1	-46.8	23.5	6.04e-01	0	43	0	339214336	60	4735
2026-01-19 03:23:43.73	309.91	15.18	-44.2	-46.9	23.3	6.04e-01	0	43	0	341835776	60	4808
2026-01-19 03:23:44.45	309.73	15.18	-44.2	-46.9	23.4	6.02e-01	0	43	0	342884352	59	5081
2026-01-19 03:23:45.74	309.41	15.18	-44.2	-46.9	23.5	6.06e-01	0	43	0	345505792	59	5066
2026-01-19 03:23:46.46	309.23	15.17	-43.9	-46.6	23.8	6.02e-01	0	43	0	346554368	59	4877
2026-01-19 03:23:47.74	308.91	15.16	-44.2	-46.9	23.5	6.02e-01	0	43	0	349175808	59	5044
2026-01-19 03:23:48.45	308.74	15.16	-44.1	-46.7	23.6	6.02e-01	0	43	0	350748672	59	4982
2026-01-19 03:23:49.73	308.42	15.15	-44.4	-47.0	23.2	6.04e-01	0	43	0	352845824	59	5157
2026-01-19 03:23:50.49	308.23	15.15	-43.8	-46.3	24.0	6.06e-01	0	43	0	354418688	59	4752
2026-01-19 03:23:51.77	307.92	15.14	-44.2	-46.8	23.5	6.03e-01	0	43	0	357040128	59	5003
2026-01-19 03:23:52.48	307.74	15.13	-43.9	-46.3	24.0	6.05e-01	0	43	0	358088704	59	4747
2026-01-19 03:23:53.76	307.43	15.12	-44.3	-46.9	23.4	6.02e-01	0	43	0	360710144	59	5058
2026-01-19 03:23:54.60	307.22	15.11	-44.1	-46.6	23.8	6.05e-01	0	43	0	362283008	59	4919
2026-01-19 03:23:55.74	306.94	15.10	-44.1	-46.7	23.6	6.04e-01	0	43	0	364380160	59	4975
2026-01-19 03:23:56.59	306.73	15.09	-44.2	-46.8	23.5	6.02e-01	0	43	0	365953024	59	5025
2026-01-19 03:23:57.73	306.45	15.08	-44.1	-46.7	23.7	6.03e-01	0	43	0	368050176	59	4942
2026-01-19 03:23:58.58	306.24	15.07	-44.1	-46.7	23.6	6.05e-01	0	43	0	369623040	59	4972
2026-01-19 03:23:59.71	305.96	15.06	-44.4	-47.1	23.3	6.03e-01	0	43	0	371720192	59	5206
2026-01-19 03:24:00.57	305.75	15.05	-44.2	-46.8	23.5	6.03e-01	0	43	0	373293056	59	4996
2026-01-19 03:24:01.70	305.47	15.03	-44.5	-47.2	23.2	6.05e-01	0	43	0	375390208	59	5258
2026-01-19 03:24:02.56	305.26	15.02	-44.0	-46.6	23.7	6.04e-01	0	43	0	376963072	59	4912
2026-01-19 03:24:03.69	304.99	15.00	-44.2	-46.8	23.6	6.02e-01	0	43	0	379060224	59	5018
2026-01-19 03:24:04.55	304.78	14.99	-44.3	-47.0	23.4	6.04e-01	0	43	0	380633088	59	5106
2026-01-19 03:24:05.69	304.50	14.98	-44.3	-47.0	23.4	6.01e-01	0	43	0	382730240	59	5114
2026-01-19 03:24:06.54	304.29	14.96	-44.4	-47.1	23.3	6.04e-01	0	43	0	384303104	59	5186
2026-01-19 03:24:07.68	304.01	14.95	-44.4	-47.0	23.3	6.05e-01	0	43	0	386400256	59	5154
2026-01-19 03:24:08.64	303.78	14.93	-44.0	-46.6	23.7	6.01e-01	0	43	0	388497408	59	4898
2026-01-19 03:24:09.64	303.53	14.91	-44.4	-47.1	23.2	6.05e-01	0	43	0	390070272	59	5198
2026-01-19 03:24:10.63	303.29	14.90	-44.4	-47.0	23.4	6.04e-01	0	43	0	392167424	59	5157
2026-01-19 03:24:11.63	303.05	14.88	-44.0	-46.5	23.8	6.04e-01	0	43	0	394264576	59	4862
2026-01-19 03:24:12.62	302.81	14.86	-44.5	-47.2	23.2	6.04e-01	0	43	0	395837440	59	5266
2026-01-19 03:24:13.95	302.49	14.84	-44.2	-46.8	23.6	6.04e-01	0	43	0	398458880	59	4995
2026-01-19 03:24:14.69	302.31	14.82	-44.5	-47.3	23.0	6.02e-01	0	43	0	399507456	60	4991
2026-01-19 03:24:15.97	302.00	14.80	-44.3	-47.0	23.3	6.06e-01	0	43	0	402128896	60	4832
2026-01-19 03:24:16.68	301.83	14.78	-44.4	-47.1	23.1	6.05e-01	0	43	0	403701760	60	4902
2026-01-19 03:24:17.96	301.52	14.76	-44.4	-47.1	23.2	6.05e-01	0	43	0	405798912	60	4905
2026-01-19 03:24:18.67	301.35	14.74	-44.1	-46.7	23.5	6.04e-01	0	43	0	407371776	60	4660
2026-01-19 03:24:19.95	301.05	14.72	-44.5	-47.2	23.2	6.03e-01	0	43	0	409468928	59	5248
2026-01-19 03:24:20.68	300.87	14.70	-44.5	-47.2	23.0	6.07e-01	0	43	0	411041792	60	4940
2026-01-19 03:24:21.96	300.56	14.67	-44.2	-46.9	22.3	6.05e-01	0	43	0	413138944	60	4764
2026-01-19 03:24:22.68	300.39	14.65	-44.9	-47.7	22.6	6.02e-01	0	43	0	414711808	60	5270
2026-01-19 03:24:23.96	300.09	14.62	-43.9	-46.4	23.9	6.05e-01	0	43	0	417333248	59	4785
2026-01-19 03:24:24.67	299.92	14.61	-44.2	-46.7	23.7	6.02e-01	0	43	0	418381824	59	4976
2026-01-19 03:24:25.95	299.61	14.58	-44.2	-46.9	23.2	6.05e-01	0	43	0	421003264	60	4770
2026-01-19 03:24:26.68	299.44	14.56	-43.7	-46.2	24.1	6.06e-01	0	43	0	422051840	59	4662
2026-01-19 03:24:27.95	299.14	14.53	-44.7	-47.3	23.0	6.01e-01	0	43	0	424673280	59	5339
2026-01-19 03:24:28.66	298.97	14.51	-44.5	-47.1	23.2	6.06e-01	0	43	0	425721856	59	5194
2026-01-19 03:24:30.23	298.60	14.47	-44.2	-46.8	23.5	6.03e-01	0	43	0	428867584	59	5023
2026-01-19 03:24:30.86	298.45	14.45	-44.6	-47.4	23.0	6.03e-01	0	43	0	429916160	60	5051
2026-01-19 03:24:32.36	298.10	14.41	-43.7	-46.1	24.0	6.06e-01	0	43	0	433061888	59	4641
2026-01-19 03:24:33.07	297.94	14.39	-44.0	-46.6	23.7	6.05e-01	0	43	0	434110464	59	4892
2026-01-19 03:24:34.37	297.63	14.36	-44.3	-47.1	23.0	6.04e-01	0	43	0	436731904	60	4893
2026-01-19 03:24:35.08	297.47	14.34	-43.8	-46.3	24.0	6.02e-01	0	43	0	437780480	59	4733
2026-01-19 03:24:36.35	297.17	14.30	-44.5	-47.2	23.1	6.02e-01	0	43	0	440401920	60	4981
2026-01-19 03:24:37.06	297.00	14.28	-44.4	-47.0	23.2	6.02e-01	0	43	0	441450496	60	4863
2026-01-19 03:24:38.48	296.68	14.24	-44.2	-46.9	23.3	6.04e-01	0	43	0	444596224	60	4786
2026-01-19 03:24:39.20	296.51	14.22	-44.2	-46.8	23.4	6.01e-01	0	43	0	445644800	59	5010
2026-01-19 03:24:40.47	296.22	14.18	-44.8	-47.7	22.6	6.04e-01	0	43	0	448266240	60	5266
2026-01-19 03:24:41.20	296.05	14.16	-44.0	-46.7	23.4	6.04e-01	0	43	0	449314816	60	4696
2026-01-19 03:24:42.48	295.75	14.12	-44.2	-46.9	23.5	6.05e-01	0	43	0	451936256	59	5084
2026-01-19 03:24:43.21	295.59	14.10	-44.8	-47.8	22.5	6.02e-01	0	43	0	452984832	60	5297
2026-01-19 03:24:44.49	295.29	14.06	-43.7	-46.2	24.1	6.03e-01	0	43	0	455606272	59	4677
2026-01-19 03:24:45.21	295.13	14.03	-44.2	-46.9	23.5	6.04e-01	0	43	0	457179136	59	5049
2026-01-19 03:24:46.63	294.80	13.99	-44.2	-46.8	23.4	6.04e-01	0	43	0	459800576	60	4710
2026-01-19 03:24:47.34	294.64	13.96	-44.2	-46.7	23.6	6.04e-01	0	43	0	460849152	59	4964
2026-01-19 03:24:48.69	294.34	13.92	-44.3	-46.9	23.5	6.02e-01	0	43	0	463470592	59	5044
2026-01-19 03:24:49.65	294.12	13.89	-44.4	-47.2	23.2	6.04e-01	0	43	0	465043456	59	5222
2026-01-19 03:24:50.96	293.82	13.84	-44.0	-46.7	23.6	6.04e-01	0	43	0	467664896	59	4942
2026-01-19 03:24:51.67	293.66	13.82	-44.0	-46.6	23.8	6.02e-01	0	43	0	469237760	59	4873
2026-01-19 03:24:52.95	293.38	13.77	-44.6	-47.4	23.0	6.02e-01	0	43	0	471334912	59	5358
2026-01-19 03:24:53.66	293.22	13.75	-44.1	-46.7	23.6	6.03e-01	0	43	0	472907776	59	4946
2026-01-19 03:24:54.94	292.93	13.70	-44.3	-46.9	23.5	6.02e-01	0	43	0	475004928	59	5042
2026-01-19 03:24:55.65	292.78	13.68	-44.4	-47.1	23.3	6.04e-01	0	43	0	476577792	59	5201
2026-01-19 03:24:56.93	292.49	13.63	-44.4	-47.1	23.3	6.03e-01	0	43	0	479199232	59	5184
2026-01-19 03:24:57.64	292.33	13.60	-44.6	-47.4	23.0	6.04e-01	0	43	0	480247808	59	5348
2026-01-19 03:24:59.02	292.03	13.55	-44.3	-46.9	23.5	6.04e-01	0	43	0	482869248	59	5051
2026-01-19 03:24:59.73	291.87	13.53	-44.4	-47.0	23.3	6.02e-01	0	43	0	484442112	59	5121
2026-01-19 03:25:01.01	291.59	13.48	-44.8	-47.6	22.6	6.03e-01	0	43	0	486539264	60	5218
2026-01-19 03:25:01.73	291.43	13.45	-44.4	-47.0	23.2	6.03e-01	0	43	0	488112128	60	4854
2026-01-19 03:25:03.01	291.15	13.40	-44.5	-47.2	23.1	6.05e-01	0	43	0	490209280	60	4929
2026-01-19 03:25:03.72	291.00	13.38	-44.6	-47.4	22.8	6.03e-01	0	43	0	491782144	60	5075
2026-01-19 03:25:05.24	290.67	13.32	-44.1	-46.8	23.4	6.02e-01	0	43	0	494403584	60	4745
2026-01-19 03:25:05.95	290.52	13.29	-44.0	-46.7	23.5	5.99e-01	0	43	0	495976448	60	4687
2026-01-19 03:25:07.22	290.24	13.24	-44.2	-46.9	23.5	6.06e-01	0	43	0	498073600	59	5059
2026-01-19 03:25:07.93	290.09	13.21	-44.3	-47.1	23.3	6.04e-01	0	43	0	499646464	59	5166
2026-01-19 03:25:09.21	289.81	13.16	-44.2	-47.1	23.3	6.03e-01	0	43	0	501743616	59	5168
2026-01-19 03:25:09.94	289.66	13.13	-44.2	-47.0	23.3	6.03e-01	0	43	0	503316480	59	5143
2026-01-19 03:25:11.22	289.38	13.08	-44.1	-47.0	23.4	6.04e-01	0	43	0	505937920	59	5102
2026-01-19 03:25:11.93	289.23	13.05	-44.3	-47.1	23.3	6.05e-01	0	43	0	506986496	59	5182
2026-01-19 03:25:13.21	288.96	13.00	-44.4	-47.2	23.2	6.04e-01	0	43	0	509607936	59	5234
2026-01-19 03:25:13.95	288.81	12.96	-44.2	-46.9	23.4	6.03e-01	0	43	0	510656512	59	5089
2026-01-19 03:25:15.23	288.54	12.91	-44.2	-46.8	23.6	6.02e-01	0	43	0	513277952	59	5012
2026-01-19 03:25:15.98	288.38	12.88	-44.5	-47.1	23.3	6.01e-01	0	43	0	514850816	59	5208
2026-01-19 03:25:17.26	288.11	12.83	-44.6	-47.3	23.0	6.03e-01	0	43	0	516947968	60	5012
2026-01-19 03:25:17.98	287.96	12.79	-44.3	-46.9	23.3	6.04e-01	0	43	0	518520832	60	4783
2026-01-19 03:25:19.25	287.70	12.74	-44.1	-46.6	23.6	6.04e-01	0	43	0	520617984	60	4617
2026-01-19 03:25:20.09	287.52	12.70	-44.5	-47.2	23.1	6.04e-01	0	43	0	522190848	60	4931
2026-01-19 03:25:21.54	287.22	12.64	-44.4	-47.1	23.1	6.03e-01	0	43	0	525336576	60	4883
2026-01-19 03:25:22.25	287.08	12.61	-44.0	-46.6	23.6	6.05e-01	0	43	0	526385152	59	4892
2026-01-19 03:25:23.74	286.77	12.54	-44.4	-47.0	23.3	6.03e-01	0	43	0	529006592	59	5145
2026-01-19 03:25:24.45	286.62	12.51	-44.6	-47.4	22.9	6.03e-01	0	43	0	530579456	60	5051
2026-01-19 03:25:25.73	286.36	12.45	-44.1	-46.8	23.4	6.03e-01	0	43	0	533200896	60	4727
2026-01-19 03:25:26.44	286.22	12.42	-44.2	-46.8	23.5	6.02e-01	0	43	0	534249472	59	5009
2026-01-19 03:25:27.85	285.93	12.36	-44.5	-47.3	23.1	6.03e-01	0	43	0	536870912	59	5290
2026-01-19 03:25:28.56	285.79	12.33	-44.5	-47.4	22.7	6.04e-01	0	43	0	538443776	60	5055
2026-01-19 03:25:29.84	285.53	12.27	-44.1	-46.7	23.5	6.02e-01	0	43	0	540540928	60	4688
2026-01-19 03:25:30.56	285.39	12.24	-44.1	-46.7	23.6	6.03e-01	0	43	0	542113792	59	4966
2026-01-19 03:25:31.84	285.13	12.18	-44.4	-47.1	23.3	6.03e-01	0	43	0	544210944	59	5186
2026-01-19 03:25:32.55	284.99	12.14	-44.6	-47.3	23.0	6.03e-01	0	43	0	545783808	59	5339
2026-01-19 03:25:33.83	284.74	12.08	-44.3	-47.0	23.3	6.04e-01	0	43	0	548405248	59	5113
2026-01-19 03:25:34.54	284.60	12.05	-44.2	-46.8	23.5	6.03e-01	0	43	0	549453824	59	5036
2026-01-19 03:25:35.82	284.35	11.99	-44.4	-47.1	23.2	6.05e-01	0	43	0	552075264	59	5201
2026-01-19 03:25:36.57	284.20	11.96	-44.6	-47.4	23.0	6.04e-01	0	43	0	553123840	59	5369
2026-01-19 03:25:37.85	283.95	11.90	-44.4	-47.2	23.0	6.04e-01	0	43	0	555745280	60	4963
2026-01-19 03:25:38.56	283.81	11.86	-44.2	-46.9	23.3	6.03e-01	0	43	0	556793856	60	4801
2026-01-19 03:25:39.83	283.56	11.80	-44.1	-46.7	23.5	6.04e-01	0	43	0	559415296	60	4679
2026-01-19 03:25:40.67	283.40	11.76	-44.2	-46.8	23.4	6.01e-01	0	43	0	560988160	60	4752
2026-01-19 03:25:42.11	283.12	11.69	-44.4	-47.1	23.2	6.04e-01	0	43	0	563609600	60	4900
2026-01-19 03:25:42.82	282.99	11.66	-44.3	-46.9	23.4	6.04e-01	0	43	0	565182464	60	4769
2026-01-19 03:25:44.10	282.74	11.59	-44.1	-46.7	23.5	6.03e-01	0	43	0	567279616	60	4693
2026-01-19 03:25:44.81	282.60	11.56	-44.3	-46.9	23.4	6.06e-01	0	43	0	568852480	60	4781
2026-01-19 03:25:46.09	282.36	11.50	-44.4	-47.1	23.2	6.03e-01	0	43	0	570949632	60	4890
2026-01-19 03:25:46.80	282.23	11.46	-44.3	-47.0	23.2	6.03e-01	0	43	0	572522496	60	4846
2026-01-19 03:25:48.08	281.99	11.40	-44.4	-47.0	23.2	6.02e-01	0	43	0	574619648	60	4864
2026-01-19 03:25:48.88	281.84	11.36	-44.4	-47.1	23.2	6.03e-01	0	43	0	576192512	60	4872
2026-01-19 03:25:50.02	281.62	11.30	-44.3	-47.0	23.2	6.05e-01	0	43	0	578289664	60	4844
2026-01-19 03:25:50.87	281.46	11.26	-44.3	-47.0	23.2	6.04e-01	0	43	0	579862528	60	4850
2026-01-19 03:25:52.01	281.25	11.20	-44.4	-47.1	23.2	6.04e-01	0	43	0	581959680	60	4876
2026-01-19 03:25:52.86	281.09	11.16	-44.3	-46.9	23.4	6.03e-01	0	43	0	583532544	60	4796
2026-01-19 03:25:54.00	280.88	11.10	-44.3	-46.9	23.3	6.04e-01	0	43	0	586153984	60	4800
2026-01-19 03:25:54.85	280.73	11.06	-44.4	-47.1	23.1	6.04e-01	0	43	0	587726848	60	4904
2026-01-19 03:25:55.99	280.52	11.00	-44.5	-47.3	22.9	6.02e-01	0	43	0	589824000	60	5013
2026-01-19 03:25:56.84	280.36	10.96	-44.4	-47.1	23.1	6.03e-01	0	43	0	591396864	60	4911
2026-01-19 03:25:58.01	280.15	10.90	-44.2	-46.9	23.3	6.04e-01	0	43	0	593494016	60	4779
2026-01-19 03:25:58.86	280.00	10.86	-44.3	-46.9	23.3	6.05e-01	0	43	0	595066880	60	4813
2026-01-19 03:26:00.00	279.79	10.80	-44.3	-47.0	23.2	6.05e-01	0	43	0	597164032	60	4865
2026-01-19 03:26:00.85	279.64	10.76	-44.3	-47.0	23.2	6.03e-01	0	43	0	598736896	60	4826
2026-01-19 03:26:02.10	279.41	10.69	-44.3	-47.0	23.2	6.02e-01	0	43	0	601358336	60	4864
2026-01-19 03:26:02.95	279.26	10.65	-44.4	-47.1	23.0	6.03e-01	0	43	0	602931200	60	4891
2026-01-19 03:26:04.09	279.06	10.59	-44.4	-47.1	23.1	6.03e-01	0	43	0	605028352	60	4914
2026-01-19 03:26:04.95	278.91	10.54	-44.4	-47.1	23.1	6.04e-01	0	43	0	606601216	60	4871
2026-01-19 03:26:06.08	278.71	10.49	-44.4	-47.1	23.1	6.02e-01	0	43	0	608698368	60	4871
2026-01-19 03:26:06.94	278.56	10.44	-44.5	-47.2	23.0	6.03e-01	0	43	0	610271232	60	4959
2026-01-19 03:26:08.08	278.36	10.38	-44.5	-47.2	23.0	6.02e-01	0	43	0	612368384	60	4983
2026-01-19 03:26:09.01	278.20	10.33	-44.4	-47.1	23.1	6.02e-01	0	43	0	613941248	60	4905
2026-01-19 03:26:10.00	278.02	10.28	-44.5	-47.2	23.0	6.02e-01	0	43	0	616038400	60	4940
2026-01-19 03:26:10.99	277.85	10.23	-44.3	-47.1	23.1	6.04e-01	0	43	0	617611264	60	4876
2026-01-19 03:26:11.99	277.68	10.18	-44.4	-47.2	23.0	6.04e-01	0	43	0	619708416	60	4931
2026-01-19 03:26:12.98	277.51	10.12	-44.4	-47.2	23.0	6.04e-01	0	43	0	621805568	60	4940
2026-01-19 03:26:13.98	277.34	10.07	-44.3	-47.1	23.1	6.04e-01	0	43	0	623378432	60	4899
2026-01-19 03:26:14.97	277.17	10.02	-44.4	-47.2	23.0	6.03e-01	0	43	0	625475584	60	4959
2026-01-19 03:26:15.97	277.00	9.97	-44.4	-47.2	23.0	6.06e-01	0	43	0	627048448	60	4945
2026-01-19 03:26:16.96	276.83	9.91	-44.5	-47.3	22.9	6.02e-01	0	43	0	629145600	60	5028
2026-01-19 03:26:17.96	276.67	9.86	-44.5	-47.3	22.9	6.05e-01	0	43	0	630718464	60	5009
2026-01-19 03:26:18.97	276.50	9.81	-44.6	-47.4	22.8	6.02e-01	0	43	0	632815616	60	5061
2026-01-19 03:26:19.96	276.33	9.75	-44.6	-47.4	22.7	6.02e-01	0	43	0	634388480	60	5096
2026-01-19 03:26:20.96	276.17	9.70	-44.6	-47.4	22.8	6.03e-01	0	43	0	636485632	60	5047
2026-01-19 03:26:21.95	276.00	9.65	-44.5	-47.2	22.9	6.04e-01	0	43	0	638582784	60	4969
2026-01-19 03:26:22.95	275.84	9.59	-44.5	-47.3	22.8	6.04e-01	0	43	0	640155648	60	5004
2026-01-19 03:26:23.94	275.67	9.54	-44.5	-47.3	22.9	6.03e-01	0	43	0	642252800	60	5002
2026-01-19 03:26:24.94	275.51	9.49	-44.5	-47.3	22.8	6.04e-01	0	43	0	643825664	60	5025
2026-01-19 03:26:25.94	275.35	9.43	-44.5	-47.4	22.8	6.03e-01	0	43	0	645922816	60	5050
2026-01-19 03:26:26.93	275.19	9.38	-44.5	-47.4	22.8	6.03e-01	0	43	0	647495680	60	5051
2026-01-19 03:26:27.93	275.03	9.32	-44.6	-47.5	22.6	6.01e-01	0	43	0	649592832	60	5143
2026-01-19 03:26:28.92	274.87	9.27	-44.6	-47.5	22.6	6.04e-01	0	43	0	651689984	60	5159
2026-01-19 03:26:29.92	274.71	9.22	-44.6	-47.5	22.7	6.03e-01	0	43	0	653262848	60	5109
2026-01-19 03:26:30.91	274.55	9.16	-44.5	-47.4	22.7	6.04e-01	0	43	0	655360000	60	5097
2026-01-19 03:26:31.91	274.39	9.11	-44.6	-47.5	22.6	6.02e-01	0	43	0	656932864	60	5120
2026-01-19 03:26:32.91	274.23	9.05	-44.7	-47.6	22.5	6.04e-01	0	43	0	659030016	60	5214
2026-01-19 03:26:33.90	274.07	9.00	-50.7	-62.8	9.4	6.49e-01	0	43	0	660602880	72	15003
2026-01-19 03:26:34.89	273.92	8.95	-51.3	-71.4	3.8	7.44e-01	0	43	104	660602880	73	37910
2026-01-19 03:26:35.89	273.76	8.89	-51.3	-71.8	3.8	7.45e-01	0	43	104	660602880	73	39923
2026-01-19 03:26:36.88	273.61	8.84	-51.7	-71.9	3.8	7.45e-01	0	43	104	660602880	73	40282
2026-01-19 03:26:37.87	273.46	8.78	-51.8	-72.0	3.8	7.44e-01	0	43	104	660602880	74	38316
2026-01-19 03:26:38.87	273.30	8.73	-51.9	-72.0	3.8	7.48e-01	0	43	104	660602880	74	38526
2026-01-19 03:26:39.86	273.15	8.67	-52.0	-72.1	3.8	7.44e-01	0	43	104	660602880	74	38782
2026-01-19 03:26:40.85	273.00	8.62	-52.1	-72.1	3.8	7.46e-01	0	43	104	660602880	74	38915
2026-01-19 03:26:41.85	272.84	8.56	-52.2	-72.1	3.8	7.41e-01	0	43	104	660602880	75	36746
2026-01-19 03:26:42.84	272.69	8.51	-52.1	-72.1	3.8	7.45e-01	0	43	104	660602880	75	36863
2026-01-19 03:26:43.83	272.54	8.45	-52.2	-72.2	3.8	7.48e-01	0	43	104	660602880	75	37005
2026-01-19 03:26:44.83	272.39	8.40	-52.1	-72.2	3.8	7.49e-01	0	43	104	660602880	75	37017
2026-01-19 03:26:45.82	272.24	8.35	-52.1	-72.1	3.8	7.47e-01	0	43	104	660602880	75	36911
2026-01-19 03:26:46.81	272.10	8.29	-52.1	-72.2	3.8	7.46e-01	0	43	104	660602880	75	36973
2026-01-19 03:26:47.81	271.95	8.24	-51.8	-72.2	3.8	7.47e-01	0	43	104	660602880	75	37041
2026-01-19 03:26:48.80	271.80	8.18	-51.8	-72.1	3.8	7.46e-01	0	43	104	660602880	75	36945
2026-01-19 03:26:49.79	271.65	8.13	-52.0	-72.1	3.8	7.46e-01	0	43	104	660602880	75	36871
2026-01-19 03:26:50.79	271.51	8.07	-51.9	-72.1	3.8	7.44e-01	0	43	104	660602880	75	36845
2026-01-19 03:26:51.78	271.36	8.02	-51.9	-72.1	3.8	7.49e-01	0	43	104	660602880	75	36883
2026-01-19 03:26:52.78	271.22	7.96	-51.7	-72.1	3.8	7.47e-01	0	43	104	660602880	75	36720
2026-01-19 03:26:53.77	271.07	7.91	-51.6	-72.1	3.8	7.48e-01	0	43	104	660602880	75	36581
2026-01-19 03:26:54.76	270.93	7.85	-51.6	-72.1	3.8	7.42e-01	0	43	104	660602880	75	36595
2026-01-19 03:26:55.76	270.79	7.80	-51.4	-72.0	3.8	7.47e-01	0	43	104	660602880	74	38585
2026-01-19 03:26:56.75	270.64	7.74	-51.4	-72.0	3.8	7.45e-01	0	43	104	660602880	74	38579
2026-01-19 03:26:57.74	270.50	7.69	-51.4	-72.0	3.8	7.42e-01	0	43	104	660602880	74	38594
2026-01-19 03:26:58.74	270.36	7.63	-51.4	-72.0	3.8	7.45e-01	0	43	104	660602880	74	38546
2026-01-19 03:26:59.73	270.22	7.58	-51.4	-72.0	3.8	7.46e-01	0	43	104	660602880	74	38566
2026-01-19 03:27:00.72	270.08	7.52	-51.4	-72.0	3.8	7.46e-01	0	43	104	660602880	74	38552
2026-01-19 03:27:01.71	269.94	7.47	-51.4	-72.0	3.8	7.44e-01	0	43	104	660602880	74	38515
2026-01-19 03:27:02.71	269.80	7.41	-51.4	-72.0	3.8	7.46e-01	0	43	104	660602880	74	38399
2026-01-19 03:27:03.70	269.66	7.35	-51.4	-72.0	3.8	7.43e-01	0	43	104	660602880	74	38438
2026-01-19 03:27:04.69	269.53	7.30	-51.4	-72.0	3.8	7.52e-01	0	43	104	660602880	74	38508
2026-01-19 03:27:05.69	269.39	7.24	-51.4	-72.0	3.8	7.50e-01	0	43	104	660602880	74	38410
2026-01-19 03:27:06.68	269.25	7.19	-51.4	-72.0	3.8	7.47e-01	0	43	104	660602880	74	38450
2026-01-19 03:27:07.67	269.12	7.13	-51.4	-72.0	3.8	7.46e-01	0	43	104	660602880	74	38445
2026-01-19 03:27:08.67	268.98	7.08	-51.4	-72.0	3.8	7.46e-01	0	43	104	660602880	74	38489
2026-01-19 03:27:09.66	268.84	7.02	-51.4	-72.0	3.8	7.48e-01	0	43	104	660602880	74	38474
2026-01-19 03:27:10.65	268.71	6.97	-51.4	-72.0	3.8	7.48e-01	0	43	104	660602880	74	38457
2026-01-19 03:27:11.65	268.58	6.91	-51.4	-72.0	3.8	7.43e-01	0	43	104	660602880	74	38419
2026-01-19 03:27:12.64	268.44	6.86	-51.4	-72.0	3.8	7.45e-01	0	43	104	660602880	74	38411
2026-01-19 03:27:13.64	268.31	6.80	-51.4	-72.0	3.8	7.46e-01	0	43	104	660602880	74	38427
2026-01-19 03:27:14.63	268.18	6.75	-51.4	-72.0	3.8	7.49e-01	0	43	104	660602880	74	38383
2026-01-19 03:27:15.62	268.05	6.69	-51.4	-72.0	3.8	7.46e-01	0	43	104	660602880	74	38389
2026-01-19 03:27:16.62	267.91	6.64	-51.4	-72.0	3.8	7.45e-01	0	43	104	660602880	74	38397
2026-01-19 03:27:17.61	267.78	6.58	-51.4	-72.0	3.8	7.48e-01	0	43	104	660602880	74	38422
2026-01-19 03:27:18.61	267.65	6.53	-51.4	-72.0	3.8	7.46e-01	0	43	104	660602880	74	38469
2026-01-19 03:27:19.60	267.52	6.47	-51.4	-72.0	3.8	7.43e-01	0	43	104	660602880	74	38404
2026-01-19 03:27:20.59	267.40	6.41	-51.4	-72.0	3.8	7.45e-01	0	43	104	660602880	74	38395
2026-01-19 03:27:21.59	267.27	6.36	-51.4	-72.0	3.8	7.44e-01	0	43	104	660602880	74	38292
2026-01-19 03:27:22.58	267.14	6.30	-51.4	-72.0	3.8	7.45e-01	0	43	104	660602880	74	38392
2026-01-19 03:27:23.57	267.01	6.25	-51.4	-72.0	3.8	7.48e-01	0	43	104	660602880	74	38381
2026-01-19 03:27:24.57	266.89	6.19	-51.4	-72.0	3.8	7.42e-01	0	43	104	660602880	74	38364
2026-01-19 03:27:25.56	266.76	6.14	-51.4	-72.0	3.8	7.45e-01	0	43	104	660602880	74	38311
2026-01-19 03:27:26.56	266.63	6.08	-51.4	-72.0	3.8	7.46e-01	0	43	104	660602880	74	38363
2026-01-19 03:27:27.55	266.51	6.03	-51.4	-72.0	3.8	7.46e-01	0	43	104	660602880	74	38300
2026-01-19 03:27:28.54	266.38	5.97	-51.3	-72.0	3.8	7.45e-01	0	43	104	660602880	74	38393
2026-01-19 03:27:29.54	266.26	5.92	-51.3	-72.0	3.8	7.48e-01	0	43	104	660602880	74	38421
2026-01-19 03:27:30.53	266.14	5.86	-51.3	-72.0	3.8	7.47e-01	0	43	104	660602880	74	38344
2026-01-19 03:27:31.52	266.01	5.81	-51.4	-72.0	3.8	7.48e-01	0	43	104	660602880	74	38351
2026-01-19 03:27:32.52	265.89	5.75	-51.3	-72.0	3.8	7.48e-01	0	43	104	660602880	74	38414
2026-01-19 03:27:33.51	265.77	5.70	-51.4	-72.0	3.8	7.41e-01	0	43	104	660602880	74	38382
2026-01-19 03:27:34.50	265.65	5.64	-51.4	-72.0	3.8	7.47e-01	0	43	104	660602880	74	38335
2026-01-19 03:27:35.50	265.53	5.59	-51.3	-72.0	3.8	7.49e-01	0	43	104	660602880	74	38266
2026-01-19 03:27:36.49	265.41	5.53	-51.4	-72.0	3.8	7.46e-01	0	43	104	660602880	74	38300
2026-01-19 03:27:37.48	265.29	5.48	-51.4	-72.0	3.8	7.47e-01	0	43	104	660602880	74	38335
2026-01-19 03:27:38.48	265.17	5.42	-51.4	-72.0	3.8	7.46e-01	0	43	104	660602880	74	38300
2026-01-19 03:27:39.47	265.05	5.37	-51.3	-72.0	3.8	7.47e-01	0	43	104	660602880	74	38331
2026-01-19 03:27:40.46	264.93	5.31	-51.3	-72.0	3.8	7.45e-01	0	43	104	660602880	74	38285
2026-01-19 03:27:41.46	264.81	5.26	-51.4	-72.0	3.8	7.45e-01	0	43	104	660602880	74	38331
2026-01-19 03:27:42.45	264.69	5.20	-51.3	-72.0	3.8	7.48e-01	0	43	104	660602880	74	38342
2026-01-19 03:27:43.44	264.58	5.15	-51.4	-72.0	3.8	7.47e-01	0	43	104	660602880	74	38368
2026-01-19 03:27:44.44	264.46	5.09	-51.3	-72.0	3.8	7.47e-01	0	43	104	660602880	74	38394
2026-01-19 03:27:45.43	264.34	5.04	-51.3	-72.0	3.8	7.46e-01	0	43	104	660602880	74	38363
2026-01-19 03:27:46.42	264.23	4.98	-51.3	-72.0	3.8	7.46e-01	0	43	104	660602880	74	38368

#Closed at: 2026-01-19 03:27:47
#Recorded file [660 MB]: D:/Data/31040_260119_061924.dat