passes_logs/2026/01/19/T1/T1__20260119_113235_SUOMI_NPP_rec.log

#Pass ID: 20260119_113235_SUOMI NPP
#Satellite: SUOMI NPP
#Configuration: NPP
#almurnet v.1.7.20251203
#Start time: 2026-01-19 11:32:35

#Version: 2.0.20230620
#Station: T1
#Location: 37.570604 lon 55.790049 lat
#TLE: 1 37849U 11061A   26018.91022273  .00000066  00000+0  52264-4 0  9997
#TLE: 2 37849  98.7816 320.9252 0002364  56.8129 303.3273 14.19526186737260

#Time	Az	El	Level	Level2	SNR	BER	BlckErr	Temp	State	Recorded	gain1	gain2
2026-01-19 11:32:35.84	210.94	5.03	-49.5	-65.2	3.8	1.49e+00	0	41	0	0	71	20786
2026-01-19 11:32:36.82	211.02	5.09	-49.6	-65.1	3.8	1.49e+00	0	41	104	0	70	22004
2026-01-19 11:32:37.82	211.11	5.15	-49.6	-65.1	3.8	1.49e+00	0	41	104	0	70	21997
2026-01-19 11:32:38.81	211.20	5.21	-49.6	-65.2	3.8	1.49e+00	0	41	104	0	70	22030
2026-01-19 11:32:39.80	211.28	5.26	-49.6	-65.1	3.8	1.49e+00	0	41	104	0	70	21998
2026-01-19 11:32:40.80	211.37	5.32	-49.6	-65.2	3.8	1.49e+00	0	41	104	0	70	22140
2026-01-19 11:32:41.79	211.46	5.38	-49.6	-65.2	3.8	1.49e+00	0	41	104	0	70	22126
2026-01-19 11:32:42.78	211.55	5.44	-49.6	-65.1	3.8	1.49e+00	0	41	104	0	70	21946
2026-01-19 11:32:43.78	211.64	5.50	-49.6	-65.1	3.8	1.49e+00	0	42	104	0	70	21824
2026-01-19 11:32:44.77	211.72	5.56	-49.6	-65.1	3.8	1.49e+00	0	41	104	0	70	21784
2026-01-19 11:32:45.76	211.81	5.62	-49.5	-65.1	3.8	1.49e+00	0	41	104	0	70	21759
2026-01-19 11:32:46.75	211.90	5.68	-49.5	-65.1	3.8	1.49e+00	0	42	104	0	70	21826
2026-01-19 11:32:47.75	211.99	5.74	-49.5	-65.1	3.8	1.49e+00	0	41	104	0	70	21772
2026-01-19 11:32:48.74	212.08	5.80	-49.5	-65.0	3.8	1.49e+00	0	42	104	0	70	21725
2026-01-19 11:32:49.73	212.17	5.86	-49.5	-65.0	3.8	1.49e+00	0	41	104	0	70	21740
2026-01-19 11:32:50.73	212.26	5.92	-49.5	-65.0	3.8	1.49e+00	0	42	104	0	70	21672
2026-01-19 11:32:51.72	212.35	5.98	-49.5	-65.1	3.8	1.49e+00	0	42	104	0	70	21783
2026-01-19 11:32:52.71	212.45	6.04	-49.5	-65.1	3.8	1.49e+00	0	42	104	0	70	21804
2026-01-19 11:32:53.71	212.54	6.10	-49.5	-65.1	3.8	1.49e+00	0	42	104	0	70	21790
2026-01-19 11:32:54.70	212.63	6.16	-49.5	-65.0	3.8	1.49e+00	0	42	104	0	70	21694
2026-01-19 11:32:55.69	212.72	6.22	-49.5	-65.0	3.8	1.49e+00	0	42	104	0	70	21698
2026-01-19 11:32:56.68	212.82	6.28	-49.5	-65.1	3.8	1.49e+00	0	42	104	0	70	21801
2026-01-19 11:32:57.68	212.91	6.34	-49.5	-65.1	3.8	1.49e+00	0	42	104	0	70	21950
2026-01-19 11:32:58.67	213.00	6.40	-49.6	-65.1	3.8	1.49e+00	0	42	104	0	70	21949
2026-01-19 11:32:59.66	213.10	6.46	-49.5	-65.1	3.8	1.49e+00	0	42	104	0	70	21954
2026-01-19 11:33:00.66	213.19	6.52	-49.5	-65.1	3.8	1.49e+00	0	42	104	0	70	21865
2026-01-19 11:33:01.65	213.29	6.59	-49.5	-65.0	3.8	1.49e+00	0	42	104	0	70	21658
2026-01-19 11:33:02.64	213.38	6.65	-49.5	-65.0	3.8	1.49e+00	0	42	104	0	70	21522
2026-01-19 11:33:03.64	213.48	6.71	-49.5	-64.9	3.8	1.49e+00	0	42	104	0	70	21450
2026-01-19 11:33:04.63	213.57	6.77	-49.5	-65.0	3.8	1.49e+00	0	42	104	0	70	21509
2026-01-19 11:33:05.62	213.67	6.83	-49.5	-65.0	3.8	1.49e+00	0	42	104	0	70	21530
2026-01-19 11:33:06.62	213.77	6.89	-49.5	-65.0	3.8	1.49e+00	0	42	104	0	70	21652
2026-01-19 11:33:07.61	213.86	6.95	-49.5	-65.0	3.8	1.49e+00	0	42	104	0	70	21619
2026-01-19 11:33:08.60	213.96	7.01	-49.5	-65.0	3.8	1.49e+00	0	42	104	0	70	21626
2026-01-19 11:33:09.59	214.06	7.08	-49.5	-65.0	3.8	1.49e+00	0	42	104	0	70	21523
2026-01-19 11:33:10.59	214.16	7.14	-49.5	-65.0	3.8	1.49e+00	0	42	104	0	70	21604
2026-01-19 11:33:11.58	214.26	7.20	-49.5	-65.0	3.8	1.49e+00	0	42	104	0	70	21613
2026-01-19 11:33:12.57	214.36	7.26	-49.5	-65.0	3.8	1.49e+00	0	43	104	0	70	21562
2026-01-19 11:33:13.56	214.45	7.32	-49.5	-65.0	3.8	1.49e+00	0	42	104	0	70	21517
2026-01-19 11:33:14.56	214.56	7.38	-49.5	-65.0	3.8	1.49e+00	0	42	104	0	70	21567
2026-01-19 11:33:15.55	214.66	7.45	-49.5	-65.1	3.8	1.49e+00	0	43	104	0	70	21764
2026-01-19 11:33:16.54	214.76	7.51	-49.5	-65.1	3.8	1.49e+00	0	42	104	0	70	21758
2026-01-19 11:33:17.54	214.86	7.57	-49.5	-65.0	3.8	1.49e+00	0	42	104	0	70	21573
2026-01-19 11:33:18.53	214.96	7.63	-49.5	-64.4	3.8	1.49e+00	0	43	104	0	70	20200
2026-01-19 11:33:19.52	215.06	7.69	-49.4	-63.7	3.8	1.49e+00	0	42	104	0	70	18675
2026-01-19 11:33:20.51	215.16	7.76	-49.4	-63.1	3.8	1.49e+00	0	42	104	0	70	17331
2026-01-19 11:33:21.51	215.27	7.82	-49.4	-62.6	3.8	1.48e+00	0	43	104	0	70	16502
2026-01-19 11:33:22.50	215.37	7.88	-49.4	-63.0	3.8	1.48e+00	0	43	104	0	70	17267
2026-01-19 11:33:23.49	215.47	7.94	-49.5	-64.2	3.8	1.49e+00	0	43	104	0	70	19788
2026-01-19 11:33:24.49	215.58	8.01	-49.5	-65.1	3.8	1.49e+00	0	42	104	0	70	21934
2026-01-19 11:33:25.48	215.68	8.07	-49.4	-63.5	3.8	1.49e+00	0	43	104	0	70	18162
2026-01-19 11:33:26.47	215.79	8.13	-49.1	-59.3	5.1	1.39e+00	0	42	0	0	70	11255
2026-01-19 11:33:27.47	215.89	8.20	-48.3	-55.6	8.1	1.31e-01	0	43	0	2097152	68	8215
2026-01-19 11:33:28.46	216.00	8.26	-47.2	-52.6	11.1	9.25e-03	0	42	0	4194304	66	6512
2026-01-19 11:33:29.45	216.11	8.32	-46.3	-50.7	13.0	2.91e-04	0	42	0	6291456	64	5861
2026-01-19 11:33:30.44	216.21	8.38	-45.5	-49.1	14.7	6.80e-06	0	43	0	7340032	63	5180
2026-01-19 11:33:31.44	216.32	8.45	-45.0	-48.3	15.5	0.00e+00	0	43	0	9437184	61	5302
2026-01-19 11:33:32.43	216.43	8.51	-44.7	-47.9	15.8	0.00e+00	0	43	0	11534336	61	5099
2026-01-19 11:33:33.42	216.54	8.57	-44.7	-48.0	15.8	0.00e+00	0	43	0	13631488	61	5126
2026-01-19 11:33:34.41	216.64	8.64	-45.1	-48.5	15.3	0.00e+00	0	43	0	14680064	61	5444
2026-01-19 11:33:35.41	216.75	8.70	-45.6	-49.3	14.5	0.00e+00	0	43	0	16777216	61	5975
2026-01-19 11:33:36.40	216.86	8.77	-46.3	-50.5	13.3	5.30e-06	0	43	0	18874368	63	6121
2026-01-19 11:33:37.39	216.97	8.83	-47.0	-52.0	11.7	1.05e-04	0	43	0	20971520	64	6802
2026-01-19 11:33:38.39	217.08	8.89	-47.7	-53.8	9.9	4.80e-03	0	43	0	23068672	65	7935
2026-01-19 11:33:39.38	217.19	8.96	-48.2	-55.6	8.0	3.65e-02	0	43	0	24117248	67	8720
2026-01-19 11:33:40.37	217.31	9.02	-48.6	-57.2	6.5	1.38e-01	0	43	0	26214400	67	10454
2026-01-19 11:33:41.36	217.42	9.08	-48.9	-58.6	5.6	3.45e-01	0	43	0	28311552	68	11656
2026-01-19 11:33:42.36	217.53	9.15	-48.9	-57.9	6.0	5.13e-01	0	43	0	30408704	68	10739
2026-01-19 11:33:43.35	217.64	9.21	-48.3	-55.3	8.5	7.33e-03	0	43	0	31457280	67	8388
2026-01-19 11:33:44.34	217.76	9.28	-49.2	-60.6	4.5	9.39e-01	0	43	0	33554432	69	13842
2026-01-19 11:33:45.34	217.87	9.34	-49.0	-57.4	6.3	8.93e-01	0	43	0	35651584	69	9570
2026-01-19 11:33:46.33	217.98	9.40	-47.6	-52.9	10.9	1.46e-03	0	43	0	37748736	66	6749
2026-01-19 11:33:47.32	218.10	9.47	-47.4	-52.5	11.3	8.65e-04	0	43	0	38797312	66	6467
2026-01-19 11:33:48.31	218.21	9.53	-47.0	-51.7	12.2	6.19e-04	0	43	0	40894464	66	5862
2026-01-19 11:33:49.31	218.33	9.60	-46.3	-50.4	13.4	3.58e-05	0	43	0	42991616	64	5718
2026-01-19 11:33:50.30	218.45	9.66	-46.3	-50.2	13.7	3.80e-06	0	43	0	45088768	63	5917
2026-01-19 11:33:51.29	218.56	9.73	-46.1	-49.9	14.0	6.10e-06	0	43	0	47185920	63	5706
2026-01-19 11:33:52.28	218.68	9.79	-45.7	-49.2	14.7	0.00e+00	0	43	0	48234496	63	5251
2026-01-19 11:33:53.28	218.80	9.86	-45.9	-49.6	14.4	0.00e+00	0	43	0	50331648	63	5496
2026-01-19 11:33:54.27	218.92	9.92	-45.6	-49.2	14.8	7.00e-07	0	43	0	52428800	63	5241
2026-01-19 11:33:55.26	219.03	9.99	-45.6	-49.1	14.9	0.00e+00	0	43	0	54525952	62	5467
2026-01-19 11:33:56.26	219.16	10.05	-45.4	-48.9	15.1	0.00e+00	0	43	0	55574528	62	5367
2026-01-19 11:33:57.25	219.27	10.12	-44.9	-48.2	15.7	0.00e+00	0	43	0	57671680	61	5227
2026-01-19 11:33:58.24	219.39	10.18	-44.9	-48.2	15.6	0.00e+00	0	43	0	59768832	61	5242
2026-01-19 11:33:59.24	219.52	10.25	-44.8	-48.1	15.7	0.00e+00	0	43	0	61865984	61	5216
2026-01-19 11:34:00.23	219.64	10.31	-44.9	-48.3	15.6	0.00e+00	0	43	0	62914560	61	5311
2026-01-19 11:34:01.22	219.76	10.38	-44.9	-48.3	15.6	0.00e+00	0	43	0	65011712	61	5309
2026-01-19 11:34:02.21	219.88	10.44	-44.9	-48.4	15.5	0.00e+00	0	43	0	67108864	61	5379
2026-01-19 11:34:03.21	220.00	10.51	-45.0	-48.5	15.3	0.00e+00	0	43	0	69206016	61	5464
2026-01-19 11:34:04.20	220.13	10.57	-44.9	-48.3	15.6	0.00e+00	0	43	0	71303168	61	5323
2026-01-19 11:34:05.19	220.25	10.64	-44.9	-48.3	15.6	0.00e+00	0	43	0	72351744	61	5308
2026-01-19 11:34:06.19	220.38	10.70	-45.0	-48.4	15.5	0.00e+00	0	43	0	74448896	61	5384
2026-01-19 11:34:07.18	220.50	10.77	-44.9	-48.2	15.7	0.00e+00	0	43	0	76546048	61	5277
2026-01-19 11:34:08.17	220.63	10.83	-44.6	-47.9	16.1	0.00e+00	0	43	0	78643200	61	5044
2026-01-19 11:34:09.16	220.75	10.90	-44.6	-47.7	16.2	0.00e+00	0	43	0	79691776	61	4972
2026-01-19 11:34:10.16	220.88	10.97	-44.4	-47.4	16.5	0.00e+00	0	43	0	81788928	60	5078
2026-01-19 11:34:11.15	221.01	11.03	-44.2	-47.1	16.8	0.00e+00	0	43	0	83886080	60	4898
2026-01-19 11:34:12.14	221.13	11.10	-44.2	-47.1	16.9	0.00e+00	0	43	0	85983232	60	4882
2026-01-19 11:34:13.13	221.26	11.16	-44.1	-46.9	17.0	0.00e+00	0	43	0	88080384	60	4791
2026-01-19 11:34:14.13	221.39	11.23	-44.2	-47.0	16.8	0.00e+00	0	43	0	89128960	60	4870
2026-01-19 11:34:15.12	221.52	11.29	-44.3	-47.1	16.8	0.00e+00	0	43	0	91226112	60	4910
2026-01-19 11:34:16.11	221.65	11.36	-44.1	-46.8	17.1	0.00e+00	0	43	0	93323264	60	4753
2026-01-19 11:34:17.11	221.78	11.43	-44.1	-46.8	17.1	0.00e+00	0	43	0	95420416	60	4740
2026-01-19 11:34:18.10	221.91	11.49	-44.1	-46.8	17.0	0.00e+00	0	43	0	96468992	60	4735
2026-01-19 11:34:19.09	222.05	11.56	-44.1	-46.9	17.0	0.00e+00	0	43	0	98566144	60	4794
2026-01-19 11:34:20.08	222.18	11.62	-43.7	-46.3	17.5	0.00e+00	0	43	0	100663296	59	4737
2026-01-19 11:34:21.08	222.31	11.69	-43.7	-46.4	17.5	0.00e+00	0	43	0	102760448	59	4771
2026-01-19 11:34:22.07	222.44	11.76	-43.8	-46.4	17.4	0.00e+00	0	43	0	104857600	59	4806
2026-01-19 11:34:23.06	222.58	11.82	-43.8	-46.4	17.4	0.00e+00	0	43	0	105906176	59	4798
2026-01-19 11:34:24.05	222.71	11.89	-43.7	-46.3	17.5	0.00e+00	0	43	0	108003328	59	4735
2026-01-19 11:34:25.05	222.85	11.96	-43.6	-46.1	17.7	0.00e+00	0	43	0	110100480	59	4610
2026-01-19 11:34:26.04	222.98	12.02	-43.6	-46.1	17.6	0.00e+00	0	43	0	112197632	59	4650
2026-01-19 11:34:27.03	223.12	12.09	-43.6	-46.2	17.6	0.00e+00	0	43	0	113246208	59	4666
2026-01-19 11:34:28.03	223.26	12.16	-43.6	-46.1	17.7	0.00e+00	0	43	0	115343360	59	4629
2026-01-19 11:34:29.02	223.40	12.22	-43.5	-46.0	17.8	0.00e+00	0	43	0	117440512	58	4830
2026-01-19 11:34:30.01	223.53	12.29	-43.7	-46.2	17.6	0.00e+00	0	43	0	119537664	58	4980
2026-01-19 11:34:31.01	223.67	12.36	-43.7	-46.2	17.6	0.00e+00	0	43	0	121634816	58	4976
2026-01-19 11:34:32.00	223.81	12.42	-43.7	-46.3	17.6	0.00e+00	0	43	0	122683392	58	4998
2026-01-19 11:34:32.99	223.95	12.49	-43.7	-46.3	17.6	0.00e+00	0	43	0	124780544	58	4998
2026-01-19 11:34:33.99	224.09	12.56	-43.7	-46.3	17.5	0.00e+00	0	43	0	126877696	58	5025
2026-01-19 11:34:34.98	224.24	12.62	-43.7	-46.3	17.6	0.00e+00	0	43	0	128974848	58	5016
2026-01-19 11:34:35.97	224.38	12.69	-43.6	-46.2	17.7	0.00e+00	0	43	0	130023424	58	4956
2026-01-19 11:34:36.96	224.52	12.76	-43.7	-46.3	17.6	0.00e+00	0	43	0	132120576	58	5017
2026-01-19 11:34:37.96	224.66	12.82	-43.9	-46.5	17.4	0.00e+00	0	43	0	134217728	58	5135
2026-01-19 11:34:38.95	224.81	12.89	-43.8	-46.4	17.5	0.00e+00	0	43	0	136314880	58	5082
2026-01-19 11:34:39.94	224.95	12.96	-43.9	-46.6	17.3	0.00e+00	0	43	0	138412032	58	5203
2026-01-19 11:34:40.93	225.10	13.02	-44.1	-46.8	17.1	0.00e+00	0	43	0	139460608	58	5324
2026-01-19 11:34:41.93	225.24	13.09	-44.2	-46.9	17.0	0.00e+00	0	43	0	141557760	58	5387
2026-01-19 11:34:42.92	225.39	13.16	-44.2	-46.9	17.0	0.00e+00	0	43	0	143654912	59	5079
2026-01-19 11:34:43.91	225.53	13.22	-44.1	-46.9	17.1	0.00e+00	0	43	0	145752064	59	5055
2026-01-19 11:34:44.91	225.68	13.29	-44.0	-46.7	17.3	0.00e+00	0	43	0	146800640	59	4969
2026-01-19 11:34:45.90	225.83	13.36	-44.0	-46.7	17.3	0.00e+00	0	43	0	148897792	59	4929
2026-01-19 11:34:46.89	225.98	13.42	-43.8	-46.4	17.5	0.00e+00	0	43	0	150994944	59	4811
2026-01-19 11:34:47.88	226.13	13.49	-43.9	-46.5	17.4	0.00e+00	0	43	0	153092096	59	4862
2026-01-19 11:34:48.88	226.28	13.56	-43.9	-46.5	17.4	0.00e+00	0	43	0	154140672	59	4843
2026-01-19 11:34:49.87	226.43	13.63	-43.8	-46.4	17.6	0.00e+00	0	43	0	156237824	59	4762
2026-01-19 11:34:50.86	226.58	13.69	-43.5	-46.0	17.8	0.00e+00	0	43	0	158334976	59	4598
2026-01-19 11:34:51.85	226.73	13.76	-43.4	-45.9	18.0	0.00e+00	0	43	0	160432128	58	4808
2026-01-19 11:34:52.85	226.89	13.83	-43.5	-46.0	17.9	0.00e+00	0	43	0	162529280	58	4815
2026-01-19 11:34:53.84	227.04	13.89	-43.4	-45.8	18.1	0.00e+00	0	44	0	163577856	58	4747
2026-01-19 11:34:54.83	227.20	13.96	-43.3	-45.8	18.1	0.00e+00	0	43	0	165675008	58	4729
2026-01-19 11:34:55.83	227.35	14.03	-43.4	-45.9	18.0	0.00e+00	0	43	0	167772160	58	4767
2026-01-19 11:34:56.82	227.51	14.09	-43.2	-45.7	18.2	0.00e+00	0	43	0	169869312	58	4659
2026-01-19 11:34:57.81	227.66	14.16	-43.0	-45.4	18.4	0.00e+00	0	43	0	170917888	58	4524
2026-01-19 11:34:58.80	227.82	14.23	-43.1	-45.6	18.3	0.00e+00	0	43	0	173015040	58	4603
2026-01-19 11:34:59.80	227.98	14.29	-43.1	-45.6	18.4	0.00e+00	0	43	0	175112192	58	4601
2026-01-19 11:35:00.79	228.14	14.36	-43.2	-45.7	18.2	0.00e+00	0	43	0	177209344	58	4662
2026-01-19 11:35:01.78	228.29	14.43	-43.1	-45.5	18.3	0.00e+00	0	43	0	179306496	58	4591
2026-01-19 11:35:02.77	228.45	14.49	-43.3	-45.7	18.2	0.00e+00	0	44	0	180355072	58	4697
2026-01-19 11:35:03.77	228.62	14.56	-43.3	-45.8	18.1	0.00e+00	0	43	0	182452224	58	4738
2026-01-19 11:35:04.76	228.78	14.63	-43.2	-45.6	18.3	0.00e+00	0	43	0	184549376	58	4610
2026-01-19 11:35:05.75	228.94	14.70	-43.4	-45.9	18.1	0.00e+00	0	43	0	186646528	58	4761
2026-01-19 11:35:06.75	229.10	14.76	-43.3	-45.7	18.2	0.00e+00	0	43	0	187695104	58	4690
2026-01-19 11:35:07.74	229.26	14.83	-43.4	-45.9	18.0	0.00e+00	0	43	0	189792256	58	4809
2026-01-19 11:35:08.73	229.43	14.90	-43.4	-46.0	18.0	0.00e+00	0	44	0	191889408	58	4817
2026-01-19 11:35:09.72	229.59	14.96	-43.6	-46.2	17.8	0.00e+00	0	43	0	193986560	58	4958
2026-01-19 11:35:10.72	229.76	15.03	-43.6	-46.2	17.8	0.00e+00	0	43	0	196083712	58	4956
2026-01-19 11:35:11.71	229.93	15.10	-43.7	-46.3	17.7	0.00e+00	0	43	0	197132288	58	4998
2026-01-19 11:35:12.70	230.09	15.16	-43.7	-46.3	17.7	0.00e+00	0	43	0	199229440	58	4996
2026-01-19 11:35:13.70	230.26	15.23	-43.7	-46.2	17.8	0.00e+00	0	43	0	201326592	58	4970
2026-01-19 11:35:14.69	230.43	15.29	-43.5	-46.0	17.9	0.00e+00	0	43	0	203423744	58	4863
2026-01-19 11:35:15.68	230.60	15.36	-43.5	-46.0	18.0	0.00e+00	0	43	0	204472320	58	4822
2026-01-19 11:35:16.68	230.77	15.43	-43.4	-45.9	18.0	0.00e+00	0	43	0	206569472	58	4801
2026-01-19 11:35:17.67	230.94	15.49	-43.3	-45.8	18.2	0.00e+00	0	43	0	208666624	58	4712
2026-01-19 11:35:18.66	231.11	15.56	-43.4	-46.0	18.0	0.00e+00	0	43	0	210763776	58	4820
2026-01-19 11:35:19.65	231.28	15.63	-43.3	-45.8	18.2	0.00e+00	0	43	0	212860928	58	4716
2026-01-19 11:35:20.65	231.45	15.69	-43.2	-45.7	18.3	0.00e+00	0	43	0	213909504	58	4664
2026-01-19 11:35:21.64	231.63	15.76	-43.2	-45.7	18.3	0.00e+00	0	43	0	216006656	58	4652
2026-01-19 11:35:22.63	231.80	15.82	-43.2	-45.6	18.3	0.00e+00	0	43	0	218103808	58	4634
2026-01-19 11:35:23.63	231.98	15.89	-43.2	-45.6	18.4	0.00e+00	0	43	0	220200960	58	4624
2026-01-19 11:35:24.62	232.15	15.96	-43.1	-45.5	18.4	0.00e+00	0	43	0	221249536	58	4578
2026-01-19 11:35:25.61	232.33	16.02	-43.2	-45.6	18.4	0.00e+00	0	44	0	223346688	58	4615
2026-01-19 11:35:26.60	232.51	16.09	-43.0	-45.4	18.5	0.00e+00	0	43	0	225443840	58	4513
2026-01-19 11:35:27.60	232.68	16.15	-42.9	-45.2	18.6	0.00e+00	0	43	0	227540992	57	4699
2026-01-19 11:35:28.59	232.86	16.22	-42.9	-45.3	18.6	0.00e+00	0	43	0	229638144	57	4727
2026-01-19 11:35:29.58	233.04	16.28	-42.9	-45.2	18.7	0.00e+00	0	43	0	230686720	57	4676
2026-01-19 11:35:30.58	233.22	16.35	-42.9	-45.2	18.7	0.00e+00	0	43	0	232783872	57	4691
2026-01-19 11:35:31.57	233.40	16.41	-43.0	-45.4	18.5	0.00e+00	0	43	0	234881024	57	4770
2026-01-19 11:35:32.56	233.59	16.48	-42.8	-45.1	18.8	0.00e+00	0	43	0	236978176	57	4621
2026-01-19 11:35:33.56	233.77	16.54	-42.8	-45.2	18.7	0.00e+00	0	43	0	238026752	57	4667
2026-01-19 11:35:34.55	233.95	16.61	-42.8	-45.2	18.7	0.00e+00	0	43	0	240123904	57	4678
2026-01-19 11:35:35.54	234.14	16.67	-43.0	-45.4	18.6	0.00e+00	0	43	0	242221056	57	4781
2026-01-19 11:35:36.53	234.32	16.74	-43.0	-45.4	18.6	0.00e+00	0	43	0	244318208	57	4764
2026-01-19 11:35:37.53	234.51	16.80	-43.2	-45.6	18.4	0.00e+00	0	43	0	245366784	57	4904
2026-01-19 11:35:38.52	234.69	16.87	-43.2	-45.7	18.3	0.00e+00	0	43	0	247463936	57	4927
2026-01-19 11:35:39.51	234.88	16.93	-43.2	-45.7	18.2	0.00e+00	0	43	0	249561088	57	4964
2026-01-19 11:35:40.51	235.07	17.00	-43.3	-45.8	18.2	0.00e+00	0	43	0	251658240	57	4989
2026-01-19 11:35:41.50	235.26	17.06	-43.2	-45.7	18.3	0.00e+00	0	43	0	253755392	57	4928
2026-01-19 11:35:42.49	235.45	17.12	-43.2	-45.6	18.3	0.00e+00	0	43	0	254803968	57	4904
2026-01-19 11:35:43.48	235.64	17.19	-43.3	-45.8	18.2	0.00e+00	0	43	0	256901120	57	5019
2026-01-19 11:35:44.48	235.83	17.25	-43.2	-45.7	18.3	0.00e+00	0	43	0	258998272	57	4954
2026-01-19 11:35:45.47	236.02	17.31	-43.3	-45.8	18.2	0.00e+00	0	43	0	261095424	57	5019
2026-01-19 11:35:46.46	236.21	17.38	-43.3	-45.8	18.1	0.00e+00	0	43	0	262144000	57	5026
2026-01-19 11:35:47.46	236.41	17.44	-43.3	-45.8	18.1	0.00e+00	0	43	0	264241152	57	5035
2026-01-19 11:35:48.45	236.60	17.50	-43.8	-46.4	17.6	0.00e+00	0	43	0	266338304	58	5061
2026-01-19 11:35:49.44	236.80	17.57	-43.7	-46.3	17.7	0.00e+00	0	44	0	268435456	58	5007
2026-01-19 11:35:50.43	236.99	17.63	-43.8	-46.4	17.6	0.00e+00	0	43	0	270532608	58	5096
2026-01-19 11:35:51.43	237.19	17.69	-43.9	-46.5	17.6	0.00e+00	0	43	0	271581184	58	5103
2026-01-19 11:35:52.42	237.39	17.75	-43.7	-46.3	17.8	0.00e+00	0	43	0	273678336	58	4991
2026-01-19 11:35:53.42	237.59	17.82	-43.5	-46.0	17.9	0.00e+00	0	44	0	275775488	58	4834
2026-01-19 11:35:54.41	237.78	17.88	-43.6	-46.1	17.9	0.00e+00	0	43	0	277872640	58	4926
2026-01-19 11:35:55.40	237.98	17.94	-43.5	-46.0	18.0	0.00e+00	0	43	0	278921216	58	4828
2026-01-19 11:35:56.39	238.18	18.00	-43.5	-46.0	18.1	0.00e+00	0	43	0	281018368	58	4839
2026-01-19 11:35:57.39	238.39	18.06	-43.4	-45.9	18.1	0.00e+00	0	44	0	283115520	58	4786
2026-01-19 11:35:58.38	238.59	18.13	-43.5	-45.9	18.1	0.00e+00	0	44	0	285212672	58	4796
2026-01-19 11:35:59.37	238.79	18.19	-43.3	-45.8	18.2	0.00e+00	0	43	0	287309824	58	4729
2026-01-19 11:36:00.37	239.00	18.25	-43.4	-45.8	18.2	0.00e+00	0	43	0	288358400	58	4728
2026-01-19 11:36:01.36	239.20	18.31	-43.3	-45.7	18.3	0.00e+00	0	43	0	290455552	58	4667
2026-01-19 11:36:02.35	239.40	18.37	-43.2	-45.6	18.4	0.00e+00	0	43	0	292552704	58	4599
2026-01-19 11:36:03.34	239.61	18.43	-43.2	-45.5	18.4	0.00e+00	0	44	0	294649856	58	4594
2026-01-19 11:36:04.34	239.82	18.49	-43.2	-45.5	18.4	0.00e+00	0	43	0	295698432	58	4595
2026-01-19 11:36:05.33	240.03	18.55	-43.4	-45.8	18.1	0.00e+00	0	43	0	297795584	58	4757
2026-01-19 11:36:06.32	240.23	18.61	-43.6	-46.1	17.9	0.00e+00	0	43	0	299892736	58	4886
2026-01-19 11:36:07.32	240.44	18.67	-43.7	-46.2	17.8	0.00e+00	0	43	0	301989888	58	4965
2026-01-19 11:36:08.31	240.65	18.73	-43.8	-46.3	17.7	0.00e+00	0	44	0	304087040	58	5034
2026-01-19 11:36:09.30	240.86	18.79	-43.7	-46.3	17.8	0.00e+00	0	43	0	305135616	58	4997
2026-01-19 11:36:10.30	241.08	18.85	-43.6	-46.2	17.8	0.00e+00	0	44	0	307232768	58	4928
2026-01-19 11:36:11.29	241.29	18.90	-43.4	-45.8	18.2	0.00e+00	0	43	0	309329920	58	4721
2026-01-19 11:36:12.28	241.50	18.96	-43.3	-45.8	18.2	0.00e+00	0	44	0	311427072	58	4709
2026-01-19 11:36:13.27	241.72	19.02	-43.4	-45.9	18.2	0.00e+00	0	43	0	312475648	58	4765
2026-01-19 11:36:14.27	241.93	19.08	-43.6	-46.0	18.0	0.00e+00	0	44	0	314572800	58	4849
2026-01-19 11:36:15.26	242.15	19.14	-43.8	-46.3	17.8	0.00e+00	0	43	0	316669952	58	5032
2026-01-19 11:36:16.25	242.36	19.19	-44.1	-46.7	17.4	0.00e+00	0	43	0	318767104	58	5250
2026-01-19 11:36:17.25	242.58	19.25	-44.2	-46.8	17.3	0.00e+00	0	43	0	320864256	59	5038
2026-01-19 11:36:18.24	242.80	19.31	-44.1	-46.8	17.3	0.00e+00	0	44	0	321912832	59	4990
2026-01-19 11:36:19.23	243.02	19.36	-43.9	-46.5	17.6	0.00e+00	0	43	0	324009984	59	4834
2026-01-19 11:36:20.22	243.24	19.42	-43.9	-46.4	17.6	0.00e+00	0	44	0	326107136	59	4800
2026-01-19 11:36:21.22	243.46	19.47	-43.8	-46.3	17.8	0.00e+00	0	44	0	328204288	59	4734
2026-01-19 11:36:22.21	243.68	19.53	-44.0	-46.6	17.5	0.00e+00	0	43	0	329252864	59	4903
2026-01-19 11:36:23.20	243.90	19.58	-44.1	-46.7	17.4	0.00e+00	0	44	0	331350016	59	4955
2026-01-19 11:36:24.20	244.13	19.64	-44.3	-47.1	17.0	0.00e+00	0	43	0	333447168	59	5164
2026-01-19 11:36:25.19	244.35	19.69	-44.6	-47.5	16.7	0.00e+00	0	43	0	335544320	60	5101
2026-01-19 11:36:26.18	244.57	19.75	-44.7	-47.5	16.6	0.00e+00	0	43	0	336592896	60	5155
2026-01-19 11:36:27.18	244.80	19.80	-44.5	-47.3	16.9	0.00e+00	0	43	0	338690048	60	4993
2026-01-19 11:36:28.17	245.03	19.86	-44.3	-47.0	17.2	0.00e+00	0	43	0	340787200	60	4825
2026-01-19 11:36:29.16	245.25	19.91	-44.2	-46.8	17.4	0.00e+00	0	43	0	342884352	60	4724
2026-01-19 11:36:30.15	245.48	19.96	-44.2	-46.8	17.3	0.00e+00	0	43	0	344981504	60	4746
2026-01-19 11:36:31.15	245.71	20.02	-44.2	-46.9	17.3	0.00e+00	0	43	0	346030080	60	4797
2026-01-19 11:36:32.14	245.94	20.07	-44.3	-47.0	17.1	0.00e+00	0	43	0	348127232	60	4866
2026-01-19 11:36:33.13	246.17	20.12	-44.5	-47.2	17.0	0.00e+00	0	43	0	350224384	60	4969
2026-01-19 11:36:34.12	246.39	20.17	-44.6	-47.4	16.9	0.00e+00	0	43	0	352321536	60	5053
2026-01-19 11:36:35.12	246.63	20.22	-44.4	-47.1	17.1	0.00e+00	0	43	0	353370112	60	4900
2026-01-19 11:36:36.11	246.86	20.27	-44.4	-47.2	17.1	0.00e+00	0	43	0	355467264	60	4933
2026-01-19 11:36:37.10	247.09	20.32	-44.4	-47.1	17.1	0.00e+00	0	43	0	357564416	60	4925
2026-01-19 11:36:38.10	247.33	20.37	-44.5	-47.2	17.0	0.00e+00	0	44	0	359661568	60	4958
2026-01-19 11:36:39.09	247.56	20.42	-44.8	-47.7	16.6	0.00e+00	0	44	0	361758720	60	5258
2026-01-19 11:36:40.08	247.79	20.47	-44.8	-47.6	16.6	0.00e+00	0	43	0	362807296	60	5211
2026-01-19 11:36:41.07	248.03	20.52	-45.0	-48.0	16.3	0.00e+00	0	43	0	364904448	60	5451
2026-01-19 11:36:42.07	248.27	20.57	-44.8	-47.8	16.5	0.00e+00	0	44	0	367001600	60	5292
2026-01-19 11:36:43.06	248.50	20.62	-44.5	-47.3	16.9	0.00e+00	0	43	0	369098752	60	5025
2026-01-19 11:36:44.05	248.74	20.67	-44.2	-46.9	17.3	0.00e+00	0	44	0	370147328	60	4772
2026-01-19 11:36:45.05	248.98	20.71	-44.1	-46.7	17.4	0.00e+00	0	43	0	372244480	60	4680
2026-01-19 11:36:46.04	249.22	20.76	-43.9	-46.5	17.6	0.00e+00	0	43	0	374341632	59	4838
2026-01-19 11:36:47.03	249.46	20.81	-43.9	-46.5	17.7	0.00e+00	0	43	0	376438784	59	4829
2026-01-19 11:36:48.03	249.70	20.85	-43.7	-46.2	17.8	0.00e+00	0	43	0	378535936	59	4702
2026-01-19 11:36:49.02	249.94	20.90	-43.8	-46.3	17.8	0.00e+00	0	43	0	379584512	59	4734
2026-01-19 11:36:50.01	250.18	20.95	-43.8	-46.3	17.8	0.00e+00	0	43	0	381681664	59	4734
2026-01-19 11:36:51.01	250.43	20.99	-43.8	-46.4	17.8	0.00e+00	0	43	0	383778816	59	4762
2026-01-19 11:36:52.00	250.67	21.04	-44.0	-46.6	17.5	0.00e+00	0	43	0	385875968	59	4885
2026-01-19 11:36:52.99	250.91	21.08	-44.4	-47.2	17.0	0.00e+00	0	43	0	386924544	59	5246
2026-01-19 11:36:53.98	251.16	21.12	-44.6	-47.4	16.8	0.00e+00	0	43	0	389021696	60	5070
2026-01-19 11:36:54.98	251.41	21.17	-44.9	-47.8	16.5	0.00e+00	0	44	0	391118848	60	5297
2026-01-19 11:36:55.97	251.65	21.21	-44.6	-47.3	16.8	0.00e+00	0	43	0	393216000	60	5040
2026-01-19 11:36:56.96	251.90	21.25	-44.4	-47.1	17.1	0.00e+00	0	43	0	395313152	60	4891
2026-01-19 11:36:57.96	252.15	21.29	-44.2	-46.8	17.4	0.00e+00	0	43	0	396361728	60	4738
2026-01-19 11:36:58.95	252.39	21.33	-43.9	-46.5	17.6	0.00e+00	0	43	0	398458880	59	4831
2026-01-19 11:36:59.94	252.64	21.38	-43.6	-46.1	17.9	0.00e+00	0	43	0	400556032	59	4651
2026-01-19 11:37:00.94	252.89	21.42	-43.7	-46.2	17.9	0.00e+00	0	43	0	402653184	59	4677
2026-01-19 11:37:01.93	253.14	21.46	-43.9	-46.5	17.6	0.00e+00	0	43	0	403701760	59	4870
2026-01-19 11:37:02.92	253.39	21.49	-44.0	-46.7	17.5	0.00e+00	0	43	0	405798912	59	4943
2026-01-19 11:37:03.91	253.64	21.53	-44.0	-46.6	17.5	0.00e+00	0	43	0	407896064	59	4908
2026-01-19 11:37:04.91	253.90	21.57	-43.8	-46.4	17.7	0.00e+00	0	43	0	409993216	59	4790
2026-01-19 11:37:05.90	254.15	21.61	-43.9	-46.5	17.6	0.00e+00	0	43	0	412090368	59	4846
2026-01-19 11:37:06.89	254.40	21.65	-44.1	-46.7	17.4	0.00e+00	0	43	0	413138944	59	4947
2026-01-19 11:37:07.89	254.66	21.68	-44.1	-46.8	17.3	0.00e+00	0	43	0	415236096	59	4995
2026-01-19 11:37:08.88	254.91	21.72	-44.3	-47.0	17.0	0.00e+00	0	43	0	417333248	59	5149
2026-01-19 11:37:09.87	255.16	21.76	-44.4	-47.2	17.0	0.00e+00	0	43	0	419430400	59	5245
2026-01-19 11:37:10.86	255.42	21.79	-44.3	-47.0	17.1	0.00e+00	0	43	0	420478976	59	5158
2026-01-19 11:37:11.85	255.67	21.83	-44.1	-46.8	17.4	0.00e+00	0	43	0	422576128	59	4998
2026-01-19 11:37:12.85	255.93	21.86	-43.5	-45.9	18.1	0.00e+00	0	43	0	424673280	59	4528
2026-01-19 11:37:13.84	256.19	21.89	-43.3	-45.7	18.4	0.00e+00	0	43	0	426770432	58	4664
2026-01-19 11:37:14.83	256.45	21.93	-43.2	-45.6	18.4	0.00e+00	0	43	0	427819008	58	4628
2026-01-19 11:37:15.83	256.71	21.96	-43.4	-45.9	18.2	0.00e+00	0	43	0	429916160	58	4771
2026-01-19 11:37:16.82	256.96	21.99	-43.7	-46.2	17.9	0.00e+00	0	43	0	432013312	58	4957
2026-01-19 11:37:17.81	257.22	22.02	-43.7	-46.2	17.8	0.00e+00	0	43	0	434110464	58	4976
2026-01-19 11:37:18.81	257.48	22.06	-43.7	-46.2	17.9	0.00e+00	0	43	0	436207616	58	4969
2026-01-19 11:37:19.80	257.74	22.09	-43.8	-46.4	17.7	0.00e+00	0	43	0	437256192	58	5057
2026-01-19 11:37:20.79	258.00	22.12	-43.7	-46.2	17.9	0.00e+00	0	43	0	439353344	58	4936
2026-01-19 11:37:21.79	258.27	22.15	-43.6	-46.1	18.0	0.00e+00	0	43	0	441450496	58	4894
2026-01-19 11:37:22.78	258.53	22.17	-43.4	-45.9	18.2	0.00e+00	0	43	0	443547648	58	4775
2026-01-19 11:37:23.77	258.79	22.20	-43.5	-45.9	18.1	0.00e+00	0	43	0	444596224	58	4795
2026-01-19 11:37:24.76	259.05	22.23	-43.4	-45.8	18.2	0.00e+00	0	43	0	446693376	58	4758
2026-01-19 11:37:25.75	259.31	22.26	-43.3	-45.7	18.3	0.00e+00	0	43	0	448790528	58	4705
2026-01-19 11:37:26.75	259.58	22.28	-43.2	-45.6	18.4	0.00e+00	0	43	0	450887680	58	4623
2026-01-19 11:37:27.74	259.84	22.31	-43.5	-46.0	18.1	0.00e+00	0	43	0	452984832	58	4821
2026-01-19 11:37:28.73	260.10	22.33	-43.7	-46.2	17.9	0.00e+00	0	43	0	454033408	58	4961
2026-01-19 11:37:29.73	260.37	22.36	-43.7	-46.3	17.8	0.00e+00	0	43	0	456130560	58	5016
2026-01-19 11:37:30.72	260.64	22.38	-44.0	-46.6	17.5	0.00e+00	0	43	0	458227712	58	5175
2026-01-19 11:37:31.71	260.90	22.41	-43.6	-46.1	18.0	0.00e+00	0	43	0	460324864	58	4909
2026-01-19 11:37:32.71	261.17	22.43	-43.7	-46.3	17.8	0.00e+00	0	43	0	461373440	58	5001
2026-01-19 11:37:33.70	261.43	22.45	-44.0	-46.5	17.6	0.00e+00	0	43	0	463470592	58	5155
2026-01-19 11:37:34.69	261.70	22.47	-44.0	-46.7	17.5	0.00e+00	0	43	0	465567744	58	5222
2026-01-19 11:37:35.68	261.97	22.49	-44.3	-46.9	17.2	0.00e+00	0	43	0	467664896	59	5096
2026-01-19 11:37:36.68	262.23	22.52	-44.4	-47.2	17.0	0.00e+00	0	43	0	469762048	59	5235
2026-01-19 11:37:37.67	262.50	22.53	-44.1	-46.8	17.4	0.00e+00	0	43	0	470810624	59	4991
2026-01-19 11:37:38.66	262.77	22.55	-43.9	-46.5	17.6	0.00e+00	0	43	0	472907776	59	4849
2026-01-19 11:37:39.66	263.04	22.57	-43.8	-46.3	17.8	0.00e+00	0	43	0	475004928	59	4743
2026-01-19 11:37:40.65	263.31	22.59	-43.9	-46.5	17.6	0.00e+00	0	43	0	477102080	59	4821
2026-01-19 11:37:41.64	263.57	22.61	-44.0	-46.7	17.5	0.00e+00	0	43	0	478150656	59	4942
2026-01-19 11:37:42.64	263.85	22.62	-44.1	-46.7	17.3	0.00e+00	0	43	0	480247808	59	4967
2026-01-19 11:37:43.63	264.11	22.64	-44.1	-46.7	17.4	0.00e+00	0	43	0	482344960	59	4983
2026-01-19 11:37:44.62	264.38	22.66	-43.9	-46.4	17.7	0.00e+00	0	43	0	484442112	59	4803
2026-01-19 11:37:45.61	264.65	22.67	-43.5	-46.0	18.1	0.00e+00	0	43	0	486539264	59	4566
2026-01-19 11:37:46.61	264.92	22.69	-43.4	-45.8	18.3	0.00e+00	0	43	0	487587840	58	4732
2026-01-19 11:37:47.60	265.19	22.70	-43.3	-45.7	18.3	0.00e+00	0	43	0	489684992	58	4703
2026-01-19 11:37:48.59	265.46	22.71	-43.5	-46.0	18.1	0.00e+00	0	43	0	491782144	58	4863
2026-01-19 11:37:49.59	265.74	22.72	-43.9	-46.4	17.7	0.00e+00	0	43	0	493879296	58	5090
2026-01-19 11:37:50.58	266.01	22.74	-44.2	-46.9	17.3	0.00e+00	0	43	0	494927872	59	5071
2026-01-19 11:37:51.57	266.28	22.75	-44.2	-46.9	17.2	0.00e+00	0	43	0	497025024	59	5088
2026-01-19 11:37:52.56	266.55	22.76	-43.8	-46.4	17.7	0.00e+00	0	43	0	499122176	59	4764
2026-01-19 11:37:53.56	266.82	22.77	-43.5	-46.0	18.1	0.00e+00	0	43	0	501219328	59	4549
2026-01-19 11:37:54.55	267.09	22.78	-43.5	-46.0	18.1	0.00e+00	0	43	0	503316480	59	4559
2026-01-19 11:37:55.54	267.36	22.78	-43.6	-46.1	17.9	0.00e+00	0	43	0	504365056	59	4651
2026-01-19 11:37:56.54	267.64	22.79	-43.8	-46.3	17.8	0.00e+00	0	43	0	506462208	59	4752
2026-01-19 11:37:57.53	267.91	22.80	-43.8	-46.4	17.7	0.00e+00	0	43	0	508559360	59	4777
2026-01-19 11:37:58.52	268.18	22.80	-44.0	-46.6	17.6	0.00e+00	0	43	0	510656512	59	4886
2026-01-19 11:37:59.52	268.45	22.81	-43.7	-46.2	17.9	0.00e+00	0	43	0	511705088	59	4659
2026-01-19 11:38:00.51	268.73	22.82	-43.4	-45.8	18.2	0.00e+00	0	43	0	513802240	58	4743
2026-01-19 11:38:01.50	269.00	22.82	-43.4	-45.9	18.2	0.00e+00	0	43	0	515899392	58	4779
2026-01-19 11:38:02.49	269.27	22.82	-43.6	-46.1	18.0	0.00e+00	0	43	0	517996544	58	4904
2026-01-19 11:38:03.49	269.54	22.83	-43.6	-46.1	17.9	0.00e+00	0	43	0	519045120	58	4905
2026-01-19 11:38:04.48	269.82	22.83	-43.8	-46.3	17.8	0.00e+00	0	43	0	521142272	58	5028
2026-01-19 11:38:05.47	270.09	22.83	-43.8	-46.4	17.8	0.00e+00	0	43	0	523239424	58	5053
2026-01-19 11:38:06.46	270.36	22.83	-43.6	-46.1	18.0	0.00e+00	0	43	0	525336576	58	4905
2026-01-19 11:38:07.46	270.63	22.83	-43.6	-46.1	17.9	0.00e+00	0	43	0	527433728	58	4921
2026-01-19 11:38:08.45	270.91	22.83	-43.9	-46.4	17.7	0.00e+00	0	43	0	528482304	58	5099
2026-01-19 11:38:09.44	271.18	22.83	-44.1	-46.7	17.5	0.00e+00	0	43	0	530579456	58	5268
2026-01-19 11:38:10.44	271.45	22.83	-44.3	-47.0	17.2	0.00e+00	0	43	0	532676608	59	5118
2026-01-19 11:38:11.43	271.72	22.83	-44.4	-47.1	17.0	0.00e+00	0	43	0	534773760	59	5178
2026-01-19 11:38:12.42	272.00	22.83	-44.3	-46.9	17.2	0.00e+00	0	43	0	535822336	59	5093
2026-01-19 11:38:13.41	272.27	22.82	-44.3	-47.0	17.1	0.00e+00	0	43	0	537919488	59	5148
2026-01-19 11:38:14.41	272.54	22.82	-44.3	-47.0	17.2	0.00e+00	0	43	0	540016640	59	5117
2026-01-19 11:38:15.40	272.81	22.81	-44.2	-46.9	17.2	0.00e+00	0	43	0	542113792	59	5069
2026-01-19 11:38:16.39	273.08	22.81	-44.0	-46.6	17.6	0.00e+00	0	43	0	544210944	59	4878
2026-01-19 11:38:17.39	273.36	22.80	-43.9	-46.5	17.6	0.00e+00	0	43	0	545259520	59	4845
2026-01-19 11:38:18.38	273.63	22.79	-43.7	-46.2	17.9	0.00e+00	0	43	0	547356672	59	4677
2026-01-19 11:38:19.37	273.90	22.79	-43.6	-46.1	18.0	0.00e+00	0	43	0	549453824	59	4636
2026-01-19 11:38:20.36	274.17	22.78	-43.6	-46.2	17.9	0.00e+00	0	43	0	551550976	59	4656
2026-01-19 11:38:21.36	274.45	22.77	-43.7	-46.2	17.9	0.00e+00	0	43	0	552599552	59	4683
2026-01-19 11:38:22.35	274.72	22.76	-43.6	-46.2	17.9	0.00e+00	0	43	0	554696704	59	4655
2026-01-19 11:38:23.34	274.99	22.75	-43.7	-46.2	17.9	0.00e+00	0	43	0	556793856	59	4668
2026-01-19 11:38:24.34	275.26	22.74	-43.6	-46.1	18.0	0.00e+00	0	43	0	558891008	59	4642
2026-01-19 11:38:25.33	275.53	22.73	-43.6	-46.1	17.9	0.00e+00	0	43	0	560988160	59	4644
2026-01-19 11:38:26.32	275.80	22.72	-43.5	-46.0	18.1	0.00e+00	0	43	0	562036736	59	4577
2026-01-19 11:38:27.31	276.07	22.70	-43.4	-45.9	18.2	0.00e+00	0	43	0	564133888	58	4765
2026-01-19 11:38:28.31	276.34	22.69	-43.3	-45.7	18.4	0.00e+00	0	43	0	566231040	58	4662
2026-01-19 11:38:29.30	276.61	22.68	-43.1	-45.5	18.6	0.00e+00	0	43	0	568328192	58	4560
2026-01-19 11:38:30.29	276.88	22.66	-43.1	-45.4	18.6	0.00e+00	0	43	0	569376768	57	4794
2026-01-19 11:38:31.29	277.15	22.65	-43.0	-45.3	18.7	0.00e+00	0	43	0	571473920	57	4750
2026-01-19 11:38:32.28	277.42	22.63	-43.1	-45.4	18.6	0.00e+00	0	43	0	573571072	57	4812
2026-01-19 11:38:33.27	277.69	22.62	-42.9	-45.2	18.8	0.00e+00	0	43	0	575668224	57	4681
2026-01-19 11:38:34.26	277.95	22.60	-42.9	-45.2	18.8	0.00e+00	0	43	0	577765376	57	4689
2026-01-19 11:38:35.26	278.22	22.58	-43.0	-45.4	18.7	0.00e+00	0	43	0	578813952	57	4775
2026-01-19 11:38:36.25	278.49	22.56	-43.1	-45.5	18.6	0.00e+00	0	43	0	580911104	57	4834
2026-01-19 11:38:37.24	278.76	22.54	-43.2	-45.6	18.5	0.00e+00	0	43	0	583008256	57	4877
2026-01-19 11:38:38.24	279.03	22.52	-43.3	-45.7	18.4	0.00e+00	0	43	0	585105408	57	4927
2026-01-19 11:38:39.23	279.29	22.50	-43.4	-45.9	18.2	0.00e+00	0	43	0	586153984	57	5054
2026-01-19 11:38:40.22	279.56	22.48	-43.3	-45.7	18.3	0.00e+00	0	43	0	588251136	57	4979
2026-01-19 11:38:41.21	279.83	22.46	-43.2	-45.5	18.5	0.00e+00	0	43	0	590348288	57	4861
2026-01-19 11:38:42.21	280.09	22.44	-43.2	-45.6	18.5	0.00e+00	0	43	0	592445440	57	4891
2026-01-19 11:38:43.20	280.36	22.42	-43.2	-45.6	18.5	0.00e+00	0	43	0	594542592	57	4887
2026-01-19 11:38:44.19	280.62	22.39	-43.4	-45.9	18.2	0.00e+00	0	43	0	595591168	57	5056
2026-01-19 11:38:45.19	280.89	22.37	-43.5	-46.0	18.1	0.00e+00	0	43	0	597688320	57	5112
2026-01-19 11:38:46.18	281.15	22.35	-43.6	-46.1	18.0	0.00e+00	0	43	0	599785472	57	5173
2026-01-19 11:38:47.17	281.42	22.32	-43.5	-46.0	18.1	0.00e+00	0	43	0	601882624	58	4831
2026-01-19 11:38:48.16	281.68	22.30	-43.5	-46.0	18.2	0.00e+00	0	43	0	602931200	58	4818
2026-01-19 11:38:49.16	281.94	22.27	-43.4	-45.8	18.3	0.00e+00	0	43	0	605028352	58	4715
2026-01-19 11:38:50.15	282.21	22.24	-43.3	-45.7	18.3	0.00e+00	0	43	0	607125504	58	4705
2026-01-19 11:38:51.14	282.47	22.21	-43.5	-45.9	18.2	0.00e+00	0	43	0	609222656	58	4786
2026-01-19 11:38:52.14	282.73	22.19	-43.8	-46.3	17.8	0.00e+00	0	43	0	610271232	58	5027
2026-01-19 11:38:53.13	282.99	22.16	-43.8	-46.3	17.8	0.00e+00	0	43	0	612368384	58	5041
2026-01-19 11:38:54.12	283.25	22.13	-44.0	-46.5	17.6	0.00e+00	0	43	0	614465536	58	5143
2026-01-19 11:38:55.11	283.51	22.10	-43.8	-46.3	17.7	0.00e+00	0	43	0	616562688	58	5034
2026-01-19 11:38:56.11	283.77	22.07	-43.6	-46.1	18.0	0.00e+00	0	43	0	618659840	58	4916
2026-01-19 11:38:57.10	284.03	22.04	-43.2	-45.6	18.5	0.00e+00	0	43	0	619708416	58	4611
2026-01-19 11:38:58.09	284.29	22.01	-42.8	-45.1	18.9	0.00e+00	0	43	0	621805568	57	4646
2026-01-19 11:38:59.09	284.55	21.98	-42.8	-45.1	18.8	0.00e+00	0	43	0	623902720	57	4632
2026-01-19 11:39:00.08	284.81	21.94	-43.0	-45.3	18.7	0.00e+00	0	43	0	625999872	57	4744
2026-01-19 11:39:01.07	285.06	21.91	-43.0	-45.4	18.7	0.00e+00	0	43	0	627048448	57	4773
2026-01-19 11:39:02.07	285.32	21.88	-43.1	-45.5	18.6	0.00e+00	0	43	0	629145600	57	4816
2026-01-19 11:39:03.06	285.58	21.84	-43.0	-45.4	18.6	0.00e+00	0	43	0	631242752	57	4796
2026-01-19 11:39:04.05	285.83	21.81	-42.9	-45.3	18.7	0.00e+00	0	43	0	633339904	57	4732
2026-01-19 11:39:05.04	286.08	21.77	-42.9	-45.3	18.8	0.00e+00	0	43	0	635437056	57	4716
2026-01-19 11:39:06.04	286.34	21.74	-43.0	-45.4	18.7	0.00e+00	0	43	0	636485632	57	4764
2026-01-19 11:39:07.03	286.59	21.70	-42.8	-45.1	18.9	0.00e+00	0	43	0	638582784	57	4639
2026-01-19 11:39:08.02	286.85	21.67	-42.8	-45.2	18.9	0.00e+00	0	43	0	640679936	57	4658
2026-01-19 11:39:09.01	287.10	21.63	-42.8	-45.1	18.9	0.00e+00	0	43	0	642777088	57	4614
2026-01-19 11:39:10.01	287.35	21.59	-42.9	-45.2	18.8	0.00e+00	0	43	0	643825664	57	4692
2026-01-19 11:39:11.00	287.60	21.55	-43.0	-45.3	18.7	0.00e+00	0	43	0	645922816	57	4751
2026-01-19 11:39:11.99	287.85	21.52	-43.0	-45.3	18.7	0.00e+00	0	43	0	648019968	57	4746
2026-01-19 11:39:12.99	288.10	21.48	-43.0	-45.3	18.7	0.00e+00	0	43	0	650117120	57	4759
2026-01-19 11:39:13.98	288.35	21.44	-42.8	-45.2	18.8	0.00e+00	0	43	0	652214272	57	4656
2026-01-19 11:39:14.97	288.60	21.40	-42.9	-45.2	18.8	0.00e+00	0	43	0	653262848	57	4701
2026-01-19 11:39:15.96	288.85	21.36	-42.8	-45.1	18.9	0.00e+00	0	43	0	655360000	57	4650
2026-01-19 11:39:16.96	289.10	21.32	-43.0	-45.3	18.7	0.00e+00	0	43	0	657457152	57	4731
2026-01-19 11:39:17.95	289.34	21.27	-43.0	-45.4	18.6	0.00e+00	0	43	0	659554304	57	4779
2026-01-19 11:39:18.94	289.59	21.23	-43.2	-45.6	18.5	0.00e+00	0	43	0	660602880	57	4888
2026-01-19 11:39:19.94	289.84	21.19	-43.3	-45.7	18.4	0.00e+00	0	43	0	662700032	57	4953
2026-01-19 11:39:20.93	290.08	21.15	-43.2	-45.6	18.4	0.00e+00	0	43	0	664797184	57	4922
2026-01-19 11:39:21.92	290.33	21.10	-43.1	-45.6	18.5	0.00e+00	0	43	0	666894336	57	4872
2026-01-19 11:39:22.91	290.57	21.06	-43.0	-45.4	18.6	0.00e+00	0	43	0	668991488	57	4796
2026-01-19 11:39:23.91	290.81	21.02	-43.0	-45.3	18.7	0.00e+00	0	43	0	670040064	57	4751
2026-01-19 11:39:24.90	291.05	20.97	-43.0	-45.3	18.7	0.00e+00	0	43	0	672137216	57	4737
2026-01-19 11:39:25.89	291.29	20.93	-42.9	-45.2	18.8	0.00e+00	0	43	0	674234368	57	4689
2026-01-19 11:39:26.89	291.54	20.88	-42.8	-45.1	18.8	0.00e+00	0	43	0	676331520	57	4630
2026-01-19 11:39:27.88	291.78	20.84	-42.7	-45.0	19.0	0.00e+00	0	43	0	677380096	57	4588
2026-01-19 11:39:28.87	292.02	20.79	-42.6	-44.9	19.1	0.00e+00	0	43	0	679477248	57	4533
2026-01-19 11:39:29.86	292.25	20.74	-42.6	-44.9	19.1	0.00e+00	0	43	0	681574400	56	4775
2026-01-19 11:39:30.86	292.49	20.70	-42.6	-44.8	19.1	0.00e+00	0	43	0	683671552	56	4752
2026-01-19 11:39:31.85	292.73	20.65	-42.6	-44.9	19.0	0.00e+00	0	43	0	685768704	56	4791
2026-01-19 11:39:32.84	292.97	20.60	-42.8	-45.1	18.9	0.00e+00	0	43	0	686817280	56	4913
2026-01-19 11:39:33.84	293.20	20.55	-42.9	-45.2	18.8	0.00e+00	0	43	0	688914432	56	4963
2026-01-19 11:39:34.83	293.44	20.50	-43.1	-45.4	18.6	0.00e+00	0	43	0	691011584	56	5098
2026-01-19 11:39:35.82	293.67	20.46	-43.1	-45.4	18.6	0.00e+00	0	43	0	693108736	56	5092
2026-01-19 11:39:36.82	293.91	20.41	-43.1	-45.5	18.6	0.00e+00	0	43	0	694157312	57	4819
2026-01-19 11:39:37.81	294.14	20.36	-43.1	-45.4	18.6	0.00e+00	0	43	0	696254464	57	4811
2026-01-19 11:39:38.80	294.37	20.31	-43.1	-45.5	18.6	0.00e+00	0	43	0	698351616	57	4823
2026-01-19 11:39:39.80	294.60	20.26	-43.1	-45.5	18.6	0.00e+00	0	43	0	700448768	57	4816
2026-01-19 11:39:40.79	294.83	20.20	-43.2	-45.6	18.5	0.00e+00	0	43	0	702545920	57	4879
2026-01-19 11:39:41.78	295.06	20.15	-43.3	-45.8	18.3	0.00e+00	0	43	0	703594496	57	4992
2026-01-19 11:39:42.77	295.29	20.10	-43.6	-46.1	18.0	0.00e+00	0	43	0	705691648	57	5175
2026-01-19 11:39:43.77	295.52	20.05	-43.8	-46.4	17.7	0.00e+00	0	43	0	707788800	58	5051
2026-01-19 11:39:44.76	295.75	20.00	-43.7	-46.2	17.9	0.00e+00	0	43	0	709885952	58	4927
2026-01-19 11:39:45.75	295.97	19.95	-43.6	-46.1	18.0	0.00e+00	0	43	0	710934528	58	4875
2026-01-19 11:39:46.75	296.20	19.89	-43.5	-46.0	18.1	0.00e+00	0	43	0	713031680	58	4827
2026-01-19 11:39:47.74	296.43	19.84	-43.2	-45.5	18.5	0.00e+00	0	43	0	715128832	58	4595
2026-01-19 11:39:48.73	296.65	19.79	-43.0	-45.4	18.6	0.00e+00	0	43	0	717225984	58	4518
2026-01-19 11:39:49.72	296.87	19.73	-43.0	-45.4	18.6	0.00e+00	0	43	0	718274560	58	4528
2026-01-19 11:39:50.72	297.10	19.68	-43.1	-45.5	18.5	0.00e+00	0	43	0	720371712	57	4843
2026-01-19 11:39:51.71	297.32	19.62	-43.3	-45.8	18.2	0.00e+00	0	43	0	722468864	57	4984
2026-01-19 11:39:52.70	297.54	19.57	-43.0	-45.4	18.6	0.00e+00	0	43	0	724566016	57	4783
2026-01-19 11:39:53.70	297.76	19.51	-43.2	-45.7	18.4	0.00e+00	0	43	0	726663168	57	4931
2026-01-19 11:39:54.69	297.98	19.46	-43.5	-46.1	18.0	0.00e+00	0	43	0	727711744	57	5168
2026-01-19 11:39:55.68	298.20	19.40	-44.1	-46.8	17.4	0.00e+00	0	43	0	729808896	58	5281
2026-01-19 11:39:56.67	298.42	19.35	-44.4	-47.2	16.9	0.00e+00	0	43	0	731906048	59	5264
2026-01-19 11:39:57.67	298.64	19.29	-44.7	-47.6	16.6	0.00e+00	0	43	0	734003200	60	5189
2026-01-19 11:39:58.66	298.85	19.24	-45.0	-48.0	16.2	0.00e+00	0	43	0	735051776	60	5445
2026-01-19 11:39:59.65	299.07	19.18	-44.8	-47.8	16.5	0.00e+00	0	43	0	737148928	60	5287
2026-01-19 11:40:00.65	299.29	19.12	-44.7	-47.6	16.6	0.00e+00	0	43	0	739246080	60	5215
2026-01-19 11:40:01.64	299.50	19.06	-44.5	-47.3	16.9	0.00e+00	0	43	0	741343232	60	5018
2026-01-19 11:40:02.63	299.71	19.01	-44.5	-47.3	17.0	0.00e+00	0	43	0	743440384	60	4995
2026-01-19 11:40:03.62	299.92	18.95	-44.4	-47.1	17.1	0.00e+00	0	43	0	744488960	60	4883
2026-01-19 11:40:04.62	300.14	18.89	-44.3	-47.0	17.2	0.00e+00	0	43	0	746586112	60	4863
2026-01-19 11:40:05.61	300.35	18.83	-44.5	-47.2	17.0	0.00e+00	0	43	0	748683264	60	4956
2026-01-19 11:40:06.60	300.56	18.78	-44.4	-47.2	17.0	0.00e+00	0	43	0	750780416	60	4961
2026-01-19 11:40:07.60	300.77	18.72	-44.5	-47.2	17.0	0.00e+00	0	43	0	751828992	60	4977
2026-01-19 11:40:08.59	300.98	18.66	-44.4	-47.2	17.0	0.00e+00	0	43	0	753926144	60	4968
2026-01-19 11:40:09.58	301.19	18.60	-44.3	-47.0	17.2	0.00e+00	0	43	0	756023296	60	4853
2026-01-19 11:40:10.58	301.39	18.54	-44.2	-46.9	17.3	0.00e+00	0	43	0	758120448	60	4772
2026-01-19 11:40:11.57	301.60	18.48	-44.1	-46.8	17.4	0.00e+00	0	43	0	760217600	60	4747
2026-01-19 11:40:12.56	301.80	18.42	-44.1	-46.8	17.4	0.00e+00	0	43	0	761266176	60	4748
2026-01-19 11:40:13.55	302.01	18.36	-44.3	-47.0	17.2	0.00e+00	0	43	0	763363328	60	4852
2026-01-19 11:40:14.55	302.21	18.30	-44.0	-46.7	17.5	0.00e+00	0	43	0	765460480	60	4695
2026-01-19 11:40:15.54	302.42	18.24	-44.2	-46.9	17.2	0.00e+00	0	43	0	767557632	59	5042
2026-01-19 11:40:16.53	302.62	18.18	-44.2	-46.9	17.2	0.00e+00	0	43	0	768606208	59	5067
2026-01-19 11:40:17.52	302.82	18.12	-44.3	-47.0	17.1	0.00e+00	0	43	0	770703360	59	5133
2026-01-19 11:40:18.52	303.02	18.06	-44.5	-47.3	16.8	0.00e+00	0	43	0	772800512	59	5330
2026-01-19 11:40:19.51	303.22	18.00	-44.9	-47.9	16.4	0.00e+00	0	43	0	774897664	60	5354
2026-01-19 11:40:20.50	303.42	17.94	-45.0	-48.0	16.3	0.00e+00	0	43	0	776994816	60	5431
2026-01-19 11:40:21.50	303.62	17.87	-45.4	-48.5	15.7	0.00e+00	0	43	0	778043392	61	5444
2026-01-19 11:40:22.49	303.82	17.81	-45.4	-48.6	15.6	0.00e+00	0	43	0	780140544	61	5491
2026-01-19 11:40:23.48	304.01	17.75	-45.5	-48.8	15.5	0.00e+00	0	43	0	782237696	61	5613
2026-01-19 11:40:24.48	304.21	17.69	-45.3	-48.4	15.8	0.00e+00	0	43	0	784334848	61	5383
2026-01-19 11:40:25.47	304.41	17.63	-45.2	-48.4	15.9	0.00e+00	0	43	0	785383424	61	5355
2026-01-19 11:40:26.46	304.60	17.56	-45.1	-48.1	16.1	0.00e+00	0	43	0	787480576	61	5201
2026-01-19 11:40:27.46	304.80	17.50	-44.8	-47.8	16.4	0.00e+00	0	43	0	789577728	61	5020
2026-01-19 11:40:28.45	304.99	17.44	-44.7	-47.6	16.5	0.00e+00	0	43	0	791674880	61	4921
2026-01-19 11:40:29.44	305.18	17.38	-44.5	-47.4	16.8	0.00e+00	0	43	0	793772032	60	5070
2026-01-19 11:40:30.43	305.37	17.31	-44.7	-47.6	16.6	0.00e+00	0	43	0	794820608	60	5171
2026-01-19 11:40:31.42	305.56	17.25	-44.8	-47.8	16.4	0.00e+00	0	43	0	796917760	60	5294
2026-01-19 11:40:32.42	305.75	17.19	-44.8	-47.8	16.4	0.00e+00	0	43	0	799014912	60	5327
2026-01-19 11:40:33.41	305.94	17.12	-45.1	-48.1	16.1	0.00e+00	0	43	0	801112064	60	5516
2026-01-19 11:40:34.40	306.13	17.06	-44.9	-47.9	16.3	0.00e+00	0	43	0	802160640	60	5366
2026-01-19 11:40:35.40	306.32	17.00	-45.1	-48.1	16.0	0.00e+00	0	43	0	804257792	60	5524
2026-01-19 11:40:36.39	306.50	16.93	-44.7	-47.5	16.6	0.00e+00	0	43	0	806354944	60	5150
2026-01-19 11:40:37.38	306.69	16.87	-44.7	-47.5	16.7	0.00e+00	0	43	0	808452096	60	5126
2026-01-19 11:40:38.38	306.88	16.81	-44.6	-47.4	16.8	0.00e+00	0	43	0	809500672	60	5073
2026-01-19 11:40:39.37	307.06	16.74	-44.5	-47.3	16.8	0.00e+00	0	43	0	811597824	60	5041
2026-01-19 11:40:40.36	307.24	16.68	-44.4	-47.2	17.0	0.00e+00	0	43	0	813694976	60	4932
2026-01-19 11:40:41.35	307.43	16.61	-44.4	-47.1	17.0	0.00e+00	0	43	0	815792128	60	4922
2026-01-19 11:40:42.35	307.61	16.55	-44.3	-47.1	17.1	0.00e+00	0	43	0	817889280	60	4895
2026-01-19 11:40:43.34	307.79	16.49	-44.5	-47.3	16.8	0.00e+00	0	43	0	818937856	60	5037
2026-01-19 11:40:44.33	307.97	16.42	-44.5	-47.3	16.8	0.00e+00	0	43	0	821035008	60	5037
2026-01-19 11:40:45.33	308.15	16.36	-44.5	-47.3	16.8	0.00e+00	0	43	0	823132160	60	4995
2026-01-19 11:40:46.32	308.33	16.29	-44.3	-47.1	17.1	0.00e+00	0	43	0	825229312	60	4871
2026-01-19 11:40:47.31	308.51	16.23	-44.2	-46.9	17.2	0.00e+00	0	42	0	826277888	60	4772
2026-01-19 11:40:48.30	308.68	16.16	-44.2	-46.9	17.2	0.00e+00	0	43	0	828375040	60	4784
2026-01-19 11:40:49.30	308.86	16.10	-44.2	-47.0	17.1	0.00e+00	0	43	0	830472192	60	4841
2026-01-19 11:40:50.29	309.04	16.03	-44.4	-47.2	16.9	0.00e+00	0	43	0	832569344	60	4967
2026-01-19 11:40:51.28	309.21	15.97	-44.7	-47.7	16.5	0.00e+00	0	43	0	833617920	60	5251
2026-01-19 11:40:52.27	309.39	15.90	-44.9	-48.0	16.2	0.00e+00	0	43	0	835715072	60	5448
2026-01-19 11:40:53.27	309.56	15.84	-44.9	-48.0	16.1	0.00e+00	0	43	0	837812224	60	5433
2026-01-19 11:40:54.26	309.74	15.77	-44.9	-48.0	16.2	0.00e+00	0	43	0	839909376	60	5415
2026-01-19 11:40:55.26	309.91	15.71	-44.6	-47.6	16.5	0.00e+00	0	43	0	842006528	60	5178
2026-01-19 11:40:56.25	310.08	15.64	-44.4	-47.2	16.9	0.00e+00	0	43	0	843055104	60	4982
2026-01-19 11:40:57.24	310.25	15.57	-44.1	-46.9	17.1	0.00e+00	0	43	0	845152256	60	4809
2026-01-19 11:40:58.23	310.42	15.51	-44.1	-46.9	17.2	0.00e+00	0	43	0	847249408	60	4786
2026-01-19 11:40:59.23	310.59	15.44	-44.0	-46.8	17.3	0.00e+00	0	43	0	849346560	59	4987
2026-01-19 11:41:00.22	310.76	15.38	-44.2	-46.9	17.1	0.00e+00	0	43	0	850395136	59	5090
2026-01-19 11:41:01.21	310.93	15.31	-44.3	-47.0	17.0	0.00e+00	0	43	0	852492288	59	5154
2026-01-19 11:41:02.21	311.10	15.25	-44.3	-47.1	16.9	0.00e+00	0	43	0	854589440	59	5212
2026-01-19 11:41:03.20	311.26	15.18	-44.6	-47.5	16.6	0.00e+00	0	43	0	856686592	59	5428
2026-01-19 11:41:04.19	311.43	15.11	-44.5	-47.4	16.7	0.00e+00	0	43	0	858783744	60	5069
2026-01-19 11:41:05.18	311.59	15.05	-44.5	-47.4	16.8	0.00e+00	0	43	0	859832320	60	5061
2026-01-19 11:41:06.18	311.76	14.98	-44.4	-47.3	16.9	0.00e+00	0	43	0	861929472	60	4990
2026-01-19 11:41:07.17	311.92	14.92	-44.3	-47.1	17.0	0.00e+00	0	43	0	864026624	60	4882
2026-01-19 11:41:08.16	312.08	14.85	-44.1	-46.9	17.2	0.00e+00	0	43	0	866123776	60	4779
2026-01-19 11:41:09.15	312.25	14.78	-44.2	-47.0	17.1	0.00e+00	0	43	0	868220928	60	4864
2026-01-19 11:41:10.15	312.41	14.72	-44.2	-47.0	17.1	0.00e+00	0	43	0	869269504	60	4834
2026-01-19 11:41:11.14	312.57	14.65	-44.3	-47.1	16.9	0.00e+00	0	43	0	871366656	60	4905
2026-01-19 11:41:12.13	312.73	14.59	-44.5	-47.5	16.6	0.00e+00	0	43	0	873463808	60	5133
2026-01-19 11:41:13.13	312.89	14.52	-44.6	-47.5	16.6	0.00e+00	0	43	0	875560960	60	5149
2026-01-19 11:41:14.12	313.05	14.45	-44.8	-47.9	16.2	0.00e+00	0	43	0	876609536	60	5397
2026-01-19 11:41:15.11	313.21	14.39	-45.1	-48.3	15.8	0.00e+00	0	43	0	878706688	60	5648
2026-01-19 11:41:16.11	313.36	14.32	-45.0	-48.3	15.8	0.00e+00	0	43	0	880803840	60	5623
2026-01-19 11:41:17.10	313.52	14.26	-44.8	-48.0	16.1	0.00e+00	0	43	0	882900992	60	5461
2026-01-19 11:41:18.09	313.68	14.19	-44.5	-47.6	16.5	0.00e+00	0	43	0	884998144	60	5172
2026-01-19 11:41:19.08	313.83	14.12	-44.3	-47.3	16.8	0.00e+00	0	43	0	886046720	60	5026
2026-01-19 11:41:20.08	313.99	14.06	-44.2	-47.0	17.0	0.00e+00	0	43	0	888143872	60	4853
2026-01-19 11:41:21.07	314.14	13.99	-43.9	-46.6	17.4	0.00e+00	0	43	0	890241024	59	4884
2026-01-19 11:41:22.06	314.29	13.92	-43.8	-46.5	17.5	0.00e+00	0	43	0	892338176	59	4836
2026-01-19 11:41:23.05	314.45	13.86	-43.7	-46.3	17.7	0.00e+00	0	43	0	893386752	59	4735
2026-01-19 11:41:24.05	314.60	13.79	-43.6	-46.1	17.8	0.00e+00	0	43	0	895483904	59	4639
2026-01-19 11:41:25.04	314.75	13.73	-43.5	-46.1	17.9	0.00e+00	0	43	0	897581056	58	4889
2026-01-19 11:41:26.03	314.90	13.66	-43.6	-46.2	17.8	0.00e+00	0	43	0	899678208	58	4944
2026-01-19 11:41:27.03	315.05	13.59	-43.5	-46.1	17.9	0.00e+00	0	43	0	900726784	58	4871
2026-01-19 11:41:28.02	315.20	13.53	-43.6	-46.1	17.8	0.00e+00	0	43	0	902823936	58	4915
2026-01-19 11:41:29.01	315.35	13.46	-43.5	-46.0	17.9	0.00e+00	0	43	0	904921088	58	4832
2026-01-19 11:41:30.00	315.50	13.39	-43.2	-45.7	18.2	0.00e+00	0	43	0	907018240	58	4679
2026-01-19 11:41:31.00	315.65	13.33	-43.3	-45.8	18.1	0.00e+00	0	43	0	909115392	58	4718
2026-01-19 11:41:31.99	315.79	13.26	-43.0	-45.5	18.4	0.00e+00	0	43	0	910163968	58	4573
2026-01-19 11:41:32.98	315.94	13.20	-43.2	-45.8	18.2	0.00e+00	0	43	0	912261120	58	4714
2026-01-19 11:41:33.98	316.09	13.13	-43.2	-45.7	18.2	0.00e+00	0	43	0	914358272	58	4691
2026-01-19 11:41:34.97	316.23	13.06	-43.4	-46.0	18.0	0.00e+00	0	43	0	916455424	58	4815
2026-01-19 11:41:35.96	316.37	13.00	-43.6	-46.3	17.6	0.00e+00	0	43	0	917504000	58	5006
2026-01-19 11:41:36.95	316.52	12.93	-43.9	-46.7	17.3	0.00e+00	0	43	0	919601152	58	5233
2026-01-19 11:41:37.95	316.66	12.86	-44.1	-46.9	17.1	0.00e+00	0	43	0	921698304	58	5351
2026-01-19 11:41:38.94	316.80	12.80	-44.4	-47.3	16.7	0.00e+00	0	43	0	923795456	59	5303
2026-01-19 11:41:39.93	316.95	12.73	-44.4	-47.3	16.7	0.00e+00	0	43	0	924844032	59	5305
2026-01-19 11:41:40.93	317.09	12.67	-44.5	-47.4	16.6	0.00e+00	0	43	0	926941184	59	5348
2026-01-19 11:41:41.92	317.23	12.60	-44.4	-47.2	16.8	0.00e+00	0	43	0	929038336	59	5245
2026-01-19 11:41:42.91	317.37	12.53	-44.3	-47.1	16.8	0.00e+00	0	43	0	931135488	59	5206
2026-01-19 11:41:43.90	317.51	12.47	-44.3	-47.1	16.8	0.00e+00	0	43	0	933232640	59	5210
2026-01-19 11:41:44.90	317.65	12.40	-44.3	-47.1	16.8	0.00e+00	0	43	0	934281216	59	5212
2026-01-19 11:41:45.89	317.78	12.34	-44.5	-47.3	16.6	0.00e+00	0	43	0	936378368	59	5329
2026-01-19 11:41:46.88	317.92	12.27	-44.5	-47.3	16.6	0.00e+00	0	43	0	938475520	59	5322
2026-01-19 11:41:47.87	318.06	12.21	-44.6	-47.5	16.5	0.00e+00	0	43	0	940572672	59	5426
2026-01-19 11:41:48.87	318.20	12.14	-44.9	-47.9	16.1	0.00e+00	0	43	0	941621248	60	5395
2026-01-19 11:41:49.86	318.33	12.07	-44.8	-47.8	16.2	0.00e+00	0	43	0	943718400	60	5324
2026-01-19 11:41:50.85	318.47	12.01	-44.8	-47.9	16.2	0.00e+00	0	43	0	945815552	60	5356
2026-01-19 11:41:51.85	318.60	11.94	-44.7	-47.8	16.2	0.00e+00	0	43	0	947912704	60	5304
2026-01-19 11:41:52.84	318.74	11.88	-44.6	-47.6	16.4	0.00e+00	0	43	0	950009856	60	5192
2026-01-19 11:41:53.83	318.87	11.81	-44.4	-47.4	16.5	0.00e+00	0	43	0	951058432	60	5093
2026-01-19 11:41:54.82	319.00	11.75	-44.1	-47.0	17.0	0.00e+00	0	43	0	953155584	60	4845
2026-01-19 11:41:55.82	319.13	11.68	-43.7	-46.5	17.4	0.00e+00	0	43	0	955252736	59	4854
2026-01-19 11:41:56.81	319.27	11.61	-43.7	-46.6	17.3	0.00e+00	0	43	0	957349888	59	4880
2026-01-19 11:41:57.80	319.40	11.55	-43.6	-46.4	17.5	0.00e+00	0	43	0	958398464	59	4766
2026-01-19 11:41:58.80	319.53	11.48	-43.4	-46.1	17.8	0.00e+00	0	43	0	960495616	58	4901
2026-01-19 11:41:59.79	319.66	11.42	-43.4	-46.1	17.8	0.00e+00	0	43	0	962592768	58	4887
2026-01-19 11:42:00.78	319.79	11.35	-43.5	-46.2	17.7	0.00e+00	0	43	0	964689920	58	4964
2026-01-19 11:42:01.77	319.92	11.29	-43.6	-46.4	17.5	0.00e+00	0	43	0	966787072	58	5099
2026-01-19 11:42:02.77	320.05	11.22	-43.7	-46.5	17.4	0.00e+00	0	43	0	967835648	58	5136
2026-01-19 11:42:03.76	320.17	11.16	-43.7	-46.6	17.4	0.00e+00	0	43	0	969932800	58	5161
2026-01-19 11:42:04.75	320.30	11.09	-43.9	-46.7	17.2	0.00e+00	0	43	0	972029952	58	5242
2026-01-19 11:42:05.75	320.43	11.03	-44.0	-46.8	17.1	0.00e+00	0	43	0	974127104	58	5330
2026-01-19 11:42:06.74	320.55	10.96	-44.1	-47.0	16.9	0.00e+00	0	43	0	975175680	58	5411
2026-01-19 11:42:07.73	320.68	10.90	-44.1	-47.0	16.9	0.00e+00	0	43	0	977272832	58	5409
2026-01-19 11:42:08.73	320.81	10.83	-43.9	-46.7	17.1	0.00e+00	0	43	0	979369984	58	5272
2026-01-19 11:42:09.72	320.93	10.77	-44.0	-46.9	17.0	0.00e+00	0	43	0	981467136	58	5369
2026-01-19 11:42:10.71	321.05	10.70	-44.1	-47.1	16.9	0.00e+00	0	42	0	983564288	58	5471
2026-01-19 11:42:11.70	321.18	10.64	-44.2	-47.2	16.7	0.00e+00	0	43	0	984612864	59	5268
2026-01-19 11:42:12.70	321.30	10.57	-44.4	-47.5	16.4	0.00e+00	0	43	0	986710016	59	5426
2026-01-19 11:42:13.69	321.42	10.51	-44.5	-47.7	16.3	0.00e+00	0	43	0	988807168	59	5533
2026-01-19 11:42:14.68	321.55	10.44	-44.5	-47.7	16.2	0.00e+00	0	43	0	990904320	59	5564
2026-01-19 11:42:15.68	321.67	10.38	-44.7	-48.0	16.0	0.00e+00	0	43	0	991952896	60	5432
2026-01-19 11:42:16.67	321.79	10.31	-44.8	-48.1	15.8	0.00e+00	0	43	0	994050048	60	5527
2026-01-19 11:42:17.66	321.91	10.25	-44.9	-48.2	15.8	0.00e+00	0	43	0	996147200	60	5553
2026-01-19 11:42:18.65	322.03	10.19	-45.1	-48.3	15.7	0.00e+00	0	43	0	998244352	60	5630
2026-01-19 11:42:19.65	322.15	10.12	-45.0	-48.3	15.7	0.00e+00	0	43	0	1000341504	60	5600
2026-01-19 11:42:20.64	322.27	10.06	-44.8	-48.0	16.0	0.00e+00	0	43	0	1001390080	60	5424
2026-01-19 11:42:21.63	322.39	9.99	-44.6	-47.7	16.3	0.00e+00	0	43	0	1003487232	60	5228
2026-01-19 11:42:22.63	322.50	9.93	-44.3	-47.3	16.7	0.00e+00	0	43	0	1005584384	60	5012
2026-01-19 11:42:23.62	322.62	9.87	-44.1	-47.0	16.9	0.00e+00	0	43	0	1007681536	60	4839
2026-01-19 11:42:24.61	322.74	9.80	-43.9	-46.8	17.0	0.00e+00	0	42	0	1008730112	59	5031
2026-01-19 11:42:25.60	322.85	9.74	-43.9	-46.8	17.1	0.00e+00	0	43	0	1010827264	59	4996
2026-01-19 11:42:26.60	322.97	9.67	-43.7	-46.5	17.3	0.00e+00	0	43	0	1012924416	59	4865
2026-01-19 11:42:27.59	323.09	9.61	-43.5	-46.3	17.5	0.00e+00	0	43	0	1015021568	58	5032
2026-01-19 11:42:28.58	323.20	9.55	-43.5	-46.3	17.5	0.00e+00	0	43	0	1016070144	58	5038
2026-01-19 11:42:29.58	323.32	9.48	-43.5	-46.4	17.4	0.00e+00	0	43	0	1018167296	58	5056
2026-01-19 11:42:30.57	323.43	9.42	-43.6	-46.5	17.3	0.00e+00	0	43	0	1020264448	58	5131
2026-01-19 11:42:31.56	323.54	9.36	-43.7	-46.7	17.1	0.00e+00	0	43	0	1022361600	58	5233
2026-01-19 11:42:32.56	323.66	9.29	-43.9	-46.9	16.9	0.00e+00	0	43	0	1024458752	58	5388
2026-01-19 11:42:33.55	323.77	9.23	-44.0	-47.2	16.6	0.00e+00	0	43	0	1025507328	58	5550
2026-01-19 11:42:34.54	323.88	9.17	-44.1	-47.4	16.5	0.00e+00	0	43	0	1027604480	58	5681
2026-01-19 11:42:35.53	323.99	9.10	-44.3	-47.7	16.2	0.00e+00	0	42	0	1029701632	59	5533
2026-01-19 11:42:36.53	324.11	9.04	-44.3	-47.7	16.2	0.00e+00	0	43	0	1031798784	59	5568
2026-01-19 11:42:37.52	324.22	8.98	-44.9	-48.7	15.3	0.00e+00	0	43	0	1032847360	60	5920
2026-01-19 11:42:38.51	324.33	8.91	-49.9	-65.4	3.8	1.11e+00	0	42	104	1033895936	70	22780
2026-01-19 11:42:39.51	324.44	8.85	-49.8	-65.6	3.8	1.49e+00	0	42	104	1033895936	70	23045
2026-01-19 11:42:40.50	324.55	8.79	-49.9	-65.7	3.8	1.49e+00	0	42	104	1033895936	70	23475
2026-01-19 11:42:41.49	324.65	8.72	-50.0	-65.8	3.8	1.49e+00	0	43	104	1033895936	70	23615
2026-01-19 11:42:42.48	324.76	8.66	-50.4	-65.8	3.8	1.49e+00	0	42	104	1033895936	71	22472
2026-01-19 11:42:43.48	324.87	8.60	-50.0	-65.9	3.8	1.49e+00	0	42	104	1033895936	71	22664
2026-01-19 11:42:44.47	324.98	8.54	-50.6	-65.9	3.8	1.49e+00	0	42	104	1033895936	71	22711
2026-01-19 11:42:45.46	325.09	8.47	-50.3	-65.9	3.8	1.49e+00	0	43	104	1033895936	71	22733
2026-01-19 11:42:46.46	325.19	8.41	-50.4	-65.9	3.8	1.49e+00	0	43	104	1033895936	71	22634
2026-01-19 11:42:47.45	325.30	8.35	-50.5	-65.9	3.8	1.49e+00	0	43	104	1033895936	71	22723
2026-01-19 11:42:48.44	325.40	8.29	-50.5	-66.0	3.8	1.49e+00	0	43	104	1033895936	71	22851
2026-01-19 11:42:49.43	325.51	8.23	-50.6	-66.0	3.8	1.49e+00	0	43	104	1033895936	71	22872
2026-01-19 11:42:50.43	325.62	8.16	-50.7	-65.9	3.8	1.49e+00	0	42	104	1033895936	72	21473
2026-01-19 11:42:51.42	325.72	8.10	-50.7	-65.9	3.8	1.49e+00	0	43	104	1033895936	72	21486
2026-01-19 11:42:52.41	325.82	8.04	-50.7	-65.9	3.8	1.49e+00	0	43	104	1033895936	72	21482
2026-01-19 11:42:53.40	325.93	7.98	-50.7	-65.9	3.8	1.49e+00	0	43	104	1033895936	72	21451
2026-01-19 11:42:54.40	326.03	7.92	-50.6	-65.9	3.8	1.49e+00	0	42	104	1033895936	72	21412
2026-01-19 11:42:55.39	326.13	7.85	-50.7	-65.9	3.8	1.49e+00	0	43	104	1033895936	72	21404
2026-01-19 11:42:56.38	326.24	7.79	-50.6	-65.9	3.8	1.49e+00	0	43	104	1033895936	72	21320
2026-01-19 11:42:57.37	326.34	7.73	-50.5	-65.9	3.8	1.49e+00	0	43	104	1033895936	72	21443
2026-01-19 11:42:58.37	326.44	7.67	-50.3	-65.9	3.8	1.49e+00	0	43	104	1033895936	72	21270
2026-01-19 11:42:59.36	326.54	7.61	-50.2	-65.8	3.8	1.49e+00	0	43	104	1033895936	72	21239
2026-01-19 11:43:00.35	326.64	7.55	-50.2	-65.9	3.8	1.49e+00	0	43	104	1033895936	72	21261
2026-01-19 11:43:01.35	326.74	7.48	-50.2	-65.8	3.8	1.49e+00	0	43	104	1033895936	72	21201
2026-01-19 11:43:02.34	326.84	7.42	-50.2	-65.8	3.8	1.49e+00	0	43	104	1033895936	72	21190
2026-01-19 11:43:03.33	326.94	7.36	-50.2	-65.8	3.8	1.49e+00	0	43	104	1033895936	72	21248
2026-01-19 11:43:04.33	327.04	7.30	-50.3	-65.8	3.8	1.49e+00	0	43	104	1033895936	72	21227
2026-01-19 11:43:05.32	327.14	7.24	-50.2	-65.8	3.8	1.49e+00	0	42	104	1033895936	72	21195
2026-01-19 11:43:06.31	327.24	7.18	-50.2	-65.8	3.8	1.49e+00	0	43	104	1033895936	72	21227
2026-01-19 11:43:07.30	327.34	7.12	-50.2	-65.8	3.8	1.49e+00	0	43	104	1033895936	72	21152
2026-01-19 11:43:08.30	327.44	7.06	-50.2	-65.8	3.8	1.49e+00	0	43	104	1033895936	72	21178
2026-01-19 11:43:09.29	327.53	7.00	-50.2	-65.8	3.8	1.49e+00	0	43	104	1033895936	72	21233
2026-01-19 11:43:10.28	327.63	6.94	-50.2	-65.8	3.8	1.49e+00	0	42	104	1033895936	72	21128
2026-01-19 11:43:11.28	327.73	6.88	-50.2	-65.9	3.8	1.49e+00	0	43	104	1033895936	72	21298
2026-01-19 11:43:12.27	327.82	6.82	-50.2	-65.8	3.8	1.49e+00	0	43	104	1033895936	72	21109
2026-01-19 11:43:13.26	327.92	6.76	-50.2	-65.8	3.8	1.49e+00	0	43	104	1033895936	72	21146
2026-01-19 11:43:14.26	328.01	6.69	-50.2	-65.8	3.8	1.49e+00	0	43	104	1033895936	72	21143
2026-01-19 11:43:15.25	328.11	6.63	-50.2	-65.8	3.8	1.49e+00	0	43	104	1033895936	72	21215
2026-01-19 11:43:16.24	328.20	6.57	-50.2	-65.8	3.8	1.49e+00	0	42	104	1033895936	72	21189
2026-01-19 11:43:17.23	328.30	6.51	-50.2	-65.8	3.8	1.49e+00	0	43	104	1033895936	72	21118
2026-01-19 11:43:18.23	328.39	6.45	-50.2	-65.8	3.8	1.49e+00	0	43	104	1033895936	72	21076
2026-01-19 11:43:19.22	328.48	6.39	-50.2	-65.8	3.8	1.49e+00	0	42	104	1033895936	72	21225
2026-01-19 11:43:20.21	328.58	6.33	-50.2	-65.8	3.8	1.49e+00	0	43	104	1033895936	72	21169
2026-01-19 11:43:21.20	328.67	6.28	-50.2	-65.8	3.8	1.49e+00	0	43	104	1033895936	72	21080
2026-01-19 11:43:22.20	328.76	6.22	-50.2	-65.8	3.8	1.49e+00	0	43	104	1033895936	72	21123
2026-01-19 11:43:23.19	328.86	6.16	-50.2	-65.8	3.8	1.49e+00	0	43	104	1033895936	72	21097
2026-01-19 11:43:24.18	328.95	6.10	-50.2	-65.7	3.8	1.49e+00	0	43	104	1033895936	72	20995
2026-01-19 11:43:25.18	329.04	6.04	-50.1	-65.8	3.8	1.49e+00	0	43	104	1033895936	72	21148
2026-01-19 11:43:26.17	329.13	5.98	-49.9	-65.9	3.8	1.49e+00	0	42	104	1033895936	71	22525
2026-01-19 11:43:27.16	329.22	5.92	-48.7	-65.8	3.8	1.49e+00	0	43	104	1033895936	69	25092
2026-01-19 11:43:28.15	329.31	5.86	-46.8	-65.6	3.8	1.49e+00	0	43	104	1033895936	65	31033
2026-01-19 11:43:29.15	329.40	5.80	-47.8	-65.7	3.9	1.49e+00	0	43	104	1033895936	66	29392
2026-01-19 11:43:30.14	329.49	5.74	-49.6	-65.8	3.8	1.49e+00	0	43	104	1033895936	69	25215
2026-01-19 11:43:31.13	329.58	5.68	-50.1	-65.8	3.8	1.49e+00	0	42	104	1033895936	70	23749
2026-01-19 11:43:32.13	329.67	5.62	-50.2	-65.8	3.8	1.49e+00	0	43	104	1033895936	71	22349
2026-01-19 11:43:33.12	329.76	5.56	-50.2	-65.8	3.8	1.49e+00	0	42	104	1033895936	71	22321
2026-01-19 11:43:34.11	329.84	5.51	-50.2	-65.8	3.8	1.49e+00	0	43	104	1033895936	71	22402
2026-01-19 11:43:35.11	329.93	5.45	-50.2	-65.8	3.8	1.49e+00	0	42	104	1033895936	71	22360
2026-01-19 11:43:36.10	330.02	5.39	-50.2	-65.8	3.8	1.49e+00	0	42	104	1033895936	71	22326
2026-01-19 11:43:37.09	330.11	5.33	-50.2	-65.8	3.8	1.49e+00	0	42	104	1033895936	71	22353
2026-01-19 11:43:38.08	330.19	5.27	-50.2	-65.8	3.8	1.49e+00	0	43	104	1033895936	71	22327
2026-01-19 11:43:39.08	330.28	5.21	-50.2	-65.8	3.8	1.49e+00	0	43	104	1033895936	71	22400
2026-01-19 11:43:40.07	330.37	5.15	-50.2	-65.8	3.8	1.49e+00	0	43	104	1033895936	71	22395
2026-01-19 11:43:41.06	330.45	5.10	-50.2	-65.8	3.8	1.49e+00	0	42	104	1033895936	71	22418
2026-01-19 11:43:42.06	330.54	5.04	-50.2	-65.8	3.8	1.49e+00	0	42	104	1033895936	71	22365
2026-01-19 11:43:43.05	330.62	4.98	-50.2	-65.8	3.8	1.49e+00	0	42	104	1033895936	71	22445

#Closed at: 2026-01-19 11:43:44
#Recorded file [1033 MB]: D:/Data/31040_260119_143235.dat