passes_logs/2026/01/19/T1/T1__20260119_020152_NOAA_20_JPSS-1_rec.log

#Pass ID: 20260119_020152_NOAA 20 (JPSS-1)
#Satellite: NOAA 20 (JPSS-1)
#Configuration: NOAA 20
#almurnet v.1.7.20251203
#Start time: 2026-01-19 02:01:52

#Version: 2.0.20230620
#Station: T1
#Location: 37.570604 lon 55.790049 lat
#TLE: 1 43013U 17073A   26017.93796159  .00000077  00000+0  57252-4 0  9992
#TLE: 2 43013  98.7639 318.8464 0001390  34.9771 325.1496 14.19536703423157

#Time	Az	El	Level	Level2	SNR	BER	BlckErr	Temp	State	Recorded	gain1	gain2
2026-01-19 02:01:52.69	2.71	5.00	-49.7	-65.4	3.8	1.49e+00	0	36	0	0	70	22641
2026-01-19 02:01:53.68	2.60	5.05	-45.7	-65.0	3.8	1.49e+00	0	36	104	0	63	32232
2026-01-19 02:01:54.67	2.49	5.10	-45.7	-65.0	3.8	1.49e+00	0	37	104	0	63	32247
2026-01-19 02:01:55.66	2.39	5.15	-45.7	-65.0	3.8	1.49e+00	0	36	104	0	63	32262
2026-01-19 02:01:56.66	2.28	5.20	-45.7	-65.0	3.8	1.49e+00	0	36	104	0	63	32353
2026-01-19 02:01:57.65	2.17	5.25	-45.7	-65.0	3.8	1.49e+00	0	36	104	0	63	32371
2026-01-19 02:01:58.64	2.06	5.30	-45.7	-65.0	3.8	1.49e+00	0	37	104	0	63	32302
2026-01-19 02:01:59.64	1.95	5.35	-45.7	-65.0	3.8	1.49e+00	0	37	104	0	63	32305
2026-01-19 02:02:00.63	1.85	5.40	-45.7	-65.0	3.8	1.49e+00	0	36	104	0	63	32313
2026-01-19 02:02:01.63	1.74	5.45	-45.7	-65.0	3.8	1.49e+00	0	37	104	0	63	32297
2026-01-19 02:02:02.62	1.63	5.50	-45.7	-64.9	3.8	1.49e+00	0	37	104	0	63	32164
2026-01-19 02:02:03.61	1.52	5.55	-45.7	-64.9	3.8	1.49e+00	0	37	104	0	63	32177
2026-01-19 02:02:04.60	1.41	5.60	-45.8	-65.0	3.8	1.49e+00	0	36	104	0	63	32264
2026-01-19 02:02:05.60	1.29	5.65	-45.8	-64.9	3.8	1.49e+00	0	37	104	0	63	32171
2026-01-19 02:02:06.59	1.18	5.70	-45.8	-65.0	3.8	1.49e+00	0	37	104	0	63	32232
2026-01-19 02:02:07.58	1.07	5.75	-45.8	-64.9	3.8	1.49e+00	0	37	104	0	63	32124
2026-01-19 02:02:08.58	0.96	5.80	-45.8	-65.0	3.8	1.49e+00	0	37	104	0	63	32240
2026-01-19 02:02:09.57	0.85	5.85	-45.8	-65.0	3.8	1.49e+00	0	37	104	0	63	32191
2026-01-19 02:02:10.57	0.73	5.90	-45.8	-65.0	3.8	1.49e+00	0	37	104	0	63	32264
2026-01-19 02:02:11.56	0.62	5.95	-45.8	-65.0	3.8	1.49e+00	0	37	104	0	63	32194
2026-01-19 02:02:12.55	0.51	6.00	-45.7	-65.0	3.8	1.49e+00	0	37	104	0	63	32287
2026-01-19 02:02:13.55	0.39	6.05	-45.8	-65.0	3.8	1.49e+00	0	37	104	0	63	32294
2026-01-19 02:02:14.54	0.28	6.10	-45.8	-65.0	3.8	1.49e+00	0	37	104	0	63	32343
2026-01-19 02:02:15.53	0.16	6.14	-45.7	-65.0	3.8	1.49e+00	0	37	104	0	63	32345
2026-01-19 02:02:16.53	0.05	6.19	-45.7	-65.0	3.8	1.49e+00	0	37	104	0	63	32322
2026-01-19 02:02:17.52	359.93	6.24	-45.7	-65.0	3.8	1.49e+00	0	37	104	0	63	32348
2026-01-19 02:02:18.52	359.82	6.29	-45.8	-65.0	3.8	1.49e+00	0	37	104	0	63	32327
2026-01-19 02:02:19.51	359.70	6.34	-45.8	-65.0	3.8	1.49e+00	0	37	104	0	63	32392
2026-01-19 02:02:20.50	359.58	6.39	-45.8	-65.0	3.8	1.49e+00	0	37	104	0	63	32385
2026-01-19 02:02:21.49	359.47	6.44	-45.8	-65.0	3.8	1.49e+00	0	37	104	0	63	32323
2026-01-19 02:02:22.49	359.35	6.49	-45.7	-65.0	3.8	1.49e+00	0	37	104	0	63	32311
2026-01-19 02:02:23.48	359.23	6.54	-45.7	-64.9	3.8	1.49e+00	0	37	104	0	63	32173
2026-01-19 02:02:24.47	359.11	6.59	-45.8	-65.0	3.8	1.49e+00	0	37	104	0	63	32231
2026-01-19 02:02:25.47	358.99	6.64	-45.8	-65.0	3.8	1.49e+00	0	37	104	0	63	32272
2026-01-19 02:02:26.46	358.87	6.69	-45.8	-65.0	3.8	1.49e+00	0	37	104	0	63	32377
2026-01-19 02:02:27.45	358.75	6.74	-45.8	-65.0	3.8	1.49e+00	0	37	104	0	63	32196
2026-01-19 02:02:28.45	358.63	6.79	-45.8	-64.9	3.8	1.49e+00	0	38	104	0	63	32170
2026-01-19 02:02:29.44	358.51	6.84	-45.8	-64.9	3.8	1.49e+00	0	37	104	0	63	32177
2026-01-19 02:02:30.43	358.39	6.89	-45.8	-65.0	3.8	1.49e+00	0	38	104	0	63	32200
2026-01-19 02:02:31.43	358.27	6.94	-45.8	-65.0	3.8	1.49e+00	0	37	104	0	63	32185
2026-01-19 02:02:32.42	358.15	6.99	-45.8	-65.0	3.8	1.49e+00	0	37	104	0	63	32207
2026-01-19 02:02:33.41	358.03	7.04	-45.8	-65.0	3.8	1.49e+00	0	37	104	0	63	32302
2026-01-19 02:02:34.41	357.90	7.09	-45.8	-65.0	3.8	1.49e+00	0	38	104	0	63	32271
2026-01-19 02:02:35.40	357.78	7.13	-45.8	-65.0	3.8	1.49e+00	0	38	104	0	63	32286
2026-01-19 02:02:36.39	357.66	7.18	-45.8	-65.0	3.8	1.49e+00	0	38	104	0	63	32222
2026-01-19 02:02:37.39	357.53	7.23	-45.8	-65.0	3.8	1.49e+00	0	38	104	0	63	32247
2026-01-19 02:02:38.38	357.41	7.28	-45.8	-65.0	3.8	1.49e+00	0	38	104	0	63	32309
2026-01-19 02:02:39.38	357.28	7.33	-45.8	-65.0	3.8	1.49e+00	0	38	104	0	63	32319
2026-01-19 02:02:40.37	357.16	7.38	-45.8	-65.0	3.8	1.49e+00	0	38	104	0	63	32254
2026-01-19 02:02:41.36	357.03	7.43	-45.8	-65.0	3.8	1.49e+00	0	38	104	0	63	32289
2026-01-19 02:02:42.35	356.91	7.48	-45.8	-65.0	3.8	1.49e+00	0	38	104	0	63	32352
2026-01-19 02:02:43.35	356.78	7.53	-45.8	-65.0	3.8	1.49e+00	0	38	104	0	63	32377
2026-01-19 02:02:44.34	356.65	7.58	-45.8	-65.0	3.8	1.49e+00	0	38	104	0	63	32320
2026-01-19 02:02:45.33	356.52	7.62	-45.8	-65.0	3.8	1.49e+00	0	38	104	0	63	32205
2026-01-19 02:02:46.33	356.40	7.67	-45.8	-64.9	3.8	1.49e+00	0	38	104	0	63	31974
2026-01-19 02:02:47.32	356.27	7.72	-45.8	-64.9	3.8	1.49e+00	0	38	104	0	63	31893
2026-01-19 02:02:48.31	356.14	7.77	-45.8	-64.8	3.8	1.49e+00	0	38	104	0	63	31779
2026-01-19 02:02:49.31	356.01	7.82	-45.8	-64.8	3.8	1.49e+00	0	38	104	0	63	31768
2026-01-19 02:02:50.30	355.88	7.87	-45.8	-64.8	3.8	1.49e+00	0	38	104	0	63	31805
2026-01-19 02:02:51.29	355.75	7.92	-45.8	-64.9	3.8	1.49e+00	0	38	104	0	63	31838
2026-01-19 02:02:52.29	355.62	7.97	-45.8	-64.8	3.8	1.49e+00	0	38	104	0	63	31786
2026-01-19 02:02:53.28	355.49	8.01	-45.8	-64.9	3.8	1.49e+00	0	38	104	0	63	31836
2026-01-19 02:02:54.27	355.36	8.06	-45.8	-64.8	3.8	1.49e+00	0	38	104	0	63	31799
2026-01-19 02:02:55.27	355.22	8.11	-45.8	-64.9	3.8	1.49e+00	0	38	104	0	63	31977
2026-01-19 02:02:56.26	355.09	8.16	-45.8	-64.9	3.8	1.49e+00	0	38	104	0	63	31915
2026-01-19 02:02:57.25	354.96	8.21	-45.8	-64.8	3.8	1.49e+00	0	38	104	0	63	31592
2026-01-19 02:02:58.25	354.82	8.26	-45.8	-64.6	3.8	1.49e+00	0	38	104	0	63	30849
2026-01-19 02:02:59.24	354.69	8.30	-45.8	-64.3	3.8	1.49e+00	0	38	104	0	63	29793
2026-01-19 02:03:00.23	354.56	8.35	-45.8	-64.0	3.8	1.49e+00	0	38	104	0	63	28859
2026-01-19 02:03:01.23	354.42	8.40	-45.8	-63.8	3.8	1.49e+00	0	38	104	0	63	28058
2026-01-19 02:03:02.22	354.29	8.45	-45.8	-63.5	3.8	1.49e+00	0	38	104	0	63	27367
2026-01-19 02:03:03.21	354.15	8.50	-45.8	-63.3	3.8	1.49e+00	0	38	104	0	63	26645
2026-01-19 02:03:04.20	354.02	8.54	-45.8	-63.1	3.8	1.49e+00	0	38	104	0	63	26116
2026-01-19 02:03:05.20	353.88	8.59	-45.8	-62.9	3.8	1.49e+00	0	38	104	0	63	25476
2026-01-19 02:03:06.19	353.74	8.64	-45.8	-62.5	3.9	1.48e+00	0	38	104	0	63	24174
2026-01-19 02:03:07.18	353.61	8.69	-45.8	-61.7	4.1	1.45e+00	0	38	0	0	63	22234
2026-01-19 02:03:08.18	353.47	8.74	-45.7	-60.5	4.5	1.36e+00	0	38	0	0	63	19267
2026-01-19 02:03:09.17	353.33	8.78	-45.6	-58.7	5.4	8.42e-01	0	38	0	2097152	63	15589
2026-01-19 02:03:10.16	353.19	8.83	-45.5	-56.7	6.9	2.43e-01	0	38	0	4194304	62	13194
2026-01-19 02:03:11.16	353.05	8.88	-45.2	-54.6	8.9	6.32e-02	0	38	0	5242880	62	10393
2026-01-19 02:03:12.15	352.91	8.92	-44.8	-52.9	10.8	1.05e-02	0	38	0	7340032	61	8975
2026-01-19 02:03:13.14	352.77	8.97	-44.5	-51.6	12.1	4.97e-04	0	38	0	9437184	61	7730
2026-01-19 02:03:14.14	352.63	9.02	-44.2	-50.6	13.2	5.34e-05	0	38	0	11534336	60	7293
2026-01-19 02:03:15.13	352.49	9.07	-44.8	-52.3	11.3	4.73e-04	0	38	0	13631488	60	8887
2026-01-19 02:03:16.28	352.32	9.12	-46.1	-55.9	7.5	3.69e-01	0	38	0	15728640	63	11384
2026-01-19 02:03:17.18	352.20	9.16	-44.2	-49.7	14.0	7.00e-07	0	38	0	16777216	59	6994
2026-01-19 02:03:18.45	352.01	9.22	-44.1	-49.9	13.7	2.30e-03	0	38	0	19922944	60	6743
2026-01-19 02:03:19.25	351.90	9.26	-43.9	-48.9	14.8	0.00e+00	0	38	0	20971520	59	6372
2026-01-19 02:03:20.39	351.73	9.31	-43.7	-48.6	15.0	0.00e+00	0	38	0	23068672	59	6198
2026-01-19 02:03:21.29	351.60	9.36	-43.7	-48.6	15.2	0.00e+00	0	38	0	25165824	59	6138
2026-01-19 02:03:22.48	351.43	9.41	-43.9	-48.6	15.1	0.00e+00	0	38	0	27262976	59	6168
2026-01-19 02:03:23.33	351.31	9.45	-44.1	-48.6	15.1	0.00e+00	0	38	0	28311552	59	6171
2026-01-19 02:03:24.47	351.14	9.51	-44.2	-48.7	15.1	0.00e+00	0	38	0	30408704	59	6226
2026-01-19 02:03:25.32	351.01	9.55	-44.3	-48.6	15.2	0.00e+00	0	39	0	32505856	59	6140
2026-01-19 02:03:26.46	350.85	9.60	-44.3	-48.4	15.3	7.00e-07	0	38	0	34603008	59	6058
2026-01-19 02:03:27.31	350.72	9.64	-44.4	-48.5	15.3	0.00e+00	0	38	0	35651584	59	6090
2026-01-19 02:03:28.44	350.55	9.69	-44.4	-48.4	15.4	0.00e+00	0	38	0	37748736	59	6022
2026-01-19 02:03:29.30	350.42	9.73	-44.4	-48.5	15.3	0.00e+00	0	38	0	39845888	59	6101
2026-01-19 02:03:30.43	350.25	9.78	-44.3	-48.4	15.4	0.00e+00	0	38	0	41943040	59	6031
2026-01-19 02:03:31.29	350.13	9.82	-44.3	-48.3	15.5	0.00e+00	0	38	0	42991616	59	5975
2026-01-19 02:03:32.42	349.96	9.87	-44.2	-48.2	15.5	0.00e+00	0	38	0	45088768	59	5913
2026-01-19 02:03:33.27	349.83	9.91	-44.1	-48.2	15.5	0.00e+00	0	38	0	47185920	59	5907
2026-01-19 02:03:34.41	349.66	9.96	-43.9	-48.2	15.6	0.00e+00	0	38	0	49283072	59	5870
2026-01-19 02:03:35.26	349.53	10.00	-43.8	-48.2	15.6	0.00e+00	0	38	0	51380224	59	5891
2026-01-19 02:03:36.40	349.35	10.05	-43.6	-47.9	15.8	0.00e+00	0	38	0	53477376	59	5701
2026-01-19 02:03:37.25	349.22	10.09	-43.3	-47.8	16.0	0.00e+00	0	38	0	54525952	58	5928
2026-01-19 02:03:38.52	349.03	10.15	-43.2	-47.7	16.0	0.00e+00	0	38	0	56623104	58	5906
2026-01-19 02:03:39.31	348.91	10.19	-43.2	-47.7	16.1	0.00e+00	0	38	0	58720256	58	5911
2026-01-19 02:03:40.65	348.70	10.25	-43.2	-47.6	16.1	0.00e+00	0	38	0	60817408	58	5839
2026-01-19 02:03:41.36	348.59	10.28	-43.2	-47.6	16.2	0.00e+00	0	38	0	61865984	58	5802
2026-01-19 02:03:42.64	348.39	10.33	-43.3	-47.4	16.3	0.00e+00	0	39	0	65011712	58	5712
2026-01-19 02:03:43.35	348.28	10.37	-43.3	-47.3	16.4	0.00e+00	0	39	0	66060288	58	5655
2026-01-19 02:03:44.64	348.08	10.42	-43.4	-47.3	16.5	0.00e+00	0	38	0	68157440	58	5637
2026-01-19 02:03:45.35	347.97	10.46	-43.3	-47.2	16.6	0.00e+00	0	38	0	70254592	58	5563
2026-01-19 02:03:46.63	347.77	10.51	-43.1	-47.0	16.8	0.00e+00	0	38	0	72351744	58	5437
2026-01-19 02:03:47.36	347.65	10.54	-43.1	-47.1	16.7	0.00e+00	0	39	0	73400320	58	5468
2026-01-19 02:03:48.64	347.45	10.60	-42.9	-47.0	16.7	0.00e+00	0	38	0	76546048	57	5769
2026-01-19 02:03:49.35	347.34	10.63	-42.9	-47.0	16.7	0.00e+00	0	38	0	77594624	57	5770
2026-01-19 02:03:50.63	347.13	10.69	-42.9	-47.0	16.8	0.00e+00	0	38	0	79691776	57	5730
2026-01-19 02:03:51.34	347.02	10.72	-43.1	-47.1	16.6	0.00e+00	0	39	0	80740352	57	5842
2026-01-19 02:03:52.62	346.81	10.77	-43.1	-46.9	16.8	0.00e+00	0	38	0	83886080	57	5707
2026-01-19 02:03:53.35	346.70	10.81	-43.1	-46.9	16.9	0.00e+00	0	39	0	84934656	57	5707
2026-01-19 02:03:54.62	346.49	10.86	-43.2	-47.0	16.8	0.00e+00	0	38	0	87031808	57	5755
2026-01-19 02:03:55.59	346.34	10.90	-43.2	-47.0	16.8	0.00e+00	0	39	0	89128960	57	5764
2026-01-19 02:03:56.88	346.13	10.96	-43.1	-46.9	16.9	0.00e+00	0	39	0	91226112	57	5672
2026-01-19 02:03:57.59	346.01	10.99	-43.0	-46.7	17.0	0.00e+00	0	38	0	93323264	57	5584
2026-01-19 02:03:59.22	345.74	11.06	-43.0	-46.8	17.0	0.00e+00	0	38	0	95420416	57	5622
2026-01-19 02:03:59.79	345.65	11.08	-42.9	-46.8	17.0	0.00e+00	0	39	0	96468992	57	5598
2026-01-19 02:04:01.68	345.34	11.16	-43.1	-46.8	17.0	0.00e+00	0	39	0	100663296	57	5595
2026-01-19 02:04:02.25	345.25	11.18	-43.1	-46.7	17.1	0.00e+00	0	39	0	101711872	57	5558
2026-01-19 02:04:03.96	344.96	11.25	-43.3	-46.7	17.0	0.00e+00	0	39	0	104857600	57	5577
2026-01-19 02:04:04.53	344.87	11.28	-43.4	-46.7	17.1	0.00e+00	0	39	0	105906176	57	5586
2026-01-19 02:04:06.23	344.59	11.35	-43.5	-46.8	17.0	0.00e+00	0	38	0	109051904	57	5610
2026-01-19 02:04:06.80	344.49	11.37	-43.4	-46.7	17.1	0.00e+00	0	39	0	110100480	57	5537
2026-01-19 02:04:08.51	344.20	11.44	-43.3	-46.5	17.3	0.00e+00	0	39	0	113246208	57	5417
2026-01-19 02:04:09.08	344.11	11.47	-43.4	-46.6	17.2	0.00e+00	0	39	0	114294784	57	5519
2026-01-19 02:04:10.78	343.82	11.53	-43.4	-46.6	17.2	0.00e+00	0	39	0	117440512	57	5508
2026-01-19 02:04:11.35	343.72	11.56	-43.3	-46.6	17.3	0.00e+00	0	39	0	118489088	57	5471
2026-01-19 02:04:13.05	343.44	11.63	-43.2	-46.4	17.4	0.00e+00	0	38	0	121634816	57	5351
2026-01-19 02:04:13.62	343.34	11.65	-43.1	-46.3	17.5	0.00e+00	0	38	0	122683392	57	5324
2026-01-19 02:04:15.61	343.00	11.73	-43.1	-46.1	17.6	0.00e+00	0	39	0	126877696	57	5218
2026-01-19 02:04:16.18	342.90	11.75	-43.2	-46.2	17.5	0.00e+00	0	39	0	127926272	57	5270
2026-01-19 02:04:18.18	342.56	11.83	-43.2	-46.1	17.7	0.00e+00	0	39	0	131072000	57	5191
2026-01-19 02:04:18.75	342.46	11.85	-43.1	-46.1	17.7	0.00e+00	0	39	0	132120576	57	5173
2026-01-19 02:04:20.74	342.11	11.93	-43.2	-46.2	17.6	0.00e+00	0	39	0	136314880	57	5271
2026-01-19 02:04:21.31	342.01	11.95	-43.2	-46.2	17.6	0.00e+00	0	39	0	137363456	57	5268
2026-01-19 02:04:23.01	341.72	12.01	-43.4	-46.5	17.3	0.00e+00	0	39	0	140509184	57	5419
2026-01-19 02:04:23.58	341.62	12.04	-43.3	-46.4	17.4	0.00e+00	0	39	0	141557760	57	5366
2026-01-19 02:04:25.29	341.32	12.10	-43.4	-46.5	17.3	0.00e+00	0	38	0	144703488	57	5429
2026-01-19 02:04:25.85	341.22	12.12	-43.5	-46.5	17.3	0.00e+00	0	39	0	145752064	57	5452
2026-01-19 02:04:27.56	340.92	12.19	-43.4	-46.4	17.4	0.00e+00	0	38	0	148897792	57	5366
2026-01-19 02:04:28.13	340.82	12.21	-43.3	-46.3	17.5	0.00e+00	0	39	0	149946368	57	5339
2026-01-19 02:04:29.84	340.51	12.27	-43.3	-46.6	17.2	0.00e+00	0	39	0	153092096	57	5480
2026-01-19 02:04:30.44	340.41	12.29	-43.2	-46.5	17.3	0.00e+00	0	39	0	154140672	57	5439
2026-01-19 02:04:32.00	340.13	12.35	-43.2	-46.6	17.2	0.00e+00	0	39	0	157286400	57	5484
2026-01-19 02:04:32.65	340.01	12.37	-43.3	-46.6	17.2	0.00e+00	0	38	0	158334976	57	5519
2026-01-19 02:04:34.07	339.76	12.42	-43.4	-46.7	17.2	0.00e+00	0	39	0	161480704	57	5543
2026-01-19 02:04:35.20	339.55	12.46	-43.6	-46.7	17.1	0.00e+00	0	39	0	163577856	57	5585
2026-01-19 02:04:36.06	339.40	12.49	-43.7	-46.7	17.1	0.00e+00	0	39	0	164626432	57	5572
2026-01-19 02:04:37.19	339.19	12.53	-43.8	-46.8	17.1	0.00e+00	0	39	0	166723584	58	5285
2026-01-19 02:04:38.05	339.04	12.56	-43.8	-46.8	17.1	0.00e+00	0	39	0	168820736	58	5287
2026-01-19 02:04:39.18	338.83	12.60	-43.8	-46.8	17.0	0.00e+00	0	39	0	170917888	58	5322
2026-01-19 02:04:40.03	338.68	12.63	-43.6	-46.7	17.1	0.00e+00	0	39	0	171966464	58	5228
2026-01-19 02:04:41.17	338.47	12.67	-43.4	-46.6	17.2	0.00e+00	0	39	0	174063616	58	5192
2026-01-19 02:04:42.06	338.30	12.70	-43.3	-46.5	17.3	0.00e+00	0	39	0	176160768	58	5140
2026-01-19 02:04:43.19	338.10	12.74	-43.3	-46.6	17.3	0.00e+00	0	39	0	178257920	58	5172
2026-01-19 02:04:44.05	337.94	12.77	-43.3	-46.5	17.3	0.00e+00	0	39	0	180355072	58	5124
2026-01-19 02:04:45.18	337.73	12.81	-43.3	-46.4	17.4	0.00e+00	0	39	0	182452224	58	5089
2026-01-19 02:04:46.04	337.57	12.83	-43.3	-46.3	17.5	0.00e+00	0	39	0	183500800	58	5020
2026-01-19 02:04:47.17	337.36	12.87	-43.3	-46.3	17.5	0.00e+00	0	39	0	185597952	58	5030
2026-01-19 02:04:48.25	337.16	12.91	-43.4	-46.4	17.4	0.00e+00	0	39	0	187695104	58	5065
2026-01-19 02:04:49.10	337.00	12.93	-43.3	-46.3	17.5	0.00e+00	0	39	0	189792256	58	5008
2026-01-19 02:04:50.24	336.79	12.97	-43.4	-46.4	17.4	0.00e+00	0	39	0	191889408	58	5080
2026-01-19 02:04:51.36	336.58	13.01	-43.4	-46.3	17.5	0.00e+00	0	39	0	193986560	58	5006
2026-01-19 02:04:52.22	336.42	13.03	-43.4	-46.3	17.6	0.00e+00	0	39	0	195035136	58	4993
2026-01-19 02:04:53.35	336.21	13.07	-43.4	-46.2	17.6	0.00e+00	0	39	0	197132288	58	4948
2026-01-19 02:04:54.20	336.05	13.09	-43.4	-46.2	17.6	0.00e+00	0	39	0	199229440	58	4946
2026-01-19 02:04:55.34	335.83	13.13	-43.3	-46.0	17.8	0.00e+00	0	39	0	201326592	58	4845
2026-01-19 02:04:56.20	335.67	13.15	-43.4	-46.1	17.8	0.00e+00	0	39	0	202375168	58	4881
2026-01-19 02:04:57.33	335.45	13.19	-43.4	-46.1	17.8	0.00e+00	0	39	0	204472320	58	4872
2026-01-19 02:04:58.18	335.29	13.21	-43.3	-45.9	17.9	0.00e+00	0	39	0	206569472	58	4811
2026-01-19 02:04:59.32	335.08	13.25	-43.3	-45.9	17.9	0.00e+00	0	39	0	208666624	58	4810
2026-01-19 02:05:00.18	334.91	13.27	-43.3	-45.9	17.9	0.00e+00	0	39	0	209715200	58	4788
2026-01-19 02:05:01.31	334.70	13.31	-43.4	-46.1	17.7	0.00e+00	0	39	0	211812352	58	4891
2026-01-19 02:05:02.17	334.53	13.33	-43.3	-46.1	17.8	0.00e+00	0	39	0	213909504	58	4872
2026-01-19 02:05:03.48	334.28	13.37	-43.4	-46.1	17.8	0.00e+00	0	39	0	216006656	58	4888
2026-01-19 02:05:04.19	334.14	13.39	-43.4	-46.1	17.7	0.00e+00	0	39	0	218103808	58	4921
2026-01-19 02:05:05.67	333.86	13.43	-43.2	-45.8	18.0	0.00e+00	0	39	0	220200960	58	4748
2026-01-19 02:05:06.65	333.67	13.46	-43.2	-45.8	18.1	0.00e+00	0	39	0	222298112	58	4712
2026-01-19 02:05:07.96	333.42	13.49	-43.1	-45.7	18.1	0.00e+00	0	39	0	224395264	58	4662
2026-01-19 02:05:08.70	333.27	13.51	-43.3	-45.9	17.9	0.00e+00	0	39	0	226492416	58	4796
2026-01-19 02:05:09.98	333.02	13.54	-43.2	-45.9	18.0	0.00e+00	0	39	0	228589568	58	4784
2026-01-19 02:05:10.70	332.88	13.56	-43.1	-45.8	18.1	0.00e+00	0	39	0	229638144	58	4729
2026-01-19 02:05:11.97	332.64	13.60	-43.2	-45.9	18.0	0.00e+00	0	39	0	231735296	58	4779
2026-01-19 02:05:12.69	332.50	13.61	-43.3	-46.0	17.8	0.00e+00	0	39	0	233832448	58	4846
2026-01-19 02:05:13.96	332.25	13.65	-43.2	-45.8	18.1	0.00e+00	0	39	0	235929600	58	4719
2026-01-19 02:05:14.69	332.10	13.67	-43.3	-45.9	17.9	0.00e+00	0	39	0	236978176	58	4804
2026-01-19 02:05:15.97	331.85	13.70	-43.3	-45.9	18.0	0.00e+00	0	39	0	240123904	58	4770
2026-01-19 02:05:16.68	331.71	13.71	-43.2	-45.8	18.0	0.00e+00	0	39	0	241172480	58	4735
2026-01-19 02:05:18.04	331.45	13.75	-43.3	-45.9	18.0	0.00e+00	0	39	0	243269632	58	4770
2026-01-19 02:05:18.75	331.31	13.76	-43.1	-45.7	18.1	0.00e+00	0	39	0	245366784	58	4693
2026-01-19 02:05:20.03	331.05	13.79	-43.2	-45.8	18.1	0.00e+00	0	39	0	247463936	58	4718
2026-01-19 02:05:20.75	330.91	13.81	-43.1	-45.7	18.1	0.00e+00	0	39	0	248512512	58	4692
2026-01-19 02:05:22.11	330.64	13.84	-43.2	-45.8	18.0	0.00e+00	0	38	0	251658240	58	4728
2026-01-19 02:05:22.82	330.50	13.86	-43.3	-45.9	17.9	0.00e+00	0	39	0	252706816	58	4804
2026-01-19 02:05:24.10	330.25	13.89	-43.4	-46.0	17.9	0.00e+00	0	39	0	254803968	58	4843
2026-01-19 02:05:24.82	330.10	13.90	-43.4	-45.9	17.9	0.00e+00	0	39	0	255852544	58	4814
2026-01-19 02:05:26.09	329.85	13.93	-43.5	-46.1	17.7	0.00e+00	0	39	0	258998272	58	4908
2026-01-19 02:05:26.82	329.70	13.94	-43.5	-46.2	17.7	0.00e+00	0	39	0	260046848	58	4947
2026-01-19 02:05:28.10	329.45	13.97	-43.5	-46.2	17.7	0.00e+00	0	39	0	262144000	58	4943
2026-01-19 02:05:28.81	329.31	13.99	-43.5	-46.2	17.7	0.00e+00	0	39	0	264241152	58	4976
2026-01-19 02:05:30.09	329.05	14.01	-43.7	-46.4	17.5	0.00e+00	0	39	0	266338304	58	5065
2026-01-19 02:05:30.82	328.90	14.03	-43.6	-46.3	17.5	0.00e+00	0	39	0	267386880	58	5041
2026-01-19 02:05:32.09	328.65	14.05	-43.8	-46.5	17.4	0.00e+00	0	39	0	270532608	58	5143
2026-01-19 02:05:32.93	328.48	14.07	-43.8	-46.5	17.4	0.00e+00	0	38	0	271581184	58	5152
2026-01-19 02:05:34.06	328.25	14.09	-43.9	-46.6	17.2	0.00e+00	0	38	0	273678336	58	5209
2026-01-19 02:05:35.09	328.04	14.11	-43.8	-46.6	17.2	0.00e+00	0	39	0	275775488	58	5200
2026-01-19 02:05:36.26	327.80	14.13	-43.7	-46.5	17.3	0.00e+00	0	39	0	277872640	58	5158
2026-01-19 02:05:37.14	327.63	14.14	-43.6	-46.6	17.3	0.00e+00	0	39	0	279969792	58	5183
2026-01-19 02:05:38.28	327.40	14.16	-43.7	-46.8	17.1	0.00e+00	0	39	0	282066944	58	5293
2026-01-19 02:05:39.19	327.21	14.18	-43.6	-46.7	17.1	0.00e+00	0	39	0	283115520	58	5257
2026-01-19 02:05:40.36	326.97	14.20	-43.6	-46.7	17.1	0.00e+00	0	39	0	285212672	58	5267
2026-01-19 02:05:41.26	326.79	14.21	-43.6	-46.7	17.2	0.00e+00	0	39	0	287309824	58	5261
2026-01-19 02:05:42.50	326.54	14.23	-43.7	-46.7	17.2	0.00e+00	0	39	0	289406976	58	5238
2026-01-19 02:05:43.36	326.36	14.25	-43.8	-46.8	17.0	0.00e+00	0	39	0	291504128	58	5335
2026-01-19 02:05:44.49	326.13	14.26	-43.8	-46.8	17.2	0.00e+00	0	39	0	293601280	58	5280
2026-01-19 02:05:45.35	325.96	14.28	-43.8	-46.7	17.1	0.00e+00	0	39	0	294649856	58	5255
2026-01-19 02:05:46.71	325.68	14.30	-43.8	-46.8	17.2	0.00e+00	0	39	0	297795584	58	5307
2026-01-19 02:05:47.42	325.53	14.31	-43.6	-46.7	17.2	0.00e+00	0	39	0	298844160	58	5225
2026-01-19 02:05:48.70	325.27	14.32	-43.4	-46.4	17.5	0.00e+00	0	39	0	300941312	58	5085
2026-01-19 02:05:49.41	325.12	14.33	-43.4	-46.3	17.5	0.00e+00	0	39	0	301989888	58	5041
2026-01-19 02:05:50.69	324.86	14.35	-43.3	-46.3	17.6	0.00e+00	0	39	0	305135616	58	4999
2026-01-19 02:05:51.41	324.71	14.36	-43.2	-46.1	17.8	0.00e+00	0	39	0	306184192	58	4891
2026-01-19 02:05:52.69	324.45	14.37	-43.3	-46.1	17.7	0.00e+00	0	38	0	308281344	58	4906
2026-01-19 02:05:53.40	324.30	14.38	-43.3	-46.1	17.8	0.00e+00	0	39	0	310378496	58	4879
2026-01-19 02:05:54.68	324.04	14.40	-43.5	-46.2	17.7	0.00e+00	0	39	0	312475648	58	4940
2026-01-19 02:05:55.58	323.85	14.41	-43.5	-46.1	17.8	0.00e+00	0	39	0	313524224	58	4894
2026-01-19 02:05:56.89	323.58	14.42	-43.4	-46.0	17.8	0.00e+00	0	39	0	316669952	58	4866
2026-01-19 02:05:57.61	323.43	14.43	-43.5	-46.1	17.8	0.00e+00	0	39	0	317718528	58	4904
2026-01-19 02:05:59.20	323.11	14.44	-43.6	-46.1	17.7	0.00e+00	0	39	0	320864256	58	4924
2026-01-19 02:05:59.77	322.99	14.45	-43.5	-46.1	17.7	0.00e+00	0	39	0	321912832	58	4919
2026-01-19 02:06:01.48	322.63	14.47	-43.5	-46.1	17.7	0.00e+00	0	39	0	325058560	58	4911
2026-01-19 02:06:02.05	322.52	14.47	-43.5	-46.2	17.7	0.00e+00	0	39	0	326107136	58	4934
2026-01-19 02:06:03.74	322.17	14.48	-43.4	-46.1	17.8	0.00e+00	0	39	0	329252864	58	4905
2026-01-19 02:06:04.31	322.05	14.49	-43.4	-46.1	17.8	0.00e+00	0	39	0	330301440	58	4919
2026-01-19 02:06:06.02	321.69	14.50	-43.4	-46.2	17.7	0.00e+00	0	39	0	333447168	58	4938
2026-01-19 02:06:06.59	321.57	14.51	-43.5	-46.3	17.6	0.00e+00	0	39	0	334495744	58	5003
2026-01-19 02:06:08.29	321.22	14.52	-43.5	-46.3	17.6	0.00e+00	0	39	0	337641472	58	5022
2026-01-19 02:06:08.86	321.10	14.52	-43.5	-46.3	17.7	0.00e+00	0	39	0	338690048	58	4997
2026-01-19 02:06:10.57	320.75	14.53	-43.6	-46.3	17.6	0.00e+00	0	39	0	341835776	58	5040
2026-01-19 02:06:11.13	320.63	14.53	-43.5	-46.2	17.7	0.00e+00	0	39	0	342884352	58	4963
2026-01-19 02:06:13.04	320.23	14.54	-43.6	-46.3	17.6	0.00e+00	0	39	0	347078656	58	5026
2026-01-19 02:06:13.61	320.11	14.55	-43.7	-46.4	17.5	0.00e+00	0	39	0	348127232	58	5080
2026-01-19 02:06:15.32	319.76	14.55	-43.5	-46.2	17.7	0.00e+00	0	39	0	351272960	58	4956
2026-01-19 02:06:16.01	319.61	14.55	-43.5	-46.2	17.6	0.00e+00	0	39	0	352321536	58	4969
2026-01-19 02:06:17.42	319.32	14.56	-43.4	-46.1	17.7	0.00e+00	0	39	0	355467264	58	4892
2026-01-19 02:06:18.13	319.17	14.56	-43.5	-46.1	17.8	0.00e+00	0	39	0	356515840	58	4897
2026-01-19 02:06:19.41	318.90	14.56	-43.4	-46.1	17.9	0.00e+00	0	39	0	358612992	58	4871
2026-01-19 02:06:20.12	318.76	14.57	-43.5	-46.1	17.8	0.00e+00	0	39	0	359661568	58	4918
2026-01-19 02:06:21.43	318.48	14.57	-43.5	-46.1	17.7	0.00e+00	0	39	0	362807296	58	4926
2026-01-19 02:06:22.14	318.33	14.57	-43.5	-46.1	17.8	0.00e+00	0	39	0	363855872	58	4904
2026-01-19 02:06:23.42	318.07	14.57	-43.6	-46.2	17.7	0.00e+00	0	39	0	365953024	58	4970
2026-01-19 02:06:24.14	317.92	14.57	-43.6	-46.3	17.6	0.00e+00	0	39	0	368050176	58	4984
2026-01-19 02:06:25.58	317.62	14.57	-43.6	-46.3	17.6	0.00e+00	0	39	0	370147328	58	5006
2026-01-19 02:06:26.29	317.47	14.57	-43.6	-46.2	17.6	0.00e+00	0	39	0	371195904	58	4980
2026-01-19 02:06:27.57	317.20	14.57	-43.5	-46.1	17.8	0.00e+00	0	39	0	374341632	58	4912
2026-01-19 02:06:28.30	317.05	14.57	-43.4	-46.1	17.8	0.00e+00	0	39	0	375390208	58	4910
2026-01-19 02:06:29.64	316.77	14.57	-43.4	-46.1	17.7	0.00e+00	0	39	0	377487360	58	4926
2026-01-19 02:06:30.35	316.62	14.56	-43.4	-46.2	17.7	0.00e+00	0	39	0	379584512	58	4942
2026-01-19 02:06:31.63	316.35	14.56	-43.5	-46.2	17.6	0.00e+00	0	39	0	381681664	58	4970
2026-01-19 02:06:32.70	316.13	14.56	-43.5	-46.3	17.6	0.00e+00	0	39	0	383778816	58	4993
2026-01-19 02:06:33.56	315.95	14.56	-43.7	-46.4	17.5	0.00e+00	0	39	0	384827392	58	5061
2026-01-19 02:06:34.70	315.71	14.55	-43.6	-46.3	17.6	0.00e+00	0	39	0	386924544	58	4995
2026-01-19 02:06:35.55	315.54	14.55	-43.7	-46.4	17.5	0.00e+00	0	39	0	389021696	58	5072
2026-01-19 02:06:36.69	315.30	14.54	-43.7	-46.4	17.6	0.00e+00	0	39	0	391118848	58	5049
2026-01-19 02:06:37.54	315.12	14.54	-43.6	-46.3	17.6	0.00e+00	0	39	0	393216000	58	5016
2026-01-19 02:06:38.68	314.88	14.53	-43.6	-46.3	17.6	0.00e+00	0	39	0	395313152	58	5015
2026-01-19 02:06:39.53	314.71	14.53	-43.5	-46.2	17.7	0.00e+00	0	39	0	396361728	58	4967
2026-01-19 02:06:40.67	314.47	14.52	-43.6	-46.3	17.5	0.00e+00	0	39	0	398458880	58	5025
2026-01-19 02:06:41.52	314.29	14.52	-43.7	-46.4	17.5	0.00e+00	0	39	0	400556032	58	5069
2026-01-19 02:06:42.66	314.06	14.51	-43.5	-46.2	17.6	0.00e+00	0	39	0	402653184	58	4979
2026-01-19 02:06:43.59	313.86	14.50	-43.6	-46.4	17.5	0.00e+00	0	39	0	403701760	58	5067
2026-01-19 02:06:44.76	313.62	14.50	-43.7	-46.4	17.4	0.00e+00	0	39	0	405798912	58	5098
2026-01-19 02:06:45.64	313.44	14.49	-43.8	-46.6	17.3	0.00e+00	0	39	0	407896064	58	5188
2026-01-19 02:06:46.78	313.20	14.48	-43.9	-46.7	17.3	0.00e+00	0	39	0	409993216	58	5223
2026-01-19 02:06:47.69	313.01	14.47	-43.9	-46.6	17.2	0.00e+00	0	39	0	412090368	58	5218
2026-01-19 02:06:48.88	312.76	14.46	-43.8	-46.7	17.3	0.00e+00	0	39	0	414187520	58	5227
2026-01-19 02:06:49.74	312.59	14.45	-43.9	-46.7	17.2	0.00e+00	0	39	0	415236096	58	5264
2026-01-19 02:06:50.87	312.35	14.44	-43.9	-46.8	17.2	0.00e+00	0	39	0	417333248	58	5286
2026-01-19 02:06:51.72	312.18	14.44	-43.9	-46.8	17.1	0.00e+00	0	39	0	419430400	58	5309
2026-01-19 02:06:52.86	311.94	14.42	-43.9	-46.8	17.2	0.00e+00	0	39	0	421527552	58	5280
2026-01-19 02:06:53.71	311.76	14.41	-43.9	-46.8	17.1	0.00e+00	0	39	0	422576128	58	5298
2026-01-19 02:06:54.85	311.53	14.40	-43.8	-46.6	17.3	0.00e+00	0	39	0	424673280	58	5214
2026-01-19 02:06:55.70	311.35	14.39	-43.9	-46.6	17.3	0.00e+00	0	39	0	426770432	58	5215
2026-01-19 02:06:56.84	311.12	14.38	-43.9	-46.7	17.2	0.00e+00	0	39	0	428867584	58	5243
2026-01-19 02:06:57.69	310.94	14.37	-43.9	-46.6	17.2	0.00e+00	0	39	0	430964736	58	5211
2026-01-19 02:06:58.83	310.71	14.35	-43.9	-46.8	17.1	0.00e+00	0	39	0	433061888	58	5282
2026-01-19 02:06:59.68	310.53	14.34	-44.1	-46.9	17.0	0.00e+00	0	39	0	434110464	58	5374
2026-01-19 02:07:00.82	310.30	14.33	-44.0	-46.9	17.0	0.00e+00	0	39	0	436207616	58	5343
2026-01-19 02:07:01.67	310.13	14.32	-44.1	-46.9	17.0	0.00e+00	0	39	0	438304768	58	5372
2026-01-19 02:07:02.81	309.89	14.30	-44.1	-47.0	16.9	0.00e+00	0	39	0	440401920	59	5144
2026-01-19 02:07:03.66	309.72	14.29	-44.2	-47.1	16.8	0.00e+00	0	39	0	441450496	59	5205
2026-01-19 02:07:04.80	309.48	14.27	-44.3	-47.2	16.8	0.00e+00	0	39	0	443547648	59	5219
2026-01-19 02:07:05.65	309.31	14.26	-44.3	-47.1	16.7	0.00e+00	0	39	0	445644800	59	5218
2026-01-19 02:07:07.05	309.02	14.24	-44.2	-47.1	16.8	0.00e+00	0	39	0	447741952	59	5170
2026-01-19 02:07:07.76	308.88	14.23	-44.1	-47.0	16.9	0.00e+00	0	39	0	449839104	59	5131
2026-01-19 02:07:09.25	308.58	14.20	-44.2	-47.0	16.9	0.00e+00	0	39	0	451936256	59	5130
2026-01-19 02:07:10.23	308.38	14.19	-44.2	-47.0	16.9	0.00e+00	0	39	0	454033408	59	5116
2026-01-19 02:07:11.22	308.17	14.17	-43.9	-46.7	17.2	0.00e+00	0	39	0	456130560	59	4932
2026-01-19 02:07:12.22	307.97	14.15	-43.9	-46.5	17.4	0.00e+00	0	39	0	458227712	59	4858
2026-01-19 02:07:13.21	307.77	14.14	-43.8	-46.5	17.4	0.00e+00	0	39	0	459276288	59	4849
2026-01-19 02:07:14.21	307.57	14.12	-43.9	-46.6	17.3	0.00e+00	0	39	0	461373440	59	4897
2026-01-19 02:07:15.20	307.37	14.10	-43.9	-46.7	17.2	0.00e+00	0	39	0	463470592	59	4930
2026-01-19 02:07:16.20	307.16	14.08	-44.0	-46.7	17.2	0.00e+00	0	39	0	465567744	59	4955
2026-01-19 02:07:17.19	306.96	14.06	-43.9	-46.7	17.2	0.00e+00	0	39	0	466616320	59	4928
2026-01-19 02:07:18.24	306.75	14.04	-43.9	-46.6	17.3	0.00e+00	0	39	0	468713472	59	4890
2026-01-19 02:07:19.23	306.55	14.02	-43.9	-46.6	17.3	0.00e+00	0	39	0	470810624	59	4907
2026-01-19 02:07:20.23	306.35	14.00	-43.8	-46.5	17.4	0.00e+00	0	39	0	472907776	59	4820
2026-01-19 02:07:21.22	306.15	13.98	-43.8	-46.5	17.4	0.00e+00	0	39	0	475004928	59	4841
2026-01-19 02:07:22.34	305.93	13.96	-43.8	-46.5	17.3	0.00e+00	0	39	0	477102080	59	4852
2026-01-19 02:07:23.23	305.75	13.94	-43.8	-46.5	17.3	0.00e+00	0	39	0	478150656	59	4841
2026-01-19 02:07:24.36	305.53	13.92	-43.9	-46.6	17.3	0.00e+00	0	39	0	480247808	59	4889
2026-01-19 02:07:25.21	305.36	13.90	-44.0	-46.7	17.2	0.00e+00	0	39	0	482344960	59	4963
2026-01-19 02:07:26.35	305.13	13.87	-44.1	-46.8	17.0	0.00e+00	0	39	0	484442112	59	5011
2026-01-19 02:07:27.20	304.96	13.86	-44.2	-47.0	16.9	0.00e+00	0	39	0	485490688	59	5139
2026-01-19 02:07:28.34	304.73	13.83	-44.1	-46.9	17.0	0.00e+00	0	39	0	487587840	59	5061
2026-01-19 02:07:29.19	304.56	13.81	-44.0	-46.8	17.1	0.00e+00	0	39	0	489684992	59	5028
2026-01-19 02:07:30.33	304.34	13.78	-44.0	-46.8	17.1	0.00e+00	0	39	0	491782144	59	5029
2026-01-19 02:07:31.18	304.17	13.76	-44.1	-46.9	17.0	0.00e+00	0	39	0	492830720	59	5062
2026-01-19 02:07:32.32	303.94	13.74	-43.9	-46.6	17.2	0.00e+00	0	39	0	494927872	59	4917
2026-01-19 02:07:33.17	303.78	13.72	-43.9	-46.7	17.2	0.00e+00	0	39	0	497025024	59	4931
2026-01-19 02:07:34.34	303.55	13.69	-43.9	-46.6	17.3	0.00e+00	0	39	0	499122176	59	4887
2026-01-19 02:07:35.19	303.38	13.67	-43.9	-46.7	17.2	0.00e+00	0	39	0	501219328	59	4950
2026-01-19 02:07:36.39	303.14	13.64	-43.9	-46.7	17.2	0.00e+00	0	39	0	503316480	59	4931
2026-01-19 02:07:37.25	302.97	13.61	-44.0	-46.8	17.1	0.00e+00	0	39	0	504365056	59	4995
2026-01-19 02:07:38.45	302.74	13.58	-44.1	-46.9	17.0	0.00e+00	0	39	0	506462208	59	5083
2026-01-19 02:07:39.30	302.57	13.56	-44.3	-47.0	16.8	0.00e+00	0	39	0	508559360	59	5159
2026-01-19 02:07:40.50	302.34	13.53	-44.3	-47.0	16.8	0.00e+00	0	39	0	510656512	59	5157
2026-01-19 02:07:41.36	302.17	13.51	-44.3	-47.1	16.8	0.00e+00	0	39	0	512753664	59	5188
2026-01-19 02:07:42.49	301.95	13.48	-44.4	-47.2	16.7	0.00e+00	0	39	0	514850816	59	5249
2026-01-19 02:07:43.35	301.79	13.45	-44.3	-47.2	16.7	0.00e+00	0	39	0	515899392	59	5225
2026-01-19 02:07:44.48	301.57	13.42	-44.3	-47.1	16.7	0.00e+00	0	39	0	517996544	59	5204
2026-01-19 02:07:45.33	301.40	13.40	-44.3	-47.2	16.7	0.00e+00	0	39	0	520093696	59	5225
2026-01-19 02:07:46.47	301.18	13.37	-44.2	-47.0	16.9	0.00e+00	0	39	0	522190848	59	5117
2026-01-19 02:07:47.32	301.02	13.34	-44.2	-46.9	16.9	0.00e+00	0	39	0	523239424	59	5098
2026-01-19 02:07:48.46	300.80	13.31	-44.2	-46.9	16.9	0.00e+00	0	39	0	525336576	59	5087
2026-01-19 02:07:49.32	300.64	13.28	-44.2	-46.9	16.9	0.00e+00	0	39	0	527433728	59	5077
2026-01-19 02:07:50.45	300.42	13.25	-44.1	-46.8	17.0	0.00e+00	0	39	0	529530880	59	5035
2026-01-19 02:07:51.30	300.26	13.23	-44.2	-46.9	17.0	0.00e+00	0	39	0	530579456	59	5084
2026-01-19 02:07:52.44	300.04	13.19	-44.1	-46.9	17.0	0.00e+00	0	39	0	532676608	59	5066
2026-01-19 02:07:53.30	299.88	13.17	-44.2	-47.0	16.9	0.00e+00	0	39	0	534773760	59	5101
2026-01-19 02:07:54.43	299.66	13.13	-44.2	-47.0	16.8	0.00e+00	0	39	0	536870912	59	5141
2026-01-19 02:07:55.29	299.50	13.11	-44.3	-47.1	16.7	0.00e+00	0	39	0	537919488	59	5218
2026-01-19 02:07:56.44	299.28	13.07	-44.5	-47.4	16.5	0.00e+00	0	39	0	541065216	59	5346
2026-01-19 02:07:57.29	299.12	13.04	-44.5	-47.4	16.4	0.00e+00	0	39	0	542113792	59	5400
2026-01-19 02:07:58.51	298.89	13.01	-44.5	-47.5	16.4	0.00e+00	0	39	0	544210944	59	5414
2026-01-19 02:07:59.36	298.73	12.98	-44.5	-47.4	16.4	0.00e+00	0	39	0	546308096	59	5394
2026-01-19 02:08:00.50	298.52	12.94	-44.5	-47.3	16.5	0.00e+00	0	39	0	548405248	59	5340
2026-01-19 02:08:01.35	298.36	12.92	-44.4	-47.3	16.6	0.00e+00	0	39	0	549453824	59	5301
2026-01-19 02:08:02.62	298.13	12.87	-44.4	-47.2	16.6	0.00e+00	0	39	0	552599552	59	5275
2026-01-19 02:08:03.39	297.98	12.85	-44.1	-46.8	17.0	0.00e+00	0	39	0	553648128	59	5034
2026-01-19 02:08:04.67	297.74	12.81	-43.9	-46.6	17.2	0.00e+00	0	39	0	555745280	59	4908
2026-01-19 02:08:05.38	297.61	12.78	-43.9	-46.6	17.3	0.00e+00	0	39	0	557842432	59	4878
2026-01-19 02:08:06.66	297.38	12.74	-43.7	-46.4	17.4	0.00e+00	0	39	0	559939584	59	4787
2026-01-19 02:08:07.37	297.25	12.72	-43.8	-46.4	17.4	0.00e+00	0	39	0	560988160	59	4809
2026-01-19 02:08:08.65	297.01	12.67	-43.9	-46.6	17.3	0.00e+00	0	39	0	563085312	59	4878
2026-01-19 02:08:09.36	296.88	12.65	-43.9	-46.6	17.3	0.00e+00	0	39	0	565182464	59	4890
2026-01-19 02:08:10.64	296.65	12.60	-44.1	-46.8	17.1	0.00e+00	0	39	0	567279616	59	5009
2026-01-19 02:08:11.37	296.51	12.58	-44.1	-46.8	17.1	0.00e+00	0	39	0	568328192	59	5005
2026-01-19 02:08:12.65	296.28	12.53	-44.1	-46.9	17.0	0.00e+00	0	39	0	571473920	59	5057
2026-01-19 02:08:13.36	296.15	12.51	-44.1	-46.8	17.0	0.00e+00	0	39	0	572522496	59	5021
2026-01-19 02:08:14.64	295.92	12.46	-44.0	-46.7	17.1	0.00e+00	0	39	0	574619648	59	4975
2026-01-19 02:08:15.38	295.78	12.44	-43.9	-46.6	17.3	0.00e+00	0	39	0	575668224	59	4898
2026-01-19 02:08:16.66	295.55	12.39	-44.0	-46.7	17.1	0.00e+00	0	39	0	578813952	59	4975
2026-01-19 02:08:17.65	295.38	12.36	-43.9	-46.6	17.2	0.00e+00	0	39	0	580911104	59	4902
2026-01-19 02:08:18.96	295.14	12.31	-43.8	-46.5	17.4	0.00e+00	0	39	0	583008256	59	4817
2026-01-19 02:08:19.67	295.01	12.28	-43.8	-46.4	17.4	0.00e+00	0	39	0	584056832	59	4803
2026-01-19 02:08:20.95	294.78	12.24	-43.8	-46.5	17.4	0.00e+00	0	39	0	586153984	59	4835
2026-01-19 02:08:21.71	294.65	12.21	-43.8	-46.5	17.4	0.00e+00	0	39	0	588251136	59	4823
2026-01-19 02:08:22.99	294.42	12.16	-43.9	-46.5	17.3	0.00e+00	0	39	0	590348288	59	4847
2026-01-19 02:08:23.70	294.30	12.13	-43.7	-46.3	17.5	0.00e+00	0	39	0	591396864	59	4742
2026-01-19 02:08:24.98	294.07	12.09	-43.8	-46.4	17.4	0.00e+00	0	39	0	594542592	59	4804
2026-01-19 02:08:25.70	293.94	12.06	-43.9	-46.5	17.4	0.00e+00	0	39	0	595591168	59	4845
2026-01-19 02:08:27.04	293.71	12.01	-43.9	-46.6	17.2	0.00e+00	0	39	0	597688320	59	4917
2026-01-19 02:08:27.76	293.58	11.98	-44.0	-46.7	17.2	0.00e+00	0	39	0	599785472	59	4935
2026-01-19 02:08:29.03	293.36	11.93	-43.9	-46.5	17.3	0.00e+00	0	39	0	601882624	59	4849
2026-01-19 02:08:29.76	293.23	11.90	-44.0	-46.6	17.2	0.00e+00	0	39	0	602931200	59	4915
2026-01-19 02:08:31.15	292.99	11.85	-43.8	-46.5	17.4	0.00e+00	0	39	0	606076928	59	4817
2026-01-19 02:08:31.86	292.87	11.82	-43.9	-46.6	17.2	0.00e+00	0	39	0	607125504	59	4899
2026-01-19 02:08:33.14	292.65	11.77	-43.9	-46.6	17.2	0.00e+00	0	39	0	609222656	59	4918
2026-01-19 02:08:33.85	292.52	11.74	-43.8	-46.5	17.4	0.00e+00	0	39	0	611319808	59	4824
2026-01-19 02:08:35.25	292.28	11.69	-43.7	-46.3	17.5	0.00e+00	0	39	0	613416960	59	4720
2026-01-19 02:08:35.96	292.16	11.66	-43.7	-46.3	17.5	0.00e+00	0	39	0	614465536	59	4737
2026-01-19 02:08:37.29	291.93	11.61	-43.7	-46.2	17.6	0.00e+00	0	39	0	617611264	59	4697
2026-01-19 02:08:38.00	291.81	11.58	-43.7	-46.2	17.6	0.00e+00	0	39	0	618659840	59	4694
2026-01-19 02:08:39.28	291.59	11.53	-43.9	-46.5	17.3	0.00e+00	0	39	0	620756992	59	4844
2026-01-19 02:08:40.03	291.47	11.50	-43.8	-46.5	17.3	0.00e+00	0	39	0	622854144	59	4840
2026-01-19 02:08:41.31	291.25	11.44	-43.9	-46.6	17.3	0.00e+00	0	39	0	624951296	59	4874
2026-01-19 02:08:42.02	291.13	11.41	-44.0	-46.7	17.1	0.00e+00	0	39	0	625999872	59	4976
2026-01-19 02:08:43.30	290.92	11.36	-44.2	-47.0	16.8	0.00e+00	0	39	0	628097024	59	5134
2026-01-19 02:08:44.02	290.80	11.33	-44.2	-47.0	16.8	0.00e+00	0	39	0	630194176	59	5140
2026-01-19 02:08:45.30	290.58	11.28	-44.4	-47.3	16.6	0.00e+00	0	39	0	632291328	59	5294
2026-01-19 02:08:46.01	290.46	11.25	-44.4	-47.3	16.6	0.00e+00	0	39	0	633339904	59	5296
2026-01-19 02:08:47.29	290.25	11.20	-44.4	-47.2	16.6	0.00e+00	0	39	0	636485632	59	5267
2026-01-19 02:08:48.00	290.13	11.17	-44.4	-47.3	16.4	0.00e+00	0	39	0	637534208	59	5306
2026-01-19 02:08:49.28	289.92	11.11	-44.5	-47.3	16.5	0.00e+00	0	39	0	639631360	59	5326
2026-01-19 02:08:50.00	289.80	11.08	-44.4	-47.3	16.6	0.00e+00	0	39	0	640679936	59	5282
2026-01-19 02:08:51.28	289.59	11.03	-44.4	-47.2	16.6	0.00e+00	0	39	0	643825664	59	5265
2026-01-19 02:08:52.13	289.45	10.99	-44.4	-47.3	16.6	0.00e+00	0	39	0	644874240	59	5298
2026-01-19 02:08:53.27	289.27	10.94	-44.4	-47.4	16.5	0.00e+00	0	39	0	646971392	59	5355
2026-01-19 02:08:54.12	289.13	10.91	-44.5	-47.4	16.4	0.00e+00	0	39	0	649068544	59	5368
2026-01-19 02:08:55.26	288.94	10.86	-44.7	-47.7	16.2	0.00e+00	0	39	0	651165696	60	5279
2026-01-19 02:08:56.11	288.81	10.82	-44.8	-47.8	16.0	0.00e+00	0	39	0	652214272	60	5336
2026-01-19 02:08:57.25	288.62	10.77	-44.8	-47.9	15.9	0.00e+00	0	39	0	654311424	60	5380
2026-01-19 02:08:58.10	288.48	10.73	-45.0	-48.1	15.8	0.00e+00	0	39	0	656408576	60	5497
2026-01-19 02:08:59.24	288.30	10.68	-45.1	-48.3	15.6	0.00e+00	0	39	0	658505728	60	5593
2026-01-19 02:09:00.09	288.17	10.65	-45.0	-48.1	15.7	0.00e+00	0	39	0	659554304	60	5514
2026-01-19 02:09:01.32	287.97	10.59	-45.2	-48.4	15.4	0.00e+00	0	39	0	662700032	61	5396
2026-01-19 02:09:02.17	287.83	10.56	-45.2	-48.4	15.5	0.00e+00	0	39	0	663748608	61	5365
2026-01-19 02:09:03.30	287.65	10.51	-45.2	-48.4	15.4	0.00e+00	0	39	0	665845760	61	5397
2026-01-19 02:09:04.15	287.52	10.47	-45.2	-48.4	15.4	0.00e+00	0	39	0	667942912	61	5392
2026-01-19 02:09:05.29	287.34	10.42	-45.2	-48.4	15.5	0.00e+00	0	39	0	670040064	61	5384
2026-01-19 02:09:06.14	287.21	10.38	-45.2	-48.5	15.3	0.00e+00	0	39	0	671088640	61	5453
2026-01-19 02:09:07.28	287.03	10.33	-45.2	-48.4	15.5	0.00e+00	0	39	0	673185792	61	5396
2026-01-19 02:09:08.13	286.90	10.29	-45.3	-48.6	15.3	0.00e+00	0	39	0	675282944	61	5487
2026-01-19 02:09:09.27	286.72	10.24	-45.3	-48.6	15.2	0.00e+00	0	39	0	677380096	61	5525
2026-01-19 02:09:10.12	286.59	10.20	-45.3	-48.7	15.2	7.00e-07	0	39	0	678428672	61	5547
2026-01-19 02:09:11.26	286.41	10.15	-45.5	-49.0	14.9	0.00e+00	0	39	0	680525824	61	5723
2026-01-19 02:09:12.11	286.28	10.11	-45.6	-49.1	14.8	0.00e+00	0	39	0	682622976	61	5821
2026-01-19 02:09:13.25	286.10	10.06	-45.6	-49.2	14.6	0.00e+00	0	39	0	684720128	61	5910
2026-01-19 02:09:14.11	285.97	10.02	-45.7	-49.3	14.6	7.00e-07	0	39	0	685768704	62	5634
2026-01-19 02:09:15.24	285.80	9.97	-45.6	-49.1	14.7	0.00e+00	0	39	0	688914432	62	5502
2026-01-19 02:09:16.10	285.67	9.93	-45.6	-49.1	14.8	0.00e+00	0	39	0	689963008	62	5506
2026-01-19 02:09:17.28	285.49	9.88	-45.6	-49.1	14.7	0.00e+00	0	39	0	692060160	62	5515
2026-01-19 02:09:18.13	285.36	9.84	-45.6	-49.2	14.7	0.00e+00	0	39	0	694157312	62	5541
2026-01-19 02:09:19.34	285.18	9.78	-45.7	-49.2	14.7	7.00e-07	0	39	0	696254464	62	5543
2026-01-19 02:09:20.19	285.05	9.74	-45.8	-49.3	14.6	0.00e+00	0	39	0	697303040	62	5643
2026-01-19 02:09:21.33	284.88	9.69	-45.9	-49.6	14.3	0.00e+00	0	39	0	699400192	62	5810
2026-01-19 02:09:22.18	284.75	9.65	-45.9	-49.5	14.3	2.20e-06	0	39	0	701497344	62	5762
2026-01-19 02:09:23.32	284.58	9.60	-45.9	-49.6	14.2	0.00e+00	0	39	0	703594496	62	5817
2026-01-19 02:09:24.17	284.46	9.56	-46.0	-49.7	14.1	7.00e-07	0	39	0	704643072	62	5897
2026-01-19 02:09:25.51	284.26	9.50	-45.9	-49.5	14.3	0.00e+00	0	39	0	707788800	62	5788
2026-01-19 02:09:26.22	284.15	9.46	-46.0	-49.7	14.2	1.50e-06	0	39	0	708837376	62	5862
2026-01-19 02:09:27.72	283.93	9.39	-46.0	-49.8	14.0	3.00e-06	0	39	0	711983104	62	5973
2026-01-19 02:09:28.43	283.83	9.36	-46.0	-49.8	14.0	3.00e-06	0	39	0	713031680	62	5974
2026-01-19 02:09:29.72	283.64	9.30	-46.0	-49.7	14.1	2.20e-06	0	39	0	715128832	62	5900
2026-01-19 02:09:30.44	283.54	9.26	-46.0	-49.8	14.0	6.10e-06	0	39	0	717225984	62	5969
2026-01-19 02:09:31.72	283.35	9.20	-46.0	-49.8	14.0	2.20e-06	0	39	0	719323136	62	5943
2026-01-19 02:09:32.43	283.25	9.17	-45.9	-49.6	14.2	2.20e-06	0	39	0	720371712	62	5847
2026-01-19 02:09:33.71	283.07	9.11	-46.1	-49.9	13.9	3.80e-06	0	39	0	723517440	62	6012
2026-01-19 02:09:34.42	282.96	9.08	-46.1	-50.0	13.8	3.80e-06	0	39	0	724566016	62	6110
2026-01-19 02:09:35.70	282.78	9.02	-46.0	-49.8	14.0	7.00e-07	0	39	0	726663168	62	5956
2026-01-19 02:09:36.42	282.68	8.98	-46.0	-49.8	14.0	0.00e+00	0	39	0	727711744	62	5958
2026-01-19 02:09:37.70	282.50	8.92	-49.7	-65.3	3.8	1.49e+00	0	39	104	728760320	70	22281
2026-01-19 02:09:38.41	282.40	8.89	-49.9	-65.4	3.8	1.49e+00	0	39	104	728760320	70	22586
2026-01-19 02:09:39.69	282.21	8.82	-50.2	-65.5	3.8	1.49e+00	0	39	104	728760320	71	21614
2026-01-19 02:09:40.41	282.11	8.79	-50.1	-65.5	3.8	1.49e+00	0	39	104	728760320	71	21731
2026-01-19 02:09:41.69	281.93	8.73	-50.2	-65.6	3.8	1.49e+00	0	39	104	728760320	71	21908
2026-01-19 02:09:42.40	281.83	8.69	-50.3	-65.6	3.8	1.49e+00	0	39	104	728760320	71	21861
2026-01-19 02:09:43.73	281.65	8.63	-50.4	-65.7	3.8	1.49e+00	0	39	104	728760320	71	22046
2026-01-19 02:09:44.44	281.55	8.60	-50.4	-65.7	3.8	1.49e+00	0	39	104	728760320	71	22095
2026-01-19 02:09:45.78	281.37	8.53	-50.4	-65.7	3.8	1.49e+00	0	39	104	728760320	71	22083
2026-01-19 02:09:46.49	281.27	8.50	-50.5	-65.7	3.8	1.49e+00	0	39	104	728760320	71	22121
2026-01-19 02:09:47.84	281.08	8.43	-50.5	-65.7	3.8	1.49e+00	0	39	104	728760320	71	22261
2026-01-19 02:09:48.55	280.98	8.40	-50.4	-65.7	3.8	1.49e+00	0	39	104	728760320	71	22173
2026-01-19 02:09:49.85	280.81	8.33	-50.4	-65.7	3.8	1.49e+00	0	39	104	728760320	71	22200
2026-01-19 02:09:50.55	280.71	8.30	-50.4	-65.7	3.8	1.49e+00	0	39	104	728760320	71	22226
2026-01-19 02:09:51.83	280.54	8.24	-50.4	-65.7	3.8	1.49e+00	0	39	104	728760320	71	22176
2026-01-19 02:09:52.54	280.44	8.20	-50.4	-65.7	3.8	1.49e+00	0	39	104	728760320	71	22227
2026-01-19 02:09:53.82	280.27	8.14	-50.4	-65.7	3.8	1.49e+00	0	39	104	728760320	71	22171
2026-01-19 02:09:54.53	280.18	8.11	-50.4	-65.7	3.8	1.49e+00	0	39	104	728760320	71	22142
2026-01-19 02:09:55.81	280.00	8.04	-50.3	-65.7	3.8	1.49e+00	0	39	104	728760320	71	22086
2026-01-19 02:09:56.52	279.91	8.01	-50.3	-65.7	3.8	1.49e+00	0	39	104	728760320	71	22076
2026-01-19 02:09:57.79	279.74	7.95	-50.1	-65.6	3.8	1.49e+00	0	39	104	728760320	71	21964
2026-01-19 02:09:58.50	279.65	7.91	-50.1	-65.6	3.8	1.49e+00	0	39	104	728760320	71	21966
2026-01-19 02:09:59.78	279.48	7.85	-50.1	-65.6	3.8	1.49e+00	0	39	104	728760320	71	21881
2026-01-19 02:10:00.49	279.38	7.82	-50.1	-65.6	3.8	1.49e+00	0	39	104	728760320	71	21908
2026-01-19 02:10:01.77	279.22	7.75	-50.1	-65.6	3.8	1.49e+00	0	39	104	728760320	71	21917
2026-01-19 02:10:02.48	279.12	7.72	-50.1	-65.6	3.8	1.49e+00	0	39	104	728760320	71	21871
2026-01-19 02:10:03.76	278.96	7.65	-50.1	-65.6	3.8	1.49e+00	0	39	104	728760320	71	21858
2026-01-19 02:10:04.47	278.87	7.62	-50.1	-65.6	3.8	1.49e+00	0	39	104	728760320	71	21957
2026-01-19 02:10:05.74	278.70	7.56	-50.1	-65.6	3.8	1.49e+00	0	39	104	728760320	71	21888
2026-01-19 02:10:06.45	278.61	7.52	-50.1	-65.6	3.8	1.49e+00	0	39	104	728760320	71	21838
2026-01-19 02:10:07.73	278.45	7.46	-50.1	-65.6	3.8	1.49e+00	0	39	104	728760320	71	21918
2026-01-19 02:10:08.44	278.36	7.42	-50.1	-65.6	3.8	1.49e+00	0	39	104	728760320	71	21930
2026-01-19 02:10:09.73	278.19	7.36	-50.1	-65.6	3.8	1.49e+00	0	39	104	728760320	71	21884
2026-01-19 02:10:10.44	278.10	7.32	-50.1	-65.6	3.8	1.49e+00	0	39	104	728760320	71	21860
2026-01-19 02:10:11.72	277.94	7.26	-50.1	-65.6	3.8	1.49e+00	0	39	104	728760320	71	21783
2026-01-19 02:10:12.43	277.85	7.23	-50.1	-65.5	3.8	1.49e+00	0	39	104	728760320	71	21726
2026-01-19 02:10:13.70	277.69	7.16	-50.1	-65.6	3.8	1.49e+00	0	39	104	728760320	71	21803
2026-01-19 02:10:14.43	277.60	7.13	-50.1	-65.6	3.8	1.49e+00	0	39	104	728760320	71	21787
2026-01-19 02:10:15.71	277.44	7.06	-50.1	-65.5	3.8	1.49e+00	0	39	104	728760320	71	21721
2026-01-19 02:10:16.42	277.35	7.03	-50.1	-65.6	3.8	1.49e+00	0	39	104	728760320	71	21819
2026-01-19 02:10:17.69	277.19	6.96	-50.1	-65.5	3.8	1.49e+00	0	39	104	728760320	71	21746
2026-01-19 02:10:18.40	277.10	6.93	-50.1	-65.5	3.8	1.49e+00	0	39	104	728760320	71	21720
2026-01-19 02:10:19.68	276.95	6.87	-50.1	-65.6	3.8	1.49e+00	0	39	104	728760320	71	21774
2026-01-19 02:10:20.39	276.86	6.83	-50.1	-65.6	3.8	1.49e+00	0	39	104	728760320	71	21789
2026-01-19 02:10:21.67	276.70	6.77	-50.1	-65.5	3.8	1.49e+00	0	39	104	728760320	71	21750
2026-01-19 02:10:22.39	276.62	6.73	-50.1	-65.6	3.8	1.49e+00	0	39	104	728760320	71	21789
2026-01-19 02:10:23.67	276.46	6.67	-50.1	-65.5	3.8	1.49e+00	0	39	104	728760320	71	21738
2026-01-19 02:10:24.38	276.37	6.63	-50.1	-65.6	3.8	1.49e+00	0	39	104	728760320	71	21871
2026-01-19 02:10:25.66	276.22	6.57	-50.1	-65.6	3.8	1.49e+00	0	39	104	728760320	71	21811
2026-01-19 02:10:26.37	276.13	6.53	-50.1	-65.6	3.8	1.49e+00	0	39	104	728760320	71	21813
2026-01-19 02:10:27.65	275.98	6.47	-50.1	-65.5	3.8	1.49e+00	0	39	104	728760320	71	21735
2026-01-19 02:10:28.37	275.89	6.43	-50.1	-65.6	3.8	1.49e+00	0	39	104	728760320	71	21799
2026-01-19 02:10:29.65	275.74	6.37	-50.1	-65.6	3.8	1.49e+00	0	39	104	728760320	71	21767
2026-01-19 02:10:30.36	275.66	6.33	-50.1	-65.6	3.8	1.49e+00	0	39	104	728760320	71	21790
2026-01-19 02:10:31.63	275.51	6.27	-50.1	-65.5	3.8	1.49e+00	0	39	104	728760320	71	21722
2026-01-19 02:10:32.34	275.42	6.23	-50.1	-65.6	3.8	1.49e+00	0	39	104	728760320	71	21900
2026-01-19 02:10:33.62	275.27	6.17	-50.1	-65.6	3.8	1.49e+00	0	39	104	728760320	71	21820
2026-01-19 02:10:34.34	275.19	6.13	-50.1	-65.5	3.8	1.49e+00	0	39	104	728760320	71	21744
2026-01-19 02:10:35.62	275.04	6.07	-50.1	-65.6	3.8	1.49e+00	0	39	104	728760320	71	21767
2026-01-19 02:10:36.33	274.96	6.03	-50.1	-65.6	3.8	1.49e+00	0	39	104	728760320	71	21783
2026-01-19 02:10:37.62	274.81	5.97	-50.1	-65.6	3.8	1.49e+00	0	39	104	728760320	71	21847
2026-01-19 02:10:38.33	274.73	5.93	-50.1	-65.6	3.8	1.49e+00	0	39	104	728760320	71	21807
2026-01-19 02:10:39.61	274.58	5.87	-50.1	-65.6	3.8	1.49e+00	0	39	104	728760320	71	21782
2026-01-19 02:10:40.32	274.50	5.83	-50.1	-65.5	3.8	1.49e+00	0	39	104	728760320	71	21740
2026-01-19 02:10:41.61	274.35	5.77	-50.1	-65.6	3.8	1.49e+00	0	39	104	728760320	71	21799
2026-01-19 02:10:42.32	274.27	5.73	-50.1	-65.6	3.8	1.49e+00	0	39	104	728760320	71	21800
2026-01-19 02:10:43.60	274.13	5.67	-50.1	-65.6	3.8	1.49e+00	0	39	104	728760320	71	21793
2026-01-19 02:10:44.31	274.05	5.63	-50.1	-65.6	3.8	1.49e+00	0	39	104	728760320	71	21769
2026-01-19 02:10:45.59	273.90	5.57	-50.1	-65.6	3.8	1.49e+00	0	39	104	728760320	71	21763
2026-01-19 02:10:46.31	273.82	5.53	-50.1	-65.5	3.8	1.49e+00	0	39	104	728760320	71	21712
2026-01-19 02:10:47.59	273.68	5.47	-50.1	-65.6	3.8	1.49e+00	0	39	104	728760320	71	21802
2026-01-19 02:10:48.30	273.60	5.43	-50.1	-65.5	3.8	1.49e+00	0	39	104	728760320	71	21708
2026-01-19 02:10:49.58	273.46	5.37	-50.1	-65.6	3.8	1.49e+00	0	39	104	728760320	71	21789
2026-01-19 02:10:50.29	273.38	5.33	-50.1	-65.6	3.8	1.49e+00	0	39	104	728760320	71	21764
2026-01-19 02:10:51.56	273.24	5.27	-50.1	-65.6	3.8	1.49e+00	0	39	104	728760320	71	21769
2026-01-19 02:10:52.27	273.16	5.23	-50.1	-65.5	3.8	1.49e+00	0	39	104	728760320	71	21732
2026-01-19 02:10:53.55	273.02	5.17	-50.1	-65.6	3.8	1.49e+00	0	39	104	728760320	71	21771
2026-01-19 02:10:54.26	272.94	5.13	-50.1	-65.6	3.8	1.49e+00	0	39	104	728760320	71	21811
2026-01-19 02:10:55.54	272.81	5.07	-50.1	-65.6	3.8	1.49e+00	0	39	104	728760320	71	21786
2026-01-19 02:10:56.25	272.73	5.03	-50.1	-65.6	3.8	1.49e+00	0	39	104	728760320	71	21763
2026-01-19 02:10:57.53	272.59	4.97	-50.1	-65.6	3.8	1.49e+00	0	39	104	728760320	71	21761

#Closed at: 2026-01-19 02:10:58
#Recorded file [728 MB]: D:/Data/31040_260119_050152.dat