passes_logs/2026/01/19/T1/T1__20260119_115419_NOAA_20_JPSS-1_rec.log

#Pass ID: 20260119_115419_NOAA 20 (JPSS-1)
#Satellite: NOAA 20 (JPSS-1)
#Configuration: NOAA 20
#almurnet v.1.7.20251203
#Start time: 2026-01-19 11:54:21

#Version: 2.0.20230620
#Station: T1
#Location: 37.570604 lon 55.790049 lat
#TLE: 1 43013U 17073A   26018.92475364  .00000071  00000+0  54435-4 0  9998
#TLE: 2 43013  98.7641 319.8227 0001354  33.6678 326.4584 14.19536868423299

#Time	Az	El	Level	Level2	SNR	BER	BlckErr	Temp	State	Recorded	gain1	gain2
2026-01-19 11:54:21.29	227.62	5.11	-49.9	-65.2	3.8	1.49e+00	0	39	0	0	71	20909
2026-01-19 11:54:22.28	227.73	5.16	-49.9	-65.2	3.8	1.49e+00	0	39	104	0	71	20901
2026-01-19 11:54:23.27	227.84	5.21	-49.9	-65.2	3.8	1.49e+00	0	39	104	0	71	20891
2026-01-19 11:54:24.26	227.95	5.26	-49.9	-65.2	3.8	1.49e+00	0	39	104	0	71	20879
2026-01-19 11:54:25.25	228.06	5.31	-49.9	-65.2	3.8	1.49e+00	0	39	104	0	71	20993
2026-01-19 11:54:26.25	228.17	5.36	-49.9	-65.2	3.8	1.49e+00	0	39	104	0	71	20874
2026-01-19 11:54:27.24	228.28	5.41	-49.9	-65.2	3.8	1.49e+00	0	39	104	0	71	20896
2026-01-19 11:54:28.23	228.39	5.46	-49.9	-65.2	3.8	1.49e+00	0	39	104	0	71	20902
2026-01-19 11:54:29.23	228.50	5.51	-49.9	-65.2	3.8	1.49e+00	0	39	104	0	71	20788
2026-01-19 11:54:30.22	228.61	5.56	-49.9	-65.2	3.8	1.49e+00	0	39	104	0	71	20880
2026-01-19 11:54:31.21	228.72	5.61	-49.9	-65.2	3.8	1.49e+00	0	39	104	0	71	20820
2026-01-19 11:54:32.20	228.84	5.66	-49.9	-65.2	3.8	1.49e+00	0	39	104	0	71	20925
2026-01-19 11:54:33.20	228.95	5.71	-49.9	-65.2	3.8	1.49e+00	0	39	104	0	71	20857
2026-01-19 11:54:34.19	229.06	5.76	-49.9	-65.2	3.8	1.49e+00	0	39	104	0	71	20820
2026-01-19 11:54:35.18	229.18	5.81	-49.9	-65.2	3.8	1.49e+00	0	39	104	0	71	20846
2026-01-19 11:54:36.18	229.29	5.86	-49.9	-65.2	3.8	1.49e+00	0	39	104	0	71	20855
2026-01-19 11:54:37.17	229.40	5.91	-49.9	-65.2	3.8	1.49e+00	0	39	104	0	71	20889
2026-01-19 11:54:38.16	229.52	5.96	-49.9	-65.1	3.8	1.49e+00	0	39	104	0	71	20743
2026-01-19 11:54:39.15	229.63	6.01	-49.9	-65.1	3.8	1.49e+00	0	39	104	0	71	20754
2026-01-19 11:54:40.15	229.75	6.06	-49.9	-65.2	3.8	1.49e+00	0	39	104	0	71	20840
2026-01-19 11:54:41.14	229.87	6.11	-49.9	-65.2	3.8	1.49e+00	0	39	104	0	71	20902
2026-01-19 11:54:42.13	229.98	6.16	-49.9	-65.1	3.8	1.49e+00	0	39	104	0	71	20759
2026-01-19 11:54:43.13	230.10	6.21	-49.9	-65.2	3.8	1.49e+00	0	40	104	0	71	20796
2026-01-19 11:54:44.12	230.22	6.26	-49.9	-65.1	3.8	1.49e+00	0	39	104	0	71	20735
2026-01-19 11:54:45.11	230.33	6.31	-49.9	-65.1	3.8	1.49e+00	0	40	104	0	71	20676
2026-01-19 11:54:46.11	230.45	6.36	-49.9	-65.2	3.8	1.49e+00	0	40	104	0	71	20796
2026-01-19 11:54:47.10	230.57	6.41	-49.9	-65.1	3.8	1.49e+00	0	40	104	0	71	20752
2026-01-19 11:54:48.09	230.69	6.46	-49.9	-65.2	3.8	1.49e+00	0	40	104	0	71	20793
2026-01-19 11:54:49.08	230.81	6.51	-49.9	-65.1	3.8	1.49e+00	0	39	104	0	71	20769
2026-01-19 11:54:50.08	230.93	6.56	-49.9	-65.2	3.8	1.49e+00	0	40	104	0	71	20848
2026-01-19 11:54:51.07	231.05	6.61	-49.9	-65.1	3.8	1.49e+00	0	40	104	0	71	20732
2026-01-19 11:54:52.06	231.17	6.66	-49.9	-65.1	3.8	1.49e+00	0	40	104	0	71	20709
2026-01-19 11:54:53.06	231.29	6.71	-49.9	-65.1	3.8	1.49e+00	0	40	104	0	71	20714
2026-01-19 11:54:54.05	231.41	6.76	-49.9	-65.1	3.8	1.49e+00	0	40	104	0	71	20695
2026-01-19 11:54:55.04	231.53	6.81	-49.9	-65.1	3.8	1.49e+00	0	40	104	0	71	20705
2026-01-19 11:54:56.03	231.65	6.86	-49.9	-65.1	3.8	1.49e+00	0	40	104	0	71	20679
2026-01-19 11:54:57.03	231.77	6.91	-49.9	-65.1	3.8	1.49e+00	0	40	104	0	71	20744
2026-01-19 11:54:58.02	231.90	6.96	-49.9	-65.1	3.8	1.49e+00	0	40	104	0	71	20747
2026-01-19 11:54:59.01	232.02	7.01	-49.9	-65.2	3.8	1.49e+00	0	40	104	0	71	20796
2026-01-19 11:55:00.01	232.14	7.06	-49.9	-65.1	3.8	1.49e+00	0	40	104	0	71	20704
2026-01-19 11:55:01.00	232.27	7.11	-49.9	-65.1	3.8	1.49e+00	0	40	104	0	71	20678
2026-01-19 11:55:01.99	232.39	7.15	-49.9	-65.0	3.8	1.49e+00	0	40	104	0	71	20359
2026-01-19 11:55:02.99	232.52	7.21	-49.9	-64.9	3.8	1.49e+00	0	40	104	0	71	20261
2026-01-19 11:55:03.98	232.64	7.25	-49.9	-65.0	3.8	1.49e+00	0	40	104	0	71	20346
2026-01-19 11:55:04.97	232.77	7.30	-49.9	-65.0	3.8	1.49e+00	0	40	104	0	71	20506
2026-01-19 11:55:05.96	232.89	7.35	-49.9	-65.1	3.8	1.49e+00	0	40	104	0	71	20614
2026-01-19 11:55:06.96	233.02	7.40	-49.9	-65.1	3.8	1.49e+00	0	40	104	0	71	20715
2026-01-19 11:55:07.95	233.15	7.45	-49.9	-65.2	3.8	1.49e+00	0	40	104	0	71	20849
2026-01-19 11:55:08.94	233.27	7.50	-49.9	-65.2	3.8	1.49e+00	0	40	104	0	71	20781
2026-01-19 11:55:09.94	233.40	7.55	-49.9	-65.1	3.8	1.49e+00	0	40	104	0	71	20727
2026-01-19 11:55:10.93	233.53	7.60	-49.9	-65.1	3.8	1.49e+00	0	40	104	0	71	20723
2026-01-19 11:55:11.92	233.66	7.65	-49.9	-65.1	3.8	1.49e+00	0	40	104	0	71	20621
2026-01-19 11:55:12.91	233.79	7.70	-49.9	-65.1	3.8	1.49e+00	0	40	104	0	71	20720
2026-01-19 11:55:13.91	233.92	7.75	-49.9	-65.2	3.8	1.49e+00	0	40	104	0	71	20796
2026-01-19 11:55:14.90	234.05	7.80	-49.9	-65.2	3.8	1.49e+00	0	40	104	0	71	20790
2026-01-19 11:55:15.89	234.18	7.85	-49.9	-65.1	3.8	1.49e+00	0	40	104	0	71	20717
2026-01-19 11:55:16.89	234.31	7.90	-49.9	-65.1	3.8	1.49e+00	0	40	104	0	71	20734
2026-01-19 11:55:17.88	234.44	7.95	-49.9	-65.1	3.8	1.49e+00	0	40	104	0	71	20654
2026-01-19 11:55:18.87	234.57	8.00	-49.9	-65.2	3.8	1.49e+00	0	40	104	0	71	20855
2026-01-19 11:55:19.87	234.70	8.05	-49.9	-65.2	3.8	1.49e+00	0	40	104	0	71	20802
2026-01-19 11:55:20.86	234.83	8.10	-49.9	-64.9	3.8	1.49e+00	0	40	104	0	71	20097
2026-01-19 11:55:21.85	234.97	8.15	-49.8	-64.2	3.8	1.49e+00	0	40	104	0	71	18582
2026-01-19 11:55:22.84	235.10	8.20	-49.8	-63.4	3.8	1.49e+00	0	40	104	0	71	17069
2026-01-19 11:55:23.84	235.23	8.25	-49.8	-63.2	3.9	1.49e+00	0	40	104	0	71	16599
2026-01-19 11:55:24.83	235.37	8.29	-49.8	-63.8	3.8	1.49e+00	0	40	104	0	71	17854
2026-01-19 11:55:25.82	235.50	8.34	-49.9	-65.0	3.8	1.49e+00	0	40	104	0	71	20391
2026-01-19 11:55:26.82	235.64	8.39	-49.8	-63.9	3.8	1.49e+00	0	40	104	0	71	17900
2026-01-19 11:55:27.81	235.77	8.44	-49.4	-59.5	5.0	1.13e+00	0	40	0	0	70	11486
2026-01-19 11:55:28.80	235.91	8.49	-48.7	-55.6	8.1	1.88e-01	0	41	0	2097152	69	7798
2026-01-19 11:55:29.79	236.04	8.54	-47.5	-52.6	11.1	1.45e-02	0	40	0	4194304	67	6202
2026-01-19 11:55:30.78	236.18	8.59	-46.6	-50.7	13.0	4.65e-04	0	40	0	5242880	65	5574
2026-01-19 11:55:31.78	236.32	8.64	-45.9	-49.5	14.4	2.20e-06	0	40	0	7340032	63	5443
2026-01-19 11:55:32.77	236.45	8.69	-45.4	-48.8	15.2	0.00e+00	0	40	0	9437184	62	5284
2026-01-19 11:55:33.76	236.59	8.73	-45.4	-48.7	15.2	0.00e+00	0	40	0	11534336	62	5243
2026-01-19 11:55:34.76	236.73	8.78	-45.8	-49.3	14.7	0.00e+00	0	40	0	13631488	62	5610
2026-01-19 11:55:35.75	236.87	8.83	-46.4	-50.3	13.6	6.10e-06	0	40	0	14680064	63	5977
2026-01-19 11:55:36.74	237.01	8.88	-47.1	-51.8	12.1	6.63e-05	0	40	0	16777216	64	6672
2026-01-19 11:55:37.73	237.15	8.93	-47.8	-53.5	10.3	1.04e-03	0	40	0	18874368	66	7205
2026-01-19 11:55:38.73	237.29	8.98	-48.6	-55.6	8.1	3.99e-02	0	40	0	20971520	67	8745
2026-01-19 11:55:39.72	237.43	9.03	-49.2	-57.8	6.2	1.74e-01	0	40	0	22020096	68	10632
2026-01-19 11:55:40.71	237.57	9.07	-49.2	-58.0	6.0	4.17e-01	0	40	0	24117248	69	10288
2026-01-19 11:55:41.71	237.71	9.12	-48.3	-54.5	9.2	3.33e-01	0	41	0	26214400	68	7278
2026-01-19 11:55:42.70	237.86	9.17	-49.5	-59.5	5.1	1.07e-01	0	41	0	28311552	69	12191
2026-01-19 11:55:43.69	238.00	9.22	-49.5	-60.4	4.6	1.08e+00	0	40	0	30408704	69	13444
2026-01-19 11:55:44.68	238.14	9.27	-47.0	-51.5	12.2	1.02e+00	0	40	0	31457280	66	5726
2026-01-19 11:55:45.68	238.28	9.32	-47.0	-51.5	12.4	3.50e-04	0	40	0	33554432	65	6062
2026-01-19 11:55:46.67	238.43	9.36	-47.1	-51.7	12.1	2.30e-04	0	40	0	35651584	65	6260
2026-01-19 11:55:47.66	238.57	9.41	-46.9	-51.3	12.5	3.29e-04	0	40	0	36700160	65	5980
2026-01-19 11:55:48.66	238.72	9.46	-46.3	-50.1	13.7	2.44e-05	0	40	0	38797312	64	5518
2026-01-19 11:55:49.65	238.86	9.51	-45.7	-49.2	14.8	7.00e-07	0	41	0	40894464	63	5250
2026-01-19 11:55:50.64	239.01	9.56	-45.4	-48.6	15.4	0.00e+00	0	41	0	42991616	62	5186
2026-01-19 11:55:51.63	239.15	9.60	-45.0	-48.1	15.9	0.00e+00	0	40	0	44040192	62	4913
2026-01-19 11:55:52.63	239.30	9.65	-44.6	-47.5	16.4	0.00e+00	0	41	0	46137344	61	4853
2026-01-19 11:55:53.62	239.45	9.70	-44.3	-47.0	16.9	0.00e+00	0	40	0	48234496	60	4863
2026-01-19 11:55:54.61	239.60	9.75	-44.1	-46.8	17.1	0.00e+00	0	40	0	50331648	60	4753
2026-01-19 11:55:55.60	239.74	9.79	-44.1	-46.8	17.2	0.00e+00	0	40	0	52428800	60	4729
2026-01-19 11:55:56.60	239.89	9.84	-43.8	-46.4	17.5	0.00e+00	0	40	0	53477376	59	4805
2026-01-19 11:55:57.59	240.04	9.89	-43.8	-46.4	17.5	0.00e+00	0	41	0	55574528	59	4787
2026-01-19 11:55:58.58	240.19	9.94	-43.8	-46.4	17.5	0.00e+00	0	41	0	57671680	59	4805
2026-01-19 11:55:59.58	240.34	9.98	-43.8	-46.4	17.5	0.00e+00	0	41	0	59768832	59	4795
2026-01-19 11:56:00.57	240.49	10.03	-43.7	-46.3	17.6	0.00e+00	0	41	0	60817408	59	4750
2026-01-19 11:56:01.56	240.64	10.08	-43.6	-46.1	17.7	0.00e+00	0	41	0	62914560	59	4650
2026-01-19 11:56:02.56	240.79	10.12	-43.6	-46.2	17.7	0.00e+00	0	41	0	65011712	59	4680
2026-01-19 11:56:03.55	240.95	10.17	-43.7	-46.3	17.6	0.00e+00	0	41	0	67108864	59	4717
2026-01-19 11:56:04.54	241.10	10.22	-43.7	-46.3	17.6	0.00e+00	0	41	0	69206016	59	4713
2026-01-19 11:56:05.53	241.25	10.26	-43.7	-46.2	17.7	0.00e+00	0	41	0	70254592	59	4692
2026-01-19 11:56:06.53	241.40	10.31	-43.7	-46.2	17.7	0.00e+00	0	41	0	72351744	59	4704
2026-01-19 11:56:07.52	241.56	10.36	-43.7	-46.3	17.6	0.00e+00	0	41	0	74448896	59	4737
2026-01-19 11:56:08.51	241.71	10.40	-43.8	-46.4	17.6	0.00e+00	0	41	0	76546048	59	4771
2026-01-19 11:56:09.50	241.86	10.45	-43.8	-46.5	17.5	0.00e+00	0	41	0	78643200	59	4821
2026-01-19 11:56:10.50	242.02	10.50	-43.9	-46.5	17.5	0.00e+00	0	41	0	79691776	59	4832
2026-01-19 11:56:11.49	242.18	10.54	-43.9	-46.5	17.4	0.00e+00	0	41	0	81788928	59	4860
2026-01-19 11:56:12.48	242.33	10.59	-43.9	-46.5	17.4	0.00e+00	0	41	0	83886080	59	4832
2026-01-19 11:56:13.48	242.49	10.63	-43.9	-46.6	17.4	0.00e+00	0	41	0	85983232	59	4886
2026-01-19 11:56:14.47	242.65	10.68	-43.8	-46.3	17.6	0.00e+00	0	41	0	87031808	59	4747
2026-01-19 11:56:15.46	242.80	10.72	-43.7	-46.3	17.7	0.00e+00	0	41	0	89128960	59	4737
2026-01-19 11:56:16.46	242.96	10.77	-43.8	-46.4	17.5	0.00e+00	0	41	0	91226112	59	4794
2026-01-19 11:56:17.45	243.12	10.82	-43.8	-46.4	17.5	0.00e+00	0	41	0	93323264	59	4808
2026-01-19 11:56:18.44	243.28	10.86	-43.8	-46.3	17.6	0.00e+00	0	41	0	95420416	59	4757
2026-01-19 11:56:19.43	243.44	10.91	-43.8	-46.3	17.6	0.00e+00	0	41	0	96468992	59	4753
2026-01-19 11:56:20.43	243.60	10.95	-43.8	-46.3	17.6	0.00e+00	0	41	0	98566144	59	4751
2026-01-19 11:56:21.42	243.76	11.00	-43.9	-46.4	17.5	0.00e+00	0	41	0	100663296	59	4813
2026-01-19 11:56:22.41	243.92	11.04	-43.9	-46.5	17.5	0.00e+00	0	41	0	102760448	59	4839
2026-01-19 11:56:23.41	244.08	11.09	-43.8	-46.4	17.5	0.00e+00	0	41	0	103809024	59	4806
2026-01-19 11:56:24.40	244.24	11.13	-43.9	-46.5	17.5	0.00e+00	0	41	0	105906176	59	4822
2026-01-19 11:56:25.39	244.40	11.17	-43.9	-46.5	17.5	0.00e+00	0	41	0	108003328	59	4830
2026-01-19 11:56:26.38	244.57	11.22	-43.7	-46.3	17.7	0.00e+00	0	41	0	110100480	59	4724
2026-01-19 11:56:27.38	244.73	11.26	-43.8	-46.4	17.6	0.00e+00	0	41	0	111149056	59	4781
2026-01-19 11:56:28.37	244.89	11.31	-43.7	-46.2	17.8	0.00e+00	0	41	0	113246208	59	4685
2026-01-19 11:56:29.36	245.06	11.35	-43.7	-46.2	17.8	0.00e+00	0	41	0	115343360	59	4671
2026-01-19 11:56:30.36	245.22	11.39	-43.7	-46.3	17.7	0.00e+00	0	40	0	117440512	59	4739
2026-01-19 11:56:31.35	245.39	11.44	-43.8	-46.4	17.6	0.00e+00	0	41	0	119537664	59	4785
2026-01-19 11:56:32.34	245.55	11.48	-43.9	-46.5	17.5	0.00e+00	0	41	0	120586240	59	4861
2026-01-19 11:56:33.33	245.72	11.52	-44.0	-46.6	17.4	0.00e+00	0	41	0	122683392	59	4903
2026-01-19 11:56:34.33	245.89	11.57	-43.9	-46.5	17.5	0.00e+00	0	41	0	124780544	59	4854
2026-01-19 11:56:35.32	246.05	11.61	-44.0	-46.6	17.4	0.00e+00	0	41	0	126877696	59	4894
2026-01-19 11:56:36.31	246.22	11.65	-44.0	-46.6	17.4	0.00e+00	0	41	0	127926272	59	4908
2026-01-19 11:56:37.31	246.39	11.70	-43.9	-46.5	17.5	0.00e+00	0	41	0	130023424	59	4853
2026-01-19 11:56:38.30	246.56	11.74	-43.9	-46.5	17.5	0.00e+00	0	41	0	132120576	59	4855
2026-01-19 11:56:39.29	246.72	11.78	-43.8	-46.4	17.6	0.00e+00	0	41	0	134217728	59	4798
2026-01-19 11:56:40.28	246.89	11.82	-43.9	-46.5	17.5	0.00e+00	0	41	0	135266304	59	4859
2026-01-19 11:56:41.28	247.06	11.87	-43.9	-46.5	17.5	0.00e+00	0	41	0	137363456	59	4837
2026-01-19 11:56:42.27	247.23	11.91	-44.1	-46.7	17.3	0.00e+00	0	41	0	139460608	59	4967
2026-01-19 11:56:43.26	247.40	11.95	-44.2	-46.9	17.2	0.00e+00	0	41	0	141557760	59	5052
2026-01-19 11:56:44.25	247.58	11.99	-44.2	-46.8	17.2	0.00e+00	0	41	0	143654912	59	5040
2026-01-19 11:56:45.25	247.75	12.03	-44.1	-46.8	17.2	0.00e+00	0	41	0	144703488	59	5022
2026-01-19 11:56:46.24	247.92	12.08	-44.2	-47.0	17.1	0.00e+00	0	41	0	146800640	59	5106
2026-01-19 11:56:47.23	248.09	12.12	-44.3	-47.0	17.0	0.00e+00	0	41	0	148897792	59	5121
2026-01-19 11:56:48.23	248.27	12.16	-44.4	-47.1	16.9	0.00e+00	0	41	0	150994944	59	5214
2026-01-19 11:56:49.22	248.44	12.20	-44.3	-47.1	17.0	0.00e+00	0	41	0	152043520	59	5182
2026-01-19 11:56:50.21	248.61	12.24	-44.3	-47.0	17.0	0.00e+00	0	41	0	154140672	59	5145
2026-01-19 11:56:51.20	248.79	12.28	-44.3	-47.0	17.1	0.00e+00	0	41	0	156237824	59	5121
2026-01-19 11:56:52.20	248.96	12.32	-44.3	-47.1	16.9	0.00e+00	0	41	0	158334976	59	5194
2026-01-19 11:56:53.19	249.14	12.36	-44.4	-47.1	16.9	0.00e+00	0	41	0	160432128	59	5194
2026-01-19 11:56:54.18	249.31	12.40	-44.5	-47.3	16.8	0.00e+00	0	41	0	161480704	59	5303
2026-01-19 11:56:55.18	249.49	12.44	-44.6	-47.4	16.7	0.00e+00	0	41	0	163577856	59	5391
2026-01-19 11:56:56.17	249.67	12.48	-44.6	-47.5	16.5	0.00e+00	0	41	0	165675008	59	5441
2026-01-19 11:56:57.16	249.84	12.52	-44.7	-47.6	16.6	0.00e+00	0	41	0	167772160	60	5182
2026-01-19 11:56:58.15	250.02	12.56	-44.8	-47.7	16.4	0.00e+00	0	41	0	168820736	60	5250
2026-01-19 11:56:59.15	250.20	12.60	-44.8	-47.8	16.4	0.00e+00	0	41	0	170917888	60	5295
2026-01-19 11:57:00.14	250.38	12.64	-44.8	-47.8	16.3	0.00e+00	0	41	0	173015040	60	5316
2026-01-19 11:57:01.13	250.56	12.68	-44.9	-48.0	16.2	0.00e+00	0	41	0	175112192	60	5404
2026-01-19 11:57:02.13	250.74	12.72	-44.8	-47.8	16.4	0.00e+00	0	41	0	177209344	60	5286
2026-01-19 11:57:03.12	250.92	12.75	-44.8	-47.8	16.3	0.00e+00	0	41	0	178257920	60	5302
2026-01-19 11:57:04.11	251.10	12.79	-44.8	-47.8	16.4	0.00e+00	0	41	0	180355072	60	5291
2026-01-19 11:57:05.11	251.28	12.83	-44.8	-47.7	16.4	0.00e+00	0	41	0	182452224	60	5268
2026-01-19 11:57:06.10	251.46	12.87	-44.8	-47.8	16.3	0.00e+00	0	41	0	184549376	60	5295
2026-01-19 11:57:07.09	251.64	12.91	-45.0	-48.0	16.2	0.00e+00	0	41	0	185597952	60	5422
2026-01-19 11:57:08.08	251.82	12.94	-45.0	-48.1	16.1	0.00e+00	0	41	0	187695104	60	5474
2026-01-19 11:57:09.08	252.01	12.98	-45.0	-48.1	16.0	0.00e+00	0	41	0	189792256	60	5500
2026-01-19 11:57:10.07	252.19	13.02	-45.0	-48.1	16.0	0.00e+00	0	41	0	191889408	60	5520
2026-01-19 11:57:11.06	252.37	13.05	-45.1	-48.1	16.0	0.00e+00	0	41	0	193986560	60	5524
2026-01-19 11:57:12.06	252.56	13.09	-45.1	-48.2	16.0	0.00e+00	0	41	0	195035136	60	5546
2026-01-19 11:57:13.05	252.74	13.13	-45.2	-48.3	15.9	0.00e+00	0	41	0	197132288	60	5611
2026-01-19 11:57:14.04	252.93	13.16	-45.2	-48.4	15.8	0.00e+00	0	41	0	199229440	61	5360
2026-01-19 11:57:15.03	253.11	13.20	-45.3	-48.4	15.7	0.00e+00	0	41	0	201326592	61	5390
2026-01-19 11:57:16.03	253.30	13.23	-45.2	-48.2	15.9	0.00e+00	0	41	0	202375168	61	5277
2026-01-19 11:57:17.02	253.49	13.27	-45.1	-48.1	16.0	0.00e+00	0	41	0	204472320	61	5205
2026-01-19 11:57:18.01	253.67	13.30	-45.0	-48.0	16.1	0.00e+00	0	41	0	206569472	61	5151
2026-01-19 11:57:19.01	253.86	13.34	-45.0	-48.1	16.1	0.00e+00	0	41	0	208666624	61	5170
2026-01-19 11:57:20.00	254.05	13.37	-45.0	-48.0	16.1	0.00e+00	0	41	0	210763776	61	5157
2026-01-19 11:57:20.99	254.23	13.41	-45.0	-48.1	16.1	0.00e+00	0	41	0	211812352	61	5192
2026-01-19 11:57:21.98	254.42	13.44	-45.1	-48.3	15.9	0.00e+00	0	41	0	213909504	61	5282
2026-01-19 11:57:22.98	254.61	13.48	-45.2	-48.4	15.8	0.00e+00	0	41	0	216006656	61	5361
2026-01-19 11:57:23.97	254.80	13.51	-45.2	-48.5	15.7	0.00e+00	0	41	0	218103808	61	5418
2026-01-19 11:57:24.96	254.99	13.54	-45.4	-48.6	15.6	0.00e+00	0	41	0	219152384	61	5510
2026-01-19 11:57:25.96	255.18	13.58	-45.4	-48.7	15.4	0.00e+00	0	41	0	221249536	61	5586
2026-01-19 11:57:26.95	255.37	13.61	-45.4	-48.7	15.4	0.00e+00	0	41	0	223346688	61	5590
2026-01-19 11:57:27.94	255.56	13.64	-45.5	-48.8	15.4	0.00e+00	0	41	0	225443840	61	5602
2026-01-19 11:57:28.93	255.75	13.68	-45.4	-48.7	15.4	0.00e+00	0	41	0	226492416	61	5559
2026-01-19 11:57:29.93	255.95	13.71	-45.4	-48.7	15.5	0.00e+00	0	41	0	228589568	61	5545
2026-01-19 11:57:30.92	256.14	13.74	-45.3	-48.4	15.7	0.00e+00	0	41	0	230686720	61	5401
2026-01-19 11:57:31.91	256.33	13.77	-45.2	-48.4	15.7	0.00e+00	0	41	0	232783872	61	5386
2026-01-19 11:57:32.91	256.52	13.80	-45.2	-48.4	15.7	0.00e+00	0	41	0	234881024	61	5381
2026-01-19 11:57:33.90	256.72	13.84	-45.0	-48.1	16.1	0.00e+00	0	41	0	235929600	61	5187
2026-01-19 11:57:34.89	256.91	13.87	-45.0	-48.1	16.1	0.00e+00	0	41	0	238026752	61	5191
2026-01-19 11:57:35.88	257.10	13.90	-45.1	-48.2	16.0	0.00e+00	0	41	0	240123904	61	5250
2026-01-19 11:57:36.88	257.30	13.93	-45.1	-48.2	16.0	0.00e+00	0	41	0	242221056	61	5257
2026-01-19 11:57:37.87	257.49	13.96	-45.1	-48.2	15.9	0.00e+00	0	41	0	243269632	61	5264
2026-01-19 11:57:38.86	257.69	13.99	-45.1	-48.2	16.0	0.00e+00	0	41	0	245366784	61	5221
2026-01-19 11:57:39.86	257.88	14.02	-45.0	-48.1	16.1	0.00e+00	0	41	0	247463936	61	5190
2026-01-19 11:57:40.85	258.08	14.05	-45.1	-48.2	16.0	0.00e+00	0	41	0	249561088	61	5234
2026-01-19 11:57:41.84	258.28	14.08	-45.0	-48.1	16.1	0.00e+00	0	41	0	251658240	61	5174
2026-01-19 11:57:42.84	258.47	14.11	-45.1	-48.2	16.0	0.00e+00	0	41	0	252706816	61	5222
2026-01-19 11:57:43.83	258.67	14.13	-45.1	-48.2	16.0	0.00e+00	0	41	0	254803968	61	5249
2026-01-19 11:57:44.82	258.87	14.16	-45.0	-48.2	16.0	0.00e+00	0	41	0	256901120	61	5236
2026-01-19 11:57:45.81	259.06	14.19	-45.0	-48.1	16.1	0.00e+00	0	41	0	258998272	61	5176
2026-01-19 11:57:46.81	259.26	14.22	-44.8	-47.8	16.3	0.00e+00	0	41	0	260046848	61	5036
2026-01-19 11:57:47.80	259.46	14.25	-44.7	-47.8	16.4	0.00e+00	0	41	0	262144000	61	4984
2026-01-19 11:57:48.79	259.66	14.27	-44.4	-47.2	17.0	0.00e+00	0	41	0	264241152	60	4953
2026-01-19 11:57:49.78	259.86	14.30	-44.3	-47.1	17.1	0.00e+00	0	41	0	266338304	60	4878
2026-01-19 11:57:50.78	260.06	14.33	-44.0	-46.6	17.5	0.00e+00	0	41	0	268435456	59	4923
2026-01-19 11:57:51.77	260.26	14.35	-43.9	-46.6	17.5	0.00e+00	0	41	0	269484032	59	4909
2026-01-19 11:57:52.76	260.46	14.38	-44.1	-46.8	17.3	0.00e+00	0	41	0	271581184	59	5001
2026-01-19 11:57:53.76	260.66	14.41	-44.0	-46.6	17.5	0.00e+00	0	41	0	273678336	59	4917
2026-01-19 11:57:54.75	260.86	14.43	-44.0	-46.6	17.5	0.00e+00	0	41	0	275775488	59	4923
2026-01-19 11:57:55.74	261.06	14.46	-44.0	-46.7	17.4	0.00e+00	0	41	0	276824064	59	4964
2026-01-19 11:57:56.73	261.26	14.48	-44.1	-46.7	17.4	0.00e+00	0	41	0	278921216	59	4965
2026-01-19 11:57:57.73	261.47	14.51	-44.0	-46.7	17.4	0.00e+00	0	41	0	281018368	59	4945
2026-01-19 11:57:58.72	261.67	14.53	-44.1	-46.8	17.4	0.00e+00	0	41	0	283115520	59	4986
2026-01-19 11:57:59.71	261.87	14.55	-44.1	-46.8	17.3	0.00e+00	0	41	0	285212672	59	5035
2026-01-19 11:58:00.70	262.07	14.58	-44.0	-46.7	17.4	0.00e+00	0	41	0	286261248	59	4951
2026-01-19 11:58:01.70	262.28	14.60	-44.0	-46.6	17.5	0.00e+00	0	41	0	288358400	59	4888
2026-01-19 11:58:02.69	262.48	14.62	-43.9	-46.5	17.6	0.00e+00	0	41	0	290455552	59	4853
2026-01-19 11:58:03.68	262.68	14.65	-43.9	-46.5	17.6	0.00e+00	0	41	0	292552704	59	4842
2026-01-19 11:58:04.68	262.89	14.67	-43.8	-46.5	17.6	0.00e+00	0	41	0	293601280	59	4825
2026-01-19 11:58:05.67	263.09	14.69	-43.8	-46.4	17.7	0.00e+00	0	41	0	295698432	59	4784
2026-01-19 11:58:06.66	263.30	14.71	-43.8	-46.4	17.7	0.00e+00	0	41	0	297795584	59	4795
2026-01-19 11:58:07.66	263.50	14.73	-43.9	-46.6	17.5	0.00e+00	0	41	0	299892736	59	4882
2026-01-19 11:58:08.65	263.71	14.75	-44.1	-46.8	17.3	0.00e+00	0	41	0	301989888	59	5024
2026-01-19 11:58:09.64	263.91	14.77	-44.1	-46.8	17.3	0.00e+00	0	41	0	303038464	59	5033
2026-01-19 11:58:10.63	264.12	14.80	-44.1	-46.9	17.3	0.00e+00	0	41	0	305135616	59	5051
2026-01-19 11:58:11.63	264.32	14.82	-44.4	-47.2	17.0	0.00e+00	0	41	0	307232768	59	5226
2026-01-19 11:58:12.62	264.53	14.84	-44.4	-47.1	17.0	0.00e+00	0	41	0	309329920	59	5200
2026-01-19 11:58:13.61	264.74	14.85	-44.4	-47.2	16.9	0.00e+00	0	41	0	310378496	59	5261
2026-01-19 11:58:14.61	264.94	14.87	-44.5	-47.3	16.8	0.00e+00	0	41	0	312475648	59	5308
2026-01-19 11:58:15.60	265.15	14.89	-44.5	-47.4	16.8	0.00e+00	0	41	0	314572800	59	5341
2026-01-19 11:58:16.59	265.36	14.91	-49.9	-65.2	3.8	1.46e+00	0	41	104	315621376	71	20942
2026-01-19 11:58:17.58	265.56	14.93	-47.1	-63.3	3.8	1.49e+00	0	41	104	315621376	65	23769
2026-01-19 11:58:18.58	265.77	14.95	-46.9	-63.2	3.8	1.49e+00	0	41	104	315621376	65	23404
2026-01-19 11:58:19.57	265.98	14.96	-46.9	-63.2	3.8	1.49e+00	0	41	104	315621376	65	23329
2026-01-19 11:58:20.56	266.19	14.98	-46.9	-63.2	3.8	1.49e+00	0	41	104	315621376	65	23343
2026-01-19 11:58:21.56	266.40	15.00	-46.9	-63.1	3.8	1.49e+00	0	41	104	315621376	65	23209
2026-01-19 11:58:22.55	266.61	15.01	-46.9	-63.1	3.8	1.49e+00	0	41	104	315621376	65	23220
2026-01-19 11:58:23.54	266.81	15.03	-46.9	-63.1	3.8	1.49e+00	0	41	104	315621376	65	23258
2026-01-19 11:58:24.54	267.03	15.05	-46.9	-63.1	3.8	1.49e+00	0	41	104	315621376	65	23310
2026-01-19 11:58:25.53	267.23	15.06	-46.9	-63.2	3.8	1.49e+00	0	41	104	315621376	65	23346
2026-01-19 11:58:26.52	267.44	15.08	-46.9	-63.1	3.8	1.49e+00	0	41	104	315621376	65	23265
2026-01-19 11:58:27.51	267.65	15.09	-46.9	-63.1	3.8	1.49e+00	0	41	104	315621376	65	23267
2026-01-19 11:58:28.51	267.86	15.11	-46.9	-63.2	3.8	1.49e+00	0	41	104	315621376	65	23332
2026-01-19 11:58:29.50	268.07	15.12	-46.9	-63.2	3.8	1.49e+00	0	41	104	315621376	65	23351
2026-01-19 11:58:30.49	268.28	15.13	-46.9	-63.1	3.8	1.49e+00	0	41	104	315621376	65	23262
2026-01-19 11:58:31.48	268.49	15.15	-46.9	-63.1	3.8	1.49e+00	0	41	104	315621376	65	23197
2026-01-19 11:58:32.48	268.70	15.16	-46.9	-63.2	3.8	1.49e+00	0	41	104	315621376	65	23346
2026-01-19 11:58:33.47	268.91	15.17	-46.9	-63.1	3.8	1.49e+00	0	41	104	315621376	65	23302
2026-01-19 11:58:34.46	269.12	15.18	-46.9	-63.2	3.8	1.49e+00	0	41	104	315621376	65	23347
2026-01-19 11:58:35.46	269.34	15.20	-46.9	-63.2	3.8	1.49e+00	0	41	104	315621376	65	23319
2026-01-19 11:58:36.45	269.55	15.21	-46.9	-63.2	3.8	1.49e+00	0	41	104	315621376	65	23382
2026-01-19 11:58:37.44	269.76	15.22	-46.9	-63.2	3.8	1.49e+00	0	41	104	315621376	65	23345
2026-01-19 11:58:38.43	269.97	15.23	-46.9	-63.1	3.8	1.49e+00	0	41	104	315621376	65	23297
2026-01-19 11:58:39.43	270.18	15.24	-46.9	-63.2	3.8	1.49e+00	0	41	104	315621376	65	23346
2026-01-19 11:58:40.42	270.39	15.25	-46.9	-63.2	3.8	1.49e+00	0	41	104	315621376	65	23326
2026-01-19 11:58:41.41	270.61	15.26	-46.9	-63.2	3.8	1.49e+00	0	41	104	315621376	65	23396
2026-01-19 11:58:42.41	270.82	15.27	-46.9	-63.2	3.8	1.49e+00	0	41	104	315621376	65	23372
2026-01-19 11:58:43.40	271.03	15.28	-46.9	-63.1	3.8	1.49e+00	0	41	104	315621376	65	23306
2026-01-19 11:58:44.39	271.24	15.29	-46.9	-63.2	3.8	1.49e+00	0	41	104	315621376	65	23322
2026-01-19 11:58:45.38	271.45	15.29	-46.8	-63.1	3.8	1.49e+00	0	41	104	315621376	65	23243
2026-01-19 11:58:46.38	271.67	15.30	-46.9	-63.1	3.8	1.49e+00	0	41	104	315621376	65	23214
2026-01-19 11:58:47.37	271.88	15.31	-46.9	-63.2	3.8	1.49e+00	0	41	104	315621376	65	23417
2026-01-19 11:58:48.36	272.09	15.32	-46.9	-63.2	3.8	1.49e+00	0	41	104	315621376	65	23339
2026-01-19 11:58:49.36	272.31	15.32	-46.9	-63.2	3.8	1.49e+00	0	41	104	315621376	65	23374
2026-01-19 11:58:50.35	272.52	15.33	-46.9	-63.1	3.8	1.49e+00	0	41	104	315621376	65	23278
2026-01-19 11:58:51.34	272.73	15.34	-46.9	-63.1	3.8	1.49e+00	0	41	104	315621376	65	23307
2026-01-19 11:58:52.34	272.95	15.34	-46.9	-63.1	3.8	1.49e+00	0	41	104	315621376	65	23308
2026-01-19 11:58:53.33	273.16	15.35	-46.9	-63.2	3.8	1.49e+00	0	41	104	315621376	65	23350
2026-01-19 11:58:54.32	273.37	15.35	-46.9	-63.2	3.8	1.49e+00	0	41	104	315621376	65	23345
2026-01-19 11:58:55.32	273.59	15.36	-46.9	-63.2	3.8	1.49e+00	0	41	104	315621376	65	23333
2026-01-19 11:58:56.31	273.80	15.36	-46.9	-63.2	3.8	1.49e+00	0	41	104	315621376	65	23350
2026-01-19 11:58:57.30	274.01	15.36	-46.9	-63.2	3.8	1.49e+00	0	41	104	315621376	65	23410
2026-01-19 11:58:58.29	274.23	15.37	-46.9	-63.2	3.8	1.49e+00	0	41	104	315621376	65	23345
2026-01-19 11:58:59.29	274.44	15.37	-46.9	-63.2	3.8	1.49e+00	0	41	104	315621376	65	23326
2026-01-19 11:59:00.28	274.65	15.37	-46.9	-63.2	3.8	1.49e+00	0	41	104	315621376	65	23314
2026-01-19 11:59:01.27	274.87	15.37	-46.9	-63.2	3.8	1.49e+00	0	41	104	315621376	65	23332
2026-01-19 11:59:02.27	275.08	15.38	-46.9	-63.2	3.8	1.49e+00	0	41	104	315621376	65	23332
2026-01-19 11:59:03.26	275.29	15.38	-46.9	-63.1	3.8	1.49e+00	0	41	104	315621376	65	23292
2026-01-19 11:59:04.25	275.51	15.38	-46.9	-63.2	3.8	1.49e+00	0	41	104	315621376	65	23332
2026-01-19 11:59:05.25	275.72	15.38	-46.9	-63.2	3.8	1.49e+00	0	41	104	315621376	65	23376
2026-01-19 11:59:06.24	275.94	15.38	-46.9	-63.2	3.8	1.49e+00	0	41	104	315621376	65	23382
2026-01-19 11:59:07.23	276.15	15.38	-46.9	-63.2	3.8	1.49e+00	0	41	104	315621376	65	23376
2026-01-19 11:59:08.22	276.36	15.38	-46.9	-63.2	3.8	1.49e+00	0	41	104	315621376	65	23342
2026-01-19 11:59:09.22	276.58	15.38	-46.9	-63.2	3.8	1.49e+00	0	41	104	315621376	65	23422
2026-01-19 11:59:10.21	276.79	15.38	-46.9	-63.1	3.8	1.49e+00	0	41	104	315621376	65	23277
2026-01-19 11:59:11.20	277.00	15.38	-46.9	-63.1	3.8	1.49e+00	0	41	104	315621376	65	23267
2026-01-19 11:59:12.20	277.22	15.37	-46.9	-63.1	3.8	1.49e+00	0	41	104	315621376	65	23276
2026-01-19 11:59:13.19	277.43	15.37	-46.9	-63.2	3.8	1.49e+00	0	41	104	315621376	65	23319
2026-01-19 11:59:14.18	277.64	15.37	-46.9	-63.1	3.8	1.49e+00	0	41	104	315621376	65	23282
2026-01-19 11:59:15.17	277.86	15.37	-46.9	-63.2	3.8	1.49e+00	0	41	104	315621376	65	23407
2026-01-19 11:59:16.17	278.07	15.36	-46.9	-63.1	3.8	1.49e+00	0	41	104	315621376	65	23306
2026-01-19 11:59:17.16	278.28	15.36	-46.9	-63.1	3.8	1.49e+00	0	41	104	315621376	65	23281
2026-01-19 11:59:18.15	278.50	15.36	-46.9	-63.2	3.8	1.49e+00	0	41	104	315621376	65	23373
2026-01-19 11:59:19.15	278.71	15.35	-46.9	-63.2	3.8	1.49e+00	0	41	104	315621376	65	23371
2026-01-19 11:59:20.14	278.92	15.35	-46.9	-63.1	3.8	1.49e+00	0	41	104	315621376	65	23275
2026-01-19 11:59:21.13	279.14	15.34	-46.9	-63.2	3.8	1.49e+00	0	41	104	315621376	65	23344
2026-01-19 11:59:22.13	279.35	15.34	-46.9	-63.2	3.8	1.49e+00	0	41	104	315621376	65	23316
2026-01-19 11:59:23.12	279.56	15.33	-46.9	-63.2	3.8	1.49e+00	0	41	104	315621376	65	23379
2026-01-19 11:59:24.11	279.77	15.32	-46.9	-63.2	3.8	1.49e+00	0	41	104	315621376	65	23483
2026-01-19 11:59:25.11	279.99	15.32	-46.9	-63.2	3.8	1.49e+00	0	41	104	315621376	65	23356
2026-01-19 11:59:26.10	280.20	15.31	-46.9	-63.1	3.8	1.49e+00	0	41	104	315621376	65	23294
2026-01-19 11:59:27.09	280.41	15.30	-46.9	-63.1	3.8	1.49e+00	0	41	104	315621376	65	23301
2026-01-19 11:59:28.09	280.63	15.29	-46.9	-63.2	3.8	1.49e+00	0	41	104	315621376	65	23319
2026-01-19 11:59:29.08	280.84	15.29	-46.9	-63.1	3.8	1.49e+00	0	41	104	315621376	65	23310
2026-01-19 11:59:30.07	281.05	15.28	-46.9	-63.2	3.8	1.49e+00	0	41	104	315621376	65	23443
2026-01-19 11:59:31.06	281.26	15.27	-46.9	-63.2	3.8	1.49e+00	0	41	104	315621376	65	23394
2026-01-19 11:59:32.06	281.47	15.26	-46.9	-63.2	3.8	1.49e+00	0	41	104	315621376	65	23377
2026-01-19 11:59:33.05	281.69	15.25	-46.9	-63.2	3.8	1.49e+00	0	41	104	315621376	65	23328
2026-01-19 11:59:34.04	281.90	15.24	-46.9	-63.2	3.8	1.49e+00	0	41	104	315621376	65	23336
2026-01-19 11:59:35.04	282.11	15.23	-46.9	-63.2	3.8	1.49e+00	0	41	104	315621376	65	23333
2026-01-19 11:59:36.03	282.32	15.22	-46.9	-63.2	3.8	1.49e+00	0	40	104	315621376	65	23313
2026-01-19 11:59:37.02	282.53	15.21	-46.9	-63.2	3.8	1.49e+00	0	41	104	315621376	65	23346
2026-01-19 11:59:38.02	282.74	15.20	-46.9	-63.2	3.8	1.49e+00	0	41	104	315621376	65	23343
2026-01-19 11:59:39.01	282.95	15.19	-46.9	-63.1	3.8	1.49e+00	0	41	104	315621376	65	23292
2026-01-19 11:59:40.00	283.16	15.17	-46.9	-63.1	3.8	1.49e+00	0	41	104	315621376	65	23279
2026-01-19 11:59:41.00	283.38	15.16	-46.9	-63.1	3.8	1.49e+00	0	41	104	315621376	65	23274
2026-01-19 11:59:41.99	283.59	15.15	-46.9	-63.1	3.8	1.49e+00	0	41	104	315621376	65	23255
2026-01-19 11:59:42.98	283.79	15.14	-46.9	-63.2	3.8	1.49e+00	0	41	104	315621376	65	23316
2026-01-19 11:59:43.97	284.00	15.12	-46.9	-63.2	3.8	1.49e+00	0	41	104	315621376	65	23445
2026-01-19 11:59:44.97	284.22	15.11	-46.9	-63.1	3.8	1.49e+00	0	41	104	315621376	65	23309
2026-01-19 11:59:45.96	284.42	15.09	-46.9	-63.1	3.8	1.49e+00	0	41	104	315621376	65	23280
2026-01-19 11:59:46.95	284.63	15.08	-46.8	-63.2	3.8	1.49e+00	0	41	104	315621376	65	23314
2026-01-19 11:59:47.95	284.84	15.06	-46.9	-63.1	3.8	1.49e+00	0	41	104	315621376	65	23243
2026-01-19 11:59:48.94	285.05	15.05	-46.9	-63.1	3.8	1.49e+00	0	41	104	315621376	65	23285
2026-01-19 11:59:49.93	285.26	15.03	-46.9	-63.1	3.8	1.49e+00	0	41	104	315621376	65	23309
2026-01-19 11:59:50.93	285.47	15.02	-46.9	-63.2	3.8	1.49e+00	0	41	104	315621376	65	23319
2026-01-19 11:59:51.92	285.68	15.00	-46.9	-63.2	3.8	1.49e+00	0	41	104	315621376	65	23351
2026-01-19 11:59:52.91	285.89	14.98	-46.9	-63.2	3.8	1.49e+00	0	41	104	315621376	65	23312
2026-01-19 11:59:53.91	286.09	14.97	-46.9	-63.1	3.8	1.49e+00	0	41	104	315621376	65	23253
2026-01-19 11:59:54.90	286.30	14.95	-46.9	-63.2	3.8	1.49e+00	0	41	104	315621376	65	23353
2026-01-19 11:59:55.89	286.51	14.93	-46.9	-63.2	3.8	1.49e+00	0	41	104	315621376	65	23320
2026-01-19 11:59:56.88	286.71	14.91	-46.9	-63.2	3.8	1.49e+00	0	41	104	315621376	65	23404
2026-01-19 11:59:57.88	286.92	14.90	-46.9	-63.1	3.8	1.49e+00	0	41	104	315621376	65	23227
2026-01-19 11:59:58.87	287.13	14.88	-46.9	-63.2	3.8	1.49e+00	0	41	104	315621376	65	23348
2026-01-19 11:59:59.86	287.33	14.86	-46.9	-63.2	3.8	1.49e+00	0	41	104	315621376	65	23344
2026-01-19 12:00:00.86	287.54	14.84	-46.9	-63.1	3.8	1.49e+00	0	41	104	315621376	65	23309
2026-01-19 12:00:01.85	287.75	14.82	-46.9	-63.1	3.8	1.49e+00	0	41	104	315621376	65	23311
2026-01-19 12:00:02.84	287.95	14.80	-46.9	-63.2	3.8	1.49e+00	0	41	104	315621376	65	23412
2026-01-19 12:00:03.84	288.16	14.78	-46.9	-63.2	3.8	1.49e+00	0	41	104	315621376	65	23348
2026-01-19 12:00:04.83	288.36	14.76	-46.9	-63.2	3.8	1.49e+00	0	41	104	315621376	65	23357
2026-01-19 12:00:05.82	288.57	14.74	-46.9	-63.2	3.8	1.49e+00	0	41	104	315621376	65	23351
2026-01-19 12:00:06.81	288.77	14.72	-46.9	-63.1	3.8	1.49e+00	0	41	104	315621376	65	23291
2026-01-19 12:00:07.81	288.98	14.70	-46.9	-63.1	3.8	1.49e+00	0	41	104	315621376	65	23289
2026-01-19 12:00:08.80	289.18	14.67	-46.9	-63.2	3.8	1.49e+00	0	41	104	315621376	65	23358
2026-01-19 12:00:09.79	289.38	14.65	-46.9	-63.2	3.8	1.49e+00	0	41	104	315621376	65	23333
2026-01-19 12:00:10.79	289.59	14.63	-46.9	-63.1	3.8	1.49e+00	0	41	104	315621376	65	23249
2026-01-19 12:00:11.78	289.79	14.61	-46.9	-63.1	3.8	1.49e+00	0	40	104	315621376	65	23204
2026-01-19 12:00:12.77	289.99	14.58	-46.9	-63.1	3.8	1.49e+00	0	41	104	315621376	65	23292
2026-01-19 12:00:13.76	290.19	14.56	-46.8	-63.1	3.8	1.49e+00	0	41	104	315621376	65	23306
2026-01-19 12:00:14.76	290.40	14.54	-46.8	-63.1	3.8	1.49e+00	0	41	104	315621376	65	23283
2026-01-19 12:00:15.75	290.60	14.51	-46.9	-63.1	3.8	1.49e+00	0	41	104	315621376	65	23278
2026-01-19 12:00:16.74	290.80	14.49	-46.8	-63.2	3.8	1.49e+00	0	41	104	315621376	65	23338
2026-01-19 12:00:17.74	291.00	14.46	-46.9	-63.1	3.8	1.49e+00	0	41	104	315621376	65	23307
2026-01-19 12:00:18.73	291.20	14.44	-46.9	-63.2	3.8	1.49e+00	0	41	104	315621376	65	23324
2026-01-19 12:00:19.72	291.40	14.41	-46.9	-63.2	3.8	1.49e+00	0	41	104	315621376	65	23359
2026-01-19 12:00:20.72	291.60	14.39	-46.9	-63.2	3.8	1.49e+00	0	41	104	315621376	65	23390
2026-01-19 12:00:21.71	291.80	14.36	-46.9	-63.2	3.8	1.49e+00	0	41	104	315621376	65	23387
2026-01-19 12:00:22.70	292.00	14.33	-46.9	-63.2	3.8	1.49e+00	0	41	104	315621376	65	23351
2026-01-19 12:00:23.69	292.20	14.31	-46.9	-63.2	3.8	1.49e+00	0	41	104	315621376	65	23409
2026-01-19 12:00:24.69	292.40	14.28	-46.9	-63.1	3.8	1.49e+00	0	41	104	315621376	65	23295
2026-01-19 12:00:25.68	292.60	14.25	-46.9	-63.2	3.8	1.49e+00	0	41	104	315621376	65	23370
2026-01-19 12:00:26.67	292.79	14.23	-46.9	-63.2	3.8	1.49e+00	0	41	104	315621376	65	23341
2026-01-19 12:00:27.67	292.99	14.20	-46.9	-63.2	3.8	1.49e+00	0	41	104	315621376	65	23333
2026-01-19 12:00:28.66	293.19	14.17	-46.9	-63.2	3.8	1.49e+00	0	41	104	315621376	65	23349
2026-01-19 12:00:29.65	293.38	14.14	-46.9	-63.2	3.8	1.49e+00	0	41	104	315621376	65	23336
2026-01-19 12:00:30.65	293.58	14.12	-46.9	-63.1	3.8	1.49e+00	0	41	104	315621376	65	23231
2026-01-19 12:00:31.64	293.78	14.09	-46.9	-63.1	3.8	1.49e+00	0	41	104	315621376	65	23283
2026-01-19 12:00:32.63	293.97	14.06	-46.9	-63.2	3.8	1.49e+00	0	41	104	315621376	65	23388
2026-01-19 12:00:33.63	294.17	14.03	-46.9	-63.1	3.8	1.49e+00	0	41	104	315621376	65	23301
2026-01-19 12:00:34.62	294.36	14.00	-46.9	-63.2	3.8	1.49e+00	0	41	104	315621376	65	23325
2026-01-19 12:00:35.61	294.56	13.97	-46.9	-63.1	3.8	1.49e+00	0	41	104	315621376	65	23271
2026-01-19 12:00:36.60	294.75	13.94	-46.9	-63.1	3.8	1.49e+00	0	41	104	315621376	65	23232
2026-01-19 12:00:37.60	294.95	13.91	-46.9	-63.2	3.8	1.49e+00	0	41	104	315621376	65	23352
2026-01-19 12:00:38.59	295.14	13.88	-46.9	-63.1	3.8	1.49e+00	0	41	104	315621376	65	23307
2026-01-19 12:00:39.58	295.33	13.85	-46.9	-63.2	3.8	1.49e+00	0	41	104	315621376	65	23371
2026-01-19 12:00:40.58	295.53	13.82	-46.9	-63.2	3.8	1.49e+00	0	41	104	315621376	65	23385
2026-01-19 12:00:41.57	295.72	13.79	-46.9	-63.2	3.8	1.49e+00	0	41	104	315621376	65	23335
2026-01-19 12:00:42.56	295.91	13.75	-46.9	-63.1	3.8	1.49e+00	0	41	104	315621376	65	23296
2026-01-19 12:00:43.56	296.10	13.72	-46.9	-63.1	3.8	1.49e+00	0	41	104	315621376	65	23257
2026-01-19 12:00:44.55	296.29	13.69	-46.9	-63.2	3.8	1.49e+00	0	41	104	315621376	65	23360
2026-01-19 12:00:45.54	296.48	13.66	-46.9	-63.1	3.8	1.49e+00	0	41	104	315621376	65	23301
2026-01-19 12:00:46.53	296.67	13.62	-46.9	-63.2	3.8	1.49e+00	0	41	104	315621376	65	23344
2026-01-19 12:00:47.53	296.86	13.59	-46.9	-63.2	3.8	1.49e+00	0	41	104	315621376	65	23352
2026-01-19 12:00:48.52	297.05	13.56	-46.9	-63.2	3.8	1.49e+00	0	41	104	315621376	65	23321
2026-01-19 12:00:49.51	297.24	13.53	-46.9	-63.2	3.8	1.49e+00	0	41	104	315621376	65	23350
2026-01-19 12:00:50.51	297.43	13.49	-46.9	-63.2	3.8	1.49e+00	0	41	104	315621376	65	23356
2026-01-19 12:00:51.50	297.62	13.46	-46.9	-63.2	3.8	1.49e+00	0	41	104	315621376	65	23466
2026-01-19 12:00:52.49	297.80	13.42	-46.9	-63.2	3.8	1.49e+00	0	41	104	315621376	65	23339
2026-01-19 12:00:53.49	297.99	13.39	-46.9	-63.2	3.8	1.49e+00	0	41	104	315621376	65	23339
2026-01-19 12:00:54.48	298.18	13.36	-46.9	-63.1	3.8	1.49e+00	0	41	104	315621376	65	23284
2026-01-19 12:00:55.47	298.36	13.32	-46.9	-63.1	3.8	1.49e+00	0	41	104	315621376	65	23304
2026-01-19 12:00:56.46	298.55	13.29	-46.9	-63.2	3.8	1.49e+00	0	41	104	315621376	65	23437
2026-01-19 12:00:57.46	298.74	13.25	-46.9	-63.1	3.8	1.49e+00	0	41	104	315621376	65	23234
2026-01-19 12:00:58.45	298.92	13.22	-46.9	-63.2	3.8	1.49e+00	0	41	104	315621376	65	23382
2026-01-19 12:00:59.44	299.10	13.18	-46.9	-63.2	3.8	1.49e+00	0	41	104	315621376	65	23333
2026-01-19 12:01:00.44	299.29	13.14	-46.8	-63.2	3.8	1.49e+00	0	41	104	315621376	65	23317
2026-01-19 12:01:01.43	299.47	13.11	-46.9	-63.1	3.8	1.49e+00	0	41	104	315621376	65	23303
2026-01-19 12:01:02.42	299.66	13.07	-46.9	-63.1	3.8	1.49e+00	0	41	104	315621376	65	23273
2026-01-19 12:01:03.42	299.84	13.04	-46.9	-63.2	3.8	1.49e+00	0	41	104	315621376	65	23351
2026-01-19 12:01:04.41	300.02	13.00	-46.9	-63.2	3.8	1.49e+00	0	41	104	315621376	65	23359
2026-01-19 12:01:05.40	300.20	12.96	-46.9	-63.2	3.8	1.49e+00	0	41	104	315621376	65	23343
2026-01-19 12:01:06.40	300.39	12.92	-46.9	-63.1	3.8	1.49e+00	0	41	104	315621376	65	23287
2026-01-19 12:01:07.39	300.57	12.89	-46.9	-63.2	3.8	1.49e+00	0	41	104	315621376	65	23369
2026-01-19 12:01:08.38	300.75	12.85	-46.9	-63.2	3.8	1.49e+00	0	41	104	315621376	65	23418
2026-01-19 12:01:09.37	300.93	12.81	-46.9	-63.2	3.8	1.49e+00	0	41	104	315621376	65	23349
2026-01-19 12:01:10.37	301.11	12.77	-46.8	-63.2	3.8	1.49e+00	0	41	104	315621376	65	23354
2026-01-19 12:01:11.36	301.29	12.74	-46.9	-63.2	3.8	1.49e+00	0	41	104	315621376	65	23407
2026-01-19 12:01:12.35	301.46	12.70	-46.9	-63.2	3.8	1.49e+00	0	41	104	315621376	65	23335
2026-01-19 12:01:13.34	301.64	12.66	-46.8	-63.2	3.8	1.49e+00	0	41	104	315621376	65	23324
2026-01-19 12:01:14.34	301.82	12.62	-46.9	-63.2	3.8	1.49e+00	0	41	104	315621376	65	23345
2026-01-19 12:01:15.33	302.00	12.58	-46.9	-63.1	3.8	1.49e+00	0	41	104	315621376	65	23284
2026-01-19 12:01:16.32	302.18	12.54	-46.9	-63.2	3.8	1.49e+00	0	41	104	315621376	65	23324
2026-01-19 12:01:17.32	302.35	12.50	-46.8	-63.1	3.8	1.49e+00	0	41	104	315621376	65	23307
2026-01-19 12:01:18.31	302.53	12.47	-46.9	-63.1	3.8	1.49e+00	0	41	104	315621376	65	23237
2026-01-19 12:01:19.30	302.70	12.43	-46.9	-63.1	3.8	1.49e+00	0	41	104	315621376	65	23309
2026-01-19 12:01:20.30	302.88	12.39	-46.9	-63.1	3.8	1.49e+00	0	41	104	315621376	65	23271
2026-01-19 12:01:21.29	303.05	12.35	-46.9	-63.1	3.8	1.49e+00	0	41	104	315621376	65	23228
2026-01-19 12:01:22.28	303.23	12.31	-46.9	-63.1	3.8	1.49e+00	0	41	104	315621376	65	23279
2026-01-19 12:01:23.27	303.40	12.27	-46.9	-63.2	3.8	1.49e+00	0	41	104	315621376	65	23346
2026-01-19 12:01:24.27	303.58	12.23	-46.9	-63.2	3.8	1.49e+00	0	41	104	315621376	65	23323
2026-01-19 12:01:25.26	303.75	12.19	-46.8	-63.2	3.8	1.49e+00	0	41	104	315621376	65	23331
2026-01-19 12:01:26.25	303.92	12.14	-46.9	-63.2	3.8	1.49e+00	0	41	104	315621376	65	23337
2026-01-19 12:01:27.25	304.09	12.10	-46.9	-63.2	3.8	1.49e+00	0	41	104	315621376	65	23324
2026-01-19 12:01:28.24	304.26	12.06	-46.9	-63.1	3.8	1.49e+00	0	41	104	315621376	65	23232
2026-01-19 12:01:29.23	304.43	12.02	-46.9	-63.2	3.8	1.49e+00	0	41	104	315621376	65	23338
2026-01-19 12:01:30.23	304.61	11.98	-46.9	-63.1	3.8	1.49e+00	0	41	104	315621376	65	23283
2026-01-19 12:01:31.22	304.78	11.94	-46.9	-63.2	3.8	1.49e+00	0	41	104	315621376	65	23334
2026-01-19 12:01:32.21	304.94	11.90	-46.9	-63.2	3.8	1.49e+00	0	41	104	315621376	65	23331
2026-01-19 12:01:33.21	305.11	11.85	-46.9	-63.1	3.8	1.49e+00	0	41	104	315621376	65	23302
2026-01-19 12:01:34.20	305.28	11.81	-46.9	-63.1	3.8	1.49e+00	0	41	104	315621376	65	23292
2026-01-19 12:01:35.19	305.45	11.77	-46.9	-63.1	3.8	1.49e+00	0	41	104	315621376	65	23275
2026-01-19 12:01:36.18	305.62	11.73	-46.9	-63.2	3.8	1.49e+00	0	41	104	315621376	65	23318
2026-01-19 12:01:37.18	305.79	11.69	-46.9	-63.2	3.8	1.49e+00	0	41	104	315621376	65	23315
2026-01-19 12:01:38.17	305.95	11.64	-46.9	-63.2	3.8	1.49e+00	0	41	104	315621376	65	23364
2026-01-19 12:01:39.16	306.12	11.60	-46.9	-63.1	3.8	1.49e+00	0	41	104	315621376	65	23267
2026-01-19 12:01:40.16	306.28	11.56	-46.9	-63.1	3.8	1.49e+00	0	41	104	315621376	65	23216
2026-01-19 12:01:41.15	306.45	11.52	-46.9	-63.2	3.8	1.49e+00	0	41	104	315621376	65	23329
2026-01-19 12:01:42.14	306.61	11.47	-46.9	-63.1	3.8	1.49e+00	0	41	104	315621376	65	23308
2026-01-19 12:01:43.13	306.78	11.43	-46.9	-63.1	3.8	1.49e+00	0	41	104	315621376	65	23259
2026-01-19 12:01:44.13	306.94	11.39	-46.9	-63.2	3.8	1.49e+00	0	41	104	315621376	65	23455
2026-01-19 12:01:45.12	307.11	11.34	-46.9	-63.2	3.8	1.49e+00	0	41	104	315621376	65	23405
2026-01-19 12:01:46.11	307.27	11.30	-46.9	-63.2	3.8	1.49e+00	0	41	104	315621376	65	23380
2026-01-19 12:01:47.11	307.43	11.25	-46.9	-63.2	3.8	1.49e+00	0	41	104	315621376	65	23368
2026-01-19 12:01:48.10	307.59	11.21	-46.9	-63.1	3.8	1.49e+00	0	41	104	315621376	65	23310
2026-01-19 12:01:49.09	307.75	11.17	-46.9	-63.1	3.8	1.49e+00	0	41	104	315621376	65	23297
2026-01-19 12:01:50.09	307.92	11.12	-46.9	-63.2	3.8	1.49e+00	0	41	104	315621376	65	23319
2026-01-19 12:01:51.08	308.08	11.08	-46.9	-63.2	3.8	1.49e+00	0	41	104	315621376	65	23468
2026-01-19 12:01:52.07	308.24	11.03	-46.9	-63.2	3.8	1.49e+00	0	41	104	315621376	65	23326
2026-01-19 12:01:53.06	308.40	10.99	-46.9	-63.2	3.8	1.49e+00	0	41	104	315621376	65	23368
2026-01-19 12:01:54.06	308.56	10.95	-46.9	-63.2	3.8	1.49e+00	0	41	104	315621376	65	23318
2026-01-19 12:01:55.05	308.71	10.90	-46.9	-63.2	3.8	1.49e+00	0	41	104	315621376	65	23375
2026-01-19 12:01:56.04	308.87	10.86	-46.9	-63.1	3.8	1.49e+00	0	41	104	315621376	65	23272
2026-01-19 12:01:57.04	309.03	10.81	-46.9	-63.2	3.8	1.49e+00	0	41	104	315621376	65	23366
2026-01-19 12:01:58.03	309.19	10.77	-46.9	-63.1	3.8	1.49e+00	0	41	104	315621376	65	23270
2026-01-19 12:01:59.02	309.34	10.72	-46.9	-63.2	3.8	1.49e+00	0	41	104	315621376	65	23464
2026-01-19 12:02:00.02	309.50	10.68	-46.9	-63.1	3.8	1.49e+00	0	41	104	315621376	65	23242
2026-01-19 12:02:01.01	309.66	10.63	-46.9	-63.2	3.8	1.49e+00	0	41	104	315621376	65	23397
2026-01-19 12:02:02.00	309.81	10.59	-46.9	-63.2	3.8	1.49e+00	0	41	104	315621376	65	23317
2026-01-19 12:02:03.00	309.97	10.54	-46.9	-63.2	3.8	1.49e+00	0	41	104	315621376	65	23472
2026-01-19 12:02:03.99	310.12	10.49	-46.9	-63.2	3.8	1.49e+00	0	41	104	315621376	65	23385
2026-01-19 12:02:04.98	310.28	10.45	-46.9	-63.1	3.8	1.49e+00	0	41	104	315621376	65	23304
2026-01-19 12:02:05.97	310.43	10.40	-46.9	-63.2	3.8	1.49e+00	0	41	104	315621376	65	23354
2026-01-19 12:02:06.97	310.58	10.36	-46.9	-63.2	3.8	1.49e+00	0	41	104	315621376	65	23359
2026-01-19 12:02:07.96	310.73	10.31	-46.9	-63.2	3.8	1.49e+00	0	41	104	315621376	65	23399
2026-01-19 12:02:08.95	310.89	10.26	-46.9	-63.2	3.8	1.49e+00	0	41	104	315621376	65	23365
2026-01-19 12:02:09.95	311.04	10.22	-46.9	-63.2	3.8	1.49e+00	0	41	104	315621376	65	23397
2026-01-19 12:02:10.94	311.19	10.17	-46.9	-63.2	3.8	1.49e+00	0	41	104	315621376	65	23339
2026-01-19 12:02:11.93	311.34	10.13	-46.9	-63.1	3.8	1.49e+00	0	41	104	315621376	65	23278
2026-01-19 12:02:12.92	311.49	10.08	-46.9	-63.2	3.8	1.49e+00	0	41	104	315621376	65	23379
2026-01-19 12:02:13.92	311.64	10.03	-46.9	-63.2	3.8	1.49e+00	0	41	104	315621376	65	23364
2026-01-19 12:02:14.91	311.79	9.99	-46.9	-63.2	3.8	1.49e+00	0	41	104	315621376	65	23325
2026-01-19 12:02:15.90	311.94	9.94	-46.9	-63.1	3.8	1.49e+00	0	41	104	315621376	65	23238
2026-01-19 12:02:16.90	312.09	9.89	-46.9	-63.2	3.8	1.49e+00	0	41	104	315621376	65	23388
2026-01-19 12:02:17.89	312.24	9.85	-46.9	-63.1	3.8	1.49e+00	0	41	104	315621376	65	23220
2026-01-19 12:02:18.88	312.38	9.80	-46.9	-63.2	3.8	1.49e+00	0	41	104	315621376	65	23353
2026-01-19 12:02:19.88	312.53	9.75	-46.9	-63.2	3.8	1.49e+00	0	41	104	315621376	65	23333
2026-01-19 12:02:20.87	312.68	9.71	-46.9	-63.2	3.8	1.49e+00	0	41	104	315621376	65	23423
2026-01-19 12:02:21.86	312.82	9.66	-46.9	-63.1	3.8	1.49e+00	0	41	104	315621376	65	23264
2026-01-19 12:02:22.86	312.97	9.61	-46.9	-63.2	3.8	1.49e+00	0	41	104	315621376	65	23417
2026-01-19 12:02:23.85	313.11	9.56	-46.9	-63.2	3.8	1.49e+00	0	41	104	315621376	65	23392
2026-01-19 12:02:24.84	313.26	9.52	-46.9	-63.2	3.8	1.49e+00	0	41	104	315621376	65	23396
2026-01-19 12:02:25.84	313.40	9.47	-46.9	-63.2	3.8	1.49e+00	0	41	104	315621376	65	23342
2026-01-19 12:02:26.83	313.55	9.42	-46.9	-63.2	3.8	1.49e+00	0	41	104	315621376	65	23328
2026-01-19 12:02:27.82	313.69	9.37	-46.9	-63.2	3.8	1.49e+00	0	41	104	315621376	65	23408
2026-01-19 12:02:28.81	313.83	9.33	-46.9	-63.2	3.8	1.49e+00	0	41	104	315621376	65	23358
2026-01-19 12:02:29.81	313.98	9.28	-46.9	-63.2	3.8	1.49e+00	0	41	104	315621376	65	23390
2026-01-19 12:02:30.80	314.12	9.23	-46.9	-63.2	3.8	1.49e+00	0	41	104	315621376	65	23465
2026-01-19 12:02:31.79	314.26	9.18	-46.9	-63.1	3.8	1.49e+00	0	41	104	315621376	65	23253
2026-01-19 12:02:32.79	314.40	9.14	-46.9	-63.2	3.8	1.49e+00	0	41	104	315621376	65	23335
2026-01-19 12:02:33.78	314.54	9.09	-46.9	-63.2	3.8	1.49e+00	0	41	104	315621376	65	23364
2026-01-19 12:02:34.77	314.68	9.04	-46.9	-63.2	3.8	1.49e+00	0	41	104	315621376	65	23339
2026-01-19 12:02:35.76	314.82	8.99	-46.9	-63.1	3.8	1.49e+00	0	41	104	315621376	65	23309
2026-01-19 12:02:36.76	314.96	8.94	-46.9	-63.2	3.8	1.49e+00	0	41	104	315621376	65	23367
2026-01-19 12:02:37.75	315.10	8.90	-46.9	-63.1	3.8	1.49e+00	0	41	104	315621376	65	23257
2026-01-19 12:02:38.74	315.24	8.85	-46.9	-63.1	3.8	1.49e+00	0	41	104	315621376	65	23307
2026-01-19 12:02:39.74	315.38	8.80	-46.9	-63.2	3.8	1.49e+00	0	41	104	315621376	65	23423
2026-01-19 12:02:40.73	315.51	8.75	-46.9	-63.1	3.8	1.49e+00	0	41	104	315621376	65	23265
2026-01-19 12:02:41.72	315.65	8.70	-46.9	-63.2	3.8	1.49e+00	0	41	104	315621376	65	23440
2026-01-19 12:02:42.72	315.79	8.65	-46.9	-63.2	3.8	1.49e+00	0	41	104	315621376	65	23388
2026-01-19 12:02:43.71	315.92	8.61	-46.9	-63.2	3.8	1.49e+00	0	41	104	315621376	65	23365
2026-01-19 12:02:44.70	316.06	8.56	-46.9	-63.2	3.8	1.49e+00	0	41	104	315621376	65	23319
2026-01-19 12:02:45.69	316.19	8.51	-46.9	-63.2	3.8	1.49e+00	0	41	104	315621376	65	23372
2026-01-19 12:02:46.69	316.33	8.46	-46.9	-63.1	3.8	1.49e+00	0	41	104	315621376	65	23288
2026-01-19 12:02:47.68	316.46	8.41	-46.9	-63.2	3.8	1.49e+00	0	41	104	315621376	65	23393
2026-01-19 12:02:48.67	316.60	8.36	-46.9	-63.2	3.8	1.49e+00	0	41	104	315621376	65	23358
2026-01-19 12:02:49.67	316.73	8.32	-46.9	-63.2	3.8	1.49e+00	0	41	104	315621376	65	23407
2026-01-19 12:02:50.66	316.86	8.27	-46.9	-63.2	3.8	1.49e+00	0	41	104	315621376	65	23419
2026-01-19 12:02:51.65	317.00	8.22	-46.9	-63.2	3.8	1.49e+00	0	41	104	315621376	65	23342
2026-01-19 12:02:52.64	317.13	8.17	-46.9	-63.2	3.8	1.49e+00	0	41	104	315621376	65	23322
2026-01-19 12:02:53.64	317.26	8.12	-46.9	-63.2	3.8	1.49e+00	0	41	104	315621376	65	23362
2026-01-19 12:02:54.63	317.39	8.07	-46.9	-63.2	3.8	1.49e+00	0	41	104	315621376	65	23366
2026-01-19 12:02:55.62	317.52	8.02	-46.9	-63.2	3.8	1.49e+00	0	41	104	315621376	65	23365
2026-01-19 12:02:56.61	317.65	7.97	-46.9	-63.2	3.8	1.49e+00	0	41	104	315621376	65	23355
2026-01-19 12:02:57.61	317.79	7.93	-46.9	-63.2	3.8	1.49e+00	0	41	104	315621376	65	23405
2026-01-19 12:02:58.60	317.91	7.88	-46.9	-63.2	3.8	1.49e+00	0	41	104	315621376	65	23393
2026-01-19 12:02:59.59	318.04	7.83	-46.9	-63.2	3.8	1.49e+00	0	41	104	315621376	65	23381
2026-01-19 12:03:00.59	318.17	7.78	-46.9	-63.2	3.8	1.49e+00	0	41	104	315621376	65	23399
2026-01-19 12:03:01.58	318.30	7.73	-46.9	-63.2	3.8	1.49e+00	0	41	104	315621376	65	23353
2026-01-19 12:03:02.57	318.43	7.68	-46.9	-63.1	3.8	1.49e+00	0	41	104	315621376	65	23291
2026-01-19 12:03:03.57	318.56	7.63	-46.9	-63.2	3.8	1.49e+00	0	41	104	315621376	65	23443
2026-01-19 12:03:04.56	318.69	7.58	-46.9	-63.2	3.8	1.49e+00	0	41	104	315621376	65	23352
2026-01-19 12:03:05.55	318.81	7.53	-46.9	-63.2	3.8	1.49e+00	0	41	104	315621376	65	23345
2026-01-19 12:03:06.54	318.94	7.49	-46.9	-63.2	3.8	1.49e+00	0	41	104	315621376	65	23355
2026-01-19 12:03:07.54	319.06	7.44	-46.9	-63.2	3.8	1.49e+00	0	41	104	315621376	65	23371
2026-01-19 12:03:08.53	319.19	7.39	-46.9	-63.2	3.8	1.49e+00	0	41	104	315621376	65	23405
2026-01-19 12:03:09.52	319.31	7.34	-46.9	-63.2	3.8	1.49e+00	0	41	104	315621376	65	23350
2026-01-19 12:03:10.52	319.44	7.29	-46.9	-63.2	3.8	1.49e+00	0	41	104	315621376	65	23423
2026-01-19 12:03:11.51	319.56	7.24	-46.9	-63.2	3.8	1.49e+00	0	41	104	315621376	65	23315
2026-01-19 12:03:12.50	319.69	7.19	-46.9	-63.2	3.8	1.49e+00	0	41	104	315621376	65	23441
2026-01-19 12:03:13.49	319.81	7.14	-46.9	-63.2	3.8	1.49e+00	0	41	104	315621376	65	23443
2026-01-19 12:03:14.49	319.94	7.09	-46.9	-63.2	3.8	1.49e+00	0	41	104	315621376	65	23378
2026-01-19 12:03:15.48	320.06	7.04	-46.9	-63.2	3.8	1.49e+00	0	41	104	315621376	65	23417
2026-01-19 12:03:16.47	320.18	6.99	-46.9	-63.2	3.8	1.49e+00	0	41	104	315621376	65	23406
2026-01-19 12:03:17.46	320.30	6.94	-46.9	-63.2	3.8	1.49e+00	0	41	104	315621376	65	23443
2026-01-19 12:03:18.46	320.42	6.89	-46.9	-63.2	3.8	1.49e+00	0	41	104	315621376	65	23528
2026-01-19 12:03:19.45	320.55	6.85	-46.9	-63.2	3.8	1.49e+00	0	41	104	315621376	65	23415
2026-01-19 12:03:20.44	320.67	6.80	-46.9	-63.2	3.8	1.49e+00	0	41	104	315621376	65	23436
2026-01-19 12:03:21.43	320.79	6.75	-46.9	-63.2	3.8	1.49e+00	0	41	104	315621376	65	23441
2026-01-19 12:03:22.43	320.91	6.70	-46.9	-63.2	3.8	1.49e+00	0	41	104	315621376	65	23436
2026-01-19 12:03:23.42	321.03	6.65	-46.9	-63.2	3.8	1.49e+00	0	41	104	315621376	65	23374
2026-01-19 12:03:24.41	321.15	6.60	-46.9	-63.2	3.8	1.49e+00	0	41	104	315621376	65	23334
2026-01-19 12:03:25.41	321.26	6.55	-46.9	-63.2	3.8	1.49e+00	0	41	104	315621376	65	23430
2026-01-19 12:03:26.40	321.38	6.50	-46.9	-63.2	3.8	1.49e+00	0	41	104	315621376	65	23329
2026-01-19 12:03:27.39	321.50	6.45	-46.9	-63.2	3.8	1.49e+00	0	41	104	315621376	65	23433
2026-01-19 12:03:28.39	321.62	6.40	-46.9	-63.2	3.8	1.49e+00	0	41	104	315621376	65	23405
2026-01-19 12:03:29.38	321.74	6.35	-46.9	-63.2	3.8	1.49e+00	0	41	104	315621376	65	23468
2026-01-19 12:03:30.37	321.85	6.30	-46.9	-63.2	3.8	1.49e+00	0	41	104	315621376	65	23391
2026-01-19 12:03:31.36	321.97	6.25	-46.9	-63.2	3.8	1.49e+00	0	41	104	315621376	65	23398
2026-01-19 12:03:32.36	322.09	6.20	-46.8	-63.2	3.8	1.49e+00	0	41	104	315621376	65	23433
2026-01-19 12:03:33.35	322.20	6.15	-46.9	-63.1	3.8	1.49e+00	0	41	104	315621376	65	23294
2026-01-19 12:03:34.34	322.32	6.11	-46.9	-63.2	3.8	1.49e+00	0	41	104	315621376	65	23327
2026-01-19 12:03:35.33	322.43	6.06	-46.9	-63.1	3.8	1.49e+00	0	41	104	315621376	65	23275
2026-01-19 12:03:36.33	322.55	6.01	-46.9	-63.2	3.8	1.49e+00	0	41	104	315621376	65	23465
2026-01-19 12:03:37.32	322.66	5.96	-46.9	-63.2	3.8	1.49e+00	0	41	104	315621376	65	23372
2026-01-19 12:03:38.31	322.77	5.91	-46.9	-63.2	3.8	1.49e+00	0	41	104	315621376	65	23312
2026-01-19 12:03:39.31	322.89	5.86	-46.9	-63.2	3.8	1.49e+00	0	41	104	315621376	65	23349
2026-01-19 12:03:40.30	323.00	5.81	-46.9	-63.2	3.8	1.49e+00	0	41	104	315621376	65	23405
2026-01-19 12:03:41.29	323.11	5.76	-46.9	-63.2	3.8	1.49e+00	0	41	104	315621376	65	23347
2026-01-19 12:03:42.28	323.23	5.71	-46.9	-63.2	3.8	1.49e+00	0	41	104	315621376	65	23430
2026-01-19 12:03:43.28	323.34	5.66	-46.9	-63.1	3.8	1.49e+00	0	41	104	315621376	65	23298
2026-01-19 12:03:44.27	323.45	5.61	-46.9	-63.2	3.8	1.49e+00	0	41	104	315621376	65	23402
2026-01-19 12:03:45.26	323.56	5.56	-46.9	-63.2	3.8	1.49e+00	0	41	104	315621376	65	23392
2026-01-19 12:03:46.26	323.67	5.51	-46.9	-63.2	3.8	1.49e+00	0	41	104	315621376	65	23396
2026-01-19 12:03:47.25	323.78	5.46	-46.9	-63.2	3.8	1.49e+00	0	41	104	315621376	65	23439
2026-01-19 12:03:48.24	323.89	5.41	-46.9	-63.2	3.8	1.49e+00	0	41	104	315621376	65	23358
2026-01-19 12:03:49.24	324.01	5.36	-46.9	-63.2	3.8	1.49e+00	0	41	104	315621376	65	23406
2026-01-19 12:03:50.23	324.11	5.32	-46.9	-63.2	3.8	1.49e+00	0	41	104	315621376	65	23371
2026-01-19 12:03:51.22	324.22	5.27	-46.9	-63.2	3.8	1.49e+00	0	41	104	315621376	65	23321
2026-01-19 12:03:52.22	324.33	5.22	-46.9	-63.2	3.8	1.49e+00	0	41	104	315621376	65	23402
2026-01-19 12:03:53.21	324.44	5.17	-46.9	-63.2	3.8	1.49e+00	0	41	104	315621376	65	23405
2026-01-19 12:03:54.20	324.55	5.12	-46.9	-63.2	3.8	1.49e+00	0	41	104	315621376	65	23350
2026-01-19 12:03:55.19	324.66	5.07	-46.9	-63.2	3.8	1.49e+00	0	41	104	315621376	65	23390
2026-01-19 12:03:56.19	324.77	5.02	-46.9	-63.2	3.8	1.49e+00	0	41	104	315621376	65	23318
2026-01-19 12:03:57.18	324.87	4.97	-46.9	-63.1	3.8	1.49e+00	0	41	104	315621376	65	23262

#Closed at: 2026-01-19 12:03:58
#Recorded file [315 MB]: D:/Data/31040_260119_145421.dat