passes_logs/2026/01/19/T1/T1__20260119_200045_KHAYYAM_rec.log

#Pass ID: 20260119_200045_KHAYYAM
#Satellite: KHAYYAM
#Configuration: KHAYYAM_480M
#almurnet v.1.7.20251203
#Start time: 2026-01-19 20:00:46

#Version: 2.0.20230620
#Station: T1
#Location: 37.570604 lon 55.790049 lat
#TLE: 1 53370U 22096A   26018.96039649  .00006023  00000+0  24699-3 0  9993
#TLE: 2 53370  97.3564 285.8991 0001704 106.9069 253.2356 15.24618437191849

#Time	Az	El	Level	Level2	SNR	BER	BlckErr	Temp	State	Recorded	gain1	gain2
2026-01-19 20:00:46.33	36.39	5.04	-53.1	-57.5	3.6	0.00e+00	0	41	0	0	77	24412
2026-01-19 20:00:47.32	36.52	5.11	-53.1	-57.5	3.7	0.00e+00	0	41	104	0	76	25742
2026-01-19 20:00:48.31	36.66	5.17	-53.1	-57.5	3.7	0.00e+00	0	41	104	0	76	25696
2026-01-19 20:00:49.30	36.80	5.23	-53.1	-57.5	3.7	0.00e+00	0	41	104	0	76	25747
2026-01-19 20:00:50.30	36.94	5.29	-53.1	-57.5	3.7	0.00e+00	0	41	104	0	76	25685
2026-01-19 20:00:51.31	37.08	5.35	-53.1	-57.5	3.7	0.00e+00	0	41	104	0	76	25783
2026-01-19 20:00:52.33	37.22	5.42	-53.1	-57.4	3.7	0.00e+00	0	42	104	0	76	25677
2026-01-19 20:00:53.35	37.37	5.48	-53.1	-57.5	3.7	0.00e+00	0	42	104	0	76	25736
2026-01-19 20:00:54.38	37.52	5.54	-53.1	-57.5	3.7	0.00e+00	0	42	104	0	76	25729
2026-01-19 20:00:55.39	37.66	5.61	-53.1	-57.5	3.7	0.00e+00	0	42	104	0	76	25743
2026-01-19 20:00:56.43	37.81	5.67	-53.1	-57.5	3.7	0.00e+00	0	42	104	0	76	25738
2026-01-19 20:00:57.45	37.96	5.73	-53.0	-57.5	3.7	0.00e+00	0	42	104	0	76	25690
2026-01-19 20:00:58.47	38.11	5.80	-53.0	-57.4	3.7	0.00e+00	0	42	104	0	76	25601
2026-01-19 20:00:59.50	38.26	5.86	-53.0	-57.5	3.7	0.00e+00	0	42	104	0	76	25706
2026-01-19 20:01:00.52	38.41	5.93	-53.1	-57.4	3.7	0.00e+00	0	42	104	0	76	25675
2026-01-19 20:01:01.55	38.56	5.99	-53.0	-57.5	3.7	0.00e+00	0	42	104	0	76	25724
2026-01-19 20:01:02.57	38.72	6.06	-53.1	-57.5	3.7	0.00e+00	0	43	104	0	76	25712
2026-01-19 20:01:03.57	38.87	6.12	-53.0	-57.4	3.7	0.00e+00	0	43	104	0	76	25636
2026-01-19 20:01:04.56	39.02	6.18	-53.0	-57.5	3.7	0.00e+00	0	42	104	0	76	25687
2026-01-19 20:01:05.55	39.17	6.24	-53.0	-57.5	3.7	0.00e+00	0	43	104	0	76	25692
2026-01-19 20:01:06.55	39.32	6.31	-53.0	-57.5	3.7	0.00e+00	0	43	104	0	76	25712
2026-01-19 20:01:07.54	39.47	6.37	-53.0	-57.5	3.7	0.00e+00	0	43	104	0	76	25699
2026-01-19 20:01:08.54	39.62	6.43	-53.0	-57.4	3.7	0.00e+00	0	43	104	0	76	25653
2026-01-19 20:01:09.53	39.78	6.49	-53.0	-57.5	3.7	0.00e+00	0	43	104	0	76	25684
2026-01-19 20:01:10.52	39.93	6.56	-53.0	-57.4	3.7	0.00e+00	0	43	104	0	76	25640
2026-01-19 20:01:11.52	40.09	6.62	-53.0	-57.5	3.7	0.00e+00	0	43	104	0	76	25694
2026-01-19 20:01:12.51	40.25	6.68	-53.0	-57.5	3.7	0.00e+00	0	43	104	0	76	25696
2026-01-19 20:01:13.50	40.40	6.75	-53.0	-57.4	3.7	0.00e+00	0	43	104	0	76	25617
2026-01-19 20:01:14.50	40.56	6.81	-53.0	-57.4	3.7	0.00e+00	0	43	104	0	76	25596
2026-01-19 20:01:15.49	40.72	6.87	-53.0	-57.4	3.7	0.00e+00	0	43	104	0	76	25577
2026-01-19 20:01:16.48	40.88	6.94	-53.0	-57.4	3.7	0.00e+00	0	43	104	0	76	25660
2026-01-19 20:01:17.48	41.04	7.00	-53.0	-57.4	3.7	0.00e+00	0	43	104	0	76	25615
2026-01-19 20:01:18.47	41.20	7.06	-53.0	-57.4	3.7	0.00e+00	0	44	104	0	76	25570
2026-01-19 20:01:19.48	41.37	7.13	-53.0	-57.4	3.7	0.00e+00	0	44	104	0	76	25581
2026-01-19 20:01:20.50	41.53	7.19	-53.0	-57.4	3.7	0.00e+00	0	44	104	0	76	25667
2026-01-19 20:01:21.51	41.70	7.26	-53.0	-57.5	3.7	0.00e+00	0	44	104	0	76	25683
2026-01-19 20:01:22.55	41.87	7.32	-53.0	-57.5	3.7	0.00e+00	0	44	104	0	76	25726
2026-01-19 20:01:23.55	42.04	7.39	-53.1	-57.4	3.7	0.00e+00	0	44	104	0	76	25673
2026-01-19 20:01:24.54	42.21	7.45	-53.0	-57.4	3.7	0.00e+00	0	44	104	0	76	25663
2026-01-19 20:01:25.53	42.38	7.51	-53.0	-57.4	3.7	0.00e+00	0	44	104	0	76	25660
2026-01-19 20:01:26.53	42.55	7.58	-53.0	-57.4	3.7	0.00e+00	0	44	104	0	76	25603
2026-01-19 20:01:27.52	42.71	7.64	-53.0	-57.4	3.7	0.00e+00	0	44	104	0	76	25642
2026-01-19 20:01:28.52	42.89	7.71	-53.0	-57.4	3.7	0.00e+00	0	44	104	0	76	25624
2026-01-19 20:01:29.51	43.06	7.77	-53.0	-57.4	3.7	0.00e+00	0	44	104	0	76	25515
2026-01-19 20:01:30.50	43.23	7.83	-53.0	-57.4	3.7	0.00e+00	0	44	104	0	76	25620
2026-01-19 20:01:31.49	43.40	7.90	-53.0	-57.4	3.7	0.00e+00	0	44	104	0	76	25638
2026-01-19 20:01:32.49	43.58	7.96	-53.0	-57.4	3.7	0.00e+00	0	44	104	0	76	25656
2026-01-19 20:01:33.48	43.75	8.02	-53.0	-57.4	3.7	0.00e+00	0	44	104	0	76	25625
2026-01-19 20:01:34.48	43.93	8.09	-53.0	-57.4	3.7	0.00e+00	0	44	104	0	76	25664
2026-01-19 20:01:35.47	44.11	8.15	-53.0	-57.4	3.7	0.00e+00	0	44	104	0	76	25615
2026-01-19 20:01:36.46	44.28	8.22	-53.0	-57.4	3.7	0.00e+00	0	44	104	0	76	25646
2026-01-19 20:01:37.47	44.47	8.28	-53.0	-57.4	3.7	0.00e+00	0	44	104	0	76	25637
2026-01-19 20:01:38.47	44.65	8.35	-53.1	-57.5	3.7	0.00e+00	0	44	104	0	76	25737
2026-01-19 20:01:39.46	44.83	8.41	-53.1	-57.4	3.7	0.00e+00	0	44	104	0	76	25639
2026-01-19 20:01:40.45	45.01	8.47	-53.0	-57.4	3.7	0.00e+00	0	44	104	0	76	25571
2026-01-19 20:01:41.45	45.19	8.54	-53.0	-57.4	3.7	0.00e+00	0	44	104	0	76	25619
2026-01-19 20:01:42.44	45.38	8.60	-53.0	-57.4	3.7	0.00e+00	0	44	104	0	76	25623
2026-01-19 20:01:43.43	45.56	8.67	-53.0	-57.4	3.7	0.00e+00	0	44	104	0	76	25603
2026-01-19 20:01:44.43	45.75	8.73	-53.0	-57.4	3.7	0.00e+00	0	45	104	0	76	25651
2026-01-19 20:01:45.42	45.93	8.79	-53.0	-57.4	3.7	0.00e+00	0	45	104	0	76	25632
2026-01-19 20:01:46.42	46.12	8.86	-53.0	-57.4	3.7	0.00e+00	0	45	104	0	76	25580
2026-01-19 20:01:47.41	46.31	8.92	-53.0	-57.4	3.7	0.00e+00	0	45	104	0	76	25642
2026-01-19 20:01:48.40	46.50	8.99	-53.0	-57.4	3.7	0.00e+00	0	45	104	0	76	25639
2026-01-19 20:01:49.40	46.69	9.05	-53.0	-57.4	3.7	0.00e+00	0	45	104	0	76	25442
2026-01-19 20:01:50.39	46.89	9.12	-52.7	-57.0	3.7	0.00e+00	0	45	104	0	76	24450
2026-01-19 20:01:51.39	47.08	9.18	-53.0	-57.5	3.7	0.00e+00	0	45	104	0	76	25804
2026-01-19 20:01:52.44	47.29	9.25	-52.6	-56.8	3.7	0.00e+00	0	45	104	0	76	23828
2026-01-19 20:01:53.36	47.47	9.31	-52.7	-57.1	3.7	0.00e+00	0	45	104	0	76	24580
2026-01-19 20:01:54.50	47.69	9.38	-52.6	-56.9	3.7	0.00e+00	0	45	104	0	76	24020
2026-01-19 20:01:55.35	47.86	9.43	-52.8	-57.2	3.7	0.00e+00	0	45	104	0	76	24840
2026-01-19 20:01:56.69	48.13	9.52	-52.7	-56.9	3.7	0.00e+00	0	45	104	0	76	24170
2026-01-19 20:01:57.41	48.27	9.57	-52.6	-56.7	3.7	0.00e+00	0	45	104	0	76	23473
2026-01-19 20:01:58.69	48.53	9.65	-52.6	-56.5	3.7	0.00e+00	0	45	104	0	76	22927
2026-01-19 20:01:59.43	48.68	9.70	-52.6	-56.6	3.7	0.00e+00	0	45	104	0	76	23257
2026-01-19 20:02:00.70	48.94	9.78	-52.9	-57.2	3.7	0.00e+00	0	45	104	0	76	25085
2026-01-19 20:02:01.49	49.10	9.83	-52.5	-56.4	3.7	0.00e+00	0	45	104	0	76	22775
2026-01-19 20:02:02.69	49.35	9.91	-52.6	-56.7	3.7	0.00e+00	0	45	104	0	76	23561
2026-01-19 20:02:03.55	49.53	9.96	-52.5	-56.4	3.7	0.00e+00	0	45	104	0	76	22829
2026-01-19 20:02:04.68	49.77	10.03	-52.6	-56.6	3.7	0.00e+00	0	45	104	0	76	23294
2026-01-19 20:02:05.71	49.98	10.10	-52.7	-56.7	3.7	0.00e+00	0	45	104	0	76	23549
2026-01-19 20:02:06.70	50.19	10.16	-52.5	-56.3	3.7	0.00e+00	0	45	104	0	76	22467
2026-01-19 20:02:07.70	50.40	10.23	-52.4	-56.3	3.7	0.00e+00	0	45	104	0	76	22417
2026-01-19 20:02:08.69	50.61	10.29	-52.5	-56.3	3.7	0.00e+00	0	45	104	0	76	22536
2026-01-19 20:02:09.69	50.83	10.35	-53.1	-57.5	3.7	0.00e+00	0	45	104	0	76	25778
2026-01-19 20:02:10.69	51.04	10.42	-52.9	-57.1	3.7	0.00e+00	0	45	104	0	77	23212
2026-01-19 20:02:11.68	51.26	10.48	-53.0	-57.3	3.7	0.00e+00	0	45	104	0	77	23804
2026-01-19 20:02:12.68	51.48	10.54	-52.9	-57.0	3.7	0.00e+00	0	45	104	0	77	23069
2026-01-19 20:02:13.67	51.69	10.60	-52.8	-56.9	3.7	0.00e+00	0	45	104	0	77	22774
2026-01-19 20:02:14.67	51.91	10.67	-53.0	-57.3	3.7	0.00e+00	0	45	104	0	77	23856
2026-01-19 20:02:15.66	52.13	10.73	-53.2	-57.7	3.7	0.00e+00	0	45	104	0	77	24915
2026-01-19 20:02:16.66	52.36	10.79	-53.1	-57.7	3.7	0.00e+00	0	45	104	0	77	24863
2026-01-19 20:02:17.65	52.58	10.86	-53.1	-57.6	3.7	0.00e+00	0	45	104	0	77	24800
2026-01-19 20:02:18.65	52.80	10.92	-53.1	-57.5	3.7	0.00e+00	0	45	104	0	77	24432
2026-01-19 20:02:19.64	53.03	10.98	-53.0	-57.4	3.7	0.00e+00	0	45	104	0	77	24140
2026-01-19 20:02:20.64	53.25	11.04	-53.1	-57.6	3.7	0.00e+00	0	46	104	0	77	24617
2026-01-19 20:02:21.74	53.50	11.11	-53.2	-57.7	3.7	0.00e+00	0	46	104	0	77	24968
2026-01-19 20:02:22.62	53.71	11.17	-53.2	-57.7	3.7	0.00e+00	0	45	104	0	77	24879
2026-01-19 20:02:23.76	53.97	11.24	-53.3	-57.8	3.7	0.00e+00	0	45	104	0	77	25140
2026-01-19 20:02:24.62	54.17	11.29	-53.3	-57.7	3.7	0.00e+00	0	45	104	0	77	25038
2026-01-19 20:02:25.97	54.48	11.37	-53.4	-57.8	3.7	0.00e+00	0	46	104	0	77	25353
2026-01-19 20:02:26.68	54.65	11.42	-53.4	-57.8	3.7	0.00e+00	0	45	104	0	77	25245
2026-01-19 20:02:28.15	55.00	11.51	-53.3	-57.7	3.7	0.00e+00	0	46	104	0	77	24890
2026-01-19 20:02:29.12	55.23	11.57	-53.3	-57.9	3.7	0.00e+00	0	46	104	0	77	25435
2026-01-19 20:02:30.11	55.46	11.63	-53.1	-57.7	3.7	0.00e+00	0	46	104	0	77	24910
2026-01-19 20:02:31.11	55.70	11.69	-53.2	-57.7	3.7	0.00e+00	0	45	104	0	77	25014
2026-01-19 20:02:32.10	55.94	11.75	-53.1	-57.6	3.7	0.00e+00	0	45	104	0	77	24779
2026-01-19 20:02:33.09	56.18	11.81	-53.2	-57.8	3.7	0.00e+00	0	46	104	0	77	25363
2026-01-19 20:02:34.09	56.42	11.87	-53.4	-57.9	3.7	0.00e+00	0	46	104	0	77	25667
2026-01-19 20:02:35.08	56.66	11.93	-53.2	-57.8	3.7	0.00e+00	0	46	104	0	77	25335
2026-01-19 20:02:36.08	56.91	11.99	-53.4	-57.9	3.7	0.00e+00	0	46	104	0	77	25487
2026-01-19 20:02:37.07	57.15	12.05	-53.3	-57.9	3.7	0.00e+00	0	46	104	0	77	25454
2026-01-19 20:02:38.16	57.42	12.11	-53.1	-57.7	3.7	0.00e+00	0	46	104	0	77	25002
2026-01-19 20:02:39.02	57.64	12.16	-53.2	-57.8	3.7	0.00e+00	0	46	104	0	77	25111
2026-01-19 20:02:40.15	57.92	12.23	-53.1	-57.7	3.7	0.00e+00	0	46	104	0	77	25092
2026-01-19 20:02:41.13	58.17	12.28	-53.1	-57.5	3.7	0.00e+00	0	46	104	0	77	24440
2026-01-19 20:02:42.13	58.42	12.34	-53.2	-57.4	3.7	0.00e+00	0	46	104	0	77	24030
2026-01-19 20:02:43.12	58.67	12.40	-53.1	-57.6	3.7	0.00e+00	0	46	104	0	77	24661
2026-01-19 20:02:44.11	58.92	12.46	-53.3	-57.6	3.7	0.00e+00	0	46	104	0	77	24771
2026-01-19 20:02:45.11	59.18	12.52	-53.2	-57.5	3.7	0.00e+00	0	46	104	0	77	24506
2026-01-19 20:02:46.11	59.44	12.57	-52.7	-57.1	3.7	0.00e+00	0	46	104	0	77	23216
2026-01-19 20:02:47.43	59.78	12.65	-52.8	-57.3	3.7	0.00e+00	0	46	104	0	77	23797
2026-01-19 20:02:48.17	59.97	12.69	-52.6	-57.2	3.7	0.00e+00	0	46	104	0	77	23637
2026-01-19 20:02:49.77	60.39	12.78	-52.7	-57.4	3.7	0.00e+00	0	46	104	0	77	23972
2026-01-19 20:02:50.34	60.54	12.81	-52.8	-57.4	3.7	0.00e+00	0	46	104	0	77	24007
2026-01-19 20:02:52.25	61.04	12.92	-53.0	-57.3	3.7	0.00e+00	0	46	104	0	77	23930
2026-01-19 20:02:52.82	61.20	12.95	-53.0	-57.4	3.7	0.00e+00	0	46	104	0	77	24047
2026-01-19 20:02:54.52	61.65	13.04	-53.1	-57.5	3.7	0.00e+00	0	46	104	0	77	24389
2026-01-19 20:02:55.09	61.80	13.08	-53.1	-57.5	3.7	0.00e+00	0	46	104	0	77	24464
2026-01-19 20:02:56.79	62.26	13.17	-53.0	-57.6	3.7	0.00e+00	0	46	104	0	77	24722
2026-01-19 20:02:57.37	62.42	13.20	-52.9	-57.6	3.7	0.00e+00	0	46	104	0	77	24776
2026-01-19 20:02:59.07	62.88	13.29	-53.5	-58.0	3.7	0.00e+00	0	46	104	0	77	25750
2026-01-19 20:02:59.64	63.04	13.32	-53.4	-57.9	3.7	0.00e+00	0	46	104	0	77	25623
2026-01-19 20:03:01.34	63.51	13.41	-53.4	-57.9	3.7	0.00e+00	0	46	104	0	77	25659
2026-01-19 20:03:01.93	63.67	13.44	-53.2	-57.8	3.7	0.00e+00	0	46	104	0	77	25201
2026-01-19 20:03:03.49	64.10	13.52	-53.1	-57.7	3.7	0.00e+00	0	46	104	0	77	24876
2026-01-19 20:03:04.13	64.28	13.55	-53.1	-57.7	3.7	0.00e+00	0	46	104	0	77	24946
2026-01-19 20:03:05.55	64.68	13.62	-53.2	-57.8	3.7	0.00e+00	0	46	104	0	77	25290
2026-01-19 20:03:06.27	64.88	13.66	-53.3	-57.9	3.7	0.00e+00	0	46	104	0	77	25568
2026-01-19 20:03:07.54	65.24	13.72	-53.3	-57.8	3.7	0.00e+00	0	46	104	0	77	25281
2026-01-19 20:03:08.28	65.45	13.76	-53.2	-57.7	3.7	0.00e+00	0	46	104	0	77	24950
2026-01-19 20:03:09.57	65.82	13.82	-53.4	-57.9	3.7	0.00e+00	0	46	104	0	77	25429
2026-01-19 20:03:10.29	66.03	13.86	-53.3	-57.8	3.7	0.00e+00	0	46	104	0	77	25194
2026-01-19 20:03:11.57	66.39	13.92	-53.1	-57.6	3.7	0.00e+00	0	46	104	0	77	24747
2026-01-19 20:03:12.28	66.60	13.96	-53.1	-57.6	3.7	0.00e+00	0	46	104	0	77	24760
2026-01-19 20:03:13.56	66.97	14.02	-53.0	-57.6	3.7	0.00e+00	0	46	104	0	77	24683
2026-01-19 20:03:14.27	67.17	14.05	-53.2	-57.7	3.7	0.00e+00	0	46	104	0	77	24821
2026-01-19 20:03:15.55	67.55	14.11	-53.3	-57.9	3.7	0.00e+00	0	46	104	0	77	25427
2026-01-19 20:03:16.26	67.76	14.14	-53.2	-57.8	3.7	0.00e+00	0	46	104	0	77	25120
2026-01-19 20:03:17.54	68.13	14.20	-53.4	-58.0	3.7	0.00e+00	0	46	104	0	77	25691
2026-01-19 20:03:18.25	68.34	14.23	-53.5	-58.0	3.7	0.00e+00	0	46	104	0	77	25688
2026-01-19 20:03:19.56	68.73	14.29	-53.5	-58.0	3.7	0.00e+00	0	46	104	0	77	25926
2026-01-19 20:03:20.27	68.94	14.32	-53.5	-58.0	3.7	0.00e+00	0	46	104	0	77	25785
2026-01-19 20:03:21.55	69.32	14.38	-53.4	-58.0	3.7	0.00e+00	0	46	104	0	77	25833
2026-01-19 20:03:22.26	69.53	14.41	-53.4	-57.9	3.7	0.00e+00	0	46	104	0	77	25539
2026-01-19 20:03:23.65	69.95	14.46	-53.3	-57.8	3.7	0.00e+00	0	46	104	0	77	25265
2026-01-19 20:03:24.36	70.16	14.49	-53.3	-57.8	3.7	0.00e+00	0	46	104	0	77	25322
2026-01-19 20:03:25.64	70.55	14.55	-53.2	-57.7	3.7	0.00e+00	0	46	104	0	77	24822
2026-01-19 20:03:26.68	70.87	14.59	-53.3	-57.8	3.7	0.00e+00	0	46	104	0	77	25180
2026-01-19 20:03:27.68	71.17	14.63	-53.2	-57.7	3.7	0.00e+00	0	46	104	0	77	25051
2026-01-19 20:03:28.67	71.47	14.67	-53.3	-57.9	3.7	0.00e+00	0	46	104	0	77	25490
2026-01-19 20:03:29.67	71.78	14.71	-53.6	-58.0	3.7	0.00e+00	0	46	104	0	77	25872
2026-01-19 20:03:30.66	72.08	14.74	-53.5	-58.0	3.7	0.00e+00	0	46	104	0	77	25851
2026-01-19 20:03:31.65	72.39	14.78	-53.4	-57.9	3.7	0.00e+00	0	46	104	0	77	25624
2026-01-19 20:03:32.65	72.70	14.82	-53.3	-57.8	3.7	0.00e+00	0	46	104	0	77	25330
2026-01-19 20:03:33.69	73.02	14.86	-53.4	-58.0	3.7	0.00e+00	0	46	104	0	77	25970
2026-01-19 20:03:34.64	73.31	14.89	-53.3	-58.0	3.7	0.00e+00	0	47	104	0	77	25691
2026-01-19 20:03:35.63	73.62	14.92	-53.3	-58.0	3.7	0.00e+00	0	46	104	0	77	25687
2026-01-19 20:03:36.63	73.93	14.96	-53.2	-57.8	3.7	0.00e+00	0	46	104	0	77	25337
2026-01-19 20:03:37.62	74.24	14.99	-53.3	-57.9	3.7	0.00e+00	0	46	104	0	77	25448
2026-01-19 20:03:38.62	74.56	15.03	-53.4	-57.8	3.7	0.00e+00	0	46	104	0	77	25303
2026-01-19 20:03:39.61	74.87	15.06	-53.3	-57.9	3.7	0.00e+00	0	46	104	0	77	25400
2026-01-19 20:03:40.61	75.19	15.09	-53.3	-57.8	3.7	0.00e+00	0	46	104	0	77	25203
2026-01-19 20:03:41.61	75.50	15.12	-53.3	-57.8	3.7	0.00e+00	0	46	104	0	77	25219
2026-01-19 20:03:42.60	75.82	15.15	-53.1	-57.8	3.7	0.00e+00	0	46	104	0	77	25320
2026-01-19 20:03:43.60	76.14	15.18	-53.1	-57.8	3.7	0.00e+00	0	46	104	0	77	25167
2026-01-19 20:03:44.60	76.45	15.21	-53.2	-57.8	3.7	0.00e+00	0	46	104	0	77	25279
2026-01-19 20:03:45.59	76.77	15.24	-53.5	-58.0	3.7	0.00e+00	0	46	104	0	77	25778
2026-01-19 20:03:46.58	77.09	15.27	-53.4	-57.9	3.7	0.00e+00	0	46	104	0	77	25625
2026-01-19 20:03:47.58	77.41	15.29	-53.4	-58.0	3.7	0.00e+00	0	46	104	0	77	25732
2026-01-19 20:03:48.57	77.73	15.32	-53.3	-57.9	3.7	0.00e+00	0	46	104	0	77	25610
2026-01-19 20:03:49.56	78.05	15.34	-53.1	-57.7	3.7	0.00e+00	0	46	104	0	77	24903
2026-01-19 20:03:50.56	78.37	15.37	-53.2	-57.6	3.7	0.00e+00	0	46	104	0	77	24612
2026-01-19 20:03:51.55	78.69	15.39	-53.2	-57.6	3.7	0.00e+00	0	46	104	0	77	24768
2026-01-19 20:03:52.55	79.01	15.42	-53.1	-57.6	3.7	0.00e+00	0	46	104	0	77	24739
2026-01-19 20:03:53.54	79.34	15.44	-53.4	-57.9	3.7	0.00e+00	0	46	104	0	77	25646
2026-01-19 20:03:54.54	79.66	15.46	-53.3	-57.9	3.7	0.00e+00	0	46	104	0	77	25524
2026-01-19 20:03:55.53	79.98	15.48	-53.2	-57.9	3.7	0.00e+00	0	46	104	0	77	25396
2026-01-19 20:03:56.52	80.31	15.50	-53.1	-57.8	3.7	0.00e+00	0	46	104	0	77	25129
2026-01-19 20:03:57.52	80.63	15.52	-52.7	-57.7	3.7	0.00e+00	0	46	104	0	77	24882
2026-01-19 20:03:58.51	80.96	15.54	-52.6	-57.3	3.7	0.00e+00	0	46	104	0	77	23718
2026-01-19 20:03:59.51	81.29	15.56	-52.6	-57.2	3.7	0.00e+00	0	46	104	0	77	23671
2026-01-19 20:04:00.50	81.61	15.58	-52.6	-57.3	3.7	0.00e+00	0	46	104	0	77	23723
2026-01-19 20:04:01.50	81.94	15.59	-53.0	-57.3	3.7	0.00e+00	0	46	104	0	77	23843
2026-01-19 20:04:02.49	82.27	15.61	-53.1	-57.6	3.7	0.00e+00	0	46	104	0	77	24540
2026-01-19 20:04:03.49	82.60	15.63	-52.8	-57.5	3.7	0.00e+00	0	46	104	0	77	24377
2026-01-19 20:04:04.48	82.92	15.64	-52.7	-57.4	3.7	0.00e+00	0	46	104	0	77	24008
2026-01-19 20:04:05.48	83.26	15.65	-52.5	-57.4	3.7	0.00e+00	0	46	104	0	77	24127
2026-01-19 20:04:06.48	83.59	15.67	-52.6	-57.3	3.7	0.00e+00	0	46	104	0	77	23931
2026-01-19 20:04:07.47	83.91	15.68	-52.7	-57.4	3.7	0.00e+00	0	46	104	0	77	23983
2026-01-19 20:04:08.47	84.25	15.69	-52.7	-57.3	3.7	0.00e+00	0	46	104	0	77	23872
2026-01-19 20:04:09.46	84.57	15.70	-52.8	-57.5	3.7	0.00e+00	0	46	104	0	77	24303
2026-01-19 20:04:10.46	84.91	15.71	-52.4	-56.7	3.7	0.00e+00	0	46	104	0	76	23616
2026-01-19 20:04:11.45	85.24	15.72	-52.5	-56.7	3.7	0.00e+00	0	46	104	0	76	23551
2026-01-19 20:04:12.45	85.57	15.73	-52.5	-56.8	3.7	0.00e+00	0	47	104	0	76	23828
2026-01-19 20:04:13.44	85.90	15.73	-52.6	-56.7	3.7	0.00e+00	0	46	104	0	76	23635
2026-01-19 20:04:14.44	86.23	15.74	-52.9	-57.4	3.7	0.00e+00	0	46	104	0	76	25407
2026-01-19 20:04:15.43	86.56	15.75	-53.0	-57.6	3.7	0.00e+00	0	46	104	0	76	26096
2026-01-19 20:04:16.43	86.90	15.75	-53.1	-57.7	3.7	0.00e+00	0	47	104	0	76	26301
2026-01-19 20:04:17.42	87.23	15.76	-53.2	-57.6	3.7	0.00e+00	0	46	104	0	77	24792
2026-01-19 20:04:18.47	87.58	15.76	-52.9	-57.4	3.7	0.00e+00	0	46	104	0	77	24199
2026-01-19 20:04:19.44	87.90	15.76	-52.9	-57.4	3.7	0.00e+00	0	46	104	0	77	24222
2026-01-19 20:04:20.52	88.26	15.76	-52.9	-57.4	3.7	0.00e+00	0	46	104	0	77	24144
2026-01-19 20:04:21.37	88.54	15.76	-53.0	-57.6	3.7	0.00e+00	0	46	104	0	77	24782
2026-01-19 20:04:22.51	88.93	15.76	-53.2	-57.8	3.7	0.00e+00	0	46	104	0	77	25381
2026-01-19 20:04:23.36	89.21	15.76	-53.2	-57.8	3.7	0.00e+00	0	46	104	0	77	25384
2026-01-19 20:04:24.50	89.59	15.76	-53.3	-57.9	3.7	0.00e+00	0	46	104	0	77	25504
2026-01-19 20:04:25.35	89.87	15.76	-53.3	-57.9	3.7	0.00e+00	0	46	104	0	77	25477
2026-01-19 20:04:26.49	90.25	15.76	-53.3	-57.9	3.7	0.00e+00	0	46	104	0	77	25405
2026-01-19 20:04:27.34	90.54	15.75	-53.4	-57.9	3.7	0.00e+00	0	46	104	0	77	25662
2026-01-19 20:04:28.48	90.92	15.75	-53.5	-58.0	3.7	0.00e+00	0	46	104	0	77	25714
2026-01-19 20:04:29.33	91.20	15.74	-53.5	-58.0	3.7	0.00e+00	0	46	104	0	77	25902
2026-01-19 20:04:30.47	91.58	15.74	-53.4	-58.0	3.7	0.00e+00	0	46	104	0	77	25680
2026-01-19 20:04:31.32	91.87	15.73	-53.5	-57.9	3.7	0.00e+00	0	46	104	0	77	25668
2026-01-19 20:04:32.46	92.24	15.72	-53.4	-58.0	3.7	0.00e+00	0	46	104	0	77	25685
2026-01-19 20:04:33.31	92.53	15.71	-53.3	-57.8	3.7	0.00e+00	0	46	104	0	77	25235
2026-01-19 20:04:34.45	92.91	15.70	-53.5	-57.9	3.7	0.00e+00	0	46	104	0	77	25589
2026-01-19 20:04:35.30	93.19	15.69	-53.4	-57.8	3.7	0.00e+00	0	47	104	0	77	25361
2026-01-19 20:04:36.58	93.61	15.68	-53.4	-57.8	3.7	0.00e+00	0	46	104	0	77	25324
2026-01-19 20:04:37.30	93.85	15.67	-53.4	-57.8	3.7	0.00e+00	0	46	104	0	77	25141
2026-01-19 20:04:38.58	94.28	15.65	-53.5	-57.8	3.7	0.00e+00	0	46	104	0	77	25166
2026-01-19 20:04:39.30	94.52	15.64	-53.5	-57.7	3.7	0.00e+00	0	46	104	0	77	24923
2026-01-19 20:04:40.58	94.94	15.63	-53.4	-57.6	3.7	0.00e+00	0	46	104	0	77	24757
2026-01-19 20:04:41.30	95.18	15.61	-53.3	-57.6	3.7	0.00e+00	0	46	104	0	77	24697
2026-01-19 20:04:42.58	95.60	15.59	-53.5	-57.9	3.7	0.00e+00	0	46	104	0	77	25617
2026-01-19 20:04:43.29	95.83	15.58	-53.5	-58.0	3.7	0.00e+00	0	47	104	0	77	25747
2026-01-19 20:04:44.57	96.26	15.56	-53.5	-58.0	3.7	0.00e+00	0	46	104	0	77	25800
2026-01-19 20:04:45.30	96.50	15.55	-53.5	-57.9	3.7	0.00e+00	0	46	104	0	77	25669
2026-01-19 20:04:46.58	96.92	15.52	-53.4	-57.7	3.7	0.00e+00	0	46	104	0	77	25079
2026-01-19 20:04:47.29	97.15	15.51	-53.5	-57.8	3.7	0.00e+00	0	46	104	0	77	25127
2026-01-19 20:04:48.57	97.57	15.48	-53.5	-57.8	3.7	0.00e+00	0	46	104	0	77	25277
2026-01-19 20:04:49.28	97.80	15.47	-53.5	-57.7	3.7	0.00e+00	0	46	104	0	77	25008
2026-01-19 20:04:50.67	98.25	15.44	-53.6	-57.9	3.7	0.00e+00	0	46	104	0	77	25558
2026-01-19 20:04:51.38	98.49	15.42	-53.6	-57.9	3.7	0.00e+00	0	46	104	0	77	25609
2026-01-19 20:04:52.66	98.90	15.39	-53.5	-57.9	3.7	0.00e+00	0	46	104	0	77	25484
2026-01-19 20:04:53.36	99.13	15.37	-53.6	-57.9	3.7	0.00e+00	0	46	104	0	77	25649
2026-01-19 20:04:54.76	99.58	15.34	-53.6	-58.0	3.7	0.00e+00	0	47	104	0	77	25781
2026-01-19 20:04:55.47	99.81	15.32	-53.6	-58.0	3.7	0.00e+00	0	46	104	0	77	25680
2026-01-19 20:04:56.75	100.22	15.28	-53.6	-57.9	3.7	0.00e+00	0	46	104	0	77	25622
2026-01-19 20:04:57.46	100.45	15.27	-53.6	-57.9	3.7	0.00e+00	0	47	104	0	77	25620
2026-01-19 20:04:58.74	100.86	15.23	-53.6	-58.0	3.7	0.00e+00	0	46	104	0	77	25853
2026-01-19 20:04:59.46	101.10	15.21	-53.6	-58.0	3.7	0.00e+00	0	47	104	0	77	25933
2026-01-19 20:05:00.74	101.50	15.17	-53.6	-58.0	3.7	0.00e+00	0	47	104	0	77	25948
2026-01-19 20:05:01.45	101.73	15.15	-53.6	-58.1	3.7	0.00e+00	0	46	104	0	77	25993
2026-01-19 20:05:02.74	102.14	15.11	-53.6	-58.0	3.7	0.00e+00	0	46	104	0	77	25964
2026-01-19 20:05:03.45	102.37	15.09	-53.5	-58.0	3.7	0.00e+00	0	46	104	0	77	25859
2026-01-19 20:05:04.72	102.77	15.05	-53.5	-58.0	3.7	0.00e+00	0	46	104	0	77	25749
2026-01-19 20:05:05.45	103.00	15.02	-53.6	-58.0	3.7	0.00e+00	0	46	104	0	77	25945
2026-01-19 20:05:06.73	103.40	14.98	-53.6	-58.0	3.7	0.00e+00	0	46	104	0	77	25893
2026-01-19 20:05:07.60	103.68	14.95	-53.6	-58.0	3.7	0.00e+00	0	46	104	0	77	25905
2026-01-19 20:05:09.02	104.12	14.90	-53.6	-58.1	3.7	0.00e+00	0	46	104	0	77	26084
2026-01-19 20:05:09.73	104.34	14.88	-53.6	-58.0	3.7	0.00e+00	0	46	104	0	77	25904
2026-01-19 20:05:11.22	104.81	14.82	-53.5	-58.0	3.7	0.00e+00	0	47	104	0	77	25878
2026-01-19 20:05:11.92	105.03	14.80	-53.4	-57.9	3.7	0.00e+00	0	46	104	0	77	25580
2026-01-19 20:05:13.25	105.44	14.75	-53.5	-58.0	3.7	0.00e+00	0	46	104	0	77	25813
2026-01-19 20:05:13.96	105.66	14.72	-53.5	-58.0	3.7	0.00e+00	0	47	104	0	77	25689
2026-01-19 20:05:15.24	106.05	14.67	-53.4	-57.9	3.7	0.00e+00	0	46	104	0	77	25505
2026-01-19 20:05:15.95	106.27	14.64	-53.4	-57.9	3.7	0.00e+00	0	46	104	0	77	25451
2026-01-19 20:05:17.23	106.66	14.59	-53.3	-57.9	3.7	0.00e+00	0	46	104	0	77	25436
2026-01-19 20:05:17.96	106.88	14.56	-53.2	-57.8	3.7	0.00e+00	0	47	104	0	77	25268
2026-01-19 20:05:19.24	107.27	14.51	-53.4	-57.9	3.7	0.00e+00	0	47	104	0	77	25604
2026-01-19 20:05:19.95	107.49	14.48	-53.1	-57.7	3.7	0.00e+00	0	47	104	0	77	24899
2026-01-19 20:05:21.23	107.87	14.43	-53.5	-58.0	3.7	0.00e+00	0	47	104	0	77	25747
2026-01-19 20:05:21.94	108.09	14.39	-53.5	-57.9	3.7	0.00e+00	0	47	104	0	77	25528
2026-01-19 20:05:23.22	108.47	14.34	-53.6	-58.0	3.7	0.00e+00	0	46	104	0	77	25936
2026-01-19 20:05:23.93	108.68	14.31	-53.5	-57.9	3.7	0.00e+00	0	46	104	0	77	25470
2026-01-19 20:05:25.21	109.06	14.25	-53.6	-58.0	3.7	0.00e+00	0	47	104	0	77	25933
2026-01-19 20:05:25.92	109.28	14.22	-53.6	-58.0	3.7	0.00e+00	0	47	104	0	77	25788
2026-01-19 20:05:27.20	109.65	14.16	-53.4	-57.9	3.7	0.00e+00	0	46	104	0	77	25560
2026-01-19 20:05:27.91	109.86	14.13	-53.4	-57.8	3.7	0.00e+00	0	46	104	0	77	25348
2026-01-19 20:05:29.25	110.26	14.07	-53.4	-57.9	3.7	0.00e+00	0	46	104	0	77	25602
2026-01-19 20:05:29.96	110.46	14.03	-53.5	-57.9	3.7	0.00e+00	0	47	104	0	77	25623
2026-01-19 20:05:31.24	110.84	13.97	-53.0	-57.7	3.7	0.00e+00	0	46	104	0	77	24993
2026-01-19 20:05:31.95	111.04	13.94	-53.3	-57.8	3.7	0.00e+00	0	46	104	0	77	25249
2026-01-19 20:05:33.23	111.41	13.88	-52.9	-57.6	3.7	0.00e+00	0	47	104	0	77	24672
2026-01-19 20:05:33.95	111.62	13.84	-52.8	-57.5	3.7	0.00e+00	0	47	104	0	77	24391
2026-01-19 20:05:35.23	111.99	13.78	-53.3	-57.9	3.7	0.00e+00	0	47	104	0	77	25461
2026-01-19 20:05:35.96	112.20	13.74	-53.0	-57.6	3.7	0.00e+00	0	47	104	0	77	24576
2026-01-19 20:05:37.24	112.56	13.68	-53.2	-57.8	3.7	0.00e+00	0	47	104	0	77	25281
2026-01-19 20:05:37.96	112.77	13.64	-53.4	-57.9	3.7	0.00e+00	0	47	104	0	77	25672
2026-01-19 20:05:39.24	113.13	13.58	-53.5	-58.0	3.7	0.00e+00	0	46	104	0	77	25869
2026-01-19 20:05:39.95	113.33	13.54	-53.5	-57.9	3.7	0.00e+00	0	47	104	0	77	25567
2026-01-19 20:05:41.23	113.69	13.47	-53.5	-57.9	3.7	0.00e+00	0	47	104	0	77	25567
2026-01-19 20:05:41.96	113.89	13.44	-53.5	-57.9	3.7	0.00e+00	0	47	104	0	77	25596
2026-01-19 20:05:43.24	114.25	13.37	-53.4	-57.8	3.7	0.00e+00	0	47	104	0	77	25302
2026-01-19 20:05:43.96	114.45	13.33	-53.4	-57.8	3.7	0.00e+00	0	47	104	0	77	25201
2026-01-19 20:05:45.24	114.80	13.26	-53.3	-57.8	3.7	0.00e+00	0	47	104	0	77	25173
2026-01-19 20:05:45.95	114.99	13.22	-53.5	-57.9	3.7	0.00e+00	0	47	104	0	77	25568
2026-01-19 20:05:47.23	115.34	13.16	-53.5	-58.0	3.7	0.00e+00	0	47	104	0	77	25686
2026-01-19 20:05:47.94	115.54	13.12	-53.4	-57.8	3.7	0.00e+00	0	47	104	0	77	25238
2026-01-19 20:05:49.29	115.90	13.04	-53.5	-57.9	3.7	0.00e+00	0	47	104	0	77	25532
2026-01-19 20:05:50.00	116.09	13.00	-53.5	-57.9	3.7	0.00e+00	0	47	104	0	77	25564
2026-01-19 20:05:51.28	116.44	12.93	-53.3	-57.8	3.7	0.00e+00	0	47	104	0	77	25322
2026-01-19 20:05:52.00	116.63	12.89	-53.4	-57.8	3.7	0.00e+00	0	46	104	0	77	25272
2026-01-19 20:05:53.28	116.97	12.82	-53.3	-57.8	3.7	0.00e+00	0	47	104	0	77	25180
2026-01-19 20:05:54.01	117.16	12.78	-53.3	-57.8	3.7	0.00e+00	0	47	104	0	77	25178
2026-01-19 20:05:55.29	117.50	12.71	-53.3	-57.8	3.7	0.00e+00	0	47	104	0	77	25124
2026-01-19 20:05:55.99	117.69	12.67	-53.2	-57.7	3.7	0.00e+00	0	47	104	0	77	24940
2026-01-19 20:05:57.29	118.03	12.59	-53.3	-57.8	3.7	0.00e+00	0	47	104	0	77	25170
2026-01-19 20:05:58.01	118.21	12.55	-53.4	-57.8	3.7	0.00e+00	0	46	104	0	77	25346
2026-01-19 20:05:59.29	118.54	12.48	-53.4	-57.9	3.7	0.00e+00	0	47	104	0	77	25393
2026-01-19 20:06:00.02	118.73	12.43	-53.4	-57.8	3.7	0.00e+00	0	46	104	0	77	25198
2026-01-19 20:06:01.30	119.06	12.36	-53.3	-57.8	3.7	0.00e+00	0	47	104	0	77	25215
2026-01-19 20:06:02.02	119.24	12.32	-53.4	-57.8	3.7	0.00e+00	0	47	104	0	77	25337
2026-01-19 20:06:03.30	119.57	12.24	-53.2	-57.7	3.7	0.00e+00	0	46	104	0	77	24883
2026-01-19 20:06:04.01	119.75	12.20	-53.3	-57.7	3.7	0.00e+00	0	46	104	0	77	24964
2026-01-19 20:06:05.29	120.07	12.12	-53.2	-57.7	3.7	0.00e+00	0	46	104	0	77	24969
2026-01-19 20:06:06.02	120.25	12.08	-53.2	-57.7	3.7	0.00e+00	0	47	104	0	77	24882
2026-01-19 20:06:07.30	120.57	12.00	-53.0	-57.6	3.7	0.00e+00	0	47	104	0	77	24538
2026-01-19 20:06:08.02	120.75	11.96	-53.0	-57.5	3.7	0.00e+00	0	47	104	0	77	24458
2026-01-19 20:06:09.30	121.07	11.88	-53.1	-57.6	3.7	0.00e+00	0	47	104	0	77	24696
2026-01-19 20:06:10.03	121.25	11.84	-53.2	-57.6	3.7	0.00e+00	0	47	104	0	77	24754
2026-01-19 20:06:11.31	121.56	11.76	-53.3	-57.8	3.7	0.00e+00	0	46	104	0	77	25160
2026-01-19 20:06:12.02	121.73	11.72	-53.2	-57.7	3.7	0.00e+00	0	47	104	0	77	24833
2026-01-19 20:06:13.30	122.04	11.64	-53.3	-57.8	3.7	0.00e+00	0	47	104	0	77	25172
2026-01-19 20:06:14.01	122.21	11.59	-53.4	-57.8	3.7	0.00e+00	0	47	104	0	77	25206
2026-01-19 20:06:15.29	122.52	11.52	-53.3	-57.7	3.7	0.00e+00	0	47	104	0	77	24878
2026-01-19 20:06:16.17	122.73	11.46	-53.2	-57.7	3.7	0.00e+00	0	46	104	0	77	24971
2026-01-19 20:06:17.60	123.07	11.37	-53.3	-57.7	3.7	0.00e+00	0	47	104	0	77	24918
2026-01-19 20:06:18.31	123.23	11.33	-53.3	-57.8	3.7	0.00e+00	0	47	104	0	77	25145
2026-01-19 20:06:19.60	123.54	11.25	-53.3	-57.8	3.7	0.00e+00	0	47	104	0	77	25171
2026-01-19 20:06:20.31	123.70	11.20	-53.3	-57.8	3.7	0.00e+00	0	46	104	0	77	25133
2026-01-19 20:06:21.59	124.00	11.12	-53.3	-57.7	3.7	0.00e+00	0	47	104	0	77	25063
2026-01-19 20:06:22.30	124.16	11.08	-53.2	-57.7	3.7	0.00e+00	0	47	104	0	77	24929
2026-01-19 20:06:23.58	124.46	11.00	-53.2	-57.6	3.7	0.00e+00	0	47	104	0	77	24789
2026-01-19 20:06:24.32	124.63	10.95	-53.2	-57.7	3.7	0.00e+00	0	47	104	0	77	24888
2026-01-19 20:06:25.60	124.92	10.87	-53.2	-57.6	3.7	0.00e+00	0	47	104	0	77	24686
2026-01-19 20:06:26.31	125.08	10.83	-53.2	-57.6	3.7	0.00e+00	0	47	104	0	77	24712
2026-01-19 20:06:27.59	125.37	10.74	-53.2	-57.6	3.7	0.00e+00	0	47	104	0	77	24619
2026-01-19 20:06:28.49	125.57	10.69	-53.2	-57.6	3.7	0.00e+00	0	47	104	0	77	24590
2026-01-19 20:06:29.59	125.81	10.62	-53.3	-57.8	3.7	0.00e+00	0	46	104	0	77	25162
2026-01-19 20:06:30.44	126.00	10.56	-53.4	-57.8	3.7	0.00e+00	0	46	104	0	77	25267
2026-01-19 20:06:31.58	126.25	10.49	-53.3	-57.7	3.7	0.00e+00	0	46	104	0	77	24963
2026-01-19 20:06:32.43	126.44	10.44	-53.3	-57.7	3.7	0.00e+00	0	47	104	0	77	25059
2026-01-19 20:06:33.57	126.69	10.36	-52.9	-57.4	3.7	0.00e+00	0	47	104	0	77	24087
2026-01-19 20:06:34.42	126.87	10.31	-52.8	-57.4	3.7	0.00e+00	0	47	104	0	77	24103
2026-01-19 20:06:35.56	127.12	10.23	-52.6	-57.2	3.7	0.00e+00	0	47	104	0	77	23617
2026-01-19 20:06:36.41	127.30	10.18	-52.6	-57.2	3.7	0.00e+00	0	47	104	0	77	23586
2026-01-19 20:06:37.55	127.54	10.11	-52.5	-57.2	3.7	0.00e+00	0	47	104	0	77	23684
2026-01-19 20:06:38.40	127.72	10.05	-52.6	-57.3	3.6	0.00e+00	0	47	104	0	76	25124
2026-01-19 20:06:39.54	127.96	9.98	-52.5	-57.2	3.7	0.00e+00	0	46	104	0	76	24839
2026-01-19 20:06:40.39	128.14	9.92	-52.4	-57.2	3.7	0.00e+00	0	46	104	0	76	24819
2026-01-19 20:06:41.53	128.38	9.85	-52.7	-57.2	3.7	0.00e+00	0	46	104	0	76	25044
2026-01-19 20:06:42.38	128.56	9.79	-52.8	-57.3	3.7	0.00e+00	0	46	104	0	76	25274
2026-01-19 20:06:43.52	128.79	9.72	-52.9	-57.4	3.7	0.00e+00	0	46	104	0	76	25448
2026-01-19 20:06:44.37	128.97	9.67	-52.7	-57.2	3.7	0.00e+00	0	47	104	0	76	25050
2026-01-19 20:06:45.50	129.20	9.59	-53.0	-57.4	3.7	0.00e+00	0	47	104	0	76	25476
2026-01-19 20:06:46.36	129.37	9.54	-53.0	-57.5	3.7	0.00e+00	0	46	104	0	77	24259
2026-01-19 20:06:47.49	129.60	9.46	-52.9	-57.4	3.7	0.00e+00	0	47	104	0	77	23968
2026-01-19 20:06:48.35	129.77	9.41	-53.0	-57.4	3.7	0.00e+00	0	47	104	0	77	24152
2026-01-19 20:06:49.48	130.00	9.33	-52.6	-57.1	3.7	0.00e+00	0	46	104	0	77	23239
2026-01-19 20:06:50.33	130.17	9.28	-52.8	-57.2	3.7	0.00e+00	0	47	104	0	77	23515
2026-01-19 20:06:51.47	130.40	9.20	-52.7	-57.1	3.7	0.00e+00	0	46	104	0	77	23384
2026-01-19 20:06:52.32	130.56	9.15	-52.6	-57.1	3.7	0.00e+00	0	47	104	0	77	23255
2026-01-19 20:06:53.46	130.79	9.07	-52.6	-57.1	3.7	0.00e+00	0	47	104	0	76	24551
2026-01-19 20:06:54.31	130.95	9.02	-52.8	-57.3	3.7	0.00e+00	0	46	104	0	76	25102
2026-01-19 20:06:55.45	131.17	8.94	-53.1	-57.5	3.7	0.00e+00	0	46	104	0	77	24376
2026-01-19 20:06:56.30	131.34	8.89	-53.4	-57.9	3.7	0.00e+00	0	46	104	0	77	25510
2026-01-19 20:06:57.44	131.56	8.81	-53.4	-58.0	3.7	0.00e+00	0	47	104	0	77	25731
2026-01-19 20:06:58.29	131.72	8.76	-53.6	-58.1	3.7	0.00e+00	0	47	104	0	78	24552
2026-01-19 20:06:59.42	131.93	8.69	-53.9	-58.3	3.7	0.00e+00	0	47	104	0	78	25285
2026-01-19 20:07:00.27	132.09	8.63	-53.4	-58.1	3.7	0.00e+00	0	47	104	0	78	24744
2026-01-19 20:07:01.41	132.31	8.56	-53.8	-58.3	3.7	0.00e+00	0	47	104	0	78	25335
2026-01-19 20:07:02.26	132.46	8.50	-53.9	-58.4	3.7	0.00e+00	0	47	104	0	78	25540
2026-01-19 20:07:03.44	132.68	8.42	-54.0	-58.4	3.7	0.00e+00	0	46	104	0	78	25556
2026-01-19 20:07:04.29	132.84	8.37	-54.0	-58.5	3.7	0.00e+00	0	46	104	0	78	25720
2026-01-19 20:07:05.51	133.06	8.29	-53.8	-58.3	3.7	0.00e+00	0	47	104	0	78	25253
2026-01-19 20:07:06.36	133.22	8.23	-53.6	-58.0	3.7	0.00e+00	0	47	104	0	78	24495
2026-01-19 20:07:07.56	133.44	8.15	-54.0	-58.5	3.7	0.00e+00	0	47	104	0	78	25766
2026-01-19 20:07:08.41	133.59	8.10	-53.7	-58.3	3.7	0.00e+00	0	46	104	0	78	25260
2026-01-19 20:07:09.59	133.80	8.02	-53.3	-58.1	3.7	0.00e+00	0	47	104	0	78	24789
2026-01-19 20:07:10.44	133.95	7.97	-53.6	-58.3	3.7	0.00e+00	0	47	104	0	78	25297
2026-01-19 20:07:11.67	134.17	7.89	-53.0	-58.0	3.7	0.00e+00	0	47	104	0	78	24303
2026-01-19 20:07:12.53	134.32	7.83	-53.0	-57.9	3.7	0.00e+00	0	47	104	0	78	24216
2026-01-19 20:07:13.66	134.52	7.76	-52.9	-57.8	3.7	0.00e+00	0	47	104	0	77	25338
2026-01-19 20:07:14.52	134.67	7.70	-53.2	-57.9	3.7	0.00e+00	0	47	104	0	77	25530
2026-01-19 20:07:15.65	134.87	7.63	-53.2	-57.8	3.7	0.00e+00	0	47	104	0	77	25278
2026-01-19 20:07:16.50	135.02	7.57	-53.2	-57.8	3.7	0.00e+00	0	47	104	0	77	25316
2026-01-19 20:07:17.64	135.21	7.50	-53.1	-57.8	3.7	0.00e+00	0	47	104	0	77	25266
2026-01-19 20:07:18.49	135.36	7.44	-53.2	-57.8	3.7	0.00e+00	0	47	104	0	77	25194
2026-01-19 20:07:19.62	135.55	7.37	-53.1	-57.8	3.7	0.00e+00	0	47	104	0	77	25144
2026-01-19 20:07:20.47	135.69	7.32	-53.1	-57.8	3.7	0.00e+00	0	47	104	0	77	25161
2026-01-19 20:07:21.61	135.88	7.24	-53.1	-57.7	3.7	0.00e+00	0	47	104	0	77	25069
2026-01-19 20:07:22.46	136.03	7.19	-53.1	-57.8	3.7	0.00e+00	0	47	104	0	77	25179
2026-01-19 20:07:23.60	136.21	7.11	-53.1	-57.8	3.7	0.00e+00	0	47	104	0	77	25152
2026-01-19 20:07:24.45	136.36	7.06	-53.1	-57.8	3.7	0.00e+00	0	47	104	0	77	25165
2026-01-19 20:07:25.58	136.54	6.99	-53.1	-57.8	3.7	0.00e+00	0	47	104	0	77	25118
2026-01-19 20:07:26.44	136.68	6.93	-53.1	-57.7	3.7	0.00e+00	0	47	104	0	77	25092
2026-01-19 20:07:27.57	136.87	6.86	-53.1	-57.8	3.7	0.00e+00	0	47	104	0	77	25165
2026-01-19 20:07:28.42	137.00	6.80	-53.1	-57.8	3.7	0.00e+00	0	47	104	0	77	25215
2026-01-19 20:07:29.56	137.19	6.73	-53.1	-57.8	3.7	0.00e+00	0	47	104	0	77	25120
2026-01-19 20:07:30.41	137.32	6.67	-53.1	-57.8	3.7	0.00e+00	0	47	104	0	77	25150
2026-01-19 20:07:31.54	137.50	6.60	-53.1	-57.8	3.7	0.00e+00	0	47	104	0	77	25098
2026-01-19 20:07:32.40	137.64	6.55	-53.1	-57.7	3.7	0.00e+00	0	47	104	0	77	25072
2026-01-19 20:07:33.53	137.82	6.47	-53.1	-57.8	3.7	0.00e+00	0	47	104	0	77	25150
2026-01-19 20:07:34.38	137.95	6.42	-53.1	-57.7	3.7	0.00e+00	0	47	104	0	77	25088
2026-01-19 20:07:35.52	138.13	6.35	-53.1	-57.8	3.7	0.00e+00	0	47	104	0	77	25133
2026-01-19 20:07:36.37	138.26	6.29	-53.1	-57.8	3.7	0.00e+00	0	47	104	0	77	25111
2026-01-19 20:07:37.51	138.43	6.22	-53.1	-57.7	3.7	0.00e+00	0	47	104	0	77	25039
2026-01-19 20:07:38.36	138.56	6.17	-53.1	-57.7	3.7	0.00e+00	0	47	104	0	77	24969
2026-01-19 20:07:39.50	138.74	6.09	-53.1	-57.8	3.7	0.00e+00	0	47	104	0	77	25141
2026-01-19 20:07:40.35	138.87	6.04	-53.1	-57.7	3.7	0.00e+00	0	47	104	0	77	25062
2026-01-19 20:07:41.48	139.04	5.97	-53.1	-57.7	3.7	0.00e+00	0	47	104	0	77	25040
2026-01-19 20:07:42.33	139.17	5.91	-53.1	-57.7	3.7	0.00e+00	0	47	104	0	77	25046
2026-01-19 20:07:43.47	139.34	5.84	-53.1	-57.8	3.7	0.00e+00	0	47	104	0	77	25138
2026-01-19 20:07:44.32	139.46	5.79	-53.1	-57.7	3.7	0.00e+00	0	47	104	0	77	25070
2026-01-19 20:07:45.46	139.63	5.72	-53.1	-57.8	3.7	0.00e+00	0	47	104	0	77	25095
2026-01-19 20:07:46.31	139.75	5.66	-53.1	-57.7	3.7	0.00e+00	0	46	104	0	77	25056
2026-01-19 20:07:47.44	139.92	5.59	-53.1	-57.7	3.7	0.00e+00	0	47	104	0	77	25078
2026-01-19 20:07:48.29	140.04	5.54	-53.1	-57.7	3.7	0.00e+00	0	47	104	0	77	25029
2026-01-19 20:07:49.43	140.21	5.46	-53.1	-57.7	3.7	0.00e+00	0	47	104	0	77	25084
2026-01-19 20:07:50.28	140.33	5.41	-53.1	-57.7	3.7	0.00e+00	0	47	104	0	77	25033
2026-01-19 20:07:51.42	140.49	5.34	-53.1	-57.7	3.7	0.00e+00	0	47	104	0	77	25080
2026-01-19 20:07:52.27	140.61	5.29	-53.1	-57.8	3.7	0.00e+00	0	47	104	0	77	25098
2026-01-19 20:07:53.40	140.77	5.22	-53.1	-57.7	3.7	0.00e+00	0	47	104	0	77	25006
2026-01-19 20:07:54.25	140.89	5.16	-53.1	-57.8	3.7	0.00e+00	0	47	104	0	77	25109
2026-01-19 20:07:55.39	141.05	5.09	-53.1	-57.7	3.7	0.00e+00	0	47	104	0	77	25074
2026-01-19 20:07:56.24	141.17	5.04	-53.1	-57.7	3.7	0.00e+00	0	47	104	0	77	25018
2026-01-19 20:07:57.37	141.33	4.97	-53.1	-57.8	3.7	0.00e+00	0	47	104	0	77	25107

#Closed at: 2026-01-19 20:07:58
#Recorded file [0 MB]: D:/Data/31040_260119_230046.dat