passes_logs/2026/01/19/T1/T1__20260119_225149_FENGYUN_3G_rec.log

#Pass ID: 20260119_225149_FENGYUN 3G
#Satellite: FENGYUN 3G
#Configuration: FENGYUN 3G
#almurnet v.1.7.20251203
#Start time: 2026-01-19 22:51:51

#Version: 2.0.20230620
#Station: T1
#Location: 37.570604 lon 55.790049 lat
#TLE: 1 56232U 23055A   26019.29402138  .00031930  00000+0  49376-3 0  9997
#TLE: 2 56232  49.9940  33.7754 0004164  48.8313 311.3013 15.53733440156869

#Time	Az	El	Level	Level2	SNR	BER	BlckErr	Temp	State	Recorded	gain1	gain2
2026-01-19 22:51:51.36	258.26	5.22	-50.2	-69.1	3.8	8.47e-01	0	40	0	0	72	31038
2026-01-19 22:51:52.35	258.15	5.29	-50.2	-69.1	3.8	8.39e-01	0	40	104	0	72	31081
2026-01-19 22:51:53.35	258.05	5.37	-50.2	-69.2	3.8	8.46e-01	0	40	104	0	72	31160
2026-01-19 22:51:54.34	257.94	5.44	-50.2	-69.1	3.8	8.47e-01	0	40	104	0	72	31084
2026-01-19 22:51:55.33	257.83	5.51	-50.2	-69.1	3.8	8.47e-01	0	40	104	0	72	30986
2026-01-19 22:51:56.33	257.72	5.59	-50.2	-69.0	3.8	8.47e-01	0	40	104	0	72	30679
2026-01-19 22:51:57.32	257.61	5.66	-50.2	-69.0	3.8	8.48e-01	0	40	104	0	72	30637
2026-01-19 22:51:58.32	257.49	5.73	-50.2	-69.0	3.8	8.48e-01	0	40	104	0	72	30496
2026-01-19 22:51:59.31	257.38	5.81	-50.2	-69.0	3.8	8.46e-01	0	40	104	0	72	30630
2026-01-19 22:52:00.32	257.27	5.88	-50.2	-69.0	3.8	8.48e-01	0	40	104	0	72	30553
2026-01-19 22:52:01.34	257.15	5.96	-50.2	-69.1	3.8	8.48e-01	0	41	104	0	72	30757
2026-01-19 22:52:02.35	257.03	6.04	-50.2	-69.1	3.8	8.48e-01	0	40	104	0	72	30911
2026-01-19 22:52:03.41	256.91	6.12	-50.2	-69.1	3.8	8.47e-01	0	40	104	0	72	31086
2026-01-19 22:52:04.34	256.80	6.19	-50.2	-69.1	3.8	8.47e-01	0	41	104	0	72	31081
2026-01-19 22:52:05.46	256.66	6.27	-50.2	-69.2	3.8	8.49e-01	0	40	104	0	72	31385
2026-01-19 22:52:06.34	256.56	6.34	-50.2	-69.2	3.8	8.47e-01	0	41	104	0	72	31229
2026-01-19 22:52:07.65	256.40	6.44	-50.2	-69.2	3.8	8.48e-01	0	41	104	0	72	31290
2026-01-19 22:52:08.36	256.32	6.49	-50.2	-69.2	3.8	8.48e-01	0	40	104	0	72	31118
2026-01-19 22:52:09.64	256.16	6.59	-50.2	-69.0	3.8	8.47e-01	0	40	104	0	72	30685
2026-01-19 22:52:10.35	256.07	6.65	-50.2	-69.0	3.8	8.47e-01	0	40	104	0	72	30392
2026-01-19 22:52:11.63	255.91	6.75	-50.2	-68.9	3.8	8.47e-01	0	41	104	0	72	30045
2026-01-19 22:52:12.34	255.82	6.80	-50.2	-68.8	3.8	8.46e-01	0	41	104	0	72	29896
2026-01-19 22:52:13.61	255.66	6.90	-50.2	-68.8	3.8	8.46e-01	0	41	104	0	72	29741
2026-01-19 22:52:14.34	255.57	6.96	-50.2	-68.8	3.8	8.46e-01	0	41	104	0	72	29795
2026-01-19 22:52:15.62	255.41	7.06	-50.2	-68.9	3.8	8.46e-01	0	41	104	0	72	30116
2026-01-19 22:52:16.33	255.31	7.11	-50.2	-68.9	3.8	8.47e-01	0	41	104	0	72	30286
2026-01-19 22:52:17.60	255.15	7.21	-50.2	-69.0	3.8	8.46e-01	0	41	104	0	72	30684
2026-01-19 22:52:18.33	255.05	7.27	-50.2	-69.1	3.8	8.46e-01	0	41	104	0	72	30835
2026-01-19 22:52:19.61	254.88	7.37	-50.2	-69.1	3.8	8.47e-01	0	41	104	0	72	31005
2026-01-19 22:52:20.32	254.79	7.43	-50.2	-69.1	3.8	8.47e-01	0	41	104	0	72	31003
2026-01-19 22:52:21.59	254.62	7.53	-50.2	-69.2	3.8	8.46e-01	0	41	104	0	72	31112
2026-01-19 22:52:22.32	254.52	7.59	-50.2	-69.2	3.8	8.46e-01	0	41	104	0	72	31168
2026-01-19 22:52:23.69	254.33	7.70	-50.2	-69.2	3.8	8.46e-01	0	41	104	0	72	31309
2026-01-19 22:52:24.40	254.24	7.76	-50.2	-69.1	3.8	8.46e-01	0	41	104	0	72	31080
2026-01-19 22:52:25.75	254.05	7.87	-50.2	-68.8	3.8	8.46e-01	0	41	104	0	72	29993
2026-01-19 22:52:26.46	253.95	7.93	-50.2	-68.5	3.8	8.47e-01	0	41	104	0	72	28890
2026-01-19 22:52:27.80	253.76	8.04	-50.2	-68.2	3.8	8.47e-01	0	41	104	0	72	27803
2026-01-19 22:52:28.51	253.66	8.10	-50.2	-68.2	3.8	8.47e-01	0	41	104	0	72	27942
2026-01-19 22:52:29.85	253.47	8.21	-50.2	-68.7	3.8	8.47e-01	0	41	104	0	72	29554
2026-01-19 22:52:30.56	253.37	8.26	-50.2	-69.0	3.8	8.47e-01	0	41	104	0	72	30462
2026-01-19 22:52:31.84	253.18	8.37	-50.2	-69.0	3.8	8.46e-01	0	41	104	0	72	30538
2026-01-19 22:52:32.56	253.08	8.43	-50.2	-68.7	3.8	8.47e-01	0	41	104	0	72	29557
2026-01-19 22:52:33.84	252.89	8.54	-50.1	-67.9	3.8	8.46e-01	0	41	104	0	72	27066
2026-01-19 22:52:34.55	252.78	8.60	-50.1	-67.4	3.8	8.46e-01	0	41	104	0	72	25319
2026-01-19 22:52:35.83	252.59	8.70	-50.1	-65.0	4.4	8.46e-01	0	41	0	0	72	19250
2026-01-19 22:52:36.54	252.48	8.76	-50.0	-62.7	5.6	8.17e-01	0	41	0	0	71	15588
2026-01-19 22:52:37.81	252.29	8.87	-49.5	-58.6	9.3	8.17e-01	0	41	0	0	71	9720
2026-01-19 22:52:38.52	252.18	8.93	-49.1	-56.6	11.3	1.97e-01	0	41	0	0	70	8255
2026-01-19 22:52:39.80	251.98	9.04	-48.3	-54.2	13.9	2.69e-03	0	41	0	0	68	7012
2026-01-19 22:52:40.53	251.87	9.10	-47.8	-53.2	14.8	2.69e-03	0	41	0	0	67	6644
2026-01-19 22:52:41.81	251.67	9.21	-49.2	-57.3	11.1	1.10e-06	0	41	0	0	69	9440
2026-01-19 22:52:42.53	251.55	9.28	-48.3	-54.4	13.4	2.14e-03	0	41	0	0	68	7146
2026-01-19 22:52:43.81	251.35	9.39	-48.3	-54.4	14.8	5.72e-05	0	41	0	0	67	7583
2026-01-19 22:52:44.53	251.23	9.45	-49.3	-57.4	11.1	5.72e-05	0	41	0	0	69	9573
2026-01-19 22:52:45.82	251.02	9.56	-49.5	-58.0	10.0	2.58e-02	0	42	0	0	70	9712
2026-01-19 22:52:46.54	250.90	9.62	-49.0	-56.0	11.9	2.58e-02	0	41	0	0	70	7719
2026-01-19 22:52:47.82	250.69	9.74	-49.3	-56.9	11.6	1.33e-02	0	42	0	0	70	8551
2026-01-19 22:52:48.53	250.57	9.80	-49.1	-56.3	11.7	1.14e-03	0	42	0	0	70	7943
2026-01-19 22:52:49.81	250.36	9.91	-48.0	-53.4	14.7	4.70e-04	0	42	0	0	68	6378
2026-01-19 22:52:50.55	250.23	9.98	-47.3	-51.9	16.1	4.70e-04	0	42	0	0	66	6019
2026-01-19 22:52:51.83	250.01	10.09	-46.6	-50.6	17.7	0.00e+00	0	41	0	0	64	5818
2026-01-19 22:52:52.57	249.89	10.16	-46.4	-50.3	17.7	0.00e+00	0	41	0	0	64	5598
2026-01-19 22:52:53.84	249.67	10.27	-45.5	-48.9	19.2	0.00e+00	0	42	0	0	63	5053
2026-01-19 22:52:54.57	249.54	10.33	-45.5	-48.9	19.1	0.00e+00	0	42	0	0	62	5349
2026-01-19 22:52:55.85	249.31	10.45	-44.7	-47.8	20.2	0.00e+00	0	41	0	0	61	5004
2026-01-19 22:52:56.56	249.19	10.51	-44.4	-47.3	20.6	0.00e+00	0	41	0	0	60	4994
2026-01-19 22:52:57.84	248.96	10.63	-44.2	-47.0	21.0	0.00e+00	0	42	0	0	60	4854
2026-01-19 22:52:58.57	248.82	10.70	-44.0	-46.8	21.2	0.00e+00	0	41	0	0	59	5020
2026-01-19 22:52:59.85	248.59	10.81	-43.6	-46.2	21.7	0.00e+00	0	42	0	0	59	4688
2026-01-19 22:53:00.56	248.46	10.88	-43.5	-46.1	21.8	0.00e+00	0	41	0	0	58	4917
2026-01-19 22:53:01.84	248.22	10.99	-43.0	-45.5	22.4	0.00e+00	0	41	0	0	58	4581
2026-01-19 22:53:02.55	248.09	11.06	-42.7	-45.1	22.7	0.00e+00	0	42	0	0	57	4631
2026-01-19 22:53:03.86	247.84	11.18	-42.2	-44.5	23.3	0.00e+00	0	41	0	0	56	4588
2026-01-19 22:53:04.57	247.71	11.24	-42.0	-44.3	23.4	0.00e+00	0	41	0	0	56	4492
2026-01-19 22:53:05.85	247.46	11.36	-41.5	-43.7	23.8	0.00e+00	0	41	0	0	55	4437
2026-01-19 22:53:06.57	247.32	11.43	-41.5	-43.7	23.8	0.00e+00	0	42	0	0	54	4682
2026-01-19 22:53:07.85	247.07	11.55	-41.2	-43.4	24.1	0.00e+00	0	42	0	0	54	4520
2026-01-19 22:53:08.59	246.93	11.62	-41.2	-43.4	24.1	0.00e+00	0	42	0	0	54	4535
2026-01-19 22:53:10.06	246.63	11.76	-40.9	-43.1	24.4	0.00e+00	0	41	0	0	53	4619
2026-01-19 22:53:10.77	246.49	11.82	-40.9	-43.1	24.4	0.00e+00	0	42	0	0	53	4613
2026-01-19 22:53:12.11	246.22	11.95	-41.0	-43.2	24.3	0.00e+00	0	41	0	0	53	4696
2026-01-19 22:53:12.82	246.07	12.02	-41.2	-43.4	24.1	0.00e+00	0	42	0	0	53	4765
2026-01-19 22:53:14.16	245.80	12.14	-41.0	-43.2	24.3	0.00e+00	0	42	0	0	53	4698
2026-01-19 22:53:14.87	245.65	12.21	-41.0	-43.2	24.3	0.00e+00	0	42	0	0	53	4699
2026-01-19 22:53:16.22	245.37	12.34	-41.0	-43.2	24.3	0.00e+00	0	42	0	0	53	4679
2026-01-19 22:53:16.93	245.22	12.41	-40.9	-43.1	24.4	0.00e+00	0	42	0	0	53	4628
2026-01-19 22:53:18.27	244.93	12.54	-40.7	-42.8	24.6	0.00e+00	0	42	0	0	53	4481
2026-01-19 22:53:18.98	244.78	12.61	-40.5	-42.6	24.8	0.00e+00	0	42	0	0	53	4379
2026-01-19 22:53:20.26	244.50	12.73	-40.5	-42.7	24.8	0.00e+00	0	42	0	0	52	4658
2026-01-19 22:53:20.97	244.34	12.80	-40.6	-42.8	24.7	0.00e+00	0	42	0	0	52	4715
2026-01-19 22:53:22.25	244.06	12.92	-40.6	-42.8	24.7	0.00e+00	0	42	0	0	52	4710
2026-01-19 22:53:23.00	243.89	12.99	-40.6	-42.7	24.7	0.00e+00	0	42	0	0	52	4678
2026-01-19 22:53:24.28	243.61	13.12	-40.8	-43.0	24.5	0.00e+00	0	42	0	0	52	4834
2026-01-19 22:53:25.01	243.44	13.19	-40.8	-43.0	24.5	0.00e+00	0	42	0	0	52	4829
2026-01-19 22:53:26.29	243.15	13.31	-40.9	-43.1	24.4	0.00e+00	0	42	0	0	52	4873
2026-01-19 22:53:27.00	242.98	13.38	-40.8	-43.0	24.5	0.00e+00	0	42	0	0	52	4844
2026-01-19 22:53:28.27	242.69	13.51	-40.7	-42.8	24.7	0.00e+00	0	42	0	0	52	4727
2026-01-19 22:53:29.02	242.51	13.58	-40.6	-42.7	24.7	0.00e+00	0	42	0	0	52	4698
2026-01-19 22:53:30.30	242.21	13.71	-40.5	-42.6	24.8	0.00e+00	0	42	0	0	52	4616
2026-01-19 22:53:31.04	242.03	13.78	-40.4	-42.5	24.9	0.00e+00	0	42	0	0	52	4551
2026-01-19 22:53:32.32	241.72	13.91	-40.2	-42.3	25.0	0.00e+00	0	42	0	0	52	4484
2026-01-19 22:53:33.20	241.51	14.00	-40.3	-42.4	25.0	0.00e+00	0	42	0	0	52	4496
2026-01-19 22:53:34.34	241.23	14.11	-40.2	-42.3	25.1	0.00e+00	0	42	0	0	52	4467
2026-01-19 22:53:35.19	241.02	14.19	-40.4	-42.6	24.9	0.00e+00	0	42	0	0	52	4603
2026-01-19 22:53:36.33	240.73	14.31	-40.4	-42.5	25.0	0.00e+00	0	42	0	0	52	4569
2026-01-19 22:53:37.18	240.52	14.39	-40.2	-42.3	25.1	0.00e+00	0	42	0	0	52	4482
2026-01-19 22:53:38.32	240.23	14.51	-40.2	-42.3	25.1	0.00e+00	0	42	0	0	52	4443
2026-01-19 22:53:39.17	240.01	14.59	-40.2	-42.2	25.1	0.00e+00	0	42	0	0	52	4437
2026-01-19 22:53:40.30	239.72	14.70	-39.9	-42.0	25.4	0.00e+00	0	42	0	0	51	4576
2026-01-19 22:53:41.16	239.49	14.79	-39.8	-41.8	25.5	0.00e+00	0	42	0	0	51	4464
2026-01-19 22:53:42.29	239.20	14.90	-39.6	-41.6	25.7	0.00e+00	0	42	0	0	51	4390
2026-01-19 22:53:43.14	238.97	14.99	-39.6	-41.6	25.7	0.00e+00	0	42	0	0	51	4388
2026-01-19 22:53:44.28	238.67	15.10	-39.7	-41.7	25.6	0.00e+00	0	42	0	0	51	4428
2026-01-19 22:53:45.13	238.44	15.19	-39.8	-41.8	25.5	0.00e+00	0	42	0	0	51	4467
2026-01-19 22:53:46.47	238.07	15.33	-39.8	-41.8	25.5	0.00e+00	0	42	0	0	51	4484
2026-01-19 22:53:47.18	237.88	15.40	-39.9	-42.0	25.4	0.00e+00	0	42	0	0	51	4551
2026-01-19 22:53:48.67	237.46	15.55	-40.1	-42.1	25.3	0.00e+00	0	42	0	0	51	4641
2026-01-19 22:53:49.37	237.27	15.62	-40.0	-42.1	25.4	0.00e+00	0	42	0	0	51	4616
2026-01-19 22:53:50.73	236.88	15.76	-39.9	-41.9	25.5	0.00e+00	0	42	0	0	51	4527
2026-01-19 22:53:51.44	236.68	15.83	-39.7	-41.7	25.6	0.00e+00	0	42	0	0	51	4424
2026-01-19 22:53:52.77	236.30	15.96	-39.5	-41.6	25.7	0.00e+00	0	42	0	0	51	4356
2026-01-19 22:53:53.48	236.09	16.03	-39.5	-41.5	25.8	0.00e+00	0	42	0	0	51	4337
2026-01-19 22:53:54.75	235.72	16.16	-39.3	-41.4	25.8	0.00e+00	0	42	0	0	50	4495
2026-01-19 22:53:55.52	235.49	16.24	-39.1	-41.1	26.0	0.00e+00	0	42	0	0	50	4387
2026-01-19 22:53:56.80	235.11	16.37	-39.1	-41.1	26.1	0.00e+00	0	42	0	0	50	4349
2026-01-19 22:53:57.51	234.90	16.44	-39.1	-41.1	26.1	0.00e+00	0	42	0	0	50	4355
2026-01-19 22:53:58.79	234.51	16.57	-39.5	-41.5	25.8	0.00e+00	0	42	0	0	50	4567
2026-01-19 22:53:59.52	234.29	16.64	-39.5	-41.6	25.8	0.00e+00	0	42	0	0	50	4612
2026-01-19 22:54:00.80	233.89	16.77	-39.7	-41.7	25.6	0.00e+00	0	42	0	0	50	4697
2026-01-19 22:54:01.53	233.67	16.85	-39.5	-41.5	25.8	0.00e+00	0	42	0	0	50	4580
2026-01-19 22:54:02.81	233.27	16.97	-39.6	-41.6	25.7	0.00e+00	0	42	0	0	50	4615
2026-01-19 22:54:03.53	233.04	17.05	-39.6	-41.6	25.8	0.00e+00	0	42	0	0	50	4643
2026-01-19 22:54:04.80	232.63	17.17	-39.3	-41.3	26.0	0.00e+00	0	42	0	0	50	4461
2026-01-19 22:54:05.52	232.40	17.25	-39.3	-41.3	26.0	0.00e+00	0	42	0	0	50	4455
2026-01-19 22:54:06.80	231.99	17.37	-38.9	-40.9	26.1	0.00e+00	0	42	0	0	49	4525
2026-01-19 22:54:07.62	231.72	17.46	-38.9	-40.9	26.2	0.00e+00	0	42	0	0	49	4501
2026-01-19 22:54:09.07	231.24	17.60	-38.6	-40.6	26.5	0.00e+00	0	42	0	0	49	4355
2026-01-19 22:54:09.78	231.01	17.67	-38.6	-40.6	26.5	0.00e+00	0	42	0	0	49	4361
2026-01-19 22:54:11.06	230.58	17.80	-38.9	-40.8	26.3	0.00e+00	0	42	0	0	49	4479
2026-01-19 22:54:11.77	230.34	17.87	-38.9	-40.9	26.3	0.00e+00	0	42	0	0	49	4512
2026-01-19 22:54:13.33	229.80	18.02	-39.3	-41.3	26.0	0.00e+00	0	42	0	0	49	4715
2026-01-19 22:54:14.04	229.56	18.09	-39.2	-41.2	26.0	0.00e+00	0	41	0	0	49	4685
2026-01-19 22:54:15.33	229.11	18.21	-39.6	-41.7	25.6	0.00e+00	0	42	0	0	49	4941
2026-01-19 22:54:16.04	228.86	18.28	-39.7	-41.8	25.6	0.00e+00	0	42	0	0	50	4730
2026-01-19 22:54:17.32	228.41	18.41	-39.3	-41.3	26.0	0.00e+00	0	42	0	0	50	4459
2026-01-19 22:54:18.08	228.14	18.48	-39.0	-41.0	26.2	0.00e+00	0	42	0	0	50	4334
2026-01-19 22:54:19.51	227.63	18.62	-38.6	-40.6	26.5	0.00e+00	0	42	0	0	49	4367
2026-01-19 22:54:20.22	227.37	18.68	-38.3	-40.2	26.8	0.00e+00	0	42	0	0	48	4411
2026-01-19 22:54:21.56	226.89	18.81	-38.0	-40.0	26.8	0.00e+00	0	42	0	0	47	4548
2026-01-19 22:54:22.27	226.63	18.88	-38.1	-40.1	26.8	0.00e+00	0	42	0	0	47	4601
2026-01-19 22:54:23.61	226.13	19.00	-38.3	-40.3	26.7	0.00e+00	0	42	0	0	47	4725
2026-01-19 22:54:24.32	225.87	19.07	-38.3	-40.2	26.6	0.00e+00	0	42	0	0	47	4701
2026-01-19 22:54:25.67	225.36	19.19	-38.5	-40.5	26.5	0.00e+00	0	42	0	0	47	4838
2026-01-19 22:54:26.38	225.09	19.26	-38.5	-40.5	26.5	0.00e+00	0	42	0	0	47	4845
2026-01-19 22:54:27.73	224.57	19.38	-38.5	-40.5	26.5	0.00e+00	0	42	0	0	47	4838
2026-01-19 22:54:28.44	224.30	19.45	-38.8	-40.8	26.4	0.00e+00	0	42	0	0	48	4720
2026-01-19 22:54:29.77	223.79	19.57	-39.0	-41.0	26.2	0.00e+00	0	42	0	0	48	4843
2026-01-19 22:54:30.48	223.51	19.63	-39.1	-41.1	26.1	0.00e+00	0	42	0	0	48	4905
2026-01-19 22:54:31.76	223.01	19.74	-39.1	-41.1	26.2	0.00e+00	0	42	0	0	48	4889
2026-01-19 22:54:32.49	222.72	19.81	-38.8	-40.8	26.3	0.00e+00	0	42	0	0	48	4708
2026-01-19 22:54:33.77	222.21	19.92	-38.7	-40.6	26.4	0.00e+00	0	42	0	0	48	4640
2026-01-19 22:54:34.48	221.92	19.98	-38.7	-40.7	26.4	0.00e+00	0	42	0	0	48	4659
2026-01-19 22:54:35.76	221.41	20.09	-38.4	-40.4	26.7	0.00e+00	0	42	0	0	48	4511
2026-01-19 22:54:36.48	221.12	20.15	-38.4	-40.3	26.7	0.00e+00	0	42	0	0	48	4471
2026-01-19 22:54:37.76	220.59	20.26	-38.2	-40.1	26.9	0.00e+00	0	42	0	0	48	4371
2026-01-19 22:54:38.48	220.30	20.31	-38.1	-40.0	27.0	0.00e+00	0	42	0	0	48	4324
2026-01-19 22:54:39.76	219.77	20.42	-38.0	-39.9	26.9	0.00e+00	0	42	0	0	47	4530
2026-01-19 22:54:40.47	219.47	20.48	-37.9	-39.9	27.0	0.00e+00	0	42	0	0	47	4502
2026-01-19 22:54:41.77	218.92	20.58	-38.0	-39.9	26.9	0.00e+00	0	42	0	0	47	4527
2026-01-19 22:54:42.48	218.62	20.64	-38.2	-40.1	26.8	0.00e+00	0	42	0	0	47	4639
2026-01-19 22:54:43.76	218.08	20.73	-38.1	-40.0	26.8	0.00e+00	0	42	0	0	47	4591
2026-01-19 22:54:44.61	217.72	20.80	-38.1	-40.0	26.9	0.00e+00	0	42	0	0	47	4596
2026-01-19 22:54:45.74	217.23	20.88	-38.1	-40.0	26.9	0.00e+00	0	42	0	0	47	4580
2026-01-19 22:54:46.60	216.86	20.95	-38.0	-40.0	26.9	0.00e+00	0	42	0	0	47	4555
2026-01-19 22:54:48.10	216.21	21.06	-38.1	-40.0	26.7	0.00e+00	0	42	0	0	47	4571
2026-01-19 22:54:48.81	215.90	21.11	-38.2	-40.1	26.8	0.00e+00	0	42	0	0	47	4625
2026-01-19 22:54:50.09	215.33	21.20	-38.1	-40.0	26.8	0.00e+00	0	42	0	0	47	4585
2026-01-19 22:54:50.80	215.02	21.25	-38.1	-40.0	26.8	0.00e+00	0	42	0	0	47	4583
2026-01-19 22:54:52.08	214.45	21.33	-38.1	-40.0	26.9	0.00e+00	0	42	0	0	47	4576
2026-01-19 22:54:52.80	214.12	21.38	-38.0	-39.9	26.9	0.00e+00	0	42	0	0	47	4533
2026-01-19 22:54:54.08	213.55	21.46	-38.1	-40.1	26.8	0.00e+00	0	42	0	0	47	4603
2026-01-19 22:54:54.79	213.23	21.51	-38.1	-40.1	26.8	0.00e+00	0	42	0	0	47	4609
2026-01-19 22:54:56.07	212.65	21.59	-38.4	-40.4	26.6	0.00e+00	0	42	0	0	47	4764
2026-01-19 22:54:56.80	212.31	21.63	-38.5	-40.5	26.5	0.00e+00	0	42	0	0	47	4837
2026-01-19 22:54:58.08	211.73	21.71	-38.5	-40.5	26.5	0.00e+00	0	42	0	0	47	4839
2026-01-19 22:54:58.80	211.40	21.75	-38.4	-40.3	26.6	0.00e+00	0	42	0	0	47	4741
2026-01-19 22:55:00.08	210.80	21.82	-38.1	-40.1	26.8	0.00e+00	0	42	0	0	47	4600
2026-01-19 22:55:00.80	210.47	21.86	-38.2	-40.1	26.7	0.00e+00	0	41	0	0	47	4644
2026-01-19 22:55:02.08	209.87	21.92	-38.2	-40.1	26.5	0.00e+00	0	42	0	0	47	4639
2026-01-19 22:55:02.79	209.54	21.96	-38.2	-40.2	26.7	0.00e+00	0	42	0	0	47	4674
2026-01-19 22:55:04.16	208.90	22.03	-37.8	-39.7	27.1	0.00e+00	0	42	0	0	47	4435
2026-01-19 22:55:05.16	208.42	22.08	-37.7	-39.6	27.1	0.00e+00	0	42	0	0	47	4387
2026-01-19 22:55:06.47	207.80	22.14	-37.9	-39.8	27.0	0.00e+00	0	42	0	0	47	4492
2026-01-19 22:55:07.21	207.45	22.17	-37.9	-39.8	27.0	0.00e+00	0	42	0	0	47	4483
2026-01-19 22:55:08.49	206.84	22.22	-37.7	-39.6	27.1	0.00e+00	0	42	0	0	47	4374
2026-01-19 22:55:09.28	206.46	22.25	-37.6	-39.5	27.2	0.00e+00	0	42	0	0	47	4308
2026-01-19 22:55:10.46	205.89	22.30	-37.6	-39.5	27.2	0.00e+00	0	42	0	0	47	4335
2026-01-19 22:55:11.32	205.48	22.33	-37.5	-39.4	27.3	0.00e+00	0	42	0	0	47	4256
2026-01-19 22:55:12.45	204.93	22.37	-37.5	-39.4	27.3	0.00e+00	0	42	0	0	46	4522
2026-01-19 22:55:13.31	204.52	22.40	-37.7	-39.7	27.1	0.00e+00	0	42	0	0	46	4654
2026-01-19 22:55:14.44	203.97	22.44	-37.6	-39.5	27.2	0.00e+00	0	42	0	0	46	4560
2026-01-19 22:55:15.29	203.55	22.46	-37.7	-39.6	27.2	0.00e+00	0	42	0	0	46	4612
2026-01-19 22:55:16.43	203.00	22.49	-37.5	-39.4	27.3	0.00e+00	0	42	0	0	46	4500
2026-01-19 22:55:17.28	202.58	22.51	-37.6	-39.5	27.3	0.00e+00	0	42	0	0	46	4550
2026-01-19 22:55:18.42	202.02	22.54	-37.4	-39.3	27.3	0.00e+00	0	42	0	0	46	4456
2026-01-19 22:55:19.27	201.61	22.56	-37.5	-39.4	27.3	0.00e+00	0	42	0	0	46	4501
2026-01-19 22:55:20.50	201.00	22.58	-37.4	-39.3	27.3	0.00e+00	0	42	0	0	46	4480
2026-01-19 22:55:21.36	200.58	22.60	-37.4	-39.3	27.4	0.00e+00	0	42	0	0	46	4465
2026-01-19 22:55:22.49	200.02	22.62	-37.4	-39.3	27.4	0.00e+00	0	42	0	0	46	4451
2026-01-19 22:55:23.35	199.60	22.63	-37.5	-39.5	27.3	0.00e+00	0	42	0	0	46	4549
2026-01-19 22:55:24.49	199.04	22.64	-37.9	-39.8	27.0	0.00e+00	0	42	0	0	46	4737
2026-01-19 22:55:25.34	198.62	22.65	-38.1	-40.0	26.8	0.00e+00	0	42	0	0	46	4854
2026-01-19 22:55:26.47	198.06	22.66	-38.2	-40.1	26.7	0.00e+00	0	42	0	0	47	4650
2026-01-19 22:55:27.33	197.63	22.67	-38.3	-40.3	26.6	0.00e+00	0	42	0	0	47	4723
2026-01-19 22:55:28.47	197.07	22.67	-38.1	-40.1	26.8	0.00e+00	0	41	0	0	47	4606
2026-01-19 22:55:29.32	196.65	22.68	-38.0	-39.9	26.9	0.00e+00	0	42	0	0	47	4526
2026-01-19 22:55:30.46	196.08	22.68	-37.8	-39.7	27.1	0.00e+00	0	42	0	0	47	4412
2026-01-19 22:55:31.31	195.66	22.67	-37.7	-39.6	27.2	0.00e+00	0	42	0	0	47	4364
2026-01-19 22:55:32.45	195.10	22.67	-37.7	-39.6	27.1	0.00e+00	0	42	0	0	47	4367
2026-01-19 22:55:33.30	194.68	22.67	-37.5	-39.4	27.3	0.00e+00	0	42	0	0	46	4503
2026-01-19 22:55:34.44	194.11	22.66	-37.5	-39.4	27.2	0.00e+00	0	41	0	0	46	4526
2026-01-19 22:55:35.29	193.69	22.65	-37.4	-39.3	27.4	0.00e+00	0	42	0	0	46	4470
2026-01-19 22:55:36.43	193.13	22.64	-37.6	-39.5	27.3	0.00e+00	0	42	0	0	46	4588
2026-01-19 22:55:37.28	192.71	22.63	-37.9	-39.8	27.1	0.00e+00	0	42	0	0	46	4736
2026-01-19 22:55:38.51	192.10	22.61	-38.3	-40.3	26.7	0.00e+00	0	42	0	0	47	4709
2026-01-19 22:55:39.37	191.68	22.59	-38.3	-40.3	26.6	0.00e+00	0	42	0	0	47	4727
2026-01-19 22:55:40.51	191.12	22.57	-38.5	-40.5	26.5	0.00e+00	0	42	0	0	47	4846
2026-01-19 22:55:41.36	190.70	22.55	-38.5	-40.5	26.5	0.00e+00	0	42	0	0	47	4847
2026-01-19 22:55:42.50	190.14	22.53	-38.5	-40.5	26.5	0.00e+00	0	42	0	0	47	4853
2026-01-19 22:55:43.35	189.73	22.50	-38.3	-40.3	26.8	0.00e+00	0	42	0	0	47	4713
2026-01-19 22:55:44.49	189.17	22.47	-37.9	-39.8	27.0	0.00e+00	0	42	0	0	47	4485
2026-01-19 22:55:45.34	188.76	22.45	-37.6	-39.5	27.1	0.00e+00	0	42	0	0	47	4310
2026-01-19 22:55:46.70	188.09	22.41	-37.4	-39.3	27.4	0.00e+00	0	42	0	0	46	4461
2026-01-19 22:55:47.42	187.74	22.38	-37.4	-39.3	27.3	0.00e+00	0	42	0	0	46	4474
2026-01-19 22:55:48.69	187.13	22.34	-37.4	-39.3	27.3	0.00e+00	0	42	0	0	46	4459
2026-01-19 22:55:49.42	186.78	22.31	-37.3	-39.2	27.4	0.00e+00	0	42	0	0	46	4428
2026-01-19 22:55:50.70	186.16	22.26	-37.6	-39.5	27.2	0.00e+00	0	42	0	0	46	4574
2026-01-19 22:55:51.41	185.82	22.24	-37.6	-39.5	27.2	0.00e+00	0	41	0	0	46	4565
2026-01-19 22:55:52.69	185.21	22.18	-37.8	-39.7	27.1	0.00e+00	0	42	0	0	46	4699
2026-01-19 22:55:53.40	184.87	22.15	-37.8	-39.7	27.1	0.00e+00	0	42	0	0	46	4667
2026-01-19 22:55:54.68	184.26	22.09	-37.6	-39.5	27.2	0.00e+00	0	41	0	0	46	4578
2026-01-19 22:55:55.40	183.92	22.06	-37.5	-39.4	27.3	0.00e+00	0	42	0	0	46	4533
2026-01-19 22:55:56.67	183.32	22.00	-37.2	-39.1	27.4	0.00e+00	0	41	0	0	46	4389
2026-01-19 22:55:57.38	182.99	21.96	-37.4	-39.3	27.3	0.00e+00	0	42	0	0	46	4474
2026-01-19 22:55:58.71	182.37	21.90	-38.0	-40.0	26.9	0.00e+00	0	42	0	0	46	4839
2026-01-19 22:55:59.42	182.04	21.86	-38.4	-40.4	26.6	0.00e+00	0	42	0	0	47	4801
2026-01-19 22:56:00.70	181.44	21.79	-38.5	-40.4	26.6	0.00e+00	0	42	0	0	48	4533
2026-01-19 22:56:01.41	181.12	21.75	-38.5	-40.4	26.6	0.00e+00	0	42	0	0	48	4539
2026-01-19 22:56:02.69	180.53	21.67	-38.7	-40.7	26.5	0.00e+00	0	42	0	0	48	4663
2026-01-19 22:56:03.41	180.20	21.63	-38.3	-40.2	26.8	0.00e+00	0	41	0	0	48	4422
2026-01-19 22:56:04.69	179.61	21.55	-37.8	-39.8	27.0	0.00e+00	0	42	0	0	47	4456
2026-01-19 22:56:05.42	179.28	21.51	-37.7	-39.6	26.8	0.00e+00	0	42	0	0	47	4391
2026-01-19 22:56:06.70	178.70	21.43	-37.8	-39.8	27.0	0.00e+00	0	42	0	0	47	4447
2026-01-19 22:56:07.41	178.38	21.38	-37.9	-39.8	27.0	0.00e+00	0	42	0	0	47	4469
2026-01-19 22:56:08.69	177.81	21.30	-38.3	-40.2	26.7	0.00e+00	0	42	0	0	47	4697
2026-01-19 22:56:09.40	177.50	21.25	-38.4	-40.4	26.6	0.00e+00	0	41	0	0	47	4789
2026-01-19 22:56:10.68	176.93	21.16	-38.6	-40.6	26.5	0.00e+00	0	42	0	0	47	4871
2026-01-19 22:56:11.58	176.53	21.10	-38.2	-40.2	26.7	0.00e+00	0	42	0	0	47	4664
2026-01-19 22:56:12.67	176.06	21.02	-37.9	-39.9	26.9	0.00e+00	0	42	0	0	47	4498
2026-01-19 22:56:13.74	175.59	20.94	-37.9	-39.9	26.9	0.00e+00	0	41	0	0	47	4518
2026-01-19 22:56:14.75	175.16	20.86	-38.3	-40.2	26.7	0.00e+00	0	41	0	0	47	4692
2026-01-19 22:56:15.75	174.73	20.79	-38.3	-40.2	26.6	0.00e+00	0	42	0	0	47	4695
2026-01-19 22:56:16.93	174.22	20.70	-38.3	-40.3	26.2	0.00e+00	0	41	0	0	47	4731
2026-01-19 22:56:17.80	173.85	20.63	-38.3	-40.3	26.6	0.00e+00	0	42	0	0	47	4731
2026-01-19 22:56:19.10	173.30	20.53	-38.1	-40.1	26.8	0.00e+00	0	42	0	0	47	4601
2026-01-19 22:56:19.81	173.01	20.47	-38.1	-40.1	26.8	0.00e+00	0	41	0	0	47	4609
2026-01-19 22:56:21.08	172.48	20.37	-38.3	-40.2	26.6	0.00e+00	0	41	0	0	47	4705
2026-01-19 22:56:21.81	172.18	20.31	-38.3	-40.3	26.7	0.00e+00	0	42	0	0	47	4716
2026-01-19 22:56:23.09	171.65	20.20	-38.3	-40.3	26.6	0.00e+00	0	42	0	0	47	4724
2026-01-19 22:56:23.80	171.36	20.14	-38.3	-40.3	26.6	0.00e+00	0	41	0	0	47	4725
2026-01-19 22:56:25.08	170.84	20.04	-38.4	-40.4	26.5	0.00e+00	0	42	0	0	47	4814
2026-01-19 22:56:25.80	170.55	19.97	-38.7	-40.7	26.4	0.00e+00	0	42	0	0	48	4678
2026-01-19 22:56:27.08	170.04	19.86	-38.7	-40.7	26.4	0.00e+00	0	42	0	0	48	4672
2026-01-19 22:56:27.98	169.68	19.79	-38.9	-40.9	26.3	0.00e+00	0	42	0	0	48	4779
2026-01-19 22:56:29.09	169.24	19.69	-39.0	-41.0	26.2	0.00e+00	0	42	0	0	48	4836
2026-01-19 22:56:29.94	168.91	19.61	-38.9	-40.9	26.2	0.00e+00	0	41	0	0	48	4775
2026-01-19 22:56:31.08	168.47	19.51	-38.7	-40.7	26.4	0.00e+00	0	41	0	0	48	4681
2026-01-19 22:56:31.93	168.14	19.43	-38.7	-40.7	26.4	0.00e+00	0	42	0	0	48	4684
2026-01-19 22:56:33.07	167.70	19.33	-38.6	-40.5	26.5	0.00e+00	0	42	0	0	48	4597
2026-01-19 22:56:33.92	167.38	19.25	-38.2	-40.1	26.8	0.00e+00	0	42	0	0	48	4374
2026-01-19 22:56:35.06	166.95	19.15	-38.4	-40.4	26.5	0.00e+00	0	41	0	0	48	4519
2026-01-19 22:56:35.91	166.63	19.07	-38.8	-40.7	26.3	0.00e+00	0	41	0	0	48	4701
2026-01-19 22:56:37.05	166.20	18.96	-39.0	-41.1	26.1	0.00e+00	0	42	0	0	48	4874
2026-01-19 22:56:37.90	165.89	18.88	-39.2	-41.3	26.0	0.00e+00	0	41	0	0	49	4708
2026-01-19 22:56:39.04	165.47	18.78	-39.0	-41.0	26.1	0.00e+00	0	42	0	0	49	4576
2026-01-19 22:56:39.89	165.16	18.69	-39.0	-41.1	26.1	0.00e+00	0	41	0	0	49	4599
2026-01-19 22:56:41.03	164.75	18.59	-38.7	-40.7	26.4	0.00e+00	0	41	0	0	49	4411
2026-01-19 22:56:41.88	164.44	18.50	-38.6	-40.5	26.5	0.00e+00	0	42	0	0	49	4327
2026-01-19 22:56:43.02	164.04	18.39	-38.5	-40.4	26.5	0.00e+00	0	42	0	0	48	4544
2026-01-19 22:56:43.87	163.74	18.31	-38.4	-40.3	26.6	0.00e+00	0	42	0	0	48	4478
2026-01-19 22:56:45.01	163.34	18.20	-38.6	-40.6	26.5	0.00e+00	0	42	0	0	48	4599
2026-01-19 22:56:45.86	163.04	18.12	-38.6	-40.6	26.4	0.00e+00	0	42	0	0	48	4627
2026-01-19 22:56:47.01	162.65	18.01	-38.8	-40.8	26.2	0.00e+00	0	41	0	0	48	4747
2026-01-19 22:56:47.86	162.36	17.92	-38.9	-40.9	26.2	0.00e+00	0	42	0	0	48	4783
2026-01-19 22:56:49.03	161.96	17.81	-38.8	-40.8	26.3	0.00e+00	0	41	0	0	48	4722
2026-01-19 22:56:49.88	161.67	17.72	-38.8	-40.7	26.3	0.00e+00	0	42	0	0	48	4702
2026-01-19 22:56:51.09	161.27	17.60	-38.8	-40.7	26.3	0.00e+00	0	42	0	0	48	4703
2026-01-19 22:56:51.94	160.99	17.52	-38.8	-40.8	26.2	0.00e+00	0	42	0	0	48	4738
2026-01-19 22:56:53.08	160.61	17.41	-38.7	-40.7	26.3	0.00e+00	0	42	0	0	48	4684
2026-01-19 22:56:53.93	160.34	17.32	-38.8	-40.8	25.9	0.00e+00	0	42	0	0	48	4726
2026-01-19 22:56:55.07	159.97	17.21	-39.0	-41.0	26.0	0.00e+00	0	42	0	0	48	4823
2026-01-19 22:56:55.93	159.69	17.12	-39.0	-41.0	26.1	0.00e+00	0	41	0	0	48	4848
2026-01-19 22:56:57.06	159.33	17.01	-39.0	-41.1	26.0	0.00e+00	0	41	0	0	48	4886
2026-01-19 22:56:58.01	159.04	16.91	-39.1	-41.1	26.0	0.00e+00	0	41	0	0	48	4901
2026-01-19 22:56:59.01	158.72	16.81	-39.0	-41.1	26.0	0.00e+00	0	41	0	0	48	4878
2026-01-19 22:57:00.00	158.42	16.71	-39.1	-41.1	26.0	0.00e+00	0	41	0	0	48	4914
2026-01-19 22:57:00.99	158.11	16.61	-39.2	-41.2	25.9	0.00e+00	0	42	0	0	49	4689
2026-01-19 22:57:01.99	157.81	16.51	-39.3	-41.3	25.8	0.00e+00	0	41	0	0	49	4757
2026-01-19 22:57:02.99	157.50	16.41	-39.4	-41.5	24.1	0.00e+00	0	42	0	0	49	4851
2026-01-19 22:57:03.98	157.21	16.31	-39.3	-41.4	25.7	0.00e+00	0	42	0	0	49	4776
2026-01-19 22:57:04.97	156.91	16.21	-39.2	-41.3	25.8	0.00e+00	0	41	0	0	49	4718
2026-01-19 22:57:05.97	156.62	16.11	-39.1	-41.1	26.0	0.00e+00	0	42	0	0	49	4638
2026-01-19 22:57:06.96	156.33	16.01	-39.2	-41.2	25.9	0.00e+00	0	42	0	0	49	4676
2026-01-19 22:57:07.98	156.04	15.91	-39.3	-41.4	25.8	0.00e+00	0	42	0	0	49	4778
2026-01-19 22:57:08.97	155.75	15.81	-39.5	-41.6	25.6	0.00e+00	0	42	0	0	49	4892
2026-01-19 22:57:09.97	155.47	15.70	-39.7	-41.8	25.5	0.00e+00	0	42	0	0	50	4722
2026-01-19 22:57:10.96	155.19	15.60	-39.7	-41.8	25.4	0.00e+00	0	41	0	0	50	4738
2026-01-19 22:57:11.96	154.91	15.50	-39.8	-41.9	25.4	0.00e+00	0	42	0	0	50	4786
2026-01-19 22:57:12.95	154.63	15.40	-39.8	-41.8	25.4	0.00e+00	0	42	0	0	50	4757
2026-01-19 22:57:13.94	154.36	15.30	-39.6	-41.7	25.5	0.00e+00	0	41	0	0	50	4674
2026-01-19 22:57:14.94	154.09	15.20	-39.8	-41.9	25.4	0.00e+00	0	42	0	0	50	4798
2026-01-19 22:57:15.93	153.82	15.10	-39.9	-42.0	25.3	0.00e+00	0	42	0	0	50	4854
2026-01-19 22:57:16.93	153.55	15.00	-39.9	-42.0	25.2	0.00e+00	0	42	0	0	50	4854
2026-01-19 22:57:17.92	153.29	14.90	-39.9	-42.1	25.1	0.00e+00	0	42	0	0	50	4880
2026-01-19 22:57:18.91	153.03	14.80	-39.9	-42.0	25.2	0.00e+00	0	42	0	0	50	4853
2026-01-19 22:57:19.91	152.77	14.70	-39.9	-41.9	25.3	0.00e+00	0	42	0	0	50	4812
2026-01-19 22:57:20.90	152.51	14.60	-39.8	-41.8	25.4	0.00e+00	0	42	0	0	50	4752
2026-01-19 22:57:21.90	152.25	14.50	-39.8	-41.8	25.4	0.00e+00	0	42	0	0	50	4755
2026-01-19 22:57:22.89	152.00	14.40	-40.0	-42.1	25.2	0.00e+00	0	41	0	0	50	4875
2026-01-19 22:57:23.89	151.75	14.30	-40.1	-42.2	25.1	0.00e+00	0	41	0	0	50	4973
2026-01-19 22:57:24.93	151.49	14.20	-40.2	-42.3	25.0	0.00e+00	0	42	0	0	51	4743
2026-01-19 22:57:25.95	151.23	14.10	-40.2	-42.3	24.9	0.00e+00	0	41	0	0	51	4736
2026-01-19 22:57:26.98	150.98	14.00	-40.2	-42.3	25.0	0.00e+00	0	41	0	0	51	4751
2026-01-19 22:57:27.98	150.74	13.90	-40.2	-42.4	25.0	0.00e+00	0	41	0	0	51	4768
2026-01-19 22:57:28.97	150.50	13.80	-40.4	-42.5	24.8	0.00e+00	0	41	0	0	51	4863
2026-01-19 22:57:29.97	150.26	13.70	-40.6	-42.8	24.6	0.00e+00	0	41	0	0	51	4994
2026-01-19 22:57:30.96	150.02	13.60	-40.6	-42.8	24.5	0.00e+00	0	41	0	0	52	4733
2026-01-19 22:57:31.96	149.79	13.50	-40.6	-42.8	24.5	0.00e+00	0	41	0	0	52	4721
2026-01-19 22:57:32.95	149.56	13.41	-40.6	-42.8	24.5	0.00e+00	0	42	0	0	52	4736
2026-01-19 22:57:33.95	149.33	13.31	-40.4	-42.6	24.7	0.00e+00	0	41	0	0	52	4624
2026-01-19 22:57:34.94	149.10	13.21	-40.3	-42.5	24.8	0.00e+00	0	41	0	0	52	4556
2026-01-19 22:57:35.93	148.87	13.11	-40.3	-42.5	24.8	0.00e+00	0	42	0	0	52	4553
2026-01-19 22:57:36.93	148.65	13.02	-40.4	-42.5	24.7	0.00e+00	0	41	0	0	52	4597
2026-01-19 22:57:37.92	148.43	12.92	-40.4	-42.6	24.7	0.00e+00	0	42	0	0	52	4620
2026-01-19 22:57:38.92	148.21	12.82	-40.6	-42.8	24.5	0.00e+00	0	42	0	0	52	4734
2026-01-19 22:57:39.91	147.99	12.73	-40.8	-43.0	24.2	0.00e+00	0	41	0	0	52	4865
2026-01-19 22:57:40.91	147.77	12.63	-40.8	-43.1	24.3	0.00e+00	0	41	0	0	52	4875
2026-01-19 22:57:41.93	147.55	12.53	-40.9	-43.1	24.2	0.00e+00	0	42	0	0	52	4881
2026-01-19 22:57:42.96	147.33	12.43	-41.0	-43.2	24.1	0.00e+00	0	41	0	0	52	4953
2026-01-19 22:57:43.96	147.12	12.34	-41.1	-43.3	24.1	0.00e+00	0	41	0	0	52	5016
2026-01-19 22:57:44.95	146.91	12.24	-41.1	-43.4	24.0	0.00e+00	0	42	0	0	52	5057
2026-01-19 22:57:45.94	146.70	12.15	-41.2	-43.5	23.9	0.00e+00	0	41	0	0	53	4832
2026-01-19 22:57:46.94	146.49	12.05	-41.2	-43.5	23.9	0.00e+00	0	41	0	0	53	4846
2026-01-19 22:57:47.93	146.29	11.96	-41.2	-43.5	23.9	0.00e+00	0	41	0	0	53	4823
2026-01-19 22:57:48.93	146.09	11.87	-41.1	-43.4	23.9	0.00e+00	0	42	0	0	53	4790
2026-01-19 22:57:49.92	145.89	11.77	-41.1	-43.4	23.9	0.00e+00	0	42	0	0	53	4782
2026-01-19 22:57:50.92	145.69	11.68	-41.1	-43.4	23.9	0.00e+00	0	42	0	0	53	4803
2026-01-19 22:57:51.91	145.49	11.59	-41.1	-43.4	23.9	0.00e+00	0	41	0	0	53	4799
2026-01-19 22:57:52.90	145.30	11.49	-41.2	-43.5	23.9	0.00e+00	0	41	0	0	53	4846
2026-01-19 22:57:53.90	145.10	11.40	-41.3	-43.6	23.8	0.00e+00	0	41	0	0	53	4907
2026-01-19 22:57:54.89	144.91	11.31	-41.5	-43.8	23.6	0.00e+00	0	42	0	0	53	5012
2026-01-19 22:57:55.89	144.72	11.22	-41.4	-43.7	23.6	0.00e+00	0	42	0	0	53	4974
2026-01-19 22:57:56.88	144.53	11.12	-41.4	-43.7	23.6	0.00e+00	0	41	0	0	53	4950
2026-01-19 22:57:57.88	144.34	11.03	-41.4	-43.8	23.6	0.00e+00	0	41	0	0	53	4984
2026-01-19 22:57:58.97	144.14	10.93	-41.4	-43.7	23.7	0.00e+00	0	42	0	0	53	4927
2026-01-19 22:57:59.85	143.98	10.85	-41.3	-43.6	23.7	0.00e+00	0	42	0	0	53	4910
2026-01-19 22:58:00.99	143.77	10.75	-41.2	-43.5	23.8	0.00e+00	0	41	0	0	53	4842
2026-01-19 22:58:01.84	143.61	10.67	-41.3	-43.6	23.7	0.00e+00	0	42	0	0	53	4877
2026-01-19 22:58:02.98	143.41	10.57	-41.4	-43.7	23.6	0.00e+00	0	41	0	0	53	4963
2026-01-19 22:58:03.83	143.25	10.49	-41.5	-43.9	23.5	0.00e+00	0	42	0	0	53	5044
2026-01-19 22:58:04.97	143.05	10.39	-41.6	-43.9	23.4	0.00e+00	0	41	0	0	53	5088
2026-01-19 22:58:05.82	142.90	10.31	-41.7	-44.1	23.3	0.00e+00	0	41	0	0	54	4894
2026-01-19 22:58:06.96	142.70	10.21	-41.9	-44.3	23.1	0.00e+00	0	42	0	0	54	5034
2026-01-19 22:58:07.81	142.55	10.13	-41.9	-44.2	23.1	0.00e+00	0	41	0	0	54	4968
2026-01-19 22:58:08.95	142.36	10.03	-41.8	-44.1	23.2	0.00e+00	0	41	0	0	54	4924
2026-01-19 22:58:09.80	142.21	9.96	-41.9	-44.3	23.1	0.00e+00	0	42	0	0	54	5006
2026-01-19 22:58:11.00	142.01	9.85	-42.1	-44.6	22.8	0.00e+00	0	41	0	0	54	5187
2026-01-19 22:58:11.86	141.86	9.78	-42.2	-44.7	22.7	0.00e+00	0	41	0	0	55	4957
2026-01-19 22:58:13.00	141.68	9.68	-42.2	-44.7	22.7	0.00e+00	0	42	0	0	55	4948
2026-01-19 22:58:13.85	141.53	9.60	-42.2	-44.7	22.7	0.00e+00	0	41	0	0	55	4978
2026-01-19 22:58:14.99	141.35	9.50	-42.2	-44.7	22.6	0.00e+00	0	41	0	0	55	4957
2026-01-19 22:58:15.84	141.21	9.43	-42.3	-44.8	22.6	0.00e+00	0	42	0	0	55	4984
2026-01-19 22:58:16.98	141.03	9.33	-42.2	-44.7	22.7	0.00e+00	0	42	0	0	55	4958
2026-01-19 22:58:17.83	140.89	9.26	-42.2	-44.7	22.6	0.00e+00	0	42	0	0	55	4966
2026-01-19 22:58:18.96	140.71	9.16	-42.2	-44.7	22.7	0.00e+00	0	42	0	0	55	4974
2026-01-19 22:58:19.81	140.58	9.09	-42.3	-44.8	22.6	0.00e+00	0	42	0	0	55	4988
2026-01-19 22:58:20.95	140.40	8.99	-49.5	-58.7	11.3	0.00e+00	0	41	0	0	69	11059
2026-01-19 22:58:21.80	140.27	8.92	-50.4	-68.2	3.9	4.53e-01	0	41	104	0	71	29575
2026-01-19 22:58:22.94	140.09	8.82	-50.6	-69.3	3.8	4.53e-01	0	41	104	0	71	33370
2026-01-19 22:58:23.79	139.96	8.75	-50.5	-69.5	3.8	8.46e-01	0	42	104	0	71	34210
2026-01-19 22:58:24.92	139.79	8.65	-50.5	-69.5	3.8	8.46e-01	0	42	104	0	72	32376
2026-01-19 22:58:25.77	139.67	8.58	-50.7	-69.5	3.8	8.46e-01	0	42	104	0	72	32530
2026-01-19 22:58:26.91	139.50	8.48	-50.8	-69.6	3.8	8.47e-01	0	42	104	0	72	32807
2026-01-19 22:58:27.76	139.37	8.41	-50.9	-69.7	3.8	8.47e-01	0	42	104	0	72	33047
2026-01-19 22:58:28.90	139.20	8.32	-50.9	-69.7	3.8	8.47e-01	0	41	104	0	72	33130
2026-01-19 22:58:29.75	139.08	8.25	-50.9	-69.7	3.8	8.47e-01	0	41	104	0	72	33097
2026-01-19 22:58:30.88	138.92	8.15	-50.9	-69.7	3.8	8.47e-01	0	41	104	0	72	33241
2026-01-19 22:58:31.74	138.80	8.08	-50.9	-69.8	3.8	8.47e-01	0	41	104	0	72	33336
2026-01-19 22:58:32.87	138.64	7.99	-50.9	-69.7	3.8	8.47e-01	0	41	104	0	72	33307
2026-01-19 22:58:33.72	138.52	7.92	-51.0	-69.8	3.8	8.47e-01	0	41	104	0	72	33464
2026-01-19 22:58:34.86	138.36	7.83	-50.9	-69.8	3.8	8.47e-01	0	41	104	0	72	33435
2026-01-19 22:58:35.71	138.24	7.76	-51.0	-69.8	3.8	8.48e-01	0	42	104	0	72	33438
2026-01-19 22:58:36.85	138.08	7.67	-50.9	-69.8	3.8	8.48e-01	0	42	104	0	72	33435
2026-01-19 22:58:37.70	137.97	7.60	-50.9	-69.8	3.8	8.48e-01	0	42	104	0	72	33504
2026-01-19 22:58:38.83	137.81	7.51	-50.9	-69.8	3.8	8.47e-01	0	41	104	0	72	33327
2026-01-19 22:58:39.69	137.70	7.44	-50.6	-69.8	3.8	8.47e-01	0	42	104	0	72	33436
2026-01-19 22:58:40.82	137.55	7.35	-50.6	-69.8	3.8	8.47e-01	0	41	104	0	72	33372
2026-01-19 22:58:41.68	137.43	7.28	-50.6	-69.8	3.8	8.47e-01	0	41	104	0	72	33325
2026-01-19 22:58:42.81	137.28	7.19	-50.6	-69.7	3.8	8.47e-01	0	41	104	0	72	33277
2026-01-19 22:58:43.66	137.17	7.12	-50.6	-69.7	3.8	8.48e-01	0	42	104	0	72	33261
2026-01-19 22:58:44.80	137.03	7.03	-50.6	-69.7	3.8	8.48e-01	0	42	104	0	72	33218
2026-01-19 22:58:45.65	136.92	6.97	-50.6	-69.7	3.8	8.46e-01	0	42	104	0	72	33183
2026-01-19 22:58:46.78	136.77	6.88	-50.6	-69.7	3.8	8.47e-01	0	41	104	0	72	33224
2026-01-19 22:58:47.64	136.66	6.81	-50.6	-69.7	3.8	8.47e-01	0	42	104	0	72	33246
2026-01-19 22:58:48.77	136.52	6.72	-50.6	-69.7	3.8	8.46e-01	0	42	104	0	72	33077
2026-01-19 22:58:49.62	136.42	6.66	-50.6	-69.7	3.8	8.46e-01	0	42	104	0	72	33245
2026-01-19 22:58:50.76	136.28	6.57	-50.6	-69.7	3.8	8.46e-01	0	41	104	0	72	33135
2026-01-19 22:58:51.61	136.17	6.50	-50.6	-69.7	3.8	8.47e-01	0	41	104	0	72	33143
2026-01-19 22:58:52.75	136.03	6.41	-50.6	-69.7	3.8	8.49e-01	0	41	104	0	72	33162
2026-01-19 22:58:53.60	135.93	6.35	-50.6	-69.7	3.8	8.49e-01	0	42	104	0	72	33104
2026-01-19 22:58:54.73	135.79	6.26	-50.6	-69.7	3.8	8.47e-01	0	42	104	0	72	33172
2026-01-19 22:58:55.59	135.69	6.20	-50.6	-69.7	3.8	8.48e-01	0	42	104	0	72	33153
2026-01-19 22:58:56.72	135.56	6.11	-50.6	-69.7	3.8	8.48e-01	0	42	104	0	72	33134
2026-01-19 22:58:57.57	135.46	6.05	-50.6	-69.7	3.8	8.47e-01	0	42	104	0	72	33209
2026-01-19 22:58:58.71	135.32	5.96	-50.6	-69.7	3.8	8.47e-01	0	42	104	0	72	33262
2026-01-19 22:58:59.56	135.23	5.90	-50.6	-69.7	3.8	8.47e-01	0	42	104	0	72	33086
2026-01-19 22:59:00.69	135.10	5.81	-50.6	-69.7	3.8	8.46e-01	0	42	104	0	72	33153
2026-01-19 22:59:01.55	135.00	5.75	-50.6	-69.7	3.8	8.46e-01	0	42	104	0	72	33105
2026-01-19 22:59:02.68	134.87	5.67	-50.5	-69.7	3.8	8.47
