passes_logs/2026/01/19/T1/T1__20260119_222203_NOAA_20_JPSS-1_rec.log

#Pass ID: 20260119_222203_NOAA 20 (JPSS-1)
#Satellite: NOAA 20 (JPSS-1)
#Configuration: NOAA 20
#almurnet v.1.7.20251203
#Start time: 2026-01-19 22:22:04

#Version: 2.0.20230620
#Station: T1
#Location: 37.570604 lon 55.790049 lat
#TLE: 1 43013U 17073A   26019.27717929  .00000087  00000+0  62288-4 0  9995
#TLE: 2 43013  98.7641 320.1715 0001339  33.1986 326.9274 14.19537047423343

#Time	Az	El	Level	Level2	SNR	BER	BlckErr	Temp	State	Recorded	gain1	gain2
2026-01-19 22:22:04.19	27.44	5.03	-49.8	-65.4	3.8	1.49e+00	0	41	0	0	71	21410
2026-01-19 22:22:05.18	27.52	5.09	-49.8	-65.5	3.8	1.49e+00	0	41	104	0	70	22785
2026-01-19 22:22:06.55	27.62	5.17	-49.8	-65.4	3.8	1.49e+00	0	41	104	0	70	22718
2026-01-19 22:22:07.29	27.68	5.22	-49.8	-65.4	3.8	1.49e+00	0	41	104	0	70	22672
2026-01-19 22:22:08.57	27.78	5.30	-49.8	-65.4	3.8	1.49e+00	0	41	104	0	70	22706
2026-01-19 22:22:09.28	27.84	5.34	-49.8	-65.4	3.8	1.49e+00	0	41	104	0	70	22689
2026-01-19 22:22:10.56	27.94	5.42	-49.8	-65.4	3.8	1.49e+00	0	41	104	0	70	22665
2026-01-19 22:22:11.27	27.99	5.46	-49.8	-65.4	3.8	1.49e+00	0	41	104	0	70	22621
2026-01-19 22:22:12.54	28.09	5.54	-49.8	-65.4	3.8	1.49e+00	0	42	104	0	70	22572
2026-01-19 22:22:13.25	28.15	5.59	-49.8	-65.4	3.8	1.49e+00	0	41	104	0	70	22602
2026-01-19 22:22:14.56	28.25	5.67	-49.8	-65.4	3.8	1.49e+00	0	41	104	0	70	22565
2026-01-19 22:22:15.27	28.31	5.71	-49.8	-65.3	3.8	1.49e+00	0	41	104	0	70	22432
2026-01-19 22:22:16.63	28.42	5.80	-49.8	-65.3	3.8	1.49e+00	0	41	104	0	70	22482
2026-01-19 22:22:17.34	28.48	5.84	-49.8	-65.3	3.8	1.49e+00	0	42	104	0	70	22464
2026-01-19 22:22:18.66	28.58	5.92	-49.8	-65.3	3.8	1.49e+00	0	42	104	0	70	22367
2026-01-19 22:22:19.37	28.64	5.97	-49.8	-65.3	3.8	1.49e+00	0	42	104	0	70	22411
2026-01-19 22:22:20.71	28.75	6.05	-49.8	-65.3	3.8	1.49e+00	0	42	104	0	70	22411
2026-01-19 22:22:21.42	28.81	6.10	-49.8	-65.3	3.8	1.49e+00	0	42	104	0	70	22392
2026-01-19 22:22:22.78	28.92	6.18	-49.8	-65.3	3.8	1.49e+00	0	42	104	0	70	22440
2026-01-19 22:22:23.49	28.98	6.23	-49.7	-65.3	3.8	1.49e+00	0	42	104	0	70	22458
2026-01-19 22:22:24.83	29.09	6.31	-49.8	-65.3	3.8	1.49e+00	0	42	104	0	70	22473
2026-01-19 22:22:25.54	29.15	6.36	-49.8	-65.3	3.8	1.49e+00	0	42	104	0	70	22515
2026-01-19 22:22:26.81	29.26	6.44	-49.8	-65.3	3.8	1.49e+00	0	42	104	0	70	22467
2026-01-19 22:22:27.52	29.32	6.48	-49.7	-65.4	3.8	1.49e+00	0	42	104	0	70	22559
2026-01-19 22:22:28.82	29.43	6.57	-49.8	-65.4	3.8	1.49e+00	0	42	104	0	70	22527
2026-01-19 22:22:29.53	29.49	6.61	-49.8	-65.4	3.8	1.49e+00	0	42	104	0	70	22532
2026-01-19 22:22:30.80	29.60	6.69	-49.8	-65.3	3.8	1.49e+00	0	42	104	0	70	22413
2026-01-19 22:22:31.53	29.66	6.74	-49.8	-65.3	3.8	1.49e+00	0	42	104	0	70	22416
2026-01-19 22:22:32.80	29.77	6.82	-49.7	-65.3	3.8	1.49e+00	0	42	104	0	70	22332
2026-01-19 22:22:33.51	29.83	6.87	-49.8	-65.3	3.8	1.49e+00	0	42	104	0	70	22292
2026-01-19 22:22:34.79	29.94	6.95	-49.8	-65.3	3.8	1.49e+00	0	42	104	0	70	22303
2026-01-19 22:22:35.50	30.00	7.00	-49.8	-65.3	3.8	1.49e+00	0	42	104	0	70	22268
2026-01-19 22:22:36.78	30.11	7.08	-49.8	-65.3	3.8	1.49e+00	0	42	104	0	70	22369
2026-01-19 22:22:37.49	30.18	7.13	-49.8	-65.3	3.8	1.49e+00	0	42	104	0	70	22455
2026-01-19 22:22:38.77	30.29	7.21	-49.7	-65.3	3.8	1.49e+00	0	42	104	0	70	22410
2026-01-19 22:22:39.48	30.35	7.25	-49.7	-65.2	3.8	1.49e+00	0	42	104	0	70	22249
2026-01-19 22:22:40.75	30.47	7.34	-49.8	-65.2	3.8	1.49e+00	0	42	104	0	70	22094
2026-01-19 22:22:41.47	30.53	7.38	-49.7	-65.2	3.8	1.49e+00	0	42	104	0	70	22023
2026-01-19 22:22:42.74	30.64	7.47	-49.7	-65.1	3.8	1.49e+00	0	42	104	0	70	21900
2026-01-19 22:22:43.45	30.71	7.51	-49.7	-65.1	3.8	1.49e+00	0	42	104	0	70	21861
2026-01-19 22:22:44.86	30.83	7.61	-49.7	-65.1	3.8	1.49e+00	0	42	104	0	70	21882
2026-01-19 22:22:45.56	30.90	7.65	-49.8	-65.2	3.8	1.49e+00	0	42	104	0	70	22130
2026-01-19 22:22:46.84	31.01	7.74	-49.8	-65.3	3.8	1.49e+00	0	42	104	0	70	22325
2026-01-19 22:22:47.55	31.08	7.78	-49.8	-65.3	3.8	1.49e+00	0	42	104	0	70	22433
2026-01-19 22:22:48.83	31.20	7.87	-49.7	-65.4	3.8	1.49e+00	0	42	104	0	70	22563
2026-01-19 22:22:49.56	31.27	7.92	-49.7	-65.4	3.8	1.49e+00	0	42	104	0	70	22521
2026-01-19 22:22:50.83	31.38	8.00	-49.8	-65.3	3.8	1.49e+00	0	42	104	0	70	22515
2026-01-19 22:22:51.54	31.45	8.05	-49.7	-65.4	3.8	1.49e+00	0	42	104	0	70	22592
2026-01-19 22:22:52.82	31.57	8.13	-49.8	-65.3	3.8	1.49e+00	0	42	104	0	70	22462
2026-01-19 22:22:53.53	31.64	8.18	-49.8	-65.3	3.8	1.49e+00	0	42	104	0	70	22386
2026-01-19 22:22:54.81	31.76	8.26	-49.7	-65.2	3.8	1.49e+00	0	43	104	0	70	22113
2026-01-19 22:22:55.52	31.82	8.31	-49.8	-65.1	3.8	1.49e+00	0	43	104	0	70	21968
2026-01-19 22:22:56.79	31.94	8.40	-49.7	-65.0	3.8	1.49e+00	0	43	104	0	70	21525
2026-01-19 22:22:57.52	32.01	8.45	-49.7	-64.8	3.8	1.49e+00	0	43	104	0	70	21116
2026-01-19 22:22:58.80	32.14	8.53	-49.7	-64.6	3.8	1.49e+00	0	43	104	0	70	20686
2026-01-19 22:22:59.51	32.21	8.58	-49.7	-64.4	3.8	1.49e+00	0	43	104	0	70	20229
2026-01-19 22:23:00.78	32.33	8.66	-49.7	-64.1	3.8	1.49e+00	0	43	104	0	70	19440
2026-01-19 22:23:01.49	32.40	8.71	-49.6	-63.6	3.8	1.49e+00	0	43	104	0	70	18389
2026-01-19 22:23:02.77	32.52	8.80	-49.6	-62.2	3.9	1.47e+00	0	43	104	0	70	15606
2026-01-19 22:23:03.48	32.59	8.85	-49.4	-60.7	4.5	1.38e+00	0	43	0	0	70	13198
2026-01-19 22:23:04.76	32.72	8.93	-49.1	-58.1	6.1	4.98e-01	0	43	0	2097152	70	9784
2026-01-19 22:23:05.47	32.79	8.98	-48.8	-56.9	7.2	1.88e-01	0	43	0	4194304	69	8992
2026-01-19 22:23:06.75	32.92	9.07	-48.8	-56.4	7.7	6.82e-02	0	43	0	6291456	69	8493
2026-01-19 22:23:07.47	32.99	9.12	-49.3	-58.0	6.3	8.41e-02	0	43	0	7340032	69	10292
2026-01-19 22:23:08.75	33.12	9.21	-48.0	-53.8	10.2	8.14e-01	0	43	0	9437184	68	6709
2026-01-19 22:23:09.46	33.19	9.25	-48.6	-55.9	8.2	2.51e-03	0	43	0	10485760	67	9037
2026-01-19 22:23:10.74	33.32	9.34	-46.1	-49.8	14.2	4.21e-01	0	43	0	11534336	64	5291
2026-01-19 22:23:11.47	33.39	9.39	-45.4	-48.7	15.5	7.00e-07	0	43	0	12582912	62	5249
2026-01-19 22:23:12.75	33.52	9.48	-45.3	-48.4	15.8	0.00e+00	0	43	0	15728640	62	5090
2026-01-19 22:23:13.46	33.60	9.53	-45.3	-48.5	15.8	0.00e+00	0	43	0	16777216	62	5108
2026-01-19 22:23:14.74	33.73	9.62	-45.2	-48.2	16.0	0.00e+00	0	43	0	18874368	62	4970
2026-01-19 22:23:15.46	33.80	9.67	-45.2	-48.3	15.9	0.00e+00	0	43	0	19922944	62	5035
2026-01-19 22:23:16.74	33.94	9.76	-45.1	-48.2	16.0	0.00e+00	0	43	0	23068672	62	4971
2026-01-19 22:23:17.65	34.03	9.82	-45.2	-48.3	16.0	0.00e+00	0	43	0	24117248	62	4992
2026-01-19 22:23:18.97	34.17	9.91	-45.0	-48.0	16.2	0.00e+00	0	43	0	27262976	62	4850
2026-01-19 22:23:19.67	34.24	9.96	-45.0	-47.9	16.2	0.00e+00	0	43	0	28311552	61	5099
2026-01-19 22:23:20.95	34.38	10.05	-44.9	-47.9	16.2	0.00e+00	0	43	0	30408704	61	5086
2026-01-19 22:23:21.66	34.46	10.10	-44.9	-47.9	16.3	0.00e+00	0	43	0	31457280	61	5059
2026-01-19 22:23:22.94	34.59	10.19	-44.9	-47.9	16.2	0.00e+00	0	43	0	34603008	61	5095
2026-01-19 22:23:23.65	34.67	10.24	-44.8	-47.8	16.4	0.00e+00	0	43	0	35651584	61	4998
2026-01-19 22:23:24.93	34.81	10.33	-44.9	-48.0	16.2	0.00e+00	0	43	0	37748736	61	5108
2026-01-19 22:23:25.66	34.89	10.38	-44.9	-47.9	16.3	0.00e+00	0	43	0	39845888	61	5094
2026-01-19 22:23:27.00	35.03	10.47	-44.8	-47.7	16.5	0.00e+00	0	43	0	41943040	61	4973
2026-01-19 22:23:27.71	35.11	10.52	-44.8	-47.8	16.4	0.00e+00	0	43	0	42991616	61	5008
2026-01-19 22:23:29.02	35.25	10.61	-44.7	-47.7	16.6	0.00e+00	0	43	0	46137344	61	4934
2026-01-19 22:23:29.73	35.33	10.66	-44.7	-47.6	16.6	0.00e+00	0	43	0	47185920	61	4917
2026-01-19 22:23:31.01	35.47	10.75	-44.8	-47.8	16.5	0.00e+00	0	43	0	49283072	61	4998
2026-01-19 22:23:31.73	35.56	10.81	-44.8	-47.8	16.4	0.00e+00	0	43	0	50331648	61	5007
2026-01-19 22:23:33.01	35.70	10.90	-44.7	-47.7	16.6	0.00e+00	0	43	0	53477376	61	4927
2026-01-19 22:23:33.74	35.78	10.95	-44.7	-47.7	16.6	0.00e+00	0	43	0	54525952	61	4944
2026-01-19 22:23:35.21	35.95	11.05	-44.6	-47.6	16.7	0.00e+00	0	43	0	57671680	61	4899
2026-01-19 22:23:35.92	36.03	11.10	-44.6	-47.6	16.6	0.00e+00	0	43	0	58720256	61	4878
2026-01-19 22:23:37.26	36.18	11.20	-44.5	-47.4	16.8	0.00e+00	0	43	0	60817408	61	4791
2026-01-19 22:23:37.97	36.26	11.25	-44.5	-47.4	16.8	0.00e+00	0	43	0	62914560	61	4784
2026-01-19 22:23:39.25	36.41	11.34	-44.5	-47.4	16.9	0.00e+00	0	43	0	65011712	60	5068
2026-01-19 22:23:39.99	36.50	11.40	-44.5	-47.4	16.9	0.00e+00	0	43	0	66060288	60	5049
2026-01-19 22:23:41.27	36.65	11.49	-44.4	-47.2	17.1	0.00e+00	0	43	0	68157440	60	4944
2026-01-19 22:23:41.99	36.73	11.54	-44.5	-47.3	17.0	0.00e+00	0	43	0	70254592	60	5013
2026-01-19 22:23:43.27	36.88	11.63	-44.4	-47.1	17.1	0.00e+00	0	43	0	72351744	60	4923
2026-01-19 22:23:44.00	36.97	11.68	-44.4	-47.1	17.1	0.00e+00	0	43	0	73400320	60	4917
2026-01-19 22:23:45.28	37.12	11.78	-44.3	-47.0	17.2	0.00e+00	0	43	0	76546048	60	4865
2026-01-19 22:23:46.06	37.21	11.83	-44.3	-47.0	17.2	0.00e+00	0	43	0	77594624	60	4861
2026-01-19 22:23:47.63	37.40	11.95	-44.3	-47.0	17.3	0.00e+00	0	43	0	80740352	60	4856
2026-01-19 22:23:48.25	37.47	11.99	-44.3	-47.1	17.2	0.00e+00	0	43	0	81788928	60	4879
2026-01-19 22:23:49.97	37.68	12.12	-44.2	-46.9	17.3	0.00e+00	0	43	0	84934656	60	4804
2026-01-19 22:23:50.54	37.75	12.16	-44.3	-47.1	17.2	0.00e+00	0	43	0	85983232	60	4882
2026-01-19 22:23:52.24	37.96	12.28	-44.2	-46.9	17.3	0.00e+00	0	43	0	89128960	60	4813
2026-01-19 22:23:52.81	38.03	12.33	-44.2	-46.9	17.3	0.00e+00	0	43	0	90177536	60	4773
2026-01-19 22:23:54.52	38.24	12.45	-44.1	-46.7	17.6	0.00e+00	0	43	0	93323264	60	4686
2026-01-19 22:23:55.08	38.31	12.49	-44.0	-46.7	17.6	0.00e+00	0	43	0	94371840	60	4672
2026-01-19 22:23:56.77	38.53	12.62	-44.0	-46.7	17.6	0.00e+00	0	43	0	97517568	60	4664
2026-01-19 22:23:57.34	38.60	12.66	-44.0	-46.7	17.6	0.00e+00	0	43	0	98566144	60	4658
2026-01-19 22:23:59.04	38.81	12.78	-44.1	-46.8	17.5	0.00e+00	0	43	0	101711872	60	4716
2026-01-19 22:23:59.61	38.89	12.83	-44.2	-46.9	17.4	0.00e+00	0	43	0	102760448	60	4774
2026-01-19 22:24:01.30	39.10	12.95	-44.2	-46.8	17.4	0.00e+00	0	43	0	105906176	60	4749
2026-01-19 22:24:01.87	39.17	12.99	-44.3	-46.9	17.3	0.00e+00	0	43	0	106954752	60	4814
2026-01-19 22:24:03.57	39.40	13.12	-44.3	-47.0	17.3	0.00e+00	0	43	0	110100480	60	4815
2026-01-19 22:24:04.14	39.47	13.16	-44.3	-47.0	17.3	0.00e+00	0	43	0	111149056	60	4816
2026-01-19 22:24:05.85	39.69	13.29	-44.4	-47.1	17.2	0.00e+00	0	43	0	114294784	60	4894
2026-01-19 22:24:06.41	39.77	13.33	-44.3	-47.0	17.2	0.00e+00	0	43	0	115343360	60	4855
2026-01-19 22:24:08.12	39.99	13.46	-44.4	-47.1	17.2	0.00e+00	0	43	0	118489088	60	4909
2026-01-19 22:24:08.69	40.07	13.50	-44.3	-47.0	17.3	0.00e+00	0	43	0	119537664	60	4850
2026-01-19 22:24:10.39	40.30	13.63	-44.4	-47.0	17.3	0.00e+00	0	43	0	123731968	60	4870
2026-01-19 22:24:11.04	40.38	13.68	-44.4	-47.1	17.3	0.00e+00	0	43	0	124780544	60	4886
2026-01-19 22:24:12.46	40.58	13.78	-44.3	-47.0	17.3	0.00e+00	0	43	0	126877696	60	4859
2026-01-19 22:24:13.24	40.68	13.84	-44.3	-47.0	17.3	0.00e+00	0	43	0	128974848	60	4852
2026-01-19 22:24:14.83	40.90	13.96	-44.1	-46.7	17.6	0.00e+00	0	43	0	131072000	60	4662
2026-01-19 22:24:15.42	40.98	14.01	-44.1	-46.7	17.6	0.00e+00	0	43	0	133169152	60	4661
2026-01-19 22:24:16.98	41.20	14.12	-44.0	-46.6	17.7	0.00e+00	0	43	0	135266304	60	4602
2026-01-19 22:24:17.64	41.29	14.17	-44.0	-46.6	17.7	0.00e+00	0	43	0	136314880	60	4622
2026-01-19 22:24:19.06	41.49	14.28	-44.0	-46.5	17.7	0.00e+00	0	43	0	139460608	59	4840
2026-01-19 22:24:19.91	41.61	14.35	-44.0	-46.5	17.7	0.00e+00	0	43	0	141557760	59	4864
2026-01-19 22:24:21.05	41.77	14.43	-44.0	-46.5	17.7	0.00e+00	0	43	0	143654912	59	4830
2026-01-19 22:24:21.90	41.89	14.50	-44.0	-46.6	17.7	0.00e+00	0	43	0	144703488	59	4890
2026-01-19 22:24:23.04	42.05	14.58	-43.9	-46.4	17.8	0.00e+00	0	43	0	146800640	59	4771
2026-01-19 22:24:23.89	42.17	14.65	-43.9	-46.4	17.8	0.00e+00	0	43	0	148897792	59	4798
2026-01-19 22:24:25.03	42.34	14.73	-43.9	-46.4	17.9	0.00e+00	0	43	0	150994944	59	4765
2026-01-19 22:24:25.88	42.46	14.80	-43.8	-46.3	17.9	0.00e+00	0	44	0	152043520	59	4752
2026-01-19 22:24:27.02	42.63	14.89	-43.9	-46.4	17.9	0.00e+00	0	43	0	154140672	59	4777
2026-01-19 22:24:27.87	42.75	14.95	-43.8	-46.3	18.0	0.00e+00	0	44	0	156237824	59	4748
2026-01-19 22:24:29.10	42.93	15.04	-43.9	-46.4	17.9	0.00e+00	0	43	0	158334976	59	4768
2026-01-19 22:24:29.95	43.06	15.11	-43.9	-46.4	17.9	0.00e+00	0	43	0	160432128	59	4775
2026-01-19 22:24:31.09	43.23	15.20	-44.0	-46.5	17.7	0.00e+00	0	43	0	162529280	59	4849
2026-01-19 22:24:31.94	43.35	15.26	-43.9	-46.4	17.9	0.00e+00	0	43	0	163577856	59	4772
2026-01-19 22:24:33.07	43.52	15.35	-43.8	-46.3	18.0	0.00e+00	0	43	0	165675008	59	4756
2026-01-19 22:24:33.93	43.65	15.41	-43.8	-46.3	18.0	0.00e+00	0	43	0	167772160	59	4729
2026-01-19 22:24:35.06	43.82	15.50	-43.7	-46.2	18.1	0.00e+00	0	43	0	169869312	59	4653
2026-01-19 22:24:36.01	43.97	15.57	-43.8	-46.3	18.0	0.00e+00	0	44	0	170917888	59	4722
2026-01-19 22:24:37.00	44.12	15.65	-43.6	-46.0	18.2	0.00e+00	0	43	0	173015040	59	4596
2026-01-19 22:24:38.00	44.27	15.73	-43.6	-46.1	18.2	0.00e+00	0	43	0	175112192	59	4611
2026-01-19 22:24:38.99	44.43	15.80	-43.5	-46.0	18.3	0.00e+00	0	43	0	177209344	59	4567
2026-01-19 22:24:39.99	44.58	15.88	-43.5	-45.9	18.3	0.00e+00	0	43	0	178257920	58	4799
2026-01-19 22:24:40.98	44.74	15.96	-43.5	-45.9	18.3	0.00e+00	0	43	0	180355072	58	4810
2026-01-19 22:24:41.98	44.89	16.03	-43.5	-45.9	18.4	0.00e+00	0	43	0	182452224	58	4809
2026-01-19 22:24:42.97	45.05	16.11	-43.6	-46.1	18.2	0.00e+00	0	44	0	184549376	58	4882
2026-01-19 22:24:43.96	45.21	16.19	-43.4	-45.8	18.4	0.00e+00	0	43	0	186646528	58	4758
2026-01-19 22:24:44.99	45.37	16.27	-43.5	-45.9	18.4	0.00e+00	0	43	0	187695104	58	4812
2026-01-19 22:24:45.99	45.53	16.34	-43.5	-46.0	18.3	0.00e+00	0	43	0	189792256	58	4819
2026-01-19 22:24:46.98	45.69	16.42	-43.6	-46.0	18.2	0.00e+00	0	43	0	191889408	58	4853
2026-01-19 22:24:47.98	45.85	16.50	-43.6	-46.0	18.2	0.00e+00	0	43	0	193986560	58	4861
2026-01-19 22:24:48.97	46.01	16.57	-43.6	-46.0	18.3	0.00e+00	0	44	0	196083712	58	4850
2026-01-19 22:24:49.97	46.17	16.65	-43.7	-46.1	18.2	0.00e+00	0	43	0	197132288	58	4908
2026-01-19 22:24:50.96	46.34	16.73	-43.7	-46.1	18.2	0.00e+00	0	43	0	199229440	58	4917
2026-01-19 22:24:51.95	46.50	16.81	-43.9	-46.4	18.0	0.00e+00	0	43	0	201326592	58	5067
2026-01-19 22:24:52.95	46.67	16.88	-43.8	-46.3	18.0	0.00e+00	0	43	0	203423744	58	5004
2026-01-19 22:24:53.94	46.83	16.96	-43.9	-46.4	18.0	0.00e+00	0	43	0	204472320	58	5062
2026-01-19 22:24:54.93	47.00	17.04	-43.9	-46.4	17.9	0.00e+00	0	43	0	206569472	58	5056
2026-01-19 22:24:55.93	47.16	17.11	-43.8	-46.4	18.0	0.00e+00	0	43	0	208666624	58	5051
2026-01-19 22:24:56.92	47.33	17.19	-43.9	-46.4	18.0	0.00e+00	0	43	0	210763776	58	5047
2026-01-19 22:24:57.92	47.50	17.27	-43.9	-46.4	17.9	0.00e+00	0	43	0	212860928	58	5092
2026-01-19 22:24:58.93	47.67	17.35	-44.0	-46.5	17.9	0.00e+00	0	43	0	213909504	58	5117
2026-01-19 22:24:59.97	47.85	17.43	-44.0	-46.5	17.8	0.00e+00	0	43	0	216006656	58	5137
2026-01-19 22:25:00.93	48.02	17.50	-44.0	-46.6	17.8	0.00e+00	0	43	0	218103808	58	5168
2026-01-19 22:25:01.93	48.19	17.58	-43.9	-46.4	17.9	0.00e+00	0	44	0	220200960	58	5081
2026-01-19 22:25:02.92	48.36	17.66	-43.9	-46.4	17.9	0.00e+00	0	43	0	221249536	58	5097
2026-01-19 22:25:03.91	48.54	17.73	-43.8	-46.2	18.1	0.00e+00	0	43	0	223346688	58	4976
2026-01-19 22:25:04.91	48.71	17.81	-43.7	-46.1	18.2	0.00e+00	0	43	0	225443840	58	4906
2026-01-19 22:25:05.90	48.89	17.89	-43.7	-46.1	18.3	0.00e+00	0	43	0	227540992	58	4890
2026-01-19 22:25:06.90	49.07	17.97	-43.7	-46.1	18.2	0.00e+00	0	43	0	229638144	58	4926
2026-01-19 22:25:07.89	49.24	18.04	-43.6	-46.0	18.4	0.00e+00	0	43	0	230686720	58	4823
2026-01-19 22:25:08.89	49.42	18.12	-43.5	-45.8	18.5	0.00e+00	0	43	0	232783872	58	4754
2026-01-19 22:25:09.88	49.60	18.20	-43.4	-45.8	18.6	0.00e+00	0	43	0	234881024	58	4725
2026-01-19 22:25:10.88	49.78	18.27	-43.4	-45.8	18.5	0.00e+00	0	43	0	236978176	58	4733
2026-01-19 22:25:11.87	49.96	18.35	-43.4	-45.8	18.5	0.00e+00	0	43	0	238026752	58	4728
2026-01-19 22:25:12.87	50.15	18.43	-43.4	-45.8	18.5	0.00e+00	0	43	0	240123904	58	4738
2026-01-19 22:25:13.86	50.33	18.51	-43.3	-45.6	18.7	0.00e+00	0	43	0	242221056	58	4642
2026-01-19 22:25:14.85	50.51	18.58	-43.1	-45.5	18.8	0.00e+00	0	43	0	244318208	58	4549
2026-01-19 22:25:15.85	50.70	18.66	-43.0	-45.3	19.0	0.00e+00	0	43	0	246415360	58	4477
2026-01-19 22:25:16.84	50.88	18.74	-42.9	-45.2	19.1	0.00e+00	0	43	0	247463936	57	4686
2026-01-19 22:25:17.85	51.07	18.81	-42.9	-45.1	19.1	0.00e+00	0	43	0	249561088	57	4634
2026-01-19 22:25:18.88	51.26	18.89	-42.8	-45.1	19.2	0.00e+00	0	43	0	251658240	57	4600
2026-01-19 22:25:19.87	51.45	18.97	-42.8	-45.0	19.2	0.00e+00	0	43	0	253755392	57	4586
2026-01-19 22:25:20.95	51.66	19.05	-42.7	-44.9	19.3	0.00e+00	0	43	0	255852544	57	4530
2026-01-19 22:25:21.83	51.83	19.12	-42.7	-44.9	19.3	0.00e+00	0	43	0	256901120	57	4524
2026-01-19 22:25:22.97	52.05	19.21	-42.7	-45.0	19.3	0.00e+00	0	44	0	258998272	57	4564
2026-01-19 22:25:23.88	52.22	19.28	-42.7	-45.0	19.2	0.00e+00	0	44	0	261095424	57	4572
2026-01-19 22:25:24.88	52.42	19.35	-42.6	-44.9	19.4	0.00e+00	0	43	0	263192576	57	4516
2026-01-19 22:25:25.87	52.61	19.43	-42.7	-45.0	19.3	0.00e+00	0	43	0	265289728	57	4555
2026-01-19 22:25:26.87	52.81	19.51	-42.7	-44.9	19.4	0.00e+00	0	44	0	266338304	57	4520
2026-01-19 22:25:27.86	53.00	19.58	-42.6	-44.9	19.4	0.00e+00	0	44	0	268435456	57	4507
2026-01-19 22:25:28.86	53.20	19.66	-42.5	-44.8	19.4	0.00e+00	0	43	0	270532608	57	4444
2026-01-19 22:25:29.85	53.40	19.74	-42.5	-44.7	19.5	0.00e+00	0	44	0	272629760	56	4704
2026-01-19 22:25:30.85	53.60	19.81	-42.5	-44.6	19.6	0.00e+00	0	44	0	273678336	56	4641
2026-01-19 22:25:31.84	53.79	19.89	-42.6	-44.8	19.5	0.00e+00	0	43	0	275775488	56	4728
2026-01-19 22:25:32.84	54.00	19.96	-42.6	-44.8	19.4	0.00e+00	0	44	0	277872640	56	4759
2026-01-19 22:25:33.83	54.20	20.04	-42.8	-45.1	19.2	0.00e+00	0	43	0	279969792	56	4898
2026-01-19 22:25:34.83	54.40	20.11	-42.7	-45.0	19.3	0.00e+00	0	44	0	282066944	56	4833
2026-01-19 22:25:35.85	54.61	20.19	-42.8	-45.1	19.2	0.00e+00	0	44	0	283115520	56	4876
2026-01-19 22:25:36.85	54.82	20.27	-42.8	-45.1	19.2	0.00e+00	0	44	0	285212672	56	4897
2026-01-19 22:25:37.84	55.02	20.34	-42.7	-45.0	19.3	0.00e+00	0	44	0	287309824	56	4842
2026-01-19 22:25:38.92	55.25	20.42	-42.8	-45.0	19.2	0.00e+00	0	44	0	289406976	56	4860
2026-01-19 22:25:39.83	55.44	20.49	-42.7	-45.0	19.3	0.00e+00	0	43	0	290455552	56	4815
2026-01-19 22:25:40.83	55.65	20.57	-42.7	-45.0	19.3	0.00e+00	0	43	0	292552704	56	4829
2026-01-19 22:25:41.82	55.85	20.64	-42.8	-45.1	19.2	0.00e+00	0	44	0	294649856	56	4896
2026-01-19 22:25:42.82	56.07	20.71	-42.8	-45.1	19.2	0.00e+00	0	44	0	296747008	56	4873
2026-01-19 22:25:43.82	56.28	20.79	-42.8	-45.0	19.3	0.00e+00	0	43	0	298844160	56	4868
2026-01-19 22:25:44.81	56.49	20.86	-42.8	-45.1	19.2	0.00e+00	0	44	0	299892736	56	4885
2026-01-19 22:25:45.81	56.71	20.94	-42.9	-45.1	19.2	0.00e+00	0	44	0	301989888	56	4903
2026-01-19 22:25:46.80	56.92	21.01	-42.9	-45.1	19.2	0.00e+00	0	43	0	304087040	56	4918
2026-01-19 22:25:47.80	57.14	21.08	-42.9	-45.2	19.1	0.00e+00	0	43	0	306184192	56	4958
2026-01-19 22:25:48.79	57.35	21.16	-42.9	-45.2	19.1	0.00e+00	0	44	0	307232768	56	4960
2026-01-19 22:25:49.79	57.57	21.23	-42.9	-45.2	19.1	0.00e+00	0	43	0	309329920	56	4975
2026-01-19 22:25:50.84	57.80	21.31	-42.9	-45.1	19.2	0.00e+00	0	44	0	311427072	56	4920
2026-01-19 22:25:51.74	58.00	21.37	-42.9	-45.2	19.2	0.00e+00	0	44	0	313524224	56	4937
2026-01-19 22:25:52.77	58.23	21.45	-43.1	-45.4	18.9	0.00e+00	0	44	0	315621376	56	5072
2026-01-19 22:25:53.76	58.45	21.52	-43.1	-45.4	18.9	0.00e+00	0	44	0	316669952	56	5089
2026-01-19 22:25:54.76	58.68	21.59	-43.2	-45.5	18.8	0.00e+00	0	43	0	318767104	57	4846
2026-01-19 22:25:55.75	58.90	21.66	-43.3	-45.6	18.7	0.00e+00	0	44	0	320864256	57	4913
2026-01-19 22:25:56.75	59.12	21.73	-43.4	-45.8	18.6	0.00e+00	0	44	0	322961408	57	5007
2026-01-19 22:25:57.74	59.35	21.80	-43.5	-46.0	18.4	0.00e+00	0	43	0	324009984	57	5113
2026-01-19 22:25:58.74	59.58	21.88	-43.4	-45.8	18.5	0.00e+00	0	44	0	326107136	57	5040
2026-01-19 22:25:59.73	59.80	21.95	-43.5	-45.9	18.5	0.00e+00	0	44	0	328204288	57	5059
2026-01-19 22:26:00.73	60.03	22.02	-43.4	-45.8	18.6	0.00e+00	0	44	0	330301440	57	5017
2026-01-19 22:26:01.72	60.26	22.09	-43.4	-45.9	18.5	0.00e+00	0	44	0	332398592	57	5050
2026-01-19 22:26:02.72	60.50	22.16	-43.4	-45.8	18.6	0.00e+00	0	44	0	333447168	57	5027
2026-01-19 22:26:03.71	60.73	22.23	-43.5	-45.8	18.5	0.00e+00	0	44	0	335544320	57	5037
2026-01-19 22:26:04.71	60.96	22.30	-43.4	-45.7	18.6	0.00e+00	0	44	0	337641472	57	4979
2026-01-19 22:26:05.70	61.19	22.36	-43.4	-45.8	18.6	0.00e+00	0	43	0	339738624	57	4994
2026-01-19 22:26:06.77	61.45	22.44	-43.4	-45.8	18.6	0.00e+00	0	44	0	341835776	57	5026
2026-01-19 22:26:07.63	61.65	22.50	-43.4	-45.8	18.6	0.00e+00	0	44	0	342884352	57	5041
2026-01-19 22:26:08.97	61.97	22.59	-43.5	-46.0	18.5	0.00e+00	0	44	0	346030080	57	5117
2026-01-19 22:26:09.68	62.14	22.64	-43.6	-46.0	18.4	0.00e+00	0	44	0	347078656	57	5135
2026-01-19 22:26:11.17	62.50	22.74	-43.4	-45.8	18.6	0.00e+00	0	44	0	350224384	57	5004
2026-01-19 22:26:12.15	62.74	22.80	-43.3	-45.7	18.7	0.00e+00	0	44	0	351272960	57	4929
2026-01-19 22:26:13.46	63.05	22.89	-43.2	-45.6	18.8	0.00e+00	0	43	0	354418688	57	4882
2026-01-19 22:26:14.17	63.23	22.94	-43.2	-45.5	18.8	0.00e+00	0	43	0	355467264	57	4864
2026-01-19 22:26:15.45	63.54	23.02	-43.3	-45.6	18.7	0.00e+00	0	44	0	357564416	57	4911
2026-01-19 22:26:16.16	63.72	23.07	-43.3	-45.6	18.7	0.00e+00	0	44	0	358612992	57	4923
2026-01-19 22:26:17.44	64.03	23.15	-43.4	-45.8	18.6	0.00e+00	0	44	0	361758720	57	5026
2026-01-19 22:26:18.16	64.21	23.20	-43.6	-46.0	18.4	0.00e+00	0	44	0	362807296	57	5115
2026-01-19 22:26:19.44	64.53	23.28	-43.8	-46.3	18.1	0.00e+00	0	44	0	364904448	58	4989
2026-01-19 22:26:20.15	64.71	23.33	-43.9	-46.4	18.0	0.00e+00	0	44	0	367001600	58	5081
2026-01-19 22:26:21.53	65.06	23.42	-44.0	-46.5	17.9	0.00e+00	0	44	0	369098752	58	5158
2026-01-19 22:26:22.24	65.23	23.46	-44.1	-46.7	17.8	0.00e+00	0	44	0	370147328	58	5223
2026-01-19 22:26:23.52	65.56	23.54	-44.2	-46.8	17.7	0.00e+00	0	44	0	373293056	59	5013
2026-01-19 22:26:24.23	65.74	23.59	-44.3	-46.8	17.6	0.00e+00	0	44	0	374341632	59	5032
2026-01-19 22:26:25.51	66.07	23.67	-44.4	-47.0	17.5	0.00e+00	0	44	0	376438784	59	5119
2026-01-19 22:26:26.22	66.25	23.71	-44.4	-47.0	17.4	0.00e+00	0	44	0	377487360	59	5155
2026-01-19 22:26:27.50	66.58	23.79	-44.5	-47.1	17.4	0.00e+00	0	44	0	380633088	59	5197
2026-01-19 22:26:28.22	66.76	23.83	-44.5	-47.2	17.3	0.00e+00	0	44	0	381681664	59	5242
2026-01-19 22:26:29.50	67.10	23.91	-44.5	-47.1	17.3	0.00e+00	0	44	0	383778816	59	5216
2026-01-19 22:26:30.21	67.28	23.95	-44.5	-47.2	17.3	0.00e+00	0	44	0	385875968	59	5253
2026-01-19 22:26:31.49	67.62	24.03	-44.7	-47.4	17.1	0.00e+00	0	44	0	387973120	60	5088
2026-01-19 22:26:32.21	67.80	24.07	-44.8	-47.5	17.0	0.00e+00	0	44	0	389021696	60	5148
2026-01-19 22:26:33.49	68.14	24.15	-45.0	-47.8	16.8	0.00e+00	0	44	0	391118848	60	5282
2026-01-19 22:26:34.20	68.33	24.19	-45.1	-47.9	16.6	0.00e+00	0	44	0	393216000	60	5381
2026-01-19 22:26:35.48	68.67	24.26	-45.2	-48.1	16.5	0.00e+00	0	44	0	395313152	61	5170
2026-01-19 22:26:36.19	68.86	24.30	-45.2	-48.1	16.5	0.00e+00	0	44	0	396361728	61	5170
2026-01-19 22:26:37.47	69.20	24.38	-44.9	-47.7	16.8	0.00e+00	0	44	0	399507456	61	4960
2026-01-19 22:26:38.21	69.40	24.42	-44.9	-47.7	16.9	0.00e+00	0	44	0	400556032	61	4963
2026-01-19 22:26:39.49	69.74	24.49	-44.7	-47.4	17.2	0.00e+00	0	43	0	402653184	61	4763
2026-01-19 22:26:40.20	69.93	24.53	-44.6	-47.3	17.3	0.00e+00	0	44	0	403701760	61	4726
2026-01-19 22:26:41.48	70.28	24.60	-44.5	-47.2	17.4	0.00e+00	0	44	0	406847488	61	4659
2026-01-19 22:26:42.20	70.48	24.64	-44.5	-47.2	17.3	0.00e+00	0	44	0	407896064	61	4672
2026-01-19 22:26:43.64	70.87	24.71	-44.9	-47.7	16.8	0.00e+00	0	44	0	411041792	61	4955
2026-01-19 22:26:44.35	71.06	24.75	-45.1	-48.0	16.6	0.00e+00	0	44	0	412090368	61	5107
2026-01-19 22:26:45.63	71.42	24.82	-45.6	-48.7	15.9	0.00e+00	0	44	0	414187520	61	5539
2026-01-19 22:26:46.67	71.70	24.87	-45.8	-49.0	15.6	0.00e+00	0	44	0	416284672	62	5422
2026-01-19 22:26:47.98	72.06	24.94	-46.0	-49.2	15.4	0.00e+00	0	43	0	418381824	62	5587
2026-01-19 22:26:48.69	72.26	24.97	-46.0	-49.2	15.4	0.00e+00	0	44	0	420478976	62	5556
2026-01-19 22:26:49.97	72.62	25.04	-45.7	-48.8	15.8	0.00e+00	0	44	0	422576128	62	5313
2026-01-19 22:26:50.69	72.82	25.07	-45.6	-48.7	15.9	0.00e+00	0	43	0	423624704	62	5229
2026-01-19 22:26:51.97	73.18	25.13	-45.4	-48.3	16.3	0.00e+00	0	43	0	425721856	62	5018
2026-01-19 22:26:52.68	73.38	25.17	-45.3	-48.2	16.4	0.00e+00	0	44	0	427819008	62	4967
2026-01-19 22:26:53.96	73.74	25.23	-45.2	-48.1	16.4	0.00e+00	0	44	0	429916160	62	4926
2026-01-19 22:26:54.67	73.94	25.26	-45.3	-48.3	16.3	0.00e+00	0	43	0	430964736	62	5014
2026-01-19 22:26:55.95	74.30	25.32	-45.4	-48.4	16.2	0.00e+00	0	44	0	434110464	62	5065
2026-01-19 22:26:56.67	74.51	25.35	-45.5	-48.5	16.1	0.00e+00	0	44	0	435159040	62	5145
2026-01-19 22:26:58.03	74.89	25.41	-45.6	-48.6	15.9	0.00e+00	0	44	0	437256192	62	5218
2026-01-19 22:26:58.74	75.10	25.44	-45.5	-48.6	16.0	0.00e+00	0	44	0	439353344	62	5196
2026-01-19 22:27:00.07	75.48	25.50	-45.5	-48.6	16.0	0.00e+00	0	44	0	441450496	62	5182
2026-01-19 22:27:01.06	75.76	25.54	-45.6	-48.7	15.8	0.00e+00	0	44	0	443547648	62	5266
2026-01-19 22:27:02.37	76.14	25.60	-45.3	-48.3	16.3	0.00e+00	0	43	0	445644800	62	5007
2026-01-19 22:27:03.08	76.35	25.63	-45.3	-48.2	16.4	0.00e+00	0	44	0	446693376	62	4980
2026-01-19 22:27:04.71	76.82	25.69	-45.2	-48.2	16.4	0.00e+00	0	44	0	449839104	62	4947
2026-01-19 22:27:05.28	76.99	25.71	-45.3	-48.2	16.4	0.00e+00	0	44	0	450887680	62	4970
2026-01-19 22:27:06.97	77.48	25.78	-45.4	-48.4	16.2	0.00e+00	0	44	0	454033408	62	5055
2026-01-19 22:27:07.54	77.65	25.80	-45.4	-48.4	16.2	0.00e+00	0	44	0	455081984	62	5073
2026-01-19 22:27:09.23	78.14	25.86	-45.3	-48.3	16.3	0.00e+00	0	44	0	458227712	62	5028
2026-01-19 22:27:09.80	78.31	25.88	-45.3	-48.2	16.3	0.00e+00	0	43	0	459276288	62	4965
2026-01-19 22:27:11.50	78.81	25.94	-44.8	-47.6	16.9	0.00e+00	0	44	0	462422016	61	4905
2026-01-19 22:27:12.07	78.98	25.96	-44.6	-47.4	17.2	0.00e+00	0	43	0	463470592	61	4764
2026-01-19 22:27:13.87	79.51	26.02	-44.2	-46.8	17.7	0.00e+00	0	44	0	467664896	60	4741
2026-01-19 22:27:14.44	79.68	26.04	-44.2	-46.8	17.6	0.00e+00	0	44	0	468713472	60	4756
2026-01-19 22:27:16.15	80.19	26.10	-44.4	-47.0	17.5	0.00e+00	0	44	0	471859200	60	4854
2026-01-19 22:27:16.72	80.36	26.11	-44.3	-46.9	17.6	0.00e+00	0	44	0	472907776	60	4798
2026-01-19 22:27:18.42	80.87	26.16	-44.5	-47.2	17.4	0.00e+00	0	44	0	476053504	60	4949
2026-01-19 22:27:18.99	81.04	26.18	-44.4	-47.1	17.4	0.00e+00	0	44	0	477102080	60	4926
2026-01-19 22:27:20.70	81.55	26.23	-44.6	-47.3	17.2	0.00e+00	0	44	0	480247808	60	5034
2026-01-19 22:27:21.26	81.72	26.24	-44.6	-47.4	17.2	0.00e+00	0	44	0	481296384	60	5053
2026-01-19 22:27:23.14	82.29	26.29	-44.7	-47.6	17.0	0.00e+00	0	44	0	484442112	60	5182
2026-01-19 22:27:23.71	82.46	26.31	-44.8	-47.7	16.9	0.00e+00	0	44	0	485490688	60	5228
2026-01-19 22:27:25.42	82.98	26.35	-44.9	-47.9	16.7	0.00e+00	0	44	0	488636416	60	5366
2026-01-19 22:27:25.99	83.15	26.36	-44.9	-47.9	16.7	0.00e+00	0	44	0	489684992	60	5360
2026-01-19 22:27:27.69	83.67	26.40	-45.0	-47.9	16.7	0.00e+00	0	44	0	492830720	60	5387
2026-01-19 22:27:28.26	83.84	26.41	-45.0	-48.0	16.6	0.00e+00	0	44	0	493879296	60	5433
2026-01-19 22:27:29.97	84.36	26.45	-44.7	-47.6	16.9	0.00e+00	0	44	0	497025024	60	5212
2026-01-19 22:27:30.54	84.54	26.46	-44.7	-47.6	17.0	0.00e+00	0	44	0	498073600	60	5174
2026-01-19 22:27:32.24	85.05	26.49	-44.6	-47.5	17.1	0.00e+00	0	43	0	501219328	60	5127
2026-01-19 22:27:32.81	85.23	26.50	-44.6	-47.5	17.1	0.00e+00	0	43	0	503316480	60	5101
2026-01-19 22:27:34.51	85.75	26.53	-44.4	-47.1	17.5	0.00e+00	0	43	0	506462208	60	4884
2026-01-19 22:27:35.08	85.92	26.54	-44.3	-47.0	17.6	0.00e+00	0	43	0	507510784	60	4822
2026-01-19 22:27:36.79	86.45	26.56	-44.1	-46.8	17.7	0.00e+00	0	43	0	510656512	60	4746
2026-01-19 22:27:37.42	86.64	26.57	-44.1	-46.8	17.7	0.00e+00	0	44	0	511705088	60	4748
2026-01-19 22:27:38.95	87.11	26.59	-44.2	-46.9	17.6	0.00e+00	0	44	0	514850816	60	4789
2026-01-19 22:27:39.66	87.33	26.60	-44.3	-47.0	17.5	0.00e+00	0	44	0	515899392	60	4841
2026-01-19 22:27:41.21	87.81	26.62	-44.4	-47.2	17.4	0.00e+00	0	44	0	519045120	60	4932
2026-01-19 22:27:41.92	88.03	26.62	-44.3	-47.0	17.6	0.00e+00	0	44	0	520093696	60	4834
2026-01-19 22:27:43.20	88.42	26.64	-44.3	-46.9	17.7	0.00e+00	0	44	0	522190848	60	4792
2026-01-19 22:27:44.29	88.76	26.64	-44.1	-46.7	17.9	0.00e+00	0	44	0	524288000	60	4656
2026-01-19 22:27:45.14	89.02	26.65	-43.9	-46.4	18.0	0.00e+00	0	44	0	526385152	59	4803
2026-01-19 22:27:46.28	89.37	26.66	-43.7	-46.1	18.3	0.00e+00	0	44	0	528482304	59	4642
2026-01-19 22:27:47.13	89.64	26.66	-43.5	-45.9	18.5	0.00e+00	0	44	0	529530880	59	4538
2026-01-19 22:27:48.30	90.00	26.67	-43.5	-46.0	18.5	0.00e+00	0	44	0	531628032	58	4830
2026-01-19 22:27:49.15	90.26	26.67	-43.5	-45.9	18.5	0.00e+00	0	44	0	533725184	58	4805
2026-01-19 22:27:50.35	90.63	26.67	-43.8	-46.3	18.1	0.00e+00	0	44	0	535822336	58	5014
2026-01-19 22:27:51.20	90.90	26.68	-44.1	-46.6	17.9	0.00e+00	0	44	0	536870912	58	5201
2026-01-19 22:27:52.40	91.27	26.68	-44.3	-46.9	17.5	0.00e+00	0	44	0	540016640	59	5066
2026-01-19 22:27:53.26	91.53	26.68	-44.2	-46.8	17.6	0.00e+00	0	44	0	541065216	59	5030
2026-01-19 22:27:54.47	91.91	26.68	-44.2	-46.8	17.6	0.00e+00	0	44	0	543162368	59	5028
2026-01-19 22:27:55.32	92.17	26.67	-44.1	-46.6	17.9	0.00e+00	0	44	0	545259520	59	4906
2026-01-19 22:27:56.52	92.54	26.67	-43.9	-46.4	18.1	0.00e+00	0	44	0	547356672	59	4793
2026-01-19 22:27:57.38	92.81	26.67	-43.9	-46.4	18.1	0.00e+00	0	44	0	548405248	59	4801
2026-01-19 22:27:58.51	93.16	26.66	-44.0	-46.5	18.0	0.00e+00	0	44	0	550502400	59	4830
2026-01-19 22:27:59.37	93.42	26.66	-44.2	-46.8	17.6	0.00e+00	0	44	0	552599552	59	5024
2026-01-19 22:28:00.61	93.81	26.65	-44.8	-47.6	17.0	0.00e+00	0	44	0	554696704	60	5182
2026-01-19 22:28:01.47	94.07	26.64	-45.2	-48.1	16.5	0.00e+00	0	44	0	556793856	60	5503
2026-01-19 22:28:02.68	94.44	26.63	-45.5	-48.5	16.2	0.00e+00	0	44	0	558891008	61	5406
2026-01-19 22:28:03.53	94.71	26.63	-45.4	-48.4	16.1	0.00e+00	0	44	0	559939584	61	5386
2026-01-19 22:28:04.68	95.06	26.62	-45.2	-48.1	16.5	0.00e+00	0	44	0	562036736	61	5180
2026-01-19 22:28:05.53	95.32	26.61	-45.1	-48.0	16.6	0.00e+00	0	44	0	564133888	61	5135
2026-01-19 22:28:06.66	95.67	26.59	-45.0	-47.9	16.7	0.00e+00	0	44	0	566231040	61	5053
2026-01-19 22:28:07.51	95.93	26.58	-44.8	-47.6	16.9	0.00e+00	0	44	0	568328192	61	4917
2026-01-19 22:28:08.65	96.28	26.57	-44.4	-47.0	17.5	0.00e+00	0	44	0	570425344	60	4852
2026-01-19 22:28:09.63	96.59	26.55	-44.2	-46.8	17.7	0.00e+00	0	44	0	571473920	60	4727
2026-01-19 22:28:10.78	96.94	26.54	-44.2	-46.7	17.8	0.00e+00	0	44	0	573571072	60	4692
2026-01-19 22:28:11.64	97.20	26.52	-44.2	-46.7	17.8	0.00e+00	0	44	0	575668224	60	4694
2026-01-19 22:28:13.00	97.62	26.50	-44.5	-47.1	17.4	0.00e+00	0	44	0	577765376	60	4911
2026-01-19 22:28:13.71	97.84	26.49	-44.5	-47.1	17.4	0.00e+00	0	44	0	579862528	60	4905
2026-01-19 22:28:14.98	98.23	26.46	-44.6	-47.2	17.3	0.00e+00	0	44	0	581959680	60	4981
2026-01-19 22:28:15.69	98.44	26.45	-44.5	-47.1	17.4	0.00e+00	0	44	0	583008256	60	4909
2026-01-19 22:28:17.29	98.93	26.42	-44.2	-46.8	17.7	0.00e+00	0	44	0	586153984	60	4747
2026-01-19 22:28:17.87	99.11	26.40	-44.0	-46.5	17.9	0.00e+00	0	44	0	587202560	60	4584
2026-01-19 22:28:19.44	99.58	26.37	-44.0	-46.5	17.9	0.00e+00	0	44	0	590348288	59	4846
2026-01-19 22:28:20.08	99.78	26.36	-43.9	-46.4	18.0	0.00e+00	0	44	0	591396864	59	4812
2026-01-19 22:28:21.50	100.21	26.32	-44.1	-46.6	17.8	0.00e+00	0	44	0	594542592	59	4897
2026-01-19 22:28:22.21	100.42	26.30	-44.1	-46.7	17.7	0.00e+00	0	44	0	595591168	59	4945
2026-01-19 22:28:23.49	100.81	26.27	-44.3	-46.9	17.5	0.00e+00	0	44	0	597688320	59	5072
2026-01-19 22:28:24.20	101.03	26.25	-44.3	-46.9	17.5	0.00e+00	0	44	0	598736896	59	5083
2026-01-19 22:28:25.54	101.43	26.22	-44.3	-46.9	17.5	0.00e+00	0	44	0	601882624	59	5088
2026-01-19 22:28:26.25	101.64	26.20	-44.3	-46.8	17.6	0.00e+00	0	44	0	602931200	59	5041
2026-01-19 22:28:27.61	102.05	26.16	-44.3	-46.9	17.6	0.00e+00	0	44	0	606076928	59	5064
2026-01-19 22:28:28.32	102.26	26.13	-44.3	-46.9	17.6	0.00e+00	0	44	0	607125504	59	5074
2026-01-19 22:28:29.64	102.66	26.09	-44.3	-46.9	17.5	0.00e+00	0	43	0	609222656	59	5081
2026-01-19 22:28:30.35	102.87	26.07	-44.4	-47.0	17.5	0.00e+00	0	44	0	610271232	59	5110
2026-01-19 22:28:31.63	103.25	26.03	-44.0	-46.5	17.9	0.00e+00	0	44	0	613416960	59	4866
2026-01-19 22:28:32.36	103.47	26.01	-43.9	-46.5	18.0	0.00e+00	0	44	0	614465536	59	4815
2026-01-19 22:28:33.75	103.88	25.96	-44.0	-46.6	17.9	0.00e+00	0	44	0	617611264	59	4885
2026-01-19 22:28:34.46	104.09	25.94	-44.0	-46.5	17.9	0.00e+00	0	44	0	618659840	59	4829
2026-01-19 22:28:35.73	104.47	25.89	-43.8	-46.3	18.1	0.00e+00	0	44	0	620756992	59	4747
2026-01-19 22:28:36.47	104.69	25.86	-43.8	-46.2	18.2	0.00e+00	0	43	0	621805568	59	4695
2026-01-19 22:28:37.85	105.09	25.81	-43.6	-46.0	18.4	0.00e+00	0	44	0	624951296	59	4584
2026-01-19 22:28:38.56	105.30	25.79	-43.4	-45.8	18.6	0.00e+00	0	44	0	625999872	58	4731
2026-01-19 22:28:39.84	105.67	25.74	-43.5	-45.9	18.6	0.00e+00	0	44	0	628097024	58	4761
2026-01-19 22:28:40.56	105.88	25.71	-43.6	-46.0	18.4	0.00e+00	0	44	0	630194176	58	4844
2026-01-19 22:28:41.84	106.26	25.66	-43.5	-45.8	18.6	0.00e+00	0	44	0	632291328	58	4751
2026-01-19 22:28:42.55	106.46	25.63	-43.4	-45.7	18.7	0.00e+00	0	44	0	633339904	58	4702
2026-01-19 22:28:43.83	106.83	25.58	-43.3	-45.6	18.8	0.00e+00	0	44	0	635437056	58	4635
2026-01-19 22:28:44.54	107.04	25.55	-43.3	-45.6	18.8	0.00e+00	0	44	0	637534208	58	4633
2026-01-19 22:28:45.82	107.41	25.49	-43.2	-45.6	18.8	0.00e+00	0	44	0	639631360	58	4612
2026-01-19 22:28:46.55	107.62	25.46	-43.4	-45.8	18.6	0.00e+00	0	44	0	640679936	58	4736
2026-01-19 22:28:47.83	107.99	25.41	-43.4	-45.8	18.7	0.00e+00	0	44	0	643825664	58	4709
2026-01-19 22:28:48.55	108.19	25.37	-43.4	-45.7	18.7	0.00e+00	0	44	0	644874240	58	4702
2026-01-19 22:28:49.83	108.56	25.32	-43.3	-45.6	18.8	0.00e+00	0	44	0	646971392	58	4632
2026-01-19 22:28:50.59	108.77	25.28	-43.2	-45.5	18.9	0.00e+00	0	44	0	649068544	58	4575
2026-01-19 22:28:51.87	109.14	25.22	-43.0	-45.3	19.1	0.00e+00	0	44	0	651165696	58	4484
2026-01-19 22:28:52.58	109.34	25.19	-43.0	-45.3	19.0	0.00e+00	0	44	0	652214272	58	4484
2026-01-19 22:28:53.86	109.70	25.13	-43.4	-45.7	18.7	0.00e+00	0	44	0	654311424	58	4693
2026-01-19 22:28:54.58	109.90	25.09	-43.3	-45.7	18.7	0.00e+00	0	44	0	656408576	58	4667
2026-01-19 22:28:55.86	110.26	25.03	-43.7	-46.1	18.3	0.00e+00	0	44	0	658505728	58	4908
2026-01-19 22:28:56.59	110.46	24.99	-43.9	-46.4	18.0	0.00e+00	0	44	0	659554304	58	5090
2026-01-19 22:28:57.87	110.82	24.93	-43.7	-46.2	18.2	0.00e+00	0	44	0	662700032	58	4956
2026-01-19 22:28:58.58	111.02	24.89	-43.8	-46.2	18.2	0.00e+00	0	44	0	663748608	58	4983
2026-01-19 22:28:59.86	111.37	24.83	-43.5	-45.9	18.6	0.00e+00	0	44	0	665845760	58	4771
2026-01-19 22:29:00.57	111.57	24.79	-43.3	-45.7	18.7	0.00e+00	0	44	0	666894336	58	4653
2026-01-19 22:29:01.85	111.92	24.72	-42.9	-45.2	19.2	0.00e+00	0	44	0	670040064	57	4657
2026-01-19 22:29:02.58	112.12	24.68	-42.8	-45.1	19.2	0.00e+00	0	44	0	671088640	57	4633
2026-01-19 22:29:03.85	112.47	24.61	-42.9	-45.2	19.2	0.00e+00	0	44	0	673185792	57	4655
2026-01-19 22:29:04.57	112.66	24.58	-43.0	-45.3	19.1	0.00e+00	0	44	0	675282944	57	4709
2026-01-19 22:29:05.84	113.01	24.51	-43.1	-45.5	18.9	0.00e+00	0	44	0	677380096	57	4825
2026-01-19 22:29:06.57	113.21	24.46	-43.2	-45.6	18.8	0.00e+00	0	44	0	678428672	57	4890
2026-01-19 22:29:07.85	113.55	24.39	-43.5	-45.9	18.5	0.00e+00	0	44	0	680525824	57	5057
2026-01-19 22:29:08.58	113.75	24.35	-43.6	-46.0	18.4	0.00e+00	0	44	0	682622976	57	5125
2026-01-19 22:29:09.86	114.09	24.28	-43.8	-46.2	18.2	0.00e+00	0	44	0	684720128	58	4968
2026-01-19 22:29:10.57	114.28	24.24	-43.9	-46.4	18.1	0.00e+00	0	44	0	685768704	58	5057
2026-01-19 22:29:11.84	114.62	24.16	-44.0	-46.5	17.9	0.00e+00	0	44	0	688914432	58	5137
2026-01-19 22:29:12.57	114.81	24.12	-44.0	-46.5	17.9	0.00e+00	0	44	0	689963008	58	5133
2026-01-19 22:29:13.85	115.15	24.05	-43.9	-46.4	18.0	0.00e+00	0	44	0	692060160	58	5088
2026-01-19 22:29:14.57	115.34	24.00	-43.9	-46.4	18.1	0.00e+00	0	44	0	693108736	58	5047
2026-01-19 22:29:15.85	115.67	23.93	-43.5	-45.9	18.6	0.00e+00	0	44	0	696254464	58	4762
2026-01-19 22:29:16.58	115.86	23.88	-43.5	-45.9	18.6	0.00e+00	0	44	0	697303040	58	4762
2026-01-19 22:29:17.86	116.20	23.80	-43.6	-46.0	18.4	0.00e+00	0	44	0	699400192	58	4822
2026-01-19 22:29:18.58	116.38	23.76	-43.6	-46.1	18.3	0.00e+00	0	44	0	701497344	58	4871
2026-01-19 22:29:20.03	116.76	23.67	-43.8	-46.2	18.2	0.00e+00	0	44	0	703594496	58	4974
2026-01-19 22:29:20.75	116.94	23.62	-43.8	-46.3	18.1	0.00e+00	0	43	0	705691648	58	5007
2026-01-19 22:29:22.03	117.27	23.54	-43.8	-46.3	18.1	0.00e+00	0	44	0	707788800	58	5041
2026-01-19 22:29:22.75	117.45	23.50	-44.0	-46.5	18.0	0.00e+00	0	44	0	708837376	58	5116
2026-01-19 22:29:24.14	117.81	23.41	-44.0	-46.6	17.9	0.00e+00	0	44	0	711983104	58	5171
2026-01-19 22:29:24.85	117.98	23.36	-44.0	-46.5	17.9	0.00e+00	0	44	0	713031680	58	5158
2026-01-19 22:29:26.13	118.31	23.28	-43.9	-46.4	18.0	0.00e+00	0	44	0	715128832	58	5086
2026-01-19 22:29:27.20	118.57	23.21	-43.8	-46.3	18.2	0.00e+00	0	44	0	717225984	58	4993
2026-01-19 22:29:28.35	118.86	23.14	-43.7	-46.1	18.3	0.00e+00	0	43	0	719323136	58	4917
2026-01-19 22:29:29.21	119.08	23.08	-43.7	-46.1	18.3	0.00e+00	0	43	0	721420288	58	4916
2026-01-19 22:29:30.34	119.35	23.00	-43.7	-46.1	18.3	0.00e+00	0	44	0	723517440	58	4900
2026-01-19 22:29:31.20	119.57	22.95	-43.6	-46.0	18.4	0.00e+00	0	44	0	724566016	58	4832
2026-01-19 22:29:32.33	119.84	22.87	-43.7	-46.1	18.3	0.00e+00	0	44	0	726663168	58	4908
2026-01-19 22:29:33.19	120.05	22.81	-43.8	-46.2	18.2	0.00e+00	0	44	0	728760320	58	4979
2026-01-19 22:29:34.32	120.33	22.74	-43.7	-46.1	18.3	0.00e+00	0	44	0	730857472	58	4898
2026-01-19 22:29:35.17	120.53	22.68	-43.7	-46.1	18.3	0.00e+00	0	44	0	731906048	58	4902
2026-01-19 22:29:36.40	120.83	22.60	-43.7	-46.1	18.2	0.00e+00	0	43	0	735051776	58	4915
2026-01-19 22:29:37.26	121.04	22.54	-43.7	-46.1	18.3	0.00e+00	0	44	0	736100352	58	4911
2026-01-19 22:29:38.39	121.31	22.46	-43.9	-46.4	18.0	0.00e+00	0	44	0	738197504	58	5053
2026-01-19 22:29:39.24	121.51	22.40	-43.9	-46.3	18.1	0.00e+00	0	44	0	740294656	58	5038
2026-01-19 22:29:40.38	121.78	22.32	-43.9	-46.4	18.0	0.00e+00	0	44	0	742391808	58	5065
2026-01-19 22:29:41.23	121.98	22.26	-43.8	-46.3	18.2	0.00e+00	0	44	0	743440384	58	4987
2026-01-19 22:29:42.37	122.25	22.18	-43.7	-46.2	18.2	0.00e+00	0	44	0	745537536	58	4934
2026-01-19 22:29:43.30	122.47	22.11	-43.7	-46.1	18.3	0.00e+00	0	44	0	747634688	58	4883
2026-01-19 22:29:44.47	122.74	22.03	-43.7	-46.1	18.3	0.00e+00	0	44	0	749731840	58	4892
2026-01-19 22:29:45.35	122.94	21.97	-43.9	-46.4	18.0	0.00e+00	0	44	0	751828992	58	5061
2026-01-19 22:29:46.49	123.21	21.89	-43.9	-46.4	18.0	0.00e+00	0	44	0	753926144	58	5052
2026-01-19 22:29:47.34	123.40	21.83	-43.9	-46.4	18.0	0.00e+00	0	44	0	754974720	58	5083
2026-01-19 22:29:48.70	123.71	21.73	-43.9	-46.4	18.0	0.00e+00	0	44	0	758120448	58	5056
2026-01-19 22:29:49.41	123.87	21.68	-43.7	-46.2	18.2	0.00e+00	0	44	0	759169024	58	4940
2026-01-19 22:29:50.69	124.16	21.58	-43.7	-46.2	18.2	0.00e+00	0	44	0	761266176	58	4950
2026-01-19 22:29:51.40	124.32	21.53	-43.8	-46.3	18.1	0.00e+00	0	44	0	762314752	58	4996
2026-01-19 22:29:52.68	124.61	21.44	-44.0	-46.6	17.8	0.00e+00	0	44	0	765460480	58	5177
2026-01-19 22:29:53.40	124.77	21.39	-44.2	-46.9	17.5	0.00e+00	0	44	0	766509056	59	5050
2026-01-19 22:29:54.68	125.05	21.29	-44.8	-47.7	16.8	0.00e+00	0	44	0	768606208	60	5238
2026-01-19 22:29:55.39	125.21	21.24	-45.1	-48.0	16.5	0.00e+00	0	44	0	769654784	60	5433
2026-01-19 22:29:56.67	125.49	21.15	-45.2	-48.2	16.3	0.00e+00	0	44	0	772800512	61	5272
2026-01-19 22:29:57.40	125.65	21.09	-45.0	-48.1	16.4	0.00e+00	0	44	0	773849088	61	5167
2026-01-19 22:29:58.67	125.93	21.00	-44.7	-47.5	17.0	0.00e+00	0	44	0	775946240	61	4856
2026-01-19 22:29:59.53	126.12	20.93	-44.4	-47.3	17.2	0.00e+00	0	44	0	778043392	60	4989
2026-01-19 22:30:00.66	126.36	20.85	-44.3	-47.0	17.4	0.00e+00	0	44	0	780140544	60	4854
2026-01-19 22:30:01.72	126.59	20.77	-44.5	-47.2	17.3	0.00e+00	0	44	0	782237696	60	4939
2026-01-19 22:30:02.78	126.82	20.69	-44.7	-47.6	16.9	0.00e+00	0	44	0	784334848	60	5172
2026-01-19 22:30:03.83	127.04	20.61	-44.9	-47.9	16.6	0.00e+00	0	44	0	786432000	60	5368
2026-01-19 22:30:04.84	127.25	20.54	-45.0	-47.9	16.5	0.00e+00	0	44	0	787480576	60	5400
2026-01-19 22:30:05.98	127.49	20.45	-44.9	-47.7	16.8	0.00e+00	0	44	0	789577728	60	5266
2026-01-19 22:30:06.83	127.67	20.39	-44.7	-47.5	17.0	0.00e+00	0	44	0	791674880	60	5145
2026-01-19 22:30:07.97	127.91	20.30	-44.4	-47.0	17.4	0.00e+00	0	44	0	793772032	60	4868
2026-01-19 22:30:08.82	128.09	20.23	-44.2	-46.8	17.7	0.00e+00	0	44	0	794820608	60	4733
2026-01-19 22:30:09.95	128.32	20.15	-44.4	-47.0	17.4	0.00e+00	0	44	0	797966336	60	4855
2026-01-19 22:30:10.81	128.50	20.08	-44.5	-47.1	17.3	0.00e+00	0	44	0	799014912	60	4910
2026-01-19 22:30:11.94	128.73	20.00	-44.8	-47.5	16.9	0.00e+00	0	44	0	801112064	60	5145
2026-01-19 22:30:12.79	128.90	19.93	-44.7	-47.5	17.0	0.00e+00	0	44	0	803209216	60	5117
2026-01-19 22:30:13.93	129.13	19.84	-44.6	-47.3	17.2	0.00e+00	0	44	0	805306368	60	5005
2026-01-19 22:30:14.78	129.30	19.78	-44.4	-47.1	17.4	0.00e+00	0	44	0	806354944	60	4893
2026-01-19 22:30:15.92	129.53	19.69	-44.3	-46.9	17.5	0.00e+00	0	44	0	808452096	60	4800
2026-01-19 22:30:16.78	129.70	19.63	-44.2	-46.8	17.6	0.00e+00	0	44	0	810549248	60	4715
2026-01-19 22:30:18.09	129.96	19.52	-44.0	-46.5	17.9	0.00e+00	0	44	0	812646400	59	4856
2026-01-19 22:30:18.79	130.10	19.47	-44.2	-46.8	17.6	0.00e+00	0	44	0	813694976	59	5021
2026-01-19 22:30:20.08	130.36	19.37	-44.7	-47.5	16.9	0.00e+00	0	44	0	816840704	60	5158
2026-01-19 22:30:20.79	130.50	19.32	-44.9	-47.8	16.6	0.00e+00	0	43	0	817889280	60	5321
2026-01-19 22:30:22.06	130.74	19.22	-45.0	-47.9	16.5	0.00e+00	0	44	0	819986432	60	5373
2026-01-19 22:30:22.82	130.89	19.16	-44.9	-47.7	16.7	0.00e+00	0	44	0	821035008	60	5277
2026-01-19 22:30:24.10	131.14	19.06	-44.5	-47.3	17.2	0.00e+00	0	44	0	824180736	60	5002
2026-01-19 22:30:24.81	131.27	19.00	-44.2	-46.9	17.5	0.00e+00	0	44	0	825229312	60	4788
2026-01-19 22:30:26.09	131.52	18.90	-44.2	-46.8	17.7	0.00e+00	0	44	0	827326464	60	4708
2026-01-19 22:30:26.93	131.68	18.84	-44.0	-46.5	17.9	0.00e+00	0	44	0	829423616	59	4833
2026-01-19 22:30:28.07	131.89	18.75	-44.1	-46.7	17.7	0.00e+00	0	44	0	831520768	59	4964
2026-01-19 22:30:28.92	132.05	18.68	-44.4	-47.1	17.3	0.00e+00	0	44	0	832569344	59	5187
2026-01-19 22:30:30.05	132.27	18.60	-44.7	-47.5	16.9	0.00e+00	0	44	0	834666496	60	5150
2026-01-19 22:30:30.91	132.43	18.53	-45.0	-47.9	16.6	0.00e+00	0	44	0	836763648	60	5352
2026-01-19 22:30:32.05	132.64	18.44	-44.9	-47.9	16.5	0.00e+00	0	44	0	838860800	60	5388
2026-01-19 22:30:32.90	132.79	18.37	-44.8	-47.7	16.7	0.00e+00	0	44	0	840957952	60	5264
2026-01-19 22:30:34.04	133.00	18.29	-44.6	-47.4	17.0	0.00e+00	0	44	0	843055104	60	5080
2026-01-19 22:30:34.89	133.16	18.22	-44.4	-47.1	17.2	0.00e+00	0	44	0	844103680	60	4926
2026-01-19 22:30:36.02	133.36	18.13	-44.2	-46.8	17.6	0.00e+00	0	44	0	846200832	60	4712
2026-01-19 22:30:36.88	133.52	18.06	-44.2	-46.8	17.6	0.00e+00	0	44	0	848297984	60	4716
2026-01-19 22:30:38.01	133.72	17.97	-44.2	-46.9	17.6	0.00e+00	0	44	0	850395136	60	4785
2026-01-19 22:30:38.87	133.88	17.91	-44.2	-46.8	17.6	0.00e+00	0	44	0	851443712	60	4717
2026-01-19 22:30:40.21	134.11	17.80	-44.3	-46.9	17.5	0.00e+00	0	44	0	854589440	60	4804
2026-01-19 22:30:40.92	134.24	17.75	-44.3	-47.0	17.4	0.00e+00	0	44	0	855638016	60	4822
2026-01-19 22:30:42.19	134.46	17.65	-44.2	-46.9	17.5	0.00e+00	0	44	0	857735168	60	4765
2026-01-19 22:30:42.93	134.59	17.59	-44.2	-46.8	17.6	0.00e+00	0	44	0	858783744	60	4722
2026-01-19 22:30:44.21	134.82	17.49	-44.0	-46.6	17.7	0.00e+00	0	44	0	861929472	60	4636
2026-01-19 22:30:44.94	134.94	17.43	-44.0	-46.6	17.8	0.00e+00	0	44	0	862978048	60	4607
2026-01-19 22:30:46.21	135.16	17.33	-43.8	-46.3	18.0	0.00e+00	0	44	0	865075200	59	4757
2026-01-19 22:30:47.08	135.31	17.26	-44.0	-46.5	17.8	0.00e+00	0	44	0	867172352	59	4864
2026-01-19 22:30:48.50	135.56	17.15	-44.2	-46.8	17.5	0.00e+00	0	44	0	869269504	59	5028
2026-01-19 22:30:49.21	135.68	17.10	-44.3	-47.0	17.4	0.00e+00	0	44	0	871366656	59	5104
2026-01-19 22:30:50.49	135.89	17.00	-44.3	-47.0	17.4	0.00e+00	0	44	0	873463808	59	5107
2026-01-19 22:30:51.20	136.01	16.94	-44.3	-46.9	17.4	0.00e+00	0	44	0	874512384	59	5071
2026-01-19 22:30:52.48	136.23	16.84	-44.3	-46.9	17.4	0.00e+00	0	44	0	877658112	59	5067
2026-01-19 22:30:53.20	136.35	16.79	-44.2	-46.8	17.5	0.00e+00	0	44	0	878706688	59	5037
2026-01-19 22:30:54.48	136.56	16.69	-44.2	-46.8	17.5	0.00e+00	0	44	0	880803840	59	5010
2026-01-19 22:30:55.21	136.68	16.63	-44.1	-46.7	17.6	0.00e+00	0	44	0	881852416	59	4977
2026-01-19 22:30:56.49	136.89	16.53	-43.8	-46.4	17.9	0.00e+00	0	44	0	884998144	59	4764
2026-01-19 22:30:57.20	137.00	16.47	-43.8	-46.3	18.0	0.00e+00	0	44	0	886046720	59	4740
2026-01-19 22:30:58.48	137.21	16.37	-43.8	-46.3	18.0	0.00e+00	0	44	0	888143872	59	4736
2026-01-19 22:30:59.19	137.33	16.32	-43.8	-46.4	17.9	0.00e+00	0	44	0	889192448	59	4776
2026-01-19 22:31:00.47	137.53	16.22	-43.9	-46.5	17.7	0.00e+00	0	44	0	892338176	59	4857
2026-01-19 22:31:01.18	137.65	16.16	-43.9	-46.5	17.8	0.00e+00	0	44	0	893386752	59	4822
2026-01-19 22:31:02.47	137.85	16.06	-43.9	-46.5	17.8	0.00e+00	0	44	0	895483904	59	4837
2026-01-19 22:31:03.18	137.96	16.01	-44.0	-46.5	17.8	0.00e+00	0	44	0	897581056	59	4862
2026-01-19 22:31:04.55	138.18	15.90	-43.9	-46.4	17.9	0.00e+00	0	44	0	899678208	59	4775
2026-01-19 22:31:05.26	138.29	15.84	-43.8	-46.4	17.9	0.00e+00	0	44	0	900726784	59	4760
2026-01-19 22:31:06.54	138.49	15.74	-43.7	-46.2	18.1	0.00e+00	0	44	0	903872512	59	4688
2026-01-19 22:31:07.25	138.60	15.69	-43.8	-46.3	18.0	0.00e+00	0	44	0	904921088	59	4740
2026-01-19 22:31:08.53	138.80	15.59	-43.6	-46.1	18.1	0.00e+00	0	44	0	907018240	59	4603
2026-01-19 22:31:09.26	138.91	15.53	-43.6	-46.0	18.2	0.00e+00	0	44	0	909115392	59	4594
2026-01-19 22:31:10.54	139.11	15.43	-43.6	-46.1	18.2	0.00e+00	0	44	0	911212544	59	4605
2026-01-19 22:31:11.26	139.21	15.38	-43.7	-46.2	18.1	0.00e+00	0	44	0	912261120	59	4664
2026-01-19 22:31:12.80	139.45	15.26	-43.8	-46.3	17.9	0.00e+00	0	44	0	915406848	59	4758
2026-01-19 22:31:13.51	139.55	15.20	-43.8	-46.4	17.9	0.00e+00	0	44	0	916455424	59	4770
2026-01-19 22:31:14.79	139.75	15.11	-43.9	-46.5	17.7	0.00e+00	0	44	0	918552576	59	4842
2026-01-19 22:31:15.51	139.85	15.05	-44.1	-46.7	17.6	0.00e+00	0	44	0	920649728	59	4942
2026-01-19 22:31:16.79	140.04	14.95	-44.3	-46.9	17.4	0.00e+00	0	44	0	922746880	59	5085
2026-01-19 22:31:17.51	140.15	14.90	-44.3	-47.0	17.2	0.00e+00	0	44	0	923795456	59	5126
2026-01-19 22:31:18.79	140.34	14.80	-44.4	-47.1	17.1	0.00e+00	0	44	0	926941184	59	5217
2026-01-19 22:31:19.50	140.44	14.74	-44.4	-47.1	17.2	0.00e+00	0	44	0	927989760	59	5178
2026-01-19 22:31:20.78	140.62	14.64	-44.4	-47.1	17.1	0.00e+00	0	44	0	930086912	59	5214
2026-01-19 22:31:21.59	140.74	14.58	-44.3	-47.0	17.2	0.00e+00	0	44	0	932184064	59	5149
2026-01-19 22:31:22.72	140.90	14.49	-44.3	-47.1	17.2	0.00e+00	0	44	0	934281216	59	5163
2026-01-19 22:31:23.75	141.05	14.42	-44.3	-47.0	17.3	0.00e+00	0	44	0	935329792	59	5117
2026-01-19 22:31:24.93	141.22	14.33	-44.2	-46.9	17.3	0.00e+00	0	44	0	938475520	59	5068
2026-01-19 22:31:25.80	141.34	14.26	-44.1	-46.8	17.5	0.00e+00	0	44	0	939524096	59	4999
2026-01-19 22:31:27.09	141.52	14.16	-44.2	-46.9	17.4	0.00e+00	0	44	0	941621248	59	5058
2026-01-19 22:31:27.80	141.62	14.11	-44.2	-46.9	17.3	0.00e+00	0	44	0	943718400	59	5076
2026-01-19 22:31:29.26	141.83	13.99	-44.2	-46.9	17.3	0.00e+00	0	44	0	945815552	59	5080
2026-01-19 22:31:29.97	141.92	13.94	-44.2	-46.9	17.4	0.00e+00	0	44	0	947912704	59	5049
2026-01-19 22:31:31.28	142.10	13.84	-44.1	-46.7	17.5	0.00e+00	0	44	0	950009856	59	4978
2026-01-19 22:31:31.99	142.20	13.79	-44.0	-46.7	17.5	0.00e+00	0	44	0	951058432	59	4955
2026-01-19 22:31:33.27	142.38	13.69	-44.1	-46.8	17.5	0.00e+00	0	44	0	953155584	59	4989
2026-01-19 22:31:33.99	142.47	13.64	-44.0	-46.6	17.6	0.00e+00	0	44	0	955252736	59	4922
2026-01-19 22:31:35.27	142.65	13.54	-44.2	-46.9	17.3	0.00e+00	0	44	0	957349888	59	5071
2026-01-19 22:31:36.00	142.74	13.48	-44.2	-46.9	17.3	0.00e+00	0	44	0	958398464	59	5089
2026-01-19 22:31:37.27	142.91	13.39	-44.3	-47.0	17.1	0.00e+00	0	44	0	961544192	59	5155
2026-01-19 22:31:37.98	143.01	13.33	-44.5	-47.2	17.0	0.00e+00	0	44	0	962592768	59	5267
2026-01-19 22:31:39.26	143.18	13.24	-44.6	-47.4	16.9	0.00e+00	0	44	0	964689920	59	5343
2026-01-19 22:31:39.99	143.27	13.18	-44.8	-47.6	16.7	0.00e+00	0	44	0	965738496	60	5191
2026-01-19 22:31:41.27	143.44	13.09	-45.0	-47.9	16.4	0.00e+00	0	44	0	968884224	60	5365
2026-01-19 22:31:42.04	143.54	13.03	-45.0	-47.9	16.4	0.00e+00	0	44	0	969932800	60	5386
2026-01-19 22:31:43.32	143.71	12.93	-45.2	-48.2	16.1	0.00e+00	0	44	0	972029952	60	5550
2026-01-19 22:31:44.05	143.80	12.88	-45.2	-48.3	16.0	0.00e+00	0	44	0	974127104	61	5302
2026-01-19 22:31:45.33	143.97	12.78	-45.2	-48.3	16.0	0.00e+00	0	44	0	976224256	61	5284
2026-01-19 22:31:46.05	144.06	12.73	-45.2	-48.3	15.9	0.00e+00	0	44	0	977272832	61	5324
2026-01-19 22:31:47.33	144.22	12.63	-45.1	-48.2	16.1	0.00e+00	0	44	0	980418560	61	5254
2026-01-19 22:31:48.06	144.31	12.58	-45.1	-48.2	16.1	0.00e+00	0	44	0	981467136	61	5240
2026-01-19 22:31:49.34	144.48	12.48	-45.1	-48.2	16.1	0.00e+00	0	44	0	983564288	61	5221
2026-01-19 22:31:50.06	144.57	12.43	-45.0	-48.0	16.3	0.00e+00	0	44	0	985661440	61	5136
2026-01-19 22:31:51.34	144.73	12.34	-45.1	-48.2	16.1	0.00e+00	0	44	0	987758592	61	5228
2026-01-19 22:31:52.05	144.81	12.28	-45.2	-48.3	16.0	0.00e+00	0	44	0	988807168	61	5320
2026-01-19 22:31:53.35	144.97	12.19	-45.1	-48.1	16.1	0.00e+00	0	44	0	990904320	61	5206
2026-01-19 22:31:54.06	145.06	12.13	-45.3	-48.3	15.9	0.00e+00	0	44	0	993001472	61	5340
2026-01-19 22:31:55.37	145.22	12.04	-45.2	-48.3	16.0	0.00e+00	0	44	0	995098624	61	5289
2026-01-19 22:31:56.08	145.31	11.99	-45.3	-48.4	15.9	0.00e+00	0	44	0	996147200	61	5358
2026-01-19 22:31:57.35	145.46	11.89	-45.3	-48.6	15.7	0.00e+00	0	44	0	999292928	61	5483
2026-01-19 22:31:58.08	145.55	11.84	-45.3	-48.6	15.7	0.00e+00	0	44	0	1000341504	61	5465
2026-01-19 22:31:59.36	145.70	11.75	-45.4	-48.7	15.5	0.00e+00	0	44	0	1002438656	61	5588
2026-01-19 22:32:00.08	145.79	11.69	-45.3	-48.7	15.5	0.00e+00	0	44	0	1003487232	61	5576
2026-01-19 22:32:01.36	145.94	11.60	-45.2	-48.6	15.7	0.00e+00	0	44	0	1006632960	61	5479
2026-01-19 22:32:02.07	146.03	11.55	-45.3	-48.7	15.5	0.00e+00	0	44	0	1007681536	61	5588
2026-01-19 22:32:03.35	146.18	11.45	-45.1	-48.3	15.9	0.00e+00	0	44	0	1009778688	61	5319
2026-01-19 22:32:04.08	146.26	11.40	-45.0	-48.2	16.0	0.00e+00	0	44	0	1011875840	61	5258
2026-01-19 22:32:05.36	146.41	11.31	-45.2	-48.4	15.8	0.00e+00	0	44	0	1013972992	61	5374
2026-01-19 22:32:06.10	146.50	11.25	-45.2	-48.4	15.8	0.00e+00	0	44	0	1015021568	61	5364
2026-01-19 22:32:07.84	146.70	11.13	-45.2	-48.5	15.8	0.00e+00	0	44	0	1018167296	61	5403
2026-01-19 22:32:08.40	146.76	11.09	-45.2	-48.3	15.9	0.00e+00	0	44	0	1019215872	61	5327
2026-01-19 22:32:10.11	146.96	10.96	-45.3	-48.4	15.8	0.00e+00	0	44	0	1022361600	61	5373
2026-01-19 22:32:10.68	147.02	10.92	-45.3	-48.5	15.7	0.00e+00	0	44	0	1023410176	61	5411
2026-01-19 22:32:12.38	147.21	10.80	-45.4	-48.7	15.5	0.00e+00	0	44	0	1026555904	61	5539
2026-01-19 22:32:12.95	147.28	10.76	-45.4	-48.6	15.6	0.00e+00	0	44	0	1027604480	61	5488
2026-01-19 22:32:14.66	147.47	10.64	-45.4	-48.6	15.5	0.00e+00	0	44	0	1031798784	61	5527
2026-01-19 22:32:15.23	147.53	10.60	-45.4	-48.6	15.5	0.00e+00	0	44	0	1031798784	61	5526
2026-01-19 22:32:16.93	147.72	10.48	-45.2	-48.4	15.7	0.00e+00	0	44	0	1035993088	61	5395
2026-01-19 22:32:17.50	147.78	10.44	-45.2	-48.5	15.7	0.00e+00	0	44	0	1037041664	61	5414
2026-01-19 22:32:19.21	147.97	10.31	-45.0	-48.1	16.0	0.00e+00	0	44	0	1040187392	61	5199
2026-01-19 22:32:20.01	148.06	10.26	-44.9	-48.0	16.1	0.00e+00	0	44	0	1041235968	61	5159
2026-01-19 22:32:21.15	148.18	10.18	-44.9	-47.9	16.2	0.00e+00	0	44	0	1043333120	61	5079
2026-01-19 22:32:22.00	148.27	10.12	-44.7	-47.7	16.4	0.00e+00	0	44	0	1045430272	61	4952
2026-01-19 22:32:23.13	148.39	10.04	-44.8	-47.8	16.3	0.00e+00	0	44	0	1047527424	61	5014
2026-01-19 22:32:23.98	148.48	9.98	-44.8	-47.7	16.4	1.83e-04	0	44	0	1048576000	61	4969
2026-01-19 22:32:25.12	148.60	9.90	-44.6	-47.4	16.7	0.00e+00	0	43	0	1050673152	61	4799
2026-01-19 22:32:25.97	148.69	9.84	-44.5	-47.4	16.7	0.00e+00	0	44	0	1052770304	61	4767
2026-01-19 22:32:27.11	148.81	9.76	-44.6	-47.4	16.6	0.00e+00	0	44	0	1054867456	61	4795
2026-01-19 22:32:27.96	148.90	9.70	-44.5	-47.4	16.7	0.00e+00	0	44	0	1055916032	61	4771
2026-01-19 22:32:29.10	149.02	9.62	-44.6	-47.6	16.5	0.00e+00	0	44	0	1058013184	61	4880
2026-01-19 22:32:30.14	149.13	9.55	-44.7	-47.6	16.5	0.00e+00	0	44	0	1060110336	61	4916
2026-01-19 22:32:31.07	149.22	9.48	-44.8	-47.8	16.2	0.00e+00	0	44	0	1062207488	61	5021
2026-01-19 22:32:32.07	149.33	9.41	-44.9	-47.9	16.1	0.00e+00	0	44	0	1064304640	61	5096
2026-01-19 22:32:33.06	149.43	9.34	-44.9	-48.1	16.0	0.00e+00	0	44	0	1065353216	61	5178
2026-01-19 22:32:34.06	149.53	9.27	-44.9	-48.1	15.9	0.00e+00	0	44	0	1067450368	61	5215
2026-01-19 22:32:35.05	149.63	9.20	-45.0	-48.2	15.9	0.00e+00	0	44	0	1069547520	61	5227
2026-01-19 22:32:36.05	149.73	9.14	-45.1	-48.2	15.8	0.00e+00	0	44	0	1071644672	61	5274
2026-01-19 22:32:37.04	149.83	9.07	-45.1	-48.3	15.7	0.00e+00	0	43	0	1072693248	61	5328
2026-01-19 22:32:38.04	149.93	9.00	-45.1	-48.2	15.8	0.00e+00	0	44	0	1074790400	61	5269
2026-01-19 22:32:39.03	150.03	8.93	-50.0	-64.2	3.8	1.72e-02	0	44	104	1076887552	70	19681
2026-01-19 22:32:40.02	150.13	8.86	-50.3	-65.4	3.8	1.49e+00	0	44	104	1076887552	71	21417
2026-01-19 22:32:41.02	150.23	8.79	-50.4	-65.7	3.8	1.49e+00	0	44	104	1076887552	71	22129
2026-01-19 22:32:42.01	150.32	8.73	-50.2	-65.8	3.8	1.49e+00	0	44	104	1076887552	71	22447
2026-01-19 22:32:43.00	150.42	8.66	-50.5	-65.9	3.8	1.49e+00	0	44	104	1076887552	71	22690
2026-01-19 22:32:44.00	150.52	8.59	-50.6	-65.9	3.8	1.49e+00	0	44	104	1076887552	72	21378
2026-01-19 22:32:44.99	150.61	8.52	-50.7	-65.9	3.8	1.49e+00	0	44	104	1076887552	72	21487
2026-01-19 22:32:45.98	150.71	8.46	-50.6	-66.0	3.8	1.49e+00	0	44	104	1076887552	72	21681
2026-01-19 22:32:46.98	150.81	8.39	-50.6	-66.0	3.8	1.49e+00	0	44	104	1076887552	72	21554
2026-01-19 22:32:47.97	150.90	8.32	-50.7	-66.0	3.8	1.49e+00	0	44	104	1076887552	72	21636
2026-01-19 22:32:48.96	150.99	8.25	-50.8	-66.1	3.8	1.49e+00	0	44	104	1076887552	72	21779
2026-01-19 22:32:49.96	151.09	8.19	-50.8	-66.1	3.8	1.49e+00	0	44	104	1076887552	72	21765
2026-01-19 22:32:50.95	151.18	8.12	-50.7	-66.1	3.8	1.49e+00	0	44	104	1076887552	72	21848
2026-01-19 22:32:51.94	151.28	8.05	-50.9	-66.1	3.8	1.49e+00	0	44	104	1076887552	72	21916
2026-01-19 22:32:52.94	151.37	7.99	-50.8	-66.1	3.8	1.49e+00	0	44	104	1076887552	72	21941
2026-01-19 22:32:53.93	151.46	7.92	-50.9	-66.1	3.8	1.49e+00	0	44	104	1076887552	72	21987
2026-01-19 22:32:54.92	151.55	7.85	-50.9	-66.1	3.8	1.49e+00	0	44	104	1076887552	72	21985
2026-01-19 22:32:55.92	151.65	7.79	-50.6	-66.1	3.8	1.49e+00	0	44	104	1076887552	72	21988
2026-01-19 22:32:56.91	151.74	7.72	-50.8	-66.2	3.8	1.49e+00	0	44	104	1076887552	72	22029
2026-01-19 22:32:57.90	151.83	7.65	-50.9	-66.2	3.8	1.49e+00	0	44	104	1076887552	72	22017
2026-01-19 22:32:58.90	151.92	7.59	-50.8	-66.1	3.8	1.49e+00	0	44	104	1076887552	72	21943
2026-01-19 22:32:59.89	152.01	7.52	-50.8	-66.1	3.8	1.49e+00	0	44	104	1076887552	72	21934
2026-01-19 22:33:00.88	152.10	7.46	-50.5	-66.1	3.8	1.49e+00	0	44	104	1076887552	72	21849
2026-01-19 22:33:01.88	152.19	7.39	-50.5	-66.1	3.8	1.49e+00	0	44	104	1076887552	72	21763
2026-01-19 22:33:02.87	152.28	7.33	-50.5	-66.1	3.8	1.49e+00	0	44	104	1076887552	72	21797
2026-01-19 22:33:03.86	152.36	7.26	-50.5	-66.1	3.8	1.49e+00	0	44	104	1076887552	72	21821
2026-01-19 22:33:04.86	152.45	7.19	-50.5	-66.0	3.8	1.49e+00	0	44	104	1076887552	72	21728
2026-01-19 22:33:05.85	152.54	7.13	-50.5	-66.0	3.8	1.49e+00	0	44	104	1076887552	72	21754
2026-01-19 22:33:06.84	152.63	7.06	-50.5	-66.1	3.8	1.49e+00	0	44	104	1076887552	72	21849
2026-01-19 22:33:07.84	152.72	7.00	-50.5	-66.0	3.8	1.49e+00	0	44	104	1076887552	72	21740
2026-01-19 22:33:08.83	152.80	6.93	-50.5	-66.0	3.8	1.49e+00	0	44	104	1076887552	72	21702
2026-01-19 22:33:09.82	152.89	6.87	-50.5	-66.0	3.8	1.49e+00	0	44	104	1076887552	72	21734
2026-01-19 22:33:10.82	152.97	6.80	-50.5	-66.1	3.8	1.49e+00	0	44	104	1076887552	72	21790
2026-01-19 22:33:11.81	153.06	6.74	-50.5	-66.1	3.8	1.49e+00	0	44	104	1076887552	72	21809
2026-01-19 22:33:12.80	153.14	6.68	-50.5	-66.0	3.8	1.49e+00	0	44	104	1076887552	72	21744
2026-01-19 22:33:13.80	153.23	6.61	-50.5	-66.0	3.8	1.49e+00	0	44	104	1076887552	72	21727
2026-01-19 22:33:14.79	153.31	6.55	-50.5	-66.0	3.8	1.49e+00	0	44	104	1076887552	72	21747
2026-01-19 22:33:15.79	153.40	6.48	-50.5	-66.1	3.8	1.49e+00	0	44	104	1076887552	72	21791
2026-01-19 22:33:16.78	153.48	6.42	-50.5	-66.0	3.8	1.49e+00	0	44	104	1076887552	72	21695
2026-01-19 22:33:17.77	153.57	6.36	-50.5	-66.0	3.8	1.49e+00	0	44	104	1076887552	72	21702
2026-01-19 22:33:18.77	153.65	6.29	-50.5	-66.0	3.8	1.49e+00	0	44	104	1076887552	72	21674
2026-01-19 22:33:19.76	153.73	6.23	-50.5	-66.0	3.8	1.49e+00	0	44	104	1076887552	72	21735
2026-01-19 22:33:20.75	153.81	6.16	-50.5	-66.1	3.8	1.49e+00	0	44	104	1076887552	72	21765
2026-01-19 22:33:21.75	153.90	6.10	-50.5	-66.0	3.8	1.49e+00	0	44	104	1076887552	72	21755
2026-01-19 22:33:22.74	153.98	6.04	-50.5	-66.0	3.8	1.49e+00	0	44	104	1076887552	72	21747
2026-01-19 22:33:23.73	154.06	5.97	-50.5	-66.0	3.8	1.49e+00	0	44	104	1076887552	72	21718
2026-01-19 22:33:24.73	154.14	5.91	-50.5	-66.1	3.8	1.49e+00	0	44	104	1076887552	72	21811
2026-01-19 22:33:25.72	154.22	5.85	-50.5	-66.0	3.8	1.49e+00	0	44	104	1076887552	72	21717
2026-01-19 22:33:26.71	154.30	5.78	-50.5	-66.0	3.8	1.49e+00	0	44	104	1076887552	72	21669
2026-01-19 22:33:27.71	154.38	5.72	-50.5	-66.0	3.8	1.49e+00	0	44	104	1076887552	72	21685
2026-01-19 22:33:28.70	154.46	5.66	-50.5	-66.0	3.8	1.49e+00	0	44	104	1076887552	72	21743
2026-01-19 22:33:29.69	154.54	5.60	-50.5	-66.0	3.8	1.49e+00	0	44	104	1076887552	72	21724
2026-01-19 22:33:30.69	154.62	5.53	-50.5	-66.0	3.8	1.49e+00	0	44	104	1076887552	72	21649
2026-01-19 22:33:31.68	154.70	5.47	-50.5	-66.0	3.8	1.49e+00	0	44	104	1076887552	72	21622
2026-01-19 22:33:32.67	154.78	5.41	-50.5	-66.0	3.8	1.49e+00	0	44	104	1076887552	72	21644
2026-01-19 22:33:33.67	154.86	5.35	-50.5	-66.0	3.8	1.49e+00	0	44	104	1076887552	72	21688
2026-01-19 22:33:34.66	154.93	5.28	-50.5	-66.1	3.8	1.49e+00	0	44	104	1076887552	72	21786
2026-01-19 22:33:35.65	155.01	5.22	-50.5	-66.0	3.8	1.49e+00	0	44	104	1076887552	72	21700
2026-01-19 22:33:36.65	155.09	5.16	-50.5	-66.0	3.8	1.49e+00	0	44	104	1076887552	72	21653
2026-01-19 22:33:37.64	155.16	5.10	-50.5	-66.0	3.8	1.49e+00	0	44	104	1076887552	72	21749
2026-01-19 22:33:38.64	155.24	5.04	-50.5	-66.0	3.8	1.49e+00	0	44	104	1076887552	72	21645
2026-01-19 22:33:39.63	155.32	4.98	-50.5	-66.0	3.8	1.49e+00	0	44	104	1076887552	72	21645

#Closed at: 2026-01-19 22:33:40
#Recorded file [1076 MB]: D:/Data/31040_260120_012204.dat