passes_logs/2026/01/19/T1/T1__20260119_091336_FENGYUN_3D_rec.log

#Pass ID: 20260119_091336_FENGYUN 3D
#Satellite: FENGYUN 3D
#Configuration: FENGYUN 3D
#almurnet v.1.7.20251203
#Start time: 2026-01-19 09:13:36

#Version: 2.0.20230620
#Station: T1
#Location: 37.570604 lon 55.790049 lat
#TLE: 1 43010U 17072A   26018.95027258  .00000058  00000+0  49274-4 0  9992
#TLE: 2 43010  98.9939 350.8271 0002416 102.0826 258.0620 14.19696908423819

#Time	Az	El	Level	Level2	SNR	BER	BlckErr	Temp	State	Recorded	gain1	gain2
2026-01-19 09:13:36.16	69.47	5.00	-49.8	-62.0	3.8	8.46e-01	0	37	0	0	71	14382
2026-01-19 09:13:37.15	69.35	5.04	-49.8	-61.9	3.8	8.46e-01	0	37	104	0	71	14326
2026-01-19 09:13:38.15	69.22	5.08	-49.8	-61.9	3.8	8.47e-01	0	37	104	0	71	14350
2026-01-19 09:13:39.15	69.10	5.12	-49.8	-61.9	3.8	8.48e-01	0	37	104	0	71	14344
2026-01-19 09:13:40.14	68.97	5.16	-49.8	-62.0	3.8	8.47e-01	0	37	104	0	71	14405
2026-01-19 09:13:41.14	68.85	5.20	-49.8	-61.9	3.8	8.48e-01	0	37	104	0	71	14312
2026-01-19 09:13:42.13	68.72	5.24	-49.8	-61.9	3.8	8.48e-01	0	37	104	0	71	14359
2026-01-19 09:13:43.13	68.59	5.28	-49.8	-61.9	3.8	8.46e-01	0	37	104	0	71	14360
2026-01-19 09:13:44.13	68.46	5.32	-49.8	-61.9	3.8	8.46e-01	0	37	104	0	71	14367
2026-01-19 09:13:45.12	68.34	5.36	-49.8	-61.9	3.8	8.46e-01	0	37	104	0	71	14319
2026-01-19 09:13:46.11	68.21	5.39	-49.8	-62.0	3.8	8.46e-01	0	37	104	0	71	14400
2026-01-19 09:13:47.11	68.08	5.43	-49.8	-61.9	3.8	8.47e-01	0	37	104	0	71	14361
2026-01-19 09:13:48.11	67.95	5.47	-49.8	-61.9	3.8	8.47e-01	0	37	104	0	71	14367
2026-01-19 09:13:49.11	67.82	5.51	-49.8	-61.9	3.8	8.49e-01	0	37	104	0	71	14328
2026-01-19 09:13:50.10	67.69	5.55	-49.8	-61.9	3.8	8.46e-01	0	37	104	0	71	14301
2026-01-19 09:13:51.10	67.56	5.59	-49.8	-61.9	3.8	8.47e-01	0	38	104	0	71	14298
2026-01-19 09:13:52.10	67.43	5.63	-49.8	-61.9	3.8	8.48e-01	0	37	104	0	71	14313
2026-01-19 09:13:53.09	67.30	5.67	-49.8	-61.9	3.8	8.46e-01	0	38	104	0	71	14336
2026-01-19 09:13:54.09	67.17	5.71	-49.8	-61.9	3.8	8.47e-01	0	38	104	0	71	14231
2026-01-19 09:13:55.09	67.04	5.75	-49.8	-61.9	3.8	8.46e-01	0	38	104	0	71	14289
2026-01-19 09:13:56.08	66.91	5.78	-49.8	-61.9	3.8	8.47e-01	0	38	104	0	71	14312
2026-01-19 09:13:57.08	66.77	5.82	-49.8	-61.9	3.8	8.46e-01	0	38	104	0	71	14314
2026-01-19 09:13:58.08	66.64	5.86	-49.8	-61.9	3.8	8.47e-01	0	38	104	0	71	14366
2026-01-19 09:13:59.08	66.51	5.90	-49.7	-61.9	3.8	8.47e-01	0	38	104	0	71	14324
2026-01-19 09:14:00.07	66.37	5.94	-49.8	-61.9	3.8	8.47e-01	0	38	104	0	71	14337
2026-01-19 09:14:01.07	66.24	5.98	-49.8	-61.9	3.8	8.47e-01	0	38	104	0	71	14336
2026-01-19 09:14:02.06	66.11	6.01	-49.7	-61.9	3.8	8.47e-01	0	38	104	0	71	14321
2026-01-19 09:14:03.06	65.97	6.05	-49.8	-61.9	3.8	8.46e-01	0	38	104	0	71	14229
2026-01-19 09:14:04.06	65.84	6.09	-49.8	-61.9	3.8	8.47e-01	0	38	104	0	71	14229
2026-01-19 09:14:05.05	65.70	6.13	-49.7	-61.8	3.8	8.46e-01	0	38	104	0	71	14175
2026-01-19 09:14:06.05	65.57	6.16	-49.7	-61.8	3.8	8.47e-01	0	38	104	0	71	14114
2026-01-19 09:14:07.05	65.43	6.20	-49.7	-61.8	3.8	8.47e-01	0	38	104	0	71	14140
2026-01-19 09:14:08.05	65.29	6.24	-49.7	-61.8	3.8	8.47e-01	0	38	104	0	71	14176
2026-01-19 09:14:09.04	65.16	6.28	-49.8	-61.9	3.8	8.49e-01	0	38	104	0	71	14246
2026-01-19 09:14:10.04	65.02	6.31	-49.8	-61.8	3.8	8.47e-01	0	38	104	0	71	14179
2026-01-19 09:14:11.04	64.88	6.35	-49.7	-61.9	3.8	8.47e-01	0	38	104	0	71	14312
2026-01-19 09:14:12.03	64.75	6.39	-49.7	-61.9	3.8	8.47e-01	0	38	104	0	71	14366
2026-01-19 09:14:13.03	64.61	6.43	-49.8	-61.9	3.8	8.47e-01	0	38	104	0	71	14279
2026-01-19 09:14:14.03	64.47	6.46	-49.7	-61.9	3.8	8.46e-01	0	38	104	0	71	14233
2026-01-19 09:14:15.03	64.33	6.50	-49.7	-61.9	3.8	8.47e-01	0	38	104	0	71	14276
2026-01-19 09:14:16.03	64.19	6.54	-49.7	-61.9	3.8	8.47e-01	0	38	104	0	71	14214
2026-01-19 09:14:17.02	64.05	6.57	-49.7	-61.9	3.8	8.46e-01	0	38	104	0	71	14311
2026-01-19 09:14:18.02	63.91	6.61	-49.7	-61.9	3.8	8.47e-01	0	38	104	0	71	14283
2026-01-19 09:14:19.01	63.77	6.65	-49.7	-61.9	3.8	8.47e-01	0	38	104	0	71	14240
2026-01-19 09:14:20.00	63.63	6.68	-49.7	-61.9	3.8	8.47e-01	0	38	104	0	71	14242
2026-01-19 09:14:20.99	63.49	6.72	-49.7	-61.9	3.8	8.46e-01	0	38	104	0	71	14270
2026-01-19 09:14:21.99	63.35	6.75	-49.7	-61.9	3.8	8.48e-01	0	38	104	0	71	14244
2026-01-19 09:14:22.98	63.21	6.79	-49.8	-61.9	3.8	8.47e-01	0	38	104	0	71	14283
2026-01-19 09:14:23.97	63.07	6.82	-49.8	-61.9	3.8	8.48e-01	0	38	104	0	71	14276
2026-01-19 09:14:24.97	62.93	6.86	-49.8	-61.9	3.8	8.46e-01	0	38	104	0	71	14295
2026-01-19 09:14:25.97	62.79	6.90	-49.7	-61.9	3.8	8.46e-01	0	38	104	0	71	14302
2026-01-19 09:14:26.96	62.64	6.93	-49.7	-61.8	3.8	8.48e-01	0	38	104	0	71	14200
2026-01-19 09:14:27.95	62.50	6.97	-49.8	-61.9	3.8	8.47e-01	0	39	104	0	71	14279
2026-01-19 09:14:28.95	62.36	7.00	-49.7	-61.8	3.8	8.47e-01	0	38	104	0	71	14172
2026-01-19 09:14:29.94	62.22	7.04	-49.7	-61.8	3.8	8.47e-01	0	38	104	0	71	14168
2026-01-19 09:14:30.94	62.07	7.07	-49.7	-61.8	3.8	8.46e-01	0	39	104	0	71	14181
2026-01-19 09:14:31.93	61.93	7.11	-49.8	-61.9	3.8	8.49e-01	0	38	104	0	71	14233
2026-01-19 09:14:32.93	61.78	7.14	-49.8	-61.9	3.8	8.47e-01	0	38	104	0	71	14304
2026-01-19 09:14:33.93	61.64	7.18	-49.7	-61.9	3.8	8.47e-01	0	39	104	0	71	14286
2026-01-19 09:14:34.93	61.49	7.21	-49.8	-61.9	3.8	8.47e-01	0	39	104	0	71	14219
2026-01-19 09:14:35.92	61.34	7.24	-49.7	-61.8	3.8	8.46e-01	0	39	104	0	71	14179
2026-01-19 09:14:36.92	61.20	7.28	-49.7	-61.8	3.8	8.47e-01	0	39	104	0	71	14199
2026-01-19 09:14:37.91	61.05	7.31	-49.7	-61.8	3.8	8.48e-01	0	39	104	0	71	14169
2026-01-19 09:14:38.90	60.91	7.35	-49.7	-61.8	3.8	8.46e-01	0	39	104	0	71	14161
2026-01-19 09:14:39.90	60.76	7.38	-49.7	-61.9	3.8	8.47e-01	0	39	104	0	71	14224
2026-01-19 09:14:40.89	60.61	7.41	-49.8	-61.9	3.8	8.46e-01	0	38	104	0	71	14237
2026-01-19 09:14:41.88	60.46	7.45	-49.7	-61.9	3.8	8.47e-01	0	38	104	0	71	14215
2026-01-19 09:14:42.88	60.31	7.48	-49.7	-61.8	3.8	8.47e-01	0	39	104	0	71	14184
2026-01-19 09:14:43.88	60.17	7.51	-49.7	-61.9	3.8	8.47e-01	0	39	104	0	71	14227
2026-01-19 09:14:44.87	60.02	7.55	-49.7	-61.9	3.8	8.46e-01	0	39	104	0	71	14214
2026-01-19 09:14:45.87	59.87	7.58	-49.7	-61.8	3.8	8.48e-01	0	39	104	0	71	14097
2026-01-19 09:14:46.86	59.72	7.61	-49.7	-61.7	3.8	8.47e-01	0	39	104	0	71	14039
2026-01-19 09:14:47.86	59.57	7.65	-49.7	-61.7	3.8	8.47e-01	0	39	104	0	71	13988
2026-01-19 09:14:48.85	59.42	7.68	-49.7	-61.7	3.8	8.47e-01	0	39	104	0	71	13886
2026-01-19 09:14:49.85	59.27	7.71	-49.7	-61.6	3.8	8.46e-01	0	39	104	0	71	13745
2026-01-19 09:14:50.84	59.12	7.74	-49.7	-61.5	3.8	8.47e-01	0	39	104	0	71	13626
2026-01-19 09:14:51.83	58.97	7.77	-49.7	-61.4	3.8	8.47e-01	0	39	104	0	71	13540
2026-01-19 09:14:52.83	58.81	7.81	-49.7	-61.5	3.8	8.46e-01	0	39	104	0	71	13587
2026-01-19 09:14:53.82	58.66	7.84	-49.7	-61.5	3.8	8.47e-01	0	39	104	0	71	13655
2026-01-19 09:14:54.81	58.51	7.87	-49.7	-61.6	3.8	8.47e-01	0	39	104	0	71	13749
2026-01-19 09:14:55.81	58.36	7.90	-49.7	-61.7	3.8	8.47e-01	0	39	104	0	71	13969
2026-01-19 09:14:56.81	58.20	7.93	-49.7	-61.7	3.8	8.46e-01	0	39	104	0	71	13940
2026-01-19 09:14:57.81	58.05	7.96	-49.7	-61.7	3.8	8.47e-01	0	39	104	0	71	13985
2026-01-19 09:14:58.80	57.90	8.00	-49.7	-61.7	3.8	8.47e-01	0	39	104	0	71	13995
2026-01-19 09:14:59.80	57.74	8.03	-49.7	-61.6	3.8	8.47e-01	0	39	104	0	71	13827
2026-01-19 09:15:00.79	57.59	8.06	-49.7	-61.5	3.8	8.47e-01	0	39	104	0	71	13700
2026-01-19 09:15:01.78	57.44	8.09	-49.7	-61.5	3.8	8.47e-01	0	39	104	0	71	13621
2026-01-19 09:15:02.78	57.28	8.12	-49.7	-61.5	3.8	8.47e-01	0	39	104	0	71	13624
2026-01-19 09:15:03.77	57.13	8.15	-49.7	-61.5	3.8	8.47e-01	0	39	104	0	71	13712
2026-01-19 09:15:04.77	56.97	8.18	-49.7	-61.6	3.8	8.46e-01	0	39	104	0	71	13885
2026-01-19 09:15:05.76	56.81	8.21	-49.7	-61.7	3.8	8.47e-01	0	39	104	0	71	13963
2026-01-19 09:15:06.76	56.66	8.24	-49.7	-61.7	3.8	8.46e-01	0	39	104	0	71	14020
2026-01-19 09:15:07.76	56.50	8.27	-49.7	-61.7	3.8	8.47e-01	0	39	104	0	71	13962
2026-01-19 09:15:08.75	56.34	8.30	-49.7	-61.6	3.8	8.47e-01	0	39	104	0	71	13758
2026-01-19 09:15:09.75	56.19	8.33	-49.7	-61.3	3.8	8.46e-01	0	39	104	0	71	13337
2026-01-19 09:15:10.75	56.03	8.36	-49.7	-61.1	3.8	8.47e-01	0	39	104	0	71	13000
2026-01-19 09:15:11.74	55.87	8.38	-49.6	-60.7	3.8	8.46e-01	0	39	104	0	71	12500
2026-01-19 09:15:12.74	55.71	8.41	-49.6	-60.7	3.8	8.46e-01	0	39	104	0	71	12456
2026-01-19 09:15:13.73	55.55	8.44	-49.6	-61.1	3.8	8.46e-01	0	39	104	0	71	12971
2026-01-19 09:15:14.72	55.40	8.47	-49.7	-61.5	3.8	8.47e-01	0	39	104	0	71	13678
2026-01-19 09:15:15.72	55.24	8.50	-49.7	-61.8	3.8	8.46e-01	0	39	104	0	71	14057
2026-01-19 09:15:16.72	55.08	8.53	-49.7	-61.8	3.8	8.48e-01	0	39	104	0	71	14185
2026-01-19 09:15:17.71	54.92	8.55	-49.7	-61.7	3.8	8.46e-01	0	39	104	0	71	14032
2026-01-19 09:15:18.71	54.76	8.58	-49.7	-61.2	3.8	8.46e-01	0	39	104	0	71	13110
2026-01-19 09:15:19.70	54.60	8.61	-49.5	-59.9	3.8	8.47e-01	0	39	104	0	71	11406
2026-01-19 09:15:20.70	54.43	8.64	-49.4	-58.8	4.1	8.43e-01	0	39	104	0	70	10545
2026-01-19 09:15:21.70	54.27	8.66	-49.4	-58.7	4.1	8.41e-01	0	39	0	0	70	10522
2026-01-19 09:15:22.69	54.11	8.69	-49.6	-60.4	3.8	8.44e-01	0	39	104	0	70	12794
2026-01-19 09:15:23.68	53.95	8.72	-49.6	-60.8	3.8	8.48e-01	0	39	104	0	70	13376
2026-01-19 09:15:24.68	53.79	8.74	-48.5	-54.9	5.8	8.19e-01	0	39	0	0	69	7178
2026-01-19 09:15:25.67	53.63	8.77	-46.0	-49.8	10.6	1.46e-02	0	39	0	5242880	64	5292
2026-01-19 09:15:26.67	53.46	8.80	-43.9	-46.6	13.9	6.86e-05	0	39	0	10485760	59	4894
2026-01-19 09:15:27.67	53.30	8.82	-42.1	-44.4	16.1	0.00e+00	0	39	0	16777216	56	4529
2026-01-19 09:15:28.66	53.14	8.85	-41.0	-43.2	17.1	0.00e+00	0	39	0	22020096	54	4412
2026-01-19 09:15:29.66	52.97	8.87	-40.8	-42.9	17.3	0.00e+00	0	39	0	27262976	53	4539
2026-01-19 09:15:30.65	52.81	8.90	-41.0	-43.1	17.1	0.00e+00	0	39	0	33554432	53	4651
2026-01-19 09:15:31.64	52.65	8.92	-41.8	-44.1	16.2	0.00e+00	0	39	0	38797312	54	4898
2026-01-19 09:15:32.64	52.48	8.95	-43.7	-46.4	14.2	0.00e+00	0	39	0	44040192	57	5341
2026-01-19 09:15:33.64	52.32	8.97	-45.5	-48.9	11.7	1.90e-04	0	39	0	50331648	61	5690
2026-01-19 09:15:34.63	52.15	9.00	-47.3	-52.2	8.2	1.81e-02	0	39	0	55574528	65	6619
2026-01-19 09:15:35.62	51.99	9.02	-45.4	-48.7	11.8	1.41e-01	0	39	0	60817408	62	5241
2026-01-19 09:15:36.62	51.82	9.05	-44.0	-46.9	13.7	1.94e-05	0	39	0	67108864	60	4763
2026-01-19 09:15:37.61	51.66	9.07	-48.3	-54.8	6.0	1.74e-04	0	39	0	72351744	67	7986
2026-01-19 09:15:38.61	51.49	9.10	-46.8	-51.1	9.1	8.30e-01	0	39	0	72351744	65	5819
2026-01-19 09:15:39.60	51.33	9.12	-45.1	-48.4	12.3	8.00e-06	0	39	0	77594624	60	5697
2026-01-19 09:15:40.59	51.16	9.14	-43.8	-46.5	14.0	3.96e-02	0	39	0	82837504	59	4835
2026-01-19 09:15:41.59	50.99	9.17	-43.1	-45.6	14.9	1.10e-06	0	39	0	89128960	57	4926
2026-01-19 09:15:42.58	50.83	9.19	-42.4	-44.8	15.8	0.00e+00	0	39	0	94371840	56	4732
2026-01-19 09:15:43.58	50.66	9.21	-41.6	-43.9	16.5	0.00e+00	0	39	0	100663296	55	4517
2026-01-19 09:15:44.57	50.49	9.23	-41.0	-43.1	17.2	0.00e+00	0	39	0	105906176	54	4379
2026-01-19 09:15:45.57	50.33	9.26	-40.5	-42.6	17.8	0.00e+00	0	39	0	111149056	52	4608
2026-01-19 09:15:46.56	50.16	9.28	-40.2	-42.2	18.0	0.00e+00	0	39	0	116391936	52	4440
2026-01-19 09:15:47.56	49.99	9.30	-40.0	-42.1	18.2	0.00e+00	0	39	0	122683392	52	4352
2026-01-19 09:15:48.55	49.82	9.32	-40.1	-42.2	18.2	0.00e+00	0	39	0	127926272	51	4657
2026-01-19 09:15:49.54	49.65	9.34	-40.1	-42.2	18.2	0.00e+00	0	39	0	134217728	51	4662
2026-01-19 09:15:50.54	49.48	9.36	-39.9	-42.0	18.4	0.00e+00	0	39	0	139460608	51	4553
2026-01-19 09:15:51.53	49.32	9.39	-39.9	-41.8	18.8	0.00e+00	0	39	0	144703488	51	4463
2026-01-19 09:15:52.52	49.15	9.41	-39.7	-41.6	18.9	0.00e+00	0	39	0	150994944	51	4370
2026-01-19 09:15:53.51	48.98	9.43	-39.7	-41.6	18.9	0.00e+00	0	39	0	156237824	51	4374
2026-01-19 09:15:54.51	48.81	9.45	-39.7	-41.7	18.8	0.00e+00	0	39	0	161480704	51	4407
2026-01-19 09:15:55.51	48.64	9.47	-39.8	-41.8	18.8	0.00e+00	0	39	0	166723584	51	4447
2026-01-19 09:15:56.51	48.47	9.49	-39.8	-41.7	18.9	0.00e+00	0	39	0	173015040	51	4403
2026-01-19 09:15:57.51	48.29	9.51	-39.8	-41.8	18.8	0.00e+00	0	39	0	178257920	51	4455
2026-01-19 09:15:58.50	48.12	9.53	-39.9	-41.9	18.7	0.00e+00	0	39	0	184549376	51	4502
2026-01-19 09:15:59.49	47.95	9.55	-39.7	-41.7	18.9	0.00e+00	0	39	0	189792256	51	4406
2026-01-19 09:16:00.49	47.78	9.56	-39.7	-41.6	18.9	0.00e+00	0	39	0	195035136	51	4385
2026-01-19 09:16:01.48	47.61	9.58	-39.7	-41.6	19.0	0.00e+00	0	39	0	201326592	51	4360
2026-01-19 09:16:02.47	47.44	9.60	-39.6	-41.5	19.0	0.00e+00	0	39	0	206569472	51	4340
2026-01-19 09:16:03.47	47.27	9.62	-39.6	-41.5	19.1	0.00e+00	0	39	0	211812352	51	4309
2026-01-19 09:16:04.46	47.10	9.64	-39.6	-41.5	19.0	0.00e+00	0	39	0	218103808	51	4315
2026-01-19 09:16:05.46	46.92	9.66	-39.6	-41.5	19.0	0.00e+00	0	39	0	223346688	51	4339
2026-01-19 09:16:06.45	46.75	9.67	-39.6	-41.5	19.1	0.00e+00	0	39	0	228589568	51	4301
2026-01-19 09:16:07.45	46.58	9.69	-39.7	-41.6	18.9	0.00e+00	0	39	0	234881024	51	4380
2026-01-19 09:16:08.45	46.40	9.71	-39.7	-41.6	18.9	0.00e+00	0	39	0	240123904	51	4374
2026-01-19 09:16:09.44	46.23	9.73	-39.7	-41.6	19.0	0.00e+00	0	39	0	245366784	51	4358
2026-01-19 09:16:10.44	46.06	9.74	-39.6	-41.5	19.0	0.00e+00	0	39	0	251658240	51	4314
2026-01-19 09:16:11.43	45.88	9.76	-39.6	-41.5	19.0	0.00e+00	0	39	0	256901120	51	4332
2026-01-19 09:16:12.42	45.71	9.77	-39.5	-41.4	19.1	0.00e+00	0	39	0	262144000	51	4268
2026-01-19 09:16:13.42	45.54	9.79	-39.6	-41.5	19.0	0.00e+00	0	39	0	268435456	51	4322
2026-01-19 09:16:14.42	45.36	9.81	-39.7	-41.6	19.0	0.00e+00	0	39	0	273678336	51	4343
2026-01-19 09:16:15.41	45.19	9.82	-39.6	-41.5	19.1	0.00e+00	0	39	0	278921216	51	4307
2026-01-19 09:16:16.40	45.01	9.84	-39.5	-41.4	19.2	0.00e+00	0	39	0	285212672	51	4269
2026-01-19 09:16:17.40	44.84	9.85	-39.6	-41.5	19.1	0.00e+00	0	39	0	290455552	51	4319
2026-01-19 09:16:18.39	44.66	9.87	-39.7	-41.6	19.0	0.00e+00	0	39	0	295698432	51	4370
2026-01-19 09:16:19.38	44.49	9.88	-39.8	-41.8	18.8	0.00e+00	0	39	0	301989888	51	4449
2026-01-19 09:16:20.38	44.31	9.90	-39.7	-41.6	19.0	0.00e+00	0	39	0	307232768	51	4360
2026-01-19 09:16:21.37	44.14	9.91	-39.7	-41.6	18.9	0.00e+00	0	40	0	312475648	51	4385
2026-01-19 09:16:22.37	43.96	9.92	-39.6	-41.5	19.1	0.00e+00	0	39	0	318767104	51	4309
2026-01-19 09:16:23.36	43.79	9.94	-39.7	-41.6	18.9	0.00e+00	0	39	0	324009984	51	4371
2026-01-19 09:16:24.36	43.61	9.95	-39.6	-41.5	19.1	0.00e+00	0	39	0	329252864	51	4317
2026-01-19 09:16:25.35	43.44	9.96	-39.4	-41.2	19.3	0.00e+00	0	39	0	335544320	50	4438
2026-01-19 09:16:26.35	43.26	9.98	-39.3	-41.2	19.3	0.00e+00	0	39	0	340787200	50	4422
2026-01-19 09:16:27.35	43.08	9.99	-39.4	-41.2	19.3	0.00e+00	0	39	0	346030080	50	4435
2026-01-19 09:16:28.35	42.90	10.00	-39.3	-41.2	19.3	0.00e+00	0	39	0	352321536	50	4429
2026-01-19 09:16:29.34	42.73	10.01	-39.3	-41.2	19.3	0.00e+00	0	39	0	357564416	50	4428
2026-01-19 09:16:30.33	42.55	10.02	-39.3	-41.1	19.4	0.00e+00	0	39	0	362807296	50	4389
2026-01-19 09:16:31.33	42.37	10.04	-39.3	-41.1	19.4	0.00e+00	0	39	0	369098752	50	4383
2026-01-19 09:16:32.32	42.20	10.05	-39.4	-41.3	19.3	0.00e+00	0	39	0	374341632	50	4458
2026-01-19 09:16:33.32	42.02	10.06	-39.4	-41.3	19.2	0.00e+00	0	39	0	379584512	50	4486
2026-01-19 09:16:34.31	41.84	10.07	-39.4	-41.3	19.3	0.00e+00	0	39	0	385875968	50	4477
2026-01-19 09:16:35.30	41.67	10.08	-39.6	-41.5	19.1	0.00e+00	0	39	0	391118848	50	4558
2026-01-19 09:16:36.30	41.49	10.09	-39.5	-41.4	19.1	0.00e+00	0	39	0	396361728	50	4540
2026-01-19 09:16:37.30	41.31	10.10	-39.6	-41.4	19.1	0.00e+00	0	39	0	402653184	50	4544
2026-01-19 09:16:38.29	41.13	10.11	-39.4	-41.3	19.3	0.00e+00	0	39	0	407896064	50	4469
2026-01-19 09:16:39.29	40.95	10.12	-39.4	-41.2	19.3	0.00e+00	0	39	0	413138944	50	4433
2026-01-19 09:16:40.29	40.77	10.13	-39.4	-41.2	19.3	0.00e+00	0	39	0	419430400	50	4432
2026-01-19 09:16:41.28	40.60	10.14	-39.3	-41.2	19.4	0.00e+00	0	39	0	424673280	50	4424
2026-01-19 09:16:42.27	40.42	10.15	-39.4	-41.3	19.3	0.00e+00	0	40	0	429916160	50	4476
2026-01-19 09:16:43.27	40.24	10.15	-39.5	-41.4	19.2	0.00e+00	0	39	0	436207616	50	4495
2026-01-19 09:16:44.26	40.06	10.16	-39.5	-41.4	19.2	0.00e+00	0	39	0	441450496	50	4536
2026-01-19 09:16:45.26	39.88	10.17	-39.6	-41.5	19.1	0.00e+00	0	39	0	446693376	50	4550
2026-01-19 09:16:46.25	39.71	10.18	-39.7	-41.6	19.0	0.00e+00	0	39	0	452984832	50	4620
2026-01-19 09:16:47.25	39.53	10.18	-39.7	-41.6	19.0	0.00e+00	0	39	0	458227712	50	4626
2026-01-19 09:16:48.24	39.35	10.19	-39.8	-41.8	18.8	0.00e+00	0	39	0	463470592	50	4712
2026-01-19 09:16:49.23	39.17	10.20	-39.8	-41.7	18.8	0.00e+00	0	39	0	469762048	50	4691
2026-01-19 09:16:50.23	38.99	10.20	-39.8	-41.7	18.8	0.00e+00	0	39	0	475004928	50	4692
2026-01-19 09:16:51.22	38.81	10.21	-39.7	-41.7	18.9	0.00e+00	0	39	0	480247808	50	4669
2026-01-19 09:16:52.21	38.63	10.22	-39.7	-41.6	18.9	0.00e+00	0	39	0	486539264	50	4651
2026-01-19 09:16:53.21	38.45	10.22	-39.6	-41.5	19.0	0.00e+00	0	39	0	491782144	50	4585
2026-01-19 09:16:54.20	38.27	10.23	-39.6	-41.5	19.1	0.00e+00	0	39	0	497025024	50	4559
2026-01-19 09:16:55.20	38.09	10.23	-39.4	-41.3	19.2	0.00e+00	0	39	0	503316480	50	4486
2026-01-19 09:16:56.20	37.91	10.24	-39.4	-41.3	19.3	0.00e+00	0	39	0	508559360	50	4444
2026-01-19 09:16:57.19	37.73	10.24	-39.4	-41.3	19.3	0.00e+00	0	39	0	513802240	50	4464
2026-01-19 09:16:58.18	37.56	10.25	-39.2	-41.1	19.5	0.00e+00	0	39	0	520093696	50	4346
2026-01-19 09:16:59.17	37.38	10.25	-39.2	-41.0	19.5	0.00e+00	0	39	0	525336576	50	4332
2026-01-19 09:17:00.17	37.20	10.25	-39.1	-41.0	19.6	0.00e+00	0	39	0	530579456	50	4313
2026-01-19 09:17:01.17	37.02	10.26	-39.0	-40.9	19.7	0.00e+00	0	39	0	536870912	50	4250
2026-01-19 09:17:02.16	36.84	10.26	-38.9	-40.8	19.8	0.00e+00	0	39	0	542113792	49	4454
2026-01-19 09:17:03.17	36.65	10.26	-38.9	-40.8	19.7	0.00e+00	0	39	0	548405248	49	4459
2026-01-19 09:17:04.16	36.48	10.27	-39.0	-40.8	19.7	0.00e+00	0	39	0	553648128	49	4485
2026-01-19 09:17:05.15	36.30	10.27	-38.9	-40.8	19.8	0.00e+00	0	39	0	558891008	49	4449
2026-01-19 09:17:06.15	36.12	10.27	-39.0	-40.9	19.7	0.00e+00	0	40	0	564133888	49	4517
2026-01-19 09:17:07.14	35.94	10.27	-39.1	-41.0	19.6	0.00e+00	0	39	0	570425344	49	4553
2026-01-19 09:17:08.14	35.76	10.28	-39.2	-41.1	19.5	0.00e+00	0	39	0	575668224	49	4609
2026-01-19 09:17:09.13	35.58	10.28	-39.2	-41.0	19.5	0.00e+00	0	40	0	581959680	49	4586
2026-01-19 09:17:10.12	35.40	10.28	-39.2	-41.0	19.5	0.00e+00	0	40	0	587202560	49	4589
2026-01-19 09:17:11.12	35.22	10.28	-39.2	-41.1	19.4	0.00e+00	0	40	0	592445440	49	4616
2026-01-19 09:17:12.12	35.04	10.28	-39.3	-41.2	19.4	0.00e+00	0	39	0	598736896	49	4679
2026-01-19 09:17:13.11	34.86	10.28	-39.3	-41.1	19.4	0.00e+00	0	39	0	603979776	49	4647
2026-01-19 09:17:14.11	34.68	10.28	-39.3	-41.2	19.4	0.00e+00	0	39	0	609222656	49	4686
2026-01-19 09:17:15.11	34.50	10.28	-39.4	-41.3	19.3	0.00e+00	0	40	0	614465536	49	4735
2026-01-19 09:17:16.11	34.31	10.28	-39.5	-41.4	19.2	0.00e+00	0	39	0	620756992	49	4761
2026-01-19 09:17:17.10	34.14	10.28	-39.4	-41.2	19.3	0.00e+00	0	40	0	625999872	49	4703
2026-01-19 09:17:18.10	33.95	10.28	-39.5	-41.4	19.1	0.00e+00	0	39	0	632291328	49	4800
2026-01-19 09:17:19.10	33.77	10.28	-39.6	-41.6	19.0	0.00e+00	0	39	0	637534208	49	4871
2026-01-19 09:17:20.09	33.59	10.27	-39.7	-41.6	19.0	0.00e+00	0	40	0	642777088	50	4633
2026-01-19 09:17:21.09	33.41	10.27	-39.8	-41.7	18.9	0.00e+00	0	39	0	649068544	50	4679
2026-01-19 09:17:22.08	33.23	10.27	-39.7	-41.7	18.9	0.00e+00	0	39	0	654311424	50	4677
2026-01-19 09:17:23.07	33.06	10.27	-39.5	-41.4	19.2	0.00e+00	0	39	0	659554304	50	4540
2026-01-19 09:17:24.06	32.88	10.27	-39.6	-41.5	19.1	0.00e+00	0	40	0	664797184	50	4593
2026-01-19 09:17:25.06	32.70	10.26	-39.4	-41.4	19.2	0.00e+00	0	39	0	671088640	50	4511
2026-01-19 09:17:26.05	32.52	10.26	-39.4	-41.3	19.3	0.00e+00	0	39	0	676331520	50	4473
2026-01-19 09:17:27.04	32.34	10.26	-39.1	-41.1	19.5	0.00e+00	0	40	0	682622976	50	4342
2026-01-19 09:17:28.03	32.16	10.25	-39.1	-41.0	19.5	0.00e+00	0	39	0	687865856	50	4325
2026-01-19 09:17:29.03	31.98	10.25	-39.0	-40.9	19.6	0.00e+00	0	40	0	693108736	50	4265
2026-01-19 09:17:30.03	31.80	10.24	-39.0	-40.8	19.7	0.00e+00	0	39	0	699400192	50	4224
2026-01-19 09:17:31.02	31.62	10.24	-39.0	-40.8	19.7	0.00e+00	0	39	0	704643072	49	4484
2026-01-19 09:17:32.02	31.44	10.23	-39.1	-41.0	19.6	0.00e+00	0	39	0	709885952	49	4547
2026-01-19 09:17:33.01	31.26	10.23	-39.1	-41.0	19.6	0.00e+00	0	39	0	715128832	49	4572
2026-01-19 09:17:34.01	31.08	10.22	-39.0	-40.9	19.6	0.00e+00	0	39	0	721420288	49	4523
2026-01-19 09:17:35.01	30.90	10.22	-39.3	-41.2	19.3	0.00e+00	0	39	0	726663168	49	4692
2026-01-19 09:17:36.00	30.72	10.21	-39.3	-41.2	19.4	0.00e+00	0	39	0	732954624	49	4687
2026-01-19 09:17:37.00	30.54	10.21	-39.1	-41.0	19.6	0.00e+00	0	39	0	738197504	49	4553
2026-01-19 09:17:38.00	30.36	10.20	-39.0	-40.8	19.7	0.00e+00	0	39	0	743440384	49	4476
2026-01-19 09:17:39.00	30.18	10.19	-38.9	-40.8	19.8	0.00e+00	0	39	0	749731840	49	4452
2026-01-19 09:17:40.00	30.00	10.19	-39.0	-40.9	19.7	0.00e+00	0	39	0	754974720	49	4497
2026-01-19 09:17:40.99	29.83	10.18	-39.0	-40.8	19.7	0.00e+00	0	39	0	760217600	49	4493
2026-01-19 09:17:41.99	29.65	10.17	-39.1	-40.9	19.5	0.00e+00	0	39	0	766509056	49	4539
2026-01-19 09:17:42.99	29.47	10.16	-39.2	-41.0	19.5	0.00e+00	0	39	0	771751936	49	4591
2026-01-19 09:17:43.99	29.29	10.16	-39.2	-41.1	19.5	0.00e+00	0	39	0	776994816	49	4614
2026-01-19 09:17:44.99	29.11	10.15	-39.4	-41.3	19.3	0.00e+00	0	39	0	783286272	49	4722
2026-01-19 09:17:45.98	28.93	10.14	-39.6	-41.5	19.1	0.00e+00	0	39	0	788529152	49	4867
2026-01-19 09:17:46.98	28.75	10.13	-39.5	-41.5	19.1	0.00e+00	0	39	0	794820608	49	4819
2026-01-19 09:17:47.98	28.57	10.12	-39.5	-41.5	19.1	0.00e+00	0	39	0	800063488	49	4830
2026-01-19 09:17:48.94	28.40	10.11	-39.4	-41.3	19.2	0.00e+00	0	39	0	805306368	49	4739
2026-01-19 09:17:49.93	28.22	10.10	-39.5	-41.4	19.1	0.00e+00	0	39	0	811597824	49	4814
2026-01-19 09:17:50.93	28.05	10.09	-39.4	-41.4	19.2	0.00e+00	0	39	0	816840704	49	4769
2026-01-19 09:17:51.93	27.87	10.08	-39.4	-41.3	19.2	0.00e+00	0	39	0	822083584	49	4739
2026-01-19 09:17:52.92	27.69	10.07	-39.4	-41.3	19.3	0.00e+00	0	39	0	827326464	49	4726
2026-01-19 09:17:53.92	27.51	10.06	-39.4	-41.3	19.3	0.00e+00	0	40	0	833617920	49	4740
2026-01-19 09:17:54.91	27.34	10.05	-39.3	-41.2	19.4	0.00e+00	0	40	0	838860800	49	4655
2026-01-19 09:17:55.91	27.16	10.04	-39.2	-41.1	19.4	0.00e+00	0	39	0	845152256	49	4634
2026-01-19 09:17:56.90	26.98	10.03	-39.0	-40.9	19.6	0.00e+00	0	39	0	850395136	49	4525
2026-01-19 09:17:57.89	26.81	10.02	-39.1	-40.9	19.6	0.00e+00	0	39	0	855638016	49	4530
2026-01-19 09:17:58.89	26.63	10.00	-39.2	-41.0	19.5	0.00e+00	0	39	0	861929472	49	4595
2026-01-19 09:17:59.89	26.45	9.99	-39.1	-41.0	19.5	0.00e+00	0	39	0	867172352	49	4576
2026-01-19 09:18:00.89	26.27	9.98	-39.1	-41.0	19.6	0.00e+00	0	39	0	872415232	49	4549
2026-01-19 09:18:01.88	26.10	9.97	-39.0	-40.9	19.6	0.00e+00	0	39	0	878706688	49	4538
2026-01-19 09:18:02.88	25.92	9.95	-39.1	-41.0	19.5	0.00e+00	0	39	0	883949568	49	4566
2026-01-19 09:18:03.88	25.75	9.94	-39.1	-41.1	19.5	0.00e+00	0	39	0	889192448	49	4614
2026-01-19 09:18:04.88	25.57	9.93	-39.3	-41.2	19.3	0.00e+00	0	39	0	895483904	49	4689
2026-01-19 09:18:05.88	25.39	9.91	-39.1	-41.1	19.5	0.00e+00	0	39	0	900726784	49	4600
2026-01-19 09:18:06.87	25.22	9.90	-39.3	-41.2	19.3	0.00e+00	0	39	0	905969664	49	4702
2026-01-19 09:18:07.87	25.04	9.89	-39.4	-41.4	19.2	0.00e+00	0	39	0	912261120	49	4773
2026-01-19 09:18:08.87	24.87	9.87	-39.4	-41.3	19.2	0.00e+00	0	40	0	917504000	49	4754
2026-01-19 09:18:09.87	24.69	9.86	-39.4	-41.4	19.2	0.00e+00	0	40	0	922746880	49	4781
2026-01-19 09:18:10.87	24.52	9.84	-39.4	-41.3	19.3	0.00e+00	0	39	0	929038336	49	4726
2026-01-19 09:18:11.87	24.34	9.83	-39.3	-41.3	19.2	0.00e+00	0	39	0	934281216	49	4726
2026-01-19 09:18:12.86	24.17	9.81	-39.3	-41.2	19.3	0.00e+00	0	39	0	939524096	49	4683
2026-01-19 09:18:13.86	23.99	9.79	-39.3	-41.3	19.3	0.00e+00	0	39	0	945815552	49	4719
2026-01-19 09:18:14.86	23.82	9.78	-39.7	-41.6	18.9	0.00e+00	0	39	0	951058432	49	4921
2026-01-19 09:18:15.86	23.64	9.76	-39.5	-41.5	19.1	0.00e+00	0	39	0	957349888	50	4552
2026-01-19 09:18:16.85	23.47	9.75	-39.5	-41.5	19.1	0.00e+00	0	39	0	962592768	50	4546
2026-01-19 09:18:17.85	23.30	9.73	-39.6	-41.6	19.0	0.00e+00	0	39	0	967835648	50	4601
2026-01-19 09:18:18.85	23.12	9.71	-39.6	-41.6	19.0	0.00e+00	0	39	0	974127104	50	4601
2026-01-19 09:18:19.85	22.95	9.70	-39.6	-41.6	19.0	0.00e+00	0	39	0	979369984	50	4626
2026-01-19 09:18:20.84	22.78	9.68	-39.2	-41.1	19.5	0.00e+00	0	39	0	984612864	50	4364
2026-01-19 09:18:21.84	22.60	9.66	-39.2	-41.1	19.4	0.00e+00	0	39	0	990904320	50	4390
2026-01-19 09:18:22.84	22.43	9.64	-39.3	-41.3	19.2	0.00e+00	0	39	0	996147200	50	4474
2026-01-19 09:18:23.83	22.26	9.62	-39.2	-41.2	19.3	0.00e+00	0	39	0	1001390080	50	4433
2026-01-19 09:18:24.83	22.09	9.61	-39.1	-41.1	19.4	0.00e+00	0	40	0	1007681536	50	4381
2026-01-19 09:18:25.83	21.92	9.59	-39.1	-41.1	19.5	0.00e+00	0	39	0	1012924416	50	4350
2026-01-19 09:18:26.83	21.74	9.57	-39.2	-41.3	19.3	0.00e+00	0	39	0	1019215872	50	4456
2026-01-19 09:18:27.83	21.57	9.55	-39.1	-41.1	19.4	0.00e+00	0	39	0	1024458752	50	4381
2026-01-19 09:18:28.82	21.40	9.53	-39.2	-41.3	19.2	0.00e+00	0	39	0	1029701632	50	4477
2026-01-19 09:18:29.82	21.23	9.51	-39.2	-41.3	19.2	0.00e+00	0	39	0	1034944512	50	4486
2026-01-19 09:18:30.81	21.06	9.49	-39.2	-41.3	19.2	0.00e+00	0	39	0	1041235968	50	4473
2026-01-19 09:18:31.81	20.89	9.47	-39.2	-41.3	19.3	0.00e+00	0	39	0	1046478848	50	4452
2026-01-19 09:18:32.80	20.72	9.45	-39.1	-41.2	19.3	0.00e+00	0	39	0	1052770304	50	4421
2026-01-19 09:18:33.80	20.55	9.43	-39.2	-41.4	19.2	0.00e+00	0	39	0	1058013184	50	4505
2026-01-19 09:18:34.80	20.38	9.41	-39.2	-41.3	19.2	0.00e+00	0	40	0	1063256064	50	4480
2026-01-19 09:18:35.80	20.21	9.39	-39.2	-41.3	19.2	0.00e+00	0	39	0	1069547520	50	4492
2026-01-19 09:18:36.80	20.04	9.37	-39.3	-41.3	19.2	0.00e+00	0	39	0	1074790400	50	4483
2026-01-19 09:18:37.80	19.87	9.35	-39.2	-41.3	19.3	0.00e+00	0	40	0	1080033280	50	4448
2026-01-19 09:18:38.80	19.70	9.33	-39.2	-41.2	19.3	0.00e+00	0	39	0	1086324736	50	4440
2026-01-19 09:18:39.79	19.53	9.30	-39.3	-41.3	19.3	0.00e+00	0	39	0	1091567616	50	4465
2026-01-19 09:18:40.79	19.36	9.28	-39.5	-41.5	19.1	0.00e+00	0	39	0	1096810496	50	4559
2026-01-19 09:18:41.79	19.20	9.26	-39.6	-41.6	18.9	0.00e+00	0	39	0	1103101952	50	4643
2026-01-19 09:18:42.79	19.03	9.24	-39.6	-41.6	19.0	0.00e+00	0	39	0	1108344832	50	4611
2026-01-19 09:18:43.78	18.86	9.21	-39.6	-41.6	18.9	0.00e+00	0	40	0	1114636288	50	4650
2026-01-19 09:18:44.78	18.69	9.19	-39.6	-41.6	19.0	0.00e+00	0	39	0	1119879168	50	4621
2026-01-19 09:18:45.78	18.53	9.17	-39.5	-41.5	19.1	0.00e+00	0	39	0	1125122048	50	4547
2026-01-19 09:18:46.78	18.36	9.15	-39.6	-41.6	19.0	0.00e+00	0	39	0	1131413504	50	4610
2026-01-19 09:18:47.78	18.19	9.12	-39.4	-41.3	19.3	0.00e+00	0	39	0	1136656384	50	4457
2026-01-19 09:18:48.77	18.03	9.10	-39.3	-41.2	19.3	0.00e+00	0	40	0	1141899264	50	4426
2026-01-19 09:18:49.77	17.86	9.07	-39.6	-41.5	19.0	0.00e+00	0	39	0	1147142144	50	4573
2026-01-19 09:18:50.77	17.70	9.05	-39.6	-41.5	19.0	0.00e+00	0	39	0	1153433600	50	4595
2026-01-19 09:18:51.77	17.53	9.03	-39.8	-41.8	18.8	0.00e+00	0	39	0	1158676480	50	4717
2026-01-19 09:18:52.77	17.36	9.00	-43.8	-46.6	14.5	0.00e+00	0	40	0	1164967936	58	5208
2026-01-19 09:18:53.77	17.20	8.98	-48.6	-61.9	3.8	8.48e-01	0	39	104	1166016512	69	16073
2026-01-19 09:18:54.77	17.03	8.95	-49.9	-62.3	3.8	8.46e-01	0	39	104	1166016512	70	15796
2026-01-19 09:18:55.76	16.87	8.93	-49.9	-62.4	3.8	8.47e-01	0	39	104	1166016512	70	16068
2026-01-19 09:18:56.76	16.71	8.90	-49.7	-62.5	3.8	8.47e-01	0	39	104	1166016512	70	16218
2026-01-19 09:18:57.76	16.54	8.88	-50.2	-62.5	3.8	8.48e-01	0	40	104	1166016512	71	15345
2026-01-19 09:18:58.76	16.38	8.85	-50.4	-62.6	3.8	8.48e-01	0	40	104	1166016512	71	15439
2026-01-19 09:18:59.76	16.22	8.82	-50.2	-62.6	3.8	8.46e-01	0	39	104	1166016512	71	15430
2026-01-19 09:19:00.76	16.05	8.80	-50.3	-62.7	3.8	8.46e-01	0	39	104	1166016512	71	15597
2026-01-19 09:19:01.76	15.89	8.77	-50.5	-62.6	3.8	8.47e-01	0	39	104	1166016512	71	15557
2026-01-19 09:19:02.75	15.73	8.75	-50.4	-62.7	3.8	8.48e-01	0	39	104	1166016512	71	15632
2026-01-19 09:19:03.75	15.57	8.72	-50.5	-62.7	3.8	8.47e-01	0	39	104	1166016512	71	15702
2026-01-19 09:19:04.75	15.40	8.69	-50.3	-62.7	3.8	8.46e-01	0	40	104	1166016512	71	15675
2026-01-19 09:19:05.75	15.24	8.67	-50.5	-62.8	3.8	8.47e-01	0	40	104	1166016512	71	15764
2026-01-19 09:19:06.75	15.08	8.64	-50.5	-62.7	3.8	8.46e-01	0	39	104	1166016512	71	15729
2026-01-19 09:19:07.74	14.92	8.61	-50.4	-62.7	3.8	8.47e-01	0	40	104	1166016512	71	15729
2026-01-19 09:19:08.74	14.76	8.58	-50.6	-62.8	3.8	8.47e-01	0	39	104	1166016512	71	15774
2026-01-19 09:19:09.74	14.60	8.56	-50.6	-62.7	3.8	8.47e-01	0	39	104	1166016512	72	14841
2026-01-19 09:19:10.74	14.44	8.53	-50.5	-62.7	3.8	8.47e-01	0	40	104	1166016512	72	14787
2026-01-19 09:19:11.74	14.28	8.50	-50.6	-62.7	3.8	8.47e-01	0	40	104	1166016512	72	14812
2026-01-19 09:19:12.74	14.12	8.47	-50.5	-62.7	3.8	8.47e-01	0	40	104	1166016512	72	14800
2026-01-19 09:19:13.73	13.96	8.44	-50.5	-62.7	3.8	8.47e-01	0	40	104	1166016512	72	14741
2026-01-19 09:19:14.73	13.81	8.41	-50.4	-62.7	3.8	8.47e-01	0	40	104	1166016512	72	14806
2026-01-19 09:19:15.73	13.65	8.39	-50.4	-62.7	3.8	8.48e-01	0	39	104	1166016512	72	14730
2026-01-19 09:19:16.73	13.49	8.36	-50.3	-62.6	3.8	8.46e-01	0	40	104	1166016512	72	14707
2026-01-19 09:19:17.72	13.33	8.33	-50.1	-62.6	3.8	8.47e-01	0	40	104	1166016512	72	14678
2026-01-19 09:19:18.72	13.18	8.30	-50.1	-62.6	3.8	8.47e-01	0	39	104	1166016512	72	14653
2026-01-19 09:19:19.71	13.02	8.27	-50.1	-62.6	3.8	8.48e-01	0	39	104	1166016512	72	14636
2026-01-19 09:19:20.71	12.86	8.24	-50.1	-62.6	3.8	8.47e-01	0	39	104	1166016512	72	14636
2026-01-19 09:19:21.71	12.71	8.21	-50.1	-62.6	3.8	8.47e-01	0	40	104	1166016512	72	14671
2026-01-19 09:19:22.70	12.55	8.18	-50.1	-62.6	3.8	8.46e-01	0	40	104	1166016512	72	14701
2026-01-19 09:19:23.70	12.40	8.15	-50.1	-62.6	3.8	8.46e-01	0	40	104	1166016512	72	14659
2026-01-19 09:19:24.69	12.24	8.12	-50.1	-62.6	3.8	8.47e-01	0	40	104	1166016512	72	14684
2026-01-19 09:19:25.69	12.09	8.09	-50.1	-62.6	3.8	8.47e-01	0	40	104	1166016512	72	14630
2026-01-19 09:19:26.69	11.93	8.06	-50.1	-62.6	3.8	8.46e-01	0	40	104	1166016512	72	14700
2026-01-19 09:19:27.68	11.78	8.03	-50.1	-62.6	3.8	8.47e-01	0	40	104	1166016512	72	14697
2026-01-19 09:19:28.68	11.62	8.00	-50.1	-62.6	3.8	8.46e-01	0	40	104	1166016512	72	14650
2026-01-19 09:19:29.68	11.47	7.97	-50.1	-62.6	3.8	8.47e-01	0	39	104	1166016512	72	14635
2026-01-19 09:19:30.68	11.32	7.93	-50.1	-62.6	3.8	8.48e-01	0	40	104	1166016512	72	14617
2026-01-19 09:19:31.67	11.17	7.90	-50.1	-62.6	3.8	8.46e-01	0	40	104	1166016512	72	14590
2026-01-19 09:19:32.67	11.01	7.87	-50.1	-62.6	3.8	8.47e-01	0	39	104	1166016512	72	14615
2026-01-19 09:19:33.67	10.86	7.84	-50.1	-62.6	3.8	8.48e-01	0	39	104	1166016512	72	14657
2026-01-19 09:19:34.67	10.71	7.81	-50.1	-62.6	3.8	8.47e-01	0	40	104	1166016512	72	14575
2026-01-19 09:19:35.67	10.56	7.78	-50.1	-62.6	3.8	8.47e-01	0	39	104	1166016512	72	14562
2026-01-19 09:19:36.67	10.40	7.74	-50.1	-62.6	3.8	8.47e-01	0	40	104	1166016512	72	14635
2026-01-19 09:19:37.67	10.25	7.71	-50.1	-62.6	3.8	8.48e-01	0	39	104	1166016512	72	14648
2026-01-19 09:19:38.67	10.10	7.68	-50.1	-62.6	3.8	8.47e-01	0	40	104	1166016512	72	14557
2026-01-19 09:19:39.67	9.95	7.65	-50.1	-62.6	3.8	8.48e-01	0	40	104	1166016512	72	14623
2026-01-19 09:19:40.67	9.80	7.61	-50.1	-62.6	3.8	8.47e-01	0	40	104	1166016512	72	14629
2026-01-19 09:19:41.67	9.65	7.58	-50.1	-62.5	3.8	8.47e-01	0	40	104	1166016512	72	14518
2026-01-19 09:19:42.67	9.50	7.55	-50.1	-62.6	3.8	8.46e-01	0	39	104	1166016512	72	14619
2026-01-19 09:19:43.67	9.35	7.51	-50.1	-62.6	3.8	8.46e-01	0	39	104	1166016512	72	14567
2026-01-19 09:19:44.67	9.20	7.48	-50.1	-62.5	3.8	8.47e-01	0	40	104	1166016512	72	14538
2026-01-19 09:19:45.67	9.06	7.45	-50.1	-62.6	3.8	8.46e-01	0	40	104	1166016512	72	14600
2026-01-19 09:19:46.67	8.91	7.41	-50.1	-62.6	3.8	8.48e-01	0	40	104	1166016512	72	14583
2026-01-19 09:19:47.67	8.76	7.38	-50.1	-62.5	3.8	8.45e-01	0	40	104	1166016512	72	14528
2026-01-19 09:19:48.67	8.61	7.35	-50.1	-62.6	3.8	8.45e-01	0	40	104	1166016512	72	14577
2026-01-19 09:19:49.67	8.47	7.31	-50.1	-62.6	3.8	8.47e-01	0	40	104	1166016512	72	14559
2026-01-19 09:19:50.66	8.32	7.28	-50.1	-62.6	3.8	8.47e-01	0	40	104	1166016512	72	14572
2026-01-19 09:19:51.66	8.17	7.24	-50.1	-62.6	3.8	8.46e-01	0	40	104	1166016512	72	14559
2026-01-19 09:19:52.66	8.03	7.21	-50.0	-62.6	3.8	8.46e-01	0	40	104	1166016512	72	14546
2026-01-19 09:19:53.66	7.88	7.18	-50.0	-62.6	3.8	8.48e-01	0	40	104	1166016512	72	14555
2026-01-19 09:19:54.66	7.74	7.14	-50.1	-62.5	3.8	8.47e-01	0	39	104	1166016512	72	14485
2026-01-19 09:19:55.66	7.59	7.11	-50.0	-62.5	3.8	8.45e-01	0	40	104	1166016512	72	14515
2026-01-19 09:19:56.65	7.45	7.07	-50.1	-62.6	3.8	8.47e-01	0	40	104	1166016512	72	14565
2026-01-19 09:19:57.65	7.31	7.04	-50.0	-62.6	3.8	8.46e-01	0	40	104	1166016512	72	14597
2026-01-19 09:19:58.65	7.16	7.00	-50.1	-62.6	3.8	8.48e-01	0	40	104	1166016512	71	15433
2026-01-19 09:19:59.64	7.02	6.97	-50.0	-62.6	3.8	8.46e-01	0	40	104	1166016512	71	15490
2026-01-19 09:20:00.65	6.88	6.93	-50.0	-62.6	3.8	8.47e-01	0	40	104	1166016512	71	15492
2026-01-19 09:20:01.64	6.73	6.89	-50.1	-62.6	3.8	8.47e-01	0	40	104	1166016512	71	15493
2026-01-19 09:20:02.64	6.59	6.86	-49.9	-62.6	3.8	8.48e-01	0	40	104	1166016512	71	15451
2026-01-19 09:20:03.64	6.45	6.82	-49.9	-62.6	3.8	8.47e-01	0	40	104	1166016512	71	15502
2026-01-19 09:20:04.63	6.31	6.79	-50.0	-62.6	3.8	8.47e-01	0	40	104	1166016512	71	15414
2026-01-19 09:20:05.63	6.17	6.75	-50.1	-62.6	3.8	8.47e-01	0	40	104	1166016512	71	15446
2026-01-19 09:20:06.63	6.03	6.72	-50.1	-62.6	3.8	8.47e-01	0	40	104	1166016512	71	15413
2026-01-19 09:20:07.63	5.89	6.68	-50.1	-62.6	3.8	8.48e-01	0	40	104	1166016512	71	15440
2026-01-19 09:20:08.63	5.75	6.64	-50.1	-62.5	3.8	8.47e-01	0	40	104	1166016512	71	15388
2026-01-19 09:20:09.63	5.61	6.61	-50.1	-62.6	3.8	8.47e-01	0	40	104	1166016512	71	15457
2026-01-19 09:20:10.63	5.47	6.57	-50.1	-62.6	3.8	8.46e-01	0	40	104	1166016512	71	15435
2026-01-19 09:20:11.63	5.33	6.53	-50.1	-62.6	3.8	8.46e-01	0	40	104	1166016512	71	15438
2026-01-19 09:20:12.63	5.19	6.50	-50.1	-62.6	3.8	8.47e-01	0	40	104	1166016512	71	15428
2026-01-19 09:20:13.62	5.05	6.46	-50.1	-62.6	3.8	8.46e-01	0	40	104	1166016512	71	15451
2026-01-19 09:20:14.62	4.91	6.42	-50.1	-62.5	3.8	8.47e-01	0	40	104	1166016512	71	15370
2026-01-19 09:20:15.62	4.78	6.39	-50.1	-62.5	3.8	8.47e-01	0	40	104	1166016512	71	15366
2026-01-19 09:20:16.62	4.64	6.35	-50.1	-62.5	3.8	8.45e-01	0	40	104	1166016512	71	15385
2026-01-19 09:20:17.62	4.50	6.31	-50.1	-62.6	3.8	8.48e-01	0	40	104	1166016512	71	15441
2026-01-19 09:20:18.62	4.37	6.27	-50.1	-62.6	3.8	8.46e-01	0	40	104	1166016512	71	15447
2026-01-19 09:20:19.62	4.23	6.24	-50.1	-62.5	3.8	8.47e-01	0	40	104	1166016512	71	15397
2026-01-19 09:20:20.62	4.09	6.20	-50.1	-62.6	3.8	8.46e-01	0	40	104	1166016512	71	15402
2026-01-19 09:20:21.62	3.96	6.16	-50.1	-62.6	3.8	8.47e-01	0	40	104	1166016512	71	15437
2026-01-19 09:20:22.61	3.82	6.12	-50.1	-62.5	3.8	8.47e-01	0	40	104	1166016512	71	15400
2026-01-19 09:20:23.61	3.69	6.09	-50.0	-62.6	3.8	8.47e-01	0	39	104	1166016512	71	15444
2026-01-19 09:20:24.61	3.55	6.05	-50.1	-62.5	3.8	8.47e-01	0	40	104	1166016512	71	15332
2026-01-19 09:20:25.61	3.42	6.01	-50.1	-62.5	3.8	8.46e-01	0	40	104	1166016512	71	15336
2026-01-19 09:20:26.60	3.29	5.97	-50.1	-62.6	3.8	8.47e-01	0	40	104	1166016512	71	15421
2026-01-19 09:20:27.60	3.15	5.93	-50.0	-62.5	3.8	8.47e-01	0	40	104	1166016512	71	15352
2026-01-19 09:20:28.60	3.02	5.90	-50.1	-62.6	3.8	8.48e-01	0	39	104	1166016512	71	15487
2026-01-19 09:20:29.60	2.89	5.86	-50.1	-62.6	3.8	8.49e-01	0	39	104	1166016512	71	15404
2026-01-19 09:20:30.59	2.76	5.82	-50.1	-62.5	3.8	8.48e-01	0	40	104	1166016512	71	15385
2026-01-19 09:20:31.59	2.63	5.78	-50.1	-62.6	3.8	8.46e-01	0	40	104	1166016512	71	15420
2026-01-19 09:20:32.59	2.49	5.74	-50.1	-62.6	3.8	8.47e-01	0	40	104	1166016512	71	15474
2026-01-19 09:20:33.59	2.36	5.70	-50.1	-62.6	3.8	8.46e-01	0	40	104	1166016512	71	15405
2026-01-19 09:20:34.59	2.23	5.67	-50.1	-62.6	3.8	8.47e-01	0	39	104	1166016512	71	15451
2026-01-19 09:20:35.59	2.10	5.63	-50.1	-62.6	3.8	8.45e-01	0	40	104	1166016512	71	15448
2026-01-19 09:20:36.59	1.97	5.59	-50.1	-62.6	3.8	8.47e-01	0	40	104	1166016512	71	15415
2026-01-19 09:20:37.59	1.84	5.55	-50.1	-62.5	3.8	8.47e-01	0	40	104	1166016512	71	15369
2026-01-19 09:20:38.59	1.71	5.51	-50.1	-62.5	3.8	8.49e-01	0	40	104	1166016512	71	15395
2026-01-19 09:20:39.59	1.58	5.47	-50.1	-62.6	3.8	8.47e-01	0	40	104	1166016512	71	15410
2026-01-19 09:20:40.59	1.45	5.43	-50.0	-62.6	3.8	8.47e-01	0	40	104	1166016512	71	15434
2026-01-19 09:20:41.58	1.33	5.39	-50.1	-62.6	3.8	8.46e-01	0	40	104	1166016512	71	15417
2026-01-19 09:20:42.58	1.20	5.35	-50.1	-62.6	3.8	8.47e-01	0	40	104	1166016512	71	15420
2026-01-19 09:20:43.58	1.07	5.31	-50.1	-62.5	3.8	8.47e-01	0	40	104	1166016512	71	15336
2026-01-19 09:20:44.58	0.94	5.27	-50.1	-62.6	3.8	8.47e-01	0	40	104	1166016512	71	15440
2026-01-19 09:20:45.58	0.82	5.23	-50.1	-62.5	3.8	8.46e-01	0	40	104	1166016512	71	15354
2026-01-19 09:20:46.58	0.69	5.19	-50.1	-62.6	3.8	8.48e-01	0	40	104	1166016512	71	15428
2026-01-19 09:20:47.57	0.56	5.15	-50.1	-62.6	3.8	8.48e-01	0	40	104	1166016512	71	15443
2026-01-19 09:20:48.57	0.44	5.11	-50.1	-62.6	3.8	8.48e-01	0	39	104	1166016512	71	15421
2026-01-19 09:20:49.57	0.31	5.07	-50.1	-62.6	3.8	8.47e-01	0	40	104	1166016512	71	15417
2026-01-19 09:20:50.57	0.19	5.03	-50.1	-62.5	3.8	8.47e-01	0	40	104	1166016512	71	15388
2026-01-19 09:20:51.57	0.06	4.99	-50.1	-62.5	3.8	8.47e-01	0	40	104	1166016512	71	15380

#Closed at: 2026-01-19 09:20:52
#Recorded file [1166 MB]: D:/Data/31040_260119_121336.dat