passes_logs/2026/01/19/T1/T1__20260119_074353_NOAA_21_JPSS-2_rec.log

#Pass ID: 20260119_074353_NOAA 21 (JPSS-2)
#Satellite: NOAA 21 (JPSS-2)
#Configuration: NOAA 21
#almurnet v.1.7.20251203
#Start time: 2026-01-19 07:43:54

#Version: 2.0.20230620
#Station: T1
#Location: 37.570604 lon 55.790049 lat
#TLE: 1 54234U 22150A   26018.88939962  .00000052  00000+0  45304-4 0  9995
#TLE: 2 54234  98.7504 319.7421 0000606 261.7569  98.3539 14.19535520165361

#Time	Az	El	Level	Level2	SNR	BER	BlckErr	Temp	State	Recorded	gain1	gain2
2026-01-19 07:43:54.09	89.35	5.04	-49.6	-62.8	3.8	1.49e+00	0	41	0	0	71	15848
2026-01-19 07:43:55.08	89.24	5.09	-49.6	-62.8	3.8	1.49e+00	0	41	104	0	71	15817
2026-01-19 07:43:56.53	89.09	5.16	-49.6	-62.8	3.8	1.49e+00	0	41	104	0	71	15832
2026-01-19 07:43:57.27	89.01	5.20	-49.6	-62.8	3.8	1.49e+00	0	41	104	0	71	15834
2026-01-19 07:43:58.55	88.87	5.27	-49.6	-62.8	3.8	1.49e+00	0	41	104	0	71	15907
2026-01-19 07:43:59.26	88.79	5.30	-49.6	-62.8	3.8	1.49e+00	0	41	104	0	71	15875
2026-01-19 07:44:00.57	88.65	5.37	-49.6	-62.8	3.8	1.49e+00	0	41	104	0	71	15904
2026-01-19 07:44:01.28	88.58	5.41	-49.6	-62.8	3.8	1.49e+00	0	41	104	0	71	15806
2026-01-19 07:44:02.56	88.44	5.47	-49.6	-62.8	3.8	1.49e+00	0	41	104	0	71	15777
2026-01-19 07:44:03.28	88.36	5.51	-49.6	-62.8	3.8	1.49e+00	0	41	104	0	71	15822
2026-01-19 07:44:04.56	88.22	5.58	-49.6	-62.8	3.8	1.49e+00	0	41	104	0	71	15903
2026-01-19 07:44:05.27	88.14	5.61	-49.6	-62.8	3.8	1.49e+00	0	41	104	0	71	15832
2026-01-19 07:44:06.58	87.99	5.68	-49.6	-62.8	3.8	1.49e+00	0	42	104	0	71	15882
2026-01-19 07:44:07.29	87.92	5.72	-49.6	-62.8	3.8	1.49e+00	0	41	104	0	71	15886
2026-01-19 07:44:08.64	87.77	5.79	-49.6	-62.7	3.8	1.49e+00	0	41	104	0	71	15750
2026-01-19 07:44:09.35	87.69	5.82	-49.6	-62.7	3.8	1.49e+00	0	42	104	0	71	15730
2026-01-19 07:44:10.68	87.54	5.89	-49.6	-62.7	3.8	1.49e+00	0	41	104	0	71	15694
2026-01-19 07:44:11.39	87.46	5.93	-49.6	-62.7	3.8	1.49e+00	0	41	104	0	71	15707
2026-01-19 07:44:12.73	87.31	6.00	-49.6	-62.7	3.8	1.49e+00	0	41	104	0	71	15718
2026-01-19 07:44:13.44	87.23	6.03	-49.6	-62.7	3.8	1.49e+00	0	42	104	0	71	15758
2026-01-19 07:44:14.78	87.07	6.10	-49.6	-62.7	3.8	1.49e+00	0	42	104	0	71	15722
2026-01-19 07:44:15.49	86.99	6.14	-49.6	-62.7	3.8	1.49e+00	0	41	104	0	71	15716
2026-01-19 07:44:16.83	86.84	6.21	-49.6	-62.7	3.8	1.49e+00	0	42	104	0	71	15699
2026-01-19 07:44:17.54	86.76	6.24	-49.6	-62.7	3.8	1.49e+00	0	42	104	0	71	15643
2026-01-19 07:44:18.83	86.61	6.31	-49.6	-62.7	3.8	1.49e+00	0	42	104	0	71	15756
2026-01-19 07:44:19.54	86.53	6.35	-49.6	-62.6	3.8	1.49e+00	0	42	104	0	71	15567
2026-01-19 07:44:20.82	86.38	6.41	-49.6	-62.6	3.8	1.49e+00	0	42	104	0	71	15560
2026-01-19 07:44:21.54	86.29	6.45	-49.6	-62.6	3.8	1.49e+00	0	42	104	0	71	15555
2026-01-19 07:44:22.82	86.14	6.52	-49.6	-62.7	3.8	1.49e+00	0	42	104	0	71	15585
2026-01-19 07:44:23.53	86.06	6.55	-49.6	-62.6	3.8	1.49e+00	0	42	104	0	71	15498
2026-01-19 07:44:24.81	85.91	6.62	-49.6	-62.6	3.8	1.49e+00	0	42	104	0	71	15577
2026-01-19 07:44:25.52	85.83	6.65	-49.6	-62.7	3.8	1.49e+00	0	42	104	0	71	15602
2026-01-19 07:44:26.79	85.67	6.72	-49.6	-62.6	3.8	1.49e+00	0	42	104	0	71	15531
2026-01-19 07:44:27.52	85.59	6.76	-49.6	-62.7	3.8	1.49e+00	0	42	104	0	71	15608
2026-01-19 07:44:28.80	85.43	6.82	-49.6	-62.6	3.8	1.49e+00	0	42	104	0	71	15511
2026-01-19 07:44:29.52	85.35	6.86	-49.6	-62.6	3.8	1.49e+00	0	42	104	0	71	15516
2026-01-19 07:44:30.80	85.19	6.92	-49.6	-62.5	3.8	1.49e+00	0	42	104	0	71	15295
2026-01-19 07:44:31.51	85.11	6.96	-49.5	-62.4	3.8	1.49e+00	0	42	104	0	71	15126
2026-01-19 07:44:32.79	84.95	7.03	-49.5	-62.3	3.8	1.49e+00	0	42	104	0	71	14979
2026-01-19 07:44:33.51	84.87	7.06	-49.5	-62.2	3.8	1.49e+00	0	42	104	0	71	14852
2026-01-19 07:44:34.79	84.71	7.13	-49.5	-62.2	3.8	1.49e+00	0	42	104	0	71	14788
2026-01-19 07:44:35.51	84.62	7.17	-49.5	-62.3	3.8	1.49e+00	0	43	104	0	71	14922
2026-01-19 07:44:36.86	84.45	7.24	-49.5	-62.4	3.8	1.49e+00	0	42	104	0	71	15108
2026-01-19 07:44:37.57	84.37	7.27	-49.5	-62.5	3.8	1.49e+00	0	42	104	0	71	15255
2026-01-19 07:44:38.84	84.21	7.34	-49.6	-62.5	3.8	1.49e+00	0	42	104	0	71	15372
2026-01-19 07:44:39.57	84.12	7.37	-49.6	-62.6	3.8	1.49e+00	0	42	104	0	71	15419
2026-01-19 07:44:40.85	83.96	7.44	-49.5	-62.5	3.8	1.49e+00	0	42	104	0	71	15256
2026-01-19 07:44:41.55	83.87	7.47	-49.5	-62.4	3.8	1.49e+00	0	42	104	0	71	15105
2026-01-19 07:44:42.83	83.71	7.54	-49.5	-62.0	3.8	1.49e+00	0	43	104	0	71	14492
2026-01-19 07:44:43.54	83.62	7.58	-49.5	-61.8	3.8	1.49e+00	0	42	104	0	71	14195
2026-01-19 07:44:44.82	83.46	7.64	-49.5	-61.6	3.8	1.49e+00	0	43	104	0	70	14677
2026-01-19 07:44:45.53	83.37	7.68	-49.4	-61.5	3.8	1.49e+00	0	43	104	0	70	14466
2026-01-19 07:44:46.81	83.21	7.74	-49.5	-61.7	3.8	1.49e+00	0	42	104	0	70	14739
2026-01-19 07:44:47.52	83.11	7.78	-49.5	-61.8	3.8	1.49e+00	0	43	104	0	70	14938
2026-01-19 07:44:48.80	82.95	7.84	-49.5	-62.1	3.8	1.49e+00	0	43	104	0	70	15538
2026-01-19 07:44:49.51	82.86	7.88	-49.5	-62.3	3.8	1.49e+00	0	43	104	0	70	15868
2026-01-19 07:44:50.78	82.69	7.94	-49.6	-62.4	3.8	1.49e+00	0	43	104	0	70	16011
2026-01-19 07:44:51.51	82.60	7.98	-49.5	-62.3	3.8	1.49e+00	0	43	104	0	70	15791
2026-01-19 07:44:52.78	82.43	8.05	-49.5	-61.7	3.8	1.49e+00	0	43	104	0	70	14784
2026-01-19 07:44:53.49	82.34	8.08	-49.4	-61.3	3.8	1.49e+00	0	43	104	0	70	14182
2026-01-19 07:44:54.77	82.17	8.15	-49.3	-60.2	3.9	1.49e+00	0	43	104	0	70	12508
2026-01-19 07:44:55.48	82.08	8.18	-49.3	-60.0	3.9	1.48e+00	0	43	104	0	70	12190
2026-01-19 07:44:56.76	81.91	8.25	-49.4	-60.7	3.8	1.48e+00	0	43	104	0	70	13224
2026-01-19 07:44:57.48	81.82	8.28	-49.4	-61.6	3.8	1.49e+00	0	43	104	0	70	14627
2026-01-19 07:44:58.76	81.65	8.35	-49.5	-61.7	3.8	1.49e+00	0	43	104	0	70	14845
2026-01-19 07:44:59.47	81.55	8.38	-49.2	-58.8	4.3	1.49e+00	0	43	104	0	70	10636
2026-01-19 07:45:00.75	81.38	8.45	-47.6	-53.1	8.2	1.35e-01	0	43	0	0	67	6497
2026-01-19 07:45:01.46	81.28	8.48	-46.6	-50.7	10.6	8.86e-03	0	43	0	0	65	5558
2026-01-19 07:45:02.73	81.11	8.55	-44.9	-47.9	13.6	5.03e-05	0	43	0	0	61	5060
2026-01-19 07:45:03.46	81.01	8.58	-44.0	-46.6	14.9	7.00e-07	0	43	0	0	60	4635
2026-01-19 07:45:04.73	80.84	8.65	-43.3	-45.7	15.7	0.00e+00	0	43	0	0	58	4679
2026-01-19 07:45:05.46	80.74	8.68	-43.0	-45.3	16.1	0.00e+00	0	43	0	0	58	4459
2026-01-19 07:45:06.74	80.57	8.75	-43.4	-45.9	15.6	0.00e+00	0	43	0	0	58	4782
2026-01-19 07:45:07.45	80.47	8.78	-43.8	-46.3	15.1	0.00e+00	0	43	0	0	58	5029
2026-01-19 07:45:08.73	80.29	8.85	-45.0	-48.0	13.5	7.00e-07	0	43	0	0	60	5425
2026-01-19 07:45:09.44	80.20	8.88	-45.8	-49.3	12.2	8.23e-05	0	43	0	0	62	5610
2026-01-19 07:45:10.71	80.02	8.95	-47.4	-52.5	8.7	1.65e-02	0	43	0	0	65	6867
2026-01-19 07:45:11.42	79.92	8.98	-48.2	-54.7	6.7	1.47e-01	0	43	0	0	66	8349
2026-01-19 07:45:12.78	79.73	9.05	-49.7	-61.4	3.8	9.38e-01	0	43	104	0	70	14239
2026-01-19 07:45:13.49	79.63	9.09	-49.7	-61.5	3.8	1.49e+00	0	43	104	0	70	14393
2026-01-19 07:45:14.77	79.45	9.15	-49.4	-60.9	3.8	7.25e-01	0	43	104	0	69	14247
2026-01-19 07:45:15.50	79.35	9.18	-48.3	-55.4	4.4	1.49e+00	0	43	104	0	68	8037
2026-01-19 07:45:16.77	79.17	9.25	-49.5	-60.6	3.8	2.43e-01	0	43	104	0	69	13767
2026-01-19 07:45:17.50	79.06	9.28	-48.9	-57.5	4.1	1.49e+00	0	43	104	0	69	9673
2026-01-19 07:45:18.78	78.88	9.35	-46.1	-49.7	11.8	3.29e-04	0	43	0	0	63	5590
2026-01-19 07:45:19.49	78.78	9.38	-45.8	-49.2	12.3	2.82e-04	0	43	0	0	63	5263
2026-01-19 07:45:20.77	78.60	9.44	-44.6	-47.5	14.1	6.10e-06	0	43	0	0	61	4815
2026-01-19 07:45:21.48	78.50	9.48	-44.7	-47.5	14.1	0.00e+00	0	43	0	0	61	4849
2026-01-19 07:45:22.76	78.31	9.54	-44.2	-46.8	14.7	0.00e+00	0	43	0	0	60	4754
2026-01-19 07:45:23.56	78.19	9.58	-44.3	-46.9	14.7	0.00e+00	0	43	0	0	60	4798
2026-01-19 07:45:24.70	78.03	9.64	-43.7	-46.2	15.4	0.00e+00	0	43	0	0	59	4668
2026-01-19 07:45:25.71	77.88	9.69	-43.5	-45.9	15.6	0.00e+00	0	43	0	0	58	4789
2026-01-19 07:45:26.89	77.71	9.74	-43.3	-45.6	15.9	7.00e-07	0	43	0	0	58	4641
2026-01-19 07:45:27.76	77.58	9.79	-42.8	-45.0	16.5	0.00e+00	0	43	0	0	57	4572
2026-01-19 07:45:29.07	77.39	9.85	-43.0	-45.3	16.2	0.00e+00	0	43	0	0	57	4731
2026-01-19 07:45:29.78	77.28	9.88	-42.8	-45.0	16.5	0.00e+00	0	43	0	0	57	4588
2026-01-19 07:45:31.06	77.09	9.94	-42.2	-44.3	17.2	0.00e+00	0	43	0	0	56	4454
2026-01-19 07:45:31.77	76.99	9.98	-42.1	-44.2	17.3	0.00e+00	0	43	0	0	56	4411
2026-01-19 07:45:33.05	76.79	10.04	-42.0	-44.1	17.3	0.00e+00	0	43	0	0	56	4361
2026-01-19 07:45:33.79	76.68	10.08	-41.8	-43.9	17.4	0.00e+00	0	43	0	0	55	4510
2026-01-19 07:45:35.07	76.49	10.14	-41.9	-43.9	17.4	0.00e+00	0	43	0	0	55	4515
2026-01-19 07:45:35.79	76.38	10.17	-42.0	-44.0	17.3	0.00e+00	0	43	0	0	55	4576
2026-01-19 07:45:37.07	76.19	10.23	-41.8	-43.9	17.4	0.00e+00	0	43	0	0	55	4500
2026-01-19 07:45:37.94	76.06	10.27	-41.9	-43.9	17.4	0.00e+00	0	43	0	0	55	4544
2026-01-19 07:45:39.08	75.88	10.33	-42.1	-44.1	17.2	0.00e+00	0	43	0	0	55	4633
2026-01-19 07:45:40.08	75.73	10.38	-41.9	-43.9	17.4	0.00e+00	0	43	0	0	55	4523
2026-01-19 07:45:41.27	75.55	10.43	-41.9	-43.9	17.4	0.00e+00	0	43	0	0	55	4523
2026-01-19 07:45:42.12	75.41	10.47	-41.8	-43.8	17.5	0.00e+00	0	43	0	0	55	4472
2026-01-19 07:45:43.43	75.21	10.53	-41.6	-43.6	17.8	0.00e+00	0	43	0	0	55	4342
2026-01-19 07:45:44.14	75.10	10.57	-41.6	-43.5	17.8	0.00e+00	0	43	0	0	55	4328
2026-01-19 07:45:45.63	74.87	10.64	-41.6	-43.6	17.7	0.00e+00	0	43	0	0	55	4369
2026-01-19 07:45:46.34	74.76	10.67	-41.5	-43.4	17.9	0.00e+00	0	43	0	0	54	4539
2026-01-19 07:45:47.62	74.56	10.73	-41.5	-43.4	17.8	0.00e+00	0	43	0	0	54	4540
2026-01-19 07:45:48.68	74.39	10.78	-41.4	-43.4	17.9	0.00e+00	0	43	0	0	54	4498
2026-01-19 07:45:49.83	74.21	10.83	-41.4	-43.3	17.9	0.00e+00	0	43	0	0	54	4467
2026-01-19 07:45:50.68	74.07	10.87	-41.4	-43.3	17.9	0.00e+00	0	43	0	0	54	4483
2026-01-19 07:45:51.82	73.89	10.92	-41.5	-43.4	17.9	0.00e+00	0	43	0	0	54	4540
2026-01-19 07:45:52.67	73.76	10.96	-41.5	-43.5	17.8	0.00e+00	0	43	0	0	54	4583
2026-01-19 07:45:53.81	73.57	11.01	-41.5	-43.5	17.8	0.00e+00	0	43	0	0	54	4575
2026-01-19 07:45:54.66	73.44	11.05	-41.7	-43.6	17.7	0.00e+00	0	43	0	0	54	4639
2026-01-19 07:45:55.80	73.25	11.11	-41.6	-43.5	17.8	0.00e+00	0	43	0	0	54	4595
2026-01-19 07:45:56.65	73.12	11.14	-41.4	-43.4	17.9	0.00e+00	0	43	0	0	54	4511
2026-01-19 07:45:57.79	72.93	11.20	-41.3	-43.3	18.1	0.00e+00	0	43	0	0	54	4443
2026-01-19 07:45:58.64	72.79	11.23	-41.4	-43.4	17.6	0.00e+00	0	43	0	0	54	4509
2026-01-19 07:45:59.78	72.61	11.28	-41.3	-43.2	18.1	0.00e+00	0	43	0	0	54	4418
2026-01-19 07:46:00.63	72.47	11.32	-41.3	-43.2	18.1	0.00e+00	0	43	0	0	54	4412
2026-01-19 07:46:01.92	72.26	11.38	-41.1	-43.0	18.3	0.00e+00	0	43	0	0	54	4306
2026-01-19 07:46:02.63	72.14	11.41	-41.2	-43.1	18.2	0.00e+00	0	43	0	0	54	4351
2026-01-19 07:46:03.91	71.93	11.47	-41.2	-43.1	18.2	0.00e+00	0	43	0	0	54	4385
2026-01-19 07:46:04.62	71.81	11.50	-41.3	-43.2	18.1	0.00e+00	0	43	0	0	54	4429
2026-01-19 07:46:05.90	71.60	11.56	-41.1	-43.0	18.3	0.00e+00	0	43	0	0	54	4332
2026-01-19 07:46:06.66	71.47	11.59	-41.2	-43.1	18.3	0.00e+00	0	43	0	0	54	4354
2026-01-19 07:46:08.24	71.21	11.66	-41.0	-42.9	18.4	0.00e+00	0	43	0	0	54	4265
2026-01-19 07:46:09.12	71.06	11.70	-41.0	-42.9	18.4	0.00e+00	0	43	0	0	53	4508
2026-01-19 07:46:10.64	70.80	11.76	-41.0	-42.9	18.4	0.00e+00	0	43	0	0	53	4524
2026-01-19 07:46:11.35	70.68	11.79	-41.0	-42.8	18.4	0.00e+00	0	43	0	0	53	4492
2026-01-19 07:46:12.63	70.47	11.85	-41.1	-43.0	18.2	0.00e+00	0	43	0	0	53	4573
2026-01-19 07:46:13.35	70.35	11.88	-41.1	-43.0	18.2	0.00e+00	0	43	0	0	53	4559
2026-01-19 07:46:14.63	70.13	11.93	-41.3	-43.2	18.1	0.00e+00	0	43	0	0	53	4662
2026-01-19 07:46:15.34	70.01	11.96	-41.4	-43.3	18.0	0.00e+00	0	43	0	0	53	4745
2026-01-19 07:46:16.62	69.79	12.02	-41.3	-43.2	18.1	0.00e+00	0	43	0	0	53	4701
2026-01-19 07:46:17.35	69.66	12.05	-41.4	-43.4	18.0	0.00e+00	0	43	0	0	53	4772
2026-01-19 07:46:18.63	69.44	12.10	-41.5	-43.4	17.9	0.00e+00	0	43	0	0	53	4804
2026-01-19 07:46:19.51	69.29	12.14	-41.5	-43.5	17.9	0.00e+00	0	43	0	0	53	4840
2026-01-19 07:46:20.65	69.09	12.19	-41.6	-43.6	17.8	0.00e+00	0	43	0	0	53	4905
2026-01-19 07:46:21.79	68.89	12.23	-41.4	-43.3	18.1	0.00e+00	0	43	0	0	53	4752
2026-01-19 07:46:22.83	68.71	12.28	-41.4	-43.3	18.1	0.00e+00	0	43	0	0	53	4757
2026-01-19 07:46:23.82	68.54	12.32	-41.4	-43.3	18.1	0.00e+00	0	43	0	0	53	4748
2026-01-19 07:46:24.82	68.36	12.36	-41.4	-43.4	18.0	0.00e+00	0	43	0	0	53	4787
2026-01-19 07:46:25.82	68.19	12.40	-41.4	-43.4	18.0	0.00e+00	0	43	0	0	53	4762
2026-01-19 07:46:26.81	68.01	12.44	-41.3	-43.3	18.1	0.00e+00	0	43	0	0	53	4729
2026-01-19 07:46:27.80	67.84	12.48	-41.3	-43.2	18.2	0.00e+00	0	43	0	0	53	4674
2026-01-19 07:46:28.80	67.66	12.52	-41.2	-43.1	18.2	0.00e+00	0	43	0	0	53	4621
2026-01-19 07:46:29.79	67.48	12.56	-41.2	-43.1	18.2	0.00e+00	0	43	0	0	53	4628
2026-01-19 07:46:30.79	67.30	12.60	-41.2	-43.2	18.2	0.00e+00	0	43	0	0	53	4660
2026-01-19 07:46:31.78	67.13	12.64	-41.3	-43.2	18.1	0.00e+00	0	43	0	0	53	4679
2026-01-19 07:46:32.78	66.95	12.67	-41.0	-42.9	18.4	0.00e+00	0	43	0	0	53	4534
2026-01-19 07:46:33.77	66.77	12.71	-41.0	-42.9	18.5	0.00e+00	0	43	0	0	53	4511
2026-01-19 07:46:34.77	66.59	12.75	-40.9	-42.8	18.5	0.00e+00	0	43	0	0	53	4451
2026-01-19 07:46:35.76	66.41	12.79	-41.0	-42.9	18.4	0.00e+00	0	43	0	0	53	4509
2026-01-19 07:46:36.76	66.23	12.83	-40.9	-42.8	18.6	0.00e+00	0	43	0	0	53	4465
2026-01-19 07:46:37.75	66.05	12.87	-41.1	-43.0	18.4	0.00e+00	0	43	0	0	53	4546
2026-01-19 07:46:38.91	65.84	12.91	-41.2	-43.1	18.2	0.00e+00	0	43	0	0	53	4639
2026-01-19 07:46:39.79	65.68	12.94	-41.1	-43.0	18.3	0.00e+00	0	43	0	0	53	4576
2026-01-19 07:46:41.09	65.44	12.99	-41.2	-43.0	18.3	0.00e+00	0	43	0	0	53	4598
2026-01-19 07:46:41.80	65.31	13.02	-41.3	-43.2	18.2	0.00e+00	0	43	0	0	53	4674
2026-01-19 07:46:43.08	65.07	13.06	-41.2	-43.1	18.3	0.00e+00	0	43	0	0	53	4617
2026-01-19 07:46:43.79	64.94	13.09	-41.2	-43.1	18.2	0.00e+00	0	43	0	0	53	4641
2026-01-19 07:46:45.07	64.70	13.14	-41.3	-43.2	18.2	0.00e+00	0	43	0	0	53	4667
2026-01-19 07:46:45.78	64.57	13.16	-41.2	-43.2	18.2	0.00e+00	0	43	0	0	53	4657
2026-01-19 07:46:47.06	64.33	13.21	-41.1	-43.0	18.3	0.00e+00	0	43	0	0	53	4582
2026-01-19 07:46:47.77	64.20	13.23	-41.2	-43.1	18.2	0.00e+00	0	43	0	0	53	4650
2026-01-19 07:46:49.05	63.96	13.28	-41.2	-43.1	18.3	0.00e+00	0	44	0	0	53	4630
2026-01-19 07:46:49.94	63.80	13.31	-41.3	-43.2	18.2	0.00e+00	0	44	0	0	53	4680
2026-01-19 07:46:51.08	63.58	13.35	-41.1	-43.0	18.4	0.00e+00	0	43	0	0	53	4547
2026-01-19 07:46:51.93	63.42	13.38	-41.2	-43.0	18.3	0.00e+00	0	43	0	0	53	4598
2026-01-19 07:46:53.07	63.21	13.42	-41.1	-43.0	18.4	0.00e+00	0	43	0	0	53	4580
2026-01-19 07:46:53.92	63.05	13.45	-41.1	-42.9	18.5	0.00e+00	0	43	0	0	53	4541
2026-01-19 07:46:55.06	62.83	13.49	-40.8	-42.7	18.7	0.00e+00	0	44	0	0	53	4394
2026-01-19 07:46:55.91	62.67	13.51	-40.7	-42.6	18.8	0.00e+00	0	43	0	0	53	4356
2026-01-19 07:46:57.05	62.45	13.55	-40.8	-42.6	18.7	0.00e+00	0	43	0	0	53	4381
2026-01-19 07:46:57.90	62.29	13.58	-40.8	-42.6	18.7	0.00e+00	0	43	0	0	53	4374
2026-01-19 07:46:59.10	62.06	13.62	-40.8	-42.7	18.7	0.00e+00	0	43	0	0	53	4397
2026-01-19 07:46:59.96	61.89	13.65	-40.9	-42.8	18.6	0.00e+00	0	43	0	0	53	4451
2026-01-19 07:47:01.09	61.68	13.68	-41.0	-42.9	18.5	0.00e+00	0	43	0	0	53	4496
2026-01-19 07:47:01.95	61.51	13.71	-40.9	-42.7	18.6	0.00e+00	0	43	0	0	53	4430
2026-01-19 07:47:03.08	61.29	13.75	-40.9	-42.8	18.6	0.00e+00	0	43	0	0	53	4467
2026-01-19 07:47:03.94	61.13	13.77	-40.9	-42.8	18.6	0.00e+00	0	43	0	0	53	4478
2026-01-19 07:47:05.07	60.91	13.81	-40.8	-42.7	18.7	0.00e+00	0	43	0	0	53	4406
2026-01-19 07:47:05.93	60.74	13.84	-40.8	-42.6	18.7	0.00e+00	0	43	0	0	53	4385
2026-01-19 07:47:07.06	60.52	13.87	-40.7	-42.6	18.8	0.00e+00	0	43	0	0	53	4342
2026-01-19 07:47:08.04	60.33	13.90	-40.8	-42.6	18.7	0.00e+00	0	43	0	0	53	4384
2026-01-19 07:47:09.04	60.13	13.93	-40.8	-42.7	18.6	0.00e+00	0	43	0	0	53	4400
2026-01-19 07:47:10.03	59.94	13.96	-40.9	-42.7	18.6	0.00e+00	0	43	0	0	53	4430
2026-01-19 07:47:11.03	59.74	13.99	-40.9	-42.8	18.6	0.00e+00	0	43	0	0	53	4445
2026-01-19 07:47:12.02	59.55	14.02	-40.9	-42.7	18.6	0.00e+00	0	44	0	0	53	4422
2026-01-19 07:47:13.02	59.35	14.04	-40.9	-42.8	18.6	0.00e+00	0	43	0	0	53	4462
2026-01-19 07:47:14.02	59.16	14.07	-40.9	-42.7	18.7	0.00e+00	0	43	0	0	53	4419
2026-01-19 07:47:15.01	58.96	14.10	-40.9	-42.7	18.7	0.00e+00	0	43	0	0	53	4423
2026-01-19 07:47:16.01	58.76	14.13	-40.9	-42.8	18.6	0.00e+00	0	43	0	0	53	4455
2026-01-19 07:47:17.00	58.57	14.16	-41.0	-42.9	18.5	0.00e+00	0	44	0	0	53	4513
2026-01-19 07:47:18.00	58.37	14.18	-41.0	-42.9	18.5	0.00e+00	0	43	0	0	53	4521
2026-01-19 07:47:18.99	58.17	14.21	-41.0	-42.9	18.4	0.00e+00	0	44	0	0	53	4535
2026-01-19 07:47:19.99	57.97	14.24	-41.1	-43.0	18.4	0.00e+00	0	44	0	0	53	4579
2026-01-19 07:47:20.99	57.77	14.26	-41.1	-43.0	18.4	0.00e+00	0	44	0	0	53	4569
2026-01-19 07:47:21.98	57.57	14.29	-41.1	-43.0	18.4	0.00e+00	0	43	0	0	53	4558
2026-01-19 07:47:22.97	57.37	14.31	-41.1	-43.0	18.4	0.00e+00	0	43	0	0	53	4585
2026-01-19 07:47:23.97	57.17	14.34	-41.0	-42.8	18.6	0.00e+00	0	44	0	0	53	4468
2026-01-19 07:47:24.97	56.97	14.36	-40.8	-42.6	18.7	0.00e+00	0	44	0	0	53	4391
2026-01-19 07:47:25.96	56.77	14.39	-40.8	-42.6	18.7	0.00e+00	0	43	0	0	53	4375
2026-01-19 07:47:26.96	56.57	14.41	-40.7	-42.5	18.8	0.00e+00	0	44	0	0	53	4315
2026-01-19 07:47:27.95	56.37	14.44	-40.7	-42.5	18.8	0.00e+00	0	43	0	0	53	4333
2026-01-19 07:47:28.94	56.17	14.46	-40.7	-42.6	18.8	0.00e+00	0	43	0	0	53	4345
2026-01-19 07:47:29.94	55.97	14.48	-40.8	-42.6	18.7	0.00e+00	0	44	0	0	53	4387
2026-01-19 07:47:30.93	55.76	14.51	-40.8	-42.6	18.8	0.00e+00	0	43	0	0	53	4359
2026-01-19 07:47:31.93	55.56	14.53	-40.8	-42.7	18.7	0.00e+00	0	43	0	0	53	4401
2026-01-19 07:47:32.92	55.36	14.55	-40.7	-42.6	18.8	0.00e+00	0	43	0	0	53	4347
2026-01-19 07:47:33.98	55.14	14.57	-40.8	-42.6	18.7	0.00e+00	0	44	0	0	53	4375
2026-01-19 07:47:34.83	54.97	14.59	-40.7	-42.6	18.8	0.00e+00	0	43	0	0	53	4354
2026-01-19 07:47:35.97	54.74	14.62	-40.7	-42.6	18.8	0.00e+00	0	43	0	0	53	4341
2026-01-19 07:47:36.82	54.56	14.63	-40.6	-42.4	18.9	0.00e+00	0	44	0	0	53	4289
2026-01-19 07:47:37.96	54.33	14.66	-40.6	-42.4	18.9	0.00e+00	0	43	0	0	53	4278
2026-01-19 07:47:38.81	54.15	14.67	-40.7	-42.5	18.8	0.00e+00	0	43	0	0	53	4331
2026-01-19 07:47:39.95	53.92	14.70	-40.7	-42.5	18.9	0.00e+00	0	43	0	0	53	4312
2026-01-19 07:47:40.80	53.74	14.71	-40.6	-42.4	19.0	0.00e+00	0	43	0	0	53	4255
2026-01-19 07:47:41.94	53.51	14.74	-40.6	-42.5	18.9	0.00e+00	0	43	0	0	53	4292
2026-01-19 07:47:42.79	53.33	14.75	-40.5	-42.4	19.0	0.00e+00	0	43	0	0	53	4248
2026-01-19 07:47:43.93	53.10	14.77	-40.6	-42.4	18.9	0.00e+00	0	43	0	0	53	4272
2026-01-19 07:47:44.79	52.92	14.79	-40.6	-42.4	18.9	0.00e+00	0	43	0	0	53	4255
2026-01-19 07:47:45.92	52.68	14.81	-40.5	-42.3	19.0	0.00e+00	0	43	0	0	53	4224
2026-01-19 07:47:46.78	52.51	14.82	-40.5	-42.3	19.0	0.00e+00	0	43	0	0	53	4231
2026-01-19 07:47:48.02	52.25	14.84	-40.5	-42.2	19.1	0.00e+00	0	44	0	0	52	4435
2026-01-19 07:47:48.85	52.07	14.86	-40.5	-42.3	19.0	0.00e+00	0	43	0	0	52	4448
2026-01-19 07:47:49.98	51.84	14.88	-40.5	-42.3	19.0	0.00e+00	0	44	0	0	52	4478
2026-01-19 07:47:50.84	51.66	14.89	-40.5	-42.3	18.9	0.00e+00	0	44	0	0	52	4482
2026-01-19 07:47:52.07	51.40	14.91	-40.5	-42.3	18.9	0.00e+00	0	44	0	0	52	4488
2026-01-19 07:47:52.92	51.23	14.92	-40.5	-42.3	18.9	0.00e+00	0	43	0	0	52	4491
2026-01-19 07:47:54.06	50.99	14.94	-40.6	-42.4	18.9	0.00e+00	0	43	0	0	52	4526
2026-01-19 07:47:54.91	50.81	14.95	-40.7	-42.5	18.8	0.00e+00	0	43	0	0	52	4578
2026-01-19 07:47:56.05	50.57	14.97	-40.7	-42.5	18.8	0.00e+00	0	44	0	0	52	4569
2026-01-19 07:47:56.91	50.39	14.98	-40.8	-42.6	18.7	0.00e+00	0	44	0	0	52	4640
2026-01-19 07:47:58.04	50.15	14.99	-40.9	-42.7	18.7	0.00e+00	0	44	0	0	52	4679
2026-01-19 07:47:58.99	49.95	15.01	-40.8	-42.7	18.7	0.00e+00	0	43	0	0	52	4655
2026-01-19 07:47:59.99	49.74	15.02	-40.8	-42.7	18.7	0.00e+00	0	44	0	0	52	4667
2026-01-19 07:48:00.98	49.53	15.03	-40.9	-42.7	18.6	0.00e+00	0	44	0	0	52	4703
2026-01-19 07:48:01.98	49.32	15.04	-40.8	-42.7	18.7	0.00e+00	0	44	0	0	52	4661
2026-01-19 07:48:02.97	49.11	15.05	-40.8	-42.6	18.8	0.00e+00	0	44	0	0	52	4628
2026-01-19 07:48:03.97	48.90	15.06	-40.8	-42.6	18.8	0.00e+00	0	44	0	0	52	4635
2026-01-19 07:48:04.96	48.69	15.07	-40.6	-42.3	19.0	0.00e+00	0	44	0	0	52	4493
2026-01-19 07:48:05.96	48.48	15.08	-40.6	-42.4	18.9	0.00e+00	0	44	0	0	52	4515
2026-01-19 07:48:06.95	48.27	15.09	-40.5	-42.3	19.0	0.00e+00	0	44	0	0	52	4474
2026-01-19 07:48:07.95	48.06	15.10	-40.6	-42.4	18.9	0.00e+00	0	43	0	0	52	4526
2026-01-19 07:48:08.94	47.85	15.11	-40.6	-42.4	19.0	0.00e+00	0	43	0	0	52	4503
2026-01-19 07:48:09.94	47.64	15.12	-40.6	-42.4	19.0	0.00e+00	0	43	0	0	52	4508
2026-01-19 07:48:10.93	47.43	15.13	-40.6	-42.4	18.9	0.00e+00	0	43	0	0	52	4531
2026-01-19 07:48:11.92	47.22	15.14	-40.5	-42.3	19.0	0.00e+00	0	44	0	0	52	4493
2026-01-19 07:48:12.92	47.01	15.14	-40.7	-42.6	18.8	0.00e+00	0	44	0	0	52	4599
2026-01-19 07:48:13.91	46.80	15.15	-40.6	-42.4	18.9	0.00e+00	0	44	0	0	52	4544
2026-01-19 07:48:14.91	46.59	15.16	-40.6	-42.4	18.9	0.00e+00	0	44	0	0	52	4520
2026-01-19 07:48:15.90	46.38	15.16	-40.7	-42.5	18.8	0.00e+00	0	44	0	0	52	4585
2026-01-19 07:48:16.89	46.17	15.17	-40.8	-42.7	18.7	0.00e+00	0	43	0	0	52	4657
2026-01-19 07:48:17.89	45.95	15.18	-40.9	-42.7	18.6	0.00e+00	0	44	0	0	52	4684
2026-01-19 07:48:18.89	45.74	15.18	-40.8	-42.7	18.6	0.00e+00	0	44	0	0	52	4669
2026-01-19 07:48:19.88	45.53	15.19	-40.9	-42.8	18.6	0.00e+00	0	43	0	0	52	4736
2026-01-19 07:48:20.88	45.32	15.19	-40.9	-42.7	18.6	0.00e+00	0	44	0	0	52	4692
2026-01-19 07:48:21.87	45.11	15.19	-40.9	-42.7	18.6	0.00e+00	0	43	0	0	52	4688
2026-01-19 07:48:22.87	44.89	15.20	-40.8	-42.7	18.7	0.00e+00	0	44	0	0	52	4668
2026-01-19 07:48:23.86	44.68	15.20	-40.8	-42.7	18.7	0.00e+00	0	44	0	0	52	4676
2026-01-19 07:48:24.86	44.47	15.20	-40.8	-42.6	18.8	0.00e+00	0	44	0	0	52	4649
2026-01-19 07:48:25.85	44.26	15.20	-41.0	-42.9	18.5	0.00e+00	0	43	0	0	52	4790
2026-01-19 07:48:26.93	44.03	15.21	-40.9	-42.8	18.6	0.00e+00	0	43	0	0	52	4707
2026-01-19 07:48:27.78	43.85	15.21	-41.0	-42.9	18.5	0.00e+00	0	44	0	0	52	4791
2026-01-19 07:48:29.11	43.56	15.21	-41.0	-42.9	18.5	0.00e+00	0	43	0	0	52	4783
2026-01-19 07:48:29.82	43.41	15.21	-41.0	-42.9	18.5	0.00e+00	0	43	0	0	52	4765
2026-01-19 07:48:31.09	43.14	15.21	-40.8	-42.7	18.8	0.00e+00	0	44	0	0	52	4661
2026-01-19 07:48:31.81	42.99	15.21	-40.8	-42.7	18.8	0.00e+00	0	44	0	0	52	4652
2026-01-19 07:48:33.09	42.72	15.21	-40.8	-42.6	18.8	0.00e+00	0	44	0	0	52	4618
2026-01-19 07:48:33.80	42.56	15.21	-40.8	-42.6	18.7	0.00e+00	0	44	0	0	52	4641
2026-01-19 07:48:35.08	42.29	15.21	-40.7	-42.5	18.8	0.00e+00	0	43	0	0	52	4584
2026-01-19 07:48:35.80	42.14	15.21	-40.7	-42.5	18.8	0.00e+00	0	44	0	0	52	4585
2026-01-19 07:48:37.08	41.87	15.20	-40.7	-42.6	18.8	0.00e+00	0	43	0	0	52	4603
2026-01-19 07:48:37.79	41.71	15.20	-40.7	-42.5	18.8	0.00e+00	0	44	0	0	52	4595
2026-01-19 07:48:39.07	41.44	15.20	-40.8	-42.6	18.7	0.00e+00	0	44	0	0	52	4641
2026-01-19 07:48:39.78	41.29	15.20	-40.7	-42.5	18.8	0.00e+00	0	44	0	0	52	4586
2026-01-19 07:48:41.09	41.01	15.19	-40.7	-42.5	18.8	0.00e+00	0	44	0	0	52	4579
2026-01-19 07:48:41.80	40.86	15.19	-40.7	-42.5	18.8	0.00e+00	0	44	0	0	52	4592
2026-01-19 07:48:43.14	40.58	15.18	-40.7	-42.5	18.9	0.00e+00	0	44	0	0	52	4572
2026-01-19 07:48:44.19	40.35	15.18	-40.9	-42.7	18.7	0.00e+00	0	44	0	0	52	4674
2026-01-19 07:48:45.12	40.15	15.17	-40.9	-42.7	18.7	0.00e+00	0	43	0	0	52	4692
2026-01-19 07:48:46.11	39.94	15.17	-40.9	-42.7	18.7	0.00e+00	0	44	0	0	52	4680
2026-01-19 07:48:47.11	39.73	15.16	-40.9	-42.8	18.6	0.00e+00	0	44	0	0	52	4724
2026-01-19 07:48:48.11	39.52	15.15	-40.9	-42.7	18.7	0.00e+00	0	44	0	0	52	4700
2026-01-19 07:48:49.10	39.31	15.15	-40.8	-42.6	18.8	0.00e+00	0	43	0	0	52	4639
2026-01-19 07:48:50.09	39.10	15.14	-40.7	-42.5	18.9	0.00e+00	0	44	0	0	52	4566
2026-01-19 07:48:51.09	38.89	15.13	-40.8	-42.6	18.8	0.00e+00	0	44	0	0	52	4624
2026-01-19 07:48:52.16	38.66	15.12	-40.7	-42.5	18.8	0.00e+00	0	44	0	0	52	4592
2026-01-19 07:48:53.02	38.48	15.12	-40.7	-42.5	18.8	0.00e+00	0	44	0	0	52	4590
2026-01-19 07:48:54.15	38.24	15.11	-40.6	-42.4	19.0	0.00e+00	0	44	0	0	52	4515
2026-01-19 07:48:55.00	38.06	15.10	-40.6	-42.4	18.9	0.00e+00	0	44	0	0	52	4504
2026-01-19 07:48:56.14	37.82	15.09	-40.5	-42.3	19.0	0.00e+00	0	44	0	0	52	4461
2026-01-19 07:48:56.99	37.64	15.08	-40.6	-42.4	18.9	0.00e+00	0	44	0	0	52	4514
2026-01-19 07:48:58.13	37.40	15.07	-40.6	-42.5	18.8	0.00e+00	0	44	0	0	52	4562
2026-01-19 07:48:58.98	37.22	15.06	-40.6	-42.4	18.9	0.00e+00	0	44	0	0	52	4508
2026-01-19 07:49:00.12	36.98	15.05	-40.7	-42.5	18.8	0.00e+00	0	44	0	0	52	4577
2026-01-19 07:49:00.97	36.80	15.04	-40.7	-42.5	18.9	0.00e+00	0	44	0	0	52	4562
2026-01-19 07:49:02.11	36.56	15.02	-40.7	-42.6	18.8	0.00e+00	0	44	0	0	52	4613
2026-01-19 07:49:02.97	36.38	15.01	-40.7	-42.6	18.7	0.00e+00	0	44	0	0	52	4618
2026-01-19 07:49:04.10	36.14	15.00	-40.7	-42.5	18.8	0.00e+00	0	44	0	0	52	4572
2026-01-19 07:49:04.96	35.96	14.99	-40.7	-42.5	18.8	0.00e+00	0	44	0	0	52	4591
2026-01-19 07:49:06.09	35.73	14.97	-40.6	-42.4	18.9	0.00e+00	0	44	0	0	52	4545
2026-01-19 07:49:06.95	35.55	14.96	-40.6	-42.4	18.9	0.00e+00	0	44	0	0	52	4513
2026-01-19 07:49:08.08	35.31	14.94	-40.5	-42.4	19.0	0.00e+00	0	43	0	0	52	4499
2026-01-19 07:49:09.00	35.12	14.93	-40.5	-42.3	19.0	0.00e+00	0	44	0	0	52	4481
2026-01-19 07:49:09.99	34.91	14.92	-40.5	-42.3	19.0	0.00e+00	0	44	0	0	52	4483
2026-01-19 07:49:10.99	34.70	14.90	-40.5	-42.3	19.0	0.00e+00	0	44	0	0	52	4478
2026-01-19 07:49:11.98	34.49	14.89	-40.7	-42.5	18.9	0.00e+00	0	44	0	0	52	4575
2026-01-19 07:49:12.98	34.29	14.87	-40.7	-42.5	18.9	0.00e+00	0	43	0	0	52	4573
2026-01-19 07:49:13.97	34.08	14.85	-40.7	-42.5	18.9	0.00e+00	0	44	0	0	52	4593
2026-01-19 07:49:14.97	33.87	14.84	-40.7	-42.5	18.9	0.00e+00	0	44	0	0	52	4596
2026-01-19 07:49:15.96	33.67	14.82	-40.7	-42.6	18.8	0.00e+00	0	43	0	0	52	4603
2026-01-19 07:49:16.96	33.46	14.80	-40.7	-42.5	18.9	0.00e+00	0	44	0	0	52	4564
2026-01-19 07:49:17.95	33.26	14.78	-40.6	-42.5	18.9	0.00e+00	0	44	0	0	52	4546
2026-01-19 07:49:18.95	33.05	14.77	-40.6	-42.4	19.0	0.00e+00	0	44	0	0	52	4509
2026-01-19 07:49:19.94	32.84	14.75	-40.4	-42.2	19.1	0.00e+00	0	44	0	0	52	4430
2026-01-19 07:49:20.94	32.64	14.73	-40.4	-42.2	19.1	0.00e+00	0	44	0	0	52	4434
2026-01-19 07:49:21.93	32.43	14.71	-40.5	-42.3	19.1	0.00e+00	0	44	0	0	52	4460
2026-01-19 07:49:22.93	32.23	14.69	-40.5	-42.3	19.1	0.00e+00	0	44	0	0	52	4480
2026-01-19 07:49:23.92	32.02	14.67	-40.4	-42.2	19.1	0.00e+00	0	43	0	0	52	4435
2026-01-19 07:49:24.91	31.82	14.65	-40.5	-42.3	19.1	0.00e+00	0	44	0	0	52	4465
2026-01-19 07:49:25.91	31.62	14.63	-40.5	-42.3	19.1	0.00e+00	0	44	0	0	52	4476
2026-01-19 07:49:26.90	31.41	14.61	-40.5	-42.3	19.0	0.00e+00	0	44	0	0	52	4490
2026-01-19 07:49:27.90	31.21	14.59	-40.5	-42.3	19.0	0.00e+00	0	44	0	0	52	4492
2026-01-19 07:49:28.89	31.01	14.57	-40.6	-42.5	18.9	0.00e+00	0	44	0	0	52	4559
2026-01-19 07:49:29.89	30.80	14.54	-40.7	-42.5	18.9	0.00e+00	0	44	0	0	52	4588
2026-01-19 07:49:30.88	30.60	14.52	-40.7	-42.6	18.8	0.00e+00	0	43	0	0	52	4611
2026-01-19 07:49:31.87	30.40	14.50	-40.8	-42.7	18.7	0.00e+00	0	44	0	0	52	4672
2026-01-19 07:49:32.87	30.20	14.48	-40.9	-42.8	18.7	0.00e+00	0	44	0	0	52	4706
2026-01-19 07:49:33.86	30.00	14.45	-40.9	-42.7	18.7	0.00e+00	0	44	0	0	52	4695
2026-01-19 07:49:34.90	29.79	14.43	-40.8	-42.7	18.7	0.00e+00	0	44	0	0	52	4674
2026-01-19 07:49:35.93	29.58	14.40	-40.7	-42.5	18.8	0.00e+00	0	44	0	0	52	4585
2026-01-19 07:49:36.96	29.37	14.38	-40.7	-42.5	18.8	0.00e+00	0	44	0	0	52	4574
2026-01-19 07:49:37.98	29.17	14.35	-40.5	-42.3	19.0	0.00e+00	0	43	0	0	52	4475
2026-01-19 07:49:38.98	28.97	14.33	-40.5	-42.4	18.9	0.00e+00	0	43	0	0	52	4504
2026-01-19 07:49:40.04	28.76	14.30	-40.5	-42.4	19.0	0.00e+00	0	44	0	0	52	4518
2026-01-19 07:49:40.92	28.58	14.28	-40.7	-42.6	18.8	0.00e+00	0	44	0	0	52	4612
2026-01-19 07:49:42.06	28.35	14.25	-40.6	-42.5	18.9	0.00e+00	0	43	0	0	52	4555
2026-01-19 07:49:42.99	28.17	14.23	-40.7	-42.6	18.8	0.00e+00	0	43	0	0	52	4623
2026-01-19 07:49:43.99	27.97	14.20	-40.7	-42.6	18.8	0.00e+00	0	44	0	0	52	4618
2026-01-19 07:49:44.98	27.77	14.17	-40.8	-42.7	18.7	0.00e+00	0	43	0	0	52	4694
2026-01-19 07:49:45.97	27.58	14.15	-40.8	-42.7	18.7	0.00e+00	0	44	0	0	52	4683
2026-01-19 07:49:46.97	27.38	14.12	-40.9	-42.8	18.6	0.00e+00	0	43	0	0	52	4751
2026-01-19 07:49:47.97	27.18	14.09	-40.8	-42.7	18.7	0.00e+00	0	43	0	0	52	4698
2026-01-19 07:49:48.96	26.99	14.06	-40.9	-42.8	18.6	0.00e+00	0	44	0	0	52	4727
2026-01-19 07:49:49.96	26.79	14.03	-40.7	-42.6	18.8	0.00e+00	0	43	0	0	52	4611
2026-01-19 07:49:50.95	26.59	14.00	-40.7	-42.6	18.8	0.00e+00	0	43	0	0	52	4602
2026-01-19 07:49:51.95	26.40	13.98	-40.8	-42.6	18.7	0.00e+00	0	43	0	0	52	4651
2026-01-19 07:49:52.94	26.21	13.95	-40.7	-42.6	18.8	0.00e+00	0	44	0	0	52	4614
2026-01-19 07:49:53.94	26.01	13.92	-40.7	-42.6	18.8	0.00e+00	0	43	0	0	52	4609
2026-01-19 07:49:54.93	25.82	13.89	-40.6	-42.5	18.9	0.00e+00	0	44	0	0	52	4554
2026-01-19 07:49:55.93	25.62	13.86	-40.7	-42.5	18.8	0.00e+00	0	44	0	0	52	4586
2026-01-19 07:49:56.92	25.43	13.83	-40.6	-42.4	18.9	0.00e+00	0	44	0	0	52	4544
2026-01-19 07:49:57.91	25.24	13.80	-40.5	-42.4	19.0	0.00e+00	0	44	0	0	52	4502
2026-01-19 07:49:58.91	25.05	13.77	-40.7	-42.6	18.8	0.00e+00	0	44	0	0	52	4604
2026-01-19 07:49:59.90	24.86	13.73	-40.6	-42.5	18.9	0.00e+00	0	44	0	0	52	4547
2026-01-19 07:50:00.90	24.66	13.70	-40.8	-42.8	18.6	0.00e+00	0	44	0	0	52	4707
2026-01-19 07:50:01.89	24.47	13.67	-40.8	-42.8	18.6	0.00e+00	0	44	0	0	52	4711
2026-01-19 07:50:02.89	24.28	13.64	-40.8	-42.8	18.5	0.00e+00	0	44	0	0	52	4738
2026-01-19 07:50:03.88	24.09	13.61	-40.9	-42.9	18.5	0.00e+00	0	44	0	0	52	4784
2026-01-19 07:50:04.87	23.90	13.57	-41.0	-43.0	18.4	0.00e+00	0	44	0	0	52	4828
2026-01-19 07:50:05.87	23.71	13.54	-41.1	-43.0	18.4	0.00e+00	0	44	0	0	52	4852
2026-01-19 07:50:06.86	23.53	13.51	-41.0	-42.9	18.5	0.00e+00	0	44	0	0	52	4800
2026-01-19 07:50:07.85	23.34	13.48	-41.0	-42.9	18.4	0.00e+00	0	44	0	0	52	4796
2026-01-19 07:50:08.86	23.15	13.44	-41.1	-43.0	18.4	0.00e+00	0	44	0	0	52	4837
2026-01-19 07:50:09.91	22.95	13.41	-41.1	-43.1	18.3	0.00e+00	0	44	0	0	52	4881
2026-01-19 07:50:10.93	22.76	13.37	-41.0	-42.9	18.5	0.00e+00	0	44	0	0	52	4801
2026-01-19 07:50:11.93	22.57	13.34	-41.0	-42.9	18.5	0.00e+00	0	44	0	0	52	4782
2026-01-19 07:50:12.92	22.39	13.30	-41.0	-42.9	18.4	0.00e+00	0	44	0	0	52	4799
2026-01-19 07:50:13.92	22.20	13.27	-41.0	-42.8	18.6	0.00e+00	0	44	0	0	52	4746
2026-01-19 07:50:14.91	22.02	13.23	-41.0	-42.9	18.5	0.00e+00	0	44	0	0	52	4785
2026-01-19 07:50:15.91	21.83	13.20	-41.0	-42.9	18.5	0.00e+00	0	44	0	0	52	4801
2026-01-19 07:50:16.90	21.65	13.16	-41.0	-42.9	18.4	0.00e+00	0	44	0	0	52	4809
2026-01-19 07:50:17.90	21.46	13.12	-41.1	-43.1	18.3	0.00e+00	0	43	0	0	52	4872
2026-01-19 07:50:18.89	21.28	13.09	-41.0	-42.9	18.4	0.00e+00	0	44	0	0	53	4524
2026-01-19 07:50:19.89	21.10	13.05	-40.9	-42.8	18.5	0.00e+00	0	44	0	0	53	4482
2026-01-19 07:50:20.88	20.91	13.02	-40.8	-42.8	18.5	0.00e+00	0	44	0	0	53	4454
2026-01-19 07:50:21.87	20.73	12.98	-40.8	-42.9	18.4	0.00e+00	0	43	0	0	53	4497
2026-01-19 07:50:22.87	20.55	12.94	-40.7	-42.7	18.6	0.00e+00	0	44	0	0	53	4413
2026-01-19 07:50:23.93	20.36	12.90	-40.5	-42.5	18.8	0.00e+00	0	44	0	0	52	4548
2026-01-19 07:50:24.78	20.20	12.87	-40.6	-42.7	18.6	0.00e+00	0	44	0	0	52	4663
2026-01-19 07:50:25.92	20.00	12.83	-40.6	-42.6	18.7	0.00e+00	0	44	0	0	52	4628
2026-01-19 07:50:26.77	19.84	12.79	-40.7	-42.8	18.5	0.00e+00	0	44	0	0	52	4718
2026-01-19 07:50:27.91	19.64	12.75	-40.9	-43.0	18.4	0.00e+00	0	44	0	0	52	4839
2026-01-19 07:50:28.76	19.49	12.72	-40.7	-42.7	18.6	0.00e+00	0	44	0	0	52	4683
2026-01-19 07:50:29.90	19.28	12.67	-40.7	-42.6	18.6	0.00e+00	0	44	0	0	52	4648
2026-01-19 07:50:30.75	19.13	12.64	-40.9	-42.8	18.5	0.00e+00	0	44	0	0	52	4744
2026-01-19 07:50:31.89	18.93	12.60	-40.8	-42.7	18.5	0.00e+00	0	44	0	0	52	4670
2026-01-19 07:50:32.74	18.78	12.56	-40.7	-42.6	18.6	0.00e+00	0	44	0	0	52	4620
2026-01-19 07:50:33.88	18.57	12.52	-40.8	-42.6	18.6	0.00e+00	0	44	0	0	52	4636
2026-01-19 07:50:34.73	18.42	12.48	-40.8	-42.6	18.6	0.00e+00	0	44	0	0	52	4624
2026-01-19 07:50:35.86	18.22	12.44	-40.8	-42.6	18.6	0.00e+00	0	44	0	0	52	4646
2026-01-19 07:50:36.72	18.07	12.40	-40.8	-42.7	18.6	0.00e+00	0	44	0	0	52	4673
2026-01-19 07:50:37.85	17.88	12.36	-40.9	-42.7	18.6	0.00e+00	0	44	0	0	52	4697
2026-01-19 07:50:38.71	17.72	12.32	-41.0	-42.8	18.5	0.00e+00	0	44	0	0	52	4756
2026-01-19 07:50:40.06	17.49	12.27	-41.0	-42.9	18.4	0.00e+00	0	44	0	0	52	4792
2026-01-19 07:50:40.77	17.37	12.24	-41.1	-43.0	18.4	0.00e+00	0	44	0	0	52	4844
2026-01-19 07:50:42.26	17.11	12.18	-41.1	-43.1	18.3	0.00e+00	0	44	0	0	53	4606
2026-01-19 07:50:42.97	16.99	12.15	-41.2	-43.2	18.2	0.00e+00	0	44	0	0	53	4659
2026-01-19 07:50:44.25	16.77	12.09	-41.1	-43.2	18.2	0.00e+00	0	44	0	0	53	4657
2026-01-19 07:50:44.96	16.64	12.06	-41.3	-43.3	18.1	0.00e+00	0	44	0	0	53	4752
2026-01-19 07:50:46.24	16.42	12.01	-41.1	-43.2	18.1	0.00e+00	0	44	0	0	53	4704
2026-01-19 07:50:46.95	16.30	11.98	-41.2	-43.4	18.0	0.00e+00	0	44	0	0	53	4766
2026-01-19 07:50:48.23	16.09	11.93	-41.1	-43.2	18.1	0.00e+00	0	44	0	0	53	4688
2026-01-19 07:50:48.94	15.96	11.90	-41.1	-43.3	18.1	0.00e+00	0	44	0	0	53	4730
2026-01-19 07:50:50.23	15.75	11.84	-41.1	-43.2	18.1	0.00e+00	0	44	0	0	53	4700
2026-01-19 07:50:50.95	15.63	11.81	-40.9	-43.1	18.3	0.00e+00	0	44	0	0	53	4618
2026-01-19 07:50:52.23	15.41	11.76	-41.1	-43.2	18.0	0.00e+00	0	44	0	0	53	4700
2026-01-19 07:50:53.03	15.28	11.72	-41.2	-43.3	18.1	0.00e+00	0	44	0	0	53	4729
2026-01-19 07:50:54.17	15.09	11.67	-41.2	-43.3	18.1	0.00e+00	0	44	0	0	53	4745
2026-01-19 07:50:55.02	14.94	11.63	-41.1	-43.3	18.1	0.00e+00	0	44	0	0	53	4707
2026-01-19 07:50:56.16	14.75	11.58	-41.2	-43.3	18.1	0.00e+00	0	44	0	0	53	4737
2026-01-19 07:50:57.26	14.57	11.54	-41.3	-43.5	17.9	0.00e+00	0	44	0	0	53	4820
2026-01-19 07:50:58.29	14.40	11.49	-41.2	-43.4	18.0	0.00e+00	0	44	0	0	53	4778
2026-01-19 07:50:59.46	14.21	11.44	-41.3	-43.5	17.8	0.00e+00	0	44	0	0	53	4840
2026-01-19 07:51:00.31	14.07	11.40	-41.2	-43.3	18.0	0.00e+00	0	44	0	0	53	4741
2026-01-19 07:51:01.45	13.88	11.35	-41.2	-43.3	18.0	0.00e+00	0	44	0	0	53	4737
2026-01-19 07:51:02.30	13.75	11.31	-41.3	-43.3	18.0	0.00e+00	0	44	0	0	53	4730
2026-01-19 07:51:03.44	13.56	11.26	-41.1	-43.1	18.2	0.00e+00	0	44	0	0	53	4650
2026-01-19 07:51:04.29	13.42	11.22	-41.2	-43.2	18.1	0.00e+00	0	44	0	0	53	4683
2026-01-19 07:51:05.42	13.24	11.17	-41.3	-43.3	18.1	0.00e+00	0	44	0	0	53	4712
2026-01-19 07:51:06.28	13.10	11.13	-41.3	-43.3	18.0	0.00e+00	0	44	0	0	53	4712
2026-01-19 07:51:07.41	12.92	11.08	-41.4	-43.4	17.9	0.00e+00	0	44	0	0	53	4806
2026-01-19 07:51:08.26	12.78	11.04	-41.3	-43.4	17.9	0.00e+00	0	44	0	0	53	4790
2026-01-19 07:51:09.46	12.59	10.99	-41.4	-43.5	17.8	0.00e+00	0	44	0	0	53	4842
2026-01-19 07:51:10.32	12.46	10.95	-41.6	-43.7	17.7	0.00e+00	0	44	0	0	53	4932
2026-01-19 07:51:11.52	12.27	10.90	-41.7	-43.8	17.5	0.00e+00	0	44	0	0	54	4740
2026-01-19 07:51:12.37	12.13	10.86	-41.8	-43.9	17.5	0.00e+00	0	44	0	0	54	4789
2026-01-19 07:51:13.51	11.95	10.80	-41.7	-43.9	17.5	0.00e+00	0	44	0	0	54	4773
2026-01-19 07:51:14.36	11.82	10.76	-41.8	-44.0	17.3	0.00e+00	0	44	0	0	54	4855
2026-01-19 07:51:15.49	11.64	10.71	-41.8	-44.1	17.3	0.00e+00	0	44	0	0	54	4907
2026-01-19 07:51:16.35	11.51	10.67	-41.9	-44.2	17.1	0.00e+00	0	44	0	0	54	4971
2026-01-19 07:51:17.49	11.33	10.62	-42.0	-44.4	17.0	0.00e+00	0	44	0	0	54	5071
2026-01-19 07:51:18.34	11.20	10.58	-41.9	-44.4	17.0	0.00e+00	0	44	0	0	54	5050
2026-01-19 07:51:19.48	11.02	10.53	-42.0	-44.5	16.9	0.00e+00	0	44	0	0	54	5115
2026-01-19 07:51:20.33	10.89	10.49	-41.8	-44.3	17.1	0.00e+00	0	44	0	0	54	5017
2026-01-19 07:51:21.47	10.72	10.43	-41.6	-44.0	17.3	0.00e+00	0	43	0	0	54	4855
2026-01-19 07:51:22.33	10.59	10.39	-41.5	-44.0	17.3	0.00e+00	0	44	0	0	54	4849
2026-01-19 07:51:23.46	10.42	10.34	-41.4	-43.9	17.4	0.00e+00	0	44	0	0	54	4788
2026-01-19 07:51:24.31	10.29	10.30	-41.4	-43.9	17.4	0.00e+00	0	44	0	0	54	4775
2026-01-19 07:51:25.45	10.11	10.24	-41.4	-44.0	17.3	0.00e+00	0	44	0	0	54	4826
2026-01-19 07:51:26.31	9.98	10.20	-41.3	-43.9	17.4	0.00e+00	0	44	0	0	54	4779
2026-01-19 07:51:27.44	9.81	10.15	-41.2	-43.8	17.5	0.00e+00	0	44	0	0	54	4735
2026-01-19 07:51:28.30	9.69	10.11	-41.2	-43.8	17.6	0.00e+00	0	44	0	0	54	4711
2026-01-19 07:51:29.43	9.52	10.05	-41.3	-44.0	17.3	0.00e+00	0	44	0	0	54	4858
2026-01-19 07:51:30.29	9.39	10.01	-41.2	-43.8	17.5	0.00e+00	0	44	0	0	54	4739
2026-01-19 07:51:31.42	9.22	9.96	-41.2	-43.8	17.5	0.00e+00	0	44	0	0	54	4740
2026-01-19 07:51:32.27	9.10	9.92	-41.2	-43.8	17.5	0.00e+00	0	44	0	0	54	4745
2026-01-19 07:51:33.41	8.93	9.86	-41.2	-43.7	17.6	0.00e+00	0	43	0	0	54	4689
2026-01-19 07:51:34.26	8.80	9.82	-41.2	-43.7	17.7	0.00e+00	0	44	0	0	54	4672
2026-01-19 07:51:35.40	8.64	9.77	-41.3	-43.8	17.6	0.00e+00	0	44	0	0	54	4715
2026-01-19 07:51:36.25	8.51	9.73	-41.5	-44.0	17.5	0.00e+00	0	44	0	0	54	4817
2026-01-19 07:51:37.39	8.35	9.67	-41.4	-43.7	17.7	0.00e+00	0	44	0	0	54	4693
2026-01-19 07:51:38.24	8.22	9.63	-41.3	-43.6	17.7	0.00e+00	0	44	0	0	54	4643
2026-01-19 07:51:39.41	8.05	9.57	-41.4	-43.7	17.7	0.00e+00	0	44	0	0	54	4692
2026-01-19 07:51:40.26	7.93	9.53	-41.5	-43.7	17.6	0.00e+00	0	44	0	0	54	4705
2026-01-19 07:51:41.40	7.77	9.48	-41.6	-44.0	17.4	0.00e+00	0	44	0	0	54	4816
2026-01-19 07:51:42.25	7.65	9.43	-41.6	-43.9	17.4	0.00e+00	0	44	0	0	54	4803
2026-01-19 07:51:43.39	7.48	9.38	-41.7	-44.0	17.4	0.00e+00	0	44	0	0	54	4831
2026-01-19 07:51:44.24	7.36	9.34	-41.8	-44.0	17.3	0.00e+00	0	44	0	0	54	4850
2026-01-19 07:51:45.56	7.18	9.27	-41.9	-44.2	17.2	0.00e+00	0	44	0	0	54	4949
2026-01-19 07:51:46.27	7.08	9.24	-41.9	-44.1	17.2	0.00e+00	0	44	0	0	54	4919
2026-01-19 07:51:47.76	6.87	9.16	-41.8	-44.1	17.2	0.00e+00	0	44	0	0	54	4885
2026-01-19 07:51:48.47	6.77	9.13	-41.9	-44.2	17.1	0.00e+00	0	44	0	0	54	4936
2026-01-19 07:51:49.82	6.58	9.06	-41.7	-44.0	17.2	0.00e+00	0	44	0	0	54	4858
2026-01-19 07:51:50.53	6.48	9.03	-41.6	-44.0	17.3	0.00e+00	0	44	0	0	54	4819
2026-01-19 07:51:51.82	6.30	8.96	-46.2	-50.8	11.2	0.00e+00	0	44	0	0	62	6662
2026-01-19 07:51:52.53	6.21	8.93	-48.3	-62.9	3.8	1.49e+00	0	44	104	0	67	20167
2026-01-19 07:51:53.80	6.03	8.86	-49.1	-63.2	3.8	1.49e+00	0	44	104	0	68	19634
2026-01-19 07:51:54.51	5.93	8.83	-49.1	-63.3	3.8	1.49e+00	0	44	104	0	69	18767
2026-01-19 07:51:55.79	5.76	8.76	-49.5	-63.3	3.8	1.49e+00	0	44	104	0	69	18912
2026-01-19 07:51:56.50	5.66	8.73	-50.2	-63.4	3.8	1.49e+00	0	44	104	0	71	16999
2026-01-19 07:51:57.78	5.49	8.66	-50.1	-63.5	3.8	1.49e+00	0	44	104	0	71	17123
2026-01-19 07:51:58.50	5.39	8.63	-50.3	-63.5	3.8	1.49e+00	0	44	104	0	71	17191
2026-01-19 07:51:59.78	5.22	8.56	-50.0	-63.5	3.8	1.49e+00	0	44	104	0	71	17241
2026-01-19 07:52:00.49	5.12	8.53	-50.5	-63.5	3.8	1.49e+00	0	44	104	0	71	17246
2026-01-19 07:52:01.77	4.95	8.47	-50.4	-63.6	3.8	1.49e+00	0	44	104	0	71	17391
2026-01-19 07:52:02.48	4.86	8.43	-50.2	-63.6	3.8	1.49e+00	0	44	104	0	71	17431
2026-01-19 07:52:03.75	4.69	8.37	-50.6	-63.6	3.8	1.49e+00	0	44	104	0	71	17437
2026-01-19 07:52:04.46	4.60	8.33	-50.4	-63.6	3.8	1.49e+00	0	44	104	0	71	17322
2026-01-19 07:52:05.74	4.43	8.27	-50.5	-63.7	3.8	1.49e+00	0	44	104	0	71	17486
2026-01-19 07:52:06.45	4.33	8.23	-50.6	-63.6	3.8	1.49e+00	0	44	104	0	71	17393
2026-01-19 07:52:07.73	4.17	8.17	-50.2	-63.6	3.8	1.49e+00	0	44	104	0	71	17423
2026-01-19 07:52:08.45	4.07	8.13	-50.3	-63.6	3.8	1.49e+00	0	44	104	0	71	17443
2026-01-19 07:52:09.83	3.89	8.06	-50.5	-63.6	3.8	1.49e+00	0	44	104	0	71	17437
2026-01-19 07:52:10.54	3.80	8.02	-50.5	-63.6	3.8	1.49e+00	0	44	104	0	71	17423
2026-01-19 07:52:11.81	3.64	7.96	-50.6	-63.6	3.8	1.49e+00	0	44	104	0	71	17440
2026-01-19 07:52:12.52	3.55	7.92	-50.6	-63.6	3.8	1.49e+00	0	44	104	0	71	17405
2026-01-19 07:52:13.80	3.38	7.86	-50.6	-63.6	3.8	1.49e+00	0	44	104	0	71	17405
2026-01-19 07:52:14.53	3.29	7.82	-50.5	-63.6	3.8	1.49e+00	0	44	104	0	71	17397
2026-01-19 07:52:15.80	3.13	7.76	-50.5	-63.6	3.8	1.49e+00	0	44	104	0	71	17400
2026-01-19 07:52:16.53	3.04	7.72	-50.4	-63.6	3.8	1.49e+00	0	44	104	0	71	17307
2026-01-19 07:52:17.80	2.88	7.66	-50.4	-63.6	3.8	1.49e+00	0	44	104	0	71	17378
2026-01-19 07:52:18.51	2.79	7.62	-50.4	-63.6	3.8	1.49e+00	0	44	104	0	71	17375
2026-01-19 07:52:19.79	2.63	7.55	-50.2	-63.6	3.8	1.49e+00	0	44	104	0	71	17338
2026-01-19 07:52:20.50	2.54	7.52	-50.2	-63.6	3.8	1.49e+00	0	43	104	0	71	17339
2026-01-19 07:52:21.78	2.38	7.45	-50.2	-63.6	3.8	1.49e+00	0	44	104	0	71	17314
2026-01-19 07:52:22.49	2.29	7.42	-50.2	-63.5	3.8	1.49e+00	0	44	104	0	71	17269
2026-01-19 07:52:23.76	2.13	7.35	-50.2	-63.6	3.8	1.49e+00	0	44	104	0	71	17295
2026-01-19 07:52:24.47	2.05	7.32	-50.2	-63.5	3.8	1.49e+00	0	44	104	0	71	17268
2026-01-19 07:52:25.75	1.89	7.25	-50.2	-63.5	3.8	1.49e+00	0	44	104	0	71	17281
2026-01-19 07:52:26.48	1.80	7.21	-50.2	-63.5	3.8	1.49e+00	0	44	104	0	71	17241
2026-01-19 07:52:27.75	1.64	7.15	-50.2	-63.5	3.8	1.49e+00	0	44	104	0	71	17269
2026-01-19 07:52:28.48	1.56	7.11	-50.2	-63.6	3.8	1.49e+00	0	44	104	0	71	17294
2026-01-19 07:52:29.76	1.40	7.05	-50.2	-63.5	3.8	1.49e+00	0	44	104	0	71	17276
2026-01-19 07:52:30.48	1.31	7.01	-50.2	-63.6	3.8	1.49e+00	0	44	104	0	71	17285
2026-01-19 07:52:31.76	1.16	6.94	-50.1	-63.5	3.8	1.49e+00	0	44	104	0	71	17240
2026-01-19 07:52:32.47	1.08	6.91	-50.1	-63.5	3.8	1.49e+00	0	44	104	0	71	17280
2026-01-19 07:52:33.74	0.93	6.84	-50.2	-63.6	3.8	1.49e+00	0	44	104	0	71	17316
2026-01-19 07:52:34.45	0.84	6.81	-50.2	-63.5	3.8	1.49e+00	0	44	104	0	71	17214
2026-01-19 07:52:35.73	0.69	6.74	-50.1	-63.5	3.8	1.49e+00	0	44	104	0	71	17220
2026-01-19 07:52:36.44	0.61	6.70	-50.1	-63.5	3.8	1.49e+00	0	44	104	0	71	17203
2026-01-19 07:52:37.72	0.46	6.64	-50.1	-63.5	3.8	1.49e+00	0	44	104	0	71	17176
2026-01-19 07:52:38.44	0.37	6.60	-50.1	-63.5	3.8	1.49e+00	0	44	104	0	71	17145
2026-01-19 07:52:39.72	0.22	6.54	-50.1	-63.5	3.8	1.49e+00	0	44	104	0	71	17205
2026-01-19 07:52:40.43	0.14	6.50	-50.1	-63.5	3.8	1.49e+00	0	44	104	0	71	17190
2026-01-19 07:52:41.71	359.99	6.43	-50.1	-63.5	3.8	1.49e+00	0	44	104	0	71	17209
2026-01-19 07:52:42.42	359.91	6.40	-50.1	-63.5	3.8	1.49e+00	0	44	104	0	71	17186
2026-01-19 07:52:43.69	359.76	6.33	-50.1	-63.5	3.8	1.49e+00	0	44	104	0	71	17131
2026-01-19 07:52:44.40	359.68	6.30	-50.1	-63.5	3.8	1.49e+00	0	44	104	0	71	17155
2026-01-19 07:52:45.68	359.54	6.23	-50.1	-63.5	3.8	1.49e+00	0	44	104	0	71	17175
2026-01-19 07:52:46.39	359.45	6.19	-50.1	-63.5	3.8	1.49e+00	0	44	104	0	71	17185
2026-01-19 07:52:47.67	359.31	6.13	-50.1	-63.5	3.8	1.49e+00	0	44	104	0	71	17113
2026-01-19 07:52:48.38	359.23	6.09	-50.1	-63.5	3.8	1.49e+00	0	44	104	0	71	17137
2026-01-19 07:52:49.65	359.09	6.03	-50.1	-63.5	3.8	1.49e+00	0	44	104	0	71	17172
2026-01-19 07:52:50.36	359.01	5.99	-50.1	-63.5	3.8	1.49e+00	0	44	104	0	71	17177
2026-01-19 07:52:51.64	358.86	5.93	-50.1	-63.5	3.8	1.49e+00	0	44	104	0	71	17250
2026-01-19 07:52:52.37	358.78	5.89	-50.1	-63.5	3.8	1.49e+00	0	44	104	0	71	17182
2026-01-19 07:52:53.65	358.64	5.82	-50.1	-63.5	3.8	1.49e+00	0	44	104	0	71	17224
2026-01-19 07:52:54.36	358.56	5.79	-50.1	-63.5	3.8	1.49e+00	0	44	104	0	71	17208
2026-01-19 07:52:55.63	358.42	5.72	-50.1	-63.5	3.8	1.49e+00	0	44	104	0	71	17152
2026-01-19 07:52:56.36	358.34	5.68	-50.1	-63.5	3.8	1.49e+00	0	44	104	0	71	17165
2026-01-19 07:52:57.64	358.20	5.62	-50.1	-63.5	3.8	1.49e+00	0	44	104	0	71	17182
2026-01-19 07:52:58.35	358.13	5.58	-50.1	-63.5	3.8	1.49e+00	0	44	104	0	71	17189
2026-01-19 07:52:59.62	357.99	5.52	-50.1	-63.5	3.8	1.49e+00	0	44	104	0	71	17175
2026-01-19 07:53:00.33	357.91	5.48	-50.1	-63.5	3.8	1.49e+00	0	44	104	0	71	17175
2026-01-19 07:53:01.61	357.77	5.41	-50.1	-63.5	3.8	1.49e+00	0	44	104	0	71	17174
2026-01-19 07:53:02.32	357.70	5.38	-50.1	-63.5	3.8	1.49e+00	0	44	104	0	71	17199
2026-01-19 07:53:03.60	357.56	5.31	-50.1	-63.5	3.8	1.49e+00	0	44	104	0	71	17179
2026-01-19 07:53:04.32	357.48	5.27	-50.1	-63.5	3.8	1.49e+00	0	44	104	0	71	17176
2026-01-19 07:53:05.60	357.35	5.21	-50.1	-63.5	3.8	1.49e+00	0	44	104	0	71	17196
2026-01-19 07:53:06.31	357.27	5.17	-50.1	-63.5	3.8	1.49e+00	0	44	104	0	71	17146
2026-01-19 07:53:07.59	357.14	5.11	-50.1	-63.5	3.8	1.49e+00	0	44	10
