passes_logs/2026/01/19/T1/T1__20260119_125319_AQUA_rec.log

#Pass ID: 20260119_125319_AQUA
#Satellite: AQUA
#Configuration: AQUA
#almurnet v.1.7.20251203
#Start time: 2026-01-19 12:53:20

#Version: 2.0.20230620
#Station: T1
#Location: 37.570604 lon 55.790049 lat
#TLE: 1 27424U 02022A   26018.92652823  .00000914  00000+0  19290-3 0  9996
#TLE: 2 27424  98.4089 345.4199 0001997  73.4625 351.8991 14.61828815261466

#Time	Az	El	Level	Level2	SNR	BER	BlckErr	Temp	State	Recorded	gain1	gain2
2026-01-19 12:53:20.75	203.03	5.10	-47.8	-69.6	3.8	7.46e-01	0	36	0	0	66	46289
2026-01-19 12:53:21.74	203.11	5.16	-47.8	-69.6	3.8	7.48e-01	0	37	104	0	66	46204
2026-01-19 12:53:22.74	203.20	5.23	-47.7	-69.6	3.8	7.45e-01	0	36	104	0	66	46245
2026-01-19 12:53:23.73	203.28	5.29	-47.8	-69.6	3.8	7.45e-01	0	37	104	0	66	46387
2026-01-19 12:53:24.72	203.36	5.36	-47.8	-69.6	3.8	7.43e-01	0	37	104	0	66	46310
2026-01-19 12:53:25.72	203.45	5.43	-47.8	-69.6	3.8	7.45e-01	0	37	104	0	66	46270
2026-01-19 12:53:26.71	203.54	5.49	-47.8	-69.6	3.8	7.49e-01	0	37	104	0	66	46325
2026-01-19 12:53:27.70	203.62	5.56	-47.8	-69.6	3.8	7.43e-01	0	37	104	0	66	46351
2026-01-19 12:53:28.69	203.71	5.62	-47.8	-69.6	3.8	7.47e-01	0	37	104	0	66	46427
2026-01-19 12:53:29.69	203.80	5.69	-47.8	-69.6	3.8	7.46e-01	0	37	104	0	66	46325
2026-01-19 12:53:30.68	203.88	5.76	-47.8	-69.6	3.8	7.46e-01	0	37	104	0	66	46345
2026-01-19 12:53:31.67	203.97	5.83	-47.8	-69.6	3.8	7.49e-01	0	37	104	0	66	46400
2026-01-19 12:53:32.67	204.06	5.89	-47.8	-69.6	3.8	7.46e-01	0	37	104	0	66	46331
2026-01-19 12:53:33.66	204.15	5.96	-47.8	-69.6	3.8	7.45e-01	0	37	104	0	66	46315
2026-01-19 12:53:34.65	204.24	6.03	-47.8	-69.6	3.8	7.47e-01	0	37	104	0	66	46388
2026-01-19 12:53:35.65	204.33	6.10	-47.8	-69.6	3.8	7.47e-01	0	37	104	0	66	46394
2026-01-19 12:53:36.64	204.42	6.16	-47.8	-69.6	3.8	7.46e-01	0	37	104	0	66	46373
2026-01-19 12:53:37.63	204.51	6.23	-47.8	-69.6	3.8	7.48e-01	0	37	104	0	66	46307
2026-01-19 12:53:38.62	204.60	6.30	-47.8	-69.6	3.8	7.46e-01	0	37	104	0	66	46241
2026-01-19 12:53:39.62	204.69	6.37	-47.8	-69.6	3.8	7.47e-01	0	37	104	0	66	46303
2026-01-19 12:53:40.61	204.79	6.44	-47.8	-69.6	3.8	7.48e-01	0	37	104	0	66	46306
2026-01-19 12:53:41.60	204.88	6.50	-47.8	-69.6	3.8	7.49e-01	0	37	104	0	66	46289
2026-01-19 12:53:42.60	204.97	6.57	-47.8	-69.6	3.8	7.42e-01	0	37	104	0	66	46400
2026-01-19 12:53:43.59	205.06	6.64	-47.8	-69.6	3.8	7.48e-01	0	37	104	0	66	46320
2026-01-19 12:53:44.58	205.16	6.71	-47.8	-69.6	3.8	7.40e-01	0	37	104	0	66	46271
2026-01-19 12:53:45.57	205.25	6.78	-47.8	-69.6	3.8	7.47e-01	0	37	104	0	66	46376
2026-01-19 12:53:46.57	205.35	6.85	-47.8	-69.6	3.8	7.41e-01	0	38	104	0	66	46201
2026-01-19 12:53:47.56	205.44	6.92	-47.8	-69.6	3.8	7.49e-01	0	37	104	0	66	46404
2026-01-19 12:53:48.55	205.54	6.99	-47.8	-69.6	3.8	7.45e-01	0	38	104	0	66	46365
2026-01-19 12:53:49.55	205.63	7.06	-47.8	-69.6	3.8	7.47e-01	0	37	104	0	66	46397
2026-01-19 12:53:50.54	205.73	7.13	-47.8	-69.6	3.8	7.45e-01	0	38	104	0	66	46373
2026-01-19 12:53:51.53	205.83	7.20	-47.8	-69.6	3.8	7.45e-01	0	38	104	0	66	46411
2026-01-19 12:53:52.52	205.93	7.27	-47.8	-69.6	3.8	7.43e-01	0	38	104	0	66	46450
2026-01-19 12:53:53.52	206.02	7.34	-47.8	-69.6	3.8	7.47e-01	0	37	104	0	66	46411
2026-01-19 12:53:54.51	206.12	7.41	-47.8	-69.6	3.8	7.44e-01	0	38	104	0	66	46245
2026-01-19 12:53:55.50	206.22	7.48	-47.8	-69.6	3.8	7.47e-01	0	38	104	0	66	46358
2026-01-19 12:53:56.50	206.32	7.55	-47.8	-69.6	3.8	7.48e-01	0	38	104	0	66	46396
2026-01-19 12:53:57.49	206.42	7.62	-47.8	-69.6	3.8	7.45e-01	0	38	104	0	66	46425
2026-01-19 12:53:58.48	206.52	7.69	-47.8	-69.7	3.8	7.46e-01	0	38	104	0	66	46537
2026-01-19 12:53:59.48	206.62	7.76	-47.8	-69.6	3.8	7.44e-01	0	37	104	0	66	46393
2026-01-19 12:54:00.47	206.73	7.83	-47.8	-69.6	3.8	7.51e-01	0	38	104	0	66	46434
2026-01-19 12:54:01.46	206.83	7.90	-47.8	-69.6	3.8	7.44e-01	0	38	104	0	66	46402
2026-01-19 12:54:02.45	206.93	7.98	-47.8	-69.6	3.8	7.46e-01	0	38	104	0	66	46379
2026-01-19 12:54:03.45	207.03	8.05	-47.8	-69.6	3.8	7.43e-01	0	38	104	0	66	46352
2026-01-19 12:54:04.44	207.14	8.12	-47.8	-69.6	3.8	7.49e-01	0	38	104	0	66	46421
2026-01-19 12:54:05.43	207.24	8.19	-47.8	-69.6	3.8	7.42e-01	0	38	104	0	66	46379
2026-01-19 12:54:06.43	207.35	8.26	-47.8	-69.6	3.8	7.48e-01	0	38	104	0	66	46361
2026-01-19 12:54:07.42	207.45	8.34	-47.8	-69.6	3.8	7.49e-01	0	38	104	0	66	46393
2026-01-19 12:54:08.41	207.56	8.41	-47.8	-69.6	3.8	7.46e-01	0	38	104	0	66	46402
2026-01-19 12:54:09.40	207.67	8.48	-47.8	-69.6	3.8	7.46e-01	0	38	104	0	66	46423
2026-01-19 12:54:10.40	207.77	8.55	-47.8	-69.6	3.8	7.45e-01	0	38	104	0	66	46362
2026-01-19 12:54:11.39	207.88	8.63	-47.8	-69.6	3.8	7.48e-01	0	38	104	0	66	46368
2026-01-19 12:54:12.38	207.99	8.70	-47.8	-69.6	3.8	7.48e-01	0	38	104	0	66	46440
2026-01-19 12:54:13.38	208.10	8.77	-47.8	-69.6	3.8	7.43e-01	0	38	104	0	66	46372
2026-01-19 12:54:14.37	208.21	8.85	-47.8	-69.6	3.8	7.46e-01	0	38	104	0	66	46446
2026-01-19 12:54:15.36	208.32	8.92	-47.8	-69.6	3.8	7.46e-01	0	38	104	0	66	46314
2026-01-19 12:54:16.36	208.43	8.99	-47.8	-69.6	3.8	7.48e-01	0	38	104	0	66	46397
2026-01-19 12:54:17.35	208.54	9.07	-47.8	-69.6	3.8	7.44e-01	0	38	104	0	66	46389
2026-01-19 12:54:18.34	208.65	9.14	-47.8	-69.6	3.8	7.46e-01	0	38	104	0	66	46406
2026-01-19 12:54:19.33	208.76	9.22	-47.8	-69.6	3.8	7.47e-01	0	38	104	0	66	46446
2026-01-19 12:54:20.33	208.88	9.29	-47.8	-69.6	3.8	7.48e-01	0	38	104	0	66	46368
2026-01-19 12:54:21.32	208.99	9.36	-47.8	-69.6	3.8	7.44e-01	0	38	104	0	66	46337
2026-01-19 12:54:22.31	209.10	9.44	-47.8	-69.6	3.8	7.46e-01	0	38	104	0	66	46312
2026-01-19 12:54:23.31	209.22	9.51	-47.8	-69.6	3.8	7.47e-01	0	38	104	0	66	46335
2026-01-19 12:54:24.30	209.34	9.59	-47.8	-69.6	3.8	7.46e-01	0	38	104	0	66	46403
2026-01-19 12:54:25.29	209.45	9.66	-47.8	-69.6	3.8	7.44e-01	0	38	104	0	66	46388
2026-01-19 12:54:26.29	209.57	9.74	-47.8	-69.6	3.8	7.47e-01	0	38	104	0	66	46478
2026-01-19 12:54:27.28	209.69	9.82	-47.8	-69.6	3.8	7.47e-01	0	38	104	0	66	46402
2026-01-19 12:54:28.27	209.80	9.89	-47.8	-69.6	3.8	7.45e-01	0	38	104	0	66	46405
2026-01-19 12:54:29.26	209.92	9.97	-47.8	-69.6	3.8	7.46e-01	0	38	104	0	66	46447
2026-01-19 12:54:30.26	210.04	10.04	-47.8	-69.6	3.8	7.46e-01	0	38	104	0	66	46402
2026-01-19 12:54:31.25	210.16	10.12	-47.8	-69.6	3.8	7.46e-01	0	38	104	0	66	46440
2026-01-19 12:54:32.24	210.28	10.20	-47.8	-69.6	3.8	7.45e-01	0	38	104	0	66	46412
2026-01-19 12:54:33.24	210.40	10.27	-47.8	-69.6	3.8	7.47e-01	0	39	104	0	66	46348
2026-01-19 12:54:34.23	210.52	10.35	-47.8	-69.6	3.8	7.47e-01	0	38	104	0	66	46466
2026-01-19 12:54:35.22	210.65	10.42	-47.8	-69.6	3.8	7.44e-01	0	38	104	0	66	46433
2026-01-19 12:54:36.21	210.77	10.50	-47.8	-69.6	3.8	7.46e-01	0	38	104	0	66	46437
2026-01-19 12:54:37.21	210.89	10.58	-47.8	-69.6	3.8	7.47e-01	0	38	104	0	66	46462
2026-01-19 12:54:38.20	211.02	10.66	-47.8	-69.6	3.8	7.44e-01	0	38	104	0	66	46456
2026-01-19 12:54:39.19	211.14	10.73	-47.8	-69.6	3.8	7.44e-01	0	38	104	0	66	46387
2026-01-19 12:54:40.19	211.27	10.81	-47.8	-69.6	3.8	7.49e-01	0	38	104	0	66	46481
2026-01-19 12:54:41.18	211.40	10.89	-47.8	-69.6	3.8	7.45e-01	0	39	104	0	66	46448
2026-01-19 12:54:42.17	211.52	10.97	-47.8	-69.7	3.8	7.46e-01	0	38	104	0	66	46520
2026-01-19 12:54:43.16	211.65	11.04	-47.8	-69.6	3.8	7.44e-01	0	38	104	0	66	46405
2026-01-19 12:54:44.16	211.78	11.12	-47.8	-69.6	3.8	7.44e-01	0	38	104	0	66	46383
2026-01-19 12:54:45.15	211.91	11.20	-47.8	-69.6	3.8	7.45e-01	0	38	104	0	66	46368
2026-01-19 12:54:46.14	212.04	11.28	-47.8	-69.7	3.8	7.47e-01	0	38	104	0	66	46598
2026-01-19 12:54:47.14	212.17	11.36	-47.8	-69.6	3.8	7.45e-01	0	38	104	0	66	46391
2026-01-19 12:54:48.13	212.30	11.44	-47.8	-69.6	3.8	7.48e-01	0	39	104	0	66	46368
2026-01-19 12:54:49.12	212.44	11.52	-47.8	-69.6	3.8	7.46e-01	0	39	104	0	66	46450
2026-01-19 12:54:50.12	212.57	11.60	-47.8	-69.6	3.8	7.47e-01	0	38	104	0	66	46422
2026-01-19 12:54:51.11	212.70	11.67	-47.8	-69.6	3.8	7.47e-01	0	38	104	0	66	46389
2026-01-19 12:54:52.10	212.84	11.75	-47.8	-69.6	3.8	7.49e-01	0	38	104	0	66	46412
2026-01-19 12:54:53.09	212.97	11.83	-47.8	-69.6	3.8	7.44e-01	0	38	104	0	66	46431
2026-01-19 12:54:54.09	213.11	11.91	-47.8	-69.6	3.8	7.45e-01	0	38	104	0	66	46453
2026-01-19 12:54:55.08	213.25	11.99	-47.8	-69.6	3.8	7.44e-01	0	39	104	0	66	46486
2026-01-19 12:54:56.07	213.38	12.07	-47.8	-69.6	3.8	7.49e-01	0	39	104	0	66	46392
2026-01-19 12:54:57.07	213.52	12.15	-47.9	-69.6	3.8	7.48e-01	0	39	104	0	66	46356
2026-01-19 12:54:58.06	213.66	12.23	-47.8	-69.6	3.8	7.46e-01	0	39	104	0	66	46473
2026-01-19 12:54:59.05	213.80	12.31	-47.8	-69.6	3.8	7.46e-01	0	39	104	0	66	46428
2026-01-19 12:55:00.05	213.95	12.39	-47.8	-69.6	3.8	7.44e-01	0	38	104	0	66	46392
2026-01-19 12:55:01.04	214.09	12.48	-47.8	-69.6	3.8	7.40e-01	0	38	104	0	66	46461
2026-01-19 12:55:02.03	214.23	12.56	-47.8	-69.6	3.8	7.45e-01	0	39	104	0	66	46366
2026-01-19 12:55:03.02	214.37	12.64	-47.8	-69.6	3.8	7.45e-01	0	38	104	0	66	46295
2026-01-19 12:55:04.02	214.52	12.72	-47.8	-69.6	3.8	7.43e-01	0	39	104	0	66	46379
2026-01-19 12:55:05.01	214.66	12.80	-47.9	-69.6	3.8	7.46e-01	0	39	104	0	66	46412
2026-01-19 12:55:06.00	214.81	12.88	-47.8	-69.6	3.8	7.42e-01	0	39	104	0	66	46489
2026-01-19 12:55:07.00	214.96	12.96	-47.9	-69.6	3.8	7.43e-01	0	39	104	0	66	46444
2026-01-19 12:55:07.99	215.10	13.04	-47.9	-69.6	3.8	7.48e-01	0	38	104	0	66	46441
2026-01-19 12:55:08.98	215.25	13.13	-47.8	-69.6	3.8	7.47e-01	0	39	104	0	66	46446
2026-01-19 12:55:09.98	215.40	13.21	-47.8	-69.6	3.8	7.45e-01	0	39	104	0	66	46417
2026-01-19 12:55:10.97	215.55	13.29	-47.8	-69.6	3.8	7.48e-01	0	39	104	0	66	46373
2026-01-19 12:55:11.96	215.70	13.37	-47.8	-69.6	3.8	7.46e-01	0	39	104	0	66	46407
2026-01-19 12:55:12.95	215.85	13.46	-47.8	-69.6	3.8	7.46e-01	0	39	104	0	66	46489
2026-01-19 12:55:13.95	216.01	13.54	-47.8	-69.6	3.8	7.48e-01	0	39	104	0	66	46336
2026-01-19 12:55:14.94	216.16	13.62	-47.8	-69.6	3.8	7.45e-01	0	39	104	0	66	46449
2026-01-19 12:55:15.93	216.31	13.70	-47.8	-69.6	3.8	7.49e-01	0	39	104	0	66	46343
2026-01-19 12:55:16.93	216.47	13.79	-47.8	-69.6	3.8	7.45e-01	0	39	104	0	66	46321
2026-01-19 12:55:17.92	216.63	13.87	-47.9	-69.6	3.8	7.48e-01	0	39	104	0	66	46272
2026-01-19 12:55:18.91	216.78	13.95	-47.8	-69.6	3.8	7.45e-01	0	39	104	0	66	46450
2026-01-19 12:55:19.90	216.94	14.04	-47.8	-69.6	3.8	7.43e-01	0	39	104	0	66	46376
2026-01-19 12:55:20.90	217.10	14.12	-47.8	-69.6	3.8	7.45e-01	0	39	104	0	66	46318
2026-01-19 12:55:21.89	217.26	14.20	-47.8	-69.6	3.8	7.47e-01	0	39	104	0	66	46300
2026-01-19 12:55:22.89	217.42	14.29	-47.8	-69.6	3.8	7.45e-01	0	39	104	0	66	46373
2026-01-19 12:55:23.88	217.59	14.37	-47.8	-69.6	3.8	7.44e-01	0	39	104	0	66	46338
2026-01-19 12:55:24.87	217.75	14.46	-47.8	-69.6	3.8	7.47e-01	0	39	104	0	66	46338
2026-01-19 12:55:25.86	217.91	14.54	-47.8	-69.6	3.8	7.44e-01	0	39	104	0	66	46395
2026-01-19 12:55:26.86	218.08	14.62	-47.6	-69.6	3.8	7.45e-01	0	39	104	0	66	46288
2026-01-19 12:55:27.85	218.24	14.71	-47.8	-69.6	3.8	7.48e-01	0	39	104	0	66	46330
2026-01-19 12:55:28.84	218.41	14.79	-47.8	-69.6	3.8	7.47e-01	0	39	104	0	66	46475
2026-01-19 12:55:29.84	218.58	14.88	-47.9	-69.6	3.8	7.48e-01	0	39	104	0	66	46329
2026-01-19 12:55:30.83	218.75	14.96	-47.8	-69.6	3.8	7.47e-01	0	39	104	0	66	46458
2026-01-19 12:55:31.82	218.92	15.05	-47.8	-69.6	3.8	7.47e-01	0	39	104	0	66	46476
2026-01-19 12:55:32.81	219.09	15.13	-47.8	-69.6	3.8	7.48e-01	0	39	104	0	66	46376
2026-01-19 12:55:33.81	219.26	15.22	-47.8	-69.6	3.8	7.48e-01	0	39	104	0	66	46314
2026-01-19 12:55:34.80	219.43	15.30	-47.8	-69.6	3.8	7.46e-01	0	39	104	0	66	46334
2026-01-19 12:55:35.79	219.61	15.39	-47.8	-69.6	3.8	7.45e-01	0	39	104	0	66	46425
2026-01-19 12:55:36.79	219.78	15.47	-47.8	-69.6	3.8	7.44e-01	0	39	104	0	66	46358
2026-01-19 12:55:37.78	219.96	15.56	-47.8	-69.6	3.8	7.45e-01	0	39	104	0	66	46420
2026-01-19 12:55:38.77	220.13	15.64	-47.8	-69.6	3.8	7.47e-01	0	39	104	0	66	46451
2026-01-19 12:55:39.77	220.31	15.73	-47.8	-69.6	3.8	7.44e-01	0	39	104	0	66	46312
2026-01-19 12:55:40.76	220.49	15.81	-47.8	-69.6	3.8	7.46e-01	0	39	104	0	66	46457
2026-01-19 12:55:41.75	220.67	15.90	-47.8	-69.6	3.8	7.49e-01	0	39	104	0	66	46405
2026-01-19 12:55:42.74	220.85	15.99	-47.8	-69.6	3.8	7.48e-01	0	39	104	0	66	46376
2026-01-19 12:55:43.74	221.04	16.07	-47.8	-69.6	3.8	7.44e-01	0	39	104	0	66	46370
2026-01-19 12:55:44.73	221.22	16.16	-47.8	-69.6	3.8	7.46e-01	0	39	104	0	66	46378
2026-01-19 12:55:45.72	221.40	16.24	-47.8	-69.6	3.8	7.46e-01	0	39	104	0	66	46434
2026-01-19 12:55:46.72	221.59	16.33	-47.8	-69.6	3.8	7.44e-01	0	39	104	0	66	46356
2026-01-19 12:55:47.71	221.78	16.42	-47.8	-69.6	3.8	7.46e-01	0	39	104	0	66	46397
2026-01-19 12:55:48.70	221.96	16.50	-47.8	-69.6	3.8	7.45e-01	0	39	104	0	66	46475
2026-01-19 12:55:49.69	222.15	16.59	-47.8	-69.6	3.8	7.49e-01	0	39	104	0	66	46396
2026-01-19 12:55:50.69	222.34	16.67	-47.8	-69.6	3.8	7.46e-01	0	39	104	0	66	46426
2026-01-19 12:55:51.68	222.53	16.76	-47.8	-69.6	3.8	7.47e-01	0	39	104	0	66	46367
2026-01-19 12:55:52.67	222.73	16.85	-47.8	-69.6	3.8	7.46e-01	0	39	104	0	66	46291
2026-01-19 12:55:53.67	222.92	16.93	-47.8	-69.6	3.8	7.45e-01	0	39	104	0	66	46322
2026-01-19 12:55:54.66	223.12	17.02	-47.8	-69.6	3.8	7.44e-01	0	39	104	0	66	46407
2026-01-19 12:55:55.65	223.31	17.11	-47.8	-69.6	3.8	7.43e-01	0	39	104	0	66	46322
2026-01-19 12:55:56.64	223.51	17.19	-47.8	-69.6	3.8	7.45e-01	0	39	104	0	66	46386
2026-01-19 12:55:57.64	223.71	17.28	-47.8	-69.6	3.8	7.45e-01	0	39	104	0	66	46358
2026-01-19 12:55:58.63	223.91	17.37	-47.8	-69.6	3.8	7.46e-01	0	39	104	0	66	46389
2026-01-19 12:55:59.62	224.11	17.45	-47.8	-69.6	3.8	7.45e-01	0	39	104	0	66	46373
2026-01-19 12:56:00.62	224.31	17.54	-47.8	-69.6	3.8	7.44e-01	0	39	104	0	66	46359
2026-01-19 12:56:01.61	224.51	17.63	-47.8	-69.6	3.8	7.46e-01	0	39	104	0	66	46376
2026-01-19 12:56:02.60	224.72	17.71	-47.8	-69.6	3.8	7.47e-01	0	39	104	0	66	46290
2026-01-19 12:56:03.59	224.92	17.80	-47.8	-69.6	3.8	7.46e-01	0	39	104	0	66	46327
2026-01-19 12:56:04.59	225.13	17.88	-47.8	-69.6	3.8	7.46e-01	0	39	104	0	66	46379
2026-01-19 12:56:05.58	225.34	17.97	-47.8	-69.6	3.8	7.46e-01	0	39	104	0	66	46357
2026-01-19 12:56:06.57	225.54	18.06	-47.8	-69.6	3.8	7.43e-01	0	39	104	0	66	46354
2026-01-19 12:56:07.57	225.76	18.14	-47.8	-69.6	3.8	7.45e-01	0	39	104	0	66	46335
2026-01-19 12:56:08.56	225.97	18.23	-47.8	-69.6	3.8	7.43e-01	0	39	104	0	66	46314
2026-01-19 12:56:09.55	226.18	18.32	-47.8	-69.6	3.8	7.48e-01	0	39	104	0	66	46305
2026-01-19 12:56:10.54	226.39	18.40	-47.8	-69.6	3.8	7.48e-01	0	39	104	0	66	46250
2026-01-19 12:56:11.54	226.61	18.49	-47.8	-69.6	3.8	7.45e-01	0	39	104	0	66	46368
2026-01-19 12:56:12.53	226.83	18.58	-47.8	-69.6	3.8	7.45e-01	0	39	104	0	66	46325
2026-01-19 12:56:13.52	227.04	18.66	-47.8	-69.6	3.8	7.47e-01	0	39	104	0	66	46423
2026-01-19 12:56:14.52	227.26	18.75	-47.8	-69.6	3.8	7.45e-01	0	39	104	0	66	46392
2026-01-19 12:56:15.51	227.48	18.84	-47.8	-69.6	3.8	7.46e-01	0	39	104	0	66	46257
2026-01-19 12:56:16.50	227.70	18.92	-47.8	-69.6	3.8	7.44e-01	0	39	104	0	66	46304
2026-01-19 12:56:17.49	227.93	19.01	-47.8	-69.6	3.8	7.47e-01	0	39	104	0	66	46311
2026-01-19 12:56:18.49	228.15	19.09	-47.8	-69.6	3.8	7.47e-01	0	39	104	0	66	46285
2026-01-19 12:56:19.48	228.38	19.18	-47.8	-69.6	3.8	7.43e-01	0	39	104	0	66	46381
2026-01-19 12:56:20.47	228.60	19.26	-47.8	-69.6	3.8	7.47e-01	0	39	104	0	66	46235
2026-01-19 12:56:21.47	228.83	19.35	-47.8	-69.6	3.8	7.49e-01	0	39	104	0	66	46304
2026-01-19 12:56:22.46	229.06	19.44	-47.8	-69.6	3.8	7.47e-01	0	39	104	0	66	46392
2026-01-19 12:56:23.45	229.29	19.52	-47.8	-69.6	3.8	7.48e-01	0	39	104	0	66	46343
2026-01-19 12:56:24.44	229.52	19.61	-47.8	-69.6	3.8	7.46e-01	0	39	104	0	66	46270
2026-01-19 12:56:25.44	229.76	19.69	-47.8	-69.6	3.8	7.45e-01	0	39	104	0	66	46263
2026-01-19 12:56:26.43	229.99	19.78	-47.8	-69.6	3.8	7.43e-01	0	39	104	0	66	46307
2026-01-19 12:56:27.42	230.23	19.86	-47.8	-69.6	3.8	7.46e-01	0	39	104	0	66	46305
2026-01-19 12:56:28.42	230.47	19.95	-47.8	-69.6	3.8	7.44e-01	0	39	104	0	66	46219
2026-01-19 12:56:29.41	230.71	20.03	-47.8	-69.6	3.8	7.42e-01	0	39	104	0	66	46265
2026-01-19 12:56:30.40	230.95	20.12	-47.8	-69.6	3.8	7.46e-01	0	39	104	0	66	46056
2026-01-19 12:56:31.40	231.19	20.20	-47.8	-69.6	3.8	7.44e-01	0	39	104	0	66	46133
2026-01-19 12:56:32.39	231.43	20.28	-47.8	-69.6	3.8	7.45e-01	0	39	104	0	66	46159
2026-01-19 12:56:33.38	231.68	20.37	-47.8	-69.6	3.8	7.48e-01	0	39	104	0	66	46163
2026-01-19 12:56:34.37	231.92	20.45	-47.8	-69.6	3.8	7.47e-01	0	39	104	0	66	46088
2026-01-19 12:56:35.37	232.17	20.53	-47.8	-69.6	3.8	7.47e-01	0	39	104	0	66	46023
2026-01-19 12:56:36.36	232.42	20.62	-47.8	-69.6	3.8	7.49e-01	0	39	104	0	66	46125
2026-01-19 12:56:37.35	232.67	20.70	-47.8	-69.6	3.8	7.47e-01	0	39	104	0	66	46214
2026-01-19 12:56:38.35	232.92	20.78	-47.8	-69.6	3.8	7.46e-01	0	39	104	0	66	46296
2026-01-19 12:56:39.34	233.17	20.87	-47.8	-69.6	3.8	7.45e-01	0	39	104	0	66	46224
2026-01-19 12:56:40.33	233.43	20.95	-47.8	-69.6	3.8	7.47e-01	0	39	104	0	66	46326
2026-01-19 12:56:41.33	233.68	21.03	-47.8	-69.6	3.8	7.44e-01	0	39	104	0	66	46324
2026-01-19 12:56:42.32	233.94	21.11	-47.8	-69.6	3.8	7.46e-01	0	39	104	0	66	46357
2026-01-19 12:56:43.31	234.20	21.19	-47.8	-69.6	3.8	7.47e-01	0	39	104	0	66	46309
2026-01-19 12:56:44.30	234.46	21.28	-47.8	-69.6	3.8	7.47e-01	0	39	104	0	66	46337
2026-01-19 12:56:45.30	234.72	21.36	-47.8	-69.6	3.8	7.43e-01	0	39	104	0	66	46248
2026-01-19 12:56:46.29	234.98	21.44	-47.8	-69.6	3.8	7.44e-01	0	39	104	0	66	46297
2026-01-19 12:56:47.28	235.24	21.52	-47.8	-69.6	3.8	7.44e-01	0	39	104	0	66	46310
2026-01-19 12:56:48.28	235.51	21.60	-47.8	-69.6	3.8	7.46e-01	0	39	104	0	66	46357
2026-01-19 12:56:49.27	235.78	21.68	-47.8	-69.6	3.8	7.48e-01	0	39	104	0	66	46257
2026-01-19 12:56:50.26	236.04	21.76	-47.8	-69.6	3.8	7.48e-01	0	39	104	0	66	46384
2026-01-19 12:56:51.26	236.32	21.84	-47.8	-69.6	3.8	7.45e-01	0	39	104	0	66	46281
2026-01-19 12:56:52.25	236.59	21.91	-47.8	-69.6	3.8	7.45e-01	0	39	104	0	66	46257
2026-01-19 12:56:53.24	236.86	21.99	-47.8	-69.6	3.8	7.45e-01	0	39	104	0	66	46252
2026-01-19 12:56:54.23	237.13	22.07	-47.8	-69.6	3.8	7.47e-01	0	39	104	0	66	46220
2026-01-19 12:56:55.23	237.41	22.15	-47.8	-69.6	3.8	7.47e-01	0	39	104	0	66	46255
2026-01-19 12:56:56.22	237.68	22.23	-47.8	-69.6	3.8	7.48e-01	0	39	104	0	66	46322
2026-01-19 12:56:57.21	237.96	22.30	-47.8	-69.6	3.8	7.46e-01	0	39	104	0	66	46248
2026-01-19 12:56:58.21	238.24	22.38	-47.8	-69.6	3.8	7.45e-01	0	39	104	0	66	46302
2026-01-19 12:56:59.20	238.52	22.46	-47.8	-69.6	3.8	7.45e-01	0	39	104	0	66	46159
2026-01-19 12:57:00.19	238.80	22.53	-47.8	-69.6	3.8	7.43e-01	0	39	104	0	66	46207
2026-01-19 12:57:01.19	239.09	22.61	-47.8	-69.6	3.8	7.47e-01	0	39	104	0	66	46334
2026-01-19 12:57:02.18	239.37	22.68	-47.8	-69.6	3.8	7.43e-01	0	39	104	0	66	46298
2026-01-19 12:57:03.17	239.66	22.75	-47.8	-69.6	3.8	7.48e-01	0	39	104	0	66	46297
2026-01-19 12:57:04.16	239.95	22.83	-47.8	-69.6	3.8	7.47e-01	0	39	104	0	66	46228
2026-01-19 12:57:05.16	240.24	22.90	-47.8	-69.6	3.8	7.46e-01	0	39	104	0	66	46351
2026-01-19 12:57:06.15	240.53	22.97	-47.8	-69.6	3.8	7.46e-01	0	39	104	0	66	46327
2026-01-19 12:57:07.14	240.82	23.05	-47.8	-69.6	3.8	7.47e-01	0	39	104	0	66	46336
2026-01-19 12:57:08.14	241.12	23.12	-47.8	-69.6	3.8	7.45e-01	0	39	104	0	66	46258
2026-01-19 12:57:09.13	241.41	23.19	-47.8	-69.6	3.8	7.46e-01	0	39	104	0	66	46244
2026-01-19 12:57:10.12	241.70	23.26	-47.8	-69.6	3.8	7.44e-01	0	39	104	0	66	46310
2026-01-19 12:57:11.12	242.00	23.33	-47.8	-69.6	3.8	7.46e-01	0	39	104	0	66	46302
2026-01-19 12:57:12.11	242.30	23.40	-47.8	-69.6	3.8	7.45e-01	0	39	104	0	66	46197
2026-01-19 12:57:13.10	242.60	23.47	-47.8	-69.6	3.8	7.44e-01	0	39	104	0	66	46360
2026-01-19 12:57:14.09	242.90	23.54	-47.8	-69.6	3.8	7.48e-01	0	39	104	0	66	46293
2026-01-19 12:57:15.09	243.21	23.60	-47.8	-69.6	3.8	7.48e-01	0	39	104	0	66	46357
2026-01-19 12:57:16.08	243.51	23.67	-47.8	-69.6	3.8	7.44e-01	0	39	104	0	66	46319
2026-01-19 12:57:17.07	243.82	23.74	-47.8	-69.6	3.8	7.46e-01	0	39	104	0	66	46389
2026-01-19 12:57:18.07	244.13	23.80	-47.8	-69.6	3.8	7.47e-01	0	39	104	0	66	46380
2026-01-19 12:57:19.06	244.43	23.87	-47.8	-69.6	3.8	7.48e-01	0	39	104	0	66	46306
2026-01-19 12:57:20.05	244.74	23.93	-47.8	-69.6	3.8	7.46e-01	0	39	104	0	66	46289
2026-01-19 12:57:21.05	245.05	24.00	-47.8	-69.6	3.8	7.48e-01	0	39	104	0	66	46331
2026-01-19 12:57:22.04	245.37	24.06	-47.8	-69.6	3.8	7.45e-01	0	39	104	0	66	46361
2026-01-19 12:57:23.03	245.68	24.12	-47.8	-69.6	3.8	7.45e-01	0	39	104	0	66	46407
2026-01-19 12:57:24.02	245.99	24.18	-47.8	-69.6	3.8	7.49e-01	0	39	104	0	66	46258
2026-01-19 12:57:25.02	246.31	24.25	-47.8	-69.6	3.8	7.44e-01	0	39	104	0	66	46363
2026-01-19 12:57:26.01	246.63	24.31	-47.8	-69.6	3.8	7.41e-01	0	39	104	0	66	46336
2026-01-19 12:57:27.00	246.94	24.37	-47.8	-69.6	3.8	7.43e-01	0	39	104	0	66	46339
2026-01-19 12:57:28.00	247.27	24.43	-47.8	-69.6	3.8	7.46e-01	0	39	104	0	66	46236
2026-01-19 12:57:28.99	247.59	24.48	-47.8	-69.6	3.8	7.44e-01	0	39	104	0	66	46439
2026-01-19 12:57:29.98	247.91	24.54	-47.8	-69.6	3.8	7.43e-01	0	39	104	0	66	46394
2026-01-19 12:57:30.97	248.23	24.60	-47.8	-69.6	3.8	7.46e-01	0	39	104	0	66	46321
2026-01-19 12:57:31.97	248.56	24.65	-47.8	-69.6	3.8	7.46e-01	0	39	104	0	66	46364
2026-01-19 12:57:32.96	248.88	24.71	-47.8	-69.6	3.8	7.47e-01	0	39	104	0	66	46351
2026-01-19 12:57:33.95	249.21	24.76	-47.8	-69.6	3.8	7.46e-01	0	39	104	0	66	46317
2026-01-19 12:57:34.95	249.54	24.82	-47.8	-69.6	3.8	7.49e-01	0	39	104	0	66	46308
2026-01-19 12:57:35.94	249.87	24.87	-47.8	-69.6	3.8	7.45e-01	0	39	104	0	66	46335
2026-01-19 12:57:36.93	250.19	24.92	-47.8	-69.6	3.8	7.47e-01	0	39	104	0	66	46371
2026-01-19 12:57:37.93	250.53	24.97	-47.8	-69.6	3.8	7.47e-01	0	39	104	0	66	46299
2026-01-19 12:57:38.92	250.86	25.02	-47.8	-69.6	3.8	7.47e-01	0	39	104	0	66	46320
2026-01-19 12:57:39.91	251.19	25.07	-47.8	-69.6	3.8	7.42e-01	0	39	104	0	66	46305
2026-01-19 12:57:40.91	251.53	25.12	-47.8	-69.6	3.8	7.47e-01	0	39	104	0	66	46345
2026-01-19 12:57:41.90	251.86	25.17	-47.8	-69.6	3.8	7.48e-01	0	39	104	0	66	46359
2026-01-19 12:57:42.89	252.20	25.21	-47.8	-69.6	3.8	7.45e-01	0	39	104	0	66	46186
2026-01-19 12:57:43.88	252.54	25.26	-47.8	-69.6	3.8	7.46e-01	0	39	104	0	66	46310
2026-01-19 12:57:44.88	252.88	25.30	-47.8	-69.6	3.8	7.46e-01	0	39	104	0	66	46203
2026-01-19 12:57:45.87	253.21	25.35	-47.8	-69.6	3.8	7.46e-01	0	39	104	0	66	46260
2026-01-19 12:57:46.86	253.55	25.39	-47.8	-69.6	3.8	7.47e-01	0	39	104	0	66	46324
2026-01-19 12:57:47.86	253.90	25.43	-47.8	-69.6	3.8	7.47e-01	0	39	104	0	66	46274
2026-01-19 12:57:48.85	254.24	25.47	-47.8	-69.6	3.8	7.44e-01	0	39	104	0	66	46294
2026-01-19 12:57:49.84	254.58	25.51	-47.8	-69.6	3.8	7.46e-01	0	39	104	0	66	46281
2026-01-19 12:57:50.84	254.93	25.55	-47.8	-69.6	3.8	7.46e-01	0	39	104	0	66	46285
2026-01-19 12:57:51.83	255.27	25.59	-47.8	-69.6	3.8	7.45e-01	0	39	104	0	66	46276
2026-01-19 12:57:52.82	255.62	25.62	-47.8	-69.6	3.8	7.45e-01	0	39	104	0	66	46375
2026-01-19 12:57:53.82	255.96	25.66	-47.8	-69.6	3.8	7.43e-01	0	39	104	0	66	46278
2026-01-19 12:57:54.81	256.31	25.70	-47.8	-69.6	3.8	7.45e-01	0	39	104	0	66	46037
2026-01-19 12:57:55.80	256.66	25.73	-47.8	-69.6	3.8	7.45e-01	0	39	104	0	66	46053
2026-01-19 12:57:56.79	257.01	25.76	-47.8	-69.6	3.8	7.47e-01	0	39	104	0	66	46205
2026-01-19 12:57:57.79	257.36	25.79	-47.8	-69.6	3.8	7.47e-01	0	39	104	0	66	46200
2026-01-19 12:57:58.78	257.71	25.82	-47.8	-69.6	3.8	7.49e-01	0	39	104	0	66	46290
2026-01-19 12:57:59.77	258.06	25.85	-47.7	-69.6	3.8	7.46e-01	0	39	104	0	66	46268
2026-01-19 12:58:00.77	258.41	25.88	-47.7	-69.6	3.8	7.44e-01	0	39	104	0	66	46304
2026-01-19 12:58:01.76	258.76	25.91	-47.7	-69.6	3.8	7.47e-01	0	39	104	0	66	46173
2026-01-19 12:58:02.75	259.11	25.94	-47.8	-69.6	3.8	7.45e-01	0	39	104	0	66	46252
2026-01-19 12:58:03.74	259.47	25.96	-47.7	-69.6	3.8	7.47e-01	0	39	104	0	66	46240
2026-01-19 12:58:04.74	259.82	25.99	-47.8	-69.6	3.8	7.47e-01	0	39	104	0	66	46231
2026-01-19 12:58:05.73	260.17	26.01	-47.8	-69.6	3.8	7.47e-01	0	39	104	0	66	46176
2026-01-19 12:58:06.72	260.53	26.03	-47.8	-69.6	3.8	7.46e-01	0	39	104	0	66	46270
2026-01-19 12:58:07.72	260.89	26.05	-47.8	-69.6	3.8	7.44e-01	0	39	104	0	66	46318
2026-01-19 12:58:08.71	261.24	26.07	-47.8	-69.6	3.8	7.45e-01	0	39	104	0	66	46306
2026-01-19 12:58:09.70	261.60	26.09	-47.8	-69.6	3.8	7.49e-01	0	39	104	0	66	46283
2026-01-19 12:58:10.70	261.96	26.11	-47.8	-69.6	3.8	7.48e-01	0	39	104	0	66	46287
2026-01-19 12:58:11.69	262.31	26.12	-47.8	-69.6	3.8	7.43e-01	0	39	104	0	66	46289
2026-01-19 12:58:12.68	262.67	26.14	-47.8	-69.6	3.8	7.46e-01	0	39	104	0	66	46272
2026-01-19 12:58:13.67	263.02	26.15	-47.8	-69.6	3.8	7.47e-01	0	39	104	0	66	46245
2026-01-19 12:58:14.67	263.38	26.17	-47.8	-69.6	3.8	7.48e-01	0	39	104	0	66	46346
2026-01-19 12:58:15.66	263.74	26.18	-47.8	-69.6	3.8	7.45e-01	0	39	104	0	66	46347
2026-01-19 12:58:16.65	264.10	26.19	-47.8	-69.6	3.8	7.46e-01	0	39	104	0	66	46312
2026-01-19 12:58:17.65	264.46	26.20	-47.8	-69.6	3.8	7.45e-01	0	39	104	0	66	46268
2026-01-19 12:58:18.64	264.82	26.21	-47.8	-69.6	3.8	7.43e-01	0	39	104	0	66	46249
2026-01-19 12:58:19.63	265.18	26.22	-47.8	-69.6	3.8	7.47e-01	0	39	104	0	66	46082
2026-01-19 12:58:20.63	265.54	26.22	-47.8	-69.6	3.8	7.47e-01	0	39	104	0	66	46242
2026-01-19 12:58:21.62	265.90	26.23	-47.8	-69.6	3.8	7.48e-01	0	39	104	0	66	46068
2026-01-19 12:58:22.61	266.26	26.23	-47.8	-69.6	3.8	7.49e-01	0	39	104	0	66	46102
2026-01-19 12:58:23.60	266.61	26.23	-47.8	-69.6	3.8	7.44e-01	0	39	104	0	66	46177
2026-01-19 12:58:24.60	266.98	26.24	-47.8	-69.6	3.8	7.50e-01	0	39	104	0	66	46188
2026-01-19 12:58:25.59	267.33	26.24	-47.8	-69.6	3.8	7.45e-01	0	39	104	0	66	46110
2026-01-19 12:58:26.58	267.69	26.24	-47.8	-69.6	3.8	7.49e-01	0	39	104	0	66	46125
2026-01-19 12:58:27.58	268.06	26.23	-47.8	-69.6	3.8	7.47e-01	0	39	104	0	66	46323
2026-01-19 12:58:28.57	268.41	26.23	-47.8	-69.6	3.8	7.46e-01	0	39	104	0	66	46340
2026-01-19 12:58:29.56	268.77	26.23	-47.8	-69.6	3.8	7.45e-01	0	39	104	0	66	46314
2026-01-19 12:58:30.55	269.13	26.22	-47.8	-69.6	3.8	7.45e-01	0	39	104	0	66	46347
2026-01-19 12:58:31.55	269.49	26.22	-47.8	-69.6	3.8	7.44e-01	0	39	104	0	66	46332
2026-01-19 12:58:32.54	269.85	26.21	-47.8	-69.6	3.8	7.46e-01	0	39	104	0	66	46324
2026-01-19 12:58:33.53	270.21	26.20	-47.8	-69.6	3.8	7.49e-01	0	39	104	0	66	46357
2026-01-19 12:58:34.52	270.57	26.19	-47.8	-69.6	3.8	7.45e-01	0	39	104	0	66	46253
2026-01-19 12:58:35.52	270.93	26.18	-47.8	-69.6	3.8	7.47e-01	0	39	104	0	66	46372
2026-01-19 12:58:36.51	271.28	26.17	-47.8	-69.6	3.8	7.45e-01	0	39	104	0	66	46280
2026-01-19 12:58:37.50	271.64	26.15	-47.8	-69.6	3.8	7.46e-01	0	39	104	0	66	46182
2026-01-19 12:58:38.50	272.00	26.14	-47.8	-69.6	3.8	7.47e-01	0	39	104	0	66	46290
2026-01-19 12:58:39.49	272.36	26.12	-47.7	-69.6	3.8	7.47e-01	0	39	104	0	66	46302
2026-01-19 12:58:40.48	272.71	26.11	-47.8	-69.6	3.8	7.48e-01	0	39	104	0	66	46057
2026-01-19 12:58:41.48	273.07	26.09	-47.8	-69.6	3.8	7.42e-01	0	39	104	0	66	46264
2026-01-19 12:58:42.47	273.42	26.07	-47.8	-69.6	3.8	7.45e-01	0	39	104	0	66	46293
2026-01-19 12:58:43.46	273.78	26.05	-47.8	-69.6	3.8	7.46e-01	0	39	104	0	66	46140
2026-01-19 12:58:44.45	274.13	26.03	-47.8	-69.6	3.8	7.47e-01	0	39	104	0	66	46119
2026-01-19 12:58:45.45	274.49	26.01	-47.8	-69.6	3.8	7.46e-01	0	39	104	0	66	46212
2026-01-19 12:58:46.44	274.84	25.98	-47.8	-69.6	3.8	7.45e-01	0	39	104	0	66	46282
2026-01-19 12:58:47.43	275.19	25.96	-47.8	-69.6	3.8	7.45e-01	0	39	104	0	66	46223
2026-01-19 12:58:48.43	275.55	25.93	-47.8	-69.6	3.8	7.46e-01	0	39	104	0	66	46188
2026-01-19 12:58:49.42	275.90	25.91	-47.8	-69.6	3.8	7.46e-01	0	39	104	0	66	46317
2026-01-19 12:58:50.41	276.25	25.88	-47.7	-69.6	3.8	7.47e-01	0	39	104	0	66	46268
2026-01-19 12:58:51.40	276.60	25.85	-47.8	-69.6	3.8	7.44e-01	0	39	104	0	66	46182
2026-01-19 12:58:52.40	276.95	25.82	-47.8	-69.6	3.8	7.47e-01	0	39	104	0	66	46200
2026-01-19 12:58:53.39	277.30	25.79	-47.8	-69.6	3.8	7.45e-01	0	39	104	0	66	46170
2026-01-19 12:58:54.38	277.65	25.76	-47.8	-69.6	3.8	7.46e-01	0	39	104	0	66	46062
2026-01-19 12:58:55.37	278.00	25.73	-47.8	-69.5	3.8	7.47e-01	0	39	104	0	66	45841
2026-01-19 12:58:56.37	278.35	25.69	-47.8	-69.5	3.8	7.47e-01	0	39	104	0	66	45609
2026-01-19 12:58:57.36	278.69	25.66	-47.8	-69.4	3.8	7.44e-01	0	39	104	0	66	45335
2026-01-19 12:58:58.35	279.04	25.62	-47.8	-69.5	3.8	7.44e-01	0	39	104	0	66	45559
2026-01-19 12:58:59.35	279.38	25.59	-47.8	-69.4	3.8	7.46e-01	0	39	104	0	66	45366
2026-01-19 12:59:00.34	279.73	25.55	-47.8	-69.5	3.8	7.43e-01	0	39	104	0	66	45472
2026-01-19 12:59:01.33	280.07	25.51	-47.8	-69.5	3.8	7.48e-01	0	39	104	0	66	45661
2026-01-19 12:59:02.32	280.41	25.47	-47.8	-69.5	3.8	7.47e-01	0	39	104	0	66	45859
2026-01-19 12:59:03.32	280.75	25.43	-47.8	-69.5	3.8	7.46e-01	0	39	104	0	66	45846
2026-01-19 12:59:04.31	281.09	25.39	-47.8	-69.5	3.8	7.46e-01	0	39	104	0	66	45827
2026-01-19 12:59:05.30	281.43	25.35	-47.8	-69.5	3.8	7.47e-01	0	39	104	0	66	45650
2026-01-19 12:59:06.30	281.77	25.30	-47.8	-69.5	3.8	7.45e-01	0	39	104	0	66	45624
2026-01-19 12:59:07.29	282.11	25.26	-47.8	-69.5	3.8	7.46e-01	0	39	104	0	66	45790
2026-01-19 12:59:08.28	282.44	25.21	-47.8	-69.5	3.8	7.45e-01	0	39	104	0	66	45774
2026-01-19 12:59:09.27	282.78	25.17	-47.8	-69.5	3.8	7.45e-01	0	39	104	0	66	45804
2026-01-19 12:59:10.27	283.12	25.12	-47.8	-69.5	3.8	7.48e-01	0	39	104	0	66	45843
2026-01-19 12:59:11.26	283.45	25.07	-47.8	-69.5	3.8	7.46e-01	0	39	104	0	66	45971
2026-01-19 12:59:12.25	283.78	25.02	-47.8	-69.6	3.8	7.45e-01	0	39	104	0	66	46069
2026-01-19 12:59:13.25	284.11	24.97	-47.8	-69.6	3.8	7.46e-01	0	39	104	0	66	46041
2026-01-19 12:59:14.24	284.44	24.92	-47.8	-69.5	3.8	7.46e-01	0	39	104	0	66	45893
2026-01-19 12:59:15.23	284.77	24.87	-47.8	-69.4	3.8	7.43e-01	0	39	104	0	66	45447
2026-01-19 12:59:16.22	285.10	24.82	-47.8	-69.4	3.8	7.41e-01	0	39	104	0	66	45130
2026-01-19 12:59:17.22	285.43	24.76	-47.7	-69.3	3.8	7.47e-01	0	39	104	0	66	44902
2026-01-19 12:59:18.21	285.75	24.71	-47.6	-69.2	3.8	7.44e-01	0	39	104	0	66	44146
2026-01-19 12:59:19.20	286.08	24.66	-47.6	-69.1	3.8	7.45e-01	0	39	104	0	66	43566
2026-01-19 12:59:20.20	286.40	24.60	-47.6	-69.0	3.8	7.43e-01	0	39	104	0	66	43383
2026-01-19 12:59:21.19	286.72	24.54	-47.6	-69.0	3.8	7.49e-01	0	39	104	0	66	43399
2026-01-19 12:59:22.18	287.04	24.49	-47.6	-69.1	3.8	7.47e-01	0	39	104	0	66	43762
2026-01-19 12:59:23.18	287.36	24.43	-47.6	-69.1	3.8	7.46e-01	0	39	104	0	66	43894
2026-01-19 12:59:24.17	287.68	24.37	-47.7	-69.3	3.8	7.45e-01	0	39	104	0	66	44528
2026-01-19 12:59:25.16	288.00	24.31	-47.7	-69.3	3.8	7.45e-01	0	39	104	0	66	44897
2026-01-19 12:59:26.15	288.31	24.25	-47.7	-69.4	3.8	7.46e-01	0	39	104	0	66	45153
2026-01-19 12:59:27.15	288.63	24.19	-47.7	-69.3	3.8	7.50e-01	0	39	104	0	66	44727
2026-01-19 12:59:28.14	288.94	24.13	-47.7	-69.3	3.8	7.45e-01	0	39	104	0	66	44772
2026-01-19 12:59:29.13	289.25	24.07	-47.7	-69.3	3.8	7.46e-01	0	39	104	0	66	44604
2026-01-19 12:59:30.13	289.57	24.00	-47.7	-69.3	3.8	7.47e-01	0	39	104	0	66	44917
2026-01-19 12:59:31.12	289.88	23.94	-47.7	-69.4	3.8	7.44e-01	0	39	104	0	66	45105
2026-01-19 12:59:32.11	290.18	23.87	-47.7	-69.4	3.8	7.46e-01	0	39	104	0	66	45162
2026-01-19 12:59:33.11	290.49	23.81	-47.7	-69.4	3.8	7.44e-01	0	39	104	0	66	45410
2026-01-19 12:59:34.10	290.80	23.74	-47.8	-69.5	3.8	7.46e-01	0	39	104	0	66	45675
2026-01-19 12:59:35.09	291.10	23.68	-47.8	-69.5	3.8	7.43e-01	0	39	104	0	66	45833
2026-01-19 12:59:36.08	291.40	23.61	-47.8	-69.6	3.8	7.44e-01	0	39	104	0	66	46050
2026-01-19 12:59:37.08	291.71	23.54	-47.8	-69.6	3.8	7.49e-01	0	39	104	0	66	46301
2026-01-19 12:59:38.07	292.01	23.48	-47.9	-69.6	3.8	7.48e-01	0	39	104	0	66	46421
2026-01-19 12:59:39.06	292.31	23.41	-47.9	-69.6	3.8	7.47e-01	0	39	104	0	66	46364
2026-01-19 12:59:40.06	292.61	23.34	-47.9	-69.6	3.8	7.46e-01	0	39	104	0	66	46420
2026-01-19 12:59:41.05	292.90	23.27	-47.8	-69.6	3.8	7.47e-01	0	39	104	0	66	46366
2026-01-19 12:59:42.04	293.19	23.20	-47.8	-69.6	3.8	7.40e-01	0	39	104	0	66	46426
2026-01-19 12:59:43.03	293.49	23.13	-47.8	-69.6	3.8	7.44e-01	0	39	104	0	66	46296
2026-01-19 12:59:44.03	293.78	23.06	-47.8	-69.6	3.8	7.42e-01	0	39	104	0	66	46382
2026-01-19 12:59:45.02	294.07	22.99	-47.8	-69.6	3.8	7.46e-01	0	39	104	0	66	46442
2026-01-19 12:59:46.01	294.36	22.91	-47.8	-69.6	3.8	7.45e-01	0	39	104	0	66	46362
2026-01-19 12:59:47.00	294.65	22.84	-47.8	-69.6	3.8	7.47e-01	0	39	104	0	66	46235
2026-01-19 12:59:48.00	294.94	22.77	-47.8	-69.6	3.8	7.45e-01	0	39	104	0	66	46303
2026-01-19 12:59:48.99	295.22	22.69	-47.9	-69.6	3.8	7.46e-01	0	39	104	0	66	46323
2026-01-19 12:59:49.98	295.50	22.62	-47.8	-69.6	3.8	7.42e-01	0	39	104	0	66	46315
2026-01-19 12:59:50.98	295.79	22.54	-47.8	-69.6	3.8	7.46e-01	0	39	104	0	66	46363
2026-01-19 12:59:51.97	296.07	22.47	-47.9	-69.6	3.8	7.45e-01	0	39	104	0	66	46426
2026-01-19 12:59:52.96	296.35	22.39	-47.8	-69.6	3.8	7.45e-01	0	39	104	0	66	46365
2026-01-19 12:59:53.96	296.63	22.32	-47.9	-69.6	3.8	7.46e-01	0	39	104	0	66	46453
2026-01-19 12:59:54.95	296.90	22.24	-47.9	-69.6	3.8	7.47e-01	0	39	104	0	66	46408
2026-01-19 12:59:55.94	297.18	22.17	-47.8	-69.6	3.8	7.49e-01	0	39	104	0	66	46452
2026-01-19 12:59:56.93	297.45	22.09	-47.9	-69.6	3.8	7.47e-01	0	39	104	0	66	46417
2026-01-19 12:59:57.93	297.73	22.01	-47.8	-69.6	3.8	7.45e-01	0	39	104	0	66	46365
2026-01-19 12:59:58.92	298.00	21.93	-47.9	-69.6	3.8	7.46e-01	0	39	104	0	66	46392
2026-01-19 12:59:59.91	298.27	21.86	-47.8	-69.6	3.8	7.46e-01	0	39	104	0	66	46289
2026-01-19 13:00:00.90	298.53	21.78	-47.9	-69.6	3.8	7.46e-01	0	39	104	0	66	46353
2026-01-19 13:00:01.90	298.80	21.70	-47.9	-69.6	3.8	7.47e-01	0	39	104	0	66	46303
2026-01-19 13:00:02.89	299.07	21.62	-47.8	-69.6	3.8	7.42e-01	0	39	104	0	66	46470
2026-01-19 13:00:03.88	299.33	21.54	-47.9	-69.6	3.8	7.46e-01	0	39	104	0	66	46448
2026-01-19 13:00:04.88	299.59	21.46	-47.8	-69.6	3.8	7.45e-01	0	39	104	0	66	46410
2026-01-19 13:00:05.87	299.86	21.38	-47.8	-69.7	3.8	7.46e-01	0	39	104	0	66	46555
2026-01-19 13:00:06.86	300.11	21.30	-47.9	-69.6	3.8	7.47e-01	0	39	104	0	66	46423
2026-01-19 13:00:07.85	300.37	21.22	-47.8	-69.6	3.8	7.47e-01	0	39	104	0	66	46467
2026-01-19 13:00:08.85	300.63	21.14	-47.8	-69.6	3.8	7.43e-01	0	39	104	0	66	46443
2026-01-19 13:00:09.84	300.89	21.06	-47.9	-69.6	3.8	7.42e-01	0	39	104	0	66	46415
2026-01-19 13:00:10.83	301.14	20.98	-47.9	-69.6	3.8	7.44e-01	0	39	104	0	66	46401
2026-01-19 13:00:11.83	301.39	20.89	-47.9	-69.6	3.8	7.45e-01	0	39	104	0	66	46487
2026-01-19 13:00:12.82	301.65	20.81	-47.9	-69.6	3.8	7.43e-01	0	39	104	0	66	46440
2026-01-19 13:00:13.81	301.89	20.73	-47.9	-69.6	3.8	7.47e-01	0	39	104	0	66	46446
2026-01-19 13:00:14.81	302.15	20.65	-47.9	-69.6	3.8	7.50e-01	0	39	104	0	66	46491
2026-01-19 13:00:15.80	302.39	20.56	-47.9	-69.6	3.8	7.45e-01	0	39	104	0	66	46419
2026-01-19 13:00:16.79	302.64	20.48	-47.9	-69.6	3.8	7.46e-01	0	39	104	0	66	46471
2026-01-19 13:00:17.79	302.88	20.40	-47.8	-69.6	3.8	7.46e-01	0	39	104	0	66	46476
2026-01-19 13:00:18.78	303.13	20.31	-47.9	-69.6	3.8	7.43e-01	0	39	104	0	66	46411
2026-01-19 13:00:19.77	303.37	20.23	-47.8	-69.6	3.8	7.48e-01	0	39	104	0	66	46467
2026-01-19 13:00:20.77	303.61	20.15	-47.8	-69.6	3.8	7.43e-01	0	39	104	0	66	46396
2026-01-19 13:00:21.76	303.85	20.06	-47.8	-69.6	3.8	7.48e-01	0	39	104	0	66	46422
2026-01-19 13:00:22.75	304.09	19.98	-47.8	-69.6	3.8	7.46e-01	0	39	104	0	66	46494
2026-01-19 13:00:23.74	304.32	19.90	-47.8	-69.6	3.8	7.46e-01	0	39	104	0	66	46464
2026-01-19 13:00:24.74	304.56	19.81	-47.8	-69.6	3.8	7.46e-01	0	39	104	0	66	46466
2026-01-19 13:00:25.73	304.79	19.73	-47.8	-69.6	3.8	7.49e-01	0	39	104	0	66	46454
2026-01-19 13:00:26.72	305.02	19.64	-47.8	-69.6	3.8	7.48e-01	0	39	104	0	66	46457
2026-01-19 13:00:27.72	305.26	19.56	-47.8	-69.6	3.8	7.42e-01	0	39	104	0	66	46385
2026-01-19 13:00:28.71	305.49	19.47	-47.8	-69.6	3.8	7.48e-01	0	39	104	0	66	46471
2026-01-19 13:00:29.70	305.71	19.39	-47.9	-69.6	3.8	7.49e-01	0	39	104	0	66	46496
2026-01-19 13:00:30.69	305.94	19.30	-47.8	-69.6	3.8	7.43e-01	0	39	104	0	66	46440
2026-01-19 13:00:31.69	306.17	19.22	-47.8	-69.6	3.8	7.46e-01	0	39	104	0	66	46452
2026-01-19 13:00:32.68	306.39	19.13	-47.8	-69.6	3.8	7.49e-01	0	39	104	0	66	46496
2026-01-19 13:00:33.67	306.61	19.05	-47.8	-69.6	3.8	7.47e-01	0	39	104	0	66	46452
2026-01-19 13:00:34.67	306.84	18.96	-47.8	-69.6	3.8	7.42e-01	0	39	104	0	66	46462
2026-01-19 13:00:35.66	307.06	18.88	-47.8	-69.6	3.8	7.47e-01	0	39	104	0	66	46455
2026-01-19 13:00:36.65	307.28	18.79	-47.8	-69.6	3.8	7.45e-01	0	39	104	0	66	46441
2026-01-19 13:00:37.64	307.49	18.71	-47.9	-69.6	3.8	7.47e-01	0	39	104	0	66	46433
2026-01-19 13:00:38.64	307.71	18.62	-47.9	-69.6	3.8	7.44e-01	0	39	104	0	66	46472
2026-01-19 13:00:39.63	307.93	18.54	-47.8	-69.6	3.8	7.43e-01	0	39	104	0	66	46442
2026-01-19 13:00:40.62	308.14	18.45	-47.8	-69.6	3.8	7.45e-01	0	39	104	0	66	46387
2026-01-19 13:00:41.62	308.36	18.36	-47.8	-69.6	3.8	7.44e-01	0	39	104	0	66	46435
2026-01-19 13:00:42.61	308.57	18.28	-47.8	-69.6	3.8	7.45e-01	0	39	104	0	66	46458
2026-01-19 13:00:43.60	308.78	18.19	-47.8	-69.6	3.8	7.41e-01	0	39	104	0	66	46438
2026-01-19 13:00:44.60	308.99	18.11	-47.8	-69.6	3.8	7.45e-01	0	39	104	0	66	46500
2026-01-19 13:00:45.59	309.20	18.02	-47.8	-69.7	3.8	7.42e-01	0	39	104	0	66	46535
2026-01-19 13:00:46.58	309.40	17.94	-47.8	-69.6	3.8	7.46e-01	0	39	104	0	66	46482
2026-01-19 13:00:47.58	309.61	17.85	-47.8	-69.7	3.8	7.47e-01	0	39	104	0	66	46556
2026-01-19 13:00:48.57	309.81	17.76	-47.8	-69.7	3.8	7.49e-01	0	39	104	0	66	46568
2026-01-19 13:00:49.56	310.02	17.68	-47.8	-69.7	3.8	7.45e-01	0	39	104	0	66	46539
2026-01-19 13:00:50.55	310.22	17.59	-47.8	-69.7	3.8	7.46e-01	0	39	104	0	66	46537
2026-01-19 13:00:51.55	310.42	17.51	-47.9	-69.6	3.8	7.49e-01	0	39	104	0	66	46505
2026-01-19 13:00:52.54	310.62	17.42	-47.8	-69.7	3.8	7.44e-01	0	39	104	0	66	46562
2026-01-19 13:00:53.53	310.82	17.34	-47.8	-69.7	3.8	7.48e-01	0	39	104	0	66	46548
2026-01-19 13:00:54.53	311.02	17.25	-47.8	-69.7	3.8	7.47e-01	0	39	104	0	66	46543
2026-01-19 13:00:55.52	311.21	17.16	-47.9	-69.6	3.8	7.46e-01	0	39	104	0	66	46409
2026-01-19 13:00:56.51	311.41	17.08	-47.8	-69.7	3.8	7.44e-01	0	39	104	0	66	46537
2026-01-19 13:00:57.51	311.60	16.99	-47.9	-69.6	3.8	7.47e-01	0	39	104	0	66	46480
2026-01-19 13:00:58.50	311.79	16.91	-47.9	-69.6	3.8	7.49e-01	0	39	104	0	66	46498
2026-01-19 13:00:59.49	311.99	16.82	-47.9	-69.7	3.8	7.44e-01	0	39	104	0	66	46591
2026-01-19 13:01:00.48	312.18	16.74	-47.9	-69.6	3.8	7.46e-01	0	39	104	0	66	46465
2026-01-19 13:01:01.48	312.37	16.65	-47.9	-69.7	3.8	7.48e-01	0	39	104	0	66	46601
2026-01-19 13:01:02.47	312.55	16.57	-47.8	-69.7	3.8	7.48e-01	0	39	104	0	66	46559
2026-01-19 13:01:03.46	312.74	16.48	-47.8	-69.7	3.8	7.46e-01	0	39	104	0	66	46524
2026-01-19 13:01:04.46	312.93	16.39	-47.8	-69.6	3.8	7.46e-01	0	39	104	0	66	46504
2026-01-19 13:01:05.45	313.11	16.31	-47.9	-69.7	3.8	7.45e-01	0	39	104	0	66	46533
2026-01-19 13:01:06.44	313.30	16.22	-47.8	-69.6	3.8	7.48e-01	0	39	104	0	66	46471
2026-01-19 13:01:07.44	313.48	16.14	-47.8	-69.6	3.8	7.45e-01	0	39	104	0	66	46475
2026-01-19 13:01:08.43	313.66	16.05	-47.8	-69.7	3.8	7.48e-01	0	39	104	0	66	46594
2026-01-19 13:01:09.42	313.84	15.97	-47.9	-69.7	3.8	7.44e-01	0	39	104	0	66	46516
2026-01-19 13:01:10.41	314.02	15.88	-47.8	-69.7	3.8	7.46e-01	0	39	104	0	66	46578
2026-01-19 13:01:11.41	314.20	15.80	-47.9	-69.7	3.8	7.47e-01	0	39	104	0	66	46546
2026-01-19 13:01:12.40	314.38	15.71	-47.9	-69.7	3.8	7.45e-01	0	39	104	0	66	46561
2026-01-19 13:01:13.39	314.55	15.63	-47.8	-69.6	3.8	7.46e-01	0	39	104	0	66	46513
2026-01-19 13:01:14.39	314.73	15.54	-47.9	-69.7	3.8	7.44e-01	0	39	104	0	66	46546
2026-01-19 13:01:15.38	314.90	15.46	-47.9	-69.7	3.8	7.49e-01	0	39	104	0	66	46533
2026-01-19 13:01:16.37	315.08	15.38	-47.9	-69.7	3.8	7.45e-01	0	39	104	0	66	46546
2026-01-19 13:01:17.37	315.25	15.29	-47.9	-69.7	3.8	7.48e-01	0	39	104	0	66	46575
2026-01-19 13:01:18.36	315.42	15.21	-47.8	-69.6	3.8	7.46e-01	0	39	104	0	66	46488
2026-01-19 13:01:19.35	315.59	15.12	-47.8	-69.7	3.8	7.47e-01	0	39	104	0	66	46572
2026-01-19 13:01:20.35	315.76	15.04	-47.9	-69.7	3.8	7.44e-01	0	39	104	0	66	46676
2026-01-19 13:01:21.34	315.93	14.96	-47.9	-69.7	3.8	7.48e-01	0	39	104	0	66	46562
2026-01-19 13:01:22.33	316.10	14.87	-47.9	-69.7	3.8	7.45e-01	0	39	104	0	66	46582
2026-01-19 13:01:23.32	316.26	14.79	-47.9	-69.6	3.8	7.46e-01	0	39	104	0	66	46512
2026-01-19 13:01:24.32	316.43	14.70	-47.9	-69.7	3.8	7.47e-01	0	39	104	0	66	46670
2026-01-19 13:01:25.31	316.59	14.62	-47.9	-69.7	3.8	7.44e-01	0	39	104	0	66	46564
2026-01-19 13:01:26.30	316.76	14.54	-47.9	-69.6	3.8	7.50e-01	0	39	104	0	66	46481
2026-01-19 13:01:27.29	316.92	14.46	-47.9	-69.6	3.8	7.49e-01	0	39	104	0	66	46459
2026-01-19 13:01:28.29	317.08	14.37	-47.9	-69.7	3.8	7.42e-01	0	39	104	0	66	46591
2026-01-19 13:01:29.28	317.24	14.29	-47.9	-69.7	3.8	7.49e-01	0	39	104	0	66	46594
2026-01-19 13:01:30.27	317.40	14.21	-47.9	-69.7	3.8	7.48e-01	0	39	104	0	66	46625
2026-01-19 13:01:31.27	317.56	14.12	-47.9	-69.7	3.8	7.44e-01	0	39	104	0	66	46563
2026-01-19 13:01:32.26	317.72	14.04	-47.9	-69.7	3.8	7.46e-01	0	39	104	0	66	46548
2026-01-19 13:01:33.25	317.87	13.96	-47.9	-69.7	3.8	7.45e-01	0	39	104	0	66	46643
2026-01-19 13:01:34.25	318.03	13.88	-47.9	-69.7	3.8	7.44e-01	0	39	104	0	66	46545
2026-01-19 13:01:35.24	318.19	13.79	-47.8	-69.7	3.8	7.45e-01	0	39	104	0	66	46574
2026-01-19 13:01:36.23	318.34	13.71	-47.9	-69.7	3.8	7.44e-01	0	39	104	0	66	46590
2026-01-19 13:01:37.22	318.49	13.63	-47.9	-69.7	3.8	7.42e-01	0	39	104	0	66	46599
2026-01-19 13:01:38.22	318.65	13.55	-47.9	-69.7	3.8	7.41e-01	0	39	104	0	66	46564
2026-01-19 13:01:39.21	318.80	13.47	-47.9	-69.7	3.8	7.43e-01	0	39	104	0	66	46685
2026-01-19 13:01:40.20	318.95	13.38	-47.9	-69.7	3.8	7.47e-01	0	39	104	0	66	46567
2026-01-19 13:01:41.20	319.10	13.30	-47.9	-69.7	3.8	7.44e-01	0	39	104	0	66	46606
2026-01-19 13:01:42.19	319.25	13.22	-47.9	-69.7	3.8	7.46e-01	0	39	104	0	66	46630
2026-01-19 13:01:43.18	319.40	13.14	-47.9	-69.7	3.8	7.44e-01	0	39	104	0	66	46594
2026-01-19 13:01:44.17	319.54	13.06	-47.9	-69.7	3.8	7.45e-01	0	39	104	0	66	46547
2026-01-19 13:01:45.17	319.69	12.98	-47.9	-69.7	3.8	7.44e-01	0	39	104	0	66	46515
2026-01-19 13:01:46.16	319.84	12.90	-47.9	-69.7	3.8	7.48e-01	0	39	104	0	66	46573
2026-01-19 13:01:47.15	319.98	12.82	-47.9	-69.7	3.8	7.50e-01	0	39	104	0	66	46611
2026-01-19 13:01:48.15	320.12	12.74	-47.9	-69.7	3.8	7.47e-01	0	39	104	0	66	46560
2026-01-19 13:01:49.14	320.27	12.66	-47.9	-69.7	3.8	7.48e-01	0	39	104	0	66	46576
2026-01-19 13:01:50.13	320.41	12.58	-47.9	-69.7	3.8	7.48e-01	0	39	104	0	66	46583
2026-01-19 13:01:51.12	320.55	12.50	-47.9	-69.7	3.8	7.46e-01	0	39	104	0	66	46629
2026-01-19 13:01:52.12	320.69	12.42	-47.8	-69.7	3.8	7.44e-01	0	39	104	0	66	46618
2026-01-19 13:01:53.11	320.83	12.34	-47.9	-69.7	3.8	7.46e-01	0	39	104	0	66	46624
2026-01-19 13:01:54.10	320.97	12.26	-47.9	-69.7	3.8	7.47e-01	0	39	104	0	66	46682
2026-01-19 13:01:55.10	321.11	12.18	-47.9	-69.7	3.8	7.48e-01	0	39	104	0	66	46550
2026-01-19 13:01:56.09	321.25	12.10	-47.8	-69.7	3.8	7.46e-01	0	39	104	0	66	46634
2026-01-19 13:01:57.08	321.38	12.02	-47.8	-69.7	3.8	7.44e-01	0	39	104	0	66	46662
2026-01-19 13:01:58.08	321.52	11.94	-47.9	-69.7	3.8	7.46e-01	0	39	104	0	66	46548
2026-01-19 13:01:59.07	321.66	11.86	-47.9	-69.7	3.8	7.46e-01	0	39	104	0	66	46603
2026-01-19 13:02:00.06	321.79	11.78	-47.9	-69.7	3.8	7.43e-01	0	39	104	0	66	46590
2026-01-19 13:02:01.06	321.93	11.70	-47.9	-69.7	3.8	7.47e-01	0	39	104	0	66	46572
2026-01-19 13:02:02.05	322.06	11.62	-47.9	-69.7	3.8	7.42e-01	0	39	104	0	66	46604
2026-01-19 13:02:03.04	322.19	11.55	-47.9	-69.7	3.8	7.48e-01	0	39	104	0	66	46625
2026-01-19 13:02:04.04	322.32	11.47	-47.9	-69.7	3.8	7.52e-01	0	39	104	0	66	46634
2026-01-19 13:02:05.03	322.45	11.39	-47.9	-69.7	3.8	7.44e-01	0	39	104	0	66	46642
2026-01-19 13:02:06.02	322.58	11.31	-47.9	-69.7	3.8	7.48e-01	0	39	104	0	66	46520
2026-01-19 13:02:07.01	322.71	11.24	-47.9	-69.7	3.8	7.46e-01	0	39	104	0	66	46597
2026-01-19 13:02:08.01	322.84	11.16	-47.9	-69.7	3.8	7.47e-01	0	39	104	0	66	46574
2026-01-19 13:02:09.00	322.97	11.08	-47.9	-69.6	3.8	7.46e-01	0	39	104	0	66	46506
2026-01-19 13:02:09.99	323.10	11.00	-47.8	-69.7	3.8	7.43e-01	0	39	104	0	66	46588
2026-01-19 13:02:10.99	323.22	10.93	-47.9	-69.7	3.8	7.48e-01	0	39	104	0	66	46609
2026-01-19 13:02:11.98	323.35	10.85	-47.9	-69.7	3.8	7.43e-01	0	39	104	0	66	46607
2026-01-19 13:02:12.97	323.47	10.77	-47.8	-69.7	3.8	7.46e-01	0	39	104	0	66	46621
2026-01-19 13:02:13.97	323.60	10.70	-47.9	-69.7	3.8	7.48e-01	0	39	104	0	66	46610
2026-01-19 13:02:14.96	323.72	10.62	-47.9	-69.7	3.8	7.46e-01	0	39	104	0	66	46558
2026-01-19 13:02:15.95	323.85	10.54	-47.9	-69.7	3.8	7.49e-01	0	39	104	0	66	46627
2026-01-19 13:02:16.94	323.97	10.47	-47.9	-69.7	3.8	7.46e-01	0	39	104	0	66	46573
2026-01-19 13:02:17.94	324.09	10.39	-47.9	-69.7	3.8	7.48e-01	0	39	104	0	66	46603
2026-01-19 13:02:18.93	324.21	10.32	-47.9	-69.7	3.8	7.47e-01	0	39	104	0	66	46607
2026-01-19 13:02:19.92	324.33	10.24	-47.9	-69.7	3.8	7.45e-01	0	39	104	0	66	46554
2026-01-19 13:02:20.92	324.45	10.16	-47.9	-69.7	3.8	7.46e-01	0	39	104	0	66	46637
2026-01-19 13:02:21.91	324.57	10.09	-47.9	-69.7	3.8	7.49e-01	0	39	104	0	66	46699
2026-01-19 13:02:22.90	324.69	10.01	-47.8	-69.7	3.8	7.48e-01	0	39	104	0	66	46625
2026-01-19 13:02:23.89	324.81	9.94	-47.8	-69.7	3.8	7.46e-01	0	39	104	0	66	46671
2026-01-19 13:02:24.89	324.93	9.86	-47.9	-69.7	3.8	7.47e-01	0	39	104	0	66	46626
2026-01-19 13:02:25.88	325.04	9.79	-47.9	-69.7	3.8	7.46e-01	0	39	104	0	66	46618
2026-01-19 13:02:26.87	325.16	9.72	-47.9	-69.7	3.8	7.46e-01	0	39	104	0	66	46617
2026-01-19 13:02:27.87	325.28	9.64	-47.9	-69.7	3.8	7.46e-01	0	39	104	0	66	46624
2026-01-19 13:02:28.86	325.39	9.57	-47.9	-69.7	3.8	7.47e-01	0	39	104	0	66	46654
2026-01-19 13:02:29.85	325.50	9.49	-47.9	-69.7	3.8	7.43e-01	0	39	104	0	66	46600
2026-01-19 13:02:30.85	325.62	9.42	-47.9	-69.6	3.8	7.45e-01	0	39	104	0	66	46507
2026-01-19 13:02:31.84	325.73	9.34	-47.9	-69.7	3.8	7.44e-01	0	39	104	0	66	46533
2026-01-19 13:02:32.83	325.84	9.27	-47.9	-69.7	3.8	7.47e-01	0	39	104	0	66	46683
2026-01-19 13:02:33.82	325.96	9.20	-47.9	-69.7	3.8	7.45e-01	0	39	104	0	66	46671
2026-01-19 13:02:34.82	326.07	9.12	-47.9	-69.7	3.8	7.45e-01	0	39	104	0	66	46562
2026-01-19 13:02:35.81	326.18	9.05	-47.8	-69.7	3.8	7.45e-01	0	39	104	0	66	46576
2026-01-19 13:02:36.80	326.29	8.98	-47.9	-69.7	3.8	7.50e-01	0	39	104	0	66	46531
2026-01-19 13:02:37.80	326.40	8.91	-47.8	-69.7	3.8	7.47e-01	0	39	104	0	66	46563
2026-01-19 13:02:38.79	326.51	8.83	-47.9	-69.7	3.8	7.44e-01	0	39	104	0	66	46540
2026-01-19 13:02:39.78	326.62	8.76	-47.9	-69.7	3.8	7.44e-01	0	39	104	0	66	46614
2026-01-19 13:02:40.78	326.72	8.69	-47.9	-69.7	3.8	7.45e-01	0	39	104	0	66	46569
2026-01-19 13:02:41.77	326.83	8.62	-47.9	-69.7	3.8	7.45e-01	0	39	104	0	66	46676
2026-01-19 13:02:42.76	326.94	8.54	-47.9	-69.7	3.8	7.47e-01	0	39	104	0	66	46576
2026-01-19 13:02:43.75	327.04	8.47	-47.9	-69.7	3.8	7.47e-01	0	39	104	0	66	46660
2026-01-19 13:02:44.75	327.15	8.40	-47.9	-69.6	3.8	7.44e-01	0	39	104	0	66	46496
2026-01-19 13:02:45.74	327.26	8.33	-47.9	-69.6	3.8	7.42e-01	0	39	104	0	66	46484
2026-01-19 13:02:46.73	327.36	8.26	-47.9	-69.7	3.8	7.44e-01	0	39	104	0	66	46618
2026-01-19 13:02:47.73	327.47	8.19	-47.9	-69.7	3.8	7.47e-01	0	39	104	0	66	46568
2026-01-19 13:02:48.72	327.57	8.11	-47.9	-69.7	3.8	7.48e-01	0	39	104	0	66	46564
2026-01-19 13:02:49.71	327.67	8.04	-47.9	-69.7	3.8	7.43e-01	0	39	104	0	66	46602
2026-01-19 13:02:50.71	327.77	7.97	-47.9	-69.7	3.8	7.49e-01	0	39	104	0	66	46521
2026-01-19 13:02:51.70	327.88	7.90	-47.9	-69.7	3.8	7.45e-01	0	39	104	0	66	46533
2026-01-19 13:02:52.69	327.98	7.83	-47.9	-69.7	3.8	7.48e-01	0	39	104	0	66	46585
2026-01-19 13:02:53.68	328.08	7.76	-47.9	-69.7	3.8	7.45e-01	0	39	104	0	66	46613
2026-01-19 13:02:54.68	328.18	7.69	-47.9	-69.7	3.8	7.45e-01	0	39	104	0	66	46640
2026-01-19 13:02:55.67	328.28	7.62	-47.9	-69.6	3.8	7.46e-01	0	39	104	0	66	46506
2026-01-19 13:02:56.66	328.38	7.55	-47.9	-69.7	3.8	7.46e-01	0	39	104	0	66	46673
2026-01-19 13:02:57.66	328.48	7.48	-47.9	-69.7	3.8	7.46e-01	0	39	104	0	66	46584
2026-01-19 13:02:58.65	328.58	7.41	-47.9	-69.7	3.8	7.46e-01	0	39	104	0	66	46614
2026-01-19 13:02:59.64	328.67	7.34	-47.9	-69.7	3.8	7.45e-01	0	39	104	0	66	46579
2026-01-19 13:03:00.63	328.77	7.27	-47.9	-69.7	3.8	7.44e-01	0	39	104	0	66	46531
2026-01-19 13:03:01.63	328.87	7.20	-47.9	-69.7	3.8	7.48e-01	0	39	104	0	66	46630
2026-01-19 13:03:02.62	328.97	7.13	-47.9	-69.7	3.8	7.48e-01	0	39	104	0	66	46519
2026-01-19 13:03:03.61	329.06	7.07	-47.9	-69.7	3.8	7.47e-01	0	39	104	0	66	46514
2026-01-19 13:03:04.61	329.16	7.00	-47.9	-69.7	3.8	7.44e-01	0	39	104	0	66	46639
2026-01-19 13:03:05.60	329.25	6.93	-47.9	-69.7	3.8	7.46e-01	0	39	104	0	66	46580
2026-01-19 13:03:06.59	329.35	6.86	-47.9	-69.6	3.8	7.47e-01	0	39	104	0	66	46506
2026-01-19 13:03:07.59	329.44	6.79	-47.9	-69.7	3.8	7.46e-01	0	39	104	0	66	46598
2026-01-19 13:03:08.58	329.54	6.72	-47.0	-69.6	3.8	7.44e-01	0	39	104	0	66	46474
2026-01-19 13:03:09.57	329.63	6.66	-47.2	-69.7	3.8	7.45e-01	0	39	104	0	66	46671
2026-01-19 13:03:10.56	329.72	6.59	-47.3	-69.7	3.8	7.48e-01	0	39	104	0	66	46600
2026-01-19 13:03:11.56	329.82	6.52	-47.3	-69.7	3.8	7.45e-01	0	39	104	0	66	46612
2026-01-19 13:03:12.55	329.91	6.45	-47.1	-69.7	3.8	7.48e-01	0	39	104	0	66	46516
2026-01-19 13:03:13.54	330.00	6.38	-47.8	-69.7	3.8	7.47e-01	0	39	104	0	66	46534
2026-01-19 13:03:14.54	330.09	6.32	-47.8	-69.7	3.8	7.46e-01	0	39	104	0	66	46614
2026-01-19 13:03:15.53	330.18	6.25	-47.8	-69.7	3.8	7.45e-01	0	39	104	0	66	46625
2026-01-19 13:03:16.52	330.27	6.18	-47.7	-69.7	3.8	7.45e-01	0	39	104	0	66	46537
2026-01-19 13:03:17.51	330.36	6.12	-47.7	-69.7	3.8	7.47e-01	0	39	104	0	66	46689
2026-01-19 13:03:18.51	330.45	6.05	-47.8	-69.7	3.8	7.46e-01	0	39	104	0	66	46555
2026-01-19 13:03:19.50	330.54	5.98	-47.8	-69.7	3.8	7.46e-01	0	39	104	0	66	46645
2026-01-19 13:03:20.49	330.63	5.92	-47.8	-69.7	3.8	7.46e-01	0	39	104	0	66	46659
2026-01-19 13:03:21.48	330.72	5.85	-47.8	-69.7	3.8	7.50e-01	0	39	104	0	66	46687
2026-01-19 13:03:22.48	330.80	5.78	-47.8	-69.7	3.8	7.42e-01	0	39	104	0	66	46641
2026-01-19 13:03:23.47	330.89	5.72	-47.9	-69.7	3.8	7.47e-01	0	39	104	0	66	46596
2026-01-19 13:03:24.46	330.98	5.65	-47.9	-69.7	3.8	7.46e-01	0	39	104	0	66	46756
2026-01-19 13:03:25.45	331.06	5.59	-47.9	-69.7	3.8	7.45e-01	0	39	104	0	66	46688
2026-01-19 13:03:26.45	331.15	5.52	-47.9	-69.7	3.8	7.48e-01	0	39	104	0	66	46656
2026-01-19 13:03:27.44	331.24	5.45	-47.9	-69.7	3.8	7.45e-01	0	39	104	0	66	46703
2026-01-19 13:03:28.43	331.32	5.39	-47.9	-69.7	3.8	7.50e-01	0	39	104	0	66	46655
2026-01-19 13:03:29.43	331.41	5.32	-47.9	-69.7	3.8	7.45e-01	0	39	104	0	66	46563
2026-01-19 13:03:30.42	331.49	5.26	-47.9	-69.7	3.8	7.46e-01	0	39	104	0	66	46665
2026-01-19 13:03:31.41	331.58	5.19	-47.9	-69.7	3.8	7.44e-01	0	39	104	0	66	46633
2026-01-19 13:03:32.41	331.66	5.13	-47.9	-69.7	3.8	7.47e-01	0	39	104	0	66	46693
2026-01-19 13:03:33.40	331.74	5.06	-47.9	-69.7	3.8	7.46e-01	0	39	104	0	66	46641
2026-01-19 13:03:34.39	331.83	5.00	-47.9	-69.7	3.8	7.46e-01	0	39	104	0	66	46637

#Closed at: 2026-01-19 13:03:35
#Recorded file [0 MB]: D:/Data/31040_260119_155320.dat