passes_logs/2026/01/19/T1/T1__20260119_141330_FENGYUN_3E_rec.log

#Pass ID: 20260119_141330_FENGYUN 3E
#Satellite: FENGYUN 3E
#Configuration: FENGYUN 3E
#almurnet v.1.7.20251203
#Start time: 2026-01-19 14:13:31

#Version: 2.0.20230620
#Station: T1
#Location: 37.570604 lon 55.790049 lat
#TLE: 1 49008U 21062A   26018.95190407 -.00000301  00000+0 -12097-3 0  9991
#TLE: 2 49008  98.7482  24.0337 0002210 129.7386 230.3985 14.19884646235406

#Time	Az	El	Level	Level2	SNR	BER	BlckErr	Temp	State	Recorded	gain1	gain2
2026-01-19 14:13:31.70	160.75	5.10	-47.3	-59.1	3.8	8.46e-01	0	41	0	0	64	14516
2026-01-19 14:13:32.69	160.76	5.18	-47.3	-59.1	3.8	8.47e-01	0	41	104	0	65	13722
2026-01-19 14:13:33.68	160.76	5.25	-47.3	-59.1	3.8	8.47e-01	0	41	104	0	65	13632
2026-01-19 14:13:34.67	160.76	5.32	-47.3	-59.1	3.8	8.47e-01	0	41	104	0	65	13713
2026-01-19 14:13:35.66	160.76	5.39	-47.2	-59.1	3.8	8.47e-01	0	41	104	0	65	13722
2026-01-19 14:13:36.66	160.77	5.46	-47.3	-59.2	3.8	8.46e-01	0	41	104	0	65	13765
2026-01-19 14:13:37.65	160.77	5.54	-47.3	-59.1	3.8	8.47e-01	0	41	104	0	65	13697
2026-01-19 14:13:38.64	160.77	5.61	-47.3	-59.1	3.8	8.48e-01	0	41	104	0	65	13701
2026-01-19 14:13:39.64	160.77	5.68	-47.3	-59.1	3.8	8.47e-01	0	41	104	0	65	13651
2026-01-19 14:13:40.63	160.78	5.76	-47.3	-59.1	3.8	8.47e-01	0	41	104	0	65	13644
2026-01-19 14:13:41.62	160.78	5.83	-47.3	-59.1	3.8	8.47e-01	0	41	104	0	65	13635
2026-01-19 14:13:42.62	160.78	5.90	-47.2	-59.1	3.8	8.47e-01	0	41	104	0	65	13624
2026-01-19 14:13:43.61	160.78	5.98	-47.3	-59.1	3.8	8.46e-01	0	41	104	0	65	13683
2026-01-19 14:13:44.60	160.78	6.05	-47.2	-59.1	3.8	8.48e-01	0	41	104	0	65	13711
2026-01-19 14:13:45.60	160.79	6.13	-47.3	-59.1	3.8	8.47e-01	0	41	104	0	65	13718
2026-01-19 14:13:46.59	160.79	6.20	-47.3	-59.1	3.8	8.47e-01	0	42	104	0	65	13614
2026-01-19 14:13:47.58	160.79	6.28	-47.3	-59.1	3.8	8.46e-01	0	42	104	0	65	13700
2026-01-19 14:13:48.58	160.79	6.35	-47.3	-59.2	3.8	8.47e-01	0	42	104	0	65	13730
2026-01-19 14:13:49.57	160.80	6.43	-47.3	-59.1	3.8	8.47e-01	0	42	104	0	65	13717
2026-01-19 14:13:50.56	160.80	6.50	-47.3	-59.1	3.8	8.47e-01	0	42	104	0	65	13677
2026-01-19 14:13:51.55	160.80	6.58	-47.3	-59.1	3.8	8.47e-01	0	42	104	0	65	13645
2026-01-19 14:13:52.55	160.80	6.65	-47.3	-59.1	3.8	8.47e-01	0	42	104	0	65	13620
2026-01-19 14:13:53.54	160.81	6.73	-47.3	-59.2	3.8	8.47e-01	0	42	104	0	65	13730
2026-01-19 14:13:54.53	160.81	6.80	-47.3	-59.1	3.8	8.46e-01	0	42	104	0	65	13697
2026-01-19 14:13:55.53	160.81	6.88	-47.3	-59.1	3.8	8.47e-01	0	42	104	0	65	13614
2026-01-19 14:13:56.52	160.81	6.96	-47.3	-59.1	3.8	8.47e-01	0	42	104	0	65	13667
2026-01-19 14:13:57.51	160.82	7.04	-47.3	-59.1	3.8	8.47e-01	0	42	104	0	65	13703
2026-01-19 14:13:58.50	160.82	7.11	-47.3	-59.2	3.8	8.47e-01	0	42	104	0	65	13750
2026-01-19 14:13:59.50	160.82	7.19	-47.3	-59.1	3.8	8.46e-01	0	42	104	0	65	13637
2026-01-19 14:14:00.49	160.82	7.27	-47.3	-59.1	3.8	8.46e-01	0	42	104	0	65	13678
2026-01-19 14:14:01.48	160.83	7.35	-47.3	-59.1	3.8	8.47e-01	0	42	104	0	65	13726
2026-01-19 14:14:02.48	160.83	7.42	-47.3	-59.2	3.8	8.46e-01	0	42	104	0	65	13741
2026-01-19 14:14:03.47	160.83	7.50	-47.2	-59.1	3.8	8.48e-01	0	42	104	0	65	13630
2026-01-19 14:14:04.46	160.83	7.58	-47.2	-59.1	3.8	8.48e-01	0	42	104	0	65	13609
2026-01-19 14:14:05.46	160.84	7.66	-47.3	-59.2	3.8	8.47e-01	0	42	104	0	65	13747
2026-01-19 14:14:06.45	160.84	7.74	-47.3	-59.1	3.8	8.46e-01	0	42	104	0	65	13722
2026-01-19 14:14:07.44	160.84	7.82	-47.3	-59.1	3.8	8.46e-01	0	42	104	0	65	13681
2026-01-19 14:14:08.44	160.84	7.90	-47.3	-59.1	3.8	8.46e-01	0	42	104	0	65	13659
2026-01-19 14:14:09.43	160.85	7.98	-47.3	-59.1	3.8	8.46e-01	0	42	104	0	65	13672
2026-01-19 14:14:10.42	160.85	8.06	-47.3	-59.1	3.8	8.48e-01	0	42	104	0	65	13675
2026-01-19 14:14:11.41	160.85	8.14	-47.3	-59.2	3.8	8.46e-01	0	42	104	0	65	13750
2026-01-19 14:14:12.41	160.85	8.22	-47.3	-59.2	3.8	8.46e-01	0	42	104	0	65	13728
2026-01-19 14:14:13.40	160.85	8.30	-47.3	-59.1	3.8	8.46e-01	0	42	104	0	65	13710
2026-01-19 14:14:14.39	160.86	8.38	-47.3	-59.1	3.8	8.48e-01	0	42	104	0	65	13722
2026-01-19 14:14:15.39	160.86	8.46	-47.3	-59.1	3.8	8.47e-01	0	42	104	0	65	13707
2026-01-19 14:14:16.38	160.86	8.54	-47.3	-59.1	3.8	8.47e-01	0	42	104	0	65	13596
2026-01-19 14:14:17.37	160.86	8.63	-47.3	-59.2	3.8	8.47e-01	0	42	104	0	65	13739
2026-01-19 14:14:18.37	160.87	8.71	-47.3	-59.1	3.8	8.47e-01	0	42	104	0	65	13670
2026-01-19 14:14:19.36	160.87	8.79	-47.3	-59.1	3.8	8.46e-01	0	42	104	0	65	13702
2026-01-19 14:14:20.35	160.87	8.87	-47.3	-59.1	3.8	8.47e-01	0	43	104	0	65	13601
2026-01-19 14:14:21.34	160.87	8.96	-47.3	-59.1	3.8	8.48e-01	0	42	104	0	65	13624
2026-01-19 14:14:22.34	160.88	9.04	-47.3	-59.1	3.8	8.47e-01	0	42	104	0	65	13698
2026-01-19 14:14:23.33	160.88	9.12	-47.3	-59.1	3.8	8.48e-01	0	42	104	0	65	13681
2026-01-19 14:14:24.32	160.88	9.21	-47.3	-59.1	3.8	8.47e-01	0	42	104	0	65	13649
2026-01-19 14:14:25.32	160.88	9.29	-47.3	-59.1	3.8	8.48e-01	0	43	104	0	65	13634
2026-01-19 14:14:26.31	160.89	9.38	-47.3	-59.2	3.8	8.47e-01	0	42	104	0	65	13777
2026-01-19 14:14:27.30	160.89	9.46	-47.3	-59.1	3.8	8.47e-01	0	43	104	0	65	13722
2026-01-19 14:14:28.29	160.89	9.55	-47.3	-59.1	3.8	8.46e-01	0	43	104	0	65	13658
2026-01-19 14:14:29.29	160.89	9.63	-47.3	-59.1	3.8	8.48e-01	0	43	104	0	65	13714
2026-01-19 14:14:30.28	160.90	9.72	-47.3	-59.1	3.8	8.47e-01	0	43	104	0	65	13698
2026-01-19 14:14:31.27	160.90	9.80	-47.3	-59.2	3.8	8.47e-01	0	42	104	0	65	13787
2026-01-19 14:14:32.27	160.90	9.89	-47.3	-59.1	3.8	8.47e-01	0	43	104	0	65	13715
2026-01-19 14:14:33.26	160.90	9.98	-47.3	-59.1	3.8	8.46e-01	0	43	104	0	65	13682
2026-01-19 14:14:34.25	160.90	10.06	-47.3	-59.1	3.8	8.46e-01	0	43	104	0	65	13696
2026-01-19 14:14:35.24	160.91	10.15	-47.3	-59.1	3.8	8.48e-01	0	43	104	0	65	13684
2026-01-19 14:14:36.24	160.91	10.24	-47.3	-59.1	3.8	8.46e-01	0	43	104	0	65	13716
2026-01-19 14:14:37.23	160.91	10.33	-47.3	-59.1	3.8	8.47e-01	0	43	104	0	65	13694
2026-01-19 14:14:38.22	160.91	10.41	-47.3	-59.1	3.8	8.46e-01	0	42	104	0	65	13638
2026-01-19 14:14:39.22	160.92	10.50	-47.3	-59.1	3.8	8.47e-01	0	43	104	0	65	13630
2026-01-19 14:14:40.21	160.92	10.59	-47.3	-59.1	3.8	8.45e-01	0	43	104	0	65	13712
2026-01-19 14:14:41.20	160.92	10.68	-47.3	-59.2	3.8	8.47e-01	0	43	104	0	65	13738
2026-01-19 14:14:42.20	160.92	10.77	-47.3	-59.1	3.8	8.47e-01	0	43	104	0	65	13685
2026-01-19 14:14:43.19	160.93	10.86	-47.3	-59.1	3.8	8.47e-01	0	43	104	0	65	13654
2026-01-19 14:14:44.18	160.93	10.95	-47.3	-59.2	3.8	8.48e-01	0	43	104	0	65	13740
2026-01-19 14:14:45.17	160.93	11.04	-47.3	-59.1	3.8	8.47e-01	0	43	104	0	65	13640
2026-01-19 14:14:46.17	160.93	11.13	-47.3	-59.1	3.8	8.46e-01	0	43	104	0	65	13724
2026-01-19 14:14:47.16	160.94	11.22	-47.3	-59.2	3.8	8.46e-01	0	43	104	0	65	13757
2026-01-19 14:14:48.15	160.94	11.31	-47.3	-59.2	3.8	8.47e-01	0	43	104	0	65	13730
2026-01-19 14:14:49.15	160.94	11.40	-47.3	-59.1	3.8	8.46e-01	0	43	104	0	65	13666
2026-01-19 14:14:50.14	160.94	11.50	-47.3	-59.1	3.8	8.47e-01	0	43	104	0	65	13683
2026-01-19 14:14:51.13	160.94	11.59	-47.3	-59.1	3.8	8.46e-01	0	43	104	0	65	13724
2026-01-19 14:14:52.12	160.95	11.68	-47.3	-59.1	3.8	8.47e-01	0	43	104	0	65	13701
2026-01-19 14:14:53.12	160.95	11.78	-47.3	-59.2	3.8	8.47e-01	0	43	104	0	65	13736
2026-01-19 14:14:54.11	160.95	11.87	-47.3	-59.1	3.8	8.46e-01	0	43	104	0	65	13698
2026-01-19 14:14:55.10	160.95	11.96	-47.3	-59.1	3.8	8.47e-01	0	43	104	0	65	13722
2026-01-19 14:14:56.10	160.96	12.06	-47.3	-59.1	3.8	8.47e-01	0	43	104	0	65	13598
2026-01-19 14:14:57.09	160.96	12.15	-47.2	-59.1	3.8	8.47e-01	0	43	104	0	65	13668
2026-01-19 14:14:58.08	160.96	12.25	-47.3	-59.2	3.8	8.47e-01	0	43	104	0	65	13739
2026-01-19 14:14:59.07	160.96	12.34	-47.3	-59.1	3.8	8.47e-01	0	43	104	0	65	13717
2026-01-19 14:15:00.07	160.97	12.44	-47.3	-59.1	3.8	8.47e-01	0	43	104	0	65	13706
2026-01-19 14:15:01.06	160.97	12.53	-47.3	-59.1	3.8	8.48e-01	0	43	104	0	65	13655
2026-01-19 14:15:02.06	160.97	12.63	-47.3	-59.1	3.8	8.47e-01	0	43	104	0	65	13629
2026-01-19 14:15:03.05	160.97	12.73	-47.3	-59.1	3.8	8.48e-01	0	43	104	0	65	13697
2026-01-19 14:15:04.04	160.97	12.82	-47.3	-59.2	3.8	8.46e-01	0	43	104	0	65	13742
2026-01-19 14:15:05.03	160.98	12.92	-47.3	-59.1	3.8	8.46e-01	0	43	104	0	65	13689
2026-01-19 14:15:06.03	160.98	13.02	-47.3	-59.1	3.8	8.46e-01	0	43	104	0	65	13716
2026-01-19 14:15:07.02	160.98	13.12	-47.3	-59.2	3.8	8.46e-01	0	43	104	0	65	13774
2026-01-19 14:15:08.01	160.98	13.22	-47.3	-59.2	3.8	8.47e-01	0	43	104	0	65	13730
2026-01-19 14:15:09.01	160.99	13.32	-47.3	-59.2	3.8	8.46e-01	0	43	104	0	65	13757
2026-01-19 14:15:10.00	160.99	13.42	-47.3	-59.1	3.8	8.48e-01	0	43	104	0	65	13691
2026-01-19 14:15:10.99	160.99	13.52	-47.3	-59.1	3.8	8.48e-01	0	43	104	0	65	13676
2026-01-19 14:15:11.99	160.99	13.62	-47.3	-59.1	3.8	8.46e-01	0	43	104	0	65	13709
2026-01-19 14:15:12.98	161.00	13.72	-47.3	-59.1	3.8	8.46e-01	0	43	104	0	65	13658
2026-01-19 14:15:13.97	161.00	13.82	-47.3	-59.1	3.8	8.47e-01	0	43	104	0	65	13681
2026-01-19 14:15:14.96	161.00	13.92	-47.3	-59.1	3.8	8.47e-01	0	43	104	0	65	13726
2026-01-19 14:15:15.96	161.00	14.02	-47.3	-59.1	3.8	8.47e-01	0	43	104	0	65	13713
2026-01-19 14:15:16.95	161.00	14.12	-47.3	-59.1	3.8	8.47e-01	0	43	104	0	65	13696
2026-01-19 14:15:17.94	161.01	14.23	-47.3	-59.1	3.8	8.47e-01	0	43	104	0	65	13690
2026-01-19 14:15:18.94	161.01	14.33	-47.3	-59.1	3.8	8.48e-01	0	43	104	0	65	13676
2026-01-19 14:15:19.93	161.01	14.44	-47.3	-59.2	3.8	8.45e-01	0	43	104	0	65	13748
2026-01-19 14:15:20.92	161.01	14.54	-47.3	-59.1	3.8	8.47e-01	0	43	104	0	65	13675
2026-01-19 14:15:21.91	161.02	14.64	-47.3	-59.1	3.8	8.47e-01	0	43	104	0	65	13712
2026-01-19 14:15:22.91	161.02	14.75	-47.3	-59.1	3.8	8.48e-01	0	43	104	0	65	13674
2026-01-19 14:15:23.90	161.02	14.86	-47.3	-59.2	3.8	8.46e-01	0	43	104	0	65	13767
2026-01-19 14:15:24.89	161.02	14.96	-47.2	-59.1	3.8	8.46e-01	0	43	104	0	65	13660
2026-01-19 14:15:25.89	161.02	15.07	-47.3	-59.2	3.8	8.47e-01	0	43	104	0	65	13729
2026-01-19 14:15:26.88	161.03	15.18	-47.3	-59.1	3.8	8.47e-01	0	43	104	0	65	13718
2026-01-19 14:15:27.87	161.03	15.28	-47.3	-59.1	3.8	8.46e-01	0	43	104	0	65	13710
2026-01-19 14:15:28.87	161.03	15.39	-47.3	-59.1	3.8	8.47e-01	0	43	104	0	65	13634
2026-01-19 14:15:29.86	161.03	15.50	-47.3	-59.2	3.8	8.47e-01	0	43	104	0	65	13782
2026-01-19 14:15:30.85	161.04	15.61	-47.3	-59.1	3.8	8.47e-01	0	43	104	0	65	13656
2026-01-19 14:15:31.85	161.04	15.72	-47.3	-59.1	3.8	8.47e-01	0	43	104	0	65	13679
2026-01-19 14:15:32.84	161.04	15.83	-47.3	-59.1	3.8	8.46e-01	0	43	104	0	65	13714
2026-01-19 14:15:33.83	161.04	15.94	-47.3	-59.1	3.8	8.48e-01	0	43	104	0	65	13715
2026-01-19 14:15:34.82	161.04	16.05	-47.3	-59.1	3.8	8.47e-01	0	43	104	0	65	13657
2026-01-19 14:15:35.82	161.05	16.16	-47.3	-59.2	3.8	8.47e-01	0	43	104	0	65	13773
2026-01-19 14:15:36.81	161.05	16.27	-47.3	-59.2	3.8	8.46e-01	0	43	104	0	65	13771
2026-01-19 14:15:37.80	161.05	16.39	-47.3	-59.1	3.8	8.46e-01	0	43	104	0	65	13667
2026-01-19 14:15:38.80	161.05	16.50	-47.3	-59.1	3.8	8.48e-01	0	43	104	0	65	13697
2026-01-19 14:15:39.79	161.06	16.61	-47.3	-59.2	3.8	8.48e-01	0	43	104	0	65	13754
2026-01-19 14:15:40.78	161.06	16.73	-47.3	-59.2	3.8	8.47e-01	0	43	104	0	65	13787
2026-01-19 14:15:41.78	161.06	16.84	-47.3	-59.1	3.8	8.46e-01	0	43	104	0	65	13633
2026-01-19 14:15:42.77	161.06	16.96	-47.3	-59.1	3.8	8.48e-01	0	43	104	0	65	13618
2026-01-19 14:15:43.76	161.06	17.07	-47.3	-59.1	3.8	8.46e-01	0	43	104	0	65	13696
2026-01-19 14:15:44.76	161.07	17.19	-47.3	-59.1	3.8	8.47e-01	0	43	104	0	65	13705
2026-01-19 14:15:45.75	161.07	17.31	-47.3	-59.2	3.8	8.47e-01	0	43	104	0	65	13751
2026-01-19 14:15:46.74	161.07	17.42	-47.3	-59.2	3.8	8.47e-01	0	43	104	0	65	13784
2026-01-19 14:15:47.74	161.07	17.54	-47.3	-59.2	3.8	8.47e-01	0	43	104	0	65	13730
2026-01-19 14:15:48.73	161.07	17.66	-47.3	-59.1	3.8	8.46e-01	0	43	104	0	65	13702
2026-01-19 14:15:49.72	161.08	17.78	-47.3	-59.1	3.8	8.46e-01	0	43	104	0	65	13657
2026-01-19 14:15:50.72	161.08	17.90	-47.3	-59.1	3.8	8.46e-01	0	43	104	0	65	13715
2026-01-19 14:15:51.71	161.08	18.02	-47.3	-59.1	3.8	8.46e-01	0	43	104	0	65	13707
2026-01-19 14:15:52.70	161.08	18.14	-47.3	-59.1	3.8	8.47e-01	0	43	104	0	65	13637
2026-01-19 14:15:53.70	161.09	18.26	-47.3	-59.1	3.8	8.47e-01	0	43	104	0	65	13651
2026-01-19 14:15:54.69	161.09	18.38	-47.3	-59.1	3.8	8.48e-01	0	43	104	0	65	13624
2026-01-19 14:15:55.68	161.09	18.51	-47.3	-59.1	3.8	8.48e-01	0	43	104	0	65	13722
2026-01-19 14:15:56.68	161.09	18.63	-47.3	-59.1	3.8	8.47e-01	0	43	104	0	65	13722
2026-01-19 14:15:57.67	161.09	18.75	-47.3	-59.1	3.8	8.49e-01	0	43	104	0	65	13701
2026-01-19 14:15:58.66	161.10	18.88	-47.3	-59.1	3.8	8.47e-01	0	43	104	0	65	13672
2026-01-19 14:15:59.65	161.10	19.00	-47.3	-59.1	3.8	8.47e-01	0	43	104	0	65	13726
2026-01-19 14:16:00.65	161.10	19.13	-47.3	-59.1	3.8	8.46e-01	0	43	104	0	65	13708
2026-01-19 14:16:01.64	161.10	19.26	-47.3	-59.1	3.8	8.46e-01	0	43	104	0	65	13698
2026-01-19 14:16:02.63	161.10	19.38	-47.3	-59.1	3.8	8.47e-01	0	44	104	0	65	13687
2026-01-19 14:16:03.63	161.11	19.51	-47.3	-59.1	3.8	8.47e-01	0	44	104	0	65	13714
2026-01-19 14:16:04.62	161.11	19.64	-47.3	-59.1	3.8	8.47e-01	0	43	104	0	65	13622
2026-01-19 14:16:05.61	161.11	19.77	-47.3	-59.1	3.8	8.47e-01	0	44	104	0	65	13699
2026-01-19 14:16:06.60	161.11	19.90	-47.3	-59.1	3.8	8.47e-01	0	43	104	0	65	13688
2026-01-19 14:16:07.60	161.11	20.03	-47.3	-59.1	3.8	8.48e-01	0	43	104	0	65	13653
2026-01-19 14:16:08.59	161.12	20.16	-47.3	-59.1	3.8	8.47e-01	0	43	104	0	65	13700
2026-01-19 14:16:09.58	161.12	20.29	-47.3	-59.1	3.8	8.47e-01	0	43	104	0	65	13712
2026-01-19 14:16:10.58	161.12	20.43	-47.3	-59.2	3.8	8.48e-01	0	43	104	0	65	13808
2026-01-19 14:16:11.57	161.12	20.56	-47.3	-59.1	3.8	8.46e-01	0	43	104	0	65	13722
2026-01-19 14:16:12.56	161.12	20.69	-47.3	-59.2	3.8	8.47e-01	0	43	104	0	65	13757
2026-01-19 14:16:13.56	161.13	20.83	-47.3	-59.1	3.8	8.46e-01	0	43	104	0	65	13670
2026-01-19 14:16:14.55	161.13	20.96	-47.3	-59.1	3.8	8.47e-01	0	44	104	0	65	13663
2026-01-19 14:16:15.54	161.13	21.10	-47.3	-59.1	3.8	8.47e-01	0	43	104	0	65	13708
2026-01-19 14:16:16.54	161.13	21.24	-47.3	-59.2	3.8	8.47e-01	0	43	104	0	65	13765
2026-01-19 14:16:17.53	161.13	21.37	-47.3	-59.1	3.8	8.49e-01	0	44	104	0	65	13689
2026-01-19 14:16:18.52	161.14	21.51	-47.3	-59.1	3.8	8.46e-01	0	44	104	0	65	13667
2026-01-19 14:16:19.51	161.14	21.65	-47.3	-59.1	3.8	8.48e-01	0	44	104	0	65	13645
2026-01-19 14:16:20.51	161.14	21.79	-47.3	-59.1	3.8	8.48e-01	0	43	104	0	65	13707
2026-01-19 14:16:21.50	161.14	21.93	-47.3	-59.1	3.8	8.46e-01	0	44	104	0	65	13668
2026-01-19 14:16:22.49	161.14	22.07	-47.3	-59.2	3.8	8.46e-01	0	43	104	0	65	13735
2026-01-19 14:16:23.49	161.14	22.22	-47.3	-59.1	3.8	8.48e-01	0	44	104	0	65	13719
2026-01-19 14:16:24.48	161.15	22.36	-47.3	-59.2	3.8	8.48e-01	0	44	104	0	65	13763
2026-01-19 14:16:25.47	161.15	22.50	-47.3	-59.2	3.8	8.45e-01	0	43	104	0	65	13803
2026-01-19 14:16:26.47	161.15	22.65	-47.3	-59.2	3.8	8.47e-01	0	43	104	0	65	13727
2026-01-19 14:16:27.46	161.15	22.79	-47.3	-59.1	3.8	8.47e-01	0	44	104	0	65	13666
2026-01-19 14:16:28.45	161.15	22.94	-47.2	-59.1	3.8	8.45e-01	0	44	104	0	65	13684
2026-01-19 14:16:29.44	161.16	23.09	-47.3	-59.2	3.8	8.48e-01	0	43	104	0	65	13733
2026-01-19 14:16:30.44	161.16	23.24	-47.3	-59.1	3.8	8.47e-01	0	44	104	0	65	13656
2026-01-19 14:16:31.43	161.16	23.39	-47.3	-59.1	3.8	8.47e-01	0	44	104	0	65	13705
2026-01-19 14:16:32.42	161.16	23.53	-47.2	-59.1	3.8	8.46e-01	0	44	104	0	65	13719
2026-01-19 14:16:33.42	161.16	23.69	-47.3	-59.2	3.8	8.48e-01	0	43	104	0	65	13736
2026-01-19 14:16:34.41	161.16	23.84	-47.3	-59.1	3.8	8.47e-01	0	44	104	0	65	13716
2026-01-19 14:16:35.40	161.17	23.99	-47.3	-59.1	3.8	8.47e-01	0	44	104	0	65	13658
2026-01-19 14:16:36.40	161.17	24.14	-47.3	-59.1	3.8	8.46e-01	0	44	104	0	65	13698
2026-01-19 14:16:37.39	161.17	24.30	-47.3	-59.1	3.8	8.46e-01	0	43	104	0	65	13712
2026-01-19 14:16:38.38	161.17	24.45	-47.3	-59.1	3.8	8.47e-01	0	44	104	0	65	13699
2026-01-19 14:16:39.38	161.17	24.61	-47.3	-59.1	3.8	8.47e-01	0	44	104	0	65	13680
2026-01-19 14:16:40.37	161.17	24.77	-47.3	-59.1	3.8	8.47e-01	0	44	104	0	65	13686
2026-01-19 14:16:41.36	161.18	24.92	-47.3	-59.1	3.8	8.47e-01	0	44	104	0	65	13623
2026-01-19 14:16:42.36	161.18	25.08	-47.3	-59.1	3.8	8.47e-01	0	44	104	0	65	13678
2026-01-19 14:16:43.35	161.18	25.24	-47.3	-59.1	3.8	8.45e-01	0	44	104	0	65	13725
2026-01-19 14:16:44.34	161.18	25.40	-47.3	-59.1	3.8	8.47e-01	0	43	104	0	65	13696
2026-01-19 14:16:45.33	161.18	25.57	-47.3	-59.1	3.8	8.47e-01	0	43	104	0	65	13688
2026-01-19 14:16:46.33	161.18	25.73	-47.3	-59.2	3.8	8.47e-01	0	44	104	0	65	13763
2026-01-19 14:16:47.32	161.19	25.89	-47.3	-59.1	3.8	8.47e-01	0	44	104	0	65	13711
2026-01-19 14:16:48.31	161.19	26.06	-47.3	-59.1	3.8	8.48e-01	0	44	104	0	65	13722
2026-01-19 14:16:49.31	161.19	26.23	-47.3	-59.1	3.8	8.46e-01	0	44	104	0	65	13639
2026-01-19 14:16:50.30	161.19	26.39	-47.3	-59.1	3.8	8.46e-01	0	44	104	0	65	13680
2026-01-19 14:16:51.29	161.19	26.56	-47.3	-59.1	3.8	8.46e-01	0	44	104	0	65	13656
2026-01-19 14:16:52.28	161.19	26.73	-47.3	-59.1	3.8	8.48e-01	0	44	104	0	65	13654
2026-01-19 14:16:53.28	161.19	26.90	-47.3	-59.1	3.8	8.46e-01	0	43	104	0	65	13703
2026-01-19 14:16:54.27	161.20	27.07	-47.3	-59.1	3.8	8.48e-01	0	44	104	0	65	13709
2026-01-19 14:16:55.26	161.20	27.24	-47.3	-59.1	3.8	8.46e-01	0	44	104	0	65	13612
2026-01-19 14:16:56.26	161.20	27.42	-47.2	-59.2	3.8	8.47e-01	0	44	104	0	65	13767
2026-01-19 14:16:57.25	161.20	27.59	-47.3	-59.1	3.8	8.46e-01	0	44	104	0	65	13670
2026-01-19 14:16:58.24	161.20	27.77	-47.3	-59.1	3.8	8.48e-01	0	44	104	0	65	13651
2026-01-19 14:16:59.24	161.20	27.94	-47.3	-59.1	3.8	8.47e-01	0	44	104	0	65	13657
2026-01-19 14:17:00.23	161.20	28.12	-47.3	-59.2	3.8	8.46e-01	0	44	104	0	65	13730
2026-01-19 14:17:01.22	161.21	28.30	-47.3	-59.1	3.8	8.47e-01	0	44	104	0	65	13684
2026-01-19 14:17:02.22	161.21	28.48	-47.3	-59.1	3.8	8.47e-01	0	44	104	0	65	13666
2026-01-19 14:17:03.21	161.21	28.66	-47.3	-59.1	3.8	8.48e-01	0	44	104	0	65	13712
2026-01-19 14:17:04.20	161.21	28.84	-47.3	-59.1	3.8	8.46e-01	0	44	104	0	65	13646
2026-01-19 14:17:05.20	161.21	29.03	-47.3	-59.2	3.8	8.48e-01	0	44	104	0	65	13742
2026-01-19 14:17:06.19	161.21	29.21	-47.3	-59.1	3.8	8.47e-01	0	44	104	0	65	13690
2026-01-19 14:17:07.18	161.21	29.40	-47.3	-59.2	3.8	8.47e-01	0	44	104	0	65	13730
2026-01-19 14:17:08.18	161.21	29.59	-47.3	-59.1	3.8	8.47e-01	0	43	104	0	65	13634
2026-01-19 14:17:09.17	161.22	29.78	-47.3	-59.1	3.8	8.48e-01	0	44	104	0	65	13704
2026-01-19 14:17:10.16	161.22	29.96	-47.3	-59.1	3.8	8.46e-01	0	44	104	0	65	13703
2026-01-19 14:17:11.15	161.22	30.16	-47.3	-59.1	3.8	8.48e-01	0	44	104	0	65	13654
2026-01-19 14:17:12.15	161.22	30.35	-47.2	-59.1	3.8	8.47e-01	0	44	104	0	65	13626
2026-01-19 14:17:13.14	161.22	30.54	-47.2	-59.1	3.8	8.47e-01	0	44	104	0	65	13659
2026-01-19 14:17:14.13	161.22	30.74	-47.3	-59.1	3.8	8.47e-01	0	44	104	0	65	13681
2026-01-19 14:17:15.13	161.22	30.93	-47.3	-59.1	3.8	8.46e-01	0	44	104	0	65	13690
2026-01-19 14:17:16.12	161.22	31.13	-47.2	-59.1	3.8	8.46e-01	0	43	104	0	65	13663
2026-01-19 14:17:17.11	161.22	31.33	-47.2	-59.1	3.8	8.46e-01	0	44	104	0	65	13613
2026-01-19 14:17:18.11	161.23	31.53	-47.2	-59.1	3.8	8.47e-01	0	43	104	0	65	13620
2026-01-19 14:17:19.10	161.23	31.73	-47.3	-59.1	3.8	8.47e-01	0	44	104	0	65	13610
2026-01-19 14:17:20.09	161.23	31.94	-47.3	-59.1	3.8	8.47e-01	0	43	104	0	65	13660
2026-01-19 14:17:21.09	161.23	32.14	-47.3	-59.1	3.8	8.47e-01	0	44	104	0	65	13695
2026-01-19 14:17:22.08	161.23	32.35	-47.3	-59.1	3.8	8.46e-01	0	44	104	0	65	13662
2026-01-19 14:17:23.07	161.23	32.55	-47.2	-59.1	3.8	8.47e-01	0	44	104	0	65	13712
2026-01-19 14:17:24.06	161.23	32.76	-47.2	-59.1	3.8	8.47e-01	0	44	104	0	65	13678
2026-01-19 14:17:25.06	161.23	32.97	-47.3	-59.1	3.8	8.47e-01	0	44	104	0	65	13668
2026-01-19 14:17:26.05	161.23	33.19	-47.3	-59.2	3.8	8.47e-01	0	44	104	0	65	13759
2026-01-19 14:17:27.04	161.23	33.40	-47.3	-59.1	3.8	8.48e-01	0	44	104	0	65	13663
2026-01-19 14:17:28.04	161.23	33.62	-47.3	-59.1	3.8	8.47e-01	0	44	104	0	65	13640
2026-01-19 14:17:29.03	161.23	33.83	-47.2	-59.1	3.8	8.46e-01	0	44	104	0	65	13620
2026-01-19 14:17:30.02	161.24	34.05	-47.2	-59.1	3.8	8.47e-01	0	43	104	0	65	13710
2026-01-19 14:17:31.02	161.24	34.27	-47.3	-59.1	3.8	8.48e-01	0	44	104	0	65	13697
2026-01-19 14:17:32.01	161.24	34.49	-47.2	-59.1	3.8	8.47e-01	0	44	104	0	65	13641
2026-01-19 14:17:33.00	161.24	34.71	-47.3	-59.1	3.8	8.47e-01	0	43	104	0	65	13706
2026-01-19 14:17:34.00	161.24	34.94	-47.2	-59.1	3.8	8.46e-01	0	44	104	0	65	13625
2026-01-19 14:17:34.99	161.24	35.16	-47.2	-59.1	3.8	8.47e-01	0	44	104	0	65	13679
2026-01-19 14:17:35.98	161.24	35.39	-47.2	-59.1	3.8	8.46e-01	0	44	104	0	65	13712
2026-01-19 14:17:36.97	161.24	35.62	-47.3	-59.1	3.8	8.47e-01	0	44	104	0	65	13697
2026-01-19 14:17:37.97	161.24	35.85	-47.2	-59.1	3.8	8.47e-01	0	44	104	0	65	13677
2026-01-19 14:17:38.96	161.24	36.08	-47.2	-59.1	3.8	8.47e-01	0	44	104	0	65	13650
2026-01-19 14:17:39.95	161.24	36.31	-47.2	-59.1	3.8	8.47e-01	0	43	104	0	65	13666
2026-01-19 14:17:40.95	161.24	36.55	-47.2	-59.1	3.8	8.47e-01	0	44	104	0	65	13609
2026-01-19 14:17:41.94	161.24	36.79	-47.2	-59.1	3.8	8.49e-01	0	44	104	0	65	13649
2026-01-19 14:17:42.93	161.24	37.03	-47.3	-59.1	3.8	8.46e-01	0	44	104	0	65	13682
2026-01-19 14:17:43.92	161.24	37.27	-47.3	-59.1	3.8	8.47e-01	0	44	104	0	65	13667
2026-01-19 14:17:44.92	161.24	37.51	-47.3	-59.1	3.8	8.47e-01	0	44	104	0	65	13699
2026-01-19 14:17:45.91	161.24	37.76	-47.2	-59.1	3.8	8.46e-01	0	44	104	0	65	13703
2026-01-19 14:17:46.90	161.24	38.00	-47.3	-59.1	3.8	8.47e-01	0	44	104	0	65	13692
2026-01-19 14:17:47.90	161.24	38.25	-47.3	-59.2	3.8	8.47e-01	0	44	104	0	65	13743
2026-01-19 14:17:48.89	161.24	38.50	-47.3	-59.1	3.8	8.47e-01	0	44	104	0	65	13693
2026-01-19 14:17:49.88	161.24	38.75	-47.3	-59.1	3.8	8.47e-01	0	44	104	0	65	13663
2026-01-19 14:17:50.88	161.24	39.01	-47.3	-59.1	3.8	8.47e-01	0	44	104	0	65	13683
2026-01-19 14:17:51.87	161.24	39.26	-47.3	-59.1	3.8	8.46e-01	0	44	104	0	65	13700
2026-01-19 14:17:52.86	161.24	39.52	-47.3	-59.1	3.8	8.47e-01	0	44	104	0	65	13684
2026-01-19 14:17:53.86	161.24	39.78	-47.3	-59.1	3.8	8.46e-01	0	44	104	0	65	13629
2026-01-19 14:17:54.83	161.24	40.04	-47.3	-59.1	3.8	8.46e-01	0	44	104	0	65	13654
2026-01-19 14:17:55.83	161.24	40.30	-47.3	-59.1	3.8	8.47e-01	0	44	104	0	65	13632
2026-01-19 14:17:56.82	161.24	40.57	-47.2	-59.1	3.8	8.48e-01	0	44	104	0	65	13652
2026-01-19 14:17:57.81	161.24	40.83	-47.3	-59.1	3.8	8.47e-01	0	44	104	0	65	13695
2026-01-19 14:17:58.80	161.24	41.10	-47.2	-59.1	3.8	8.46e-01	0	44	104	0	65	13595
2026-01-19 14:17:59.80	161.23	41.37	-47.2	-59.1	3.8	8.46e-01	0	43	104	0	65	13689
2026-01-19 14:18:00.79	161.23	41.65	-47.3	-59.1	3.8	8.46e-01	0	44	104	0	65	13695
2026-01-19 14:18:01.78	161.23	41.92	-47.2	-59.1	3.8	8.47e-01	0	44	104	0	65	13676
2026-01-19 14:18:02.78	161.23	42.20	-47.2	-59.1	3.8	8.47e-01	0	44	104	0	65	13694
2026-01-19 14:18:03.77	161.23	42.48	-47.2	-59.1	3.8	8.46e-01	0	44	104	0	65	13672
2026-01-19 14:18:04.76	161.23	42.76	-47.2	-59.2	3.8	8.46e-01	0	44	104	0	65	13736
2026-01-19 14:18:05.76	161.23	43.05	-47.2	-59.1	3.8	8.47e-01	0	44	104	0	65	13725
2026-01-19 14:18:06.75	161.23	43.33	-47.2	-59.1	3.8	8.47e-01	0	44	104	0	65	13705
2026-01-19 14:18:07.74	161.23	43.62	-47.2	-59.1	3.8	8.47e-01	0	44	104	0	65	13579
2026-01-19 14:18:08.74	161.22	43.91	-47.2	-59.1	3.8	8.46e-01	0	44	104	0	65	13576
2026-01-19 14:18:09.73	161.22	44.20	-47.2	-59.1	3.8	8.46e-01	0	44	104	0	65	13632
2026-01-19 14:18:10.72	161.22	44.50	-47.2	-59.1	3.8	8.46e-01	0	44	104	0	65	13707
2026-01-19 14:18:11.71	161.22	44.79	-47.2	-59.1	3.8	8.47e-01	0	44	104	0	65	13703
2026-01-19 14:18:12.71	161.22	45.09	-47.2	-59.1	3.8	8.47e-01	0	44	104	0	65	13688
2026-01-19 14:18:13.70	161.22	45.39	-47.2	-59.2	3.8	8.45e-01	0	44	104	0	65	13733
2026-01-19 14:18:14.69	161.21	45.70	-47.2	-59.1	3.8	8.47e-01	0	44	104	0	65	13690
2026-01-19 14:18:15.69	161.21	46.00	-47.2	-59.1	3.8	8.45e-01	0	44	104	0	65	13653
2026-01-19 14:18:16.68	161.21	46.31	-47.2	-59.1	3.8	8.46e-01	0	44	104	0	65	13603
2026-01-19 14:18:17.67	161.21	46.62	-47.2	-59.1	3.8	8.47e-01	0	44	104	0	65	13640
2026-01-19 14:18:18.67	161.21	46.94	-47.2	-59.1	3.8	8.48e-01	0	44	104	0	65	13689
2026-01-19 14:18:19.66	161.20	47.25	-47.2	-59.1	3.8	8.47e-01	0	44	104	0	65	13600
2026-01-19 14:18:20.65	161.20	47.57	-47.2	-59.1	3.8	8.46e-01	0	44	104	0	65	13599
2026-01-19 14:18:21.65	161.20	47.89	-47.2	-59.1	3.8	8.46e-01	0	44	104	0	65	13638
2026-01-19 14:18:22.64	161.19	48.21	-47.2	-59.1	3.8	8.47e-01	0	44	104	0	65	13624
2026-01-19 14:18:23.63	161.19	48.54	-47.2	-59.1	3.8	8.48e-01	0	44	104	0	65	13722
2026-01-19 14:18:24.63	161.19	48.86	-47.2	-59.1	3.8	8.48e-01	0	44	104	0	65	13677
2026-01-19 14:18:25.62	161.18	49.19	-47.2	-59.1	3.8	8.48e-01	0	44	104	0	65	13647
2026-01-19 14:18:26.61	161.18	49.52	-47.2	-59.1	3.8	8.46e-01	0	44	104	0	65	13708
2026-01-19 14:18:27.60	161.18	49.86	-47.2	-59.2	3.8	8.48e-01	0	44	104	0	65	13745
2026-01-19 14:18:28.60	161.17	50.20	-47.2	-59.1	3.8	8.48e-01	0	44	104	0	65	13647
2026-01-19 14:18:29.59	161.17	50.54	-47.2	-59.1	3.8	8.47e-01	0	44	104	0	65	13635
2026-01-19 14:18:30.58	161.17	50.88	-47.2	-59.1	3.8	8.47e-01	0	44	104	0	65	13630
2026-01-19 14:18:31.58	161.16	51.22	-47.2	-59.1	3.8	8.47e-01	0	44	104	0	65	13591
2026-01-19 14:18:32.57	161.16	51.57	-47.2	-59.1	3.8	8.46e-01	0	44	104	0	65	13574
2026-01-19 14:18:33.56	161.15	51.92	-47.2	-59.1	3.8	8.47e-01	0	44	104	0	65	13719
2026-01-19 14:18:34.56	161.15	52.27	-47.2	-59.1	3.8	8.46e-01	0	44	104	0	65	13628
2026-01-19 14:18:35.55	161.14	52.63	-47.2	-59.1	3.8	8.46e-01	0	43	104	0	65	13675
2026-01-19 14:18:36.54	161.14	52.98	-47.2	-59.1	3.8	8.47e-01	0	44	104	0	65	13639
2026-01-19 14:18:37.53	161.13	53.34	-47.2	-59.1	3.8	8.47e-01	0	44	104	0	65	13599
2026-01-19 14:18:38.53	161.13	53.71	-47.2	-59.2	3.8	8.47e-01	0	44	104	0	65	13727
2026-01-19 14:18:39.52	161.12	54.07	-47.2	-59.1	3.8	8.47e-01	0	44	104	0	65	13583
2026-01-19 14:18:40.51	161.12	54.44	-47.2	-59.1	3.8	8.47e-01	0	44	104	0	65	13683
2026-01-19 14:18:41.51	161.11	54.81	-47.2	-59.1	3.8	8.46e-01	0	44	104	0	65	13685
2026-01-19 14:18:42.50	161.10	55.18	-47.2	-59.1	3.8	8.46e-01	0	44	104	0	65	13628
2026-01-19 14:18:43.49	161.10	55.56	-47.2	-59.2	3.8	8.46e-01	0	44	104	0	65	13762
2026-01-19 14:18:44.49	161.09	55.94	-47.2	-59.1	3.8	8.47e-01	0	44	104	0	65	13632
2026-01-19 14:18:45.48	161.08	56.32	-47.2	-59.1	3.8	8.45e-01	0	44	104	0	65	13645
2026-01-19 14:18:46.47	161.07	56.70	-47.2	-59.1	3.8	8.47e-01	0	44	104	0	65	13668
2026-01-19 14:18:47.46	161.07	57.09	-47.2	-59.2	3.8	8.49e-01	0	44	104	0	65	13755
2026-01-19 14:18:48.46	161.06	57.48	-47.2	-59.1	3.8	8.48e-01	0	44	104	0	65	13601
2026-01-19 14:18:49.45	161.05	57.87	-47.2	-59.1	3.8	8.46e-01	0	44	104	0	65	13590
2026-01-19 14:18:50.44	161.04	58.26	-47.2	-59.2	3.8	8.47e-01	0	44	104	0	65	13747
2026-01-19 14:18:51.44	161.03	58.66	-47.3	-59.1	3.8	8.47e-01	0	44	104	0	65	13626
2026-01-19 14:18:52.43	161.02	59.06	-47.2	-59.1	3.8	8.47e-01	0	44	104	0	65	13679
2026-01-19 14:18:53.42	161.01	59.46	-47.2	-59.1	3.8	8.48e-01	0	44	104	0	65	13648
2026-01-19 14:18:54.42	161.00	59.87	-47.2	-59.1	3.8	8.47e-01	0	44	104	0	65	13679
2026-01-19 14:18:55.41	160.99	60.27	-47.2	-59.1	3.8	8.46e-01	0	44	104	0	65	13704
2026-01-19 14:18:56.40	160.98	60.68	-47.3	-59.1	3.8	8.46e-01	0	44	104	0	65	13646
2026-01-19 14:18:57.40	160.97	61.10	-47.2	-59.1	3.8	8.46e-01	0	44	104	0	65	13673
2026-01-19 14:18:58.39	160.95	61.51	-47.3	-59.1	3.8	8.48e-01	0	44	104	0	65	13657
2026-01-19 14:18:59.38	160.94	61.93	-47.2	-59.2	3.8	8.48e-01	0	44	104	0	65	13728
2026-01-19 14:19:00.37	160.93	62.35	-47.2	-59.1	3.8	8.46e-01	0	44	104	0	65	13622
2026-01-19 14:19:01.37	160.91	62.77	-47.3	-59.1	3.8	8.47e-01	0	44	104	0	65	13644
2026-01-19 14:19:02.36	160.90	63.20	-47.2	-59.2	3.8	8.46e-01	0	44	104	0	65	13766
2026-01-19 14:19:03.35	160.88	63.62	-47.2	-59.1	3.8	8.47e-01	0	44	104	0	65	13645
2026-01-19 14:19:04.35	160.87	64.06	-47.2	-59.1	3.8	8.47e-01	0	44	104	0	65	13667
2026-01-19 14:19:05.34	160.85	64.49	-47.2	-59.1	3.8	8.48e-01	0	44	104	0	65	13692
2026-01-19 14:19:06.33	160.83	64.92	-47.2	-59.1	3.8	8.46e-01	0	44	104	0	65	13722
2026-01-19 14:19:07.32	160.82	65.36	-47.2	-59.1	3.8	8.47e-01	0	44	104	0	65	13698
2026-01-19 14:19:08.32	160.80	65.80	-47.3	-59.1	3.8	8.47e-01	0	44	104	0	65	13678
2026-01-19 14:19:09.31	160.78	66.25	-47.3	-59.1	3.8	8.46e-01	0	44	104	0	65	13708
2026-01-19 14:19:10.30	160.75	66.69	-47.2	-59.1	3.8	8.46e-01	0	44	104	0	65	13719
2026-01-19 14:19:11.30	160.73	67.14	-47.3	-59.1	3.8	8.47e-01	0	44	104	0	65	13708
2026-01-19 14:19:12.29	160.71	67.59	-47.2	-59.1	3.8	8.46e-01	0	44	104	0	65	13638
2026-01-19 14:19:13.28	160.68	68.04	-47.3	-59.1	3.8	8.47e-01	0	44	104	0	65	13630
2026-01-19 14:19:14.27	160.66	68.49	-47.3	-59.1	3.8	8.47e-01	0	44	104	0	65	13687
2026-01-19 14:19:15.27	160.63	68.95	-47.3	-59.1	3.8	8.46e-01	0	44	104	0	65	13694
2026-01-19 14:19:16.26	160.60	69.41	-47.3	-59.1	3.8	8.47e-01	0	44	104	0	65	13648
2026-01-19 14:19:17.25	160.57	69.87	-47.3	-59.2	3.8	8.47e-01	0	44	104	0	65	13735
2026-01-19 14:19:18.24	160.54	70.34	-47.2	-59.1	3.8	8.46e-01	0	44	104	0	65	13650
2026-01-19 14:19:19.24	160.51	70.81	-47.3	-59.1	3.8	8.48e-01	0	44	104	0	65	13674
2026-01-19 14:19:20.23	160.47	71.27	-47.2	-59.1	3.8	8.47e-01	0	44	104	0	65	13680
2026-01-19 14:19:21.22	160.43	71.74	-47.3	-59.1	3.8	8.47e-01	0	44	104	0	65	13685
2026-01-19 14:19:22.22	160.39	72.22	-47.3	-59.1	3.8	8.46e-01	0	44	104	0	65	13619
2026-01-19 14:19:23.21	160.35	72.69	-47.3	-59.1	3.8	8.46e-01	0	44	104	0	65	13647
2026-01-19 14:19:24.20	160.31	73.17	-47.2	-59.1	3.8	8.47e-01	0	44	104	0	65	13623
2026-01-19 14:19:25.20	160.26	73.65	-47.2	-59.1	3.8	8.46e-01	0	44	104	0	65	13648
2026-01-19 14:19:26.19	160.21	74.13	-47.3	-59.1	3.8	8.47e-01	0	44	104	0	65	13683
2026-01-19 14:19:27.18	160.15	74.61	-47.2	-59.1	3.8	8.48e-01	0	44	104	0	65	13668
2026-01-19 14:19:28.18	160.09	75.09	-47.2	-59.1	3.8	8.47e-01	0	44	104	0	65	13665
2026-01-19 14:19:29.17	160.03	75.58	-47.2	-59.1	3.8	8.47e-01	0	44	104	0	65	13668
2026-01-19 14:19:30.16	159.96	76.07	-47.2	-59.1	3.8	8.46e-01	0	44	104	0	65	13579
2026-01-19 14:19:31.15	159.89	76.55	-47.3	-59.1	3.8	8.48e-01	0	44	104	0	65	13632
2026-01-19 14:19:32.15	159.80	77.05	-47.3	-59.2	3.8	8.47e-01	0	44	104	0	65	13730
2026-01-19 14:19:33.14	159.72	77.54	-47.3	-59.1	3.8	8.47e-01	0	44	104	0	65	13679
2026-01-19 14:19:34.13	159.62	78.03	-47.3	-59.1	3.8	8.47e-01	0	44	104	0	65	13661
2026-01-19 14:19:35.13	159.52	78.53	-47.3	-59.1	3.8	8.47e-01	0	44	104	0	65	13621
2026-01-19 14:19:36.12	159.41	79.02	-47.3	-59.1	3.8	8.46e-01	0	44	104	0	65	13692
2026-01-19 14:19:37.11	159.29	79.52	-47.3	-59.1	3.8	8.47e-01	0	44	104	0	65	13611
2026-01-19 14:19:38.10	159.15	80.02	-47.3	-59.1	3.8	8.48e-01	0	44	104	0	65	13669
2026-01-19 14:19:39.10	159.00	80.52	-47.3	-59.1	3.8	8.47e-01	0	44	104	0	65	13708
2026-01-19 14:19:40.09	158.83	81.02	-47.3	-59.1	3.8	8.46e-01	0	44	104	0	65	13585
2026-01-19 14:19:41.08	158.64	81.52	-47.3	-59.1	3.8	8.46e-01	0	44	104	0	65	13708
2026-01-19 14:19:42.07	158.42	82.03	-47.3	-59.1	3.8	8.48e-01	0	44	104	0	65	13656
2026-01-19 14:19:43.07	158.18	82.54	-47.2	-59.1	3.8	8.48e-01	0	44	104	0	65	13589
2026-01-19 14:19:44.06	157.90	83.04	-47.2	-59.1	3.8	8.47e-01	0	44	104	0	65	13704
2026-01-19 14:19:45.05	157.57	83.54	-47.2	-59.1	3.8	8.47e-01	0	44	104	0	65	13690
2026-01-19 14:19:46.04	157.19	84.05	-47.3	-59.1	3.8	8.47e-01	0	44	104	0	65	13679
2026-01-19 14:19:47.04	156.73	84.56	-47.3	-59.2	3.8	8.45e-01	0	44	104	0	65	13736
2026-01-19 14:19:48.03	156.18	85.07	-47.3	-59.1	3.8	8.47e-01	0	44	104	0	65	13675
2026-01-19 14:19:49.02	155.51	85.57	-47.2	-59.1	3.8	8.47e-01	0	44	104	0	65	13715
2026-01-19 14:19:50.02	154.65	86.08	-47.2	-59.1	3.8	8.46e-01	0	44	104	0	65	13674
2026-01-19 14:19:51.01	153.54	86.59	-47.2	-59.1	3.8	8.46e-01	0	44	104	0	65	13612
2026-01-19 14:19:52.00	152.05	87.09	-47.3	-59.1	3.8	8.47e-01	0	44	104	0	65	13670
2026-01-19 14:19:52.99	149.93	87.59	-47.2	-59.1	3.8	8.46e-01	0	44	104	0	65	13665
2026-01-19 14:19:53.99	146.66	88.09	-47.3	-59.1	3.8	8.47e-01	0	44	104	0	65	13676
2026-01-19 14:19:54.98	141.16	88.58	-47.3	-59.1	3.8	8.47e-01	0	44	104	0	65	13674
2026-01-19 14:19:55.97	130.19	89.04	-47.2	-59.1	3.8	8.47e-01	0	44	104	0	65	13639
2026-01-19 14:19:56.97	102.53	89.41	-47.3	-59.1	3.8	8.46e-01	0	44	104	0	65	13702
2026-01-19 14:19:57.96	49.27	89.45	-47.3	-59.1	3.8	8.47e-01	0	44	104	0	65	13656
2026-01-19 14:19:58.95	17.08	89.11	-47.3	-59.1	3.8	8.46e-01	0	44	104	0	65	13669
2026-01-19 14:19:59.95	4.33	88.66	-47.3	-59.1	3.8	8.47e-01	0	44	104	0	65	13659
2026-01-19 14:20:00.94	358.25	88.17	-47.3	-59.1	3.8	8.47e-01	0	44	104	0	65	13627
2026-01-19 14:20:01.93	354.74	87.68	-47.3	-59.1	3.8	8.46e-01	0	44	104	0	65	13723
2026-01-19 14:20:02.93	352.46	87.17	-47.3	-59.1	3.8	8.46e-01	0	44	104	0	65	13624
2026-01-19 14:20:03.92	350.88	86.67	-47.3	-59.1	3.8	8.48e-01	0	44	104	0	65	13595
2026-01-19 14:20:04.91	349.72	86.17	-47.3	-59.1	3.8	8.47e-01	0	44	104	0	65	13677
2026-01-19 14:20:05.90	348.84	85.66	-47.3	-59.1	3.8	8.46e-01	0	44	104	0	65	13666
2026-01-19 14:20:06.90	348.13	85.15	-47.2	-59.2	3.8	8.47e-01	0	44	104	0	65	13730
2026-01-19 14:20:07.89	347.56	84.64	-47.3	-59.1	3.8	8.47e-01	0	44	104	0	65	13726
2026-01-19 14:20:08.88	347.09	84.14	-47.3	-59.1	3.8	8.47e-01	0	44	104	0	65	13637
2026-01-19 14:20:09.88	346.70	83.63	-47.3	-59.1	3.8	8.47e-01	0	44	104	0	65	13662
2026-01-19 14:20:10.87	346.37	83.12	-47.3	-59.2	3.8	8.48e-01	0	44	104	0	65	13739
2026-01-19 14:20:11.86	346.08	82.62	-47.3	-59.1	3.8	8.46e-01	0	44	104	0	65	13655
2026-01-19 14:20:12.85	345.83	82.12	-47.3	-59.1	3.8	8.46e-01	0	44	104	0	65	13677
2026-01-19 14:20:13.85	345.61	81.61	-47.3	-59.1	3.8	8.47e-01	0	44	104	0	65	13712
2026-01-19 14:20:14.84	345.41	81.11	-47.3	-59.1	3.8	8.46e-01	0	44	104	0	65	13718
2026-01-19 14:20:15.83	345.24	80.61	-47.3	-59.1	3.8	8.46e-01	0	44	104	0	65	13648
2026-01-19 14:20:16.83	345.09	80.11	-47.3	-59.1	3.8	8.47e-01	0	44	104	0	65	13643
2026-01-19 14:20:17.82	344.95	79.61	-47.3	-59.1	3.8	8.46e-01	0	44	104	0	65	13704
2026-01-19 14:20:18.81	344.82	79.11	-47.3	-59.1	3.8	8.47e-01	0	44	104	0	65	13639
2026-01-19 14:20:19.81	344.71	78.61	-47.2	-59.1	3.8	8.47e-01	0	44	104	0	65	13572
2026-01-19 14:20:20.80	344.60	78.12	-47.2	-59.1	3.8	8.47e-01	0	44	104	0	65	13714
2026-01-19 14:20:21.79	344.51	77.63	-47.3	-59.1	3.8	8.47e-01	0	44	104	0	65	13615
2026-01-19 14:20:22.78	344.42	77.14	-47.3	-59.2	3.8	8.46e-01	0	44	104	0	65	13767
2026-01-19 14:20:23.78	344.34	76.64	-47.2	-59.1	3.8	8.46e-01	0	44	104	0	65	13681
2026-01-19 14:20:24.77	344.26	76.16	-47.2	-59.1	3.8	8.46e-01	0	44	104	0	65	13654
2026-01-19 14:20:25.76	344.20	75.67	-47.2	-59.1	3.8	8.47e-01	0	44	104	0	65	13650
2026-01-19 14:20:26.76	344.13	75.18	-47.3	-59.2	3.8	8.48e-01	0	44	104	0	65	13789
2026-01-19 14:20:27.75	344.07	74.70	-47.3	-59.1	3.8	8.46e-01	0	44	104	0	65	13710
2026-01-19 14:20:28.74	344.02	74.22	-47.3	-59.1	3.8	8.47e-01	0	44	104	0	65	13637
2026-01-19 14:20:29.74	343.96	73.73	-47.3	-59.2	3.8	8.47e-01	0	44	104	0	65	13732
2026-01-19 14:20:30.73	343.91	73.26	-47.3	-59.1	3.8	8.46e-01	0	44	104	0	65	13678
2026-01-19 14:20:31.72	343.87	72.78	-47.3	-59.2	3.8	8.47e-01	0	44	104	0	65	13749
2026-01-19 14:20:32.71	343.83	72.31	-47.3	-59.1	3.8	8.47e-01	0	44	104	0	65	13700
2026-01-19 14:20:33.71	343.79	71.84	-47.3	-59.1	3.8	8.46e-01	0	44	104	0	65	13632
2026-01-19 14:20:34.70	343.75	71.37	-47.3	-59.1	3.8	8.46e-01	0	44	104	0	65	13692
2026-01-19 14:20:35.69	343.71	70.90	-47.3	-59.1	3.8	8.47e-01	0	44	104	0	65	13669
2026-01-19 14:20:36.69	343.68	70.43	-47.3	-59.1	3.8	8.47e-01	0	44	104	0	65	13681
2026-01-19 14:20:37.68	343.65	69.97	-47.3	-59.2	3.8	8.47e-01	0	44	104	0	65	13747
2026-01-19 14:20:38.67	343.61	69.51	-47.2	-59.1	3.8	8.48e-01	0	44	104	0	65	13720
2026-01-19 14:20:39.66	343.59	69.05	-47.3	-59.1	3.8	8.47e-01	0	44	104	0	65	13686
2026-01-19 14:20:40.66	343.56	68.59	-47.3	-59.1	3.8	8.47e-01	0	44	104	0	65	13663
2026-01-19 14:20:41.65	343.53	68.14	-47.3	-59.2	3.8	8.46e-01	0	44	104	0	65	13728
2026-01-19 14:20:42.64	343.51	67.69	-47.3	-59.1	3.8	8.46e-01	0	44	104	0	65	13724
2026-01-19 14:20:43.64	343.48	67.24	-47.2	-59.1	3.8	8.46e-01	0	44	104	0	65	13622
2026-01-19 14:20:44.63	343.46	66.79	-47.3	-59.1	3.8	8.47e-01	0	44	104	0	65	13721
2026-01-19 14:20:45.62	343.44	66.35	-47.3	-59.2	3.8	8.46e-01	0	44	104	0	65	13743
2026-01-19 14:20:46.62	343.42	65.90	-47.3	-59.1	3.8	8.46e-01	0	44	104	0	65	13702
2026-01-19 14:20:47.61	343.40	65.46	-47.3	-59.1	3.8	8.47e-01	0	44	104	0	65	13675
2026-01-19 14:20:48.60	343.38	65.03	-47.3	-59.1	3.8	8.48e-01	0	44	104	0	65	13722
2026-01-19 14:20:49.59	343.37	64.59	-47.3	-59.2	3.8	8.47e-01	0	44	104	0	65	13763
2026-01-19 14:20:50.59	343.35	64.16	-47.3	-59.1	3.8	8.47e-01	0	44	104	0	65	13630
2026-01-19 14:20:51.58	343.33	63.73	-47.3	-59.1	3.8	8.47e-01	0	44	104	0	65	13688
2026-01-19 14:20:52.57	343.32	63.30	-47.2	-59.1	3.8	8.47e-01	0	44	104	0	65	13658
2026-01-19 14:20:53.57	343.30	62.87	-47.3	-59.1	3.8	8.47e-01	0	44	104	0	65	13712
2026-01-19 14:20:54.56	343.29	62.45	-47.3	-59.1	3.8	8.47e-01	0	44	104	0	65	13683
2026-01-19 14:20:55.55	343.28	62.03	-47.3	-59.1	3.8	8.47e-01	0	44	104	0	65	13619
2026-01-19 14:20:56.54	343.26	61.62	-47.2	-59.1	3.8	8.46e-01	0	44	104	0	65	13724
2026-01-19 14:20:57.54	343.25	61.20	-47.3	-59.1	3.8	8.47e-01	0	44	104	0	65	13702
2026-01-19 14:20:58.53	343.24	60.79	-47.3	-59.1	3.8	8.47e-01	0	44	104	0	65	13652
2026-01-19 14:20:59.52	343.23	60.38	-47.3	-59.1	3.8	8.47e-01	0	44	104	0	65	13659
2026-01-19 14:21:00.51	343.22	59.98	-47.3	-59.1	3.8	8.47e-01	0	44	104	0	65	13709
2026-01-19 14:21:01.51	343.21	59.57	-47.3	-59.1	3.8	8.46e-01	0	44	104	0	65	13724
2026-01-19 14:21:02.50	343.20	59.17	-47.3	-59.2	3.8	8.47e-01	0	44	104	0	65	13727
2026-01-19 14:21:03.49	343.19	58.77	-47.3	-59.1	3.8	8.46e-01	0	44	104	0	65	13658
2026-01-19 14:21:04.49	343.18	58.37	-47.2	-59.1	3.8	8.46e-01	0	44	104	0	65	13623
2026-01-19 14:21:05.48	343.17	57.98	-47.3	-59.1	3.8	8.46e-01	0	44	104	0	65	13656
2026-01-19 14:21:06.47	343.16	57.59	-47.3	-59.1	3.8	8.48e-01	0	44	104	0	65	13618
2026-01-19 14:21:07.47	343.15	57.20	-47.2	-59.1	3.8	8.48e-01	0	44	104	0	65	13699
2026-01-19 14:21:08.46	343.15	56.82	-47.3	-59.1	3.8	8.47e-01	0	44	104	0	65	13700
2026-01-19 14:21:09.45	343.14	56.44	-47.3	-59.1	3.8	8.46e-01	0	44	104	0	65	13595
2026-01-19 14:21:10.44	343.13	56.06	-47.3	-59.1	3.8	8.48e-01	0	44	104	0	65	13725
2026-01-19 14:21:11.44	343.12	55.68	-47.3	-59.1	3.8	8.46e-01	0	44	104	0	65	13704
2026-01-19 14:21:12.43	343.12	55.30	-47.3	-59.1	3.8	8.46e-01	0	44	104	0	65	13724
2026-01-19 14:21:13.42	343.11	54.93	-47.3	-59.1	3.8	8.47e-01	0	44	104	0	65	13705
2026-01-19 14:21:14.42	343.10	54.56	-47.3	-59.1	3.8	8.47e-01	0	44	104	0	65	13701
2026-01-19 14:21:15.41	343.10	54.19	-47.3	-59.1	3.8	8.46e-01	0	44	104	0	65	13657
2026-01-19 14:21:16.40	343.09	53.83	-47.3	-59.1	3.8	8.47e-01	0	44	104	0	65	13644
2026-01-19 14:21:17.40	343.09	53.46	-47.3	-59.1	3.8	8.46e-01	0	44	104	0	65	13712
2026-01-19 14:21:18.39	343.08	53.11	-47.3	-59.1	3.8	8.47e-01	0	44	104	0	65	13641
2026-01-19 14:21:19.38	343.08	52.75	-47.3	-59.1	3.8	8.46e-01	0	44	104	0	65	13684
2026-01-19 14:21:20.37	343.07	52.40	-47.3	-59.1	3.8	8.47e-01	0	44	104	0	65	13716
2026-01-19 14:21:21.37	343.07	52.04	-47.3	-59.2	3.8	8.47e-01	0	44	104	0	65	13743
2026-01-19 14:21:22.36	343.06	51.70	-47.3	-59.1	3.8	8.46e-01	0	44	104	0	65	13622
2026-01-19 14:21:23.35	343.06	51.35	-47.3	-59.1	3.8	8.47e-01	0	44	104	0	65	13597
2026-01-19 14:21:24.35	343.06	51.00	-47.3	-59.2	3.8	8.46e-01	0	44	104	0	65	13751
2026-01-19 14:21:25.34	343.05	50.66	-47.3	-59.1	3.8	8.46e-01	0	44	104	0	65	13689
2026-01-19 14:21:26.33	343.05	50.33	-47.2	-59.0	3.8	8.46e-01	0	44	104	0	65	13557
2026-01-19 14:21:27.32	343.05	49.99	-47.3	-59.1	3.8	8.47e-01	0	44	104	0	65	13710
2026-01-19 14:21:28.32	343.04	49.65	-47.2	-59.1	3.8	8.47e-01	0	44	104	0	65	13709
2026-01-19 14:21:29.31	343.04	49.32	-47.2	-59.1	3.8	8.47e-01	0	44	104	0	65	13692
2026-01-19 14:21:30.30	343.04	48.99	-47.3	-59.1	3.8	8.47e-01	0	44	104	0	65	13691
2026-01-19 14:21:31.30	343.03	48.67	-47.3	-59.1	3.8	8.46e-01	0	44	104	0	65	13706
2026-01-19 14:21:32.29	343.03	48.34	-47.2	-59.0	3.8	8.47e-01	0	44	104	0	65	13564
2026-01-19 14:21:33.28	343.03	48.02	-47.2	-59.1	3.8	8.47e-01	0	44	104	0	65	13722
2026-01-19 14:21:34.28	343.03	47.70	-47.3	-59.2	3.8	8.47e-01	0	44	104	0	65	13763
2026-01-19 14:21:35.27	343.02	47.38	-47.3	-59.1	3.8	8.48e-01	0	44	104	0	65	13689
2026-01-19 14:21:36.26	343.02	47.07	-47.3	-59.1	3.8	8.47e-01	0	44	104	0	65	13691
2026-01-19 14:21:37.25	343.02	46.76	-47.3	-59.1	3.8	8.46e-01	0	44	104	0	65	13602
2026-01-19 14:21:38.25	343.02	46.45	-47.3	-59.1	3.8	8.45e-01	0	44	104	0	65	13706
2026-01-19 14:21:39.24	343.01	46.14	-47.3	-59.1	3.8	8.46e-01	0	44	104	0	65	13679
2026-01-19 14:21:40.23	343.01	45.83	-47.2	-59.1	3.8	8.47e-01	0	44	104	0	65	13681
2026-01-19 14:21:41.23	343.01	45.53	-47.3	-59.1	3.8	8.48e-01	0	44	104	0	65	13677
2026-01-19 14:21:42.22	343.01	45.23	-47.2	-59.1	3.8	8.47e-01	0	44	104	0	65	13628
2026-01-19 14:21:43.21	343.01	44.93	-47.2	-59.1	3.8	8.46e-01	0	44	104	0	65	13596
2026-01-19 14:21:44.21	343.01	44.63	-47.2	-59.1	3.8	8.47e-01	0	44	104	0	65	13656
2026-01-19 14:21:45.20	343.01	44.34	-47.2	-59.1	3.8	8.47e-01	0	44	104	0	65	13692
2026-01-19 14:21:46.19	343.00	44.05	-47.2	-59.1	3.8	8.48e-01	0	44	104	0	65	13709
2026-01-19 14:21:47.18	343.00	43.76	-47.2	-59.1	3.8	8.48e-01	0	44	104	0	65	13654
2026-01-19 14:21:48.18	343.00	43.47	-47.2	-59.1	3.8	8.47e-01	0	44	104	0	65	13664
2026-01-19 14:21:49.17	343.00	43.19	-47.2	-59.1	3.8	8.46e-01	0	44	104	0	65	13617
2026-01-19 14:21:50.16	343.00	42.90	-47.2	-59.1	3.8	8.47e-01	0	44	104	0	65	13633
2026-01-19 14:21:51.16	343.00	42.62	-47.2	-59.2	3.8	8.47e-01	0	44	104	0	65	13738
2026-01-19 14:21:52.15	343.00	42.34	-47.2	-59.1	3.8	8.46e-01	0	44	104	0	65	13689
2026-01-19 14:21:53.14	343.00	42.07	-47.2	-59.1	3.8	8.47e-01	0	44	104	0	65	13673
2026-01-19 14:21:54.14	343.00	41.79	-47.2	-59.1	3.8	8.46e-01	0	44	104	0	65	13612
2026-01-19 14:21:55.13	343.00	41.52	-47.2	-59.1	3.8	8.46e-01	0	44	104	0	65	13676
2026-01-19 14:21:56.12	343.00	41.25	-47.2	-59.1	3.8	8.47e-01	0	44	104	0	65	13713
2026-01-19 14:21:57.12	343.00	40.98	-47.2	-59.1	3.8	8.46e-01	0	44	104	0	65	13654
2026-01-19 14:21:58.11	343.00	40.71	-47.2	-59.1	3.8	8.47e-01	0	44	104	0	65	13641
2026-01-19 14:21:59.10	343.00	40.45	-47.2	-59.1	3.8	8.46e-01	0	44	104	0	65	13698
2026-01-19 14:22:00.10	343.00	40.18	-47.2	-59.1	3.8	8.46e-01	0	44	104	0	65	13696
2026-01-19 14:22:01.09	343.00	39.92	-47.2	-59.1	3.8	8.48e-01	0	44	104	0	65	13699
2026-01-19 14:22:02.08	343.00	39.66	-47.2	-59.2	3.8	8.48e-01	0	44	104	0	65	13758
2026-01-19 14:22:03.07	343.00	39.41	-47.2	-59.1	3.8	8.46e-01	0	44	104	0	65	13686
2026-01-19 14:22:04.07	343.00	39.15	-47.2	-59.1	3.8	8.48e-01	0	44	104	0	65	13666
2026-01-19 14:22:05.06	343.00	38.90	-47.3	-59.1	3.8	8.48e-01	0	44	104	0	65	13654
2026-01-19 14:22:06.05	343.00	38.65	-47.3	-59.1	3.8	8.47e-01	0	44	104	0	65	13618
2026-01-19 14:22:07.05	343.00	38.40	-47.3	-59.2	3.8	8.47e-01	0	44	104	0	65	13734
2026-01-19 14:22:08.04	343.00	38.15	-47.2	-59.1	3.8	8.47e-01	0	44	104	0	65	13646
2026-01-19 14:22:09.03	343.00	37.90	-47.3	-59.1	3.8	8.48e-01	0	44	104	0	65	13666
2026-01-19 14:22:10.03	343.00	37.66	-47.2	-59.2	3.8	8.48e-01	0	44	104	0	65	13736
2026-01-19 14:22:11.02	343.00	37.42	-47.3	-59.1	3.8	8.46e-01	0	44	104	0	65	13720
2026-01-19 14:22:12.01	343.00	37.18	-47.2	-59.2	3.8	8.46e-01	0	44	104	0	65	13736
2026-01-19 14:22:13.01	343.00	36.94	-47.3	-59.1	3.8	8.48e-01	0	44	104	0	65	13693
2026-01-19 14:22:14.00	343.00	36.70	-47.2	-59.1	3.8	8.46e-01	0	44	104	0	65	13660
2026-01-19 14:22:14.99	343.00	36.47	-47.3	-59.1	3.8	8.47e-01	0	44	104	0	65	13674
2026-01-19 14:22:15.98	343.00	36.23	-47.3	-59.1	3.8	8.46e-01	0	44	104	0	65	13633
2026-01-19 14:22:16.98	343.00	36.00	-47.2	-59.2	3.8	8.46e-01	0	44	104	0	65	13752
2026-01-19 14:22:17.97	343.00	35.77	-47.3	-59.1	3.8	8.46e-01	0	44	104	0	65	13643
2026-01-19 14:22:18.96	343.00	35.54	-47.3	-59.1	3.8	8.47e-01	0	44	104	0	65	13687
2026-01-19 14:22:19.96	343.00	35.31	-47.2	-59.1	3.8	8.47e-01	0	44	104	0	65	13679
2026-01-19 14:22:20.95	343.00	35.09	-47.3	-59.1	3.8	8.47e-01	0	44	104	0	65	13655
2026-01-19 14:22:21.94	343.01	34.87	-47.2	-59.1	3.8	8.47e-01	0	44	104	0	65	13573
2026-01-19 14:22:22.94	343.01	34.64	-47.3	-59.1	3.8	8.47e-01	0	44	104	0	65	13630
2026-01-19 14:22:23.93	343.01	34.42	-47.3	-59.1	3.8	8.46e-01	0	44	104	0	65	13661
2026-01-19 14:22:24.92	343.01	34.20	-47.3	-59.2	3.8	8.46e-01	0	44	104	0	65	13778
2026-01-19 14:22:25.92	343.01	33.98	-47.3	-59.1	3.8	8.47e-01	0	44	104	0	65	13670
2026-01-19 14:22:26.91	343.01	33.77	-47.3	-59.1	3.8	8.47e-01	0	44	104	0	65	13650
2026-01-19 14:22:27.90	343.01	33.56	-47.3	-59.2	3.8	8.48e-01	0	44	104	0	65	13727
2026-01-19 14:22:28.90	343.01	33.34	-47.3	-59.1	3.8	8.47e-01	0	44	104	0	65	13711
2026-01-19 14:22:29.89	343.01	33.13	-47.3	-59.1	3.8	8.46e-01	0	44	104	0	65	13719
2026-01-19 14:22:30.88	343.02	32.92	-47.3	-59.1	3.8	8.47e-01	0	44	104	0	65	13668
2026-01-19 14:22:31.87	343.02	32.71	-47.3	-59.1	3.8	8.48e-01	0	44	104	0	65	13680
2026-01-19 14:22:32.87	343.02	32.50	-47.3	-59.1	3.8	8.47e-01	0	44	104	0	65	13707
2026-01-19 14:22:33.86	343.02	32.30	-47.3	-59.1	3.8	8.47e-01	0	44	104	0	65	13710
2026-01-19 14:22:34.85	343.02	32.10	-47.3	-59.1	3.8	8.47e-01	0	44	104	0	65	13662
2026-01-19 14:22:35.84	343.02	31.89	-47.3	-59.1	3.8	8.47e-01	0	44	104	0	65	13648
2026-01-19 14:22:36.84	343.02	31.69	-47.3	-59.1	3.8	8.47e-01	0	44	104	0	65	13714
2026-01-19 14:22:37.83	343.03	31.49	-47.3	-59.1	3.8	8.46e-01	0	44	104	0	65	13667
2026-01-19 14:22:38.82	343.03	31.29	-47.3	-59.1	3.8	8.46e-01	0	44	104	0	65	13685
2026-01-19 14:22:39.82	343.03	31.09	-47.3	-59.2	3.8	8.46e-01	0	44	104	0	65	13762
2026-01-19 14:22:40.81	343.03	30.90	-47.3	-59.1	3.8	8.47e-01	0	44	104	0	65	13648
2026-01-19 14:22:41.80	343.03	30.70	-47.3	-59.1	3.8	8.46e-01	0	44	104	0	65	13703
2026-01-19 14:22:42.80	343.03	30.51	-47.3	-59.1	3.8	8.46e-01	0	44	104	0	65	13721
2026-01-19 14:22:43.79	343.03	30.32	-47.3	-59.1	3.8	8.47e-01	0	44	104	0	65	13721
2026-01-19 14:22:44.78	343.04	30.13	-47.3	-59.1	3.8	8.48e-01	0	44	104	0	65	13666
2026-01-19 14:22:45.77	343.04	29.94	-47.3	-59.2	3.8	8.46e-01	0	44	104	0	65	13795
2026-01-19 14:22:46.77	343.04	29.75	-47.3	-59.2	3.8	8.46e-01	0	44	104	0	65	13749
2026-01-19 14:22:47.76	343.04	29.56	-47.3	-59.1	3.8	8.46e-01	0	44	104	0	65	13600
2026-01-19 14:22:48.75	343.04	29.38	-47.3	-59.1	3.8	8.47e-01	0	44	104	0	65	13693
2026-01-19 14:22:49.75	343.04	29.19	-47.3	-59.1	3.8	8.47e-01	0	44	104	0	65	13707
2026-01-19 14:22:50.74	343.05	29.01	-47.3	-59.1	3.8	8.48e-01	0	44	104	0	65	13695
2026-01-19 14:22:51.73	343.05	28.83	-47.3	-59.2	3.8	8.46e-01	0	44	104	0	65	13785
2026-01-19 14:22:52.73	343.05	28.64	-47.3	-59.2	3.8	8.47e-01	0	44	104	0	65	13761
2026-01-19 14:22:53.72	343.05	28.47	-47.3	-59.1	3.8	8.47e-01	0	44	104	0	65	13666
2026-01-19 14:22:54.71	343.05	28.29	-47.3	-59.1	3.8	8.46e-01	0	44	104	0	65	13702
2026-01-19 14:22:55.71	343.06	28.11	-47.3	-59.1	3.8	8.46e-01	0	44	104	0	65	13723
2026-01-19 14:22:56.70	343.06	27.93	-47.3	-59.1	3.8	8.47e-01	0	44	104	0	65	13661
2026-01-19 14:22:57.69	343.06	27.76	-47.3	-59.1	3.8	8.47e-01	0	44	104	0	65	13661
2026-01-19 14:22:58.69	343.06	27.58	-47.3	-59.2	3.8	8.47e-01	0	44	104	0	65	13760
2026-01-19 14:22:59.68	343.06	27.41	-47.3	-59.1	3.8	8.47e-01	0	44	104	0	65	13706
2026-01-19 14:23:00.67	343.07	27.24	-47.3	-59.1	3.8	8.46e-01	0	44	104	0	65	13661
2026-01-19 14:23:01.66	343.07	27.07	-47.3	-59.1	3.8	8.46e-01	0	44	104	0	65	13685
2026-01-19 14:23:02.66	343.07	26.90	-47.3	-59.1	3.8	8.47e-01	0	44	104	0	65	13690
2026-01-19 14:23:03.65	343.07	26.73	-47.3	-59.2	3.8	8.47e-01	0	44	104	0	65	13760
2026-01-19 14:23:04.64	343.07	26.56	-47.3	-59.1	3.8	8.47e-01	0	44	104	0	65	13634
2026-01-19 14:23:05.64	343.08	26.39	-47.3	-59.1	3.8	8.47e-01	0	44	104	0	65	13701
2026-01-19 14:23:06.63	343.08	26.23	-47.3	-59.1	3.8	8.47e-01	0	44	104	0	65	13659
2026-01-19 14:23:07.62	343.08	26.06	-47.2	-59.1	3.8	8.46e-01	0	44	104	0	65	13700
2026-01-19 14:23:08.61	343.08	25.90	-47.2	-59.1	3.8	8.47e-01	0	44	104	0	65	13656
2026-01-19 14:23:09.61	343.08	25.74	-47.3	-59.1	3.8	8.47e-01	0	44	104	0	65	13709
2026-01-19 14:23:10.60	343.09	25.58	-47.3	-59.1	3.8	8.47e-01	0	44	104	0	65	13676
2026-01-19 14:23:11.59	343.09	25.42	-47.2	-59.1	3.8	8.48e-01	0	44	104	0	65	13723
2026-01-19 14:23:12.58	343.09	25.26	-47.3	-59.1	3.8	8.45e-01	0	44	104	0	65	13659
2026-01-19 14:23:13.58	343.09	25.10	-47.3	-59.1	3.8	8.46e-01	0	44	104	0	65	13648
2026-01-19 14:23:14.57	343.10	24.94	-47.3	-59.2	3.8	8.48e-01	0	44	104	0	65	13729
2026-01-19 14:23:15.56	343.10	24.78	-47.3	-59.1	3.8	8.47e-01	0	44	104	0	65	13698
2026-01-19 14:23:16.56	343.10	24.63	-47.2	-59.1	3.8	8.47e-01	0	44	104	0	65	13676
2026-01-19 14:23:17.55	343.10	24.47	-47.2	-59.1	3.8	8.46e-01	0	44	104	0	65	13639
2026-01-19 14:23:18.54	343.10	24.32	-47.2	-59.1	3.8	8.46e-01	0	44	104	0	65	13662
2026-01-19 14:23:19.53	343.11	24.17	-47.3	-59.1	3.8	8.47e-01	0	44	104	0	65	13667
2026-01-19 14:23:20.53	343.11	24.01	-47.2	-59.1	3.8	8.47e-01	0	44	104	0	65	13725
2026-01-19 14:23:21.52	343.11	23.86	-47.2	-59.1	3.8	8.48e-01	0	44	104	0	65	13689
2026-01-19 14:23:22.51	343.11	23.71	-47.3	-59.1	3.8	8.47e-01	0	44	104	0	65	13695
2026-01-19 14:23:23.51	343.12	23.56	-47.2	-59.1	3.8	8.48e-01	0	44	104	0	65	13655
2026-01-19 14:23:24.50	343.12	23.41	-47.3	-59.1	3.8	8.46e-01	0	44	104	0	65	13692
2026-01-19 14:23:25.49	343.12	23.26	-47.3	-59.1	3.8	8.46e-01	0	44	104	0	65	13685
2026-01-19 14:23:26.49	343.12	23.12	-47.3	-59.1	3.8	8.47e-01	0	44	104	0	65	13636
2026-01-19 14:23:27.48	343.13	22.97	-47.3	-59.1	3.8	8.48e-01	0	44	104	0	65	13720
2026-01-19 14:23:28.47	343.13	22.83	-47.3	-59.1	3.8	8.47e-01	0	44	104	0	65	13698
2026-01-19 14:23:29.46	343.13	22.68	-47.3	-59.1	3.8	8.47e-01	0	44	104	0	65	13663
2026-01-19 14:23:30.46	343.13	22.54	-47.3	-59.2	3.8	8.47e-01	0	44	104	0	65	13803
2026-01-19 14:23:31.45	343.14	22.39	-47.3	-59.1	3.8	8.47e-01	0	44	104	0	65	13639
2026-01-19 14:23:32.44	343.14	22.25	-47.3	-59.1	3.8	8.47e-01	0	44	104	0	65	13712
2026-01-19 14:23:33.44	343.14	22.11	-47.3	-59.2	3.8	8.46e-01	0	44	104	0	65	13773
2026-01-19 14:23:34.43	343.14	21.97	-47.3	-59.1	3.8	8.48e-01	0	44	104	0	65	13683
2026-01-19 14:23:35.42	343.15	21.83	-47.3	-59.2	3.8	8.46e-01	0	44	104	0	65	13739
2026-01-19 14:23:36.41	343.15	21.69	-47.3	-59.1	3.8	8.47e-01	0	44	104	0	65	13613
2026-01-19 14:23:37.41	343.15	21.55	-47.3	-59.1	3.8	8.46e-01	0	44	104	0	65	13685
2026-01-19 14:23:38.40	343.15	21.42	-47.3	-59.1	3.8	8.48e-01	0	44	104	0	65	13657
2026-01-19 14:23:39.39	343.16	21.28	-47.3	-59.1	3.8	8.47e-01	0	44	104	0	65	13692
2026-01-19 14:23:40.39	343.16	21.14	-47.2	-59.1	3.8	8.47e-01	0	44	104	0	65	13688
2026-01-19 14:23:41.38	343.16	21.01	-47.2	-59.1	3.8	8.47e-01	0	44	104	0	65	13613
2026-01-19 14:23:42.37	343.16	20.87	-47.3	-59.1	3.8	8.48e-01	0	44	104	0	65	13701
2026-01-19 14:23:43.37	343.17	20.74	-47.3	-59.1	3.8	8.48e-01	0	44	104	0	65	13622
2026-01-19 14:23:44.36	343.17	20.61	-47.2	-59.2	3.8	8.47e-01	0	44	104	0	65	13782
2026-01-19 14:23:45.35	343.17	20.47	-47.3	-59.1	3.8	8.47e-01	0	44	104	0	65	13723
2026-01-19 14:23:46.34	343.18	20.34	-47.2	-59.1	3.8	8.47e-01	0	44	104	0	65	13698
2026-01-19 14:23:47.34	343.18	20.21	-47.3	-59.2	3.8	8.47e-01	0	44	104	0	65	13761
2026-01-19 14:23:48.33	343.18	20.08	-47.2	-59.2	3.8	8.48e-01	0	44	104	0	65	13785
2026-01-19 14:23:49.32	343.18	19.95	-47.2	-59.1	3.8	8.48e-01	0	44	104	0	65	13629
2026-01-19 14:23:50.31	343.19	19.82	-47.2	-59.1	3.8	8.48e-01	0	44	104	0	65	13699
2026-01-19 14:23:51.31	343.19	19.69	-47.2	-59.1	3.8	8.47e-01	0	44	104	0	65	13680
2026-01-19 14:23:52.30	343.19	19.57	-47.2	-59.1	3.8	8.47e-01	0	44	104	0	65	13716
2026-01-19 14:23:53.29	343.19	19.44	-47.3	-59.1	3.8	8.46e-01	0	44	104	0	65	13709
2026-01-19 14:23:54.29	343.20	19.31	-47.3	-59.1	3.8	8.47e-01	0	44	104	0	65	13659
2026-01-19 14:23:55.28	343.20	19.19	-47.2	-59.1	3.8	8.47e-01	0	44	104	0	65	13724
2026-01-19 14:23:56.27	343.20	19.06	-47.2	-59.1	3.8	8.47e-01	0	44	104	0	65	13687
2026-01-19 14:23:57.26	343.21	18.94	-47.2	-59.1	3.8	8.46e-01	0	44	104	0	65	13710
2026-01-19 14:23:58.26	343.21	18.81	-47.3	-59.1	3.8	8.46e-01	0	44	104	0	65	13693
2026-01-19 14:23:59.25	343.21	18.69	-47.3	-59.1	3.8	8.46e-01	0	44	104	0	65	13705
2026-01-19 14:24:00.24	343.21	18.57	-47.3	-59.2	3.8	8.47e-01	0	44	104	0	65	13732
2026-01-19 14:24:01.24	343.22	18.45	-47.3	-59.1	3.8	8.48e-01	0	44	104	0	65	13702
2026-01-19 14:24:02.23	343.22	18.33	-47.2	-59.1	3.8	8.46e-01	0	44	104	0	65	13708
2026-01-19 14:24:03.22	343.22	18.20	-47.2	-59.1	3.8	8.47e-01	0	44	104	0	65	13640
2026-01-19 14:24:04.21	343.23	18.08	-47.2	-59.2	3.8	8.46e-01	0	44	104	0	65	13729
2026-01-19 14:24:05.21	343.23	17.96	-47.3	-59.1	3.8	8.47e-01	0	44	104	0	65	13640
2026-01-19 14:24:06.20	343.23	17.85	-47.2	-59.1	3.8	8.47e-01	0	44	104	0	65	13632
2026-01-19 14:24:07.19	343.23	17.73	-47.2	-59.2	3.8	8.46e-01	0	44	104	0	65	13803
2026-01-19 14:24:08.18	343.24	17.61	-47.2	-59.2	3.8	8.47e-01	0	44	104	0	65	13729
2026-01-19 14:24:09.18	343.24	17.49	-47.3	-59.1	3.8	8.46e-01	0	44	104	0	65	13675
2026-01-19 14:24:10.17	343.24	17.38	-47.3	-59.1	3.8	8.47e-01	0	44	104	0	65	13611
2026-01-19 14:24:11.16	343.25	17.26	-47.2	-59.1	3.8	8.49e-01	0	44	104	0	65	13714
2026-01-19 14:24:12.16	343.25	17.14	-47.3	-59.1	3.8	8.47e-01	0	44	104	0	65	13665
2026-01-19 14:24:13.15	343.25	17.03	-47.2	-59.1	3.8	8.45e-01	0	44	104	0	65	13686
2026-01-19 14:24:14.14	343.25	16.91	-47.3	-59.1	3.8	8.47e-01	0	44	104	0	65	13657
2026-01-19 14:24:15.13	343.26	16.80	-47.3	-59.1	3.8	8.47e-01	0	44	104	0	65	13644
2026-01-19 14:24:16.13	343.26	16.69	-47.3	-59.1	3.8	8.46e-01	0	44	104	0	65	13640
2026-01-19 14:24:17.12	343.26	16.57	-47.3	-59.1	3.8	8.46e-01	0	44	104	0	65	13635
2026-01-19 14:24:18.11	343.27	16.46	-47.3	-59.1	3.8	8.47e-01	0	44	104	0	65	13672
2026-01-19 14:24:19.11	343.27	16.35	-47.3	-59.1	3.8	8.48e-01	0	44	104	0	65	13689
2026-01-19 14:24:20.10	343.27	16.24	-47.3	-59.1	3.8	8.47e-01	0	44	104	0	65	13671
2026-01-19 14:24:21.09	343.28	16.13	-47.2	-59.1	3.8	8.48e-01	0	44	104	0	65	13656
2026-01-19 14:24:22.08	343.28	16.02	-47.3	-59.1	3.8	8.47e-01	0	44	104	0	65	13660
2026-01-19 14:24:23.08	343.28	15.91	-47.3	-59.1	3.8	8.47e-01	0	44	104	0	65	13705
2026-01-19 14:24:24.07	343.28	15.80	-47.3	-59.1	3.8	8.46e-01	0	44	104	0	65	13707
2026-01-19 14:24:25.06	343.29	15.69	-47.2	-59.1	3.8	8.47e-01	0	44	104	0	65	13645
2026-01-19 14:24:26.06	343.29	15.58	-47.3	-59.1	3.8	8.47e-01	0	44	104	0	65	13700
2026-01-19 14:24:27.05	343.29	15.47	-47.3	-59.1	3.8	8.47e-01	0	44	104	0	65	13670
2026-01-19 14:24:28.04	343.30	15.37	-47.2	-59.2	3.8	8.47e-01	0	44	104	0	65	13802
2026-01-19 14:24:29.03	343.30	15.26	-47.2	-59.2	3.8	8.46e-01	0	44	104	0	65	13780
2026-01-19 14:24:30.03	343.30	15.15	-47.3	-59.1	3.8	8.46e-01	0	44	104	0	65	13664
2026-01-19 14:24:31.02	343.31	15.05	-47.3	-59.1	3.8	8.47e-01	0	44	104	0	65	13697
2026-01-19 14:24:32.01	343.31	14.94	-47.3	-59.2	3.8	8.46e-01	0	44	104	0	65	13762
2026-01-19 14:24:33.01	343.31	14.83	-47.2	-59.1	3.8	8.46e-01	0	44	104	0	65	13701
2026-01-19 14:24:34.00	343.32	14.73	-47.3	-59.1	3.8	8.47e-01	0	44	104	0	65	13678
2026-01-19 14:24:34.99	343.32	14.63	-47.2	-59.1	3.8	8.46e-01	0	44	104	0	65	13726
2026-01-19 14:24:35.98	343.32	14.52	-47.3	-59.1	3.8	8.46e-01	0	44	104	0	65	13691
2026-01-19 14:24:36.98	343.32	14.42	-47.2	-59.1	3.8	8.47e-01	0	44	104	0	65	13588
2026-01-19 14:24:37.97	343.33	14.32	-47.2	-59.1	3.8	8.47e-01	0	44	104	0	65	13656
2026-01-19 14:24:38.96	343.33	14.21	-47.3	-59.1	3.8	8.46e-01	0	44	104	0	65	13675
2026-01-19 14:24:39.96	343.33	14.11	-47.2	-59.1	3.8	8.47e-01	0	44	104	0	65	13683
2026-01-19 14:24:40.95	343.34	14.01	-47.2	-59.1	3.8	8.48e-01	0	44	104	0	65	13707
2026-01-19 14:24:41.94	343.34	13.91	-47.2	-59.1	3.8	8.47e-01	0	44	104	0	65	13704
2026-01-19 14:24:42.93	343.34	13.81	-47.2	-59.1	3.8	8.47e-01	0	44	104	0	65	13661
2026-01-19 14:24:43.93	343.35	13.71	-47.2	-59.1	3.8	8.46e-01	0	44	104	0	65	13653
2026-01-19 14:24:44.92	343.35	13.61	-47.2	-59.1	3.8	8.47e-01	0	44	104	0	65	13690
2026-01-19 14:24:45.91	343.35	13.51	-47.2	-59.1	3.8	8.47e-01	0	44	104	0	65	13689
2026-01-19 14:24:46.91	343.36	13.41	-47.2	-59.1	3.8	8.46e-01	0	44	104	0	65	13716
2026-01-19 14:24:47.90	343.36	13.31	-47.3	-59.1	3.8	8.46e-01	0	44	104	0	65	13669
2026-01-19 14:24:48.89	343.36	13.21	-47.3	-59.1	3.8	8.47e-01	0	44	104	0	65	13668
2026-01-19 14:24:49.88	343.37	13.12	-47.3	-59.1	3.8	8.47e-01	0	44	104	0	65	13696
2026-01-19 14:24:50.88	343.37	13.02	-47.3	-59.1	3.8	8.46e-01	0	44	104	0	65	13593
2026-01-19 14:24:51.87	343.37	12.92	-47.2	-59.1	3.8	8.47e-01	0	44	104	0	65	13651
2026-01-19 14:24:52.86	343.38	12.82	-47.3	-59.2	3.8	8.47e-01	0	44	104	0	65	13741
2026-01-19 14:24:53.86	343.38	12.73	-47.3	-59.1	3.8	8.47e-01	0	44	104	0	65	13688
2026-01-19 14:24:54.85	343.38	12.63	-47.3	-59.2	3.8	8.45e-01	0	44	104	0	65	13734
2026-01-19 14:24:55.84	343.38	12.54	-47.3	-59.1	3.8	8.48e-01	0	44	104	0	65	13572
2026-01-19 14:24:56.84	343.39	12.44	-47.3	-59.1	3.8	8.48e-01	0	44	104	0	65	13609
2026-01-19 14:24:57.83	343.39	12.35	-47.3	-59.1	3.8	8.47e-01	0	44	104	0	65	13639
2026-01-19 14:24:58.82	343.39	12.25	-47.3	-59.2	3.8	8.47e-01	0	44	104	0	65	13752
2026-01-19 14:24:59.81	343.40	12.16	-47.2	-59.1	3.8	8.47e-01	0	44	104	0	65	13679
2026-01-19 14:25:00.81	343.40	12.06	-47.2	-59.1	3.8	8.46e-01	0	44	104	0	65	13695
2026-01-19 14:25:01.80	343.40	11.97	-47.3	-59.1	3.8	8.46e-01	0	44	104	0	65	13707
2026-01-19 14:25:02.79	343.41	11.88	-47.3	-59.2	3.8	8.47e-01	0	44	104	0	65	13743
2026-01-19 14:25:03.79	343.41	11.78	-47.3	-59.1	3.8	8.47e-01	0	44	104	0	65	13676
2026-01-19 14:25:04.78	343.41	11.69	-47.3	-59.1	3.8	8.46e-01	0	44	104	0	65	13714
2026-01-19 14:25:05.77	343.42	11.60	-47.3	-59.1	3.8	8.47e-01	0	44	104	0	65	13722
2026-01-19 14:25:06.77	343.42	11.51	-47.3	-59.1	3.8	8.47e-01	0	44	104	0	65	13661
2026-01-19 14:25:07.76	343.42	11.42	-47.2	-59.1	3.8	8.47e-01	0	44	104	0	65	13637
2026-01-19 14:25:08.75	343.43	11.33	-47.3	-59.1	3.8	8.47e-01	0	44	104	0	65	13614
2026-01-19 14:25:09.75	343.43	11.24	-47.2	-59.1	3.8	8.48e-01	0	44	104	0	65	13678
2026-01-19 14:25:10.74	343.43	11.15	-47.2	-59.1	3.8	8.47e-01	0	44	104	0	65	13722
2026-01-19 14:25:11.73	343.44	11.06	-47.3	-59.1	3.8	8.46e-01	0	44	104	0	65	13707
2026-01-19 14:25:12.73	343.44	10.97	-47.3	-59.1	3.8	8.46e-01	0	44	104	0	65	13655
2026-01-19 14:25:13.72	343.44	10.88	-47.3	-59.1	3.8	8.46e-01	0	44	104	0	65	13673
2026-01-19 14:25:14.71	343.45	10.79	-47.3	-59.1	3.8	8.47e-01	0	44	104	0	65	13642
2026-01-19 14:25:15.70	343.45	10.70	-47.3	-59.2	3.8	8.47e-01	0	44	104	0	65	13780
2026-01-19 14:25:16.70	343.45	10.61	-47.3	-59.1	3.8	8.47e-01	0	44	104	0	65	13657
2026-01-19 14:25:17.69	343.46	10.52	-47.3	-59.1	3.8	8.46e-01	0	44	104	0	65	13724
2026-01-19 14:25:18.68	343.46	10.44	-47.3	-59.1	3.8	8.45e-01	0	44	104	0	65	13710
2026-01-19 14:25:19.68	343.46	10.35	-47.3	-59.1	3.8	8.47e-01	0	44	104	0	65	13678
2026-01-19 14:25:20.67	343.47	10.26	-47.3	-59.1	3.8	8.48e-01	0	44	104	0	65	13705
2026-01-19 14:25:21.66	343.47	10.17	-47.3	-59.1	3.8	8.47e-01	0	44	104	0	65	13705
2026-01-19 14:25:22.66	343.47	10.09	-47.3	-59.1	3.8	8.46e-01	0	44	104	0	65	13707
2026-01-19 14:25:23.65	343.48	10.00	-47.2	-59.1	3.8	8.47e-01	0	44	104	0	65	13668
2026-01-19 14:25:24.64	343.48	9.92	-47.3	-59.1	3.8	8.47e-01	0	44	104	0	65	13635
2026-01-19 14:25:25.64	343.48	9.83	-47.2	-59.1	3.8	8.48e-01	0	44	104	0	65	13719
2026-01-19 14:25:26.63	343.49	9.74	-47.2	-59.1	3.8	8.47e-01	0	44	104	0	65	13642
2026-01-19 14:25:27.62	343.49	9.66	-47.3	-59.1	3.8	8.47e-01	0	44	104	0	65	13698
2026-01-19 14:25:28.61	343.49	9.58	-47.2	-59.1	3.8	8.46e-01	0	44	104	0	65	13672
2026-01-19 14:25:29.61	343.50	9.49	-47.2	-59.1	3.8	8.47e-01	0	44	104	0	65	13665
2026-01-19 14:25:30.60	343.50	9.41	-47.2	-59.1	3.8	8.46e-01	0	44	104	0	65	13652
2026-01-19 14:25:31.59	343.50	9.32	-47.2	-59.1	3.8	8.47e-01	0	44	104	0	65	13698
2026-01-19 14:25:32.59	343.51	9.24	-47.2	-59.2	3.8	8.47e-01	0	44	104	0	65	13735
2026-01-19 14:25:33.58	343.51	9.16	-47.2	-59.1	3.8	8.48e-01	0	44	104	0	65	13675
2026-01-19 14:25:34.57	343.52	9.07	-47.2	-59.1	3.8	8.47e-01	0	44	104	0	65	13649
2026-01-19 14:25:35.57	343.52	8.99	-47.2	-59.1	3.8	8.46e-01	0	44	104	0	65	13643
2026-01-19 14:25:36.56	343.52	8.91	-47.2	-59.1	3.8	8.47e-01	0	44	104	0	65	13718
2026-01-19 14:25:37.55	343.53	8.83	-47.2	-59.1	3.8	8.48e-01	0	44	104	0	65	13648
2026-01-19 14:25:38.54	343.53	8.74	-47.2	-59.1	3.8	8.47e-01	0	44	104	0	65	13616
2026-01-19 14:25:39.54	343.53	8.66	-47.2	-59.1	3.8	8.47e-01	0	44	104	0	65	13724
2026-01-19 14:25:40.53	343.54	8.58	-47.2	-59.1	3.8	8.46e-01	0	44	104	0	65	13683
2026-01-19 14:25:41.53	343.54	8.50	-47.2	-59.1	3.8	8.47e-01	0	44	104	0	65	13626
