passes_logs/2026/01/19/T1/T1__20260119_023903_FENGYUN_3D_rec.log

#Pass ID: 20260119_023903_FENGYUN 3D
#Satellite: FENGYUN 3D
#Configuration: FENGYUN 3D
#almurnet v.1.7.20251203
#Start time: 2026-01-19 02:39:05

#Version: 2.0.20230620
#Station: T1
#Location: 37.570604 lon 55.790049 lat
#TLE: 1 43010U 17072A   26017.96359538  .00000271  00000+0  15011-3 0  9999
#TLE: 2 43010  98.9936 349.8252 0002386 103.8840 256.2601 14.19697057423673

#Time	Az	El	Level	Level2	SNR	BER	BlckErr	Temp	State	Recorded	gain1	gain2
2026-01-19 02:39:05.76	11.40	5.15	-46.3	-61.7	3.8	8.47e-01	0	39	0	0	64	20978
2026-01-19 02:39:06.75	11.36	5.22	-46.4	-61.8	3.8	8.45e-01	0	39	104	0	63	22411
2026-01-19 02:39:07.74	11.32	5.29	-46.4	-61.8	3.8	8.47e-01	0	39	104	0	63	22377
2026-01-19 02:39:08.74	11.27	5.36	-46.4	-61.8	3.8	8.46e-01	0	39	104	0	63	22282
2026-01-19 02:39:09.73	11.23	5.43	-46.4	-61.8	3.8	8.47e-01	0	40	104	0	63	22307
2026-01-19 02:39:10.72	11.19	5.50	-46.4	-61.7	3.8	8.48e-01	0	40	104	0	63	22257
2026-01-19 02:39:11.72	11.14	5.57	-46.4	-61.7	3.8	8.46e-01	0	39	104	0	63	22230
2026-01-19 02:39:12.71	11.10	5.64	-46.4	-61.7	3.8	8.48e-01	0	39	104	0	63	22232
2026-01-19 02:39:13.70	11.06	5.71	-46.4	-61.7	3.8	8.47e-01	0	40	104	0	63	22167
2026-01-19 02:39:14.70	11.01	5.78	-46.4	-61.7	3.8	8.48e-01	0	40	104	0	63	22157
2026-01-19 02:39:15.69	10.97	5.85	-46.4	-61.7	3.8	8.47e-01	0	40	104	0	63	22233
2026-01-19 02:39:16.69	10.93	5.92	-46.4	-61.8	3.8	8.47e-01	0	40	104	0	63	22274
2026-01-19 02:39:17.68	10.88	5.99	-46.4	-61.7	3.8	8.48e-01	0	40	104	0	63	22227
2026-01-19 02:39:18.67	10.84	6.06	-46.4	-61.7	3.8	8.47e-01	0	40	104	0	63	22209
2026-01-19 02:39:19.67	10.79	6.13	-46.4	-61.7	3.8	8.47e-01	0	40	104	0	63	22199
2026-01-19 02:39:20.66	10.75	6.20	-46.4	-61.7	3.8	8.49e-01	0	40	104	0	63	22152
2026-01-19 02:39:21.65	10.70	6.27	-46.4	-61.8	3.8	8.46e-01	0	40	104	0	63	22265
2026-01-19 02:39:22.65	10.66	6.34	-46.4	-61.7	3.8	8.46e-01	0	40	104	0	63	22145
2026-01-19 02:39:23.64	10.61	6.41	-46.4	-61.6	3.8	8.47e-01	0	40	104	0	63	21975
2026-01-19 02:39:24.63	10.57	6.48	-46.4	-61.5	3.8	8.46e-01	0	40	104	0	63	21684
2026-01-19 02:39:25.63	10.52	6.55	-46.4	-61.3	3.8	8.47e-01	0	40	104	0	63	21162
2026-01-19 02:39:26.62	10.47	6.63	-46.3	-61.0	3.8	8.46e-01	0	40	104	0	63	20339
2026-01-19 02:39:27.62	10.43	6.70	-46.3	-60.6	3.8	8.45e-01	0	40	104	0	63	19536
2026-01-19 02:39:28.61	10.38	6.77	-46.2	-60.1	3.8	8.47e-01	0	40	104	0	63	18464
2026-01-19 02:39:29.60	10.33	6.84	-46.2	-59.7	3.9	8.45e-01	0	40	104	0	63	17615
2026-01-19 02:39:30.60	10.28	6.92	-46.2	-59.2	3.8	8.45e-01	0	40	104	0	63	16669
2026-01-19 02:39:31.59	10.24	6.99	-46.2	-58.9	4.0	8.42e-01	0	40	104	0	63	15990
2026-01-19 02:39:32.58	10.19	7.06	-46.1	-58.5	4.1	8.40e-01	0	40	0	0	63	15367
2026-01-19 02:39:33.58	10.14	7.13	-46.1	-58.5	4.1	8.41e-01	0	40	0	0	63	15291
2026-01-19 02:39:34.57	10.09	7.21	-46.1	-58.4	4.1	8.39e-01	0	40	0	0	63	15142
2026-01-19 02:39:35.56	10.04	7.28	-46.2	-58.7	4.1	8.42e-01	0	40	0	0	63	15735
2026-01-19 02:39:36.56	9.99	7.36	-46.2	-59.2	3.9	8.45e-01	0	40	104	0	63	16627
2026-01-19 02:39:37.55	9.94	7.43	-46.2	-59.4	3.9	8.44e-01	0	41	104	0	63	17078
2026-01-19 02:39:38.55	9.89	7.50	-46.3	-60.1	3.8	8.45e-01	0	40	104	0	63	18433
2026-01-19 02:39:39.54	9.84	7.58	-46.3	-60.5	3.8	8.47e-01	0	40	104	0	63	19389
2026-01-19 02:39:40.53	9.79	7.65	-46.3	-61.0	3.8	8.47e-01	0	40	104	0	63	20528
2026-01-19 02:39:41.53	9.74	7.73	-46.4	-61.5	3.8	8.47e-01	0	41	104	0	63	21507
2026-01-19 02:39:42.52	9.69	7.80	-46.3	-61.7	3.8	8.47e-01	0	41	104	0	63	22151
2026-01-19 02:39:43.51	9.64	7.88	-46.3	-61.6	3.8	8.47e-01	0	41	104	0	63	21791
2026-01-19 02:39:44.51	9.59	7.95	-46.3	-60.6	3.8	8.48e-01	0	41	104	0	63	19533
2026-01-19 02:39:45.50	9.54	8.03	-46.1	-58.5	4.1	8.43e-01	0	41	0	0	63	15290
2026-01-19 02:39:46.49	9.49	8.10	-45.9	-56.0	5.1	7.80e-01	0	41	0	0	63	11471
2026-01-19 02:39:47.49	9.44	8.18	-45.5	-53.5	7.0	2.94e-01	0	41	0	3145728	63	8632
2026-01-19 02:39:48.48	9.38	8.25	-44.9	-51.4	9.0	6.56e-02	0	41	0	9437184	61	7622
2026-01-19 02:39:49.47	9.33	8.33	-44.2	-49.6	10.9	6.02e-03	0	41	0	14680064	60	6505
2026-01-19 02:39:50.47	9.28	8.41	-43.7	-48.1	12.4	6.05e-04	0	41	0	19922944	59	5847
2026-01-19 02:39:51.46	9.22	8.48	-43.0	-46.9	13.7	1.60e-05	0	41	0	26214400	58	5343
2026-01-19 02:39:52.45	9.17	8.56	-42.5	-45.9	14.7	1.10e-06	0	41	0	31457280	56	5387
2026-01-19 02:39:53.45	9.12	8.64	-41.8	-45.0	15.4	0.00e+00	0	41	0	36700160	55	5124
2026-01-19 02:39:54.44	9.06	8.72	-41.5	-44.6	15.8	0.00e+00	0	41	0	41943040	55	4923
2026-01-19 02:39:55.43	9.01	8.79	-41.3	-44.3	16.1	0.00e+00	0	41	0	48234496	54	5023
2026-01-19 02:39:56.42	8.95	8.87	-41.4	-44.4	16.1	0.00e+00	0	41	0	53477376	54	5068
2026-01-19 02:39:57.42	8.90	8.95	-41.5	-44.6	15.8	0.00e+00	0	41	0	59768832	54	5210
2026-01-19 02:39:58.41	8.84	9.03	-41.8	-45.1	15.4	0.00e+00	0	41	0	65011712	54	5484
2026-01-19 02:39:59.41	8.79	9.11	-41.9	-45.1	15.3	1.10e-06	0	41	0	70254592	54	5515
2026-01-19 02:40:00.40	8.73	9.18	-40.8	-43.5	16.9	0.00e+00	0	41	0	75497472	53	4868
2026-01-19 02:40:01.40	8.67	9.26	-41.5	-44.4	16.1	0.00e+00	0	41	0	81788928	53	5363
2026-01-19 02:40:02.39	8.62	9.34	-44.0	-49.0	11.4	1.62e-02	0	41	0	87031808	60	6109
2026-01-19 02:40:03.39	8.56	9.42	-43.4	-47.2	13.3	6.40e-03	0	41	0	92274688	58	5547
2026-01-19 02:40:04.38	8.50	9.50	-39.5	-41.8	18.7	0.00e+00	0	41	0	98566144	51	4458
2026-01-19 02:40:05.38	8.44	9.58	-39.6	-41.8	18.6	0.00e+00	0	41	0	103809024	51	4482
2026-01-19 02:40:06.37	8.39	9.66	-39.6	-41.8	18.7	0.00e+00	0	41	0	110100480	51	4443
2026-01-19 02:40:07.37	8.33	9.74	-39.6	-41.8	18.7	0.00e+00	0	41	0	115343360	51	4490
2026-01-19 02:40:08.36	8.27	9.82	-39.6	-41.8	18.7	0.00e+00	0	41	0	120586240	51	4445
2026-01-19 02:40:09.36	8.21	9.90	-39.6	-41.8	18.8	0.00e+00	0	41	0	126877696	51	4442
2026-01-19 02:40:10.35	8.15	9.98	-39.5	-41.7	18.8	0.00e+00	0	41	0	132120576	51	4424
2026-01-19 02:40:11.43	8.08	10.07	-39.5	-41.7	18.9	0.00e+00	0	41	0	138412032	50	4658
2026-01-19 02:40:12.31	8.03	10.14	-39.5	-41.7	18.9	0.00e+00	0	41	0	142606336	50	4656
2026-01-19 02:40:13.45	7.96	10.24	-39.5	-41.7	18.9	0.00e+00	0	41	0	148897792	50	4656
2026-01-19 02:40:14.30	7.91	10.31	-39.6	-41.7	18.8	0.00e+00	0	41	0	154140672	50	4705
2026-01-19 02:40:15.44	7.84	10.40	-39.5	-41.6	18.9	0.00e+00	0	41	0	160432128	50	4632
2026-01-19 02:40:16.29	7.79	10.47	-39.5	-41.6	18.9	0.00e+00	0	41	0	165675008	50	4624
2026-01-19 02:40:17.43	7.71	10.57	-39.5	-41.7	18.9	0.00e+00	0	41	0	171966464	50	4669
2026-01-19 02:40:18.28	7.66	10.64	-39.6	-41.7	18.8	0.00e+00	0	41	0	176160768	50	4704
2026-01-19 02:40:19.42	7.59	10.73	-39.7	-41.8	18.7	0.00e+00	0	41	0	183500800	50	4736
2026-01-19 02:40:20.27	7.54	10.80	-39.7	-41.9	18.7	0.00e+00	0	41	0	187695104	50	4779
2026-01-19 02:40:21.41	7.46	10.90	-39.8	-42.0	18.6	0.00e+00	0	41	0	193986560	50	4821
2026-01-19 02:40:22.27	7.41	10.97	-39.7	-41.8	18.7	0.00e+00	0	41	0	199229440	50	4748
2026-01-19 02:40:23.41	7.33	11.07	-39.4	-41.5	19.0	0.00e+00	0	41	0	205520896	50	4580
2026-01-19 02:40:24.26	7.28	11.14	-39.5	-41.6	19.0	0.00e+00	0	41	0	209715200	50	4608
2026-01-19 02:40:25.47	7.20	11.24	-39.5	-41.6	19.0	0.00e+00	0	41	0	217055232	50	4614
2026-01-19 02:40:26.33	7.14	11.32	-39.4	-41.4	19.2	0.00e+00	0	41	0	222298112	50	4526
2026-01-19 02:40:27.47	7.07	11.41	-39.3	-41.4	19.2	0.00e+00	0	41	0	228589568	50	4502
2026-01-19 02:40:28.32	7.01	11.49	-39.4	-41.5	19.1	0.00e+00	0	41	0	232783872	50	4564
2026-01-19 02:40:29.46	6.93	11.59	-39.3	-41.3	19.3	0.00e+00	0	41	0	239075328	50	4453
2026-01-19 02:40:30.31	6.87	11.66	-39.2	-41.2	19.4	0.00e+00	0	41	0	244318208	50	4423
2026-01-19 02:40:31.45	6.80	11.76	-39.3	-41.3	19.3	0.00e+00	0	41	0	250609664	50	4464
2026-01-19 02:40:32.38	6.73	11.84	-39.1	-41.1	19.4	0.00e+00	0	41	0	255852544	50	4383
2026-01-19 02:40:33.53	6.65	11.94	-39.2	-41.2	19.4	0.00e+00	0	42	0	262144000	50	4413
2026-01-19 02:40:34.41	6.59	12.02	-39.2	-41.2	19.4	0.00e+00	0	41	0	267386880	50	4399
2026-01-19 02:40:35.55	6.51	12.12	-39.3	-41.3	19.3	0.00e+00	0	41	0	273678336	50	4481
2026-01-19 02:40:36.40	6.45	12.19	-39.1	-41.1	19.5	0.00e+00	0	41	0	278921216	50	4358
2026-01-19 02:40:37.54	6.37	12.29	-39.1	-41.1	19.5	0.00e+00	0	41	0	285212672	50	4361
2026-01-19 02:40:38.39	6.31	12.37	-39.1	-41.1	19.5	0.00e+00	0	41	0	289406976	50	4360
2026-01-19 02:40:39.53	6.23	12.47	-39.1	-41.1	19.5	0.00e+00	0	42	0	295698432	50	4360
2026-01-19 02:40:40.38	6.17	12.54	-39.1	-41.0	19.5	0.00e+00	0	41	0	300941312	50	4339
2026-01-19 02:40:41.52	6.09	12.65	-39.0	-40.9	19.7	0.00e+00	0	41	0	307232768	50	4287
2026-01-19 02:40:42.38	6.02	12.72	-38.9	-40.9	19.7	0.00e+00	0	41	0	312475648	49	4512
2026-01-19 02:40:43.51	5.94	12.83	-38.9	-40.9	19.7	0.00e+00	0	41	0	318767104	49	4498
2026-01-19 02:40:44.37	5.88	12.90	-39.0	-40.9	19.6	0.00e+00	0	41	0	322961408	49	4543
2026-01-19 02:40:45.52	5.79	13.01	-39.0	-40.9	19.7	0.00e+00	0	41	0	330301440	49	4529
2026-01-19 02:40:46.37	5.73	13.08	-39.0	-40.9	19.7	0.00e+00	0	41	0	334495744	49	4515
2026-01-19 02:40:47.56	5.64	13.19	-39.0	-40.9	19.7	0.00e+00	0	41	0	340787200	49	4533
2026-01-19 02:40:48.41	5.57	13.27	-38.9	-40.8	19.7	0.00e+00	0	41	0	346030080	49	4490
2026-01-19 02:40:49.54	5.49	13.37	-38.9	-40.8	19.8	0.00e+00	0	41	0	352321536	49	4461
2026-01-19 02:40:50.40	5.42	13.45	-38.9	-40.8	19.8	0.00e+00	0	41	0	357564416	49	4468
2026-01-19 02:40:51.53	5.33	13.56	-38.8	-40.7	19.9	0.00e+00	0	42	0	363855872	49	4405
2026-01-19 02:40:52.39	5.27	13.64	-38.8	-40.7	19.9	0.00e+00	0	41	0	368050176	49	4427
2026-01-19 02:40:53.53	5.18	13.74	-38.8	-40.7	19.9	0.00e+00	0	42	0	375390208	49	4428
2026-01-19 02:40:54.38	5.11	13.82	-38.6	-40.5	20.1	0.00e+00	0	41	0	379584512	49	4303
2026-01-19 02:40:55.52	5.02	13.93	-38.7	-40.6	19.9	0.00e+00	0	41	0	385875968	49	4384
2026-01-19 02:40:56.37	4.95	14.01	-38.7	-40.6	20.0	0.00e+00	0	41	0	391118848	49	4343
2026-01-19 02:40:57.51	4.86	14.12	-38.7	-40.6	20.0	0.00e+00	0	42	0	397410304	49	4364
2026-01-19 02:40:58.36	4.79	14.20	-38.5	-40.4	20.2	0.00e+00	0	42	0	401604608	49	4279
2026-01-19 02:40:59.50	4.70	14.30	-38.7	-40.6	20.0	0.00e+00	0	41	0	407896064	49	4350
2026-01-19 02:41:00.35	4.63	14.39	-38.6	-40.4	20.1	0.00e+00	0	41	0	413138944	49	4287
2026-01-19 02:41:01.49	4.53	14.49	-38.6	-40.5	20.1	0.00e+00	0	42	0	419430400	49	4303
2026-01-19 02:41:02.34	4.46	14.58	-38.6	-40.4	20.1	0.00e+00	0	42	0	424673280	49	4288
2026-01-19 02:41:03.48	4.37	14.68	-38.5	-40.4	20.2	0.00e+00	0	42	0	430964736	49	4270
2026-01-19 02:41:04.33	4.30	14.77	-38.5	-40.4	20.2	0.00e+00	0	42	0	435159040	49	4274
2026-01-19 02:41:05.47	4.20	14.88	-38.5	-40.4	20.2	0.00e+00	0	41	0	442499072	49	4246
2026-01-19 02:41:06.32	4.13	14.96	-38.6	-40.5	20.2	0.00e+00	0	41	0	446693376	49	4300
2026-01-19 02:41:07.52	4.02	15.08	-38.4	-40.3	20.4	0.00e+00	0	41	0	454033408	48	4446
2026-01-19 02:41:08.38	3.95	15.16	-38.5	-40.4	20.2	0.00e+00	0	41	0	458227712	48	4506
2026-01-19 02:41:09.51	3.85	15.27	-38.3	-40.2	20.4	0.00e+00	0	42	0	464519168	48	4414
2026-01-19 02:41:10.36	3.77	15.35	-38.4	-40.3	20.4	0.00e+00	0	42	0	469762048	48	4444
2026-01-19 02:41:11.50	3.67	15.47	-38.4	-40.3	20.3	0.00e+00	0	42	0	476053504	48	4456
2026-01-19 02:41:12.36	3.60	15.55	-38.4	-40.3	20.4	0.00e+00	0	42	0	480247808	48	4446
2026-01-19 02:41:13.62	3.48	15.68	-38.3	-40.2	20.4	0.00e+00	0	42	0	487587840	48	4400
2026-01-19 02:41:14.42	3.41	15.76	-38.3	-40.1	20.5	0.00e+00	0	42	0	492830720	48	4387
2026-01-19 02:41:15.56	3.31	15.87	-38.3	-40.1	20.5	0.00e+00	0	42	0	499122176	48	4374
2026-01-19 02:41:16.41	3.23	15.96	-38.3	-40.1	20.5	0.00e+00	0	42	0	503316480	48	4385
2026-01-19 02:41:17.55	3.12	16.07	-38.2	-40.1	20.5	0.00e+00	0	42	0	509607936	48	4360
2026-01-19 02:41:18.40	3.05	16.16	-38.1	-39.9	20.7	0.00e+00	0	42	0	514850816	48	4273
2026-01-19 02:41:19.54	2.94	16.27	-37.8	-39.7	20.7	0.00e+00	0	42	0	521142272	47	4407
2026-01-19 02:41:20.39	2.86	16.36	-37.8	-39.6	20.8	0.00e+00	0	42	0	526385152	47	4389
2026-01-19 02:41:21.53	2.75	16.47	-37.7	-39.5	20.9	0.00e+00	0	41	0	532676608	47	4324
2026-01-19 02:41:22.38	2.67	16.56	-37.7	-39.5	20.9	0.00e+00	0	42	0	536870912	47	4310
2026-01-19 02:41:23.52	2.56	16.68	-37.6	-39.4	20.9	0.00e+00	0	41	0	543162368	47	4291
2026-01-19 02:41:24.37	2.48	16.77	-37.7	-39.5	20.9	0.00e+00	0	42	0	548405248	47	4318
2026-01-19 02:41:25.51	2.37	16.88	-37.6	-39.4	21.0	0.00e+00	0	42	0	554696704	47	4264
2026-01-19 02:41:26.36	2.28	16.97	-37.6	-39.4	20.9	0.00e+00	0	42	0	559939584	47	4283
2026-01-19 02:41:27.50	2.17	17.09	-37.7	-39.5	20.9	0.00e+00	0	42	0	566231040	47	4306
2026-01-19 02:41:28.35	2.08	17.18	-37.7	-39.5	20.9	0.00e+00	0	41	0	570425344	47	4309
2026-01-19 02:41:29.49	1.97	17.30	-37.7	-39.5	20.9	0.00e+00	0	42	0	576716800	47	4333
2026-01-19 02:41:30.34	1.88	17.39	-37.7	-39.5	20.9	0.00e+00	0	42	0	581959680	47	4320
2026-01-19 02:41:31.48	1.77	17.51	-37.8	-39.6	20.9	0.00e+00	0	42	0	588251136	47	4350
2026-01-19 02:41:32.33	1.68	17.60	-37.8	-39.5	20.9	0.00e+00	0	42	0	593494016	47	4340
2026-01-19 02:41:33.47	1.56	17.72	-37.7	-39.5	20.9	0.00e+00	0	42	0	599785472	47	4293
2026-01-19 02:41:34.32	1.47	17.81	-37.7	-39.5	21.0	0.00e+00	0	42	0	603979776	47	4293
2026-01-19 02:41:35.45	1.36	17.93	-37.6	-39.3	21.1	0.00e+00	0	42	0	610271232	47	4237
2026-01-19 02:41:36.30	1.27	18.02	-37.5	-39.3	21.1	0.00e+00	0	42	0	615514112	47	4224
2026-01-19 02:41:37.44	1.14	18.14	-37.5	-39.3	21.1	0.00e+00	0	42	0	621805568	47	4212
2026-01-19 02:41:38.29	1.05	18.24	-37.6	-39.3	21.1	0.00e+00	0	42	0	627048448	47	4239
2026-01-19 02:41:39.51	0.92	18.37	-37.4	-39.2	21.2	0.00e+00	0	42	0	633339904	46	4400
2026-01-19 02:41:40.36	0.83	18.46	-37.3	-39.1	21.3	0.00e+00	0	42	0	638582784	46	4346
2026-01-19 02:41:41.50	0.70	18.58	-37.4	-39.1	21.3	0.00e+00	0	42	0	644874240	46	4388
2026-01-19 02:41:42.35	0.61	18.68	-37.5	-39.3	21.2	0.00e+00	0	42	0	649068544	46	4442
2026-01-19 02:41:43.49	0.48	18.80	-37.3	-39.0	21.4	0.00e+00	0	42	0	655360000	46	4321
2026-01-19 02:41:44.34	0.39	18.90	-37.2	-38.9	21.5	0.00e+00	0	42	0	660602880	46	4277
2026-01-19 02:41:45.48	0.26	19.02	-37.2	-39.0	21.4	0.00e+00	0	42	0	666894336	46	4300
2026-01-19 02:41:46.34	0.16	19.12	-37.2	-38.9	21.5	0.00e+00	0	42	0	672137216	46	4262
2026-01-19 02:41:47.47	0.03	19.24	-37.2	-38.9	21.5	0.00e+00	0	42	0	678428672	46	4284
2026-01-19 02:41:48.32	359.93	19.34	-37.1	-38.8	21.5	0.00e+00	0	42	0	682622976	46	4239
2026-01-19 02:41:49.46	359.80	19.47	-37.1	-38.9	21.5	0.00e+00	0	42	0	689963008	46	4256
2026-01-19 02:41:50.32	359.70	19.56	-37.1	-38.8	21.6	0.00e+00	0	42	0	694157312	46	4220
2026-01-19 02:41:51.45	359.57	19.69	-37.1	-38.8	21.6	0.00e+00	0	42	0	700448768	46	4234
2026-01-19 02:41:52.31	359.46	19.79	-36.9	-38.7	21.6	0.00e+00	0	42	0	705691648	45	4413
2026-01-19 02:41:53.45	359.33	19.92	-37.0	-38.8	21.6	0.00e+00	0	42	0	711983104	45	4445
2026-01-19 02:41:54.30	359.22	20.02	-37.0	-38.8	21.6	0.00e+00	0	42	0	716177408	45	4448
2026-01-19 02:41:55.50	359.08	20.15	-36.9	-38.7	21.7	0.00e+00	0	42	0	723517440	45	4404
2026-01-19 02:41:56.36	358.97	20.25	-36.8	-38.5	21.8	0.00e+00	0	42	0	727711744	45	4337
2026-01-19 02:41:57.57	358.82	20.39	-36.7	-38.5	21.9	0.00e+00	0	42	0	735051776	45	4293
2026-01-19 02:41:58.43	358.71	20.49	-36.8	-38.5	21.8	0.00e+00	0	42	0	740294656	45	4321
2026-01-19 02:41:59.56	358.57	20.62	-36.8	-38.5	21.9	0.00e+00	0	42	0	746586112	45	4302
2026-01-19 02:42:00.41	358.47	20.72	-36.8	-38.5	21.9	0.00e+00	0	42	0	750780416	45	4313
2026-01-19 02:42:01.55	358.32	20.85	-36.7	-38.5	21.9	0.00e+00	0	42	0	757071872	45	4299
2026-01-19 02:42:02.40	358.21	20.95	-36.9	-38.6	21.8	0.00e+00	0	42	0	762314752	45	4364
2026-01-19 02:42:03.54	358.06	21.09	-36.8	-38.5	21.9	0.00e+00	0	42	0	768606208	45	4323
2026-01-19 02:42:04.39	357.95	21.19	-36.9	-38.6	21.8	0.00e+00	0	42	0	773849088	45	4372
2026-01-19 02:42:05.53	357.80	21.32	-36.9	-38.6	21.8	0.00e+00	0	42	0	780140544	45	4371
2026-01-19 02:42:06.39	357.69	21.42	-36.9	-38.6	21.8	0.00e+00	0	42	0	784334848	45	4359
2026-01-19 02:42:07.52	357.54	21.56	-36.8	-38.5	21.8	0.00e+00	0	42	0	790626304	45	4334
2026-01-19 02:42:08.37	357.42	21.66	-36.8	-38.5	21.8	0.00e+00	0	42	0	795869184	45	4337
2026-01-19 02:42:09.51	357.27	21.80	-36.7	-38.5	21.9	0.00e+00	0	42	0	802160640	45	4303
2026-01-19 02:42:10.36	357.15	21.90	-36.6	-38.4	22.0	0.00e+00	0	42	0	807403520	45	4245
2026-01-19 02:42:11.50	356.99	22.04	-36.7	-38.4	22.0	0.00e+00	0	42	0	813694976	45	4273
2026-01-19 02:42:12.35	356.87	22.14	-36.6	-38.3	22.1	0.00e+00	0	42	0	817889280	45	4216
2026-01-19 02:42:13.49	356.71	22.28	-36.6	-38.3	22.1	0.00e+00	0	42	0	824180736	45	4233
2026-01-19 02:42:14.34	356.59	22.38	-36.6	-38.3	22.1	0.00e+00	0	42	0	829423616	45	4220
2026-01-19 02:42:15.48	356.43	22.52	-36.7	-38.4	22.0	0.00e+00	0	42	0	835715072	45	4272
2026-01-19 02:42:16.33	356.31	22.63	-36.6	-38.3	22.0	0.00e+00	0	42	0	840957952	45	4240
2026-01-19 02:42:17.47	356.14	22.77	-36.7	-38.4	22.0	0.00e+00	0	42	0	847249408	45	4262
2026-01-19 02:42:18.38	356.01	22.88	-36.7	-38.5	21.9	0.00e+00	0	42	0	852492288	45	4295
2026-01-19 02:42:19.55	355.84	23.02	-36.8	-38.5	21.9	0.00e+00	0	42	0	858783744	45	4313
2026-01-19 02:42:20.42	355.71	23.13	-36.8	-38.5	21.9	0.00e+00	0	42	0	864026624	45	4315
2026-01-19 02:42:21.56	355.54	23.27	-36.8	-38.5	21.9	0.00e+00	0	42	0	870318080	45	4310
2026-01-19 02:42:22.41	355.41	23.38	-36.8	-38.6	21.9	0.00e+00	0	42	0	874512384	45	4343
2026-01-19 02:42:23.55	355.24	23.52	-36.5	-38.2	22.2	0.00e+00	0	42	0	880803840	45	4177
2026-01-19 02:42:24.40	355.10	23.63	-36.4	-38.1	22.2	0.00e+00	0	42	0	886046720	44	4383
2026-01-19 02:42:25.54	354.93	23.77	-36.3	-38.0	22.4	0.00e+00	0	42	0	892338176	44	4300
2026-01-19 02:42:26.39	354.80	23.88	-36.1	-37.8	22.5	0.00e+00	0	42	0	897581056	44	4228
2026-01-19 02:42:27.53	354.62	24.03	-36.1	-37.9	22.5	0.00e+00	0	42	0	903872512	44	4243
2026-01-19 02:42:28.38	354.48	24.13	-36.0	-37.7	22.6	0.00e+00	0	42	0	908066816	44	4188
2026-01-19 02:42:29.52	354.30	24.28	-36.2	-37.9	22.5	0.00e+00	0	42	0	914358272	44	4249
2026-01-19 02:42:30.37	354.16	24.39	-36.1	-37.8	22.6	0.00e+00	0	42	0	919601152	44	4210
2026-01-19 02:42:31.51	353.98	24.54	-36.2	-37.8	22.5	0.00e+00	0	42	0	925892608	44	4241
2026-01-19 02:42:32.36	353.84	24.64	-36.3	-38.0	22.4	0.00e+00	0	42	0	931135488	44	4313
2026-01-19 02:42:33.50	353.65	24.79	-36.4	-38.1	22.3	0.00e+00	0	42	0	937426944	44	4349
2026-01-19 02:42:34.36	353.50	24.90	-36.3	-38.0	22.4	0.00e+00	0	42	0	941621248	44	4308
2026-01-19 02:42:35.49	353.31	25.05	-36.5	-38.2	22.2	0.00e+00	0	42	0	947912704	44	4406
2026-01-19 02:42:36.34	353.17	25.16	-36.2	-37.9	22.5	0.00e+00	0	42	0	953155584	44	4275
2026-01-19 02:42:37.48	352.98	25.31	-36.2	-37.9	22.5	0.00e+00	0	42	0	959447040	44	4286
2026-01-19 02:42:38.33	352.83	25.42	-36.3	-38.0	22.4	0.00e+00	0	42	0	964689920	44	4293
2026-01-19 02:42:39.47	352.63	25.57	-36.1	-37.8	22.5	0.00e+00	0	42	0	970981376	44	4231
2026-01-19 02:42:40.32	352.48	25.68	-36.1	-37.8	22.6	0.00e+00	0	42	0	975175680	44	4214
2026-01-19 02:42:41.46	352.28	25.83	-36.1	-37.8	22.6	0.00e+00	0	42	0	982515712	44	4222
2026-01-19 02:42:42.32	352.13	25.95	-36.1	-37.8	22.6	0.00e+00	0	42	0	986710016	44	4197
2026-01-19 02:42:43.45	351.92	26.10	-36.0	-37.7	22.7	0.00e+00	0	42	0	993001472	44	4153
2026-01-19 02:42:44.30	351.77	26.21	-36.0	-37.7	22.6	0.00e+00	0	42	0	998244352	44	4184
2026-01-19 02:42:45.50	351.55	26.37	-36.0	-37.7	22.7	0.00e+00	0	42	0	1004535808	44	4169
2026-01-19 02:42:46.36	351.39	26.49	-36.0	-37.7	22.7	0.00e+00	0	42	0	1009778688	44	4169
2026-01-19 02:42:47.49	351.18	26.64	-36.0	-37.7	22.6	0.00e+00	0	42	0	1016070144	44	4171
2026-01-19 02:42:48.35	351.02	26.75	-36.0	-37.7	22.7	0.00e+00	0	42	0	1020264448	44	4154
2026-01-19 02:42:49.61	350.78	26.92	-36.0	-37.7	22.7	0.00e+00	0	42	0	1027604480	44	4148
2026-01-19 02:42:50.40	350.63	27.03	-35.7	-37.4	22.8	0.00e+00	0	42	0	1031798784	43	4249
2026-01-19 02:42:51.58	350.40	27.19	-35.6	-37.3	22.9	0.00e+00	0	42	0	1039138816	43	4202
2026-01-19 02:42:52.44	350.23	27.31	-35.7	-37.3	22.8	0.00e+00	0	42	0	1043333120	43	4233
2026-01-19 02:42:53.57	350.01	27.46	-35.6	-37.2	23.0	0.00e+00	0	42	0	1050673152	43	4181
2026-01-19 02:42:54.43	349.84	27.58	-35.7	-37.3	22.8	0.00e+00	0	42	0	1054867456	43	4230
2026-01-19 02:42:55.56	349.62	27.73	-35.7	-37.4	22.8	0.00e+00	0	42	0	1061158912	43	4246
2026-01-19 02:42:56.42	349.44	27.85	-35.6	-37.3	22.9	0.00e+00	0	42	0	1066401792	43	4195
2026-01-19 02:42:57.56	349.21	28.01	-35.6	-37.3	22.9	0.00e+00	0	42	0	1072693248	43	4215
2026-01-19 02:42:58.41	349.04	28.12	-35.7	-37.4	22.8	0.00e+00	0	42	0	1077936128	43	4245
2026-01-19 02:42:59.55	348.80	28.28	-35.5	-37.2	22.9	0.00e+00	0	42	0	1083179008	43	4169
2026-01-19 02:43:00.40	348.62	28.40	-35.5	-37.2	23.0	0.00e+00	0	42	0	1088421888	43	4157
2026-01-19 02:43:01.54	348.38	28.56	-35.6	-37.2	22.9	0.00e+00	0	42	0	1094713344	43	4178
2026-01-19 02:43:02.39	348.20	28.67	-35.7	-37.3	22.9	0.00e+00	0	42	0	1099956224	43	4228
2026-01-19 02:43:03.54	347.96	28.83	-35.5	-37.2	23.0	0.00e+00	0	42	0	1106247680	43	4172
2026-01-19 02:43:04.39	347.77	28.95	-35.6	-37.3	22.9	0.00e+00	0	42	0	1110441984	43	4214
2026-01-19 02:43:05.57	347.52	29.12	-35.7	-37.4	22.8	0.00e+00	0	42	0	1117782016	43	4267
2026-01-19 02:43:06.43	347.33	29.24	-35.7	-37.4	22.8	0.00e+00	0	42	0	1121976320	43	4268
2026-01-19 02:43:07.56	347.08	29.39	-35.8	-37.5	22.8	0.00e+00	0	42	0	1129316352	43	4293
2026-01-19 02:43:08.42	346.88	29.52	-35.7	-37.4	22.8	0.00e+00	0	42	0	1133510656	43	4277
2026-01-19 02:43:09.56	346.63	29.67	-35.7	-37.4	22.9	0.00e+00	0	42	0	1139802112	43	4261
2026-01-19 02:43:10.41	346.43	29.79	-35.6	-37.3	23.0	0.00e+00	0	42	0	1145044992	43	4194
2026-01-19 02:43:11.55	346.17	29.95	-35.3	-37.0	23.2	0.00e+00	0	42	0	1151336448	42	4303
2026-01-19 02:43:12.40	345.97	30.07	-35.3	-37.0	23.2	0.00e+00	0	42	0	1155530752	42	4303
2026-01-19 02:43:13.54	345.71	30.23	-35.3	-36.9	23.3	0.00e+00	0	42	0	1162870784	42	4266
2026-01-19 02:43:14.39	345.51	30.35	-35.4	-37.0	23.1	0.00e+00	0	42	0	1167065088	42	4339
2026-01-19 02:43:15.53	345.24	30.52	-35.4	-37.1	23.1	0.00e+00	0	42	0	1173356544	42	4348
2026-01-19 02:43:16.38	345.03	30.64	-35.5	-37.2	23.0	0.00e+00	0	42	0	1178599424	42	4393
2026-01-19 02:43:17.52	344.76	30.80	-35.5	-37.2	23.0	0.00e+00	0	42	0	1184890880	42	4405
2026-01-19 02:43:18.37	344.55	30.92	-35.5	-37.2	23.0	0.00e+00	0	42	0	1190133760	42	4434
2026-01-19 02:43:19.51	344.27	31.08	-35.7	-37.4	22.8	0.00e+00	0	42	0	1196425216	42	4522
2026-01-19 02:43:20.36	344.06	31.20	-35.6	-37.3	22.9	0.00e+00	0	42	0	1200619520	42	4467
2026-01-19 02:43:21.50	343.77	31.36	-35.6	-37.2	23.0	0.00e+00	0	42	0	1206910976	42	4438
2026-01-19 02:43:22.36	343.55	31.48	-35.4	-37.1	23.1	0.00e+00	0	42	0	1212153856	42	4356
2026-01-19 02:43:23.49	343.26	31.64	-35.4	-37.1	23.1	0.00e+00	0	42	0	1218445312	42	4349
2026-01-19 02:43:24.35	343.04	31.76	-35.5	-37.2	23.0	0.00e+00	0	42	0	1222639616	42	4395
2026-01-19 02:43:25.48	342.75	31.92	-35.5	-37.2	23.0	0.00e+00	0	42	0	1229979648	42	4415
2026-01-19 02:43:26.34	342.52	32.05	-35.4	-37.0	23.1	0.00e+00	0	42	0	1234173952	42	4337
2026-01-19 02:43:27.47	342.22	32.21	-35.4	-37.1	23.1	0.00e+00	0	42	0	1240465408	42	4358
2026-01-19 02:43:28.33	341.99	32.33	-35.2	-36.9	23.2	0.00e+00	0	42	0	1245708288	42	4284
2026-01-19 02:43:29.47	341.69	32.49	-35.1	-36.8	23.3	0.00e+00	0	42	0	1251999744	42	4214
2026-01-19 02:43:30.32	341.46	32.61	-35.2	-36.9	23.2	0.00e+00	0	42	0	1257242624	42	4270
2026-01-19 02:43:31.46	341.14	32.77	-35.2	-36.9	23.2	0.00e+00	0	42	0	1263534080	42	4275
2026-01-19 02:43:32.31	340.91	32.89	-35.1	-36.8	23.3	0.00e+00	0	42	0	1267728384	42	4225
2026-01-19 02:43:33.45	340.59	33.05	-35.2	-36.9	23.3	0.00e+00	0	42	0	1274019840	42	4258
2026-01-19 02:43:34.30	340.35	33.18	-35.4	-37.0	23.1	0.00e+00	0	42	0	1279262720	42	4338
2026-01-19 02:43:35.44	340.03	33.34	-35.4	-37.1	23.0	0.00e+00	0	42	0	1285554176	42	4379
2026-01-19 02:43:36.29	339.78	33.46	-35.5	-37.2	23.0	0.00e+00	0	42	0	1290797056	42	4418
2026-01-19 02:43:37.47	339.44	33.62	-35.5	-37.2	23.0	0.00e+00	0	42	0	1297088512	42	4393
2026-01-19 02:43:38.33	339.19	33.74	-35.5	-37.1	23.0	0.00e+00	0	42	0	1302331392	42	4383
2026-01-19 02:43:39.46	338.86	33.90	-35.3	-36.9	23.2	0.00e+00	0	42	0	1308622848	42	4271
2026-01-19 02:43:40.32	338.60	34.02	-35.2	-36.9	23.3	0.00e+00	0	42	0	1312817152	42	4250
2026-01-19 02:43:41.45	338.27	34.18	-35.2	-36.9	23.2	0.00e+00	0	42	0	1319108608	42	4261
2026-01-19 02:43:42.31	338.01	34.30	-35.2	-36.9	23.3	0.00e+00	0	42	0	1324351488	42	4249
2026-01-19 02:43:43.45	337.66	34.46	-35.1	-36.7	23.4	0.00e+00	0	42	0	1330642944	42	4190
2026-01-19 02:43:44.30	337.40	34.58	-35.0	-36.6	23.5	0.00e+00	0	42	0	1334837248	42	4129
2026-01-19 02:43:45.43	337.05	34.74	-35.0	-36.7	23.4	0.00e+00	0	42	0	1342177280	41	4400
2026-01-19 02:43:46.29	336.78	34.86	-34.9	-36.6	23.5	0.00e+00	0	42	0	1346371584	41	4359
2026-01-19 02:43:47.42	336.42	35.01	-34.8	-36.4	23.6	0.00e+00	0	42	0	1352663040	41	4272
2026-01-19 02:43:48.28	336.15	35.13	-34.8	-36.5	23.6	0.00e+00	0	42	0	1357905920	41	4308
2026-01-19 02:43:49.41	335.79	35.29	-34.8	-36.5	23.6	0.00e+00	0	42	0	1364197376	41	4298
2026-01-19 02:43:50.27	335.51	35.40	-34.9	-36.6	23.5	0.00e+00	0	42	0	1369440256	41	4353
2026-01-19 02:43:51.40	335.14	35.56	-35.1	-36.8	23.3	0.00e+00	0	42	0	1375731712	41	4451
2026-01-19 02:43:52.26	334.86	35.67	-35.1	-36.8	23.4	0.00e+00	0	42	0	1379926016	41	4453
2026-01-19 02:43:53.52	334.44	35.85	-35.2	-36.8	23.3	0.00e+00	0	42	0	1387266048	41	4482
2026-01-19 02:43:54.29	334.18	35.95	-35.1	-36.8	23.3	0.00e+00	0	42	0	1391460352	41	4450
2026-01-19 02:43:55.71	333.70	36.14	-35.1	-36.7	23.4	0.00e+00	0	42	0	1399848960	41	4429
2026-01-19 02:43:56.42	333.46	36.23	-35.2	-36.8	23.3	0.00e+00	0	42	0	1404043264	41	4471
2026-01-19 02:43:57.75	333.01	36.41	-35.0	-36.7	23.4	0.00e+00	0	42	0	1411383296	41	4400
2026-01-19 02:43:58.46	332.76	36.51	-35.1	-36.8	23.3	0.00e+00	0	42	0	1415577600	41	4456
2026-01-19 02:43:59.74	332.31	36.67	-35.2	-36.8	23.3	0.00e+00	0	42	0	1421869056	41	4465
2026-01-19 02:44:00.51	332.04	36.78	-35.1	-36.7	23.4	0.00e+00	0	42	0	1426063360	41	4422
2026-01-19 02:44:01.79	331.59	36.94	-34.9	-36.6	23.5	0.00e+00	0	42	0	1433403392	41	4341
2026-01-19 02:44:02.50	331.33	37.03	-35.0	-36.7	23.4	0.00e+00	0	42	0	1437597696	41	4403
2026-01-19 02:44:03.78	330.87	37.20	-35.2	-36.8	23.3	0.00e+00	0	42	0	1444937728	41	4480
2026-01-19 02:44:04.51	330.61	37.29	-35.2	-36.8	23.3	0.00e+00	0	42	0	1449132032	41	4473
2026-01-19 02:44:05.79	330.14	37.46	-35.3	-37.0	23.1	0.00e+00	0	42	0	1456472064	41	4574
2026-01-19 02:44:06.52	329.87	37.55	-35.4	-37.0	23.1	0.00e+00	0	42	0	1460666368	41	4580
2026-01-19 02:44:07.79	329.39	37.71	-35.4	-37.1	23.0	0.00e+00	0	42	0	1468006400	41	4609
2026-01-19 02:44:08.52	329.12	37.80	-35.5	-37.1	23.0	0.00e+00	0	42	0	1472200704	41	4643
2026-01-19 02:44:09.80	328.64	37.96	-35.3	-37.0	23.2	0.00e+00	0	42	0	1478492160	41	4558
2026-01-19 02:44:10.51	328.37	38.04	-35.1	-36.8	23.3	0.00e+00	0	42	0	1482686464	41	4459
2026-01-19 02:44:11.79	327.87	38.20	-35.2	-36.8	23.3	0.00e+00	0	42	0	1490026496	41	4483
2026-01-19 02:44:12.50	327.60	38.28	-35.4	-37.0	23.1	0.00e+00	0	42	0	1494220800	41	4589
2026-01-19 02:44:13.79	327.10	38.44	-35.4	-37.1	23.0	0.00e+00	0	42	0	1501560832	41	4628
2026-01-19 02:44:14.50	326.82	38.52	-35.3	-37.0	23.1	0.00e+00	0	42	0	1504706560	41	4583
2026-01-19 02:44:15.78	326.31	38.67	-35.1	-36.8	23.3	0.00e+00	0	42	0	1512046592	41	4465
2026-01-19 02:44:16.51	326.02	38.76	-35.2	-36.8	23.3	0.00e+00	0	42	0	1516240896	41	4478
2026-01-19 02:44:17.79	325.51	38.90	-35.3	-37.0	23.2	0.00e+00	0	42	0	1523580928	41	4554
2026-01-19 02:44:18.50	325.22	38.99	-35.4	-37.1	23.0	0.00e+00	0	42	0	1527775232	41	4624
2026-01-19 02:44:19.78	324.70	39.13	-35.4	-37.1	23.0	0.00e+00	0	42	0	1535115264	41	4614
2026-01-19 02:44:20.51	324.40	39.21	-35.5	-37.1	23.0	0.00e+00	0	42	0	1539309568	41	4643
2026-01-19 02:44:21.79	323.87	39.35	-35.5	-37.1	23.0	0.00e+00	0	42	0	1546649600	41	4639
2026-01-19 02:44:22.54	323.56	39.43	-35.5	-37.1	23.0	0.00e+00	0	42	0	1550843904	41	4643
2026-01-19 02:44:23.82	323.03	39.57	-35.3	-36.9	23.2	0.00e+00	0	42	0	1558183936	41	4528
2026-01-19 02:44:24.54	322.72	39.64	-35.2	-36.9	23.2	0.00e+00	0	42	0	1561329664	41	4520
2026-01-19 02:44:25.82	322.18	39.78	-35.1	-36.8	23.3	0.00e+00	0	42	0	1568669696	41	4464
2026-01-19 02:44:26.53	321.88	39.85	-35.2	-36.9	23.3	0.00e+00	0	42	0	1572864000	41	4495
2026-01-19 02:44:27.81	321.33	39.98	-35.1	-36.8	23.3	0.00e+00	0	42	0	1580204032	41	4447
2026-01-19 02:44:28.68	320.95	40.07	-34.9	-36.6	23.5	0.00e+00	0	42	0	1585446912	41	4346
2026-01-19 02:44:29.82	320.46	40.18	-35.1	-36.7	23.4	0.00e+00	0	42	0	1591738368	41	4411
2026-01-19 02:44:30.67	320.09	40.26	-35.1	-36.8	23.4	0.00e+00	0	42	0	1595932672	41	4445
2026-01-19 02:44:31.81	319.58	40.37	-35.2	-36.8	23.3	0.00e+00	0	42	0	1603272704	41	4475
2026-01-19 02:44:32.66	319.21	40.45	-35.2	-36.8	23.3	0.00e+00	0	42	0	1607467008	41	4484
2026-01-19 02:44:33.80	318.70	40.55	-35.1	-36.8	23.3	0.00e+00	0	42	0	1613758464	41	4455
2026-01-19 02:44:34.65	318.32	40.63	-35.0	-36.6	23.5	0.00e+00	0	42	0	1619001344	41	4356
2026-01-19 02:44:35.79	317.81	40.73	-35.2	-36.8	23.3	0.00e+00	0	42	0	1625292800	41	4462
2026-01-19 02:44:36.64	317.42	40.80	-35.0	-36.7	23.4	0.00e+00	0	42	0	1629487104	41	4403
2026-01-19 02:44:37.92	316.84	40.91	-34.7	-36.3	23.7	0.00e+00	0	42	0	1636827136	41	4229
2026-01-19 02:44:38.65	316.51	40.97	-34.7	-36.3	23.7	0.00e+00	0	42	0	1641021440	41	4227
2026-01-19 02:44:39.93	315.92	41.07	-34.8	-36.4	23.7	0.00e+00	0	42	0	1648361472	41	4263
2026-01-19 02:44:40.64	315.59	41.13	-34.9	-36.5	23.5	0.00e+00	0	42	0	1652555776	41	4339
2026-01-19 02:44:42.13	314.90	41.24	-35.0	-36.6	23.5	0.00e+00	0	42	0	1660944384	41	4372
2026-01-19 02:44:42.84	314.57	41.29	-34.9	-36.6	23.5	0.00e+00	0	42	0	1665138688	41	4352
2026-01-19 02:44:44.16	313.95	41.39	-35.0	-36.6	23.5	0.00e+00	0	42	0	1672478720	41	4387
2026-01-19 02:44:44.87	313.61	41.44	-35.0	-36.6	23.5	0.00e+00	0	42	0	1676673024	41	4391
2026-01-19 02:44:46.15	313.01	41.52	-35.0	-36.6	23.5	0.00e+00	0	42	0	1682964480	41	4384
2026-01-19 02:44:46.87	312.67	41.57	-35.0	-36.6	23.5	0.00e+00	0	42	0	1687158784	41	4363
2026-01-19 02:44:48.15	312.06	41.65	-34.7	-36.4	23.7	0.00e+00	0	42	0	1694498816	41	4253
2026-01-19 02:44:48.86	311.72	41.70	-34.7	-36.4	23.7	0.00e+00	0	42	0	1698693120	41	4248
2026-01-19 02:44:50.14	311.10	41.77	-34.7	-36.3	23.7	0.00e+00	0	42	0	1706033152	41	4224
2026-01-19 02:44:50.85	310.76	41.81	-34.7	-36.3	23.7	0.00e+00	0	42	0	1709178880	41	4233
2026-01-19 02:44:52.12	310.14	41.88	-34.7	-36.3	23.7	0.00e+00	0	42	0	1716518912	41	4229
2026-01-19 02:44:52.90	309.76	41.92	-34.6	-36.3	23.8	0.00e+00	0	42	0	1720713216	41	4209
2026-01-19 02:44:54.18	309.14	41.99	-34.6	-36.2	23.8	0.00e+00	0	42	0	1728053248	41	4160
2026-01-19 02:44:54.98	308.75	42.03	-34.7	-36.3	23.7	0.00e+00	0	42	0	1733296128	41	4212
2026-01-19 02:44:56.12	308.19	42.08	-34.8	-36.4	23.7	0.00e+00	0	42	0	1739587584	41	4263
2026-01-19 02:44:57.19	307.66	42.12	-35.1	-36.7	23.4	0.00e+00	0	42	0	1745879040	41	4434
2026-01-19 02:44:58.22	307.16	42.17	-35.0	-36.7	23.4	0.00e+00	0	42	0	1751121920	41	4394
2026-01-19 02:44:59.39	306.58	42.21	-35.0	-36.7	23.4	0.00e+00	0	42	0	1757413376	41	4403
2026-01-19 02:45:00.24	306.16	42.24	-35.1	-36.7	23.4	0.00e+00	0	42	0	1762656256	41	4429
2026-01-19 02:45:01.58	305.49	42.28	-34.9	-36.6	23.5	0.00e+00	0	42	0	1769996288	41	4364
2026-01-19 02:45:02.29	305.14	42.31	-34.9	-36.5	23.5	0.00e+00	0	42	0	1774190592	41	4339
2026-01-19 02:45:03.57	304.50	42.34	-34.4	-36.0	24.0	0.00e+00	0	42	0	1781530624	40	4327
2026-01-19 02:45:04.30	304.13	42.36	-34.4	-36.0	24.0	0.00e+00	0	42	0	1785724928	40	4332
2026-01-19 02:45:05.58	303.49	42.39	-34.5	-36.2	23.9	0.00e+00	0	42	0	1793064960	40	4395
2026-01-19 02:45:06.29	303.14	42.41	-34.7	-36.4	23.7	0.00e+00	0	42	0	1796210688	40	4507
2026-01-19 02:45:07.57	302.49	42.43	-34.9	-36.5	23.5	0.00e+00	0	42	0	1803550720	40	4576
2026-01-19 02:45:08.28	302.14	42.44	-34.8	-36.4	23.6	0.00e+00	0	42	0	1807745024	40	4541
2026-01-19 02:45:09.56	301.49	42.46	-34.8	-36.5	23.6	0.00e+00	0	42	0	1815085056	40	4547
2026-01-19 02:45:10.29	301.13	42.47	-34.9	-36.6	23.5	0.00e+00	0	42	0	1819279360	40	4600
2026-01-19 02:45:11.57	300.48	42.48	-34.8	-36.5	23.6	0.00e+00	0	42	0	1826619392	40	4547
2026-01-19 02:45:12.28	300.12	42.48	-34.7	-36.3	23.7	0.00e+00	0	42	0	1830813696	40	4491
2026-01-19 02:45:13.56	299.48	42.48	-34.7	-36.3	23.7	0.00e+00	0	42	0	1837105152	40	4472
2026-01-19 02:45:14.27	299.12	42.49	-35.0	-36.6	23.5	0.00e+00	0	42	0	1841299456	40	4631
2026-01-19 02:45:15.55	298.48	42.48	-35.2	-36.8	23.3	0.00e+00	0	42	0	1848639488	41	4478
2026-01-19 02:45:16.28	298.11	42.48	-34.8	-36.4	23.6	0.00e+00	0	42	0	1852833792	41	4283
2026-01-19 02:45:17.56	297.46	42.47	-34.3	-35.9	24.1	0.00e+00	0	42	0	1860173824	40	4248
2026-01-19 02:45:18.29	297.10	42.47	-34.4	-36.0	24.0	0.00e+00	0	42	0	1864368128	40	4307
2026-01-19 02:45:19.57	296.45	42.45	-34.6	-36.2	23.8	0.00e+00	0	42	0	1871708160	40	4422
2026-01-19 02:45:20.28	296.09	42.44	-34.6	-36.2	23.8	0.00e+00	0	42	0	1874853888	40	4431
2026-01-19 02:45:21.56	295.45	42.42	-34.6	-36.2	23.8	0.00e+00	0	42	0	1882193920	40	4408
2026-01-19 02:45:22.29	295.09	42.41	-34.3	-35.9	24.0	0.00e+00	0	42	0	1886388224	40	4281
2026-01-19 02:45:23.82	294.32	42.37	-34.5	-36.1	23.9	0.00e+00	0	42	0	1895825408	40	4360
2026-01-19 02:45:24.53	293.96	42.36	-34.6	-36.2	23.8	0.00e+00	0	42	0	1898971136	40	4404
2026-01-19 02:45:25.81	293.32	42.32	-34.8	-36.4	23.7	0.00e+00	0	42	0	1906311168	40	4524
2026-01-19 02:45:26.52	292.97	42.30	-34.9	-36.6	23.5	0.00e+00	0	42	0	1910505472	40	4610
2026-01-19 02:45:27.80	292.33	42.26	-34.7	-36.3	23.7	0.00e+00	0	42	0	1917845504	40	4489
2026-01-19 02:45:28.51	291.98	42.24	-34.6	-36.3	23.8	0.00e+00	0	42	0	1922039808	40	4450
2026-01-19 02:45:29.79	291.35	42.19	-34.5	-36.1	23.9	0.00e+00	0	42	0	1928331264	40	4362
2026-01-19 02:45:30.50	290.99	42.16	-34.5	-36.2	23.8	0.00e+00	0	42	0	1932525568	40	4397
2026-01-19 02:45:31.78	290.36	42.11	-34.4	-36.0	24.0	0.00e+00	0	42	0	1939865600	40	4308
2026-01-19 02:45:32.49	290.01	42.08	-34.3	-36.0	24.0	0.00e+00	0	42	0	1944059904	40	4298
2026-01-19 02:45:33.78	289.38	42.02	-34.6	-36.2	23.8	0.00e+00	0	42	0	1951399936	40	4418
2026-01-19 02:45:34.49	289.03	41.98	-34.6	-36.2	23.8	0.00e+00	0	42	0	1955594240	40	4438
2026-01-19 02:45:35.76	288.41	41.92	-34.4	-36.0	24.0	0.00e+00	0	42	0	1962934272	40	4309
2026-01-19 02:45:36.68	287.97	41.87	-34.4	-36.0	24.0	0.00e+00	0	42	0	1967128576	40	4296
2026-01-19 02:45:37.68	287.48	41.82	-34.3	-35.9	24.0	0.00e+00	0	42	0	1973420032	40	4284
2026-01-19 02:45:38.67	287.00	41.76	-34.4	-36.0	23.9	0.00e+00	0	42	0	1978662912	40	4338
2026-01-19 02:45:39.67	286.52	41.70	-34.7	-36.3	23.7	0.00e+00	0	42	0	1984954368	40	4481
2026-01-19 02:45:40.66	286.05	41.64	-34.7	-36.3	23.7	0.00e+00	0	42	0	1990197248	40	4484
2026-01-19 02:45:41.66	285.57	41.58	-34.7	-36.3	23.7	0.00e+00	0	42	0	1995440128	40	4471
2026-01-19 02:45:42.65	285.10	41.51	-34.7	-36.3	23.7	0.00e+00	0	42	0	2000683008	40	4459
2026-01-19 02:45:43.71	284.60	41.44	-34.4	-36.0	24.0	0.00e+00	0	42	0	2006974464	40	4320
2026-01-19 02:45:44.65	284.15	41.37	-34.4	-36.0	24.0	0.00e+00	0	42	0	2012217344	40	4316
2026-01-19 02:45:45.77	283.63	41.29	-34.5	-36.2	23.9	0.00e+00	0	42	0	2018508800	40	4398
2026-01-19 02:45:46.64	283.22	41.23	-34.6	-36.2	23.8	0.00e+00	0	42	0	2023751680	40	4433
2026-01-19 02:45:47.78	282.69	41.14	-34.5	-36.1	23.9	0.00e+00	0	42	0	2030043136	40	4366
2026-01-19 02:45:48.63	282.30	41.07	-34.4	-36.0	24.0	0.00e+00	0	42	0	2035286016	40	4339
2026-01-19 02:45:49.77	281.77	40.98	-34.5	-36.1	23.9	0.00e+00	0	42	0	2041577472	40	4377
2026-01-19 02:45:50.76	281.32	40.90	-34.6	-36.3	23.8	0.00e+00	0	42	0	2046820352	40	4445
2026-01-19 02:45:51.76	280.86	40.82	-34.5	-36.1	23.9	0.00e+00	0	42	0	2052063232	40	4381
2026-01-19 02:45:52.75	280.41	40.73	-34.5	-36.1	23.9	0.00e+00	0	42	0	2058354688	40	4381
2026-01-19 02:45:53.75	279.96	40.65	-34.5	-36.1	23.9	0.00e+00	0	42	0	2063597568	40	4366
2026-01-19 02:45:54.74	279.52	40.56	-34.4	-35.9	24.0	0.00e+00	0	42	0	2068840448	40	4286
2026-01-19 02:45:55.74	279.07	40.47	-34.4	-36.0	24.0	0.00e+00	0	42	0	2075131904	40	4297
2026-01-19 02:45:56.74	278.63	40.37	-34.5	-36.1	23.9	0.00e+00	0	42	0	2080374784	40	4387
2026-01-19 02:45:57.73	278.19	40.28	-34.6	-36.2	23.8	0.00e+00	0	42	0	2085617664	40	4413
2026-01-19 02:45:58.73	277.75	40.18	-34.5	-36.1	23.9	0.00e+00	0	42	0	2091909120	40	4374
2026-01-19 02:45:59.72	277.32	40.09	-34.5	-36.1	23.9	0.00e+00	0	42	0	2097152000	40	4370
2026-01-19 02:46:00.71	276.89	39.99	-34.5	-36.1	23.9	0.00e+00	0	42	0	2102394880	40	4381
2026-01-19 02:46:01.71	276.46	39.89	-34.6	-36.2	23.8	0.00e+00	0	42	0	2108686336	40	4436
2026-01-19 02:46:02.73	276.02	39.78	-34.7	-36.3	23.7	0.00e+00	0	42	0	2113929216	40	4473
2026-01-19 02:46:03.76	275.59	39.68	-34.8	-36.4	23.7	0.00e+00	0	42	0	2120220672	40	4505
2026-01-19 02:46:04.75	275.17	39.57	-34.6	-36.2	23.8	0.00e+00	0	42	0	2125463552	40	4400
2026-01-19 02:46:05.75	274.75	39.46	-34.7	-36.3	23.8	0.00e+00	0	42	0	2130706432	40	4465
2026-01-19 02:46:06.84	274.29	39.35	-34.7	-36.3	23.7	0.00e+00	0	42	0	2136997888	40	4481
2026-01-19 02:46:07.72	273.93	39.25	-34.6	-36.2	23.8	0.00e+00	0	42	0	2142240768	40	4425
2026-01-19 02:46:09.03	273.39	39.10	-34.4	-36.0	23.9	0.00e+00	0	42	0	2149580800	40	4334
2026-01-19 02:46:09.74	273.10	39.02	-34.5	-36.1	23.9	0.00e+00	0	42	0	2153775104	40	4356
2026-01-19 02:46:11.21	272.50	38.86	-34.5	-36.1	23.9	0.00e+00	0	42	0	2162163712	40	4380
2026-01-19 02:46:11.92	272.22	38.77	-34.5	-36.1	23.9	0.00e+00	0	42	0	2166358016	40	4386
2026-01-19 02:46:13.20	271.71	38.62	-34.4	-36.0	24.0	0.00e+00	0	42	0	2172649472	40	4327
2026-01-19 02:46:14.28	271.28	38.50	-34.5	-36.1	23.9	0.00e+00	0	42	0	2178940928	40	4359
2026-01-19 02:46:15.13	270.95	38.40	-34.6	-36.2	23.8	0.00e+00	0	42	0	2184183808	40	4415
2026-01-19 02:46:16.27	270.50	38.26	-34.6	-36.2	23.8	0.00e+00	0	42	0	2190475264	40	4428
2026-01-19 02:46:17.12	270.17	38.16	-34.5	-36.1	23.9	0.00e+00	0	42	0	2194669568	40	4379
2026-01-19 02:46:18.35	269.70	38.01	-34.5	-36.1	23.9	0.00e+00	0	42	0	2202009600	40	4350
2026-01-19 02:46:19.20	269.38	37.90	-34.5	-36.2	23.8	0.00e+00	0	42	0	2206203904	40	4404
2026-01-19 02:46:20.42	268.91	37.75	-34.6	-36.2	23.8	0.00e+00	0	42	0	2213543936	40	4424
2026-01-19 02:46:21.27	268.60	37.64	-34.6	-36.2	23.8	0.00e+00	0	42	0	2218786816	40	4423
2026-01-19 02:46:22.41	268.17	37.50	-34.6	-36.2	23.8	0.00e+00	0	42	0	2225078272	40	4393
2026-01-19 02:46:23.26	267.86	37.39	-34.6	-36.2	23.8	0.00e+00	0	42	0	2229272576	40	4429
2026-01-19 02:46:24.40	267.44	37.25	-34.6	-36.3	23.8	0.00e+00	0	42	0	2235564032	40	4452
2026-01-19 02:46:25.27	267.12	37.13	-34.7	-36.3	23.7	0.00e+00	0	42	0	2240806912	40	4475
2026-01-19 02:46:26.40	266.72	36.99	-34.7	-36.3	23.7	0.00e+00	0	42	0	2247098368	40	4490
2026-01-19 02:46:27.26	266.41	36.87	-34.7	-36.3	23.7	0.00e+00	0	42	0	2252341248	40	4461
2026-01-19 02:46:28.39	266.01	36.73	-34.7	-36.3	23.6	0.00e+00	0	42	0	2258632704	40	4489
2026-01-19 02:46:29.24	265.71	36.61	-34.7	-36.3	23.7	0.00e+00	0	42	0	2262827008	40	4449
2026-01-19 02:46:30.38	265.31	36.46	-34.8	-36.4	23.7	0.00e+00	0	42	0	2270167040	40	4511
2026-01-19 02:46:31.24	265.01	36.35	-34.7	-36.3	23.5	0.00e+00	0	42	0	2274361344	40	4472
2026-01-19 02:46:32.37	264.62	36.20	-34.9	-36.5	23.6	0.00e+00	0	42	0	2280652800	40	4572
2026-01-19 02:46:33.23	264.33	36.08	-34.9	-36.5	23.6	0.00e+00	0	42	0	2285895680	40	4579
2026-01-19 02:46:34.36	263.95	35.93	-34.8	-36.4	23.6	0.00e+00	0	42	0	2292187136	40	4537
2026-01-19 02:46:35.22	263.66	35.81	-34.7	-36.3	23.7	0.00e+00	0	42	0	2297430016	40	4484
2026-01-19 02:46:36.35	263.28	35.66	-34.7	-36.3	23.7	0.00e+00	0	42	0	2302672896	40	4478
2026-01-19 02:46:37.21	263.00	35.54	-34.6	-36.2	23.7	0.00e+00	0	42	0	2307915776	40	4437
2026-01-19 02:46:38.35	262.63	35.39	-34.6	-36.2	23.8	0.00e+00	0	42	0	2314207232	40	4431
2026-01-19 02:46:39.20	262.35	35.27	-34.6	-36.2	23.8	0.00e+00	0	42	0	2319450112	40	4424
2026-01-19 02:46:40.53	261.92	35.09	-34.6	-36.2	23.8	0.00e+00	0	42	0	2326790144	40	4416
2026-01-19 02:46:41.24	261.70	34.99	-34.6	-36.3	23.8	0.00e+00	0	42	0	2330984448	40	4450
2026-01-19 02:46:42.52	261.29	34.81	-34.7	-36.3	23.7	0.00e+00	0	42	0	2338324480	40	4488
2026-01-19 02:46:43.23	261.07	34.71	-34.7	-36.4	23.6	0.00e+00	0	42	0	2341470208	40	4509
2026-01-19 02:46:44.51	260.67	34.53	-34.7	-36.3	23.7	0.00e+00	0	42	0	2348810240	40	4483
2026-01-19 02:46:45.23	260.45	34.43	-34.7	-36.3	23.8	0.00e+00	0	42	0	2353004544	40	4458
2026-01-19 02:46:46.51	260.06	34.25	-34.6	-36.2	23.8	0.00e+00	0	42	0	2360344576	40	4435
2026-01-19 02:46:47.22	259.84	34.15	-34.6	-36.2	23.9	0.00e+00	0	42	0	2364538880	40	4419
2026-01-19 02:46:48.51	259.46	33.97	-34.4	-36.1	23.9	0.00e+00	0	42	0	2371878912	40	4348
2026-01-19 02:46:49.24	259.24	33.87	-34.4	-36.0	23.9	0.00e+00	0	42	0	2376073216	40	4340
2026-01-19 02:46:50.52	258.86	33.69	-34.4	-36.0	24.0	0.00e+00	0	42	0	2383413248	40	4315
2026-01-19 02:46:51.24	258.65	33.59	-34.4	-36.0	23.9	0.00e+00	0	42	0	2386558976	40	4322
2026-01-19 02:46:52.51	258.28	33.41	-34.3	-35.9	24.0	0.00e+00	0	42	0	2393899008	40	4282
2026-01-19 02:46:53.22	258.08	33.30	-34.4	-36.0	24.0	0.00e+00	0	42	0	2398093312	40	4319
2026-01-19 02:46:54.52	257.71	33.12	-34.5	-36.1	23.9	0.00e+00	0	42	0	2405433344	40	4351
2026-01-19 02:46:55.23	257.51	33.02	-34.6	-36.2	23.8	0.00e+00	0	42	0	2409627648	40	4402
2026-01-19 02:46:56.57	257.14	32.83	-34.6	-36.3	23.8	0.00e+00	0	42	0	2416967680	40	4442
2026-01-19 02:46:57.28	256.94	32.73	-34.8	-36.4	23.6	0.00e+00	0	42	0	2421161984	40	4534
2026-01-19 02:46:58.56	256.59	32.55	-34.8	-36.5	23.6	0.00e+00	0	42	0	2428502016	40	4559
2026-01-19 02:46:59.27	256.39	32.44	-34.8	-36.5	23.6	0.00e+00	0	42	0	2432696320	40	4558
2026-01-19 02:47:00.55	256.05	32.26	-34.8	-36.5	23.6	0.00e+00	0	42	0	2438987776	40	4546
2026-01-19 02:47:01.26	255.86	32.16	-34.7	-36.4	23.7	0.00e+00	0	42	0	2443182080	40	4510
2026-01-19 02:47:02.75	255.46	31.95	-34.7	-36.4	23.7	0.00e+00	0	42	0	2451570688	40	4497
2026-01-19 02:47:03.46	255.28	31.85	-34.7	-36.3	23.7	0.00e+00	0	42	0	2455764992	40	4453
2026-01-19 02:47:04.82	254.92	31.65	-34.7	-36.3	23.7	0.00e+00	0	42	0	2463105024	40	4483
2026-01-19 02:47:05.53	254.74	31.55	-34.7	-36.3	23.7	0.00e+00	0	42	0	2467299328	40	4478
2026-01-19 02:47:06.81	254.41	31.37	-34.8	-36.4	23.6	0.00e+00	0	42	0	2474639360	40	4544
2026-01-19 02:47:07.55	254.23	31.26	-34.8	-36.5	23.6	0.00e+00	0	42	0	2478833664	40	4560
2026-01-19 02:47:08.83	253.91	31.08	-34.9	-36.6	23.5	0.00e+00	0	42	0	2486173696	40	4601
2026-01-19 02:47:09.56	253.72	30.98	-34.9	-36.6	23.5	0.00e+00	0	42	0	2490368000	40	4609
2026-01-19 02:47:10.84	253.41	30.80	-35.0	-36.7	23.4	0.00e+00	0	42	0	2497708032	40	4660
2026-01-19 02:47:11.57	253.23	30.69	-35.1	-36.7	23.3	0.00e+00	0	42	0	2501902336	40	4704
2026-01-19 02:47:12.85	252.92	30.51	-35.2	-36.8	23.2	0.00e+00	0	42	0	2508193792	41	4493
2026-01-19 02:47:13.56	252.75	30.41	-35.2	-36.8	23.2	0.00e+00	0	43	0	2512388096	41	4490
2026-01-19 02:47:14.84	252.45	30.23	-35.2	-36.9	23.2	0.00e+00	0	42	0	2519728128	41	4515
2026-01-19 02:47:15.61	252.26	30.12	-35.3	-37.0	23.1	0.00e+00	0	42	0	2523922432	41	4553
2026-01-19 02:47:17.17	251.90	29.90	-35.2	-36.8	23.3	0.00e+00	0	42	0	2533359616	41	4482
2026-01-19 02:47:17.82	251.75	29.81	-35.1	-36.8	23.3	0.00e+00	0	42	0	2536505344	41	4452
2026-01-19 02:47:19.24	251.42	29.61	-35.2	-36.8	23.2	0.00e+00	0	42	0	2544893952	41	4471
2026-01-19 02:47:20.18	251.21	29.48	-35.2	-36.8	23.3	0.00e+00	0	43	0	2550136832	41	4483
2026-01-19 02:47:21.50	250.91	29.29	-35.1	-36.7	23.4	0.00e+00	0	42	0	2557476864	41	4416
2026-01-19 02:47:22.21	250.76	29.19	-35.1	-36.8	23.3	0.00e+00	0	42	0	2560622592	41	4448
2026-01-19 02:47:23.49	250.47	29.01	-35.1	-36.7	23.4	0.00e+00	0	42	0	2567962624	41	4422
2026-01-19 02:47:24.21	250.32	28.91	-35.1	-36.7	23.3	0.00e+00	0	42	0	2572156928	41	4421
2026-01-19 02:47:25.49	250.04	28.73	-35.0	-36.6	23.4	0.00e+00	0	42	0	2579496960	41	4386
2026-01-19 02:47:26.22	249.88	28.63	-35.0	-36.6	23.4	0.00e+00	0	42	0	2583691264	41	4384
2026-01-19 02:47:27.50	249.61	28.45	-34.9	-36.6	23.5	0.00e+00	0	42	0	2591031296	41	4344
2026-01-19 02:47:28.21	249.46	28.35	-34.9	-36.6	23.5	0.00e+00	0	42	0	2595225600	41	4352
2026-01-19 02:47:29.49	249.19	28.18	-35.0	-36.7	23.4	0.00e+00	0	42	0	2602565632	41	4396
2026-01-19 02:47:30.20	249.05	28.08	-35.0	-36.6	23.4	0.00e+00	0	42	0	2605711360	41	4388
2026-01-19 02:47:31.48	248.78	27.90	-35.2	-36.8	23.3	0.00e+00	0	42	0	2613051392	41	4470
2026-01-19 02:47:32.19	248.64	27.80	-35.3	-36.9	23.2	0.00e+00	0	42	0	2617245696	41	4526
2026-01-19 02:47:33.47	248.38	27.63	-35.3	-37.0	23.1	0.00e+00	0	42	0	2624585728	41	4556
2026-01-19 02:47:34.21	248.23	27.52	-35.4	-37.0	23.1	0.00e+00	0	42	0	2628780032	41	4597
2026-01-19 02:47:35.64	247.95	27.33	-35.4	-37.1	23.0	0.00e+00	0	42	0	2637168640	41	4607
2026-01-19 02:47:36.36	247.81	27.23	-35.3	-37.0	23.1	0.00e+00	0	42	0	2640314368	41	4567
2026-01-19 02:47:37.63	247.56	27.06	-35.4	-37.0	23.1	0.00e+00	0	42	0	2647654400	41	4584
2026-01-19 02:47:38.34	247.42	26.96	-35.3	-36.9	23.2	0.00e+00	0	42	0	2651848704	41	4532
2026-01-19 02:47:39.76	247.15	26.77	-35.4	-37.0	23.1	0.00e+00	0	42	0	2660237312	41	4582
2026-01-19 02:47:40.48	247.01	26.67	-35.3	-37.0	23.1	0.00e+00	0	42	0	2664431616	41	4563
2026-01-19 02:47:41.77	246.77	26.50	-35.4	-37.1	23.0	0.00e+00	0	42	0	2671771648	41	4607
2026-01-19 02:47:42.48	246.64	26.40	-35.4	-37.1	23.0	0.00e+00	0	42	0	2674917376	41	4612
2026-01-19 02:47:43.76	246.40	26.23	-35.4	-37.0	23.1	0.00e+00	0	42	0	2682257408	41	4587
2026-01-19 02:47:44.50	246.27	26.13	-35.3	-37.0	23.1	0.00e+00	0	42	0	2686451712	41	4564
2026-01-19 02:47:45.78	246.03	25.96	-35.4	-37.1	23.0	0.00e+00	0	42	0	2693791744	41	4612
2026-01-19 02:47:46.51	245.90	25.86	-35.5	-37.2	22.9	0.00e+00	0	42	0	2697986048	41	4669
2026-01-19 02:47:47.79	245.67	25.69	-35.6	-37.2	22.9	0.00e+00	0	42	0	2705326080	41	4681
2026-01-19 02:47:48.48	245.55	25.60	-35.6	-37.3	22.8	0.00e+00	0	42	0	2708471808	41	4728
2026-01-19 02:47:49.87	245.31	25.42	-35.7	-37.4	22.8	0.00e+00	0	42	0	2716860416	42	4506
2026-01-19 02:47:50.58	245.18	25.32	-35.6	-37.2	22.9	0.00e+00	0	42	0	2721054720	42	4426
2026-01-19 02:47:51.86	244.96	25.15	-35.5	-37.1	23.0	0.00e+00	0	42	0	2728394752	42	4378
2026-01-19 02:47:52.57	244.84	25.06	-35.5	-37.2	22.9	0.00e+00	0	42	0	2731540480	42	4404
2026-01-19 02:47:53.87	244.62	24.89	-35.5	-37.2	23.0	0.00e+00	0	43	0	2738880512	42	4395
2026-01-19 02:47:54.69	244.48	24.78	-35.6	-37.3	22.9	0.00e+00	0	42	0	2744123392	42	4444
2026-01-19 02:47:55.83	244.29	24.64	-35.6	-37.2	22.9	0.00e+00	0	43	0	2750414848	42	4436
2026-01-19 02:47:56.68	244.15	24.53	-35.7	-37.3	22.8	0.00e+00	0	42	0	2754609152	42	4480
2026-01-19 02:47:57.82	243.96	24.38	-35.7	-37.3	22.8	0.00e+00	0	42	0	2761949184	42	4478
2026-01-19 02:47:58.67	243.83	24.27	-35.7	-37.3	22.8	0.00e+00	0	43	0	2766143488	42	4482
2026-01-19 02:47:59.81	243.64	24.12	-35.7	-37.3	22.7	0.00e+00	0	42	0	2772434944	42	4492
2026-01-19 02:48:00.66	243.51	24.01	-35.6	-37.3	22.8	0.00e+00	0	42	0	2777677824	42	4450
2026-01-19 02:48:01.79	243.33	23.87	-35.7	-37.4	22.8	0.00e+00	0	43	0	2783969280	42	4494
2026-01-19 02:48:02.65	243.19	23.76	-35.6	-37.3	22.9	0.00e+00	0	42	0	2789212160	42	4442
2026-01-19 02:48:03.88	243.00	23.60	-35.6	-37.3	22.8	0.00e+00	0	43	0	2795503616	42	4456
2026-01-19 02:48:04.73	242.87	23.50	-35.6	-37.3	22.8	0.00e+00	0	43	0	2800746496	42	4462
2026-01-19 02:48:05.87	242.69	23.35	-35.6	-37.2	22.9	0.00e+00	0	43	0	2807037952	42	4440
2026-01-19 02:48:06.72	242.56	23.25	-35.7	-37.3	22.8	0.00e+00	0	43	0	2811232256	42	4483
2026-01-19 02:48:07.99	242.37	23.09	-35.6	-37.3	22.8	0.00e+00	0	42	0	2818572288	42	4467
2026-01-19 02:48:08.78	242.25	22.99	-35.6	-37.3	22.8	0.00e+00	0	42	0	2822766592	42	4465
2026-01-19 02:48:09.95	242.08	22.84	-35.7	-37.4	22.7	0.00e+00	0	42	0	2830106624	42	4516
2026-01-19 02:48:10.80	241.95	22.74	-35.8	-37.5	22.7	0.00e+00	0	42	0	2834300928	42	4563
2026-01-19 02:48:11.94	241.79	22.60	-35.7	-37.3	22.8	0.00e+00	0	42	0	2840592384	42	4472
2026-01-19 02:48:12.79	241.66	22.49	-35.7	-37.4	22.7	0.00e+00	0	42	0	2845835264	42	4523
2026-01-19 02:48:13.93	241.50	22.35	-35.8	-37.5	22.7	0.00e+00	0	42	0	2852126720	42	4546
2026-01-19 02:48:14.78	241.38	22.25	-35.8	-37.5	22.6	0.00e+00	0	42	0	2857369600	42	4563
2026-01-19 02:48:15.92	241.22	22.11	-35.9	-37.5	22.6	0.00e+00	0	42	0	2863661056	42	4593
2026-01-19 02:48:16.77	241.10	22.00	-35.9	-37.6	22.5	0.00e+00	0	42	0	2867855360	42	4629
2026-01-19 02:48:17.91	240.94	21.87	-36.0	-37.7	22.5	0.00e+00	0	42	0	2874146816	42	4654
2026-01-19 02:48:18.76	240.82	21.76	-36.0	-37.6	22.5	0.00e+00	0	43	0	2879389696	42	4646
2026-01-19 02:48:19.89	240.66	21.63	-36.1	-37.7	22.4	0.00e+00	0	43	0	2885681152	42	4702
2026-01-19 02:48:20.75	240.55	21.52	-36.0	-37.7	22.5	0.00e+00	0	42	0	2890924032	42	4678
2026-01-19 02:48:21.88	240.39	21.39	-36.1	-37.8	22.3	0.00e+00	0	42	0	2897215488	42	4729
2026-01-19 02:48:22.73	240.28	21.29	-36.1	-37.8	22.4	0.00e+00	0	42	0	2901409792	42	4706
2026-01-19 02:48:23.87	240.13	21.15	-36.0	-37.7	22.4	0.00e+00	0	42	0	2907701248	42	4670
2026-01-19 02:48:24.72	240.02	21.05	-36.1	-37.8	22.4	0.00e+00	0	43	0	2912944128	42	4707
2026-01-19 02:48:26.07	239.84	20.89	-36.0	-37.7	22.4	0.00e+00	0	42	0	2920284160	42	4677
2026-01-19 02:48:26.78	239.75	20.81	-36.0	-37.7	22.5	0.00e+00	0	43	0	2924478464	42	4658
2026-01-19 02:48:28.24	239.56	20.64	-36.1	-37.8	22.4	0.00e+00	0	42	0	2932867072	42	4708
2026-01-19 02:48:28.95	239.47	20.55	-36.1	-37.8	22.3	0.00e+00	0	42	0	2937061376	42	4751
2026-01-19 02:48:30.23	239.31	20.40	-36.1	-37.8	22.3	0.00e+00	0	42	0	2943352832	43	4479
2026-01-19 02:48:30.96	239.22	20.32	-36.2	-37.8	22.3	0.00e+00	0	43	0	2947547136	43	4486
2026-01-19 02:48:32.24	239.06	20.17	-36.1	-37.8	22.3	0.00e+00	0	42	0	2954887168	43	4481
2026-01-19 02:48:32.95	238.97	20.09	-36.2	-37.8	22.3	0.00e+00	0	42	0	2959081472	43	4493
2026-01-19 02:48:34.23	238.81	19.94	-36.2	-37.9	22.2	0.00e+00	0	42	0	2966421504	43	4524
2026-01-19 02:48:34.94	238.72	19.86	-36.3	-38.0	22.2	0.00e+00	0	42	0	2970615808	43	4553
2026-01-19 02:48:36.22	238.57	19.71	-36.3	-38.0	22.1	0.00e+00	0	42	0	2977955840	43	4594
2026-01-19 02:48:36.93	238.48	19.63	-36.4	-38.1	22.1	0.00e+00	0	42	0	2981101568	43	4604
2026-01-19 02:48:38.21	238.33	19.49	-36.4	-38.1	22.1	0.00e+00	0	42	0	2988441600	43	4626
2026-01-19 02:48:38.92	238.25	19.41	-36.4	-38.1	22.1	0.00e+00	0	42	0	2992635904	43	4619
2026-01-19 02:48:40.19	238.10	19.27	-36.4	-38.2	22.0	0.00e+00	0	42	0	2999975936	43	4655
2026-01-19 02:48:41.02	238.00	19.17	-36.4	-38.1	22.0	0.00e+00	0	43	0	3004170240	43	4637
2026-01-19 02:48:42.15	237.87	19.05	-36.4	-38.1	22.1	0.00e+00	0	43	0	3011510272	43	4599
2026-01-19 02:48:43.18	237.75	18.93	-36.4	-38.1	22.1	0.00e+00	0	43	0	3016753152	43	4613
2026-01-19 02:48:44.35	237.62	18.80	-36.3	-38.0	22.1	0.00e+00	0	42	0	3023044608	43	4571
2026-01-19 02:48:45.20	237.52	18.71	-36.4	-38.0	22.1	0.00e+00	0	42	0	3028287488	43	4595
2026-01-19 02:48:46.59	237.37	18.55	-36.4	-38.0	22.1	0.00e+00	0	42	0	3035627520	43	4593
2026-01-19 02:48:47.30	237.29	18.48	-36.4	-38.0	22.1	0.00e+00	0	43	0	3039821824	43	4594
2026-01-19 02:48:48.58	237.15	18.34	-36.4	-38.1	22.1	0.00e+00	0	43	0	3047161856	43	4608
2026-01-19 02:48:49.29	237.07	18.26	-36.5	-38.2	21.9	0.00e+00	0	42	0	3051356160	43	4673
2026-01-19 02:48:50.57	236.93	18.12	-36.5	-38.2	21.9	0.00e+00	0	43	0	3058696192	43	4668
2026-01-19 02:48:51.30	236.85	18.04	-36.5	-38.2	21.9	0.00e+00	0	43	0	3062890496	43	4685
2026-01-19 02:48:52.58	236.71	17.90	-36.6	-38.3	21.8	0.00e+00	0	42	0	3069181952	43	4738
2026-01-19 02:48:53.29	236.64	17.83	-36.9	-38.6	21.7	0.00e+00	0	42	0	3073376256	44	4625
2026-01-19 02:48:54.57	236.50	17.69	-37.1	-38.9	21.5	0.00e+00	0	42	0	3080716288	44	4765
2026-01-19 02:48:55.28	236.43	17.61	-37.1	-38.8	21.5	0.00e+00	0	43	0	3084910592	44	4754
2026-01-19 02:48:56.56	236.30	17.48	-37.1	-38.8	21.5	0.00e+00	0	43	0	3092250624	44	4753
2026-01-19 02:48:57.27	236.22	17.40	-37.1	-38.9	21.5	0.00e+00	0	43	0	3096444928	44	4781
2026-01-19 02:48:58.55	236.09	17.27	-37.1	-38.9	21.5	0.00e+00	0	42	0	3103784960	44	4763
2026-01-19 02:48:59.26	236.02	17.19	-37.1	-38.9	21.5	0.00e+00	0	42	0	3106930688	44	4770
2026-01-19 02:49:00.54	235.89	17.06	-37.3	-39.0	21.3	0.00e+00	0	42	0	3114270720	45	4592
2026-01-19 02:49:01.25	235.82	16.98	-37.3	-39.0	21.3	0.00e+00	0	43	0	3118465024	45	4579
2026-01-19 02:49:02.64	235.68	16.84	-37.2	-38.9	21.4	0.00e+00	0	42	0	3126853632	45	4513
2026-01-19 02:49:03.64	235.58	16.73	-37.2	-39.0	21.4	0.00e+00	0	42	0	3132096512	45	4549
2026-01-19 02:49:04.93	235.45	16.60	-37.2	-38.9	21.4	0.00e+00	0	42	0	3139436544	45	4526
2026-01-19 02:49:05.67	235.38	16.52	-37.4	-39.1	21.2	0.00e+00	0	42	0	3143630848	45	4625
2026-01-19 02:49:07.26	235.23	16.36	-37.4	-39.2	21.2	0.00e+00	0	42	0	3152019456	45	4661
2026-01-19 02:49:07.90	235.17	16.29	-37.3	-39.0	21.3	0.00e+00	0	42	0	3156213760	45	4598
2026-01-19 02:49:09.42	235.02	16.14	-37.4	-39.1	21.2	0.00e+00	0	43	0	3164602368	45	4623
2026-01-19 02:49:10.27	234.94	16.05	-37.3	-39.0	21.3	0.00e+00	0	42	0	3168796672	45	4571
2026-01-19 02:49:11.41	234.84	15.94	-37.3	-39.1	21.2	0.00e+00	0	42	0	3175088128	45	4612
2026-01-19 02:49:12.26	234.76	15.85	-37.4	-39.2	21.2	0.00e+00	0	43	0	3180331008	45	4654
2026-01-19 02:49:13.40	234.65	15.74	-37.4	-39.1	21.2	0.00e+00	0	42	0	3186622464	45	4623
2026-01-19 02:49:14.25	234.57	15.65	-37.4	-39.2	21.2	0.00e+00	0	42	0	3191865344	45	4664
2026-01-19 02:49:15.39	234.47	15.54	-37.5	-39.3	21.0	0.00e+00	0	42	0	3198156800	45	4712
2026-01-19 02:49:16.24	234.39	15.45	-37.5	-39.3	21.0	0.00e+00	0	42	0	3202351104	45	4724
2026-01-19 02:49:17.38	234.29	15.34	-37.6	-39.3	21.0	0.00e+00	0	42	0	3208642560	45	4740
2026-01-19 02:49:18.23	234.21	15.26	-37.7	-39.4	20.9	0.00e+00	0	42	0	3213885440	45	4809
2026-01-19 02:49:19.37	234.11	15.14	-37.7	-39.4	20.9	0.00e+00	0	42	0	3220176896	46	4536
2026-01-19 02:49:20.22	234.04	15.06	-37.7	-39.4	20.9	0.00e+00	0	42	0	3225419776	46	4536
2026-01-19 02:49:21.36	233.94	14.95	-37.7	-39.5	20.9	0.00e+00	0	43	0	3231711232	46	4561
2026-01-19 02:49:22.21	233.86	14.87	-37.8	-39.6	20.8	0.00e+00	0	43	0	3235905536	46	4615
2026-01-19 02:49:23.57	233.75	14.73	-37.8	-39.6	20.7	0.00e+00	0	42	0	3244294144	46	4634
2026-01-19 02:49:24.28	233.69	14.66	-37.9	-39.7	20.7	0.00e+00	0	42	0	3247439872	46	4657
2026-01-19 02:49:25.56	233.58	14.54	-37.9	-39.6	20.7	0.00e+00	0	42	0	3254779904	46	4647
2026-01-19 02:49:26.29	233.51	14.47	-37.9	-39.6	20.7	0.00e+00	0	42	0	3258974208	46	4640
2026-01-19 02:49:27.57	233.41	14.35	-37.9	-39.7	20.6	0.00e+00	0	42	0	3266314240	46	4695
2026-01-19 02:49:28.28	233.35	14.28	-38.0	-39.8	20.6	0.00e+00	0	42	0	3270508544	46	4738
2026-01-19 02:49:29.56	233.24	14.16	-38.0	-39.8	20.5	0.00e+00	0	42	0	3277848576	46	4741
2026-01-19 02:49:30.27	233.18	14.09	-38.0	-39.8	20.6	0.00e+00	0	42	0	3282042880	46	4717
2026-01-19 02:49:31.55	233.08	13.97	-38.0	-39.7	20.6	0.00e+00	0	43	0	3289382912	46	4703
2026-01-19 02:49:32.27	233.02	13.90	-38.0	-39.8	20.6	0.00e+00	0	42	0	3292528640	46	4723
2026-01-19 02:49:33.55	232.92	13.78	-38.0	-39.8	20.5	0.00e+00	0	42	0	3299868672	46	4743
2026-01-19 02:49:34.26	232.86	13.71	-38.1	-39.9	20.5	0.00e+00	0	42	0	3304062976	46	4768
2026-01-19 02:49:35.54	232.76	13.59	-38.0	-39.8	20.5	0.00e+00	0	43	0	3311403008	47	4474
2026-01-19 02:49:36.27	232.70	13.53	-38.0	-39.8	20.6	0.00e+00	0	42	0	3315597312	47	4448
2026-01-19 02:49:37.66	232.59	13.40	-38.0	-39.7	20.6	0.00e+00	0	42	0	3322937344	47	4437
2026-01-19 02:49:38.37	232.53	13.33	-37.9	-39.7	20.6	0.00e+00	0	42	0	3327131648	47	4416
2026-01-19 02:49:39.65	232.43	13.21	-38.1	-39.9	20.4	0.00e+00	0	42	0	3334471680	47	4494
2026-01-19 02:49:40.36	232.38	13.15	-38.1	-39.8	20.5	0.00e+00	0	42	0	3338665984	47	4488
2026-01-19 02:49:41.75	232.27	13.02	-38.1	-39.8	20.4	0.00e+00	0	42	0	3346006016	47	4492
2026-01-19 02:49:42.46	232.22	12.96	-38.1	-39.9	20.4	0.00e+00	0	42	0	3350200320	47	4535
2026-01-19 02:49:43.82	232.12	12.83	-38.1	-39.9	20.4	0.00e+00	0	42	0	3357540352	47	4503
2026-01-19 02:49:44.53	232.06	12.77	-38.2	-40.0	20.3	0.00e+00	0	42	0	3361734656	47	4569
2026-01-19 02:49:45.81	231.97	12.65	-38.2	-40.0	20.3	0.00e+00	0	42	0	3369074688	47	4584
2026-01-19 02:49:46.53	231.91	12.59	-38.3	-40.1	20.2	0.00e+00	0	42	0	3373268992	47	4640
2026-01-19 02:49:47.82	231.82	12.47	-38.3	-40.1	20.2	0.00e+00	0	43	0	3380609024	47	4608
2026-01-19 02:49:48.53	231.77	12.41	-38.2	-40.0	20.3	0.00e+00	0	43	0	3383754752	47	4583
2026-01-19 02:49:49.81	231.67	12.29	-38.4	-40.3	20.1	0.00e+00	0	43	0	3391094784	47	4713
2026-01-19 02:49:50.56	231.62	12.23	-38.5	-40.3	20.0	0.00e+00	0	43	0	3395289088	47	4748
2026-01-19 02:49:51.84	231.53	12.11	-38.5	-40.3	20.0	0.00e+00	0	42	0	3402629120	47	4741
2026-01-19 02:49:52.57	231.48	12.05	-38.6	-40.5	19.9	0.00e+00	0	42	0	3406823424	47	4815
2026-01-19 02:49:53.85	231.38	11.94	-38.7	-40.5	20.0	0.00e+00	0	42	0	3414163456	48	4576
2026-01-19 02:49:54.57	231.33	11.87	-38.7	-40.5	20.0	0.00e+00	0	43	0	3418357760	48	4591
2026-01-19 02:49:55.85	231.24	11.76	-38.7	-40.6	20.0	0.00e+00	0	43	0	3425697792	48	4605
2026-01-19 02:49:56.67	231.19	11.69	-38.7	-40.5	20.0	0.00e+00	0	42	0	3429892096	48	4571
2026-01-19 02:49:58.11	231.09	11.56	-38.7	-40.6	19.9	0.00e+00	0	43	0	3438280704	48	4605
2026-01-19 02:49:58.82	231.04	11.50	-38.9	-40.7	19.8	0.00e+00	0	42	0	3442475008	48	4675
2026-01-19 02:50:00.10	230.95	11.39	-38.8	-40.6	19.9	0.00e+00	0	43	0	3449815040	48	4625
2026-01-19 02:50:00.81	230.90	11.33	-38.7	-40.5	20.0	0.00e+00	0	43	0	3452960768	48	4563
2026-01-19 02:50:02.08	230.82	11.22	-38.8	-40.6	19.9	0.00e+00	0	43	0	3460300800	48	4619
2026-01-19 02:50:02.81	230.77	11.16	-38.7	-40.5	20.0	0.00e+00	0	42	0	3464495104	48	4561
2026-01-19 02:50:04.09	230.68	11.05	-38.9	-40.7	19.8	0.00e+00	0	42	0	3471835136	48	4669
2026-01-19 02:50:04.80	230.64	10.99	-38.8	-40.6	19.9	0.00e+00	0	43	0	3476029440	48	4635
2026-01-19 02:50:06.08	230.55	10.88	-38.7	-40.5	20.0	0.00e+00	0	43	0	3483369472	48	4564
2026-01-19 02:50:06.80	230.50	10.82	-38.8	-40.6	19.9	0.00e+00	0	43	0	3487563776	48	4636
2026-01-19 02:50:08.08	230.42	10.71	-38.8	-40.6	19.9	0.00e+00	0	42	0	3493855232	48	4631
2026-01-19 02:50:08.81	230.37	10.65	-38.8	-40.6	19.9	0.00e+00	0	42	0	3498049536	48	4633
2026-01-19 02:50:10.09	230.29	10.54	-38.9	-40.7	19.8	0.00e+00	0	42	0	3505389568	48	4669
2026-01-19 02:50:10.80	230.25	10.48	-39.0	-40.8	19.7	0.00e+00	0	42	0	3509583872	48	4726
2026-01-19 02:50:12.08	230.16	10.38	-38.9	-40.7	19.8	0.00e+00	0	42	0	3516923904	48	4674
2026-01-19 02:50:12.79	230.12	10.32	-39.0	-40.8	19.6	0.00e+00	0	43	0	3521118208	48	4751
2026-01-19 02:50:14.15	230.03	10.20	-39.0	-40.8	19.6	0.00e+00	0	43	0	3528458240	48	4738
2026-01-19 02:50:14.86	229.99	10.14	-39.0	-40.9	19.6	0.00e+00	0	42	0	3532652544	48	4773
2026-01-19 02:50:16.14	229.91	10.04	-39.2	-41.1	19.4	0.00e+00	0	43	0	3539992576	49	4623
2026-01-19 02:50:17.21	229.84	9.95	-39.0	-40.8	19.6	0.00e+00	0	42	0	3545235456	49	4465
2026-01-19 02:50:18.35	229.77	9.86	-39.1	-40.9	19.6	0.00e+00	0	42	0	3552575488	49	4525
2026-01-19 02:50:19.20	229.72	9.79	-39.2	-41.1	19.4	0.00e+00	0	42	0	3556769792	49	4607
2026-01-19 02:50:20.34	229.65	9.70	-39.2	-41.0	19.4	0.00e+00	0	43	0	3563061248	49	4596
2026-01-19 02:50:21.19	229.60	9.63	-39.1	-41.0	19.4	0.00e+00	0	42	0	3568304128	49	4572
2026-01-19 02:50:22.33	229.53	9.53	-39.3	-41.2	19.2	0.00e+00	0	42	0	3574595584	49	4683
2026-01-19 02:50:23.18	229.48	9.47	-39.3	-41.2	19.2	0.00e+00	0	42	0	3578789888	49	4685
2026-01-19 02:50:24.32	229.42	9.37	-39.2	-41.0	19.4	0.00e+00	0	43	0	3585081344	49	4591
2026-01-19 02:50:25.17	229.37	9.31	-39.3	-41.2	19.2	0.00e+00	0	43	0	3590324224	49	4673
2026-01-19 02:50:26.31	229.30	9.21	-39.2	-41.1	19.3	0.00e+00	0	43	0	3596615680	49	4632
2026-01-19 02:50:27.16	229.25	9.15	-39.4	-41.3	19.2	0.00e+00	0	43	0	3601858560	49	4706
2026-01-19 02:50:28.40	229.18	9.05	-39.3	-41.2	19.2	0.00e+00	0	42	0	3608150016	49	4691
2026-01-19 02:50:29.25	229.13	8.98	-39.4	-41.3	19.1	0.00e+00	0	43	0	3613392896	49	4745
2026-01-19 02:50:30.46	229.06	8.89	-49.9	-62.1	3.8	8.47e-01	0	42	104	3616538624	70	15493
2026-01-19 02:50:31.32	229.01	8.82	-50.0	-62.2	3.8	8.47e-01	0	43	104	3616538624	70	15633
2026-01-19 02:50:32.53	228.94	8.72	-50.1	-62.4	3.8	8.46e-01	0	43	104	3616538624	70	16004
2026-01-19 02:50:33.38	228.90	8.66	-50.2	-62.4	3.8	8.46e-01	0	43	104	3616538624	71	15175
2026-01-19 02:50:34.58	228.83	8.56	-50.4	-62.5	3.8	8.48e-01	0	43	104	3616538624	71	15262
2026-01-19 02:50:35.43	228.78	8.50	-50.4	-62.5	3.8	8.46e-01	0	42	104	3616538624	71	15393
2026-01-19 02:50:36.63	228.71	8.40	-50.4	-62.6	3.8	8.46e-01	0	43	104	3616538624	71	15464
