passes_logs/2026/01/19/T1/T1__20260119_111506_AQUA_rec.log

#Pass ID: 20260119_111506_AQUA
#Satellite: AQUA
#Configuration: AQUA
#almurnet v.1.7.20251203
#Start time: 2026-01-19 11:15:06

#Version: 2.0.20230620
#Station: T1
#Location: 37.570604 lon 55.790049 lat
#TLE: 1 27424U 02022A   26018.92652823  .00000914  00000+0  19290-3 0  9996
#TLE: 2 27424  98.4089 345.4199 0001997  73.4625 351.8991 14.61828815261466

#Time	Az	El	Level	Level2	SNR	BER	BlckErr	Temp	State	Recorded	gain1	gain2
2026-01-19 11:15:06.39	146.46	5.00	-50.7	-70.5	3.8	7.47e-01	0	43	0	0	72	36375
2026-01-19 11:15:07.38	146.43	5.08	-50.7	-69.9	3.8	7.46e-01	0	43	104	0	72	33787
2026-01-19 11:15:08.37	146.40	5.15	-50.7	-69.6	3.8	7.47e-01	0	43	104	0	72	32808
2026-01-19 11:15:09.36	146.38	5.23	-50.7	-69.4	3.9	7.44e-01	0	43	104	0	72	31815
2026-01-19 11:15:10.36	146.35	5.30	-50.7	-69.6	3.8	7.50e-01	0	43	104	0	72	32660
2026-01-19 11:15:11.35	146.32	5.38	-50.7	-69.6	3.8	7.46e-01	0	43	104	0	72	32673
2026-01-19 11:15:12.34	146.29	5.45	-50.7	-69.7	3.8	7.44e-01	0	43	104	0	72	33064
2026-01-19 11:15:13.34	146.26	5.53	-50.7	-69.8	3.8	7.47e-01	0	43	104	0	72	33519
2026-01-19 11:15:14.33	146.23	5.60	-50.7	-70.0	3.8	7.47e-01	0	43	104	0	72	34155
2026-01-19 11:15:15.32	146.20	5.68	-50.7	-69.9	3.8	7.48e-01	0	43	104	0	72	33940
2026-01-19 11:15:16.31	146.17	5.75	-50.7	-69.8	3.8	7.46e-01	0	43	104	0	72	33317
2026-01-19 11:15:17.31	146.14	5.83	-50.7	-69.4	3.8	7.44e-01	0	43	104	0	72	32115
2026-01-19 11:15:18.30	146.11	5.91	-50.6	-68.6	3.9	7.39e-01	0	43	104	0	72	29202
2026-01-19 11:15:19.29	146.08	5.98	-50.6	-68.2	3.9	7.40e-01	0	43	104	0	72	27881
2026-01-19 11:15:20.29	146.05	6.06	-50.6	-67.9	4.1	7.46e-01	0	43	104	0	72	26768
2026-01-19 11:15:21.28	146.02	6.14	-50.6	-67.0	4.4	7.27e-01	0	43	104	0	72	24306
2026-01-19 11:15:22.27	145.99	6.21	-50.6	-66.9	4.5	7.21e-01	0	43	104	0	72	23860
2026-01-19 11:15:23.26	145.96	6.29	-50.6	-67.0	4.0	7.33e-01	0	43	104	0	72	24377
2026-01-19 11:15:24.26	145.93	6.37	-50.6	-67.8	3.9	7.42e-01	0	43	104	0	72	26593
2026-01-19 11:15:25.25	145.90	6.45	-50.6	-68.1	4.1	7.38e-01	0	43	104	0	72	27605
2026-01-19 11:15:26.24	145.87	6.53	-50.7	-69.3	3.8	7.45e-01	0	43	104	0	72	31522
2026-01-19 11:15:27.24	145.84	6.61	-50.7	-70.4	3.8	7.45e-01	0	43	104	0	72	35757
2026-01-19 11:15:28.23	145.81	6.69	-50.7	-71.1	3.8	7.48e-01	0	43	104	0	72	38980
2026-01-19 11:15:29.22	145.77	6.76	-50.7	-71.2	3.8	7.48e-01	0	43	104	0	72	39281
2026-01-19 11:15:30.22	145.74	6.84	-50.7	-70.5	3.8	7.46e-01	0	43	104	0	72	36110
2026-01-19 11:15:31.21	145.71	6.92	-50.7	-69.3	3.9	7.44e-01	0	43	104	0	72	31727
2026-01-19 11:15:32.20	145.68	7.00	-50.6	-68.1	4.1	7.43e-01	0	43	104	0	72	27633
2026-01-19 11:15:33.19	145.64	7.08	-50.6	-66.7	4.6	7.24e-01	0	43	104	0	72	23414
2026-01-19 11:15:34.19	145.61	7.17	-50.5	-65.6	5.1	7.08e-01	0	43	0	0	72	20688
2026-01-19 11:15:35.18	145.58	7.25	-50.5	-64.6	5.7	6.90e-01	0	43	104	0	72	18382
2026-01-19 11:15:36.17	145.54	7.33	-50.4	-63.1	7.0	6.65e-01	0	43	0	1572864	72	15453
2026-01-19 11:15:37.17	145.51	7.41	-50.2	-61.4	8.6	6.39e-01	0	43	0	3145728	72	12751
2026-01-19 11:15:38.16	145.48	7.49	-50.0	-59.5	10.5	6.19e-01	0	43	0	5242880	72	10253
2026-01-19 11:15:39.15	145.44	7.57	-49.7	-57.7	12.4	6.12e-01	0	43	0	6815744	71	8851
2026-01-19 11:15:40.15	145.41	7.66	-49.2	-56.1	14.1	6.06e-01	0	43	0	8912896	70	7788
2026-01-19 11:15:41.14	145.37	7.74	-48.7	-54.6	15.6	6.06e-01	0	43	0	11010048	69	6948
2026-01-19 11:15:42.13	145.34	7.82	-48.2	-53.5	16.8	6.06e-01	0	43	0	12582912	68	6426
2026-01-19 11:15:43.13	145.30	7.90	-47.7	-52.5	17.7	6.06e-01	0	43	0	14680064	67	6090
2026-01-19 11:15:44.12	145.27	7.99	-47.2	-51.6	18.5	6.08e-01	0	43	0	16252928	66	5829
2026-01-19 11:15:45.11	145.23	8.07	-46.9	-51.1	19.1	6.07e-01	0	43	0	18350080	65	5802
2026-01-19 11:15:46.10	145.20	8.16	-46.9	-50.9	19.2	6.08e-01	0	43	0	19922944	65	5712
2026-01-19 11:15:47.10	145.16	8.24	-46.9	-51.0	19.2	6.08e-01	0	43	0	22020096	65	5727
2026-01-19 11:15:48.09	145.13	8.32	-47.0	-51.1	19.0	6.09e-01	0	43	0	23592960	65	5843
2026-01-19 11:15:49.08	145.09	8.41	-47.3	-51.7	18.5	6.08e-01	0	43	0	25690112	65	6238
2026-01-19 11:15:50.08	145.05	8.50	-47.7	-52.5	17.8	6.06e-01	0	43	0	27262976	65	6812
2026-01-19 11:15:51.07	145.02	8.58	-48.1	-53.4	16.8	6.08e-01	0	43	0	29360128	66	7195
2026-01-19 11:15:52.06	144.98	8.67	-48.7	-54.7	15.5	6.07e-01	0	43	0	31457280	67	7868
2026-01-19 11:15:53.06	144.94	8.75	-49.2	-56.3	14.1	6.06e-01	0	43	0	33030144	69	8381
2026-01-19 11:15:54.05	144.90	8.84	-49.7	-58.1	12.1	6.11e-01	0	43	0	35127296	70	9769
2026-01-19 11:15:55.04	144.87	8.93	-50.1	-60.1	10.1	6.24e-01	0	43	0	36700160	70	12335
2026-01-19 11:15:56.03	144.83	9.01	-50.3	-62.1	8.0	6.48e-01	0	43	0	38797312	71	14639
2026-01-19 11:15:57.03	144.79	9.10	-46.0	-50.0	20.2	6.09e-01	0	43	0	40370176	63	5739
2026-01-19 11:15:58.02	144.75	9.19	-47.8	-53.2	17.1	6.04e-01	0	43	0	42467328	66	7017
2026-01-19 11:15:59.01	144.71	9.28	-50.7	-69.2	3.8	7.47e-01	0	43	104	43515904	72	31166
2026-01-19 11:16:00.01	144.67	9.37	-49.6	-58.3	11.9	6.12e-01	0	43	0	44040192	71	9430
2026-01-19 11:16:01.00	144.63	9.46	-47.1	-51.6	18.6	6.07e-01	0	43	0	45613056	65	6184
2026-01-19 11:16:01.99	144.59	9.54	-47.1	-51.6	18.6	6.08e-01	0	43	0	47710208	65	6175
2026-01-19 11:16:02.98	144.55	9.63	-47.1	-51.5	18.7	6.06e-01	0	43	0	49283072	65	6086
2026-01-19 11:16:03.98	144.51	9.72	-46.4	-50.2	20.0	6.08e-01	0	43	0	51380224	64	5532
2026-01-19 11:16:04.97	144.47	9.81	-45.8	-49.1	21.1	6.07e-01	0	43	0	52953088	63	5198
2026-01-19 11:16:05.96	144.43	9.90	-45.2	-48.2	21.4	6.07e-01	0	43	0	55050240	62	4956
2026-01-19 11:16:06.96	144.39	10.00	-44.8	-47.6	22.5	6.06e-01	0	43	0	57147392	61	4900
2026-01-19 11:16:07.95	144.35	10.09	-44.5	-47.2	22.9	6.05e-01	0	43	0	58720256	61	4685
2026-01-19 11:16:08.94	144.31	10.18	-44.5	-47.2	23.0	6.06e-01	0	43	0	60817408	60	4954
2026-01-19 11:16:09.94	144.26	10.27	-44.6	-47.3	22.8	6.05e-01	0	43	0	62390272	60	5019
2026-01-19 11:16:10.93	144.22	10.36	-44.6	-47.3	22.8	6.05e-01	0	43	0	64487424	60	5026
2026-01-19 11:16:11.92	144.18	10.46	-44.5	-47.2	23.0	6.07e-01	0	43	0	66060288	60	4956
2026-01-19 11:16:12.91	144.14	10.55	-44.3	-47.0	23.2	6.09e-01	0	43	0	68157440	60	4841
2026-01-19 11:16:13.91	144.09	10.64	-44.2	-46.9	23.3	6.06e-01	0	43	0	69730304	60	4784
2026-01-19 11:16:14.90	144.05	10.74	-44.3	-47.0	23.2	6.06e-01	0	43	0	71827456	60	4847
2026-01-19 11:16:15.89	144.00	10.83	-44.3	-47.0	23.2	6.06e-01	0	43	0	73924608	60	4829
2026-01-19 11:16:16.89	143.96	10.93	-44.1	-46.8	23.4	6.05e-01	0	43	0	75497472	60	4728
2026-01-19 11:16:17.88	143.91	11.02	-44.2	-46.9	23.3	6.07e-01	0	43	0	77594624	60	4762
2026-01-19 11:16:18.87	143.87	11.12	-44.0	-46.7	23.5	6.06e-01	0	43	0	79167488	60	4665
2026-01-19 11:16:19.86	143.82	11.21	-44.1	-46.8	23.5	6.07e-01	0	43	0	81264640	59	5032
2026-01-19 11:16:20.86	143.78	11.31	-44.1	-46.8	23.5	6.08e-01	0	43	0	82837504	59	4988
2026-01-19 11:16:21.85	143.73	11.41	-44.1	-46.7	23.3	6.06e-01	0	43	0	84934656	59	4937
2026-01-19 11:16:22.84	143.69	11.50	-44.1	-46.8	23.5	6.08e-01	0	43	0	86507520	59	4990
2026-01-19 11:16:23.84	143.64	11.60	-44.0	-46.6	23.6	6.08e-01	0	43	0	88604672	59	4913
2026-01-19 11:16:24.83	143.59	11.70	-44.1	-46.7	23.6	6.08e-01	0	43	0	90177536	59	4952
2026-01-19 11:16:25.82	143.55	11.80	-44.1	-46.7	23.6	6.07e-01	0	43	0	92274688	59	4933
2026-01-19 11:16:26.82	143.50	11.90	-44.0	-46.5	23.7	6.08e-01	0	43	0	94371840	59	4862
2026-01-19 11:16:27.81	143.45	12.00	-44.0	-46.6	23.7	6.05e-01	0	43	0	95944704	59	4879
2026-01-19 11:16:28.80	143.40	12.10	-43.8	-46.3	24.0	6.05e-01	0	43	0	98041856	59	4736
2026-01-19 11:16:29.79	143.35	12.20	-43.8	-46.3	24.0	6.07e-01	0	44	0	99614720	59	4710
2026-01-19 11:16:30.79	143.30	12.30	-43.7	-46.2	24.1	6.07e-01	0	43	0	101711872	59	4657
2026-01-19 11:16:31.78	143.25	12.40	-43.7	-46.1	24.1	6.07e-01	0	43	0	103284736	59	4637
2026-01-19 11:16:32.77	143.20	12.50	-43.8	-46.2	24.0	6.07e-01	0	43	0	105381888	59	4699
2026-01-19 11:16:33.76	143.15	12.60	-43.6	-46.1	24.2	6.05e-01	0	43	0	106954752	59	4632
2026-01-19 11:16:34.76	143.10	12.70	-43.6	-46.1	24.1	6.05e-01	0	43	0	109051904	59	4601
2026-01-19 11:16:35.75	143.05	12.81	-43.6	-46.0	24.2	6.07e-01	0	43	0	111149056	59	4592
2026-01-19 11:16:36.74	143.00	12.91	-43.6	-46.0	24.2	6.07e-01	0	43	0	112721920	59	4588
2026-01-19 11:16:37.73	142.95	13.01	-43.6	-46.1	24.2	6.06e-01	0	43	0	114819072	59	4627
2026-01-19 11:16:38.73	142.89	13.12	-43.6	-46.2	24.2	6.05e-01	0	43	0	116391936	59	4655
2026-01-19 11:16:39.72	142.84	13.22	-43.6	-46.2	24.1	6.07e-01	0	43	0	118489088	59	4654
2026-01-19 11:16:40.71	142.79	13.33	-43.6	-46.1	24.1	6.05e-01	0	43	0	120061952	59	4647
2026-01-19 11:16:41.71	142.73	13.43	-43.6	-46.2	24.2	6.06e-01	0	43	0	122159104	59	4662
2026-01-19 11:16:42.70	142.68	13.54	-43.6	-46.1	24.2	6.06e-01	0	43	0	123731968	59	4642
2026-01-19 11:16:43.69	142.62	13.65	-43.6	-46.1	24.2	6.06e-01	0	43	0	125829120	59	4635
2026-01-19 11:16:44.69	142.57	13.75	-43.6	-46.2	24.1	6.08e-01	0	43	0	127401984	59	4657
2026-01-19 11:16:45.68	142.51	13.86	-43.7	-46.3	24.0	6.05e-01	0	43	0	129499136	59	4735
2026-01-19 11:16:46.67	142.46	13.97	-43.6	-46.2	24.2	6.06e-01	0	43	0	131596288	59	4655
2026-01-19 11:16:47.66	142.40	14.08	-43.6	-46.2	24.1	6.05e-01	0	43	0	133169152	59	4684
2026-01-19 11:16:48.66	142.34	14.19	-43.7	-46.2	24.1	6.07e-01	0	43	0	135266304	59	4701
2026-01-19 11:16:49.65	142.29	14.30	-43.6	-46.2	24.2	6.05e-01	0	43	0	136839168	59	4662
2026-01-19 11:16:50.64	142.23	14.41	-43.7	-46.3	24.1	6.09e-01	0	43	0	138936320	59	4707
2026-01-19 11:16:51.64	142.17	14.52	-43.6	-46.2	24.1	6.08e-01	0	43	0	140509184	59	4663
2026-01-19 11:16:52.63	142.11	14.63	-43.6	-46.1	24.2	6.09e-01	0	43	0	142606336	59	4649
2026-01-19 11:16:53.62	142.05	14.74	-43.4	-46.0	24.3	6.08e-01	0	43	0	144179200	58	4824
2026-01-19 11:16:54.61	141.99	14.85	-43.5	-46.1	24.3	6.05e-01	0	43	0	146276352	58	4887
2026-01-19 11:16:55.61	141.93	14.97	-43.6	-46.1	24.2	6.08e-01	0	43	0	148373504	58	4893
2026-01-19 11:16:56.60	141.87	15.08	-43.4	-45.9	24.4	6.04e-01	0	43	0	149946368	58	4791
2026-01-19 11:16:57.59	141.81	15.19	-43.5	-46.0	24.4	6.07e-01	0	44	0	152043520	58	4816
2026-01-19 11:16:58.59	141.75	15.31	-43.3	-45.8	24.5	6.06e-01	0	43	0	153616384	58	4712
2026-01-19 11:16:59.58	141.69	15.42	-43.4	-45.9	24.4	6.05e-01	0	43	0	155713536	58	4767
2026-01-19 11:17:00.57	141.62	15.54	-43.4	-45.9	24.4	6.05e-01	0	43	0	157286400	58	4775
2026-01-19 11:17:01.56	141.56	15.66	-43.2	-45.7	24.6	6.06e-01	0	43	0	159383552	58	4661
2026-01-19 11:17:02.56	141.50	15.77	-43.2	-45.7	24.6	6.06e-01	0	43	0	160956416	58	4663
2026-01-19 11:17:03.55	141.43	15.89	-43.3	-45.7	24.6	6.05e-01	0	43	0	163053568	58	4705
2026-01-19 11:17:04.54	141.37	16.01	-43.4	-45.9	24.5	6.06e-01	0	43	0	165150720	58	4765
2026-01-19 11:17:05.54	141.30	16.13	-43.3	-45.7	24.6	6.08e-01	0	43	0	166723584	58	4683
2026-01-19 11:17:06.53	141.23	16.25	-43.3	-45.7	24.6	6.07e-01	0	43	0	168820736	58	4670
2026-01-19 11:17:07.52	141.17	16.37	-43.4	-45.8	24.6	6.06e-01	0	43	0	170393600	58	4723
2026-01-19 11:17:08.52	141.10	16.49	-43.4	-45.8	24.5	6.03e-01	0	43	0	172490752	58	4719
2026-01-19 11:17:09.51	141.03	16.61	-43.3	-45.7	24.6	6.07e-01	0	43	0	174063616	58	4678
2026-01-19 11:17:10.50	140.96	16.73	-43.4	-45.7	24.6	6.07e-01	0	43	0	176160768	58	4698
2026-01-19 11:17:11.49	140.89	16.85	-43.3	-45.7	24.6	6.07e-01	0	43	0	177733632	58	4693
2026-01-19 11:17:12.49	140.82	16.98	-43.4	-45.8	24.6	6.06e-01	0	44	0	179830784	58	4716
2026-01-19 11:17:13.48	140.75	17.10	-43.4	-45.8	24.5	6.05e-01	0	43	0	181403648	58	4743
2026-01-19 11:17:14.47	140.68	17.22	-43.4	-45.8	24.6	6.09e-01	0	43	0	183500800	58	4720
2026-01-19 11:17:15.46	140.61	17.35	-43.5	-45.9	24.5	6.08e-01	0	43	0	185597952	58	4767
2026-01-19 11:17:16.46	140.54	17.47	-43.4	-45.8	24.5	6.04e-01	0	43	0	187170816	58	4752
2026-01-19 11:17:17.45	140.46	17.60	-43.5	-45.9	24.5	6.07e-01	0	43	0	189267968	58	4762
2026-01-19 11:17:18.44	140.39	17.73	-43.6	-46.0	24.4	6.05e-01	0	43	0	190840832	58	4834
2026-01-19 11:17:19.44	140.32	17.86	-43.6	-46.0	24.4	6.09e-01	0	44	0	192937984	58	4844
2026-01-19 11:17:20.43	140.24	17.98	-43.6	-46.0	24.3	6.07e-01	0	43	0	194510848	58	4870
2026-01-19 11:17:21.42	140.16	18.11	-43.6	-46.1	24.3	6.07e-01	0	43	0	196608000	58	4873
2026-01-19 11:17:22.42	140.09	18.24	-43.7	-46.1	24.3	6.05e-01	0	44	0	198180864	58	4897
2026-01-19 11:17:23.41	140.01	18.37	-43.7	-46.2	24.2	6.08e-01	0	43	0	200278016	58	4948
2026-01-19 11:17:24.40	139.93	18.50	-43.7	-46.2	24.2	6.07e-01	0	43	0	202375168	58	4946
2026-01-19 11:17:25.39	139.85	18.63	-43.7	-46.2	24.2	6.04e-01	0	43	0	203948032	58	4939
2026-01-19 11:17:26.39	139.77	18.77	-43.7	-46.1	24.2	6.06e-01	0	43	0	206045184	58	4916
2026-01-19 11:17:27.38	139.69	18.90	-43.7	-46.2	24.2	6.06e-01	0	43	0	207618048	58	4927
2026-01-19 11:17:28.37	139.61	19.03	-43.7	-46.2	24.3	6.05e-01	0	43	0	209715200	58	4931
2026-01-19 11:17:29.37	139.53	19.17	-43.6	-46.0	24.4	6.06e-01	0	43	0	211288064	58	4854
2026-01-19 11:17:30.36	139.45	19.31	-43.6	-46.0	24.4	6.07e-01	0	43	0	213385216	58	4838
2026-01-19 11:17:31.35	139.36	19.44	-43.5	-46.0	24.4	6.07e-01	0	43	0	214958080	58	4836
2026-01-19 11:17:32.35	139.28	19.58	-43.5	-45.9	24.4	6.07e-01	0	43	0	217055232	58	4800
2026-01-19 11:17:33.34	139.19	19.72	-43.4	-45.8	24.5	6.05e-01	0	43	0	218628096	58	4752
2026-01-19 11:17:34.33	139.11	19.86	-43.3	-45.7	24.6	6.08e-01	0	43	0	220725248	58	4695
2026-01-19 11:17:35.32	139.02	19.99	-43.4	-45.8	24.5	6.07e-01	0	43	0	222822400	58	4754
2026-01-19 11:17:36.32	138.93	20.14	-43.5	-45.9	24.5	6.08e-01	0	43	0	224395264	58	4764
2026-01-19 11:17:37.31	138.85	20.28	-43.4	-45.8	24.5	6.06e-01	0	43	0	226492416	58	4744
2026-01-19 11:17:38.30	138.76	20.42	-43.5	-46.0	24.4	6.06e-01	0	43	0	228065280	58	4820
2026-01-19 11:17:39.30	138.67	20.56	-43.7	-46.1	24.3	6.07e-01	0	43	0	230162432	58	4899
2026-01-19 11:17:40.29	138.57	20.70	-43.7	-46.1	24.3	6.06e-01	0	43	0	231735296	58	4908
2026-01-19 11:17:41.28	138.48	20.85	-43.7	-46.2	24.3	6.08e-01	0	43	0	233832448	58	4933
2026-01-19 11:17:42.28	138.39	20.99	-43.8	-46.3	24.1	6.08e-01	0	43	0	235405312	58	5007
2026-01-19 11:17:43.27	138.30	21.14	-43.8	-46.2	24.2	6.07e-01	0	43	0	237502464	58	4981
2026-01-19 11:17:44.26	138.20	21.29	-43.8	-46.2	24.2	6.06e-01	0	43	0	239599616	58	4983
2026-01-19 11:17:45.26	138.10	21.43	-43.7	-46.1	24.3	6.06e-01	0	43	0	241172480	58	4914
2026-01-19 11:17:46.25	138.01	21.58	-43.9	-46.3	24.2	6.06e-01	0	43	0	243269632	58	5019
2026-01-19 11:17:47.24	137.91	21.73	-43.7	-46.1	24.3	6.07e-01	0	43	0	244842496	58	4912
2026-01-19 11:17:48.23	137.81	21.88	-43.8	-46.2	24.3	6.06e-01	0	43	0	246939648	58	4948
2026-01-19 11:17:49.23	137.71	22.03	-43.8	-46.2	24.2	6.07e-01	0	43	0	248512512	58	4961
2026-01-19 11:17:50.22	137.61	22.18	-43.7	-46.1	24.3	6.07e-01	0	43	0	250609664	58	4924
2026-01-19 11:17:51.21	137.51	22.34	-43.7	-46.1	24.3	6.08e-01	0	44	0	252182528	58	4902
2026-01-19 11:17:52.20	137.40	22.49	-43.8	-46.2	24.2	6.07e-01	0	43	0	254279680	58	4974
2026-01-19 11:17:53.20	137.30	22.65	-43.8	-46.2	24.2	6.08e-01	0	43	0	256376832	58	4959
2026-01-19 11:17:54.17	137.20	22.80	-43.8	-46.3	24.2	6.06e-01	0	43	0	257949696	58	4991
2026-01-19 11:17:55.17	137.09	22.95	-43.9	-46.3	24.2	6.08e-01	0	43	0	260046848	58	5009
2026-01-19 11:17:56.16	136.98	23.11	-44.0	-46.4	24.1	6.06e-01	0	43	0	261619712	58	5078
2026-01-19 11:17:57.15	136.87	23.27	-43.9	-46.4	24.1	6.06e-01	0	43	0	263716864	58	5072
2026-01-19 11:17:58.14	136.76	23.43	-43.9	-46.4	24.1	6.07e-01	0	43	0	265289728	58	5088
2026-01-19 11:17:59.14	136.65	23.59	-44.0	-46.5	24.0	6.04e-01	0	43	0	267386880	58	5116
2026-01-19 11:18:00.13	136.54	23.75	-44.0	-46.5	24.0	6.06e-01	0	43	0	268959744	58	5101
2026-01-19 11:18:01.12	136.42	23.91	-44.0	-46.5	24.0	6.07e-01	0	43	0	271056896	58	5116
2026-01-19 11:18:02.11	136.31	24.07	-44.0	-46.5	23.9	6.07e-01	0	43	0	272629760	58	5114
2026-01-19 11:18:03.11	136.19	24.24	-43.9	-46.4	24.0	6.07e-01	0	43	0	274726912	58	5068
2026-01-19 11:18:04.10	136.08	24.40	-43.9	-46.4	24.1	6.07e-01	0	43	0	276824064	58	5055
2026-01-19 11:18:05.09	135.96	24.57	-43.8	-46.3	24.2	6.07e-01	0	43	0	278396928	58	5007
2026-01-19 11:18:06.09	135.84	24.74	-43.7	-46.1	24.3	6.07e-01	0	43	0	280494080	58	4926
2026-01-19 11:18:07.08	135.71	24.91	-43.8	-46.4	24.1	6.06e-01	0	43	0	282066944	58	5042
2026-01-19 11:18:08.07	135.59	25.08	-43.9	-46.3	24.2	6.10e-01	0	43	0	284164096	58	5040
2026-01-19 11:18:09.07	135.47	25.25	-43.9	-46.4	24.1	6.05e-01	0	43	0	285736960	58	5094
2026-01-19 11:18:10.06	135.34	25.42	-44.0	-46.5	24.0	6.04e-01	0	43	0	287834112	58	5149
2026-01-19 11:18:11.05	135.21	25.59	-44.1	-46.6	23.9	6.08e-01	0	43	0	289406976	58	5175
2026-01-19 11:18:12.04	135.08	25.76	-44.1	-46.5	24.0	6.05e-01	0	43	0	291504128	58	5150
2026-01-19 11:18:13.04	134.95	25.94	-43.9	-46.3	24.1	6.05e-01	0	43	0	293601280	58	5038
2026-01-19 11:18:14.03	134.82	26.11	-43.6	-46.0	24.4	6.07e-01	0	43	0	295174144	58	4828
2026-01-19 11:18:15.02	134.69	26.29	-43.4	-45.8	24.7	6.05e-01	0	43	0	297271296	58	4734
2026-01-19 11:18:16.01	134.55	26.47	-43.4	-45.8	24.6	6.05e-01	0	43	0	298844160	58	4733
2026-01-19 11:18:17.01	134.42	26.65	-43.3	-45.7	24.8	6.06e-01	0	43	0	300941312	58	4653
2026-01-19 11:18:18.00	134.28	26.83	-43.4	-45.8	24.6	6.05e-01	0	43	0	302514176	58	4755
2026-01-19 11:18:18.99	134.14	27.01	-43.5	-45.9	24.6	6.08e-01	0	43	0	304611328	58	4799
2026-01-19 11:18:19.99	134.00	27.19	-43.6	-46.0	24.5	6.05e-01	0	43	0	306184192	58	4817
2026-01-19 11:18:20.98	133.85	27.37	-43.5	-45.9	24.5	6.06e-01	0	43	0	308281344	58	4802
2026-01-19 11:18:21.97	133.71	27.56	-43.5	-45.9	24.5	6.08e-01	0	43	0	309854208	58	4812
2026-01-19 11:18:22.96	133.56	27.74	-43.4	-45.8	24.7	6.07e-01	0	43	0	311951360	58	4715
2026-01-19 11:18:23.96	133.41	27.93	-43.2	-45.6	24.8	6.07e-01	0	43	0	314048512	58	4624
2026-01-19 11:18:24.95	133.26	28.12	-43.3	-45.6	24.8	6.08e-01	0	43	0	315621376	58	4646
2026-01-19 11:18:25.94	133.11	28.31	-43.4	-45.7	24.7	6.08e-01	0	43	0	317718528	58	4693
2026-01-19 11:18:26.94	132.95	28.50	-43.5	-45.8	24.6	6.06e-01	0	43	0	319291392	58	4759
2026-01-19 11:18:27.93	132.80	28.69	-43.4	-45.8	24.7	6.07e-01	0	43	0	321388544	58	4718
2026-01-19 11:18:28.92	132.64	28.88	-43.3	-45.7	24.8	6.06e-01	0	43	0	322961408	58	4681
2026-01-19 11:18:29.92	132.48	29.07	-43.4	-45.8	24.7	6.06e-01	0	43	0	325058560	58	4710
2026-01-19 11:18:30.91	132.32	29.27	-43.2	-45.5	24.9	6.05e-01	0	43	0	326631424	58	4593
2026-01-19 11:18:31.90	132.15	29.46	-43.0	-45.4	25.1	6.06e-01	0	43	0	328728576	58	4516
2026-01-19 11:18:32.89	131.99	29.66	-43.1	-45.4	25.0	6.08e-01	0	43	0	330825728	58	4544
2026-01-19 11:18:33.89	131.82	29.86	-43.1	-45.5	24.9	6.05e-01	0	43	0	332398592	58	4580
2026-01-19 11:18:34.88	131.65	30.06	-43.1	-45.5	24.9	6.07e-01	0	43	0	334495744	58	4582
2026-01-19 11:18:35.87	131.47	30.26	-43.0	-45.5	25.0	6.05e-01	0	43	0	336068608	58	4555
2026-01-19 11:18:36.87	131.30	30.46	-43.1	-45.5	24.9	6.06e-01	0	43	0	338165760	58	4583
2026-01-19 11:18:37.86	131.12	30.67	-43.1	-45.5	24.9	6.06e-01	0	43	0	339738624	58	4581
2026-01-19 11:18:38.85	130.94	30.87	-43.2	-45.6	24.9	6.07e-01	0	43	0	341835776	58	4629
2026-01-19 11:18:39.84	130.76	31.08	-43.3	-45.6	24.8	6.07e-01	0	43	0	343408640	58	4643
2026-01-19 11:18:40.84	130.57	31.28	-43.2	-45.5	24.9	6.07e-01	0	43	0	345505792	58	4593
2026-01-19 11:18:41.83	130.39	31.49	-43.1	-45.4	25.0	6.08e-01	0	43	0	347602944	58	4530
2026-01-19 11:18:42.82	130.20	31.70	-43.1	-45.4	25.1	6.07e-01	0	43	0	349175808	58	4532
2026-01-19 11:18:43.82	130.00	31.91	-43.2	-45.5	25.0	6.07e-01	0	43	0	351272960	58	4561
2026-01-19 11:18:44.81	129.81	32.12	-43.2	-45.5	24.9	6.08e-01	0	43	0	352845824	58	4585
2026-01-19 11:18:45.80	129.61	32.34	-43.2	-45.5	24.9	6.06e-01	0	43	0	354942976	58	4589
2026-01-19 11:18:46.79	129.41	32.55	-43.2	-45.5	24.9	6.09e-01	0	43	0	356515840	58	4585
2026-01-19 11:18:47.79	129.21	32.77	-43.2	-45.6	24.9	6.06e-01	0	43	0	358612992	58	4599
2026-01-19 11:18:48.78	129.00	32.98	-43.3	-45.7	24.8	6.07e-01	0	43	0	360185856	58	4681
2026-01-19 11:18:49.77	128.79	33.20	-43.7	-46.1	24.4	6.05e-01	0	43	0	362283008	58	4912
2026-01-19 11:18:50.77	128.58	33.42	-43.9	-46.3	24.2	6.06e-01	0	43	0	363855872	58	5034
2026-01-19 11:18:51.76	128.36	33.64	-43.9	-46.3	24.2	6.07e-01	0	43	0	365953024	58	5006
2026-01-19 11:18:52.75	128.15	33.86	-43.8	-46.1	24.4	6.07e-01	0	43	0	368050176	58	4926
2026-01-19 11:18:53.75	127.92	34.09	-43.7	-46.1	24.5	6.06e-01	0	43	0	369623040	58	4877
2026-01-19 11:18:54.74	127.70	34.31	-43.7	-46.1	24.4	6.06e-01	0	43	0	371720192	58	4918
2026-01-19 11:18:55.73	127.47	34.54	-43.8	-46.2	24.3	6.07e-01	0	43	0	373293056	58	4975
2026-01-19 11:18:56.72	127.24	34.76	-44.1	-46.6	24.0	6.08e-01	0	43	0	375390208	58	5180
2026-01-19 11:18:57.72	127.01	34.99	-44.4	-46.9	23.7	6.06e-01	0	43	0	376963072	59	5089
2026-01-19 11:18:58.71	126.77	35.22	-44.4	-46.9	23.7	6.05e-01	0	43	0	379060224	59	5073
2026-01-19 11:18:59.70	126.53	35.45	-44.5	-47.0	23.7	6.05e-01	0	43	0	380633088	59	5138
2026-01-19 11:19:00.70	126.28	35.69	-44.4	-47.0	23.7	6.08e-01	0	43	0	382730240	59	5112
2026-01-19 11:19:01.69	126.04	35.92	-44.5	-47.0	23.7	6.07e-01	0	43	0	384827392	59	5144
2026-01-19 11:19:02.68	125.79	36.15	-44.5	-47.0	23.7	6.07e-01	0	43	0	386400256	59	5143
2026-01-19 11:19:03.68	125.53	36.39	-44.6	-47.2	23.4	6.06e-01	0	43	0	388497408	60	4956
2026-01-19 11:19:04.67	125.27	36.62	-44.7	-47.3	23.4	6.08e-01	0	43	0	390070272	60	4991
2026-01-19 11:19:05.66	125.01	36.86	-44.7	-47.4	23.3	6.07e-01	0	43	0	392167424	60	5051
2026-01-19 11:19:06.65	124.74	37.10	-44.5	-47.2	23.4	6.08e-01	0	43	0	393740288	60	4940
2026-01-19 11:19:07.65	124.47	37.34	-44.6	-47.2	23.4	6.04e-01	0	43	0	395837440	60	4964
2026-01-19 11:19:08.64	124.19	37.58	-44.7	-47.4	23.2	6.05e-01	0	43	0	397410304	60	5083
2026-01-19 11:19:09.63	123.91	37.82	-44.9	-47.7	23.0	6.05e-01	0	43	0	399507456	60	5228
2026-01-19 11:19:10.62	123.63	38.06	-45.1	-47.8	22.8	6.07e-01	0	43	0	401604608	60	5291
2026-01-19 11:19:11.62	123.34	38.31	-44.9	-47.6	23.0	6.07e-01	0	43	0	403177472	60	5186
2026-01-19 11:19:12.61	123.05	38.56	-44.9	-47.5	23.2	6.07e-01	0	44	0	405274624	60	5130
2026-01-19 11:19:13.60	122.75	38.80	-45.0	-47.7	23.0	6.06e-01	0	43	0	406847488	60	5228
2026-01-19 11:19:14.59	122.45	39.05	-45.1	-47.9	22.8	6.07e-01	0	43	0	408944640	60	5349
2026-01-19 11:19:15.59	122.14	39.30	-45.0	-47.7	23.0	6.05e-01	0	43	0	410517504	61	4948
2026-01-19 11:19:16.58	121.83	39.55	-45.1	-47.8	22.9	6.07e-01	0	43	0	412614656	61	5023
2026-01-19 11:19:17.57	121.51	39.79	-45.2	-48.0	22.6	6.06e-01	0	44	0	414187520	61	5137
2026-01-19 11:19:18.57	121.19	40.05	-44.9	-47.5	23.0	6.07e-01	0	43	0	416284672	61	4868
2026-01-19 11:19:19.56	120.86	40.30	-44.7	-47.3	23.3	6.09e-01	0	43	0	417857536	61	4724
2026-01-19 11:19:20.55	120.53	40.55	-44.8	-47.4	23.2	6.08e-01	0	43	0	419954688	61	4814
2026-01-19 11:19:21.55	120.19	40.81	-45.0	-47.7	23.0	6.05e-01	0	43	0	422051840	61	4946
2026-01-19 11:19:22.54	119.85	41.06	-44.9	-47.5	23.1	6.06e-01	0	43	0	423624704	61	4858
2026-01-19 11:19:23.53	119.50	41.31	-44.7	-47.3	23.4	6.07e-01	0	43	0	425721856	61	4709
2026-01-19 11:19:24.52	119.15	41.57	-44.6	-47.2	23.4	6.06e-01	0	43	0	427294720	61	4694
2026-01-19 11:19:25.52	118.78	41.83	-44.5	-47.1	23.5	6.07e-01	0	43	0	429391872	61	4612
2026-01-19 11:19:26.51	118.42	42.08	-44.3	-46.8	23.7	6.08e-01	0	43	0	430964736	60	4756
2026-01-19 11:19:27.50	118.05	42.34	-44.5	-47.1	23.5	6.08e-01	0	43	0	433061888	60	4896
2026-01-19 11:19:28.50	117.67	42.60	-44.5	-47.1	23.5	6.07e-01	0	43	0	434634752	60	4926
2026-01-19 11:19:29.49	117.28	42.86	-44.4	-46.9	23.7	6.08e-01	0	43	0	436731904	60	4799
2026-01-19 11:19:30.48	116.89	43.11	-44.5	-47.0	23.6	6.07e-01	0	43	0	438829056	60	4846
2026-01-19 11:19:31.48	116.49	43.37	-44.2	-46.7	23.9	6.06e-01	0	43	0	440401920	60	4690
2026-01-19 11:19:32.47	116.09	43.63	-44.2	-46.7	23.9	6.06e-01	0	43	0	441974784	60	4678
2026-01-19 11:19:33.46	115.68	43.89	-44.4	-46.9	23.7	6.06e-01	0	43	0	444071936	60	4791
2026-01-19 11:19:34.45	115.26	44.15	-44.4	-46.9	23.7	6.06e-01	0	43	0	446169088	60	4771
2026-01-19 11:19:35.45	114.84	44.41	-44.1	-46.6	23.9	6.06e-01	0	43	0	447741952	60	4627
2026-01-19 11:19:36.44	114.40	44.67	-44.1	-46.6	24.0	6.07e-01	0	43	0	449839104	59	4897
2026-01-19 11:19:37.43	113.97	44.93	-44.4	-46.9	23.8	6.09e-01	0	43	0	451411968	59	5063
2026-01-19 11:19:38.43	113.52	45.19	-44.6	-47.1	23.6	6.09e-01	0	43	0	453509120	59	5195
2026-01-19 11:19:39.42	113.07	45.45	-44.4	-46.8	23.9	6.07e-01	0	44	0	455081984	59	5039
2026-01-19 11:19:40.41	112.61	45.71	-44.3	-46.8	23.8	6.07e-01	0	43	0	457179136	59	5014
2026-01-19 11:19:41.41	112.13	45.97	-44.3	-46.8	23.9	6.07e-01	0	43	0	459276288	59	5008
2026-01-19 11:19:42.40	111.66	46.23	-44.4	-47.0	23.8	6.06e-01	0	43	0	460849152	59	5105
2026-01-19 11:19:43.39	111.17	46.48	-44.5	-47.1	23.6	6.07e-01	0	43	0	462946304	59	5167
2026-01-19 11:19:44.38	110.68	46.74	-44.5	-47.0	23.7	6.06e-01	0	43	0	464519168	59	5128
2026-01-19 11:19:45.38	110.18	47.00	-44.6	-47.1	23.6	6.08e-01	0	43	0	466616320	59	5193
2026-01-19 11:19:46.37	109.67	47.25	-44.6	-47.2	23.5	6.08e-01	0	43	0	468189184	60	4940
2026-01-19 11:19:47.36	109.15	47.51	-44.6	-47.2	23.4	6.08e-01	0	43	0	470286336	60	4975
2026-01-19 11:19:48.36	108.62	47.76	-44.6	-47.2	23.5	6.07e-01	0	44	0	471859200	60	4964
2026-01-19 11:19:49.35	108.08	48.02	-44.5	-47.0	23.6	6.05e-01	0	43	0	473956352	60	4853
2026-01-19 11:19:50.34	107.54	48.27	-44.7	-47.3	23.3	6.08e-01	0	43	0	476053504	60	5019
2026-01-19 11:19:51.34	106.98	48.52	-44.1	-46.6	23.9	6.05e-01	0	43	0	477626368	60	4638
2026-01-19 11:19:52.33	106.42	48.77	-44.3	-46.9	23.9	6.07e-01	0	43	0	479723520	59	5045
2026-01-19 11:19:53.32	105.85	49.01	-44.6	-47.1	23.6	6.07e-01	0	43	0	481296384	59	5185
2026-01-19 11:19:54.31	105.27	49.26	-44.6	-47.2	23.4	6.06e-01	0	43	0	483393536	60	4958
2026-01-19 11:19:55.31	104.67	49.51	-44.3	-46.8	23.7	6.05e-01	0	43	0	484966400	60	4759
2026-01-19 11:19:56.30	104.08	49.75	-44.0	-46.5	24.0	6.07e-01	0	43	0	487063552	60	4578
2026-01-19 11:19:57.29	103.47	49.99	-44.2	-46.7	23.9	6.05e-01	0	43	0	488636416	60	4667
2026-01-19 11:19:58.29	102.84	50.23	-44.3	-46.8	23.7	6.08e-01	0	43	0	490733568	60	4734
2026-01-19 11:19:59.28	102.21	50.46	-43.9	-46.3	24.3	6.04e-01	0	43	0	492830720	59	4734
2026-01-19 11:20:00.27	101.57	50.69	-43.9	-46.4	24.3	6.06e-01	0	43	0	494403584	59	4775
2026-01-19 11:20:01.26	100.93	50.92	-44.1	-46.6	24.1	6.06e-01	0	43	0	495976448	59	4882
2026-01-19 11:20:02.26	100.26	51.15	-44.2	-46.7	24.0	6.03e-01	0	43	0	498073600	59	4964
2026-01-19 11:20:03.25	99.59	51.38	-44.0	-46.4	24.2	6.06e-01	0	43	0	500170752	59	4809
2026-01-19 11:20:04.24	98.91	51.60	-44.0	-46.5	24.1	6.07e-01	0	43	0	501743616	59	4860
2026-01-19 11:20:05.24	98.22	51.82	-44.3	-46.8	23.9	6.08e-01	0	44	0	503840768	59	5024
2026-01-19 11:20:06.23	97.52	52.03	-44.0	-46.5	24.2	6.08e-01	0	43	0	505413632	59	4824
2026-01-19 11:20:07.22	96.81	52.24	-43.5	-45.8	24.8	6.08e-01	0	43	0	507510784	59	4465
2026-01-19 11:20:08.22	96.08	52.45	-44.0	-46.4	24.2	6.07e-01	0	43	0	509083648	59	4782
2026-01-19 11:20:09.21	95.35	52.65	-43.9	-46.4	24.2	6.06e-01	0	43	0	511180800	59	4786
2026-01-19 11:20:10.20	94.61	52.85	-43.7	-46.2	24.4	6.07e-01	0	43	0	513277952	59	4686
2026-01-19 11:20:11.19	93.86	53.05	-43.6	-46.1	24.5	6.08e-01	0	43	0	514850816	59	4629
2026-01-19 11:20:12.19	93.09	53.24	-43.8	-46.2	24.4	6.06e-01	0	43	0	516947968	59	4693
2026-01-19 11:20:13.18	92.32	53.43	-43.8	-46.2	24.4	6.06e-01	0	43	0	518520832	59	4656
2026-01-19 11:20:14.17	91.54	53.61	-43.8	-46.2	24.5	6.05e-01	0	43	0	520617984	59	4686
2026-01-19 11:20:15.17	90.74	53.79	-43.6	-46.0	24.5	6.08e-01	0	43	0	522190848	59	4596
2026-01-19 11:20:16.16	89.94	53.96	-43.6	-46.0	24.6	6.06e-01	0	43	0	524288000	59	4587
2026-01-19 11:20:17.15	89.13	54.13	-43.8	-46.3	24.4	6.06e-01	0	43	0	525860864	59	4731
2026-01-19 11:20:18.14	88.31	54.29	-43.7	-46.2	24.5	6.07e-01	0	43	0	527958016	59	4670
2026-01-19 11:20:19.14	87.48	54.45	-43.7	-46.2	24.5	6.06e-01	0	43	0	530055168	59	4677
2026-01-19 11:20:20.13	86.64	54.60	-44.0	-46.6	24.1	6.06e-01	0	43	0	531628032	59	4872
2026-01-19 11:20:21.12	85.79	54.74	-44.0	-46.5	24.2	6.06e-01	0	43	0	533725184	59	4860
2026-01-19 11:20:22.12	84.93	54.88	-44.1	-46.7	24.0	6.05e-01	0	43	0	535298048	59	4952
2026-01-19 11:20:23.11	84.07	55.02	-44.1	-46.6	24.1	6.10e-01	0	43	0	537395200	59	4921
2026-01-19 11:20:24.10	83.20	55.14	-44.0	-46.6	24.2	6.07e-01	0	43	0	538968064	59	4884
2026-01-19 11:20:25.09	82.32	55.27	-44.3	-46.8	23.9	6.08e-01	0	43	0	541065216	59	5040
2026-01-19 11:20:26.09	81.42	55.38	-44.2	-46.7	24.1	6.07e-01	0	43	0	542638080	59	4927
2026-01-19 11:20:27.08	80.53	55.49	-44.5	-47.0	23.7	6.06e-01	0	43	0	544735232	59	5142
2026-01-19 11:20:28.07	79.63	55.59	-44.2	-46.6	24.1	6.08e-01	0	43	0	546832384	59	4913
2026-01-19 11:20:29.07	78.72	55.68	-44.2	-46.6	24.1	6.08e-01	0	43	0	548405248	59	4921
2026-01-19 11:20:30.06	77.80	55.77	-44.3	-46.8	24.0	6.06e-01	0	43	0	549978112	59	4986
2026-01-19 11:20:31.05	76.89	55.85	-44.6	-47.2	23.6	6.08e-01	0	43	0	552075264	59	5226
2026-01-19 11:20:32.05	75.95	55.93	-44.4	-46.9	23.7	6.07e-01	0	43	0	554172416	60	4797
2026-01-19 11:20:33.04	75.03	55.99	-44.4	-46.9	23.7	6.08e-01	0	43	0	555745280	60	4813
2026-01-19 11:20:34.03	74.09	56.05	-45.1	-47.7	23.0	6.08e-01	0	43	0	557842432	60	5267
2026-01-19 11:20:35.02	73.16	56.10	-44.4	-46.9	23.8	6.06e-01	0	43	0	559415296	60	4770
2026-01-19 11:20:36.02	72.21	56.15	-44.4	-47.0	23.7	6.09e-01	0	43	0	561512448	60	4824
2026-01-19 11:20:37.01	71.27	56.18	-44.5	-47.1	23.6	6.07e-01	0	43	0	563085312	60	4892
2026-01-19 11:20:38.00	70.33	56.21	-44.9	-47.5	23.2	6.06e-01	0	43	0	565182464	60	5146
2026-01-19 11:20:39.00	69.37	56.23	-44.2	-46.6	23.9	6.07e-01	0	43	0	566755328	60	4644
2026-01-19 11:20:39.99	68.43	56.25	-44.5	-46.9	23.8	6.09e-01	0	43	0	568852480	60	4812
2026-01-19 11:20:40.98	67.48	56.25	-44.8	-47.4	23.2	6.09e-01	0	43	0	570949632	60	5100
2026-01-19 11:20:41.98	66.52	56.25	-44.2	-46.7	23.9	6.06e-01	0	43	0	572522496	60	4684
2026-01-19 11:20:42.97	65.58	56.24	-44.2	-46.6	24.1	6.06e-01	0	43	0	574619648	60	4626
2026-01-19 11:20:43.96	64.63	56.23	-44.4	-46.9	23.8	6.04e-01	0	43	0	576192512	60	4795
2026-01-19 11:20:44.96	63.68	56.20	-44.5	-47.1	23.6	6.06e-01	0	43	0	578289664	60	4882
2026-01-19 11:20:45.95	62.73	56.17	-44.1	-46.6	24.0	6.06e-01	0	43	0	579862528	60	4621
2026-01-19 11:20:46.94	61.79	56.13	-44.5	-47.0	23.6	6.09e-01	0	43	0	581959680	60	4862
2026-01-19 11:20:47.94	60.85	56.09	-44.7	-47.3	23.4	6.06e-01	0	43	0	584056832	60	5018
2026-01-19 11:20:48.93	59.91	56.03	-44.7	-47.3	23.5	6.06e-01	0	43	0	585629696	60	4986
2026-01-19 11:20:49.92	58.98	55.97	-44.6	-47.2	23.5	6.07e-01	0	43	0	587202560	60	4934
2026-01-19 11:20:50.91	58.06	55.90	-45.0	-47.7	23.1	6.07e-01	0	43	0	589299712	60	5232
2026-01-19 11:20:51.91	57.13	55.83	-45.2	-47.9	22.8	6.06e-01	0	43	0	591396864	61	5054
2026-01-19 11:20:52.90	56.21	55.74	-44.5	-47.0	23.7	6.07e-01	0	43	0	592969728	61	4580
2026-01-19 11:20:53.89	55.30	55.65	-44.8	-47.4	23.4	6.07e-01	0	43	0	595066880	61	4762
2026-01-19 11:20:54.89	54.39	55.56	-45.2	-47.9	22.9	6.05e-01	0	43	0	596639744	61	5042
2026-01-19 11:20:55.88	53.50	55.45	-44.0	-46.4	24.2	6.05e-01	0	43	0	598736896	59	4772
2026-01-19 11:20:56.87	52.61	55.34	-44.3	-46.7	24.1	6.06e-01	0	43	0	600834048	59	4953
2026-01-19 11:20:57.87	51.71	55.23	-44.8	-47.5	23.3	6.06e-01	0	43	0	602406912	60	5101
2026-01-19 11:20:58.86	50.84	55.10	-43.9	-46.2	24.4	6.07e-01	0	43	0	603979776	59	4687
2026-01-19 11:20:59.85	49.97	54.98	-43.7	-46.1	24.6	6.07e-01	0	43	0	606076928	59	4604
2026-01-19 11:21:00.84	49.11	54.84	-44.0	-46.4	24.3	6.07e-01	0	43	0	608174080	59	4805
2026-01-19 11:21:01.84	48.25	54.70	-44.1	-46.6	24.2	6.07e-01	0	44	0	609746944	59	4881
2026-01-19 11:21:02.83	47.41	54.55	-43.7	-46.1	24.6	6.06e-01	0	43	0	611844096	59	4616
2026-01-19 11:21:03.82	46.58	54.40	-43.8	-46.1	24.6	6.06e-01	0	44	0	613416960	59	4647
2026-01-19 11:21:04.81	45.75	54.24	-44.1	-46.5	24.2	6.08e-01	0	43	0	615514112	59	4853
2026-01-19 11:21:05.81	44.93	54.08	-43.9	-46.2	24.5	6.07e-01	0	43	0	617086976	59	4698
2026-01-19 11:21:06.80	44.13	53.91	-43.7	-46.1	24.6	6.06e-01	0	43	0	619184128	59	4628
2026-01-19 11:21:07.79	43.33	53.73	-43.7	-46.0	24.7	6.05e-01	0	43	0	620756992	59	4595
2026-01-19 11:21:08.79	42.54	53.55	-43.5	-45.8	24.8	6.07e-01	0	43	0	622854144	59	4492
2026-01-19 11:21:09.78	41.76	53.37	-43.8	-46.1	24.5	6.07e-01	0	43	0	624951296	59	4647
2026-01-19 11:21:10.77	40.99	53.18	-43.5	-45.8	24.7	6.08e-01	0	43	0	626524160	59	4470
2026-01-19 11:21:11.76	40.24	52.99	-43.5	-45.9	24.8	6.06e-01	0	43	0	628621312	58	4798
2026-01-19 11:21:12.76	39.48	52.79	-44.0	-46.5	24.2	6.05e-01	0	43	0	630194176	58	5109
2026-01-19 11:21:13.75	38.75	52.59	-43.9	-46.4	24.3	6.07e-01	0	43	0	632291328	58	5063
2026-01-19 11:21:14.74	38.02	52.39	-43.1	-45.4	25.2	6.06e-01	0	43	0	633864192	58	4506
2026-01-19 11:21:15.74	37.30	52.18	-43.2	-45.5	25.1	6.08e-01	0	43	0	635961344	57	4840
2026-01-19 11:21:16.73	36.60	51.97	-43.5	-45.8	24.8	6.09e-01	0	43	0	638058496	57	5041
2026-01-19 11:21:17.72	35.90	51.75	-43.4	-45.8	24.8	6.08e-01	0	43	0	639631360	57	4992
2026-01-19 11:21:18.71	35.22	51.54	-43.3	-45.6	25.0	6.06e-01	0	43	0	641204224	57	4922
2026-01-19 11:21:19.71	34.54	51.31	-43.6	-46.0	24.6	6.06e-01	0	43	0	643301376	58	4837
2026-01-19 11:21:20.70	33.87	51.09	-43.5	-45.8	24.8	6.07e-01	0	43	0	645398528	58	4741
2026-01-19 11:21:21.69	33.22	50.86	-43.2	-45.5	25.1	6.08e-01	0	44	0	646971392	58	4566
2026-01-19 11:21:22.69	32.57	50.63	-43.5	-45.8	24.8	6.07e-01	0	43	0	649068544	58	4744
2026-01-19 11:21:23.68	31.93	50.40	-43.6	-46.0	24.7	6.04e-01	0	43	0	650641408	58	4825
2026-01-19 11:21:24.67	31.31	50.16	-43.5	-45.9	24.7	6.06e-01	0	43	0	652738560	58	4789
2026-01-19 11:21:25.67	30.69	49.92	-43.8	-46.3	24.4	6.06e-01	0	43	0	654311424	58	5016
2026-01-19 11:21:26.66	30.09	49.68	-43.7	-46.1	24.5	6.07e-01	0	43	0	656408576	58	4909
2026-01-19 11:21:27.65	29.49	49.44	-43.8	-46.4	24.3	6.05e-01	0	43	0	657981440	58	5043
2026-01-19 11:21:28.64	28.91	49.20	-44.0	-46.5	24.2	6.07e-01	0	43	0	660078592	58	5141
2026-01-19 11:21:29.64	28.32	48.95	-43.9	-46.4	24.2	6.08e-01	0	43	0	662175744	58	5075
2026-01-19 11:21:30.63	27.76	48.71	-43.3	-45.6	25.0	6.05e-01	0	43	0	663748608	58	4620
2026-01-19 11:21:31.62	27.20	48.46	-43.5	-45.9	24.7	6.05e-01	0	43	0	665845760	58	4797
2026-01-19 11:21:32.61	26.65	48.21	-43.5	-45.8	24.8	6.06e-01	0	43	0	667418624	58	4755
2026-01-19 11:21:33.61	26.11	47.96	-43.6	-46.0	24.7	6.07e-01	0	43	0	669515776	58	4821
2026-01-19 11:21:34.60	25.58	47.70	-43.6	-46.0	24.7	6.07e-01	0	43	0	671088640	58	4832
2026-01-19 11:21:35.59	25.06	47.45	-43.3	-45.7	24.8	6.08e-01	0	43	0	673185792	58	4699
2026-01-19 11:21:36.59	24.54	47.20	-43.1	-45.4	25.1	6.06e-01	0	43	0	674758656	58	4544
2026-01-19 11:21:37.58	24.03	46.94	-43.4	-45.8	24.9	6.05e-01	0	43	0	676855808	58	4728
2026-01-19 11:21:38.57	23.54	46.69	-43.6	-46.0	24.6	6.06e-01	0	43	0	678428672	58	4858
2026-01-19 11:21:39.56	23.05	46.43	-43.5	-45.9	24.6	6.07e-01	0	43	0	680525824	58	4811
2026-01-19 11:21:40.56	22.56	46.17	-43.2	-45.6	25.0	6.05e-01	0	43	0	682622976	58	4620
2026-01-19 11:21:41.55	22.09	45.91	-43.2	-45.6	25.0	6.06e-01	0	43	0	684195840	58	4644
2026-01-19 11:21:42.54	21.63	45.66	-43.1	-45.4	25.2	6.05e-01	0	43	0	686292992	58	4517
2026-01-19 11:21:43.54	21.17	45.40	-43.5	-45.9	24.7	6.04e-01	0	43	0	687865856	58	4792
2026-01-19 11:21:44.53	20.72	45.14	-43.7	-46.2	24.5	6.07e-01	0	43	0	689963008	58	4929
2026-01-19 11:21:45.52	20.28	44.88	-43.6	-46.0	24.6	6.07e-01	0	43	0	691535872	58	4845
2026-01-19 11:21:46.52	19.84	44.62	-43.5	-45.8	24.8	6.07e-01	0	43	0	693633024	58	4738
2026-01-19 11:21:47.51	19.41	44.36	-43.7	-46.0	24.6	6.04e-01	0	43	0	695205888	58	4867
2026-01-19 11:21:48.50	18.99	44.11	-43.9	-46.3	24.3	6.07e-01	0	43	0	697303040	58	5026
2026-01-19 11:21:49.49	18.58	43.85	-43.8	-46.2	24.5	6.07e-01	0	44	0	699400192	58	4959
2026-01-19 11:21:50.49	18.17	43.59	-44.0	-46.5	24.2	6.07e-01	0	43	0	700973056	58	5118
2026-01-19 11:21:51.48	17.77	43.33	-44.0	-46.5	24.2	6.05e-01	0	43	0	703070208	58	5115
2026-01-19 11:21:52.47	17.37	43.07	-44.1	-46.5	24.2	6.06e-01	0	43	0	704643072	58	5158
2026-01-19 11:21:53.47	16.98	42.81	-43.7	-46.1	24.5	6.06e-01	0	43	0	706740224	58	4910
2026-01-19 11:21:54.46	16.60	42.56	-43.9	-46.4	24.3	6.05e-01	0	43	0	708313088	58	5066
2026-01-19 11:21:55.45	16.23	42.30	-44.5	-47.0	23.7	6.07e-01	0	43	0	710410240	59	5148
2026-01-19 11:21:56.44	15.86	42.05	-44.4	-47.0	23.7	6.07e-01	0	43	0	711983104	59	5121
2026-01-19 11:21:57.44	15.49	41.79	-44.3	-46.8	23.9	6.07e-01	0	43	0	714080256	59	5035
2026-01-19 11:21:58.43	15.14	41.53	-44.5	-47.0	23.7	6.06e-01	0	43	0	716177408	59	5144
2026-01-19 11:21:59.42	14.79	41.28	-44.5	-47.2	23.5	6.08e-01	0	43	0	717750272	60	4934
2026-01-19 11:22:00.42	14.44	41.03	-44.2	-46.8	23.8	6.07e-01	0	44	0	719847424	60	4733
2026-01-19 11:22:01.41	14.10	40.77	-44.0	-46.6	24.0	6.04e-01	0	43	0	721420288	60	4620
2026-01-19 11:22:02.40	13.76	40.52	-44.7	-47.5	23.3	6.07e-01	0	43	0	723517440	60	5121
2026-01-19 11:22:03.39	13.44	40.27	-45.1	-47.9	22.7	6.06e-01	0	43	0	725090304	60	5397
2026-01-19 11:22:04.39	13.11	40.02	-44.6	-47.3	23.3	6.07e-01	0	43	0	727187456	60	5030
2026-01-19 11:22:05.38	12.79	39.77	-44.7	-47.4	23.2	6.06e-01	0	43	0	728760320	60	5095
2026-01-19 11:22:06.37	12.48	39.52	-45.0	-47.8	22.9	6.09e-01	0	43	0	730857472	60	5328
2026-01-19 11:22:07.37	12.17	39.27	-45.0	-47.8	22.9	6.09e-01	0	43	0	732430336	60	5330
2026-01-19 11:22:08.36	11.86	39.03	-44.9	-47.7	23.0	6.08e-01	0	43	0	734527488	60	5231
2026-01-19 11:22:09.35	11.56	38.78	-45.1	-47.8	22.9	6.04e-01	0	43	0	736624640	60	5312
2026-01-19 11:22:10.35	11.26	38.54	-45.1	-47.9	22.8	6.07e-01	0	43	0	738197504	60	5401
2026-01-19 11:22:11.34	10.97	38.29	-45.2	-48.0	22.7	6.06e-01	0	43	0	740294656	61	5153
2026-01-19 11:22:12.33	10.69	38.05	-45.0	-47.8	22.9	6.06e-01	0	43	0	741867520	61	5018
2026-01-19 11:22:13.32	10.41	37.81	-44.9	-47.7	22.9	6.06e-01	0	43	0	743964672	61	4967
2026-01-19 11:22:14.32	10.13	37.57	-44.6	-47.3	23.4	6.06e-01	0	43	0	745537536	61	4723
2026-01-19 11:22:15.31	9.86	37.33	-44.6	-47.2	23.4	6.06e-01	0	43	0	747634688	61	4661
2026-01-19 11:22:16.30	9.59	37.09	-44.7	-47.4	23.3	6.08e-01	0	43	0	749207552	61	4794
2026-01-19 11:22:17.29	9.32	36.85	-45.1	-47.9	22.8	6.05e-01	0	43	0	751304704	61	5094
2026-01-19 11:22:18.29	9.06	36.62	-45.2	-47.9	22.8	6.08e-01	0	43	0	753401856	61	5080
2026-01-19 11:22:19.28	8.80	36.38	-44.9	-47.5	23.1	6.08e-01	0	43	0	754974720	61	4840
2026-01-19 11:22:20.27	8.55	36.15	-44.5	-47.0	23.7	6.05e-01	0	43	0	757071872	61	4565
2026-01-19 11:22:21.26	8.30	35.92	-44.5	-47.1	23.6	6.04e-01	0	43	0	758644736	60	4881
2026-01-19 11:22:22.26	8.05	35.68	-44.6	-47.4	23.3	6.05e-01	0	43	0	760741888	60	5043
2026-01-19 11:22:23.25	7.81	35.45	-44.7	-47.5	23.2	6.09e-01	0	43	0	762314752	60	5128
2026-01-19 11:22:24.24	7.57	35.23	-44.3	-47.0	23.6	6.08e-01	0	43	0	764411904	60	4848
2026-01-19 11:22:25.24	7.33	35.00	-44.2	-46.8	23.9	6.06e-01	0	43	0	765984768	59	5020
2026-01-19 11:22:26.23	7.10	34.77	-44.0	-46.7	24.0	6.07e-01	0	43	0	768081920	59	4946
2026-01-19 11:22:27.22	6.87	34.55	-44.1	-46.8	23.9	6.08e-01	0	43	0	770179072	59	5034
2026-01-19 11:22:28.22	6.65	34.32	-44.2	-46.9	23.8	6.07e-01	0	43	0	771751936	59	5064
2026-01-19 11:22:29.21	6.42	34.10	-44.3	-46.9	23.8	6.07e-01	0	43	0	773849088	59	5096
2026-01-19 11:22:30.20	6.21	33.88	-44.3	-46.9	23.8	6.06e-01	0	43	0	775421952	59	5064
2026-01-19 11:22:31.19	5.99	33.66	-44.0	-46.5	24.1	6.05e-01	0	43	0	777519104	59	4864
2026-01-19 11:22:32.19	5.78	33.43	-43.8	-46.3	24.3	6.06e-01	0	43	0	779091968	59	4733
2026-01-19 11:22:33.18	5.57	33.22	-43.6	-46.0	24.6	6.06e-01	0	43	0	781189120	59	4591
2026-01-19 11:22:34.17	5.36	33.00	-43.6	-46.0	24.6	6.05e-01	0	43	0	782761984	59	4558
2026-01-19 11:22:35.17	5.15	32.78	-43.5	-45.9	24.6	6.08e-01	0	43	0	784859136	59	4539
2026-01-19 11:22:36.16	4.95	32.57	-43.5	-45.9	24.7	6.08e-01	0	43	0	786432000	59	4522
2026-01-19 11:22:37.15	4.75	32.36	-43.4	-45.8	24.8	6.07e-01	0	43	0	788529152	58	4740
2026-01-19 11:22:38.15	4.56	32.14	-43.4	-45.9	24.7	6.06e-01	0	43	0	790626304	58	4784
2026-01-19 11:22:39.14	4.36	31.93	-43.4	-45.9	24.6	6.04e-01	0	43	0	792199168	58	4801
2026-01-19 11:22:40.13	4.17	31.73	-43.3	-45.7	24.8	6.07e-01	0	43	0	794296320	58	4700
2026-01-19 11:22:41.12	3.98	31.52	-43.2	-45.7	24.8	6.06e-01	0	43	0	795869184	58	4682
2026-01-19 11:22:42.12	3.80	31.31	-43.2	-45.6	24.9	6.06e-01	0	43	0	797966336	58	4632
2026-01-19 11:22:43.11	3.61	31.10	-43.2	-45.6	24.9	6.07e-01	0	43	0	799539200	58	4646
2026-01-19 11:22:44.10	3.43	30.90	-43.2	-45.6	24.9	6.05e-01	0	44	0	801636352	58	4620
2026-01-19 11:22:45.10	3.25	30.70	-43.2	-45.5	25.0	6.07e-01	0	43	0	803209216	58	4585
2026-01-19 11:22:46.09	3.08	30.49	-43.2	-45.6	24.9	6.09e-01	0	43	0	805306368	58	4614
2026-01-19 11:22:47.08	2.90	30.29	-43.4	-45.8	24.8	6.08e-01	0	43	0	807403520	58	4709
2026-01-19 11:22:48.07	2.73	30.09	-43.3	-45.7	24.8	6.08e-01	0	43	0	808976384	58	4681
2026-01-19 11:22:49.07	2.56	29.89	-43.3	-45.7	24.8	6.07e-01	0	43	0	811073536	58	4669
2026-01-19 11:22:50.06	2.40	29.70	-43.4	-45.7	24.8	6.07e-01	0	43	0	812646400	58	4697
2026-01-19 11:22:51.05	2.23	29.50	-43.4	-45.7	24.8	6.07e-01	0	43	0	814743552	58	4700
2026-01-19 11:22:52.05	2.07	29.31	-43.3	-45.6	24.9	6.07e-01	0	43	0	816316416	58	4634
2026-01-19 11:22:53.04	1.91	29.11	-43.3	-45.7	24.9	6.06e-01	0	43	0	818413568	58	4652
2026-01-19 11:22:54.03	1.75	28.92	-43.3	-45.6	24.9	6.07e-01	0	43	0	819986432	58	4624
2026-01-19 11:22:55.02	1.59	28.73	-43.3	-45.7	24.9	6.06e-01	0	43	0	822083584	58	4657
2026-01-19 11:22:56.02	1.44	28.54	-43.3	-45.7	24.8	6.05e-01	0	43	0	823656448	58	4677
2026-01-19 11:22:57.01	1.28	28.35	-43.4	-45.8	24.7	6.05e-01	0	43	0	825753600	58	4743
2026-01-19 11:22:58.00	1.13	28.16	-43.4	-45.8	24.6	6.05e-01	0	43	0	827850752	58	4758
2026-01-19 11:22:58.99	0.98	27.98	-43.6	-46.0	24.6	6.06e-01	0	43	0	829423616	58	4836
2026-01-19 11:22:59.99	0.83	27.79	-43.6	-45.9	24.6	6.07e-01	0	43	0	831520768	58	4800
2026-01-19 11:23:00.98	0.69	27.61	-43.5	-45.9	24.7	6.05e-01	0	43	0	833093632	58	4761
2026-01-19 11:23:01.98	0.54	27.42	-43.4	-45.7	24.8	6.08e-01	0	43	0	835190784	58	4700
2026-01-19 11:23:02.97	0.40	27.24	-43.5	-45.9	24.6	6.07e-01	0	43	0	836763648	58	4792
2026-01-19 11:23:03.96	0.26	27.06	-43.6	-46.0	24.6	6.08e-01	0	43	0	838860800	58	4826
2026-01-19 11:23:04.95	0.12	26.88	-43.7	-46.1	24.4	6.05e-01	0	43	0	840433664	58	4899
2026-01-19 11:23:05.95	359.99	26.70	-43.8	-46.3	24.3	6.07e-01	0	43	0	842530816	58	4999
2026-01-19 11:23:06.94	359.85	26.52	-43.9	-46.4	24.2	6.06e-01	0	43	0	844627968	58	5049
2026-01-19 11:23:07.93	359.72	26.35	-43.9	-46.4	24.2	6.06e-01	0	43	0	846200832	58	5085
2026-01-19 11:23:08.93	359.58	26.17	-43.9	-46.4	24.2	6.07e-01	0	43	0	848297984	58	5090
2026-01-19 11:23:09.92	359.45	26.00	-44.0	-46.5	24.1	6.06e-01	0	44	0	849870848	58	5133
2026-01-19 11:23:10.91	359.32	25.82	-44.0	-46.5	24.0	6.08e-01	0	43	0	851968000	58	5151
2026-01-19 11:23:11.91	359.20	25.65	-43.8	-46.4	24.1	6.07e-01	0	44	0	853540864	58	5057
2026-01-19 11:23:12.90	359.07	25.48	-43.9	-46.4	24.1	6.09e-01	0	44	0	855638016	58	5076
2026-01-19 11:23:13.89	358.95	25.31	-43.7	-46.2	24.3	6.08e-01	0	43	0	857210880	58	4980
2026-01-19 11:23:14.89	358.82	25.14	-43.7	-46.2	24.3	6.03e-01	0	43	0	859308032	58	4967
2026-01-19 11:23:15.88	358.70	24.97	-43.8	-46.3	24.3	6.06e-01	0	43	0	861405184	58	5002
2026-01-19 11:23:16.87	358.58	24.80	-43.9	-46.4	24.2	6.07e-01	0	43	0	862978048	58	5066
2026-01-19 11:23:17.87	358.46	24.64	-43.9	-46.4	24.2	6.07e-01	0	43	0	865075200	58	5061
2026-01-19 11:23:18.86	358.34	24.47	-43.8	-46.3	24.3	6.07e-01	0	43	0	866648064	58	4998
2026-01-19 11:23:19.85	358.23	24.31	-43.9	-46.4	24.2	6.06e-01	0	43	0	868745216	58	5052
2026-01-19 11:23:20.84	358.11	24.14	-43.9	-46.4	24.2	6.04e-01	0	43	0	870318080	58	5076
2026-01-19 11:23:21.84	358.00	23.98	-43.9	-46.5	24.1	6.07e-01	0	43	0	872415232	58	5118
2026-01-19 11:23:22.83	357.88	23.82	-43.9	-46.5	24.0	6.08e-01	0	44	0	873988096	58	5159
2026-01-19 11:23:23.82	357.77	23.66	-44.1	-46.8	23.8	6.05e-01	0	43	0	876085248	58	5282
2026-01-19 11:23:24.82	357.66	23.50	-44.0	-46.7	23.9	6.08e-01	0	43	0	877658112	58	5256
2026-01-19 11:23:25.81	357.55	23.34	-44.0	-46.7	23.9	6.07e-01	0	43	0	879755264	58	5247
2026-01-19 11:23:26.80	357.44	23.19	-44.1	-46.7	23.8	6.04e-01	0	43	0	881852416	58	5263
2026-01-19 11:23:27.79	357.34	23.03	-44.0	-46.6	24.0	6.07e-01	0	43	0	883425280	58	5183
2026-01-19 11:23:28.79	357.23	22.87	-44.0	-46.6	23.9	6.07e-01	0	43	0	885522432	58	5209
2026-01-19 11:23:29.78	357.13	22.72	-43.9	-46.4	24.1	6.06e-01	0	43	0	887095296	58	5099
2026-01-19 11:23:30.77	357.02	22.57	-43.9	-46.5	24.1	6.08e-01	0	43	0	889192448	58	5107
2026-01-19 11:23:31.77	356.92	22.41	-44.0	-46.5	24.0	6.06e-01	0	44	0	890765312	58	5151
2026-01-19 11:23:32.76	356.82	22.26	-43.9	-46.4	24.1	6.05e-01	0	43	0	892862464	58	5083
2026-01-19 11:23:33.75	356.72	22.11	-43.9	-46.4	24.1	6.08e-01	0	43	0	894435328	58	5081
2026-01-19 11:23:34.74	356.62	21.96	-43.9	-46.4	24.1	6.05e-01	0	43	0	896532480	58	5079
2026-01-19 11:23:35.74	356.52	21.81	-44.0	-46.6	24.0	6.08e-01	0	43	0	898629632	58	5160
2026-01-19 11:23:36.73	356.43	21.66	-44.0	-46.6	24.0	6.08e-01	0	43	0	900202496	58	5189
2026-01-19 11:23:37.73	356.33	21.51	-44.1	-46.6	23.9	6.06e-01	0	44	0	902299648	58	5204
2026-01-19 11:23:38.72	356.23	21.37	-44.1	-46.6	24.0	6.07e-01	0	43	0	903872512	58	5174
2026-01-19 11:23:39.71	356.14	21.22	-44.1	-46.6	24.0	6.04e-01	0	43	0	905969664	58	5216
2026-01-19 11:23:40.70	356.05	21.08	-44.0	-46.6	24.0	6.05e-01	0	43	0	907542528	58	5177
2026-01-19 11:23:41.69	355.96	20.93	-44.0	-46.5	24.0	6.06e-01	0	43	0	909639680	58	5159
2026-01-19 11:23:42.69	355.86	20.79	-44.0	-46.6	24.0	6.07e-01	0	43	0	911212544	58	5166
2026-01-19 11:23:43.68	355.77	20.65	-43.9	-46.4	24.0	6.05e-01	0	43	0	913309696	58	5100
2026-01-19 11:23:44.67	355.69	20.50	-43.9	-46.4	24.1	6.06e-01	0	43	0	915406848	58	5083
2026-01-19 11:23:45.66	355.60	20.36	-43.9	-46.4	24.1	6.07e-01	0	43	0	916979712	58	5091
2026-01-19 11:23:46.66	355.51	20.22	-43.9	-46.4	24.1	6.08e-01	0	43	0	919076864	58	5097
2026-01-19 11:23:47.65	355.42	20.08	-44.0	-46.5	24.1	6.06e-01	0	43	0	920649728	58	5102
2026-01-19 11:23:48.64	355.34	19.95	-44.0	-46.4	24.1	6.07e-01	0	43	0	922746880	58	5100
2026-01-19 11:23:49.64	355.25	19.81	-43.9	-46.4	24.1	6.07e-01	0	43	0	924319744	58	5074
2026-01-19 11:23:50.63	355.17	19.67	-43.9	-46.4	24.1	6.06e-01	0	43	0	926416896	58	5096
2026-01-19 11:23:51.62	355.08	19.53	-43.9	-46.5	24.0	6.06e-01	0	43	0	927989760	58	5132
2026-01-19 11:23:52.62	355.00	19.40	-43.9	-46.7	23.9	6.07e-01	0	43	0	930086912	58	5234
2026-01-19 11:23:53.61	354.92	19.26	-43.8	-46.6	24.0	6.07e-01	0	43	0	931659776	58	5177
2026-01-19 11:23:54.60	354.84	19.13	-43.7	-46.6	23.9	6.06e-01	0	43	0	933756928	58	5215
2026-01-19 11:23:55.59	354.76	19.00	-43.7	-46.5	23.9	6.07e-01	0	43	0	935854080	58	5157
2026-01-19 11:23:56.59	354.68	18.86	-43.7	-46.6	23.9	6.06e-01	0	43	0	937426944	58	5178
2026-01-19 11:23:57.58	354.60	18.73	-43.7	-46.5	24.0	6.06e-01	0	43	0	939524096	58	5134
2026-01-19 11:23:58.57	354.52	18.60	-43.7	-46.5	24.0	6.06e-01	0	43	0	941096960	58	5117
2026-01-19 11:23:59.57	354.45	18.47	-43.8	-46.5	23.9	6.05e-01	0	44	0	943194112	58	5156
2026-01-19 11:24:00.56	354.37	18.34	-43.9	-46.6	23.9	6.05e-01	0	43	0	944766976	58	5181
2026-01-19 11:24:01.55	354.29	18.21	-43.8	-46.5	24.0	6.03e-01	0	44	0	946864128	58	5114
2026-01-19 11:24:02.54	354.22	18.08	-43.7	-46.5	24.0	6.03e-01	0	43	0	948436992	58	5125
2026-01-19 11:24:03.54	354.14	17.95	-43.6	-46.4	24.1	6.02e-01	0	44	0	950534144	58	5053
2026-01-19 11:24:04.53	354.07	17.83	-43.5	-46.4	24.0	6.05e-01	0	43	0	952631296	58	5096
2026-01-19 11:24:05.52	354.00	17.70	-43.4	-46.3	24.1	6.02e-01	0	43	0	954204160	58	5003
2026-01-19 11:24:06.52	353.93	17.58	-43.4	-46.3	24.1	6.05e-01	0	43	0	956301312	58	5021
2026-01-19 11:24:07.51	353.85	17.45	-43.6	-46.5	23.9	6.03e-01	0	43	0	957874176	58	5109
2026-01-19 11:24:08.50	353.78	17.33	-43.5	-46.2	24.2	6.04e-01	0	43	0	959971328	58	4979
2026-01-19 11:24:09.50	353.71	17.20	-43.6	-46.2	24.2	6.03e-01	0	43	0	961544192	58	4969
2026-01-19 11:24:10.49	353.64	17.08	-43.6	-46.2	24.3	6.01e-01	0	43	0	963641344	58	4931
2026-01-19 11:24:11.48	353.57	16.96	-43.6	-46.1	24.3	6.01e-01	0	43	0	965214208	58	4898
2026-01-19 11:24:12.47	353.51	16.84	-43.7	-46.2	24.2	6.03e-01	0	43	0	967311360	58	4966
2026-01-19 11:24:13.47	353.44	16.71	-43.7	-46.2	24.3	6.02e-01	0	43	0	968884224	58	4935
2026-01-19 11:24:14.46	353.37	16.59	-43.8	-46.3	24.2	6.05e-01	0	43	0	970981376	58	4990
2026-01-19 11:24:15.45	353.30	16.47	-43.7	-46.2	24.2	6.03e-01	0	43	0	973078528	58	4975
2026-01-19 11:24:16.45	353.24	16.35	-43.7	-46.3	24.2	6.03e-01	0	43	0	974651392	58	4992
2026-01-19 11:24:17.44	353.17	16.24	-43.6	-46.2	24.2	6.03e-01	0	43	0	976748544	58	4983
2026-01-19 11:24:18.43	353.11	16.12	-43.5	-46.3	24.2	6.03e-01	0	43	0	978321408	58	4987
2026-01-19 11:24:19.42	353.04	16.00	-43.6	-46.3	24.1	6.04e-01	0	43	0	980418560	58	5012
2026-01-19 11:24:20.42	352.98	15.88	-43.7	-46.4	24.0	6.04e-01	0	43	0	981991424	58	5081
2026-01-19 11:24:21.41	352.92	15.77	-43.7	-46.4	24.1	6.00e-01	0	43	0	984088576	58	5066
2026-01-19 11:24:22.40	352.85	15.65	-43.8	-46.4	24.1	6.02e-01	0	43	0	985661440	58	5073
2026-01-19 11:24:23.40	352.79	15.54	-43.9	-46.5	24.0	6.05e-01	0	43	0	987758592	58	5136
2026-01-19 11:24:24.39	352.73	15.42	-43.9	-46.6	23.9	6.05e-01	0	43	0	989855744	58	5167
2026-01-19 11:24:25.38	352.67	15.31	-43.9	-46.5	24.0	6.04e-01	0	43	0	991428608	58	5149
2026-01-19 11:24:26.38	352.61	15.19	-43.9	-46.5	24.0	6.07e-01	0	43	0	993525760	58	5141
2026-01-19 11:24:27.37	352.55	15.08	-43.9	-46.6	23.9	6.01e-01	0	44	0	995098624	58	5191
2026-01-19 11:24:28.36	352.49	14.97	-43.8	-46.6	23.9	6.04e-01	0	43	0	997195776	58	5189
2026-01-19 11:24:29.35	352.43	14.86	-43.8	-46.6	23.9	6.06e-01	0	43	0	998768640	58	5197
2026-01-19 11:24:30.34	352.37	14.75	-43.8	-46.7	23.8	6.04e-01	0	43	0	1000865792	58	5219
2026-01-19 11:24:31.34	352.31	14.63	-43.8	-46.7	23.8	6.06e-01	0	43	0	1002438656	58	5220
2026-01-19 11:24:32.33	352.26	14.52	-43.8	-46.5	23.9	6.03e-01	0	43	0	1004535808	58	5157
2026-01-19 11:24:33.32	352.20	14.41	-43.9	-46.5	23.9	6.02e-01	0	43	0	1006632960	58	5128
2026-01-19 11:24:34.32	352.14	14.30	-44.0	-46.6	23.8	6.02e-01	0	43	0	1008205824	58	5195
2026-01-19 11:24:35.31	352.09	14.20	-44.0	-46.6	23.9	6.01e-01	0	43	0	1010302976	58	5174
2026-01-19 11:24:36.30	352.03	14.09	-43.9	-46.6	23.8	6.04e-01	0	44	0	1011875840	58	5170
2026-01-19 11:24:37.30	351.98	13.98	-43.8	-46.5	23.8	6.02e-01	0	43	0	1013972992	58	5126
2026-01-19 11:24:38.29	351.92	13.87	-43.8	-46.6	23.8	6.03e-01	0	43	0	1015545856	58	5175
2026-01-19 11:24:39.28	351.87	13.77	-43.7	-46.5	24.0	6.02e-01	0	43	0	1017643008	58	5103
2026-01-19 11:24:40.27	351.82	13.66	-43.8	-46.4	24.0	6.03e-01	0	43	0	1019215872	58	5096
2026-01-19 11:24:41.27	351.76	13.55	-43.8	-46.4	24.0	6.03e-01	0	43	0	1021313024	58	5094
2026-01-19 11:24:42.26	351.71	13.45	-43.8	-46.5	23.9	6.04e-01	0	43	0	1022885888	58	5127
2026-01-19 11:24:43.25	351.66	13.34	-43.8	-46.5	23.9	6.04e-01	0	43	0	1024983040	58	5138
2026-01-19 11:24:44.25	351.60	13.24	-43.5	-46.5	23.9	6.04e-01	0	43	0	1027080192	58	5146
2026-01-19 11:24:45.24	351.55	13.14	-43.3	-46.6	23.8	6.04e-01	0	43	0	1028653056	58	5180
2026-01-19 11:24:46.23	351.50	13.03	-43.2	-46.6	23.8	6.04e-01	0	44	0	1030750208	58	5197
2026-01-19 11:24:47.22	351.45	12.93	-43.0	-46.6	23.7	6.04e-01	0	43	0	1032323072	58	5212
2026-01-19 11:24:48.22	351.40	12.83	-43.0	-46.8	23.6	6.03e-01	0	43	0	1034420224	58	5292
2026-01-19 11:24:49.21	351.35	12.73	-43.0	-46.8	23.6	6.03e-01	0	43	0	1035993088	58	5292
2026-01-19 11:24:50.20	351.30	12.62	-42.9	-46.8	23.6	6.03e-01	0	43	0	1038090240	57	5633
2026-01-19 11:24:51.20	351.25	12.52	-43.1	-47.0	23.4	6.03e-01	0	44	0	1039663104	57	5765
2026-01-19 11:24:52.19	351.20	12.42	-43.0	-46.7	23.6	6.02e-01	0	43	0	1041760256	57	5581
2026-01-19 11:24:53.18	351.16	12.32	-43.2	-46.7	23.6	6.04e-01	0	43	0	1043857408	57	5565
2026-01-19 11:24:54.18	351.11	12.22	-43.3	-46.8	23.6	6.03e-01	0	43	0	1045430272	57	5609
2026-01-19 11:24:55.17	351.06	12.12	-43.3	-46.6	23.7	6.04e-01	0	44	0	1047527424	57	5524
2026-01-19 11:24:56.16	351.01	12.02	-43.3	-46.7	23.6	6.04e-01	0	44	0	1049100288	57	5554
2026-01-19 11:24:57.16	350.97	11.93	-43.3	-46.6	23.7	6.02e-01	0	44	0	1051197440	57	5513
2026-01-19 11:24:58.15	350.92	11.83	-43.4	-46.8	23.6	6.03e-01	0	43	0	1052770304	57	5594
2026-01-19 11:24:59.14	350.87	11.73	-43.3	-46.6	23.7	6.03e-01	0	43	0	1054867456	57	5511
2026-01-19 11:25:00.14	350.83	11.63	-43.2	-46.7	23.6	6.05e-01	0	43	0	1056440320	57	5536
2026-01-19 11:25:01.13	350.78	11.54	-43.2	-46.6	23.6	6.02e-01	0	44	0	1058537472	57	5510
2026-01-19 11:25:02.12	350.74	11.44	-43.2	-46.8	23.5	6.04e-01	0	43	0	1060110336	57	5620
2026-01-19 11:25:03.11	350.69	11.34	-43.2	-46.7	23.6	6.01e-01	0	43	0	1062207488	57	5576
2026-01-19 11:25:04.11	350.65	11.25	-43.3	-46.8	23.5	6.05e-01	0	43	0	1064304640	57	5647
2026-01-19 11:25:05.10	350.60	11.15	-43.2	-46.8	23.5	6.01e-01	0	44	0	1065877504	57	5631
2026-01-19 11:25:06.09	350.56	11.06	-42.9	-46.9	23.4	6.03e-01	0	43	0	1067974656	57	5684
2026-01-19 11:25:07.09	350.52	10.96	-42.9	-46.9	23.4	6.04e-01	0	43	0	1069547520	57	5700
2026-01-19 11:25:08.08	350.47	10.87	-42.5	-46.8	23.4	6.02e-01	0	43	0	1071644672	57	5654
2026-01-19 11:25:09.07	350.43	10.78	-42.1	-46.9	23.4	6.04e-01	0	43	0	1073217536	56	6013
2026-01-19 11:25:10.06	350.39	10.68	-42.0	-47.0	23.3	6.04e-01	0	44	0	1075314688	56	6065
2026-01-19 11:25:11.06	350.35	10.59	-42.0	-47.0	23.3	6.04e-01	0	43	0	1076887552	56	6078
2026-01-19 11:25:12.05	350.30	10.50	-42.1	-47.1	23.1	6.02e-01	0	44	0	1078984704	56	6145
2026-01-19 11:25:13.05	350.26	10.40	-42.1	-47.0	23.2	6.04e-01	0	43	0	1081081856	56	6121
2026-01-19 11:25:14.04	350.22	10.31	-42.3	-47.1	23.1	6.04e-01	0	43	0	1082654720	56	6182
2026-01-19 11:25:15.03	350.18	10.22	-42.6	-47.0	23.3	6.02e-01	0	43	0	1084751872	56	6078
2026-01-19 11:25:16.02	350.14	10.13	-42.9	-47.2	23.1	6.04e-01	0	43	0	1086324736	56	6245
2026-01-19 11:25:17.02	350.10	10.04	-42.9	-47.2	23.1	6.03e-01	0	44	0	1088421888	56	6224
2026-01-19 11:25:18.01	350.06	9.95	-43.0	-47.2	23.0	6.04e-01	0	44	0	1089994752	56	6251
2026-01-19 11:25:19.00	350.02	9.86	-43.3	-47.2	23.1	6.04e-01	0	43	0	1092091904	57	5876
2026-01-19 11:25:20.00	349.98	9.77	-43.6	-47.3	23.0	6.04e-01	0	43	0	1093664768	57	5953
2026-01-19 11:25:20.99	349.94	9.68	-43.6	-47.3	23.0	6.04e-01	0	43	0	1095761920	57	5942
2026-01-19 11:25:21.98	349.90	9.59	-43.6	-47.2	23.1	6.03e-01	0	44	0	1097859072	57	5912
2026-01-19 11:25:22.97	349.86	9.50	-43.6	-47.2	23.1	6.02e-01	0	44	0	1099431936	57	5901
2026-01-19 11:25:23.97	349.83	9.41	-43.7	-47.2	23.0	6.04e-01	0	44	0	1101529088	58	5581
2026-01-19 11:25:24.96	349.79	9.33	-43.7	-47.2	23.1	6.05e-01	0	43	0	1103101952	58	5556
2026-01-19 11:25:25.95	349.75	9.24	-43.8	-47.3	23.0	6.06e-01	0	43	0	1105199104	58	5629
2026-01-19 11:25:26.94	349.71	9.15	-43.8	-47.3	23.0	6.05e-01	0	43	0	1106771968	58	5630
2026-01-19 11:25:27.94	349.68	9.06	-43.8	-47.3	23.0	6.05e-01	0	43	0	1108869120	58	5639
2026-01-19 11:25:28.93	349.64	8.98	-46.3	-60.3	12.1	6.11e-01	0	43	0	1110441984	63	18887
2026-01-19 11:25:29.92	349.60	8.89	-48.1	-71.8	3.8	7.44e-01	0	43	104	1110966272	66	59854
2026-01-19 11:25:30.92	349.57	8.81	-50.3	-71.3	3.8	7.48e-01	0	43	104	1110966272	72	39900
2026-01-19 11:25:31.91	349.53	8.72	-50.4	-72.1	3.9	7.43e-01	0	43	104	1110966272	71	46248
2026-01-19 11:25:32.90	349.49	8.63	-51.2	-72.0	3.8	7.44e-01	0	43	104	1110966272	73	40623
2026-01-19 11:25:33.90	349.46	8.55	-51.4	-72.1	3.8	7.49e-01	0	43	104	1110966272	73	41118
2026-01-19 11:25:34.89	349.42	8.46	-51.3	-72.1	3.8	7.44e-01	0	43	104	1110966272	73	41252
2026-01-19 11:25:35.88	349.39	8.38	-51.7	-72.2	3.8	7.46e-01	0	43	104	1110966272	74	39159
2026-01-19 11:25:36.87	349.35	8.30	-50.9	-72.2	3.8	7.46e-01	0	44	104	1110966272	73	41635
2026-01-19 11:25:37.87	349.32	8.21	-51.0	-72.2	3.8	7.44e-01	0	44	104	1110966272	74	39330
2026-01-19 11:25:38.86	349.28	8.13	-52.0	-72.2	3.8	7.51e-01	0	43	104	1110966272	75	37152
2026-01-19 11:25:39.85	349.25	8.05	-51.8	-72.2	3.8	7.49e-01	0	43	104	1110966272	74	39375
2026-01-19 11:25:40.85	349.21	7.96	-51.2	-72.2	3.8	7.47e-01	0	44	104	1110966272	74	39486
2026-01-19 11:25:41.84	349.18	7.88	-52.2	-72.2	3.8	7.44e-01	0	43	104	1110966272	75	37373
2026-01-19 11:25:42.83	349.15	7.80	-52.3	-72.2	3.8	7.47e-01	0	44	104	1110966272	75	37357
2026-01-19 11:25:43.83	349.11	7.72	-52.2	-72.3	3.8	7.49e-01	0	43	104	1110966272	75	37415
2026-01-19 11:25:44.82	349.08	7.63	-51.8	-72.3	3.8	7.46e-01	0	44	104	1110966272	75	37430
2026-01-19 11:25:45.81	349.05	7.55	-51.7	-72.3	3.8	7.48e-01	0	43	104	1110966272	74	39718
2026-01-19 11:25:46.81	349.02	7.47	-52.1	-72.3	3.8	7.42e-01	0	44	104	1110966272	75	37450
2026-01-19 11:25:47.80	348.98	7.39	-51.9	-72.3	3.8	7.45e-01	0	43	104	1110966272	75	37487
2026-01-19 11:25:48.79	348.95	7.31	-52.4	-72.3	3.8	7.45e-01	0	43	104	1110966272	75	37413
2026-01-19 11:25:49.78	348.92	7.23	-52.4	-72.3	3.8	7.47e-01	0	43	104	1110966272	75	37419
2026-01-19 11:25:50.78	348.89	7.15	-52.4	-72.3	3.8	7.47e-01	0	44	104	1110966272	75	37478
2026-01-19 11:25:51.77	348.86	7.07	-52.4	-72.3	3.8	7.47e-01	0	43	104	1110966272	75	37422
2026-01-19 11:25:52.76	348.83	6.99	-52.0	-72.3	3.8	7.44e-01	0	44	104	1110966272	75	37395
2026-01-19 11:25:53.75	348.79	6.91	-52.2	-72.2	3.8	7.44e-01	0	44	104	1110966272	75	37346
2026-01-19 11:25:54.75	348.76	6.83	-52.1	-72.2	3.8	7.45e-01	0	43	104	1110966272	75	37289
2026-01-19 11:25:55.74	348.73	6.75	-51.6	-72.3	3.8	7.46e-01	0	44	104	1110966272	75	37379
2026-01-19 11:25:56.73	348.70	6.67	-51.8	-72.2	3.8	7.49e-01	0	44	104	1110966272	75	37262
2026-01-19 11:25:57.72	348.67	6.60	-51.4	-72.2	3.8	7.45e-01	0	44	104	1110966272	74	39311
2026-01-19 11:25:58.72	348.64	6.52	-51.4	-72.2	3.8	7.47e-01	0	43	104	1110966272	74	39363
2026-01-19 11:25:59.71	348.61	6.44	-51.4	-72.2	3.8	7.47e-01	0	43	104	1110966272	74	39303
2026-01-19 11:26:00.70	348.58	6.36	-51.4	-72.2	3.8	7.46e-01	0	43	104	1110966272	74	39379
2026-01-19 11:26:01.70	348.55	6.29	-51.4	-72.2	3.8	7.46e-01	0	44	104	1110966272	74	39368
2026-01-19 11:26:02.69	348.52	6.21	-51.4	-72.2	3.8	7.50e-01	0	44	104	1110966272	74	39263
2026-01-19 11:26:03.68	348.49	6.13	-51.4	-72.2	3.8	7.46e-01	0	43	104	1110966272	74	39389
2026-01-19 11:26:04.68	348.47	6.05	-51.4	-72.2	3.8	7.44e-01	0	44	104	1110966272	74	39181
2026-01-19 11:26:05.67	348.44	5.98	-51.4	-72.2	3.8	7.43e-01	0	44	104	1110966272	74	39248
2026-01-19 11:26:06.66	348.41	5.90	-51.4	-72.2	3.8	7.47e-01	0	44	104	1110966272	74	39189
2026-01-19 11:26:07.66	348.38	5.83	-51.4	-72.2	3.8	7.47e-01	0	44	104	1110966272	74	39151
2026-01-19 11:26:08.65	348.35	5.75	-51.4	-72.2	3.8	7.47e-01	0	44	104	1110966272	74	39232
2026-01-19 11:26:09.64	348.32	5.68	-51.4	-72.2	3.8	7.48e-01	0	44	104	1110966272	74	39288
2026-01-19 11:26:10.63	348.30	5.60	-51.3	-72.2	3.8	7.44e-01	0	44	104	1110966272	74	39231
2026-01-19 11:26:11.63	348.27	5.53	-51.3	-72.2	3.8	7.45e-01	0	44	104	1110966272	74	39260
2026-01-19 11:26:12.62	348.24	5.45	-51.4	-72.2	3.8	7.45e-01	0	43	104	1110966272	74	39175
2026-01-19 11:26:13.61	348.21	5.38	-51.4	-72.1	3.8	7.45e-01	0	43	104	1110966272	74	39130
2026-01-19 11:26:14.61	348.19	5.30	-51.4	-72.2	3.8	7.43e-01	0	43	104	1110966272	74	39263
2026-01-19 11:26:15.60	348.16	5.23	-51.4	-72.1	3.8	7.45e-01	0	44	104	1110966272	74	39131
2026-01-19 11:26:16.59	348.13	5.16	-51.3	-72.2	3.8	7.46e-01	0	44	104	1110966272	74	39137
2026-01-19 11:26:17.59	348.11	5.08	-51.4	-72.2	3.8	7.42e-01	0	44	104	1110966272	74	39217
2026-01-19 11:26:18.58	348.08	5.01	-51.4	-72.1	3.8	7.43e-01	0	43	104	1110966272	74	39128
2026-01-19 11:26:19.57	348.05	4.94	-51.4	-72.1	3.8	7.46e-01	0	43	104	1110966272	74	39063

#Closed at: 2026-01-19 11:26:20
#Recorded file [1110 MB]: D:/Data/31040_260119_141506.dat