passes_logs/2026/01/28/R3.2S_Murmansk_2ch/R3.2S_Murmansk_2ch__20260128_211751_JL1KF02B03_rec.log

#Pass ID: 20260128_211751_JL1KF02B03
#Satellite: JL1KF02B03
#Configuration: 01B_900M
#almurnet v.1.7.20251203
#Start time: 2026-01-28 21:17:50

#Version: 2.2.20231116
#Station: R3.2S_Murmansk_2ch
#Location: 33.079688 lon 68.888172 lat
#TLE: 1 61190U 24169B   26027.81783714  .00006906  00000+0  43277-3 0  9991
#TLE: 2 61190  97.5613 118.7682 0015007 139.5313 220.7035 15.09576175 74658

#Time	Az	El	Level	Level2	SNR	BER	BlckErr	Temp	State	Recorded	gain1	gain2
2026-01-28 21:17:50.78	197.69	1.98	-47.6	-50.1	6.2	0.00e+00	0	43	0	0	66	19681
2026-01-28 21:17:51.79	197.77	2.04	-47.5	-50.1	6.2	0.00e+00	0	43	104	0	66	19535
2026-01-28 21:17:52.79	197.84	2.11	-47.5	-50.1	6.2	0.00e+00	0	43	104	0	66	19529
2026-01-28 21:17:53.80	197.91	2.17	-47.5	-50.1	6.2	0.00e+00	0	43	104	0	66	19509
2026-01-28 21:17:54.81	197.98	2.24	-47.5	-50.0	6.2	0.00e+00	0	43	104	0	66	19454
2026-01-28 21:17:55.82	198.05	2.30	-47.5	-50.1	6.2	0.00e+00	0	43	104	0	66	19486
2026-01-28 21:17:56.83	198.13	2.37	-47.5	-50.1	6.2	0.00e+00	0	43	104	0	66	19495
2026-01-28 21:17:57.84	198.20	2.43	-47.5	-50.0	6.2	0.00e+00	0	43	104	0	66	19446
2026-01-28 21:17:58.85	198.27	2.50	-47.5	-50.1	6.2	0.00e+00	0	43	104	0	66	19507
2026-01-28 21:17:59.85	198.35	2.56	-47.7	-50.2	6.2	0.00e+00	0	44	104	0	66	19750
2026-01-28 21:18:00.86	198.42	2.63	-47.9	-50.4	6.2	0.00e+00	0	44	104	0	66	20318
2026-01-28 21:18:01.87	198.50	2.69	-47.9	-50.4	6.2	0.00e+00	0	44	104	0	66	20393
2026-01-28 21:18:02.88	198.57	2.76	-47.9	-50.5	6.2	0.00e+00	0	44	104	0	66	20448
2026-01-28 21:18:03.89	198.65	2.83	-48.0	-50.5	6.2	0.00e+00	0	44	104	0	66	20541
2026-01-28 21:18:04.90	198.72	2.89	-48.0	-50.5	6.2	0.00e+00	0	44	104	0	66	20471
2026-01-28 21:18:05.91	198.80	2.96	-47.9	-50.5	6.2	0.00e+00	0	44	104	0	66	20421
2026-01-28 21:18:06.92	198.88	3.03	-47.9	-50.4	6.2	0.00e+00	0	44	104	0	66	20389
2026-01-28 21:18:07.92	198.95	3.09	-47.9	-50.4	6.2	0.00e+00	0	44	104	0	66	20396
2026-01-28 21:18:08.93	199.03	3.16	-47.9	-50.4	6.2	0.00e+00	0	44	104	0	66	20305
2026-01-28 21:18:09.94	199.11	3.23	-47.9	-50.4	6.2	0.00e+00	0	44	104	0	66	20287
2026-01-28 21:18:10.95	199.19	3.29	-47.8	-50.3	6.2	0.00e+00	0	44	104	0	66	20161
2026-01-28 21:18:11.96	199.27	3.36	-47.8	-50.3	6.2	0.00e+00	0	44	104	0	66	20061
2026-01-28 21:18:12.97	199.35	3.43	-47.7	-50.3	6.2	0.00e+00	0	44	104	0	66	19963
2026-01-28 21:18:13.98	199.43	3.50	-47.7	-50.2	6.2	0.00e+00	0	44	104	0	66	19781
2026-01-28 21:18:14.99	199.51	3.56	-47.6	-50.1	6.2	0.00e+00	0	44	104	0	66	19642
2026-01-28 21:18:16.00	199.59	3.63	-47.5	-50.0	6.2	0.00e+00	0	44	104	0	66	19434
2026-01-28 21:18:17.01	199.67	3.70	-47.4	-50.0	6.2	0.00e+00	0	44	104	0	66	19266
2026-01-28 21:18:18.01	199.75	3.77	-47.3	-49.8	6.2	0.00e+00	0	44	104	0	66	19011
2026-01-28 21:18:19.02	199.83	3.84	-47.2	-49.7	6.2	0.00e+00	0	44	104	0	66	18749
2026-01-28 21:18:20.03	199.91	3.91	-47.0	-49.5	6.2	0.00e+00	0	44	104	0	66	18384
2026-01-28 21:18:21.04	200.00	3.97	-46.7	-49.3	6.2	0.00e+00	0	44	104	0	65	18887
2026-01-28 21:18:22.05	200.08	4.04	-46.3	-48.8	6.2	0.00e+00	0	44	104	0	64	18993
2026-01-28 21:18:23.06	200.16	4.11	-46.1	-48.6	6.2	0.00e+00	0	44	104	0	64	18517
2026-01-28 21:18:24.07	200.25	4.18	-46.0	-48.6	6.2	0.00e+00	0	44	104	0	64	18479
2026-01-28 21:18:25.08	200.33	4.25	-46.0	-48.6	6.2	0.00e+00	0	44	104	0	64	18475
2026-01-28 21:18:26.09	200.42	4.32	-46.0	-48.5	6.2	0.00e+00	0	44	104	0	64	18377
2026-01-28 21:18:27.10	200.51	4.39	-46.0	-48.6	6.2	0.00e+00	0	44	104	0	64	18453
2026-01-28 21:18:28.11	200.59	4.46	-46.0	-48.6	6.2	0.00e+00	0	44	104	0	64	18433
2026-01-28 21:18:29.11	200.68	4.53	-46.0	-48.5	6.2	0.00e+00	0	44	104	0	64	18373
2026-01-28 21:18:30.12	200.76	4.60	-46.0	-48.6	6.2	0.00e+00	0	44	104	0	64	18397
2026-01-28 21:18:31.13	200.85	4.67	-46.0	-48.6	6.2	0.00e+00	0	45	104	0	64	18394
2026-01-28 21:18:32.13	200.94	4.75	-46.0	-48.5	6.2	0.00e+00	0	45	104	0	64	18331
2026-01-28 21:18:33.14	201.03	4.82	-46.0	-48.6	6.2	0.00e+00	0	45	104	0	63	19559
2026-01-28 21:18:34.15	201.12	4.89	-46.0	-48.6	6.2	0.00e+00	0	44	104	0	63	19552
2026-01-28 21:18:35.16	201.21	4.96	-46.0	-48.6	6.2	0.00e+00	0	45	104	0	63	19550
2026-01-28 21:18:36.17	201.30	5.03	-46.1	-48.6	6.2	0.00e+00	0	45	104	0	63	19656
2026-01-28 21:18:37.18	201.39	5.10	-46.1	-48.7	6.2	0.00e+00	0	45	104	0	63	19839
2026-01-28 21:18:38.19	201.48	5.18	-46.0	-48.6	6.2	0.00e+00	0	45	104	0	63	19583
2026-01-28 21:18:39.20	201.57	5.25	-46.0	-48.5	6.2	0.00e+00	0	45	104	0	63	19419
2026-01-28 21:18:40.21	201.67	5.32	-46.2	-48.8	6.2	0.00e+00	0	45	104	0	63	19960
2026-01-28 21:18:41.22	201.76	5.39	-46.1	-48.7	6.2	0.00e+00	0	45	104	0	63	19844
2026-01-28 21:18:42.23	201.85	5.47	-46.0	-48.6	6.2	0.00e+00	0	45	104	0	63	19587
2026-01-28 21:18:43.24	201.95	5.54	-46.0	-48.5	6.2	0.00e+00	0	45	104	0	63	19445
2026-01-28 21:18:44.25	202.04	5.61	-46.2	-48.7	6.2	0.00e+00	0	45	104	0	63	19875
2026-01-28 21:18:45.26	202.14	5.69	-46.2	-48.7	6.2	0.00e+00	0	45	104	0	63	19838
2026-01-28 21:18:46.26	202.23	5.76	-46.0	-48.6	6.2	0.00e+00	0	45	104	0	63	19582
2026-01-28 21:18:47.27	202.33	5.84	-46.0	-48.6	6.2	0.00e+00	0	45	104	0	63	19559
2026-01-28 21:18:48.28	202.42	5.91	-46.2	-48.7	6.2	0.00e+00	0	45	104	0	63	19885
2026-01-28 21:18:49.29	202.52	5.99	-46.2	-48.7	6.2	0.00e+00	0	45	104	0	63	19860
2026-01-28 21:18:50.30	202.62	6.06	-46.1	-48.6	6.2	0.00e+00	0	45	104	0	63	19614
2026-01-28 21:18:51.31	202.72	6.14	-46.0	-48.6	6.2	0.00e+00	0	45	104	0	63	19543
2026-01-28 21:18:52.31	202.82	6.21	-46.2	-48.8	6.2	0.00e+00	0	45	104	0	63	20039
2026-01-28 21:18:53.32	202.92	6.29	-46.2	-48.7	6.2	0.00e+00	0	45	104	0	63	19850
2026-01-28 21:18:54.33	203.02	6.36	-46.1	-48.6	6.2	0.00e+00	0	45	104	0	63	19655
2026-01-28 21:18:55.34	203.12	6.44	-46.1	-48.6	6.2	0.00e+00	0	45	104	0	63	19541
2026-01-28 21:18:56.35	203.22	6.51	-46.2	-48.8	6.2	0.00e+00	0	45	104	0	63	19977
2026-01-28 21:18:57.36	203.32	6.59	-46.2	-48.7	6.2	0.00e+00	0	45	104	0	63	19909
2026-01-28 21:18:58.36	203.43	6.67	-46.1	-48.7	6.2	0.00e+00	0	45	104	0	63	19719
2026-01-28 21:18:59.38	203.53	6.74	-46.1	-48.6	6.2	0.00e+00	0	45	104	0	63	19669
2026-01-28 21:19:00.38	203.63	6.82	-46.2	-48.8	6.2	0.00e+00	0	45	104	0	63	20019
2026-01-28 21:19:01.39	203.74	6.90	-46.2	-48.8	6.2	0.00e+00	0	45	104	0	63	19937
2026-01-28 21:19:02.40	203.84	6.97	-46.1	-48.7	6.2	0.00e+00	0	45	104	0	63	19773
2026-01-28 21:19:03.41	203.95	7.05	-46.1	-48.7	6.2	0.00e+00	0	45	104	0	63	19787
2026-01-28 21:19:04.42	204.06	7.13	-46.3	-48.8	6.2	0.00e+00	0	45	104	0	63	20025
2026-01-28 21:19:05.43	204.16	7.21	-46.2	-48.8	6.2	0.00e+00	0	45	104	0	63	19998
2026-01-28 21:19:06.44	204.27	7.29	-46.1	-48.7	6.2	0.00e+00	0	45	104	0	63	19811
2026-01-28 21:19:07.45	204.38	7.37	-46.1	-48.7	6.2	0.00e+00	0	45	104	0	63	19818
2026-01-28 21:19:08.46	204.49	7.45	-46.3	-48.8	6.2	0.00e+00	0	45	104	0	63	20095
2026-01-28 21:19:09.47	204.60	7.52	-46.3	-48.8	6.2	0.00e+00	0	45	104	0	63	20033
2026-01-28 21:19:10.48	204.71	7.60	-46.2	-48.7	6.2	0.00e+00	0	45	104	0	63	19882
2026-01-28 21:19:11.49	204.82	7.68	-46.2	-48.7	6.2	0.00e+00	0	45	104	0	63	19815
2026-01-28 21:19:12.50	204.94	7.76	-46.3	-48.9	6.2	0.00e+00	0	45	104	0	63	20193
2026-01-28 21:19:13.51	205.05	7.84	-46.3	-48.8	6.2	0.00e+00	0	45	104	0	63	20048
2026-01-28 21:19:14.52	205.16	7.92	-46.2	-48.7	6.2	0.00e+00	0	45	104	0	63	19871
2026-01-28 21:19:15.53	205.28	8.01	-46.2	-48.8	6.2	0.00e+00	0	45	104	0	63	19939
2026-01-28 21:19:16.54	205.39	8.09	-46.3	-48.9	6.2	0.00e+00	0	45	104	0	63	20235
2026-01-28 21:19:17.55	205.51	8.17	-46.3	-48.9	6.2	0.00e+00	0	45	104	0	63	20183
2026-01-28 21:19:18.55	205.63	8.25	-46.2	-48.8	6.2	0.00e+00	0	45	104	0	63	20058
2026-01-28 21:19:19.56	205.74	8.33	-46.3	-48.8	6.2	0.00e+00	0	45	104	0	63	20114
2026-01-28 21:19:20.56	205.86	8.41	-46.4	-48.9	6.2	0.00e+00	0	45	104	0	63	20279
2026-01-28 21:19:21.57	205.98	8.49	-46.3	-48.9	6.2	0.00e+00	0	45	104	0	63	20199
2026-01-28 21:19:22.58	206.10	8.58	-46.3	-48.8	6.2	0.00e+00	0	45	104	0	63	20131
2026-01-28 21:19:23.59	206.22	8.66	-46.3	-48.9	6.2	0.00e+00	0	45	104	0	63	20166
2026-01-28 21:19:24.60	206.34	8.74	-46.4	-48.9	6.2	0.00e+00	0	45	104	0	63	20352
2026-01-28 21:19:25.60	206.47	8.82	-46.3	-48.9	6.2	0.00e+00	0	45	104	0	63	20281
2026-01-28 21:19:26.61	206.59	8.91	-46.3	-48.9	6.2	0.00e+00	0	45	104	0	63	20191
2026-01-28 21:19:27.62	206.71	8.99	-46.3	-48.9	6.2	0.00e+00	0	46	104	0	63	20233
2026-01-28 21:19:28.63	206.84	9.07	-46.4	-48.9	6.2	0.00e+00	0	46	104	0	63	20316
2026-01-28 21:19:29.64	206.96	9.16	-46.4	-48.9	6.2	0.00e+00	0	45	104	0	63	20308
2026-01-28 21:19:30.65	207.09	9.24	-45.8	-48.5	6.2	0.00e+00	0	45	104	0	63	19418
2026-01-28 21:19:31.66	207.22	9.33	-38.4	-41.9	6.2	0.00e+00	0	45	104	0	49	20217
2026-01-28 21:19:32.67	207.35	9.41	-27.2	-27.3	15.2	8.58e-05	0	46	0	41943040	25	15016
2026-01-28 21:19:33.68	207.48	9.50	-26.8	-26.9	15.4	8.39e-05	0	46	0	159383552	25	14288
2026-01-28 21:19:34.69	207.61	9.58	-26.1	-26.1	15.7	4.19e-05	0	45	0	268435456	24	13916
2026-01-28 21:19:35.70	207.74	9.67	-25.4	-25.5	16.0	4.00e-05	0	45	0	385875968	22	14443
2026-01-28 21:19:36.71	207.87	9.76	-25.2	-25.2	16.1	2.47e-05	0	46	0	494927872	22	14079
2026-01-28 21:19:37.72	208.00	9.84	-24.9	-25.0	16.2	1.52e-05	0	46	0	603979776	21	14538
2026-01-28 21:19:38.73	208.13	9.93	-25.0	-25.1	16.2	1.71e-05	0	46	0	729808896	21	14615
2026-01-28 21:19:39.73	208.27	10.02	-25.0	-25.1	16.2	2.28e-05	0	46	0	838860800	21	14611
2026-01-28 21:19:40.74	208.40	10.10	-24.9	-25.0	16.2	1.90e-05	0	46	0	947912704	21	14524
2026-01-28 21:19:41.75	208.54	10.19	-24.9	-25.0	16.2	1.52e-05	0	46	0	1065353216	21	14474
2026-01-28 21:19:42.76	208.68	10.28	-24.9	-24.9	16.3	1.71e-05	0	46	0	1174405120	21	14408
2026-01-28 21:19:43.77	208.82	10.37	-24.9	-24.9	16.3	1.90e-05	0	46	0	1291845632	21	14386
2026-01-28 21:19:44.78	208.96	10.46	-24.8	-24.8	16.3	1.71e-05	0	46	0	1409286144	21	14264
2026-01-28 21:19:45.79	209.10	10.54	-24.8	-24.8	16.3	7.60e-06	0	46	0	1518338048	21	14210
2026-01-28 21:19:46.80	209.24	10.63	-24.9	-24.9	16.2	2.09e-05	0	46	0	1635778560	21	14419
2026-01-28 21:19:47.81	209.38	10.72	-24.7	-24.8	16.3	1.52e-05	0	46	0	1744830464	21	14188
2026-01-28 21:19:48.82	209.52	10.81	-24.8	-24.9	16.3	1.52e-05	0	46	0	1862270976	21	14300
2026-01-28 21:19:49.83	209.67	10.90	-24.7	-24.8	16.3	9.50e-06	0	46	0	1971322880	21	14150
2026-01-28 21:19:50.84	209.81	10.99	-24.7	-24.7	16.3	9.50e-06	0	46	0	2088763392	21	14046
2026-01-28 21:19:51.84	209.96	11.08	-24.7	-24.7	16.3	1.14e-05	0	46	0	2197815296	21	14093
2026-01-28 21:19:52.85	210.11	11.17	-24.7	-24.7	16.3	1.33e-05	0	46	0	2315255808	21	14053
2026-01-28 21:19:53.86	210.25	11.26	-24.8	-24.8	16.2	9.50e-06	0	46	0	2424307712	21	14274
2026-01-28 21:19:54.87	210.40	11.35	-24.7	-24.7	16.3	1.71e-05	0	46	0	2541748224	21	14092
2026-01-28 21:19:55.88	210.55	11.44	-24.5	-24.5	16.4	3.80e-06	0	46	0	2659188736	21	13763
2026-01-28 21:19:56.89	210.71	11.54	-24.6	-24.6	16.4	1.14e-05	0	46	0	2768240640	21	13909
2026-01-28 21:19:57.90	210.86	11.63	-24.5	-24.5	16.4	1.33e-05	0	46	0	2877292544	21	13748
2026-01-28 21:19:58.91	211.01	11.72	-24.4	-24.5	16.3	1.33e-05	0	46	0	2994733056	20	14520
2026-01-28 21:19:59.92	211.17	11.81	-24.6	-24.7	16.3	1.90e-05	0	46	0	3103784960	20	14816
2026-01-28 21:20:00.93	211.32	11.91	-24.3	-24.4	16.4	1.14e-05	0	46	0	3221225472	20	14320
2026-01-28 21:20:01.94	211.48	12.00	-24.4	-24.4	16.4	1.33e-05	0	46	0	3338665984	20	14364
2026-01-28 21:20:02.94	211.64	12.09	-24.4	-24.5	16.4	1.33e-05	0	46	0	3447717888	20	14449
2026-01-28 21:20:03.95	211.80	12.19	-24.3	-24.4	16.4	1.14e-05	0	46	0	3565158400	20	14334
2026-01-28 21:20:04.96	211.96	12.28	-24.4	-24.5	16.3	9.50e-06	0	46	0	3674210304	20	14530
2026-01-28 21:20:05.97	212.12	12.37	-24.4	-24.4	16.3	9.50e-06	0	46	0	3783262208	20	14389
2026-01-28 21:20:06.98	212.28	12.47	-24.2	-24.2	16.4	5.70e-06	0	46	0	3900702720	20	14044
2026-01-28 21:20:07.99	212.45	12.56	-24.2	-24.3	16.5	5.70e-06	0	46	0	4018143232	20	14117
2026-01-28 21:20:09.00	212.61	12.66	-24.1	-24.2	16.5	0.00e+00	0	46	0	4127195136	20	13951
2026-01-28 21:20:10.01	212.78	12.75	-24.1	-24.2	16.5	1.14e-05	0	46	0	4244635648	20	13994
2026-01-28 21:20:11.02	212.95	12.85	-24.2	-24.3	16.4	3.80e-06	0	46	0	4353687552	20	14153
2026-01-28 21:20:12.02	213.12	12.94	-24.1	-24.2	16.5	9.50e-06	0	46	0	4471128064	20	13987
2026-01-28 21:20:13.03	213.29	13.04	-24.0	-24.1	16.5	5.70e-06	0	46	0	4588568576	20	13822
2026-01-28 21:20:14.04	213.46	13.14	-24.0	-24.0	16.5	9.50e-06	0	46	0	4697620480	20	13773
2026-01-28 21:20:15.05	213.63	13.23	-24.1	-24.2	16.4	9.50e-06	0	46	0	4806672384	19	14819
2026-01-28 21:20:16.06	213.81	13.33	-24.0	-24.1	16.5	9.50e-06	0	46	0	4924112896	19	14693
2026-01-28 21:20:17.07	213.98	13.43	-24.0	-24.1	16.5	3.80e-06	0	46	0	5041553408	19	14669
2026-01-28 21:20:18.08	214.16	13.53	-24.0	-24.1	16.5	7.60e-06	0	46	0	5150605312	19	14610
2026-01-28 21:20:19.09	214.34	13.62	-24.1	-24.2	16.4	9.50e-06	0	46	0	5268045824	19	14782
2026-01-28 21:20:20.10	214.52	13.72	-24.1	-24.1	16.5	1.90e-06	0	46	0	5377097728	19	14761
2026-01-28 21:20:21.11	214.70	13.82	-24.0	-24.1	16.5	5.70e-06	0	46	0	5494538240	19	14677
2026-01-28 21:20:22.12	214.88	13.92	-23.9	-23.9	16.5	3.80e-06	0	46	0	5603590144	19	14435
2026-01-28 21:20:23.12	215.06	14.02	-23.9	-24.0	16.5	3.80e-06	0	46	0	5721030656	19	14513
2026-01-28 21:20:24.14	215.25	14.12	-23.9	-24.0	16.4	5.70e-06	0	47	0	5830082560	19	14511
2026-01-28 21:20:25.14	215.44	14.22	-23.8	-23.9	16.5	3.80e-06	0	46	0	5947523072	19	14324
2026-01-28 21:20:26.16	215.63	14.32	-23.8	-23.9	16.5	5.70e-06	0	46	0	6056574976	19	14353
2026-01-28 21:20:27.17	215.82	14.42	-23.7	-23.8	16.6	3.80e-06	0	46	0	6174015488	19	14165
2026-01-28 21:20:28.18	216.01	14.52	-23.7	-23.8	16.6	3.80e-06	0	46	0	6291456000	19	14132
2026-01-28 21:20:29.19	216.20	14.62	-23.9	-23.9	16.4	5.70e-06	0	46	0	6400507904	19	14394
2026-01-28 21:20:30.20	216.39	14.72	-23.7	-23.8	16.5	7.60e-06	0	46	0	6517948416	19	14132
2026-01-28 21:20:31.21	216.59	14.82	-23.7	-23.8	16.5	3.80e-06	0	46	0	6627000320	19	14131
2026-01-28 21:20:32.21	216.78	14.92	-23.8	-23.8	16.5	3.80e-06	0	46	0	6736052224	19	14252
2026-01-28 21:20:33.22	216.98	15.02	-23.6	-23.7	16.5	9.50e-06	0	46	0	6853492736	19	13985
2026-01-28 21:20:34.23	217.18	15.12	-23.7	-23.7	16.6	1.90e-06	0	46	0	6970933248	19	14098
2026-01-28 21:20:35.24	217.38	15.22	-23.6	-23.6	16.5	1.14e-05	0	47	0	7079985152	19	13886
2026-01-28 21:20:36.25	217.59	15.33	-23.5	-23.6	16.6	7.60e-06	0	46	0	7197425664	19	13823
2026-01-28 21:20:37.26	217.79	15.43	-23.6	-23.7	16.5	5.70e-06	0	46	0	7306477568	19	13979
2026-01-28 21:20:38.27	218.00	15.53	-23.6	-23.6	16.5	0.00e+00	0	47	0	7423918080	19	13922
2026-01-28 21:20:39.28	218.21	15.64	-23.6	-23.6	16.6	3.80e-06	0	46	0	7532969984	19	13895
2026-01-28 21:20:40.29	218.42	15.74	-23.5	-23.6	16.5	3.80e-06	0	47	0	7650410496	19	13818
2026-01-28 21:20:41.30	218.63	15.84	-23.3	-23.4	16.6	0.00e+00	0	46	0	7759462400	18	14318
2026-01-28 21:20:42.31	218.84	15.95	-23.4	-23.4	16.5	9.50e-06	0	47	0	7876902912	18	14363
2026-01-28 21:20:43.32	219.06	16.05	-23.5	-23.6	16.4	5.70e-06	0	46	0	7985954816	18	14653
2026-01-28 21:20:44.33	219.27	16.15	-23.2	-23.3	16.6	3.80e-06	0	46	0	8103395328	18	14151
2026-01-28 21:20:45.34	219.49	16.26	-23.3	-23.4	16.6	7.60e-06	0	47	0	8220835840	18	14323
2026-01-28 21:20:46.35	219.71	16.36	-23.3	-23.4	16.5	1.90e-06	0	46	0	8329887744	18	14322
2026-01-28 21:20:47.36	219.93	16.47	-23.2	-23.2	16.6	1.90e-06	0	47	0	8447328256	18	14030
2026-01-28 21:20:48.37	220.15	16.57	-23.1	-23.2	16.6	1.90e-06	0	46	0	8556380160	18	14027
2026-01-28 21:20:49.38	220.38	16.68	-23.1	-23.2	16.6	3.80e-06	0	47	0	8673820672	18	13966
2026-01-28 21:20:50.39	220.61	16.78	-23.2	-23.2	16.6	0.00e+00	0	47	0	8782872576	18	14062
2026-01-28 21:20:51.40	220.83	16.89	-23.1	-23.1	16.6	1.90e-06	0	46	0	8900313088	18	13882
2026-01-28 21:20:52.41	221.06	16.99	-23.0	-23.1	16.6	1.90e-06	0	46	0	9009364992	18	13861
2026-01-28 21:20:53.42	221.30	17.10	-23.1	-23.2	16.5	0.00e+00	0	47	0	9126805504	18	14013
2026-01-28 21:20:54.43	221.53	17.21	-23.0	-23.1	16.6	3.80e-06	0	46	0	9244246016	18	13855
2026-01-28 21:20:55.44	221.77	17.31	-22.9	-22.9	16.6	3.80e-06	0	47	0	9353297920	17	14432
2026-01-28 21:20:56.45	222.00	17.42	-22.9	-22.9	16.6	5.70e-06	0	46	0	9470738432	17	14387
2026-01-28 21:20:57.46	222.24	17.52	-22.9	-23.0	16.6	1.90e-06	0	46	0	9579790336	17	14508
2026-01-28 21:20:58.46	222.48	17.63	-23.0	-23.1	16.5	1.90e-06	0	46	0	9688842240	17	14655
2026-01-28 21:20:59.47	222.73	17.74	-22.9	-22.9	16.5	1.33e-05	0	46	0	9814671360	17	14377
2026-01-28 21:21:00.48	222.97	17.84	-22.7	-22.8	16.6	3.80e-06	0	47	0	9923723264	17	14174
2026-01-28 21:21:01.49	223.22	17.95	-22.7	-22.7	16.5	0.00e+00	0	47	0	10032775168	17	14077
2026-01-28 21:21:02.50	223.47	18.06	-22.7	-22.8	16.5	0.00e+00	0	47	0	10150215680	17	14130
2026-01-28 21:21:03.51	223.72	18.17	-22.7	-22.8	16.6	1.90e-06	0	46	0	10259267584	17	14153
2026-01-28 21:21:04.52	223.97	18.27	-22.7	-22.8	16.6	1.90e-06	0	47	0	10376708096	17	14161
2026-01-28 21:21:05.53	224.23	18.38	-22.5	-22.6	16.7	3.80e-06	0	47	0	10494148608	17	13857
2026-01-28 21:21:06.54	224.48	18.49	-22.6	-22.6	16.6	1.90e-06	0	46	0	10603200512	17	13883
2026-01-28 21:21:07.55	224.74	18.59	-22.5	-22.6	16.7	0.00e+00	0	47	0	10712252416	17	13855
2026-01-28 21:21:08.56	225.00	18.70	-22.7	-22.7	16.5	1.90e-06	0	47	0	10829692928	17	14094
2026-01-28 21:21:09.57	225.27	18.81	-22.5	-22.6	16.6	3.80e-06	0	47	0	10938744832	17	13822
2026-01-28 21:21:10.57	225.53	18.92	-22.4	-22.5	16.7	0.00e+00	0	46	0	11056185344	16	14476
2026-01-28 21:21:11.58	225.80	19.02	-22.5	-22.5	16.7	3.80e-06	0	47	0	11173625856	16	14606
2026-01-28 21:21:12.59	226.07	19.13	-22.4	-22.5	16.7	0.00e+00	0	47	0	11282677760	16	14499
2026-01-28 21:21:13.60	226.34	19.24	-22.3	-22.3	16.7	3.80e-06	0	47	0	11400118272	16	14254
2026-01-28 21:21:14.61	226.61	19.35	-22.4	-22.5	16.6	5.70e-06	0	47	0	11509170176	16	14454
2026-01-28 21:21:15.61	226.89	19.45	-22.4	-22.4	16.6	3.80e-06	0	47	0	11618222080	16	14382
2026-01-28 21:21:16.62	227.17	19.56	-22.3	-22.4	16.7	3.80e-06	0	47	0	11744051200	16	14350
2026-01-28 21:21:17.63	227.45	19.67	-22.3	-22.4	16.6	3.80e-06	0	47	0	11853103104	16	14321
2026-01-28 21:21:18.64	227.73	19.78	-22.2	-22.3	16.6	1.90e-06	0	47	0	11962155008	16	14116
2026-01-28 21:21:19.65	228.01	19.88	-22.3	-22.3	16.6	3.80e-06	0	47	0	12079595520	16	14239
2026-01-28 21:21:20.66	228.30	19.99	-22.2	-22.2	16.6	1.90e-06	0	47	0	12188647424	16	14057
2026-01-28 21:21:21.67	228.59	20.10	-22.1	-22.2	16.7	1.90e-06	0	47	0	12306087936	16	13983
2026-01-28 21:21:22.68	228.88	20.21	-22.1	-22.2	16.6	3.80e-06	0	47	0	12423528448	16	14010
2026-01-28 21:21:23.69	229.17	20.31	-22.1	-22.1	16.6	1.90e-06	0	47	0	12532580352	16	13948
2026-01-28 21:21:24.70	229.47	20.42	-22.0	-22.1	16.6	0.00e+00	0	47	0	12641632256	16	13813
2026-01-28 21:21:25.71	229.77	20.53	-22.0	-22.1	16.7	0.00e+00	0	47	0	12759072768	16	13832
2026-01-28 21:21:26.72	230.07	20.63	-22.0	-22.0	16.7	0.00e+00	0	46	0	12876513280	16	13764
2026-01-28 21:21:27.73	230.37	20.74	-22.1	-22.1	16.6	0.00e+00	0	47	0	12985565184	16	13872
2026-01-28 21:21:28.74	230.68	20.85	-22.0	-22.1	16.6	1.90e-06	0	47	0	13103005696	16	13839
2026-01-28 21:21:29.75	230.98	20.95	-21.8	-21.9	16.7	0.00e+00	0	47	0	13212057600	15	14320
2026-01-28 21:21:30.76	231.29	21.06	-21.9	-22.0	16.7	0.00e+00	0	47	0	13329498112	15	14444
2026-01-28 21:21:31.77	231.61	21.16	-21.8	-21.9	16.6	3.80e-06	0	47	0	13438550016	15	14280
2026-01-28 21:21:32.78	231.92	21.27	-21.7	-21.8	16.6	1.90e-06	0	47	0	13555990528	15	14192
2026-01-28 21:21:33.79	232.24	21.38	-21.7	-21.8	16.6	3.80e-06	0	47	0	13673431040	15	14144
2026-01-28 21:21:34.80	232.56	21.48	-21.7	-21.7	16.6	5.70e-06	0	47	0	13782482944	15	14052
2026-01-28 21:21:35.81	232.88	21.58	-21.7	-21.8	16.6	1.90e-06	0	47	0	13891534848	15	14168
2026-01-28 21:21:36.82	233.20	21.69	-21.8	-21.8	16.6	0.00e+00	0	47	0	14008975360	15	14228
2026-01-28 21:21:37.83	233.53	21.79	-21.7	-21.7	16.6	0.00e+00	0	47	0	14126415872	15	14060
2026-01-28 21:21:38.84	233.86	21.90	-21.5	-21.6	16.7	0.00e+00	0	47	0	14235467776	15	13848
2026-01-28 21:21:39.84	234.18	22.00	-21.6	-21.6	16.6	0.00e+00	0	47	0	14352908288	15	13940
2026-01-28 21:21:40.85	234.52	22.10	-21.6	-21.7	16.6	0.00e+00	0	47	0	14461960192	15	14011
2026-01-28 21:21:41.86	234.85	22.20	-21.6	-21.7	16.5	0.00e+00	0	47	0	14571012096	15	13973
2026-01-28 21:21:42.87	235.19	22.31	-21.6	-21.6	16.6	1.90e-06	0	47	0	14688452608	15	13910
2026-01-28 21:21:43.87	235.53	22.41	-21.5	-21.5	16.6	1.90e-06	0	47	0	14805893120	15	13785
2026-01-28 21:21:44.88	235.87	22.51	-21.7	-21.7	16.5	0.00e+00	0	47	0	14914945024	15	14021
2026-01-28 21:21:45.89	236.22	22.61	-21.6	-21.7	16.5	1.90e-06	0	47	0	15032385536	15	14011
2026-01-28 21:21:46.90	236.57	22.71	-21.7	-21.7	16.5	0.00e+00	0	47	0	15141437440	15	14095
2026-01-28 21:21:47.91	236.92	22.81	-21.4	-21.4	16.6	3.80e-06	0	47	0	15258877952	14	14351
2026-01-28 21:21:48.92	237.27	22.91	-21.4	-21.4	16.7	1.90e-06	0	47	0	15367929856	14	14392
2026-01-28 21:21:49.93	237.63	23.01	-21.4	-21.4	16.5	1.90e-06	0	47	0	15485370368	14	14363
2026-01-28 21:21:50.94	237.98	23.10	-21.3	-21.4	16.5	5.70e-06	0	47	0	15602810880	14	14283
2026-01-28 21:21:51.95	238.35	23.20	-21.2	-21.3	16.6	0.00e+00	0	47	0	15711862784	14	14122
2026-01-28 21:21:52.96	238.71	23.30	-21.2	-21.2	16.7	0.00e+00	0	47	0	15820914688	14	14105
2026-01-28 21:21:53.96	239.07	23.39	-21.3	-21.3	16.5	0.00e+00	0	47	0	15938355200	14	14193
2026-01-28 21:21:54.97	239.44	23.49	-21.1	-21.2	16.6	1.90e-06	0	47	0	16055795712	14	14012
2026-01-28 21:21:55.98	239.81	23.58	-21.2	-21.2	16.6	0.00e+00	0	47	0	16164847616	14	14076
2026-01-28 21:21:56.99	240.18	23.68	-21.1	-21.2	16.6	1.90e-06	0	47	0	16282288128	14	13957
2026-01-28 21:21:58.00	240.56	23.77	-21.1	-21.2	16.5	0.00e+00	0	47	0	16391340032	14	13987
2026-01-28 21:21:59.01	240.93	23.86	-21.1	-21.1	16.5	0.00e+00	0	47	0	16500391936	14	13884
2026-01-28 21:22:00.02	241.31	23.95	-21.1	-21.1	16.6	0.00e+00	0	47	0	16626221056	14	13909
2026-01-28 21:22:01.03	241.69	24.04	-21.1	-21.1	16.7	1.90e-06	0	47	0	16735272960	14	13920
2026-01-28 21:22:02.04	242.08	24.13	-21.1	-21.1	16.5	1.90e-06	0	47	0	16844324864	14	13881
2026-01-28 21:22:03.05	242.47	24.22	-21.0	-21.0	16.5	3.80e-06	0	47	0	16961765376	14	13768
2026-01-28 21:22:04.06	242.86	24.31	-20.9	-21.0	16.5	0.00e+00	0	47	0	17070817280	13	14496
2026-01-28 21:22:05.07	243.25	24.40	-21.1	-21.1	16.4	1.90e-06	0	47	0	17188257792	13	14701
2026-01-28 21:22:06.08	243.64	24.48	-21.0	-21.1	16.4	1.90e-06	0	47	0	17305698304	13	14647
2026-01-28 21:22:07.09	244.04	24.57	-20.9	-20.9	16.6	0.00e+00	0	47	0	17414750208	13	14369
2026-01-28 21:22:08.10	244.44	24.65	-20.9	-21.0	16.7	1.90e-06	0	47	0	17532190720	13	14499
2026-01-28 21:22:09.11	244.84	24.74	-21.0	-21.0	16.5	0.00e+00	0	47	0	17641242624	13	14583
2026-01-28 21:22:10.12	245.24	24.82	-20.8	-20.8	16.5	0.00e+00	0	47	0	17758683136	13	14214
2026-01-28 21:22:11.13	245.65	24.90	-20.8	-20.9	16.5	1.90e-06	0	47	0	17867735040	13	14282
2026-01-28 21:22:12.14	246.05	24.98	-20.8	-20.9	16.6	0.00e+00	0	47	0	17985175552	13	14324
2026-01-28 21:22:13.15	246.46	25.06	-20.8	-20.9	16.6	1.90e-06	0	47	0	18094227456	13	14276
2026-01-28 21:22:14.16	246.88	25.13	-20.8	-20.8	16.6	1.90e-06	0	47	0	18211667968	13	14212
2026-01-28 21:22:15.17	247.29	25.21	-20.7	-20.7	16.6	0.00e+00	0	47	0	18320719872	13	14088
2026-01-28 21:22:16.18	247.71	25.29	-20.8	-20.8	16.5	1.90e-06	0	47	0	18438160384	13	14216
2026-01-28 21:22:17.19	248.13	25.36	-20.7	-20.8	16.6	0.00e+00	0	47	0	18555600896	13	14173
2026-01-28 21:22:18.20	248.55	25.43	-20.8	-20.8	16.7	0.00e+00	0	47	0	18664652800	13	14257
2026-01-28 21:22:19.21	248.97	25.50	-20.8	-20.8	16.5	1.90e-06	0	47	0	18773704704	13	14192
2026-01-28 21:22:20.22	249.40	25.57	-20.7	-20.8	16.4	3.80e-06	0	47	0	18891145216	13	14159
2026-01-28 21:22:21.23	249.82	25.64	-20.6	-20.7	16.5	3.80e-06	0	47	0	19008585728	13	13975
2026-01-28 21:22:22.24	250.25	25.71	-20.7	-20.7	16.6	0.00e+00	0	47	0	19117637632	13	14095
2026-01-28 21:22:23.25	250.68	25.78	-20.7	-20.7	16.5	0.00e+00	0	47	0	19235078144	13	14020
2026-01-28 21:22:24.26	251.11	25.84	-20.7	-20.7	16.4	3.80e-06	0	47	0	19344130048	13	14095
2026-01-28 21:22:25.27	251.55	25.90	-20.7	-20.8	16.4	0.00e+00	0	47	0	19461570560	13	14172
2026-01-28 21:22:26.28	251.99	25.97	-20.6	-20.7	16.4	1.90e-06	0	47	0	19579011072	13	13990
2026-01-28 21:22:27.28	252.42	26.03	-20.6	-20.7	16.5	0.00e+00	0	47	0	19688062976	13	13999
2026-01-28 21:22:28.29	252.86	26.09	-20.6	-20.7	16.6	0.00e+00	0	47	0	19797114880	13	13998
2026-01-28 21:22:29.30	253.30	26.14	-20.6	-20.6	16.5	1.90e-06	0	47	0	19914555392	13	13938
2026-01-28 21:22:30.32	253.75	26.20	-20.5	-20.5	16.5	1.90e-06	0	47	0	20023607296	13	13784
2026-01-28 21:22:31.33	254.20	26.25	-20.6	-20.6	16.4	0.00e+00	0	47	0	20141047808	13	13939
2026-01-28 21:22:32.34	254.64	26.31	-20.5	-20.5	16.5	1.90e-06	0	47	0	20258488320	13	13735
2026-01-28 21:22:33.34	255.09	26.36	-20.5	-20.5	16.5	1.90e-06	0	47	0	20367540224	13	13763
2026-01-28 21:22:34.35	255.54	26.41	-20.5	-20.6	16.5	0.00e+00	0	47	0	20484980736	13	13825
2026-01-28 21:22:35.36	255.99	26.45	-20.5	-20.6	16.6	0.00e+00	0	47	0	20594032640	13	13826
2026-01-28 21:22:36.37	256.44	26.50	-20.5	-20.6	16.6	3.80e-06	0	47	0	20711473152	13	13811
2026-01-28 21:22:37.38	256.90	26.54	-20.5	-20.6	16.5	0.00e+00	0	47	0	20820525056	12	14625
2026-01-28 21:22:38.39	257.35	26.59	-20.6	-20.6	16.6	0.00e+00	0	47	0	20937965568	12	14766
2026-01-28 21:22:39.40	257.81	26.63	-20.4	-20.5	16.5	0.00e+00	0	47	0	21047017472	12	14514
2026-01-28 21:22:40.41	258.27	26.67	-20.5	-20.5	16.4	0.00e+00	0	47	0	21164457984	12	14529
2026-01-28 21:22:41.42	258.73	26.70	-20.4	-20.4	16.4	0.00e+00	0	47	0	21273509888	12	14405
2026-01-28 21:22:42.43	259.19	26.74	-20.4	-20.4	16.4	0.00e+00	0	47	0	21390950400	12	14408
2026-01-28 21:22:43.44	259.65	26.77	-20.4	-20.5	16.4	0.00e+00	0	47	0	21508390912	12	14460
2026-01-28 21:22:44.44	260.11	26.81	-20.4	-20.4	16.5	0.00e+00	0	47	0	21617442816	12	14379
2026-01-28 21:22:45.45	260.57	26.84	-20.5	-20.5	16.4	1.90e-06	0	47	0	21726494720	12	14513
2026-01-28 21:22:46.47	261.04	26.87	-20.5	-20.5	16.3	1.90e-06	0	47	0	21843935232	12	14571
2026-01-28 21:22:47.48	261.50	26.89	-20.4	-20.4	16.5	1.90e-06	0	47	0	21961375744	12	14365
2026-01-28 21:22:48.48	261.96	26.92	-20.5	-20.5	16.6	0.00e+00	0	47	0	22070427648	12	14560
2026-01-28 21:22:49.49	262.43	26.94	-20.5	-20.5	16.4	0.00e+00	0	47	0	22187868160	12	14521
2026-01-28 21:22:50.50	262.90	26.96	-20.5	-20.5	16.3	0.00e+00	0	47	0	22296920064	12	14544
2026-01-28 21:22:51.51	263.37	26.98	-20.5	-20.5	16.4	0.00e+00	0	47	0	22414360576	12	14573
2026-01-28 21:22:52.52	263.84	27.00	-20.4	-20.5	16.5	1.90e-06	0	47	0	22531801088	12	14461
2026-01-28 21:22:53.53	264.31	27.01	-20.5	-20.5	16.5	0.00e+00	0	47	0	22640852992	12	14529
2026-01-28 21:22:54.54	264.78	27.03	-20.4	-20.4	16.5	0.00e+00	0	47	0	22749904896	12	14418
2026-01-28 21:22:55.55	265.25	27.04	-20.4	-20.5	16.5	0.00e+00	0	47	0	22867345408	12	14493
2026-01-28 21:22:56.56	265.72	27.05	-20.4	-20.4	16.5	0.00e+00	0	47	0	22976397312	12	14399
2026-01-28 21:22:57.57	266.19	27.06	-20.4	-20.5	16.6	0.00e+00	0	47	0	23093837824	12	14491
2026-01-28 21:22:58.58	266.66	27.06	-20.4	-20.4	16.5	0.00e+00	0	47	0	23211278336	12	14398
2026-01-28 21:22:59.59	267.13	27.07	-20.4	-20.4	16.5	1.90e-06	0	47	0	23320330240	12	14383
2026-01-28 21:23:00.60	267.60	27.07	-20.4	-20.4	16.6	0.00e+00	0	47	0	23437770752	12	14421
2026-01-28 21:23:01.61	268.07	27.07	-20.4	-20.5	16.5	0.00e+00	0	47	0	23546822656	12	14445
2026-01-28 21:23:02.62	268.54	27.07	-20.5	-20.5	16.5	0.00e+00	0	47	0	23655874560	12	14582
2026-01-28 21:23:03.63	269.02	27.06	-20.6	-20.6	16.6	1.90e-06	0	47	0	23773315072	12	14766
2026-01-28 21:23:04.64	269.49	27.06	-20.5	-20.6	16.6	0.00e+00	0	47	0	23890755584	12	14628
2026-01-28 21:23:05.65	269.96	27.05	-20.5	-20.6	16.6	1.90e-06	0	47	0	23999807488	12	14632
2026-01-28 21:23:06.66	270.43	27.04	-20.4	-20.5	16.5	0.00e+00	0	47	0	24117248000	12	14503
2026-01-28 21:23:07.67	270.90	27.03	-20.4	-20.5	16.6	1.90e-06	0	47	0	24226299904	12	14488
2026-01-28 21:23:08.67	271.36	27.02	-20.5	-20.5	16.6	0.00e+00	0	47	0	24343740416	12	14549
2026-01-28 21:23:09.68	271.83	27.00	-20.4	-20.5	16.6	0.00e+00	0	47	0	24461180928	12	14459
2026-01-28 21:23:10.69	272.30	26.99	-20.5	-20.6	16.5	1.90e-06	0	47	0	24570232832	12	14641
2026-01-28 21:23:11.70	272.77	26.97	-20.6	-20.6	16.6	0.00e+00	0	47	0	24679284736	12	14769
2026-01-28 21:23:12.71	273.24	26.95	-20.6	-20.6	16.6	0.00e+00	0	47	0	24796725248	12	14715
2026-01-28 21:23:13.72	273.71	26.92	-20.5	-20.6	16.7	0.00e+00	0	47	0	24905777152	12	14631
2026-01-28 21:23:14.73	274.17	26.90	-20.5	-20.5	16.7	0.00e+00	0	47	0	25023217664	12	14593
2026-01-28 21:23:15.74	274.64	26.87	-20.5	-20.5	16.6	0.00e+00	0	47	0	25140658176	12	14575
2026-01-28 21:23:16.75	275.10	26.84	-20.5	-20.5	16.7	0.00e+00	0	47	0	25249710080	12	14552
2026-01-28 21:23:17.76	275.57	26.81	-20.5	-20.6	16.7	0.00e+00	0	47	0	25367150592	12	14624
2026-01-28 21:23:18.77	276.03	26.78	-20.5	-20.6	16.7	0.00e+00	0	47	0	25476202496	12	14669
2026-01-28 21:23:19.78	276.49	26.75	-20.6	-20.6	16.7	0.00e+00	0	47	0	25593643008	12	14699
2026-01-28 21:23:20.79	276.95	26.71	-20.6	-20.6	16.7	0.00e+00	0	47	0	25702694912	12	14724
2026-01-28 21:23:21.80	277.41	26.68	-20.5	-20.6	16.8	0.00e+00	0	47	0	25820135424	12	14639
2026-01-28 21:23:22.81	277.87	26.64	-20.6	-20.6	16.7	1.90e-06	0	47	0	25929187328	12	14743
2026-01-28 21:23:23.82	278.33	26.60	-20.6	-20.6	16.8	0.00e+00	0	47	0	26046627840	12	14684
2026-01-28 21:23:24.83	278.78	26.55	-20.6	-20.7	16.8	0.00e+00	0	47	0	26164068352	12	14795
2026-01-28 21:23:25.84	279.24	26.51	-20.6	-20.7	16.9	1.90e-06	0	47	0	26273120256	12	14781
2026-01-28 21:23:26.85	279.69	26.46	-20.6	-20.6	16.9	0.00e+00	0	47	0	26390560768	12	14746
2026-01-28 21:23:27.86	280.14	26.42	-20.7	-20.7	16.9	1.90e-06	0	47	0	26499612672	12	14853
2026-01-28 21:23:28.87	280.59	26.37	-20.7	-20.7	17.0	0.00e+00	0	47	0	26617053184	12	14941
2026-01-28 21:23:29.88	281.04	26.32	-20.6	-20.7	16.9	0.00e+00	0	47	0	26734493696	12	14814
2026-01-28 21:23:30.89	281.49	26.26	-20.7	-20.7	17.0	0.00e+00	0	47	0	26843545600	12	14938
2026-01-28 21:23:31.90	281.93	26.21	-20.7	-20.7	17.0	0.00e+00	0	47	0	26952597504	12	14879
2026-01-28 21:23:32.91	282.38	26.16	-20.7	-20.8	17.0	0.00e+00	0	47	0	27070038016	12	15021
2026-01-28 21:23:33.92	282.82	26.10	-20.8	-20.8	17.1	3.80e-06	0	47	0	27179089920	12	15087
2026-01-28 21:23:34.93	283.26	26.04	-20.8	-20.9	17.1	0.00e+00	0	47	0	27296530432	12	15139
2026-01-28 21:23:35.94	283.70	25.98	-20.8	-20.8	17.1	0.00e+00	0	47	0	27413970944	12	15071
2026-01-28 21:23:36.94	284.13	25.92	-20.7	-20.7	17.1	0.00e+00	0	47	0	27523022848	12	14940
2026-01-28 21:23:37.95	284.57	25.86	-20.8	-20.8	17.2	0.00e+00	0	47	0	27632074752	12	15051
2026-01-28 21:23:38.96	285.00	25.79	-20.8	-20.9	17.1	0.00e+00	0	47	0	27749515264	12	15135
2026-01-28 21:23:39.97	285.43	25.73	-20.8	-20.9	17.3	1.90e-06	0	47	0	27866955776	12	15163
2026-01-28 21:23:40.98	285.86	25.66	-20.8	-20.9	17.3	0.00e+00	0	47	0	27976007680	12	15130
2026-01-28 21:23:41.99	286.29	25.59	-20.8	-20.9	17.4	0.00e+00	0	47	0	28093448192	12	15142
2026-01-28 21:23:43.00	286.71	25.52	-20.9	-20.9	17.4	0.00e+00	0	47	0	28202500096	12	15223
2026-01-28 21:23:44.01	287.14	25.45	-20.9	-21.0	17.4	0.00e+00	0	47	0	28319940608	12	15329
2026-01-28 21:23:45.02	287.56	25.38	-20.9	-21.0	17.5	0.00e+00	0	47	0	28428992512	12	15353
2026-01-28 21:23:46.03	287.98	25.30	-21.1	-21.1	17.5	0.00e+00	0	47	0	28546433024	12	15572
2026-01-28 21:23:47.04	288.39	25.23	-21.0	-21.1	17.5	0.00e+00	0	47	0	28663873536	12	15531
2026-01-28 21:23:48.04	288.81	25.15	-21.0	-21.1	17.5	0.00e+00	0	47	0	28772925440	12	15485
2026-01-28 21:23:49.05	289.22	25.08	-21.0	-21.0	17.7	0.00e+00	0	47	0	28881977344	12	15400
2026-01-28 21:23:50.06	289.63	25.00	-21.1	-21.1	17.7	0.00e+00	0	47	0	28999417856	12	15586
2026-01-28 21:23:51.07	290.04	24.92	-21.1	-21.1	17.8	0.00e+00	0	47	0	29116858368	12	15557
2026-01-28 21:23:52.08	290.44	24.84	-21.2	-21.2	17.8	1.90e-06	0	47	0	29225910272	12	15806
2026-01-28 21:23:53.09	290.85	24.76	-21.2	-21.3	17.8	0.00e+00	0	47	0	29343350784	13	15018
2026-01-28 21:23:54.10	291.25	24.67	-21.1	-21.2	17.9	0.00e+00	0	47	0	29452402688	13	14837
2026-01-28 21:23:55.11	291.65	24.59	-21.2	-21.2	17.9	0.00e+00	0	47	0	29561454592	13	14891
2026-01-28 21:23:56.12	292.05	24.50	-21.2	-21.3	18.0	0.00e+00	0	47	0	29678895104	13	14990
2026-01-28 21:23:57.13	292.44	24.42	-21.3	-21.3	18.0	0.00e+00	0	47	0	29796335616	13	15113
2026-01-28 21:23:58.14	292.83	24.33	-21.4	-21.4	18.2	0.00e+00	0	47	0	29905387520	13	15280
2026-01-28 21:23:59.15	293.22	24.24	-21.4	-21.4	18.2	0.00e+00	0	47	0	30022828032	13	15218
2026-01-28 21:24:00.16	293.61	24.16	-21.3	-21.3	18.1	0.00e+00	0	47	0	30131879936	13	15112
2026-01-28 21:24:01.17	294.00	24.07	-21.4	-21.4	18.1	0.00e+00	0	47	0	30249320448	13	15216
2026-01-28 21:24:02.18	294.38	23.98	-21.3	-21.3	18.2	0.00e+00	0	47	0	30366760960	13	15088
2026-01-28 21:24:03.19	294.76	23.88	-21.4	-21.4	18.4	0.00e+00	0	47	0	30475812864	13	15288
2026-01-28 21:24:04.20	295.14	23.79	-21.4	-21.4	18.3	0.00e+00	0	47	0	30593253376	13	15255
2026-01-28 21:24:05.21	295.51	23.70	-21.4	-21.5	18.2	0.00e+00	0	47	0	30702305280	13	15308
2026-01-28 21:24:06.22	295.89	23.61	-21.4	-21.5	18.3	0.00e+00	0	47	0	30811357184	13	15315
2026-01-28 21:24:07.23	296.26	23.51	-21.5	-21.5	18.5	0.00e+00	0	47	0	30928797696	13	15416
2026-01-28 21:24:08.23	296.62	23.42	-21.5	-21.5	18.3	0.00e+00	0	47	0	31046238208	13	15429
2026-01-28 21:24:09.25	296.99	23.32	-21.5	-21.5	18.3	1.90e-06	0	47	0	31155290112	13	15436
2026-01-28 21:24:10.26	297.35	23.22	-21.5	-21.6	18.5	0.00e+00	0	47	0	31272730624	13	15475
2026-01-28 21:24:11.27	297.71	23.13	-21.6	-21.6	18.4	0.00e+00	0	47	0	31381782528	13	15619
2026-01-28 21:24:12.28	298.07	23.03	-21.5	-21.6	18.5	1.90e-06	0	47	0	31499223040	13	15523
2026-01-28 21:24:13.29	298.43	22.93	-21.5	-21.6	18.6	0.00e+00	0	47	0	31608274944	13	15523
2026-01-28 21:24:14.29	298.78	22.83	-21.6	-21.6	18.5	1.90e-06	0	47	0	31725715456	13	15582
2026-01-28 21:24:15.30	299.13	22.73	-21.6	-21.7	18.6	0.00e+00	0	47	0	31834767360	13	15733
2026-01-28 21:24:16.31	299.48	22.63	-21.7	-21.7	18.5	0.00e+00	0	47	0	31952207872	14	14892
2026-01-28 21:24:17.32	299.83	22.53	-21.7	-21.8	18.4	0.00e+00	0	47	0	32069648384	14	15019
2026-01-28 21:24:18.33	300.17	22.43	-21.8	-21.8	18.5	0.00e+00	0	47	0	32178700288	14	15120
2026-01-28 21:24:19.34	300.51	22.33	-21.7	-21.8	18.6	0.00e+00	0	47	0	32296140800	14	15024
2026-01-28 21:24:20.35	300.85	22.23	-21.7	-21.8	18.7	0.00e+00	0	47	0	32405192704	14	15007
2026-01-28 21:24:21.36	301.19	22.13	-21.8	-21.9	18.7	0.00e+00	0	47	0	32522633216	14	15179
2026-01-28 21:24:22.37	301.52	22.02	-21.7	-21.8	18.7	0.00e+00	0	47	0	32631685120	14	15024
2026-01-28 21:24:23.38	301.85	21.92	-21.9	-21.9	18.8	0.00e+00	0	47	0	32749125632	14	15230
2026-01-28 21:24:24.39	302.18	21.82	-21.8	-21.8	18.7	0.00e+00	0	47	0	32858177536	14	15115
2026-01-28 21:24:25.39	302.51	21.71	-21.8	-21.9	18.8	0.00e+00	0	47	0	32975618048	14	15183
2026-01-28 21:24:26.40	302.83	21.61	-21.9	-21.9	18.8	0.00e+00	0	47	0	33084669952	14	15281
2026-01-28 21:24:27.42	303.16	21.51	-21.8	-21.9	18.9	0.00e+00	0	47	0	33202110464	14	15164
2026-01-28 21:24:28.42	303.47	21.40	-22.0	-22.0	19.0	0.00e+00	0	47	0	33319550976	14	15415
2026-01-28 21:24:29.43	303.79	21.30	-21.8	-21.9	19.0	1.90e-06	0	47	0	33428602880	14	15162
2026-01-28 21:24:30.44	304.11	21.19	-21.9	-21.9	18.9	0.00e+00	0	47	0	33546043392	14	15293
2026-01-28 21:24:31.45	304.42	21.09	-22.0	-22.0	19.0	0.00e+00	0	47	0	33655095296	14	15451
2026-01-28 21:24:32.46	304.73	20.98	-22.0	-22.0	19.1	0.00e+00	0	47	0	33764147200	14	15437
2026-01-28 21:24:33.47	305.04	20.87	-22.0	-22.0	19.0	0.00e+00	0	47	0	33881587712	14	15375
2026-01-28 21:24:34.48	305.34	20.77	-22.0	-22.0	19.0	0.00e+00	0	47	0	33999028224	14	15464
2026-01-28 21:24:35.49	305.65	20.66	-22.0	-22.1	19.0	0.00e+00	0	47	0	34108080128	14	15516
2026-01-28 21:24:36.50	305.95	20.55	-22.3	-22.3	19.0	0.00e+00	0	47	0	34225520640	15	15084
2026-01-28 21:24:37.51	306.25	20.45	-22.2	-22.2	19.0	0.00e+00	0	47	0	34334572544	15	14908
2026-01-28 21:24:38.52	306.54	20.34	-22.2	-22.2	19.1	0.00e+00	0	47	0	34452013056	15	14905
2026-01-28 21:24:39.52	306.83	20.23	-22.2	-22.3	19.1	0.00e+00	0	47	0	34569453568	15	15024
2026-01-28 21:24:40.53	307.13	20.13	-22.2	-22.2	19.2	0.00e+00	0	47	0	34678505472	15	14898
2026-01-28 21:24:41.54	307.42	20.02	-22.2	-22.3	19.2	0.00e+00	0	47	0	34787557376	15	14991
2026-01-28 21:24:42.55	307.70	19.91	-22.2	-22.3	19.2	0.00e+00	0	47	0	34904997888	15	14964
2026-01-28 21:24:43.56	307.99	19.81	-22.3	-22.4	19.2	0.00e+00	0	47	0	35014049792	15	15159
2026-01-28 21:24:44.57	308.27	19.70	-22.3	-22.4	19.1	0.00e+00	0	47	0	35131490304	15	15183
2026-01-28 21:24:45.58	308.55	19.59	-22.4	-22.4	19.1	0.00e+00	0	47	0	35248930816	15	15284
2026-01-28 21:24:46.58	308.83	19.48	-22.4	-22.5	19.1	0.00e+00	0	47	0	35357982720	15	15381
2026-01-28 21:24:47.59	309.11	19.38	-22.4	-22.4	19.2	0.00e+00	0	47	0	35467034624	15	15282
2026-01-28 21:24:48.60	309.38	19.27	-22.5	-22.5	19.2	0.00e+00	0	47	0	35584475136	15	15390
2026-01-28 21:24:49.61	309.65	19.16	-22.5	-22.6	19.2	0.00e+00	0	47	0	35693527040	15	15531
2026-01-28 21:24:50.62	309.92	19.05	-22.5	-22.5	19.3	0.00e+00	0	47	0	35810967552	15	15448
2026-01-28 21:24:51.63	310.19	18.95	-22.6	-22.7	19.2	0.00e+00	0	47	0	35928408064	15	15670
2026-01-28 21:24:52.64	310.46	18.84	-22.6	-22.6	19.2	0.00e+00	0	47	0	36037459968	15	15569
2026-01-28 21:24:53.65	310.72	18.73	-22.6	-22.7	19.2	0.00e+00	0	47	0	36154900480	15	15660
2026-01-28 21:24:54.65	310.98	18.62	-22.8	-22.9	19.2	0.00e+00	0	47	0	36263952384	16	15187
2026-01-28 21:24:55.66	311.24	18.52	-22.7	-22.8	19.3	0.00e+00	0	47	0	36381392896	16	15040
2026-01-28 21:24:56.68	311.50	18.41	-22.8	-22.8	19.3	0.00e+00	0	47	0	36498833408	16	15035
2026-01-28 21:24:57.69	311.76	18.30	-22.8	-22.8	19.3	0.00e+00	0	47	0	36607885312	16	15102
2026-01-28 21:24:58.70	312.01	18.19	-22.9	-22.9	19.2	0.00e+00	0	47	0	36716937216	16	15207
2026-01-28 21:24:59.70	312.26	18.09	-22.8	-22.9	19.3	0.00e+00	0	47	0	36834377728	16	15199
2026-01-28 21:25:00.71	312.51	17.98	-22.9	-23.0	19.2	0.00e+00	0	47	0	36943429632	16	15385
2026-01-28 21:25:01.72	312.76	17.87	-22.9	-23.0	19.2	0.00e+00	0	47	0	37060870144	16	15378
2026-01-28 21:25:02.73	313.00	17.77	-23.0	-23.0	19.2	0.00e+00	0	47	0	37178310656	16	15416
2026-01-28 21:25:03.74	313.25	17.66	-23.1	-23.1	19.2	0.00e+00	0	47	0	37287362560	16	15566
2026-01-28 21:25:04.75	313.49	17.55	-23.0	-23.1	19.2	0.00e+00	0	47	0	37396414464	16	15516
2026-01-28 21:25:05.76	313.73	17.45	-23.0	-23.1	19.2	0.00e+00	0	47	0	37513854976	16	15493
2026-01-28 21:25:06.77	313.97	17.34	-23.0	-23.1	19.2	0.00e+00	0	47	0	37631295488	16	15553
2026-01-28 21:25:07.78	314.20	17.24	-23.1	-23.1	19.2	0.00e+00	0	47	0	37740347392	16	15611
2026-01-28 21:25:08.79	314.44	17.13	-23.1	-23.1	19.2	0.00e+00	0	47	0	37857787904	16	15641
2026-01-28 21:25:09.80	314.67	17.02	-23.1	-23.2	19.2	0.00e+00	0	47	0	37966839808	16	15744
2026-01-28 21:25:10.81	314.90	16.92	-23.2	-23.2	19.2	0.00e+00	0	47	0	38084280320	17	14943
2026-01-28 21:25:11.82	315.13	16.81	-23.2	-23.3	19.1	0.00e+00	0	47	0	38193332224	17	14979
2026-01-28 21:25:12.83	315.36	16.71	-23.2	-23.3	19.2	0.00e+00	0	47	0	38310772736	17	14949
2026-01-28 21:25:13.84	315.58	16.60	-23.2	-23.3	19.1	0.00e+00	0	47	0	38428213248	17	15013
2026-01-28 21:25:14.85	315.81	16.50	-23.2	-23.3	19.1	0.00e+00	0	47	0	38537265152	17	15016
2026-01-28 21:25:15.86	316.03	16.39	-23.3	-23.4	19.1	0.00e+00	0	47	0	38646317056	17	15139
2026-01-28 21:25:16.87	316.25	16.29	-23.4	-23.4	19.1	0.00e+00	0	47	0	38763757568	17	15240
2026-01-28 21:25:17.88	316.47	16.18	-23.4	-23.4	19.1	0.00e+00	0	47	0	38881198080	17	15278
2026-01-28 21:25:18.89	316.69	16.08	-23.6	-23.7	19.0	0.00e+00	0	47	0	38990249984	17	15673
2026-01-28 21:25:19.90	316.90	15.98	-23.4	-23.5	19.0	0.00e+00	0	47	0	39107690496	17	15336
2026-01-28 21:25:20.91	317.11	15.87	-23.5	-23.5	19.0	0.00e+00	0	47	0	39216742400	17	15451
2026-01-28 21:25:21.92	317.33	15.77	-23.5	-23.5	19.0	0.00e+00	0	47	0	39325794304	17	15470
2026-01-28 21:25:22.93	317.54	15.67	-23.5	-23.5	19.0	0.00e+00	0	47	0	39451623424	17	15430
2026-01-28 21:25:23.93	317.74	15.56	-23.5	-23.6	19.0	0.00e+00	0	47	0	39560675328	17	15551
2026-01-28 21:25:24.94	317.95	15.46	-23.5	-23.6	19.0	0.00e+00	0	47	0	39669727232	17	15492
2026-01-28 21:25:25.95	318.16	15.36	-23.6	-23.6	18.9	0.00e+00	0	47	0	39787167744	17	15609
2026-01-28 21:25:26.96	318.36	15.26	-23.7	-23.7	18.9	0.00e+00	0	47	0	39896219648	18	14896
2026-01-28 21:25:27.97	318.56	15.15	-23.8	-23.8	18.9	0.00e+00	0	47	0	40013660160	18	15038
2026-01-28 21:25:28.98	318.76	15.05	-23.7	-23.7	18.9	0.00e+00	0	47	0	40131100672	18	14910
2026-01-28 21:25:29.99	318.96	14.95	-23.8	-23.8	18.8	0.00e+00	0	47	0	40240152576	18	15094
2026-01-28 21:25:31.00	319.16	14.85	-23.8	-23.9	18.8	0.00e+00	0	47	0	40357593088	18	15138
2026-01-28 21:25:32.01	319.36	14.75	-23.9	-24.0	18.7	0.00e+00	0	47	0	40466644992	18	15366
2026-01-28 21:25:33.02	319.55	14.65	-23.9	-23.9	18.8	0.00e+00	0	47	0	40575696896	18	15264
2026-01-28 21:25:34.03	319.74	14.55	-23.9	-24.0	18.7	0.00e+00	0	47	0	40693137408	18	15327
2026-01-28 21:25:35.03	319.93	14.45	-23.9	-23.9	18.8	0.00e+00	0	47	0	40810577920	18	15223
2026-01-28 21:25:36.04	320.12	14.35	-23.9	-24.0	18.7	0.00e+00	0	47	0	40919629824	18	15351
2026-01-28 21:25:37.05	320.31	14.25	-24.0	-24.0	18.7	0.00e+00	0	47	0	41037070336	18	15458
2026-01-28 21:25:38.06	320.50	14.15	-23.9	-24.0	18.7	0.00e+00	0	47	0	41146122240	18	15312
2026-01-28 21:25:39.07	320.69	14.05	-24.0	-24.0	18.7	0.00e+00	0	47	0	41263562752	18	15443
2026-01-28 21:25:40.09	320.87	13.95	-24.0	-24.1	18.7	0.00e+00	0	47	0	41381003264	18	15557
2026-01-28 21:25:41.09	321.05	13.85	-24.0	-24.1	18.7	0.00e+00	0	47	0	41490055168	18	15510
2026-01-28 21:25:42.10	321.24	13.75	-24.0	-24.1	18.7	0.00e+00	0	47	0	41599107072	18	15537
2026-01-28 21:25:43.11	321.42	13.65	-24.1	-24.2	18.6	0.00e+00	0	47	0	41716547584	18	15653
2026-01-28 21:25:44.12	321.59	13.56	-24.2	-24.2	18.6	0.00e+00	0	47	0	41825599488	18	15816
2026-01-28 21:25:45.13	321.77	13.46	-24.2	-24.3	18.6	0.00e+00	0	47	0	41943040000	19	15017
2026-01-28 21:25:46.13	321.95	13.36	-24.4	-24.4	18.5	1.90e-06	0	47	0	42060480512	19	15272
2026-01-28 21:25:47.14	322.12	13.27	-24.3	-24.3	18.5	0.00e+00	0	47	0	42169532416	19	15059
2026-01-28 21:25:48.15	322.30	13.17	-24.3	-24.3	18.5	0.00e+00	0	47	0	42286972928	19	15073
2026-01-28 21:25:49.16	322.47	13.07	-24.3	-24.3	18.5	0.00e+00	0	47	0	42396024832	19	15064
2026-01-28 21:25:50.17	322.64	12.98	-24.4	-24.4	18.4	0.00e+00	0	47	0	42513465344	19	15293
2026-01-28 21:25:51.18	322.81	12.88	-24.4	-24.4	18.5	1.90e-06	0	47	0	42622517248	19	15231
2026-01-28 21:25:52.19	322.98	12.78	-24.4	-24.4	18.4	0.00e+00	0	47	0	42739957760	19	15284
2026-01-28 21:25:53.20	323.15	12.69	-24.4	-24.4	18.4	0.00e+00	0	47	0	42849009664	19	15281
2026-01-28 21:25:54.21	323.31	12.59	-24.5	-24.6	18.3	0.00e+00	0	47	0	42966450176	19	15508
2026-01-28 21:25:55.22	323.48	12.50	-24.4	-24.5	18.4	0.00e+00	0	47	0	43083890688	19	15382
2026-01-28 21:25:56.23	323.64	12.40	-24.5	-24.6	18.7	0.00e+00	0	47	0	43192942592	19	15498
2026-01-28 21:25:57.24	323.80	12.31	-45.7	-46.6	5.2	0.00e+00	0	47	104	43293605888	38	65534
2026-01-28 21:25:58.25	323.97	12.22	-46.6	-49.2	6.2	0.00e+00	0	47	104	43293605888	63	20946
2026-01-28 21:25:59.26	324.13	12.12	-46.6	-49.2	6.2	0.00e+00	0	47	104	43293605888	63	20881
2026-01-28 21:26:00.27	324.28	12.03	-46.6	-49.2	6.2	0.00e+00	0	47	104	43293605888	63	20874
2026-01-28 21:26:01.28	324.44	11.94	-46.6	-49.2	6.2	0.00e+00	0	47	104	43293605888	63	20900
2026-01-28 21:26:02.29	324.60	11.84	-46.6	-49.2	6.2	0.00e+00	0	47	104	43293605888	63	20933
2026-01-28 21:26:03.30	324.76	11.75	-46.6	-49.2	6.2	0.00e+00	0	47	104	43293605888	63	20956
2026-01-28 21:26:04.31	324.91	11.66	-46.6	-49.1	6.2	0.00e+00	0	47	104	43293605888	63	20816
2026-01-28 21:26:05.32	325.06	11.57	-46.6	-49.2	6.2	0.00e+00	0	47	104	43293605888	63	20975
2026-01-28 21:26:06.33	325.22	11.47	-46.6	-49.2	6.2	0.00e+00	0	47	104	43293605888	63	20884
2026-01-28 21:26:07.34	325.37	11.38	-46.6	-49.1	6.2	0.00e+00	0	47	104	43293605888	63	20799
2026-01-28 21:26:08.34	325.52	11.29	-46.6	-49.1	6.2	0.00e+00	0	47	104	43293605888	63	20743
2026-01-28 21:26:09.36	325.67	11.20	-46.6	-49.2	6.2	0.00e+00	0	47	104	43293605888	63	20951
2026-01-28 21:26:10.36	325.81	11.11	-46.5	-49.1	6.2	0.00e+00	0	47	104	43293605888	63	20725
2026-01-28 21:26:11.37	325.96	11.02	-46.5	-49.1	6.2	0.00e+00	0	47	104	43293605888	63	20658
2026-01-28 21:26:12.38	326.11	10.93	-46.5	-49.1	6.2	0.00e+00	0	47	104	43293605888	63	20705
2026-01-28 21:26:13.39	326.25	10.84	-46.5	-49.1	6.2	0.00e+00	0	47	104	43293605888	63	20738
2026-01-28 21:26:14.40	326.39	10.75	-46.5	-49.0	6.2	0.00e+00	0	47	104	43293605888	63	20617
2026-01-28 21:26:15.41	326.54	10.66	-46.5	-49.0	6.2	0.00e+00	0	47	104	43293605888	63	20609
2026-01-28 21:26:16.42	326.68	10.57	-46.5	-49.0	6.2	0.00e+00	0	47	104	43293605888	63	20555
2026-01-28 21:26:17.43	326.82	10.49	-46.5	-49.0	6.2	0.00e+00	0	47	104	43293605888	63	20546
2026-01-28 21:26:18.44	326.96	10.40	-46.4	-49.0	6.2	0.00e+00	0	47	104	43293605888	63	20503
2026-01-28 21:26:19.45	327.10	10.31	-46.4	-49.0	6.2	0.00e+00	0	47	104	43293605888	63	20458
2026-01-28 21:26:20.46	327.24	10.22	-46.4	-49.0	6.2	0.00e+00	0	47	104	43293605888	63	20419
2026-01-28 21:26:21.47	327.38	10.13	-46.4	-49.0	6.2	0.00e+00	0	47	104	43293605888	63	20534
2026-01-28 21:26:22.48	327.51	10.05	-46.4	-48.9	6.2	0.00e+00	0	47	104	43293605888	63	20364
2026-01-28 21:26:23.49	327.65	9.96	-46.4	-48.9	6.2	0.00e+00	0	47	104	43293605888	63	20374
2026-01-28 21:26:24.49	327.78	9.87	-46.4	-48.9	6.2	0.00e+00	0	47	104	43293605888	63	20393
2026-01-28 21:26:25.50	327.91	9.79	-46.4	-48.9	6.2	0.00e+00	0	47	104	43293605888	63	20380
2026-01-28 21:26:26.51	328.05	9.70	-46.3	-48.9	6.2	0.00e+00	0	47	104	43293605888	63	20189
2026-01-28 21:26:27.52	328.18	9.62	-46.3	-48.9	6.2	0.00e+00	0	47	104	43293605888	63	20223
2026-01-28 21:26:28.53	328.31	9.53	-46.3	-48.9	6.2	0.00e+00	0	47	104	43293605888	63	20287
2026-01-28 21:26:29.54	328.44	9.44	-46.3	-48.9	6.2	0.00e+00	0	47	104	43293605888	63	20298
2026-01-28 21:26:30.55	328.57	9.36	-46.3	-48.9	6.2	0.00e+00	0	47	104	43293605888	63	20164
2026-01-28 21:26:31.56	328.69	9.27	-46.3	-48.8	6.2	0.00e+00	0	47	104	43293605888	63	20111
2026-01-28 21:26:32.57	328.82	9.19	-46.3	-48.9	6.2	0.00e+00	0	47	104	43293605888	63	20209
2026-01-28 21:26:33.57	328.95	9.11	-46.3	-48.8	6.2	0.00e+00	0	47	104	43293605888	63	20128
2026-01-28 21:26:34.58	329.07	9.02	-46.3	-48.8	6.2	0.00e+00	0	47	104	43293605888	63	20115
2026-01-28 21:26:35.59	329.20	8.94	-46.2	-48.8	6.2	0.00e+00	0	47	104	43293605888	63	20026
2026-01-28 21:26:36.60	329.32	8.86	-46.3	-48.8	6.2	0.00e+00	0	47	104	43293605888	63	20067
2026-01-28 21:26:37.61	329.44	8.77	-46.2	-48.8	6.2	0.00e+00	0	47	104	43293605888	63	20039
2026-01-28 21:26:38.63	329.57	8.69	-46.2	-48.8	6.2	0.00e+00	0	47	104	43293605888	63	20069
2026-01-28 21:26:39.63	329.69	8.61	-46.2	-48.7	6.2	0.00e+00	0	47	104	43293605888	63	19912
2026-01-28 21:26:40.64	329.81	8.52	-46.3	-48.8	6.2	0.00e+00	0	47	104	43293605888	63	20096
2026-01-28 21:26:41.65	329.93	8.44	-46.2	-48.8	6.2	0.00e+00	0	47	104	43293605888	63	19988
2026-01-28 21:26:42.66	330.05	8.36	-46.2	-48.8	6.2	0.00e+00	0	47	104	43293605888	63	20010
2026-01-28 21:26:43.67	330.17	8.28	-46.2	-48.7	6.2	0.00e+00	0	47	104	43293605888	63	19872
2026-01-28 21:26:44.68	330.28	8.20	-46.2	-48.8	6.2	0.00e+00	0	46	104	43293605888	63	20016
2026-01-28 21:26:45.69	330.40	8.12	-46.1	-48.7	6.2	0.00e+00	0	46	104	43293605888	63	19913
2026-01-28 21:26:46.70	330.52	8.03	-46.2	-48.7	6.2	0.00e+00	0	47	104	43293605888	63	19912
2026-01-28 21:26:47.71	330.63	7.95	-46.1	-48.7	6.2	0.00e+00	0	47	104	43293605888	63	19827
2026-01-28 21:26:48.72	330.75	7.87	-46.2	-48.7	6.2	0.00e+00	0	47	104	43293605888	63	19850
2026-01-28 21:26:49.73	330.86	7.79	-46.1	-48.7	6.2	0.00e+00	0	47	104	43293605888	63	19776
2026-01-28 21:26:50.74	330.97	7.71	-46.1	-48.7	6.2	0.00e+00	0	47	104	43293605888	63	19783
2026-01-28 21:26:51.75	331.09	7.63	-46.1	-48.7	6.2	0.00e+00	0	47	104	43293605888	63	19710
2026-01-28 21:26:52.75	331.20	7.56	-46.1	-48.7	6.2	0.00e+00	0	47	104	43293605888	63	19797
2026-01-28 21:26:53.76	331.31	7.48	-46.1	-48.6	6.2	0.00e+00	0	46	104	43293605888	63	19661
2026-01-28 21:26:54.77	331.42	7.40	-46.1	-48.7	6.2	0.00e+00	0	47	104	43293605888	63	19730
2026-01-28 21:26:55.78	331.53	7.32	-46.1	-48.6	6.2	0.00e+00	0	46	104	43293605888	63	19573
2026-01-28 21:26:56.79	331.64	7.24	-46.1	-48.7	6.2	0.00e+00	0	46	104	43293605888	63	19739
2026-01-28 21:26:57.80	331.75	7.16	-46.0	-48.6	6.2	0.00e+00	0	47	104	43293605888	63	19595
2026-01-28 21:26:58.81	331.85	7.08	-46.1	-48.6	6.2	0.00e+00	0	47	104	43293605888	63	19640
2026-01-28 21:26:59.81	331.96	7.01	-46.0	-48.6	6.2	0.00e+00	0	47	104	43293605888	63	19495
2026-01-28 21:27:00.82	332.07	6.93	-46.1	-48.6	6.2	0.00e+00	0	47	104	43293605888	63	19669
2026-01-28 21:27:01.83	332.17	6.85	-46.0	-48.5	6.2	0.00e+00	0	47	104	43293605888	63	19468
2026-01-28 21:27:02.84	332.28	6.77	-46.0	-48.6	6.2	0.00e+00	0	47	104	43293605888	63	19513
2026-01-28 21:27:03.85	332.38	6.70	-45.9	-48.5	6.2	0.00e+00	0	47	104	43293605888	63	19369
2026-01-28 21:27:04.86	332.48	6.62	-46.0	-48.6	6.2	0.00e+00	0	46	104	43293605888	63	19551
2026-01-28 21:27:05.86	332.59	6.55	-45.9	-48.5	6.2	0.00e+00	0	47	104	43293605888	63	19386
2026-01-28 21:27:06.87	332.69	6.47	-46.0	-48.5	6.2	0.00e+00	0	46	104	43293605888	63	19361
2026-01-28 21:27:07.88	332.79	6.39	-45.9	-48.4	6.2	0.00e+00	0	47	104	43293605888	63	19202
2026-01-28 21:27:08.89	332.89	6.32	-46.0	-48.5	6.2	0.00e+00	0	46	104	43293605888	63	19458
2026-01-28 21:27:09.90	332.99	6.24	-45.9	-48.4	6.2	0.00e+00	0	47	104	43293605888	63	19250
2026-01-28 21:27:10.91	333.09	6.17	-45.9	-48.5	6.2	0.00e+00	0	47	104	43293605888	63	19285
2026-01-28 21:27:11.92	333.19	6.09	-45.8	-48.3	6.2	0.00e+00	0	47	104	43293605888	63	19016
2026-01-28 21:27:12.93	333.29	6.02	-45.9	-48.5	6.2	0.00e+00	0	47	104	43293605888	63	19306
2026-01-28 21:27:13.94	333.39	5.94	-45.8	-48.3	6.2	0.00e+00	0	47	104	43293605888	63	18967
2026-01-28 21:27:14.95	333.49	5.87	-45.9	-48.4	6.2	0.00e+00	0	47	104	43293605888	63	19165
2026-01-28 21:27:15.96	333.58	5.79	-45.7	-48.3	6.2	0.00e+00	0	47	104	43293605888	63	18928
2026-01-28 21:27:16.97	333.68	5.72	-45.9	-48.4	6.2	0.00e+00	0	47	104	43293605888	63	19201
2026-01-28 21:27:17.97	333.78	5.65	-45.6	-48.2	6.2	0.00e+00	0	47	104	43293605888	63	18660
2026-01-28 21:27:18.98	333.87	5.57	-45.8	-48.4	6.2	0.00e+00	0	46	104	43293605888	63	19054
2026-01-28 21:27:19.99	333.97	5.50	-45.5	-48.1	6.2	0.00e+00	0	47	104	43293605888	63	18481
2026-01-28 21:27:21.00	334.06	5.43	-45.8	-48.4	6.2	0.00e+00	0	47	104	43293605888	63	19086
2026-01-28 21:27:22.01	334.15	5.35	-45.1	-47.7	6.2	0.00e+00	0	46	104	43293605888	62	18682
2026-01-28 21:27:23.02	334.25	5.28	-45.7	-48.2	6.2	0.00e+00	0	47	104	43293605888	62	19774
2026-01-28 21:27:24.02	334.34	5.21	-45.4	-47.9	6.2	0.00e+00	0	46	104	43293605888	62	19221
2026-01-28 21:27:25.03	334.43	5.14	-45.6	-48.2	6.2	0.00e+00	0	47	104	43293605888	62	19781
2026-01-28 21:27:26.04	334.52	5.06	-46.0	-48.5	6.2	0.00e+00	0	46	104	43293605888	62	20534
2026-01-28 21:27:27.05	334.61	4.99	-46.4	-49.0	6.2	0.00e+00	0	46	104	43293605888	63	20424
2026-01-28 21:27:28.06	334.70	4.92	-46.6	-49.1	6.2	0.00e+00	0	47	104	43293605888	63	20687
2026-01-28 21:27:29.07	334.79	4.85	-46.8	-49.4	6.2	0.00e+00	0	46	104	43293605888	64	20235
2026-01-28 21:27:30.08	334.88	4.78	-47.0	-49.5	6.2	0.00e+00	0	47	104	43293605888	64	20537
2026-01-28 21:27:31.09	334.97	4.71	-47.1	-49.6	6.2	0.00e+00	0	47	104	43293605888	64	20764
2026-01-28 21:27:32.10	335.06	4.64	-47.2	-49.7	6.2	0.00e+00	0	46	104	43293605888	64	21056
2026-01-28 21:27:33.11	335.15	4.56	-47.2	-49.8	6.2	0.00e+00	0	46	104	43293605888	64	21142
2026-01-28 21:27:34.12	335.24	4.49	-47.2	-49.8	6.2	0.00e+00	0	46	104	43293605888	65	19999
2026-01-28 21:27:35.12	335.32	4.42	-47.2	-49.8	6.2	0.00e+00	0	47	104	43293605888	65	20026
2026-01-28 21:27:36.13	335.41	4.35	-47.2	-49.7	6.2	0.00e+00	0	47	104	43293605888	65	19839
2026-01-28 21:27:37.14	335.50	4.28	-47.1	-49.6	6.2	0.00e+00	0	47	104	43293605888	65	19624
2026-01-28 21:27:38.15	335.58	4.21	-46.9	-49.5	6.2	0.00e+00	0	46	104	43293605888	65	19338
2026-01-28 21:27:39.16	335.67	4.15	-46.9	-49.5	6.2	0.00e+00	0	47	104	43293605888	65	19386
2026-01-28 21:27:40.17	335.75	4.08	-47.0	-49.6	6.2	0.00e+00	0	47	104	43293605888	65	19490
2026-01-28 21:27:41.18	335.83	4.01	-47.1	-49.6	6.2	0.00e+00	0	47	104	43293605888	65	19632
2026-01-28 21:27:42.19	335.92	3.94	-47.1	-49.6	6.2	0.00e+00	0	47	104	43293605888	65	19646
2026-01-28 21:27:43.20	336.00	3.87	-47.1	-49.6	6.2	0.00e+00	0	47	104	43293605888	65	19703
2026-01-28 21:27:44.21	336.08	3.80	-47.1	-49.7	6.2	0.00e+00	0	47	104	43293605888	65	19798
2026-01-28 21:27:45.21	336.17	3.73	-47.2	-49.7	6.2	0.00e+00	0	47	104	43293605888	65	19765
2026-01-28 21:27:46.22	336.25	3.66	-47.2	-49.7	6.2	0.00e+00	0	47	104	43293605888	65	19841
2026-01-28 21:27:47.23	336.33	3.60	-47.1	-49.7	6.2	0.00e+00	0	47	104	43293605888	65	19779
2026-01-28 21:27:48.24	336.41	3.53	-47.1	-49.6	6.2	0.00e+00	0	47	104	43293605888	65	19606
2026-01-28 21:27:49.25	336.49	3.46	-47.0	-49.6	6.2	0.00e+00	0	47	104	43293605888	65	19496
2026-01-28 21:27:50.26	336.57	3.39	-47.0	-49.5	6.2	0.00e+00	0	47	104	43293605888	65	19471
2026-01-28 21:27:51.27	336.65	3.33	-47.0	-49.5	6.2	0.00e+00	0	47	104	43293605888	65	19379
2026-01-28 21:27:52.28	336.73	3.26	-47.0	-49.5	6.2	0.00e+00	0	47	104	43293605888	65	19369
2026-01-28 21:27:53.29	336.81	3.19	-47.0	-49.5	6.2	0.00e+00	0	47	104	43293605888	65	19344
2026-01-28 21:27:54.30	336.89	3.12	-46.9	-49.5	6.2	0.00e+00	0	47	104	43293605888	65	19332
2026-01-28 21:27:55.31	336.97	3.06	-46.9	-49.5	6.2	0.00e+00	0	46	104	43293605888	65	19381
2026-01-28 21:27:56.31	337.04	2.99	-46.9	-49.4	6.2	0.00e+00	0	47	104	43293605888	65	19246
2026-01-28 21:27:57.32	337.12	2.92	-46.9	-49.5	6.2	0.00e+00	0	47	104	43293605888	65	19289
2026-01-28 21:27:58.33	337.20	2.86	-46.9	-49.5	6.2	0.00e+00	0	47	104	43293605888	65	19280
2026-01-28 21:27:59.34	337.27	2.79	-46.9	-49.4	6.2	0.00e+00	0	47	104	43293605888	65	19232
2026-01-28 21:28:00.35	337.35	2.73	-46.9	-49.4	6.2	0.00e+00	0	47	104	43293605888	65	19237
2026-01-28 21:28:01.36	337.43	2.66	-46.9	-49.4	6.2	0.00e+00	0	47	104	43293605888	65	19189
2026-01-28 21:28:02.37	337.50	2.60	-46.9	-49.4	6.2	0.00e+00	0	47	104	43293605888	65	19112
2026-01-28 21:28:03.38	337.58	2.53	-46.8	-49.4	6.2	0.00e+00	0	47	104	43293605888	65	19137
2026-01-28 21:28:04.38	337.65	2.47	-46.8	-49.4	6.2	0.00e+00	0	47	104	43293605888	65	19075
2026-01-28 21:28:05.39	337.72	2.40	-46.8	-49.4	6.2	0.00e+00	0	47	104	43293605888	65	19069
2026-01-28 21:28:06.40	337.80	2.34	-46.8	-49.4	6.2	0.00e+00	0	47	104	43293605888	65	19044
2026-01-28 21:28:07.41	337.87	2.27	-46.8	-49.3	6.2	0.00e+00	0	47	104	43293605888	65	19016
2026-01-28 21:28:08.42	337.94	2.21	-46.8	-49.3	6.2	0.00e+00	0	47	104	43293605888	65	19033
2026-01-28 21:28:09.43	338.02	2.14	-46.8	-49.3	6.2	0.00e+00	0	47	104	43293605888	65	18950
2026-01-28 21:28:10.44	338.09	2.08	-46.8	-49.3	6.2	0.00e+00	0	46	104	43293605888	65	18933
2026-01-28 21:28:11.45	338.16	2.01	-46.8	-49.3	6.2	0.00e+00	0	47	104	43293605888	65	18923
2026-01-28 21:28:12.46	338.23	1.95	-46.7	-49.3	6.2	0.00e+00	0	47	104	43293605888	65	18938
2026-01-28 21:28:13.47	338.30	1.89	-46.8	-49.3	6.2	0.00e+00	0	47	104	43293605888	65	18890

#Closed at: 2026-01-28 21:28:14
#Recorded file [43293 MB]: D:/lorett/data/31045_260129_001750.dat