passes_logs/2026/01/28/R3.2S_Murmansk_2ch/R3.2S_Murmansk_2ch__20260128_215343_JL1KF02B02_rec.log

#Pass ID: 20260128_215343_JL1KF02B02
#Satellite: JL1KF02B02
#Configuration: 01B_900M
#almurnet v.1.7.20251203
#Start time: 2026-01-28 21:53:44

#Version: 2.2.20231116
#Station: R3.2S_Murmansk_2ch
#Location: 33.079688 lon 68.888172 lat
#TLE: 1 61193U 24169E   26027.77639749  .00007697  00000+0  47839-3 0  9993
#TLE: 2 61193  97.5622 119.4851 0013901  93.9222 266.3597 15.09851074 74653

#Time	Az	El	Level	Level2	SNR	BER	BlckErr	Temp	State	Recorded	gain1	gain2
2026-01-28 21:53:44.35	214.39	2.06	-47.6	-50.2	6.3	0.00e+00	0	44	0	0	66	19731
2026-01-28 21:53:45.33	214.49	2.12	-47.6	-50.1	6.2	0.00e+00	0	44	104	0	66	19617
2026-01-28 21:53:46.30	214.58	2.17	-47.6	-50.1	6.2	0.00e+00	0	44	104	0	66	19598
2026-01-28 21:53:47.26	214.68	2.23	-47.6	-50.2	6.2	0.00e+00	0	44	104	0	66	19727
2026-01-28 21:53:48.23	214.77	2.29	-47.6	-50.2	6.2	0.00e+00	0	44	104	0	66	19746
2026-01-28 21:53:49.20	214.87	2.35	-47.6	-50.2	6.2	0.00e+00	0	44	104	0	66	19734
2026-01-28 21:53:50.18	214.97	2.40	-47.6	-50.1	6.2	0.00e+00	0	44	104	0	66	19671
2026-01-28 21:53:51.14	215.06	2.46	-47.6	-50.1	6.2	0.00e+00	0	44	104	0	66	19630
2026-01-28 21:53:52.11	215.16	2.52	-47.6	-50.1	6.2	0.00e+00	0	44	104	0	66	19598
2026-01-28 21:53:53.08	215.26	2.58	-47.6	-50.1	6.2	0.00e+00	0	44	104	0	66	19603
2026-01-28 21:53:54.05	215.35	2.63	-47.6	-50.1	6.2	0.00e+00	0	44	104	0	66	19629
2026-01-28 21:53:55.02	215.45	2.69	-47.6	-50.1	6.2	0.00e+00	0	44	104	0	66	19608
2026-01-28 21:53:55.98	215.55	2.75	-47.5	-50.1	6.2	0.00e+00	0	44	104	0	66	19570
2026-01-28 21:53:56.96	215.65	2.81	-47.5	-50.1	6.2	0.00e+00	0	45	104	0	66	19527
2026-01-28 21:53:57.93	215.75	2.87	-47.5	-50.1	6.2	0.00e+00	0	44	104	0	66	19554
2026-01-28 21:53:58.90	215.85	2.92	-47.5	-50.1	6.2	0.00e+00	0	44	104	0	66	19555
2026-01-28 21:53:59.87	215.95	2.98	-47.6	-50.1	6.2	0.00e+00	0	44	104	0	66	19655
2026-01-28 21:54:00.84	216.05	3.04	-47.9	-50.4	6.2	0.00e+00	0	44	104	0	66	20215
2026-01-28 21:54:01.81	216.16	3.10	-47.9	-50.5	6.2	0.00e+00	0	45	104	0	66	20501
2026-01-28 21:54:02.78	216.26	3.16	-48.0	-50.5	6.2	0.00e+00	0	45	104	0	66	20559
2026-01-28 21:54:03.75	216.36	3.22	-48.0	-50.6	6.2	0.00e+00	0	45	104	0	66	20689
2026-01-28 21:54:04.72	216.46	3.28	-48.0	-50.6	6.2	0.00e+00	0	44	104	0	66	20676
2026-01-28 21:54:05.68	216.57	3.33	-48.0	-50.6	6.2	0.00e+00	0	44	104	0	66	20663
2026-01-28 21:54:06.66	216.67	3.39	-48.0	-50.6	6.2	0.00e+00	0	45	104	0	66	20667
2026-01-28 21:54:07.62	216.78	3.45	-48.0	-50.5	6.2	0.00e+00	0	45	104	0	66	20590
2026-01-28 21:54:08.59	216.88	3.51	-48.0	-50.5	6.2	0.00e+00	0	45	104	0	66	20497
2026-01-28 21:54:09.56	216.99	3.57	-47.9	-50.4	6.2	0.00e+00	0	45	104	0	66	20382
2026-01-28 21:54:10.53	217.09	3.63	-47.9	-50.4	6.2	0.00e+00	0	45	104	0	66	20353
2026-01-28 21:54:11.50	217.20	3.69	-47.8	-50.3	6.2	0.00e+00	0	45	104	0	66	20144
2026-01-28 21:54:12.47	217.31	3.75	-47.8	-50.3	6.2	0.00e+00	0	45	104	0	66	20113
2026-01-28 21:54:13.44	217.42	3.81	-47.7	-50.3	6.2	0.00e+00	0	45	104	0	66	19976
2026-01-28 21:54:14.42	217.53	3.87	-47.7	-50.2	6.2	0.00e+00	0	45	104	0	66	19766
2026-01-28 21:54:15.39	217.64	3.93	-47.6	-50.1	6.2	0.00e+00	0	45	104	0	66	19668
2026-01-28 21:54:16.36	217.74	3.99	-47.5	-50.1	6.2	0.00e+00	0	45	104	0	66	19533
2026-01-28 21:54:17.33	217.85	4.05	-47.4	-50.0	6.2	0.00e+00	0	45	104	0	66	19339
2026-01-28 21:54:18.30	217.97	4.11	-47.3	-49.9	6.2	0.00e+00	0	45	104	0	66	19075
2026-01-28 21:54:19.26	218.08	4.17	-47.2	-49.7	6.2	0.00e+00	0	45	104	0	66	18789
2026-01-28 21:54:20.23	218.19	4.23	-47.0	-49.6	6.2	0.00e+00	0	45	104	0	66	18451
2026-01-28 21:54:21.21	218.30	4.29	-46.8	-49.3	6.2	0.00e+00	0	45	104	0	65	18996
2026-01-28 21:54:22.17	218.41	4.35	-46.4	-48.9	6.2	0.00e+00	0	45	104	0	64	19225
2026-01-28 21:54:23.14	218.53	4.41	-46.1	-48.7	6.2	0.00e+00	0	45	104	0	64	18647
2026-01-28 21:54:24.11	218.64	4.47	-46.1	-48.6	6.2	0.00e+00	0	45	104	0	64	18588
2026-01-28 21:54:25.08	218.75	4.53	-46.1	-48.7	6.2	0.00e+00	0	45	104	0	64	18616
2026-01-28 21:54:26.06	218.87	4.60	-46.1	-48.6	6.2	0.00e+00	0	45	104	0	64	18542
2026-01-28 21:54:27.03	218.99	4.66	-46.1	-48.6	6.2	0.00e+00	0	45	104	0	64	18587
2026-01-28 21:54:27.99	219.10	4.72	-46.1	-48.6	6.2	0.00e+00	0	45	104	0	64	18602
2026-01-28 21:54:28.96	219.22	4.78	-46.1	-48.6	6.2	0.00e+00	0	45	104	0	64	18559
2026-01-28 21:54:29.93	219.34	4.84	-46.1	-48.6	6.2	0.00e+00	0	45	104	0	64	18520
2026-01-28 21:54:30.90	219.45	4.90	-46.0	-48.6	6.2	0.00e+00	0	45	104	0	64	18503
2026-01-28 21:54:31.87	219.57	4.96	-46.1	-48.6	6.2	0.00e+00	0	45	104	0	64	18550
2026-01-28 21:54:32.84	219.69	5.02	-46.1	-48.6	6.2	0.00e+00	0	45	104	0	64	18555
2026-01-28 21:54:33.81	219.81	5.09	-46.1	-48.7	6.2	0.00e+00	0	45	104	0	64	18662
2026-01-28 21:54:34.78	219.93	5.15	-46.1	-48.6	6.2	0.00e+00	0	45	104	0	63	19646
2026-01-28 21:54:35.75	220.05	5.21	-46.2	-48.8	6.2	0.00e+00	0	45	104	0	63	19961
2026-01-28 21:54:36.72	220.17	5.27	-46.1	-48.7	6.2	0.00e+00	0	45	104	0	63	19762
2026-01-28 21:54:37.69	220.30	5.34	-46.1	-48.6	6.2	0.00e+00	0	45	104	0	63	19637
2026-01-28 21:54:38.66	220.42	5.40	-46.0	-48.6	6.2	0.00e+00	0	45	104	0	63	19536
2026-01-28 21:54:39.63	220.54	5.46	-46.2	-48.8	6.2	0.00e+00	0	45	104	0	63	20010
2026-01-28 21:54:40.60	220.67	5.52	-46.1	-48.7	6.2	0.00e+00	0	45	104	0	63	19771
2026-01-28 21:54:41.57	220.79	5.58	-46.1	-48.6	6.2	0.00e+00	0	45	104	0	63	19670
2026-01-28 21:54:42.54	220.92	5.65	-46.0	-48.6	6.2	0.00e+00	0	46	104	0	63	19520
2026-01-28 21:54:43.50	221.04	5.71	-46.2	-48.8	6.2	0.00e+00	0	46	104	0	63	20002
2026-01-28 21:54:44.48	221.17	5.77	-46.2	-48.7	6.2	0.00e+00	0	45	104	0	63	19880
2026-01-28 21:54:45.44	221.30	5.84	-46.1	-48.6	6.2	0.00e+00	0	45	104	0	63	19685
2026-01-28 21:54:46.41	221.42	5.90	-46.0	-48.6	6.2	0.00e+00	0	46	104	0	63	19563
2026-01-28 21:54:47.38	221.55	5.96	-46.2	-48.8	6.2	0.00e+00	0	46	104	0	63	20069
2026-01-28 21:54:48.35	221.68	6.03	-46.2	-48.7	6.2	0.00e+00	0	45	104	0	63	19907
2026-01-28 21:54:49.32	221.81	6.09	-46.1	-48.7	6.2	0.00e+00	0	45	104	0	63	19775
2026-01-28 21:54:50.29	221.94	6.15	-46.1	-48.6	6.2	0.00e+00	0	45	104	0	63	19665
2026-01-28 21:54:51.26	222.07	6.22	-46.2	-48.8	6.2	0.00e+00	0	45	104	0	63	20040
2026-01-28 21:54:52.22	222.20	6.28	-46.2	-48.7	6.2	0.00e+00	0	46	104	0	63	19907
2026-01-28 21:54:53.20	222.34	6.34	-46.1	-48.7	6.2	0.00e+00	0	46	104	0	63	19779
2026-01-28 21:54:54.17	222.47	6.41	-46.1	-48.7	6.2	0.00e+00	0	46	104	0	63	19743
2026-01-28 21:54:55.14	222.61	6.47	-46.2	-48.8	6.2	0.00e+00	0	46	104	0	63	19985
2026-01-28 21:54:56.11	222.74	6.53	-46.2	-48.8	6.2	0.00e+00	0	46	104	0	63	19948
2026-01-28 21:54:57.08	222.88	6.60	-46.2	-48.7	6.2	0.00e+00	0	46	104	0	63	19810
2026-01-28 21:54:58.05	223.01	6.66	-46.1	-48.7	6.2	0.00e+00	0	46	104	0	63	19756
2026-01-28 21:54:59.01	223.15	6.73	-46.2	-48.8	6.2	0.00e+00	0	46	104	0	63	19951
2026-01-28 21:54:59.98	223.29	6.79	-46.3	-48.8	6.2	0.00e+00	0	46	104	0	63	20063
2026-01-28 21:55:00.95	223.42	6.86	-46.2	-48.7	6.2	0.00e+00	0	46	104	0	63	19882
2026-01-28 21:55:01.92	223.56	6.92	-46.1	-48.7	6.2	0.00e+00	0	46	104	0	63	19787
2026-01-28 21:55:02.89	223.70	6.99	-46.2	-48.7	6.2	0.00e+00	0	46	104	0	63	19906
2026-01-28 21:55:03.86	223.84	7.05	-46.3	-48.8	6.2	0.00e+00	0	46	104	0	63	20094
2026-01-28 21:55:04.83	223.98	7.11	-46.2	-48.8	6.2	0.00e+00	0	46	104	0	63	19972
2026-01-28 21:55:05.80	224.13	7.18	-46.2	-48.7	6.2	0.00e+00	0	46	104	0	63	19903
2026-01-28 21:55:06.76	224.27	7.24	-46.2	-48.7	6.2	0.00e+00	0	46	104	0	63	19873
2026-01-28 21:55:07.73	224.41	7.31	-46.3	-48.9	6.2	0.00e+00	0	46	104	0	63	20209
2026-01-28 21:55:08.69	224.55	7.37	-46.2	-48.8	6.2	0.00e+00	0	46	104	0	63	20127
2026-01-28 21:55:09.66	224.70	7.44	-46.2	-48.8	6.2	0.00e+00	0	46	104	0	63	19938
2026-01-28 21:55:10.63	224.85	7.50	-46.2	-48.7	6.2	0.00e+00	0	46	104	0	63	19843
2026-01-28 21:55:11.60	224.99	7.57	-46.3	-48.9	6.2	0.00e+00	0	46	104	0	63	20196
2026-01-28 21:55:12.57	225.14	7.63	-46.3	-48.8	6.2	0.00e+00	0	46	104	0	63	20106
2026-01-28 21:55:13.53	225.29	7.70	-46.2	-48.8	6.2	0.00e+00	0	46	104	0	63	19942
2026-01-28 21:55:14.50	225.43	7.77	-46.2	-48.7	6.2	0.00e+00	0	46	104	0	63	19905
2026-01-28 21:55:15.47	225.58	7.83	-46.3	-48.9	6.2	0.00e+00	0	46	104	0	63	20316
2026-01-28 21:55:16.43	225.73	7.90	-46.3	-48.9	6.2	0.00e+00	0	46	104	0	63	20196
2026-01-28 21:55:17.40	225.89	7.96	-46.3	-48.8	6.2	0.00e+00	0	46	104	0	63	20034
2026-01-28 21:55:18.37	226.04	8.03	-46.2	-48.8	6.2	0.00e+00	0	46	104	0	63	19974
2026-01-28 21:55:19.34	226.19	8.09	-46.3	-48.9	6.2	0.00e+00	0	46	104	0	63	20351
2026-01-28 21:55:20.31	226.34	8.16	-46.3	-48.9	6.2	0.00e+00	0	46	104	0	63	20209
2026-01-28 21:55:21.27	226.50	8.23	-46.3	-48.8	6.2	0.00e+00	0	46	104	0	63	20148
2026-01-28 21:55:22.24	226.65	8.29	-46.3	-48.8	6.2	0.00e+00	0	46	104	0	63	20092
2026-01-28 21:55:23.22	226.81	8.36	-46.4	-48.9	6.2	0.00e+00	0	46	104	0	63	20318
2026-01-28 21:55:24.19	226.97	8.43	-46.4	-48.9	6.2	0.00e+00	0	46	104	0	63	20277
2026-01-28 21:55:25.15	227.12	8.49	-46.3	-48.9	6.2	0.00e+00	0	46	104	0	63	20203
2026-01-28 21:55:26.12	227.28	8.56	-46.3	-48.9	6.2	0.00e+00	0	46	104	0	63	20199
2026-01-28 21:55:27.08	227.44	8.62	-46.3	-48.9	6.2	0.00e+00	0	46	104	0	63	20230
2026-01-28 21:55:28.05	227.60	8.69	-46.4	-48.9	6.2	0.00e+00	0	46	104	0	63	20264
2026-01-28 21:55:29.02	227.76	8.76	-46.3	-48.9	6.2	0.00e+00	0	46	104	0	63	20165
2026-01-28 21:55:29.99	227.92	8.82	-46.3	-48.8	6.2	0.00e+00	0	46	104	0	63	20145
2026-01-28 21:55:30.95	228.09	8.89	-46.3	-48.9	6.2	0.00e+00	0	46	104	0	63	20281
2026-01-28 21:55:31.92	228.25	8.96	-46.4	-48.9	6.2	0.00e+00	0	46	104	0	63	20388
2026-01-28 21:55:32.89	228.42	9.02	-46.4	-48.9	6.2	0.00e+00	0	46	104	0	63	20283
2026-01-28 21:55:33.85	228.58	9.09	-46.3	-48.9	6.2	0.00e+00	0	46	104	0	63	20180
2026-01-28 21:55:34.83	228.75	9.16	-46.3	-48.9	6.2	0.00e+00	0	46	104	0	63	20275
2026-01-28 21:55:35.79	228.91	9.22	-46.4	-49.0	6.2	0.00e+00	0	46	104	0	63	20408
2026-01-28 21:55:36.76	229.08	9.29	-46.4	-48.9	6.2	0.00e+00	0	46	104	0	63	20345
2026-01-28 21:55:37.73	229.25	9.36	-46.3	-48.9	6.2	0.00e+00	0	46	104	0	63	20343
2026-01-28 21:55:38.70	229.42	9.43	-46.3	-48.9	6.2	0.00e+00	0	46	104	0	63	20278
2026-01-28 21:55:39.68	229.59	9.49	-46.4	-49.0	6.2	0.00e+00	0	46	104	0	63	20473
2026-01-28 21:55:40.64	229.77	9.56	-46.4	-48.9	6.2	0.00e+00	0	46	104	0	63	20389
2026-01-28 21:55:41.61	229.94	9.63	-46.4	-48.9	6.2	0.00e+00	0	46	104	0	63	20281
2026-01-28 21:55:42.58	230.11	9.69	-46.4	-48.9	6.2	0.00e+00	0	46	104	0	63	20297
2026-01-28 21:55:43.55	230.29	9.76	-46.5	-49.0	6.2	0.00e+00	0	46	104	0	63	20520
2026-01-28 21:55:44.52	230.46	9.83	-46.4	-49.0	6.2	0.00e+00	0	46	104	0	63	20411
2026-01-28 21:55:45.49	230.64	9.90	-46.4	-48.9	6.2	0.00e+00	0	46	104	0	63	20368
2026-01-28 21:55:46.46	230.82	9.96	-46.4	-48.9	6.2	0.00e+00	0	46	104	0	63	20366
2026-01-28 21:55:47.43	231.00	10.03	-46.5	-49.0	6.2	0.00e+00	0	46	104	0	63	20580
2026-01-28 21:55:48.39	231.17	10.10	-46.4	-49.0	6.2	0.00e+00	0	46	104	0	63	20441
2026-01-28 21:55:49.37	231.36	10.17	-46.4	-48.9	6.2	0.00e+00	0	46	104	0	63	20350
2026-01-28 21:55:50.34	231.54	10.23	-46.4	-49.0	6.2	0.00e+00	0	46	104	0	63	20408
2026-01-28 21:55:51.31	231.72	10.30	-46.5	-49.0	6.2	0.00e+00	0	46	104	0	63	20579
2026-01-28 21:55:52.28	231.91	10.37	-46.5	-49.0	6.2	0.00e+00	0	46	104	0	63	20551
2026-01-28 21:55:53.25	232.09	10.44	-46.4	-49.0	6.2	0.00e+00	0	46	104	0	63	20429
2026-01-28 21:55:54.21	232.27	10.50	-46.4	-49.0	6.2	0.00e+00	0	46	104	0	63	20445
2026-01-28 21:55:55.18	232.46	10.57	-46.5	-49.0	6.2	0.00e+00	0	46	104	0	63	20571
2026-01-28 21:55:56.15	232.65	10.64	-46.5	-49.0	6.2	0.00e+00	0	46	104	0	63	20591
2026-01-28 21:55:57.12	232.84	10.71	-46.4	-49.0	6.2	0.00e+00	0	46	104	0	63	20469
2026-01-28 21:55:58.09	233.03	10.77	-46.4	-49.0	6.2	0.00e+00	0	46	104	0	63	20465
2026-01-28 21:55:59.06	233.22	10.84	-46.5	-49.0	6.2	0.00e+00	0	46	104	0	63	20551
2026-01-28 21:56:00.04	233.41	10.91	-46.5	-49.0	6.2	0.00e+00	0	46	104	0	63	20580
2026-01-28 21:56:01.01	233.60	10.98	-46.5	-49.0	6.2	0.00e+00	0	46	104	0	63	20525
2026-01-28 21:56:01.98	233.80	11.05	-46.4	-49.0	6.2	0.00e+00	0	46	104	0	63	20519
2026-01-28 21:56:02.94	233.99	11.11	-46.5	-49.0	6.2	0.00e+00	0	46	104	0	63	20497
2026-01-28 21:56:03.91	234.19	11.18	-46.4	-49.0	6.2	0.00e+00	0	46	104	0	63	20438
2026-01-28 21:56:04.88	234.38	11.25	-46.2	-48.6	6.2	0.00e+00	0	46	104	0	63	19614
2026-01-28 21:56:05.85	234.58	11.31	-45.9	-48.1	6.2	0.00e+00	0	46	104	0	63	18390
2026-01-28 21:56:06.82	234.78	11.38	-45.9	-48.1	6.2	0.00e+00	0	46	104	0	63	18432
2026-01-28 21:56:07.80	234.98	11.45	-46.0	-48.2	6.2	0.00e+00	0	46	104	0	63	18759
2026-01-28 21:56:08.77	235.18	11.52	-45.9	-48.2	6.2	0.00e+00	0	46	104	0	63	18693
2026-01-28 21:56:09.74	235.39	11.59	-46.0	-48.3	6.2	0.00e+00	0	46	104	0	63	18897
2026-01-28 21:56:10.71	235.59	11.65	-45.9	-48.1	6.2	0.00e+00	0	46	104	0	63	18584
2026-01-28 21:56:11.68	235.79	11.72	-46.2	-48.6	6.2	0.00e+00	0	46	104	0	63	19598
2026-01-28 21:56:12.64	236.00	11.79	-45.9	-48.0	6.2	0.00e+00	0	46	104	0	63	18346
2026-01-28 21:56:13.61	236.20	11.85	-46.6	-49.1	6.2	0.00e+00	0	46	104	0	63	20758
2026-01-28 21:56:14.58	236.41	11.92	-45.8	-48.0	6.3	0.00e+00	0	46	104	0	63	18242
2026-01-28 21:56:15.55	236.62	11.99	-45.8	-48.0	6.2	0.00e+00	0	46	104	0	63	18192
2026-01-28 21:56:16.51	236.83	12.05	-45.8	-48.0	6.2	0.00e+00	0	46	104	0	63	18312
2026-01-28 21:56:17.48	237.04	12.12	-46.4	-48.8	6.2	0.00e+00	0	46	104	0	63	20144
2026-01-28 21:56:18.45	237.25	12.19	-46.0	-48.2	6.2	0.00e+00	0	46	104	0	63	18800
2026-01-28 21:56:19.42	237.47	12.25	-46.3	-48.7	6.2	0.00e+00	0	46	104	0	63	19840
2026-01-28 21:56:20.39	237.68	12.32	-45.9	-48.1	6.2	0.00e+00	0	46	104	0	63	18490
2026-01-28 21:56:21.36	237.90	12.39	-46.5	-48.9	6.2	0.00e+00	0	46	104	0	63	20296
2026-01-28 21:56:22.33	238.11	12.45	-46.1	-48.4	6.2	0.00e+00	0	46	104	0	63	19117
2026-01-28 21:56:23.30	238.33	12.52	-45.9	-48.1	6.2	0.00e+00	0	46	104	0	63	18430
2026-01-28 21:56:24.27	238.55	12.59	-45.8	-48.0	6.2	0.00e+00	0	46	104	0	63	18256
2026-01-28 21:56:25.23	238.77	12.65	-46.3	-48.6	6.2	0.00e+00	0	46	104	0	63	19695
2026-01-28 21:56:26.20	238.99	12.72	-45.7	-47.8	6.2	0.00e+00	0	46	104	0	63	17926
2026-01-28 21:56:27.17	239.21	12.78	-46.5	-49.0	6.2	0.00e+00	0	46	104	0	63	20509
2026-01-28 21:56:28.14	239.43	12.85	-46.3	-48.7	6.2	0.00e+00	0	46	104	0	63	19761
2026-01-28 21:56:29.11	239.66	12.92	-46.0	-48.2	6.2	0.00e+00	0	46	104	0	63	18812
2026-01-28 21:56:30.08	239.88	12.98	-46.0	-48.2	6.2	0.00e+00	0	46	104	0	63	18688
2026-01-28 21:56:31.04	240.11	13.05	-46.0	-48.3	6.2	0.00e+00	0	46	104	0	63	18822
2026-01-28 21:56:32.01	240.34	13.11	-46.0	-48.2	6.2	0.00e+00	0	46	104	0	63	18685
2026-01-28 21:56:32.98	240.57	13.18	-46.1	-48.3	6.2	0.00e+00	0	46	104	0	63	18928
2026-01-28 21:56:33.95	240.80	13.24	-45.7	-47.8	6.2	0.00e+00	0	46	104	0	63	17812
2026-01-28 21:56:34.92	241.03	13.31	-46.3	-48.7	6.2	0.00e+00	0	46	104	0	63	19879
2026-01-28 21:56:35.89	241.26	13.37	-46.5	-49.1	6.2	0.00e+00	0	46	104	0	63	20730
2026-01-28 21:56:36.86	241.49	13.43	-45.8	-47.8	6.2	0.00e+00	0	47	104	0	63	17909
2026-01-28 21:56:37.83	241.73	13.50	-45.8	-48.0	6.3	0.00e+00	0	46	104	0	63	18180
2026-01-28 21:56:38.80	241.97	13.56	-45.8	-47.8	6.3	0.00e+00	0	46	104	0	63	17918
2026-01-28 21:56:39.76	242.20	13.63	-45.8	-47.9	6.2	0.00e+00	0	47	104	0	63	17998
2026-01-28 21:56:40.73	242.44	13.69	-45.7	-47.7	6.3	0.00e+00	0	46	104	0	63	17629
2026-01-28 21:56:41.70	242.68	13.75	-45.6	-47.6	6.3	0.00e+00	0	46	104	0	63	17489
2026-01-28 21:56:42.66	242.92	13.82	-45.7	-47.7	6.3	0.00e+00	0	46	104	0	63	17595
2026-01-28 21:56:43.63	243.16	13.88	-46.6	-49.2	6.2	0.00e+00	0	46	104	0	63	20958
2026-01-28 21:56:44.60	243.40	13.94	-46.0	-48.2	6.2	0.00e+00	0	46	104	0	63	18776
2026-01-28 21:56:45.57	243.65	14.01	-45.8	-47.9	6.3	0.00e+00	0	47	104	0	63	17998
2026-01-28 21:56:46.54	243.89	14.07	-45.7	-47.7	6.3	0.00e+00	0	46	104	0	63	17749
2026-01-28 21:56:47.51	244.14	14.13	-45.6	-47.7	6.3	0.00e+00	0	46	104	0	63	17571
2026-01-28 21:56:48.48	244.39	14.19	-45.7	-47.7	6.3	0.00e+00	0	46	104	0	63	17620
2026-01-28 21:56:49.45	244.64	14.25	-45.7	-47.6	6.3	0.00e+00	0	46	104	0	63	17559
2026-01-28 21:56:50.41	244.88	14.32	-45.7	-47.6	6.3	0.00e+00	0	46	104	0	63	17556
2026-01-28 21:56:51.38	245.14	14.38	-46.7	-49.2	6.2	0.00e+00	0	47	104	0	63	21087
2026-01-28 21:56:52.34	245.39	14.44	-46.5	-48.9	6.2	0.00e+00	0	46	104	0	63	20270
2026-01-28 21:56:53.31	245.64	14.50	-45.7	-47.8	6.3	0.00e+00	0	46	104	0	63	17785
2026-01-28 21:56:54.28	245.89	14.56	-45.7	-47.7	6.3	0.00e+00	0	46	104	0	63	17727
2026-01-28 21:56:55.25	246.15	14.62	-45.8	-47.8	6.3	0.00e+00	0	46	104	0	63	17818
2026-01-28 21:56:56.21	246.41	14.68	-45.8	-47.8	6.3	0.00e+00	0	46	104	0	63	17924
2026-01-28 21:56:57.18	246.66	14.74	-45.8	-47.9	6.3	0.00e+00	0	46	104	0	63	17999
2026-01-28 21:56:58.15	246.92	14.80	-46.4	-48.8	6.2	0.00e+00	0	46	104	0	63	20130
2026-01-28 21:56:59.12	247.19	14.86	-46.6	-49.2	6.2	0.00e+00	0	47	104	0	63	20901
2026-01-28 21:57:00.09	247.45	14.91	-46.5	-48.9	6.2	0.00e+00	0	46	104	0	63	20191
2026-01-28 21:57:01.05	247.71	14.97	-46.7	-49.2	6.2	0.00e+00	0	46	104	0	64	19931
2026-01-28 21:57:02.03	247.98	15.03	-46.6	-49.1	6.2	0.00e+00	0	46	104	0	64	19703
2026-01-28 21:57:02.99	248.24	15.09	-46.1	-48.3	6.2	0.00e+00	0	46	104	0	64	17931
2026-01-28 21:57:03.96	248.51	15.14	-46.1	-48.2	6.3	0.00e+00	0	46	104	0	64	17667
2026-01-28 21:57:04.93	248.77	15.20	-46.5	-48.9	6.2	0.00e+00	0	46	104	0	64	19144
2026-01-28 21:57:05.90	249.04	15.26	-46.5	-49.0	6.2	0.00e+00	0	46	104	0	64	19400
2026-01-28 21:57:06.87	249.31	15.31	-46.6	-49.1	6.2	0.00e+00	0	46	104	0	64	19691
2026-01-28 21:57:07.83	249.58	15.37	-46.6	-49.1	6.2	0.00e+00	0	46	104	0	64	19589
2026-01-28 21:57:08.80	249.85	15.43	-46.5	-49.0	6.2	0.00e+00	0	46	104	0	64	19342
2026-01-28 21:57:09.77	250.13	15.48	-45.9	-48.0	6.2	0.00e+00	0	46	104	0	63	18278
2026-01-28 21:57:10.74	250.40	15.54	-45.9	-47.9	6.3	0.00e+00	0	46	104	0	63	18079
2026-01-28 21:57:11.71	250.68	15.59	-45.8	-47.8	6.3	0.00e+00	0	46	104	0	63	17929
2026-01-28 21:57:12.68	250.96	15.64	-45.8	-47.9	6.3	0.00e+00	0	46	104	0	63	18001
2026-01-28 21:57:13.64	251.23	15.70	-45.9	-48.0	6.2	0.00e+00	0	46	104	0	63	18244
2026-01-28 21:57:14.61	251.51	15.75	-46.7	-49.2	6.2	0.00e+00	0	46	104	0	63	21042
2026-01-28 21:57:15.58	251.79	15.80	-46.5	-49.0	6.2	0.00e+00	0	47	104	0	64	19273
2026-01-28 21:57:16.55	252.07	15.85	-46.5	-49.0	6.2	0.00e+00	0	46	104	0	64	19317
2026-01-28 21:57:17.52	252.36	15.91	-46.7	-49.2	6.2	0.00e+00	0	46	104	0	64	19794
2026-01-28 21:57:18.49	252.64	15.96	-46.6	-49.0	6.2	0.00e+00	0	46	104	0	64	19425
2026-01-28 21:57:19.45	252.92	16.01	-46.7	-49.2	6.2	0.00e+00	0	47	104	0	64	19759
2026-01-28 21:57:20.42	253.21	16.06	-46.6	-49.0	6.2	0.00e+00	0	47	104	0	64	19417
2026-01-28 21:57:21.39	253.50	16.11	-46.7	-49.2	6.2	0.00e+00	0	46	104	0	64	19737
2026-01-28 21:57:22.36	253.78	16.16	-46.6	-49.1	6.2	0.00e+00	0	47	104	0	64	19544
2026-01-28 21:57:23.35	254.08	16.21	-46.7	-49.2	6.2	0.00e+00	0	46	104	0	64	19766
2026-01-28 21:57:24.33	254.37	16.26	-46.6	-49.1	6.2	0.00e+00	0	46	104	0	64	19568
2026-01-28 21:57:25.31	254.67	16.30	-46.7	-49.2	6.2	0.00e+00	0	46	104	0	64	19730
2026-01-28 21:57:26.29	254.96	16.35	-46.6	-49.1	6.2	0.00e+00	0	46	104	0	64	19530
2026-01-28 21:57:27.27	255.26	16.40	-46.6	-49.1	6.2	0.00e+00	0	46	104	0	64	19586
2026-01-28 21:57:28.26	255.56	16.45	-46.6	-49.1	6.2	0.00e+00	0	47	104	0	64	19625
2026-01-28 21:57:29.24	255.86	16.49	-46.7	-49.1	6.2	0.00e+00	0	46	104	0	64	19634
2026-01-28 21:57:30.23	256.16	16.54	-46.6	-49.1	6.2	0.00e+00	0	47	104	0	64	19673
2026-01-28 21:57:31.21	256.46	16.58	-46.5	-49.0	6.2	0.00e+00	0	46	104	0	64	19393
2026-01-28 21:57:32.19	256.76	16.63	-46.6	-49.1	6.2	0.00e+00	0	46	104	0	64	19583
2026-01-28 21:57:33.17	257.07	16.67	-46.6	-49.2	6.2	0.00e+00	0	46	104	0	64	19715
2026-01-28 21:57:34.16	257.37	16.72	-46.6	-49.1	6.2	0.00e+00	0	46	104	0	64	19580
2026-01-28 21:57:35.13	257.67	16.76	-46.5	-48.9	6.2	0.00e+00	0	47	104	0	64	19237
2026-01-28 21:57:36.11	257.98	16.80	-46.5	-49.0	6.2	0.00e+00	0	46	104	0	64	19377
2026-01-28 21:57:37.10	258.29	16.84	-46.7	-49.1	6.2	0.00e+00	0	46	104	0	64	19653
2026-01-28 21:57:38.08	258.60	16.88	-46.6	-49.1	6.2	0.00e+00	0	47	104	0	64	19592
2026-01-28 21:57:39.07	258.91	16.92	-46.5	-49.0	6.2	0.00e+00	0	47	104	0	64	19370
2026-01-28 21:57:40.05	259.22	16.96	-46.6	-49.0	6.2	0.00e+00	0	46	104	0	64	19449
2026-01-28 21:57:41.03	259.53	17.00	-46.6	-49.2	6.2	0.00e+00	0	46	104	0	64	19713
2026-01-28 21:57:42.02	259.84	17.04	-46.6	-49.1	6.2	0.00e+00	0	47	104	0	64	19669
2026-01-28 21:57:43.00	260.16	17.08	-46.6	-49.1	6.2	0.00e+00	0	47	104	0	64	19575
2026-01-28 21:57:43.98	260.47	17.12	-46.5	-48.9	6.2	0.00e+00	0	46	104	0	64	19201
2026-01-28 21:57:44.96	260.78	17.15	-46.6	-49.1	6.2	0.00e+00	0	47	104	0	64	19596
2026-01-28 21:57:45.95	261.10	17.19	-46.7	-49.2	6.2	0.00e+00	0	47	104	0	64	19727
2026-01-28 21:57:46.93	261.42	17.22	-46.6	-49.1	6.2	0.00e+00	0	46	104	0	64	19615
2026-01-28 21:57:47.91	261.73	17.26	-46.6	-49.0	6.2	0.00e+00	0	47	104	0	64	19342
2026-01-28 21:57:48.89	262.05	17.29	-46.6	-49.1	6.2	0.00e+00	0	46	104	0	64	19636
2026-01-28 21:57:49.88	262.37	17.32	-46.7	-49.2	6.2	0.00e+00	0	47	104	0	64	19855
2026-01-28 21:57:50.86	262.69	17.36	-46.6	-49.1	6.2	0.00e+00	0	46	104	0	64	19614
2026-01-28 21:57:51.85	263.01	17.39	-46.6	-49.0	6.2	0.00e+00	0	47	104	0	64	19420
2026-01-28 21:57:52.83	263.33	17.42	-46.6	-49.1	6.2	0.00e+00	0	47	104	0	64	19594
2026-01-28 21:57:53.81	263.65	17.45	-46.7	-49.3	6.2	0.00e+00	0	47	104	0	64	19955
2026-01-28 21:57:54.80	263.98	17.48	-46.7	-49.1	6.2	0.00e+00	0	47	104	0	64	19651
2026-01-28 21:57:55.78	264.30	17.50	-46.6	-49.1	6.2	0.00e+00	0	47	104	0	64	19555
2026-01-28 21:57:56.77	264.63	17.53	-46.6	-49.1	6.2	0.00e+00	0	47	104	0	64	19523
2026-01-28 21:57:57.76	264.95	17.56	-46.8	-49.3	6.2	0.00e+00	0	47	104	0	64	20028
2026-01-28 21:57:58.74	265.28	17.59	-46.7	-49.2	6.2	0.00e+00	0	46	104	0	64	19921
2026-01-28 21:57:59.72	265.60	17.61	-46.6	-49.1	6.2	0.00e+00	0	47	104	0	64	19616
2026-01-28 21:58:00.70	265.93	17.64	-46.6	-49.1	6.2	0.00e+00	0	47	104	0	64	19577
2026-01-28 21:58:01.69	266.26	17.66	-46.8	-49.3	6.2	0.00e+00	0	46	104	0	64	20146
2026-01-28 21:58:02.67	266.58	17.68	-46.8	-49.3	6.2	0.00e+00	0	47	104	0	64	20032
2026-01-28 21:58:03.65	266.91	17.70	-46.6	-49.1	6.2	0.00e+00	0	46	104	0	64	19567
2026-01-28 21:58:04.64	267.24	17.73	-46.6	-49.1	6.2	0.00e+00	0	46	104	0	64	19637
2026-01-28 21:58:05.62	267.57	17.75	-46.8	-49.3	6.2	0.00e+00	0	46	104	0	64	20131
2026-01-28 21:58:06.60	267.90	17.77	-46.8	-49.3	6.2	0.00e+00	0	46	104	0	64	20028
2026-01-28 21:58:07.58	268.23	17.79	-46.6	-49.1	6.2	0.00e+00	0	46	104	0	64	19507
2026-01-28 21:58:08.56	268.56	17.80	-46.7	-49.1	6.2	0.00e+00	0	47	104	0	64	19614
2026-01-28 21:58:09.55	268.89	17.82	-46.8	-49.4	6.2	0.00e+00	0	46	104	0	64	20170
2026-01-28 21:58:10.53	269.22	17.84	-46.8	-49.3	6.2	0.00e+00	0	47	104	0	64	19947
2026-01-28 21:58:11.50	269.55	17.85	-46.6	-49.1	6.2	0.00e+00	0	46	104	0	64	19574
2026-01-28 21:58:12.49	269.88	17.87	-46.7	-49.2	6.2	0.00e+00	0	47	104	0	64	19728
2026-01-28 21:58:13.47	270.21	17.88	-46.8	-49.3	6.2	0.00e+00	0	46	104	0	64	20085
2026-01-28 21:58:14.45	270.55	17.90	-46.8	-49.3	6.2	0.00e+00	0	47	104	0	64	20095
2026-01-28 21:58:15.43	270.88	17.91	-46.7	-49.2	6.2	0.00e+00	0	47	104	0	64	19736
2026-01-28 21:58:16.41	271.21	17.92	-46.7	-49.3	6.2	0.00e+00	0	47	104	0	64	19966
2026-01-28 21:58:17.39	271.54	17.93	-46.8	-49.3	6.2	0.00e+00	0	47	104	0	64	20016
2026-01-28 21:58:18.37	271.88	17.94	-46.8	-49.3	6.2	0.00e+00	0	46	104	0	64	20150
2026-01-28 21:58:19.34	272.21	17.95	-46.7	-49.2	6.2	0.00e+00	0	47	104	0	64	19906
2026-01-28 21:58:20.33	272.54	17.96	-46.8	-49.3	6.2	0.00e+00	0	47	104	0	64	20024
2026-01-28 21:58:21.31	272.88	17.96	-46.8	-49.4	6.2	0.00e+00	0	47	104	0	64	20217
2026-01-28 21:58:22.28	273.21	17.97	-46.9	-49.4	6.2	0.00e+00	0	46	104	0	64	20227
2026-01-28 21:58:23.26	273.54	17.98	-46.8	-49.2	6.2	0.00e+00	0	47	104	0	64	19895
2026-01-28 21:58:24.24	273.87	17.98	-46.8	-49.3	6.2	0.00e+00	0	46	104	0	64	20097
2026-01-28 21:58:25.22	274.21	17.99	-46.9	-49.4	6.2	0.00e+00	0	47	104	0	64	20272
2026-01-28 21:58:26.20	274.54	17.99	-46.9	-49.4	6.2	0.00e+00	0	47	104	0	64	20285
2026-01-28 21:58:27.17	274.87	17.99	-46.8	-49.2	6.2	0.00e+00	0	46	104	0	64	19923
2026-01-28 21:58:28.15	275.21	17.99	-46.8	-49.3	6.2	0.00e+00	0	47	104	0	64	20051
2026-01-28 21:58:29.14	275.55	17.99	-46.9	-49.4	6.2	0.00e+00	0	46	104	0	64	20373
2026-01-28 21:58:30.12	275.88	17.99	-46.9	-49.4	6.2	0.00e+00	0	47	104	0	64	20369
2026-01-28 21:58:31.10	276.21	17.99	-46.8	-49.2	6.2	0.00e+00	0	47	104	0	64	19879
2026-01-28 21:58:32.09	276.55	17.99	-46.9	-49.4	6.2	0.00e+00	0	46	104	0	64	20198
2026-01-28 21:58:33.07	276.89	17.99	-47.0	-49.5	6.2	0.00e+00	0	47	104	0	64	20502
2026-01-28 21:58:34.06	277.22	17.98	-46.9	-49.4	6.2	0.00e+00	0	46	104	0	64	20381
2026-01-28 21:58:35.04	277.56	17.98	-46.8	-49.3	6.2	0.00e+00	0	46	104	0	64	20090
2026-01-28 21:58:36.02	277.89	17.97	-46.8	-49.4	6.2	0.00e+00	0	47	104	0	64	20171
2026-01-28 21:58:37.00	278.22	17.97	-47.0	-49.5	6.2	0.00e+00	0	46	104	0	64	20575
2026-01-28 21:58:37.99	278.56	17.96	-46.9	-49.4	6.2	0.00e+00	0	46	104	0	64	20248
2026-01-28 21:58:38.97	278.89	17.95	-47.0	-49.5	6.2	0.00e+00	0	47	104	0	64	20460
2026-01-28 21:58:39.95	279.23	17.94	-46.8	-49.3	6.2	0.00e+00	0	46	104	0	64	20131
2026-01-28 21:58:40.93	279.56	17.93	-47.1	-49.6	6.2	0.00e+00	0	47	104	0	64	20701
2026-01-28 21:58:41.92	279.90	17.92	-47.0	-49.4	6.2	0.00e+00	0	47	104	0	64	20336
2026-01-28 21:58:42.89	280.23	17.91	-47.0	-49.5	6.2	0.00e+00	0	47	104	0	64	20475
2026-01-28 21:58:43.88	280.56	17.90	-46.9	-49.3	6.2	0.00e+00	0	47	104	0	64	20125
2026-01-28 21:58:44.86	280.89	17.88	-47.0	-49.5	6.2	0.00e+00	0	47	104	0	64	20542
2026-01-28 21:58:45.85	281.23	17.87	-47.0	-49.4	6.2	0.00e+00	0	47	104	0	64	20393
2026-01-28 21:58:46.83	281.56	17.86	-46.9	-49.4	6.2	0.00e+00	0	46	104	0	64	20250
2026-01-28 21:58:47.81	281.89	17.84	-46.9	-49.4	6.2	0.00e+00	0	47	104	0	64	20193
2026-01-28 21:58:48.79	282.22	17.82	-47.0	-49.5	6.2	0.00e+00	0	47	104	0	64	20563
2026-01-28 21:58:49.78	282.55	17.81	-47.0	-49.5	6.2	0.00e+00	0	46	104	0	64	20591
2026-01-28 21:58:50.76	282.88	17.79	-47.0	-49.4	6.2	0.00e+00	0	46	104	0	64	20346
2026-01-28 21:58:51.74	283.21	17.77	-47.0	-49.4	6.2	0.00e+00	0	46	104	0	64	20371
2026-01-28 21:58:52.72	283.54	17.75	-47.0	-49.5	6.2	0.00e+00	0	46	104	0	64	20519
2026-01-28 21:58:53.71	283.87	17.73	-47.0	-49.5	6.2	0.00e+00	0	46	104	0	64	20482
2026-01-28 21:58:54.69	284.20	17.71	-47.0	-49.5	6.2	0.00e+00	0	47	104	0	64	20466
2026-01-28 21:58:55.68	284.53	17.68	-47.0	-49.5	6.2	0.00e+00	0	46	104	0	64	20561
2026-01-28 21:58:56.67	284.86	17.66	-47.0	-49.5	6.2	0.00e+00	0	47	104	0	64	20583
2026-01-28 21:58:57.65	285.18	17.64	-47.0	-49.4	6.2	0.00e+00	0	47	104	0	64	20269
2026-01-28 21:58:58.64	285.51	17.61	-47.0	-49.5	6.2	0.00e+00	0	47	104	0	64	20472
2026-01-28 21:58:59.62	285.84	17.59	-47.0	-49.5	6.2	0.00e+00	0	47	104	0	64	20586
2026-01-28 21:59:00.61	286.16	17.56	-47.0	-49.5	6.2	0.00e+00	0	47	104	0	64	20544
2026-01-28 21:59:01.57	286.48	17.54	-47.0	-49.4	6.2	0.00e+00	0	46	104	0	64	20354
2026-01-28 21:59:02.54	286.80	17.51	-46.9	-49.3	6.2	0.00e+00	0	47	104	0	64	20097
2026-01-28 21:59:03.51	287.12	17.48	-47.1	-49.5	6.2	0.00e+00	0	46	104	0	64	20624
2026-01-28 21:59:04.48	287.44	17.45	-47.1	-49.5	6.2	0.00e+00	0	46	104	0	64	20601
2026-01-28 21:59:05.46	287.76	17.42	-47.1	-49.7	6.2	0.00e+00	0	47	104	0	64	20909
2026-01-28 21:59:06.43	288.07	17.39	-47.0	-49.4	6.2	0.00e+00	0	46	104	0	64	20289
2026-01-28 21:59:07.40	288.39	17.36	-47.0	-49.5	6.2	0.00e+00	0	47	104	0	64	20442
2026-01-28 21:59:08.36	288.70	17.33	-47.0	-49.5	6.2	0.00e+00	0	47	104	0	64	20545
2026-01-28 21:59:09.33	289.01	17.30	-47.2	-49.7	6.2	0.00e+00	0	47	104	0	64	21003
2026-01-28 21:59:10.30	289.33	17.27	-47.1	-49.6	6.2	0.00e+00	0	47	104	0	64	20695
2026-01-28 21:59:11.27	289.64	17.23	-47.1	-49.6	6.2	0.00e+00	0	47	104	0	64	20727
2026-01-28 21:59:12.24	289.95	17.20	-47.1	-49.5	6.2	0.00e+00	0	47	104	0	64	20617
2026-01-28 21:59:13.21	290.26	17.16	-47.2	-49.7	6.2	0.00e+00	0	47	104	0	65	19855
2026-01-28 21:59:14.18	290.57	17.13	-47.1	-49.6	6.2	0.00e+00	0	47	104	0	65	19615
2026-01-28 21:59:15.15	290.88	17.09	-47.2	-49.6	6.2	0.00e+00	0	46	104	0	65	19684
2026-01-28 21:59:16.11	291.19	17.05	-47.2	-49.7	6.2	0.00e+00	0	47	104	0	65	19803
2026-01-28 21:59:17.08	291.50	17.02	-47.1	-49.5	6.2	0.00e+00	0	46	104	0	65	19294
2026-01-28 21:59:18.05	291.80	16.98	-46.7	-48.9	6.2	0.00e+00	0	47	104	0	65	18126
2026-01-28 21:59:19.02	292.11	16.94	-46.6	-48.7	6.2	0.00e+00	0	47	104	0	65	17733
2026-01-28 21:59:19.98	292.41	16.90	-46.5	-48.6	6.2	0.00e+00	0	46	104	0	65	17403
2026-01-28 21:59:20.95	292.72	16.86	-46.7	-48.9	6.2	0.00e+00	0	47	104	0	64	19063
2026-01-28 21:59:21.92	293.02	16.82	-46.6	-48.9	6.2	0.00e+00	0	46	104	0	64	19036
2026-01-28 21:59:22.89	293.32	16.78	-46.7	-48.9	6.2	0.00e+00	0	46	104	0	64	19149
2026-01-28 21:59:23.86	293.62	16.74	-47.0	-49.5	6.2	0.00e+00	0	47	104	0	64	20435
2026-01-28 21:59:24.82	293.92	16.69	-46.9	-49.2	6.2	0.00e+00	0	47	104	0	64	19738
2026-01-28 21:59:25.79	294.22	16.65	-46.7	-48.9	6.2	0.00e+00	0	47	104	0	64	19119
2026-01-28 21:59:26.76	294.52	16.61	-46.8	-49.0	6.2	0.00e+00	0	46	104	0	64	19478
2026-01-28 21:59:27.73	294.82	16.56	-46.7	-48.9	6.2	0.00e+00	0	46	104	0	64	19251
2026-01-28 21:59:28.70	295.11	16.52	-46.7	-48.9	6.2	0.00e+00	0	47	104	0	64	19215
2026-01-28 21:59:29.67	295.41	16.47	-46.8	-49.2	6.2	0.00e+00	0	47	104	0	64	19768
2026-01-28 21:59:30.63	295.70	16.43	-46.8	-49.2	6.2	0.00e+00	0	47	104	0	64	19757
2026-01-28 21:59:31.61	296.00	16.38	-46.5	-48.6	6.2	0.00e+00	0	46	104	0	64	18451
2026-01-28 21:59:32.57	296.29	16.34	-46.6	-48.8	6.2	0.00e+00	0	47	104	0	64	18964
2026-01-28 21:59:33.54	296.58	16.29	-46.7	-48.9	6.2	0.00e+00	0	47	104	0	64	19192
2026-01-28 21:59:34.52	296.87	16.24	-46.6	-48.9	6.2	0.00e+00	0	47	104	0	64	19109
2026-01-28 21:59:35.49	297.16	16.19	-46.6	-48.8	6.2	0.00e+00	0	47	104	0	64	18911
2026-01-28 21:59:36.46	297.45	16.14	-46.5	-48.7	6.2	0.00e+00	0	46	104	0	64	18761
2026-01-28 21:59:37.43	297.73	16.09	-46.4	-48.5	6.2	0.00e+00	0	47	104	0	64	18373
2026-01-28 21:59:38.39	298.02	16.04	-46.5	-48.6	6.2	0.00e+00	0	46	104	0	64	18594
2026-01-28 21:59:39.36	298.30	15.99	-46.5	-48.7	6.2	0.00e+00	0	46	104	0	64	18649
2026-01-28 21:59:40.33	298.59	15.94	-46.3	-48.3	6.2	0.00e+00	0	47	104	0	64	17940
2026-01-28 21:59:41.30	298.87	15.89	-46.6	-48.8	6.2	0.00e+00	0	47	104	0	64	18938
2026-01-28 21:59:42.27	299.15	15.84	-46.5	-48.7	6.2	0.00e+00	0	47	104	0	64	18729
2026-01-28 21:59:43.25	299.43	15.79	-46.5	-48.8	6.2	0.00e+00	0	46	104	0	64	18961
2026-01-28 21:59:44.22	299.71	15.73	-46.5	-48.8	6.2	0.00e+00	0	47	104	0	64	18956
2026-01-28 21:59:45.19	299.99	15.68	-46.5	-48.8	6.2	0.00e+00	0	46	104	0	64	18957
2026-01-28 21:59:46.16	300.27	15.63	-46.4	-48.6	6.2	0.00e+00	0	47	104	0	64	18447
2026-01-28 21:59:47.13	300.55	15.57	-46.6	-48.8	6.2	0.00e+00	0	46	104	0	64	18952
2026-01-28 21:59:48.10	300.82	15.52	-46.6	-48.9	6.2	0.00e+00	0	47	104	0	64	19167
2026-01-28 21:59:49.07	301.09	15.46	-46.5	-48.8	6.2	0.00e+00	0	47	104	0	64	18907
2026-01-28 21:59:50.04	301.37	15.41	-46.4	-48.6	6.2	0.00e+00	0	47	104	0	64	18552
2026-01-28 21:59:51.02	301.64	15.35	-46.3	-48.5	6.2	0.00e+00	0	47	104	0	64	18354
2026-01-28 21:59:51.99	301.91	15.30	-46.3	-48.4	6.2	0.00e+00	0	47	104	0	64	18113
2026-01-28 21:59:52.96	302.18	15.24	-46.6	-48.8	6.2	0.00e+00	0	47	104	0	64	19018
2026-01-28 21:59:53.93	302.45	15.19	-46.4	-48.6	6.2	0.00e+00	0	47	104	0	64	18520
2026-01-28 21:59:54.90	302.72	15.13	-46.8	-49.3	6.2	0.00e+00	0	47	104	0	64	20055
2026-01-28 21:59:55.87	302.98	15.07	-46.8	-49.2	6.2	0.00e+00	0	47	104	0	64	19874
2026-01-28 21:59:56.84	303.25	15.01	-46.1	-48.2	6.3	0.00e+00	0	47	104	0	64	17627
2026-01-28 21:59:57.80	303.51	14.96	-46.5	-48.8	6.2	0.00e+00	0	47	104	0	64	18893
2026-01-28 21:59:58.77	303.77	14.90	-45.9	-47.9	6.3	0.00e+00	0	46	104	0	63	18007
2026-01-28 21:59:59.74	304.03	14.84	-45.9	-47.8	6.3	0.00e+00	0	47	104	0	63	17835
2026-01-28 22:00:00.71	304.29	14.78	-45.9	-47.9	6.3	0.00e+00	0	47	104	0	63	17974
2026-01-28 22:00:01.67	304.54	14.72	-46.5	-48.8	6.2	0.00e+00	0	46	104	0	63	19990
2026-01-28 22:00:02.64	304.80	14.66	-46.5	-48.7	6.2	0.00e+00	0	46	104	0	63	19768
2026-01-28 22:00:03.61	305.06	14.60	-46.7	-49.1	6.2	0.00e+00	0	47	104	0	64	19685
2026-01-28 22:00:04.58	305.31	14.54	-46.6	-48.9	6.2	0.00e+00	0	47	104	0	64	19083
2026-01-28 22:00:05.55	305.57	14.48	-46.8	-49.3	6.2	0.00e+00	0	47	104	0	64	20141
2026-01-28 22:00:06.52	305.82	14.42	-46.8	-49.3	6.2	0.00e+00	0	47	104	0	64	20054
2026-01-28 22:00:07.48	306.07	14.36	-46.8	-49.2	6.2	0.00e+00	0	47	104	0	64	19919
2026-01-28 22:00:08.46	306.32	14.30	-46.7	-49.2	6.2	0.00e+00	0	47	104	0	64	19743
2026-01-28 22:00:09.42	306.57	14.24	-46.7	-49.1	6.2	0.00e+00	0	47	104	0	64	19704
2026-01-28 22:00:10.39	306.82	14.18	-46.8	-49.2	6.2	0.00e+00	0	47	104	0	64	19899
2026-01-28 22:00:11.36	307.06	14.12	-46.5	-48.9	6.2	0.00e+00	0	47	104	0	64	19084
2026-01-28 22:00:12.33	307.31	14.05	-46.6	-48.9	6.2	0.00e+00	0	47	104	0	64	19255
2026-01-28 22:00:13.30	307.55	13.99	-46.5	-48.8	6.2	0.00e+00	0	47	104	0	64	18909
2026-01-28 22:00:14.27	307.80	13.93	-46.6	-49.0	6.2	0.00e+00	0	47	104	0	64	19342
2026-01-28 22:00:15.24	308.04	13.87	-46.7	-49.1	6.2	0.00e+00	0	47	104	0	64	19524
2026-01-28 22:00:16.21	308.28	13.80	-46.7	-49.1	6.2	0.00e+00	0	47	104	0	64	19687
2026-01-28 22:00:17.18	308.52	13.74	-46.8	-49.3	6.2	0.00e+00	0	47	104	0	64	19990
2026-01-28 22:00:18.15	308.76	13.68	-46.5	-48.9	6.2	0.00e+00	0	47	104	0	64	19092
2026-01-28 22:00:19.12	309.00	13.61	-46.6	-48.9	6.2	0.00e+00	0	46	104	0	64	19137
2026-01-28 22:00:20.09	309.23	13.55	-46.6	-49.0	6.2	0.00e+00	0	47	104	0	64	19348
2026-01-28 22:00:21.05	309.46	13.49	-46.6	-48.9	6.2	0.00e+00	0	47	104	0	64	19208
2026-01-28 22:00:22.02	309.70	13.42	-46.5	-48.9	6.2	0.00e+00	0	47	104	0	64	19229
2026-01-28 22:00:22.99	309.93	13.36	-46.4	-48.7	6.2	0.00e+00	0	47	104	0	64	18782
2026-01-28 22:00:23.96	310.16	13.29	-46.4	-48.7	6.2	0.00e+00	0	47	104	0	64	18633
2026-01-28 22:00:24.93	310.39	13.23	-46.3	-48.6	6.2	0.00e+00	0	47	104	0	64	18520
2026-01-28 22:00:25.90	310.62	13.16	-46.5	-48.8	6.2	0.00e+00	0	47	104	0	64	18962
2026-01-28 22:00:26.87	310.85	13.10	-46.3	-48.6	6.2	0.00e+00	0	47	104	0	64	18463
2026-01-28 22:00:27.84	311.08	13.03	-46.2	-48.5	6.2	0.00e+00	0	47	104	0	64	18302
2026-01-28 22:00:28.81	311.30	12.97	-46.4	-48.7	6.2	0.00e+00	0	47	104	0	64	18663
2026-01-28 22:00:29.77	311.53	12.90	-46.1	-48.3	6.2	0.00e+00	0	47	104	0	64	17807
2026-01-28 22:00:30.74	311.75	12.84	-46.0	-48.1	6.2	0.00e+00	0	47	104	0	64	17499
2026-01-28 22:00:31.71	311.97	12.77	-46.0	-48.1	6.3	0.00e+00	0	47	104	0	63	18454
2026-01-28 22:00:32.68	312.19	12.71	-46.0	-48.0	6.3	0.00e+00	0	47	104	0	63	18306
2026-01-28 22:00:33.64	312.41	12.64	-46.1	-48.2	6.2	0.00e+00	0	47	104	0	63	18711
2026-01-28 22:00:34.61	312.63	12.58	-46.4	-48.8	6.2	0.00e+00	0	47	104	0	63	20060
2026-01-28 22:00:35.58	312.85	12.51	-46.1	-48.3	6.2	0.00e+00	0	46	104	0	63	18892
2026-01-28 22:00:36.55	313.06	12.44	-46.2	-48.5	6.2	0.00e+00	0	47	104	0	63	19327
2026-01-28 22:00:37.52	313.28	12.38	-46.0	-48.1	6.3	0.00e+00	0	47	104	0	63	18578
2026-01-28 22:00:38.49	313.49	12.31	-46.1	-48.3	6.2	0.00e+00	0	47	104	0	63	19004
2026-01-28 22:00:39.46	313.71	12.25	-46.2	-48.4	6.2	0.00e+00	0	47	104	0	63	19236
2026-01-28 22:00:40.43	313.92	12.18	-46.2	-48.4	6.2	0.00e+00	0	47	104	0	63	19095
2026-01-28 22:00:41.39	314.13	12.11	-46.1	-48.3	6.2	0.00e+00	0	47	104	0	63	18968
2026-01-28 22:00:42.36	314.34	12.05	-46.1	-48.3	6.2	0.00e+00	0	46	104	0	63	19025
2026-01-28 22:00:43.33	314.55	11.98	-46.4	-48.8	6.2	0.00e+00	0	47	104	0	63	20046
2026-01-28 22:00:44.30	314.75	11.91	-46.1	-48.3	6.2	0.00e+00	0	46	104	0	63	18899
2026-01-28 22:00:45.27	314.96	11.85	-46.1	-48.3	6.2	0.00e+00	0	47	104	0	63	18825
2026-01-28 22:00:46.23	315.16	11.78	-46.1	-48.3	6.2	0.00e+00	0	47	104	0	63	18825
2026-01-28 22:00:47.20	315.37	11.71	-45.8	-47.8	6.3	0.00e+00	0	46	104	0	63	17922
2026-01-28 22:00:48.17	315.57	11.65	-45.7	-47.7	6.3	0.00e+00	0	46	104	0	63	17600
2026-01-28 22:00:49.14	315.77	11.58	-45.7	-47.8	6.3	0.00e+00	0	46	104	0	63	17831
2026-01-28 22:00:50.10	315.97	11.51	-46.0	-48.1	6.2	0.00e+00	0	47	104	0	63	18504
2026-01-28 22:00:51.07	316.17	11.45	-46.5	-49.0	6.2	0.00e+00	0	47	104	0	63	20528
2026-01-28 22:00:52.04	316.37	11.38	-45.9	-48.0	6.2	0.00e+00	0	47	104	0	63	18289
2026-01-28 22:00:53.00	316.57	11.31	-46.0	-48.1	6.3	0.00e+00	0	47	104	0	62	19653
2026-01-28 22:00:53.98	316.77	11.25	-46.0	-48.2	6.2	0.00e+00	0	47	104	0	62	19770
2026-01-28 22:00:54.95	316.96	11.18	-45.5	-47.5	6.3	0.00e+00	0	47	104	0	62	18324
2026-01-28 22:00:55.92	317.16	11.11	-45.5	-47.4	6.3	0.00e+00	0	47	104	0	62	18174
2026-01-28 22:00:56.89	317.35	11.04	-45.5	-47.4	6.3	0.00e+00	0	47	104	0	62	17976
2026-01-28 22:00:57.86	317.55	10.98	-45.6	-47.7	6.3	0.00e+00	0	47	104	0	62	18614
2026-01-28 22:00:58.83	317.74	10.91	-46.1	-48.4	6.2	0.00e+00	0	47	104	0	62	20300
2026-01-28 22:00:59.80	317.93	10.84	-46.2	-48.6	6.2	0.00e+00	0	47	104	0	63	19661
2026-01-28 22:01:00.76	318.12	10.78	-45.7	-47.8	6.3	0.00e+00	0	47	104	0	62	18955
2026-01-28 22:01:01.73	318.31	10.71	-46.0	-48.1	6.2	0.00e+00	0	47	104	0	62	19610
2026-01-28 22:01:02.70	318.49	10.64	-45.4	-47.3	6.3	0.00e+00	0	47	104	0	62	17946
2026-01-28 22:01:03.67	318.68	10.57	-45.3	-47.2	6.3	0.00e+00	0	47	104	0	62	17765
2026-01-28 22:01:04.64	318.87	10.51	-45.2	-47.0	6.3	0.00e+00	0	47	104	0	62	17315
2026-01-28 22:01:05.61	319.05	10.44	-45.3	-47.2	6.3	0.00e+00	0	47	104	0	62	17579
2026-01-28 22:01:06.57	319.23	10.37	-45.7	-47.8	6.2	0.00e+00	0	47	104	0	62	18967
2026-01-28 22:01:07.54	319.42	10.31	-46.4	-48.8	6.2	0.00e+00	0	47	104	0	63	20151
2026-01-28 22:01:08.51	319.60	10.24	-45.3	-47.2	6.3	0.00e+00	0	46	104	0	62	17574
2026-01-28 22:01:09.47	319.78	10.17	-46.4	-48.8	6.2	0.00e+00	0	47	104	0	63	20101
2026-01-28 22:01:10.44	319.96	10.10	-45.4	-47.3	6.3	0.00e+00	0	47	104	0	62	17870
2026-01-28 22:01:11.41	320.14	10.04	-45.2	-47.1	6.3	0.00e+00	0	47	104	0	62	17514
2026-01-28 22:01:12.38	320.31	9.97	-45.2	-47.1	6.3	0.00e+00	0	47	104	0	62	17536
2026-01-28 22:01:13.35	320.49	9.90	-45.2	-47.1	6.3	0.00e+00	0	47	104	0	62	17486
2026-01-28 22:01:14.33	320.67	9.84	-45.7	-47.8	6.3	0.00e+00	0	47	104	0	62	18919
2026-01-28 22:01:15.30	320.84	9.77	-46.2	-48.7	6.2	0.00e+00	0	47	104	0	63	19846
2026-01-28 22:01:16.27	321.02	9.70	-45.3	-47.2	6.3	0.00e+00	0	47	104	0	62	17710
2026-01-28 22:01:17.24	321.19	9.63	-46.4	-48.9	6.2	0.00e+00	0	47	104	0	63	20309
2026-01-28 22:01:18.21	321.36	9.57	-45.4	-47.3	6.3	0.00e+00	0	47	104	0	62	17955
2026-01-28 22:01:19.18	321.54	9.50	-45.2	-47.1	6.3	0.00e+00	0	47	104	0	62	17416
2026-01-28 22:01:20.15	321.71	9.43	-45.2	-47.0	6.3	0.00e+00	0	47	104	0	62	17358
2026-01-28 22:01:21.12	321.88	9.37	-45.4	-47.4	6.3	0.00e+00	0	47	104	0	62	18098
2026-01-28 22:01:22.09	322.04	9.30	-45.5	-47.6	6.3	0.00e+00	0	47	104	0	62	18498
2026-01-28 22:01:23.06	322.21	9.23	-45.9	-48.2	6.2	0.00e+00	0	47	104	0	62	19775
2026-01-28 22:01:24.03	322.38	9.17	-45.6	-47.7	6.2	0.00e+00	0	47	104	0	62	18732
2026-01-28 22:01:24.99	322.54	9.10	-45.9	-48.2	6.2	0.00e+00	0	47	104	0	62	19880
2026-01-28 22:01:25.96	322.71	9.03	-45.6	-47.8	6.2	0.00e+00	0	47	104	0	63	17857
2026-01-28 22:01:26.94	322.87	8.97	-45.2	-47.2	6.3	0.00e+00	0	47	104	0	62	17607
2026-01-28 22:01:27.91	323.04	8.90	-45.0	-46.9	6.3	0.00e+00	0	47	104	0	62	17039
2026-01-28 22:01:28.88	323.20	8.83	-45.0	-46.8	6.3	0.00e+00	0	47	104	0	62	16964
2026-01-28 22:01:29.85	323.36	8.77	-45.2	-47.1	6.3	0.00e+00	0	47	104	0	62	17444
2026-01-28 22:01:30.82	323.52	8.70	-46.3	-48.9	6.2	0.00e+00	0	46	104	0	63	20259
2026-01-28 22:01:31.78	323.68	8.64	-46.4	-49.0	6.2	0.00e+00	0	47	104	0	63	20422
2026-01-28 22:01:32.76	323.84	8.57	-46.3	-48.9	6.2	0.00e+00	0	47	104	0	63	20169
2026-01-28 22:01:33.73	324.00	8.50	-46.2	-48.8	6.2	0.00e+00	0	47	104	0	63	20025
2026-01-28 22:01:34.69	324.16	8.44	-46.2	-48.8	6.2	0.00e+00	0	47	104	0	63	20039
2026-01-28 22:01:35.66	324.31	8.37	-46.3	-48.9	6.2	0.00e+00	0	47	104	0	63	20230
2026-01-28 22:01:36.63	324.47	8.31	-46.2	-48.8	6.2	0.00e+00	0	47	104	0	63	20014
2026-01-28 22:01:37.60	324.62	8.24	-46.2	-48.8	6.2	0.00e+00	0	47	104	0	63	19940
2026-01-28 22:01:38.57	324.78	8.17	-46.2	-48.7	6.2	0.00e+00	0	47	104	0	63	19879
2026-01-28 22:01:39.55	324.93	8.11	-46.3	-48.9	6.2	0.00e+00	0	46	104	0	63	20188
2026-01-28 22:01:40.51	325.08	8.04	-46.2	-48.7	6.2	0.00e+00	0	47	104	0	63	19923
2026-01-28 22:01:41.48	325.23	7.98	-46.2	-48.7	6.2	0.00e+00	0	47	104	0	63	19909
2026-01-28 22:01:42.45	325.38	7.91	-46.2	-48.7	6.2	0.00e+00	0	47	104	0	63	19788
2026-01-28 22:01:43.42	325.53	7.85	-46.3	-48.8	6.2	0.00e+00	0	47	104	0	63	20120
2026-01-28 22:01:44.39	325.68	7.78	-46.2	-48.7	6.2	0.00e+00	0	47	104	0	63	19803
2026-01-28 22:01:45.35	325.83	7.72	-46.2	-48.7	6.2	0.00e+00	0	47	104	0	63	19819
2026-01-28 22:01:46.32	325.98	7.65	-46.1	-48.6	6.2	0.00e+00	0	47	104	0	63	19699
2026-01-28 22:01:47.29	326.13	7.59	-46.2	-48.8	6.2	0.00e+00	0	47	104	0	63	20050
2026-01-28 22:01:48.26	326.27	7.52	-46.1	-48.7	6.2	0.00e+00	0	47	104	0	63	19797
2026-01-28 22:01:49.23	326.42	7.46	-46.1	-48.7	6.2	0.00e+00	0	47	104	0	63	19801
2026-01-28 22:01:50.19	326.56	7.39	-46.1	-48.6	6.2	0.00e+00	0	47	104	0	63	19704
2026-01-28 22:01:51.16	326.70	7.33	-46.2	-48.7	6.2	0.00e+00	0	47	104	0	63	19882
2026-01-28 22:01:52.13	326.85	7.26	-46.1	-48.6	6.2	0.00e+00	0	47	104	0	63	19632
2026-01-28 22:01:53.10	326.99	7.20	-46.1	-48.6	6.2	0.00e+00	0	47	104	0	63	19699
2026-01-28 22:01:54.07	327.13	7.13	-46.1	-48.6	6.2	0.00e+00	0	47	104	0	63	19626
2026-01-28 22:01:55.04	327.27	7.07	-46.1	-48.7	6.2	0.00e+00	0	47	104	0	63	19809
2026-01-28 22:01:56.00	327.41	7.01	-46.1	-48.6	6.2	0.00e+00	0	47	104	0	63	19678
2026-01-28 22:01:56.97	327.55	6.94	-46.1	-48.6	6.2	0.00e+00	0	47	104	0	63	19582
2026-01-28 22:01:57.94	327.69	6.88	-46.0	-48.6	6.2	0.00e+00	0	47	104	0	63	19487
2026-01-28 22:01:58.91	327.83	6.81	-46.1	-48.6	6.2	0.00e+00	0	47	104	0	63	19567
2026-01-28 22:01:59.88	327.96	6.75	-46.1	-48.6	6.2	0.00e+00	0	47	104	0	63	19611
2026-01-28 22:02:00.85	328.10	6.68	-46.0	-48.5	6.2	0.00e+00	0	46	104	0	63	19470
2026-01-28 22:02:01.82	328.24	6.62	-46.0	-48.5	6.2	0.00e+00	0	47	104	0	63	19447
2026-01-28 22:02:02.79	328.37	6.56	-46.0	-48.6	6.2	0.00e+00	0	47	104	0	63	19480
2026-01-28 22:02:03.76	328.50	6.49	-46.0	-48.6	6.2	0.00e+00	0	47	104	0	63	19531
2026-01-28 22:02:04.73	328.64	6.43	-46.0	-48.5	6.2	0.00e+00	0	47	104	0	63	19369
2026-01-28 22:02:05.69	328.77	6.37	-45.9	-48.5	6.2	0.00e+00	0	47	104	0	63	19333
2026-01-28 22:02:06.66	328.90	6.30	-45.9	-48.4	6.2	0.00e+00	0	47	104	0	63	19211
2026-01-28 22:02:07.63	329.03	6.24	-46.0	-48.6	6.2	0.00e+00	0	47	104	0	63	19520
2026-01-28 22:02:08.60	329.17	6.18	-45.9	-48.5	6.2	0.00e+00	0	47	104	0	63	19277
2026-01-28 22:02:09.57	329.30	6.11	-45.9	-48.5	6.2	0.00e+00	0	46	104	0	63	19296
2026-01-28 22:02:10.54	329.43	6.05	-45.8	-48.4	6.2	0.00e+00	0	47	104	0	63	19062
2026-01-28 22:02:11.51	329.55	5.99	-46.0	-48.5	6.2	0.00e+00	0	47	104	0	63	19474
2026-01-28 22:02:12.48	329.68	5.93	-45.9	-48.4	6.2	0.00e+00	0	47	104	0	63	19128
2026-01-28 22:02:13.45	329.81	5.86	-45.9	-48.4	6.2	0.00e+00	0	47	104	0	63	19219
2026-01-28 22:02:14.42	329.94	5.80	-45.8	-48.3	6.2	0.00e+00	0	47	104	0	63	18993
2026-01-28 22:02:15.39	330.06	5.74	-46.0	-48.5	6.2	0.00e+00	0	47	104	0	63	19396
2026-01-28 22:02:16.36	330.19	5.68	-45.8	-48.3	6.2	0.00e+00	0	47	104	0	63	19015
2026-01-28 22:02:17.33	330.31	5.61	-45.8	-48.4	6.2	0.00e+00	0	47	104	0	63	19074
2026-01-28 22:02:18.29	330.44	5.55	-45.7	-48.3	6.2	0.00e+00	0	46	104	0	63	18832
2026-01-28 22:02:19.26	330.56	5.49	-45.9	-48.5	6.2	0.00e+00	0	47	104	0	63	19306
2026-01-28 22:02:20.24	330.69	5.43	-45.8	-48.3	6.2	0.00e+00	0	47	104	0	63	18962
2026-01-28 22:02:21.21	330.81	5.36	-45.8	-48.3	6.2	0.00e+00	0	47	104	0	63	19001
2026-01-28 22:02:22.18	330.93	5.30	-45.7	-48.2	6.2	0.00e+00	0	47	104	0	63	18750
2026-01-28 22:02:23.15	331.05	5.24	-45.9	-48.4	6.2	0.00e+00	0	47	104	0	63	19161
2026-01-28 22:02:24.12	331.17	5.18	-45.7	-48.3	6.2	0.00e+00	0	47	104	0	63	18897
2026-01-28 22:02:25.09	331.29	5.12	-45.7	-48.3	6.2	0.00e+00	0	47	104	0	63	18861
2026-01-28 22:02:26.06	331.41	5.06	-45.8	-48.4	6.2	0.00e+00	0	47	104	0	63	19058
2026-01-28 22:02:27.03	331.53	4.99	-46.2	-48.8	6.2	0.00e+00	0	47	104	0	63	19962
2026-01-28 22:02:28.00	331.65	4.93	-46.5	-49.1	6.2	0.00e+00	0	47	104	0	63	20719
2026-01-28 22:02:28.97	331.77	4.87	-46.7	-49.2	6.2	0.00e+00	0	47	104	0	64	19907
2026-01-28 22:02:29.94	331.88	4.81	-46.8	-49.4	6.2	0.00e+00	0	47	104	0	64	20220
2026-01-28 22:02:30.90	332.00	4.75	-47.0	-49.5	6.2	0.00e+00	0	47	104	0	64	20507
2026-01-28 22:02:31.87	332.12	4.69	-47.0	-49.6	6.2	0.00e+00	0	47	104	0	64	20675
2026-01-28 22:02:32.84	332.23	4.63	-47.1	-49.6	6.2	0.00e+00	0	47	104	0	64	20804
2026-01-28 22:02:33.81	332.35	4.57	-47.1	-49.6	6.2	0.00e+00	0	47	104	0	64	20867
2026-01-28 22:02:34.79	332.46	4.51	-47.1	-49.6	6.2	0.00e+00	0	47	104	0	64	20783
2026-01-28 22:02:35.77	332.58	4.45	-47.0	-49.5	6.2	0.00e+00	0	47	104	0	64	20568
2026-01-28 22:02:36.74	332.69	4.39	-46.8	-49.4	6.2	0.00e+00	0	47	104	0	64	20174
2026-01-28 22:02:37.71	332.80	4.33	-46.8	-49.3	6.2	0.00e+00	0	47	104	0	64	20150
2026-01-28 22:02:38.68	332.91	4.27	-46.9	-49.4	6.2	0.00e+00	0	47	104	0	64	20348
2026-01-28 22:02:39.65	333.03	4.21	-46.9	-49.5	6.2	0.00e+00	0	47	104	0	64	20471
2026-01-28 22:02:40.62	333.14	4.15	-47.0	-49.5	6.2	0.00e+00	0	47	104	0	64	20528
2026-01-28 22:02:41.59	333.25	4.09	-47.0	-49.6	6.2	0.00e+00	0	47	104	0	64	20677
2026-01-28 22:02:42.56	333.36	4.03	-47.0	-49.6	6.2	0.00e+00	0	47	104	0	64	20771
2026-01-28 22:02:43.53	333.47	3.97	-47.1	-49.6	6.2	0.00e+00	0	47	104	0	64	20721
2026-01-28 22:02:44.49	333.58	3.91	-47.1	-49.6	6.2	0.00e+00	0	47	104	0	64	20834
2026-01-28 22:02:45.46	333.68	3.85	-47.1	-49.6	6.2	0.00e+00	0	47	104	0	64	20861
2026-01-28 22:02:46.43	333.79	3.79	-47.1	-49.7	6.2	0.00e+00	0	47	104	0	64	20910
2026-01-28 22:02:47.40	333.90	3.73	-47.1	-49.6	6.2	0.00e+00	0	47	104	0	64	20793
2026-01-28 22:02:48.37	334.01	3.67	-47.0	-49.5	6.2	0.00e+00	0	47	104	0	64	20593
2026-01-28 22:02:49.34	334.11	3.61	-47.0	-49.5	6.2	0.00e+00	0	47	104	0	64	20526
2026-01-28 22:02:50.31	334.22	3.55	-47.0	-49.5	6.2	0.00e+00	0	47	104	0	64	20511
2026-01-28 22:02:51.28	334.32	3.49	-46.9	-49.5	6.2	0.00e+00	0	47	104	0	64	20508
2026-01-28 22:02:52.25	334.43	3.43	-46.9	-49.5	6.2	0.00e+00	0	47	104	0	64	20433
2026-01-28 22:02:53.22	334.53	3.38	-46.9	-49.5	6.2	0.00e+00	0	47	104	0	64	20459
2026-01-28 22:02:54.19	334.64	3.32	-46.9	-49.4	6.2	0.00e+00	0	47	104	0	64	20378
2026-01-28 22:02:55.17	334.74	3.26	-46.9	-49.4	6.2	0.00e+00	0	47	104	0	64	20328
2026-01-28 22:02:56.13	334.84	3.20	-46.9	-49.4	6.2	0.00e+00	0	47	104	0	64	20326
2026-01-28 22:02:57.11	334.95	3.14	-46.9	-49.4	6.2	0.00e+00	0	47	104	0	64	20303
2026-01-28 22:02:58.08	335.05	3.08	-46.9	-49.4	6.2	0.00e+00	0	47	104	0	64	20260
2026-01-28 22:02:59.05	335.15	3.02	-46.8	-49.4	6.2	0.00e+00	0	47	104	0	64	20314
2026-01-28 22:03:00.02	335.25	2.97	-46.8	-49.4	6.2	0.00e+00	0	47	104	0	64	20266
2026-01-28 22:03:00.99	335.35	2.91	-46.8	-49.4	6.2	0.00e+00	0	47	104	0	64	20255
2026-01-28 22:03:01.96	335.45	2.85	-46.8	-49.4	6.2	0.00e+00	0	47	104	0	64	20178
2026-01-28 22:03:02.93	335.55	2.79	-46.8	-49.4	6.2	0.00e+00	0	47	104	0	64	20215
2026-01-28 22:03:03.90	335.65	2.73	-46.8	-49.4	6.2	0.00e+00	0	47	104	0	64	20197
2026-01-28 22:03:04.88	335.75	2.68	-46.8	-49.3	6.2	0.00e+00	0	47	104	0	64	20091
2026-01-28 22:03:05.85	335.85	2.62	-46.8	-49.3	6.2	0.00e+00	0	47	104	0	64	20048
2026-01-28 22:03:06.81	335.94	2.56	-46.8	-49.3	6.2	0.00e+00	0	47	104	0	64	20122
2026-01-28 22:03:07.78	336.04	2.51	-46.8	-49.3	6.2	0.00e+00	0	47	104	0	64	20069
2026-01-28 22:03:08.76	336.14	2.45	-46.8	-49.3	6.2	0.00e+00	0	47	104	0	64	20125
2026-01-28 22:03:09.73	336.23	2.39	-46.8	-49.3	6.2	0.00e+00	0	47	104	0	64	20034
2026-01-28 22:03:10.70	336.33	2.33	-46.7	-49.3	6.2	0.00e+00	0	47	104	0	64	20033
2026-01-28 22:03:11.67	336.43	2.28	-46.8	-49.3	6.2	0.00e+00	0	47	104	0	64	20097
2026-01-28 22:03:12.65	336.52	2.22	-46.7	-49.3	6.2	0.00e+00	0	47	104	0	64	20004
2026-01-28 22:03:13.62	336.62	2.16	-46.7	-49.3	6.2	0.00e+00	0	47	104	0	64	19936
2026-01-28 22:03:14.59	336.71	2.11	-46.7	-49.3	6.2	0.00e+00	0	47	104	0	64	19947
2026-01-28 22:03:15.56	336.80	2.05	-46.7	-49.3	6.2	0.00e+00	0	47	104	0	64	19960
2026-01-28 22:03:16.54	336.90	1.99	-46.7	-49.2	6.2	0.00e+00	0	47	104	0	64	19907
2026-01-28 22:03:17.52	336.99	1.94	-46.7	-49.2	6.2	0.00e+00	0	47	104	0	64	19932
2026-01-28 22:03:18.49	337.08	1.88	-46.7	-49.2	6.2	0.00e+00	0	47	104	0	64	19822

#Closed at: 2026-01-28 22:03:19
#Recorded file [0 MB]: D:/lorett/data/31045_260129_005344.dat