passes_logs/2025/01/22/LEX_Murmansk/LEX_Murmansk__20250122_093809_NOAA_18_rec.log

#Pass ID: 20250122_093809_NOAA 18
#Satellite: NOAA 18
#Configuration: NOAA 18
#Start time: 2025-01-22 09:38:04.952423

#LorettStation: 1.0.0 05.05.2024
#Station: LEX_Murmansk
#Location: 33.156738 lon 68.926811 lat
#TLE: 1 28654U 05018A   25021.17963601  .00000484  00000+0  28040-3 0  9994
#TLE: 2 28654  98.8557 102.1724 0014626 162.0619 198.1073 14.13492794 14053

#Time	Az	El	Level	SNR
2025-01-22 09:38:17.121281	27.1	16.3	-90.1	9.1
2025-01-22 09:38:18.282834	27.1	16.4	-90.7	6.2
2025-01-22 09:38:19.443872	27.1	16.6	-90.5	4.9
2025-01-22 09:38:20.603833	27.2	16.7	-90.7	4.4
2025-01-22 09:38:21.767017	27.2	16.8	-90.6	5.7
2025-01-22 09:38:22.933295	27.3	16.9	-90.6	4.9
2025-01-22 09:38:24.098612	27.3	17.1	-90.3	3.8
2025-01-22 09:38:25.266526	27.3	17.2	-90.6	7.0
2025-01-22 09:38:26.428292	27.4	17.3	-90.5	6.2
2025-01-22 09:38:27.584236	27.4	17.5	-90.8	12.8
2025-01-22 09:38:28.752832	27.5	17.6	-90.4	4.1
2025-01-22 09:38:29.914413	27.5	17.7	-91.0	5.0
2025-01-22 09:38:31.075140	27.5	17.9	-90.7	5.6
2025-01-22 09:38:32.239531	27.6	18.0	-90.9	5.7
2025-01-22 09:38:33.402478	27.6	18.1	-90.8	5.5
2025-01-22 09:38:34.567819	27.7	18.3	-90.9	7.3
2025-01-22 09:38:35.731741	27.7	18.4	-90.7	6.9
2025-01-22 09:38:36.904942	27.8	18.6	-90.9	6.2
2025-01-22 09:38:38.059719	27.8	18.7	-90.8	1.9
2025-01-22 09:38:39.223560	27.8	18.8	-90.4	6.2
2025-01-22 09:38:40.388531	27.9	19.0	-89.2	5.5
2025-01-22 09:38:41.543713	27.9	19.1	-89.8	12.8
2025-01-22 09:38:42.704742	28.0	19.3	-90.0	8.3
2025-01-22 09:38:43.869164	28.0	19.4	-89.7	8.4
2025-01-22 09:38:45.031803	28.1	19.6	-89.0	5.5
2025-01-22 09:38:46.191747	28.1	19.7	-89.4	8.9
2025-01-22 09:38:47.351611	28.2	19.8	-90.6	9.8
2025-01-22 09:38:48.515952	28.2	20.0	-91.4	8.9
2025-01-22 09:38:49.682371	28.3	20.1	-91.0	10.7
2025-01-22 09:38:50.846517	28.3	20.3	-90.9	9.4
2025-01-22 09:38:52.012609	28.4	20.4	-91.2	6.3
2025-01-22 09:38:53.172297	28.4	20.6	-91.0	6.0
2025-01-22 09:38:54.336108	28.5	20.7	-90.7	9.4
2025-01-22 09:38:55.506091	28.5	20.9	-91.4	7.8
2025-01-22 09:38:56.668581	28.6	21.0	-91.0	12.3
2025-01-22 09:38:57.832008	28.6	21.2	-90.5	11.5
2025-01-22 09:38:58.995708	28.7	21.4	-90.6	9.0
2025-01-22 09:39:00.159540	28.7	21.5	-90.6	11.5
2025-01-22 09:39:01.313649	28.8	21.7	-90.6	6.9
2025-01-22 09:39:02.473572	28.8	21.8	-91.1	10.9
2025-01-22 09:39:03.636739	28.9	22.0	-91.0	13.5
2025-01-22 09:39:04.777117	28.9	22.1	-90.8	11.2
2025-01-22 09:39:05.898063	29.0	22.3	-90.7	10.7
2025-01-22 09:39:07.038629	29.0	22.5	-90.7	10.9
2025-01-22 09:39:08.199814	29.1	22.6	-90.4	12.1
2025-01-22 09:39:09.376181	29.1	22.8	-90.8	6.4
2025-01-22 09:39:10.541261	29.2	22.9	-90.7	5.6
2025-01-22 09:39:11.701299	29.2	23.1	-90.8	13.6
2025-01-22 09:39:12.862174	29.3	23.3	-91.1	14.5
2025-01-22 09:39:14.027283	29.4	23.4	-90.4	14.6
2025-01-22 09:39:15.190889	29.4	23.6	-90.9	7.6
2025-01-22 09:39:16.352903	29.5	23.8	-90.3	10.2
2025-01-22 09:39:17.528518	29.5	24.0	-91.0	10.8
2025-01-22 09:39:18.698368	29.6	24.1	-91.2	12.6
2025-01-22 09:39:19.857132	29.7	24.3	-90.9	11.0
2025-01-22 09:39:21.005897	29.7	24.5	-91.2	9.9
2025-01-22 09:39:22.157337	29.8	24.6	-91.1	13.3
2025-01-22 09:39:23.323091	29.8	24.8	-91.0	11.2
2025-01-22 09:39:24.480843	29.9	25.0	-91.4	5.6
2025-01-22 09:39:25.644194	30.0	25.2	-91.3	12.1
2025-01-22 09:39:26.805119	30.0	25.4	-91.3	12.0
2025-01-22 09:39:27.962690	30.1	25.5	-91.4	4.1
2025-01-22 09:39:29.128768	30.2	25.7	-91.0	11.3
2025-01-22 09:39:30.292281	30.2	25.9	-90.7	7.0
2025-01-22 09:39:31.456654	30.3	26.1	-91.2	10.2
2025-01-22 09:39:32.629071	30.4	26.3	-91.2	11.5
2025-01-22 09:39:33.796208	30.4	26.5	-91.2	9.3
2025-01-22 09:39:34.959141	30.5	26.7	-91.3	7.0
2025-01-22 09:39:36.126484	30.6	26.8	-90.7	11.2
2025-01-22 09:39:37.291798	30.6	27.0	-91.0	9.5
2025-01-22 09:39:38.460119	30.7	27.2	-91.1	13.8
2025-01-22 09:39:39.625370	30.8	27.4	-91.7	10.0
2025-01-22 09:39:40.789962	30.9	27.6	-91.4	7.1
2025-01-22 09:39:41.950225	30.9	27.8	-91.3	4.5
2025-01-22 09:39:43.112493	31.0	28.0	-90.9	4.9
2025-01-22 09:39:44.277202	31.1	28.2	-90.7	12.2
2025-01-22 09:39:45.442203	31.2	28.4	-91.0	8.9
2025-01-22 09:39:46.605027	31.2	28.6	-91.0	13.9
2025-01-22 09:39:47.769410	31.3	28.8	-90.9	12.7
2025-01-22 09:39:48.922249	31.4	29.0	-91.4	8.9
2025-01-22 09:39:50.090962	31.5	29.2	-90.7	9.2
2025-01-22 09:39:51.255940	31.6	29.4	-90.7	12.5
2025-01-22 09:39:52.419080	31.6	29.6	-91.6	7.5
2025-01-22 09:39:53.582387	31.7	29.9	-91.5	9.5
2025-01-22 09:39:54.750558	31.8	30.1	-91.2	9.8
2025-01-22 09:39:55.912397	31.9	30.3	-91.0	7.1
2025-01-22 09:39:57.075819	32.0	30.5	-90.6	8.6
2025-01-22 09:39:58.234822	32.1	30.7	-90.7	11.1
2025-01-22 09:39:59.395163	32.2	30.9	-91.0	6.4
2025-01-22 09:40:00.557896	32.3	31.2	-90.9	7.1
2025-01-22 09:40:01.722364	32.3	31.4	-91.3	16.1
2025-01-22 09:40:02.889532	32.4	31.6	-91.5	8.7
2025-01-22 09:40:04.052662	32.5	31.8	-91.2	11.4
2025-01-22 09:40:05.215123	32.6	32.1	-90.7	14.6
2025-01-22 09:40:06.378716	32.7	32.3	-90.4	8.3
2025-01-22 09:40:07.541253	32.8	32.5	-90.6	13.2
2025-01-22 09:40:08.701774	32.9	32.7	-91.2	12.2
2025-01-22 09:40:09.867537	33.0	33.0	-90.9	10.2
2025-01-22 09:40:11.033149	33.1	33.2	-91.0	10.6
2025-01-22 09:40:12.193827	33.2	33.4	-91.2	14.0
2025-01-22 09:40:13.363204	33.3	33.7	-90.9	11.3
2025-01-22 09:40:14.525804	33.4	33.9	-91.5	12.0
2025-01-22 09:40:15.695755	33.5	34.2	-91.4	12.4
2025-01-22 09:40:16.856652	33.7	34.4	-91.1	14.5
2025-01-22 09:40:18.021108	33.8	34.7	-91.3	7.9
2025-01-22 09:40:19.181329	33.9	34.9	-90.6	14.6
2025-01-22 09:40:20.346351	34.0	35.2	-90.8	13.6
2025-01-22 09:40:21.512880	34.1	35.4	-91.2	12.3
2025-01-22 09:40:22.674409	34.2	35.7	-90.4	11.7
2025-01-22 09:40:23.839554	34.3	35.9	-91.4	18.7
2025-01-22 09:40:25.003509	34.5	36.2	-91.3	8.1
2025-01-22 09:40:26.168389	34.6	36.4	-90.7	9.7
2025-01-22 09:40:27.340156	34.7	36.7	-90.9	14.0
2025-01-22 09:40:28.500098	34.8	37.0	-91.2	14.2
2025-01-22 09:40:29.668620	35.0	37.2	-91.7	16.3
2025-01-22 09:40:30.833335	35.1	37.5	-91.3	14.5
2025-01-22 09:40:32.005834	35.2	37.8	-91.1	11.7
2025-01-22 09:40:33.165914	35.4	38.0	-90.8	10.1
2025-01-22 09:40:34.329541	35.5	38.3	-90.9	7.1
2025-01-22 09:40:35.496729	35.6	38.6	-91.5	7.5
2025-01-22 09:40:36.661143	35.8	38.9	-91.3	10.8
2025-01-22 09:40:37.829397	35.9	39.1	-91.1	14.7
2025-01-22 09:40:38.986246	36.1	39.4	-91.0	9.4
2025-01-22 09:40:40.147941	36.2	39.7	-90.8	18.1
2025-01-22 09:40:41.303967	36.4	40.0	-91.0	18.0
2025-01-22 09:40:42.487172	36.5	40.3	-91.3	17.0
2025-01-22 09:40:43.654834	36.7	40.6	-91.4	18.1
2025-01-22 09:40:44.813660	36.8	40.9	-91.7	19.1
2025-01-22 09:40:45.980362	37.0	41.2	-91.1	15.3
2025-01-22 09:40:47.143520	37.2	41.4	-90.5	19.0
2025-01-22 09:40:48.300716	37.3	41.7	-90.6	14.8
2025-01-22 09:40:49.470532	37.5	42.0	-91.2	11.8
2025-01-22 09:40:50.633874	37.7	42.3	-91.0	20.1
2025-01-22 09:40:51.803555	37.9	42.7	-90.9	10.1
2025-01-22 09:40:52.965701	38.0	43.0	-91.0	12.6
2025-01-22 09:40:54.123938	38.2	43.3	-90.6	9.7
2025-01-22 09:40:55.291776	38.4	43.6	-90.7	11.5
2025-01-22 09:40:56.455023	38.6	43.9	-91.1	6.5
2025-01-22 09:40:57.620165	38.8	44.2	-91.1	13.9
2025-01-22 09:40:58.798457	39.0	44.5	-91.0	17.1
2025-01-22 09:40:59.959892	39.2	44.9	-91.3	15.3
2025-01-22 09:41:01.122608	39.4	45.2	-91.1	17.2
2025-01-22 09:41:02.287961	39.6	45.5	-91.0	19.0
2025-01-22 09:41:03.446673	39.8	45.8	-91.4	15.7
2025-01-22 09:41:04.623033	40.1	46.2	-91.0	13.7
2025-01-22 09:41:05.790327	40.3	46.5	-91.4	17.3
2025-01-22 09:41:06.953765	40.5	46.8	-91.3	10.1
2025-01-22 09:41:08.114389	40.7	47.2	-91.0	13.0
2025-01-22 09:41:09.279324	41.0	47.5	-91.0	18.3
2025-01-22 09:41:10.450389	41.2	47.8	-91.0	13.8
2025-01-22 09:41:11.615010	41.5	48.2	-91.0	8.9
2025-01-22 09:41:12.779373	41.7	48.5	-91.2	3.6
2025-01-22 09:41:13.941525	42.0	48.9	-91.7	7.6
2025-01-22 09:41:15.110321	42.3	49.2	-91.0	3.1
2025-01-22 09:41:16.276763	42.5	49.6	-90.9	9.1
2025-01-22 09:41:17.446918	42.8	49.9	-91.0	5.2
2025-01-22 09:41:18.606964	43.1	50.3	-91.1	6.8
2025-01-22 09:41:19.773412	43.4	50.6	-91.6	4.5
2025-01-22 09:41:20.935483	43.7	51.0	-91.6	9.1
2025-01-22 09:41:22.103149	44.0	51.4	-91.0	7.6
2025-01-22 09:41:23.263040	44.3	51.7	-90.9	6.5
2025-01-22 09:41:24.422339	44.6	52.1	-91.2	12.5
2025-01-22 09:41:25.586515	44.9	52.5	-91.5	7.1
2025-01-22 09:41:26.751081	45.3	52.8	-90.9	10.7
2025-01-22 09:41:27.915364	45.6	53.2	-91.4	12.9
2025-01-22 09:41:29.078834	46.0	53.6	-90.8	8.1
2025-01-22 09:41:30.243965	46.3	53.9	-90.5	11.2
2025-01-22 09:41:31.413014	46.7	54.3	-91.1	13.2
2025-01-22 09:41:32.571402	47.1	54.7	-91.6	12.6
2025-01-22 09:41:33.730128	47.5	55.1	-91.2	19.2
2025-01-22 09:41:34.894011	47.9	55.5	-91.3	9.7
2025-01-22 09:41:36.053759	48.3	55.8	-91.4	9.7
2025-01-22 09:41:37.220153	48.7	56.2	-90.2	14.8
2025-01-22 09:41:38.379345	49.2	56.6	-90.7	8.0
2025-01-22 09:41:39.542472	49.6	57.0	-91.4	6.9
2025-01-22 09:41:40.705226	50.1	57.4	-90.4	14.5
2025-01-22 09:41:41.870104	50.6	57.8	-90.2	7.4
2025-01-22 09:41:43.039709	51.0	58.1	-89.7	10.6
2025-01-22 09:41:44.198156	51.5	58.5	-89.0	17.3
2025-01-22 09:41:45.365683	52.1	58.9	-89.8	8.4
2025-01-22 09:41:46.532235	52.6	59.3	-89.0	11.4
2025-01-22 09:41:47.702506	53.1	59.7	-89.7	11.1
2025-01-22 09:41:48.861049	53.7	60.1	-90.1	18.6
2025-01-22 09:41:50.031787	54.3	60.5	-90.0	7.6
2025-01-22 09:41:51.200860	54.9	60.9	-89.8	7.7
2025-01-22 09:41:52.358714	55.5	61.3	-90.9	5.8
2025-01-22 09:41:53.521306	56.2	61.6	-91.4	11.1
2025-01-22 09:41:54.684119	56.8	62.0	-91.2	13.1
2025-01-22 09:41:55.845221	57.5	62.4	-91.5	7.2
2025-01-22 09:41:57.009593	58.2	62.8	-91.3	9.4
2025-01-22 09:41:58.177871	58.9	63.2	-90.8	18.9
2025-01-22 09:41:59.338585	59.7	63.6	-90.4	15.5
2025-01-22 09:42:00.500693	60.4	63.9	-91.0	7.8
2025-01-22 09:42:01.666712	61.2	64.3	-91.0	15.0
2025-01-22 09:42:02.826324	62.0	64.7	-91.3	19.5
2025-01-22 09:42:03.989862	62.9	65.1	-91.3	11.1
2025-01-22 09:42:05.152638	63.8	65.4	-90.7	16.5
2025-01-22 09:42:06.316204	64.7	65.8	-91.1	15.7
2025-01-22 09:42:07.476139	65.6	66.1	-91.3	9.5
2025-01-22 09:42:08.636295	66.6	66.5	-91.3	12.3
2025-01-22 09:42:09.799625	67.6	66.8	-90.6	10.8
2025-01-22 09:42:10.962319	68.6	67.2	-91.0	6.4
2025-01-22 09:42:12.123053	69.7	67.5	-90.9	9.7
2025-01-22 09:42:13.294016	70.8	67.9	-89.1	9.9
2025-01-22 09:42:14.458955	71.9	68.2	-90.4	5.1
2025-01-22 09:42:15.625925	73.1	68.5	-90.4	10.9
2025-01-22 09:42:16.791370	74.3	68.8	-90.1	15.0
2025-01-22 09:42:17.949452	75.6	69.1	-90.2	8.3
2025-01-22 09:42:19.109956	76.9	69.4	-89.8	6.7
2025-01-22 09:42:20.273888	78.2	69.7	-90.0	11.4
2025-01-22 09:42:21.434307	79.6	70.0	-90.3	9.5
2025-01-22 09:42:22.596958	81.0	70.3	-89.7	9.3
2025-01-22 09:42:23.763020	82.5	70.5	-89.3	12.2
2025-01-22 09:42:24.925910	84.0	70.8	-89.8	10.1
2025-01-22 09:42:26.089883	85.5	71.0	-90.7	16.8
2025-01-22 09:42:27.257246	87.1	71.2	-91.0	13.8
2025-01-22 09:42:28.417868	88.7	71.4	-90.0	8.8
2025-01-22 09:42:29.584584	90.4	71.6	-90.4	12.3
2025-01-22 09:42:30.747954	92.0	71.8	-91.0	11.0
2025-01-22 09:42:31.911229	93.8	72.0	-90.9	6.8
2025-01-22 09:42:33.068176	95.5	72.1	-90.8	5.5
2025-01-22 09:42:34.229789	97.3	72.2	-90.0	11.5
2025-01-22 09:42:35.395194	99.1	72.4	-90.6	10.0
2025-01-22 09:42:36.554458	100.9	72.5	-90.2	11.6
2025-01-22 09:42:37.716370	102.8	72.5	-91.1	16.8
2025-01-22 09:42:38.875742	104.7	72.6	-91.1	7.1
2025-01-22 09:42:40.039502	106.5	72.7	-91.1	10.5
2025-01-22 09:42:41.202066	108.4	72.7	-90.8	21.0
2025-01-22 09:42:42.370863	110.3	72.7	-90.7	14.8
2025-01-22 09:42:43.534438	112.2	72.7	-90.6	15.1
2025-01-22 09:42:44.702432	114.1	72.7	-90.4	19.5
2025-01-22 09:42:45.873442	116.0	72.6	-91.1	16.1
2025-01-22 09:42:47.036539	117.9	72.6	-90.6	21.5
2025-01-22 09:42:48.197771	119.8	72.5	-90.2	16.9
2025-01-22 09:42:49.356733	121.6	72.4	-90.9	17.0
2025-01-22 09:42:50.524301	123.5	72.3	-91.0	16.2
2025-01-22 09:42:51.691563	125.3	72.2	-91.0	16.4
2025-01-22 09:42:52.859815	127.0	72.0	-90.6	13.6
2025-01-22 09:42:54.024702	128.8	71.9	-90.8	12.7
2025-01-22 09:42:55.188343	130.5	71.7	-90.6	19.4
2025-01-22 09:42:56.353535	132.1	71.5	-90.5	20.3
2025-01-22 09:42:57.517367	133.8	71.3	-91.2	11.6
2025-01-22 09:42:58.682280	135.4	71.1	-90.9	19.1
2025-01-22 09:42:59.844205	136.9	70.9	-91.0	24.1
2025-01-22 09:43:01.003924	138.4	70.6	-91.1	13.3
2025-01-22 09:43:02.167816	139.9	70.4	-90.7	15.7
2025-01-22 09:43:03.327916	141.3	70.1	-90.7	10.1
2025-01-22 09:43:04.492564	142.7	69.8	-90.9	13.6
2025-01-22 09:43:05.653142	144.1	69.5	-90.6	14.9
2025-01-22 09:43:06.819116	145.4	69.2	-91.3	18.9
2025-01-22 09:43:07.983753	146.7	68.9	-91.3	17.7
2025-01-22 09:43:09.142149	147.9	68.6	-90.8	14.4
2025-01-22 09:43:10.303663	149.1	68.3	-90.4	12.8
2025-01-22 09:43:11.471929	150.2	68.0	-90.3	10.1
2025-01-22 09:43:12.635640	151.4	67.7	-91.0	17.0
2025-01-22 09:43:13.804423	152.5	67.3	-91.3	12.1
2025-01-22 09:43:14.968855	153.5	67.0	-91.5	12.8
2025-01-22 09:43:16.134593	154.5	66.6	-90.6	12.1
2025-01-22 09:43:17.300145	155.5	66.3	-90.8	17.3
2025-01-22 09:43:18.455020	156.5	65.9	-91.1	19.2
2025-01-22 09:43:19.618522	157.4	65.5	-91.0	22.9
2025-01-22 09:43:20.782682	158.3	65.2	-91.5	11.8
2025-01-22 09:43:21.950314	159.1	64.8	-90.9	15.3
2025-01-22 09:43:23.114133	160.0	64.4	-91.1	16.5
2025-01-22 09:43:24.279287	160.8	64.0	-91.0	22.9
2025-01-22 09:43:25.439990	161.6	63.7	-91.1	10.1
2025-01-22 09:43:26.601778	162.3	63.3	-91.4	14.8
2025-01-22 09:43:27.772405	163.0	62.9	-91.4	10.4
2025-01-22 09:43:28.922809	163.7	62.5	-91.5	16.9
2025-01-22 09:43:30.088207	164.4	62.1	-91.4	13.0
2025-01-22 09:43:31.262675	165.1	61.7	-91.2	9.7
2025-01-22 09:43:32.422362	165.8	61.4	-90.9	11.6
2025-01-22 09:43:33.582644	166.4	61.0	-90.8	21.3
2025-01-22 09:43:34.749911	167.0	60.6	-91.9	15.1
2025-01-22 09:43:35.910361	167.6	60.2	-91.4	14.7
2025-01-22 09:43:37.079075	168.2	59.8	-91.3	21.2
2025-01-22 09:43:38.248247	168.7	59.4	-91.3	13.7
2025-01-22 09:43:39.405044	169.2	59.0	-90.8	13.2
2025-01-22 09:43:40.565855	169.8	58.6	-91.1	18.0
2025-01-22 09:43:41.725892	170.3	58.2	-91.0	19.7
2025-01-22 09:43:42.893399	170.8	57.9	-91.0	12.3
2025-01-22 09:43:44.058105	171.2	57.5	-90.5	8.3
2025-01-22 09:43:45.224565	171.7	57.1	-91.2	16.1
2025-01-22 09:43:46.388639	172.2	56.7	-91.1	8.7
2025-01-22 09:43:47.553363	172.6	56.3	-91.3	9.6
2025-01-22 09:43:48.719129	173.0	55.9	-91.3	11.0
2025-01-22 09:43:49.878282	173.5	55.5	-91.5	7.5
2025-01-22 09:43:51.039454	173.9	55.2	-91.3	7.8
2025-01-22 09:43:52.199886	174.3	54.8	-91.0	9.3
2025-01-22 09:43:53.364864	174.6	54.4	-91.0	7.5
2025-01-22 09:43:54.528515	175.0	54.0	-91.2	5.6
2025-01-22 09:43:55.688298	175.4	53.6	-91.1	11.3
2025-01-22 09:43:56.850850	175.7	53.3	-91.2	5.3
2025-01-22 09:43:58.030887	176.1	52.9	-91.0	7.2
2025-01-22 09:43:59.192877	176.4	52.5	-91.0	15.4
2025-01-22 09:44:00.351763	176.8	52.2	-91.3	9.5
2025-01-22 09:44:01.519541	177.1	51.8	-91.1	7.5
2025-01-22 09:44:02.679146	177.4	51.4	-91.2	11.6
2025-01-22 09:44:03.851353	177.7	51.1	-91.5	6.7
2025-01-22 09:44:05.015444	178.0	50.7	-91.7	13.5
2025-01-22 09:44:06.180370	178.3	50.3	-91.0	15.9
2025-01-22 09:44:07.345525	178.6	50.0	-90.6	11.5
2025-01-22 09:44:08.526711	178.9	49.6	-90.5	14.8
2025-01-22 09:44:09.680609	179.2	49.3	-91.5	20.7
2025-01-22 09:44:10.839955	179.4	48.9	-91.5	18.5
2025-01-22 09:44:12.010694	179.7	48.6	-91.8	14.0
2025-01-22 09:44:13.174745	179.9	48.2	-91.3	14.4
2025-01-22 09:44:14.333533	180.2	47.9	-91.0	15.0
2025-01-22 09:44:15.494071	180.4	47.5	-91.4	14.8
2025-01-22 09:44:16.654977	180.7	47.2	-91.4	16.9
2025-01-22 09:44:17.814807	180.9	46.8	-91.6	13.2
2025-01-22 09:44:18.971322	181.1	46.5	-91.3	10.1
2025-01-22 09:44:20.134713	181.4	46.2	-91.0	11.6
2025-01-22 09:44:21.296932	181.6	45.8	-90.7	18.8
2025-01-22 09:44:22.460046	181.8	45.5	-91.1	8.7
2025-01-22 09:44:23.623202	182.0	45.2	-90.8	10.4
2025-01-22 09:44:24.786691	182.2	44.9	-90.8	15.8
2025-01-22 09:44:25.951716	182.4	44.5	-91.2	13.2
2025-01-22 09:44:27.117599	182.6	44.2	-90.8	17.6
2025-01-22 09:44:28.285607	182.8	43.9	-90.9	14.1
2025-01-22 09:44:29.438352	183.0	43.6	-91.4	14.2
2025-01-22 09:44:30.605031	183.2	43.3	-91.0	13.6
2025-01-22 09:44:31.779270	183.4	43.0	-91.1	15.1
2025-01-22 09:44:32.939949	183.6	42.6	-91.8	9.4
2025-01-22 09:44:34.104323	183.8	42.3	-91.4	14.3
2025-01-22 09:44:35.266892	183.9	42.0	-91.3	18.4
2025-01-22 09:44:36.430393	184.1	41.7	-91.3	13.4
2025-01-22 09:44:37.594374	184.3	41.4	-90.3	12.6
2025-01-22 09:44:38.756892	184.4	41.1	-91.4	12.4
2025-01-22 09:44:39.912934	184.6	40.8	-91.6	7.5
2025-01-22 09:44:41.079733	184.8	40.5	-91.1	6.9
2025-01-22 09:44:42.239049	184.9	40.3	-90.9	11.4
2025-01-22 09:44:43.406415	185.1	40.0	-90.9	6.6
2025-01-22 09:44:44.570415	185.2	39.7	-91.3	7.2
2025-01-22 09:44:45.733081	185.4	39.4	-91.2	4.6
2025-01-22 09:44:46.895395	185.5	39.1	-91.0	6.6
2025-01-22 09:44:48.054206	185.7	38.8	-91.3	4.7
2025-01-22 09:44:49.216236	185.8	38.5	-91.1	15.6
2025-01-22 09:44:50.377736	185.9	38.3	-91.2	11.5
2025-01-22 09:44:51.539608	186.1	38.0	-91.6	11.5
2025-01-22 09:44:52.709104	186.2	37.7	-91.3	9.0
2025-01-22 09:44:53.874802	186.4	37.4	-91.4	7.9
2025-01-22 09:44:55.030979	186.5	37.2	-91.3	8.6
2025-01-22 09:44:56.208542	186.6	36.9	-91.1	7.9
2025-01-22 09:44:57.374760	186.7	36.6	-91.0	6.2
2025-01-22 09:44:58.538918	186.9	36.4	-91.5	6.6
2025-01-22 09:44:59.702509	187.0	36.1	-91.4	6.5
2025-01-22 09:45:00.858419	187.1	35.9	-91.2	9.6
2025-01-22 09:45:02.035034	187.2	35.6	-91.0	8.7
2025-01-22 09:45:03.196313	187.4	35.3	-89.5	12.3
2025-01-22 09:45:04.356163	187.5	35.1	-90.8	11.6
2025-01-22 09:45:05.517919	187.6	34.8	-90.0	11.1
2025-01-22 09:45:06.678091	187.7	34.6	-91.3	9.5
2025-01-22 09:45:07.840103	187.8	34.3	-91.2	12.5
2025-01-22 09:45:09.007566	187.9	34.1	-91.4	13.7
2025-01-22 09:45:10.167777	188.0	33.9	-90.1	12.9
2025-01-22 09:45:11.330902	188.1	33.6	-90.9	11.7
2025-01-22 09:45:12.498988	188.2	33.4	-91.4	7.7
2025-01-22 09:45:13.659300	188.3	33.1	-89.5	8.6
2025-01-22 09:45:14.821273	188.4	32.9	-89.6	11.4
2025-01-22 09:45:15.984652	188.5	32.7	-89.7	5.1
2025-01-22 09:45:17.150228	188.6	32.4	-89.7	9.6
2025-01-22 09:45:18.313695	188.7	32.2	-90.1	8.9
2025-01-22 09:45:19.476860	188.8	32.0	-90.5	5.4
2025-01-22 09:45:20.644376	188.9	31.7	-90.7	8.2
2025-01-22 09:45:21.803625	189.0	31.5	-89.6	7.5
2025-01-22 09:45:22.967907	189.1	31.3	-90.2	7.8
2025-01-22 09:45:24.130241	189.2	31.1	-90.4	10.8
2025-01-22 09:45:25.290438	189.3	30.8	-90.5	12.6
2025-01-22 09:45:26.455210	189.4	30.6	-90.7	9.6
2025-01-22 09:45:27.624950	189.5	30.4	-90.5	8.1
2025-01-22 09:45:28.792838	189.6	30.2	-91.5	7.6
2025-01-22 09:45:29.948775	189.6	30.0	-91.7	9.3
2025-01-22 09:45:31.112611	189.7	29.8	-91.4	10.3
2025-01-22 09:45:32.273567	189.8	29.5	-90.8	11.1
2025-01-22 09:45:33.437505	189.9	29.3	-91.1	6.8
2025-01-22 09:45:34.599613	190.0	29.1	-91.7	6.7
2025-01-22 09:45:35.767924	190.1	28.9	-91.4	9.7
2025-01-22 09:45:36.932826	190.1	28.7	-91.3	8.3
2025-01-22 09:45:38.099323	190.2	28.5	-91.3	7.7
2025-01-22 09:45:39.264519	190.3	28.3	-91.2	8.4
2025-01-22 09:45:40.422409	190.4	28.1	-91.8	4.1
2025-01-22 09:45:41.588511	190.5	27.9	-91.7	7.6
2025-01-22 09:45:42.751581	190.5	27.7	-91.1	5.9
2025-01-22 09:45:43.916528	190.6	27.5	-88.7	7.0
2025-01-22 09:45:45.079248	190.7	27.3	-89.4	6.3
2025-01-22 09:45:46.244378	190.7	27.1	-90.1	8.6
2025-01-22 09:45:47.407725	190.8	26.9	-91.3	7.2
2025-01-22 09:45:48.573126	190.9	26.7	-91.1	4.8
2025-01-22 09:45:49.736661	191.0	26.5	-91.7	11.0
2025-01-22 09:45:50.900815	191.0	26.3	-91.5	6.7
2025-01-22 09:45:52.067399	191.1	26.1	-89.9	6.8
2025-01-22 09:45:53.229268	191.2	26.0	-89.3	7.2
2025-01-22 09:45:54.391634	191.2	25.8	-89.2	7.4
2025-01-22 09:45:55.558587	191.3	25.6	-90.1	10.1
2025-01-22 09:45:56.722493	191.4	25.4	-90.3	11.2
2025-01-22 09:45:57.889604	191.4	25.2	-90.1	10.4
2025-01-22 09:45:59.054182	191.5	25.0	-91.2	10.1
2025-01-22 09:46:00.210039	191.6	24.9	-91.4	13.1
2025-01-22 09:46:01.369115	191.6	24.7	-90.9	11.5
2025-01-22 09:46:02.534817	191.7	24.5	-91.5	9.6
2025-01-22 09:46:03.698993	191.7	24.3	-91.0	14.6
2025-01-22 09:46:04.865841	191.8	24.1	-90.8	9.7
2025-01-22 09:46:06.028726	191.9	24.0	-91.1	10.4
2025-01-22 09:46:07.194172	191.9	23.8	-90.7	11.0
2025-01-22 09:46:08.358110	192.0	23.6	-90.8	10.9
2025-01-22 09:46:09.521219	192.0	23.5	-91.6	11.9
2025-01-22 09:46:10.684128	192.1	23.3	-91.8	11.9
2025-01-22 09:46:11.844659	192.2	23.1	-91.8	11.0
2025-01-22 09:46:13.012665	192.2	23.0	-91.6	9.7
2025-01-22 09:46:14.166261	192.3	22.8	-91.1	10.6
2025-01-22 09:46:15.327318	192.3	22.6	-91.1	11.4
2025-01-22 09:46:16.490058	192.4	22.5	-91.1	6.4
2025-01-22 09:46:17.647198	192.4	22.3	-91.1	9.9
2025-01-22 09:46:18.804742	192.5	22.1	-91.3	11.2
2025-01-22 09:46:19.966575	192.5	22.0	-91.3	6.9
2025-01-22 09:46:21.132675	192.6	21.8	-90.8	11.4
2025-01-22 09:46:22.253012	192.7	21.7	-90.9	13.2
2025-01-22 09:46:23.374068	192.7	21.5	-90.9	10.4
2025-01-22 09:46:24.495784	192.8	21.3	-91.4	12.1
2025-01-22 09:46:25.616371	192.8	21.2	-91.5	10.5
2025-01-22 09:46:26.736427	192.9	21.0	-91.2	9.5
2025-01-22 09:46:27.857235	192.9	20.9	-91.6	7.4
2025-01-22 09:46:28.977825	192.9	20.7	-91.6	7.2
2025-01-22 09:46:30.114362	193.0	20.6	-91.6	7.2
2025-01-22 09:46:31.268164	193.0	20.4	-90.7	7.5
2025-01-22 09:46:32.432353	193.1	20.3	-91.4	7.1
2025-01-22 09:46:33.591545	193.1	20.1	-91.6	8.5
2025-01-22 09:46:34.753300	193.2	20.0	-91.8	11.2
2025-01-22 09:46:35.917976	193.2	19.8	-92.0	9.5
2025-01-22 09:46:37.077822	193.3	19.7	-91.1	10.8
2025-01-22 09:46:38.244195	193.3	19.6	-90.9	10.7
2025-01-22 09:46:39.401862	193.4	19.4	-89.5	10.5
2025-01-22 09:46:40.561827	193.4	19.3	-91.3	9.9
2025-01-22 09:46:41.724268	193.5	19.1	-91.7	8.4
2025-01-22 09:46:42.887833	193.5	19.0	-91.5	4.6
2025-01-22 09:46:44.051544	193.6	18.8	-91.3	5.5
2025-01-22 09:46:45.218606	193.6	18.7	-91.1	6.6
2025-01-22 09:46:46.377588	193.6	18.5	-91.0	5.5
2025-01-22 09:46:47.544980	193.7	18.4	-91.6	5.6
2025-01-22 09:46:48.710242	193.7	18.3	-91.5	6.5
2025-01-22 09:46:49.869890	193.8	18.1	-91.5	4.7
2025-01-22 09:46:51.035351	193.8	18.0	-91.6	5.3
2025-01-22 09:46:52.200239	193.9	17.8	-90.9	2.1
2025-01-22 09:46:53.362057	193.9	17.7	-91.1	5.2
2025-01-22 09:46:54.524116	193.9	17.6	-90.7	5.8
2025-01-22 09:46:55.688448	194.0	17.4	-91.3	4.1
2025-01-22 09:46:56.849419	194.0	17.3	-91.7	6.1
2025-01-22 09:46:58.007035	194.1	17.2	-91.6	4.8
2025-01-22 09:46:59.173262	194.1	17.0	-90.9	5.2
2025-01-22 09:47:00.318020	194.1	16.9	-90.9	6.6
2025-01-22 09:47:01.450324	194.2	16.8	-91.7	2.7
2025-01-22 09:47:02.601063	194.2	16.6	-91.2	5.0
2025-01-22 09:47:03.764792	194.3	16.5	-90.2	4.6
2025-01-22 09:47:04.928901	194.3	16.4	-91.4	5.3
2025-01-22 09:47:06.344141	194.3	16.2	-91.1	2.5
2025-01-22 09:47:07.507629	194.4	16.1	-91.1	3.3
2025-01-22 09:47:08.675575	194.4	16.0	-91.5	5.7
2025-01-22 09:47:09.834482	194.5	15.8	-90.8	3.4
2025-01-22 09:47:10.997819	194.5	15.7	-90.7	5.5
2025-01-22 09:47:12.162988	194.5	15.6	-91.4	3.3
2025-01-22 09:47:13.328104	194.6	15.5	-90.9	5.1
2025-01-22 09:47:14.495516	194.6	15.3	-91.3	3.8
2025-01-22 09:47:15.654483	194.6	15.2	-91.1	4.8
2025-01-22 09:47:16.822404	194.7	15.1	-91.2	4.9
2025-01-22 09:47:17.985418	194.7	15.0	-90.6	5.3
2025-01-22 09:47:19.148632	194.8	14.9	-91.1	3.5
2025-01-22 09:47:20.302999	194.8	14.7	-91.0	5.0
2025-01-22 09:47:21.470062	194.8	14.6	-91.5	4.8
2025-01-22 09:47:22.610168	194.9	14.5	-90.9	3.2
#Closed at: 2025-01-22 09:38:09.927838