passes_logs/2025/01/22/LEX_Murmansk/LEX_Murmansk__20250122_173350_NOAA_19_rec.log

#Pass ID: 20250122_173350_NOAA 19
#Satellite: NOAA 19
#Configuration: NOAA 19
#Start time: 2025-01-22 17:33:45.235627

#LorettStation: 1.0.0 05.05.2024
#Station: LEX_Murmansk
#Location: 33.156738 lon 68.926811 lat
#TLE: 1 33591U 09005A   25022.22545190  .00000382  00000+0  22773-3 0  9990
#TLE: 2 33591  99.0184  86.0433 0014227  38.0135 322.2038 14.13265658822568

#Time	Az	El	Level	SNR
2025-01-22 17:33:57.485216	147.2	16.3	-90.1	1.3
2025-01-22 17:33:58.646288	147.2	16.5	-89.9	2.4
2025-01-22 17:33:59.798466	147.2	16.6	-90.5	1.8
2025-01-22 17:34:00.946396	147.2	16.7	-90.6	2.2
2025-01-22 17:34:02.098973	147.2	16.9	-90.4	2.3
2025-01-22 17:34:03.255148	147.2	17.0	-90.0	2.2
2025-01-22 17:34:04.417304	147.2	17.1	-90.3	4.6
2025-01-22 17:34:05.572494	147.2	17.3	-90.8	4.0
2025-01-22 17:34:06.729772	147.2	17.4	-90.5	3.5
2025-01-22 17:34:07.879239	147.2	17.5	-90.3	3.3
2025-01-22 17:34:09.033704	147.2	17.7	-90.3	3.9
2025-01-22 17:34:10.195402	147.1	17.8	-90.0	3.8
2025-01-22 17:34:11.354379	147.1	17.9	-89.9	4.9
2025-01-22 17:34:12.513414	147.1	18.1	-90.5	5.9
2025-01-22 17:34:13.673074	147.1	18.2	-90.6	3.0
2025-01-22 17:34:14.835676	147.1	18.4	-90.3	1.7
2025-01-22 17:34:15.996389	147.1	18.5	-90.5	2.3
2025-01-22 17:34:17.151562	147.1	18.7	-90.2	3.2
2025-01-22 17:34:18.308517	147.1	18.8	-90.3	3.9
2025-01-22 17:34:19.454544	147.1	18.9	-90.6	4.9
2025-01-22 17:34:20.606073	147.1	19.1	-90.7	8.8
2025-01-22 17:34:21.758749	147.0	19.2	-90.5	7.3
2025-01-22 17:34:22.911934	147.0	19.4	-90.4	5.7
2025-01-22 17:34:24.070865	147.0	19.5	-90.3	6.6
2025-01-22 17:34:25.223668	147.0	19.7	-90.6	6.5
2025-01-22 17:34:26.376782	147.0	19.8	-90.5	8.0
2025-01-22 17:34:27.538548	147.0	20.0	-90.4	8.3
2025-01-22 17:34:28.688427	147.0	20.1	-90.3	6.4
2025-01-22 17:34:29.846746	147.0	20.3	-90.6	4.0
2025-01-22 17:34:31.002231	147.0	20.4	-90.7	3.1
2025-01-22 17:34:32.150825	146.9	20.6	-90.0	4.7
2025-01-22 17:34:33.300870	146.9	20.7	-90.7	2.3
2025-01-22 17:34:34.455774	146.9	20.9	-90.9	6.1
2025-01-22 17:34:35.607623	146.9	21.0	-90.6	6.2
2025-01-22 17:34:36.760266	146.9	21.2	-90.7	9.2
2025-01-22 17:34:37.915197	146.9	21.4	-90.8	8.1
2025-01-22 17:34:39.068894	146.9	21.5	-90.1	5.6
2025-01-22 17:34:40.220849	146.9	21.7	-90.1	4.6
2025-01-22 17:34:41.369515	146.8	21.8	-90.2	7.6
2025-01-22 17:34:42.526440	146.8	22.0	-90.6	8.9
2025-01-22 17:34:43.681419	146.8	22.2	-90.3	8.4
2025-01-22 17:34:44.833346	146.8	22.3	-90.0	4.0
2025-01-22 17:34:45.977414	146.8	22.5	-89.9	3.5
2025-01-22 17:34:47.128872	146.8	22.6	-90.0	4.7
2025-01-22 17:34:48.283833	146.8	22.8	-90.5	2.8
2025-01-22 17:34:49.446282	146.8	23.0	-90.4	4.0
2025-01-22 17:34:50.604187	146.7	23.2	-90.7	4.9
2025-01-22 17:34:51.758641	146.7	23.3	-90.4	6.6
2025-01-22 17:34:52.909959	146.7	23.5	-90.2	5.9
2025-01-22 17:34:54.049133	146.7	23.7	-90.4	5.4
2025-01-22 17:34:55.170685	146.7	23.8	-90.3	5.5
2025-01-22 17:34:56.290731	146.7	24.0	-90.2	3.0
2025-01-22 17:34:57.411369	146.7	24.2	-90.2	6.9
2025-01-22 17:34:58.533058	146.6	24.3	-90.5	7.3
2025-01-22 17:34:59.653598	146.6	24.5	-90.5	7.9
2025-01-22 17:35:00.774127	146.6	24.7	-90.5	5.2
2025-01-22 17:35:01.896327	146.6	24.9	-90.0	4.1
2025-01-22 17:35:03.023323	146.6	25.0	-90.5	3.2
2025-01-22 17:35:04.151724	146.6	25.2	-90.0	3.9
2025-01-22 17:35:05.307012	146.5	25.4	-90.5	3.1
2025-01-22 17:35:06.459177	146.5	25.6	-90.7	6.1
2025-01-22 17:35:07.612473	146.5	25.8	-90.5	7.4
2025-01-22 17:35:08.757597	146.5	26.0	-90.5	9.4
2025-01-22 17:35:09.911801	146.5	26.2	-90.3	8.1
2025-01-22 17:35:11.072323	146.4	26.4	-90.2	6.3
2025-01-22 17:35:12.228273	146.4	26.5	-90.0	5.4
2025-01-22 17:35:13.386858	146.4	26.7	-89.9	6.1
2025-01-22 17:35:14.541886	146.4	26.9	-90.4	9.3
2025-01-22 17:35:15.695138	146.4	27.1	-90.4	8.3
2025-01-22 17:35:16.855283	146.4	27.3	-90.5	7.2
2025-01-22 17:35:18.014221	146.3	27.5	-90.5	5.6
2025-01-22 17:35:19.173615	146.3	27.7	-90.0	2.5
2025-01-22 17:35:20.331670	146.3	27.9	-90.2	2.5
2025-01-22 17:35:21.486643	146.3	28.1	-90.5	3.2
2025-01-22 17:35:22.649418	146.2	28.3	-90.2	3.2
2025-01-22 17:35:23.812039	146.2	28.6	-90.2	1.9
2025-01-22 17:35:24.971191	146.2	28.8	-90.1	3.8
2025-01-22 17:35:26.117171	146.2	29.0	-90.2	7.4
2025-01-22 17:35:27.276790	146.2	29.2	-89.9	3.7
2025-01-22 17:35:28.436804	146.1	29.4	-90.4	3.4
2025-01-22 17:35:29.595358	146.1	29.6	-90.0	2.5
2025-01-22 17:35:30.749287	146.1	29.8	-90.2	4.5
2025-01-22 17:35:31.911966	146.1	30.0	-90.2	6.2
2025-01-22 17:35:33.063470	146.0	30.3	-89.9	6.4
2025-01-22 17:35:34.222522	146.0	30.5	-89.9	4.1
2025-01-22 17:35:35.377232	146.0	30.7	-89.8	3.8
2025-01-22 17:35:36.536743	146.0	30.9	-90.4	2.2
2025-01-22 17:35:37.691865	145.9	31.2	-90.0	1.7
2025-01-22 17:35:38.851783	145.9	31.4	-89.9	3.9
2025-01-22 17:35:40.003085	145.9	31.6	-90.7	3.0
2025-01-22 17:35:41.157272	145.9	31.9	-89.9	6.7
2025-01-22 17:35:42.314153	145.8	32.1	-89.9	7.5
2025-01-22 17:35:43.467808	145.8	32.3	-90.2	6.6
2025-01-22 17:35:44.616982	145.8	32.6	-90.1	5.7
2025-01-22 17:35:45.769186	145.7	32.8	-90.0	3.0
2025-01-22 17:35:46.921503	145.7	33.0	-90.2	4.6
2025-01-22 17:35:48.075925	145.7	33.3	-90.1	4.9
2025-01-22 17:35:49.234108	145.6	33.5	-90.0	6.7
2025-01-22 17:35:50.395291	145.6	33.8	-90.3	5.7
2025-01-22 17:35:51.543558	145.6	34.0	-90.4	4.1
2025-01-22 17:35:52.696996	145.6	34.3	-90.8	1.8
2025-01-22 17:35:53.856470	145.5	34.5	-90.5	2.4
2025-01-22 17:35:55.009282	145.5	34.8	-90.0	1.2
2025-01-22 17:35:56.163066	145.5	35.0	-90.1	5.2
2025-01-22 17:35:57.311604	145.4	35.3	-89.9	6.1
2025-01-22 17:35:58.467762	145.4	35.5	-90.0	10.4
2025-01-22 17:35:59.625392	145.3	35.8	-90.3	11.5
2025-01-22 17:36:00.773260	145.3	36.1	-90.5	10.0
2025-01-22 17:36:01.921001	145.3	36.3	-89.9	10.0
2025-01-22 17:36:03.074074	145.2	36.6	-89.9	9.0
2025-01-22 17:36:04.231286	145.2	36.9	-89.8	6.3
2025-01-22 17:36:05.385062	145.2	37.2	-89.3	11.1
2025-01-22 17:36:06.534784	145.1	37.4	-90.2	14.8
2025-01-22 17:36:07.695368	145.1	37.7	-90.3	14.0
2025-01-22 17:36:08.846587	145.0	38.0	-90.2	9.4
2025-01-22 17:36:09.992473	145.0	38.3	-90.1	6.9
2025-01-22 17:36:11.118264	144.9	38.5	-89.9	3.5
2025-01-22 17:36:12.238157	144.9	38.8	-90.1	2.2
2025-01-22 17:36:13.360261	144.9	39.1	-89.6	2.8
2025-01-22 17:36:14.478757	144.8	39.4	-90.5	6.5
2025-01-22 17:36:15.599864	144.8	39.7	-90.3	9.2
2025-01-22 17:36:16.720133	144.7	40.0	-90.2	10.9
2025-01-22 17:36:17.839982	144.7	40.3	-90.3	14.4
2025-01-22 17:36:18.963786	144.6	40.5	-90.5	13.5
2025-01-22 17:36:20.085700	144.6	40.8	-90.3	11.2
2025-01-22 17:36:21.232727	144.5	41.1	-90.5	8.0
2025-01-22 17:36:22.392890	144.5	41.5	-90.1	8.5
2025-01-22 17:36:23.539237	144.4	41.8	-90.4	11.6
2025-01-22 17:36:24.684321	144.4	42.1	-90.6	14.5
2025-01-22 17:36:25.842653	144.3	42.4	-90.2	15.4
2025-01-22 17:36:26.996441	144.3	42.7	-90.2	14.7
2025-01-22 17:36:28.153876	144.2	43.0	-89.8	8.4
2025-01-22 17:36:29.294307	144.1	43.4	-89.9	3.8
2025-01-22 17:36:30.450671	144.1	43.7	-89.9	5.1
2025-01-22 17:36:31.608587	144.0	44.0	-90.3	4.2
2025-01-22 17:36:32.761125	143.9	44.4	-89.7	4.1
2025-01-22 17:36:33.916298	143.9	44.7	-89.8	4.9
2025-01-22 17:36:35.075040	143.8	45.0	-90.3	9.0
2025-01-22 17:36:36.224844	143.7	45.4	-89.7	12.5
2025-01-22 17:36:37.377765	143.7	45.7	-89.6	14.5
2025-01-22 17:36:38.534721	143.6	46.1	-90.0	11.6
2025-01-22 17:36:39.691474	143.5	46.4	-89.9	9.0
2025-01-22 17:36:40.840359	143.5	46.8	-90.3	5.7
2025-01-22 17:36:41.998522	143.4	47.1	-90.0	6.0
2025-01-22 17:36:43.160260	143.3	47.5	-90.0	5.4
2025-01-22 17:36:44.313067	143.2	47.8	-90.1	6.0
2025-01-22 17:36:45.475489	143.1	48.2	-90.4	3.8
2025-01-22 17:36:46.628444	143.1	48.6	-90.6	9.9
2025-01-22 17:36:47.779424	143.0	49.0	-90.2	7.0
2025-01-22 17:36:48.931561	142.9	49.3	-90.3	2.9
2025-01-22 17:36:50.084199	142.8	49.7	-90.5	2.6
2025-01-22 17:36:51.238216	142.7	50.1	-90.4	2.5
2025-01-22 17:36:52.392455	142.6	50.5	-90.0	1.9
2025-01-22 17:36:53.546716	142.5	50.9	-90.3	2.1
2025-01-22 17:36:54.698458	142.4	51.2	-90.6	3.9
2025-01-22 17:36:55.846856	142.3	51.6	-89.9	7.7
2025-01-22 17:36:56.999036	142.2	52.0	-90.3	7.4
2025-01-22 17:36:58.149292	142.1	52.4	-90.4	6.3
2025-01-22 17:36:59.301420	142.0	52.8	-90.2	10.7
2025-01-22 17:37:00.446885	141.8	53.2	-90.3	9.6
2025-01-22 17:37:01.597402	141.7	53.6	-90.2	7.3
2025-01-22 17:37:02.751090	141.6	54.0	-90.5	4.4
2025-01-22 17:37:03.904135	141.5	54.5	-90.0	8.8
2025-01-22 17:37:05.064381	141.3	54.9	-90.3	11.3
2025-01-22 17:37:06.209906	141.2	55.3	-90.2	14.4
2025-01-22 17:37:07.357366	141.1	55.7	-90.2	13.7
2025-01-22 17:37:08.508347	140.9	56.1	-90.3	10.4
2025-01-22 17:37:09.658763	140.8	56.6	-90.6	11.0
2025-01-22 17:37:10.809618	140.6	57.0	-90.2	5.2
2025-01-22 17:37:11.966219	140.5	57.4	-90.6	5.0
2025-01-22 17:37:13.130177	140.3	57.9	-90.3	4.8
2025-01-22 17:37:14.283285	140.1	58.3	-89.8	1.7
2025-01-22 17:37:15.436960	140.0	58.8	-90.3	4.4
2025-01-22 17:37:16.585129	139.8	59.2	-90.6	5.8
2025-01-22 17:37:17.736777	139.6	59.7	-90.5	10.2
2025-01-22 17:37:18.885113	139.4	60.1	-90.3	6.9
2025-01-22 17:37:20.037126	139.2	60.6	-90.0	8.1
2025-01-22 17:37:21.191020	139.0	61.0	-89.8	13.6
2025-01-22 17:37:22.357675	138.8	61.5	-89.5	11.8
2025-01-22 17:37:23.512273	138.5	62.0	-90.0	11.6
2025-01-22 17:37:24.664003	138.3	62.4	-90.3	11.2
2025-01-22 17:37:25.819938	138.1	62.9	-90.3	5.4
2025-01-22 17:37:26.969412	137.8	63.4	-89.8	8.6
2025-01-22 17:37:28.123282	137.5	63.9	-89.9	9.1
2025-01-22 17:37:29.285663	137.3	64.4	-89.9	6.2
2025-01-22 17:37:30.446414	137.0	64.8	-89.6	5.3
2025-01-22 17:37:31.604063	136.7	65.3	-90.1	4.0
2025-01-22 17:37:32.760138	136.4	65.8	-90.1	12.1
2025-01-22 17:37:33.909846	136.0	66.3	-89.9	15.1
2025-01-22 17:37:35.060483	135.7	66.8	-90.1	14.5
2025-01-22 17:37:36.207254	135.3	67.3	-89.7	12.4
2025-01-22 17:37:37.367118	135.0	67.8	-90.0	4.9
2025-01-22 17:37:38.521995	134.6	68.3	-89.7	7.4
2025-01-22 17:37:39.674860	134.1	68.8	-89.9	5.7
2025-01-22 17:37:40.833865	133.7	69.3	-90.2	4.8
2025-01-22 17:37:41.984869	133.2	69.8	-89.8	5.9
2025-01-22 17:37:43.146150	132.7	70.3	-89.8	5.7
2025-01-22 17:37:44.296677	132.2	70.8	-89.8	3.3
2025-01-22 17:37:45.454566	131.7	71.3	-90.3	8.6
2025-01-22 17:37:46.611937	131.1	71.8	-90.1	10.1
2025-01-22 17:37:47.765548	130.5	72.3	-90.0	11.8
2025-01-22 17:37:48.926499	129.8	72.8	-90.3	11.9
2025-01-22 17:37:50.083640	129.1	73.3	-90.3	14.8
2025-01-22 17:37:51.244163	128.4	73.8	-89.8	17.1
2025-01-22 17:37:52.394652	127.6	74.3	-89.6	16.1
2025-01-22 17:37:53.560053	126.7	74.9	-90.1	13.8
2025-01-22 17:37:54.717389	125.8	75.4	-90.1	15.5
2025-01-22 17:37:55.873231	124.8	75.9	-89.6	8.9
2025-01-22 17:37:57.025295	123.8	76.4	-89.6	8.7
2025-01-22 17:37:58.180546	122.6	76.9	-89.7	10.7
2025-01-22 17:37:59.341451	121.4	77.3	-90.3	6.1
2025-01-22 17:38:00.487072	120.1	77.8	-90.2	11.0
2025-01-22 17:38:01.642397	118.6	78.3	-90.2	12.4
2025-01-22 17:38:02.792061	117.1	78.8	-90.1	8.1
2025-01-22 17:38:03.948453	115.4	79.3	-90.0	13.2
2025-01-22 17:38:05.099951	113.5	79.7	-90.1	12.9
2025-01-22 17:38:06.256574	111.5	80.2	-89.8	9.9
2025-01-22 17:38:07.411105	109.2	80.6	-90.1	14.6
2025-01-22 17:38:08.567838	106.8	81.0	-90.1	17.8
2025-01-22 17:38:09.722602	104.1	81.4	-90.5	18.3
2025-01-22 17:38:10.877439	101.1	81.8	-90.4	17.5
2025-01-22 17:38:12.037390	97.8	82.2	-90.4	18.2
2025-01-22 17:38:13.196552	94.3	82.5	-90.1	17.4
2025-01-22 17:38:14.356063	90.4	82.8	-90.5	18.8
2025-01-22 17:38:15.512693	86.2	83.1	-90.7	18.6
2025-01-22 17:38:16.663795	81.7	83.3	-90.5	17.5
2025-01-22 17:38:17.821214	76.9	83.5	-90.5	16.2
2025-01-22 17:38:18.977446	71.9	83.6	-90.3	14.0
2025-01-22 17:38:20.134572	66.7	83.7	-90.1	13.0
2025-01-22 17:38:21.307191	61.3	83.7	-90.2	10.5
2025-01-22 17:38:22.474686	55.9	83.7	-90.4	10.9
2025-01-22 17:38:23.626155	50.7	83.6	-90.4	11.8
2025-01-22 17:38:24.778900	45.6	83.5	-90.6	6.7
2025-01-22 17:38:25.928457	40.8	83.3	-90.1	9.6
2025-01-22 17:38:27.077165	36.3	83.1	-90.1	7.5
2025-01-22 17:38:28.232185	32.1	82.9	-90.4	5.2
2025-01-22 17:38:29.389455	28.1	82.6	-90.3	7.0
2025-01-22 17:38:30.546406	24.5	82.2	-90.5	9.6
2025-01-22 17:38:31.696549	21.2	81.9	-90.4	6.7
2025-01-22 17:38:32.850216	18.2	81.5	-89.9	4.2
2025-01-22 17:38:33.999910	15.5	81.1	-90.2	7.9
2025-01-22 17:38:35.162106	13.0	80.7	-90.1	6.2
2025-01-22 17:38:36.317943	10.7	80.3	-90.2	5.2
2025-01-22 17:38:37.472226	8.6	79.8	-90.1	8.8
2025-01-22 17:38:38.623086	6.7	79.4	-90.1	9.0
2025-01-22 17:38:39.777975	5.0	78.9	-90.3	3.7
2025-01-22 17:38:40.931077	3.4	78.4	-89.6	6.2
2025-01-22 17:38:42.092018	1.9	77.9	-89.6	7.8
2025-01-22 17:38:43.244689	0.5	77.4	-89.4	4.4
2025-01-22 17:38:44.401110	359.3	77.0	-89.6	8.6
2025-01-22 17:38:45.552830	358.1	76.5	-89.4	7.2
2025-01-22 17:38:46.707839	357.1	76.0	-89.7	5.0
2025-01-22 17:38:47.867985	356.1	75.5	-89.5	4.3
2025-01-22 17:38:49.024852	355.2	75.0	-89.8	5.0
2025-01-22 17:38:50.179096	354.3	74.5	-89.7	4.0
2025-01-22 17:38:51.336743	353.5	74.0	-90.1	2.6
2025-01-22 17:38:52.489988	352.7	73.4	-90.3	4.6
2025-01-22 17:38:53.645853	352.0	72.9	-90.0	8.2
2025-01-22 17:38:54.794377	351.4	72.4	-90.0	2.9
2025-01-22 17:38:55.945185	350.7	71.9	-89.8	7.0
2025-01-22 17:38:57.097078	350.2	71.4	-90.0	4.7
2025-01-22 17:38:58.243964	349.6	70.9	-90.0	3.0
2025-01-22 17:38:59.399264	349.1	70.4	-89.9	6.4
2025-01-22 17:39:00.548075	348.6	69.9	-90.0	5.9
2025-01-22 17:39:01.701502	348.1	69.4	-90.1	2.6
2025-01-22 17:39:02.846700	347.7	68.9	-90.2	3.6
2025-01-22 17:39:04.002902	347.3	68.4	-90.0	7.6
2025-01-22 17:39:05.162440	346.9	67.9	-90.0	6.0
2025-01-22 17:39:06.318074	346.5	67.4	-90.0	5.0
2025-01-22 17:39:07.484359	346.1	66.9	-90.2	5.5
2025-01-22 17:39:08.642046	345.8	66.4	-89.9	8.2
2025-01-22 17:39:09.793944	345.4	66.0	-90.2	1.5
2025-01-22 17:39:10.951566	345.1	65.5	-90.3	5.2
2025-01-22 17:39:12.100520	344.8	65.0	-89.7	6.4
2025-01-22 17:39:13.247787	344.5	64.5	-89.8	4.5
2025-01-22 17:39:14.396710	344.2	64.0	-89.8	7.7
2025-01-22 17:39:15.531487	344.0	63.6	-89.9	6.8
2025-01-22 17:39:16.652765	343.7	63.1	-90.0	8.1
2025-01-22 17:39:17.772550	343.5	62.6	-90.5	8.8
2025-01-22 17:39:18.892740	343.3	62.2	-90.1	7.0
2025-01-22 17:39:20.012957	343.0	61.7	-90.4	8.9
2025-01-22 17:39:21.133351	342.8	61.3	-90.2	10.5
2025-01-22 17:39:22.254552	342.6	60.8	-90.0	6.6
2025-01-22 17:39:23.375429	342.4	60.4	-90.5	9.4
2025-01-22 17:39:24.499607	342.2	60.0	-90.4	13.1
2025-01-22 17:39:25.635539	342.0	59.5	-90.3	11.9
2025-01-22 17:39:26.787357	341.8	59.1	-89.8	7.2
2025-01-22 17:39:27.939548	341.7	58.6	-90.4	12.2
2025-01-22 17:39:29.092298	341.5	58.2	-90.3	14.2
2025-01-22 17:39:30.232071	341.3	57.7	-90.2	14.7
2025-01-22 17:39:31.388565	341.2	57.3	-90.1	12.6
2025-01-22 17:39:32.543315	341.0	56.9	-90.2	15.3
2025-01-22 17:39:33.693628	340.9	56.4	-90.2	14.2
2025-01-22 17:39:34.850420	340.7	56.0	-90.5	12.7
2025-01-22 17:39:36.002910	340.6	55.6	-90.4	13.1
2025-01-22 17:39:37.149765	340.4	55.2	-90.1	10.5
2025-01-22 17:39:38.305764	340.3	54.8	-89.8	6.3
2025-01-22 17:39:39.460777	340.2	54.3	-90.1	6.5
2025-01-22 17:39:40.597819	340.1	53.9	-90.3	7.5
2025-01-22 17:39:41.750927	339.9	53.5	-90.1	5.0
2025-01-22 17:39:42.895491	339.8	53.1	-90.4	8.7
2025-01-22 17:39:44.050271	339.7	52.7	-90.4	5.9
2025-01-22 17:39:45.200184	339.6	52.3	-90.5	4.1
2025-01-22 17:39:46.346463	339.5	51.9	-90.2	4.1
2025-01-22 17:39:47.502013	339.4	51.5	-90.1	6.1
2025-01-22 17:39:48.654662	339.3	51.1	-90.2	7.4
2025-01-22 17:39:49.808236	339.2	50.8	-90.3	7.2
2025-01-22 17:39:50.960697	339.1	50.4	-89.9	9.1
2025-01-22 17:39:52.116561	339.0	50.0	-90.2	10.0
2025-01-22 17:39:53.270357	338.9	49.6	-90.2	10.4
2025-01-22 17:39:54.421506	338.8	49.2	-90.1	10.2
2025-01-22 17:39:55.580366	338.7	48.9	-90.6	11.6
2025-01-22 17:39:56.735398	338.6	48.5	-90.5	8.8
2025-01-22 17:39:57.891102	338.5	48.1	-90.2	12.7
2025-01-22 17:39:59.048142	338.5	47.8	-90.1	10.5
2025-01-22 17:40:00.193923	338.4	47.4	-90.4	16.6
2025-01-22 17:40:01.341969	338.3	47.1	-90.0	13.5
2025-01-22 17:40:02.492310	338.2	46.7	-90.5	10.3
2025-01-22 17:40:03.645305	338.2	46.4	-90.6	8.9
2025-01-22 17:40:04.803488	338.1	46.0	-90.3	7.7
2025-01-22 17:40:05.955424	338.0	45.7	-90.9	9.3
2025-01-22 17:40:07.110321	337.9	45.3	-90.3	8.4
2025-01-22 17:40:08.265971	337.9	45.0	-90.3	4.9
2025-01-22 17:40:09.423644	337.8	44.7	-89.9	6.3
2025-01-22 17:40:10.575093	337.7	44.3	-89.9	9.7
2025-01-22 17:40:11.737106	337.7	44.0	-90.1	7.4
2025-01-22 17:40:12.890773	337.6	43.7	-90.0	11.9
2025-01-22 17:40:14.044543	337.6	43.3	-90.0	13.5
2025-01-22 17:40:15.194452	337.5	43.0	-89.8	16.3
2025-01-22 17:40:16.351511	337.4	42.7	-90.2	18.0
2025-01-22 17:40:17.501506	337.4	42.4	-90.7	17.9
2025-01-22 17:40:18.648440	337.3	42.1	-90.6	14.0
2025-01-22 17:40:19.796557	337.3	41.8	-90.6	12.1
2025-01-22 17:40:20.945719	337.2	41.4	-90.7	13.0
2025-01-22 17:40:22.100209	337.2	41.1	-90.5	12.0
2025-01-22 17:40:23.252553	337.1	40.8	-90.6	10.7
2025-01-22 17:40:24.410138	337.1	40.5	-89.9	9.2
2025-01-22 17:40:25.563478	337.0	40.2	-90.4	9.8
2025-01-22 17:40:26.723594	337.0	39.9	-90.3	5.7
2025-01-22 17:40:27.879933	336.9	39.6	-90.2	4.9
2025-01-22 17:40:29.033718	336.9	39.3	-90.4	7.8
2025-01-22 17:40:30.185345	336.8	39.1	-90.6	6.8
2025-01-22 17:40:31.344258	336.8	38.8	-90.3	5.3
2025-01-22 17:40:32.504546	336.8	38.5	-90.5	10.2
2025-01-22 17:40:33.653067	336.7	38.2	-90.6	9.0
2025-01-22 17:40:34.811966	336.7	37.9	-90.6	12.6
2025-01-22 17:40:35.969616	336.6	37.6	-90.4	14.3
2025-01-22 17:40:37.125598	336.6	37.4	-89.9	12.6
2025-01-22 17:40:38.280145	336.5	37.1	-90.0	12.3
2025-01-22 17:40:39.431305	336.5	36.8	-90.1	8.6
2025-01-22 17:40:40.593825	336.5	36.6	-90.0	6.8
2025-01-22 17:40:41.749295	336.4	36.3	-90.2	5.6
2025-01-22 17:40:42.910301	336.4	36.0	-90.3	5.1
2025-01-22 17:40:44.064797	336.4	35.8	-90.1	4.4
2025-01-22 17:40:45.214588	336.3	35.5	-90.5	4.4
2025-01-22 17:40:46.370740	336.3	35.2	-90.5	3.5
2025-01-22 17:40:47.522671	336.3	35.0	-90.5	6.3
2025-01-22 17:40:48.673370	336.2	34.7	-90.2	9.1
2025-01-22 17:40:49.826533	336.2	34.5	-90.6	9.3
2025-01-22 17:40:50.985407	336.2	34.2	-90.5	12.6
2025-01-22 17:40:52.141259	336.1	34.0	-90.2	10.2
2025-01-22 17:40:53.300552	336.1	33.7	-90.1	11.3
2025-01-22 17:40:54.425128	336.1	33.5	-90.3	9.4
2025-01-22 17:40:55.585359	336.0	33.3	-90.9	10.5
2025-01-22 17:40:56.740949	336.0	33.0	-90.9	6.2
2025-01-22 17:40:57.892878	336.0	32.8	-90.3	3.2
2025-01-22 17:40:59.055099	335.9	32.5	-90.3	6.2
2025-01-22 17:41:00.198339	335.9	32.3	-90.3	4.8
2025-01-22 17:41:01.351731	335.9	32.1	-90.5	1.6
2025-01-22 17:41:02.511275	335.9	31.8	-89.6	4.0
2025-01-22 17:41:03.660870	335.8	31.6	-89.4	4.7
2025-01-22 17:41:04.824479	335.8	31.4	-89.8	5.5
2025-01-22 17:41:05.978141	335.8	31.2	-89.5	3.3
2025-01-22 17:41:07.132102	335.8	30.9	-89.6	1.9
2025-01-22 17:41:08.291526	335.7	30.7	-89.0	7.7
2025-01-22 17:41:09.449814	335.7	30.5	-90.1	7.9
2025-01-22 17:41:10.606390	335.7	30.3	-90.4	8.1
2025-01-22 17:41:11.762893	335.7	30.1	-89.5	6.0
2025-01-22 17:41:12.914667	335.6	29.8	-89.5	3.8
2025-01-22 17:41:14.068411	335.6	29.6	-89.3	3.4
2025-01-22 17:41:15.230167	335.6	29.4	-89.3	4.8
2025-01-22 17:41:16.378505	335.6	29.2	-89.6	4.4
2025-01-22 17:41:17.526186	335.5	29.0	-89.2	7.4
2025-01-22 17:41:18.683079	335.5	28.8	-89.5	4.2
2025-01-22 17:41:19.847116	335.5	28.6	-89.9	1.4
2025-01-22 17:41:20.998428	335.5	28.4	-89.4	1.9
2025-01-22 17:41:22.153183	335.5	28.2	-89.1	7.6
2025-01-22 17:41:23.302469	335.4	28.0	-89.2	6.9
2025-01-22 17:41:24.452917	335.4	27.8	-89.7	4.5
2025-01-22 17:41:25.611796	335.4	27.6	-89.4	4.9
2025-01-22 17:41:26.766524	335.4	27.4	-90.3	4.4
2025-01-22 17:41:27.918313	335.4	27.2	-90.2	2.5
2025-01-22 17:41:29.075701	335.3	27.0	-90.1	4.6
2025-01-22 17:41:30.229603	335.3	26.8	-89.8	5.7
2025-01-22 17:41:31.387300	335.3	26.6	-90.0	4.4
2025-01-22 17:41:32.544704	335.3	26.4	-90.4	4.6
2025-01-22 17:41:33.700106	335.3	26.2	-90.5	2.9
2025-01-22 17:41:34.856122	335.2	26.0	-90.4	5.8
2025-01-22 17:41:36.016575	335.2	25.8	-90.1	6.0
2025-01-22 17:41:37.167560	335.2	25.7	-89.9	8.3
2025-01-22 17:41:38.317257	335.2	25.5	-89.8	6.1
2025-01-22 17:41:39.476411	335.2	25.3	-90.5	11.1
2025-01-22 17:41:40.629798	335.2	25.1	-90.4	6.2
2025-01-22 17:41:41.787247	335.1	24.9	-90.4	6.9
2025-01-22 17:41:42.944655	335.1	24.7	-90.2	4.5
2025-01-22 17:41:44.100925	335.1	24.6	-90.2	2.7
2025-01-22 17:41:45.258241	335.1	24.4	-89.9	4.0
2025-01-22 17:41:46.417925	335.1	24.2	-90.2	2.3
2025-01-22 17:41:47.567863	335.1	24.0	-90.3	4.7
2025-01-22 17:41:48.725357	335.1	23.9	-90.6	5.2
2025-01-22 17:41:49.877248	335.0	23.7	-90.9	6.2
2025-01-22 17:41:51.037450	335.0	23.5	-89.9	6.4
2025-01-22 17:41:52.187296	335.0	23.4	-90.1	5.2
2025-01-22 17:41:53.342999	335.0	23.2	-89.7	7.0
2025-01-22 17:41:54.494937	335.0	23.0	-90.3	6.9
2025-01-22 17:41:55.648094	335.0	22.8	-90.3	3.7
2025-01-22 17:41:56.802897	335.0	22.7	-90.4	4.9
2025-01-22 17:41:57.957602	334.9	22.5	-90.4	5.1
2025-01-22 17:41:59.115008	334.9	22.4	-90.1	5.8
2025-01-22 17:42:00.254460	334.9	22.2	-89.8	1.7
2025-01-22 17:42:01.410558	334.9	22.0	-89.9	3.7
2025-01-22 17:42:02.567372	334.9	21.9	-90.0	1.0
2025-01-22 17:42:03.729577	334.9	21.7	-90.0	2.9
2025-01-22 17:42:04.883443	334.9	21.6	-89.9	5.7
2025-01-22 17:42:06.044275	334.9	21.4	-89.9	6.5
2025-01-22 17:42:07.202290	334.8	21.2	-89.5	3.8
2025-01-22 17:42:08.362542	334.8	21.1	-89.5	7.0
2025-01-22 17:42:09.512422	334.8	20.9	-90.5	3.3
2025-01-22 17:42:10.674303	334.8	20.8	-90.1	5.7
2025-01-22 17:42:11.826440	334.8	20.6	-90.5	2.8
2025-01-22 17:42:12.977646	334.8	20.5	-90.5	1.8
2025-01-22 17:42:14.133168	334.8	20.3	-90.3	3.6
2025-01-22 17:42:15.292707	334.8	20.2	-90.2	3.3
2025-01-22 17:42:16.450310	334.8	20.0	-90.3	3.2
2025-01-22 17:42:17.608347	334.7	19.9	-89.9	2.7
2025-01-22 17:42:18.762765	334.7	19.7	-90.5	2.1
2025-01-22 17:42:19.924973	334.7	19.6	-89.9	2.2
2025-01-22 17:42:21.077301	334.7	19.4	-89.7	3.1
2025-01-22 17:42:22.233014	334.7	19.3	-90.1	3.0
2025-01-22 17:42:23.385913	334.7	19.1	-90.2	0.6
2025-01-22 17:42:24.539229	334.7	19.0	-90.5	3.9
2025-01-22 17:42:25.691326	334.7	18.9	-90.4	2.0
2025-01-22 17:42:26.844090	334.7	18.7	-90.3	2.7
2025-01-22 17:42:27.994332	334.7	18.6	-90.3	1.9
2025-01-22 17:42:29.145091	334.7	18.4	-90.1	3.6
2025-01-22 17:42:30.298718	334.6	18.3	-90.2	1.9
2025-01-22 17:42:31.458423	334.6	18.2	-90.6	2.3
2025-01-22 17:42:32.615679	334.6	18.0	-90.6	2.3
2025-01-22 17:42:33.775105	334.6	17.9	-90.7	4.4
2025-01-22 17:42:34.925704	334.6	17.7	-90.6	5.8
2025-01-22 17:42:36.078248	334.6	17.6	-90.5	2.3
2025-01-22 17:42:37.229763	334.6	17.5	-90.0	1.9
2025-01-22 17:42:38.389368	334.6	17.3	-90.1	1.0
2025-01-22 17:42:39.552419	334.6	17.2	-89.9	2.1
2025-01-22 17:42:40.707827	334.6	17.1	-90.7	0.3
2025-01-22 17:42:41.860444	334.6	16.9	-90.4	2.3
2025-01-22 17:42:43.117845	334.6	16.8	-90.1	0.8
2025-01-22 17:42:44.265405	334.5	16.7	-90.0	2.9
2025-01-22 17:42:45.415977	334.5	16.5	-90.5	2.6
2025-01-22 17:42:46.573392	334.5	16.4	-90.0	3.7
2025-01-22 17:42:47.720855	334.5	16.3	-89.9	2.2
2025-01-22 17:42:48.878219	334.5	16.2	-90.3	3.5
2025-01-22 17:42:50.043187	334.5	16.0	-90.2	2.2
2025-01-22 17:42:51.206710	334.5	15.9	-90.2	2.3
2025-01-22 17:42:52.358792	334.5	15.8	-89.8	0.4
2025-01-22 17:42:53.521474	334.5	15.7	-90.5	1.0
2025-01-22 17:42:54.665691	334.5	15.5	-90.3	2.9
2025-01-22 17:42:55.825928	334.5	15.4	-89.7	2.0
2025-01-22 17:42:56.984322	334.5	15.3	-90.4	1.3
2025-01-22 17:42:58.138965	334.5	15.2	-90.2	2.1
2025-01-22 17:42:59.290608	334.5	15.0	-90.3	2.3
2025-01-22 17:43:00.444141	334.5	14.9	-90.1	2.9
2025-01-22 17:43:01.596659	334.4	14.8	-90.6	1.5
2025-01-22 17:43:02.749637	334.4	14.7	-90.4	4.3
2025-01-22 17:43:03.908419	334.4	14.6	-90.3	2.5
2025-01-22 17:43:05.081181	334.4	14.4	-90.6	2.5
#Closed at: 2025-01-22 17:33:50.295549