passes_logs/2025/01/22/LEX_Murmansk/LEX_Murmansk__20250122_091436_NOAA_19_rec.log

#Pass ID: 20250122_091436_NOAA 19
#Satellite: NOAA 19
#Configuration: NOAA 19
#Start time: 2025-01-22 09:14:31.111853

#LorettStation: 1.0.0 05.05.2024
#Station: LEX_Murmansk
#Location: 33.156738 lon 68.926811 lat
#TLE: 1 33591U 09005A   25021.16349212  .00000417  00000+0  24660-3 0  9995
#TLE: 2 33591  99.0186  84.9732 0014271  40.9333 319.2908 14.13264918822414

#Time	Az	El	Level	SNR
2025-01-22 09:14:43.306910	25.1	16.3	-90.1	3.0
2025-01-22 09:14:44.462795	25.0	16.4	-90.8	3.6
2025-01-22 09:14:45.618753	25.0	16.6	-90.1	3.7
2025-01-22 09:14:46.774908	25.0	16.7	-90.4	3.9
2025-01-22 09:14:47.929493	25.0	16.8	-90.6	4.1
2025-01-22 09:14:49.090768	25.0	17.0	-90.5	0.8
2025-01-22 09:14:50.258982	24.9	17.1	-89.8	2.6
2025-01-22 09:14:51.416068	24.9	17.2	-90.9	2.6
2025-01-22 09:14:52.581077	24.9	17.4	-91.0	2.0
2025-01-22 09:14:53.742892	24.9	17.5	-91.1	2.8
2025-01-22 09:14:54.899633	24.9	17.6	-89.8	3.4
2025-01-22 09:14:56.060025	24.8	17.8	-89.8	4.1
2025-01-22 09:14:57.222181	24.8	17.9	-90.0	7.9
2025-01-22 09:14:58.387493	24.8	18.1	-90.1	8.6
2025-01-22 09:14:59.551598	24.8	18.2	-90.0	7.7
2025-01-22 09:15:00.702801	24.8	18.3	-90.5	3.6
2025-01-22 09:15:01.857540	24.7	18.5	-90.2	7.5
2025-01-22 09:15:03.027151	24.7	18.6	-90.0	9.3
2025-01-22 09:15:04.186988	24.7	18.8	-89.9	8.2
2025-01-22 09:15:05.352636	24.7	18.9	-89.6	3.4
2025-01-22 09:15:06.507547	24.6	19.0	-90.3	5.0
2025-01-22 09:15:07.668290	24.6	19.2	-90.3	1.0
2025-01-22 09:15:08.828461	24.6	19.3	-90.1	1.9
2025-01-22 09:15:09.986676	24.6	19.5	-90.0	3.0
2025-01-22 09:15:11.149191	24.6	19.6	-90.0	6.5
2025-01-22 09:15:12.307603	24.5	19.8	-90.6	8.2
2025-01-22 09:15:13.472477	24.5	19.9	-90.7	9.8
2025-01-22 09:15:14.643032	24.5	20.1	-90.9	8.8
2025-01-22 09:15:15.796957	24.5	20.2	-90.8	3.5
2025-01-22 09:15:16.958492	24.4	20.4	-90.4	7.2
2025-01-22 09:15:18.123258	24.4	20.5	-90.0	7.4
2025-01-22 09:15:19.278945	24.4	20.7	-90.4	7.6
2025-01-22 09:15:20.437887	24.4	20.8	-90.8	8.7
2025-01-22 09:15:21.594088	24.3	21.0	-90.8	6.7
2025-01-22 09:15:22.747504	24.3	21.1	-91.0	2.0
2025-01-22 09:15:23.909392	24.3	21.3	-90.9	3.8
2025-01-22 09:15:25.062196	24.2	21.4	-91.2	2.0
2025-01-22 09:15:26.216139	24.2	21.6	-90.7	3.3
2025-01-22 09:15:27.377006	24.2	21.8	-90.5	6.1
2025-01-22 09:15:28.538270	24.2	21.9	-90.4	5.8
2025-01-22 09:15:29.704128	24.1	22.1	-90.6	9.0
2025-01-22 09:15:30.860533	24.1	22.2	-91.0	6.4
2025-01-22 09:15:32.030848	24.1	22.4	-90.9	7.2
2025-01-22 09:15:33.186357	24.0	22.6	-90.8	5.3
2025-01-22 09:15:34.350989	24.0	22.7	-90.5	6.0
2025-01-22 09:15:35.505267	24.0	22.9	-90.3	10.1
2025-01-22 09:15:36.669866	23.9	23.1	-90.1	8.0
2025-01-22 09:15:37.837416	23.9	23.2	-89.9	5.6
2025-01-22 09:15:38.993499	23.9	23.4	-89.2	3.5
2025-01-22 09:15:40.154674	23.9	23.6	-90.1	1.6
2025-01-22 09:15:41.310085	23.8	23.8	-89.4	0.6
2025-01-22 09:15:42.464672	23.8	23.9	-90.1	3.2
2025-01-22 09:15:43.625149	23.8	24.1	-90.4	9.1
2025-01-22 09:15:44.790151	23.7	24.3	-90.0	11.7
2025-01-22 09:15:45.955074	23.7	24.5	-90.4	11.9
2025-01-22 09:15:47.116823	23.7	24.6	-89.7	9.1
2025-01-22 09:15:48.270897	23.6	24.8	-90.1	6.5
2025-01-22 09:15:49.436361	23.6	25.0	-90.2	3.5
2025-01-22 09:15:50.592270	23.5	25.2	-90.6	7.5
2025-01-22 09:15:51.748479	23.5	25.3	-90.0	4.9
2025-01-22 09:15:52.912330	23.5	25.5	-90.3	6.6
2025-01-22 09:15:54.076317	23.4	25.7	-88.0	3.7
2025-01-22 09:15:55.234324	23.4	25.9	-90.0	3.1
2025-01-22 09:15:56.398222	23.4	26.1	-89.9	4.6
2025-01-22 09:15:57.553193	23.3	26.3	-90.1	2.0
2025-01-22 09:15:58.713229	23.3	26.5	-90.4	3.2
2025-01-22 09:15:59.875413	23.2	26.7	-90.3	6.9
2025-01-22 09:16:01.033415	23.2	26.9	-90.2	2.8
2025-01-22 09:16:02.186071	23.2	27.0	-90.1	3.6
2025-01-22 09:16:03.349237	23.1	27.2	-90.1	5.1
2025-01-22 09:16:04.515108	23.1	27.4	-90.2	4.3
2025-01-22 09:16:05.678200	23.0	27.6	-90.3	4.2
2025-01-22 09:16:06.843519	23.0	27.8	-90.3	3.6
2025-01-22 09:16:08.003729	22.9	28.0	-90.4	2.6
2025-01-22 09:16:09.166649	22.9	28.2	-90.1	5.0
2025-01-22 09:16:10.326395	22.9	28.4	-90.1	6.8
2025-01-22 09:16:11.482865	22.8	28.7	-91.0	5.0
2025-01-22 09:16:12.639466	22.8	28.9	-91.2	3.9
2025-01-22 09:16:13.799170	22.7	29.1	-91.3	3.2
2025-01-22 09:16:14.960965	22.7	29.3	-90.9	3.1
2025-01-22 09:16:16.126159	22.6	29.5	-90.1	5.0
2025-01-22 09:16:17.285646	22.6	29.7	-90.6	6.4
2025-01-22 09:16:18.444472	22.5	29.9	-90.7	7.3
2025-01-22 09:16:19.609064	22.5	30.1	-91.1	6.0
2025-01-22 09:16:20.770025	22.4	30.3	-91.2	3.6
2025-01-22 09:16:21.925483	22.4	30.6	-91.0	2.7
2025-01-22 09:16:23.091982	22.3	30.8	-90.1	3.3
2025-01-22 09:16:24.247602	22.3	31.0	-90.1	4.5
2025-01-22 09:16:25.405270	22.2	31.2	-90.1	4.5
2025-01-22 09:16:26.572007	22.1	31.5	-90.2	8.0
2025-01-22 09:16:27.728942	22.1	31.7	-90.6	2.6
2025-01-22 09:16:28.891587	22.0	31.9	-90.8	2.0
2025-01-22 09:16:30.051744	22.0	32.1	-90.4	3.1
2025-01-22 09:16:31.213468	21.9	32.4	-90.2	1.2
2025-01-22 09:16:32.368449	21.9	32.6	-89.9	2.9
2025-01-22 09:16:33.527561	21.8	32.9	-90.4	5.2
2025-01-22 09:16:34.688359	21.7	33.1	-90.1	9.5
2025-01-22 09:16:35.856134	21.7	33.3	-89.7	6.8
2025-01-22 09:16:37.012247	21.6	33.6	-90.0	9.5
2025-01-22 09:16:38.175866	21.5	33.8	-89.5	9.2
2025-01-22 09:16:39.334868	21.5	34.1	-90.0	4.3
2025-01-22 09:16:40.497117	21.4	34.3	-89.7	5.5
2025-01-22 09:16:41.648480	21.3	34.6	-89.5	5.1
2025-01-22 09:16:42.823917	21.3	34.8	-90.3	8.6
2025-01-22 09:16:43.986922	21.2	35.1	-90.4	7.4
2025-01-22 09:16:45.151331	21.1	35.3	-89.8	5.9
2025-01-22 09:16:46.320628	21.1	35.6	-89.8	5.4
2025-01-22 09:16:47.474411	21.0	35.8	-90.4	4.6
2025-01-22 09:16:48.638166	20.9	36.1	-90.3	2.7
2025-01-22 09:16:49.800729	20.8	36.4	-89.9	4.6
2025-01-22 09:16:50.968652	20.8	36.6	-90.1	5.0
2025-01-22 09:16:52.128255	20.7	36.9	-89.4	10.8
2025-01-22 09:16:53.295418	20.6	37.2	-90.1	14.7
2025-01-22 09:16:54.458650	20.5	37.4	-90.4	12.3
2025-01-22 09:16:55.620278	20.4	37.7	-90.2	14.0
2025-01-22 09:16:56.786080	20.3	38.0	-89.9	6.9
2025-01-22 09:16:57.946865	20.3	38.3	-90.1	5.9
2025-01-22 09:16:59.109452	20.2	38.6	-91.0	10.1
2025-01-22 09:17:00.266909	20.1	38.8	-91.1	15.1
2025-01-22 09:17:01.427948	20.0	39.1	-91.3	12.6
2025-01-22 09:17:02.585834	19.9	39.4	-90.8	14.8
2025-01-22 09:17:03.748791	19.8	39.7	-90.9	8.4
2025-01-22 09:17:04.903310	19.7	40.0	-91.2	5.6
2025-01-22 09:17:06.059994	19.6	40.3	-91.2	2.2
2025-01-22 09:17:07.221719	19.5	40.6	-90.9	2.5
2025-01-22 09:17:08.383637	19.4	40.9	-91.1	5.7
2025-01-22 09:17:09.541117	19.3	41.2	-91.2	10.4
2025-01-22 09:17:10.697943	19.2	41.5	-90.9	7.3
2025-01-22 09:17:11.855973	19.1	41.8	-91.1	8.9
2025-01-22 09:17:13.014774	19.0	42.1	-91.3	15.3
2025-01-22 09:17:14.177528	18.9	42.4	-90.9	13.5
2025-01-22 09:17:15.344346	18.8	42.7	-89.9	8.5
2025-01-22 09:17:16.474620	18.6	43.0	-90.1	11.3
2025-01-22 09:17:17.634345	18.5	43.3	-89.9	17.4
2025-01-22 09:17:18.795622	18.4	43.7	-89.8	13.6
2025-01-22 09:17:19.961539	18.3	44.0	-89.9	11.2
2025-01-22 09:17:21.112778	18.2	44.3	-89.7	16.7
2025-01-22 09:17:22.270007	18.0	44.6	-90.6	10.2
2025-01-22 09:17:23.429779	17.9	45.0	-90.8	7.2
2025-01-22 09:17:24.594435	17.8	45.3	-90.3	5.0
2025-01-22 09:17:25.760929	17.6	45.7	-90.6	0.7
2025-01-22 09:17:26.908686	17.5	46.0	-91.1	5.4
2025-01-22 09:17:28.078538	17.3	46.3	-91.0	6.9
2025-01-22 09:17:29.241073	17.2	46.7	-91.0	5.0
2025-01-22 09:17:30.400501	17.0	47.0	-90.9	12.9
2025-01-22 09:17:31.563722	16.9	47.4	-91.1	9.6
2025-01-22 09:17:32.720125	16.7	47.7	-91.4	11.6
2025-01-22 09:17:33.873019	16.6	48.1	-90.2	16.0
2025-01-22 09:17:35.029884	16.4	48.4	-89.1	9.3
2025-01-22 09:17:36.187199	16.2	48.8	-89.7	6.1
2025-01-22 09:17:37.347476	16.0	49.2	-90.2	5.8
2025-01-22 09:17:38.510633	15.9	49.5	-90.5	9.2
2025-01-22 09:17:39.669500	15.7	49.9	-90.5	13.1
2025-01-22 09:17:40.828434	15.5	50.3	-91.5	8.8
2025-01-22 09:17:41.989133	15.3	50.6	-91.3	13.0
2025-01-22 09:17:43.148648	15.1	51.0	-91.0	7.5
2025-01-22 09:17:44.313427	14.9	51.4	-91.1	3.1
2025-01-22 09:17:45.469001	14.7	51.8	-91.1	6.4
2025-01-22 09:17:46.629831	14.5	52.2	-90.7	7.3
2025-01-22 09:17:47.783563	14.3	52.5	-90.6	1.8
2025-01-22 09:17:48.946999	14.0	52.9	-90.5	3.8
2025-01-22 09:17:50.111573	13.8	53.3	-90.6	6.8
2025-01-22 09:17:51.268700	13.6	53.7	-90.8	6.4
2025-01-22 09:17:52.427354	13.3	54.1	-91.1	6.3
2025-01-22 09:17:53.583966	13.1	54.5	-91.2	2.5
2025-01-22 09:17:54.745047	12.8	54.9	-90.5	4.9
2025-01-22 09:17:55.905070	12.6	55.3	-89.3	8.6
2025-01-22 09:17:57.064110	12.3	55.7	-89.8	8.9
2025-01-22 09:17:58.217293	12.0	56.1	-87.9	8.1
2025-01-22 09:17:59.374370	11.7	56.5	-88.7	10.9
2025-01-22 09:18:00.532329	11.4	56.9	-90.3	7.8
2025-01-22 09:18:01.690560	11.1	57.4	-91.0	5.0
2025-01-22 09:18:02.852182	10.8	57.8	-90.8	5.7
2025-01-22 09:18:04.017498	10.5	58.2	-90.6	9.0
2025-01-22 09:18:05.176010	10.1	58.6	-90.5	11.7
2025-01-22 09:18:06.337986	9.8	59.0	-90.7	12.7
2025-01-22 09:18:07.492077	9.4	59.5	-89.7	12.2
2025-01-22 09:18:08.656551	9.0	59.9	-87.2	9.3
2025-01-22 09:18:09.816093	8.6	60.3	-90.9	5.7
2025-01-22 09:18:10.972041	8.3	60.8	-91.2	5.4
2025-01-22 09:18:12.130471	7.8	61.2	-90.7	6.3
2025-01-22 09:18:13.288734	7.4	61.6	-90.5	4.0
2025-01-22 09:18:14.448378	7.0	62.1	-91.3	6.6
2025-01-22 09:18:15.598637	6.5	62.5	-87.1	6.6
2025-01-22 09:18:16.756225	6.0	62.9	-90.6	6.3
2025-01-22 09:18:17.917744	5.5	63.4	-91.1	10.9
2025-01-22 09:18:19.079488	5.0	63.8	-91.2	15.2
2025-01-22 09:18:20.238190	4.5	64.3	-90.8	3.5
2025-01-22 09:18:21.398555	3.9	64.7	-90.5	18.7
2025-01-22 09:18:22.553092	3.4	65.1	-90.5	19.7
2025-01-22 09:18:23.709710	2.8	65.6	-86.9	12.6
2025-01-22 09:18:24.875089	2.1	66.0	-90.1	11.4
2025-01-22 09:18:26.034945	1.5	66.5	-90.8	10.7
2025-01-22 09:18:27.194255	0.8	66.9	-90.8	6.5
2025-01-22 09:18:28.350944	0.1	67.3	-91.0	3.9
2025-01-22 09:18:29.511444	359.4	67.8	-90.8	8.7
2025-01-22 09:18:30.667406	358.6	68.2	-90.5	8.4
2025-01-22 09:18:31.835338	357.8	68.6	-90.7	5.2
2025-01-22 09:18:32.987942	356.9	69.1	-87.8	6.2
2025-01-22 09:18:34.143915	356.1	69.5	-90.6	13.9
2025-01-22 09:18:35.306611	355.1	69.9	-89.8	15.5
2025-01-22 09:18:36.464927	354.2	70.4	-90.3	20.1
2025-01-22 09:18:37.627756	353.2	70.8	-90.4	5.6
2025-01-22 09:18:38.781392	352.1	71.2	-90.2	8.2
2025-01-22 09:18:39.936221	351.0	71.6	-88.3	5.4
2025-01-22 09:18:41.099746	349.8	72.0	-90.7	2.6
2025-01-22 09:18:42.272637	348.6	72.4	-91.1	3.2
2025-01-22 09:18:43.435695	347.3	72.8	-91.1	2.3
2025-01-22 09:18:44.600226	346.0	73.2	-91.1	7.5
2025-01-22 09:18:45.757582	344.6	73.6	-91.2	3.0
2025-01-22 09:18:46.916541	343.1	74.0	-91.1	3.6
2025-01-22 09:18:48.072212	341.6	74.3	-90.6	5.2
2025-01-22 09:18:49.230596	339.9	74.7	-90.5	2.7
2025-01-22 09:18:50.393840	338.2	75.0	-90.5	4.5
2025-01-22 09:18:51.550110	336.5	75.3	-90.3	6.7
2025-01-22 09:18:52.695161	334.6	75.6	-90.3	12.8
2025-01-22 09:18:53.853922	332.7	75.9	-90.3	6.6
2025-01-22 09:18:55.008011	330.6	76.2	-91.0	7.3
2025-01-22 09:18:56.168876	328.5	76.5	-91.0	10.6
2025-01-22 09:18:57.332945	326.3	76.7	-90.5	9.5
2025-01-22 09:18:58.492925	324.0	77.0	-90.7	16.5
2025-01-22 09:18:59.650398	321.7	77.2	-90.7	19.1
2025-01-22 09:19:00.809050	319.2	77.3	-89.8	22.3
2025-01-22 09:19:01.964645	316.7	77.5	-89.5	12.4
2025-01-22 09:19:03.124374	314.2	77.6	-90.2	17.8
2025-01-22 09:19:04.278857	311.5	77.8	-90.0	17.6
2025-01-22 09:19:05.436713	308.9	77.8	-89.8	9.6
2025-01-22 09:19:06.600125	306.2	77.9	-89.5	12.8
2025-01-22 09:19:07.768333	303.4	77.9	-90.7	10.3
2025-01-22 09:19:08.933598	300.7	78.0	-90.9	11.5
2025-01-22 09:19:10.088138	297.9	77.9	-91.1	10.6
2025-01-22 09:19:11.250961	295.2	77.9	-91.2	8.1
2025-01-22 09:19:12.407109	292.5	77.8	-89.8	9.2
2025-01-22 09:19:13.569733	289.9	77.7	-90.8	8.7
2025-01-22 09:19:14.722957	287.3	77.6	-90.1	7.6
2025-01-22 09:19:15.879954	284.7	77.5	-91.0	8.8
2025-01-22 09:19:17.044358	282.2	77.3	-90.9	8.3
2025-01-22 09:19:18.206817	279.8	77.1	-90.9	6.5
2025-01-22 09:19:19.357760	277.5	76.9	-90.9	6.3
2025-01-22 09:19:20.509975	275.3	76.6	-89.6	3.6
2025-01-22 09:19:21.673044	273.1	76.4	-89.9	9.3
2025-01-22 09:19:22.829080	271.0	76.1	-90.2	4.5
2025-01-22 09:19:23.993885	269.0	75.8	-89.9	14.2
2025-01-22 09:19:25.161486	267.1	75.5	-90.1	7.0
2025-01-22 09:19:26.321736	265.2	75.2	-90.3	7.0
2025-01-22 09:19:27.480975	263.5	74.9	-89.7	12.4
2025-01-22 09:19:28.648010	261.8	74.5	-89.9	13.6
2025-01-22 09:19:29.808118	260.2	74.2	-90.1	8.5
2025-01-22 09:19:30.964801	258.7	73.8	-90.4	14.4
2025-01-22 09:19:32.127581	257.2	73.4	-89.8	16.8
2025-01-22 09:19:33.289355	255.9	73.0	-90.4	10.6
2025-01-22 09:19:34.444417	254.5	72.7	-90.0	12.1
2025-01-22 09:19:35.608962	253.3	72.3	-90.6	15.0
2025-01-22 09:19:36.770648	252.1	71.9	-90.8	10.0
2025-01-22 09:19:37.930735	250.9	71.4	-91.2	16.6
2025-01-22 09:19:39.089503	249.9	71.0	-91.1	13.4
2025-01-22 09:19:40.253563	248.8	70.6	-90.6	9.7
2025-01-22 09:19:41.417181	247.8	70.2	-91.1	11.3
2025-01-22 09:19:42.573338	246.9	69.8	-90.8	11.5
2025-01-22 09:19:43.735331	246.0	69.3	-90.9	8.4
2025-01-22 09:19:44.892555	245.1	68.9	-91.3	9.7
2025-01-22 09:19:46.052407	244.3	68.5	-90.8	9.4
2025-01-22 09:19:47.220472	243.5	68.0	-90.2	5.5
2025-01-22 09:19:48.385757	242.7	67.6	-90.3	9.8
2025-01-22 09:19:49.544396	242.0	67.1	-90.0	9.1
2025-01-22 09:19:50.711833	241.3	66.7	-91.0	7.2
2025-01-22 09:19:51.867917	240.6	66.3	-90.5	17.9
2025-01-22 09:19:53.027648	240.0	65.8	-91.0	9.3
2025-01-22 09:19:54.191202	239.4	65.4	-90.9	18.8
2025-01-22 09:19:55.350737	238.8	64.9	-90.5	15.4
2025-01-22 09:19:56.508943	238.2	64.5	-91.2	10.3
2025-01-22 09:19:57.668084	237.7	64.1	-90.8	17.5
2025-01-22 09:19:58.827770	237.2	63.6	-90.4	18.2
2025-01-22 09:19:59.984483	236.7	63.2	-90.9	7.7
2025-01-22 09:20:01.142645	236.2	62.7	-90.6	13.5
2025-01-22 09:20:02.306375	235.7	62.3	-90.8	19.5
2025-01-22 09:20:03.463729	235.2	61.9	-90.9	10.3
2025-01-22 09:20:04.622854	234.8	61.4	-90.9	8.3
2025-01-22 09:20:05.779963	234.4	61.0	-90.9	18.9
2025-01-22 09:20:06.944912	234.0	60.6	-90.3	6.9
2025-01-22 09:20:08.103811	233.6	60.1	-89.7	11.5
2025-01-22 09:20:09.263475	233.2	59.7	-89.9	20.6
2025-01-22 09:20:10.425425	232.8	59.3	-89.7	9.8
2025-01-22 09:20:11.590480	232.5	58.9	-89.9	14.5
2025-01-22 09:20:12.742982	232.1	58.4	-90.3	18.6
2025-01-22 09:20:13.905571	231.8	58.0	-90.2	16.9
2025-01-22 09:20:15.062464	231.5	57.6	-90.3	16.4
2025-01-22 09:20:16.222755	231.2	57.2	-90.0	22.1
2025-01-22 09:20:17.384070	230.9	56.8	-90.4	18.4
2025-01-22 09:20:18.538882	230.6	56.4	-90.1	14.7
2025-01-22 09:20:19.695203	230.3	55.9	-90.1	16.3
2025-01-22 09:20:20.854789	230.0	55.5	-90.3	17.3
2025-01-22 09:20:22.011539	229.7	55.1	-88.8	15.9
2025-01-22 09:20:23.172042	229.5	54.7	-89.8	17.7
2025-01-22 09:20:24.323358	229.2	54.3	-89.9	18.7
2025-01-22 09:20:25.482410	229.0	53.9	-90.2	17.1
2025-01-22 09:20:26.640314	228.7	53.5	-90.1	16.5
2025-01-22 09:20:27.797883	228.5	53.2	-90.2	17.3
2025-01-22 09:20:28.959414	228.3	52.8	-89.8	12.8
2025-01-22 09:20:30.125208	228.0	52.4	-90.1	14.5
2025-01-22 09:20:31.285500	227.8	52.0	-90.4	18.6
2025-01-22 09:20:32.452650	227.6	51.6	-90.1	9.2
2025-01-22 09:20:33.611378	227.4	51.2	-90.6	11.1
2025-01-22 09:20:34.774953	227.2	50.8	-90.5	16.2
2025-01-22 09:20:35.933146	227.0	50.5	-90.5	9.7
2025-01-22 09:20:37.091803	226.8	50.1	-90.0	7.8
2025-01-22 09:20:38.258047	226.6	49.7	-89.8	13.2
2025-01-22 09:20:39.420224	226.5	49.4	-90.0	11.2
2025-01-22 09:20:40.584305	226.3	49.0	-89.5	6.9
2025-01-22 09:20:41.745718	226.1	48.6	-89.4	10.7
2025-01-22 09:20:42.900598	225.9	48.3	-89.7	10.9
2025-01-22 09:20:44.059748	225.8	47.9	-90.3	7.6
2025-01-22 09:20:45.221799	225.6	47.6	-89.9	14.9
2025-01-22 09:20:46.382769	225.5	47.2	-90.2	9.3
2025-01-22 09:20:47.547599	225.3	46.9	-90.4	5.7
2025-01-22 09:20:48.707966	225.2	46.5	-90.6	6.7
2025-01-22 09:20:49.867588	225.0	46.2	-90.7	5.8
2025-01-22 09:20:51.030025	224.9	45.8	-90.6	4.1
2025-01-22 09:20:52.188513	224.7	45.5	-90.4	3.5
2025-01-22 09:20:53.351946	224.6	45.2	-90.1	3.5
2025-01-22 09:20:54.505950	224.5	44.8	-90.8	2.5
2025-01-22 09:20:55.668925	224.3	44.5	-90.5	3.8
2025-01-22 09:20:56.825365	224.2	44.2	-90.7	2.6
2025-01-22 09:20:57.988909	224.1	43.9	-90.5	2.5
2025-01-22 09:20:59.149794	223.9	43.5	-89.6	5.4
2025-01-22 09:21:00.313787	223.8	43.2	-90.5	4.8
2025-01-22 09:21:01.469068	223.7	42.9	-89.0	4.6
2025-01-22 09:21:02.629928	223.6	42.6	-86.7	5.3
2025-01-22 09:21:03.788176	223.5	42.3	-90.1	6.3
2025-01-22 09:21:04.949491	223.4	42.0	-90.8	3.6
2025-01-22 09:21:06.104556	223.3	41.7	-90.6	5.3
2025-01-22 09:21:07.264016	223.1	41.3	-89.9	7.7
2025-01-22 09:21:08.422080	223.0	41.0	-89.7	8.0
2025-01-22 09:21:09.586681	222.9	40.7	-89.7	6.1
2025-01-22 09:21:10.748083	222.8	40.4	-90.2	5.7
2025-01-22 09:21:11.911289	222.7	40.2	-90.3	7.3
2025-01-22 09:21:13.071131	222.6	39.9	-90.2	7.4
2025-01-22 09:21:14.235006	222.5	39.6	-87.7	8.1
2025-01-22 09:21:15.389580	222.5	39.3	-89.3	9.3
2025-01-22 09:21:16.523074	222.4	39.0	-89.4	4.2
2025-01-22 09:21:17.673129	222.3	38.7	-89.7	14.6
2025-01-22 09:21:18.832145	222.2	38.4	-90.0	9.9
2025-01-22 09:21:19.986484	222.1	38.2	-90.5	10.1
2025-01-22 09:21:21.145804	222.0	37.9	-89.7	11.7
2025-01-22 09:21:22.301437	221.9	37.6	-89.8	14.2
2025-01-22 09:21:23.459827	221.8	37.3	-90.0	14.0
2025-01-22 09:21:24.617895	221.8	37.1	-89.8	14.2
2025-01-22 09:21:25.777219	221.7	36.8	-89.8	12.5
2025-01-22 09:21:26.937647	221.6	36.5	-90.1	11.4
2025-01-22 09:21:28.096658	221.5	36.3	-90.0	11.7
2025-01-22 09:21:29.250867	221.5	36.0	-89.7	13.4
2025-01-22 09:21:30.416288	221.4	35.7	-89.5	8.8
2025-01-22 09:21:31.570259	221.3	35.5	-89.9	5.7
2025-01-22 09:21:32.734907	221.2	35.2	-90.4	12.9
2025-01-22 09:21:33.889019	221.2	35.0	-89.8	7.9
2025-01-22 09:21:35.046090	221.1	34.7	-90.2	4.8
2025-01-22 09:21:36.203221	221.0	34.5	-90.7	14.8
2025-01-22 09:21:37.366181	221.0	34.2	-90.0	14.2
2025-01-22 09:21:38.525281	220.9	34.0	-87.2	7.2
2025-01-22 09:21:39.687768	220.8	33.7	-86.6	9.5
2025-01-22 09:21:40.846361	220.8	33.5	-86.5	9.2
2025-01-22 09:21:42.002599	220.7	33.3	-84.9	6.6
2025-01-22 09:21:43.160010	220.6	33.0	-86.3	8.2
2025-01-22 09:21:44.317877	220.6	32.8	-86.6	7.2
2025-01-22 09:21:45.483662	220.5	32.5	-87.1	9.6
2025-01-22 09:21:46.645786	220.5	32.3	-88.0	9.1
2025-01-22 09:21:47.805068	220.4	32.1	-87.8	9.3
2025-01-22 09:21:48.961450	220.3	31.8	-87.9	6.9
2025-01-22 09:21:50.121946	220.3	31.6	-87.5	7.2
2025-01-22 09:21:51.284335	220.2	31.4	-87.7	7.9
2025-01-22 09:21:52.439482	220.2	31.2	-87.6	6.8
2025-01-22 09:21:53.602066	220.1	30.9	-86.3	3.8
2025-01-22 09:21:54.761400	220.1	30.7	-86.2	4.5
2025-01-22 09:21:55.923284	220.0	30.5	-86.1	5.0
2025-01-22 09:21:57.075748	220.0	30.3	-86.5	2.7
2025-01-22 09:21:58.231327	219.9	30.1	-86.7	2.3
2025-01-22 09:21:59.387978	219.9	29.9	-86.2	4.1
2025-01-22 09:22:00.542444	219.8	29.6	-86.1	5.2
2025-01-22 09:22:01.699036	219.8	29.4	-85.6	1.9
2025-01-22 09:22:02.858754	219.7	29.2	-85.0	3.6
2025-01-22 09:22:04.014266	219.7	29.0	-86.2	2.2
2025-01-22 09:22:05.174895	219.6	28.8	-86.0	5.4
2025-01-22 09:22:06.333715	219.6	28.6	-86.1	2.3
2025-01-22 09:22:07.485816	219.5	28.4	-86.9	2.1
2025-01-22 09:22:08.648405	219.5	28.2	-86.8	3.4
2025-01-22 09:22:09.806990	219.4	28.0	-86.4	3.3
2025-01-22 09:22:10.964431	219.4	27.8	-86.2	5.0
2025-01-22 09:22:12.119628	219.3	27.6	-86.1	1.5
2025-01-22 09:22:13.275187	219.3	27.4	-84.8	3.1
2025-01-22 09:22:14.437402	219.3	27.2	-86.6	3.2
2025-01-22 09:22:15.597359	219.2	27.0	-86.7	3.3
2025-01-22 09:22:16.756368	219.2	26.8	-86.7	4.2
2025-01-22 09:22:17.918184	219.1	26.6	-86.6	3.9
2025-01-22 09:22:19.079127	219.1	26.4	-86.4	2.2
2025-01-22 09:22:20.240608	219.0	26.2	-86.5	5.3
2025-01-22 09:22:21.403997	219.0	26.0	-86.1	2.4
2025-01-22 09:22:22.560681	219.0	25.9	-86.1	4.2
2025-01-22 09:22:23.721302	218.9	25.7	-84.1	3.3
2025-01-22 09:22:24.884501	218.9	25.5	-84.8	4.9
2025-01-22 09:22:26.053039	218.9	25.3	-86.5	4.6
2025-01-22 09:22:27.210258	218.8	25.1	-86.4	4.9
2025-01-22 09:22:28.371491	218.8	24.9	-86.6	7.6
2025-01-22 09:22:29.531458	218.7	24.8	-87.3	5.7
2025-01-22 09:22:30.692192	218.7	24.6	-87.1	5.6
2025-01-22 09:22:31.855843	218.7	24.4	-87.2	4.6
2025-01-22 09:22:33.020636	218.6	24.2	-86.9	4.9
2025-01-22 09:22:34.176064	218.6	24.1	-87.0	5.2
2025-01-22 09:22:35.331168	218.6	23.9	-87.4	4.4
2025-01-22 09:22:36.492987	218.5	23.7	-87.1	4.3
2025-01-22 09:22:37.655887	218.5	23.5	-87.0	6.9
2025-01-22 09:22:38.812904	218.5	23.4	-86.8	5.4
2025-01-22 09:22:39.970738	218.4	23.2	-82.4	4.3
2025-01-22 09:22:41.128311	218.4	23.0	-85.3	3.5
2025-01-22 09:22:42.295843	218.4	22.9	-86.6	4.5
2025-01-22 09:22:43.452761	218.4	22.7	-86.8	6.1
2025-01-22 09:22:44.613845	218.3	22.5	-86.8	3.8
2025-01-22 09:22:45.774092	218.3	22.4	-86.9	7.2
2025-01-22 09:22:46.934353	218.3	22.2	-86.8	4.8
2025-01-22 09:22:48.090479	218.2	22.0	-87.2	4.4
2025-01-22 09:22:49.250621	218.2	21.9	-87.1	5.0
2025-01-22 09:22:50.405848	218.2	21.7	-86.6	6.1
2025-01-22 09:22:51.565678	218.1	21.6	-86.8	4.4
2025-01-22 09:22:52.730901	218.1	21.4	-86.5	5.9
2025-01-22 09:22:53.883956	218.1	21.3	-86.6	7.1
2025-01-22 09:22:55.049168	218.1	21.1	-87.1	6.9
2025-01-22 09:22:56.208883	218.0	20.9	-87.0	7.2
2025-01-22 09:22:57.373478	218.0	20.8	-87.1	5.5
2025-01-22 09:22:58.537347	218.0	20.6	-87.5	5.3
2025-01-22 09:22:59.700256	218.0	20.5	-87.2	4.5
2025-01-22 09:23:00.846898	217.9	20.3	-87.0	5.5
2025-01-22 09:23:02.012905	217.9	20.2	-86.5	4.1
2025-01-22 09:23:03.174527	217.9	20.0	-85.7	5.4
2025-01-22 09:23:04.338736	217.9	19.9	-85.7	3.8
2025-01-22 09:23:05.497358	217.8	19.7	-86.1	4.1
2025-01-22 09:23:06.662552	217.8	19.6	-86.1	5.6
2025-01-22 09:23:07.826793	217.8	19.4	-85.7	4.9
2025-01-22 09:23:08.990217	217.8	19.3	-86.4	6.8
2025-01-22 09:23:10.155206	217.7	19.1	-86.4	6.9
2025-01-22 09:23:11.315857	217.7	19.0	-86.5	5.2
2025-01-22 09:23:12.478140	217.7	18.9	-86.2	5.2
2025-01-22 09:23:13.634324	217.7	18.7	-86.4	4.7
2025-01-22 09:23:14.791935	217.6	18.6	-86.6	5.2
2025-01-22 09:23:15.954011	217.6	18.4	-86.4	5.5
2025-01-22 09:23:17.110931	217.6	18.3	-86.3	4.4
2025-01-22 09:23:18.271528	217.6	18.2	-86.3	5.4
2025-01-22 09:23:19.440458	217.6	18.0	-86.0	5.4
2025-01-22 09:23:20.595277	217.5	17.9	-86.5	2.7
2025-01-22 09:23:21.755465	217.5	17.7	-85.4	3.2
2025-01-22 09:23:22.914836	217.5	17.6	-85.4	3.2
2025-01-22 09:23:24.070104	217.5	17.5	-85.9	2.0
2025-01-22 09:23:25.229109	217.4	17.3	-85.6	2.3
2025-01-22 09:23:26.389373	217.4	17.2	-85.9	4.5
2025-01-22 09:23:27.546538	217.4	17.1	-85.9	2.6
2025-01-22 09:23:28.709782	217.4	16.9	-85.9	4.1
2025-01-22 09:23:29.867596	217.4	16.8	-86.5	4.5
2025-01-22 09:23:31.028881	217.3	16.7	-86.6	5.3
2025-01-22 09:23:32.194196	217.3	16.5	-86.7	3.6
2025-01-22 09:23:33.349987	217.3	16.4	-86.6	3.1
2025-01-22 09:23:34.509782	217.3	16.3	-86.2	3.4
2025-01-22 09:23:35.664315	217.3	16.2	-86.8	3.5
2025-01-22 09:23:36.828075	217.3	16.0	-86.6	2.6
2025-01-22 09:23:37.988030	217.2	15.9	-85.9	3.9
2025-01-22 09:23:39.144368	217.2	15.8	-85.8	4.1
2025-01-22 09:23:40.305653	217.2	15.7	-86.0	3.9
2025-01-22 09:23:41.466485	217.2	15.5	-85.7	2.3
2025-01-22 09:23:42.625681	217.2	15.4	-85.8	2.9
2025-01-22 09:23:43.783653	217.1	15.3	-86.3	3.6
2025-01-22 09:23:44.945272	217.1	15.2	-86.3	4.0
2025-01-22 09:23:46.101141	217.1	15.0	-86.2	1.8
2025-01-22 09:23:47.260025	217.1	14.9	-86.0	3.3
2025-01-22 09:23:48.425568	217.1	14.8	-85.7	3.8
2025-01-22 09:23:49.585815	217.1	14.7	-85.9	3.4
2025-01-22 09:23:50.745996	217.0	14.6	-86.1	4.8
2025-01-22 09:23:51.908692	217.0	14.4	-85.9	3.1
#Closed at: 2025-01-22 09:14:36.126884