passes_logs/2025/01/22/LEX_Murmansk/LEX_Murmansk__20250122_175734_NOAA_18_rec.log

#Pass ID: 20250122_175734_NOAA 18
#Satellite: NOAA 18
#Configuration: NOAA 18
#Start time: 2025-01-22 17:57:29.398933

#LorettStation: 1.0.0 05.05.2024
#Station: LEX_Murmansk
#Location: 33.156738 lon 68.926811 lat
#TLE: 1 28654U 05018A   25022.24143052  .00000458  00000+0  26647-3 0  9995
#TLE: 2 28654  98.8556 103.2235 0014680 159.1096 201.0679 14.13493787 14203

#Time	Az	El	Level	SNR
2025-01-22 17:57:41.507471	124.3	16.3	-89.6	6.1
2025-01-22 17:57:42.656889	124.2	16.4	-89.8	7.5
2025-01-22 17:57:43.805061	124.1	16.5	-89.8	9.9
2025-01-22 17:57:44.949915	124.1	16.6	-89.9	6.4
2025-01-22 17:57:46.093325	124.0	16.8	-89.8	8.9
2025-01-22 17:57:47.239312	123.9	16.9	-90.0	10.1
2025-01-22 17:57:48.384168	123.9	17.0	-89.4	8.7
2025-01-22 17:57:49.528670	123.8	17.1	-90.1	8.9
2025-01-22 17:57:50.678161	123.7	17.3	-90.4	9.7
2025-01-22 17:57:51.825809	123.7	17.4	-89.7	8.7
2025-01-22 17:57:52.972510	123.6	17.5	-89.5	9.2
2025-01-22 17:57:54.118467	123.5	17.7	-89.4	8.6
2025-01-22 17:57:55.264432	123.5	17.8	-89.7	9.6
2025-01-22 17:57:56.410645	123.4	17.9	-90.0	6.7
2025-01-22 17:57:57.559586	123.3	18.0	-90.1	7.3
2025-01-22 17:57:58.706406	123.2	18.2	-89.8	8.5
2025-01-22 17:57:59.849778	123.2	18.3	-89.7	8.5
2025-01-22 17:58:00.994449	123.1	18.4	-89.4	5.0
2025-01-22 17:58:02.141918	123.0	18.6	-89.8	10.9
2025-01-22 17:58:03.290922	122.9	18.7	-89.8	13.6
2025-01-22 17:58:04.437657	122.9	18.8	-89.6	12.7
2025-01-22 17:58:05.583979	122.8	19.0	-90.0	11.6
2025-01-22 17:58:06.729773	122.7	19.1	-90.1	14.4
2025-01-22 17:58:07.871885	122.6	19.2	-89.8	8.1
2025-01-22 17:58:09.021189	122.6	19.4	-89.9	13.2
2025-01-22 17:58:10.170425	122.5	19.5	-90.0	14.1
2025-01-22 17:58:11.318604	122.4	19.7	-89.6	11.7
2025-01-22 17:58:12.462085	122.3	19.8	-89.8	8.9
2025-01-22 17:58:13.608771	122.2	19.9	-90.4	8.3
2025-01-22 17:58:14.755907	122.2	20.1	-90.4	11.6
2025-01-22 17:58:15.902875	122.1	20.2	-90.5	6.8
2025-01-22 17:58:17.051863	122.0	20.4	-89.8	6.8
2025-01-22 17:58:18.195629	121.9	20.5	-90.1	12.9
2025-01-22 17:58:19.341612	121.8	20.7	-90.1	11.9
2025-01-22 17:58:20.486318	121.7	20.8	-90.5	14.0
2025-01-22 17:58:21.633308	121.6	20.9	-90.8	16.3
2025-01-22 17:58:22.780905	121.6	21.1	-90.6	17.0
2025-01-22 17:58:23.931964	121.5	21.2	-90.9	9.2
2025-01-22 17:58:25.079395	121.4	21.4	-90.8	10.7
2025-01-22 17:58:26.226499	121.3	21.5	-90.0	10.9
2025-01-22 17:58:27.375306	121.2	21.7	-90.2	13.3
2025-01-22 17:58:28.517487	121.1	21.8	-90.7	7.6
2025-01-22 17:58:29.667164	121.0	22.0	-90.4	10.4
2025-01-22 17:58:30.815119	120.9	22.1	-90.8	10.7
2025-01-22 17:58:31.963855	120.8	22.3	-90.7	5.8
2025-01-22 17:58:33.108543	120.7	22.4	-90.5	7.9
2025-01-22 17:58:34.250578	120.6	22.6	-90.3	9.4
2025-01-22 17:58:35.397815	120.5	22.8	-90.7	8.2
2025-01-22 17:58:36.544779	120.4	22.9	-90.6	10.5
2025-01-22 17:58:37.700885	120.3	23.1	-90.8	11.5
2025-01-22 17:58:38.847778	120.2	23.2	-90.6	7.9
2025-01-22 17:58:39.996725	120.1	23.4	-91.2	7.2
2025-01-22 17:58:41.138677	120.0	23.5	-90.3	8.5
2025-01-22 17:58:42.282249	119.9	23.7	-90.5	7.8
2025-01-22 17:58:43.426569	119.8	23.9	-90.7	8.4
2025-01-22 17:58:44.571341	119.7	24.0	-90.4	8.4
2025-01-22 17:58:45.713549	119.6	24.2	-90.8	9.2
2025-01-22 17:58:46.864696	119.5	24.4	-90.8	5.5
2025-01-22 17:58:48.013357	119.4	24.5	-90.6	5.1
2025-01-22 17:58:49.162351	119.3	24.7	-90.4	6.2
2025-01-22 17:58:50.307490	119.2	24.9	-90.6	7.6
2025-01-22 17:58:51.454759	119.0	25.0	-90.3	4.2
2025-01-22 17:58:52.606943	118.9	25.2	-90.5	6.2
2025-01-22 17:58:53.752200	118.8	25.4	-90.7	6.8
2025-01-22 17:58:54.902865	118.7	25.5	-90.5	6.2
2025-01-22 17:58:56.044295	118.6	25.7	-91.0	4.4
2025-01-22 17:58:57.193578	118.5	25.9	-91.0	6.5
2025-01-22 17:58:58.349182	118.3	26.0	-90.6	3.6
2025-01-22 17:58:59.495727	118.2	26.2	-90.8	7.2
2025-01-22 17:59:00.645610	118.1	26.4	-90.6	4.8
2025-01-22 17:59:01.788271	118.0	26.6	-90.9	5.9
2025-01-22 17:59:02.935845	117.8	26.7	-90.7	6.0
2025-01-22 17:59:04.081892	117.7	26.9	-90.0	5.1
2025-01-22 17:59:05.230044	117.6	27.1	-90.0	5.2
2025-01-22 17:59:06.377287	117.4	27.3	-90.4	4.0
2025-01-22 17:59:07.523172	117.3	27.5	-90.4	6.2
2025-01-22 17:59:08.668818	117.2	27.6	-90.3	8.2
2025-01-22 17:59:09.812162	117.0	27.8	-90.5	8.9
2025-01-22 17:59:10.958997	116.9	28.0	-90.3	11.5
2025-01-22 17:59:12.111636	116.8	28.2	-90.5	9.4
2025-01-22 17:59:13.261894	116.6	28.4	-90.1	12.4
2025-01-22 17:59:14.411683	116.5	28.6	-89.9	10.1
2025-01-22 17:59:15.555722	116.3	28.8	-90.4	8.5
2025-01-22 17:59:16.703129	116.2	28.9	-90.7	11.7
2025-01-22 17:59:17.850278	116.0	29.1	-90.6	7.6
2025-01-22 17:59:18.997932	115.9	29.3	-90.9	8.7
2025-01-22 17:59:20.147781	115.7	29.5	-90.6	4.4
2025-01-22 17:59:21.289994	115.6	29.7	-90.1	9.2
2025-01-22 17:59:22.458706	115.4	29.9	-90.6	5.1
2025-01-22 17:59:23.604863	115.3	30.1	-90.4	7.0
2025-01-22 17:59:24.750652	115.1	30.3	-90.6	11.3
2025-01-22 17:59:25.900181	114.9	30.5	-90.6	9.9
2025-01-22 17:59:27.052604	114.8	30.7	-90.4	12.9
2025-01-22 17:59:28.199644	114.6	30.9	-90.0	9.4
2025-01-22 17:59:29.349181	114.4	31.1	-90.0	9.1
2025-01-22 17:59:30.495597	114.3	31.3	-90.1	11.0
2025-01-22 17:59:31.643505	114.1	31.5	-90.4	13.5
2025-01-22 17:59:32.790912	113.9	31.7	-90.7	15.7
2025-01-22 17:59:33.948283	113.7	31.9	-89.4	11.5
2025-01-22 17:59:35.092793	113.6	32.1	-90.5	12.0
2025-01-22 17:59:36.237368	113.4	32.3	-90.5	16.8
2025-01-22 17:59:37.381594	113.2	32.5	-90.6	14.9
2025-01-22 17:59:38.525308	113.0	32.8	-90.5	11.1
2025-01-22 17:59:39.679407	112.8	33.0	-90.6	9.6
2025-01-22 17:59:40.816065	112.6	33.2	-90.8	9.8
2025-01-22 17:59:41.979823	112.4	33.4	-90.5	7.8
2025-01-22 17:59:43.126283	112.2	33.6	-90.5	10.8
2025-01-22 17:59:44.274087	112.1	33.8	-90.2	11.3
2025-01-22 17:59:45.422358	111.8	34.0	-90.8	9.1
2025-01-22 17:59:46.565423	111.6	34.3	-90.7	18.3
2025-01-22 17:59:47.716708	111.4	34.5	-90.5	13.3
2025-01-22 17:59:48.862080	111.2	34.7	-90.6	9.9
2025-01-22 17:59:50.010008	111.0	34.9	-90.9	12.3
2025-01-22 17:59:51.152768	110.8	35.1	-90.3	16.2
2025-01-22 17:59:52.298572	110.6	35.4	-90.5	9.9
2025-01-22 17:59:53.447105	110.4	35.6	-90.9	12.3
2025-01-22 17:59:54.595836	110.1	35.8	-90.4	9.9
2025-01-22 17:59:55.757912	109.9	36.0	-90.9	15.9
2025-01-22 17:59:56.911231	109.7	36.3	-90.6	12.7
2025-01-22 17:59:58.057662	109.4	36.5	-91.0	10.3
2025-01-22 17:59:59.205364	109.2	36.7	-90.8	13.1
2025-01-22 18:00:00.351532	109.0	37.0	-90.6	11.6
2025-01-22 18:00:01.495595	108.7	37.2	-90.2	4.5
2025-01-22 18:00:02.646088	108.5	37.4	-90.9	11.1
2025-01-22 18:00:03.794020	108.2	37.7	-90.6	8.5
2025-01-22 18:00:04.943670	108.0	37.9	-90.8	11.1
2025-01-22 18:00:06.088396	107.7	38.1	-90.4	13.4
2025-01-22 18:00:07.237362	107.4	38.4	-90.2	9.1
2025-01-22 18:00:08.386103	107.2	38.6	-90.4	6.9
2025-01-22 18:00:09.537584	106.9	38.8	-90.9	7.3
2025-01-22 18:00:10.686717	106.6	39.1	-91.2	4.5
2025-01-22 18:00:11.836403	106.3	39.3	-90.9	5.2
2025-01-22 18:00:12.984708	106.1	39.6	-90.7	7.2
2025-01-22 18:00:14.131566	105.8	39.8	-90.7	7.0
2025-01-22 18:00:15.276022	105.5	40.0	-90.6	13.3
2025-01-22 18:00:16.427894	105.2	40.3	-90.6	12.0
2025-01-22 18:00:17.573682	104.9	40.5	-90.9	9.2
2025-01-22 18:00:18.718037	104.6	40.8	-90.9	12.0
2025-01-22 18:00:19.862854	104.3	41.0	-91.0	6.5
2025-01-22 18:00:21.013258	103.9	41.3	-91.2	7.1
2025-01-22 18:00:22.161806	103.6	41.5	-90.8	8.5
2025-01-22 18:00:23.316018	103.3	41.8	-90.6	7.0
2025-01-22 18:00:24.459351	103.0	42.0	-90.4	6.7
2025-01-22 18:00:25.601211	102.6	42.3	-90.8	10.8
2025-01-22 18:00:26.746156	102.3	42.5	-90.8	14.0
2025-01-22 18:00:27.894595	102.0	42.8	-91.0	15.3
2025-01-22 18:00:29.044189	101.6	43.0	-91.3	17.9
2025-01-22 18:00:30.192708	101.2	43.3	-90.5	18.1
2025-01-22 18:00:31.338310	100.9	43.5	-90.4	18.2
2025-01-22 18:00:32.498587	100.5	43.8	-90.8	13.2
2025-01-22 18:00:33.642420	100.1	44.0	-91.1	16.9
2025-01-22 18:00:34.791567	99.8	44.3	-91.0	18.5
2025-01-22 18:00:35.938633	99.4	44.5	-90.9	13.5
2025-01-22 18:00:37.085355	99.0	44.8	-90.6	14.0
2025-01-22 18:00:38.237678	98.6	45.0	-90.4	14.7
2025-01-22 18:00:39.379757	98.2	45.3	-90.4	13.5
2025-01-22 18:00:40.526251	97.8	45.5	-90.8	13.2
2025-01-22 18:00:41.670062	97.3	45.8	-91.0	9.4
2025-01-22 18:00:42.813231	96.9	46.0	-91.1	13.0
2025-01-22 18:00:43.962480	96.5	46.3	-91.0	10.9
2025-01-22 18:00:45.107405	96.0	46.5	-90.3	11.4
2025-01-22 18:00:46.252466	95.6	46.8	-89.9	8.8
2025-01-22 18:00:47.396134	95.1	47.0	-90.8	8.5
2025-01-22 18:00:48.543772	94.7	47.3	-91.1	6.6
2025-01-22 18:00:49.705996	94.2	47.5	-91.0	15.0
2025-01-22 18:00:50.855322	93.7	47.8	-91.0	13.5
2025-01-22 18:00:52.000711	93.3	48.0	-90.9	10.9
2025-01-22 18:00:53.144559	92.8	48.3	-90.6	11.4
2025-01-22 18:00:54.291094	92.3	48.5	-90.6	12.6
2025-01-22 18:00:55.442025	91.8	48.8	-90.8	8.7
2025-01-22 18:00:56.586386	91.2	49.0	-90.8	7.4
2025-01-22 18:00:57.736219	90.7	49.2	-90.6	5.8
2025-01-22 18:00:58.880527	90.2	49.5	-91.2	7.7
2025-01-22 18:01:00.027728	89.6	49.7	-91.1	7.0
2025-01-22 18:01:01.170728	89.1	50.0	-90.6	9.0
2025-01-22 18:01:02.316002	88.5	50.2	-90.9	12.3
2025-01-22 18:01:03.460600	88.0	50.4	-91.0	12.9
2025-01-22 18:01:04.606475	87.4	50.7	-91.0	11.4
2025-01-22 18:01:05.754308	86.8	50.9	-91.2	10.1
2025-01-22 18:01:06.900784	86.2	51.1	-91.2	12.9
2025-01-22 18:01:08.045214	85.6	51.3	-90.7	11.5
2025-01-22 18:01:09.189770	85.0	51.6	-90.6	12.9
2025-01-22 18:01:10.335402	84.4	51.8	-91.0	12.0
2025-01-22 18:01:11.480434	83.8	52.0	-91.0	8.2
2025-01-22 18:01:12.626390	83.1	52.2	-91.2	10.6
2025-01-22 18:01:13.773186	82.5	52.4	-90.4	12.8
2025-01-22 18:01:14.921335	81.8	52.7	-91.0	5.6
2025-01-22 18:01:16.063354	81.1	52.9	-90.8	7.0
2025-01-22 18:01:17.209687	80.5	53.1	-90.4	6.9
2025-01-22 18:01:18.357428	79.8	53.3	-90.6	8.3
2025-01-22 18:01:19.502653	79.1	53.5	-90.8	10.7
2025-01-22 18:01:20.646973	78.4	53.7	-90.4	13.8
2025-01-22 18:01:21.787395	77.7	53.8	-90.9	17.2
2025-01-22 18:01:22.921773	77.0	54.0	-90.5	18.8
2025-01-22 18:01:24.043565	76.2	54.2	-90.5	17.7
2025-01-22 18:01:25.164974	75.5	54.4	-90.0	16.5
2025-01-22 18:01:26.286397	74.8	54.5	-90.5	15.8
2025-01-22 18:01:27.407820	74.0	54.7	-90.5	11.1
2025-01-22 18:01:28.528830	73.3	54.9	-90.7	11.4
2025-01-22 18:01:29.649793	72.5	55.0	-90.6	14.8
2025-01-22 18:01:30.770380	71.8	55.2	-90.2	18.1
2025-01-22 18:01:31.898124	71.0	55.3	-91.0	12.3
2025-01-22 18:01:33.023199	70.2	55.5	-90.5	11.2
2025-01-22 18:01:34.164726	69.4	55.6	-90.4	18.4
2025-01-22 18:01:35.313533	68.6	55.8	-90.8	17.1
2025-01-22 18:01:36.467208	67.7	55.9	-90.9	12.3
2025-01-22 18:01:37.607965	66.9	56.0	-90.8	15.7
2025-01-22 18:01:38.753766	66.0	56.1	-90.9	18.2
2025-01-22 18:01:39.899781	65.2	56.2	-90.8	16.9
2025-01-22 18:01:41.045314	64.3	56.3	-90.9	14.9
2025-01-22 18:01:42.191085	63.5	56.4	-90.6	17.8
2025-01-22 18:01:43.339348	62.6	56.5	-90.4	17.6
2025-01-22 18:01:44.488275	61.7	56.6	-90.7	17.4
2025-01-22 18:01:45.635216	60.9	56.7	-90.5	14.1
2025-01-22 18:01:46.783277	60.0	56.8	-90.5	17.6
2025-01-22 18:01:47.931519	59.1	56.9	-90.4	13.7
2025-01-22 18:01:49.077024	58.2	56.9	-90.5	14.3
2025-01-22 18:01:50.221448	57.3	57.0	-90.4	12.4
2025-01-22 18:01:51.364113	56.4	57.0	-90.8	13.2
2025-01-22 18:01:52.511535	55.5	57.1	-90.8	13.0
2025-01-22 18:01:53.660566	54.6	57.1	-91.1	16.3
2025-01-22 18:01:54.807363	53.7	57.1	-90.8	15.1
2025-01-22 18:01:55.956099	52.8	57.1	-90.6	11.0
2025-01-22 18:01:57.101472	51.9	57.2	-90.5	13.7
2025-01-22 18:01:58.248524	50.9	57.2	-90.3	18.6
2025-01-22 18:01:59.391575	50.0	57.2	-90.9	10.4
2025-01-22 18:02:00.532219	49.1	57.2	-90.6	8.3
2025-01-22 18:02:01.674346	48.2	57.1	-90.9	18.5
2025-01-22 18:02:02.822431	47.3	57.1	-91.0	15.6
2025-01-22 18:02:03.975785	46.4	57.1	-90.6	8.7
2025-01-22 18:02:05.117916	45.5	57.1	-90.5	12.7
2025-01-22 18:02:06.272288	44.6	57.0	-90.4	13.5
2025-01-22 18:02:07.420576	43.7	57.0	-90.8	10.5
2025-01-22 18:02:08.568871	42.8	56.9	-90.9	10.1
2025-01-22 18:02:09.716278	41.9	56.9	-90.8	13.4
2025-01-22 18:02:10.863687	41.0	56.8	-91.1	14.0
2025-01-22 18:02:12.010296	40.1	56.7	-91.1	9.1
2025-01-22 18:02:13.154866	39.2	56.6	-90.5	12.5
2025-01-22 18:02:14.303698	38.3	56.5	-90.7	15.3
2025-01-22 18:02:15.452078	37.5	56.4	-91.3	11.2
2025-01-22 18:02:16.598637	36.6	56.3	-90.8	5.3
2025-01-22 18:02:17.743481	35.8	56.2	-90.9	6.8
2025-01-22 18:02:18.886670	34.9	56.1	-91.0	10.6
2025-01-22 18:02:20.033331	34.1	56.0	-90.9	8.2
2025-01-22 18:02:21.182345	33.2	55.9	-90.8	13.3
2025-01-22 18:02:22.329601	32.4	55.8	-90.8	12.4
2025-01-22 18:02:23.476227	31.6	55.6	-90.2	10.7
2025-01-22 18:02:24.632018	30.8	55.5	-90.5	15.1
2025-01-22 18:02:25.773574	30.0	55.3	-90.7	16.0
2025-01-22 18:02:26.919121	29.2	55.2	-90.6	11.8
2025-01-22 18:02:28.064872	28.4	55.0	-90.7	9.2
2025-01-22 18:02:29.210681	27.6	54.9	-90.6	9.6
2025-01-22 18:02:30.364757	26.8	54.7	-90.2	10.7
2025-01-22 18:02:31.494153	26.1	54.5	-90.9	11.8
2025-01-22 18:02:32.614558	25.4	54.4	-90.7	10.9
2025-01-22 18:02:33.735988	24.6	54.2	-91.3	10.4
2025-01-22 18:02:34.856318	23.9	54.0	-91.1	6.1
2025-01-22 18:02:35.977212	23.2	53.8	-90.9	12.4
2025-01-22 18:02:37.097002	22.5	53.6	-90.9	8.1
2025-01-22 18:02:38.216941	21.8	53.5	-90.4	13.2
2025-01-22 18:02:39.336992	21.1	53.3	-90.7	14.9
2025-01-22 18:02:40.460602	20.5	53.1	-90.9	14.1
2025-01-22 18:02:41.590113	19.8	52.9	-90.8	14.3
2025-01-22 18:02:42.733938	19.1	52.7	-90.8	16.6
2025-01-22 18:02:43.879969	18.5	52.4	-90.8	4.8
2025-01-22 18:02:45.024514	17.8	52.2	-90.8	5.4
2025-01-22 18:02:46.166043	17.2	52.0	-90.9	7.4
2025-01-22 18:02:47.311789	16.6	51.8	-90.8	10.8
2025-01-22 18:02:48.456814	15.9	51.6	-90.3	13.2
2025-01-22 18:02:49.599721	15.3	51.4	-90.5	13.6
2025-01-22 18:02:50.745196	14.7	51.1	-90.9	14.8
2025-01-22 18:02:51.892576	14.1	50.9	-90.6	11.9
2025-01-22 18:02:53.037550	13.5	50.7	-90.4	11.6
2025-01-22 18:02:54.186615	13.0	50.4	-90.2	16.7
2025-01-22 18:02:55.335182	12.4	50.2	-90.4	18.5
2025-01-22 18:02:56.483345	11.8	50.0	-90.2	13.6
2025-01-22 18:02:57.635528	11.3	49.7	-90.0	17.9
2025-01-22 18:02:58.781361	10.7	49.5	-90.7	17.8
2025-01-22 18:02:59.932415	10.2	49.2	-90.6	11.0
2025-01-22 18:03:01.077212	9.7	49.0	-90.1	14.4
2025-01-22 18:03:02.219313	9.2	48.8	-90.3	17.0
2025-01-22 18:03:03.361243	8.7	48.5	-90.2	13.9
2025-01-22 18:03:04.510815	8.2	48.3	-90.6	11.1
2025-01-22 18:03:05.657980	7.7	48.0	-90.6	13.7
2025-01-22 18:03:06.805545	7.2	47.8	-90.0	13.8
2025-01-22 18:03:07.955140	6.7	47.5	-90.8	9.3
2025-01-22 18:03:09.102694	6.2	47.3	-90.4	10.5
2025-01-22 18:03:10.249248	5.8	47.0	-90.4	16.7
2025-01-22 18:03:11.400008	5.3	46.8	-90.6	12.6
2025-01-22 18:03:12.550602	4.9	46.5	-90.8	12.6
2025-01-22 18:03:13.699034	4.4	46.3	-90.9	21.5
2025-01-22 18:03:14.844209	4.0	46.0	-90.6	18.1
2025-01-22 18:03:15.989881	3.6	45.8	-90.4	11.9
2025-01-22 18:03:17.139528	3.2	45.5	-90.3	14.3
2025-01-22 18:03:18.282980	2.8	45.3	-90.6	19.3
2025-01-22 18:03:19.428753	2.4	45.0	-90.7	12.2
2025-01-22 18:03:20.574038	2.0	44.8	-90.8	18.5
2025-01-22 18:03:21.723850	1.6	44.5	-90.8	17.8
2025-01-22 18:03:22.869926	1.2	44.3	-90.6	19.8
2025-01-22 18:03:24.020061	0.8	44.0	-91.0	21.2
2025-01-22 18:03:25.167862	0.4	43.7	-90.6	22.1
2025-01-22 18:03:26.315368	0.0	43.5	-90.3	22.0
2025-01-22 18:03:27.464610	359.7	43.2	-90.9	17.0
2025-01-22 18:03:28.611792	359.3	43.0	-91.0	17.6
2025-01-22 18:03:29.764100	359.0	42.7	-90.8	13.2
2025-01-22 18:03:30.909688	358.6	42.5	-91.2	14.3
2025-01-22 18:03:32.058130	358.3	42.2	-90.8	13.5
2025-01-22 18:03:33.207009	358.0	42.0	-90.8	17.4
2025-01-22 18:03:34.349860	357.6	41.7	-90.7	22.5
2025-01-22 18:03:35.503343	357.3	41.5	-90.7	8.2
2025-01-22 18:03:36.649104	357.0	41.3	-91.0	14.8
2025-01-22 18:03:37.793807	356.7	41.0	-91.1	15.7
2025-01-22 18:03:38.944706	356.4	40.8	-90.4	9.3
2025-01-22 18:03:40.087915	356.0	40.5	-90.5	12.9
2025-01-22 18:03:41.235333	355.7	40.3	-90.2	18.3
2025-01-22 18:03:42.386209	355.4	40.0	-90.0	11.2
2025-01-22 18:03:43.532422	355.2	39.8	-90.6	9.8
2025-01-22 18:03:44.682896	354.9	39.5	-90.6	12.4
2025-01-22 18:03:45.826959	354.6	39.3	-90.1	15.6
2025-01-22 18:03:46.973745	354.3	39.1	-90.4	10.3
2025-01-22 18:03:48.124226	354.0	38.8	-90.5	13.8
2025-01-22 18:03:49.268972	353.8	38.6	-89.6	18.0
2025-01-22 18:03:50.412107	353.5	38.3	-90.2	13.7
2025-01-22 18:03:51.559449	353.2	38.1	-90.7	12.4
2025-01-22 18:03:52.707901	353.0	37.9	-90.1	13.2
2025-01-22 18:03:53.851748	352.7	37.6	-89.8	11.4
2025-01-22 18:03:55.000976	352.5	37.4	-90.2	13.7
2025-01-22 18:03:56.149169	352.2	37.2	-90.0	9.6
2025-01-22 18:03:57.294251	352.0	36.9	-89.9	11.5
2025-01-22 18:03:58.444573	351.7	36.7	-90.3	6.8
2025-01-22 18:03:59.587511	351.5	36.5	-90.4	6.3
2025-01-22 18:04:00.733959	351.3	36.3	-90.3	10.3
2025-01-22 18:04:01.875388	351.0	36.0	-90.4	9.2
2025-01-22 18:04:03.016060	350.8	35.8	-90.3	7.5
2025-01-22 18:04:04.161568	350.6	35.6	-90.1	11.5
2025-01-22 18:04:05.308892	350.4	35.4	-90.1	10.9
2025-01-22 18:04:06.460749	350.1	35.1	-90.6	7.1
2025-01-22 18:04:07.607346	349.9	34.9	-90.6	8.9
2025-01-22 18:04:08.749272	349.7	34.7	-90.5	16.2
2025-01-22 18:04:09.898064	349.5	34.5	-90.0	13.2
2025-01-22 18:04:11.045383	349.3	34.2	-90.3	12.5
2025-01-22 18:04:12.192050	349.1	34.0	-90.5	11.5
2025-01-22 18:04:13.338254	348.9	33.8	-90.3	13.3
2025-01-22 18:04:14.481505	348.7	33.6	-90.7	10.9
2025-01-22 18:04:15.627932	348.5	33.4	-90.8	10.0
2025-01-22 18:04:16.775131	348.3	33.2	-90.9	9.3
2025-01-22 18:04:17.919776	348.1	33.0	-90.7	6.5
2025-01-22 18:04:19.063959	347.9	32.7	-90.9	5.5
2025-01-22 18:04:20.205828	347.7	32.5	-90.5	11.2
2025-01-22 18:04:21.353224	347.5	32.3	-90.3	7.1
2025-01-22 18:04:22.499684	347.4	32.1	-90.4	8.3
2025-01-22 18:04:23.646411	347.2	31.9	-90.7	10.8
2025-01-22 18:04:24.792940	347.0	31.7	-90.8	11.2
2025-01-22 18:04:25.937453	346.8	31.5	-90.9	8.0
2025-01-22 18:04:27.081046	346.7	31.3	-90.7	7.6
2025-01-22 18:04:28.230651	346.5	31.1	-90.0	10.2
2025-01-22 18:04:29.378324	346.3	30.9	-90.4	8.1
2025-01-22 18:04:30.528079	346.2	30.7	-90.7	9.7
2025-01-22 18:04:31.672361	346.0	30.5	-90.8	12.5
2025-01-22 18:04:32.821747	345.8	30.3	-90.6	12.7
2025-01-22 18:04:33.965393	345.7	30.1	-90.9	10.0
2025-01-22 18:04:35.108995	345.5	29.9	-91.2	11.0
2025-01-22 18:04:36.258736	345.4	29.7	-90.4	10.4
2025-01-22 18:04:37.405883	345.2	29.5	-90.2	5.0
2025-01-22 18:04:38.556659	345.1	29.3	-90.6	8.9
2025-01-22 18:04:39.698254	344.9	29.1	-90.3	10.0
2025-01-22 18:04:40.831207	344.8	28.9	-91.2	11.4
2025-01-22 18:04:41.951193	344.6	28.8	-91.5	3.8
2025-01-22 18:04:43.072002	344.5	28.6	-90.7	6.2
2025-01-22 18:04:44.192078	344.3	28.4	-91.2	7.2
2025-01-22 18:04:45.312973	344.2	28.2	-90.9	5.6
2025-01-22 18:04:46.433899	344.1	28.0	-91.2	5.2
2025-01-22 18:04:47.554878	343.9	27.8	-91.1	7.4
2025-01-22 18:04:48.675927	343.8	27.7	-91.0	9.4
2025-01-22 18:04:49.797576	343.7	27.5	-90.9	10.9
2025-01-22 18:04:50.927592	343.5	27.3	-90.5	6.7
2025-01-22 18:04:52.077399	343.4	27.1	-90.7	5.7
2025-01-22 18:04:53.225407	343.3	27.0	-90.5	9.4
2025-01-22 18:04:54.366268	343.1	26.8	-90.5	6.9
2025-01-22 18:04:55.511106	343.0	26.6	-91.2	6.7
2025-01-22 18:04:56.658937	342.9	26.4	-90.7	9.1
2025-01-22 18:04:57.805569	342.8	26.2	-90.6	10.7
2025-01-22 18:04:58.950696	342.6	26.1	-90.9	4.3
2025-01-22 18:05:00.100863	342.5	25.9	-89.9	6.4
2025-01-22 18:05:01.241301	342.4	25.7	-90.2	10.6
2025-01-22 18:05:02.389700	342.3	25.6	-90.3	7.3
2025-01-22 18:05:03.538162	342.2	25.4	-90.3	8.4
2025-01-22 18:05:04.685312	342.0	25.2	-90.5	9.0
2025-01-22 18:05:05.833927	341.9	25.0	-90.4	11.0
2025-01-22 18:05:06.976926	341.8	24.9	-89.9	7.8
2025-01-22 18:05:08.125757	341.7	24.7	-90.1	10.7
2025-01-22 18:05:09.273714	341.6	24.5	-90.1	9.9
2025-01-22 18:05:10.417271	341.5	24.4	-90.0	7.5
2025-01-22 18:05:11.562978	341.4	24.2	-90.1	5.0
2025-01-22 18:05:12.707367	341.3	24.0	-90.4	9.4
2025-01-22 18:05:13.854966	341.2	23.9	-90.2	6.9
2025-01-22 18:05:15.005287	341.1	23.7	-90.1	10.6
2025-01-22 18:05:16.153998	340.9	23.6	-90.3	13.6
2025-01-22 18:05:17.299138	340.8	23.4	-90.4	10.9
2025-01-22 18:05:18.445581	340.7	23.2	-90.1	7.0
2025-01-22 18:05:19.595307	340.6	23.1	-90.9	11.2
2025-01-22 18:05:20.739346	340.5	22.9	-91.1	12.8
2025-01-22 18:05:21.889557	340.4	22.8	-90.9	7.3
2025-01-22 18:05:23.034597	340.3	22.6	-91.1	8.3
2025-01-22 18:05:24.180350	340.2	22.5	-90.9	11.6
2025-01-22 18:05:25.323127	340.1	22.3	-90.0	10.6
2025-01-22 18:05:26.473937	340.1	22.2	-91.2	5.6
2025-01-22 18:05:27.625234	340.0	22.0	-90.7	9.2
2025-01-22 18:05:28.771116	339.9	21.9	-90.4	12.6
2025-01-22 18:05:29.916977	339.8	21.7	-90.9	5.6
2025-01-22 18:05:31.066264	339.7	21.6	-90.5	9.0
2025-01-22 18:05:32.208775	339.6	21.4	-90.4	11.7
2025-01-22 18:05:33.356531	339.5	21.3	-90.6	9.5
2025-01-22 18:05:34.504364	339.4	21.1	-91.0	13.7
2025-01-22 18:05:35.651614	339.3	21.0	-90.9	10.1
2025-01-22 18:05:36.801175	339.2	20.8	-90.8	9.4
2025-01-22 18:05:37.946046	339.2	20.7	-91.0	9.6
2025-01-22 18:05:39.092881	339.1	20.5	-90.7	9.9
2025-01-22 18:05:40.244017	339.0	20.4	-90.4	6.4
2025-01-22 18:05:41.397105	338.9	20.2	-91.0	5.3
2025-01-22 18:05:42.537754	338.8	20.1	-90.9	6.3
2025-01-22 18:05:43.687514	338.7	20.0	-90.6	7.8
2025-01-22 18:05:44.836661	338.7	19.8	-90.5	7.3
2025-01-22 18:05:45.983775	338.6	19.7	-90.7	3.7
2025-01-22 18:05:47.130973	338.5	19.5	-90.5	3.9
2025-01-22 18:05:48.281019	338.4	19.4	-90.2	2.0
2025-01-22 18:05:49.426708	338.3	19.3	-90.5	5.9
2025-01-22 18:05:50.568217	338.3	19.1	-90.5	5.9
2025-01-22 18:05:51.711434	338.2	19.0	-90.4	6.6
2025-01-22 18:05:52.833984	338.1	18.8	-90.3	6.6
2025-01-22 18:05:53.954458	338.0	18.7	-90.4	4.2
2025-01-22 18:05:55.075128	338.0	18.6	-90.2	4.1
2025-01-22 18:05:56.196130	337.9	18.5	-90.2	6.3
2025-01-22 18:05:57.316212	337.8	18.3	-90.3	8.0
2025-01-22 18:05:58.437425	337.7	18.2	-90.2	3.1
2025-01-22 18:05:59.558108	337.7	18.1	-90.4	4.3
2025-01-22 18:06:00.681170	337.6	17.9	-90.5	5.0
2025-01-22 18:06:01.801461	337.5	17.8	-90.3	5.4
2025-01-22 18:06:02.945701	337.5	17.7	-90.5	5.2
2025-01-22 18:06:04.092823	337.4	17.5	-90.3	6.4
2025-01-22 18:06:05.235258	337.3	17.4	-90.3	6.3
2025-01-22 18:06:06.375127	337.3	17.3	-89.9	6.3
2025-01-22 18:06:07.525477	337.2	17.2	-90.6	2.6
2025-01-22 18:06:08.671351	337.1	17.0	-90.6	5.0
2025-01-22 18:06:09.818642	337.1	16.9	-90.6	3.3
2025-01-22 18:06:10.966509	337.0	16.8	-90.2	3.7
2025-01-22 18:06:12.112133	336.9	16.7	-90.3	5.4
2025-01-22 18:06:13.258601	336.9	16.5	-90.1	5.4
2025-01-22 18:06:14.402730	336.8	16.4	-90.2	4.1
2025-01-22 18:06:15.551097	336.7	16.3	-90.1	6.3
2025-01-22 18:06:16.699396	336.7	16.2	-90.2	3.5
2025-01-22 18:06:17.843888	336.6	16.0	-90.5	3.6
2025-01-22 18:06:18.992876	336.5	15.9	-90.5	5.9
2025-01-22 18:06:20.141710	336.5	15.8	-90.3	5.1
2025-01-22 18:06:21.285564	336.4	15.7	-90.0	3.3
2025-01-22 18:06:22.434802	336.4	15.6	-90.4	5.2
2025-01-22 18:06:23.579107	336.3	15.4	-90.5	3.6
2025-01-22 18:06:24.728953	336.2	15.3	-89.7	8.1
2025-01-22 18:06:25.878517	336.2	15.2	-90.1	4.8
2025-01-22 18:06:27.022442	336.1	15.1	-90.5	5.1
2025-01-22 18:06:28.170752	336.1	15.0	-90.4	5.2
2025-01-22 18:06:29.312595	336.0	14.9	-90.2	5.1
2025-01-22 18:06:30.445355	336.0	14.7	-89.9	5.8
2025-01-22 18:06:31.594331	335.9	14.6	-90.3	6.2
2025-01-22 18:06:32.777489	335.8	14.5	-90.2	4.4
#Closed at: 2025-01-22 17:57:34.318382