passes_logs/2025/01/07/LEX_Murmansk/LEX_Murmansk__20250107_090139_NOAA_19_rec.log

#Pass ID: 20250107_090139_NOAA 19
#Satellite: NOAA 19
#Configuration: NOAA 19
#Start time: 2025-01-07 09:01:34.412982

#LorettStation: 1.0.0 05.05.2024
#Station: LEX_Murmansk
#Location: 33.156738 lon 68.926811 lat
#TLE: 1 33591U 09005A   25006.86236638  .00000398  00000+0  23653-3 0  9991
#TLE: 2 33591  99.0211  70.5614 0014662  79.2072 281.0749 14.13253225820137

#Time	Az	El	Level	SNR
2025-01-07 09:01:46.693872	25.6	16.3	-91.9	3.7
2025-01-07 09:01:47.826138	25.6	16.5	-91.9	4.1
2025-01-07 09:01:48.965579	25.6	16.6	-92.0	6.3
2025-01-07 09:01:50.118257	25.6	16.7	-92.1	6.1
2025-01-07 09:01:51.269342	25.6	16.8	-91.8	2.4
2025-01-07 09:01:52.421605	25.6	17.0	-92.3	3.2
2025-01-07 09:01:53.576215	25.6	17.1	-92.0	6.7
2025-01-07 09:01:54.724432	25.6	17.2	-92.1	7.9
2025-01-07 09:01:55.888809	25.6	17.4	-92.3	6.6
2025-01-07 09:01:57.048987	25.6	17.5	-91.8	5.3
2025-01-07 09:01:58.207154	25.6	17.7	-91.7	2.5
2025-01-07 09:01:59.365865	25.6	17.8	-92.0	2.3
2025-01-07 09:02:00.517510	25.6	17.9	-91.9	3.7
2025-01-07 09:02:01.679530	25.6	18.1	-91.9	4.3
2025-01-07 09:02:02.842380	25.6	18.2	-91.8	7.3
2025-01-07 09:02:03.992733	25.6	18.3	-92.2	13.2
2025-01-07 09:02:05.148067	25.5	18.5	-91.9	9.2
2025-01-07 09:02:06.279674	25.5	18.6	-91.7	8.1
2025-01-07 09:02:07.418016	25.5	18.8	-92.2	5.7
2025-01-07 09:02:08.575201	25.5	18.9	-92.6	7.9
2025-01-07 09:02:09.724573	25.5	19.0	-92.2	7.6
2025-01-07 09:02:10.890952	25.5	19.2	-92.4	11.1
2025-01-07 09:02:12.045868	25.5	19.3	-92.2	11.5
2025-01-07 09:02:13.201910	25.5	19.5	-91.9	7.3
2025-01-07 09:02:14.357530	25.5	19.6	-92.0	2.2
2025-01-07 09:02:15.515245	25.5	19.8	-92.3	1.3
2025-01-07 09:02:16.675782	25.5	19.9	-92.3	3.9
2025-01-07 09:02:17.836068	25.5	20.1	-92.1	2.5
2025-01-07 09:02:19.000715	25.5	20.2	-92.2	10.1
2025-01-07 09:02:20.166195	25.5	20.4	-92.1	10.9
2025-01-07 09:02:21.333101	25.5	20.5	-92.2	6.9
2025-01-07 09:02:22.495577	25.5	20.7	-92.2	11.3
2025-01-07 09:02:23.653261	25.5	20.8	-92.1	8.1
2025-01-07 09:02:24.818857	25.4	21.0	-92.3	6.4
2025-01-07 09:02:25.977161	25.4	21.2	-92.3	11.9
2025-01-07 09:02:27.140334	25.4	21.3	-92.0	13.3
2025-01-07 09:02:28.307365	25.4	21.5	-91.7	8.0
2025-01-07 09:02:29.465299	25.4	21.6	-91.2	6.1
2025-01-07 09:02:30.632413	25.4	21.8	-91.2	4.9
2025-01-07 09:02:31.793165	25.4	22.0	-91.3	1.6
2025-01-07 09:02:32.951912	25.4	22.1	-91.6	2.2
2025-01-07 09:02:34.112701	25.4	22.3	-92.0	5.9
2025-01-07 09:02:35.271781	25.4	22.4	-92.0	9.6
2025-01-07 09:02:36.429306	25.4	22.6	-92.2	12.0
2025-01-07 09:02:37.581266	25.4	22.8	-91.9	11.2
2025-01-07 09:02:38.745014	25.4	22.9	-91.9	5.1
2025-01-07 09:02:39.902825	25.3	23.1	-92.1	4.2
2025-01-07 09:02:41.060770	25.3	23.3	-92.0	7.9
2025-01-07 09:02:42.195271	25.3	23.5	-92.3	6.9
2025-01-07 09:02:43.315111	25.3	23.6	-91.8	13.0
2025-01-07 09:02:44.437596	25.3	23.8	-92.5	10.3
2025-01-07 09:02:45.558314	25.3	24.0	-92.1	6.2
2025-01-07 09:02:46.678728	25.3	24.1	-92.2	4.2
2025-01-07 09:02:47.800467	25.3	24.3	-91.8	2.0
2025-01-07 09:02:48.921533	25.3	24.5	-92.4	5.9
2025-01-07 09:02:50.043070	25.3	24.6	-92.4	7.3
2025-01-07 09:02:51.168467	25.3	24.8	-91.9	13.1
2025-01-07 09:02:52.315723	25.3	25.0	-92.3	13.4
2025-01-07 09:02:53.457254	25.2	25.2	-92.2	13.5
2025-01-07 09:02:54.610082	25.2	25.4	-92.4	9.4
2025-01-07 09:02:55.767159	25.2	25.5	-92.3	5.9
2025-01-07 09:02:56.928085	25.2	25.7	-92.1	8.1
2025-01-07 09:02:58.088427	25.2	25.9	-92.0	10.0
2025-01-07 09:02:59.252312	25.2	26.1	-91.9	10.3
2025-01-07 09:03:00.401773	25.2	26.3	-92.3	11.4
2025-01-07 09:03:01.554852	25.2	26.5	-92.2	7.5
2025-01-07 09:03:02.720169	25.2	26.7	-92.2	3.3
2025-01-07 09:03:03.881428	25.1	26.9	-92.5	1.9
2025-01-07 09:03:05.038255	25.1	27.1	-92.5	3.4
2025-01-07 09:03:06.202784	25.1	27.3	-92.2	4.0
2025-01-07 09:03:07.363222	25.1	27.5	-92.0	8.0
2025-01-07 09:03:08.530257	25.1	27.7	-92.3	10.4
2025-01-07 09:03:09.692153	25.1	27.9	-92.3	12.4
2025-01-07 09:03:10.855483	25.1	28.1	-92.3	8.8
2025-01-07 09:03:12.015921	25.1	28.3	-92.3	7.8
2025-01-07 09:03:13.178736	25.0	28.5	-92.4	6.7
2025-01-07 09:03:14.332502	25.0	28.7	-92.0	9.1
2025-01-07 09:03:15.487077	25.0	28.9	-92.2	11.1
2025-01-07 09:03:16.608488	25.0	29.1	-92.3	9.1
2025-01-07 09:03:17.758558	25.0	29.3	-92.6	6.8
2025-01-07 09:03:18.915200	25.0	29.5	-92.4	2.7
2025-01-07 09:03:20.064532	25.0	29.7	-92.7	3.7
2025-01-07 09:03:21.219155	24.9	30.0	-92.3	4.7
2025-01-07 09:03:22.368533	24.9	30.2	-92.4	2.0
2025-01-07 09:03:23.527164	24.9	30.4	-92.3	6.0
2025-01-07 09:03:24.688600	24.9	30.6	-92.4	8.7
2025-01-07 09:03:25.844016	24.9	30.8	-92.2	11.2
2025-01-07 09:03:27.005476	24.9	31.1	-92.4	9.7
2025-01-07 09:03:28.164533	24.8	31.3	-92.3	7.5
2025-01-07 09:03:29.327599	24.8	31.5	-92.4	5.8
2025-01-07 09:03:30.492406	24.8	31.8	-92.7	9.0
2025-01-07 09:03:31.657469	24.8	32.0	-92.6	7.4
2025-01-07 09:03:32.825419	24.8	32.2	-92.7	10.2
2025-01-07 09:03:33.983498	24.8	32.5	-92.3	7.4
2025-01-07 09:03:35.144903	24.7	32.7	-92.3	5.6
2025-01-07 09:03:36.303909	24.7	32.9	-92.5	2.2
2025-01-07 09:03:37.449306	24.7	33.2	-92.6	2.9
2025-01-07 09:03:38.575853	24.7	33.4	-92.6	3.0
2025-01-07 09:03:39.733338	24.7	33.7	-92.5	2.9
2025-01-07 09:03:40.878109	24.6	33.9	-92.7	7.4
2025-01-07 09:03:42.029803	24.6	34.2	-92.3	7.9
2025-01-07 09:03:43.181377	24.6	34.4	-92.3	12.3
2025-01-07 09:03:44.307805	24.6	34.6	-92.3	9.9
2025-01-07 09:03:45.463730	24.5	34.9	-92.6	9.6
2025-01-07 09:03:46.606084	24.5	35.2	-92.6	11.0
2025-01-07 09:03:47.758853	24.5	35.4	-92.2	7.6
2025-01-07 09:03:48.910012	24.5	35.7	-92.4	12.0
2025-01-07 09:03:50.059006	24.5	35.9	-92.5	13.8
2025-01-07 09:03:51.220400	24.4	36.2	-92.2	10.0
2025-01-07 09:03:52.385213	24.4	36.5	-92.3	8.5
2025-01-07 09:03:53.541335	24.4	36.7	-92.9	7.4
2025-01-07 09:03:54.708134	24.4	37.0	-92.1	2.5
2025-01-07 09:03:55.863892	24.3	37.3	-92.6	3.7
2025-01-07 09:03:57.024323	24.3	37.6	-92.6	6.9
2025-01-07 09:03:58.187349	24.3	37.9	-92.2	7.6
2025-01-07 09:03:59.349423	24.2	38.1	-91.9	11.3
2025-01-07 09:04:00.504753	24.2	38.4	-92.4	16.6
2025-01-07 09:04:01.673118	24.2	38.7	-92.6	15.7
2025-01-07 09:04:02.821499	24.2	39.0	-92.3	12.1
2025-01-07 09:04:03.974252	24.1	39.3	-92.5	10.4
2025-01-07 09:04:05.101210	24.1	39.6	-92.3	11.1
2025-01-07 09:04:06.243015	24.1	39.9	-92.5	11.9
2025-01-07 09:04:07.388758	24.0	40.2	-92.6	17.0
2025-01-07 09:04:08.540629	24.0	40.5	-92.3	17.8
2025-01-07 09:04:09.695720	24.0	40.8	-92.5	16.2
2025-01-07 09:04:10.856932	23.9	41.1	-92.4	11.3
2025-01-07 09:04:11.982191	23.9	41.4	-92.2	7.8
2025-01-07 09:04:13.136137	23.9	41.7	-92.5	6.7
2025-01-07 09:04:14.280205	23.8	42.0	-92.5	3.7
2025-01-07 09:04:15.437922	23.8	42.3	-92.6	6.6
2025-01-07 09:04:16.588463	23.7	42.6	-92.7	10.1
2025-01-07 09:04:17.751012	23.7	42.9	-92.8	13.3
2025-01-07 09:04:18.907571	23.7	43.3	-91.7	15.8
2025-01-07 09:04:20.066325	23.6	43.6	-91.6	16.9
2025-01-07 09:04:21.237879	23.6	43.9	-91.1	14.3
2025-01-07 09:04:22.394358	23.5	44.3	-91.6	9.9
2025-01-07 09:04:23.559083	23.5	44.6	-91.4	11.4
2025-01-07 09:04:24.721110	23.5	44.9	-92.0	9.5
2025-01-07 09:04:25.882351	23.4	45.3	-91.7	14.7
2025-01-07 09:04:27.049277	23.4	45.6	-91.4	17.0
2025-01-07 09:04:28.211566	23.3	46.0	-91.6	17.3
2025-01-07 09:04:29.372667	23.3	46.3	-92.2	15.1
2025-01-07 09:04:30.530640	23.2	46.7	-92.2	11.3
2025-01-07 09:04:31.693102	23.2	47.0	-92.3	7.6
2025-01-07 09:04:32.856554	23.1	47.4	-92.1	4.0
2025-01-07 09:04:34.012587	23.0	47.8	-92.4	6.3
2025-01-07 09:04:35.175267	23.0	48.1	-92.3	2.8
2025-01-07 09:04:36.331102	22.9	48.5	-92.2	5.4
2025-01-07 09:04:37.508153	22.9	48.9	-92.7	11.1
2025-01-07 09:04:38.667916	22.8	49.3	-92.6	11.9
2025-01-07 09:04:39.840084	22.7	49.6	-92.6	14.0
2025-01-07 09:04:41.005265	22.7	50.0	-92.4	11.4
2025-01-07 09:04:42.171669	22.6	50.4	-92.6	8.8
2025-01-07 09:04:43.331257	22.5	50.8	-92.1	6.3
2025-01-07 09:04:44.497504	22.5	51.2	-92.7	9.1
2025-01-07 09:04:45.666564	22.4	51.6	-92.4	5.1
2025-01-07 09:04:46.830247	22.3	52.0	-92.2	7.9
2025-01-07 09:04:47.996442	22.3	52.4	-92.6	10.9
2025-01-07 09:04:49.150830	22.2	52.8	-92.3	13.0
2025-01-07 09:04:50.311396	22.1	53.2	-92.1	9.4
2025-01-07 09:04:51.467199	22.0	53.6	-92.6	3.7
2025-01-07 09:04:52.629994	21.9	54.0	-92.5	3.3
2025-01-07 09:04:53.793195	21.8	54.5	-92.4	4.6
2025-01-07 09:04:54.953423	21.7	54.9	-92.7	3.6
2025-01-07 09:04:56.114848	21.7	55.3	-92.5	3.8
2025-01-07 09:04:57.274457	21.6	55.7	-92.1	1.6
2025-01-07 09:04:58.433951	21.5	56.2	-92.0	4.9
2025-01-07 09:04:59.608453	21.4	56.6	-92.8	7.5
2025-01-07 09:05:00.750706	21.2	57.0	-92.3	9.2
2025-01-07 09:05:01.910255	21.1	57.5	-92.3	11.3
2025-01-07 09:05:03.079819	21.0	57.9	-92.5	9.2
2025-01-07 09:05:04.235352	20.9	58.4	-92.3	7.6
2025-01-07 09:05:05.393451	20.8	58.8	-92.3	8.0
2025-01-07 09:05:06.546887	20.7	59.3	-92.4	11.8
2025-01-07 09:05:07.689358	20.5	59.7	-92.4	8.4
2025-01-07 09:05:08.810860	20.4	60.2	-92.0	8.0
2025-01-07 09:05:09.933064	20.3	60.6	-92.4	14.4
2025-01-07 09:05:11.055244	20.1	61.1	-92.8	17.1
2025-01-07 09:05:12.175865	20.0	61.5	-92.0	17.2
2025-01-07 09:05:13.296726	19.8	62.0	-92.2	15.5
2025-01-07 09:05:14.417960	19.7	62.4	-92.5	14.2
2025-01-07 09:05:15.541811	19.5	62.9	-92.5	14.6
2025-01-07 09:05:16.662115	19.3	63.4	-92.4	9.5
2025-01-07 09:05:17.806698	19.1	63.8	-92.6	5.4
2025-01-07 09:05:18.946204	18.9	64.3	-92.7	5.3
2025-01-07 09:05:20.095882	18.7	64.8	-92.3	7.7
2025-01-07 09:05:21.244151	18.5	65.3	-92.4	2.4
2025-01-07 09:05:22.409794	18.3	65.8	-92.3	6.5
2025-01-07 09:05:23.570617	18.1	66.3	-92.6	10.6
2025-01-07 09:05:24.736456	17.8	66.8	-92.7	10.3
2025-01-07 09:05:25.895831	17.6	67.3	-92.6	12.4
2025-01-07 09:05:27.051244	17.3	67.8	-92.6	12.9
2025-01-07 09:05:28.215728	17.0	68.3	-92.4	12.8
2025-01-07 09:05:29.375219	16.7	68.8	-92.0	9.8
2025-01-07 09:05:30.537624	16.4	69.4	-92.9	7.9
2025-01-07 09:05:31.699597	16.1	69.9	-92.6	10.6
2025-01-07 09:05:32.860133	15.7	70.4	-92.2	9.0
2025-01-07 09:05:34.024586	15.4	70.9	-92.5	12.0
2025-01-07 09:05:35.188891	15.0	71.4	-92.2	8.1
2025-01-07 09:05:36.346576	14.6	72.0	-92.3	7.6
2025-01-07 09:05:37.513728	14.1	72.5	-92.3	12.4
2025-01-07 09:05:38.668042	13.7	73.0	-92.4	12.3
2025-01-07 09:05:39.825364	13.1	73.5	-92.4	10.9
2025-01-07 09:05:40.983749	12.6	74.1	-92.5	12.8
2025-01-07 09:05:42.146534	12.0	74.6	-92.5	14.1
2025-01-07 09:05:43.312336	11.4	75.1	-92.7	13.9
2025-01-07 09:05:44.474726	10.7	75.7	-92.7	16.0
2025-01-07 09:05:45.636104	10.0	76.2	-92.6	16.2
2025-01-07 09:05:46.791387	9.2	76.7	-92.5	17.6
2025-01-07 09:05:47.951194	8.4	77.3	-92.7	17.9
2025-01-07 09:05:49.096138	7.5	77.8	-92.1	12.5
2025-01-07 09:05:50.255488	6.4	78.3	-92.2	11.7
2025-01-07 09:05:51.389676	5.3	78.8	-92.7	11.2
2025-01-07 09:05:52.510223	4.2	79.3	-92.5	9.3
2025-01-07 09:05:53.630925	2.9	79.8	-92.6	9.9
2025-01-07 09:05:54.751064	1.4	80.3	-92.1	5.4
2025-01-07 09:05:55.872427	359.8	80.8	-92.5	7.3
2025-01-07 09:05:56.993681	358.1	81.3	-92.6	9.0
2025-01-07 09:05:58.114287	356.1	81.8	-92.2	8.1
2025-01-07 09:05:59.237997	353.8	82.2	-92.5	7.5
2025-01-07 09:06:00.362766	351.3	82.7	-92.4	8.2
2025-01-07 09:06:01.516950	348.4	83.1	-92.9	12.9
2025-01-07 09:06:02.667133	345.0	83.6	-92.6	14.8
2025-01-07 09:06:03.830622	341.2	84.0	-92.3	14.9
2025-01-07 09:06:04.988157	336.8	84.4	-92.4	19.8
2025-01-07 09:06:06.151665	331.8	84.7	-92.6	20.2
2025-01-07 09:06:07.306177	326.2	85.0	-92.4	19.3
2025-01-07 09:06:08.463723	319.9	85.2	-92.3	19.5
2025-01-07 09:06:09.617109	313.1	85.4	-92.8	20.5
2025-01-07 09:06:10.743628	306.0	85.5	-92.5	22.6
2025-01-07 09:06:11.899199	298.5	85.6	-92.6	21.4
2025-01-07 09:06:13.041180	291.1	85.5	-92.4	22.2
2025-01-07 09:06:14.190341	283.8	85.4	-92.4	21.4
2025-01-07 09:06:15.350810	277.0	85.2	-91.9	20.4
2025-01-07 09:06:16.506338	270.8	85.0	-92.7	22.7
2025-01-07 09:06:17.661779	265.2	84.7	-92.5	20.6
2025-01-07 09:06:18.814526	260.2	84.4	-92.5	19.4
2025-01-07 09:06:19.969935	255.8	84.0	-92.9	22.3
2025-01-07 09:06:21.134059	252.0	83.6	-92.4	19.1
2025-01-07 09:06:22.294344	248.6	83.1	-92.6	18.5
2025-01-07 09:06:23.454563	245.7	82.7	-92.5	18.8
2025-01-07 09:06:24.617626	243.1	82.2	-92.5	17.5
2025-01-07 09:06:25.784777	240.8	81.7	-92.3	14.7
2025-01-07 09:06:26.936381	238.8	81.2	-92.7	17.5
2025-01-07 09:06:28.095838	236.9	80.7	-92.4	15.4
2025-01-07 09:06:29.251327	235.3	80.2	-92.0	12.0
2025-01-07 09:06:30.412717	233.9	79.7	-92.5	13.8
2025-01-07 09:06:31.566769	232.6	79.2	-91.9	12.9
2025-01-07 09:06:32.722701	231.4	78.7	-92.5	10.5
2025-01-07 09:06:33.868544	230.3	78.2	-92.2	9.8
2025-01-07 09:06:34.998906	229.3	77.6	-92.3	13.6
2025-01-07 09:06:36.155878	228.4	77.1	-91.8	11.4
2025-01-07 09:06:37.293588	227.6	76.6	-91.9	7.8
2025-01-07 09:06:38.450533	226.8	76.1	-91.8	13.2
2025-01-07 09:06:39.601659	226.1	75.5	-91.9	11.4
2025-01-07 09:06:40.750094	225.5	75.0	-92.3	9.6
2025-01-07 09:06:41.912061	224.9	74.5	-91.9	11.7
2025-01-07 09:06:43.074513	224.3	73.9	-92.3	12.7
2025-01-07 09:06:44.238166	223.8	73.4	-92.4	7.3
2025-01-07 09:06:45.400523	223.3	72.9	-92.3	12.1
2025-01-07 09:06:46.560667	222.8	72.4	-92.5	13.2
2025-01-07 09:06:47.723523	222.4	71.8	-92.1	8.0
2025-01-07 09:06:48.885406	222.0	71.3	-92.6	13.4
2025-01-07 09:06:50.049048	221.6	70.8	-92.6	13.1
2025-01-07 09:06:51.209188	221.2	70.3	-90.5	10.6
2025-01-07 09:06:52.366798	220.9	69.7	-92.5	12.0
2025-01-07 09:06:53.537165	220.5	69.2	-92.6	15.4
2025-01-07 09:06:54.697535	220.2	68.7	-92.8	11.1
2025-01-07 09:06:55.864497	219.9	68.2	-92.4	11.7
2025-01-07 09:06:57.015113	219.7	67.7	-92.5	12.6
2025-01-07 09:06:58.172766	219.4	67.2	-92.2	12.2
2025-01-07 09:06:59.337038	219.1	66.7	-92.1	12.4
2025-01-07 09:07:00.482916	218.9	66.2	-92.4	16.6
2025-01-07 09:07:01.639996	218.7	65.7	-92.7	14.7
2025-01-07 09:07:02.810040	218.5	65.2	-92.8	16.1
2025-01-07 09:07:03.969007	218.2	64.7	-92.7	18.8
2025-01-07 09:07:05.132233	218.0	64.2	-92.3	21.5
2025-01-07 09:07:06.291242	217.9	63.7	-91.9	21.4
2025-01-07 09:07:07.445905	217.7	63.2	-92.6	20.8
2025-01-07 09:07:08.607378	217.5	62.7	-92.6	21.6
2025-01-07 09:07:09.771353	217.3	62.3	-92.4	20.2
2025-01-07 09:07:10.934465	217.2	61.8	-92.5	19.3
2025-01-07 09:07:12.096115	217.0	61.3	-92.3	19.8
2025-01-07 09:07:13.258904	216.9	60.8	-92.5	20.6
2025-01-07 09:07:14.422142	216.7	60.4	-92.7	18.9
2025-01-07 09:07:15.582984	216.6	59.9	-92.9	18.2
2025-01-07 09:07:16.738534	216.4	59.5	-92.9	21.0
2025-01-07 09:07:17.894612	216.3	59.0	-92.8	20.7
2025-01-07 09:07:19.057970	216.2	58.5	-92.4	17.7
2025-01-07 09:07:20.216359	216.1	58.1	-92.5	19.7
2025-01-07 09:07:21.377784	216.0	57.7	-92.6	19.1
2025-01-07 09:07:22.535208	215.8	57.2	-91.3	12.6
2025-01-07 09:07:23.696821	215.7	56.8	-91.8	18.3
2025-01-07 09:07:24.864745	215.6	56.3	-91.7	19.1
2025-01-07 09:07:26.024396	215.5	55.9	-92.2	11.2
2025-01-07 09:07:27.185002	215.4	55.5	-91.7	18.0
2025-01-07 09:07:28.344895	215.3	55.0	-91.5	19.1
2025-01-07 09:07:29.510711	215.2	54.6	-92.1	10.4
2025-01-07 09:07:30.667005	215.1	54.2	-92.5	16.9
2025-01-07 09:07:31.826137	215.1	53.8	-92.7	18.9
2025-01-07 09:07:32.990053	215.0	53.4	-92.6	12.2
2025-01-07 09:07:34.161325	214.9	53.0	-92.4	15.3
2025-01-07 09:07:35.320605	214.8	52.5	-92.5	18.1
2025-01-07 09:07:36.479193	214.7	52.1	-92.4	15.2
2025-01-07 09:07:37.633241	214.7	51.7	-92.2	14.9
2025-01-07 09:07:38.793631	214.6	51.3	-92.3	17.2
2025-01-07 09:07:39.954107	214.5	51.0	-92.5	16.4
2025-01-07 09:07:41.113534	214.4	50.6	-92.3	15.5
2025-01-07 09:07:42.276938	214.4	50.2	-91.8	14.3
2025-01-07 09:07:43.437482	214.3	49.8	-92.2	12.3
2025-01-07 09:07:44.597480	214.3	49.4	-92.6	14.2
2025-01-07 09:07:45.765657	214.2	49.0	-92.5	17.5
2025-01-07 09:07:46.934889	214.1	48.7	-92.6	11.9
2025-01-07 09:07:48.096396	214.1	48.3	-92.5	9.8
2025-01-07 09:07:49.274313	214.0	47.9	-92.2	14.7
2025-01-07 09:07:50.437707	214.0	47.5	-92.1	8.3
2025-01-07 09:07:51.593260	213.9	47.2	-92.9	3.3
2025-01-07 09:07:52.768362	213.8	46.8	-92.7	10.5
2025-01-07 09:07:53.936049	213.8	46.5	-92.1	7.0
2025-01-07 09:07:55.097474	213.7	46.1	-92.3	5.8
2025-01-07 09:07:56.259214	213.7	45.8	-92.4	15.5
2025-01-07 09:07:57.428950	213.6	45.4	-92.5	10.2
2025-01-07 09:07:58.588243	213.6	45.1	-92.7	9.2
2025-01-07 09:07:59.751770	213.6	44.7	-92.6	13.8
2025-01-07 09:08:00.893905	213.5	44.4	-92.7	15.2
2025-01-07 09:08:02.055666	213.5	44.0	-92.8	13.1
2025-01-07 09:08:03.223082	213.4	43.7	-92.5	13.2
2025-01-07 09:08:04.385566	213.4	43.4	-92.8	8.9
2025-01-07 09:08:05.547167	213.3	43.1	-92.7	11.7
2025-01-07 09:08:06.706251	213.3	42.7	-92.7	11.7
2025-01-07 09:08:07.860146	213.3	42.4	-91.2	13.3
2025-01-07 09:08:09.020781	213.2	42.1	-92.8	9.6
2025-01-07 09:08:10.181472	213.2	41.8	-91.8	10.1
2025-01-07 09:08:11.344150	213.1	41.5	-92.8	12.6
2025-01-07 09:08:12.512138	213.1	41.2	-92.7	6.9
2025-01-07 09:08:13.676759	213.1	40.8	-92.6	11.3
2025-01-07 09:08:14.842112	213.0	40.5	-91.9	10.2
2025-01-07 09:08:15.997896	213.0	40.2	-92.5	8.2
2025-01-07 09:08:17.158312	213.0	39.9	-92.4	11.5
2025-01-07 09:08:18.321916	212.9	39.6	-92.1	10.1
2025-01-07 09:08:19.478619	212.9	39.3	-91.8	10.4
2025-01-07 09:08:20.642469	212.9	39.0	-88.6	10.6
2025-01-07 09:08:21.804792	212.8	38.8	-92.3	11.0
2025-01-07 09:08:22.972572	212.8	38.5	-92.6	10.7
2025-01-07 09:08:24.136793	212.8	38.2	-92.6	12.6
2025-01-07 09:08:25.296299	212.8	37.9	-91.8	12.9
2025-01-07 09:08:26.455723	212.7	37.6	-89.9	5.8
2025-01-07 09:08:27.614272	212.7	37.3	-89.9	6.2
2025-01-07 09:08:28.772896	212.7	37.1	-91.4	9.4
2025-01-07 09:08:29.938240	212.6	36.8	-90.9	4.3
2025-01-07 09:08:31.099700	212.6	36.5	-92.0	4.0
2025-01-07 09:08:32.263244	212.6	36.2	-91.9	10.9
2025-01-07 09:08:33.425788	212.6	36.0	-91.3	7.0
2025-01-07 09:08:34.584216	212.5	35.7	-92.0	7.9
2025-01-07 09:08:35.745451	212.5	35.4	-90.7	9.0
2025-01-07 09:08:36.908403	212.5	35.2	-92.2	9.8
2025-01-07 09:08:38.070763	212.5	34.9	-89.8	10.4
2025-01-07 09:08:39.230728	212.5	34.7	-92.2	8.2
2025-01-07 09:08:40.390144	212.4	34.4	-92.2	10.0
2025-01-07 09:08:41.552668	212.4	34.2	-92.4	9.7
2025-01-07 09:08:42.720365	212.4	33.9	-92.4	10.4
2025-01-07 09:08:43.877436	212.4	33.7	-90.2	9.1
2025-01-07 09:08:45.038164	212.3	33.4	-92.0	6.4
2025-01-07 09:08:46.193336	212.3	33.2	-87.9	9.7
2025-01-07 09:08:47.349837	212.3	32.9	-92.5	8.8
2025-01-07 09:08:48.513571	212.3	32.7	-92.6	5.6
2025-01-07 09:08:49.672438	212.3	32.5	-91.3	5.4
2025-01-07 09:08:50.836300	212.2	32.2	-93.1	3.9
2025-01-07 09:08:51.997566	212.2	32.0	-92.9	6.2
2025-01-07 09:08:53.173549	212.2	31.7	-92.8	5.2
2025-01-07 09:08:54.326494	212.2	31.5	-92.7	3.8
2025-01-07 09:08:55.496295	212.2	31.3	-92.6	5.9
2025-01-07 09:08:56.659251	212.2	31.1	-92.6	5.5
2025-01-07 09:08:57.823334	212.1	30.8	-92.6	7.3
2025-01-07 09:08:58.980120	212.1	30.6	-92.2	4.0
2025-01-07 09:09:00.136971	212.1	30.4	-92.5	5.1
2025-01-07 09:09:01.277105	212.1	30.2	-92.6	8.7
2025-01-07 09:09:02.434220	212.1	29.9	-92.7	4.5
2025-01-07 09:09:03.571653	212.1	29.7	-92.3	2.5
2025-01-07 09:09:04.692235	212.0	29.5	-92.8	6.0
2025-01-07 09:09:05.812803	212.0	29.3	-92.4	7.5
2025-01-07 09:09:06.933640	212.0	29.1	-92.8	7.4
2025-01-07 09:09:08.056421	212.0	28.9	-92.7	9.9
2025-01-07 09:09:09.176892	212.0	28.7	-92.4	11.2
2025-01-07 09:09:10.298467	212.0	28.5	-91.7	9.3
2025-01-07 09:09:11.419803	212.0	28.3	-92.5	8.0
2025-01-07 09:09:12.555453	211.9	28.1	-92.7	6.1
2025-01-07 09:09:13.709133	211.9	27.9	-93.0	7.8
2025-01-07 09:09:14.862892	211.9	27.7	-92.4	8.2
2025-01-07 09:09:16.022620	211.9	27.5	-92.6	5.7
2025-01-07 09:09:17.182321	211.9	27.3	-92.7	5.8
2025-01-07 09:09:18.337573	211.9	27.1	-92.4	8.2
2025-01-07 09:09:19.494732	211.9	26.9	-92.6	6.8
2025-01-07 09:09:20.651841	211.9	26.7	-92.8	6.6
2025-01-07 09:09:21.811755	211.8	26.5	-92.8	5.5
2025-01-07 09:09:22.979706	211.8	26.3	-92.8	6.3
2025-01-07 09:09:24.140620	211.8	26.1	-92.6	7.5
2025-01-07 09:09:25.302012	211.8	25.9	-92.5	8.1
2025-01-07 09:09:26.462139	211.8	25.7	-92.7	7.8
2025-01-07 09:09:27.621042	211.8	25.6	-93.2	7.7
2025-01-07 09:09:28.776206	211.8	25.4	-92.9	6.3
2025-01-07 09:09:29.939212	211.8	25.2	-92.7	4.1
2025-01-07 09:09:31.097674	211.8	25.0	-92.7	4.5
2025-01-07 09:09:32.249768	211.7	24.8	-92.7	8.3
2025-01-07 09:09:33.417786	211.7	24.6	-92.9	6.1
2025-01-07 09:09:34.575458	211.7	24.5	-92.4	4.5
2025-01-07 09:09:35.744058	211.7	24.3	-92.5	10.0
2025-01-07 09:09:36.900380	211.7	24.1	-92.6	9.3
2025-01-07 09:09:38.057048	211.7	23.9	-92.1	10.3
2025-01-07 09:09:39.216454	211.7	23.8	-92.7	10.9
2025-01-07 09:09:40.359939	211.7	23.6	-92.8	11.0
2025-01-07 09:09:41.494637	211.7	23.4	-93.1	11.1
2025-01-07 09:09:42.636126	211.7	23.3	-92.5	6.9
2025-01-07 09:09:43.786499	211.7	23.1	-92.6	11.1
2025-01-07 09:09:44.941548	211.6	22.9	-92.3	7.1
2025-01-07 09:09:46.102962	211.6	22.7	-92.7	5.8
2025-01-07 09:09:47.259475	211.6	22.6	-92.7	11.0
2025-01-07 09:09:48.411995	211.6	22.4	-92.9	7.9
2025-01-07 09:09:49.562247	211.6	22.3	-92.6	7.3
2025-01-07 09:09:50.723255	211.6	22.1	-92.6	10.4
2025-01-07 09:09:51.881452	211.6	21.9	-93.1	9.6
2025-01-07 09:09:53.040892	211.6	21.8	-92.5	9.0
2025-01-07 09:09:54.201245	211.6	21.6	-92.2	9.0
2025-01-07 09:09:55.352742	211.6	21.4	-92.1	8.5
2025-01-07 09:09:56.516862	211.6	21.3	-92.3	5.8
2025-01-07 09:09:57.674028	211.6	21.1	-92.1	7.5
2025-01-07 09:09:58.838757	211.5	21.0	-91.9	5.7
2025-01-07 09:10:00.002534	211.5	20.8	-91.6	4.4
2025-01-07 09:10:01.146233	211.5	20.7	-91.8	6.0
2025-01-07 09:10:02.305658	211.5	20.5	-92.4	7.1
2025-01-07 09:10:03.467266	211.5	20.4	-92.6	5.3
2025-01-07 09:10:04.613451	211.5	20.2	-92.9	8.0
2025-01-07 09:10:05.771672	211.5	20.1	-93.1	9.6
2025-01-07 09:10:06.902604	211.5	19.9	-92.8	6.2
2025-01-07 09:10:08.037579	211.5	19.8	-93.1	7.6
2025-01-07 09:10:09.189384	211.5	19.6	-92.6	7.5
2025-01-07 09:10:10.338241	211.5	19.5	-92.8	6.3
2025-01-07 09:10:11.482922	211.5	19.3	-92.8	6.3
2025-01-07 09:10:12.637294	211.5	19.2	-91.9	4.4
2025-01-07 09:10:13.790602	211.5	19.0	-91.6	4.2
2025-01-07 09:10:14.945396	211.5	18.9	-92.3	3.9
2025-01-07 09:10:16.104711	211.5	18.7	-92.0	4.8
2025-01-07 09:10:17.268260	211.4	18.6	-92.2	7.2
2025-01-07 09:10:18.431569	211.4	18.5	-92.3	6.0
2025-01-07 09:10:19.593276	211.4	18.3	-92.7	7.7
2025-01-07 09:10:20.756203	211.4	18.2	-92.4	5.9
2025-01-07 09:10:21.923268	211.4	18.0	-92.1	5.8
2025-01-07 09:10:23.084612	211.4	17.9	-92.0	3.6
2025-01-07 09:10:24.245763	211.4	17.8	-91.4	4.5
2025-01-07 09:10:25.405526	211.4	17.6	-91.1	4.0
2025-01-07 09:10:26.567713	211.4	17.5	-92.1	2.3
2025-01-07 09:10:27.722537	211.4	17.4	-92.8	7.9
2025-01-07 09:10:28.878309	211.4	17.2	-91.9	5.7
2025-01-07 09:10:30.032292	211.4	17.1	-92.8	5.3
2025-01-07 09:10:31.161901	211.4	17.0	-92.4	6.7
2025-01-07 09:10:32.304337	211.4	16.8	-92.6	5.1
2025-01-07 09:10:33.455091	211.4	16.7	-92.2	6.0
2025-01-07 09:10:34.607265	211.4	16.6	-92.9	7.0
2025-01-07 09:10:35.763853	211.4	16.4	-92.7	5.4
2025-01-07 09:10:36.917601	211.4	16.3	-92.6	5.1
2025-01-07 09:10:38.068710	211.4	16.2	-92.2	2.7
2025-01-07 09:10:39.229563	211.4	16.0	-92.6	7.1
2025-01-07 09:10:40.380098	211.4	15.9	-92.5	5.1
2025-01-07 09:10:41.543464	211.3	15.8	-92.7	3.6
2025-01-07 09:10:42.702089	211.3	15.7	-92.2	5.9
2025-01-07 09:10:43.859853	211.3	15.5	-92.6	5.2
2025-01-07 09:10:45.018626	211.3	15.4	-92.9	5.3
2025-01-07 09:10:46.182784	211.3	15.3	-92.3	5.0
2025-01-07 09:10:47.341880	211.3	15.2	-92.3	5.7
2025-01-07 09:10:48.484902	211.3	15.0	-92.5	3.7
2025-01-07 09:10:49.622307	211.3	14.9	-92.5	3.7
2025-01-07 09:10:50.775974	211.3	14.8	-92.5	3.0
2025-01-07 09:10:51.930529	211.3	14.7	-92.4	1.6
2025-01-07 09:10:53.095101	211.3	14.6	-92.5	3.0
2025-01-07 09:10:54.260374	211.3	14.4	-92.4	0.9
#Closed at: 2025-01-07 09:01:39.460454