passes_logs/2025/01/07/LEX_Murmansk/LEX_Murmansk__20250107_110922_NOAA_18_rec.log

#Pass ID: 20250107_110922_NOAA 18
#Satellite: NOAA 18
#Configuration: NOAA 18
#Start time: 2025-01-07 11:09:17.299813

#LorettStation: 1.0.0 05.05.2024
#Station: LEX_Murmansk
#Location: 33.156738 lon 68.926811 lat
#TLE: 1 28654U 05018A   25006.88073240  .00000470  00000+0  27325-3 0  9996
#TLE: 2 28654  98.8580  88.0152 0013976 202.1444 157.9126 14.13479687 11959

#Time	Az	El	Level	SNR
2025-01-07 11:09:29.487593	23.2	16.2	-92.6	5.8
2025-01-07 11:09:30.634315	23.1	16.4	-92.8	4.8
2025-01-07 11:09:31.789496	23.1	16.5	-92.8	5.8
2025-01-07 11:09:32.938273	23.0	16.6	-92.5	6.7
2025-01-07 11:09:34.088873	22.9	16.7	-92.3	4.6
2025-01-07 11:09:35.239183	22.8	16.9	-92.5	4.7
2025-01-07 11:09:36.397066	22.7	17.0	-92.7	8.2
2025-01-07 11:09:37.548299	22.7	17.1	-93.2	9.4
2025-01-07 11:09:38.682653	22.6	17.2	-92.8	6.1
2025-01-07 11:09:39.832239	22.5	17.4	-92.7	7.4
2025-01-07 11:09:40.990831	22.4	17.5	-93.1	5.9
2025-01-07 11:09:42.139590	22.4	17.6	-92.2	3.2
2025-01-07 11:09:43.292748	22.3	17.7	-92.3	8.7
2025-01-07 11:09:44.444035	22.2	17.9	-92.7	6.2
2025-01-07 11:09:45.592255	22.1	18.0	-93.1	8.5
2025-01-07 11:09:46.742684	22.0	18.1	-92.6	10.3
2025-01-07 11:09:47.896345	21.9	18.3	-92.0	11.1
2025-01-07 11:09:49.044452	21.9	18.4	-91.2	8.0
2025-01-07 11:09:50.194602	21.8	18.5	-91.3	7.6
2025-01-07 11:09:51.345466	21.7	18.6	-92.5	8.0
2025-01-07 11:09:52.490200	21.6	18.8	-92.4	9.8
2025-01-07 11:09:53.639302	21.5	18.9	-92.9	11.1
2025-01-07 11:09:54.790929	21.4	19.0	-92.7	9.8
2025-01-07 11:09:55.941863	21.3	19.2	-92.6	7.3
2025-01-07 11:09:57.090592	21.2	19.3	-92.5	6.9
2025-01-07 11:09:58.247135	21.1	19.4	-92.8	10.2
2025-01-07 11:09:59.405806	21.1	19.6	-92.8	8.5
2025-01-07 11:10:00.550361	21.0	19.7	-92.4	6.7
2025-01-07 11:10:01.694295	20.9	19.9	-92.7	9.8
2025-01-07 11:10:02.842250	20.8	20.0	-92.3	12.4
2025-01-07 11:10:03.992813	20.7	20.1	-92.1	12.3
2025-01-07 11:10:05.143456	20.6	20.3	-91.8	12.5
2025-01-07 11:10:06.308342	20.5	20.4	-92.1	12.2
2025-01-07 11:10:07.455987	20.4	20.6	-92.1	10.5
2025-01-07 11:10:08.605687	20.3	20.7	-91.9	11.7
2025-01-07 11:10:09.754067	20.2	20.8	-92.0	13.7
2025-01-07 11:10:10.902311	20.1	21.0	-92.9	15.4
2025-01-07 11:10:12.053442	20.0	21.1	-92.8	10.8
2025-01-07 11:10:13.208891	19.9	21.3	-92.7	12.0
2025-01-07 11:10:14.361389	19.8	21.4	-91.8	12.0
2025-01-07 11:10:15.510841	19.7	21.6	-93.0	6.8
2025-01-07 11:10:16.663993	19.6	21.7	-92.7	12.4
2025-01-07 11:10:17.815813	19.5	21.8	-92.7	14.8
2025-01-07 11:10:18.964499	19.3	22.0	-92.9	14.5
2025-01-07 11:10:20.109531	19.2	22.1	-92.4	17.5
2025-01-07 11:10:21.263496	19.1	22.3	-92.8	15.2
2025-01-07 11:10:22.413648	19.0	22.4	-92.9	14.1
2025-01-07 11:10:23.569047	18.9	22.6	-93.2	14.2
2025-01-07 11:10:24.723042	18.8	22.7	-93.1	17.2
2025-01-07 11:10:25.878188	18.7	22.9	-92.8	15.4
2025-01-07 11:10:27.026719	18.6	23.0	-92.8	16.9
2025-01-07 11:10:28.171952	18.4	23.2	-92.9	15.9
2025-01-07 11:10:29.318417	18.3	23.4	-92.4	14.3
2025-01-07 11:10:30.466283	18.2	23.5	-93.0	7.2
2025-01-07 11:10:31.619469	18.1	23.7	-92.9	7.3
2025-01-07 11:10:32.771474	18.0	23.8	-93.0	14.6
2025-01-07 11:10:33.921203	17.8	24.0	-93.0	10.1
2025-01-07 11:10:35.075612	17.7	24.1	-92.5	11.7
2025-01-07 11:10:36.224617	17.6	24.3	-92.3	14.4
2025-01-07 11:10:37.369679	17.5	24.5	-93.0	13.1
2025-01-07 11:10:38.518964	17.3	24.6	-93.4	14.2
2025-01-07 11:10:39.674009	17.2	24.8	-93.0	12.2
2025-01-07 11:10:40.830966	17.1	24.9	-93.3	12.4
2025-01-07 11:10:41.980032	16.9	25.1	-92.8	10.4
2025-01-07 11:10:43.134986	16.8	25.3	-92.8	11.4
2025-01-07 11:10:44.289661	16.7	25.4	-92.8	12.6
2025-01-07 11:10:45.433867	16.5	25.6	-93.2	11.2
2025-01-07 11:10:46.593697	16.4	25.8	-92.9	9.8
2025-01-07 11:10:47.740761	16.2	25.9	-92.9	11.3
2025-01-07 11:10:48.888479	16.1	26.1	-93.2	13.0
2025-01-07 11:10:50.043825	16.0	26.3	-92.8	5.2
2025-01-07 11:10:51.198716	15.8	26.4	-92.7	11.3
2025-01-07 11:10:52.347848	15.7	26.6	-92.9	13.3
2025-01-07 11:10:53.475198	15.5	26.8	-93.0	12.2
2025-01-07 11:10:54.627202	15.4	27.0	-93.2	14.5
2025-01-07 11:10:55.793867	15.2	27.1	-93.1	11.5
2025-01-07 11:10:56.950108	15.1	27.3	-92.8	8.3
2025-01-07 11:10:58.104317	14.9	27.5	-92.6	8.8
2025-01-07 11:10:59.255070	14.8	27.7	-91.8	9.0
2025-01-07 11:11:00.395375	14.6	27.8	-92.3	11.8
2025-01-07 11:11:01.540798	14.4	28.0	-92.0	11.0
2025-01-07 11:11:02.698995	14.3	28.2	-92.3	9.5
2025-01-07 11:11:03.846657	14.1	28.4	-92.0	10.4
2025-01-07 11:11:05.001883	13.9	28.6	-92.1	5.8
2025-01-07 11:11:06.147534	13.8	28.7	-92.0	5.9
2025-01-07 11:11:07.301776	13.6	28.9	-91.6	7.8
2025-01-07 11:11:08.446762	13.4	29.1	-92.0	4.7
2025-01-07 11:11:09.599421	13.3	29.3	-92.2	5.1
2025-01-07 11:11:10.751407	13.1	29.5	-92.4	9.9
2025-01-07 11:11:11.905438	12.9	29.7	-92.1	11.3
2025-01-07 11:11:13.055379	12.7	29.8	-91.9	13.7
2025-01-07 11:11:14.208052	12.5	30.0	-91.6	12.7
2025-01-07 11:11:15.360647	12.4	30.2	-92.2	14.3
2025-01-07 11:11:16.506425	12.2	30.4	-92.6	9.7
2025-01-07 11:11:17.656916	12.0	30.6	-92.7	9.2
2025-01-07 11:11:18.803369	11.8	30.8	-93.0	13.6
2025-01-07 11:11:19.951225	11.6	31.0	-93.2	11.6
2025-01-07 11:11:21.106258	11.4	31.2	-92.8	11.5
2025-01-07 11:11:22.263607	11.2	31.4	-92.3	14.4
2025-01-07 11:11:23.416237	11.0	31.6	-93.3	10.7
2025-01-07 11:11:24.562263	10.8	31.8	-92.6	8.1
2025-01-07 11:11:25.708937	10.6	31.9	-93.2	13.4
2025-01-07 11:11:26.859338	10.4	32.1	-93.2	13.5
2025-01-07 11:11:28.008469	10.2	32.3	-93.0	8.2
2025-01-07 11:11:29.155858	10.0	32.5	-92.8	11.8
2025-01-07 11:11:30.303408	9.8	32.7	-93.1	15.1
2025-01-07 11:11:31.457342	9.5	32.9	-92.9	16.4
2025-01-07 11:11:32.603086	9.3	33.1	-92.6	14.9
2025-01-07 11:11:33.749415	9.1	33.3	-92.8	16.7
2025-01-07 11:11:34.901053	8.9	33.5	-93.1	13.6
2025-01-07 11:11:36.047211	8.6	33.7	-92.8	11.9
2025-01-07 11:11:37.209027	8.4	34.0	-92.4	16.1
2025-01-07 11:11:38.358287	8.2	34.2	-92.6	15.0
2025-01-07 11:11:39.511808	7.9	34.4	-90.4	13.1
2025-01-07 11:11:40.666605	7.7	34.6	-92.2	14.3
2025-01-07 11:11:41.818281	7.4	34.8	-91.9	15.5
2025-01-07 11:11:42.968916	7.2	35.0	-91.9	13.9
2025-01-07 11:11:44.119631	6.9	35.2	-91.8	9.8
2025-01-07 11:11:45.278933	6.7	35.4	-91.6	18.4
2025-01-07 11:11:46.436763	6.4	35.6	-92.0	7.9
2025-01-07 11:11:47.586576	6.2	35.8	-92.2	8.9
2025-01-07 11:11:48.736986	5.9	36.0	-92.2	16.0
2025-01-07 11:11:49.898597	5.6	36.3	-92.4	16.8
2025-01-07 11:11:51.046298	5.4	36.5	-91.9	16.0
2025-01-07 11:11:52.196466	5.1	36.7	-91.0	14.0
2025-01-07 11:11:53.341746	4.8	36.9	-91.8	16.8
2025-01-07 11:11:54.491716	4.5	37.1	-92.3	13.4
2025-01-07 11:11:55.645242	4.2	37.3	-91.9	13.3
2025-01-07 11:11:56.795224	3.9	37.6	-92.8	13.4
2025-01-07 11:11:57.944521	3.6	37.8	-92.9	10.6
2025-01-07 11:11:59.100448	3.3	38.0	-92.4	13.2
2025-01-07 11:12:00.248335	3.0	38.2	-92.8	18.8
2025-01-07 11:12:01.396410	2.7	38.4	-92.5	18.9
2025-01-07 11:12:02.543007	2.4	38.6	-92.7	16.9
2025-01-07 11:12:03.693202	2.1	38.9	-93.3	19.1
2025-01-07 11:12:04.846825	1.8	39.1	-93.1	17.5
2025-01-07 11:12:05.996024	1.5	39.3	-93.1	8.4
2025-01-07 11:12:07.148525	1.1	39.5	-92.4	9.6
2025-01-07 11:12:08.300468	0.8	39.7	-92.8	18.6
2025-01-07 11:12:09.452021	0.5	40.0	-93.1	10.3
2025-01-07 11:12:10.608615	0.1	40.2	-93.1	15.2
2025-01-07 11:12:11.758858	359.8	40.4	-92.7	19.7
2025-01-07 11:12:12.910122	359.4	40.6	-92.9	18.2
2025-01-07 11:12:14.064064	359.1	40.9	-92.3	20.6
2025-01-07 11:12:15.214010	358.7	41.1	-91.9	22.1
2025-01-07 11:12:16.368116	358.3	41.3	-92.8	20.9
2025-01-07 11:12:17.519851	358.0	41.5	-93.1	18.1
2025-01-07 11:12:18.675449	357.6	41.7	-93.4	22.9
2025-01-07 11:12:19.830686	357.2	42.0	-92.9	23.6
2025-01-07 11:12:20.984605	356.8	42.2	-92.5	15.1
2025-01-07 11:12:22.139314	356.4	42.4	-92.5	20.0
2025-01-07 11:12:23.292056	356.0	42.6	-92.6	22.6
2025-01-07 11:12:24.448430	355.6	42.8	-92.8	21.5
2025-01-07 11:12:25.600975	355.2	43.1	-93.4	20.2
2025-01-07 11:12:26.754319	354.8	43.3	-93.1	21.2
2025-01-07 11:12:27.907015	354.4	43.5	-92.7	18.1
2025-01-07 11:12:29.068571	353.9	43.7	-92.9	13.5
2025-01-07 11:12:30.219877	353.5	44.0	-92.9	18.3
2025-01-07 11:12:31.376100	353.1	44.2	-93.0	17.3
2025-01-07 11:12:32.536224	352.6	44.4	-92.7	9.0
2025-01-07 11:12:33.691487	352.2	44.6	-93.1	18.8
2025-01-07 11:12:34.839547	351.7	44.8	-93.3	18.8
2025-01-07 11:12:35.989586	351.2	45.0	-92.4	15.5
2025-01-07 11:12:37.142465	350.8	45.2	-92.3	21.2
2025-01-07 11:12:38.295338	350.3	45.5	-92.7	16.9
2025-01-07 11:12:39.447866	349.8	45.7	-93.0	24.5
2025-01-07 11:12:40.601498	349.3	45.9	-93.0	20.5
2025-01-07 11:12:41.749690	348.8	46.1	-92.5	14.7
2025-01-07 11:12:42.895313	348.3	46.3	-92.6	19.4
2025-01-07 11:12:44.047504	347.8	46.5	-92.9	9.0
2025-01-07 11:12:45.204439	347.3	46.7	-92.2	15.8
2025-01-07 11:12:46.356711	346.8	46.9	-93.2	18.3
2025-01-07 11:12:47.519978	346.2	47.1	-93.0	14.6
2025-01-07 11:12:48.671396	345.7	47.3	-92.1	18.2
2025-01-07 11:12:49.829451	345.1	47.5	-92.2	19.1
2025-01-07 11:12:51.004627	344.6	47.7	-91.7	18.7
2025-01-07 11:12:52.165832	344.0	47.9	-91.1	19.0
2025-01-07 11:12:53.310846	343.4	48.1	-91.5	14.9
2025-01-07 11:12:54.470259	342.9	48.3	-92.2	13.9
2025-01-07 11:12:55.619714	342.3	48.5	-92.9	10.0
2025-01-07 11:12:56.778348	341.7	48.7	-93.4	8.1
2025-01-07 11:12:57.933663	341.1	48.8	-92.8	8.2
2025-01-07 11:12:59.083314	340.5	49.0	-92.5	8.1
2025-01-07 11:13:00.236271	339.9	49.2	-91.8	11.7
2025-01-07 11:13:01.377588	339.3	49.4	-93.3	13.2
2025-01-07 11:13:02.533544	338.6	49.5	-92.8	10.6
2025-01-07 11:13:03.684526	338.0	49.7	-92.8	13.8
2025-01-07 11:13:04.840656	337.4	49.9	-91.8	13.8
2025-01-07 11:13:05.985564	336.7	50.0	-92.0	7.0
2025-01-07 11:13:07.144594	336.1	50.2	-91.0	9.2
2025-01-07 11:13:08.290490	335.4	50.3	-91.9	7.1
2025-01-07 11:13:09.439436	334.8	50.5	-91.8	15.8
2025-01-07 11:13:10.592571	334.1	50.6	-92.2	12.7
2025-01-07 11:13:11.752486	333.4	50.8	-93.1	17.5
2025-01-07 11:13:12.903323	332.7	50.9	-93.1	16.0
2025-01-07 11:13:14.049972	332.0	51.1	-92.2	17.8
2025-01-07 11:13:15.202337	331.3	51.2	-92.7	17.2
2025-01-07 11:13:16.350600	330.6	51.3	-93.0	14.5
2025-01-07 11:13:17.500083	329.9	51.4	-92.7	10.0
2025-01-07 11:13:18.654504	329.2	51.6	-93.0	8.4
2025-01-07 11:13:19.808739	328.5	51.7	-93.3	7.0
2025-01-07 11:13:20.965817	327.8	51.8	-92.8	3.2
2025-01-07 11:13:22.119941	327.0	51.9	-92.4	7.1
2025-01-07 11:13:23.268579	326.3	52.0	-92.6	14.1
2025-01-07 11:13:24.415355	325.6	52.1	-92.5	8.2
2025-01-07 11:13:25.565288	324.8	52.2	-93.2	16.7
2025-01-07 11:13:26.718084	324.1	52.3	-93.6	16.6
2025-01-07 11:13:27.867405	323.3	52.3	-93.2	17.1
2025-01-07 11:13:29.014450	322.6	52.4	-93.3	17.6
2025-01-07 11:13:30.165194	321.8	52.5	-93.1	12.7
2025-01-07 11:13:31.323443	321.0	52.6	-93.0	8.0
2025-01-07 11:13:32.474781	320.3	52.6	-92.7	12.8
2025-01-07 11:13:33.621599	319.5	52.7	-93.3	13.2
2025-01-07 11:13:34.769369	318.7	52.7	-93.4	11.2
2025-01-07 11:13:35.923606	318.0	52.8	-92.1	16.0
2025-01-07 11:13:37.073797	317.2	52.8	-92.6	15.8
2025-01-07 11:13:38.226105	316.4	52.8	-92.5	8.7
2025-01-07 11:13:39.379190	315.6	52.9	-93.2	14.2
2025-01-07 11:13:40.527825	314.8	52.9	-92.9	13.8
2025-01-07 11:13:41.679048	314.0	52.9	-93.2	12.6
2025-01-07 11:13:42.833746	313.2	52.9	-92.7	15.6
2025-01-07 11:13:43.989258	312.5	52.9	-93.3	10.0
2025-01-07 11:13:45.139201	311.7	52.9	-92.4	9.7
2025-01-07 11:13:46.292619	310.9	52.9	-93.0	14.5
2025-01-07 11:13:47.440558	310.1	52.9	-93.3	9.4
2025-01-07 11:13:48.594581	309.3	52.9	-93.3	10.2
2025-01-07 11:13:49.741371	308.5	52.9	-93.0	15.5
2025-01-07 11:13:50.893037	307.7	52.8	-92.2	9.8
2025-01-07 11:13:52.039564	307.0	52.8	-92.4	7.9
2025-01-07 11:13:53.190672	306.2	52.8	-92.1	13.4
2025-01-07 11:13:54.344716	305.4	52.7	-92.3	16.7
2025-01-07 11:13:55.493344	304.6	52.7	-93.1	12.3
2025-01-07 11:13:56.643861	303.9	52.6	-93.4	13.4
2025-01-07 11:13:57.792066	303.1	52.6	-92.9	19.5
2025-01-07 11:13:58.941537	302.3	52.5	-93.1	9.6
2025-01-07 11:14:00.090095	301.6	52.4	-92.8	7.7
2025-01-07 11:14:01.226464	300.8	52.4	-92.6	18.3
2025-01-07 11:14:02.377353	300.1	52.3	-93.0	18.1
2025-01-07 11:14:03.527270	299.3	52.2	-93.3	12.6
2025-01-07 11:14:04.678139	298.6	52.1	-93.5	16.6
2025-01-07 11:14:05.825778	297.8	52.0	-93.1	15.7
2025-01-07 11:14:06.981541	297.1	51.9	-92.7	12.6
2025-01-07 11:14:08.131101	296.4	51.8	-92.7	10.0
2025-01-07 11:14:09.275857	295.6	51.7	-92.3	13.0
2025-01-07 11:14:10.426247	294.9	51.6	-92.5	14.0
2025-01-07 11:14:11.576892	294.2	51.5	-92.6	15.6
2025-01-07 11:14:12.728656	293.5	51.3	-92.6	15.2
2025-01-07 11:14:13.875335	292.8	51.2	-92.9	16.1
2025-01-07 11:14:15.024991	292.1	51.1	-93.0	11.2
2025-01-07 11:14:16.174634	291.4	50.9	-92.7	13.6
2025-01-07 11:14:17.323999	290.7	50.8	-92.7	10.5
2025-01-07 11:14:18.472715	290.0	50.7	-93.3	14.0
2025-01-07 11:14:19.622905	289.4	50.5	-93.5	14.0
2025-01-07 11:14:20.774777	288.7	50.4	-92.6	20.2
2025-01-07 11:14:21.924211	288.0	50.2	-91.4	15.8
2025-01-07 11:14:23.071815	287.4	50.1	-92.1	16.3
2025-01-07 11:14:24.224813	286.7	49.9	-91.5	17.3
2025-01-07 11:14:25.370080	286.1	49.7	-92.9	15.3
2025-01-07 11:14:26.519143	285.5	49.6	-92.2	13.0
2025-01-07 11:14:27.679077	284.8	49.4	-90.7	13.1
2025-01-07 11:14:28.833603	284.2	49.2	-91.4	10.0
2025-01-07 11:14:29.985622	283.6	49.0	-92.1	9.2
2025-01-07 11:14:31.135492	283.0	48.9	-91.3	9.7
2025-01-07 11:14:32.285270	282.4	48.7	-92.2	13.5
2025-01-07 11:14:33.435578	281.8	48.5	-92.6	11.7
2025-01-07 11:14:34.586625	281.2	48.3	-92.6	15.2
2025-01-07 11:14:35.734218	280.6	48.1	-92.1	18.4
2025-01-07 11:14:36.881345	280.1	47.9	-92.5	19.0
2025-01-07 11:14:38.038800	279.5	47.7	-92.6	11.1
2025-01-07 11:14:39.190804	279.0	47.5	-92.3	16.4
2025-01-07 11:14:40.341584	278.4	47.3	-92.3	19.9
2025-01-07 11:14:41.495971	277.9	47.1	-92.5	10.4
2025-01-07 11:14:42.648647	277.3	46.9	-92.4	9.4
2025-01-07 11:14:43.800524	276.8	46.7	-92.4	15.2
2025-01-07 11:14:44.950477	276.3	46.5	-92.7	12.5
2025-01-07 11:14:46.096579	275.8	46.3	-91.8	9.2
2025-01-07 11:14:47.245300	275.3	46.1	-92.1	16.7
2025-01-07 11:14:48.397448	274.8	45.9	-92.4	9.5
2025-01-07 11:14:49.549012	274.3	45.7	-92.2	9.3
2025-01-07 11:14:50.696636	273.8	45.5	-91.8	15.4
2025-01-07 11:14:51.843792	273.3	45.3	-91.9	18.0
2025-01-07 11:14:52.996794	272.8	45.1	-90.8	8.1
2025-01-07 11:14:54.146380	272.4	44.8	-90.9	7.9
2025-01-07 11:14:55.297359	271.9	44.6	-91.1	16.7
2025-01-07 11:14:56.444668	271.4	44.4	-90.9	7.7
2025-01-07 11:14:57.591751	271.0	44.2	-91.3	9.0
2025-01-07 11:14:58.746170	270.6	44.0	-91.5	18.2
2025-01-07 11:14:59.892617	270.1	43.8	-91.3	14.9
2025-01-07 11:15:01.033332	269.7	43.5	-91.2	12.5
2025-01-07 11:15:02.182707	269.3	43.3	-91.3	13.8
2025-01-07 11:15:03.333260	268.8	43.1	-91.4	8.4
2025-01-07 11:15:04.476807	268.4	42.9	-91.8	12.4
2025-01-07 11:15:05.624937	268.0	42.7	-92.1	8.6
2025-01-07 11:15:06.771559	267.6	42.4	-91.6	16.2
2025-01-07 11:15:07.928771	267.2	42.2	-91.9	13.1
2025-01-07 11:15:09.075956	266.8	42.0	-91.1	15.6
2025-01-07 11:15:10.231490	266.5	41.8	-91.5	12.4
2025-01-07 11:15:11.384614	266.1	41.5	-90.0	8.3
2025-01-07 11:15:12.533475	265.7	41.3	-91.6	13.9
2025-01-07 11:15:13.684976	265.3	41.1	-91.2	14.4
2025-01-07 11:15:14.838802	265.0	40.9	-91.8	9.2
2025-01-07 11:15:15.986435	264.6	40.6	-91.8	5.0
2025-01-07 11:15:17.137330	264.2	40.4	-91.8	8.6
2025-01-07 11:15:18.289118	263.9	40.2	-91.6	10.4
2025-01-07 11:15:19.435153	263.6	40.0	-91.8	6.1
2025-01-07 11:15:20.585892	263.2	39.8	-92.0	4.3
2025-01-07 11:15:21.743902	262.9	39.5	-92.0	8.7
2025-01-07 11:15:22.889775	262.5	39.3	-92.1	8.5
2025-01-07 11:15:24.034819	262.2	39.1	-91.9	4.0
2025-01-07 11:15:25.180288	261.9	38.9	-92.0	6.6
2025-01-07 11:15:26.331206	261.6	38.6	-92.9	8.8
2025-01-07 11:15:27.484250	261.3	38.4	-93.0	3.9
2025-01-07 11:15:28.643047	261.0	38.2	-92.6	3.9
2025-01-07 11:15:29.795852	260.6	38.0	-93.2	4.9
2025-01-07 11:15:30.948118	260.3	37.8	-92.9	3.9
2025-01-07 11:15:32.101144	260.0	37.5	-92.1	4.5
2025-01-07 11:15:33.252227	259.8	37.3	-92.0	6.9
2025-01-07 11:15:34.410413	259.5	37.1	-93.4	5.6
2025-01-07 11:15:35.558001	259.2	36.9	-93.2	7.2
2025-01-07 11:15:36.708084	258.9	36.7	-93.1	7.5
2025-01-07 11:15:37.854349	258.6	36.5	-93.4	13.2
2025-01-07 11:15:39.001876	258.3	36.2	-93.3	12.1
2025-01-07 11:15:40.154340	258.1	36.0	-93.0	15.5
2025-01-07 11:15:41.311236	257.8	35.8	-92.6	14.3
2025-01-07 11:15:42.466715	257.5	35.6	-92.8	11.8
2025-01-07 11:15:43.616103	257.3	35.4	-93.2	8.4
2025-01-07 11:15:44.769480	257.0	35.2	-93.3	18.7
2025-01-07 11:15:45.916623	256.8	35.0	-93.1	10.9
2025-01-07 11:15:47.062654	256.5	34.8	-92.7	10.6
2025-01-07 11:15:48.218183	256.3	34.6	-92.6	15.0
2025-01-07 11:15:49.363880	256.0	34.3	-92.5	18.0
2025-01-07 11:15:50.523479	255.8	34.1	-93.2	13.6
2025-01-07 11:15:51.679559	255.5	33.9	-93.5	13.4
2025-01-07 11:15:52.831115	255.3	33.7	-92.7	19.7
2025-01-07 11:15:53.980999	255.1	33.5	-93.0	18.1
2025-01-07 11:15:55.129271	254.9	33.3	-92.6	21.1
2025-01-07 11:15:56.281321	254.6	33.1	-92.9	22.3
2025-01-07 11:15:57.428516	254.4	32.9	-93.0	22.8
2025-01-07 11:15:58.576201	254.2	32.7	-92.7	22.6
2025-01-07 11:15:59.729079	254.0	32.5	-92.9	22.5
2025-01-07 11:16:00.875034	253.8	32.3	-93.3	18.1
2025-01-07 11:16:02.028448	253.5	32.1	-92.8	19.4
2025-01-07 11:16:03.185042	253.3	31.9	-92.7	21.3
2025-01-07 11:16:04.329470	253.1	31.7	-91.7	18.9
2025-01-07 11:16:05.477598	252.9	31.5	-92.5	15.3
2025-01-07 11:16:06.628224	252.7	31.3	-92.4	12.5
2025-01-07 11:16:07.768878	252.5	31.1	-92.3	18.7
2025-01-07 11:16:08.915789	252.3	30.9	-92.7	16.8
2025-01-07 11:16:10.046484	252.1	30.7	-91.7	10.5
2025-01-07 11:16:11.167462	251.9	30.5	-92.7	22.1
2025-01-07 11:16:12.288019	251.8	30.4	-92.9	15.8
2025-01-07 11:16:13.408547	251.6	30.2	-93.0	22.3
2025-01-07 11:16:14.529673	251.4	30.0	-92.8	15.8
2025-01-07 11:16:15.650791	251.2	29.8	-92.7	20.8
2025-01-07 11:16:16.771375	251.0	29.6	-93.1	19.3
2025-01-07 11:16:17.893952	250.9	29.4	-92.9	22.2
2025-01-07 11:16:19.027658	250.7	29.3	-92.8	21.9
2025-01-07 11:16:20.180243	250.5	29.1	-92.5	27.4
2025-01-07 11:16:21.326193	250.3	28.9	-92.8	20.2
2025-01-07 11:16:22.484296	250.2	28.7	-93.4	21.3
2025-01-07 11:16:23.632146	250.0	28.5	-92.9	17.5
2025-01-07 11:16:24.778925	249.8	28.3	-93.0	17.1
2025-01-07 11:16:25.929199	249.7	28.2	-93.1	13.7
2025-01-07 11:16:27.074431	249.5	28.0	-92.8	14.9
2025-01-07 11:16:28.223917	249.3	27.8	-93.0	20.5
2025-01-07 11:16:29.377280	249.2	27.6	-91.7	19.2
2025-01-07 11:16:30.526672	249.0	27.4	-93.2	16.4
2025-01-07 11:16:31.678540	248.9	27.3	-93.2	19.7
2025-01-07 11:16:32.826943	248.7	27.1	-93.2	21.0
2025-01-07 11:16:33.979284	248.6	26.9	-92.8	19.5
2025-01-07 11:16:35.127273	248.4	26.7	-93.0	16.1
2025-01-07 11:16:36.277187	248.3	26.6	-92.4	21.4
2025-01-07 11:16:37.424122	248.1	26.4	-93.2	13.6
2025-01-07 11:16:38.574595	248.0	26.2	-93.0	15.3
2025-01-07 11:16:39.725645	247.8	26.1	-92.6	12.0
2025-01-07 11:16:40.877557	247.7	25.9	-92.7	15.8
2025-01-07 11:16:42.036944	247.5	25.7	-92.7	4.4
2025-01-07 11:16:43.184213	247.4	25.5	-93.2	9.9
2025-01-07 11:16:44.335819	247.2	25.4	-93.0	13.0
2025-01-07 11:16:45.490793	247.1	25.2	-93.6	8.6
2025-01-07 11:16:46.647193	247.0	25.0	-92.4	7.3
2025-01-07 11:16:47.806883	246.8	24.9	-92.8	11.5
2025-01-07 11:16:48.953895	246.7	24.7	-93.5	10.1
2025-01-07 11:16:50.104637	246.6	24.5	-93.4	11.1
2025-01-07 11:16:51.259647	246.4	24.4	-93.2	13.3
2025-01-07 11:16:52.410361	246.3	24.2	-92.9	11.3
2025-01-07 11:16:53.558628	246.2	24.1	-93.3	14.4
2025-01-07 11:16:54.713030	246.1	23.9	-93.3	12.4
2025-01-07 11:16:55.865251	245.9	23.7	-93.5	6.2
2025-01-07 11:16:57.027160	245.8	23.6	-93.0	7.6
2025-01-07 11:16:58.171953	245.7	23.4	-93.2	10.3
2025-01-07 11:16:59.322671	245.6	23.3	-92.5	9.9
2025-01-07 11:17:00.463159	245.5	23.1	-93.3	9.5
2025-01-07 11:17:01.588917	245.3	23.0	-93.2	9.9
2025-01-07 11:17:02.732814	245.2	22.8	-93.4	10.9
2025-01-07 11:17:03.887904	245.1	22.7	-92.6	9.9
2025-01-07 11:17:05.045164	245.0	22.5	-92.7	8.1
2025-01-07 11:17:06.190572	244.9	22.4	-93.0	10.2
2025-01-07 11:17:07.336387	244.8	22.2	-93.4	8.8
2025-01-07 11:17:08.493233	244.6	22.1	-92.6	10.0
2025-01-07 11:17:09.637760	244.5	21.9	-93.1	7.8
2025-01-07 11:17:10.794493	244.4	21.8	-93.2	7.1
2025-01-07 11:17:11.938694	244.3	21.6	-93.2	5.3
2025-01-07 11:17:13.092699	244.2	21.5	-92.7	7.3
2025-01-07 11:17:14.243296	244.1	21.3	-92.7	5.6
2025-01-07 11:17:15.397885	244.0	21.2	-92.6	7.9
2025-01-07 11:17:16.557492	243.9	21.0	-92.1	6.3
2025-01-07 11:17:17.712356	243.8	20.9	-92.4	5.7
2025-01-07 11:17:18.863641	243.7	20.7	-92.8	9.6
2025-01-07 11:17:20.012554	243.6	20.6	-93.0	6.8
2025-01-07 11:17:21.165818	243.5	20.4	-92.3	5.5
2025-01-07 11:17:22.320741	243.4	20.3	-92.0	4.8
2025-01-07 11:17:23.473282	243.3	20.2	-91.6	9.8
2025-01-07 11:17:24.625105	243.2	20.0	-92.1	9.7
2025-01-07 11:17:25.773016	243.1	19.9	-92.0	11.0
2025-01-07 11:17:26.920417	243.0	19.7	-92.1	7.0
2025-01-07 11:17:28.069356	242.9	19.6	-91.6	8.0
2025-01-07 11:17:29.216926	242.8	19.5	-92.9	14.1
2025-01-07 11:17:30.366738	242.7	19.3	-93.0	14.3
2025-01-07 11:17:31.529397	242.6	19.2	-93.3	10.7
2025-01-07 11:17:32.680237	242.5	19.1	-93.3	15.2
2025-01-07 11:17:33.832444	242.4	18.9	-92.8	16.5
2025-01-07 11:17:34.974999	242.3	18.8	-92.9	14.0
2025-01-07 11:17:36.127725	242.3	18.7	-92.9	15.3
2025-01-07 11:17:37.273567	242.2	18.5	-92.1	15.7
2025-01-07 11:17:38.399909	242.1	18.4	-93.1	14.4
2025-01-07 11:17:39.521482	242.0	18.3	-93.0	12.4
2025-01-07 11:17:40.641301	241.9	18.1	-93.1	9.5
2025-01-07 11:17:41.762748	241.8	18.0	-93.2	11.9
2025-01-07 11:17:42.883772	241.8	17.9	-93.4	9.6
2025-01-07 11:17:44.004858	241.7	17.8	-93.3	6.1
2025-01-07 11:17:45.124298	241.6	17.6	-91.9	6.8
2025-01-07 11:17:46.244950	241.5	17.5	-92.6	3.4
2025-01-07 11:17:47.381186	241.4	17.4	-93.3	7.9
2025-01-07 11:17:48.527877	241.3	17.3	-93.2	5.0
2025-01-07 11:17:49.668690	241.3	17.1	-92.8	7.3
2025-01-07 11:17:50.814109	241.2	17.0	-93.3	9.1
2025-01-07 11:17:51.962419	241.1	16.9	-93.4	6.9
2025-01-07 11:17:53.120132	241.0	16.8	-92.4	9.5
2025-01-07 11:17:54.269980	241.0	16.6	-92.6	9.4
2025-01-07 11:17:55.422707	240.9	16.5	-92.8	8.4
2025-01-07 11:17:56.568823	240.8	16.4	-93.2	10.6
2025-01-07 11:17:57.717540	240.7	16.3	-93.1	13.3
2025-01-07 11:17:58.873996	240.7	16.1	-92.9	12.9
2025-01-07 11:18:00.027800	240.6	16.0	-92.9	10.0
2025-01-07 11:18:01.164479	240.5	15.9	-92.0	11.6
2025-01-07 11:18:02.313913	240.4	15.8	-92.4	11.4
2025-01-07 11:18:03.464310	240.4	15.7	-92.8	10.3
2025-01-07 11:18:04.614871	240.3	15.5	-93.1	12.7
2025-01-07 11:18:05.768560	240.2	15.4	-92.7	13.4
2025-01-07 11:18:06.915294	240.1	15.3	-93.0	10.7
2025-01-07 11:18:08.073501	240.1	15.2	-92.9	8.2
2025-01-07 11:18:09.227163	240.0	15.1	-92.2	10.0
2025-01-07 11:18:10.381154	239.9	14.9	-93.0	8.8
2025-01-07 11:18:11.528700	239.9	14.8	-93.1	6.1
2025-01-07 11:18:12.674526	239.8	14.7	-93.4	7.7
2025-01-07 11:18:13.823852	239.7	14.6	-92.9	7.9
2025-01-07 11:18:14.964464	239.7	14.5	-93.1	5.8
#Closed at: 2025-01-07 11:09:22.283357