passes_logs/2025/01/07/LEX_Murmansk/LEX_Murmansk__20250107_174802_NOAA_18_rec.log

#Pass ID: 20250107_174802_NOAA 18
#Satellite: NOAA 18
#Configuration: NOAA 18
#Start time: 2025-01-07 17:47:57.422422

#LorettStation: 1.0.0 05.05.2024
#Station: LEX_Murmansk
#Location: 33.156738 lon 68.926811 lat
#TLE: 1 28654U 05018A   25006.88073240  .00000470  00000+0  27325-3 0  9996
#TLE: 2 28654  98.8580  88.0152 0013976 202.1444 157.9126 14.13479687 11959

#Time	Az	El	Level	SNR
2025-01-07 17:48:17.627212	119.3	17.1	-92.0	13.1
2025-01-07 17:48:18.776048	119.2	17.2	-92.0	11.3
2025-01-07 17:48:19.933895	119.1	17.4	-92.0	10.5
2025-01-07 17:48:21.093900	119.1	17.5	-89.4	4.1
2025-01-07 17:48:22.243444	119.0	17.6	-91.5	10.1
2025-01-07 17:48:23.404382	118.9	17.7	-92.0	12.7
2025-01-07 17:48:24.558879	118.8	17.9	-92.5	7.1
2025-01-07 17:48:25.715671	118.7	18.0	-92.4	17.2
2025-01-07 17:48:26.864787	118.7	18.1	-91.9	11.5
2025-01-07 17:48:28.018520	118.6	18.3	-91.5	12.1
2025-01-07 17:48:29.182137	118.5	18.4	-91.7	12.1
2025-01-07 17:48:30.331457	118.4	18.5	-91.6	11.6
2025-01-07 17:48:31.480955	118.3	18.7	-92.5	8.2
2025-01-07 17:48:32.628365	118.2	18.8	-92.0	14.7
2025-01-07 17:48:33.763934	118.1	18.9	-92.6	10.9
2025-01-07 17:48:34.885024	118.1	19.1	-92.7	13.8
2025-01-07 17:48:36.005635	118.0	19.2	-92.5	8.2
2025-01-07 17:48:37.127370	117.9	19.3	-91.8	6.4
2025-01-07 17:48:38.247468	117.8	19.5	-92.0	8.9
2025-01-07 17:48:39.368365	117.7	19.6	-92.0	13.7
2025-01-07 17:48:40.488976	117.6	19.7	-92.7	8.6
2025-01-07 17:48:41.614420	117.5	19.9	-92.2	11.0
2025-01-07 17:48:42.747712	117.4	20.0	-92.1	11.6
2025-01-07 17:48:43.897620	117.3	20.1	-92.5	10.7
2025-01-07 17:48:45.046940	117.2	20.3	-92.1	12.7
2025-01-07 17:48:46.199846	117.1	20.4	-91.5	12.0
2025-01-07 17:48:47.351385	117.0	20.5	-92.1	13.6
2025-01-07 17:48:48.509184	116.9	20.7	-92.4	13.2
2025-01-07 17:48:49.660788	116.9	20.8	-92.4	13.6
2025-01-07 17:48:50.815215	116.8	21.0	-92.3	11.2
2025-01-07 17:48:51.972470	116.6	21.1	-92.2	12.3
2025-01-07 17:48:53.130241	116.5	21.3	-91.9	7.0
2025-01-07 17:48:54.282834	116.4	21.4	-90.7	11.1
2025-01-07 17:48:55.445926	116.3	21.6	-92.5	7.5
2025-01-07 17:48:56.598592	116.2	21.7	-92.6	8.3
2025-01-07 17:48:57.756282	116.1	21.9	-92.8	13.1
2025-01-07 17:48:58.920383	116.0	22.0	-92.6	11.8
2025-01-07 17:49:00.098102	115.9	22.2	-92.1	12.4
2025-01-07 17:49:01.241432	115.8	22.3	-92.0	10.3
2025-01-07 17:49:02.406937	115.7	22.5	-92.4	7.2
2025-01-07 17:49:03.562556	115.6	22.6	-92.7	7.5
2025-01-07 17:49:04.716619	115.5	22.8	-92.8	11.7
2025-01-07 17:49:05.880132	115.3	22.9	-92.0	7.1
2025-01-07 17:49:07.030244	115.2	23.1	-92.6	13.4
2025-01-07 17:49:08.190143	115.1	23.2	-91.9	12.4
2025-01-07 17:49:09.348001	115.0	23.4	-92.2	9.0
2025-01-07 17:49:10.501308	114.9	23.5	-91.7	6.3
2025-01-07 17:49:11.659060	114.8	23.7	-92.0	6.4
2025-01-07 17:49:12.815516	114.6	23.9	-93.0	7.2
2025-01-07 17:49:13.968851	114.5	24.0	-92.8	3.7
2025-01-07 17:49:15.127220	114.4	24.2	-92.0	5.7
2025-01-07 17:49:16.273732	114.3	24.3	-92.0	6.0
2025-01-07 17:49:17.414235	114.1	24.5	-92.7	7.1
2025-01-07 17:49:18.568377	114.0	24.7	-92.6	8.8
2025-01-07 17:49:19.725909	113.9	24.8	-92.7	11.5
2025-01-07 17:49:20.880969	113.8	25.0	-92.8	10.2
2025-01-07 17:49:22.040177	113.6	25.1	-92.5	8.5
2025-01-07 17:49:23.182720	113.5	25.3	-92.5	5.6
2025-01-07 17:49:24.344148	113.4	25.5	-92.6	4.7
2025-01-07 17:49:25.494787	113.2	25.6	-93.2	5.2
2025-01-07 17:49:26.650618	113.1	25.8	-92.5	2.5
2025-01-07 17:49:27.809873	112.9	26.0	-92.8	6.1
2025-01-07 17:49:28.976189	112.8	26.2	-92.9	4.3
2025-01-07 17:49:30.137460	112.7	26.3	-92.0	4.7
2025-01-07 17:49:31.300341	112.5	26.5	-92.4	7.5
2025-01-07 17:49:32.457393	112.4	26.7	-93.2	5.7
2025-01-07 17:49:33.608526	112.2	26.8	-93.1	9.5
2025-01-07 17:49:34.763077	112.1	27.0	-93.0	12.7
2025-01-07 17:49:35.924790	111.9	27.2	-93.1	10.2
2025-01-07 17:49:37.071642	111.8	27.4	-92.1	13.6
2025-01-07 17:49:38.228146	111.6	27.5	-92.2	9.7
2025-01-07 17:49:39.382800	111.5	27.7	-92.6	14.8
2025-01-07 17:49:40.524738	111.3	27.9	-93.0	11.5
2025-01-07 17:49:41.664432	111.1	28.1	-92.7	9.8
2025-01-07 17:49:42.785082	111.0	28.3	-92.8	6.0
2025-01-07 17:49:43.907002	110.8	28.4	-92.9	9.8
2025-01-07 17:49:45.026799	110.7	28.6	-92.7	7.1
2025-01-07 17:49:46.148723	110.5	28.8	-92.0	7.1
2025-01-07 17:49:47.270435	110.3	29.0	-92.1	7.7
2025-01-07 17:49:48.391192	110.2	29.1	-92.3	8.5
2025-01-07 17:49:49.517383	110.0	29.3	-92.7	5.5
2025-01-07 17:49:50.638224	109.8	29.5	-92.6	17.9
2025-01-07 17:49:51.759153	109.7	29.7	-92.5	10.2
2025-01-07 17:49:52.891592	109.5	29.9	-93.0	12.2
2025-01-07 17:49:54.020461	109.3	30.1	-92.9	14.7
2025-01-07 17:49:55.169757	109.1	30.2	-92.3	14.4
2025-01-07 17:49:56.321397	109.0	30.4	-92.2	9.0
2025-01-07 17:49:57.466832	108.8	30.6	-92.7	8.4
2025-01-07 17:49:58.617864	108.6	30.8	-92.6	13.2
2025-01-07 17:49:59.767731	108.4	31.0	-93.2	13.2
2025-01-07 17:50:00.913559	108.2	31.2	-92.5	18.1
2025-01-07 17:50:02.075078	108.0	31.4	-90.9	13.2
2025-01-07 17:50:03.225642	107.8	31.6	-91.4	9.3
2025-01-07 17:50:04.371291	107.6	31.8	-91.2	11.6
2025-01-07 17:50:05.521424	107.4	32.0	-91.5	4.7
2025-01-07 17:50:06.650109	107.2	32.2	-92.9	8.9
2025-01-07 17:50:07.801014	107.0	32.4	-93.0	10.5
2025-01-07 17:50:08.942898	106.8	32.6	-92.8	15.5
2025-01-07 17:50:10.090768	106.6	32.8	-92.5	13.1
2025-01-07 17:50:11.248630	106.4	33.0	-92.5	8.8
2025-01-07 17:50:12.409278	106.1	33.2	-93.0	12.8
2025-01-07 17:50:13.567290	105.9	33.4	-93.1	11.8
2025-01-07 17:50:14.727644	105.7	33.6	-93.1	12.9
2025-01-07 17:50:15.879719	105.5	33.8	-92.9	12.9
2025-01-07 17:50:17.034854	105.2	34.0	-93.0	13.5
2025-01-07 17:50:18.189111	105.0	34.2	-92.0	15.1
2025-01-07 17:50:19.343856	104.8	34.4	-91.8	13.4
2025-01-07 17:50:20.498590	104.5	34.6	-92.8	14.4
2025-01-07 17:50:21.655544	104.3	34.8	-93.0	7.5
2025-01-07 17:50:22.806153	104.0	35.1	-92.9	21.7
2025-01-07 17:50:23.946994	103.8	35.3	-92.6	5.2
2025-01-07 17:50:25.072310	103.5	35.5	-92.3	6.7
2025-01-07 17:50:26.218821	103.3	35.7	-92.5	14.4
2025-01-07 17:50:27.364754	103.0	35.9	-92.6	15.3
2025-01-07 17:50:28.514734	102.8	36.1	-92.5	10.3
2025-01-07 17:50:29.662272	102.5	36.3	-93.0	13.1
2025-01-07 17:50:30.814506	102.2	36.5	-92.8	17.8
2025-01-07 17:50:31.961197	102.0	36.8	-92.9	13.1
2025-01-07 17:50:33.116309	101.7	37.0	-92.7	10.3
2025-01-07 17:50:34.257140	101.4	37.2	-92.2	13.0
2025-01-07 17:50:35.412094	101.1	37.4	-93.2	8.6
2025-01-07 17:50:36.569639	100.8	37.6	-93.1	7.4
2025-01-07 17:50:37.698104	100.6	37.8	-92.9	14.1
2025-01-07 17:50:38.838737	100.3	38.1	-93.2	9.4
2025-01-07 17:50:39.988253	100.0	38.3	-92.9	13.6
2025-01-07 17:50:41.123234	99.7	38.5	-92.5	10.8
2025-01-07 17:50:42.245562	99.4	38.7	-92.7	13.5
2025-01-07 17:50:43.387359	99.1	38.9	-92.3	18.7
2025-01-07 17:50:44.525515	98.8	39.2	-92.9	10.3
2025-01-07 17:50:45.677265	98.4	39.4	-93.0	13.5
2025-01-07 17:50:46.824849	98.1	39.6	-92.7	17.4
2025-01-07 17:50:47.971938	97.8	39.8	-92.9	9.5
2025-01-07 17:50:49.121621	97.5	40.0	-92.4	8.8
2025-01-07 17:50:50.276415	97.1	40.3	-92.6	15.0
2025-01-07 17:50:51.429670	96.8	40.5	-93.1	11.3
2025-01-07 17:50:52.585247	96.4	40.7	-92.7	15.1
2025-01-07 17:50:53.747922	96.1	40.9	-92.4	12.8
2025-01-07 17:50:54.896617	95.7	41.2	-92.7	14.1
2025-01-07 17:50:56.046506	95.3	41.4	-92.6	8.3
2025-01-07 17:50:57.185828	95.0	41.6	-92.3	8.9
2025-01-07 17:50:58.311603	94.6	41.8	-92.8	5.8
2025-01-07 17:50:59.459370	94.2	42.1	-92.9	4.0
2025-01-07 17:51:00.594115	93.9	42.3	-93.1	7.3
2025-01-07 17:51:01.733580	93.5	42.5	-92.7	8.0
2025-01-07 17:51:02.879141	93.1	42.7	-93.0	9.1
2025-01-07 17:51:04.018108	92.7	42.9	-92.9	13.9
2025-01-07 17:51:05.174416	92.3	43.2	-92.1	14.0
2025-01-07 17:51:06.328432	91.9	43.4	-90.8	14.6
2025-01-07 17:51:07.479421	91.5	43.6	-91.2	10.2
2025-01-07 17:51:08.635103	91.0	43.8	-91.4	8.9
2025-01-07 17:51:09.787493	90.6	44.1	-91.7	18.3
2025-01-07 17:51:10.938919	90.2	44.3	-92.4	9.0
2025-01-07 17:51:12.086297	89.7	44.5	-92.3	9.9
2025-01-07 17:51:13.241893	89.3	44.7	-92.4	11.2
2025-01-07 17:51:14.394935	88.8	44.9	-92.8	7.9
2025-01-07 17:51:15.533068	88.4	45.2	-92.6	7.6
2025-01-07 17:51:16.667834	87.9	45.4	-93.1	11.8
2025-01-07 17:51:17.810411	87.5	45.6	-93.0	12.6
2025-01-07 17:51:18.965554	87.0	45.8	-93.0	7.1
2025-01-07 17:51:20.106108	86.5	46.0	-92.4	10.5
2025-01-07 17:51:21.260406	86.0	46.2	-92.4	14.3
2025-01-07 17:51:22.405289	85.5	46.4	-92.7	11.3
2025-01-07 17:51:23.555716	85.0	46.7	-93.2	10.9
2025-01-07 17:51:24.712524	84.5	46.9	-93.2	12.7
2025-01-07 17:51:25.861349	84.0	47.1	-93.1	13.8
2025-01-07 17:51:27.017266	83.4	47.3	-92.9	8.8
2025-01-07 17:51:28.148242	82.9	47.5	-92.3	9.5
2025-01-07 17:51:29.279925	82.4	47.7	-92.4	12.5
2025-01-07 17:51:30.436004	81.8	47.9	-93.0	10.9
2025-01-07 17:51:31.582476	81.3	48.1	-93.0	10.6
2025-01-07 17:51:32.733794	80.7	48.3	-92.8	15.4
2025-01-07 17:51:33.884327	80.2	48.5	-90.3	10.3
2025-01-07 17:51:35.043086	79.6	48.7	-92.2	3.5
2025-01-07 17:51:36.172056	79.0	48.8	-92.1	6.2
2025-01-07 17:51:37.307994	78.4	49.0	-91.4	4.9
2025-01-07 17:51:38.456787	77.8	49.2	-92.1	4.3
2025-01-07 17:51:39.599657	77.2	49.4	-92.8	5.9
2025-01-07 17:51:40.775532	76.6	49.6	-93.1	11.9
2025-01-07 17:51:41.926834	76.0	49.8	-92.4	8.2
2025-01-07 17:51:43.078453	75.4	49.9	-92.1	7.7
2025-01-07 17:51:44.236509	74.7	50.1	-92.0	7.6
2025-01-07 17:51:45.382849	74.1	50.3	-92.5	10.1
2025-01-07 17:51:46.527454	73.5	50.4	-92.7	7.1
2025-01-07 17:51:47.654678	72.8	50.6	-92.9	8.7
2025-01-07 17:51:48.806305	72.2	50.7	-92.8	13.6
2025-01-07 17:51:49.944414	71.5	50.9	-93.2	11.8
2025-01-07 17:51:51.097491	70.8	51.0	-92.4	9.3
2025-01-07 17:51:52.241748	70.1	51.2	-92.3	4.0
2025-01-07 17:51:53.399243	69.5	51.3	-92.4	10.4
2025-01-07 17:51:54.553654	68.8	51.5	-92.7	10.3
2025-01-07 17:51:55.704046	68.1	51.6	-93.1	12.9
2025-01-07 17:51:56.849254	67.4	51.7	-93.1	11.1
2025-01-07 17:51:57.978334	66.7	51.9	-93.2	8.4
2025-01-07 17:51:59.125123	65.9	52.0	-92.4	11.6
2025-01-07 17:52:00.265469	65.2	52.1	-92.5	10.7
2025-01-07 17:52:01.415961	64.5	52.2	-93.0	9.1
2025-01-07 17:52:02.559527	63.8	52.3	-92.9	10.2
2025-01-07 17:52:03.712360	63.0	52.4	-92.7	14.5
2025-01-07 17:52:04.865802	62.3	52.5	-92.8	14.9
2025-01-07 17:52:06.013535	61.5	52.6	-92.8	10.4
2025-01-07 17:52:07.156049	60.8	52.7	-92.2	9.7
2025-01-07 17:52:08.291432	60.0	52.8	-92.5	13.2
2025-01-07 17:52:09.435835	59.3	52.9	-92.5	13.6
2025-01-07 17:52:10.588370	58.5	52.9	-92.9	12.7
2025-01-07 17:52:11.734260	57.7	53.0	-93.1	16.3
2025-01-07 17:52:12.878920	57.0	53.1	-92.8	14.1
2025-01-07 17:52:14.031716	56.2	53.1	-93.0	14.5
2025-01-07 17:52:15.181580	55.4	53.2	-92.3	15.7
2025-01-07 17:52:16.337008	54.6	53.2	-92.5	16.8
2025-01-07 17:52:17.480946	53.8	53.3	-92.4	8.9
2025-01-07 17:52:18.609227	53.1	53.3	-93.1	8.5
2025-01-07 17:52:19.753483	52.3	53.3	-92.7	19.3
2025-01-07 17:52:20.894614	51.5	53.4	-93.2	16.0
2025-01-07 17:52:22.042490	50.7	53.4	-92.5	11.6
2025-01-07 17:52:23.186990	49.9	53.4	-92.4	14.7
2025-01-07 17:52:24.342194	49.1	53.4	-91.7	13.4
2025-01-07 17:52:25.488797	48.3	53.4	-92.5	7.9
2025-01-07 17:52:26.640594	47.5	53.4	-92.1	10.7
2025-01-07 17:52:27.791277	46.7	53.4	-92.7	14.7
2025-01-07 17:52:28.938298	45.9	53.4	-93.0	11.2
2025-01-07 17:52:30.079123	45.2	53.4	-92.5	9.5
2025-01-07 17:52:31.206752	44.4	53.3	-92.3	19.7
2025-01-07 17:52:32.348008	43.6	53.3	-92.5	15.3
2025-01-07 17:52:33.482293	42.8	53.3	-93.1	11.4
2025-01-07 17:52:34.632792	42.0	53.2	-92.5	11.1
2025-01-07 17:52:35.783147	41.2	53.2	-92.6	17.1
2025-01-07 17:52:36.930897	40.5	53.1	-93.0	11.7
2025-01-07 17:52:38.083526	39.7	53.1	-92.5	13.1
2025-01-07 17:52:39.238553	38.9	53.0	-91.8	20.4
2025-01-07 17:52:40.395919	38.1	53.0	-92.7	16.0
2025-01-07 17:52:41.548739	37.4	52.9	-92.7	15.4
2025-01-07 17:52:42.705793	36.6	52.8	-90.8	15.2
2025-01-07 17:52:43.869450	35.8	52.7	-91.7	14.3
2025-01-07 17:52:45.023924	35.1	52.6	-91.4	12.8
2025-01-07 17:52:46.174792	34.3	52.5	-92.2	9.2
2025-01-07 17:52:47.333588	33.6	52.4	-92.3	15.1
2025-01-07 17:52:48.500725	32.8	52.3	-92.4	15.1
2025-01-07 17:52:49.649397	32.1	52.2	-92.9	11.4
2025-01-07 17:52:50.799838	31.4	52.1	-93.0	12.3
2025-01-07 17:52:51.957263	30.6	52.0	-92.9	19.7
2025-01-07 17:52:53.111123	29.9	51.9	-92.6	14.7
2025-01-07 17:52:54.274717	29.2	51.7	-92.5	9.7
2025-01-07 17:52:55.431757	28.5	51.6	-92.8	12.8
2025-01-07 17:52:56.585376	27.8	51.5	-93.0	13.3
2025-01-07 17:52:57.741196	27.1	51.3	-92.9	11.2
2025-01-07 17:52:58.901309	26.4	51.2	-92.7	13.7
2025-01-07 17:53:00.048656	25.7	51.0	-92.1	15.6
2025-01-07 17:53:01.188649	25.0	50.9	-92.5	11.1
2025-01-07 17:53:02.337333	24.4	50.7	-92.4	17.3
2025-01-07 17:53:03.463574	23.7	50.6	-93.2	16.8
2025-01-07 17:53:04.612029	23.1	50.4	-92.7	20.1
2025-01-07 17:53:05.749544	22.4	50.3	-92.9	17.9
2025-01-07 17:53:06.902192	21.8	50.1	-92.8	22.0
2025-01-07 17:53:08.045743	21.2	49.9	-92.7	19.9
2025-01-07 17:53:09.191774	20.6	49.8	-92.8	13.8
2025-01-07 17:53:10.342330	19.9	49.6	-92.4	19.2
2025-01-07 17:53:11.498216	19.3	49.4	-92.5	20.6
2025-01-07 17:53:12.652116	18.7	49.2	-92.8	19.0
2025-01-07 17:53:13.788548	18.1	49.0	-93.1	13.5
2025-01-07 17:53:14.925412	17.5	48.8	-92.9	20.1
2025-01-07 17:53:16.069634	17.0	48.7	-92.6	20.9
2025-01-07 17:53:17.206124	16.4	48.5	-92.4	20.3
2025-01-07 17:53:18.352624	15.8	48.3	-92.5	17.0
2025-01-07 17:53:19.496838	15.3	48.1	-92.7	16.4
2025-01-07 17:53:20.643683	14.7	47.9	-93.0	17.4
2025-01-07 17:53:21.804112	14.2	47.7	-93.0	16.9
2025-01-07 17:53:22.949221	13.6	47.5	-93.1	18.5
2025-01-07 17:53:24.094181	13.1	47.3	-92.1	14.4
2025-01-07 17:53:25.218460	12.6	47.1	-92.0	15.3
2025-01-07 17:53:26.366125	12.1	46.9	-92.3	16.5
2025-01-07 17:53:27.506423	11.6	46.7	-93.1	11.7
2025-01-07 17:53:28.654910	11.1	46.4	-92.7	14.2
2025-01-07 17:53:29.808771	10.6	46.2	-92.9	19.6
2025-01-07 17:53:30.967230	10.1	46.0	-92.6	13.3
2025-01-07 17:53:32.114045	9.6	45.8	-92.6	14.0
2025-01-07 17:53:33.272391	9.1	45.6	-92.3	21.2
2025-01-07 17:53:34.420192	8.6	45.4	-93.1	15.4
2025-01-07 17:53:35.570132	8.2	45.2	-92.7	16.1
2025-01-07 17:53:36.716045	7.7	44.9	-93.0	18.4
2025-01-07 17:53:37.846170	7.3	44.7	-92.8	21.2
2025-01-07 17:53:38.991211	6.8	44.5	-92.8	14.0
2025-01-07 17:53:40.135942	6.4	44.3	-92.0	14.9
2025-01-07 17:53:41.282166	6.0	44.1	-92.2	19.9
2025-01-07 17:53:42.431490	5.5	43.8	-92.9	16.0
2025-01-07 17:53:43.586817	5.1	43.6	-93.2	15.2
2025-01-07 17:53:44.742638	4.7	43.4	-93.1	18.7
2025-01-07 17:53:45.894784	4.3	43.2	-92.7	14.5
2025-01-07 17:53:47.048350	3.9	42.9	-92.2	15.9
2025-01-07 17:53:48.195640	3.5	42.7	-92.3	15.9
2025-01-07 17:53:49.346193	3.1	42.5	-92.3	21.7
2025-01-07 17:53:50.491783	2.7	42.3	-92.9	16.1
2025-01-07 17:53:51.618095	2.3	42.1	-92.9	18.8
2025-01-07 17:53:52.763439	1.9	41.8	-92.6	21.5
2025-01-07 17:53:53.909400	1.6	41.6	-91.0	19.7
2025-01-07 17:53:55.061177	1.2	41.4	-91.1	20.5
2025-01-07 17:53:56.206966	0.9	41.2	-90.6	18.3
2025-01-07 17:53:57.352826	0.5	40.9	-90.5	16.7
2025-01-07 17:53:58.502163	0.1	40.7	-92.9	18.4
2025-01-07 17:53:59.662678	359.8	40.5	-92.9	17.9
2025-01-07 17:54:00.808891	359.5	40.3	-93.3	22.4
2025-01-07 17:54:01.963375	359.1	40.0	-92.6	18.3
2025-01-07 17:54:03.124006	358.8	39.8	-91.9	19.3
2025-01-07 17:54:04.282932	358.4	39.6	-92.3	18.1
2025-01-07 17:54:05.438945	358.1	39.4	-92.8	17.4
2025-01-07 17:54:06.603317	357.8	39.1	-92.8	17.4
2025-01-07 17:54:07.759081	357.5	38.9	-92.7	22.6
2025-01-07 17:54:08.915584	357.2	38.7	-93.0	15.8
2025-01-07 17:54:10.058489	356.9	38.5	-92.6	13.3
2025-01-07 17:54:11.184118	356.6	38.3	-92.5	17.7
2025-01-07 17:54:12.337084	356.3	38.0	-92.6	21.7
2025-01-07 17:54:13.482980	356.0	37.8	-92.6	10.5
2025-01-07 17:54:14.641532	355.7	37.6	-92.8	11.7
2025-01-07 17:54:15.790081	355.4	37.4	-92.7	21.8
2025-01-07 17:54:16.944517	355.1	37.2	-92.8	12.1
2025-01-07 17:54:18.096525	354.8	36.9	-92.5	9.0
2025-01-07 17:54:19.252793	354.6	36.7	-92.5	14.1
2025-01-07 17:54:20.409799	354.3	36.5	-92.8	15.5
2025-01-07 17:54:21.567779	354.0	36.3	-92.8	12.7
2025-01-07 17:54:22.716788	353.8	36.1	-93.1	14.9
2025-01-07 17:54:23.873228	353.5	35.9	-92.8	16.5
2025-01-07 17:54:25.033574	353.2	35.7	-92.2	14.9
2025-01-07 17:54:26.192115	353.0	35.4	-92.0	17.9
2025-01-07 17:54:27.348011	352.7	35.2	-92.2	15.0
2025-01-07 17:54:28.507689	352.5	35.0	-92.7	14.0
2025-01-07 17:54:29.665284	352.2	34.8	-92.5	16.2
2025-01-07 17:54:30.816724	352.0	34.6	-92.7	19.6
2025-01-07 17:54:31.977825	351.8	34.4	-92.5	10.6
2025-01-07 17:54:33.137992	351.5	34.2	-92.0	12.2
2025-01-07 17:54:34.292035	351.3	34.0	-92.4	16.7
2025-01-07 17:54:35.447575	351.1	33.8	-92.6	11.2
2025-01-07 17:54:36.599738	350.8	33.6	-93.2	10.2
2025-01-07 17:54:37.755711	350.6	33.3	-93.1	16.7
2025-01-07 17:54:38.903262	350.4	33.1	-92.4	10.6
2025-01-07 17:54:40.057521	350.2	32.9	-92.3	12.1
2025-01-07 17:54:41.207619	350.0	32.7	-92.3	8.4
2025-01-07 17:54:42.358110	349.7	32.5	-91.9	9.8
2025-01-07 17:54:43.507863	349.5	32.3	-92.6	13.9
2025-01-07 17:54:44.645043	349.3	32.1	-92.8	14.4
2025-01-07 17:54:45.765208	349.1	31.9	-92.8	14.0
2025-01-07 17:54:46.886689	348.9	31.8	-92.9	14.7
2025-01-07 17:54:48.007295	348.7	31.6	-93.0	12.8
2025-01-07 17:54:49.127838	348.5	31.4	-92.4	12.7
2025-01-07 17:54:50.248479	348.4	31.2	-92.4	11.8
2025-01-07 17:54:51.368724	348.2	31.0	-91.7	13.3
2025-01-07 17:54:52.492668	348.0	30.8	-92.9	8.9
2025-01-07 17:54:53.614633	347.8	30.6	-92.9	8.5
2025-01-07 17:54:54.768965	347.6	30.4	-93.2	11.3
2025-01-07 17:54:55.917832	347.4	30.2	-92.8	12.5
2025-01-07 17:54:57.068581	347.2	30.0	-92.3	10.1
2025-01-07 17:54:58.217975	347.1	29.9	-91.1	10.3
2025-01-07 17:54:59.376658	346.9	29.7	-91.2	10.6
2025-01-07 17:55:00.522127	346.7	29.5	-92.0	11.1
2025-01-07 17:55:01.674950	346.5	29.3	-91.6	18.7
2025-01-07 17:55:02.833668	346.4	29.1	-92.5	15.8
2025-01-07 17:55:03.985555	346.2	28.9	-92.8	13.7
2025-01-07 17:55:05.136393	346.0	28.7	-92.0	13.3
2025-01-07 17:55:06.287610	345.9	28.6	-92.6	10.8
2025-01-07 17:55:07.446587	345.7	28.4	-92.7	13.9
2025-01-07 17:55:08.596362	345.5	28.2	-93.1	9.4
2025-01-07 17:55:09.748134	345.4	28.0	-92.6	17.2
2025-01-07 17:55:10.908014	345.2	27.8	-92.9	11.5
2025-01-07 17:55:12.064188	345.1	27.7	-92.8	10.2
2025-01-07 17:55:13.220107	344.9	27.5	-92.2	19.7
2025-01-07 17:55:14.372676	344.8	27.3	-92.6	16.2
2025-01-07 17:55:15.528342	344.6	27.1	-92.9	15.0
2025-01-07 17:55:16.683421	344.5	27.0	-93.0	13.3
2025-01-07 17:55:17.835627	344.3	26.8	-92.8	20.8
2025-01-07 17:55:18.989925	344.2	26.6	-93.0	16.6
2025-01-07 17:55:20.141845	344.0	26.4	-92.6	13.9
2025-01-07 17:55:21.293726	343.9	26.3	-92.1	11.3
2025-01-07 17:55:22.441908	343.7	26.1	-92.9	12.0
2025-01-07 17:55:23.593466	343.6	25.9	-93.1	11.4
2025-01-07 17:55:24.762516	343.5	25.8	-93.0	10.8
2025-01-07 17:55:25.922785	343.3	25.6	-93.0	13.9
2025-01-07 17:55:27.073153	343.2	25.4	-92.3	12.5
2025-01-07 17:55:28.217555	343.1	25.3	-92.7	15.3
2025-01-07 17:55:29.370977	342.9	25.1	-92.2	13.6
2025-01-07 17:55:30.526833	342.8	24.9	-92.9	10.3
2025-01-07 17:55:31.687858	342.7	24.8	-93.1	8.6
2025-01-07 17:55:32.837778	342.5	24.6	-93.1	13.9
2025-01-07 17:55:33.996050	342.4	24.4	-93.1	9.3
2025-01-07 17:55:35.155175	342.3	24.3	-92.3	13.6
2025-01-07 17:55:36.308076	342.2	24.1	-92.6	14.8
2025-01-07 17:55:37.455845	342.0	24.0	-92.9	12.0
2025-01-07 17:55:38.617592	341.9	23.8	-92.7	16.6
2025-01-07 17:55:39.774612	341.8	23.6	-92.9	16.5
2025-01-07 17:55:40.929656	341.7	23.5	-91.8	10.1
2025-01-07 17:55:42.089364	341.5	23.3	-91.8	14.3
2025-01-07 17:55:43.247955	341.4	23.2	-92.1	7.2
2025-01-07 17:55:44.408788	341.3	23.0	-92.7	14.4
2025-01-07 17:55:45.560896	341.2	22.9	-92.8	11.7
2025-01-07 17:55:46.717762	341.1	22.7	-92.8	10.4
2025-01-07 17:55:47.871003	341.0	22.6	-93.0	11.7
2025-01-07 17:55:49.016744	340.9	22.4	-93.0	10.8
2025-01-07 17:55:50.171776	340.8	22.3	-91.7	16.5
2025-01-07 17:55:51.326709	340.6	22.1	-91.8	14.4
2025-01-07 17:55:52.488866	340.5	22.0	-92.8	13.3
2025-01-07 17:55:53.638859	340.4	21.8	-92.6	10.4
2025-01-07 17:55:54.797872	340.3	21.7	-92.7	14.0
2025-01-07 17:55:55.956101	340.2	21.5	-92.7	11.4
2025-01-07 17:55:57.122904	340.1	21.4	-92.3	9.3
2025-01-07 17:55:58.288897	340.0	21.2	-92.4	16.2
2025-01-07 17:55:59.447392	339.9	21.1	-92.8	10.0
2025-01-07 17:56:00.597099	339.8	20.9	-92.7	7.0
2025-01-07 17:56:01.753218	339.7	20.8	-90.7	12.5
2025-01-07 17:56:02.911033	339.6	20.6	-91.4	8.1
2025-01-07 17:56:04.063234	339.5	20.5	-90.9	7.9
2025-01-07 17:56:05.213731	339.4	20.4	-90.3	9.0
2025-01-07 17:56:06.352161	339.3	20.2	-92.1	9.7
2025-01-07 17:56:07.472617	339.2	20.1	-92.3	9.8
2025-01-07 17:56:08.592768	339.1	19.9	-92.4	8.2
2025-01-07 17:56:09.715144	339.0	19.8	-92.7	13.0
2025-01-07 17:56:10.834715	339.0	19.7	-92.8	11.5
2025-01-07 17:56:11.955069	338.9	19.5	-92.3	12.3
2025-01-07 17:56:13.075294	338.8	19.4	-91.9	12.7
2025-01-07 17:56:14.201136	338.7	19.3	-91.8	8.8
2025-01-07 17:56:15.321066	338.6	19.1	-92.2	9.6
2025-01-07 17:56:16.473687	338.5	19.0	-90.2	10.5
2025-01-07 17:56:17.623469	338.4	18.9	-92.5	9.9
2025-01-07 17:56:18.777722	338.3	18.7	-92.7	12.9
2025-01-07 17:56:19.930947	338.3	18.6	-92.7	12.0
2025-01-07 17:56:21.080567	338.2	18.5	-91.7	9.1
2025-01-07 17:56:22.232231	338.1	18.3	-91.8	10.5
2025-01-07 17:56:23.390155	338.0	18.2	-92.0	7.0
2025-01-07 17:56:24.533998	337.9	18.1	-92.8	10.9
2025-01-07 17:56:25.693081	337.8	18.0	-92.5	8.0
2025-01-07 17:56:26.852511	337.8	17.8	-92.9	10.0
2025-01-07 17:56:28.004059	337.7	17.7	-92.7	8.0
2025-01-07 17:56:29.151694	337.6	17.6	-92.1	5.4
2025-01-07 17:56:30.305614	337.5	17.4	-92.2	5.2
2025-01-07 17:56:31.464413	337.4	17.3	-92.6	5.4
2025-01-07 17:56:32.620390	337.4	17.2	-93.0	7.5
2025-01-07 17:56:33.771198	337.3	17.1	-92.9	6.8
2025-01-07 17:56:34.928551	337.2	16.9	-92.9	7.3
2025-01-07 17:56:36.080594	337.1	16.8	-92.1	6.0
2025-01-07 17:56:37.238557	337.1	16.7	-92.1	9.6
2025-01-07 17:56:38.395513	337.0	16.6	-92.2	7.1
2025-01-07 17:56:39.553850	336.9	16.4	-92.7	5.7
2025-01-07 17:56:40.706002	336.8	16.3	-92.8	11.0
2025-01-07 17:56:41.856513	336.8	16.2	-92.8	11.0
2025-01-07 17:56:43.014488	336.7	16.1	-93.0	7.2
2025-01-07 17:56:44.170286	336.6	16.0	-92.5	8.6
2025-01-07 17:56:45.331188	336.5	15.8	-92.2	10.2
2025-01-07 17:56:46.490737	336.5	15.7	-92.6	10.5
2025-01-07 17:56:47.644443	336.4	15.6	-92.7	12.9
2025-01-07 17:56:48.791421	336.3	15.5	-92.6	13.6
2025-01-07 17:56:49.950379	336.3	15.4	-93.0	11.6
2025-01-07 17:56:51.107184	336.2	15.2	-92.5	7.9
2025-01-07 17:56:52.267907	336.1	15.1	-92.4	9.6
2025-01-07 17:56:53.422938	336.1	15.0	-91.7	10.8
2025-01-07 17:56:54.576948	336.0	14.9	-92.7	9.9
2025-01-07 17:56:55.729936	335.9	14.8	-92.6	8.9
2025-01-07 17:56:56.892721	335.9	14.7	-92.6	7.4
2025-01-07 17:56:58.052541	335.8	14.5	-92.1	9.0
2025-01-07 17:56:59.205507	335.7	14.4	-92.2	9.6
#Closed at: 2025-01-07 17:48:02.435770