passes_logs/2025/01/07/LEX_Murmansk/LEX_Murmansk__20250107_172055_NOAA_19_rec.log

#Pass ID: 20250107_172055_NOAA 19
#Satellite: NOAA 19
#Configuration: NOAA 19
#Start time: 2025-01-07 17:20:50.894293

#LorettStation: 1.0.0 05.05.2024
#Station: LEX_Murmansk
#Location: 33.156738 lon 68.926811 lat
#TLE: 1 33591U 09005A   25006.86236638  .00000398  00000+0  23653-3 0  9991
#TLE: 2 33591  99.0211  70.5614 0014662  79.2072 281.0749 14.13253225820137

#Time	Az	El	Level	SNR
2025-01-07 17:21:05.154305	141.3	16.6	-91.1	3.4
2025-01-07 17:21:06.312845	141.3	16.7	-91.4	4.7
2025-01-07 17:21:07.472583	141.2	16.8	-91.8	7.1
2025-01-07 17:21:08.618574	141.2	17.0	-90.6	5.5
2025-01-07 17:21:09.775583	141.2	17.1	-91.6	4.2
2025-01-07 17:21:10.937988	141.2	17.2	-91.8	4.5
2025-01-07 17:21:12.096821	141.1	17.4	-91.8	0.8
2025-01-07 17:21:13.256343	141.1	17.5	-91.3	1.4
2025-01-07 17:21:14.403003	141.1	17.6	-91.6	2.4
2025-01-07 17:21:15.562930	141.1	17.8	-91.9	5.6
2025-01-07 17:21:16.724722	141.0	17.9	-92.0	9.9
2025-01-07 17:21:17.890854	141.0	18.0	-91.9	7.1
2025-01-07 17:21:19.055547	141.0	18.2	-91.8	6.9
2025-01-07 17:21:20.213767	141.0	18.3	-91.4	6.1
2025-01-07 17:21:21.371036	140.9	18.5	-92.0	3.5
2025-01-07 17:21:22.537014	140.9	18.6	-91.8	10.7
2025-01-07 17:21:23.702270	140.9	18.7	-91.7	10.4
2025-01-07 17:21:24.868376	140.8	18.9	-91.9	8.0
2025-01-07 17:21:26.032637	140.8	19.0	-90.9	3.0
2025-01-07 17:21:27.298531	140.8	19.2	-89.9	0.7
2025-01-07 17:21:28.470869	140.8	19.3	-90.2	3.2
2025-01-07 17:21:29.632076	140.7	19.5	-91.7	4.3
2025-01-07 17:21:30.789206	140.7	19.6	-92.0	6.3
2025-01-07 17:21:31.946085	140.7	19.8	-92.2	8.4
2025-01-07 17:21:33.106621	140.6	19.9	-91.6	11.4
2025-01-07 17:21:34.275888	140.6	20.1	-91.7	8.1
2025-01-07 17:21:35.437324	140.6	20.2	-92.0	9.3
2025-01-07 17:21:36.604952	140.6	20.4	-92.3	8.7
2025-01-07 17:21:37.767271	140.5	20.5	-92.1	7.9
2025-01-07 17:21:38.924192	140.5	20.7	-92.1	13.5
2025-01-07 17:21:40.079323	140.5	20.8	-91.7	8.0
2025-01-07 17:21:41.241244	140.4	21.0	-91.8	7.5
2025-01-07 17:21:42.392500	140.4	21.2	-92.1	4.5
2025-01-07 17:21:43.550045	140.4	21.3	-92.1	5.1
2025-01-07 17:21:44.682769	140.3	21.5	-92.3	3.9
2025-01-07 17:21:45.803108	140.3	21.6	-92.1	1.6
2025-01-07 17:21:46.924500	140.3	21.8	-92.0	7.2
2025-01-07 17:21:48.046901	140.2	21.9	-91.6	10.3
2025-01-07 17:21:49.167525	140.2	22.1	-91.6	11.2
2025-01-07 17:21:50.288846	140.2	22.2	-91.6	7.9
2025-01-07 17:21:51.409628	140.1	22.4	-91.7	5.6
2025-01-07 17:21:52.530037	140.1	22.6	-91.0	9.3
2025-01-07 17:21:53.667542	140.1	22.7	-92.0	7.1
2025-01-07 17:21:54.830515	140.0	22.9	-92.1	12.9
2025-01-07 17:21:55.986392	140.0	23.1	-92.0	11.3
2025-01-07 17:21:57.148016	139.9	23.2	-91.8	7.3
2025-01-07 17:21:58.308926	139.9	23.4	-91.0	3.3
2025-01-07 17:21:59.457860	139.9	23.6	-91.7	2.2
2025-01-07 17:22:00.608096	139.8	23.7	-91.9	2.9
2025-01-07 17:22:01.740772	139.8	23.9	-92.0	2.0
2025-01-07 17:22:02.882248	139.8	24.1	-92.1	6.7
2025-01-07 17:22:04.031153	139.7	24.3	-92.3	12.8
2025-01-07 17:22:05.177563	139.7	24.4	-91.8	8.9
2025-01-07 17:22:06.324809	139.6	24.6	-91.7	6.8
2025-01-07 17:22:07.481560	139.6	24.8	-91.9	7.2
2025-01-07 17:22:08.640862	139.5	25.0	-92.4	6.6
2025-01-07 17:22:09.801855	139.5	25.2	-92.1	8.4
2025-01-07 17:22:10.964786	139.5	25.3	-91.9	11.6
2025-01-07 17:22:12.130668	139.4	25.5	-91.7	10.1
2025-01-07 17:22:13.287893	139.4	25.7	-91.6	5.6
2025-01-07 17:22:14.450394	139.3	25.9	-92.1	3.6
2025-01-07 17:22:15.607425	139.3	26.1	-92.4	4.2
2025-01-07 17:22:16.768307	139.2	26.3	-92.1	2.8
2025-01-07 17:22:17.934780	139.2	26.5	-92.2	3.2
2025-01-07 17:22:19.097698	139.1	26.7	-91.9	4.9
2025-01-07 17:22:20.256444	139.1	26.8	-92.0	4.8
2025-01-07 17:22:21.420403	139.0	27.0	-92.1	7.5
2025-01-07 17:22:22.581747	139.0	27.2	-92.1	10.3
2025-01-07 17:22:23.741456	138.9	27.4	-91.8	6.0
2025-01-07 17:22:24.907464	138.9	27.6	-91.8	6.3
2025-01-07 17:22:26.067290	138.8	27.8	-92.0	9.5
2025-01-07 17:22:27.232824	138.8	28.0	-91.8	5.6
2025-01-07 17:22:28.389662	138.7	28.2	-91.5	8.3
2025-01-07 17:22:29.546481	138.7	28.5	-92.3	10.2
2025-01-07 17:22:30.709308	138.6	28.7	-92.3	1.3
2025-01-07 17:22:31.874056	138.6	28.9	-92.3	2.6
2025-01-07 17:22:33.040675	138.5	29.1	-92.6	1.8
2025-01-07 17:22:34.203044	138.5	29.3	-92.1	0.7
2025-01-07 17:22:35.364383	138.4	29.5	-91.8	1.4
2025-01-07 17:22:36.523012	138.3	29.7	-92.4	3.5
2025-01-07 17:22:37.688825	138.3	29.9	-92.3	1.6
2025-01-07 17:22:38.852971	138.2	30.1	-92.5	3.2
2025-01-07 17:22:40.011142	138.2	30.4	-92.5	2.2
2025-01-07 17:22:41.173579	138.1	30.6	-92.0	2.1
2025-01-07 17:22:42.333590	138.0	30.8	-92.0	4.5
2025-01-07 17:22:43.498240	138.0	31.0	-92.1	4.4
2025-01-07 17:22:44.664562	137.9	31.3	-91.7	5.7
2025-01-07 17:22:45.827587	137.8	31.5	-90.3	4.9
2025-01-07 17:22:46.987841	137.8	31.7	-91.8	8.2
2025-01-07 17:22:48.153786	137.7	32.0	-92.0	6.0
2025-01-07 17:22:49.312796	137.6	32.2	-92.1	1.8
2025-01-07 17:22:50.468738	137.6	32.4	-92.0	4.0
2025-01-07 17:22:51.631818	137.5	32.7	-92.2	2.4
2025-01-07 17:22:52.789532	137.4	32.9	-92.5	3.4
2025-01-07 17:22:53.953731	137.4	33.1	-92.5	7.8
2025-01-07 17:22:55.124735	137.3	33.4	-91.5	5.8
2025-01-07 17:22:56.289140	137.2	33.6	-91.7	3.5
2025-01-07 17:22:57.454804	137.1	33.9	-92.4	6.1
2025-01-07 17:22:58.617743	137.0	34.1	-92.3	7.0
2025-01-07 17:22:59.771182	137.0	34.4	-92.3	5.9
2025-01-07 17:23:00.912214	136.9	34.6	-92.6	10.1
2025-01-07 17:23:02.066158	136.8	34.9	-92.6	11.0
2025-01-07 17:23:03.185739	136.7	35.1	-92.3	11.8
2025-01-07 17:23:04.306260	136.7	35.4	-92.4	8.8
2025-01-07 17:23:05.429620	136.6	35.6	-92.7	5.9
2025-01-07 17:23:06.550498	136.5	35.9	-92.8	4.4
2025-01-07 17:23:07.671338	136.4	36.1	-92.7	5.5
2025-01-07 17:23:08.791757	136.3	36.4	-92.8	3.5
2025-01-07 17:23:09.913687	136.2	36.6	-92.7	6.9
2025-01-07 17:23:11.037132	136.1	36.9	-92.5	12.1
2025-01-07 17:23:12.201271	136.0	37.2	-92.1	14.7
2025-01-07 17:23:13.350758	135.9	37.4	-92.1	15.4
2025-01-07 17:23:14.512593	135.8	37.7	-92.4	15.7
2025-01-07 17:23:15.672612	135.7	38.0	-92.3	10.5
2025-01-07 17:23:16.836873	135.6	38.3	-92.2	6.7
2025-01-07 17:23:17.997705	135.5	38.5	-92.1	9.2
2025-01-07 17:23:19.161854	135.4	38.8	-91.9	9.2
2025-01-07 17:23:20.324171	135.3	39.1	-91.7	11.9
2025-01-07 17:23:21.487685	135.2	39.4	-91.4	13.6
2025-01-07 17:23:22.654360	135.1	39.7	-92.3	12.2
2025-01-07 17:23:23.816415	135.0	40.0	-92.3	6.5
2025-01-07 17:23:24.977612	134.9	40.3	-92.3	7.3
2025-01-07 17:23:26.130313	134.8	40.6	-91.6	4.9
2025-01-07 17:23:27.408206	134.6	40.9	-92.3	2.9
2025-01-07 17:23:28.568386	134.5	41.2	-92.5	5.2
2025-01-07 17:23:29.732233	134.4	41.5	-92.5	7.2
2025-01-07 17:23:30.891387	134.3	41.8	-92.4	12.4
2025-01-07 17:23:32.057889	134.1	42.1	-91.4	13.8
2025-01-07 17:23:33.221931	134.0	42.4	-91.8	14.5
2025-01-07 17:23:34.385783	133.9	42.8	-92.2	9.0
2025-01-07 17:23:35.549345	133.7	43.1	-92.2	10.3
2025-01-07 17:23:36.706624	133.6	43.4	-92.3	8.0
2025-01-07 17:23:37.869953	133.4	43.7	-92.4	6.6
2025-01-07 17:23:39.033810	133.3	44.0	-92.4	12.9
2025-01-07 17:23:40.189782	133.1	44.4	-91.9	16.5
2025-01-07 17:23:41.341474	133.0	44.7	-92.1	14.5
2025-01-07 17:23:42.496183	132.8	45.0	-92.3	12.0
2025-01-07 17:23:43.653566	132.7	45.4	-92.3	5.4
2025-01-07 17:23:44.815565	132.5	45.7	-92.3	2.3
2025-01-07 17:23:45.978392	132.4	46.0	-91.6	2.8
2025-01-07 17:23:47.143424	132.2	46.4	-91.1	6.3
2025-01-07 17:23:48.308903	132.0	46.7	-90.9	2.4
2025-01-07 17:23:49.473308	131.8	47.1	-91.4	9.0
2025-01-07 17:23:50.630207	131.6	47.4	-91.3	11.8
2025-01-07 17:23:51.794608	131.5	47.8	-91.6	12.1
2025-01-07 17:23:52.956528	131.3	48.1	-92.1	5.7
2025-01-07 17:23:54.115146	131.1	48.5	-91.9	4.6
2025-01-07 17:23:55.283800	130.9	48.9	-91.8	3.1
2025-01-07 17:23:56.447432	130.7	49.2	-92.1	2.8
2025-01-07 17:23:57.617274	130.5	49.6	-92.0	4.4
2025-01-07 17:23:58.784115	130.2	50.0	-92.1	2.4
2025-01-07 17:23:59.939297	130.0	50.3	-92.4	7.8
2025-01-07 17:24:01.090952	129.8	50.7	-92.0	7.2
2025-01-07 17:24:02.257168	129.6	51.1	-92.0	2.7
2025-01-07 17:24:03.424713	129.3	51.5	-92.3	1.1
2025-01-07 17:24:04.588267	129.1	51.8	-92.6	3.1
2025-01-07 17:24:05.748429	128.8	52.2	-92.3	4.5
2025-01-07 17:24:06.911996	128.6	52.6	-92.3	1.6
2025-01-07 17:24:08.071704	128.3	53.0	-92.1	3.4
2025-01-07 17:24:09.227626	128.0	53.4	-92.1	3.1
2025-01-07 17:24:10.360113	127.8	53.8	-91.6	3.4
2025-01-07 17:24:11.480328	127.5	54.1	-92.3	7.3
2025-01-07 17:24:12.601167	127.2	54.5	-92.3	9.7
2025-01-07 17:24:13.722139	126.9	54.9	-91.9	11.7
2025-01-07 17:24:14.842735	126.6	55.3	-92.1	12.4
2025-01-07 17:24:15.964162	126.3	55.7	-91.9	15.2
2025-01-07 17:24:17.085210	126.0	56.1	-92.0	14.7
2025-01-07 17:24:18.213707	125.7	56.5	-91.9	9.9
2025-01-07 17:24:19.339112	125.3	56.9	-92.1	5.8
2025-01-07 17:24:20.502055	125.0	57.3	-92.0	10.5
2025-01-07 17:24:21.652159	124.6	57.7	-92.2	11.4
2025-01-07 17:24:22.816580	124.2	58.1	-92.3	11.1
2025-01-07 17:24:23.973457	123.8	58.5	-92.4	11.0
2025-01-07 17:24:25.138220	123.4	58.9	-92.0	14.1
2025-01-07 17:24:26.304957	123.0	59.4	-92.3	15.4
2025-01-07 17:24:27.472312	122.6	59.8	-92.4	10.7
2025-01-07 17:24:28.633212	122.1	60.2	-92.5	11.1
2025-01-07 17:24:29.806195	121.7	60.6	-92.3	5.0
2025-01-07 17:24:30.958866	121.2	61.1	-92.2	4.7
2025-01-07 17:24:32.130990	120.7	61.5	-91.9	5.1
2025-01-07 17:24:33.285705	120.2	61.9	-91.8	0.7
2025-01-07 17:24:34.448290	119.7	62.3	-92.3	5.5
2025-01-07 17:24:35.614566	119.1	62.8	-92.7	10.3
2025-01-07 17:24:36.771312	118.5	63.2	-92.6	10.7
2025-01-07 17:24:37.938340	117.9	63.6	-92.6	10.4
2025-01-07 17:24:39.099558	117.3	64.0	-92.1	13.8
2025-01-07 17:24:40.264885	116.7	64.5	-91.8	18.4
2025-01-07 17:24:41.426231	116.0	64.9	-91.8	20.3
2025-01-07 17:24:42.589553	115.3	65.3	-91.3	17.6
2025-01-07 17:24:43.750673	114.6	65.7	-91.9	8.0
2025-01-07 17:24:44.910338	113.9	66.2	-91.8	9.5
2025-01-07 17:24:46.077579	113.1	66.6	-91.6	10.9
2025-01-07 17:24:47.235315	112.3	67.0	-91.3	8.1
2025-01-07 17:24:48.394548	111.5	67.4	-91.0	12.7
2025-01-07 17:24:49.558781	110.6	67.8	-92.7	11.8
2025-01-07 17:24:50.720007	109.7	68.3	-92.4	5.1
2025-01-07 17:24:51.882593	108.8	68.7	-92.8	10.6
2025-01-07 17:24:53.051157	107.8	69.1	-92.6	14.7
2025-01-07 17:24:54.215431	106.8	69.5	-92.2	15.3
2025-01-07 17:24:55.378364	105.7	69.9	-92.1	13.4
2025-01-07 17:24:56.538433	104.6	70.3	-92.2	4.7
2025-01-07 17:24:57.687671	103.4	70.6	-92.5	6.2
2025-01-07 17:24:58.851802	102.2	71.0	-91.9	9.8
2025-01-07 17:25:00.013495	100.9	71.4	-90.8	6.0
2025-01-07 17:25:01.164986	99.6	71.8	-92.2	8.7
2025-01-07 17:25:02.330352	98.3	72.1	-92.1	5.4
2025-01-07 17:25:03.491774	96.8	72.5	-92.5	2.7
2025-01-07 17:25:04.657802	95.3	72.8	-92.3	3.5
2025-01-07 17:25:05.818917	93.8	73.1	-92.4	2.9
2025-01-07 17:25:06.980291	92.2	73.4	-92.2	7.0
2025-01-07 17:25:08.125095	90.5	73.7	-92.0	4.4
2025-01-07 17:25:09.247730	88.8	74.0	-91.9	5.6
2025-01-07 17:25:10.368586	87.1	74.3	-92.3	5.0
2025-01-07 17:25:11.488447	85.3	74.5	-92.1	7.4
2025-01-07 17:25:12.609308	83.4	74.8	-92.4	7.3
2025-01-07 17:25:13.729358	81.5	75.0	-92.5	12.7
2025-01-07 17:25:14.850383	79.5	75.2	-92.3	10.2
2025-01-07 17:25:15.971677	77.4	75.4	-92.2	15.4
2025-01-07 17:25:17.097056	75.3	75.6	-92.0	15.3
2025-01-07 17:25:18.257933	73.1	75.7	-91.8	13.8
2025-01-07 17:25:19.408809	70.9	75.8	-92.1	15.9
2025-01-07 17:25:20.565927	68.6	76.0	-92.3	16.7
2025-01-07 17:25:21.726027	66.2	76.0	-92.5	15.4
2025-01-07 17:25:22.893169	63.9	76.1	-92.2	13.8
2025-01-07 17:25:24.054269	61.5	76.2	-92.3	14.6
2025-01-07 17:25:25.221446	59.1	76.2	-92.1	15.3
2025-01-07 17:25:26.381673	56.7	76.2	-92.1	14.0
2025-01-07 17:25:27.549178	54.3	76.2	-92.5	12.5
2025-01-07 17:25:28.708688	51.9	76.1	-92.2	10.1
2025-01-07 17:25:29.874293	49.5	76.0	-92.4	7.4
2025-01-07 17:25:31.026909	47.2	75.9	-92.7	9.6
2025-01-07 17:25:32.192587	44.9	75.8	-92.3	10.1
2025-01-07 17:25:33.345520	42.6	75.7	-92.3	5.7
2025-01-07 17:25:34.511100	40.4	75.5	-92.9	6.1
2025-01-07 17:25:35.684070	38.3	75.3	-92.6	5.3
2025-01-07 17:25:36.844474	36.2	75.1	-92.8	5.4
2025-01-07 17:25:38.012940	34.1	74.9	-92.6	8.1
2025-01-07 17:25:39.176820	32.1	74.7	-91.8	7.7
2025-01-07 17:25:40.334842	30.2	74.4	-92.0	5.6
2025-01-07 17:25:41.496743	28.4	74.2	-92.6	10.4
2025-01-07 17:25:42.662070	26.6	73.9	-92.7	8.0
2025-01-07 17:25:43.827033	24.9	73.6	-92.7	5.7
2025-01-07 17:25:44.988981	23.3	73.3	-92.5	12.6
2025-01-07 17:25:46.156649	21.7	72.9	-92.1	14.4
2025-01-07 17:25:47.315942	20.1	72.6	-92.0	6.3
2025-01-07 17:25:48.480482	18.7	72.3	-92.2	7.6
2025-01-07 17:25:49.637783	17.3	71.9	-91.5	10.5
2025-01-07 17:25:50.793130	16.0	71.6	-91.8	6.2
2025-01-07 17:25:51.954309	14.7	71.2	-91.9	8.8
2025-01-07 17:25:53.121561	13.4	70.8	-91.5	9.0
2025-01-07 17:25:54.278660	12.3	70.4	-92.0	5.7
2025-01-07 17:25:55.442491	11.1	70.0	-92.2	8.8
2025-01-07 17:25:56.606369	10.0	69.7	-92.3	9.6
2025-01-07 17:25:57.773152	9.0	69.3	-92.8	7.1
2025-01-07 17:25:58.934834	8.0	68.9	-92.4	11.7
2025-01-07 17:26:00.098818	7.0	68.4	-92.1	12.2
2025-01-07 17:26:01.244604	6.1	68.0	-92.1	7.5
2025-01-07 17:26:02.408544	5.2	67.6	-92.5	10.4
2025-01-07 17:26:03.571554	4.4	67.2	-92.5	11.9
2025-01-07 17:26:04.740125	3.6	66.8	-92.3	8.9
2025-01-07 17:26:05.891674	2.8	66.4	-92.3	9.3
2025-01-07 17:26:07.056768	2.0	65.9	-92.6	13.9
2025-01-07 17:26:08.225459	1.3	65.5	-92.1	6.0
2025-01-07 17:26:09.386373	0.6	65.1	-92.1	8.2
2025-01-07 17:26:10.545957	359.9	64.7	-92.3	13.9
2025-01-07 17:26:11.711501	359.3	64.2	-92.3	8.1
2025-01-07 17:26:12.869349	358.7	63.8	-92.7	7.7
2025-01-07 17:26:14.013795	358.1	63.4	-92.4	11.4
2025-01-07 17:26:15.135460	357.5	63.0	-92.4	10.9
2025-01-07 17:26:16.258479	357.0	62.6	-92.0	7.6
2025-01-07 17:26:17.376717	356.5	62.2	-92.4	9.7
2025-01-07 17:26:18.497738	356.0	61.8	-92.7	13.3
2025-01-07 17:26:19.618759	355.5	61.3	-92.5	12.3
2025-01-07 17:26:20.739679	355.0	60.9	-92.6	10.9
2025-01-07 17:26:21.864335	354.5	60.5	-92.4	9.0
2025-01-07 17:26:22.984680	354.1	60.1	-92.4	11.8
2025-01-07 17:26:24.136441	353.7	59.7	-92.4	11.7
2025-01-07 17:26:25.295709	353.2	59.3	-92.4	9.8
2025-01-07 17:26:26.453130	352.8	58.9	-92.4	13.0
2025-01-07 17:26:27.614269	352.4	58.4	-92.4	17.3
2025-01-07 17:26:28.775056	352.0	58.0	-92.6	13.1
2025-01-07 17:26:29.943259	351.6	57.6	-92.3	14.4
2025-01-07 17:26:31.091908	351.3	57.2	-92.2	19.0
2025-01-07 17:26:32.239412	350.9	56.8	-92.3	19.7
2025-01-07 17:26:33.369987	350.6	56.4	-92.0	17.3
2025-01-07 17:26:34.522277	350.3	56.0	-92.6	17.0
2025-01-07 17:26:35.668669	349.9	55.6	-92.3	14.4
2025-01-07 17:26:36.829609	349.6	55.2	-92.4	15.4
2025-01-07 17:26:37.985699	349.3	54.8	-92.6	13.1
2025-01-07 17:26:39.135306	349.0	54.4	-92.0	14.9
2025-01-07 17:26:40.291194	348.7	54.0	-91.8	11.6
2025-01-07 17:26:41.452001	348.5	53.6	-92.6	8.3
2025-01-07 17:26:42.604568	348.2	53.2	-92.7	11.9
2025-01-07 17:26:43.760107	347.9	52.9	-92.9	4.9
2025-01-07 17:26:44.927464	347.7	52.5	-92.4	6.5
2025-01-07 17:26:46.079419	347.4	52.1	-92.3	7.4
2025-01-07 17:26:47.236269	347.2	51.7	-92.3	6.6
2025-01-07 17:26:48.398117	346.9	51.3	-92.5	7.8
2025-01-07 17:26:49.561029	346.7	50.9	-92.5	10.8
2025-01-07 17:26:50.720362	346.5	50.6	-92.6	3.9
2025-01-07 17:26:51.882470	346.2	50.2	-92.6	6.7
2025-01-07 17:26:53.044207	346.0	49.8	-92.5	7.9
2025-01-07 17:26:54.209425	345.8	49.5	-91.3	6.3
2025-01-07 17:26:55.367308	345.6	49.1	-91.3	9.5
2025-01-07 17:26:56.528383	345.4	48.7	-91.7	10.7
2025-01-07 17:26:57.697800	345.2	48.4	-91.9	16.3
2025-01-07 17:26:58.859998	345.0	48.0	-92.6	15.8
2025-01-07 17:27:00.026180	344.8	47.7	-92.6	15.8
2025-01-07 17:27:01.175228	344.6	47.3	-92.1	15.3
2025-01-07 17:27:02.338009	344.4	47.0	-92.3	16.8
2025-01-07 17:27:03.496851	344.3	46.6	-92.7	14.4
2025-01-07 17:27:04.664722	344.1	46.3	-92.7	14.6
2025-01-07 17:27:05.821092	343.9	45.9	-92.5	12.7
2025-01-07 17:27:06.985658	343.8	45.6	-92.6	11.5
2025-01-07 17:27:08.152452	343.6	45.3	-92.1	8.4
2025-01-07 17:27:09.318656	343.4	44.9	-92.1	7.3
2025-01-07 17:27:10.470873	343.3	44.6	-92.6	9.9
2025-01-07 17:27:11.615075	343.1	44.3	-92.5	9.4
2025-01-07 17:27:12.753887	343.0	44.0	-92.4	5.1
2025-01-07 17:27:13.874457	342.9	43.7	-92.3	5.5
2025-01-07 17:27:14.995507	342.7	43.3	-92.1	10.8
2025-01-07 17:27:16.116380	342.6	43.0	-92.2	11.9
2025-01-07 17:27:17.237378	342.5	42.7	-92.0	9.8
2025-01-07 17:27:18.358606	342.3	42.4	-91.8	12.6
2025-01-07 17:27:19.479921	342.2	42.1	-92.2	12.9
2025-01-07 17:27:20.604684	342.1	41.8	-92.4	16.5
2025-01-07 17:27:21.734613	342.0	41.5	-92.7	18.8
2025-01-07 17:27:22.881577	341.8	41.2	-92.2	17.2
2025-01-07 17:27:24.025206	341.7	40.9	-92.4	18.7
2025-01-07 17:27:25.187494	341.6	40.6	-91.9	15.5
2025-01-07 17:27:26.336312	341.5	40.3	-92.3	10.7
2025-01-07 17:27:27.488397	341.4	40.1	-91.2	9.1
2025-01-07 17:27:28.651570	341.3	39.8	-92.3	11.8
2025-01-07 17:27:29.820277	341.1	39.5	-92.5	5.9
2025-01-07 17:27:30.965434	341.0	39.2	-92.4	8.7
2025-01-07 17:27:32.089214	340.9	38.9	-92.4	8.6
2025-01-07 17:27:33.240189	340.8	38.6	-92.2	4.7
2025-01-07 17:27:34.361991	340.7	38.4	-92.4	5.7
2025-01-07 17:27:35.511273	340.6	38.1	-92.7	10.5
2025-01-07 17:27:36.653363	340.5	37.8	-92.8	10.2
2025-01-07 17:27:37.815108	340.4	37.5	-92.7	9.2
2025-01-07 17:27:38.961026	340.3	37.3	-92.5	17.1
2025-01-07 17:27:40.107158	340.2	37.0	-92.3	13.0
2025-01-07 17:27:41.266502	340.1	36.7	-92.4	12.7
2025-01-07 17:27:42.426577	340.1	36.5	-91.8	9.4
2025-01-07 17:27:43.586601	340.0	36.2	-91.7	9.6
2025-01-07 17:27:44.748166	339.9	35.9	-91.7	7.3
2025-01-07 17:27:45.911798	339.8	35.7	-91.3	4.7
2025-01-07 17:27:47.073518	339.7	35.4	-91.4	6.4
2025-01-07 17:27:48.245079	339.6	35.2	-91.3	2.3
2025-01-07 17:27:49.411331	339.5	34.9	-92.3	3.6
2025-01-07 17:27:50.570015	339.5	34.6	-92.7	7.5
2025-01-07 17:27:51.725928	339.4	34.4	-92.5	5.1
2025-01-07 17:27:52.889790	339.3	34.1	-92.0	7.2
2025-01-07 17:27:54.055244	339.2	33.9	-92.3	8.7
2025-01-07 17:27:55.217112	339.1	33.7	-92.1	11.4
2025-01-07 17:27:56.382731	339.1	33.4	-92.4	13.2
2025-01-07 17:27:57.543811	339.0	33.2	-92.2	10.8
2025-01-07 17:27:58.706049	338.9	32.9	-92.6	15.9
2025-01-07 17:27:59.874984	338.9	32.7	-92.6	11.2
2025-01-07 17:28:01.016060	338.8	32.5	-92.6	7.4
2025-01-07 17:28:02.181854	338.7	32.2	-92.0	6.0
2025-01-07 17:28:03.343930	338.6	32.0	-92.5	4.1
2025-01-07 17:28:04.502332	338.6	31.8	-92.5	5.4
2025-01-07 17:28:05.682027	338.5	31.5	-92.8	5.6
2025-01-07 17:28:06.850166	338.4	31.3	-92.3	4.1
2025-01-07 17:28:08.013165	338.4	31.1	-92.3	8.2
2025-01-07 17:28:09.177765	338.3	30.9	-91.9	6.2
2025-01-07 17:28:10.343439	338.3	30.6	-92.5	4.8
2025-01-07 17:28:11.503110	338.2	30.4	-92.7	9.0
2025-01-07 17:28:12.663267	338.1	30.2	-92.4	9.4
2025-01-07 17:28:13.828877	338.1	30.0	-92.6	9.7
2025-01-07 17:28:14.990012	338.0	29.8	-92.7	9.8
2025-01-07 17:28:16.145398	338.0	29.6	-92.7	5.3
2025-01-07 17:28:17.313942	337.9	29.3	-92.0	4.1
2025-01-07 17:28:18.478853	337.8	29.1	-92.6	7.5
2025-01-07 17:28:19.646630	337.8	28.9	-92.5	4.6
2025-01-07 17:28:20.806056	337.7	28.7	-92.4	1.3
2025-01-07 17:28:21.965453	337.7	28.5	-91.7	1.8
2025-01-07 17:28:23.132248	337.6	28.3	-91.9	5.4
2025-01-07 17:28:24.292112	337.6	28.1	-91.8	3.0
2025-01-07 17:28:25.456129	337.5	27.9	-92.5	6.6
2025-01-07 17:28:26.620237	337.5	27.7	-92.7	2.3
2025-01-07 17:28:27.784721	337.4	27.5	-92.9	11.3
2025-01-07 17:28:28.945045	337.4	27.3	-92.7	8.8
2025-01-07 17:28:30.110936	337.3	27.1	-92.3	11.9
2025-01-07 17:28:31.268630	337.3	26.9	-92.2	6.3
2025-01-07 17:28:32.427478	337.2	26.7	-92.2	10.4
2025-01-07 17:28:33.596607	337.2	26.5	-92.4	1.6
2025-01-07 17:28:34.752540	337.1	26.3	-91.8	3.8
2025-01-07 17:28:35.915106	337.1	26.1	-92.5	2.8
2025-01-07 17:28:37.076644	337.0	26.0	-92.3	5.7
2025-01-07 17:28:38.242538	337.0	25.8	-92.3	4.5
2025-01-07 17:28:39.407992	337.0	25.6	-92.5	7.3
2025-01-07 17:28:40.568179	336.9	25.4	-92.5	4.5
2025-01-07 17:28:41.724700	336.9	25.2	-92.5	7.6
2025-01-07 17:28:42.892107	336.8	25.0	-92.6	7.9
2025-01-07 17:28:44.044443	336.8	24.8	-92.5	3.2
2025-01-07 17:28:45.210588	336.7	24.7	-92.3	8.0
2025-01-07 17:28:46.341496	336.7	24.5	-92.1	3.4
2025-01-07 17:28:47.462888	336.7	24.3	-92.6	2.7
2025-01-07 17:28:48.583465	336.6	24.2	-92.3	5.2
2025-01-07 17:28:49.704598	336.6	24.0	-91.1	0.9
2025-01-07 17:28:50.824965	336.5	23.8	-91.7	1.3
2025-01-07 17:28:51.945577	336.5	23.7	-91.9	0.4
2025-01-07 17:28:53.066065	336.5	23.5	-91.7	2.1
2025-01-07 17:28:54.190760	336.4	23.3	-92.0	3.6
2025-01-07 17:28:55.326157	336.4	23.2	-92.4	4.5
2025-01-07 17:28:56.485099	336.4	23.0	-92.4	9.6
2025-01-07 17:28:57.639658	336.3	22.8	-91.9	5.7
2025-01-07 17:28:58.803996	336.3	22.7	-91.2	10.1
2025-01-07 17:28:59.962719	336.3	22.5	-92.5	10.1
2025-01-07 17:29:01.114745	336.2	22.3	-92.5	11.6
2025-01-07 17:29:02.271421	336.2	22.2	-92.1	6.4
2025-01-07 17:29:03.428750	336.2	22.0	-92.2	4.8
2025-01-07 17:29:04.587867	336.1	21.8	-92.5	9.7
2025-01-07 17:29:05.748543	336.1	21.7	-92.7	2.6
2025-01-07 17:29:06.912330	336.1	21.5	-92.5	11.6
2025-01-07 17:29:08.076479	336.0	21.4	-92.3	4.4
2025-01-07 17:29:09.237339	336.0	21.2	-91.9	9.5
2025-01-07 17:29:10.399050	336.0	21.1	-92.5	11.5
2025-01-07 17:29:11.553767	335.9	20.9	-92.8	3.3
2025-01-07 17:29:12.707099	335.9	20.7	-92.3	2.0
2025-01-07 17:29:13.863519	335.9	20.6	-92.4	3.0
2025-01-07 17:29:15.017501	335.8	20.4	-92.5	2.7
2025-01-07 17:29:16.174163	335.8	20.3	-92.1	2.2
2025-01-07 17:29:17.340254	335.8	20.1	-92.0	2.2
2025-01-07 17:29:18.504162	335.7	20.0	-92.2	1.0
2025-01-07 17:29:19.669012	335.7	19.8	-92.8	2.6
2025-01-07 17:29:20.834989	335.7	19.7	-92.7	0.9
2025-01-07 17:29:21.995192	335.7	19.5	-92.7	2.7
2025-01-07 17:29:23.167139	335.6	19.4	-91.8	2.4
2025-01-07 17:29:24.331331	335.6	19.3	-92.0	3.3
2025-01-07 17:29:25.496508	335.6	19.1	-92.4	3.3
2025-01-07 17:29:26.665137	335.5	19.0	-92.8	1.9
2025-01-07 17:29:27.821183	335.5	18.8	-92.2	3.5
2025-01-07 17:29:28.997251	335.5	18.7	-92.6	3.0
2025-01-07 17:29:30.161936	335.5	18.5	-91.8	3.2
2025-01-07 17:29:31.326566	335.4	18.4	-92.2	2.1
2025-01-07 17:29:32.483609	335.4	18.3	-92.7	4.3
2025-01-07 17:29:33.646594	335.4	18.1	-92.6	1.6
2025-01-07 17:29:34.807853	335.4	18.0	-92.4	3.7
2025-01-07 17:29:35.965076	335.3	17.8	-92.3	3.0
2025-01-07 17:29:37.131636	335.3	17.7	-92.3	2.4
2025-01-07 17:29:38.298647	335.3	17.6	-91.6	1.3
2025-01-07 17:29:39.458926	335.3	17.4	-90.5	0.1
2025-01-07 17:29:40.615744	335.2	17.3	-92.6	3.0
2025-01-07 17:29:41.770457	335.2	17.2	-92.7	2.1
2025-01-07 17:29:42.941236	335.2	17.0	-92.9	3.1
2025-01-07 17:29:44.212332	335.2	16.9	-92.4	3.2
2025-01-07 17:29:45.375599	335.1	16.8	-92.6	0.7
2025-01-07 17:29:46.535630	335.1	16.6	-92.6	3.8
2025-01-07 17:29:47.695728	335.1	16.5	-92.5	3.2
2025-01-07 17:29:48.862306	335.1	16.4	-92.8	3.0
2025-01-07 17:29:50.018329	335.1	16.2	-92.7	2.1
2025-01-07 17:29:51.180184	335.0	16.1	-91.7	5.1
2025-01-07 17:29:52.330126	335.0	16.0	-92.0	2.7
2025-01-07 17:29:53.486722	335.0	15.9	-91.8	3.8
2025-01-07 17:29:54.649252	335.0	15.7	-92.2	1.4
2025-01-07 17:29:55.814413	334.9	15.6	-92.0	3.7
2025-01-07 17:29:56.973868	334.9	15.5	-91.8	1.6
2025-01-07 17:29:58.138401	334.9	15.4	-92.0	0.0
2025-01-07 17:29:59.296635	334.9	15.2	-92.1	3.1
2025-01-07 17:30:00.442159	334.9	15.1	-92.6	2.7
2025-01-07 17:30:01.601478	334.8	15.0	-92.6	4.9
2025-01-07 17:30:02.764175	334.8	14.9	-92.9	2.2
2025-01-07 17:30:03.917125	334.8	14.7	-92.6	3.1
2025-01-07 17:30:05.077629	334.8	14.6	-92.1	3.6
2025-01-07 17:30:06.236276	334.8	14.5	-92.5	2.9
#Closed at: 2025-01-07 17:20:55.948670