passes_logs/2025/01/28/LEX_Murmansk/LEX_Murmansk__20250128_175907_NOAA_19_rec.log

#Pass ID: 20250128_175907_NOAA 19
#Satellite: NOAA 19
#Configuration: NOAA 19
#Start time: 2025-01-28 17:59:02.269436

#LorettStation: 1.0.0 05.05.2024
#Station: LEX_Murmansk
#Location: 33.156738 lon 68.926811 lat
#TLE: 1 33591U 09005A   25027.88922411  .00000392  00000+0  23338-3 0  9991
#TLE: 2 33591  99.0173  91.7499 0013972  22.5257 337.6525 14.13270697823101

#Time	Az	El	Level	SNR
2025-01-28 17:59:14.478755	160.1	16.3	-91.2	3.8
2025-01-28 17:59:15.636562	160.1	16.5	-91.5	2.8
2025-01-28 17:59:16.789027	160.2	16.6	-91.2	4.7
2025-01-28 17:59:17.944475	160.2	16.7	-91.4	1.6
2025-01-28 17:59:19.096206	160.2	16.8	-91.1	3.5
2025-01-28 17:59:20.247169	160.2	17.0	-91.5	2.5
2025-01-28 17:59:21.402335	160.3	17.1	-91.1	2.4
2025-01-28 17:59:22.530915	160.3	17.2	-91.3	2.8
2025-01-28 17:59:23.652400	160.3	17.4	-91.0	1.0
2025-01-28 17:59:24.772244	160.3	17.5	-91.5	3.3
2025-01-28 17:59:25.892847	160.4	17.6	-91.1	2.1
2025-01-28 17:59:27.013397	160.4	17.8	-91.2	3.1
2025-01-28 17:59:28.134112	160.4	17.9	-91.3	4.2
2025-01-28 17:59:29.255749	160.4	18.0	-90.6	2.2
2025-01-28 17:59:30.375504	160.5	18.2	-91.2	5.3
2025-01-28 17:59:31.499488	160.5	18.3	-91.0	3.8
2025-01-28 17:59:32.623640	160.5	18.4	-90.8	3.4
2025-01-28 17:59:33.773906	160.5	18.6	-91.0	6.5
2025-01-28 17:59:34.930409	160.6	18.7	-91.2	7.0
2025-01-28 17:59:36.078076	160.6	18.9	-91.0	6.8
2025-01-28 17:59:37.212217	160.6	19.0	-91.1	6.2
2025-01-28 17:59:38.342701	160.7	19.1	-91.0	3.2
2025-01-28 17:59:39.493582	160.7	19.3	-91.0	2.1
2025-01-28 17:59:40.630590	160.7	19.4	-90.9	1.1
2025-01-28 17:59:41.791906	160.8	19.6	-91.4	3.6
2025-01-28 17:59:42.931981	160.8	19.7	-91.1	2.9
2025-01-28 17:59:44.088681	160.8	19.9	-91.6	4.4
2025-01-28 17:59:45.237236	160.8	20.0	-91.1	5.2
2025-01-28 17:59:46.362791	160.9	20.2	-91.2	2.5
2025-01-28 17:59:47.507997	160.9	20.3	-90.9	4.4
2025-01-28 17:59:48.663477	160.9	20.5	-91.0	2.9
2025-01-28 17:59:49.822219	161.0	20.6	-91.0	4.3
2025-01-28 17:59:50.960149	161.0	20.8	-91.3	7.8
2025-01-28 17:59:52.112904	161.0	20.9	-91.0	8.4
2025-01-28 17:59:53.270241	161.1	21.1	-91.2	5.3
2025-01-28 17:59:54.420567	161.1	21.2	-91.1	3.9
2025-01-28 17:59:55.582712	161.1	21.4	-90.5	0.6
2025-01-28 17:59:56.729489	161.2	21.6	-91.1	2.2
2025-01-28 17:59:57.881949	161.2	21.7	-91.2	5.1
2025-01-28 17:59:59.038119	161.2	21.9	-91.3	4.6
2025-01-28 18:00:00.193598	161.3	22.0	-91.3	9.6
2025-01-28 18:00:01.343539	161.3	22.2	-91.0	11.3
2025-01-28 18:00:02.505256	161.3	22.4	-90.7	8.7
2025-01-28 18:00:03.660930	161.4	22.5	-91.1	7.6
2025-01-28 18:00:04.815264	161.4	22.7	-91.1	7.7
2025-01-28 18:00:05.967957	161.4	22.9	-90.2	4.1
2025-01-28 18:00:07.126720	161.5	23.0	-90.4	8.1
2025-01-28 18:00:08.279323	161.5	23.2	-90.1	9.1
2025-01-28 18:00:09.429459	161.5	23.4	-90.3	4.5
2025-01-28 18:00:10.581869	161.6	23.5	-90.9	1.1
2025-01-28 18:00:11.737799	161.6	23.7	-91.3	4.2
2025-01-28 18:00:12.892387	161.7	23.9	-91.0	0.6
2025-01-28 18:00:14.055737	161.7	24.1	-91.0	0.1
2025-01-28 18:00:15.208463	161.7	24.2	-91.3	2.4
2025-01-28 18:00:16.366997	161.8	24.4	-90.9	5.7
2025-01-28 18:00:17.518412	161.8	24.6	-91.0	9.5
2025-01-28 18:00:18.674717	161.9	24.8	-91.2	10.2
2025-01-28 18:00:19.826505	161.9	24.9	-91.3	6.4
2025-01-28 18:00:20.975619	161.9	25.1	-91.4	4.8
2025-01-28 18:00:22.133786	162.0	25.3	-91.0	4.8
2025-01-28 18:00:23.287267	162.0	25.5	-90.7	9.3
2025-01-28 18:00:24.443931	162.1	25.7	-91.0	5.1
2025-01-28 18:00:25.597493	162.1	25.9	-90.8	3.9
2025-01-28 18:00:26.756833	162.1	26.1	-91.4	2.2
2025-01-28 18:00:27.910720	162.2	26.2	-91.6	1.8
2025-01-28 18:00:29.073090	162.2	26.4	-91.7	3.5
2025-01-28 18:00:30.221742	162.3	26.6	-91.7	2.9
2025-01-28 18:00:31.373538	162.3	26.8	-90.9	3.0
2025-01-28 18:00:32.535362	162.4	27.0	-91.1	3.5
2025-01-28 18:00:33.695017	162.4	27.2	-91.4	6.7
2025-01-28 18:00:34.852626	162.5	27.4	-91.4	8.6
2025-01-28 18:00:36.007147	162.5	27.6	-91.3	3.4
2025-01-28 18:00:37.161594	162.5	27.8	-91.5	7.1
2025-01-28 18:00:38.314448	162.6	28.0	-91.1	8.4
2025-01-28 18:00:39.467354	162.6	28.2	-91.4	10.6
2025-01-28 18:00:40.617330	162.7	28.4	-91.4	10.6
2025-01-28 18:00:41.775614	162.7	28.6	-91.7	10.5
2025-01-28 18:00:42.928459	162.8	28.8	-90.8	5.9
2025-01-28 18:00:44.096424	162.8	29.0	-91.4	3.0
2025-01-28 18:00:45.257110	162.9	29.2	-91.5	2.7
2025-01-28 18:00:46.412139	162.9	29.5	-91.5	3.1
2025-01-28 18:00:47.565686	163.0	29.7	-91.0	2.1
2025-01-28 18:00:48.726142	163.1	29.9	-91.4	2.6
2025-01-28 18:00:49.878342	163.1	30.1	-91.3	5.6
2025-01-28 18:00:51.031726	163.2	30.3	-91.0	7.3
2025-01-28 18:00:52.182185	163.2	30.5	-91.7	3.9
2025-01-28 18:00:53.339270	163.3	30.8	-91.2	3.3
2025-01-28 18:00:54.490106	163.3	31.0	-91.6	4.9
2025-01-28 18:00:55.649099	163.4	31.2	-91.5	7.7
2025-01-28 18:00:56.800511	163.4	31.4	-91.5	6.5
2025-01-28 18:00:57.955998	163.5	31.7	-91.7	6.8
2025-01-28 18:00:59.111612	163.6	31.9	-90.9	5.1
2025-01-28 18:01:00.253795	163.6	32.1	-91.6	2.6
2025-01-28 18:01:01.401163	163.7	32.4	-91.3	3.4
2025-01-28 18:01:02.562503	163.7	32.6	-91.3	3.1
2025-01-28 18:01:03.721011	163.8	32.8	-91.3	1.5
2025-01-28 18:01:04.875171	163.9	33.1	-91.2	5.2
2025-01-28 18:01:06.031737	163.9	33.3	-91.5	6.3
2025-01-28 18:01:07.189089	164.0	33.5	-91.3	5.2
2025-01-28 18:01:08.345897	164.1	33.8	-91.3	6.9
2025-01-28 18:01:09.492135	164.1	34.0	-90.5	4.2
2025-01-28 18:01:10.638891	164.2	34.3	-90.5	6.5
2025-01-28 18:01:11.794460	164.3	34.5	-90.5	4.3
2025-01-28 18:01:12.948283	164.3	34.8	-90.3	4.3
2025-01-28 18:01:14.099718	164.4	35.0	-91.3	9.0
2025-01-28 18:01:15.247445	164.5	35.3	-91.6	13.1
2025-01-28 18:01:16.405744	164.5	35.6	-91.2	12.0
2025-01-28 18:01:17.566551	164.6	35.8	-91.5	7.4
2025-01-28 18:01:18.720417	164.7	36.1	-91.6	4.8
2025-01-28 18:01:19.864900	164.8	36.3	-91.2	2.0
2025-01-28 18:01:21.017804	164.9	36.6	-91.5	1.1
2025-01-28 18:01:22.168873	164.9	36.9	-91.5	2.2
2025-01-28 18:01:23.320331	165.0	37.1	-91.3	4.7
2025-01-28 18:01:24.477616	165.1	37.4	-91.7	5.3
2025-01-28 18:01:25.640473	165.2	37.7	-91.7	8.0
2025-01-28 18:01:26.795954	165.3	38.0	-91.7	9.6
2025-01-28 18:01:27.947407	165.3	38.2	-91.4	5.0
2025-01-28 18:01:29.100108	165.4	38.5	-91.8	5.9
2025-01-28 18:01:30.259073	165.5	38.8	-91.2	4.6
2025-01-28 18:01:31.406677	165.6	39.1	-91.3	8.3
2025-01-28 18:01:32.559108	165.7	39.4	-91.1	8.6
2025-01-28 18:01:33.713638	165.8	39.7	-91.6	11.7
2025-01-28 18:01:34.867833	165.9	40.0	-91.6	8.4
2025-01-28 18:01:36.033582	166.0	40.3	-92.4	5.1
2025-01-28 18:01:37.191619	166.1	40.6	-92.7	5.5
2025-01-28 18:01:38.345608	166.2	40.9	-92.1	3.6
2025-01-28 18:01:39.495418	166.3	41.2	-91.7	1.7
2025-01-28 18:01:40.645227	166.4	41.5	-92.2	3.9
2025-01-28 18:01:41.795044	166.5	41.8	-92.6	4.4
2025-01-28 18:01:42.957439	166.6	42.1	-92.9	7.7
2025-01-28 18:01:44.107945	166.7	42.4	-92.7	11.3
2025-01-28 18:01:45.269341	166.8	42.7	-92.5	10.7
2025-01-28 18:01:46.419904	166.9	43.0	-92.3	11.9
2025-01-28 18:01:47.570924	167.0	43.3	-92.2	7.3
2025-01-28 18:01:48.722847	167.2	43.7	-92.4	7.9
2025-01-28 18:01:49.879036	167.3	44.0	-92.5	7.3
2025-01-28 18:01:51.025750	167.4	44.3	-92.7	8.8
2025-01-28 18:01:52.185422	167.5	44.6	-92.4	12.2
2025-01-28 18:01:53.338216	167.6	45.0	-92.4	9.0
2025-01-28 18:01:54.488107	167.8	45.3	-91.6	10.5
2025-01-28 18:01:55.651052	167.9	45.7	-92.4	7.8
2025-01-28 18:01:56.801579	168.0	46.0	-92.2	4.8
2025-01-28 18:01:57.967628	168.2	46.3	-92.5	4.0
2025-01-28 18:01:59.117148	168.3	46.7	-92.5	1.0
2025-01-28 18:02:00.269863	168.5	47.0	-92.6	3.8
2025-01-28 18:02:01.416050	168.6	47.4	-92.4	5.4
2025-01-28 18:02:02.572414	168.8	47.7	-92.2	8.7
2025-01-28 18:02:03.726105	168.9	48.1	-92.1	10.8
2025-01-28 18:02:04.876426	169.1	48.5	-92.6	6.3
2025-01-28 18:02:06.028857	169.2	48.8	-92.6	5.6
2025-01-28 18:02:07.184796	169.4	49.2	-92.4	5.7
2025-01-28 18:02:08.348779	169.6	49.6	-92.5	4.5
2025-01-28 18:02:09.500206	169.7	49.9	-92.5	5.1
2025-01-28 18:02:10.652265	169.9	50.3	-92.8	4.7
2025-01-28 18:02:11.807253	170.1	50.7	-92.7	7.5
2025-01-28 18:02:12.961218	170.3	51.0	-92.8	1.7
2025-01-28 18:02:14.120473	170.5	51.4	-91.2	3.8
2025-01-28 18:02:15.280713	170.7	51.8	-91.1	6.7
2025-01-28 18:02:16.432871	170.8	52.2	-91.1	7.2
2025-01-28 18:02:17.588643	171.1	52.6	-91.0	3.4
2025-01-28 18:02:18.740083	171.3	53.0	-92.3	4.2
2025-01-28 18:02:19.900762	171.5	53.4	-92.1	2.3
2025-01-28 18:02:21.051579	171.7	53.8	-92.3	2.1
2025-01-28 18:02:22.209017	171.9	54.2	-92.3	4.4
2025-01-28 18:02:23.359342	172.2	54.6	-91.8	2.7
2025-01-28 18:02:24.525898	172.4	55.0	-92.3	2.1
2025-01-28 18:02:25.673003	172.6	55.4	-92.1	6.1
2025-01-28 18:02:26.832860	172.9	55.8	-92.1	8.3
2025-01-28 18:02:27.985999	173.2	56.2	-92.3	10.5
2025-01-28 18:02:29.144122	173.4	56.6	-92.1	9.1
2025-01-28 18:02:30.293076	173.7	57.1	-92.3	7.2
2025-01-28 18:02:31.446912	174.0	57.5	-92.2	6.4
2025-01-28 18:02:32.602336	174.3	57.9	-92.3	2.8
2025-01-28 18:02:33.757435	174.6	58.3	-92.5	9.1
2025-01-28 18:02:34.913608	174.9	58.8	-92.5	8.3
2025-01-28 18:02:36.061067	175.2	59.2	-92.4	13.6
2025-01-28 18:02:37.211320	175.6	59.6	-92.3	17.8
2025-01-28 18:02:38.359537	175.9	60.1	-92.2	15.4
2025-01-28 18:02:39.519313	176.3	60.5	-92.3	11.3
2025-01-28 18:02:40.672458	176.6	60.9	-92.7	12.0
2025-01-28 18:02:41.823721	177.0	61.4	-92.4	7.8
2025-01-28 18:02:42.976502	177.4	61.8	-92.1	3.6
2025-01-28 18:02:44.138006	177.8	62.3	-92.3	6.5
2025-01-28 18:02:45.290945	178.2	62.7	-92.2	6.5
2025-01-28 18:02:46.442717	178.7	63.2	-92.0	4.3
2025-01-28 18:02:47.597706	179.1	63.6	-92.4	6.2
2025-01-28 18:02:48.748057	179.6	64.0	-92.6	6.7
2025-01-28 18:02:49.897629	180.1	64.5	-92.4	11.4
2025-01-28 18:02:51.047538	180.6	64.9	-92.3	13.0
2025-01-28 18:02:52.209658	181.1	65.4	-92.6	14.5
2025-01-28 18:02:53.360977	181.7	65.9	-92.6	10.5
2025-01-28 18:02:54.512547	182.3	66.3	-92.1	9.5
2025-01-28 18:02:55.664288	182.9	66.8	-92.4	14.1
2025-01-28 18:02:56.821771	183.5	67.2	-92.6	13.8
2025-01-28 18:02:57.974780	184.2	67.7	-92.0	8.6
2025-01-28 18:02:59.133219	184.9	68.1	-92.1	8.5
2025-01-28 18:03:00.282901	185.6	68.6	-92.0	9.2
2025-01-28 18:03:01.433662	186.3	69.0	-92.1	6.8
2025-01-28 18:03:02.590182	187.1	69.5	-92.4	3.3
2025-01-28 18:03:03.740670	187.9	69.9	-92.4	9.2
2025-01-28 18:03:04.902648	188.8	70.4	-92.5	10.2
2025-01-28 18:03:06.059557	189.7	70.8	-92.2	8.1
2025-01-28 18:03:07.212584	190.7	71.3	-92.5	14.4
2025-01-28 18:03:08.365728	191.7	71.7	-92.0	9.6
2025-01-28 18:03:09.524230	192.7	72.1	-92.0	15.0
2025-01-28 18:03:10.678207	193.8	72.6	-92.6	14.7
2025-01-28 18:03:11.840264	195.0	73.0	-92.3	13.9
2025-01-28 18:03:12.988895	196.2	73.4	-92.6	17.3
2025-01-28 18:03:14.157537	197.5	73.8	-92.5	12.4
2025-01-28 18:03:15.312199	198.9	74.2	-92.3	11.8
2025-01-28 18:03:16.462231	200.4	74.6	-92.8	4.2
2025-01-28 18:03:17.608607	201.9	75.0	-92.1	4.3
2025-01-28 18:03:18.761185	203.5	75.4	-92.5	8.1
2025-01-28 18:03:19.922442	205.2	75.8	-92.7	5.6
2025-01-28 18:03:21.069681	206.9	76.1	-92.7	3.3
2025-01-28 18:03:22.223641	208.8	76.5	-92.7	5.1
2025-01-28 18:03:23.378929	210.8	76.8	-92.5	9.3
2025-01-28 18:03:24.541465	212.9	77.1	-92.5	6.6
2025-01-28 18:03:25.695886	215.1	77.4	-92.3	9.3
2025-01-28 18:03:26.853461	217.4	77.7	-92.6	9.9
2025-01-28 18:03:28.009639	219.8	78.0	-92.3	11.7
2025-01-28 18:03:29.161933	222.3	78.2	-92.2	13.4
2025-01-28 18:03:30.316315	224.9	78.5	-92.2	16.9
2025-01-28 18:03:31.462449	227.6	78.6	-92.2	19.9
2025-01-28 18:03:32.619492	230.4	78.8	-92.5	19.5
2025-01-28 18:03:33.772054	233.3	79.0	-92.5	18.8
2025-01-28 18:03:34.925350	236.2	79.1	-92.3	18.7
2025-01-28 18:03:36.073313	239.2	79.2	-92.2	18.4
2025-01-28 18:03:37.229710	242.3	79.2	-92.2	20.3
2025-01-28 18:03:38.391630	245.3	79.2	-91.9	23.8
2025-01-28 18:03:39.545055	248.4	79.2	-91.9	20.9
2025-01-28 18:03:40.703706	251.5	79.2	-92.2	19.2
2025-01-28 18:03:41.859234	254.5	79.1	-92.5	16.8
2025-01-28 18:03:43.016363	257.5	79.1	-92.4	16.9
2025-01-28 18:03:44.163035	260.4	78.9	-92.4	18.0
2025-01-28 18:03:45.317272	263.3	78.8	-92.2	18.1
2025-01-28 18:03:46.472702	266.1	78.6	-92.1	15.0
2025-01-28 18:03:47.630856	268.8	78.4	-92.6	15.8
2025-01-28 18:03:48.791458	271.4	78.2	-92.8	16.5
2025-01-28 18:03:49.954950	273.9	77.9	-92.7	11.0
2025-01-28 18:03:51.110000	276.3	77.7	-92.1	11.9
2025-01-28 18:03:52.259565	278.5	77.4	-92.5	15.7
2025-01-28 18:03:53.416718	280.7	77.1	-92.3	12.2
2025-01-28 18:03:54.565360	282.8	76.8	-92.2	9.4
2025-01-28 18:03:55.714537	284.7	76.4	-92.5	15.2
2025-01-28 18:03:56.872133	286.6	76.1	-92.5	12.8
2025-01-28 18:03:58.028842	288.3	75.7	-92.2	6.8
2025-01-28 18:03:59.187693	290.0	75.3	-92.6	13.1
2025-01-28 18:04:00.334151	291.6	75.0	-92.1	13.3
2025-01-28 18:04:01.463167	293.1	74.6	-92.2	7.3
2025-01-28 18:04:02.596668	294.5	74.2	-92.1	6.8
2025-01-28 18:04:03.752421	295.8	73.8	-92.6	13.7
2025-01-28 18:04:04.907380	297.1	73.4	-92.4	7.6
2025-01-28 18:04:06.059853	298.3	72.9	-92.5	8.0
2025-01-28 18:04:07.216498	299.5	72.5	-92.3	13.6
2025-01-28 18:04:08.370114	300.6	72.1	-92.1	9.9
2025-01-28 18:04:09.518804	301.6	71.7	-92.4	6.6
2025-01-28 18:04:10.672188	302.6	71.2	-92.8	10.5
2025-01-28 18:04:11.830083	303.6	70.8	-92.9	9.9
2025-01-28 18:04:12.981371	304.5	70.3	-92.4	2.9
2025-01-28 18:04:14.135886	305.3	69.9	-92.5	6.6
2025-01-28 18:04:15.294599	306.1	69.4	-92.5	8.3
2025-01-28 18:04:16.452109	306.9	69.0	-92.3	5.6
2025-01-28 18:04:17.606520	307.7	68.5	-92.3	5.2
2025-01-28 18:04:18.770871	308.4	68.1	-92.5	5.2
2025-01-28 18:04:19.928433	309.1	67.6	-92.5	3.7
2025-01-28 18:04:21.084957	309.7	67.2	-92.2	2.4
2025-01-28 18:04:22.234647	310.4	66.7	-92.5	6.2
2025-01-28 18:04:23.385009	310.9	66.3	-92.9	5.8
2025-01-28 18:04:24.533331	311.5	65.8	-92.4	2.7
2025-01-28 18:04:25.680673	312.1	65.4	-92.5	3.3
2025-01-28 18:04:26.834727	312.6	64.9	-92.6	5.1
2025-01-28 18:04:27.988502	313.1	64.5	-92.8	3.8
2025-01-28 18:04:29.141911	313.6	64.0	-92.6	2.9
2025-01-28 18:04:30.292563	314.1	63.6	-92.9	8.5
2025-01-28 18:04:31.442845	314.5	63.1	-92.3	4.2
2025-01-28 18:04:32.604186	315.0	62.7	-92.4	4.3
2025-01-28 18:04:33.766275	315.4	62.2	-92.6	8.0
2025-01-28 18:04:34.916200	315.8	61.8	-92.4	5.4
2025-01-28 18:04:36.074498	316.2	61.4	-92.2	9.3
2025-01-28 18:04:37.232124	316.6	60.9	-92.2	13.5
2025-01-28 18:04:38.388669	316.9	60.5	-92.0	12.5
2025-01-28 18:04:39.536161	317.3	60.0	-92.7	14.1
2025-01-28 18:04:40.687041	317.6	59.6	-92.6	17.4
2025-01-28 18:04:41.841479	318.0	59.2	-92.3	17.0
2025-01-28 18:04:43.002472	318.3	58.7	-92.6	15.9
2025-01-28 18:04:44.159319	318.6	58.3	-92.4	16.4
2025-01-28 18:04:45.312385	318.9	57.9	-92.5	18.6
2025-01-28 18:04:46.476496	319.2	57.5	-92.4	14.4
2025-01-28 18:04:47.631783	319.5	57.1	-92.4	14.4
2025-01-28 18:04:48.787501	319.7	56.6	-92.5	17.2
2025-01-28 18:04:49.942998	320.0	56.2	-92.0	15.1
2025-01-28 18:04:51.107209	320.3	55.8	-92.5	16.6
2025-01-28 18:04:52.260473	320.5	55.4	-92.8	13.9
2025-01-28 18:04:53.423036	320.8	55.0	-92.7	9.3
2025-01-28 18:04:54.578206	321.0	54.6	-92.6	8.0
2025-01-28 18:04:55.733691	321.2	54.2	-92.6	9.5
2025-01-28 18:04:56.892811	321.5	53.8	-92.8	8.6
2025-01-28 18:04:58.050075	321.7	53.4	-92.8	4.1
2025-01-28 18:04:59.214279	321.9	53.0	-92.5	5.8
2025-01-28 18:05:00.359236	322.1	52.6	-92.7	9.0
2025-01-28 18:05:01.505623	322.3	52.2	-92.3	4.8
2025-01-28 18:05:02.660190	322.5	51.8	-92.7	4.8
2025-01-28 18:05:03.815391	322.7	51.5	-92.7	9.3
2025-01-28 18:05:04.976756	322.9	51.1	-92.6	6.3
2025-01-28 18:05:06.130734	323.1	50.7	-92.9	6.6
2025-01-28 18:05:07.278893	323.3	50.3	-92.6	11.8
2025-01-28 18:05:08.420134	323.4	50.0	-92.1	7.8
2025-01-28 18:05:09.571908	323.6	49.6	-91.4	7.4
2025-01-28 18:05:10.718635	323.8	49.2	-91.9	11.0
2025-01-28 18:05:11.868563	323.9	48.9	-91.2	11.9
2025-01-28 18:05:13.024462	324.1	48.5	-92.5	12.6
2025-01-28 18:05:14.182676	324.2	48.1	-92.5	10.3
2025-01-28 18:05:15.341688	324.4	47.8	-92.1	9.1
2025-01-28 18:05:16.496779	324.5	47.4	-92.3	9.8
2025-01-28 18:05:17.653045	324.7	47.1	-92.7	11.6
2025-01-28 18:05:18.802864	324.8	46.7	-92.6	10.8
2025-01-28 18:05:19.951833	325.0	46.4	-92.0	6.1
2025-01-28 18:05:21.106693	325.1	46.1	-92.4	8.3
2025-01-28 18:05:22.262980	325.2	45.7	-92.5	8.5
2025-01-28 18:05:23.419285	325.4	45.4	-92.1	4.6
2025-01-28 18:05:24.570887	325.5	45.1	-92.5	3.7
2025-01-28 18:05:25.732892	325.6	44.7	-92.7	8.2
2025-01-28 18:05:26.887207	325.8	44.4	-92.5	6.7
2025-01-28 18:05:28.042154	325.9	44.1	-92.5	4.4
2025-01-28 18:05:29.210111	326.0	43.7	-92.3	10.0
2025-01-28 18:05:30.366807	326.1	43.4	-92.2	12.2
2025-01-28 18:05:31.516378	326.2	43.1	-92.6	11.5
2025-01-28 18:05:32.671155	326.3	42.8	-92.8	15.6
2025-01-28 18:05:33.822624	326.5	42.5	-92.9	17.5
2025-01-28 18:05:34.980427	326.6	42.2	-93.0	16.9
2025-01-28 18:05:36.134731	326.7	41.9	-92.5	16.6
2025-01-28 18:05:37.295789	326.8	41.5	-92.1	16.1
2025-01-28 18:05:38.449399	326.9	41.2	-92.0	16.2
2025-01-28 18:05:39.604361	327.0	40.9	-92.2	14.5
2025-01-28 18:05:40.768055	327.1	40.6	-92.3	13.0
2025-01-28 18:05:41.921305	327.2	40.4	-92.6	8.5
2025-01-28 18:05:43.077077	327.3	40.1	-92.4	6.2
2025-01-28 18:05:44.236277	327.4	39.8	-92.6	9.6
2025-01-28 18:05:45.395012	327.5	39.5	-92.3	9.4
2025-01-28 18:05:46.559024	327.5	39.2	-92.6	5.2
2025-01-28 18:05:47.706655	327.6	38.9	-92.9	7.9
2025-01-28 18:05:48.862582	327.7	38.6	-93.0	7.6
2025-01-28 18:05:50.007594	327.8	38.3	-92.5	7.0
2025-01-28 18:05:51.160274	327.9	38.1	-92.5	11.4
2025-01-28 18:05:52.303472	328.0	37.8	-92.5	13.9
2025-01-28 18:05:53.445714	328.1	37.5	-92.2	11.1
2025-01-28 18:05:54.601999	328.1	37.3	-92.3	11.5
2025-01-28 18:05:55.759114	328.2	37.0	-92.8	7.9
2025-01-28 18:05:56.915445	328.3	36.7	-92.3	11.2
2025-01-28 18:05:58.064173	328.4	36.5	-91.9	6.9
2025-01-28 18:05:59.222248	328.5	36.2	-92.6	8.2
2025-01-28 18:06:00.376658	328.5	35.9	-92.4	6.5
2025-01-28 18:06:01.531663	328.6	35.7	-92.1	3.3
2025-01-28 18:06:02.682473	328.7	35.4	-92.6	6.3
2025-01-28 18:06:03.834282	328.7	35.2	-92.6	7.1
2025-01-28 18:06:04.984270	328.8	34.9	-92.7	5.3
2025-01-28 18:06:06.130203	328.9	34.7	-92.8	7.6
2025-01-28 18:06:07.280364	329.0	34.4	-92.1	8.2
2025-01-28 18:06:08.431665	329.0	34.2	-92.0	9.3
2025-01-28 18:06:09.587885	329.1	33.9	-91.8	11.4
2025-01-28 18:06:10.747944	329.2	33.7	-92.6	15.0
2025-01-28 18:06:11.902830	329.2	33.4	-92.5	15.1
2025-01-28 18:06:13.055228	329.3	33.2	-91.7	11.2
2025-01-28 18:06:14.212251	329.4	33.0	-92.0	10.0
2025-01-28 18:06:15.370521	329.4	32.7	-91.2	9.5
2025-01-28 18:06:16.527547	329.5	32.5	-91.1	5.2
2025-01-28 18:06:17.679984	329.5	32.3	-92.7	8.4
2025-01-28 18:06:18.832125	329.6	32.0	-92.4	8.1
2025-01-28 18:06:19.981174	329.7	31.8	-92.4	5.5
2025-01-28 18:06:21.142532	329.7	31.6	-92.3	7.4
2025-01-28 18:06:22.294030	329.8	31.4	-92.2	9.2
2025-01-28 18:06:23.450724	329.8	31.1	-92.5	9.6
2025-01-28 18:06:24.599120	329.9	30.9	-92.3	11.1
2025-01-28 18:06:25.747321	329.9	30.7	-92.8	11.3
2025-01-28 18:06:26.905938	330.0	30.5	-92.2	7.6
2025-01-28 18:06:28.066282	330.1	30.3	-92.4	10.1
2025-01-28 18:06:29.223924	330.1	30.0	-92.3	8.5
2025-01-28 18:06:30.377413	330.2	29.8	-92.2	9.5
2025-01-28 18:06:31.530599	330.2	29.6	-92.7	5.8
2025-01-28 18:06:32.678374	330.3	29.4	-92.5	6.6
2025-01-28 18:06:33.831510	330.3	29.2	-92.7	4.2
2025-01-28 18:06:34.974257	330.4	29.0	-92.2	1.3
2025-01-28 18:06:36.108784	330.4	28.8	-92.4	4.6
2025-01-28 18:06:37.255458	330.5	28.6	-92.4	5.2
2025-01-28 18:06:38.415317	330.5	28.4	-92.3	6.0
2025-01-28 18:06:39.567942	330.6	28.2	-92.1	4.6
2025-01-28 18:06:40.715334	330.6	28.0	-92.7	9.0
2025-01-28 18:06:41.869967	330.7	27.8	-92.1	9.4
2025-01-28 18:06:43.018174	330.7	27.6	-92.4	8.0
2025-01-28 18:06:44.163409	330.7	27.4	-92.6	8.6
2025-01-28 18:06:45.318651	330.8	27.2	-92.4	7.1
2025-01-28 18:06:46.474132	330.8	27.0	-92.1	4.1
2025-01-28 18:06:47.631621	330.9	26.8	-92.6	7.2
2025-01-28 18:06:48.781565	330.9	26.6	-92.2	5.8
2025-01-28 18:06:49.937067	331.0	26.4	-92.2	4.7
2025-01-28 18:06:51.091217	331.0	26.2	-92.4	5.8
2025-01-28 18:06:52.241777	331.1	26.1	-92.0	11.5
2025-01-28 18:06:53.393597	331.1	25.9	-92.0	7.0
2025-01-28 18:06:54.541106	331.1	25.7	-92.1	13.4
2025-01-28 18:06:55.691704	331.2	25.5	-91.9	13.2
2025-01-28 18:06:56.840771	331.2	25.3	-92.3	12.4
2025-01-28 18:06:57.994085	331.3	25.2	-92.4	11.7
2025-01-28 18:06:59.140071	331.3	25.0	-92.3	8.3
2025-01-28 18:07:00.295508	331.3	24.8	-92.0	8.3
2025-01-28 18:07:01.446943	331.4	24.6	-92.2	4.8
2025-01-28 18:07:02.600204	331.4	24.4	-92.1	3.9
2025-01-28 18:07:03.749300	331.5	24.3	-92.5	5.2
2025-01-28 18:07:04.904260	331.5	24.1	-92.3	4.6
2025-01-28 18:07:06.051767	331.5	23.9	-92.4	3.7
2025-01-28 18:07:07.208640	331.6	23.8	-92.2	7.3
2025-01-28 18:07:08.367018	331.6	23.6	-92.1	9.2
2025-01-28 18:07:09.513030	331.7	23.4	-92.4	7.0
2025-01-28 18:07:10.672544	331.7	23.2	-92.7	6.6
2025-01-28 18:07:11.824037	331.7	23.1	-92.6	12.6
2025-01-28 18:07:12.974783	331.8	22.9	-92.3	13.7
2025-01-28 18:07:14.129608	331.8	22.8	-92.0	11.6
2025-01-28 18:07:15.288203	331.8	22.6	-92.0	7.0
2025-01-28 18:07:16.442908	331.9	22.4	-92.2	5.1
2025-01-28 18:07:17.595023	331.9	22.3	-92.1	4.6
2025-01-28 18:07:18.746829	331.9	22.1	-92.6	8.1
2025-01-28 18:07:19.897864	332.0	21.9	-92.6	3.7
2025-01-28 18:07:21.054256	332.0	21.8	-92.7	7.4
2025-01-28 18:07:22.208691	332.0	21.6	-92.4	11.6
2025-01-28 18:07:23.353831	332.1	21.5	-92.4	13.1
2025-01-28 18:07:24.524864	332.1	21.3	-92.4	5.0
2025-01-28 18:07:25.679023	332.1	21.2	-92.6	8.1
2025-01-28 18:07:26.835322	332.2	21.0	-92.5	5.4
2025-01-28 18:07:27.987312	332.2	20.9	-92.8	5.7
2025-01-28 18:07:29.146942	332.2	20.7	-92.7	4.2
2025-01-28 18:07:30.297965	332.3	20.5	-92.4	2.2
2025-01-28 18:07:31.447544	332.3	20.4	-92.0	2.0
2025-01-28 18:07:32.597852	332.3	20.3	-92.0	0.0
2025-01-28 18:07:33.752603	332.4	20.1	-92.2	2.4
2025-01-28 18:07:34.906654	332.4	20.0	-92.4	3.2
2025-01-28 18:07:36.060626	332.4	19.8	-92.3	1.0
2025-01-28 18:07:37.214091	332.5	19.7	-92.4	2.0
2025-01-28 18:07:38.369823	332.5	19.5	-92.3	2.5
2025-01-28 18:07:39.522131	332.5	19.4	-91.8	2.3
2025-01-28 18:07:40.662968	332.5	19.2	-92.7	2.5
2025-01-28 18:07:41.800148	332.6	19.1	-92.0	3.0
2025-01-28 18:07:42.919477	332.6	19.0	-92.9	1.6
2025-01-28 18:07:44.040475	332.6	18.8	-92.6	2.0
2025-01-28 18:07:45.160101	332.7	18.7	-92.6	1.5
2025-01-28 18:07:46.287792	332.7	18.5	-92.6	2.1
2025-01-28 18:07:47.408568	332.7	18.4	-92.6	0.8
2025-01-28 18:07:48.529484	332.7	18.3	-92.7	3.5
2025-01-28 18:07:49.649732	332.8	18.1	-92.4	1.5
2025-01-28 18:07:50.774237	332.8	18.0	-92.8	0.5
2025-01-28 18:07:51.893083	332.8	17.9	-92.7	2.3
2025-01-28 18:07:53.042003	332.8	17.7	-91.8	2.8
2025-01-28 18:07:54.202951	332.9	17.6	-91.9	0.5
2025-01-28 18:07:55.353591	332.9	17.5	-91.5	0.4
2025-01-28 18:07:56.509852	332.9	17.3	-91.7	2.0
2025-01-28 18:07:57.664081	333.0	17.2	-92.9	1.5
2025-01-28 18:07:58.821753	333.0	17.1	-92.5	1.1
2025-01-28 18:07:59.972411	333.0	16.9	-92.3	1.0
2025-01-28 18:08:01.117047	333.0	16.8	-92.5	1.9
2025-01-28 18:08:02.270959	333.1	16.7	-92.8	1.1
2025-01-28 18:08:03.422343	333.1	16.6	-92.8	1.7
2025-01-28 18:08:04.578157	333.1	16.4	-92.8	1.2
2025-01-28 18:08:05.726339	333.1	16.3	-92.8	1.2
2025-01-28 18:08:06.890111	333.2	16.2	-92.3	4.9
2025-01-28 18:08:08.042970	333.2	16.1	-93.1	4.3
2025-01-28 18:08:09.201878	333.2	15.9	-93.0	3.4
2025-01-28 18:08:10.355086	333.2	15.8	-92.4	2.0
2025-01-28 18:08:11.612826	333.3	15.7	-92.7	1.2
2025-01-28 18:08:12.755873	333.3	15.5	-93.1	4.6
2025-01-28 18:08:13.921127	333.3	15.4	-92.9	4.7
2025-01-28 18:08:15.073300	333.3	15.3	-92.6	3.3
2025-01-28 18:08:16.238375	333.4	15.2	-92.7	3.1
2025-01-28 18:08:17.394430	333.4	15.1	-92.7	3.3
2025-01-28 18:08:18.542971	333.4	14.9	-92.4	3.4
2025-01-28 18:08:19.710203	333.4	14.8	-92.2	4.7
2025-01-28 18:08:20.863725	333.4	14.7	-92.5	4.4
2025-01-28 18:08:22.018096	333.5	14.6	-92.2	2.7
2025-01-28 18:08:23.177796	333.5	14.5	-92.7	2.8
#Closed at: 2025-01-28 17:59:07.279046