passes_logs/2025/01/28/LEX_Murmansk/LEX_Murmansk__20250128_200228_NOAA_18_rec.log

#Pass ID: 20250128_200228_NOAA 18
#Satellite: NOAA 18
#Configuration: NOAA 18
#Start time: 2025-01-28 20:02:23.635067

#LorettStation: 1.0.0 05.05.2024
#Station: LEX_Murmansk
#Location: 33.156738 lon 68.926811 lat
#TLE: 1 28654U 05018A   25028.04589186  .00000422  00000+0  24750-3 0  9995
#TLE: 2 28654  98.8546 108.9697 0014880 143.3316 216.8878 14.13499339 15023

#Time	Az	El	Level	SNR
2025-01-28 20:02:35.848949	189.5	16.2	-92.5	6.3
2025-01-28 20:02:37.002632	189.6	16.3	-92.3	6.4
2025-01-28 20:02:38.146715	189.7	16.5	-92.0	9.3
2025-01-28 20:02:39.294086	189.8	16.6	-92.2	8.9
2025-01-28 20:02:40.440936	189.9	16.7	-92.3	4.5
2025-01-28 20:02:41.595322	190.0	16.8	-92.4	12.8
2025-01-28 20:02:42.748416	190.1	16.9	-92.6	5.6
2025-01-28 20:02:43.896545	190.2	17.1	-92.6	11.1
2025-01-28 20:02:45.047454	190.3	17.2	-92.2	6.7
2025-01-28 20:02:46.190110	190.4	17.3	-92.2	11.0
2025-01-28 20:02:47.341006	190.5	17.4	-92.6	3.8
2025-01-28 20:02:48.485610	190.6	17.5	-92.5	7.5
2025-01-28 20:02:49.613152	190.7	17.7	-92.7	5.3
2025-01-28 20:02:50.733092	190.8	17.8	-92.8	4.4
2025-01-28 20:02:51.854006	190.9	17.9	-92.5	4.1
2025-01-28 20:02:52.974818	191.0	18.0	-92.5	4.9
2025-01-28 20:02:54.094780	191.1	18.1	-90.4	4.9
2025-01-28 20:02:55.216459	191.2	18.3	-90.3	5.4
2025-01-28 20:02:56.337864	191.3	18.4	-90.9	4.7
2025-01-28 20:02:57.458336	191.4	18.5	-91.5	6.5
2025-01-28 20:02:58.582639	191.5	18.6	-92.6	9.9
2025-01-28 20:02:59.717039	191.7	18.8	-92.2	9.6
2025-01-28 20:03:00.852096	191.8	18.9	-92.6	9.4
2025-01-28 20:03:01.996397	191.9	19.0	-92.2	8.1
2025-01-28 20:03:03.146611	192.0	19.2	-92.1	11.3
2025-01-28 20:03:04.293064	192.1	19.3	-92.3	13.5
2025-01-28 20:03:05.430546	192.2	19.4	-92.5	9.0
2025-01-28 20:03:06.586989	192.4	19.5	-92.5	6.9
2025-01-28 20:03:07.735796	192.5	19.7	-92.5	8.8
2025-01-28 20:03:08.882198	192.6	19.8	-92.4	5.9
2025-01-28 20:03:10.043821	192.7	19.9	-92.3	4.4
2025-01-28 20:03:11.199253	192.8	20.1	-91.5	9.8
2025-01-28 20:03:12.348877	193.0	20.2	-91.9	9.1
2025-01-28 20:03:13.497308	193.1	20.3	-92.5	12.6
2025-01-28 20:03:14.651979	193.2	20.5	-92.9	11.3
2025-01-28 20:03:15.799034	193.3	20.6	-92.5	13.3
2025-01-28 20:03:16.943893	193.5	20.8	-92.7	9.1
2025-01-28 20:03:18.095006	193.6	20.9	-92.5	10.1
2025-01-28 20:03:19.240570	193.7	21.0	-92.0	13.2
2025-01-28 20:03:20.390087	193.9	21.2	-92.4	11.8
2025-01-28 20:03:21.533337	194.0	21.3	-92.4	13.9
2025-01-28 20:03:22.684678	194.1	21.4	-92.2	10.0
2025-01-28 20:03:23.837734	194.3	21.6	-92.5	8.5
2025-01-28 20:03:24.990079	194.4	21.7	-92.2	6.8
2025-01-28 20:03:26.140718	194.5	21.9	-91.7	15.0
2025-01-28 20:03:27.287377	194.7	22.0	-91.9	13.5
2025-01-28 20:03:28.441082	194.8	22.2	-92.3	5.5
2025-01-28 20:03:29.587811	194.9	22.3	-92.5	6.9
2025-01-28 20:03:30.740922	195.1	22.4	-92.8	10.0
2025-01-28 20:03:31.889474	195.2	22.6	-92.7	9.6
2025-01-28 20:03:33.041660	195.4	22.7	-92.4	12.4
2025-01-28 20:03:34.198718	195.5	22.9	-92.4	11.0
2025-01-28 20:03:35.352698	195.7	23.0	-92.6	9.9
2025-01-28 20:03:36.499080	195.8	23.2	-92.6	9.7
2025-01-28 20:03:37.646617	196.0	23.3	-92.7	13.9
2025-01-28 20:03:38.799532	196.1	23.5	-92.9	15.3
2025-01-28 20:03:39.949576	196.3	23.6	-92.4	13.4
2025-01-28 20:03:41.101235	196.4	23.8	-92.2	13.9
2025-01-28 20:03:42.245291	196.6	23.9	-92.2	11.5
2025-01-28 20:03:43.396252	196.7	24.1	-92.8	7.5
2025-01-28 20:03:44.546634	196.9	24.2	-92.8	5.8
2025-01-28 20:03:45.695041	197.1	24.4	-92.6	11.1
2025-01-28 20:03:46.850341	197.2	24.5	-92.8	11.4
2025-01-28 20:03:48.000234	197.4	24.7	-92.4	11.0
2025-01-28 20:03:49.152766	197.5	24.8	-92.2	13.5
2025-01-28 20:03:50.298005	197.7	25.0	-91.9	9.4
2025-01-28 20:03:51.455646	197.9	25.1	-92.6	12.0
2025-01-28 20:03:52.603253	198.1	25.3	-92.5	10.0
2025-01-28 20:03:53.754641	198.2	25.5	-92.7	11.7
2025-01-28 20:03:54.902870	198.4	25.6	-92.8	10.6
2025-01-28 20:03:56.054843	198.6	25.8	-92.6	7.5
2025-01-28 20:03:57.205104	198.7	25.9	-92.6	7.4
2025-01-28 20:03:58.350832	198.9	26.1	-90.9	11.3
2025-01-28 20:03:59.499725	199.1	26.3	-90.8	10.4
2025-01-28 20:04:00.635245	199.3	26.4	-91.1	13.1
2025-01-28 20:04:01.766136	199.5	26.6	-92.2	12.5
2025-01-28 20:04:02.902939	199.6	26.7	-92.3	5.6
2025-01-28 20:04:04.052468	199.8	26.9	-92.5	7.0
2025-01-28 20:04:05.204000	200.0	27.1	-92.3	13.0
2025-01-28 20:04:06.351596	200.2	27.2	-92.4	11.0
2025-01-28 20:04:07.503588	200.4	27.4	-92.6	14.2
2025-01-28 20:04:08.652733	200.6	27.6	-92.5	11.9
2025-01-28 20:04:09.801724	200.8	27.7	-92.7	10.1
2025-01-28 20:04:10.942453	201.0	27.9	-93.1	7.8
2025-01-28 20:04:12.063045	201.2	28.1	-92.6	10.6
2025-01-28 20:04:13.184298	201.4	28.2	-92.5	11.4
2025-01-28 20:04:14.304072	201.6	28.4	-92.3	10.7
2025-01-28 20:04:15.425418	201.8	28.5	-92.9	12.6
2025-01-28 20:04:16.545252	202.0	28.7	-92.5	10.0
2025-01-28 20:04:17.664988	202.2	28.9	-92.6	9.7
2025-01-28 20:04:18.787585	202.4	29.0	-92.6	8.9
2025-01-28 20:04:19.907728	202.6	29.2	-92.5	8.4
2025-01-28 20:04:21.028562	202.8	29.4	-92.4	4.9
2025-01-28 20:04:22.166851	203.0	29.6	-92.4	8.0
2025-01-28 20:04:23.317114	203.2	29.7	-92.5	8.3
2025-01-28 20:04:24.463857	203.5	29.9	-92.4	6.1
2025-01-28 20:04:25.611830	203.7	30.1	-92.5	7.3
2025-01-28 20:04:26.750476	203.9	30.2	-92.7	4.1
2025-01-28 20:04:27.898991	204.2	30.4	-92.5	5.1
2025-01-28 20:04:29.048111	204.4	30.6	-92.3	6.5
2025-01-28 20:04:30.195654	204.6	30.8	-92.0	4.7
2025-01-28 20:04:31.346192	204.9	31.0	-92.3	8.0
2025-01-28 20:04:32.496177	205.1	31.1	-92.2	6.3
2025-01-28 20:04:33.649464	205.3	31.3	-92.3	7.0
2025-01-28 20:04:34.796347	205.6	31.5	-92.7	4.5
2025-01-28 20:04:35.949153	205.8	31.7	-92.8	5.0
2025-01-28 20:04:37.097927	206.1	31.9	-91.9	4.8
2025-01-28 20:04:38.243088	206.3	32.0	-92.4	5.7
2025-01-28 20:04:39.394896	206.6	32.2	-92.6	3.2
2025-01-28 20:04:40.538349	206.9	32.4	-92.5	4.7
2025-01-28 20:04:41.692362	207.1	32.6	-92.6	10.3
2025-01-28 20:04:42.840448	207.4	32.8	-92.6	6.9
2025-01-28 20:04:43.988861	207.7	32.9	-92.9	3.5
2025-01-28 20:04:45.138144	207.9	33.1	-92.2	5.6
2025-01-28 20:04:46.287188	208.2	33.3	-92.2	6.9
2025-01-28 20:04:47.435146	208.5	33.5	-92.8	13.8
2025-01-28 20:04:48.581585	208.8	33.7	-92.8	9.7
2025-01-28 20:04:49.725034	209.0	33.9	-92.5	7.8
2025-01-28 20:04:50.870767	209.3	34.0	-92.8	7.7
2025-01-28 20:04:52.021276	209.6	34.2	-92.7	8.2
2025-01-28 20:04:53.176198	209.9	34.4	-92.2	9.4
2025-01-28 20:04:54.323749	210.2	34.6	-91.9	8.4
2025-01-28 20:04:55.471188	210.5	34.8	-92.4	5.7
2025-01-28 20:04:56.620953	210.8	35.0	-92.8	8.9
2025-01-28 20:04:57.770943	211.1	35.2	-92.2	10.7
2025-01-28 20:04:58.918610	211.4	35.4	-92.8	7.6
2025-01-28 20:05:00.066124	211.7	35.5	-92.2	8.4
2025-01-28 20:05:01.203122	212.0	35.7	-92.0	5.7
2025-01-28 20:05:02.352968	212.4	35.9	-90.8	3.3
2025-01-28 20:05:03.498386	212.7	36.1	-91.3	4.4
2025-01-28 20:05:04.657215	213.0	36.3	-91.0	7.1
2025-01-28 20:05:05.803754	213.3	36.5	-90.6	13.4
2025-01-28 20:05:06.959050	213.7	36.7	-92.7	6.7
2025-01-28 20:05:08.107047	214.0	36.9	-92.5	7.4
2025-01-28 20:05:09.252654	214.4	37.0	-92.4	12.7
2025-01-28 20:05:10.404898	214.7	37.2	-92.2	7.2
2025-01-28 20:05:11.552813	215.1	37.4	-92.9	8.6
2025-01-28 20:05:12.689309	215.4	37.6	-92.7	8.9
2025-01-28 20:05:13.835532	215.8	37.8	-92.8	6.5
2025-01-28 20:05:14.987958	216.1	38.0	-92.7	10.3
2025-01-28 20:05:16.137217	216.5	38.2	-92.4	6.7
2025-01-28 20:05:17.290542	216.9	38.4	-92.2	6.2
2025-01-28 20:05:18.437128	217.2	38.5	-92.5	7.8
2025-01-28 20:05:19.585479	217.6	38.7	-93.0	8.1
2025-01-28 20:05:20.735559	218.0	38.9	-92.9	14.8
2025-01-28 20:05:21.879748	218.4	39.1	-92.7	15.8
2025-01-28 20:05:23.029041	218.8	39.3	-92.4	14.0
2025-01-28 20:05:24.178417	219.2	39.5	-92.1	6.9
2025-01-28 20:05:25.325762	219.6	39.6	-92.3	7.9
2025-01-28 20:05:26.476802	220.0	39.8	-92.4	10.6
2025-01-28 20:05:27.631073	220.4	40.0	-92.5	6.4
2025-01-28 20:05:28.782077	220.8	40.2	-92.8	8.6
2025-01-28 20:05:29.929015	221.2	40.4	-93.0	4.7
2025-01-28 20:05:31.083049	221.7	40.6	-92.0	3.8
2025-01-28 20:05:32.233868	222.1	40.7	-92.6	6.4
2025-01-28 20:05:33.384212	222.5	40.9	-92.6	14.1
2025-01-28 20:05:34.537750	223.0	41.1	-92.9	6.9
2025-01-28 20:05:35.685505	223.4	41.3	-93.1	11.2
2025-01-28 20:05:36.841117	223.9	41.4	-93.1	3.9
2025-01-28 20:05:37.990757	224.3	41.6	-92.5	6.7
2025-01-28 20:05:39.136942	224.8	41.8	-92.6	6.0
2025-01-28 20:05:40.285462	225.2	42.0	-92.6	5.6
2025-01-28 20:05:41.434668	225.7	42.1	-92.5	5.0
2025-01-28 20:05:42.590626	226.2	42.3	-92.7	8.8
2025-01-28 20:05:43.738882	226.6	42.5	-92.9	7.2
2025-01-28 20:05:44.883706	227.1	42.6	-93.4	3.2
2025-01-28 20:05:46.030302	227.6	42.8	-92.6	5.9
2025-01-28 20:05:47.179086	228.1	43.0	-92.2	5.2
2025-01-28 20:05:48.331873	228.6	43.1	-92.3	3.2
2025-01-28 20:05:49.479097	229.1	43.3	-92.8	5.4
2025-01-28 20:05:50.624856	229.6	43.4	-92.7	11.6
2025-01-28 20:05:51.769994	230.1	43.6	-92.6	6.9
2025-01-28 20:05:52.923559	230.6	43.8	-92.9	6.3
2025-01-28 20:05:54.071679	231.2	43.9	-92.2	4.6
2025-01-28 20:05:55.224173	231.7	44.1	-92.4	8.9
2025-01-28 20:05:56.375184	232.2	44.2	-92.5	2.5
2025-01-28 20:05:57.523334	232.7	44.4	-92.9	1.1
2025-01-28 20:05:58.673837	233.3	44.5	-92.2	3.9
2025-01-28 20:05:59.820896	233.8	44.6	-92.6	8.8
2025-01-28 20:06:00.969043	234.4	44.8	-92.9	7.1
2025-01-28 20:06:02.112913	234.9	44.9	-92.0	13.6
2025-01-28 20:06:03.261748	235.5	45.1	-92.4	16.0
2025-01-28 20:06:04.409026	236.1	45.2	-92.8	9.6
2025-01-28 20:06:05.552367	236.6	45.3	-92.6	18.7
2025-01-28 20:06:06.699701	237.2	45.4	-91.5	15.9
2025-01-28 20:06:07.847776	237.8	45.6	-91.2	12.8
2025-01-28 20:06:08.995393	238.4	45.7	-91.5	12.4
2025-01-28 20:06:10.147475	238.9	45.8	-90.9	14.6
2025-01-28 20:06:11.294952	239.5	45.9	-92.2	10.3
2025-01-28 20:06:12.442802	240.1	46.0	-92.9	12.2
2025-01-28 20:06:13.592369	240.7	46.1	-92.8	15.0
2025-01-28 20:06:14.739118	241.3	46.3	-92.1	13.3
2025-01-28 20:06:15.894400	241.9	46.4	-92.6	7.2
2025-01-28 20:06:17.047543	242.6	46.5	-92.1	12.8
2025-01-28 20:06:18.198989	243.2	46.6	-92.6	23.4
2025-01-28 20:06:19.347393	243.8	46.7	-92.4	6.4
2025-01-28 20:06:20.502136	244.4	46.7	-92.8	17.4
2025-01-28 20:06:21.647609	245.0	46.8	-92.9	16.1
2025-01-28 20:06:22.783673	245.7	46.9	-92.5	15.0
2025-01-28 20:06:23.931375	246.3	47.0	-92.6	18.8
2025-01-28 20:06:25.051640	246.9	47.1	-92.2	19.2
2025-01-28 20:06:26.172146	247.5	47.1	-92.5	19.3
2025-01-28 20:06:27.292584	248.2	47.2	-92.2	16.5
2025-01-28 20:06:28.412645	248.8	47.3	-92.7	17.0
2025-01-28 20:06:29.533134	249.4	47.3	-92.5	23.9
2025-01-28 20:06:30.654157	250.1	47.4	-92.9	20.7
2025-01-28 20:06:31.774153	250.7	47.4	-92.5	23.4
2025-01-28 20:06:32.894301	251.3	47.5	-92.7	17.3
2025-01-28 20:06:34.016381	252.0	47.5	-93.0	16.0
2025-01-28 20:06:35.157960	252.6	47.6	-92.6	19.6
2025-01-28 20:06:36.301463	253.3	47.6	-92.4	17.2
2025-01-28 20:06:37.452968	253.9	47.6	-92.7	10.8
2025-01-28 20:06:38.606074	254.6	47.7	-92.9	14.6
2025-01-28 20:06:39.748184	255.3	47.7	-92.4	18.7
2025-01-28 20:06:40.895270	255.9	47.7	-93.0	9.2
2025-01-28 20:06:42.046290	256.6	47.7	-92.8	12.5
2025-01-28 20:06:43.193402	257.3	47.8	-92.2	25.7
2025-01-28 20:06:44.339672	257.9	47.8	-92.5	9.5
2025-01-28 20:06:45.490276	258.6	47.8	-92.7	8.8
2025-01-28 20:06:46.643716	259.3	47.8	-92.9	20.8
2025-01-28 20:06:47.793114	259.9	47.8	-92.7	20.6
2025-01-28 20:06:48.941074	260.6	47.8	-92.5	14.0
2025-01-28 20:06:50.088639	261.3	47.8	-92.3	22.6
2025-01-28 20:06:51.232806	261.9	47.7	-92.5	19.4
2025-01-28 20:06:52.380308	262.6	47.7	-92.0	19.8
2025-01-28 20:06:53.527948	263.3	47.7	-92.3	24.6
2025-01-28 20:06:54.682026	263.9	47.7	-92.5	23.1
2025-01-28 20:06:55.833132	264.6	47.6	-92.8	8.5
2025-01-28 20:06:56.987432	265.2	47.6	-92.4	6.1
2025-01-28 20:06:58.132708	265.9	47.6	-92.4	9.9
2025-01-28 20:06:59.279735	266.6	47.5	-92.2	25.0
2025-01-28 20:07:00.418986	267.2	47.5	-92.7	25.2
2025-01-28 20:07:01.560371	267.9	47.4	-92.9	17.8
2025-01-28 20:07:02.706610	268.5	47.4	-92.9	18.6
2025-01-28 20:07:03.857474	269.2	47.3	-92.9	20.9
2025-01-28 20:07:05.014479	269.8	47.3	-92.6	27.8
2025-01-28 20:07:06.164501	270.5	47.2	-92.4	9.4
2025-01-28 20:07:07.312102	271.1	47.1	-92.4	11.9
2025-01-28 20:07:08.463316	271.7	47.0	-92.7	13.9
2025-01-28 20:07:09.607879	272.4	47.0	-92.8	13.9
2025-01-28 20:07:10.756012	273.0	46.9	-91.0	16.6
2025-01-28 20:07:11.907080	273.6	46.8	-90.7	13.5
2025-01-28 20:07:13.058237	274.3	46.7	-90.5	17.3
2025-01-28 20:07:14.208115	274.9	46.6	-90.8	15.8
2025-01-28 20:07:15.355944	275.5	46.5	-92.7	10.9
2025-01-28 20:07:16.500186	276.1	46.4	-92.8	7.8
2025-01-28 20:07:17.644426	276.7	46.3	-92.8	18.1
2025-01-28 20:07:18.774527	277.3	46.2	-92.5	18.7
2025-01-28 20:07:19.895290	277.9	46.1	-93.1	11.8
2025-01-28 20:07:21.016263	278.5	46.0	-92.8	12.7
2025-01-28 20:07:22.137499	279.1	45.9	-92.2	13.8
2025-01-28 20:07:23.259183	279.6	45.8	-92.4	17.6
2025-01-28 20:07:24.379767	280.2	45.7	-92.6	11.3
2025-01-28 20:07:25.500783	280.8	45.6	-93.0	9.4
2025-01-28 20:07:26.621860	281.3	45.4	-92.6	17.6
2025-01-28 20:07:27.742573	281.9	45.3	-92.8	11.9
2025-01-28 20:07:28.863434	282.5	45.2	-92.7	21.0
2025-01-28 20:07:30.014197	283.0	45.1	-92.6	17.4
2025-01-28 20:07:31.162363	283.6	44.9	-92.3	11.6
2025-01-28 20:07:32.310441	284.1	44.8	-92.2	12.0
2025-01-28 20:07:33.454585	284.7	44.6	-92.0	20.1
2025-01-28 20:07:34.597291	285.2	44.5	-92.5	16.0
2025-01-28 20:07:35.744656	285.8	44.4	-92.5	19.4
2025-01-28 20:07:36.891237	286.3	44.2	-92.5	16.7
2025-01-28 20:07:38.038596	286.8	44.1	-92.6	10.7
2025-01-28 20:07:39.186224	287.4	43.9	-92.4	16.3
2025-01-28 20:07:40.332671	287.9	43.8	-92.1	18.8
2025-01-28 20:07:41.483702	288.4	43.6	-92.7	12.1
2025-01-28 20:07:42.629226	288.9	43.4	-92.5	23.4
2025-01-28 20:07:43.777764	289.4	43.3	-92.1	22.9
2025-01-28 20:07:44.925961	289.9	43.1	-92.7	14.0
2025-01-28 20:07:46.075484	290.4	43.0	-92.5	20.8
2025-01-28 20:07:47.225787	290.9	42.8	-92.3	23.5
2025-01-28 20:07:48.375377	291.4	42.6	-92.2	16.4
2025-01-28 20:07:49.525033	291.9	42.5	-92.6	15.5
2025-01-28 20:07:50.670347	292.3	42.3	-92.7	19.8
2025-01-28 20:07:51.814213	292.8	42.1	-92.5	12.9
2025-01-28 20:07:52.961106	293.3	42.0	-92.6	18.2
2025-01-28 20:07:54.111626	293.7	41.8	-92.4	18.9
2025-01-28 20:07:55.256598	294.2	41.6	-92.5	22.0
2025-01-28 20:07:56.402316	294.6	41.4	-92.2	18.5
2025-01-28 20:07:57.556053	295.1	41.3	-93.1	20.6
2025-01-28 20:07:58.702422	295.5	41.1	-92.9	22.5
2025-01-28 20:07:59.857447	296.0	40.9	-92.8	13.0
2025-01-28 20:08:01.001355	296.4	40.7	-92.8	17.8
2025-01-28 20:08:02.149151	296.8	40.6	-92.1	11.5
2025-01-28 20:08:03.297321	297.3	40.4	-92.8	13.6
2025-01-28 20:08:04.442145	297.7	40.2	-92.9	9.0
2025-01-28 20:08:05.593267	298.1	40.0	-92.6	20.0
2025-01-28 20:08:06.742813	298.5	39.8	-92.6	16.9
2025-01-28 20:08:07.896421	298.9	39.6	-92.7	13.3
2025-01-28 20:08:09.049184	299.3	39.5	-92.7	8.8
2025-01-28 20:08:10.199351	299.7	39.3	-92.5	17.0
2025-01-28 20:08:11.344444	300.1	39.1	-92.5	8.6
2025-01-28 20:08:12.492671	300.5	38.9	-93.3	7.8
2025-01-28 20:08:13.640919	300.9	38.7	-92.7	13.2
2025-01-28 20:08:14.787290	301.3	38.5	-91.1	12.1
2025-01-28 20:08:15.943983	301.6	38.4	-91.5	9.2
2025-01-28 20:08:17.091172	302.0	38.2	-91.0	12.6
2025-01-28 20:08:18.241091	302.4	38.0	-91.5	16.3
2025-01-28 20:08:19.386336	302.7	37.8	-92.6	12.5
2025-01-28 20:08:20.537337	303.1	37.6	-93.0	12.2
2025-01-28 20:08:21.690020	303.4	37.4	-93.0	14.9
2025-01-28 20:08:22.835527	303.8	37.2	-92.8	14.0
2025-01-28 20:08:23.986849	304.1	37.0	-93.1	8.3
2025-01-28 20:08:25.130406	304.5	36.9	-92.7	11.7
2025-01-28 20:08:26.280397	304.8	36.7	-91.9	20.3
2025-01-28 20:08:27.432474	305.2	36.5	-92.5	14.3
2025-01-28 20:08:28.575334	305.5	36.3	-92.5	9.6
2025-01-28 20:08:29.723971	305.8	36.1	-93.0	11.4
2025-01-28 20:08:30.873311	306.1	35.9	-93.0	7.7
2025-01-28 20:08:32.029532	306.5	35.7	-92.7	6.5
2025-01-28 20:08:33.179008	306.8	35.5	-92.5	11.1
2025-01-28 20:08:34.325615	307.1	35.4	-92.0	10.4
2025-01-28 20:08:35.478970	307.4	35.2	-92.6	7.1
2025-01-28 20:08:36.626408	307.7	35.0	-92.7	7.8
2025-01-28 20:08:37.780492	308.0	34.8	-92.8	12.3
2025-01-28 20:08:38.928254	308.3	34.6	-92.9	9.2
2025-01-28 20:08:40.072778	308.6	34.4	-92.2	3.8
2025-01-28 20:08:41.220569	308.9	34.2	-92.4	2.9
2025-01-28 20:08:42.365949	309.2	34.0	-92.5	6.8
2025-01-28 20:08:43.516841	309.5	33.9	-92.4	9.7
2025-01-28 20:08:44.663374	309.8	33.7	-92.9	12.3
2025-01-28 20:08:45.816698	310.0	33.5	-92.8	9.4
2025-01-28 20:08:46.973437	310.3	33.3	-92.8	5.1
2025-01-28 20:08:48.125525	310.6	33.1	-92.2	14.3
2025-01-28 20:08:49.272443	310.9	32.9	-92.4	16.3
2025-01-28 20:08:50.420731	311.1	32.8	-92.5	13.5
2025-01-28 20:08:51.566274	311.4	32.6	-92.6	14.4
2025-01-28 20:08:52.714702	311.7	32.4	-92.6	14.9
2025-01-28 20:08:53.859976	311.9	32.2	-92.6	11.2
2025-01-28 20:08:55.003573	312.2	32.0	-92.7	12.0
2025-01-28 20:08:56.153879	312.4	31.9	-92.4	18.6
2025-01-28 20:08:57.303245	312.7	31.7	-92.0	17.2
2025-01-28 20:08:58.464892	312.9	31.5	-92.3	12.7
2025-01-28 20:08:59.614459	313.2	31.3	-92.8	15.7
2025-01-28 20:09:00.755577	313.4	31.1	-92.8	13.8
2025-01-28 20:09:01.903125	313.7	31.0	-92.5	9.0
2025-01-28 20:09:03.054434	313.9	30.8	-92.4	9.9
2025-01-28 20:09:04.206089	314.1	30.6	-92.4	13.0
2025-01-28 20:09:05.354072	314.4	30.4	-92.3	7.2
2025-01-28 20:09:06.501522	314.6	30.2	-92.7	6.9
2025-01-28 20:09:07.653552	314.8	30.1	-92.6	10.2
2025-01-28 20:09:08.803222	315.1	29.9	-92.0	13.1
2025-01-28 20:09:09.952966	315.3	29.7	-92.8	15.5
2025-01-28 20:09:11.102725	315.5	29.5	-92.3	8.9
2025-01-28 20:09:12.250506	315.7	29.4	-92.4	15.1
2025-01-28 20:09:13.399935	315.9	29.2	-92.4	11.3
2025-01-28 20:09:14.546788	316.1	29.0	-92.8	15.8
2025-01-28 20:09:15.696149	316.4	28.9	-93.0	13.1
2025-01-28 20:09:16.846274	316.6	28.7	-92.5	11.1
2025-01-28 20:09:17.996444	316.8	28.5	-92.6	14.1
2025-01-28 20:09:19.143297	317.0	28.4	-90.7	10.3
2025-01-28 20:09:20.292614	317.2	28.2	-90.8	15.5
2025-01-28 20:09:21.442811	317.4	28.0	-91.1	8.1
2025-01-28 20:09:22.590397	317.6	27.8	-91.4	9.4
2025-01-28 20:09:23.740410	317.8	27.7	-92.6	11.2
2025-01-28 20:09:24.888687	318.0	27.5	-92.5	6.3
2025-01-28 20:09:26.013465	318.2	27.4	-92.7	7.0
2025-01-28 20:09:27.133351	318.4	27.2	-92.1	13.9
2025-01-28 20:09:28.253821	318.5	27.0	-92.2	12.8
2025-01-28 20:09:29.373664	318.7	26.9	-92.2	9.3
2025-01-28 20:09:30.495265	318.9	26.7	-92.4	7.4
2025-01-28 20:09:31.615683	319.1	26.6	-92.8	14.7
2025-01-28 20:09:32.736434	319.3	26.4	-92.7	9.3
2025-01-28 20:09:33.857725	319.4	26.2	-92.5	13.1
2025-01-28 20:09:34.980280	319.6	26.1	-92.6	10.1
2025-01-28 20:09:36.105884	319.8	25.9	-92.0	13.3
2025-01-28 20:09:37.253095	320.0	25.8	-92.5	14.7
2025-01-28 20:09:38.402246	320.1	25.6	-92.4	10.3
2025-01-28 20:09:39.546419	320.3	25.5	-92.4	10.9
2025-01-28 20:09:40.691683	320.5	25.3	-92.6	15.5
2025-01-28 20:09:41.843681	320.7	25.1	-93.0	8.8
2025-01-28 20:09:42.992262	320.8	25.0	-92.7	8.4
2025-01-28 20:09:44.142522	321.0	24.8	-92.6	11.8
2025-01-28 20:09:45.297792	321.2	24.7	-92.9	11.1
2025-01-28 20:09:46.449936	321.3	24.5	-93.2	11.3
2025-01-28 20:09:47.598523	321.5	24.4	-93.0	13.3
2025-01-28 20:09:48.745466	321.6	24.2	-92.9	16.6
2025-01-28 20:09:49.897686	321.8	24.1	-92.7	14.5
2025-01-28 20:09:51.046435	322.0	23.9	-92.6	13.2
2025-01-28 20:09:52.193631	322.1	23.8	-92.8	11.3
2025-01-28 20:09:53.339513	322.3	23.6	-92.1	8.4
2025-01-28 20:09:54.487212	322.4	23.5	-92.9	9.3
2025-01-28 20:09:55.635570	322.6	23.3	-92.8	4.9
2025-01-28 20:09:56.783243	322.7	23.2	-92.4	4.9
2025-01-28 20:09:57.937261	322.9	23.0	-92.6	4.5
2025-01-28 20:09:59.083209	323.0	22.9	-92.1	4.8
2025-01-28 20:10:00.229005	323.2	22.7	-92.5	7.1
2025-01-28 20:10:01.372816	323.3	22.6	-92.8	5.2
2025-01-28 20:10:02.518284	323.4	22.4	-92.7	4.3
2025-01-28 20:10:03.671523	323.6	22.3	-92.6	8.9
2025-01-28 20:10:04.803666	323.7	22.2	-92.5	8.9
2025-01-28 20:10:05.948831	323.9	22.0	-92.7	11.2
2025-01-28 20:10:07.099284	324.0	21.9	-92.3	10.1
2025-01-28 20:10:08.246157	324.1	21.7	-92.2	12.6
2025-01-28 20:10:09.399671	324.3	21.6	-92.8	9.9
2025-01-28 20:10:10.549410	324.4	21.5	-92.7	9.6
2025-01-28 20:10:11.702749	324.5	21.3	-92.8	7.9
2025-01-28 20:10:12.846311	324.7	21.2	-92.5	10.8
2025-01-28 20:10:13.990826	324.8	21.0	-92.8	8.3
2025-01-28 20:10:15.144313	324.9	20.9	-92.3	10.1
2025-01-28 20:10:16.293477	325.1	20.8	-91.9	7.8
2025-01-28 20:10:17.441802	325.2	20.6	-92.5	4.3
2025-01-28 20:10:18.595181	325.3	20.5	-92.9	7.4
2025-01-28 20:10:19.746038	325.5	20.4	-92.8	5.7
2025-01-28 20:10:20.893217	325.6	20.2	-92.9	4.5
2025-01-28 20:10:22.038804	325.7	20.1	-92.4	5.0
2025-01-28 20:10:23.187486	325.8	20.0	-91.3	4.1
2025-01-28 20:10:24.337190	325.9	19.8	-91.4	5.8
2025-01-28 20:10:25.485795	326.1	19.7	-91.0	4.6
2025-01-28 20:10:26.632631	326.2	19.6	-91.0	6.5
2025-01-28 20:10:27.781984	326.3	19.4	-92.6	5.7
2025-01-28 20:10:28.933583	326.4	19.3	-92.5	6.1
2025-01-28 20:10:30.077332	326.5	19.2	-92.2	5.9
2025-01-28 20:10:31.221835	326.7	19.0	-92.6	7.1
2025-01-28 20:10:32.366306	326.8	18.9	-92.1	2.6
2025-01-28 20:10:33.514586	326.9	18.8	-92.9	5.5
2025-01-28 20:10:34.666824	327.0	18.6	-93.0	5.9
2025-01-28 20:10:35.812966	327.1	18.5	-92.5	6.9
2025-01-28 20:10:36.965095	327.2	18.4	-92.6	3.9
2025-01-28 20:10:38.115231	327.3	18.3	-92.2	1.7
2025-01-28 20:10:39.265733	327.4	18.1	-92.4	3.2
2025-01-28 20:10:40.419301	327.6	18.0	-92.7	5.5
2025-01-28 20:10:41.564495	327.7	17.9	-93.1	3.8
2025-01-28 20:10:42.720329	327.8	17.8	-92.7	4.5
2025-01-28 20:10:43.869743	327.9	17.6	-92.6	2.3
2025-01-28 20:10:45.021925	328.0	17.5	-93.0	2.3
2025-01-28 20:10:46.173446	328.1	17.4	-92.4	4.1
2025-01-28 20:10:47.323897	328.2	17.3	-92.2	3.5
2025-01-28 20:10:48.469316	328.3	17.2	-92.8	2.5
2025-01-28 20:10:49.618076	328.4	17.0	-92.4	5.5
2025-01-28 20:10:50.766559	328.5	16.9	-92.8	10.8
2025-01-28 20:10:51.912909	328.6	16.8	-92.6	7.2
2025-01-28 20:10:53.061707	328.7	16.7	-92.5	5.8
2025-01-28 20:10:54.211000	328.8	16.6	-92.3	5.1
2025-01-28 20:10:55.357884	328.9	16.4	-92.1	9.5
2025-01-28 20:10:56.505815	329.0	16.3	-92.8	5.1
2025-01-28 20:10:57.653935	329.1	16.2	-92.8	8.9
2025-01-28 20:10:58.803725	329.2	16.1	-92.9	9.1
2025-01-28 20:10:59.951307	329.3	16.0	-92.4	5.4
2025-01-28 20:11:01.098414	329.4	15.9	-92.3	9.0
2025-01-28 20:11:02.245201	329.5	15.7	-92.5	7.7
2025-01-28 20:11:03.391469	329.6	15.6	-91.9	4.6
2025-01-28 20:11:04.547979	329.7	15.5	-92.5	3.5
2025-01-28 20:11:05.694358	329.8	15.4	-92.6	7.0
2025-01-28 20:11:06.843991	329.9	15.3	-92.1	4.3
2025-01-28 20:11:07.996752	329.9	15.2	-92.4	4.1
2025-01-28 20:11:09.151276	330.0	15.1	-92.0	4.4
2025-01-28 20:11:10.298125	330.1	14.9	-92.1	6.4
2025-01-28 20:11:11.444952	330.2	14.8	-92.6	7.8
2025-01-28 20:11:12.590623	330.3	14.7	-92.4	8.7
2025-01-28 20:11:13.736542	330.4	14.6	-92.7	9.9
2025-01-28 20:11:14.882606	330.5	14.5	-92.6	7.1
#Closed at: 2025-01-28 20:02:28.654080