passes_logs/2025/01/28/LEX_Murmansk/LEX_Murmansk__20250128_182119_NOAA_18_rec.log

#Pass ID: 20250128_182119_NOAA 18
#Satellite: NOAA 18
#Configuration: NOAA 18
#Start time: 2025-01-28 18:21:14.235644

#LorettStation: 1.0.0 05.05.2024
#Station: LEX_Murmansk
#Location: 33.156738 lon 68.926811 lat
#TLE: 1 28654U 05018A   25028.04589186  .00000422  00000+0  24750-3 0  9995
#TLE: 2 28654  98.8546 108.9697 0014880 143.3316 216.8878 14.13499339 15023

#Time	Az	El	Level	SNR
2025-01-28 18:21:26.448705	136.0	16.3	-92.2	6.1
2025-01-28 18:21:27.604231	135.9	16.4	-92.4	6.0
2025-01-28 18:21:28.769675	135.9	16.6	-92.2	9.1
2025-01-28 18:21:29.926310	135.9	16.7	-92.3	6.9
2025-01-28 18:21:31.079356	135.8	16.8	-92.2	6.0
2025-01-28 18:21:32.258025	135.8	17.0	-92.0	11.0
2025-01-28 18:21:33.405718	135.8	17.1	-92.1	3.2
2025-01-28 18:21:34.560626	135.7	17.2	-92.3	9.5
2025-01-28 18:21:35.715287	135.7	17.3	-92.4	10.7
2025-01-28 18:21:36.882097	135.6	17.5	-92.7	11.1
2025-01-28 18:21:38.045549	135.6	17.6	-92.7	9.2
2025-01-28 18:21:39.202415	135.6	17.8	-91.9	11.9
2025-01-28 18:21:40.358925	135.5	17.9	-92.4	10.4
2025-01-28 18:21:41.515244	135.5	18.0	-92.4	11.4
2025-01-28 18:21:42.672419	135.4	18.2	-92.3	12.4
2025-01-28 18:21:43.832917	135.4	18.3	-92.8	9.7
2025-01-28 18:21:44.985920	135.3	18.4	-92.9	10.5
2025-01-28 18:21:46.131993	135.3	18.6	-91.9	10.7
2025-01-28 18:21:47.287372	135.3	18.7	-92.1	11.5
2025-01-28 18:21:48.417804	135.2	18.8	-92.1	5.6
2025-01-28 18:21:49.538789	135.2	19.0	-92.4	5.5
2025-01-28 18:21:50.661017	135.1	19.1	-92.5	14.6
2025-01-28 18:21:51.781594	135.1	19.3	-92.5	13.0
2025-01-28 18:21:52.902408	135.0	19.4	-92.5	13.6
2025-01-28 18:21:54.023577	135.0	19.5	-92.4	12.3
2025-01-28 18:21:55.145191	135.0	19.7	-92.1	15.1
2025-01-28 18:21:56.265994	134.9	19.8	-92.0	8.0
2025-01-28 18:21:57.391742	134.9	20.0	-92.3	10.6
2025-01-28 18:21:58.514422	134.8	20.1	-92.3	13.7
2025-01-28 18:21:59.662253	134.8	20.3	-92.6	17.5
2025-01-28 18:22:00.812623	134.7	20.4	-92.6	13.9
2025-01-28 18:22:01.965033	134.7	20.6	-92.7	8.9
2025-01-28 18:22:03.115398	134.6	20.7	-92.6	10.4
2025-01-28 18:22:04.255433	134.6	20.8	-92.2	12.5
2025-01-28 18:22:05.405608	134.5	21.0	-92.6	9.7
2025-01-28 18:22:06.558081	134.5	21.2	-92.7	10.1
2025-01-28 18:22:07.720063	134.4	21.3	-92.7	19.6
2025-01-28 18:22:08.867862	134.4	21.5	-92.1	14.6
2025-01-28 18:22:10.019871	134.3	21.6	-92.6	17.7
2025-01-28 18:22:11.174724	134.3	21.8	-92.2	14.6
2025-01-28 18:22:12.332156	134.2	21.9	-92.4	18.9
2025-01-28 18:22:13.490309	134.1	22.1	-92.8	15.1
2025-01-28 18:22:14.648894	134.1	22.3	-92.7	23.3
2025-01-28 18:22:15.805972	134.0	22.4	-92.5	16.9
2025-01-28 18:22:16.963877	134.0	22.6	-92.4	11.4
2025-01-28 18:22:18.117660	133.9	22.7	-92.2	5.2
2025-01-28 18:22:19.271237	133.9	22.9	-92.2	11.9
2025-01-28 18:22:20.433375	133.8	23.1	-92.6	7.2
2025-01-28 18:22:21.590615	133.7	23.2	-92.4	9.4
2025-01-28 18:22:22.744051	133.7	23.4	-90.8	16.8
2025-01-28 18:22:23.898018	133.6	23.6	-91.3	17.3
2025-01-28 18:22:25.049943	133.6	23.7	-91.1	10.7
2025-01-28 18:22:26.203311	133.5	23.9	-90.3	14.8
2025-01-28 18:22:27.358725	133.4	24.1	-92.0	13.9
2025-01-28 18:22:28.507239	133.4	24.2	-92.7	9.6
2025-01-28 18:22:29.684227	133.3	24.4	-92.2	17.0
2025-01-28 18:22:30.839293	133.2	24.6	-92.3	12.8
2025-01-28 18:22:32.004052	133.2	24.8	-92.4	13.5
2025-01-28 18:22:33.151136	133.1	24.9	-92.3	16.9
2025-01-28 18:22:34.309111	133.0	25.1	-92.1	16.9
2025-01-28 18:22:35.463424	133.0	25.3	-92.3	8.0
2025-01-28 18:22:36.618854	132.9	25.5	-92.4	8.7
2025-01-28 18:22:37.780587	132.8	25.7	-92.7	11.3
2025-01-28 18:22:38.948625	132.8	25.8	-92.5	6.9
2025-01-28 18:22:40.097453	132.7	26.0	-92.3	8.1
2025-01-28 18:22:41.248795	132.6	26.2	-92.4	12.3
2025-01-28 18:22:42.404280	132.6	26.4	-92.0	10.7
2025-01-28 18:22:43.563746	132.5	26.6	-92.1	12.2
2025-01-28 18:22:44.720976	132.4	26.8	-92.4	11.6
2025-01-28 18:22:45.885918	132.3	27.0	-92.5	6.0
2025-01-28 18:22:47.035037	132.3	27.2	-92.2	7.8
2025-01-28 18:22:48.198214	132.2	27.3	-91.6	7.4
2025-01-28 18:22:49.357577	132.1	27.5	-92.0	7.2
2025-01-28 18:22:50.507741	132.0	27.7	-92.3	5.9
2025-01-28 18:22:51.657842	131.9	27.9	-92.4	6.4
2025-01-28 18:22:52.813102	131.9	28.1	-92.3	5.4
2025-01-28 18:22:53.964409	131.8	28.3	-92.6	5.1
2025-01-28 18:22:55.127415	131.7	28.5	-92.1	9.3
2025-01-28 18:22:56.285989	131.6	28.7	-92.1	12.3
2025-01-28 18:22:57.439703	131.5	28.9	-92.6	7.1
2025-01-28 18:22:58.591448	131.4	29.1	-92.1	3.8
2025-01-28 18:22:59.745751	131.3	29.3	-92.4	7.6
2025-01-28 18:23:00.897889	131.2	29.5	-92.6	6.4
2025-01-28 18:23:02.047138	131.2	29.7	-92.5	4.7
2025-01-28 18:23:03.209473	131.1	30.0	-92.4	7.0
2025-01-28 18:23:04.361440	131.0	30.2	-92.5	11.8
2025-01-28 18:23:05.520271	130.9	30.4	-92.9	7.1
2025-01-28 18:23:06.671443	130.8	30.6	-92.5	8.9
2025-01-28 18:23:07.835621	130.7	30.8	-92.4	8.5
2025-01-28 18:23:08.990600	130.6	31.0	-92.5	5.5
2025-01-28 18:23:10.139072	130.5	31.2	-92.1	8.2
2025-01-28 18:23:11.293731	130.4	31.5	-92.3	6.8
2025-01-28 18:23:12.451796	130.3	31.7	-92.8	5.9
2025-01-28 18:23:13.605385	130.2	31.9	-92.6	10.3
2025-01-28 18:23:14.765163	130.1	32.1	-92.9	11.2
2025-01-28 18:23:15.922630	130.0	32.4	-92.6	15.6
2025-01-28 18:23:17.075703	129.9	32.6	-92.0	11.6
2025-01-28 18:23:18.233311	129.7	32.8	-92.5	11.8
2025-01-28 18:23:19.388831	129.6	33.0	-91.9	8.3
2025-01-28 18:23:20.545134	129.5	33.3	-92.4	10.5
2025-01-28 18:23:21.702666	129.4	33.5	-92.6	5.3
2025-01-28 18:23:22.861571	129.3	33.8	-92.7	8.4
2025-01-28 18:23:24.020277	129.2	34.0	-92.6	6.6
2025-01-28 18:23:25.178076	129.0	34.2	-91.7	9.3
2025-01-28 18:23:26.334191	128.9	34.5	-92.1	9.5
2025-01-28 18:23:27.481735	128.8	34.7	-91.0	2.9
2025-01-28 18:23:28.639653	128.7	35.0	-91.2	11.6
2025-01-28 18:23:29.794274	128.5	35.2	-91.0	11.0
2025-01-28 18:23:30.944280	128.4	35.4	-90.9	8.8
2025-01-28 18:23:32.102098	128.3	35.7	-92.2	11.8
2025-01-28 18:23:33.254735	128.1	36.0	-91.9	13.5
2025-01-28 18:23:34.413696	128.0	36.2	-92.5	14.1
2025-01-28 18:23:35.577927	127.9	36.5	-92.6	14.1
2025-01-28 18:23:36.735222	127.7	36.7	-92.5	17.3
2025-01-28 18:23:37.901027	127.6	37.0	-92.6	13.3
2025-01-28 18:23:39.048500	127.4	37.2	-92.4	14.3
2025-01-28 18:23:40.202428	127.3	37.5	-92.0	20.7
2025-01-28 18:23:41.364046	127.1	37.8	-92.2	16.2
2025-01-28 18:23:42.516267	127.0	38.0	-92.7	15.7
2025-01-28 18:23:43.671324	126.8	38.3	-92.8	12.8
2025-01-28 18:23:44.823515	126.7	38.6	-92.8	13.5
2025-01-28 18:23:45.981975	126.5	38.8	-92.4	7.4
2025-01-28 18:23:47.130867	126.3	39.1	-92.3	11.1
2025-01-28 18:23:48.283188	126.2	39.4	-92.1	14.1
2025-01-28 18:23:49.443507	126.0	39.7	-92.3	9.2
2025-01-28 18:23:50.615862	125.8	39.9	-92.1	9.7
2025-01-28 18:23:51.777871	125.7	40.2	-92.5	16.1
2025-01-28 18:23:52.935049	125.5	40.5	-92.6	15.6
2025-01-28 18:23:54.096038	125.3	40.8	-92.4	13.9
2025-01-28 18:23:55.258849	125.1	41.1	-92.7	13.9
2025-01-28 18:23:56.412025	124.9	41.4	-92.7	9.8
2025-01-28 18:23:57.573034	124.7	41.7	-93.0	10.7
2025-01-28 18:23:58.734301	124.5	42.0	-93.0	16.2
2025-01-28 18:23:59.883561	124.3	42.2	-92.3	14.0
2025-01-28 18:24:01.035494	124.1	42.5	-92.5	11.9
2025-01-28 18:24:02.195352	123.9	42.8	-92.1	9.6
2025-01-28 18:24:03.354255	123.7	43.1	-92.2	11.1
2025-01-28 18:24:04.513445	123.5	43.4	-92.4	6.8
2025-01-28 18:24:05.664160	123.3	43.8	-92.5	14.3
2025-01-28 18:24:06.819634	123.0	44.1	-92.7	10.6
2025-01-28 18:24:07.976024	122.8	44.4	-93.1	4.9
2025-01-28 18:24:09.140326	122.6	44.7	-92.5	11.8
2025-01-28 18:24:10.302640	122.3	45.0	-92.1	15.9
2025-01-28 18:24:11.459265	122.1	45.3	-92.8	15.9
2025-01-28 18:24:12.619035	121.8	45.6	-92.9	13.9
2025-01-28 18:24:13.772835	121.6	45.9	-92.8	16.6
2025-01-28 18:24:14.936445	121.3	46.3	-92.7	13.3
2025-01-28 18:24:16.092699	121.1	46.6	-92.3	15.5
2025-01-28 18:24:17.246592	120.8	46.9	-92.4	17.6
2025-01-28 18:24:18.410774	120.5	47.2	-92.6	11.0
2025-01-28 18:24:19.570896	120.2	47.6	-92.9	11.8
2025-01-28 18:24:20.729322	120.0	47.9	-92.7	14.5
2025-01-28 18:24:21.879130	119.7	48.2	-92.5	13.0
2025-01-28 18:24:23.036997	119.4	48.5	-92.7	10.0
2025-01-28 18:24:24.195118	119.1	48.9	-92.6	3.5
2025-01-28 18:24:25.350360	118.8	49.2	-92.2	10.6
2025-01-28 18:24:26.500299	118.4	49.5	-92.7	8.5
2025-01-28 18:24:27.665191	118.1	49.9	-92.9	13.2
2025-01-28 18:24:28.829095	117.8	50.2	-92.8	9.1
2025-01-28 18:24:29.982377	117.4	50.6	-92.4	4.6
2025-01-28 18:24:31.135149	117.1	50.9	-90.8	8.2
2025-01-28 18:24:32.291867	116.7	51.2	-90.8	4.5
2025-01-28 18:24:33.443390	116.4	51.6	-90.9	7.4
2025-01-28 18:24:34.606196	116.0	51.9	-90.9	9.4
2025-01-28 18:24:35.767792	115.6	52.3	-92.5	17.2
2025-01-28 18:24:36.924658	115.2	52.6	-92.8	14.6
2025-01-28 18:24:38.089494	114.8	53.0	-92.4	5.4
2025-01-28 18:24:39.241214	114.4	53.3	-92.4	6.0
2025-01-28 18:24:40.393890	114.0	53.7	-92.4	12.8
2025-01-28 18:24:41.545375	113.5	54.0	-92.5	13.0
2025-01-28 18:24:42.705879	113.1	54.4	-92.7	15.5
2025-01-28 18:24:43.860895	112.6	54.7	-92.3	10.9
2025-01-28 18:24:45.017894	112.2	55.1	-93.1	12.7
2025-01-28 18:24:46.172937	111.7	55.4	-92.4	11.0
2025-01-28 18:24:47.337822	111.2	55.8	-92.1	15.7
2025-01-28 18:24:48.497611	110.7	56.2	-92.5	14.1
2025-01-28 18:24:49.661922	110.2	56.5	-92.7	16.8
2025-01-28 18:24:50.820925	109.6	56.9	-93.1	14.7
2025-01-28 18:24:51.979899	109.1	57.2	-92.6	8.1
2025-01-28 18:24:53.145651	108.5	57.6	-92.4	12.2
2025-01-28 18:24:54.293400	108.0	57.9	-91.3	6.9
2025-01-28 18:24:55.443793	107.4	58.3	-91.9	7.0
2025-01-28 18:24:56.592960	106.8	58.6	-92.6	15.4
2025-01-28 18:24:57.746247	106.2	59.0	-92.5	17.2
2025-01-28 18:24:58.905739	105.5	59.3	-92.5	13.6
2025-01-28 18:25:00.063390	104.9	59.7	-92.0	13.5
2025-01-28 18:25:01.198968	104.2	60.0	-92.0	6.2
2025-01-28 18:25:02.357187	103.5	60.4	-92.1	6.4
2025-01-28 18:25:03.507425	102.8	60.7	-92.6	14.5
2025-01-28 18:25:04.666274	102.1	61.1	-92.5	18.3
2025-01-28 18:25:05.823067	101.3	61.4	-92.4	17.9
2025-01-28 18:25:06.975688	100.6	61.7	-92.7	10.5
2025-01-28 18:25:08.117897	99.8	62.1	-91.8	17.1
2025-01-28 18:25:09.271950	99.0	62.4	-92.2	18.1
2025-01-28 18:25:10.425807	98.1	62.7	-92.4	13.0
2025-01-28 18:25:11.572082	97.3	63.0	-92.3	17.3
2025-01-28 18:25:12.729544	96.4	63.3	-92.5	17.6
2025-01-28 18:25:13.882135	95.5	63.7	-92.5	15.1
2025-01-28 18:25:15.037685	94.6	64.0	-92.3	17.8
2025-01-28 18:25:16.195421	93.6	64.3	-91.8	15.2
2025-01-28 18:25:17.347297	92.7	64.6	-91.9	17.0
2025-01-28 18:25:18.498774	91.7	64.9	-92.6	20.1
2025-01-28 18:25:19.651958	90.6	65.1	-92.6	24.3
2025-01-28 18:25:20.818979	89.6	65.4	-92.7	15.7
2025-01-28 18:25:21.976764	88.5	65.7	-92.7	16.2
2025-01-28 18:25:23.127189	87.4	66.0	-92.5	11.7
2025-01-28 18:25:24.287631	86.2	66.2	-92.0	11.0
2025-01-28 18:25:25.446291	85.1	66.5	-92.4	8.1
2025-01-28 18:25:26.606271	83.9	66.7	-92.3	5.9
2025-01-28 18:25:27.752777	82.6	67.0	-92.4	17.6
2025-01-28 18:25:28.913728	81.4	67.2	-92.3	10.2
2025-01-28 18:25:30.074324	80.1	67.4	-92.2	9.6
2025-01-28 18:25:31.233143	78.8	67.6	-92.2	11.5
2025-01-28 18:25:32.389400	77.5	67.8	-92.1	11.1
2025-01-28 18:25:33.550703	76.1	68.0	-92.2	9.1
2025-01-28 18:25:34.706320	74.8	68.1	-92.2	13.0
2025-01-28 18:25:35.867381	73.4	68.3	-90.7	9.6
2025-01-28 18:25:37.017478	71.9	68.5	-90.8	13.7
2025-01-28 18:25:38.172281	70.5	68.6	-90.2	11.4
2025-01-28 18:25:39.323851	69.1	68.7	-91.5	10.5
2025-01-28 18:25:40.485551	67.6	68.8	-92.4	16.3
2025-01-28 18:25:41.633861	66.1	68.9	-92.4	15.2
2025-01-28 18:25:42.788740	64.6	69.0	-92.4	10.1
2025-01-28 18:25:43.949438	63.1	69.1	-92.5	15.5
2025-01-28 18:25:45.103891	61.5	69.1	-92.0	16.0
2025-01-28 18:25:46.258206	60.0	69.2	-91.6	20.0
2025-01-28 18:25:47.416080	58.5	69.2	-92.5	16.4
2025-01-28 18:25:48.575773	56.9	69.2	-92.4	14.0
2025-01-28 18:25:49.727421	55.4	69.2	-92.6	17.7
2025-01-28 18:25:50.888017	53.8	69.2	-92.3	8.8
2025-01-28 18:25:52.048962	52.3	69.2	-92.5	8.8
2025-01-28 18:25:53.206241	50.7	69.1	-92.2	10.4
2025-01-28 18:25:54.358599	49.2	69.1	-92.6	11.4
2025-01-28 18:25:55.520537	47.7	69.0	-92.5	11.8
2025-01-28 18:25:56.674879	46.2	68.9	-92.7	17.4
2025-01-28 18:25:57.837657	44.7	68.8	-92.8	16.4
2025-01-28 18:25:58.999081	43.2	68.7	-92.7	11.0
2025-01-28 18:26:00.148774	41.7	68.6	-92.0	15.0
2025-01-28 18:26:01.303247	40.3	68.5	-92.1	8.3
2025-01-28 18:26:02.463361	38.8	68.3	-92.6	9.0
2025-01-28 18:26:03.619766	37.4	68.2	-92.5	13.5
2025-01-28 18:26:04.781850	36.1	68.0	-92.7	13.7
2025-01-28 18:26:05.942445	34.7	67.8	-92.9	11.4
2025-01-28 18:26:07.095042	33.4	67.6	-91.6	14.0
2025-01-28 18:26:08.246326	32.1	67.4	-92.0	16.7
2025-01-28 18:26:09.403644	30.8	67.2	-92.5	11.8
2025-01-28 18:26:10.554830	29.6	67.0	-93.0	6.0
2025-01-28 18:26:11.710491	28.3	66.8	-92.8	9.2
2025-01-28 18:26:12.866064	27.1	66.5	-92.9	9.1
2025-01-28 18:26:14.020092	26.0	66.3	-93.2	9.4
2025-01-28 18:26:15.172314	24.8	66.0	-91.9	17.4
2025-01-28 18:26:16.326023	23.7	65.8	-92.1	18.6
2025-01-28 18:26:17.481053	22.6	65.5	-92.8	14.1
2025-01-28 18:26:18.638024	21.6	65.2	-92.7	18.7
2025-01-28 18:26:19.799247	20.5	64.9	-92.3	19.6
2025-01-28 18:26:20.963912	19.5	64.6	-92.3	15.5
2025-01-28 18:26:22.115184	18.5	64.3	-92.0	18.4
2025-01-28 18:26:23.267769	17.6	64.0	-91.9	18.9
2025-01-28 18:26:24.424050	16.6	63.7	-92.5	13.3
2025-01-28 18:26:25.580274	15.7	63.4	-92.4	17.5
2025-01-28 18:26:26.726605	14.8	63.1	-92.6	22.5
2025-01-28 18:26:27.878310	14.0	62.8	-92.3	17.3
2025-01-28 18:26:29.030322	13.1	62.4	-92.5	16.0
2025-01-28 18:26:30.180388	12.3	62.1	-92.2	20.5
2025-01-28 18:26:31.343247	11.5	61.8	-92.2	19.4
2025-01-28 18:26:32.497930	10.8	61.4	-92.7	14.8
2025-01-28 18:26:33.663000	10.0	61.1	-92.4	22.7
2025-01-28 18:26:34.818571	9.3	60.8	-92.7	22.7
2025-01-28 18:26:35.966127	8.6	60.4	-92.5	14.2
2025-01-28 18:26:37.123390	7.9	60.1	-92.4	20.2
2025-01-28 18:26:38.285592	7.2	59.7	-92.3	20.4
2025-01-28 18:26:39.440028	6.5	59.4	-92.2	11.6
2025-01-28 18:26:40.597246	5.9	59.0	-91.0	14.3
2025-01-28 18:26:41.746848	5.3	58.7	-91.1	19.1
2025-01-28 18:26:42.904383	4.7	58.3	-90.8	11.0
2025-01-28 18:26:44.054475	4.1	58.0	-92.4	10.5
2025-01-28 18:26:45.217691	3.5	57.6	-91.7	20.2
2025-01-28 18:26:46.370753	3.0	57.3	-92.5	13.3
2025-01-28 18:26:47.528811	2.4	56.9	-92.9	11.7
2025-01-28 18:26:48.692386	1.9	56.6	-92.7	19.8
2025-01-28 18:26:49.853306	1.3	56.2	-92.4	13.2
2025-01-28 18:26:51.001236	0.8	55.9	-92.9	10.9
2025-01-28 18:26:52.157503	0.4	55.5	-92.6	15.8
2025-01-28 18:26:53.315985	359.9	55.1	-91.9	14.0
2025-01-28 18:26:54.469969	359.4	54.8	-92.7	10.9
2025-01-28 18:26:55.627457	359.0	54.4	-92.6	18.5
2025-01-28 18:26:56.786857	358.5	54.1	-92.7	19.0
2025-01-28 18:26:57.935575	358.1	53.7	-92.8	16.9
2025-01-28 18:26:59.085783	357.7	53.4	-92.2	17.0
2025-01-28 18:27:00.234436	357.2	53.0	-92.5	19.7
2025-01-28 18:27:01.385297	356.8	52.7	-92.2	18.7
2025-01-28 18:27:02.541131	356.4	52.3	-92.7	14.7
2025-01-28 18:27:03.696731	356.1	52.0	-92.3	16.5
2025-01-28 18:27:04.847284	355.7	51.7	-92.6	16.3
2025-01-28 18:27:06.003194	355.3	51.3	-92.5	16.7
2025-01-28 18:27:07.166143	355.0	51.0	-92.2	18.7
2025-01-28 18:27:08.321427	354.6	50.6	-92.0	13.8
2025-01-28 18:27:09.478652	354.3	50.3	-92.7	16.9
2025-01-28 18:27:10.625459	353.9	49.9	-92.9	16.7
2025-01-28 18:27:11.777213	353.6	49.6	-92.4	18.9
2025-01-28 18:27:12.929224	353.3	49.3	-92.2	12.8
2025-01-28 18:27:14.085898	353.0	48.9	-92.2	13.8
2025-01-28 18:27:15.236828	352.7	48.6	-92.4	15.5
2025-01-28 18:27:16.403095	352.4	48.3	-92.9	10.2
2025-01-28 18:27:17.550839	352.1	47.9	-92.6	10.2
2025-01-28 18:27:18.706388	351.8	47.6	-92.8	14.0
2025-01-28 18:27:19.865327	351.5	47.3	-92.8	10.9
2025-01-28 18:27:21.019503	351.2	47.0	-92.2	10.3
2025-01-28 18:27:22.167055	351.0	46.6	-92.2	16.6
2025-01-28 18:27:23.327373	350.7	46.3	-91.8	19.6
2025-01-28 18:27:24.486885	350.4	46.0	-92.1	14.6
2025-01-28 18:27:25.638109	350.2	45.7	-92.6	22.9
2025-01-28 18:27:26.791563	349.9	45.4	-92.7	19.6
2025-01-28 18:27:27.950246	349.7	45.0	-92.5	20.7
2025-01-28 18:27:29.107948	349.5	44.7	-92.4	20.7
2025-01-28 18:27:30.267696	349.2	44.4	-92.3	21.7
2025-01-28 18:27:31.423875	349.0	44.1	-92.8	19.7
2025-01-28 18:27:32.572606	348.8	43.8	-92.2	20.9
2025-01-28 18:27:33.726269	348.5	43.5	-92.5	20.9
2025-01-28 18:27:34.887436	348.3	43.2	-92.7	19.3
2025-01-28 18:27:36.043189	348.1	42.9	-92.3	17.7
2025-01-28 18:27:37.195727	347.9	42.6	-92.1	18.0
2025-01-28 18:27:38.355693	347.7	42.3	-92.2	13.8
2025-01-28 18:27:39.506110	347.5	42.0	-92.4	10.0
2025-01-28 18:27:40.658102	347.3	41.7	-92.7	19.4
2025-01-28 18:27:41.813151	347.1	41.4	-92.6	20.0
2025-01-28 18:27:42.968270	346.9	41.1	-92.6	9.6
2025-01-28 18:27:44.123985	346.7	40.9	-90.8	16.3
2025-01-28 18:27:45.283933	346.6	40.6	-90.5	14.0
2025-01-28 18:27:46.438924	346.4	40.3	-91.0	8.8
2025-01-28 18:27:47.599656	346.2	40.0	-91.2	11.7
2025-01-28 18:27:48.764964	346.0	39.7	-92.2	18.6
2025-01-28 18:27:49.913578	345.8	39.4	-92.5	18.4
2025-01-28 18:27:51.068302	345.7	39.2	-92.4	19.4
2025-01-28 18:27:52.231500	345.5	38.9	-92.1	11.5
2025-01-28 18:27:53.381029	345.4	38.6	-92.3	16.7
2025-01-28 18:27:54.537589	345.2	38.4	-92.4	17.4
2025-01-28 18:27:55.695690	345.0	38.1	-92.7	18.6
2025-01-28 18:27:56.847242	344.9	37.8	-92.8	9.8
2025-01-28 18:27:57.997184	344.7	37.6	-92.4	14.7
2025-01-28 18:27:59.155071	344.6	37.3	-92.0	14.0
2025-01-28 18:28:00.304654	344.4	37.0	-92.0	9.8
2025-01-28 18:28:01.454289	344.3	36.8	-92.8	8.2
2025-01-28 18:28:02.615732	344.2	36.5	-92.7	12.4
2025-01-28 18:28:03.773642	344.0	36.3	-92.7	17.1
2025-01-28 18:28:04.927815	343.9	36.0	-92.6	10.1
2025-01-28 18:28:06.083936	343.7	35.8	-92.4	16.4
2025-01-28 18:28:07.238921	343.6	35.5	-92.4	7.0
2025-01-28 18:28:08.391306	343.5	35.3	-92.5	12.7
2025-01-28 18:28:09.550364	343.3	35.0	-92.4	14.8
2025-01-28 18:28:10.706574	343.2	34.8	-92.4	10.7
2025-01-28 18:28:11.866300	343.1	34.5	-92.5	17.6
2025-01-28 18:28:13.016108	343.0	34.3	-92.4	11.3
2025-01-28 18:28:14.168347	342.9	34.0	-92.0	9.4
2025-01-28 18:28:15.319788	342.7	33.8	-92.1	14.4
2025-01-28 18:28:16.478000	342.6	33.6	-92.6	9.8
2025-01-28 18:28:17.631277	342.5	33.3	-92.3	15.5
2025-01-28 18:28:18.791267	342.4	33.1	-92.5	9.4
2025-01-28 18:28:19.948022	342.3	32.9	-92.6	8.3
2025-01-28 18:28:21.106390	342.2	32.6	-92.6	14.3
2025-01-28 18:28:22.265475	342.1	32.4	-92.0	9.8
2025-01-28 18:28:23.424375	341.9	32.2	-92.4	9.2
2025-01-28 18:28:24.577386	341.8	32.0	-92.3	9.3
2025-01-28 18:28:25.736070	341.7	31.7	-92.8	12.0
2025-01-28 18:28:26.887060	341.6	31.5	-93.2	9.4
2025-01-28 18:28:28.049398	341.5	31.3	-92.7	7.5
2025-01-28 18:28:29.204586	341.4	31.1	-92.2	4.8
2025-01-28 18:28:30.353025	341.3	30.9	-92.8	11.3
2025-01-28 18:28:31.511674	341.2	30.6	-93.0	10.0
2025-01-28 18:28:32.664170	341.1	30.4	-93.1	14.8
2025-01-28 18:28:33.818533	341.0	30.2	-93.1	14.4
2025-01-28 18:28:34.977061	341.0	30.0	-92.5	6.8
2025-01-28 18:28:36.132366	340.9	29.8	-92.2	10.4
2025-01-28 18:28:37.282900	340.8	29.6	-92.2	7.4
2025-01-28 18:28:38.439805	340.7	29.4	-92.5	3.8
2025-01-28 18:28:39.599845	340.6	29.2	-92.8	6.2
2025-01-28 18:28:40.757021	340.5	29.0	-92.6	12.3
2025-01-28 18:28:41.914561	340.4	28.8	-92.8	9.5
2025-01-28 18:28:43.077105	340.3	28.6	-92.2	8.3
2025-01-28 18:28:44.225878	340.2	28.4	-92.2	13.1
2025-01-28 18:28:45.384110	340.2	28.2	-92.8	8.8
2025-01-28 18:28:46.536482	340.1	28.0	-92.8	11.6
2025-01-28 18:28:47.693970	340.0	27.8	-92.4	12.9
2025-01-28 18:28:48.839697	339.9	27.6	-90.9	7.4
2025-01-28 18:28:49.992411	339.8	27.4	-91.1	5.9
2025-01-28 18:28:51.145809	339.8	27.2	-90.7	5.5
2025-01-28 18:28:52.306159	339.7	27.0	-90.7	9.6
2025-01-28 18:28:53.458111	339.6	26.8	-92.5	6.5
2025-01-28 18:28:54.613836	339.5	26.6	-92.6	14.2
2025-01-28 18:28:55.761256	339.5	26.4	-92.3	8.5
2025-01-28 18:28:56.909969	339.4	26.2	-92.2	16.5
2025-01-28 18:28:58.066409	339.3	26.1	-92.5	16.4
2025-01-28 18:28:59.225469	339.2	25.9	-92.3	11.3
2025-01-28 18:29:00.376522	339.2	25.7	-92.5	8.7
2025-01-28 18:29:01.536212	339.1	25.5	-92.7	14.9
2025-01-28 18:29:02.695106	339.0	25.3	-92.8	14.9
2025-01-28 18:29:03.851638	339.0	25.2	-92.7	9.0
2025-01-28 18:29:05.003819	338.9	25.0	-92.8	8.9
2025-01-28 18:29:06.163403	338.8	24.8	-92.4	10.7
2025-01-28 18:29:07.313853	338.8	24.6	-92.5	7.8
2025-01-28 18:29:08.478501	338.7	24.4	-92.6	11.4
2025-01-28 18:29:09.640664	338.6	24.3	-92.6	10.2
2025-01-28 18:29:10.790461	338.6	24.1	-92.8	10.1
2025-01-28 18:29:11.949632	338.5	23.9	-92.7	5.6
2025-01-28 18:29:13.114560	338.5	23.8	-92.1	15.7
2025-01-28 18:29:14.270281	338.4	23.6	-92.3	9.6
2025-01-28 18:29:15.422673	338.3	23.4	-92.3	11.6
2025-01-28 18:29:16.576048	338.3	23.3	-92.3	7.6
2025-01-28 18:29:17.727220	338.2	23.1	-92.8	19.6
2025-01-28 18:29:18.893355	338.2	22.9	-92.6	5.1
2025-01-28 18:29:20.050306	338.1	22.8	-92.7	6.7
2025-01-28 18:29:21.209576	338.0	22.6	-92.2	9.2
2025-01-28 18:29:22.369431	338.0	22.4	-92.4	10.7
2025-01-28 18:29:23.520973	337.9	22.3	-92.9	8.4
2025-01-28 18:29:24.676283	337.9	22.1	-92.6	15.9
2025-01-28 18:29:25.827560	337.8	22.0	-92.2	6.3
2025-01-28 18:29:26.979416	337.8	21.8	-92.5	15.3
2025-01-28 18:29:28.126594	337.7	21.6	-92.0	12.1
2025-01-28 18:29:29.276887	337.7	21.5	-91.9	13.7
2025-01-28 18:29:30.402974	337.6	21.3	-92.6	11.8
2025-01-28 18:29:31.524465	337.6	21.2	-92.7	8.9
2025-01-28 18:29:32.645742	337.5	21.0	-92.6	14.4
2025-01-28 18:29:33.768532	337.5	20.9	-92.6	9.5
2025-01-28 18:29:34.889071	337.4	20.7	-92.6	9.2
2025-01-28 18:29:36.009190	337.4	20.6	-92.8	10.2
2025-01-28 18:29:37.129302	337.3	20.4	-92.1	8.8
2025-01-28 18:29:38.250039	337.3	20.3	-92.2	9.1
2025-01-28 18:29:39.374731	337.2	20.2	-92.6	5.7
2025-01-28 18:29:40.504254	337.2	20.0	-92.7	6.0
2025-01-28 18:29:41.655620	337.1	19.9	-92.4	6.5
2025-01-28 18:29:42.810577	337.1	19.7	-92.6	5.4
2025-01-28 18:29:43.966837	337.0	19.6	-92.7	6.8
2025-01-28 18:29:45.119840	337.0	19.4	-92.0	4.0
2025-01-28 18:29:46.267742	336.9	19.3	-92.0	4.4
2025-01-28 18:29:47.422288	336.9	19.1	-92.4	5.2
2025-01-28 18:29:48.580296	336.9	19.0	-92.1	2.7
2025-01-28 18:29:49.743031	336.8	18.9	-92.4	6.9
2025-01-28 18:29:50.890322	336.8	18.7	-92.7	3.5
2025-01-28 18:29:52.045789	336.7	18.6	-92.8	9.0
2025-01-28 18:29:53.197088	336.7	18.4	-91.0	7.5
2025-01-28 18:29:54.358262	336.6	18.3	-91.2	9.3
2025-01-28 18:29:55.517845	336.6	18.2	-90.9	5.3
2025-01-28 18:29:56.676621	336.6	18.0	-92.4	5.5
2025-01-28 18:29:57.829588	336.5	17.9	-92.6	6.4
2025-01-28 18:29:58.984399	336.5	17.8	-92.8	3.8
2025-01-28 18:30:00.135719	336.4	17.6	-91.9	2.0
2025-01-28 18:30:01.281942	336.4	17.5	-92.4	6.3
2025-01-28 18:30:02.442993	336.4	17.4	-92.9	3.7
2025-01-28 18:30:03.601740	336.3	17.2	-92.9	2.2
2025-01-28 18:30:04.754181	336.3	17.1	-92.9	6.3
2025-01-28 18:30:05.910051	336.2	17.0	-92.4	6.0
2025-01-28 18:30:07.062690	336.2	16.8	-92.4	9.8
2025-01-28 18:30:08.209353	336.2	16.7	-92.0	5.7
2025-01-28 18:30:09.368402	336.1	16.6	-92.6	6.1
2025-01-28 18:30:10.523447	336.1	16.5	-92.6	4.3
2025-01-28 18:30:11.671802	336.1	16.3	-92.9	5.5
2025-01-28 18:30:12.822924	336.0	16.2	-92.6	4.4
2025-01-28 18:30:13.979865	336.0	16.1	-92.7	1.5
2025-01-28 18:30:15.138116	335.9	15.9	-92.3	5.5
2025-01-28 18:30:16.293934	335.9	15.8	-91.9	5.8
2025-01-28 18:30:17.450047	335.9	15.7	-92.4	4.2
2025-01-28 18:30:18.599339	335.8	15.6	-92.5	5.8
2025-01-28 18:30:19.747397	335.8	15.4	-92.7	4.6
2025-01-28 18:30:20.907850	335.8	15.3	-92.8	3.0
2025-01-28 18:30:22.070274	335.7	15.2	-92.2	3.7
2025-01-28 18:30:23.229364	335.7	15.1	-92.5	7.2
2025-01-28 18:30:24.389243	335.7	15.0	-92.8	7.6
2025-01-28 18:30:25.538915	335.6	14.8	-92.7	4.7
2025-01-28 18:30:26.700381	335.6	14.7	-92.7	5.1
2025-01-28 18:30:27.852420	335.6	14.6	-92.6	6.9
2025-01-28 18:30:29.100941	335.5	14.5	-92.0	2.9
#Closed at: 2025-01-28 18:21:19.243944