passes_logs/2025/01/28/LEX_Murmansk/LEX_Murmansk__20250128_093954_NOAA_19_rec.log

#Pass ID: 20250128_093954_NOAA 19
#Satellite: NOAA 19
#Configuration: NOAA 19
#Start time: 2025-01-28 09:39:49.051870

#LorettStation: 1.0.0 05.05.2024
#Station: LEX_Murmansk
#Location: 33.156738 lon 68.926811 lat
#TLE: 1 33591U 09005A   25027.18125374  .00000353  00000+0  21226-3 0  9998
#TLE: 2 33591  99.0174  91.0366 0013998  24.4913 335.6921 14.13269986823260

#Time	Az	El	Level	SNR
2025-01-28 09:40:05.306541	24.0	16.7	-90.9	4.8
2025-01-28 09:40:06.469466	24.0	16.9	-91.2	2.5
2025-01-28 09:40:07.627828	23.9	17.0	-91.5	3.0
2025-01-28 09:40:08.796061	23.9	17.1	-91.4	1.6
2025-01-28 09:40:09.957079	23.8	17.3	-91.2	0.4
2025-01-28 09:40:11.125016	23.7	17.4	-90.9	2.4
2025-01-28 09:40:12.292701	23.7	17.5	-91.0	2.7
2025-01-28 09:40:13.455047	23.6	17.7	-90.6	2.6
2025-01-28 09:40:14.616997	23.6	17.8	-86.3	1.7
2025-01-28 09:40:15.776187	23.5	17.9	-89.9	3.0
2025-01-28 09:40:16.939390	23.5	18.1	-90.7	5.4
2025-01-28 09:40:18.101311	23.4	18.2	-91.2	5.0
2025-01-28 09:40:19.261142	23.4	18.3	-91.4	5.8
2025-01-28 09:40:20.421055	23.3	18.5	-91.3	6.9
2025-01-28 09:40:21.582125	23.3	18.6	-91.2	8.4
2025-01-28 09:40:22.748106	23.2	18.8	-91.4	1.5
2025-01-28 09:40:23.912264	23.1	18.9	-91.2	4.7
2025-01-28 09:40:25.073091	23.1	19.0	-91.0	1.9
2025-01-28 09:40:26.243532	23.0	19.2	-90.9	1.9
2025-01-28 09:40:27.404735	23.0	19.3	-91.3	4.2
2025-01-28 09:40:28.564289	22.9	19.5	-91.6	4.3
2025-01-28 09:40:29.728326	22.8	19.6	-91.4	10.8
2025-01-28 09:40:30.891339	22.8	19.7	-91.6	10.5
2025-01-28 09:40:32.057540	22.7	19.9	-91.1	4.2
2025-01-28 09:40:33.223119	22.7	20.0	-91.0	7.7
2025-01-28 09:40:34.390327	22.6	20.2	-91.0	2.8
2025-01-28 09:40:35.554057	22.5	20.3	-90.9	2.8
2025-01-28 09:40:36.714123	22.5	20.5	-91.1	8.9
2025-01-28 09:40:37.881233	22.4	20.6	-91.1	9.9
2025-01-28 09:40:39.043499	22.3	20.8	-91.3	8.9
2025-01-28 09:40:40.208817	22.3	20.9	-91.4	3.1
2025-01-28 09:40:41.372077	22.2	21.1	-91.1	4.7
2025-01-28 09:40:42.539330	22.1	21.2	-91.2	2.3
2025-01-28 09:40:43.703312	22.1	21.4	-91.0	3.8
2025-01-28 09:40:44.867262	22.0	21.5	-91.2	5.6
2025-01-28 09:40:46.037162	21.9	21.7	-91.5	8.5
2025-01-28 09:40:47.192068	21.8	21.9	-91.4	12.2
2025-01-28 09:40:48.354954	21.8	22.0	-91.3	9.8
2025-01-28 09:40:49.516393	21.7	22.2	-91.5	5.5
2025-01-28 09:40:50.682680	21.6	22.3	-90.9	9.7
2025-01-28 09:40:51.852635	21.6	22.5	-91.2	6.4
2025-01-28 09:40:53.021968	21.5	22.7	-91.4	5.5
2025-01-28 09:40:54.189853	21.4	22.8	-91.0	11.9
2025-01-28 09:40:55.355069	21.3	23.0	-91.0	11.0
2025-01-28 09:40:56.522563	21.2	23.1	-91.4	5.4
2025-01-28 09:40:57.682595	21.2	23.3	-91.3	4.1
2025-01-28 09:40:58.850885	21.1	23.5	-91.6	2.2
2025-01-28 09:41:00.016685	21.0	23.6	-91.3	4.2
2025-01-28 09:41:01.170106	20.9	23.8	-91.0	8.2
2025-01-28 09:41:02.333140	20.8	24.0	-91.1	10.2
2025-01-28 09:41:03.499767	20.8	24.1	-91.3	19.3
2025-01-28 09:41:04.669161	20.7	24.3	-91.4	15.2
2025-01-28 09:41:05.832983	20.6	24.5	-91.4	3.8
2025-01-28 09:41:06.989104	20.5	24.7	-91.4	12.9
2025-01-28 09:41:08.151042	20.4	24.8	-91.4	8.9
2025-01-28 09:41:09.313820	20.3	25.0	-91.4	6.4
2025-01-28 09:41:10.474079	20.2	25.2	-91.4	13.0
2025-01-28 09:41:11.642287	20.2	25.4	-91.3	11.0
2025-01-28 09:41:12.806243	20.1	25.5	-91.2	6.8
2025-01-28 09:41:13.970913	20.0	25.7	-90.7	4.7
2025-01-28 09:41:15.144746	19.9	25.9	-91.5	5.1
2025-01-28 09:41:16.304182	19.8	26.1	-91.5	3.8
2025-01-28 09:41:17.462237	19.7	26.3	-91.7	4.9
2025-01-28 09:41:18.622142	19.6	26.4	-91.8	6.2
2025-01-28 09:41:19.788352	19.5	26.6	-91.6	3.9
2025-01-28 09:41:20.954160	19.4	26.8	-91.5	3.7
2025-01-28 09:41:22.114287	19.3	27.0	-91.1	10.5
2025-01-28 09:41:23.280675	19.2	27.2	-91.3	4.6
2025-01-28 09:41:24.443922	19.1	27.4	-91.1	7.5
2025-01-28 09:41:25.610499	19.0	27.6	-91.5	6.7
2025-01-28 09:41:26.773789	18.9	27.8	-91.5	8.6
2025-01-28 09:41:27.937573	18.8	28.0	-91.6	13.2
2025-01-28 09:41:29.105922	18.7	28.1	-91.2	8.9
2025-01-28 09:41:30.265591	18.6	28.3	-91.1	6.0
2025-01-28 09:41:31.431009	18.5	28.5	-91.5	5.3
2025-01-28 09:41:32.591901	18.3	28.7	-91.7	4.1
2025-01-28 09:41:33.753839	18.2	28.9	-91.6	1.1
2025-01-28 09:41:34.920122	18.1	29.1	-91.4	6.3
2025-01-28 09:41:36.084675	18.0	29.3	-91.3	9.1
2025-01-28 09:41:37.248307	17.9	29.5	-91.5	8.5
2025-01-28 09:41:38.413123	17.8	29.7	-91.2	13.9
2025-01-28 09:41:39.577860	17.6	30.0	-91.6	10.1
2025-01-28 09:41:40.746452	17.5	30.2	-91.3	5.1
2025-01-28 09:41:41.910996	17.4	30.4	-91.6	5.7
2025-01-28 09:41:43.079243	17.3	30.6	-91.6	8.7
2025-01-28 09:41:44.240777	17.1	30.8	-91.6	11.7
2025-01-28 09:41:45.400931	17.0	31.0	-91.4	12.5
2025-01-28 09:41:46.561251	16.9	31.2	-91.5	11.2
2025-01-28 09:41:47.724281	16.7	31.4	-91.5	3.5
2025-01-28 09:41:48.890771	16.6	31.7	-91.2	4.9
2025-01-28 09:41:50.052108	16.5	31.9	-91.1	4.0
2025-01-28 09:41:51.214857	16.3	32.1	-91.2	1.1
2025-01-28 09:41:52.396053	16.2	32.3	-91.3	7.0
2025-01-28 09:41:53.559449	16.0	32.5	-91.7	7.9
2025-01-28 09:41:54.727869	15.9	32.8	-91.2	9.2
2025-01-28 09:41:55.886578	15.8	33.0	-91.3	9.9
2025-01-28 09:41:57.054412	15.6	33.2	-91.4	9.1
2025-01-28 09:41:58.217636	15.5	33.4	-91.4	5.8
2025-01-28 09:41:59.381582	15.3	33.7	-91.3	5.6
2025-01-28 09:42:00.533592	15.2	33.9	-91.2	9.5
2025-01-28 09:42:01.694792	15.0	34.1	-91.3	12.4
2025-01-28 09:42:02.863056	14.8	34.4	-91.5	14.3
2025-01-28 09:42:04.029437	14.7	34.6	-91.4	12.1
2025-01-28 09:42:05.191050	14.5	34.8	-91.0	6.7
2025-01-28 09:42:06.351350	14.3	35.1	-91.1	6.7
2025-01-28 09:42:07.516892	14.2	35.3	-91.1	5.5
2025-01-28 09:42:08.681771	14.0	35.6	-91.4	2.6
2025-01-28 09:42:09.846089	13.8	35.8	-91.3	2.3
2025-01-28 09:42:11.008539	13.6	36.0	-91.2	8.0
2025-01-28 09:42:12.172528	13.5	36.3	-91.2	10.1
2025-01-28 09:42:13.337632	13.3	36.5	-91.2	11.7
2025-01-28 09:42:14.501635	13.1	36.8	-91.5	12.8
2025-01-28 09:42:15.667155	12.9	37.0	-91.2	12.3
2025-01-28 09:42:16.831470	12.7	37.3	-91.1	6.7
2025-01-28 09:42:17.992123	12.5	37.5	-91.7	10.4
2025-01-28 09:42:19.152593	12.3	37.8	-91.5	10.8
2025-01-28 09:42:20.315553	12.1	38.1	-91.7	10.0
2025-01-28 09:42:21.475768	11.9	38.3	-91.3	13.0
2025-01-28 09:42:22.638659	11.7	38.6	-91.5	15.6
2025-01-28 09:42:23.808169	11.5	38.8	-91.8	10.3
2025-01-28 09:42:24.961536	11.3	39.1	-91.8	8.8
2025-01-28 09:42:26.126550	11.1	39.4	-91.3	5.9
2025-01-28 09:42:27.301876	10.8	39.6	-91.1	2.4
2025-01-28 09:42:28.466148	10.6	39.9	-91.1	3.1
2025-01-28 09:42:29.632219	10.4	40.2	-90.9	7.6
2025-01-28 09:42:30.796752	10.2	40.4	-90.5	5.3
2025-01-28 09:42:31.961075	9.9	40.7	-90.4	11.3
2025-01-28 09:42:33.125000	9.7	41.0	-90.7	16.1
2025-01-28 09:42:34.290433	9.4	41.3	-90.7	17.1
2025-01-28 09:42:35.456364	9.2	41.5	-91.2	15.7
2025-01-28 09:42:36.618541	8.9	41.8	-91.7	13.8
2025-01-28 09:42:37.776341	8.7	42.1	-91.3	7.3
2025-01-28 09:42:38.944285	8.4	42.4	-91.0	9.3
2025-01-28 09:42:40.109468	8.1	42.7	-91.3	13.5
2025-01-28 09:42:41.279175	7.9	42.9	-91.2	14.8
2025-01-28 09:42:42.443137	7.6	43.2	-91.5	16.1
2025-01-28 09:42:43.600329	7.3	43.5	-91.6	14.9
2025-01-28 09:42:44.768339	7.0	43.8	-91.4	13.0
2025-01-28 09:42:45.932638	6.7	44.1	-91.4	9.0
2025-01-28 09:42:47.100780	6.4	44.4	-91.4	6.6
2025-01-28 09:42:48.259997	6.1	44.7	-91.6	4.0
2025-01-28 09:42:49.425834	5.8	45.0	-91.9	6.5
2025-01-28 09:42:50.589859	5.5	45.3	-91.7	6.1
2025-01-28 09:42:51.755928	5.2	45.6	-91.8	10.4
2025-01-28 09:42:52.921394	4.8	45.8	-91.5	12.6
2025-01-28 09:42:54.074917	4.5	46.1	-91.6	16.5
2025-01-28 09:42:55.241635	4.2	46.4	-91.9	17.4
2025-01-28 09:42:56.403981	3.8	46.7	-91.9	13.7
2025-01-28 09:42:57.563436	3.5	47.0	-91.5	12.9
2025-01-28 09:42:58.723439	3.1	47.3	-91.9	5.8
2025-01-28 09:42:59.888488	2.8	47.6	-91.9	11.3
2025-01-28 09:43:01.040307	2.4	47.9	-91.9	9.1
2025-01-28 09:43:02.205110	2.0	48.2	-91.8	8.3
2025-01-28 09:43:03.369796	1.6	48.5	-91.7	13.0
2025-01-28 09:43:04.534781	1.2	48.9	-91.9	16.8
2025-01-28 09:43:05.699453	0.8	49.2	-91.6	16.0
2025-01-28 09:43:06.864922	0.4	49.5	-90.9	10.5
2025-01-28 09:43:08.026016	360.0	49.8	-90.6	8.0
2025-01-28 09:43:09.186660	359.5	50.1	-90.4	4.2
2025-01-28 09:43:10.354455	359.1	50.4	-90.5	0.4
2025-01-28 09:43:11.513440	358.6	50.7	-90.6	3.3
2025-01-28 09:43:12.674453	358.2	51.0	-90.7	1.3
2025-01-28 09:43:13.831565	357.7	51.3	-91.3	5.2
2025-01-28 09:43:14.995907	357.2	51.6	-91.7	8.3
2025-01-28 09:43:16.153918	356.8	51.9	-91.5	8.4
2025-01-28 09:43:17.317385	356.3	52.2	-91.7	12.6
2025-01-28 09:43:18.480474	355.8	52.5	-91.1	13.3
2025-01-28 09:43:19.642060	355.2	52.8	-91.0	12.4
2025-01-28 09:43:20.807552	354.7	53.1	-91.2	8.0
2025-01-28 09:43:21.970881	354.2	53.4	-91.1	6.9
2025-01-28 09:43:23.139468	353.6	53.7	-90.8	4.5
2025-01-28 09:43:24.302984	353.0	54.0	-90.8	3.1
2025-01-28 09:43:25.461821	352.5	54.3	-91.1	6.9
2025-01-28 09:43:26.625379	351.9	54.6	-91.6	9.0
2025-01-28 09:43:27.788277	351.3	54.9	-91.4	8.9
2025-01-28 09:43:28.955925	350.7	55.2	-91.5	13.2
2025-01-28 09:43:30.113756	350.0	55.5	-91.1	15.4
2025-01-28 09:43:31.285385	349.4	55.8	-90.0	14.6
2025-01-28 09:43:32.444686	348.8	56.1	-90.6	13.2
2025-01-28 09:43:33.612966	348.1	56.4	-91.2	5.0
2025-01-28 09:43:34.777963	347.4	56.7	-91.6	3.7
2025-01-28 09:43:35.943387	346.7	57.0	-91.5	6.1
2025-01-28 09:43:37.106024	346.0	57.3	-91.5	8.3
2025-01-28 09:43:38.266524	345.3	57.5	-91.1	5.3
2025-01-28 09:43:39.429218	344.5	57.8	-91.1	7.1
2025-01-28 09:43:40.589777	343.8	58.1	-91.0	7.7
2025-01-28 09:43:41.755486	343.0	58.4	-90.9	4.8
2025-01-28 09:43:42.923267	342.2	58.6	-91.5	5.6
2025-01-28 09:43:44.087006	341.4	58.9	-91.4	6.6
2025-01-28 09:43:45.252016	340.6	59.1	-91.8	1.7
2025-01-28 09:43:46.413410	339.8	59.4	-91.6	8.1
2025-01-28 09:43:47.570343	338.9	59.6	-91.6	13.2
2025-01-28 09:43:48.732274	338.0	59.9	-91.5	16.5
2025-01-28 09:43:49.899409	337.2	60.1	-91.3	19.7
2025-01-28 09:43:51.061804	336.3	60.3	-90.7	20.4
2025-01-28 09:43:52.242950	335.3	60.6	-90.6	17.4
2025-01-28 09:43:53.406161	334.4	60.8	-90.9	16.4
2025-01-28 09:43:54.572674	333.4	61.0	-91.2	15.8
2025-01-28 09:43:55.736467	332.5	61.2	-91.2	10.5
2025-01-28 09:43:56.900777	331.5	61.4	-91.3	9.1
2025-01-28 09:43:58.061605	330.5	61.6	-91.0	7.1
2025-01-28 09:43:59.221121	329.5	61.8	-91.2	3.8
2025-01-28 09:44:00.378201	328.5	62.0	-91.2	6.5
2025-01-28 09:44:01.538705	327.4	62.1	-90.7	10.0
2025-01-28 09:44:02.699205	326.4	62.3	-90.5	8.5
2025-01-28 09:44:03.858527	325.3	62.5	-90.7	11.0
2025-01-28 09:44:05.022761	324.2	62.6	-91.1	14.1
2025-01-28 09:44:06.176590	323.1	62.8	-91.4	10.9
2025-01-28 09:44:07.345882	322.0	62.9	-91.5	13.5
2025-01-28 09:44:08.502601	320.9	63.0	-91.3	14.9
2025-01-28 09:44:09.669122	319.8	63.1	-91.6	15.0
2025-01-28 09:44:10.833459	318.6	63.2	-91.7	14.8
2025-01-28 09:44:11.999711	317.5	63.3	-91.4	13.6
2025-01-28 09:44:13.167926	316.3	63.4	-91.1	9.6
2025-01-28 09:44:14.322752	315.2	63.5	-91.3	10.5
2025-01-28 09:44:15.488882	314.0	63.5	-91.1	8.8
2025-01-28 09:44:16.649428	312.8	63.6	-91.0	4.5
2025-01-28 09:44:17.810034	311.6	63.6	-91.2	5.3
2025-01-28 09:44:18.969369	310.4	63.7	-90.9	8.7
2025-01-28 09:44:20.136642	309.2	63.7	-91.1	7.9
2025-01-28 09:44:21.297238	308.0	63.7	-91.5	5.6
2025-01-28 09:44:22.457827	306.8	63.7	-91.6	4.2
2025-01-28 09:44:23.625356	305.6	63.7	-91.4	4.9
2025-01-28 09:44:24.781799	304.5	63.7	-91.5	4.5
2025-01-28 09:44:25.948858	303.3	63.7	-91.6	3.1
2025-01-28 09:44:27.114137	302.1	63.6	-90.7	3.0
2025-01-28 09:44:28.271958	300.9	63.6	-90.6	3.3
2025-01-28 09:44:29.434968	299.7	63.5	-90.7	4.6
2025-01-28 09:44:30.602382	298.5	63.5	-91.5	2.5
2025-01-28 09:44:31.763538	297.4	63.4	-91.5	2.7
2025-01-28 09:44:32.928126	296.2	63.3	-91.7	5.1
2025-01-28 09:44:34.088464	295.1	63.2	-91.7	3.7
2025-01-28 09:44:35.252835	293.9	63.1	-91.6	8.6
2025-01-28 09:44:36.416512	292.8	63.0	-91.7	6.4
2025-01-28 09:44:37.575866	291.7	62.9	-91.7	3.0
2025-01-28 09:44:38.734801	290.6	62.7	-91.8	2.7
2025-01-28 09:44:39.895290	289.5	62.6	-91.6	3.1
2025-01-28 09:44:41.058937	288.4	62.4	-91.6	2.5
2025-01-28 09:44:42.221914	287.3	62.3	-91.2	4.9
2025-01-28 09:44:43.394332	286.3	62.1	-91.6	4.3
2025-01-28 09:44:44.559803	285.2	61.9	-91.7	5.0
2025-01-28 09:44:45.719370	284.2	61.8	-91.8	9.8
2025-01-28 09:44:46.876309	283.2	61.6	-91.3	5.5
2025-01-28 09:44:48.033845	282.2	61.4	-91.4	3.7
2025-01-28 09:44:49.198026	281.2	61.2	-91.5	9.2
2025-01-28 09:44:50.364842	280.3	61.0	-91.4	9.1
2025-01-28 09:44:51.530800	279.3	60.8	-91.8	4.4
2025-01-28 09:44:52.690831	278.4	60.5	-91.6	12.3
2025-01-28 09:44:53.856865	277.5	60.3	-91.7	13.3
2025-01-28 09:44:55.017194	276.6	60.1	-90.8	9.4
2025-01-28 09:44:56.180675	275.7	59.8	-91.3	16.5
2025-01-28 09:44:57.342339	274.8	59.6	-91.2	14.4
2025-01-28 09:44:58.502799	274.0	59.4	-90.4	9.2
2025-01-28 09:44:59.664042	273.2	59.1	-90.9	13.1
2025-01-28 09:45:00.828562	272.3	58.8	-91.8	14.3
2025-01-28 09:45:01.989806	271.5	58.6	-91.7	9.8
2025-01-28 09:45:03.161464	270.8	58.3	-91.5	12.2
2025-01-28 09:45:04.327140	270.0	58.1	-91.5	16.1
2025-01-28 09:45:05.491561	269.2	57.8	-91.1	8.3
2025-01-28 09:45:06.665979	268.5	57.5	-91.7	14.0
2025-01-28 09:45:07.824612	267.8	57.2	-91.4	12.2
2025-01-28 09:45:08.983038	267.1	56.9	-91.7	5.3
2025-01-28 09:45:10.156737	266.4	56.7	-91.9	7.9
2025-01-28 09:45:11.313487	265.7	56.4	-91.7	7.6
2025-01-28 09:45:12.479752	265.0	56.1	-91.7	2.8
2025-01-28 09:45:13.645108	264.4	55.8	-91.7	6.4
2025-01-28 09:45:14.809941	263.7	55.5	-91.3	8.5
2025-01-28 09:45:15.973391	263.1	55.2	-91.4	6.1
2025-01-28 09:45:17.136122	262.5	54.9	-91.6	7.1
2025-01-28 09:45:18.297264	261.9	54.6	-91.5	11.3
2025-01-28 09:45:19.464261	261.3	54.3	-91.8	7.1
2025-01-28 09:45:20.627573	260.7	54.0	-91.6	7.9
2025-01-28 09:45:21.788804	260.2	53.7	-91.4	15.7
2025-01-28 09:45:22.955405	259.6	53.4	-91.2	11.5
2025-01-28 09:45:24.117814	259.1	53.1	-91.3	10.3
2025-01-28 09:45:25.285169	258.6	52.8	-91.5	19.1
2025-01-28 09:45:26.448438	258.0	52.5	-91.7	13.5
2025-01-28 09:45:27.615145	257.5	52.2	-91.5	13.6
2025-01-28 09:45:28.776379	257.0	51.9	-91.3	20.3
2025-01-28 09:45:29.938962	256.5	51.6	-91.5	16.7
2025-01-28 09:45:31.108943	256.1	51.3	-90.7	17.4
2025-01-28 09:45:32.265675	255.6	51.0	-90.9	21.7
2025-01-28 09:45:33.429827	255.1	50.6	-90.9	19.9
2025-01-28 09:45:34.593459	254.7	50.3	-90.9	20.2
2025-01-28 09:45:35.754657	254.3	50.0	-91.7	21.5
2025-01-28 09:45:36.918462	253.8	49.7	-91.5	20.9
2025-01-28 09:45:38.091155	253.4	49.4	-91.4	19.0
2025-01-28 09:45:39.244993	253.0	49.1	-91.4	19.5
2025-01-28 09:45:40.409956	252.6	48.8	-91.3	17.4
2025-01-28 09:45:41.574117	252.2	48.5	-91.6	16.0
2025-01-28 09:45:42.741409	251.8	48.2	-91.4	18.0
2025-01-28 09:45:43.904058	251.4	47.9	-91.0	16.6
2025-01-28 09:45:45.067204	251.1	47.6	-90.9	15.4
2025-01-28 09:45:46.234403	250.7	47.3	-91.3	19.9
2025-01-28 09:45:47.398434	250.3	47.0	-91.7	14.7
2025-01-28 09:45:48.558104	250.0	46.7	-91.6	10.9
2025-01-28 09:45:49.720204	249.6	46.4	-91.8	20.0
2025-01-28 09:45:50.883762	249.3	46.1	-91.5	13.9
2025-01-28 09:45:52.055463	249.0	45.8	-91.4	11.4
2025-01-28 09:45:53.211750	248.6	45.5	-91.3	20.2
2025-01-28 09:45:54.370828	248.3	45.2	-91.3	16.0
2025-01-28 09:45:55.531720	248.0	44.9	-91.3	12.4
2025-01-28 09:45:56.697316	247.7	44.6	-91.4	20.2
2025-01-28 09:45:57.860331	247.4	44.3	-91.5	18.8
2025-01-28 09:45:59.032961	247.1	44.0	-91.6	16.3
2025-01-28 09:46:00.195835	246.8	43.8	-91.3	21.3
2025-01-28 09:46:01.365680	246.5	43.5	-91.3	20.4
2025-01-28 09:46:02.531484	246.2	43.2	-91.2	19.9
2025-01-28 09:46:03.699461	245.9	42.9	-91.5	21.3
2025-01-28 09:46:04.865134	245.7	42.6	-91.7	20.9
2025-01-28 09:46:06.022168	245.4	42.3	-90.8	18.9
2025-01-28 09:46:07.191285	245.1	42.1	-90.4	18.1
2025-01-28 09:46:08.351428	244.9	41.8	-90.8	17.6
2025-01-28 09:46:09.514636	244.6	41.5	-90.5	15.0
2025-01-28 09:46:10.682935	244.4	41.2	-90.6	16.9
2025-01-28 09:46:11.844879	244.1	40.9	-90.7	16.0
2025-01-28 09:46:13.004685	243.9	40.7	-90.6	11.0
2025-01-28 09:46:14.165200	243.7	40.4	-91.2	15.5
2025-01-28 09:46:15.336239	243.4	40.1	-91.2	14.4
2025-01-28 09:46:16.496690	243.2	39.9	-91.4	9.5
2025-01-28 09:46:17.662746	243.0	39.6	-91.5	13.0
2025-01-28 09:46:18.822014	242.8	39.3	-91.6	14.0
2025-01-28 09:46:19.985901	242.5	39.1	-91.5	9.6
2025-01-28 09:46:21.139950	242.3	38.8	-91.2	10.7
2025-01-28 09:46:22.260478	242.1	38.6	-91.2	9.1
2025-01-28 09:46:23.381027	241.9	38.3	-91.3	11.0
2025-01-28 09:46:24.502617	241.7	38.1	-91.4	9.0
2025-01-28 09:46:25.623066	241.5	37.8	-91.5	10.9
2025-01-28 09:46:26.743895	241.3	37.6	-91.4	11.9
2025-01-28 09:46:27.864224	241.2	37.3	-91.5	11.1
2025-01-28 09:46:28.984828	241.0	37.1	-91.7	8.6
2025-01-28 09:46:30.106186	240.8	36.8	-91.5	7.6
2025-01-28 09:46:31.237556	240.6	36.6	-91.4	10.2
2025-01-28 09:46:32.400016	240.4	36.3	-91.2	5.2
2025-01-28 09:46:33.558002	240.2	36.1	-91.1	1.9
2025-01-28 09:46:34.723576	240.1	35.9	-91.2	4.3
2025-01-28 09:46:35.879297	239.9	35.6	-91.2	5.9
2025-01-28 09:46:37.042072	239.7	35.4	-91.1	3.3
2025-01-28 09:46:38.202796	239.6	35.1	-91.0	7.9
2025-01-28 09:46:39.366757	239.4	34.9	-91.3	7.7
2025-01-28 09:46:40.526405	239.2	34.7	-91.6	6.6
2025-01-28 09:46:41.690672	239.1	34.4	-91.7	8.9
2025-01-28 09:46:42.849176	238.9	34.2	-91.5	9.0
2025-01-28 09:46:44.016429	238.7	34.0	-91.5	9.2
2025-01-28 09:46:45.179498	238.6	33.7	-91.3	10.0
2025-01-28 09:46:46.337886	238.4	33.5	-91.4	9.2
2025-01-28 09:46:47.499648	238.3	33.3	-91.7	9.9
2025-01-28 09:46:48.658601	238.1	33.0	-91.7	10.4
2025-01-28 09:46:49.824487	238.0	32.8	-91.5	10.9
2025-01-28 09:46:50.993726	237.8	32.6	-91.8	7.0
2025-01-28 09:46:52.160170	237.7	32.4	-91.5	10.7
2025-01-28 09:46:53.323174	237.6	32.2	-91.4	10.5
2025-01-28 09:46:54.485770	237.4	31.9	-91.4	6.6
2025-01-28 09:46:55.653637	237.3	31.7	-91.4	5.0
2025-01-28 09:46:56.814308	237.1	31.5	-91.2	6.7
2025-01-28 09:46:57.979656	237.0	31.3	-90.3	5.7
2025-01-28 09:46:59.139123	236.9	31.1	-91.0	4.7
2025-01-28 09:47:00.299923	236.7	30.9	-91.2	1.5
2025-01-28 09:47:01.454399	236.6	30.6	-91.5	4.8
2025-01-28 09:47:02.618178	236.5	30.4	-91.5	3.9
2025-01-28 09:47:03.780201	236.4	30.2	-91.5	2.6
2025-01-28 09:47:04.948438	236.2	30.0	-91.9	2.1
2025-01-28 09:47:06.111284	236.1	29.8	-91.5	2.4
2025-01-28 09:47:07.277038	236.0	29.6	-91.4	2.8
2025-01-28 09:47:08.435148	235.9	29.4	-91.5	1.8
2025-01-28 09:47:09.591469	235.8	29.2	-91.7	1.9
2025-01-28 09:47:10.759598	235.7	29.0	-91.5	4.7
2025-01-28 09:47:11.922468	235.5	28.8	-91.3	3.0
2025-01-28 09:47:13.085136	235.4	28.6	-90.7	1.9
2025-01-28 09:47:14.247601	235.3	28.4	-90.6	8.2
2025-01-28 09:47:15.407812	235.2	28.2	-90.6	6.0
2025-01-28 09:47:16.568309	235.1	28.0	-90.7	6.1
2025-01-28 09:47:17.731724	235.0	27.8	-91.7	10.3
2025-01-28 09:47:18.891884	234.9	27.6	-91.4	9.9
2025-01-28 09:47:20.055247	234.8	27.4	-91.4	8.2
2025-01-28 09:47:21.216679	234.7	27.3	-91.0	9.8
2025-01-28 09:47:22.383196	234.6	27.1	-91.4	5.3
2025-01-28 09:47:23.546694	234.5	26.9	-91.7	2.6
2025-01-28 09:47:24.701552	234.4	26.7	-91.6	4.4
2025-01-28 09:47:25.863277	234.3	26.5	-91.9	3.3
2025-01-28 09:47:27.023524	234.2	26.3	-92.0	1.9
2025-01-28 09:47:28.178294	234.1	26.1	-91.7	4.8
2025-01-28 09:47:29.348211	234.0	26.0	-91.3	3.0
2025-01-28 09:47:30.516124	233.9	25.8	-91.3	5.5
2025-01-28 09:47:31.677022	233.8	25.6	-91.3	3.6
2025-01-28 09:47:32.848723	233.7	25.4	-91.5	5.4
2025-01-28 09:47:34.011032	233.6	25.2	-91.6	4.5
2025-01-28 09:47:35.179495	233.5	25.1	-91.4	4.4
2025-01-28 09:47:36.344598	233.4	24.9	-91.0	7.7
2025-01-28 09:47:37.508170	233.4	24.7	-91.2	6.5
2025-01-28 09:47:38.672524	233.3	24.5	-91.3	6.9
2025-01-28 09:47:39.826193	233.2	24.4	-91.4	7.6
2025-01-28 09:47:40.993820	233.1	24.2	-91.5	3.9
2025-01-28 09:47:42.157819	233.0	24.0	-91.3	7.8
2025-01-28 09:47:43.322369	232.9	23.9	-91.4	7.7
2025-01-28 09:47:44.485838	232.9	23.7	-91.6	4.4
2025-01-28 09:47:45.650953	232.8	23.5	-91.7	7.8
2025-01-28 09:47:46.815356	232.7	23.4	-91.5	7.3
2025-01-28 09:47:47.977381	232.6	23.2	-91.6	8.4
2025-01-28 09:47:49.139627	232.5	23.0	-91.3	10.2
2025-01-28 09:47:50.303937	232.5	22.9	-91.4	8.2
2025-01-28 09:47:51.469200	232.4	22.7	-91.9	8.3
2025-01-28 09:47:52.631879	232.3	22.6	-91.6	8.9
2025-01-28 09:47:53.794496	232.2	22.4	-91.4	10.2
2025-01-28 09:47:54.955680	232.2	22.2	-91.5	6.4
2025-01-28 09:47:56.119642	232.1	22.1	-91.2	6.7
2025-01-28 09:47:57.287163	232.0	21.9	-91.2	11.3
2025-01-28 09:47:58.448025	231.9	21.8	-91.1	8.9
2025-01-28 09:47:59.605941	231.9	21.6	-91.2	8.3
2025-01-28 09:48:00.759605	231.8	21.5	-91.3	10.5
2025-01-28 09:48:01.925260	231.7	21.3	-91.4	12.2
2025-01-28 09:48:03.086029	231.7	21.2	-91.5	8.8
2025-01-28 09:48:04.244404	231.6	21.0	-91.1	10.8
2025-01-28 09:48:05.408649	231.5	20.8	-91.5	8.3
2025-01-28 09:48:06.573948	231.5	20.7	-91.5	5.7
2025-01-28 09:48:07.737104	231.4	20.5	-91.8	6.9
2025-01-28 09:48:08.901752	231.3	20.4	-91.7	4.6
2025-01-28 09:48:10.065117	231.3	20.3	-91.5	4.4
2025-01-28 09:48:11.226356	231.2	20.1	-91.6	7.0
2025-01-28 09:48:12.390196	231.1	20.0	-91.5	6.7
2025-01-28 09:48:13.549260	231.1	19.8	-91.9	6.3
2025-01-28 09:48:14.714192	231.0	19.7	-91.5	5.2
2025-01-28 09:48:15.876096	230.9	19.5	-91.6	9.0
2025-01-28 09:48:17.040423	230.9	19.4	-91.6	6.8
2025-01-28 09:48:18.204718	230.8	19.2	-91.5	9.0
2025-01-28 09:48:19.363811	230.8	19.1	-91.4	7.4
2025-01-28 09:48:20.528622	230.7	19.0	-91.2	7.2
2025-01-28 09:48:21.695914	230.6	18.8	-91.6	8.8
2025-01-28 09:48:22.855409	230.6	18.7	-91.6	8.6
2025-01-28 09:48:24.023506	230.5	18.5	-91.6	7.0
2025-01-28 09:48:25.191203	230.5	18.4	-91.1	4.7
2025-01-28 09:48:26.350718	230.4	18.3	-91.4	9.1
2025-01-28 09:48:27.514652	230.4	18.1	-91.4	7.1
2025-01-28 09:48:28.674561	230.3	18.0	-91.3	11.4
2025-01-28 09:48:29.838356	230.3	17.9	-91.6	9.7
2025-01-28 09:48:30.995435	230.2	17.7	-91.6	8.0
2025-01-28 09:48:32.154800	230.1	17.6	-91.3	8.8
2025-01-28 09:48:33.321670	230.1	17.5	-91.3	7.2
2025-01-28 09:48:34.480499	230.0	17.3	-91.8	4.4
2025-01-28 09:48:35.645312	230.0	17.2	-91.7	4.7
2025-01-28 09:48:36.813060	229.9	17.1	-91.9	6.9
2025-01-28 09:48:37.974288	229.9	16.9	-91.6	1.6
2025-01-28 09:48:39.135070	229.8	16.8	-91.5	3.8
2025-01-28 09:48:40.303810	229.8	16.7	-91.6	4.2
2025-01-28 09:48:41.463529	229.7	16.6	-91.3	4.8
2025-01-28 09:48:42.635017	229.7	16.4	-91.8	3.4
2025-01-28 09:48:43.800950	229.6	16.3	-91.5	4.7
2025-01-28 09:48:44.967853	229.6	16.2	-91.3	3.6
2025-01-28 09:48:46.128167	229.5	16.0	-90.9	4.1
2025-01-28 09:48:47.288506	229.5	15.9	-90.8	5.1
2025-01-28 09:48:48.456761	229.4	15.8	-90.9	1.6
2025-01-28 09:48:49.615800	229.4	15.7	-91.3	4.1
2025-01-28 09:48:50.783810	229.3	15.5	-91.2	3.4
2025-01-28 09:48:51.949220	229.3	15.4	-91.4	4.6
2025-01-28 09:48:53.111630	229.3	15.3	-91.6	4.1
2025-01-28 09:48:54.275505	229.2	15.2	-91.5	2.7
2025-01-28 09:48:55.440316	229.2	15.1	-91.7	5.9
2025-01-28 09:48:56.601529	229.1	14.9	-91.6	2.7
2025-01-28 09:48:57.765276	229.1	14.8	-91.4	2.8
2025-01-28 09:48:58.928122	229.0	14.7	-91.5	4.9
2025-01-28 09:49:00.086691	229.0	14.6	-91.3	4.5
#Closed at: 2025-01-28 09:39:54.080291