passes_logs/2025/01/28/LEX_Murmansk/LEX_Murmansk__20250128_075906_NOAA_19_rec.log

#Pass ID: 20250128_075906_NOAA 19
#Satellite: NOAA 19
#Configuration: NOAA 19
#Start time: 2025-01-28 07:59:01.826562

#LorettStation: 1.0.0 05.05.2024
#Station: LEX_Murmansk
#Location: 33.156738 lon 68.926811 lat
#TLE: 1 33591U 09005A   25027.18125374  .00000353  00000+0  21226-3 0  9998
#TLE: 2 33591  99.0174  91.0366 0013998  24.4913 335.6921 14.13269986823260

#Time	Az	El	Level	SNR
2025-01-28 07:59:14.079165	30.2	16.3	-90.4	0.8
2025-01-28 07:59:15.247132	30.3	16.4	-90.6	3.2
2025-01-28 07:59:16.406610	30.4	16.5	-90.8	2.7
2025-01-28 07:59:17.565173	30.5	16.6	-90.9	2.5
2025-01-28 07:59:18.729718	30.6	16.7	-90.7	3.6
2025-01-28 07:59:19.894045	30.6	16.9	-90.6	3.9
2025-01-28 07:59:21.058451	30.7	17.0	-90.5	5.5
2025-01-28 07:59:22.222822	30.8	17.1	-90.2	2.3
2025-01-28 07:59:23.387084	30.9	17.2	-90.4	2.9
2025-01-28 07:59:24.546826	31.0	17.4	-90.9	0.7
2025-01-28 07:59:25.709386	31.1	17.5	-90.7	2.8
2025-01-28 07:59:26.869149	31.2	17.6	-90.2	0.9
2025-01-28 07:59:28.033459	31.3	17.8	-90.5	2.4
2025-01-28 07:59:29.198575	31.4	17.9	-91.4	2.8
2025-01-28 07:59:30.366768	31.4	18.0	-91.3	4.2
2025-01-28 07:59:31.524209	31.5	18.1	-91.4	5.6
2025-01-28 07:59:32.685023	31.6	18.3	-91.4	2.6
2025-01-28 07:59:33.850428	31.7	18.4	-91.1	4.4
2025-01-28 07:59:35.013070	31.8	18.5	-91.4	3.6
2025-01-28 07:59:36.176752	31.9	18.7	-91.4	5.3
2025-01-28 07:59:37.340873	32.0	18.8	-91.5	4.4
2025-01-28 07:59:38.504864	32.1	18.9	-91.5	6.0
2025-01-28 07:59:39.660836	32.2	19.1	-91.3	6.3
2025-01-28 07:59:40.828176	32.3	19.2	-91.3	3.2
2025-01-28 07:59:41.980378	32.4	19.3	-91.6	4.1
2025-01-28 07:59:43.144605	32.5	19.5	-91.5	4.0
2025-01-28 07:59:44.304835	32.6	19.6	-91.4	2.8
2025-01-28 07:59:45.474649	32.7	19.7	-91.5	6.2
2025-01-28 07:59:46.635643	32.8	19.9	-91.4	8.4
2025-01-28 07:59:47.795958	32.9	20.0	-91.4	5.1
2025-01-28 07:59:48.959009	33.0	20.2	-91.4	8.1
2025-01-28 07:59:50.124914	33.1	20.3	-91.3	7.6
2025-01-28 07:59:51.288394	33.2	20.4	-91.2	2.8
2025-01-28 07:59:52.449207	33.3	20.6	-91.7	5.6
2025-01-28 07:59:53.613799	33.5	20.7	-91.5	6.0
2025-01-28 07:59:54.776532	33.6	20.9	-91.3	5.4
2025-01-28 07:59:55.938825	33.7	21.0	-91.9	5.1
2025-01-28 07:59:57.097803	33.8	21.2	-91.6	3.2
2025-01-28 07:59:58.265222	33.9	21.3	-91.4	0.7
2025-01-28 07:59:59.426592	34.0	21.5	-91.4	1.4
2025-01-28 08:00:00.581656	34.1	21.6	-91.4	1.7
2025-01-28 08:00:01.738991	34.2	21.7	-91.0	4.6
2025-01-28 08:00:02.898480	34.4	21.9	-90.9	4.2
2025-01-28 08:00:04.064749	34.5	22.0	-90.6	7.2
2025-01-28 08:00:05.228144	34.6	22.2	-90.5	3.8
2025-01-28 08:00:06.393081	34.7	22.3	-90.7	4.8
2025-01-28 08:00:07.556960	34.8	22.5	-90.8	4.7
2025-01-28 08:00:08.720619	35.0	22.6	-91.0	6.1
2025-01-28 08:00:09.877372	35.1	22.8	-90.6	8.2
2025-01-28 08:00:11.038526	35.2	23.0	-90.3	8.2
2025-01-28 08:00:12.199662	35.3	23.1	-90.7	8.9
2025-01-28 08:00:13.362775	35.5	23.3	-90.7	6.1
2025-01-28 08:00:14.528610	35.6	23.4	-90.9	3.8
2025-01-28 08:00:15.693467	35.7	23.6	-90.9	3.3
2025-01-28 08:00:16.854234	35.8	23.7	-90.8	1.7
2025-01-28 08:00:18.019432	36.0	23.9	-91.0	3.0
2025-01-28 08:00:19.188354	36.1	24.0	-90.8	4.7
2025-01-28 08:00:20.346426	36.2	24.2	-90.8	6.7
2025-01-28 08:00:21.510764	36.4	24.4	-90.7	9.9
2025-01-28 08:00:22.668474	36.5	24.5	-90.6	5.5
2025-01-28 08:00:23.836563	36.7	24.7	-90.7	5.3
2025-01-28 08:00:25.001395	36.8	24.9	-90.9	6.7
2025-01-28 08:00:26.156409	36.9	25.0	-90.9	7.3
2025-01-28 08:00:27.324721	37.1	25.2	-91.1	7.3
2025-01-28 08:00:28.485233	37.2	25.4	-90.9	10.8
2025-01-28 08:00:29.651005	37.4	25.5	-91.0	9.5
2025-01-28 08:00:30.814684	37.5	25.7	-90.8	5.6
2025-01-28 08:00:31.974494	37.7	25.9	-90.8	3.3
2025-01-28 08:00:33.137263	37.8	26.0	-90.4	4.2
2025-01-28 08:00:34.303320	38.0	26.2	-91.7	1.8
2025-01-28 08:00:35.466622	38.1	26.4	-90.8	3.4
2025-01-28 08:00:36.629585	38.3	26.5	-91.0	6.1
2025-01-28 08:00:37.794761	38.4	26.7	-90.9	6.7
2025-01-28 08:00:38.959317	38.6	26.9	-90.9	8.0
2025-01-28 08:00:40.123663	38.7	27.1	-90.9	9.8
2025-01-28 08:00:41.283197	38.9	27.2	-90.6	4.5
2025-01-28 08:00:42.443048	39.1	27.4	-91.5	4.3
2025-01-28 08:00:43.603147	39.2	27.6	-91.4	4.8
2025-01-28 08:00:44.770215	39.4	27.8	-90.8	5.3
2025-01-28 08:00:45.930092	39.6	27.9	-90.9	7.9
2025-01-28 08:00:47.084151	39.7	28.1	-90.5	7.4
2025-01-28 08:00:48.250965	39.9	28.3	-90.8	5.8
2025-01-28 08:00:49.415561	40.1	28.5	-91.1	6.2
2025-01-28 08:00:50.580860	40.3	28.7	-91.0	0.3
2025-01-28 08:00:51.737231	40.4	28.8	-90.9	1.1
2025-01-28 08:00:52.900106	40.6	29.0	-91.6	2.4
2025-01-28 08:00:54.075151	40.8	29.2	-91.6	2.1
2025-01-28 08:00:55.237044	41.0	29.4	-91.0	2.2
2025-01-28 08:00:56.399930	41.2	29.6	-91.5	6.0
2025-01-28 08:00:57.561644	41.4	29.8	-91.8	11.6
2025-01-28 08:00:58.724137	41.5	30.0	-92.0	10.6
2025-01-28 08:00:59.890250	41.7	30.2	-91.0	7.8
2025-01-28 08:01:01.050426	41.9	30.3	-90.8	6.9
2025-01-28 08:01:02.209123	42.1	30.5	-91.1	4.0
2025-01-28 08:01:03.369916	42.3	30.7	-91.2	8.1
2025-01-28 08:01:04.528417	42.5	30.9	-91.3	12.7
2025-01-28 08:01:05.710894	42.7	31.1	-90.6	10.7
2025-01-28 08:01:06.870772	42.9	31.3	-90.7	9.1
2025-01-28 08:01:08.032844	43.1	31.5	-90.6	7.2
2025-01-28 08:01:09.192465	43.4	31.7	-90.9	4.3
2025-01-28 08:01:10.352763	43.6	31.9	-90.8	4.3
2025-01-28 08:01:11.519522	43.8	32.1	-91.0	3.1
2025-01-28 08:01:12.680515	44.0	32.3	-91.0	3.1
2025-01-28 08:01:13.845283	44.2	32.5	-90.9	5.7
2025-01-28 08:01:15.008513	44.4	32.7	-90.8	12.6
2025-01-28 08:01:16.174028	44.7	32.9	-90.8	15.0
2025-01-28 08:01:17.341326	44.9	33.1	-90.6	13.8
2025-01-28 08:01:18.503222	45.1	33.3	-90.6	11.5
2025-01-28 08:01:19.666885	45.4	33.5	-90.9	8.1
2025-01-28 08:01:20.831358	45.6	33.7	-90.8	5.4
2025-01-28 08:01:21.990630	45.8	33.9	-91.1	10.3
2025-01-28 08:01:23.155734	46.1	34.1	-90.8	8.9
2025-01-28 08:01:24.319342	46.3	34.3	-90.7	13.2
2025-01-28 08:01:25.483060	46.6	34.6	-90.9	14.6
2025-01-28 08:01:26.651561	46.8	34.8	-91.0	13.3
2025-01-28 08:01:27.815480	47.1	35.0	-90.9	9.8
2025-01-28 08:01:28.982382	47.4	35.2	-91.1	7.8
2025-01-28 08:01:30.145824	47.6	35.4	-91.4	4.9
2025-01-28 08:01:31.313464	47.9	35.6	-91.4	4.5
2025-01-28 08:01:32.473909	48.2	35.8	-91.6	4.6
2025-01-28 08:01:33.631710	48.4	36.0	-91.5	7.0
2025-01-28 08:01:34.799528	48.7	36.3	-91.4	7.9
2025-01-28 08:01:35.962005	49.0	36.5	-91.3	13.1
2025-01-28 08:01:37.129293	49.3	36.7	-91.6	16.6
2025-01-28 08:01:38.292836	49.6	36.9	-91.6	13.9
2025-01-28 08:01:39.457437	49.8	37.1	-91.4	11.7
2025-01-28 08:01:40.624742	50.1	37.3	-91.8	11.1
2025-01-28 08:01:41.788810	50.4	37.6	-91.5	6.3
2025-01-28 08:01:42.952975	50.7	37.8	-91.5	9.9
2025-01-28 08:01:44.116145	51.1	38.0	-91.3	12.3
2025-01-28 08:01:45.284245	51.4	38.2	-91.3	12.5
2025-01-28 08:01:46.448165	51.7	38.4	-91.7	14.2
2025-01-28 08:01:47.612265	52.0	38.7	-91.7	12.9
2025-01-28 08:01:48.780742	52.3	38.9	-91.5	11.5
2025-01-28 08:01:49.944731	52.7	39.1	-91.4	9.6
2025-01-28 08:01:51.112532	53.0	39.3	-91.0	6.3
2025-01-28 08:01:52.271988	53.3	39.6	-91.4	2.7
2025-01-28 08:01:53.440010	53.7	39.8	-90.7	4.0
2025-01-28 08:01:54.595855	54.0	40.0	-90.6	4.4
2025-01-28 08:01:55.760892	54.4	40.2	-91.1	6.2
2025-01-28 08:01:56.924861	54.7	40.4	-91.1	10.7
2025-01-28 08:01:58.086015	55.1	40.7	-90.8	14.0
2025-01-28 08:01:59.247851	55.4	40.9	-90.9	17.1
2025-01-28 08:02:00.403535	55.8	41.1	-91.1	17.2
2025-01-28 08:02:01.569565	56.2	41.3	-90.9	16.0
2025-01-28 08:02:02.726605	56.6	41.6	-90.8	11.3
2025-01-28 08:02:03.894643	56.9	41.8	-90.8	11.9
2025-01-28 08:02:05.058021	57.3	42.0	-90.5	9.8
2025-01-28 08:02:06.224663	57.7	42.2	-90.7	7.3
2025-01-28 08:02:07.390773	58.1	42.5	-91.7	14.9
2025-01-28 08:02:08.559559	58.5	42.7	-91.9	14.5
2025-01-28 08:02:09.718646	59.0	42.9	-91.7	17.1
2025-01-28 08:02:10.881703	59.4	43.1	-91.5	17.2
2025-01-28 08:02:12.048523	59.8	43.4	-91.6	13.6
2025-01-28 08:02:13.208631	60.2	43.6	-91.5	9.2
2025-01-28 08:02:14.373572	60.7	43.8	-91.5	7.9
2025-01-28 08:02:15.537879	61.1	44.0	-91.5	5.5
2025-01-28 08:02:16.701437	61.6	44.3	-91.6	5.4
2025-01-28 08:02:17.872523	62.0	44.5	-91.1	4.5
2025-01-28 08:02:19.031462	62.5	44.7	-90.9	7.0
2025-01-28 08:02:20.198627	62.9	44.9	-90.5	5.6
2025-01-28 08:02:21.361267	63.4	45.1	-90.6	7.9
2025-01-28 08:02:22.521256	63.9	45.3	-90.8	10.1
2025-01-28 08:02:23.676418	64.4	45.6	-90.9	12.2
2025-01-28 08:02:24.841149	64.9	45.8	-90.8	12.4
2025-01-28 08:02:26.000949	65.4	46.0	-90.7	12.7
2025-01-28 08:02:27.168403	65.9	46.2	-90.7	11.2
2025-01-28 08:02:28.333933	66.4	46.4	-90.9	5.9
2025-01-28 08:02:29.514173	66.9	46.6	-91.7	5.8
2025-01-28 08:02:30.679484	67.5	46.8	-91.9	5.4
2025-01-28 08:02:31.837081	68.0	47.0	-91.3	5.7
2025-01-28 08:02:32.996649	68.5	47.2	-91.4	11.5
2025-01-28 08:02:34.163869	69.1	47.4	-91.6	6.5
2025-01-28 08:02:35.328056	69.6	47.6	-91.8	6.8
2025-01-28 08:02:36.488611	70.2	47.8	-91.7	9.0
2025-01-28 08:02:37.652307	70.8	48.0	-91.9	11.6
2025-01-28 08:02:38.817310	71.3	48.2	-91.8	12.4
2025-01-28 08:02:39.981708	71.9	48.4	-91.5	12.9
2025-01-28 08:02:41.150956	72.5	48.6	-90.9	7.9
2025-01-28 08:02:42.312990	73.1	48.8	-90.7	4.1
2025-01-28 08:02:43.475504	73.7	49.0	-90.8	3.0
2025-01-28 08:02:44.637574	74.3	49.2	-90.5	3.8
2025-01-28 08:02:45.803450	74.9	49.4	-90.7	2.5
2025-01-28 08:02:46.968695	75.6	49.5	-90.9	4.6
2025-01-28 08:02:48.130438	76.2	49.7	-91.0	5.1
2025-01-28 08:02:49.297236	76.8	49.9	-90.6	2.5
2025-01-28 08:02:50.462102	77.5	50.1	-90.7	4.0
2025-01-28 08:02:51.626265	78.2	50.2	-91.5	2.4
2025-01-28 08:02:52.784837	78.8	50.4	-91.8	4.4
2025-01-28 08:02:53.950771	79.5	50.5	-91.7	12.1
2025-01-28 08:02:55.111517	80.2	50.7	-91.5	10.9
2025-01-28 08:02:56.275072	80.8	50.8	-91.0	8.4
2025-01-28 08:02:57.444914	81.5	51.0	-91.7	13.5
2025-01-28 08:02:58.602177	82.2	51.1	-91.7	14.3
2025-01-28 08:02:59.764683	82.9	51.3	-91.8	11.1
2025-01-28 08:03:00.891560	83.6	51.4	-91.6	10.1
2025-01-28 08:03:02.011739	84.3	51.5	-91.5	11.1
2025-01-28 08:03:03.169492	85.0	51.7	-91.3	7.4
2025-01-28 08:03:04.334790	85.7	51.8	-91.4	15.5
2025-01-28 08:03:05.501690	86.5	51.9	-91.7	8.3
2025-01-28 08:03:06.664880	87.2	52.0	-91.7	12.4
2025-01-28 08:03:07.832490	88.0	52.1	-91.7	11.0
2025-01-28 08:03:08.997266	88.7	52.2	-91.6	7.0
2025-01-28 08:03:10.156917	89.5	52.3	-91.4	12.5
2025-01-28 08:03:11.320936	90.2	52.4	-91.3	10.4
2025-01-28 08:03:12.479213	91.0	52.5	-91.4	7.1
2025-01-28 08:03:13.639745	91.8	52.6	-91.7	9.9
2025-01-28 08:03:14.806050	92.5	52.7	-91.2	10.0
2025-01-28 08:03:15.969073	93.3	52.7	-91.2	15.4
2025-01-28 08:03:17.120345	94.1	52.8	-91.0	12.4
2025-01-28 08:03:18.286845	94.9	52.9	-91.3	13.6
2025-01-28 08:03:19.447032	95.7	52.9	-91.4	14.2
2025-01-28 08:03:20.613962	96.4	53.0	-90.9	14.0
2025-01-28 08:03:21.777785	97.2	53.0	-90.9	15.0
2025-01-28 08:03:22.935810	98.0	53.1	-90.7	10.0
2025-01-28 08:03:24.096019	98.8	53.1	-90.8	11.3
2025-01-28 08:03:25.255658	99.6	53.1	-90.6	13.5
2025-01-28 08:03:26.417241	100.4	53.2	-90.9	9.9
2025-01-28 08:03:27.583161	101.2	53.2	-91.0	6.3
2025-01-28 08:03:28.740130	102.0	53.2	-91.0	11.5
2025-01-28 08:03:29.904192	102.8	53.2	-91.6	9.0
2025-01-28 08:03:31.065687	103.6	53.2	-90.9	5.1
2025-01-28 08:03:32.223716	104.4	53.2	-90.5	9.8
2025-01-28 08:03:33.383929	105.2	53.2	-91.0	8.6
2025-01-28 08:03:34.547507	106.0	53.2	-91.2	3.4
2025-01-28 08:03:35.706182	106.8	53.2	-91.2	9.6
2025-01-28 08:03:36.871635	107.6	53.2	-91.0	10.2
2025-01-28 08:03:38.035741	108.4	53.1	-90.8	4.8
2025-01-28 08:03:39.211572	109.3	53.1	-91.6	11.8
2025-01-28 08:03:40.373274	110.0	53.0	-91.7	9.3
2025-01-28 08:03:41.537324	110.8	53.0	-91.7	3.5
2025-01-28 08:03:42.704804	111.6	52.9	-91.7	11.6
2025-01-28 08:03:43.875258	112.4	52.9	-91.4	7.7
2025-01-28 08:03:45.042089	113.2	52.8	-91.7	5.0
2025-01-28 08:03:46.201560	114.0	52.8	-91.5	10.7
2025-01-28 08:03:47.376226	114.8	52.7	-91.6	10.2
2025-01-28 08:03:48.538131	115.5	52.6	-91.5	5.2
2025-01-28 08:03:49.703180	116.3	52.5	-91.5	8.6
2025-01-28 08:03:50.870587	117.1	52.4	-91.8	9.5
2025-01-28 08:03:52.032974	117.8	52.3	-91.8	6.2
2025-01-28 08:03:53.197149	118.6	52.2	-90.9	10.7
2025-01-28 08:03:54.358562	119.3	52.1	-90.9	10.3
2025-01-28 08:03:55.523224	120.1	52.0	-91.1	7.2
2025-01-28 08:03:56.686639	120.8	51.9	-90.9	8.1
2025-01-28 08:03:57.846776	121.6	51.8	-91.0	10.4
2025-01-28 08:03:59.011138	122.3	51.7	-90.6	9.2
2025-01-28 08:04:00.166987	123.0	51.5	-90.8	9.8
2025-01-28 08:04:01.326323	123.7	51.4	-90.9	10.6
2025-01-28 08:04:02.487981	124.4	51.3	-90.4	7.0
2025-01-28 08:04:03.647436	125.1	51.1	-90.7	6.1
2025-01-28 08:04:04.807791	125.8	51.0	-90.8	8.4
2025-01-28 08:04:05.970709	126.5	50.8	-91.3	5.3
2025-01-28 08:04:07.136031	127.2	50.7	-91.2	7.7
2025-01-28 08:04:08.297675	127.9	50.5	-91.2	8.6
2025-01-28 08:04:09.460936	128.5	50.4	-91.5	9.9
2025-01-28 08:04:10.622507	129.2	50.2	-92.0	7.2
2025-01-28 08:04:11.790727	129.9	50.1	-91.8	7.5
2025-01-28 08:04:12.950840	130.5	49.9	-91.8	6.0
2025-01-28 08:04:14.118644	131.2	49.7	-91.7	5.7
2025-01-28 08:04:15.289249	131.8	49.5	-91.5	4.5
2025-01-28 08:04:16.452116	132.4	49.4	-91.9	4.8
2025-01-28 08:04:17.613094	133.0	49.2	-91.9	5.0
2025-01-28 08:04:18.776917	133.6	49.0	-91.9	8.3
2025-01-28 08:04:19.944664	134.3	48.8	-92.0	6.5
2025-01-28 08:04:21.105542	134.8	48.6	-91.9	3.9
2025-01-28 08:04:22.271962	135.4	48.4	-91.9	5.2
2025-01-28 08:04:23.431259	136.0	48.2	-92.0	7.5
2025-01-28 08:04:24.595837	136.6	48.0	-91.6	8.4
2025-01-28 08:04:25.764042	137.2	47.8	-91.6	11.6
2025-01-28 08:04:26.927032	137.7	47.6	-91.8	4.1
2025-01-28 08:04:28.094006	138.3	47.4	-90.9	4.8
2025-01-28 08:04:29.250169	138.8	47.2	-91.0	10.9
2025-01-28 08:04:30.417421	139.4	47.0	-91.0	5.5
2025-01-28 08:04:31.575066	139.9	46.8	-91.0	5.4
2025-01-28 08:04:32.739481	140.4	46.6	-91.1	10.9
2025-01-28 08:04:33.895179	140.9	46.4	-90.9	5.8
2025-01-28 08:04:35.075392	141.5	46.2	-91.8	4.5
2025-01-28 08:04:36.238123	142.0	46.0	-91.7	15.7
2025-01-28 08:04:37.396836	142.5	45.8	-91.5	7.8
2025-01-28 08:04:38.558004	143.0	45.6	-91.9	8.0
2025-01-28 08:04:39.720719	143.4	45.3	-91.5	14.8
2025-01-28 08:04:40.883513	143.9	45.1	-91.8	12.4
2025-01-28 08:04:42.047020	144.4	44.9	-91.9	10.2
2025-01-28 08:04:43.198290	144.9	44.7	-91.6	17.1
2025-01-28 08:04:44.355757	145.3	44.5	-91.9	16.1
2025-01-28 08:04:45.516342	145.8	44.3	-92.0	10.5
2025-01-28 08:04:46.681859	146.2	44.0	-91.9	11.3
2025-01-28 08:04:47.843177	146.7	43.8	-91.9	9.5
2025-01-28 08:04:49.008596	147.1	43.6	-91.7	10.1
2025-01-28 08:04:50.172645	147.5	43.4	-91.5	14.0
2025-01-28 08:04:51.338319	148.0	43.1	-91.3	16.1
2025-01-28 08:04:52.499331	148.4	42.9	-91.7	13.8
2025-01-28 08:04:53.657535	148.8	42.7	-91.6	13.0
2025-01-28 08:04:54.826103	149.2	42.5	-91.8	10.8
2025-01-28 08:04:56.001250	149.6	42.2	-91.8	14.4
2025-01-28 08:04:57.164723	150.0	42.0	-90.9	14.4
2025-01-28 08:04:58.323894	150.4	41.8	-89.8	13.6
2025-01-28 08:04:59.492325	150.8	41.6	-90.4	12.8
2025-01-28 08:05:00.647339	151.2	41.4	-90.8	14.2
2025-01-28 08:05:01.810766	151.5	41.1	-90.8	15.3
2025-01-28 08:05:02.965531	151.9	40.9	-90.7	10.1
2025-01-28 08:05:04.130556	152.3	40.7	-91.2	11.3
2025-01-28 08:05:05.289189	152.6	40.5	-91.4	14.6
2025-01-28 08:05:06.456737	153.0	40.2	-92.0	9.5
2025-01-28 08:05:07.615319	153.3	40.0	-91.9	8.0
2025-01-28 08:05:08.782050	153.7	39.8	-91.9	12.0
2025-01-28 08:05:09.942789	154.0	39.6	-91.9	3.3
2025-01-28 08:05:11.104094	154.4	39.3	-92.0	5.5
2025-01-28 08:05:12.262289	154.7	39.1	-91.7	6.9
2025-01-28 08:05:13.430200	155.0	38.9	-91.7	4.1
2025-01-28 08:05:14.597558	155.3	38.7	-91.6	4.2
2025-01-28 08:05:15.760270	155.7	38.4	-91.6	9.7
2025-01-28 08:05:16.926943	156.0	38.2	-91.7	7.8
2025-01-28 08:05:18.093893	156.3	38.0	-91.7	6.0
2025-01-28 08:05:19.257060	156.6	37.8	-91.9	8.2
2025-01-28 08:05:20.426072	156.9	37.6	-92.0	9.5
2025-01-28 08:05:21.589300	157.2	37.3	-91.6	10.2
2025-01-28 08:05:22.752593	157.5	37.1	-91.4	11.6
2025-01-28 08:05:23.912178	157.8	36.9	-91.9	9.2
2025-01-28 08:05:25.075072	158.1	36.7	-91.6	10.4
2025-01-28 08:05:26.244076	158.3	36.5	-91.7	9.8
2025-01-28 08:05:27.410904	158.6	36.3	-92.0	9.8
2025-01-28 08:05:28.570521	158.9	36.0	-91.7	10.8
2025-01-28 08:05:29.737224	159.2	35.8	-91.8	10.7
2025-01-28 08:05:30.897493	159.4	35.6	-91.5	6.8
2025-01-28 08:05:32.055681	159.7	35.4	-91.5	7.2
2025-01-28 08:05:33.215197	160.0	35.2	-91.5	11.6
2025-01-28 08:05:34.381467	160.2	35.0	-91.5	8.3
2025-01-28 08:05:35.543845	160.5	34.8	-91.8	6.0
2025-01-28 08:05:36.713203	160.7	34.6	-91.0	9.5
2025-01-28 08:05:37.877013	161.0	34.4	-90.8	7.1
2025-01-28 08:05:39.034751	161.2	34.1	-90.9	9.2
2025-01-28 08:05:40.209113	161.5	33.9	-90.6	14.6
2025-01-28 08:05:41.373547	161.7	33.7	-90.7	10.6
2025-01-28 08:05:42.536532	162.0	33.5	-90.7	11.8
2025-01-28 08:05:43.698397	162.2	33.3	-91.3	10.8
2025-01-28 08:05:44.876308	162.4	33.1	-91.9	8.7
2025-01-28 08:05:46.042473	162.7	32.9	-91.7	9.1
2025-01-28 08:05:47.202238	162.9	32.7	-91.8	8.7
2025-01-28 08:05:48.361521	163.1	32.5	-91.6	9.0
2025-01-28 08:05:49.520185	163.3	32.3	-91.8	6.8
2025-01-28 08:05:50.680021	163.5	32.1	-91.9	2.9
2025-01-28 08:05:51.836641	163.8	31.9	-92.0	3.9
2025-01-28 08:05:52.999125	164.0	31.7	-91.7	4.1
2025-01-28 08:05:54.161250	164.2	31.5	-91.6	9.9
2025-01-28 08:05:55.320665	164.4	31.3	-91.6	9.4
2025-01-28 08:05:56.487203	164.6	31.1	-91.5	6.8
2025-01-28 08:05:57.644356	164.8	30.9	-91.8	9.4
2025-01-28 08:05:58.808600	165.0	30.7	-91.8	9.4
2025-01-28 08:05:59.969613	165.2	30.5	-91.3	4.8
2025-01-28 08:06:01.124566	165.4	30.4	-91.4	7.4
2025-01-28 08:06:02.283027	165.6	30.2	-91.5	6.9
2025-01-28 08:06:03.443724	165.8	30.0	-91.8	6.4
2025-01-28 08:06:04.603027	166.0	29.8	-91.6	5.2
2025-01-28 08:06:05.767345	166.2	29.6	-91.6	8.3
2025-01-28 08:06:06.928137	166.3	29.4	-91.9	8.5
2025-01-28 08:06:08.095736	166.5	29.2	-91.7	8.6
2025-01-28 08:06:09.257725	166.7	29.0	-91.8	10.3
2025-01-28 08:06:10.421240	166.9	28.9	-91.8	10.4
2025-01-28 08:06:11.587697	167.1	28.7	-91.9	5.6
2025-01-28 08:06:12.747383	167.2	28.5	-91.9	9.7
2025-01-28 08:06:13.904751	167.4	28.3	-91.6	4.9
2025-01-28 08:06:15.068779	167.6	28.1	-91.4	4.5
2025-01-28 08:06:16.232712	167.7	28.0	-91.4	7.9
2025-01-28 08:06:17.398006	167.9	27.8	-91.5	5.0
2025-01-28 08:06:18.565883	168.1	27.6	-91.8	6.7
2025-01-28 08:06:19.733265	168.2	27.4	-91.9	7.8
2025-01-28 08:06:20.900149	168.4	27.2	-91.7	5.5
2025-01-28 08:06:22.065100	168.6	27.1	-91.4	4.8
2025-01-28 08:06:23.234009	168.7	26.9	-91.3	5.2
2025-01-28 08:06:24.398454	168.9	26.7	-91.0	5.8
2025-01-28 08:06:25.562544	169.0	26.5	-91.0	3.6
2025-01-28 08:06:26.728628	169.2	26.4	-91.2	7.5
2025-01-28 08:06:27.889766	169.4	26.2	-91.0	5.6
2025-01-28 08:06:29.060024	169.5	26.0	-91.0	3.2
2025-01-28 08:06:30.224699	169.7	25.9	-90.9	8.7
2025-01-28 08:06:31.383820	169.8	25.7	-91.0	5.0
2025-01-28 08:06:32.542914	169.9	25.5	-91.8	3.3
2025-01-28 08:06:33.698634	170.1	25.4	-91.6	7.8
2025-01-28 08:06:34.865988	170.2	25.2	-92.0	6.7
2025-01-28 08:06:36.030478	170.4	25.0	-91.9	5.1
2025-01-28 08:06:37.194815	170.5	24.9	-91.7	8.3
2025-01-28 08:06:38.357487	170.7	24.7	-91.6	7.8
2025-01-28 08:06:39.522469	170.8	24.5	-91.8	10.6
2025-01-28 08:06:40.685467	170.9	24.4	-91.6	9.6
2025-01-28 08:06:41.850352	171.1	24.2	-91.7	10.1
2025-01-28 08:06:43.019467	171.2	24.1	-91.8	7.5
2025-01-28 08:06:44.178999	171.3	23.9	-91.2	9.1
2025-01-28 08:06:45.345262	171.5	23.7	-91.7	8.0
2025-01-28 08:06:46.509030	171.6	23.6	-91.1	5.3
2025-01-28 08:06:47.668524	171.7	23.4	-90.9	8.2
2025-01-28 08:06:48.835503	171.9	23.3	-91.0	6.6
2025-01-28 08:06:50.000644	172.0	23.1	-90.9	5.8
2025-01-28 08:06:51.167105	172.1	23.0	-90.6	9.3
2025-01-28 08:06:52.331549	172.2	22.8	-90.9	7.7
2025-01-28 08:06:53.491460	172.4	22.6	-91.0	7.1
2025-01-28 08:06:54.651267	172.5	22.5	-91.1	9.0
2025-01-28 08:06:55.815092	172.6	22.3	-91.1	9.4
2025-01-28 08:06:56.974685	172.7	22.2	-91.0	8.7
2025-01-28 08:06:58.144796	172.8	22.0	-91.0	7.9
2025-01-28 08:06:59.304797	173.0	21.9	-91.1	7.2
2025-01-28 08:07:00.462337	173.1	21.7	-92.1	4.7
2025-01-28 08:07:01.630328	173.2	21.6	-92.0	6.2
2025-01-28 08:07:02.788690	173.3	21.5	-91.8	7.4
2025-01-28 08:07:03.949774	173.4	21.3	-91.7	5.5
2025-01-28 08:07:05.113579	173.5	21.2	-91.3	4.9
2025-01-28 08:07:06.276984	173.6	21.0	-91.0	5.9
2025-01-28 08:07:07.437213	173.7	20.9	-91.5	5.4
2025-01-28 08:07:08.603247	173.9	20.7	-91.5	5.5
2025-01-28 08:07:09.759949	174.0	20.6	-91.8	8.5
2025-01-28 08:07:10.923586	174.1	20.4	-92.0	7.4
2025-01-28 08:07:12.088266	174.2	20.3	-91.7	8.5
2025-01-28 08:07:13.254639	174.3	20.2	-91.4	10.0
2025-01-28 08:07:14.415240	174.4	20.0	-91.8	8.9
2025-01-28 08:07:15.585771	174.5	19.9	-91.9	5.4
2025-01-28 08:07:16.751595	174.6	19.7	-92.0	8.5
2025-01-28 08:07:17.916608	174.7	19.6	-91.9	5.8
2025-01-28 08:07:19.081701	174.8	19.5	-91.0	5.3
2025-01-28 08:07:20.246223	174.9	19.3	-90.9	8.7
2025-01-28 08:07:21.409394	175.0	19.2	-90.9	5.2
2025-01-28 08:07:22.570220	175.1	19.1	-90.7	8.2
2025-01-28 08:07:23.745711	175.2	18.9	-91.2	10.3
2025-01-28 08:07:24.913228	175.3	18.8	-91.0	9.0
2025-01-28 08:07:26.076696	175.4	18.7	-91.0	8.0
2025-01-28 08:07:27.236893	175.5	18.5	-90.6	5.6
2025-01-28 08:07:28.397936	175.6	18.4	-91.1	6.2
2025-01-28 08:07:29.570434	175.7	18.3	-90.8	2.7
2025-01-28 08:07:30.732582	175.8	18.1	-90.8	5.0
2025-01-28 08:07:31.889623	175.9	18.0	-90.7	2.5
2025-01-28 08:07:33.058145	175.9	17.9	-90.6	1.2
2025-01-28 08:07:34.220002	176.0	17.7	-90.9	2.0
2025-01-28 08:07:35.381428	176.1	17.6	-91.0	1.5
2025-01-28 08:07:36.540081	176.2	17.5	-90.6	2.5
2025-01-28 08:07:37.706121	176.3	17.4	-90.9	2.9
2025-01-28 08:07:38.869474	176.4	17.2	-90.9	2.2
2025-01-28 08:07:40.030345	176.5	17.1	-91.7	1.1
2025-01-28 08:07:41.194843	176.6	17.0	-91.6	3.2
2025-01-28 08:07:42.358373	176.7	16.9	-91.8	4.2
2025-01-28 08:07:43.519807	176.7	16.7	-91.9	3.1
2025-01-28 08:07:44.679760	176.8	16.6	-91.7	3.3
2025-01-28 08:07:45.842845	176.9	16.5	-91.7	4.8
2025-01-28 08:07:47.011686	177.0	16.4	-91.8	4.0
2025-01-28 08:07:48.175951	177.1	16.2	-90.8	4.0
2025-01-28 08:07:49.341215	177.2	16.1	-90.8	5.6
2025-01-28 08:07:50.505511	177.2	16.0	-91.0	2.4
2025-01-28 08:07:51.667297	177.3	15.9	-91.1	2.9
2025-01-28 08:07:52.839275	177.4	15.8	-90.9	3.9
2025-01-28 08:07:53.993908	177.5	15.6	-90.8	4.6
2025-01-28 08:07:55.153245	177.6	15.5	-91.0	5.2
2025-01-28 08:07:56.321795	177.6	15.4	-91.3	4.7
2025-01-28 08:07:57.485306	177.7	15.3	-91.9	4.5
2025-01-28 08:07:58.652395	177.8	15.2	-91.7	5.3
2025-01-28 08:07:59.814727	177.9	15.1	-91.9	4.4
2025-01-28 08:08:00.971096	177.9	14.9	-91.8	2.4
2025-01-28 08:08:02.133743	178.0	14.8	-91.6	3.9
2025-01-28 08:08:03.291805	178.1	14.7	-91.9	5.0
2025-01-28 08:08:04.452216	178.2	14.6	-91.8	3.6
2025-01-28 08:08:05.599553	178.2	14.5	-91.6	2.3
#Closed at: 2025-01-28 07:59:06.880581