passes_logs/2026/01/01/R3.2S_Murmansk/R3.2S_Murmansk__20260101_205058_TY-42_rec.log

#Pass ID: 20260101_205058_TY-42
#Satellite: TY-42
#Configuration: TY-42_900M
#almurnet v.1.7.20251203
#Start time: 2026-01-01 20:50:57

#Version: 2.2.20231116
#Station: R3.2S_Murmansk
#Location: 33.079688 lon 68.888172 lat
#TLE: 1 64048U 25103A   26001.16230324  .00008011  00000-0  38191-3 0 09998
#TLE: 2 64048 097.4120 076.8412 0001853 093.7312 056.4064 15.19175193 34719

#Time	Az	El	Level	Level2	SNR	BER	BlckErr	Temp	State	Recorded	gain1	gain2
2026-01-01 20:50:57.88	216.13	1.99	-59.6	-62.9	6.2	0.00e+00	0	38	0	0	86	20475
2026-01-01 20:50:58.88	216.23	2.05	-59.6	-62.9	6.2	0.00e+00	0	38	104	0	86	20436
2026-01-01 20:50:59.89	216.34	2.11	-59.6	-62.9	6.2	0.00e+00	0	38	104	0	86	20463
2026-01-01 20:51:00.89	216.44	2.17	-59.6	-62.9	6.2	0.00e+00	0	38	104	0	86	20414
2026-01-01 20:51:01.90	216.54	2.23	-59.6	-62.9	6.2	0.00e+00	0	38	104	0	86	20477
2026-01-01 20:51:02.90	216.65	2.28	-59.6	-62.9	6.2	0.00e+00	0	38	104	0	86	20408
2026-01-01 20:51:03.90	216.75	2.34	-59.6	-62.8	6.2	0.00e+00	0	38	104	0	86	20385
2026-01-01 20:51:04.91	216.86	2.40	-59.6	-62.8	6.2	0.00e+00	0	38	104	0	86	20369
2026-01-01 20:51:05.91	216.96	2.46	-59.6	-62.9	6.2	0.00e+00	0	38	104	0	86	20410
2026-01-01 20:51:06.92	217.07	2.52	-59.6	-62.9	6.2	0.00e+00	0	38	104	0	86	20462
2026-01-01 20:51:07.92	217.17	2.58	-59.6	-62.9	6.2	0.00e+00	0	38	104	0	86	20458
2026-01-01 20:51:08.92	217.28	2.64	-59.6	-62.9	6.2	0.00e+00	0	39	104	0	86	20412
2026-01-01 20:51:09.92	217.39	2.70	-59.6	-62.9	6.2	0.00e+00	0	39	104	0	86	20503
2026-01-01 20:51:10.92	217.49	2.76	-59.6	-62.9	6.2	0.00e+00	0	39	104	0	86	20495
2026-01-01 20:51:11.91	217.60	2.82	-59.6	-62.9	6.2	0.00e+00	0	39	104	0	86	20487
2026-01-01 20:51:12.91	217.71	2.88	-59.6	-62.9	6.2	0.00e+00	0	39	104	0	86	20499
2026-01-01 20:51:13.91	217.82	2.94	-59.6	-62.9	6.2	0.00e+00	0	39	104	0	86	20452
2026-01-01 20:51:14.91	217.93	3.00	-59.6	-62.9	6.2	0.00e+00	0	39	104	0	86	20499
2026-01-01 20:51:15.91	218.04	3.06	-59.6	-62.9	6.2	0.00e+00	0	39	104	0	86	20403
2026-01-01 20:51:16.92	218.15	3.12	-59.6	-62.9	6.2	0.00e+00	0	39	104	0	86	20453
2026-01-01 20:51:17.93	218.27	3.18	-59.6	-62.9	6.2	0.00e+00	0	39	104	0	86	20474
2026-01-01 20:51:18.93	218.38	3.24	-59.6	-62.9	6.2	0.00e+00	0	39	104	0	86	20476
2026-01-01 20:51:19.92	218.49	3.30	-59.6	-62.9	6.2	0.00e+00	0	39	104	0	86	20532
2026-01-01 20:51:20.92	218.60	3.36	-59.7	-62.9	6.2	0.00e+00	0	39	104	0	86	20506
2026-01-01 20:51:21.92	218.72	3.42	-59.6	-62.9	6.2	0.00e+00	0	39	104	0	86	20426
2026-01-01 20:51:22.92	218.83	3.48	-59.6	-62.9	6.2	0.00e+00	0	39	104	0	86	20459
2026-01-01 20:51:23.92	218.95	3.54	-59.6	-62.9	6.2	0.00e+00	0	39	104	0	86	20460
2026-01-01 20:51:24.92	219.06	3.60	-59.7	-62.9	6.2	0.00e+00	0	39	104	0	86	20484
2026-01-01 20:51:25.93	219.18	3.66	-59.6	-62.9	6.2	0.00e+00	0	39	104	0	86	20434
2026-01-01 20:51:26.92	219.29	3.73	-59.6	-62.9	6.2	0.00e+00	0	39	104	0	86	20464
2026-01-01 20:51:27.93	219.41	3.79	-59.6	-62.9	6.2	0.00e+00	0	40	104	0	86	20520
2026-01-01 20:51:28.93	219.53	3.85	-59.6	-62.9	6.2	0.00e+00	0	39	104	0	86	20454
2026-01-01 20:51:29.93	219.65	3.91	-59.6	-62.9	6.2	0.00e+00	0	40	104	0	86	20486
2026-01-01 20:51:30.93	219.77	3.97	-59.7	-62.9	6.2	0.00e+00	0	40	104	0	86	20476
2026-01-01 20:51:31.93	219.89	4.03	-59.7	-62.9	6.2	0.00e+00	0	40	104	0	86	20425
2026-01-01 20:51:32.93	220.01	4.09	-59.6	-62.9	6.2	0.00e+00	0	40	104	0	86	20457
2026-01-01 20:51:33.92	220.13	4.16	-59.6	-62.9	6.2	0.00e+00	0	40	104	0	86	20490
2026-01-01 20:51:34.93	220.25	4.22	-59.6	-62.9	6.2	0.00e+00	0	40	104	0	86	20475
2026-01-01 20:51:35.93	220.37	4.28	-59.6	-62.9	6.2	0.00e+00	0	40	104	0	86	20417
2026-01-01 20:51:36.93	220.50	4.34	-59.7	-62.9	6.2	0.00e+00	0	40	104	0	86	20466
2026-01-01 20:51:37.93	220.62	4.40	-59.6	-62.9	6.2	0.00e+00	0	40	104	0	86	20504
2026-01-01 20:51:38.93	220.74	4.47	-59.7	-62.9	6.2	0.00e+00	0	40	104	0	86	20495
2026-01-01 20:51:39.93	220.87	4.53	-59.7	-62.9	6.2	0.00e+00	0	40	104	0	86	20531
2026-01-01 20:51:40.93	220.99	4.59	-59.7	-62.9	6.2	0.00e+00	0	40	104	0	86	20477
2026-01-01 20:51:41.93	221.12	4.65	-59.7	-62.9	6.2	0.00e+00	0	40	104	0	86	20486
2026-01-01 20:51:42.93	221.25	4.72	-59.7	-62.9	6.2	0.00e+00	0	40	104	0	86	20494
2026-01-01 20:51:43.93	221.37	4.78	-59.7	-62.9	6.2	0.00e+00	0	40	104	0	86	20449
2026-01-01 20:51:44.93	221.50	4.84	-59.7	-62.9	6.2	0.00e+00	0	40	104	0	86	20509
2026-01-01 20:51:45.93	221.63	4.91	-59.7	-62.9	6.2	0.00e+00	0	40	104	0	86	20536
2026-01-01 20:51:46.94	221.76	4.97	-59.6	-62.9	6.2	0.00e+00	0	40	104	0	86	20422
2026-01-01 20:51:47.95	221.89	5.03	-59.7	-62.9	6.2	0.00e+00	0	40	104	0	86	20505
2026-01-01 20:51:48.95	222.02	5.10	-59.9	-63.1	6.2	0.00e+00	0	40	104	0	86	21055
2026-01-01 20:51:49.95	222.16	5.16	-59.6	-62.9	6.2	0.00e+00	0	40	104	0	86	20406
2026-01-01 20:51:50.95	222.29	5.22	-59.8	-63.0	6.2	0.00e+00	0	40	104	0	86	20836
2026-01-01 20:51:51.95	222.42	5.29	-59.7	-63.0	6.2	0.00e+00	0	40	104	0	86	20722
2026-01-01 20:51:52.95	222.55	5.35	-59.7	-62.9	6.2	0.00e+00	0	40	104	0	86	20453
2026-01-01 20:51:53.95	222.69	5.41	-58.7	-61.4	6.2	0.00e+00	0	40	104	0	83	20525
2026-01-01 20:51:54.96	222.82	5.48	-46.6	-47.0	11.3	0.00e+00	4545	41	104	0	60	14627
2026-01-01 20:51:55.96	222.96	5.54	-51.7	-52.3	9.7	4.46e-02	5403	42	0	100663296	69	16134
2026-01-01 20:51:56.95	223.10	5.61	-44.4	-44.7	13.4	4.46e-02	0	42	0	218103808	56	14148
2026-01-01 20:51:57.96	223.23	5.67	-44.3	-44.6	13.5	1.21e-01	0	41	0	327155712	55	14838
2026-01-01 20:51:58.95	223.37	5.74	-44.4	-44.7	13.4	1.21e-01	0	42	0	436207616	55	14977
2026-01-01 20:51:59.96	223.51	5.80	-44.3	-44.6	13.4	1.21e-01	0	42	0	553648128	55	14908
2026-01-01 20:52:00.95	223.65	5.86	-44.4	-44.7	13.4	9.46e-03	0	42	0	662700032	55	14981
2026-01-01 20:52:01.95	223.79	5.93	-44.3	-44.6	13.5	9.46e-03	0	42	0	780140544	55	14795
2026-01-01 20:52:02.96	223.93	5.99	-44.3	-44.6	13.5	9.46e-03	0	42	0	889192448	55	14893
2026-01-01 20:52:03.97	224.07	6.06	-44.1	-44.4	13.6	9.04e-03	0	42	0	998244352	55	14495
2026-01-01 20:52:04.97	224.22	6.12	-43.9	-44.2	13.6	9.04e-03	0	42	0	1115684864	55	14146
2026-01-01 20:52:05.97	224.36	6.19	-44.0	-44.3	13.6	9.04e-03	0	42	0	1233125376	55	14383
2026-01-01 20:52:06.97	224.50	6.25	-43.9	-44.2	13.6	6.18e-03	0	42	0	1342177280	55	14210
2026-01-01 20:52:07.97	224.65	6.32	-43.9	-44.2	13.6	6.18e-03	0	42	0	1451229184	55	14225
2026-01-01 20:52:08.96	224.79	6.38	-43.9	-44.2	13.7	6.18e-03	0	42	0	1560281088	55	14183
2026-01-01 20:52:09.96	224.94	6.45	-43.9	-44.2	13.7	6.18e-03	0	42	0	1677721600	54	14961
2026-01-01 20:52:10.96	225.09	6.51	-43.8	-44.0	13.7	5.83e-03	0	42	0	1786773504	54	14761
2026-01-01 20:52:11.96	225.23	6.58	-43.8	-44.1	13.7	5.83e-03	0	42	0	1904214016	54	14866
2026-01-01 20:52:12.96	225.38	6.64	-43.7	-44.0	13.8	5.14e-03	0	42	0	2013265920	54	14721
2026-01-01 20:52:13.96	225.53	6.71	-43.8	-44.1	13.7	5.14e-03	0	43	0	2122317824	54	14903
2026-01-01 20:52:14.95	225.68	6.77	-43.8	-44.1	13.7	5.14e-03	0	43	0	2239758336	54	14922
2026-01-01 20:52:15.94	225.83	6.84	-43.8	-44.1	13.6	4.81e-03	0	43	0	2348810240	54	14911
2026-01-01 20:52:16.94	225.98	6.91	-43.8	-44.1	13.6	4.81e-03	0	43	0	2466250752	54	14846
2026-01-01 20:52:17.94	226.14	6.97	-43.7	-44.0	13.7	4.81e-03	0	43	0	2575302656	54	14719
2026-01-01 20:52:18.93	226.29	7.04	-43.7	-44.0	13.7	4.85e-03	0	43	0	2692743168	54	14687
2026-01-01 20:52:19.93	226.44	7.10	-43.7	-44.0	13.7	4.85e-03	0	43	0	2801795072	54	14681
2026-01-01 20:52:20.94	226.60	7.17	-43.8	-44.0	13.7	4.85e-03	0	43	0	2910846976	54	14775
2026-01-01 20:52:21.93	226.75	7.24	-43.7	-44.0	13.7	3.99e-03	0	43	0	3028287488	54	14691
2026-01-01 20:52:22.92	226.91	7.30	-43.4	-43.7	13.8	3.99e-03	0	43	0	3137339392	54	14213
2026-01-01 20:52:23.92	227.07	7.37	-43.5	-43.7	13.8	3.89e-03	0	43	0	3254779904	54	14270
2026-01-01 20:52:24.93	227.23	7.43	-43.5	-43.7	13.8	3.89e-03	0	43	0	3363831808	54	14266
2026-01-01 20:52:25.92	227.39	7.50	-43.4	-43.7	13.8	3.89e-03	0	43	0	3472883712	54	14210
2026-01-01 20:52:26.92	227.55	7.57	-43.4	-43.7	13.9	3.23e-03	0	43	0	3581935616	54	14159
2026-01-01 20:52:27.92	227.71	7.63	-43.5	-43.8	13.8	3.23e-03	0	43	0	3699376128	54	14347
2026-01-01 20:52:28.92	227.87	7.70	-43.3	-43.6	13.9	3.23e-03	0	43	0	3808428032	53	14805
2026-01-01 20:52:29.92	228.03	7.77	-43.3	-43.6	13.9	3.10e-03	0	43	0	3925868544	53	14807
2026-01-01 20:52:30.92	228.20	7.83	-43.1	-43.4	13.9	3.10e-03	0	43	0	4034920448	53	14491
2026-01-01 20:52:31.92	228.36	7.90	-43.1	-43.3	13.9	2.90e-03	0	43	0	4152360960	53	14388
2026-01-01 20:52:32.93	228.53	7.97	-43.1	-43.4	13.9	2.90e-03	0	43	0	4261412864	53	14444
2026-01-01 20:52:33.94	228.70	8.04	-43.0	-43.2	14.0	2.90e-03	0	43	0	4378853376	53	14244
2026-01-01 20:52:34.94	228.87	8.10	-43.0	-43.2	14.0	2.25e-03	0	43	0	4487905280	53	14240
2026-01-01 20:52:35.94	229.03	8.17	-43.1	-43.4	13.9	2.25e-03	0	43	0	4605345792	53	14442
2026-01-01 20:52:36.94	229.20	8.24	-43.0	-43.2	14.0	2.40e-03	0	43	0	4714397696	53	14267
2026-01-01 20:52:37.93	229.37	8.30	-42.9	-43.2	14.0	2.40e-03	0	43	0	4823449600	53	14127
2026-01-01 20:52:38.94	229.55	8.37	-42.8	-43.1	14.0	2.40e-03	0	43	0	4940890112	52	14836
2026-01-01 20:52:39.94	229.72	8.44	-42.9	-43.2	14.0	1.98e-03	0	43	0	5049942016	52	15034
2026-01-01 20:52:40.94	229.89	8.51	-42.9	-43.2	14.0	1.98e-03	0	43	0	5167382528	52	14991
2026-01-01 20:52:41.94	230.07	8.57	-42.8	-43.0	14.0	2.12e-03	0	43	0	5276434432	52	14765
2026-01-01 20:52:42.94	230.24	8.64	-42.6	-42.9	14.1	2.12e-03	0	43	0	5385486336	52	14533
2026-01-01 20:52:43.94	230.42	8.71	-42.6	-42.9	14.1	2.12e-03	0	44	0	5502926848	52	14514
2026-01-01 20:52:44.94	230.60	8.77	-42.6	-42.9	14.1	2.12e-03	0	43	0	5611978752	52	14531
2026-01-01 20:52:45.94	230.77	8.84	-42.6	-42.9	14.2	1.54e-03	0	44	0	5729419264	52	14466
2026-01-01 20:52:46.94	230.95	8.91	-42.6	-42.9	14.1	1.54e-03	0	44	0	5838471168	52	14441
2026-01-01 20:52:47.94	231.13	8.98	-42.5	-42.8	14.2	1.54e-03	0	44	0	5947523072	52	14313
2026-01-01 20:52:48.94	231.31	9.05	-42.6	-42.9	14.2	1.34e-03	0	44	0	6064963584	52	14465
2026-01-01 20:52:49.93	231.49	9.11	-42.5	-42.7	14.2	1.34e-03	0	44	0	6174015488	52	14269
2026-01-01 20:52:50.94	231.68	9.18	-42.5	-42.7	14.2	1.34e-03	0	44	0	6291456000	52	14230
2026-01-01 20:52:51.94	231.86	9.25	-42.5	-42.8	14.2	1.35e-03	0	44	0	6400507904	52	14315
2026-01-01 20:52:52.94	232.05	9.32	-42.4	-42.7	14.2	1.35e-03	0	44	0	6517948416	52	14140
2026-01-01 20:52:53.94	232.24	9.38	-42.5	-42.7	14.2	1.09e-03	0	44	0	6627000320	52	14204
2026-01-01 20:52:54.93	232.42	9.45	-42.5	-42.8	14.2	1.09e-03	0	44	0	6736052224	52	14302
2026-01-01 20:52:55.94	232.61	9.52	-42.4	-42.6	14.2	1.18e-03	0	44	0	6853492736	51	14905
2026-01-01 20:52:56.93	232.80	9.59	-42.4	-42.7	14.2	1.18e-03	0	44	0	6962544640	51	14978
2026-01-01 20:52:57.93	232.99	9.65	-42.2	-42.5	14.2	1.18e-03	0	44	0	7079985152	51	14683
2026-01-01 20:52:58.93	233.18	9.72	-42.3	-42.5	14.2	1.23e-03	0	44	0	7189037056	51	14763
2026-01-01 20:52:59.93	233.37	9.79	-42.3	-42.5	14.2	1.23e-03	0	44	0	7298088960	51	14755
2026-01-01 20:53:00.93	233.57	9.86	-42.2	-42.5	14.3	1.02e-03	0	44	0	7415529472	51	14613
2026-01-01 20:53:01.93	233.76	9.92	-42.3	-42.6	14.2	1.02e-03	0	44	0	7524581376	51	14808
2026-01-01 20:53:02.94	233.96	9.99	-42.1	-42.4	14.3	1.02e-03	0	44	0	7642021888	51	14505
2026-01-01 20:53:03.93	234.15	10.06	-42.1	-42.4	14.3	1.02e-03	0	44	0	7751073792	51	14526
2026-01-01 20:53:04.94	234.35	10.13	-42.2	-42.5	14.3	1.04e-03	0	44	0	7860125696	51	14624
2026-01-01 20:53:05.93	234.55	10.20	-42.0	-42.3	14.3	1.04e-03	0	44	0	7977566208	51	14360
2026-01-01 20:53:06.93	234.75	10.26	-42.1	-42.3	14.3	8.01e-04	0	44	0	8086618112	51	14417
2026-01-01 20:53:07.93	234.95	10.33	-42.0	-42.3	14.3	8.01e-04	0	44	0	8204058624	51	14277
2026-01-01 20:53:08.94	235.16	10.40	-42.0	-42.2	14.3	8.01e-04	0	44	0	8313110528	51	14242
2026-01-01 20:53:09.94	235.36	10.47	-42.0	-42.3	14.4	8.68e-04	0	44	0	8430551040	51	14279
2026-01-01 20:53:10.94	235.57	10.53	-42.1	-42.4	14.3	8.68e-04	0	44	0	8539602944	51	14446
2026-01-01 20:53:11.94	235.77	10.60	-42.0	-42.2	14.3	8.68e-04	0	44	0	8648654848	51	14255
2026-01-01 20:53:12.94	235.98	10.67	-41.9	-42.2	14.4	8.01e-04	0	44	0	8766095360	51	14193
2026-01-01 20:53:13.94	236.19	10.74	-41.9	-42.2	14.4	8.01e-04	0	44	0	8875147264	51	14199
2026-01-01 20:53:14.94	236.39	10.80	-41.8	-42.1	14.4	8.01e-04	0	44	0	8984199168	50	14847
2026-01-01 20:53:15.93	236.60	10.87	-41.9	-42.1	14.4	7.91e-04	0	44	0	9101639680	50	14908
2026-01-01 20:53:16.93	236.81	10.94	-41.8	-42.1	14.4	7.91e-04	0	44	0	9210691584	50	14887
2026-01-01 20:53:17.92	237.02	11.00	-41.9	-42.1	14.3	6.91e-04	0	44	0	9328132096	50	14945
2026-01-01 20:53:18.92	237.24	11.07	-41.9	-42.2	14.3	6.91e-04	0	44	0	9437184000	50	14982
2026-01-01 20:53:19.92	237.45	11.14	-41.7	-42.0	14.4	6.91e-04	0	44	0	9546235904	50	14656
2026-01-01 20:53:20.91	237.67	11.21	-41.8	-42.0	14.3	6.91e-04	0	44	0	9655287808	50	14728
2026-01-01 20:53:21.91	237.88	11.27	-41.7	-42.0	14.4	8.01e-04	0	44	0	9772728320	50	14657
2026-01-01 20:53:22.90	238.10	11.34	-41.7	-42.0	14.4	8.01e-04	0	44	0	9881780224	50	14690
2026-01-01 20:53:23.90	238.32	11.41	-41.7	-41.9	14.4	6.05e-04	0	44	0	9999220736	50	14531
2026-01-01 20:53:24.90	238.54	11.47	-41.7	-41.9	14.4	6.05e-04	0	44	0	10108272640	50	14579
2026-01-01 20:53:25.90	238.76	11.54	-41.7	-41.9	14.4	6.05e-04	0	44	0	10217324544	50	14567
2026-01-01 20:53:26.89	238.98	11.60	-41.6	-41.9	14.4	5.96e-04	0	44	0	10334765056	50	14460
2026-01-01 20:53:27.89	239.21	11.67	-41.6	-41.8	14.4	5.96e-04	0	44	0	10443816960	50	14423
2026-01-01 20:53:28.89	239.43	11.74	-41.5	-41.8	14.5	5.96e-04	0	44	0	10561257472	50	14298
2026-01-01 20:53:29.90	239.66	11.80	-41.6	-41.8	14.4	5.34e-04	0	44	0	10670309376	50	14410
2026-01-01 20:53:30.89	239.89	11.87	-41.6	-41.8	14.4	5.34e-04	0	44	0	10779361280	50	14412
2026-01-01 20:53:31.88	240.11	11.93	-41.5	-41.7	14.5	5.67e-04	0	44	0	10896801792	50	14233
2026-01-01 20:53:32.88	240.34	12.00	-41.5	-41.7	14.5	5.67e-04	0	45	0	11005853696	50	14245
2026-01-01 20:53:33.89	240.58	12.07	-41.5	-41.7	14.5	5.67e-04	0	45	0	11123294208	50	14235
2026-01-01 20:53:34.88	240.81	12.13	-41.4	-41.7	14.5	5.05e-04	0	44	0	11232346112	50	14195
2026-01-01 20:53:35.88	241.04	12.20	-41.5	-41.8	14.4	5.05e-04	0	44	0	11349786624	50	14305
2026-01-01 20:53:36.87	241.27	12.26	-41.6	-41.8	14.4	4.86e-04	0	44	0	11458838528	50	14438
2026-01-01 20:53:37.87	241.51	12.33	-41.5	-41.7	14.4	4.86e-04	0	44	0	11567890432	50	14261
2026-01-01 20:53:38.87	241.75	12.39	-41.4	-41.7	14.5	4.86e-04	0	44	0	11676942336	50	14187
2026-01-01 20:53:39.87	241.99	12.46	-41.3	-41.6	14.5	4.86e-04	0	44	0	11794382848	49	14815
2026-01-01 20:53:40.87	242.23	12.52	-41.3	-41.5	14.5	5.58e-04	0	45	0	11911823360	49	14772
2026-01-01 20:53:41.87	242.47	12.59	-41.3	-41.6	14.5	5.58e-04	0	44	0	12012486656	49	14855
2026-01-01 20:53:42.87	242.71	12.65	-41.4	-41.6	14.5	5.25e-04	0	44	0	12129927168	49	14929
2026-01-01 20:53:43.87	242.95	12.71	-41.3	-41.6	14.5	5.25e-04	0	45	0	12238979072	49	14825
2026-01-01 20:53:44.87	243.20	12.78	-41.3	-41.5	14.5	5.25e-04	0	44	0	12356419584	49	14765
2026-01-01 20:53:45.86	243.44	12.84	-41.2	-41.5	14.5	5.01e-04	0	44	0	12465471488	49	14694
2026-01-01 20:53:46.87	243.69	12.90	-41.3	-41.6	14.5	5.01e-04	0	45	0	12574523392	49	14781
2026-01-01 20:53:47.86	243.94	12.97	-41.3	-41.6	14.5	5.01e-04	0	45	0	12691963904	49	14789
2026-01-01 20:53:48.85	244.19	13.03	-41.2	-41.4	14.5	3.48e-04	0	45	0	12801015808	49	14605
2026-01-01 20:53:49.85	244.44	13.09	-41.2	-41.4	14.5	3.48e-04	0	45	0	12918456320	49	14563
2026-01-01 20:53:50.84	244.69	13.15	-41.1	-41.4	14.5	3.48e-04	0	45	0	13027508224	49	14534
2026-01-01 20:53:51.84	244.94	13.22	-41.2	-41.5	14.5	4.10e-04	0	44	0	13136560128	49	14611
2026-01-01 20:53:52.83	245.19	13.28	-41.2	-41.4	14.5	4.10e-04	0	44	0	13254000640	49	14604
2026-01-01 20:53:53.82	245.45	13.34	-41.1	-41.4	14.5	3.86e-04	0	45	0	13363052544	49	14475
2026-01-01 20:53:54.83	245.71	13.40	-41.2	-41.4	14.5	3.86e-04	0	45	0	13480493056	49	14589
2026-01-01 20:53:55.83	245.96	13.46	-41.1	-41.3	14.5	3.86e-04	0	45	0	13589544960	49	14436
2026-01-01 20:53:56.82	246.22	13.52	-41.0	-41.3	14.6	3.86e-04	0	44	0	13706985472	49	14335
2026-01-01 20:53:57.81	246.48	13.58	-41.1	-41.3	14.5	3.86e-04	0	45	0	13807648768	49	14398
2026-01-01 20:53:58.81	246.74	13.64	-41.1	-41.3	14.5	3.86e-04	0	45	0	13925089280	49	14412
2026-01-01 20:53:59.81	247.00	13.70	-41.0	-41.3	14.6	3.48e-04	0	44	0	14034141184	49	14275
2026-01-01 20:54:00.81	247.27	13.76	-41.0	-41.3	14.6	3.48e-04	0	45	0	14143193088	49	14312
2026-01-01 20:54:01.81	247.54	13.82	-40.9	-41.2	14.6	3.48e-04	0	44	0	14260633600	49	14211
2026-01-01 20:54:02.81	247.80	13.88	-40.9	-41.2	14.6	3.34e-04	0	45	0	14369685504	49	14169
2026-01-01 20:54:03.82	248.07	13.94	-40.8	-41.1	14.6	3.34e-04	0	45	0	14487126016	48	14850
2026-01-01 20:54:04.82	248.34	14.00	-40.8	-41.1	14.6	3.34e-04	0	45	0	14604566528	48	14782
2026-01-01 20:54:05.82	248.61	14.06	-40.8	-41.0	14.6	3.34e-04	0	45	0	14713618432	48	14723
2026-01-01 20:54:06.82	248.89	14.12	-40.8	-41.0	14.6	2.38e-04	0	45	0	14831058944	48	14774
2026-01-01 20:54:07.82	249.16	14.17	-40.7	-40.9	14.6	2.38e-04	0	45	0	14940110848	48	14585
2026-01-01 20:54:08.81	249.43	14.23	-40.7	-40.9	14.6	2.19e-04	0	45	0	15049162752	48	14559
2026-01-01 20:54:09.81	249.71	14.29	-40.7	-40.9	14.6	2.19e-04	0	45	0	15158214656	48	14599
2026-01-01 20:54:10.81	249.98	14.34	-40.6	-40.8	14.7	2.19e-04	0	45	0	15275655168	48	14369
2026-01-01 20:54:11.80	250.26	14.40	-40.4	-40.7	14.7	2.43e-04	0	45	0	15384707072	48	14200
2026-01-01 20:54:12.79	250.54	14.45	-40.5	-40.8	14.7	2.43e-04	0	45	0	15493758976	48	14280
2026-01-01 20:54:13.79	250.82	14.51	-40.5	-40.7	14.7	2.43e-04	0	45	0	15611199488	48	14259
2026-01-01 20:54:14.79	251.10	14.56	-39.5	-39.8	14.6	2.43e-04	0	45	0	15720251392	46	14313
2026-01-01 20:54:15.78	251.38	14.62	-39.6	-39.8	14.6	3.15e-04	0	45	0	15837691904	46	14419
2026-01-01 20:54:16.78	251.66	14.67	-39.6	-39.8	14.6	3.15e-04	0	45	0	15946743808	46	14405
2026-01-01 20:54:17.78	251.95	14.73	-39.5	-39.8	14.6	3.67e-04	0	45	0	16055795712	46	14316
2026-01-01 20:54:18.78	252.23	14.78	-39.6	-39.9	14.6	3.67e-04	0	45	0	16173236224	46	14443
2026-01-01 20:54:19.78	252.52	14.83	-39.5	-39.8	14.6	3.67e-04	0	45	0	16282288128	46	14279
2026-01-01 20:54:20.78	252.81	14.88	-39.6	-39.8	14.6	3.67e-04	0	45	0	16399728640	46	14416
2026-01-01 20:54:21.77	253.10	14.93	-39.6	-39.8	14.6	3.43e-04	0	45	0	16508780544	46	14394
2026-01-01 20:54:22.78	253.39	14.99	-39.5	-39.7	14.6	3.43e-04	0	45	0	16626221056	46	14254
2026-01-01 20:54:23.78	253.68	15.04	-39.5	-39.7	14.6	3.43e-04	0	45	0	16735272960	46	14208
2026-01-01 20:54:24.78	253.98	15.09	-39.5	-39.7	14.6	4.00e-04	0	45	0	16844324864	46	14258
2026-01-01 20:54:25.77	254.27	15.14	-39.4	-39.7	14.6	4.00e-04	0	45	0	16961765376	46	14150
2026-01-01 20:54:26.77	254.56	15.19	-39.5	-39.7	14.6	4.00e-04	0	45	0	17070817280	46	14268
2026-01-01 20:54:27.77	254.86	15.24	-39.5	-39.7	14.6	3.10e-04	0	45	0	17179869184	46	14213
2026-01-01 20:54:28.76	255.16	15.28	-39.5	-39.7	14.6	3.10e-04	0	45	0	17288921088	46	14266
2026-01-01 20:54:29.76	255.46	15.33	-39.5	-39.7	14.6	3.10e-04	0	45	0	17406361600	46	14241
2026-01-01 20:54:30.76	255.76	15.38	-39.5	-39.7	14.7	2.96e-04	0	45	0	17515413504	46	14240
2026-01-01 20:54:31.76	256.06	15.43	-39.5	-39.7	14.6	2.96e-04	0	45	0	17632854016	46	14188
2026-01-01 20:54:32.76	256.36	15.47	-39.4	-39.7	14.6	2.91e-04	0	45	0	17741905920	46	14124
2026-01-01 20:54:33.76	256.66	15.52	-39.4	-39.6	14.6	2.91e-04	0	45	0	17850957824	45	14877
2026-01-01 20:54:34.77	256.97	15.56	-39.4	-39.6	14.6	2.91e-04	0	45	0	17968398336	45	14912
2026-01-01 20:54:35.77	257.27	15.61	-39.3	-39.6	14.6	2.91e-04	0	45	0	18077450240	45	14813
2026-01-01 20:54:36.76	257.58	15.65	-39.3	-39.5	14.7	2.05e-04	0	45	0	18194890752	45	14759
2026-01-01 20:54:37.76	257.89	15.69	-39.2	-39.5	14.7	2.05e-04	0	45	0	18303942656	45	14630
2026-01-01 20:54:38.75	258.19	15.74	-39.3	-39.5	14.6	2.05e-04	0	45	0	18412994560	45	14748
2026-01-01 20:54:39.76	258.50	15.78	-39.2	-39.5	14.7	2.53e-04	0	45	0	18530435072	45	14656
2026-01-01 20:54:40.76	258.81	15.82	-39.3	-39.6	14.6	2.53e-04	0	45	0	18639486976	45	14777
2026-01-01 20:54:41.76	259.13	15.86	-39.3	-39.5	14.7	2.48e-04	0	45	0	18756927488	45	14716
2026-01-01 20:54:42.76	259.44	15.90	-39.3	-39.5	14.7	2.48e-04	0	45	0	18865979392	45	14751
2026-01-01 20:54:43.76	259.75	15.94	-39.3	-39.5	14.7	2.48e-04	0	45	0	18975031296	45	14699
2026-01-01 20:54:44.76	260.07	15.98	-39.3	-39.5	14.7	2.48e-04	0	45	0	19092471808	45	14737
2026-01-01 20:54:45.76	260.38	16.02	-39.3	-39.6	14.7	2.72e-04	0	45	0	19201523712	45	14807
2026-01-01 20:54:46.77	260.70	16.06	-39.3	-39.5	14.7	2.72e-04	0	45	0	19318964224	45	14718
2026-01-01 20:54:47.76	261.01	16.09	-39.3	-39.5	14.7	2.34e-04	0	45	0	19428016128	45	14724
2026-01-01 20:54:48.76	261.33	16.13	-39.3	-39.5	14.7	2.34e-04	0	45	0	19545456640	45	14757
2026-01-01 20:54:49.76	261.65	16.17	-39.2	-39.5	14.7	2.34e-04	0	45	0	19654508544	45	14645
2026-01-01 20:54:50.76	261.97	16.20	-39.3	-39.6	14.6	2.67e-04	0	45	0	19763560448	45	14804
2026-01-01 20:54:51.75	262.29	16.23	-39.4	-39.7	14.7	2.67e-04	0	45	0	19881000960	45	14978
2026-01-01 20:54:52.75	262.61	16.27	-39.4	-39.6	14.6	2.67e-04	0	45	0	19990052864	45	14945
2026-01-01 20:54:53.74	262.93	16.30	-39.3	-39.5	14.7	2.67e-04	0	45	0	20107493376	45	14680
2026-01-01 20:54:54.74	263.25	16.33	-39.3	-39.6	14.7	2.67e-04	0	45	0	20216545280	45	14810
2026-01-01 20:54:55.74	263.57	16.36	-39.3	-39.5	14.7	2.86e-04	0	45	0	20325597184	45	14706
2026-01-01 20:54:56.75	263.90	16.40	-39.3	-39.5	14.7	2.86e-04	0	45	0	20443037696	45	14761
2026-01-01 20:54:57.74	264.22	16.42	-39.3	-39.5	14.7	2.86e-04	0	45	0	20552089600	45	14776
2026-01-01 20:54:58.74	264.55	16.45	-39.3	-39.5	14.7	3.10e-04	0	45	0	20669530112	45	14734
2026-01-01 20:54:59.74	264.88	16.48	-39.3	-39.5	14.7	3.10e-04	0	45	0	20778582016	45	14762
2026-01-01 20:55:00.74	265.20	16.51	-39.3	-39.6	14.6	3.10e-04	0	45	0	20887633920	45	14845
2026-01-01 20:55:01.74	265.53	16.54	-39.4	-39.7	14.6	2.76e-04	0	45	0	21005074432	45	14976
2026-01-01 20:55:02.73	265.86	16.56	-39.4	-39.6	14.6	2.76e-04	0	45	0	21114126336	45	14896
2026-01-01 20:55:03.73	266.19	16.59	-39.4	-39.6	14.7	2.76e-04	0	45	0	21231566848	45	14865
2026-01-01 20:55:04.74	266.52	16.61	-39.4	-39.6	14.7	5.10e-04	0	45	0	21340618752	45	14913
2026-01-01 20:55:05.74	266.85	16.64	-39.3	-39.5	14.7	5.10e-04	0	45	0	21458059264	45	14744
2026-01-01 20:55:06.74	267.18	16.66	-39.3	-39.5	14.7	3.29e-04	0	45	0	21567111168	45	14773
2026-01-01 20:55:07.74	267.51	16.68	-39.3	-39.6	14.7	3.29e-04	0	45	0	21676163072	45	14819
2026-01-01 20:55:08.73	267.84	16.70	-39.4	-39.6	14.7	3.15e-04	0	45	0	21793603584	45	14913
2026-01-01 20:55:09.73	268.17	16.73	-39.3	-39.6	14.7	3.15e-04	0	45	0	21902655488	45	14839
2026-01-01 20:55:10.73	268.51	16.75	-39.3	-39.5	14.7	3.15e-04	0	45	0	22020096000	45	14735
2026-01-01 20:55:11.73	268.84	16.76	-39.4	-39.7	14.6	4.91e-04	0	45	0	22129147904	45	14948
2026-01-01 20:55:12.72	269.17	16.78	-39.4	-39.6	14.6	4.91e-04	0	45	0	22238199808	45	14920
2026-01-01 20:55:13.71	269.50	16.80	-39.3	-39.5	14.7	4.91e-04	0	45	0	22347251712	45	14759
2026-01-01 20:55:14.71	269.84	16.82	-39.3	-39.5	14.7	5.63e-04	0	45	0	22464692224	45	14719
2026-01-01 20:55:15.70	270.17	16.83	-39.3	-39.6	14.6	5.63e-04	0	45	0	22573744128	45	14822
2026-01-01 20:55:16.69	270.50	16.85	-39.4	-39.6	14.6	5.63e-04	0	45	0	22682796032	45	14942
2026-01-01 20:55:17.69	270.84	16.86	-39.3	-39.6	14.6	6.34e-04	0	45	0	22800236544	45	14842
2026-01-01 20:55:18.69	271.18	16.87	-39.4	-39.6	14.6	6.34e-04	0	45	0	22909288448	45	14926
2026-01-01 20:55:19.69	271.51	16.89	-39.4	-39.6	14.6	6.34e-04	0	45	0	23026728960	45	14940
2026-01-01 20:55:20.69	271.85	16.90	-39.4	-39.6	14.6	5.72e-04	0	45	0	23135780864	45	14935
2026-01-01 20:55:21.68	272.18	16.91	-39.4	-39.6	14.6	5.72e-04	0	45	0	23244832768	45	14916
2026-01-01 20:55:22.68	272.52	16.92	-39.4	-39.6	14.6	4.77e-04	0	45	0	23362273280	45	14942
2026-01-01 20:55:23.67	272.86	16.93	-39.4	-39.6	14.7	4.77e-04	0	45	0	23471325184	45	14890
2026-01-01 20:55:24.67	273.19	16.94	-39.4	-39.6	14.6	4.77e-04	0	45	0	23588765696	45	14901
2026-01-01 20:55:25.68	273.54	16.94	-39.4	-39.6	14.6	3.62e-04	0	45	0	23697817600	45	14907
2026-01-01 20:55:26.68	273.87	16.95	-39.4	-39.6	14.6	3.62e-04	0	45	0	23806869504	45	14935
2026-01-01 20:55:27.67	274.21	16.96	-39.4	-39.6	14.6	3.62e-04	0	45	0	23915921408	45	14906
2026-01-01 20:55:28.66	274.55	16.96	-39.4	-39.6	14.6	3.58e-04	0	45	0	24033361920	45	14928
2026-01-01 20:55:29.66	274.88	16.97	-39.4	-39.7	14.6	3.58e-04	0	45	0	24142413824	45	14958
2026-01-01 20:55:30.66	275.22	16.97	-39.5	-39.8	14.6	3.58e-04	0	45	0	24251465728	45	15161
2026-01-01 20:55:31.66	275.56	16.97	-39.4	-39.7	14.6	2.86e-04	0	45	0	24368906240	45	14957
2026-01-01 20:55:32.67	275.90	16.97	-39.4	-39.6	14.6	2.86e-04	0	45	0	24477958144	45	14896
2026-01-01 20:55:33.66	276.24	16.97	-39.4	-39.6	14.6	2.86e-04	0	45	0	24595398656	45	14881
2026-01-01 20:55:34.66	276.58	16.97	-39.4	-39.7	14.6	2.91e-04	0	45	0	24704450560	45	14973
2026-01-01 20:55:35.66	276.92	16.97	-39.5	-39.7	14.6	2.91e-04	0	45	0	24821891072	45	15035
2026-01-01 20:55:36.65	277.25	16.97	-39.5	-39.7	14.6	2.91e-04	0	45	0	24930942976	45	15037
2026-01-01 20:55:37.66	277.60	16.97	-39.5	-39.7	14.6	3.05e-04	0	45	0	25039994880	45	15106
2026-01-01 20:55:38.66	277.94	16.96	-39.5	-39.8	14.6	3.05e-04	0	45	0	25157435392	45	15138
2026-01-01 20:55:39.66	278.27	16.96	-39.5	-39.8	14.6	2.96e-04	0	45	0	25266487296	45	15197
2026-01-01 20:55:40.66	278.61	16.95	-39.5	-39.8	14.6	2.96e-04	0	45	0	25383927808	45	15148
2026-01-01 20:55:41.65	278.95	16.95	-39.6	-39.8	14.6	2.96e-04	0	45	0	25492979712	45	15202
2026-01-01 20:55:42.65	279.29	16.94	-39.7	-40.0	14.6	3.29e-04	0	45	0	25602031616	45	15483
2026-01-01 20:55:43.65	279.62	16.93	-39.7	-39.9	14.6	3.29e-04	0	45	0	25719472128	45	15375
2026-01-01 20:55:44.65	279.96	16.92	-39.7	-39.9	14.6	3.29e-04	0	45	0	25828524032	45	15433
2026-01-01 20:55:45.64	280.30	16.92	-39.6	-39.9	14.6	3.24e-04	0	45	0	25945964544	45	15347
2026-01-01 20:55:46.64	280.63	16.90	-39.7	-40.0	14.6	3.24e-04	0	45	0	26055016448	45	15491
2026-01-01 20:55:47.65	280.97	16.89	-39.8	-40.0	14.5	3.86e-04	0	45	0	26164068352	45	15595
2026-01-01 20:55:48.65	281.31	16.88	-39.7	-40.0	14.5	3.86e-04	0	45	0	26281508864	45	15507
2026-01-01 20:55:49.64	281.64	16.87	-39.8	-40.0	14.5	3.86e-04	0	45	0	26390560768	45	15591
2026-01-01 20:55:50.65	281.98	16.85	-39.8	-40.1	14.5	4.67e-04	0	45	0	26508001280	45	15702
2026-01-01 20:55:51.65	282.32	16.84	-39.8	-40.0	14.5	4.67e-04	0	45	0	26617053184	45	15642
2026-01-01 20:55:52.65	282.65	16.82	-39.8	-40.0	14.5	4.67e-04	0	45	0	26726105088	45	15597
2026-01-01 20:55:53.65	282.99	16.81	-39.8	-40.1	14.5	6.10e-04	0	45	0	26843545600	45	15694
2026-01-01 20:55:54.64	283.32	16.79	-39.8	-40.1	14.5	6.10e-04	0	45	0	26952597504	45	15678
2026-01-01 20:55:55.64	283.65	16.77	-39.9	-40.1	14.5	6.15e-04	0	45	0	27070038016	45	15819
2026-01-01 20:55:56.64	283.99	16.75	-39.8	-40.1	14.5	6.15e-04	0	45	0	27179089920	45	15725
2026-01-01 20:55:57.64	284.32	16.74	-39.8	-40.1	14.5	6.15e-04	0	45	0	27296530432	45	15710
2026-01-01 20:55:58.63	284.65	16.72	-39.8	-40.1	14.5	6.15e-04	0	45	0	27405582336	45	15658
2026-01-01 20:55:59.63	284.98	16.69	-40.0	-40.2	14.5	7.72e-04	0	45	0	27514634240	45	15909
2026-01-01 20:56:00.62	285.31	16.67	-39.9	-40.1	14.5	7.72e-04	0	45	0	27623686144	45	15736
2026-01-01 20:56:01.61	285.64	16.65	-39.8	-40.1	14.6	7.06e-04	0	45	0	27741126656	45	15698
2026-01-01 20:56:02.61	285.97	16.63	-39.9	-40.2	14.5	7.06e-04	0	45	0	27850178560	45	15856
2026-01-01 20:56:03.61	286.30	16.60	-39.9	-40.1	14.5	7.06e-04	0	45	0	27959230464	45	15785
2026-01-01 20:56:04.61	286.62	16.58	-40.0	-40.2	14.5	6.01e-04	0	45	0	28076670976	45	15998
2026-01-01 20:56:05.61	286.95	16.55	-39.9	-40.1	14.5	6.01e-04	0	45	0	28185722880	45	15767
2026-01-01 20:56:06.61	287.28	16.52	-39.9	-40.2	14.5	6.39e-04	0	45	0	28303163392	45	15868
2026-01-01 20:56:07.61	287.61	16.50	-39.9	-40.1	14.6	6.39e-04	0	45	0	28412215296	45	15793
2026-01-01 20:56:08.62	287.94	16.47	-39.9	-40.1	14.6	6.39e-04	0	45	0	28521267200	45	15780
2026-01-01 20:56:09.61	288.26	16.44	-39.9	-40.1	14.6	4.10e-04	0	45	0	28638707712	45	15755
2026-01-01 20:56:10.61	288.58	16.41	-39.9	-40.1	14.6	4.10e-04	0	45	0	28747759616	45	15737
2026-01-01 20:56:11.61	288.91	16.38	-39.9	-40.2	14.6	4.10e-04	0	45	0	28865200128	45	15875
2026-01-01 20:56:12.61	289.23	16.35	-40.0	-40.2	14.6	2.48e-04	0	45	0	28974252032	45	15909
2026-01-01 20:56:13.60	289.55	16.32	-40.0	-40.2	14.5	2.48e-04	0	45	0	29083303936	45	15991
2026-01-01 20:56:14.60	289.87	16.29	-39.9	-40.2	14.6	4.58e-04	0	45	0	29200744448	45	15851
2026-01-01 20:56:15.60	290.19	16.25	-40.0	-40.3	14.6	4.58e-04	0	45	0	29309796352	45	16018
2026-01-01 20:56:16.60	290.51	16.22	-40.0	-40.3	14.6	4.58e-04	0	45	0	29427236864	45	16067
2026-01-01 20:56:17.59	290.83	16.18	-40.0	-40.2	14.6	3.48e-04	0	45	0	29536288768	45	15939
2026-01-01 20:56:18.59	291.15	16.15	-40.0	-40.2	14.6	3.48e-04	0	45	0	29653729280	45	15918
2026-01-01 20:56:19.58	291.46	16.11	-40.0	-40.2	14.6	4.48e-04	0	45	0	29762781184	45	16007
2026-01-01 20:56:20.57	291.78	16.08	-40.0	-40.2	14.6	4.48e-04	0	45	0	29871833088	45	15999
2026-01-01 20:56:21.57	292.09	16.04	-40.0	-40.2	14.6	4.48e-04	0	45	0	29989273600	45	15976
2026-01-01 20:56:22.57	292.41	16.00	-40.0	-40.2	14.6	5.10e-04	0	45	0	30089936896	45	15979
2026-01-01 20:56:23.56	292.72	15.96	-40.1	-40.4	14.6	5.10e-04	0	45	0	30207377408	45	16204
2026-01-01 20:56:24.56	293.03	15.93	-40.0	-40.3	14.7	3.43e-04	0	45	0	30316429312	46	15148
2026-01-01 20:56:25.54	293.34	15.89	-40.1	-40.3	14.7	3.43e-04	0	45	0	30433869824	46	15170
2026-01-01 20:56:26.54	293.65	15.85	-40.1	-40.3	14.6	3.43e-04	0	45	0	30542921728	46	15254
2026-01-01 20:56:27.54	293.96	15.81	-40.0	-40.3	14.7	3.86e-04	0	45	0	30660362240	46	15164
2026-01-01 20:56:28.54	294.27	15.76	-40.1	-40.4	14.7	3.86e-04	0	45	0	30769414144	46	15321
2026-01-01 20:56:29.54	294.57	15.72	-40.2	-40.4	14.6	3.86e-04	0	45	0	30878466048	46	15424
2026-01-01 20:56:30.53	294.88	15.68	-40.3	-40.5	14.7	4.39e-04	0	45	0	30995906560	46	15610
2026-01-01 20:56:31.52	295.18	15.64	-40.1	-40.4	14.7	4.39e-04	0	45	0	31104958464	46	15327
2026-01-01 20:56:32.52	295.49	15.59	-40.2	-40.5	14.7	4.39e-04	0	45	0	31222398976	46	15487
2026-01-01 20:56:33.53	295.79	15.55	-40.2	-40.4	14.7	4.39e-04	0	45	0	31331450880	46	15390
2026-01-01 20:56:34.53	296.10	15.50	-40.1	-40.3	14.7	4.43e-04	0	45	0	31440502784	46	15234
2026-01-01 20:56:35.52	296.40	15.46	-40.1	-40.3	14.7	4.43e-04	0	45	0	31557943296	46	15261
2026-01-01 20:56:36.53	296.70	15.41	-40.1	-40.4	14.7	4.43e-04	0	45	0	31666995200	46	15297
2026-01-01 20:56:37.52	297.00	15.36	-40.2	-40.5	14.7	3.43e-04	0	45	0	31784435712	46	15553
2026-01-01 20:56:38.52	297.29	15.32	-40.1	-40.4	14.7	3.43e-04	0	45	0	31885099008	46	15318
2026-01-01 20:56:39.51	297.59	15.27	-40.2	-40.5	14.7	3.43e-04	0	45	0	32002539520	46	15518
2026-01-01 20:56:40.51	297.89	15.22	-40.2	-40.5	14.7	3.53e-04	0	45	0	32111591424	46	15504
2026-01-01 20:56:41.51	298.18	15.17	-40.2	-40.4	14.7	3.53e-04	0	45	0	32229031936	46	15432
2026-01-01 20:56:42.51	298.48	15.12	-40.2	-40.4	14.7	3.77e-04	0	45	0	32338083840	46	15409
2026-01-01 20:56:43.51	298.77	15.07	-40.3	-40.5	14.7	3.77e-04	0	45	0	32447135744	46	15588
2026-01-01 20:56:44.51	299.06	15.02	-40.4	-40.7	14.7	3.96e-04	0	45	0	32564576256	46	15844
2026-01-01 20:56:45.52	299.35	14.97	-40.2	-40.5	14.7	3.96e-04	0	45	0	32673628160	46	15477
2026-01-01 20:56:46.52	299.64	14.92	-40.4	-40.6	14.7	3.96e-04	0	45	0	32791068672	46	15762
2026-01-01 20:56:47.52	299.93	14.87	-40.4	-40.6	14.7	3.34e-04	0	45	0	32900120576	46	15747
2026-01-01 20:56:48.52	300.22	14.82	-40.3	-40.6	14.7	3.34e-04	0	45	0	33009172480	46	15688
2026-01-01 20:56:49.52	300.50	14.76	-40.4	-40.6	14.7	3.34e-04	0	45	0	33126612992	46	15748
2026-01-01 20:56:50.52	300.79	14.71	-40.4	-40.6	14.7	4.82e-04	0	45	0	33235664896	46	15748
2026-01-01 20:56:51.52	301.07	14.66	-40.4	-40.7	14.6	4.82e-04	0	45	0	33353105408	46	15839
2026-01-01 20:56:52.52	301.36	14.60	-40.4	-40.6	14.7	4.24e-04	0	45	0	33470545920	46	15823
2026-01-01 20:56:53.52	301.64	14.55	-40.4	-40.6	14.7	4.24e-04	0	45	0	33579597824	46	15817
2026-01-01 20:56:54.51	301.91	14.49	-40.3	-40.6	14.7	4.34e-04	0	45	0	33688649728	46	15672
2026-01-01 20:56:55.52	302.20	14.44	-40.4	-40.6	14.7	4.34e-04	0	45	0	33806090240	46	15784
2026-01-01 20:56:56.52	302.47	14.38	-40.3	-40.6	14.7	4.34e-04	0	45	0	33915142144	46	15678
2026-01-01 20:56:57.51	302.75	14.33	-40.4	-40.7	14.7	4.91e-04	0	45	0	34024194048	46	15868
2026-01-01 20:56:58.51	303.02	14.27	-40.3	-40.5	14.7	4.91e-04	0	45	0	34141634560	46	15628
2026-01-01 20:56:59.50	303.29	14.22	-40.4	-40.6	14.8	4.91e-04	0	45	0	34250686464	46	15754
2026-01-01 20:57:00.50	303.57	14.16	-40.4	-40.7	14.7	4.91e-04	0	45	0	34359738368	46	15840
2026-01-01 20:57:01.50	303.84	14.10	-40.5	-40.7	14.7	3.38e-04	0	45	0	34477178880	46	15993
2026-01-01 20:57:02.50	304.11	14.04	-40.4	-40.6	14.7	3.38e-04	0	45	0	34586230784	46	15788
2026-01-01 20:57:03.50	304.38	13.99	-40.5	-40.7	14.7	4.39e-04	0	45	0	34703671296	46	15945
2026-01-01 20:57:04.50	304.65	13.93	-40.4	-40.7	14.8	4.39e-04	0	45	0	34812723200	46	15853
2026-01-01 20:57:05.50	304.91	13.87	-40.4	-40.7	14.8	4.77e-04	0	45	0	34921775104	46	15879
2026-01-01 20:57:06.49	305.18	13.81	-40.5	-40.8	14.7	4.77e-04	0	45	0	35039215616	46	16068
2026-01-01 20:57:07.49	305.44	13.75	-40.4	-40.6	14.8	3.43e-04	0	45	0	35148267520	46	15820
2026-01-01 20:57:08.49	305.70	13.69	-40.5	-40.8	14.8	3.43e-04	0	45	0	35265708032	46	16017
2026-01-01 20:57:09.49	305.96	13.63	-40.5	-40.8	14.8	3.43e-04	0	45	0	35374759936	46	16058
2026-01-01 20:57:10.49	306.22	13.57	-40.6	-40.9	14.8	3.48e-04	0	45	0	35492200448	47	15334
2026-01-01 20:57:11.48	306.48	13.51	-40.6	-40.9	14.8	3.48e-04	0	45	0	35601252352	47	15340
2026-01-01 20:57:12.48	306.74	13.45	-40.6	-40.8	14.8	3.48e-04	0	45	0	35710304256	47	15270
2026-01-01 20:57:13.49	307.00	13.39	-40.6	-40.9	14.8	5.39e-04	0	45	0	35827744768	47	15342
2026-01-01 20:57:14.49	307.25	13.33	-40.7	-41.0	14.7	5.39e-04	0	45	0	35936796672	47	15484
2026-01-01 20:57:15.48	307.51	13.27	-40.8	-41.0	14.7	5.39e-04	0	45	0	36054237184	47	15601
2026-01-01 20:57:16.48	307.76	13.21	-40.7	-41.0	14.7	4.86e-04	0	45	0	36163289088	47	15494
2026-01-01 20:57:17.47	308.01	13.14	-40.8	-41.1	14.7	4.86e-04	0	45	0	36272340992	47	15679
2026-01-01 20:57:18.47	308.26	13.08	-40.8	-41.0	14.7	4.86e-04	0	45	0	36381392896	47	15578
2026-01-01 20:57:19.46	308.51	13.02	-40.8	-41.0	14.7	5.39e-04	0	45	0	36498833408	47	15650
2026-01-01 20:57:20.46	308.75	12.96	-40.8	-41.0	14.7	5.39e-04	0	45	0	36607885312	47	15643
2026-01-01 20:57:21.45	309.00	12.90	-40.8	-41.0	14.7	5.39e-04	0	45	0	36716937216	47	15650
2026-01-01 20:57:22.43	309.24	12.83	-40.9	-41.1	14.7	6.15e-04	0	45	0	36834377728	47	15753
2026-01-01 20:57:23.43	309.48	12.77	-40.9	-41.1	14.6	6.15e-04	0	45	0	36943429632	47	15821
2026-01-01 20:57:24.43	309.73	12.71	-40.9	-41.1	14.7	6.15e-04	0	45	0	37060870144	47	15758
2026-01-01 20:57:25.42	309.97	12.64	-40.9	-41.2	14.7	7.49e-04	0	45	0	37161533440	47	15894
2026-01-01 20:57:26.42	310.21	12.58	-41.0	-41.2	14.7	7.49e-04	0	46	0	37278973952	47	16013
2026-01-01 20:57:27.41	310.44	12.52	-41.1	-41.3	14.6	7.49e-04	0	45	0	37388025856	47	16090
2026-01-01 20:57:28.41	310.68	12.45	-41.8	-42.1	14.8	7.15e-04	0	45	0	37505466368	49	15681
2026-01-01 20:57:29.40	310.92	12.39	-41.7	-42.0	14.8	7.15e-04	0	45	0	37614518272	49	15528
2026-01-01 20:57:30.40	311.15	12.32	-41.8	-42.0	14.8	3.53e-04	0	45	0	37723570176	49	15594
2026-01-01 20:57:31.39	311.39	12.26	-41.8	-42.0	14.8	3.53e-04	0	45	0	37841010688	49	15571
2026-01-01 20:57:32.39	311.62	12.20	-41.8	-42.0	14.8	3.53e-04	0	45	0	37950062592	49	15616
2026-01-01 20:57:33.38	311.85	12.13	-41.8	-42.1	14.8	3.53e-04	0	45	0	38067503104	49	15686
2026-01-01 20:57:34.38	312.08	12.07	-41.8	-42.1	14.8	3.24e-04	0	46	0	38176555008	49	15684
2026-01-01 20:57:35.38	312.31	12.00	-41.9	-42.1	14.8	3.24e-04	0	45	0	38285606912	49	15740
2026-01-01 20:57:36.37	312.54	11.94	-41.9	-42.1	14.8	4.39e-04	0	45	0	38403047424	49	15803
2026-01-01 20:57:37.37	312.76	11.87	-41.9	-42.1	14.8	4.39e-04	0	45	0	38512099328	49	15800
2026-01-01 20:57:38.37	312.99	11.80	-41.9	-42.1	14.8	4.39e-04	0	46	0	38629539840	49	15758
2026-01-01 20:57:39.37	313.22	11.74	-41.9	-42.2	14.8	4.29e-04	0	45	0	38738591744	49	15866
2026-01-01 20:57:40.36	313.44	11.67	-42.0	-42.2	14.8	4.29e-04	0	45	0	38847643648	49	15976
2026-01-01 20:57:41.36	313.66	11.61	-42.0	-42.2	14.8	4.29e-04	0	45	0	38956695552	49	15927
2026-01-01 20:57:42.36	313.88	11.54	-42.1	-42.3	14.8	5.58e-04	0	45	0	39074136064	49	16152
2026-01-01 20:57:43.36	314.10	11.48	-42.1	-42.3	14.8	5.58e-04	0	46	0	39183187968	49	16138
2026-01-01 20:57:44.36	314.32	11.41	-41.9	-42.2	14.8	4.72e-04	0	45	0	39292239872	49	15874
2026-01-01 20:57:45.35	314.54	11.34	-42.0	-42.3	14.8	4.72e-04	0	46	0	39409680384	49	16027
2026-01-01 20:57:46.35	314.75	11.28	-42.2	-42.4	14.7	4.72e-04	0	45	0	39518732288	50	15450
2026-01-01 20:57:47.35	314.97	11.21	-42.1	-42.4	14.7	6.29e-04	0	45	0	39636172800	50	15392
2026-01-01 20:57:48.35	315.18	11.14	-42.1	-42.3	14.7	6.29e-04	0	45	0	39745224704	50	15268
2026-01-01 20:57:49.35	315.40	11.08	-42.1	-42.3	14.8	5.67e-04	0	45	0	39854276608	50	15275
2026-01-01 20:57:50.34	315.61	11.01	-42.0	-42.2	14.8	5.67e-04	0	45	0	39971717120	50	15094
2026-01-01 20:57:51.34	315.82	10.95	-42.1	-42.3	14.7	5.67e-04	0	45	0	40080769024	50	15285
2026-01-01 20:57:52.34	316.03	10.88	-42.1	-42.3	14.7	6.20e-04	0	45	0	40198209536	50	15259
2026-01-01 20:57:53.33	316.23	10.81	-42.0	-42.2	14.8	6.20e-04	0	45	0	40307261440	50	15099
2026-01-01 20:57:54.33	316.44	10.75	-42.0	-42.3	14.8	5.48e-04	0	45	0	40424701952	50	15177
2026-01-01 20:57:55.33	316.65	10.68	-42.0	-42.3	14.7	5.48e-04	0	45	0	40533753856	50	15196
2026-01-01 20:57:56.32	316.85	10.61	-42.2	-42.4	14.7	5.05e-04	0	45	0	40642805760	50	15464
2026-01-01 20:57:57.33	317.06	10.54	-42.2	-42.4	14.7	5.05e-04	0	45	0	40760246272	50	15431
2026-01-01 20:57:58.33	317.26	10.48	-42.0	-42.3	14.7	5.05e-04	0	45	0	40869298176	50	15230
2026-01-01 20:57:59.33	317.46	10.41	-42.1	-42.3	14.7	4.34e-04	0	45	0	40986738688	50	15271
2026-01-01 20:58:00.32	317.66	10.34	-42.0	-42.3	14.8	4.34e-04	0	45	0	41087401984	50	15184
2026-01-01 20:58:01.32	317.86	10.28	-42.1	-42.4	14.7	4.82e-04	0	45	0	41204842496	50	15356
2026-01-01 20:58:02.31	318.06	10.21	-42.1	-42.3	14.7	4.82e-04	0	46	0	41313894400	50	15280
2026-01-01 20:58:03.31	318.26	10.14	-42.1	-42.3	14.7	4.82e-04	0	45	0	41431334912	50	15289
2026-01-01 20:58:04.31	318.45	10.08	-42.3	-42.5	14.7	5.86e-04	0	45	0	41540386816	50	15573
2026-01-01 20:58:05.31	318.65	10.01	-42.2	-42.4	14.7	5.86e-04	0	45	0	41649438720	50	15374
2026-01-01 20:58:06.31	318.85	9.94	-42.2	-42.4	14.7	5.20e-04	0	45	0	41766879232	50	15416
2026-01-01 20:58:07.30	319.04	9.87	-42.2	-42.5	14.7	5.20e-04	0	45	0	41875931136	50	15546
2026-01-01 20:58:08.30	319.23	9.81	-42.2	-42.5	14.7	5.20e-04	0	45	0	41993371648	50	15509
2026-01-01 20:58:09.30	319.42	9.74	-42.4	-42.6	14.6	6.72e-04	0	45	0	42102423552	50	15805
2026-01-01 20:58:10.30	319.61	9.67	-42.3	-42.6	14.6	6.72e-04	0	45	0	42211475456	50	15685
2026-01-01 20:58:11.30	319.80	9.61	-42.3	-42.6	14.6	9.54e-04	0	45	0	42328915968	50	15702
2026-01-01 20:58:12.29	319.99	9.54	-42.3	-42.6	14.6	9.54e-04	0	45	0	42437967872	50	15736
2026-01-01 20:58:13.29	320.17	9.47	-42.3	-42.5	14.7	9.54e-04	0	46	0	42555408384	50	15584
2026-01-01 20:58:14.29	320.36	9.40	-42.4	-42.6	14.6	8.87e-04	0	45	0	42664460288	50	15826
2026-01-01 20:58:15.28	320.54	9.34	-42.4	-42.6	14.6	8.87e-04	0	46	0	42781900800	50	15832
2026-01-01 20:58:16.28	320.73	9.27	-42.4	-42.6	14.6	8.87e-04	0	45	0	42890952704	50	15784
2026-01-01 20:58:17.27	320.91	9.20	-42.4	-42.7	14.6	1.03e-03	0	45	0	43000004608	50	15905
2026-01-01 20:58:18.27	321.09	9.14	-42.4	-42.7	14.6	1.03e-03	0	45	0	43117445120	50	15899
2026-01-01 20:58:19.26	321.27	9.07	-42.5	-42.8	14.6	1.03e-03	0	45	0	43226497024	50	16067
2026-01-01 20:58:20.25	321.45	9.00	-42.7	-42.9	14.5	1.11e-03	0	45	0	43335548928	51	15421
2026-01-01 20:58:21.25	321.63	8.94	-42.5	-42.8	14.6	1.11e-03	0	45	0	43444600832	51	15172
2026-01-01 20:58:22.25	321.81	8.87	-42.6	-42.9	14.5	1.11e-03	0	45	0	43562041344	51	15362
2026-01-01 20:58:23.24	321.98	8.80	-42.7	-42.9	14.5	1.29e-03	0	45	0	43671093248	51	15466
2026-01-01 20:58:24.24	322.16	8.74	-42.8	-43.0	14.4	1.29e-03	0	45	0	43788533760	51	15595
2026-01-01 20:58:25.24	322.33	8.67	-42.8	-43.0	14.4	1.29e-03	0	45	0	43897585664	51	15637
2026-01-01 20:58:26.24	322.51	8.60	-42.8	-43.0	14.4	1.46e-03	0	45	0	44006637568	51	15593
2026-01-01 20:58:27.24	322.68	8.54	-42.9	-43.2	14.4	1.46e-03	0	45	0	44124078080	51	15929
2026-01-01 20:58:28.24	322.85	8.47	-42.9	-43.2	14.4	1.61e-03	0	45	0	44233129984	51	15913
2026-01-01 20:58:29.23	323.02	8.40	-42.9	-43.1	14.4	1.61e-03	0	45	0	44350570496	51	15823
2026-01-01 20:58:30.23	323.19	8.34	-42.9	-43.1	14.4	1.61e-03	0	45	0	44459622400	51	15822
2026-01-01 20:58:31.23	323.36	8.27	-42.8	-43.1	14.4	2.01e-03	0	45	0	44568674304	51	15747
2026-01-01 20:58:32.22	323.53	8.20	-42.8	-43.1	14.4	2.01e-03	0	46	0	44686114816	51	15676
2026-01-01 20:58:33.22	323.70	8.14	-42.8	-43.0	14.4	2.01e-03	0	45	0	44795166720	51	15606
2026-01-01 20:58:34.23	323.87	8.07	-43.0	-43.2	14.3	1.61e-03	0	45	0	44912607232	51	15987
2026-01-01 20:58:35.22	324.03	8.00	-43.0	-43.3	14.3	1.61e-03	0	45	0	45021659136	51	16044
2026-01-01 20:58:36.21	324.19	7.94	-42.9	-43.1	14.3	1.61e-03	0	45	0	45130711040	51	15813
2026-01-01 20:58:37.20	324.36	7.87	-42.9	-43.2	14.3	1.66e-03	0	45	0	45239762944	51	15849
2026-01-01 20:58:38.21	324.52	7.81	-43.0	-43.3	14.3	1.66e-03	0	45	0	45357203456	52	15121
2026-01-01 20:58:39.21	324.68	7.74	-43.0	-43.3	14.3	1.66e-03	0	45	0	45466255360	52	15148
2026-01-01 20:58:40.21	324.85	7.67	-43.0	-43.2	14.3	1.81e-03	0	46	0	45575307264	52	15084
2026-01-01 20:58:41.20	325.01	7.61	-42.9	-43.2	14.3	1.81e-03	0	45	0	45692747776	52	15024
2026-01-01 20:58:42.20	325.16	7.54	-43.2	-43.4	14.2	2.44e-03	0	46	0	45801799680	52	15432
2026-01-01 20:58:43.19	325.32	7.48	-43.1	-43.4	14.2	2.44e-03	0	45	0	45919240192	52	15334
2026-01-01 20:58:44.19	325.48	7.41	-43.1	-43.3	14.3	2.44e-03	0	46	0	46028292096	52	15257
2026-01-01 20:58:45.19	325.64	7.35	-43.1	-43.4	14.2	2.37e-03	0	45	0	46145732608	52	15412
2026-01-01 20:58:46.19	325.79	7.28	-43.1	-43.3	14.3	2.37e-03	0	46	0	46254784512	52	15280
2026-01-01 20:58:47.19	325.95	7.21	-43.1	-43.4	14.3	2.39e-03	0	46	0	46363836416	52	15387
2026-01-01 20:58:48.19	326.10	7.15	-43.0	-43.3	14.3	2.39e-03	0	45	0	46481276928	52	15179
2026-01-01 20:58:49.19	326.26	7.08	-43.1	-43.3	14.3	2.39e-03	0	45	0	46590328832	52	15264
2026-01-01 20:58:50.19	326.41	7.02	-43.2	-43.5	14.3	2.40e-03	0	46	0	46707769344	52	15521
2026-01-01 20:58:51.18	326.56	6.95	-43.2	-43.4	14.3	2.40e-03	0	46	0	46816821248	52	15414
2026-01-01 20:58:52.18	326.71	6.89	-43.1	-43.3	14.3	2.40e-03	0	45	0	46925873152	52	15275
2026-01-01 20:58:53.17	326.86	6.82	-43.0	-43.2	14.4	2.57e-03	0	46	0	47043313664	52	15035
2026-01-01 20:58:54.18	327.01	6.76	-43.0	-43.2	14.3	2.57e-03	0	45	0	47152365568	52	15015
2026-01-01 20:58:55.18	327.16	6.69	-59.7	-60.5	4.9	2.57e-03	0	45	104	47261417472	61	65535
2026-01-01 20:58:56.18	327.31	6.63	-59.9	-63.1	6.2	2.57e-03	0	45	104	47261417472	85	22295
2026-01-01 20:58:57.18	327.46	6.56	-59.9	-63.1	6.2	2.22e-03	0	45	104	47261417472	85	22310
2026-01-01 20:58:58.18	327.60	6.50	-59.9	-63.1	6.2	2.22e-03	0	45	104	47261417472	85	22253
2026-01-01 20:58:59.18	327.75	6.43	-59.9	-63.1	6.2	2.22e-03	0	45	104	47261417472	85	22209
2026-01-01 20:59:00.17	327.89	6.37	-59.9	-63.1	6.2	2.22e-03	0	45	104	47261417472	85	22240
2026-01-01 20:59:01.17	328.04	6.30	-59.8	-63.0	6.2	2.22e-03	0	44	104	47261417472	85	21951
2026-01-01 20:59:02.16	328.18	6.24	-59.8	-63.0	6.2	2.22e-03	0	44	104	47261417472	85	21973
2026-01-01 20:59:03.16	328.32	6.18	-59.8	-63.0	6.2	2.22e-03	0	44	104	47261417472	85	22066
2026-01-01 20:59:04.15	328.46	6.11	-59.7	-62.9	6.2	2.22e-03	0	44	104	47261417472	85	21818
2026-01-01 20:59:05.15	328.60	6.05	-59.9	-63.1	6.2	2.22e-03	0	44	104	47261417472	85	22198
2026-01-01 20:59:06.14	328.74	5.99	-59.7	-62.9	6.2	2.22e-03	0	44	104	47261417472	85	21851
2026-01-01 20:59:07.14	328.88	5.92	-59.7	-62.9	6.2	2.22e-03	0	44	104	47261417472	85	21829
2026-01-01 20:59:08.13	329.02	5.86	-59.6	-62.8	6.2	2.22e-03	0	44	104	47261417472	85	21596
2026-01-01 20:59:09.14	329.16	5.79	-59.8	-63.0	6.2	2.22e-03	0	44	104	47261417472	85	22008
2026-01-01 20:59:10.14	329.30	5.73	-59.7	-62.9	6.2	2.22e-03	0	44	104	47261417472	85	21666
2026-01-01 20:59:11.13	329.43	5.67	-59.7	-62.9	6.2	2.22e-03	0	44	104	47261417472	85	21667
2026-01-01 20:59:12.12	329.57	5.60	-59.6	-62.8	6.2	2.22e-03	0	44	104	47261417472	85	21440
2026-01-01 20:59:13.12	329.70	5.54	-59.8	-63.0	6.2	2.22e-03	0	44	104	47261417472	85	21866
2026-01-01 20:59:14.12	329.84	5.48	-59.6	-62.8	6.2	2.22e-03	0	44	104	47261417472	85	21502
2026-01-01 20:59:15.11	329.97	5.41	-59.6	-62.8	6.2	2.22e-03	0	44	104	47261417472	85	21553
2026-01-01 20:59:16.11	330.10	5.35	-59.5	-62.7	6.2	2.22e-03	0	44	104	47261417472	84	22580
2026-01-01 20:59:17.10	330.23	5.29	-59.7	-62.9	6.2	0.00e+00	0	44	104	47261417472	85	21707
2026-01-01 20:59:18.10	330.36	5.23	-59.5	-62.7	6.2	0.00e+00	0	44	104	47261417472	85	21285
2026-01-01 20:59:19.10	330.50	5.16	-59.6	-62.8	6.2	0.00e+00	0	44	104	47261417472	84	22672
2026-01-01 20:59:20.09	330.63	5.10	-59.4	-62.7	6.2	0.00e+00	0	44	104	47261417472	84	22371
2026-01-01 20:59:21.08	330.75	5.04	-59.6	-62.8	6.2	0.00e+00	0	44	104	47261417472	85	21561
2026-01-01 20:59:22.08	330.88	4.98	-60.0	-63.2	6.2	0.00e+00	0	44	104	47261417472	85	22491
2026-01-01 20:59:23.07	331.01	4.91	-60.5	-63.7	6.2	0.00e+00	0	44	104	47261417472	86	22537
2026-01-01 20:59:24.06	331.14	4.85	-60.9	-64.0	6.2	0.00e+00	0	44	104	47261417472	87	22106
2026-01-01 20:59:25.07	331.26	4.79	-61.2	-64.4	6.2	0.00e+00	0	44	104	47261417472	88	21696
2026-01-01 20:59:26.07	331.39	4.73	-61.4	-64.6	6.2	0.00e+00	0	44	104	47261417472	88	22360
2026-01-01 20:59:27.07	331.52	4.66	-61.6	-64.8	6.2	0.00e+00	0	44	104	47261417472	88	22771
2026-01-01 20:59:28.07	331.64	4.60	-61.7	-64.9	6.2	0.00e+00	0	44	104	47261417472	89	21762
2026-01-01 20:59:29.06	331.77	4.54	-61.8	-65.0	6.2	0.00e+00	0	44	104	47261417472	89	21985
2026-01-01 20:59:30.06	331.89	4.48	-61.9	-65.1	6.2	0.00e+00	0	44	104	47261417472	89	22356
2026-01-01 20:59:31.06	332.01	4.42	-62.0	-65.2	6.2	0.00e+00	0	44	104	47261417472	89	22502
2026-01-01 20:59:32.06	332.14	4.36	-62.0	-65.3	6.2	0.00e+00	0	44	104	47261417472	89	22630
2026-01-01 20:59:33.06	332.26	4.29	-62.1	-65.3	6.2	0.00e+00	0	44	104	47261417472	89	22748
2026-01-01 20:59:34.06	332.38	4.23	-62.1	-65.4	6.2	0.00e+00	0	44	104	47261417472	89	22900
2026-01-01 20:59:35.06	332.50	4.17	-62.2	-65.4	6.2	0.00e+00	0	43	104	47261417472	90	21645
2026-01-01 20:59:36.06	332.62	4.11	-62.2	-65.4	6.2	0.00e+00	0	43	104	47261417472	90	21693
2026-01-01 20:59:37.06	332.74	4.05	-62.2	-65.4	6.2	0.00e+00	0	43	104	47261417472	90	21778
2026-01-01 20:59:38.05	332.86	3.99	-62.2	-65.4	6.2	0.00e+00	0	43	104	47261417472	90	21761
2026-01-01 20:59:39.05	332.98	3.93	-62.2	-65.4	6.2	0.00e+00	0	43	104	47261417472	90	21726
2026-01-01 20:59:40.05	333.09	3.87	-62.2	-65.4	6.2	0.00e+00	0	44	104	47261417472	90	21770
2026-01-01 20:59:41.05	333.21	3.81	-62.2	-65.4	6.2	0.00e+00	0	43	104	47261417472	90	21824
2026-01-01 20:59:42.04	333.33	3.75	-62.2	-65.4	6.2	0.00e+00	0	43	104	47261417472	90	21803
2026-01-01 20:59:43.05	333.44	3.68	-62.2	-65.4	6.2	0.00e+00	0	44	104	47261417472	90	21773
2026-01-01 20:59:44.05	333.56	3.62	-62.1	-65.4	6.2	0.00e+00	0	43	104	47261417472	90	21680
2026-01-01 20:59:45.05	333.67	3.56	-62.1	-65.3	6.2	0.00e+00	0	44	104	47261417472	90	21605
2026-01-01 20:59:46.05	333.79	3.50	-62.1	-65.3	6.2	0.00e+00	0	43	104	47261417472	90	21508
2026-01-01 20:59:47.04	333.90	3.44	-62.1	-65.3	6.2	0.00e+00	0	43	104	47261417472	90	21523
2026-01-01 20:59:48.04	334.01	3.38	-62.1	-65.3	6.2	0.00e+00	0	43	104	47261417472	90	21438
2026-01-01 20:59:49.03	334.12	3.32	-62.0	-65.3	6.2	0.00e+00	0	43	104	47261417472	90	21427
2026-01-01 20:59:50.03	334.24	3.26	-62.0	-65.3	6.2	0.00e+00	0	43	104	47261417472	90	21373
2026-01-01 20:59:51.02	334.35	3.21	-62.0	-65.2	6.2	0.00e+00	0	43	104	47261417472	90	21338
2026-01-01 20:59:52.03	334.46	3.14	-62.0	-65.2	6.2	0.00e+00	0	43	104	47261417472	90	21263
2026-01-01 20:59:53.03	334.57	3.09	-62.0	-65.2	6.2	0.00e+00	0	43	104	47261417472	90	21288
2026-01-01 20:59:54.02	334.68	3.03	-62.0	-65.2	6.2	0.00e+00	0	43	104	47261417472	90	21274
2026-01-01 20:59:55.03	334.79	2.97	-62.0	-65.2	6.2	0.00e+00	0	43	104	47261417472	90	21256
2026-01-01 20:59:56.03	334.90	2.91	-62.0	-65.2	6.2	0.00e+00	0	43	104	47261417472	90	21199
2026-01-01 20:59:57.02	335.00	2.85	-62.0	-65.2	6.2	0.00e+00	0	43	104	47261417472	90	21232
2026-01-01 20:59:58.02	335.11	2.79	-62.0	-65.2	6.2	0.00e+00	0	43	104	47261417472	90	21216
2026-01-01 20:59:59.02	335.22	2.73	-61.9	-65.2	6.2	0.00e+00	0	43	104	47261417472	90	21129
2026-01-01 21:00:00.02	335.33	2.67	-61.9	-65.2	6.2	0.00e+00	0	43	104	47261417472	90	21121
2026-01-01 21:00:01.02	335.43	2.61	-61.9	-65.2	6.2	0.00e+00	0	43	104	47261417472	90	21147
2026-01-01 21:00:02.01	335.54	2.55	-61.9	-65.2	6.2	0.00e+00	0	43	104	47261417472	90	21117
2026-01-01 21:00:03.01	335.64	2.50	-61.9	-65.1	6.2	0.00e+00	0	43	104	47261417472	90	21070
2026-01-01 21:00:04.00	335.75	2.44	-61.9	-65.1	6.2	0.00e+00	0	43	104	47261417472	90	21069
2026-01-01 21:00:05.00	335.85	2.38	-61.9	-65.1	6.2	0.00e+00	0	43	104	47261417472	90	21062
2026-01-01 21:00:06.01	335.95	2.32	-61.9	-65.1	6.2	0.00e+00	0	43	104	47261417472	90	21034
2026-01-01 21:00:07.01	336.06	2.26	-61.9	-65.1	6.2	0.00e+00	0	43	104	47261417472	90	21064
2026-01-01 21:00:08.01	336.16	2.20	-61.9	-65.1	6.2	0.00e+00	0	43	104	47261417472	90	21025
2026-01-01 21:00:09.00	336.26	2.15	-61.9	-65.1	6.2	0.00e+00	0	43	104	47261417472	90	20964
2026-01-01 21:00:10.00	336.36	2.09	-61.9	-65.1	6.2	0.00e+00	0	43	104	47261417472	90	20978
2026-01-01 21:00:11.00	336.46	2.03	-61.8	-65.1	6.2	0.00e+00	0	43	104	47261417472	90	20941

#Closed at: 2026-01-01 21:00:11
#Recorded file [47261 MB]: D:/lorett/data/31004_260101_235057.dat