passes_logs/2026/01/01/R3.2S_Murmansk/R3.2S_Murmansk__20260101_145646_FENGYUN_3D_rec.log

#Pass ID: 20260101_145646_FENGYUN 3D
#Satellite: FENGYUN 3D
#Configuration: FENGYUN 3D
#almurnet v.1.7.20251203
#Start time: 2026-01-01 14:56:46

#Version: 2.2.20231116
#Station: R3.2S_Murmansk
#Location: 33.079688 lon 68.888172 lat
#TLE: 1 43010U 17072A   26001.19005061  .00000535  00000+0  27473-3 0  9994
#TLE: 2 43010  98.9910 332.7942 0001852 133.6060 226.5269 14.19691635421296

#Time	Az	El	Level	Level2	SNR	BER	BlckErr	Temp	State	Recorded	gain1	gain2
2026-01-01 14:56:46.28	240.67	1.99	-59.3	-72.7	3.9	8.44e-01	0	31	0	0	84	17274
2026-01-01 14:56:47.29	240.77	2.04	-59.2	-72.8	3.8	8.46e-01	0	31	104	0	83	18342
2026-01-01 14:56:48.31	240.87	2.08	-59.2	-72.7	3.8	8.44e-01	0	31	104	0	83	18192
2026-01-01 14:56:49.32	240.96	2.13	-59.3	-72.6	3.9	8.43e-01	0	31	104	0	83	18065
2026-01-01 14:56:50.33	241.06	2.18	-59.3	-72.6	3.9	8.43e-01	0	31	104	0	83	18063
2026-01-01 14:56:51.33	241.16	2.22	-59.3	-72.7	3.9	8.45e-01	0	32	104	0	83	18262
2026-01-01 14:56:52.34	241.26	2.27	-59.2	-72.7	3.9	8.45e-01	0	32	104	0	83	18283
2026-01-01 14:56:53.35	241.36	2.31	-59.2	-72.6	3.9	8.44e-01	0	32	104	0	83	18039
2026-01-01 14:56:54.36	241.46	2.36	-59.1	-72.6	3.9	8.43e-01	0	32	104	0	83	17934
2026-01-01 14:56:55.37	241.57	2.40	-58.8	-72.5	3.9	8.41e-01	0	32	104	0	83	17804
2026-01-01 14:56:56.38	241.67	2.45	-58.7	-72.5	3.9	8.43e-01	0	32	104	0	83	17847
2026-01-01 14:56:57.39	241.77	2.49	-58.4	-72.5	3.9	8.42e-01	0	32	104	0	83	17783
2026-01-01 14:56:58.40	241.87	2.54	-60.0	-72.9	3.8	8.43e-01	0	32	104	0	85	16600
2026-01-01 14:56:59.40	241.97	2.58	-60.0	-72.9	3.8	8.45e-01	0	32	104	0	85	16605
2026-01-01 14:57:00.41	242.07	2.63	-60.0	-73.0	3.8	8.45e-01	0	32	104	0	85	16723
2026-01-01 14:57:01.42	242.18	2.68	-60.0	-73.0	3.8	8.46e-01	0	32	104	0	85	16800
2026-01-01 14:57:02.43	242.28	2.72	-60.0	-73.0	3.8	8.46e-01	0	32	104	0	85	16815
2026-01-01 14:57:03.44	242.38	2.77	-60.0	-73.0	3.8	8.46e-01	0	32	104	0	85	16780
2026-01-01 14:57:04.45	242.49	2.81	-60.0	-73.0	3.8	8.45e-01	0	32	104	0	85	16828
2026-01-01 14:57:05.45	242.59	2.86	-60.0	-73.0	3.8	8.45e-01	0	32	104	0	85	16799
2026-01-01 14:57:06.45	242.69	2.90	-60.0	-73.0	3.8	8.46e-01	0	32	104	0	85	16817
2026-01-01 14:57:07.46	242.80	2.95	-59.7	-72.8	3.9	8.46e-01	0	32	104	0	85	16421
2026-01-01 14:57:08.47	242.90	2.99	-59.7	-72.9	3.9	8.44e-01	0	32	104	0	85	16517
2026-01-01 14:57:09.48	243.01	3.04	-59.7	-72.7	3.9	8.45e-01	0	32	104	0	85	16306
2026-01-01 14:57:10.49	243.11	3.09	-59.7	-72.7	3.9	8.45e-01	0	32	104	0	85	16165
2026-01-01 14:57:11.49	243.22	3.13	-59.7	-72.8	3.9	8.45e-01	0	32	104	0	85	16322
2026-01-01 14:57:12.50	243.32	3.18	-59.7	-72.7	3.8	8.44e-01	0	32	104	0	85	16128
2026-01-01 14:57:13.51	243.43	3.22	-59.7	-72.8	3.8	8.45e-01	0	32	104	0	85	16317
2026-01-01 14:57:14.52	243.54	3.27	-59.6	-72.7	3.8	8.45e-01	0	32	104	0	85	16314
2026-01-01 14:57:15.53	243.65	3.31	-59.6	-72.8	3.9	8.45e-01	0	32	104	0	85	16407
2026-01-01 14:57:16.54	243.75	3.36	-59.6	-72.7	3.9	8.46e-01	0	32	104	0	85	16301
2026-01-01 14:57:17.55	243.86	3.40	-59.7	-72.8	3.9	8.45e-01	0	32	104	0	85	16371
2026-01-01 14:57:18.56	243.97	3.45	-59.7	-72.8	3.9	8.45e-01	0	32	104	0	85	16392
2026-01-01 14:57:19.57	244.08	3.49	-59.7	-72.8	3.8	8.43e-01	0	32	104	0	85	16459
2026-01-01 14:57:20.58	244.19	3.54	-59.7	-72.9	3.8	8.45e-01	0	32	104	0	85	16576
2026-01-01 14:57:21.58	244.29	3.59	-59.8	-72.9	3.9	8.44e-01	0	32	104	0	85	16533
2026-01-01 14:57:22.59	244.40	3.63	-59.8	-72.7	3.9	8.44e-01	0	32	104	0	85	16263
2026-01-01 14:57:23.60	244.51	3.68	-59.8	-72.7	3.9	8.44e-01	0	32	104	0	85	16138
2026-01-01 14:57:24.61	244.62	3.72	-59.9	-72.6	3.9	8.45e-01	0	32	104	0	85	16114
2026-01-01 14:57:25.62	244.73	3.77	-59.9	-72.6	3.8	8.45e-01	0	32	104	0	85	16123
2026-01-01 14:57:26.63	244.84	3.81	-59.9	-72.6	3.8	8.46e-01	0	32	104	0	85	16013
2026-01-01 14:57:27.63	244.95	3.86	-59.9	-72.7	3.8	8.45e-01	0	32	104	0	85	16314
2026-01-01 14:57:28.64	245.07	3.90	-59.9	-73.0	3.8	8.44e-01	0	32	104	0	85	16749
2026-01-01 14:57:29.65	245.18	3.95	-59.9	-73.0	3.8	8.45e-01	0	32	104	0	85	16782
2026-01-01 14:57:30.66	245.29	3.99	-59.9	-72.9	3.8	8.46e-01	0	33	104	0	85	16638
2026-01-01 14:57:31.66	245.40	4.04	-59.9	-72.9	3.8	8.45e-01	0	33	104	0	85	16533
2026-01-01 14:57:32.67	245.51	4.08	-59.9	-72.6	3.8	8.47e-01	0	33	104	0	85	16111
2026-01-01 14:57:33.68	245.63	4.13	-59.9	-72.4	3.8	8.46e-01	0	33	104	0	85	15705
2026-01-01 14:57:34.69	245.74	4.17	-59.9	-72.1	3.8	8.46e-01	0	33	104	0	85	15154
2026-01-01 14:57:35.70	245.85	4.22	-59.9	-72.0	3.8	8.45e-01	0	33	104	0	85	15017
2026-01-01 14:57:36.70	245.97	4.27	-59.9	-72.2	3.8	8.45e-01	0	33	104	0	85	15321
2026-01-01 14:57:37.71	246.08	4.31	-59.9	-72.4	3.8	8.47e-01	0	32	104	0	85	15648
2026-01-01 14:57:38.72	246.20	4.36	-59.9	-72.2	3.8	8.45e-01	0	33	104	0	85	15312
2026-01-01 14:57:39.73	246.31	4.40	-59.9	-71.9	3.8	8.45e-01	0	33	104	0	85	14758
2026-01-01 14:57:40.73	246.42	4.45	-59.8	-71.9	3.8	8.45e-01	0	33	104	0	85	14781
2026-01-01 14:57:41.74	246.54	4.49	-59.8	-72.1	3.8	8.46e-01	0	33	104	0	85	15199
2026-01-01 14:57:42.75	246.66	4.54	-59.8	-72.2	3.8	8.45e-01	0	33	104	0	85	15237
2026-01-01 14:57:43.76	246.77	4.58	-59.8	-72.8	3.8	8.47e-01	0	33	104	0	85	16389
2026-01-01 14:57:44.77	246.89	4.63	-59.8	-72.8	3.8	8.45e-01	0	33	104	0	85	16373
2026-01-01 14:57:45.77	247.01	4.67	-59.7	-71.6	3.8	8.46e-01	0	33	104	0	85	14364
2026-01-01 14:57:46.78	247.12	4.72	-59.5	-69.4	4.2	8.42e-01	0	33	0	0	85	11126
2026-01-01 14:57:47.79	247.24	4.76	-59.4	-68.2	4.6	8.22e-01	0	33	0	0	85	9637
2026-01-01 14:57:48.80	247.36	4.81	-59.2	-67.3	5.0	7.72e-01	0	33	0	0	85	8705
2026-01-01 14:57:49.81	247.48	4.85	-59.1	-66.6	5.4	7.42e-01	0	33	0	0	84	8503
2026-01-01 14:57:50.82	247.60	4.90	-58.9	-65.5	6.1	3.63e-01	0	33	0	4194304	84	7542
2026-01-01 14:57:51.83	247.72	4.94	-58.0	-63.1	8.0	1.47e-01	0	33	0	9437184	82	6399
2026-01-01 14:57:52.84	247.83	4.99	-56.9	-60.5	10.3	8.21e-03	0	33	0	15728640	80	5319
2026-01-01 14:57:53.84	247.95	5.03	-55.7	-58.4	12.1	1.41e-03	0	33	0	20971520	78	4672
2026-01-01 14:57:54.85	248.07	5.08	-55.6	-58.3	12.2	1.21e-04	0	33	0	27262976	76	5186
2026-01-01 14:57:55.86	248.19	5.12	-58.6	-64.9	6.6	1.72e-02	0	33	0	32505856	82	7815
2026-01-01 14:57:56.87	248.32	5.17	-52.7	-54.4	14.9	0.00e+00	0	33	0	37748736	72	4156
2026-01-01 14:57:57.88	248.44	5.21	-58.5	-65.0	6.3	3.57e-03	0	33	0	44040192	82	7968
2026-01-01 14:57:58.89	248.56	5.26	-52.1	-53.6	15.4	0.00e+00	0	33	0	49283072	69	4514
2026-01-01 14:57:59.90	248.68	5.30	-51.4	-52.8	15.7	0.00e+00	0	33	0	55574528	69	4127
2026-01-01 14:58:00.91	248.80	5.35	-51.3	-52.7	15.7	0.00e+00	0	33	0	60817408	69	4091
2026-01-01 14:58:01.92	248.93	5.39	-51.3	-52.7	15.8	0.00e+00	0	33	0	66060288	69	4087
2026-01-01 14:58:02.93	249.05	5.44	-51.3	-52.7	15.7	0.00e+00	0	33	0	72351744	69	4092
2026-01-01 14:58:03.93	249.17	5.48	-51.2	-52.7	15.8	0.00e+00	0	33	0	77594624	68	4303
2026-01-01 14:58:04.95	249.30	5.52	-51.2	-52.7	15.8	0.00e+00	0	33	0	83886080	68	4295
2026-01-01 14:58:05.95	249.42	5.57	-51.3	-52.7	15.8	0.00e+00	0	33	0	89128960	68	4321
2026-01-01 14:58:06.96	249.54	5.61	-51.3	-52.7	15.8	0.00e+00	0	33	0	94371840	68	4318
2026-01-01 14:58:07.97	249.67	5.66	-51.4	-52.8	15.7	0.00e+00	0	33	0	100663296	68	4380
2026-01-01 14:58:08.98	249.79	5.70	-51.2	-52.6	15.8	0.00e+00	0	33	0	105906176	68	4289
2026-01-01 14:58:09.99	249.92	5.75	-51.3	-52.8	15.8	0.00e+00	0	33	0	112197632	68	4347
2026-01-01 14:58:10.99	250.04	5.79	-51.4	-52.8	15.7	0.00e+00	0	33	0	117440512	68	4385
2026-01-01 14:58:12.00	250.17	5.84	-51.3	-52.7	15.8	0.00e+00	0	33	0	123731968	68	4337
2026-01-01 14:58:13.01	250.30	5.88	-51.2	-52.7	15.8	0.00e+00	0	33	0	128974848	68	4305
2026-01-01 14:58:14.02	250.42	5.92	-51.3	-52.7	15.8	0.00e+00	0	33	0	134217728	68	4326
2026-01-01 14:58:15.03	250.55	5.97	-51.1	-52.5	15.9	0.00e+00	0	33	0	140509184	68	4218
2026-01-01 14:58:16.04	250.68	6.01	-51.0	-52.4	15.9	0.00e+00	0	33	0	145752064	68	4188
2026-01-01 14:58:17.04	250.81	6.06	-50.8	-52.2	16.0	0.00e+00	0	33	0	152043520	68	4081
2026-01-01 14:58:18.05	250.93	6.10	-50.5	-51.9	16.1	0.00e+00	0	33	0	157286400	67	4155
2026-01-01 14:58:19.06	251.06	6.14	-50.6	-52.0	16.1	0.00e+00	0	33	0	162529280	67	4197
2026-01-01 14:58:20.07	251.19	6.19	-50.6	-51.9	16.1	0.00e+00	0	33	0	168820736	67	4191
2026-01-01 14:58:21.08	251.32	6.23	-50.4	-51.8	16.2	0.00e+00	0	33	0	174063616	67	4104
2026-01-01 14:58:22.08	251.45	6.28	-50.4	-51.7	16.2	0.00e+00	0	33	0	179306496	67	4087
2026-01-01 14:58:23.09	251.58	6.32	-50.6	-51.9	16.1	0.00e+00	0	33	0	185597952	67	4176
2026-01-01 14:58:24.10	251.71	6.36	-50.5	-51.9	16.1	0.00e+00	0	33	0	190840832	67	4160
2026-01-01 14:58:25.11	251.84	6.41	-50.7	-52.0	16.1	0.00e+00	0	33	0	197132288	67	4217
2026-01-01 14:58:26.12	251.98	6.45	-50.7	-52.1	16.1	0.00e+00	0	33	0	202375168	67	4243
2026-01-01 14:58:27.13	252.11	6.49	-50.6	-52.0	16.1	0.00e+00	0	33	0	208666624	67	4222
2026-01-01 14:58:28.13	252.24	6.54	-50.7	-52.0	16.1	0.00e+00	0	33	0	213909504	67	4242
2026-01-01 14:58:29.14	252.37	6.58	-50.7	-52.0	16.1	0.00e+00	0	33	0	220200960	67	4226
2026-01-01 14:58:30.15	252.50	6.63	-50.7	-52.1	16.1	0.00e+00	0	33	0	225443840	67	4259
2026-01-01 14:58:31.15	252.64	6.67	-50.7	-52.0	16.1	0.00e+00	0	33	0	230686720	67	4242
2026-01-01 14:58:32.16	252.77	6.71	-50.7	-52.1	16.1	0.00e+00	0	33	0	236978176	67	4244
2026-01-01 14:58:33.17	252.91	6.76	-50.6	-52.0	16.1	0.00e+00	0	33	0	242221056	67	4207
2026-01-01 14:58:34.17	253.04	6.80	-50.7	-52.1	16.1	0.00e+00	0	33	0	247463936	67	4246
2026-01-01 14:58:35.18	253.17	6.84	-50.6	-52.0	16.1	0.00e+00	0	33	0	253755392	67	4219
2026-01-01 14:58:36.19	253.31	6.88	-50.7	-52.1	16.1	0.00e+00	0	33	0	258998272	67	4264
2026-01-01 14:58:37.20	253.44	6.93	-50.7	-52.1	16.1	0.00e+00	0	33	0	265289728	67	4254
2026-01-01 14:58:38.21	253.58	6.97	-50.7	-52.1	16.1	0.00e+00	0	33	0	270532608	67	4277
2026-01-01 14:58:39.22	253.72	7.01	-50.7	-52.0	16.1	0.00e+00	0	33	0	275775488	67	4232
2026-01-01 14:58:40.23	253.85	7.06	-50.7	-52.1	16.1	0.00e+00	0	33	0	282066944	67	4247
2026-01-01 14:58:41.24	253.99	7.10	-50.7	-52.1	16.1	0.00e+00	0	33	0	287309824	67	4271
2026-01-01 14:58:42.25	254.13	7.14	-50.5	-51.9	16.2	0.00e+00	0	33	0	293601280	67	4152
2026-01-01 14:58:43.26	254.27	7.19	-50.5	-51.9	16.2	0.00e+00	0	33	0	298844160	67	4164
2026-01-01 14:58:44.26	254.41	7.23	-50.6	-51.9	16.2	0.00e+00	0	33	0	305135616	67	4188
2026-01-01 14:58:45.27	254.54	7.27	-50.4	-51.7	16.3	0.00e+00	0	33	0	310378496	67	4075
2026-01-01 14:58:46.28	254.68	7.31	-50.5	-51.8	16.2	0.00e+00	0	33	0	315621376	67	4106
2026-01-01 14:58:47.29	254.82	7.35	-50.4	-51.7	16.3	0.00e+00	0	33	0	321912832	67	4098
2026-01-01 14:58:48.30	254.96	7.40	-50.5	-51.8	16.2	0.00e+00	0	33	0	327155712	67	4106
2026-01-01 14:58:49.30	255.10	7.44	-50.4	-51.7	16.3	0.00e+00	0	33	0	333447168	67	4085
2026-01-01 14:58:50.31	255.24	7.48	-50.4	-51.7	16.3	0.00e+00	0	33	0	338690048	67	4080
2026-01-01 14:58:51.32	255.38	7.52	-50.3	-51.6	16.3	0.00e+00	0	33	0	343932928	67	4029
2026-01-01 14:58:52.33	255.53	7.57	-50.3	-51.6	16.3	0.00e+00	0	33	0	350224384	67	4038
2026-01-01 14:58:53.34	255.67	7.61	-50.3	-51.6	16.4	0.00e+00	0	33	0	355467264	67	4021
2026-01-01 14:58:54.34	255.81	7.65	-50.2	-51.5	16.4	0.00e+00	0	33	0	361758720	67	3968
2026-01-01 14:58:55.35	255.95	7.69	-50.2	-51.4	16.4	0.00e+00	0	33	0	367001600	66	4188
2026-01-01 14:58:56.36	256.10	7.73	-50.1	-51.4	16.4	0.00e+00	0	33	0	372244480	66	4164
2026-01-01 14:58:57.37	256.24	7.77	-50.2	-51.4	16.4	0.00e+00	0	33	0	378535936	66	4184
2026-01-01 14:58:58.38	256.38	7.82	-50.1	-51.4	16.4	0.00e+00	0	34	0	383778816	66	4183
2026-01-01 14:58:59.39	256.53	7.86	-50.3	-51.5	16.4	0.00e+00	0	33	0	390070272	66	4236
2026-01-01 14:59:00.40	256.67	7.90	-50.1	-51.3	16.4	0.00e+00	0	33	0	395313152	66	4135
2026-01-01 14:59:01.41	256.82	7.94	-50.0	-51.3	16.4	0.00e+00	0	33	0	401604608	66	4121
2026-01-01 14:59:02.41	256.96	7.98	-50.1	-51.3	16.5	0.00e+00	0	33	0	406847488	66	4132
2026-01-01 14:59:03.42	257.11	8.02	-50.0	-51.3	16.4	0.00e+00	0	33	0	412090368	66	4104
2026-01-01 14:59:04.43	257.25	8.06	-50.0	-51.3	16.5	0.00e+00	0	33	0	418381824	66	4109
2026-01-01 14:59:05.44	257.40	8.10	-50.1	-51.4	16.4	0.00e+00	0	33	0	423624704	66	4155
2026-01-01 14:59:06.45	257.55	8.15	-50.1	-51.4	16.4	0.00e+00	0	33	0	429916160	66	4175
2026-01-01 14:59:07.46	257.70	8.19	-50.1	-51.4	16.4	0.00e+00	0	33	0	435159040	66	4160
2026-01-01 14:59:08.47	257.84	8.23	-50.1	-51.4	16.4	0.00e+00	0	33	0	440401920	66	4155
2026-01-01 14:59:09.48	257.99	8.27	-50.0	-51.3	16.4	0.00e+00	0	33	0	446693376	66	4120
2026-01-01 14:59:10.49	258.14	8.31	-50.1	-51.3	16.4	0.00e+00	0	33	0	451936256	66	4135
2026-01-01 14:59:11.50	258.29	8.35	-49.9	-51.2	16.5	0.00e+00	0	33	0	458227712	66	4078
2026-01-01 14:59:12.50	258.44	8.39	-50.0	-51.2	16.5	0.00e+00	0	33	0	463470592	66	4097
2026-01-01 14:59:13.51	258.59	8.43	-50.0	-51.2	16.5	0.00e+00	0	33	0	468713472	66	4097
2026-01-01 14:59:14.52	258.74	8.47	-49.9	-51.2	16.5	0.00e+00	0	33	0	475004928	66	4065
2026-01-01 14:59:15.53	258.89	8.51	-49.9	-51.2	16.5	0.00e+00	0	34	0	480247808	66	4058
2026-01-01 14:59:16.54	259.04	8.55	-50.0	-51.2	16.5	0.00e+00	0	33	0	486539264	66	4088
2026-01-01 14:59:17.55	259.19	8.59	-49.9	-51.2	16.5	0.00e+00	0	33	0	491782144	66	4067
2026-01-01 14:59:18.56	259.34	8.63	-49.9	-51.2	16.5	0.00e+00	0	34	0	498073600	66	4066
2026-01-01 14:59:19.57	259.50	8.67	-49.8	-51.1	16.5	0.00e+00	0	33	0	503316480	66	4029
2026-01-01 14:59:20.58	259.65	8.71	-49.7	-50.9	16.6	0.00e+00	0	33	0	508559360	66	3953
2026-01-01 14:59:21.58	259.80	8.75	-49.8	-51.0	16.6	0.00e+00	0	33	0	514850816	66	3981
2026-01-01 14:59:22.59	259.95	8.78	-49.8	-51.0	16.6	0.00e+00	0	33	0	520093696	66	3996
2026-01-01 14:59:23.60	260.11	8.82	-49.7	-50.9	16.6	0.00e+00	0	33	0	526385152	66	3944
2026-01-01 14:59:24.60	260.26	8.86	-49.7	-50.9	16.6	0.00e+00	0	33	0	531628032	66	3956
2026-01-01 14:59:25.61	260.41	8.90	-49.7	-50.9	16.6	0.00e+00	0	33	0	536870912	66	3947
2026-01-01 14:59:26.62	260.57	8.94	-49.7	-51.0	16.6	0.00e+00	0	33	0	543162368	66	3964
2026-01-01 14:59:27.63	260.73	8.98	-49.8	-51.1	16.6	0.00e+00	0	33	0	548405248	66	4011
2026-01-01 14:59:28.64	260.88	9.02	-49.7	-51.0	16.6	0.00e+00	0	33	0	554696704	66	3962
2026-01-01 14:59:29.65	261.04	9.06	-49.8	-51.1	16.6	0.00e+00	0	33	0	559939584	66	4009
2026-01-01 14:59:30.65	261.19	9.09	-49.8	-51.0	16.6	0.00e+00	0	33	0	565182464	66	3983
2026-01-01 14:59:31.66	261.35	9.13	-49.8	-51.0	16.6	0.00e+00	0	34	0	571473920	66	3994
2026-01-01 14:59:32.66	261.51	9.17	-49.7	-51.0	16.6	0.00e+00	0	33	0	576716800	66	3967
2026-01-01 14:59:33.67	261.66	9.21	-49.8	-51.1	16.6	0.00e+00	0	33	0	583008256	66	4013
2026-01-01 14:59:34.68	261.82	9.24	-49.6	-50.8	16.6	0.00e+00	0	33	0	588251136	65	4132
2026-01-01 14:59:35.69	261.98	9.28	-49.6	-50.9	16.6	0.00e+00	0	33	0	594542592	65	4155
2026-01-01 14:59:36.70	262.14	9.32	-49.6	-50.8	16.6	0.00e+00	0	33	0	599785472	65	4122
2026-01-01 14:59:37.70	262.30	9.36	-49.6	-50.8	16.6	0.00e+00	0	33	0	605028352	65	4128
2026-01-01 14:59:38.72	262.46	9.39	-49.5	-50.8	16.7	0.00e+00	0	33	0	611319808	65	4099
2026-01-01 14:59:39.73	262.62	9.43	-49.5	-50.7	16.8	0.00e+00	0	33	0	616562688	65	4052
2026-01-01 14:59:40.74	262.78	9.47	-49.5	-50.7	16.7	0.00e+00	0	33	0	622854144	65	4061
2026-01-01 14:59:41.74	262.94	9.50	-49.5	-50.7	16.7	0.00e+00	0	33	0	628097024	65	4082
2026-01-01 14:59:42.75	263.10	9.54	-49.6	-50.8	16.7	0.00e+00	0	33	0	633339904	65	4111
2026-01-01 14:59:43.76	263.26	9.58	-49.5	-50.7	16.7	0.00e+00	0	33	0	639631360	65	4077
2026-01-01 14:59:44.77	263.42	9.61	-49.5	-50.8	16.7	0.00e+00	0	33	0	644874240	65	4108
2026-01-01 14:59:45.78	263.59	9.65	-49.6	-50.8	16.7	0.00e+00	0	34	0	650117120	65	4139
2026-01-01 14:59:46.79	263.75	9.69	-49.6	-50.8	16.7	0.00e+00	0	33	0	656408576	65	4126
2026-01-01 14:59:47.80	263.91	9.72	-49.6	-50.9	16.7	0.00e+00	0	33	0	661651456	65	4159
2026-01-01 14:59:48.81	264.08	9.76	-49.7	-50.9	16.6	0.00e+00	0	33	0	667942912	65	4180
2026-01-01 14:59:49.82	264.24	9.79	-49.6	-50.9	16.7	0.00e+00	0	33	0	673185792	65	4149
2026-01-01 14:59:50.83	264.41	9.83	-49.6	-50.9	16.7	0.00e+00	0	34	0	679477248	65	4150
2026-01-01 14:59:51.84	264.57	9.86	-49.7	-50.9	16.7	0.00e+00	0	33	0	684720128	65	4171
2026-01-01 14:59:52.84	264.73	9.90	-49.7	-50.9	16.6	0.00e+00	0	33	0	691011584	65	4188
2026-01-01 14:59:53.85	264.90	9.93	-49.7	-50.9	16.6	0.00e+00	0	34	0	696254464	65	4183
2026-01-01 14:59:54.86	265.07	9.97	-49.7	-50.9	16.7	0.00e+00	0	33	0	701497344	65	4168
2026-01-01 14:59:55.87	265.23	10.00	-49.8	-51.0	16.7	0.00e+00	0	33	0	707788800	65	4208
2026-01-01 14:59:56.88	265.40	10.04	-49.9	-51.1	16.6	0.00e+00	0	33	0	713031680	65	4275
2026-01-01 14:59:57.88	265.56	10.07	-49.8	-51.1	16.6	0.00e+00	0	33	0	719323136	65	4257
2026-01-01 14:59:58.89	265.73	10.11	-49.8	-51.1	16.6	0.00e+00	0	33	0	724566016	65	4268
2026-01-01 14:59:59.90	265.90	10.14	-49.6	-50.9	16.7	0.00e+00	0	34	0	729808896	65	4163
2026-01-01 15:00:00.91	266.07	10.17	-49.4	-50.6	16.8	0.00e+00	0	34	0	736100352	65	4025
2026-01-01 15:00:01.92	266.24	10.21	-49.3	-50.5	16.8	0.00e+00	0	33	0	741343232	65	3968
2026-01-01 15:00:02.92	266.40	10.24	-49.4	-50.6	16.8	0.00e+00	0	33	0	746586112	65	4048
2026-01-01 15:00:03.94	266.58	10.27	-49.5	-50.7	16.7	0.00e+00	0	33	0	752877568	65	4068
2026-01-01 15:00:04.94	266.74	10.31	-49.7	-50.9	16.7	0.00e+00	0	34	0	758120448	65	4163
2026-01-01 15:00:05.95	266.91	10.34	-49.8	-51.1	16.6	0.00e+00	0	33	0	764411904	65	4244
2026-01-01 15:00:06.95	267.08	10.37	-50.1	-51.4	16.4	0.00e+00	0	33	0	769654784	65	4409
2026-01-01 15:00:07.96	267.25	10.40	-50.4	-51.7	16.3	0.00e+00	0	34	0	775946240	65	4563
2026-01-01 15:00:08.97	267.42	10.44	-50.4	-51.7	16.3	0.00e+00	0	33	0	781189120	66	4309
2026-01-01 15:00:09.98	267.60	10.47	-50.3	-51.6	16.3	0.00e+00	0	33	0	787480576	66	4279
2026-01-01 15:00:10.99	267.77	10.50	-50.3	-51.6	16.3	0.00e+00	0	33	0	792723456	66	4289
2026-01-01 15:00:12.00	267.94	10.53	-50.4	-51.8	16.3	0.00e+00	0	33	0	797966336	66	4346
2026-01-01 15:00:13.00	268.11	10.56	-50.5	-51.8	16.3	0.00e+00	0	33	0	804257792	66	4378
2026-01-01 15:00:14.01	268.28	10.60	-50.5	-51.9	16.2	0.00e+00	0	33	0	809500672	66	4412
2026-01-01 15:00:15.02	268.46	10.63	-50.5	-51.9	16.2	0.00e+00	0	33	0	814743552	66	4397
2026-01-01 15:00:16.03	268.63	10.66	-50.3	-51.6	16.3	0.00e+00	0	34	0	821035008	66	4291
2026-01-01 15:00:17.03	268.80	10.69	-49.9	-51.2	16.5	0.00e+00	0	33	0	826277888	66	4058
2026-01-01 15:00:18.04	268.98	10.72	-49.7	-51.0	16.6	0.00e+00	0	33	0	832569344	66	3960
2026-01-01 15:00:19.05	269.15	10.75	-49.6	-50.8	16.6	0.00e+00	0	33	0	837812224	65	4132
2026-01-01 15:00:20.06	269.33	10.78	-49.6	-50.8	16.7	0.00e+00	0	33	0	843055104	65	4122
2026-01-01 15:00:21.06	269.50	10.81	-49.6	-50.9	16.6	0.00e+00	0	33	0	849346560	65	4152
2026-01-01 15:00:22.06	269.68	10.84	-49.8	-51.1	16.6	0.00e+00	0	34	0	854589440	65	4246
2026-01-01 15:00:23.07	269.85	10.87	-49.8	-51.1	16.6	0.00e+00	0	34	0	860880896	65	4259
2026-01-01 15:00:24.07	270.03	10.90	-49.9	-51.1	16.6	0.00e+00	0	34	0	866123776	65	4278
2026-01-01 15:00:25.08	270.20	10.93	-49.8	-51.1	16.6	0.00e+00	0	33	0	872415232	65	4254
2026-01-01 15:00:26.09	270.38	10.96	-49.8	-51.1	16.6	0.00e+00	0	33	0	877658112	65	4251
2026-01-01 15:00:27.10	270.56	10.99	-49.6	-50.9	16.7	0.00e+00	0	34	0	882900992	65	4159
2026-01-01 15:00:28.11	270.74	11.02	-49.6	-50.8	16.7	0.00e+00	0	34	0	889192448	65	4112
2026-01-01 15:00:29.12	270.92	11.04	-49.3	-50.6	16.9	0.00e+00	0	34	0	894435328	65	4008
2026-01-01 15:00:30.12	271.09	11.07	-49.2	-50.4	16.9	0.00e+00	0	33	0	899678208	65	3943
2026-01-01 15:00:31.13	271.27	11.10	-49.2	-50.4	16.9	0.00e+00	0	33	0	905969664	64	4152
2026-01-01 15:00:32.14	271.45	11.13	-49.1	-50.3	16.9	0.00e+00	0	34	0	911212544	64	4140
2026-01-01 15:00:33.15	271.63	11.16	-49.2	-50.4	16.9	0.00e+00	0	34	0	917504000	64	4151
2026-01-01 15:00:34.15	271.81	11.18	-49.2	-50.4	16.9	0.00e+00	0	34	0	922746880	64	4176
2026-01-01 15:00:35.16	271.99	11.21	-49.3	-50.5	16.8	0.00e+00	0	34	0	927989760	64	4237
2026-01-01 15:00:36.17	272.17	11.24	-49.4	-50.6	16.8	0.00e+00	0	34	0	934281216	64	4285
2026-01-01 15:00:37.18	272.35	11.26	-49.3	-50.6	16.8	0.00e+00	0	34	0	939524096	64	4245
2026-01-01 15:00:38.18	272.53	11.29	-49.5	-50.7	16.8	0.00e+00	0	33	0	945815552	64	4306
2026-01-01 15:00:39.19	272.71	11.32	-49.5	-50.7	16.8	0.00e+00	0	34	0	951058432	64	4315
2026-01-01 15:00:40.19	272.89	11.34	-49.5	-50.7	16.8	0.00e+00	0	34	0	957349888	64	4328
2026-01-01 15:00:41.20	273.07	11.37	-49.3	-50.6	16.9	0.00e+00	0	34	0	962592768	64	4243
2026-01-01 15:00:42.20	273.25	11.39	-49.4	-50.6	16.8	0.00e+00	0	34	0	967835648	64	4251
2026-01-01 15:00:43.21	273.44	11.42	-49.4	-50.6	16.8	0.00e+00	0	33	0	974127104	64	4274
2026-01-01 15:00:44.22	273.62	11.44	-49.3	-50.5	16.8	0.00e+00	0	34	0	979369984	64	4235
2026-01-01 15:00:45.23	273.80	11.47	-49.3	-50.5	16.9	0.00e+00	0	33	0	984612864	64	4237
2026-01-01 15:00:46.23	273.98	11.49	-49.5	-50.7	16.8	0.00e+00	0	34	0	990904320	64	4311
2026-01-01 15:00:47.24	274.17	11.52	-49.6	-50.8	16.8	0.00e+00	0	34	0	996147200	64	4374
2026-01-01 15:00:48.25	274.35	11.54	-49.5	-50.8	16.8	0.00e+00	0	34	0	1002438656	64	4349
2026-01-01 15:00:49.25	274.53	11.56	-49.6	-50.9	16.7	0.00e+00	0	34	0	1007681536	64	4396
2026-01-01 15:00:50.26	274.72	11.59	-49.5	-50.7	16.8	0.00e+00	0	34	0	1012924416	64	4313
2026-01-01 15:00:51.27	274.90	11.61	-49.5	-50.7	16.8	0.00e+00	0	34	0	1019215872	64	4329
2026-01-01 15:00:52.28	275.09	11.64	-49.5	-50.7	16.8	0.00e+00	0	34	0	1024458752	64	4304
2026-01-01 15:00:53.28	275.27	11.66	-49.3	-50.5	16.9	0.00e+00	0	34	0	1030750208	64	4227
2026-01-01 15:00:54.29	275.46	11.68	-49.3	-50.5	16.9	0.00e+00	0	34	0	1035993088	64	4203
2026-01-01 15:00:55.30	275.64	11.70	-49.4	-50.6	16.8	0.00e+00	0	34	0	1042284544	64	4249
2026-01-01 15:00:56.31	275.83	11.73	-49.3	-50.4	16.9	0.00e+00	0	34	0	1047527424	64	4191
2026-01-01 15:00:57.32	276.02	11.75	-49.2	-50.4	16.9	0.00e+00	0	34	0	1052770304	64	4173
2026-01-01 15:00:58.33	276.20	11.77	-49.3	-50.5	16.9	0.00e+00	0	34	0	1059061760	64	4198
2026-01-01 15:00:59.33	276.39	11.79	-49.2	-50.3	16.9	0.00e+00	0	34	0	1064304640	64	4130
2026-01-01 15:01:00.34	276.58	11.81	-49.0	-50.2	17.0	0.00e+00	0	34	0	1070596096	64	4072
2026-01-01 15:01:01.35	276.77	11.83	-49.1	-50.2	17.0	0.00e+00	0	34	0	1075838976	64	4098
2026-01-01 15:01:02.35	276.95	11.85	-49.1	-50.2	17.0	0.00e+00	0	34	0	1081081856	64	4097
2026-01-01 15:01:03.36	277.14	11.87	-49.0	-50.2	17.0	0.00e+00	0	34	0	1087373312	64	4066
2026-01-01 15:01:04.37	277.33	11.89	-49.0	-50.1	17.0	0.00e+00	0	34	0	1092616192	64	4039
2026-01-01 15:01:05.38	277.52	11.91	-49.0	-50.2	17.0	0.00e+00	0	34	0	1097859072	64	4065
2026-01-01 15:01:06.39	277.71	11.93	-49.1	-50.2	17.0	0.00e+00	0	34	0	1104150528	64	4098
2026-01-01 15:01:07.40	277.89	11.95	-49.0	-50.2	17.0	0.00e+00	0	34	0	1109393408	64	4057
2026-01-01 15:01:08.40	278.08	11.97	-49.1	-50.2	17.0	0.00e+00	0	34	0	1115684864	64	4074
2026-01-01 15:01:09.41	278.27	11.99	-49.1	-50.2	17.0	0.00e+00	0	34	0	1120927744	64	4077
2026-01-01 15:01:10.42	278.46	12.01	-49.0	-50.1	17.0	0.00e+00	0	34	0	1127219200	64	4051
2026-01-01 15:01:11.43	278.65	12.03	-49.0	-50.2	17.0	0.00e+00	0	34	0	1132462080	64	4057
2026-01-01 15:01:12.44	278.84	12.05	-49.0	-50.1	17.0	0.00e+00	0	34	0	1138753536	64	4051
2026-01-01 15:01:13.45	279.03	12.06	-48.9	-50.0	17.1	0.00e+00	0	34	0	1143996416	64	3984
2026-01-01 15:01:14.46	279.22	12.08	-48.9	-50.0	17.1	0.00e+00	0	33	0	1149239296	64	4001
2026-01-01 15:01:15.47	279.42	12.10	-48.9	-50.0	17.1	0.00e+00	0	34	0	1155530752	64	3996
2026-01-01 15:01:16.48	279.61	12.12	-48.9	-50.0	17.1	0.00e+00	0	34	0	1160773632	64	4002
2026-01-01 15:01:17.49	279.80	12.13	-49.1	-50.2	17.0	0.00e+00	0	34	0	1167065088	64	4071
2026-01-01 15:01:18.50	279.99	12.15	-49.1	-50.3	17.0	0.00e+00	0	34	0	1172307968	64	4103
2026-01-01 15:01:19.50	280.18	12.16	-49.3	-50.4	17.0	0.00e+00	0	34	0	1177550848	64	4175
2026-01-01 15:01:20.51	280.37	12.18	-49.3	-50.4	17.0	0.00e+00	0	34	0	1183842304	64	4185
2026-01-01 15:01:21.52	280.56	12.20	-49.3	-50.4	17.0	0.00e+00	0	34	0	1189085184	64	4186
2026-01-01 15:01:22.52	280.75	12.21	-49.2	-50.4	17.0	0.00e+00	0	34	0	1194328064	64	4161
2026-01-01 15:01:23.53	280.95	12.23	-49.3	-50.5	16.9	0.00e+00	0	34	0	1200619520	64	4209
2026-01-01 15:01:24.54	281.14	12.24	-49.4	-50.5	16.9	0.00e+00	0	34	0	1205862400	64	4228
2026-01-01 15:01:25.55	281.33	12.26	-49.4	-50.6	16.9	0.00e+00	0	34	0	1212153856	64	4256
2026-01-01 15:01:26.56	281.53	12.27	-49.4	-50.6	17.0	0.00e+00	0	34	0	1217396736	64	4261
2026-01-01 15:01:27.57	281.72	12.28	-49.5	-50.7	16.9	0.00e+00	0	34	0	1223688192	64	4300
2026-01-01 15:01:28.58	281.91	12.30	-49.6	-50.8	16.9	0.00e+00	0	34	0	1228931072	64	4349
2026-01-01 15:01:29.58	282.10	12.31	-49.4	-50.6	16.9	0.00e+00	0	34	0	1235222528	64	4278
2026-01-01 15:01:30.59	282.30	12.32	-49.3	-50.5	17.0	0.00e+00	0	34	0	1240465408	64	4215
2026-01-01 15:01:31.60	282.49	12.34	-49.4	-50.5	16.9	0.00e+00	0	34	0	1245708288	64	4239
2026-01-01 15:01:32.60	282.68	12.35	-49.5	-50.7	16.9	0.00e+00	0	34	0	1251999744	64	4312
2026-01-01 15:01:33.62	282.88	12.36	-49.3	-50.5	16.9	0.00e+00	0	34	0	1257242624	64	4231
2026-01-01 15:01:34.62	283.07	12.37	-49.4	-50.6	17.0	0.00e+00	0	34	0	1262485504	64	4258
2026-01-01 15:01:35.63	283.27	12.38	-49.4	-50.6	16.9	0.00e+00	0	34	0	1268776960	64	4252
2026-01-01 15:01:36.64	283.46	12.40	-49.5	-50.7	16.9	0.00e+00	0	34	0	1274019840	64	4308
2026-01-01 15:01:37.65	283.66	12.41	-49.5	-50.7	16.9	0.00e+00	0	34	0	1280311296	64	4334
2026-01-01 15:01:38.65	283.85	12.42	-49.5	-50.7	16.9	0.00e+00	0	34	0	1285554176	64	4316
2026-01-01 15:01:39.66	284.05	12.43	-49.6	-50.8	16.9	0.00e+00	0	34	0	1290797056	64	4341
2026-01-01 15:01:40.67	284.24	12.44	-49.5	-50.7	16.9	0.00e+00	0	34	0	1297088512	64	4333
2026-01-01 15:01:41.68	284.44	12.45	-49.4	-50.6	16.9	0.00e+00	0	34	0	1302331392	64	4263
2026-01-01 15:01:42.69	284.63	12.46	-49.4	-50.6	16.9	0.00e+00	0	34	0	1308622848	64	4266
2026-01-01 15:01:43.69	284.83	12.47	-49.4	-50.6	16.9	0.00e+00	0	34	0	1313865728	64	4263
2026-01-01 15:01:44.69	285.02	12.48	-49.5	-50.7	16.9	0.00e+00	0	34	0	1320157184	64	4307
2026-01-01 15:01:45.70	285.22	12.48	-49.4	-50.6	16.9	0.00e+00	0	34	0	1325400064	64	4283
2026-01-01 15:01:46.71	285.41	12.49	-49.5	-50.7	16.9	0.00e+00	0	34	0	1330642944	64	4302
2026-01-01 15:01:47.72	285.61	12.50	-49.3	-50.5	17.0	0.00e+00	0	34	0	1336934400	64	4204
2026-01-01 15:01:48.73	285.80	12.51	-49.4	-50.6	16.9	0.00e+00	0	34	0	1342177280	64	4255
2026-01-01 15:01:49.74	286.00	12.52	-49.4	-50.6	16.9	0.00e+00	0	34	0	1348468736	64	4254
2026-01-01 15:01:50.74	286.20	12.52	-49.2	-50.4	17.0	0.00e+00	0	34	0	1353711616	64	4161
2026-01-01 15:01:51.75	286.39	12.53	-49.3	-50.4	17.0	0.00e+00	0	34	0	1358954496	64	4188
2026-01-01 15:01:52.76	286.59	12.54	-49.2	-50.4	17.0	0.00e+00	0	34	0	1365245952	64	4168
2026-01-01 15:01:53.76	286.78	12.54	-49.4	-50.6	17.0	0.00e+00	0	34	0	1370488832	64	4250
2026-01-01 15:01:54.77	286.98	12.55	-49.5	-50.7	16.9	0.00e+00	0	34	0	1375731712	64	4313
2026-01-01 15:01:55.78	287.18	12.55	-49.4	-50.6	17.0	0.00e+00	0	34	0	1382023168	64	4266
2026-01-01 15:01:56.79	287.37	12.56	-49.5	-50.6	17.0	0.00e+00	0	34	0	1387266048	64	4284
2026-01-01 15:01:57.80	287.57	12.56	-49.5	-50.7	16.9	0.00e+00	0	34	0	1393557504	64	4327
2026-01-01 15:01:58.80	287.77	12.57	-49.5	-50.7	16.9	0.00e+00	0	34	0	1398800384	64	4300
2026-01-01 15:01:59.81	287.96	12.57	-49.6	-50.7	16.9	0.00e+00	0	34	0	1405091840	64	4335
2026-01-01 15:02:00.81	288.16	12.58	-49.5	-50.7	16.9	0.00e+00	0	34	0	1410334720	64	4315
2026-01-01 15:02:01.82	288.36	12.58	-49.5	-50.6	16.9	0.00e+00	0	34	0	1415577600	64	4286
2026-01-01 15:02:02.83	288.55	12.58	-49.3	-50.5	17.0	0.00e+00	0	34	0	1421869056	64	4227
2026-01-01 15:02:03.84	288.75	12.59	-49.4	-50.6	17.0	0.00e+00	0	34	0	1427111936	64	4244
2026-01-01 15:02:04.85	288.95	12.59	-49.4	-50.5	17.0	0.00e+00	0	34	0	1433403392	64	4238
2026-01-01 15:02:05.86	289.14	12.59	-49.4	-50.6	16.9	0.00e+00	0	34	0	1438646272	64	4253
2026-01-01 15:02:06.87	289.34	12.60	-49.5	-50.7	16.9	0.00e+00	0	34	0	1443889152	64	4322
2026-01-01 15:02:07.87	289.54	12.60	-49.5	-50.7	16.9	0.00e+00	0	34	0	1450180608	64	4320
2026-01-01 15:02:08.87	289.73	12.60	-49.5	-50.7	16.9	0.00e+00	0	34	0	1455423488	64	4316
2026-01-01 15:02:09.88	289.93	12.60	-49.5	-50.7	16.9	0.00e+00	0	34	0	1461714944	64	4313
2026-01-01 15:02:10.89	290.13	12.60	-49.5	-50.7	16.9	0.00e+00	0	34	0	1466957824	64	4319
2026-01-01 15:02:11.90	290.32	12.60	-49.5	-50.7	16.9	0.00e+00	0	34	0	1472200704	64	4322
2026-01-01 15:02:12.91	290.52	12.60	-49.5	-50.7	16.9	0.00e+00	0	34	0	1478492160	64	4300
2026-01-01 15:02:13.92	290.72	12.60	-49.5	-50.7	16.9	0.00e+00	0	34	0	1483735040	64	4319
2026-01-01 15:02:14.93	290.92	12.60	-49.5	-50.7	16.9	0.00e+00	0	34	0	1490026496	64	4306
2026-01-01 15:02:15.93	291.11	12.60	-49.5	-50.7	16.9	0.00e+00	0	34	0	1495269376	64	4325
2026-01-01 15:02:16.94	291.31	12.60	-49.6	-50.8	16.9	0.00e+00	0	34	0	1501560832	64	4356
2026-01-01 15:02:17.95	291.51	12.60	-49.6	-50.8	16.9	0.00e+00	0	34	0	1506803712	64	4342
2026-01-01 15:02:18.95	291.70	12.60	-49.4	-50.6	17.0	0.00e+00	0	34	0	1512046592	64	4274
2026-01-01 15:02:19.96	291.90	12.60	-49.5	-50.7	16.9	0.00e+00	0	34	0	1518338048	64	4303
2026-01-01 15:02:20.97	292.10	12.60	-49.5	-50.7	16.9	0.00e+00	0	34	0	1523580928	64	4315
2026-01-01 15:02:21.97	292.29	12.59	-49.6	-50.8	16.9	0.00e+00	0	34	0	1528823808	64	4343
2026-01-01 15:02:22.98	292.49	12.59	-49.7	-50.9	16.8	0.00e+00	0	34	0	1535115264	64	4438
2026-01-01 15:02:23.99	292.69	12.59	-49.8	-51.0	16.8	0.00e+00	0	34	0	1540358144	64	4471
2026-01-01 15:02:25.00	292.88	12.59	-49.8	-51.0	16.7	0.00e+00	0	34	0	1546649600	64	4484
2026-01-01 15:02:26.01	293.08	12.58	-49.7	-50.9	16.8	0.00e+00	0	34	0	1551892480	64	4421
2026-01-01 15:02:27.02	293.28	12.58	-49.5	-50.7	16.9	0.00e+00	0	34	0	1557135360	64	4308
2026-01-01 15:02:28.02	293.47	12.57	-49.5	-50.7	16.9	0.00e+00	0	34	0	1563426816	64	4314
2026-01-01 15:02:29.03	293.67	12.57	-49.6	-50.8	16.8	0.00e+00	0	34	0	1568669696	64	4382
2026-01-01 15:02:30.04	293.87	12.56	-49.6	-50.7	16.9	0.00e+00	0	34	0	1574961152	64	4340
2026-01-01 15:02:31.04	294.06	12.56	-49.6	-50.8	16.9	0.00e+00	0	34	0	1580204032	64	4358
2026-01-01 15:02:32.05	294.26	12.55	-49.6	-50.8	16.9	0.00e+00	0	34	0	1586495488	64	4365
2026-01-01 15:02:33.05	294.45	12.55	-49.5	-50.7	16.9	0.00e+00	0	34	0	1591738368	64	4316
2026-01-01 15:02:34.06	294.65	12.54	-49.6	-50.8	16.9	0.00e+00	0	34	0	1596981248	64	4347
2026-01-01 15:02:35.07	294.85	12.54	-49.6	-50.8	16.9	0.00e+00	0	34	0	1603272704	64	4379
2026-01-01 15:02:36.07	295.04	12.53	-49.6	-50.8	16.9	0.00e+00	0	34	0	1608515584	64	4348
2026-01-01 15:02:37.08	295.24	12.52	-49.6	-50.8	16.8	0.00e+00	0	34	0	1613758464	64	4358
2026-01-01 15:02:38.09	295.43	12.52	-49.5	-50.7	16.9	0.00e+00	0	34	0	1620049920	64	4309
2026-01-01 15:02:39.10	295.63	12.51	-49.6	-50.8	16.8	0.00e+00	0	34	0	1625292800	64	4368
2026-01-01 15:02:40.10	295.83	12.50	-49.6	-50.8	16.9	0.00e+00	0	34	0	1631584256	64	4346
2026-01-01 15:02:41.11	296.02	12.49	-49.4	-50.5	17.0	0.00e+00	0	34	0	1636827136	64	4241
2026-01-01 15:02:42.12	296.22	12.48	-49.4	-50.6	17.0	0.00e+00	0	34	0	1642070016	64	4248
2026-01-01 15:02:43.13	296.41	12.48	-49.5	-50.7	16.9	0.00e+00	0	34	0	1648361472	64	4312
2026-01-01 15:02:44.14	296.61	12.47	-49.5	-50.7	16.9	0.00e+00	0	34	0	1653604352	64	4322
2026-01-01 15:02:45.15	296.80	12.46	-49.6	-50.8	16.8	0.00e+00	0	34	0	1659895808	64	4369
2026-01-01 15:02:46.16	297.00	12.45	-49.7	-50.9	16.8	0.00e+00	0	34	0	1665138688	64	4437
2026-01-01 15:02:47.17	297.19	12.44	-49.6	-50.9	16.8	0.00e+00	0	34	0	1671430144	64	4393
2026-01-01 15:02:48.18	297.39	12.43	-49.6	-50.8	16.8	0.00e+00	0	34	0	1676673024	64	4358
2026-01-01 15:02:49.18	297.58	12.42	-49.6	-50.8	16.8	0.00e+00	0	34	0	1682964480	64	4376
2026-01-01 15:02:50.19	297.78	12.41	-49.5	-50.7	16.9	0.00e+00	0	34	0	1688207360	64	4332
2026-01-01 15:02:51.20	297.97	12.40	-49.5	-50.7	16.9	0.00e+00	0	34	0	1693450240	64	4336
2026-01-01 15:02:52.21	298.17	12.39	-49.5	-50.7	16.8	0.00e+00	0	34	0	1699741696	64	4322
2026-01-01 15:02:53.22	298.36	12.37	-49.6	-50.8	16.8	0.00e+00	0	34	0	1704984576	64	4342
2026-01-01 15:02:54.23	298.56	12.36	-49.6	-50.8	16.8	0.00e+00	0	34	0	1710227456	64	4366
2026-01-01 15:02:55.24	298.75	12.35	-49.5	-50.7	16.8	0.00e+00	0	34	0	1716518912	64	4326
2026-01-01 15:02:56.25	298.94	12.34	-49.4	-50.6	16.9	0.00e+00	0	34	0	1721761792	64	4286
2026-01-01 15:02:57.26	299.14	12.32	-49.5	-50.7	16.9	0.00e+00	0	34	0	1728053248	64	4315
2026-01-01 15:02:58.26	299.33	12.31	-49.5	-50.7	16.9	0.00e+00	0	34	0	1733296128	64	4332
2026-01-01 15:02:59.27	299.52	12.30	-49.5	-50.7	16.9	0.00e+00	0	34	0	1738539008	64	4318
2026-01-01 15:03:00.28	299.72	12.28	-49.4	-50.6	16.9	0.00e+00	0	34	0	1744830464	64	4274
2026-01-01 15:03:01.29	299.91	12.27	-49.3	-50.5	16.9	0.00e+00	0	34	0	1750073344	64	4225
2026-01-01 15:03:02.29	300.10	12.26	-49.4	-50.5	16.9	0.00e+00	0	34	0	1756364800	64	4231
2026-01-01 15:03:03.30	300.29	12.24	-49.4	-50.6	16.9	0.00e+00	0	34	0	1761607680	64	4249
2026-01-01 15:03:04.31	300.49	12.23	-49.4	-50.6	16.9	0.00e+00	0	34	0	1767899136	64	4253
2026-01-01 15:03:05.32	300.68	12.21	-49.5	-50.6	16.9	0.00e+00	0	34	0	1773142016	64	4285
2026-01-01 15:03:06.33	300.87	12.20	-49.5	-50.7	16.9	0.00e+00	0	34	0	1778384896	64	4302
2026-01-01 15:03:07.34	301.06	12.18	-49.5	-50.7	16.9	0.00e+00	0	34	0	1784676352	64	4340
2026-01-01 15:03:08.35	301.25	12.17	-49.7	-50.9	16.8	0.00e+00	0	34	0	1789919232	64	4422
2026-01-01 15:03:09.35	301.44	12.15	-49.6	-50.9	16.8	0.00e+00	0	34	0	1796210688	64	4400
2026-01-01 15:03:10.36	301.64	12.13	-49.5	-50.7	16.9	0.00e+00	0	34	0	1801453568	64	4324
2026-01-01 15:03:11.37	301.83	12.12	-49.6	-50.8	16.9	0.00e+00	0	34	0	1806696448	64	4355
2026-01-01 15:03:12.37	302.02	12.10	-49.5	-50.7	16.9	0.00e+00	0	34	0	1812987904	64	4298
2026-01-01 15:03:13.38	302.21	12.08	-49.5	-50.7	16.9	0.00e+00	0	34	0	1818230784	64	4308
2026-01-01 15:03:14.39	302.40	12.07	-49.4	-50.5	16.9	0.00e+00	0	34	0	1824522240	64	4231
2026-01-01 15:03:15.40	302.59	12.05	-49.4	-50.6	16.9	0.00e+00	0	34	0	1829765120	64	4258
2026-01-01 15:03:16.41	302.78	12.03	-49.5	-50.7	16.9	0.00e+00	0	34	0	1835008000	64	4332
2026-01-01 15:03:17.41	302.96	12.01	-49.6	-50.8	16.9	0.00e+00	0	34	0	1841299456	64	4357
2026-01-01 15:03:18.42	303.15	11.99	-49.7	-50.9	16.8	0.00e+00	0	34	0	1846542336	64	4405
2026-01-01 15:03:19.43	303.34	11.97	-49.6	-50.8	16.8	0.00e+00	0	34	0	1852833792	64	4388
2026-01-01 15:03:20.44	303.53	11.96	-49.7	-50.9	16.8	0.00e+00	0	34	0	1858076672	64	4417
2026-01-01 15:03:21.45	303.72	11.94	-49.6	-50.8	16.9	0.00e+00	0	34	0	1864368128	64	4391
2026-01-01 15:03:22.46	303.91	11.92	-49.7	-50.9	16.8	0.00e+00	0	34	0	1869611008	64	4406
2026-01-01 15:03:23.47	304.10	11.90	-49.7	-50.9	16.8	0.00e+00	0	34	0	1874853888	64	4430
2026-01-01 15:03:24.47	304.29	11.88	-49.7	-51.0	16.8	0.00e+00	0	34	0	1881145344	64	4444
2026-01-01 15:03:25.47	304.47	11.86	-49.7	-50.9	16.8	0.00e+00	0	34	0	1886388224	64	4402
2026-01-01 15:03:26.48	304.66	11.84	-49.7	-50.9	16.8	0.00e+00	0	34	0	1892679680	64	4439
2026-01-01 15:03:27.49	304.85	11.81	-49.6	-50.8	16.9	0.00e+00	0	34	0	1897922560	64	4375
2026-01-01 15:03:28.50	305.03	11.79	-49.6	-50.8	16.9	0.00e+00	0	34	0	1903165440	64	4383
2026-01-01 15:03:29.50	305.22	11.77	-49.7	-51.0	16.8	0.00e+00	0	34	0	1909456896	64	4442
2026-01-01 15:03:30.50	305.40	11.75	-49.8	-51.0	16.8	0.00e+00	0	34	0	1914699776	64	4466
2026-01-01 15:03:31.51	305.59	11.73	-49.8	-51.0	16.8	0.00e+00	0	34	0	1919942656	64	4480
2026-01-01 15:03:32.52	305.78	11.71	-49.8	-51.1	16.7	0.00e+00	0	34	0	1926234112	64	4504
2026-01-01 15:03:33.53	305.96	11.68	-49.9	-51.1	16.8	0.00e+00	0	34	0	1931476992	65	4274
2026-01-01 15:03:34.54	306.15	11.66	-49.9	-51.1	16.8	0.00e+00	0	34	0	1937768448	65	4276
2026-01-01 15:03:35.55	306.33	11.64	-49.7	-51.0	16.8	0.00e+00	0	34	0	1943011328	65	4203
2026-01-01 15:03:36.56	306.52	11.62	-49.6	-50.8	16.9	0.00e+00	0	34	0	1949302784	65	4120
2026-01-01 15:03:37.57	306.70	11.59	-49.5	-50.7	16.9	0.00e+00	0	34	0	1954545664	65	4090
2026-01-01 15:03:38.58	306.89	11.57	-49.6	-50.8	16.9	0.00e+00	0	34	0	1960837120	65	4103
2026-01-01 15:03:39.59	307.07	11.55	-49.7	-50.9	16.9	0.00e+00	0	34	0	1966080000	65	4155
2026-01-01 15:03:40.60	307.25	11.52	-49.7	-51.0	16.8	0.00e+00	0	34	0	1971322880	65	4196
2026-01-01 15:03:41.61	307.44	11.50	-49.7	-50.9	16.8	0.00e+00	0	34	0	1977614336	65	4165
2026-01-01 15:03:42.62	307.62	11.47	-49.7	-50.9	16.8	0.00e+00	0	34	0	1982857216	65	4177
2026-01-01 15:03:43.63	307.80	11.45	-49.6	-50.9	16.8	0.00e+00	0	34	0	1988100096	65	4148
2026-01-01 15:03:44.64	307.99	11.42	-49.7	-50.9	16.8	0.00e+00	0	34	0	1994391552	65	4158
2026-01-01 15:03:45.64	308.17	11.40	-49.7	-51.0	16.8	0.00e+00	0	34	0	1999634432	65	4198
2026-01-01 15:03:46.65	308.35	11.37	-49.6	-50.8	16.8	0.00e+00	0	34	0	2005925888	65	4135
2026-01-01 15:03:47.66	308.53	11.35	-49.6	-50.8	16.8	0.00e+00	0	34	0	2011168768	65	4140
2026-01-01 15:03:48.67	308.71	11.32	-49.6	-50.9	16.8	0.00e+00	0	34	0	2016411648	65	4148
2026-01-01 15:03:49.67	308.89	11.29	-49.7	-50.9	16.8	0.00e+00	0	34	0	2022703104	65	4166
2026-01-01 15:03:50.68	309.07	11.27	-49.7	-50.9	16.8	0.00e+00	0	34	0	2027945984	65	4162
2026-01-01 15:03:51.69	309.25	11.24	-49.6	-50.8	16.8	0.00e+00	0	34	0	2034237440	65	4137
2026-01-01 15:03:52.70	309.43	11.21	-49.6	-50.8	16.8	0.00e+00	0	34	0	2039480320	65	4137
2026-01-01 15:03:53.71	309.61	11.19	-49.6	-50.7	16.9	0.00e+00	0	34	0	2045771776	65	4097
2026-01-01 15:03:54.72	309.79	11.16	-49.6	-50.8	16.9	0.00e+00	0	34	0	2051014656	65	4107
2026-01-01 15:03:55.72	309.97	11.13	-49.7	-50.9	16.8	0.00e+00	0	34	0	2056257536	65	4163
2026-01-01 15:03:56.72	310.15	11.11	-49.8	-51.0	16.8	0.00e+00	0	34	0	2062548992	65	4211
2026-01-01 15:03:57.72	310.32	11.08	-49.8	-51.1	16.8	0.00e+00	0	34	0	2067791872	65	4254
2026-01-01 15:03:58.71	310.50	11.05	-49.9	-51.1	16.7	0.00e+00	0	34	0	2073034752	65	4275
2026-01-01 15:03:59.71	310.67	11.02	-49.9	-51.1	16.7	0.00e+00	0	34	0	2079326208	65	4287
2026-01-01 15:04:00.72	310.85	10.99	-49.9	-51.1	16.7	0.00e+00	0	34	0	2084569088	65	4285
2026-01-01 15:04:01.72	311.03	10.97	-50.0	-51.2	16.7	0.00e+00	0	34	0	2089811968	65	4338
2026-01-01 15:04:02.73	311.20	10.94	-49.9	-51.2	16.7	0.00e+00	0	34	0	2096103424	65	4321
2026-01-01 15:04:03.73	311.38	10.91	-49.9	-51.2	16.7	0.00e+00	0	34	0	2101346304	65	4310
2026-01-01 15:04:04.74	311.55	10.88	-49.8	-51.1	16.7	0.00e+00	0	34	0	2107637760	65	4247
2026-01-01 15:04:05.74	311.73	10.85	-49.9	-51.2	16.7	0.00e+00	0	34	0	2112880640	65	4295
2026-01-01 15:04:06.75	311.90	10.82	-49.8	-51.1	16.7	0.00e+00	0	34	0	2119172096	65	4255
2026-01-01 15:04:07.76	312.08	10.79	-50.0	-51.2	16.6	0.00e+00	0	34	0	2124414976	65	4326
2026-01-01 15:04:08.76	312.25	10.76	-49.8	-51.1	16.7	0.00e+00	0	34	0	2129657856	65	4262
2026-01-01 15:04:09.77	312.42	10.73	-49.9	-51.1	16.7	0.00e+00	0	34	0	2135949312	65	4280
2026-01-01 15:04:10.77	312.60	10.70	-49.9	-51.1	16.7	0.00e+00	0	34	0	2141192192	65	4259
2026-01-01 15:04:11.77	312.77	10.67	-49.7	-50.9	16.8	0.00e+00	0	34	0	2146435072	65	4183
2026-01-01 15:04:12.78	312.94	10.64	-49.6	-50.8	16.8	0.00e+00	0	34	0	2152726528	65	4123
2026-01-01 15:04:13.78	313.11	10.61	-49.6	-50.8	16.8	0.00e+00	0	34	0	2157969408	65	4138
2026-01-01 15:04:14.79	313.29	10.58	-49.7	-50.9	16.8	0.00e+00	0	34	0	2164260864	65	4150
2026-01-01 15:04:15.80	313.46	10.54	-49.6	-50.8	16.8	0.00e+00	0	34	0	2169503744	65	4131
2026-01-01 15:04:16.81	313.63	10.51	-49.6	-50.8	16.8	0.00e+00	0	34	0	2174746624	65	4137
2026-01-01 15:04:17.82	313.80	10.48	-49.6	-50.9	16.8	0.00e+00	0	34	0	2181038080	65	4150
2026-01-01 15:04:18.83	313.97	10.45	-49.8	-51.0	16.8	0.00e+00	0	34	0	2186280960	65	4212
2026-01-01 15:04:19.84	314.14	10.42	-49.8	-51.0	16.7	0.00e+00	0	34	0	2192572416	65	4232
2026-01-01 15:04:20.85	314.31	10.38	-49.8	-51.1	16.7	0.00e+00	0	34	0	2197815296	65	4244
2026-01-01 15:04:21.86	314.48	10.35	-49.8	-51.1	16.7	0.00e+00	0	34	0	2204106752	65	4243
2026-01-01 15:04:22.87	314.65	10.32	-49.8	-51.0	16.8	0.00e+00	0	34	0	2209349632	65	4224
2026-01-01 15:04:23.87	314.82	10.29	-49.8	-51.1	16.7	0.00e+00	0	34	0	2214592512	65	4257
2026-01-01 15:04:24.87	314.99	10.25	-49.8	-51.1	16.7	0.00e+00	0	34	0	2220883968	65	4265
2026-01-01 15:04:25.88	315.16	10.22	-49.9	-51.1	16.7	0.00e+00	0	34	0	2226126848	65	4286
2026-01-01 15:04:26.88	315.32	10.19	-49.9	-51.2	16.7	0.00e+00	0	34	0	2232418304	65	4297
2026-01-01 15:04:27.88	315.49	10.15	-50.0	-51.2	16.7	0.00e+00	0	34	0	2237661184	65	4334
2026-01-01 15:04:28.89	315.66	10.12	-50.0	-51.2	16.7	0.00e+00	0	34	0	2242904064	65	4332
2026-01-01 15:04:29.89	315.82	10.09	-50.0	-51.3	16.7	0.00e+00	0	34	0	2249195520	65	4345
2026-01-01 15:04:30.89	315.99	10.05	-50.0	-51.2	16.7	0.00e+00	0	34	0	2254438400	65	4338
2026-01-01 15:04:31.90	316.15	10.02	-49.9	-51.2	16.7	0.00e+00	0	34	0	2259681280	65	4316
2026-01-01 15:04:32.91	316.32	9.98	-50.0	-51.2	16.7	0.00e+00	0	34	0	2265972736	65	4328
2026-01-01 15:04:33.92	316.49	9.95	-50.0	-51.3	16.6	0.00e+00	0	34	0	2271215616	65	4345
2026-01-01 15:04:34.93	316.65	9.91	-49.9	-51.1	16.7	0.00e+00	0	34	0	2277507072	65	4283
2026-01-01 15:04:35.94	316.82	9.88	-49.8	-51.0	16.8	0.00e+00	0	34	0	2282749952	65	4204
2026-01-01 15:04:36.95	316.98	9.84	-49.8	-51.1	16.7	0.00e+00	0	34	0	2289041408	65	4251
2026-01-01 15:04:37.96	317.14	9.81	-49.8	-51.0	16.7	0.00e+00	0	34	0	2294284288	65	4217
2026-01-01 15:04:38.97	317.31	9.77	-49.8	-51.1	16.7	0.00e+00	0	34	0	2299527168	65	4266
2026-01-01 15:04:39.98	317.47	9.74	-49.9	-51.2	16.7	0.00e+00	0	34	0	2305818624	65	4303
2026-01-01 15:04:40.98	317.63	9.70	-50.1	-51.4	16.6	0.00e+00	0	34	0	2311061504	65	4425
2026-01-01 15:04:41.99	317.80	9.67	-50.2	-51.4	16.6	0.00e+00	0	34	0	2317352960	65	4439
2026-01-01 15:04:43.00	317.96	9.63	-50.1	-51.4	16.6	0.00e+00	0	34	0	2322595840	65	4430
2026-01-01 15:04:44.00	318.12	9.60	-50.3	-51.6	16.5	0.00e+00	0	34	0	2327838720	65	4499
2026-01-01 15:04:45.01	318.28	9.56	-50.2	-51.4	16.6	0.00e+00	0	34	0	2334130176	65	4439
2026-01-01 15:04:46.01	318.44	9.52	-50.2	-51.5	16.5	0.00e+00	0	34	0	2339373056	65	4455
2026-01-01 15:04:47.02	318.60	9.49	-50.1	-51.4	16.6	0.00e+00	0	34	0	2344615936	65	4431
2026-01-01 15:04:48.03	318.76	9.45	-50.1	-51.4	16.6	0.00e+00	0	34	0	2350907392	65	4431
2026-01-01 15:04:49.04	318.92	9.41	-50.1	-51.3	16.6	0.00e+00	0	34	0	2356150272	65	4385
2026-01-01 15:04:50.05	319.08	9.38	-50.0	-51.3	16.6	0.00e+00	0	34	0	2362441728	65	4372
2026-01-01 15:04:51.06	319.24	9.34	-50.1	-51.3	16.6	0.00e+00	0	34	0	2367684608	65	4382
2026-01-01 15:04:52.07	319.40	9.30	-50.1	-51.4	16.6	0.00e+00	0	34	0	2373976064	65	4392
2026-01-01 15:04:53.08	319.55	9.26	-50.1	-51.4	16.6	0.00e+00	0	34	0	2379218944	65	4411
2026-01-01 15:04:54.09	319.71	9.23	-50.2	-51.4	16.6	0.00e+00	0	34	0	2385510400	65	4438
2026-01-01 15:04:55.10	319.87	9.19	-50.1	-51.4	16.6	0.00e+00	0	34	0	2390753280	65	4410
2026-01-01 15:04:56.11	320.03	9.15	-50.1	-51.4	16.6	0.00e+00	0	34	0	2395996160	65	4409
2026-01-01 15:04:57.12	320.18	9.11	-50.1	-51.4	16.6	0.00e+00	0	34	0	2402287616	65	4405
2026-01-01 15:04:58.12	320.34	9.08	-50.0	-51.3	16.6	0.00e+00	0	34	0	2407530496	65	4358
2026-01-01 15:04:59.13	320.49	9.04	-50.1	-51.4	16.6	0.00e+00	0	34	0	2413821952	65	4405
2026-01-01 15:05:00.14	320.65	9.00	-50.1	-51.3	16.6	0.00e+00	0	34	0	2419064832	65	4391
2026-01-01 15:05:01.15	320.81	8.96	-50.0	-51.3	16.6	0.00e+00	0	34	0	2424307712	65	4357
2026-01-01 15:05:02.16	320.96	8.92	-50.0	-51.3	16.6	0.00e+00	0	34	0	2430599168	65	4376
2026-01-01 15:05:03.17	321.11	8.89	-50.0	-51.3	16.6	0.00e+00	0	34	0	2435842048	65	4377
2026-01-01 15:05:04.18	321.27	8.85	-50.0	-51.3	16.6	0.00e+00	0	34	0	2441084928	65	4362
2026-01-01 15:05:05.18	321.42	8.81	-50.0	-51.3	16.6	0.00e+00	0	34	0	2447376384	65	4363
2026-01-01 15:05:06.19	321.57	8.77	-50.1	-51.4	16.5	0.00e+00	0	34	0	2452619264	65	4431
2026-01-01 15:05:07.20	321.73	8.73	-50.0	-51.3	16.6	0.00e+00	0	34	0	2458910720	65	4367
2026-01-01 15:05:08.20	321.88	8.69	-50.0	-51.2	16.6	0.00e+00	0	34	0	2464153600	65	4333
2026-01-01 15:05:09.21	322.03	8.65	-50.0	-51.3	16.6	0.00e+00	0	34	0	2470445056	65	4361
2026-01-01 15:05:10.22	322.18	8.61	-50.1	-51.4	16.6	0.00e+00	0	34	0	2475687936	65	4405
2026-01-01 15:05:11.22	322.33	8.57	-50.2	-51.4	16.6	0.00e+00	0	34	0	2480930816	65	4440
2026-01-01 15:05:12.23	322.48	8.53	-50.3	-51.7	16.4	0.00e+00	0	34	0	2487222272	65	4546
2026-01-01 15:05:13.24	322.63	8.49	-50.3	-51.7	16.5	0.00e+00	0	34	0	2492465152	66	4294
2026-01-01 15:05:14.25	322.78	8.45	-50.5	-51.8	16.4	0.00e+00	0	34	0	2498756608	66	4391
2026-01-01 15:05:15.26	322.93	8.41	-50.5	-51.9	16.4	0.00e+00	0	34	0	2503999488	66	4398
2026-01-01 15:05:16.27	323.08	8.37	-50.5	-51.8	16.4	0.00e+00	0	34	0	2509242368	66	4360
2026-01-01 15:05:17.28	323.23	8.33	-50.6	-52.0	16.4	0.00e+00	0	34	0	2515533824	66	4452
2026-01-01 15:05:18.29	323.38	8.29	-50.6	-51.9	16.4	0.00e+00	0	34	0	2520776704	66	4417
2026-01-01 15:05:19.30	323.53	8.25	-50.6	-52.0	16.3	0.00e+00	0	34	0	2527068160	66	4458
2026-01-01 15:05:20.30	323.67	8.21	-50.6	-51.9	16.3	0.00e+00	0	34	0	2532311040	66	4417
2026-01-01 15:05:21.31	323.82	8.17	-50.5	-51.9	16.4	0.00e+00	0	34	0	2537553920	66	4397
2026-01-01 15:05:22.32	323.97	8.13	-50.5	-51.8	16.4	0.00e+00	0	34	0	2543845376	66	4369
2026-01-01 15:05:23.33	324.11	8.09	-50.5	-51.8	16.4	0.00e+00	0	34	0	2549088256	66	4367
2026-01-01 15:05:24.33	324.26	8.05	-50.4	-51.8	16.5	0.00e+00	0	34	0	2555379712	66	4343
2026-01-01 15:05:25.34	324.40	8.01	-50.3	-51.6	16.5	0.00e+00	0	34	0	2560622592	66	4278
2026-01-01 15:05:26.35	324.55	7.97	-50.4	-51.7	16.4	0.00e+00	0	34	0	2566914048	66	4338
2026-01-01 15:05:27.36	324.69	7.93	-50.4	-51.8	16.4	0.00e+00	0	34	0	2572156928	66	4347
2026-01-01 15:05:28.37	324.84	7.89	-50.5	-51.8	16.4	0.00e+00	0	34	0	2577399808	66	4387
2026-01-01 15:05:29.38	324.98	7.85	-50.7	-52.1	16.3	0.00e+00	0	34	0	2583691264	66	4508
2026-01-01 15:05:30.38	325.12	7.81	-50.5	-51.8	16.4	0.00e+00	0	34	0	2588934144	66	4383
2026-01-01 15:05:31.39	325.27	7.76	-50.6	-52.0	16.3	0.00e+00	0	34	0	2595225600	66	4449
2026-01-01 15:05:32.40	325.41	7.72	-50.5	-51.9	16.3	0.00e+00	0	34	0	2600468480	66	4413
2026-01-01 15:05:33.41	325.55	7.68	-50.5	-51.9	16.3	0.00e+00	0	34	0	2605711360	66	4401
2026-01-01 15:05:34.42	325.69	7.64	-50.5	-51.9	16.3	0.00e+00	0	34	0	2612002816	66	4416
2026-01-01 15:05:35.43	325.84	7.60	-50.6	-52.0	16.3	0.00e+00	0	34	0	2617245696	66	4452
2026-01-01 15:05:36.44	325.98	7.56	-50.5	-51.9	16.4	0.00e+00	0	34	0	2623537152	66	4399
2026-01-01 15:05:37.44	326.12	7.52	-50.5	-51.9	16.3	0.00e+00	0	34	0	2628780032	66	4417
2026-01-01 15:05:38.45	326.26	7.47	-50.5	-51.8	16.4	0.00e+00	0	34	0	2634022912	66	4370
2026-01-01 15:05:39.46	326.40	7.43	-50.4	-51.7	16.4	0.00e+00	0	34	0	2640314368	66	4337
2026-01-01 15:05:40.47	326.54	7.39	-50.3	-51.7	16.4	0.00e+00	0	34	0	2645557248	66	4296
2026-01-01 15:05:41.48	326.68	7.35	-50.4	-51.7	16.4	0.00e+00	0	34	0	2651848704	66	4334
2026-01-01 15:05:42.49	326.82	7.30	-50.4	-51.7	16.4	0.00e+00	0	34	0	2657091584	66	4324
2026-01-01 15:05:43.50	326.95	7.26	-50.3	-51.6	16.4	0.00e+00	0	34	0	2663383040	66	4279
2026-01-01 15:05:44.51	327.09	7.22	-50.2	-51.5	16.5	0.00e+00	0	34	0	2668625920	66	4241
2026-01-01 15:05:45.52	327.23	7.18	-50.3	-51.7	16.5	0.00e+00	0	34	0	2673868800	66	4296
2026-01-01 15:05:46.53	327.37	7.14	-50.3	-51.6	16.4	0.00e+00	0	34	0	2680160256	66	4275
2026-01-01 15:05:47.53	327.50	7.09	-50.4	-51.7	16.4	0.00e+00	0	34	0	2685403136	66	4304
2026-01-01 15:05:48.54	327.64	7.05	-50.5	-51.8	16.4	0.00e+00	0	34	0	2691694592	66	4361
2026-01-01 15:05:49.55	327.78	7.01	-50.5	-51.8	16.3	0.00e+00	0	34	0	2696937472	66	4374
2026-01-01 15:05:50.56	327.91	6.97	-50.6	-51.9	16.3	0.00e+00	0	34	0	2702180352	66	4428
2026-01-01 15:05:51.57	328.05	6.92	-50.7	-52.1	16.2	0.00e+00	0	34	0	2708471808	66	4529
2026-01-01 15:05:52.58	328.18	6.88	-50.8	-52.2	16.2	0.00e+00	0	34	0	2713714688	66	4556
2026-01-01 15:05:53.59	328.32	6.84	-50.9	-52.3	16.1	0.00e+00	0	34	0	2720006144	67	4371
2026-01-01 15:05:54.60	328.45	6.79	-50.8	-52.2	16.1	0.00e+00	0	34	0	2725249024	67	4320
2026-01-01 15:05:55.61	328.59	6.75	-50.9	-52.3	16.1	0.00e+00	0	34	0	2730491904	67	4372
2026-01-01 15:05:56.62	328.72	6.71	-50.7	-52.1	16.2	0.00e+00	0	34	0	2736783360	67	4267
2026-01-01 15:05:57.63	328.85	6.66	-50.8	-52.2	16.1	0.00e+00	0	34	0	2742026240	67	4319
2026-01-01 15:05:58.63	328.98	6.62	-50.9	-52.3	16.1	0.00e+00	0	34	0	2748317696	67	4342
2026-01-01 15:05:59.64	329.12	6.58	-50.7	-52.1	16.2	0.00e+00	0	34	0	2753560576	67	4283
2026-01-01 15:06:00.65	329.25	6.54	-50.7	-52.1	16.2	0.00e+00	0	34	0	2759852032	67	4250
2026-01-01 15:06:01.66	329.38	6.49	-50.7	-52.0	16.2	0.00e+00	0	34	0	2765094912	67	4242
2026-01-01 15:06:02.66	329.51	6.45	-50.8	-52.1	16.2	0.00e+00	0	34	0	2770337792	67	4282
2026-01-01 15:06:03.67	329.64	6.41	-50.6	-52.0	16.3	0.00e+00	0	34	0	2776629248	67	4228
2026-01-01 15:06:04.68	329.77	6.36	-50.7	-52.1	16.2	0.00e+00	0	34	0	2781872128	67	4265
2026-01-01 15:06:05.69	329.90	6.32	-50.7	-52.1	16.2	0.00e+00	0	34	0	2788163584	67	4269
2026-01-01 15:06:06.69	330.03	6.27	-50.9	-52.3	16.1	0.00e+00	0	34	0	2793406464	67	4347
2026-01-01 15:06:07.70	330.16	6.23	-50.9	-52.3	16.1	0.00e+00	0	34	0	2798649344	67	4354
2026-01-01 15:06:08.71	330.29	6.19	-50.9	-52.3	16.1	0.00e+00	0	34	0	2804940800	67	4371
2026-01-01 15:06:09.72	330.42	6.14	-51.0	-52.4	16.0	0.00e+00	0	34	0	2810183680	67	4420
2026-01-01 15:06:10.73	330.55	6.10	-51.0	-52.4	16.0	0.00e+00	0	34	0	2815426560	67	4434
2026-01-01 15:06:11.74	330.68	6.06	-51.1	-52.6	16.0	0.00e+00	0	34	0	2821718016	67	4517
2026-01-01 15:06:12.75	330.80	6.01	-51.2	-52.7	15.9	0.00e+00	0	34	0	2826960896	67	4549
2026-01-01 15:06:13.76	330.93	5.97	-51.2	-52.7	15.9	0.00e+00	0	34	0	2833252352	67	4568
2026-01-01 15:06:14.77	331.06	5.92	-51.2	-52.6	15.9	0.00e+00	0	34	0	2838495232	67	4543
2026-01-01 15:06:15.78	331.18	5.88	-51.1	-52.6	16.0	0.00e+00	0	34	0	2844786688	67	4502
2026-01-01 15:06:16.78	331.31	5.84	-51.2	-52.7	16.0	0.00e+00	0	34	0	2850029568	67	4553
2026-01-01 15:06:17.79	331.43	5.79	-51.2	-52.7	15.9	0.00e+00	0	34	0	2856321024	67	4558
2026-01-01 15:06:18.80	331.56	5.75	-51.5	-53.0	15.9	0.00e+00	0	34	0	2861563904	68	4478
2026-01-01 15:06:19.80	331.68	5.70	-51.4	-52.9	15.9	0.00e+00	0	34	0	2866806784	68	4425
2026-01-01 15:06:20.81	331.81	5.66	-51.4	-52.9	15.9	0.00e+00	0	34	0	2873098240	68	4399
2026-01-01 15:06:21.82	331.93	5.62	-51.3	-52.7	16.0	0.00e+00	0	34	0	2878341120	68	4323
2026-01-01 15:06:22.83	332.06	5.57	-51.3	-52.7	15.9	0.00e+00	0	34	0	2883584000	68	4331
2026-01-01 15:06:23.84	332.18	5.53	-51.2	-52.7	15.9	0.00e+00	0	34	0	2889875456	68	4298
2026-01-01 15:06:24.84	332.30	5.48	-51.2	-52.7	15.9	0.00e+00	0	34	0	2895118336	68	4310
2026-01-01 15:06:25.85	332.43	5.44	-51.1	-52.6	16.0	0.00e+00	0	34	0	2901409792	68	4252
2026-01-01 15:06:26.85	332.55	5.40	-51.2	-52.6	16.0	0.00e+00	0	34	0	2906652672	68	4278
2026-01-01 15:06:27.86	332.67	5.35	-51.1	-52.6	16.0	0.00e+00	0	34	0	2911895552	68	4258
2026-01-01 15:06:28.86	332.79	5.31	-51.2	-52.6	16.0	0.00e+00	0	34	0	2918187008	68	4262
2026-01-01 15:06:29.87	332.91	5.26	-51.3	-52.8	15.9	0.00e+00	0	34	0	2923429888	68	4342
2026-01-01 15:06:30.88	333.03	5.22	-51.3	-52.8	15.8	0.00e+00	0	34	0	2929721344	68	4364
2026-01-01 15:06:31.89	333.15	5.17	-51.4	-52.8	15.8	0.00e+00	0	34	0	2934964224	68	4391
2026-01-01 15:06:32.89	333.27	5.13	-51.4	-52.9	15.8	0.00e+00	0	34	0	2941255680	68	4425
2026-01-01 15:06:33.90	333.39	5.09	-51.4	-52.8	15.8	0.00e+00	0	34	0	2946498560	68	4387
2026-01-01 15:06:34.91	333.51	5.04	-51.3	-52.8	15.8	0.00e+00	0	34	0	2951741440	68	4368
2026-01-01 15:06:35.92	333.63	5.00	-58.3	-63.6	7.8	1.20e-02	0	34	0	2958032896	81	7203
2026-01-01 15:06:36.93	333.75	4.95	-60.6	-73.6	3.8	8.46e-01	0	34	104	2958032896	86	17014
2026-01-01 15:06:37.94	333.87	4.91	-61.0	-74.0	3.8	8.45e-01	0	34	104	2958032896	87	16783
2026-01-01 15:06:38.95	333.99	4.86	-61.3	-74.3	3.8	8.46e-01	0	34	104	2958032896	87	17440
2026-01-01 15:06:39.96	334.11	4.82	-61.5	-74.5	3.8	8.45e-01	0	34	104	2958032896	88	16827
2026-01-01 15:06:40.97	334.22	4.77	-61.7	-74.7	3.8	8.46e-01	0	34	104	2958032896	88	17143
2026-01-01 15:06:41.98	334.34	4.73	-61.8	-74.8	3.8	8.46e-01	0	34	104	2958032896	88	17443
2026-01-01 15:06:42.99	334.46	4.68	-61.9	-74.9	3.9	8.46e-01	0	34	104	2958032896	89	16675
2026-01-01 15:06:44.00	334.58	4.64	-62.0	-75.0	3.8	8.45e-01	0	34	104	2958032896	89	16869
2026-01-01 15:06:45.01	334.69	4.59	-62.1	-75.1	3.8	8.46e-01	0	34	104	2958032896	89	16973
2026-01-01 15:06:46.02	334.81	4.55	-62.1	-75.1	3.8	8.46e-01	0	34	104	2958032896	89	17060
2026-01-01 15:06:47.02	334.92	4.50	-62.2	-75.2	3.8	8.46e-01	0	34	104	2958032896	89	17128
2026-01-01 15:06:48.03	335.04	4.46	-62.2	-75.2	3.8	8.46e-01	0	34	104	2958032896	89	17221
2026-01-01 15:06:49.04	335.15	4.41	-62.2	-75.3	3.8	8.46e-01	0	34	104	2958032896	89	17342
2026-01-01 15:06:50.04	335.27	4.37	-62.2	-75.3	3.8	8.47e-01	0	34	104	2958032896	89	17357
2026-01-01 15:06:51.05	335.38	4.32	-62.3	-75.3	3.8	8.45e-01	0	34	104	2958032896	89	17416
2026-01-01 15:06:52.06	335.49	4.28	-62.3	-75.3	3.8	8.47e-01	0	34	104	2958032896	89	17388
2026-01-01 15:06:53.07	335.61	4.23	-62.3	-75.3	3.8	8.45e-01	0	34	104	2958032896	89	17421
2026-01-01 15:06:54.08	335.72	4.19	-62.3	-75.3	3.8	8.46e-01	0	34	104	2958032896	89	17475
2026-01-01 15:06:55.09	335.83	4.14	-62.3	-75.3	3.8	8.45e-01	0	34	104	2958032896	89	17463
2026-01-01 15:06:56.10	335.95	4.10	-62.3	-75.3	3.8	8.46e-01	0	34	104	2958032896	89	17475
2026-01-01 15:06:57.11	336.06	4.05	-62.3	-75.3	3.8	8.46e-01	0	34	104	2958032896	89	17456
2026-01-01 15:06:58.11	336.17	4.01	-62.2	-75.3	3.8	8.46e-01	0	34	104	2958032896	89	17334
2026-01-01 15:06:59.12	336.28	3.96	-62.2	-75.3	3.8	8.46e-01	0	34	104	2958032896	89	17301
2026-01-01 15:07:00.13	336.39	3.92	-62.2	-75.2	3.8	8.44e-01	0	34	104	2958032896	89	17277
2026-01-01 15:07:01.14	336.50	3.87	-62.2	-75.2	3.8	8.45e-01	0	34	104	2958032896	89	17247
2026-01-01 15:07:02.15	336.61	3.83	-62.2	-75.2	3.8	8.45e-01	0	34	104	2958032896	89	17180
2026-01-01 15:07:03.16	336.73	3.78	-62.1	-75.2	3.8	8.46e-01	0	34	104	2958032896	89	17111
2026-01-01 15:07:04.17	336.84	3.74	-62.1	-75.1	3.8	8.47e-01	0	34	104	2958032896	89	17083
2026-01-01 15:07:05.17	336.94	3.69	-62.1	-75.1	3.8	8.46e-01	0	34	104	2958032896	89	17037
2026-01-01 15:07:06.18	337.05	3.65	-62.1	-75.1	3.8	8.45e-01	0	34	104	2958032896	89	17007
2026-01-01 15:07:07.19	337.16	3.60	-62.1	-75.2	3.8	8.47e-01	0	34	104	2958032896	89	17088
2026-01-01 15:07:08.20	337.27	3.56	-62.1	-75.1	3.8	8.45e-01	0	34	104	2958032896	89	16961
2026-01-01 15:07:09.21	337.38	3.51	-62.0	-75.1	3.8	8.46e-01	0	34	104	2958032896	89	16952
2026-01-01 15:07:10.21	337.49	3.47	-62.1	-75.1	3.8	8.46e-01	0	34	104	2958032896	89	17003
2026-01-01 15:07:11.22	337.59	3.42	-62.0	-75.1	3.8	8.47e-01	0	34	104	2958032896	89	16947
2026-01-01 15:07:12.23	337.70	3.38	-62.0	-75.1	3.8	8.46e-01	0	34	104	2958032896	89	16929
2026-01-01 15:07:13.23	337.81	3.33	-62.0	-75.0	3.8	8.45e-01	0	34	104	2958032896	89	16871
2026-01-01 15:07:14.24	337.91	3.29	-62.0	-75.1	3.8	8.45e-01	0	35	104	2958032896	89	16906
2026-01-01 15:07:15.25	338.02	3.24	-62.0	-75.0	3.8	8.45e-01	0	34	104	2958032896	89	16872
2026-01-01 15:07:16.26	338.13	3.20	-62.0	-75.0	3.8	8.46e-01	0	34	104	2958032896	89	16849
2026-01-01 15:07:17.26	338.23	3.15	-62.0	-75.0	3.8	8.45e-01	0	34	104	2958032896	89	16846
2026-01-01 15:07:18.27	338.34	3.11	-62.0	-75.0	3.8	8.45e-01	0	34	104	2958032896	89	16773
2026-01-01 15:07:19.28	338.44	3.06	-62.0	-75.0	3.8	8.45e-01	0	34	104	2958032896	89	16839
2026-01-01 15:07:20.29	338.55	3.02	-62.0	-75.0	3.8	8.47e-01	0	34	104	2958032896	89	16807
2026-01-01 15:07:21.30	338.65	2.97	-62.0	-75.0	3.8	8.45e-01	0	34	104	2958032896	89	16807
2026-01-01 15:07:22.31	338.76	2.93	-62.0	-75.0	3.8	8.45e-01	0	34	104	2958032896	89	16802
2026-01-01 15:07:23.32	338.86	2.88	-62.0	-75.0	3.8	8.45e-01	0	34	104	2958032896	89	16774
2026-01-01 15:07:24.33	338.97	2.84	-62.0	-75.0	3.8	8.46e-01	0	34	104	2958032896	89	16791
2026-01-01 15:07:25.33	339.07	2.79	-62.0	-75.0	3.8	8.45e-01	0	34	104	2958032896	89	16831
2026-01-01 15:07:26.34	339.17	2.75	-61.9	-75.0	3.8	8.45e-01	0	34	104	2958032896	89	16764
2026-01-01 15:07:27.34	339.27	2.70	-61.9	-75.0	3.8	8.45e-01	0	34	104	2958032896	89	16721
2026-01-01 15:07:28.35	339.38	2.66	-61.9	-75.0	3.8	8.45e-01	0	34	104	2958032896	89	16717
2026-01-01 15:07:29.36	339.48	2.61	-61.9	-75.0	3.8	8.45e-01	0	34	104	2958032896	89	16710
2026-01-01 15:07:30.37	339.58	2.57	-61.9	-75.0	3.8	8.45e-01	0	34	104	2958032896	89	16762
2026-01-01 15:07:31.38	339.68	2.52	-61.9	-75.0	3.8	8.45e-01	0	34	104	2958032896	89	16706
2026-01-01 15:07:32.39	339.78	2.48	-61.9	-75.0	3.8	8.46e-01	0	34	104	2958032896	89	16702
2026-01-01 15:07:33.39	339.88	2.43	-61.9	-74.9	3.8	8.46e-01	0	34	104	2958032896	89	16667
2026-01-01 15:07:34.40	339.98	2.39	-61.9	-74.9	3.8	8.45e-01	0	34	104	2958032896	89	16655
2026-01-01 15:07:35.41	340.08	2.34	-61.9	-74.9	3.8	8.46e-01	0	34	104	2958032896	89	16599
2026-01-01 15:07:36.42	340.18	2.30	-61.8	-74.9	3.8	8.45e-01	0	34	104	2958032896	89	16544
2026-01-01 15:07:37.43	340.28	2.25	-61.8	-74.9	3.8	8.46e-01	0	34	104	2958032896	89	16525
2026-01-01 15:07:38.44	340.38	2.21	-61.9	-74.9	3.8	8.46e-01	0	34	104	2958032896	89	16645
2026-01-01 15:07:39.45	340.48	2.16	-61.8	-74.9	3.8	8.46e-01	0	34	104	2958032896	89	16593
2026-01-01 15:07:40.45	340.58	2.12	-61.8	-74.9	3.8	8.45e-01	0	34	104	2958032896	89	16570
2026-01-01 15:07:41.47	340.68	2.07	-61.9	-74.9	3.8	8.47e-01	0	35	104	2958032896	89	16572
2026-01-01 15:07:42.47	340.78	2.03	-61.8	-74.9	3.8	8.44e-01	0	34	104	2958032896	89	16602
2026-01-01 15:07:43.48	340.88	1.98	-61.8	-74.9	3.8	8.46e-01	0	34	104	2958032896	89	16546
2026-01-01 15:07:44.49	340.98	1.94	-61.8	-74.9	3.8	8.46e-01	0	34	104	2958032896	89	16565

#Closed at: 2026-01-01 15:07:45
#Recorded file [2958 MB]: D:/lorett/data/31004_260101_175646.dat