passes_logs/2026/01/01/R3.2S_Murmansk/R3.2S_Murmansk__20260101_021348_SUOMI_NPP_rec.log

#Pass ID: 20260101_021348_SUOMI NPP
#Satellite: SUOMI NPP
#Configuration: NPP
#almurnet v.1.7.20251203
#Start time: 2026-01-01 02:13:50

#Version: 2.2.20231116
#Station: R3.2S_Murmansk
#Location: 33.079688 lon 68.888172 lat
#TLE: 1 37849U 11061A   25364.87906317  .00000195  00000+0  11345-3 0  9992
#TLE: 2 37849  98.7794 302.0592 0002571  89.2401 270.9069 14.19520347734561

#Time	Az	El	Level	Level2	SNR	BER	BlckErr	Temp	State	Recorded	gain1	gain2
2026-01-01 02:13:50.78	31.67	2.14	-59.9	-75.9	3.8	1.49e+00	0	34	0	0	86	22103
2026-01-01 02:13:51.79	31.64	2.20	-59.9	-75.9	3.8	1.49e+00	0	34	104	0	85	23404
2026-01-01 02:13:52.79	31.61	2.26	-59.9	-75.9	3.8	1.49e+00	0	34	104	0	85	23347
2026-01-01 02:13:53.79	31.58	2.33	-59.9	-75.9	3.8	1.49e+00	0	34	104	0	85	23331
2026-01-01 02:13:54.78	31.54	2.39	-59.9	-75.9	3.8	1.49e+00	0	34	104	0	85	23349
2026-01-01 02:13:55.78	31.51	2.45	-59.9	-75.8	3.8	1.49e+00	0	34	104	0	85	23310
2026-01-01 02:13:56.78	31.48	2.51	-59.9	-75.9	3.8	1.49e+00	0	34	104	0	85	23361
2026-01-01 02:13:57.78	31.45	2.58	-59.9	-75.9	3.8	1.49e+00	0	34	104	0	85	23351
2026-01-01 02:13:58.77	31.41	2.64	-59.9	-75.9	3.8	1.49e+00	0	34	104	0	85	23327
2026-01-01 02:13:59.77	31.38	2.70	-59.9	-75.9	3.8	1.49e+00	0	34	104	0	85	23377
2026-01-01 02:14:00.77	31.35	2.77	-59.9	-75.9	3.8	1.49e+00	0	34	104	0	85	23396
2026-01-01 02:14:01.77	31.31	2.83	-59.9	-75.9	3.8	1.49e+00	0	34	104	0	85	23440
2026-01-01 02:14:02.78	31.28	2.90	-59.9	-75.8	3.8	1.49e+00	0	34	104	0	85	23287
2026-01-01 02:14:03.78	31.25	2.96	-59.9	-75.9	3.8	1.49e+00	0	34	104	0	85	23335
2026-01-01 02:14:04.77	31.21	3.02	-59.9	-75.8	3.8	1.49e+00	0	34	104	0	85	23303
2026-01-01 02:14:05.78	31.18	3.09	-59.9	-75.8	3.8	1.49e+00	0	34	104	0	85	23229
2026-01-01 02:14:06.77	31.15	3.15	-59.9	-75.8	3.8	1.49e+00	0	35	104	0	85	23300
2026-01-01 02:14:07.77	31.11	3.22	-59.9	-75.8	3.8	1.49e+00	0	34	104	0	85	23287
2026-01-01 02:14:08.78	31.08	3.28	-59.9	-75.9	3.8	1.49e+00	0	34	104	0	85	23404
2026-01-01 02:14:09.78	31.04	3.35	-59.9	-75.9	3.8	1.49e+00	0	34	104	0	85	23354
2026-01-01 02:14:10.77	31.01	3.41	-59.9	-75.8	3.8	1.49e+00	0	34	104	0	85	23231
2026-01-01 02:14:11.77	30.97	3.48	-59.9	-75.8	3.8	1.49e+00	0	35	104	0	85	23105
2026-01-01 02:14:12.77	30.94	3.54	-59.9	-75.7	3.8	1.49e+00	0	34	104	0	85	22926
2026-01-01 02:14:13.76	30.90	3.61	-59.9	-75.5	3.8	1.49e+00	0	34	104	0	85	22343
2026-01-01 02:14:14.77	30.87	3.67	-59.9	-75.3	3.8	1.49e+00	0	34	104	0	85	21762
2026-01-01 02:14:15.76	30.83	3.74	-59.9	-74.9	3.8	1.49e+00	0	35	104	0	85	20928
2026-01-01 02:14:16.76	30.80	3.80	-59.9	-74.7	3.8	1.49e+00	0	34	104	0	85	20385
2026-01-01 02:14:17.76	30.76	3.87	-59.9	-74.4	3.8	1.49e+00	0	35	104	0	85	19626
2026-01-01 02:14:18.76	30.72	3.94	-59.9	-74.1	3.8	1.49e+00	0	35	104	0	85	19033
2026-01-01 02:14:19.75	30.69	4.00	-59.9	-74.0	3.8	1.49e+00	0	34	104	0	85	18925
2026-01-01 02:14:20.75	30.65	4.07	-59.9	-74.0	3.8	1.49e+00	0	34	104	0	85	18854
2026-01-01 02:14:21.75	30.61	4.14	-59.9	-74.3	3.8	1.49e+00	0	35	104	0	85	19395
2026-01-01 02:14:22.74	30.58	4.20	-59.9	-74.6	3.8	1.49e+00	0	35	104	0	85	20132
2026-01-01 02:14:23.74	30.54	4.27	-59.9	-75.0	3.8	1.49e+00	0	35	104	0	85	21045
2026-01-01 02:14:24.74	30.50	4.34	-59.9	-75.3	3.8	1.49e+00	0	35	104	0	85	21867
2026-01-01 02:14:25.73	30.47	4.40	-59.9	-75.0	3.8	1.49e+00	0	35	104	0	85	21249
2026-01-01 02:14:26.74	30.43	4.47	-59.9	-73.9	3.8	1.49e+00	0	35	104	0	85	18730
2026-01-01 02:14:27.74	30.39	4.54	-59.8	-72.3	4.2	1.44e+00	0	35	0	0	85	15404
2026-01-01 02:14:28.73	30.35	4.60	-59.6	-70.3	5.0	9.51e-01	0	35	0	1048576	85	12247
2026-01-01 02:14:29.73	30.31	4.67	-59.3	-68.2	6.2	4.53e-01	0	35	0	3145728	85	9707
2026-01-01 02:14:30.72	30.27	4.74	-59.0	-66.5	7.8	9.57e-02	0	35	0	4194304	84	8402
2026-01-01 02:14:31.72	30.24	4.81	-58.4	-64.6	9.4	2.18e-02	0	35	0	6291456	83	7158
2026-01-01 02:14:32.71	30.20	4.88	-58.2	-63.9	10.1	5.76e-03	0	35	0	8388608	83	6641
2026-01-01 02:14:33.71	30.16	4.94	-57.8	-62.9	11.1	1.85e-03	0	35	0	10485760	82	6212
2026-01-01 02:14:34.71	30.12	5.01	-57.5	-62.2	11.7	2.19e-04	0	35	0	11534336	81	6085
2026-01-01 02:14:35.71	30.08	5.08	-59.2	-67.4	7.3	4.30e-04	0	35	0	13631488	83	9854
2026-01-01 02:14:36.70	30.04	5.15	-59.8	-70.5	5.0	4.05e-01	0	35	0	15728640	84	13297
2026-01-01 02:14:37.70	30.00	5.22	-57.2	-61.6	12.2	1.38e-02	0	35	0	17825792	81	5679
2026-01-01 02:14:38.70	29.96	5.29	-55.5	-58.4	14.7	2.36e-04	0	35	0	19922944	77	4954
2026-01-01 02:14:39.69	29.92	5.36	-58.5	-65.0	9.1	0.00e+00	0	35	0	20971520	82	7987
2026-01-01 02:14:40.69	29.88	5.43	-55.8	-58.9	14.3	9.45e-02	0	35	0	23068672	78	4974
2026-01-01 02:14:41.69	29.84	5.50	-55.1	-57.8	15.2	0.00e+00	0	35	0	25165824	76	4916
2026-01-01 02:14:42.69	29.80	5.57	-55.2	-57.9	15.1	0.00e+00	0	35	0	27262976	76	4976
2026-01-01 02:14:43.69	29.76	5.64	-55.0	-57.6	15.3	0.00e+00	0	35	0	29360128	76	4791
2026-01-01 02:14:44.69	29.72	5.71	-54.9	-57.5	15.4	0.00e+00	0	35	0	30408704	76	4741
2026-01-01 02:14:45.69	29.67	5.78	-55.1	-57.8	15.3	0.00e+00	0	35	0	32505856	76	4872
2026-01-01 02:14:46.69	29.63	5.85	-54.9	-57.5	15.5	0.00e+00	0	35	0	34603008	76	4733
2026-01-01 02:14:47.69	29.59	5.92	-55.1	-57.8	15.2	0.00e+00	0	35	0	36700160	76	4905
2026-01-01 02:14:48.69	29.55	5.99	-55.1	-57.7	15.3	0.00e+00	0	35	0	38797312	76	4857
2026-01-01 02:14:49.69	29.50	6.06	-55.1	-57.7	15.3	0.00e+00	0	35	0	39845888	76	4855
2026-01-01 02:14:50.70	29.46	6.13	-55.1	-57.7	15.4	0.00e+00	0	35	0	41943040	76	4821
2026-01-01 02:14:51.70	29.42	6.21	-55.0	-57.5	15.5	0.00e+00	0	35	0	44040192	76	4740
2026-01-01 02:14:52.68	29.38	6.28	-55.0	-57.5	15.4	0.00e+00	0	35	0	46137344	76	4759
2026-01-01 02:14:53.68	29.33	6.35	-54.8	-57.3	15.6	0.00e+00	0	35	0	47185920	76	4625
2026-01-01 02:14:54.68	29.29	6.42	-54.9	-57.4	15.6	0.00e+00	0	35	0	49283072	76	4679
2026-01-01 02:14:55.67	29.25	6.49	-55.0	-57.5	15.5	0.00e+00	0	35	0	51380224	76	4740
2026-01-01 02:14:56.67	29.20	6.56	-54.8	-57.3	15.6	0.00e+00	0	35	0	53477376	76	4625
2026-01-01 02:14:57.67	29.16	6.64	-54.8	-57.3	15.7	0.00e+00	0	35	0	55574528	76	4604
2026-01-01 02:14:58.68	29.11	6.71	-54.9	-57.5	15.6	0.00e+00	0	35	0	56623104	76	4718
2026-01-01 02:14:59.68	29.07	6.78	-54.8	-57.3	15.7	0.00e+00	0	35	0	58720256	76	4615
2026-01-01 02:15:00.68	29.02	6.86	-54.8	-57.3	15.7	0.00e+00	0	35	0	60817408	76	4604
2026-01-01 02:15:01.67	28.98	6.93	-54.8	-57.2	15.8	0.00e+00	0	35	0	62914560	76	4588
2026-01-01 02:15:02.67	28.93	7.00	-55.0	-57.5	15.6	0.00e+00	0	35	0	63963136	76	4710
2026-01-01 02:15:03.67	28.89	7.08	-54.9	-57.4	15.7	0.00e+00	0	35	0	66060288	76	4667
2026-01-01 02:15:04.67	28.84	7.15	-54.8	-57.2	15.8	0.00e+00	0	35	0	68157440	76	4566
2026-01-01 02:15:05.67	28.79	7.23	-54.8	-57.2	15.8	0.00e+00	0	35	0	70254592	76	4575
2026-01-01 02:15:06.67	28.75	7.30	-54.8	-57.3	15.8	0.00e+00	0	35	0	72351744	76	4626
2026-01-01 02:15:07.67	28.70	7.37	-54.8	-57.2	15.8	0.00e+00	0	35	0	73400320	76	4574
2026-01-01 02:15:08.67	28.65	7.45	-54.8	-57.2	15.8	0.00e+00	0	35	0	75497472	76	4592
2026-01-01 02:15:09.67	28.60	7.52	-54.7	-57.1	15.9	0.00e+00	0	35	0	77594624	76	4499
2026-01-01 02:15:10.66	28.56	7.60	-54.6	-57.0	15.9	0.00e+00	0	35	0	79691776	75	4739
2026-01-01 02:15:11.66	28.51	7.67	-54.8	-57.2	15.7	0.00e+00	0	35	0	81788928	75	4865
2026-01-01 02:15:12.65	28.46	7.75	-54.7	-57.1	15.8	0.00e+00	0	35	0	82837504	75	4810
2026-01-01 02:15:13.64	28.41	7.82	-54.6	-57.0	15.9	0.00e+00	0	35	0	84934656	75	4744
2026-01-01 02:15:14.64	28.36	7.90	-54.7	-57.1	15.9	0.00e+00	0	35	0	87031808	75	4778
2026-01-01 02:15:15.64	28.32	7.98	-54.6	-57.1	15.9	0.00e+00	0	35	0	89128960	75	4765
2026-01-01 02:15:16.64	28.27	8.05	-54.6	-57.0	15.9	0.00e+00	0	36	0	90177536	75	4727
2026-01-01 02:15:17.63	28.22	8.13	-54.5	-56.9	15.9	0.00e+00	0	35	0	92274688	75	4694
2026-01-01 02:15:18.62	28.17	8.20	-54.5	-56.9	16.0	0.00e+00	0	35	0	94371840	75	4671
2026-01-01 02:15:19.62	28.12	8.28	-54.7	-57.2	15.8	0.00e+00	0	35	0	96468992	75	4831
2026-01-01 02:15:20.63	28.07	8.36	-54.6	-57.0	15.9	0.00e+00	0	35	0	98566144	75	4723
2026-01-01 02:15:21.62	28.02	8.44	-54.7	-57.1	15.9	0.00e+00	0	35	0	99614720	75	4783
2026-01-01 02:15:22.62	27.97	8.51	-54.7	-57.2	15.8	0.00e+00	0	35	0	101711872	75	4842
2026-01-01 02:15:23.61	27.91	8.59	-54.7	-57.1	15.9	0.00e+00	0	35	0	103809024	75	4804
2026-01-01 02:15:24.60	27.86	8.67	-54.6	-57.0	16.0	0.00e+00	0	36	0	105906176	75	4729
2026-01-01 02:15:25.60	27.81	8.75	-54.5	-56.9	16.0	0.00e+00	0	35	0	106954752	75	4663
2026-01-01 02:15:26.59	27.76	8.82	-54.5	-56.8	16.1	0.00e+00	0	35	0	109051904	75	4635
2026-01-01 02:15:27.59	27.71	8.90	-54.7	-57.1	15.9	0.00e+00	0	35	0	111149056	75	4810
2026-01-01 02:15:28.59	27.65	8.98	-54.6	-57.0	16.0	0.00e+00	0	35	0	113246208	75	4735
2026-01-01 02:15:29.59	27.60	9.06	-54.4	-56.8	16.1	0.00e+00	0	35	0	115343360	75	4628
2026-01-01 02:15:30.58	27.55	9.14	-54.5	-56.9	16.0	0.00e+00	0	35	0	116391936	75	4696
2026-01-01 02:15:31.58	27.49	9.22	-54.5	-56.8	16.1	0.00e+00	0	35	0	118489088	75	4649
2026-01-01 02:15:32.57	27.44	9.30	-54.4	-56.7	16.2	0.00e+00	0	35	0	120586240	75	4587
2026-01-01 02:15:33.58	27.39	9.38	-54.4	-56.7	16.2	0.00e+00	0	35	0	122683392	75	4552
2026-01-01 02:15:34.57	27.33	9.46	-54.4	-56.6	16.2	0.00e+00	0	35	0	124780544	75	4534
2026-01-01 02:15:35.57	27.28	9.54	-54.4	-56.7	16.2	0.00e+00	0	35	0	125829120	75	4562
2026-01-01 02:15:36.58	27.22	9.62	-54.4	-56.7	16.2	0.00e+00	0	35	0	127926272	75	4555
2026-01-01 02:15:37.57	27.17	9.70	-54.4	-56.7	16.2	0.00e+00	0	35	0	130023424	75	4550
2026-01-01 02:15:38.57	27.11	9.78	-54.4	-56.7	16.2	0.00e+00	0	35	0	132120576	75	4550
2026-01-01 02:15:39.57	27.05	9.87	-54.4	-56.7	16.1	0.00e+00	0	36	0	133169152	75	4558
2026-01-01 02:15:40.57	27.00	9.95	-54.5	-56.8	16.1	0.00e+00	0	35	0	135266304	75	4621
2026-01-01 02:15:41.57	26.94	10.03	-54.4	-56.7	16.2	0.00e+00	0	36	0	137363456	75	4546
2026-01-01 02:15:42.57	26.88	10.11	-54.4	-56.6	16.2	0.00e+00	0	35	0	139460608	75	4544
2026-01-01 02:15:43.57	26.82	10.19	-54.4	-56.7	16.1	0.00e+00	0	35	0	141557760	75	4590
2026-01-01 02:15:44.57	26.77	10.28	-54.4	-56.6	16.2	0.00e+00	0	35	0	142606336	75	4539
2026-01-01 02:15:45.57	26.71	10.36	-54.3	-56.5	16.3	0.00e+00	0	36	0	144703488	75	4473
2026-01-01 02:15:46.56	26.65	10.44	-54.3	-56.6	16.3	0.00e+00	0	35	0	146800640	75	4516
2026-01-01 02:15:47.56	26.59	10.53	-54.3	-56.5	16.2	0.00e+00	0	36	0	148897792	75	4493
2026-01-01 02:15:48.56	26.53	10.61	-54.3	-56.5	16.3	0.00e+00	0	35	0	150994944	75	4479
2026-01-01 02:15:49.56	26.47	10.69	-54.3	-56.6	16.3	0.00e+00	0	35	0	152043520	74	4765
2026-01-01 02:15:50.56	26.41	10.78	-54.2	-56.4	16.3	0.00e+00	0	35	0	154140672	74	4652
2026-01-01 02:15:51.56	26.35	10.86	-54.2	-56.4	16.3	0.00e+00	0	35	0	156237824	74	4661
2026-01-01 02:15:52.56	26.29	10.95	-54.3	-56.5	16.3	0.00e+00	0	35	0	158334976	74	4747
2026-01-01 02:15:53.56	26.23	11.03	-54.3	-56.5	16.3	0.00e+00	0	36	0	159383552	74	4735
2026-01-01 02:15:54.56	26.17	11.12	-54.0	-56.1	16.5	0.00e+00	0	35	0	161480704	74	4511
2026-01-01 02:15:55.56	26.10	11.20	-54.1	-56.2	16.5	0.00e+00	0	35	0	163577856	74	4585
2026-01-01 02:15:56.56	26.04	11.29	-54.1	-56.3	16.4	0.00e+00	0	35	0	165675008	74	4614
2026-01-01 02:15:57.56	25.98	11.38	-54.2	-56.4	16.4	0.00e+00	0	36	0	167772160	74	4678
2026-01-01 02:15:58.56	25.91	11.46	-54.0	-56.1	16.5	0.00e+00	0	36	0	168820736	74	4539
2026-01-01 02:15:59.55	25.85	11.55	-54.1	-56.3	16.4	0.00e+00	0	36	0	170917888	74	4599
2026-01-01 02:16:00.55	25.79	11.63	-54.1	-56.3	16.4	0.00e+00	0	35	0	173015040	74	4638
2026-01-01 02:16:01.55	25.72	11.72	-54.1	-56.2	16.5	0.00e+00	0	35	0	175112192	74	4570
2026-01-01 02:16:02.55	25.66	11.81	-53.9	-56.1	16.6	0.00e+00	0	35	0	177209344	74	4499
2026-01-01 02:16:03.55	25.59	11.90	-54.1	-56.3	16.4	0.00e+00	0	36	0	178257920	74	4640
2026-01-01 02:16:04.54	25.53	11.98	-54.0	-56.2	16.5	0.00e+00	0	36	0	180355072	74	4548
2026-01-01 02:16:05.54	25.46	12.07	-54.0	-56.2	16.5	0.00e+00	0	35	0	182452224	74	4566
2026-01-01 02:16:06.54	25.39	12.16	-54.0	-56.2	16.5	0.00e+00	0	36	0	184549376	74	4571
2026-01-01 02:16:07.54	25.33	12.25	-54.1	-56.2	16.5	0.00e+00	0	36	0	186646528	74	4589
2026-01-01 02:16:08.55	25.26	12.34	-54.0	-56.1	16.6	0.00e+00	0	35	0	187695104	74	4529
2026-01-01 02:16:09.55	25.19	12.43	-54.1	-56.2	16.5	0.00e+00	0	35	0	189792256	74	4593
2026-01-01 02:16:10.55	25.12	12.52	-54.0	-56.2	16.5	0.00e+00	0	36	0	191889408	74	4552
2026-01-01 02:16:11.54	25.06	12.61	-54.0	-56.2	16.5	0.00e+00	0	35	0	193986560	74	4567
2026-01-01 02:16:12.54	24.99	12.70	-54.2	-56.5	16.3	0.00e+00	0	35	0	195035136	74	4711
2026-01-01 02:16:13.53	24.92	12.79	-54.2	-56.4	16.4	0.00e+00	0	35	0	197132288	74	4672
2026-01-01 02:16:14.53	24.85	12.88	-54.2	-56.3	16.4	0.00e+00	0	35	0	199229440	74	4651
2026-01-01 02:16:15.53	24.78	12.97	-54.2	-56.4	16.4	0.00e+00	0	35	0	201326592	74	4685
2026-01-01 02:16:16.53	24.71	13.06	-54.2	-56.4	16.4	0.00e+00	0	35	0	203423744	74	4664
2026-01-01 02:16:17.53	24.63	13.15	-54.1	-56.3	16.4	0.00e+00	0	35	0	204472320	74	4624
2026-01-01 02:16:18.53	24.56	13.25	-54.1	-56.3	16.5	0.00e+00	0	36	0	206569472	74	4631
2026-01-01 02:16:19.54	24.49	13.34	-54.3	-56.6	16.3	0.00e+00	0	36	0	208666624	74	4781
2026-01-01 02:16:20.53	24.42	13.43	-54.4	-56.6	16.3	0.00e+00	0	36	0	210763776	74	4814
2026-01-01 02:16:21.52	24.34	13.52	-54.2	-56.4	16.4	0.00e+00	0	36	0	211812352	74	4673
2026-01-01 02:16:22.52	24.27	13.62	-54.2	-56.4	16.4	0.00e+00	0	36	0	213909504	74	4698
2026-01-01 02:16:23.52	24.20	13.71	-54.3	-56.5	16.3	0.00e+00	0	36	0	216006656	74	4748
2026-01-01 02:16:24.52	24.12	13.80	-54.2	-56.4	16.4	0.00e+00	0	36	0	218103808	74	4691
2026-01-01 02:16:25.51	24.05	13.90	-54.1	-56.3	16.4	0.00e+00	0	36	0	220200960	74	4617
2026-01-01 02:16:26.51	23.97	13.99	-54.0	-56.2	16.5	0.00e+00	0	36	0	221249536	74	4563
2026-01-01 02:16:27.51	23.89	14.09	-54.0	-56.2	16.5	0.00e+00	0	36	0	223346688	74	4583
2026-01-01 02:16:28.50	23.82	14.18	-54.1	-56.3	16.5	0.00e+00	0	36	0	225443840	74	4614
2026-01-01 02:16:29.50	23.74	14.28	-54.0	-56.1	16.6	0.00e+00	0	36	0	227540992	74	4535
2026-01-01 02:16:30.50	23.66	14.37	-54.0	-56.2	16.6	0.00e+00	0	36	0	229638144	74	4546
2026-01-01 02:16:31.49	23.59	14.47	-54.1	-56.2	16.6	0.00e+00	0	36	0	230686720	74	4580
2026-01-01 02:16:32.49	23.51	14.56	-54.0	-56.1	16.6	0.00e+00	0	36	0	232783872	74	4525
2026-01-01 02:16:33.49	23.43	14.66	-53.8	-55.9	16.7	0.00e+00	0	36	0	234881024	74	4411
2026-01-01 02:16:34.49	23.35	14.76	-53.8	-55.8	16.8	0.00e+00	0	36	0	236978176	74	4390
2026-01-01 02:16:35.48	23.27	14.85	-53.9	-56.0	16.7	0.00e+00	0	36	0	238026752	74	4481
2026-01-01 02:16:36.48	23.19	14.95	-54.0	-56.0	16.7	0.00e+00	0	36	0	240123904	74	4483
2026-01-01 02:16:37.48	23.10	15.05	-54.0	-56.1	16.7	0.00e+00	0	36	0	242221056	74	4519
2026-01-01 02:16:38.48	23.02	15.15	-54.0	-56.1	16.7	0.00e+00	0	36	0	244318208	74	4538
2026-01-01 02:16:39.47	22.94	15.25	-54.0	-56.1	16.7	0.00e+00	0	36	0	246415360	74	4511
2026-01-01 02:16:40.46	22.86	15.34	-54.0	-56.1	16.7	0.00e+00	0	36	0	247463936	74	4506
2026-01-01 02:16:41.45	22.77	15.44	-54.1	-56.2	16.6	0.00e+00	0	36	0	249561088	74	4596
2026-01-01 02:16:42.45	22.69	15.54	-54.1	-56.2	16.6	0.00e+00	0	36	0	251658240	74	4596
2026-01-01 02:16:43.45	22.60	15.64	-54.2	-56.3	16.6	0.00e+00	0	36	0	253755392	74	4643
2026-01-01 02:16:44.45	22.52	15.74	-54.2	-56.4	16.5	0.00e+00	0	36	0	254803968	74	4672
2026-01-01 02:16:45.45	22.43	15.84	-54.0	-56.1	16.7	0.00e+00	0	36	0	256901120	74	4495
2026-01-01 02:16:46.45	22.35	15.94	-54.1	-56.1	16.7	0.00e+00	0	36	0	258998272	74	4541
2026-01-01 02:16:47.44	22.26	16.04	-54.1	-56.2	16.6	0.00e+00	0	36	0	261095424	74	4580
2026-01-01 02:16:48.44	22.17	16.15	-54.1	-56.2	16.7	0.00e+00	0	36	0	263192576	74	4554
2026-01-01 02:16:49.45	22.08	16.25	-54.0	-56.0	16.8	0.00e+00	0	36	0	264241152	74	4459
2026-01-01 02:16:50.45	21.99	16.35	-54.0	-56.0	16.7	0.00e+00	0	36	0	266338304	74	4482
2026-01-01 02:16:51.45	21.90	16.45	-53.9	-56.0	16.7	0.00e+00	0	36	0	268435456	74	4453
2026-01-01 02:16:52.44	21.81	16.56	-53.8	-55.8	16.8	0.00e+00	0	36	0	270532608	74	4379
2026-01-01 02:16:53.43	21.72	16.66	-53.7	-55.7	16.9	0.00e+00	0	36	0	272629760	74	4325
2026-01-01 02:16:54.43	21.63	16.76	-53.8	-55.9	16.8	0.00e+00	0	36	0	273678336	74	4403
2026-01-01 02:16:55.44	21.53	16.87	-53.6	-55.5	16.9	0.00e+00	0	36	0	275775488	73	4489
2026-01-01 02:16:56.44	21.44	16.97	-53.5	-55.5	16.9	0.00e+00	0	36	0	277872640	73	4447
2026-01-01 02:16:57.43	21.35	17.08	-53.6	-55.6	16.9	0.00e+00	0	36	0	279969792	73	4504
2026-01-01 02:16:58.42	21.25	17.18	-53.8	-55.9	16.8	0.00e+00	0	36	0	281018368	73	4654
2026-01-01 02:16:59.42	21.16	17.29	-53.5	-55.5	17.0	0.00e+00	0	36	0	283115520	73	4479
2026-01-01 02:17:00.41	21.06	17.39	-53.8	-55.9	16.8	0.00e+00	0	36	0	285212672	73	4657
2026-01-01 02:17:01.41	20.97	17.50	-53.9	-55.9	16.7	0.00e+00	0	36	0	287309824	73	4704
2026-01-01 02:17:02.41	20.87	17.61	-53.8	-55.9	16.8	0.00e+00	0	36	0	289406976	73	4675
2026-01-01 02:17:03.41	20.77	17.71	-53.7	-55.7	16.8	0.00e+00	0	36	0	290455552	73	4593
2026-01-01 02:17:04.41	20.67	17.82	-53.9	-56.1	16.7	0.00e+00	0	36	0	292552704	73	4765
2026-01-01 02:17:05.40	20.57	17.93	-53.9	-56.0	16.7	0.00e+00	0	36	0	294649856	73	4709
2026-01-01 02:17:06.40	20.47	18.04	-54.3	-56.5	16.4	0.00e+00	0	36	0	296747008	73	5027
2026-01-01 02:17:07.40	20.37	18.15	-54.0	-56.2	16.6	0.00e+00	0	36	0	298844160	73	4820
2026-01-01 02:17:08.41	20.27	18.26	-54.1	-56.2	16.7	0.00e+00	0	36	0	299892736	73	4833
2026-01-01 02:17:09.41	20.17	18.37	-54.1	-56.2	16.6	0.00e+00	0	36	0	301989888	73	4856
2026-01-01 02:17:10.40	20.06	18.48	-54.1	-56.2	16.7	0.00e+00	0	36	0	304087040	73	4867
2026-01-01 02:17:11.41	19.96	18.59	-54.1	-56.2	16.7	0.00e+00	0	36	0	306184192	73	4824
2026-01-01 02:17:12.41	19.85	18.70	-54.2	-56.2	16.7	0.00e+00	0	36	0	307232768	74	4598
2026-01-01 02:17:13.41	19.75	18.81	-54.2	-56.3	16.6	0.00e+00	0	36	0	309329920	74	4619
2026-01-01 02:17:14.41	19.64	18.92	-54.5	-56.7	16.4	0.00e+00	0	36	0	311427072	74	4870
2026-01-01 02:17:15.41	19.53	19.03	-54.4	-56.6	16.5	0.00e+00	0	36	0	313524224	74	4762
2026-01-01 02:17:16.41	19.42	19.14	-54.3	-56.4	16.6	0.00e+00	0	36	0	315621376	74	4701
2026-01-01 02:17:17.40	19.32	19.26	-54.2	-56.3	16.6	0.00e+00	0	36	0	316669952	74	4621
2026-01-01 02:17:18.40	19.21	19.37	-54.6	-56.8	16.4	0.00e+00	0	36	0	318767104	74	4881
2026-01-01 02:17:19.40	19.10	19.48	-54.6	-56.7	16.4	0.00e+00	0	36	0	320864256	74	4855
2026-01-01 02:17:20.40	18.98	19.60	-54.5	-56.6	16.5	0.00e+00	0	36	0	322961408	74	4800
2026-01-01 02:17:21.40	18.87	19.71	-54.4	-56.6	16.5	0.00e+00	0	36	0	325058560	74	4761
2026-01-01 02:17:22.40	18.76	19.83	-54.9	-57.2	16.2	0.00e+00	0	36	0	326107136	74	5122
2026-01-01 02:17:23.40	18.64	19.94	-54.6	-56.8	16.4	0.00e+00	0	36	0	328204288	75	4617
2026-01-01 02:17:24.39	18.53	20.06	-54.6	-56.7	16.5	0.00e+00	0	36	0	330301440	75	4561
2026-01-01 02:17:25.39	18.41	20.17	-54.5	-56.6	16.6	0.00e+00	0	36	0	332398592	75	4506
2026-01-01 02:17:26.39	18.30	20.29	-54.6	-56.8	16.5	0.00e+00	0	36	0	334495744	75	4621
2026-01-01 02:17:27.38	18.18	20.40	-54.5	-56.6	16.6	0.00e+00	0	36	0	335544320	75	4498
2026-01-01 02:17:28.38	18.06	20.52	-54.5	-56.6	16.5	0.00e+00	0	36	0	337641472	75	4513
2026-01-01 02:17:29.37	17.94	20.64	-54.5	-56.6	16.6	0.00e+00	0	36	0	339738624	75	4511
2026-01-01 02:17:30.37	17.82	20.76	-54.6	-56.8	16.5	0.00e+00	0	36	0	341835776	75	4618
2026-01-01 02:17:31.36	17.70	20.87	-54.3	-56.3	16.7	0.00e+00	0	36	0	342884352	74	4607
2026-01-01 02:17:32.36	17.58	20.99	-54.2	-56.2	16.8	0.00e+00	0	36	0	344981504	74	4567
2026-01-01 02:17:33.36	17.46	21.11	-54.0	-56.0	16.9	0.00e+00	0	36	0	347078656	74	4460
2026-01-01 02:17:34.35	17.33	21.23	-54.0	-56.0	16.9	0.00e+00	0	36	0	349175808	74	4455
2026-01-01 02:17:35.35	17.21	21.35	-54.1	-56.1	16.9	0.00e+00	0	36	0	351272960	74	4506
2026-01-01 02:17:36.36	17.08	21.47	-54.1	-56.1	16.9	0.00e+00	0	36	0	352321536	74	4509
2026-01-01 02:17:37.35	16.95	21.59	-54.2	-56.3	16.8	0.00e+00	0	36	0	354418688	74	4601
2026-01-01 02:17:38.34	16.82	21.71	-54.4	-56.5	16.7	0.00e+00	0	36	0	356515840	74	4709
2026-01-01 02:17:39.32	16.70	21.83	-54.4	-56.5	16.7	0.00e+00	0	36	0	358612992	74	4717
2026-01-01 02:17:40.32	16.57	21.95	-54.6	-56.8	16.5	0.00e+00	0	36	0	359661568	74	4875
2026-01-01 02:17:41.32	16.44	22.08	-54.6	-56.7	16.5	0.00e+00	0	36	0	361758720	74	4862
2026-01-01 02:17:42.32	16.30	22.20	-54.4	-56.5	16.6	0.00e+00	0	36	0	363855872	74	4737
2026-01-01 02:17:43.32	16.17	22.32	-54.6	-56.8	16.4	0.00e+00	0	36	0	365953024	74	4899
2026-01-01 02:17:44.32	16.03	22.45	-54.7	-57.0	16.4	0.00e+00	0	36	0	368050176	74	5006
2026-01-01 02:17:45.32	15.90	22.57	-54.5	-56.7	16.5	0.00e+00	0	36	0	369098752	74	4863
2026-01-01 02:17:46.31	15.76	22.70	-54.7	-57.1	16.3	0.00e+00	0	36	0	371195904	74	5044
2026-01-01 02:17:47.30	15.62	22.82	-54.7	-57.0	16.3	0.00e+00	0	36	0	373293056	74	4994
2026-01-01 02:17:48.30	15.48	22.95	-54.5	-56.7	16.5	0.00e+00	0	36	0	375390208	74	4854
2026-01-01 02:17:49.30	15.34	23.07	-54.5	-56.6	16.6	0.00e+00	0	36	0	376438784	74	4789
2026-01-01 02:17:50.30	15.20	23.20	-54.3	-56.5	16.6	0.00e+00	0	36	0	378535936	74	4725
2026-01-01 02:17:51.29	15.06	23.32	-54.4	-56.5	16.6	0.00e+00	0	36	0	380633088	74	4757
2026-01-01 02:17:52.30	14.92	23.45	-54.5	-56.7	16.5	0.00e+00	0	36	0	382730240	74	4815
2026-01-01 02:17:53.29	14.77	23.58	-54.6	-56.8	16.5	0.00e+00	0	36	0	384827392	74	4918
2026-01-01 02:17:54.29	14.62	23.71	-54.9	-57.2	16.2	0.00e+00	0	36	0	385875968	74	5156
2026-01-01 02:17:55.28	14.48	23.84	-54.9	-57.3	16.2	0.00e+00	0	36	0	387973120	75	4894
2026-01-01 02:17:56.27	14.33	23.96	-55.2	-57.7	16.0	0.00e+00	0	36	0	390070272	75	5114
2026-01-01 02:17:57.27	14.18	24.09	-55.3	-57.9	15.8	0.00e+00	0	36	0	392167424	76	4929
2026-01-01 02:17:58.27	14.03	24.22	-55.4	-57.9	15.8	0.00e+00	0	36	0	394264576	76	4952
2026-01-01 02:17:59.27	13.88	24.35	-55.4	-58.0	15.8	0.00e+00	0	36	0	395313152	76	4992
2026-01-01 02:18:00.27	13.72	24.48	-55.4	-57.9	15.8	0.00e+00	0	36	0	397410304	76	4968
2026-01-01 02:18:01.26	13.57	24.61	-55.1	-57.6	16.0	0.00e+00	0	36	0	399507456	76	4769
2026-01-01 02:18:02.26	13.41	24.75	-55.0	-57.4	16.2	0.00e+00	0	36	0	401604608	76	4667
2026-01-01 02:18:03.26	13.25	24.88	-54.7	-57.0	16.4	0.00e+00	0	36	0	402653184	76	4455
2026-01-01 02:18:04.25	13.09	25.01	-54.4	-56.6	16.5	0.00e+00	0	36	0	404750336	75	4536
2026-01-01 02:18:05.25	12.93	25.14	-54.5	-56.7	16.4	0.00e+00	0	36	0	406847488	74	4864
2026-01-01 02:18:06.25	12.77	25.28	-54.2	-56.4	16.5	0.00e+00	0	36	0	408944640	74	4696
2026-01-01 02:18:07.24	12.61	25.41	-54.1	-56.3	16.6	0.00e+00	0	36	0	411041792	74	4649
2026-01-01 02:18:08.24	12.44	25.54	-54.4	-56.7	16.4	0.00e+00	0	36	0	412090368	74	4838
2026-01-01 02:18:09.24	12.28	25.68	-54.6	-57.0	16.3	0.00e+00	0	36	0	414187520	74	4994
2026-01-01 02:18:10.24	12.11	25.81	-54.7	-57.2	16.2	0.00e+00	0	36	0	416284672	74	5125
2026-01-01 02:18:11.24	11.94	25.95	-54.6	-57.0	16.2	0.00e+00	0	36	0	418381824	75	4734
2026-01-01 02:18:12.24	11.77	26.08	-54.7	-57.2	16.2	0.00e+00	0	36	0	419430400	75	4853
2026-01-01 02:18:13.23	11.60	26.22	-54.9	-57.4	16.1	0.00e+00	0	36	0	421527552	75	4954
2026-01-01 02:18:14.23	11.42	26.35	-54.5	-56.8	16.4	0.00e+00	0	36	0	423624704	75	4626
2026-01-01 02:18:15.22	11.25	26.49	-54.3	-56.5	16.6	0.00e+00	0	36	0	425721856	75	4478
2026-01-01 02:18:16.21	11.07	26.63	-54.1	-56.2	16.8	0.00e+00	0	36	0	427819008	74	4584
2026-01-01 02:18:17.21	10.90	26.76	-54.1	-56.2	16.8	0.00e+00	0	36	0	428867584	74	4588
2026-01-01 02:18:18.22	10.71	26.90	-54.2	-56.3	16.8	0.00e+00	0	36	0	430964736	74	4633
2026-01-01 02:18:19.21	10.53	27.04	-54.2	-56.3	16.8	0.00e+00	0	36	0	433061888	74	4619
2026-01-01 02:18:20.21	10.35	27.18	-54.5	-56.6	16.6	0.00e+00	0	36	0	435159040	74	4811
2026-01-01 02:18:21.21	10.17	27.32	-54.8	-57.1	16.3	0.00e+00	0	36	0	436207616	74	5067
2026-01-01 02:18:22.21	9.98	27.46	-54.5	-56.7	16.5	0.00e+00	0	36	0	438304768	74	4829
2026-01-01 02:18:23.21	9.79	27.60	-54.6	-56.8	16.5	0.00e+00	0	36	0	440401920	74	4890
2026-01-01 02:18:24.21	9.60	27.74	-54.7	-57.0	16.4	0.00e+00	0	36	0	442499072	75	4719
2026-01-01 02:18:25.20	9.41	27.88	-54.9	-57.3	16.2	0.00e+00	0	36	0	444596224	75	4908
2026-01-01 02:18:26.20	9.22	28.02	-55.1	-57.6	16.0	0.00e+00	0	36	0	445644800	75	5087
2026-01-01 02:18:27.20	9.02	28.16	-55.0	-57.5	16.0	0.00e+00	0	36	0	447741952	75	5014
2026-01-01 02:18:28.19	8.83	28.30	-55.1	-57.7	15.9	0.00e+00	0	36	0	449839104	75	5137
2026-01-01 02:18:29.19	8.63	28.44	-55.6	-58.4	15.5	0.00e+00	0	36	0	451936256	76	5263
2026-01-01 02:18:30.19	8.43	28.59	-55.1	-57.6	16.0	0.00e+00	0	36	0	454033408	76	4803
2026-01-01 02:18:31.18	8.23	28.73	-55.4	-58.1	15.7	0.00e+00	0	36	0	455081984	76	5078
2026-01-01 02:18:32.17	8.03	28.87	-55.2	-57.9	15.9	0.00e+00	0	36	0	457179136	76	4947
2026-01-01 02:18:33.17	7.82	29.01	-55.4	-58.2	15.7	0.00e+00	0	36	0	459276288	76	5118
2026-01-01 02:18:34.17	7.61	29.16	-55.6	-58.4	15.6	0.00e+00	0	36	0	461373440	76	5247
2026-01-01 02:18:35.16	7.40	29.30	-55.4	-58.0	15.8	0.00e+00	0	36	0	462422016	77	4751
2026-01-01 02:18:36.16	7.19	29.44	-55.5	-58.1	15.8	0.00e+00	0	36	0	464519168	77	4791
2026-01-01 02:18:37.16	6.98	29.59	-55.8	-58.6	15.5	0.00e+00	0	36	0	466616320	77	5057
2026-01-01 02:18:38.16	6.76	29.73	-55.5	-58.1	15.9	0.00e+00	0	36	0	468713472	77	4763
2026-01-01 02:18:39.16	6.54	29.88	-55.5	-58.0	16.0	0.00e+00	0	36	0	470810624	77	4754
2026-01-01 02:18:40.16	6.33	30.02	-55.5	-58.1	15.9	0.00e+00	0	36	0	471859200	77	4762
2026-01-01 02:18:41.15	6.11	30.17	-55.7	-58.3	15.7	0.00e+00	0	36	0	473956352	77	4898
2026-01-01 02:18:42.14	5.88	30.31	-55.8	-58.5	15.6	0.00e+00	0	36	0	476053504	77	5017
2026-01-01 02:18:43.13	5.66	30.46	-56.0	-58.8	15.4	0.00e+00	0	36	0	478150656	77	5212
2026-01-01 02:18:44.13	5.43	30.60	-56.1	-58.9	15.4	0.00e+00	0	36	0	480247808	77	5253
2026-01-01 02:18:45.14	5.20	30.75	-56.6	-59.9	14.6	0.00e+00	0	36	0	481296384	78	5563
2026-01-01 02:18:46.13	4.97	30.90	-56.4	-59.5	14.9	0.00e+00	0	36	0	483393536	78	5291
2026-01-01 02:18:47.14	4.73	31.05	-56.3	-59.3	15.2	0.00e+00	0	36	0	485490688	78	5174
2026-01-01 02:18:48.14	4.50	31.19	-56.1	-59.0	15.3	0.00e+00	0	36	0	487587840	78	5016
2026-01-01 02:18:49.14	4.26	31.34	-56.4	-59.4	15.0	0.00e+00	0	36	0	488636416	78	5244
2026-01-01 02:18:50.14	4.02	31.49	-56.4	-59.3	15.0	0.00e+00	0	36	0	490733568	78	5207
2026-01-01 02:18:51.14	3.78	31.64	-56.4	-59.4	15.0	0.00e+00	0	36	0	492830720	78	5237
2026-01-01 02:18:52.13	3.53	31.78	-56.6	-59.8	14.7	0.00e+00	0	36	0	494927872	78	5509
2026-01-01 02:18:53.13	3.29	31.93	-57.0	-60.4	14.2	0.00e+00	0	36	0	497025024	79	5576
2026-01-01 02:18:54.13	3.04	32.08	-57.1	-60.8	13.9	0.00e+00	0	36	0	498073600	79	5820
2026-01-01 02:18:55.14	2.78	32.23	-57.1	-60.8	14.1	0.00e+00	0	36	0	500170752	79	5805
2026-01-01 02:18:56.13	2.53	32.38	-56.7	-60.0	14.6	0.00e+00	0	36	0	502267904	79	5280
2026-01-01 02:18:57.12	2.28	32.52	-56.7	-59.9	14.6	0.00e+00	0	36	0	504365056	79	5219
2026-01-01 02:18:58.12	2.02	32.67	-56.6	-59.6	14.8	0.00e+00	0	36	0	506462208	79	5096
2026-01-01 02:18:59.11	1.76	32.82	-56.6	-59.6	14.9	0.00e+00	0	36	0	507510784	79	5053
2026-01-01 02:19:00.12	1.49	32.97	-56.7	-59.7	14.8	0.00e+00	0	36	0	509607936	79	5138
2026-01-01 02:19:01.12	1.22	33.12	-56.7	-59.8	14.7	0.00e+00	0	36	0	511705088	79	5211
2026-01-01 02:19:02.11	0.96	33.27	-57.1	-60.5	14.3	0.00e+00	0	36	0	513802240	79	5598
2026-01-01 02:19:03.11	0.69	33.41	-57.6	-61.4	13.5	0.00e+00	0	36	0	514850816	80	5907
2026-01-01 02:19:04.11	0.41	33.56	-57.6	-61.4	13.6	0.00e+00	0	36	0	516947968	80	5870
2026-01-01 02:19:05.11	0.14	33.71	-57.5	-61.2	13.8	0.00e+00	0	36	0	519045120	80	5738
2026-01-01 02:19:06.11	359.86	33.86	-57.2	-60.6	14.1	0.00e+00	0	36	0	521142272	80	5354
2026-01-01 02:19:07.11	359.58	34.01	-57.0	-60.2	14.5	0.00e+00	0	36	0	523239424	80	5107
2026-01-01 02:19:08.10	359.29	34.16	-56.4	-59.2	15.4	0.00e+00	0	36	0	524288000	79	4837
2026-01-01 02:19:09.09	359.01	34.30	-55.5	-57.8	16.2	0.00e+00	0	36	0	526385152	77	4636
2026-01-01 02:19:10.08	358.72	34.45	-55.1	-57.3	16.4	0.00e+00	0	36	0	528482304	76	4630
2026-01-01 02:19:11.08	358.43	34.60	-55.1	-57.3	16.4	0.00e+00	0	36	0	530579456	76	4638
2026-01-01 02:19:12.07	358.14	34.74	-55.1	-57.6	16.3	0.00e+00	0	36	0	532676608	76	4762
2026-01-01 02:19:13.07	357.84	34.89	-54.5	-57.0	16.6	0.00e+00	0	36	0	533725184	75	4755
2026-01-01 02:19:14.07	357.54	35.04	-54.0	-56.7	16.7	0.00e+00	0	36	0	535822336	74	4822
2026-01-01 02:19:15.06	357.24	35.19	-54.2	-56.7	16.7	0.00e+00	0	36	0	537919488	74	4866
2026-01-01 02:19:16.07	356.93	35.33	-54.4	-56.7	16.7	0.00e+00	0	36	0	540016640	74	4844
2026-01-01 02:19:17.07	356.62	35.48	-54.8	-57.1	16.4	0.00e+00	0	36	0	541065216	75	4792
2026-01-01 02:19:18.07	356.31	35.63	-55.3	-57.9	16.0	0.00e+00	0	36	0	543162368	75	5231
2026-01-01 02:19:19.06	356.00	35.77	-55.8	-58.6	15.5	0.00e+00	0	36	0	545259520	77	5076
2026-01-01 02:19:20.06	355.68	35.92	-55.8	-58.5	15.6	0.00e+00	0	36	0	547356672	77	5022
2026-01-01 02:19:21.06	355.36	36.06	-55.8	-58.5	15.5	0.00e+00	0	36	0	549453824	77	5037
2026-01-01 02:19:22.06	355.04	36.21	-55.7	-58.5	15.5	0.00e+00	0	36	0	550502400	77	5003
2026-01-01 02:19:23.06	354.72	36.35	-55.9	-58.8	15.4	0.00e+00	0	36	0	552599552	77	5181
2026-01-01 02:19:24.05	354.39	36.50	-56.2	-59.3	15.2	0.00e+00	0	36	0	554696704	77	5476
2026-01-01 02:19:25.05	354.06	36.64	-56.2	-59.1	15.3	0.00e+00	0	36	0	556793856	77	5361
2026-01-01 02:19:26.05	353.72	36.78	-56.1	-58.9	15.5	0.00e+00	0	36	0	557842432	77	5259
2026-01-01 02:19:27.05	353.39	36.93	-55.6	-58.1	16.0	0.00e+00	0	36	0	559939584	77	4806
2026-01-01 02:19:28.04	353.05	37.07	-55.7	-58.3	15.9	0.00e+00	0	36	0	562036736	77	4881
2026-01-01 02:19:29.03	352.71	37.21	-56.0	-58.7	15.6	0.00e+00	0	36	0	564133888	77	5143
2026-01-01 02:19:30.03	352.36	37.35	-56.3	-59.2	15.3	0.00e+00	0	36	0	566231040	77	5447
2026-01-01 02:19:31.03	352.01	37.49	-56.4	-59.5	15.0	0.00e+00	0	36	0	567279616	78	5292
2026-01-01 02:19:32.02	351.66	37.63	-56.7	-60.1	14.6	0.00e+00	0	36	0	569376768	78	5720
2026-01-01 02:19:33.02	351.31	37.77	-56.6	-60.0	14.6	0.00e+00	0	36	0	571473920	78	5654
2026-01-01 02:19:34.02	350.95	37.91	-56.8	-60.5	14.2	0.00e+00	0	36	0	573571072	79	5628
2026-01-01 02:19:35.02	350.59	38.05	-56.8	-60.7	14.1	0.00e+00	0	36	0	575668224	79	5732
2026-01-01 02:19:36.02	350.22	38.18	-57.0	-60.9	14.0	0.00e+00	0	36	0	576716800	79	5901
2026-01-01 02:19:37.02	349.86	38.32	-56.7	-60.4	14.3	0.00e+00	0	36	0	578813952	79	5572
2026-01-01 02:19:38.01	349.49	38.45	-55.9	-59.0	15.2	0.00e+00	0	36	0	580911104	78	5002
2026-01-01 02:19:39.00	349.12	38.59	-55.7	-58.5	15.7	0.00e+00	0	36	0	583008256	77	5004
2026-01-01 02:19:40.01	348.74	38.72	-55.7	-58.4	15.7	0.00e+00	0	36	0	584056832	77	4965
2026-01-01 02:19:41.01	348.36	38.86	-55.7	-58.5	15.6	0.00e+00	0	36	0	586153984	77	5009
2026-01-01 02:19:42.01	347.97	38.99	-55.9	-58.7	15.4	0.00e+00	0	36	0	588251136	77	5148
2026-01-01 02:19:43.01	347.58	39.12	-55.9	-58.7	15.5	0.00e+00	0	36	0	590348288	77	5130
2026-01-01 02:19:44.01	347.19	39.25	-55.6	-58.2	15.8	0.00e+00	0	36	0	592445440	77	4866
2026-01-01 02:19:45.00	346.81	39.38	-55.4	-57.9	16.1	0.00e+00	0	36	0	593494016	77	4691
2026-01-01 02:19:45.99	346.41	39.50	-54.7	-57.0	16.6	0.00e+00	0	36	0	595591168	76	4454
2026-01-01 02:19:46.99	346.01	39.63	-54.6	-56.8	16.6	0.00e+00	0	36	0	597688320	75	4622
2026-01-01 02:19:47.99	345.61	39.76	-54.6	-56.8	16.7	0.00e+00	0	36	0	599785472	75	4644
2026-01-01 02:19:48.99	345.21	39.88	-55.1	-57.6	16.3	0.00e+00	0	36	0	600834048	75	5045
2026-01-01 02:19:49.99	344.80	40.01	-55.9	-58.7	15.6	0.00e+00	0	36	0	602931200	76	5445
2026-01-01 02:19:50.98	344.39	40.13	-55.7	-58.6	15.6	0.00e+00	0	36	0	605028352	77	5075
2026-01-01 02:19:51.98	343.97	40.25	-55.5	-58.2	15.8	0.00e+00	0	36	0	607125504	77	4851
2026-01-01 02:19:52.98	343.56	40.37	-54.8	-57.2	16.3	0.00e+00	0	36	0	609222656	76	4586
2026-01-01 02:19:53.98	343.14	40.48	-54.1	-56.2	16.9	0.00e+00	0	36	0	610271232	74	4589
2026-01-01 02:19:54.98	342.71	40.60	-53.7	-55.7	17.1	0.00e+00	0	36	0	612368384	73	4573
2026-01-01 02:19:55.97	342.29	40.72	-54.1	-56.2	16.9	0.00e+00	0	36	0	614465536	73	4868
2026-01-01 02:19:56.97	341.86	40.83	-54.4	-56.7	16.6	0.00e+00	0	36	0	616562688	73	5144
2026-01-01 02:19:57.98	341.42	40.94	-54.2	-56.4	16.8	0.00e+00	0	36	0	618659840	74	4692
2026-01-01 02:19:58.98	340.98	41.05	-54.0	-56.2	16.9	0.00e+00	0	36	0	619708416	74	4587
2026-01-01 02:19:59.97	340.55	41.16	-53.5	-55.6	17.2	0.00e+00	0	36	0	621805568	73	4495
2026-01-01 02:20:00.98	340.10	41.27	-53.2	-55.2	17.4	0.00e+00	0	36	0	623902720	72	4549
2026-01-01 02:20:01.98	339.66	41.38	-53.3	-55.4	17.2	0.00e+00	0	36	0	625999872	72	4684
2026-01-01 02:20:02.98	339.21	41.48	-54.2	-56.6	16.7	0.00e+00	0	36	0	628097024	73	5066
2026-01-01 02:20:03.98	338.76	41.58	-55.3	-58.5	15.6	0.00e+00	0	36	0	629145600	75	5602
2026-01-01 02:20:04.97	338.31	41.68	-55.8	-59.3	15.0	0.00e+00	0	36	0	631242752	76	5789
2026-01-01 02:20:05.97	337.85	41.78	-55.5	-58.7	15.2	0.00e+00	0	36	0	633339904	77	5136
2026-01-01 02:20:06.96	337.39	41.88	-54.6	-57.2	16.2	0.00e+00	0	36	0	635437056	75	4861
2026-01-01 02:20:07.96	336.93	41.98	-53.8	-56.1	16.9	0.00e+00	0	36	0	636485632	74	4507
2026-01-01 02:20:08.95	336.47	42.07	-53.7	-56.0	17.0	0.00e+00	0	36	0	638582784	73	4728
2026-01-01 02:20:09.95	336.00	42.16	-53.8	-56.0	16.9	0.00e+00	0	36	0	640679936	73	4732
2026-01-01 02:20:10.95	335.53	42.25	-53.6	-55.8	17.0	0.00e+00	0	36	0	642777088	73	4604
2026-01-01 02:20:11.96	335.05	42.34	-53.4	-55.5	17.2	0.00e+00	0	36	0	644874240	73	4481
2026-01-01 02:20:12.96	334.58	42.43	-53.2	-55.2	17.3	0.00e+00	0	36	0	645922816	72	4551
2026-01-01 02:20:13.95	334.10	42.51	-52.9	-54.8	17.5	0.00e+00	0	36	0	648019968	72	4342
2026-01-01 02:20:14.96	333.62	42.59	-53.1	-55.0	17.5	0.00e+00	0	36	0	650117120	72	4482
2026-01-01 02:20:15.94	333.15	42.67	-53.7	-55.8	17.1	0.00e+00	0	36	0	652214272	72	4910
2026-01-01 02:20:16.94	332.66	42.75	-54.3	-56.7	16.6	0.00e+00	0	36	0	653262848	73	5101
2026-01-01 02:20:17.94	332.17	42.82	-55.2	-58.0	15.8	0.00e+00	0	36	0	655360000	75	5291
2026-01-01 02:20:18.94	331.68	42.89	-55.7	-58.7	15.4	0.00e+00	0	36	0	657457152	76	5452
2026-01-01 02:20:19.94	331.19	42.97	-55.4	-58.1	15.7	0.00e+00	0	36	0	659554304	76	5079
2026-01-01 02:20:20.94	330.69	43.03	-54.7	-57.2	16.4	0.00e+00	0	36	0	661651456	75	4823
2026-01-01 02:20:21.95	330.19	43.10	-54.1	-56.2	17.0	0.00e+00	0	36	0	662700032	74	4582
2026-01-01 02:20:22.95	329.69	43.17	-54.7	-57.0	16.7	0.00e+00	0	36	0	664797184	74	4986
2026-01-01 02:20:23.94	329.20	43.23	-55.6	-58.2	15.9	0.00e+00	0	36	0	666894336	76	5139
2026-01-01 02:20:24.94	328.69	43.29	-55.6	-58.3	15.9	0.00e+00	0	36	0	668991488	76	5187
2026-01-01 02:20:25.94	328.19	43.34	-54.9	-57.3	16.4	0.00e+00	0	36	0	671088640	76	4601
2026-01-01 02:20:26.94	327.68	43.40	-54.5	-56.6	16.8	0.00e+00	0	36	0	672137216	75	4506
2026-01-01 02:20:27.93	327.18	43.45	-54.5	-56.7	16.8	0.00e+00	0	36	0	674234368	74	4824
2026-01-01 02:20:28.92	326.68	43.50	-54.8	-57.1	16.5	0.00e+00	0	36	0	676331520	75	4791
2026-01-01 02:20:29.92	326.17	43.54	-55.0	-57.6	16.2	0.00e+00	0	36	0	678428672	75	5069
2026-01-01 02:20:30.92	325.65	43.59	-55.5	-58.3	15.8	0.00e+00	0	36	0	680525824	76	5208
2026-01-01 02:20:31.92	325.14	43.63	-55.9	-58.9	15.4	0.00e+00	0	36	0	681574400	77	5273
2026-01-01 02:20:32.91	324.63	43.67	-55.8	-58.8	15.5	0.00e+00	0	36	0	683671552	77	5179
2026-01-01 02:20:33.90	324.12	43.71	-54.7	-57.1	16.5	0.00e+00	0	36	0	685768704	76	4519
2026-01-01 02:20:34.89	323.60	43.74	-53.7	-55.8	17.2	0.00e+00	0	36	0	687865856	74	4356
2026-01-01 02:20:35.89	323.09	43.77	-53.9	-56.1	17.0	0.00e+00	0	36	0	688914432	73	4761
2026-01-01 02:20:36.89	322.57	43.80	-54.9	-57.5	16.2	0.00e+00	0	36	0	691011584	74	5292
2026-01-01 02:20:37.88	322.05	43.83	-55.7	-58.6	15.5	0.00e+00	0	36	0	693108736	76	5376
2026-01-01 02:20:38.88	321.53	43.85	-55.7	-58.7	15.4	0.00e+00	0	36	0	695205888	76	5447
2026-01-01 02:20:39.88	321.01	43.87	-55.3	-58.1	15.8	0.00e+00	0	36	0	697303040	76	5081
2026-01-01 02:20:40.87	320.49	43.89	-55.6	-58.6	15.5	0.00e+00	0	36	0	698351616	76	5345
2026-01-01 02:20:41.87	319.96	43.91	-55.6	-58.7	15.4	0.00e+00	0	36	0	700448768	76	5431
2026-01-01 02:20:42.87	319.44	43.92	-55.8	-59.0	15.2	0.00e+00	0	36	0	702545920	76	5636
2026-01-01 02:20:43.87	318.92	43.93	-55.9	-59.1	15.2	0.00e+00	0	36	0	704643072	77	5360
2026-01-01 02:20:44.87	318.39	43.94	-55.9	-59.0	15.2	0.00e+00	0	36	0	705691648	77	5323
2026-01-01 02:20:45.87	317.87	43.95	-55.8	-58.9	15.2	0.00e+00	0	36	0	707788800	77	5244
2026-01-01 02:20:46.87	317.34	43.95	-55.5	-58.5	15.5	0.00e+00	0	36	0	709885952	77	5036
2026-01-01 02:20:47.88	316.81	43.95	-55.7	-58.8	15.4	0.00e+00	0	36	0	711983104	77	5172
2026-01-01 02:20:48.88	316.29	43.94	-55.8	-59.0	15.2	0.00e+00	0	36	0	714080256	77	5322
2026-01-01 02:20:49.88	315.76	43.94	-55.8	-59.0	15.3	0.00e+00	0	36	0	715128832	77	5295
2026-01-01 02:20:50.87	315.24	43.93	-55.5	-58.4	15.6	0.00e+00	0	36	0	717225984	77	4943
2026-01-01 02:20:51.86	314.72	43.92	-55.0	-57.6	16.1	0.00e+00	0	36	0	719323136	76	4784
2026-01-01 02:20:52.85	314.20	43.91	-54.9	-57.4	16.4	0.00e+00	0	36	0	721420288	76	4675
2026-01-01 02:20:53.86	313.67	43.89	-55.3	-58.1	15.8	0.00e+00	0	36	0	722468864	75	5388
2026-01-01 02:20:54.86	313.15	43.87	-55.5	-58.3	15.8	0.00e+00	0	36	0	724566016	76	5184
2026-01-01 02:20:55.86	312.63	43.85	-55.2	-58.0	15.9	0.00e+00	0	36	0	726663168	76	5000
2026-01-01 02:20:56.86	312.11	43.83	-55.6	-58.7	15.4	0.00e+00	0	36	0	728760320	76	5423
2026-01-01 02:20:57.86	311.59	43.80	-56.0	-59.3	15.0	0.00e+00	0	36	0	730857472	77	5496
2026-01-01 02:20:58.86	311.07	43.77	-56.4	-60.1	14.4	0.00e+00	0	36	0	731906048	77	5998
2026-01-01 02:20:59.86	310.55	43.74	-56.9	-61.1	13.7	0.00e+00	0	36	0	734003200	78	6410
2026-01-01 02:21:00.85	310.03	43.70	-56.9	-61.2	13.7	0.00e+00	0	36	0	736100352	79	6117
2026-01-01 02:21:01.85	309.52	43.67	-56.3	-60.0	14.5	0.00e+00	0	36	0	738197504	79	5285
2026-01-01 02:21:02.85	309.00	43.63	-56.0	-59.3	15.0	0.00e+00	0	36	0	740294656	78	5179
2026-01-01 02:21:03.84	308.49	43.58	-56.1	-59.5	14.9	0.00e+00	0	36	0	741343232	78	5309
2026-01-01 02:21:04.85	307.98	43.54	-56.0	-59.4	14.9	0.00e+00	0	36	0	743440384	78	5221
2026-01-01 02:21:05.84	307.47	43.49	-56.2	-59.7	14.7	0.00e+00	0	36	0	745537536	78	5439
2026-01-01 02:21:06.83	306.96	43.44	-56.4	-60.2	14.4	0.00e+00	0	36	0	747634688	78	5742
2026-01-01 02:21:07.82	306.46	43.39	-56.9	-61.1	13.7	0.00e+00	0	36	0	748683264	78	6362
2026-01-01 02:21:08.82	305.95	43.34	-57.2	-62.0	13.0	2.20e-06	0	36	0	750780416	79	6656
2026-01-01 02:21:09.83	305.45	43.28	-56.9	-61.2	13.4	7.00e-07	0	36	0	752877568	79	6120
2026-01-01 02:21:10.82	304.95	43.22	-56.5	-60.3	14.1	7.00e-07	0	36	0	754974720	79	5508
2026-01-01 02:21:11.82	304.45	43.16	-56.7	-60.7	14.0	0.00e+00	0	36	0	757071872	79	5747
2026-01-01 02:21:12.82	303.95	43.09	-56.2	-59.8	14.7	0.00e+00	0	36	0	758120448	78	5490
2026-01-01 02:21:13.82	303.45	43.03	-56.4	-60.3	14.2	0.00e+00	0	36	0	760217600	78	5818
2026-01-01 02:21:14.82	302.96	42.96	-56.1	-60.0	14.3	0.00e+00	0	36	0	762314752	78	5603
2026-01-01 02:21:15.81	302.47	42.89	-56.5	-60.9	13.7	0.00e+00	0	36	0	764411904	78	6236
2026-01-01 02:21:16.81	301.98	42.81	-56.7	-61.2	13.6	1.50e-06	0	36	0	765460480	78	6449
2026-01-01 02:21:17.81	301.49	42.74	-55.9	-59.5	14.8	0.00e+00	0	36	0	767557632	78	5313
2026-01-01 02:21:18.81	301.00	42.66	-54.8	-57.6	16.0	0.00e+00	0	36	0	769654784	76	4795
2026-01-01 02:21:19.81	300.52	42.58	-54.4	-57.0	16.4	0.00e+00	0	36	0	771751936	74	4998
2026-01-01 02:21:20.80	300.04	42.50	-53.5	-55.7	17.1	0.00e+00	0	36	0	773849088	73	4580
2026-01-01 02:21:21.80	299.57	42.41	-53.7	-55.9	17.0	0.00e+00	0	36	0	774897664	73	4694
2026-01-01 02:21:22.81	299.08	42.33	-54.3	-56.7	16.6	0.00e+00	0	36	0	776994816	73	5142
2026-01-01 02:21:23.81	298.61	42.24	-54.5	-57.0	16.5	0.00e+00	0	36	0	779091968	74	5036
2026-01-01 02:21:24.81	298.14	42.15	-54.1	-56.5	16.9	0.00e+00	0	36	0	781189120	74	4708
2026-01-01 02:21:25.81	297.67	42.06	-53.5	-55.6	17.2	0.00e+00	0	36	0	783286272	73	4534
2026-01-01 02:21:26.81	297.21	41.96	-53.1	-55.1	17.4	0.00e+00	0	36	0	784334848	72	4519
2026-01-01 02:21:27.80	296.75	41.87	-53.6	-55.7	17.1	0.00e+00	0	36	0	786432000	72	4855
2026-01-01 02:21:28.80	296.29	41.77	-53.7	-55.9	17.0	0.00e+00	0	36	0	788529152	72	4936
2026-01-01 02:21:29.80	295.83	41.67	-53.3	-55.3	17.3	0.00e+00	0	36	0	790626304	72	4645
2026-01-01 02:21:30.79	295.38	41.57	-53.0	-54.8	17.5	0.00e+00	0	36	0	792723456	72	4374
2026-01-01 02:21:31.79	294.93	41.47	-52.8	-54.6	17.6	0.00e+00	0	36	0	793772032	72	4285
2026-01-01 02:21:32.78	294.49	41.36	-53.1	-55.1	17.4	0.00e+00	0	36	0	795869184	72	4533
2026-01-01 02:21:33.78	294.04	41.25	-53.5	-55.6	17.2	0.00e+00	0	36	0	797966336	72	4768
2026-01-01 02:21:34.78	293.60	41.15	-53.8	-56.0	17.0	0.00e+00	0	36	0	800063488	72	5001
2026-01-01 02:21:35.76	293.17	41.04	-54.2	-56.5	16.8	0.00e+00	0	36	0	801112064	73	5034
2026-01-01 02:21:36.75	292.74	40.93	-54.1	-56.3	16.8	0.00e+00	0	36	0	803209216	73	4910
2026-01-01 02:21:37.75	292.30	40.82	-53.3	-55.3	17.4	0.00e+00	0	36	0	805306368	73	4351
2026-01-01 02:21:38.75	291.87	40.70	-52.7	-54.4	17.8	0.00e+00	0	36	0	807403520	71	4440
2026-01-01 02:21:39.74	291.45	40.59	-52.3	-53.9	18.0	0.00e+00	0	36	0	809500672	71	4188
2026-01-01 02:21:40.73	291.03	40.47	-51.9	-53.5	18.2	0.00e+00	0	36	0	810549248	70	4223
2026-01-01 02:21:41.73	290.61	40.35	-52.0	-53.6	18.2	0.00e+00	0	36	0	812646400	70	4253
2026-01-01 02:21:42.72	290.19	40.23	-52.5	-54.2	18.0	0.00e+00	0	36	0	814743552	70	4560
2026-01-01 02:21:43.72	289.78	40.11	-53.2	-55.1	17.5	0.00e+00	0	36	0	816840704	71	4794
2026-01-01 02:21:44.71	289.37	39.99	-53.5	-55.5	17.3	0.00e+00	0	36	0	817889280	72	4745
2026-01-01 02:21:45.71	288.96	39.87	-53.1	-55.0	17.6	0.00e+00	0	36	0	819986432	72	4473
2026-01-01 02:21:46.71	288.55	39.74	-52.9	-54.7	17.7	0.00e+00	0	36	0	822083584	72	4336
2026-01-01 02:21:47.71	288.15	39.62	-53.0	-54.9	17.5	0.00e+00	0	36	0	824180736	72	4441
2026-01-01 02:21:48.70	287.75	39.49	-53.0	-54.9	17.6	0.00e+00	0	36	0	826277888	72	4436
2026-01-01 02:21:49.70	287.36	39.36	-52.4	-54.1	18.0	0.00e+00	0	36	0	827326464	71	4250
2026-01-01 02:21:50.70	286.96	39.23	-52.4	-54.1	18.0	0.00e+00	0	36	0	829423616	71	4262
2026-01-01 02:21:51.70	286.57	39.10	-52.8	-54.6	17.8	0.00e+00	0	36	0	831520768	71	4497
2026-01-01 02:21:52.70	286.19	38.97	-53.5	-55.5	17.4	0.00e+00	0	36	0	833617920	72	4755
2026-01-01 02:21:53.70	285.80	38.84	-53.5	-55.6	17.3	0.00e+00	0	36	0	834666496	72	4760
2026-01-01 02:21:54.70	285.42	38.71	-53.0	-54.9	17.7	0.00e+00	0	36	0	836763648	72	4396
2026-01-01 02:21:55.69	285.05	38.57	-52.8	-54.5	17.9	0.00e+00	0	36	0	838860800	72	4235
2026-01-01 02:21:56.69	284.67	38.44	-52.5	-54.1	18.1	0.00e+00	0	36	0	840957952	71	4268
2026-01-01 02:21:57.69	284.30	38.30	-52.3	-53.8	18.2	0.00e+00	0	36	0	843055104	71	4123
2026-01-01 02:21:58.69	283.93	38.16	-52.6	-54.2	18.1	0.00e+00	0	36	0	844103680	71	4312
2026-01-01 02:21:59.69	283.57	38.03	-52.7	-54.3	18.1	0.00e+00	0	36	0	846200832	71	4375
2026-01-01 02:22:00.69	283.21	37.89	-53.5	-55.4	17.6	0.00e+00	0	36	0	848297984	72	4662
2026-01-01 02:22:01.69	282.85	37.75	-54.3	-56.4	17.1	0.00e+00	0	36	0	850395136	73	4943
2026-01-01 02:22:02.68	282.49	37.61	-54.4	-56.4	17.0	0.00e+00	0	36	0	852492288	74	4686
2026-01-01 02:22:03.68	282.14	37.47	-53.6	-55.4	17.5	0.00e+00	0	36	0	853540864	73	4433
2026-01-01 02:22:04.68	281.79	37.33	-53.4	-55.2	17.6	0.00e+00	0	36	0	855638016	73	4309
2026-01-01 02:22:05.68	281.44	37.19	-53.7	-55.5	17.5	0.00e+00	0	36	0	857735168	73	4480
2026-01-01 02:22:06.68	281.10	37.05	-54.7	-56.8	16.9	0.00e+00	0	36	0	859832320	74	4899
2026-01-01 02:22:07.67	280.76	36.90	-54.5	-56.6	17.0	0.00e+00	0	36	0	860880896	74	4765
2026-01-01 02:22:08.66	280.43	36.76	-54.3	-56.3	17.1	0.00e+00	0	36	0	862978048	74	4616
2026-01-01 02:22:09.66	280.09	36.62	-54.2	-56.1	17.2	0.00e+00	0	36	0	865075200	74	4521
2026-01-01 02:22:10.65	279.77	36.47	-55.1	-57.3	16.5	0.00e+00	0	36	0	867172352	75	4903
2026-01-01 02:22:11.66	279.43	36.33	-55.2	-57.4	16.4	0.00e+00	0	36	0	869269504	75	4976
2026-01-01 02:22:12.65	279.11	36.18	-54.8	-56.9	16.8	0.00e+00	0	36	0	870318080	75	4658
2026-01-01 02:22:13.66	278.78	36.04	-54.5	-56.5	17.0	0.00e+00	0	36	0	872415232	75	4453
2026-01-01 02:22:14.66	278.46	35.89	-54.9	-57.0	16.7	0.00e+00	0	36	0	874512384	75	4727
2026-01-01 02:22:15.65	278.15	35.75	-55.0	-57.2	16.6	0.00e+00	0	36	0	876609536	75	4864
2026-01-01 02:22:16.65	277.83	35.60	-55.1	-57.3	16.6	0.00e+00	0	36	0	878706688	75	4891
2026-01-01 02:22:17.65	277.52	35.45	-54.6	-56.6	17.0	0.00e+00	0	36	0	879755264	75	4494
2026-01-01 02:22:18.65	277.21	35.31	-54.8	-56.8	16.9	0.00e+00	0	36	0	881852416	75	4623
2026-01-01 02:22:19.66	276.90	35.16	-54.8	-56.9	16.8	0.00e+00	0	36	0	883949568	75	4675
2026-01-01 02:22:20.66	276.60	35.01	-54.6	-56.5	16.9	0.00e+00	0	36	0	886046720	75	4491
2026-01-01 02:22:21.66	276.30	34.86	-53.7	-55.5	17.5	0.00e+00	0	36	0	887095296	74	4210
2026-01-01 02:22:22.66	276.00	34.71	-53.4	-55.0	17.7	0.00e+00	0	36	0	889192448	73	4219
2026-01-01 02:22:23.67	275.70	34.56	-53.4	-55.1	17.7	0.00e+00	0	36	0	891289600	73	4274
2026-01-01 02:22:24.67	275.41	34.41	-54.5	-56.5	17.0	0.00e+00	0	36	0	893386752	74	4720
2026-01-01 02:22:25.66	275.13	34.27	-55.4	-57.7	16.3	0.00e+00	0	36	0	895483904	76	4869
2026-01-01 02:22:26.66	274.84	34.12	-56.0	-58.6	15.8	0.00e+00	0	36	0	896532480	77	5052
2026-01-01 02:22:27.66	274.55	33.97	-55.4	-57.7	16.3	0.00e+00	0	36	0	898629632	77	4579
2026-01-01 02:22:28.66	274.27	33.82	-54.9	-57.0	16.7	0.00e+00	0	36	0	900726784	76	4465
2026-01-01 02:22:29.66	273.99	33.67	-54.9	-57.1	16.6	0.00e+00	0	36	0	902823936	75	4772
2026-01-01 02:22:30.67	273.71	33.52	-55.3	-57.6	16.3	0.00e+00	0	36	0	904921088	75	5096
2026-01-01 02:22:31.67	273.44	33.37	-56.2	-58.8	15.6	0.00e+00	0	36	0	905969664	77	5213
2026-01-01 02:22:32.65	273.17	33.23	-56.4	-59.2	15.3	0.00e+00	0	36	0	908066816	77	5460
2026-01-01 02:22:33.64	272.91	33.08	-56.7	-59.8	14.9	0.00e+00	0	36	0	910163968	78	5486
2026-01-01 02:22:34.64	272.64	32.93	-57.5	-61.2	13.8	0.00e+00	0	36	0	912261120	80	5776
2026-01-01 02:22:35.64	272.38	32.78	-58.4	-63.5	11.9	1.98e-05	0	36	0	913309696	82	6647
2026-01-01 02:22:36.64	272.11	32.63	-58.6	-63.9	11.5	2.27e-04	0	36	0	915406848	82	7015
2026-01-01 02:22:37.64	271.85	32.48	-58.0	-62.2	12.9	4.80e-05	0	36	0	917504000	82	5786
2026-01-01 02:22:38.64	271.60	32.33	-57.1	-60.3	14.5	0.00e+00	0	36	0	919601152	80	5186
2026-01-01 02:22:39.64	271.34	32.18	-56.8	-59.7	14.9	0.00e+00	0	36	0	921698304	79	5151
2026-01-01 02:22:40.63	271.09	32.04	-56.2	-58.8	15.6	0.00e+00	0	36	0	922746880	79	4630
2026-01-01 02:22:41.62	270.85	31.89	-56.6	-59.5	15.2	0.00e+00	0	36	0	924844032	78	5302
2026-01-01 02:22:42.62	270.60	31.74	-56.8	-59.8	14.9	0.00e+00	0	36	0	926941184	78	5516
2026-01-01 02:22:43.62	270.35	31.59	-57.1	-60.4	14.4	0.00e+00	0	36	0	929038336	79	5551
2026-01-01 02:22:44.62	270.11	31.44	-56.8	-59.8	14.9	0.00e+00	0	36	0	931135488	79	5174
2026-01-01 02:22:45.62	269.87	31.30	-56.6	-59.5	15.1	0.00e+00	0	36	0	932184064	79	4984
2026-01-01 02:22:46.62	269.63	31.15	-56.2	-58.9	15.5	0.00e+00	0	36	0	934281216	79	4661
2026-01-01 02:22:47.62	269.39	31.00	-56.1	-58.9	15.5	0.00e+00	0	36	0	936378368	78	4941
2026-01-01 02:22:48.61	269.16	30.86	-55.7	-58.1	16.0	0.00e+00	0	36	0	938475520	77	4799
2026-01-01 02:22:49.60	268.93	30.71	-55.7	-58.2	16.0	0.00e+00	0	36	0	939524096	77	4847
2026-01-01 02:22:50.60	268.70	30.56	-56.2	-58.9	15.5	0.00e+00	0	36	0	941621248	77	5234
2026-01-01 02:22:51.60	268.47	30.42	-56.3	-59.0	15.5	0.00e+00	0	36	0	943718400	77	5307
2026-01-01 02:22:52.60	268.25	30.27	-56.5	-59.4	15.2	0.00e+00	0	36	0	945815552	78	5238
2026-01-01 02:22:53.59	268.03	30.12	-56.7	-59.7	15.0	0.00e+00	0	36	0	947912704	78	5439
2026-01-01 02:22:54.59	267.80	29.98	-56.8	-59.8	15.0	0.00e+00	0	36	0	948961280	79	5163
2026-01-01 02:22:55.60	267.58	29.83	-56.4	-59.2	15.2	0.00e+00	0	36	0	951058432	79	4838
2026-01-01 02:22:56.59	267.37	29.69	-56.1	-58.7	15.7	0.00e+00	0	36	0	953155584	78	4853
2026-01-01 02:22:57.59	267.15	29.54	-55.5	-57.9	16.3	0.00e+00	0	36	0	955252736	77	4657
2026-01-01 02:22:58.59	266.94	29.40	-55.9	-58.5	15.8	0.00e+00	0	36	0	957349888	77	5010
2026-01-01 02:22:59.59	266.72	29.25	-55.9	-58.5	15.9	0.00e+00	0	36	0	958398464	77	5018
2026-01-01 02:23:00.59	266.51	29.11	-55.9	-58.4	15.9	0.00e+00	0	36	0	960495616	77	4967
2026-01-01 02:23:01.57	266.31	28.97	-55.8	-58.3	15.9	0.00e+00	0	36	0	962592768	77	4890
2026-01-01 02:23:02.57	266.10	28.82	-55.7	-58.2	16.0	0.00e+00	0	36	0	964689920	77	4829
2026-01-01 02:23:03.58	265.90	28.68	-55.3	-57.5	16.4	0.00e+00	0	36	0	965738496	77	4467
2026-01-01 02:23:04.58	265.69	28.53	-55.2	-57.5	16.4	0.00e+00	0	36	0	967835648	76	4723
2026-01-01 02:23:05.58	265.49	28.39	-55.0	-57.2	16.5	0.00e+00	0	36	0	969932800	76	4591
2026-01-01 02:23:06.57	265.30	28.25	-55.1	-57.3	16.6	0.00e+00	0	36	0	972029952	76	4604
2026-01-01 02:23:07.57	265.10	28.11	-55.3	-57.6	16.3	0.00e+00	0	36	0	974127104	76	4793
2026-01-01 02:23:08.56	264.91	27.97	-55.3	-57.6	16.3	0.00e+00	0	36	0	975175680	76	4774
2026-01-01 02:23:09.56	264.71	27.83	-55.8	-58.3	15.9	0.00e+00	0	36	0	977272832	76	5198
2026-01-01 02:23:10.56	264.52	27.69	-55.6	-58.0	16.1	0.00e+00	0	36	0	979369984	76	5022
2026-01-01 02:23:11.55	264.33	27.55	-55.6	-58.0	16.0	0.00e+00	0	36	0	981467136	76	5038
2026-01-01 02:23:12.55	264.14	27.41	-55.6	-58.1	16.1	0.00e+00	0	36	0	982515712	76	5044
2026-01-01 02:23:13.55	263.96	27.27	-55.7	-58.2	16.0	0.00e+00	0	36	0	984612864	76	5126
2026-01-01 02:23:14.55	263.77	27.13	-55.4	-57.7	16.2	0.00e+00	0	36	0	986710016	76	4869
2026-01-01 02:23:15.55	263.59	26.99	-55.6	-58.1	16.0	0.00e+00	0	36	0	988807168	76	5059
2026-01-01 02:23:16.56	263.40	26.85	-55.6	-58.0	16.1	0.00e+00	0	36	0	990904320	76	5011
2026-01-01 02:23:17.56	263.22	26.71	-55.2	-57.4	16.4	0.00e+00	0	36	0	991952896	76	4701
2026-01-01 02:23:18.56	263.04	26.57	-55.2	-57.5	16.4	0.00e+00	0	36	0	994050048	76	4721
2026-01-01 02:23:19.56	262.87	26.43	-55.5	-57.8	16.4	0.00e+00	0	36	0	996147200	76	4917
2026-01-01 02:23:20.56	262.69	26.30	-55.0	-57.2	16.6	0.00e+00	0	36	0	998244352	76	4568
2026-01-01 02:23:21.56	262.52	26.16	-54.7	-56.8	16.8	0.00e+00	0	36	0	1000341504	76	4365
2026-01-01 02:23:22.56	262.34	26.02	-54.9	-57.0	16.7	0.00e+00	0	36	0	1001390080	76	4444
2026-01-01 02:23:23.56	262.17	25.89	-54.6	-56.7	16.8	0.00e+00	0	36	0	1003487232	75	4554
2026-01-01 02:23:24.56	262.00	25.75	-54.6	-56.7	16.8	0.00e+00	0	36	0	1005584384	75	4577
2026-01-01 02:23:25.57	261.83	25.61	-54.5	-56.6	16.8	0.00e+00	0	36	0	1007681536	75	4501
2026-01-01 02:23:26.56	261.67	25.48	-54.7	-56.8	16.8	0.00e+00	0	36	0	1008730112	75	4629
2026-01-01 02:23:27.56	261.50	25.35	-54.7	-56.8	16.7	0.00e+00	0	36	0	1010827264	75	4619
2026-01-01 02:23:28.56	261.34	25.21	-55.0	-57.2	16.5	0.00e+00	0	36	0	1012924416	75	4819
2026-01-01 02:23:29.56	261.18	25.08	-55.1	-57.2	16.5	0.00e+00	0	36	0	1015021568	75	4862
2026-01-01 02:23:30.55	261.02	24.95	-55.4	-57.7	16.3	0.00e+00	0	36	0	1017118720	76	4826
2026-01-01 02:23:31.54	260.86	24.81	-55.2	-57.4	16.5	0.00e+00	0	36	0	1018167296	76	4669
2026-01-01 02:23:32.53	260.70	24.68	-54.8	-56.9	16.8	0.00e+00	0	36	0	1020264448	76	4397
2026-01-01 02:23:33.53	260.54	24.55	-54.8	-56.9	16.7	0.00e+00	0	36	0	1022361600	76	4393
2026-01-01 02:23:34.53	260.39	24.42	-54.4	-56.4	17.0	0.00e+00	0	36	0	1024458752	75	4437
2026-01-01 02:23:35.52	260.24	24.29	-53.9	-55.8	17.2	0.00e+00	0	36	0	1026555904	74	4381
2026-01-01 02:23:36.51	260.08	24.16	-53.7	-55.6	17.4	0.00e+00	0	36	0	1027604480	74	4247
2026-01-01 02:23:37.51	259.93	24.03	-53.9	-55.8	17.3	0.00e+00	0	36	0	1029701632	74	4374
2026-01-01 02:23:38.51	259.78	23.90	-54.2	-56.1	17.1	0.00e+00	0	36	0	1031798784	74	4514
2026-01-01 02:23:39.50	259.63	23.77	-54.6	-56.6	16.8	0.00e+00	0	36	0	1033895936	74	4803
2026-01-01 02:23:40.50	259.49	23.64	-55.0	-57.2	16.5	0.00e+00	0	36	0	1034944512	75	4868
2026-01-01 02:23:41.50	259.34	23.52	-55.6	-58.0	16.1	0.00e+00	0	36	0	1037041664	76	5018
2026-01-01 02:23:42.50	259.19	23.39	-56.0	-58.6	15.7	0.00e+00	0	36	0	1039138816	77	5053
2026-01-01 02:23:43.50	259.05	23.26	-56.1	-58.8	15.6	0.00e+00	0	36	0	1041235968	77	5162
2026-01-01 02:23:44.51	258.90	23.13	-56.2	-58.9	15.5	0.00e+00	0	36	0	1043333120	77	5220
2026-01-01 02:23:45.51	258.76	23.00	-56.0	-58.6	15.6	0.00e+00	0	36	0	1044381696	77	5067
2026-01-01 02:23:46.51	258.62	22.88	-56.0	-58.5	15.7	0.00e+00	0	36	0	1046478848	77	5040
2026-01-01 02:23:47.51	258.48	22.75	-55.8	-58.3	15.9	0.00e+00	0	36	0	1048576000	77	4911
2026-01-01 02:23:48.51	258.34	22.63	-55.8	-58.3	15.8	0.00e+00	0	36	0	1050673152	77	4907
2026-01-01 02:23:49.52	258.20	22.50	-55.8	-58.4	15.9	0.00e+00	0	36	0	1052770304	77	4956
2026-01-01 02:23:50.52	258.07	22.38	-56.3	-58.7	15.8	0.00e+00	0	36	0	1053818880	77	5135
2026-01-01 02:23:51.52	257.93	22.25	-56.1	-58.5	16.0	0.00e+00	0	36	0	1055916032	77	4984
2026-01-01 02:23:52.52	257.80	22.13	-56.1	-58.4	16.0	0.00e+00	0	36	0	1058013184	77	4938
2026-01-01 02:23:53.53	257.66	22.00	-56.2	-58.5	15.9	0.00e+00	0	36	0	1060110336	77	5021
2026-01-01 02:23:54.53	257.53	21.88	-56.0	-58.2	16.1	0.00e+00	0	36	0	1062207488	77	4834
2026-01-01 02:23:55.52	257.40	21.76	-55.8	-57.9	16.3	0.00e+00	0	36	0	1063256064	77	4681
2026-01-01 02:23:56.52	257.27	21.64	-55.7	-57.9	16.3	0.00e+00	0	36	0	1065353216	77	4658
2026-01-01 02:23:57.52	257.14	21.51	-55.5	-57.6	16.4	0.00e+00	0	36	0	1067450368	77	4507
2026-01-01 02:23:58.53	257.01	21.39	-55.3	-57.3	16.6	0.00e+00	0	36	0	1069547520	77	4350
2026-01-01 02:23:59.53	256.89	21.27	-55.2	-57.2	16.7	0.00e+00	0	36	0	1071644672	76	4584
2026-01-01 02:24:00.53	256.76	21.15	-55.1	-57.1	16.8	0.00e+00	0	36	0	1072693248	76	4497
2026-01-01 02:24:01.53	256.64	21.03	-54.9	-56.7	16.9	0.00e+00	0	36	0	1074790400	76	4339
2026-01-01 02:24:02.53	256.51	20.91	-54.8	-56.6	16.9	0.00e+00	0	36	0	1076887552	75	4543
2026-01-01 02:24:03.52	256.39	20.79	-54.5	-56.3	17.2	0.00e+00	0	36	0	1078984704	75	4361
2026-01-01 02:24:04.51	256.27	20.68	-54.5	-56.3	17.2	0.00e+00	0	36	0	1080033280	75	4362
2026-01-01 02:24:05.51	256.15	20.56	-54.3	-56.0	17.3	0.00e+00	0	36	0	1082130432	75	4230
2026-01-01 02:24:06.51	256.03	20.44	-54.5	-56.4	17.1	0.00e+00	0	36	0	1084227584	75	4393
2026-01-01 02:24:07.50	255.91	20.32	-54.7	-56.5	17.0	0.00e+00	0	36	0	1086324736	75	4482
2026-01-01 02:24:08.50	255.79	20.21	-54.5	-56.4	17.1	0.00e+00	0	36	0	1088421888	75	4398
2026-01-01 02:24:09.51	255.68	20.09	-54.7	-56.6	17.0	0.00e+00	0	36	0	1089470464	75	4526
2026-01-01 02:24:10.50	255.56	19.97	-54.9	-56.8	16.8	0.00e+00	0	36	0	1091567616	75	4646
2026-01-01 02:24:11.50	255.45	19.86	-55.3	-57.4	16.5	0.00e+00	0	36	0	1093664768	75	4961
2026-01-01 02:24:12.50	255.33	19.74	-55.3	-57.4	16.5	0.00e+00	0	36	0	1095761920	75	4969
2026-01-01 02:24:13.50	255.22	19.63	-55.4	-57.5	16.5	0.00e+00	0	36	0	1096810496	76	4730
2026-01-01 02:24:14.49	255.11	19.51	-55.5	-57.6	16.4	0.00e+00	0	36	0	1098907648	76	4801
2026-01-01 02:24:15.49	254.99	19.40	-55.5	-57.5	16.5	0.00e+00	0	36	0	1101004800	76	4755
2026-01-01 02:24:16.48	254.88	19.29	-55.4	-57.4	16.5	0.00e+00	0	36	0	1103101952	76	4697
2026-01-01 02:24:17.48	254.77	19.17	-55.2	-57.2	16.6	0.00e+00	0	36	0	1105199104	76	4564
2026-01-01 02:24:18.49	254.66	19.06	-55.2	-57.1	16.7	0.00e+00	0	36	0	1106247680	76	4537
2026-01-01 02:24:19.49	254.56	18.95	-54.9	-56.8	16.9	0.00e+00	0	36	0	1108344832	76	4370
2026-01-01 02:24:20.49	254.45	18.84	-54.8	-56.7	16.9	0.00e+00	0	36	0	1110441984	76	4313
2026-01-01 02:24:21.49	254.34	18.72	-54.7	-56.5	17.0	0.00e+00	0	36	0	1112539136	76	4242
2026-01-01 02:24:22.49	254.23	18.61	-54.9	-56.8	16.9	0.00e+00	0	36	0	1114636288	76	4360
2026-01-01 02:24:23.49	254.13	18.50	-55.0	-56.9	16.8	0.00e+00	0	36	0	1115684864	76	4406
2026-01-01 02:24:24.48	254.03	18.39	-55.1	-57.1	16.7	0.00e+00	0	36	0	1117782016	76	4535
2026-01-01 02:24:25.48	253.92	18.28	-55.3	-57.4	16.5	0.00e+00	0	36	0	1119879168	76	4671
2026-01-01 02:24:26.48	253.82	18.17	-55.4	-57.5	16.5	0.00e+00	0	36	0	1121976320	76	4718
2026-01-01 02:24:27.48	253.72	18.06	-55.6	-57.7	16.4	0.00e+00	0	36	0	1123024896	76	4837
2026-01-01 02:24:28.47	253.62	17.96	-55.6	-57.7	16.3	0.00e+00	0	36	0	1125122048	76	4858
2026-01-01 02:24:29.48	253.51	17.85	-55.9	-58.1	16.1	0.00e+00	0	36	0	1127219200	76	5090
2026-01-01 02:24:30.48	253.41	17.74	-55.8	-58.0	16.1	0.00e+00	0	36	0	1129316352	77	4756
2026-01-01 02:24:31.47	253.32	17.63	-56.1	-58.4	16.0	0.00e+00	0	36	0	1131413504	77	4963
2026-01-01 02:24:32.47	253.22	17.52	-56.0	-58.3	16.0	0.00e+00	0	36	0	1132462080	77	4885
2026-01-01 02:24:33.46	253.12	17.42	-56.0	-58.3	16.0	0.00e+00	0	36	0	1134559232	77	4903
2026-01-01 02:24:34.46	253.02	17.31	-56.1	-58.5	15.8	0.00e+00	0	36	0	1136656384	77	4993
2026-01-01 02:24:35.46	252.93	17.20	-56.2	-58.6	15.8	0.00e+00	0	36	0	1138753536	77	5050
2026-01-01 02:24:36.45	252.83	17.10	-56.0	-58.4	15.9	0.00e+00	0	36	0	1139802112	77	4939
2026-01-01 02:24:37.45	252.74	16.99	-56.0	-58.3	16.0	0.00e+00	0	36	0	1141899264	77	4906
2026-01-01 02:24:38.44	252.64	16.89	-55.8	-58.1	16.1	0.00e+00	0	36	0	1143996416	77	4766
2026-01-01 02:24:39.44	252.55	16.78	-55.8	-58.1	16.0	0.00e+00	0	36	0	1146093568	77	4788
2026-01-01 02:24:40.43	252.46	16.68	-55.6	-57.8	16.1	0.00e+00	0	36	0	1148190720	77	4615
2026-01-01 02:24:41.43	252.37	16.58	-55.1	-57.1	16.7	0.00e+00	0	36	0	1149239296	76	4502
2026-01-01 02:24:42.43	252.27	16.47	-54.8	-56.7	16.8	0.00e+00	0	36	0	1151336448	76	4335
2026-01-01 02:24:43.42	252.18	16.37	-54.5	-56.4	17.0	0.00e+00	0	36	0	1153433600	75	4396
2026-01-01 02:24:44.42	252.09	16.27	-54.6	-56.5	17.0	0.00e+00	0	36	0	1155530752	75	4449
2026-01-01 02:24:45.42	252.00	16.17	-54.4	-56.2	17.1	0.00e+00	0	36	0	1157627904	75	4329
2026-01-01 02:24:46.42	251.92	16.06	-54.5	-56.3	17.0	0.00e+00	0	36	0	1158676480	75	4366
2026-01-01 02:24:47.42	251.83	15.96	-54.5	-56.4	17.0	0.00e+00	0	36	0	1160773632	75	4393
2026-01-01 02:24:48.42	251.74	15.86	-54.7	-56.7	16.8	0.00e+00	0	36	0	1162870784	75	4556
2026-01-01 02:24:49.41	251.65	15.76	-54.8	-56.7	16.8	0.00e+00	0	36	0	1164967936	75	4569
2026-01-01 02:24:50.41	251.57	15.66	-54.9	-56.9	16.7	0.00e+00	0	36	0	1166016512	75	4674
2026-01-01 02:24:51.40	251.48	15.56	-55.2	-57.3	16.5	0.00e+00	0	36	0	1168113664	75	4879
2026-01-01 02:24:52.40	251.39	15.46	-55.1	-57.2	16.5	0.00e+00	0	36	0	1170210816	75	4850
2026-01-01 02:24:53.40	251.31	15.36	-55.2	-57.3	16.5	0.00e+00	0	36	0	1172307968	75	4924
2026-01-01 02:24:54.41	251.22	15.26	-55.3	-57.4	16.4	0.00e+00	0	36	0	1174405120	75	4934
2026-01-01 02:24:55.41	251.14	15.16	-55.3	-57.4	16.4	0.00e+00	0	36	0	1175453696	75	4942
2026-01-01 02:24:56.41	251.06	15.06	-55.1	-57.1	16.5	0.00e+00	0	36	0	1177550848	75	4813
2026-01-01 02:24:57.41	250.98	14.96	-55.1	-57.2	16.5	0.00e+00	0	36	0	1179648000	75	4838
2026-01-01 02:24:58.40	250.89	14.86	-55.0	-57.0	16.6	0.00e+00	0	36	0	1181745152	75	4749
2026-01-01 02:24:59.39	250.81	14.77	-55.0	-57.1	16.6	0.00e+00	0	36	0	1183842304	75	4768
2026-01-01 02:25:00.39	250.73	14.67	-55.1	-57.1	16.6	0.00e+00	0	36	0	1184890880	75	4802
2026-01-01 02:25:01.38	250.65	14.57	-55.1	-57.1	16.6	0.00e+00	0	36	0	1186988032	75	4786
2026-01-01 02:25:02.38	250.57	14.48	-55.0	-57.1	16.6	0.00e+00	0	36	0	1189085184	75	4773
2026-01-01 02:25:03.38	250.49	14.38	-55.1	-57.2	16.5	0.00e+00	0	36	0	1191182336	75	4853
2026-01-01 02:25:04.38	250.42	14.28	-55.3	-57.4	16.4	0.00e+00	0	36	0	1192230912	75	4982
2026-01-01 02:25:05.38	250.34	14.19	-55.3	-57.5	16.3	0.00e+00	0	36	0	1194328064	75	4995
2026-01-01 02:25:06.38	250.26	14.09	-55.7	-57.9	16.1	0.00e+00	0	36	0	1196425216	76	4951
2026-01-01 02:25:07.38	250.18	14.00	-55.7	-58.0	16.1	0.00e+00	0	36	0	1198522368	76	5010
2026-01-01 02:25:08.38	250.11	13.90	-55.9	-58.3	15.8	0.00e+00	0	36	0	1200619520	77	4910
2026-01-01 02:25:09.38	250.03	13.81	-56.1	-58.6	15.7	0.00e+00	0	36	0	1201668096	77	5060
2026-01-01 02:25:10.38	249.95	13.71	-56.2	-58.6	15.6	0.00e+00	0	36	0	1203765248	77	5083
2026-01-01 02:25:11.37	249.88	13.62	-56.4	-58.9	15.4	0.00e+00	0	36	0	1205862400	77	5257
2026-01-01 02:25:12.37	249.80	13.53	-56.5	-59.1	15.3	0.00e+00	0	36	0	1207959552	78	5085
2026-01-01 02:25:13.37	249.73	13.43	-56.3	-58.9	15.4	0.00e+00	0	36	0	1210056704	78	4957
2026-01-01 02:25:14.37	249.66	13.34	-56.5	-59.2	15.2	0.00e+00	0	36	0	1211105280	78	5120
2026-01-01 02:25:15.38	249.58	13.25	-56.5	-59.1	15.2	0.00e+00	0	36	0	1213202432	78	5075
2026-01-01 02:25:16.38	249.51	13.15	-56.5	-59.1	15.3	0.00e+00	0	36	0	1215299584	78	5080
2026-01-01 02:25:17.38	249.44	13.06	-56.4	-59.0	15.3	0.00e+00	0	36	0	1217396736	78	5015
2026-01-01 02:25:18.37	249.37	12.97	-56.3	-58.9	15.4	0.00e+00	0	36	0	1218445312	78	4955
2026-01-01 02:25:19.37	249.29	12.88	-56.4	-59.0	15.3	0.00e+00	0	36	0	1220542464	78	5035
