passes_logs/2026/01/01/R3.2S_Murmansk/R3.2S_Murmansk__20260101_173442_TY-39_rec.log

#Pass ID: 20260101_173442_TY-39
#Satellite: TY-39
#Configuration: TY-39
#almurnet v.1.7.20251203
#Start time: 2026-01-01 17:34:43

#Version: 2.2.20231116
#Station: R3.2S_Murmansk
#Location: 33.079688 lon 68.888172 lat
#TLE: 1 51832U 22019J   25365.93277337  .00003620  00000-0  17324-3 0  9996
#TLE: 2 51832  97.3676  67.9649 0010380  94.1625 266.0796 15.19551037212399

#Time	Az	El	Level	Level2	SNR	BER	BlckErr	Temp	State	Recorded	gain1	gain2
2026-01-01 17:34:43.31	138.91	2.05	-59.2	-62.4	3.7	0.00e+00	0	37	0	0	85	20593
2026-01-01 17:34:44.32	138.89	2.12	-59.2	-62.4	3.7	0.00e+00	0	37	104	0	85	20548
2026-01-01 17:34:45.31	138.86	2.19	-59.2	-62.4	3.7	0.00e+00	0	37	104	0	85	20568
2026-01-01 17:34:46.32	138.83	2.26	-59.2	-62.4	3.7	0.00e+00	0	37	104	0	85	20487
2026-01-01 17:34:47.33	138.81	2.33	-59.2	-62.4	3.7	0.00e+00	0	37	104	0	85	20478
2026-01-01 17:34:48.34	138.78	2.40	-59.2	-62.4	3.7	0.00e+00	0	37	104	0	85	20555
2026-01-01 17:34:49.34	138.75	2.47	-59.2	-62.4	3.7	0.00e+00	0	37	104	0	85	20591
2026-01-01 17:34:50.35	138.72	2.54	-59.2	-62.4	3.7	0.00e+00	0	37	104	0	85	20531
2026-01-01 17:34:51.36	138.70	2.61	-59.2	-62.4	3.7	0.00e+00	0	37	104	0	85	20555
2026-01-01 17:34:52.36	138.67	2.69	-59.2	-62.4	3.7	0.00e+00	0	37	104	0	85	20559
2026-01-01 17:34:53.37	138.64	2.76	-59.2	-62.4	3.7	0.00e+00	0	37	104	0	85	20501
2026-01-01 17:34:54.38	138.61	2.83	-59.2	-62.4	3.7	0.00e+00	0	37	104	0	85	20524
2026-01-01 17:34:55.38	138.58	2.90	-59.2	-62.4	3.7	0.00e+00	0	37	104	0	85	20533
2026-01-01 17:34:56.39	138.55	2.98	-59.2	-62.4	3.7	0.00e+00	0	37	104	0	85	20512
2026-01-01 17:34:57.40	138.52	3.05	-59.2	-62.4	3.7	0.00e+00	0	38	104	0	85	20587
2026-01-01 17:34:58.41	138.50	3.12	-59.2	-62.4	3.7	0.00e+00	0	37	104	0	85	20522
2026-01-01 17:34:59.41	138.47	3.20	-59.2	-62.4	3.7	0.00e+00	0	38	104	0	85	20575
2026-01-01 17:35:00.41	138.44	3.27	-59.2	-62.4	3.7	0.00e+00	0	38	104	0	85	20570
2026-01-01 17:35:01.42	138.41	3.34	-59.2	-62.4	3.7	0.00e+00	0	38	104	0	85	20506
2026-01-01 17:35:02.43	138.38	3.42	-59.2	-62.4	3.7	0.00e+00	0	38	104	0	85	20514
2026-01-01 17:35:03.44	138.35	3.49	-59.2	-62.4	3.7	0.00e+00	0	38	104	0	85	20492
2026-01-01 17:35:04.45	138.31	3.57	-59.2	-62.4	3.7	0.00e+00	0	38	104	0	85	20550
2026-01-01 17:35:05.46	138.28	3.64	-59.2	-62.4	3.7	0.00e+00	0	38	104	0	85	20553
2026-01-01 17:35:06.47	138.25	3.72	-59.2	-62.4	3.7	0.00e+00	0	38	104	0	85	20532
2026-01-01 17:35:07.47	138.22	3.79	-59.2	-62.4	3.7	0.00e+00	0	38	104	0	85	20514
2026-01-01 17:35:08.48	138.19	3.87	-59.2	-62.4	3.7	0.00e+00	0	38	104	0	85	20569
2026-01-01 17:35:09.49	138.16	3.95	-59.2	-62.4	3.7	0.00e+00	0	38	104	0	85	20561
2026-01-01 17:35:10.49	138.13	4.02	-59.2	-62.4	3.7	0.00e+00	0	38	104	0	85	20591
2026-01-01 17:35:11.50	138.09	4.10	-59.2	-62.4	3.7	0.00e+00	0	38	104	0	85	20513
2026-01-01 17:35:12.51	138.06	4.18	-59.2	-62.4	3.7	0.00e+00	0	38	104	0	85	20502
2026-01-01 17:35:13.52	138.03	4.25	-59.2	-62.4	3.7	0.00e+00	0	38	104	0	85	20558
2026-01-01 17:35:14.53	137.99	4.33	-59.2	-62.4	3.7	0.00e+00	0	38	104	0	85	20487
2026-01-01 17:35:15.52	137.96	4.41	-59.2	-62.4	3.7	0.00e+00	0	38	104	0	85	20563
2026-01-01 17:35:16.53	137.93	4.49	-59.2	-62.4	3.7	0.00e+00	0	38	104	0	85	20559
2026-01-01 17:35:17.53	137.89	4.57	-59.2	-62.4	3.7	0.00e+00	0	38	104	0	85	20493
2026-01-01 17:35:18.54	137.86	4.64	-59.2	-62.4	3.7	0.00e+00	0	38	104	0	85	20498
2026-01-01 17:35:19.55	137.83	4.72	-59.2	-62.4	3.7	0.00e+00	0	38	104	0	85	20510
2026-01-01 17:35:20.55	137.79	4.80	-59.2	-62.4	3.7	0.00e+00	0	38	104	0	85	20492
2026-01-01 17:35:21.56	137.76	4.88	-59.2	-62.4	3.7	0.00e+00	0	38	104	0	85	20470
2026-01-01 17:35:22.55	137.72	4.96	-59.2	-62.4	3.7	0.00e+00	0	38	104	0	85	20538
2026-01-01 17:35:23.56	137.69	5.04	-59.2	-62.4	3.7	0.00e+00	0	38	104	0	85	20514
2026-01-01 17:35:24.57	137.65	5.12	-59.3	-62.5	3.7	0.00e+00	0	38	104	0	85	20834
2026-01-01 17:35:25.57	137.62	5.20	-59.4	-62.6	3.7	0.00e+00	0	38	104	0	85	21094
2026-01-01 17:35:26.57	137.58	5.28	-59.2	-62.5	3.7	0.00e+00	0	38	104	0	85	20710
2026-01-01 17:35:27.57	137.54	5.37	-59.4	-62.6	3.7	0.00e+00	0	38	104	0	85	21079
2026-01-01 17:35:28.58	137.51	5.45	-59.3	-62.5	3.7	0.00e+00	0	38	104	0	85	20852
2026-01-01 17:35:29.58	137.47	5.53	-59.4	-62.6	3.7	0.00e+00	0	38	104	0	85	21020
2026-01-01 17:35:30.58	137.43	5.61	-59.3	-62.6	3.7	0.00e+00	0	38	104	0	85	20954
2026-01-01 17:35:31.59	137.40	5.70	-59.4	-62.6	3.7	0.00e+00	0	38	104	0	85	20923
2026-01-01 17:35:32.60	137.36	5.78	-59.3	-62.6	3.7	0.00e+00	0	39	104	0	85	20896
2026-01-01 17:35:33.60	137.32	5.86	-59.4	-62.6	3.7	0.00e+00	0	38	104	0	85	20989
2026-01-01 17:35:34.61	137.28	5.95	-59.3	-62.5	3.7	0.00e+00	0	38	104	0	85	20822
2026-01-01 17:35:35.61	137.24	6.03	-59.3	-62.5	3.7	0.00e+00	0	38	104	0	85	20643
2026-01-01 17:35:36.62	137.20	6.11	-59.3	-62.5	3.7	0.00e+00	0	38	104	0	85	20674
2026-01-01 17:35:37.62	137.16	6.20	-59.3	-62.4	3.7	0.00e+00	0	38	104	0	85	20529
2026-01-01 17:35:38.63	137.13	6.29	-59.3	-62.4	3.7	0.00e+00	0	38	104	0	85	20620
2026-01-01 17:35:39.63	137.09	6.37	-59.3	-62.4	3.7	0.00e+00	0	38	104	0	85	20515
2026-01-01 17:35:40.64	137.05	6.46	-59.2	-62.3	3.7	0.00e+00	0	38	104	0	85	20245
2026-01-01 17:35:41.64	137.00	6.54	-59.0	-61.8	3.7	0.00e+00	0	39	104	0	85	19107
2026-01-01 17:35:42.65	136.96	6.63	-47.6	-48.0	5.5	0.00e+00	76	39	104	0	62	14744
2026-01-01 17:35:43.65	136.92	6.72	-45.9	-46.2	12.5	1.74e-03	0	39	0	50331648	59	14195
2026-01-01 17:35:44.65	136.88	6.80	-50.8	-51.3	8.9	1.04e-04	0	39	0	125829120	67	16189
2026-01-01 17:35:45.66	136.84	6.89	-46.6	-46.9	12.0	1.86e-02	0	39	0	142606336	60	14532
2026-01-01 17:35:46.65	136.80	6.98	-45.9	-46.2	12.5	2.08e-05	0	39	0	218103808	58	14995
2026-01-01 17:35:47.66	136.75	7.07	-45.7	-46.0	12.6	0.00e+00	0	39	0	293601280	58	14738
2026-01-01 17:35:48.67	136.71	7.16	-45.7	-46.0	12.6	6.90e-06	0	39	0	369098752	58	14752
2026-01-01 17:35:49.67	136.67	7.25	-45.6	-45.9	12.6	0.00e+00	0	39	0	444596224	58	14553
2026-01-01 17:35:50.67	136.63	7.34	-45.6	-45.9	12.7	0.00e+00	0	39	0	520093696	58	14600
2026-01-01 17:35:51.68	136.58	7.43	-45.6	-45.9	12.7	0.00e+00	0	39	0	595591168	58	14461
2026-01-01 17:35:52.69	136.54	7.52	-45.7	-46.0	12.6	6.90e-06	0	39	0	671088640	58	14646
2026-01-01 17:35:53.69	136.49	7.61	-45.5	-45.8	12.7	0.00e+00	0	39	0	746586112	58	14436
2026-01-01 17:35:54.70	136.45	7.70	-45.5	-45.8	12.7	0.00e+00	0	39	0	822083584	58	14346
2026-01-01 17:35:55.70	136.40	7.79	-45.6	-45.8	12.7	0.00e+00	0	39	0	897581056	58	14432
2026-01-01 17:35:56.71	136.35	7.89	-45.7	-46.0	12.7	0.00e+00	0	39	0	973078528	58	14630
2026-01-01 17:35:57.70	136.31	7.98	-45.5	-45.8	12.8	0.00e+00	0	39	0	1048576000	58	14355
2026-01-01 17:35:58.71	136.26	8.07	-45.5	-45.8	12.8	6.90e-06	0	39	0	1124073472	58	14312
2026-01-01 17:35:59.72	136.21	8.17	-45.4	-45.7	12.8	0.00e+00	0	39	0	1199570944	58	14145
2026-01-01 17:36:00.72	136.17	8.26	-45.4	-45.7	12.9	0.00e+00	0	39	0	1275068416	58	14196
2026-01-01 17:36:01.72	136.12	8.35	-45.5	-45.8	12.8	0.00e+00	0	39	0	1350565888	58	14327
2026-01-01 17:36:02.72	136.07	8.45	-45.3	-45.6	12.9	0.00e+00	0	39	0	1426063360	57	14818
2026-01-01 17:36:03.73	136.02	8.54	-45.3	-45.6	12.9	0.00e+00	0	40	0	1501560832	57	14918
2026-01-01 17:36:04.73	135.97	8.64	-45.2	-45.5	12.9	0.00e+00	0	40	0	1577058304	57	14641
2026-01-01 17:36:05.73	135.92	8.74	-45.1	-45.4	13.0	0.00e+00	0	40	0	1652555776	57	14528
2026-01-01 17:36:06.74	135.87	8.83	-45.2	-45.5	13.0	0.00e+00	0	40	0	1728053248	57	14677
2026-01-01 17:36:07.74	135.82	8.93	-45.2	-45.5	13.0	0.00e+00	0	40	0	1795162112	57	14628
2026-01-01 17:36:08.74	135.77	9.03	-45.0	-45.3	13.1	0.00e+00	0	40	0	1870659584	57	14345
2026-01-01 17:36:09.74	135.72	9.13	-45.2	-45.5	13.0	0.00e+00	0	40	0	1946157056	57	14628
2026-01-01 17:36:10.75	135.67	9.23	-45.0	-45.3	13.1	0.00e+00	0	40	0	2021654528	57	14307
2026-01-01 17:36:11.75	135.62	9.32	-45.1	-45.4	13.0	0.00e+00	0	40	0	2097152000	57	14509
2026-01-01 17:36:12.75	135.57	9.42	-45.0	-45.3	13.1	0.00e+00	0	40	0	2172649472	57	14413
2026-01-01 17:36:13.76	135.51	9.53	-44.9	-45.1	13.1	0.00e+00	0	40	0	2256535552	56	14941
2026-01-01 17:36:14.77	135.46	9.63	-44.8	-45.1	13.2	0.00e+00	0	40	0	2323644416	56	14875
2026-01-01 17:36:15.78	135.40	9.73	-44.9	-45.2	13.2	0.00e+00	0	40	0	2399141888	56	14980
2026-01-01 17:36:16.78	135.35	9.83	-44.9	-45.2	13.2	0.00e+00	0	40	0	2474639360	56	14973
2026-01-01 17:36:17.78	135.29	9.93	-44.8	-45.1	13.2	0.00e+00	0	40	0	2550136832	56	14852
2026-01-01 17:36:18.79	135.24	10.04	-44.7	-45.0	13.2	0.00e+00	0	40	0	2625634304	56	14704
2026-01-01 17:36:19.78	135.18	10.14	-44.7	-45.0	13.3	0.00e+00	0	40	0	2701131776	56	14635
2026-01-01 17:36:20.79	135.13	10.24	-44.7	-45.0	13.2	0.00e+00	0	40	0	2776629248	56	14728
2026-01-01 17:36:21.80	135.07	10.35	-44.8	-45.0	13.3	0.00e+00	0	40	0	2852126720	56	14751
2026-01-01 17:36:22.80	135.01	10.45	-44.8	-45.1	13.3	0.00e+00	0	40	0	2927624192	56	14786
2026-01-01 17:36:23.80	134.95	10.56	-44.8	-45.1	13.2	0.00e+00	0	40	0	3003121664	56	14891
2026-01-01 17:36:24.80	134.89	10.67	-44.7	-44.9	13.3	0.00e+00	0	40	0	3078619136	56	14575
2026-01-01 17:36:25.80	134.84	10.77	-44.5	-44.8	13.4	0.00e+00	0	40	0	3154116608	56	14351
2026-01-01 17:36:26.80	134.78	10.88	-44.4	-44.6	13.4	0.00e+00	0	40	0	3229614080	56	14085
2026-01-01 17:36:27.80	134.72	10.99	-44.4	-44.7	13.4	0.00e+00	0	40	0	3305111552	55	15080
2026-01-01 17:36:28.81	134.65	11.10	-44.5	-44.8	13.4	0.00e+00	0	40	0	3380609024	55	15153
2026-01-01 17:36:29.81	134.59	11.21	-44.4	-44.7	13.4	0.00e+00	0	40	0	3456106496	55	15018
2026-01-01 17:36:30.81	134.53	11.32	-44.4	-44.7	13.4	0.00e+00	0	40	0	3531603968	55	15080
2026-01-01 17:36:31.81	134.47	11.43	-44.3	-44.6	13.5	0.00e+00	0	40	0	3607101440	55	14835
2026-01-01 17:36:32.82	134.40	11.54	-44.3	-44.6	13.5	0.00e+00	0	40	0	3682598912	55	14797
2026-01-01 17:36:33.83	134.34	11.65	-44.3	-44.5	13.5	0.00e+00	0	40	0	3758096384	55	14772
2026-01-01 17:36:34.84	134.27	11.76	-44.1	-44.4	13.5	0.00e+00	0	40	0	3833593856	55	14550
2026-01-01 17:36:35.85	134.21	11.88	-44.1	-44.3	13.5	0.00e+00	0	40	0	3909091328	55	14400
2026-01-01 17:36:36.85	134.14	11.99	-44.1	-44.3	13.6	0.00e+00	0	40	0	3984588800	55	14399
2026-01-01 17:36:37.85	134.08	12.11	-44.1	-44.4	13.6	0.00e+00	0	41	0	4060086272	55	14460
2026-01-01 17:36:38.86	134.01	12.22	-44.0	-44.3	13.6	0.00e+00	0	40	0	4135583744	55	14291
2026-01-01 17:36:39.87	133.94	12.34	-44.0	-44.2	13.6	0.00e+00	0	40	0	4211081216	55	14273
2026-01-01 17:36:40.87	133.87	12.45	-44.0	-44.2	13.6	0.00e+00	0	40	0	4286578688	55	14228
2026-01-01 17:36:41.88	133.80	12.57	-43.9	-44.2	13.6	0.00e+00	0	40	0	4362076160	55	14225
2026-01-01 17:36:42.88	133.73	12.69	-43.9	-44.1	13.7	0.00e+00	0	40	0	4437573632	55	14108
2026-01-01 17:36:43.88	133.66	12.81	-43.9	-44.1	13.7	0.00e+00	0	41	0	4513071104	54	14916
2026-01-01 17:36:44.89	133.59	12.93	-43.8	-44.1	13.7	0.00e+00	0	41	0	4588568576	54	14890
2026-01-01 17:36:45.89	133.52	13.05	-43.9	-44.1	13.7	0.00e+00	0	40	0	4664066048	54	14928
2026-01-01 17:36:46.89	133.44	13.17	-43.7	-44.0	13.7	0.00e+00	0	41	0	4731174912	54	14624
2026-01-01 17:36:47.89	133.37	13.29	-43.8	-44.1	13.7	0.00e+00	0	41	0	4806672384	54	14818
2026-01-01 17:36:48.90	133.30	13.41	-43.7	-44.0	13.7	0.00e+00	0	41	0	4882169856	54	14609
2026-01-01 17:36:49.90	133.22	13.54	-43.6	-43.9	13.8	0.00e+00	0	41	0	4957667328	54	14462
2026-01-01 17:36:50.91	133.14	13.66	-43.7	-43.9	13.8	0.00e+00	0	41	0	5041553408	54	14546
2026-01-01 17:36:51.92	133.07	13.79	-43.7	-43.9	13.8	0.00e+00	0	41	0	5117050880	54	14544
2026-01-01 17:36:52.92	132.99	13.91	-43.6	-43.8	13.8	0.00e+00	0	41	0	5192548352	54	14423
2026-01-01 17:36:53.93	132.91	14.04	-43.5	-43.7	13.9	0.00e+00	0	40	0	5268045824	54	14254
2026-01-01 17:36:54.94	132.83	14.17	-43.5	-43.7	13.9	0.00e+00	0	41	0	5335154688	54	14247
2026-01-01 17:36:55.94	132.75	14.30	-43.5	-43.8	13.9	0.00e+00	0	41	0	5410652160	54	14296
2026-01-01 17:36:56.94	132.67	14.42	-43.3	-43.6	13.9	0.00e+00	0	41	0	5486149632	53	14779
2026-01-01 17:36:57.95	132.59	14.56	-43.4	-43.7	13.9	0.00e+00	0	41	0	5561647104	53	14959
2026-01-01 17:36:58.96	132.50	14.69	-43.5	-43.7	13.9	0.00e+00	0	41	0	5645533184	53	15096
2026-01-01 17:36:59.96	132.42	14.82	-43.3	-43.5	13.9	0.00e+00	0	41	0	5721030656	53	14775
2026-01-01 17:37:00.97	132.34	14.95	-43.1	-43.4	14.0	0.00e+00	0	41	0	5796528128	53	14477
2026-01-01 17:37:01.97	132.25	15.08	-43.2	-43.4	14.0	0.00e+00	0	41	0	5863636992	53	14567
2026-01-01 17:37:02.97	132.16	15.22	-43.1	-43.4	14.0	0.00e+00	0	41	0	5939134464	53	14445
2026-01-01 17:37:03.98	132.08	15.35	-43.1	-43.4	14.0	0.00e+00	0	41	0	6014631936	53	14467
2026-01-01 17:37:04.98	131.99	15.49	-43.0	-43.2	14.0	0.00e+00	0	41	0	6090129408	53	14271
2026-01-01 17:37:05.98	131.90	15.63	-43.1	-43.3	14.0	0.00e+00	0	41	0	6165626880	53	14376
2026-01-01 17:37:06.98	131.81	15.76	-43.1	-43.3	14.0	0.00e+00	0	41	0	6241124352	53	14359
2026-01-01 17:37:07.98	131.72	15.90	-43.1	-43.4	14.0	0.00e+00	0	41	0	6316621824	53	14450
2026-01-01 17:37:08.98	131.62	16.04	-43.0	-43.2	14.0	0.00e+00	0	41	0	6392119296	53	14266
2026-01-01 17:37:09.98	131.53	16.18	-42.8	-43.1	14.1	0.00e+00	0	41	0	6467616768	52	14858
2026-01-01 17:37:10.99	131.44	16.32	-42.8	-43.0	14.1	0.00e+00	0	41	0	6543114240	52	14721
2026-01-01 17:37:11.99	131.34	16.47	-42.8	-43.1	14.1	0.00e+00	0	41	0	6618611712	52	14848
2026-01-01 17:37:12.99	131.24	16.61	-42.8	-43.1	14.1	0.00e+00	0	41	0	6694109184	52	14793
2026-01-01 17:37:14.00	131.15	16.76	-42.7	-42.9	14.2	0.00e+00	0	41	0	6769606656	52	14590
2026-01-01 17:37:15.01	131.05	16.90	-42.7	-42.9	14.1	0.00e+00	0	41	0	6845104128	52	14533
2026-01-01 17:37:16.01	130.95	17.05	-42.7	-42.9	14.2	0.00e+00	0	41	0	6920601600	52	14561
2026-01-01 17:37:17.01	130.84	17.20	-42.5	-42.8	14.2	0.00e+00	0	41	0	6996099072	52	14344
2026-01-01 17:37:18.01	130.74	17.34	-42.6	-42.8	14.2	0.00e+00	0	41	0	7071596544	52	14391
2026-01-01 17:37:19.02	130.64	17.50	-42.5	-42.7	14.2	0.00e+00	0	41	0	7147094016	52	14228
2026-01-01 17:37:20.03	130.53	17.65	-42.5	-42.7	14.3	0.00e+00	0	41	0	7222591488	52	14216
2026-01-01 17:37:21.04	130.42	17.80	-42.5	-42.7	14.2	0.00e+00	0	41	0	7298088960	52	14238
2026-01-01 17:37:22.04	130.32	17.95	-42.4	-42.6	14.3	0.00e+00	0	41	0	7373586432	52	14054
2026-01-01 17:37:23.04	130.21	18.11	-42.4	-42.6	14.3	0.00e+00	0	41	0	7449083904	51	14873
2026-01-01 17:37:24.05	130.10	18.26	-42.4	-42.6	14.3	0.00e+00	0	41	0	7524581376	51	14937
2026-01-01 17:37:25.06	129.98	18.42	-42.3	-42.6	14.3	0.00e+00	0	41	0	7600078848	51	14822
2026-01-01 17:37:26.07	129.87	18.58	-42.4	-42.7	14.3	0.00e+00	0	41	0	7675576320	51	14979
2026-01-01 17:37:27.07	129.76	18.74	-42.3	-42.5	14.3	0.00e+00	0	41	0	7751073792	51	14775
2026-01-01 17:37:28.07	129.64	18.90	-42.2	-42.4	14.4	0.00e+00	0	41	0	7826571264	51	14537
2026-01-01 17:37:29.07	129.52	19.06	-42.2	-42.4	14.3	0.00e+00	0	41	0	7902068736	51	14604
2026-01-01 17:37:30.08	129.40	19.22	-42.2	-42.4	14.4	0.00e+00	0	41	0	7977566208	51	14584
2026-01-01 17:37:31.08	129.28	19.39	-42.0	-42.3	14.4	0.00e+00	0	41	0	8053063680	51	14307
2026-01-01 17:37:32.09	129.16	19.55	-42.0	-42.2	14.4	0.00e+00	0	41	0	8128561152	51	14268
2026-01-01 17:37:33.09	129.04	19.72	-42.0	-42.2	14.5	0.00e+00	0	41	0	8204058624	51	14229
2026-01-01 17:37:34.09	128.91	19.89	-41.9	-42.2	14.5	0.00e+00	0	41	0	8271167488	51	14180
2026-01-01 17:37:35.09	128.79	20.06	-42.0	-42.2	14.4	0.00e+00	0	41	0	8346664960	51	14204
2026-01-01 17:37:36.10	128.66	20.23	-42.0	-42.2	14.4	0.00e+00	0	41	0	8422162432	51	14227
2026-01-01 17:37:37.10	128.53	20.40	-41.8	-42.1	14.5	0.00e+00	0	41	0	8497659904	50	14788
2026-01-01 17:37:38.11	128.40	20.57	-41.8	-42.1	14.5	0.00e+00	0	41	0	8573157376	50	14796
2026-01-01 17:37:39.11	128.26	20.75	-41.8	-42.0	14.5	0.00e+00	0	41	0	8648654848	50	14674
2026-01-01 17:37:40.11	128.13	20.92	-41.7	-42.0	14.5	0.00e+00	0	41	0	8732540928	50	14616
2026-01-01 17:37:41.11	127.99	21.10	-41.7	-42.0	14.5	0.00e+00	0	41	0	8799649792	50	14621
2026-01-01 17:37:42.11	127.85	21.28	-41.6	-41.8	14.5	0.00e+00	0	41	0	8875147264	50	14427
2026-01-01 17:37:43.12	127.71	21.46	-41.5	-41.7	14.5	0.00e+00	0	41	0	8950644736	50	14258
2026-01-01 17:37:44.12	127.57	21.64	-41.5	-41.7	14.6	0.00e+00	0	41	0	9026142208	50	14241
2026-01-01 17:37:45.12	127.42	21.82	-41.5	-41.7	14.6	0.00e+00	0	41	0	9101639680	50	14195
2026-01-01 17:37:46.13	127.28	22.01	-41.4	-41.6	14.6	0.00e+00	0	41	0	9177137152	50	14058
2026-01-01 17:37:47.14	127.13	22.19	-41.3	-41.6	14.6	0.00e+00	0	41	0	9252634624	49	14786
2026-01-01 17:37:48.14	126.98	22.38	-41.3	-41.6	14.6	0.00e+00	0	41	0	9328132096	49	14786
2026-01-01 17:37:49.14	126.82	22.57	-41.3	-41.6	14.6	0.00e+00	0	41	0	9403629568	49	14829
2026-01-01 17:37:50.14	126.67	22.76	-41.2	-41.5	14.6	0.00e+00	0	41	0	9479127040	49	14645
2026-01-01 17:37:51.14	126.51	22.95	-41.3	-41.5	14.6	0.00e+00	0	41	0	9554624512	49	14715
2026-01-01 17:37:52.15	126.35	23.15	-41.3	-41.5	14.6	0.00e+00	0	41	0	9630121984	49	14718
2026-01-01 17:37:53.15	126.19	23.34	-41.2	-41.4	14.6	0.00e+00	0	41	0	9705619456	49	14517
2026-01-01 17:37:54.14	126.03	23.54	-41.1	-41.3	14.7	0.00e+00	0	41	0	9781116928	49	14439
2026-01-01 17:37:55.14	125.86	23.73	-41.0	-41.2	14.7	0.00e+00	0	41	0	9856614400	49	14225
2026-01-01 17:37:56.14	125.69	23.93	-41.0	-41.2	14.7	0.00e+00	0	41	0	9932111872	49	14191
2026-01-01 17:37:57.15	125.52	24.14	-40.8	-41.1	14.7	0.00e+00	0	41	0	10007609344	48	14807
2026-01-01 17:37:58.15	125.35	24.34	-40.8	-41.0	14.7	0.00e+00	0	41	0	10083106816	48	14776
2026-01-01 17:37:59.15	125.17	24.54	-40.8	-41.0	14.7	0.00e+00	0	41	0	10150215680	48	14670
2026-01-01 17:38:00.16	124.99	24.75	-40.7	-41.0	14.7	0.00e+00	0	41	0	10234101760	48	14634
2026-01-01 17:38:01.16	124.81	24.96	-40.7	-40.9	14.7	0.00e+00	0	41	0	10309599232	48	14578
2026-01-01 17:38:02.16	124.63	25.17	-40.6	-40.9	14.8	0.00e+00	0	41	0	10385096704	48	14449
2026-01-01 17:38:03.17	124.44	25.38	-40.7	-40.9	14.7	0.00e+00	0	41	0	10460594176	48	14589
2026-01-01 17:38:04.17	124.25	25.59	-40.7	-40.9	14.8	0.00e+00	0	41	0	10536091648	48	14563
2026-01-01 17:38:05.17	124.06	25.81	-40.5	-40.8	14.8	0.00e+00	0	41	0	10603200512	48	14291
2026-01-01 17:38:06.18	123.86	26.03	-40.5	-40.8	14.8	0.00e+00	0	41	0	10678697984	48	14306
2026-01-01 17:38:07.18	123.66	26.25	-40.4	-40.6	14.8	0.00e+00	0	41	0	10754195456	48	14067
2026-01-01 17:38:08.19	123.46	26.47	-39.6	-39.9	14.7	0.00e+00	0	41	0	10829692928	46	14470
2026-01-01 17:38:09.19	123.25	26.69	-39.6	-39.8	14.7	0.00e+00	0	41	0	10905190400	46	14394
2026-01-01 17:38:10.20	123.04	26.92	-39.6	-39.8	14.7	0.00e+00	0	41	0	10980687872	46	14422
2026-01-01 17:38:11.20	122.83	27.14	-39.6	-39.8	14.7	0.00e+00	0	41	0	11056185344	46	14399
2026-01-01 17:38:12.20	122.62	27.37	-39.5	-39.7	14.7	0.00e+00	0	41	0	11131682816	46	14243
2026-01-01 17:38:13.20	122.40	27.60	-39.5	-39.7	14.7	0.00e+00	0	41	0	11207180288	46	14180
2026-01-01 17:38:14.21	122.17	27.83	-39.4	-39.7	14.7	0.00e+00	0	41	0	11282677760	46	14136
2026-01-01 17:38:15.22	121.95	28.07	-39.2	-39.5	14.7	0.00e+00	0	41	0	11358175232	45	14648
2026-01-01 17:38:16.22	121.72	28.30	-39.2	-39.4	14.8	0.00e+00	0	41	0	11433672704	45	14553
2026-01-01 17:38:17.23	121.48	28.54	-39.2	-39.4	14.8	0.00e+00	0	41	0	11509170176	45	14542
2026-01-01 17:38:18.23	121.25	28.78	-39.2	-39.4	14.8	0.00e+00	0	41	0	11584667648	45	14507
2026-01-01 17:38:19.24	121.00	29.02	-39.1	-39.4	14.8	0.00e+00	0	41	0	11660165120	45	14444
2026-01-01 17:38:20.25	120.76	29.27	-39.1	-39.3	14.8	0.00e+00	0	41	0	11735662592	45	14393
2026-01-01 17:38:21.25	120.51	29.51	-39.0	-39.2	14.8	0.00e+00	0	41	0	11811160064	45	14248
2026-01-01 17:38:22.26	120.25	29.76	-38.9	-39.1	14.8	0.00e+00	0	41	0	11886657536	45	14068
2026-01-01 17:38:23.26	120.00	30.01	-38.9	-39.1	14.9	0.00e+00	0	41	0	11962155008	45	14019
2026-01-01 17:38:24.26	119.73	30.26	-38.9	-39.2	14.9	0.00e+00	0	41	0	12037652480	45	14127
2026-01-01 17:38:25.27	119.46	30.52	-38.8	-39.0	14.9	0.00e+00	0	41	0	12113149952	44	14679
2026-01-01 17:38:26.26	119.20	30.77	-38.8	-39.0	14.8	0.00e+00	0	41	0	12188647424	44	14702
2026-01-01 17:38:27.27	118.92	31.03	-38.8	-39.1	14.9	0.00e+00	0	41	0	12264144896	44	14784
2026-01-01 17:38:28.27	118.64	31.29	-38.7	-38.9	14.9	0.00e+00	0	41	0	12339642368	44	14594
2026-01-01 17:38:29.28	118.35	31.55	-38.7	-38.9	14.9	0.00e+00	0	41	0	12415139840	44	14579
2026-01-01 17:38:30.28	118.06	31.81	-38.6	-38.9	14.9	0.00e+00	0	41	0	12490637312	44	14458
2026-01-01 17:38:31.28	117.76	32.08	-38.7	-38.9	14.9	0.00e+00	0	41	0	12566134784	44	14545
2026-01-01 17:38:32.28	117.46	32.34	-38.5	-38.8	14.9	0.00e+00	0	41	0	12641632256	44	14335
2026-01-01 17:38:33.28	117.16	32.61	-38.6	-38.8	14.9	0.00e+00	0	41	0	12717129728	44	14424
2026-01-01 17:38:34.28	116.85	32.88	-38.6	-38.8	14.9	0.00e+00	0	41	0	12792627200	44	14352
2026-01-01 17:38:35.29	116.53	33.16	-38.5	-38.8	14.9	0.00e+00	0	41	0	12868124672	44	14311
2026-01-01 17:38:36.29	116.20	33.43	-38.3	-38.5	14.9	0.00e+00	0	41	0	12943622144	43	14760
2026-01-01 17:38:37.29	115.87	33.71	-38.3	-38.5	14.9	0.00e+00	0	41	0	13019119616	43	14651
2026-01-01 17:38:38.30	115.53	33.99	-38.3	-38.5	15.0	0.00e+00	0	41	0	13086228480	43	14715
2026-01-01 17:38:39.30	115.19	34.27	-38.3	-38.6	15.0	0.00e+00	0	41	0	13161725952	43	14800
2026-01-01 17:38:40.30	114.84	34.55	-38.2	-38.4	15.0	0.00e+00	0	41	0	13237223424	43	14517
2026-01-01 17:38:41.30	114.49	34.83	-38.0	-38.2	15.0	0.00e+00	0	41	0	13312720896	43	14246
2026-01-01 17:38:42.31	114.13	35.12	-38.0	-38.2	15.0	0.00e+00	0	41	0	13396606976	43	14213
2026-01-01 17:38:43.31	113.76	35.41	-38.0	-38.2	15.0	0.00e+00	0	41	0	13472104448	43	14252
2026-01-01 17:38:44.32	113.38	35.70	-37.9	-38.1	15.0	0.00e+00	0	41	0	13547601920	43	14053
2026-01-01 17:38:45.32	113.00	35.99	-37.9	-38.1	15.0	0.00e+00	0	41	0	13623099392	42	14846
2026-01-01 17:38:46.33	112.60	36.28	-37.9	-38.1	15.0	0.00e+00	0	41	0	13690208256	42	14872
2026-01-01 17:38:47.33	112.21	36.58	-37.7	-38.0	15.0	0.00e+00	0	41	0	13765705728	42	14626
2026-01-01 17:38:48.33	111.80	36.87	-37.7	-37.9	15.0	0.00e+00	0	41	0	13841203200	42	14595
2026-01-01 17:38:49.34	111.38	37.17	-37.6	-37.9	15.1	0.00e+00	0	41	0	13916700672	42	14452
2026-01-01 17:38:50.34	110.96	37.47	-37.7	-37.9	15.1	0.00e+00	0	41	0	13992198144	42	14524
2026-01-01 17:38:51.34	110.53	37.77	-37.7	-37.9	15.0	0.00e+00	0	41	0	14067695616	42	14496
2026-01-01 17:38:52.35	110.09	38.07	-37.5	-37.7	15.1	0.00e+00	0	41	0	14143193088	42	14242
2026-01-01 17:38:53.35	109.65	38.38	-37.5	-37.8	15.1	0.00e+00	0	41	0	14218690560	42	14315
2026-01-01 17:38:54.35	109.19	38.68	-37.4	-37.7	15.1	0.00e+00	0	41	0	14294188032	42	14114
2026-01-01 17:38:55.37	108.72	38.99	-37.3	-37.6	15.1	0.00e+00	0	41	0	14369685504	41	14782
2026-01-01 17:38:56.37	108.24	39.29	-37.3	-37.5	15.1	0.00e+00	0	41	0	14445182976	41	14752
2026-01-01 17:38:57.37	107.76	39.60	-37.2	-37.4	15.1	0.00e+00	0	41	0	14520680448	41	14577
2026-01-01 17:38:58.38	107.26	39.91	-37.2	-37.4	15.1	0.00e+00	0	41	0	14596177920	41	14547
2026-01-01 17:38:59.38	106.76	40.22	-37.2	-37.4	15.1	0.00e+00	0	41	0	14671675392	41	14500
2026-01-01 17:39:00.38	106.25	40.52	-37.1	-37.4	15.1	0.00e+00	0	41	0	14747172864	41	14441
2026-01-01 17:39:01.38	105.72	40.83	-37.0	-37.3	15.1	0.00e+00	0	41	0	14822670336	41	14305
2026-01-01 17:39:02.39	105.18	41.14	-37.2	-37.4	15.1	0.00e+00	0	41	0	14898167808	41	14514
2026-01-01 17:39:03.40	104.63	41.46	-37.1	-37.3	15.1	0.00e+00	0	41	0	14973665280	41	14321
2026-01-01 17:39:04.41	104.07	41.77	-37.0	-37.2	15.1	0.00e+00	0	41	0	15049162752	41	14262
2026-01-01 17:39:05.41	103.50	42.08	-36.9	-37.1	15.2	0.00e+00	0	41	0	15124660224	41	14107
2026-01-01 17:39:06.42	102.92	42.39	-36.8	-37.1	15.2	0.00e+00	0	41	0	15200157696	40	14807
2026-01-01 17:39:07.42	102.33	42.70	-36.9	-37.2	15.2	0.00e+00	0	42	0	15275655168	40	14973
2026-01-01 17:39:08.42	101.73	43.01	-36.9	-37.1	15.1	0.00e+00	0	41	0	15351152640	40	14905
2026-01-01 17:39:09.42	101.11	43.31	-36.7	-36.9	15.2	0.00e+00	0	41	0	15426650112	40	14600
2026-01-01 17:39:10.43	100.48	43.62	-36.7	-36.9	15.2	0.00e+00	0	41	0	15502147584	40	14561
2026-01-01 17:39:11.42	99.84	43.92	-36.6	-36.9	15.2	0.00e+00	0	41	0	15577645056	40	14466
2026-01-01 17:39:12.42	99.19	44.23	-36.6	-36.8	15.2	0.00e+00	0	41	0	15653142528	40	14380
2026-01-01 17:39:13.43	98.52	44.53	-36.7	-36.9	15.2	0.00e+00	0	41	0	15728640000	40	14507
2026-01-01 17:39:14.43	97.84	44.84	-36.6	-36.8	15.2	0.00e+00	0	41	0	15804137472	40	14319
2026-01-01 17:39:15.43	97.15	45.13	-36.4	-36.7	15.2	0.00e+00	0	41	0	15879634944	40	14155
2026-01-01 17:39:16.44	96.43	45.43	-36.5	-36.7	15.2	0.00e+00	0	41	0	15955132416	40	14225
2026-01-01 17:39:17.44	95.71	45.73	-36.5	-36.7	15.2	0.00e+00	0	41	0	16030629888	40	14160
2026-01-01 17:39:18.44	94.98	46.02	-36.5	-36.7	15.2	0.00e+00	0	41	0	16097738752	40	14243
2026-01-01 17:39:19.45	94.22	46.31	-36.4	-36.6	15.2	0.00e+00	0	41	0	16173236224	40	14087
2026-01-01 17:39:20.46	93.45	46.60	-36.4	-36.6	15.2	0.00e+00	0	41	0	16248733696	40	14043
2026-01-01 17:39:21.46	92.68	46.88	-36.4	-36.6	15.2	0.00e+00	0	41	0	16332619776	39	14844
2026-01-01 17:39:22.46	91.88	47.16	-36.3	-36.5	15.3	0.00e+00	0	41	0	16408117248	39	14680
2026-01-01 17:39:23.47	91.07	47.44	-36.3	-36.6	15.2	0.00e+00	0	41	0	16483614720	39	14794
2026-01-01 17:39:24.48	90.24	47.71	-36.2	-36.4	15.3	0.00e+00	0	41	0	16559112192	39	14604
2026-01-01 17:39:25.48	89.40	47.98	-36.2	-36.4	15.3	0.00e+00	0	41	0	16626221056	39	14568
2026-01-01 17:39:26.49	88.54	48.24	-36.2	-36.4	15.3	0.00e+00	0	41	0	16701718528	39	14561
2026-01-01 17:39:27.49	87.68	48.50	-36.3	-36.5	15.3	0.00e+00	0	41	0	16777216000	39	14670
2026-01-01 17:39:28.49	86.80	48.75	-36.2	-36.4	15.3	0.00e+00	0	41	0	16852713472	39	14555
2026-01-01 17:39:29.50	85.89	49.00	-36.2	-36.4	15.2	0.00e+00	0	41	0	16928210944	39	14565
2026-01-01 17:39:30.50	84.98	49.24	-36.1	-36.3	15.3	0.00e+00	0	41	0	17003708416	39	14412
2026-01-01 17:39:31.51	84.05	49.47	-36.0	-36.2	15.3	0.00e+00	0	42	0	17087594496	39	14239
2026-01-01 17:39:32.52	83.10	49.70	-36.1	-36.3	15.2	0.00e+00	0	41	0	17163091968	39	14410
2026-01-01 17:39:33.52	82.15	49.92	-36.1	-36.3	15.3	0.00e+00	0	41	0	17230200832	39	14356
2026-01-01 17:39:34.52	81.18	50.13	-36.0	-36.3	15.2	0.00e+00	0	41	0	17305698304	39	14308
2026-01-01 17:39:35.53	80.19	50.34	-36.1	-36.3	15.3	0.00e+00	0	41	0	17381195776	39	14410
2026-01-01 17:39:36.54	79.18	50.54	-36.0	-36.3	15.3	0.00e+00	0	41	0	17456693248	39	14289
2026-01-01 17:39:37.54	78.17	50.73	-35.9	-36.2	15.3	0.00e+00	0	41	0	17532190720	39	14129
2026-01-01 17:39:38.54	77.15	50.91	-35.9	-36.2	15.3	0.00e+00	0	41	0	17607688192	39	14125
2026-01-01 17:39:39.55	76.11	51.08	-35.9	-36.1	15.3	0.00e+00	0	41	0	17683185664	39	14097
2026-01-01 17:39:40.55	75.06	51.24	-35.9	-36.1	15.3	0.00e+00	0	41	0	17758683136	39	14104
2026-01-01 17:39:41.56	74.00	51.39	-35.8	-36.1	15.3	0.00e+00	0	41	0	17834180608	38	14817
2026-01-01 17:39:42.57	72.92	51.54	-35.9	-36.1	15.3	0.00e+00	0	41	0	17909678080	38	14909
2026-01-01 17:39:43.58	71.83	51.67	-35.8	-36.1	15.3	0.00e+00	0	41	0	17985175552	38	14800
2026-01-01 17:39:44.58	70.74	51.79	-35.9	-36.1	15.3	0.00e+00	0	41	0	18060673024	38	14855
2026-01-01 17:39:45.58	69.65	51.91	-35.9	-36.1	15.3	0.00e+00	0	41	0	18136170496	38	14905
2026-01-01 17:39:46.58	68.54	52.01	-35.9	-36.1	15.3	0.00e+00	0	41	0	18211667968	38	14911
2026-01-01 17:39:47.58	67.43	52.10	-35.8	-36.0	15.3	0.00e+00	0	41	0	18287165440	38	14667
2026-01-01 17:39:48.59	66.30	52.18	-35.8	-36.0	15.3	0.00e+00	0	41	0	18362662912	38	14735
2026-01-01 17:39:49.59	65.18	52.25	-35.8	-36.0	15.3	0.00e+00	0	41	0	18438160384	38	14671
2026-01-01 17:39:50.59	64.05	52.31	-35.8	-36.1	15.3	0.00e+00	0	41	0	18513657856	38	14796
2026-01-01 17:39:51.60	62.91	52.36	-35.9	-36.1	15.3	0.00e+00	0	41	0	18589155328	38	14836
2026-01-01 17:39:52.60	61.77	52.39	-35.9	-36.2	15.3	0.00e+00	0	41	0	18664652800	38	14951
2026-01-01 17:39:53.60	60.63	52.42	-35.9	-36.1	15.2	0.00e+00	0	41	0	18740150272	38	14926
2026-01-01 17:39:54.61	59.48	52.43	-35.8	-36.0	15.3	0.00e+00	0	41	0	18815647744	38	14663
2026-01-01 17:39:55.61	58.34	52.43	-35.8	-36.0	15.3	0.00e+00	0	41	0	18891145216	38	14764
2026-01-01 17:39:56.62	57.19	52.42	-35.8	-36.0	15.3	0.00e+00	0	41	0	18966642688	38	14704
2026-01-01 17:39:57.62	56.05	52.40	-35.8	-36.0	15.3	0.00e+00	0	41	0	19042140160	38	14692
2026-01-01 17:39:58.63	54.90	52.36	-35.8	-36.0	15.3	0.00e+00	0	41	0	19117637632	38	14745
2026-01-01 17:39:59.64	53.76	52.32	-35.8	-36.0	15.3	0.00e+00	0	41	0	19193135104	38	14717
2026-01-01 17:40:00.65	52.62	52.26	-35.8	-36.0	15.3	0.00e+00	0	41	0	19268632576	38	14719
2026-01-01 17:40:01.65	51.49	52.19	-35.8	-36.1	15.3	0.00e+00	0	42	0	19344130048	38	14786
2026-01-01 17:40:02.64	50.39	52.11	-35.9	-36.1	15.3	0.00e+00	0	41	0	19419627520	38	14905
2026-01-01 17:40:03.65	49.26	52.02	-35.9	-36.2	15.3	0.00e+00	0	41	0	19495124992	38	14961
2026-01-01 17:40:04.65	48.16	51.92	-35.9	-36.1	15.3	0.00e+00	0	41	0	19570622464	38	14923
2026-01-01 17:40:05.66	47.05	51.81	-35.9	-36.1	15.3	0.00e+00	0	41	0	19637731328	38	14850
2026-01-01 17:40:06.66	45.96	51.69	-35.9	-36.1	15.3	0.00e+00	0	41	0	19721617408	38	14890
2026-01-01 17:40:07.66	44.88	51.56	-36.0	-36.2	15.2	0.00e+00	0	41	0	19797114880	38	14970
2026-01-01 17:40:08.67	43.81	51.42	-36.0	-36.2	15.2	0.00e+00	0	41	0	19872612352	38	15087
2026-01-01 17:40:09.67	42.75	51.27	-35.9	-36.2	15.2	0.00e+00	0	41	0	19948109824	38	14953
2026-01-01 17:40:10.68	41.69	51.10	-36.0	-36.2	15.2	0.00e+00	0	41	0	20023607296	38	15018
2026-01-01 17:40:11.68	40.66	50.94	-36.1	-36.3	15.2	0.00e+00	0	41	0	20099104768	38	15203
2026-01-01 17:40:12.70	39.61	50.75	-36.0	-36.2	15.3	0.00e+00	0	41	0	20166213632	38	15066
2026-01-01 17:40:13.70	38.61	50.57	-36.0	-36.2	15.3	0.00e+00	0	41	0	20241711104	38	15075
2026-01-01 17:40:14.71	37.60	50.37	-36.0	-36.3	15.3	0.00e+00	0	41	0	20325597184	38	15126
2026-01-01 17:40:15.72	36.61	50.17	-36.1	-36.3	15.2	0.00e+00	0	41	0	20401094656	38	15241
2026-01-01 17:40:16.72	35.64	49.96	-36.1	-36.3	15.2	0.00e+00	0	41	0	20476592128	38	15247
2026-01-01 17:40:17.73	34.67	49.73	-36.1	-36.3	15.3	0.00e+00	0	41	0	20552089600	38	15285
2026-01-01 17:40:18.74	33.72	49.51	-36.1	-36.4	15.2	0.00e+00	0	41	0	20627587072	38	15305
2026-01-01 17:40:19.74	32.80	49.28	-36.1	-36.3	15.2	0.00e+00	0	41	0	20703084544	38	15275
2026-01-01 17:40:20.75	31.88	49.04	-36.2	-36.4	15.3	0.00e+00	0	41	0	20770193408	38	15389
2026-01-01 17:40:21.75	30.98	48.79	-36.3	-36.5	15.3	0.00e+00	0	41	0	20845690880	38	15610
2026-01-01 17:40:22.76	30.09	48.54	-36.3	-36.5	15.3	0.00e+00	0	41	0	20929576960	38	15554
2026-01-01 17:40:23.76	29.22	48.28	-36.3	-36.5	15.3	0.00e+00	0	41	0	21005074432	38	15575
2026-01-01 17:40:24.76	28.37	48.02	-36.3	-36.5	15.3	0.00e+00	0	41	0	21080571904	38	15592
2026-01-01 17:40:25.77	27.52	47.76	-36.3	-36.5	15.2	0.00e+00	0	41	0	21156069376	38	15565
2026-01-01 17:40:26.77	26.70	47.49	-36.3	-36.5	15.2	0.00e+00	0	41	0	21231566848	38	15641
2026-01-01 17:40:27.77	25.89	47.21	-36.4	-36.6	15.2	0.00e+00	0	41	0	21298675712	38	15694
2026-01-01 17:40:28.77	25.10	46.94	-36.4	-36.7	15.2	0.00e+00	0	41	0	21374173184	38	15851
2026-01-01 17:40:29.78	24.31	46.65	-36.5	-36.8	15.2	0.00e+00	0	41	0	21449670656	38	16028
2026-01-01 17:40:30.78	23.55	46.37	-36.5	-36.7	15.2	0.00e+00	0	41	0	21525168128	38	15984
2026-01-01 17:40:31.79	22.79	46.08	-36.6	-36.8	15.2	0.00e+00	0	41	0	21600665600	39	15229
2026-01-01 17:40:32.80	22.05	45.78	-36.5	-36.8	15.2	0.00e+00	0	41	0	21676163072	39	15161
2026-01-01 17:40:33.80	21.33	45.49	-36.6	-36.8	15.2	0.00e+00	0	41	0	21751660544	39	15246
2026-01-01 17:40:34.81	20.62	45.19	-36.6	-36.9	15.2	0.00e+00	0	41	0	21827158016	39	15320
2026-01-01 17:40:35.81	19.92	44.89	-36.7	-37.0	15.2	0.00e+00	0	41	0	21902655488	39	15504
2026-01-01 17:40:36.81	19.24	44.59	-36.9	-37.1	15.2	0.00e+00	0	41	0	21978152960	39	15751
2026-01-01 17:40:37.82	18.57	44.29	-36.8	-37.0	15.2	0.00e+00	0	41	0	22053650432	39	15544
2026-01-01 17:40:38.82	17.91	43.98	-36.9	-37.1	15.2	0.00e+00	0	41	0	22129147904	39	15773
2026-01-01 17:40:39.83	17.27	43.68	-36.8	-37.0	15.2	0.00e+00	0	41	0	22204645376	39	15637
2026-01-01 17:40:40.83	16.64	43.37	-36.9	-37.1	15.2	0.00e+00	0	41	0	22280142848	39	15832
2026-01-01 17:40:41.84	16.02	43.06	-36.9	-37.1	15.1	0.00e+00	0	41	0	22355640320	39	15814
2026-01-01 17:40:42.84	15.41	42.75	-36.9	-37.2	15.1	0.00e+00	0	42	0	22431137792	39	15848
2026-01-01 17:40:43.85	14.82	42.44	-37.0	-37.3	15.1	0.00e+00	0	41	0	22506635264	39	16073
2026-01-01 17:40:44.86	14.23	42.13	-37.1	-37.3	15.2	0.00e+00	0	41	0	22582132736	40	15255
2026-01-01 17:40:45.86	13.66	41.82	-37.1	-37.3	15.2	0.00e+00	0	41	0	22657630208	40	15250
2026-01-01 17:40:46.86	13.11	41.52	-37.1	-37.3	15.1	0.00e+00	0	41	0	22733127680	40	15201
2026-01-01 17:40:47.86	12.56	41.21	-37.1	-37.3	15.1	0.00e+00	0	41	0	22808625152	40	15269
2026-01-01 17:40:48.86	12.03	40.90	-37.2	-37.4	15.1	0.00e+00	0	41	0	22884122624	40	15456
2026-01-01 17:40:49.87	11.50	40.59	-37.3	-37.6	15.1	0.00e+00	0	41	0	22959620096	40	15695
2026-01-01 17:40:50.87	10.98	40.28	-37.3	-37.5	15.1	0.00e+00	0	41	0	23035117568	40	15641
2026-01-01 17:40:51.87	10.48	39.97	-37.3	-37.5	15.2	0.00e+00	0	41	0	23110615040	40	15580
2026-01-01 17:40:52.87	9.99	39.67	-37.3	-37.6	15.1	0.00e+00	0	41	0	23186112512	40	15675
2026-01-01 17:40:53.87	9.50	39.36	-37.4	-37.6	15.1	0.00e+00	0	41	0	23261609984	40	15761
2026-01-01 17:40:54.88	9.02	39.06	-37.5	-37.7	15.1	0.00e+00	0	41	0	23337107456	40	15991
2026-01-01 17:40:55.88	8.56	38.75	-37.5	-37.8	15.1	0.00e+00	0	41	0	23412604928	40	16041
2026-01-01 17:40:56.89	8.10	38.45	-37.5	-37.7	15.1	0.00e+00	0	41	0	23488102400	40	15943
2026-01-01 17:40:57.89	7.65	38.15	-37.6	-37.8	15.1	0.00e+00	0	42	0	23563599872	40	16168
2026-01-01 17:40:58.90	7.21	37.84	-37.6	-37.8	15.1	0.00e+00	0	41	0	23639097344	41	15236
2026-01-01 17:40:59.91	6.77	37.54	-37.7	-37.9	15.1	0.00e+00	0	42	0	23706206208	41	15348
2026-01-01 17:41:00.91	6.35	37.24	-37.7	-38.0	15.1	0.00e+00	0	42	0	23790092288	41	15499
2026-01-01 17:41:01.92	5.93	36.94	-37.7	-37.9	15.1	0.00e+00	0	41	0	23865589760	41	15443
2026-01-01 17:41:02.92	5.53	36.65	-37.7	-38.0	15.1	0.00e+00	0	41	0	23941087232	41	15507
2026-01-01 17:41:03.92	5.13	36.36	-37.9	-38.2	15.0	0.00e+00	0	42	0	24016584704	41	15887
2026-01-01 17:41:04.93	4.74	36.06	-37.9	-38.1	15.0	0.00e+00	0	41	0	24092082176	41	15768
2026-01-01 17:41:05.92	4.36	35.78	-37.9	-38.1	15.0	0.00e+00	0	42	0	24159191040	41	15800
2026-01-01 17:41:06.93	3.98	35.48	-38.0	-38.2	15.0	0.00e+00	0	42	0	24243077120	41	15893
2026-01-01 17:41:07.93	3.61	35.20	-38.0	-38.3	15.0	0.00e+00	0	41	0	24310185984	41	16084
2026-01-01 17:41:08.93	3.25	34.91	-38.1	-38.4	15.0	0.00e+00	0	42	0	24385683456	42	15304
2026-01-01 17:41:09.93	2.89	34.63	-38.1	-38.3	15.0	0.00e+00	0	42	0	24461180928	42	15261
2026-01-01 17:41:10.93	2.55	34.35	-38.1	-38.4	15.0	0.00e+00	0	42	0	24536678400	42	15338
2026-01-01 17:41:11.94	2.20	34.07	-38.2	-38.5	15.0	0.00e+00	0	42	0	24612175872	42	15511
2026-01-01 17:41:12.94	1.86	33.79	-38.3	-38.5	15.0	0.00e+00	0	41	0	24687673344	42	15584
2026-01-01 17:41:13.94	1.53	33.51	-38.3	-38.5	15.0	0.00e+00	0	41	0	24763170816	42	15599
2026-01-01 17:41:14.95	1.21	33.24	-38.3	-38.6	15.0	0.00e+00	0	41	0	24838668288	42	15700
2026-01-01 17:41:15.95	0.89	32.97	-38.5	-38.7	14.9	0.00e+00	0	42	0	24914165760	42	15972
2026-01-01 17:41:16.96	0.58	32.69	-38.5	-38.7	15.0	0.00e+00	0	41	0	24989663232	42	15973
2026-01-01 17:41:17.96	0.27	32.42	-38.6	-38.8	15.0	0.00e+00	0	41	0	25065160704	42	16094
2026-01-01 17:41:18.96	359.97	32.16	-38.6	-38.8	15.0	0.00e+00	0	41	0	25140658176	43	15283
2026-01-01 17:41:19.96	359.67	31.89	-38.6	-38.8	15.0	0.00e+00	0	42	0	25216155648	43	15207
2026-01-01 17:41:20.96	359.38	31.63	-38.6	-38.8	14.9	0.00e+00	0	42	0	25291653120	43	15277
2026-01-01 17:41:21.96	359.10	31.37	-38.8	-39.0	14.9	0.00e+00	0	42	0	25367150592	43	15566
2026-01-01 17:41:22.97	358.81	31.11	-38.8	-39.0	14.9	0.00e+00	0	41	0	25442648064	43	15545
2026-01-01 17:41:23.97	358.54	30.86	-38.8	-39.0	14.9	0.00e+00	0	41	0	25518145536	43	15591
2026-01-01 17:41:24.97	358.27	30.60	-38.8	-39.0	14.9	0.00e+00	0	41	0	25593643008	43	15603
2026-01-01 17:41:25.98	358.00	30.35	-38.9	-39.1	14.9	0.00e+00	0	42	0	25669140480	43	15722
2026-01-01 17:41:26.98	357.73	30.10	-38.9	-39.1	14.9	0.00e+00	0	41	0	25744637952	43	15813
2026-01-01 17:41:27.98	357.48	29.85	-38.9	-39.2	14.8	0.00e+00	0	42	0	25820135424	43	15894
2026-01-01 17:41:28.98	357.22	29.60	-39.0	-39.3	14.8	0.00e+00	0	42	0	25895632896	43	16056
2026-01-01 17:41:29.98	356.98	29.36	-39.0	-39.2	14.8	0.00e+00	0	41	0	25971130368	43	16007
2026-01-01 17:41:30.98	356.73	29.11	-39.1	-39.3	14.8	0.00e+00	0	42	0	26038239232	44	15269
2026-01-01 17:41:31.99	356.49	28.87	-39.1	-39.4	14.8	0.00e+00	0	42	0	26113736704	44	15323
2026-01-01 17:41:32.99	356.25	28.63	-39.2	-39.4	14.8	0.00e+00	0	42	0	26189234176	44	15442
2026-01-01 17:41:34.00	356.02	28.39	-39.2	-39.5	14.8	0.00e+00	0	42	0	26264731648	44	15485
2026-01-01 17:41:35.00	355.79	28.16	-39.3	-39.6	14.8	0.00e+00	0	42	0	26340229120	44	15727
2026-01-01 17:41:36.01	355.56	27.92	-39.3	-39.6	14.8	0.00e+00	0	42	0	26415726592	44	15653
2026-01-01 17:41:37.01	355.34	27.69	-39.3	-39.6	14.8	0.00e+00	0	42	0	26491224064	44	15682
2026-01-01 17:41:38.01	355.12	27.46	-39.4	-39.7	14.8	0.00e+00	0	42	0	26575110144	44	15888
2026-01-01 17:41:39.01	354.90	27.24	-39.5	-39.7	14.8	0.00e+00	0	42	0	26642219008	44	15973
2026-01-01 17:41:40.01	354.69	27.01	-39.5	-39.7	14.7	0.00e+00	0	42	0	26717716480	44	15983
2026-01-01 17:41:41.01	354.48	26.79	-39.5	-39.8	14.8	0.00e+00	0	42	0	26793213952	44	16024
2026-01-01 17:41:42.01	354.28	26.56	-39.6	-39.8	14.7	0.00e+00	0	42	0	26868711424	44	16174
2026-01-01 17:41:43.02	354.07	26.34	-39.7	-39.9	14.7	0.00e+00	0	42	0	26944208896	45	15368
2026-01-01 17:41:44.02	353.88	26.12	-39.7	-39.9	14.7	0.00e+00	0	41	0	27019706368	45	15468
2026-01-01 17:41:45.03	353.68	25.91	-39.7	-40.0	14.8	0.00e+00	0	41	0	27095203840	45	15493
2026-01-01 17:41:46.03	353.49	25.69	-39.8	-40.1	14.7	0.00e+00	0	42	0	27170701312	45	15722
2026-01-01 17:41:47.04	353.29	25.48	-39.9	-40.2	14.7	0.00e+00	0	42	0	27246198784	45	15855
2026-01-01 17:41:48.04	353.11	25.27	-39.9	-40.1	14.7	0.00e+00	0	42	0	27321696256	45	15736
2026-01-01 17:41:49.03	352.93	25.06	-40.0	-40.2	14.7	0.00e+00	0	42	0	27397193728	45	15986
2026-01-01 17:41:50.04	352.74	24.85	-40.0	-40.2	14.6	0.00e+00	0	41	0	27472691200	45	15958
2026-01-01 17:41:51.04	352.56	24.64	-40.0	-40.2	14.6	0.00e+00	0	41	0	27548188672	45	15977
2026-01-01 17:41:52.05	352.39	24.44	-40.0	-40.3	14.6	0.00e+00	0	42	0	27623686144	45	16072
2026-01-01 17:41:53.04	352.21	24.24	-40.1	-40.3	14.6	0.00e+00	0	42	0	27699183616	45	16186
2026-01-01 17:41:54.05	352.04	24.03	-40.1	-40.3	14.6	0.00e+00	0	42	0	27774681088	45	16188
2026-01-01 17:41:55.06	351.87	23.83	-40.2	-40.4	14.6	0.00e+00	0	42	0	27850178560	46	15464
2026-01-01 17:41:56.05	351.71	23.64	-40.3	-40.5	14.6	0.00e+00	0	41	0	27917287424	46	15589
2026-01-01 17:41:57.06	351.54	23.44	-40.4	-40.6	14.6	0.00e+00	0	41	0	27992784896	46	15821
2026-01-01 17:41:58.06	351.38	23.24	-40.3	-40.6	14.6	0.00e+00	0	41	0	28076670976	46	15695
2026-01-01 17:41:59.06	351.22	23.05	-40.4	-40.6	14.5	0.00e+00	0	42	0	28152168448	46	15815
2026-01-01 17:42:00.07	351.06	22.86	-40.5	-40.8	14.5	0.00e+00	0	42	0	28227665920	46	16023
2026-01-01 17:42:01.08	350.91	22.67	-40.5	-40.7	14.5	0.00e+00	0	42	0	28303163392	46	15999
2026-01-01 17:42:02.08	350.75	22.48	-40.5	-40.7	14.6	0.00e+00	0	41	0	28378660864	46	15996
2026-01-01 17:42:03.08	350.60	22.29	-40.6	-40.9	14.5	0.00e+00	0	41	0	28454158336	47	15333
2026-01-01 17:42:04.09	350.45	22.10	-40.6	-40.8	14.5	0.00e+00	0	42	0	28521267200	47	15273
2026-01-01 17:42:05.10	350.31	21.92	-40.6	-40.9	14.5	0.00e+00	0	42	0	28596764672	47	15365
2026-01-01 17:42:06.10	350.16	21.74	-40.7	-41.0	14.5	0.00e+00	0	41	0	28672262144	47	15488
2026-01-01 17:42:07.11	350.02	21.55	-40.7	-40.9	14.5	0.00e+00	0	42	0	28756148224	47	15458
2026-01-01 17:42:08.11	349.88	21.37	-40.8	-41.1	14.4	0.00e+00	0	42	0	28831645696	47	15684
2026-01-01 17:42:09.11	349.74	21.20	-40.9	-41.2	14.4	0.00e+00	0	41	0	28907143168	47	15860
2026-01-01 17:42:10.12	349.60	21.02	-40.9	-41.1	14.4	0.00e+00	0	42	0	28982640640	47	15773
2026-01-01 17:42:11.12	349.47	20.84	-41.0	-41.2	14.4	0.00e+00	0	42	0	29049749504	47	15923
2026-01-01 17:42:12.13	349.33	20.67	-41.1	-41.3	14.4	0.00e+00	0	42	0	29125246976	47	16126
2026-01-01 17:42:13.12	349.20	20.50	-41.8	-42.0	14.6	0.00e+00	0	42	0	29200744448	49	15577
2026-01-01 17:42:14.13	349.07	20.32	-41.8	-42.1	14.5	0.00e+00	0	41	0	29276241920	49	15682
2026-01-01 17:42:15.14	348.94	20.15	-41.9	-42.1	14.5	0.00e+00	0	42	0	29351739392	49	15831
2026-01-01 17:42:16.14	348.82	19.98	-41.8	-42.1	14.5	0.00e+00	0	42	0	29427236864	49	15721
2026-01-01 17:42:17.15	348.69	19.81	-42.0	-42.2	14.5	0.00e+00	0	41	0	29502734336	49	16010
2026-01-01 17:42:18.15	348.57	19.65	-42.0	-42.3	14.5	0.00e+00	0	42	0	29578231808	49	16053
2026-01-01 17:42:19.15	348.45	19.48	-42.0	-42.3	14.5	0.00e+00	0	41	0	29653729280	49	16055
2026-01-01 17:42:20.16	348.33	19.32	-42.2	-42.4	14.5	0.00e+00	0	42	0	29729226752	50	15458
2026-01-01 17:42:21.17	348.21	19.15	-42.2	-42.4	14.5	0.00e+00	0	42	0	29804724224	50	15369
2026-01-01 17:42:22.17	348.09	18.99	-42.1	-42.4	14.5	0.00e+00	0	42	0	29880221696	50	15320
2026-01-01 17:42:23.17	347.97	18.83	-42.2	-42.5	14.5	0.00e+00	0	42	0	29955719168	50	15494
2026-01-01 17:42:24.18	347.86	18.67	-42.3	-42.5	14.5	0.00e+00	0	42	0	30031216640	50	15561
2026-01-01 17:42:25.18	347.75	18.52	-42.3	-42.5	14.4	0.00e+00	0	42	0	30106714112	50	15627
2026-01-01 17:42:26.18	347.63	18.36	-42.3	-42.5	14.4	0.00e+00	0	42	0	30182211584	50	15591
2026-01-01 17:42:27.18	347.52	18.21	-42.3	-42.5	14.4	0.00e+00	0	42	0	30257709056	50	15641
2026-01-01 17:42:28.19	347.41	18.05	-42.4	-42.7	14.4	0.00e+00	0	42	0	30333206528	50	15866
2026-01-01 17:42:29.19	347.31	17.90	-42.5	-42.8	14.3	0.00e+00	0	42	0	30408704000	50	16064
2026-01-01 17:42:30.19	347.20	17.75	-42.5	-42.7	14.3	0.00e+00	0	41	0	30484201472	50	15985
2026-01-01 17:42:31.20	347.10	17.59	-42.5	-42.7	14.3	0.00e+00	0	42	0	30559698944	50	16012
2026-01-01 17:42:32.20	346.99	17.44	-42.5	-42.8	14.3	0.00e+00	0	42	0	30635196416	50	16095
2026-01-01 17:42:33.19	346.89	17.30	-42.6	-42.9	14.3	0.00e+00	0	41	0	30710693888	51	15352
2026-01-01 17:42:34.19	346.79	17.15	-42.7	-42.9	14.3	0.00e+00	0	41	0	30786191360	51	15455
2026-01-01 17:42:35.20	346.69	17.00	-42.7	-42.9	14.3	0.00e+00	0	41	0	30861688832	51	15429
2026-01-01 17:42:36.21	346.59	16.86	-42.7	-42.9	14.3	0.00e+00	0	42	0	30937186304	51	15449
2026-01-01 17:42:37.22	346.49	16.71	-42.7	-43.0	14.3	0.00e+00	0	42	0	31012683776	51	15555
2026-01-01 17:42:38.23	346.39	16.57	-42.8	-43.1	14.3	0.00e+00	0	42	0	31088181248	51	15676
2026-01-01 17:42:39.23	346.30	16.42	-42.8	-43.1	14.2	0.00e+00	0	42	0	31163678720	51	15716
2026-01-01 17:42:40.23	346.20	16.28	-42.9	-43.1	14.2	0.00e+00	0	41	0	31239176192	51	15793
2026-01-01 17:42:41.23	346.11	16.14	-43.0	-43.3	14.2	0.00e+00	0	42	0	31314673664	51	16023
2026-01-01 17:42:42.23	346.02	16.00	-43.0	-43.2	14.2	0.00e+00	0	42	0	31390171136	51	15972
2026-01-01 17:42:43.24	345.93	15.86	-43.0	-43.2	14.2	0.00e+00	0	42	0	31457280000	51	15941
2026-01-01 17:42:44.24	345.84	15.73	-43.0	-43.2	14.2	0.00e+00	0	42	0	31532777472	51	16012
2026-01-01 17:42:45.24	345.75	15.59	-43.1	-43.3	14.1	0.00e+00	0	42	0	31608274944	51	16146
2026-01-01 17:42:46.24	345.66	15.45	-43.1	-43.4	14.1	0.00e+00	0	42	0	31683772416	51	16228
2026-01-01 17:42:47.24	345.57	15.32	-43.1	-43.4	14.1	0.00e+00	0	41	0	31759269888	52	15299
2026-01-01 17:42:48.23	345.49	15.19	-43.2	-43.5	14.1	0.00e+00	0	42	0	31834767360	52	15498
2026-01-01 17:42:49.23	345.40	15.05	-43.2	-43.4	14.1	0.00e+00	0	42	0	31910264832	52	15459
2026-01-01 17:42:50.24	345.32	14.92	-43.3	-43.6	14.1	0.00e+00	0	42	0	31985762304	52	15673
2026-01-01 17:42:51.24	345.24	14.79	-43.3	-43.5	14.1	0.00e+00	0	41	0	32061259776	52	15581
2026-01-01 17:42:52.24	345.15	14.66	-43.3	-43.5	14.1	0.00e+00	0	41	0	32136757248	52	15614
2026-01-01 17:42:53.25	345.07	14.53	-43.3	-43.5	14.1	0.00e+00	0	42	0	32212254720	52	15620
2026-01-01 17:42:54.25	344.99	14.40	-43.4	-43.6	14.0	0.00e+00	0	42	0	32287752192	52	15823
2026-01-01 17:42:55.25	344.91	14.27	-43.4	-43.6	14.0	0.00e+00	0	42	0	32363249664	52	15805
2026-01-01 17:42:56.26	344.83	14.14	-43.4	-43.6	14.0	0.00e+00	0	42	0	32438747136	52	15826
2026-01-01 17:42:57.27	344.75	14.02	-43.5	-43.8	14.0	0.00e+00	0	41	0	32514244608	52	16025
2026-01-01 17:42:58.27	344.67	13.89	-43.5	-43.8	14.0	0.00e+00	0	41	0	32589742080	52	16132
2026-01-01 17:42:59.28	344.60	13.77	-43.5	-43.8	14.0	0.00e+00	0	42	0	32665239552	52	16048
2026-01-01 17:43:00.28	344.52	13.64	-43.6	-43.8	13.9	0.00e+00	0	41	0	32740737024	52	16190
2026-01-01 17:43:01.28	344.45	13.52	-43.6	-43.8	13.9	0.00e+00	0	42	0	32816234496	53	15264
2026-01-01 17:43:02.28	344.37	13.40	-60.2	-63.5	3.7	0.00e+00	0	41	104	32883343360	77	36793
2026-01-01 17:43:03.29	344.30	13.28	-60.4	-63.6	3.7	0.00e+00	0	41	104	32883343360	86	22204
2026-01-01 17:43:04.28	344.23	13.16	-60.4	-63.6	3.7	0.00e+00	0	41	104	32883343360	86	22182
2026-01-01 17:43:05.29	344.15	13.03	-60.4	-63.6	3.7	0.00e+00	0	41	104	32883343360	86	22162
2026-01-01 17:43:06.29	344.08	12.92	-60.4	-63.6	3.7	0.00e+00	0	41	104	32883343360	86	22197
2026-01-01 17:43:07.30	344.01	12.80	-60.3	-63.5	3.7	0.00e+00	0	41	104	32883343360	86	22106
2026-01-01 17:43:08.31	343.94	12.68	-60.3	-63.6	3.7	0.00e+00	0	41	104	32883343360	86	22135
2026-01-01 17:43:09.31	343.87	12.56	-60.3	-63.5	3.7	0.00e+00	0	41	104	32883343360	86	22088
2026-01-01 17:43:10.31	343.81	12.44	-60.3	-63.5	3.7	0.00e+00	0	41	104	32883343360	86	22099
2026-01-01 17:43:11.31	343.74	12.33	-60.3	-63.5	3.7	0.00e+00	0	41	104	32883343360	86	21978
2026-01-01 17:43:12.31	343.67	12.21	-60.3	-63.5	3.7	0.00e+00	0	41	104	32883343360	86	21977
2026-01-01 17:43:13.32	343.60	12.10	-60.3	-63.4	3.7	0.00e+00	0	41	104	32883343360	86	21855
2026-01-01 17:43:14.33	343.54	11.98	-60.2	-63.5	3.7	0.00e+00	0	41	104	32883343360	86	21881
2026-01-01 17:43:15.32	343.47	11.87	-60.2	-63.4	3.7	0.00e+00	0	41	104	32883343360	86	21819
2026-01-01 17:43:16.33	343.41	11.76	-60.2	-63.4	3.7	0.00e+00	0	41	104	32883343360	86	21811
2026-01-01 17:43:17.34	343.35	11.65	-60.2	-63.4	3.7	0.00e+00	0	41	104	32883343360	86	21760
2026-01-01 17:43:18.35	343.28	11.53	-60.2	-63.4	3.7	0.00e+00	0	41	104	32883343360	86	21610
2026-01-01 17:43:19.36	343.22	11.42	-60.1	-63.4	3.7	0.00e+00	0	41	104	32883343360	86	21608
2026-01-01 17:43:20.36	343.16	11.31	-60.2	-63.4	3.7	0.00e+00	0	41	104	32883343360	86	21612
2026-01-01 17:43:21.36	343.10	11.20	-60.2	-63.4	3.7	0.00e+00	0	41	104	32883343360	86	21634
2026-01-01 17:43:22.36	343.04	11.10	-60.1	-63.3	3.7	0.00e+00	0	41	104	32883343360	86	21510
2026-01-01 17:43:23.37	342.97	10.99	-60.1	-63.3	3.7	0.00e+00	0	41	104	32883343360	86	21601
2026-01-01 17:43:24.37	342.92	10.88	-60.1	-63.3	3.7	0.00e+00	0	41	104	32883343360	86	21457
2026-01-01 17:43:25.37	342.86	10.77	-60.1	-63.3	3.7	0.00e+00	0	41	104	32883343360	86	21570
2026-01-01 17:43:26.38	342.80	10.67	-60.1	-63.3	3.7	0.00e+00	0	40	104	32883343360	86	21580
2026-01-01 17:43:27.39	342.74	10.56	-60.1	-63.3	3.7	0.00e+00	0	41	104	32883343360	86	21563
2026-01-01 17:43:28.40	342.68	10.45	-60.1	-63.3	3.7	0.00e+00	0	41	104	32883343360	86	21473
2026-01-01 17:43:29.40	342.62	10.35	-60.1	-63.3	3.7	0.00e+00	0	41	104	32883343360	86	21467
2026-01-01 17:43:30.40	342.57	10.24	-60.0	-63.3	3.7	0.00e+00	0	40	104	32883343360	86	21433
2026-01-01 17:43:31.40	342.51	10.14	-60.1	-63.3	3.7	0.00e+00	0	40	104	32883343360	86	21461
2026-01-01 17:43:32.40	342.46	10.04	-60.1	-63.3	3.7	0.00e+00	0	41	104	32883343360	86	21426
2026-01-01 17:43:33.41	342.40	9.94	-60.0	-63.3	3.7	0.00e+00	0	40	104	32883343360	86	21366
2026-01-01 17:43:34.41	342.35	9.83	-60.0	-63.2	3.7	0.00e+00	0	40	104	32883343360	86	21312
2026-01-01 17:43:35.42	342.29	9.73	-60.0	-63.2	3.7	0.00e+00	0	40	104	32883343360	86	21250
2026-01-01 17:43:36.42	342.24	9.63	-60.0	-63.2	3.7	0.00e+00	0	40	104	32883343360	86	21293
2026-01-01 17:43:37.43	342.19	9.53	-60.0	-63.2	3.7	0.00e+00	0	41	104	32883343360	86	21257
2026-01-01 17:43:38.44	342.14	9.43	-60.0	-63.2	3.7	0.00e+00	0	40	104	32883343360	86	21192
2026-01-01 17:43:39.45	342.08	9.33	-60.0	-63.2	3.7	0.00e+00	0	40	104	32883343360	86	21169
2026-01-01 17:43:40.45	342.03	9.23	-60.0	-63.2	3.7	0.00e+00	0	40	104	32883343360	86	21162
2026-01-01 17:43:41.46	341.98	9.13	-59.9	-63.1	3.7	0.00e+00	0	40	104	32883343360	86	21024
2026-01-01 17:43:42.47	341.93	9.03	-59.9	-63.1	3.7	0.00e+00	0	40	104	32883343360	86	21043
2026-01-01 17:43:43.47	341.88	8.94	-59.9	-63.1	3.7	0.00e+00	0	40	104	32883343360	86	21065
2026-01-01 17:43:44.48	341.83	8.84	-59.9	-63.1	3.7	0.00e+00	0	40	104	32883343360	86	21060
2026-01-01 17:43:45.49	341.78	8.74	-59.9	-63.1	3.7	0.00e+00	0	40	104	32883343360	86	20937
2026-01-01 17:43:46.50	341.73	8.65	-59.9	-63.1	3.7	0.00e+00	0	40	104	32883343360	86	20942
2026-01-01 17:43:47.51	341.68	8.55	-59.9	-63.1	3.7	0.00e+00	0	40	104	32883343360	86	21050
2026-01-01 17:43:48.52	341.64	8.45	-59.9	-63.1	3.7	0.00e+00	0	40	104	32883343360	86	20983
2026-01-01 17:43:49.52	341.59	8.36	-59.8	-63.1	3.7	0.00e+00	0	40	104	32883343360	86	20886
2026-01-01 17:43:50.53	341.54	8.27	-59.8	-63.0	3.7	0.00e+00	0	40	104	32883343360	86	20746
2026-01-01 17:43:51.54	341.49	8.17	-59.8	-63.0	3.7	0.00e+00	0	40	104	32883343360	86	20813
2026-01-01 17:43:52.55	341.45	8.08	-59.8	-63.1	3.7	0.00e+00	0	40	104	32883343360	86	20891
2026-01-01 17:43:53.55	341.40	7.99	-59.8	-63.0	3.7	0.00e+00	0	40	104	32883343360	86	20664
2026-01-01 17:43:54.56	341.36	7.89	-59.7	-63.0	3.7	0.00e+00	0	40	104	32883343360	86	20659
2026-01-01 17:43:55.56	341.31	7.80	-59.8	-63.0	3.7	0.00e+00	0	40	104	32883343360	86	20781
2026-01-01 17:43:56.57	341.27	7.71	-59.8	-63.0	3.7	0.00e+00	0	40	104	32883343360	86	20811
2026-01-01 17:43:57.58	341.22	7.62	-59.7	-62.9	3.7	0.00e+00	0	40	104	32883343360	86	20617
2026-01-01 17:43:58.59	341.18	7.53	-59.7	-62.9	3.7	0.00e+00	0	40	104	32883343360	86	20531
2026-01-01 17:43:59.60	341.13	7.44	-59.7	-63.0	3.7	0.00e+00	0	40	104	32883343360	86	20689
2026-01-01 17:44:00.60	341.09	7.35	-59.7	-63.0	3.7	0.00e+00	0	40	104	32883343360	86	20660
2026-01-01 17:44:01.61	341.05	7.26	-59.7	-62.9	3.7	0.00e+00	0	40	104	32883343360	86	20578
2026-01-01 17:44:02.62	341.00	7.17	-59.6	-62.9	3.7	0.00e+00	0	40	104	32883343360	86	20413
2026-01-01 17:44:03.62	340.96	7.08	-59.7	-62.9	3.7	0.00e+00	0	40	104	32883343360	86	20568
2026-01-01 17:44:04.63	340.92	6.99	-59.7	-62.9	3.7	0.00e+00	0	40	104	32883343360	86	20525
2026-01-01 17:44:05.63	340.88	6.90	-59.6	-62.9	3.7	0.00e+00	0	40	104	32883343360	86	20463
2026-01-01 17:44:06.65	340.84	6.81	-59.6	-62.8	3.7	0.00e+00	0	40	104	32883343360	86	20320
2026-01-01 17:44:07.66	340.80	6.73	-59.7	-62.9	3.7	0.00e+00	0	40	104	32883343360	86	20478
2026-01-01 17:44:08.67	340.76	6.64	-59.6	-62.8	3.7	0.00e+00	0	40	104	32883343360	86	20365
2026-01-01 17:44:09.67	340.72	6.55	-59.6	-62.8	3.7	0.00e+00	0	40	104	32883343360	86	20177
2026-01-01 17:44:10.68	340.68	6.47	-59.5	-62.8	3.7	0.00e+00	0	40	104	32883343360	86	20215
2026-01-01 17:44:11.68	340.64	6.38	-59.6	-62.8	3.7	0.00e+00	0	40	104	32883343360	86	20308
2026-01-01 17:44:12.69	340.60	6.30	-59.6	-62.8	3.7	0.00e+00	0	40	104	32883343360	86	20333
2026-01-01 17:44:13.70	340.56	6.21	-59.5	-62.7	3.7	0.00e+00	0	40	104	32883343360	86	20109
2026-01-01 17:44:14.71	340.52	6.13	-59.5	-62.7	3.7	0.00e+00	0	40	104	32883343360	86	20003
2026-01-01 17:44:15.71	340.48	6.04	-59.6	-62.8	3.7	0.00e+00	0	40	104	32883343360	86	20231
2026-01-01 17:44:16.72	340.44	5.96	-59.5	-62.7	3.7	0.00e+00	0	40	104	32883343360	86	20136
2026-01-01 17:44:17.73	340.41	5.87	-59.5	-62.7	3.7	0.00e+00	0	40	104	32883343360	86	19967
2026-01-01 17:44:18.74	340.37	5.79	-59.4	-62.6	3.7	0.00e+00	0	40	104	32883343360	86	19864
2026-01-01 17:44:19.75	340.33	5.71	-59.5	-62.7	3.7	0.00e+00	0	40	104	32883343360	86	20151
2026-01-01 17:44:20.76	340.30	5.62	-59.5	-62.7	3.7	0.00e+00	0	40	104	32883343360	86	20027
2026-01-01 17:44:21.77	340.26	5.54	-59.4	-62.6	3.7	0.00e+00	0	40	104	32883343360	86	19843
2026-01-01 17:44:22.78	340.22	5.46	-59.3	-62.5	3.7	0.00e+00	0	40	104	32883343360	85	20758
2026-01-01 17:44:23.79	340.19	5.38	-59.5	-62.7	3.7	0.00e+00	0	40	104	32883343360	85	21169
2026-01-01 17:44:24.79	340.15	5.30	-59.4	-62.6	3.7	0.00e+00	0	40	104	32883343360	85	21082
2026-01-01 17:44:25.80	340.12	5.22	-59.3	-62.5	3.7	0.00e+00	0	40	104	32883343360	85	20810
2026-01-01 17:44:26.81	340.08	5.13	-59.2	-62.5	3.7	0.00e+00	0	40	104	32883343360	85	20669
2026-01-01 17:44:27.82	340.05	5.05	-59.4	-62.6	3.7	0.00e+00	0	40	104	32883343360	85	20986
2026-01-01 17:44:28.82	340.01	4.97	-59.6	-62.8	3.7	0.00e+00	0	40	104	32883343360	85	21551
2026-01-01 17:44:29.82	339.98	4.90	-60.2	-63.4	3.7	0.00e+00	0	40	104	32883343360	86	21679
2026-01-01 17:44:30.82	339.94	4.82	-60.6	-63.8	3.7	0.00e+00	0	40	104	32883343360	86	22649
2026-01-01 17:44:31.83	339.91	4.74	-60.8	-64.0	3.7	0.00e+00	0	40	104	32883343360	87	22002
2026-01-01 17:44:32.84	339.88	4.66	-61.0	-64.3	3.7	0.00e+00	0	40	104	32883343360	87	22634
2026-01-01 17:44:33.85	339.84	4.58	-61.2	-64.4	3.7	0.00e+00	0	40	104	32883343360	88	21732
2026-01-01 17:44:34.85	339.81	4.50	-61.3	-64.5	3.7	0.00e+00	0	40	104	32883343360	88	22078
2026-01-01 17:44:35.86	339.78	4.42	-61.4	-64.6	3.7	0.00e+00	0	40	104	32883343360	88	22365
2026-01-01 17:44:36.87	339.75	4.35	-61.6	-64.8	3.7	0.00e+00	0	40	104	32883343360	88	22698
2026-01-01 17:44:37.88	339.71	4.27	-61.6	-64.8	3.7	0.00e+00	0	40	104	32883343360	89	21573
2026-01-01 17:44:38.89	339.68	4.19	-61.7	-64.9	3.7	0.00e+00	0	40	104	32883343360	89	21808
2026-01-01 17:44:39.89	339.65	4.12	-61.7	-65.0	3.7	0.00e+00	0	40	104	32883343360	89	21858
2026-01-01 17:44:40.90	339.62	4.04	-61.8	-65.0	3.7	0.00e+00	0	40	104	32883343360	89	21981
2026-01-01 17:44:41.90	339.59	3.96	-61.8	-65.0	3.7	0.00e+00	0	40	104	32883343360	89	22046
2026-01-01 17:44:42.91	339.56	3.89	-61.8	-65.0	3.7	0.00e+00	0	40	104	32883343360	89	22046
2026-01-01 17:44:43.92	339.52	3.81	-61.9	-65.1	3.7	0.00e+00	0	40	104	32883343360	89	22195
2026-01-01 17:44:44.93	339.49	3.74	-61.9	-65.1	3.7	0.00e+00	0	40	104	32883343360	89	22336
2026-01-01 17:44:45.94	339.46	3.66	-61.9	-65.2	3.7	0.00e+00	0	40	104	32883343360	89	22454
2026-01-01 17:44:46.95	339.43	3.58	-61.9	-65.2	3.7	0.00e+00	0	40	104	32883343360	89	22396
2026-01-01 17:44:47.95	339.40	3.51	-62.0	-65.2	3.7	0.00e+00	0	40	104	32883343360	89	22389
2026-01-01 17:44:48.96	339.37	3.44	-61.9	-65.2	3.7	0.00e+00	0	40	104	32883343360	89	22386
2026-01-01 17:44:49.97	339.34	3.36	-62.0	-65.2	3.7	0.00e+00	0	40	104	32883343360	89	22424
2026-01-01 17:44:50.98	339.32	3.29	-62.0	-65.2	3.7	0.00e+00	0	40	104	32883343360	89	22491
2026-01-01 17:44:51.99	339.29	3.21	-61.9	-65.1	3.7	0.00e+00	0	40	104	32883343360	89	22334
2026-01-01 17:44:53.00	339.26	3.14	-61.9	-65.1	3.7	0.00e+00	0	40	104	32883343360	89	22289
2026-01-01 17:44:54.01	339.23	3.07	-61.9	-65.1	3.7	0.00e+00	0	40	104	32883343360	89	22201
2026-01-01 17:44:55.02	339.20	2.99	-61.9	-65.1	3.7	0.00e+00	0	40	104	32883343360	89	22251
2026-01-01 17:44:56.02	339.17	2.92	-61.8	-65.1	3.7	0.00e+00	0	39	104	32883343360	89	22147
2026-01-01 17:44:57.03	339.14	2.85	-61.8	-65.1	3.7	0.00e+00	0	40	104	32883343360	89	22126
2026-01-01 17:44:58.04	339.12	2.78	-61.8	-65.0	3.7	0.00e+00	0	40	104	32883343360	89	22092
2026-01-01 17:44:59.05	339.09	2.71	-61.8	-65.0	3.7	0.00e+00	0	40	104	32883343360	89	22071
2026-01-01 17:45:00.06	339.06	2.63	-61.8	-65.0	3.7	0.00e+00	0	40	104	32883343360	89	22031
2026-01-01 17:45:01.07	339.03	2.56	-61.8	-65.0	3.7	0.00e+00	0	40	104	32883343360	89	22015
2026-01-01 17:45:02.07	339.01	2.49	-61.8	-65.0	3.7	0.00e+00	0	40	104	32883343360	89	21976
2026-01-01 17:45:03.09	338.98	2.42	-61.8	-65.0	3.7	0.00e+00	0	40	104	32883343360	89	21999
2026-01-01 17:45:04.10	338.95	2.35	-61.8	-65.0	3.7	0.00e+00	0	40	104	32883343360	89	21973
2026-01-01 17:45:05.10	338.93	2.28	-61.8	-65.0	3.7	0.00e+00	0	40	104	32883343360	89	22007
2026-01-01 17:45:06.11	338.90	2.21	-61.8	-65.0	3.7	0.00e+00	0	40	104	32883343360	89	22011
2026-01-01 17:45:07.12	338.87	2.14	-61.8	-65.0	3.7	0.00e+00	0	40	104	32883343360	89	22001
2026-01-01 17:45:08.13	338.85	2.07	-61.8	-65.0	3.7	0.00e+00	0	39	104	32883343360	89	21940

#Closed at: 2026-01-01 17:45:09
#Recorded file [32883 MB]: D:/lorett/data/31004_260101_203443.dat