passes_logs/2026/01/01/R3.2S_Murmansk/R3.2S_Murmansk__20260101_105212_NOAA_20_JPSS-1_rec.log

#Pass ID: 20260101_105212_NOAA 20 (JPSS-1)
#Satellite: NOAA 20 (JPSS-1)
#Configuration: NOAA 20
#almurnet v.1.7.20251203
#Start time: 2026-01-01 10:52:13

#Version: 2.2.20231116
#Station: R3.2S_Murmansk
#Location: 33.079688 lon 68.888172 lat
#TLE: 1 43013U 17073A   26001.09198674  .00000169  00000+0  10130-3 0  9995
#TLE: 2 43013  98.7621 302.1793 0001944  59.5293 300.6075 14.19531878420769

#Time	Az	El	Level	Level2	SNR	BER	BlckErr	Temp	State	Recorded	gain1	gain2
2026-01-01 10:52:13.89	184.98	2.06	-59.8	-75.9	3.8	1.49e+00	0	32	0	0	84	24844
2026-01-01 10:52:14.88	185.02	2.13	-59.8	-76.0	3.8	1.49e+00	0	32	104	0	84	25045
2026-01-01 10:52:15.88	185.06	2.19	-59.8	-75.9	3.8	1.49e+00	0	32	104	0	84	24933
2026-01-01 10:52:16.88	185.10	2.25	-59.8	-75.9	3.8	1.49e+00	0	32	104	0	84	24870
2026-01-01 10:52:17.88	185.15	2.31	-59.8	-75.8	3.8	1.49e+00	0	32	104	0	84	24437
2026-01-01 10:52:18.88	185.19	2.37	-59.8	-75.8	3.8	1.49e+00	0	32	104	0	84	24548
2026-01-01 10:52:19.88	185.23	2.44	-59.8	-75.9	3.8	1.49e+00	0	32	104	0	84	24694
2026-01-01 10:52:20.87	185.27	2.50	-59.8	-75.9	3.8	1.49e+00	0	32	104	0	84	24723
2026-01-01 10:52:21.87	185.31	2.56	-59.8	-75.9	3.8	1.49e+00	0	32	104	0	84	24718
2026-01-01 10:52:22.86	185.36	2.62	-59.8	-75.9	3.8	1.49e+00	0	32	104	0	84	24713
2026-01-01 10:52:23.85	185.40	2.68	-59.6	-76.2	4.5	1.49e+00	0	32	104	0	84	25715
2026-01-01 10:52:24.84	185.44	2.75	-59.8	-75.9	3.8	1.49e+00	0	33	104	0	84	24930
2026-01-01 10:52:25.84	185.48	2.81	-59.8	-75.9	3.8	1.49e+00	0	32	104	0	84	24805
2026-01-01 10:52:26.83	185.52	2.87	-59.8	-75.8	3.8	1.49e+00	0	33	104	0	84	24615
2026-01-01 10:52:27.82	185.57	2.93	-59.8	-75.9	3.8	1.49e+00	0	32	104	0	84	24899
2026-01-01 10:52:28.82	185.61	3.00	-59.8	-75.8	3.8	1.49e+00	0	33	104	0	84	24682
2026-01-01 10:52:29.81	185.65	3.06	-59.8	-75.9	3.8	1.48e+00	0	33	104	0	84	24765
2026-01-01 10:52:30.81	185.70	3.12	-59.8	-75.8	3.8	1.49e+00	0	32	104	0	84	24634
2026-01-01 10:52:31.81	185.74	3.19	-59.8	-75.8	3.8	1.49e+00	0	33	104	0	84	24579
2026-01-01 10:52:32.81	185.79	3.25	-59.8	-75.7	3.8	1.49e+00	0	32	104	0	84	24165
2026-01-01 10:52:33.81	185.83	3.32	-59.8	-75.9	3.8	1.49e+00	0	33	104	0	84	24902
2026-01-01 10:52:34.80	185.87	3.38	-59.8	-75.8	3.8	1.49e+00	0	33	104	0	84	24649
2026-01-01 10:52:35.80	185.92	3.44	-59.8	-75.9	3.8	1.49e+00	0	33	104	0	84	24870
2026-01-01 10:52:36.80	185.96	3.51	-59.8	-75.5	3.8	1.49e+00	0	33	104	0	84	23832
2026-01-01 10:52:37.79	186.01	3.57	-59.7	-74.7	3.8	1.49e+00	0	33	104	0	84	21532
2026-01-01 10:52:38.79	186.05	3.64	-59.7	-75.1	3.8	1.49e+00	0	33	104	0	84	22593
2026-01-01 10:52:39.78	186.10	3.70	-59.6	-72.5	4.2	1.49e+00	0	33	104	0	84	16877
2026-01-01 10:52:40.77	186.14	3.76	-59.7	-73.4	4.0	1.48e+00	0	33	104	0	84	18545
2026-01-01 10:52:41.77	186.19	3.83	-59.6	-72.5	4.2	1.42e+00	0	33	0	0	84	16714
2026-01-01 10:52:42.77	186.23	3.90	-59.6	-72.7	4.1	1.41e+00	0	33	0	0	84	17257
2026-01-01 10:52:43.76	186.28	3.96	-59.6	-72.3	4.2	1.37e+00	0	33	0	0	84	16347
2026-01-01 10:52:44.76	186.32	4.03	-59.6	-72.2	4.3	1.40e+00	0	33	0	0	84	16202
2026-01-01 10:52:45.74	186.37	4.09	-59.6	-72.2	4.3	1.36e+00	0	33	0	0	84	16144
2026-01-01 10:52:46.74	186.42	4.16	-59.6	-72.1	4.3	1.35e+00	0	33	0	0	84	15953
2026-01-01 10:52:47.74	186.46	4.22	-59.4	-71.6	4.4	1.22e+00	81	33	0	1048576	83	16049
2026-01-01 10:52:48.74	186.51	4.29	-59.3	-70.8	4.7	1.07e+00	0	33	0	3145728	83	14622
2026-01-01 10:52:49.74	186.56	4.35	-45.5	-65.9	4.9	6.78e-01	3	33	0	5242880	80	9936
2026-01-01 10:52:50.73	186.60	4.42	-59.3	-70.2	5.0	7.00e-01	0	33	0	5242880	83	13644
2026-01-01 10:52:51.74	186.65	4.49	-59.1	-68.7	5.9	3.43e-01	0	33	0	7340032	83	11468
2026-01-01 10:52:52.73	186.70	4.55	-59.0	-68.1	6.3	3.56e-01	0	33	0	9437184	83	10765
2026-01-01 10:52:53.73	186.75	4.62	-59.0	-67.9	6.4	2.31e-01	0	33	0	10485760	83	10509
2026-01-01 10:52:54.72	186.80	4.69	-59.0	-67.8	6.5	1.84e-01	0	33	0	12582912	83	10387
2026-01-01 10:52:55.71	186.84	4.75	-59.0	-67.6	6.7	1.96e-01	0	33	0	14680064	83	10100
2026-01-01 10:52:56.70	186.89	4.82	-59.0	-67.9	6.4	1.83e-01	0	33	0	14680064	83	10466
2026-01-01 10:52:57.70	186.94	4.89	-59.0	-68.1	6.3	1.93e-01	0	33	0	14680064	83	10705
2026-01-01 10:52:58.70	186.99	4.95	-59.1	-68.6	5.9	2.92e-01	0	33	0	14680064	83	11408
2026-01-01 10:52:59.69	187.04	5.02	-59.2	-69.2	5.6	3.93e-01	0	33	0	15728640	83	12222
2026-01-01 10:53:00.68	187.09	5.09	-58.8	-65.7	8.4	4.73e-01	0	33	0	17825792	83	8151
2026-01-01 10:53:01.69	187.14	5.16	-59.3	-67.7	6.8	6.76e-02	0	33	0	19922944	83	10188
2026-01-01 10:53:02.69	187.19	5.23	-59.6	-72.2	4.3	2.51e-01	92	33	0	22020096	84	16267
2026-01-01 10:53:03.70	187.24	5.30	-59.9	-75.4	3.8	1.44e+00	0	33	104	22020096	84	23496
2026-01-01 10:53:04.71	187.29	5.36	-57.7	-62.0	5.5	1.49e+00	0	33	104	22020096	82	5656
2026-01-01 10:53:05.71	187.34	5.43	-56.7	-60.1	13.4	0.00e+00	0	33	0	23068672	79	5366
2026-01-01 10:53:06.71	187.39	5.50	-56.8	-60.2	13.3	0.00e+00	0	33	0	24117248	79	5433
2026-01-01 10:53:07.71	187.44	5.57	-56.7	-60.0	13.4	7.00e-07	0	33	0	26214400	78	5633
2026-01-01 10:53:08.70	187.49	5.64	-56.4	-59.5	13.8	0.00e+00	0	33	0	28311552	78	5312
2026-01-01 10:53:09.70	187.54	5.71	-56.3	-59.4	13.9	0.00e+00	0	33	0	30408704	78	5246
2026-01-01 10:53:10.70	187.59	5.78	-56.4	-59.5	13.8	0.00e+00	0	33	0	32505856	78	5335
2026-01-01 10:53:11.69	187.64	5.85	-56.4	-59.5	13.8	0.00e+00	0	33	0	33554432	78	5307
2026-01-01 10:53:12.68	187.70	5.92	-56.3	-59.3	14.0	0.00e+00	0	33	0	35651584	78	5183
2026-01-01 10:53:13.68	187.75	5.99	-56.1	-59.1	14.1	0.00e+00	0	33	0	37748736	77	5344
2026-01-01 10:53:14.67	187.80	6.06	-56.1	-59.0	14.2	0.00e+00	0	33	0	39845888	77	5319
2026-01-01 10:53:15.66	187.85	6.13	-56.1	-59.0	14.2	0.00e+00	0	34	0	40894464	77	5318
2026-01-01 10:53:16.66	187.91	6.20	-56.1	-59.0	14.2	0.00e+00	0	33	0	42991616	77	5283
2026-01-01 10:53:17.65	187.96	6.27	-56.0	-58.9	14.3	0.00e+00	0	33	0	45088768	77	5231
2026-01-01 10:53:18.65	188.01	6.34	-56.0	-58.9	14.3	0.00e+00	0	33	0	47185920	77	5222
2026-01-01 10:53:19.64	188.07	6.41	-56.0	-58.8	14.3	0.00e+00	0	33	0	49283072	77	5199
2026-01-01 10:53:20.64	188.12	6.48	-56.0	-58.8	14.4	0.00e+00	0	33	0	50331648	77	5173
2026-01-01 10:53:21.63	188.17	6.55	-56.0	-58.7	14.4	0.00e+00	0	33	0	52428800	77	5159
2026-01-01 10:53:22.62	188.23	6.62	-55.9	-58.6	14.5	0.00e+00	0	33	0	54525952	77	5080
2026-01-01 10:53:23.61	188.28	6.69	-56.0	-58.7	14.4	0.00e+00	0	33	0	56623104	77	5144
2026-01-01 10:53:24.61	188.34	6.76	-56.0	-58.8	14.4	0.00e+00	0	33	0	57671680	77	5177
2026-01-01 10:53:25.61	188.39	6.84	-56.0	-58.7	14.4	0.00e+00	0	33	0	59768832	77	5146
2026-01-01 10:53:26.61	188.45	6.91	-55.9	-58.7	14.5	0.00e+00	0	34	0	61865984	77	5104
2026-01-01 10:53:27.60	188.50	6.98	-55.8	-58.4	14.6	0.00e+00	0	33	0	63963136	76	5273
2026-01-01 10:53:28.59	188.56	7.05	-55.9	-58.5	14.6	0.00e+00	0	33	0	66060288	76	5326
2026-01-01 10:53:29.58	188.61	7.13	-55.9	-58.6	14.6	0.00e+00	0	33	0	67108864	77	5074
2026-01-01 10:53:30.58	188.67	7.20	-55.9	-58.5	14.6	0.00e+00	0	33	0	69206016	76	5319
2026-01-01 10:53:31.58	188.73	7.27	-56.0	-58.6	14.5	0.00e+00	0	33	0	71303168	77	5100
2026-01-01 10:53:32.57	188.78	7.34	-55.9	-58.6	14.6	0.00e+00	0	33	0	73400320	77	5077
2026-01-01 10:53:33.56	188.84	7.42	-55.8	-58.4	14.7	0.00e+00	0	34	0	74448896	77	4948
2026-01-01 10:53:34.55	188.90	7.49	-55.7	-58.3	14.7	0.00e+00	0	33	0	76546048	77	4917
2026-01-01 10:53:35.54	188.95	7.56	-55.7	-58.3	14.8	0.00e+00	0	34	0	78643200	77	4900
2026-01-01 10:53:36.54	189.01	7.64	-55.8	-58.4	14.7	0.00e+00	0	33	0	80740352	77	4931
2026-01-01 10:53:37.53	189.07	7.71	-55.7	-58.2	14.8	0.00e+00	0	33	0	82837504	77	4868
2026-01-01 10:53:38.53	189.13	7.79	-55.6	-58.1	14.9	0.00e+00	0	33	0	83886080	77	4796
2026-01-01 10:53:39.53	189.19	7.86	-55.6	-58.1	14.9	0.00e+00	0	33	0	85983232	76	5096
2026-01-01 10:53:40.52	189.25	7.94	-55.6	-58.2	14.8	0.00e+00	0	34	0	88080384	76	5104
2026-01-01 10:53:41.52	189.30	8.01	-55.6	-58.1	14.9	0.00e+00	0	34	0	90177536	76	5073
2026-01-01 10:53:42.51	189.36	8.09	-55.7	-58.2	14.9	0.00e+00	0	33	0	91226112	76	5102
2026-01-01 10:53:43.51	189.42	8.16	-55.6	-58.1	14.9	0.00e+00	0	33	0	93323264	76	5098
2026-01-01 10:53:44.50	189.48	8.24	-55.5	-58.0	14.9	0.00e+00	0	33	0	95420416	76	5026
2026-01-01 10:53:45.50	189.54	8.31	-55.5	-58.0	15.0	0.00e+00	0	34	0	97517568	76	4985
2026-01-01 10:53:46.49	189.60	8.39	-55.6	-58.0	14.9	0.00e+00	0	34	0	99614720	76	5040
2026-01-01 10:53:47.49	189.67	8.46	-55.6	-58.0	15.0	0.00e+00	0	33	0	100663296	76	5012
2026-01-01 10:53:48.49	189.73	8.54	-55.5	-57.9	15.0	0.00e+00	0	34	0	102760448	76	4939
2026-01-01 10:53:49.49	189.79	8.62	-55.5	-57.9	15.0	0.00e+00	0	34	0	104857600	76	4976
2026-01-01 10:53:50.49	189.85	8.70	-55.4	-57.8	15.1	0.00e+00	0	34	0	106954752	76	4893
2026-01-01 10:53:51.49	189.91	8.77	-55.4	-57.8	15.1	0.00e+00	0	34	0	109051904	76	4882
2026-01-01 10:53:52.48	189.98	8.85	-55.3	-57.7	15.2	0.00e+00	0	34	0	110100480	76	4825
2026-01-01 10:53:53.48	190.04	8.93	-55.3	-57.7	15.2	0.00e+00	0	34	0	112197632	76	4821
2026-01-01 10:53:54.48	190.10	9.00	-55.3	-57.6	15.2	0.00e+00	0	34	0	114294784	76	4768
2026-01-01 10:53:55.47	190.17	9.08	-55.4	-57.8	15.1	0.00e+00	0	34	0	116391936	76	4889
2026-01-01 10:53:56.47	190.23	9.16	-55.2	-57.5	15.3	0.00e+00	0	34	0	117440512	76	4715
2026-01-01 10:53:57.47	190.29	9.24	-55.2	-57.5	15.3	0.00e+00	0	34	0	119537664	76	4720
2026-01-01 10:53:58.46	190.36	9.32	-55.2	-57.4	15.3	0.00e+00	0	33	0	121634816	76	4698
2026-01-01 10:53:59.46	190.42	9.40	-55.2	-57.5	15.3	0.00e+00	0	34	0	123731968	76	4712
2026-01-01 10:54:00.45	190.49	9.47	-55.1	-57.3	15.4	0.00e+00	0	34	0	125829120	76	4640
2026-01-01 10:54:01.45	190.55	9.55	-55.1	-57.3	15.4	0.00e+00	0	34	0	126877696	76	4623
2026-01-01 10:54:02.45	190.62	9.63	-55.2	-57.4	15.4	0.00e+00	0	34	0	128974848	76	4696
2026-01-01 10:54:03.44	190.69	9.71	-55.1	-57.2	15.5	0.00e+00	0	33	0	131072000	76	4593
2026-01-01 10:54:04.43	190.75	9.79	-55.1	-57.3	15.4	0.00e+00	0	34	0	133169152	76	4626
2026-01-01 10:54:05.42	190.82	9.87	-55.0	-57.2	15.5	0.00e+00	0	34	0	134217728	76	4571
2026-01-01 10:54:06.42	190.89	9.95	-55.0	-57.2	15.5	0.00e+00	0	34	0	136314880	76	4571
2026-01-01 10:54:07.42	190.95	10.03	-55.0	-57.2	15.5	0.00e+00	0	34	0	138412032	76	4584
2026-01-01 10:54:08.42	191.02	10.11	-55.0	-57.2	15.5	0.00e+00	0	34	0	140509184	76	4588
2026-01-01 10:54:09.42	191.09	10.20	-55.0	-57.2	15.5	0.00e+00	0	34	0	142606336	76	4584
2026-01-01 10:54:10.41	191.16	10.28	-55.0	-57.2	15.5	0.00e+00	0	33	0	143654912	76	4561
2026-01-01 10:54:11.41	191.23	10.36	-55.0	-57.1	15.5	0.00e+00	0	34	0	145752064	76	4535
2026-01-01 10:54:12.40	191.30	10.44	-55.0	-57.2	15.6	0.00e+00	0	34	0	147849216	76	4547
2026-01-01 10:54:13.40	191.37	10.52	-55.0	-57.1	15.6	0.00e+00	0	34	0	149946368	76	4534
2026-01-01 10:54:14.40	191.44	10.60	-54.9	-57.1	15.6	0.00e+00	0	34	0	150994944	76	4496
2026-01-01 10:54:15.39	191.51	10.69	-55.0	-57.1	15.6	0.00e+00	0	34	0	153092096	76	4537
2026-01-01 10:54:16.39	191.58	10.77	-54.9	-57.1	15.6	0.00e+00	0	34	0	155189248	76	4504
2026-01-01 10:54:17.38	191.65	10.85	-55.0	-57.2	15.5	0.00e+00	0	34	0	157286400	76	4560
2026-01-01 10:54:18.38	191.72	10.93	-54.9	-57.0	15.6	0.00e+00	0	34	0	159383552	76	4491
2026-01-01 10:54:19.38	191.79	11.02	-54.8	-56.9	15.7	0.00e+00	0	34	0	160432128	76	4441
2026-01-01 10:54:20.37	191.86	11.10	-54.7	-56.8	15.7	0.00e+00	0	34	0	162529280	76	4350
2026-01-01 10:54:21.38	191.94	11.19	-54.7	-56.8	15.8	0.00e+00	0	34	0	164626432	76	4347
2026-01-01 10:54:22.38	192.01	11.27	-54.6	-56.6	15.8	0.00e+00	0	34	0	166723584	75	4537
2026-01-01 10:54:23.38	192.08	11.35	-54.6	-56.7	15.7	0.00e+00	0	34	0	167772160	75	4567
2026-01-01 10:54:24.38	192.16	11.44	-54.6	-56.6	15.8	0.00e+00	0	34	0	169869312	75	4525
2026-01-01 10:54:25.37	192.23	11.52	-54.5	-56.5	15.8	0.00e+00	0	34	0	171966464	75	4489
2026-01-01 10:54:26.37	192.31	11.61	-54.4	-56.4	15.9	0.00e+00	0	34	0	174063616	75	4406
2026-01-01 10:54:27.36	192.38	11.69	-54.4	-56.4	15.9	0.00e+00	0	34	0	176160768	75	4425
2026-01-01 10:54:28.36	192.46	11.78	-54.4	-56.4	15.9	0.00e+00	0	34	0	177209344	75	4421
2026-01-01 10:54:29.35	192.53	11.87	-54.4	-56.4	15.9	0.00e+00	0	34	0	179306496	75	4412
2026-01-01 10:54:30.34	192.61	11.95	-54.4	-56.4	15.9	0.00e+00	0	34	0	181403648	75	4399
2026-01-01 10:54:31.34	192.69	12.04	-54.5	-56.5	15.9	0.00e+00	0	34	0	183500800	75	4471
2026-01-01 10:54:32.34	192.76	12.13	-54.5	-56.5	15.9	0.00e+00	0	34	0	185597952	75	4449
2026-01-01 10:54:33.34	192.84	12.21	-54.3	-56.3	16.0	0.00e+00	0	34	0	186646528	75	4363
2026-01-01 10:54:34.34	192.92	12.30	-54.4	-56.4	16.0	0.00e+00	0	34	0	188743680	75	4398
2026-01-01 10:54:35.34	193.00	12.39	-54.3	-56.2	16.0	0.00e+00	0	34	0	190840832	75	4327
2026-01-01 10:54:36.33	193.08	12.47	-54.3	-56.3	16.0	0.00e+00	0	34	0	192937984	75	4365
2026-01-01 10:54:37.33	193.16	12.56	-54.4	-56.3	16.0	0.00e+00	0	34	0	195035136	75	4375
2026-01-01 10:54:38.33	193.24	12.65	-54.4	-56.3	16.0	0.00e+00	0	34	0	196083712	75	4384
2026-01-01 10:54:39.33	193.32	12.74	-54.3	-56.2	16.0	0.00e+00	0	34	0	198180864	75	4324
2026-01-01 10:54:40.33	193.40	12.83	-54.4	-56.4	16.0	0.00e+00	0	34	0	200278016	75	4392
2026-01-01 10:54:41.33	193.48	12.92	-54.4	-56.3	16.0	0.00e+00	0	34	0	202375168	75	4387
2026-01-01 10:54:42.33	193.56	13.01	-54.3	-56.3	16.0	0.00e+00	0	34	0	203423744	75	4352
2026-01-01 10:54:43.32	193.64	13.10	-54.4	-56.4	16.0	0.00e+00	0	33	0	205520896	75	4414
2026-01-01 10:54:44.33	193.73	13.19	-54.3	-56.2	16.1	0.00e+00	0	34	0	207618048	75	4301
2026-01-01 10:54:45.32	193.81	13.28	-54.2	-56.1	16.1	0.00e+00	0	34	0	209715200	75	4285
2026-01-01 10:54:46.32	193.89	13.37	-54.2	-56.1	16.1	0.00e+00	0	34	0	211812352	75	4254
2026-01-01 10:54:47.32	193.98	13.46	-54.2	-56.1	16.1	0.00e+00	0	34	0	212860928	75	4251
2026-01-01 10:54:48.33	194.06	13.55	-54.2	-56.1	16.1	0.00e+00	0	34	0	214958080	74	4497
2026-01-01 10:54:49.33	194.15	13.64	-54.2	-56.1	16.1	0.00e+00	0	34	0	217055232	74	4525
2026-01-01 10:54:50.33	194.24	13.74	-54.1	-56.0	16.2	0.00e+00	0	34	0	219152384	74	4453
2026-01-01 10:54:51.33	194.32	13.83	-54.1	-56.0	16.1	0.00e+00	0	34	0	220200960	74	4443
2026-01-01 10:54:52.31	194.41	13.92	-54.1	-55.9	16.2	0.00e+00	0	34	0	222298112	74	4417
2026-01-01 10:54:53.31	194.50	14.01	-54.1	-55.9	16.2	0.00e+00	0	34	0	224395264	74	4439
2026-01-01 10:54:54.30	194.58	14.11	-54.0	-55.8	16.2	0.00e+00	0	34	0	226492416	74	4390
2026-01-01 10:54:55.30	194.67	14.20	-54.0	-55.9	16.2	0.00e+00	0	34	0	228589568	74	4392
2026-01-01 10:54:56.30	194.76	14.29	-54.0	-55.9	16.2	0.00e+00	0	34	0	229638144	74	4404
2026-01-01 10:54:57.30	194.85	14.39	-54.0	-55.8	16.2	0.00e+00	0	34	0	231735296	74	4358
2026-01-01 10:54:58.29	194.94	14.48	-54.0	-55.8	16.2	0.00e+00	0	34	0	233832448	74	4383
2026-01-01 10:54:59.30	195.03	14.58	-54.0	-55.8	16.3	0.00e+00	0	34	0	235929600	74	4355
2026-01-01 10:55:00.29	195.12	14.67	-53.9	-55.7	16.3	0.00e+00	0	33	0	238026752	74	4324
2026-01-01 10:55:01.29	195.21	14.76	-53.9	-55.7	16.3	0.00e+00	0	34	0	239075328	74	4339
2026-01-01 10:55:02.29	195.31	14.86	-54.0	-55.8	16.3	0.00e+00	0	34	0	241172480	74	4367
2026-01-01 10:55:03.28	195.40	14.96	-54.0	-55.8	16.2	0.00e+00	0	34	0	243269632	74	4382
2026-01-01 10:55:04.28	195.49	15.05	-54.0	-55.8	16.3	0.00e+00	0	34	0	245366784	74	4381
2026-01-01 10:55:05.27	195.58	15.15	-53.9	-55.7	16.3	0.00e+00	0	34	0	246415360	74	4336
2026-01-01 10:55:06.27	195.68	15.24	-53.9	-55.6	16.3	0.00e+00	0	34	0	248512512	74	4287
2026-01-01 10:55:07.26	195.77	15.34	-53.9	-55.7	16.3	0.00e+00	0	34	0	250609664	74	4337
2026-01-01 10:55:08.26	195.87	15.44	-53.9	-55.7	16.3	0.00e+00	0	34	0	252706816	74	4326
2026-01-01 10:55:09.26	195.96	15.54	-54.0	-55.8	16.3	0.00e+00	0	34	0	254803968	74	4347
2026-01-01 10:55:10.25	196.06	15.63	-54.0	-55.8	16.3	0.00e+00	0	34	0	255852544	74	4385
2026-01-01 10:55:11.25	196.16	15.73	-54.0	-55.8	16.3	0.00e+00	0	34	0	257949696	74	4383
2026-01-01 10:55:12.25	196.26	15.83	-54.0	-55.9	16.3	0.00e+00	0	34	0	260046848	74	4394
2026-01-01 10:55:13.24	196.35	15.93	-54.1	-55.9	16.3	0.00e+00	0	34	0	262144000	74	4412
2026-01-01 10:55:14.24	196.45	16.03	-54.2	-56.0	16.2	0.00e+00	0	34	0	264241152	74	4482
2026-01-01 10:55:15.23	196.55	16.13	-54.2	-56.1	16.2	0.00e+00	0	34	0	265289728	74	4498
2026-01-01 10:55:16.23	196.65	16.23	-54.2	-56.1	16.2	0.00e+00	0	34	0	267386880	74	4496
2026-01-01 10:55:17.22	196.75	16.33	-54.3	-56.2	16.1	0.00e+00	0	34	0	269484032	74	4576
2026-01-01 10:55:18.23	196.86	16.43	-54.3	-56.2	16.1	0.00e+00	0	34	0	271581184	74	4573
2026-01-01 10:55:19.23	196.96	16.53	-54.3	-56.2	16.1	0.00e+00	0	34	0	272629760	74	4571
2026-01-01 10:55:20.23	197.06	16.63	-54.3	-56.2	16.1	0.00e+00	0	34	0	274726912	74	4591
2026-01-01 10:55:21.23	197.17	16.73	-54.4	-56.3	16.1	0.00e+00	0	34	0	276824064	74	4602
2026-01-01 10:55:22.23	197.27	16.83	-54.4	-56.3	16.1	0.00e+00	0	34	0	278921216	74	4621
2026-01-01 10:55:23.22	197.38	16.93	-54.4	-56.4	16.1	0.00e+00	0	34	0	281018368	74	4652
2026-01-01 10:55:24.23	197.48	17.04	-54.4	-56.3	16.1	0.00e+00	0	34	0	282066944	74	4630
2026-01-01 10:55:25.23	197.59	17.14	-54.5	-56.4	16.0	0.00e+00	0	34	0	284164096	74	4693
2026-01-01 10:55:26.23	197.70	17.25	-54.5	-56.4	16.0	0.00e+00	0	34	0	286261248	74	4670
2026-01-01 10:55:27.22	197.81	17.35	-54.5	-56.4	16.0	0.00e+00	0	34	0	288358400	74	4667
2026-01-01 10:55:28.22	197.91	17.45	-54.5	-56.4	16.0	0.00e+00	0	34	0	289406976	74	4668
2026-01-01 10:55:29.22	198.02	17.56	-54.4	-56.3	16.1	0.00e+00	0	34	0	291504128	74	4649
2026-01-01 10:55:30.22	198.13	17.66	-54.5	-56.5	16.0	0.00e+00	0	34	0	293601280	74	4714
2026-01-01 10:55:31.21	198.24	17.77	-54.5	-56.5	16.0	0.00e+00	0	34	0	295698432	74	4714
2026-01-01 10:55:32.20	198.36	17.87	-54.4	-56.3	16.1	0.00e+00	0	34	0	297795584	74	4635
2026-01-01 10:55:33.20	198.47	17.98	-54.5	-56.4	16.1	0.00e+00	0	34	0	298844160	74	4659
2026-01-01 10:55:34.19	198.58	18.08	-54.4	-56.3	16.1	0.00e+00	0	34	0	300941312	74	4623
2026-01-01 10:55:35.18	198.69	18.19	-54.3	-56.1	16.2	0.00e+00	0	34	0	303038464	74	4539
2026-01-01 10:55:36.16	198.81	18.29	-54.3	-56.1	16.2	0.00e+00	0	34	0	305135616	74	4532
2026-01-01 10:55:37.15	198.92	18.40	-54.3	-56.1	16.2	0.00e+00	0	34	0	306184192	74	4542
2026-01-01 10:55:38.15	199.04	18.51	-54.2	-56.0	16.2	0.00e+00	0	34	0	308281344	74	4487
2026-01-01 10:55:39.14	199.15	18.61	-54.2	-56.0	16.3	0.00e+00	0	34	0	310378496	74	4480
2026-01-01 10:55:40.13	199.27	18.72	-54.2	-56.0	16.2	0.00e+00	0	34	0	312475648	74	4471
2026-01-01 10:55:41.12	199.39	18.83	-54.2	-56.0	16.3	0.00e+00	0	34	0	314572800	74	4463
2026-01-01 10:55:42.10	199.50	18.93	-54.2	-56.0	16.3	0.00e+00	0	34	0	315621376	74	4461
2026-01-01 10:55:43.10	199.63	19.04	-54.2	-56.1	16.2	0.00e+00	0	34	0	317718528	74	4500
2026-01-01 10:55:44.09	199.75	19.15	-54.2	-56.0	16.3	0.00e+00	0	34	0	319815680	74	4473
2026-01-01 10:55:45.08	199.87	19.26	-54.1	-55.9	16.3	0.00e+00	0	34	0	321912832	74	4417
2026-01-01 10:55:46.08	199.99	19.37	-54.1	-56.0	16.3	0.00e+00	0	34	0	322961408	74	4444
2026-01-01 10:55:47.08	200.11	19.48	-54.2	-56.0	16.3	0.00e+00	0	34	0	325058560	74	4492
2026-01-01 10:55:48.07	200.24	19.59	-54.1	-55.9	16.3	0.00e+00	0	34	0	327155712	74	4430
2026-01-01 10:55:49.06	200.36	19.70	-54.1	-55.9	16.3	0.00e+00	0	34	0	329252864	74	4430
2026-01-01 10:55:50.06	200.49	19.81	-55.2	-57.3	15.7	0.00e+00	0	34	0	331350016	76	4607
2026-01-01 10:55:51.04	200.61	19.92	-55.1	-57.2	15.7	0.00e+00	0	34	0	332398592	76	4570
2026-01-01 10:55:52.04	200.74	20.04	-55.0	-57.0	15.8	0.00e+00	0	34	0	334495744	76	4488
2026-01-01 10:55:53.03	200.87	20.15	-54.7	-56.6	16.0	0.00e+00	0	34	0	336592896	76	4270
2026-01-01 10:55:54.03	201.00	20.26	-54.6	-56.6	16.0	0.00e+00	0	34	0	338690048	75	4505
2026-01-01 10:55:55.02	201.13	20.38	-54.5	-56.4	16.1	0.00e+00	0	34	0	339738624	75	4410
2026-01-01 10:55:56.00	201.26	20.49	-54.3	-56.1	16.2	0.00e+00	0	34	0	341835776	75	4273
2026-01-01 10:55:57.00	201.39	20.60	-54.4	-56.3	16.2	0.00e+00	0	34	0	343932928	75	4355
2026-01-01 10:55:57.99	201.52	20.72	-54.4	-56.3	16.2	0.00e+00	0	34	0	346030080	75	4368
2026-01-01 10:55:58.98	201.66	20.83	-54.4	-56.3	16.2	0.00e+00	0	34	0	348127232	75	4373
2026-01-01 10:55:59.98	201.79	20.95	-54.5	-56.4	16.1	0.00e+00	0	34	0	349175808	75	4434
2026-01-01 10:56:00.96	201.93	21.06	-54.4	-56.3	16.2	0.00e+00	0	34	0	351272960	75	4359
2026-01-01 10:56:01.95	202.06	21.17	-54.5	-56.4	16.1	0.00e+00	0	34	0	353370112	75	4400
2026-01-01 10:56:02.94	202.20	21.29	-54.6	-56.5	16.1	0.00e+00	0	34	0	355467264	75	4465
2026-01-01 10:56:03.94	202.34	21.41	-54.6	-56.5	16.1	0.00e+00	0	34	0	356515840	75	4467
2026-01-01 10:56:04.93	202.48	21.52	-54.6	-56.5	16.1	0.00e+00	0	34	0	358612992	75	4471
2026-01-01 10:56:05.93	202.62	21.64	-54.7	-56.6	16.0	0.00e+00	0	34	0	360710144	75	4523
2026-01-01 10:56:06.92	202.76	21.76	-54.8	-56.8	16.0	0.00e+00	0	34	0	362807296	75	4615
2026-01-01 10:56:07.91	202.90	21.88	-54.7	-56.6	16.1	0.00e+00	0	34	0	363855872	75	4525
2026-01-01 10:56:08.90	203.05	21.99	-54.7	-56.7	16.0	0.00e+00	0	34	0	365953024	75	4549
2026-01-01 10:56:09.89	203.19	22.11	-54.7	-56.7	16.0	0.00e+00	0	34	0	368050176	75	4576
2026-01-01 10:56:10.89	203.34	22.23	-54.7	-56.7	16.0	0.00e+00	0	34	0	370147328	75	4575
2026-01-01 10:56:11.88	203.49	22.35	-54.7	-56.7	16.0	0.00e+00	0	34	0	372244480	75	4556
2026-01-01 10:56:12.88	203.63	22.47	-54.7	-56.6	16.0	0.00e+00	0	34	0	373293056	75	4524
2026-01-01 10:56:13.87	203.78	22.59	-54.6	-56.5	16.1	0.00e+00	0	34	0	375390208	75	4463
2026-01-01 10:56:14.88	203.94	22.71	-54.5	-56.4	16.1	0.00e+00	0	34	0	377487360	75	4429
2026-01-01 10:56:15.86	204.09	22.83	-54.5	-56.4	16.1	0.00e+00	0	34	0	379584512	75	4423
2026-01-01 10:56:16.85	204.24	22.95	-54.5	-56.4	16.1	0.00e+00	0	34	0	380633088	75	4440
2026-01-01 10:56:17.85	204.39	23.08	-54.6	-56.5	16.1	0.00e+00	0	34	0	382730240	75	4461
2026-01-01 10:56:18.84	204.55	23.20	-54.5	-56.4	16.1	0.00e+00	0	34	0	384827392	75	4416
2026-01-01 10:56:19.84	204.71	23.32	-54.6	-56.5	16.1	0.00e+00	0	34	0	386924544	75	4453
2026-01-01 10:56:20.83	204.86	23.44	-54.4	-56.3	16.2	0.00e+00	0	34	0	389021696	75	4365
2026-01-01 10:56:21.83	205.02	23.57	-54.5	-56.3	16.2	0.00e+00	0	34	0	390070272	75	4383
2026-01-01 10:56:22.82	205.18	23.69	-54.5	-56.3	16.2	0.00e+00	0	34	0	392167424	75	4383
2026-01-01 10:56:23.81	205.34	23.81	-54.5	-56.4	16.2	0.00e+00	0	34	0	394264576	75	4418
2026-01-01 10:56:24.81	205.51	23.94	-54.5	-56.4	16.2	0.00e+00	0	34	0	396361728	75	4413
2026-01-01 10:56:25.80	205.67	24.06	-54.6	-56.5	16.1	0.00e+00	0	34	0	397410304	75	4490
2026-01-01 10:56:26.79	205.83	24.19	-54.6	-56.6	16.1	0.00e+00	0	34	0	399507456	75	4494
2026-01-01 10:56:27.78	206.00	24.31	-54.7	-56.6	16.1	0.00e+00	0	34	0	401604608	75	4510
2026-01-01 10:56:28.78	206.17	24.44	-54.7	-56.7	16.1	0.00e+00	0	34	0	403701760	75	4557
2026-01-01 10:56:29.78	206.34	24.56	-54.8	-56.8	16.0	0.00e+00	0	34	0	405798912	75	4621
2026-01-01 10:56:30.77	206.51	24.69	-54.8	-56.8	16.0	0.00e+00	0	34	0	406847488	75	4637
2026-01-01 10:56:31.76	206.68	24.82	-54.9	-57.0	15.9	0.00e+00	0	34	0	408944640	75	4710
2026-01-01 10:56:32.74	206.85	24.94	-55.0	-57.0	15.9	0.00e+00	0	34	0	411041792	75	4757
2026-01-01 10:56:33.74	207.02	25.07	-55.0	-57.0	15.9	0.00e+00	0	34	0	413138944	75	4745
2026-01-01 10:56:34.74	207.20	25.20	-55.0	-57.0	15.9	0.00e+00	0	34	0	414187520	75	4709
2026-01-01 10:56:35.74	207.38	25.33	-55.0	-57.0	15.8	0.00e+00	0	34	0	416284672	75	4739
2026-01-01 10:56:36.74	207.56	25.46	-55.1	-57.1	15.8	0.00e+00	0	34	0	418381824	75	4788
2026-01-01 10:56:37.73	207.74	25.58	-55.2	-57.2	15.8	0.00e+00	0	34	0	420478976	75	4860
2026-01-01 10:56:38.72	207.92	25.71	-55.1	-57.2	15.8	0.00e+00	0	34	0	422576128	75	4818
2026-01-01 10:56:39.72	208.10	25.84	-55.1	-57.1	15.8	0.00e+00	0	34	0	423624704	75	4803
2026-01-01 10:56:40.71	208.28	25.97	-55.2	-57.2	15.8	0.00e+00	0	34	0	425721856	75	4858
2026-01-01 10:56:41.70	208.47	26.10	-55.1	-57.2	15.8	0.00e+00	0	34	0	427819008	75	4832
2026-01-01 10:56:42.69	208.66	26.23	-55.0	-57.0	15.9	0.00e+00	0	34	0	429916160	75	4741
2026-01-01 10:56:43.69	208.85	26.36	-55.1	-57.1	15.8	0.00e+00	0	34	0	430964736	75	4803
2026-01-01 10:56:44.67	209.03	26.49	-55.0	-57.0	15.9	0.00e+00	0	34	0	433061888	75	4731
2026-01-01 10:56:45.68	209.23	26.63	-55.0	-57.0	15.9	0.00e+00	0	34	0	435159040	75	4713
2026-01-01 10:56:46.67	209.42	26.76	-54.7	-56.7	16.1	0.00e+00	0	34	0	437256192	75	4551
2026-01-01 10:56:47.67	209.62	26.89	-54.6	-56.5	16.2	0.00e+00	0	34	0	439353344	75	4468
2026-01-01 10:56:48.67	209.81	27.02	-54.7	-56.6	16.1	0.00e+00	0	34	0	440401920	75	4507
2026-01-01 10:56:49.66	210.01	27.16	-54.8	-56.7	16.1	0.00e+00	0	34	0	442499072	75	4560
2026-01-01 10:56:50.66	210.21	27.29	-54.8	-56.7	16.1	0.00e+00	0	34	0	444596224	75	4581
2026-01-01 10:56:51.67	210.42	27.42	-54.9	-56.8	16.0	0.00e+00	0	34	0	446693376	75	4641
2026-01-01 10:56:52.67	210.62	27.56	-55.0	-56.9	15.9	0.00e+00	0	34	0	447741952	75	4705
2026-01-01 10:56:53.66	210.82	27.69	-55.0	-57.0	15.9	0.00e+00	0	34	0	449839104	75	4736
2026-01-01 10:56:54.66	211.03	27.83	-55.2	-57.2	15.8	0.00e+00	0	34	0	451936256	75	4835
2026-01-01 10:56:55.64	211.24	27.96	-55.2	-57.3	15.8	0.00e+00	0	34	0	454033408	75	4873
2026-01-01 10:56:56.63	211.45	28.09	-55.3	-57.4	15.7	0.00e+00	0	34	0	456130560	75	4934
2026-01-01 10:56:57.62	211.66	28.23	-55.4	-57.5	15.7	0.00e+00	0	34	0	457179136	76	4732
2026-01-01 10:56:58.62	211.87	28.36	-55.5	-57.6	15.7	0.00e+00	0	34	0	459276288	76	4772
2026-01-01 10:56:59.61	212.08	28.50	-55.4	-57.4	15.8	0.00e+00	0	34	0	461373440	76	4690
2026-01-01 10:57:00.61	212.30	28.63	-55.4	-57.4	15.8	0.00e+00	0	34	0	463470592	76	4690
2026-01-01 10:57:01.60	212.52	28.77	-55.4	-57.4	15.8	0.00e+00	0	34	0	464519168	76	4705
2026-01-01 10:57:02.60	212.74	28.90	-55.4	-57.5	15.7	0.00e+00	0	34	0	466616320	76	4731
2026-01-01 10:57:03.58	212.96	29.04	-55.5	-57.6	15.7	0.00e+00	0	34	0	468713472	76	4805
2026-01-01 10:57:04.58	213.18	29.18	-55.5	-57.6	15.7	0.00e+00	0	34	0	470810624	76	4772
2026-01-01 10:57:05.57	213.41	29.31	-55.5	-57.7	15.7	0.00e+00	0	34	0	472907776	76	4818
2026-01-01 10:57:06.56	213.64	29.45	-55.6	-57.7	15.6	0.00e+00	0	34	0	473956352	76	4848
2026-01-01 10:57:07.56	213.87	29.58	-55.6	-57.8	15.6	0.00e+00	0	34	0	476053504	76	4878
2026-01-01 10:57:08.56	214.10	29.72	-55.5	-57.7	15.6	0.00e+00	0	34	0	478150656	76	4819
2026-01-01 10:57:09.55	214.33	29.86	-55.5	-57.7	15.6	0.00e+00	0	34	0	480247808	76	4827
2026-01-01 10:57:10.55	214.57	30.00	-55.6	-57.7	15.7	0.00e+00	0	34	0	481296384	76	4840
2026-01-01 10:57:11.54	214.81	30.13	-55.6	-57.7	15.6	0.00e+00	0	34	0	483393536	76	4863
2026-01-01 10:57:12.54	215.05	30.27	-55.6	-57.8	15.6	0.00e+00	0	34	0	485490688	76	4880
2026-01-01 10:57:13.54	215.29	30.41	-55.7	-57.9	15.6	0.00e+00	0	34	0	487587840	76	4945
2026-01-01 10:57:14.53	215.53	30.55	-55.8	-58.0	15.4	0.00e+00	0	34	0	489684992	76	5041
2026-01-01 10:57:15.52	215.78	30.68	-56.0	-58.2	15.4	0.00e+00	0	34	0	490733568	77	4867
2026-01-01 10:57:16.51	216.02	30.82	-56.1	-58.5	15.2	0.00e+00	0	34	0	492830720	77	4988
2026-01-01 10:57:17.50	216.27	30.96	-56.3	-58.7	15.1	0.00e+00	0	34	0	494927872	77	5116
2026-01-01 10:57:18.49	216.52	31.10	-56.4	-58.9	15.0	0.00e+00	0	34	0	497025024	78	4945
2026-01-01 10:57:19.48	216.77	31.23	-56.4	-58.9	15.0	0.00e+00	0	34	0	498073600	78	4928
2026-01-01 10:57:20.47	217.03	31.37	-56.6	-59.1	14.9	0.00e+00	0	34	0	500170752	78	5064
2026-01-01 10:57:21.47	217.29	31.51	-56.5	-58.9	14.9	0.00e+00	0	34	0	502267904	78	4982
2026-01-01 10:57:22.46	217.55	31.65	-56.5	-59.0	14.9	0.00e+00	0	34	0	504365056	78	5025
2026-01-01 10:57:23.46	217.81	31.79	-56.6	-59.2	14.9	0.00e+00	0	34	0	506462208	78	5128
2026-01-01 10:57:24.46	218.08	31.93	-56.6	-59.2	14.9	0.00e+00	0	34	0	507510784	78	5104
2026-01-01 10:57:25.46	218.34	32.07	-56.5	-59.1	14.9	0.00e+00	0	34	0	509607936	78	5043
2026-01-01 10:57:26.45	218.61	32.20	-56.5	-59.0	15.0	0.00e+00	0	34	0	511705088	78	4991
2026-01-01 10:57:27.44	218.88	32.34	-56.4	-58.8	15.0	0.00e+00	0	34	0	513802240	78	4896
2026-01-01 10:57:28.43	219.15	32.48	-56.4	-58.8	15.1	0.00e+00	0	34	0	514850816	78	4891
2026-01-01 10:57:29.43	219.43	32.62	-56.3	-58.8	15.1	0.00e+00	0	34	0	516947968	78	4876
2026-01-01 10:57:30.41	219.71	32.75	-56.4	-58.9	15.0	0.00e+00	0	34	0	519045120	78	4948
2026-01-01 10:57:31.39	219.98	32.89	-56.4	-58.9	15.0	0.00e+00	0	34	0	521142272	78	4944
2026-01-01 10:57:32.38	220.26	33.03	-56.3	-58.7	15.1	0.00e+00	0	34	0	523239424	78	4860
2026-01-01 10:57:33.37	220.55	33.16	-56.3	-58.6	15.1	0.00e+00	0	34	0	524288000	78	4813
2026-01-01 10:57:34.37	220.84	33.30	-56.1	-58.3	15.3	0.00e+00	0	34	0	526385152	78	4650
2026-01-01 10:57:35.37	221.13	33.44	-55.9	-58.1	15.5	0.00e+00	0	34	0	528482304	78	4497
2026-01-01 10:57:36.36	221.42	33.58	-55.7	-57.9	15.6	0.00e+00	0	34	0	530579456	78	4395
2026-01-01 10:57:37.35	221.71	33.71	-55.8	-58.0	15.5	0.00e+00	0	34	0	531628032	78	4454
2026-01-01 10:57:38.35	222.01	33.85	-56.0	-58.3	15.3	0.00e+00	0	34	0	533725184	78	4620
2026-01-01 10:57:39.34	222.31	33.99	-56.2	-58.5	15.2	0.00e+00	0	34	0	535822336	78	4727
2026-01-01 10:57:40.35	222.62	34.12	-56.3	-58.7	15.1	0.00e+00	0	34	0	537919488	78	4829
2026-01-01 10:57:41.34	222.92	34.26	-56.3	-58.7	15.1	0.00e+00	0	34	0	540016640	78	4831
2026-01-01 10:57:42.33	223.22	34.39	-56.2	-58.5	15.2	0.00e+00	0	34	0	541065216	78	4758
2026-01-01 10:57:43.33	223.54	34.53	-55.8	-58.0	15.5	0.00e+00	0	34	0	543162368	78	4463
2026-01-01 10:57:44.32	223.85	34.66	-55.7	-57.8	15.6	0.00e+00	0	34	0	545259520	77	4635
2026-01-01 10:57:45.30	224.16	34.80	-55.5	-57.6	15.7	0.00e+00	0	34	0	547356672	77	4502
2026-01-01 10:57:46.29	224.47	34.93	-55.5	-57.6	15.8	0.00e+00	0	34	0	548405248	77	4500
2026-01-01 10:57:47.29	224.79	35.07	-55.3	-57.4	15.8	0.00e+00	0	34	0	550502400	77	4417
2026-01-01 10:57:48.28	225.11	35.20	-55.4	-57.4	15.8	0.00e+00	0	34	0	552599552	77	4436
2026-01-01 10:57:49.28	225.44	35.33	-55.6	-57.7	15.7	0.00e+00	0	34	0	554696704	77	4557
2026-01-01 10:57:50.27	225.77	35.46	-55.9	-58.1	15.4	0.00e+00	0	34	0	555745280	77	4779
2026-01-01 10:57:51.26	226.09	35.60	-56.3	-58.7	15.1	0.00e+00	0	34	0	557842432	77	5145
2026-01-01 10:57:52.27	226.43	35.73	-56.7	-59.2	14.8	0.00e+00	0	34	0	559939584	78	5153
2026-01-01 10:57:53.27	226.77	35.86	-56.9	-59.5	14.6	0.00e+00	0	34	0	562036736	78	5319
2026-01-01 10:57:54.27	227.11	35.99	-56.8	-59.4	14.8	0.00e+00	0	34	0	564133888	78	5234
2026-01-01 10:57:55.25	227.45	36.12	-56.4	-58.9	15.0	0.00e+00	0	34	0	565182464	78	4955
2026-01-01 10:57:56.25	227.79	36.25	-56.1	-58.4	15.3	0.00e+00	0	34	0	567279616	78	4691
2026-01-01 10:57:57.24	228.14	36.38	-55.9	-58.0	15.6	0.00e+00	0	34	0	569376768	78	4490
2026-01-01 10:57:58.23	228.48	36.51	-55.7	-57.8	15.6	0.00e+00	0	34	0	571473920	78	4377
2026-01-01 10:57:59.23	228.84	36.63	-55.9	-58.1	15.5	0.00e+00	0	34	0	573571072	77	4766
2026-01-01 10:58:00.22	229.19	36.76	-56.1	-58.5	15.3	0.00e+00	0	34	0	574619648	77	4992
2026-01-01 10:58:01.22	229.55	36.89	-56.7	-59.3	14.8	0.00e+00	0	34	0	576716800	78	5191
2026-01-01 10:58:02.22	229.91	37.01	-57.0	-59.7	14.5	0.00e+00	0	34	0	578813952	79	5128
2026-01-01 10:58:03.20	230.27	37.13	-57.1	-59.9	14.5	0.00e+00	0	34	0	580911104	79	5221
2026-01-01 10:58:04.19	230.63	37.26	-56.9	-59.6	14.6	0.00e+00	0	34	0	581959680	79	5084
2026-01-01 10:58:05.19	231.00	37.38	-56.6	-59.1	14.9	0.00e+00	0	34	0	584056832	79	4807
2026-01-01 10:58:06.18	231.37	37.50	-56.1	-58.4	15.3	0.00e+00	0	34	0	586153984	78	4699
2026-01-01 10:58:07.17	231.74	37.62	-55.9	-58.1	15.5	0.00e+00	0	34	0	588251136	78	4526
2026-01-01 10:58:08.17	232.12	37.74	-55.8	-58.0	15.5	0.00e+00	0	34	0	589299712	78	4464
2026-01-01 10:58:09.16	232.49	37.86	-56.0	-58.2	15.4	0.00e+00	0	34	0	591396864	78	4597
2026-01-01 10:58:10.16	232.88	37.98	-56.2	-58.5	15.2	0.00e+00	0	34	0	593494016	78	4743
2026-01-01 10:58:11.15	233.26	38.10	-56.4	-58.8	15.1	0.00e+00	0	34	0	595591168	78	4911
2026-01-01 10:58:12.14	233.64	38.21	-56.7	-59.3	14.8	0.00e+00	0	34	0	597688320	78	5197
2026-01-01 10:58:13.13	234.03	38.33	-56.8	-59.4	14.7	0.00e+00	0	34	0	598736896	78	5248
2026-01-01 10:58:14.13	234.43	38.44	-56.7	-59.2	14.9	0.00e+00	0	34	0	600834048	78	5135
2026-01-01 10:58:15.12	234.82	38.55	-56.5	-59.0	15.0	0.00e+00	0	34	0	602931200	78	5014
2026-01-01 10:58:16.11	235.21	38.67	-56.2	-58.4	15.3	0.00e+00	0	34	0	605028352	78	4704
2026-01-01 10:58:17.10	235.61	38.78	-55.9	-58.1	15.5	0.00e+00	0	34	0	606076928	78	4497
2026-01-01 10:58:18.09	236.01	38.89	-55.7	-57.9	15.6	0.00e+00	0	34	0	608174080	78	4410
2026-01-01 10:58:19.09	236.42	38.99	-55.8	-58.0	15.5	0.00e+00	0	34	0	610271232	77	4756
2026-01-01 10:58:20.09	236.83	39.10	-56.3	-58.6	15.2	0.00e+00	0	34	0	612368384	77	5095
2026-01-01 10:58:21.09	237.24	39.21	-56.9	-59.5	14.7	0.00e+00	0	34	0	614465536	78	5334
2026-01-01 10:58:22.08	237.66	39.31	-57.3	-60.2	14.3	0.00e+00	0	34	0	615514112	79	5432
2026-01-01 10:58:23.07	238.07	39.41	-57.5	-60.6	14.0	0.00e+00	0	34	0	617611264	80	5345
2026-01-01 10:58:24.07	238.49	39.52	-57.5	-60.6	14.0	0.00e+00	0	34	0	619708416	80	5348
2026-01-01 10:58:25.06	238.91	39.62	-57.4	-60.4	14.1	0.00e+00	0	34	0	621805568	80	5257
2026-01-01 10:58:26.05	239.33	39.72	-57.2	-60.1	14.3	0.00e+00	0	34	0	622854144	80	5068
2026-01-01 10:58:27.04	239.76	39.81	-57.0	-59.7	14.5	0.00e+00	0	34	0	624951296	80	4836
2026-01-01 10:58:28.04	240.19	39.91	-57.1	-59.9	14.4	0.00e+00	0	34	0	627048448	80	4971
2026-01-01 10:58:29.03	240.62	40.00	-57.2	-60.0	14.4	0.00e+00	0	34	0	629145600	80	5020
2026-01-01 10:58:30.03	241.05	40.10	-57.0	-59.7	14.6	0.00e+00	0	34	0	631242752	80	4816
2026-01-01 10:58:31.02	241.49	40.19	-56.9	-59.5	14.7	0.00e+00	0	34	0	632291328	80	4725
2026-01-01 10:58:32.02	241.93	40.28	-56.8	-59.3	14.8	0.00e+00	0	34	0	634388480	80	4647
2026-01-01 10:58:33.03	242.37	40.37	-56.8	-59.5	14.7	0.00e+00	0	34	0	636485632	80	4709
2026-01-01 10:58:34.02	242.82	40.45	-56.7	-59.3	14.8	0.00e+00	0	34	0	638582784	80	4608
2026-01-01 10:58:35.01	243.26	40.54	-56.4	-58.8	15.1	0.00e+00	0	34	0	639631360	79	4609
2026-01-01 10:58:36.01	243.71	40.62	-56.3	-58.6	15.2	0.00e+00	0	34	0	641728512	79	4540
2026-01-01 10:58:37.00	244.16	40.70	-56.0	-58.3	15.4	0.00e+00	0	34	0	643825664	78	4616
2026-01-01 10:58:37.99	244.61	40.78	-55.8	-57.9	15.6	0.00e+00	0	34	0	645922816	78	4419
2026-01-01 10:58:38.98	245.06	40.86	-55.6	-57.7	15.7	0.00e+00	0	34	0	648019968	77	4576
2026-01-01 10:58:39.98	245.52	40.93	-55.6	-57.7	15.7	0.00e+00	0	34	0	649068544	77	4551
2026-01-01 10:58:40.97	245.97	41.01	-55.5	-57.6	15.7	0.00e+00	0	34	0	651165696	77	4528
2026-01-01 10:58:41.96	246.43	41.08	-55.6	-57.7	15.7	0.00e+00	0	34	0	653262848	77	4546
2026-01-01 10:58:42.95	246.89	41.15	-55.7	-57.8	15.6	0.00e+00	0	34	0	655360000	77	4603
2026-01-01 10:58:43.94	247.36	41.22	-55.9	-58.1	15.5	0.00e+00	0	34	0	656408576	77	4774
2026-01-01 10:58:44.93	247.82	41.28	-56.3	-58.6	15.3	0.00e+00	0	34	0	658505728	77	5060
2026-01-01 10:58:45.93	248.29	41.35	-56.3	-58.6	15.2	0.00e+00	0	34	0	660602880	77	5085
2026-01-01 10:58:46.93	248.76	41.41	-56.3	-58.7	15.2	0.00e+00	0	34	0	662700032	77	5109
2026-01-01 10:58:47.93	249.24	41.47	-56.4	-58.9	15.1	0.00e+00	0	34	0	664797184	78	4931
2026-01-01 10:58:48.92	249.71	41.53	-56.6	-59.1	15.0	0.00e+00	0	34	0	665845760	78	5075
2026-01-01 10:58:49.92	250.19	41.59	-56.7	-59.2	14.9	0.00e+00	0	34	0	667942912	78	5114
2026-01-01 10:58:50.91	250.66	41.64	-56.7	-59.2	14.8	0.00e+00	0	34	0	670040064	78	5145
2026-01-01 10:58:51.90	251.14	41.69	-56.9	-59.5	14.7	0.00e+00	0	34	0	672137216	78	5287
2026-01-01 10:58:52.90	251.62	41.74	-57.0	-59.7	14.6	0.00e+00	0	34	0	674234368	79	5142
2026-01-01 10:58:53.89	252.10	41.79	-57.2	-59.9	14.5	0.00e+00	0	34	0	675282944	79	5271
2026-01-01 10:58:54.88	252.58	41.84	-57.0	-59.7	14.6	0.00e+00	0	34	0	677380096	79	5125
2026-01-01 10:58:55.87	253.06	41.88	-56.9	-59.5	14.7	0.00e+00	0	34	0	679477248	79	5023
2026-01-01 10:58:56.87	253.55	41.92	-56.7	-59.2	14.9	0.00e+00	0	34	0	681574400	79	4846
2026-01-01 10:58:57.87	254.04	41.96	-56.5	-58.9	15.1	0.00e+00	0	34	0	682622976	79	4702
2026-01-01 10:58:58.86	254.52	42.00	-56.4	-58.8	15.2	0.00e+00	0	34	0	684720128	79	4638
2026-01-01 10:58:59.86	255.02	42.03	-56.5	-58.9	15.1	0.00e+00	0	34	0	686817280	79	4669
2026-01-01 10:59:00.86	255.51	42.06	-56.7	-59.2	14.9	0.00e+00	0	34	0	688914432	79	4852
2026-01-01 10:59:01.86	256.00	42.09	-56.5	-59.0	15.0	0.00e+00	0	34	0	691011584	79	4727
2026-01-01 10:59:02.85	256.49	42.12	-56.2	-58.4	15.3	0.00e+00	0	34	0	692060160	78	4703
2026-01-01 10:59:03.85	256.99	42.15	-55.8	-58.0	15.6	0.00e+00	0	34	0	694157312	78	4445
2026-01-01 10:59:04.84	257.48	42.17	-55.6	-57.7	15.7	0.00e+00	0	34	0	696254464	77	4581
2026-01-01 10:59:05.84	257.97	42.19	-55.8	-57.9	15.7	0.00e+00	0	34	0	698351616	77	4674
2026-01-01 10:59:06.84	258.47	42.21	-56.1	-58.4	15.3	0.00e+00	0	34	0	699400192	77	4973
2026-01-01 10:59:07.85	258.97	42.23	-56.3	-58.6	15.2	0.00e+00	0	34	0	701497344	77	5082
2026-01-01 10:59:08.85	259.47	42.24	-56.3	-58.6	15.2	0.00e+00	0	34	0	703594496	77	5079
2026-01-01 10:59:09.83	259.96	42.25	-55.9	-58.0	15.6	0.00e+00	0	34	0	705691648	77	4749
2026-01-01 10:59:10.83	260.46	42.26	-55.6	-57.7	15.7	0.00e+00	0	34	0	707788800	77	4575
2026-01-01 10:59:11.84	260.96	42.27	-55.6	-57.7	15.7	0.00e+00	0	34	0	708837376	77	4577
2026-01-01 10:59:12.83	261.45	42.27	-55.9	-58.0	15.5	0.00e+00	0	34	0	710934528	77	4740
2026-01-01 10:59:13.82	261.95	42.27	-56.3	-58.6	15.3	0.00e+00	0	34	0	713031680	77	5055
2026-01-01 10:59:14.82	262.45	42.27	-56.4	-58.7	15.2	0.00e+00	0	34	0	715128832	78	4855
2026-01-01 10:59:15.82	262.95	42.27	-56.2	-58.4	15.4	0.00e+00	0	34	0	716177408	78	4700
2026-01-01 10:59:16.82	263.45	42.27	-55.7	-57.8	15.7	0.00e+00	0	34	0	718274560	78	4354
2026-01-01 10:59:17.81	263.94	42.26	-55.5	-57.5	15.9	0.00e+00	0	34	0	720371712	77	4457
2026-01-01 10:59:18.80	264.43	42.25	-55.3	-57.3	15.9	0.00e+00	0	34	0	722468864	77	4366
2026-01-01 10:59:19.79	264.93	42.24	-55.2	-57.1	16.0	0.00e+00	0	34	0	724566016	76	4516
2026-01-01 10:59:20.79	265.42	42.22	-55.1	-57.0	16.1	0.00e+00	0	34	0	725614592	76	4456
2026-01-01 10:59:21.77	265.91	42.21	-54.7	-56.5	16.3	0.00e+00	0	34	0	727711744	76	4236
2026-01-01 10:59:22.76	266.40	42.19	-54.3	-56.1	16.5	0.00e+00	0	34	0	729808896	75	4257
2026-01-01 10:59:23.76	266.90	42.17	-54.2	-55.9	16.5	0.00e+00	0	34	0	731906048	74	4434
2026-01-01 10:59:24.75	267.39	42.14	-54.2	-55.9	16.5	0.00e+00	0	34	0	732954624	74	4423
2026-01-01 10:59:25.73	267.87	42.12	-54.6	-56.4	16.3	0.00e+00	0	34	0	735051776	74	4682
2026-01-01 10:59:26.72	268.36	42.09	-54.9	-56.9	16.1	0.00e+00	0	34	0	737148928	75	4654
2026-01-01 10:59:27.71	268.85	42.06	-54.8	-56.7	16.2	0.00e+00	0	34	0	739246080	75	4567
2026-01-01 10:59:28.71	269.34	42.03	-54.7	-56.5	16.3	0.00e+00	0	34	0	741343232	75	4480
2026-01-01 10:59:29.70	269.83	41.99	-54.8	-56.7	16.1	0.00e+00	0	34	0	742391808	75	4570
2026-01-01 10:59:30.70	270.32	41.96	-55.5	-57.6	15.7	0.00e+00	0	34	0	744488960	76	4772
2026-01-01 10:59:31.70	270.80	41.92	-56.2	-58.5	15.3	0.00e+00	0	34	0	746586112	77	5031
2026-01-01 10:59:32.70	271.29	41.87	-56.3	-58.6	15.2	0.00e+00	0	34	0	748683264	77	5076
2026-01-01 10:59:33.70	271.78	41.83	-55.9	-58.1	15.5	0.00e+00	0	34	0	749731840	77	4809
2026-01-01 10:59:34.69	272.26	41.78	-55.6	-57.7	15.7	0.00e+00	0	34	0	751828992	77	4570
2026-01-01 10:59:35.69	272.74	41.74	-55.7	-57.8	15.7	0.00e+00	0	34	0	753926144	77	4608
2026-01-01 10:59:36.68	273.22	41.69	-55.8	-57.9	15.6	0.00e+00	0	34	0	756023296	77	4700
2026-01-01 10:59:37.67	273.69	41.63	-56.1	-58.3	15.4	0.00e+00	0	34	0	758120448	77	4898
2026-01-01 10:59:38.67	274.17	41.58	-56.0	-58.3	15.4	0.00e+00	0	34	0	759169024	77	4883
2026-01-01 10:59:39.66	274.64	41.52	-55.9	-58.1	15.5	0.00e+00	0	34	0	761266176	77	4760
2026-01-01 10:59:40.65	275.12	41.46	-55.8	-58.0	15.6	0.00e+00	0	34	0	763363328	77	4707
2026-01-01 10:59:41.65	275.59	41.40	-56.4	-58.7	15.2	0.00e+00	0	34	0	765460480	77	5135
2026-01-01 10:59:42.64	276.06	41.34	-57.0	-59.6	14.7	0.00e+00	0	34	0	766509056	79	5100
2026-01-01 10:59:43.64	276.53	41.28	-57.4	-60.4	14.1	0.00e+00	0	34	0	768606208	80	5235
2026-01-01 10:59:44.62	276.98	41.21	-57.4	-60.4	14.2	0.00e+00	0	34	0	770703360	80	5223
2026-01-01 10:59:45.62	277.45	41.14	-56.6	-59.1	14.9	0.00e+00	0	34	0	772800512	80	4538
2026-01-01 10:59:46.61	277.91	41.07	-56.3	-58.6	15.2	0.00e+00	0	34	0	774897664	79	4533
2026-01-01 10:59:47.59	278.36	41.00	-56.5	-58.9	15.2	0.00e+00	0	34	0	775946240	79	4685
2026-01-01 10:59:48.59	278.82	40.93	-57.1	-59.9	14.5	0.00e+00	0	34	0	778043392	79	5228
2026-01-01 10:59:49.58	279.28	40.85	-57.4	-60.2	14.2	0.00e+00	0	34	0	780140544	80	5152
2026-01-01 10:59:50.57	279.73	40.77	-56.8	-59.4	14.7	0.00e+00	0	34	0	782237696	80	4697
2026-01-01 10:59:51.56	280.18	40.69	-56.3	-58.6	15.3	0.00e+00	0	34	0	783286272	79	4517
2026-01-01 10:59:52.56	280.63	40.61	-56.0	-58.2	15.5	0.00e+00	0	34	0	785383424	78	4576
2026-01-01 10:59:53.56	281.08	40.53	-56.1	-58.4	15.4	0.00e+00	0	34	0	787480576	78	4656
2026-01-01 10:59:54.55	281.52	40.44	-56.4	-58.8	15.1	0.00e+00	0	34	0	789577728	78	4905
2026-01-01 10:59:55.55	281.97	40.36	-56.4	-58.8	15.2	0.00e+00	0	34	0	791674880	78	4877
2026-01-01 10:59:56.54	282.40	40.27	-56.1	-58.4	15.4	0.00e+00	0	34	0	792723456	78	4672
2026-01-01 10:59:57.53	282.84	40.18	-55.9	-58.0	15.6	0.00e+00	0	34	0	794820608	78	4491
2026-01-01 10:59:58.52	283.27	40.09	-56.2	-58.5	15.3	0.00e+00	0	34	0	796917760	78	4717
2026-01-01 10:59:59.51	283.70	40.00	-56.5	-58.9	15.1	0.00e+00	0	34	0	799014912	78	4948
2026-01-01 11:00:00.50	284.13	39.90	-56.4	-58.7	15.1	0.00e+00	0	34	0	800063488	78	4848
2026-01-01 11:00:01.50	284.56	39.81	-55.8	-58.0	15.6	0.00e+00	0	34	0	802160640	78	4471
2026-01-01 11:00:02.50	284.99	39.71	-55.0	-56.8	16.1	0.00e+00	0	34	0	804257792	76	4389
2026-01-01 11:00:03.51	285.42	39.61	-54.8	-56.6	16.2	0.00e+00	0	34	0	806354944	76	4277
2026-01-01 11:00:04.50	285.83	39.51	-54.5	-56.3	16.4	0.00e+00	0	34	0	808452096	75	4354
2026-01-01 11:00:05.50	286.25	39.41	-54.6	-56.4	16.3	0.00e+00	0	34	0	809500672	75	4441
2026-01-01 11:00:06.49	286.67	39.30	-54.4	-56.1	16.4	0.00e+00	0	34	0	811597824	75	4290
2026-01-01 11:00:07.48	287.08	39.20	-54.2	-55.9	16.5	0.00e+00	0	34	0	813694976	74	4432
2026-01-01 11:00:08.48	287.49	39.09	-54.0	-55.6	16.6	0.00e+00	0	34	0	815792128	74	4288
2026-01-01 11:00:09.46	287.89	38.99	-54.0	-55.7	16.6	0.00e+00	0	34	0	816840704	74	4326
2026-01-01 11:00:10.45	288.29	38.88	-53.9	-55.5	16.7	0.00e+00	0	34	0	818937856	74	4234
2026-01-01 11:00:11.45	288.70	38.77	-54.3	-56.0	16.5	0.00e+00	0	34	0	821035008	74	4474
2026-01-01 11:00:12.45	289.10	38.66	-54.4	-56.2	16.4	0.00e+00	0	34	0	823132160	74	4563
2026-01-01 11:00:13.45	289.50	38.55	-53.9	-55.6	16.6	0.00e+00	0	34	0	825229312	74	4249
2026-01-01 11:00:14.44	289.89	38.44	-53.5	-55.1	16.8	0.00e+00	0	34	0	826277888	73	4253
2026-01-01 11:00:15.44	290.28	38.32	-53.2	-54.8	16.9	0.00e+00	0	34	0	828375040	73	4110
2026-01-01 11:00:16.44	290.67	38.21	-53.5	-55.1	16.8	0.00e+00	0	34	0	830472192	73	4250
2026-01-01 11:00:17.44	291.06	38.09	-53.8	-55.5	16.7	0.00e+00	0	34	0	832569344	73	4447
2026-01-01 11:00:18.43	291.44	37.97	-53.8	-55.4	16.7	0.00e+00	0	34	0	833617920	73	4411
2026-01-01 11:00:19.42	291.82	37.86	-53.3	-54.8	16.9	0.00e+00	0	34	0	835715072	73	4141
2026-01-01 11:00:20.42	292.20	37.74	-52.8	-54.3	17.1	0.00e+00	0	34	0	837812224	72	4102
2026-01-01 11:00:21.41	292.57	37.62	-52.6	-54.1	17.1	0.00e+00	0	34	0	839909376	71	4258
2026-01-01 11:00:22.41	292.94	37.50	-53.0	-54.5	17.0	0.00e+00	0	34	0	842006528	71	4463
2026-01-01 11:00:23.40	293.31	37.37	-53.6	-55.2	16.8	0.00e+00	0	34	0	843055104	72	4563
2026-01-01 11:00:24.40	293.68	37.25	-54.0	-55.6	16.6	0.00e+00	0	34	0	845152256	73	4542
2026-01-01 11:00:25.39	294.04	37.13	-53.8	-55.5	16.6	0.00e+00	0	34	0	847249408	73	4461
2026-01-01 11:00:26.39	294.40	37.00	-53.6	-55.2	16.8	0.00e+00	0	34	0	849346560	73	4296
2026-01-01 11:00:27.38	294.76	36.88	-53.3	-54.9	16.9	0.00e+00	0	34	0	850395136	73	4162
2026-01-01 11:00:28.38	295.12	36.75	-53.4	-54.9	16.9	0.00e+00	0	34	0	852492288	73	4189
2026-01-01 11:00:29.36	295.47	36.63	-53.9	-55.6	16.6	0.00e+00	0	34	0	854589440	73	4508
2026-01-01 11:00:30.36	295.82	36.50	-53.9	-55.5	16.7	0.00e+00	0	34	0	856686592	73	4470
2026-01-01 11:00:31.36	296.17	36.37	-53.4	-54.9	16.9	0.00e+00	0	34	0	858783744	73	4169
2026-01-01 11:00:32.35	296.51	36.25	-53.0	-54.4	17.0	0.00e+00	0	34	0	859832320	72	4187
2026-01-01 11:00:33.35	296.85	36.12	-53.0	-54.4	17.0	0.00e+00	0	34	0	861929472	72	4182
2026-01-01 11:00:34.34	297.19	35.99	-53.1	-54.6	17.0	0.00e+00	0	34	0	864026624	72	4276
2026-01-01 11:00:35.34	297.53	35.86	-53.5	-55.1	16.8	0.00e+00	0	34	0	866123776	72	4498
2026-01-01 11:00:36.33	297.86	35.73	-53.7	-55.3	16.7	0.00e+00	0	34	0	867172352	72	4623
2026-01-01 11:00:37.32	298.19	35.60	-53.9	-55.6	16.6	0.00e+00	0	34	0	869269504	72	4777
2026-01-01 11:00:38.32	298.52	35.46	-54.1	-55.8	16.5	0.00e+00	0	34	0	871366656	73	4641
2026-01-01 11:00:39.31	298.85	35.33	-54.5	-56.3	16.3	0.00e+00	0	34	0	873463808	74	4649
2026-01-01 11:00:40.30	299.17	35.20	-54.9	-56.8	16.1	0.00e+00	0	34	0	875560960	74	4890
2026-01-01 11:00:41.30	299.49	35.07	-54.9	-56.8	16.1	0.00e+00	0	34	0	876609536	75	4651
2026-01-01 11:00:42.30	299.81	34.93	-55.0	-56.9	16.1	0.00e+00	0	34	0	878706688	75	4681
2026-01-01 11:00:43.30	300.13	34.80	-54.7	-56.5	16.3	0.00e+00	0	34	0	880803840	75	4460
2026-01-01 11:00:44.29	300.44	34.67	-54.3	-56.0	16.4	0.00e+00	0	34	0	882900992	75	4241
2026-01-01 11:00:45.28	300.75	34.53	-54.2	-55.9	16.5	0.00e+00	0	34	0	883949568	75	4181
2026-01-01 11:00:46.27	301.06	34.40	-54.3	-56.0	16.4	0.00e+00	0	34	0	886046720	74	4477
2026-01-01 11:00:47.27	301.37	34.26	-54.6	-56.4	16.3	0.00e+00	0	34	0	888143872	74	4687
2026-01-01 11:00:48.27	301.67	34.13	-54.8	-56.7	16.1	0.00e+00	0	34	0	890241024	74	4869
2026-01-01 11:00:49.25	301.97	33.99	-54.7	-56.6	16.2	0.00e+00	0	34	0	892338176	75	4498
2026-01-01 11:00:50.26	302.27	33.86	-54.1	-55.9	16.5	0.00e+00	0	34	0	893386752	74	4396
2026-01-01 11:00:51.25	302.57	33.72	-54.1	-55.8	16.5	0.00e+00	0	34	0	895483904	74	4371
2026-01-01 11:00:52.24	302.86	33.58	-54.3	-56.0	16.4	0.00e+00	0	34	0	897581056	74	4472
2026-01-01 11:00:53.23	303.15	33.45	-55.2	-57.1	15.9	0.00e+00	0	34	0	899678208	75	4809
2026-01-01 11:00:54.23	303.44	33.31	-56.0	-58.3	15.4	0.00e+00	0	34	0	900726784	77	4893
2026-01-01 11:00:55.23	303.73	33.17	-56.4	-58.8	15.1	0.00e+00	0	34	0	902823936	77	5188
2026-01-01 11:00:56.22	304.01	33.04	-56.2	-58.5	15.3	0.00e+00	0	34	0	904921088	78	4735
2026-01-01 11:00:57.21	304.29	32.90	-55.6	-57.8	15.6	0.00e+00	0	34	0	907018240	77	4601
2026-01-01 11:00:58.21	304.57	32.76	-55.6	-57.7	15.7	0.00e+00	0	34	0	909115392	77	4585
2026-01-01 11:00:59.20	304.85	32.63	-55.9	-58.1	15.5	0.00e+00	0	34	0	910163968	77	4768
2026-01-01 11:01:00.19	305.12	32.49	-56.4	-58.8	15.1	0.00e+00	0	34	0	912261120	78	4874
2026-01-01 11:01:01.18	305.39	32.35	-57.1	-59.9	14.5	0.00e+00	0	34	0	914358272	79	5226
2026-01-01 11:01:02.18	305.66	32.21	-57.4	-60.4	14.1	0.00e+00	0	34	0	916455424	79	5548
2026-01-01 11:01:03.17	305.93	32.08	-57.1	-59.9	14.4	0.00e+00	0	34	0	917504000	80	4928
2026-01-01 11:01:04.16	306.20	31.94	-56.5	-58.9	15.0	0.00e+00	0	34	0	919601152	79	4699
2026-01-01 11:01:05.15	306.46	31.80	-56.1	-58.4	15.3	0.00e+00	0	34	0	921698304	78	4697
2026-01-01 11:01:06.15	306.72	31.67	-56.1	-58.3	15.4	0.00e+00	0	34	0	923795456	78	4637
2026-01-01 11:01:07.14	306.98	31.53	-55.6	-57.7	15.7	0.00e+00	0	34	0	925892608	77	4567
2026-01-01 11:01:08.13	307.23	31.39	-55.6	-57.7	15.7	0.00e+00	0	34	0	926941184	77	4557
2026-01-01 11:01:09.12	307.49	31.25	-56.1	-58.4	15.4	0.00e+00	0	34	0	929038336	77	4942
2026-01-01 11:01:10.12	307.74	31.12	-56.8	-59.4	14.7	0.00e+00	0	34	0	931135488	78	5271
2026-01-01 11:01:11.11	307.99	30.98	-56.6	-59.1	14.9	0.00e+00	0	34	0	933232640	79	4793
2026-01-01 11:01:12.10	308.24	30.84	-55.6	-57.7	15.7	0.00e+00	0	34	0	934281216	77	4565
2026-01-01 11:01:13.09	308.49	30.71	-54.5	-56.3	16.3	0.00e+00	0	34	0	936378368	75	4390
2026-01-01 11:01:14.09	308.73	30.57	-54.3	-56.1	16.4	0.00e+00	0	34	0	938475520	75	4243
2026-01-01 11:01:15.10	308.98	30.43	-54.5	-56.3	16.3	0.00e+00	0	34	0	940572672	75	4380
2026-01-01 11:01:16.10	309.22	30.29	-55.1	-57.1	15.9	0.00e+00	0	34	0	942669824	75	4784
2026-01-01 11:01:17.09	309.46	30.15	-56.0	-58.3	15.3	0.00e+00	0	34	0	943718400	77	4905
2026-01-01 11:01:18.08	309.69	30.02	-56.5	-59.0	15.0	0.00e+00	0	34	0	945815552	78	5005
2026-01-01 11:01:19.08	309.93	29.88	-56.3	-58.7	15.1	0.00e+00	0	34	0	947912704	78	4852
2026-01-01 11:01:20.06	310.16	29.75	-55.7	-57.8	15.6	0.00e+00	0	34	0	950009856	78	4388
2026-01-01 11:01:21.06	310.39	29.61	-55.0	-57.0	16.0	0.00e+00	0	34	0	951058432	76	4456
2026-01-01 11:01:22.06	310.62	29.47	-54.3	-56.0	16.4	0.00e+00	0	34	0	953155584	75	4227
2026-01-01 11:01:23.04	310.84	29.34	-54.0	-55.6	16.5	0.00e+00	0	34	0	955252736	74	4290
2026-01-01 11:01:24.04	311.07	29.20	-54.0	-55.6	16.5	0.00e+00	0	34	0	957349888	74	4287
2026-01-01 11:01:25.03	311.29	29.07	-54.3	-56.1	16.4	0.00e+00	0	34	0	958398464	74	4499
2026-01-01 11:01:26.02	311.51	28.93	-54.9	-56.9	16.0	0.00e+00	0	34	0	960495616	75	4662
2026-01-01 11:01:27.01	311.73	28.80	-55.3	-57.5	15.7	0.00e+00	0	34	0	962592768	75	4989
2026-01-01 11:01:28.01	311.95	28.66	-55.2	-57.3	15.8	0.00e+00	0	34	0	964689920	75	4884
2026-01-01 11:01:29.00	312.16	28.53	-54.6	-56.5	16.2	0.00e+00	0	34	0	966787072	75	4485
2026-01-01 11:01:30.00	312.38	28.39	-53.9	-55.6	16.6	0.00e+00	0	34	0	967835648	74	4259
2026-01-01 11:01:30.99	312.59	28.26	-53.7	-55.3	16.6	0.00e+00	0	34	0	969932800	73	4386
2026-01-01 11:01:31.99	312.80	28.13	-53.2	-54.7	16.9	0.00e+00	0	34	0	972029952	72	4309
2026-01-01 11:01:32.98	313.01	27.99	-52.8	-54.3	17.0	0.00e+00	0	34	0	974127104	72	4100
2026-01-01 11:01:33.97	313.22	27.86	-53.2	-54.8	16.8	0.00e+00	0	34	0	975175680	72	4363
2026-01-01 11:01:34.97	313.43	27.73	-53.9	-55.6	16.5	0.00e+00	0	34	0	977272832	73	4526
2026-01-01 11:01:35.97	313.63	27.59	-54.7	-56.7	16.1	0.00e+00	0	34	0	979369984	74	4824
2026-01-01 11:01:36.96	313.83	27.46	-55.1	-57.2	15.9	0.00e+00	0	34	0	981467136	75	4819
2026-01-01 11:01:37.95	314.03	27.33	-54.8	-56.8	16.0	0.00e+00	0	34	0	983564288	75	4633
2026-01-01 11:01:38.95	314.23	27.20	-54.2	-56.0	16.4	0.00e+00	0	34	0	984612864	75	4196
2026-01-01 11:01:39.94	314.43	27.06	-53.8	-55.4	16.6	0.00e+00	0	34	0	986710016	74	4184
2026-01-01 11:01:40.94	314.63	26.93	-53.5	-55.2	16.7	0.00e+00	0	34	0	988807168	73	4297
2026-01-01 11:01:41.93	314.82	26.80	-53.2	-54.7	16.8	0.00e+00	0	34	0	990904320	72	4323
2026-01-01 11:01:42.92	315.01	26.67	-52.8	-54.3	17.0	0.00e+00	0	34	0	991952896	72	4132
2026-01-01 11:01:43.91	315.20	26.54	-52.9	-54.4	16.9	0.00e+00	0	34	0	994050048	72	4150
2026-01-01 11:01:44.90	315.39	26.41	-53.3	-54.9	16.8	0.00e+00	0	34	0	996147200	72	4394
2026-01-01 11:01:45.91	315.58	26.28	-53.7	-55.3	16.6	0.00e+00	0	34	0	998244352	72	4649
2026-01-01 11:01:46.89	315.77	26.15	-54.0	-55.7	16.5	0.00e+00	0	34	0	1000341504	73	4563
2026-01-01 11:01:47.88	315.95	26.02	-53.9	-55.6	16.5	0.00e+00	0	34	0	1001390080	73	4498
2026-01-01 11:01:48.88	316.13	25.89	-53.3	-54.9	16.8	0.00e+00	0	34	0	1003487232	73	4190
2026-01-01 11:01:49.87	316.32	25.76	-53.0	-54.5	16.9	0.00e+00	0	34	0	1005584384	72	4212
2026-01-01 11:01:50.86	316.50	25.64	-52.6	-54.0	17.1	0.00e+00	0	34	0	1007681536	71	4237
2026-01-01 11:01:51.85	316.67	25.51	-52.2	-53.6	17.2	0.00e+00	0	34	0	1008730112	71	4027
2026-01-01 11:01:52.84	316.85	25.38	-52.3	-53.7	17.2	0.00e+00	0	34	0	1010827264	71	4076
2026-01-01 11:01:53.83	317.03	25.26	-52.3	-53.7	17.2	0.00e+00	0	34	0	1012924416	71	4094
2026-01-01 11:01:54.82	317.20	25.13	-52.6	-54.1	17.0	0.00e+00	0	34	0	1015021568	71	4278
2026-01-01 11:01:55.82	317.38	25.00	-53.0	-54.6	16.9	0.00e+00	0	34	0	1017118720	71	4514
2026-01-01 11:01:56.82	317.55	24.87	-53.2	-54.8	16.8	0.00e+00	0	34	0	1018167296	71	4609
2026-01-01 11:01:57.81	317.72	24.75	-53.3	-54.9	16.8	0.00e+00	0	34	0	1020264448	71	4704
2026-01-01 11:01:58.81	317.89	24.62	-53.3	-54.9	16.8	0.00e+00	0	34	0	1022361600	71	4666
2026-01-01 11:01:59.80	318.06	24.50	-53.0	-54.6	16.9	0.00e+00	0	34	0	1024458752	71	4500
2026-01-01 11:02:00.80	318.23	24.37	-53.0	-54.5	16.9	0.00e+00	0	34	0	1025507328	71	4493
2026-01-01 11:02:01.81	318.40	24.25	-52.8	-54.3	16.9	0.00e+00	0	34	0	1027604480	71	4382
2026-01-01 11:02:02.80	318.56	24.12	-52.6	-54.1	17.0	0.00e+00	0	34	0	1029701632	71	4273
2026-01-01 11:02:03.79	318.72	24.00	-52.7	-54.1	17.0	0.00e+00	0	34	0	1031798784	71	4290
2026-01-01 11:02:04.79	318.89	23.87	-52.9	-54.4	16.8	0.00e+00	0	34	0	1033895936	71	4402
2026-01-01 11:02:05.77	319.05	23.75	-52.9	-54.4	16.9	0.00e+00	0	34	0	1034944512	71	4438
2026-01-01 11:02:06.77	319.21	23.63	-53.0	-54.6	16.8	0.00e+00	0	34	0	1037041664	71	4513
2026-01-01 11:02:07.76	319.36	23.51	-53.2	-54.7	16.8	0.00e+00	0	34	0	1039138816	71	4586
2026-01-01 11:02:08.76	319.52	23.38	-53.1	-54.7	16.8	0.00e+00	0	34	0	1041235968	71	4552
2026-01-01 11:02:09.75	319.68	23.26	-53.1	-54.6	16.8	0.00e+00	0	34	0	1042284544	71	4533
2026-01-01 11:02:10.74	319.83	23.14	-53.1	-54.6	16.8	0.00e+00	0	34	0	1044381696	71	4514
2026-01-01 11:02:11.74	319.99	23.02	-53.1	-54.7	16.8	0.00e+00	0	34	0	1046478848	71	4574
2026-01-01 11:02:12.73	320.14	22.90	-53.1	-54.7	16.8	0.00e+00	0	34	0	1048576000	71	4572
2026-01-01 11:02:13.72	320.29	22.78	-53.1	-54.7	16.8	0.00e+00	0	34	0	1050673152	71	4558
2026-01-01 11:02:14.71	320.44	22.66	-53.2	-54.8	16.8	0.00e+00	0	34	0	1051721728	71	4634
2026-01-01 11:02:15.71	320.59	22.54	-53.5	-55.2	16.6	0.00e+00	0	34	0	1053818880	72	4554
2026-01-01 11:02:16.70	320.74	22.42	-53.4	-55.0	16.7	0.00e+00	0	34	0	1055916032	72	4489
2026-01-01 11:02:17.68	320.88	22.31	-53.5	-55.2	16.6	0.00e+00	0	34	0	1058013184	72	4550
2026-01-01 11:02:18.68	321.03	22.19	-53.5	-55.2	16.6	0.00e+00	0	34	0	1059061760	72	4562
2026-01-01 11:02:19.67	321.17	22.07	-53.5	-55.1	16.7	0.00e+00	0	34	0	1061158912	72	4528
2026-01-01 11:02:20.66	321.32	21.95	-53.6	-55.2	16.6	0.00e+00	0	34	0	1063256064	72	4571
2026-01-01 11:02:21.66	321.46	21.83	-53.3	-54.9	16.7	0.00e+00	0	34	0	1065353216	72	4415
2026-01-01 11:02:22.64	321.60	21.72	-53.3	-54.8	16.8	0.00e+00	0	34	0	1067450368	72	4386
2026-01-01 11:02:23.64	321.74	21.60	-53.3	-54.9	16.7	0.00e+00	0	34	0	1068498944	72	4399
2026-01-01 11:02:24.64	321.88	21.48	-53.2	-54.8	16.8	0.00e+00	0	34	0	1070596096	72	4383
2026-01-01 11:02:25.63	322.02	21.37	-53.5	-55.1	16.6	0.00e+00	0	34	0	1072693248	72	4513
2026-01-01 11:02:26.63	322.16	21.25	-53.7	-55.4	16.5	0.00e+00	0	34	0	1074790400	72	4666
2026-01-01 11:02:27.62	322.30	21.14	-53.9	-55.6	16.4	0.00e+00	0	34	0	1075838976	72	4812
2026-01-01 11:02:28.61	322.43	21.02	-54.3	-56.1	16.2	0.00e+00	0	34	0	1077936128	73	4805
2026-01-01 11:02:29.61	322.57	20.91	-54.5	-56.5	16.1	0.00e+00	0	34	0	1080033280	74	4715
2026-01-01 11:02:30.60	322.70	20.80	-54.7	-56.6	16.0	0.00e+00	0	34	0	1082130432	74	4804
2026-01-01 11:02:31.59	322.83	20.68	-54.7	-56.7	16.0	0.00e+00	0	34	0	1084227584	74	4855
2026-01-01 11:02:32.58	322.96	20.57	-54.7	-56.6	16.0	0.00e+00	0	34	0	1085276160	74	4811
2026-01-01 11:02:33.57	323.10	20.46	-54.6	-56.6	16.0	0.00e+00	0	34	0	1087373312	74	4767
2026-01-01 11:02:34.57	323.23	20.34	-54.4	-56.3	16.2	0.00e+00	0	34	0	1089470464	74	4620
2026-01-01 11:02:35.57	323.36	20.23	-54.3	-56.1	16.2	0.00e+00	0	34	0	1091567616	74	4535
2026-01-01 11:02:36.56	323.48	20.12	-54.2	-56.0	16.3	0.00e+00	0	34	0	1092616192	74	4469
2026-01-01 11:02:37.56	323.61	20.01	-54.1	-55.8	16.4	0.00e+00	0	34	0	1094713344	74	4390
2026-01-01 11:02:38.56	323.74	19.90	-54.0	-55.7	16.4	0.00e+00	0	34	0	1096810496	74	4323
2026-01-01 11:02:39.56	323.87	19.78	-54.0	-55.8	16.4	0.00e+00	0	34	0	1098907648	74	4356
2026-01-01 11:02:40.55	323.99	19.67	-54.1	-55.9	16.3	0.00e+00	0	34	0	1101004800	74	4427
2026-01-01 11:02:41.54	324.11	19.56	-54.1	-55.9	16.3	0.00e+00	0	34	0	1102053376	74	4404
2026-01-01 11:02:42.52	324.23	19.46	-54.1	-55.9	16.3	0.00e+00	0	34	0	1104150528	74	4411
2026-01-01 11:02:43.52	324.36	19.35	-54.3	-56.1	16.2	0.00e+00	0	34	0	1106247680	74	4528
2026-01-01 11:02:44.52	324.48	19.24	-54.3	-56.2	16.2	0.00e+00	0	34	0	1108344832	74	4558
2026-01-01 11:02:45.51	324.60	19.13	-54.4	-56.3	16.2	0.00e+00	0	34	0	1109393408	74	4606
2026-01-01 11:02:46.51	324.72	19.02	-54.5	-56.4	16.1	0.00e+00	0	34	0	1111490560	74	4681
2026-01-01 11:02:47.50	324.84	18.91	-54.4	-56.3	16.1	0.00e+00	0	34	0	1113587712	74	4606
2026-01-01 11:02:48.50	324.96	18.80	-54.5	-56.4	16.0	0.00e+00	0	34	0	1115684864	74	4683
2026-01-01 11:02:49.49	325.07	18.70	-54.3	-56.1	16.2	0.00e+00	0	34	0	1117782016	74	4521
2026-01-01 11:02:50.48	325.19	18.59	-54.1	-55.9	16.3	0.00e+00	0	34	0	1118830592	74	4422
2026-01-01 11:02:51.48	325.31	18.48	-54.1	-55.9	16.3	0.00e+00	0	34	0	1120927744	74	4396
2026-01-01 11:02:52.48	325.42	18.38	-53.9	-55.8	16.3	0.00e+00	0	34	0	1123024896	74	4352
2026-01-01 11:02:53.47	325.54	18.27	-53.9	-55.6	16.4	0.00e+00	0	34	0	1125122048	74	4266
2026-01-01 11:02:54.46	325.65	18.17	-53.9	-55.7	16.3	0.00e+00	0	34	0	1126170624	74	4311
2026-01-01 11:02:55.45	325.76	18.06	-53.9	-55.7	16.4	0.00e+00	0	34	0	1128267776	74	4318
2026-01-01 11:02:56.43	325.87	17.96	-54.0	-55.7	16.3	0.00e+00	0	34	0	1130364928	74	4330
2026-01-01 11:02:57.42	325.98	17.86	-53.8	-55.5	16.5	0.00e+00	0	34	0	1132462080	74	4234
2026-01-01 11:02:58.42	326.09	17.75	-53.8	-55.5	16.5	0.00e+00	0	34	0	1133510656	74	4202
2026-01-01 11:02:59.41	326.20	17.65	-53.9	-55.7	16.4	0.00e+00	0	34	0	1135607808	74	4294
2026-01-01 11:03:00.41	326.31	17.54	-53.9	-55.6	16.4	0.00e+00	0	34	0	1137704960	74	4278
2026-01-01 11:03:01.40	326.42	17.44	-53.9	-55.6	16.4	0.00e+00	0	34	0	1139802112	74	4270
2026-01-01 11:03:02.39	326.53	17.34	-54.1	-55.9	16.3	0.00e+00	0	34	0	1141899264	74	4420
2026-01-01 11:03:03.39	326.64	17.24	-54.1	-56.0	16.2	0.00e+00	0	34	0	1142947840	74	4444
2026-01-01 11:03:04.38	326.74	17.14	-54.2	-56.0	16.2	0.00e+00	0	34	0	1145044992	74	4467
2026-01-01 11:03:05.38	326.85	17.03	-54.3	-56.2	16.1	0.00e+00	0	34	0	1147142144	74	4563
2026-01-01 11:03:06.37	326.95	16.93	-54.2	-56.0	16.2	0.00e+00	0	34	0	1149239296	74	4478
2026-01-01 11:03:07.36	327.06	16.83	-54.3	-56.2	16.1	0.00e+00	0	34	0	1150287872	74	4558
2026-01-01 11:03:08.36	327.16	16.73	-54.2	-56.0	16.2	0.00e+00	0	34	0	1152385024	74	4485
2026-01-01 11:03:09.35	327.26	16.63	-54.2	-56.1	16.2	0.00e+00	0	34	0	1154482176	74	4499
2026-01-01 11:03:10.35	327.37	16.53	-54.1	-55.9	16.2	0.00e+00	0	34	0	1156579328	74	4433
2026-01-01 11:03:11.35	327.47	16.43	-54.1	-55.9	16.2	0.00e+00	0	34	0	1158676480	74	4425
2026-01-01 11:03:12.33	327.57	16.33	-54.1	-55.9	16.2	0.00e+00	0	34	0	1159725056	74	4422
2026-01-01 11:03:13.33	327.67	16.23	-54.0	-55.9	16.3	0.00e+00	0	34	0	1161822208	74	4394
2026-01-01 11:03:14.33	327.77	16.13	-54.1	-55.9	16.2	0.00e+00	0	34	0	1163919360	74	4438
2026-01-01 11:03:15.32	327.87	16.04	-54.2	-56.0	16.2	0.00e+00	0	34	0	1166016512	74	4487
2026-01-01 11:03:16.30	327.96	15.94	-54.2	-56.0	16.2	0.00e+00	0	34	0	1167065088	74	4485
2026-01-01 11:03:17.29	328.06	15.84	-54.3	-56.2	16.1	0.00e+00	0	34	0	1169162240	74	4563
2026-01-01 11:03:18.29	328.16	15.74	-54.4	-56.3	16.1	0.00e+00	0	34	0	1171259392	74	4610
2026-01-01 11:03:19.28	328.26	15.65	-54.4	-56.4	16.0	0.00e+00	0	34	0	1173356544	74	4661
2026-01-01 11:03:20.27	328.35	15.55	-54.5	-56.5	16.0	0.00e+00	0	34	0	1175453696	74	4711
2026-01-01 11:03:21.26	328.45	15.45	-54.6	-56.6	15.9	0.00e+00	0	34	0	1176502272	74	4781
2026-01-01 11:03:22.25	328.54	15.36	-54.7	-56.7	15.8	0.00e+00	0	34	0	1178599424	74	4832
2026-01-01 11:03:23.24	328.64	15.26	-54.7	-56.8	15.8	0.00e+00	0	34	0	1180696576	74	4871
2026-01-01 11:03:24.23	328.73	15.17	-54.7	-56.7	15.8	0.00e+00	0	34	0	1182793728	74	4832
2026-01-01 11:03:25.22	328.82	15.07	-54.6	-56.7	15.8	0.00e+00	0	34	0	1183842304	74	4834
2026-01-01 11:03:26.21	328.91	14.98	-54.6	-56.6	15.8	0.00e+00	0	34	0	1185939456	74	4807
2026-01-01 11:03:27.20	329.01	14.89	-54.6	-56.6	15.8	0.00e+00	0	34	0	1188036608	74	4790
2026-01-01 11:03:28.19	329.10	14.79	-54.6	-56.6	15.9	0.00e+00	0	34	0	1190133760	74	4791
2026-01-01 11:03:29.18	329.19	14.70	-54.6	-56.6	15.8	0.00e+00	0	34	0	1192230912	74	4775
2026-01-01 11:03:30.18	329.28	14.60	-54.5	-56.6	15.9	0.00e+00	0	34	0	1193279488	74	4762
2026-01-01 11:03:31.17	329.37	14.51	-54.4	-56.3	16.0	0.00e+00	0	34	0	1195376640	74	4634
2026-01-01 11:03:32.16	329.46	14.42	-54.3	-56.3	16.0	0.00e+00	0	34	0	1197473792	74	4621
2026-01-01 11:03:33.16	329.55	14.32	-54.4	-56.3	16.0	0.00e+00	0	34	0	1199570944	74	4640
2026-01-01 11:03:34.16	329.64	14.23	-54.3	-56.3	16.0	0.00e+00	0	34	0	1200619520	74	4603
2026-01-01 11:03:35.15	329.72	14.14	-54.2	-56.1	16.1	0.00e+00	0	34	0	1202716672	74	4515
2026-01-01 11:03:36.14	329.81	14.05	-54.3	-56.2	16.0	0.00e+00	0	34	0	1204813824	74	4562
