passes_logs/2026/01/01/R3.2S_Murmansk/R3.2S_Murmansk__20260101_045527_FENGYUN_3D_rec.log

#Pass ID: 20260101_045527_FENGYUN 3D
#Satellite: FENGYUN 3D
#Configuration: FENGYUN 3D
#almurnet v.1.7.20251203
#Start time: 2026-01-01 04:55:28

#Version: 2.2.20231116
#Station: R3.2S_Murmansk
#Location: 33.079688 lon 68.888172 lat
#TLE: 1 43010U 17072A   25365.62623336  .00000074  00000+0  56776-4 0  9992
#TLE: 2 43010  98.9911 332.2217 0001845 134.7096 225.4230 14.19689678421212

#Time	Az	El	Level	Level2	SNR	BER	BlckErr	Temp	State	Recorded	gain1	gain2
2026-01-01 04:55:28.54	37.30	2.05	-59.7	-72.7	3.8	8.47e-01	0	32	0	0	85	16273
2026-01-01 04:55:29.53	37.25	2.11	-59.7	-72.7	3.8	8.45e-01	0	32	104	0	84	17151
2026-01-01 04:55:30.54	37.21	2.17	-59.7	-72.7	3.8	8.44e-01	0	32	104	0	84	17134
2026-01-01 04:55:31.54	37.16	2.23	-59.7	-72.7	3.8	8.46e-01	0	32	104	0	84	17168
2026-01-01 04:55:32.54	37.12	2.29	-59.7	-72.7	3.8	8.46e-01	0	32	104	0	84	17148
2026-01-01 04:55:33.55	37.07	2.35	-59.7	-72.7	3.8	8.45e-01	0	32	104	0	84	17216
2026-01-01 04:55:34.55	37.03	2.41	-59.7	-72.7	3.8	8.46e-01	0	32	104	0	84	17091
2026-01-01 04:55:35.55	36.98	2.47	-59.7	-72.7	3.8	8.45e-01	0	32	104	0	84	17120
2026-01-01 04:55:36.54	36.94	2.54	-59.7	-72.7	3.8	8.46e-01	0	32	104	0	84	17092
2026-01-01 04:55:37.54	36.89	2.60	-59.7	-72.6	3.8	8.45e-01	0	32	104	0	84	16965
2026-01-01 04:55:38.55	36.85	2.66	-59.7	-72.6	3.8	8.45e-01	0	32	104	0	84	17032
2026-01-01 04:55:39.55	36.80	2.72	-59.7	-72.6	3.8	8.45e-01	0	32	104	0	84	17011
2026-01-01 04:55:40.55	36.75	2.78	-59.7	-72.6	3.8	8.45e-01	0	32	104	0	84	17018
2026-01-01 04:55:41.55	36.71	2.85	-59.7	-72.6	3.8	8.45e-01	0	32	104	0	84	17006
2026-01-01 04:55:42.55	36.66	2.91	-59.7	-72.6	3.8	8.45e-01	0	32	104	0	84	16967
2026-01-01 04:55:43.55	36.61	2.97	-59.7	-72.5	3.8	8.46e-01	0	32	104	0	84	16803
2026-01-01 04:55:44.56	36.57	3.03	-59.7	-72.6	3.8	8.46e-01	0	32	104	0	84	16897
2026-01-01 04:55:45.56	36.52	3.10	-59.7	-72.5	3.8	8.45e-01	0	32	104	0	84	16859
2026-01-01 04:55:46.55	36.47	3.16	-59.7	-72.5	3.8	8.45e-01	0	33	104	0	84	16806
2026-01-01 04:55:47.55	36.42	3.22	-59.7	-72.6	3.8	8.45e-01	0	32	104	0	84	16893
2026-01-01 04:55:48.55	36.38	3.28	-59.7	-72.6	3.8	8.45e-01	0	33	104	0	84	16913
2026-01-01 04:55:49.56	36.33	3.35	-59.7	-72.6	3.8	8.45e-01	0	32	104	0	84	16972
2026-01-01 04:55:50.56	36.28	3.41	-59.7	-72.6	3.8	8.45e-01	0	32	104	0	84	17068
2026-01-01 04:55:51.56	36.23	3.47	-59.7	-72.7	3.8	8.46e-01	0	32	104	0	84	17182
2026-01-01 04:55:52.57	36.18	3.54	-59.7	-72.7	3.8	8.45e-01	0	32	104	0	84	17169
2026-01-01 04:55:53.57	36.13	3.60	-59.7	-72.7	3.8	8.46e-01	0	33	104	0	84	17102
2026-01-01 04:55:54.57	36.08	3.66	-59.7	-72.6	3.8	8.45e-01	0	32	104	0	84	17075
2026-01-01 04:55:55.57	36.03	3.73	-59.7	-72.6	3.8	8.46e-01	0	32	104	0	84	16938
2026-01-01 04:55:56.56	35.98	3.79	-59.7	-72.5	3.8	8.45e-01	0	33	104	0	84	16751
2026-01-01 04:55:57.56	35.93	3.85	-59.7	-72.2	3.8	8.46e-01	0	33	104	0	84	16288
2026-01-01 04:55:58.56	35.88	3.92	-59.7	-72.0	3.8	8.46e-01	0	33	104	0	84	15837
2026-01-01 04:55:59.56	35.83	3.98	-59.6	-71.7	3.8	8.46e-01	0	33	104	0	84	15242
2026-01-01 04:56:00.56	35.78	4.05	-59.6	-71.2	3.8	8.46e-01	0	33	104	0	84	14378
2026-01-01 04:56:01.56	35.73	4.11	-59.6	-70.6	3.9	8.43e-01	0	33	104	0	84	13564
2026-01-01 04:56:02.56	35.68	4.18	-59.5	-70.3	3.8	8.45e-01	0	33	104	0	84	12988
2026-01-01 04:56:03.56	35.63	4.24	-59.5	-70.3	3.9	8.44e-01	0	33	104	0	84	12972
2026-01-01 04:56:04.56	35.58	4.31	-59.5	-70.4	4.0	8.44e-01	0	33	104	0	84	13149
2026-01-01 04:56:05.56	35.53	4.37	-59.6	-70.9	3.8	8.44e-01	0	33	104	0	84	13996
2026-01-01 04:56:06.56	35.47	4.44	-59.6	-71.3	3.8	8.45e-01	0	33	104	0	84	14635
2026-01-01 04:56:07.56	35.42	4.50	-59.6	-71.2	3.8	8.47e-01	0	33	104	0	84	14502
2026-01-01 04:56:08.57	35.37	4.57	-59.5	-69.9	4.0	8.43e-01	0	33	104	0	84	12473
2026-01-01 04:56:09.56	35.32	4.63	-59.2	-67.6	4.7	8.24e-01	0	33	0	0	84	9503
2026-01-01 04:56:10.56	35.26	4.70	-58.5	-64.9	6.2	3.62e-01	0	33	0	2097152	83	7388
2026-01-01 04:56:11.56	35.21	4.76	-57.8	-62.7	8.1	8.58e-02	0	33	0	7340032	82	6129
2026-01-01 04:56:12.57	35.16	4.83	-56.9	-60.8	9.9	1.61e-02	0	33	0	12582912	80	5522
2026-01-01 04:56:13.57	35.10	4.90	-56.2	-59.4	11.2	8.54e-04	0	33	0	18874368	79	4933
2026-01-01 04:56:14.56	35.05	4.96	-55.6	-58.3	12.1	1.12e-04	0	33	0	24117248	77	4920
2026-01-01 04:56:15.56	34.99	5.03	-54.9	-57.3	12.9	1.10e-06	0	33	0	29360128	76	4645
2026-01-01 04:56:16.55	34.94	5.09	-55.4	-58.2	12.2	1.10e-06	0	33	0	35651584	75	5431
2026-01-01 04:56:17.56	34.88	5.16	-57.7	-62.5	8.6	4.59e-03	0	33	0	40894464	80	6649
2026-01-01 04:56:18.55	34.83	5.23	-54.5	-56.7	13.2	9.29e-02	0	33	0	47185920	75	4592
2026-01-01 04:56:19.55	34.77	5.30	-52.3	-54.0	15.1	0.00e+00	0	33	0	52428800	71	4194
2026-01-01 04:56:20.55	34.72	5.36	-55.0	-57.5	12.9	0.00e+00	0	33	0	57671680	74	5307
2026-01-01 04:56:21.55	34.66	5.43	-54.0	-56.1	13.7	2.53e-02	0	33	0	63963136	74	4539
2026-01-01 04:56:22.55	34.61	5.50	-51.3	-52.7	15.8	0.00e+00	0	33	0	69206016	69	4083
2026-01-01 04:56:23.55	34.55	5.56	-51.3	-52.7	15.8	0.00e+00	0	33	0	74448896	69	4094
2026-01-01 04:56:24.55	34.49	5.63	-51.2	-52.6	15.9	0.00e+00	0	33	0	80740352	69	4033
2026-01-01 04:56:25.56	34.43	5.70	-51.3	-52.8	15.8	0.00e+00	0	33	0	85983232	69	4118
2026-01-01 04:56:26.56	34.38	5.77	-51.3	-52.8	15.8	0.00e+00	0	33	0	91226112	68	4375
2026-01-01 04:56:27.56	34.32	5.84	-51.3	-52.8	15.8	0.00e+00	0	33	0	97517568	68	4359
2026-01-01 04:56:28.55	34.26	5.90	-51.3	-52.8	15.8	0.00e+00	0	33	0	102760448	68	4372
2026-01-01 04:56:29.56	34.20	5.97	-51.3	-52.7	15.8	0.00e+00	0	33	0	109051904	68	4324
2026-01-01 04:56:30.56	34.14	6.04	-51.4	-52.8	15.8	0.00e+00	0	33	0	114294784	68	4380
2026-01-01 04:56:31.56	34.08	6.11	-51.3	-52.8	15.8	0.00e+00	0	33	0	119537664	68	4378
2026-01-01 04:56:32.56	34.03	6.18	-51.3	-52.8	15.8	0.00e+00	0	33	0	125829120	68	4365
2026-01-01 04:56:33.56	33.97	6.25	-51.5	-52.9	15.7	0.00e+00	0	33	0	131072000	68	4432
2026-01-01 04:56:34.56	33.91	6.32	-51.3	-52.8	15.8	0.00e+00	0	33	0	136314880	68	4367
2026-01-01 04:56:35.55	33.85	6.39	-51.1	-52.6	15.9	0.00e+00	0	33	0	142606336	68	4250
2026-01-01 04:56:36.55	33.79	6.46	-51.1	-52.6	15.9	0.00e+00	0	33	0	147849216	68	4254
2026-01-01 04:56:37.54	33.73	6.53	-51.2	-52.7	15.9	0.00e+00	0	33	0	153092096	68	4314
2026-01-01 04:56:38.54	33.66	6.59	-51.3	-52.7	15.9	0.00e+00	0	33	0	159383552	68	4335
2026-01-01 04:56:39.55	33.60	6.67	-51.2	-52.7	15.9	0.00e+00	0	33	0	164626432	68	4293
2026-01-01 04:56:40.54	33.54	6.73	-51.3	-52.7	15.9	0.00e+00	0	33	0	170917888	68	4332
2026-01-01 04:56:41.54	33.48	6.81	-51.3	-52.7	15.9	0.00e+00	0	33	0	176160768	68	4316
2026-01-01 04:56:42.55	33.42	6.88	-51.2	-52.6	15.9	0.00e+00	0	33	0	181403648	68	4276
2026-01-01 04:56:43.54	33.35	6.95	-51.1	-52.6	16.0	0.00e+00	0	33	0	187695104	68	4252
2026-01-01 04:56:44.54	33.29	7.02	-51.0	-52.5	16.0	0.00e+00	0	33	0	192937984	68	4197
2026-01-01 04:56:45.54	33.23	7.09	-51.0	-52.4	16.1	0.00e+00	0	33	0	198180864	68	4178
2026-01-01 04:56:46.54	33.16	7.16	-51.0	-52.4	16.0	0.00e+00	0	33	0	204472320	68	4185
2026-01-01 04:56:47.55	33.10	7.23	-51.0	-52.5	16.0	0.00e+00	0	33	0	209715200	68	4197
2026-01-01 04:56:48.55	33.04	7.30	-51.0	-52.5	16.1	0.00e+00	0	33	0	214958080	68	4197
2026-01-01 04:56:49.55	32.97	7.37	-51.0	-52.3	16.1	0.00e+00	0	33	0	221249536	68	4145
2026-01-01 04:56:50.54	32.91	7.44	-51.1	-52.5	16.0	0.00e+00	0	33	0	226492416	68	4203
2026-01-01 04:56:51.54	32.84	7.52	-50.9	-52.3	16.2	0.00e+00	0	33	0	232783872	68	4108
2026-01-01 04:56:52.54	32.78	7.59	-50.9	-52.3	16.2	0.00e+00	0	33	0	238026752	68	4120
2026-01-01 04:56:53.53	32.71	7.66	-51.0	-52.3	16.2	0.00e+00	0	33	0	243269632	68	4140
2026-01-01 04:56:54.53	32.64	7.73	-50.8	-52.2	16.2	0.00e+00	0	33	0	248512512	68	4060
2026-01-01 04:56:55.53	32.58	7.81	-50.9	-52.2	16.2	0.00e+00	0	33	0	254803968	68	4082
2026-01-01 04:56:56.53	32.51	7.88	-50.7	-52.1	16.3	0.00e+00	0	33	0	260046848	68	4019
2026-01-01 04:56:57.52	32.44	7.95	-50.7	-52.1	16.3	0.00e+00	0	33	0	266338304	68	4005
2026-01-01 04:56:58.52	32.38	8.02	-50.4	-51.8	16.3	0.00e+00	0	33	0	271581184	67	4102
2026-01-01 04:56:59.52	32.31	8.10	-50.4	-51.7	16.4	0.00e+00	0	33	0	276824064	67	4069
2026-01-01 04:57:00.52	32.24	8.17	-50.4	-51.7	16.4	0.00e+00	0	33	0	283115520	67	4091
2026-01-01 04:57:01.52	32.17	8.24	-50.4	-51.8	16.4	0.00e+00	0	34	0	288358400	67	4102
2026-01-01 04:57:02.51	32.10	8.32	-50.4	-51.7	16.4	0.00e+00	0	33	0	293601280	67	4090
2026-01-01 04:57:03.51	32.03	8.39	-50.3	-51.6	16.4	0.00e+00	0	33	0	299892736	67	4024
2026-01-01 04:57:04.50	31.96	8.46	-50.3	-51.6	16.4	0.00e+00	0	33	0	305135616	67	4033
2026-01-01 04:57:05.50	31.89	8.54	-50.2	-51.5	16.5	0.00e+00	0	33	0	310378496	67	3982
2026-01-01 04:57:06.50	31.82	8.61	-50.2	-51.5	16.4	0.00e+00	0	33	0	316669952	66	4209
2026-01-01 04:57:07.49	31.75	8.69	-50.3	-51.6	16.4	0.00e+00	0	33	0	321912832	66	4243
2026-01-01 04:57:08.49	31.68	8.76	-50.2	-51.5	16.5	0.00e+00	0	33	0	328204288	66	4201
2026-01-01 04:57:09.48	31.61	8.83	-50.2	-51.5	16.5	0.00e+00	0	33	0	333447168	66	4212
2026-01-01 04:57:10.48	31.54	8.91	-50.3	-51.6	16.4	0.00e+00	0	34	0	338690048	66	4251
2026-01-01 04:57:11.47	31.46	8.98	-50.2	-51.5	16.4	0.00e+00	0	33	0	343932928	66	4241
2026-01-01 04:57:12.46	31.39	9.06	-50.3	-51.6	16.4	0.00e+00	0	33	0	350224384	66	4287
2026-01-01 04:57:13.45	31.32	9.13	-50.2	-51.5	16.4	0.00e+00	0	33	0	355467264	66	4232
2026-01-01 04:57:14.45	31.25	9.21	-50.2	-51.5	16.4	0.00e+00	0	33	0	360710144	66	4235
2026-01-01 04:57:15.45	31.17	9.29	-50.2	-51.5	16.5	0.00e+00	0	33	0	367001600	66	4232
2026-01-01 04:57:16.45	31.10	9.36	-50.3	-51.7	16.4	0.00e+00	0	33	0	372244480	66	4296
2026-01-01 04:57:17.45	31.02	9.44	-50.3	-51.6	16.5	0.00e+00	0	33	0	378535936	66	4256
2026-01-01 04:57:18.45	30.95	9.52	-50.2	-51.5	16.5	0.00e+00	0	33	0	383778816	66	4233
2026-01-01 04:57:19.45	30.87	9.59	-50.2	-51.5	16.5	0.00e+00	0	33	0	389021696	66	4212
2026-01-01 04:57:20.44	30.80	9.67	-50.2	-51.5	16.5	0.00e+00	0	33	0	395313152	66	4195
2026-01-01 04:57:21.44	30.72	9.75	-50.3	-51.6	16.5	0.00e+00	0	33	0	400556032	66	4260
2026-01-01 04:57:22.44	30.64	9.82	-50.2	-51.5	16.5	0.00e+00	0	33	0	405798912	66	4198
2026-01-01 04:57:23.44	30.56	9.90	-50.2	-51.5	16.5	0.00e+00	0	33	0	412090368	66	4201
2026-01-01 04:57:24.45	30.49	9.98	-50.2	-51.5	16.5	0.00e+00	0	33	0	417333248	66	4225
2026-01-01 04:57:25.45	30.41	10.06	-50.2	-51.5	16.5	0.00e+00	0	33	0	422576128	66	4230
2026-01-01 04:57:26.45	30.33	10.14	-50.2	-51.4	16.5	0.00e+00	0	34	0	428867584	66	4187
2026-01-01 04:57:27.45	30.25	10.21	-50.1	-51.4	16.5	0.00e+00	0	33	0	434110464	66	4180
2026-01-01 04:57:28.45	30.17	10.29	-50.1	-51.3	16.6	0.00e+00	0	33	0	440401920	66	4135
2026-01-01 04:57:29.45	30.09	10.37	-50.2	-51.5	16.5	0.00e+00	0	33	0	445644800	66	4228
2026-01-01 04:57:30.45	30.01	10.45	-50.1	-51.4	16.5	0.00e+00	0	33	0	450887680	66	4167
2026-01-01 04:57:31.45	29.93	10.53	-50.1	-51.4	16.5	0.00e+00	0	33	0	457179136	66	4179
2026-01-01 04:57:32.44	29.85	10.61	-50.0	-51.3	16.6	0.00e+00	0	33	0	462422016	66	4110
2026-01-01 04:57:33.45	29.76	10.69	-49.9	-51.2	16.7	0.00e+00	0	34	0	467664896	66	4076
2026-01-01 04:57:34.44	29.68	10.77	-49.9	-51.2	16.6	0.00e+00	0	33	0	473956352	66	4075
2026-01-01 04:57:35.44	29.60	10.85	-49.8	-51.0	16.7	0.00e+00	0	33	0	479199232	66	3996
2026-01-01 04:57:36.44	29.52	10.93	-49.8	-51.0	16.7	0.00e+00	0	34	0	484442112	66	3981
2026-01-01 04:57:37.44	29.43	11.01	-49.8	-51.0	16.7	0.00e+00	0	34	0	490733568	66	4002
2026-01-01 04:57:38.43	29.35	11.09	-49.8	-51.0	16.7	0.00e+00	0	34	0	495976448	66	3982
2026-01-01 04:57:39.43	29.26	11.17	-49.8	-51.1	16.7	0.00e+00	0	33	0	501219328	66	4008
2026-01-01 04:57:40.42	29.18	11.25	-49.8	-51.0	16.7	0.00e+00	0	33	0	507510784	66	3983
2026-01-01 04:57:41.41	29.09	11.33	-49.7	-50.9	16.8	0.00e+00	0	33	0	512753664	66	3958
2026-01-01 04:57:42.41	29.01	11.41	-49.7	-50.9	16.7	0.00e+00	0	33	0	517996544	65	4184
2026-01-01 04:57:43.42	28.92	11.49	-49.8	-51.0	16.7	0.00e+00	0	34	0	524288000	65	4238
2026-01-01 04:57:44.42	28.83	11.57	-49.7	-50.9	16.8	0.00e+00	0	33	0	529530880	65	4161
2026-01-01 04:57:45.42	28.74	11.65	-49.5	-50.8	16.8	0.00e+00	0	33	0	534773760	65	4099
2026-01-01 04:57:46.42	28.66	11.74	-49.5	-50.7	16.8	0.00e+00	0	33	0	541065216	65	4086
2026-01-01 04:57:47.42	28.57	11.82	-49.5	-50.8	16.8	0.00e+00	0	34	0	546308096	65	4100
2026-01-01 04:57:48.42	28.48	11.90	-49.5	-50.7	16.8	0.00e+00	0	33	0	552599552	65	4070
2026-01-01 04:57:49.42	28.39	11.98	-49.6	-50.8	16.8	0.00e+00	0	34	0	557842432	65	4111
2026-01-01 04:57:50.42	28.30	12.07	-49.5	-50.7	16.8	0.00e+00	0	34	0	563085312	65	4071
2026-01-01 04:57:51.42	28.21	12.15	-49.5	-50.7	16.9	0.00e+00	0	33	0	569376768	65	4069
2026-01-01 04:57:52.43	28.11	12.23	-49.4	-50.6	16.9	0.00e+00	0	34	0	574619648	65	4044
2026-01-01 04:57:53.43	28.02	12.32	-49.3	-50.5	16.9	0.00e+00	0	33	0	579862528	65	3964
2026-01-01 04:57:54.42	27.93	12.40	-49.2	-50.4	17.0	0.00e+00	0	33	0	586153984	65	3944
2026-01-01 04:57:55.42	27.84	12.48	-49.2	-50.4	17.0	0.00e+00	0	33	0	591396864	65	3943
2026-01-01 04:57:56.42	27.74	12.57	-49.2	-50.4	17.0	0.00e+00	0	33	0	596639744	65	3929
2026-01-01 04:57:57.42	27.65	12.65	-49.1	-50.3	17.0	0.00e+00	0	34	0	602931200	64	4124
2026-01-01 04:57:58.42	27.55	12.74	-49.1	-50.3	17.0	0.00e+00	0	33	0	608174080	64	4108
2026-01-01 04:57:59.42	27.46	12.82	-49.2	-50.4	17.0	0.00e+00	0	34	0	614465536	64	4163
2026-01-01 04:58:00.42	27.36	12.91	-49.2	-50.4	16.9	0.00e+00	0	34	0	619708416	64	4185
2026-01-01 04:58:01.42	27.27	12.99	-49.1	-50.3	17.0	0.00e+00	0	34	0	624951296	64	4134
2026-01-01 04:58:02.43	27.17	13.08	-49.2	-50.3	17.0	0.00e+00	0	34	0	631242752	64	4140
2026-01-01 04:58:03.42	27.07	13.16	-49.1	-50.3	17.0	0.00e+00	0	33	0	636485632	64	4107
2026-01-01 04:58:04.42	26.97	13.25	-49.1	-50.3	17.0	0.00e+00	0	34	0	641728512	64	4115
2026-01-01 04:58:05.41	26.87	13.33	-49.2	-50.4	16.9	0.00e+00	0	33	0	648019968	64	4182
2026-01-01 04:58:06.41	26.77	13.42	-49.3	-50.5	16.9	0.00e+00	0	33	0	653262848	64	4233
2026-01-01 04:58:07.40	26.68	13.51	-49.3	-50.5	16.9	0.00e+00	0	33	0	658505728	64	4201
2026-01-01 04:58:08.39	26.58	13.59	-49.3	-50.5	16.9	0.00e+00	0	33	0	664797184	64	4232
2026-01-01 04:58:09.39	26.47	13.68	-49.3	-50.5	16.9	0.00e+00	0	34	0	670040064	64	4231
2026-01-01 04:58:10.38	26.37	13.77	-49.4	-50.6	16.9	0.00e+00	0	34	0	676331520	64	4266
2026-01-01 04:58:11.38	26.27	13.85	-49.3	-50.5	16.9	0.00e+00	0	34	0	681574400	64	4221
2026-01-01 04:58:12.38	26.17	13.94	-49.2	-50.4	16.9	0.00e+00	0	33	0	686817280	64	4153
2026-01-01 04:58:13.38	26.06	14.03	-49.1	-50.3	17.0	0.00e+00	0	34	0	692060160	64	4135
2026-01-01 04:58:14.37	25.96	14.12	-49.2	-50.3	17.0	0.00e+00	0	34	0	698351616	64	4142
2026-01-01 04:58:15.37	25.85	14.20	-49.1	-50.3	17.0	0.00e+00	0	34	0	703594496	64	4125
2026-01-01 04:58:16.37	25.75	14.29	-49.0	-50.2	17.0	0.00e+00	0	34	0	708837376	64	4080
2026-01-01 04:58:17.37	25.64	14.38	-49.1	-50.3	17.0	0.00e+00	0	33	0	715128832	64	4108
2026-01-01 04:58:18.36	25.54	14.47	-49.0	-50.2	17.0	0.00e+00	0	34	0	720371712	64	4061
2026-01-01 04:58:19.36	25.43	14.56	-49.1	-50.2	17.0	0.00e+00	0	34	0	726663168	64	4090
2026-01-01 04:58:20.35	25.32	14.65	-49.0	-50.1	17.1	0.00e+00	0	34	0	731906048	64	4036
2026-01-01 04:58:21.35	25.21	14.74	-49.0	-50.1	17.1	0.00e+00	0	34	0	737148928	64	4049
2026-01-01 04:58:22.35	25.10	14.83	-48.9	-50.0	17.1	0.00e+00	0	33	0	743440384	64	3998
2026-01-01 04:58:23.35	24.99	14.92	-48.9	-50.1	17.1	0.00e+00	0	34	0	748683264	64	4028
2026-01-01 04:58:24.35	24.88	15.01	-49.0	-50.1	17.1	0.00e+00	0	34	0	753926144	64	4038
2026-01-01 04:58:25.35	24.77	15.10	-48.8	-49.9	17.1	0.00e+00	0	34	0	760217600	64	3945
2026-01-01 04:58:26.34	24.66	15.19	-48.8	-50.0	17.2	0.00e+00	0	34	0	765460480	64	3960
2026-01-01 04:58:27.34	24.54	15.28	-48.9	-50.0	17.2	0.00e+00	0	34	0	771751936	64	3980
2026-01-01 04:58:28.34	24.43	15.37	-48.7	-49.8	17.2	0.00e+00	0	33	0	776994816	64	3903
2026-01-01 04:58:29.34	24.32	15.46	-48.7	-49.8	17.2	0.00e+00	0	33	0	782237696	64	3909
2026-01-01 04:58:30.34	24.20	15.55	-48.7	-49.8	17.2	0.00e+00	0	34	0	788529152	63	4140
2026-01-01 04:58:31.33	24.09	15.64	-48.7	-49.8	17.2	0.00e+00	0	33	0	793772032	63	4130
2026-01-01 04:58:32.33	23.97	15.74	-48.5	-49.7	17.3	0.00e+00	0	34	0	799014912	63	4059
2026-01-01 04:58:33.33	23.85	15.83	-48.5	-49.6	17.2	0.00e+00	0	34	0	805306368	63	4039
2026-01-01 04:58:34.33	23.73	15.92	-48.5	-49.7	17.3	0.00e+00	0	34	0	810549248	63	4053
2026-01-01 04:58:35.34	23.61	16.01	-48.4	-49.5	17.3	0.00e+00	0	33	0	815792128	63	4004
2026-01-01 04:58:36.34	23.49	16.11	-48.5	-49.6	17.2	0.00e+00	0	34	0	822083584	63	4035
2026-01-01 04:58:37.34	23.37	16.20	-48.5	-49.6	17.2	0.00e+00	0	34	0	827326464	63	4049
2026-01-01 04:58:38.34	23.25	16.29	-48.6	-49.7	17.2	0.00e+00	0	34	0	833617920	63	4087
2026-01-01 04:58:39.34	23.13	16.39	-48.6	-49.7	17.2	0.00e+00	0	34	0	838860800	63	4081
2026-01-01 04:58:40.33	23.01	16.48	-48.5	-49.6	17.2	0.00e+00	0	34	0	844103680	63	4025
2026-01-01 04:58:41.33	22.88	16.57	-48.5	-49.6	17.2	0.00e+00	0	34	0	849346560	63	4046
2026-01-01 04:58:42.32	22.76	16.67	-48.5	-49.6	17.2	0.00e+00	0	34	0	855638016	63	4043
2026-01-01 04:58:43.32	22.63	16.76	-48.5	-49.7	17.3	0.00e+00	0	33	0	860880896	63	4064
2026-01-01 04:58:44.32	22.51	16.86	-48.6	-49.7	17.2	0.00e+00	0	33	0	866123776	63	4096
2026-01-01 04:58:45.31	22.38	16.95	-48.6	-49.7	17.3	0.00e+00	0	34	0	872415232	63	4082
2026-01-01 04:58:46.30	22.26	17.04	-48.7	-49.9	17.2	0.00e+00	0	34	0	877658112	63	4153
2026-01-01 04:58:47.30	22.13	17.14	-48.6	-49.8	17.2	0.00e+00	0	34	0	883949568	63	4117
2026-01-01 04:58:48.30	22.00	17.24	-48.7	-49.9	17.2	0.00e+00	0	33	0	889192448	63	4155
2026-01-01 04:58:49.30	21.87	17.33	-48.7	-49.8	17.2	0.00e+00	0	33	0	894435328	63	4142
2026-01-01 04:58:50.29	21.74	17.43	-48.5	-49.6	17.3	0.00e+00	0	34	0	900726784	63	4030
2026-01-01 04:58:51.30	21.60	17.52	-48.5	-49.6	17.3	0.00e+00	0	34	0	905969664	63	4020
2026-01-01 04:58:52.30	21.47	17.62	-48.5	-49.6	17.3	0.00e+00	0	34	0	911212544	63	4037
2026-01-01 04:58:53.30	21.34	17.72	-48.4	-49.5	17.3	0.00e+00	0	34	0	917504000	63	3990
2026-01-01 04:58:54.31	21.20	17.82	-48.2	-49.3	17.4	0.00e+00	0	34	0	922746880	63	3879
2026-01-01 04:58:55.30	21.07	17.91	-48.2	-49.3	17.3	0.00e+00	0	34	0	927989760	62	4114
2026-01-01 04:58:56.31	20.93	18.01	-48.2	-49.3	17.3	0.00e+00	0	34	0	934281216	62	4125
2026-01-01 04:58:57.31	20.79	18.11	-48.2	-49.3	17.3	0.00e+00	0	34	0	939524096	62	4131
2026-01-01 04:58:58.30	20.66	18.20	-48.2	-49.3	17.3	0.00e+00	0	34	0	945815552	62	4142
2026-01-01 04:58:59.30	20.52	18.30	-48.2	-49.3	17.3	0.00e+00	0	34	0	951058432	62	4141
2026-01-01 04:59:00.30	20.38	18.40	-48.2	-49.4	17.4	0.00e+00	0	34	0	956301312	62	4148
2026-01-01 04:59:01.29	20.24	18.50	-48.2	-49.3	17.4	0.00e+00	0	33	0	962592768	62	4105
2026-01-01 04:59:02.29	20.09	18.60	-48.0	-49.1	17.4	0.00e+00	0	34	0	967835648	62	4016
2026-01-01 04:59:03.29	19.95	18.70	-47.8	-48.9	17.5	0.00e+00	0	34	0	973078528	62	3954
2026-01-01 04:59:04.30	19.81	18.80	-47.8	-48.9	17.5	0.00e+00	0	34	0	979369984	62	3924
2026-01-01 04:59:05.30	19.66	18.89	-47.8	-48.9	17.5	0.00e+00	0	34	0	984612864	62	3935
2026-01-01 04:59:06.30	19.52	18.99	-47.8	-48.9	17.5	0.00e+00	0	34	0	989855744	62	3923
2026-01-01 04:59:07.30	19.37	19.09	-47.8	-48.9	17.5	0.00e+00	0	33	0	996147200	62	3946
2026-01-01 04:59:08.29	19.22	19.19	-47.8	-48.9	17.5	0.00e+00	0	34	0	1001390080	62	3955
2026-01-01 04:59:09.29	19.07	19.29	-47.8	-48.9	17.5	0.00e+00	0	34	0	1007681536	62	3949
2026-01-01 04:59:10.29	18.92	19.39	-47.8	-48.9	17.5	0.00e+00	0	34	0	1012924416	62	3945
2026-01-01 04:59:11.29	18.77	19.49	-47.8	-48.9	17.5	0.00e+00	0	34	0	1018167296	62	3939
2026-01-01 04:59:12.28	18.62	19.59	-47.9	-49.0	17.4	0.00e+00	0	34	0	1024458752	62	3973
2026-01-01 04:59:13.28	18.47	19.69	-47.8	-48.9	17.5	0.00e+00	0	34	0	1029701632	62	3949
2026-01-01 04:59:14.27	18.32	19.79	-47.6	-48.7	17.5	0.00e+00	0	34	0	1034944512	61	4073
2026-01-01 04:59:15.27	18.16	19.90	-47.6	-48.7	17.5	0.00e+00	0	34	0	1040187392	61	4087
2026-01-01 04:59:16.27	18.01	20.00	-47.7	-48.8	17.5	0.00e+00	0	34	0	1046478848	61	4113
2026-01-01 04:59:17.26	17.85	20.10	-47.7	-48.8	17.4	0.00e+00	0	34	0	1051721728	61	4107
2026-01-01 04:59:18.26	17.69	20.20	-47.8	-48.9	17.4	0.00e+00	0	33	0	1058013184	61	4146
2026-01-01 04:59:19.26	17.53	20.30	-47.6	-48.7	17.5	0.00e+00	0	34	0	1063256064	61	4056
2026-01-01 04:59:20.26	17.37	20.40	-47.6	-48.7	17.5	0.00e+00	0	34	0	1068498944	61	4085
2026-01-01 04:59:21.26	17.21	20.51	-47.5	-48.6	17.5	0.00e+00	0	34	0	1074790400	61	4030
2026-01-01 04:59:22.25	17.05	20.61	-47.4	-48.5	17.5	0.00e+00	0	34	0	1080033280	61	3967
2026-01-01 04:59:23.25	16.89	20.71	-47.5	-48.5	17.5	0.00e+00	0	34	0	1085276160	61	3995
2026-01-01 04:59:24.26	16.72	20.81	-47.4	-48.5	17.6	0.00e+00	0	34	0	1091567616	61	3986
2026-01-01 04:59:25.26	16.56	20.92	-47.5	-48.5	17.5	0.00e+00	0	34	0	1096810496	61	4004
2026-01-01 04:59:26.26	16.39	21.02	-47.5	-48.6	17.6	0.00e+00	0	34	0	1102053376	61	4024
2026-01-01 04:59:27.26	16.22	21.12	-47.6	-48.7	17.5	0.00e+00	0	34	0	1108344832	61	4084
2026-01-01 04:59:28.25	16.05	21.23	-47.6	-48.6	17.5	0.00e+00	0	34	0	1113587712	61	4042
2026-01-01 04:59:29.25	15.88	21.33	-47.5	-48.6	17.5	0.00e+00	0	34	0	1119879168	61	4016
2026-01-01 04:59:30.25	15.71	21.43	-47.5	-48.6	17.5	0.00e+00	0	34	0	1125122048	61	4030
2026-01-01 04:59:31.25	15.54	21.54	-47.3	-48.3	17.6	0.00e+00	0	34	0	1130364928	61	3900
2026-01-01 04:59:32.25	15.37	21.64	-47.2	-48.3	17.6	0.00e+00	0	34	0	1136656384	61	3872
2026-01-01 04:59:33.25	15.19	21.74	-47.3	-48.4	17.6	0.00e+00	0	34	0	1141899264	61	3914
2026-01-01 04:59:34.25	15.02	21.85	-47.1	-48.2	17.6	0.00e+00	0	34	0	1147142144	60	4064
2026-01-01 04:59:35.25	14.84	21.95	-47.1	-48.2	17.6	0.00e+00	0	34	0	1153433600	60	4056
2026-01-01 04:59:36.25	14.66	22.06	-47.2	-48.3	17.6	0.00e+00	0	34	0	1158676480	60	4112
2026-01-01 04:59:37.25	14.48	22.16	-47.3	-48.4	17.5	0.00e+00	0	34	0	1163919360	60	4164
2026-01-01 04:59:38.24	14.30	22.27	-47.4	-48.4	17.5	0.00e+00	0	34	0	1170210816	60	4178
2026-01-01 04:59:39.23	14.12	22.37	-47.4	-48.4	17.5	0.00e+00	0	34	0	1175453696	60	4178
2026-01-01 04:59:40.24	13.93	22.48	-47.3	-48.4	17.5	0.00e+00	0	34	0	1181745152	60	4175
2026-01-01 04:59:41.24	13.75	22.58	-47.2	-48.3	17.6	0.00e+00	0	34	0	1186988032	60	4121
2026-01-01 04:59:42.25	13.56	22.69	-47.2	-48.2	17.6	0.00e+00	0	33	0	1192230912	60	4094
2026-01-01 04:59:43.24	13.38	22.79	-47.1	-48.2	17.6	0.00e+00	0	34	0	1198522368	60	4058
2026-01-01 04:59:44.25	13.19	22.90	-47.2	-48.2	17.6	0.00e+00	0	33	0	1203765248	60	4087
2026-01-01 04:59:45.25	13.00	23.01	-47.2	-48.2	17.6	0.00e+00	0	34	0	1209008128	60	4078
2026-01-01 04:59:46.26	12.80	23.11	-47.1	-48.2	17.6	0.00e+00	0	34	0	1215299584	60	4063
2026-01-01 04:59:47.26	12.61	23.22	-47.2	-48.2	17.5	0.00e+00	0	33	0	1220542464	60	4095
2026-01-01 04:59:48.26	12.42	23.32	-47.1	-48.2	17.6	0.00e+00	0	34	0	1225785344	60	4063
2026-01-01 04:59:49.25	12.22	23.43	-47.1	-48.1	17.6	0.00e+00	0	34	0	1232076800	60	4043
2026-01-01 04:59:50.25	12.02	23.53	-47.1	-48.1	17.6	0.00e+00	0	34	0	1237319680	60	4035
2026-01-01 04:59:51.25	11.83	23.64	-47.0	-48.1	17.6	0.00e+00	0	34	0	1243611136	60	4027
2026-01-01 04:59:52.26	11.63	23.75	-47.1	-48.1	17.6	0.00e+00	0	34	0	1248854016	60	4032
2026-01-01 04:59:53.27	11.42	23.85	-47.2	-48.2	17.6	0.00e+00	0	34	0	1254096896	60	4098
2026-01-01 04:59:54.26	11.22	23.96	-47.1	-48.1	17.6	0.00e+00	0	34	0	1260388352	60	4042
2026-01-01 04:59:55.26	11.02	24.07	-47.0	-48.1	17.6	0.00e+00	0	34	0	1265631232	60	4012
2026-01-01 04:59:56.26	10.81	24.17	-47.0	-48.0	17.6	0.00e+00	0	34	0	1270874112	60	3987
2026-01-01 04:59:57.25	10.61	24.28	-47.0	-48.0	17.6	0.00e+00	0	34	0	1277165568	60	4002
2026-01-01 04:59:58.26	10.40	24.39	-47.1	-48.1	17.6	0.00e+00	0	34	0	1282408448	60	4041
2026-01-01 04:59:59.25	10.19	24.49	-47.0	-48.1	17.6	0.00e+00	0	34	0	1288699904	60	4012
2026-01-01 05:00:00.26	9.98	24.60	-47.1	-48.1	17.6	0.00e+00	0	34	0	1293942784	60	4041
2026-01-01 05:00:01.26	9.77	24.70	-47.1	-48.1	17.6	0.00e+00	0	34	0	1299185664	60	4032
2026-01-01 05:00:02.26	9.55	24.81	-47.0	-48.0	17.7	0.00e+00	0	34	0	1305477120	60	3978
2026-01-01 05:00:03.26	9.34	24.92	-46.7	-47.7	17.7	0.00e+00	0	34	0	1310720000	60	3867
2026-01-01 05:00:04.27	9.12	25.02	-47.1	-48.2	17.6	0.00e+00	0	34	0	1315962880	59	4293
2026-01-01 05:00:05.26	8.90	25.13	-47.1	-48.1	17.6	0.00e+00	0	34	0	1322254336	59	4272
2026-01-01 05:00:06.27	8.68	25.24	-47.0	-48.1	17.6	0.00e+00	0	33	0	1327497216	59	4254
2026-01-01 05:00:07.27	8.46	25.34	-47.0	-48.1	17.6	0.00e+00	0	34	0	1332740096	59	4251
2026-01-01 05:00:08.27	8.24	25.45	-47.1	-48.1	17.6	0.00e+00	0	34	0	1339031552	59	4274
2026-01-01 05:00:09.28	8.01	25.56	-47.1	-48.1	17.6	0.00e+00	0	34	0	1344274432	59	4269
2026-01-01 05:00:10.27	7.79	25.66	-47.1	-48.1	17.6	0.00e+00	0	34	0	1350565888	59	4278
2026-01-01 05:00:11.28	7.56	25.77	-47.1	-48.1	17.6	0.00e+00	0	34	0	1355808768	59	4286
2026-01-01 05:00:12.27	7.33	25.87	-47.0	-48.1	17.6	0.00e+00	0	34	0	1361051648	59	4248
2026-01-01 05:00:13.27	7.10	25.98	-46.9	-48.0	17.6	0.00e+00	0	33	0	1367343104	59	4211
2026-01-01 05:00:14.27	6.87	26.09	-46.8	-47.8	17.6	0.00e+00	0	34	0	1372585984	59	4143
2026-01-01 05:00:15.27	6.64	26.19	-46.7	-47.7	17.7	0.00e+00	0	34	0	1377828864	59	4098
2026-01-01 05:00:16.27	6.40	26.30	-46.7	-47.7	17.7	0.00e+00	0	34	0	1384120320	59	4068
2026-01-01 05:00:17.26	6.17	26.40	-46.7	-47.7	17.7	0.00e+00	0	34	0	1389363200	59	4067
2026-01-01 05:00:18.26	5.93	26.51	-46.7	-47.7	17.7	0.00e+00	0	34	0	1394606080	59	4092
2026-01-01 05:00:19.27	5.69	26.61	-46.9	-47.9	17.7	0.00e+00	0	33	0	1400897536	59	4168
2026-01-01 05:00:20.27	5.45	26.72	-46.8	-47.9	17.7	0.00e+00	0	33	0	1406140416	59	4167
2026-01-01 05:00:21.27	5.20	26.82	-46.8	-47.8	17.7	0.00e+00	0	34	0	1412431872	59	4122
2026-01-01 05:00:22.27	4.96	26.93	-46.8	-47.9	17.7	0.00e+00	0	33	0	1417674752	59	4150
2026-01-01 05:00:23.28	4.71	27.03	-46.9	-47.9	17.6	0.00e+00	0	34	0	1423966208	59	4184
2026-01-01 05:00:24.27	4.47	27.13	-46.7	-47.8	17.7	0.00e+00	0	34	0	1429209088	59	4114
2026-01-01 05:00:25.27	4.22	27.24	-46.7	-47.7	17.7	0.00e+00	0	34	0	1434451968	59	4085
2026-01-01 05:00:26.27	3.96	27.34	-46.7	-47.7	17.7	0.00e+00	0	34	0	1439694848	59	4094
2026-01-01 05:00:27.27	3.71	27.45	-46.6	-47.7	17.7	0.00e+00	0	34	0	1445986304	59	4055
2026-01-01 05:00:28.28	3.45	27.55	-46.6	-47.7	17.7	0.00e+00	0	34	0	1451229184	59	4059
2026-01-01 05:00:29.29	3.20	27.65	-46.6	-47.6	17.7	0.00e+00	0	34	0	1457520640	59	4021
2026-01-01 05:00:30.28	2.94	27.76	-46.7	-47.7	17.7	0.00e+00	0	34	0	1462763520	59	4063
2026-01-01 05:00:31.28	2.68	27.86	-46.7	-47.7	17.7	0.00e+00	0	34	0	1468006400	59	4083
2026-01-01 05:00:32.28	2.42	27.96	-46.7	-47.7	17.7	0.00e+00	0	34	0	1474297856	59	4098
2026-01-01 05:00:33.29	2.15	28.06	-46.8	-47.8	17.7	0.00e+00	0	34	0	1479540736	59	4145
2026-01-01 05:00:34.29	1.89	28.17	-46.8	-47.9	17.7	0.00e+00	0	34	0	1485832192	59	4168
2026-01-01 05:00:35.29	1.62	28.27	-47.1	-48.1	17.6	0.00e+00	0	34	0	1491075072	59	4268
2026-01-01 05:00:36.30	1.35	28.37	-46.9	-47.9	17.7	0.00e+00	0	34	0	1496317952	59	4167
2026-01-01 05:00:37.30	1.08	28.47	-46.8	-47.9	17.7	0.00e+00	0	33	0	1502609408	59	4147
2026-01-01 05:00:38.29	0.81	28.57	-46.7	-47.7	17.7	0.00e+00	0	34	0	1507852288	59	4090
2026-01-01 05:00:39.29	0.54	28.67	-46.7	-47.7	17.7	0.00e+00	0	33	0	1513095168	59	4082
2026-01-01 05:00:40.29	0.27	28.77	-46.7	-47.7	17.7	0.00e+00	0	34	0	1519386624	59	4096
2026-01-01 05:00:41.29	359.99	28.87	-46.8	-47.9	17.7	0.00e+00	0	34	0	1524629504	59	4146
2026-01-01 05:00:42.30	359.71	28.97	-46.8	-47.9	17.7	0.00e+00	0	34	0	1529872384	59	4157
2026-01-01 05:00:43.29	359.43	29.07	-46.7	-47.8	17.7	0.00e+00	0	34	0	1536163840	59	4110
2026-01-01 05:00:44.30	359.15	29.17	-46.7	-47.7	17.7	0.00e+00	0	34	0	1541406720	59	4095
2026-01-01 05:00:45.29	358.87	29.26	-46.7	-47.7	17.7	0.00e+00	0	34	0	1547698176	59	4070
2026-01-01 05:00:46.29	358.58	29.36	-46.6	-47.7	17.7	0.00e+00	0	34	0	1552941056	59	4054
2026-01-01 05:00:47.29	358.29	29.46	-46.7	-47.7	17.7	0.00e+00	0	34	0	1558183936	59	4090
2026-01-01 05:00:48.29	358.00	29.55	-46.6	-47.6	17.7	0.00e+00	0	34	0	1564475392	59	4029
2026-01-01 05:00:49.29	357.71	29.65	-46.5	-47.5	17.8	0.00e+00	0	33	0	1569718272	59	3978
2026-01-01 05:00:50.29	357.42	29.74	-46.5	-47.5	17.8	0.00e+00	0	34	0	1574961152	59	4001
2026-01-01 05:00:51.29	357.13	29.84	-46.3	-47.4	17.8	0.00e+00	0	34	0	1581252608	59	3931
2026-01-01 05:00:52.29	356.83	29.93	-46.3	-47.4	17.8	0.00e+00	0	34	0	1586495488	59	3920
2026-01-01 05:00:53.29	356.53	30.02	-46.3	-47.3	17.9	0.00e+00	0	34	0	1591738368	59	3895
2026-01-01 05:00:54.29	356.23	30.12	-46.3	-47.3	17.9	0.00e+00	0	34	0	1598029824	59	3872
2026-01-01 05:00:55.28	355.94	30.21	-46.5	-47.5	17.8	0.00e+00	0	34	0	1603272704	59	3974
2026-01-01 05:00:56.29	355.63	30.30	-46.5	-47.5	17.8	0.00e+00	0	34	0	1609564160	59	3992
2026-01-01 05:00:57.29	355.33	30.39	-46.7	-47.7	17.7	0.00e+00	0	34	0	1614807040	59	4085
2026-01-01 05:00:58.28	355.02	30.48	-46.6	-47.6	17.8	0.00e+00	0	34	0	1620049920	59	4016
2026-01-01 05:00:59.28	354.72	30.57	-46.5	-47.5	17.8	0.00e+00	0	34	0	1626341376	59	3987
2026-01-01 05:01:00.27	354.41	30.66	-46.5	-47.5	17.8	0.00e+00	0	34	0	1631584256	59	3980
2026-01-01 05:01:01.27	354.10	30.75	-46.4	-47.4	17.8	0.00e+00	0	33	0	1636827136	59	3933
2026-01-01 05:01:02.27	353.78	30.84	-46.4	-47.4	17.8	0.00e+00	0	34	0	1642070016	59	3933
2026-01-01 05:01:03.27	353.47	30.92	-46.3	-47.3	17.8	0.00e+00	0	34	0	1648361472	59	3886
2026-01-01 05:01:04.26	353.16	31.01	-46.3	-47.3	17.9	0.00e+00	0	34	0	1653604352	59	3904
2026-01-01 05:01:05.26	352.84	31.09	-46.3	-47.3	17.8	0.00e+00	0	34	0	1659895808	59	3894
2026-01-01 05:01:06.25	352.52	31.18	-46.4	-47.4	17.8	0.00e+00	0	33	0	1665138688	59	3945
2026-01-01 05:01:07.25	352.20	31.26	-46.4	-47.4	17.8	0.00e+00	0	34	0	1670381568	59	3957
2026-01-01 05:01:08.24	351.88	31.35	-46.3	-47.4	17.8	0.00e+00	0	34	0	1676673024	59	3915
2026-01-01 05:01:09.24	351.56	31.43	-46.4	-47.5	17.8	0.00e+00	0	33	0	1681915904	59	3964
2026-01-01 05:01:10.23	351.23	31.51	-46.3	-47.3	17.8	0.00e+00	0	34	0	1687158784	59	3909
2026-01-01 05:01:11.23	350.90	31.59	-46.2	-47.2	17.9	0.00e+00	0	34	0	1692401664	59	3862
2026-01-01 05:01:12.23	350.57	31.67	-46.2	-47.2	17.9	0.00e+00	0	34	0	1698693120	59	3850
2026-01-01 05:01:13.23	350.24	31.75	-46.2	-47.2	17.8	0.00e+00	0	34	0	1703936000	58	4053
2026-01-01 05:01:14.23	349.91	31.83	-46.2	-47.2	17.8	0.00e+00	0	34	0	1710227456	58	4092
2026-01-01 05:01:15.23	349.57	31.90	-46.2	-47.2	17.8	0.00e+00	0	34	0	1715470336	58	4090
2026-01-01 05:01:16.22	349.24	31.98	-46.2	-47.2	17.8	0.00e+00	0	34	0	1720713216	58	4090
2026-01-01 05:01:17.22	348.90	32.06	-46.2	-47.2	17.8	0.00e+00	0	34	0	1727004672	58	4062
2026-01-01 05:01:18.21	348.57	32.13	-46.1	-47.1	17.8	0.00e+00	0	34	0	1732247552	58	4030
2026-01-01 05:01:19.21	348.23	32.20	-46.1	-47.1	17.8	0.00e+00	0	34	0	1737490432	58	4050
2026-01-01 05:01:20.21	347.88	32.28	-46.2	-47.2	17.8	0.00e+00	0	34	0	1743781888	58	4054
2026-01-01 05:01:21.21	347.54	32.35	-46.2	-47.2	17.8	0.00e+00	0	34	0	1749024768	58	4078
2026-01-01 05:01:22.21	347.19	32.42	-46.2	-47.2	17.8	0.00e+00	0	34	0	1754267648	58	4098
2026-01-01 05:01:23.21	346.85	32.49	-46.5	-47.5	17.8	0.00e+00	0	33	0	1760559104	58	4210
2026-01-01 05:01:24.21	346.50	32.56	-46.4	-47.4	17.8	0.00e+00	0	33	0	1765801984	58	4160
2026-01-01 05:01:25.21	346.15	32.62	-46.4	-47.4	17.7	0.00e+00	0	34	0	1772093440	58	4193
2026-01-01 05:01:26.21	345.80	32.69	-46.3	-47.3	17.8	0.00e+00	0	34	0	1777336320	58	4136
2026-01-01 05:01:27.21	345.44	32.76	-46.3	-47.3	17.8	0.00e+00	0	34	0	1782579200	58	4130
2026-01-01 05:01:28.21	345.09	32.82	-46.3	-47.3	17.8	0.00e+00	0	34	0	1788870656	58	4130
2026-01-01 05:01:29.21	344.73	32.88	-46.4	-47.5	17.7	0.00e+00	0	33	0	1794113536	58	4197
2026-01-01 05:01:30.20	344.38	32.95	-46.4	-47.5	17.7	0.00e+00	0	34	0	1799356416	58	4198
2026-01-01 05:01:31.20	344.02	33.01	-46.3	-47.3	17.8	0.00e+00	0	34	0	1805647872	58	4123
2026-01-01 05:01:32.20	343.66	33.07	-46.5	-47.5	17.8	0.00e+00	0	34	0	1810890752	58	4221
2026-01-01 05:01:33.20	343.30	33.12	-46.5	-47.5	17.8	0.00e+00	0	33	0	1816133632	58	4216
2026-01-01 05:01:34.20	342.94	33.18	-46.4	-47.4	17.8	0.00e+00	0	34	0	1822425088	58	4176
2026-01-01 05:01:35.20	342.57	33.24	-46.4	-47.4	17.8	0.00e+00	0	34	0	1827667968	58	4179
2026-01-01 05:01:36.20	342.21	33.29	-46.2	-47.2	17.8	0.00e+00	0	34	0	1833959424	58	4075
2026-01-01 05:01:37.21	341.84	33.35	-46.3	-47.3	17.8	0.00e+00	0	34	0	1839202304	58	4123
2026-01-01 05:01:38.21	341.47	33.40	-46.2	-47.2	17.8	0.00e+00	0	34	0	1844445184	58	4085
2026-01-01 05:01:39.20	341.10	33.45	-46.0	-47.0	17.8	0.00e+00	0	34	0	1850736640	58	3996
2026-01-01 05:01:40.21	340.73	33.50	-45.9	-46.9	17.9	0.00e+00	0	34	0	1855979520	58	3935
2026-01-01 05:01:41.20	340.36	33.55	-46.0	-47.0	17.9	0.00e+00	0	33	0	1861222400	58	3971
2026-01-01 05:01:42.20	339.99	33.60	-46.0	-47.0	17.9	0.00e+00	0	34	0	1867513856	58	3973
2026-01-01 05:01:43.21	339.61	33.64	-46.0	-47.0	17.8	0.00e+00	0	34	0	1872756736	58	3994
2026-01-01 05:01:44.21	339.24	33.69	-45.8	-46.8	17.8	0.00e+00	0	34	0	1879048192	58	3909
2026-01-01 05:01:45.21	338.86	33.73	-45.9	-46.9	17.9	0.00e+00	0	34	0	1884291072	58	3928
2026-01-01 05:01:46.22	338.48	33.77	-46.1	-47.1	17.9	0.00e+00	0	34	0	1889533952	58	4008
2026-01-01 05:01:47.21	338.11	33.81	-46.2	-47.2	17.8	0.00e+00	0	34	0	1895825408	58	4096
2026-01-01 05:01:48.20	337.74	33.85	-46.3	-47.4	17.7	0.00e+00	0	34	0	1901068288	58	4155
2026-01-01 05:01:49.20	337.36	33.89	-46.4	-47.4	17.8	0.00e+00	0	34	0	1906311168	58	4155
2026-01-01 05:01:50.20	336.98	33.93	-46.2	-47.2	17.8	0.00e+00	0	34	0	1912602624	58	4091
2026-01-01 05:01:51.19	336.60	33.96	-46.0	-47.0	17.8	0.00e+00	0	34	0	1917845504	58	3992
2026-01-01 05:01:52.20	336.21	34.00	-46.1	-47.1	17.8	0.00e+00	0	34	0	1923088384	58	4044
2026-01-01 05:01:53.20	335.83	34.03	-46.1	-47.1	17.8	0.00e+00	0	34	0	1929379840	58	4025
2026-01-01 05:01:54.20	335.45	34.06	-46.1	-47.1	17.8	0.00e+00	0	33	0	1934622720	58	4006
2026-01-01 05:01:55.20	335.06	34.09	-46.0	-47.0	17.9	0.00e+00	0	33	0	1940914176	58	3966
2026-01-01 05:01:56.21	334.67	34.12	-46.0	-47.0	17.8	0.00e+00	0	33	0	1946157056	58	3991
2026-01-01 05:01:57.21	334.29	34.14	-46.2	-47.2	17.8	0.00e+00	0	34	0	1951399936	58	4074
2026-01-01 05:01:58.21	333.90	34.17	-46.3	-47.3	17.7	0.00e+00	0	34	0	1957691392	58	4139
2026-01-01 05:01:59.20	333.52	34.19	-46.3	-47.4	17.8	0.00e+00	0	34	0	1962934272	58	4149
2026-01-01 05:02:00.20	333.13	34.22	-46.4	-47.4	17.7	0.00e+00	0	34	0	1968177152	58	4188
2026-01-01 05:02:01.20	332.75	34.24	-46.3	-47.3	17.7	0.00e+00	0	34	0	1974468608	58	4141
2026-01-01 05:02:02.20	332.36	34.26	-46.4	-47.4	17.7	0.00e+00	0	33	0	1979711488	58	4158
2026-01-01 05:02:03.20	331.97	34.27	-46.2	-47.2	17.8	0.00e+00	0	34	0	1984954368	58	4072
2026-01-01 05:02:04.20	331.58	34.29	-46.3	-47.3	17.8	0.00e+00	0	34	0	1991245824	58	4109
2026-01-01 05:02:05.20	331.19	34.30	-46.1	-47.1	17.8	0.00e+00	0	34	0	1996488704	58	4021
2026-01-01 05:02:06.19	330.80	34.32	-45.8	-46.8	17.9	0.00e+00	0	34	0	2002780160	58	3905
2026-01-01 05:02:07.19	330.41	34.33	-45.9	-46.9	17.8	0.00e+00	0	34	0	2008023040	58	3938
2026-01-01 05:02:08.19	330.02	34.34	-46.0	-47.0	17.9	0.00e+00	0	34	0	2013265920	58	3987
2026-01-01 05:02:09.18	329.64	34.35	-46.2	-47.2	17.8	0.00e+00	0	34	0	2019557376	58	4071
2026-01-01 05:02:10.18	329.25	34.36	-46.1	-47.1	17.8	0.00e+00	0	34	0	2024800256	58	4051
2026-01-01 05:02:11.18	328.86	34.36	-46.1	-47.1	17.8	0.00e+00	0	34	0	2030043136	58	4019
2026-01-01 05:02:12.17	328.47	34.37	-46.1	-47.1	17.8	0.00e+00	0	34	0	2035286016	58	4041
2026-01-01 05:02:13.17	328.08	34.37	-46.1	-47.1	17.8	0.00e+00	0	33	0	2041577472	58	4029
2026-01-01 05:02:14.17	327.69	34.37	-46.2	-47.2	17.8	0.00e+00	0	34	0	2046820352	58	4093
2026-01-01 05:02:15.17	327.30	34.37	-46.1	-47.1	17.8	0.00e+00	0	33	0	2053111808	58	4046
2026-01-01 05:02:16.17	326.90	34.37	-46.3	-47.3	17.7	0.00e+00	0	34	0	2058354688	58	4129
2026-01-01 05:02:17.17	326.51	34.36	-46.3	-47.3	17.7	0.00e+00	0	34	0	2063597568	58	4111
2026-01-01 05:02:18.17	326.12	34.36	-46.2	-47.1	17.8	0.00e+00	0	33	0	2069889024	58	4048
2026-01-01 05:02:19.17	325.73	34.35	-46.1	-47.1	17.8	0.00e+00	0	33	0	2075131904	58	4015
2026-01-01 05:02:20.17	325.34	34.35	-46.2	-47.2	17.8	0.00e+00	0	33	0	2080374784	58	4065
2026-01-01 05:02:21.18	324.95	34.34	-46.2	-47.3	17.8	0.00e+00	0	34	0	2086666240	58	4102
2026-01-01 05:02:22.18	324.56	34.32	-46.3	-47.3	17.8	0.00e+00	0	34	0	2091909120	58	4106
2026-01-01 05:02:23.19	324.16	34.31	-46.1	-47.1	17.8	0.00e+00	0	34	0	2098200576	58	4043
2026-01-01 05:02:24.19	323.77	34.30	-46.0	-46.9	17.8	0.00e+00	0	34	0	2103443456	58	3957
2026-01-01 05:02:25.18	323.39	34.28	-46.1	-47.1	17.8	0.00e+00	0	34	0	2108686336	58	4045
2026-01-01 05:02:26.18	323.00	34.27	-46.4	-47.4	17.7	0.00e+00	0	34	0	2114977792	58	4173
2026-01-01 05:02:27.17	322.61	34.25	-46.4	-47.4	17.8	0.00e+00	0	34	0	2120220672	58	4191
2026-01-01 05:02:28.16	322.23	34.23	-46.3	-47.3	17.8	0.00e+00	0	34	0	2125463552	58	4116
2026-01-01 05:02:29.16	321.84	34.21	-46.2	-47.2	17.8	0.00e+00	0	34	0	2131755008	58	4077
2026-01-01 05:02:30.16	321.45	34.18	-46.2	-47.2	17.8	0.00e+00	0	34	0	2136997888	58	4093
2026-01-01 05:02:31.17	321.06	34.16	-46.3	-47.3	17.8	0.00e+00	0	34	0	2142240768	58	4110
2026-01-01 05:02:32.17	320.68	34.13	-46.2	-47.2	17.8	0.00e+00	0	34	0	2148532224	58	4086
2026-01-01 05:02:33.17	320.29	34.11	-46.2	-47.2	17.8	0.00e+00	0	33	0	2153775104	58	4054
2026-01-01 05:02:34.16	319.91	34.08	-46.2	-47.2	17.8	0.00e+00	0	34	0	2159017984	58	4079
2026-01-01 05:02:35.15	319.53	34.05	-46.0	-47.0	17.9	0.00e+00	0	34	0	2165309440	58	3992
2026-01-01 05:02:36.15	319.15	34.02	-45.9	-46.9	17.9	0.00e+00	0	34	0	2170552320	58	3939
2026-01-01 05:02:37.14	318.77	33.98	-45.9	-46.9	17.9	0.00e+00	0	34	0	2176843776	58	3952
2026-01-01 05:02:38.15	318.38	33.95	-46.0	-47.0	17.8	0.00e+00	0	34	0	2182086656	58	3995
2026-01-01 05:02:39.15	318.00	33.91	-46.0	-47.0	17.8	0.00e+00	0	33	0	2187329536	58	3992
2026-01-01 05:02:40.16	317.62	33.88	-46.0	-47.0	17.8	0.00e+00	0	34	0	2193620992	58	4002
2026-01-01 05:02:41.16	317.24	33.84	-45.9	-46.9	17.9	0.00e+00	0	34	0	2198863872	58	3922
2026-01-01 05:02:42.16	316.86	33.80	-46.1	-47.1	17.9	0.00e+00	0	34	0	2204106752	58	4006
2026-01-01 05:02:43.17	316.48	33.76	-46.0	-47.0	17.9	0.00e+00	0	34	0	2210398208	58	3975
2026-01-01 05:02:44.17	316.10	33.71	-46.3	-47.3	17.8	0.00e+00	0	34	0	2215641088	58	4106
2026-01-01 05:02:45.17	315.73	33.67	-46.2	-47.2	17.8	0.00e+00	0	34	0	2220883968	58	4083
2026-01-01 05:02:46.17	315.36	33.62	-46.1	-47.1	17.8	0.00e+00	0	34	0	2227175424	58	4040
2026-01-01 05:02:47.16	314.99	33.58	-46.1	-47.1	17.8	0.00e+00	0	34	0	2232418304	58	4026
2026-01-01 05:02:48.17	314.61	33.53	-46.1	-47.2	17.8	0.00e+00	0	34	0	2238709760	58	4052
2026-01-01 05:02:49.17	314.24	33.48	-46.2	-47.2	17.8	0.00e+00	0	34	0	2243952640	58	4067
2026-01-01 05:02:50.17	313.87	33.43	-46.3	-47.3	17.8	0.00e+00	0	34	0	2249195520	58	4108
2026-01-01 05:02:51.17	313.50	33.38	-46.2	-47.2	17.8	0.00e+00	0	34	0	2255486976	58	4062
2026-01-01 05:02:52.17	313.13	33.32	-46.2	-47.2	17.8	0.00e+00	0	34	0	2260729856	58	4079
2026-01-01 05:02:53.17	312.77	33.27	-46.2	-47.2	17.8	0.00e+00	0	34	0	2265972736	58	4087
2026-01-01 05:02:54.18	312.40	33.21	-46.2	-47.2	17.8	0.00e+00	0	34	0	2272264192	58	4092
2026-01-01 05:02:55.19	312.03	33.16	-46.1	-47.1	17.8	0.00e+00	0	34	0	2277507072	58	4026
2026-01-01 05:02:56.19	311.67	33.10	-46.1	-47.1	17.8	0.00e+00	0	34	0	2283798528	58	4036
2026-01-01 05:02:57.19	311.31	33.04	-46.1	-47.1	17.8	0.00e+00	0	34	0	2289041408	58	4034
2026-01-01 05:02:58.19	310.95	32.98	-46.1	-47.1	17.8	0.00e+00	0	34	0	2294284288	58	4039
2026-01-01 05:02:59.19	310.59	32.92	-46.2	-47.2	17.8	0.00e+00	0	34	0	2300575744	58	4070
2026-01-01 05:03:00.20	310.23	32.85	-46.2	-47.2	17.8	0.00e+00	0	34	0	2305818624	58	4058
2026-01-01 05:03:01.20	309.87	32.79	-46.2	-47.2	17.8	0.00e+00	0	34	0	2312110080	58	4072
2026-01-01 05:03:02.19	309.52	32.73	-46.3	-47.3	17.7	0.00e+00	0	33	0	2317352960	58	4142
2026-01-01 05:03:03.18	309.17	32.66	-46.3	-47.3	17.7	0.00e+00	0	34	0	2322595840	58	4140
2026-01-01 05:03:04.18	308.82	32.59	-46.5	-47.5	17.7	0.00e+00	0	34	0	2328887296	58	4213
2026-01-01 05:03:05.18	308.47	32.53	-46.7	-47.7	17.7	0.00e+00	0	34	0	2334130176	58	4328
2026-01-01 05:03:06.18	308.12	32.46	-46.5	-47.6	17.7	0.00e+00	0	34	0	2339373056	58	4246
2026-01-01 05:03:07.17	307.78	32.39	-46.5	-47.5	17.7	0.00e+00	0	34	0	2344615936	58	4229
2026-01-01 05:03:08.17	307.43	32.32	-46.5	-47.5	17.7	0.00e+00	0	34	0	2350907392	58	4241
2026-01-01 05:03:09.18	307.09	32.24	-46.3	-47.4	17.8	0.00e+00	0	34	0	2356150272	58	4150
2026-01-01 05:03:10.17	306.75	32.17	-46.2	-47.2	17.8	0.00e+00	0	34	0	2362441728	58	4091
2026-01-01 05:03:11.17	306.41	32.10	-46.1	-47.1	17.8	0.00e+00	0	34	0	2367684608	58	4047
2026-01-01 05:03:12.16	306.07	32.02	-46.2	-47.2	17.8	0.00e+00	0	34	0	2372927488	58	4094
2026-01-01 05:03:13.15	305.74	31.95	-46.2	-47.2	17.8	0.00e+00	0	34	0	2379218944	58	4067
2026-01-01 05:03:14.15	305.40	31.87	-46.2	-47.2	17.8	0.00e+00	0	34	0	2384461824	58	4055
2026-01-01 05:03:15.16	305.06	31.79	-46.1	-47.1	17.8	0.00e+00	0	34	0	2389704704	58	4032
2026-01-01 05:03:16.16	304.73	31.71	-46.3	-47.3	17.8	0.00e+00	0	34	0	2395996160	58	4101
2026-01-01 05:03:17.16	304.40	31.63	-46.3	-47.3	17.8	0.00e+00	0	34	0	2401239040	58	4143
2026-01-01 05:03:18.16	304.07	31.55	-46.3	-47.3	17.8	0.00e+00	0	34	0	2406481920	58	4134
2026-01-01 05:03:19.16	303.74	31.47	-46.4	-47.4	17.8	0.00e+00	0	34	0	2412773376	58	4171
2026-01-01 05:03:20.16	303.41	31.39	-46.4	-47.4	17.8	0.00e+00	0	34	0	2418016256	58	4181
2026-01-01 05:03:21.16	303.09	31.30	-46.4	-47.4	17.7	0.00e+00	0	34	0	2424307712	58	4171
2026-01-01 05:03:22.16	302.76	31.22	-46.6	-47.6	17.7	0.00e+00	0	34	0	2429550592	58	4264
2026-01-01 05:03:23.16	302.44	31.14	-46.8	-47.8	17.7	0.00e+00	0	34	0	2434793472	58	4384
2026-01-01 05:03:24.16	302.12	31.05	-46.9	-48.0	17.6	0.00e+00	0	34	0	2441084928	58	4446
2026-01-01 05:03:25.15	301.81	30.97	-46.8	-47.8	17.7	0.00e+00	0	34	0	2446327808	59	4135
2026-01-01 05:03:26.14	301.50	30.88	-46.8	-47.8	17.7	0.00e+00	0	34	0	2451570688	59	4119
2026-01-01 05:03:27.14	301.18	30.79	-46.6	-47.6	17.8	0.00e+00	0	34	0	2457862144	59	4026
2026-01-01 05:03:28.14	300.87	30.70	-46.6	-47.7	17.8	0.00e+00	0	34	0	2463105024	59	4056
2026-01-01 05:03:29.14	300.56	30.61	-46.6	-47.6	17.8	0.00e+00	0	34	0	2468347904	59	4028
2026-01-01 05:03:30.14	300.25	30.52	-46.7	-47.7	17.7	0.00e+00	0	33	0	2474639360	59	4097
2026-01-01 05:03:31.14	299.94	30.43	-46.8	-47.9	17.7	0.00e+00	0	34	0	2479882240	59	4153
2026-01-01 05:03:32.15	299.63	30.34	-46.8	-47.8	17.7	0.00e+00	0	34	0	2486173696	59	4117
2026-01-01 05:03:33.14	299.33	30.25	-46.8	-47.8	17.8	0.00e+00	0	34	0	2491416576	59	4133
2026-01-01 05:03:34.14	299.03	30.16	-46.9	-48.0	17.7	0.00e+00	0	34	0	2496659456	59	4207
2026-01-01 05:03:35.14	298.73	30.07	-46.8	-47.8	17.8	0.00e+00	0	34	0	2502950912	59	4114
2026-01-01 05:03:36.14	298.43	29.97	-46.8	-47.8	17.7	0.00e+00	0	34	0	2508193792	59	4113
2026-01-01 05:03:37.14	298.13	29.88	-46.9	-47.9	17.7	0.00e+00	0	34	0	2513436672	59	4173
2026-01-01 05:03:38.13	297.84	29.79	-46.8	-47.8	17.7	0.00e+00	0	34	0	2519728128	59	4115
2026-01-01 05:03:39.13	297.54	29.69	-46.8	-47.8	17.7	0.00e+00	0	34	0	2524971008	59	4142
2026-01-01 05:03:40.13	297.25	29.60	-46.9	-47.9	17.7	0.00e+00	0	34	0	2531262464	59	4187
2026-01-01 05:03:41.13	296.96	29.50	-46.9	-47.9	17.7	0.00e+00	0	34	0	2536505344	59	4193
2026-01-01 05:03:42.13	296.67	29.40	-46.7	-47.7	17.8	0.00e+00	0	33	0	2541748224	59	4069
2026-01-01 05:03:43.13	296.39	29.31	-46.7	-47.7	17.7	0.00e+00	0	34	0	2546991104	59	4076
2026-01-01 05:03:44.13	296.10	29.21	-46.7	-47.7	17.8	0.00e+00	0	34	0	2553282560	59	4096
2026-01-01 05:03:45.13	295.82	29.11	-46.7	-47.7	17.8	0.00e+00	0	34	0	2558525440	59	4096
2026-01-01 05:03:46.14	295.53	29.01	-46.7	-47.7	17.8	0.00e+00	0	34	0	2564816896	59	4073
2026-01-01 05:03:47.14	295.25	28.91	-46.8	-47.8	17.7	0.00e+00	0	34	0	2570059776	59	4138
2026-01-01 05:03:48.14	294.98	28.81	-46.8	-47.8	17.7	0.00e+00	0	34	0	2575302656	59	4129
2026-01-01 05:03:49.14	294.70	28.71	-46.7	-47.7	17.7	0.00e+00	0	34	0	2581594112	59	4083
2026-01-01 05:03:50.14	294.43	28.61	-46.7	-47.7	17.7	0.00e+00	0	34	0	2586836992	59	4092
2026-01-01 05:03:51.14	294.15	28.51	-46.7	-47.7	17.7	0.00e+00	0	34	0	2593128448	59	4081
2026-01-01 05:03:52.14	293.88	28.41	-46.7	-47.8	17.7	0.00e+00	0	34	0	2598371328	59	4100
2026-01-01 05:03:53.14	293.61	28.31	-46.7	-47.8	17.7	0.00e+00	0	34	0	2603614208	59	4102
2026-01-01 05:03:54.14	293.34	28.21	-46.8	-47.8	17.7	0.00e+00	0	34	0	2609905664	59	4117
2026-01-01 05:03:55.14	293.08	28.11	-46.8	-47.8	17.7	0.00e+00	0	34	0	2615148544	59	4124
2026-01-01 05:03:56.14	292.81	28.01	-47.0	-48.0	17.6	0.00e+00	0	34	0	2620391424	59	4207
2026-01-01 05:03:57.15	292.55	27.90	-47.0	-48.0	17.7	0.00e+00	0	34	0	2626682880	59	4221
2026-01-01 05:03:58.14	292.29	27.80	-47.1	-48.2	17.6	0.00e+00	0	34	0	2631925760	59	4305
2026-01-01 05:03:59.14	292.03	27.70	-47.1	-48.2	17.6	0.00e+00	0	34	0	2637168640	59	4306
2026-01-01 05:04:00.13	291.78	27.60	-47.1	-48.1	17.7	0.00e+00	0	34	0	2643460096	59	4279
2026-01-01 05:04:01.13	291.52	27.49	-46.9	-48.0	17.7	0.00e+00	0	34	0	2648702976	59	4197
2026-01-01 05:04:02.13	291.26	27.39	-47.1	-48.1	17.7	0.00e+00	0	34	0	2654994432	59	4275
2026-01-01 05:04:03.13	291.01	27.28	-47.1	-48.1	17.7	0.00e+00	0	34	0	2660237312	59	4272
2026-01-01 05:04:04.13	290.76	27.18	-47.1	-48.1	17.6	0.00e+00	0	34	0	2665480192	59	4284
2026-01-01 05:04:05.12	290.51	27.08	-47.3	-48.3	17.6	0.00e+00	0	34	0	2670723072	59	4363
2026-01-01 05:04:06.13	290.26	26.97	-47.1	-48.1	17.6	0.00e+00	0	34	0	2677014528	59	4255
2026-01-01 05:04:07.13	290.02	26.87	-47.1	-48.1	17.6	0.00e+00	0	34	0	2682257408	59	4258
2026-01-01 05:04:08.13	289.77	26.76	-47.2	-48.2	17.6	0.00e+00	0	34	0	2688548864	59	4312
2026-01-01 05:04:09.13	289.53	26.66	-47.1	-48.2	17.6	0.00e+00	0	34	0	2693791744	59	4306
2026-01-01 05:04:10.14	289.29	26.55	-47.3	-48.4	17.5	0.00e+00	0	34	0	2699034624	59	4393
2026-01-01 05:04:11.14	289.05	26.44	-47.1	-48.2	17.6	0.00e+00	0	34	0	2705326080	60	4053
2026-01-01 05:04:12.14	288.81	26.34	-47.1	-48.1	17.6	0.00e+00	0	34	0	2710568960	60	4051
2026-01-01 05:04:13.13	288.58	26.23	-47.1	-48.1	17.6	0.00e+00	0	34	0	2716860416	60	4036
2026-01-01 05:04:14.13	288.34	26.13	-47.1	-48.1	17.6	0.00e+00	0	34	0	2722103296	60	4038
2026-01-01 05:04:15.12	288.11	26.02	-47.1	-48.1	17.6	0.00e+00	0	34	0	2727346176	60	4044
2026-01-01 05:04:16.12	287.88	25.92	-47.0	-48.1	17.7	0.00e+00	0	34	0	2732589056	60	4017
2026-01-01 05:04:17.11	287.65	25.81	-47.1	-48.2	17.6	0.00e+00	0	34	0	2738880512	60	4060
2026-01-01 05:04:18.12	287.42	25.70	-47.1	-48.1	17.7	0.00e+00	0	34	0	2744123392	60	4020
2026-01-01 05:04:19.12	287.19	25.60	-47.0	-48.0	17.7	0.00e+00	0	34	0	2749366272	60	4000
2026-01-01 05:04:20.12	286.97	25.49	-47.0	-48.0	17.7	0.00e+00	0	34	0	2755657728	60	3991
2026-01-01 05:04:21.12	286.74	25.39	-47.0	-48.0	17.7	0.00e+00	0	34	0	2760900608	60	3999
2026-01-01 05:04:22.11	286.52	25.28	-47.1	-48.1	17.7	0.00e+00	0	34	0	2767192064	60	4029
2026-01-01 05:04:23.11	286.30	25.17	-47.1	-48.2	17.6	0.00e+00	0	34	0	2772434944	60	4066
2026-01-01 05:04:24.10	286.08	25.07	-47.2	-48.3	17.6	0.00e+00	0	34	0	2777677824	60	4099
2026-01-01 05:04:25.10	285.87	24.96	-47.2	-48.2	17.6	0.00e+00	0	33	0	2783969280	60	4091
2026-01-01 05:04:26.10	285.65	24.86	-47.2	-48.2	17.6	0.00e+00	0	34	0	2789212160	60	4079
2026-01-01 05:04:27.10	285.43	24.75	-47.0	-48.1	17.6	0.00e+00	0	34	0	2794455040	60	4009
2026-01-01 05:04:28.09	285.22	24.64	-47.0	-48.0	17.6	0.00e+00	0	34	0	2800746496	60	3994
2026-01-01 05:04:29.10	285.01	24.54	-47.0	-48.0	17.6	0.00e+00	0	34	0	2805989376	60	3995
2026-01-01 05:04:30.09	284.80	24.43	-47.0	-48.0	17.6	0.00e+00	0	33	0	2811232256	60	3993
2026-01-01 05:04:31.09	284.59	24.32	-46.9	-48.0	17.7	0.00e+00	0	34	0	2817523712	60	3964
2026-01-01 05:04:32.09	284.38	24.22	-47.0	-48.0	17.6	0.00e+00	0	33	0	2822766592	60	3986
2026-01-01 05:04:33.09	284.18	24.11	-46.9	-48.0	17.7	0.00e+00	0	34	0	2829058048	60	3962
2026-01-01 05:04:34.09	283.97	24.00	-47.0	-48.1	17.7	0.00e+00	0	34	0	2834300928	60	4010
2026-01-01 05:04:35.08	283.77	23.90	-47.2	-48.2	17.6	0.00e+00	0	34	0	2839543808	60	4089
2026-01-01 05:04:36.07	283.57	23.79	-47.2	-48.2	17.6	0.00e+00	0	33	0	2844786688	60	4090
2026-01-01 05:04:37.07	283.37	23.69	-47.2	-48.3	17.6	0.00e+00	0	34	0	2851078144	60	4105
2026-01-01 05:04:38.06	283.17	23.58	-47.1	-48.2	17.6	0.00e+00	0	34	0	2856321024	60	4068
2026-01-01 05:04:39.07	282.97	23.47	-47.2	-48.3	17.6	0.00e+00	0	34	0	2861563904	60	4104
2026-01-01 05:04:40.07	282.78	23.37	-47.4	-48.4	17.5	0.00e+00	0	34	0	2867855360	60	4161
2026-01-01 05:04:41.07	282.58	23.26	-47.3	-48.3	17.6	0.00e+00	0	33	0	2873098240	60	4110
2026-01-01 05:04:42.07	282.39	23.15	-47.3	-48.3	17.6	0.00e+00	0	34	0	2879389696	60	4137
2026-01-01 05:04:43.07	282.19	23.05	-47.4	-48.4	17.5	0.00e+00	0	34	0	2884632576	60	4189
2026-01-01 05:04:44.07	282.00	22.94	-47.3	-48.4	17.5	0.00e+00	0	34	0	2889875456	60	4166
2026-01-01 05:04:45.07	281.81	22.84	-47.4	-48.5	17.5	0.00e+00	0	34	0	2896166912	60	4196
2026-01-01 05:04:46.07	281.62	22.73	-47.5	-48.5	17.5	0.00e+00	0	34	0	2901409792	60	4219
2026-01-01 05:04:47.07	281.44	22.63	-47.4	-48.4	17.5	0.00e+00	0	33	0	2906652672	60	4191
2026-01-01 05:04:48.05	281.25	22.52	-47.4	-48.4	17.5	0.00e+00	0	34	0	2912944128	60	4190
2026-01-01 05:04:49.04	281.07	22.42	-47.4	-48.4	17.6	0.00e+00	0	34	0	2918187008	60	4171
2026-01-01 05:04:50.04	280.89	22.31	-47.4	-48.4	17.5	0.00e+00	0	34	0	2923429888	60	4170
2026-01-01 05:04:51.04	280.70	22.21	-47.3	-48.3	17.6	0.00e+00	0	34	0	2929721344	60	4125
2026-01-01 05:04:52.04	280.52	22.10	-47.2	-48.2	17.6	0.00e+00	0	34	0	2934964224	60	4097
2026-01-01 05:04:53.04	280.34	22.00	-47.2	-48.2	17.6	0.00e+00	0	34	0	2941255680	60	4082
2026-01-01 05:04:54.04	280.16	21.89	-47.3	-48.3	17.6	0.00e+00	0	34	0	2946498560	60	4140
2026-01-01 05:04:55.04	279.99	21.79	-47.4	-48.4	17.6	0.00e+00	0	34	0	2951741440	60	4172
2026-01-01 05:04:56.04	279.81	21.68	-47.3	-48.3	17.6	0.00e+00	0	34	0	2958032896	60	4140
2026-01-01 05:04:57.04	279.63	21.58	-47.2	-48.3	17.6	0.00e+00	0	34	0	2963275776	60	4108
2026-01-01 05:04:58.04	279.46	21.47	-47.2	-48.2	17.6	0.00e+00	0	34	0	2968518656	60	4092
2026-01-01 05:04:59.03	279.29	21.37	-47.1	-48.1	17.6	0.00e+00	0	34	0	2974810112	60	4039
2026-01-01 05:05:00.04	279.12	21.27	-47.1	-48.1	17.7	0.00e+00	0	34	0	2980052992	60	4014
2026-01-01 05:05:01.03	278.95	21.16	-47.0	-48.1	17.6	0.00e+00	0	34	0	2985295872	60	4010
2026-01-01 05:05:02.03	278.78	21.06	-47.1	-48.1	17.6	0.00e+00	0	33	0	2991587328	60	4050
2026-01-01 05:05:03.02	278.61	20.96	-47.2	-48.2	17.6	0.00e+00	0	34	0	2996830208	60	4094
2026-01-01 05:05:04.02	278.45	20.85	-47.2	-48.2	17.6	0.00e+00	0	34	0	3002073088	60	4085
2026-01-01 05:05:05.01	278.28	20.75	-47.3	-48.3	17.6	0.00e+00	0	34	0	3008364544	60	4121
2026-01-01 05:05:06.01	278.12	20.65	-47.3	-48.3	17.6	0.00e+00	0	34	0	3013607424	60	4128
2026-01-01 05:05:07.01	277.95	20.55	-47.3	-48.3	17.6	0.00e+00	0	34	0	3018850304	60	4126
2026-01-01 05:05:08.01	277.79	20.44	-47.3	-48.4	17.6	0.00e+00	0	34	0	3025141760	60	4154
2026-01-01 05:05:09.00	277.63	20.34	-47.4	-48.4	17.6	0.00e+00	0	33	0	3030384640	60	4179
2026-01-01 05:05:09.99	277.47	20.24	-47.5	-48.5	17.6	0.00e+00	0	34	0	3035627520	60	4220
2026-01-01 05:05:10.99	277.31	20.14	-47.4	-48.5	17.5	0.00e+00	0	34	0	3041918976	60	4206
2026-01-01 05:05:11.99	277.15	20.04	-47.5	-48.6	17.5	0.00e+00	0	34	0	3047161856	60	4246
2026-01-01 05:05:12.99	277.00	19.93	-47.5	-48.5	17.5	0.00e+00	0	34	0	3053453312	60	4231
2026-01-01 05:05:13.98	276.84	19.83	-47.6	-48.7	17.5	0.00e+00	0	34	0	3058696192	60	4306
2026-01-01 05:05:14.99	276.69	19.73	-47.5	-48.6	17.5	0.00e+00	0	34	0	3063939072	60	4250
2026-01-01 05:05:15.98	276.53	19.63	-47.5	-48.5	17.5	0.00e+00	0	34	0	3070230528	60	4242
2026-01-01 05:05:16.98	276.38	19.53	-47.5	-48.5	17.5	0.00e+00	0	34	0	3075473408	60	4232
2026-01-01 05:05:17.98	276.23	19.43	-47.5	-48.5	17.6	0.00e+00	0	34	0	3080716288	60	4232
2026-01-01 05:05:18.98	276.08	19.33	-47.6	-48.6	17.5	0.00e+00	0	34	0	3085959168	60	4281
2026-01-01 05:05:19.97	275.93	19.23	-47.6	-48.6	17.5	0.00e+00	0	34	0	3092250624	60	4272
2026-01-01 05:05:20.96	275.78	19.13	-47.6	-48.7	17.5	0.00e+00	0	34	0	3097493504	60	4293
2026-01-01 05:05:21.96	275.63	19.03	-47.7	-48.8	17.4	0.00e+00	0	34	0	3103784960	60	4365
2026-01-01 05:05:22.96	275.49	18.93	-47.8	-48.8	17.4	0.00e+00	0	34	0	3109027840	60	4389
2026-01-01 05:05:23.96	275.34	18.83	-47.9	-49.0	17.4	0.00e+00	0	34	0	3114270720	61	4200
2026-01-01 05:05:24.95	275.20	18.73	-47.8	-48.9	17.5	0.00e+00	0	34	0	3120562176	61	4185
2026-01-01 05:05:25.95	275.05	18.63	-47.9	-49.0	17.5	0.00e+00	0	34	0	3125805056	61	4194
2026-01-01 05:05:26.96	274.91	18.53	-47.8	-48.9	17.5	0.00e+00	0	34	0	3131047936	61	4168
2026-01-01 05:05:27.96	274.77	18.43	-47.8	-48.8	17.5	0.00e+00	0	34	0	3137339392	61	4144
2026-01-01 05:05:28.95	274.63	18.34	-47.9	-49.0	17.4	0.00e+00	0	34	0	3142582272	61	4207
2026-01-01 05:05:29.95	274.49	18.24	-48.1	-49.2	17.4	0.00e+00	0	34	0	3148873728	61	4302
2026-01-01 05:05:30.94	274.35	18.14	-48.1	-49.2	17.4	0.00e+00	0	34	0	3154116608	61	4300
2026-01-01 05:05:31.93	274.21	18.04	-48.2	-49.3	17.4	0.00e+00	0	34	0	3159359488	61	4343
2026-01-01 05:05:32.93	274.07	17.95	-48.2	-49.3	17.3	0.00e+00	0	34	0	3165650944	61	4352
2026-01-01 05:05:33.93	273.94	17.85	-48.2	-49.3	17.3	0.00e+00	0	34	0	3170893824	61	4389
2026-01-01 05:05:34.94	273.80	17.75	-48.2	-49.3	17.3	0.00e+00	0	34	0	3176136704	61	4385
2026-01-01 05:05:35.94	273.67	17.65	-48.2	-49.3	17.4	0.00e+00	0	34	0	3182428160	61	4343
2026-01-01 05:05:36.94	273.53	17.56	-48.0	-49.1	17.4	0.00e+00	0	34	0	3187671040	61	4267
2026-01-01 05:05:37.94	273.40	17.46	-48.0	-49.1	17.4	0.00e+00	0	34	0	3192913920	61	4252
2026-01-01 05:05:38.94	273.27	17.36	-48.1	-49.2	17.4	0.00e+00	0	34	0	3199205376	61	4317
2026-01-01 05:05:39.95	273.13	17.26	-48.2	-49.3	17.4	0.00e+00	0	34	0	3204448256	61	4345
2026-01-01 05:05:40.95	273.00	17.17	-48.2	-49.2	17.4	0.00e+00	0	34	0	3210739712	61	4328
2026-01-01 05:05:41.94	272.87	17.07	-48.2	-49.3	17.3	0.00e+00	0	34	0	3215982592	61	4344
2026-01-01 05:05:42.95	272.74	16.98	-48.2	-49.3	17.4	0.00e+00	0	34	0	3221225472	61	4341
2026-01-01 05:05:43.94	272.62	16.88	-48.3	-49.4	17.3	0.00e+00	0	34	0	3227516928	61	4434
2026-01-01 05:05:44.95	272.49	16.79	-48.5	-49.6	17.3	0.00e+00	0	34	0	3232759808	62	4267
2026-01-01 05:05:45.94	272.36	16.69	-48.4	-49.5	17.3	0.00e+00	0	34	0	3238002688	62	4233
2026-01-01 05:05:46.94	272.24	16.60	-48.5	-49.7	17.3	0.00e+00	0	34	0	3244294144	62	4294
2026-01-01 05:05:47.94	272.11	16.50	-48.6	-49.7	17.3	0.00e+00	0	34	0	3249537024	62	4321
2026-01-01 05:05:48.93	271.99	16.41	-48.6	-49.7	17.3	0.00e+00	0	34	0	3254779904	62	4316
2026-01-01 05:05:49.92	271.87	16.32	-48.6	-49.7	17.3	0.00e+00	0	34	0	3261071360	62	4323
2026-01-01 05:05:50.92	271.75	16.22	-48.7	-49.8	17.2	0.00e+00	0	34	0	3266314240	62	4388
2026-01-01 05:05:51.92	271.62	16.13	-48.6	-49.7	17.3	0.00e+00	0	34	0	3271557120	62	4333
2026-01-01 05:05:52.92	271.50	16.04	-48.7	-49.8	17.2	0.00e+00	0	34	0	3277848576	62	4388
2026-01-01 05:05:53.91	271.38	15.94	-48.7	-49.8	17.3	0.00e+00	0	34	0	3283091456	62	4362
2026-01-01 05:05:54.92	271.26	15.85	-48.9	-50.0	17.2	0.00e+00	0	34	0	3288334336	63	4208
2026-01-01 05:05:55.92	271.15	15.76	-48.9	-50.0	17.2	0.00e+00	0	34	0	3294625792	63	4216
2026-01-01 05:05:56.92	271.03	15.67	-48.9	-50.1	17.2	0.00e+00	0	34	0	3299868672	63	4246
2026-01-01 05:05:57.92	270.91	15.57	-48.9	-50.0	17.2	0.00e+00	0	34	0	3305111552	63	4201
2026-01-01 05:05:58.91	270.80	15.48	-49.0	-50.1	17.2	0.00e+00	0	34	0	3311403008	63	4271
2026-01-01 05:05:59.92	270.68	15.39	-49.1	-50.2	17.2	0.00e+00	0	34	0	3316645888	63	4332
2026-01-01 05:06:00.92	270.56	15.30	-49.0	-50.1	17.2	0.00e+00	0	34	0	3322937344	63	4289
2026-01-01 05:06:01.92	270.45	15.21	-49.1	-50.2	17.2	0.00e+00	0	34	0	3328180224	63	4335
2026-01-01 05:06:02.92	270.34	15.12	-49.0	-50.2	17.2	0.00e+00	0	34	0	3333423104	63	4293
2026-01-01 05:06:03.92	270.22	15.02	-49.0	-50.1	17.2	0.00e+00	0	34	0	3339714560	63	4286
2026-01-01 05:06:04.92	270.11	14.93	-49.1	-50.2	17.1	0.00e+00	0	34	0	3344957440	63	4319
2026-01-01 05:06:05.92	270.00	14.84	-49.0	-50.2	17.2	0.00e+00	0	34	0	3350200320	63	4301
2026-01-01 05:06:06.92	269.89	14.75	-49.0	-50.1	17.2	0.00e+00	0	34	0	3356491776	63	4268
2026-01-01 05:06:07.91	269.78	14.66	-49.1	-50.2	17.1	0.00e+00	0	34	0	3361734656	63	4324
2026-01-01 05:06:08.91	269.67	14.57	-49.1	-50.2	17.1	0.00e+00	0	34	0	3366977536	63	4323
2026-01-01 05:06:09.91	269.56	14.49	-49.1	-50.2	17.1	0.00e+00	0	34	0	3373268992	63	4330
2026-01-01 05:06:10.90	269.46	14.40	-49.2	-50.3	17.1	0.00e+00	0	34	0	3378511872	63	4382
2026-01-01 05:06:11.89	269.35	14.31	-49.3	-50.4	17.1	0.00e+00	0	34	0	3384803328	63	4425
2026-01-01 05:06:12.88	269.24	14.22	-49.2	-50.4	17.1	0.00e+00	0	34	0	3390046208	63	4393
2026-01-01 05:06:13.88	269.14	14.13	-49.3	-50.5	17.1	0.00e+00	0	34	0	3395289088	63	4460
2026-01-01 05:06:14.88	269.03	14.04	-49.3	-50.5	17.1	0.00e+00	0	34	0	3401580544	63	4465
2026-01-01 05:06:15.88	268.93	13.96	-49.3	-50.5	17.0	0.00e+00	0	34	0	3406823424	63	4456
2026-01-01 05:06:16.87	268.82	13.87	-49.2	-50.4	17.1	0.00e+00	0	34	0	3412066304	63	4394
2026-01-01 05:06:17.87	268.72	13.78	-49.2	-50.4	17.0	0.00e+00	0	34	0	3417309184	63	4399
2026-01-01 05:06:18.86	268.62	13.69	-49.1	-50.2	17.1	0.00e+00	0	34	0	3423600640	63	4336
2026-01-01 05:06:19.85	268.52	13.61	-49.3	-50.5	17.0	0.00e+00	0	34	0	3428843520	63	4460
2026-01-01 05:06:20.85	268.42	13.52	-49.3	-50.4	17.0	0.00e+00	0	34	0	3435134976	63	4432
2026-01-01 05:06:21.85	268.32	13.43	-49.4	-50.6	17.0	0.00e+00	0	34	0	3440377856	63	4495
2026-01-01 05:06:22.84	268.22	13.35	-49.4	-50.5	17.0	0.00e+00	0	34	0	3445620736	63	4487
2026-01-01 05:06:23.84	268.12	13.26	-49.4	-50.5	17.1	0.00e+00	0	34	0	3451912192	64	4239
2026-01-01 05:06:24.84	268.02	13.17	-49.2	-50.4	17.1	0.00e+00	0	34	0	3457155072	64	4156
2026-01-01 05:06:25.84	267.92	13.09	-49.2	-50.3	17.1	0.00e+00	0	34	0	3462397952	64	4137
2026-01-01 05:06:26.83	267.82	13.00	-49.3	-50.4	17.1	0.00e+00	0	34	0	3468689408	64	4190
2026-01-01 05:06:27.82	267.72	12.92	-49.4	-50.5	17.0	0.00e+00	0	34	0	3473932288	64	4240
2026-01-01 05:06:28.81	267.63	12.83	-49.3	-50.4	17.1	0.00e+00	0	34	0	3479175168	64	4190
2026-01-01 05:06:29.81	267.53	12.75	-49.2	-50.4	17.1	0.00e+00	0	34	0	3485466624	64	4169
2026-01-01 05:06:30.81	267.44	12.66	-49.3	-50.5	17.0	0.00e+00	0	34	0	3490709504	64	4215
2026-01-01 05:06:31.81	267.34	12.58	-49.4	-50.6	17.0	0.00e+00	0	34	0	3495952384	64	4255
2026-01-01 05:06:32.81	267.25	12.50	-49.5	-50.7	17.0	0.00e+00	0	34	0	3502243840	64	4299
2026-01-01 05:06:33.80	267.15	12.41	-49.5	-50.7	17.0	0.00e+00	0	34	0	3507486720	64	4315
2026-01-01 05:06:34.80	267.06	12.33	-49.5	-50.7	16.9	0.00e+00	0	34	0	3512729600	64	4302
2026-01-01 05:06:35.80	266.97	12.24	-49.6	-50.7	17.0	0.00e+00	0	34	0	3519021056	64	4336
2026-01-01 05:06:36.80	266.88	12.16	-49.6	-50.8	16.9	0.00e+00	0	34	0	3524263936	64	4344
2026-01-01 05:06:37.79	266.78	12.08	-49.6	-50.8	16.9	0.00e+00	0	34	0	3529506816	64	4382
2026-01-01 05:06:38.80	266.69	11.99	-49.6	-50.8	16.9	0.00e+00	0	34	0	3535798272	64	4389
2026-01-01 05:06:39.80	266.60	11.91	-49.6	-50.8	16.9	0.00e+00	0	34	0	3541041152	64	4377
2026-01-01 05:06:40.80	266.51	11.83	-49.6	-50.7	16.9	0.00e+00	0	34	0	3547332608	64	4332
2026-01-01 05:06:41.80	266.42	11.75	-49.7	-50.9	16.9	0.00e+00	0	34	0	3552575488	64	4427
2026-01-01 05:06:42.80	266.33	11.66	-49.7	-50.9	16.9	0.00e+00	0	34	0	3557818368	64	4431
2026-01-01 05:06:43.80	266.24	11.58	-49.6	-50.8	16.9	0.00e+00	0	34	0	3564109824	64	4369
2026-01-01 05:06:44.79	266.16	11.50	-49.8	-51.0	16.9	0.00e+00	0	34	0	3569352704	65	4214
2026-01-01 05:06:45.79	266.07	11.42	-49.6	-50.8	16.9	0.00e+00	0	34	0	3574595584	65	4127
2026-01-01 05:06:46.78	265.98	11.34	-49.8	-51.0	16.9	0.00e+00	0	34	0	3580887040	65	4214
2026-01-01 05:06:47.78	265.90	11.26	-49.8	-51.0	16.9	0.00e+00	0	34	0	3586129920	65	4228
2026-01-01 05:06:48.77	265.81	11.18	-49.8	-51.0	16.9	0.00e+00	0	34	0	3591372800	65	4220
2026-01-01 05:06:49.77	265.72	11.09	-49.9	-51.1	16.8	0.00e+00	0	34	0	3597664256	65	4267
2026-01-01 05:06:50.78	265.64	11.01	-49.9	-51.2	16.8	0.00e+00	0	34	0	3602907136	65	4296
2026-01-01 05:06:51.77	265.55	10.93	-49.9	-51.1	16.8	0.00e+00	0	34	0	3608150016	65	4251
2026-01-01 05:06:52.77	265.47	10.85	-49.9	-51.1	16.8	0.00e+00	0	34	0	3614441472	65	4291
2026-01-01 05:06:53.77	265.39	10.77	-50.0	-51.2	16.8	0.00e+00	0	34	0	3619684352	65	4320
