passes_logs/2026/01/01/R3.2S_Murmansk/R3.2S_Murmansk__20260101_091124_NOAA_20_JPSS-1_rec.log

#Pass ID: 20260101_091124_NOAA 20 (JPSS-1)
#Satellite: NOAA 20 (JPSS-1)
#Configuration: NOAA 20
#almurnet v.1.7.20251203
#Start time: 2026-01-01 09:11:24

#Version: 2.2.20231116
#Station: R3.2S_Murmansk
#Location: 33.079688 lon 68.888172 lat
#TLE: 1 43013U 17073A   26001.09198674  .00000169  00000+0  10130-3 0  9995
#TLE: 2 43013  98.7621 302.1793 0001944  59.5293 300.6075 14.19531878420769

#Time	Az	El	Level	Level2	SNR	BER	BlckErr	Temp	State	Recorded	gain1	gain2
2026-01-01 09:11:24.00	143.78	2.00	-59.7	-75.7	3.8	1.49e+00	0	32	0	0	85	22932
2026-01-01 09:11:25.00	143.77	2.07	-59.7	-75.7	3.8	1.49e+00	0	32	104	0	84	24313
2026-01-01 09:11:26.00	143.76	2.13	-59.7	-75.7	3.8	1.49e+00	0	32	104	0	84	24272
2026-01-01 09:11:26.98	143.76	2.19	-59.7	-75.7	3.8	1.49e+00	0	32	104	0	84	24214
2026-01-01 09:11:27.97	143.75	2.26	-59.7	-75.7	3.8	1.49e+00	0	32	104	0	84	24236
2026-01-01 09:11:28.97	143.75	2.32	-59.7	-75.7	3.8	1.49e+00	0	32	104	0	84	24284
2026-01-01 09:11:29.96	143.74	2.39	-59.7	-75.7	3.8	1.49e+00	0	32	104	0	84	24238
2026-01-01 09:11:30.96	143.73	2.45	-59.7	-75.7	3.8	1.49e+00	0	32	104	0	84	24197
2026-01-01 09:11:31.95	143.73	2.52	-59.7	-75.7	3.8	1.49e+00	0	32	104	0	84	24255
2026-01-01 09:11:32.94	143.72	2.58	-59.7	-75.7	3.8	1.49e+00	0	32	104	0	84	24279
2026-01-01 09:11:33.94	143.72	2.65	-59.7	-75.7	3.8	1.49e+00	0	32	104	0	84	24266
2026-01-01 09:11:34.93	143.71	2.71	-59.7	-75.7	3.8	1.49e+00	0	32	104	0	84	24264
2026-01-01 09:11:35.91	143.70	2.78	-59.7	-75.7	3.8	1.49e+00	0	32	104	0	84	24195
2026-01-01 09:11:36.92	143.70	2.84	-59.7	-75.7	3.8	1.49e+00	0	32	104	0	84	24157
2026-01-01 09:11:37.92	143.69	2.91	-59.7	-75.6	3.8	1.49e+00	0	32	104	0	84	24036
2026-01-01 09:11:38.91	143.68	2.97	-59.7	-75.5	3.8	1.49e+00	0	32	104	0	84	23800
2026-01-01 09:11:39.91	143.68	3.04	-59.7	-75.5	3.8	1.49e+00	0	32	104	0	84	23702
2026-01-01 09:11:40.91	143.67	3.11	-59.7	-75.3	3.8	1.49e+00	0	32	104	0	84	23092
2026-01-01 09:11:41.90	143.67	3.17	-59.7	-75.1	3.8	1.49e+00	0	32	104	0	84	22615
2026-01-01 09:11:42.89	143.66	3.24	-59.7	-74.7	3.8	1.49e+00	0	32	104	0	84	21753
2026-01-01 09:11:43.89	143.65	3.31	-59.7	-74.4	3.8	1.49e+00	0	32	104	0	84	20928
2026-01-01 09:11:44.88	143.65	3.37	-59.6	-73.9	3.8	1.49e+00	0	32	104	0	84	19621
2026-01-01 09:11:45.88	143.64	3.44	-59.6	-73.0	4.0	1.48e+00	0	32	104	0	84	17790
2026-01-01 09:11:46.87	143.63	3.51	-59.6	-72.3	4.1	1.47e+00	0	32	0	0	84	16474
2026-01-01 09:11:47.86	143.63	3.58	-59.5	-71.7	4.4	1.34e+00	62	32	0	0	84	15246
2026-01-01 09:11:48.85	143.62	3.64	-59.5	-70.7	4.7	9.75e-01	0	32	0	1048576	84	13691
2026-01-01 09:11:49.85	143.61	3.71	-59.4	-70.2	4.9	7.26e-01	0	33	0	3145728	84	12926
2026-01-01 09:11:50.84	143.60	3.78	-59.3	-69.1	5.6	4.69e-01	0	32	0	5242880	84	11293
2026-01-01 09:11:51.83	143.60	3.85	-59.2	-68.5	6.0	3.64e-01	0	32	0	7340032	84	10601
2026-01-01 09:11:52.82	143.59	3.91	-59.1	-67.9	6.3	2.33e-01	0	33	0	8388608	84	9888
2026-01-01 09:11:53.81	143.58	3.98	-58.8	-66.3	7.7	1.07e-01	0	32	0	10485760	84	8237
2026-01-01 09:11:54.81	143.58	4.05	-58.5	-65.4	8.4	4.15e-02	0	32	0	12582912	83	7869
2026-01-01 09:11:55.81	143.57	4.12	-58.2	-64.4	9.3	1.97e-02	0	32	0	14680064	83	6991
2026-01-01 09:11:56.80	143.56	4.19	-58.0	-63.5	10.1	4.01e-03	0	33	0	16777216	82	6716
2026-01-01 09:11:57.78	143.56	4.26	-57.7	-62.7	10.9	1.59e-03	0	33	0	17825792	81	6427
2026-01-01 09:11:58.78	143.55	4.33	-57.4	-62.0	11.4	2.90e-04	0	32	0	19922944	81	5982
2026-01-01 09:11:59.77	143.54	4.40	-57.1	-61.3	12.0	5.34e-05	0	33	0	22020096	80	5851
2026-01-01 09:12:00.76	143.53	4.47	-56.8	-60.7	12.5	2.59e-05	0	33	0	24117248	80	5450
2026-01-01 09:12:01.76	143.53	4.54	-56.6	-60.2	12.9	1.50e-06	0	33	0	25165824	79	5453
2026-01-01 09:12:02.76	143.52	4.61	-56.5	-60.1	12.9	2.20e-06	0	33	0	27262976	79	5376
2026-01-01 09:12:03.76	143.51	4.68	-56.3	-59.8	13.2	7.00e-07	0	33	0	29360128	79	5169
2026-01-01 09:12:04.75	143.50	4.75	-56.4	-60.0	13.0	0.00e+00	0	33	0	31457280	79	5297
2026-01-01 09:12:05.74	143.50	4.82	-56.4	-59.9	13.1	7.00e-07	0	33	0	33554432	79	5275
2026-01-01 09:12:06.73	143.49	4.89	-56.6	-60.2	12.9	7.00e-07	0	33	0	34603008	79	5437
2026-01-01 09:12:07.73	143.48	4.96	-56.8	-60.6	12.6	7.00e-07	0	33	0	36700160	79	5673
2026-01-01 09:12:08.72	143.47	5.03	-57.1	-61.4	11.9	2.21e-05	0	33	0	38797312	79	6257
2026-01-01 09:12:09.72	143.46	5.10	-57.2	-61.2	12.4	6.80e-06	0	33	0	40894464	79	6089
2026-01-01 09:12:10.71	143.46	5.17	-57.1	-61.1	12.3	6.79e-05	0	33	0	41943040	80	5695
2026-01-01 09:12:11.71	143.45	5.24	-58.8	-66.7	7.6	7.00e-07	0	33	0	44040192	82	9697
2026-01-01 09:12:12.71	143.44	5.32	-58.4	-64.7	9.2	2.68e-01	0	33	0	46137344	83	7232
2026-01-01 09:12:13.70	143.43	5.39	-56.1	-59.3	13.6	2.17e-03	0	33	0	47185920	78	5182
2026-01-01 09:12:14.69	143.42	5.46	-56.1	-59.4	13.5	7.00e-07	0	33	0	49283072	78	5238
2026-01-01 09:12:15.68	143.42	5.53	-56.1	-59.3	13.6	0.00e+00	0	33	0	51380224	78	5164
2026-01-01 09:12:16.68	143.41	5.61	-56.2	-59.4	13.5	0.00e+00	0	33	0	53477376	78	5268
2026-01-01 09:12:17.67	143.40	5.68	-56.0	-59.1	13.8	0.00e+00	0	33	0	55574528	78	5044
2026-01-01 09:12:18.66	143.39	5.75	-55.9	-58.9	14.0	0.00e+00	0	33	0	56623104	78	4940
2026-01-01 09:12:19.65	143.38	5.82	-55.9	-58.9	13.9	0.00e+00	0	33	0	58720256	78	4979
2026-01-01 09:12:20.65	143.37	5.90	-56.0	-59.0	13.9	0.00e+00	0	33	0	60817408	78	5001
2026-01-01 09:12:21.64	143.37	5.97	-55.9	-58.8	14.0	0.00e+00	0	33	0	62914560	78	4919
2026-01-01 09:12:22.64	143.36	6.05	-56.0	-59.0	13.9	0.00e+00	0	33	0	63963136	78	4999
2026-01-01 09:12:23.63	143.35	6.12	-55.9	-58.8	14.0	0.00e+00	0	33	0	66060288	78	4921
2026-01-01 09:12:24.63	143.34	6.19	-55.8	-58.7	14.2	0.00e+00	0	33	0	68157440	78	4832
2026-01-01 09:12:25.62	143.33	6.27	-55.7	-58.6	14.2	0.00e+00	0	33	0	70254592	78	4766
2026-01-01 09:12:26.61	143.32	6.34	-55.8	-58.6	14.2	0.00e+00	0	33	0	72351744	78	4805
2026-01-01 09:12:27.60	143.31	6.42	-55.8	-58.7	14.2	0.00e+00	0	33	0	73400320	78	4821
2026-01-01 09:12:28.60	143.30	6.49	-55.7	-58.6	14.3	7.00e-07	0	33	0	75497472	78	4768
2026-01-01 09:12:29.59	143.29	6.57	-55.8	-58.6	14.3	0.00e+00	0	33	0	77594624	78	4783
2026-01-01 09:12:30.60	143.29	6.65	-55.8	-58.7	14.2	0.00e+00	0	33	0	79691776	78	4843
2026-01-01 09:12:31.60	143.28	6.72	-55.9	-58.8	14.1	0.00e+00	0	33	0	80740352	78	4884
2026-01-01 09:12:32.59	143.27	6.80	-55.9	-58.8	14.1	0.00e+00	0	33	0	82837504	78	4924
2026-01-01 09:12:33.59	143.26	6.87	-55.8	-58.6	14.3	0.00e+00	0	33	0	84934656	78	4771
2026-01-01 09:12:34.59	143.25	6.95	-55.8	-58.6	14.3	0.00e+00	0	33	0	87031808	78	4762
2026-01-01 09:12:35.58	143.24	7.03	-55.7	-58.5	14.4	0.00e+00	0	33	0	89128960	78	4731
2026-01-01 09:12:36.58	143.23	7.11	-55.8	-58.6	14.3	0.00e+00	0	33	0	90177536	78	4780
2026-01-01 09:12:37.57	143.22	7.18	-55.6	-58.3	14.4	0.00e+00	0	33	0	92274688	77	4912
2026-01-01 09:12:38.56	143.21	7.26	-55.7	-58.4	14.4	0.00e+00	0	33	0	94371840	77	4973
2026-01-01 09:12:39.55	143.20	7.34	-55.7	-58.4	14.4	0.00e+00	0	33	0	96468992	77	4972
2026-01-01 09:12:40.54	143.19	7.41	-55.7	-58.4	14.4	0.00e+00	0	33	0	97517568	77	4976
2026-01-01 09:12:41.53	143.18	7.49	-55.7	-58.5	14.4	0.00e+00	0	33	0	99614720	77	4996
2026-01-01 09:12:42.52	143.17	7.57	-55.5	-58.1	14.6	0.00e+00	0	33	0	101711872	77	4766
2026-01-01 09:12:43.52	143.16	7.65	-55.6	-58.2	14.6	0.00e+00	0	33	0	103809024	77	4837
2026-01-01 09:12:44.51	143.15	7.73	-55.5	-58.2	14.6	0.00e+00	0	33	0	105906176	77	4823
2026-01-01 09:12:45.50	143.14	7.81	-55.6	-58.2	14.6	0.00e+00	0	33	0	106954752	77	4834
2026-01-01 09:12:46.49	143.13	7.89	-55.5	-58.1	14.7	0.00e+00	0	33	0	109051904	77	4789
2026-01-01 09:12:47.48	143.12	7.96	-55.4	-58.0	14.7	0.00e+00	0	33	0	111149056	77	4732
2026-01-01 09:12:48.47	143.11	8.04	-55.5	-58.1	14.6	0.00e+00	0	33	0	113246208	77	4801
2026-01-01 09:12:49.47	143.10	8.13	-55.5	-58.1	14.7	0.00e+00	0	33	0	114294784	77	4772
2026-01-01 09:12:50.46	143.09	8.21	-55.5	-58.1	14.7	0.00e+00	0	33	0	116391936	77	4763
2026-01-01 09:12:51.46	143.08	8.29	-55.4	-58.0	14.7	0.00e+00	0	33	0	118489088	77	4708
2026-01-01 09:12:52.45	143.07	8.37	-55.4	-58.0	14.8	0.00e+00	0	33	0	120586240	77	4719
2026-01-01 09:12:53.44	143.06	8.45	-55.5	-58.1	14.7	0.00e+00	0	33	0	122683392	77	4772
2026-01-01 09:12:54.43	143.05	8.53	-55.4	-57.9	14.8	0.00e+00	0	33	0	123731968	77	4688
2026-01-01 09:12:55.43	143.04	8.61	-55.4	-57.9	14.8	0.00e+00	0	33	0	125829120	77	4686
2026-01-01 09:12:56.42	143.02	8.69	-55.4	-57.9	14.9	0.00e+00	0	33	0	127926272	77	4652
2026-01-01 09:12:57.42	143.01	8.78	-55.3	-57.8	14.9	0.00e+00	0	33	0	130023424	77	4611
2026-01-01 09:12:58.41	143.00	8.86	-55.3	-57.8	14.9	0.00e+00	0	33	0	131072000	77	4610
2026-01-01 09:12:59.40	142.99	8.94	-55.3	-57.7	14.9	0.00e+00	0	33	0	133169152	77	4587
2026-01-01 09:13:00.40	142.98	9.02	-55.2	-57.6	15.0	0.00e+00	0	33	0	135266304	77	4533
2026-01-01 09:13:01.39	142.97	9.11	-55.2	-57.6	15.0	0.00e+00	0	33	0	137363456	77	4529
2026-01-01 09:13:02.40	142.96	9.19	-55.3	-57.7	14.9	0.00e+00	0	33	0	139460608	77	4563
2026-01-01 09:13:03.39	142.95	9.27	-55.2	-57.5	15.0	0.00e+00	0	33	0	140509184	76	4752
2026-01-01 09:13:04.39	142.93	9.36	-55.2	-57.6	15.0	0.00e+00	0	33	0	142606336	76	4767
2026-01-01 09:13:05.39	142.92	9.44	-55.1	-57.4	15.1	0.00e+00	0	33	0	144703488	76	4670
2026-01-01 09:13:06.39	142.91	9.53	-55.1	-57.4	15.2	0.00e+00	0	33	0	146800640	76	4674
2026-01-01 09:13:07.38	142.90	9.61	-55.1	-57.5	15.1	0.00e+00	0	33	0	147849216	76	4721
2026-01-01 09:13:08.38	142.89	9.70	-55.1	-57.4	15.1	0.00e+00	0	33	0	149946368	76	4687
2026-01-01 09:13:09.37	142.87	9.78	-55.1	-57.4	15.1	0.00e+00	0	33	0	152043520	76	4673
2026-01-01 09:13:10.36	142.86	9.87	-55.1	-57.4	15.1	0.00e+00	0	33	0	154140672	76	4675
2026-01-01 09:13:11.36	142.85	9.96	-55.1	-57.4	15.1	0.00e+00	0	33	0	156237824	76	4698
2026-01-01 09:13:12.35	142.84	10.04	-55.1	-57.4	15.2	0.00e+00	0	33	0	157286400	76	4670
2026-01-01 09:13:13.35	142.82	10.13	-55.0	-57.3	15.2	0.00e+00	0	33	0	159383552	76	4621
2026-01-01 09:13:14.35	142.81	10.22	-55.0	-57.3	15.3	0.00e+00	0	33	0	161480704	76	4603
2026-01-01 09:13:15.33	142.80	10.30	-55.0	-57.3	15.2	0.00e+00	0	33	0	163577856	76	4643
2026-01-01 09:13:16.32	142.79	10.39	-55.0	-57.3	15.3	0.00e+00	0	33	0	164626432	76	4638
2026-01-01 09:13:17.31	142.77	10.48	-55.0	-57.3	15.3	0.00e+00	0	33	0	166723584	76	4620
2026-01-01 09:13:18.30	142.76	10.57	-54.9	-57.1	15.3	0.00e+00	0	33	0	168820736	76	4541
2026-01-01 09:13:19.31	142.75	10.66	-54.9	-57.1	15.4	0.00e+00	0	33	0	170917888	76	4517
2026-01-01 09:13:20.30	142.73	10.75	-54.9	-57.1	15.3	0.00e+00	0	33	0	173015040	76	4535
2026-01-01 09:13:21.29	142.72	10.83	-55.0	-57.2	15.3	0.00e+00	0	33	0	174063616	76	4563
2026-01-01 09:13:22.28	142.71	10.92	-54.8	-57.0	15.5	0.00e+00	0	33	0	176160768	76	4456
2026-01-01 09:13:23.27	142.70	11.01	-54.8	-57.0	15.4	0.00e+00	0	33	0	178257920	76	4486
2026-01-01 09:13:24.27	142.68	11.10	-54.8	-56.9	15.5	0.00e+00	0	33	0	180355072	76	4436
2026-01-01 09:13:25.26	142.67	11.19	-54.8	-57.0	15.5	0.00e+00	0	33	0	182452224	76	4451
2026-01-01 09:13:26.26	142.65	11.29	-54.8	-56.9	15.5	0.00e+00	0	33	0	183500800	76	4423
2026-01-01 09:13:27.25	142.64	11.38	-54.8	-57.0	15.5	0.00e+00	0	33	0	185597952	76	4443
2026-01-01 09:13:28.25	142.63	11.47	-54.8	-57.0	15.5	0.00e+00	0	33	0	187695104	76	4463
2026-01-01 09:13:29.24	142.61	11.56	-54.7	-56.8	15.6	0.00e+00	0	33	0	189792256	76	4390
2026-01-01 09:13:30.23	142.60	11.65	-54.6	-56.8	15.5	0.00e+00	0	33	0	190840832	75	4618
2026-01-01 09:13:31.23	142.58	11.75	-54.6	-56.7	15.6	0.00e+00	0	33	0	192937984	75	4572
2026-01-01 09:13:32.22	142.57	11.84	-54.6	-56.7	15.6	0.00e+00	0	33	0	195035136	75	4563
2026-01-01 09:13:33.21	142.55	11.93	-54.6	-56.7	15.5	0.00e+00	0	33	0	197132288	75	4584
2026-01-01 09:13:34.20	142.54	12.02	-54.5	-56.6	15.7	0.00e+00	0	33	0	199229440	75	4513
2026-01-01 09:13:35.20	142.53	12.12	-54.4	-56.5	15.7	0.00e+00	0	33	0	200278016	75	4448
2026-01-01 09:13:36.19	142.51	12.21	-54.5	-56.6	15.6	0.00e+00	0	33	0	202375168	75	4530
2026-01-01 09:13:37.18	142.50	12.31	-54.5	-56.6	15.6	0.00e+00	0	33	0	204472320	75	4522
2026-01-01 09:13:38.17	142.48	12.40	-54.5	-56.6	15.6	0.00e+00	0	33	0	206569472	75	4520
2026-01-01 09:13:39.17	142.47	12.50	-54.5	-56.5	15.7	0.00e+00	0	33	0	207618048	75	4487
2026-01-01 09:13:40.16	142.45	12.59	-54.5	-56.6	15.7	0.00e+00	0	34	0	209715200	75	4505
2026-01-01 09:13:41.15	142.43	12.69	-54.4	-56.4	15.7	0.00e+00	0	33	0	211812352	75	4436
2026-01-01 09:13:42.15	142.42	12.79	-54.4	-56.4	15.8	0.00e+00	0	33	0	213909504	75	4431
2026-01-01 09:13:43.14	142.40	12.88	-54.3	-56.3	15.8	0.00e+00	0	33	0	214958080	75	4387
2026-01-01 09:13:44.13	142.39	12.98	-54.3	-56.3	15.8	0.00e+00	0	33	0	217055232	75	4373
2026-01-01 09:13:45.12	142.37	13.08	-54.3	-56.3	15.8	0.00e+00	0	33	0	219152384	75	4387
2026-01-01 09:13:46.11	142.36	13.18	-54.4	-56.4	15.8	0.00e+00	0	33	0	221249536	75	4421
2026-01-01 09:13:47.11	142.34	13.27	-54.3	-56.3	15.8	0.00e+00	0	33	0	223346688	75	4346
2026-01-01 09:13:48.10	142.32	13.37	-54.2	-56.2	15.9	0.00e+00	0	33	0	224395264	74	4551
2026-01-01 09:13:49.09	142.31	13.47	-54.2	-56.1	15.9	0.00e+00	0	33	0	226492416	74	4541
2026-01-01 09:13:50.08	142.29	13.57	-54.1	-56.1	15.9	0.00e+00	0	33	0	228589568	74	4513
2026-01-01 09:13:51.07	142.27	13.67	-54.1	-56.0	15.9	0.00e+00	0	33	0	230686720	74	4485
2026-01-01 09:13:52.06	142.26	13.77	-54.1	-56.1	15.9	0.00e+00	0	33	0	231735296	74	4505
2026-01-01 09:13:53.05	142.24	13.87	-54.1	-56.0	15.9	0.00e+00	0	33	0	233832448	74	4485
2026-01-01 09:13:54.06	142.22	13.98	-54.1	-56.0	15.9	0.00e+00	0	33	0	235929600	74	4481
2026-01-01 09:13:55.05	142.21	14.08	-54.1	-56.0	16.0	0.00e+00	0	33	0	238026752	74	4448
2026-01-01 09:13:56.04	142.19	14.18	-54.1	-56.0	16.0	0.00e+00	0	33	0	239075328	74	4489
2026-01-01 09:13:57.04	142.17	14.28	-54.1	-56.0	16.0	0.00e+00	0	33	0	241172480	74	4476
2026-01-01 09:13:58.03	142.15	14.38	-54.1	-56.0	16.0	0.00e+00	0	33	0	243269632	74	4457
2026-01-01 09:13:59.03	142.13	14.49	-54.0	-55.9	16.0	0.00e+00	0	33	0	245366784	74	4406
2026-01-01 09:14:00.01	142.12	14.59	-54.0	-55.9	16.1	0.00e+00	0	33	0	247463936	74	4413
2026-01-01 09:14:01.00	142.10	14.70	-54.0	-55.8	16.1	0.00e+00	0	34	0	248512512	74	4389
2026-01-01 09:14:01.99	142.08	14.80	-54.0	-55.8	16.1	0.00e+00	0	33	0	250609664	74	4384
2026-01-01 09:14:02.98	142.06	14.90	-54.0	-55.8	16.1	0.00e+00	0	33	0	252706816	74	4376
2026-01-01 09:14:03.97	142.04	15.01	-54.0	-55.8	16.1	0.00e+00	0	33	0	254803968	74	4385
2026-01-01 09:14:04.96	142.02	15.12	-53.9	-55.8	16.1	0.00e+00	0	34	0	255852544	74	4349
2026-01-01 09:14:05.95	142.01	15.22	-53.8	-55.7	16.1	0.00e+00	0	33	0	257949696	74	4308
2026-01-01 09:14:06.94	141.99	15.33	-53.9	-55.8	16.1	0.00e+00	0	34	0	260046848	74	4344
2026-01-01 09:14:07.94	141.97	15.44	-53.8	-55.6	16.2	0.00e+00	0	33	0	262144000	74	4268
2026-01-01 09:14:08.94	141.95	15.55	-53.8	-55.6	16.2	0.00e+00	0	33	0	264241152	74	4273
2026-01-01 09:14:09.94	141.93	15.65	-53.7	-55.5	16.2	0.00e+00	0	33	0	265289728	74	4221
2026-01-01 09:14:10.93	141.91	15.76	-53.7	-55.5	16.2	0.00e+00	0	34	0	267386880	73	4461
2026-01-01 09:14:11.92	141.89	15.87	-53.8	-55.7	16.1	0.00e+00	0	34	0	269484032	73	4552
2026-01-01 09:14:12.92	141.87	15.98	-53.6	-55.4	16.2	0.00e+00	0	33	0	271581184	73	4431
2026-01-01 09:14:13.91	141.85	16.09	-53.6	-55.4	16.2	0.00e+00	0	33	0	272629760	73	4401
2026-01-01 09:14:14.90	141.83	16.20	-53.6	-55.3	16.3	0.00e+00	0	33	0	274726912	73	4387
2026-01-01 09:14:15.90	141.81	16.32	-53.6	-55.3	16.3	0.00e+00	0	34	0	276824064	73	4382
2026-01-01 09:14:16.89	141.79	16.43	-53.4	-55.2	16.3	0.00e+00	0	33	0	278921216	73	4298
2026-01-01 09:14:17.89	141.77	16.54	-53.4	-55.2	16.4	0.00e+00	0	33	0	281018368	73	4298
2026-01-01 09:14:18.88	141.74	16.65	-53.4	-55.2	16.3	0.00e+00	0	33	0	282066944	73	4305
2026-01-01 09:14:19.88	141.72	16.77	-53.3	-55.1	16.4	0.00e+00	0	34	0	284164096	73	4252
2026-01-01 09:14:20.87	141.70	16.88	-53.3	-55.0	16.4	0.00e+00	0	34	0	286261248	73	4233
2026-01-01 09:14:21.86	141.68	17.00	-53.3	-55.1	16.4	0.00e+00	0	33	0	288358400	73	4247
2026-01-01 09:14:22.86	141.66	17.11	-53.3	-55.1	16.4	0.00e+00	0	34	0	290455552	73	4249
2026-01-01 09:14:23.85	141.64	17.23	-53.3	-55.0	16.5	0.00e+00	0	33	0	291504128	73	4214
2026-01-01 09:14:24.84	141.61	17.34	-53.3	-55.1	16.4	0.00e+00	0	33	0	293601280	73	4243
2026-01-01 09:14:25.83	141.59	17.46	-53.3	-55.0	16.5	0.00e+00	0	33	0	295698432	73	4194
2026-01-01 09:14:26.82	141.57	17.58	-53.4	-55.1	16.4	0.00e+00	0	33	0	297795584	73	4252
2026-01-01 09:14:27.82	141.55	17.69	-53.2	-54.9	16.5	0.00e+00	0	33	0	298844160	73	4162
2026-01-01 09:14:28.81	141.52	17.81	-53.2	-54.8	16.5	0.00e+00	0	33	0	300941312	72	4385
2026-01-01 09:14:29.80	141.50	17.93	-53.1	-54.7	16.6	0.00e+00	0	33	0	303038464	72	4335
2026-01-01 09:14:30.80	141.48	18.05	-53.1	-54.7	16.6	0.00e+00	0	33	0	305135616	72	4315
2026-01-01 09:14:31.79	141.45	18.17	-53.1	-54.7	16.5	0.00e+00	0	33	0	306184192	72	4337
2026-01-01 09:14:32.78	141.43	18.29	-53.0	-54.6	16.6	0.00e+00	0	34	0	308281344	72	4271
2026-01-01 09:14:33.78	141.40	18.41	-53.0	-54.6	16.6	0.00e+00	0	33	0	310378496	72	4286
2026-01-01 09:14:34.77	141.38	18.54	-53.0	-54.6	16.6	0.00e+00	0	33	0	312475648	72	4263
2026-01-01 09:14:35.76	141.35	18.66	-52.9	-54.5	16.6	0.00e+00	0	34	0	314572800	72	4230
2026-01-01 09:14:36.75	141.33	18.78	-52.9	-54.5	16.7	0.00e+00	0	34	0	315621376	72	4209
2026-01-01 09:14:37.75	141.30	18.90	-52.9	-54.5	16.7	0.00e+00	0	33	0	317718528	72	4209
2026-01-01 09:14:38.74	141.28	19.03	-52.9	-54.5	16.7	0.00e+00	0	33	0	319815680	72	4235
2026-01-01 09:14:39.74	141.25	19.15	-52.8	-54.4	16.7	0.00e+00	0	34	0	321912832	72	4168
2026-01-01 09:14:40.73	141.23	19.28	-52.7	-54.3	16.7	0.00e+00	0	33	0	322961408	72	4131
2026-01-01 09:14:41.73	141.20	19.41	-52.8	-54.3	16.7	0.00e+00	0	34	0	325058560	72	4144
2026-01-01 09:14:42.71	141.18	19.53	-52.8	-54.3	16.8	0.00e+00	0	34	0	327155712	72	4132
2026-01-01 09:14:43.71	141.15	19.66	-52.6	-54.2	16.8	0.00e+00	0	34	0	329252864	71	4309
2026-01-01 09:14:44.70	141.12	19.79	-52.7	-54.3	16.7	0.00e+00	0	33	0	330301440	71	4366
2026-01-01 09:14:45.69	141.10	19.92	-52.7	-54.3	16.7	0.00e+00	0	34	0	332398592	71	4345
2026-01-01 09:14:46.69	141.07	20.05	-52.8	-54.4	16.7	0.00e+00	0	34	0	334495744	71	4404
2026-01-01 09:14:47.68	141.04	20.18	-52.7	-54.3	16.7	0.00e+00	0	34	0	336592896	71	4345
2026-01-01 09:14:48.68	141.01	20.31	-52.6	-54.1	16.8	0.00e+00	0	34	0	338690048	71	4276
2026-01-01 09:14:49.68	140.98	20.44	-52.6	-54.2	16.8	0.00e+00	0	33	0	339738624	71	4314
2026-01-01 09:14:50.67	140.96	20.57	-52.6	-54.2	16.8	0.00e+00	0	33	0	341835776	71	4317
2026-01-01 09:14:51.67	140.93	20.71	-52.6	-54.1	16.8	0.00e+00	0	33	0	343932928	71	4270
2026-01-01 09:14:52.65	140.90	20.84	-52.6	-54.1	16.8	0.00e+00	0	34	0	346030080	71	4285
2026-01-01 09:14:53.64	140.87	20.97	-52.6	-54.1	16.8	0.00e+00	0	34	0	347078656	71	4282
2026-01-01 09:14:54.63	140.84	21.11	-52.6	-54.2	16.8	0.00e+00	0	34	0	349175808	71	4292
2026-01-01 09:14:55.62	140.81	21.24	-52.6	-54.1	16.8	0.00e+00	0	34	0	351272960	71	4282
2026-01-01 09:14:56.62	140.78	21.38	-52.6	-54.2	16.8	0.00e+00	0	34	0	353370112	71	4299
2026-01-01 09:14:57.61	140.75	21.51	-52.6	-54.2	16.8	0.00e+00	0	33	0	355467264	71	4304
2026-01-01 09:14:58.61	140.72	21.65	-52.5	-54.1	16.8	0.00e+00	0	34	0	356515840	71	4257
2026-01-01 09:14:59.60	140.69	21.79	-52.6	-54.1	16.8	0.00e+00	0	34	0	358612992	71	4277
2026-01-01 09:15:00.60	140.66	21.93	-52.6	-54.1	16.8	0.00e+00	0	33	0	360710144	71	4289
2026-01-01 09:15:01.58	140.63	22.07	-52.5	-54.0	16.8	0.00e+00	0	34	0	362807296	71	4217
2026-01-01 09:15:02.58	140.59	22.21	-52.5	-54.0	16.8	0.00e+00	0	34	0	363855872	71	4236
2026-01-01 09:15:03.57	140.56	22.35	-52.5	-54.0	16.8	0.00e+00	0	34	0	365953024	71	4233
2026-01-01 09:15:04.56	140.53	22.49	-52.6	-54.1	16.8	0.00e+00	0	33	0	368050176	71	4262
2026-01-01 09:15:05.56	140.50	22.64	-52.5	-54.0	16.8	0.00e+00	0	33	0	370147328	71	4229
2026-01-01 09:15:06.55	140.46	22.78	-52.5	-54.1	16.8	0.00e+00	0	34	0	372244480	71	4250
2026-01-01 09:15:07.54	140.43	22.93	-52.5	-54.0	16.8	0.00e+00	0	33	0	373293056	71	4240
2026-01-01 09:15:08.53	140.40	23.07	-52.5	-54.0	16.8	0.00e+00	0	34	0	375390208	71	4231
2026-01-01 09:15:09.53	140.36	23.22	-52.5	-54.0	16.8	0.00e+00	0	34	0	377487360	71	4218
2026-01-01 09:15:10.52	140.33	23.37	-52.6	-54.2	16.8	0.00e+00	0	33	0	379584512	71	4295
2026-01-01 09:15:11.51	140.29	23.51	-52.6	-54.2	16.8	0.00e+00	0	33	0	380633088	71	4306
2026-01-01 09:15:12.50	140.26	23.66	-52.8	-54.4	16.8	0.00e+00	0	33	0	382730240	71	4396
2026-01-01 09:15:13.49	140.22	23.81	-52.7	-54.3	16.8	0.00e+00	0	33	0	384827392	71	4347
2026-01-01 09:15:14.48	140.19	23.96	-52.7	-54.3	16.8	0.00e+00	0	34	0	386924544	71	4360
2026-01-01 09:15:15.47	140.15	24.11	-52.8	-54.3	16.7	0.00e+00	0	34	0	389021696	71	4378
2026-01-01 09:15:16.46	140.11	24.26	-52.8	-54.4	16.7	0.00e+00	0	34	0	390070272	71	4406
2026-01-01 09:15:17.46	140.08	24.42	-52.8	-54.4	16.8	0.00e+00	0	33	0	392167424	71	4398
2026-01-01 09:15:18.45	140.04	24.57	-52.9	-54.5	16.7	0.00e+00	0	33	0	394264576	71	4471
2026-01-01 09:15:19.44	140.00	24.73	-53.1	-54.7	16.6	0.00e+00	0	34	0	396361728	71	4588
2026-01-01 09:15:20.43	139.96	24.88	-53.0	-54.6	16.7	0.00e+00	0	33	0	397410304	71	4511
2026-01-01 09:15:21.42	139.92	25.04	-53.2	-54.8	16.6	0.00e+00	0	33	0	399507456	71	4614
2026-01-01 09:15:22.42	139.88	25.20	-53.1	-54.7	16.6	0.00e+00	0	34	0	401604608	71	4576
2026-01-01 09:15:23.42	139.84	25.36	-53.1	-54.7	16.6	0.00e+00	0	34	0	403701760	71	4585
2026-01-01 09:15:24.41	139.80	25.52	-53.2	-54.9	16.5	0.00e+00	0	33	0	405798912	71	4658
2026-01-01 09:15:25.40	139.76	25.68	-53.2	-54.8	16.6	0.00e+00	0	34	0	406847488	71	4636
2026-01-01 09:15:26.40	139.72	25.84	-53.2	-54.8	16.6	0.00e+00	0	34	0	408944640	71	4637
2026-01-01 09:15:27.40	139.68	26.00	-53.2	-54.8	16.6	0.00e+00	0	34	0	411041792	71	4606
2026-01-01 09:15:28.40	139.64	26.17	-53.3	-54.9	16.5	0.00e+00	0	33	0	413138944	71	4699
2026-01-01 09:15:29.39	139.60	26.33	-53.3	-55.0	16.6	0.00e+00	0	34	0	414187520	71	4719
2026-01-01 09:15:30.38	139.55	26.49	-53.4	-55.0	16.5	0.00e+00	0	34	0	416284672	71	4740
2026-01-01 09:15:31.38	139.51	26.66	-53.6	-55.3	16.4	0.00e+00	0	34	0	418381824	72	4623
2026-01-01 09:15:32.38	139.47	26.83	-53.7	-55.4	16.4	0.00e+00	0	34	0	420478976	72	4660
2026-01-01 09:15:33.37	139.42	27.00	-53.6	-55.3	16.4	0.00e+00	0	34	0	422576128	72	4644
2026-01-01 09:15:34.35	139.38	27.17	-53.6	-55.3	16.4	0.00e+00	0	34	0	423624704	72	4641
2026-01-01 09:15:35.35	139.33	27.34	-53.8	-55.5	16.3	0.00e+00	0	33	0	425721856	72	4755
2026-01-01 09:15:36.35	139.29	27.51	-53.8	-55.6	16.3	0.00e+00	0	34	0	427819008	72	4785
2026-01-01 09:15:37.34	139.24	27.68	-54.0	-55.7	16.3	0.00e+00	0	34	0	429916160	73	4591
2026-01-01 09:15:38.34	139.19	27.86	-54.0	-55.8	16.2	0.00e+00	0	33	0	430964736	73	4643
2026-01-01 09:15:39.33	139.15	28.03	-54.3	-56.1	16.1	0.00e+00	0	34	0	433061888	73	4797
2026-01-01 09:15:40.32	139.10	28.21	-54.3	-56.2	16.1	0.00e+00	0	33	0	435159040	73	4823
2026-01-01 09:15:41.31	139.05	28.38	-54.5	-56.4	16.0	0.00e+00	0	33	0	437256192	74	4672
2026-01-01 09:15:42.30	139.00	28.56	-54.6	-56.5	16.0	0.00e+00	0	33	0	439353344	74	4739
2026-01-01 09:15:43.30	138.95	28.74	-54.8	-56.8	15.8	0.00e+00	0	34	0	440401920	74	4901
2026-01-01 09:15:44.29	138.90	28.92	-54.9	-57.0	15.8	0.00e+00	0	34	0	442499072	75	4718
2026-01-01 09:15:45.28	138.85	29.10	-55.2	-57.3	15.6	0.00e+00	0	33	0	444596224	75	4892
2026-01-01 09:15:46.27	138.80	29.28	-55.3	-57.5	15.5	0.00e+00	0	33	0	446693376	75	4994
2026-01-01 09:15:47.27	138.74	29.47	-55.6	-57.9	15.4	0.00e+00	0	34	0	447741952	76	4947
2026-01-01 09:15:48.27	138.69	29.65	-55.7	-58.0	15.3	0.00e+00	0	33	0	449839104	76	5008
2026-01-01 09:15:49.26	138.64	29.84	-55.8	-58.1	15.2	0.00e+00	0	33	0	451936256	76	5070
2026-01-01 09:15:50.24	138.58	30.02	-55.8	-58.1	15.2	0.00e+00	0	33	0	454033408	76	5089
2026-01-01 09:15:51.23	138.53	30.21	-55.8	-58.1	15.2	0.00e+00	0	34	0	455081984	76	5087
2026-01-01 09:15:52.22	138.47	30.40	-55.8	-58.1	15.2	0.00e+00	0	33	0	457179136	76	5100
2026-01-01 09:15:53.21	138.42	30.59	-55.9	-58.2	15.2	0.00e+00	0	33	0	459276288	77	4861
2026-01-01 09:15:54.20	138.36	30.78	-56.0	-58.4	15.1	0.00e+00	0	34	0	461373440	77	4928
2026-01-01 09:15:55.20	138.30	30.98	-55.9	-58.2	15.2	0.00e+00	0	34	0	463470592	77	4847
2026-01-01 09:15:56.19	138.25	31.17	-56.0	-58.4	15.1	0.00e+00	0	34	0	464519168	77	4932
2026-01-01 09:15:57.19	138.19	31.37	-56.1	-58.6	15.0	0.00e+00	0	34	0	466616320	77	5050
2026-01-01 09:15:58.18	138.13	31.56	-56.2	-58.6	15.0	0.00e+00	0	33	0	468713472	77	5091
2026-01-01 09:15:59.17	138.07	31.76	-56.2	-58.7	14.9	0.00e+00	0	34	0	470810624	77	5136
2026-01-01 09:16:00.17	138.00	31.96	-56.3	-58.8	14.9	0.00e+00	0	34	0	471859200	77	5173
2026-01-01 09:16:01.16	137.94	32.16	-56.3	-58.8	14.8	0.00e+00	0	34	0	473956352	77	5218
2026-01-01 09:16:02.15	137.88	32.37	-56.2	-58.7	15.0	0.00e+00	0	34	0	476053504	77	5112
2026-01-01 09:16:03.15	137.81	32.57	-56.1	-58.6	15.0	0.00e+00	0	34	0	478150656	77	5055
2026-01-01 09:16:04.14	137.75	32.78	-56.1	-58.5	15.0	0.00e+00	0	34	0	480247808	77	5031
2026-01-01 09:16:05.13	137.68	32.98	-56.1	-58.5	15.0	0.00e+00	0	34	0	481296384	77	5013
2026-01-01 09:16:06.13	137.62	33.19	-56.3	-58.8	14.9	0.00e+00	0	33	0	483393536	77	5180
2026-01-01 09:16:07.12	137.55	33.40	-56.3	-58.8	14.9	0.00e+00	0	34	0	485490688	77	5161
2026-01-01 09:16:08.12	137.48	33.61	-56.1	-58.5	15.0	0.00e+00	0	34	0	487587840	77	5029
2026-01-01 09:16:09.12	137.41	33.82	-56.2	-58.6	15.0	0.00e+00	0	34	0	488636416	77	5055
2026-01-01 09:16:10.12	137.34	34.04	-56.2	-58.7	15.0	0.00e+00	0	34	0	490733568	77	5120
2026-01-01 09:16:11.11	137.27	34.25	-56.3	-58.7	14.9	0.00e+00	0	34	0	492830720	77	5150
2026-01-01 09:16:12.11	137.20	34.47	-56.1	-58.5	15.1	0.00e+00	0	34	0	494927872	77	5021
2026-01-01 09:16:13.09	137.13	34.69	-55.9	-58.2	15.2	0.00e+00	0	34	0	497025024	77	4841
2026-01-01 09:16:14.09	137.05	34.91	-55.8	-58.0	15.3	0.00e+00	0	34	0	498073600	77	4749
2026-01-01 09:16:15.09	136.97	35.13	-55.7	-58.0	15.4	0.00e+00	0	34	0	500170752	77	4723
2026-01-01 09:16:16.09	136.90	35.35	-55.7	-58.0	15.3	0.00e+00	0	34	0	502267904	77	4706
2026-01-01 09:16:17.09	136.82	35.58	-55.5	-57.6	15.6	0.00e+00	0	34	0	504365056	77	4518
2026-01-01 09:16:18.09	136.74	35.80	-55.2	-57.3	15.7	0.00e+00	0	34	0	506462208	77	4372
2026-01-01 09:16:19.08	136.66	36.03	-55.1	-57.1	15.8	0.00e+00	0	34	0	507510784	76	4524
2026-01-01 09:16:20.07	136.58	36.26	-54.9	-56.9	15.9	0.00e+00	0	33	0	509607936	76	4416
2026-01-01 09:16:21.06	136.50	36.49	-54.9	-56.9	15.9	0.00e+00	0	33	0	511705088	76	4428
2026-01-01 09:16:22.06	136.41	36.72	-54.8	-56.7	16.0	0.00e+00	0	33	0	513802240	76	4314
2026-01-01 09:16:23.05	136.33	36.95	-54.9	-56.8	16.0	0.00e+00	0	34	0	514850816	76	4357
2026-01-01 09:16:24.04	136.24	37.18	-54.9	-56.8	16.0	0.00e+00	0	34	0	516947968	76	4379
2026-01-01 09:16:25.04	136.16	37.42	-54.9	-56.9	16.0	0.00e+00	0	34	0	519045120	76	4405
2026-01-01 09:16:26.03	136.07	37.66	-54.8	-56.8	16.0	0.00e+00	0	34	0	521142272	76	4349
2026-01-01 09:16:27.03	135.98	37.90	-54.8	-56.7	16.1	0.00e+00	0	34	0	523239424	76	4302
2026-01-01 09:16:28.01	135.89	38.14	-54.7	-56.6	16.1	0.00e+00	0	34	0	524288000	75	4497
2026-01-01 09:16:29.01	135.79	38.38	-54.8	-56.7	16.0	0.00e+00	0	34	0	526385152	75	4593
2026-01-01 09:16:30.00	135.70	38.63	-54.8	-56.8	16.0	0.00e+00	0	33	0	528482304	75	4631
2026-01-01 09:16:31.00	135.60	38.87	-55.1	-57.2	15.8	0.00e+00	0	33	0	530579456	75	4828
2026-01-01 09:16:31.99	135.51	39.12	-55.3	-57.3	15.7	0.00e+00	0	34	0	531628032	75	4925
2026-01-01 09:16:32.98	135.41	39.37	-55.5	-57.6	15.6	0.00e+00	0	34	0	533725184	76	4790
2026-01-01 09:16:33.98	135.31	39.62	-55.5	-57.6	15.6	0.00e+00	0	34	0	535822336	76	4785
2026-01-01 09:16:34.97	135.21	39.87	-55.5	-57.6	15.6	0.00e+00	0	34	0	537919488	76	4800
2026-01-01 09:16:35.96	135.10	40.13	-55.6	-57.7	15.6	0.00e+00	0	34	0	540016640	76	4837
2026-01-01 09:16:36.95	135.00	40.38	-55.6	-57.8	15.5	0.00e+00	0	34	0	541065216	76	4900
2026-01-01 09:16:37.95	134.89	40.64	-55.9	-58.2	15.3	0.00e+00	0	34	0	543162368	76	5111
2026-01-01 09:16:38.94	134.78	40.90	-55.9	-58.2	15.3	0.00e+00	0	34	0	545259520	76	5110
2026-01-01 09:16:39.94	134.67	41.16	-55.9	-58.1	15.3	0.00e+00	0	34	0	547356672	77	4780
2026-01-01 09:16:40.94	134.56	41.43	-55.9	-58.1	15.3	0.00e+00	0	34	0	548405248	77	4810
2026-01-01 09:16:41.93	134.45	41.69	-56.0	-58.3	15.3	0.00e+00	0	34	0	550502400	77	4894
2026-01-01 09:16:42.92	134.33	41.96	-56.0	-58.4	15.2	0.00e+00	0	33	0	552599552	77	4944
2026-01-01 09:16:43.92	134.21	42.23	-56.2	-58.7	15.1	0.00e+00	0	34	0	554696704	77	5113
2026-01-01 09:16:44.91	134.09	42.50	-56.2	-58.6	15.1	0.00e+00	0	34	0	556793856	77	5075
2026-01-01 09:16:45.90	133.97	42.77	-56.2	-58.6	15.1	0.00e+00	0	34	0	557842432	77	5069
2026-01-01 09:16:46.90	133.84	43.05	-56.0	-58.3	15.2	0.00e+00	0	34	0	559939584	77	4906
2026-01-01 09:16:47.90	133.72	43.32	-55.9	-58.1	15.4	0.00e+00	0	34	0	562036736	77	4811
2026-01-01 09:16:48.90	133.59	43.60	-55.8	-58.0	15.4	0.00e+00	0	34	0	564133888	77	4722
2026-01-01 09:16:49.90	133.45	43.88	-55.7	-57.9	15.5	0.00e+00	0	34	0	565182464	77	4664
2026-01-01 09:16:50.89	133.32	44.16	-55.8	-58.0	15.4	0.00e+00	0	33	0	567279616	77	4737
2026-01-01 09:16:51.88	133.19	44.45	-55.8	-58.1	15.3	0.00e+00	0	34	0	569376768	77	4789
2026-01-01 09:16:52.87	133.05	44.73	-55.8	-58.0	15.4	0.00e+00	0	34	0	571473920	77	4736
2026-01-01 09:16:53.87	132.90	45.02	-55.8	-58.1	15.3	0.00e+00	0	34	0	573571072	77	4772
2026-01-01 09:16:54.86	132.76	45.31	-56.0	-58.3	15.3	0.00e+00	0	34	0	574619648	77	4903
2026-01-01 09:16:55.85	132.62	45.60	-56.0	-58.3	15.3	0.00e+00	0	34	0	576716800	77	4873
2026-01-01 09:16:56.85	132.47	45.89	-55.8	-58.0	15.4	0.00e+00	0	34	0	578813952	77	4728
2026-01-01 09:16:57.84	132.31	46.19	-55.9	-58.1	15.4	0.00e+00	0	34	0	580911104	77	4800
2026-01-01 09:16:58.83	132.16	46.48	-56.2	-58.5	15.2	0.00e+00	0	34	0	581959680	77	5040
2026-01-01 09:16:59.82	132.00	46.78	-56.2	-58.5	15.1	0.00e+00	0	34	0	584056832	77	5023
2026-01-01 09:17:00.81	131.84	47.08	-56.4	-58.8	15.0	0.00e+00	0	34	0	586153984	78	4914
2026-01-01 09:17:01.80	131.68	47.38	-56.2	-58.6	15.1	0.00e+00	0	34	0	588251136	78	4782
2026-01-01 09:17:02.80	131.51	47.69	-56.1	-58.5	15.2	0.00e+00	0	34	0	589299712	78	4729
2026-01-01 09:17:03.79	131.34	47.99	-56.1	-58.4	15.3	0.00e+00	0	34	0	591396864	78	4653
2026-01-01 09:17:04.78	131.16	48.30	-56.3	-58.7	15.1	0.00e+00	0	33	0	593494016	78	4832
2026-01-01 09:17:05.78	130.98	48.61	-56.4	-58.8	15.0	0.00e+00	0	34	0	595591168	78	4902
2026-01-01 09:17:06.76	130.80	48.92	-56.2	-58.5	15.2	0.00e+00	0	34	0	597688320	78	4739
2026-01-01 09:17:07.75	130.62	49.23	-56.2	-58.5	15.2	0.00e+00	0	34	0	598736896	78	4752
2026-01-01 09:17:08.75	130.43	49.55	-55.8	-58.0	15.5	0.00e+00	0	34	0	600834048	78	4458
2026-01-01 09:17:09.75	130.23	49.86	-55.5	-57.7	15.7	0.00e+00	0	34	0	602931200	77	4550
2026-01-01 09:17:10.75	130.03	50.19	-55.1	-57.1	15.9	0.00e+00	0	34	0	605028352	76	4499
2026-01-01 09:17:11.74	129.83	50.51	-54.7	-56.6	16.1	0.00e+00	0	34	0	606076928	76	4258
2026-01-01 09:17:12.73	129.63	50.83	-54.5	-56.4	16.2	0.00e+00	0	33	0	608174080	75	4401
2026-01-01 09:17:13.73	129.41	51.15	-54.3	-56.1	16.3	0.00e+00	0	34	0	610271232	75	4259
2026-01-01 09:17:14.72	129.20	51.48	-53.9	-55.6	16.5	0.00e+00	0	33	0	612368384	74	4273
2026-01-01 09:17:15.72	128.98	51.81	-53.3	-54.9	16.8	0.00e+00	0	34	0	614465536	73	4146
2026-01-01 09:17:16.72	128.75	52.14	-53.1	-54.6	16.8	0.00e+00	0	34	0	615514112	72	4278
2026-01-01 09:17:17.72	128.52	52.48	-53.0	-54.5	16.9	0.00e+00	0	33	0	617611264	72	4239
2026-01-01 09:17:18.72	128.28	52.81	-52.9	-54.4	16.9	0.00e+00	0	34	0	619708416	72	4190
2026-01-01 09:17:19.71	128.04	53.15	-52.9	-54.4	16.9	0.00e+00	0	34	0	621805568	72	4162
2026-01-01 09:17:20.71	127.79	53.48	-53.0	-54.5	16.9	0.00e+00	0	34	0	623902720	72	4228
2026-01-01 09:17:21.70	127.53	53.82	-53.2	-54.7	16.8	0.00e+00	0	34	0	624951296	72	4321
2026-01-01 09:17:22.69	127.28	54.16	-53.2	-54.8	16.8	0.00e+00	0	34	0	627048448	72	4342
2026-01-01 09:17:23.69	127.01	54.51	-53.4	-55.0	16.7	0.00e+00	0	34	0	629145600	72	4490
2026-01-01 09:17:24.68	126.74	54.85	-53.7	-55.4	16.6	0.00e+00	0	34	0	631242752	72	4666
2026-01-01 09:17:25.67	126.46	55.19	-54.1	-55.8	16.4	0.00e+00	0	34	0	632291328	73	4624
2026-01-01 09:17:26.67	126.17	55.54	-54.1	-55.8	16.4	0.00e+00	0	34	0	634388480	73	4630
2026-01-01 09:17:27.66	125.88	55.89	-54.2	-55.9	16.4	0.00e+00	0	34	0	636485632	73	4680
2026-01-01 09:17:28.66	125.58	56.24	-54.4	-56.3	16.2	0.00e+00	0	34	0	638582784	74	4599
2026-01-01 09:17:29.64	125.27	56.59	-54.7	-56.5	16.1	0.00e+00	0	34	0	639631360	74	4756
2026-01-01 09:17:30.64	124.95	56.94	-54.8	-56.7	16.0	0.00e+00	0	34	0	641728512	74	4859
2026-01-01 09:17:31.63	124.63	57.29	-55.0	-57.0	15.9	0.00e+00	0	34	0	643825664	75	4745
2026-01-01 09:17:32.62	124.30	57.65	-55.7	-57.9	15.5	0.00e+00	0	34	0	645922816	76	4949
2026-01-01 09:17:33.62	123.95	58.01	-55.9	-58.2	15.4	0.00e+00	0	34	0	648019968	77	4820
2026-01-01 09:17:34.62	123.60	58.37	-55.7	-57.9	15.5	0.00e+00	0	34	0	649068544	77	4653
2026-01-01 09:17:35.61	123.24	58.72	-55.4	-57.4	15.8	0.00e+00	0	34	0	651165696	77	4407
2026-01-01 09:17:36.61	122.86	59.08	-55.6	-57.7	15.7	0.00e+00	0	34	0	653262848	77	4559
2026-01-01 09:17:37.60	122.48	59.44	-55.5	-57.6	15.7	0.00e+00	0	34	0	655360000	77	4525
2026-01-01 09:17:38.60	122.08	59.81	-55.3	-57.3	15.8	0.00e+00	0	34	0	656408576	77	4364
2026-01-01 09:17:39.59	121.68	60.17	-54.5	-56.3	16.3	0.00e+00	0	34	0	658505728	75	4342
2026-01-01 09:17:40.58	121.27	60.53	-53.7	-55.3	16.7	0.00e+00	0	34	0	660602880	74	4127
2026-01-01 09:17:41.58	120.84	60.90	-53.5	-55.1	16.7	0.00e+00	0	34	0	662700032	73	4258
2026-01-01 09:17:42.57	120.40	61.26	-53.2	-54.7	16.8	0.00e+00	0	34	0	664797184	72	4330
2026-01-01 09:17:43.56	119.94	61.62	-52.9	-54.4	16.9	0.00e+00	0	34	0	665845760	72	4167
2026-01-01 09:17:44.56	119.47	61.99	-52.9	-54.4	17.0	0.00e+00	0	34	0	667942912	72	4155
2026-01-01 09:17:45.55	118.99	62.35	-52.8	-54.2	17.0	0.00e+00	0	34	0	670040064	72	4096
2026-01-01 09:17:46.55	118.49	62.72	-52.8	-54.3	16.9	0.00e+00	0	34	0	672137216	72	4135
2026-01-01 09:17:47.53	117.99	63.08	-53.0	-54.5	16.9	0.00e+00	0	34	0	673185792	72	4211
2026-01-01 09:17:48.53	117.46	63.45	-53.2	-54.7	16.8	0.00e+00	0	34	0	675282944	72	4332
2026-01-01 09:17:49.53	116.91	63.82	-53.3	-54.8	16.8	0.00e+00	0	34	0	677380096	72	4387
2026-01-01 09:17:50.52	116.35	64.18	-53.6	-55.2	16.6	0.00e+00	0	34	0	679477248	72	4589
2026-01-01 09:17:51.51	115.77	64.54	-54.0	-55.7	16.5	0.00e+00	0	34	0	681574400	73	4585
2026-01-01 09:17:52.51	115.16	64.91	-54.3	-56.1	16.3	0.00e+00	0	34	0	682622976	73	4760
2026-01-01 09:17:53.50	114.55	65.27	-54.9	-56.8	16.1	0.00e+00	0	33	0	684720128	74	4884
2026-01-01 09:17:54.50	113.90	65.64	-55.6	-57.7	15.7	0.00e+00	0	34	0	686817280	76	4820
2026-01-01 09:17:55.49	113.24	65.99	-56.3	-58.6	15.2	0.00e+00	0	34	0	688914432	77	5091
2026-01-01 09:17:56.48	112.56	66.35	-56.3	-58.6	15.2	0.00e+00	0	34	0	689963008	77	5075
2026-01-01 09:17:57.47	111.86	66.71	-56.1	-58.3	15.3	0.00e+00	0	33	0	692060160	77	4921
2026-01-01 09:17:58.47	111.12	67.07	-56.0	-58.3	15.4	0.00e+00	0	34	0	694157312	77	4891
2026-01-01 09:17:59.47	110.36	67.42	-56.0	-58.2	15.4	0.00e+00	0	34	0	696254464	77	4858
2026-01-01 09:18:00.46	109.58	67.77	-56.1	-58.3	15.3	0.00e+00	0	34	0	698351616	77	4922
2026-01-01 09:18:01.46	108.76	68.12	-56.3	-58.6	15.2	0.00e+00	0	34	0	699400192	77	5075
2026-01-01 09:18:02.45	107.93	68.47	-56.0	-58.2	15.4	0.00e+00	0	34	0	701497344	77	4853
2026-01-01 09:18:03.45	107.05	68.81	-55.7	-57.8	15.6	0.00e+00	0	34	0	703594496	77	4612
2026-01-01 09:18:04.44	106.16	69.15	-55.8	-58.0	15.5	0.00e+00	0	34	0	705691648	77	4749
2026-01-01 09:18:05.44	105.22	69.49	-55.8	-58.0	15.5	0.00e+00	0	34	0	706740224	77	4754
2026-01-01 09:18:06.44	104.25	69.82	-55.5	-57.5	15.8	0.00e+00	0	34	0	708837376	77	4486
2026-01-01 09:18:07.44	103.24	70.15	-55.0	-56.9	16.1	0.00e+00	0	34	0	710934528	76	4420
2026-01-01 09:18:08.44	102.20	70.47	-54.5	-56.4	16.3	0.00e+00	0	34	0	713031680	75	4395
2026-01-01 09:18:09.43	101.13	70.79	-54.3	-56.0	16.4	0.00e+00	0	34	0	715128832	75	4239
2026-01-01 09:18:10.64	99.77	71.17	-53.9	-55.5	16.6	0.00e+00	0	34	0	716177408	74	4238
2026-01-01 09:18:11.50	98.77	71.43	-53.8	-55.4	16.7	0.00e+00	0	34	0	718274560	74	4151
2026-01-01 09:18:12.63	97.41	71.77	-54.0	-55.6	16.6	0.00e+00	0	34	0	720371712	74	4267
2026-01-01 09:18:13.49	96.34	72.02	-54.1	-55.8	16.5	0.00e+00	0	34	0	721420288	74	4372
2026-01-01 09:18:14.63	94.87	72.35	-54.3	-56.0	16.4	0.00e+00	0	34	0	724566016	74	4474
2026-01-01 09:18:15.48	93.74	72.58	-54.3	-56.0	16.5	0.00e+00	0	34	0	725614592	74	4448
2026-01-01 09:18:16.62	92.17	72.89	-54.4	-56.1	16.4	0.00e+00	0	34	0	727711744	74	4538
2026-01-01 09:18:17.48	90.95	73.11	-54.5	-56.2	16.3	0.00e+00	0	34	0	729808896	74	4595
2026-01-01 09:18:18.62	89.27	73.39	-54.5	-56.3	16.3	0.00e+00	0	34	0	731906048	74	4632
2026-01-01 09:18:19.47	87.98	73.60	-54.9	-56.8	16.1	0.00e+00	0	34	0	732954624	75	4600
2026-01-01 09:18:20.60	86.22	73.86	-56.1	-58.4	15.4	0.00e+00	0	34	0	735051776	77	4937
2026-01-01 09:18:21.46	84.84	74.04	-56.2	-58.5	15.3	0.00e+00	0	34	0	737148928	77	5007
2026-01-01 09:18:22.59	82.98	74.27	-55.8	-58.0	15.6	0.00e+00	0	34	0	739246080	77	4707
2026-01-01 09:18:23.44	81.54	74.44	-56.1	-58.4	15.3	0.00e+00	0	34	0	740294656	77	4957
2026-01-01 09:18:24.58	79.56	74.64	-57.0	-59.7	14.7	0.00e+00	0	34	0	742391808	79	5132
2026-01-01 09:18:25.43	78.05	74.78	-57.4	-60.3	14.3	0.00e+00	0	34	0	744488960	79	5468
2026-01-01 09:18:26.57	75.98	74.96	-57.9	-61.0	13.7	0.00e+00	0	34	0	746586112	80	5647
2026-01-01 09:18:27.42	74.40	75.07	-58.1	-61.4	13.6	0.00e+00	0	34	0	747634688	81	5563
2026-01-01 09:18:28.56	72.25	75.21	-57.8	-60.9	13.8	0.00e+00	0	34	0	749731840	81	5278
2026-01-01 09:18:29.41	70.62	75.30	-57.7	-60.7	14.0	0.00e+00	0	34	0	751828992	81	5136
2026-01-01 09:18:30.54	68.43	75.40	-57.7	-60.7	13.9	0.00e+00	0	34	0	753926144	81	5152
2026-01-01 09:18:31.39	66.76	75.47	-57.3	-60.1	14.3	0.00e+00	0	34	0	756023296	81	4808
2026-01-01 09:18:32.53	64.49	75.53	-57.3	-60.1	14.4	0.00e+00	0	34	0	758120448	80	5072
2026-01-01 09:18:33.38	62.80	75.57	-57.3	-60.0	14.4	0.00e+00	0	34	0	759169024	80	5027
2026-01-01 09:18:34.51	60.53	75.59	-56.9	-59.4	14.9	0.00e+00	0	34	0	761266176	80	4683
2026-01-01 09:18:35.37	58.80	75.60	-56.6	-59.1	15.0	0.00e+00	0	34	0	763363328	79	4765
2026-01-01 09:18:36.51	56.51	75.59	-56.7	-59.1	15.0	0.00e+00	0	34	0	765460480	79	4812
2026-01-01 09:18:37.36	54.80	75.57	-56.6	-59.0	15.0	0.00e+00	0	34	0	766509056	79	4745
2026-01-01 09:18:38.50	52.53	75.51	-56.3	-58.5	15.3	0.00e+00	0	34	0	768606208	79	4492
2026-01-01 09:18:39.35	50.84	75.46	-56.4	-58.7	15.3	0.00e+00	0	34	0	770703360	79	4558
2026-01-01 09:18:40.49	48.61	75.37	-56.4	-58.7	15.2	0.00e+00	0	34	0	772800512	79	4592
2026-01-01 09:18:41.34	46.96	75.29	-56.6	-59.1	15.0	0.00e+00	0	34	0	773849088	79	4774
2026-01-01 09:18:42.48	44.79	75.17	-56.9	-59.5	14.8	0.00e+00	0	34	0	775946240	79	5003
2026-01-01 09:18:43.33	43.19	75.06	-57.0	-59.6	14.7	0.00e+00	0	34	0	778043392	79	5091
2026-01-01 09:18:44.47	41.09	74.90	-57.2	-60.0	14.4	0.00e+00	0	34	0	780140544	79	5313
2026-01-01 09:18:45.32	39.55	74.77	-57.3	-60.2	14.3	0.00e+00	0	34	0	781189120	80	5104
2026-01-01 09:18:46.45	37.55	74.58	-57.4	-60.2	14.3	0.00e+00	0	34	0	783286272	80	5137
2026-01-01 09:18:47.31	36.07	74.42	-57.0	-59.6	14.7	0.00e+00	0	34	0	785383424	80	4812
2026-01-01 09:18:48.44	34.17	74.20	-56.6	-59.1	15.1	0.00e+00	0	34	0	787480576	79	4765
2026-01-01 09:18:49.30	32.76	74.02	-56.7	-59.2	15.0	0.00e+00	0	34	0	789577728	79	4843
2026-01-01 09:18:50.43	30.96	73.78	-56.6	-59.0	15.1	0.00e+00	0	34	0	791674880	79	4716
2026-01-01 09:18:51.29	29.63	73.58	-56.4	-58.7	15.3	0.00e+00	0	34	0	792723456	79	4577
2026-01-01 09:18:52.44	27.90	73.30	-56.0	-58.1	15.6	0.00e+00	0	34	0	794820608	78	4521
2026-01-01 09:18:53.28	26.67	73.09	-55.8	-57.9	15.7	0.00e+00	0	34	0	796917760	78	4411
2026-01-01 09:18:54.42	25.07	72.79	-55.6	-57.7	15.8	0.00e+00	0	34	0	799014912	77	4556
2026-01-01 09:18:55.27	23.90	72.56	-55.6	-57.7	15.8	0.00e+00	0	34	0	800063488	77	4561
2026-01-01 09:18:56.41	22.40	72.24	-55.0	-56.8	16.2	0.00e+00	0	34	0	802160640	76	4380
2026-01-01 09:18:57.27	21.30	72.00	-54.7	-56.5	16.3	0.00e+00	0	34	0	804257792	76	4229
2026-01-01 09:18:58.41	19.89	71.66	-54.4	-56.2	16.4	0.00e+00	0	34	0	806354944	75	4292
2026-01-01 09:18:59.26	18.88	71.41	-54.2	-55.9	16.5	0.00e+00	0	34	0	807403520	74	4404
2026-01-01 09:19:00.40	17.56	71.06	-54.9	-56.7	16.2	0.00e+00	0	34	0	809500672	75	4580
2026-01-01 09:19:01.25	16.62	70.79	-55.6	-57.7	15.8	0.00e+00	0	34	0	811597824	76	4838
2026-01-01 09:19:02.38	15.40	70.43	-55.8	-57.9	15.7	0.00e+00	0	34	0	813694976	76	4939
2026-01-01 09:19:03.23	14.52	70.15	-55.9	-58.0	15.6	0.00e+00	0	34	0	814743552	77	4753
2026-01-01 09:19:04.37	13.37	69.78	-56.7	-59.1	15.1	0.00e+00	0	34	0	817889280	78	5077
2026-01-01 09:19:05.22	12.55	69.50	-56.8	-59.4	14.9	0.00e+00	0	34	0	818937856	78	5233
2026-01-01 09:19:06.36	11.49	69.11	-56.8	-59.2	14.9	0.00e+00	0	34	0	821035008	78	5148
2026-01-01 09:19:07.22	10.71	68.82	-56.7	-59.1	15.0	0.00e+00	0	34	0	823132160	78	5076
2026-01-01 09:19:08.34	9.73	68.43	-56.6	-59.0	15.1	0.00e+00	0	34	0	825229312	78	5006
2026-01-01 09:19:09.18	9.03	68.14	-56.9	-59.4	14.8	0.00e+00	0	34	0	826277888	78	5266
2026-01-01 09:19:10.32	8.10	67.74	-56.8	-59.3	14.9	0.00e+00	0	34	0	828375040	79	4904
2026-01-01 09:19:11.17	7.43	67.44	-56.5	-58.8	15.1	0.00e+00	0	34	0	830472192	79	4644
2026-01-01 09:19:12.30	6.57	67.04	-55.9	-58.0	15.7	0.00e+00	0	34	0	832569344	78	4471
2026-01-01 09:19:13.16	5.94	66.73	-55.4	-57.4	15.9	0.00e+00	0	34	0	833617920	77	4427
2026-01-01 09:19:14.30	5.13	66.32	-55.2	-57.1	16.1	0.00e+00	0	34	0	835715072	76	4504
2026-01-01 09:19:15.16	4.54	66.01	-54.9	-56.8	16.2	0.00e+00	0	34	0	837812224	76	4346
2026-01-01 09:19:16.30	3.78	65.60	-54.1	-55.8	16.5	0.00e+00	0	34	0	839909376	74	4368
2026-01-01 09:19:17.15	3.24	65.29	-53.7	-55.4	16.8	0.00e+00	0	34	0	840957952	74	4146
2026-01-01 09:19:18.28	2.53	64.88	-53.5	-55.1	16.8	0.00e+00	0	34	0	843055104	73	4273
2026-01-01 09:19:19.14	2.02	64.56	-53.4	-55.0	16.9	0.00e+00	0	34	0	845152256	73	4223
2026-01-01 09:19:20.28	1.35	64.15	-53.2	-54.7	16.9	0.00e+00	0	34	0	847249408	72	4323
2026-01-01 09:19:21.13	0.87	63.83	-52.8	-54.3	17.1	0.00e+00	0	33	0	848297984	72	4123
2026-01-01 09:19:22.27	0.25	63.42	-52.2	-53.6	17.3	0.00e+00	0	34	0	851443712	71	4024
2026-01-01 09:19:23.13	359.79	63.10	-51.9	-53.2	17.3	0.00e+00	0	34	0	852492288	70	4089
2026-01-01 09:19:24.26	359.21	62.69	-51.9	-53.2	17.4	0.00e+00	0	34	0	854589440	70	4074
2026-01-01 09:19:25.12	358.78	62.37	-52.1	-53.5	17.3	0.00e+00	0	34	0	856686592	70	4197
2026-01-01 09:19:26.26	358.23	61.95	-52.9	-54.4	17.0	0.00e+00	0	34	0	858783744	71	4404
2026-01-01 09:19:27.11	357.83	61.64	-53.3	-54.8	16.8	0.00e+00	0	34	0	859832320	71	4645
2026-01-01 09:19:28.25	357.31	61.22	-53.8	-55.5	16.6	0.00e+00	0	34	0	861929472	72	4708
2026-01-01 09:19:29.10	356.94	60.91	-54.4	-56.2	16.4	0.00e+00	0	34	0	864026624	73	4815
2026-01-01 09:19:30.24	356.45	60.50	-54.7	-56.6	16.2	0.00e+00	0	34	0	866123776	74	4764
2026-01-01 09:19:31.09	356.09	60.19	-55.2	-57.1	16.0	0.00e+00	0	34	0	867172352	75	4808
2026-01-01 09:19:32.24	355.62	59.77	-56.6	-59.0	15.1	0.00e+00	0	34	0	869269504	78	5037
2026-01-01 09:19:33.08	355.29	59.46	-57.3	-60.1	14.4	0.00e+00	0	34	0	871366656	79	5390
2026-01-01 09:19:34.23	354.85	59.05	-57.9	-61.0	13.8	0.00e+00	0	34	0	873463808	80	5623
2026-01-01 09:19:35.08	354.54	58.74	-57.9	-61.0	13.7	0.00e+00	0	34	0	874512384	81	5316
2026-01-01 09:19:36.22	354.12	58.33	-57.4	-60.3	14.2	0.00e+00	0	34	0	876609536	81	4895
2026-01-01 09:19:37.07	353.82	58.02	-57.1	-59.7	14.6	0.00e+00	0	34	0	878706688	80	4866
2026-01-01 09:19:38.21	353.43	57.62	-57.2	-59.9	14.5	0.00e+00	0	34	0	880803840	80	4931
2026-01-01 09:19:39.06	353.14	57.31	-57.6	-60.6	14.1	0.00e+00	0	34	0	881852416	80	5358
2026-01-01 09:19:40.20	352.77	56.91	-57.6	-60.5	14.1	0.00e+00	0	34	0	884998144	80	5312
2026-01-01 09:19:41.05	352.50	56.61	-57.2	-59.9	14.5	0.00e+00	0	34	0	886046720	80	4971
2026-01-01 09:19:42.18	352.15	56.21	-56.6	-59.1	14.9	0.00e+00	0	34	0	888143872	79	4779
2026-01-01 09:19:43.03	351.90	55.91	-55.9	-58.0	15.6	0.00e+00	0	34	0	890241024	78	4474
2026-01-01 09:19:44.17	351.56	55.51	-55.2	-57.2	16.1	0.00e+00	0	34	0	892338176	77	4294
2026-01-01 09:19:45.02	351.32	55.22	-54.8	-56.7	16.3	0.00e+00	0	34	0	893386752	76	4303
2026-01-01 09:19:46.16	351.00	54.82	-54.1	-55.7	16.6	0.00e+00	0	34	0	895483904	74	4330
2026-01-01 09:19:47.02	350.76	54.53	-53.8	-55.5	16.7	0.00e+00	0	34	0	897581056	74	4200
2026-01-01 09:19:48.15	350.46	54.14	-53.8	-55.5	16.7	0.00e+00	0	34	0	899678208	74	4211
2026-01-01 09:19:49.00	350.24	53.85	-53.8	-55.5	16.7	0.00e+00	0	34	0	900726784	74	4196
2026-01-01 09:19:50.14	349.95	53.46	-53.8	-55.4	16.7	0.00e+00	0	34	0	902823936	74	4169
2026-01-01 09:19:50.99	349.74	53.17	-53.6	-55.2	16.8	0.00e+00	0	34	0	904921088	73	4314
2026-01-01 09:19:52.12	349.46	52.79	-53.4	-55.0	16.8	0.00e+00	0	34	0	907018240	73	4221
2026-01-01 09:19:52.97	349.26	52.51	-53.3	-54.9	16.9	0.00e+00	0	34	0	908066816	73	4151
2026-01-01 09:19:54.11	349.00	52.13	-53.4	-55.0	16.8	0.00e+00	0	34	0	910163968	73	4214
2026-01-01 09:19:54.96	348.81	51.85	-53.6	-55.2	16.8	0.00e+00	0	34	0	912261120	73	4306
2026-01-01 09:19:56.10	348.55	51.47	-54.1	-55.8	16.5	0.00e+00	0	34	0	914358272	73	4646
2026-01-01 09:19:56.96	348.37	51.19	-54.5	-56.3	16.3	0.00e+00	0	34	0	915406848	74	4609
2026-01-01 09:19:58.10	348.12	50.82	-54.7	-56.5	16.3	0.00e+00	0	34	0	918552576	74	4722
2026-01-01 09:19:58.95	347.95	50.54	-55.0	-56.8	16.1	0.00e+00	0	34	0	919601152	75	4651
2026-01-01 09:20:00.09	347.72	50.18	-55.6	-57.7	15.7	0.00e+00	0	34	0	921698304	76	4854
2026-01-01 09:20:00.95	347.55	49.90	-56.0	-58.3	15.4	0.00e+00	0	34	0	923795456	77	4894
2026-01-01 09:20:02.08	347.33	49.54	-56.1	-58.4	15.3	0.00e+00	0	34	0	925892608	77	4967
2026-01-01 09:20:02.94	347.16	49.27	-56.1	-58.3	15.4	0.00e+00	0	34	0	926941184	77	4897
2026-01-01 09:20:04.07	346.95	48.91	-56.2	-58.4	15.4	0.00e+00	0	34	0	929038336	77	4958
2026-01-01 09:20:04.92	346.80	48.65	-56.3	-58.6	15.3	0.00e+00	0	34	0	931135488	77	5080
2026-01-01 09:20:06.06	346.59	48.29	-56.2	-58.5	15.3	0.00e+00	0	34	0	933232640	77	5016
2026-01-01 09:20:06.91	346.44	48.03	-56.2	-58.5	15.3	0.00e+00	0	34	0	934281216	77	5019
2026-01-01 09:20:08.05	346.25	47.68	-56.1	-58.3	15.4	0.00e+00	0	34	0	936378368	77	4913
2026-01-01 09:20:08.90	346.11	47.42	-56.0	-58.1	15.5	0.00e+00	0	34	0	938475520	77	4812
2026-01-01 09:20:10.04	345.92	47.08	-55.7	-57.8	15.6	0.00e+00	0	34	0	940572672	77	4638
2026-01-01 09:20:10.90	345.78	46.82	-55.8	-57.9	15.6	0.00e+00	0	34	0	941621248	77	4681
2026-01-01 09:20:12.03	345.60	46.48	-56.2	-58.5	15.3	0.00e+00	0	34	0	943718400	77	5030
2026-01-01 09:20:12.88	345.47	46.23	-56.5	-58.9	15.1	0.00e+00	0	34	0	945815552	78	4956
2026-01-01 09:20:14.01	345.29	45.89	-56.7	-59.2	14.9	0.00e+00	0	34	0	947912704	78	5124
2026-01-01 09:20:14.86	345.17	45.64	-56.6	-59.1	15.0	0.00e+00	0	34	0	948961280	78	5060
2026-01-01 09:20:16.00	345.00	45.31	-56.6	-59.1	14.9	0.00e+00	0	34	0	952107008	78	5059
2026-01-01 09:20:16.85	344.88	45.06	-56.2	-58.5	15.3	0.00e+00	0	34	0	953155584	78	4746
2026-01-01 09:20:17.99	344.72	44.74	-56.0	-58.2	15.5	0.00e+00	0	34	0	955252736	78	4555
2026-01-01 09:20:18.84	344.60	44.49	-56.0	-58.1	15.5	0.00e+00	0	34	0	957349888	78	4539
2026-01-01 09:20:19.97	344.44	44.17	-56.2	-58.5	15.3	0.00e+00	0	34	0	959447040	78	4739
2026-01-01 09:20:20.83	344.33	43.93	-56.2	-58.5	15.3	0.00e+00	0	34	0	960495616	78	4722
2026-01-01 09:20:21.97	344.18	43.61	-56.4	-58.7	15.1	0.00e+00	0	34	0	962592768	78	4864
2026-01-01 09:20:22.83	344.07	43.37	-56.3	-58.7	15.2	0.00e+00	0	34	0	964689920	78	4819
2026-01-01 09:20:23.96	343.92	43.06	-56.5	-58.9	15.1	0.00e+00	0	34	0	966787072	78	4965
2026-01-01 09:20:24.80	343.82	42.83	-56.5	-58.9	15.1	0.00e+00	0	34	0	967835648	78	4936
2026-01-01 09:20:25.93	343.68	42.52	-56.6	-59.0	14.9	0.00e+00	0	34	0	969932800	78	5035
2026-01-01 09:20:26.78	343.58	42.29	-56.6	-59.2	14.9	0.00e+00	0	34	0	972029952	78	5108
2026-01-01 09:20:27.91	343.44	41.98	-56.8	-59.3	14.8	0.00e+00	0	34	0	974127104	78	5208
2026-01-01 09:20:28.76	343.34	41.76	-56.7	-59.2	14.8	0.00e+00	0	34	0	975175680	78	5147
2026-01-01 09:20:29.90	343.21	41.45	-56.8	-59.3	14.8	0.00e+00	0	34	0	977272832	78	5211
2026-01-01 09:20:30.76	343.12	41.22	-56.6	-59.1	14.9	0.00e+00	0	34	0	979369984	78	5075
2026-01-01 09:20:31.89	342.99	40.93	-56.6	-59.1	14.9	0.00e+00	0	34	0	981467136	78	5070
2026-01-01 09:20:32.74	342.90	40.71	-56.7	-59.3	14.8	0.00e+00	0	34	0	982515712	78	5194
2026-01-01 09:20:33.88	342.78	40.41	-56.9	-59.5	14.6	0.00e+00	0	34	0	985661440	78	5328
2026-01-01 09:20:34.72	342.69	40.20	-56.9	-59.6	14.6	0.00e+00	0	34	0	986710016	79	5046
2026-01-01 09:20:35.86	342.57	39.91	-56.7	-59.2	14.8	0.00e+00	0	34	0	988807168	79	4859
2026-01-01 09:20:36.71	342.48	39.69	-56.8	-59.3	14.8	0.00e+00	0	34	0	990904320	79	4910
2026-01-01 09:20:37.84	342.37	39.40	-56.7	-59.2	14.8	0.00e+00	0	34	0	993001472	79	4838
2026-01-01 09:20:38.69	342.29	39.19	-56.7	-59.2	14.8	0.00e+00	0	34	0	994050048	79	4868
2026-01-01 09:20:39.83	342.17	38.91	-56.5	-58.9	15.0	0.00e+00	0	34	0	996147200	79	4698
2026-01-01 09:20:40.67	342.09	38.70	-56.5	-58.9	15.0	0.00e+00	0	34	0	998244352	79	4703
2026-01-01 09:20:41.81	341.99	38.42	-56.2	-58.5	15.3	0.00e+00	0	34	0	1000341504	78	4723
2026-01-01 09:20:42.66	341.91	38.22	-55.9	-58.1	15.4	0.00e+00	0	34	0	1001390080	78	4542
2026-01-01 09:20:43.80	341.80	37.94	-55.9	-58.1	15.5	0.00e+00	0	34	0	1003487232	78	4514
2026-01-01 09:20:44.65	341.73	37.74	-55.6	-57.7	15.6	0.00e+00	0	34	0	1005584384	77	4586
2026-01-01 09:20:45.78	341.63	37.47	-55.6	-57.6	15.7	0.00e+00	0	34	0	1007681536	77	4533
2026-01-01 09:20:46.64	341.55	37.26	-55.5	-57.5	15.7	0.00e+00	0	34	0	1008730112	77	4479
2026-01-01 09:20:47.77	341.45	37.00	-55.5	-57.6	15.7	0.00e+00	0	34	0	1010827264	77	4511
2026-01-01 09:20:48.63	341.38	36.80	-55.5	-57.5	15.8	0.00e+00	0	34	0	1012924416	77	4483
2026-01-01 09:20:49.76	341.29	36.53	-55.5	-57.6	15.7	0.00e+00	0	34	0	1015021568	77	4498
2026-01-01 09:20:50.61	341.22	36.34	-55.6	-57.7	15.7	0.00e+00	0	34	0	1016070144	77	4551
2026-01-01 09:20:51.75	341.12	36.08	-55.7	-57.9	15.6	0.00e+00	0	34	0	1018167296	77	4679
2026-01-01 09:20:52.60	341.06	35.88	-55.9	-58.1	15.4	0.00e+00	0	34	0	1020264448	77	4795
2026-01-01 09:20:53.73	340.97	35.63	-56.1	-58.4	15.3	0.00e+00	0	34	0	1022361600	77	4963
2026-01-01 09:20:54.58	340.90	35.44	-56.3	-58.7	15.1	0.00e+00	0	34	0	1024458752	77	5142
2026-01-01 09:20:55.71	340.81	35.18	-56.4	-58.9	15.0	0.00e+00	0	34	0	1026555904	78	4941
2026-01-01 09:20:56.57	340.75	34.99	-56.3	-58.8	15.1	0.00e+00	0	34	0	1027604480	78	4875
2026-01-01 09:20:57.70	340.67	34.74	-56.2	-58.6	15.2	0.00e+00	0	34	0	1029701632	78	4795
2026-01-01 09:20:58.55	340.60	34.56	-56.2	-58.6	15.2	0.00e+00	0	34	0	1031798784	78	4780
2026-01-01 09:20:59.68	340.52	34.31	-56.1	-58.4	15.3	0.00e+00	0	34	0	1033895936	78	4689
2026-01-01 09:21:00.53	340.46	34.13	-55.7	-57.9	15.5	0.00e+00	0	34	0	1034944512	78	4416
2026-01-01 09:21:01.66	340.38	33.89	-55.7	-57.8	15.6	0.00e+00	0	34	0	1037041664	78	4369
2026-01-01 09:21:02.51	340.32	33.71	-55.6	-57.8	15.6	0.00e+00	0	34	0	1039138816	77	4610
2026-01-01 09:21:03.65	340.24	33.47	-55.6	-57.8	15.6	0.00e+00	0	34	0	1041235968	77	4615
2026-01-01 09:21:04.49	340.19	33.29	-55.6	-57.7	15.6	0.00e+00	0	34	0	1042284544	77	4596
2026-01-01 09:21:05.63	340.11	33.05	-55.7	-57.9	15.5	0.00e+00	0	34	0	1044381696	77	4659
2026-01-01 09:21:06.48	340.06	32.88	-55.8	-58.0	15.5	0.00e+00	0	34	0	1046478848	77	4731
2026-01-01 09:21:07.62	339.98	32.64	-55.8	-58.0	15.5	0.00e+00	0	34	0	1048576000	77	4743
2026-01-01 09:21:08.47	339.93	32.47	-55.9	-58.2	15.3	0.00e+00	0	34	0	1049624576	77	4848
2026-01-01 09:21:09.60	339.86	32.24	-56.0	-58.3	15.3	0.00e+00	0	34	0	1051721728	77	4881
2026-01-01 09:21:10.45	339.80	32.07	-56.1	-58.4	15.2	0.00e+00	0	34	0	1053818880	77	4935
2026-01-01 09:21:11.59	339.73	31.84	-56.3	-58.7	15.1	0.00e+00	0	34	0	1055916032	77	5104
2026-01-01 09:21:12.44	339.68	31.67	-56.1	-58.4	15.2	0.00e+00	0	34	0	1056964608	77	4980
2026-01-01 09:21:13.58	339.61	31.44	-56.4	-58.8	15.0	0.00e+00	0	34	0	1060110336	77	5179
2026-01-01 09:21:14.43	339.56	31.28	-56.4	-58.8	15.0	0.00e+00	0	34	0	1061158912	77	5216
2026-01-01 09:21:15.57	339.50	31.05	-56.5	-59.0	14.9	0.00e+00	0	34	0	1063256064	78	5028
2026-01-01 09:21:16.41	339.45	30.89	-56.6	-59.1	14.8	0.00e+00	0	34	0	1065353216	78	5088
2026-01-01 09:21:17.55	339.38	30.67	-56.5	-59.1	14.9	0.00e+00	0	34	0	1067450368	78	5047
2026-01-01 09:21:18.41	339.33	30.51	-56.6	-59.1	14.8	0.00e+00	0	34	0	1068498944	78	5070
2026-01-01 09:21:19.55	339.27	30.29	-56.5	-59.1	14.8	0.00e+00	0	34	0	1070596096	78	5058
2026-01-01 09:21:20.40	339.22	30.13	-56.6	-59.2	14.8	0.00e+00	0	34	0	1072693248	78	5118
2026-01-01 09:21:21.54	339.16	29.91	-56.5	-59.1	14.8	0.00e+00	0	34	0	1074790400	78	5074
2026-01-01 09:21:22.39	339.12	29.75	-56.6	-59.2	14.8	0.00e+00	0	34	0	1075838976	78	5111
2026-01-01 09:21:23.53	339.06	29.54	-56.6	-59.2	14.7	0.00e+00	0	34	0	1077936128	78	5153
2026-01-01 09:21:24.38	339.01	29.39	-56.5	-59.0	14.9	0.00e+00	0	34	0	1080033280	78	5025
2026-01-01 09:21:25.51	338.95	29.18	-56.4	-58.9	14.9	0.00e+00	0	34	0	1082130432	78	4950
2026-01-01 09:21:26.36	338.91	29.02	-56.2	-58.6	15.1	0.00e+00	0	34	0	1083179008	78	4786
2026-01-01 09:21:27.49	338.85	28.82	-56.0	-58.3	15.3	0.00e+00	0	34	0	1085276160	78	4650
2026-01-01 09:21:28.35	338.81	28.66	-55.9	-58.2	15.3	0.00e+00	0	34	0	1087373312	78	4584
2026-01-01 09:21:29.48	338.75	28.46	-56.0	-58.2	15.3	0.00e+00	0	34	0	1089470464	78	4595
2026-01-01 09:21:30.33	338.71	28.31	-55.8	-58.1	15.4	0.00e+00	0	34	0	1090519040	78	4520
2026-01-01 09:21:31.47	338.66	28.11	-55.7	-57.9	15.5	0.00e+00	0	34	0	1093664768	78	4424
2026-01-01 09:21:32.32	338.62	27.96	-55.6	-57.8	15.5	0.00e+00	0	34	0	1094713344	77	4613
2026-01-01 09:21:33.46	338.56	27.76	-55.6	-57.8	15.5	0.00e+00	0	34	0	1096810496	77	4607
2026-01-01 09:21:34.31	338.53	27.62	-55.5	-57.7	15.6	0.00e+00	0	34	0	1098907648	77	4566
2026-01-01 09:21:35.45	338.47	27.42	-55.5	-57.6	15.6	0.00e+00	0	34	0	1101004800	77	4538
2026-01-01 09:21:36.30	338.43	27.27	-55.5	-57.7	15.6	0.00e+00	0	34	0	1102053376	77	4557
2026-01-01 09:21:37.43	338.38	27.08	-55.5	-57.7	15.6	0.00e+00	0	34	0	1104150528	77	4557
2026-01-01 09:21:38.29	338.35	26.94	-55.5	-57.6	15.7	0.00e+00	0	34	0	1106247680	77	4522
2026-01-01 09:21:39.43	338.30	26.74	-55.4	-57.5	15.7	0.00e+00	0	34	0	1108344832	77	4492
2026-01-01 09:21:40.29	338.26	26.60	-55.5	-57.6	15.6	0.00e+00	0	34	0	1109393408	77	4516
2026-01-01 09:21:41.43	338.21	26.41	-55.4	-57.5	15.7	0.00e+00	0	34	0	1111490560	77	4460
2026-01-01 09:21:42.27	338.17	26.27	-55.3	-57.4	15.7	0.00e+00	0	34	0	1113587712	77	4410
2026-01-01 09:21:43.41	338.13	26.09	-55.4	-57.5	15.6	0.00e+00	0	34	0	1115684864	77	4473
2026-01-01 09:21:44.27	338.09	25.95	-55.4	-57.5	15.6	0.00e+00	0	34	0	1116733440	77	4479
2026-01-01 09:21:45.41	338.04	25.76	-55.1	-57.1	15.8	0.00e+00	0	34	0	1118830592	76	4544
2026-01-01 09:21:46.26	338.01	25.62	-55.0	-57.0	15.9	0.00e+00	0	34	0	1120927744	76	4491
2026-01-01 09:21:47.39	337.97	25.44	-55.0	-57.0	15.9	0.00e+00	0	34	0	1123024896	76	4450
2026-01-01 09:21:48.24	337.93	25.31	-54.9	-56.8	15.9	0.00e+00	0	34	0	1124073472	76	4391
2026-01-01 09:21:49.38	337.89	25.13	-54.8	-56.7	16.0	0.00e+00	0	34	0	1127219200	76	4325
2026-01-01 09:21:50.24	337.85	24.99	-54.8	-56.8	16.0	0.00e+00	0	34	0	1128267776	76	4346
2026-01-01 09:21:51.37	337.81	24.81	-54.8	-56.7	16.0	0.00e+00	0	34	0	1130364928	76	4319
2026-01-01 09:21:52.22	337.78	24.68	-54.8	-56.7	16.0	0.00e+00	0	34	0	1132462080	76	4311
2026-01-01 09:21:53.36	337.74	24.51	-54.6	-56.6	16.0	0.00e+00	0	34	0	1134559232	75	4499
2026-01-01 09:21:54.21	337.70	24.38	-54.6	-56.6	16.0	0.00e+00	0	34	0	1135607808	75	4494
2026-01-01 09:21:55.35	337.66	24.20	-54.8	-56.7	16.0	0.00e+00	0	34	0	1137704960	75	4582
2026-01-01 09:21:56.21	337.63	24.07	-54.7	-56.6	16.0	0.00e+00	0	34	0	1139802112	75	4525
2026-01-01 09:21:57.35	337.59	23.90	-54.7	-56.7	16.0	0.00e+00	0	34	0	1141899264	75	4567
2026-01-01 09:21:58.20	337.56	23.77	-54.8	-56.7	16.0	0.00e+00	0	34	0	1142947840	75	4596
2026-01-01 09:21:59.33	337.52	23.60	-54.6	-56.6	16.0	0.00e+00	0	34	0	1145044992	75	4509
2026-01-01 09:22:00.18	337.49	23.47	-54.8	-56.7	16.0	0.00e+00	0	34	0	1147142144	75	4596
2026-01-01 09:22:01.32	337.45	23.31	-54.8	-56.8	16.0	0.00e+00	0	34	0	1149239296	75	4622
2026-01-01 09:22:02.17	337.42	23.18	-54.9	-56.9	15.9	0.00e+00	0	34	0	1150287872	75	4658
2026-01-01 09:22:03.31	337.38	23.01	-54.8	-56.8	15.9	0.00e+00	0	34	0	1152385024	75	4632
2026-01-01 09:22:04.16	337.36	22.89	-54.8	-56.8	15.9	0.00e+00	0	34	0	1154482176	75	4634
2026-01-01 09:22:05.30	337.32	22.73	-54.9	-56.9	15.9	0.00e+00	0	34	0	1156579328	75	4675
2026-01-01 09:22:06.16	337.29	22.60	-54.9	-56.9	15.9	0.00e+00	0	34	0	1158676480	75	4671
2026-01-01 09:22:07.29	337.25	22.44	-54.9	-56.9	15.7	0.00e+00	0	34	0	1160773632	75	4693
2026-01-01 09:22:08.14	337.23	22.32	-54.9	-56.9	15.8	0.00e+00	0	34	0	1161822208	75	4704
2026-01-01 09:22:09.28	337.19	22.16	-54.7	-56.7	15.9	0.00e+00	0	34	0	1163919360	75	4581
2026-01-01 09:22:10.13	337.16	22.04	-54.8	-56.8	15.9	0.00e+00	0	34	0	1166016512	75	4634
2026-01-01 09:22:11.27	337.13	21.88	-54.7	-56.7	15.9	0.00e+00	0	34	0	1168113664	75	4561
2026-01-01 09:22:12.12	337.10	21.76	-54.6	-56.6	16.0	0.00e+00	0	34	0	1169162240	75	4519
2026-01-01 09:22:13.26	337.07	21.60	-54.6	-56.6	16.0	0.00e+00	0	34	0	1171259392	75	4529
2026-01-01 09:22:14.11	337.04	21.49	-54.7	-56.6	16.0	0.00e+00	0	34	0	1173356544	75	4530
2026-01-01 09:22:15.24	337.01	21.33	-54.7	-56.6	16.0	0.00e+00	0	34	0	1175453696	75	4542
2026-01-01 09:22:16.10	336.98	21.21	-54.7	-56.7	15.9	0.00e+00	0	34	0	1176502272	75	4577
2026-01-01 09:22:17.24	336.95	21.06	-54.7	-56.7	15.9	0.00e+00	0	34	0	1178599424	75	4575
2026-01-01 09:22:18.09	336.93	20.95	-54.8	-56.8	15.9	0.00e+00	0	34	0	1180696576	75	4639
2026-01-01 09:22:19.23	336.89	20.79	-54.9	-57.0	15.8	0.00e+00	0	34	0	1182793728	75	4714
2026-01-01 09:22:20.07	336.87	20.68	-55.0	-57.1	15.7	0.00e+00	0	34	0	1183842304	75	4771
2026-01-01 09:22:21.21	336.84	20.53	-54.9	-56.9	15.8	0.00e+00	0	34	0	1185939456	75	4704
2026-01-01 09:22:22.06	336.81	20.42	-55.0	-57.1	15.7	0.00e+00	0	34	0	1188036608	75	4805
2026-01-01 09:22:23.19	336.78	20.27	-55.1	-57.2	15.7	0.00e+00	0	34	0	1190133760	75	4815
2026-01-01 09:22:24.03	336.76	20.16	-55.0	-57.1	15.7	0.00e+00	0	34	0	1192230912	75	4810
2026-01-01 09:22:25.17	336.73	20.01	-55.1	-57.3	15.6	0.00e+00	0	34	0	1194328064	75	4879
2026-01-01 09:22:26.03	336.71	19.90	-55.2	-57.3	15.6	0.00e+00	0	34	0	1195376640	75	4905
2026-01-01 09:22:27.16	336.68	19.75	-55.2	-57.3	15.6	0.00e+00	0	34	0	1197473792	75	4898
2026-01-01 09:22:28.02	336.65	19.64	-55.2	-57.3	15.5	0.00e+00	0	34	0	1199570944	75	4912
2026-01-01 09:22:29.16	336.62	19.50	-55.2	-57.3	15.6	0.00e+00	0	34	0	1201668096	75	4899
2026-01-01 09:22:30.00	336.60	19.39	-55.2	-57.3	15.5	0.00e+00	0	34	0	1202716672	75	4915
2026-01-01 09:22:31.14	336.57	19.25	-55.2	-57.3	15.6	0.00e+00	0	34	0	1204813824	75	4899
2026-01-01 09:22:31.99	336.55	19.14	-55.2	-57.3	15.5	0.00e+00	0	34	0	1206910976	75	4926
2026-01-01 09:22:33.13	336.52	19.00	-55.1	-57.2	15.6	0.00e+00	0	34	0	1209008128	75	4866
2026-01-01 09:22:33.98	336.50	18.89	-55.1	-57.2	15.6	0.00e+00	0	34	0	1210056704	75	4870
2026-01-01 09:22:35.11	336.47	18.75	-55.1	-57.3	15.6	0.00e+00	0	34	0	1212153856	75	4888
2026-01-01 09:22:35.96	336.45	18.65	-55.2	-57.3	15.6	0.00e+00	0	34	0	1214251008	75	4911
2026-01-01 09:22:37.10	336.43	18.51	-55.2	-57.4	15.5	0.00e+00	0	34	0	1216348160	75	4942
2026-01-01 09:22:37.95	336.41	18.41	-55.2	-57.3	15.6	0.00e+00	0	34	0	1217396736	75	4907
2026-01-01 09:22:39.09	336.38	18.27	-55.3	-57.4	15.5	0.00e+00	0	34	0	1219493888	75	4980
2026-01-01 09:22:39.95	336.36	18.17	-55.3	-57.6	15.5	0.00e+00	0	34	0	1221591040	75	5043
2026-01-01 09:22:41.10	336.33	18.03	-55.3	-57.5	15.5	0.00e+00	0	34	0	1223688192	75	5016
2026-01-01 09:22:41.95	336.31	17.93	-55.3	-57.6	15.4	0.00e+00	0	34	0	1225785344	75	5057
2026-01-01 09:22:43.08	336.29	17.79	-55.4	-57.7	15.4	0.00e+00	0	34	0	1227882496	76	4835
2026-01-01 09:22:43.93	336.27	17.69	-55.5	-57.8	15.4	0.00e+00	0	34	0	1228931072	76	4892
2026-01-01 09:22:45.06	336.24	17.56	-55.7	-58.0	15.3	0.00e+00	0	34	0	1231028224	76	4996
2026-01-01 09:22:45.90	336.22	17.46	-55.7	-58.0	15.2	0.00e+00	0	34	0	1233125376	76	5008
