passes_logs/2026/01/01/R3.2S_Murmansk/R3.2S_Murmansk__20260101_064224_NOAA_21_JPSS-2_rec.log

#Pass ID: 20260101_064224_NOAA 21 (JPSS-2)
#Satellite: NOAA 21 (JPSS-2)
#Configuration: NOAA-21
#almurnet v.1.7.20251203
#Start time: 2026-01-01 06:42:26

#Version: 2.2.20231116
#Station: R3.2S_Murmansk
#Location: 33.079688 lon 68.888172 lat
#TLE: 1 54234U 22150A   25365.56321383  .00000202  00000+0  11656-3 0  9995
#TLE: 2 54234  98.7483 301.6387 0001318 355.6519   4.4646 14.19530385162769

#Time	Az	El	Level	Level2	SNR	BER	BlckErr	Temp	State	Recorded	gain1	gain2
2026-01-01 06:42:26.76	89.01	2.13	-59.8	-73.6	3.8	1.49e+00	0	33	0	0	86	16909
2026-01-01 06:42:27.76	88.96	2.19	-59.8	-73.5	3.8	1.49e+00	0	33	104	0	84	18922
2026-01-01 06:42:28.75	88.90	2.25	-59.8	-73.5	3.8	1.49e+00	0	33	104	0	84	18924
2026-01-01 06:42:29.75	88.85	2.31	-59.8	-73.5	3.8	1.49e+00	0	33	104	0	84	18882
2026-01-01 06:42:30.75	88.79	2.37	-59.8	-73.5	3.8	1.49e+00	0	33	104	0	84	18910
2026-01-01 06:42:31.75	88.74	2.43	-59.8	-73.5	3.8	1.49e+00	0	33	104	0	84	18894
2026-01-01 06:42:32.75	88.68	2.49	-59.8	-73.5	3.8	1.49e+00	0	33	104	0	84	18933
2026-01-01 06:42:33.73	88.62	2.55	-59.8	-73.6	3.8	1.49e+00	0	33	104	0	84	18956
2026-01-01 06:42:34.73	88.57	2.61	-59.8	-73.6	3.8	1.49e+00	0	33	104	0	84	18958
2026-01-01 06:42:35.73	88.51	2.67	-59.8	-73.5	3.8	1.49e+00	0	33	104	0	84	18928
2026-01-01 06:42:36.73	88.45	2.73	-59.8	-73.5	3.8	1.49e+00	0	33	104	0	84	18943
2026-01-01 06:42:37.73	88.40	2.79	-59.8	-73.6	3.8	1.49e+00	0	33	104	0	84	19011
2026-01-01 06:42:38.73	88.34	2.85	-59.8	-73.6	3.8	1.49e+00	0	33	104	0	84	18959
2026-01-01 06:42:39.73	88.28	2.91	-59.8	-73.6	3.8	1.49e+00	0	33	104	0	84	18997
2026-01-01 06:42:40.72	88.22	2.97	-59.8	-73.6	3.8	1.49e+00	0	33	104	0	84	19001
2026-01-01 06:42:41.72	88.16	3.03	-59.8	-73.5	3.8	1.49e+00	0	33	104	0	84	18936
2026-01-01 06:42:42.72	88.11	3.09	-59.8	-73.5	3.8	1.49e+00	0	33	104	0	84	18847
2026-01-01 06:42:43.72	88.05	3.15	-59.8	-73.5	3.8	1.49e+00	0	33	104	0	84	18828
2026-01-01 06:42:44.72	87.99	3.21	-59.8	-73.5	3.8	1.49e+00	0	34	104	0	84	18746
2026-01-01 06:42:45.71	87.93	3.27	-59.8	-73.5	3.8	1.49e+00	0	34	104	0	84	18760
2026-01-01 06:42:46.72	87.87	3.33	-59.8	-73.5	3.8	1.49e+00	0	33	104	0	84	18781
2026-01-01 06:42:47.72	87.81	3.39	-59.8	-73.5	3.8	1.49e+00	0	34	104	0	84	18878
2026-01-01 06:42:48.72	87.75	3.45	-59.8	-73.6	3.8	1.49e+00	0	34	104	0	84	19023
2026-01-01 06:42:49.71	87.69	3.51	-59.8	-73.6	3.8	1.49e+00	0	34	104	0	84	19014
2026-01-01 06:42:50.71	87.63	3.58	-59.8	-73.6	3.8	1.49e+00	0	34	104	0	84	18978
2026-01-01 06:42:51.71	87.57	3.64	-59.8	-73.5	3.8	1.49e+00	0	34	104	0	84	18795
2026-01-01 06:42:52.71	87.51	3.70	-59.8	-73.5	3.8	1.49e+00	0	34	104	0	84	18839
2026-01-01 06:42:53.71	87.44	3.76	-59.8	-73.5	3.8	1.49e+00	0	34	104	0	84	18763
2026-01-01 06:42:54.72	87.38	3.82	-59.8	-73.5	3.8	1.49e+00	0	34	104	0	84	18862
2026-01-01 06:42:55.72	87.32	3.88	-59.8	-73.6	3.8	1.49e+00	0	34	104	0	84	18978
2026-01-01 06:42:56.72	87.26	3.95	-59.8	-73.6	3.8	1.49e+00	0	34	104	0	84	19044
2026-01-01 06:42:57.71	87.20	4.01	-59.8	-73.5	3.8	1.49e+00	0	34	104	0	84	18858
2026-01-01 06:42:58.71	87.13	4.07	-59.8	-73.3	3.8	1.49e+00	0	34	104	0	84	18414
2026-01-01 06:42:59.71	87.07	4.13	-59.8	-73.0	3.8	1.49e+00	0	34	104	0	84	17701
2026-01-01 06:43:00.71	87.01	4.20	-59.8	-72.4	3.8	1.49e+00	0	34	104	0	84	16609
2026-01-01 06:43:01.71	86.94	4.26	-59.7	-71.8	3.9	1.49e+00	0	34	104	0	84	15516
2026-01-01 06:43:02.71	86.88	4.32	-59.6	-71.3	3.9	1.49e+00	0	34	104	0	84	14604
2026-01-01 06:43:03.71	86.81	4.38	-59.6	-70.0	4.2	1.47e+00	0	34	104	0	84	12572
2026-01-01 06:43:04.71	86.75	4.45	-59.5	-70.0	3.9	1.44e+00	0	34	104	0	84	12559
2026-01-01 06:43:05.71	86.68	4.51	-59.4	-68.2	4.9	1.18e+00	0	34	104	0	84	10287
2026-01-01 06:43:06.72	86.62	4.57	-59.2	-67.1	5.5	5.13e-01	0	34	0	2097152	84	8975
2026-01-01 06:43:07.72	86.55	4.64	-58.9	-65.8	6.4	2.53e-01	0	34	0	5242880	84	7766
2026-01-01 06:43:08.72	86.49	4.70	-58.4	-64.4	7.5	1.14e-01	0	34	0	8388608	83	6974
2026-01-01 06:43:09.72	86.42	4.76	-58.0	-63.2	8.6	3.44e-02	0	34	0	11534336	82	6445
2026-01-01 06:43:10.72	86.35	4.83	-57.6	-62.0	9.6	9.65e-03	0	34	0	14680064	81	5984
2026-01-01 06:43:11.72	86.29	4.89	-57.3	-61.4	10.2	2.80e-03	0	34	0	17825792	81	5570
2026-01-01 06:43:12.71	86.22	4.95	-57.0	-60.8	10.8	8.93e-04	0	34	0	20971520	80	5477
2026-01-01 06:43:13.72	86.15	5.02	-56.7	-60.3	11.2	4.00e-04	0	34	0	24117248	80	5190
2026-01-01 06:43:14.72	86.09	5.08	-57.1	-60.9	10.7	5.07e-04	0	34	0	27262976	80	5553
2026-01-01 06:43:15.72	86.02	5.15	-58.1	-63.1	8.8	3.56e-03	0	34	0	30408704	81	6770
2026-01-01 06:43:16.72	85.95	5.21	-57.3	-61.3	10.5	3.07e-04	0	34	0	33554432	79	6171
2026-01-01 06:43:17.72	85.88	5.28	-54.1	-56.1	14.6	7.00e-07	0	34	0	36700160	74	4495
2026-01-01 06:43:18.71	85.81	5.34	-58.3	-64.0	8.0	2.20e-06	0	34	0	39845888	81	7538
2026-01-01 06:43:19.70	85.74	5.40	-55.4	-57.9	13.3	3.94e-02	0	34	0	42991616	77	4684
2026-01-01 06:43:20.69	85.67	5.47	-54.2	-56.2	14.6	0.00e+00	0	34	0	46137344	74	4561
2026-01-01 06:43:21.69	85.60	5.53	-54.3	-56.4	14.5	0.00e+00	0	34	0	49283072	74	4694
2026-01-01 06:43:22.69	85.53	5.60	-54.1	-56.1	14.7	0.00e+00	0	34	0	52428800	74	4502
2026-01-01 06:43:23.69	85.46	5.66	-53.6	-55.5	15.1	0.00e+00	0	34	0	55574528	73	4448
2026-01-01 06:43:24.69	85.39	5.73	-53.3	-55.1	15.3	0.00e+00	0	34	0	58720256	73	4250
2026-01-01 06:43:25.68	85.32	5.79	-53.2	-54.9	15.4	0.00e+00	0	34	0	61865984	72	4409
2026-01-01 06:43:26.68	85.25	5.86	-53.1	-54.8	15.5	0.00e+00	0	34	0	65011712	72	4352
2026-01-01 06:43:27.68	85.18	5.92	-53.1	-54.8	15.5	0.00e+00	0	34	0	68157440	72	4379
2026-01-01 06:43:28.67	85.11	5.99	-53.0	-54.7	15.5	0.00e+00	0	34	0	71303168	72	4338
2026-01-01 06:43:29.66	85.04	6.05	-53.0	-54.7	15.6	0.00e+00	0	34	0	74448896	72	4319
2026-01-01 06:43:30.66	84.96	6.12	-53.1	-54.8	15.5	0.00e+00	0	34	0	77594624	72	4356
2026-01-01 06:43:31.64	84.89	6.18	-53.0	-54.7	15.6	0.00e+00	0	34	0	79691776	72	4300
2026-01-01 06:43:32.64	84.82	6.25	-52.9	-54.6	15.6	0.00e+00	0	34	0	82837504	72	4277
2026-01-01 06:43:33.64	84.74	6.32	-53.0	-54.7	15.6	0.00e+00	0	34	0	85983232	72	4328
2026-01-01 06:43:34.64	84.67	6.38	-52.8	-54.5	15.8	0.00e+00	0	34	0	89128960	72	4197
2026-01-01 06:43:35.64	84.60	6.45	-52.8	-54.5	15.7	0.00e+00	0	34	0	92274688	72	4209
2026-01-01 06:43:36.64	84.52	6.52	-52.9	-54.6	15.7	0.00e+00	0	34	0	95420416	72	4260
2026-01-01 06:43:37.63	84.45	6.58	-53.0	-54.6	15.7	0.00e+00	0	34	0	98566144	72	4286
2026-01-01 06:43:38.63	84.37	6.65	-52.8	-54.5	15.8	0.00e+00	0	35	0	101711872	72	4194
2026-01-01 06:43:39.63	84.29	6.72	-52.7	-54.4	15.8	0.00e+00	0	34	0	104857600	72	4150
2026-01-01 06:43:40.62	84.22	6.78	-52.8	-54.4	15.8	0.00e+00	0	34	0	108003328	72	4188
2026-01-01 06:43:41.62	84.14	6.85	-52.9	-54.5	15.7	0.00e+00	0	34	0	111149056	72	4232
2026-01-01 06:43:42.62	84.06	6.92	-52.8	-54.5	15.7	0.00e+00	0	34	0	114294784	72	4204
2026-01-01 06:43:43.62	83.99	6.99	-52.9	-54.6	15.7	0.00e+00	0	34	0	117440512	72	4272
2026-01-01 06:43:44.61	83.91	7.05	-52.9	-54.6	15.7	0.00e+00	0	34	0	120586240	72	4268
2026-01-01 06:43:45.61	83.83	7.12	-53.0	-54.6	15.7	0.00e+00	0	34	0	123731968	72	4277
2026-01-01 06:43:46.60	83.75	7.19	-53.1	-54.8	15.6	0.00e+00	0	35	0	126877696	72	4367
2026-01-01 06:43:47.61	83.67	7.26	-53.0	-54.6	15.7	0.00e+00	0	34	0	130023424	72	4290
2026-01-01 06:43:48.61	83.59	7.32	-52.7	-54.4	15.9	0.00e+00	0	34	0	133169152	72	4148
2026-01-01 06:43:49.61	83.51	7.39	-52.9	-54.5	15.8	0.00e+00	0	34	0	136314880	72	4238
2026-01-01 06:43:50.60	83.44	7.46	-52.9	-54.5	15.8	0.00e+00	0	35	0	139460608	72	4232
2026-01-01 06:43:51.60	83.35	7.53	-52.9	-54.6	15.8	0.00e+00	0	35	0	142606336	72	4265
2026-01-01 06:43:52.60	83.27	7.60	-52.7	-54.3	15.9	0.00e+00	0	35	0	145752064	72	4138
2026-01-01 06:43:53.60	83.19	7.67	-52.6	-54.2	16.0	0.00e+00	0	35	0	148897792	71	4297
2026-01-01 06:43:54.60	83.11	7.74	-52.7	-54.3	15.9	0.00e+00	0	35	0	152043520	71	4353
2026-01-01 06:43:55.60	83.03	7.80	-52.7	-54.3	15.9	0.00e+00	0	34	0	155189248	71	4354
2026-01-01 06:43:56.59	82.95	7.87	-52.6	-54.2	16.0	0.00e+00	0	35	0	158334976	71	4303
2026-01-01 06:43:57.58	82.86	7.94	-52.7	-54.3	16.0	0.00e+00	0	34	0	161480704	71	4358
2026-01-01 06:43:58.58	82.78	8.01	-52.6	-54.2	16.0	0.00e+00	0	34	0	164626432	71	4314
2026-01-01 06:43:59.58	82.70	8.08	-52.5	-54.0	16.1	0.00e+00	0	34	0	167772160	71	4227
2026-01-01 06:44:00.57	82.61	8.15	-52.4	-53.9	16.1	0.00e+00	0	35	0	170917888	71	4183
2026-01-01 06:44:01.57	82.53	8.22	-52.5	-54.0	16.1	0.00e+00	0	35	0	174063616	71	4240
2026-01-01 06:44:02.57	82.44	8.29	-52.5	-54.0	16.1	0.00e+00	0	35	0	177209344	71	4229
2026-01-01 06:44:03.57	82.36	8.36	-52.5	-54.0	16.1	0.00e+00	0	35	0	180355072	71	4229
2026-01-01 06:44:04.57	82.27	8.43	-52.4	-54.0	16.1	0.00e+00	0	34	0	183500800	71	4206
2026-01-01 06:44:05.57	82.19	8.50	-52.5	-54.0	16.1	0.00e+00	0	35	0	186646528	71	4229
2026-01-01 06:44:06.58	82.10	8.57	-52.4	-53.9	16.2	0.00e+00	0	35	0	189792256	71	4174
2026-01-01 06:44:07.57	82.01	8.64	-52.4	-53.9	16.2	0.00e+00	0	35	0	192937984	71	4162
2026-01-01 06:44:08.57	81.93	8.71	-52.4	-53.9	16.2	0.00e+00	0	34	0	195035136	71	4172
2026-01-01 06:44:09.58	81.84	8.78	-52.5	-54.0	16.2	0.00e+00	0	35	0	198180864	71	4213
2026-01-01 06:44:10.58	81.75	8.86	-52.4	-53.9	16.2	0.00e+00	0	35	0	201326592	71	4174
2026-01-01 06:44:11.57	81.66	8.93	-52.4	-53.9	16.2	0.00e+00	0	35	0	204472320	71	4191
2026-01-01 06:44:12.57	81.57	9.00	-52.3	-53.8	16.3	0.00e+00	0	35	0	207618048	71	4104
2026-01-01 06:44:13.57	81.48	9.07	-52.3	-53.8	16.2	0.00e+00	0	35	0	210763776	71	4110
2026-01-01 06:44:14.57	81.39	9.14	-52.2	-53.7	16.3	0.00e+00	0	35	0	213909504	71	4083
2026-01-01 06:44:15.56	81.30	9.21	-52.2	-53.7	16.3	0.00e+00	0	35	0	217055232	70	4309
2026-01-01 06:44:16.55	81.21	9.28	-52.2	-53.7	16.3	0.00e+00	0	35	0	220200960	70	4324
2026-01-01 06:44:17.55	81.12	9.35	-52.3	-53.8	16.3	0.00e+00	0	35	0	223346688	70	4352
2026-01-01 06:44:18.55	81.03	9.43	-52.3	-53.8	16.3	0.00e+00	0	35	0	226492416	70	4375
2026-01-01 06:44:19.55	80.93	9.50	-52.1	-53.6	16.4	0.00e+00	0	35	0	229638144	70	4259
2026-01-01 06:44:20.55	80.84	9.57	-52.2	-53.6	16.4	0.00e+00	0	35	0	232783872	70	4279
2026-01-01 06:44:21.55	80.75	9.64	-52.2	-53.6	16.3	0.00e+00	0	35	0	235929600	70	4282
2026-01-01 06:44:22.55	80.65	9.72	-52.0	-53.5	16.4	0.00e+00	0	35	0	239075328	70	4212
2026-01-01 06:44:23.54	80.56	9.79	-52.1	-53.6	16.3	0.00e+00	0	35	0	242221056	70	4249
2026-01-01 06:44:24.54	80.46	9.86	-52.1	-53.5	16.4	0.00e+00	0	35	0	245366784	70	4223
2026-01-01 06:44:25.54	80.37	9.93	-52.0	-53.4	16.5	0.00e+00	0	35	0	248512512	70	4163
2026-01-01 06:44:26.54	80.27	10.01	-52.0	-53.4	16.4	0.00e+00	0	35	0	251658240	70	4176
2026-01-01 06:44:27.53	80.18	10.08	-52.0	-53.4	16.5	0.00e+00	0	35	0	254803968	70	4177
2026-01-01 06:44:28.52	80.08	10.15	-51.8	-53.2	16.6	0.00e+00	0	35	0	257949696	70	4074
2026-01-01 06:44:29.52	79.98	10.23	-51.8	-53.3	16.5	0.00e+00	0	35	0	261095424	70	4102
2026-01-01 06:44:30.51	79.89	10.30	-51.7	-53.1	16.6	0.00e+00	0	35	0	264241152	70	4025
2026-01-01 06:44:31.52	79.79	10.37	-51.7	-53.1	16.6	0.00e+00	0	35	0	267386880	70	4045
2026-01-01 06:44:32.52	79.69	10.45	-51.8	-53.2	16.6	0.00e+00	0	35	0	270532608	70	4078
2026-01-01 06:44:33.52	79.59	10.52	-51.7	-53.2	16.6	0.00e+00	0	35	0	273678336	70	4055
2026-01-01 06:44:34.51	79.49	10.60	-51.7	-53.1	16.6	0.00e+00	0	35	0	276824064	69	4254
2026-01-01 06:44:35.51	79.39	10.67	-51.7	-53.1	16.6	0.00e+00	0	35	0	279969792	69	4258
2026-01-01 06:44:36.51	79.29	10.75	-51.7	-53.1	16.7	0.00e+00	0	35	0	283115520	69	4252
2026-01-01 06:44:37.51	79.19	10.82	-51.6	-53.0	16.7	0.00e+00	0	35	0	286261248	69	4237
2026-01-01 06:44:38.51	79.08	10.90	-51.6	-53.0	16.7	0.00e+00	0	35	0	289406976	69	4232
2026-01-01 06:44:39.50	78.98	10.97	-51.5	-52.9	16.7	0.00e+00	0	35	0	292552704	69	4147
2026-01-01 06:44:40.50	78.88	11.04	-51.5	-52.8	16.8	0.00e+00	0	35	0	295698432	69	4135
2026-01-01 06:44:41.50	78.77	11.12	-51.4	-52.8	16.8	0.00e+00	0	35	0	298844160	69	4121
2026-01-01 06:44:42.51	78.67	11.20	-51.4	-52.7	16.8	0.00e+00	0	35	0	301989888	69	4092
2026-01-01 06:44:43.51	78.56	11.27	-51.3	-52.7	16.9	0.00e+00	0	35	0	304087040	69	4052
2026-01-01 06:44:44.50	78.46	11.35	-51.5	-52.8	16.8	0.00e+00	0	35	0	307232768	69	4121
2026-01-01 06:44:45.50	78.35	11.42	-51.3	-52.6	16.9	0.00e+00	0	35	0	310378496	69	4017
2026-01-01 06:44:46.50	78.25	11.50	-51.3	-52.6	16.9	0.00e+00	0	35	0	313524224	69	4028
2026-01-01 06:44:47.50	78.14	11.57	-51.1	-52.4	17.0	0.00e+00	0	35	0	316669952	68	4172
2026-01-01 06:44:48.50	78.03	11.65	-51.1	-52.4	17.0	0.00e+00	0	35	0	319815680	68	4153
2026-01-01 06:44:49.51	77.92	11.73	-51.0	-52.3	17.0	0.00e+00	0	35	0	324009984	68	4138
2026-01-01 06:44:50.51	77.81	11.80	-51.1	-52.3	17.0	0.00e+00	0	35	0	327155712	68	4145
2026-01-01 06:44:51.52	77.70	11.88	-51.0	-52.3	17.0	0.00e+00	0	35	0	329252864	68	4136
2026-01-01 06:44:52.52	77.59	11.96	-51.1	-52.4	17.0	0.00e+00	0	35	0	332398592	68	4156
2026-01-01 06:44:53.52	77.48	12.04	-51.3	-52.6	16.9	0.00e+00	0	35	0	335544320	68	4264
2026-01-01 06:44:54.52	77.37	12.11	-51.1	-52.4	17.0	0.00e+00	0	35	0	338690048	68	4163
2026-01-01 06:44:55.50	77.26	12.19	-51.0	-52.3	17.0	0.00e+00	0	35	0	341835776	68	4143
2026-01-01 06:44:56.50	77.15	12.27	-51.1	-52.4	17.0	0.00e+00	0	35	0	344981504	68	4165
2026-01-01 06:44:57.50	77.04	12.34	-50.9	-52.2	17.1	0.00e+00	0	35	0	348127232	68	4069
2026-01-01 06:44:58.49	76.92	12.42	-51.0	-52.3	17.1	0.00e+00	0	35	0	351272960	68	4104
2026-01-01 06:44:59.50	76.81	12.50	-51.0	-52.3	17.1	0.00e+00	0	35	0	354418688	68	4138
2026-01-01 06:45:00.49	76.69	12.58	-50.9	-52.2	17.1	0.00e+00	0	35	0	357564416	68	4058
2026-01-01 06:45:01.50	76.58	12.65	-50.9	-52.2	17.1	0.00e+00	0	35	0	360710144	68	4052
2026-01-01 06:45:02.50	76.46	12.73	-50.9	-52.1	17.1	0.00e+00	0	35	0	363855872	68	4039
2026-01-01 06:45:03.50	76.34	12.81	-50.9	-52.1	17.1	0.00e+00	0	35	0	367001600	68	4048
2026-01-01 06:45:04.49	76.23	12.89	-50.7	-52.0	17.2	0.00e+00	0	35	0	370147328	68	3973
2026-01-01 06:45:05.49	76.11	12.97	-50.8	-52.0	17.2	0.00e+00	0	35	0	373293056	68	3984
2026-01-01 06:45:06.48	75.99	13.04	-50.8	-52.0	17.1	0.00e+00	0	35	0	376438784	68	4003
2026-01-01 06:45:07.48	75.87	13.12	-50.8	-52.1	17.1	0.00e+00	0	35	0	379584512	68	4034
2026-01-01 06:45:08.48	75.75	13.20	-50.8	-52.1	17.1	0.00e+00	0	35	0	382730240	68	4033
2026-01-01 06:45:09.48	75.63	13.28	-50.7	-52.0	17.2	0.00e+00	0	35	0	385875968	68	3975
2026-01-01 06:45:10.48	75.51	13.36	-50.8	-52.1	17.2	0.00e+00	0	35	0	389021696	68	4015
2026-01-01 06:45:11.48	75.39	13.44	-50.9	-52.2	17.1	0.00e+00	0	35	0	392167424	68	4080
2026-01-01 06:45:12.47	75.27	13.52	-50.9	-52.2	17.1	0.00e+00	0	35	0	395313152	68	4068
2026-01-01 06:45:13.47	75.14	13.60	-51.0	-52.3	17.1	0.00e+00	0	35	0	398458880	68	4099
2026-01-01 06:45:14.47	75.02	13.68	-51.0	-52.3	17.1	0.00e+00	0	35	0	401604608	68	4123
2026-01-01 06:45:15.47	74.89	13.76	-50.9	-52.1	17.1	0.00e+00	0	35	0	404750336	68	4050
2026-01-01 06:45:16.47	74.77	13.84	-50.9	-52.1	17.1	0.00e+00	0	35	0	407896064	68	4048
2026-01-01 06:45:17.46	74.64	13.92	-50.8	-52.1	17.1	0.00e+00	0	35	0	411041792	68	4037
2026-01-01 06:45:18.46	74.52	14.00	-50.9	-52.1	17.2	0.00e+00	0	35	0	414187520	68	4046
2026-01-01 06:45:19.46	74.39	14.08	-50.8	-52.1	17.2	0.00e+00	0	35	0	417333248	68	4013
2026-01-01 06:45:20.46	74.26	14.16	-50.8	-52.0	17.2	0.00e+00	0	35	0	420478976	68	3998
2026-01-01 06:45:21.46	74.13	14.24	-50.9	-52.1	17.2	0.00e+00	0	35	0	423624704	68	4044
2026-01-01 06:45:22.46	74.00	14.32	-50.9	-52.1	17.2	0.00e+00	0	35	0	426770432	68	4048
2026-01-01 06:45:23.45	73.87	14.40	-50.9	-52.1	17.1	0.00e+00	0	35	0	429916160	68	4034
2026-01-01 06:45:24.44	73.74	14.48	-50.9	-52.1	17.2	0.00e+00	0	35	0	433061888	68	4035
2026-01-01 06:45:25.43	73.61	14.56	-50.9	-52.1	17.1	0.00e+00	0	35	0	436207616	68	4033
2026-01-01 06:45:26.43	73.48	14.64	-51.0	-52.3	17.1	0.00e+00	0	35	0	439353344	68	4114
2026-01-01 06:45:27.43	73.35	14.72	-51.0	-52.3	17.1	0.00e+00	0	35	0	441450496	68	4108
2026-01-01 06:45:28.43	73.21	14.80	-51.0	-52.3	17.1	0.00e+00	0	35	0	444596224	68	4104
2026-01-01 06:45:29.42	73.08	14.88	-51.1	-52.4	17.1	0.00e+00	0	35	0	447741952	68	4171
2026-01-01 06:45:30.41	72.95	14.96	-51.2	-52.5	17.0	0.00e+00	0	35	0	450887680	68	4202
2026-01-01 06:45:31.41	72.81	15.04	-51.2	-52.5	17.0	0.00e+00	0	35	0	454033408	68	4226
2026-01-01 06:45:32.41	72.67	15.13	-51.3	-52.6	17.0	0.00e+00	0	35	0	457179136	68	4248
2026-01-01 06:45:33.40	72.54	15.21	-51.1	-52.4	17.1	0.00e+00	0	35	0	460324864	68	4159
2026-01-01 06:45:34.40	72.40	15.29	-51.1	-52.4	17.1	0.00e+00	0	35	0	463470592	68	4172
2026-01-01 06:45:35.39	72.26	15.37	-50.9	-52.2	17.2	0.00e+00	0	35	0	466616320	68	4065
2026-01-01 06:45:36.39	72.12	15.45	-51.0	-52.3	17.1	0.00e+00	0	35	0	469762048	68	4102
2026-01-01 06:45:37.38	71.98	15.53	-50.9	-52.1	17.2	0.00e+00	0	35	0	472907776	68	4043
2026-01-01 06:45:38.37	71.84	15.62	-51.0	-52.2	17.2	0.00e+00	0	35	0	476053504	68	4081
2026-01-01 06:45:39.37	71.70	15.70	-51.0	-52.3	17.1	0.00e+00	0	35	0	479199232	68	4121
2026-01-01 06:45:40.36	71.56	15.78	-51.0	-52.3	17.2	0.00e+00	0	35	0	482344960	68	4106
2026-01-01 06:45:41.36	71.41	15.86	-51.1	-52.4	17.1	0.00e+00	0	35	0	485490688	68	4151
2026-01-01 06:45:42.36	71.27	15.95	-51.2	-52.5	17.0	0.00e+00	0	35	0	488636416	68	4207
2026-01-01 06:45:43.36	71.12	16.03	-51.1	-52.4	17.1	0.00e+00	0	35	0	491782144	68	4174
2026-01-01 06:45:44.36	70.98	16.11	-51.2	-52.4	17.1	0.00e+00	0	35	0	494927872	68	4188
2026-01-01 06:45:45.37	70.83	16.19	-51.1	-52.4	17.1	0.00e+00	0	35	0	498073600	68	4147
2026-01-01 06:45:46.38	70.68	16.28	-51.1	-52.4	17.1	0.00e+00	0	35	0	501219328	68	4184
2026-01-01 06:45:47.37	70.53	16.36	-51.2	-52.5	17.1	0.00e+00	0	35	0	504365056	68	4214
2026-01-01 06:45:48.38	70.38	16.45	-51.1	-52.3	17.1	0.00e+00	0	35	0	507510784	68	4134
2026-01-01 06:45:49.38	70.23	16.53	-51.1	-52.3	17.1	0.00e+00	0	35	0	510656512	68	4143
2026-01-01 06:45:50.37	70.08	16.61	-51.1	-52.4	17.2	0.00e+00	0	35	0	513802240	68	4147
2026-01-01 06:45:51.38	69.92	16.70	-51.1	-52.4	17.1	0.00e+00	0	35	0	516947968	68	4176
2026-01-01 06:45:52.37	69.77	16.78	-51.1	-52.4	17.1	0.00e+00	0	35	0	520093696	68	4147
2026-01-01 06:45:53.37	69.62	16.86	-51.1	-52.4	17.2	0.00e+00	0	35	0	523239424	68	4156
2026-01-01 06:45:54.37	69.46	16.95	-51.1	-52.4	17.1	0.00e+00	0	35	0	526385152	68	4170
2026-01-01 06:45:55.37	69.31	17.03	-51.2	-52.5	17.1	0.00e+00	0	35	0	529530880	68	4211
2026-01-01 06:45:56.38	69.15	17.11	-51.3	-52.6	17.1	0.00e+00	0	35	0	532676608	68	4245
2026-01-01 06:45:57.38	68.99	17.20	-51.4	-52.7	17.0	0.00e+00	0	35	0	535822336	68	4299
2026-01-01 06:45:58.38	68.83	17.28	-51.4	-52.7	17.0	0.00e+00	0	35	0	538968064	68	4306
2026-01-01 06:45:59.38	68.67	17.37	-51.4	-52.8	17.0	0.00e+00	0	35	0	542113792	68	4345
2026-01-01 06:46:00.37	68.51	17.45	-51.3	-52.6	17.1	0.00e+00	0	35	0	545259520	68	4254
2026-01-01 06:46:01.37	68.35	17.53	-51.3	-52.6	17.1	0.00e+00	0	35	0	548405248	68	4278
2026-01-01 06:46:02.38	68.19	17.62	-51.3	-52.6	17.1	0.00e+00	0	35	0	551550976	68	4248
2026-01-01 06:46:03.38	68.03	17.70	-51.2	-52.4	17.1	0.00e+00	0	35	0	554696704	68	4174
2026-01-01 06:46:04.38	67.86	17.79	-51.2	-52.4	17.1	0.00e+00	0	35	0	557842432	68	4183
2026-01-01 06:46:05.38	67.70	17.87	-51.2	-52.5	17.1	0.00e+00	0	35	0	560988160	68	4205
2026-01-01 06:46:06.38	67.53	17.96	-51.0	-52.3	17.2	0.00e+00	0	35	0	564133888	68	4127
2026-01-01 06:46:07.38	67.36	18.04	-51.0	-52.3	17.2	0.00e+00	0	35	0	567279616	68	4114
2026-01-01 06:46:08.38	67.20	18.12	-51.1	-52.3	17.2	0.00e+00	0	35	0	570425344	68	4136
2026-01-01 06:46:09.38	67.03	18.21	-51.0	-52.3	17.2	0.00e+00	0	35	0	573571072	68	4127
2026-01-01 06:46:10.38	66.86	18.29	-51.1	-52.3	17.2	0.00e+00	0	35	0	575668224	68	4123
2026-01-01 06:46:11.38	66.69	18.38	-51.0	-52.2	17.2	0.00e+00	0	35	0	578813952	68	4075
2026-01-01 06:46:12.38	66.52	18.46	-50.9	-52.2	17.2	0.00e+00	0	35	0	581959680	68	4053
2026-01-01 06:46:13.38	66.34	18.55	-50.9	-52.1	17.3	0.00e+00	0	35	0	585105408	68	4037
2026-01-01 06:46:14.38	66.17	18.63	-50.9	-52.1	17.3	0.00e+00	0	35	0	588251136	68	4051
2026-01-01 06:46:15.38	66.00	18.72	-50.8	-52.1	17.3	0.00e+00	0	35	0	591396864	68	4005
2026-01-01 06:46:16.37	65.82	18.80	-50.8	-52.0	17.3	0.00e+00	0	35	0	594542592	68	3980
2026-01-01 06:46:17.38	65.64	18.88	-50.8	-52.0	17.3	0.00e+00	0	35	0	597688320	68	3998
2026-01-01 06:46:18.38	65.47	18.97	-50.5	-51.7	17.3	0.00e+00	0	35	0	600834048	67	4093
2026-01-01 06:46:19.38	65.29	19.05	-50.6	-51.8	17.3	0.00e+00	0	35	0	603979776	67	4138
2026-01-01 06:46:20.38	65.11	19.14	-50.7	-51.9	17.3	0.00e+00	0	35	0	607125504	67	4164
2026-01-01 06:46:21.38	64.93	19.22	-50.6	-51.9	17.3	0.00e+00	0	35	0	610271232	67	4157
2026-01-01 06:46:22.37	64.75	19.31	-50.7	-51.9	17.3	0.00e+00	0	35	0	613416960	67	4174
2026-01-01 06:46:23.37	64.57	19.39	-50.7	-52.0	17.3	0.00e+00	0	35	0	616562688	67	4197
2026-01-01 06:46:24.38	64.38	19.48	-50.6	-51.8	17.4	0.00e+00	0	35	0	619708416	67	4136
2026-01-01 06:46:25.37	64.20	19.56	-50.5	-51.8	17.4	0.00e+00	0	35	0	622854144	67	4107
2026-01-01 06:46:26.36	64.01	19.64	-50.4	-51.6	17.4	0.00e+00	0	35	0	625999872	67	4051
2026-01-01 06:46:27.37	63.82	19.73	-50.5	-51.7	17.4	0.00e+00	0	35	0	629145600	67	4087
2026-01-01 06:46:28.36	63.64	19.81	-50.5	-51.7	17.4	0.00e+00	0	35	0	632291328	67	4061
2026-01-01 06:46:29.35	63.45	19.90	-50.4	-51.6	17.4	0.00e+00	0	35	0	635437056	67	4049
2026-01-01 06:46:30.35	63.26	19.98	-50.3	-51.5	17.5	0.00e+00	0	35	0	638582784	67	3981
2026-01-01 06:46:31.34	63.07	20.06	-50.3	-51.5	17.5	0.00e+00	0	35	0	641728512	67	4004
2026-01-01 06:46:32.33	62.88	20.15	-50.3	-51.5	17.5	0.00e+00	0	35	0	644874240	67	3964
2026-01-01 06:46:33.33	62.69	20.23	-50.3	-51.5	17.5	0.00e+00	0	35	0	648019968	67	3967
2026-01-01 06:46:34.32	62.50	20.31	-50.4	-51.6	17.5	0.00e+00	0	35	0	651165696	67	4013
2026-01-01 06:46:35.31	62.31	20.40	-50.4	-51.6	17.4	0.00e+00	0	35	0	654311424	67	4015
2026-01-01 06:46:36.31	62.11	20.48	-50.4	-51.6	17.4	0.00e+00	0	35	0	657457152	67	4019
2026-01-01 06:46:37.31	61.91	20.57	-50.3	-51.5	17.5	0.00e+00	0	35	0	660602880	67	4000
2026-01-01 06:46:38.31	61.71	20.65	-50.3	-51.5	17.5	0.00e+00	0	35	0	663748608	67	3969
2026-01-01 06:46:39.30	61.52	20.73	-50.2	-51.4	17.5	0.00e+00	0	35	0	666894336	67	3939
2026-01-01 06:46:40.30	61.32	20.82	-50.2	-51.4	17.5	0.00e+00	0	35	0	670040064	67	3943
2026-01-01 06:46:41.30	61.11	20.90	-50.1	-51.3	17.6	0.00e+00	0	35	0	673185792	66	4108
2026-01-01 06:46:42.30	60.91	20.98	-50.1	-51.3	17.6	0.00e+00	0	35	0	676331520	66	4105
2026-01-01 06:46:43.29	60.71	21.06	-50.1	-51.2	17.6	0.00e+00	0	35	0	679477248	66	4091
2026-01-01 06:46:44.29	60.50	21.15	-50.0	-51.2	17.6	0.00e+00	0	35	0	682622976	66	4069
2026-01-01 06:46:45.29	60.30	21.23	-50.2	-51.3	17.5	0.00e+00	0	35	0	684720128	66	4138
2026-01-01 06:46:46.29	60.09	21.31	-50.1	-51.3	17.5	0.00e+00	0	35	0	687865856	66	4126
2026-01-01 06:46:47.29	59.88	21.40	-50.2	-51.3	17.5	0.00e+00	0	35	0	691011584	66	4143
2026-01-01 06:46:48.30	59.67	21.48	-50.3	-51.4	17.5	0.00e+00	0	35	0	694157312	66	4191
2026-01-01 06:46:49.29	59.46	21.56	-50.1	-51.2	17.6	0.00e+00	0	35	0	697303040	66	4092
2026-01-01 06:46:50.29	59.25	21.64	-50.1	-51.3	17.6	0.00e+00	0	35	0	700448768	66	4112
2026-01-01 06:46:51.29	59.04	21.73	-50.0	-51.2	17.6	0.00e+00	0	35	0	703594496	66	4063
2026-01-01 06:46:52.28	58.83	21.81	-50.0	-51.2	17.6	0.00e+00	0	35	0	706740224	66	4052
2026-01-01 06:46:53.28	58.61	21.89	-50.0	-51.2	17.6	0.00e+00	0	35	0	709885952	66	4071
2026-01-01 06:46:54.28	58.40	21.97	-50.1	-51.2	17.6	0.00e+00	0	35	0	713031680	66	4091
2026-01-01 06:46:55.28	58.18	22.05	-50.1	-51.3	17.6	0.00e+00	0	35	0	716177408	66	4103
2026-01-01 06:46:56.27	57.96	22.13	-50.1	-51.3	17.6	0.00e+00	0	35	0	719323136	66	4132
2026-01-01 06:46:57.28	57.74	22.21	-50.1	-51.3	17.6	0.00e+00	0	35	0	722468864	66	4134
2026-01-01 06:46:58.27	57.52	22.30	-50.1	-51.3	17.6	0.00e+00	0	35	0	725614592	66	4138
2026-01-01 06:46:59.27	57.30	22.38	-50.1	-51.3	17.6	0.00e+00	0	35	0	728760320	66	4115
2026-01-01 06:47:00.28	57.07	22.46	-50.1	-51.2	17.6	0.00e+00	0	35	0	731906048	66	4092
2026-01-01 06:47:01.27	56.85	22.54	-50.0	-51.2	17.6	0.00e+00	0	35	0	735051776	66	4076
2026-01-01 06:47:02.26	56.63	22.62	-50.0	-51.1	17.6	0.00e+00	0	35	0	738197504	66	4046
2026-01-01 06:47:03.27	56.40	22.70	-49.9	-51.1	17.6	0.00e+00	0	35	0	741343232	66	4022
2026-01-01 06:47:04.27	56.17	22.78	-50.0	-51.2	17.6	0.00e+00	0	35	0	744488960	66	4056
2026-01-01 06:47:05.27	55.94	22.86	-50.2	-51.3	17.6	0.00e+00	0	35	0	747634688	66	4142
2026-01-01 06:47:06.26	55.71	22.93	-50.2	-51.4	17.5	0.00e+00	0	35	0	750780416	66	4163
2026-01-01 06:47:07.25	55.49	23.01	-50.3	-51.5	17.5	0.00e+00	0	35	0	753926144	66	4215
2026-01-01 06:47:08.25	55.25	23.09	-50.3	-51.5	17.5	0.00e+00	0	35	0	757071872	66	4240
2026-01-01 06:47:09.25	55.02	23.17	-50.3	-51.5	17.5	0.00e+00	0	35	0	760217600	66	4196
2026-01-01 06:47:10.24	54.79	23.25	-50.4	-51.6	17.5	0.00e+00	0	35	0	763363328	66	4269
2026-01-01 06:47:11.24	54.55	23.32	-50.4	-51.6	17.5	0.00e+00	0	35	0	766509056	66	4260
2026-01-01 06:47:12.25	54.31	23.40	-50.5	-51.7	17.5	0.00e+00	0	35	0	769654784	66	4297
2026-01-01 06:47:13.25	54.07	23.48	-50.5	-51.8	17.4	0.00e+00	0	35	0	772800512	66	4342
2026-01-01 06:47:14.25	53.83	23.56	-50.6	-51.8	17.4	0.00e+00	0	35	0	775946240	66	4381
2026-01-01 06:47:15.25	53.59	23.63	-50.6	-51.8	17.4	0.00e+00	0	35	0	779091968	66	4374
2026-01-01 06:47:16.26	53.35	23.71	-50.4	-51.6	17.5	0.00e+00	0	35	0	782237696	66	4277
2026-01-01 06:47:17.26	53.10	23.78	-50.4	-51.6	17.5	0.00e+00	0	35	0	785383424	66	4286
2026-01-01 06:47:18.25	52.86	23.86	-50.4	-51.6	17.5	0.00e+00	0	35	0	788529152	66	4250
2026-01-01 06:47:19.25	52.62	23.93	-50.4	-51.6	17.4	0.00e+00	0	35	0	791674880	66	4283
2026-01-01 06:47:20.25	52.37	24.01	-50.4	-51.6	17.5	0.00e+00	0	35	0	794820608	66	4263
2026-01-01 06:47:21.24	52.12	24.08	-50.4	-51.5	17.5	0.00e+00	0	35	0	797966336	66	4240
2026-01-01 06:47:22.24	51.88	24.16	-50.4	-51.6	17.5	0.00e+00	0	35	0	801112064	66	4278
2026-01-01 06:47:23.24	51.63	24.23	-50.5	-51.7	17.5	0.00e+00	0	35	0	804257792	66	4335
2026-01-01 06:47:24.24	51.37	24.30	-50.6	-51.8	17.4	0.00e+00	0	35	0	807403520	66	4360
2026-01-01 06:47:25.23	51.12	24.38	-50.6	-51.8	17.4	0.00e+00	0	35	0	810549248	66	4366
2026-01-01 06:47:26.23	50.87	24.45	-50.6	-51.8	17.4	0.00e+00	0	35	0	813694976	66	4384
2026-01-01 06:47:27.23	50.61	24.52	-50.6	-51.8	17.4	0.00e+00	0	35	0	816840704	66	4386
2026-01-01 06:47:28.22	50.36	24.59	-50.7	-52.0	17.3	0.00e+00	0	35	0	818937856	66	4448
2026-01-01 06:47:29.21	50.11	24.66	-50.8	-52.1	17.3	0.00e+00	0	35	0	822083584	66	4505
2026-01-01 06:47:30.20	49.85	24.73	-50.7	-52.0	17.3	0.00e+00	0	35	0	825229312	66	4444
2026-01-01 06:47:31.20	49.59	24.80	-50.9	-52.1	17.3	0.00e+00	0	35	0	828375040	66	4520
2026-01-01 06:47:32.20	49.33	24.87	-51.0	-52.2	17.3	0.00e+00	0	35	0	831520768	67	4327
2026-01-01 06:47:33.19	49.07	24.94	-50.7	-52.0	17.4	0.00e+00	0	35	0	834666496	67	4197
2026-01-01 06:47:34.19	48.81	25.01	-50.7	-51.9	17.4	0.00e+00	0	35	0	837812224	67	4186
2026-01-01 06:47:35.19	48.54	25.08	-50.7	-52.0	17.3	0.00e+00	0	35	0	840957952	67	4195
2026-01-01 06:47:36.19	48.28	25.15	-50.8	-52.0	17.4	0.00e+00	0	35	0	844103680	67	4207
2026-01-01 06:47:37.19	48.01	25.21	-50.9	-52.1	17.3	0.00e+00	0	35	0	847249408	67	4274
2026-01-01 06:47:38.18	47.75	25.28	-50.6	-51.9	17.5	0.00e+00	0	35	0	850395136	67	4149
2026-01-01 06:47:39.19	47.48	25.35	-50.6	-51.8	17.4	0.00e+00	0	35	0	853540864	67	4141
2026-01-01 06:47:40.19	47.21	25.41	-50.6	-51.8	17.5	0.00e+00	0	35	0	856686592	67	4099
2026-01-01 06:47:41.18	46.94	25.48	-50.6	-51.8	17.4	0.00e+00	0	35	0	859832320	67	4137
2026-01-01 06:47:42.19	46.66	25.54	-50.6	-51.8	17.4	0.00e+00	0	35	0	862978048	67	4144
2026-01-01 06:47:43.18	46.39	25.61	-50.5	-51.7	17.5	0.00e+00	0	35	0	866123776	67	4081
2026-01-01 06:47:44.18	46.12	25.67	-50.6	-51.8	17.5	0.00e+00	0	35	0	869269504	67	4103
2026-01-01 06:47:45.18	45.84	25.73	-50.6	-51.8	17.4	0.00e+00	0	35	0	872415232	67	4139
2026-01-01 06:47:46.17	45.57	25.79	-50.6	-51.8	17.4	0.00e+00	0	35	0	875560960	67	4141
2026-01-01 06:47:47.17	45.29	25.86	-50.6	-51.9	17.4	0.00e+00	0	35	0	878706688	67	4149
2026-01-01 06:47:48.17	45.01	25.92	-50.6	-51.8	17.4	0.00e+00	0	35	0	881852416	67	4123
2026-01-01 06:47:49.17	44.73	25.98	-50.7	-51.9	17.4	0.00e+00	0	35	0	884998144	67	4161
2026-01-01 06:47:50.16	44.45	26.04	-50.7	-51.9	17.4	0.00e+00	0	35	0	888143872	67	4185
2026-01-01 06:47:51.16	44.17	26.10	-50.7	-51.9	17.4	0.00e+00	0	35	0	891289600	67	4164
2026-01-01 06:47:52.15	43.89	26.15	-50.7	-52.0	17.4	0.00e+00	0	35	0	894435328	67	4203
2026-01-01 06:47:53.16	43.60	26.21	-50.7	-51.9	17.4	0.00e+00	0	35	0	897581056	67	4182
2026-01-01 06:47:54.15	43.32	26.27	-50.7	-51.9	17.4	0.00e+00	0	35	0	900726784	67	4159
2026-01-01 06:47:55.16	43.03	26.33	-50.7	-51.9	17.5	0.00e+00	0	35	0	903872512	67	4165
2026-01-01 06:47:56.16	42.75	26.38	-50.7	-51.9	17.4	0.00e+00	0	35	0	907018240	67	4188
2026-01-01 06:47:57.16	42.46	26.44	-50.7	-51.9	17.4	0.00e+00	0	35	0	910163968	67	4176
2026-01-01 06:47:58.17	42.16	26.49	-50.5	-51.7	17.5	0.00e+00	0	35	0	913309696	67	4085
2026-01-01 06:47:59.16	41.88	26.55	-50.5	-51.7	17.5	0.00e+00	0	35	0	916455424	67	4074
2026-01-01 06:48:00.16	41.59	26.60	-50.4	-51.6	17.6	0.00e+00	0	35	0	919601152	67	4047
2026-01-01 06:48:01.15	41.30	26.65	-50.4	-51.6	17.5	0.00e+00	0	35	0	922746880	67	4031
2026-01-01 06:48:02.12	41.01	26.70	-50.3	-51.5	17.6	0.00e+00	0	35	0	925892608	67	3960
2026-01-01 06:48:03.13	40.72	26.76	-50.2	-51.4	17.6	0.00e+00	0	35	0	929038336	67	3939
2026-01-01 06:48:04.13	40.42	26.81	-50.0	-51.2	17.7	0.00e+00	0	35	0	932184064	66	4065
2026-01-01 06:48:05.13	40.12	26.86	-50.0	-51.1	17.7	0.00e+00	0	35	0	935329792	66	4048
2026-01-01 06:48:06.13	39.83	26.90	-50.1	-51.3	17.7	0.00e+00	0	35	0	938475520	66	4119
2026-01-01 06:48:07.12	39.53	26.95	-50.3	-51.5	17.6	0.00e+00	0	35	0	940572672	66	4208
2026-01-01 06:48:08.12	39.23	27.00	-50.4	-51.7	17.5	0.00e+00	0	35	0	943718400	66	4293
2026-01-01 06:48:09.13	38.93	27.05	-50.4	-51.7	17.5	0.00e+00	0	35	0	946864128	66	4293
2026-01-01 06:48:10.12	38.63	27.09	-50.4	-51.6	17.6	0.00e+00	0	35	0	950009856	66	4254
2026-01-01 06:48:11.12	38.33	27.14	-50.3	-51.5	17.6	0.00e+00	0	35	0	953155584	66	4212
2026-01-01 06:48:12.12	38.03	27.18	-50.4	-51.6	17.6	0.00e+00	0	35	0	956301312	66	4246
2026-01-01 06:48:13.12	37.73	27.22	-50.3	-51.5	17.6	0.00e+00	0	35	0	959447040	66	4206
2026-01-01 06:48:14.11	37.43	27.27	-50.4	-51.6	17.6	0.00e+00	0	35	0	962592768	66	4247
2026-01-01 06:48:15.11	37.12	27.31	-50.5	-51.7	17.5	0.00e+00	0	35	0	965738496	66	4292
2026-01-01 06:48:16.11	36.82	27.35	-50.3	-51.5	17.6	0.00e+00	0	35	0	968884224	66	4215
2026-01-01 06:48:17.11	36.51	27.39	-50.4	-51.6	17.6	0.00e+00	0	35	0	972029952	66	4250
2026-01-01 06:48:18.10	36.21	27.43	-50.3	-51.5	17.6	0.00e+00	0	35	0	975175680	66	4208
2026-01-01 06:48:19.11	35.90	27.47	-50.3	-51.4	17.6	0.00e+00	0	35	0	978321408	66	4187
2026-01-01 06:48:20.11	35.59	27.50	-50.2	-51.4	17.6	0.00e+00	0	35	0	981467136	66	4172
2026-01-01 06:48:21.11	35.28	27.54	-50.3	-51.5	17.6	0.00e+00	0	35	0	984612864	66	4226
2026-01-01 06:48:22.11	34.97	27.58	-50.3	-51.5	17.6	0.00e+00	0	35	0	987758592	66	4221
2026-01-01 06:48:23.11	34.66	27.61	-50.3	-51.5	17.6	0.00e+00	0	35	0	990904320	66	4232
2026-01-01 06:48:24.11	34.35	27.64	-50.4	-51.5	17.6	0.00e+00	0	35	0	994050048	66	4240
2026-01-01 06:48:25.11	34.04	27.68	-50.2	-51.4	17.6	0.00e+00	0	35	0	997195776	66	4171
2026-01-01 06:48:26.10	33.73	27.71	-50.3	-51.4	17.6	0.00e+00	0	35	0	1000341504	66	4178
2026-01-01 06:48:27.09	33.42	27.74	-50.4	-51.6	17.5	0.00e+00	0	35	0	1003487232	66	4254
2026-01-01 06:48:28.09	33.10	27.77	-50.4	-51.6	17.6	0.00e+00	0	35	0	1006632960	66	4266
2026-01-01 06:48:29.09	32.79	27.80	-50.4	-51.6	17.6	0.00e+00	0	35	0	1009778688	66	4265
2026-01-01 06:48:30.08	32.48	27.83	-50.3	-51.5	17.6	0.00e+00	0	35	0	1012924416	66	4210
2026-01-01 06:48:31.07	32.16	27.86	-50.3	-51.4	17.6	0.00e+00	0	35	0	1016070144	66	4182
2026-01-01 06:48:32.08	31.85	27.88	-50.3	-51.5	17.6	0.00e+00	0	35	0	1019215872	66	4202
2026-01-01 06:48:33.07	31.53	27.91	-50.4	-51.6	17.6	0.00e+00	0	35	0	1022361600	66	4250
2026-01-01 06:48:34.07	31.22	27.93	-50.4	-51.6	17.6	0.00e+00	0	35	0	1025507328	66	4282
2026-01-01 06:48:35.06	30.90	27.96	-50.5	-51.7	17.6	0.00e+00	0	35	0	1028653056	66	4292
2026-01-01 06:48:36.06	30.58	27.98	-50.5	-51.7	17.6	0.00e+00	0	35	0	1031798784	66	4299
2026-01-01 06:48:37.05	30.27	28.00	-50.6	-51.8	17.5	0.00e+00	0	35	0	1034944512	66	4351
2026-01-01 06:48:38.05	29.95	28.02	-50.5	-51.6	17.5	0.00e+00	0	35	0	1038090240	66	4288
2026-01-01 06:48:39.05	29.63	28.04	-50.4	-51.6	17.6	0.00e+00	0	35	0	1041235968	66	4279
2026-01-01 06:48:40.05	29.31	28.06	-50.5	-51.7	17.5	0.00e+00	0	35	0	1044381696	66	4310
2026-01-01 06:48:41.04	28.99	28.08	-50.5	-51.7	17.5	0.00e+00	0	35	0	1047527424	66	4334
2026-01-01 06:48:42.04	28.67	28.09	-50.6	-51.8	17.5	0.00e+00	0	35	0	1050673152	66	4361
2026-01-01 06:48:43.03	28.36	28.11	-50.6	-51.8	17.5	0.00e+00	0	35	0	1053818880	66	4359
2026-01-01 06:48:44.03	28.04	28.13	-50.3	-51.4	17.6	0.00e+00	0	35	0	1056964608	66	4193
2026-01-01 06:48:45.04	27.71	28.14	-50.3	-51.5	17.6	0.00e+00	0	35	0	1060110336	66	4196
2026-01-01 06:48:46.02	27.40	28.15	-50.3	-51.4	17.6	0.00e+00	0	35	0	1062207488	66	4187
2026-01-01 06:48:47.02	27.07	28.16	-50.2	-51.3	17.6	0.00e+00	0	35	0	1065353216	66	4139
2026-01-01 06:48:48.02	26.75	28.18	-50.3	-51.4	17.6	0.00e+00	0	35	0	1068498944	66	4193
2026-01-01 06:48:49.03	26.43	28.19	-50.4	-51.6	17.5	0.00e+00	0	35	0	1071644672	66	4256
2026-01-01 06:48:50.04	26.10	28.19	-50.4	-51.6	17.5	0.00e+00	0	35	0	1074790400	66	4258
2026-01-01 06:48:51.03	25.78	28.20	-50.4	-51.6	17.5	0.00e+00	0	35	0	1077936128	66	4276
2026-01-01 06:48:52.04	25.46	28.21	-50.5	-51.6	17.6	0.00e+00	0	35	0	1081081856	66	4288
2026-01-01 06:48:53.03	25.14	28.21	-50.4	-51.6	17.6	0.00e+00	0	35	0	1084227584	66	4265
2026-01-01 06:48:54.03	24.81	28.22	-50.3	-51.5	17.6	0.00e+00	0	35	0	1087373312	66	4225
2026-01-01 06:48:55.03	24.49	28.22	-50.4	-51.5	17.6	0.00e+00	0	35	0	1090519040	66	4234
2026-01-01 06:48:56.02	24.17	28.23	-50.3	-51.5	17.6	0.00e+00	0	35	0	1093664768	66	4221
2026-01-01 06:48:57.03	23.85	28.23	-50.2	-51.4	17.7	0.00e+00	0	35	0	1096810496	66	4169
2026-01-01 06:48:58.04	23.52	28.23	-50.2	-51.4	17.7	0.00e+00	0	35	0	1099956224	66	4147
2026-01-01 06:48:59.04	23.20	28.23	-50.3	-51.5	17.6	0.00e+00	0	35	0	1103101952	66	4201
2026-01-01 06:49:00.05	22.87	28.23	-50.4	-51.6	17.6	0.00e+00	0	35	0	1106247680	66	4247
2026-01-01 06:49:01.05	22.55	28.23	-50.4	-51.5	17.6	0.00e+00	0	35	0	1109393408	66	4237
2026-01-01 06:49:02.05	22.22	28.22	-50.3	-51.5	17.6	0.00e+00	0	35	0	1112539136	66	4227
2026-01-01 06:49:03.04	21.90	28.22	-50.3	-51.5	17.6	0.00e+00	0	35	0	1115684864	66	4203
2026-01-01 06:49:04.04	21.58	28.21	-50.1	-51.3	17.7	0.00e+00	0	35	0	1118830592	66	4120
2026-01-01 06:49:05.03	21.26	28.21	-50.1	-51.3	17.6	0.00e+00	0	35	0	1121976320	66	4111
2026-01-01 06:49:06.04	20.94	28.20	-50.2	-51.3	17.6	0.00e+00	0	35	0	1125122048	66	4124
2026-01-01 06:49:07.03	20.62	28.19	-50.1	-51.3	17.6	0.00e+00	0	35	0	1128267776	66	4103
2026-01-01 06:49:08.03	20.30	28.18	-50.1	-51.3	17.7	0.00e+00	0	35	0	1131413504	66	4105
2026-01-01 06:49:09.03	19.97	28.17	-50.0	-51.2	17.7	0.00e+00	0	35	0	1134559232	66	4066
2026-01-01 06:49:10.03	19.65	28.16	-50.0	-51.1	17.7	0.00e+00	0	35	0	1137704960	66	4038
2026-01-01 06:49:11.02	19.33	28.15	-50.0	-51.2	17.7	0.00e+00	0	35	0	1140850688	66	4065
2026-01-01 06:49:12.02	19.01	28.14	-50.1	-51.3	17.7	0.00e+00	0	35	0	1143996416	66	4118
2026-01-01 06:49:13.02	18.69	28.12	-50.1	-51.3	17.6	0.00e+00	0	35	0	1147142144	66	4104
2026-01-01 06:49:14.03	18.37	28.11	-50.3	-51.5	17.6	0.00e+00	0	35	0	1150287872	66	4210
2026-01-01 06:49:15.02	18.05	28.09	-50.3	-51.5	17.6	0.00e+00	0	35	0	1153433600	66	4194
2026-01-01 06:49:16.02	17.73	28.07	-50.2	-51.4	17.7	0.00e+00	0	35	0	1156579328	66	4148
2026-01-01 06:49:17.02	17.41	28.05	-50.3	-51.4	17.6	0.00e+00	0	35	0	1159725056	66	4188
2026-01-01 06:49:18.02	17.09	28.03	-50.2	-51.3	17.6	0.00e+00	0	35	0	1162870784	66	4129
2026-01-01 06:49:19.02	16.77	28.01	-50.3	-51.5	17.6	0.00e+00	0	35	0	1166016512	66	4206
2026-01-01 06:49:20.02	16.45	27.99	-50.3	-51.4	17.6	0.00e+00	0	35	0	1169162240	66	4187
2026-01-01 06:49:21.02	16.14	27.97	-50.4	-51.6	17.6	0.00e+00	0	35	0	1172307968	66	4245
2026-01-01 06:49:22.02	15.82	27.95	-50.5	-51.6	17.6	0.00e+00	0	35	0	1175453696	66	4291
2026-01-01 06:49:23.01	15.50	27.92	-50.5	-51.7	17.5	0.00e+00	0	35	0	1178599424	66	4308
2026-01-01 06:49:24.01	15.19	27.90	-50.5	-51.7	17.5	0.00e+00	0	35	0	1181745152	66	4307
2026-01-01 06:49:25.01	14.87	27.87	-50.5	-51.6	17.5	0.00e+00	0	35	0	1184890880	66	4286
2026-01-01 06:49:26.01	14.56	27.85	-50.3	-51.5	17.6	0.00e+00	0	35	0	1188036608	66	4217
2026-01-01 06:49:27.01	14.24	27.82	-50.3	-51.5	17.6	0.00e+00	0	35	0	1191182336	66	4205
2026-01-01 06:49:28.00	13.93	27.79	-50.5	-51.6	17.6	0.00e+00	0	35	0	1194328064	66	4289
2026-01-01 06:49:29.00	13.62	27.76	-50.4	-51.6	17.6	0.00e+00	0	35	0	1197473792	66	4275
2026-01-01 06:49:30.00	13.30	27.73	-50.4	-51.6	17.6	0.00e+00	0	35	0	1199570944	66	4282
2026-01-01 06:49:31.00	12.99	27.70	-50.3	-51.5	17.6	0.00e+00	0	35	0	1202716672	66	4226
2026-01-01 06:49:31.99	12.68	27.67	-50.3	-51.5	17.6	0.00e+00	0	35	0	1205862400	66	4202
2026-01-01 06:49:32.98	12.37	27.63	-50.3	-51.4	17.6	0.00e+00	0	35	0	1209008128	66	4190
2026-01-01 06:49:33.97	12.07	27.60	-50.3	-51.5	17.6	0.00e+00	0	35	0	1212153856	66	4226
2026-01-01 06:49:34.97	11.76	27.56	-50.5	-51.7	17.6	0.00e+00	0	35	0	1215299584	66	4301
2026-01-01 06:49:35.97	11.45	27.53	-50.6	-51.8	17.5	0.00e+00	0	35	0	1218445312	66	4347
2026-01-01 06:49:36.96	11.14	27.49	-50.6	-51.8	17.5	0.00e+00	0	35	0	1221591040	66	4373
2026-01-01 06:49:37.97	10.83	27.45	-50.7	-51.9	17.5	0.00e+00	0	35	0	1224736768	66	4394
2026-01-01 06:49:38.96	10.53	27.42	-50.6	-51.8	17.5	0.00e+00	0	35	0	1227882496	66	4365
2026-01-01 06:49:39.95	10.22	27.38	-50.6	-51.8	17.5	0.00e+00	0	35	0	1231028224	66	4342
2026-01-01 06:49:40.94	9.92	27.34	-50.7	-51.9	17.5	0.00e+00	0	35	0	1234173952	66	4420
2026-01-01 06:49:41.94	9.62	27.30	-50.6	-51.8	17.5	0.00e+00	0	35	0	1237319680	66	4370
2026-01-01 06:49:42.93	9.31	27.25	-50.6	-51.8	17.5	0.00e+00	0	35	0	1240465408	66	4386
2026-01-01 06:49:43.94	9.01	27.21	-50.9	-52.1	17.4	0.00e+00	0	35	0	1243611136	66	4523
2026-01-01 06:49:44.93	8.71	27.17	-50.9	-52.1	17.4	0.00e+00	0	35	0	1246756864	66	4524
2026-01-01 06:49:45.93	8.41	27.12	-51.0	-52.2	17.4	0.00e+00	0	35	0	1249902592	67	4322
2026-01-01 06:49:46.92	8.11	27.08	-51.0	-52.2	17.4	0.00e+00	0	35	0	1253048320	67	4335
2026-01-01 06:49:47.92	7.81	27.03	-50.9	-52.2	17.4	0.00e+00	0	35	0	1256194048	67	4302
2026-01-01 06:49:48.92	7.51	26.99	-51.0	-52.3	17.3	0.00e+00	0	35	0	1259339776	67	4356
2026-01-01 06:49:49.92	7.21	26.94	-51.0	-52.3	17.3	0.00e+00	0	35	0	1262485504	67	4358
2026-01-01 06:49:50.91	6.92	26.89	-51.0	-52.3	17.3	0.00e+00	0	35	0	1265631232	67	4341
2026-01-01 06:49:51.91	6.62	26.84	-51.0	-52.3	17.3	0.00e+00	0	35	0	1268776960	67	4366
2026-01-01 06:49:52.92	6.32	26.79	-51.0	-52.3	17.3	0.00e+00	0	35	0	1271922688	67	4368
2026-01-01 06:49:53.92	6.03	26.74	-50.9	-52.1	17.4	0.00e+00	0	35	0	1275068416	67	4277
2026-01-01 06:49:54.92	5.74	26.69	-50.8	-52.1	17.4	0.00e+00	0	35	0	1278214144	67	4244
2026-01-01 06:49:55.92	5.44	26.64	-50.9	-52.1	17.4	0.00e+00	0	35	0	1281359872	67	4272
2026-01-01 06:49:56.92	5.15	26.58	-51.0	-52.2	17.4	0.00e+00	0	35	0	1284505600	67	4320
2026-01-01 06:49:57.91	4.86	26.53	-50.9	-52.2	17.4	0.00e+00	0	35	0	1287651328	67	4302
2026-01-01 06:49:58.91	4.57	26.48	-51.0	-52.3	17.3	0.00e+00	0	35	0	1290797056	67	4348
2026-01-01 06:49:59.91	4.29	26.42	-50.9	-52.1	17.4	0.00e+00	0	35	0	1293942784	67	4269
2026-01-01 06:50:00.90	4.00	26.37	-50.8	-52.1	17.4	0.00e+00	0	35	0	1297088512	67	4253
2026-01-01 06:50:01.90	3.71	26.31	-50.7	-51.9	17.5	0.00e+00	0	35	0	1300234240	67	4190
2026-01-01 06:50:02.90	3.43	26.25	-50.6	-51.8	17.6	0.00e+00	0	35	0	1303379968	67	4113
2026-01-01 06:50:03.90	3.14	26.20	-50.6	-51.9	17.5	0.00e+00	0	35	0	1306525696	67	4157
2026-01-01 06:50:04.90	2.86	26.14	-50.4	-51.6	17.6	0.00e+00	0	35	0	1308622848	67	4048
2026-01-01 06:50:05.91	2.58	26.08	-50.5	-51.7	17.6	0.00e+00	0	35	0	1311768576	67	4061
2026-01-01 06:50:06.90	2.30	26.02	-50.6	-51.8	17.6	0.00e+00	0	35	0	1314914304	67	4104
2026-01-01 06:50:07.90	2.02	25.96	-50.6	-51.8	17.5	0.00e+00	0	35	0	1318060032	67	4102
2026-01-01 06:50:08.90	1.74	25.90	-50.3	-51.5	17.6	0.00e+00	0	35	0	1321205760	67	3987
2026-01-01 06:50:09.90	1.46	25.84	-50.3	-51.5	17.6	0.00e+00	0	35	0	1324351488	67	3959
2026-01-01 06:50:10.91	1.18	25.78	-50.1	-51.2	17.7	0.00e+00	0	35	0	1327497216	66	4079
2026-01-01 06:50:11.90	0.91	25.71	-50.1	-51.3	17.7	0.00e+00	0	35	0	1330642944	66	4103
2026-01-01 06:50:12.90	0.63	25.65	-50.0	-51.2	17.7	0.00e+00	0	35	0	1333788672	66	4064
2026-01-01 06:50:13.91	0.36	25.59	-50.1	-51.3	17.7	0.00e+00	0	35	0	1336934400	66	4100
2026-01-01 06:50:14.91	0.08	25.52	-50.2	-51.3	17.7	0.00e+00	0	35	0	1340080128	66	4139
2026-01-01 06:50:15.91	359.81	25.46	-50.3	-51.5	17.6	0.00e+00	0	35	0	1343225856	66	4216
2026-01-01 06:50:16.90	359.54	25.39	-50.4	-51.6	17.6	0.00e+00	0	35	0	1346371584	66	4266
2026-01-01 06:50:17.90	359.28	25.33	-50.3	-51.5	17.6	0.00e+00	0	35	0	1349517312	66	4198
2026-01-01 06:50:18.91	359.00	25.26	-50.3	-51.4	17.6	0.00e+00	0	35	0	1352663040	66	4176
2026-01-01 06:50:19.91	358.74	25.19	-50.2	-51.3	17.6	0.00e+00	0	35	0	1355808768	66	4137
2026-01-01 06:50:20.90	358.47	25.13	-50.0	-51.1	17.7	0.00e+00	0	35	0	1358954496	66	4028
2026-01-01 06:50:21.90	358.21	25.06	-49.9	-51.0	17.7	0.00e+00	0	35	0	1362100224	66	4001
2026-01-01 06:50:22.90	357.95	24.99	-49.9	-51.0	17.7	0.00e+00	0	35	0	1365245952	66	3991
2026-01-01 06:50:23.90	357.68	24.92	-50.0	-51.1	17.7	0.00e+00	0	35	0	1368391680	66	4050
2026-01-01 06:50:24.90	357.42	24.85	-50.2	-51.4	17.6	0.00e+00	0	35	0	1371537408	66	4158
2026-01-01 06:50:25.90	357.16	24.78	-50.4	-51.6	17.6	0.00e+00	0	35	0	1374683136	66	4248
2026-01-01 06:50:26.89	356.91	24.71	-50.4	-51.6	17.6	0.00e+00	0	35	0	1377828864	66	4272
2026-01-01 06:50:27.89	356.65	24.64	-50.3	-51.5	17.6	0.00e+00	0	35	0	1380974592	66	4225
2026-01-01 06:50:28.89	356.39	24.57	-50.3	-51.5	17.6	0.00e+00	0	35	0	1384120320	66	4205
2026-01-01 06:50:29.88	356.14	24.50	-50.2	-51.4	17.6	0.00e+00	0	35	0	1387266048	66	4168
2026-01-01 06:50:30.88	355.89	24.43	-50.3	-51.4	17.6	0.00e+00	0	36	0	1390411776	66	4186
2026-01-01 06:50:31.88	355.63	24.35	-50.0	-51.2	17.7	0.00e+00	0	35	0	1393557504	66	4062
2026-01-01 06:50:32.88	355.38	24.28	-50.1	-51.3	17.7	0.00e+00	0	35	0	1396703232	66	4120
2026-01-01 06:50:33.89	355.13	24.21	-50.3	-51.4	17.6	0.00e+00	0	35	0	1399848960	66	4185
2026-01-01 06:50:34.88	354.88	24.13	-50.5	-51.7	17.5	0.00e+00	0	35	0	1402994688	66	4314
2026-01-01 06:50:35.88	354.63	24.06	-50.6	-51.8	17.5	0.00e+00	0	35	0	1406140416	66	4384
2026-01-01 06:50:36.88	354.39	23.99	-50.6	-51.8	17.5	0.00e+00	0	35	0	1409286144	66	4379
2026-01-01 06:50:37.88	354.14	23.91	-50.4	-51.6	17.5	0.00e+00	0	35	0	1412431872	66	4278
2026-01-01 06:50:38.88	353.90	23.84	-50.3	-51.5	17.6	0.00e+00	0	35	0	1415577600	66	4212
2026-01-01 06:50:39.87	353.65	23.76	-50.2	-51.4	17.6	0.00e+00	0	35	0	1418723328	66	4161
2026-01-01 06:50:40.87	353.41	23.69	-50.2	-51.4	17.6	0.00e+00	0	35	0	1421869056	66	4167
2026-01-01 06:50:41.87	353.17	23.61	-50.0	-51.1	17.7	0.00e+00	0	35	0	1425014784	66	4034
2026-01-01 06:50:42.88	352.93	23.53	-50.1	-51.2	17.7	0.00e+00	0	35	0	1428160512	66	4092
2026-01-01 06:50:43.88	352.69	23.46	-50.1	-51.3	17.7	0.00e+00	0	35	0	1431306240	66	4121
2026-01-01 06:50:44.87	352.45	23.38	-50.2	-51.4	17.7	0.00e+00	0	35	0	1434451968	66	4151
2026-01-01 06:50:45.88	352.22	23.30	-50.3	-51.5	17.6	0.00e+00	0	35	0	1437597696	66	4230
2026-01-01 06:50:46.88	351.98	23.22	-50.4	-51.6	17.5	0.00e+00	0	35	0	1440743424	66	4284
2026-01-01 06:50:47.88	351.75	23.15	-50.4	-51.6	17.5	0.00e+00	0	35	0	1443889152	66	4286
2026-01-01 06:50:48.89	351.51	23.07	-50.5	-51.7	17.5	0.00e+00	0	35	0	1447034880	66	4301
2026-01-01 06:50:49.88	351.28	22.99	-50.3	-51.5	17.5	0.00e+00	0	35	0	1450180608	66	4223
2026-01-01 06:50:50.89	351.05	22.91	-50.2	-51.4	17.6	0.00e+00	0	35	0	1453326336	66	4170
2026-01-01 06:50:51.88	350.82	22.83	-50.2	-51.4	17.6	0.00e+00	0	35	0	1456472064	66	4176
2026-01-01 06:50:52.87	350.60	22.75	-50.3	-51.5	17.6	0.00e+00	0	35	0	1458569216	66	4214
2026-01-01 06:50:53.88	350.37	22.67	-50.5	-51.7	17.6	0.00e+00	0	35	0	1461714944	66	4299
2026-01-01 06:50:54.88	350.14	22.59	-50.6	-51.8	17.5	0.00e+00	0	35	0	1464860672	66	4346
2026-01-01 06:50:55.88	349.92	22.51	-50.6	-51.8	17.5	0.00e+00	0	35	0	1468006400	66	4366
2026-01-01 06:50:56.87	349.70	22.43	-50.6	-51.9	17.5	0.00e+00	0	35	0	1471152128	66	4398
2026-01-01 06:50:57.87	349.47	22.35	-50.7	-51.9	17.5	0.00e+00	0	35	0	1474297856	66	4416
2026-01-01 06:50:58.87	349.25	22.27	-50.6	-51.8	17.5	0.00e+00	0	35	0	1477443584	66	4365
2026-01-01 06:50:59.87	349.03	22.19	-50.4	-51.6	17.6	0.00e+00	0	35	0	1480589312	66	4260
2026-01-01 06:51:00.86	348.82	22.11	-50.4	-51.6	17.6	0.00e+00	0	35	0	1483735040	66	4264
2026-01-01 06:51:01.85	348.60	22.03	-50.3	-51.5	17.6	0.00e+00	0	35	0	1486880768	66	4206
2026-01-01 06:51:02.86	348.38	21.95	-50.2	-51.3	17.7	0.00e+00	0	35	0	1490026496	66	4144
2026-01-01 06:51:03.86	348.17	21.87	-50.2	-51.4	17.7	0.00e+00	0	35	0	1493172224	66	4161
2026-01-01 06:51:04.85	347.95	21.79	-50.2	-51.4	17.6	0.00e+00	0	35	0	1496317952	66	4174
2026-01-01 06:51:05.85	347.74	21.70	-50.3	-51.5	17.6	0.00e+00	0	35	0	1499463680	66	4196
2026-01-01 06:51:06.86	347.53	21.62	-50.4	-51.6	17.6	0.00e+00	0	35	0	1502609408	66	4259
2026-01-01 06:51:07.86	347.32	21.54	-50.4	-51.6	17.6	0.00e+00	0	35	0	1505755136	66	4243
2026-01-01 06:51:08.85	347.11	21.46	-50.3	-51.5	17.6	0.00e+00	0	35	0	1508900864	66	4224
2026-01-01 06:51:09.85	346.90	21.37	-50.4	-51.6	17.5	0.00e+00	0	35	0	1512046592	66	4268
2026-01-01 06:51:10.85	346.69	21.29	-50.4	-51.6	17.6	0.00e+00	0	35	0	1515192320	66	4246
2026-01-01 06:51:11.85	346.49	21.21	-50.3	-51.4	17.6	0.00e+00	0	35	0	1518338048	66	4186
2026-01-01 06:51:12.85	346.28	21.13	-50.3	-51.5	17.6	0.00e+00	0	35	0	1521483776	66	4221
2026-01-01 06:51:13.84	346.08	21.04	-50.5	-51.6	17.5	0.00e+00	0	35	0	1524629504	66	4285
2026-01-01 06:51:14.84	345.88	20.96	-50.5	-51.7	17.5	0.00e+00	0	35	0	1527775232	66	4328
2026-01-01 06:51:15.83	345.68	20.88	-50.6	-51.9	17.4	0.00e+00	0	35	0	1530920960	66	4398
2026-01-01 06:51:16.83	345.48	20.80	-50.8	-52.0	17.4	0.00e+00	0	35	0	1534066688	66	4459
2026-01-01 06:51:17.83	345.28	20.71	-50.8	-52.0	17.4	0.00e+00	0	35	0	1537212416	66	4453
2026-01-01 06:51:18.83	345.08	20.63	-50.8	-52.1	17.4	0.00e+00	0	35	0	1540358144	66	4504
2026-01-01 06:51:19.83	344.88	20.54	-50.6	-51.8	17.5	0.00e+00	0	35	0	1543503872	66	4386
2026-01-01 06:51:20.83	344.68	20.46	-50.6	-51.9	17.5	0.00e+00	0	35	0	1546649600	66	4395
2026-01-01 06:51:21.83	344.49	20.38	-50.6	-51.9	17.5	0.00e+00	0	35	0	1549795328	66	4392
2026-01-01 06:51:22.82	344.30	20.29	-50.6	-51.9	17.5	0.00e+00	0	35	0	1552941056	66	4394
2026-01-01 06:51:23.83	344.10	20.21	-50.5	-51.7	17.5	0.00e+00	0	35	0	1556086784	66	4302
2026-01-01 06:51:24.82	343.91	20.13	-50.4	-51.6	17.5	0.00e+00	0	35	0	1559232512	66	4273
2026-01-01 06:51:25.82	343.72	20.04	-50.4	-51.6	17.5	0.00e+00	0	35	0	1562378240	66	4276
2026-01-01 06:51:26.82	343.53	19.96	-50.4	-51.6	17.5	0.00e+00	0	35	0	1565523968	66	4269
2026-01-01 06:51:27.81	343.34	19.88	-50.4	-51.6	17.5	0.00e+00	0	35	0	1568669696	66	4281
2026-01-01 06:51:28.80	343.16	19.79	-50.3	-51.5	17.6	0.00e+00	0	35	0	1571815424	66	4232
2026-01-01 06:51:29.80	342.97	19.71	-50.4	-51.5	17.6	0.00e+00	0	35	0	1574961152	66	4240
2026-01-01 06:51:30.80	342.78	19.62	-50.3	-51.5	17.6	0.00e+00	0	35	0	1577058304	66	4226
2026-01-01 06:51:31.80	342.60	19.54	-50.2	-51.4	17.6	0.00e+00	0	35	0	1580204032	66	4178
2026-01-01 06:51:32.79	342.42	19.46	-50.3	-51.4	17.6	0.00e+00	0	35	0	1583349760	66	4190
2026-01-01 06:51:33.79	342.24	19.37	-50.1	-51.3	17.6	0.00e+00	0	35	0	1586495488	66	4122
2026-01-01 06:51:34.78	342.06	19.29	-50.2	-51.3	17.6	0.00e+00	0	35	0	1589641216	66	4144
2026-01-01 06:51:35.77	341.88	19.20	-50.2	-51.3	17.6	0.00e+00	0	35	0	1592786944	66	4135
2026-01-01 06:51:36.76	341.70	19.12	-50.2	-51.3	17.6	0.00e+00	0	35	0	1595932672	66	4143
2026-01-01 06:51:37.76	341.52	19.04	-50.2	-51.4	17.6	0.00e+00	0	35	0	1599078400	66	4159
2026-01-01 06:51:38.75	341.34	18.95	-50.3	-51.4	17.6	0.00e+00	0	35	0	1602224128	66	4186
2026-01-01 06:51:39.75	341.17	18.87	-50.3	-51.4	17.6	0.00e+00	0	35	0	1605369856	66	4178
2026-01-01 06:51:40.75	340.99	18.78	-50.3	-51.5	17.5	0.00e+00	0	35	0	1608515584	66	4213
2026-01-01 06:51:41.75	340.82	18.70	-50.4	-51.6	17.6	0.00e+00	0	35	0	1611661312	66	4261
2026-01-01 06:51:42.75	340.64	18.62	-50.5	-51.7	17.5	0.00e+00	0	35	0	1614807040	66	4297
2026-01-01 06:51:43.75	340.47	18.53	-50.4	-51.6	17.6	0.00e+00	0	35	0	1617952768	66	4270
2026-01-01 06:51:44.74	340.30	18.45	-50.5	-51.7	17.5	0.00e+00	0	35	0	1621098496	66	4301
2026-01-01 06:51:45.75	340.13	18.36	-50.6	-51.9	17.4	0.00e+00	0	35	0	1624244224	66	4399
2026-01-01 06:51:46.74	339.96	18.28	-50.7	-52.0	17.4	0.00e+00	0	35	0	1627389952	66	4454
2026-01-01 06:51:47.74	339.79	18.19	-50.9	-52.1	17.4	0.00e+00	0	35	0	1630535680	66	4521
2026-01-01 06:51:48.75	339.62	18.11	-50.9	-52.2	17.3	0.00e+00	0	35	0	1633681408	67	4297
2026-01-01 06:51:49.75	339.45	18.03	-50.9	-52.1	17.3	0.00e+00	0	35	0	1636827136	67	4271
2026-01-01 06:51:50.74	339.29	17.94	-50.9	-52.1	17.3	0.00e+00	0	35	0	1639972864	67	4280
2026-01-01 06:51:51.74	339.13	17.86	-50.9	-52.1	17.3	0.00e+00	0	35	0	1643118592	67	4290
2026-01-01 06:51:52.74	338.96	17.77	-50.8	-52.0	17.3	0.00e+00	0	35	0	1646264320	67	4225
2026-01-01 06:51:53.74	338.80	17.69	-50.8	-52.1	17.3	0.00e+00	0	35	0	1649410048	67	4255
2026-01-01 06:51:54.75	338.63	17.60	-50.6	-51.8	17.4	0.00e+00	0	35	0	1652555776	67	4142
2026-01-01 06:51:55.74	338.47	17.52	-50.6	-51.9	17.4	0.00e+00	0	35	0	1655701504	67	4149
2026-01-01 06:51:56.74	338.31	17.44	-50.7	-51.9	17.4	0.00e+00	0	35	0	1658847232	67	4190
2026-01-01 06:51:57.74	338.15	17.35	-50.9	-52.1	17.3	0.00e+00	0	35	0	1661992960	67	4287
2026-01-01 06:51:58.74	338.00	17.27	-50.9	-52.1	17.3	0.00e+00	0	35	0	1665138688	67	4280
2026-01-01 06:51:59.74	337.84	17.19	-51.0	-52.2	17.3	0.00e+00	0	35	0	1668284416	67	4333
2026-01-01 06:52:00.74	337.68	17.10	-51.1	-52.3	17.2	0.00e+00	0	35	0	1671430144	67	4389
2026-01-01 06:52:01.74	337.52	17.02	-51.1	-52.4	17.2	0.00e+00	0	35	0	1674575872	67	4428
2026-01-01 06:52:02.74	337.37	16.94	-51.1	-52.4	17.2	0.00e+00	0	35	0	1677721600	67	4419
2026-01-01 06:52:03.74	337.22	16.85	-51.0	-52.3	17.2	0.00e+00	0	35	0	1680867328	67	4368
2026-01-01 06:52:04.74	337.06	16.77	-51.0	-52.3	17.2	0.00e+00	0	35	0	1684013056	67	4374
2026-01-01 06:52:05.75	336.91	16.68	-51.0	-52.3	17.2	0.00e+00	0	35	0	1687158784	67	4380
2026-01-01 06:52:06.75	336.76	16.60	-50.8	-52.1	17.3	0.00e+00	0	35	0	1690304512	67	4259
2026-01-01 06:52:07.75	336.61	16.52	-50.9	-52.1	17.3	0.00e+00	0	35	0	1693450240	67	4273
2026-01-01 06:52:08.75	336.46	16.43	-50.7	-51.9	17.3	0.00e+00	0	35	0	1696595968	67	4179
2026-01-01 06:52:09.75	336.31	16.35	-50.6	-51.7	17.5	0.00e+00	0	35	0	1699741696	67	4097
2026-01-01 06:52:10.76	336.16	16.27	-50.5	-51.7	17.5	0.00e+00	0	35	0	1702887424	67	4065
2026-01-01 06:52:11.76	336.01	16.19	-50.6	-51.8	17.4	5.30e-06	0	35	0	1706033152	67	4103
2026-01-01 06:52:12.75	335.86	16.10	-50.7	-51.9	17.4	0.00e+00	0	35	0	1709178880	67	4192
2026-01-01 06:52:13.75	335.72	16.02	-50.9	-52.1	17.3	0.00e+00	0	35	0	1711276032	67	4262
2026-01-01 06:52:14.75	335.57	15.94	-51.1	-52.3	17.2	0.00e+00	0	35	0	1714421760	67	4380
2026-01-01 06:52:15.75	335.43	15.86	-51.1	-52.4	17.2	0.00e+00	0	35	0	1717567488	67	4436
2026-01-01 06:52:16.75	335.29	15.77	-51.2	-52.5	17.1	0.00e+00	0	35	0	1720713216	67	4484
2026-01-01 06:52:17.75	335.14	15.69	-51.3	-52.6	17.1	0.00e+00	0	35	0	1723858944	67	4525
2026-01-01 06:52:18.75	335.00	15.61	-51.3	-52.6	17.1	0.00e+00	0	35	0	1727004672	67	4523
2026-01-01 06:52:19.75	334.86	15.53	-51.2	-52.5	17.1	0.00e+00	0	35	0	1730150400	67	4465
2026-01-01 06:52:20.75	334.72	15.44	-50.9	-52.2	17.2	0.00e+00	0	35	0	1733296128	67	4301
2026-01-01 06:52:21.76	334.58	15.36	-50.9	-52.1	17.2	0.00e+00	0	35	0	1736441856	67	4268
2026-01-01 06:52:22.75	334.44	15.28	-50.8	-52.1	17.3	0.00e+00	0	35	0	1739587584	67	4250
2026-01-01 06:52:23.75	334.30	15.20	-50.8	-52.1	17.3	0.00e+00	0	35	0	1742733312	67	4254
2026-01-01 06:52:24.75	334.17	15.12	-50.7	-51.9	17.3	0.00e+00	0	35	0	1745879040	67	4171
2026-01-01 06:52:25.75	334.03	15.04	-50.7	-51.9	17.4	0.00e+00	0	35	0	1749024768	67	4179
2026-01-01 06:52:26.75	333.90	14.95	-50.7	-51.9	17.4	0.00e+00	0	35	0	1752170496	67	4183
2026-01-01 06:52:27.74	333.76	14.87	-50.7	-52.0	17.3	0.00e+00	0	35	0	1755316224	67	4205
2026-01-01 06:52:28.74	333.63	14.79	-50.8	-52.1	17.3	0.00e+00	0	35	0	1758461952	67	4245
2026-01-01 06:52:29.73	333.50	14.71	-50.9	-52.2	17.2	0.00e+00	0	36	0	1761607680	67	4313
2026-01-01 06:52:30.73	333.36	14.63	-51.0	-52.3	17.2	0.00e+00	0	35	0	1764753408	67	4349
2026-01-01 06:52:31.73	333.23	14.55	-51.1	-52.4	17.2	0.00e+00	0	35	0	1767899136	67	4412
2026-01-01 06:52:32.72	333.10	14.47	-51.2	-52.5	17.1	0.00e+00	0	35	0	1771044864	67	4480
2026-01-01 06:52:33.72	332.97	14.39	-51.2	-52.6	17.1	0.00e+00	0	35	0	1774190592	67	4495
2026-01-01 06:52:34.71	332.84	14.31	-51.3	-52.6	17.1	0.00e+00	0	35	0	1777336320	67	4533
2026-01-01 06:52:35.71	332.71	14.23	-51.3	-52.6	17.1	0.00e+00	0	36	0	1780482048	67	4504
2026-01-01 06:52:36.71	332.59	14.15	-51.2	-52.5	17.1	0.00e+00	0	36	0	1783627776	67	4460
2026-01-01 06:52:37.70	332.46	14.07	-51.2	-52.5	17.1	0.00e+00	0	35	0	1786773504	67	4479
2026-01-01 06:52:38.70	332.33	13.99	-51.2	-52.5	17.1	0.00e+00	0	36	0	1789919232	67	4462
2026-01-01 06:52:39.69	332.21	13.91	-51.2	-52.5	17.1	0.00e+00	0	35	0	1793064960	67	4445
2026-01-01 06:52:40.69	332.08	13.83	-50.8	-52.0	17.3	0.00e+00	0	35	0	1796210688	67	4237
2026-01-01 06:52:41.67	331.96	13.75	-50.7	-51.9	17.4	0.00e+00	0	35	0	1799356416	67	4168
2026-01-01 06:52:42.67	331.84	13.67	-50.7	-51.9	17.4	0.00e+00	0	36	0	1802502144	67	4189
2026-01-01 06:52:43.68	331.71	13.59	-50.6	-51.8	17.4	0.00e+00	0	35	0	1805647872	67	4108
2026-01-01 06:52:44.67	331.59	13.51	-50.5	-51.8	17.4	0.00e+00	0	35	0	1808793600	67	4099
2026-01-01 06:52:45.67	331.47	13.44	-50.6	-51.8	17.4	0.00e+00	0	35	0	1811939328	67	4106
2026-01-01 06:52:46.67	331.35	13.36	-50.6	-51.8	17.4	0.00e+00	0	35	0	1815085056	67	4134
2026-01-01 06:52:47.66	331.23	13.28	-50.7	-52.0	17.3	0.00e+00	0	35	0	1818230784	67	4204
2026-01-01 06:52:48.66	331.11	13.20	-50.9	-52.1	17.3	0.00e+00	0	36	0	1821376512	67	4284
2026-01-01 06:52:49.66	330.99	13.12	-51.0	-52.2	17.2	0.00e+00	0	36	0	1823473664	67	4335
2026-01-01 06:52:50.65	330.87	13.04	-51.1	-52.4	17.2	0.00e+00	0	36	0	1826619392	67	4432
2026-01-01 06:52:51.64	330.75	12.97	-51.3	-52.6	17.0	0.00e+00	0	35	0	1829765120	67	4540
2026-01-01 06:52:52.64	330.64	12.89	-51.4	-52.8	17.0	0.00e+00	0	36	0	1832910848	67	4600
2026-01-01 06:52:53.65	330.52	12.81	-51.7	-53.0	16.9	0.00e+00	0	35	0	1836056576	68	4486
2026-01-01 06:52:54.65	330.40	12.73	-51.6	-53.0	16.9	0.00e+00	0	35	0	1839202304	68	4451
2026-01-01 06:52:55.65	330.29	12.65	-51.6	-52.9	17.0	0.00e+00	0	35	0	1842348032	68	4430
2026-01-01 06:52:56.64	330.17	12.58	-51.5	-52.9	17.0	0.00e+00	0	35	0	1845493760	68	4397
2026-01-01 06:52:57.64	330.06	12.50	-51.6	-52.9	17.0	0.00e+00	0	35	0	1848639488	68	4427
2026-01-01 06:52:58.64	329.94	12.42	-51.4	-52.7	17.0	0.00e+00	0	35	0	1851785216	68	4340
2026-01-01 06:52:59.65	329.83	12.34	-51.3	-52.5	17.1	0.00e+00	0	36	0	1854930944	68	4236
2026-01-01 06:53:00.64	329.72	12.27	-51.1	-52.3	17.3	0.00e+00	0	35	0	1858076672	68	4134
2026-01-01 06:53:01.65	329.61	12.19	-51.0	-52.3	17.2	0.00e+00	0	35	0	1861222400	68	4108
2026-01-01 06:53:02.66	329.49	12.11	-50.9	-52.1	17.3	0.00e+00	0	35	0	1864368128	68	4041
2026-01-01 06:53:03.65	329.38	12.03	-50.9	-52.2	17.3	0.00e+00	0	36	0	1867513856	68	4052
2026-01-01 06:53:04.64	329.28	11.96	-51.0	-52.3	17.2	0.00e+00	0	36	0	1870659584	68	4103
2026-01-01 06:53:05.64	329.17	11.88	-51.1	-52.4	17.2	0.00e+00	0	35	0	1873805312	68	4161
2026-01-01 06:53:06.64	329.06	11.80	-51.2	-52.5	17.1	0.00e+00	0	36	0	1876951040	68	4219
2026-01-01 06:53:07.63	328.95	11.73	-51.3	-52.6	17.1	0.00e+00	0	36	0	1880096768	68	4274
2026-01-01 06:53:08.62	328.84	11.65	-51.5	-52.8	17.0	0.00e+00	0	35	0	1883242496	68	4359
2026-01-01 06:53:09.62	328.74	11.58	-51.7	-53.0	16.9	0.00e+00	0	35	0	1886388224	68	4483
2026-01-01 06:53:10.62	328.63	11.50	-51.9	-53.2	16.8	0.00e+00	0	35	0	1889533952	68	4593
2026-01-01 06:53:11.61	328.52	11.43	-52.0	-53.4	16.7	0.00e+00	0	36	0	1892679680	69	4433
2026-01-01 06:53:12.61	328.42	11.35	-52.1	-53.6	16.7	0.00e+00	0	36	0	1895825408	69	4508
2026-01-01 06:53:13.60	328.31	11.28	-52.2	-53.7	16.6	0.00e+00	0	35	0	1898971136	69	4547
2026-01-01 06:53:14.60	328.21	11.20	-52.3	-53.7	16.6	0.00e+00	0	36	0	1902116864	69	4594
2026-01-01 06:53:15.60	328.11	11.13	-52.3	-53.7	16.6	0.00e+00	0	36	0	1905262592	69	4583
2026-01-01 06:53:16.60	328.00	11.05	-52.3	-53.7	16.6	0.00e+00	0	35	0	1908408320	69	4585
2026-01-01 06:53:17.60	327.90	10.98	-52.2	-53.7	16.6	0.00e+00	0	35	0	1911554048	69	4560
2026-01-01 06:53:18.59	327.80	10.90	-52.3	-53.8	16.5	0.00e+00	0	36	0	1914699776	69	4608
2026-01-01 06:53:19.59	327.70	10.83	-52.0	-53.5	16.7	0.00e+00	0	36	0	1917845504	69	4444
2026-01-01 06:53:20.59	327.60	10.75	-52.0	-53.4	16.7	0.00e+00	0	35	0	1920991232	69	4427
2026-01-01 06:53:21.59	327.50	10.68	-52.0	-53.4	16.7	0.00e+00	0	36	0	1924136960	69	4420
2026-01-01 06:53:22.59	327.40	10.60	-52.0	-53.4	16.7	0.00e+00	0	36	0	1927282688	69	4399
2026-01-01 06:53:23.59	327.30	10.53	-51.9	-53.2	16.8	0.00e+00	0	35	0	1930428416	69	4338
2026-01-01 06:53:24.59	327.20	10.46	-51.8	-53.2	16.8	0.00e+00	0	35	0	1933574144	69	4324
2026-01-01 06:53:25.59	327.10	10.38	-51.9	-53.3	16.7	0.00e+00	0	36	0	1936719872	69	4376
2026-01-01 06:53:26.59	327.00	10.31	-52.0	-53.4	16.7	0.00e+00	0	36	0	1939865600	69	4404
2026-01-01 06:53:27.59	326.90	10.23	-52.0	-53.4	16.7	0.00e+00	0	36	0	1943011328	69	4394
2026-01-01 06:53:28.58	326.81	10.16	-52.0	-53.4	16.7	0.00e+00	0	36	0	1946157056	69	4432
2026-01-01 06:53:29.59	326.71	10.09	-52.1	-53.6	16.6	0.00e+00	0	36	0	1949302784	69	4509
2026-01-01 06:53:30.58	326.62	10.02	-52.3	-53.7	16.5	0.00e+00	0	36	0	1952448512	69	4581
2026-01-01 06:53:31.58	326.52	9.94	-52.3	-53.8	16.5	0.00e+00	0	35	0	1955594240	69	4605
2026-01-01 06:53:32.58	326.42	9.87	-52.3	-53.8	16.5	0.00e+00	0	36	0	1957691392	69	4610
2026-01-01 06:53:33.58	326.33	9.80	-52.4	-53.9	16.5	0.00e+00	0	36	0	1960837120	69	4668
2026-01-01 06:53:34.58	326.24	9.72	-52.5	-54.0	16.4	0.00e+00	0	36	0	1963982848	70	4480
2026-01-01 06:53:35.57	326.14	9.65	-52.6	-54.1	16.4	0.00e+00	0	36	0	1967128576	70	4522
2026-01-01 06:53:36.57	326.05	9.58	-52.6	-54.2	16.3	0.00e+00	0	36	0	1970274304	70	4554
2026-01-01 06:53:37.57	325.96	9.51	-52.7	-54.2	16.3	0.00e+00	0	36	0	1973420032	70	4562
2026-01-01 06:53:38.57	325.87	9.44	-52.8	-54.3	16.2	0.00e+00	0	36	0	1976565760	70	4649
2026-01-01 06:53:39.56	325.78	9.36	-52.9	-54.5	16.1	0.00e+00	0	36	0	1979711488	71	4477
2026-01-01 06:53:40.55	325.69	9.29	-52.9	-54.5	16.1	0.00e+00	0	36	0	1982857216	71	4470
2026-01-01 06:53:41.55	325.59	9.22	-52.8	-54.4	16.2	0.00e+00	0	36	0	1986002944	71	4425
2026-01-01 06:53:42.54	325.50	9.15	-52.8	-54.3	16.2	0.00e+00	0	36	0	1989148672	71	4384
2026-01-01 06:53:43.54	325.42	9.08	-52.8	-54.4	16.2	0.00e+00	0	36	0	1992294400	71	4396
2026-01-01 06:53:44.54	325.33	9.01	-52.9	-54.4	16.1	0.00e+00	0	36	0	1995440128	71	4440
2026-01-01 06:53:45.54	325.24	8.94	-52.8	-54.4	16.1	0.00e+00	0	36	0	1998585856	71	4420
2026-01-01 06:53:46.53	325.15	8.87	-52.8	-54.4	16.2	0.00e+00	0	36	0	2001731584	71	4400
2026-01-01 06:53:47.51	325.06	8.80	-52.9	-54.4	16.1	0.00e+00	0	36	0	2004877312	71	4432
2026-01-01 06:53:48.51	324.98	8.73	-52.8	-54.4	16.2	0.00e+00	0	36	0	2008023040	71	4392
2026-01-01 06:53:49.50	324.89	8.66	-52.8	-54.3	16.2	0.00e+00	0	36	0	2011168768	71	4388
2026-01-01 06:53:50.50	324.80	8.59	-52.6	-54.2	16.3	0.00e+00	0	36	0	2014314496	71	4296
2026-01-01 06:53:51.49	324.72	8.52	-52.6	-54.2	16.3	0.00e+00	0	36	0	2017460224	71	4297
2026-01-01 06:53:52.49	324.63	8.45	-52.6	-54.1	16.3	0.00e+00	0	36	0	2020605952	71	4260
2026-01-01 06:53:53.49	324.55	8.38	-52.6	-54.1	16.3	0.00e+00	0	36	0	2023751680	71	4271
2026-01-01 06:53:54.49	324.46	8.31	-52.6	-54.1	16.3	0.00e+00	0	36	0	2026897408	71	4260
2026-01-01 06:53:55.49	324.38	8.24	-52.6	-54.1	16.3	0.00e+00	0	36	0	2030043136	71	4277
