passes_logs/2026/01/01/R3.2S_Murmansk/R3.2S_Murmansk__20260101_124142_ZKG05_rec.log

#Pass ID: 20260101_124142_ZKG05
#Satellite: ZKG05
#Configuration: ZKG05
#almurnet v.1.7.20251203
#Start time: 2026-01-01 12:41:43

#Version: 2.2.20231116
#Station: R3.2S_Murmansk
#Location: 33.079688 lon 68.888172 lat
#TLE: 1 65263U 25180E   25363.54303023  .00006586  00000-0  34273-3 0  9994
#TLE: 2 65263  97.4772 128.0191 0001674  87.3453 272.7971 15.16366041 20011

#Time	Az	El	Level	Level2	SNR	BER	BlckErr	Temp	State	Recorded	gain1	gain2
2026-01-01 12:41:43.30	20.96	2.05	-59.7	-62.9	6.2	0.00e+00	0	38	0	0	86	19987
2026-01-01 12:41:44.32	20.97	2.12	-59.7	-62.9	6.2	0.00e+00	0	38	104	0	86	19995
2026-01-01 12:41:45.33	20.99	2.19	-59.7	-62.9	6.2	0.00e+00	0	38	104	0	86	20012
2026-01-01 12:41:46.33	21.01	2.26	-59.7	-62.9	6.2	0.00e+00	0	38	104	0	86	19993
2026-01-01 12:41:47.34	21.03	2.33	-59.7	-62.9	6.2	0.00e+00	0	38	104	0	86	19991
2026-01-01 12:41:48.35	21.05	2.40	-59.7	-62.9	6.2	0.00e+00	0	38	104	0	86	19989
2026-01-01 12:41:49.36	21.07	2.47	-59.7	-62.9	6.2	0.00e+00	0	39	104	0	86	19952
2026-01-01 12:41:50.37	21.09	2.54	-59.7	-62.9	6.2	0.00e+00	0	39	104	0	86	20022
2026-01-01 12:41:51.38	21.11	2.61	-59.7	-62.9	6.2	0.00e+00	0	39	104	0	86	20037
2026-01-01 12:41:52.39	21.13	2.69	-59.7	-62.9	6.2	0.00e+00	0	39	104	0	86	20038
2026-01-01 12:41:53.40	21.15	2.76	-59.7	-62.9	6.2	0.00e+00	0	39	104	0	86	20071
2026-01-01 12:41:54.41	21.17	2.83	-59.7	-62.9	6.2	0.00e+00	0	39	104	0	86	20024
2026-01-01 12:41:55.41	21.19	2.90	-59.7	-62.9	6.2	0.00e+00	0	39	104	0	86	20056
2026-01-01 12:41:56.42	21.21	2.97	-59.7	-62.8	6.2	0.00e+00	0	39	104	0	86	19928
2026-01-01 12:41:57.43	21.23	3.05	-59.7	-62.9	6.2	0.00e+00	0	39	104	0	86	20081
2026-01-01 12:41:58.44	21.25	3.12	-59.7	-62.9	6.2	0.00e+00	0	39	104	0	86	20039
2026-01-01 12:41:59.44	21.27	3.19	-59.7	-62.9	6.2	0.00e+00	0	39	104	0	86	19997
2026-01-01 12:42:00.45	21.29	3.27	-59.7	-62.9	6.2	0.00e+00	0	39	104	0	86	20034
2026-01-01 12:42:01.46	21.31	3.34	-59.7	-62.9	6.2	0.00e+00	0	39	104	0	86	20070
2026-01-01 12:42:02.47	21.33	3.42	-59.7	-62.9	6.2	0.00e+00	0	39	104	0	86	19967
2026-01-01 12:42:03.48	21.35	3.49	-59.7	-62.9	6.2	0.00e+00	0	39	104	0	86	20075
2026-01-01 12:42:04.48	21.37	3.56	-59.7	-62.9	6.2	0.00e+00	0	39	104	0	86	20068
2026-01-01 12:42:05.49	21.39	3.64	-59.8	-62.9	6.2	0.00e+00	0	39	104	0	86	20057
2026-01-01 12:42:06.50	21.41	3.71	-59.7	-62.9	6.2	0.00e+00	0	39	104	0	86	20081
2026-01-01 12:42:07.51	21.43	3.79	-59.7	-62.9	6.2	0.00e+00	0	39	104	0	86	20059
2026-01-01 12:42:08.52	21.45	3.86	-59.7	-62.9	6.2	0.00e+00	0	40	104	0	86	20124
2026-01-01 12:42:09.52	21.47	3.94	-59.8	-62.9	6.2	0.00e+00	0	40	104	0	86	20068
2026-01-01 12:42:10.53	21.49	4.02	-59.7	-62.9	6.2	0.00e+00	0	40	104	0	86	20061
2026-01-01 12:42:11.54	21.51	4.09	-59.7	-62.9	6.2	0.00e+00	0	40	104	0	86	20114
2026-01-01 12:42:12.55	21.54	4.17	-59.7	-62.9	6.2	0.00e+00	0	40	104	0	86	20048
2026-01-01 12:42:13.56	21.56	4.25	-59.8	-62.9	6.2	0.00e+00	0	40	104	0	86	20027
2026-01-01 12:42:14.56	21.58	4.32	-59.7	-62.9	6.2	0.00e+00	0	40	104	0	86	20031
2026-01-01 12:42:15.57	21.60	4.40	-59.8	-62.9	6.2	0.00e+00	0	40	104	0	86	20057
2026-01-01 12:42:16.58	21.62	4.48	-59.8	-62.9	6.2	0.00e+00	0	40	104	0	86	20125
2026-01-01 12:42:17.59	21.64	4.56	-59.8	-62.9	6.2	0.00e+00	0	40	104	0	86	20087
2026-01-01 12:42:18.60	21.67	4.64	-59.8	-62.9	6.2	0.00e+00	0	40	104	0	86	20070
2026-01-01 12:42:19.61	21.69	4.72	-59.8	-62.9	6.2	0.00e+00	0	40	104	0	86	20058
2026-01-01 12:42:20.62	21.71	4.79	-59.7	-62.9	6.2	0.00e+00	0	40	104	0	86	20056
2026-01-01 12:42:21.62	21.73	4.87	-59.8	-62.9	6.2	0.00e+00	0	40	104	0	86	20118
2026-01-01 12:42:22.63	21.76	4.95	-59.8	-62.9	6.2	0.00e+00	0	40	104	0	86	20012
2026-01-01 12:42:23.64	21.78	5.03	-59.7	-62.9	6.2	0.00e+00	0	40	104	0	86	20050
2026-01-01 12:42:24.65	21.80	5.11	-59.8	-62.9	6.2	0.00e+00	0	40	104	0	86	20113
2026-01-01 12:42:25.65	21.82	5.19	-59.7	-62.9	6.2	0.00e+00	0	40	104	0	86	20056
2026-01-01 12:42:26.66	21.85	5.27	-59.8	-63.0	6.2	0.00e+00	0	40	104	0	86	20341
2026-01-01 12:42:27.67	21.87	5.36	-59.9	-63.1	6.2	0.00e+00	0	40	104	0	86	20485
2026-01-01 12:42:28.68	21.89	5.44	-59.8	-62.9	6.2	0.00e+00	0	40	104	0	86	20129
2026-01-01 12:42:29.68	21.92	5.52	-59.8	-62.9	6.2	0.00e+00	0	40	104	0	86	20111
2026-01-01 12:42:30.69	21.94	5.60	-59.9	-63.0	6.2	0.00e+00	0	40	104	0	86	20331
2026-01-01 12:42:31.70	21.96	5.68	-60.0	-63.1	6.2	0.00e+00	0	40	104	0	86	20528
2026-01-01 12:42:32.71	21.99	5.77	-59.8	-63.0	6.2	0.00e+00	0	40	104	0	86	20232
2026-01-01 12:42:33.71	22.01	5.85	-59.8	-62.9	6.2	0.00e+00	0	40	104	0	86	20115
2026-01-01 12:42:34.72	22.04	5.93	-59.9	-63.1	6.2	0.00e+00	0	40	104	0	86	20421
2026-01-01 12:42:35.72	22.06	6.02	-60.0	-63.2	6.2	0.00e+00	0	40	104	0	86	20642
2026-01-01 12:42:36.73	22.09	6.10	-59.8	-62.9	6.2	0.00e+00	0	40	104	0	86	20157
2026-01-01 12:42:37.74	22.11	6.19	-59.7	-62.8	6.2	0.00e+00	0	41	104	0	86	19925
2026-01-01 12:42:38.75	22.13	6.27	-59.9	-63.0	6.2	0.00e+00	0	40	104	0	86	20331
2026-01-01 12:42:39.76	22.16	6.36	-60.0	-63.2	6.2	0.00e+00	0	41	104	0	86	20667
2026-01-01 12:42:40.76	22.18	6.44	-59.8	-62.9	6.2	0.00e+00	0	41	104	0	86	20108
2026-01-01 12:42:41.77	22.21	6.53	-59.9	-63.0	6.2	0.00e+00	0	41	104	0	86	20381
2026-01-01 12:42:42.78	22.24	6.62	-60.0	-63.1	6.2	0.00e+00	0	41	104	0	86	20427
2026-01-01 12:42:43.79	22.26	6.70	-60.0	-63.2	6.2	0.00e+00	0	41	104	0	86	20782
2026-01-01 12:42:44.80	22.29	6.79	-59.9	-63.1	6.2	0.00e+00	0	41	104	0	86	20435
2026-01-01 12:42:45.80	22.31	6.88	-59.9	-63.1	6.2	0.00e+00	0	41	104	0	86	20454
2026-01-01 12:42:46.81	22.34	6.96	-60.0	-63.1	6.2	0.00e+00	0	41	104	0	86	20612
2026-01-01 12:42:47.82	22.36	7.05	-60.1	-63.2	6.2	0.00e+00	0	41	104	0	86	20793
2026-01-01 12:42:48.83	22.39	7.14	-59.9	-63.1	6.2	0.00e+00	0	41	104	0	86	20484
2026-01-01 12:42:49.84	22.42	7.23	-59.9	-63.1	6.2	0.00e+00	0	41	104	0	86	20534
2026-01-01 12:42:50.85	22.44	7.32	-60.0	-63.2	6.2	0.00e+00	0	41	104	0	86	20645
2026-01-01 12:42:51.85	22.47	7.41	-60.1	-63.2	6.2	0.00e+00	0	41	104	0	86	20871
2026-01-01 12:42:52.86	22.50	7.50	-60.0	-63.1	6.2	0.00e+00	0	41	104	0	86	20612
2026-01-01 12:42:53.86	22.52	7.59	-59.9	-63.1	6.2	0.00e+00	0	41	104	0	86	20547
2026-01-01 12:42:54.88	22.55	7.68	-60.0	-63.2	6.2	0.00e+00	0	41	104	0	86	20767
2026-01-01 12:42:55.88	22.58	7.78	-60.1	-63.3	6.2	0.00e+00	0	41	104	0	86	20980
2026-01-01 12:42:56.89	22.61	7.87	-60.0	-63.1	6.2	0.00e+00	0	41	104	0	86	20601
2026-01-01 12:42:57.90	22.63	7.96	-60.0	-63.2	6.2	0.00e+00	0	41	104	0	86	20712
2026-01-01 12:42:58.91	22.66	8.05	-60.1	-63.2	6.2	0.00e+00	0	41	104	0	86	20783
2026-01-01 12:42:59.91	22.69	8.15	-60.2	-63.3	6.2	0.00e+00	0	41	104	0	86	21013
2026-01-01 12:43:00.92	22.72	8.24	-60.0	-63.2	6.2	0.00e+00	0	41	104	0	86	20673
2026-01-01 12:43:01.93	22.75	8.34	-60.0	-63.2	6.2	0.00e+00	0	41	104	0	86	20705
2026-01-01 12:43:02.94	22.78	8.43	-60.1	-63.3	6.2	0.00e+00	0	41	104	0	86	20922
2026-01-01 12:43:03.95	22.81	8.53	-60.2	-63.3	6.2	0.00e+00	0	41	104	0	86	21081
2026-01-01 12:43:04.96	22.83	8.62	-60.0	-63.2	6.2	0.00e+00	0	41	104	0	86	20845
2026-01-01 12:43:05.97	22.86	8.72	-60.0	-63.2	6.2	0.00e+00	0	41	104	0	86	20777
2026-01-01 12:43:06.98	22.89	8.82	-60.1	-63.3	6.2	0.00e+00	0	41	104	0	86	20918
2026-01-01 12:43:07.99	22.92	8.91	-60.2	-63.4	6.2	0.00e+00	0	41	104	0	86	21133
2026-01-01 12:43:09.00	22.95	9.01	-60.1	-63.2	6.2	0.00e+00	0	41	104	0	86	20825
2026-01-01 12:43:10.00	22.98	9.11	-60.1	-63.2	6.2	0.00e+00	0	41	104	0	86	20850
2026-01-01 12:43:11.01	23.01	9.21	-60.2	-63.3	6.2	0.00e+00	0	41	104	0	86	21039
2026-01-01 12:43:12.01	23.04	9.31	-60.2	-63.4	6.2	0.00e+00	0	41	104	0	86	21219
2026-01-01 12:43:13.02	23.08	9.41	-60.1	-63.3	6.2	0.00e+00	0	41	104	0	86	20950
2026-01-01 12:43:14.03	23.11	9.51	-60.1	-63.3	6.2	0.00e+00	0	41	104	0	86	20967
2026-01-01 12:43:15.04	23.14	9.61	-60.2	-63.4	6.2	0.00e+00	0	41	104	0	86	21151
2026-01-01 12:43:16.05	23.17	9.71	-60.3	-63.4	6.2	0.00e+00	0	41	104	0	86	21262
2026-01-01 12:43:17.06	23.20	9.81	-60.1	-63.3	6.2	0.00e+00	0	41	104	0	86	20998
2026-01-01 12:43:18.07	23.23	9.92	-60.1	-63.3	6.2	0.00e+00	0	41	104	0	86	20973
2026-01-01 12:43:19.07	23.27	10.02	-60.2	-63.4	6.2	0.00e+00	0	41	104	0	86	21289
2026-01-01 12:43:20.08	23.30	10.12	-60.3	-63.4	6.2	0.00e+00	0	41	104	0	86	21337
2026-01-01 12:43:21.09	23.33	10.23	-60.2	-63.3	6.2	0.00e+00	0	41	104	0	86	21109
2026-01-01 12:43:22.09	23.36	10.33	-60.1	-63.4	6.2	0.00e+00	0	41	104	0	86	21131
2026-01-01 12:43:23.10	23.40	10.44	-60.3	-63.4	6.2	0.00e+00	0	42	104	0	86	21220
2026-01-01 12:43:24.11	23.43	10.54	-60.3	-63.4	6.2	0.00e+00	0	41	104	0	86	21332
2026-01-01 12:43:25.12	23.46	10.65	-60.2	-63.4	6.2	0.00e+00	0	41	104	0	86	21154
2026-01-01 12:43:26.13	23.50	10.76	-60.2	-63.4	6.2	0.00e+00	0	41	104	0	86	21170
2026-01-01 12:43:27.13	23.53	10.86	-60.3	-63.4	6.2	0.00e+00	0	41	104	0	86	21343
2026-01-01 12:43:28.14	23.57	10.97	-60.3	-63.5	6.2	0.00e+00	0	41	104	0	86	21522
2026-01-01 12:43:29.15	23.60	11.08	-60.2	-63.4	6.2	0.00e+00	0	41	104	0	86	21177
2026-01-01 12:43:30.16	23.64	11.19	-60.2	-63.4	6.2	0.00e+00	0	42	104	0	86	21254
2026-01-01 12:43:31.17	23.67	11.30	-60.3	-63.5	6.2	0.00e+00	0	41	104	0	86	21377
2026-01-01 12:43:32.18	23.71	11.41	-60.4	-63.5	6.2	0.00e+00	0	41	104	0	86	21539
2026-01-01 12:43:33.18	23.74	11.52	-60.2	-63.4	6.2	0.00e+00	0	41	104	0	86	21310
2026-01-01 12:43:34.19	23.78	11.63	-60.3	-63.4	6.2	0.00e+00	0	41	104	0	86	21307
2026-01-01 12:43:35.20	23.82	11.75	-60.3	-63.5	6.2	0.00e+00	0	41	104	0	86	21461
2026-01-01 12:43:36.21	23.85	11.86	-60.4	-63.5	6.2	0.00e+00	0	42	104	0	86	21548
2026-01-01 12:43:37.21	23.89	11.98	-60.3	-63.4	6.2	0.00e+00	0	42	104	0	86	21303
2026-01-01 12:43:38.22	23.93	12.09	-60.3	-63.5	6.2	0.00e+00	0	42	104	0	86	21393
2026-01-01 12:43:39.23	23.96	12.21	-60.4	-63.5	6.2	0.00e+00	0	42	104	0	86	21543
2026-01-01 12:43:40.24	24.00	12.32	-60.4	-63.6	6.2	0.00e+00	0	42	104	0	86	21613
2026-01-01 12:43:41.25	24.04	12.44	-60.3	-63.5	6.2	0.00e+00	0	42	104	0	86	21415
2026-01-01 12:43:42.25	24.08	12.56	-60.3	-63.5	6.2	0.00e+00	0	42	104	0	86	21429
2026-01-01 12:43:43.26	24.12	12.68	-60.4	-63.6	6.2	0.00e+00	0	42	104	0	86	21644
2026-01-01 12:43:44.27	24.16	12.79	-60.4	-63.6	6.2	0.00e+00	0	42	104	0	86	21666
2026-01-01 12:43:45.27	24.20	12.91	-60.3	-63.5	6.2	0.00e+00	0	42	104	0	86	21478
2026-01-01 12:43:46.28	24.24	13.03	-60.3	-63.5	6.2	0.00e+00	0	42	104	0	86	21508
2026-01-01 12:43:47.29	24.28	13.16	-60.4	-63.6	6.2	0.00e+00	0	42	104	0	86	21646
2026-01-01 12:43:48.30	24.32	13.28	-60.5	-63.6	6.2	0.00e+00	0	42	104	0	86	21713
2026-01-01 12:43:49.31	24.36	13.40	-60.3	-63.5	6.2	0.00e+00	0	42	104	0	86	21537
2026-01-01 12:43:50.32	24.40	13.53	-60.4	-63.6	6.2	0.00e+00	0	42	104	0	86	21653
2026-01-01 12:43:51.33	24.44	13.65	-60.5	-63.6	6.2	0.00e+00	0	42	104	0	86	21768
2026-01-01 12:43:52.34	24.49	13.78	-60.5	-63.6	6.2	0.00e+00	0	42	104	0	86	21752
2026-01-01 12:43:53.35	24.53	13.90	-60.4	-63.6	6.2	0.00e+00	0	42	104	0	86	21638
2026-01-01 12:43:54.35	24.57	14.03	-60.4	-63.6	6.2	0.00e+00	0	42	104	0	86	21688
2026-01-01 12:43:55.36	24.61	14.16	-60.5	-63.6	6.2	0.00e+00	0	42	104	0	86	21762
2026-01-01 12:43:56.37	24.66	14.29	-60.5	-63.6	6.2	0.00e+00	0	42	104	0	86	21838
2026-01-01 12:43:57.37	24.70	14.42	-60.4	-63.6	6.2	0.00e+00	0	42	104	0	86	21689
2026-01-01 12:43:58.38	24.75	14.55	-60.4	-63.6	6.2	0.00e+00	0	42	104	0	86	21675
2026-01-01 12:43:59.38	24.79	14.68	-60.5	-63.7	6.2	0.00e+00	0	42	104	0	86	21934
2026-01-01 12:44:00.39	24.84	14.81	-60.5	-63.7	6.2	0.00e+00	0	42	104	0	86	21929
2026-01-01 12:44:01.40	24.88	14.94	-60.4	-63.6	6.2	0.00e+00	0	42	104	0	86	21732
2026-01-01 12:44:02.41	24.93	15.08	-60.5	-63.6	6.2	0.00e+00	0	42	104	0	86	21782
2026-01-01 12:44:03.41	24.98	15.21	-60.5	-63.7	6.2	0.00e+00	0	42	104	0	86	21994
2026-01-01 12:44:04.42	25.02	15.35	-60.5	-63.7	6.2	0.00e+00	0	42	104	0	86	21951
2026-01-01 12:44:05.43	25.07	15.49	-60.4	-63.6	6.2	0.00e+00	0	42	104	0	86	21774
2026-01-01 12:44:06.44	25.12	15.63	-60.5	-63.6	6.2	0.00e+00	0	42	104	0	86	21840
2026-01-01 12:44:07.45	25.17	15.77	-60.6	-63.7	6.2	0.00e+00	0	42	104	0	86	22038
2026-01-01 12:44:08.45	25.22	15.90	-60.5	-63.7	6.2	0.00e+00	0	42	104	0	86	21997
2026-01-01 12:44:09.46	25.27	16.05	-60.5	-63.6	6.2	0.00e+00	0	42	104	0	86	21829
2026-01-01 12:44:10.46	25.31	16.19	-60.5	-63.7	6.2	0.00e+00	0	42	104	0	86	22018
2026-01-01 12:44:11.47	25.37	16.33	-60.6	-63.8	6.2	0.00e+00	0	42	104	0	86	22114
2026-01-01 12:44:12.47	25.42	16.47	-60.6	-63.7	6.2	0.00e+00	0	42	104	0	86	21988
2026-01-01 12:44:13.47	25.47	16.62	-60.5	-63.7	6.2	0.00e+00	0	42	104	0	86	21923
2026-01-01 12:44:14.48	25.52	16.76	-60.6	-63.7	6.2	0.00e+00	0	42	104	0	86	21984
2026-01-01 12:44:15.50	25.57	16.91	-60.6	-63.8	6.2	0.00e+00	0	42	104	0	86	22127
2026-01-01 12:44:16.50	25.63	17.06	-60.6	-63.7	6.2	0.00e+00	0	42	104	0	86	22086
2026-01-01 12:44:17.50	25.68	17.21	-60.5	-63.7	6.2	0.00e+00	0	42	104	0	86	21961
2026-01-01 12:44:18.51	25.73	17.36	-60.6	-63.7	6.2	0.00e+00	0	42	104	0	86	22033
2026-01-01 12:44:19.51	25.79	17.51	-60.6	-63.8	6.2	0.00e+00	0	42	104	0	86	22214
2026-01-01 12:44:20.52	25.84	17.67	-60.6	-63.7	6.2	0.00e+00	0	42	104	0	86	22095
2026-01-01 12:44:21.53	25.90	17.82	-60.5	-63.7	6.2	0.00e+00	0	42	104	0	86	21948
2026-01-01 12:44:22.53	25.96	17.98	-60.6	-63.7	6.2	0.00e+00	0	42	104	0	86	22023
2026-01-01 12:44:23.54	26.01	18.13	-60.6	-63.8	6.2	0.00e+00	0	42	104	0	86	22224
2026-01-01 12:44:24.55	26.07	18.29	-60.6	-63.8	6.2	0.00e+00	0	42	104	0	86	22161
2026-01-01 12:44:25.56	26.13	18.45	-60.6	-63.7	6.2	0.00e+00	0	42	104	0	86	22090
2026-01-01 12:44:26.57	26.19	18.61	-60.6	-63.8	6.2	0.00e+00	0	42	104	0	86	22180
2026-01-01 12:44:27.57	26.25	18.77	-60.7	-63.8	6.2	0.00e+00	0	42	104	0	86	22287
2026-01-01 12:44:28.58	26.31	18.94	-60.7	-63.8	6.2	0.00e+00	0	42	104	0	86	22269
2026-01-01 12:44:29.59	26.37	19.10	-60.6	-63.8	6.2	0.00e+00	0	42	104	0	86	22151
2026-01-01 12:44:30.59	26.43	19.27	-60.7	-63.8	6.2	0.00e+00	0	42	104	0	86	22308
2026-01-01 12:44:31.60	26.50	19.44	-60.7	-63.9	6.2	0.00e+00	0	42	104	0	86	22451
2026-01-01 12:44:32.61	26.56	19.60	-60.7	-63.9	6.2	0.00e+00	0	42	104	0	86	22380
2026-01-01 12:44:33.62	26.62	19.77	-60.6	-63.8	6.2	0.00e+00	0	42	104	0	86	22291
2026-01-01 12:44:34.63	26.69	19.95	-60.7	-63.8	6.2	0.00e+00	0	42	104	0	86	22358
2026-01-01 12:44:35.63	26.75	20.12	-60.7	-63.9	6.2	0.00e+00	0	42	104	0	86	22514
2026-01-01 12:44:36.64	26.82	20.29	-60.7	-63.9	6.2	0.00e+00	0	42	104	0	86	22384
2026-01-01 12:44:37.65	26.89	20.47	-60.7	-63.8	6.2	0.00e+00	0	42	104	0	86	22332
2026-01-01 12:44:38.66	26.96	20.65	-60.7	-63.9	6.2	0.00e+00	0	42	104	0	86	22442
2026-01-01 12:44:39.67	27.03	20.83	-60.8	-63.9	6.2	0.00e+00	0	42	104	0	86	22529
2026-01-01 12:44:40.67	27.10	21.01	-60.7	-63.9	6.2	0.00e+00	0	42	104	0	86	22495
2026-01-01 12:44:41.68	27.17	21.19	-60.7	-63.9	6.2	0.00e+00	0	42	104	0	86	22382
2026-01-01 12:44:42.69	27.24	21.37	-60.8	-63.9	6.2	0.00e+00	0	42	104	0	86	22553
2026-01-01 12:44:43.69	27.31	21.56	-60.8	-64.0	6.2	0.00e+00	0	42	104	0	86	22632
2026-01-01 12:44:44.70	27.39	21.75	-60.8	-63.9	6.2	0.00e+00	0	42	104	0	86	22513
2026-01-01 12:44:45.71	27.46	21.94	-60.7	-63.9	6.2	0.00e+00	0	42	104	0	86	22458
2026-01-01 12:44:46.72	27.54	22.13	-60.8	-63.9	6.2	0.00e+00	0	42	104	0	86	22578
2026-01-01 12:44:47.73	27.61	22.32	-60.8	-64.0	6.2	0.00e+00	0	42	104	0	87	21433
2026-01-01 12:44:48.74	27.69	22.51	-60.8	-63.9	6.2	0.00e+00	0	42	104	0	87	21320
2026-01-01 12:44:49.74	27.77	22.71	-60.7	-63.9	6.2	0.00e+00	0	42	104	0	87	21271
2026-01-01 12:44:50.74	27.85	22.90	-60.8	-63.9	6.2	0.00e+00	0	42	104	0	87	21284
2026-01-01 12:44:51.75	27.93	23.10	-60.8	-64.0	6.2	0.00e+00	0	42	104	0	87	21421
2026-01-01 12:44:52.76	28.01	23.31	-60.8	-63.9	6.2	0.00e+00	0	42	104	0	87	21286
2026-01-01 12:44:53.76	28.09	23.51	-60.8	-63.9	6.2	0.00e+00	0	42	104	0	87	21300
2026-01-01 12:44:54.77	28.18	23.71	-60.8	-64.0	6.2	0.00e+00	0	42	104	0	87	21489
2026-01-01 12:44:55.78	28.26	23.92	-60.9	-64.0	6.2	0.00e+00	0	42	104	0	87	21502
2026-01-01 12:44:56.79	28.35	24.13	-60.8	-64.0	6.2	0.00e+00	0	42	104	0	87	21433
2026-01-01 12:44:57.80	28.44	24.34	-60.8	-64.0	6.2	0.00e+00	0	42	104	0	87	21398
2026-01-01 12:44:58.80	28.52	24.55	-60.8	-64.0	6.2	0.00e+00	0	42	104	0	87	21539
2026-01-01 12:44:59.81	28.61	24.77	-60.9	-64.0	6.2	0.00e+00	0	42	104	0	87	21598
2026-01-01 12:45:00.82	28.71	24.99	-60.9	-64.0	6.2	0.00e+00	0	42	104	0	87	21519
2026-01-01 12:45:01.83	28.80	25.21	-60.8	-64.0	6.2	0.00e+00	0	42	104	0	87	21484
2026-01-01 12:45:02.84	28.89	25.43	-60.9	-64.0	6.2	0.00e+00	0	42	104	0	87	21522
2026-01-01 12:45:03.84	28.99	25.65	-60.9	-64.1	6.2	0.00e+00	0	42	104	0	87	21703
2026-01-01 12:45:04.85	29.09	25.88	-60.9	-64.0	6.2	0.00e+00	0	42	104	0	87	21537
2026-01-01 12:45:05.86	29.18	26.11	-60.9	-64.0	6.2	0.00e+00	0	42	104	0	87	21515
2026-01-01 12:45:06.87	29.28	26.34	-60.9	-64.1	6.2	0.00e+00	0	42	104	0	87	21629
2026-01-01 12:45:07.88	29.39	26.57	-60.9	-64.1	6.2	0.00e+00	0	42	104	0	87	21723
2026-01-01 12:45:08.89	29.49	26.81	-60.9	-64.1	6.2	0.00e+00	0	42	104	0	87	21636
2026-01-01 12:45:09.89	29.59	27.04	-60.9	-64.0	6.2	0.00e+00	0	42	104	0	87	21548
2026-01-01 12:45:10.90	29.70	27.28	-60.9	-64.1	6.2	0.00e+00	0	42	104	0	87	21687
2026-01-01 12:45:11.91	29.81	27.52	-61.0	-64.1	6.2	0.00e+00	0	42	104	0	87	21789
2026-01-01 12:45:12.91	29.92	27.77	-60.9	-64.1	6.2	0.00e+00	0	42	104	0	87	21680
2026-01-01 12:45:13.92	30.03	28.02	-60.9	-64.1	6.2	0.00e+00	0	42	104	0	87	21642
2026-01-01 12:45:14.93	30.14	28.27	-61.0	-64.1	6.2	0.00e+00	0	42	104	0	87	21777
2026-01-01 12:45:15.94	30.26	28.52	-61.0	-64.2	6.2	0.00e+00	0	42	104	0	87	21896
2026-01-01 12:45:16.95	30.38	28.77	-60.9	-64.1	6.2	0.00e+00	0	42	104	0	87	21684
2026-01-01 12:45:17.95	30.49	29.03	-60.9	-64.1	6.2	0.00e+00	0	42	104	0	87	21643
2026-01-01 12:45:18.96	30.62	29.29	-61.0	-64.1	6.2	0.00e+00	0	42	104	0	87	21817
2026-01-01 12:45:19.97	30.74	29.56	-61.0	-64.2	6.2	0.00e+00	0	42	104	0	87	21951
2026-01-01 12:45:20.98	30.87	29.82	-61.0	-64.1	6.2	0.00e+00	0	42	104	0	87	21770
2026-01-01 12:45:21.98	30.99	30.09	-61.0	-64.1	6.2	0.00e+00	0	42	104	0	87	21844
2026-01-01 12:45:22.99	31.12	30.36	-61.0	-64.2	6.2	0.00e+00	0	42	104	0	87	21879
2026-01-01 12:45:24.00	31.25	30.64	-61.1	-64.2	6.2	0.00e+00	0	42	104	0	87	21998
2026-01-01 12:45:25.01	31.39	30.91	-61.0	-64.1	6.2	0.00e+00	0	42	104	0	87	21813
2026-01-01 12:45:26.02	31.53	31.20	-61.0	-64.1	6.2	0.00e+00	0	42	104	0	87	21810
2026-01-01 12:45:27.03	31.67	31.48	-61.0	-64.2	6.2	0.00e+00	0	42	104	0	87	21934
2026-01-01 12:45:28.03	31.81	31.76	-61.1	-64.2	6.2	0.00e+00	0	42	104	0	87	22084
2026-01-01 12:45:29.04	31.95	32.05	-61.0	-64.2	6.2	0.00e+00	0	42	104	0	87	21905
2026-01-01 12:45:30.05	32.10	32.35	-61.0	-64.2	6.2	0.00e+00	0	42	104	0	87	21924
2026-01-01 12:45:31.06	32.25	32.65	-61.1	-64.2	6.2	0.00e+00	0	42	104	0	87	22071
2026-01-01 12:45:32.07	32.40	32.95	-61.1	-64.3	6.2	0.00e+00	0	42	104	0	87	22116
2026-01-01 12:45:33.08	32.56	33.25	-61.0	-64.2	6.2	0.00e+00	0	42	104	0	87	21990
2026-01-01 12:45:34.08	32.72	33.55	-61.0	-64.2	6.2	0.00e+00	0	42	104	0	87	21926
2026-01-01 12:45:35.09	32.88	33.86	-61.1	-64.2	6.2	0.00e+00	0	42	104	0	87	22103
2026-01-01 12:45:36.10	33.05	34.18	-61.1	-64.3	6.2	0.00e+00	0	42	104	0	87	22211
2026-01-01 12:45:37.11	33.22	34.49	-61.1	-64.2	6.2	0.00e+00	0	42	104	0	87	21994
2026-01-01 12:45:38.11	33.39	34.81	-61.1	-64.2	6.2	0.00e+00	0	42	104	0	87	22095
2026-01-01 12:45:39.12	33.56	35.13	-61.1	-64.3	6.2	0.00e+00	0	42	104	0	87	22170
2026-01-01 12:45:40.13	33.74	35.46	-61.1	-64.3	6.2	0.00e+00	0	42	104	0	87	22260
2026-01-01 12:45:41.14	33.93	35.79	-61.1	-64.2	6.2	0.00e+00	0	42	104	0	87	22094
2026-01-01 12:45:42.15	34.12	36.13	-61.1	-64.2	6.2	0.00e+00	0	42	104	0	87	22053
2026-01-01 12:45:43.15	34.31	36.46	-61.2	-64.3	6.2	0.00e+00	0	42	104	0	87	22293
2026-01-01 12:45:44.16	34.50	36.80	-61.2	-64.3	6.2	0.00e+00	0	42	104	0	87	22271
2026-01-01 12:45:45.17	34.70	37.15	-61.1	-64.3	6.2	0.00e+00	0	42	104	0	87	22226
2026-01-01 12:45:46.18	34.91	37.50	-61.1	-64.3	6.2	0.00e+00	0	42	104	0	87	22197
2026-01-01 12:45:47.18	35.11	37.85	-61.2	-64.3	6.2	0.00e+00	0	42	104	0	87	22309
2026-01-01 12:45:48.19	35.33	38.21	-61.2	-64.4	6.2	0.00e+00	0	42	104	0	87	22410
2026-01-01 12:45:49.20	35.55	38.57	-61.2	-64.3	6.2	0.00e+00	0	42	104	0	87	22269
2026-01-01 12:45:50.21	35.77	38.94	-61.2	-64.3	6.2	0.00e+00	0	42	104	0	87	22312
2026-01-01 12:45:51.22	36.00	39.30	-61.2	-64.4	6.2	0.00e+00	0	42	104	0	87	22428
2026-01-01 12:45:52.22	36.23	39.67	-61.2	-64.4	6.2	0.00e+00	0	42	104	0	87	22456
2026-01-01 12:45:53.23	36.47	40.05	-61.2	-64.3	6.2	0.00e+00	0	42	104	0	87	22272
2026-01-01 12:45:54.24	36.72	40.43	-61.2	-64.3	6.2	0.00e+00	0	42	104	0	87	22354
2026-01-01 12:45:55.25	36.97	40.82	-61.3	-64.4	6.2	0.00e+00	0	42	104	0	87	22517
2026-01-01 12:45:56.26	37.23	41.21	-61.2	-64.4	6.2	0.00e+00	0	42	104	0	87	22477
2026-01-01 12:45:57.26	37.49	41.60	-61.2	-64.3	6.2	0.00e+00	0	42	104	0	87	22337
2026-01-01 12:45:58.27	37.76	42.00	-61.2	-64.4	6.2	0.00e+00	0	42	104	0	87	22471
2026-01-01 12:45:59.28	38.04	42.40	-61.3	-64.4	6.2	0.00e+00	0	42	104	0	87	22577
2026-01-01 12:46:00.28	38.32	42.80	-61.3	-64.4	6.2	0.00e+00	0	42	104	0	87	22587
2026-01-01 12:46:01.30	38.62	43.22	-61.2	-64.4	6.2	0.00e+00	0	42	104	0	87	22456
2026-01-01 12:46:02.30	38.92	43.63	-61.3	-64.4	6.2	0.00e+00	0	42	104	0	87	22498
2026-01-01 12:46:03.31	39.23	44.05	-61.3	-64.4	6.2	0.00e+00	0	42	104	0	87	22597
2026-01-01 12:46:04.32	39.55	44.47	-61.3	-64.4	6.2	0.00e+00	0	42	104	0	87	22624
2026-01-01 12:46:05.33	39.87	44.90	-61.2	-64.4	6.2	0.00e+00	0	42	104	0	87	22450
2026-01-01 12:46:06.34	40.21	45.33	-61.3	-64.5	6.2	0.00e+00	0	42	104	0	87	22661
2026-01-01 12:46:07.35	40.55	45.77	-61.3	-64.5	6.2	0.00e+00	0	42	104	0	88	21395
2026-01-01 12:46:08.36	40.91	46.21	-61.3	-64.5	6.2	0.00e+00	0	42	104	0	88	21368
2026-01-01 12:46:09.36	41.27	46.65	-61.3	-64.4	6.2	0.00e+00	0	42	104	0	88	21182
2026-01-01 12:46:10.38	41.65	47.10	-61.3	-64.5	6.2	0.00e+00	0	42	104	0	88	21413
2026-01-01 12:46:11.38	42.03	47.55	-61.4	-64.5	6.2	0.00e+00	0	42	104	0	88	21513
2026-01-01 12:46:12.39	42.43	48.01	-61.3	-64.5	6.2	0.00e+00	0	43	104	0	88	21400
2026-01-01 12:46:13.40	42.84	48.47	-61.3	-64.4	6.2	0.00e+00	0	42	104	0	88	21351
2026-01-01 12:46:14.40	43.26	48.93	-61.4	-64.5	6.2	0.00e+00	0	42	104	0	88	21454
2026-01-01 12:46:15.41	43.70	49.40	-61.4	-64.6	6.2	0.00e+00	0	42	104	0	88	21633
2026-01-01 12:46:16.42	44.15	49.87	-61.4	-64.5	6.2	0.00e+00	0	42	104	0	88	21464
2026-01-01 12:46:17.43	44.62	50.34	-61.3	-64.5	6.2	0.00e+00	0	43	104	0	88	21390
2026-01-01 12:46:18.43	45.09	50.82	-61.4	-64.5	6.2	0.00e+00	0	42	104	0	88	21581
2026-01-01 12:46:19.43	45.58	51.30	-61.4	-64.6	6.2	0.00e+00	0	42	104	0	88	21651
2026-01-01 12:46:20.44	46.10	51.78	-61.4	-64.5	6.2	0.00e+00	0	42	104	0	88	21511
2026-01-01 12:46:21.45	46.63	52.27	-61.4	-64.5	6.2	0.00e+00	0	42	104	0	88	21454
2026-01-01 12:46:22.46	47.17	52.76	-61.4	-64.6	6.2	0.00e+00	0	42	104	0	88	21631
2026-01-01 12:46:23.47	47.74	53.26	-61.5	-64.6	6.2	0.00e+00	0	42	104	0	88	21726
2026-01-01 12:46:24.48	48.33	53.75	-61.4	-64.5	6.2	0.00e+00	0	42	104	0	88	21556
2026-01-01 12:46:25.49	48.94	54.25	-61.4	-64.6	6.2	0.00e+00	0	42	104	0	88	21615
2026-01-01 12:46:26.49	49.56	54.75	-61.5	-64.6	6.2	0.00e+00	0	42	104	0	88	21721
2026-01-01 12:46:27.50	50.21	55.25	-61.5	-64.6	6.2	0.00e+00	0	42	104	0	88	21747
2026-01-01 12:46:28.50	50.88	55.75	-61.4	-64.6	6.2	0.00e+00	0	42	104	0	88	21714
2026-01-01 12:46:29.51	51.58	56.26	-61.4	-64.6	6.2	0.00e+00	0	42	104	0	88	21686
2026-01-01 12:46:30.52	52.31	56.76	-61.5	-64.6	6.2	0.00e+00	0	42	104	0	88	21715
2026-01-01 12:46:31.53	53.06	57.27	-61.5	-64.6	6.2	0.00e+00	0	42	104	0	88	21850
2026-01-01 12:46:32.53	53.84	57.77	-61.5	-64.6	6.2	0.00e+00	0	43	104	0	88	21695
2026-01-01 12:46:33.53	54.64	58.27	-61.5	-64.6	6.2	0.00e+00	0	42	104	0	88	21738
2026-01-01 12:46:34.54	55.49	58.78	-61.5	-64.7	6.2	0.00e+00	0	42	104	0	88	21866
2026-01-01 12:46:35.55	56.37	59.29	-61.5	-64.7	6.2	0.00e+00	0	42	104	0	88	21924
2026-01-01 12:46:36.56	57.28	59.79	-61.5	-64.6	6.2	0.00e+00	0	42	104	0	88	21805
2026-01-01 12:46:37.57	58.23	60.29	-61.5	-64.7	6.2	0.00e+00	0	42	104	0	88	21857
2026-01-01 12:46:38.58	59.22	60.79	-61.5	-64.7	6.2	0.00e+00	0	42	104	0	88	21967
2026-01-01 12:46:39.58	60.24	61.28	-61.6	-64.7	6.2	0.00e+00	0	42	104	0	88	21957
2026-01-01 12:46:40.59	61.31	61.77	-61.5	-64.7	6.2	0.00e+00	0	43	104	0	88	21869
2026-01-01 12:46:41.60	62.42	62.25	-61.5	-64.7	6.2	0.00e+00	0	42	104	0	88	21937
2026-01-01 12:46:42.61	63.58	62.73	-61.6	-64.7	6.2	0.00e+00	0	42	104	0	88	21997
2026-01-01 12:46:43.61	64.77	63.20	-61.6	-64.7	6.2	0.00e+00	0	42	104	0	88	22039
2026-01-01 12:46:44.62	66.02	63.67	-61.5	-64.7	6.2	0.00e+00	0	42	104	0	88	21879
2026-01-01 12:46:45.62	67.32	64.12	-61.6	-64.7	6.2	0.00e+00	0	42	104	0	88	21996
2026-01-01 12:46:46.63	68.67	64.57	-61.6	-64.7	6.2	0.00e+00	0	42	104	0	88	22055
2026-01-01 12:46:47.64	70.08	65.01	-61.6	-64.7	6.2	0.00e+00	0	43	104	0	88	22036
2026-01-01 12:46:48.65	71.55	65.44	-61.5	-64.7	6.2	0.00e+00	0	42	104	0	88	21944
2026-01-01 12:46:49.65	73.06	65.85	-61.6	-64.7	6.2	0.00e+00	0	42	104	0	88	21997
2026-01-01 12:46:50.65	74.63	66.25	-61.6	-64.8	6.2	0.00e+00	0	42	104	0	88	22203
2026-01-01 12:46:51.65	76.25	66.63	-61.6	-64.7	6.2	0.00e+00	0	42	104	0	88	22037
2026-01-01 12:46:52.66	77.95	67.00	-61.6	-64.7	6.2	0.00e+00	0	42	104	0	88	22011
2026-01-01 12:46:53.67	79.71	67.36	-61.6	-64.7	6.2	0.00e+00	0	42	104	0	88	22026
2026-01-01 12:46:54.68	81.53	67.69	-61.6	-64.8	6.2	0.00e+00	0	42	104	0	88	22152
2026-01-01 12:46:55.68	83.39	68.00	-61.6	-64.8	6.2	0.00e+00	0	42	104	0	88	22212
2026-01-01 12:46:56.69	85.32	68.30	-61.6	-64.7	6.2	0.00e+00	0	42	104	0	88	22032
2026-01-01 12:46:57.69	87.29	68.57	-61.6	-64.7	6.2	0.00e+00	0	42	104	0	88	22070
2026-01-01 12:46:58.70	89.34	68.82	-61.6	-64.8	6.2	0.00e+00	0	42	104	0	88	22143
2026-01-01 12:46:59.71	91.43	69.04	-61.6	-64.7	6.2	0.00e+00	0	43	104	0	88	22102
2026-01-01 12:47:00.72	93.57	69.24	-61.6	-64.8	6.2	0.00e+00	0	42	104	0	88	22150
2026-01-01 12:47:01.73	95.75	69.41	-61.6	-64.8	6.2	0.00e+00	0	42	104	0	88	22153
2026-01-01 12:47:02.74	97.97	69.56	-61.7	-64.8	6.2	0.00e+00	0	43	104	0	88	22238
2026-01-01 12:47:03.74	100.20	69.67	-61.7	-64.8	6.2	0.00e+00	0	43	104	0	88	22298
2026-01-01 12:47:04.75	102.47	69.76	-61.6	-64.7	6.2	0.00e+00	0	43	104	0	88	22105
2026-01-01 12:47:05.75	104.74	69.81	-61.6	-64.8	6.2	0.00e+00	0	42	104	0	88	22234
2026-01-01 12:47:06.76	107.04	69.84	-61.7	-64.8	6.2	0.00e+00	0	42	104	0	88	22198
2026-01-01 12:47:07.77	109.35	69.84	-61.7	-64.8	6.2	0.00e+00	0	42	104	0	88	22260
2026-01-01 12:47:08.78	111.65	69.81	-61.6	-64.8	6.2	0.00e+00	0	43	104	0	88	22132
2026-01-01 12:47:09.79	113.94	69.74	-61.6	-64.8	6.2	0.00e+00	0	43	104	0	88	22132
2026-01-01 12:47:10.80	116.21	69.65	-61.7	-64.8	6.2	0.00e+00	0	42	104	0	88	22276
2026-01-01 12:47:11.80	118.43	69.53	-61.7	-64.8	6.2	0.00e+00	0	43	104	0	88	22248
2026-01-01 12:47:12.81	120.64	69.38	-61.6	-64.8	6.2	0.00e+00	0	43	104	0	88	22178
2026-01-01 12:47:13.81	122.80	69.21	-61.7	-64.8	6.2	0.00e+00	0	42	104	0	88	22214
2026-01-01 12:47:14.82	124.93	69.00	-61.7	-64.8	6.2	0.00e+00	0	42	104	0	88	22252
2026-01-01 12:47:15.83	127.02	68.77	-61.7	-64.8	6.2	0.00e+00	0	42	104	0	88	22234
2026-01-01 12:47:16.84	129.05	68.52	-61.6	-64.8	6.2	0.00e+00	0	43	104	0	88	22154
2026-01-01 12:47:17.84	131.02	68.25	-61.6	-64.8	6.2	0.00e+00	0	42	104	0	88	22189
2026-01-01 12:47:18.85	132.94	67.95	-61.6	-64.8	6.2	0.00e+00	0	43	104	0	88	22187
2026-01-01 12:47:19.86	134.81	67.63	-61.6	-64.8	6.2	0.00e+00	0	42	104	0	88	22205
2026-01-01 12:47:20.87	136.62	67.29	-61.6	-64.8	6.2	0.00e+00	0	42	104	0	88	22118
2026-01-01 12:47:21.89	138.39	66.93	-61.6	-64.8	6.2	0.00e+00	0	42	104	0	88	22152
2026-01-01 12:47:22.89	140.06	66.56	-61.6	-64.8	6.2	0.00e+00	0	42	104	0	88	22179
2026-01-01 12:47:23.90	141.69	66.17	-61.6	-64.8	6.2	0.00e+00	0	42	104	0	88	22178
2026-01-01 12:47:24.91	143.26	65.76	-61.6	-64.7	6.2	0.00e+00	0	42	104	0	88	22024
2026-01-01 12:47:25.91	144.76	65.35	-61.6	-64.7	6.2	0.00e+00	0	42	104	0	88	22064
2026-01-01 12:47:26.92	146.22	64.92	-61.6	-64.8	6.2	0.00e+00	0	43	104	0	88	22112
2026-01-01 12:47:27.93	147.62	64.47	-61.6	-64.8	6.2	0.00e+00	0	42	104	0	88	22225
2026-01-01 12:47:28.93	148.95	64.03	-61.6	-64.7	6.2	0.00e+00	0	43	104	0	88	22065
2026-01-01 12:47:29.94	150.25	63.57	-61.6	-64.7	6.2	0.00e+00	0	43	104	0	88	22079
2026-01-01 12:47:30.94	151.48	63.10	-61.6	-64.7	6.2	0.00e+00	0	42	104	0	88	22109
2026-01-01 12:47:31.95	152.68	62.63	-61.6	-64.8	6.2	0.00e+00	0	43	104	0	88	22167
2026-01-01 12:47:32.95	153.82	62.15	-61.6	-64.7	6.2	0.00e+00	0	43	104	0	88	22035
2026-01-01 12:47:33.96	154.92	61.66	-61.6	-64.7	6.2	0.00e+00	0	43	104	0	88	22075
2026-01-01 12:47:34.97	155.98	61.17	-61.6	-64.8	6.2	0.00e+00	0	43	104	0	88	22158
2026-01-01 12:47:35.98	157.00	60.67	-61.6	-64.8	6.2	0.00e+00	0	43	104	0	88	22201
2026-01-01 12:47:36.99	157.98	60.17	-61.6	-64.7	6.2	0.00e+00	0	43	104	0	88	22075
2026-01-01 12:47:38.00	158.93	59.67	-61.6	-64.7	6.2	0.00e+00	0	42	104	0	88	22085
2026-01-01 12:47:39.00	159.82	59.17	-61.6	-64.8	6.2	0.00e+00	0	42	104	0	88	22202
2026-01-01 12:47:40.02	160.71	58.66	-61.6	-64.8	6.2	0.00e+00	0	43	104	0	88	22147
2026-01-01 12:47:41.03	161.55	58.15	-61.6	-64.7	6.2	0.00e+00	0	43	104	0	88	21995
2026-01-01 12:47:42.03	162.34	57.65	-61.6	-64.7	6.2	0.00e+00	0	42	104	0	88	22079
2026-01-01 12:47:43.04	163.12	57.14	-61.6	-64.8	6.2	0.00e+00	0	42	104	0	88	22175
2026-01-01 12:47:44.05	163.87	56.63	-61.6	-64.8	6.2	0.00e+00	0	43	104	0	88	22160
2026-01-01 12:47:45.06	164.59	56.12	-61.6	-64.7	6.2	0.00e+00	0	42	104	0	88	21963
2026-01-01 12:47:46.06	165.28	55.62	-61.6	-64.7	6.2	0.00e+00	0	43	104	0	88	22057
2026-01-01 12:47:47.07	165.95	55.11	-61.6	-64.7	6.2	0.00e+00	0	42	104	0	88	22094
2026-01-01 12:47:48.08	166.60	54.61	-61.6	-64.7	6.2	0.00e+00	0	42	104	0	88	22004
2026-01-01 12:47:49.09	167.23	54.11	-61.6	-64.7	6.2	0.00e+00	0	42	104	0	88	22018
2026-01-01 12:47:50.10	167.83	53.61	-61.6	-64.7	6.2	0.00e+00	0	42	104	0	88	22001
2026-01-01 12:47:51.11	168.41	53.11	-61.6	-64.8	6.2	0.00e+00	0	43	104	0	88	22124
2026-01-01 12:47:52.11	168.97	52.62	-61.6	-64.7	6.2	0.00e+00	0	43	104	0	88	22026
2026-01-01 12:47:53.12	169.51	52.13	-61.5	-64.7	6.2	0.00e+00	0	42	104	0	88	21982
2026-01-01 12:47:54.13	170.04	51.64	-61.6	-64.7	6.2	0.00e+00	0	43	104	0	88	22006
2026-01-01 12:47:55.14	170.55	51.15	-61.6	-64.7	6.2	0.00e+00	0	43	104	0	88	21975
2026-01-01 12:47:56.15	171.04	50.67	-61.5	-64.7	6.2	0.00e+00	0	43	104	0	88	22012
2026-01-01 12:47:57.15	171.52	50.19	-61.5	-64.7	6.2	0.00e+00	0	42	104	0	88	21859
2026-01-01 12:47:58.16	171.98	49.72	-61.5	-64.7	6.2	0.00e+00	0	43	104	0	88	21904
2026-01-01 12:47:59.16	172.42	49.25	-61.6	-64.7	6.2	0.00e+00	0	43	104	0	88	21935
2026-01-01 12:48:00.17	172.86	48.78	-61.5	-64.7	6.2	0.00e+00	0	42	104	0	88	21944
2026-01-01 12:48:01.17	173.27	48.32	-61.5	-64.6	6.2	0.00e+00	0	43	104	0	88	21854
2026-01-01 12:48:02.18	173.68	47.86	-61.5	-64.6	6.2	0.00e+00	0	43	104	0	88	21841
2026-01-01 12:48:03.19	174.08	47.40	-61.5	-64.7	6.2	0.00e+00	0	42	104	0	88	21886
2026-01-01 12:48:04.20	174.46	46.95	-61.5	-64.6	6.2	0.00e+00	0	43	104	0	88	21826
2026-01-01 12:48:05.21	174.84	46.50	-61.5	-64.6	6.2	0.00e+00	0	43	104	0	88	21818
2026-01-01 12:48:06.22	175.20	46.06	-61.5	-64.6	6.2	0.00e+00	0	42	104	0	88	21797
2026-01-01 12:48:07.23	175.55	45.62	-61.5	-64.6	6.2	0.00e+00	0	43	104	0	88	21805
2026-01-01 12:48:08.24	175.90	45.18	-61.5	-64.6	6.2	0.00e+00	0	43	104	0	88	21723
2026-01-01 12:48:09.25	176.23	44.75	-61.4	-64.6	6.2	0.00e+00	0	42	104	0	88	21710
2026-01-01 12:48:10.25	176.55	44.32	-61.5	-64.6	6.2	0.00e+00	0	43	104	0	88	21782
2026-01-01 12:48:11.27	176.87	43.89	-61.5	-64.6	6.2	0.00e+00	0	42	104	0	88	21746
2026-01-01 12:48:12.27	177.18	43.48	-61.5	-64.6	6.2	0.00e+00	0	43	104	0	88	21715
2026-01-01 12:48:13.28	177.47	43.06	-61.4	-64.6	6.2	0.00e+00	0	43	104	0	88	21645
2026-01-01 12:48:14.28	177.76	42.66	-61.4	-64.6	6.2	0.00e+00	0	43	104	0	88	21650
2026-01-01 12:48:15.29	178.05	42.25	-61.4	-64.6	6.2	0.00e+00	0	42	104	0	88	21706
2026-01-01 12:48:16.29	178.32	41.85	-61.4	-64.6	6.2	0.00e+00	0	43	104	0	88	21629
2026-01-01 12:48:17.30	178.59	41.45	-61.4	-64.5	6.2	0.00e+00	0	42	104	0	88	21521
2026-01-01 12:48:18.30	178.85	41.06	-61.4	-64.6	6.2	0.00e+00	0	43	104	0	88	21621
2026-01-01 12:48:19.31	179.11	40.67	-61.4	-64.6	6.2	0.00e+00	0	42	104	0	88	21661
2026-01-01 12:48:20.32	179.36	40.28	-61.4	-64.5	6.2	0.00e+00	0	43	104	0	88	21583
2026-01-01 12:48:21.33	179.61	39.90	-61.4	-64.5	6.2	0.00e+00	0	42	104	0	88	21493
2026-01-01 12:48:22.33	179.84	39.53	-61.4	-64.5	6.2	0.00e+00	0	43	104	0	88	21502
2026-01-01 12:48:23.34	180.08	39.15	-61.4	-64.5	6.2	0.00e+00	0	43	104	0	88	21507
2026-01-01 12:48:24.34	180.30	38.79	-61.4	-64.5	6.2	0.00e+00	0	42	104	0	88	21493
2026-01-01 12:48:25.35	180.53	38.42	-61.3	-64.5	6.2	0.00e+00	0	43	104	0	88	21372
2026-01-01 12:48:26.36	180.74	38.06	-61.3	-64.5	6.2	0.00e+00	0	43	104	0	88	21452
2026-01-01 12:48:27.36	180.95	37.71	-61.4	-64.5	6.2	0.00e+00	0	43	104	0	88	21448
2026-01-01 12:48:28.37	181.16	37.35	-61.3	-64.5	6.2	0.00e+00	0	42	104	0	88	21389
2026-01-01 12:48:29.37	181.36	37.01	-61.3	-64.4	6.2	0.00e+00	0	43	104	0	88	21277
2026-01-01 12:48:30.38	181.56	36.66	-61.3	-64.5	6.2	0.00e+00	0	43	104	0	88	21390
2026-01-01 12:48:31.39	181.76	36.32	-61.3	-64.5	6.2	0.00e+00	0	43	104	0	88	21405
2026-01-01 12:48:32.39	181.95	35.98	-61.3	-64.5	6.2	0.00e+00	0	43	104	0	88	21391
2026-01-01 12:48:33.40	182.13	35.65	-61.3	-64.4	6.2	0.00e+00	0	42	104	0	88	21216
2026-01-01 12:48:34.41	182.32	35.32	-61.3	-64.4	6.2	0.00e+00	0	42	104	0	88	21278
2026-01-01 12:48:35.42	182.50	34.99	-61.3	-64.4	6.2	0.00e+00	0	43	104	0	88	21325
2026-01-01 12:48:36.42	182.67	34.67	-61.3	-64.4	6.2	0.00e+00	0	43	104	0	88	21157
2026-01-01 12:48:37.43	182.84	34.35	-61.2	-64.4	6.2	0.00e+00	0	43	104	0	88	21124
2026-01-01 12:48:38.44	183.01	34.03	-61.2	-64.4	6.2	0.00e+00	0	42	104	0	88	21185
2026-01-01 12:48:39.44	183.17	33.72	-61.3	-64.4	6.2	0.00e+00	0	43	104	0	88	21185
2026-01-01 12:48:40.45	183.34	33.41	-61.2	-64.4	6.2	0.00e+00	0	42	104	0	88	21156
2026-01-01 12:48:41.46	183.50	33.10	-61.2	-64.3	6.2	0.00e+00	0	42	104	0	88	21096
2026-01-01 12:48:42.47	183.65	32.80	-61.2	-64.4	6.2	0.00e+00	0	43	104	0	88	21169
2026-01-01 12:48:43.48	183.80	32.50	-61.2	-64.4	6.2	0.00e+00	0	42	104	0	88	21187
2026-01-01 12:48:44.47	183.95	32.21	-61.2	-64.3	6.2	0.00e+00	0	43	104	0	88	21038
2026-01-01 12:48:45.48	184.10	31.91	-61.2	-64.3	6.2	0.00e+00	0	42	104	0	88	20990
2026-01-01 12:48:46.49	184.24	31.62	-61.2	-64.3	6.2	0.00e+00	0	42	104	0	88	21006
2026-01-01 12:48:47.50	184.38	31.33	-61.2	-64.3	6.2	0.00e+00	0	42	104	0	88	21042
2026-01-01 12:48:48.50	184.52	31.05	-61.2	-64.3	6.2	0.00e+00	0	43	104	0	88	21064
2026-01-01 12:48:49.51	184.66	30.77	-61.1	-64.3	6.2	0.00e+00	0	42	104	0	88	20987
2026-01-01 12:48:50.51	184.79	30.50	-61.2	-64.3	6.2	0.00e+00	0	42	104	0	88	20991
2026-01-01 12:48:51.52	184.92	30.22	-61.2	-64.3	6.2	0.00e+00	0	42	104	0	88	20955
2026-01-01 12:48:52.53	185.05	29.95	-61.1	-64.2	6.2	0.00e+00	0	42	104	0	88	20857
2026-01-01 12:48:53.53	185.18	29.68	-61.1	-64.2	6.2	0.00e+00	0	42	104	0	88	20827
2026-01-01 12:48:54.54	185.31	29.41	-61.1	-64.3	6.2	0.00e+00	0	43	104	0	88	20887
2026-01-01 12:48:55.55	185.43	29.15	-61.1	-64.3	6.2	0.00e+00	0	43	104	0	88	20929
2026-01-01 12:48:56.55	185.55	28.89	-61.1	-64.2	6.2	0.00e+00	0	43	104	0	88	20803
2026-01-01 12:48:57.56	185.67	28.63	-61.1	-64.2	6.2	0.00e+00	0	43	104	0	88	20691
2026-01-01 12:48:58.57	185.78	28.38	-61.1	-64.2	6.2	0.00e+00	0	43	104	0	88	20756
2026-01-01 12:48:59.58	185.90	28.12	-61.1	-64.2	6.2	0.00e+00	0	43	104	0	88	20820
2026-01-01 12:49:00.59	186.01	27.87	-61.1	-64.2	6.2	0.00e+00	0	43	104	0	88	20810
2026-01-01 12:49:01.60	186.12	27.62	-61.0	-64.2	6.2	0.00e+00	0	43	104	0	88	20733
2026-01-01 12:49:02.61	186.23	27.38	-61.1	-64.2	6.2	0.00e+00	0	43	104	0	88	20678
2026-01-01 12:49:03.61	186.34	27.14	-61.1	-64.2	6.2	0.00e+00	0	43	104	0	88	20748
2026-01-01 12:49:04.62	186.45	26.90	-61.1	-64.2	6.2	0.00e+00	0	43	104	0	88	20710
2026-01-01 12:49:05.63	186.55	26.66	-61.0	-64.1	6.2	0.00e+00	0	42	104	0	88	20619
2026-01-01 12:49:06.64	186.65	26.42	-61.0	-64.2	6.2	0.00e+00	0	43	104	0	88	20659
2026-01-01 12:49:07.64	186.75	26.19	-61.0	-64.2	6.2	0.00e+00	0	42	104	0	88	20693
2026-01-01 12:49:08.65	186.85	25.96	-61.0	-64.2	6.2	0.00e+00	0	42	104	0	88	20638
2026-01-01 12:49:09.66	186.95	25.73	-61.0	-64.1	6.2	0.00e+00	0	42	104	0	88	20587
2026-01-01 12:49:10.67	187.05	25.51	-61.0	-64.1	6.2	0.00e+00	0	43	104	0	88	20603
2026-01-01 12:49:11.68	187.14	25.28	-61.0	-64.2	6.2	0.00e+00	0	42	104	0	88	20718
2026-01-01 12:49:12.69	187.24	25.06	-61.0	-64.1	6.2	0.00e+00	0	43	104	0	88	20542
2026-01-01 12:49:13.70	187.33	24.84	-61.0	-64.1	6.2	0.00e+00	0	43	104	0	88	20494
2026-01-01 12:49:14.71	187.42	24.62	-61.0	-64.1	6.2	0.00e+00	0	43	104	0	88	20585
2026-01-01 12:49:15.72	187.51	24.40	-61.0	-64.1	6.2	0.00e+00	0	42	104	0	88	20535
2026-01-01 12:49:16.73	187.60	24.19	-61.0	-64.1	6.2	0.00e+00	0	43	104	0	88	20499
2026-01-01 12:49:17.73	187.69	23.98	-60.9	-64.1	6.2	0.00e+00	0	43	104	0	88	20435
2026-01-01 12:49:18.74	187.77	23.77	-61.0	-64.1	6.2	0.00e+00	0	43	104	0	88	20496
2026-01-01 12:49:19.74	187.86	23.57	-60.9	-64.1	6.2	0.00e+00	0	42	104	0	88	20517
2026-01-01 12:49:20.75	187.94	23.36	-60.9	-64.1	6.2	0.00e+00	0	42	104	0	88	20478
2026-01-01 12:49:21.76	188.02	23.16	-60.9	-64.1	6.2	0.00e+00	0	43	104	0	88	20433
2026-01-01 12:49:22.77	188.11	22.95	-60.9	-64.1	6.2	0.00e+00	0	43	104	0	88	20423
2026-01-01 12:49:23.78	188.19	22.75	-60.9	-64.1	6.2	0.00e+00	0	42	104	0	88	20402
2026-01-01 12:49:24.78	188.26	22.56	-60.9	-64.1	6.2	0.00e+00	0	43	104	0	88	20411
2026-01-01 12:49:25.79	188.34	22.36	-60.9	-64.0	6.2	0.00e+00	0	42	104	0	88	20303
2026-01-01 12:49:26.79	188.42	22.17	-60.9	-64.0	6.2	0.00e+00	0	42	104	0	88	20332
2026-01-01 12:49:27.80	188.50	21.98	-60.9	-64.0	6.2	0.00e+00	0	42	104	0	88	20330
2026-01-01 12:49:28.81	188.57	21.78	-60.9	-64.0	6.2	0.00e+00	0	43	104	0	88	20324
2026-01-01 12:49:29.81	188.64	21.60	-60.9	-64.0	6.2	0.00e+00	0	43	104	0	88	20238
2026-01-01 12:49:30.82	188.72	21.41	-60.9	-64.0	6.2	0.00e+00	0	43	104	0	88	20234
2026-01-01 12:49:31.83	188.79	21.22	-60.9	-64.0	6.2	0.00e+00	0	43	104	0	88	20248
2026-01-01 12:49:32.84	188.86	21.04	-60.9	-64.0	6.2	0.00e+00	0	43	104	0	88	20241
2026-01-01 12:49:33.85	188.93	20.86	-60.8	-64.0	6.2	0.00e+00	0	43	104	0	88	20227
2026-01-01 12:49:34.86	189.00	20.67	-60.8	-64.0	6.2	0.00e+00	0	43	104	0	88	20233
2026-01-01 12:49:35.87	189.07	20.49	-60.8	-64.0	6.2	0.00e+00	0	43	104	0	88	20185
2026-01-01 12:49:36.87	189.14	20.32	-60.8	-64.0	6.2	0.00e+00	0	43	104	0	88	20186
2026-01-01 12:49:37.88	189.20	20.14	-60.8	-63.9	6.2	0.00e+00	0	43	104	0	88	20095
2026-01-01 12:49:38.89	189.27	19.97	-60.8	-63.9	6.2	0.00e+00	0	43	104	0	88	20136
2026-01-01 12:49:39.89	189.34	19.79	-60.8	-63.9	6.2	0.00e+00	0	43	104	0	88	20122
2026-01-01 12:49:40.90	189.40	19.62	-60.8	-63.9	6.2	0.00e+00	0	43	104	0	88	20152
2026-01-01 12:49:41.91	189.46	19.45	-60.8	-63.9	6.2	0.00e+00	0	43	104	0	88	20045
2026-01-01 12:49:42.91	189.53	19.28	-60.8	-63.9	6.2	0.00e+00	0	42	104	0	88	20106
2026-01-01 12:49:43.92	189.59	19.12	-60.8	-63.9	6.2	0.00e+00	0	43	104	0	88	20114
2026-01-01 12:49:44.93	189.65	18.95	-60.8	-63.9	6.2	0.00e+00	0	43	104	0	88	20088
2026-01-01 12:49:45.94	189.71	18.78	-60.8	-63.9	6.2	0.00e+00	0	43	104	0	88	19973
2026-01-01 12:49:46.95	189.77	18.62	-60.8	-63.9	6.2	0.00e+00	0	43	104	0	88	20003
2026-01-01 12:49:47.95	189.83	18.46	-60.7	-63.9	6.2	0.00e+00	0	43	104	0	88	20023
2026-01-01 12:49:48.96	189.89	18.30	-60.7	-63.9	6.2	0.00e+00	0	43	104	0	88	20021
2026-01-01 12:49:49.97	189.95	18.14	-60.7	-63.9	6.2	0.00e+00	0	43	104	0	88	19949
2026-01-01 12:49:50.97	190.01	17.98	-60.7	-63.9	6.2	0.00e+00	0	43	104	0	88	19952
2026-01-01 12:49:51.98	190.06	17.82	-60.7	-63.8	6.2	0.00e+00	0	43	104	0	88	19890
2026-01-01 12:49:52.99	190.12	17.67	-60.7	-63.8	6.2	0.00e+00	0	42	104	0	88	19873
2026-01-01 12:49:54.00	190.18	17.51	-60.7	-63.8	6.2	0.00e+00	0	43	104	0	88	19904
2026-01-01 12:49:55.00	190.23	17.36	-60.7	-63.8	6.2	0.00e+00	0	43	104	0	88	19861
2026-01-01 12:49:56.01	190.28	17.21	-60.7	-63.8	6.2	0.00e+00	0	42	104	0	88	19874
2026-01-01 12:49:57.02	190.34	17.06	-60.7	-63.8	6.2	0.00e+00	0	43	104	0	88	19892
2026-01-01 12:49:58.03	190.39	16.91	-60.7	-63.8	6.2	0.00e+00	0	43	104	0	88	19845
2026-01-01 12:49:59.04	190.45	16.76	-60.7	-63.8	6.2	0.00e+00	0	43	104	0	88	19784
2026-01-01 12:50:00.05	190.50	16.61	-60.7	-63.8	6.2	0.00e+00	0	43	104	0	88	19821
2026-01-01 12:50:01.06	190.55	16.46	-60.7	-63.8	6.2	0.00e+00	0	43	104	0	88	19830
2026-01-01 12:50:02.06	190.60	16.32	-60.6	-63.8	6.2	0.00e+00	0	43	104	0	87	20923
2026-01-01 12:50:03.07	190.65	16.17	-60.6	-63.8	6.2	0.00e+00	0	43	104	0	87	20945
2026-01-01 12:50:04.08	190.70	16.03	-60.6	-63.8	6.2	0.00e+00	0	42	104	0	87	20961
2026-01-01 12:50:05.09	190.75	15.89	-60.6	-63.8	6.2	0.00e+00	0	42	104	0	87	20978
2026-01-01 12:50:06.10	190.80	15.74	-60.6	-63.7	6.2	0.00e+00	0	42	104	0	87	20828
2026-01-01 12:50:07.11	190.85	15.60	-60.6	-63.8	6.2	0.00e+00	0	43	104	0	87	20914
2026-01-01 12:50:08.11	190.90	15.47	-60.6	-63.7	6.2	0.00e+00	0	43	104	0	87	20797
2026-01-01 12:50:09.12	190.94	15.33	-60.6	-63.8	6.2	0.00e+00	0	43	104	0	87	20905
2026-01-01 12:50:10.13	190.99	15.19	-60.6	-63.7	6.2	0.00e+00	0	43	104	0	87	20872
2026-01-01 12:50:11.14	191.04	15.05	-60.6	-63.7	6.2	0.00e+00	0	43	104	0	87	20788
2026-01-01 12:50:12.15	191.08	14.92	-60.6	-63.7	6.2	0.00e+00	0	43	104	0	87	20811
2026-01-01 12:50:13.15	191.13	14.78	-60.6	-63.7	6.2	0.00e+00	0	43	104	0	87	20798
2026-01-01 12:50:14.16	191.18	14.65	-60.5	-63.7	6.2	0.00e+00	0	42	104	0	87	20755
2026-01-01 12:50:15.16	191.22	14.52	-60.5	-63.7	6.2	0.00e+00	0	42	104	0	87	20683
2026-01-01 12:50:16.17	191.26	14.39	-60.5	-63.7	6.2	0.00e+00	0	43	104	0	87	20710
2026-01-01 12:50:17.19	191.31	14.25	-60.5	-63.7	6.2	0.00e+00	0	43	104	0	87	20704
2026-01-01 12:50:18.19	191.35	14.13	-60.5	-63.7	6.2	0.00e+00	0	43	104	0	87	20650
2026-01-01 12:50:19.20	191.40	14.00	-60.5	-63.7	6.2	0.00e+00	0	43	104	0	87	20660
2026-01-01 12:50:20.20	191.44	13.87	-60.5	-63.7	6.2	0.00e+00	0	43	104	0	87	20690
2026-01-01 12:50:21.22	191.48	13.74	-60.5	-63.7	6.2	0.00e+00	0	43	104	0	87	20641
2026-01-01 12:50:22.23	191.52	13.61	-60.5	-63.6	6.2	0.00e+00	0	43	104	0	87	20591
2026-01-01 12:50:23.24	191.57	13.49	-60.5	-63.6	6.2	0.00e+00	0	43	104	0	87	20577
2026-01-01 12:50:24.24	191.61	13.36	-60.5	-63.6	6.2	0.00e+00	0	43	104	0	87	20614
2026-01-01 12:50:25.25	191.65	13.24	-60.5	-63.6	6.2	0.00e+00	0	43	104	0	87	20514
2026-01-01 12:50:26.25	191.69	13.12	-60.4	-63.6	6.2	0.00e+00	0	43	104	0	87	20481
2026-01-01 12:50:27.27	191.73	12.99	-60.5	-63.6	6.2	0.00e+00	0	42	104	0	87	20467
2026-01-01 12:50:28.27	191.77	12.87	-60.4	-63.6	6.2	0.00e+00	0	43	104	0	87	20492
2026-01-01 12:50:29.28	191.81	12.75	-60.4	-63.6	6.2	0.00e+00	0	43	104	0	87	20457
2026-01-01 12:50:30.28	191.85	12.63	-60.4	-63.6	6.2	0.00e+00	0	43	104	0	87	20403
2026-01-01 12:50:31.29	191.88	12.51	-60.4	-63.6	6.2	0.00e+00	0	43	104	0	87	20438
2026-01-01 12:50:32.30	191.92	12.40	-60.4	-63.6	6.2	0.00e+00	0	43	104	0	87	20457
2026-01-01 12:50:33.31	191.96	12.28	-60.4	-63.6	6.2	0.00e+00	0	42	104	0	87	20463
2026-01-01 12:50:34.32	192.00	12.16	-60.4	-63.5	6.2	0.00e+00	0	42	104	0	87	20303
2026-01-01 12:50:35.32	192.04	12.04	-60.4	-63.5	6.2	0.00e+00	0	42	104	0	87	20379
2026-01-01 12:50:36.32	192.07	11.93	-60.4	-63.5	6.2	0.00e+00	0	43	104	0	87	20337
2026-01-01 12:50:37.33	192.11	11.81	-60.4	-63.5	6.2	0.00e+00	0	43	104	0	87	20265
2026-01-01 12:50:38.34	192.15	11.70	-60.3	-63.5	6.2	0.00e+00	0	43	104	0	87	20240
2026-01-01 12:50:39.34	192.18	11.59	-60.3	-63.5	6.2	0.00e+00	0	42	104	0	87	20251
2026-01-01 12:50:40.35	192.22	11.47	-60.3	-63.5	6.2	0.00e+00	0	42	104	0	87	20280
2026-01-01 12:50:41.37	192.26	11.36	-60.3	-63.5	6.2	0.00e+00	0	42	104	0	87	20221
2026-01-01 12:50:42.37	192.29	11.25	-60.3	-63.4	6.2	0.00e+00	0	42	104	0	87	20143
2026-01-01 12:50:43.38	192.33	11.14	-60.3	-63.4	6.2	0.00e+00	0	43	104	0	87	20132
2026-01-01 12:50:44.39	192.36	11.03	-60.3	-63.4	6.2	0.00e+00	0	43	104	0	87	20162
2026-01-01 12:50:45.39	192.39	10.92	-60.3	-63.5	6.2	0.00e+00	0	43	104	0	87	20182
2026-01-01 12:50:46.40	192.43	10.81	-60.3	-63.4	6.2	0.00e+00	0	43	104	0	87	20042
2026-01-01 12:50:47.41	192.46	10.70	-60.3	-63.4	6.2	0.00e+00	0	43	104	0	87	20062
2026-01-01 12:50:48.42	192.50	10.59	-60.3	-63.4	6.2	0.00e+00	0	43	104	0	87	20080
2026-01-01 12:50:49.43	192.53	10.49	-60.3	-63.4	6.2	0.00e+00	0	43	104	0	87	20035
2026-01-01 12:50:50.43	192.56	10.38	-60.2	-63.4	6.2	0.00e+00	0	43	104	0	87	20014
2026-01-01 12:50:51.44	192.60	10.27	-60.2	-63.4	6.2	0.00e+00	0	42	104	0	86	21196
2026-01-01 12:50:52.44	192.63	10.17	-60.2	-63.4	6.2	0.00e+00	0	43	104	0	86	21202
2026-01-01 12:50:53.45	192.66	10.06	-60.2	-63.4	6.2	0.00e+00	0	43	104	0	86	21195
2026-01-01 12:50:54.45	192.69	9.96	-60.2	-63.4	6.2	0.00e+00	0	42	104	0	86	21135
2026-01-01 12:50:55.46	192.73	9.86	-60.2	-63.3	6.2	0.00e+00	0	43	104	0	86	21070
2026-01-01 12:50:56.47	192.76	9.75	-60.2	-63.3	6.2	0.00e+00	0	43	104	0	86	21111
2026-01-01 12:50:57.48	192.79	9.65	-60.2	-63.3	6.2	0.00e+00	0	43	104	0	86	21020
2026-01-01 12:50:58.49	192.82	9.55	-60.2	-63.3	6.2	0.00e+00	0	43	104	0	86	21087
2026-01-01 12:50:59.50	192.85	9.45	-59.9	-63.3	6.2	0.00e+00	0	43	104	0	86	20964
2026-01-01 12:51:00.51	192.88	9.35	-60.2	-63.3	6.2	0.00e+00	0	43	104	0	86	21034
2026-01-01 12:51:01.51	192.91	9.25	-60.1	-63.3	6.2	0.00e+00	0	43	104	0	86	21008
2026-01-01 12:51:02.52	192.94	9.15	-60.1	-63.3	6.2	0.00e+00	0	43	104	0	86	20898
2026-01-01 12:51:03.53	192.97	9.05	-60.1	-63.3	6.2	0.00e+00	0	43	104	0	86	20891
2026-01-01 12:51:04.53	193.00	8.95	-60.1	-63.3	6.2	0.00e+00	0	43	104	0	86	20922
2026-01-01 12:51:05.54	193.03	8.85	-60.1	-63.2	6.2	0.00e+00	0	43	104	0	86	20817
2026-01-01 12:51:06.55	193.06	8.75	-60.1	-63.2	6.2	0.00e+00	0	43	104	0	86	20819
2026-01-01 12:51:07.56	193.09	8.65	-60.0	-63.2	6.2	0.00e+00	0	42	104	0	86	20696
2026-01-01 12:51:08.56	193.12	8.56	-60.1	-63.2	6.2	0.00e+00	0	43	104	0	86	20825
2026-01-01 12:51:09.56	193.15	8.46	-60.0	-63.2	6.2	0.00e+00	0	43	104	0	86	20751
2026-01-01 12:51:10.57	193.18	8.37	-60.0	-63.2	6.2	0.00e+00	0	43	104	0	86	20747
2026-01-01 12:51:11.58	193.21	8.27	-60.0	-63.1	6.2	0.00e+00	0	43	104	0	86	20581
2026-01-01 12:51:12.59	193.23	8.17	-60.1	-63.2	6.2	0.00e+00	0	43	104	0	86	20754
2026-01-01 12:51:13.59	193.26	8.08	-60.0	-63.1	6.2	0.00e+00	0	43	104	0	86	20605
2026-01-01 12:51:14.60	193.29	7.99	-60.0	-63.1	6.2	0.00e+00	0	42	104	0	85	21821
2026-01-01 12:51:15.61	193.32	7.89	-59.9	-63.1	6.2	0.00e+00	0	43	104	0	85	21650
2026-01-01 12:51:16.61	193.34	7.80	-60.0	-63.2	6.2	0.00e+00	0	43	104	0	85	21868
2026-01-01 12:51:17.62	193.37	7.71	-59.9	-63.1	6.2	0.00e+00	0	43	104	0	85	21669
2026-01-01 12:51:18.63	193.40	7.62	-59.9	-63.1	6.2	0.00e+00	0	43	104	0	85	21661
2026-01-01 12:51:19.64	193.43	7.52	-59.9	-63.0	6.2	0.00e+00	0	43	104	0	85	21594
2026-01-01 12:51:20.65	193.45	7.43	-60.0	-63.1	6.2	0.00e+00	0	43	104	0	85	21721
2026-01-01 12:51:21.65	193.48	7.34	-59.9	-63.0	6.2	0.00e+00	0	43	104	0	85	21498
2026-01-01 12:51:22.65	193.50	7.25	-59.9	-63.0	6.2	0.00e+00	0	43	104	0	85	21585
2026-01-01 12:51:23.66	193.53	7.16	-59.8	-63.0	6.2	0.00e+00	0	43	104	0	85	21446
2026-01-01 12:51:24.67	193.56	7.07	-59.9	-63.0	6.2	0.00e+00	0	43	104	0	85	21588
2026-01-01 12:51:25.68	193.58	6.98	-59.8	-63.0	6.2	0.00e+00	0	43	104	0	85	21467
2026-01-01 12:51:26.68	193.61	6.89	-59.9	-63.0	6.2	0.00e+00	0	43	104	0	85	21528
2026-01-01 12:51:27.69	193.63	6.80	-59.8	-62.9	6.2	0.00e+00	0	43	104	0	85	21300
2026-01-01 12:51:28.70	193.66	6.72	-59.9	-63.0	6.2	0.00e+00	0	43	104	0	85	21520
2026-01-01 12:51:29.70	193.68	6.63	-59.8	-62.9	6.2	0.00e+00	0	43	104	0	85	21243
2026-01-01 12:51:30.71	193.71	6.54	-59.8	-62.9	6.2	0.00e+00	0	43	104	0	85	21292
2026-01-01 12:51:31.72	193.73	6.45	-59.7	-62.9	6.2	0.00e+00	0	42	104	0	84	22448
2026-01-01 12:51:32.73	193.76	6.37	-59.8	-63.0	6.2	0.00e+00	0	43	104	0	85	21370
2026-01-01 12:51:33.74	193.78	6.28	-59.7	-62.9	6.2	0.00e+00	0	43	104	0	85	21127
2026-01-01 12:51:34.74	193.81	6.20	-59.7	-62.9	6.2	0.00e+00	0	43	104	0	85	21228
2026-01-01 12:51:35.75	193.83	6.11	-59.6	-62.8	6.2	0.00e+00	0	43	104	0	85	20916
2026-01-01 12:51:36.76	193.86	6.03	-59.8	-62.9	6.2	0.00e+00	0	43	104	0	85	21269
2026-01-01 12:51:37.77	193.88	5.94	-59.6	-62.8	6.2	0.00e+00	0	43	104	0	85	20972
2026-01-01 12:51:38.77	193.90	5.86	-59.7	-62.8	6.2	0.00e+00	0	43	104	0	85	21030
2026-01-01 12:51:39.77	193.93	5.77	-59.6	-62.7	6.2	0.00e+00	0	43	104	0	85	20697
2026-01-01 12:51:40.78	193.95	5.69	-59.7	-62.8	6.2	0.00e+00	0	43	104	0	85	21077
2026-01-01 12:51:41.79	193.98	5.61	-59.6	-62.7	6.2	0.00e+00	0	43	104	0	85	20813
2026-01-01 12:51:42.80	194.00	5.52	-59.5	-62.8	6.2	0.00e+00	0	43	104	0	85	20955
2026-01-01 12:51:43.81	194.02	5.44	-59.5	-62.6	6.2	0.00e+00	0	43	104	0	84	21795
2026-01-01 12:51:44.81	194.04	5.36	-59.7	-62.8	6.2	0.00e+00	0	43	104	0	84	22276
2026-01-01 12:51:45.81	194.07	5.28	-59.5	-62.6	6.2	0.00e+00	0	43	104	0	84	21816
2026-01-01 12:51:46.82	194.09	5.19	-59.6	-62.7	6.2	0.00e+00	0	43	104	0	84	21982
2026-01-01 12:51:47.83	194.11	5.11	-59.4	-62.5	6.2	0.00e+00	0	43	104	0	84	21583
2026-01-01 12:51:48.84	194.13	5.03	-59.6	-62.8	6.2	0.00e+00	0	43	104	0	84	22146
2026-01-01 12:51:49.85	194.16	4.95	-59.9	-63.0	6.2	0.00e+00	0	43	104	0	85	21447
2026-01-01 12:51:50.85	194.18	4.87	-60.4	-63.5	6.2	0.00e+00	0	43	104	0	86	21500
2026-01-01 12:51:51.87	194.20	4.79	-60.7	-63.9	6.2	0.00e+00	0	43	104	0	86	22433
2026-01-01 12:51:52.87	194.22	4.71	-60.9	-64.1	6.2	0.00e+00	0	43	104	0	87	21620
2026-01-01 12:51:53.88	194.25	4.63	-61.1	-64.3	6.2	0.00e+00	0	43	104	0	87	22117
2026-01-01 12:51:54.88	194.27	4.55	-61.2	-64.4	6.2	0.00e+00	0	42	104	0	87	22428
2026-01-01 12:51:55.89	194.29	4.47	-61.3	-64.5	6.2	0.00e+00	0	43	104	0	88	21385
2026-01-01 12:51:56.90	194.31	4.40	-61.5	-64.6	6.2	0.00e+00	0	43	104	0	88	21667
2026-01-01 12:51:57.90	194.33	4.32	-61.6	-64.7	6.2	0.00e+00	0	43	104	0	88	21982
2026-01-01 12:51:58.91	194.35	4.24	-61.6	-64.8	6.2	0.00e+00	0	43	104	0	88	22132
2026-01-01 12:51:59.92	194.37	4.16	-61.7	-64.8	6.2	0.00e+00	0	43	104	0	88	22267
2026-01-01 12:52:00.93	194.39	4.08	-61.7	-64.9	6.2	0.00e+00	0	43	104	0	88	22400
2026-01-01 12:52:01.94	194.42	4.01	-61.8	-64.9	6.2	0.00e+00	0	43	104	0	88	22482
2026-01-01 12:52:02.95	194.44	3.93	-61.8	-64.9	6.2	0.00e+00	0	43	104	0	88	22603
2026-01-01 12:52:03.96	194.46	3.85	-61.8	-64.9	6.2	0.00e+00	0	43	104	0	89	21349
2026-01-01 12:52:04.97	194.48	3.78	-61.9	-65.0	6.2	0.00e+00	0	43	104	0	89	21475
2026-01-01 12:52:05.98	194.50	3.70	-61.9	-65.0	6.2	0.00e+00	0	43	104	0	89	21503
2026-01-01 12:52:06.98	194.52	3.63	-61.9	-65.0	6.2	0.00e+00	0	43	104	0	89	21597
2026-01-01 12:52:07.99	194.54	3.55	-61.9	-65.1	6.2	0.00e+00	0	43	104	0	89	21639
2026-01-01 12:52:09.00	194.56	3.48	-61.9	-65.1	6.2	0.00e+00	0	43	104	0	89	21712
2026-01-01 12:52:10.01	194.58	3.40	-62.0	-65.1	6.2	0.00e+00	0	43	104	0	89	21702
2026-01-01 12:52:11.01	194.60	3.33	-62.0	-65.1	6.2	0.00e+00	0	43	104	0	89	21758
2026-01-01 12:52:12.03	194.62	3.25	-62.0	-65.2	6.2	0.00e+00	0	43	104	0	89	21900
2026-01-01 12:52:13.03	194.64	3.18	-62.0	-65.1	6.2	0.00e+00	0	43	104	0	89	21697
2026-01-01 12:52:14.04	194.66	3.10	-61.9	-65.1	6.2	0.00e+00	0	43	104	0	89	21659
2026-01-01 12:52:15.04	194.68	3.03	-61.9	-65.0	6.2	0.00e+00	0	43	104	0	89	21578
2026-01-01 12:52:16.05	194.70	2.96	-61.9	-65.1	6.2	0.00e+00	0	43	104	0	89	21637
2026-01-01 12:52:17.05	194.72	2.88	-61.9	-65.0	6.2	0.00e+00	0	43	104	0	89	21507
2026-01-01 12:52:18.06	194.73	2.81	-61.9	-65.0	6.2	0.00e+00	0	43	104	0	89	21525
2026-01-01 12:52:19.07	194.75	2.74	-61.9	-65.0	6.2	0.00e+00	0	43	104	0	89	21473
2026-01-01 12:52:20.08	194.77	2.67	-61.9	-65.0	6.2	0.00e+00	0	43	104	0	89	21521
2026-01-01 12:52:21.09	194.79	2.59	-61.9	-65.0	6.2	0.00e+00	0	43	104	0	89	21501
2026-01-01 12:52:22.10	194.81	2.52	-61.8	-65.0	6.2	0.00e+00	0	43	104	0	89	21461
2026-01-01 12:52:23.11	194.83	2.45	-61.8	-65.0	6.2	0.00e+00	0	43	104	0	89	21462
2026-01-01 12:52:24.12	194.85	2.38	-61.8	-64.9	6.2	0.00e+00	0	42	104	0	89	21358
2026-01-01 12:52:25.13	194.87	2.31	-61.8	-65.0	6.2	0.00e+00	0	43	104	0	89	21433
2026-01-01 12:52:26.14	194.88	2.24	-61.8	-65.0	6.2	0.00e+00	0	43	104	0	89	21413
2026-01-01 12:52:27.15	194.90	2.17	-61.8	-64.9	6.2	0.00e+00	0	43	104	0	89	21341
2026-01-01 12:52:28.15	194.92	2.10	-61.8	-65.0	6.2	0.00e+00	0	43	104	0	89	21363
2026-01-01 12:52:29.16	194.94	2.03	-61.8	-64.9	6.2	0.00e+00	0	43	104	0	89	21313
2026-01-01 12:52:30.17	194.96	1.96	-61.8	-64.9	6.2	0.00e+00	0	43	104	0	89	21241

#Closed at: 2026-01-01 12:52:30
#Recorded file [0 MB]: D:/lorett/data/31004_260101_154143.dat