passes_logs/2026/01/01/R3.2S_Murmansk/R3.2S_Murmansk__20260101_000355_NOAA_21_JPSS-2_rec.log

#Pass ID: 20260101_000355_NOAA 21 (JPSS-2)
#Satellite: NOAA 21 (JPSS-2)
#Configuration: NOAA-21
#almurnet v.1.7.20251203
#Start time: 2026-01-01 00:03:55

#Version: 2.2.20231116
#Station: R3.2S_Murmansk
#Location: 33.079688 lon 68.888172 lat
#TLE: 1 54234U 22150A   25365.56321383  .00000202  00000+0  11656-3 0  9995
#TLE: 2 54234  98.7483 301.6387 0001318 355.6519   4.4646 14.19530385162769

#Time	Az	El	Level	Level2	SNR	BER	BlckErr	Temp	State	Recorded	gain1	gain2
2026-01-01 00:03:55.00	22.37	1.99	-60.0	-73.5	3.8	1.49e+00	0	33	0	0	86	16776
2026-01-01 00:03:55.99	22.39	2.05	-60.0	-73.4	3.8	1.49e+00	0	33	104	0	85	17612
2026-01-01 00:03:56.99	22.41	2.12	-60.0	-73.4	3.9	1.49e+00	0	33	104	0	85	17597
2026-01-01 00:03:57.99	22.43	2.18	-60.0	-73.4	3.8	1.49e+00	0	33	104	0	85	17572
2026-01-01 00:03:59.00	22.45	2.24	-60.0	-73.3	3.8	1.49e+00	0	33	104	0	85	17432
2026-01-01 00:03:59.99	22.47	2.31	-60.0	-73.3	3.8	1.49e+00	0	34	104	0	85	17292
2026-01-01 00:04:00.99	22.49	2.37	-60.0	-73.2	3.8	1.49e+00	0	33	104	0	85	17152
2026-01-01 00:04:01.99	22.51	2.44	-60.0	-73.0	3.8	1.49e+00	0	33	104	0	85	16881
2026-01-01 00:04:02.99	22.53	2.50	-60.0	-73.0	3.8	1.49e+00	0	34	104	0	85	16836
2026-01-01 00:04:03.99	22.55	2.56	-60.0	-73.0	3.8	1.49e+00	0	33	104	0	85	16792
2026-01-01 00:04:05.00	22.58	2.63	-60.0	-72.9	3.8	1.49e+00	0	34	104	0	85	16641
2026-01-01 00:04:06.00	22.60	2.69	-60.0	-73.0	3.8	1.49e+00	0	34	104	0	85	16711
2026-01-01 00:04:07.00	22.62	2.76	-60.0	-72.8	3.8	1.49e+00	0	34	104	0	85	16482
2026-01-01 00:04:08.00	22.64	2.82	-60.0	-72.8	3.8	1.49e+00	0	34	104	0	85	16468
2026-01-01 00:04:09.00	22.66	2.89	-60.0	-72.7	3.8	1.49e+00	0	34	104	0	85	16182
2026-01-01 00:04:10.00	22.68	2.95	-59.9	-72.4	3.8	1.49e+00	0	34	104	0	85	15594
2026-01-01 00:04:11.00	22.70	3.02	-59.9	-72.2	3.8	1.49e+00	0	34	104	0	85	15288
2026-01-01 00:04:12.00	22.73	3.08	-59.9	-71.3	4.0	1.49e+00	0	34	104	0	85	13811
2026-01-01 00:04:13.00	22.75	3.15	-59.8	-71.0	3.9	1.47e+00	0	34	104	0	85	13374
2026-01-01 00:04:14.00	22.77	3.21	-59.8	-70.2	4.2	1.47e+00	0	34	104	0	85	12118
2026-01-01 00:04:14.99	22.79	3.28	-59.7	-70.3	3.9	1.46e+00	0	34	104	0	85	12281
2026-01-01 00:04:16.00	22.81	3.35	-59.7	-69.1	4.5	1.26e+00	0	34	104	0	85	10773
2026-01-01 00:04:16.99	22.84	3.41	-59.6	-69.6	4.0	1.08e+00	0	34	104	0	85	11415
2026-01-01 00:04:17.99	22.86	3.48	-59.6	-69.1	4.6	1.22e+00	0	34	104	0	85	10697
2026-01-01 00:04:18.99	22.88	3.55	-59.6	-69.6	4.0	1.03e+00	0	34	104	0	85	11381
2026-01-01 00:04:19.99	22.90	3.61	-59.7	-69.2	4.6	1.04e+00	3	34	104	0	85	10779
2026-01-01 00:04:20.98	22.92	3.68	-59.7	-69.7	4.0	1.18e+00	0	34	104	0	85	11520
2026-01-01 00:04:21.98	22.95	3.74	-59.6	-68.4	4.9	1.15e+00	0	34	104	0	85	9921
2026-01-01 00:04:22.97	22.97	3.81	-59.4	-67.5	5.4	5.74e-01	0	34	0	2097152	85	8948
2026-01-01 00:04:23.96	22.99	3.88	-59.2	-66.2	6.3	2.85e-01	0	34	0	5242880	84	8111
2026-01-01 00:04:24.96	23.01	3.95	-58.8	-64.8	7.5	1.03e-01	0	34	0	8388608	84	6913
2026-01-01 00:04:25.96	23.04	4.01	-58.2	-63.2	8.7	4.71e-02	0	34	0	11534336	83	6130
2026-01-01 00:04:26.96	23.06	4.08	-57.8	-62.3	9.6	9.01e-03	0	34	0	14680064	82	5845
2026-01-01 00:04:27.95	23.08	4.15	-57.4	-61.5	10.4	2.94e-03	0	34	0	17825792	81	5598
2026-01-01 00:04:28.95	23.11	4.22	-56.9	-60.5	11.3	4.07e-04	0	34	0	20971520	80	5288
2026-01-01 00:04:29.95	23.13	4.28	-56.4	-59.5	12.2	9.38e-05	0	34	0	24117248	79	5007
2026-01-01 00:04:30.95	23.15	4.35	-55.9	-58.7	12.8	1.14e-05	0	34	0	27262976	78	4855
2026-01-01 00:04:31.94	23.17	4.42	-55.6	-58.2	13.2	2.20e-06	0	34	0	30408704	77	4829
2026-01-01 00:04:32.94	23.20	4.49	-55.4	-57.9	13.4	0.00e+00	0	34	0	33554432	77	4681
2026-01-01 00:04:33.93	23.22	4.56	-55.4	-57.8	13.5	0.00e+00	0	34	0	36700160	77	4642
2026-01-01 00:04:34.93	23.24	4.63	-55.2	-57.5	13.7	0.00e+00	0	34	0	39845888	76	4756
2026-01-01 00:04:35.94	23.27	4.70	-55.1	-57.4	13.8	0.00e+00	0	34	0	42991616	76	4705
2026-01-01 00:04:36.94	23.29	4.77	-55.2	-57.5	13.7	0.00e+00	0	34	0	46137344	76	4754
2026-01-01 00:04:37.93	23.32	4.84	-55.2	-57.6	13.7	0.00e+00	0	34	0	49283072	76	4760
2026-01-01 00:04:38.93	23.34	4.91	-55.5	-58.0	13.4	7.00e-07	0	34	0	52428800	76	5009
2026-01-01 00:04:39.92	23.36	4.98	-55.8	-58.5	13.0	1.50e-06	0	34	0	55574528	76	5314
2026-01-01 00:04:40.93	23.39	5.05	-56.2	-59.1	12.5	6.80e-06	0	34	0	58720256	77	5358
2026-01-01 00:04:41.92	23.41	5.12	-54.3	-56.4	14.6	0.00e+00	0	34	0	61865984	75	4396
2026-01-01 00:04:42.92	23.44	5.19	-56.5	-59.6	12.0	2.20e-06	0	34	0	65011712	78	5392
2026-01-01 00:04:43.92	23.46	5.26	-58.8	-64.9	7.5	6.93e-03	0	34	0	68157440	82	7840
2026-01-01 00:04:44.92	23.49	5.33	-54.1	-56.1	14.8	0.00e+00	0	34	0	71303168	74	4494
2026-01-01 00:04:45.92	23.51	5.40	-58.5	-64.5	7.6	2.97e-04	0	34	0	74448896	82	7479
2026-01-01 00:04:46.91	23.53	5.47	-54.1	-56.0	14.8	2.82e-05	0	34	0	77594624	74	4475
2026-01-01 00:04:47.91	23.56	5.54	-53.9	-55.7	15.0	0.00e+00	0	34	0	80740352	74	4335
2026-01-01 00:04:48.90	23.58	5.61	-53.6	-55.5	15.2	0.00e+00	0	34	0	82837504	73	4448
2026-01-01 00:04:49.90	23.61	5.68	-53.5	-55.3	15.3	0.00e+00	0	34	0	85983232	73	4376
2026-01-01 00:04:50.91	23.63	5.76	-53.6	-55.4	15.3	0.00e+00	0	34	0	89128960	73	4419
2026-01-01 00:04:51.90	23.66	5.83	-53.6	-55.4	15.3	0.00e+00	0	34	0	92274688	73	4395
2026-01-01 00:04:52.90	23.68	5.90	-53.5	-55.4	15.3	0.00e+00	0	34	0	95420416	73	4392
2026-01-01 00:04:53.89	23.71	5.97	-53.6	-55.4	15.2	0.00e+00	0	35	0	98566144	73	4433
2026-01-01 00:04:54.90	23.73	6.05	-53.7	-55.5	15.2	0.00e+00	0	34	0	101711872	73	4468
2026-01-01 00:04:55.89	23.76	6.12	-53.5	-55.3	15.4	0.00e+00	0	34	0	104857600	73	4350
2026-01-01 00:04:56.89	23.79	6.19	-53.5	-55.3	15.4	0.00e+00	0	34	0	108003328	73	4349
2026-01-01 00:04:57.89	23.81	6.27	-53.4	-55.2	15.5	0.00e+00	0	35	0	111149056	73	4319
2026-01-01 00:04:58.89	23.84	6.34	-53.5	-55.2	15.5	0.00e+00	0	34	0	114294784	73	4328
2026-01-01 00:04:59.88	23.86	6.41	-53.3	-55.1	15.5	0.00e+00	0	35	0	117440512	73	4247
2026-01-01 00:05:00.88	23.89	6.49	-53.4	-55.2	15.5	0.00e+00	0	34	0	120586240	73	4296
2026-01-01 00:05:01.88	23.92	6.56	-53.4	-55.1	15.5	0.00e+00	0	34	0	123731968	73	4288
2026-01-01 00:05:02.88	23.94	6.64	-53.3	-55.0	15.6	0.00e+00	0	34	0	126877696	73	4230
2026-01-01 00:05:03.88	23.97	6.71	-53.3	-55.0	15.6	0.00e+00	0	35	0	130023424	73	4219
2026-01-01 00:05:04.87	23.99	6.79	-53.4	-55.1	15.5	0.00e+00	0	35	0	133169152	73	4277
2026-01-01 00:05:05.87	24.02	6.86	-53.3	-55.0	15.6	0.00e+00	0	35	0	136314880	73	4198
2026-01-01 00:05:06.87	24.05	6.94	-53.2	-54.9	15.7	0.00e+00	0	35	0	139460608	73	4175
2026-01-01 00:05:07.87	24.07	7.01	-53.1	-54.8	15.7	0.00e+00	0	35	0	142606336	72	4364
2026-01-01 00:05:08.86	24.10	7.09	-53.2	-54.8	15.7	0.00e+00	0	35	0	145752064	72	4383
2026-01-01 00:05:09.87	24.13	7.16	-53.2	-54.8	15.8	0.00e+00	0	34	0	148897792	72	4378
2026-01-01 00:05:10.87	24.16	7.24	-53.2	-54.9	15.7	0.00e+00	0	34	0	152043520	72	4411
2026-01-01 00:05:11.86	24.18	7.32	-53.2	-54.9	15.7	0.00e+00	0	35	0	155189248	72	4402
2026-01-01 00:05:12.86	24.21	7.39	-53.0	-54.7	15.9	0.00e+00	0	35	0	158334976	72	4299
2026-01-01 00:05:13.86	24.24	7.47	-53.0	-54.6	15.9	0.00e+00	0	35	0	161480704	72	4268
2026-01-01 00:05:14.85	24.27	7.55	-53.0	-54.6	15.9	0.00e+00	0	35	0	164626432	72	4263
2026-01-01 00:05:15.85	24.29	7.62	-53.1	-54.7	15.8	0.00e+00	0	35	0	167772160	72	4331
2026-01-01 00:05:16.84	24.32	7.70	-53.0	-54.6	15.9	0.00e+00	0	35	0	170917888	72	4260
2026-01-01 00:05:17.84	24.35	7.78	-53.1	-54.7	15.8	0.00e+00	0	35	0	174063616	72	4311
2026-01-01 00:05:18.84	24.38	7.86	-53.1	-54.8	15.8	0.00e+00	0	35	0	177209344	72	4346
2026-01-01 00:05:19.84	24.41	7.93	-52.9	-54.5	16.0	0.00e+00	0	35	0	180355072	72	4232
2026-01-01 00:05:20.84	24.43	8.01	-52.9	-54.4	16.0	0.00e+00	0	35	0	183500800	72	4193
2026-01-01 00:05:21.84	24.46	8.09	-52.8	-54.4	16.1	0.00e+00	0	35	0	186646528	72	4169
2026-01-01 00:05:22.84	24.49	8.17	-52.7	-54.3	16.1	0.00e+00	0	35	0	189792256	72	4123
2026-01-01 00:05:23.83	24.52	8.25	-52.8	-54.4	16.1	0.00e+00	0	35	0	192937984	72	4167
2026-01-01 00:05:24.83	24.55	8.33	-52.8	-54.3	16.1	0.00e+00	0	34	0	195035136	72	4143
2026-01-01 00:05:25.83	24.58	8.41	-52.7	-54.3	16.1	0.00e+00	0	35	0	198180864	72	4117
2026-01-01 00:05:26.82	24.61	8.49	-52.8	-54.3	16.2	0.00e+00	0	35	0	201326592	72	4141
2026-01-01 00:05:27.82	24.64	8.57	-52.7	-54.2	16.2	0.00e+00	0	35	0	204472320	71	4317
2026-01-01 00:05:28.81	24.67	8.65	-52.7	-54.2	16.2	0.00e+00	0	35	0	207618048	71	4333
2026-01-01 00:05:29.80	24.70	8.73	-52.6	-54.1	16.3	0.00e+00	0	35	0	210763776	71	4267
2026-01-01 00:05:30.80	24.73	8.81	-52.6	-54.1	16.2	0.00e+00	0	35	0	213909504	71	4278
2026-01-01 00:05:31.79	24.76	8.89	-52.6	-54.1	16.3	0.00e+00	0	35	0	217055232	71	4253
2026-01-01 00:05:32.79	24.79	8.97	-52.5	-54.0	16.3	0.00e+00	0	35	0	220200960	71	4224
2026-01-01 00:05:33.78	24.82	9.05	-52.6	-54.2	16.2	0.00e+00	0	35	0	223346688	71	4293
2026-01-01 00:05:34.78	24.85	9.13	-52.5	-53.9	16.4	0.00e+00	0	35	0	226492416	71	4188
2026-01-01 00:05:35.77	24.88	9.22	-52.6	-54.1	16.3	0.00e+00	0	35	0	229638144	71	4269
2026-01-01 00:05:36.77	24.91	9.30	-52.4	-53.9	16.4	0.00e+00	0	35	0	232783872	71	4176
2026-01-01 00:05:37.76	24.94	9.38	-52.4	-53.9	16.4	0.00e+00	0	35	0	235929600	71	4146
2026-01-01 00:05:38.75	24.97	9.46	-52.3	-53.8	16.5	0.00e+00	0	35	0	239075328	71	4120
2026-01-01 00:05:39.76	25.00	9.55	-52.3	-53.8	16.5	0.00e+00	0	35	0	242221056	71	4121
2026-01-01 00:05:40.76	25.03	9.63	-52.3	-53.7	16.5	0.00e+00	0	35	0	245366784	71	4094
2026-01-01 00:05:41.76	25.06	9.71	-52.3	-53.7	16.5	0.00e+00	0	35	0	248512512	71	4079
2026-01-01 00:05:42.76	25.09	9.80	-52.2	-53.7	16.5	0.00e+00	0	35	0	251658240	71	4053
2026-01-01 00:05:43.76	25.12	9.88	-52.2	-53.7	16.6	0.00e+00	0	35	0	254803968	70	4300
2026-01-01 00:05:44.76	25.16	9.97	-52.2	-53.6	16.6	0.00e+00	0	35	0	257949696	70	4276
2026-01-01 00:05:45.76	25.19	10.05	-52.1	-53.5	16.6	0.00e+00	0	35	0	261095424	70	4238
2026-01-01 00:05:46.76	25.22	10.14	-52.2	-53.6	16.6	0.00e+00	0	35	0	264241152	70	4265
2026-01-01 00:05:47.76	25.25	10.22	-52.2	-53.7	16.5	0.00e+00	0	35	0	267386880	70	4299
2026-01-01 00:05:48.75	25.29	10.31	-52.3	-53.7	16.5	0.00e+00	0	35	0	270532608	70	4322
2026-01-01 00:05:49.75	25.32	10.40	-52.1	-53.5	16.6	0.00e+00	0	35	0	273678336	70	4222
2026-01-01 00:05:50.75	25.35	10.48	-52.1	-53.5	16.7	0.00e+00	0	35	0	276824064	70	4231
2026-01-01 00:05:51.74	25.38	10.57	-52.1	-53.6	16.6	0.00e+00	0	35	0	279969792	70	4251
2026-01-01 00:05:52.74	25.42	10.66	-52.1	-53.6	16.6	0.00e+00	0	35	0	283115520	70	4247
2026-01-01 00:05:53.74	25.45	10.74	-52.0	-53.5	16.7	0.00e+00	0	35	0	286261248	70	4195
2026-01-01 00:05:54.74	25.48	10.83	-52.0	-53.4	16.7	0.00e+00	0	35	0	289406976	70	4182
2026-01-01 00:05:55.74	25.52	10.92	-52.0	-53.4	16.7	0.00e+00	0	35	0	292552704	70	4185
2026-01-01 00:05:56.75	25.55	11.01	-52.0	-53.4	16.8	0.00e+00	0	35	0	295698432	70	4152
2026-01-01 00:05:57.75	25.59	11.10	-51.9	-53.3	16.7	0.00e+00	0	35	0	298844160	70	4140
2026-01-01 00:05:58.75	25.62	11.19	-52.0	-53.4	16.7	0.00e+00	0	35	0	301989888	70	4160
2026-01-01 00:05:59.74	25.65	11.27	-51.9	-53.3	16.8	0.00e+00	0	35	0	305135616	70	4122
2026-01-01 00:06:00.74	25.69	11.36	-51.9	-53.3	16.7	0.00e+00	0	35	0	307232768	70	4127
2026-01-01 00:06:01.74	25.72	11.45	-51.8	-53.1	16.9	0.00e+00	0	35	0	310378496	70	4036
2026-01-01 00:06:02.74	25.76	11.54	-51.8	-53.2	16.9	0.00e+00	0	35	0	313524224	70	4058
2026-01-01 00:06:03.74	25.79	11.64	-51.8	-53.1	16.8	0.00e+00	0	35	0	316669952	70	4040
2026-01-01 00:06:04.73	25.83	11.73	-51.7	-53.0	16.9	0.00e+00	0	35	0	319815680	69	4216
2026-01-01 00:06:05.74	25.86	11.82	-51.7	-53.1	16.9	0.00e+00	0	35	0	322961408	69	4260
2026-01-01 00:06:06.75	25.90	11.91	-51.7	-53.0	16.9	0.00e+00	0	35	0	326107136	69	4229
2026-01-01 00:06:07.74	25.94	12.00	-51.6	-53.0	17.0	0.00e+00	0	35	0	329252864	69	4203
2026-01-01 00:06:08.74	25.97	12.09	-51.6	-52.9	17.0	0.00e+00	0	35	0	332398592	69	4166
2026-01-01 00:06:09.74	26.01	12.19	-51.6	-52.9	17.0	0.00e+00	0	35	0	335544320	69	4178
2026-01-01 00:06:10.75	26.05	12.28	-51.6	-52.9	17.0	0.00e+00	0	35	0	338690048	69	4160
2026-01-01 00:06:11.74	26.08	12.37	-51.5	-52.9	17.0	0.00e+00	0	35	0	341835776	69	4149
2026-01-01 00:06:12.73	26.12	12.47	-51.6	-52.9	17.0	0.00e+00	0	35	0	344981504	69	4189
2026-01-01 00:06:13.73	26.16	12.56	-51.5	-52.9	17.0	0.00e+00	0	35	0	348127232	69	4154
2026-01-01 00:06:14.72	26.19	12.65	-51.5	-52.8	17.1	0.00e+00	0	35	0	351272960	69	4129
2026-01-01 00:06:15.73	26.23	12.75	-51.5	-52.8	17.0	0.00e+00	0	35	0	354418688	69	4121
2026-01-01 00:06:16.72	26.27	12.84	-51.5	-52.8	17.0	0.00e+00	0	35	0	357564416	69	4130
2026-01-01 00:06:17.72	26.31	12.94	-51.5	-52.8	17.0	0.00e+00	0	35	0	360710144	69	4114
2026-01-01 00:06:18.72	26.34	13.03	-51.5	-52.8	17.0	0.00e+00	0	35	0	363855872	69	4136
2026-01-01 00:06:19.72	26.38	13.13	-51.6	-52.9	17.0	0.00e+00	0	35	0	367001600	69	4182
2026-01-01 00:06:20.72	26.42	13.23	-51.5	-52.8	17.0	0.00e+00	0	35	0	370147328	69	4142
2026-01-01 00:06:21.71	26.46	13.32	-51.4	-52.7	17.1	0.00e+00	0	35	0	373293056	69	4090
2026-01-01 00:06:22.71	26.50	13.42	-51.4	-52.7	17.1	0.00e+00	0	35	0	376438784	69	4086
2026-01-01 00:06:23.71	26.54	13.52	-51.4	-52.7	17.1	0.00e+00	0	35	0	379584512	69	4065
2026-01-01 00:06:24.71	26.58	13.62	-51.3	-52.6	17.2	0.00e+00	0	35	0	382730240	69	4019
2026-01-01 00:06:25.70	26.62	13.71	-51.3	-52.6	17.2	0.00e+00	0	35	0	385875968	69	4027
2026-01-01 00:06:26.69	26.66	13.81	-51.3	-52.6	17.2	0.00e+00	0	35	0	389021696	69	4031
2026-01-01 00:06:27.69	26.70	13.91	-51.4	-52.7	17.1	0.00e+00	0	35	0	392167424	69	4089
2026-01-01 00:06:28.68	26.74	14.01	-51.2	-52.5	17.2	0.00e+00	0	35	0	395313152	69	3970
2026-01-01 00:06:29.67	26.78	14.11	-51.4	-52.7	17.2	0.00e+00	0	35	0	398458880	69	4062
2026-01-01 00:06:30.66	26.82	14.21	-51.2	-52.4	17.3	0.00e+00	0	35	0	401604608	69	3958
2026-01-01 00:06:31.67	26.86	14.31	-51.1	-52.4	17.3	0.00e+00	0	35	0	404750336	68	4169
2026-01-01 00:06:32.66	26.90	14.41	-51.2	-52.5	17.2	0.00e+00	0	35	0	407896064	68	4223
2026-01-01 00:06:33.66	26.94	14.51	-51.2	-52.5	17.2	0.00e+00	0	35	0	411041792	68	4218
2026-01-01 00:06:34.65	26.98	14.61	-51.2	-52.5	17.2	0.00e+00	0	35	0	414187520	68	4196
2026-01-01 00:06:35.65	27.03	14.72	-51.3	-52.6	17.2	0.00e+00	0	35	0	417333248	68	4251
2026-01-01 00:06:36.65	27.07	14.82	-51.3	-52.6	17.2	0.00e+00	0	35	0	419430400	68	4266
2026-01-01 00:06:37.64	27.11	14.92	-51.3	-52.6	17.2	0.00e+00	0	35	0	422576128	68	4243
2026-01-01 00:06:38.63	27.15	15.02	-51.5	-52.8	17.1	0.00e+00	0	35	0	425721856	68	4352
2026-01-01 00:06:39.63	27.20	15.13	-51.4	-52.7	17.2	0.00e+00	0	35	0	428867584	68	4298
2026-01-01 00:06:40.62	27.24	15.23	-51.3	-52.6	17.2	0.00e+00	0	35	0	432013312	68	4257
2026-01-01 00:06:41.62	27.29	15.34	-51.4	-52.7	17.2	0.00e+00	0	35	0	435159040	68	4316
2026-01-01 00:06:42.61	27.33	15.44	-51.4	-52.7	17.2	0.00e+00	0	35	0	438304768	68	4325
2026-01-01 00:06:43.62	27.37	15.55	-51.5	-52.8	17.1	0.00e+00	0	35	0	441450496	68	4366
2026-01-01 00:06:44.62	27.42	15.66	-51.5	-52.8	17.1	0.00e+00	0	35	0	444596224	68	4385
2026-01-01 00:06:45.62	27.46	15.76	-51.4	-52.7	17.2	0.00e+00	0	35	0	447741952	68	4311
2026-01-01 00:06:46.61	27.51	15.87	-51.4	-52.7	17.2	0.00e+00	0	35	0	450887680	68	4303
2026-01-01 00:06:47.61	27.55	15.98	-51.4	-52.6	17.2	0.00e+00	0	35	0	454033408	68	4289
2026-01-01 00:06:48.61	27.60	16.08	-51.4	-52.6	17.2	0.00e+00	0	35	0	457179136	68	4283
2026-01-01 00:06:49.60	27.65	16.19	-51.3	-52.6	17.2	0.00e+00	0	35	0	460324864	68	4282
2026-01-01 00:06:50.60	27.69	16.30	-51.4	-52.7	17.2	0.00e+00	0	35	0	463470592	68	4293
2026-01-01 00:06:51.60	27.74	16.41	-51.5	-52.7	17.2	0.00e+00	0	35	0	466616320	68	4339
2026-01-01 00:06:52.60	27.79	16.52	-51.4	-52.7	17.2	0.00e+00	0	35	0	469762048	68	4327
2026-01-01 00:06:53.60	27.83	16.63	-51.5	-52.7	17.2	0.00e+00	0	35	0	472907776	68	4339
2026-01-01 00:06:54.59	27.88	16.74	-51.5	-52.7	17.2	0.00e+00	0	35	0	476053504	68	4340
2026-01-01 00:06:55.59	27.93	16.85	-51.5	-52.8	17.1	0.00e+00	0	35	0	479199232	68	4346
2026-01-01 00:06:56.57	27.98	16.96	-51.6	-52.9	17.1	0.00e+00	0	35	0	482344960	68	4419
2026-01-01 00:06:57.57	28.02	17.08	-51.5	-52.8	17.1	0.00e+00	0	35	0	485490688	68	4386
2026-01-01 00:06:58.57	28.07	17.19	-51.6	-53.0	17.1	0.00e+00	0	35	0	488636416	68	4443
2026-01-01 00:06:59.56	28.12	17.30	-51.7	-53.0	17.1	0.00e+00	0	35	0	491782144	68	4488
2026-01-01 00:07:00.57	28.17	17.42	-51.7	-53.0	17.1	0.00e+00	0	35	0	494927872	68	4471
2026-01-01 00:07:01.56	28.22	17.53	-51.6	-52.9	17.1	0.00e+00	0	35	0	498073600	68	4429
2026-01-01 00:07:02.55	28.27	17.64	-51.7	-53.0	17.1	0.00e+00	0	35	0	501219328	68	4460
2026-01-01 00:07:03.55	28.32	17.76	-51.6	-52.9	17.1	0.00e+00	0	35	0	504365056	68	4439
2026-01-01 00:07:04.54	28.37	17.88	-51.7	-53.0	17.1	0.00e+00	0	35	0	507510784	68	4482
2026-01-01 00:07:05.53	28.42	17.99	-51.6	-53.0	17.1	0.00e+00	0	35	0	510656512	68	4447
2026-01-01 00:07:06.53	28.48	18.11	-51.6	-52.9	17.1	0.00e+00	0	35	0	513802240	68	4427
2026-01-01 00:07:07.54	28.53	18.23	-51.6	-53.0	17.1	0.00e+00	0	35	0	516947968	68	4448
2026-01-01 00:07:08.53	28.58	18.34	-51.7	-53.0	17.1	0.00e+00	0	35	0	520093696	68	4476
2026-01-01 00:07:09.53	28.63	18.46	-51.7	-53.0	17.1	0.00e+00	0	35	0	523239424	68	4472
2026-01-01 00:07:10.52	28.69	18.58	-51.6	-52.9	17.1	0.00e+00	0	35	0	526385152	68	4430
2026-01-01 00:07:11.52	28.74	18.70	-51.6	-52.9	17.2	0.00e+00	0	35	0	528482304	68	4416
2026-01-01 00:07:12.52	28.79	18.82	-51.7	-53.0	17.1	0.00e+00	0	35	0	531628032	68	4446
2026-01-01 00:07:13.52	28.85	18.94	-51.7	-53.0	17.1	0.00e+00	0	35	0	534773760	68	4447
2026-01-01 00:07:14.52	28.90	19.07	-51.6	-52.9	17.2	0.00e+00	0	35	0	537919488	68	4392
2026-01-01 00:07:15.51	28.96	19.19	-51.6	-52.9	17.2	0.00e+00	0	35	0	541065216	68	4427
2026-01-01 00:07:16.51	29.01	19.31	-51.6	-52.9	17.2	0.00e+00	0	35	0	544210944	68	4427
2026-01-01 00:07:17.51	29.07	19.43	-51.5	-52.8	17.2	0.00e+00	0	35	0	547356672	68	4365
2026-01-01 00:07:18.51	29.13	19.56	-51.4	-52.7	17.3	0.00e+00	0	35	0	550502400	68	4302
2026-01-01 00:07:19.52	29.18	19.68	-51.3	-52.5	17.3	0.00e+00	0	35	0	553648128	68	4242
2026-01-01 00:07:20.51	29.24	19.81	-51.3	-52.6	17.3	0.00e+00	0	35	0	556793856	68	4262
2026-01-01 00:07:21.51	29.30	19.93	-51.2	-52.5	17.3	0.00e+00	0	35	0	559939584	68	4216
2026-01-01 00:07:22.50	29.36	20.06	-51.2	-52.4	17.4	0.00e+00	0	35	0	563085312	68	4171
2026-01-01 00:07:23.49	29.41	20.18	-51.1	-52.4	17.4	0.00e+00	0	35	0	566231040	68	4165
2026-01-01 00:07:24.49	29.47	20.31	-51.0	-52.2	17.5	0.00e+00	0	35	0	569376768	68	4090
2026-01-01 00:07:25.48	29.53	20.44	-51.0	-52.2	17.4	0.00e+00	0	35	0	572522496	68	4069
2026-01-01 00:07:26.47	29.59	20.57	-51.0	-52.2	17.4	0.00e+00	0	35	0	575668224	68	4088
2026-01-01 00:07:27.47	29.65	20.70	-50.9	-52.2	17.4	0.00e+00	0	35	0	578813952	68	4059
2026-01-01 00:07:28.46	29.71	20.82	-50.7	-51.9	17.6	0.00e+00	0	35	0	581959680	68	3941
2026-01-01 00:07:29.46	29.77	20.96	-50.5	-51.7	17.6	0.00e+00	0	35	0	585105408	67	4065
2026-01-01 00:07:30.45	29.84	21.09	-50.6	-51.8	17.5	0.00e+00	0	35	0	588251136	67	4112
2026-01-01 00:07:31.45	29.90	21.22	-50.4	-51.6	17.6	0.00e+00	0	35	0	591396864	67	4041
2026-01-01 00:07:32.45	29.96	21.35	-50.3	-51.4	17.7	0.00e+00	0	35	0	594542592	67	3951
2026-01-01 00:07:33.44	30.02	21.48	-50.2	-51.4	17.7	0.00e+00	0	35	0	597688320	67	3925
2026-01-01 00:07:34.43	30.09	21.62	-50.2	-51.4	17.7	0.00e+00	0	35	0	600834048	66	4148
2026-01-01 00:07:35.44	30.15	21.75	-50.2	-51.3	17.7	0.00e+00	0	35	0	603979776	66	4131
2026-01-01 00:07:36.44	30.22	21.89	-50.1	-51.3	17.7	0.00e+00	0	35	0	607125504	66	4129
2026-01-01 00:07:37.44	30.28	22.02	-50.2	-51.3	17.7	0.00e+00	0	35	0	610271232	66	4141
2026-01-01 00:07:38.44	30.35	22.16	-50.2	-51.3	17.7	0.00e+00	0	35	0	613416960	66	4137
2026-01-01 00:07:39.44	30.41	22.30	-50.0	-51.2	17.7	0.00e+00	0	35	0	616562688	66	4069
2026-01-01 00:07:40.43	30.48	22.44	-50.2	-51.3	17.7	0.00e+00	0	35	0	619708416	66	4141
2026-01-01 00:07:41.43	30.55	22.58	-50.1	-51.3	17.8	0.00e+00	0	35	0	622854144	66	4099
2026-01-01 00:07:42.43	30.62	22.72	-50.0	-51.1	17.8	0.00e+00	0	35	0	625999872	66	4042
2026-01-01 00:07:43.42	30.69	22.85	-49.9	-51.1	17.8	0.00e+00	0	35	0	629145600	66	4017
2026-01-01 00:07:44.43	30.76	23.00	-50.0	-51.2	17.8	0.00e+00	0	35	0	632291328	66	4072
2026-01-01 00:07:45.43	30.83	23.14	-50.0	-51.1	17.8	0.00e+00	0	35	0	635437056	66	4048
2026-01-01 00:07:46.43	30.90	23.28	-49.9	-51.1	17.8	0.00e+00	0	35	0	637534208	66	4015
2026-01-01 00:07:47.42	30.97	23.42	-50.0	-51.1	17.8	0.00e+00	0	35	0	640679936	66	4034
2026-01-01 00:07:48.43	31.04	23.57	-50.0	-51.1	17.8	0.00e+00	0	35	0	643825664	66	4035
2026-01-01 00:07:49.43	31.11	23.72	-50.0	-51.2	17.8	0.00e+00	0	35	0	646971392	66	4060
2026-01-01 00:07:50.43	31.18	23.86	-50.1	-51.2	17.8	0.00e+00	0	35	0	650117120	66	4096
2026-01-01 00:07:51.43	31.26	24.01	-50.2	-51.3	17.7	0.00e+00	0	35	0	653262848	66	4128
2026-01-01 00:07:52.43	31.33	24.16	-50.2	-51.4	17.7	0.00e+00	0	35	0	656408576	66	4170
2026-01-01 00:07:53.42	31.41	24.30	-50.1	-51.3	17.8	0.00e+00	0	35	0	659554304	66	4128
2026-01-01 00:07:54.42	31.48	24.45	-50.1	-51.3	17.8	0.00e+00	0	35	0	662700032	66	4120
2026-01-01 00:07:55.42	31.56	24.60	-50.1	-51.3	17.8	0.00e+00	0	35	0	665845760	66	4112
2026-01-01 00:07:56.42	31.64	24.75	-50.2	-51.3	17.7	0.00e+00	0	35	0	668991488	66	4135
2026-01-01 00:07:57.42	31.71	24.90	-50.3	-51.5	17.7	0.00e+00	0	35	0	672137216	66	4205
2026-01-01 00:07:58.42	31.79	25.06	-50.3	-51.5	17.7	0.00e+00	0	35	0	675282944	66	4212
2026-01-01 00:07:59.41	31.87	25.21	-50.3	-51.5	17.7	0.00e+00	0	35	0	678428672	66	4226
2026-01-01 00:08:00.41	31.95	25.36	-50.3	-51.5	17.7	0.00e+00	0	35	0	681574400	66	4206
2026-01-01 00:08:01.41	32.03	25.52	-50.3	-51.5	17.7	0.00e+00	0	35	0	684720128	66	4224
2026-01-01 00:08:02.41	32.11	25.67	-50.4	-51.6	17.7	0.00e+00	0	35	0	687865856	66	4257
2026-01-01 00:08:03.42	32.20	25.83	-50.4	-51.6	17.6	0.00e+00	0	35	0	691011584	66	4278
2026-01-01 00:08:04.42	32.28	25.99	-50.5	-51.7	17.6	0.00e+00	0	35	0	694157312	66	4337
2026-01-01 00:08:05.42	32.36	26.15	-50.7	-51.9	17.6	0.00e+00	0	35	0	697303040	66	4420
2026-01-01 00:08:06.43	32.45	26.31	-50.8	-52.1	17.5	0.00e+00	0	35	0	700448768	66	4503
2026-01-01 00:08:07.43	32.53	26.47	-50.9	-52.2	17.5	0.00e+00	0	35	0	703594496	67	4309
2026-01-01 00:08:08.43	32.62	26.63	-51.1	-52.3	17.4	0.00e+00	0	35	0	706740224	67	4384
2026-01-01 00:08:09.42	32.71	26.79	-51.1	-52.4	17.4	0.00e+00	0	35	0	709885952	67	4405
2026-01-01 00:08:10.42	32.79	26.95	-51.2	-52.5	17.4	0.00e+00	0	35	0	713031680	67	4464
2026-01-01 00:08:11.42	32.88	27.11	-51.2	-52.5	17.3	0.00e+00	0	35	0	716177408	67	4456
2026-01-01 00:08:12.42	32.97	27.28	-51.2	-52.5	17.4	0.00e+00	0	35	0	719323136	67	4461
2026-01-01 00:08:13.42	33.06	27.44	-51.3	-52.6	17.3	0.00e+00	0	35	0	722468864	67	4522
2026-01-01 00:08:14.43	33.15	27.61	-51.4	-52.7	17.3	0.00e+00	0	35	0	725614592	67	4563
2026-01-01 00:08:15.42	33.25	27.78	-51.6	-52.9	17.3	0.00e+00	0	35	0	728760320	68	4425
2026-01-01 00:08:16.43	33.34	27.95	-51.6	-52.8	17.3	0.00e+00	0	35	0	731906048	68	4380
2026-01-01 00:08:17.42	33.43	28.12	-51.5	-52.8	17.4	0.00e+00	0	35	0	735051776	68	4362
2026-01-01 00:08:18.42	33.53	28.29	-51.6	-52.9	17.3	0.00e+00	0	35	0	738197504	68	4397
2026-01-01 00:08:19.42	33.62	28.46	-51.5	-52.8	17.4	0.00e+00	0	35	0	741343232	68	4345
2026-01-01 00:08:20.42	33.72	28.63	-51.5	-52.8	17.3	0.00e+00	0	35	0	744488960	68	4361
2026-01-01 00:08:21.42	33.82	28.80	-51.6	-52.8	17.3	0.00e+00	0	35	0	747634688	68	4388
2026-01-01 00:08:22.43	33.92	28.98	-51.6	-52.9	17.3	0.00e+00	0	35	0	750780416	68	4403
2026-01-01 00:08:23.43	34.02	29.15	-51.6	-52.9	17.3	0.00e+00	0	35	0	753926144	68	4392
2026-01-01 00:08:24.43	34.12	29.33	-51.5	-52.8	17.3	0.00e+00	0	35	0	757071872	68	4357
2026-01-01 00:08:25.43	34.22	29.51	-51.6	-52.9	17.3	0.00e+00	0	35	0	760217600	68	4412
2026-01-01 00:08:26.42	34.33	29.68	-51.5	-52.7	17.4	0.00e+00	0	35	0	763363328	68	4323
2026-01-01 00:08:27.43	34.43	29.87	-51.5	-52.8	17.3	0.00e+00	0	35	0	766509056	68	4354
2026-01-01 00:08:28.43	34.54	30.05	-51.3	-52.6	17.4	0.00e+00	0	35	0	769654784	68	4253
2026-01-01 00:08:29.42	34.64	30.23	-51.3	-52.5	17.4	0.00e+00	0	35	0	772800512	68	4235
2026-01-01 00:08:30.42	34.75	30.41	-51.1	-52.4	17.5	0.00e+00	0	35	0	775946240	68	4157
2026-01-01 00:08:31.42	34.86	30.59	-51.0	-52.2	17.6	0.00e+00	0	35	0	779091968	68	4067
2026-01-01 00:08:32.43	34.97	30.78	-50.9	-52.1	17.7	0.00e+00	0	35	0	782237696	68	4019
2026-01-01 00:08:33.42	35.08	30.96	-50.9	-52.1	17.7	0.00e+00	0	35	0	785383424	68	4020
2026-01-01 00:08:34.42	35.19	31.15	-50.8	-52.0	17.7	0.00e+00	0	35	0	788529152	68	3994
2026-01-01 00:08:35.42	35.31	31.34	-50.8	-52.0	17.7	0.00e+00	0	35	0	791674880	68	3994
2026-01-01 00:08:36.42	35.42	31.53	-50.9	-52.0	17.7	0.00e+00	0	35	0	794820608	68	4001
2026-01-01 00:08:37.41	35.54	31.71	-50.8	-52.0	17.7	0.00e+00	0	35	0	796917760	68	3971
2026-01-01 00:08:38.41	35.66	31.90	-50.9	-52.1	17.7	0.00e+00	0	35	0	800063488	68	4015
2026-01-01 00:08:39.41	35.77	32.10	-51.0	-52.2	17.6	0.00e+00	0	35	0	803209216	68	4072
2026-01-01 00:08:40.40	35.89	32.29	-51.2	-52.4	17.5	0.00e+00	0	35	0	806354944	68	4172
2026-01-01 00:08:41.40	36.02	32.48	-51.4	-52.6	17.5	0.00e+00	0	35	0	809500672	68	4271
2026-01-01 00:08:42.40	36.14	32.68	-51.6	-52.8	17.4	0.00e+00	0	35	0	812646400	68	4376
2026-01-01 00:08:43.40	36.26	32.87	-51.6	-52.8	17.4	0.00e+00	0	35	0	815792128	68	4373
2026-01-01 00:08:44.40	36.39	33.07	-51.7	-53.0	17.3	0.00e+00	0	35	0	818937856	68	4470
2026-01-01 00:08:45.40	36.52	33.27	-51.6	-52.9	17.3	0.00e+00	0	35	0	822083584	68	4418
2026-01-01 00:08:46.40	36.65	33.47	-51.7	-52.9	17.3	0.00e+00	0	35	0	825229312	68	4428
2026-01-01 00:08:47.40	36.78	33.67	-51.6	-52.9	17.3	0.00e+00	0	35	0	828375040	68	4399
2026-01-01 00:08:48.39	36.91	33.87	-51.6	-52.9	17.3	0.00e+00	0	35	0	831520768	68	4410
2026-01-01 00:08:49.39	37.04	34.08	-51.8	-53.0	17.3	0.00e+00	0	35	0	834666496	68	4492
2026-01-01 00:08:50.39	37.18	34.28	-51.7	-53.0	17.3	0.00e+00	0	35	0	837812224	68	4469
2026-01-01 00:08:51.40	37.32	34.49	-51.9	-53.2	17.2	0.00e+00	0	35	0	840957952	69	4335
2026-01-01 00:08:52.39	37.46	34.70	-52.2	-53.6	17.1	0.00e+00	0	35	0	844103680	69	4494
2026-01-01 00:08:53.39	37.60	34.90	-52.3	-53.6	17.0	0.00e+00	0	35	0	847249408	69	4529
2026-01-01 00:08:54.39	37.74	35.11	-52.5	-53.8	16.9	0.00e+00	0	35	0	850395136	70	4379
2026-01-01 00:08:55.38	37.88	35.32	-52.7	-54.0	16.8	0.00e+00	0	35	0	853540864	70	4484
2026-01-01 00:08:56.38	38.03	35.54	-52.7	-54.1	16.8	0.00e+00	0	35	0	856686592	70	4524
2026-01-01 00:08:57.38	38.17	35.75	-52.8	-54.2	16.8	0.00e+00	0	35	0	859832320	70	4590
2026-01-01 00:08:58.38	38.32	35.96	-52.9	-54.4	16.7	0.00e+00	0	35	0	862978048	71	4403
2026-01-01 00:08:59.37	38.47	36.18	-53.0	-54.4	16.7	0.00e+00	0	35	0	866123776	71	4432
2026-01-01 00:09:00.37	38.63	36.39	-53.1	-54.6	16.6	0.00e+00	0	35	0	869269504	71	4511
2026-01-01 00:09:01.38	38.79	36.61	-53.1	-54.5	16.6	0.00e+00	0	35	0	872415232	71	4473
2026-01-01 00:09:02.38	38.94	36.83	-53.1	-54.6	16.6	0.00e+00	0	35	0	875560960	71	4514
2026-01-01 00:09:03.37	39.10	37.05	-53.2	-54.7	16.5	0.00e+00	0	35	0	878706688	71	4576
2026-01-01 00:09:04.36	39.26	37.27	-53.4	-54.9	16.5	0.00e+00	0	35	0	881852416	71	4665
2026-01-01 00:09:05.36	39.43	37.50	-53.4	-55.0	16.4	0.00e+00	0	35	0	884998144	72	4443
2026-01-01 00:09:06.36	39.59	37.72	-53.6	-55.1	16.3	0.00e+00	0	35	0	888143872	72	4516
2026-01-01 00:09:07.35	39.76	37.94	-53.8	-55.3	16.2	0.00e+00	0	35	0	891289600	72	4644
2026-01-01 00:09:08.35	39.93	38.17	-53.7	-55.3	16.2	0.00e+00	0	35	0	894435328	72	4621
2026-01-01 00:09:09.34	40.10	38.40	-53.6	-55.1	16.3	0.00e+00	0	35	0	897581056	72	4531
2026-01-01 00:09:10.34	40.28	38.63	-53.6	-55.2	16.3	0.00e+00	0	35	0	900726784	72	4571
2026-01-01 00:09:11.34	40.45	38.86	-53.6	-55.2	16.3	0.00e+00	0	35	0	903872512	72	4568
2026-01-01 00:09:12.35	40.64	39.09	-53.5	-55.0	16.3	0.00e+00	0	35	0	907018240	72	4490
2026-01-01 00:09:13.34	40.82	39.32	-53.3	-54.8	16.5	0.00e+00	0	35	0	909115392	72	4384
2026-01-01 00:09:14.33	41.00	39.56	-53.2	-54.7	16.5	0.00e+00	0	35	0	912261120	72	4328
2026-01-01 00:09:15.32	41.19	39.79	-53.2	-54.7	16.6	0.00e+00	0	35	0	915406848	72	4326
2026-01-01 00:09:16.32	41.38	40.03	-53.1	-54.6	16.7	0.00e+00	0	35	0	918552576	72	4257
2026-01-01 00:09:17.32	41.57	40.27	-53.2	-54.6	16.6	0.00e+00	0	35	0	921698304	72	4289
2026-01-01 00:09:18.32	41.77	40.51	-53.3	-54.7	16.6	0.00e+00	0	35	0	924844032	72	4326
2026-01-01 00:09:19.33	41.97	40.75	-53.3	-54.8	16.5	0.00e+00	0	35	0	927989760	72	4365
2026-01-01 00:09:20.33	42.17	40.99	-53.4	-54.9	16.5	0.00e+00	0	35	0	931135488	72	4419
2026-01-01 00:09:21.33	42.38	41.23	-53.3	-54.8	16.5	0.00e+00	0	35	0	934281216	72	4375
2026-01-01 00:09:22.32	42.58	41.48	-53.4	-54.8	16.5	0.00e+00	0	35	0	937426944	72	4390
2026-01-01 00:09:23.32	42.80	41.72	-53.3	-54.8	16.5	0.00e+00	0	35	0	940572672	72	4364
2026-01-01 00:09:24.31	43.01	41.97	-53.1	-54.5	16.7	0.00e+00	0	35	0	943718400	72	4200
2026-01-01 00:09:25.31	43.23	42.22	-53.3	-54.7	16.5	0.00e+00	0	35	0	946864128	72	4325
2026-01-01 00:09:26.31	43.45	42.47	-53.2	-54.7	16.6	0.00e+00	0	35	0	950009856	72	4318
2026-01-01 00:09:27.31	43.67	42.72	-53.3	-54.8	16.5	0.00e+00	0	35	0	953155584	72	4376
2026-01-01 00:09:28.30	43.90	42.97	-53.5	-55.0	16.4	0.00e+00	0	35	0	956301312	72	4469
2026-01-01 00:09:29.31	44.13	43.22	-53.6	-55.2	16.3	0.00e+00	0	35	0	959447040	72	4561
2026-01-01 00:09:30.31	44.37	43.48	-53.8	-55.3	16.2	0.00e+00	0	35	0	962592768	72	4650
2026-01-01 00:09:31.30	44.60	43.73	-53.8	-55.4	16.2	0.00e+00	0	35	0	965738496	73	4405
2026-01-01 00:09:32.30	44.84	43.99	-53.7	-55.3	16.3	0.00e+00	0	35	0	968884224	73	4349
2026-01-01 00:09:33.30	45.09	44.24	-53.8	-55.4	16.2	0.00e+00	0	35	0	972029952	73	4417
2026-01-01 00:09:34.29	45.34	44.50	-53.7	-55.2	16.3	0.00e+00	0	35	0	975175680	73	4320
2026-01-01 00:09:35.29	45.59	44.76	-53.6	-55.1	16.4	0.00e+00	0	35	0	978321408	73	4261
2026-01-01 00:09:36.29	45.85	45.02	-53.2	-54.6	16.6	0.00e+00	0	35	0	981467136	72	4264
2026-01-01 00:09:37.29	46.11	45.29	-53.2	-54.7	16.6	0.00e+00	0	35	0	984612864	72	4302
2026-01-01 00:09:38.29	46.38	45.55	-53.1	-54.5	16.7	0.00e+00	0	35	0	987758592	72	4205
2026-01-01 00:09:39.29	46.65	45.81	-53.4	-54.9	16.5	0.00e+00	0	35	0	990904320	72	4441
2026-01-01 00:09:40.29	46.93	46.08	-53.8	-55.4	16.3	0.00e+00	0	35	0	994050048	72	4665
2026-01-01 00:09:41.28	47.21	46.34	-54.1	-55.8	16.0	0.00e+00	0	35	0	997195776	73	4610
2026-01-01 00:09:42.28	47.49	46.61	-54.1	-55.8	16.1	0.00e+00	0	35	0	1000341504	73	4617
2026-01-01 00:09:43.28	47.78	46.88	-54.0	-55.6	16.1	0.00e+00	0	35	0	1003487232	73	4529
2026-01-01 00:09:44.27	48.07	47.15	-53.8	-55.3	16.3	0.00e+00	0	35	0	1006632960	73	4385
2026-01-01 00:09:45.27	48.38	47.42	-53.7	-55.3	16.3	0.00e+00	0	35	0	1009778688	73	4359
2026-01-01 00:09:46.27	48.68	47.69	-53.5	-55.1	16.4	0.00e+00	0	35	0	1012924416	73	4244
2026-01-01 00:09:47.27	48.99	47.96	-53.4	-54.9	16.6	0.00e+00	0	35	0	1016070144	73	4193
2026-01-01 00:09:48.27	49.31	48.23	-53.5	-55.0	16.5	0.00e+00	0	35	0	1019215872	73	4210
2026-01-01 00:09:49.28	49.63	48.51	-53.3	-54.7	16.6	0.00e+00	0	35	0	1022361600	73	4093
2026-01-01 00:09:50.28	49.96	48.79	-53.3	-54.8	16.6	0.00e+00	0	35	0	1025507328	72	4348
2026-01-01 00:09:51.27	50.29	49.06	-53.5	-55.0	16.5	0.00e+00	0	35	0	1028653056	72	4477
2026-01-01 00:09:52.27	50.63	49.33	-53.9	-55.5	16.2	0.00e+00	0	35	0	1031798784	72	4725
2026-01-01 00:09:53.27	50.97	49.61	-54.1	-55.7	16.1	0.00e+00	0	35	0	1034944512	73	4585
2026-01-01 00:09:54.27	51.33	49.89	-54.1	-55.7	16.0	0.00e+00	0	35	0	1038090240	73	4598
2026-01-01 00:09:55.27	51.68	50.17	-53.6	-55.2	16.4	0.00e+00	0	35	0	1041235968	73	4292
2026-01-01 00:09:56.27	52.05	50.44	-53.2	-54.7	16.7	0.00e+00	0	35	0	1043333120	73	4067
2026-01-01 00:09:57.26	52.42	50.72	-53.2	-54.6	16.7	0.00e+00	0	35	0	1046478848	72	4281
2026-01-01 00:09:58.26	52.79	51.00	-52.9	-54.3	16.9	0.00e+00	0	35	0	1049624576	72	4112
2026-01-01 00:09:59.25	53.17	51.28	-52.6	-53.9	17.0	0.00e+00	0	35	0	1052770304	71	4185
2026-01-01 00:10:00.24	53.56	51.55	-52.5	-53.8	17.1	0.00e+00	0	35	0	1055916032	71	4124
2026-01-01 00:10:01.24	53.96	51.83	-52.2	-53.5	17.2	0.00e+00	0	35	0	1059061760	71	3998
2026-01-01 00:10:02.24	54.37	52.12	-52.3	-53.6	17.2	0.00e+00	0	35	0	1062207488	70	4260
2026-01-01 00:10:03.24	54.78	52.40	-52.1	-53.4	17.3	0.00e+00	0	35	0	1065353216	70	4183
2026-01-01 00:10:04.23	55.20	52.67	-52.0	-53.3	17.3	0.00e+00	0	35	0	1068498944	70	4105
2026-01-01 00:10:05.24	55.64	52.96	-51.8	-53.1	17.3	0.00e+00	0	35	0	1071644672	70	4015
2026-01-01 00:10:06.23	56.07	53.24	-51.6	-52.9	17.5	0.00e+00	0	35	0	1074790400	69	4151
2026-01-01 00:10:07.23	56.52	53.52	-51.4	-52.6	17.5	0.00e+00	0	35	0	1077936128	69	4034
2026-01-01 00:10:08.22	56.97	53.79	-51.2	-52.3	17.6	0.00e+00	0	35	0	1081081856	68	4143
2026-01-01 00:10:09.21	57.43	54.07	-51.3	-52.5	17.6	0.00e+00	0	35	0	1084227584	68	4212
2026-01-01 00:10:10.21	57.90	54.35	-51.5	-52.8	17.5	0.00e+00	0	35	0	1087373312	68	4359
2026-01-01 00:10:11.20	58.38	54.63	-51.7	-53.0	17.4	0.00e+00	0	35	0	1090519040	68	4471
2026-01-01 00:10:12.18	58.86	54.90	-51.7	-52.9	17.4	0.00e+00	0	35	0	1093664768	68	4438
2026-01-01 00:10:13.18	59.36	55.18	-51.5	-52.7	17.5	0.00e+00	0	35	0	1096810496	68	4312
2026-01-01 00:10:14.18	59.88	55.46	-51.1	-52.3	17.7	0.00e+00	0	35	0	1099956224	68	4117
2026-01-01 00:10:15.18	60.40	55.73	-50.8	-51.9	17.8	0.00e+00	0	35	0	1103101952	68	3944
2026-01-01 00:10:16.17	60.92	56.01	-50.3	-51.4	17.9	0.00e+00	0	35	0	1106247680	67	3958
2026-01-01 00:10:17.17	61.47	56.28	-50.2	-51.3	17.9	0.00e+00	0	35	0	1109393408	66	4138
2026-01-01 00:10:18.17	62.02	56.55	-50.4	-51.6	17.9	0.00e+00	0	35	0	1112539136	66	4247
2026-01-01 00:10:19.17	62.58	56.83	-50.7	-51.8	17.8	0.00e+00	0	35	0	1115684864	66	4379
2026-01-01 00:10:20.16	63.15	57.10	-50.7	-51.9	17.8	0.00e+00	0	35	0	1118830592	66	4393
2026-01-01 00:10:21.18	63.75	57.37	-50.7	-51.9	17.7	0.00e+00	0	35	0	1121976320	66	4403
2026-01-01 00:10:22.18	64.35	57.64	-50.7	-51.8	17.7	0.00e+00	0	35	0	1125122048	66	4379
2026-01-01 00:10:23.18	64.96	57.90	-50.6	-51.7	17.8	0.00e+00	0	35	0	1128267776	66	4331
2026-01-01 00:10:24.17	65.58	58.17	-50.3	-51.4	17.9	0.00e+00	0	35	0	1131413504	66	4179
2026-01-01 00:10:25.17	66.21	58.43	-50.1	-51.2	18.0	0.00e+00	0	35	0	1134559232	66	4088
2026-01-01 00:10:26.17	66.86	58.69	-50.1	-51.2	18.0	0.00e+00	0	35	0	1137704960	66	4074
2026-01-01 00:10:27.17	67.52	58.95	-50.1	-51.2	18.1	0.00e+00	0	35	0	1140850688	66	4088
2026-01-01 00:10:28.17	68.19	59.20	-50.4	-51.5	17.9	0.00e+00	0	35	0	1143996416	66	4234
2026-01-01 00:10:29.16	68.87	59.45	-50.5	-51.6	17.8	0.00e+00	0	35	0	1147142144	66	4285
2026-01-01 00:10:30.15	69.56	59.70	-50.3	-51.4	17.9	0.00e+00	0	35	0	1150287872	66	4180
2026-01-01 00:10:31.15	70.27	59.95	-49.9	-51.0	18.1	0.00e+00	0	35	0	1152385024	66	3979
2026-01-01 00:10:32.14	70.99	60.19	-49.5	-50.6	18.2	0.00e+00	0	35	0	1155530752	65	4028
2026-01-01 00:10:33.14	71.73	60.43	-49.6	-50.6	18.1	0.00e+00	0	35	0	1158676480	65	4038
2026-01-01 00:10:34.14	72.48	60.67	-49.6	-50.6	18.1	0.00e+00	0	35	0	1161822208	65	4036
2026-01-01 00:10:35.14	73.25	60.91	-49.7	-50.8	18.1	0.00e+00	0	35	0	1164967936	65	4134
2026-01-01 00:10:36.13	74.02	61.13	-49.9	-51.0	18.1	0.00e+00	0	35	0	1168113664	65	4200
2026-01-01 00:10:37.12	74.81	61.36	-49.9	-51.0	18.0	0.00e+00	0	35	0	1171259392	65	4229
2026-01-01 00:10:38.12	75.62	61.58	-49.8	-50.9	18.1	0.00e+00	0	35	0	1174405120	65	4149
2026-01-01 00:10:39.12	76.45	61.80	-49.8	-50.9	18.1	0.00e+00	0	35	0	1177550848	65	4153
2026-01-01 00:10:40.12	77.29	62.01	-49.6	-50.7	18.1	0.00e+00	0	35	0	1180696576	65	4058
2026-01-01 00:10:41.10	78.12	62.22	-49.7	-50.8	18.1	0.00e+00	0	35	0	1183842304	65	4119
2026-01-01 00:10:42.10	78.99	62.43	-49.7	-50.8	18.0	0.00e+00	0	35	0	1186988032	65	4116
2026-01-01 00:10:43.09	79.87	62.62	-49.6	-50.7	18.1	0.00e+00	0	35	0	1190133760	65	4058
2026-01-01 00:10:44.10	80.77	62.82	-49.4	-50.5	18.2	0.00e+00	0	35	0	1193279488	65	3977
2026-01-01 00:10:45.10	81.68	63.01	-49.4	-50.5	18.2	0.00e+00	0	35	0	1196425216	65	3969
2026-01-01 00:10:46.10	82.61	63.19	-49.3	-50.3	18.2	0.00e+00	0	35	0	1199570944	65	3909
2026-01-01 00:10:47.09	83.54	63.37	-49.6	-50.7	18.1	0.00e+00	0	35	0	1202716672	65	4082
2026-01-01 00:10:48.08	84.49	63.54	-50.1	-51.2	18.0	0.00e+00	0	35	0	1205862400	65	4307
2026-01-01 00:10:49.07	85.44	63.70	-50.2	-51.3	17.9	0.00e+00	0	35	0	1209008128	65	4383
2026-01-01 00:10:50.07	86.42	63.86	-50.0	-51.2	18.0	0.00e+00	0	35	0	1212153856	65	4294
2026-01-01 00:10:51.07	87.42	64.02	-49.9	-51.0	18.0	0.00e+00	0	35	0	1215299584	65	4217
2026-01-01 00:10:52.08	88.44	64.17	-49.8	-50.9	18.0	0.00e+00	0	35	0	1218445312	65	4152
2026-01-01 00:10:53.08	89.46	64.31	-49.8	-50.9	18.1	0.00e+00	0	35	0	1221591040	65	4172
2026-01-01 00:10:54.08	90.49	64.44	-49.6	-50.7	18.1	0.00e+00	0	35	0	1224736768	65	4065
2026-01-01 00:10:55.08	91.53	64.56	-49.5	-50.6	18.2	0.00e+00	0	35	0	1227882496	65	4018
2026-01-01 00:10:56.08	92.59	64.68	-49.4	-50.4	18.3	0.00e+00	0	35	0	1231028224	65	3949
2026-01-01 00:10:57.08	93.65	64.79	-49.3	-50.4	18.2	0.00e+00	0	35	0	1234173952	65	3934
2026-01-01 00:10:58.08	94.73	64.90	-49.3	-50.3	18.3	0.00e+00	0	35	0	1237319680	65	3912
2026-01-01 00:10:59.08	95.82	64.99	-49.1	-50.1	18.3	0.00e+00	0	35	0	1240465408	64	4024
2026-01-01 00:11:00.08	96.91	65.08	-49.4	-50.4	18.2	0.00e+00	0	35	0	1243611136	64	4179
2026-01-01 00:11:01.08	98.01	65.16	-49.7	-50.8	18.1	0.00e+00	0	35	0	1246756864	64	4352
2026-01-01 00:11:02.08	99.12	65.23	-50.0	-51.2	18.0	0.00e+00	0	35	0	1249902592	65	4293
2026-01-01 00:11:03.08	100.24	65.29	-49.8	-50.9	18.1	0.00e+00	0	35	0	1253048320	65	4182
2026-01-01 00:11:04.08	101.36	65.34	-49.5	-50.6	18.2	0.00e+00	0	35	0	1256194048	65	4013
2026-01-01 00:11:05.07	102.48	65.39	-49.7	-50.8	18.1	0.00e+00	0	35	0	1259339776	65	4127
2026-01-01 00:11:06.07	103.61	65.43	-49.8	-50.9	18.1	0.00e+00	0	35	0	1262485504	65	4163
2026-01-01 00:11:07.07	104.74	65.46	-49.6	-50.6	18.1	0.00e+00	0	35	0	1264582656	65	4046
2026-01-01 00:11:08.07	105.88	65.48	-49.7	-50.8	18.1	0.00e+00	0	35	0	1267728384	65	4132
2026-01-01 00:11:09.07	107.02	65.49	-49.6	-50.7	18.1	0.00e+00	0	35	0	1270874112	65	4055
2026-01-01 00:11:10.07	108.16	65.49	-49.6	-50.7	18.1	0.00e+00	0	35	0	1274019840	65	4062
2026-01-01 00:11:11.07	109.30	65.48	-49.8	-50.9	18.1	0.00e+00	0	35	0	1277165568	65	4189
2026-01-01 00:11:12.06	110.43	65.47	-50.1	-51.2	17.9	0.00e+00	0	35	0	1280311296	65	4337
2026-01-01 00:11:13.06	111.56	65.45	-50.7	-51.9	17.8	0.00e+00	0	35	0	1283457024	66	4410
2026-01-01 00:11:14.05	112.69	65.42	-50.7	-51.9	17.8	0.00e+00	0	35	0	1286602752	66	4414
2026-01-01 00:11:15.05	113.82	65.37	-50.4	-51.5	17.9	0.00e+00	0	35	0	1289748480	66	4231
2026-01-01 00:11:16.04	114.93	65.33	-49.8	-50.9	18.1	0.00e+00	0	35	0	1292894208	66	3952
2026-01-01 00:11:17.05	116.06	65.27	-49.5	-50.5	18.2	0.00e+00	0	35	0	1296039936	65	4001
2026-01-01 00:11:18.05	117.18	65.20	-49.5	-50.5	18.2	0.00e+00	0	35	0	1299185664	65	4004
2026-01-01 00:11:19.05	118.29	65.13	-49.8	-50.9	18.1	0.00e+00	0	35	0	1302331392	65	4155
2026-01-01 00:11:20.05	119.39	65.05	-50.2	-51.4	18.0	0.00e+00	0	35	0	1305477120	65	4399
2026-01-01 00:11:21.06	120.49	64.96	-50.0	-51.1	18.1	0.00e+00	0	35	0	1308622848	65	4273
2026-01-01 00:11:22.05	121.56	64.86	-49.7	-50.8	18.1	0.00e+00	0	35	0	1311768576	65	4128
2026-01-01 00:11:23.04	122.62	64.75	-49.6	-50.6	18.2	0.00e+00	0	35	0	1314914304	65	4049
2026-01-01 00:11:24.04	123.69	64.64	-50.1	-51.2	17.9	0.00e+00	0	35	0	1318060032	65	4337
2026-01-01 00:11:25.04	124.74	64.52	-50.6	-51.7	17.8	0.00e+00	0	35	0	1321205760	66	4335
2026-01-01 00:11:26.04	125.78	64.39	-50.6	-51.7	17.8	0.00e+00	0	35	0	1324351488	66	4322
2026-01-01 00:11:27.04	126.81	64.26	-50.5	-51.6	17.7	0.00e+00	0	35	0	1327497216	66	4275
2026-01-01 00:11:28.05	127.83	64.11	-50.2	-51.4	17.9	0.00e+00	0	35	0	1330642944	66	4157
2026-01-01 00:11:29.04	128.83	63.97	-50.2	-51.3	18.0	0.00e+00	0	36	0	1333788672	66	4118
2026-01-01 00:11:30.04	129.82	63.81	-50.0	-51.1	18.0	0.00e+00	0	35	0	1336934400	66	4005
2026-01-01 00:11:31.04	130.80	63.65	-49.8	-50.9	18.0	0.00e+00	0	35	0	1340080128	65	4149
2026-01-01 00:11:32.04	131.76	63.48	-50.3	-51.4	17.9	0.00e+00	0	35	0	1343225856	65	4432
2026-01-01 00:11:33.04	132.71	63.30	-50.3	-51.4	17.9	0.00e+00	0	35	0	1346371584	66	4182
2026-01-01 00:11:34.05	133.65	63.12	-49.4	-50.5	18.2	0.00e+00	0	35	0	1349517312	65	3976
2026-01-01 00:11:35.05	134.58	62.94	-49.2	-50.2	18.2	0.00e+00	0	35	0	1352663040	64	4091
2026-01-01 00:11:36.05	135.48	62.74	-49.7	-50.7	18.1	0.00e+00	0	35	0	1355808768	64	4327
2026-01-01 00:11:37.05	136.38	62.55	-50.4	-51.6	17.8	0.00e+00	0	35	0	1358954496	66	4254
2026-01-01 00:11:38.05	137.25	62.35	-50.9	-52.1	17.7	0.00e+00	0	35	0	1362100224	66	4494
2026-01-01 00:11:39.04	138.11	62.14	-51.1	-52.3	17.5	0.00e+00	0	35	0	1365245952	67	4343
2026-01-01 00:11:40.04	138.96	61.93	-50.3	-51.4	17.9	0.00e+00	0	35	0	1368391680	67	3924
2026-01-01 00:11:41.04	139.79	61.71	-49.4	-50.4	18.2	0.00e+00	0	35	0	1371537408	65	3949
2026-01-01 00:11:42.03	140.61	61.49	-49.1	-50.1	18.3	0.00e+00	0	35	0	1374683136	64	4014
2026-01-01 00:11:43.03	141.41	61.27	-49.1	-50.2	18.3	0.00e+00	0	35	0	1377828864	64	4053
2026-01-01 00:11:44.03	142.20	61.04	-50.5	-51.6	17.9	0.00e+00	0	35	0	1380974592	66	4258
2026-01-01 00:11:45.03	142.98	60.81	-51.2	-52.4	17.6	0.00e+00	0	35	0	1384120320	67	4418
2026-01-01 00:11:46.03	143.74	60.57	-50.9	-52.1	17.7	0.00e+00	0	35	0	1387266048	67	4259
2026-01-01 00:11:47.03	144.49	60.33	-49.8	-50.9	18.0	0.00e+00	0	35	0	1390411776	66	3940
2026-01-01 00:11:48.03	145.22	60.09	-49.2	-50.3	18.2	0.00e+00	0	35	0	1393557504	65	3879
2026-01-01 00:11:49.03	145.95	59.84	-49.2	-50.3	18.3	0.00e+00	0	35	0	1396703232	65	3878
2026-01-01 00:11:50.02	146.65	59.59	-49.5	-50.6	18.2	0.00e+00	0	35	0	1398800384	65	4006
2026-01-01 00:11:51.02	147.34	59.34	-50.6	-51.7	17.8	0.00e+00	0	35	0	1401946112	66	4329
2026-01-01 00:11:52.02	148.02	59.09	-51.6	-52.9	17.4	0.00e+00	0	35	0	1405091840	68	4400
2026-01-01 00:11:53.02	148.69	58.83	-51.7	-52.9	17.4	0.00e+00	0	35	0	1408237568	68	4416
2026-01-01 00:11:54.02	149.34	58.57	-50.8	-51.9	17.7	0.00e+00	0	35	0	1411383296	68	3954
2026-01-01 00:11:55.02	149.99	58.31	-50.1	-51.2	17.9	0.00e+00	0	35	0	1414529024	66	4078
2026-01-01 00:11:56.03	150.62	58.04	-50.1	-51.2	18.0	0.00e+00	0	35	0	1417674752	66	4080
2026-01-01 00:11:57.02	151.23	57.78	-50.2	-51.3	18.0	0.00e+00	0	35	0	1420820480	66	4122
2026-01-01 00:11:58.03	151.84	57.51	-51.1	-52.3	17.6	0.00e+00	0	35	0	1423966208	67	4380
2026-01-01 00:11:59.03	152.44	57.24	-52.3	-53.7	17.1	0.00e+00	0	35	0	1427111936	69	4548
2026-01-01 00:12:00.04	153.03	56.97	-52.5	-53.9	17.1	0.00e+00	0	35	0	1430257664	70	4432
2026-01-01 00:12:01.04	153.60	56.69	-51.8	-53.1	17.3	0.00e+00	0	35	0	1433403392	70	4040
2026-01-01 00:12:02.03	154.15	56.42	-51.2	-52.4	17.5	0.00e+00	0	35	0	1436549120	69	3954
2026-01-01 00:12:03.04	154.71	56.14	-50.9	-52.1	17.8	0.00e+00	0	35	0	1439694848	68	4014
2026-01-01 00:12:04.04	155.24	55.87	-50.9	-52.1	17.8	0.00e+00	0	35	0	1442840576	68	4026
2026-01-01 00:12:05.04	155.77	55.59	-51.4	-52.6	17.5	0.00e+00	0	35	0	1445986304	68	4265
2026-01-01 00:12:06.03	156.28	55.32	-52.6	-54.0	16.7	0.00e+00	0	35	0	1449132032	70	4442
2026-01-01 00:12:07.03	156.79	55.04	-53.2	-54.6	16.1	0.00e+00	0	35	0	1452277760	71	4530
2026-01-01 00:12:08.04	157.29	54.76	-53.2	-54.6	16.5	0.00e+00	0	35	0	1455423488	71	4522
2026-01-01 00:12:09.03	157.78	54.48	-52.7	-54.1	16.7	0.00e+00	0	35	0	1458569216	71	4267
2026-01-01 00:12:10.03	158.26	54.20	-52.4	-53.7	16.7	0.00e+00	0	35	0	1461714944	71	4094
2026-01-01 00:12:11.02	158.72	53.92	-52.1	-53.4	17.1	0.00e+00	0	35	0	1464860672	70	4167
2026-01-01 00:12:12.02	159.18	53.64	-52.0	-53.2	17.3	0.00e+00	0	35	0	1468006400	70	4086
2026-01-01 00:12:13.03	159.64	53.36	-51.8	-53.1	17.4	0.00e+00	0	35	0	1471152128	70	4005
2026-01-01 00:12:14.03	160.08	53.07	-52.0	-53.2	17.4	0.00e+00	0	35	0	1474297856	70	4088
2026-01-01 00:12:15.03	160.52	52.79	-52.7	-54.0	17.0	0.00e+00	0	35	0	1477443584	70	4469
2026-01-01 00:12:16.03	160.94	52.51	-52.9	-54.2	16.9	0.00e+00	0	35	0	1480589312	70	4590
2026-01-01 00:12:17.03	161.36	52.23	-52.5	-53.9	16.8	0.00e+00	0	35	0	1483735040	70	4392
2026-01-01 00:12:18.03	161.77	51.95	-52.5	-53.9	16.4	0.00e+00	0	35	0	1486880768	70	4400
2026-01-01 00:12:19.03	162.18	51.67	-52.7	-54.2	16.5	0.00e+00	0	36	0	1490026496	70	4552
2026-01-01 00:12:20.02	162.57	51.39	-52.8	-54.2	16.8	0.00e+00	0	35	0	1493172224	70	4567
2026-01-01 00:12:21.03	162.96	51.11	-52.7	-54.0	16.9	0.00e+00	0	35	0	1496317952	70	4490
2026-01-01 00:12:22.03	163.34	50.82	-52.8	-54.2	16.9	0.00e+00	0	35	0	1499463680	70	4559
2026-01-01 00:12:23.03	163.72	50.54	-53.4	-54.9	16.6	0.00e+00	0	35	0	1502609408	72	4417
2026-01-01 00:12:24.03	164.09	50.27	-53.9	-55.5	16.2	0.00e+00	0	35	0	1505755136	73	4476
2026-01-01 00:12:25.03	164.45	49.99	-54.1	-55.7	16.1	0.00e+00	0	35	0	1508900864	73	4589
2026-01-01 00:12:26.02	164.80	49.71	-54.3	-56.0	16.0	0.00e+00	0	35	0	1512046592	73	4720
2026-01-01 00:12:27.02	165.15	49.43	-54.5	-56.2	15.9	0.00e+00	0	35	0	1515192320	74	4566
2026-01-01 00:12:28.02	165.49	49.16	-53.8	-55.3	16.4	0.00e+00	0	35	0	1518338048	74	4131
2026-01-01 00:12:29.02	165.83	48.88	-53.3	-54.7	16.7	0.00e+00	0	35	0	1521483776	73	4081
2026-01-01 00:12:30.02	166.16	48.60	-53.2	-54.6	16.7	0.00e+00	0	35	0	1524629504	72	4244
2026-01-01 00:12:31.02	166.48	48.33	-52.8	-54.2	16.9	0.00e+00	0	36	0	1527775232	72	4054
2026-01-01 00:12:32.03	166.80	48.05	-53.3	-54.7	16.7	0.00e+00	0	35	0	1530920960	72	4307
2026-01-01 00:12:33.03	167.12	47.78	-54.2	-55.8	16.1	0.00e+00	0	35	0	1534066688	73	4607
2026-01-01 00:12:34.03	167.42	47.50	-54.7	-56.5	15.7	0.00e+00	0	35	0	1537212416	74	4711
2026-01-01 00:12:35.03	167.73	47.23	-54.2	-55.8	16.0	0.00e+00	0	35	0	1540358144	74	4358
2026-01-01 00:12:36.02	168.02	46.96	-53.9	-55.4	16.2	0.00e+00	0	35	0	1543503872	74	4193
2026-01-01 00:12:37.01	168.31	46.70	-53.6	-55.1	16.4	0.00e+00	0	35	0	1546649600	73	4254
2026-01-01 00:12:38.01	168.60	46.43	-53.7	-55.2	16.4	0.00e+00	0	35	0	1549795328	73	4300
2026-01-01 00:12:39.01	168.88	46.16	-53.8	-55.4	16.3	0.00e+00	0	35	0	1552941056	73	4393
2026-01-01 00:12:40.00	169.16	45.90	-53.6	-55.2	16.4	0.00e+00	0	35	0	1555038208	73	4300
2026-01-01 00:12:41.00	169.43	45.63	-53.8	-55.4	16.3	0.00e+00	0	35	0	1558183936	73	4392
2026-01-01 00:12:41.99	169.70	45.37	-53.8	-55.3	16.3	0.00e+00	0	35	0	1561329664	73	4367
2026-01-01 00:12:43.00	169.97	45.10	-54.1	-55.7	16.1	0.00e+00	0	35	0	1564475392	73	4569
2026-01-01 00:12:44.00	170.23	44.84	-54.1	-55.8	16.1	0.00e+00	0	35	0	1567621120	73	4603
2026-01-01 00:12:45.00	170.48	44.58	-54.1	-55.8	16.1	0.00e+00	0	35	0	1570766848	73	4606
2026-01-01 00:12:46.01	170.74	44.31	-54.4	-56.1	15.9	0.00e+00	0	35	0	1573912576	73	4767
2026-01-01 00:12:47.01	170.99	44.05	-54.6	-56.4	15.6	0.00e+00	0	35	0	1577058304	74	4680
2026-01-01 00:12:48.00	171.23	43.80	-54.7	-56.4	15.7	0.00e+00	0	35	0	1580204032	74	4692
2026-01-01 00:12:49.00	171.47	43.54	-54.4	-56.1	15.9	0.00e+00	0	36	0	1583349760	74	4516
2026-01-01 00:12:49.99	171.70	43.29	-54.0	-55.6	16.1	0.00e+00	0	35	0	1586495488	74	4249
2026-01-01 00:12:50.99	171.94	43.03	-53.6	-55.0	16.5	0.00e+00	0	35	0	1589641216	73	4224
2026-01-01 00:12:51.99	172.17	42.78	-53.4	-54.8	16.6	0.00e+00	0	36	0	1592786944	73	4144
2026-01-01 00:12:52.99	172.39	42.53	-53.6	-55.1	16.5	0.00e+00	0	35	0	1595932672	73	4251
2026-01-01 00:12:53.98	172.61	42.28	-54.0	-55.6	16.2	0.00e+00	0	35	0	1599078400	73	4497
2026-01-01 00:12:54.98	172.83	42.03	-53.8	-55.3	16.3	0.00e+00	0	35	0	1602224128	73	4380
2026-01-01 00:12:55.98	173.05	41.78	-53.5	-55.0	16.5	0.00e+00	0	35	0	1605369856	73	4226
2026-01-01 00:12:56.97	173.26	41.54	-53.3	-54.8	16.6	0.00e+00	0	35	0	1608515584	73	4108
2026-01-01 00:12:57.96	173.47	41.29	-53.0	-54.5	16.8	0.00e+00	0	35	0	1611661312	72	4195
2026-01-01 00:12:58.96	173.67	41.05	-53.2	-54.7	16.7	0.00e+00	0	35	0	1614807040	72	4303
2026-01-01 00:12:59.96	173.88	40.80	-53.3	-54.7	16.6	0.00e+00	0	35	0	1617952768	72	4340
2026-01-01 00:13:00.95	174.07	40.56	-53.1	-54.5	16.7	0.00e+00	0	35	0	1621098496	72	4222
2026-01-01 00:13:01.95	174.27	40.32	-53.0	-54.5	16.8	0.00e+00	0	35	0	1624244224	72	4194
2026-01-01 00:13:02.95	174.47	40.08	-53.2	-54.6	16.7	0.00e+00	0	35	0	1627389952	72	4291
2026-01-01 00:13:03.95	174.66	39.84	-53.4	-54.9	16.5	0.00e+00	0	35	0	1630535680	72	4422
2026-01-01 00:13:04.95	174.85	39.61	-53.6	-55.1	16.4	0.00e+00	0	36	0	1633681408	72	4529
2026-01-01 00:13:05.95	175.04	39.37	-53.9	-55.5	16.2	0.00e+00	0	35	0	1636827136	73	4467
2026-01-01 00:13:06.95	175.22	39.14	-53.7	-55.3	16.3	0.00e+00	0	35	0	1639972864	73	4341
2026-01-01 00:13:07.95	175.40	38.90	-53.6	-55.2	16.4	0.00e+00	0	36	0	1643118592	73	4294
2026-01-01 00:13:08.94	175.58	38.67	-53.5	-55.0	16.5	0.00e+00	0	36	0	1646264320	73	4224
2026-01-01 00:13:09.94	175.75	38.44	-53.2	-54.7	16.6	0.00e+00	0	36	0	1649410048	73	4076
2026-01-01 00:13:10.94	175.93	38.21	-53.2	-54.7	16.6	0.00e+00	0	35	0	1652555776	73	4075
2026-01-01 00:13:11.93	176.10	37.99	-53.2	-54.7	16.5	0.00e+00	0	36	0	1655701504	72	4295
2026-01-01 00:13:12.93	176.27	37.76	-53.1	-54.6	16.5	0.00e+00	0	35	0	1658847232	72	4262
2026-01-01 00:13:13.92	176.43	37.54	-53.1	-54.6	16.5	0.00e+00	0	35	0	1661992960	72	4244
2026-01-01 00:13:14.92	176.60	37.31	-52.7	-54.1	16.8	0.00e+00	0	36	0	1665138688	72	4050
2026-01-01 00:13:15.93	176.76	37.09	-52.4	-53.8	17.0	0.00e+00	0	35	0	1667235840	71	4119
2026-01-01 00:13:16.92	176.92	36.87	-52.3	-53.6	17.1	0.00e+00	0	36	0	1670381568	71	4044
2026-01-01 00:13:17.92	177.08	36.64	-52.0	-53.3	17.3	0.00e+00	0	36	0	1673527296	70	4103
2026-01-01 00:13:18.92	177.24	36.43	-51.8	-53.0	17.4	0.00e+00	0	35	0	1676673024	70	3999
2026-01-01 00:13:19.92	177.39	36.21	-51.7	-53.0	17.4	0.00e+00	0	35	0	1679818752	70	3982
2026-01-01 00:13:20.92	177.55	35.99	-51.9	-53.2	17.3	0.00e+00	0	35	0	1682964480	70	4069
2026-01-01 00:13:21.92	177.70	35.77	-51.7	-53.0	17.4	0.00e+00	0	35	0	1686110208	70	3964
2026-01-01 00:13:22.92	177.84	35.56	-51.8	-53.1	17.4	0.00e+00	0	35	0	1689255936	70	4033
2026-01-01 00:13:23.91	177.99	35.35	-51.9	-53.2	17.3	0.00e+00	0	35	0	1692401664	70	4060
2026-01-01 00:13:24.90	178.13	35.14	-51.9	-53.2	17.2	0.00e+00	0	35	0	1695547392	70	4084
2026-01-01 00:13:25.90	178.28	34.93	-52.0	-53.2	17.2	0.00e+00	0	35	0	1698693120	70	4097
2026-01-01 00:13:26.90	178.42	34.72	-51.9	-53.2	17.2	0.00e+00	0	36	0	1701838848	70	4052
2026-01-01 00:13:27.90	178.56	34.51	-51.9	-53.2	17.3	0.00e+00	0	36	0	1704984576	70	4065
2026-01-01 00:13:28.90	178.69	34.30	-52.1	-53.3	17.3	0.00e+00	0	35	0	1708130304	70	4144
2026-01-01 00:13:29.91	178.83	34.09	-52.5	-53.9	17.0	0.00e+00	0	36	0	1711276032	70	4419
2026-01-01 00:13:30.91	178.97	33.89	-53.0	-54.4	16.7	0.00e+00	0	35	0	1714421760	71	4431
2026-01-01 00:13:31.91	179.10	33.68	-53.2	-54.7	16.6	0.00e+00	0	35	0	1717567488	71	4579
2026-01-01 00:13:32.90	179.23	33.48	-53.1	-54.6	16.6	0.00e+00	0	35	0	1720713216	71	4527
2026-01-01 00:13:33.90	179.36	33.28	-52.9	-54.4	16.7	0.00e+00	0	35	0	1723858944	71	4412
2026-01-01 00:13:34.90	179.49	33.08	-52.9	-54.4	16.7	0.00e+00	0	36	0	1727004672	71	4414
2026-01-01 00:13:35.89	179.61	32.89	-52.9	-54.4	16.7	0.00e+00	0	35	0	1730150400	71	4399
2026-01-01 00:13:36.89	179.74	32.69	-52.8	-54.2	16.8	0.00e+00	0	35	0	1733296128	71	4316
2026-01-01 00:13:37.87	179.86	32.49	-52.8	-54.2	16.8	0.00e+00	0	35	0	1736441856	71	4333
2026-01-01 00:13:38.87	179.98	32.30	-52.3	-53.6	17.1	0.00e+00	0	35	0	1739587584	71	4020
2026-01-01 00:13:39.87	180.10	32.10	-51.8	-53.1	17.3	0.00e+00	0	36	0	1742733312	70	4022
2026-01-01 00:13:40.87	180.22	31.91	-51.6	-52.8	17.4	0.00e+00	0	35	0	1745879040	69	4126
2026-01-01 00:13:41.86	180.34	31.72	-51.2	-52.4	17.6	0.00e+00	0	36	0	1749024768	68	4157
2026-01-01 00:13:42.86	180.46	31.53	-51.1	-52.3	17.7	0.00e+00	0	35	0	1752170496	68	4100
2026-01-01 00:13:43.86	180.57	31.34	-51.1	-52.3	17.7	0.00e+00	0	36	0	1755316224	68	4119
2026-01-01 00:13:44.86	180.69	31.15	-51.1	-52.3	17.7	0.00e+00	0	36	0	1758461952	68	4113
2026-01-01 00:13:45.85	180.80	30.96	-50.9	-52.1	17.7	0.00e+00	0	35	0	1761607680	68	4008
2026-01-01 00:13:46.85	180.91	30.78	-50.9	-52.0	17.7	0.00e+00	0	35	0	1764753408	68	3993
2026-01-01 00:13:47.84	181.02	30.59	-50.9	-52.1	17.7	0.00e+00	0	35	0	1767899136	68	4010
2026-01-01 00:13:48.84	181.13	30.41	-51.0	-52.1	17.6	0.00e+00	0	36	0	1771044864	68	4046
2026-01-01 00:13:49.84	181.24	30.23	-51.1	-52.2	17.6	0.00e+00	0	35	0	1774190592	68	4096
2026-01-01 00:13:50.83	181.34	30.05	-51.1	-52.4	17.5	0.00e+00	0	35	0	1776287744	68	4146
2026-01-01 00:13:51.83	181.45	29.86	-51.3	-52.5	17.5	0.00e+00	0	36	0	1779433472	68	4218
2026-01-01 00:13:52.82	181.55	29.69	-51.5	-52.7	17.5	0.00e+00	0	35	0	1782579200	68	4317
2026-01-01 00:13:53.82	181.66	29.51	-51.6	-52.8	17.4	0.00e+00	0	35	0	1785724928	68	4370
2026-01-01 00:13:54.81	181.76	29.33	-51.7	-52.9	17.3	0.00e+00	0	35	0	1788870656	68	4441
2026-01-01 00:13:55.81	181.86	29.15	-51.8	-53.1	17.3	0.00e+00	0	35	0	1792016384	68	4519
2026-01-01 00:13:56.80	181.96	28.98	-51.9	-53.2	17.2	0.00e+00	0	35	0	1795162112	68	4578
2026-01-01 00:13:57.80	182.06	28.80	-51.9	-53.3	17.2	0.00e+00	0	36	0	1798307840	69	4343
2026-01-01 00:13:58.80	182.16	28.63	-51.9	-53.3	17.2	0.00e+00	0	35	0	1801453568	69	4341
2026-01-01 00:13:59.80	182.25	28.45	-52.0	-53.4	17.2	0.00e+00	0	36	0	1804599296	69	4392
2026-01-01 00:14:00.79	182.35	28.28	-51.9	-53.2	17.2	0.00e+00	0	36	0	1807745024	69	4331
2026-01-01 00:14:01.79	182.45	28.11	-51.9	-53.3	17.2	0.00e+00	0	35	0	1810890752	69	4346
2026-01-01 00:14:02.79	182.54	27.94	-51.8	-53.1	17.3	0.00e+00	0	36	0	1814036480	69	4257
2026-01-01 00:14:03.79	182.63	27.77	-51.7	-53.0	17.3	0.00e+00	0	35	0	1817182208	69	4229
2026-01-01 00:14:04.79	182.73	27.60	-51.7	-53.0	17.3	0.00e+00	0	35	0	1820327936	69	4209
2026-01-01 00:14:05.79	182.82	27.44	-51.6	-52.9	17.4	0.00e+00	0	36	0	1823473664	69	4160
2026-01-01 00:14:06.79	182.91	27.27	-51.6	-52.9	17.4	0.00e+00	0	36	0	1826619392	69	4147
2026-01-01 00:14:07.79	183.00	27.10	-51.3	-52.6	17.5	0.00e+00	0	36	0	1829765120	69	4016
2026-01-01 00:14:08.79	183.09	26.94	-51.3	-52.6	17.5	0.00e+00	0	36	0	1832910848	69	4006
2026-01-01 00:14:09.78	183.17	26.78	-51.4	-52.6	17.5	0.00e+00	0	35	0	1836056576	69	4033
2026-01-01 00:14:10.78	183.26	26.62	-51.4	-52.6	17.5	0.00e+00	0	35	0	1839202304	69	4034
2026-01-01 00:14:11.78	183.35	26.45	-51.2	-52.4	17.6	0.00e+00	0	35	0	1842348032	69	3951
2026-01-01 00:14:12.77	183.43	26.29	-51.0	-52.1	17.7	0.00e+00	0	35	0	1845493760	68	4047
2026-01-01 00:14:13.77	183.52	26.13	-50.9	-52.0	17.7	0.00e+00	0	35	0	1848639488	68	3992
2026-01-01 00:14:14.77	183.60	25.97	-50.5	-51.6	17.8	0.00e+00	0	35	0	1851785216	67	4050
2026-01-01 00:14:15.76	183.68	25.82	-50.2	-51.4	17.9	0.00e+00	0	35	0	1854930944	67	3922
2026-01-01 00:14:16.76	183.76	25.66	-50.2	-51.3	17.9	0.00e+00	0	36	0	1858076672	67	3906
2026-01-01 00:14:17.75	183.85	25.51	-50.0	-51.1	18.0	0.00e+00	0	35	0	1861222400	66	4041
2026-01-01 00:14:18.75	183.93	25.35	-50.0	-51.1	18.0	0.00e+00	0	35	0	1864368128	66	4049
2026-01-01 00:14:19.75	184.01	25.19	-50.0	-51.1	18.0	0.00e+00	0	35	0	1867513856	66	4033
2026-01-01 00:14:20.75	184.09	25.04	-50.1	-51.2	18.0	0.00e+00	0	36	0	1870659584	66	4083
2026-01-01 00:14:21.74	184.16	24.89	-50.3	-51.4	17.9	0.00e+00	0	35	0	1873805312	66	4169
2026-01-01 00:14:22.74	184.24	24.74	-50.3	-51.5	17.9	0.00e+00	0	35	0	1876951040	66	4208
2026-01-01 00:14:23.73	184.32	24.59	-50.4	-51.6	17.8	0.00e+00	0	35	0	1880096768	66	4246
2026-01-01 00:14:24.73	184.39	24.44	-50.5	-51.6	17.8	0.00e+00	0	35	0	1883242496	66	4289
2026-01-01 00:14:25.73	184.47	24.29	-50.4	-51.6	17.8	0.00e+00	0	35	0	1885339648	66	4269
2026-01-01 00:14:26.73	184.55	24.14	-50.5	-51.7	17.8	0.00e+00	0	35	0	1888485376	66	4297
2026-01-01 00:14:27.73	184.62	23.99	-50.6	-51.8	17.7	0.00e+00	0	35	0	1891631104	66	4348
2026-01-01 00:14:28.72	184.69	23.84	-50.6	-51.8	17.7	0.00e+00	0	35	0	1894776832	66	4370
2026-01-01 00:14:29.73	184.77	23.69	-50.7	-51.8	17.7	0.00e+00	0	35	0	1897922560	66	4383
2026-01-01 00:14:30.72	184.84	23.55	-50.7	-51.9	17.7	0.00e+00	0	35	0	1901068288	66	4406
2026-01-01 00:14:31.72	184.91	23.40	-50.8	-52.1	17.7	0.00e+00	0	35	0	1904214016	66	4496
2026-01-01 00:14:32.71	184.98	23.26	-50.8	-52.0	17.7	0.00e+00	0	35	0	1907359744	66	4449
2026-01-01 00:14:33.72	185.05	23.12	-50.7	-51.9	17.7	0.00e+00	0	35	0	1910505472	66	4435
2026-01-01 00:14:34.72	185.12	22.97	-50.8	-52.0	17.6	0.00e+00	0	35	0	1913651200	66	4455
2026-01-01 00:14:35.71	185.19	22.83	-50.9	-52.1	17.6	0.00e+00	0	35	0	1916796928	66	4517
2026-01-01 00:14:36.71	185.26	22.69	-50.8	-52.0	17.6	0.00e+00	0	35	0	1919942656	67	4231
2026-01-01 00:14:37.71	185.33	22.55	-50.8	-52.0	17.7	0.00e+00	0	35	0	1923088384	67	4201
2026-01-01 00:14:38.70	185.40	22.41	-50.9	-52.1	17.6	0.00e+00	0	36	0	1926234112	67	4277
2026-01-01 00:14:39.70	185.46	22.27	-50.8	-52.0	17.6	0.00e+00	0	35	0	1929379840	67	4240
2026-01-01 00:14:40.69	185.53	22.13	-50.9	-52.1	17.6	0.00e+00	0	35	0	1932525568	67	4256
2026-01-01 00:14:41.69	185.59	22.00	-50.9	-52.2	17.6	0.00e+00	0	35	0	1935671296	67	4307
2026-01-01 00:14:42.68	185.66	21.86	-50.9	-52.1	17.6	0.00e+00	0	35	0	1938817024	67	4269
2026-01-01 00:14:43.67	185.72	21.73	-50.9	-52.1	17.6	0.00e+00	0	36	0	1941962752	67	4291
2026-01-01 00:14:44.67	185.79	21.59	-50.9	-52.2	17.6	0.00e+00	0	35	0	1945108480	67	4303
2026-01-01 00:14:45.67	185.85	21.46	-51.0	-52.2	17.6	0.00e+00	0	35	0	1948254208	67	4322
2026-01-01 00:14:46.67	185.91	21.32	-51.0	-52.2	17.6	0.00e+00	0	35	0	1951399936	67	4329
2026-01-01 00:14:47.67	185.98	21.19	-50.9	-52.1	17.6	0.00e+00	0	35	0	1954545664	67	4259
2026-01-01 00:14:48.67	186.04	21.05	-50.9	-52.1	17.6	0.00e+00	0	35	0	1957691392	67	4269
2026-01-01 00:14:49.67	186.10	20.92	-51.0	-52.3	17.6	0.00e+00	0	35	0	1960837120	67	4354
2026-01-01 00:14:50.66	186.16	20.79	-50.8	-52.1	17.6	0.00e+00	0	35	0	1963982848	67	4246
2026-01-01 00:14:51.66	186.22	20.66	-50.8	-52.1	17.6	0.00e+00	0	35	0	1967128576	67	4254
2026-01-01 00:14:52.66	186.28	20.53	-50.9	-52.1	17.6	0.00e+00	0	35	0	1970274304	67	4289
2026-01-01 00:14:53.66	186.34	20.40	-50.9	-52.1	17.6	0.00e+00	0	35	0	1973420032	67	4262
2026-01-01 00:14:54.66	186.40	20.27	-50.9	-52.2	17.6	0.00e+00	0	35	0	1976565760	67	4300
2026-01-01 00:14:55.66	186.46	20.14	-51.0	-52.2	17.6	0.00e+00	0	35	0	1979711488	67	4330
2026-01-01 00:14:56.65	186.52	20.02	-51.0	-52.2	17.6	0.00e+00	0	35	0	1982857216	67	4322
2026-01-01 00:14:57.64	186.58	19.89	-51.0	-52.2	17.6	0.00e+00	0	36	0	1986002944	67	4315
2026-01-01 00:14:58.64	186.64	19.76	-51.0	-52.2	17.6	0.00e+00	0	35	0	1989148672	67	4334
2026-01-01 00:14:59.63	186.69	19.64	-51.0	-52.3	17.5	0.00e+00	0	35	0	1992294400	67	4341
2026-01-01 00:15:00.63	186.75	19.51	-51.0	-52.2	17.5	0.00e+00	0	35	0	1995440128	67	4339
2026-01-01 00:15:01.62	186.80	19.39	-51.0	-52.2	17.5	0.00e+00	0	35	0	1997537280	67	4322
2026-01-01 00:15:02.62	186.86	19.27	-50.9	-52.1	17.6	0.00e+00	0	35	0	2000683008	67	4288
2026-01-01 00:15:03.62	186.92	19.14	-50.9	-52.1	17.6	0.00e+00	0	36	0	2003828736	67	4279
2026-01-01 00:15:04.62	186.97	19.02	-50.9	-52.1	17.6	0.00e+00	0	35	0	2006974464	67	4286
2026-01-01 00:15:05.62	187.03	18.90	-50.9	-52.1	17.6	0.00e+00	0	35	0	2010120192	67	4290
2026-01-01 00:15:06.62	187.08	18.78	-50.9	-52.1	17.6	0.00e+00	0	35	0	2013265920	67	4291
2026-01-01 00:15:07.62	187.13	18.65	-51.0	-52.2	17.6	0.00e+00	0	35	0	2016411648	67	4316
2026-01-01 00:15:08.62	187.19	18.53	-51.0	-52.2	17.6	0.00e+00	0	35	0	2019557376	67	4325
2026-01-01 00:15:09.62	187.24	18.41	-50.9	-52.1	17.6	0.00e+00	0	35	0	2022703104	67	4275
2026-01-01 00:15:10.61	187.29	18.29	-50.9	-52.1	17.6	0.00e+00	0	35	0	2025848832	67	4282
2026-01-01 00:15:11.61	187.34	18.18	-50.8	-52.1	17.6	0.00e+00	0	35	0	2028994560	67	4251
2026-01-01 00:15:12.62	187.40	18.06	-50.8	-52.1	17.6	0.00e+00	0	35	0	2032140288	67	4250
2026-01-01 00:15:13.62	187.45	17.94	-51.0	-52.2	17.5	0.00e+00	0	35	0	2035286016	67	4327
2026-01-01 00:15:14.62	187.50	17.82	-51.0	-52.2	17.5	0.00e+00	0	36	0	2038431744	67	4316
2026-01-01 00:15:15.62	187.55	17.70	-51.0	-52.3	17.5	0.00e+00	0	35	0	2041577472	67	4344
2026-01-01 00:15:16.63	187.60	17.59	-51.0	-52.3	17.5	0.00e+00	0	36	0	2044723200	67	4359
2026-01-01 00:15:17.62	187.65	17.47	-51.1	-52.4	17.4	0.00e+00	0	35	0	2047868928	67	4410
2026-01-01 00:15:18.62	187.70	17.36	-51.1	-52.3	17.4	0.00e+00	0	35	0	2051014656	67	4384
2026-01-01 00:15:19.61	187.75	17.24	-51.0	-52.3	17.4	0.00e+00	0	35	0	2054160384	67	4362
2026-01-01 00:15:20.61	187.80	17.13	-51.1	-52.3	17.4	0.00e+00	0	35	0	2057306112	67	4389
2026-01-01 00:15:21.61	187.85	17.02	-51.0	-52.3	17.5	0.00e+00	0	35	0	2060451840	67	4359
