passes_logs/2026/01/01/R3.2S_Murmansk/R3.2S_Murmansk__20260101_231317_KANOPUS-V_4_rec.log

#Pass ID: 20260101_231317_KANOPUS-V 4
#Satellite: KANOPUS-V 4
#Configuration: KANOPUS-V_8320
#almurnet v.1.7.20251203
#Start time: 2026-01-01 23:13:18

#Version: 2.2.20231116
#Station: R3.2S_Murmansk
#Location: 33.079688 lon 68.888172 lat
#TLE: 1 43181U 18014B   25365.57208584  .00000531  00000+0  25305-4 0  9998
#TLE: 2 43181  97.3700 269.4964 0001685  86.9371 273.2058 15.23323021439228

#Time	Az	El	Level	Level2	SNR	BER	BlckErr	Temp	State	Recorded	gain1	gain2
2026-01-01 23:13:18.33	21.47	2.06	-60.8	-70.5	3.8	7.45e-01	0	32	0	0	86	10649
2026-01-01 23:13:19.34	21.43	2.13	-60.8	-70.5	3.8	7.43e-01	0	32	104	0	86	10642
2026-01-01 23:13:20.33	21.40	2.20	-60.8	-70.5	3.8	7.46e-01	0	32	104	0	86	10624
2026-01-01 23:13:21.34	21.36	2.27	-60.8	-70.5	3.8	7.47e-01	0	32	104	0	86	10608
2026-01-01 23:13:22.35	21.32	2.33	-60.8	-70.5	3.8	7.45e-01	0	32	104	0	86	10627
2026-01-01 23:13:23.35	21.28	2.40	-60.8	-70.5	3.8	7.45e-01	0	32	104	0	86	10615
2026-01-01 23:13:24.35	21.24	2.47	-60.8	-70.5	3.8	7.46e-01	0	32	104	0	86	10622
2026-01-01 23:13:25.35	21.20	2.54	-60.8	-70.5	3.8	7.46e-01	0	32	104	0	86	10588
2026-01-01 23:13:26.35	21.16	2.61	-60.8	-70.5	3.8	7.45e-01	0	32	104	0	86	10621
2026-01-01 23:13:27.36	21.12	2.68	-60.8	-70.5	3.8	7.46e-01	0	32	104	0	86	10627
2026-01-01 23:13:28.35	21.08	2.75	-60.8	-70.5	3.8	7.46e-01	0	32	104	0	86	10647
2026-01-01 23:13:29.34	21.04	2.82	-60.8	-70.5	3.8	7.44e-01	0	32	104	0	86	10639
2026-01-01 23:13:30.34	21.00	2.90	-60.8	-70.5	3.8	7.45e-01	0	32	104	0	86	10619
2026-01-01 23:13:31.33	20.96	2.97	-60.8	-70.5	3.8	7.47e-01	0	32	104	0	86	10617
2026-01-01 23:13:32.33	20.92	3.04	-60.8	-70.5	3.8	7.45e-01	0	32	104	0	86	10588
2026-01-01 23:13:33.33	20.88	3.11	-60.8	-70.5	3.8	7.45e-01	0	32	104	0	86	10597
2026-01-01 23:13:34.34	20.83	3.18	-60.8	-70.5	3.8	7.47e-01	0	32	104	0	86	10629
2026-01-01 23:13:35.34	20.79	3.25	-60.8	-70.5	3.8	7.45e-01	0	32	104	0	86	10620
2026-01-01 23:13:36.33	20.75	3.33	-60.8	-70.5	3.8	7.46e-01	0	32	104	0	86	10610
2026-01-01 23:13:37.33	20.71	3.40	-60.8	-70.5	3.8	7.44e-01	0	32	104	0	86	10622
2026-01-01 23:13:38.32	20.66	3.47	-60.8	-70.5	3.8	7.46e-01	0	32	104	0	86	10626
2026-01-01 23:13:39.32	20.62	3.54	-60.8	-70.5	3.8	7.45e-01	0	32	104	0	86	10631
2026-01-01 23:13:40.32	20.58	3.62	-60.8	-70.5	3.8	7.45e-01	0	32	104	0	86	10581
2026-01-01 23:13:41.31	20.53	3.69	-60.8	-70.5	3.8	7.45e-01	0	33	104	0	86	10585
2026-01-01 23:13:42.32	20.49	3.76	-60.8	-70.5	3.8	7.45e-01	0	32	104	0	86	10613
2026-01-01 23:13:43.31	20.44	3.84	-60.8	-70.5	3.8	7.45e-01	0	32	104	0	86	10605
2026-01-01 23:13:44.31	20.40	3.91	-60.8	-70.5	3.8	7.45e-01	0	32	104	0	86	10590
2026-01-01 23:13:45.31	20.35	3.99	-60.8	-70.5	3.8	7.45e-01	0	33	104	0	86	10588
2026-01-01 23:13:46.32	20.31	4.06	-60.8	-70.5	3.8	7.46e-01	0	32	104	0	86	10611
2026-01-01 23:13:47.32	20.26	4.14	-60.8	-70.5	3.8	7.46e-01	0	32	104	0	86	10645
2026-01-01 23:13:48.31	20.22	4.21	-60.8	-70.5	3.9	7.45e-01	0	33	104	0	86	10636
2026-01-01 23:13:49.31	20.17	4.29	-60.8	-70.5	3.8	7.44e-01	0	33	104	0	86	10594
2026-01-01 23:13:50.31	20.12	4.36	-60.8	-70.5	3.8	7.47e-01	0	33	104	0	86	10617
2026-01-01 23:13:51.31	20.08	4.44	-60.8	-70.5	3.8	7.46e-01	0	33	104	0	86	10604
2026-01-01 23:13:52.30	20.03	4.51	-60.8	-70.5	3.8	7.45e-01	0	33	104	0	86	10580
2026-01-01 23:13:53.31	19.98	4.59	-60.8	-70.5	3.8	7.46e-01	0	32	104	0	86	10619
2026-01-01 23:13:54.31	19.93	4.67	-60.8	-70.5	3.8	7.46e-01	0	33	104	0	86	10551
2026-01-01 23:13:55.31	19.88	4.75	-60.8	-70.5	3.8	7.44e-01	0	33	104	0	86	10625
2026-01-01 23:13:56.30	19.83	4.82	-60.8	-70.5	3.8	7.44e-01	0	33	104	0	86	10623
2026-01-01 23:13:57.30	19.78	4.90	-60.8	-70.5	3.8	7.44e-01	0	33	104	0	86	10579
2026-01-01 23:13:58.29	19.74	4.98	-60.8	-70.5	3.8	7.45e-01	0	33	104	0	86	10587
2026-01-01 23:13:59.30	19.68	5.06	-60.8	-70.5	3.8	7.46e-01	0	33	104	0	86	10602
2026-01-01 23:14:00.30	19.63	5.14	-60.8	-70.5	3.8	7.45e-01	0	33	104	0	86	10652
2026-01-01 23:14:01.31	19.58	5.22	-60.9	-70.6	3.8	7.46e-01	0	33	104	0	86	10699
2026-01-01 23:14:02.30	19.53	5.29	-60.8	-70.5	3.8	7.45e-01	0	33	104	0	86	10568
2026-01-01 23:14:03.31	19.48	5.37	-60.9	-70.6	3.8	7.45e-01	0	33	104	0	86	10743
2026-01-01 23:14:04.31	19.43	5.45	-60.8	-70.5	3.8	7.44e-01	0	33	104	0	86	10582
2026-01-01 23:14:05.31	19.38	5.53	-60.9	-70.6	3.8	7.46e-01	0	33	104	0	86	10698
2026-01-01 23:14:06.31	19.32	5.62	-60.8	-70.5	3.8	7.46e-01	0	33	104	0	86	10592
2026-01-01 23:14:07.32	19.27	5.70	-60.9	-70.6	3.8	7.45e-01	0	33	104	0	86	10704
2026-01-01 23:14:08.32	19.22	5.78	-60.8	-70.5	3.8	7.47e-01	0	33	104	0	86	10595
2026-01-01 23:14:09.33	19.16	5.86	-60.9	-70.6	3.8	7.47e-01	0	33	104	0	86	10760
2026-01-01 23:14:10.33	19.11	5.94	-60.8	-70.5	3.8	7.46e-01	0	33	104	0	86	10622
2026-01-01 23:14:11.33	19.05	6.02	-60.9	-70.6	3.8	7.46e-01	0	33	104	0	86	10761
2026-01-01 23:14:12.31	19.00	6.10	-60.8	-70.5	3.8	7.46e-01	0	33	104	0	86	10652
2026-01-01 23:14:13.31	18.94	6.19	-60.9	-70.7	3.8	7.46e-01	0	33	104	0	86	10816
2026-01-01 23:14:14.30	18.89	6.27	-60.8	-70.5	3.8	7.44e-01	0	33	104	0	86	10645
2026-01-01 23:14:15.30	18.83	6.35	-60.9	-70.7	3.8	7.47e-01	0	33	104	0	86	10798
2026-01-01 23:14:16.29	18.77	6.44	-60.9	-70.6	3.8	7.46e-01	0	33	104	0	86	10719
2026-01-01 23:14:17.29	18.72	6.52	-61.0	-70.7	3.8	7.46e-01	0	33	104	0	86	10813
2026-01-01 23:14:18.29	18.66	6.60	-60.9	-70.6	3.8	7.46e-01	0	33	104	0	86	10684
2026-01-01 23:14:19.29	18.60	6.69	-61.0	-70.7	3.8	7.46e-01	0	33	104	0	86	10824
2026-01-01 23:14:20.29	18.54	6.77	-60.9	-70.6	3.8	7.45e-01	0	33	104	0	86	10719
2026-01-01 23:14:21.30	18.48	6.86	-61.0	-70.7	3.8	7.46e-01	0	33	104	0	86	10862
2026-01-01 23:14:22.29	18.42	6.95	-60.9	-70.6	3.8	7.45e-01	0	33	104	0	86	10771
2026-01-01 23:14:23.28	18.36	7.03	-61.0	-70.7	3.8	7.46e-01	0	33	104	0	86	10803
2026-01-01 23:14:24.28	18.30	7.12	-60.9	-70.6	3.8	7.45e-01	0	33	104	0	86	10762
2026-01-01 23:14:25.28	18.24	7.20	-61.0	-70.7	3.8	7.45e-01	0	33	104	0	86	10876
2026-01-01 23:14:26.28	18.18	7.29	-60.9	-70.6	3.8	7.44e-01	0	33	104	0	86	10771
2026-01-01 23:14:27.28	18.12	7.38	-61.0	-70.7	3.8	7.45e-01	0	33	104	0	86	10903
2026-01-01 23:14:28.28	18.05	7.47	-60.9	-70.6	3.8	7.45e-01	0	33	104	0	86	10766
2026-01-01 23:14:29.29	17.99	7.56	-61.0	-70.8	3.8	7.47e-01	0	33	104	0	86	10909
2026-01-01 23:14:30.29	17.93	7.65	-61.0	-70.7	3.8	7.46e-01	0	33	104	0	86	10805
2026-01-01 23:14:31.29	17.86	7.74	-61.0	-70.8	3.8	7.45e-01	0	33	104	0	86	10941
2026-01-01 23:14:32.29	17.80	7.82	-61.0	-70.7	3.8	7.47e-01	0	33	104	0	86	10824
2026-01-01 23:14:33.28	17.73	7.91	-61.1	-70.8	3.8	7.45e-01	0	33	104	0	86	10966
2026-01-01 23:14:34.29	17.67	8.01	-61.0	-70.7	3.8	7.45e-01	0	33	104	0	86	10885
2026-01-01 23:14:35.28	17.60	8.10	-61.1	-70.8	3.8	7.47e-01	0	33	104	0	86	10971
2026-01-01 23:14:36.28	17.53	8.19	-61.0	-70.7	3.8	7.46e-01	0	33	104	0	86	10856
2026-01-01 23:14:37.28	17.47	8.28	-61.1	-70.8	3.8	7.45e-01	0	33	104	0	86	11007
2026-01-01 23:14:38.27	17.40	8.37	-61.0	-70.7	3.8	7.44e-01	0	33	104	0	86	10889
2026-01-01 23:14:39.27	17.33	8.46	-61.1	-70.8	3.8	7.47e-01	0	33	104	0	86	11016
2026-01-01 23:14:40.26	17.26	8.55	-61.0	-70.8	3.9	7.45e-01	0	33	104	0	86	10924
2026-01-01 23:14:41.26	17.19	8.65	-61.1	-70.9	3.8	7.46e-01	0	33	104	0	86	11056
2026-01-01 23:14:42.25	17.12	8.74	-61.0	-70.8	3.8	7.46e-01	0	33	104	0	86	10920
2026-01-01 23:14:43.25	17.05	8.83	-61.1	-70.9	3.8	7.45e-01	0	33	104	0	86	11033
2026-01-01 23:14:44.25	16.98	8.93	-61.1	-70.8	3.8	7.46e-01	0	33	104	0	86	10964
2026-01-01 23:14:45.24	16.91	9.02	-61.1	-70.8	3.8	7.44e-01	0	33	104	0	86	11023
2026-01-01 23:14:46.24	16.84	9.12	-61.1	-70.8	3.8	7.45e-01	0	33	104	0	86	10982
2026-01-01 23:14:47.24	16.76	9.21	-61.2	-70.9	3.8	7.45e-01	0	33	104	0	86	11093
2026-01-01 23:14:48.23	16.69	9.31	-61.1	-70.8	3.8	7.45e-01	0	33	104	0	86	10985
2026-01-01 23:14:49.23	16.61	9.41	-61.2	-70.9	3.8	7.46e-01	0	33	104	0	86	11105
2026-01-01 23:14:50.22	16.54	9.50	-61.1	-70.8	3.8	7.43e-01	0	33	104	0	86	10999
2026-01-01 23:14:51.22	16.46	9.60	-61.2	-70.9	3.8	7.45e-01	0	33	104	0	86	11129
2026-01-01 23:14:52.22	16.39	9.70	-61.1	-70.9	3.8	7.44e-01	0	33	104	0	86	11032
2026-01-01 23:14:53.22	16.31	9.80	-61.2	-71.0	3.8	7.46e-01	0	33	104	0	86	11171
2026-01-01 23:14:54.22	16.23	9.90	-61.1	-70.8	3.8	7.46e-01	0	33	104	0	86	11019
2026-01-01 23:14:55.22	16.15	10.00	-61.2	-70.9	3.8	7.45e-01	0	33	104	0	86	11139
2026-01-01 23:14:56.22	16.07	10.10	-61.1	-70.9	3.8	7.46e-01	0	34	104	0	86	11065
2026-01-01 23:14:57.21	15.99	10.20	-61.2	-70.9	3.8	7.45e-01	0	33	104	0	86	11146
2026-01-01 23:14:58.21	15.91	10.30	-61.2	-70.9	3.8	7.46e-01	0	33	104	0	86	11091
2026-01-01 23:14:59.21	15.83	10.40	-61.3	-71.0	3.8	7.44e-01	0	34	104	0	86	11212
2026-01-01 23:15:00.21	15.75	10.50	-61.2	-70.9	3.8	7.45e-01	0	33	104	0	86	11101
2026-01-01 23:15:01.21	15.67	10.60	-61.3	-71.0	3.8	7.46e-01	0	33	104	0	86	11211
2026-01-01 23:15:02.21	15.58	10.71	-61.2	-70.9	3.8	7.46e-01	0	33	104	0	86	11121
2026-01-01 23:15:03.21	15.50	10.81	-61.3	-71.0	3.8	7.46e-01	0	33	104	0	86	11196
2026-01-01 23:15:04.22	15.41	10.92	-61.2	-70.9	3.8	7.45e-01	0	33	104	0	86	11086
2026-01-01 23:15:05.22	15.33	11.02	-61.3	-71.0	3.8	7.45e-01	0	33	104	0	86	11256
2026-01-01 23:15:06.21	15.24	11.13	-61.2	-70.9	3.8	7.45e-01	0	34	104	0	86	11125
2026-01-01 23:15:07.21	15.15	11.23	-61.3	-71.0	3.8	7.45e-01	0	33	104	0	86	11257
2026-01-01 23:15:08.22	15.06	11.34	-61.2	-71.0	3.8	7.45e-01	0	33	104	0	86	11209
2026-01-01 23:15:09.21	14.97	11.45	-61.3	-71.1	3.8	7.45e-01	0	34	104	0	86	11296
2026-01-01 23:15:10.21	14.88	11.55	-61.3	-71.0	3.8	7.47e-01	0	34	104	0	86	11167
2026-01-01 23:15:11.21	14.79	11.66	-61.3	-71.1	3.8	7.45e-01	0	34	104	0	86	11312
2026-01-01 23:15:12.20	14.70	11.77	-61.3	-71.0	3.8	7.47e-01	0	33	104	0	86	11243
2026-01-01 23:15:13.20	14.61	11.88	-61.3	-71.1	3.8	7.46e-01	0	34	104	0	86	11311
2026-01-01 23:15:14.19	14.52	11.99	-61.3	-71.0	3.8	7.46e-01	0	34	104	0	86	11230
2026-01-01 23:15:15.19	14.42	12.10	-61.4	-71.1	3.8	7.46e-01	0	34	104	0	86	11350
2026-01-01 23:15:16.18	14.33	12.21	-61.3	-71.0	3.8	7.46e-01	0	34	104	0	86	11249
2026-01-01 23:15:17.19	14.23	12.32	-61.4	-71.1	3.8	7.46e-01	0	33	104	0	86	11315
2026-01-01 23:15:18.19	14.13	12.43	-61.3	-71.0	3.8	7.45e-01	0	33	104	0	86	11252
2026-01-01 23:15:19.19	14.04	12.55	-61.4	-71.1	3.8	7.46e-01	0	33	104	0	86	11361
2026-01-01 23:15:20.19	13.94	12.66	-61.3	-71.0	3.8	7.45e-01	0	34	104	0	86	11264
2026-01-01 23:15:21.18	13.84	12.77	-61.4	-71.1	3.8	7.46e-01	0	33	104	0	86	11393
2026-01-01 23:15:22.18	13.74	12.89	-61.3	-71.0	3.8	7.45e-01	0	33	104	0	86	11278
2026-01-01 23:15:23.18	13.63	13.00	-61.4	-71.1	3.8	7.45e-01	0	33	104	0	86	11415
2026-01-01 23:15:24.19	13.53	13.12	-61.4	-71.0	3.8	7.46e-01	0	34	104	0	86	11268
2026-01-01 23:15:25.18	13.43	13.24	-61.4	-71.1	3.8	7.46e-01	0	34	104	0	86	11415
2026-01-01 23:15:26.19	13.32	13.35	-61.4	-71.1	3.8	7.46e-01	0	34	104	0	86	11316
2026-01-01 23:15:27.18	13.22	13.47	-61.4	-71.1	3.8	7.46e-01	0	34	104	0	86	11415
2026-01-01 23:15:28.18	13.11	13.59	-61.4	-71.1	3.8	7.46e-01	0	33	104	0	86	11315
2026-01-01 23:15:29.18	13.00	13.71	-61.4	-71.2	3.8	7.45e-01	0	34	104	0	86	11454
2026-01-01 23:15:30.18	12.89	13.83	-61.4	-71.1	3.8	7.47e-01	0	34	104	0	86	11363
2026-01-01 23:15:31.18	12.78	13.95	-61.5	-71.2	3.8	7.45e-01	0	34	104	0	86	11476
2026-01-01 23:15:32.18	12.67	14.07	-61.4	-71.1	3.8	7.45e-01	0	33	104	0	86	11357
2026-01-01 23:15:33.17	12.56	14.19	-61.5	-71.2	3.8	7.46e-01	0	33	104	0	86	11449
2026-01-01 23:15:34.17	12.44	14.32	-61.4	-71.1	3.8	7.47e-01	0	33	104	0	86	11411
2026-01-01 23:15:35.17	12.33	14.44	-61.5	-71.2	3.8	7.45e-01	0	33	104	0	86	11489
2026-01-01 23:15:36.17	12.21	14.56	-61.4	-71.1	3.8	7.47e-01	0	34	104	0	86	11411
2026-01-01 23:15:37.16	12.10	14.69	-61.5	-71.2	3.8	7.45e-01	0	34	104	0	86	11516
2026-01-01 23:15:38.16	11.98	14.81	-61.4	-71.2	3.8	7.45e-01	0	34	104	0	86	11450
2026-01-01 23:15:39.15	11.86	14.94	-61.5	-71.2	3.8	7.45e-01	0	34	104	0	86	11528
2026-01-01 23:15:40.14	11.74	15.07	-61.4	-71.2	3.8	7.45e-01	0	34	104	0	86	11454
2026-01-01 23:15:41.14	11.62	15.19	-61.5	-71.2	3.8	7.46e-01	0	34	104	0	86	11511
2026-01-01 23:15:42.13	11.49	15.32	-61.5	-71.2	3.8	7.45e-01	0	34	104	0	86	11475
2026-01-01 23:15:43.12	11.37	15.45	-61.5	-71.3	3.8	7.45e-01	0	33	104	0	86	11550
2026-01-01 23:15:44.12	11.24	15.58	-61.5	-71.2	3.8	7.47e-01	0	34	104	0	86	11418
2026-01-01 23:15:45.12	11.12	15.71	-61.6	-71.3	3.8	7.46e-01	0	34	104	0	86	11587
2026-01-01 23:15:46.11	10.99	15.84	-61.5	-71.2	3.8	7.46e-01	0	34	104	0	86	11493
2026-01-01 23:15:47.11	10.86	15.98	-61.6	-71.3	3.8	7.46e-01	0	33	104	0	86	11554
2026-01-01 23:15:48.10	10.73	16.11	-61.5	-71.2	3.8	7.47e-01	0	33	104	0	86	11453
2026-01-01 23:15:49.10	10.59	16.24	-61.6	-71.3	3.8	7.43e-01	0	34	104	0	86	11610
2026-01-01 23:15:50.09	10.46	16.38	-61.5	-71.2	3.8	7.46e-01	0	33	104	0	86	11501
2026-01-01 23:15:51.09	10.33	16.51	-61.6	-71.3	3.8	7.46e-01	0	34	104	0	86	11565
2026-01-01 23:15:52.09	10.19	16.65	-61.5	-71.2	3.8	7.47e-01	0	34	104	0	86	11540
2026-01-01 23:15:53.08	10.05	16.79	-61.6	-71.3	3.8	7.45e-01	0	33	104	0	86	11654
2026-01-01 23:15:54.08	9.91	16.92	-61.5	-71.3	3.8	7.46e-01	0	33	104	0	86	11595
2026-01-01 23:15:55.08	9.77	17.06	-61.6	-71.3	3.8	7.46e-01	0	33	104	0	86	11593
2026-01-01 23:15:56.07	9.62	17.20	-61.5	-71.3	3.8	7.46e-01	0	34	104	0	86	11556
2026-01-01 23:15:57.07	9.48	17.34	-61.6	-71.3	3.8	7.46e-01	0	33	104	0	86	11647
2026-01-01 23:15:58.06	9.33	17.48	-61.6	-71.3	3.8	7.45e-01	0	34	104	0	86	11613
2026-01-01 23:15:59.06	9.18	17.63	-61.6	-71.3	3.8	7.45e-01	0	34	104	0	86	11675
2026-01-01 23:16:00.05	9.04	17.77	-61.6	-71.3	3.8	7.47e-01	0	34	104	0	86	11571
2026-01-01 23:16:01.05	8.88	17.91	-61.6	-71.4	3.8	7.46e-01	0	34	104	0	86	11745
2026-01-01 23:16:02.06	8.73	18.06	-61.6	-71.3	3.8	7.45e-01	0	34	104	0	86	11638
2026-01-01 23:16:03.06	8.57	18.21	-61.7	-71.4	3.8	7.45e-01	0	34	104	0	86	11691
2026-01-01 23:16:04.05	8.42	18.35	-61.6	-71.3	3.8	7.45e-01	0	34	104	0	86	11665
2026-01-01 23:16:05.04	8.26	18.50	-61.7	-71.4	3.8	7.44e-01	0	34	104	0	86	11716
2026-01-01 23:16:06.04	8.10	18.65	-61.6	-71.4	3.8	7.45e-01	0	34	104	0	86	11696
2026-01-01 23:16:07.04	7.93	18.80	-61.7	-71.4	3.8	7.45e-01	0	34	104	0	86	11749
2026-01-01 23:16:08.04	7.77	18.95	-61.6	-71.3	3.8	7.45e-01	0	34	104	0	86	11644
2026-01-01 23:16:09.04	7.60	19.10	-61.7	-71.4	3.8	7.44e-01	0	34	104	0	86	11754
2026-01-01 23:16:10.04	7.43	19.26	-61.7	-71.4	3.8	7.45e-01	0	34	104	0	86	11726
2026-01-01 23:16:11.04	7.26	19.41	-61.7	-71.4	3.8	7.47e-01	0	34	104	0	86	11798
2026-01-01 23:16:12.04	7.09	19.57	-61.7	-71.4	3.8	7.45e-01	0	34	104	0	86	11742
2026-01-01 23:16:13.04	6.91	19.72	-61.7	-71.5	3.8	7.45e-01	0	34	104	0	86	11875
2026-01-01 23:16:14.04	6.74	19.88	-61.7	-71.4	3.8	7.47e-01	0	34	104	0	86	11775
2026-01-01 23:16:15.03	6.56	20.04	-61.8	-71.4	3.8	7.47e-01	0	33	104	0	86	11811
2026-01-01 23:16:16.03	6.38	20.20	-61.7	-71.4	3.8	7.44e-01	0	33	104	0	86	11782
2026-01-01 23:16:17.03	6.19	20.36	-61.8	-71.5	3.8	7.46e-01	0	34	104	0	86	11840
2026-01-01 23:16:18.03	6.01	20.52	-61.7	-71.4	3.8	7.45e-01	0	33	104	0	86	11790
2026-01-01 23:16:19.04	5.82	20.68	-61.8	-71.5	3.8	7.44e-01	0	34	104	0	86	11866
2026-01-01 23:16:20.04	5.63	20.84	-61.7	-71.4	3.8	7.43e-01	0	34	104	0	86	11784
2026-01-01 23:16:21.03	5.44	21.01	-61.8	-71.5	3.8	7.45e-01	0	33	104	0	86	11936
2026-01-01 23:16:22.03	5.24	21.17	-61.7	-71.5	3.8	7.45e-01	0	33	104	0	86	11826
2026-01-01 23:16:23.03	5.04	21.34	-61.8	-71.5	3.8	7.46e-01	0	34	104	0	86	11901
2026-01-01 23:16:24.03	4.84	21.51	-61.7	-71.5	3.8	7.45e-01	0	33	104	0	86	11827
2026-01-01 23:16:25.03	4.64	21.67	-61.8	-71.5	3.8	7.45e-01	0	33	104	0	86	11894
2026-01-01 23:16:26.03	4.43	21.84	-61.8	-71.5	3.8	7.45e-01	0	34	104	0	86	11881
2026-01-01 23:16:27.02	4.23	22.01	-61.8	-71.6	3.8	7.47e-01	0	34	104	0	86	11963
2026-01-01 23:16:28.03	4.02	22.19	-61.8	-71.5	3.8	7.46e-01	0	34	104	0	86	11874
2026-01-01 23:16:29.03	3.80	22.36	-61.8	-71.5	3.8	7.46e-01	0	34	104	0	86	11948
2026-01-01 23:16:30.02	3.59	22.53	-61.8	-71.5	3.9	7.46e-01	0	34	104	0	86	11918
2026-01-01 23:16:31.01	3.37	22.70	-61.9	-71.6	3.8	7.46e-01	0	34	104	0	86	11993
2026-01-01 23:16:32.01	3.15	22.88	-61.8	-71.5	3.8	7.48e-01	0	34	104	0	86	11922
2026-01-01 23:16:33.01	2.93	23.06	-61.9	-71.6	3.8	7.45e-01	0	34	104	0	86	12019
2026-01-01 23:16:34.01	2.70	23.23	-61.8	-71.5	3.8	7.45e-01	0	34	104	0	86	11934
2026-01-01 23:16:35.00	2.47	23.41	-61.9	-71.6	3.8	7.46e-01	0	34	104	0	86	12030
2026-01-01 23:16:36.00	2.24	23.59	-61.8	-71.6	3.8	7.44e-01	0	34	104	0	86	11966
2026-01-01 23:16:36.99	2.00	23.77	-61.9	-71.6	3.8	7.45e-01	0	34	104	0	86	12056
2026-01-01 23:16:37.98	1.76	23.95	-61.9	-71.6	3.8	7.45e-01	0	34	104	0	86	12048
2026-01-01 23:16:38.98	1.52	24.13	-61.9	-71.6	3.8	7.45e-01	0	34	104	0	87	11373
2026-01-01 23:16:39.97	1.28	24.32	-61.9	-71.6	3.8	7.47e-01	0	34	104	0	87	11298
2026-01-01 23:16:40.97	1.03	24.50	-61.9	-71.6	3.8	7.47e-01	0	34	104	0	87	11381
2026-01-01 23:16:41.96	0.78	24.69	-61.9	-71.6	3.8	7.45e-01	0	34	104	0	87	11342
2026-01-01 23:16:42.95	0.53	24.87	-61.9	-71.7	3.8	7.46e-01	0	34	104	0	87	11425
2026-01-01 23:16:43.95	0.27	25.06	-61.9	-71.6	3.8	7.46e-01	0	34	104	0	87	11378
2026-01-01 23:16:44.94	0.01	25.25	-62.0	-71.7	3.8	7.45e-01	0	34	104	0	87	11444
2026-01-01 23:16:45.93	359.74	25.44	-61.9	-71.6	3.8	7.44e-01	0	34	104	0	87	11388
2026-01-01 23:16:46.93	359.47	25.63	-62.0	-71.7	3.8	7.45e-01	0	34	104	0	87	11492
2026-01-01 23:16:47.92	359.20	25.82	-61.9	-71.7	3.8	7.47e-01	0	34	104	0	87	11459
2026-01-01 23:16:48.92	358.92	26.02	-62.0	-71.7	3.8	7.46e-01	0	33	104	0	87	11511
2026-01-01 23:16:49.91	358.64	26.21	-62.0	-71.7	3.8	7.45e-01	0	34	104	0	87	11501
2026-01-01 23:16:50.91	358.36	26.41	-62.0	-71.7	3.8	7.45e-01	0	34	104	0	87	11546
2026-01-01 23:16:51.91	358.07	26.60	-62.0	-71.7	3.8	7.45e-01	0	34	104	0	87	11479
2026-01-01 23:16:52.91	357.78	26.80	-62.0	-71.8	3.8	7.45e-01	0	34	104	0	87	11563
2026-01-01 23:16:53.91	357.48	27.00	-62.0	-71.7	3.8	7.46e-01	0	34	104	0	87	11513
2026-01-01 23:16:54.90	357.18	27.20	-62.1	-71.7	3.8	7.46e-01	0	34	104	0	87	11511
2026-01-01 23:16:55.91	356.87	27.40	-62.0	-71.7	3.8	7.45e-01	0	34	104	0	87	11508
2026-01-01 23:16:56.91	356.56	27.60	-62.1	-71.8	3.8	7.45e-01	0	34	104	0	87	11555
2026-01-01 23:16:57.91	356.25	27.80	-62.0	-71.7	3.8	7.45e-01	0	34	104	0	87	11521
2026-01-01 23:16:58.90	355.93	28.01	-62.1	-71.8	3.8	7.46e-01	0	34	104	0	87	11614
2026-01-01 23:16:59.90	355.61	28.21	-62.1	-71.7	3.8	7.45e-01	0	34	104	0	87	11540
2026-01-01 23:17:00.90	355.28	28.42	-62.1	-71.8	3.8	7.47e-01	0	34	104	0	87	11675
2026-01-01 23:17:01.90	354.94	28.62	-62.1	-71.8	3.8	7.46e-01	0	34	104	0	87	11580
2026-01-01 23:17:02.91	354.60	28.83	-62.1	-71.8	3.8	7.45e-01	0	33	104	0	87	11664
2026-01-01 23:17:03.91	354.26	29.04	-62.1	-71.8	3.8	7.45e-01	0	34	104	0	87	11619
2026-01-01 23:17:04.90	353.92	29.25	-62.1	-71.8	3.8	7.45e-01	0	34	104	0	87	11654
2026-01-01 23:17:05.90	353.56	29.46	-62.1	-71.8	3.8	7.46e-01	0	34	104	0	87	11654
2026-01-01 23:17:06.90	353.21	29.67	-62.2	-71.9	3.8	7.45e-01	0	34	104	0	87	11738
2026-01-01 23:17:07.91	352.84	29.88	-62.1	-71.8	3.8	7.45e-01	0	34	104	0	87	11669
2026-01-01 23:17:08.90	352.48	30.09	-62.2	-71.9	3.8	7.45e-01	0	34	104	0	87	11713
2026-01-01 23:17:09.91	352.10	30.30	-62.2	-71.9	3.8	7.46e-01	0	34	104	0	87	11727
2026-01-01 23:17:10.90	351.72	30.51	-62.2	-71.9	3.8	7.46e-01	0	34	104	0	87	11786
2026-01-01 23:17:11.91	351.34	30.73	-62.2	-71.9	3.8	7.44e-01	0	34	104	0	87	11687
2026-01-01 23:17:12.91	350.95	30.94	-62.2	-71.9	3.8	7.43e-01	0	34	104	0	87	11773
2026-01-01 23:17:13.91	350.55	31.16	-62.2	-71.9	3.8	7.45e-01	0	34	104	0	87	11770
2026-01-01 23:17:14.90	350.15	31.37	-62.2	-72.0	3.8	7.42e-01	0	34	104	0	87	11819
2026-01-01 23:17:15.91	349.74	31.59	-62.2	-71.9	3.8	7.46e-01	0	34	104	0	87	11812
2026-01-01 23:17:16.90	349.33	31.80	-62.3	-72.0	3.8	7.46e-01	0	34	104	0	87	11853
2026-01-01 23:17:17.90	348.91	32.01	-62.3	-72.0	3.8	7.47e-01	0	34	104	0	87	11827
2026-01-01 23:17:18.90	348.49	32.23	-62.3	-72.0	3.8	7.45e-01	0	34	104	0	87	11916
2026-01-01 23:17:19.90	348.06	32.45	-62.2	-71.9	3.8	7.46e-01	0	34	104	0	87	11818
2026-01-01 23:17:20.89	347.63	32.66	-62.3	-72.1	3.8	7.46e-01	0	34	104	0	87	11956
2026-01-01 23:17:21.90	347.18	32.88	-62.3	-72.0	3.8	7.45e-01	0	34	104	0	87	11894
2026-01-01 23:17:22.90	346.73	33.09	-62.4	-72.1	3.8	7.46e-01	0	34	104	0	87	11967
2026-01-01 23:17:23.89	346.28	33.31	-62.3	-72.0	3.8	7.45e-01	0	34	104	0	87	11918
2026-01-01 23:17:24.89	345.81	33.52	-62.3	-72.1	3.8	7.47e-01	0	34	104	0	87	11981
2026-01-01 23:17:25.89	345.34	33.74	-62.3	-72.0	3.8	7.44e-01	0	34	104	0	87	11934
2026-01-01 23:17:26.90	344.86	33.95	-62.4	-72.1	3.8	7.46e-01	0	34	104	0	87	11996
2026-01-01 23:17:27.90	344.38	34.17	-62.3	-72.1	3.8	7.45e-01	0	34	104	0	87	11962
2026-01-01 23:17:28.89	343.89	34.38	-62.4	-72.1	3.8	7.45e-01	0	34	104	0	87	11987
2026-01-01 23:17:29.89	343.40	34.59	-62.4	-72.1	3.8	7.46e-01	0	34	104	0	87	12031
2026-01-01 23:17:30.89	342.89	34.81	-62.4	-72.1	3.8	7.46e-01	0	34	104	0	87	12066
2026-01-01 23:17:31.90	342.37	35.02	-62.4	-72.1	3.8	7.47e-01	0	34	104	0	87	12002
2026-01-01 23:17:32.89	341.86	35.23	-62.4	-72.2	3.8	7.44e-01	0	34	104	0	87	12101
2026-01-01 23:17:33.89	341.34	35.44	-62.4	-72.1	3.8	7.46e-01	0	34	104	0	87	12041
2026-01-01 23:17:34.89	340.80	35.65	-62.5	-72.2	3.8	7.45e-01	0	34	104	0	88	11438
2026-01-01 23:17:35.89	340.26	35.86	-62.4	-72.1	3.8	7.46e-01	0	34	104	0	88	11376
2026-01-01 23:17:36.88	339.72	36.06	-62.5	-72.2	3.8	7.46e-01	0	34	104	0	88	11434
2026-01-01 23:17:37.88	339.16	36.27	-62.4	-72.2	3.8	7.44e-01	0	34	104	0	88	11460
2026-01-01 23:17:38.88	338.60	36.47	-62.5	-72.2	3.8	7.45e-01	0	34	104	0	88	11516
2026-01-01 23:17:39.88	338.03	36.68	-62.4	-72.1	3.8	7.45e-01	0	34	104	0	88	11412
2026-01-01 23:17:40.88	337.45	36.88	-62.5	-72.2	3.8	7.46e-01	0	34	104	0	88	11470
2026-01-01 23:17:41.88	336.87	37.08	-62.5	-72.2	3.8	7.45e-01	0	34	104	0	88	11534
2026-01-01 23:17:42.87	336.28	37.27	-62.5	-72.2	3.8	7.44e-01	0	34	104	0	88	11506
2026-01-01 23:17:43.86	335.69	37.46	-62.5	-72.2	3.8	7.45e-01	0	34	104	0	88	11471
2026-01-01 23:17:44.85	335.09	37.65	-62.5	-72.2	3.8	7.46e-01	0	34	104	0	88	11524
2026-01-01 23:17:45.85	334.47	37.85	-62.5	-72.2	3.8	7.47e-01	0	34	104	0	88	11519
2026-01-01 23:17:46.84	333.85	38.03	-62.5	-72.3	3.8	7.47e-01	0	34	104	0	88	11609
2026-01-01 23:17:47.85	333.22	38.22	-62.5	-72.2	3.8	7.44e-01	0	34	104	0	88	11463
2026-01-01 23:17:48.84	332.58	38.40	-62.6	-72.3	3.8	7.45e-01	0	34	104	0	88	11599
2026-01-01 23:17:49.84	331.94	38.58	-62.5	-72.3	3.8	7.46e-01	0	34	104	0	88	11572
2026-01-01 23:17:50.84	331.28	38.76	-62.6	-72.3	3.8	7.47e-01	0	34	104	0	88	11638
2026-01-01 23:17:51.84	330.62	38.93	-62.5	-72.3	3.8	7.46e-01	0	34	104	0	88	11552
2026-01-01 23:17:52.83	329.96	39.10	-62.6	-72.3	3.8	7.47e-01	0	34	104	0	88	11646
2026-01-01 23:17:53.83	329.28	39.27	-62.6	-72.3	3.8	7.45e-01	0	34	104	0	88	11623
2026-01-01 23:17:54.83	328.60	39.44	-62.6	-72.3	3.8	7.46e-01	0	34	104	0	88	11639
2026-01-01 23:17:55.82	327.92	39.60	-62.6	-72.3	3.8	7.45e-01	0	34	104	0	88	11627
2026-01-01 23:17:56.82	327.22	39.75	-62.6	-72.4	3.8	7.46e-01	0	34	104	0	88	11687
2026-01-01 23:17:57.82	326.51	39.91	-62.6	-72.3	3.8	7.46e-01	0	34	104	0	88	11681
2026-01-01 23:17:58.82	325.80	40.06	-62.6	-72.4	3.8	7.44e-01	0	34	104	0	88	11685
2026-01-01 23:17:59.82	325.08	40.20	-62.6	-72.3	3.8	7.44e-01	0	34	104	0	88	11635
2026-01-01 23:18:00.82	324.36	40.34	-62.6	-72.3	3.8	7.44e-01	0	34	104	0	88	11675
2026-01-01 23:18:01.83	323.62	40.48	-62.7	-72.4	3.8	7.46e-01	0	34	104	0	88	11709
2026-01-01 23:18:02.82	322.89	40.61	-62.7	-72.4	3.8	7.46e-01	0	34	104	0	88	11790
2026-01-01 23:18:03.82	322.14	40.74	-62.6	-72.3	3.8	7.46e-01	0	34	104	0	88	11665
2026-01-01 23:18:04.82	321.39	40.86	-62.6	-72.4	3.8	7.45e-01	0	34	104	0	88	11734
2026-01-01 23:18:05.82	320.64	40.98	-62.7	-72.4	3.8	7.45e-01	0	34	104	0	88	11757
2026-01-01 23:18:06.83	319.87	41.09	-62.7	-72.4	3.8	7.45e-01	0	34	104	0	88	11740
2026-01-01 23:18:07.83	319.10	41.20	-62.7	-72.4	3.8	7.44e-01	0	34	104	0	88	11699
2026-01-01 23:18:08.83	318.33	41.30	-62.7	-72.4	3.8	7.46e-01	0	34	104	0	88	11754
2026-01-01 23:18:09.83	317.55	41.40	-62.7	-72.4	3.8	7.46e-01	0	34	104	0	88	11757
2026-01-01 23:18:10.83	316.77	41.49	-62.7	-72.4	3.8	7.46e-01	0	34	104	0	88	11774
2026-01-01 23:18:11.83	315.98	41.57	-62.7	-72.4	3.8	7.46e-01	0	34	104	0	88	11735
2026-01-01 23:18:12.82	315.19	41.65	-62.7	-72.4	3.8	7.46e-01	0	34	104	0	88	11760
2026-01-01 23:18:13.82	314.40	41.73	-62.7	-72.4	3.8	7.47e-01	0	34	104	0	88	11789
2026-01-01 23:18:14.82	313.60	41.79	-62.7	-72.5	3.8	7.45e-01	0	34	104	0	88	11824
2026-01-01 23:18:15.82	312.80	41.86	-62.7	-72.4	3.8	7.45e-01	0	34	104	0	88	11753
2026-01-01 23:18:16.82	311.99	41.91	-62.7	-72.4	3.8	7.45e-01	0	34	104	0	88	11803
2026-01-01 23:18:17.82	311.18	41.96	-62.7	-72.5	3.8	7.45e-01	0	34	104	0	88	11820
2026-01-01 23:18:18.82	310.37	42.01	-62.7	-72.5	3.8	7.44e-01	0	34	104	0	88	11833
2026-01-01 23:18:19.82	309.56	42.04	-62.7	-72.4	3.8	7.46e-01	0	34	104	0	88	11773
2026-01-01 23:18:20.82	308.74	42.08	-62.7	-72.5	3.8	7.45e-01	0	34	104	0	88	11830
2026-01-01 23:18:21.82	307.93	42.10	-62.7	-72.5	3.8	7.46e-01	0	34	104	0	88	11829
2026-01-01 23:18:22.82	307.11	42.12	-62.8	-72.5	3.8	7.46e-01	0	34	104	0	88	11839
2026-01-01 23:18:23.82	306.29	42.13	-62.7	-72.4	3.8	7.45e-01	0	34	104	0	88	11796
2026-01-01 23:18:24.82	305.47	42.14	-62.8	-72.5	3.8	7.45e-01	0	34	104	0	88	11867
2026-01-01 23:18:25.83	304.64	42.14	-62.8	-72.5	3.8	7.46e-01	0	34	104	0	88	11852
2026-01-01 23:18:26.83	303.82	42.13	-62.8	-72.5	3.8	7.44e-01	0	34	104	0	88	11878
2026-01-01 23:18:27.83	303.01	42.12	-62.7	-72.4	3.8	7.46e-01	0	34	104	0	88	11808
2026-01-01 23:18:28.83	302.19	42.10	-62.8	-72.5	3.8	7.47e-01	0	34	104	0	88	11876
2026-01-01 23:18:29.84	301.36	42.08	-62.8	-72.5	3.8	7.46e-01	0	34	104	0	88	11919
2026-01-01 23:18:30.84	300.55	42.04	-62.8	-72.5	3.8	7.47e-01	0	34	104	0	88	11888
2026-01-01 23:18:31.85	299.73	42.01	-62.8	-72.5	3.8	7.45e-01	0	34	104	0	88	11862
2026-01-01 23:18:32.85	298.91	41.96	-62.8	-72.5	3.8	7.45e-01	0	34	104	0	88	11865
2026-01-01 23:18:33.84	298.11	41.91	-62.8	-72.5	3.8	7.47e-01	0	34	104	0	88	11915
2026-01-01 23:18:34.84	297.31	41.85	-62.8	-72.5	3.8	7.47e-01	0	34	104	0	88	11922
2026-01-01 23:18:35.83	296.51	41.79	-62.8	-72.5	3.8	7.45e-01	0	34	104	0	88	11832
2026-01-01 23:18:36.83	295.71	41.72	-62.8	-72.5	3.8	7.45e-01	0	34	104	0	88	11896
2026-01-01 23:18:37.83	294.92	41.65	-62.8	-72.6	3.8	7.45e-01	0	34	104	0	88	11971
2026-01-01 23:18:38.83	294.13	41.57	-62.8	-72.5	3.8	7.45e-01	0	34	104	0	88	11875
2026-01-01 23:18:39.82	293.35	41.49	-62.8	-72.5	3.8	7.46e-01	0	34	104	0	88	11828
2026-01-01 23:18:40.82	292.56	41.39	-62.8	-72.5	3.8	7.46e-01	0	34	104	0	88	11920
2026-01-01 23:18:41.82	291.78	41.30	-62.8	-72.5	3.8	7.47e-01	0	34	104	0	88	11913
2026-01-01 23:18:42.81	291.02	41.20	-62.8	-72.5	3.8	7.44e-01	0	34	104	0	88	11892
2026-01-01 23:18:43.80	290.26	41.09	-62.7	-72.5	3.8	7.45e-01	0	34	104	0	88	11861
2026-01-01 23:18:44.80	289.49	40.98	-62.8	-72.5	3.8	7.47e-01	0	34	104	0	88	11864
2026-01-01 23:18:45.80	288.74	40.86	-62.8	-72.5	3.8	7.46e-01	0	34	104	0	88	11852
2026-01-01 23:18:46.80	287.98	40.74	-62.7	-72.5	3.8	7.45e-01	0	34	104	0	88	11861
2026-01-01 23:18:47.79	287.25	40.61	-62.7	-72.4	3.8	7.44e-01	0	34	104	0	88	11757
2026-01-01 23:18:48.78	286.51	40.48	-62.7	-72.5	3.8	7.46e-01	0	34	104	0	88	11838
2026-01-01 23:18:49.78	285.78	40.34	-62.7	-72.4	3.8	7.46e-01	0	34	104	0	88	11802
2026-01-01 23:18:50.77	285.06	40.20	-62.7	-72.4	3.8	7.45e-01	0	34	104	0	88	11800
2026-01-01 23:18:51.78	284.33	40.06	-62.7	-72.4	3.8	7.46e-01	0	34	104	0	88	11713
2026-01-01 23:18:52.78	283.62	39.91	-62.7	-72.4	3.8	7.46e-01	0	34	104	0	88	11752
2026-01-01 23:18:53.78	282.92	39.75	-62.7	-72.4	3.8	7.46e-01	0	34	104	0	88	11766
2026-01-01 23:18:54.78	282.22	39.60	-62.7	-72.4	3.8	7.45e-01	0	34	104	0	88	11740
2026-01-01 23:18:55.78	281.52	39.43	-62.6	-72.4	3.8	7.48e-01	0	34	104	0	88	11717
2026-01-01 23:18:56.78	280.84	39.27	-62.7	-72.4	3.8	7.45e-01	0	34	104	0	88	11724
2026-01-01 23:18:57.78	280.16	39.10	-62.7	-72.4	3.8	7.44e-01	0	34	104	0	88	11772
2026-01-01 23:18:58.77	279.50	38.93	-62.7	-72.4	3.8	7.46e-01	0	34	104	0	88	11741
2026-01-01 23:18:59.78	278.83	38.75	-62.6	-72.4	3.8	7.46e-01	0	34	104	0	88	11690
2026-01-01 23:19:00.78	278.18	38.58	-62.6	-72.3	3.8	7.45e-01	0	34	104	0	88	11671
2026-01-01 23:19:01.78	277.53	38.40	-62.6	-72.4	3.8	7.45e-01	0	34	104	0	88	11688
2026-01-01 23:19:02.78	276.89	38.21	-62.6	-72.4	3.8	7.48e-01	0	34	104	0	88	11686
2026-01-01 23:19:03.78	276.26	38.03	-62.6	-72.3	3.8	7.46e-01	0	34	104	0	88	11661
2026-01-01 23:19:04.78	275.63	37.84	-62.6	-72.3	3.8	7.46e-01	0	34	104	0	88	11635
2026-01-01 23:19:05.77	275.02	37.65	-62.6	-72.3	3.8	7.47e-01	0	34	104	0	88	11626
2026-01-01 23:19:06.77	274.41	37.45	-62.6	-72.3	3.8	7.46e-01	0	34	104	0	88	11670
2026-01-01 23:19:07.77	273.81	37.26	-62.6	-72.3	3.8	7.47e-01	0	34	104	0	88	11591
2026-01-01 23:19:08.77	273.22	37.06	-62.6	-72.3	3.8	7.46e-01	0	34	104	0	88	11579
2026-01-01 23:19:09.77	272.63	36.86	-62.6	-72.3	3.8	7.45e-01	0	34	104	0	88	11606
2026-01-01 23:19:10.77	272.05	36.66	-62.6	-72.3	3.8	7.47e-01	0	34	104	0	88	11600
2026-01-01 23:19:11.77	271.48	36.46	-62.5	-72.2	3.8	7.44e-01	0	34	104	0	88	11542
2026-01-01 23:19:12.77	270.92	36.25	-62.5	-72.3	3.8	7.45e-01	0	34	104	0	88	11552
2026-01-01 23:19:13.77	270.36	36.04	-62.5	-72.3	3.8	7.47e-01	0	34	104	0	88	11592
2026-01-01 23:19:14.76	269.82	35.84	-62.6	-72.3	3.8	7.47e-01	0	34	104	0	88	11584
2026-01-01 23:19:15.76	269.28	35.63	-62.5	-72.2	3.8	7.46e-01	0	34	104	0	88	11508
2026-01-01 23:19:16.75	268.75	35.42	-62.5	-72.2	3.8	7.45e-01	0	34	104	0	88	11545
2026-01-01 23:19:17.74	268.23	35.21	-62.5	-72.2	3.8	7.45e-01	0	34	104	0	88	11508
2026-01-01 23:19:18.74	267.71	35.00	-62.5	-72.2	3.8	7.44e-01	0	34	104	0	88	11492
2026-01-01 23:19:19.74	267.19	34.79	-62.5	-72.2	3.8	7.46e-01	0	34	104	0	88	11484
2026-01-01 23:19:20.74	266.69	34.58	-62.5	-72.2	3.8	7.45e-01	0	34	104	0	88	11491
2026-01-01 23:19:21.73	266.19	34.36	-62.5	-72.2	3.8	7.45e-01	0	34	104	0	88	11518
2026-01-01 23:19:22.73	265.70	34.15	-62.5	-72.2	3.8	7.45e-01	0	34	104	0	88	11525
2026-01-01 23:19:23.73	265.22	33.93	-62.5	-72.2	3.8	7.47e-01	0	34	104	0	88	11491
2026-01-01 23:19:24.74	264.74	33.72	-62.5	-72.2	3.8	7.46e-01	0	34	104	0	88	11491
2026-01-01 23:19:25.73	264.27	33.50	-62.5	-72.2	3.8	7.45e-01	0	34	104	0	88	11454
2026-01-01 23:19:26.73	263.81	33.29	-62.5	-72.2	3.8	7.45e-01	0	34	104	0	88	11477
2026-01-01 23:19:27.73	263.35	33.07	-62.5	-72.2	3.8	7.46e-01	0	34	104	0	88	11482
2026-01-01 23:19:28.73	262.90	32.85	-62.4	-72.2	3.8	7.45e-01	0	34	104	0	88	11479
2026-01-01 23:19:29.73	262.45	32.64	-62.5	-72.2	3.8	7.44e-01	0	34	104	0	88	11458
2026-01-01 23:19:30.72	262.02	32.42	-62.4	-72.2	3.8	7.45e-01	0	34	104	0	88	11436
2026-01-01 23:19:31.71	261.59	32.21	-62.4	-72.2	3.8	7.46e-01	0	34	104	0	88	11434
2026-01-01 23:19:32.71	261.16	31.99	-62.4	-72.1	3.8	7.46e-01	0	34	104	0	88	11375
2026-01-01 23:19:33.71	260.74	31.77	-62.4	-72.2	3.8	7.45e-01	0	34	104	0	88	11441
2026-01-01 23:19:34.70	260.33	31.56	-62.4	-72.1	3.8	7.47e-01	0	34	104	0	88	11405
2026-01-01 23:19:35.70	259.93	31.34	-62.4	-72.1	3.8	7.45e-01	0	34	104	0	88	11368
2026-01-01 23:19:36.69	259.53	31.13	-62.4	-72.1	3.8	7.45e-01	0	34	104	0	88	11351
2026-01-01 23:19:37.69	259.13	30.92	-62.4	-72.1	3.8	7.45e-01	0	34	104	0	88	11393
2026-01-01 23:19:38.69	258.74	30.70	-62.4	-72.1	3.8	7.45e-01	0	34	104	0	88	11356
2026-01-01 23:19:39.70	258.35	30.49	-62.3	-72.1	3.8	7.46e-01	0	34	104	0	88	11325
2026-01-01 23:19:40.70	257.97	30.27	-62.3	-72.0	3.8	7.46e-01	0	34	104	0	88	11257
2026-01-01 23:19:41.69	257.60	30.06	-62.4	-72.1	3.8	7.47e-01	0	34	104	0	88	11354
2026-01-01 23:19:42.68	257.23	29.85	-62.4	-72.1	3.8	7.45e-01	0	34	104	0	88	11320
2026-01-01 23:19:43.68	256.87	29.64	-62.3	-72.1	3.8	7.45e-01	0	34	104	0	88	11292
2026-01-01 23:19:44.68	256.51	29.43	-62.3	-72.1	3.8	7.45e-01	0	34	104	0	88	11314
2026-01-01 23:19:45.67	256.16	29.22	-62.3	-72.1	3.8	7.45e-01	0	34	104	0	88	11314
2026-01-01 23:19:46.67	255.81	29.01	-62.3	-72.1	3.8	7.45e-01	0	34	104	0	88	11310
2026-01-01 23:19:47.67	255.47	28.80	-62.3	-72.0	3.8	7.45e-01	0	34	104	0	88	11232
2026-01-01 23:19:48.67	255.13	28.60	-62.3	-72.0	3.8	7.45e-01	0	34	104	0	88	11210
2026-01-01 23:19:49.66	254.80	28.39	-62.3	-72.0	3.8	7.44e-01	0	34	104	0	88	11243
2026-01-01 23:19:50.66	254.47	28.18	-62.3	-72.0	3.8	7.45e-01	0	34	104	0	88	11261
2026-01-01 23:19:51.66	254.15	27.98	-62.3	-72.0	3.8	7.45e-01	0	34	104	0	88	11195
2026-01-01 23:19:52.66	253.83	27.77	-62.2	-72.0	3.8	7.46e-01	0	34	104	0	88	11160
2026-01-01 23:19:53.65	253.51	27.57	-62.3	-72.0	3.8	7.45e-01	0	34	104	0	88	11203
2026-01-01 23:19:54.64	253.20	27.37	-62.3	-72.0	3.8	7.46e-01	0	34	104	0	88	11170
2026-01-01 23:19:55.64	252.90	27.17	-62.2	-72.0	3.8	7.45e-01	0	34	104	0	88	11163
2026-01-01 23:19:56.64	252.60	26.97	-62.2	-71.9	3.8	7.45e-01	0	34	104	0	88	11115
2026-01-01 23:19:57.64	252.30	26.77	-62.2	-71.9	3.8	7.46e-01	0	34	104	0	88	11150
2026-01-01 23:19:58.63	252.00	26.57	-62.2	-71.9	3.8	7.46e-01	0	34	104	0	88	11152
2026-01-01 23:19:59.63	251.71	26.37	-62.2	-71.9	3.8	7.45e-01	0	34	104	0	88	11101
2026-01-01 23:20:00.64	251.42	26.18	-62.2	-71.9	3.8	7.45e-01	0	34	104	0	88	11133
2026-01-01 23:20:01.64	251.14	25.98	-62.2	-71.9	3.8	7.44e-01	0	34	104	0	88	11129
2026-01-01 23:20:02.63	250.87	25.79	-62.2	-71.9	3.8	7.46e-01	0	34	104	0	88	11139
2026-01-01 23:20:03.63	250.59	25.59	-62.2	-71.9	3.8	7.47e-01	0	34	104	0	88	11044
2026-01-01 23:20:04.62	250.32	25.40	-62.1	-71.8	3.8	7.45e-01	0	34	104	0	88	11026
2026-01-01 23:20:05.62	250.06	25.21	-62.2	-71.9	3.8	7.47e-01	0	34	104	0	88	11078
2026-01-01 23:20:06.61	249.79	25.02	-62.2	-71.9	3.8	7.45e-01	0	34	104	0	88	11062
2026-01-01 23:20:07.61	249.53	24.83	-62.1	-71.9	3.8	7.46e-01	0	34	104	0	88	11038
2026-01-01 23:20:08.61	249.28	24.64	-62.1	-71.8	3.8	7.45e-01	0	34	104	0	88	11012
2026-01-01 23:20:09.62	249.02	24.46	-62.1	-71.8	3.8	7.44e-01	0	34	104	0	88	10989
2026-01-01 23:20:10.61	248.77	24.27	-62.1	-71.8	3.8	7.45e-01	0	34	104	0	88	11020
2026-01-01 23:20:11.62	248.52	24.08	-62.1	-71.8	3.8	7.46e-01	0	34	104	0	88	10990
2026-01-01 23:20:12.61	248.28	23.90	-62.1	-71.8	3.8	7.47e-01	0	34	104	0	88	10979
2026-01-01 23:20:13.60	248.04	23.72	-62.1	-71.8	3.8	7.46e-01	0	34	104	0	88	10969
2026-01-01 23:20:14.61	247.80	23.54	-62.1	-71.8	3.8	7.47e-01	0	34	104	0	88	10973
2026-01-01 23:20:15.62	247.57	23.35	-62.1	-71.8	3.8	7.44e-01	0	34	104	0	88	10928
2026-01-01 23:20:16.61	247.34	23.18	-62.1	-71.8	3.8	7.45e-01	0	34	104	0	88	10930
2026-01-01 23:20:17.61	247.11	23.00	-62.1	-71.8	3.8	7.46e-01	0	34	104	0	88	10955
2026-01-01 23:20:18.61	246.89	22.82	-62.1	-71.8	3.8	7.44e-01	0	34	104	0	88	10942
2026-01-01 23:20:19.61	246.66	22.64	-62.0	-71.7	3.8	7.46e-01	0	34	104	0	88	10889
2026-01-01 23:20:20.61	246.44	22.47	-62.0	-71.7	3.8	7.47e-01	0	34	104	0	88	10838
2026-01-01 23:20:21.61	246.23	22.29	-62.0	-71.7	3.8	7.48e-01	0	34	104	0	88	10868
2026-01-01 23:20:22.61	246.01	22.12	-62.0	-71.7	3.8	7.46e-01	0	34	104	0	88	10889
2026-01-01 23:20:23.61	245.80	21.95	-62.0	-71.7	3.8	7.46e-01	0	34	104	0	88	10819
2026-01-01 23:20:24.61	245.59	21.78	-62.0	-71.7	3.8	7.46e-01	0	34	104	0	88	10844
2026-01-01 23:20:25.62	245.39	21.61	-62.0	-71.7	3.8	7.45e-01	0	34	104	0	88	10816
2026-01-01 23:20:26.62	245.18	21.44	-62.0	-71.7	3.8	7.46e-01	0	34	104	0	88	10822
2026-01-01 23:20:27.62	244.98	21.27	-62.0	-71.6	3.8	7.45e-01	0	34	104	0	88	10774
2026-01-01 23:20:28.62	244.78	21.10	-61.9	-71.7	3.8	7.44e-01	0	34	104	0	88	10818
2026-01-01 23:20:29.61	244.59	20.94	-61.9	-71.7	3.8	7.45e-01	0	34	104	0	88	10793
2026-01-01 23:20:30.59	244.40	20.78	-61.9	-71.7	3.8	7.44e-01	0	34	104	0	88	10813
2026-01-01 23:20:31.60	244.21	20.61	-61.9	-71.6	3.8	7.45e-01	0	34	104	0	88	10754
2026-01-01 23:20:32.60	244.02	20.45	-61.9	-71.7	3.8	7.46e-01	0	34	104	0	88	10794
2026-01-01 23:20:33.60	243.83	20.29	-61.9	-71.6	3.8	7.43e-01	0	34	104	0	88	10777
2026-01-01 23:20:34.60	243.65	20.13	-61.9	-71.6	3.8	7.46e-01	0	34	104	0	88	10771
2026-01-01 23:20:35.60	243.46	19.97	-61.9	-71.6	3.8	7.44e-01	0	34	104	0	88	10743
2026-01-01 23:20:36.60	243.28	19.81	-61.9	-71.6	3.8	7.46e-01	0	34	104	0	88	10716
2026-01-01 23:20:37.59	243.11	19.65	-61.9	-71.6	3.8	7.46e-01	0	34	104	0	88	10676
2026-01-01 23:20:38.59	242.93	19.49	-61.9	-71.6	3.8	7.46e-01	0	34	104	0	88	10718
2026-01-01 23:20:39.59	242.76	19.34	-61.9	-71.6	3.8	7.47e-01	0	34	104	0	88	10705
2026-01-01 23:20:40.59	242.59	19.18	-61.8	-71.6	3.8	7.45e-01	0	34	104	0	88	10673
2026-01-01 23:20:41.59	242.42	19.03	-61.8	-71.6	3.8	7.47e-01	0	34	104	0	88	10661
2026-01-01 23:20:42.59	242.25	18.88	-61.8	-71.6	3.8	7.46e-01	0	34	104	0	88	10677
2026-01-01 23:20:43.59	242.09	18.73	-61.8	-71.5	3.8	7.46e-01	0	34	104	0	88	10618
2026-01-01 23:20:44.59	241.92	18.58	-61.8	-71.5	3.8	7.44e-01	0	34	104	0	88	10618
2026-01-01 23:20:45.59	241.76	18.43	-61.8	-71.5	3.8	7.44e-01	0	34	104	0	88	10583
2026-01-01 23:20:46.59	241.60	18.28	-61.8	-71.6	3.8	7.45e-01	0	34	104	0	88	10656
2026-01-01 23:20:47.58	241.44	18.13	-61.8	-71.5	3.8	7.45e-01	0	34	104	0	88	10605
2026-01-01 23:20:48.57	241.29	17.99	-61.8	-71.5	3.8	7.46e-01	0	34	104	0	88	10593
2026-01-01 23:20:49.57	241.13	17.84	-61.8	-71.5	3.8	7.45e-01	0	34	104	0	88	10550
2026-01-01 23:20:50.56	240.98	17.70	-61.8	-71.5	3.8	7.47e-01	0	34	104	0	88	10592
2026-01-01 23:20:51.55	240.83	17.55	-61.8	-71.5	3.8	7.44e-01	0	34	104	0	88	10597
2026-01-01 23:20:52.55	240.68	17.41	-61.7	-71.5	3.8	7.46e-01	0	34	104	0	88	10536
2026-01-01 23:20:53.55	240.54	17.27	-61.7	-71.5	3.8	7.46e-01	0	34	104	0	88	10574
2026-01-01 23:20:54.55	240.39	17.12	-61.7	-71.5	3.8	7.46e-01	0	34	104	0	88	10565
2026-01-01 23:20:55.54	240.25	16.99	-61.7	-71.5	3.8	7.46e-01	0	34	104	0	88	10553
2026-01-01 23:20:56.55	240.10	16.84	-61.7	-71.5	3.8	7.46e-01	0	34	104	0	88	10535
2026-01-01 23:20:57.55	239.96	16.71	-61.7	-71.4	3.8	7.48e-01	0	34	104	0	88	10450
2026-01-01 23:20:58.55	239.82	16.57	-61.7	-71.5	3.8	7.47e-01	0	34	104	0	88	10549
2026-01-01 23:20:59.54	239.69	16.43	-61.7	-71.4	3.8	7.44e-01	0	34	104	0	88	10496
2026-01-01 23:21:00.55	239.55	16.29	-61.7	-71.4	3.8	7.46e-01	0	34	104	0	88	10456
2026-01-01 23:21:01.55	239.41	16.16	-61.7	-71.4	3.8	7.46e-01	0	34	104	0	87	11045
2026-01-01 23:21:02.55	239.28	16.02	-61.7	-71.4	3.8	7.46e-01	0	34	104	0	87	11106
2026-01-01 23:21:03.54	239.15	15.89	-61.7	-71.4	3.8	7.45e-01	0	34	104	0	87	11074
2026-01-01 23:21:04.54	239.02	15.76	-61.7	-71.4	3.8	7.46e-01	0	34	104	0	87	11097
2026-01-01 23:21:05.54	238.89	15.62	-61.6	-71.3	3.8	7.47e-01	0	34	104	0	87	11020
2026-01-01 23:21:06.54	238.76	15.49	-61.6	-71.4	3.8	7.45e-01	0	34	104	0	87	11030
2026-01-01 23:21:07.54	238.63	15.36	-61.6	-71.3	3.8	7.44e-01	0	34	104	0	87	11001
2026-01-01 23:21:08.53	238.51	15.23	-61.6	-71.4	3.8	7.46e-01	0	34	104	0	87	11058
2026-01-01 23:21:09.53	238.38	15.10	-61.6	-71.3	3.8	7.47e-01	0	34	104	0	87	10994
2026-01-01 23:21:10.53	238.26	14.98	-61.6	-71.3	3.8	7.47e-01	0	34	104	0	87	11019
2026-01-01 23:21:11.53	238.14	14.85	-61.6	-71.3	3.8	7.44e-01	0	34	104	0	87	10993
2026-01-01 23:21:12.53	238.02	14.72	-61.6	-71.3	3.8	7.46e-01	0	34	104	0	87	10992
2026-01-01 23:21:13.53	237.90	14.60	-61.6	-71.3	3.8	7.46e-01	0	34	104	0	87	11011
2026-01-01 23:21:14.53	237.78	14.47	-61.6	-71.3	3.8	7.46e-01	0	34	104	0	87	10992
2026-01-01 23:21:15.52	237.67	14.35	-61.6	-71.4	3.8	7.46e-01	0	34	104	0	87	11040
2026-01-01 23:21:16.52	237.55	14.22	-61.6	-71.3	3.8	7.45e-01	0	34	104	0	87	10973
2026-01-01 23:21:17.52	237.44	14.10	-61.6	-71.3	3.8	7.44e-01	0	34	104	0	87	10943
2026-01-01 23:21:18.51	237.33	13.98	-61.6	-71.2	3.8	7.45e-01	0	34	104	0	87	10882
2026-01-01 23:21:19.51	237.21	13.86	-61.6	-71.3	3.8	7.46e-01	0	34	104	0	87	10974
2026-01-01 23:21:20.51	237.10	13.74	-61.5	-71.3	3.8	7.46e-01	0	34	104	0	87	10921
2026-01-01 23:21:21.51	236.99	13.61	-61.5	-71.2	3.8	7.44e-01	0	34	104	0	87	10872
2026-01-01 23:21:22.51	236.88	13.49	-61.5	-71.2	3.8	7.47e-01	0	34	104	0	87	10871
2026-01-01 23:21:23.51	236.78	13.38	-61.5	-71.2	3.8	7.47e-01	0	34	104	0	87	10898
2026-01-01 23:21:24.50	236.67	13.26	-61.5	-71.2	3.8	7.44e-01	0	34	104	0	87	10902
2026-01-01 23:21:25.50	236.57	13.14	-61.5	-71.2	3.8	7.46e-01	0	34	104	0	87	10862
2026-01-01 23:21:26.50	236.46	13.02	-61.5	-71.2	3.8	7.46e-01	0	34	104	0	87	10856
2026-01-01 23:21:27.50	236.36	12.91	-61.5	-71.2	3.8	7.45e-01	0	34	104	0	87	10899
2026-01-01 23:21:28.50	236.25	12.79	-61.5	-71.2	3.8	7.45e-01	0	34	104	0	87	10852
2026-01-01 23:21:29.49	236.15	12.68	-61.5	-71.2	3.8	7.45e-01	0	34	104	0	87	10846
2026-01-01 23:21:30.50	236.05	12.56	-61.5	-71.2	3.8	7.46e-01	0	34	104	0	87	10807
2026-01-01 23:21:31.50	235.95	12.45	-61.5	-71.2	3.8	7.46e-01	0	34	104	0	87	10866
2026-01-01 23:21:32.50	235.85	12.34	-61.5	-71.2	3.8	7.44e-01	0	34	104	0	87	10832
2026-01-01 23:21:33.49	235.76	12.22	-61.4	-71.1	3.8	7.44e-01	0	34	104	0	87	10772
2026-01-01 23:21:34.49	235.66	12.11	-61.4	-71.2	3.8	7.45e-01	0	34	104	0	87	10812
2026-01-01 23:21:35.49	235.57	12.00	-61.4	-71.2	3.8	7.45e-01	0	34	104	0	87	10794
2026-01-01 23:21:36.49	235.47	11.89	-61.4	-71.1	3.8	7.46e-01	0	34	104	0	87	10769
2026-01-01 23:21:37.49	235.38	11.78	-61.4	-71.1	3.8	7.44e-01	0	34	104	0	87	10728
2026-01-01 23:21:38.49	235.28	11.67	-61.4	-71.1	3.8	7.45e-01	0	34	104	0	87	10745
2026-01-01 23:21:39.49	235.19	11.56	-61.4	-71.1	3.8	7.46e-01	0	34	104	0	87	10761
2026-01-01 23:21:40.49	235.10	11.45	-61.4	-71.1	3.8	7.45e-01	0	34	104	0	87	10755
2026-01-01 23:21:41.49	235.01	11.34	-61.4	-71.1	3.8	7.48e-01	0	34	104	0	87	10661
2026-01-01 23:21:42.48	234.92	11.24	-61.4	-71.1	3.8	7.44e-01	0	34	104	0	87	10678
2026-01-01 23:21:43.49	234.83	11.13	-61.4	-71.1	3.8	7.46e-01	0	34	104	0	87	10694
2026-01-01 23:21:44.49	234.74	11.02	-61.4	-71.1	3.8	7.47e-01	0	34	104	0	87	10678
2026-01-01 23:21:45.49	234.66	10.92	-61.3	-71.1	3.8	7.46e-01	0	34	104	0	87	10678
2026-01-01 23:21:46.50	234.57	10.81	-61.3	-71.0	3.8	7.45e-01	0	34	104	0	87	10581
2026-01-01 23:21:47.49	234.48	10.71	-61.3	-71.1	3.8	7.44e-01	0	34	104	0	87	10739
2026-01-01 23:21:48.49	234.40	10.60	-61.3	-71.1	3.8	7.44e-01	0	34	104	0	87	10696
2026-01-01 23:21:49.48	234.31	10.50	-61.3	-71.0	3.8	7.45e-01	0	34	104	0	87	10620
2026-01-01 23:21:50.48	234.23	10.40	-61.3	-71.0	3.8	7.46e-01	0	34	104	0	87	10639
2026-01-01 23:21:51.48	234.15	10.30	-61.3	-71.0	3.8	7.44e-01	0	34	104	0	87	10609
2026-01-01 23:21:52.47	234.07	10.20	-61.3	-71.0	3.8	7.45e-01	0	34	104	0	87	10624
2026-01-01 23:21:53.45	233.99	10.10	-61.3	-71.0	3.8	7.45e-01	0	34	104	0	87	10559
2026-01-01 23:21:54.45	233.91	10.00	-61.3	-70.9	3.8	7.46e-01	0	34	104	0	87	10525
2026-01-01 23:21:55.45	233.83	9.90	-61.3	-71.0	3.8	7.46e-01	0	34	104	0	87	10585
2026-01-01 23:21:56.45	233.75	9.80	-61.3	-71.0	3.8	7.48e-01	0	34	104	0	87	10602
2026-01-01 23:21:57.45	233.67	9.70	-61.2	-70.9	3.8	7.45e-01	0	34	104	0	87	10528
2026-01-01 23:21:58.45	233.59	9.60	-61.2	-70.9	3.8	7.47e-01	0	34	104	0	87	10517
2026-01-01 23:21:59.45	233.52	9.50	-61.2	-70.9	3.8	7.45e-01	0	34	104	0	87	10485
2026-01-01 23:22:00.45	233.44	9.40	-61.2	-70.9	3.8	7.45e-01	0	34	104	0	87	10517
2026-01-01 23:22:01.45	233.36	9.30	-61.2	-70.9	3.8	7.44e-01	0	34	104	0	87	10445
2026-01-01 23:22:02.45	233.29	9.21	-61.2	-70.9	3.8	7.45e-01	0	34	104	0	86	11055
2026-01-01 23:22:03.44	233.21	9.11	-61.2	-70.9	3.8	7.46e-01	0	34	104	0	86	11092
2026-01-01 23:22:04.45	233.14	9.01	-61.2	-70.9	3.8	7.45e-01	0	34	104	0	86	11107
2026-01-01 23:22:05.45	233.07	8.92	-61.1	-70.8	3.8	7.46e-01	0	34	104	0	86	11010
2026-01-01 23:22:06.45	232.99	8.82	-61.2	-70.9	3.8	7.45e-01	0	34	104	0	86	11061
2026-01-01 23:22:07.45	232.92	8.73	-61.2	-70.9	3.8	7.45e-01	0	34	104	0	86	11140
2026-01-01 23:22:08.46	232.85	8.63	-61.2	-71.0	3.8	7.47e-01	0	34	104	0	86	11179
2026-01-01 23:22:09.46	232.78	8.54	-61.2	-70.9	3.8	7.44e-01	0	34	104	0	86	11058
2026-01-01 23:22:10.46	232.71	8.45	-61.1	-70.8	3.8	7.44e-01	0	34	104	0	86	10995
2026-01-01 23:22:11.46	232.64	8.35	-61.1	-70.8	3.8	7.46e-01	0	34	104	0	86	11004
2026-01-01 23:22:12.46	232.57	8.26	-61.2	-70.9	3.8	7.47e-01	0	34	104	0	86	11035
2026-01-01 23:22:13.46	232.50	8.17	-61.1	-70.8	3.8	7.46e-01	0	34	104	0	86	10933
2026-01-01 23:22:14.46	232.43	8.08	-61.0	-70.8	3.8	7.45e-01	0	34	104	0	86	10936
2026-01-01 23:22:15.45	232.37	7.99	-61.2	-70.9	3.8	7.46e-01	0	34	104	0	86	11126
2026-01-01 23:22:16.45	232.30	7.89	-61.2	-71.0	3.8	7.45e-01	0	34	104	0	86	11166
2026-01-01 23:22:17.46	232.23	7.80	-61.1	-70.8	3.8	7.46e-01	0	34	104	0	86	11028
2026-01-01 23:22:18.46	232.17	7.71	-61.1	-70.8	3.8	7.45e-01	0	34	104	0	86	10951
2026-01-01 23:22:19.45	232.10	7.62	-61.1	-70.8	3.8	7.46e-01	0	34	104	0	86	10996
2026-01-01 23:22:20.45	232.04	7.53	-61.1	-70.8	3.8	7.47e-01	0	34	104	0	86	11002
2026-01-01 23:22:21.45	231.97	7.45	-61.0	-70.7	3.8	7.46e-01	0	34	104	0	86	10888
2026-01-01 23:22:22.45	231.91	7.36	-61.0	-70.7	3.8	7.47e-01	0	34	104	0	86	10834
2026-01-01 23:22:23.45	231.85	7.27	-61.0	-70.7	3.8	7.47e-01	0	34	104	0	86	10895
2026-01-01 23:22:24.45	231.78	7.18	-61.1	-70.8	3.8	7.46e-01	0	34	104	0	86	10942
2026-01-01 23:22:25.45	231.72	7.09	-61.0	-70.7	3.8	7.45e-01	0	34	104	0	86	10863
2026-01-01 23:22:26.46	231.66	7.01	-60.9	-70.6	3.8	7.44e-01	0	34	104	0	86	10747
2026-01-01 23:22:27.46	231.60	6.92	-61.0	-70.6	3.8	7.45e-01	0	34	104	0	86	10765
2026-01-01 23:22:28.46	231.54	6.83	-61.0	-70.7	3.8	7.46e-01	0	34	104	0	86	10834
2026-01-01 23:22:29.45	231.48	6.75	-60.9	-70.7	3.8	7.45e-01	0	34	104	0	86	10782
2026-01-01 23:22:30.44	231.42	6.66	-60.9	-70.6	3.8	7.44e-01	0	34	104	0	86	10684
2026-01-01 23:22:31.44	231.36	6.58	-60.9	-70.6	3.8	7.45e-01	0	34	104	0	86	10751
2026-01-01 23:22:32.44	231.30	6.49	-60.9	-70.6	3.8	7.44e-01	0	34	104	0	86	10770
2026-01-01 23:22:33.44	231.24	6.41	-60.8	-70.6	3.8	7.46e-01	0	34	104	0	86	10664
2026-01-01 23:22:34.44	231.19	6.32	-60.8	-70.5	3.8	7.47e-01	0	34	104	0	86	10626
2026-01-01 23:22:35.44	231.13	6.24	-60.8	-70.5	3.8	7.45e-01	0	34	104	0	86	10638
2026-01-01 23:22:36.44	231.07	6.16	-60.9	-70.6	3.8	7.46e-01	0	34	104	0	86	10709
2026-01-01 23:22:37.44	231.01	6.07	-60.8	-70.5	3.8	7.47e-01	0	34	104	0	86	10641
2026-01-01 23:22:38.44	230.96	5.99	-60.7	-70.5	3.8	7.45e-01	0	34	104	0	86	10558
2026-01-01 23:22:39.43	230.90	5.91	-60.8	-70.5	3.8	7.46e-01	0	34	104	0	86	10632
2026-01-01 23:22:40.43	230.85	5.83	-60.8	-70.6	3.8	7.45e-01	0	34	104	0	86	10660
2026-01-01 23:22:41.43	230.79	5.74	-60.7	-70.4	3.8	7.46e-01	0	34	104	0	86	10501
2026-01-01 23:22:42.43	230.74	5.66	-60.6	-70.4	3.8	7.44e-01	0	34	104	0	85	11030
2026-01-01 23:22:43.43	230.68	5.58	-60.7	-70.4	3.8	7.45e-01	0	34	104	0	85	11126
2026-01-01 23:22:44.43	230.63	5.50	-60.7	-70.5	3.8	7.45e-01	0	34	104	0	85	11184
2026-01-01 23:22:45.42	230.58	5.42	-60.6	-70.4	3.8	7.45e-01	0	34	104	0	85	11038
2026-01-01 23:22:46.41	230.53	5.34	-60.6	-70.3	3.8	7.46e-01	0	34	104	0	85	10939
2026-01-01 23:22:47.41	230.47	5.26	-60.6	-70.3	3.8	7.44e-01	0	34	104	0	85	11017
2026-01-01 23:22:48.41	230.42	5.18	-60.7	-70.4	3.8	7.44e-01	0	34	104	0	85	11066
2026-01-01 23:22:49.40	230.37	5.10	-60.6	-70.3	3.8	7.47e-01	0	34	104	0	85	10945
2026-01-01 23:22:50.39	230.32	5.02	-60.5	-70.3	3.8	7.45e-01	0	34	104	0	85	10909
2026-01-01 23:22:51.39	230.27	4.95	-61.1	-70.8	3.8	7.45e-01	0	34	104	0	85	11653
2026-01-01 23:22:52.39	230.22	4.87	-61.6	-71.3	3.8	7.44e-01	0	34	104	0	86	11659
2026-01-01 23:22:53.39	230.17	4.79	-61.9	-71.6	3.8	7.44e-01	0	34	104	0	86	11999
2026-01-01 23:22:54.38	230.12	4.71	-62.1	-71.8	3.8	7.47e-01	0	34	104	0	87	11617
2026-01-01 23:22:55.38	230.07	4.63	-62.3	-72.0	3.8	7.45e-01	0	34	104	0	87	11871
2026-01-01 23:22:56.38	230.02	4.56	-62.4	-72.1	3.8	7.46e-01	0	34	104	0	87	12061
2026-01-01 23:22:57.38	229.97	4.48	-62.5	-72.3	3.8	7.46e-01	0	34	104	0	88	11565
2026-01-01 23:22:58.37	229.92	4.40	-62.7	-72.4	3.8	7.48e-01	0	34	104	0	88	11720
2026-01-01 23:22:59.37	229.87	4.33	-62.8	-72.5	3.8	7.46e-01	0	34	104	0	88	11882
2026-01-01 23:23:00.38	229.82	4.25	-62.8	-72.6	3.8	7.45e-01	0	34	104	0	88	11995
2026-01-01 23:23:01.38	229.78	4.17	-62.9	-72.6	3.8	7.44e-01	0	34	104	0	88	12039
2026-01-01 23:23:02.38	229.73	4.10	-62.9	-72.6	3.8	7.46e-01	0	34	104	0	89	11411
2026-01-01 23:23:03.38	229.68	4.02	-63.0	-72.7	3.8	7.46e-01	0	34	104	0	89	11419
2026-01-01 23:23:04.38	229.64	3.95	-63.0	-72.7	3.8	7.46e-01	0	34	104	0	89	11520
2026-01-01 23:23:05.38	229.59	3.87	-63.0	-72.7	3.8	7.44e-01	0	34	104	0	89	11525
2026-01-01 23:23:06.38	229.55	3.80	-63.0	-72.8	3.8	7.46e-01	0	34	104	0	89	11550
2026-01-01 23:23:07.38	229.50	3.72	-63.1	-72.8	3.8	7.45e-01	0	34	104	0	89	11598
2026-01-01 23:23:08.37	229.45	3.65	-63.1	-72.8	3.8	7.46e-01	0	34	104	0	89	11662
2026-01-01 23:23:09.38	229.41	3.58	-63.1	-72.9	3.8	7.46e-01	0	34	104	0	89	11691
2026-01-01 23:23:10.39	229.36	3.50	-63.1	-72.9	3.8	7.45e-01	0	34	104	0	89	11717
2026-01-01 23:23:11.39	229.32	3.43	-63.2	-73.0	3.8	7.45e-01	0	34	104	0	89	11841
2026-01-01 23:23:12.39	229.28	3.35	-63.2	-73.0	3.8	7.45e-01	0	34	104	0	89	11841
2026-01-01 23:23:13.38	229.23	3.28	-63.2	-73.0	3.8	7.46e-01	0	34	104	0	89	11819
2026-01-01 23:23:14.38	229.19	3.21	-63.2	-72.9	3.8	7.44e-01	0	34	104	0	89	11709
2026-01-01 23:23:15.37	229.15	3.14	-63.1	-72.8	3.8	7.45e-01	0	34	104	0	89	11682
2026-01-01 23:23:16.37	229.10	3.07	-63.1	-72.9	3.8	7.45e-01	0	34	104	0	89	11722
2026-01-01 23:23:17.38	229.06	2.99	-63.1	-72.8	3.8	7.47e-01	0	34	104	0	89	11657
2026-01-01 23:23:18.38	229.02	2.92	-63.1	-72.8	3.8	7.43e-01	0	34	104	0	89	11614
2026-01-01 23:23:19.38	228.98	2.85	-63.1	-72.8	3.8	7.46e-01	0	34	104	0	89	11592
2026-01-01 23:23:20.38	228.94	2.78	-63.0	-72.7	3.8	7.47e-01	0	34	104	0	89	11539
2026-01-01 23:23:21.38	228.89	2.71	-63.0	-72.8	3.8	7.45e-01	0	34	104	0	89	11568
2026-01-01 23:23:22.39	228.85	2.64	-63.0	-72.7	3.8	7.45e-01	0	34	104	0	89	11527
2026-01-01 23:23:23.39	228.81	2.57	-63.0	-72.7	3.8	7.45e-01	0	34	104	0	89	11494
2026-01-01 23:23:24.39	228.77	2.50	-63.0	-72.7	3.8	7.44e-01	0	34	104	0	89	11510
2026-01-01 23:23:25.39	228.73	2.43	-62.9	-72.7	3.8	7.45e-01	0	34	104	0	89	11460
2026-01-01 23:23:26.39	228.69	2.36	-62.9	-72.7	3.8	7.45e-01	0	34	104	0	89	11418
2026-01-01 23:23:27.39	228.65	2.29	-62.9	-72.6	3.8	7.46e-01	0	34	104	0	89	11406
2026-01-01 23:23:28.39	228.61	2.22	-62.9	-72.7	3.8	7.46e-01	0	34	104	0	89	11426
2026-01-01 23:23:29.39	228.57	2.15	-62.9	-72.6	3.8	7.46e-01	0	34	104	0	89	11386
2026-01-01 23:23:30.39	228.53	2.08	-62.9	-72.6	3.8	7.44e-01	0	34	104	0	89	11405
2026-01-01 23:23:31.39	228.49	2.01	-62.9	-72.6	3.8	7.44e-01	0	34	104	0	89	11380

#Closed at: 2026-01-01 23:23:32
#Recorded file [0 MB]: D:/lorett/data/31004_260102_021318.dat