passes_logs/2026/01/01/R3.2S_Murmansk/R3.2S_Murmansk__20260101_113218_FENGYUN_3D_rec.log

#Pass ID: 20260101_113218_FENGYUN 3D
#Satellite: FENGYUN 3D
#Configuration: FENGYUN 3D
#almurnet v.1.7.20251203
#Start time: 2026-01-01 11:32:19

#Version: 2.2.20231116
#Station: R3.2S_Murmansk
#Location: 33.079688 lon 68.888172 lat
#TLE: 1 43010U 17072A   26001.19005061  .00000535  00000+0  27473-3 0  9994
#TLE: 2 43010  98.9910 332.7942 0001852 133.6060 226.5269 14.19691635421296

#Time	Az	El	Level	Level2	SNR	BER	BlckErr	Temp	State	Recorded	gain1	gain2
2026-01-01 11:32:19.17	151.61	2.04	-59.7	-72.7	3.8	8.45e-01	0	32	0	0	84	17187
2026-01-01 11:32:20.17	151.62	2.11	-59.7	-72.6	3.8	8.44e-01	0	32	104	0	84	17065
2026-01-01 11:32:21.18	151.62	2.17	-59.7	-72.7	3.8	8.46e-01	0	32	104	0	84	17133
2026-01-01 11:32:22.19	151.63	2.24	-59.7	-72.7	3.8	8.46e-01	0	32	104	0	84	17143
2026-01-01 11:32:23.20	151.63	2.30	-59.7	-72.7	3.8	8.45e-01	0	32	104	0	84	17103
2026-01-01 11:32:24.21	151.63	2.37	-59.7	-72.7	3.8	8.45e-01	0	32	104	0	84	17095
2026-01-01 11:32:25.22	151.64	2.44	-59.7	-72.6	3.8	8.47e-01	0	32	104	0	84	17071
2026-01-01 11:32:26.23	151.64	2.50	-59.7	-72.6	3.8	8.45e-01	0	32	104	0	84	17076
2026-01-01 11:32:27.23	151.64	2.57	-59.7	-72.6	3.8	8.45e-01	0	32	104	0	84	17006
2026-01-01 11:32:28.23	151.65	2.63	-59.7	-72.6	3.8	8.46e-01	0	32	104	0	84	16983
2026-01-01 11:32:29.25	151.65	2.70	-59.7	-72.6	3.8	8.45e-01	0	32	104	0	84	16917
2026-01-01 11:32:30.25	151.65	2.77	-59.7	-72.6	3.8	8.46e-01	0	32	104	0	84	16895
2026-01-01 11:32:31.26	151.66	2.83	-59.7	-72.5	3.8	8.46e-01	0	32	104	0	84	16835
2026-01-01 11:32:32.27	151.66	2.90	-59.7	-72.5	3.8	8.45e-01	0	32	104	0	84	16747
2026-01-01 11:32:33.28	151.67	2.97	-59.7	-72.4	3.8	8.45e-01	0	32	104	0	84	16574
2026-01-01 11:32:34.29	151.67	3.03	-59.7	-72.3	3.8	8.46e-01	0	32	104	0	84	16327
2026-01-01 11:32:35.29	151.67	3.10	-59.6	-71.9	3.8	8.46e-01	0	32	104	0	84	15707
2026-01-01 11:32:36.30	151.68	3.17	-58.9	-71.5	3.8	8.46e-01	0	32	104	0	84	14988
2026-01-01 11:32:37.31	151.68	3.24	-59.5	-70.8	3.8	8.44e-01	0	32	104	0	84	13884
2026-01-01 11:32:38.32	151.68	3.30	-59.4	-69.8	3.9	8.43e-01	0	32	104	0	84	12342
2026-01-01 11:32:39.33	151.69	3.37	-59.3	-68.6	4.3	8.32e-01	0	32	0	0	84	10703
2026-01-01 11:32:40.34	151.69	3.44	-59.1	-67.6	4.7	8.12e-01	0	32	0	0	84	9510
2026-01-01 11:32:41.35	151.69	3.51	-58.8	-66.1	5.5	7.40e-01	0	32	0	0	84	8071
2026-01-01 11:32:42.36	151.70	3.58	-58.4	-65.0	6.2	3.78e-01	0	32	0	5242880	82	7927
2026-01-01 11:32:43.37	151.70	3.64	-58.0	-63.6	7.3	1.26e-01	0	32	0	11534336	82	6783
2026-01-01 11:32:44.38	151.71	3.71	-57.8	-62.9	7.9	7.40e-02	0	32	0	16777216	82	6242
2026-01-01 11:32:45.39	151.71	3.78	-57.4	-61.9	8.9	3.67e-02	0	32	0	22020096	80	6212
2026-01-01 11:32:46.39	151.71	3.85	-56.9	-60.9	9.7	9.78e-03	0	32	0	28311552	80	5568
2026-01-01 11:32:47.39	151.72	3.92	-56.7	-60.6	10.0	3.84e-03	0	33	0	33554432	80	5362
2026-01-01 11:32:48.40	151.72	3.99	-55.8	-58.9	11.5	2.56e-04	0	32	0	38797312	78	4939
2026-01-01 11:32:49.41	151.72	4.06	-55.7	-58.7	11.7	1.21e-04	0	32	0	45088768	77	5131
2026-01-01 11:32:50.42	151.73	4.13	-55.0	-57.7	12.5	1.60e-05	0	32	0	50331648	76	4824
2026-01-01 11:32:51.42	151.73	4.20	-54.4	-56.8	13.0	2.20e-06	0	32	0	56623104	75	4621
2026-01-01 11:32:52.43	151.73	4.27	-53.8	-56.0	13.6	0.00e+00	0	32	0	61865984	74	4452
2026-01-01 11:32:53.44	151.74	4.34	-53.1	-55.1	14.1	0.00e+00	0	32	0	67108864	72	4545
2026-01-01 11:32:54.45	151.74	4.41	-53.1	-55.2	14.1	0.00e+00	0	32	0	73400320	72	4549
2026-01-01 11:32:55.46	151.75	4.48	-52.4	-54.3	14.7	0.00e+00	0	32	0	78643200	71	4365
2026-01-01 11:32:56.47	151.75	4.55	-52.4	-54.2	14.7	0.00e+00	0	33	0	84934656	71	4330
2026-01-01 11:32:57.47	151.75	4.62	-52.4	-54.2	14.7	0.00e+00	0	33	0	90177536	71	4312
2026-01-01 11:32:58.48	151.76	4.69	-52.4	-54.2	14.7	0.00e+00	0	33	0	96468992	71	4328
2026-01-01 11:32:59.49	151.76	4.77	-52.4	-54.2	14.7	0.00e+00	0	32	0	101711872	71	4338
2026-01-01 11:33:00.50	151.76	4.84	-52.7	-54.6	14.5	0.00e+00	0	32	0	106954752	71	4501
2026-01-01 11:33:01.51	151.77	4.91	-52.8	-54.8	14.4	0.00e+00	0	33	0	113246208	71	4615
2026-01-01 11:33:02.52	151.77	4.98	-53.4	-55.4	14.0	0.00e+00	0	33	0	118489088	71	4978
2026-01-01 11:33:03.52	151.78	5.05	-52.6	-54.4	14.7	0.00e+00	0	33	0	124780544	71	4418
2026-01-01 11:33:04.53	151.78	5.13	-55.0	-57.6	12.6	0.00e+00	0	33	0	130023424	75	5100
2026-01-01 11:33:05.54	151.78	5.20	-53.3	-55.3	14.0	2.63e-03	0	33	0	135266304	73	4363
2026-01-01 11:33:06.55	151.79	5.27	-51.3	-52.9	15.5	0.00e+00	0	33	0	141557760	69	4152
2026-01-01 11:33:07.56	151.79	5.34	-53.5	-55.6	14.0	0.00e+00	0	33	0	146800640	71	5074
2026-01-01 11:33:08.57	151.79	5.42	-52.7	-54.6	14.4	1.08e-02	0	33	0	153092096	72	4275
2026-01-01 11:33:09.58	151.80	5.49	-51.2	-52.8	15.5	0.00e+00	0	33	0	158334976	68	4355
2026-01-01 11:33:10.59	151.80	5.57	-51.0	-52.6	15.6	0.00e+00	0	33	0	163577856	68	4270
2026-01-01 11:33:11.60	151.80	5.64	-51.1	-52.7	15.6	0.00e+00	0	33	0	169869312	68	4303
2026-01-01 11:33:12.60	151.81	5.71	-51.0	-52.6	15.6	0.00e+00	0	33	0	175112192	68	4264
2026-01-01 11:33:13.61	151.81	5.79	-51.1	-52.6	15.6	0.00e+00	0	33	0	181403648	68	4289
2026-01-01 11:33:14.61	151.82	5.86	-50.9	-52.5	15.6	0.00e+00	0	33	0	186646528	68	4214
2026-01-01 11:33:15.62	151.82	5.94	-51.0	-52.5	15.7	0.00e+00	0	33	0	192937984	68	4233
2026-01-01 11:33:16.64	151.82	6.01	-50.8	-52.3	15.8	0.00e+00	0	33	0	198180864	68	4121
2026-01-01 11:33:17.64	151.83	6.09	-50.8	-52.3	15.8	0.00e+00	0	33	0	203423744	68	4140
2026-01-01 11:33:18.65	151.83	6.16	-50.8	-52.3	15.8	0.00e+00	0	33	0	209715200	68	4124
2026-01-01 11:33:19.65	151.83	6.24	-50.8	-52.4	15.8	0.00e+00	0	33	0	214958080	68	4155
2026-01-01 11:33:20.67	151.84	6.31	-50.7	-52.2	15.9	0.00e+00	0	33	0	221249536	68	4092
2026-01-01 11:33:21.68	151.84	6.39	-50.7	-52.2	15.9	0.00e+00	0	33	0	226492416	68	4097
2026-01-01 11:33:22.69	151.85	6.47	-50.5	-52.0	15.9	0.00e+00	0	33	0	231735296	67	4215
2026-01-01 11:33:23.70	151.85	6.54	-50.5	-52.0	15.9	0.00e+00	0	33	0	238026752	67	4240
2026-01-01 11:33:24.71	151.85	6.62	-50.6	-52.1	15.8	0.00e+00	0	33	0	243269632	67	4250
2026-01-01 11:33:25.71	151.86	6.70	-50.5	-51.9	15.9	0.00e+00	0	33	0	249561088	67	4184
2026-01-01 11:33:26.72	151.86	6.77	-50.5	-51.9	16.0	0.00e+00	0	33	0	254803968	67	4180
2026-01-01 11:33:27.73	151.86	6.85	-50.4	-51.9	16.0	0.00e+00	0	33	0	260046848	67	4173
2026-01-01 11:33:28.74	151.87	6.93	-50.4	-51.8	16.0	0.00e+00	0	33	0	266338304	67	4133
2026-01-01 11:33:29.74	151.87	7.01	-50.4	-51.8	16.0	0.00e+00	0	33	0	271581184	67	4132
2026-01-01 11:33:30.75	151.88	7.08	-50.3	-51.7	16.0	0.00e+00	0	33	0	277872640	67	4090
2026-01-01 11:33:31.76	151.88	7.16	-50.2	-51.7	16.1	0.00e+00	0	33	0	283115520	67	4057
2026-01-01 11:33:32.77	151.88	7.24	-50.2	-51.7	16.0	0.00e+00	0	33	0	289406976	66	4301
2026-01-01 11:33:33.77	151.89	7.32	-50.2	-51.6	16.1	0.00e+00	0	33	0	294649856	66	4259
2026-01-01 11:33:34.78	151.89	7.40	-50.3	-51.7	16.0	0.00e+00	0	33	0	299892736	66	4326
2026-01-01 11:33:35.79	151.89	7.48	-50.2	-51.6	16.1	0.00e+00	0	33	0	306184192	66	4274
2026-01-01 11:33:36.80	151.90	7.56	-50.2	-51.6	16.1	0.00e+00	0	33	0	311427072	66	4267
2026-01-01 11:33:37.81	151.90	7.64	-50.2	-51.6	16.1	0.00e+00	0	33	0	316669952	66	4261
2026-01-01 11:33:38.82	151.91	7.72	-50.2	-51.6	16.1	0.00e+00	0	33	0	322961408	66	4279
2026-01-01 11:33:39.83	151.91	7.80	-50.1	-51.5	16.2	0.00e+00	0	33	0	328204288	66	4238
2026-01-01 11:33:40.84	151.91	7.88	-50.0	-51.4	16.2	0.00e+00	0	33	0	334495744	66	4192
2026-01-01 11:33:41.84	151.92	7.96	-50.0	-51.4	16.2	0.00e+00	0	33	0	339738624	66	4167
2026-01-01 11:33:42.85	151.92	8.04	-50.0	-51.4	16.2	0.00e+00	0	33	0	344981504	66	4186
2026-01-01 11:33:43.86	151.92	8.12	-50.0	-51.4	16.2	0.00e+00	0	33	0	351272960	66	4168
2026-01-01 11:33:44.87	151.93	8.20	-49.9	-51.3	16.3	0.00e+00	0	33	0	356515840	66	4140
2026-01-01 11:33:45.88	151.93	8.29	-49.9	-51.3	16.2	0.00e+00	0	33	0	362807296	66	4137
2026-01-01 11:33:46.89	151.94	8.37	-49.9	-51.3	16.3	0.00e+00	0	33	0	368050176	66	4131
2026-01-01 11:33:47.90	151.94	8.45	-49.9	-51.3	16.3	0.00e+00	0	33	0	374341632	66	4118
2026-01-01 11:33:48.90	151.94	8.53	-49.9	-51.3	16.3	0.00e+00	0	33	0	379584512	66	4121
2026-01-01 11:33:49.90	151.95	8.62	-50.0	-51.4	16.3	0.00e+00	0	33	0	384827392	66	4160
2026-01-01 11:33:50.91	151.95	8.70	-50.0	-51.4	16.2	0.00e+00	0	33	0	391118848	66	4189
2026-01-01 11:33:51.92	151.95	8.78	-50.0	-51.4	16.3	0.00e+00	0	33	0	396361728	66	4159
2026-01-01 11:33:52.93	151.96	8.87	-49.9	-51.2	16.3	0.00e+00	0	33	0	402653184	66	4098
2026-01-01 11:33:53.94	151.96	8.95	-49.8	-51.2	16.3	0.00e+00	0	33	0	407896064	66	4074
2026-01-01 11:33:54.95	151.97	9.04	-49.8	-51.2	16.4	0.00e+00	0	33	0	413138944	66	4059
2026-01-01 11:33:55.95	151.97	9.12	-49.8	-51.2	16.4	0.00e+00	0	33	0	419430400	66	4069
2026-01-01 11:33:56.96	151.97	9.20	-49.8	-51.1	16.4	0.00e+00	0	33	0	424673280	66	4050
2026-01-01 11:33:57.97	151.98	9.29	-49.8	-51.2	16.4	0.00e+00	0	33	0	430964736	66	4064
2026-01-01 11:33:58.98	151.98	9.38	-49.9	-51.3	16.3	0.00e+00	0	33	0	436207616	66	4135
2026-01-01 11:33:59.98	151.98	9.46	-49.9	-51.3	16.3	0.00e+00	0	33	0	441450496	66	4100
2026-01-01 11:34:00.99	151.99	9.55	-49.8	-51.1	16.4	0.00e+00	0	33	0	447741952	66	4046
2026-01-01 11:34:02.00	151.99	9.63	-49.8	-51.2	16.3	0.00e+00	0	33	0	452984832	66	4078
2026-01-01 11:34:03.01	152.00	9.72	-49.9	-51.3	16.3	0.00e+00	0	33	0	459276288	66	4119
2026-01-01 11:34:04.01	152.00	9.81	-50.0	-51.3	16.3	0.00e+00	0	33	0	464519168	66	4143
2026-01-01 11:34:05.02	152.00	9.89	-49.8	-51.2	16.4	0.00e+00	0	33	0	470810624	66	4055
2026-01-01 11:34:06.03	152.01	9.98	-49.8	-51.1	16.4	0.00e+00	0	33	0	476053504	66	4050
2026-01-01 11:34:07.04	152.01	10.07	-49.9	-51.3	16.3	0.00e+00	0	33	0	481296384	66	4120
2026-01-01 11:34:08.05	152.02	10.16	-49.8	-51.2	16.4	0.00e+00	0	33	0	487587840	66	4081
2026-01-01 11:34:09.06	152.02	10.25	-49.8	-51.2	16.4	0.00e+00	0	33	0	492830720	66	4070
2026-01-01 11:34:10.06	152.02	10.34	-49.7	-51.1	16.4	0.00e+00	0	33	0	499122176	66	4027
2026-01-01 11:34:11.07	152.03	10.43	-49.7	-51.1	16.4	0.00e+00	0	33	0	504365056	66	4015
2026-01-01 11:34:12.08	152.03	10.51	-49.8	-51.1	16.4	0.00e+00	0	33	0	509607936	66	4050
2026-01-01 11:34:13.09	152.03	10.61	-49.7	-51.1	16.4	0.00e+00	0	33	0	515899392	66	4011
2026-01-01 11:34:14.09	152.04	10.69	-49.7	-51.0	16.4	0.00e+00	0	33	0	521142272	65	4229
2026-01-01 11:34:15.10	152.04	10.79	-49.7	-51.1	16.4	0.00e+00	0	33	0	526385152	65	4256
2026-01-01 11:34:16.11	152.05	10.88	-49.8	-51.1	16.4	0.00e+00	0	33	0	532676608	65	4277
2026-01-01 11:34:17.12	152.05	10.97	-49.6	-51.0	16.5	0.00e+00	0	33	0	537919488	65	4199
2026-01-01 11:34:18.13	152.05	11.06	-49.5	-50.9	16.5	0.00e+00	0	33	0	544210944	65	4162
2026-01-01 11:34:19.13	152.06	11.15	-49.7	-51.0	16.4	0.00e+00	0	33	0	549453824	65	4233
2026-01-01 11:34:20.14	152.06	11.24	-49.6	-51.0	16.5	0.00e+00	0	33	0	555745280	65	4194
2026-01-01 11:34:21.14	152.06	11.33	-49.5	-50.9	16.5	0.00e+00	0	33	0	560988160	65	4172
2026-01-01 11:34:22.15	152.07	11.43	-49.6	-51.0	16.4	0.00e+00	0	33	0	566231040	65	4209
2026-01-01 11:34:23.16	152.07	11.52	-49.7	-51.1	16.4	0.00e+00	0	33	0	572522496	65	4273
2026-01-01 11:34:24.17	152.08	11.62	-49.5	-50.9	16.5	0.00e+00	0	33	0	577765376	65	4165
2026-01-01 11:34:25.18	152.08	11.71	-49.5	-50.9	16.5	0.00e+00	0	33	0	584056832	65	4149
2026-01-01 11:34:26.18	152.08	11.80	-49.5	-50.8	16.5	0.00e+00	0	33	0	589299712	65	4129
2026-01-01 11:34:27.19	152.09	11.90	-49.4	-50.8	16.5	0.00e+00	0	33	0	594542592	65	4101
2026-01-01 11:34:28.20	152.09	11.99	-49.4	-50.7	16.5	0.00e+00	0	33	0	600834048	65	4098
2026-01-01 11:34:29.21	152.10	12.09	-49.3	-50.7	16.6	0.00e+00	0	33	0	606076928	65	4065
2026-01-01 11:34:30.21	152.10	12.18	-49.4	-50.7	16.6	0.00e+00	0	33	0	612368384	65	4075
2026-01-01 11:34:31.23	152.10	12.28	-49.3	-50.6	16.6	0.00e+00	0	33	0	617611264	65	4044
2026-01-01 11:34:32.24	152.11	12.38	-49.3	-50.6	16.6	0.00e+00	0	33	0	622854144	65	4028
2026-01-01 11:34:33.25	152.11	12.48	-49.3	-50.7	16.6	0.00e+00	0	33	0	629145600	65	4053
2026-01-01 11:34:34.25	152.12	12.57	-49.2	-50.5	16.6	0.00e+00	0	33	0	634388480	65	3981
2026-01-01 11:34:35.26	152.12	12.67	-49.2	-50.5	16.6	0.00e+00	0	33	0	640679936	65	3981
2026-01-01 11:34:36.27	152.12	12.77	-49.2	-50.5	16.6	0.00e+00	0	33	0	645922816	64	4225
2026-01-01 11:34:37.28	152.13	12.87	-49.1	-50.4	16.7	0.00e+00	0	33	0	652214272	64	4153
2026-01-01 11:34:38.29	152.13	12.97	-49.1	-50.4	16.6	0.00e+00	0	33	0	657457152	64	4173
2026-01-01 11:34:39.30	152.13	13.07	-49.0	-50.3	16.7	0.00e+00	0	33	0	662700032	64	4140
2026-01-01 11:34:40.30	152.14	13.16	-49.0	-50.3	16.7	0.00e+00	0	34	0	668991488	64	4119
2026-01-01 11:34:41.31	152.14	13.27	-49.1	-50.4	16.6	0.00e+00	0	33	0	674234368	64	4168
2026-01-01 11:34:42.32	152.15	13.37	-48.9	-50.2	16.7	0.00e+00	0	33	0	680525824	64	4052
2026-01-01 11:34:43.32	152.15	13.47	-48.8	-50.1	16.7	0.00e+00	0	33	0	685768704	64	4043
2026-01-01 11:34:44.33	152.15	13.57	-48.8	-50.1	16.8	0.00e+00	0	33	0	691011584	64	4047
2026-01-01 11:34:45.34	152.16	13.67	-48.8	-50.0	16.8	0.00e+00	0	33	0	697303040	64	4004
2026-01-01 11:34:46.34	152.16	13.77	-48.8	-50.1	16.8	0.00e+00	0	33	0	702545920	64	4013
2026-01-01 11:34:47.35	152.17	13.87	-48.8	-50.1	16.8	0.00e+00	0	33	0	707788800	64	4018
2026-01-01 11:34:48.35	152.17	13.98	-48.7	-50.0	16.8	0.00e+00	0	33	0	714080256	64	3960
2026-01-01 11:34:49.36	152.17	14.08	-48.7	-50.0	16.8	0.00e+00	0	34	0	719323136	63	4217
2026-01-01 11:34:50.37	152.18	14.19	-48.8	-50.0	16.8	0.00e+00	0	33	0	725614592	63	4241
2026-01-01 11:34:51.37	152.18	14.29	-48.7	-50.0	16.8	0.00e+00	0	33	0	730857472	63	4194
2026-01-01 11:34:52.38	152.19	14.39	-48.6	-49.9	16.8	0.00e+00	0	33	0	737148928	63	4186
2026-01-01 11:34:53.39	152.19	14.50	-48.6	-49.9	16.8	0.00e+00	0	33	0	742391808	63	4188
2026-01-01 11:34:54.40	152.19	14.61	-48.7	-50.0	16.8	0.00e+00	0	33	0	747634688	63	4209
2026-01-01 11:34:55.41	152.20	14.71	-48.7	-49.9	16.8	0.00e+00	0	34	0	753926144	63	4191
2026-01-01 11:34:56.42	152.20	14.82	-48.6	-49.9	16.9	0.00e+00	0	34	0	759169024	63	4146
2026-01-01 11:34:57.42	152.20	14.93	-48.5	-49.8	16.9	0.00e+00	0	33	0	765460480	63	4136
2026-01-01 11:34:58.43	152.21	15.03	-48.5	-49.8	16.9	0.00e+00	0	33	0	770703360	63	4124
2026-01-01 11:34:59.44	152.21	15.14	-48.4	-49.7	16.9	0.00e+00	0	34	0	775946240	63	4077
2026-01-01 11:35:00.45	152.22	15.25	-48.5	-49.7	16.9	0.00e+00	0	34	0	782237696	63	4091
2026-01-01 11:35:01.46	152.22	15.36	-48.4	-49.7	16.9	0.00e+00	0	33	0	787480576	63	4075
2026-01-01 11:35:02.47	152.22	15.47	-48.4	-49.7	16.9	0.00e+00	0	33	0	793772032	63	4078
2026-01-01 11:35:03.47	152.23	15.58	-48.4	-49.7	16.9	0.00e+00	0	34	0	799014912	63	4063
2026-01-01 11:35:04.48	152.23	15.69	-48.5	-49.7	16.9	0.00e+00	0	34	0	805306368	63	4095
2026-01-01 11:35:05.49	152.24	15.80	-48.5	-49.8	16.9	0.00e+00	0	33	0	810549248	63	4099
2026-01-01 11:35:06.50	152.24	15.91	-48.3	-49.6	16.9	0.00e+00	0	33	0	815792128	63	4031
2026-01-01 11:35:07.51	152.24	16.03	-48.4	-49.6	16.9	0.00e+00	0	33	0	822083584	63	4040
2026-01-01 11:35:08.52	152.25	16.14	-48.3	-49.6	16.9	0.00e+00	0	33	0	827326464	63	4025
2026-01-01 11:35:09.53	152.25	16.25	-48.3	-49.6	17.0	0.00e+00	0	33	0	833617920	63	4022
2026-01-01 11:35:10.54	152.26	16.37	-48.4	-49.6	16.9	0.00e+00	0	34	0	838860800	63	4036
2026-01-01 11:35:11.55	152.26	16.48	-48.2	-49.5	16.9	0.00e+00	0	34	0	844103680	63	3985
2026-01-01 11:35:12.56	152.26	16.60	-48.3	-49.5	16.9	0.00e+00	0	33	0	850395136	63	4000
2026-01-01 11:35:13.56	152.27	16.71	-48.1	-49.4	16.9	0.00e+00	0	33	0	855638016	62	4164
2026-01-01 11:35:14.57	152.27	16.83	-48.1	-49.4	17.0	0.00e+00	0	34	0	861929472	62	4165
2026-01-01 11:35:15.58	152.28	16.94	-48.1	-49.4	17.0	0.00e+00	0	33	0	867172352	62	4151
2026-01-01 11:35:16.58	152.28	17.06	-48.1	-49.3	17.0	0.00e+00	0	33	0	872415232	62	4140
2026-01-01 11:35:17.59	152.28	17.18	-48.0	-49.2	17.0	0.00e+00	0	33	0	878706688	62	4063
2026-01-01 11:35:18.60	152.29	17.30	-47.9	-49.1	17.1	0.00e+00	0	33	0	883949568	62	4033
2026-01-01 11:35:19.61	152.29	17.42	-47.9	-49.1	17.1	0.00e+00	0	33	0	890241024	62	4021
2026-01-01 11:35:20.62	152.30	17.53	-47.9	-49.1	17.0	0.00e+00	0	34	0	895483904	62	4038
2026-01-01 11:35:21.62	152.30	17.65	-47.8	-49.1	17.1	0.00e+00	0	33	0	900726784	62	4006
2026-01-01 11:35:22.63	152.30	17.77	-47.7	-49.0	17.1	0.00e+00	0	33	0	907018240	62	3961
2026-01-01 11:35:23.64	152.31	17.90	-47.8	-49.0	17.1	0.00e+00	0	33	0	912261120	62	3980
2026-01-01 11:35:24.65	152.31	18.02	-47.9	-49.1	17.1	0.00e+00	0	33	0	918552576	62	4040
2026-01-01 11:35:25.66	152.32	18.14	-47.7	-49.0	17.1	0.00e+00	0	33	0	923795456	62	3963
2026-01-01 11:35:26.67	152.32	18.26	-47.7	-48.9	17.1	0.00e+00	0	33	0	930086912	62	3944
2026-01-01 11:35:27.67	152.32	18.39	-47.5	-48.7	17.1	0.00e+00	0	33	0	935329792	61	4093
2026-01-01 11:35:28.68	152.33	18.51	-47.5	-48.7	17.2	0.00e+00	0	33	0	940572672	61	4087
2026-01-01 11:35:29.69	152.33	18.64	-47.5	-48.7	17.2	0.00e+00	0	33	0	946864128	61	4070
2026-01-01 11:35:30.70	152.34	18.76	-47.5	-48.7	17.1	0.00e+00	0	33	0	952107008	61	4087
2026-01-01 11:35:31.71	152.34	18.89	-47.4	-48.6	17.2	0.00e+00	0	33	0	958398464	61	4039
2026-01-01 11:35:32.72	152.34	19.01	-47.3	-48.5	17.2	0.00e+00	0	33	0	963641344	61	4003
2026-01-01 11:35:33.73	152.35	19.14	-47.4	-48.6	17.2	0.00e+00	0	34	0	968884224	61	4011
2026-01-01 11:35:34.73	152.35	19.27	-47.3	-48.5	17.2	0.00e+00	0	33	0	975175680	61	3962
2026-01-01 11:35:35.73	152.36	19.40	-47.3	-48.5	17.2	0.00e+00	0	34	0	980418560	61	3968
2026-01-01 11:35:36.74	152.36	19.53	-47.3	-48.5	17.2	0.00e+00	0	33	0	986710016	61	3982
2026-01-01 11:35:37.75	152.36	19.66	-47.3	-48.5	17.2	0.00e+00	0	33	0	991952896	61	3977
2026-01-01 11:35:38.76	152.37	19.79	-47.3	-48.5	17.2	0.00e+00	0	33	0	997195776	61	3961
2026-01-01 11:35:39.77	152.37	19.92	-47.4	-48.6	17.2	0.00e+00	0	33	0	1003487232	61	4021
2026-01-01 11:35:40.78	152.38	20.05	-47.3	-48.5	17.2	0.00e+00	0	33	0	1008730112	61	3963
2026-01-01 11:35:41.79	152.38	20.19	-47.2	-48.4	17.3	0.00e+00	0	33	0	1015021568	61	3928
2026-01-01 11:35:42.80	152.38	20.32	-47.2	-48.4	17.2	0.00e+00	0	33	0	1020264448	60	4151
2026-01-01 11:35:43.81	152.39	20.45	-47.1	-48.3	17.2	0.00e+00	0	33	0	1026555904	60	4127
2026-01-01 11:35:44.82	152.39	20.59	-47.2	-48.4	17.2	0.00e+00	0	33	0	1031798784	60	4149
2026-01-01 11:35:45.82	152.40	20.72	-47.0	-48.2	17.3	0.00e+00	0	33	0	1037041664	60	4087
2026-01-01 11:35:46.83	152.40	20.86	-47.1	-48.3	17.2	0.00e+00	0	33	0	1043333120	60	4103
2026-01-01 11:35:47.84	152.41	21.00	-47.0	-48.2	17.3	0.00e+00	0	34	0	1048576000	60	4076
2026-01-01 11:35:48.85	152.41	21.14	-47.0	-48.1	17.3	0.00e+00	0	33	0	1053818880	60	4050
2026-01-01 11:35:49.86	152.41	21.28	-46.9	-48.1	17.3	0.00e+00	0	33	0	1060110336	60	4034
2026-01-01 11:35:50.86	152.42	21.41	-47.0	-48.2	17.3	0.00e+00	0	33	0	1065353216	60	4056
2026-01-01 11:35:51.87	152.42	21.55	-47.0	-48.1	17.3	0.00e+00	0	33	0	1071644672	60	4043
2026-01-01 11:35:52.88	152.43	21.70	-46.9	-48.1	17.3	0.00e+00	0	34	0	1076887552	60	4043
2026-01-01 11:35:53.88	152.43	21.84	-47.0	-48.2	17.2	0.00e+00	0	34	0	1083179008	60	4087
2026-01-01 11:35:54.89	152.43	21.98	-47.0	-48.2	17.3	0.00e+00	0	33	0	1088421888	60	4077
2026-01-01 11:35:55.90	152.44	22.12	-47.1	-48.3	17.3	0.00e+00	0	34	0	1093664768	60	4113
2026-01-01 11:35:56.91	152.44	22.27	-47.1	-48.3	17.2	0.00e+00	0	33	0	1099956224	60	4130
2026-01-01 11:35:57.92	152.45	22.41	-47.1	-48.3	17.2	0.00e+00	0	34	0	1105199104	60	4118
2026-01-01 11:35:58.93	152.45	22.56	-47.1	-48.3	17.2	0.00e+00	0	34	0	1111490560	60	4137
2026-01-01 11:35:59.94	152.46	22.71	-47.1	-48.3	17.2	0.00e+00	0	33	0	1116733440	60	4128
2026-01-01 11:36:00.95	152.46	22.85	-47.1	-48.3	17.3	0.00e+00	0	34	0	1121976320	60	4106
2026-01-01 11:36:01.95	152.46	23.00	-47.0	-48.2	17.3	0.00e+00	0	34	0	1128267776	60	4076
2026-01-01 11:36:02.96	152.47	23.15	-47.0	-48.3	17.2	0.00e+00	0	34	0	1133510656	60	4101
2026-01-01 11:36:03.97	152.47	23.30	-47.0	-48.2	17.3	0.00e+00	0	34	0	1139802112	60	4089
2026-01-01 11:36:04.98	152.48	23.45	-47.0	-48.2	17.3	0.00e+00	0	33	0	1145044992	60	4091
2026-01-01 11:36:05.98	152.48	23.60	-47.0	-48.2	17.3	0.00e+00	0	34	0	1150287872	60	4076
2026-01-01 11:36:06.99	152.48	23.76	-47.1	-48.3	17.3	0.00e+00	0	33	0	1156579328	60	4105
2026-01-01 11:36:08.00	152.49	23.91	-47.1	-48.3	17.3	0.00e+00	0	34	0	1161822208	60	4128
2026-01-01 11:36:09.01	152.49	24.07	-47.0	-48.2	17.3	0.00e+00	0	33	0	1168113664	60	4090
2026-01-01 11:36:10.02	152.50	24.22	-47.0	-48.2	17.3	0.00e+00	0	33	0	1173356544	60	4068
2026-01-01 11:36:11.03	152.50	24.38	-46.8	-48.0	17.3	0.00e+00	0	34	0	1179648000	60	3988
2026-01-01 11:36:12.04	152.51	24.54	-46.8	-48.0	17.4	0.00e+00	0	34	0	1184890880	60	3996
2026-01-01 11:36:13.05	152.51	24.69	-46.8	-48.0	17.4	0.00e+00	0	33	0	1190133760	60	3977
2026-01-01 11:36:14.06	152.51	24.85	-46.8	-47.9	17.4	0.00e+00	0	34	0	1196425216	60	3956
2026-01-01 11:36:15.06	152.52	25.01	-46.8	-47.9	17.4	0.00e+00	0	33	0	1201668096	60	3950
2026-01-01 11:36:16.07	152.52	25.17	-47.0	-48.2	17.3	0.00e+00	0	33	0	1207959552	59	4321
2026-01-01 11:36:17.08	152.53	25.34	-46.9	-48.1	17.3	0.00e+00	0	34	0	1213202432	59	4276
2026-01-01 11:36:18.09	152.53	25.50	-47.1	-48.3	17.3	0.00e+00	0	34	0	1218445312	59	4360
2026-01-01 11:36:19.10	152.54	25.67	-46.9	-48.1	17.3	0.00e+00	0	34	0	1224736768	59	4280
2026-01-01 11:36:20.11	152.54	25.83	-47.0	-48.2	17.3	0.00e+00	0	34	0	1229979648	59	4308
2026-01-01 11:36:21.11	152.54	26.00	-46.9	-48.1	17.3	0.00e+00	0	34	0	1236271104	59	4271
2026-01-01 11:36:22.12	152.55	26.16	-46.9	-48.1	17.3	0.00e+00	0	34	0	1241513984	59	4288
2026-01-01 11:36:23.13	152.55	26.33	-46.9	-48.1	17.3	0.00e+00	0	34	0	1246756864	59	4278
2026-01-01 11:36:24.14	152.56	26.50	-46.8	-48.0	17.4	0.00e+00	0	34	0	1253048320	59	4203
2026-01-01 11:36:25.14	152.56	26.67	-46.9	-48.1	17.4	0.00e+00	0	34	0	1258291200	59	4243
2026-01-01 11:36:26.15	152.57	26.84	-46.8	-48.0	17.3	0.00e+00	0	34	0	1264582656	59	4217
2026-01-01 11:36:27.16	152.57	27.02	-46.9	-48.0	17.4	0.00e+00	0	34	0	1269825536	59	4233
2026-01-01 11:36:28.16	152.57	27.19	-46.8	-48.0	17.4	0.00e+00	0	34	0	1276116992	59	4206
2026-01-01 11:36:29.17	152.58	27.37	-46.9	-48.0	17.4	0.00e+00	0	34	0	1281359872	59	4238
2026-01-01 11:36:30.17	152.58	27.54	-46.9	-48.1	17.4	0.00e+00	0	34	0	1286602752	59	4247
2026-01-01 11:36:31.18	152.59	27.72	-47.0	-48.1	17.3	0.00e+00	0	34	0	1292894208	59	4288
2026-01-01 11:36:32.18	152.59	27.89	-47.0	-48.1	17.3	0.00e+00	0	34	0	1298137088	59	4290
2026-01-01 11:36:33.19	152.60	28.07	-46.9	-48.1	17.4	0.00e+00	0	34	0	1303379968	59	4281
2026-01-01 11:36:34.20	152.60	28.26	-46.9	-48.1	17.4	0.00e+00	0	34	0	1309671424	59	4266
2026-01-01 11:36:35.20	152.60	28.44	-47.0	-48.2	17.3	0.00e+00	0	34	0	1314914304	59	4303
2026-01-01 11:36:36.20	152.61	28.62	-46.9	-48.1	17.4	0.00e+00	0	34	0	1320157184	59	4252
2026-01-01 11:36:37.21	152.61	28.80	-46.9	-48.1	17.4	0.00e+00	0	34	0	1326448640	59	4260
2026-01-01 11:36:38.22	152.62	28.99	-46.8	-48.0	17.4	0.00e+00	0	34	0	1331691520	59	4202
2026-01-01 11:36:39.23	152.62	29.17	-46.9	-48.1	17.4	0.00e+00	0	33	0	1337982976	59	4253
2026-01-01 11:36:40.24	152.63	29.36	-46.7	-47.9	17.4	0.00e+00	0	33	0	1343225856	59	4169
2026-01-01 11:36:41.25	152.63	29.55	-46.7	-47.9	17.4	0.00e+00	0	34	0	1349517312	59	4168
2026-01-01 11:36:42.26	152.64	29.74	-46.7	-47.9	17.4	0.00e+00	0	34	0	1354760192	59	4152
2026-01-01 11:36:43.27	152.64	29.94	-46.6	-47.8	17.4	0.00e+00	0	34	0	1361051648	59	4120
2026-01-01 11:36:44.27	152.64	30.13	-46.6	-47.8	17.4	0.00e+00	0	34	0	1366294528	59	4136
2026-01-01 11:36:45.28	152.65	30.32	-46.6	-47.8	17.4	0.00e+00	0	34	0	1371537408	59	4105
2026-01-01 11:36:46.29	152.65	30.52	-46.5	-47.7	17.4	0.00e+00	0	34	0	1377828864	59	4091
2026-01-01 11:36:47.30	152.66	30.72	-46.5	-47.7	17.4	0.00e+00	0	34	0	1383071744	59	4080
2026-01-01 11:36:48.31	152.66	30.91	-46.6	-47.7	17.4	0.00e+00	0	34	0	1388314624	59	4097
2026-01-01 11:36:49.31	152.67	31.11	-46.6	-47.7	17.4	0.00e+00	0	34	0	1394606080	59	4089
2026-01-01 11:36:50.32	152.67	31.31	-46.5	-47.7	17.4	0.00e+00	0	34	0	1399848960	59	4087
2026-01-01 11:36:51.33	152.68	31.52	-46.5	-47.6	17.5	0.00e+00	0	34	0	1406140416	59	4050
2026-01-01 11:36:52.32	152.68	31.72	-46.4	-47.6	17.5	0.00e+00	0	33	0	1411383296	59	4027
2026-01-01 11:36:53.33	152.69	31.92	-46.3	-47.4	17.5	0.00e+00	0	34	0	1416626176	59	3945
2026-01-01 11:36:54.34	152.69	32.13	-46.2	-47.4	17.6	0.00e+00	0	34	0	1422917632	59	3920
2026-01-01 11:36:55.35	152.69	32.34	-46.2	-47.3	17.5	0.00e+00	0	34	0	1428160512	58	4143
2026-01-01 11:36:56.35	152.70	32.55	-46.2	-47.4	17.5	0.00e+00	0	33	0	1434451968	58	4165
2026-01-01 11:36:57.36	152.70	32.76	-46.4	-47.6	17.5	0.00e+00	0	34	0	1439694848	58	4246
2026-01-01 11:36:58.37	152.71	32.97	-46.5	-47.7	17.5	0.00e+00	0	34	0	1445986304	58	4292
2026-01-01 11:36:59.38	152.71	33.19	-46.6	-47.8	17.4	0.00e+00	0	34	0	1451229184	58	4347
2026-01-01 11:37:00.38	152.72	33.40	-46.5	-47.7	17.4	0.00e+00	0	33	0	1456472064	58	4302
2026-01-01 11:37:01.39	152.72	33.62	-46.5	-47.7	17.4	0.00e+00	0	33	0	1462763520	58	4331
2026-01-01 11:37:02.40	152.73	33.84	-46.5	-47.7	17.4	0.00e+00	0	34	0	1468006400	58	4316
2026-01-01 11:37:03.40	152.73	34.06	-46.5	-47.7	17.4	0.00e+00	0	34	0	1473249280	58	4331
2026-01-01 11:37:04.41	152.74	34.28	-46.4	-47.5	17.5	0.00e+00	0	34	0	1479540736	58	4228
2026-01-01 11:37:05.42	152.74	34.50	-46.4	-47.6	17.5	0.00e+00	0	34	0	1484783616	58	4249
2026-01-01 11:37:06.43	152.75	34.73	-46.4	-47.5	17.5	0.00e+00	0	34	0	1491075072	58	4227
2026-01-01 11:37:07.44	152.75	34.95	-46.3	-47.5	17.5	0.00e+00	0	34	0	1496317952	58	4219
2026-01-01 11:37:08.45	152.75	35.18	-46.4	-47.6	17.4	0.00e+00	0	34	0	1501560832	58	4279
2026-01-01 11:37:09.46	152.76	35.41	-46.6	-47.8	17.4	0.00e+00	0	34	0	1507852288	58	4344
2026-01-01 11:37:10.47	152.76	35.65	-46.6	-47.8	17.4	0.00e+00	0	34	0	1513095168	58	4355
2026-01-01 11:37:11.48	152.77	35.88	-46.6	-47.7	17.4	0.00e+00	0	34	0	1519386624	58	4331
2026-01-01 11:37:12.49	152.77	36.12	-46.5	-47.6	17.4	0.00e+00	0	34	0	1524629504	58	4271
2026-01-01 11:37:13.50	152.78	36.35	-46.3	-47.4	17.5	0.00e+00	0	34	0	1530920960	58	4156
2026-01-01 11:37:14.51	152.78	36.59	-46.2	-47.3	17.5	0.00e+00	0	34	0	1536163840	58	4125
2026-01-01 11:37:15.51	152.79	36.83	-45.9	-47.0	17.6	0.00e+00	0	34	0	1541406720	58	3998
2026-01-01 11:37:16.52	152.79	37.07	-45.9	-47.0	17.6	0.00e+00	0	34	0	1547698176	58	3985
2026-01-01 11:37:17.53	152.80	37.32	-45.8	-46.9	17.6	0.00e+00	0	34	0	1552941056	58	3948
2026-01-01 11:37:18.54	152.80	37.56	-45.9	-47.1	17.6	0.00e+00	0	34	0	1559232512	58	4009
2026-01-01 11:37:19.55	152.81	37.81	-46.0	-47.1	17.5	0.00e+00	0	34	0	1564475392	58	4046
2026-01-01 11:37:20.55	152.81	38.06	-46.3	-47.3	17.6	0.00e+00	0	34	0	1569718272	58	4119
2026-01-01 11:37:21.57	152.82	38.31	-46.4	-47.4	17.6	0.00e+00	0	34	0	1576009728	58	4172
2026-01-01 11:37:22.58	152.82	38.57	-46.6	-47.7	17.5	0.00e+00	0	34	0	1581252608	58	4297
2026-01-01 11:37:23.58	152.83	38.82	-46.7	-47.7	17.5	0.00e+00	0	34	0	1587544064	58	4340
2026-01-01 11:37:24.59	152.83	39.08	-46.8	-47.8	17.5	0.00e+00	0	34	0	1592786944	58	4379
2026-01-01 11:37:25.59	152.84	39.33	-46.7	-47.8	17.5	0.00e+00	0	34	0	1598029824	58	4357
2026-01-01 11:37:26.60	152.84	39.60	-46.8	-47.9	17.6	0.00e+00	0	34	0	1604321280	58	4403
2026-01-01 11:37:27.61	152.85	39.86	-46.7	-47.8	17.6	0.00e+00	0	34	0	1609564160	58	4351
2026-01-01 11:37:28.62	152.85	40.12	-46.8	-47.8	17.6	0.00e+00	0	34	0	1615855616	58	4388
2026-01-01 11:37:29.62	152.86	40.39	-46.8	-47.8	17.5	0.00e+00	0	34	0	1621098496	58	4384
2026-01-01 11:37:30.63	152.86	40.66	-46.8	-47.8	17.6	0.00e+00	0	34	0	1627389952	58	4381
2026-01-01 11:37:31.64	152.87	40.93	-46.8	-47.9	17.5	0.00e+00	0	33	0	1632632832	58	4401
2026-01-01 11:37:32.65	152.87	41.20	-46.9	-48.0	17.5	0.00e+00	0	34	0	1637875712	58	4447
2026-01-01 11:37:33.65	152.88	41.48	-47.0	-48.0	17.6	0.00e+00	0	34	0	1644167168	59	4240
2026-01-01 11:37:34.66	152.88	41.75	-46.9	-48.0	17.6	0.00e+00	0	34	0	1649410048	59	4213
2026-01-01 11:37:35.67	152.89	42.03	-46.9	-47.9	17.6	0.00e+00	0	34	0	1655701504	59	4190
2026-01-01 11:37:36.67	152.89	42.31	-46.9	-47.9	17.6	0.00e+00	0	34	0	1660944384	59	4172
2026-01-01 11:37:37.68	152.90	42.60	-46.9	-47.9	17.6	0.00e+00	0	34	0	1666187264	59	4179
2026-01-01 11:37:38.69	152.91	42.88	-46.9	-48.0	17.6	0.00e+00	0	34	0	1672478720	59	4207
2026-01-01 11:37:39.70	152.91	43.17	-46.9	-47.9	17.6	0.00e+00	0	34	0	1677721600	59	4190
2026-01-01 11:37:40.71	152.92	43.46	-47.0	-48.0	17.5	0.00e+00	0	34	0	1684013056	59	4240
2026-01-01 11:37:41.72	152.92	43.75	-47.0	-48.0	17.6	0.00e+00	0	34	0	1689255936	59	4220
2026-01-01 11:37:42.74	152.93	44.05	-47.0	-48.0	17.6	0.00e+00	0	34	0	1694498816	59	4229
2026-01-01 11:37:43.74	152.93	44.35	-47.0	-48.0	17.6	0.00e+00	0	34	0	1700790272	59	4230
2026-01-01 11:37:44.75	152.94	44.65	-46.8	-47.8	17.6	0.00e+00	0	34	0	1706033152	59	4142
2026-01-01 11:37:45.76	152.94	44.95	-46.9	-48.0	17.6	0.00e+00	0	34	0	1712324608	59	4199
2026-01-01 11:37:46.77	152.95	45.25	-46.9	-48.0	17.6	0.00e+00	0	34	0	1717567488	59	4205
2026-01-01 11:37:47.77	152.96	45.56	-46.8	-47.8	17.6	0.00e+00	0	34	0	1723858944	59	4115
2026-01-01 11:37:48.78	152.96	45.86	-46.8	-47.8	17.6	0.00e+00	0	34	0	1729101824	59	4128
2026-01-01 11:37:49.79	152.97	46.18	-46.9	-47.9	17.6	0.00e+00	0	34	0	1734344704	59	4164
2026-01-01 11:37:50.80	152.97	46.49	-47.0	-48.1	17.6	0.00e+00	0	34	0	1740636160	59	4256
2026-01-01 11:37:51.81	152.98	46.80	-47.0	-48.1	17.6	0.00e+00	0	34	0	1745879040	59	4255
2026-01-01 11:37:52.82	152.98	47.12	-46.8	-47.8	17.6	0.00e+00	0	34	0	1752170496	59	4139
2026-01-01 11:37:53.82	152.99	47.44	-46.7	-47.8	17.6	0.00e+00	0	34	0	1757413376	59	4105
2026-01-01 11:37:54.84	153.00	47.77	-46.6	-47.7	17.7	0.00e+00	0	34	0	1762656256	59	4058
2026-01-01 11:37:55.84	153.00	48.09	-46.6	-47.6	17.6	0.00e+00	0	34	0	1768947712	59	4049
2026-01-01 11:37:56.85	153.01	48.42	-46.9	-47.9	17.6	0.00e+00	0	34	0	1774190592	59	4174
2026-01-01 11:37:57.86	153.01	48.75	-47.0	-48.0	17.6	0.00e+00	0	34	0	1779433472	59	4239
2026-01-01 11:37:58.87	153.02	49.08	-47.0	-48.0	17.5	0.00e+00	0	33	0	1785724928	59	4239
2026-01-01 11:37:59.87	153.03	49.41	-47.0	-48.0	17.6	0.00e+00	0	33	0	1790967808	59	4235
2026-01-01 11:38:00.88	153.03	49.75	-47.1	-48.2	17.5	0.00e+00	0	34	0	1797259264	59	4305
2026-01-01 11:38:01.88	153.04	50.09	-47.1	-48.2	17.5	0.00e+00	0	34	0	1802502144	59	4298
2026-01-01 11:38:02.89	153.04	50.43	-47.0	-48.0	17.6	0.00e+00	0	34	0	1808793600	59	4218
2026-01-01 11:38:03.90	153.05	50.78	-46.9	-47.9	17.6	0.00e+00	0	34	0	1814036480	59	4186
2026-01-01 11:38:04.91	153.06	51.13	-47.1	-48.1	17.5	0.00e+00	0	34	0	1820327936	59	4284
2026-01-01 11:38:05.91	153.06	51.47	-47.1	-48.1	17.5	0.00e+00	0	34	0	1825570816	60	4049
2026-01-01 11:38:06.92	153.07	51.83	-47.5	-48.6	17.5	0.00e+00	0	34	0	1830813696	60	4250
2026-01-01 11:38:07.93	153.08	52.18	-47.8	-48.9	17.3	0.00e+00	0	34	0	1837105152	60	4425
2026-01-01 11:38:08.94	153.08	52.54	-48.0	-49.1	17.3	0.00e+00	0	34	0	1842348032	61	4248
2026-01-01 11:38:09.95	153.09	52.90	-48.0	-49.1	17.4	0.00e+00	0	34	0	1847590912	61	4245
2026-01-01 11:38:10.96	153.10	53.27	-47.9	-49.0	17.4	0.00e+00	0	34	0	1853882368	61	4216
2026-01-01 11:38:11.97	153.10	53.63	-47.9	-49.0	17.4	0.00e+00	0	34	0	1859125248	61	4212
2026-01-01 11:38:12.98	153.11	54.00	-47.9	-49.0	17.4	0.00e+00	0	34	0	1865416704	61	4219
2026-01-01 11:38:13.99	153.12	54.37	-47.9	-48.9	17.4	0.00e+00	0	34	0	1870659584	61	4193
2026-01-01 11:38:14.99	153.13	54.75	-48.2	-49.3	17.3	0.00e+00	0	34	0	1875902464	61	4387
2026-01-01 11:38:16.00	153.13	55.12	-47.9	-49.0	17.4	0.00e+00	0	34	0	1882193920	61	4234
2026-01-01 11:38:17.01	153.14	55.50	-47.6	-48.6	17.5	0.00e+00	0	34	0	1887436800	61	4033
2026-01-01 11:38:18.02	153.15	55.89	-47.6	-48.6	17.5	0.00e+00	0	34	0	1893728256	61	4015
2026-01-01 11:38:19.03	153.16	56.27	-47.5	-48.6	17.5	0.00e+00	0	34	0	1898971136	61	4009
2026-01-01 11:38:20.04	153.16	56.66	-47.5	-48.5	17.5	0.00e+00	0	34	0	1905262592	61	3996
2026-01-01 11:38:21.05	153.17	57.05	-47.0	-48.0	17.6	0.00e+00	0	34	0	1910505472	60	3988
2026-01-01 11:38:22.06	153.18	57.44	-46.8	-47.8	17.6	0.00e+00	0	34	0	1915748352	60	3904
2026-01-01 11:38:23.07	153.19	57.84	-47.0	-48.1	17.6	0.00e+00	0	34	0	1922039808	60	4019
2026-01-01 11:38:24.08	153.19	58.24	-47.2	-48.2	17.6	0.00e+00	0	34	0	1927282688	60	4090
2026-01-01 11:38:25.09	153.20	58.64	-47.0	-48.0	17.6	0.00e+00	0	34	0	1933574144	60	3978
2026-01-01 11:38:26.10	153.21	59.04	-47.1	-48.1	17.6	0.00e+00	0	34	0	1938817024	60	4041
2026-01-01 11:38:27.11	153.22	59.45	-47.4	-48.5	17.5	0.00e+00	0	34	0	1944059904	60	4209
2026-01-01 11:38:28.11	153.23	59.86	-46.9	-47.9	17.7	0.00e+00	0	34	0	1950351360	60	3933
2026-01-01 11:38:29.12	153.24	60.27	-47.0	-48.0	17.6	0.00e+00	0	34	0	1955594240	59	4215
2026-01-01 11:38:30.13	153.25	60.68	-47.3	-48.4	17.5	0.00e+00	0	34	0	1961885696	59	4406
2026-01-01 11:38:31.14	153.26	61.10	-47.0	-48.0	17.6	0.00e+00	0	34	0	1967128576	60	3996
2026-01-01 11:38:32.15	153.26	61.52	-46.9	-47.9	17.7	0.00e+00	0	34	0	1972371456	60	3934
2026-01-01 11:38:33.15	153.27	61.94	-46.8	-47.8	17.7	0.00e+00	0	34	0	1978662912	60	3874
2026-01-01 11:38:34.16	153.28	62.37	-47.1	-48.1	17.6	0.00e+00	0	34	0	1983905792	59	4259
2026-01-01 11:38:35.17	153.29	62.80	-47.1	-48.1	17.6	0.00e+00	0	34	0	1990197248	59	4259
2026-01-01 11:38:36.17	153.30	63.22	-47.0	-48.1	17.6	0.00e+00	0	34	0	1995440128	59	4244
2026-01-01 11:38:37.18	153.31	63.66	-46.3	-47.3	17.8	0.00e+00	0	34	0	2001731584	59	3911
2026-01-01 11:38:38.18	153.32	64.09	-46.2	-47.2	17.8	0.00e+00	0	34	0	2006974464	58	4056
2026-01-01 11:38:39.19	153.34	64.53	-46.5	-47.5	17.7	0.00e+00	0	34	0	2012217344	58	4208
2026-01-01 11:38:40.20	153.35	64.97	-46.6	-47.6	17.7	0.00e+00	0	34	0	2018508800	58	4276
2026-01-01 11:38:41.21	153.36	65.41	-46.3	-47.3	17.7	0.00e+00	0	34	0	2023751680	58	4126
2026-01-01 11:38:42.22	153.37	65.86	-46.1	-47.1	17.8	0.00e+00	0	34	0	2030043136	58	4019
2026-01-01 11:38:43.23	153.38	66.31	-46.2	-47.2	17.8	0.00e+00	0	34	0	2035286016	58	4080
2026-01-01 11:38:44.24	153.40	66.76	-46.2	-47.2	17.7	0.00e+00	0	34	0	2040528896	58	4087
2026-01-01 11:38:45.24	153.41	67.21	-46.2	-47.2	17.8	0.00e+00	0	34	0	2046820352	58	4059
2026-01-01 11:38:46.25	153.42	67.67	-46.1	-47.1	17.8	0.00e+00	0	34	0	2052063232	58	4011
2026-01-01 11:38:47.26	153.43	68.12	-46.1	-47.1	17.8	0.00e+00	0	34	0	2058354688	58	4010
2026-01-01 11:38:48.27	153.45	68.59	-45.7	-46.6	17.9	0.00e+00	0	34	0	2063597568	58	3820
2026-01-01 11:38:49.27	153.46	69.04	-45.6	-46.6	17.9	0.00e+00	0	34	0	2068840448	57	4011
2026-01-01 11:38:50.28	153.48	69.51	-46.1	-47.2	17.7	0.00e+00	0	34	0	2075131904	57	4298
2026-01-01 11:38:51.29	153.49	69.98	-45.7	-46.7	17.8	0.00e+00	0	34	0	2080374784	57	4068
2026-01-01 11:38:52.29	153.51	70.44	-45.4	-46.3	17.9	0.00e+00	0	34	0	2086666240	57	3910
2026-01-01 11:38:53.30	153.53	70.92	-45.7	-46.7	17.9	0.00e+00	0	34	0	2091909120	57	4073
2026-01-01 11:38:54.31	153.55	71.39	-45.9	-46.9	17.8	0.00e+00	0	34	0	2098200576	57	4147
2026-01-01 11:38:55.32	153.56	71.87	-45.8	-46.8	17.8	0.00e+00	0	34	0	2103443456	57	4106
2026-01-01 11:38:56.32	153.58	72.34	-45.5	-46.5	17.9	0.00e+00	0	34	0	2108686336	57	3966
2026-01-01 11:38:57.33	153.60	72.83	-45.6	-46.5	17.9	0.00e+00	0	34	0	2114977792	57	4001
2026-01-01 11:38:58.34	153.62	73.31	-45.4	-46.4	17.9	0.00e+00	0	34	0	2120220672	57	3947
2026-01-01 11:38:59.35	153.65	73.79	-45.5	-46.5	17.9	0.00e+00	0	34	0	2125463552	57	3981
2026-01-01 11:39:00.36	153.67	74.28	-45.8	-46.8	17.8	0.00e+00	0	34	0	2131755008	57	4131
2026-01-01 11:39:01.37	153.69	74.77	-45.7	-46.7	17.8	0.00e+00	0	34	0	2136997888	57	4085
2026-01-01 11:39:02.37	153.72	75.26	-45.6	-46.6	17.9	0.00e+00	0	34	0	2143289344	57	4036
2026-01-01 11:39:03.38	153.75	75.75	-45.7	-46.6	17.8	0.00e+00	0	34	0	2148532224	57	4048
2026-01-01 11:39:04.39	153.78	76.24	-45.8	-46.8	17.8	0.00e+00	0	34	0	2153775104	57	4114
2026-01-01 11:39:05.40	153.81	76.74	-45.2	-46.2	18.0	0.00e+00	0	34	0	2160066560	57	3831
2026-01-01 11:39:06.41	153.84	77.24	-45.2	-46.1	17.9	0.00e+00	0	34	0	2165309440	56	4050
2026-01-01 11:39:07.42	153.88	77.74	-45.2	-46.2	17.9	0.00e+00	0	34	0	2171600896	56	4074
2026-01-01 11:39:08.43	153.92	78.24	-44.9	-45.9	18.0	0.00e+00	0	34	0	2176843776	56	3930
2026-01-01 11:39:09.44	153.96	78.74	-44.9	-45.9	18.0	0.00e+00	0	34	0	2183135232	56	3929
2026-01-01 11:39:10.44	154.01	79.24	-44.9	-45.9	18.0	0.00e+00	0	34	0	2188378112	56	3923
2026-01-01 11:39:11.45	154.06	79.75	-44.8	-45.8	18.0	0.00e+00	0	34	0	2193620992	56	3881
2026-01-01 11:39:12.46	154.11	80.25	-44.8	-45.8	18.0	0.00e+00	0	34	0	2199912448	56	3897
2026-01-01 11:39:13.47	154.17	80.76	-44.7	-45.7	18.0	0.00e+00	0	34	0	2205155328	56	3827
2026-01-01 11:39:14.48	154.24	81.27	-45.1	-46.1	17.9	0.00e+00	0	34	0	2211446784	56	4028
2026-01-01 11:39:15.49	154.32	81.78	-44.3	-45.2	18.0	0.00e+00	0	34	0	2216689664	55	3868
2026-01-01 11:39:16.49	154.40	82.29	-43.4	-44.3	18.0	0.00e+00	0	34	0	2221932544	53	3891
2026-01-01 11:39:17.50	154.50	82.80	-43.6	-44.5	18.0	0.00e+00	0	34	0	2228224000	53	4002
2026-01-01 11:39:18.51	154.61	83.32	-43.7	-44.6	18.0	0.00e+00	0	34	0	2233466880	53	4028
2026-01-01 11:39:19.52	154.74	83.83	-43.9	-44.8	18.0	0.00e+00	0	34	0	2239758336	53	4134
2026-01-01 11:39:20.52	154.89	84.34	-44.2	-45.1	17.9	0.00e+00	0	34	0	2245001216	53	4281
2026-01-01 11:39:21.53	155.07	84.86	-44.4	-45.4	17.8	0.00e+00	0	34	0	2250244096	53	4392
2026-01-01 11:39:22.53	155.29	85.37	-44.6	-45.5	17.8	0.00e+00	0	34	0	2256535552	54	4237
2026-01-01 11:39:23.54	155.57	85.88	-44.4	-45.4	17.9	0.00e+00	0	34	0	2261778432	54	4175
2026-01-01 11:39:24.55	155.92	86.40	-44.6	-45.5	17.8	0.00e+00	0	34	0	2268069888	54	4236
2026-01-01 11:39:25.56	156.39	86.92	-44.6	-45.5	17.8	0.00e+00	0	34	0	2273312768	54	4233
2026-01-01 11:39:26.57	157.06	87.44	-44.6	-45.6	17.8	0.00e+00	0	34	0	2279604224	54	4249
2026-01-01 11:39:27.58	158.05	87.95	-44.6	-45.6	17.8	0.00e+00	0	34	0	2284847104	54	4262
2026-01-01 11:39:28.59	159.72	88.47	-44.7	-45.6	17.8	0.00e+00	0	34	0	2290089984	54	4271
2026-01-01 11:39:29.60	163.09	88.99	-45.3	-46.3	17.8	0.00e+00	0	34	0	2296381440	55	4357
2026-01-01 11:39:30.60	173.02	89.49	-45.4	-46.4	17.9	0.00e+00	0	34	0	2301624320	57	3934
2026-01-01 11:39:31.61	254.70	89.82	-45.7	-46.7	17.9	0.00e+00	0	34	0	2307915776	58	3831
2026-01-01 11:39:32.62	315.70	89.42	-45.9	-46.9	17.8	0.00e+00	0	34	0	2313158656	58	3927
2026-01-01 11:39:33.63	323.94	88.91	-45.4	-46.4	17.9	0.00e+00	0	34	0	2318401536	57	3932
2026-01-01 11:39:34.64	326.92	88.40	-45.1	-46.1	17.9	0.00e+00	0	34	0	2324692992	56	4017
2026-01-01 11:39:35.64	328.45	87.88	-44.9	-45.9	17.9	0.00e+00	0	34	0	2329935872	56	3917
2026-01-01 11:39:36.65	329.38	87.37	-44.9	-45.8	17.9	0.00e+00	0	34	0	2335178752	56	3912
2026-01-01 11:39:37.66	330.01	86.85	-44.9	-45.9	17.9	0.00e+00	0	34	0	2341470208	56	3932
2026-01-01 11:39:38.67	330.47	86.33	-44.5	-45.5	17.9	0.00e+00	0	34	0	2346713088	55	3971
2026-01-01 11:39:39.67	330.81	85.82	-44.5	-45.5	17.9	0.00e+00	0	34	0	2353004544	55	3983
2026-01-01 11:39:40.68	331.07	85.30	-44.4	-45.3	18.0	0.00e+00	0	34	0	2358247424	55	3913
2026-01-01 11:39:41.69	331.29	84.79	-44.2	-45.2	18.1	0.00e+00	0	34	0	2364538880	55	3827
2026-01-01 11:39:42.70	331.47	84.27	-44.2	-45.2	18.1	0.00e+00	0	34	0	2369781760	55	3848
2026-01-01 11:39:43.71	331.62	83.76	-44.1	-45.1	18.0	0.00e+00	0	34	0	2375024640	54	4010
2026-01-01 11:39:44.72	331.74	83.24	-44.1	-45.1	17.9	0.00e+00	0	34	0	2381316096	54	4026
2026-01-01 11:39:45.73	331.85	82.73	-43.9	-44.8	18.0	0.00e+00	0	34	0	2386558976	54	3895
2026-01-01 11:39:46.74	331.95	82.22	-43.5	-44.4	18.0	0.00e+00	0	34	0	2392850432	53	3932
2026-01-01 11:39:47.75	332.03	81.71	-43.8	-44.8	18.0	0.00e+00	0	34	0	2398093312	53	4116
2026-01-01 11:39:48.76	332.10	81.20	-44.1	-45.1	17.9	0.00e+00	0	34	0	2403336192	53	4249
2026-01-01 11:39:49.77	332.17	80.69	-44.1	-45.0	17.9	0.00e+00	0	34	0	2409627648	53	4235
2026-01-01 11:39:50.78	332.23	80.18	-44.2	-45.2	17.9	0.00e+00	0	34	0	2414870528	53	4294
2026-01-01 11:39:51.78	332.28	79.68	-44.1	-45.1	17.9	0.00e+00	0	34	0	2421161984	53	4260
2026-01-01 11:39:52.79	332.33	79.17	-44.2	-45.1	17.9	0.00e+00	0	34	0	2426404864	53	4263
2026-01-01 11:39:53.81	332.38	78.66	-44.4	-45.3	17.9	0.00e+00	0	34	0	2431647744	53	4372
2026-01-01 11:39:54.81	332.42	78.17	-44.5	-45.5	17.9	0.00e+00	0	34	0	2437939200	54	4199
2026-01-01 11:39:55.82	332.46	77.67	-44.5	-45.4	17.9	0.00e+00	0	34	0	2443182080	54	4176
2026-01-01 11:39:56.83	332.50	77.17	-44.6	-45.6	17.9	0.00e+00	0	34	0	2449473536	54	4244
2026-01-01 11:39:57.84	332.53	76.67	-44.9	-45.8	17.8	0.00e+00	0	34	0	2454716416	54	4384
2026-01-01 11:39:58.85	332.56	76.17	-45.2	-46.2	17.8	0.00e+00	0	34	0	2461007872	55	4303
2026-01-01 11:39:59.86	332.59	75.68	-45.0	-45.9	17.8	0.00e+00	0	34	0	2466250752	55	4178
2026-01-01 11:40:00.87	332.62	75.19	-45.0	-46.0	17.8	0.00e+00	0	34	0	2472542208	55	4209
2026-01-01 11:40:01.88	332.64	74.70	-45.2	-46.2	17.8	0.00e+00	0	34	0	2477785088	55	4307
2026-01-01 11:40:02.89	332.67	74.21	-45.2	-46.2	17.8	0.00e+00	0	34	0	2483027968	55	4293
2026-01-01 11:40:03.90	332.69	73.72	-45.1	-46.1	17.8	0.00e+00	0	34	0	2489319424	55	4271
2026-01-01 11:40:04.91	332.71	73.24	-45.1	-46.0	17.8	0.00e+00	0	34	0	2494562304	55	4237
2026-01-01 11:40:05.91	332.74	72.76	-45.1	-46.0	17.8	0.00e+00	0	34	0	2500853760	55	4239
2026-01-01 11:40:06.92	332.76	72.28	-45.3	-46.3	17.8	0.00e+00	0	34	0	2506096640	55	4380
2026-01-01 11:40:07.93	332.77	71.80	-45.7	-46.7	17.8	0.00e+00	0	34	0	2511339520	56	4320
2026-01-01 11:40:08.94	332.79	71.33	-45.8	-46.8	17.8	0.00e+00	0	34	0	2517630976	56	4351
2026-01-01 11:40:09.94	332.81	70.86	-45.9	-46.9	17.8	0.00e+00	0	34	0	2522873856	57	4190
2026-01-01 11:40:10.95	332.83	70.38	-45.9	-46.9	17.8	0.00e+00	0	34	0	2528116736	57	4155
2026-01-01 11:40:11.96	332.84	69.91	-46.0	-47.0	17.7	0.00e+00	0	34	0	2534408192	57	4203
2026-01-01 11:40:12.97	332.86	69.45	-46.1	-47.0	17.7	0.00e+00	0	34	0	2539651072	57	4242
2026-01-01 11:40:13.98	332.87	68.98	-45.8	-46.8	17.8	0.00e+00	0	34	0	2545942528	57	4123
2026-01-01 11:40:14.98	332.89	68.52	-45.9	-46.9	17.8	0.00e+00	0	34	0	2551185408	57	4153
2026-01-01 11:40:15.99	332.90	68.06	-46.3	-47.3	17.7	0.00e+00	0	34	0	2557476864	57	4360
2026-01-01 11:40:17.00	332.92	67.61	-46.1	-47.1	17.7	0.00e+00	0	34	0	2562719744	57	4262
2026-01-01 11:40:18.01	332.93	67.15	-45.8	-46.7	17.7	0.00e+00	0	34	0	2567962624	57	4093
2026-01-01 11:40:19.01	332.94	66.70	-46.1	-47.1	17.7	0.00e+00	0	34	0	2574254080	57	4256
2026-01-01 11:40:20.02	332.96	66.25	-46.5	-47.6	17.7	0.00e+00	0	34	0	2579496960	58	4245
2026-01-01 11:40:21.03	332.97	65.80	-46.2	-47.2	17.8	0.00e+00	0	34	0	2585788416	58	4066
2026-01-01 11:40:22.04	332.98	65.36	-46.1	-47.0	17.8	0.00e+00	0	34	0	2591031296	58	4003
2026-01-01 11:40:23.04	332.99	64.92	-46.4	-47.4	17.7	0.00e+00	0	34	0	2596274176	58	4178
2026-01-01 11:40:24.05	333.00	64.48	-46.3	-47.3	17.7	0.00e+00	0	34	0	2602565632	58	4139
2026-01-01 11:40:25.07	333.01	64.04	-46.1	-47.1	17.8	0.00e+00	0	34	0	2607808512	58	4041
2026-01-01 11:40:26.07	333.02	63.61	-46.2	-47.1	17.8	0.00e+00	0	34	0	2614099968	58	4043
2026-01-01 11:40:27.08	333.03	63.18	-46.2	-47.2	17.8	0.00e+00	0	34	0	2619342848	58	4058
2026-01-01 11:40:28.09	333.04	62.75	-46.2	-47.2	17.8	0.00e+00	0	34	0	2624585728	58	4095
2026-01-01 11:40:29.10	333.05	62.32	-46.4	-47.4	17.7	0.00e+00	0	34	0	2630877184	58	4156
2026-01-01 11:40:30.11	333.06	61.89	-46.4	-47.5	17.7	0.00e+00	0	34	0	2636120064	58	4194
2026-01-01 11:40:31.11	333.07	61.48	-46.5	-47.5	17.7	0.00e+00	0	34	0	2642411520	58	4239
2026-01-01 11:40:32.12	333.08	61.06	-46.5	-47.5	17.7	0.00e+00	0	34	0	2647654400	58	4240
2026-01-01 11:40:33.12	333.09	60.64	-46.7	-47.7	17.7	0.00e+00	0	34	0	2653945856	58	4306
2026-01-01 11:40:34.13	333.10	60.23	-46.8	-47.9	17.6	0.00e+00	0	34	0	2659188736	58	4411
2026-01-01 11:40:35.14	333.11	59.82	-47.0	-48.0	17.6	0.00e+00	0	34	0	2664431616	59	4231
2026-01-01 11:40:36.15	333.12	59.41	-46.9	-47.9	17.6	0.00e+00	0	34	0	2670723072	59	4168
2026-01-01 11:40:37.15	333.13	59.01	-46.9	-47.9	17.6	0.00e+00	0	34	0	2675965952	59	4172
2026-01-01 11:40:38.16	333.14	58.61	-46.7	-47.7	17.7	0.00e+00	0	34	0	2682257408	59	4074
2026-01-01 11:40:39.17	333.14	58.21	-46.9	-48.0	17.6	0.00e+00	0	34	0	2687500288	59	4196
2026-01-01 11:40:40.18	333.15	57.81	-47.3	-48.3	17.5	0.00e+00	0	34	0	2692743168	59	4378
2026-01-01 11:40:41.18	333.16	57.42	-47.2	-48.2	17.6	0.00e+00	0	34	0	2699034624	60	4091
2026-01-01 11:40:42.18	333.17	57.03	-47.3	-48.3	17.6	0.00e+00	0	34	0	2704277504	60	4128
2026-01-01 11:40:43.20	333.18	56.63	-47.2	-48.2	17.6	0.00e+00	0	34	0	2709520384	60	4054
2026-01-01 11:40:44.21	333.18	56.25	-47.1	-48.1	17.6	0.00e+00	0	34	0	2715811840	60	4035
2026-01-01 11:40:45.22	333.19	55.86	-47.3	-48.3	17.6	0.00e+00	0	34	0	2721054720	60	4121
2026-01-01 11:40:46.23	333.20	55.48	-47.5	-48.6	17.6	0.00e+00	0	34	0	2727346176	60	4251
2026-01-01 11:40:47.23	333.21	55.11	-47.6	-48.6	17.5	0.00e+00	0	34	0	2732589056	60	4290
2026-01-01 11:40:48.24	333.21	54.73	-47.6	-48.6	17.5	0.00e+00	0	34	0	2738880512	60	4272
2026-01-01 11:40:49.25	333.22	54.36	-47.7	-48.7	17.5	0.00e+00	0	34	0	2744123392	60	4335
2026-01-01 11:40:50.26	333.23	53.99	-47.7	-48.7	17.5	0.00e+00	0	34	0	2750414848	60	4337
2026-01-01 11:40:51.27	333.24	53.62	-47.7	-48.7	17.5	0.00e+00	0	34	0	2755657728	60	4321
2026-01-01 11:40:52.28	333.24	53.25	-47.6	-48.6	17.5	0.00e+00	0	34	0	2760900608	60	4280
2026-01-01 11:40:53.28	333.25	52.89	-47.4	-48.5	17.5	0.00e+00	0	34	0	2767192064	60	4198
2026-01-01 11:40:54.29	333.26	52.53	-47.5	-48.5	17.5	0.00e+00	0	34	0	2772434944	60	4225
2026-01-01 11:40:55.30	333.26	52.18	-47.1	-48.1	17.6	0.00e+00	0	34	0	2777677824	60	4050
2026-01-01 11:40:56.31	333.27	51.82	-47.0	-47.9	17.6	0.00e+00	0	34	0	2783969280	60	3950
2026-01-01 11:40:57.31	333.28	51.47	-47.1	-48.1	17.6	0.00e+00	0	34	0	2789212160	59	4258
2026-01-01 11:40:58.32	333.28	51.12	-47.2	-48.2	17.5	0.00e+00	0	34	0	2795503616	59	4328
2026-01-01 11:40:59.33	333.29	50.78	-47.3	-48.3	17.5	0.00e+00	0	34	0	2800746496	59	4388
2026-01-01 11:41:00.33	333.30	50.43	-47.0	-48.0	17.6	0.00e+00	0	34	0	2805989376	59	4242
2026-01-01 11:41:01.33	333.30	50.10	-46.9	-47.9	17.6	0.00e+00	0	34	0	2812280832	59	4154
2026-01-01 11:41:02.33	333.31	49.76	-46.9	-47.9	17.6	0.00e+00	0	34	0	2817523712	59	4172
2026-01-01 11:41:03.34	333.32	49.42	-46.8	-47.8	17.7	0.00e+00	0	34	0	2823815168	59	4121
2026-01-01 11:41:04.35	333.32	49.09	-46.8	-47.9	17.7	0.00e+00	0	34	0	2829058048	59	4147
2026-01-01 11:41:05.36	333.33	48.76	-47.0	-48.1	17.6	0.00e+00	0	34	0	2834300928	59	4265
2026-01-01 11:41:06.37	333.34	48.43	-47.1	-48.1	17.6	0.00e+00	0	34	0	2840592384	59	4269
2026-01-01 11:41:07.37	333.34	48.10	-47.1	-48.1	17.6	0.00e+00	0	34	0	2845835264	59	4272
2026-01-01 11:41:08.37	333.35	47.78	-47.1	-48.2	17.6	0.00e+00	0	34	0	2852126720	59	4293
2026-01-01 11:41:09.38	333.35	47.46	-46.8	-47.8	17.7	0.00e+00	0	34	0	2857369600	59	4118
2026-01-01 11:41:10.39	333.36	47.14	-46.6	-47.6	17.7	0.00e+00	0	34	0	2862612480	59	4037
2026-01-01 11:41:11.40	333.37	46.82	-46.4	-47.4	17.8	0.00e+00	0	34	0	2868903936	59	3924
2026-01-01 11:41:12.41	333.37	46.51	-46.4	-47.4	17.8	0.00e+00	0	34	0	2874146816	59	3946
2026-01-01 11:41:13.42	333.38	46.19	-46.4	-47.4	17.8	0.00e+00	0	34	0	2880438272	59	3956
2026-01-01 11:41:14.43	333.38	45.88	-46.4	-47.4	17.8	0.00e+00	0	34	0	2885681152	59	3948
2026-01-01 11:41:15.44	333.39	45.58	-46.5	-47.6	17.7	0.00e+00	0	34	0	2890924032	59	4008
2026-01-01 11:41:16.45	333.40	45.27	-46.6	-47.7	17.7	0.00e+00	0	34	0	2897215488	59	4066
2026-01-01 11:41:17.46	333.40	44.97	-46.7	-47.7	17.7	0.00e+00	0	34	0	2902458368	59	4096
2026-01-01 11:41:18.46	333.41	44.67	-46.7	-47.7	17.7	0.00e+00	0	34	0	2908749824	59	4075
2026-01-01 11:41:19.47	333.41	44.37	-46.6	-47.7	17.7	0.00e+00	0	34	0	2913992704	59	4062
2026-01-01 11:41:20.48	333.42	44.08	-46.5	-47.6	17.7	0.00e+00	0	34	0	2920284160	59	4007
2026-01-01 11:41:21.49	333.42	43.78	-46.5	-47.5	17.8	0.00e+00	0	34	0	2925527040	59	3983
2026-01-01 11:41:22.50	333.43	43.49	-46.6	-47.6	17.7	0.00e+00	0	34	0	2930769920	59	4048
2026-01-01 11:41:23.50	333.44	43.20	-46.7	-47.7	17.7	0.00e+00	0	34	0	2937061376	59	4065
2026-01-01 11:41:24.51	333.44	42.91	-46.8	-47.8	17.7	0.00e+00	0	34	0	2942304256	59	4130
2026-01-01 11:41:25.52	333.45	42.63	-46.8	-47.8	17.7	0.00e+00	0	34	0	2948595712	59	4123
2026-01-01 11:41:26.53	333.45	42.35	-46.7	-47.7	17.7	0.00e+00	0	34	0	2953838592	59	4083
2026-01-01 11:41:27.53	333.46	42.07	-46.7	-47.7	17.7	0.00e+00	0	34	0	2959081472	59	4065
2026-01-01 11:41:28.54	333.46	41.79	-46.6	-47.6	17.7	0.00e+00	0	34	0	2965372928	59	4025
2026-01-01 11:41:29.55	333.47	41.51	-46.6	-47.6	17.7	0.00e+00	0	34	0	2970615808	59	4035
2026-01-01 11:41:30.56	333.47	41.24	-46.6	-47.6	17.7	0.00e+00	0	34	0	2975858688	59	4020
2026-01-01 11:41:31.56	333.48	40.97	-46.5	-47.5	17.7	0.00e+00	0	34	0	2982150144	59	3983
2026-01-01 11:41:32.57	333.48	40.70	-46.3	-47.3	17.8	0.00e+00	0	34	0	2987393024	59	3913
2026-01-01 11:41:33.58	333.49	40.43	-46.1	-47.1	17.7	0.00e+00	0	34	0	2993684480	58	4046
2026-01-01 11:41:34.59	333.50	40.16	-46.1	-47.0	17.8	0.00e+00	0	34	0	2998927360	58	4003
2026-01-01 11:41:35.60	333.50	39.90	-46.1	-47.1	17.8	0.00e+00	0	34	0	3005218816	58	4020
2026-01-01 11:41:36.61	333.51	39.64	-46.2	-47.2	17.7	0.00e+00	0	34	0	3010461696	58	4096
2026-01-01 11:41:37.61	333.51	39.38	-46.3	-47.3	17.7	0.00e+00	0	34	0	3015704576	58	4120
2026-01-01 11:41:38.61	333.52	39.12	-46.3	-47.3	17.7	0.00e+00	0	34	0	3021996032	58	4118
2026-01-01 11:41:39.62	333.52	38.86	-46.2	-47.2	17.7	0.00e+00	0	34	0	3027238912	58	4089
2026-01-01 11:41:40.64	333.53	38.61	-46.1	-47.1	17.8	0.00e+00	0	34	0	3033530368	58	4026
2026-01-01 11:41:41.64	333.53	38.36	-46.0	-47.0	17.8	0.00e+00	0	34	0	3038773248	58	3977
2026-01-01 11:41:42.65	333.54	38.11	-46.0	-47.0	17.8	0.00e+00	0	33	0	3044016128	58	3979
2026-01-01 11:41:43.66	333.54	37.86	-46.1	-47.1	17.8	0.00e+00	0	34	0	3050307584	58	4010
2026-01-01 11:41:44.67	333.55	37.61	-45.9	-46.9	17.8	0.00e+00	0	34	0	3055550464	58	3927
2026-01-01 11:41:45.67	333.55	37.37	-46.0	-46.9	17.8	0.00e+00	0	34	0	3061841920	58	3946
2026-01-01 11:41:46.68	333.56	37.12	-46.1	-47.0	17.8	0.00e+00	0	34	0	3067084800	58	4004
2026-01-01 11:41:47.69	333.56	36.88	-46.2	-47.2	17.7	0.00e+00	0	34	0	3072327680	58	4089
2026-01-01 11:41:48.70	333.57	36.64	-46.4	-47.5	17.7	0.00e+00	0	34	0	3078619136	58	4209
2026-01-01 11:41:49.70	333.57	36.40	-46.5	-47.5	17.7	0.00e+00	0	34	0	3083862016	58	4219
2026-01-01 11:41:50.70	333.58	36.17	-46.4	-47.5	17.7	0.00e+00	0	34	0	3090153472	58	4205
2026-01-01 11:41:51.71	333.58	35.94	-46.4	-47.5	17.7	0.00e+00	0	34	0	3095396352	58	4216
2026-01-01 11:41:52.72	333.59	35.70	-46.2	-47.3	17.7	0.00e+00	0	34	0	3101687808	58	4106
2026-01-01 11:41:53.72	333.59	35.47	-46.0	-47.0	17.8	0.00e+00	0	34	0	3106930688	58	4000
2026-01-01 11:41:54.72	333.60	35.25	-46.0	-47.0	17.8	0.00e+00	0	34	0	3112173568	58	3975
2026-01-01 11:41:55.73	333.60	35.02	-46.0	-47.0	17.8	0.00e+00	0	34	0	3118465024	58	3992
2026-01-01 11:41:56.74	333.61	34.79	-45.9	-46.9	17.8	0.00e+00	0	34	0	3123707904	58	3940
2026-01-01 11:41:57.75	333.61	34.57	-46.0	-46.9	17.8	0.00e+00	0	34	0	3128950784	58	3953
2026-01-01 11:41:58.76	333.62	34.34	-46.1	-47.1	17.8	0.00e+00	0	34	0	3135242240	58	4016
2026-01-01 11:41:59.77	333.62	34.12	-46.2	-47.2	17.7	0.00e+00	0	34	0	3140485120	58	4069
2026-01-01 11:42:00.78	333.63	33.90	-46.3	-47.3	17.7	0.00e+00	0	34	0	3146776576	58	4105
2026-01-01 11:42:01.79	333.63	33.68	-46.4	-47.4	17.7	0.00e+00	0	34	0	3152019456	58	4175
2026-01-01 11:42:02.79	333.64	33.47	-46.5	-47.5	17.6	0.00e+00	0	34	0	3157262336	58	4235
2026-01-01 11:42:03.80	333.64	33.25	-46.6	-47.6	17.6	0.00e+00	0	34	0	3163553792	58	4286
2026-01-01 11:42:04.81	333.65	33.04	-46.7	-47.7	17.6	0.00e+00	0	34	0	3168796672	58	4326
2026-01-01 11:42:05.82	333.65	32.83	-46.8	-47.8	17.6	0.00e+00	0	34	0	3175088128	58	4377
2026-01-01 11:42:06.83	333.66	32.61	-46.8	-47.8	17.6	0.00e+00	0	34	0	3180331008	58	4377
2026-01-01 11:42:07.84	333.66	32.40	-46.7	-47.8	17.6	0.00e+00	0	34	0	3186622464	58	4355
2026-01-01 11:42:08.84	333.67	32.20	-46.8	-47.8	17.6	0.00e+00	0	34	0	3191865344	58	4376
2026-01-01 11:42:09.84	333.67	31.99	-46.8	-47.8	17.6	0.00e+00	0	34	0	3197108224	58	4373
2026-01-01 11:42:10.85	333.68	31.79	-46.7	-47.7	17.6	0.00e+00	0	34	0	3203399680	58	4334
2026-01-01 11:42:11.86	333.68	31.59	-46.7	-47.7	17.6	0.00e+00	0	34	0	3208642560	58	4314
2026-01-01 11:42:12.86	333.69	31.38	-46.5	-47.6	17.6	0.00e+00	0	34	0	3214934016	58	4244
2026-01-01 11:42:13.87	333.69	31.18	-46.5	-47.5	17.6	0.00e+00	0	34	0	3220176896	58	4233
2026-01-01 11:42:14.88	333.70	30.98	-46.5	-47.5	17.6	0.00e+00	0	34	0	3225419776	58	4236
2026-01-01 11:42:15.89	333.70	30.79	-46.4	-47.4	17.7	0.00e+00	0	34	0	3231711232	58	4191
2026-01-01 11:42:16.90	333.71	30.59	-46.4	-47.4	17.7	0.00e+00	0	34	0	3236954112	58	4150
2026-01-01 11:42:17.91	333.71	30.39	-46.5	-47.4	17.7	0.00e+00	0	34	0	3243245568	58	4193
2026-01-01 11:42:18.92	333.72	30.20	-46.4	-47.4	17.7	0.00e+00	0	34	0	3248488448	58	4163
2026-01-01 11:42:19.93	333.72	30.01	-46.5	-47.4	17.7	0.00e+00	0	34	0	3253731328	58	4189
2026-01-01 11:42:20.94	333.73	29.81	-46.6	-47.6	17.6	0.00e+00	0	34	0	3260022784	58	4250
2026-01-01 11:42:21.95	333.73	29.62	-46.5	-47.5	17.7	0.00e+00	0	34	0	3265265664	58	4208
2026-01-01 11:42:22.95	333.73	29.44	-46.6	-47.6	17.7	0.00e+00	0	34	0	3271557120	58	4244
2026-01-01 11:42:23.96	333.74	29.25	-46.6	-47.6	17.7	0.00e+00	0	34	0	3276800000	58	4284
2026-01-01 11:42:24.97	333.74	29.06	-46.6	-47.6	17.6	0.00e+00	0	34	0	3283091456	58	4277
2026-01-01 11:42:25.97	333.75	28.88	-46.6	-47.6	17.6	0.00e+00	0	34	0	3288334336	58	4285
2026-01-01 11:42:26.98	333.75	28.69	-46.6	-47.6	17.6	0.00e+00	0	34	0	3293577216	58	4289
2026-01-01 11:42:27.98	333.76	28.51	-46.6	-47.6	17.6	0.00e+00	0	34	0	3299868672	58	4279
2026-01-01 11:42:28.98	333.76	28.33	-46.6	-47.6	17.6	0.00e+00	0	34	0	3305111552	58	4282
2026-01-01 11:42:29.99	333.77	28.15	-46.6	-47.6	17.6	0.00e+00	0	34	0	3310354432	58	4271
2026-01-01 11:42:31.00	333.77	27.97	-46.6	-47.6	17.6	0.00e+00	0	34	0	3316645888	58	4274
2026-01-01 11:42:32.01	333.78	27.80	-46.6	-47.7	17.6	0.00e+00	0	34	0	3321888768	58	4301
2026-01-01 11:42:33.02	333.78	27.62	-46.6	-47.6	17.6	0.00e+00	0	34	0	3328180224	58	4273
2026-01-01 11:42:34.03	333.79	27.44	-46.6	-47.6	17.7	0.00e+00	0	34	0	3333423104	58	4265
2026-01-01 11:42:35.03	333.79	27.27	-46.6	-47.7	17.6	0.00e+00	0	34	0	3338665984	58	4301
2026-01-01 11:42:36.04	333.80	27.10	-46.6	-47.6	17.7	0.00e+00	0	34	0	3344957440	58	4249
2026-01-01 11:42:37.05	333.80	26.92	-46.6	-47.6	17.6	0.00e+00	0	34	0	3350200320	58	4274
2026-01-01 11:42:38.06	333.81	26.75	-46.6	-47.6	17.6	0.00e+00	0	34	0	3356491776	58	4268
2026-01-01 11:42:39.06	333.81	26.58	-46.6	-47.6	17.6	0.00e+00	0	34	0	3361734656	58	4284
2026-01-01 11:42:40.07	333.81	26.41	-46.6	-47.6	17.6	0.00e+00	0	34	0	3368026112	58	4290
2026-01-01 11:42:41.08	333.82	26.24	-46.6	-47.7	17.6	0.00e+00	0	34	0	3373268992	58	4303
2026-01-01 11:42:42.09	333.82	26.08	-46.7	-47.8	17.6	0.00e+00	0	34	0	3378511872	58	4346
2026-01-01 11:42:43.09	333.83	25.91	-46.7	-47.8	17.6	0.00e+00	0	34	0	3384803328	58	4359
2026-01-01 11:42:44.11	333.83	25.75	-46.8	-47.8	17.6	0.00e+00	0	34	0	3390046208	58	4378
2026-01-01 11:42:45.12	333.84	25.58	-46.8	-47.8	17.5	0.00e+00	0	34	0	3396337664	58	4390
2026-01-01 11:42:46.13	333.84	25.42	-46.9	-47.9	17.5	0.00e+00	0	34	0	3401580544	58	4419
2026-01-01 11:42:47.14	333.85	25.26	-46.9	-47.9	17.5	0.00e+00	0	34	0	3406823424	58	4434
2026-01-01 11:42:48.15	333.85	25.10	-46.9	-47.9	17.5	0.00e+00	0	34	0	3413114880	58	4430
2026-01-01 11:42:49.16	333.86	24.93	-47.0	-48.0	17.6	0.00e+00	0	34	0	3418357760	59	4217
2026-01-01 11:42:50.16	333.86	24.78	-47.0	-48.0	17.6	0.00e+00	0	34	0	3424649216	59	4222
2026-01-01 11:42:51.17	333.87	24.62	-47.0	-48.0	17.6	0.00e+00	0	34	0	3429892096	59	4229
2026-01-01 11:42:52.18	333.87	24.46	-47.0	-48.0	17.6	0.00e+00	0	34	0	3435134976	59	4226
2026-01-01 11:42:53.19	333.87	24.31	-47.0	-48.0	17.6	0.00e+00	0	34	0	3441426432	59	4239
2026-01-01 11:42:54.19	333.88	24.15	-47.0	-48.1	17.6	0.00e+00	0	34	0	3446669312	59	4243
2026-01-01 11:42:55.20	333.88	24.00	-47.0	-48.0	17.5	0.00e+00	0	34	0	3452960768	59	4241
2026-01-01 11:42:56.21	333.89	23.84	-47.0	-48.1	17.6	0.00e+00	0	34	0	3458203648	59	4245
2026-01-01 11:42:57.22	333.89	23.69	-47.1	-48.2	17.5	0.00e+00	0	34	0	3464495104	59	4296
2026-01-01 11:42:58.22	333.90	23.54	-47.2	-48.2	17.5	0.00e+00	0	34	0	3469737984	59	4326
2026-01-01 11:42:59.23	333.90	23.39	-47.1	-48.2	17.5	0.00e+00	0	34	0	3474980864	59	4303
2026-01-01 11:43:00.24	333.91	23.24	-47.2	-48.2	17.5	0.00e+00	0	34	0	3481272320	59	4329
2026-01-01 11:43:01.25	333.91	23.09	-47.2	-48.2	17.5	0.00e+00	0	34	0	3486515200	59	4331
2026-01-01 11:43:02.26	333.92	22.94	-47.3	-48.4	17.5	0.00e+00	0	34	0	3491758080	59	4410
2026-01-01 11:43:03.26	333.92	22.80	-47.3	-48.3	17.5	0.00e+00	0	34	0	3498049536	59	4373
2026-01-01 11:43:04.27	333.93	22.65	-47.3	-48.4	17.5	0.00e+00	0	34	0	3503292416	59	4394
2026-01-01 11:43:05.28	333.93	22.50	-47.4	-48.4	17.5	0.00e+00	0	34	0	3509583872	59	4441
2026-01-01 11:43:06.29	333.93	22.36	-47.1	-48.1	17.6	0.00e+00	0	34	0	3514826752	60	4025
2026-01-01 11:43:07.30	333.94	22.21	-47.1	-48.1	17.6	0.00e+00	0	34	0	3520069632	60	4033
2026-01-01 11:43:08.31	333.94	22.07	-47.1	-48.2	17.5	0.00e+00	0	34	0	3526361088	60	4055
2026-01-01 11:43:09.32	333.95	21.93	-47.1	-48.1	17.6	0.00e+00	0	34	0	3531603968	60	4035
2026-01-01 11:43:10.33	333.95	21.79	-47.1	-48.2	17.5	0.00e+00	0	34	0	3537895424	60	4064
2026-01-01 11:43:11.34	333.96	21.64	-47.1	-48.2	17.5	0.00e+00	0	34	0	3543138304	60	4072
2026-01-01 11:43:12.35	333.96	21.50	-47.2	-48.3	17.5	0.00e+00	0	34	0	3549429760	60	4116
2026-01-01 11:43:13.35	333.97	21.37	-47.3	-48.4	17.5	0.00e+00	0	34	0	3554672640	60	4148
2026-01-01 11:43:14.36	333.97	21.23	-47.3	-48.3	17.5	0.00e+00	0	34	0	3560964096	60	4133
2026-01-01 11:43:15.37	333.98	21.09	-47.2	-48.3	17.5	0.00e+00	0	34	0	3566206976	60	4120
2026-01-01 11:43:16.38	333.98	20.95	-47.3	-48.3	17.5	0.00e+00	0	34	0	3571449856	60	4144
2026-01-01 11:43:17.39	333.98	20.82	-47.2	-48.3	17.5	0.00e+00	0	34	0	3577741312	60	4111
2026-01-01 11:43:18.40	333.99	20.68	-47.3	-48.4	17.5	0.00e+00	0	34	0	3582984192	60	4153
2026-01-01 11:43:19.40	333.99	20.55	-47.4	-48.4	17.5	0.00e+00	0	34	0	3588227072	60	4182
2026-01-01 11:43:20.41	334.00	20.41	-47.3	-48.4	17.5	0.00e+00	0	34	0	3594518528	60	4174
2026-01-01 11:43:21.42	334.00	20.28	-47.3	-48.4	17.5	0.00e+00	0	34	0	3599761408	60	4167
2026-01-01 11:43:22.43	334.01	20.15	-47.3	-48.4	17.5	0.00e+00	0	34	0	3606052864	60	4149
2026-01-01 11:43:23.44	334.01	20.01	-47.4	-48.5	17.4	0.00e+00	0	34	0	3611295744	60	4194
2026-01-01 11:43:24.45	334.02	19.88	-47.5	-48.6	17.4	0.00e+00	0	34	0	3616538624	60	4246
2026-01-01 11:43:25.45	334.02	19.75	-47.5	-48.5	17.4	0.00e+00	0	34	0	3622830080	60	4222
2026-01-01 11:43:26.46	334.03	19.62	-47.5	-48.5	17.4	0.00e+00	0	34	0	3628072960	60	4227
2026-01-01 11:43:27.47	334.03	19.49	-47.5	-48.6	17.4	0.00e+00	0	34	0	3634364416	60	4249
2026-01-01 11:43:28.47	334.03	19.37	-47.5	-48.6	17.4	0.00e+00	0	34	0	3639607296	60	4245
2026-01-01 11:43:29.48	334.04	19.24	-47.5	-48.5	17.4	0.00e+00	0	34	0	3645898752	60	4231
2026-01-01 11:43:30.49	334.04	19.11	-47.6	-48.6	17.4	0.00e+00	0	34	0	3651141632	60	4281
2026-01-01 11:43:31.50	334.05	18.98	-47.6	-48.7	17.4	0.00e+00	0	34	0	3656384512	60	4312
2026-01-01 11:43:32.50	334.05	18.86	-47.7	-48.7	17.4	0.00e+00	0	34	0	3662675968	60	4340
2026-01-01 11:43:33.51	334.06	18.73	-47.8	-48.8	17.3	0.00e+00	0	34	0	3667918848	60	4387
2026-01-01 11:43:34.52	334.06	18.61	-47.6	-48.7	17.3	0.00e+00	0	34	0	3674210304	60	4314
2026-01-01 11:43:35.53	334.07	18.49	-47.6	-48.7	17.3	0.00e+00	0	34	0	3679453184	60	4319
2026-01-01 11:43:36.54	334.07	18.36	-47.7	-48.8	17.3	0.00e+00	0	34	0	3684696064	60	4349
2026-01-01 11:43:37.55	334.07	18.24	-47.8	-48.8	17.3	0.00e+00	0	34	0	3690987520	60	4380
2026-01-01 11:43:38.55	334.08	18.12	-47.7	-48.8	17.3	0.00e+00	0	34	0	3696230400	60	4352
2026-01-01 11:43:39.56	334.08	18.00	-47.9	-48.9	17.3	0.00e+00	0	34	0	3702521856	60	4438
2026-01-01 11:43:40.57	334.09	17.88	-47.8	-48.9	17.3	0.00e+00	0	34	0	3707764736	60	4420
2026-01-01 11:43:41.58	334.09	17.75	-47.8	-48.9	17.3	0.00e+00	0	34	0	3713007616	60	4417
2026-01-01 11:43:42.59	334.10	17.63	-47.9	-48.9	17.3	0.00e+00	0	34	0	3719299072	60	4441
2026-01-01 11:43:43.60	334.10	17.52	-48.0	-49.1	17.3	0.00e+00	0	34	0	3724541952	61	4251
2026-01-01 11:43:44.61	334.11	17.40	-48.0	-49.1	17.3	0.00e+00	0	34	0	3730833408	61	4261
2026-01-01 11:43:45.62	334.11	17.28	-48.0	-49.1	17.3	0.00e+00	0	34	0	3736076288	61	4282
