passes_logs/2026/01/01/R3.2S_Murmansk/R3.2S_Murmansk__20260101_013427_AQUA_rec.log

#Pass ID: 20260101_013427_AQUA
#Satellite: AQUA
#Configuration: AQUA
#almurnet v.1.7.20251203
#Start time: 2026-01-01 01:34:30

#Version: 2.2.20231116
#Station: R3.2S_Murmansk
#Location: 33.079688 lon 68.888172 lat
#TLE: 1 27424U 02022A   25364.96158943  .00001951  00000+0  40088-3 0  9998
#TLE: 2 27424  98.4061 326.1389 0001917  95.3187 305.7939 14.61780362258696

#Time	Az	El	Level	Level2	SNR	BER	BlckErr	Temp	State	Recorded	gain1	gain2
2026-01-01 01:34:30.08	22.09	2.15	-59.6	-78.8	3.8	7.44e-01	0	33	0	0	88	32034
2026-01-01 01:34:31.07	22.12	2.22	-59.6	-78.6	3.8	7.45e-01	0	34	104	0	87	33305
2026-01-01 01:34:32.07	22.15	2.28	-59.6	-78.7	3.8	7.46e-01	0	34	104	0	87	33343
2026-01-01 01:34:33.06	22.18	2.35	-59.6	-78.6	3.8	7.45e-01	0	34	104	0	87	33170
2026-01-01 01:34:34.06	22.21	2.41	-59.6	-78.5	3.8	7.46e-01	0	34	104	0	87	32927
2026-01-01 01:34:35.05	22.23	2.48	-59.6	-78.5	3.8	7.46e-01	0	33	104	0	87	32699
2026-01-01 01:34:36.05	22.26	2.54	-59.6	-78.5	3.8	7.47e-01	0	34	104	0	87	32681
2026-01-01 01:34:37.04	22.29	2.61	-59.6	-78.4	3.8	7.44e-01	0	34	104	0	87	32321
2026-01-01 01:34:38.03	22.32	2.68	-59.6	-78.3	3.8	7.43e-01	0	34	104	0	87	32093
2026-01-01 01:34:39.03	22.35	2.74	-59.6	-78.3	3.8	7.44e-01	0	34	104	0	87	32154
2026-01-01 01:34:40.02	22.38	2.81	-59.6	-78.4	3.8	7.47e-01	0	34	104	0	87	32242
2026-01-01 01:34:41.02	22.41	2.88	-59.5	-78.4	3.8	7.47e-01	0	34	104	0	87	32203
2026-01-01 01:34:42.03	22.44	2.94	-59.5	-78.3	3.8	7.48e-01	0	34	104	0	87	31994
2026-01-01 01:34:43.02	22.47	3.01	-59.6	-78.3	3.8	7.45e-01	0	34	104	0	87	32025
2026-01-01 01:34:44.02	22.50	3.08	-59.5	-78.2	3.8	7.47e-01	0	34	104	0	87	31705
2026-01-01 01:34:45.01	22.53	3.14	-59.5	-78.1	3.8	7.45e-01	0	34	104	0	87	31197
2026-01-01 01:34:46.01	22.56	3.21	-59.5	-77.8	3.8	7.48e-01	0	34	104	0	87	30083
2026-01-01 01:34:47.00	22.59	3.28	-59.4	-77.6	3.8	7.44e-01	0	34	104	0	87	29559
2026-01-01 01:34:47.99	22.62	3.35	-59.4	-77.3	3.8	7.48e-01	0	34	104	0	87	28416
2026-01-01 01:34:48.99	22.65	3.42	-59.3	-76.9	3.8	7.45e-01	0	34	104	0	87	27244
2026-01-01 01:34:49.99	22.68	3.48	-59.3	-76.8	3.8	7.45e-01	0	34	104	0	87	27002
2026-01-01 01:34:50.99	22.71	3.55	-59.2	-76.6	3.8	7.45e-01	0	34	104	0	87	26236
2026-01-01 01:34:51.99	22.74	3.62	-59.2	-76.6	3.8	7.47e-01	0	34	104	0	87	26304
2026-01-01 01:34:52.99	22.77	3.69	-59.3	-76.7	3.8	7.47e-01	0	34	104	0	87	26540
2026-01-01 01:34:54.00	22.80	3.76	-59.3	-76.8	3.8	7.47e-01	0	34	104	0	87	26824
2026-01-01 01:34:55.00	22.84	3.83	-59.2	-76.5	3.8	7.48e-01	0	34	104	0	87	26057
2026-01-01 01:34:56.00	22.87	3.90	-59.2	-76.4	3.8	7.46e-01	0	34	104	0	87	25641
2026-01-01 01:34:57.00	22.90	3.97	-59.0	-75.9	3.8	7.43e-01	0	34	104	0	87	24208
2026-01-01 01:34:58.01	22.93	4.04	-58.9	-75.2	3.7	7.47e-01	0	34	104	0	86	23612
2026-01-01 01:34:59.01	22.96	4.11	-58.5	-74.1	3.8	7.46e-01	0	34	104	0	86	20782
2026-01-01 01:35:00.00	22.99	4.18	-58.2	-73.2	3.8	7.44e-01	0	34	104	0	85	19997
2026-01-01 01:35:01.01	23.03	4.25	-57.8	-72.2	3.8	7.46e-01	0	34	104	0	84	18777
2026-01-01 01:35:02.00	23.06	4.33	-57.2	-70.8	3.8	7.44e-01	0	34	104	0	83	16973
2026-01-01 01:35:03.00	23.09	4.40	-56.9	-70.1	3.8	7.47e-01	0	34	104	0	82	16559
2026-01-01 01:35:04.00	23.12	4.47	-56.4	-69.5	3.8	7.47e-01	0	34	104	0	82	15554
2026-01-01 01:35:05.00	23.16	4.54	-56.2	-69.2	3.8	7.46e-01	0	34	104	0	81	15864
2026-01-01 01:35:06.01	23.19	4.61	-55.9	-68.3	3.8	7.46e-01	0	35	104	0	80	15120
2026-01-01 01:35:07.01	23.22	4.68	-55.6	-68.2	3.8	7.42e-01	0	34	104	0	80	14929
2026-01-01 01:35:08.01	23.26	4.76	-55.7	-68.3	3.8	7.45e-01	0	34	104	0	80	15058
2026-01-01 01:35:09.00	23.29	4.83	-55.7	-68.3	3.8	7.46e-01	0	34	104	0	80	15184
2026-01-01 01:35:10.00	23.32	4.90	-55.9	-68.7	3.8	7.44e-01	0	35	104	0	80	15762
2026-01-01 01:35:10.99	23.36	4.97	-56.0	-68.8	3.8	7.45e-01	0	34	104	0	80	16123
2026-01-01 01:35:11.99	23.39	5.05	-56.4	-69.5	3.8	7.47e-01	0	34	104	0	80	17316
2026-01-01 01:35:13.00	23.42	5.12	-53.9	-65.8	3.8	7.46e-01	0	34	104	0	77	13482
2026-01-01 01:35:14.00	23.46	5.19	-56.1	-69.0	3.8	7.43e-01	0	34	104	0	79	17407
2026-01-01 01:35:15.00	23.49	5.27	-59.3	-76.5	3.8	7.47e-01	0	35	104	0	86	27696
2026-01-01 01:35:15.99	23.53	5.34	-54.6	-66.6	3.9	7.44e-01	0	34	104	0	78	14001
2026-01-01 01:35:16.99	23.56	5.41	-57.7	-72.9	3.8	7.46e-01	0	34	104	0	83	21574
2026-01-01 01:35:17.99	23.60	5.49	-54.6	-66.7	3.8	7.44e-01	0	35	104	0	78	14146
2026-01-01 01:35:19.00	23.63	5.56	-54.3	-66.3	3.8	7.46e-01	0	34	104	0	77	14314
2026-01-01 01:35:19.99	23.67	5.64	-54.0	-65.9	3.9	7.45e-01	0	35	104	0	77	13691
2026-01-01 01:35:20.99	23.70	5.71	-53.9	-65.8	3.8	7.44e-01	0	34	104	0	77	13439
2026-01-01 01:35:21.98	23.74	5.79	-56.7	-69.9	3.8	7.46e-01	0	35	104	0	81	17191
2026-01-01 01:35:22.99	23.77	5.87	-56.0	-68.8	3.8	7.47e-01	0	35	104	0	80	16014
2026-01-01 01:35:23.99	23.81	5.94	-57.8	-72.7	3.8	7.44e-01	0	35	104	0	83	21061
2026-01-01 01:35:24.97	23.85	6.02	-54.8	-67.0	3.8	7.45e-01	0	35	104	0	78	14652
2026-01-01 01:35:25.97	23.88	6.09	-59.5	-77.0	3.8	7.49e-01	0	35	104	0	86	29326
2026-01-01 01:35:26.97	23.92	6.17	-54.7	-66.9	3.8	7.48e-01	0	35	104	0	78	14402
2026-01-01 01:35:27.97	23.96	6.25	-54.6	-66.7	3.9	7.46e-01	0	35	104	0	78	14120
2026-01-01 01:35:28.95	23.99	6.32	-54.3	-66.3	3.8	7.43e-01	0	35	104	0	77	14330
2026-01-01 01:35:29.95	24.03	6.40	-54.1	-66.0	3.8	7.45e-01	0	35	104	0	77	13783
2026-01-01 01:35:30.95	24.07	6.48	-54.0	-65.8	3.8	7.47e-01	0	35	104	0	76	14348
2026-01-01 01:35:31.94	24.10	6.55	-55.7	-68.4	3.8	7.45e-01	0	35	104	0	79	16138
2026-01-01 01:35:32.94	24.14	6.63	-59.4	-76.5	3.8	7.49e-01	0	35	104	0	86	27410
2026-01-01 01:35:33.94	24.18	6.71	-54.4	-66.4	3.8	7.40e-01	0	35	104	0	78	13582
2026-01-01 01:35:34.94	24.22	6.79	-57.8	-72.4	3.9	7.46e-01	0	35	104	0	83	20416
2026-01-01 01:35:35.93	24.25	6.87	-54.1	-66.0	3.9	7.45e-01	0	35	104	0	77	13772
2026-01-01 01:35:36.93	24.29	6.95	-53.9	-65.7	3.8	7.46e-01	0	35	104	0	77	13331
2026-01-01 01:35:37.93	24.33	7.02	-53.6	-65.4	3.8	7.43e-01	0	35	104	0	76	13656
2026-01-01 01:35:38.93	24.37	7.10	-53.5	-65.3	3.8	7.43e-01	0	35	104	0	76	13490
2026-01-01 01:35:39.93	24.41	7.18	-55.5	-67.9	3.8	7.45e-01	0	35	104	0	78	16132
2026-01-01 01:35:40.92	24.45	7.26	-55.2	-67.6	3.8	7.44e-01	0	35	104	0	78	15646
2026-01-01 01:35:41.92	24.49	7.34	-59.3	-75.8	3.8	7.46e-01	0	35	104	0	86	25390
2026-01-01 01:35:42.91	24.53	7.42	-54.2	-66.0	3.8	7.47e-01	0	35	104	0	77	13872
2026-01-01 01:35:43.91	24.57	7.50	-57.6	-71.6	3.8	7.44e-01	0	35	104	0	82	19832
2026-01-01 01:35:44.90	24.61	7.59	-53.9	-65.6	3.9	7.45e-01	0	35	104	0	76	13956
2026-01-01 01:35:45.91	24.65	7.67	-53.7	-65.4	3.8	7.45e-01	0	35	104	0	76	13659
2026-01-01 01:35:46.90	24.69	7.75	-53.2	-64.9	3.8	7.45e-01	0	35	104	0	75	13606
2026-01-01 01:35:47.90	24.73	7.83	-53.0	-64.6	3.8	7.44e-01	0	35	104	0	75	13147
2026-01-01 01:35:48.90	24.77	7.91	-59.1	-74.8	3.8	7.45e-01	0	35	104	0	85	23889
2026-01-01 01:35:49.90	24.81	8.00	-55.8	-68.2	3.9	7.44e-01	0	35	104	0	80	14901
2026-01-01 01:35:50.90	24.85	8.08	-57.8	-71.8	3.8	7.46e-01	0	35	104	0	83	19119
2026-01-01 01:35:51.90	24.89	8.16	-54.2	-66.0	3.8	7.39e-01	0	35	104	0	77	13873
2026-01-01 01:35:52.90	24.93	8.25	-59.6	-77.0	3.7	7.50e-01	0	35	104	0	87	27583
2026-01-01 01:35:53.91	24.98	8.33	-53.6	-65.3	3.9	7.47e-01	0	35	104	0	76	13459
2026-01-01 01:35:54.91	25.02	8.41	-53.5	-65.1	3.9	7.45e-01	0	35	104	0	76	13246
2026-01-01 01:35:55.91	25.06	8.50	-53.5	-65.1	3.8	7.43e-01	0	35	104	0	76	13232
2026-01-01 01:35:56.90	25.10	8.58	-53.1	-64.8	3.8	7.47e-01	0	35	104	0	75	13424
2026-01-01 01:35:57.90	25.15	8.67	-55.3	-67.5	3.9	7.46e-01	0	35	104	0	78	15579
2026-01-01 01:35:58.90	25.19	8.75	-55.3	-67.5	3.8	7.43e-01	0	35	104	0	78	15527
2026-01-01 01:35:59.90	25.23	8.84	-57.8	-71.7	3.9	7.50e-01	0	35	104	0	83	18869
2026-01-01 01:36:00.90	25.28	8.93	-54.0	-65.9	3.8	7.45e-01	0	35	104	0	77	13686
2026-01-01 01:36:01.90	25.32	9.01	-59.7	-76.7	3.7	7.46e-01	0	35	104	0	87	26751
2026-01-01 01:36:02.90	25.36	9.10	-54.2	-66.0	3.8	7.43e-01	0	35	104	0	77	13885
2026-01-01 01:36:03.90	25.41	9.19	-53.8	-65.6	3.9	7.45e-01	0	35	104	0	76	13891
2026-01-01 01:36:04.90	25.45	9.27	-53.8	-65.5	3.9	7.46e-01	0	35	104	0	76	13884
2026-01-01 01:36:05.89	25.50	9.36	-53.6	-65.3	3.8	7.44e-01	0	35	104	0	76	13418
2026-01-01 01:36:06.88	25.54	9.45	-54.3	-66.2	3.9	7.46e-01	0	35	104	0	76	14986
2026-01-01 01:36:07.88	25.59	9.54	-55.3	-67.4	3.8	7.43e-01	0	35	104	0	78	15335
2026-01-01 01:36:08.87	25.63	9.62	-58.1	-71.7	3.8	7.47e-01	0	35	104	0	83	18926
2026-01-01 01:36:09.87	25.68	9.71	-54.0	-65.8	3.9	7.48e-01	0	35	104	0	77	13550
2026-01-01 01:36:10.87	25.73	9.80	-59.7	-76.8	3.7	7.47e-01	0	35	104	0	87	26970
2026-01-01 01:36:11.87	25.77	9.89	-53.4	-65.1	3.9	7.46e-01	0	35	104	0	76	13129
2026-01-01 01:36:12.88	25.82	9.98	-53.1	-64.7	3.8	7.45e-01	0	35	104	0	75	13300
2026-01-01 01:36:13.88	25.87	10.07	-52.9	-64.2	3.8	7.44e-01	0	35	104	0	74	13354
2026-01-01 01:36:14.88	25.92	10.16	-52.7	-64.1	3.8	7.47e-01	0	35	104	0	74	13199
2026-01-01 01:36:15.89	25.96	10.26	-55.9	-68.4	3.9	7.46e-01	0	35	104	0	79	16179
2026-01-01 01:36:16.89	26.01	10.35	-54.8	-66.7	3.8	7.46e-01	0	35	104	0	77	14988
2026-01-01 01:36:17.88	26.06	10.44	-57.6	-71.2	3.8	7.47e-01	0	35	104	0	82	18820
2026-01-01 01:36:18.89	26.11	10.53	-53.6	-65.2	3.8	7.45e-01	0	35	104	0	76	13403
2026-01-01 01:36:19.89	26.16	10.62	-59.8	-76.7	3.7	7.43e-01	0	35	104	0	87	26470
2026-01-01 01:36:20.89	26.21	10.72	-53.1	-64.6	3.8	7.44e-01	0	35	104	0	75	13222
2026-01-01 01:36:21.90	26.26	10.81	-53.2	-64.8	3.8	7.44e-01	0	35	104	0	75	13496
2026-01-01 01:36:22.90	26.31	10.90	-53.1	-64.7	3.8	7.43e-01	0	35	104	0	75	13265
2026-01-01 01:36:23.89	26.36	11.00	-52.9	-64.4	3.8	7.44e-01	0	35	104	0	74	13594
2026-01-01 01:36:24.88	26.41	11.09	-54.7	-66.6	3.8	7.42e-01	0	35	104	0	77	14740
2026-01-01 01:36:25.89	26.46	11.19	-54.6	-66.6	3.9	7.48e-01	0	35	104	0	76	15583
2026-01-01 01:36:26.89	26.51	11.28	-59.6	-75.9	3.8	7.48e-01	0	35	104	0	86	25562
2026-01-01 01:36:27.89	26.56	11.38	-53.6	-65.2	3.8	7.46e-01	0	35	104	0	76	13411
2026-01-01 01:36:28.88	26.61	11.47	-57.5	-70.9	3.8	7.44e-01	0	35	104	0	82	18257
2026-01-01 01:36:29.89	26.66	11.57	-53.1	-64.6	3.8	7.42e-01	0	35	104	0	75	13175
2026-01-01 01:36:30.89	26.72	11.67	-52.9	-64.4	3.8	7.43e-01	0	35	104	0	75	12909
2026-01-01 01:36:31.89	26.77	11.76	-52.6	-64.0	3.8	7.46e-01	0	35	104	0	74	13053
2026-01-01 01:36:32.88	26.82	11.86	-52.3	-63.7	3.9	7.46e-01	0	35	104	0	73	13382
2026-01-01 01:36:33.88	26.88	11.96	-55.6	-67.9	3.8	7.44e-01	0	35	104	0	79	15237
2026-01-01 01:36:34.87	26.93	12.06	-54.0	-65.7	3.8	7.46e-01	0	35	104	0	75	14991
2026-01-01 01:36:35.87	26.98	12.16	-59.6	-75.6	3.8	7.48e-01	0	35	104	0	86	24857
2026-01-01 01:36:36.86	27.04	12.25	-53.6	-65.2	3.8	7.43e-01	0	35	104	0	76	13388
2026-01-01 01:36:37.86	27.09	12.35	-57.3	-70.5	3.8	7.44e-01	0	35	104	0	82	17288
2026-01-01 01:36:38.85	27.15	12.45	-53.0	-64.6	3.8	7.45e-01	0	35	104	0	75	13182
2026-01-01 01:36:39.85	27.20	12.55	-53.1	-64.7	3.8	7.44e-01	0	35	104	0	75	13272
2026-01-01 01:36:40.85	27.26	12.66	-53.0	-64.6	3.9	7.46e-01	0	35	104	0	75	13134
2026-01-01 01:36:41.85	27.32	12.76	-52.8	-64.3	3.8	7.43e-01	0	35	104	0	74	13526
2026-01-01 01:36:42.85	27.37	12.86	-57.1	-70.0	3.9	7.46e-01	0	35	104	0	81	17426
2026-01-01 01:36:43.86	27.43	12.96	-55.3	-67.4	3.9	7.46e-01	0	35	104	0	79	14458
2026-01-01 01:36:44.86	27.49	13.07	-57.4	-70.6	3.9	7.45e-01	0	35	104	0	82	17589
2026-01-01 01:36:45.85	27.55	13.17	-53.4	-64.9	3.8	7.48e-01	0	35	104	0	76	12931
2026-01-01 01:36:46.85	27.60	13.27	-59.8	-76.3	3.7	7.44e-01	0	35	104	0	87	25474
2026-01-01 01:36:47.84	27.66	13.38	-52.7	-64.2	3.8	7.45e-01	0	35	104	0	74	13275
2026-01-01 01:36:48.85	27.72	13.48	-52.6	-64.1	3.8	7.47e-01	0	35	104	0	74	13123
2026-01-01 01:36:49.85	27.78	13.59	-52.3	-63.7	3.9	7.47e-01	0	35	104	0	73	13363
2026-01-01 01:36:50.85	27.84	13.69	-52.2	-63.5	3.9	7.44e-01	0	35	104	0	73	13078
2026-01-01 01:36:51.84	27.90	13.80	-54.8	-66.7	3.8	7.47e-01	0	35	104	0	77	15011
2026-01-01 01:36:52.84	27.96	13.90	-53.9	-65.5	3.8	7.43e-01	0	35	104	0	75	14631
2026-01-01 01:36:53.84	28.02	14.01	-59.6	-75.6	3.8	7.46e-01	0	35	104	0	86	24854
2026-01-01 01:36:54.84	28.09	14.12	-53.4	-64.9	3.9	7.45e-01	0	35	104	0	76	12894
2026-01-01 01:36:55.84	28.15	14.23	-57.0	-69.9	3.9	7.42e-01	0	35	104	0	81	17233
2026-01-01 01:36:56.83	28.21	14.34	-52.6	-64.1	3.9	7.44e-01	0	36	104	0	74	13127
2026-01-01 01:36:57.83	28.27	14.45	-52.5	-63.9	3.8	7.47e-01	0	35	104	0	74	12895
2026-01-01 01:36:58.83	28.34	14.56	-52.1	-63.4	3.8	7.45e-01	0	35	104	0	73	12917
2026-01-01 01:36:59.84	28.40	14.67	-52.0	-63.4	3.8	7.41e-01	0	35	104	0	73	12843
2026-01-01 01:37:00.84	28.47	14.78	-56.9	-69.6	3.8	7.48e-01	0	35	104	0	81	16646
2026-01-01 01:37:01.84	28.53	14.89	-55.0	-67.0	3.8	7.47e-01	0	35	104	0	79	13810
2026-01-01 01:37:02.84	28.60	15.00	-57.3	-70.4	3.8	7.47e-01	0	35	104	0	82	17108
2026-01-01 01:37:03.84	28.66	15.11	-52.9	-64.4	3.9	7.44e-01	0	35	104	0	75	12868
2026-01-01 01:37:04.84	28.73	15.23	-59.9	-76.5	3.7	7.46e-01	0	35	104	0	87	26050
2026-01-01 01:37:05.83	28.80	15.34	-52.3	-63.7	3.9	7.50e-01	0	36	104	0	73	13369
2026-01-01 01:37:06.83	28.86	15.45	-52.4	-63.8	3.8	7.45e-01	0	35	104	0	73	13498
2026-01-01 01:37:07.83	28.93	15.57	-52.4	-63.9	3.8	7.46e-01	0	35	104	0	73	13584
2026-01-01 01:37:08.84	29.00	15.68	-52.0	-63.3	3.9	7.45e-01	0	36	104	0	73	12760
2026-01-01 01:37:09.84	29.07	15.80	-54.9	-66.8	3.8	7.45e-01	0	35	104	0	77	15201
2026-01-01 01:37:10.84	29.14	15.92	-53.6	-65.1	3.8	7.44e-01	0	35	104	0	74	14857
2026-01-01 01:37:11.85	29.21	16.04	-59.6	-75.8	3.8	7.48e-01	0	35	104	0	87	23868
2026-01-01 01:37:12.85	29.28	16.15	-53.0	-64.4	3.8	7.44e-01	0	35	104	0	75	12919
2026-01-01 01:37:13.86	29.35	16.27	-56.9	-69.6	3.8	7.50e-01	0	36	104	0	81	16651
2026-01-01 01:37:14.86	29.43	16.39	-52.4	-63.8	3.9	7.42e-01	0	35	104	0	74	12683
2026-01-01 01:37:15.86	29.50	16.51	-52.4	-63.8	3.8	7.47e-01	0	35	104	0	73	13528
2026-01-01 01:37:16.87	29.57	16.63	-52.5	-63.9	3.8	7.43e-01	0	36	104	0	73	13639
2026-01-01 01:37:17.87	29.65	16.75	-52.3	-63.7	3.8	7.44e-01	0	35	104	0	73	13278
2026-01-01 01:37:18.87	29.72	16.87	-55.8	-68.0	3.8	7.42e-01	0	35	104	0	79	15412
2026-01-01 01:37:19.88	29.80	17.00	-54.9	-66.8	3.8	7.44e-01	0	35	104	0	78	14229
2026-01-01 01:37:20.88	29.87	17.12	-57.4	-70.4	3.9	7.43e-01	0	35	104	0	82	17158
2026-01-01 01:37:21.88	29.95	17.24	-52.7	-64.2	3.8	7.46e-01	0	36	104	0	74	13307
2026-01-01 01:37:22.88	30.02	17.37	-60.1	-77.1	3.7	7.49e-01	0	35	104	0	87	27776
2026-01-01 01:37:23.87	30.10	17.49	-52.2	-63.6	3.9	7.42e-01	0	35	104	0	73	13151
2026-01-01 01:37:24.87	30.18	17.61	-52.2	-63.5	3.8	7.44e-01	0	35	104	0	73	13107
2026-01-01 01:37:25.87	30.26	17.74	-52.0	-63.3	3.9	7.46e-01	0	35	104	0	73	12689
2026-01-01 01:37:26.86	30.34	17.87	-52.0	-63.3	3.9	7.44e-01	0	35	104	0	73	12704
2026-01-01 01:37:27.86	30.42	17.99	-53.2	-64.7	3.8	7.46e-01	0	35	104	0	74	14054
2026-01-01 01:37:28.86	30.50	18.12	-53.6	-65.2	3.8	7.46e-01	0	36	104	0	74	14933
2026-01-01 01:37:29.85	30.58	18.25	-59.7	-75.5	3.8	7.45e-01	0	35	104	0	87	23204
2026-01-01 01:37:30.85	30.66	18.38	-53.1	-64.6	3.9	7.44e-01	0	36	104	0	75	13212
2026-01-01 01:37:31.85	30.74	18.51	-57.0	-69.7	3.9	7.44e-01	0	36	104	0	81	16854
2026-01-01 01:37:32.84	30.82	18.64	-52.6	-64.1	3.8	7.47e-01	0	35	104	0	74	13171
2026-01-01 01:37:33.84	30.91	18.77	-52.4	-63.7	3.8	7.47e-01	0	35	104	0	74	12658
2026-01-01 01:37:34.84	30.99	18.90	-52.2	-63.6	3.8	7.46e-01	0	35	104	0	73	13122
2026-01-01 01:37:35.84	31.08	19.03	-51.9	-63.2	3.8	7.46e-01	0	35	104	0	72	13261
2026-01-01 01:37:36.84	31.17	19.17	-55.8	-67.9	3.8	7.48e-01	0	35	104	0	79	15392
2026-01-01 01:37:37.84	31.25	19.30	-53.2	-64.8	3.8	7.44e-01	0	36	104	0	74	14254
2026-01-01 01:37:38.84	31.34	19.44	-59.7	-75.5	3.8	7.44e-01	0	36	104	0	87	23245
2026-01-01 01:37:39.83	31.43	19.57	-52.9	-64.3	3.8	7.47e-01	0	36	104	0	75	12804
2026-01-01 01:37:40.82	31.52	19.70	-56.6	-68.9	3.8	7.46e-01	0	35	104	0	80	16312
2026-01-01 01:37:41.82	31.61	19.84	-52.6	-64.0	3.8	7.45e-01	0	36	104	0	74	13007
2026-01-01 01:37:42.82	31.70	19.98	-52.3	-63.6	3.8	7.43e-01	0	35	104	0	73	13188
2026-01-01 01:37:43.81	31.79	20.12	-52.3	-63.6	3.8	7.43e-01	0	35	104	0	73	13245
2026-01-01 01:37:44.82	31.88	20.26	-52.4	-63.7	3.8	7.44e-01	0	36	104	0	73	13413
2026-01-01 01:37:45.82	31.98	20.40	-55.4	-67.4	3.8	7.44e-01	0	36	104	0	78	15257
2026-01-01 01:37:46.81	32.07	20.54	-54.8	-66.7	3.8	7.49e-01	0	35	104	0	78	14112
2026-01-01 01:37:47.81	32.16	20.68	-56.9	-69.5	3.8	7.45e-01	0	35	104	0	81	16353
2026-01-01 01:37:48.81	32.26	20.82	-52.7	-64.1	3.8	7.46e-01	0	36	104	0	74	13110
2026-01-01 01:37:49.81	32.36	20.97	-59.7	-75.4	3.8	7.46e-01	0	35	104	0	87	22833
2026-01-01 01:37:50.81	32.46	21.11	-52.3	-63.5	3.9	7.47e-01	0	35	104	0	73	13097
2026-01-01 01:37:51.81	32.56	21.26	-52.3	-63.6	3.8	7.47e-01	0	35	104	0	73	13194
2026-01-01 01:37:52.82	32.66	21.40	-52.3	-63.6	3.8	7.48e-01	0	36	104	0	73	13201
2026-01-01 01:37:53.82	32.76	21.55	-52.1	-63.4	3.8	7.46e-01	0	35	104	0	73	12951
2026-01-01 01:37:54.82	32.86	21.70	-55.7	-67.9	3.8	7.45e-01	0	36	104	0	79	15387
2026-01-01 01:37:55.82	32.96	21.85	-54.7	-66.5	3.8	7.48e-01	0	36	104	0	77	14604
2026-01-01 01:37:56.82	33.07	22.00	-57.1	-69.8	3.9	7.48e-01	0	36	104	0	81	16980
2026-01-01 01:37:57.82	33.17	22.15	-52.8	-64.3	3.8	7.48e-01	0	35	104	0	74	13425
2026-01-01 01:37:58.81	33.27	22.30	-59.9	-75.7	3.8	7.49e-01	0	36	104	0	87	23593
2026-01-01 01:37:59.81	33.38	22.45	-52.3	-63.5	3.9	7.43e-01	0	35	104	0	73	13080
2026-01-01 01:38:00.80	33.49	22.60	-52.3	-63.6	3.8	7.45e-01	0	35	104	0	73	13166
2026-01-01 01:38:01.81	33.60	22.76	-52.1	-63.4	3.8	7.46e-01	0	35	104	0	73	12958
2026-01-01 01:38:02.81	33.71	22.91	-52.2	-63.6	3.8	7.47e-01	0	36	104	0	73	13132
2026-01-01 01:38:03.82	33.82	23.07	-54.7	-66.7	3.9	7.46e-01	0	36	104	0	77	14942
2026-01-01 01:38:04.82	33.93	23.23	-53.7	-65.3	3.8	7.43e-01	0	36	104	0	75	14243
2026-01-01 01:38:05.82	34.05	23.38	-59.7	-75.2	3.8	7.46e-01	0	36	104	0	87	22519
2026-01-01 01:38:06.81	34.16	23.54	-53.6	-65.1	3.8	7.42e-01	0	36	104	0	76	13146
2026-01-01 01:38:07.81	34.28	23.70	-56.8	-69.3	3.8	7.46e-01	0	36	104	0	81	16030
2026-01-01 01:38:08.80	34.39	23.86	-52.7	-64.2	3.9	7.49e-01	0	36	104	0	74	13271
2026-01-01 01:38:09.80	34.51	24.02	-52.6	-64.0	3.8	7.43e-01	0	35	104	0	74	13041
2026-01-01 01:38:10.81	34.63	24.18	-52.5	-63.9	3.8	7.44e-01	0	35	104	0	74	12830
2026-01-01 01:38:11.80	34.75	24.35	-52.5	-63.8	3.8	7.42e-01	0	36	104	0	74	12783
2026-01-01 01:38:12.80	34.87	24.51	-56.0	-68.2	3.8	7.47e-01	0	36	104	0	79	15762
2026-01-01 01:38:13.79	34.99	24.67	-53.6	-65.1	3.8	7.43e-01	0	36	104	0	74	14733
2026-01-01 01:38:14.80	35.12	24.84	-59.8	-75.2	3.8	7.46e-01	0	35	104	0	87	22391
2026-01-01 01:38:15.80	35.24	25.01	-53.7	-65.2	3.8	7.46e-01	0	36	104	0	76	13392
2026-01-01 01:38:16.81	35.37	25.18	-56.9	-69.4	3.8	7.43e-01	0	36	104	0	81	16301
2026-01-01 01:38:17.81	35.50	25.35	-52.8	-64.1	3.8	7.46e-01	0	36	104	0	74	13211
2026-01-01 01:38:18.81	35.63	25.52	-52.6	-63.9	3.8	7.45e-01	0	36	104	0	74	12851
2026-01-01 01:38:19.81	35.76	25.69	-52.5	-63.8	3.8	7.47e-01	0	35	104	0	74	12760
2026-01-01 01:38:20.81	35.90	25.87	-52.6	-64.0	3.9	7.44e-01	0	36	104	0	74	13089
2026-01-01 01:38:21.81	36.03	26.04	-55.5	-67.5	3.9	7.44e-01	0	36	104	0	78	15483
2026-01-01 01:38:22.82	36.17	26.22	-55.1	-66.9	3.8	7.48e-01	0	36	104	0	79	13711
2026-01-01 01:38:23.81	36.30	26.39	-57.0	-69.5	3.9	7.48e-01	0	36	104	0	81	16473
2026-01-01 01:38:24.81	36.44	26.57	-52.9	-64.2	3.8	7.44e-01	0	35	104	0	75	12601
2026-01-01 01:38:25.81	36.58	26.74	-60.0	-75.7	3.7	7.44e-01	0	35	104	0	87	23767
2026-01-01 01:38:26.81	36.72	26.92	-52.4	-63.7	3.8	7.46e-01	0	36	104	0	74	12610
2026-01-01 01:38:27.81	36.87	27.10	-52.4	-63.8	3.8	7.46e-01	0	36	104	0	73	13494
2026-01-01 01:38:28.81	37.01	27.29	-52.3	-63.6	3.8	7.46e-01	0	36	104	0	73	13145
2026-01-01 01:38:29.80	37.16	27.47	-52.0	-63.2	3.8	7.43e-01	0	36	104	0	73	12627
2026-01-01 01:38:30.80	37.31	27.65	-56.4	-68.6	3.8	7.43e-01	0	35	104	0	80	15656
2026-01-01 01:38:31.80	37.46	27.84	-54.7	-66.4	3.8	7.47e-01	0	36	104	0	77	14494
2026-01-01 01:38:32.79	37.61	28.02	-57.0	-69.6	3.8	7.48e-01	0	36	104	0	81	16653
2026-01-01 01:38:33.80	37.76	28.21	-52.9	-64.3	3.9	7.42e-01	0	36	104	0	75	12774
2026-01-01 01:38:34.79	37.92	28.39	-60.0	-75.6	3.8	7.48e-01	0	36	104	0	87	23478
2026-01-01 01:38:35.79	38.08	28.58	-52.5	-63.8	3.8	7.46e-01	0	36	104	0	74	12678
2026-01-01 01:38:36.79	38.24	28.77	-51.9	-63.1	3.8	7.46e-01	0	36	104	0	73	12472
2026-01-01 01:38:37.78	38.40	28.96	-52.1	-63.4	3.8	7.46e-01	0	36	104	0	73	12877
2026-01-01 01:38:38.78	38.56	29.16	-52.2	-63.5	3.8	7.45e-01	0	36	104	0	73	13067
2026-01-01 01:38:39.78	38.72	29.35	-54.4	-66.1	3.8	7.48e-01	0	36	104	0	76	14737
2026-01-01 01:38:40.77	38.89	29.55	-53.4	-64.8	3.9	7.47e-01	0	36	104	0	75	13542
2026-01-01 01:38:41.77	39.06	29.74	-59.7	-73.7	3.8	7.44e-01	0	36	104	0	86	19877
2026-01-01 01:38:42.77	39.23	29.94	-53.4	-64.9	3.9	7.44e-01	0	35	104	0	76	12828
2026-01-01 01:38:43.77	39.40	30.14	-56.1	-68.1	3.8	7.46e-01	0	35	104	0	79	15716
2026-01-01 01:38:44.77	39.58	30.34	-52.4	-63.8	3.9	7.45e-01	0	36	104	0	74	12753
2026-01-01 01:38:45.77	39.76	30.54	-52.4	-63.7	3.8	7.47e-01	0	36	104	0	73	13384
2026-01-01 01:38:46.77	39.94	30.74	-52.3	-63.6	3.8	7.43e-01	0	36	104	0	73	13112
2026-01-01 01:38:47.76	40.12	30.95	-52.1	-63.4	3.8	7.44e-01	0	36	104	0	73	12818
2026-01-01 01:38:48.77	40.31	31.15	-57.0	-69.5	3.8	7.47e-01	0	36	104	0	81	16489
2026-01-01 01:38:49.77	40.49	31.36	-53.0	-64.3	3.8	7.45e-01	0	36	104	0	74	13565
2026-01-01 01:38:50.76	40.68	31.56	-59.4	-73.8	3.8	7.49e-01	0	36	104	0	86	20244
2026-01-01 01:38:51.76	40.87	31.77	-53.7	-65.2	3.8	7.44e-01	0	36	104	0	76	13373
2026-01-01 01:38:52.76	41.07	31.98	-56.1	-68.2	3.8	7.50e-01	0	36	104	0	79	15859
2026-01-01 01:38:53.77	41.27	32.20	-52.6	-63.9	3.8	7.44e-01	0	35	104	0	74	12933
2026-01-01 01:38:54.76	41.46	32.41	-52.4	-63.6	3.8	7.44e-01	0	36	104	0	74	12506
2026-01-01 01:38:55.77	41.67	32.62	-52.5	-63.7	3.8	7.43e-01	0	36	104	0	74	12560
2026-01-01 01:38:56.76	41.87	32.84	-52.5	-63.7	3.8	7.45e-01	0	35	104	0	74	12599
2026-01-01 01:38:57.76	42.08	33.05	-57.2	-70.1	3.8	7.46e-01	0	36	104	0	82	16690
2026-01-01 01:38:58.76	42.29	33.27	-53.3	-64.8	3.8	7.46e-01	0	36	104	0	74	14275
2026-01-01 01:38:59.76	42.51	33.49	-59.3	-73.8	3.8	7.44e-01	0	36	104	0	86	20134
2026-01-01 01:39:00.77	42.72	33.71	-54.1	-65.6	3.8	7.45e-01	0	36	104	0	77	13251
2026-01-01 01:39:01.77	42.94	33.93	-56.2	-68.4	3.8	7.44e-01	0	36	104	0	80	15345
2026-01-01 01:39:02.77	43.17	34.16	-52.9	-64.3	3.8	7.41e-01	0	36	104	0	75	12766
2026-01-01 01:39:03.76	43.39	34.38	-53.0	-64.5	3.8	7.44e-01	0	36	104	0	74	13785
2026-01-01 01:39:04.76	43.62	34.60	-52.8	-64.1	3.8	7.43e-01	0	35	104	0	74	13204
2026-01-01 01:39:05.76	43.85	34.83	-52.8	-64.2	3.8	7.43e-01	0	36	104	0	74	13278
2026-01-01 01:39:06.76	44.09	35.06	-56.9	-69.3	3.8	7.45e-01	0	36	104	0	81	16075
2026-01-01 01:39:07.77	44.33	35.29	-54.0	-65.5	3.8	7.49e-01	0	36	104	0	76	13840
2026-01-01 01:39:08.78	44.57	35.52	-60.1	-75.5	3.8	7.48e-01	0	36	104	0	87	23167
2026-01-01 01:39:09.78	44.82	35.75	-54.9	-66.6	3.9	7.47e-01	0	36	104	0	79	13250
2026-01-01 01:39:10.79	45.07	35.99	-57.1	-69.7	3.8	7.47e-01	0	36	104	0	81	16857
2026-01-01 01:39:11.78	45.32	36.22	-53.4	-64.9	3.9	7.44e-01	0	36	104	0	76	12844
2026-01-01 01:39:12.78	45.57	36.46	-53.6	-65.0	3.8	7.46e-01	0	36	104	0	76	13055
2026-01-01 01:39:13.78	45.83	36.69	-53.5	-65.0	3.8	7.44e-01	0	36	104	0	76	13005
2026-01-01 01:39:14.78	46.10	36.93	-53.5	-64.9	3.8	7.49e-01	0	36	104	0	76	12952
2026-01-01 01:39:15.78	46.37	37.17	-56.4	-68.5	3.8	7.47e-01	0	36	104	0	80	15548
2026-01-01 01:39:16.78	46.64	37.41	-54.8	-66.5	3.8	7.46e-01	0	36	104	0	77	14593
2026-01-01 01:39:17.78	46.91	37.65	-60.3	-76.2	3.8	7.48e-01	0	36	104	0	88	23766
2026-01-01 01:39:18.78	47.19	37.89	-55.2	-67.0	3.8	7.44e-01	0	36	104	0	79	13821
2026-01-01 01:39:19.78	47.48	38.13	-57.1	-69.7	3.8	7.46e-01	0	36	104	0	81	16713
2026-01-01 01:39:20.79	47.77	38.38	-53.5	-64.9	3.8	7.47e-01	0	36	104	0	76	12837
2026-01-01 01:39:21.78	48.06	38.62	-53.5	-64.9	3.8	7.46e-01	0	36	104	0	76	12930
2026-01-01 01:39:22.77	48.36	38.87	-53.3	-64.7	3.8	7.43e-01	0	36	104	0	75	13408
2026-01-01 01:39:23.76	48.65	39.11	-53.3	-64.6	3.8	7.44e-01	0	36	104	0	75	13236
2026-01-01 01:39:24.77	48.96	39.36	-56.9	-69.4	3.8	7.45e-01	0	36	104	0	81	16134
2026-01-01 01:39:25.77	49.28	39.61	-54.2	-65.8	3.8	7.45e-01	0	36	104	0	76	14234
2026-01-01 01:39:26.77	49.59	39.87	-59.7	-74.7	3.8	7.47e-01	0	36	104	0	87	21072
2026-01-01 01:39:27.77	49.91	40.12	-54.4	-66.1	3.9	7.43e-01	0	36	104	0	78	13173
2026-01-01 01:39:28.77	50.24	40.37	-56.2	-68.5	3.8	7.46e-01	0	36	104	0	80	15535
2026-01-01 01:39:29.77	50.57	40.62	-52.9	-64.3	3.8	7.49e-01	0	36	104	0	75	12677
2026-01-01 01:39:30.77	50.91	40.88	-52.9	-64.3	3.8	7.44e-01	0	36	104	0	74	13419
2026-01-01 01:39:31.76	51.25	41.13	-53.0	-64.3	3.8	7.42e-01	0	36	104	0	74	13532
2026-01-01 01:39:32.75	51.59	41.38	-52.8	-64.2	3.8	7.48e-01	0	36	104	0	74	13381
2026-01-01 01:39:33.74	51.94	41.64	-58.6	-71.9	3.8	7.45e-01	0	36	104	0	84	18254
2026-01-01 01:39:34.75	52.30	41.90	-56.4	-68.6	3.8	7.46e-01	0	36	104	0	82	13970
2026-01-01 01:39:35.74	52.66	42.15	-56.2	-68.6	3.9	7.43e-01	0	36	104	0	80	15699
2026-01-01 01:39:36.74	53.03	42.41	-53.9	-65.4	3.8	7.40e-01	0	36	104	0	76	13659
2026-01-01 01:39:37.74	53.41	42.67	-59.6	-73.9	3.8	7.45e-01	0	36	104	0	86	20508
2026-01-01 01:39:38.74	53.79	42.93	-52.3	-63.2	3.8	7.46e-01	0	36	104	0	73	12578
2026-01-01 01:39:39.73	54.18	43.19	-52.2	-63.5	3.8	7.47e-01	0	36	104	0	73	12971
2026-01-01 01:39:40.73	54.57	43.45	-52.1	-63.3	3.8	7.48e-01	0	36	104	0	73	12740
2026-01-01 01:39:41.73	54.97	43.71	-52.0	-63.2	3.8	7.44e-01	0	35	104	0	73	12581
2026-01-01 01:39:42.72	55.38	43.97	-53.7	-65.3	3.9	7.46e-01	0	36	104	0	75	14370
2026-01-01 01:39:43.72	55.79	44.23	-53.5	-64.9	3.8	7.46e-01	0	36	104	0	76	12829
2026-01-01 01:39:44.72	56.22	44.49	-59.1	-72.9	3.8	7.48e-01	0	36	104	0	85	19238
2026-01-01 01:39:45.72	56.64	44.75	-55.4	-67.3	3.8	7.50e-01	0	36	104	0	80	13510
2026-01-01 01:39:46.72	57.08	45.02	-54.5	-66.1	3.9	7.46e-01	0	36	104	0	76	14786
2026-01-01 01:39:47.72	57.52	45.28	-52.6	-63.9	3.8	7.45e-01	0	36	104	0	74	12920
2026-01-01 01:39:48.71	57.97	45.54	-52.3	-63.6	3.9	7.46e-01	0	36	104	0	73	13148
2026-01-01 01:39:49.71	58.43	45.80	-52.2	-63.5	3.8	7.41e-01	0	36	104	0	73	12984
2026-01-01 01:39:50.71	58.90	46.06	-51.8	-63.0	3.8	7.43e-01	0	36	104	0	72	13052
2026-01-01 01:39:51.71	59.37	46.32	-54.0	-65.4	3.8	7.46e-01	0	36	104	0	75	14456
2026-01-01 01:39:52.70	59.85	46.58	-52.6	-63.8	3.8	7.47e-01	0	36	104	0	73	13506
2026-01-01 01:39:53.70	60.34	46.84	-58.7	-71.7	3.8	7.48e-01	0	36	104	0	84	17796
2026-01-01 01:39:54.70	60.83	47.10	-54.3	-65.8	3.8	7.45e-01	0	36	104	0	77	13512
2026-01-01 01:39:55.70	61.34	47.36	-53.6	-64.9	3.8	7.46e-01	0	36	104	0	74	14445
2026-01-01 01:39:56.70	61.86	47.62	-51.9	-62.8	3.8	7.44e-01	0	36	104	0	72	12684
2026-01-01 01:39:57.70	62.38	47.88	-51.6	-62.7	3.9	7.43e-01	0	36	104	0	72	12638
2026-01-01 01:39:58.70	62.91	48.14	-51.7	-62.8	3.8	7.45e-01	0	36	104	0	72	12799
2026-01-01 01:39:59.70	63.45	48.39	-51.6	-62.8	3.8	7.44e-01	0	36	104	0	72	12674
2026-01-01 01:40:00.69	64.00	48.64	-56.9	-69.2	3.8	7.44e-01	0	36	104	0	81	15854
2026-01-01 01:40:01.69	64.56	48.90	-52.9	-64.3	3.8	7.45e-01	0	36	104	0	74	13472
2026-01-01 01:40:02.69	65.13	49.15	-58.1	-71.0	3.8	7.45e-01	0	36	104	0	83	17400
2026-01-01 01:40:03.68	65.70	49.40	-55.9	-67.9	3.8	7.45e-01	0	35	104	0	81	13646
2026-01-01 01:40:04.68	66.29	49.65	-54.0	-65.5	3.8	7.44e-01	0	36	104	0	75	14625
2026-01-01 01:40:05.69	66.89	49.90	-53.1	-64.5	3.8	7.44e-01	0	36	104	0	75	13100
2026-01-01 01:40:06.69	67.50	50.14	-52.6	-63.9	3.8	7.43e-01	0	36	104	0	74	12861
2026-01-01 01:40:07.68	68.11	50.38	-52.3	-63.7	3.8	7.47e-01	0	35	104	0	73	13281
2026-01-01 01:40:08.68	68.74	50.63	-52.2	-63.5	3.9	7.43e-01	0	36	104	0	73	13093
2026-01-01 01:40:09.67	69.37	50.86	-51.8	-53.4	19.0	6.03e-01	0	36	0	524288	72	4321
2026-01-01 01:40:10.67	70.02	51.10	-52.3	-54.0	19.1	6.01e-01	0	36	0	2621440	72	4640
2026-01-01 01:40:11.67	70.68	51.33	-51.8	-53.4	19.2	6.04e-01	0	36	0	4194304	72	4330
2026-01-01 01:40:12.67	71.34	51.56	-51.5	-53.0	19.3	6.02e-01	0	36	0	6291456	72	4140
2026-01-01 01:40:13.67	72.02	51.79	-51.7	-53.3	19.2	6.02e-01	0	36	0	8388608	72	4268
2026-01-01 01:40:14.68	72.72	52.02	-51.5	-53.1	19.3	6.00e-01	0	36	0	9961472	72	4170
2026-01-01 01:40:15.67	73.41	52.24	-51.6	-53.2	19.3	6.04e-01	0	36	0	12058624	72	4215
2026-01-01 01:40:16.67	74.12	52.46	-51.5	-53.1	19.3	6.03e-01	0	36	0	13631488	72	4166
2026-01-01 01:40:17.67	74.84	52.68	-51.6	-53.2	19.3	6.02e-01	0	36	0	15728640	72	4217
2026-01-01 01:40:18.66	75.57	52.89	-51.5	-53.0	19.3	6.02e-01	0	36	0	17301504	72	4132
2026-01-01 01:40:19.66	76.31	53.09	-51.5	-53.1	19.3	6.02e-01	0	36	0	19398656	72	4150
2026-01-01 01:40:20.65	77.05	53.30	-51.7	-53.3	19.2	6.01e-01	0	36	0	21495808	72	4278
2026-01-01 01:40:21.65	77.82	53.50	-51.6	-53.2	19.2	6.01e-01	0	36	0	23068672	72	4215
2026-01-01 01:40:22.66	78.60	53.69	-51.4	-52.9	19.3	6.00e-01	0	36	0	25165824	72	4097
2026-01-01 01:40:23.66	79.38	53.89	-51.7	-53.2	19.2	6.02e-01	0	36	0	26738688	71	4490
2026-01-01 01:40:24.66	80.18	54.07	-51.7	-53.3	19.3	6.02e-01	0	36	0	28835840	71	4510
2026-01-01 01:40:25.65	80.97	54.25	-51.7	-53.3	19.3	6.04e-01	0	36	0	30408704	71	4510
2026-01-01 01:40:26.65	81.79	54.43	-51.8	-53.4	19.3	6.02e-01	0	35	0	32505856	71	4583
2026-01-01 01:40:27.64	82.61	54.60	-52.1	-53.8	19.1	6.04e-01	0	36	0	34603008	72	4526
2026-01-01 01:40:28.64	83.44	54.77	-51.9	-53.5	19.2	5.99e-01	0	36	0	36175872	72	4387
2026-01-01 01:40:29.63	84.28	54.93	-52.3	-53.9	19.1	6.05e-01	0	36	0	38273024	72	4585
2026-01-01 01:40:30.63	85.13	55.08	-52.7	-54.4	19.0	6.02e-01	0	36	0	39845888	73	4593
2026-01-01 01:40:31.63	85.99	55.23	-52.3	-53.9	19.1	6.00e-01	0	36	0	41943040	73	4331
2026-01-01 01:40:32.62	86.86	55.37	-52.5	-54.2	19.0	6.02e-01	0	36	0	43515904	73	4468
2026-01-01 01:40:33.62	87.74	55.51	-52.5	-54.1	19.1	6.04e-01	0	36	0	45613056	73	4439
2026-01-01 01:40:34.61	88.62	55.64	-52.4	-54.1	19.1	6.00e-01	0	36	0	47185920	73	4429
2026-01-01 01:40:35.60	89.51	55.77	-52.4	-54.1	19.1	6.02e-01	0	36	0	49283072	73	4405
2026-01-01 01:40:36.60	90.41	55.89	-52.4	-54.0	19.1	6.02e-01	0	36	0	51380224	73	4382
2026-01-01 01:40:37.60	91.32	56.00	-52.5	-54.2	19.1	6.00e-01	0	36	0	52953088	73	4454
2026-01-01 01:40:38.60	92.24	56.10	-52.7	-54.4	19.1	6.01e-01	0	36	0	55050240	73	4559
2026-01-01 01:40:39.60	93.17	56.20	-52.4	-54.1	19.1	6.03e-01	0	36	0	56623104	73	4423
2026-01-01 01:40:40.60	94.11	56.29	-52.8	-54.6	19.0	6.02e-01	0	36	0	58720256	73	4660
2026-01-01 01:40:41.59	95.04	56.38	-52.9	-54.7	19.0	6.02e-01	0	36	0	60817408	73	4728
2026-01-01 01:40:42.59	95.98	56.46	-52.7	-54.5	19.0	5.98e-01	0	36	0	62390272	73	4604
2026-01-01 01:40:43.59	96.93	56.53	-53.1	-55.0	18.9	5.99e-01	0	36	0	64487424	74	4608
2026-01-01 01:40:44.58	97.87	56.59	-53.3	-55.1	18.9	6.03e-01	0	36	0	66060288	74	4666
2026-01-01 01:40:45.57	98.82	56.64	-53.2	-55.1	18.8	6.01e-01	0	36	0	68157440	74	4657
2026-01-01 01:40:46.57	99.79	56.69	-53.1	-54.9	18.9	6.00e-01	0	36	0	69730304	74	4556
2026-01-01 01:40:47.56	100.74	56.73	-53.1	-54.9	18.9	6.02e-01	0	36	0	71827456	74	4548
2026-01-01 01:40:48.56	101.71	56.76	-53.2	-55.0	18.9	6.00e-01	0	36	0	73400320	74	4605
2026-01-01 01:40:49.56	102.68	56.79	-53.0	-54.8	18.9	6.01e-01	0	36	0	75497472	74	4506
2026-01-01 01:40:50.57	103.66	56.80	-53.0	-54.8	18.9	6.01e-01	0	36	0	77594624	74	4532
2026-01-01 01:40:51.56	104.62	56.81	-52.8	-54.5	19.0	6.03e-01	0	36	0	79167488	74	4379
2026-01-01 01:40:52.56	105.60	56.81	-52.9	-54.7	19.0	6.03e-01	0	35	0	81264640	74	4451
2026-01-01 01:40:53.55	106.56	56.81	-52.8	-54.6	19.0	6.01e-01	0	36	0	82837504	74	4419
2026-01-01 01:40:54.55	107.53	56.79	-52.7	-54.5	19.0	6.03e-01	0	36	0	84934656	74	4346
2026-01-01 01:40:55.53	108.48	56.77	-53.0	-54.7	19.0	6.02e-01	0	36	0	86507520	74	4489
2026-01-01 01:40:56.54	109.46	56.74	-53.0	-54.7	19.0	6.01e-01	0	36	0	88604672	74	4483
2026-01-01 01:40:57.54	110.43	56.71	-52.6	-54.3	19.1	6.01e-01	0	36	0	90701824	74	4265
2026-01-01 01:40:58.54	111.39	56.66	-52.9	-54.6	19.0	6.03e-01	0	36	0	92274688	74	4440
2026-01-01 01:40:59.53	112.34	56.61	-52.7	-54.4	19.1	6.00e-01	0	36	0	94371840	74	4332
2026-01-01 01:41:00.53	113.30	56.55	-52.9	-54.6	19.0	6.00e-01	0	36	0	95944704	74	4429
2026-01-01 01:41:01.53	114.25	56.48	-52.5	-54.2	19.1	6.01e-01	0	36	0	98041856	74	4203
2026-01-01 01:41:02.53	115.20	56.41	-53.0	-54.7	19.0	5.99e-01	0	36	0	99614720	74	4488
2026-01-01 01:41:03.53	116.14	56.33	-52.5	-54.2	19.1	6.04e-01	0	36	0	101711872	74	4201
2026-01-01 01:41:04.52	117.07	56.24	-52.6	-54.3	19.1	6.01e-01	0	36	0	103284736	74	4271
2026-01-01 01:41:05.52	118.00	56.14	-52.6	-54.2	19.1	6.02e-01	0	36	0	105381888	74	4238
2026-01-01 01:41:06.52	118.92	56.04	-52.8	-54.6	19.0	6.01e-01	0	36	0	107479040	74	4417
2026-01-01 01:41:07.51	119.83	55.93	-52.4	-54.0	19.1	6.02e-01	0	36	0	109051904	74	4139
2026-01-01 01:41:08.51	120.74	55.81	-52.2	-53.8	19.2	6.03e-01	0	36	0	111149056	73	4268
2026-01-01 01:41:09.51	121.64	55.69	-52.2	-53.9	19.2	6.03e-01	0	36	0	112721920	73	4309
2026-01-01 01:41:10.51	122.53	55.56	-52.3	-54.0	19.1	6.01e-01	0	36	0	114819072	73	4346
2026-01-01 01:41:11.51	123.41	55.42	-52.3	-54.0	19.1	5.99e-01	0	36	0	116391936	73	4348
2026-01-01 01:41:12.51	124.29	55.28	-52.3	-54.0	19.1	6.02e-01	0	36	0	118489088	73	4355
2026-01-01 01:41:13.51	125.16	55.13	-52.6	-54.3	19.1	6.00e-01	0	36	0	120586240	73	4523
2026-01-01 01:41:14.51	126.02	54.98	-52.6	-54.4	19.0	6.01e-01	0	36	0	122159104	73	4552
2026-01-01 01:41:15.50	126.86	54.82	-52.3	-54.0	19.2	5.98e-01	0	36	0	124256256	73	4348
2026-01-01 01:41:16.49	127.69	54.66	-52.0	-53.6	19.2	6.03e-01	0	36	0	125829120	73	4171
2026-01-01 01:41:17.49	128.52	54.49	-52.2	-53.9	19.2	6.02e-01	0	36	0	127926272	73	4318
2026-01-01 01:41:18.48	129.33	54.32	-51.8	-53.3	19.3	5.98e-01	0	36	0	129499136	72	4284
2026-01-01 01:41:19.48	130.14	54.13	-52.1	-53.8	19.2	6.03e-01	0	36	0	131596288	72	4502
2026-01-01 01:41:20.47	130.93	53.95	-52.0	-53.6	19.2	6.03e-01	0	36	0	133169152	72	4415
2026-01-01 01:41:21.47	131.72	53.76	-52.1	-53.7	19.2	6.03e-01	0	36	0	135266304	72	4487
2026-01-01 01:41:22.47	132.50	53.57	-52.2	-53.8	19.2	6.02e-01	0	36	0	137363456	72	4530
2026-01-01 01:41:23.46	133.26	53.37	-51.7	-53.3	19.3	6.01e-01	0	36	0	138936320	72	4246
2026-01-01 01:41:24.46	134.01	53.17	-51.9	-53.5	19.2	6.02e-01	0	36	0	141033472	72	4372
2026-01-01 01:41:25.46	134.76	52.96	-51.8	-53.4	19.2	6.01e-01	0	36	0	142606336	72	4307
2026-01-01 01:41:26.46	135.50	52.75	-52.2	-53.9	19.1	6.01e-01	0	36	0	144703488	72	4561
2026-01-01 01:41:27.46	136.22	52.53	-52.0	-53.6	19.2	6.01e-01	0	36	0	146276352	72	4436
2026-01-01 01:41:28.45	136.93	52.32	-52.1	-53.8	19.2	6.00e-01	0	36	0	148373504	72	4515
2026-01-01 01:41:29.45	137.64	52.09	-52.0	-53.6	19.2	6.02e-01	0	36	0	150470656	72	4419
2026-01-01 01:41:30.45	138.33	51.87	-52.1	-53.8	19.1	6.01e-01	0	36	0	152043520	72	4508
2026-01-01 01:41:31.45	139.01	51.64	-52.5	-54.1	19.1	6.01e-01	0	36	0	154140672	72	4702
2026-01-01 01:41:32.44	139.68	51.41	-52.7	-54.4	19.1	6.00e-01	0	36	0	155713536	73	4565
2026-01-01 01:41:33.43	140.34	51.18	-52.6	-54.3	19.1	6.01e-01	0	36	0	157810688	73	4526
2026-01-01 01:41:34.43	140.99	50.94	-52.5	-54.2	19.1	6.00e-01	0	36	0	159907840	73	4479
2026-01-01 01:41:35.41	141.62	50.71	-52.5	-54.2	19.0	6.03e-01	0	36	0	161480704	73	4483
2026-01-01 01:41:36.41	142.25	50.47	-52.8	-54.6	19.0	6.01e-01	0	36	0	163053568	73	4658
2026-01-01 01:41:37.41	142.87	50.23	-52.6	-54.3	19.1	6.01e-01	0	36	0	165150720	73	4537
2026-01-01 01:41:38.41	143.49	49.98	-52.7	-54.4	19.0	6.05e-01	0	36	0	167247872	73	4569
2026-01-01 01:41:39.41	144.09	49.73	-52.6	-54.3	19.0	6.03e-01	0	36	0	168820736	73	4518
2026-01-01 01:41:40.41	144.68	49.48	-52.5	-54.1	19.1	6.03e-01	0	36	0	170917888	73	4430
2026-01-01 01:41:41.41	145.26	49.23	-52.8	-54.6	19.0	6.01e-01	0	36	0	172490752	73	4670
2026-01-01 01:41:42.42	145.84	48.98	-52.8	-54.5	19.0	5.99e-01	0	36	0	174587904	73	4641
2026-01-01 01:41:43.41	146.40	48.73	-52.6	-54.3	19.0	6.03e-01	0	36	0	176685056	73	4539
2026-01-01 01:41:44.41	146.96	48.47	-52.6	-54.2	19.1	6.00e-01	0	36	0	178257920	73	4491
2026-01-01 01:41:45.41	147.50	48.21	-52.5	-54.2	19.1	6.02e-01	0	36	0	180355072	73	4474
2026-01-01 01:41:46.42	148.04	47.95	-52.5	-54.2	19.1	6.02e-01	0	36	0	181927936	73	4468
2026-01-01 01:41:47.41	148.57	47.70	-52.6	-54.4	19.1	6.02e-01	0	36	0	184025088	73	4559
2026-01-01 01:41:48.41	149.09	47.44	-52.6	-54.3	19.1	6.05e-01	0	36	0	185597952	73	4503
2026-01-01 01:41:49.41	149.60	47.18	-52.6	-54.4	19.1	6.02e-01	0	36	0	187695104	73	4556
2026-01-01 01:41:50.40	150.09	46.92	-52.5	-54.2	19.1	6.01e-01	0	36	0	189792256	73	4485
2026-01-01 01:41:51.41	150.59	46.66	-52.5	-54.2	19.1	6.02e-01	0	36	0	191365120	73	4464
2026-01-01 01:41:52.41	151.08	46.40	-52.5	-54.1	19.1	6.02e-01	0	36	0	193462272	73	4440
2026-01-01 01:41:53.41	151.56	46.13	-52.2	-53.8	19.1	6.01e-01	0	36	0	195035136	73	4269
2026-01-01 01:41:54.42	152.03	45.87	-52.4	-54.1	19.1	6.04e-01	0	36	0	197132288	73	4392
2026-01-01 01:41:55.42	152.49	45.60	-52.5	-54.2	19.0	6.02e-01	0	36	0	198705152	73	4465
2026-01-01 01:41:56.42	152.95	45.34	-52.5	-54.1	19.0	6.03e-01	0	36	0	200802304	73	4438
2026-01-01 01:41:57.42	153.39	45.08	-52.3	-54.0	19.1	6.02e-01	0	36	0	202899456	73	4372
2026-01-01 01:41:58.42	153.83	44.82	-52.1	-53.7	19.2	6.00e-01	0	36	0	204472320	73	4241
2026-01-01 01:41:59.42	154.27	44.55	-52.2	-53.9	19.1	6.02e-01	0	36	0	206569472	73	4298
2026-01-01 01:42:00.43	154.69	44.29	-52.4	-54.0	19.1	6.01e-01	0	36	0	208666624	73	4384
2026-01-01 01:42:01.42	155.11	44.03	-52.3	-54.0	19.2	6.03e-01	0	36	0	210239488	73	4351
2026-01-01 01:42:02.43	155.52	43.76	-52.2	-53.9	19.2	6.03e-01	0	36	0	212336640	73	4319
2026-01-01 01:42:03.42	155.92	43.50	-52.4	-54.1	19.1	6.03e-01	0	36	0	213909504	73	4436
2026-01-01 01:42:04.42	156.32	43.24	-52.6	-54.3	19.1	6.01e-01	0	36	0	216006656	73	4509
2026-01-01 01:42:05.42	156.71	42.98	-52.3	-53.9	19.1	6.02e-01	0	36	0	217579520	73	4339
2026-01-01 01:42:06.42	157.10	42.72	-52.1	-53.8	19.1	6.00e-01	0	36	0	219676672	73	4252
2026-01-01 01:42:07.42	157.48	42.46	-52.3	-54.0	19.1	6.01e-01	0	36	0	221249536	73	4368
2026-01-01 01:42:08.42	157.85	42.20	-52.5	-54.2	19.0	6.04e-01	0	36	0	223346688	73	4476
2026-01-01 01:42:09.42	158.22	41.94	-52.4	-54.1	19.1	6.00e-01	0	36	0	225443840	73	4433
2026-01-01 01:42:10.41	158.57	41.68	-52.5	-54.2	19.1	6.02e-01	0	36	0	227016704	73	4467
2026-01-01 01:42:11.41	158.93	41.43	-52.6	-54.3	19.1	6.04e-01	0	36	0	229113856	73	4503
2026-01-01 01:42:12.40	159.28	41.17	-52.7	-54.4	19.0	6.03e-01	0	36	0	230686720	73	4593
2026-01-01 01:42:13.41	159.62	40.91	-52.7	-54.4	19.0	6.03e-01	0	36	0	232783872	73	4582
2026-01-01 01:42:14.42	159.97	40.65	-52.8	-54.5	19.0	6.01e-01	0	36	0	234356736	73	4623
2026-01-01 01:42:15.41	160.30	40.40	-52.8	-54.5	19.0	6.01e-01	0	36	0	236453888	73	4638
2026-01-01 01:42:16.42	160.63	40.15	-52.8	-54.6	19.0	6.02e-01	0	36	0	238551040	73	4661
2026-01-01 01:42:17.42	160.95	39.89	-52.8	-54.5	19.0	6.01e-01	0	36	0	240123904	73	4639
2026-01-01 01:42:18.41	161.27	39.64	-52.7	-54.4	19.0	6.03e-01	0	36	0	242221056	73	4592
2026-01-01 01:42:19.41	161.58	39.39	-52.6	-54.4	19.1	6.00e-01	0	36	0	243793920	73	4552
2026-01-01 01:42:20.40	161.88	39.15	-52.7	-54.4	19.1	5.99e-01	0	36	0	245891072	73	4588
2026-01-01 01:42:21.40	162.19	38.90	-52.5	-54.2	19.0	6.01e-01	0	36	0	247463936	73	4476
2026-01-01 01:42:22.39	162.48	38.65	-52.7	-54.4	19.1	6.04e-01	0	36	0	249561088	73	4583
2026-01-01 01:42:23.39	162.78	38.40	-52.8	-54.6	19.0	6.03e-01	0	36	0	251658240	73	4698
2026-01-01 01:42:24.39	163.07	38.16	-52.7	-54.4	19.1	6.00e-01	0	36	0	253231104	73	4570
2026-01-01 01:42:25.39	163.36	37.91	-52.5	-54.2	19.1	5.99e-01	0	36	0	255328256	73	4488
2026-01-01 01:42:26.39	163.64	37.67	-52.4	-54.1	19.1	6.00e-01	0	36	0	256901120	73	4426
2026-01-01 01:42:27.39	163.91	37.43	-52.2	-53.8	19.2	6.02e-01	0	36	0	258998272	73	4280
2026-01-01 01:42:28.38	164.19	37.19	-52.0	-53.6	19.2	6.02e-01	0	36	0	260571136	73	4192
2026-01-01 01:42:29.38	164.45	36.95	-52.1	-53.7	19.2	6.01e-01	0	36	0	262668288	73	4235
2026-01-01 01:42:30.37	164.72	36.71	-52.0	-53.7	19.1	6.00e-01	0	36	0	264241152	73	4211
2026-01-01 01:42:31.37	164.98	36.48	-52.1	-53.8	19.2	6.00e-01	0	36	0	266338304	73	4258
2026-01-01 01:42:32.38	165.24	36.24	-52.0	-53.7	19.2	6.04e-01	0	36	0	268435456	73	4200
2026-01-01 01:42:33.37	165.49	36.00	-52.0	-53.6	19.2	6.01e-01	0	36	0	270008320	73	4175
2026-01-01 01:42:34.37	165.74	35.77	-51.9	-53.5	19.2	6.03e-01	0	36	0	272105472	73	4131
2026-01-01 01:42:35.36	165.99	35.54	-51.8	-53.4	19.3	6.02e-01	0	36	0	273678336	72	4328
2026-01-01 01:42:36.36	166.23	35.31	-51.8	-53.4	19.2	6.02e-01	0	36	0	275775488	72	4331
2026-01-01 01:42:37.35	166.47	35.08	-51.8	-53.4	19.3	6.02e-01	0	36	0	277348352	72	4305
2026-01-01 01:42:38.35	166.70	34.85	-51.6	-53.2	19.3	5.99e-01	0	36	0	279445504	72	4224
2026-01-01 01:42:39.35	166.94	34.62	-51.5	-53.1	19.4	6.01e-01	0	36	0	281542656	72	4164
2026-01-01 01:42:40.35	167.17	34.40	-51.4	-52.9	19.4	6.01e-01	0	36	0	283115520	71	4325
2026-01-01 01:42:41.35	167.39	34.17	-51.2	-52.7	19.4	5.99e-01	0	36	0	285212672	71	4229
2026-01-01 01:42:42.35	167.62	33.95	-51.2	-52.7	19.4	6.00e-01	0	36	0	286785536	71	4213
2026-01-01 01:42:43.34	167.84	33.73	-51.1	-52.6	19.5	6.00e-01	0	36	0	288882688	71	4158
2026-01-01 01:42:44.34	168.05	33.50	-51.0	-52.5	19.5	6.02e-01	0	36	0	290455552	71	4111
2026-01-01 01:42:45.34	168.27	33.28	-51.0	-52.5	19.4	6.01e-01	0	36	0	292552704	71	4134
2026-01-01 01:42:46.33	168.48	33.07	-51.0	-52.5	19.5	6.01e-01	0	36	0	294649856	71	4127
2026-01-01 01:42:47.33	168.69	32.85	-50.9	-52.4	19.5	6.03e-01	0	36	0	296222720	71	4082
2026-01-01 01:42:48.32	168.89	32.63	-50.9	-52.4	19.5	5.99e-01	0	36	0	298319872	70	4294
2026-01-01 01:42:49.32	169.10	32.42	-50.8	-52.3	19.5	6.03e-01	0	36	0	299892736	70	4288
2026-01-01 01:42:50.33	169.30	32.20	-50.9	-52.4	19.5	6.06e-01	0	36	0	301989888	70	4329
2026-01-01 01:42:51.33	169.50	31.99	-50.9	-52.5	19.5	6.00e-01	0	36	0	304087040	70	4351
2026-01-01 01:42:52.33	169.69	31.78	-51.0	-52.6	19.4	6.04e-01	0	36	0	305659904	70	4403
2026-01-01 01:42:53.33	169.89	31.57	-51.1	-52.6	19.4	6.03e-01	0	36	0	307757056	70	4411
2026-01-01 01:42:54.33	170.08	31.36	-51.0	-52.6	19.4	6.00e-01	0	36	0	309329920	70	4396
2026-01-01 01:42:55.33	170.27	31.15	-50.9	-52.5	19.4	6.03e-01	0	36	0	311427072	70	4345
2026-01-01 01:42:56.32	170.45	30.95	-50.9	-52.5	19.4	5.99e-01	0	36	0	312999936	70	4346
2026-01-01 01:42:57.32	170.63	30.74	-50.8	-52.3	19.5	6.02e-01	0	36	0	315097088	70	4253
2026-01-01 01:42:58.31	170.81	30.54	-50.9	-52.4	19.4	6.03e-01	0	36	0	316669952	70	4308
2026-01-01 01:42:59.32	170.99	30.34	-50.9	-52.4	19.5	6.02e-01	0	36	0	318767104	70	4294
2026-01-01 01:43:00.32	171.17	30.14	-50.9	-52.4	19.5	6.03e-01	0	36	0	320864256	70	4303
2026-01-01 01:43:01.32	171.34	29.93	-50.9	-52.4	19.4	6.02e-01	0	36	0	322437120	70	4336
2026-01-01 01:43:02.32	171.52	29.74	-51.0	-52.5	19.4	5.99e-01	0	36	0	324534272	70	4370
2026-01-01 01:43:03.31	171.68	29.54	-51.0	-52.6	19.4	6.01e-01	0	36	0	326107136	70	4398
2026-01-01 01:43:04.31	171.85	29.34	-51.1	-52.7	19.4	6.02e-01	0	36	0	328204288	70	4452
2026-01-01 01:43:05.31	172.02	29.15	-51.2	-52.8	19.4	6.03e-01	0	36	0	329777152	70	4495
2026-01-01 01:43:06.31	172.18	28.95	-51.2	-52.8	19.4	6.04e-01	0	36	0	331874304	70	4504
2026-01-01 01:43:07.30	172.34	28.76	-51.2	-52.8	19.3	6.01e-01	0	36	0	333971456	70	4528
2026-01-01 01:43:08.30	172.50	28.57	-51.2	-52.8	19.3	6.02e-01	0	36	0	335544320	70	4502
2026-01-01 01:43:09.30	172.66	28.38	-51.3	-52.9	19.3	6.00e-01	0	36	0	337641472	70	4571
2026-01-01 01:43:10.30	172.82	28.19	-51.4	-53.0	19.3	6.01e-01	0	36	0	339214336	70	4617
2026-01-01 01:43:11.30	172.97	28.00	-51.4	-52.9	19.4	5.99e-01	0	36	0	341311488	70	4584
2026-01-01 01:43:12.31	173.13	27.81	-51.3	-52.9	19.4	6.01e-01	0	36	0	342884352	70	4558
2026-01-01 01:43:13.31	173.28	27.63	-51.3	-52.8	19.4	6.01e-01	0	36	0	344981504	70	4536
2026-01-01 01:43:14.30	173.43	27.44	-51.2	-52.8	19.4	6.01e-01	0	36	0	347078656	70	4502
2026-01-01 01:43:15.29	173.57	27.26	-51.3	-52.8	19.4	6.02e-01	0	36	0	348651520	70	4544
2026-01-01 01:43:16.29	173.72	27.08	-51.2	-52.8	19.4	6.03e-01	0	36	0	350748672	70	4517
2026-01-01 01:43:17.29	173.86	26.90	-51.3	-52.8	19.3	6.02e-01	0	36	0	352321536	70	4543
2026-01-01 01:43:18.28	174.00	26.72	-51.3	-52.9	19.4	6.04e-01	0	36	0	354418688	70	4572
2026-01-01 01:43:19.28	174.14	26.54	-51.5	-53.1	19.3	6.02e-01	0	36	0	355991552	70	4663
2026-01-01 01:43:20.28	174.28	26.36	-51.5	-53.1	19.3	6.02e-01	0	36	0	358088704	70	4686
2026-01-01 01:43:21.28	174.42	26.19	-51.6	-53.2	19.3	6.01e-01	0	36	0	360185856	70	4734
2026-01-01 01:43:22.27	174.56	26.01	-51.6	-53.3	19.3	6.03e-01	0	36	0	361758720	71	4499
2026-01-01 01:43:23.27	174.69	25.84	-51.7	-53.3	19.3	6.03e-01	0	36	0	363855872	71	4526
2026-01-01 01:43:24.26	174.82	25.67	-51.7	-53.3	19.2	5.99e-01	0	36	0	365428736	71	4524
2026-01-01 01:43:25.25	174.95	25.49	-51.7	-53.3	19.3	6.04e-01	0	36	0	367525888	71	4542
2026-01-01 01:43:26.25	175.08	25.32	-51.7	-53.4	19.2	6.03e-01	0	36	0	369098752	71	4546
2026-01-01 01:43:27.24	175.21	25.15	-51.8	-53.4	19.2	6.02e-01	0	36	0	371195904	71	4589
2026-01-01 01:43:28.24	175.34	24.98	-51.8	-53.5	19.1	5.99e-01	0	36	0	372768768	71	4607
2026-01-01 01:43:29.24	175.47	24.82	-51.9	-53.6	19.1	6.02e-01	0	36	0	374865920	71	4657
2026-01-01 01:43:30.23	175.59	24.65	-51.9	-53.6	19.2	6.02e-01	0	36	0	376963072	71	4665
2026-01-01 01:43:31.23	175.71	24.48	-52.0	-53.7	19.1	6.01e-01	0	36	0	378535936	71	4724
2026-01-01 01:43:32.22	175.83	24.32	-52.0	-53.7	19.1	6.01e-01	0	36	0	380633088	71	4739
2026-01-01 01:43:33.23	175.96	24.15	-52.1	-53.7	19.1	6.03e-01	0	36	0	382205952	71	4758
2026-01-01 01:43:34.22	176.07	23.99	-51.9	-53.6	19.2	6.01e-01	0	36	0	384303104	71	4672
2026-01-01 01:43:35.22	176.19	23.83	-52.0	-53.7	19.2	6.02e-01	0	36	0	385875968	71	4709
2026-01-01 01:43:36.22	176.31	23.67	-51.9	-53.5	19.2	6.01e-01	0	36	0	387973120	71	4636
2026-01-01 01:43:37.22	176.43	23.51	-51.8	-53.5	19.1	5.99e-01	0	36	0	390070272	71	4610
2026-01-01 01:43:38.21	176.54	23.35	-51.9	-53.5	19.2	6.02e-01	0	36	0	391643136	71	4640
2026-01-01 01:43:39.21	176.65	23.19	-51.8	-53.4	19.2	6.02e-01	0	36	0	393740288	71	4571
2026-01-01 01:43:40.20	176.77	23.03	-51.7	-53.4	19.2	5.98e-01	0	36	0	395313152	71	4557
2026-01-01 01:43:41.19	176.88	22.88	-51.7	-53.3	19.3	6.02e-01	0	36	0	397410304	71	4526
2026-01-01 01:43:42.18	176.98	22.72	-51.6	-53.2	19.3	6.00e-01	0	36	0	398983168	71	4468
2026-01-01 01:43:43.18	177.09	22.57	-51.6	-53.2	19.2	6.04e-01	0	36	0	401080320	71	4475
2026-01-01 01:43:44.18	177.20	22.42	-51.6	-53.2	19.2	6.01e-01	0	36	0	403177472	71	4481
2026-01-01 01:43:45.17	177.31	22.26	-51.6	-53.2	19.2	6.02e-01	0	36	0	404750336	71	4483
2026-01-01 01:43:46.17	177.41	22.11	-51.7	-53.3	19.2	6.03e-01	0	36	0	406847488	71	4517
2026-01-01 01:43:47.17	177.52	21.96	-51.7	-53.3	19.2	6.00e-01	0	36	0	408420352	71	4519
2026-01-01 01:43:48.16	177.62	21.81	-51.7	-53.3	19.2	6.01e-01	0	36	0	410517504	71	4527
2026-01-01 01:43:49.16	177.73	21.66	-51.7	-53.3	19.2	6.03e-01	0	36	0	412090368	71	4541
2026-01-01 01:43:50.15	177.83	21.51	-51.7	-53.3	19.2	6.03e-01	0	36	0	414187520	71	4543
2026-01-01 01:43:51.14	177.93	21.37	-51.7	-53.3	19.2	6.02e-01	0	36	0	415760384	71	4539
2026-01-01 01:43:52.15	178.03	21.22	-51.7	-53.3	19.2	6.00e-01	0	36	0	417857536	71	4528
2026-01-01 01:43:53.15	178.13	21.07	-51.7	-53.3	19.2	6.05e-01	0	36	0	419954688	71	4533
2026-01-01 01:43:54.15	178.23	20.93	-51.7	-53.3	19.1	6.00e-01	0	36	0	421527552	71	4532
2026-01-01 01:43:55.15	178.32	20.78	-51.7	-53.3	19.2	6.02e-01	0	36	0	423624704	71	4530
2026-01-01 01:43:56.15	178.42	20.64	-51.7	-53.3	19.2	6.01e-01	0	36	0	425197568	71	4544
2026-01-01 01:43:57.14	178.51	20.50	-51.7	-53.4	19.1	6.00e-01	0	36	0	427294720	71	4546
2026-01-01 01:43:58.14	178.61	20.36	-51.8	-53.4	19.2	5.99e-01	0	36	0	428867584	71	4592
2026-01-01 01:43:59.13	178.70	20.22	-51.8	-53.4	19.1	6.01e-01	0	36	0	430964736	71	4583
2026-01-01 01:44:00.13	178.79	20.08	-51.7	-53.4	19.2	5.99e-01	0	36	0	433061888	71	4562
2026-01-01 01:44:01.13	178.89	19.94	-51.8	-53.4	19.1	6.00e-01	0	36	0	434634752	71	4592
2026-01-01 01:44:02.13	178.98	19.80	-51.6	-53.3	19.2	6.01e-01	0	36	0	436731904	71	4507
2026-01-01 01:44:03.13	179.07	19.66	-51.7	-53.3	19.2	6.01e-01	0	36	0	438304768	71	4529
2026-01-01 01:44:04.13	179.16	19.52	-51.5	-53.2	19.2	6.01e-01	0	36	0	440401920	71	4447
2026-01-01 01:44:05.13	179.25	19.39	-51.5	-53.2	19.2	6.03e-01	0	36	0	441974784	71	4449
2026-01-01 01:44:06.13	179.33	19.25	-51.5	-53.2	19.2	6.01e-01	0	36	0	444071936	71	4443
2026-01-01 01:44:07.13	179.42	19.12	-51.6	-53.3	19.2	6.02e-01	0	36	0	446169088	71	4502
2026-01-01 01:44:08.13	179.51	18.98	-51.7	-53.3	19.2	6.04e-01	0	36	0	447741952	71	4536
2026-01-01 01:44:09.12	179.59	18.85	-51.6	-53.2	19.2	6.00e-01	0	36	0	449839104	71	4478
2026-01-01 01:44:10.12	179.68	18.72	-51.6	-53.3	19.2	5.99e-01	0	36	0	451411968	71	4497
2026-01-01 01:44:11.12	179.76	18.58	-51.5	-53.1	19.2	6.03e-01	0	36	0	453509120	71	4437
2026-01-01 01:44:12.13	179.85	18.45	-51.4	-53.1	19.2	6.03e-01	0	36	0	455081984	71	4392
2026-01-01 01:44:13.13	179.93	18.32	-51.5	-53.2	19.2	6.00e-01	0	36	0	457179136	71	4446
2026-01-01 01:44:14.13	180.01	18.19	-51.4	-53.1	19.2	6.01e-01	0	36	0	459276288	71	4398
2026-01-01 01:44:15.14	180.09	18.06	-51.4	-53.0	19.3	6.02e-01	0	36	0	460849152	71	4349
2026-01-01 01:44:16.14	180.17	17.93	-51.4	-53.0	19.3	6.01e-01	0	36	0	462946304	71	4365
2026-01-01 01:44:17.14	180.25	17.80	-51.4	-53.0	19.3	6.02e-01	0	35	0	464519168	71	4373
2026-01-01 01:44:18.14	180.33	17.68	-51.4	-53.0	19.3	6.01e-01	0	36	0	466616320	71	4353
2026-01-01 01:44:19.14	180.41	17.55	-51.4	-53.0	19.3	6.01e-01	0	36	0	468713472	71	4365
2026-01-01 01:44:20.14	180.49	17.42	-51.4	-53.0	19.2	5.99e-01	0	36	0	470286336	71	4370
2026-01-01 01:44:21.14	180.57	17.30	-51.2	-52.8	19.3	6.03e-01	0	36	0	472383488	71	4285
2026-01-01 01:44:22.15	180.64	17.17	-51.3	-52.9	19.3	6.02e-01	0	36	0	473956352	71	4294
2026-01-01 01:44:23.16	180.72	17.05	-51.3	-52.8	19.3	6.02e-01	0	36	0	476053504	71	4288
2026-01-01 01:44:24.16	180.79	16.93	-51.3	-52.8	19.3	6.02e-01	0	36	0	477626368	71	4290
2026-01-01 01:44:25.16	180.87	16.80	-51.2	-52.8	19.3	6.00e-01	0	36	0	479723520	71	4260
2026-01-01 01:44:26.16	180.94	16.68	-51.3	-52.9	19.2	5.99e-01	0	36	0	481820672	71	4300
2026-01-01 01:44:27.16	181.02	16.56	-51.2	-52.8	19.3	6.02e-01	0	36	0	483393536	71	4266
2026-01-01 01:44:28.15	181.09	16.44	-51.3	-52.9	19.3	6.02e-01	0	36	0	485490688	71	4317
2026-01-01 01:44:29.15	181.16	16.32	-51.2	-52.8	19.3	6.01e-01	0	36	0	487063552	71	4288
2026-01-01 01:44:30.14	181.23	16.20	-51.3	-52.9	19.3	6.03e-01	0	36	0	489160704	71	4300
2026-01-01 01:44:31.13	181.30	16.08	-51.3	-52.9	19.2	6.04e-01	0	36	0	490733568	71	4294
2026-01-01 01:44:32.13	181.37	15.97	-51.3	-52.9	19.3	6.01e-01	0	36	0	492830720	71	4306
2026-01-01 01:44:33.13	181.44	15.85	-51.4	-53.0	19.2	6.03e-01	0	36	0	494927872	71	4356
2026-01-01 01:44:34.13	181.51	15.73	-51.4	-53.0	19.3	6.02e-01	0	36	0	496500736	71	4360
2026-01-01 01:44:35.13	181.58	15.61	-51.4	-53.0	19.2	6.00e-01	0	36	0	498597888	71	4369
2026-01-01 01:44:36.12	181.65	15.50	-51.4	-53.0	19.2	6.00e-01	0	36	0	500170752	71	4363
2026-01-01 01:44:37.12	181.72	15.38	-51.4	-53.0	19.2	6.00e-01	0	36	0	502267904	71	4346
2026-01-01 01:44:38.12	181.79	15.27	-51.4	-53.0	19.2	6.00e-01	0	36	0	503840768	71	4364
2026-01-01 01:44:39.11	181.85	15.16	-51.4	-53.0	19.3	6.02e-01	0	36	0	505937920	71	4371
2026-01-01 01:44:40.10	181.92	15.04	-51.3	-52.9	19.3	6.03e-01	0	36	0	507510784	71	4317
2026-01-01 01:44:41.10	181.98	14.93	-51.4	-53.1	19.2	6.00e-01	0	36	0	509607936	71	4402
2026-01-01 01:44:42.10	182.05	14.82	-51.4	-53.0	19.3	5.99e-01	0	36	0	511705088	71	4361
2026-01-01 01:44:43.09	182.11	14.71	-51.3	-53.0	19.3	6.03e-01	0	36	0	513277952	71	4345
2026-01-01 01:44:44.09	182.18	14.60	-51.3	-52.9	19.3	6.00e-01	0	36	0	515375104	71	4326
2026-01-01 01:44:45.09	182.24	14.48	-51.4	-53.1	19.3	6.03e-01	0	36	0	516947968	71	4398
2026-01-01 01:44:46.08	182.31	14.38	-51.3	-52.9	19.3	6.01e-01	0	36	0	519045120	71	4302
2026-01-01 01:44:47.08	182.37	14.27	-51.3	-52.9	19.3	6.01e-01	0	36	0	520617984	71	4322
2026-01-01 01:44:48.08	182.43	14.16	-51.4	-53.0	19.3	6.00e-01	0	36	0	522715136	71	4370
2026-01-01 01:44:49.08	182.49	14.05	-51.4	-53.0	19.2	6.06e-01	0	36	0	524812288	71	4380
2026-01-01 01:44:50.08	182.55	13.94	-51.4	-53.0	19.3	6.04e-01	0	36	0	526385152	71	4360
2026-01-01 01:44:51.07	182.62	13.83	-51.4	-53.0	19.3	6.01e-01	0	36	0	528482304	71	4375
2026-01-01 01:44:52.06	182.68	13.73	-51.3	-53.0	19.3	6.03e-01	0	36	0	530055168	71	4351
2026-01-01 01:44:53.06	182.74	13.62	-51.4	-53.1	19.3	6.02e-01	0	36	0	532152320	71	4393
2026-01-01 01:44:54.06	182.80	13.51	-51.4	-53.0	19.3	6.03e-01	0	36	0	533725184	71	4366
2026-01-01 01:44:55.06	182.86	13.41	-51.4	-53.0	19.3	6.03e-01	0	36	0	535822336	71	4388
2026-01-01 01:44:56.06	182.91	13.30	-51.4	-53.0	19.2	6.01e-01	0	36	0	537395200	71	4360
2026-01-01 01:44:57.06	182.97	13.20	-51.4	-53.1	19.2	6.03e-01	0	36	0	539492352	71	4405
2026-01-01 01:44:58.05	183.03	13.09	-51.4	-53.0	19.2	6.01e-01	0	36	0	541589504	71	4381
2026-01-01 01:44:59.06	183.09	12.99	-51.4	-53.1	19.2	6.01e-01	0	36	0	543162368	71	4394
2026-01-01 01:45:00.05	183.15	12.88	-51.5	-53.1	19.2	6.03e-01	0	36	0	545259520	71	4441
2026-01-01 01:45:01.05	183.20	12.78	-51.5	-53.1	19.2	6.00e-01	0	36	0	546832384	71	4421
2026-01-01 01:45:02.05	183.26	12.68	-51.5	-53.2	19.2	6.02e-01	0	36	0	548929536	71	4448
2026-01-01 01:45:03.05	183.32	12.58	-51.5	-53.1	19.2	6.01e-01	0	36	0	551026688	71	4436
2026-01-01 01:45:04.05	183.37	12.48	-51.6	-53.2	19.2	6.02e-01	0	36	0	552599552	71	4482
2026-01-01 01:45:05.05	183.43	12.37	-51.6	-53.3	19.2	6.02e-01	0	36	0	554696704	71	4534
2026-01-01 01:45:06.05	183.48	12.27	-51.6	-53.3	19.2	6.02e-01	0	36	0	556269568	71	4501
2026-01-01 01:45:07.05	183.54	12.17	-51.6	-53.3	19.2	6.00e-01	0	36	0	558366720	71	4526
2026-01-01 01:45:08.05	183.59	12.07	-51.7	-53.4	19.1	6.01e-01	0	36	0	559939584	71	4555
2026-01-01 01:45:09.04	183.64	11.97	-51.7	-53.4	19.1	6.01e-01	0	36	0	562036736	71	4549
2026-01-01 01:45:10.03	183.70	11.88	-51.7	-53.4	19.2	6.01e-01	0	36	0	564133888	71	4549
2026-01-01 01:45:11.03	183.75	11.78	-51.7	-53.4	19.2	6.02e-01	0	36	0	565706752	71	4552
2026-01-01 01:45:12.02	183.80	11.68	-51.7	-53.4	19.1	5.98e-01	0	36	0	567803904	71	4581
2026-01-01 01:45:13.02	183.86	11.58	-51.8	-53.5	19.1	6.01e-01	0	36	0	569376768	71	4603
2026-01-01 01:45:14.01	183.91	11.49	-51.8	-53.5	19.1	6.02e-01	0	36	0	571473920	71	4650
2026-01-01 01:45:15.01	183.96	11.39	-51.8	-53.5	19.1	5.99e-01	0	36	0	573046784	71	4632
2026-01-01 01:45:16.01	184.01	11.29	-51.8	-53.5	19.0	6.00e-01	0	36	0	575143936	71	4644
2026-01-01 01:45:17.00	184.06	11.20	-51.9	-53.6	19.1	6.00e-01	0	36	0	576716800	71	4671
2026-01-01 01:45:18.00	184.11	11.10	-51.9	-53.6	19.0	6.01e-01	0	36	0	578813952	71	4703
2026-01-01 01:45:19.00	184.16	11.01	-51.8	-53.5	19.1	6.03e-01	0	36	0	580911104	71	4640
2026-01-01 01:45:19.99	184.21	10.91	-51.8	-53.6	19.1	6.02e-01	0	36	0	582483968	71	4653
2026-01-01 01:45:20.99	184.26	10.82	-51.8	-53.6	19.1	6.01e-01	0	36	0	584581120	71	4665
2026-01-01 01:45:21.99	184.31	10.72	-51.9	-53.7	19.0	6.03e-01	0	36	0	586153984	71	4719
2026-01-01 01:45:22.99	184.36	10.63	-52.0	-53.7	19.0	6.02e-01	0	36	0	588251136	71	4743
2026-01-01 01:45:23.98	184.41	10.54	-51.9	-53.6	19.0	5.97e-01	0	36	0	589824000	71	4676
2026-01-01 01:45:24.98	184.46	10.44	-51.9	-53.7	19.0	5.99e-01	0	36	0	591921152	71	4721
2026-01-01 01:45:25.98	184.51	10.35	-52.0	-53.8	19.0	6.00e-01	0	36	0	594018304	71	4777
2026-01-01 01:45:26.98	184.55	10.26	-51.9	-53.6	19.0	6.02e-01	0	36	0	595591168	71	4697
2026-01-01 01:45:27.98	184.60	10.17	-52.0	-53.7	19.1	6.01e-01	0	36	0	597688320	71	4745
2026-01-01 01:45:28.99	184.65	10.07	-51.9	-53.6	19.1	6.03e-01	0	36	0	599261184	71	4694
2026-01-01 01:45:30.00	184.70	9.98	-51.9	-53.6	19.1	6.03e-01	0	36	0	601358336	71	4695
2026-01-01 01:45:30.99	184.74	9.89	-51.9	-53.7	19.1	6.00e-01	0	36	0	602931200	71	4719
2026-01-01 01:45:31.99	184.79	9.80	-52.0	-53.8	19.0	6.01e-01	0	36	0	605028352	71	4782
2026-01-01 01:45:32.99	184.84	9.71	-51.9	-53.7	19.0	6.02e-01	0	36	0	607125504	71	4736
2026-01-01 01:45:33.99	184.88	9.62	-52.0	-53.7	19.0	6.01e-01	0	36	0	608698368	71	4752
2026-01-01 01:45:34.99	184.93	9.53	-52.0	-53.7	19.0	6.02e-01	0	36	0	610795520	71	4755
2026-01-01 01:45:35.99	184.97	9.44	-52.0	-53.8	19.0	6.00e-01	0	36	0	612368384	71	4774
2026-01-01 01:45:36.99	185.02	9.35	-52.0	-53.8	19.0	6.01e-01	0	36	0	614465536	71	4782
2026-01-01 01:45:38.00	185.06	9.27	-52.1	-53.9	19.0	6.02e-01	0	36	0	616562688	71	4841
2026-01-01 01:45:39.00	185.11	9.18	-52.1	-53.9	19.0	6.02e-01	0	36	0	618135552	72	4566
2026-01-01 01:45:40.00	185.15	9.09	-52.1	-53.9	18.9	5.98e-01	0	36	0	620232704	72	4590
2026-01-01 01:45:41.00	185.20	9.00	-52.1	-53.9	18.9	6.03e-01	0	36	0	621805568	72	4596
2026-01-01 01:45:42.01	185.24	8.91	-52.2	-54.1	18.9	6.02e-01	0	36	0	623902720	72	4654
2026-01-01 01:45:43.01	185.29	8.83	-52.2	-54.0	18.9	6.05e-01	0	36	0	625475584	72	4633
2026-01-01 01:45:44.01	185.33	8.74	-52.3	-54.1	18.9	6.02e-01	0	36	0	627572736	72	4673
2026-01-01 01:45:45.01	185.37	8.65	-52.2	-54.1	18.9	6.02e-01	0	36	0	629669888	72	4665
2026-01-01 01:45:46.01	185.41	8.57	-52.3	-54.1	18.9	6.03e-01	0	36	0	631242752	72	4699
2026-01-01 01:45:47.01	185.46	8.48	-52.3	-54.1	18.9	6.01e-01	0	36	0	633339904	72	4683
2026-01-01 01:45:48.02	185.50	8.40	-52.3	-54.2	18.8	6.00e-01	0	36	0	634912768	72	4725
2026-01-01 01:45:49.02	185.54	8.31	-52.4	-54.3	18.8	6.02e-01	0	36	0	637009920	72	4796
2026-01-01 01:45:50.01	185.58	8.23	-52.4	-54.3	18.8	6.02e-01	0	36	0	638582784	72	4760
2026-01-01 01:45:51.01	185.62	8.14	-52.5	-54.4	18.7	6.01e-01	0	36	0	640679936	72	4817
2026-01-01 01:45:52.00	185.67	8.06	-52.5	-54.4	18.8	6.02e-01	0	36	0	642777088	72	4823
2026-01-01 01:45:53.00	185.71	7.98	-52.5	-54.4	18.8	6.01e-01	0	36	0	644349952	72	4830
2026-01-01 01:45:53.99	185.75	7.90	-52.4	-54.3	18.8	6.04e-01	0	36	0	646447104	72	4802
2026-01-01 01:45:55.00	185.79	7.81	-52.5	-54.4	18.7	6.02e-01	0	36	0	648019968	72	4834
2026-01-01 01:45:56.00	185.83	7.73	-52.5	-54.5	18.7	6.01e-01	0	36	0	650117120	72	4871
2026-01-01 01:45:57.00	185.87	7.65	-52.5	-54.4	18.7	6.03e-01	0	36	0	651689984	72	4868
2026-01-01 01:45:58.00	185.91	7.56	-52.6	-54.5	18.7	6.01e-01	0	36	0	653787136	72	4886
2026-01-01 01:45:59.00	185.95	7.48	-52.6	-54.5	18.8	6.02e-01	0	36	0	655884288	72	4888
2026-01-01 01:46:00.00	185.99	7.40	-52.6	-54.5	18.7	6.01e-01	0	36	0	657457152	72	4916
2026-01-01 01:46:01.00	186.03	7.32	-52.6	-54.6	18.7	6.02e-01	0	36	0	659554304	73	4657
2026-01-01 01:46:01.99	186.07	7.24	-52.7	-54.6	18.7	6.02e-01	0	36	0	661127168	73	4686
2026-01-01 01:46:03.00	186.11	7.16	-52.6	-54.6	18.7	6.02e-01	0	36	0	663224320	73	4653
2026-01-01 01:46:04.00	186.14	7.08	-52.7	-54.7	18.7	6.01e-01	0	36	0	664797184	73	4720
2026-01-01 01:46:04.99	186.18	7.00	-52.7	-54.7	18.7	6.03e-01	0	36	0	666894336	73	4717
2026-01-01 01:46:05.99	186.22	6.92	-52.7	-54.7	18.7	6.02e-01	0	36	0	668991488	73	4736
2026-01-01 01:46:06.99	186.26	6.84	-52.8	-54.8	18.6	6.02e-01	0	36	0	670564352	73	4784
2026-01-01 01:46:08.00	186.30	6.76	-52.6	-54.6	18.7	5.99e-01	0	36	0	672661504	73	4666
2026-01-01 01:46:09.00	186.33	6.68	-52.8	-54.7	18.6	6.03e-01	0	36	0	674234368	73	4752
2026-01-01 01:46:09.99	186.37	6.60	-52.7	-54.7	18.6	6.02e-01	0	36	0	676331520	73	4746
2026-01-01 01:46:11.00	186.41	6.52	-52.8	-54.8	18.6	5.99e-01	0	36	0	678428672	73	4811
2026-01-01 01:46:12.00	186.45	6.44	-52.8	-54.8	18.6	6.01e-01	0	36	0	680001536	73	4784
2026-01-01 01:46:13.00	186.48	6.36	-52.9	-54.9	18.6	6.01e-01	0	36	0	682098688	73	4832
2026-01-01 01:46:13.99	186.52	6.29	-52.9	-54.9	18.6	6.04e-01	0	36	0	683671552	73	4862
2026-01-01 01:46:14.99	186.56	6.21	-52.9	-54.9	18.5	6.02e-01	0	36	0	685768704	73	4854
2026-01-01 01:46:15.99	186.59	6.13	-52.9	-54.9	18.5	6.00e-01	0	36	0	687341568	73	4861
2026-01-01 01:46:16.99	186.63	6.05	-52.9	-55.0	18.5	6.01e-01	0	36	0	689438720	73	4880
2026-01-01 01:46:17.98	186.66	5.98	-53.0	-55.1	18.5	6.02e-01	0	36	0	691535872	73	4931
2026-01-01 01:46:18.99	186.70	5.90	-52.9	-55.0	18.5	6.02e-01	0	36	0	693108736	73	4896
2026-01-01 01:46:19.99	186.74	5.82	-53.1	-55.2	18.4	6.01e-01	0	36	0	695205888	73	4987
2026-01-01 01:46:20.99	186.77	5.75	-53.0	-55.1	18.5	6.03e-01	0	36	0	696778752	73	4958
2026-01-01 01:46:21.98	186.81	5.67	-53.1	-55.1	18.5	6.03e-01	0	36	0	698875904	73	4981
