passes_logs/2026/01/01/R3.2S_Murmansk/R3.2S_Murmansk__20260101_031521_FENGYUN_3D_rec.log

#Pass ID: 20260101_031521_FENGYUN 3D
#Satellite: FENGYUN 3D
#Configuration: FENGYUN 3D
#almurnet v.1.7.20251203
#Start time: 2026-01-01 03:15:23

#Version: 2.2.20231116
#Station: R3.2S_Murmansk
#Location: 33.079688 lon 68.888172 lat
#TLE: 1 43010U 17072A   25365.62623336  .00000074  00000+0  56776-4 0  9992
#TLE: 2 43010  98.9911 332.2217 0001845 134.7096 225.4230 14.19689678421212

#Time	Az	El	Level	Level2	SNR	BER	BlckErr	Temp	State	Recorded	gain1	gain2
2026-01-01 03:15:23.56	27.23	2.14	-59.8	-72.8	3.8	8.46e-01	0	33	0	0	86	15483
2026-01-01 03:15:24.56	27.22	2.21	-59.8	-72.8	3.8	8.46e-01	0	33	104	0	84	17303
2026-01-01 03:15:25.56	27.22	2.27	-59.8	-72.8	3.8	8.45e-01	0	33	104	0	84	17298
2026-01-01 03:15:26.56	27.21	2.34	-59.8	-72.8	3.8	8.47e-01	0	33	104	0	84	17312
2026-01-01 03:15:27.56	27.20	2.40	-59.8	-72.7	3.8	8.45e-01	0	33	104	0	84	17173
2026-01-01 03:15:28.56	27.19	2.46	-59.8	-72.7	3.8	8.46e-01	0	33	104	0	84	17213
2026-01-01 03:15:29.57	27.18	2.53	-59.8	-72.7	3.8	8.45e-01	0	33	104	0	84	17128
2026-01-01 03:15:30.57	27.17	2.59	-59.8	-72.6	3.8	8.46e-01	0	33	104	0	84	17030
2026-01-01 03:15:31.58	27.16	2.66	-59.8	-72.6	3.8	8.46e-01	0	33	104	0	84	16944
2026-01-01 03:15:32.58	27.15	2.73	-59.8	-72.5	3.8	8.46e-01	0	33	104	0	84	16859
2026-01-01 03:15:33.57	27.14	2.79	-59.8	-72.5	3.9	8.46e-01	0	33	104	0	84	16717
2026-01-01 03:15:34.57	27.13	2.86	-59.8	-72.4	3.8	8.47e-01	0	33	104	0	84	16595
2026-01-01 03:15:35.56	27.12	2.92	-59.8	-72.3	3.8	8.46e-01	0	33	104	0	84	16443
2026-01-01 03:15:36.56	27.11	2.99	-59.8	-72.3	3.8	8.45e-01	0	33	104	0	84	16415
2026-01-01 03:15:37.56	27.10	3.05	-59.8	-72.3	3.8	8.45e-01	0	33	104	0	84	16443
2026-01-01 03:15:38.56	27.09	3.12	-59.8	-72.2	3.8	8.46e-01	0	33	104	0	84	16244
2026-01-01 03:15:39.56	27.08	3.19	-59.8	-72.1	3.8	8.46e-01	0	33	104	0	84	16124
2026-01-01 03:15:40.56	27.07	3.25	-59.7	-71.9	3.8	8.46e-01	0	33	104	0	84	15705
2026-01-01 03:15:41.56	27.06	3.32	-59.7	-71.5	3.8	8.45e-01	0	33	104	0	84	14942
2026-01-01 03:15:42.56	27.05	3.39	-59.7	-71.1	3.8	8.46e-01	0	33	104	0	84	14354
2026-01-01 03:15:43.55	27.04	3.45	-59.6	-70.7	3.8	8.46e-01	0	34	104	0	84	13664
2026-01-01 03:15:44.54	27.03	3.52	-59.6	-70.4	4.0	8.42e-01	0	33	104	0	84	13184
2026-01-01 03:15:45.54	27.02	3.59	-59.6	-70.2	3.9	8.43e-01	0	33	104	0	84	12953
2026-01-01 03:15:46.53	27.01	3.65	-59.6	-69.9	4.1	8.43e-01	0	33	104	0	84	12446
2026-01-01 03:15:47.53	27.00	3.72	-59.6	-70.3	4.0	8.43e-01	0	33	104	0	84	13006
2026-01-01 03:15:48.53	26.99	3.79	-59.6	-70.3	3.9	8.44e-01	0	34	104	0	84	13029
2026-01-01 03:15:49.52	26.98	3.85	-59.6	-70.7	3.9	8.45e-01	0	34	104	0	84	13610
2026-01-01 03:15:50.52	26.97	3.92	-59.7	-71.3	3.8	8.45e-01	0	33	104	0	84	14698
2026-01-01 03:15:51.52	26.96	3.99	-59.8	-72.1	3.8	8.46e-01	0	34	104	0	84	16001
2026-01-01 03:15:52.52	26.95	4.06	-59.8	-72.6	3.8	8.47e-01	0	34	104	0	84	16912
2026-01-01 03:15:53.52	26.93	4.13	-59.8	-72.4	3.8	8.46e-01	0	34	104	0	84	16564
2026-01-01 03:15:54.52	26.92	4.20	-59.7	-71.2	3.8	8.46e-01	0	34	104	0	84	14531
2026-01-01 03:15:55.52	26.91	4.27	-59.5	-69.6	4.1	8.43e-01	0	34	104	0	84	11965
2026-01-01 03:15:56.51	26.90	4.33	-59.2	-67.6	4.8	8.07e-01	0	34	0	0	84	9550
2026-01-01 03:15:57.51	26.89	4.40	-58.8	-65.5	6.0	4.50e-01	0	34	0	1048576	84	7518
2026-01-01 03:15:58.52	26.88	4.47	-58.2	-63.6	7.4	1.82e-01	0	34	0	7340032	82	6795
2026-01-01 03:15:59.52	26.87	4.54	-57.5	-62.0	9.0	3.67e-02	0	34	0	12582912	81	5945
2026-01-01 03:16:00.51	26.86	4.61	-56.9	-60.7	10.2	5.84e-03	0	34	0	18874368	80	5417
2026-01-01 03:16:01.51	26.84	4.68	-56.5	-59.8	11.0	1.19e-03	0	34	0	24117248	79	5197
2026-01-01 03:16:02.51	26.83	4.75	-56.1	-59.2	11.6	2.16e-04	0	34	0	29360128	78	5108
2026-01-01 03:16:03.50	26.82	4.82	-55.7	-58.5	12.2	1.01e-04	0	34	0	34603008	77	4985
2026-01-01 03:16:04.50	26.81	4.89	-55.3	-57.9	12.6	1.48e-05	0	34	0	40894464	77	4679
2026-01-01 03:16:05.50	26.80	4.96	-55.0	-57.5	13.0	8.00e-06	0	34	0	46137344	76	4725
2026-01-01 03:16:06.51	26.79	5.04	-54.8	-57.2	13.2	1.10e-06	0	34	0	52428800	76	4555
2026-01-01 03:16:07.52	26.77	5.11	-57.4	-61.4	9.8	1.10e-06	0	34	0	57671680	79	6271
2026-01-01 03:16:08.53	26.76	5.18	-59.3	-66.6	5.5	8.09e-01	0	34	0	58720256	84	8471
2026-01-01 03:16:09.53	26.75	5.25	-54.9	-57.3	13.2	1.31e-02	0	34	0	65011712	76	4629
2026-01-01 03:16:10.53	26.74	5.32	-53.4	-55.3	14.4	1.26e-04	0	34	0	70254592	73	4379
2026-01-01 03:16:11.52	26.72	5.39	-55.3	-57.8	12.9	0.00e+00	0	34	0	75497472	75	5215
2026-01-01 03:16:12.52	26.71	5.47	-54.7	-57.0	13.3	4.97e-02	0	34	0	81788928	76	4473
2026-01-01 03:16:13.52	26.70	5.54	-51.5	-53.0	16.1	0.00e+00	0	34	0	87031808	69	4218
2026-01-01 03:16:14.52	26.69	5.61	-51.4	-52.8	16.1	0.00e+00	0	34	0	92274688	69	4136
2026-01-01 03:16:15.51	26.67	5.68	-51.4	-52.9	16.1	0.00e+00	0	34	0	98566144	69	4182
2026-01-01 03:16:16.52	26.66	5.76	-51.5	-53.0	16.1	0.00e+00	0	34	0	103809024	69	4197
2026-01-01 03:16:17.52	26.65	5.83	-51.4	-52.8	16.2	0.00e+00	0	34	0	110100480	69	4124
2026-01-01 03:16:18.52	26.64	5.90	-51.3	-52.8	16.2	0.00e+00	0	34	0	115343360	69	4124
2026-01-01 03:16:19.52	26.62	5.98	-51.4	-52.9	16.2	0.00e+00	0	34	0	120586240	69	4152
2026-01-01 03:16:20.53	26.61	6.05	-51.2	-52.7	16.3	0.00e+00	0	34	0	126877696	69	4060
2026-01-01 03:16:21.53	26.60	6.12	-51.4	-52.8	16.2	0.00e+00	0	34	0	132120576	69	4120
2026-01-01 03:16:22.51	26.58	6.20	-51.3	-52.7	16.3	0.00e+00	0	34	0	137363456	68	4334
2026-01-01 03:16:23.51	26.57	6.27	-51.4	-52.8	16.2	0.00e+00	0	34	0	142606336	68	4377
2026-01-01 03:16:24.51	26.56	6.35	-51.2	-52.7	16.3	0.00e+00	0	34	0	148897792	68	4293
2026-01-01 03:16:25.52	26.54	6.42	-51.3	-52.8	16.3	0.00e+00	0	34	0	154140672	68	4341
2026-01-01 03:16:26.52	26.53	6.50	-51.2	-52.6	16.4	0.00e+00	0	34	0	160432128	68	4255
2026-01-01 03:16:27.52	26.52	6.57	-51.2	-52.6	16.4	0.00e+00	0	34	0	165675008	68	4262
2026-01-01 03:16:28.52	26.50	6.65	-51.2	-52.6	16.4	0.00e+00	0	34	0	171966464	68	4246
2026-01-01 03:16:29.51	26.49	6.72	-51.2	-52.6	16.4	0.00e+00	0	34	0	177209344	68	4278
2026-01-01 03:16:30.51	26.47	6.80	-51.1	-52.5	16.4	0.00e+00	0	34	0	182452224	68	4242
2026-01-01 03:16:31.51	26.46	6.87	-51.1	-52.5	16.5	0.00e+00	0	34	0	187695104	68	4209
2026-01-01 03:16:32.50	26.45	6.95	-51.1	-52.5	16.5	0.00e+00	0	34	0	193986560	68	4202
2026-01-01 03:16:33.50	26.43	7.03	-51.0	-52.4	16.5	0.00e+00	0	34	0	199229440	68	4147
2026-01-01 03:16:34.51	26.42	7.10	-51.0	-52.4	16.6	0.00e+00	0	34	0	204472320	68	4147
2026-01-01 03:16:35.51	26.40	7.18	-51.0	-52.4	16.5	0.00e+00	0	34	0	210763776	68	4149
2026-01-01 03:16:36.51	26.39	7.26	-50.9	-52.3	16.6	0.00e+00	0	34	0	216006656	68	4117
2026-01-01 03:16:37.51	26.37	7.33	-50.9	-52.3	16.6	0.00e+00	0	34	0	222298112	68	4103
2026-01-01 03:16:38.51	26.36	7.41	-50.9	-52.3	16.6	0.00e+00	0	34	0	227540992	68	4134
2026-01-01 03:16:39.51	26.34	7.49	-51.0	-52.4	16.6	0.00e+00	0	34	0	232783872	68	4150
2026-01-01 03:16:40.51	26.33	7.57	-50.9	-52.2	16.6	0.00e+00	0	34	0	239075328	68	4090
2026-01-01 03:16:41.51	26.31	7.65	-50.8	-52.2	16.7	0.00e+00	0	34	0	244318208	68	4073
2026-01-01 03:16:42.51	26.30	7.73	-50.7	-52.1	16.7	0.00e+00	0	34	0	249561088	68	4009
2026-01-01 03:16:43.52	26.28	7.81	-50.6	-52.0	16.7	0.00e+00	0	34	0	255852544	67	4207
2026-01-01 03:16:44.52	26.27	7.88	-50.5	-51.8	16.8	0.00e+00	0	34	0	261095424	67	4143
2026-01-01 03:16:45.51	26.25	7.96	-50.6	-51.9	16.7	0.00e+00	0	34	0	267386880	67	4187
2026-01-01 03:16:46.51	26.24	8.04	-50.5	-51.8	16.8	0.00e+00	0	34	0	272629760	67	4138
2026-01-01 03:16:47.51	26.22	8.12	-50.5	-51.8	16.7	0.00e+00	0	34	0	277872640	67	4123
2026-01-01 03:16:48.50	26.20	8.20	-50.5	-51.8	16.8	0.00e+00	0	34	0	284164096	67	4116
2026-01-01 03:16:49.49	26.19	8.28	-50.4	-51.7	16.8	0.00e+00	0	34	0	289406976	67	4094
2026-01-01 03:16:50.49	26.17	8.36	-50.4	-51.7	16.8	0.00e+00	0	34	0	294649856	67	4053
2026-01-01 03:16:51.48	26.16	8.44	-50.5	-51.8	16.8	0.00e+00	0	34	0	300941312	67	4107
2026-01-01 03:16:52.48	26.14	8.52	-50.4	-51.7	16.8	0.00e+00	0	34	0	306184192	67	4058
2026-01-01 03:16:53.48	26.12	8.60	-50.3	-51.6	16.9	0.00e+00	0	34	0	311427072	67	4048
2026-01-01 03:16:54.48	26.11	8.69	-50.3	-51.6	16.9	0.00e+00	0	34	0	317718528	67	4008
2026-01-01 03:16:55.49	26.09	8.77	-50.3	-51.6	16.9	0.00e+00	0	34	0	322961408	67	4014
2026-01-01 03:16:56.49	26.07	8.85	-50.3	-51.6	16.9	0.00e+00	0	34	0	328204288	67	4033
2026-01-01 03:16:57.48	26.06	8.93	-50.3	-51.6	16.9	0.00e+00	0	34	0	334495744	67	4030
2026-01-01 03:16:58.47	26.04	9.01	-50.3	-51.6	16.9	0.00e+00	0	34	0	339738624	67	4049
2026-01-01 03:16:59.47	26.02	9.10	-50.2	-51.5	17.0	0.00e+00	0	34	0	346030080	67	3992
2026-01-01 03:17:00.47	26.01	9.18	-50.2	-51.5	17.0	0.00e+00	0	34	0	351272960	66	4196
2026-01-01 03:17:01.46	25.99	9.26	-50.2	-51.5	17.0	0.00e+00	0	34	0	356515840	66	4223
2026-01-01 03:17:02.46	25.97	9.35	-50.1	-51.4	17.0	0.00e+00	0	34	0	361758720	66	4170
2026-01-01 03:17:03.45	25.95	9.43	-50.1	-51.4	17.1	0.00e+00	0	34	0	368050176	66	4149
2026-01-01 03:17:04.46	25.94	9.51	-50.0	-51.2	17.1	0.00e+00	0	34	0	373293056	66	4095
2026-01-01 03:17:05.46	25.92	9.60	-50.0	-51.2	17.1	0.00e+00	0	34	0	378535936	66	4088
2026-01-01 03:17:06.46	25.90	9.68	-50.0	-51.2	17.1	0.00e+00	0	34	0	384827392	66	4094
2026-01-01 03:17:07.46	25.88	9.77	-50.0	-51.2	17.1	0.00e+00	0	34	0	390070272	66	4075
2026-01-01 03:17:08.46	25.86	9.86	-49.9	-51.1	17.2	0.00e+00	0	34	0	396361728	66	4050
2026-01-01 03:17:09.45	25.85	9.94	-50.0	-51.2	17.1	0.00e+00	0	34	0	401604608	66	4082
2026-01-01 03:17:10.45	25.83	10.03	-49.9	-51.1	17.2	0.00e+00	0	34	0	406847488	66	4027
2026-01-01 03:17:11.44	25.81	10.11	-49.9	-51.1	17.2	0.00e+00	0	34	0	413138944	66	4044
2026-01-01 03:17:12.44	25.79	10.20	-49.9	-51.1	17.2	0.00e+00	0	34	0	418381824	66	4020
2026-01-01 03:17:13.45	25.77	10.29	-49.8	-51.0	17.3	0.00e+00	0	34	0	423624704	66	3972
2026-01-01 03:17:14.44	25.75	10.37	-49.8	-51.0	17.2	0.00e+00	0	34	0	429916160	66	4004
2026-01-01 03:17:15.44	25.73	10.46	-49.7	-51.0	17.2	0.00e+00	0	34	0	435159040	66	3969
2026-01-01 03:17:16.44	25.71	10.55	-49.8	-51.1	17.2	0.00e+00	0	34	0	440401920	66	4009
2026-01-01 03:17:17.44	25.69	10.64	-49.7	-51.0	17.2	0.00e+00	0	35	0	446693376	66	3959
2026-01-01 03:17:18.44	25.67	10.72	-49.7	-50.9	17.2	0.00e+00	0	34	0	451936256	66	3955
2026-01-01 03:17:19.43	25.65	10.81	-49.8	-51.0	17.2	0.00e+00	0	34	0	458227712	66	3989
2026-01-01 03:17:20.43	25.63	10.90	-49.8	-51.1	17.2	0.00e+00	0	35	0	463470592	66	4016
2026-01-01 03:17:21.42	25.61	10.99	-49.9	-51.1	17.2	0.00e+00	0	34	0	468713472	66	4031
2026-01-01 03:17:22.42	25.59	11.08	-49.8	-51.0	17.2	0.00e+00	0	34	0	475004928	66	3989
2026-01-01 03:17:23.43	25.57	11.17	-49.6	-50.9	17.3	0.00e+00	0	34	0	480247808	65	4147
2026-01-01 03:17:24.43	25.55	11.26	-49.7	-50.9	17.3	0.00e+00	0	34	0	485490688	65	4179
2026-01-01 03:17:25.43	25.53	11.35	-49.7	-50.9	17.3	0.00e+00	0	35	0	491782144	65	4165
2026-01-01 03:17:26.43	25.51	11.44	-49.7	-50.9	17.2	0.00e+00	0	34	0	497025024	65	4192
2026-01-01 03:17:27.42	25.49	11.53	-49.7	-50.9	17.3	0.00e+00	0	34	0	502267904	65	4167
2026-01-01 03:17:28.42	25.47	11.63	-49.7	-50.9	17.3	0.00e+00	0	35	0	508559360	65	4172
2026-01-01 03:17:29.42	25.45	11.72	-49.6	-50.9	17.3	0.00e+00	0	35	0	513802240	65	4146
2026-01-01 03:17:30.42	25.43	11.81	-49.6	-50.9	17.3	0.00e+00	0	35	0	520093696	65	4152
2026-01-01 03:17:31.42	25.41	11.90	-49.6	-50.8	17.3	0.00e+00	0	35	0	525336576	65	4128
2026-01-01 03:17:32.42	25.38	12.00	-49.7	-50.9	17.3	0.00e+00	0	35	0	530579456	65	4174
2026-01-01 03:17:33.42	25.36	12.09	-49.7	-51.0	17.3	0.00e+00	0	35	0	536870912	65	4199
2026-01-01 03:17:34.43	25.34	12.18	-49.6	-50.8	17.3	0.00e+00	0	34	0	542113792	65	4143
2026-01-01 03:17:35.43	25.32	12.28	-49.6	-50.8	17.3	0.00e+00	0	35	0	547356672	65	4138
2026-01-01 03:17:36.43	25.29	12.37	-49.6	-50.8	17.3	0.00e+00	0	34	0	553648128	65	4136
2026-01-01 03:17:37.43	25.27	12.47	-49.7	-50.9	17.3	0.00e+00	0	35	0	558891008	65	4157
2026-01-01 03:17:38.43	25.25	12.56	-49.8	-51.0	17.2	0.00e+00	0	34	0	564133888	65	4224
2026-01-01 03:17:39.42	25.23	12.66	-49.8	-51.1	17.2	0.00e+00	0	35	0	570425344	65	4250
2026-01-01 03:17:40.41	25.20	12.75	-49.7	-51.0	17.3	0.00e+00	0	35	0	575668224	65	4200
2026-01-01 03:17:41.41	25.18	12.85	-49.6	-50.8	17.3	0.00e+00	0	34	0	581959680	65	4120
2026-01-01 03:17:42.42	25.16	12.95	-49.6	-50.8	17.3	0.00e+00	0	35	0	587202560	65	4141
2026-01-01 03:17:43.41	25.13	13.04	-49.7	-50.9	17.3	0.00e+00	0	34	0	592445440	65	4181
2026-01-01 03:17:44.41	25.11	13.14	-49.6	-50.9	17.3	0.00e+00	0	35	0	598736896	65	4153
2026-01-01 03:17:45.41	25.08	13.24	-49.6	-50.8	17.3	0.00e+00	0	35	0	603979776	65	4143
2026-01-01 03:17:46.40	25.06	13.34	-49.6	-50.8	17.3	0.00e+00	0	35	0	609222656	65	4143
2026-01-01 03:17:47.40	25.04	13.43	-49.8	-51.0	17.3	0.00e+00	0	35	0	615514112	65	4214
2026-01-01 03:17:48.38	25.01	13.53	-49.7	-51.0	17.3	0.00e+00	0	35	0	620756992	65	4200
2026-01-01 03:17:49.38	24.99	13.63	-49.7	-50.9	17.3	0.00e+00	0	35	0	625999872	65	4159
2026-01-01 03:17:50.38	24.96	13.73	-49.6	-50.8	17.3	0.00e+00	0	35	0	632291328	65	4142
2026-01-01 03:17:51.38	24.94	13.83	-49.6	-50.8	17.4	0.00e+00	0	35	0	637534208	65	4112
2026-01-01 03:17:52.38	24.91	13.93	-49.6	-50.9	17.3	0.00e+00	0	34	0	642777088	65	4150
2026-01-01 03:17:53.39	24.89	14.03	-49.6	-50.8	17.4	0.00e+00	0	34	0	649068544	65	4100
2026-01-01 03:17:54.39	24.86	14.14	-49.6	-50.8	17.3	0.00e+00	0	34	0	654311424	65	4133
2026-01-01 03:17:55.39	24.83	14.24	-49.5	-50.7	17.4	0.00e+00	0	35	0	659554304	65	4087
2026-01-01 03:17:56.39	24.81	14.34	-49.5	-50.7	17.4	0.00e+00	0	34	0	665845760	65	4073
2026-01-01 03:17:57.38	24.78	14.44	-49.5	-50.7	17.4	0.00e+00	0	34	0	671088640	65	4080
2026-01-01 03:17:58.38	24.75	14.55	-49.4	-50.6	17.5	0.00e+00	0	34	0	677380096	65	4025
2026-01-01 03:17:59.37	24.73	14.65	-49.2	-50.4	17.5	0.00e+00	0	34	0	682622976	64	4154
2026-01-01 03:18:00.36	24.70	14.75	-49.2	-50.4	17.5	0.00e+00	0	35	0	687865856	64	4152
2026-01-01 03:18:01.36	24.67	14.86	-49.0	-50.2	17.6	0.00e+00	0	34	0	694157312	64	4082
2026-01-01 03:18:02.37	24.65	14.96	-49.1	-50.2	17.6	0.00e+00	0	34	0	699400192	64	4080
2026-01-01 03:18:03.36	24.62	15.07	-48.9	-50.1	17.6	0.00e+00	0	35	0	704643072	64	4026
2026-01-01 03:18:04.36	24.59	15.17	-49.0	-50.1	17.6	0.00e+00	0	34	0	710934528	64	4033
2026-01-01 03:18:05.36	24.56	15.28	-48.9	-50.0	17.7	0.00e+00	0	35	0	716177408	64	3984
2026-01-01 03:18:06.35	24.53	15.38	-48.8	-49.9	17.7	0.00e+00	0	34	0	721420288	64	3932
2026-01-01 03:18:07.36	24.51	15.49	-48.8	-50.0	17.7	0.00e+00	0	35	0	727711744	64	3981
2026-01-01 03:18:08.36	24.48	15.60	-48.7	-49.9	17.7	0.00e+00	0	35	0	732954624	64	3921
2026-01-01 03:18:09.36	24.45	15.71	-48.7	-49.8	17.7	0.00e+00	0	35	0	739246080	63	4120
2026-01-01 03:18:10.36	24.42	15.82	-48.6	-49.8	17.8	0.00e+00	0	34	0	744488960	63	4101
2026-01-01 03:18:11.36	24.39	15.93	-48.6	-49.7	17.8	0.00e+00	0	35	0	749731840	63	4094
2026-01-01 03:18:12.36	24.36	16.04	-48.6	-49.8	17.8	0.00e+00	0	35	0	756023296	63	4099
2026-01-01 03:18:13.36	24.33	16.15	-48.5	-49.7	17.8	0.00e+00	0	34	0	761266176	63	4053
2026-01-01 03:18:14.36	24.30	16.26	-48.4	-49.5	17.8	0.00e+00	0	34	0	766509056	63	4000
2026-01-01 03:18:15.36	24.27	16.37	-48.4	-49.5	17.8	0.00e+00	0	35	0	772800512	63	4004
2026-01-01 03:18:16.37	24.24	16.48	-48.4	-49.5	17.9	0.00e+00	0	34	0	778043392	63	3969
2026-01-01 03:18:17.37	24.20	16.59	-48.4	-49.5	17.8	0.00e+00	0	35	0	783286272	63	3999
2026-01-01 03:18:18.37	24.17	16.70	-48.3	-49.4	17.9	0.00e+00	0	35	0	789577728	63	3944
2026-01-01 03:18:19.37	24.14	16.82	-48.3	-49.4	17.9	0.00e+00	0	35	0	794820608	63	3935
2026-01-01 03:18:20.37	24.11	16.93	-48.3	-49.4	17.9	0.00e+00	0	35	0	801112064	63	3949
2026-01-01 03:18:21.36	24.08	17.04	-48.2	-49.3	17.9	0.00e+00	0	35	0	806354944	62	4143
2026-01-01 03:18:22.36	24.05	17.16	-48.2	-49.3	17.9	0.00e+00	0	34	0	811597824	62	4101
2026-01-01 03:18:23.36	24.01	17.27	-48.2	-49.3	17.9	0.00e+00	0	35	0	817889280	62	4112
2026-01-01 03:18:24.36	23.98	17.39	-48.1	-49.2	17.9	0.00e+00	0	35	0	823132160	62	4081
2026-01-01 03:18:25.36	23.95	17.51	-48.1	-49.1	18.0	0.00e+00	0	35	0	828375040	62	4046
2026-01-01 03:18:26.36	23.91	17.62	-47.9	-49.0	18.0	0.00e+00	0	35	0	833617920	62	3984
2026-01-01 03:18:27.36	23.88	17.74	-47.9	-48.9	18.0	0.00e+00	0	35	0	839909376	62	3954
2026-01-01 03:18:28.36	23.84	17.86	-48.0	-49.1	18.0	0.00e+00	0	35	0	845152256	62	4011
2026-01-01 03:18:29.35	23.81	17.98	-47.8	-48.9	18.1	0.00e+00	0	35	0	851443712	62	3922
2026-01-01 03:18:30.35	23.78	18.09	-47.8	-48.9	18.1	0.00e+00	0	34	0	856686592	62	3929
2026-01-01 03:18:31.35	23.74	18.21	-47.6	-48.7	18.0	0.00e+00	0	34	0	861929472	61	4080
2026-01-01 03:18:32.35	23.70	18.33	-47.6	-48.7	18.1	0.00e+00	0	34	0	868220928	61	4052
2026-01-01 03:18:33.34	23.67	18.45	-47.6	-48.6	18.1	0.00e+00	0	35	0	873463808	61	4034
2026-01-01 03:18:34.35	23.63	18.58	-47.6	-48.7	18.1	0.00e+00	0	35	0	878706688	61	4067
2026-01-01 03:18:35.35	23.60	18.70	-47.6	-48.7	18.1	0.00e+00	0	35	0	884998144	61	4066
2026-01-01 03:18:36.35	23.56	18.82	-47.6	-48.6	18.1	0.00e+00	0	35	0	890241024	61	4035
2026-01-01 03:18:37.35	23.52	18.94	-47.5	-48.6	18.1	0.00e+00	0	34	0	895483904	61	4012
2026-01-01 03:18:38.35	23.48	19.07	-47.6	-48.7	18.1	0.00e+00	0	35	0	901775360	61	4080
2026-01-01 03:18:39.34	23.45	19.19	-47.7	-48.7	18.1	0.00e+00	0	34	0	907018240	61	4089
2026-01-01 03:18:40.33	23.41	19.31	-47.6	-48.7	18.1	0.00e+00	0	35	0	913309696	61	4058
2026-01-01 03:18:41.33	23.37	19.44	-47.6	-48.6	18.1	0.00e+00	0	34	0	918552576	61	4045
2026-01-01 03:18:42.33	23.33	19.57	-47.7	-48.8	18.1	0.00e+00	0	34	0	923795456	61	4116
2026-01-01 03:18:43.33	23.29	19.69	-47.7	-48.8	18.1	0.00e+00	0	34	0	930086912	61	4134
2026-01-01 03:18:44.32	23.25	19.82	-47.7	-48.8	18.1	0.00e+00	0	35	0	935329792	61	4138
2026-01-01 03:18:45.32	23.21	19.95	-47.9	-49.0	18.0	0.00e+00	0	34	0	940572672	61	4195
2026-01-01 03:18:46.32	23.17	20.08	-47.8	-48.9	18.0	0.00e+00	0	35	0	946864128	61	4170
2026-01-01 03:18:47.32	23.13	20.21	-47.9	-49.0	18.0	0.00e+00	0	34	0	952107008	61	4196
2026-01-01 03:18:48.32	23.09	20.34	-47.9	-49.0	18.0	0.00e+00	0	35	0	957349888	61	4212
2026-01-01 03:18:49.31	23.05	20.46	-48.0	-49.1	18.0	0.00e+00	0	35	0	963641344	61	4246
2026-01-01 03:18:50.30	23.01	20.59	-48.0	-49.1	18.0	0.00e+00	0	35	0	968884224	61	4251
2026-01-01 03:18:51.30	22.97	20.73	-47.9	-49.0	18.0	0.00e+00	0	34	0	974127104	61	4218
2026-01-01 03:18:52.30	22.93	20.86	-48.0	-49.1	18.0	0.00e+00	0	35	0	980418560	61	4255
2026-01-01 03:18:53.30	22.88	20.99	-47.9	-49.0	18.0	0.00e+00	0	35	0	985661440	61	4197
2026-01-01 03:18:54.29	22.84	21.13	-47.9	-49.0	18.0	0.00e+00	0	34	0	990904320	61	4194
2026-01-01 03:18:55.30	22.80	21.26	-47.8	-48.9	18.0	0.00e+00	0	35	0	997195776	61	4184
2026-01-01 03:18:56.30	22.75	21.40	-47.8	-48.9	18.0	0.00e+00	0	35	0	1002438656	61	4159
2026-01-01 03:18:57.31	22.71	21.53	-47.7	-48.7	18.1	0.00e+00	0	34	0	1008730112	61	4084
2026-01-01 03:18:58.30	22.66	21.67	-47.6	-48.7	18.1	0.00e+00	0	34	0	1013972992	61	4082
2026-01-01 03:18:59.30	22.62	21.81	-47.6	-48.6	18.1	0.00e+00	0	35	0	1019215872	61	4046
2026-01-01 03:19:00.30	22.57	21.95	-47.4	-48.4	18.2	0.00e+00	0	35	0	1025507328	61	3938
2026-01-01 03:19:01.29	22.52	22.08	-47.2	-48.3	18.2	0.00e+00	0	35	0	1030750208	61	3878
2026-01-01 03:19:02.28	22.48	22.22	-47.3	-48.3	18.2	0.00e+00	0	35	0	1035993088	61	3883
2026-01-01 03:19:03.29	22.43	22.36	-47.3	-48.4	18.2	0.00e+00	0	35	0	1042284544	61	3914
2026-01-01 03:19:04.29	22.38	22.51	-47.2	-48.2	18.3	0.00e+00	0	35	0	1047527424	61	3856
2026-01-01 03:19:05.29	22.33	22.65	-47.1	-48.1	18.2	0.00e+00	0	35	0	1052770304	60	4044
2026-01-01 03:19:06.29	22.29	22.79	-47.0	-48.0	18.2	0.00e+00	0	35	0	1059061760	60	3988
2026-01-01 03:19:07.29	22.24	22.93	-47.0	-48.0	18.3	0.00e+00	0	35	0	1064304640	60	3994
2026-01-01 03:19:08.29	22.19	23.08	-46.9	-48.0	18.3	0.00e+00	0	34	0	1069547520	60	3969
2026-01-01 03:19:09.30	22.14	23.23	-47.0	-48.1	18.3	0.00e+00	0	35	0	1075838976	60	4012
2026-01-01 03:19:10.30	22.09	23.37	-47.1	-48.1	18.2	0.00e+00	0	35	0	1081081856	60	4036
2026-01-01 03:19:11.29	22.04	23.52	-47.0	-48.0	18.3	0.00e+00	0	35	0	1087373312	60	3990
2026-01-01 03:19:12.29	21.98	23.66	-47.0	-48.0	18.2	0.00e+00	0	34	0	1092616192	60	4001
2026-01-01 03:19:13.28	21.93	23.81	-47.0	-48.0	18.3	0.00e+00	0	35	0	1097859072	60	3979
2026-01-01 03:19:14.27	21.88	23.96	-47.0	-48.0	18.2	0.00e+00	0	35	0	1104150528	60	3998
2026-01-01 03:19:15.28	21.83	24.11	-47.0	-48.0	18.3	0.00e+00	0	35	0	1109393408	60	3998
2026-01-01 03:19:16.27	21.77	24.26	-47.0	-48.0	18.3	0.00e+00	0	35	0	1114636288	60	3994
2026-01-01 03:19:17.28	21.72	24.41	-47.0	-48.0	18.3	0.00e+00	0	35	0	1120927744	60	3994
2026-01-01 03:19:18.27	21.66	24.56	-46.9	-48.0	18.3	0.00e+00	0	35	0	1126170624	60	3964
2026-01-01 03:19:19.27	21.61	24.72	-47.1	-48.1	18.3	0.00e+00	0	35	0	1132462080	60	4023
2026-01-01 03:19:20.27	21.55	24.87	-47.1	-48.1	18.3	0.00e+00	0	35	0	1137704960	60	4041
2026-01-01 03:19:21.26	21.50	25.03	-47.0	-48.0	18.3	0.00e+00	0	35	0	1142947840	60	3997
2026-01-01 03:19:22.25	21.44	25.18	-46.9	-47.9	18.3	0.00e+00	0	35	0	1148190720	60	3954
2026-01-01 03:19:23.26	21.38	25.34	-46.9	-47.9	18.3	0.00e+00	0	35	0	1154482176	60	3955
2026-01-01 03:19:24.26	21.32	25.50	-46.9	-47.9	18.3	0.00e+00	0	35	0	1159725056	60	3951
2026-01-01 03:19:25.26	21.26	25.66	-46.8	-47.8	18.4	0.00e+00	0	35	0	1166016512	60	3887
2026-01-01 03:19:26.27	21.20	25.82	-46.8	-47.8	18.4	0.00e+00	0	35	0	1171259392	60	3912
2026-01-01 03:19:27.27	21.14	25.98	-46.7	-47.7	18.4	0.00e+00	0	35	0	1176502272	60	3868
2026-01-01 03:19:28.27	21.08	26.14	-47.0	-48.1	18.3	0.00e+00	0	35	0	1182793728	59	4261
2026-01-01 03:19:29.27	21.02	26.30	-47.1	-48.2	18.3	0.00e+00	0	35	0	1188036608	59	4293
2026-01-01 03:19:30.27	20.96	26.47	-47.0	-48.0	18.4	0.00e+00	0	35	0	1194328064	59	4228
2026-01-01 03:19:31.28	20.89	26.63	-47.0	-48.0	18.4	0.00e+00	0	35	0	1199570944	59	4207
2026-01-01 03:19:32.28	20.83	26.80	-47.0	-48.0	18.4	0.00e+00	0	35	0	1204813824	59	4235
2026-01-01 03:19:33.28	20.76	26.96	-47.1	-48.2	18.4	0.00e+00	0	35	0	1211105280	59	4297
2026-01-01 03:19:34.28	20.70	27.13	-47.1	-48.2	18.3	0.00e+00	0	35	0	1216348160	59	4300
2026-01-01 03:19:35.28	20.63	27.30	-47.2	-48.2	18.3	0.00e+00	0	35	0	1221591040	59	4325
2026-01-01 03:19:36.28	20.57	27.47	-47.3	-48.3	18.2	0.00e+00	0	35	0	1227882496	59	4383
2026-01-01 03:19:37.28	20.50	27.64	-47.3	-48.3	18.2	0.00e+00	0	35	0	1233125376	59	4385
2026-01-01 03:19:38.28	20.43	27.81	-47.3	-48.3	18.3	0.00e+00	0	35	0	1238368256	59	4375
2026-01-01 03:19:39.27	20.36	27.98	-47.3	-48.3	18.3	0.00e+00	0	35	0	1244659712	59	4366
2026-01-01 03:19:40.27	20.29	28.15	-47.3	-48.3	18.3	0.00e+00	0	35	0	1249902592	59	4385
2026-01-01 03:19:41.27	20.22	28.33	-47.1	-48.1	18.3	0.00e+00	0	35	0	1256194048	60	4041
2026-01-01 03:19:42.28	20.15	28.51	-47.0	-48.0	18.4	0.00e+00	0	35	0	1261436928	60	3990
2026-01-01 03:19:43.27	20.08	28.68	-47.0	-48.0	18.3	0.00e+00	0	35	0	1266679808	60	3994
2026-01-01 03:19:44.26	20.01	28.86	-46.8	-47.8	18.4	0.00e+00	0	35	0	1272971264	60	3903
2026-01-01 03:19:45.27	19.93	29.04	-46.8	-47.8	18.4	0.00e+00	0	35	0	1278214144	60	3905
2026-01-01 03:19:46.26	19.86	29.22	-46.9	-47.9	18.4	0.00e+00	0	35	0	1283457024	60	3943
2026-01-01 03:19:47.25	19.78	29.39	-46.9	-48.0	18.4	0.00e+00	0	35	0	1288699904	60	3962
2026-01-01 03:19:48.25	19.70	29.58	-46.9	-47.9	18.4	0.00e+00	0	35	0	1294991360	60	3937
2026-01-01 03:19:49.25	19.63	29.76	-47.0	-48.0	18.4	0.00e+00	0	35	0	1300234240	60	3982
2026-01-01 03:19:50.25	19.55	29.94	-46.9	-47.9	18.4	0.00e+00	0	35	0	1306525696	60	3940
2026-01-01 03:19:51.25	19.47	30.13	-46.9	-47.9	18.4	0.00e+00	0	35	0	1311768576	60	3940
2026-01-01 03:19:52.24	19.39	30.31	-46.9	-47.9	18.4	0.00e+00	0	35	0	1317011456	60	3938
2026-01-01 03:19:53.24	19.31	30.50	-46.8	-47.9	18.4	0.00e+00	0	35	0	1323302912	60	3921
2026-01-01 03:19:54.23	19.23	30.69	-46.8	-47.8	18.4	0.00e+00	0	35	0	1328545792	60	3911
2026-01-01 03:19:55.24	19.14	30.88	-47.1	-48.1	18.3	0.00e+00	0	35	0	1333788672	59	4266
2026-01-01 03:19:56.23	19.06	31.07	-47.0	-48.0	18.4	0.00e+00	0	35	0	1340080128	59	4239
2026-01-01 03:19:57.23	18.97	31.26	-46.9	-48.0	18.4	0.00e+00	0	35	0	1345323008	59	4211
2026-01-01 03:19:58.23	18.89	31.46	-47.0	-48.0	18.4	0.00e+00	0	35	0	1350565888	59	4215
2026-01-01 03:19:59.23	18.80	31.65	-47.0	-48.0	18.4	0.00e+00	0	35	0	1356857344	59	4219
2026-01-01 03:20:00.23	18.71	31.85	-47.0	-48.0	18.4	0.00e+00	0	35	0	1362100224	59	4216
2026-01-01 03:20:01.23	18.62	32.04	-47.0	-48.0	18.4	0.00e+00	0	35	0	1368391680	59	4240
2026-01-01 03:20:02.23	18.53	32.24	-46.8	-47.8	18.4	0.00e+00	0	35	0	1373634560	59	4135
2026-01-01 03:20:03.22	18.44	32.44	-46.7	-47.8	18.4	0.00e+00	0	35	0	1378877440	59	4113
2026-01-01 03:20:04.23	18.34	32.64	-46.7	-47.7	18.4	0.00e+00	0	34	0	1385168896	59	4081
2026-01-01 03:20:05.22	18.25	32.84	-46.6	-47.6	18.5	0.00e+00	0	35	0	1390411776	59	4017
2026-01-01 03:20:06.22	18.15	33.05	-46.5	-47.5	18.5	0.00e+00	0	35	0	1395654656	59	3996
2026-01-01 03:20:07.22	18.06	33.25	-46.4	-47.4	18.5	0.00e+00	0	35	0	1401946112	59	3934
2026-01-01 03:20:08.22	17.96	33.46	-46.5	-47.5	18.5	0.00e+00	0	35	0	1407188992	59	3994
2026-01-01 03:20:09.22	17.86	33.66	-46.6	-47.7	18.5	0.00e+00	0	35	0	1412431872	59	4060
2026-01-01 03:20:10.23	17.76	33.88	-46.8	-47.9	18.4	0.00e+00	0	35	0	1418723328	59	4147
2026-01-01 03:20:11.22	17.66	34.08	-46.7	-47.7	18.4	0.00e+00	0	35	0	1423966208	59	4098
2026-01-01 03:20:12.22	17.55	34.29	-46.8	-47.8	18.5	0.00e+00	0	35	0	1430257664	59	4142
2026-01-01 03:20:13.22	17.45	34.51	-46.7	-47.8	18.4	0.00e+00	0	35	0	1435500544	59	4111
2026-01-01 03:20:14.22	17.34	34.72	-46.6	-47.6	18.5	0.00e+00	0	35	0	1440743424	59	4047
2026-01-01 03:20:15.21	17.23	34.93	-46.5	-47.5	18.5	0.00e+00	0	35	0	1447034880	59	3969
2026-01-01 03:20:16.21	17.12	35.15	-46.4	-47.4	18.5	0.00e+00	0	35	0	1452277760	59	3957
2026-01-01 03:20:17.21	17.01	35.37	-46.3	-47.4	18.5	0.00e+00	0	35	0	1457520640	59	3914
2026-01-01 03:20:18.21	16.90	35.59	-46.3	-47.3	18.5	0.00e+00	0	35	0	1463812096	59	3902
2026-01-01 03:20:19.21	16.79	35.81	-46.4	-47.4	18.5	0.00e+00	0	35	0	1469054976	59	3957
2026-01-01 03:20:20.21	16.67	36.03	-46.4	-47.4	18.5	0.00e+00	0	35	0	1474297856	59	3940
2026-01-01 03:20:21.21	16.55	36.26	-46.3	-47.3	18.6	0.00e+00	0	35	0	1480589312	59	3886
2026-01-01 03:20:22.21	16.43	36.48	-46.4	-47.4	18.5	0.00e+00	0	35	0	1485832192	59	3945
2026-01-01 03:20:23.21	16.31	36.71	-46.6	-47.6	18.5	0.00e+00	0	35	0	1492123648	59	4008
2026-01-01 03:20:24.21	16.19	36.94	-46.7	-47.7	18.5	0.00e+00	0	35	0	1497366528	59	4066
2026-01-01 03:20:25.21	16.07	37.16	-46.8	-47.8	18.5	0.00e+00	0	35	0	1502609408	59	4130
2026-01-01 03:20:26.21	15.94	37.40	-46.7	-47.8	18.5	0.00e+00	0	35	0	1508900864	59	4111
2026-01-01 03:20:27.21	15.81	37.63	-46.8	-47.8	18.5	0.00e+00	0	35	0	1514143744	59	4137
2026-01-01 03:20:28.21	15.68	37.86	-46.8	-47.8	18.4	0.00e+00	0	35	0	1519386624	59	4125
2026-01-01 03:20:29.22	15.55	38.10	-46.8	-47.8	18.5	0.00e+00	0	35	0	1525678080	59	4110
2026-01-01 03:20:30.22	15.41	38.34	-46.7	-47.7	18.5	0.00e+00	0	35	0	1530920960	59	4071
2026-01-01 03:20:31.22	15.28	38.57	-46.7	-47.7	18.5	0.00e+00	0	35	0	1536163840	59	4095
2026-01-01 03:20:32.22	15.14	38.81	-46.8	-47.8	18.5	0.00e+00	0	35	0	1542455296	59	4115
2026-01-01 03:20:33.22	15.00	39.05	-46.9	-47.9	18.4	0.00e+00	0	35	0	1547698176	59	4171
2026-01-01 03:20:34.21	14.86	39.29	-46.9	-48.0	18.4	0.00e+00	0	35	0	1553989632	59	4196
2026-01-01 03:20:35.21	14.72	39.54	-47.1	-48.1	18.4	0.00e+00	0	35	0	1559232512	59	4273
2026-01-01 03:20:36.20	14.57	39.78	-47.2	-48.3	18.4	0.00e+00	0	35	0	1564475392	59	4350
2026-01-01 03:20:37.21	14.42	40.03	-47.3	-48.3	18.3	0.00e+00	0	35	0	1569718272	59	4362
2026-01-01 03:20:38.21	14.27	40.28	-47.3	-48.3	18.3	0.00e+00	0	35	0	1576009728	59	4386
2026-01-01 03:20:39.21	14.12	40.53	-47.2	-48.2	18.3	0.00e+00	0	35	0	1581252608	59	4335
2026-01-01 03:20:40.21	13.96	40.78	-47.1	-48.2	18.3	0.00e+00	0	35	0	1587544064	59	4295
2026-01-01 03:20:41.21	13.80	41.04	-47.3	-48.3	18.3	0.00e+00	0	35	0	1592786944	59	4385
2026-01-01 03:20:42.21	13.64	41.29	-47.4	-48.4	18.3	0.00e+00	0	35	0	1598029824	59	4414
2026-01-01 03:20:43.21	13.48	41.55	-47.1	-48.2	18.3	0.00e+00	0	35	0	1604321280	60	4056
2026-01-01 03:20:44.20	13.31	41.80	-47.1	-48.1	18.4	0.00e+00	0	35	0	1609564160	60	4006
2026-01-01 03:20:45.20	13.14	42.06	-47.1	-48.1	18.4	0.00e+00	0	35	0	1614807040	59	4257
2026-01-01 03:20:46.19	12.97	42.32	-46.8	-47.8	18.5	0.00e+00	0	35	0	1621098496	59	4123
2026-01-01 03:20:47.20	12.79	42.58	-46.9	-47.9	18.4	0.00e+00	0	35	0	1626341376	59	4160
2026-01-01 03:20:48.20	12.62	42.85	-46.9	-47.9	18.4	0.00e+00	0	35	0	1631584256	59	4183
2026-01-01 03:20:49.20	12.44	43.11	-46.8	-47.9	18.5	0.00e+00	0	35	0	1637875712	59	4146
2026-01-01 03:20:50.20	12.25	43.38	-46.8	-47.8	18.4	0.00e+00	0	35	0	1643118592	59	4145
2026-01-01 03:20:51.20	12.06	43.65	-46.9	-47.9	18.5	0.00e+00	0	35	0	1648361472	59	4186
2026-01-01 03:20:52.21	11.87	43.92	-46.9	-47.9	18.4	0.00e+00	0	35	0	1654652928	59	4175
2026-01-01 03:20:53.20	11.68	44.19	-46.9	-47.9	18.4	0.00e+00	0	35	0	1659895808	59	4191
2026-01-01 03:20:54.19	11.48	44.46	-47.1	-48.1	18.4	0.00e+00	0	35	0	1666187264	59	4262
2026-01-01 03:20:55.19	11.28	44.74	-47.2	-48.3	18.3	0.00e+00	0	35	0	1671430144	59	4355
2026-01-01 03:20:56.19	11.08	45.01	-47.3	-48.4	18.3	0.00e+00	0	35	0	1676673024	59	4393
2026-01-01 03:20:57.19	10.87	45.29	-47.3	-48.3	18.3	0.00e+00	0	35	0	1682964480	59	4386
2026-01-01 03:20:58.18	10.66	45.57	-47.2	-48.3	18.3	0.00e+00	0	35	0	1688207360	59	4348
2026-01-01 03:20:59.19	10.44	45.85	-47.1	-48.1	18.4	0.00e+00	0	35	0	1693450240	59	4268
2026-01-01 03:21:00.19	10.23	46.13	-47.2	-48.2	18.3	0.00e+00	0	35	0	1699741696	59	4309
2026-01-01 03:21:01.19	10.00	46.42	-47.2	-48.2	18.4	0.00e+00	0	35	0	1704984576	59	4317
2026-01-01 03:21:02.19	9.77	46.70	-47.2	-48.3	18.3	0.00e+00	0	35	0	1711276032	59	4344
2026-01-01 03:21:03.20	9.54	46.99	-47.2	-48.3	18.4	0.00e+00	0	35	0	1716518912	59	4356
2026-01-01 03:21:04.20	9.30	47.28	-47.4	-48.5	18.3	0.00e+00	0	35	0	1721761792	59	4444
2026-01-01 03:21:05.19	9.07	47.57	-47.1	-48.1	18.4	0.00e+00	0	35	0	1728053248	60	4048
2026-01-01 03:21:06.19	8.82	47.86	-47.1	-48.1	18.4	0.00e+00	0	35	0	1733296128	60	4036
2026-01-01 03:21:07.19	8.57	48.15	-47.1	-48.2	18.4	0.00e+00	0	35	0	1738539008	60	4057
2026-01-01 03:21:08.19	8.32	48.44	-47.2	-48.3	18.4	0.00e+00	0	35	0	1744830464	60	4101
2026-01-01 03:21:09.19	8.06	48.74	-47.1	-48.1	18.5	0.00e+00	0	35	0	1750073344	60	4050
2026-01-01 03:21:10.19	7.79	49.03	-47.3	-48.4	18.4	0.00e+00	0	35	0	1755316224	60	4154
2026-01-01 03:21:11.19	7.52	49.33	-47.5	-48.5	18.3	0.00e+00	0	35	0	1761607680	60	4216
2026-01-01 03:21:12.20	7.24	49.63	-47.6	-48.6	18.3	0.00e+00	0	35	0	1766850560	60	4266
2026-01-01 03:21:13.20	6.96	49.93	-47.7	-48.7	18.2	0.00e+00	0	35	0	1773142016	60	4315
2026-01-01 03:21:14.19	6.68	50.23	-47.7	-48.7	18.3	0.00e+00	0	35	0	1778384896	60	4326
2026-01-01 03:21:15.18	6.39	50.53	-47.6	-48.7	18.2	0.00e+00	0	35	0	1783627776	60	4293
2026-01-01 03:21:16.18	6.09	50.84	-47.7	-48.8	18.2	0.00e+00	0	35	0	1789919232	60	4362
2026-01-01 03:21:17.19	5.78	51.15	-48.1	-49.1	18.2	0.00e+00	0	35	0	1795162112	61	4278
2026-01-01 03:21:18.18	5.47	51.45	-48.3	-49.3	18.1	0.00e+00	0	35	0	1800404992	61	4385
2026-01-01 03:21:19.18	5.15	51.76	-47.9	-48.9	18.2	0.00e+00	0	35	0	1806696448	61	4176
2026-01-01 03:21:20.18	4.83	52.06	-47.8	-48.9	18.2	0.00e+00	0	35	0	1811939328	61	4148
2026-01-01 03:21:21.18	4.50	52.37	-47.5	-48.5	18.4	0.00e+00	0	35	0	1817182208	61	3970
2026-01-01 03:21:22.18	4.16	52.68	-47.6	-48.6	18.4	0.00e+00	0	35	0	1823473664	61	4033
2026-01-01 03:21:23.19	3.81	53.00	-47.8	-48.8	18.3	0.00e+00	0	35	0	1828716544	61	4143
2026-01-01 03:21:24.19	3.46	53.31	-48.1	-49.1	18.2	0.00e+00	0	35	0	1835008000	61	4281
2026-01-01 03:21:25.19	3.10	53.62	-48.0	-49.0	18.3	0.00e+00	0	35	0	1840250880	61	4232
2026-01-01 03:21:26.18	2.73	53.93	-48.0	-49.0	18.2	0.00e+00	0	35	0	1845493760	61	4209
2026-01-01 03:21:27.18	2.35	54.25	-47.9	-48.9	18.3	0.00e+00	0	35	0	1851785216	61	4167
2026-01-01 03:21:28.18	1.97	54.56	-47.8	-48.9	18.3	0.00e+00	0	35	0	1857028096	61	4167
2026-01-01 03:21:29.18	1.57	54.88	-47.9	-48.9	18.2	0.00e+00	0	35	0	1862270976	61	4182
2026-01-01 03:21:30.18	1.17	55.19	-47.7	-48.7	18.3	0.00e+00	0	35	0	1868562432	61	4097
2026-01-01 03:21:31.18	0.76	55.51	-47.4	-48.4	18.4	0.00e+00	0	35	0	1873805312	61	3944
2026-01-01 03:21:32.17	0.34	55.82	-47.4	-48.4	18.4	0.00e+00	0	35	0	1879048192	61	3924
2026-01-01 03:21:33.17	359.91	56.14	-47.4	-48.4	18.4	0.00e+00	0	35	0	1885339648	61	3929
2026-01-01 03:21:34.17	359.47	56.46	-47.4	-48.4	18.4	0.00e+00	0	35	0	1890582528	61	3935
2026-01-01 03:21:35.17	359.02	56.77	-47.3	-48.3	18.4	0.00e+00	0	35	0	1896873984	61	3880
2026-01-01 03:21:36.17	358.55	57.09	-47.2	-48.2	18.4	0.00e+00	0	35	0	1902116864	61	3852
2026-01-01 03:21:37.17	358.08	57.41	-47.2	-48.2	18.5	0.00e+00	0	35	0	1907359744	61	3843
2026-01-01 03:21:38.17	357.59	57.72	-47.2	-48.2	18.4	0.00e+00	0	35	0	1913651200	61	3837
2026-01-01 03:21:39.16	357.10	58.04	-47.3	-48.3	18.4	0.00e+00	0	35	0	1918894080	60	4114
2026-01-01 03:21:40.16	356.59	58.35	-47.4	-48.4	18.3	0.00e+00	0	35	0	1924136960	60	4189
2026-01-01 03:21:41.16	356.07	58.67	-47.5	-48.5	18.3	0.00e+00	0	35	0	1930428416	60	4225
2026-01-01 03:21:42.16	355.54	58.98	-47.5	-48.5	18.3	0.00e+00	0	35	0	1935671296	60	4211
2026-01-01 03:21:43.16	354.99	59.30	-47.5	-48.5	18.3	0.00e+00	0	35	0	1940914176	60	4230
2026-01-01 03:21:44.16	354.44	59.61	-47.3	-48.4	18.3	0.00e+00	0	35	0	1947205632	60	4159
2026-01-01 03:21:45.15	353.87	59.92	-47.2	-48.2	18.4	0.00e+00	0	35	0	1952448512	60	4060
2026-01-01 03:21:46.15	353.28	60.23	-47.3	-48.3	18.4	0.00e+00	0	35	0	1957691392	60	4144
2026-01-01 03:21:47.15	352.68	60.54	-47.3	-48.3	18.4	0.00e+00	0	35	0	1963982848	60	4128
2026-01-01 03:21:48.15	352.06	60.85	-47.0	-48.0	18.5	0.00e+00	0	35	0	1969225728	60	3984
2026-01-01 03:21:49.14	351.44	61.16	-47.1	-48.1	18.4	0.00e+00	0	35	0	1974468608	60	4049
2026-01-01 03:21:50.15	350.78	61.47	-46.9	-47.9	18.5	0.00e+00	0	35	0	1980760064	60	3957
2026-01-01 03:21:51.15	350.12	61.77	-46.8	-47.8	18.5	0.00e+00	0	35	0	1986002944	60	3884
2026-01-01 03:21:52.14	349.44	62.07	-46.8	-47.8	18.5	0.00e+00	0	35	0	1991245824	60	3874
2026-01-01 03:21:53.14	348.75	62.37	-47.1	-48.1	18.5	0.00e+00	0	35	0	1997537280	60	4009
2026-01-01 03:21:54.14	348.03	62.67	-47.1	-48.1	18.4	0.00e+00	0	35	0	2002780160	60	4027
2026-01-01 03:21:55.13	347.31	62.96	-46.8	-47.8	18.5	0.00e+00	0	35	0	2009071616	60	3910
2026-01-01 03:21:56.12	346.56	63.25	-46.8	-47.7	18.5	0.00e+00	0	35	0	2014314496	60	3864
2026-01-01 03:21:57.12	345.79	63.54	-47.1	-48.1	18.4	0.00e+00	0	35	0	2019557376	59	4252
2026-01-01 03:21:58.11	345.01	63.82	-47.1	-48.1	18.4	0.00e+00	0	35	0	2025848832	59	4288
2026-01-01 03:21:59.11	344.20	64.10	-46.9	-47.9	18.5	0.00e+00	0	35	0	2031091712	59	4174
2026-01-01 03:22:00.10	343.38	64.38	-46.8	-47.8	18.5	0.00e+00	0	35	0	2036334592	59	4101
2026-01-01 03:22:01.10	342.53	64.65	-46.8	-47.8	18.5	0.00e+00	0	35	0	2041577472	59	4104
2026-01-01 03:22:02.10	341.67	64.92	-46.7	-47.7	18.5	0.00e+00	0	35	0	2047868928	59	4091
2026-01-01 03:22:03.10	340.78	65.19	-46.8	-47.8	18.5	0.00e+00	0	35	0	2053111808	59	4133
2026-01-01 03:22:04.10	339.86	65.45	-46.5	-47.5	18.6	0.00e+00	0	35	0	2059403264	59	3981
2026-01-01 03:22:05.09	338.94	65.70	-46.3	-47.3	18.7	0.00e+00	0	35	0	2064646144	59	3879
2026-01-01 03:22:06.09	337.99	65.95	-46.0	-47.0	18.7	0.00e+00	0	35	0	2069889024	58	3962
2026-01-01 03:22:07.09	337.01	66.20	-45.8	-46.8	18.7	0.00e+00	0	35	0	2076180480	58	3887
2026-01-01 03:22:08.09	336.01	66.44	-46.2	-47.2	18.6	0.00e+00	0	35	0	2081423360	58	4071
2026-01-01 03:22:09.09	334.99	66.67	-46.5	-47.6	18.5	0.00e+00	0	35	0	2086666240	58	4246
2026-01-01 03:22:10.09	333.94	66.90	-46.1	-47.1	18.6	0.00e+00	0	35	0	2092957696	58	4012
2026-01-01 03:22:11.08	332.89	67.12	-46.0	-47.0	18.7	0.00e+00	0	35	0	2098200576	58	3959
2026-01-01 03:22:12.08	331.80	67.34	-46.1	-47.1	18.6	0.00e+00	0	35	0	2103443456	58	4026
2026-01-01 03:22:13.07	330.70	67.54	-46.2	-47.1	18.6	0.00e+00	0	35	0	2109734912	58	4047
2026-01-01 03:22:14.07	329.57	67.74	-46.2	-47.2	18.6	0.00e+00	0	35	0	2114977792	58	4070
2026-01-01 03:22:15.07	328.41	67.93	-46.2	-47.2	18.6	0.00e+00	0	35	0	2121269248	58	4087
2026-01-01 03:22:16.06	327.24	68.12	-46.2	-47.2	18.6	0.00e+00	0	35	0	2126512128	58	4073
2026-01-01 03:22:17.05	326.06	68.29	-46.3	-47.2	18.6	0.00e+00	0	35	0	2131755008	58	4087
2026-01-01 03:22:18.05	324.84	68.46	-46.4	-47.4	18.6	0.00e+00	0	35	0	2136997888	58	4181
2026-01-01 03:22:19.04	323.61	68.61	-46.6	-47.6	18.5	0.00e+00	0	35	0	2143289344	58	4280
2026-01-01 03:22:20.04	322.35	68.76	-46.7	-47.7	18.5	0.00e+00	0	35	0	2148532224	58	4300
2026-01-01 03:22:21.05	321.06	68.90	-46.4	-47.4	18.6	0.00e+00	0	35	0	2153775104	58	4167
2026-01-01 03:22:22.05	319.77	69.03	-46.2	-47.2	18.7	0.00e+00	0	35	0	2160066560	58	4083
2026-01-01 03:22:23.05	318.46	69.15	-46.5	-47.5	18.6	0.00e+00	0	35	0	2165309440	58	4200
2026-01-01 03:22:24.05	317.13	69.26	-46.6	-47.7	18.5	0.00e+00	0	35	0	2171600896	58	4293
2026-01-01 03:22:25.04	315.80	69.36	-46.7	-47.8	18.5	0.00e+00	0	35	0	2176843776	58	4344
2026-01-01 03:22:26.03	314.46	69.45	-46.7	-47.7	18.5	0.00e+00	0	35	0	2182086656	58	4315
2026-01-01 03:22:27.02	313.10	69.53	-46.6	-47.6	18.5	0.00e+00	0	35	0	2188378112	58	4272
2026-01-01 03:22:28.01	311.74	69.60	-46.7	-47.7	18.5	0.00e+00	0	35	0	2193620992	58	4310
2026-01-01 03:22:29.01	310.35	69.65	-46.5	-47.5	18.5	0.00e+00	0	35	0	2198863872	58	4210
2026-01-01 03:22:30.01	308.96	69.70	-46.5	-47.5	18.5	0.00e+00	0	35	0	2205155328	58	4198
2026-01-01 03:22:31.02	307.55	69.73	-46.4	-47.4	18.6	0.00e+00	0	35	0	2210398208	58	4153
2026-01-01 03:22:32.02	306.14	69.76	-46.4	-47.4	18.6	0.00e+00	0	35	0	2216689664	58	4165
2026-01-01 03:22:33.01	304.75	69.77	-46.3	-47.3	18.6	0.00e+00	0	35	0	2221932544	58	4119
2026-01-01 03:22:34.01	303.34	69.77	-46.3	-47.3	18.6	0.00e+00	0	35	0	2227175424	58	4102
2026-01-01 03:22:35.01	301.93	69.76	-46.4	-47.4	18.6	0.00e+00	0	35	0	2233466880	58	4172
2026-01-01 03:22:36.01	300.53	69.73	-46.5	-47.5	18.5	0.00e+00	0	35	0	2238709760	58	4199
2026-01-01 03:22:37.00	299.14	69.70	-46.5	-47.5	18.5	0.00e+00	0	35	0	2243952640	58	4213
2026-01-01 03:22:38.00	297.75	69.65	-46.5	-47.5	18.5	0.00e+00	0	35	0	2249195520	58	4213
2026-01-01 03:22:39.00	296.36	69.60	-46.3	-47.3	18.6	0.00e+00	0	35	0	2255486976	58	4126
2026-01-01 03:22:40.00	294.98	69.53	-46.4	-47.4	18.6	0.00e+00	0	35	0	2260729856	58	4156
2026-01-01 03:22:41.00	293.61	69.45	-46.6	-47.7	18.5	0.00e+00	0	35	0	2267021312	58	4292
2026-01-01 03:22:42.00	292.26	69.36	-46.5	-47.5	18.5	0.00e+00	0	35	0	2272264192	58	4239
2026-01-01 03:22:43.01	290.90	69.26	-46.6	-47.6	18.6	0.00e+00	0	35	0	2278555648	58	4260
2026-01-01 03:22:44.01	289.58	69.15	-46.7	-47.7	18.5	0.00e+00	0	35	0	2283798528	58	4312
2026-01-01 03:22:45.01	288.26	69.03	-46.8	-47.8	18.5	0.00e+00	0	35	0	2289041408	58	4387
2026-01-01 03:22:46.01	286.97	68.90	-46.8	-47.8	18.5	0.00e+00	0	34	0	2295332864	58	4341
2026-01-01 03:22:47.00	285.70	68.76	-46.5	-47.5	18.6	0.00e+00	0	35	0	2300575744	58	4235
2026-01-01 03:22:48.00	284.45	68.61	-46.4	-47.4	18.6	0.00e+00	0	35	0	2305818624	58	4175
2026-01-01 03:22:49.01	283.19	68.45	-46.5	-47.5	18.5	0.00e+00	0	35	0	2312110080	58	4207
2026-01-01 03:22:50.01	281.98	68.28	-46.5	-47.5	18.5	0.00e+00	0	35	0	2317352960	58	4227
2026-01-01 03:22:51.02	280.77	68.10	-46.6	-47.6	18.5	0.00e+00	0	35	0	2322595840	58	4265
2026-01-01 03:22:52.01	279.60	67.92	-46.6	-47.6	18.5	0.00e+00	0	35	0	2328887296	58	4264
2026-01-01 03:22:53.01	278.45	67.73	-46.4	-47.4	18.6	0.00e+00	0	35	0	2334130176	58	4151
2026-01-01 03:22:54.00	277.33	67.53	-46.2	-47.2	18.6	0.00e+00	0	35	0	2339373056	58	4060
2026-01-01 03:22:55.00	276.21	67.32	-46.3	-47.3	18.6	0.00e+00	0	35	0	2345664512	58	4117
2026-01-01 03:22:55.99	275.14	67.11	-46.4	-47.4	18.5	0.00e+00	0	35	0	2350907392	58	4169
2026-01-01 03:22:57.00	274.06	66.88	-46.3	-47.3	18.5	0.00e+00	0	35	0	2356150272	58	4143
2026-01-01 03:22:58.00	273.02	66.65	-46.3	-47.3	18.5	0.00e+00	0	35	0	2362441728	58	4141
2026-01-01 03:22:59.00	272.00	66.42	-46.4	-47.4	18.6	0.00e+00	0	35	0	2367684608	58	4179
2026-01-01 03:23:00.00	271.00	66.18	-46.5	-47.6	18.5	0.00e+00	0	35	0	2372927488	58	4248
2026-01-01 03:23:01.00	270.02	65.93	-46.8	-47.9	18.5	0.00e+00	0	35	0	2379218944	58	4395
2026-01-01 03:23:02.00	269.07	65.68	-46.8	-47.8	18.5	0.00e+00	0	35	0	2384461824	59	4142
2026-01-01 03:23:02.99	268.15	65.42	-46.6	-47.6	18.5	0.00e+00	0	35	0	2390753280	59	4043
2026-01-01 03:23:04.00	267.23	65.16	-46.5	-47.5	18.6	0.00e+00	0	35	0	2395996160	59	3963
2026-01-01 03:23:05.00	266.34	64.89	-46.4	-47.3	18.6	0.00e+00	0	35	0	2401239040	59	3913
2026-01-01 03:23:06.00	265.47	64.62	-46.5	-47.5	18.6	0.00e+00	0	35	0	2407530496	59	3964
2026-01-01 03:23:06.99	264.63	64.35	-46.7	-47.7	18.6	0.00e+00	0	35	0	2412773376	59	4068
2026-01-01 03:23:07.99	263.80	64.07	-46.7	-47.7	18.6	0.00e+00	0	35	0	2418016256	59	4059
2026-01-01 03:23:08.99	263.00	63.78	-46.5	-47.5	18.6	0.00e+00	0	35	0	2424307712	59	3987
2026-01-01 03:23:09.98	262.22	63.50	-46.6	-47.5	18.6	0.00e+00	0	35	0	2429550592	59	4001
2026-01-01 03:23:10.97	261.46	63.21	-46.9	-47.8	18.5	0.00e+00	0	35	0	2434793472	59	4141
2026-01-01 03:23:11.97	260.71	62.92	-47.0	-48.0	18.5	0.00e+00	0	35	0	2441084928	59	4222
2026-01-01 03:23:12.96	259.98	62.63	-47.1	-48.2	18.4	0.00e+00	0	35	0	2446327808	59	4306
2026-01-01 03:23:13.96	259.27	62.33	-47.3	-48.3	18.4	0.00e+00	0	34	0	2452619264	59	4369
2026-01-01 03:23:14.96	258.57	62.03	-47.4	-48.5	18.3	0.00e+00	0	35	0	2457862144	59	4442
2026-01-01 03:23:15.96	257.89	61.73	-47.2	-48.2	18.4	0.00e+00	0	35	0	2463105024	60	4075
2026-01-01 03:23:16.97	257.22	61.42	-47.0	-48.0	18.5	0.00e+00	0	35	0	2469396480	60	3973
2026-01-01 03:23:17.96	256.58	61.12	-46.9	-47.9	18.5	0.00e+00	0	35	0	2474639360	60	3950
2026-01-01 03:23:18.96	255.95	60.81	-46.9	-47.9	18.5	0.00e+00	0	35	0	2479882240	60	3937
2026-01-01 03:23:19.95	255.34	60.50	-46.9	-47.9	18.5	0.00e+00	0	35	0	2485125120	60	3949
2026-01-01 03:23:20.96	254.73	60.19	-47.1	-48.1	18.4	0.00e+00	0	35	0	2491416576	60	4031
2026-01-01 03:23:21.96	254.15	59.88	-47.0	-48.0	18.4	0.00e+00	0	35	0	2496659456	60	3989
2026-01-01 03:23:22.96	253.57	59.56	-46.9	-47.8	18.5	0.00e+00	0	35	0	2502950912	60	3908
2026-01-01 03:23:23.97	253.01	59.24	-46.9	-47.8	18.5	0.00e+00	0	35	0	2508193792	60	3907
2026-01-01 03:23:24.97	252.46	58.93	-47.1	-48.1	18.4	0.00e+00	0	35	0	2514485248	60	4028
2026-01-01 03:23:25.96	251.94	58.62	-46.9	-47.8	18.5	0.00e+00	0	35	0	2519728128	60	3905
2026-01-01 03:23:26.95	251.42	58.30	-47.1	-48.1	18.4	0.00e+00	0	35	0	2524971008	59	4252
2026-01-01 03:23:27.96	250.91	57.98	-47.3	-48.3	18.3	0.00e+00	0	35	0	2531262464	59	4352
2026-01-01 03:23:28.96	250.41	57.67	-47.3	-48.3	18.4	0.00e+00	0	35	0	2536505344	60	4122
2026-01-01 03:23:29.96	249.93	57.35	-47.4	-48.4	18.4	0.00e+00	0	35	0	2541748224	60	4173
2026-01-01 03:23:30.96	249.46	57.03	-47.5	-48.5	18.3	0.00e+00	0	35	0	2546991104	60	4198
2026-01-01 03:23:31.96	249.00	56.71	-47.3	-48.3	18.4	0.00e+00	0	35	0	2553282560	60	4144
2026-01-01 03:23:32.95	248.55	56.40	-47.5	-48.5	18.3	0.00e+00	0	35	0	2558525440	60	4229
2026-01-01 03:23:33.95	248.11	56.08	-47.6	-48.6	18.3	0.00e+00	0	35	0	2564816896	60	4273
2026-01-01 03:23:34.96	247.67	55.76	-47.5	-48.6	18.3	0.00e+00	0	35	0	2570059776	60	4265
2026-01-01 03:23:35.95	247.26	55.44	-47.5	-48.5	18.3	0.00e+00	0	35	0	2575302656	60	4239
2026-01-01 03:23:36.94	246.85	55.13	-47.3	-48.3	18.4	0.00e+00	0	35	0	2581594112	60	4125
2026-01-01 03:23:37.94	246.45	54.81	-47.3	-48.3	18.3	0.00e+00	0	35	0	2586836992	60	4103
2026-01-01 03:23:38.94	246.05	54.50	-47.4	-48.5	18.3	0.00e+00	0	34	0	2592079872	60	4195
2026-01-01 03:23:39.94	245.67	54.18	-47.6	-48.6	18.2	0.00e+00	0	35	0	2598371328	60	4291
2026-01-01 03:23:40.94	245.29	53.87	-47.5	-48.5	18.3	0.00e+00	0	35	0	2603614208	60	4221
2026-01-01 03:23:41.95	244.92	53.55	-47.4	-48.4	18.3	0.00e+00	0	35	0	2608857088	60	4152
2026-01-01 03:23:42.95	244.56	53.24	-47.3	-48.3	18.3	0.00e+00	0	35	0	2615148544	60	4119
2026-01-01 03:23:43.94	244.21	52.93	-47.1	-48.1	18.4	0.00e+00	0	35	0	2620391424	60	4026
2026-01-01 03:23:44.94	243.86	52.62	-47.1	-48.1	18.4	0.00e+00	0	35	0	2626682880	60	4039
2026-01-01 03:23:45.93	243.53	52.31	-47.3	-48.3	18.3	0.00e+00	0	35	0	2631925760	60	4120
2026-01-01 03:23:46.92	243.20	52.00	-47.3	-48.3	18.3	0.00e+00	0	35	0	2637168640	60	4138
2026-01-01 03:23:47.92	242.88	51.69	-47.5	-48.5	18.3	0.00e+00	0	35	0	2643460096	60	4232
2026-01-01 03:23:48.92	242.56	51.38	-47.4	-48.4	18.3	0.00e+00	0	35	0	2648702976	60	4188
2026-01-01 03:23:49.92	242.25	51.08	-47.2	-48.2	18.4	0.00e+00	0	35	0	2653945856	60	4091
2026-01-01 03:23:50.92	241.94	50.77	-47.3	-48.2	18.4	0.00e+00	0	35	0	2660237312	60	4097
2026-01-01 03:23:51.92	241.64	50.47	-47.4	-48.4	18.4	0.00e+00	0	35	0	2665480192	60	4174
2026-01-01 03:23:52.92	241.35	50.16	-47.5	-48.6	18.3	0.00e+00	0	35	0	2670723072	60	4258
2026-01-01 03:23:53.93	241.06	49.86	-47.5	-48.6	18.3	0.00e+00	0	35	0	2677014528	60	4247
2026-01-01 03:23:54.92	240.78	49.56	-47.6	-48.6	18.3	0.00e+00	0	35	0	2682257408	60	4270
2026-01-01 03:23:55.92	240.51	49.26	-47.1	-48.1	18.5	0.00e+00	0	35	0	2688548864	60	4007
2026-01-01 03:23:56.91	240.24	48.97	-47.1	-48.0	18.5	0.00e+00	0	35	0	2693791744	60	4001
2026-01-01 03:23:57.90	239.98	48.67	-46.7	-47.7	18.5	0.00e+00	0	35	0	2699034624	60	3864
2026-01-01 03:23:58.90	239.72	48.38	-47.0	-48.0	18.5	0.00e+00	0	35	0	2704277504	59	4200
2026-01-01 03:23:59.91	239.46	48.08	-46.8	-47.8	18.5	0.00e+00	0	35	0	2710568960	59	4134
2026-01-01 03:24:00.91	239.21	47.79	-46.9	-47.9	18.5	0.00e+00	0	35	0	2715811840	59	4153
2026-01-01 03:24:01.90	238.97	47.50	-46.9	-47.8	18.5	0.00e+00	0	35	0	2721054720	59	4143
2026-01-01 03:24:02.90	238.73	47.21	-47.0	-48.0	18.4	0.00e+00	0	35	0	2727346176	59	4222
2026-01-01 03:24:03.90	238.49	46.92	-47.1	-48.2	18.4	0.00e+00	0	35	0	2732589056	59	4297
2026-01-01 03:24:04.89	238.26	46.63	-47.3	-48.3	18.3	0.00e+00	0	35	0	2738880512	59	4368
2026-01-01 03:24:05.89	238.04	46.35	-47.3	-48.3	18.3	0.00e+00	0	35	0	2744123392	59	4359
2026-01-01 03:24:06.89	237.81	46.06	-47.3	-48.3	18.3	0.00e+00	0	35	0	2749366272	59	4361
2026-01-01 03:24:07.89	237.59	45.78	-47.1	-48.2	18.4	0.00e+00	0	35	0	2755657728	59	4292
2026-01-01 03:24:08.89	237.38	45.50	-47.2	-48.2	18.4	0.00e+00	0	35	0	2760900608	59	4338
2026-01-01 03:24:09.89	237.17	45.22	-47.1	-48.1	18.4	0.00e+00	0	35	0	2766143488	59	4255
2026-01-01 03:24:10.89	236.96	44.94	-47.1	-48.1	18.4	0.00e+00	0	35	0	2772434944	59	4244
2026-01-01 03:24:11.89	236.75	44.66	-46.7	-47.7	18.5	0.00e+00	0	34	0	2777677824	59	4086
2026-01-01 03:24:12.89	236.55	44.39	-46.8	-47.8	18.5	0.00e+00	0	35	0	2782920704	59	4111
2026-01-01 03:24:13.88	236.36	44.12	-46.7	-47.7	18.5	0.00e+00	0	35	0	2789212160	59	4077
2026-01-01 03:24:14.87	236.17	43.85	-46.7	-47.7	18.4	0.00e+00	0	35	0	2794455040	59	4095
2026-01-01 03:24:15.87	235.98	43.58	-46.7	-47.7	18.5	0.00e+00	0	35	0	2800746496	59	4075
2026-01-01 03:24:16.87	235.79	43.31	-46.6	-47.6	18.5	0.00e+00	0	35	0	2805989376	59	4042
2026-01-01 03:24:17.87	235.60	43.04	-46.6	-47.6	18.5	0.00e+00	0	35	0	2811232256	59	4037
2026-01-01 03:24:18.87	235.42	42.77	-46.7	-47.7	18.5	0.00e+00	0	35	0	2817523712	59	4064
2026-01-01 03:24:19.88	235.24	42.51	-46.8	-47.8	18.5	0.00e+00	0	35	0	2822766592	59	4100
2026-01-01 03:24:20.88	235.07	42.24	-46.8	-47.8	18.5	0.00e+00	0	34	0	2828009472	59	4124
2026-01-01 03:24:21.88	234.90	41.98	-46.9	-47.9	18.5	0.00e+00	0	35	0	2834300928	59	4162
2026-01-01 03:24:22.88	234.73	41.72	-46.9	-47.9	18.5	0.00e+00	0	34	0	2839543808	59	4189
2026-01-01 03:24:23.87	234.56	41.47	-47.0	-48.0	18.4	0.00e+00	0	35	0	2845835264	59	4217
2026-01-01 03:24:24.87	234.40	41.21	-47.0	-48.0	18.4	0.00e+00	0	34	0	2851078144	59	4220
2026-01-01 03:24:25.87	234.24	40.95	-46.9	-48.0	18.4	0.00e+00	0	35	0	2856321024	59	4196
2026-01-01 03:24:26.87	234.08	40.70	-46.6	-47.6	18.5	0.00e+00	0	34	0	2862612480	59	4031
2026-01-01 03:24:27.87	233.92	40.45	-46.5	-47.5	18.5	0.00e+00	0	35	0	2867855360	59	3999
2026-01-01 03:24:28.87	233.77	40.20	-46.5	-47.5	18.5	0.00e+00	0	35	0	2873098240	59	3961
2026-01-01 03:24:29.87	233.62	39.95	-46.4	-47.4	18.6	0.00e+00	0	35	0	2879389696	59	3926
2026-01-01 03:24:30.87	233.47	39.70	-46.3	-47.3	18.6	0.00e+00	0	35	0	2884632576	59	3877
2026-01-01 03:24:31.87	233.32	39.45	-46.2	-47.2	18.6	0.00e+00	0	35	0	2889875456	58	4078
2026-01-01 03:24:32.87	233.18	39.21	-46.3	-47.3	18.5	0.00e+00	0	35	0	2896166912	58	4107
2026-01-01 03:24:33.87	233.03	38.97	-46.4	-47.4	18.5	0.00e+00	0	35	0	2901409792	58	4165
2026-01-01 03:24:34.87	232.89	38.72	-46.4	-47.4	18.5	0.00e+00	0	35	0	2907701248	58	4190
2026-01-01 03:24:35.87	232.76	38.48	-46.4	-47.4	18.5	0.00e+00	0	35	0	2912944128	58	4157
2026-01-01 03:24:36.87	232.62	38.25	-46.5	-47.5	18.5	0.00e+00	0	35	0	2918187008	58	4198
2026-01-01 03:24:37.87	232.49	38.01	-46.4	-47.4	18.5	0.00e+00	0	34	0	2924478464	58	4176
2026-01-01 03:24:38.87	232.35	37.77	-46.4	-47.4	18.4	0.00e+00	0	34	0	2929721344	58	4183
2026-01-01 03:24:39.87	232.22	37.54	-46.5	-47.4	18.4	0.00e+00	0	35	0	2934964224	58	4192
2026-01-01 03:24:40.86	232.10	37.31	-46.6	-47.6	18.4	0.00e+00	0	35	0	2941255680	58	4257
2026-01-01 03:24:41.85	231.97	37.08	-46.7	-47.7	18.4	0.00e+00	0	35	0	2946498560	58	4293
2026-01-01 03:24:42.85	231.85	36.85	-46.8	-47.8	18.3	0.00e+00	0	35	0	2951741440	58	4352
2026-01-01 03:24:43.85	231.72	36.62	-46.8	-47.8	18.3	0.00e+00	0	34	0	2958032896	58	4387
2026-01-01 03:24:44.85	231.60	36.39	-46.8	-47.9	18.3	0.00e+00	0	35	0	2963275776	58	4394
2026-01-01 03:24:45.85	231.48	36.17	-46.8	-47.9	18.3	0.00e+00	0	35	0	2968518656	58	4396
2026-01-01 03:24:46.85	231.37	35.94	-46.8	-47.8	18.3	0.00e+00	0	35	0	2974810112	58	4390
2026-01-01 03:24:47.85	231.25	35.72	-46.8	-47.8	18.3	0.00e+00	0	35	0	2980052992	58	4370
2026-01-01 03:24:48.85	231.14	35.50	-46.8	-47.8	18.3	0.00e+00	0	35	0	2985295872	58	4389
2026-01-01 03:24:49.85	231.02	35.28	-46.9	-47.9	18.3	0.00e+00	0	35	0	2991587328	58	4426
2026-01-01 03:24:50.85	230.91	35.06	-47.0	-48.0	18.3	0.00e+00	0	35	0	2996830208	59	4221
2026-01-01 03:24:51.85	230.80	34.84	-47.0	-48.1	18.3	0.00e+00	0	35	0	3002073088	59	4246
2026-01-01 03:24:52.84	230.69	34.63	-47.0	-48.0	18.3	0.00e+00	0	35	0	3008364544	59	4229
2026-01-01 03:24:53.83	230.59	34.42	-47.0	-48.0	18.3	0.00e+00	0	35	0	3013607424	59	4221
2026-01-01 03:24:54.83	230.48	34.20	-47.0	-48.0	18.3	0.00e+00	0	34	0	3019898880	59	4240
2026-01-01 03:24:55.83	230.38	33.99	-46.9	-47.9	18.3	0.00e+00	0	35	0	3025141760	59	4165
2026-01-01 03:24:56.83	230.28	33.78	-46.7	-47.7	18.4	0.00e+00	0	35	0	3030384640	59	4083
2026-01-01 03:24:57.83	230.18	33.57	-46.7	-47.7	18.4	0.00e+00	0	35	0	3036676096	59	4073
2026-01-01 03:24:58.83	230.08	33.37	-46.6	-47.6	18.5	0.00e+00	0	35	0	3041918976	59	4010
2026-01-01 03:24:59.83	229.98	33.16	-46.6	-47.6	18.5	0.00e+00	0	34	0	3047161856	59	4023
2026-01-01 03:25:00.82	229.88	32.96	-46.6	-47.7	18.4	0.00e+00	0	35	0	3053453312	59	4052
2026-01-01 03:25:01.81	229.79	32.75	-46.7	-47.7	18.4	0.00e+00	0	35	0	3058696192	59	4096
2026-01-01 03:25:02.82	229.69	32.55	-46.7	-47.7	18.4	0.00e+00	0	35	0	3063939072	59	4075
2026-01-01 03:25:03.81	229.60	32.35	-46.7	-47.7	18.4	0.00e+00	0	35	0	3070230528	59	4082
2026-01-01 03:25:04.82	229.50	32.15	-46.8	-47.8	18.4	0.00e+00	0	35	0	3075473408	59	4109
2026-01-01 03:25:05.82	229.41	31.95	-46.7	-47.7	18.4	0.00e+00	0	34	0	3081764864	59	4084
2026-01-01 03:25:06.82	229.32	31.75	-46.7	-47.7	18.4	0.00e+00	0	35	0	3087007744	59	4081
2026-01-01 03:25:07.82	229.23	31.55	-46.7	-47.7	18.4	0.00e+00	0	35	0	3092250624	59	4061
2026-01-01 03:25:08.82	229.15	31.36	-46.6	-47.6	18.4	0.00e+00	0	34	0	3098542080	59	4042
2026-01-01 03:25:09.82	229.06	31.16	-46.8	-47.8	18.4	0.00e+00	0	35	0	3103784960	59	4115
2026-01-01 03:25:10.81	228.97	30.97	-46.8	-47.8	18.4	0.00e+00	0	35	0	3109027840	59	4120
2026-01-01 03:25:11.81	228.89	30.78	-46.9	-47.9	18.4	0.00e+00	0	35	0	3114270720	59	4159
2026-01-01 03:25:12.80	228.81	30.59	-46.7	-47.7	18.5	0.00e+00	0	35	0	3120562176	59	4070
2026-01-01 03:25:13.80	228.72	30.40	-46.7	-47.7	18.4	0.00e+00	0	35	0	3125805056	59	4096
2026-01-01 03:25:14.80	228.64	30.22	-46.7	-47.8	18.4	0.00e+00	0	35	0	3132096512	59	4102
2026-01-01 03:25:15.80	228.56	30.03	-46.7	-47.7	18.4	0.00e+00	0	35	0	3137339392	59	4080
2026-01-01 03:25:16.80	228.48	29.84	-46.8	-47.8	18.4	0.00e+00	0	34	0	3142582272	59	4115
2026-01-01 03:25:17.80	228.40	29.66	-46.9	-47.9	18.4	0.00e+00	0	35	0	3148873728	59	4158
2026-01-01 03:25:18.79	228.33	29.48	-46.7	-47.8	18.4	0.00e+00	0	35	0	3154116608	59	4099
2026-01-01 03:25:19.79	228.25	29.29	-46.8	-47.9	18.4	0.00e+00	0	35	0	3159359488	59	4148
2026-01-01 03:25:20.78	228.17	29.12	-46.8	-47.8	18.4	0.00e+00	0	35	0	3165650944	59	4130
2026-01-01 03:25:21.78	228.10	28.93	-46.8	-47.8	18.4	0.00e+00	0	35	0	3170893824	59	4120
2026-01-01 03:25:22.78	228.02	28.76	-46.8	-47.9	18.4	0.00e+00	0	35	0	3176136704	59	4146
2026-01-01 03:25:23.78	227.95	28.58	-46.8	-47.8	18.4	0.00e+00	0	35	0	3182428160	59	4116
2026-01-01 03:25:24.79	227.88	28.40	-46.8	-47.8	18.4	0.00e+00	0	35	0	3187671040	59	4128
2026-01-01 03:25:25.78	227.81	28.22	-46.8	-47.8	18.4	0.00e+00	0	35	0	3193962496	59	4123
2026-01-01 03:25:26.77	227.74	28.05	-46.8	-47.8	18.4	0.00e+00	0	35	0	3199205376	59	4134
2026-01-01 03:25:27.76	227.67	27.88	-46.8	-47.8	18.4	0.00e+00	0	35	0	3204448256	59	4142
2026-01-01 03:25:28.77	227.60	27.70	-47.0	-48.0	18.3	0.00e+00	0	35	0	3210739712	59	4226
2026-01-01 03:25:29.76	227.53	27.53	-46.8	-47.8	18.4	0.00e+00	0	34	0	3215982592	59	4145
2026-01-01 03:25:30.76	227.46	27.36	-47.1	-48.1	18.3	0.00e+00	0	35	0	3221225472	59	4252
2026-01-01 03:25:31.75	227.39	27.20	-47.0	-48.0	18.4	0.00e+00	0	35	0	3226468352	59	4200
2026-01-01 03:25:32.75	227.33	27.03	-47.0	-48.0	18.3	0.00e+00	0	35	0	3232759808	59	4237
2026-01-01 03:25:33.75	227.26	26.86	-47.1	-48.2	18.3	0.00e+00	0	35	0	3238002688	59	4301
2026-01-01 03:25:34.75	227.20	26.69	-47.1	-48.1	18.3	0.00e+00	0	35	0	3244294144	59	4278
2026-01-01 03:25:35.74	227.13	26.53	-47.2	-48.3	18.2	0.00e+00	0	35	0	3249537024	59	4357
2026-01-01 03:25:36.74	227.07	26.36	-47.2	-48.2	18.2	0.00e+00	0	35	0	3254779904	59	4321
2026-01-01 03:25:37.74	227.01	26.20	-47.1	-48.2	18.3	0.00e+00	0	35	0	3261071360	59	4294
2026-01-01 03:25:38.74	226.95	26.04	-47.2	-48.3	18.2	0.00e+00	0	35	0	3266314240	59	4359
2026-01-01 03:25:39.75	226.88	25.87	-47.3	-48.4	18.2	0.00e+00	0	35	0	3271557120	59	4395
2026-01-01 03:25:40.75	226.82	25.71	-47.2	-48.2	18.2	0.00e+00	0	35	0	3277848576	59	4309
2026-01-01 03:25:41.75	226.76	25.55	-47.1	-48.1	18.3	0.00e+00	0	35	0	3283091456	59	4283
2026-01-01 03:25:42.75	226.70	25.39	-47.1	-48.0	18.3	0.00e+00	0	35	0	3288334336	59	4239
2026-01-01 03:25:43.73	226.64	25.24	-47.0	-48.0	18.3	0.00e+00	0	35	0	3294625792	59	4226
2026-01-01 03:25:44.73	226.59	25.08	-47.1	-48.1	18.3	0.00e+00	0	35	0	3299868672	59	4253
2026-01-01 03:25:45.73	226.53	24.92	-47.1	-48.1	18.3	0.00e+00	0	35	0	3306160128	59	4275
2026-01-01 03:25:46.72	226.47	24.77	-47.2	-48.3	18.2	0.00e+00	0	35	0	3311403008	59	4342
2026-01-01 03:25:47.72	226.42	24.62	-47.3	-48.3	18.2	0.00e+00	0	35	0	3316645888	59	4376
2026-01-01 03:25:48.72	226.36	24.46	-47.3	-48.3	18.3	0.00e+00	0	35	0	3322937344	59	4389
2026-01-01 03:25:49.71	226.31	24.31	-47.0	-48.0	18.4	0.00e+00	0	35	0	3328180224	60	3996
2026-01-01 03:25:50.71	226.25	24.16	-47.1	-48.1	18.3	0.00e+00	0	35	0	3333423104	60	4038
2026-01-01 03:25:51.71	226.20	24.01	-47.2	-48.2	18.3	0.00e+00	0	35	0	3339714560	60	4091
2026-01-01 03:25:52.72	226.14	23.85	-47.3	-48.4	18.3	0.00e+00	0	34	0	3344957440	60	4148
2026-01-01 03:25:53.71	226.09	23.71	-47.3	-48.4	18.2	0.00e+00	0	35	0	3350200320	60	4155
2026-01-01 03:25:54.70	226.04	23.56	-47.4	-48.4	18.2	0.00e+00	0	35	0	3356491776	60	4190
2026-01-01 03:25:55.70	225.99	23.41	-47.3	-48.4	18.2	0.00e+00	0	35	0	3361734656	60	4159
2026-01-01 03:25:56.70	225.93	23.26	-47.5	-48.5	18.1	0.00e+00	0	35	0	3366977536	60	4242
2026-01-01 03:25:57.70	225.88	23.12	-47.4	-48.4	18.1	0.00e+00	0	35	0	3373268992	60	4184
2026-01-01 03:25:58.69	225.83	22.97	-47.5	-48.6	18.1	0.00e+00	0	34	0	3378511872	60	4262
2026-01-01 03:25:59.69	225.78	22.83	-47.4	-48.5	18.2	0.00e+00	0	34	0	3383754752	60	4214
2026-01-01 03:26:00.69	225.73	22.68	-47.5	-48.5	18.2	0.00e+00	0	34	0	3390046208	60	4223
2026-01-01 03:26:01.69	225.68	22.54	-47.4	-48.5	18.1	0.00e+00	0	35	0	3395289088	60	4204
2026-01-01 03:26:02.68	225.64	22.40	-47.2	-48.2	18.2	0.00e+00	0	35	0	3400531968	60	4097
2026-01-01 03:26:03.68	225.59	22.26	-47.2	-48.3	18.2	0.00e+00	0	35	0	3406823424	60	4105
2026-01-01 03:26:04.68	225.54	22.12	-47.2	-48.3	18.2	0.00e+00	0	35	0	3412066304	60	4100
2026-01-01 03:26:05.67	225.49	21.98	-47.2	-48.2	18.2	0.00e+00	0	35	0	3418357760	60	4067
2026-01-01 03:26:06.67	225.45	21.84	-47.2	-48.2	18.2	0.00e+00	0	35	0	3423600640	60	4095
2026-01-01 03:26:07.67	225.40	21.70	-47.1	-48.1	18.2	0.00e+00	0	35	0	3428843520	60	4046
2026-01-01 03:26:08.67	225.35	21.56	-47.1	-48.2	18.2	0.00e+00	0	34	0	3435134976	60	4054
2026-01-01 03:26:09.66	225.31	21.43	-47.3	-48.3	18.2	0.00e+00	0	34	0	3440377856	60	4106
2026-01-01 03:26:10.65	225.26	21.29	-47.3	-48.3	18.2	0.00e+00	0	35	0	3445620736	60	4130
2026-01-01 03:26:11.65	225.22	21.16	-47.2	-48.3	18.2	0.00e+00	0	35	0	3451912192	60	4104
2026-01-01 03:26:12.64	225.18	21.02	-47.4	-48.4	18.2	0.00e+00	0	34	0	3457155072	60	4187
2026-01-01 03:26:13.64	225.13	20.89	-47.4	-48.4	18.2	0.00e+00	0	34	0	3462397952	60	4176
2026-01-01 03:26:14.64	225.09	20.75	-47.4	-48.5	18.2	0.00e+00	0	34	0	3468689408	60	4197
2026-01-01 03:26:15.64	225.05	20.62	-47.4	-48.5	18.1	0.00e+00	0	35	0	3473932288	60	4199
2026-01-01 03:26:16.64	225.00	20.49	-47.5	-48.6	18.1	0.00e+00	0	35	0	3479175168	60	4258
2026-01-01 03:26:17.63	224.96	20.36	-47.6	-48.6	18.1	0.00e+00	0	34	0	3485466624	60	4282
2026-01-01 03:26:18.62	224.92	20.23	-47.6	-48.7	18.1	0.00e+00	0	35	0	3490709504	60	4303
2026-01-01 03:26:19.62	224.88	20.10	-47.8	-48.8	18.0	0.00e+00	0	35	0	3495952384	60	4376
2026-01-01 03:26:20.62	224.84	19.97	-47.8	-48.8	18.1	0.00e+00	0	34	0	3502243840	60	4377
2026-01-01 03:26:21.61	224.80	19.84	-47.8	-48.8	18.1	0.00e+00	0	35	0	3507486720	60	4383
2026-01-01 03:26:22.62	224.76	19.71	-47.8	-48.8	18.1	0.00e+00	0	35	0	3513778176	60	4385
2026-01-01 03:26:23.61	224.72	19.59	-47.8	-48.8	18.0	0.00e+00	0	35	0	3519021056	60	4379
2026-01-01 03:26:24.61	224.68	19.46	-47.8	-48.9	18.0	0.00e+00	0	34	0	3524263936	60	4398
2026-01-01 03:26:25.60	224.64	19.33	-47.8	-48.9	18.0	0.00e+00	0	35	0	3529506816	60	4394
2026-01-01 03:26:26.61	224.60	19.21	-47.9	-48.9	18.0	0.00e+00	0	34	0	3535798272	60	4433
2026-01-01 03:26:27.59	224.56	19.08	-47.9	-48.9	18.0	0.00e+00	0	35	0	3541041152	60	4431
2026-01-01 03:26:28.59	224.52	18.96	-47.9	-48.9	18.0	0.00e+00	0	34	0	3546284032	60	4434
2026-01-01 03:26:29.59	224.49	18.83	-47.9	-48.9	18.0	0.00e+00	0	35	0	3552575488	60	4428
2026-01-01 03:26:30.59	224.45	18.71	-47.9	-49.0	18.0	0.00e+00	0	35	0	3557818368	60	4446
2026-01-01 03:26:31.59	224.41	18.59	-48.0	-49.1	18.0	0.00e+00	0	34	0	3564109824	61	4267
2026-01-01 03:26:32.59	224.38	18.47	-47.9	-49.0	18.0	0.00e+00	0	35	0	3569352704	61	4220
2026-01-01 03:26:33.59	224.34	18.34	-48.0	-49.0	18.0	0.00e+00	0	35	0	3574595584	61	4241
2026-01-01 03:26:34.59	224.30	18.22	-48.0	-49.1	18.0	0.00e+00	0	35	0	3580887040	61	4257
2026-01-01 03:26:35.60	224.27	18.10	-48.0	-49.1	18.0	0.00e+00	0	35	0	3586129920	61	4269
2026-01-01 03:26:36.59	224.23	17.98	-48.1	-49.2	18.0	0.00e+00	0	34	0	3591372800	61	4303
2026-01-01 03:26:37.60	224.20	17.86	-48.2	-49.3	18.0	0.00e+00	0	35	0	3597664256	61	4361
2026-01-01 03:26:38.60	224.16	17.74	-48.2	-49.3	17.9	0.00e+00	0	35	0	3602907136	61	4344
2026-01-01 03:26:39.61	224.13	17.62	-48.3	-49.4	17.9	0.00e+00	0	35	0	3608150016	61	4417
2026-01-01 03:26:40.60	224.09	17.51	-48.2	-49.3	17.9	0.00e+00	0	34	0	3614441472	61	4377
2026-01-01 03:26:41.61	224.06	17.39	-48.2	-49.3	18.0	0.00e+00	0	35	0	3619684352	61	4365
2026-01-01 03:26:42.61	224.02	17.27	-48.3	-49.3	17.9	0.00e+00	0	35	0	3625975808	61	4389
2026-01-01 03:26:43.60	223.99	17.16	-48.3	-49.4	17.9	0.00e+00	0	35	0	3631218688	61	4407
2026-01-01 03:26:44.61	223.96	17.04	-48.4	-49.5	17.9	0.00e+00	0	35	0	3637510144	61	4481
2026-01-01 03:26:45.60	223.92	16.93	-48.4	-49.5	17.9	0.00e+00	0	35	0	3642753024	62	4221
2026-01-01 03:26:46.60	223.89	16.81	-48.5	-49.6	17.8	0.00e+00	0	35	0	3647995904	62	4252
2026-01-01 03:26:47.60	223.86	16.70	-48.6	-49.7	17.8	0.00e+00	0	35	0	3653238784	62	4301
2026-01-01 03:26:48.60	223.83	16.59	-48.6	-49.7	17.8	0.00e+00	0	35	0	3659530240	62	4335
