passes_logs/2026/01/01/R3.2S_Murmansk/R3.2S_Murmansk__20260101_143332_AQUA_rec.log

#Pass ID: 20260101_143332_AQUA
#Satellite: AQUA
#Configuration: AQUA
#almurnet v.1.7.20251203
#Start time: 2026-01-01 14:33:34

#Version: 2.2.20231116
#Station: R3.2S_Murmansk
#Location: 33.079688 lon 68.888172 lat
#TLE: 1 27424U 02022A   25365.92641127  .00002078  00000+0  42628-3 0  9999
#TLE: 2 27424  98.4058 327.1196 0001962  94.7781 340.6230 14.61783896258835

#Time	Az	El	Level	Level2	SNR	BER	BlckErr	Temp	State	Recorded	gain1	gain2
2026-01-01 14:33:34.04	243.62	2.06	-59.6	-78.8	3.8	7.46e-01	0	32	0	0	88	32105
2026-01-01 14:33:35.04	243.74	2.10	-59.6	-78.8	3.8	7.49e-01	0	32	104	0	86	36010
2026-01-01 14:33:36.05	243.85	2.15	-59.6	-78.9	3.8	7.46e-01	0	32	104	0	86	36174
2026-01-01 14:33:37.06	243.97	2.19	-59.6	-78.9	3.8	7.45e-01	0	32	104	0	86	36266
2026-01-01 14:33:38.07	244.08	2.24	-59.6	-78.9	3.8	7.45e-01	0	32	104	0	86	36306
2026-01-01 14:33:39.08	244.20	2.29	-59.6	-78.9	3.8	7.45e-01	0	32	104	0	86	36188
2026-01-01 14:33:40.08	244.32	2.33	-59.6	-78.9	3.8	7.44e-01	0	32	104	0	86	36227
2026-01-01 14:33:41.09	244.43	2.38	-59.6	-78.8	3.8	7.43e-01	0	32	104	0	86	36101
2026-01-01 14:33:42.10	244.55	2.42	-59.6	-78.8	3.8	7.46e-01	0	32	104	0	86	36093
2026-01-01 14:33:43.11	244.67	2.47	-59.6	-78.8	3.8	7.46e-01	0	32	104	0	86	36063
2026-01-01 14:33:44.12	244.79	2.51	-59.6	-78.8	3.8	7.48e-01	0	32	104	0	86	35992
2026-01-01 14:33:45.13	244.91	2.56	-59.6	-78.9	3.8	7.43e-01	0	32	104	0	86	36223
2026-01-01 14:33:46.14	245.03	2.60	-59.6	-78.8	3.8	7.46e-01	0	32	104	0	86	36099
2026-01-01 14:33:47.15	245.15	2.65	-59.6	-78.9	3.8	7.45e-01	0	32	104	0	86	36197
2026-01-01 14:33:48.16	245.27	2.69	-59.6	-78.9	3.8	7.46e-01	0	32	104	0	86	36290
2026-01-01 14:33:49.17	245.39	2.74	-59.6	-78.9	3.8	7.45e-01	0	32	104	0	86	36362
2026-01-01 14:33:50.18	245.51	2.78	-59.6	-78.9	3.8	7.46e-01	0	32	104	0	86	36333
2026-01-01 14:33:51.19	245.63	2.83	-59.6	-78.9	3.8	7.46e-01	0	32	104	0	86	36142
2026-01-01 14:33:52.19	245.75	2.87	-59.6	-78.8	3.8	7.44e-01	0	32	104	0	86	35956
2026-01-01 14:33:53.20	245.87	2.92	-59.6	-78.7	3.8	7.44e-01	0	32	104	0	86	35380
2026-01-01 14:33:54.20	245.99	2.96	-59.6	-78.5	3.8	7.45e-01	0	32	104	0	86	34804
2026-01-01 14:33:55.21	246.11	3.01	-59.5	-78.5	3.8	7.47e-01	0	32	104	0	86	34660
2026-01-01 14:33:56.22	246.24	3.05	-59.6	-78.5	3.8	7.43e-01	0	32	104	0	86	34668
2026-01-01 14:33:57.23	246.36	3.10	-59.6	-78.6	3.8	7.47e-01	0	32	104	0	86	35182
2026-01-01 14:33:58.23	246.48	3.14	-59.6	-78.7	3.8	7.49e-01	0	32	104	0	86	35618
2026-01-01 14:33:59.25	246.61	3.18	-59.6	-78.8	3.8	7.45e-01	0	32	104	0	86	35846
2026-01-01 14:34:00.25	246.73	3.23	-59.6	-78.9	3.8	7.46e-01	0	32	104	0	86	36146
2026-01-01 14:34:01.26	246.86	3.27	-59.6	-78.9	3.8	7.44e-01	0	32	104	0	86	36208
2026-01-01 14:34:02.27	246.98	3.32	-59.6	-78.8	3.8	7.45e-01	0	32	104	0	86	35972
2026-01-01 14:34:03.28	247.11	3.36	-59.6	-78.6	3.8	7.46e-01	0	32	104	0	86	35211
2026-01-01 14:34:04.29	247.24	3.41	-59.5	-78.5	3.8	7.45e-01	0	33	104	0	86	34611
2026-01-01 14:34:05.30	247.36	3.45	-59.5	-78.4	3.8	7.43e-01	0	32	104	0	86	34165
2026-01-01 14:34:06.31	247.49	3.50	-59.5	-78.1	3.8	7.47e-01	0	32	104	0	86	32992
2026-01-01 14:34:07.32	247.62	3.54	-59.5	-78.3	3.8	7.45e-01	0	32	104	0	86	33985
2026-01-01 14:34:08.33	247.75	3.59	-59.5	-78.0	3.8	7.47e-01	0	32	104	0	86	32921
2026-01-01 14:34:09.34	247.87	3.63	-59.6	-78.3	3.8	7.49e-01	0	32	104	0	86	33986
2026-01-01 14:34:10.34	248.00	3.68	-59.5	-78.4	3.8	7.45e-01	0	32	104	0	86	34261
2026-01-01 14:34:11.35	248.13	3.72	-59.6	-78.3	3.8	7.45e-01	0	32	104	0	86	33871
2026-01-01 14:34:12.36	248.26	3.77	-59.6	-78.7	3.8	7.45e-01	0	32	104	0	86	35469
2026-01-01 14:34:13.36	248.39	3.81	-59.5	-78.7	3.8	7.45e-01	0	32	104	0	86	35622
2026-01-01 14:34:14.38	248.52	3.85	-59.5	-78.5	3.8	7.44e-01	0	32	104	0	86	34538
2026-01-01 14:34:15.38	248.65	3.90	-59.5	-78.4	3.8	7.44e-01	0	33	104	0	86	34188
2026-01-01 14:34:16.39	248.78	3.94	-59.6	-78.3	3.8	7.47e-01	0	33	104	0	86	33925
2026-01-01 14:34:17.40	248.91	3.99	-59.5	-78.3	3.8	7.47e-01	0	33	104	0	86	33781
2026-01-01 14:34:18.41	249.05	4.03	-59.5	-78.5	3.8	7.47e-01	0	33	104	0	86	34532
2026-01-01 14:34:19.42	249.18	4.08	-59.5	-78.7	3.8	7.44e-01	0	33	104	0	86	35452
2026-01-01 14:34:20.43	249.31	4.12	-59.6	-78.8	3.8	7.45e-01	0	33	104	0	86	35879
2026-01-01 14:34:21.44	249.44	4.16	-59.6	-78.6	3.8	7.44e-01	0	33	104	0	86	35257
2026-01-01 14:34:22.45	249.58	4.21	-59.5	-78.5	3.8	7.44e-01	0	33	104	0	86	34525
2026-01-01 14:34:23.46	249.71	4.25	-59.5	-78.4	3.8	7.43e-01	0	33	104	0	86	34385
2026-01-01 14:34:24.46	249.85	4.30	-59.5	-78.4	3.8	7.46e-01	0	33	104	0	86	34265
2026-01-01 14:34:25.47	249.98	4.34	-59.5	-78.2	3.8	7.48e-01	0	33	104	0	86	33438
2026-01-01 14:34:26.48	250.12	4.38	-59.5	-78.3	3.8	7.44e-01	0	33	104	0	86	33925
2026-01-01 14:34:27.49	250.25	4.43	-59.5	-78.3	3.8	7.48e-01	0	33	104	0	86	33800
2026-01-01 14:34:28.49	250.39	4.47	-59.5	-78.0	3.9	7.46e-01	0	33	104	0	86	32870
2026-01-01 14:34:29.49	250.52	4.52	-59.5	-77.3	3.8	7.47e-01	0	33	104	0	86	30314
2026-01-01 14:34:30.50	250.66	4.56	-59.5	-76.8	3.9	7.43e-01	0	33	104	0	86	28511
2026-01-01 14:34:31.50	250.80	4.60	-59.5	-77.4	3.9	7.45e-01	0	33	104	0	86	30629
2026-01-01 14:34:32.51	250.94	4.65	-59.5	-78.7	3.8	7.47e-01	0	33	104	0	86	35652
2026-01-01 14:34:33.52	251.07	4.69	-59.5	-78.1	3.8	7.44e-01	0	33	104	0	86	33082
2026-01-01 14:34:34.53	251.21	4.73	-59.4	-74.2	4.3	7.23e-01	0	33	104	0	86	21232
2026-01-01 14:34:35.54	251.35	4.78	-59.3	-71.4	6.1	6.79e-01	92	33	0	524288	86	15392
2026-01-01 14:34:36.55	251.49	4.82	-59.1	-70.0	7.3	6.56e-01	92	33	0	2097152	86	13006
2026-01-01 14:34:37.56	251.63	4.86	-59.1	-70.0	7.3	6.56e-01	92	33	0	4194304	86	12989
2026-01-01 14:34:38.57	251.77	4.91	-59.1	-69.9	7.4	6.53e-01	92	33	0	5767168	86	12880
2026-01-01 14:34:39.58	251.91	4.95	-59.0	-68.4	8.6	6.36e-01	0	33	0	7864320	86	10845
2026-01-01 14:34:40.59	252.06	4.99	-58.3	-65.2	11.5	6.12e-01	0	33	0	9961472	85	7914
2026-01-01 14:34:41.60	252.20	5.04	-58.5	-65.6	11.5	6.13e-01	0	33	0	11534336	84	8830
2026-01-01 14:34:42.60	252.34	5.08	-59.1	-68.8	8.5	6.37e-01	0	33	0	13631488	85	12072
2026-01-01 14:34:43.61	252.48	5.12	-57.1	-61.8	13.4	6.07e-01	0	33	0	15204352	83	6053
2026-01-01 14:34:44.62	252.63	5.17	-59.1	-70.1	7.9	6.57e-01	69	33	0	17301504	85	13976
2026-01-01 14:34:45.63	252.77	5.21	-54.5	-57.1	16.2	6.07e-01	0	33	0	18350080	78	4697
2026-01-01 14:34:46.64	252.91	5.25	-53.3	-55.5	16.8	6.06e-01	0	33	0	20447232	75	4612
2026-01-01 14:34:47.64	253.06	5.30	-53.2	-55.5	17.0	6.05e-01	0	33	0	22020096	75	4600
2026-01-01 14:34:48.64	253.20	5.34	-53.2	-55.4	17.0	6.08e-01	0	33	0	24117248	75	4580
2026-01-01 14:34:49.65	253.35	5.38	-53.2	-55.5	17.0	6.07e-01	0	33	0	25690112	75	4605
2026-01-01 14:34:50.65	253.49	5.42	-53.3	-55.6	16.9	6.06e-01	0	33	0	27787264	75	4678
2026-01-01 14:34:51.65	253.64	5.47	-53.3	-55.5	17.0	6.06e-01	0	33	0	29360128	75	4617
2026-01-01 14:34:52.66	253.78	5.51	-53.1	-55.3	17.0	6.08e-01	0	33	0	31457280	75	4509
2026-01-01 14:34:53.67	253.93	5.55	-53.1	-55.3	17.0	6.05e-01	0	33	0	33554432	75	4496
2026-01-01 14:34:54.68	254.08	5.59	-53.1	-55.2	17.1	6.07e-01	0	33	0	35127296	75	4484
2026-01-01 14:34:55.69	254.23	5.64	-53.0	-55.2	17.1	6.05e-01	0	33	0	37224448	75	4473
2026-01-01 14:34:56.70	254.37	5.68	-53.0	-55.1	17.1	6.07e-01	0	33	0	39321600	75	4439
2026-01-01 14:34:57.71	254.52	5.72	-52.9	-55.0	17.1	6.07e-01	0	33	0	40894464	75	4385
2026-01-01 14:34:58.72	254.67	5.76	-53.0	-55.1	17.1	6.07e-01	0	33	0	42991616	75	4439
2026-01-01 14:34:59.72	254.82	5.80	-53.0	-55.2	17.1	6.03e-01	0	33	0	44564480	75	4461
2026-01-01 14:35:00.73	254.97	5.85	-53.0	-55.2	17.1	6.07e-01	0	33	0	46661632	75	4461
2026-01-01 14:35:01.73	255.12	5.89	-53.0	-55.2	17.1	6.07e-01	0	33	0	48234496	75	4451
2026-01-01 14:35:02.74	255.27	5.93	-52.9	-55.1	17.1	6.06e-01	0	33	0	50331648	75	4397
2026-01-01 14:35:03.75	255.43	5.97	-53.0	-55.2	17.1	6.07e-01	0	33	0	52428800	75	4460
2026-01-01 14:35:04.75	255.58	6.01	-53.0	-55.1	17.1	6.07e-01	0	33	0	54001664	75	4435
2026-01-01 14:35:05.76	255.73	6.05	-52.9	-55.0	17.2	6.07e-01	0	33	0	56098816	75	4373
2026-01-01 14:35:06.77	255.88	6.09	-52.9	-55.0	17.1	6.07e-01	0	33	0	57671680	74	4614
2026-01-01 14:35:07.78	256.04	6.14	-53.0	-55.2	17.1	6.07e-01	0	33	0	59768832	74	4707
2026-01-01 14:35:08.78	256.19	6.18	-53.0	-55.1	17.1	6.08e-01	0	33	0	61865984	74	4662
2026-01-01 14:35:09.78	256.34	6.22	-53.0	-55.1	17.1	6.06e-01	0	33	0	63438848	74	4699
2026-01-01 14:35:10.79	256.50	6.26	-53.0	-55.1	17.1	6.07e-01	0	33	0	65536000	74	4688
2026-01-01 14:35:11.80	256.65	6.30	-52.9	-55.0	17.1	6.06e-01	0	33	0	67633152	74	4650
2026-01-01 14:35:12.81	256.81	6.34	-52.9	-55.0	17.1	6.05e-01	0	33	0	69206016	74	4638
2026-01-01 14:35:13.81	256.96	6.38	-52.9	-55.1	17.1	6.06e-01	0	33	0	71303168	74	4662
2026-01-01 14:35:14.82	257.12	6.42	-53.0	-55.1	17.1	6.07e-01	0	33	0	72876032	74	4658
2026-01-01 14:35:15.83	257.28	6.46	-52.9	-55.0	17.1	6.07e-01	0	33	0	74973184	74	4646
2026-01-01 14:35:16.83	257.43	6.50	-52.9	-55.1	17.1	6.07e-01	0	33	0	76546048	74	4654
2026-01-01 14:35:17.84	257.59	6.54	-52.8	-54.9	17.2	6.08e-01	0	33	0	78643200	74	4573
2026-01-01 14:35:18.85	257.75	6.58	-52.8	-54.9	17.2	6.08e-01	0	33	0	80740352	74	4593
2026-01-01 14:35:19.86	257.91	6.62	-52.8	-54.9	17.2	6.05e-01	0	33	0	82313216	74	4564
2026-01-01 14:35:20.87	258.07	6.66	-52.8	-54.9	17.2	6.06e-01	0	33	0	84410368	74	4574
2026-01-01 14:35:21.88	258.23	6.70	-52.8	-54.9	17.2	6.05e-01	0	33	0	85983232	74	4591
2026-01-01 14:35:22.88	258.39	6.74	-52.7	-54.7	17.3	6.08e-01	0	33	0	88080384	74	4459
2026-01-01 14:35:23.89	258.55	6.78	-52.6	-54.7	17.3	6.07e-01	0	33	0	90177536	74	4460
2026-01-01 14:35:24.90	258.71	6.82	-52.7	-54.8	17.2	6.04e-01	0	33	0	91750400	74	4519
2026-01-01 14:35:25.91	258.87	6.86	-52.8	-54.8	17.2	6.06e-01	0	33	0	93847552	74	4519
2026-01-01 14:35:26.92	259.04	6.90	-52.7	-54.7	17.2	6.06e-01	0	33	0	95944704	74	4484
2026-01-01 14:35:27.93	259.20	6.94	-52.7	-54.7	17.2	6.08e-01	0	33	0	97517568	74	4464
2026-01-01 14:35:28.93	259.36	6.98	-52.7	-54.7	17.2	6.05e-01	0	33	0	99614720	74	4468
2026-01-01 14:35:29.94	259.53	7.02	-52.6	-54.7	17.3	6.08e-01	0	33	0	101187584	74	4450
2026-01-01 14:35:30.94	259.69	7.06	-52.6	-54.6	17.3	6.06e-01	0	33	0	103284736	74	4438
2026-01-01 14:35:31.94	259.85	7.10	-52.6	-54.7	17.2	6.05e-01	0	33	0	105381888	74	4447
2026-01-01 14:35:32.95	260.02	7.13	-52.5	-54.6	17.3	6.06e-01	0	33	0	106954752	74	4395
2026-01-01 14:35:33.96	260.18	7.17	-52.6	-54.6	17.2	6.05e-01	0	33	0	109051904	74	4417
2026-01-01 14:35:34.96	260.35	7.21	-52.6	-54.6	17.2	6.06e-01	0	33	0	110624768	74	4427
2026-01-01 14:35:35.97	260.51	7.25	-52.4	-54.4	17.2	6.08e-01	0	33	0	112721920	74	4337
2026-01-01 14:35:36.98	260.68	7.29	-52.3	-54.4	17.0	6.07e-01	0	33	0	114294784	73	4574
2026-01-01 14:35:37.99	260.85	7.33	-52.3	-54.4	16.8	6.06e-01	0	33	0	116391936	73	4596
2026-01-01 14:35:38.99	261.01	7.36	-52.2	-54.5	16.6	6.06e-01	0	33	0	118489088	73	4612
2026-01-01 14:35:40.00	261.18	7.40	-51.6	-54.4	15.3	6.07e-01	0	33	0	120061952	72	4854
2026-01-01 14:35:41.01	261.35	7.44	-51.2	-54.3	14.4	6.07e-01	0	33	0	122159104	71	5093
2026-01-01 14:35:42.01	261.52	7.48	-51.7	-54.2	15.5	6.07e-01	0	33	0	124256256	71	5027
2026-01-01 14:35:43.02	261.69	7.51	-52.0	-54.3	16.4	6.06e-01	0	33	0	125829120	71	5050
2026-01-01 14:35:44.03	261.86	7.55	-52.3	-54.4	17.0	6.06e-01	0	33	0	127926272	72	4820
2026-01-01 14:35:45.04	262.03	7.59	-52.5	-54.5	17.3	6.05e-01	0	33	0	129499136	72	4875
2026-01-01 14:35:46.04	262.20	7.62	-52.5	-54.5	17.2	6.06e-01	0	33	0	131596288	72	4877
2026-01-01 14:35:47.05	262.37	7.66	-52.5	-54.5	17.2	6.06e-01	0	33	0	133693440	72	4891
2026-01-01 14:35:48.06	262.54	7.70	-52.4	-54.4	17.2	6.06e-01	0	33	0	135266304	72	4855
2026-01-01 14:35:49.07	262.72	7.73	-52.5	-54.5	17.3	6.06e-01	0	33	0	137363456	72	4887
2026-01-01 14:35:50.08	262.89	7.77	-52.4	-54.4	17.3	6.08e-01	0	33	0	138936320	72	4827
2026-01-01 14:35:51.09	263.06	7.81	-52.4	-54.3	17.3	6.04e-01	0	33	0	141033472	72	4805
2026-01-01 14:35:52.10	263.24	7.84	-52.3	-54.3	17.3	6.07e-01	0	33	0	143130624	72	4781
2026-01-01 14:35:53.11	263.41	7.88	-52.3	-54.3	17.3	6.08e-01	0	33	0	144703488	72	4779
2026-01-01 14:35:54.11	263.58	7.91	-52.4	-54.3	17.3	6.07e-01	0	33	0	146800640	72	4810
2026-01-01 14:35:55.12	263.76	7.95	-52.5	-54.4	17.3	6.06e-01	0	33	0	148373504	72	4865
2026-01-01 14:35:56.13	263.93	7.99	-52.4	-54.4	17.3	6.05e-01	0	33	0	150470656	72	4843
2026-01-01 14:35:57.13	264.11	8.02	-52.4	-54.4	17.3	6.05e-01	0	33	0	152567808	72	4830
2026-01-01 14:35:58.14	264.29	8.06	-52.4	-54.3	17.3	6.07e-01	0	33	0	154140672	72	4784
2026-01-01 14:35:59.15	264.46	8.09	-52.3	-54.2	17.4	6.06e-01	0	33	0	156237824	72	4722
2026-01-01 14:36:00.16	264.64	8.12	-52.3	-54.3	17.3	6.05e-01	0	33	0	157810688	72	4779
2026-01-01 14:36:01.16	264.82	8.16	-52.4	-54.3	17.3	6.06e-01	0	33	0	159907840	72	4803
2026-01-01 14:36:02.17	264.99	8.19	-52.4	-54.3	17.3	6.07e-01	0	33	0	162004992	72	4788
2026-01-01 14:36:03.18	265.17	8.23	-52.3	-54.2	17.4	6.06e-01	0	33	0	163577856	72	4758
2026-01-01 14:36:04.19	265.35	8.26	-52.3	-54.2	17.4	6.08e-01	0	33	0	165675008	72	4715
2026-01-01 14:36:05.20	265.53	8.30	-52.3	-54.2	17.4	6.07e-01	0	33	0	167772160	72	4712
2026-01-01 14:36:06.21	265.71	8.33	-52.3	-54.2	17.4	6.05e-01	0	33	0	169345024	72	4719
2026-01-01 14:36:07.21	265.89	8.36	-52.3	-54.2	17.4	6.06e-01	0	33	0	171442176	72	4736
2026-01-01 14:36:08.22	266.07	8.40	-52.2	-54.1	17.4	6.08e-01	0	33	0	173015040	72	4694
2026-01-01 14:36:09.22	266.25	8.43	-52.2	-54.2	17.4	6.07e-01	0	33	0	175112192	72	4710
2026-01-01 14:36:10.23	266.43	8.46	-52.1	-54.0	17.4	6.06e-01	0	33	0	176685056	72	4600
2026-01-01 14:36:11.23	266.61	8.49	-52.2	-54.1	17.3	6.06e-01	0	33	0	178782208	72	4680
2026-01-01 14:36:12.23	266.79	8.53	-52.5	-54.5	17.2	6.05e-01	0	33	0	180879360	72	4893
2026-01-01 14:36:13.25	266.98	8.56	-53.0	-55.2	17.0	6.07e-01	0	33	0	182452224	73	5004
2026-01-01 14:36:14.25	267.16	8.59	-53.7	-56.1	16.7	6.05e-01	0	33	0	184549376	75	4978
2026-01-01 14:36:15.26	267.34	8.62	-54.2	-57.0	16.3	6.07e-01	0	33	0	186122240	76	5169
2026-01-01 14:36:16.27	267.53	8.66	-54.7	-57.8	16.0	6.08e-01	0	33	0	188219392	77	5351
2026-01-01 14:36:17.27	267.71	8.69	-54.9	-58.2	15.7	6.06e-01	0	33	0	190316544	77	5637
2026-01-01 14:36:18.28	267.90	8.72	-54.9	-58.2	15.7	6.06e-01	0	33	0	191889408	77	5631
2026-01-01 14:36:19.29	268.08	8.75	-55.1	-58.6	15.4	6.07e-01	0	33	0	193986560	77	5892
2026-01-01 14:36:20.30	268.27	8.78	-55.6	-59.7	14.8	6.07e-01	0	33	0	196083712	78	6316
2026-01-01 14:36:21.30	268.45	8.81	-56.3	-61.5	13.5	6.07e-01	0	33	0	197656576	80	6896
2026-01-01 14:36:22.31	268.64	8.84	-56.9	-63.6	11.9	6.12e-01	0	33	0	199753728	81	8290
2026-01-01 14:36:23.32	268.83	8.87	-57.2	-64.6	11.0	6.14e-01	0	33	0	201326592	82	8819
2026-01-01 14:36:24.32	269.01	8.90	-57.1	-63.9	11.5	6.13e-01	0	33	0	203423744	82	8172
2026-01-01 14:36:25.33	269.20	8.93	-56.6	-62.0	13.1	6.06e-01	0	33	0	204996608	82	6563
2026-01-01 14:36:26.33	269.39	8.96	-56.1	-60.6	14.2	6.07e-01	0	33	0	207093760	81	5905
2026-01-01 14:36:27.34	269.58	8.99	-55.9	-60.1	14.8	6.05e-01	0	33	0	209190912	81	5546
2026-01-01 14:36:28.35	269.77	9.02	-55.8	-59.8	15.0	6.06e-01	0	33	0	210763776	80	5679
2026-01-01 14:36:29.35	269.95	9.05	-55.3	-58.8	15.5	6.07e-01	0	33	0	212860928	79	5369
2026-01-01 14:36:30.35	270.14	9.08	-54.9	-58.0	16.0	6.07e-01	0	33	0	214433792	78	5161
2026-01-01 14:36:31.36	270.33	9.11	-54.4	-57.2	16.4	6.08e-01	0	33	0	216530944	78	4718
2026-01-01 14:36:32.37	270.52	9.13	-53.8	-56.3	16.7	6.06e-01	0	33	0	218628096	76	4794
2026-01-01 14:36:33.38	270.71	9.16	-53.4	-55.7	17.0	6.08e-01	0	33	0	220200960	76	4468
2026-01-01 14:36:34.39	270.91	9.19	-53.2	-55.4	17.1	6.06e-01	0	33	0	222298112	75	4561
2026-01-01 14:36:35.39	271.10	9.22	-53.0	-55.1	17.2	6.06e-01	0	33	0	224395264	75	4430
2026-01-01 14:36:36.40	271.29	9.25	-52.7	-54.7	17.3	6.07e-01	0	33	0	225968128	74	4457
2026-01-01 14:36:37.40	271.48	9.27	-52.1	-53.9	17.5	6.06e-01	0	33	0	228065280	73	4339
2026-01-01 14:36:38.41	271.67	9.30	-51.9	-53.7	17.6	6.07e-01	0	33	0	229638144	73	4236
2026-01-01 14:36:39.42	271.87	9.33	-52.0	-53.8	17.5	6.05e-01	0	33	0	231735296	73	4278
2026-01-01 14:36:40.43	272.06	9.35	-52.1	-53.9	17.5	6.06e-01	0	33	0	233308160	73	4316
2026-01-01 14:36:41.43	272.25	9.38	-51.9	-53.8	17.5	6.06e-01	0	33	0	235405312	73	4253
2026-01-01 14:36:42.44	272.45	9.41	-51.9	-53.7	17.5	6.05e-01	0	33	0	237502464	72	4463
2026-01-01 14:36:43.44	272.64	9.43	-51.9	-53.7	17.6	6.07e-01	0	33	0	239075328	72	4458
2026-01-01 14:36:44.45	272.83	9.46	-52.0	-53.8	17.5	6.07e-01	0	33	0	241172480	72	4527
2026-01-01 14:36:45.46	273.03	9.48	-52.1	-53.9	17.5	6.06e-01	0	33	0	242745344	72	4568
2026-01-01 14:36:46.47	273.23	9.51	-52.1	-53.9	17.5	6.08e-01	0	33	0	244842496	72	4585
2026-01-01 14:36:47.48	273.42	9.53	-52.0	-53.8	17.5	6.06e-01	0	33	0	246939648	72	4519
2026-01-01 14:36:48.49	273.62	9.56	-52.0	-53.8	17.5	6.06e-01	0	33	0	248512512	72	4527
2026-01-01 14:36:49.50	273.82	9.58	-52.0	-53.8	17.5	6.08e-01	0	33	0	250609664	72	4531
2026-01-01 14:36:50.50	274.01	9.61	-52.0	-53.9	17.5	6.06e-01	0	33	0	252706816	72	4548
2026-01-01 14:36:51.51	274.21	9.63	-52.0	-53.8	17.5	6.06e-01	0	33	0	254279680	72	4504
2026-01-01 14:36:52.51	274.41	9.65	-51.9	-53.7	17.5	6.07e-01	0	33	0	256376832	72	4461
2026-01-01 14:36:53.52	274.60	9.68	-51.9	-53.7	17.5	6.05e-01	0	33	0	257949696	72	4487
2026-01-01 14:36:54.52	274.80	9.70	-51.9	-53.7	17.5	6.04e-01	0	33	0	260046848	72	4491
2026-01-01 14:36:55.53	275.00	9.72	-52.0	-53.8	17.5	6.08e-01	0	33	0	261619712	72	4538
2026-01-01 14:36:56.54	275.20	9.74	-52.0	-53.8	17.5	6.06e-01	0	33	0	263716864	72	4521
2026-01-01 14:36:57.55	275.40	9.77	-52.0	-53.8	17.5	6.08e-01	0	33	0	265814016	72	4519
2026-01-01 14:36:58.55	275.60	9.79	-52.0	-53.8	17.5	6.06e-01	0	33	0	267386880	72	4527
2026-01-01 14:36:59.56	275.80	9.81	-52.0	-53.9	17.5	6.06e-01	0	33	0	269484032	72	4565
2026-01-01 14:37:00.57	276.00	9.83	-52.0	-53.8	17.5	6.05e-01	0	33	0	271056896	72	4540
2026-01-01 14:37:01.58	276.20	9.85	-52.0	-53.8	17.5	6.06e-01	0	33	0	273154048	72	4520
2026-01-01 14:37:02.58	276.40	9.87	-52.0	-53.8	17.5	6.07e-01	0	33	0	275251200	72	4507
2026-01-01 14:37:03.59	276.60	9.89	-51.9	-53.7	17.6	6.08e-01	0	33	0	276824064	72	4470
2026-01-01 14:37:04.60	276.80	9.92	-51.9	-53.7	17.6	6.06e-01	0	34	0	278921216	72	4479
2026-01-01 14:37:05.61	277.00	9.94	-51.9	-53.7	17.5	6.07e-01	0	33	0	281018368	72	4468
2026-01-01 14:37:06.61	277.20	9.96	-51.9	-53.7	17.5	6.08e-01	0	33	0	282591232	72	4481
2026-01-01 14:37:07.62	277.41	9.97	-51.8	-53.6	17.6	6.06e-01	0	33	0	284688384	72	4434
2026-01-01 14:37:08.63	277.61	9.99	-51.9	-53.7	17.5	6.06e-01	0	33	0	286261248	72	4478
2026-01-01 14:37:09.64	277.81	10.01	-51.9	-53.7	17.6	6.04e-01	0	33	0	288358400	72	4477
2026-01-01 14:37:10.64	278.01	10.03	-52.0	-53.8	17.5	6.04e-01	0	33	0	290455552	72	4517
2026-01-01 14:37:11.65	278.22	10.05	-52.0	-53.8	17.5	6.03e-01	0	33	0	292028416	72	4519
2026-01-01 14:37:12.65	278.42	10.07	-52.0	-53.8	17.6	6.05e-01	0	33	0	294125568	72	4524
2026-01-01 14:37:13.66	278.62	10.09	-51.9	-53.7	17.5	6.04e-01	0	33	0	295698432	72	4477
2026-01-01 14:37:14.66	278.83	10.10	-51.9	-53.7	17.6	6.05e-01	0	33	0	297795584	72	4455
2026-01-01 14:37:15.67	279.03	10.12	-52.0	-53.8	17.6	6.04e-01	0	33	0	299368448	72	4512
2026-01-01 14:37:16.68	279.24	10.14	-52.0	-53.8	17.6	6.02e-01	0	33	0	301465600	72	4533
2026-01-01 14:37:17.68	279.44	10.15	-52.0	-53.8	17.6	6.05e-01	0	33	0	303562752	72	4501
2026-01-01 14:37:18.69	279.65	10.17	-52.0	-53.7	17.6	6.02e-01	0	33	0	305135616	72	4489
2026-01-01 14:37:19.70	279.85	10.19	-51.9	-53.7	17.6	6.05e-01	0	33	0	307232768	72	4471
2026-01-01 14:37:20.71	280.06	10.20	-51.9	-53.7	17.6	6.04e-01	0	33	0	309329920	72	4474
2026-01-01 14:37:21.71	280.26	10.22	-51.9	-53.7	17.6	6.03e-01	0	33	0	310902784	72	4472
2026-01-01 14:37:22.71	280.47	10.23	-52.0	-53.8	17.5	6.05e-01	0	33	0	312999936	72	4510
2026-01-01 14:37:23.72	280.67	10.25	-52.1	-53.9	17.5	6.05e-01	0	33	0	314572800	72	4563
2026-01-01 14:37:24.73	280.88	10.26	-52.2	-54.0	17.5	6.04e-01	0	33	0	316669952	72	4615
2026-01-01 14:37:25.73	281.08	10.28	-52.1	-53.9	17.5	6.07e-01	0	33	0	318242816	72	4551
2026-01-01 14:37:26.74	281.29	10.29	-52.1	-53.9	17.5	6.02e-01	0	33	0	320339968	72	4575
2026-01-01 14:37:27.74	281.50	10.30	-52.1	-53.9	17.5	6.03e-01	0	33	0	322437120	72	4594
2026-01-01 14:37:28.75	281.70	10.32	-52.1	-53.9	17.6	6.03e-01	0	33	0	324009984	72	4570
2026-01-01 14:37:29.75	281.91	10.33	-52.0	-53.8	17.6	6.04e-01	0	33	0	326107136	72	4534
2026-01-01 14:37:30.76	282.12	10.34	-52.0	-53.8	17.6	6.03e-01	0	33	0	327680000	72	4538
2026-01-01 14:37:31.77	282.33	10.36	-52.1	-53.9	17.6	6.04e-01	0	33	0	329777152	72	4575
2026-01-01 14:37:32.77	282.53	10.37	-52.1	-53.9	17.6	6.04e-01	0	33	0	331874304	72	4547
2026-01-01 14:37:33.78	282.74	10.38	-52.1	-53.9	17.5	6.03e-01	0	33	0	333447168	72	4596
2026-01-01 14:37:34.79	282.95	10.39	-52.1	-53.9	17.6	6.05e-01	0	33	0	335544320	72	4598
2026-01-01 14:37:35.80	283.16	10.40	-52.2	-54.1	17.5	6.04e-01	0	33	0	337641472	72	4660
2026-01-01 14:37:36.81	283.37	10.41	-52.2	-54.1	17.5	6.04e-01	0	33	0	339214336	72	4665
2026-01-01 14:37:37.82	283.58	10.43	-52.1	-53.9	17.5	6.02e-01	0	33	0	341311488	72	4592
2026-01-01 14:37:38.82	283.79	10.44	-52.1	-53.9	17.6	6.03e-01	0	33	0	342884352	72	4596
2026-01-01 14:37:39.83	283.99	10.45	-52.1	-53.9	17.6	6.05e-01	0	33	0	344981504	72	4584
2026-01-01 14:37:40.84	284.20	10.46	-52.2	-54.0	17.5	6.04e-01	0	33	0	347078656	72	4642
2026-01-01 14:37:41.85	284.41	10.46	-52.2	-54.0	17.5	6.06e-01	0	33	0	348651520	72	4648
2026-01-01 14:37:42.85	284.62	10.47	-52.2	-54.0	17.6	6.03e-01	0	33	0	350748672	72	4627
2026-01-01 14:37:43.86	284.83	10.48	-52.1	-53.9	17.6	6.05e-01	0	33	0	352321536	72	4595
2026-01-01 14:37:44.87	285.04	10.49	-52.1	-53.9	17.6	6.03e-01	0	33	0	354418688	72	4570
2026-01-01 14:37:45.88	285.25	10.50	-52.2	-54.0	17.6	6.04e-01	0	33	0	355991552	72	4625
2026-01-01 14:37:46.88	285.46	10.51	-52.2	-54.0	17.5	6.04e-01	0	33	0	358088704	72	4604
2026-01-01 14:37:47.89	285.67	10.51	-52.2	-54.0	17.5	6.03e-01	0	33	0	360185856	72	4636
2026-01-01 14:37:48.90	285.88	10.52	-52.2	-54.0	17.6	6.03e-01	0	33	0	361758720	72	4619
2026-01-01 14:37:49.91	286.09	10.53	-52.3	-54.2	17.5	6.03e-01	0	33	0	363855872	72	4712
2026-01-01 14:37:50.92	286.30	10.53	-52.2	-54.0	17.5	6.03e-01	0	33	0	365953024	72	4636
2026-01-01 14:37:51.93	286.52	10.54	-52.2	-54.0	17.5	6.02e-01	0	33	0	367525888	72	4619
2026-01-01 14:37:52.94	286.73	10.55	-52.3	-54.1	17.5	6.03e-01	0	33	0	369623040	72	4673
2026-01-01 14:37:53.95	286.94	10.55	-52.4	-54.2	17.5	6.02e-01	0	33	0	371195904	72	4718
2026-01-01 14:37:54.95	287.15	10.56	-52.3	-54.1	17.5	6.05e-01	0	33	0	373293056	72	4654
2026-01-01 14:37:55.96	287.36	10.56	-52.3	-54.1	17.5	6.03e-01	0	33	0	375390208	72	4674
2026-01-01 14:37:56.97	287.57	10.57	-52.3	-54.2	17.5	6.03e-01	0	33	0	376963072	72	4706
2026-01-01 14:37:57.97	287.78	10.57	-52.4	-54.2	17.5	6.04e-01	0	33	0	379060224	72	4738
2026-01-01 14:37:58.97	287.99	10.57	-52.3	-54.1	17.5	6.03e-01	0	33	0	380633088	72	4682
2026-01-01 14:37:59.98	288.20	10.58	-52.2	-54.0	17.6	6.04e-01	0	33	0	382730240	72	4649
2026-01-01 14:38:00.99	288.41	10.58	-52.3	-54.1	17.5	6.06e-01	0	33	0	384827392	72	4663
2026-01-01 14:38:01.99	288.62	10.58	-52.2	-54.0	17.5	6.05e-01	0	33	0	386400256	72	4609
2026-01-01 14:38:03.00	288.83	10.59	-52.2	-54.0	17.5	6.02e-01	0	33	0	388497408	72	4649
2026-01-01 14:38:04.00	289.04	10.59	-52.2	-54.0	17.6	6.03e-01	0	33	0	390070272	72	4605
2026-01-01 14:38:05.01	289.25	10.59	-52.2	-54.1	17.5	6.04e-01	0	33	0	392167424	72	4652
2026-01-01 14:38:06.01	289.46	10.59	-52.2	-54.0	17.5	6.02e-01	0	33	0	394264576	72	4630
2026-01-01 14:38:07.02	289.68	10.59	-52.2	-54.0	17.5	6.05e-01	0	33	0	395837440	72	4631
2026-01-01 14:38:08.03	289.89	10.60	-52.2	-54.0	17.5	6.04e-01	0	33	0	397934592	72	4644
2026-01-01 14:38:09.04	290.10	10.60	-52.2	-54.1	17.5	6.01e-01	0	33	0	399507456	72	4666
2026-01-01 14:38:10.04	290.31	10.60	-52.3	-54.2	17.5	6.02e-01	0	33	0	401604608	72	4726
2026-01-01 14:38:11.05	290.52	10.60	-52.4	-54.2	17.5	6.04e-01	0	34	0	403701760	72	4746
2026-01-01 14:38:12.06	290.73	10.60	-52.3	-54.2	17.5	5.99e-01	0	33	0	405274624	72	4712
2026-01-01 14:38:13.06	290.94	10.60	-52.2	-54.0	17.6	6.04e-01	0	33	0	407371776	72	4611
2026-01-01 14:38:14.06	291.15	10.59	-52.1	-53.9	17.6	5.98e-01	0	33	0	408944640	72	4590
2026-01-01 14:38:15.07	291.36	10.59	-52.2	-54.0	17.5	6.02e-01	0	33	0	411041792	72	4606
2026-01-01 14:38:16.08	291.58	10.59	-52.3	-54.1	17.5	6.03e-01	0	33	0	412614656	72	4700
2026-01-01 14:38:17.09	291.79	10.59	-52.3	-54.1	17.5	6.04e-01	0	33	0	414711808	72	4674
2026-01-01 14:38:18.09	292.00	10.59	-52.3	-54.1	17.5	6.02e-01	0	33	0	416808960	72	4676
2026-01-01 14:38:19.10	292.21	10.58	-52.2	-54.1	17.5	6.02e-01	0	33	0	418381824	72	4657
2026-01-01 14:38:20.11	292.42	10.58	-52.3	-54.2	17.5	6.01e-01	0	33	0	420478976	72	4722
2026-01-01 14:38:21.11	292.63	10.58	-52.2	-54.0	17.6	6.02e-01	0	33	0	422576128	72	4623
2026-01-01 14:38:22.12	292.84	10.57	-52.2	-54.0	17.6	6.04e-01	0	33	0	424148992	72	4632
2026-01-01 14:38:23.13	293.05	10.57	-52.3	-54.1	17.6	6.04e-01	0	33	0	426246144	72	4675
2026-01-01 14:38:24.14	293.26	10.57	-52.2	-53.9	17.6	6.04e-01	0	33	0	427819008	72	4597
2026-01-01 14:38:25.14	293.47	10.56	-52.1	-53.9	17.6	6.03e-01	0	33	0	429916160	72	4554
2026-01-01 14:38:26.15	293.68	10.56	-52.2	-54.0	17.6	6.04e-01	0	33	0	432013312	72	4604
2026-01-01 14:38:27.16	293.90	10.55	-52.1	-53.9	17.6	6.02e-01	0	33	0	433586176	72	4589
2026-01-01 14:38:28.16	294.10	10.55	-52.2	-54.0	17.6	6.04e-01	0	33	0	435683328	72	4601
2026-01-01 14:38:29.16	294.31	10.54	-52.2	-54.1	17.5	6.04e-01	0	33	0	437256192	72	4653
2026-01-01 14:38:30.17	294.52	10.53	-52.1	-53.9	17.5	6.04e-01	0	33	0	439353344	72	4583
2026-01-01 14:38:31.18	294.73	10.53	-52.1	-53.9	17.5	6.03e-01	0	33	0	440926208	72	4590
2026-01-01 14:38:32.19	294.95	10.52	-52.1	-53.9	17.6	6.02e-01	0	33	0	443023360	72	4559
2026-01-01 14:38:33.19	295.15	10.51	-52.1	-53.9	17.6	6.03e-01	0	33	0	445120512	72	4552
2026-01-01 14:38:34.20	295.36	10.51	-52.1	-53.9	17.6	6.03e-01	0	33	0	446693376	72	4561
2026-01-01 14:38:35.21	295.57	10.50	-52.0	-53.8	17.6	6.03e-01	0	33	0	448790528	72	4527
2026-01-01 14:38:36.22	295.78	10.49	-52.1	-53.9	17.6	6.04e-01	0	33	0	450887680	72	4547
2026-01-01 14:38:37.24	296.00	10.48	-52.1	-54.0	17.5	6.03e-01	0	33	0	452460544	72	4602
2026-01-01 14:38:38.24	296.20	10.47	-52.1	-53.9	17.5	6.02e-01	0	33	0	454557696	72	4593
2026-01-01 14:38:39.25	296.41	10.46	-52.2	-54.1	17.5	6.02e-01	0	33	0	456130560	72	4662
2026-01-01 14:38:40.26	296.62	10.45	-52.2	-54.1	17.5	6.05e-01	0	33	0	458227712	72	4655
2026-01-01 14:38:41.27	296.83	10.45	-52.0	-53.8	17.6	6.02e-01	0	33	0	460324864	72	4532
2026-01-01 14:38:42.27	297.04	10.44	-52.0	-53.8	17.6	6.05e-01	0	33	0	461897728	72	4499
2026-01-01 14:38:43.28	297.25	10.42	-52.0	-53.8	17.5	6.05e-01	0	33	0	463994880	72	4508
2026-01-01 14:38:44.29	297.46	10.41	-52.0	-53.8	17.5	6.02e-01	0	33	0	465567744	72	4525
2026-01-01 14:38:45.29	297.67	10.40	-52.0	-53.8	17.5	6.03e-01	0	33	0	467664896	72	4537
2026-01-01 14:38:46.30	297.87	10.39	-52.0	-53.8	17.5	6.04e-01	0	33	0	469762048	72	4534
2026-01-01 14:38:47.31	298.08	10.38	-52.0	-53.8	17.6	6.05e-01	0	33	0	471334912	72	4510
2026-01-01 14:38:48.32	298.29	10.37	-51.9	-53.7	17.6	6.03e-01	0	33	0	473432064	72	4446
2026-01-01 14:38:49.33	298.50	10.36	-52.0	-53.8	17.5	6.05e-01	0	33	0	475004928	72	4540
2026-01-01 14:38:50.34	298.71	10.34	-52.0	-53.8	17.5	6.04e-01	0	33	0	477102080	72	4542
2026-01-01 14:38:51.35	298.92	10.33	-52.0	-53.8	17.5	6.02e-01	0	33	0	479199232	72	4531
2026-01-01 14:38:52.36	299.12	10.32	-52.0	-53.8	17.6	6.01e-01	0	33	0	480772096	72	4507
2026-01-01 14:38:53.36	299.33	10.30	-52.0	-53.8	17.6	6.04e-01	0	33	0	482869248	72	4537
2026-01-01 14:38:54.37	299.54	10.29	-52.1	-53.9	17.5	6.04e-01	0	33	0	484442112	72	4565
2026-01-01 14:38:55.38	299.74	10.28	-52.1	-53.9	17.5	6.03e-01	0	33	0	486539264	72	4580
2026-01-01 14:38:56.39	299.95	10.26	-52.2	-54.0	17.5	6.04e-01	0	33	0	488636416	72	4637
2026-01-01 14:38:57.39	300.15	10.25	-52.0	-53.8	17.6	6.02e-01	0	33	0	490209280	72	4542
2026-01-01 14:38:58.40	300.36	10.23	-52.0	-53.8	17.6	6.04e-01	0	33	0	492306432	72	4500
2026-01-01 14:38:59.41	300.57	10.22	-52.0	-53.8	17.6	6.03e-01	0	33	0	493879296	72	4545
2026-01-01 14:39:00.42	300.77	10.20	-52.0	-53.9	17.5	6.03e-01	0	33	0	495976448	72	4553
2026-01-01 14:39:01.42	300.98	10.19	-52.1	-53.9	17.5	6.02e-01	0	33	0	498073600	72	4560
2026-01-01 14:39:02.43	301.18	10.17	-52.0	-53.8	17.5	6.02e-01	0	33	0	499646464	72	4529
2026-01-01 14:39:03.44	301.39	10.15	-52.1	-53.9	17.5	6.04e-01	0	33	0	501743616	72	4562
2026-01-01 14:39:04.45	301.59	10.14	-51.6	-53.9	17.6	6.04e-01	0	33	0	503840768	71	4833
2026-01-01 14:39:05.45	301.79	10.12	-51.6	-53.9	17.5	6.02e-01	0	33	0	505413632	71	4838
2026-01-01 14:39:06.46	302.00	10.10	-52.0	-54.0	17.5	6.04e-01	0	33	0	507510784	71	4901
2026-01-01 14:39:07.47	302.20	10.09	-51.8	-53.9	17.5	6.03e-01	0	33	0	509083648	71	4858
2026-01-01 14:39:08.48	302.41	10.07	-51.4	-53.8	17.5	6.05e-01	0	34	0	511180800	71	4813
2026-01-01 14:39:09.49	302.61	10.05	-51.0	-53.7	17.5	6.01e-01	0	33	0	512753664	71	4749
2026-01-01 14:39:10.49	302.81	10.03	-51.5	-53.7	17.5	6.04e-01	0	33	0	514850816	71	4751
2026-01-01 14:39:11.50	303.01	10.01	-51.9	-53.8	17.5	6.03e-01	0	33	0	516947968	71	4785
2026-01-01 14:39:12.51	303.22	9.99	-51.7	-53.9	17.5	6.04e-01	0	33	0	518520832	71	4845
2026-01-01 14:39:13.52	303.42	9.97	-51.6	-53.9	17.5	6.02e-01	0	34	0	520617984	71	4829
2026-01-01 14:39:14.53	303.62	9.95	-51.6	-53.9	17.4	6.04e-01	0	33	0	522190848	71	4831
2026-01-01 14:39:15.53	303.82	9.94	-51.7	-53.8	17.5	6.03e-01	0	33	0	524288000	71	4808
2026-01-01 14:39:16.54	304.02	9.92	-52.0	-53.9	17.5	6.03e-01	0	33	0	526385152	71	4822
2026-01-01 14:39:17.55	304.22	9.89	-52.1	-53.9	17.5	6.03e-01	0	33	0	527958016	71	4829
2026-01-01 14:39:18.56	304.42	9.87	-52.0	-53.8	17.5	5.99e-01	0	33	0	530055168	71	4779
2026-01-01 14:39:19.56	304.62	9.85	-52.0	-53.9	17.5	6.04e-01	0	33	0	532152320	71	4825
2026-01-01 14:39:20.57	304.82	9.83	-51.9	-53.7	17.5	6.01e-01	0	33	0	533725184	72	4474
2026-01-01 14:39:21.58	305.02	9.81	-51.9	-53.7	17.6	6.03e-01	0	33	0	535822336	72	4472
2026-01-01 14:39:22.59	305.22	9.79	-51.8	-53.7	17.6	6.03e-01	0	33	0	537395200	72	4442
2026-01-01 14:39:23.59	305.42	9.77	-52.0	-53.8	17.6	6.03e-01	0	34	0	539492352	72	4537
2026-01-01 14:39:24.60	305.62	9.74	-52.0	-53.8	17.6	6.05e-01	0	33	0	541589504	72	4530
2026-01-01 14:39:25.61	305.82	9.72	-52.0	-53.8	17.5	6.05e-01	0	33	0	543162368	72	4511
2026-01-01 14:39:26.62	306.02	9.70	-51.9	-53.8	17.5	6.02e-01	0	33	0	545259520	72	4512
2026-01-01 14:39:27.62	306.21	9.68	-51.9	-53.7	17.5	6.03e-01	0	33	0	546832384	72	4489
2026-01-01 14:39:28.62	306.41	9.65	-51.9	-53.7	17.5	6.01e-01	0	33	0	548929536	72	4461
2026-01-01 14:39:29.63	306.61	9.63	-52.0	-53.8	17.5	6.04e-01	0	33	0	550502400	72	4532
2026-01-01 14:39:30.63	306.80	9.61	-52.0	-53.9	17.5	6.01e-01	0	33	0	552599552	72	4553
2026-01-01 14:39:31.64	307.00	9.58	-51.9	-53.7	17.5	6.03e-01	0	33	0	554696704	72	4485
2026-01-01 14:39:32.65	307.20	9.56	-51.9	-53.7	17.5	6.03e-01	0	33	0	556269568	72	4470
2026-01-01 14:39:33.66	307.39	9.53	-51.9	-53.8	17.5	6.03e-01	0	33	0	558366720	72	4499
2026-01-01 14:39:34.66	307.59	9.51	-52.0	-53.8	17.5	6.04e-01	0	34	0	560463872	72	4532
2026-01-01 14:39:35.67	307.78	9.48	-51.9	-53.8	17.5	6.04e-01	0	33	0	562036736	72	4502
2026-01-01 14:39:36.68	307.98	9.46	-52.0	-53.9	17.4	6.04e-01	0	33	0	564133888	72	4550
2026-01-01 14:39:37.68	308.17	9.43	-52.0	-53.9	17.5	6.06e-01	0	33	0	565706752	72	4558
2026-01-01 14:39:38.69	308.36	9.41	-52.0	-53.8	17.5	6.03e-01	0	33	0	567803904	72	4525
2026-01-01 14:39:39.70	308.56	9.38	-51.9	-53.7	17.5	6.05e-01	0	33	0	569901056	72	4486
2026-01-01 14:39:40.71	308.75	9.36	-51.9	-53.8	17.5	6.03e-01	0	33	0	571473920	72	4506
2026-01-01 14:39:41.71	308.94	9.33	-51.9	-53.7	17.5	6.03e-01	0	33	0	573571072	72	4469
2026-01-01 14:39:42.73	309.14	9.30	-52.0	-53.8	17.5	6.03e-01	0	33	0	575143936	72	4533
2026-01-01 14:39:43.73	309.33	9.28	-52.0	-53.8	17.5	6.01e-01	0	33	0	577241088	72	4531
2026-01-01 14:39:44.74	309.52	9.25	-51.9	-53.7	17.5	6.05e-01	0	33	0	579338240	72	4472
2026-01-01 14:39:45.75	309.71	9.22	-51.9	-53.8	17.5	6.04e-01	0	34	0	580911104	72	4511
2026-01-01 14:39:46.76	309.90	9.19	-52.0	-53.9	17.5	6.04e-01	0	33	0	583008256	72	4572
2026-01-01 14:39:47.77	310.09	9.16	-52.0	-53.9	17.5	6.04e-01	0	34	0	584581120	72	4572
2026-01-01 14:39:48.77	310.28	9.14	-52.0	-53.8	17.5	6.06e-01	0	33	0	586678272	72	4529
2026-01-01 14:39:49.78	310.47	9.11	-51.9	-53.8	17.5	6.05e-01	0	33	0	588775424	72	4501
2026-01-01 14:39:50.79	310.66	9.08	-51.9	-53.8	17.5	6.01e-01	0	33	0	590348288	72	4508
2026-01-01 14:39:51.80	310.85	9.05	-52.0	-53.8	17.5	6.04e-01	0	33	0	592445440	72	4520
2026-01-01 14:39:52.81	311.04	9.02	-51.9	-53.7	17.5	6.03e-01	0	33	0	594018304	72	4481
2026-01-01 14:39:53.81	311.23	8.99	-51.9	-53.7	17.5	6.03e-01	0	33	0	596115456	72	4486
2026-01-01 14:39:54.83	311.42	8.96	-51.9	-53.7	17.5	6.04e-01	0	33	0	598212608	72	4475
2026-01-01 14:39:55.84	311.61	8.93	-51.9	-53.7	17.5	6.03e-01	0	33	0	599785472	72	4459
2026-01-01 14:39:56.84	311.79	8.90	-51.9	-53.7	17.4	6.05e-01	0	33	0	601882624	72	4476
2026-01-01 14:39:57.85	311.98	8.87	-52.1	-53.9	17.5	6.05e-01	0	33	0	603979776	72	4585
2026-01-01 14:39:58.86	312.16	8.84	-51.9	-53.7	17.5	6.02e-01	0	33	0	605552640	72	4474
2026-01-01 14:39:59.87	312.35	8.81	-52.2	-54.1	17.5	6.05e-01	0	33	0	607649792	72	4658
2026-01-01 14:40:00.87	312.53	8.78	-52.1	-53.9	17.5	6.04e-01	0	33	0	609222656	72	4585
2026-01-01 14:40:01.88	312.72	8.75	-52.1	-53.9	17.4	6.04e-01	0	33	0	611319808	72	4595
2026-01-01 14:40:02.88	312.90	8.72	-52.0	-53.9	17.5	6.05e-01	0	33	0	612892672	72	4583
2026-01-01 14:40:03.89	313.09	8.69	-52.0	-53.8	17.5	6.03e-01	0	33	0	614989824	72	4526
2026-01-01 14:40:04.89	313.27	8.66	-51.9	-53.7	17.5	6.03e-01	0	33	0	617086976	72	4484
2026-01-01 14:40:05.90	313.45	8.63	-52.0	-53.9	17.5	6.01e-01	0	33	0	618659840	72	4549
2026-01-01 14:40:06.91	313.64	8.60	-52.0	-53.9	17.4	6.04e-01	0	33	0	620756992	72	4556
2026-01-01 14:40:07.92	313.82	8.56	-52.0	-53.9	17.4	6.03e-01	0	33	0	622329856	72	4549
2026-01-01 14:40:08.92	314.00	8.53	-51.8	-53.7	17.4	6.04e-01	0	33	0	624427008	72	4450
2026-01-01 14:40:09.93	314.18	8.50	-52.0	-53.8	17.5	6.02e-01	0	33	0	626524160	72	4538
2026-01-01 14:40:10.94	314.36	8.47	-52.0	-53.9	17.5	6.03e-01	0	33	0	628097024	72	4570
2026-01-01 14:40:11.95	314.54	8.43	-52.2	-54.1	17.5	6.04e-01	0	33	0	630194176	72	4659
2026-01-01 14:40:12.95	314.72	8.40	-52.1	-53.9	17.5	6.04e-01	0	34	0	632291328	72	4596
2026-01-01 14:40:13.95	314.90	8.37	-52.0	-53.9	17.4	6.04e-01	0	33	0	633864192	72	4551
2026-01-01 14:40:14.96	315.08	8.33	-52.1	-54.0	17.4	6.03e-01	0	34	0	635961344	72	4601
2026-01-01 14:40:15.97	315.26	8.30	-52.1	-54.0	17.4	6.01e-01	0	33	0	637534208	72	4637
2026-01-01 14:40:16.98	315.44	8.27	-52.1	-54.0	17.5	6.04e-01	0	33	0	639631360	72	4624
2026-01-01 14:40:17.98	315.62	8.23	-52.1	-54.0	17.4	6.03e-01	0	33	0	641204224	72	4648
2026-01-01 14:40:18.99	315.80	8.20	-52.1	-54.0	17.4	6.04e-01	0	33	0	643301376	72	4635
2026-01-01 14:40:20.00	315.97	8.17	-52.0	-53.8	17.4	6.04e-01	0	33	0	645398528	72	4545
2026-01-01 14:40:21.01	316.15	8.13	-52.1	-54.0	17.5	6.05e-01	0	33	0	646971392	72	4626
2026-01-01 14:40:22.01	316.33	8.10	-52.1	-54.1	17.4	6.04e-01	0	33	0	649068544	72	4654
2026-01-01 14:40:23.02	316.50	8.06	-52.2	-54.2	17.4	6.04e-01	0	33	0	650641408	72	4717
2026-01-01 14:40:24.03	316.68	8.03	-52.3	-54.3	17.3	6.04e-01	0	33	0	652738560	72	4770
2026-01-01 14:40:25.03	316.85	7.99	-52.2	-54.1	17.3	6.03e-01	0	33	0	654835712	72	4687
2026-01-01 14:40:26.04	317.03	7.96	-52.3	-54.3	17.3	6.03e-01	0	34	0	656408576	72	4776
2026-01-01 14:40:27.05	317.20	7.92	-52.3	-54.2	17.3	6.02e-01	0	34	0	658505728	72	4758
2026-01-01 14:40:28.06	317.37	7.89	-52.2	-54.2	17.3	6.03e-01	0	33	0	660602880	72	4707
2026-01-01 14:40:29.06	317.55	7.85	-52.1	-54.1	17.3	6.01e-01	0	34	0	662175744	72	4674
2026-01-01 14:40:30.07	317.72	7.82	-52.2	-54.1	17.3	6.00e-01	0	33	0	664272896	72	4689
2026-01-01 14:40:31.07	317.89	7.78	-52.1	-54.1	17.3	6.04e-01	0	34	0	665845760	72	4667
2026-01-01 14:40:32.08	318.06	7.74	-52.1	-54.1	17.4	6.03e-01	0	33	0	667942912	72	4665
2026-01-01 14:40:33.09	318.24	7.71	-52.0	-53.9	17.4	6.02e-01	0	34	0	670040064	72	4575
2026-01-01 14:40:34.10	318.41	7.67	-52.0	-53.9	17.4	6.04e-01	0	34	0	671612928	72	4558
2026-01-01 14:40:35.10	318.58	7.63	-52.0	-53.9	17.4	6.05e-01	0	33	0	673710080	72	4568
2026-01-01 14:40:36.11	318.75	7.60	-52.1	-54.0	17.4	6.02e-01	0	33	0	675282944	72	4610
2026-01-01 14:40:37.11	318.91	7.56	-52.0	-54.0	17.4	6.03e-01	0	33	0	677380096	72	4600
2026-01-01 14:40:38.12	319.08	7.52	-52.1	-54.0	17.4	6.03e-01	0	33	0	678952960	72	4618
2026-01-01 14:40:39.12	319.25	7.49	-52.2	-54.1	17.3	6.02e-01	0	33	0	681050112	72	4705
2026-01-01 14:40:40.13	319.42	7.45	-52.3	-54.2	17.2	6.04e-01	0	33	0	683147264	72	4759
2026-01-01 14:40:41.14	319.59	7.41	-52.3	-54.2	17.2	6.02e-01	0	33	0	684720128	72	4758
2026-01-01 14:40:42.14	319.75	7.38	-52.2	-54.2	17.3	6.05e-01	0	33	0	686817280	72	4728
2026-01-01 14:40:43.15	319.92	7.34	-52.2	-54.2	17.3	6.04e-01	0	33	0	688914432	72	4723
2026-01-01 14:40:44.15	320.09	7.30	-52.2	-54.1	17.3	6.04e-01	0	34	0	690487296	72	4704
2026-01-01 14:40:45.16	320.25	7.26	-52.2	-54.1	17.3	6.06e-01	0	33	0	692584448	72	4690
2026-01-01 14:40:46.17	320.42	7.22	-52.2	-54.1	17.3	6.03e-01	0	33	0	694157312	72	4681
2026-01-01 14:40:47.18	320.59	7.19	-52.2	-54.1	17.3	6.04e-01	0	33	0	696254464	72	4678
2026-01-01 14:40:48.19	320.75	7.15	-52.1	-54.1	17.3	6.02e-01	0	34	0	698351616	72	4664
2026-01-01 14:40:49.20	320.91	7.11	-52.2	-54.1	17.3	6.03e-01	0	34	0	699924480	72	4696
2026-01-01 14:40:50.20	321.08	7.07	-52.2	-54.1	17.3	6.04e-01	0	33	0	702021632	72	4684
2026-01-01 14:40:51.21	321.24	7.03	-52.3	-54.3	17.3	6.02e-01	0	34	0	703594496	72	4776
2026-01-01 14:40:52.21	321.40	6.99	-52.3	-54.2	17.3	6.03e-01	0	33	0	705691648	72	4754
2026-01-01 14:40:53.22	321.57	6.96	-52.3	-54.3	17.3	6.02e-01	0	33	0	707264512	72	4785
2026-01-01 14:40:54.23	321.73	6.92	-52.4	-54.4	17.3	6.03e-01	0	34	0	709361664	72	4863
2026-01-01 14:40:55.24	321.89	6.88	-52.5	-54.5	17.3	6.03e-01	0	33	0	711458816	72	4891
2026-01-01 14:40:56.24	322.05	6.84	-52.5	-54.6	17.2	6.04e-01	0	34	0	713031680	72	4939
2026-01-01 14:40:57.25	322.21	6.80	-52.4	-54.4	17.3	6.03e-01	0	33	0	715128832	72	4842
2026-01-01 14:40:58.26	322.37	6.76	-52.3	-54.3	17.3	6.01e-01	0	34	0	717225984	72	4812
2026-01-01 14:40:59.26	322.53	6.72	-52.4	-54.4	17.3	6.05e-01	0	34	0	718798848	72	4838
2026-01-01 14:41:00.27	322.69	6.68	-52.3	-54.3	17.3	6.02e-01	0	34	0	720896000	72	4783
2026-01-01 14:41:01.27	322.85	6.64	-52.3	-54.3	17.3	6.02e-01	0	33	0	722468864	72	4767
2026-01-01 14:41:02.29	323.01	6.60	-52.3	-54.2	17.3	6.02e-01	0	33	0	724566016	72	4749
2026-01-01 14:41:03.29	323.16	6.56	-52.3	-54.2	17.3	6.04e-01	0	33	0	726663168	72	4758
2026-01-01 14:41:04.30	323.32	6.52	-52.3	-54.3	17.3	6.04e-01	0	34	0	728236032	72	4765
2026-01-01 14:41:05.31	323.48	6.48	-52.3	-54.3	17.3	6.05e-01	0	34	0	730333184	72	4781
2026-01-01 14:41:06.32	323.63	6.44	-52.5	-54.5	17.3	6.02e-01	0	34	0	731906048	72	4907
2026-01-01 14:41:07.33	323.79	6.40	-52.5	-54.5	17.2	6.04e-01	0	34	0	734003200	72	4924
2026-01-01 14:41:08.34	323.95	6.36	-52.6	-54.6	17.2	6.03e-01	0	33	0	735576064	73	4705
2026-01-01 14:41:09.34	324.10	6.32	-52.5	-54.6	17.2	6.04e-01	0	33	0	737673216	73	4662
2026-01-01 14:41:10.35	324.26	6.28	-52.5	-54.5	17.1	6.05e-01	0	33	0	739770368	73	4646
2026-01-01 14:41:11.36	324.41	6.24	-52.5	-54.5	17.2	6.03e-01	0	33	0	741343232	73	4635
2026-01-01 14:41:12.37	324.56	6.20	-52.5	-54.5	17.2	6.02e-01	0	33	0	743440384	73	4634
2026-01-01 14:41:13.37	324.72	6.16	-52.5	-54.5	17.2	6.04e-01	0	33	0	745537536	73	4650
2026-01-01 14:41:14.38	324.87	6.12	-52.6	-54.7	17.2	6.03e-01	0	33	0	747110400	73	4718
2026-01-01 14:41:15.39	325.02	6.07	-52.6	-54.7	17.1	6.01e-01	0	33	0	749207552	73	4747
2026-01-01 14:41:16.40	325.17	6.03	-52.5	-54.6	17.2	6.03e-01	0	33	0	750780416	73	4687
2026-01-01 14:41:17.40	325.32	5.99	-52.6	-54.6	17.2	6.05e-01	0	34	0	752877568	73	4696
2026-01-01 14:41:18.41	325.48	5.95	-52.5	-54.5	17.2	6.04e-01	0	33	0	754974720	73	4650
2026-01-01 14:41:19.42	325.63	5.91	-52.6	-54.7	17.2	6.03e-01	0	33	0	756547584	73	4722
2026-01-01 14:41:20.42	325.78	5.87	-52.6	-54.7	17.2	6.05e-01	0	34	0	758644736	73	4747
2026-01-01 14:41:21.43	325.93	5.83	-52.6	-54.6	17.2	6.04e-01	0	33	0	760217600	73	4694
2026-01-01 14:41:22.44	326.08	5.78	-52.6	-54.7	17.2	6.04e-01	0	33	0	762314752	73	4734
2026-01-01 14:41:23.44	326.22	5.74	-52.6	-54.6	17.2	6.02e-01	0	33	0	764411904	73	4698
2026-01-01 14:41:24.45	326.37	5.70	-52.6	-54.7	17.2	6.04e-01	0	33	0	765984768	73	4733
2026-01-01 14:41:25.45	326.52	5.66	-52.6	-54.7	17.2	6.03e-01	0	33	0	768081920	73	4713
2026-01-01 14:41:26.46	326.67	5.62	-52.7	-54.8	17.0	6.05e-01	0	33	0	769654784	73	4770
2026-01-01 14:41:27.47	326.81	5.58	-52.7	-54.9	17.1	6.05e-01	0	33	0	771751936	73	4815
2026-01-01 14:41:28.48	326.96	5.53	-52.7	-54.9	17.1	6.04e-01	0	33	0	773849088	73	4816
2026-01-01 14:41:29.48	327.11	5.49	-52.7	-54.8	17.1	6.04e-01	0	33	0	775421952	73	4771
2026-01-01 14:41:30.49	327.25	5.45	-52.7	-54.8	17.2	6.03e-01	0	33	0	777519104	73	4782
2026-01-01 14:41:31.49	327.40	5.41	-52.7	-54.9	17.1	6.02e-01	0	33	0	779091968	73	4820
2026-01-01 14:41:32.50	327.54	5.36	-52.7	-54.9	17.1	6.03e-01	0	33	0	781189120	73	4825
2026-01-01 14:41:33.51	327.69	5.32	-52.8	-54.9	17.1	6.05e-01	0	34	0	783286272	73	4864
2026-01-01 14:41:34.52	327.83	5.28	-52.7	-54.9	17.1	6.05e-01	0	33	0	784859136	73	4832
2026-01-01 14:41:35.52	327.97	5.24	-52.7	-54.8	17.1	6.00e-01	0	33	0	786956288	73	4806
2026-01-01 14:41:36.53	328.12	5.19	-52.6	-54.7	17.1	6.02e-01	0	34	0	788529152	73	4734
2026-01-01 14:41:37.54	328.26	5.15	-52.8	-55.0	17.1	6.03e-01	0	34	0	790626304	73	4886
2026-01-01 14:41:38.55	328.40	5.11	-52.8	-55.0	17.0	6.02e-01	0	33	0	792723456	73	4916
2026-01-01 14:41:39.56	328.54	5.07	-52.7	-54.9	17.0	6.04e-01	0	33	0	794296320	73	4824
2026-01-01 14:41:40.57	328.68	5.02	-52.7	-54.8	17.1	6.03e-01	0	33	0	796393472	73	4811
2026-01-01 14:41:41.58	328.82	4.98	-54.4	-57.1	16.6	6.03e-01	0	33	0	797966336	76	5262
2026-01-01 14:41:42.59	328.97	4.94	-59.9	-79.0	3.8	7.47e-01	0	33	104	799539200	87	34509
2026-01-01 14:41:43.60	329.11	4.89	-60.3	-79.5	3.8	7.48e-01	0	34	104	799539200	88	34714
2026-01-01 14:41:44.60	329.24	4.85	-60.6	-80.0	3.8	7.43e-01	0	33	104	799539200	89	34671
2026-01-01 14:41:45.61	329.38	4.81	-60.8	-80.1	3.8	7.46e-01	0	34	104	799539200	89	35220
2026-01-01 14:41:46.62	329.52	4.77	-61.0	-80.3	3.8	7.46e-01	0	34	104	799539200	89	35789
2026-01-01 14:41:47.63	329.66	4.72	-61.2	-80.5	3.8	7.46e-01	0	34	104	799539200	90	34799
2026-01-01 14:41:48.63	329.80	4.68	-61.3	-80.7	3.8	7.45e-01	0	33	104	799539200	90	35323
2026-01-01 14:41:49.64	329.94	4.64	-61.4	-80.8	3.8	7.46e-01	0	33	104	799539200	90	35802
2026-01-01 14:41:50.65	330.07	4.59	-61.5	-80.9	3.8	7.47e-01	0	33	104	799539200	90	36128
2026-01-01 14:41:51.65	330.21	4.55	-61.6	-80.9	3.8	7.44e-01	0	34	104	799539200	90	36336
2026-01-01 14:41:52.66	330.34	4.51	-61.6	-81.3	3.8	7.45e-01	0	33	104	799539200	91	35754
2026-01-01 14:41:53.67	330.48	4.46	-61.6	-81.0	3.8	7.46e-01	0	34	104	799539200	91	34595
2026-01-01 14:41:54.68	330.62	4.42	-61.7	-81.0	3.8	7.48e-01	0	33	104	799539200	91	34755
2026-01-01 14:41:55.68	330.75	4.37	-61.7	-81.0	3.8	7.46e-01	0	34	104	799539200	91	34753
2026-01-01 14:41:56.70	330.89	4.33	-61.7	-81.0	3.8	7.47e-01	0	34	104	799539200	91	34839
2026-01-01 14:41:57.71	331.02	4.29	-61.7	-81.1	3.8	7.45e-01	0	34	104	799539200	91	34939
2026-01-01 14:41:58.71	331.15	4.24	-61.8	-81.1	3.8	7.47e-01	0	34	104	799539200	91	34978
2026-01-01 14:41:59.72	331.29	4.20	-61.7	-81.1	3.8	7.47e-01	0	34	104	799539200	91	34934
2026-01-01 14:42:00.73	331.42	4.16	-61.7	-81.1	3.8	7.46e-01	0	33	104	799539200	91	34892
2026-01-01 14:42:01.73	331.55	4.11	-61.7	-81.1	3.9	7.48e-01	0	34	104	799539200	91	34988
2026-01-01 14:42:02.74	331.68	4.07	-61.7	-81.1	3.8	7.44e-01	0	33	104	799539200	91	34983
2026-01-01 14:42:03.75	331.81	4.02	-61.7	-81.0	3.8	7.49e-01	0	33	104	799539200	91	34729
2026-01-01 14:42:04.76	331.95	3.98	-61.6	-81.0	3.8	7.46e-01	0	34	104	799539200	91	34590
2026-01-01 14:42:05.77	332.08	3.94	-61.6	-81.0	3.8	7.43e-01	0	34	104	799539200	91	34609
2026-01-01 14:42:06.78	332.21	3.89	-61.6	-80.9	3.8	7.48e-01	0	34	104	799539200	91	34479
2026-01-01 14:42:07.79	332.34	3.85	-61.6	-80.9	3.8	7.46e-01	0	33	104	799539200	91	34464
2026-01-01 14:42:08.80	332.47	3.80	-61.6	-80.9	3.8	7.46e-01	0	34	104	799539200	91	34439
2026-01-01 14:42:09.81	332.60	3.76	-61.6	-80.9	3.8	7.45e-01	0	33	104	799539200	91	34366
2026-01-01 14:42:10.82	332.72	3.72	-61.5	-80.9	3.8	7.45e-01	0	34	104	799539200	91	34143
2026-01-01 14:42:11.82	332.85	3.67	-61.5	-80.9	3.8	7.45e-01	0	34	104	799539200	91	34098
2026-01-01 14:42:12.83	332.98	3.63	-61.5	-80.8	3.8	7.46e-01	0	33	104	799539200	91	34072
2026-01-01 14:42:13.83	333.11	3.58	-61.5	-80.9	3.8	7.45e-01	0	34	104	799539200	91	34088
2026-01-01 14:42:14.84	333.23	3.54	-61.5	-80.8	3.8	7.44e-01	0	34	104	799539200	91	34066
2026-01-01 14:42:15.84	333.36	3.50	-61.5	-80.8	3.8	7.42e-01	0	34	104	799539200	91	34045
2026-01-01 14:42:16.85	333.49	3.45	-61.5	-80.8	3.8	7.46e-01	0	34	104	799539200	91	33998
2026-01-01 14:42:17.86	333.61	3.41	-61.5	-80.8	3.8	7.44e-01	0	34	104	799539200	91	33868
2026-01-01 14:42:18.86	333.74	3.36	-61.5	-80.8	3.8	7.44e-01	0	34	104	799539200	91	33956
2026-01-01 14:42:19.87	333.86	3.32	-61.5	-80.8	3.8	7.45e-01	0	34	104	799539200	91	33840
2026-01-01 14:42:20.88	333.99	3.27	-61.5	-80.8	3.8	7.42e-01	0	34	104	799539200	91	33890
2026-01-01 14:42:21.89	334.11	3.23	-61.4	-80.8	3.8	7.48e-01	0	34	104	799539200	91	33789
2026-01-01 14:42:22.90	334.23	3.18	-61.4	-80.8	3.8	7.45e-01	0	34	104	799539200	91	33742
2026-01-01 14:42:23.91	334.36	3.14	-61.4	-80.8	3.8	7.49e-01	0	34	104	799539200	91	33708
2026-01-01 14:42:24.92	334.48	3.10	-61.4	-80.8	3.8	7.44e-01	0	34	104	799539200	91	33744
2026-01-01 14:42:25.93	334.60	3.05	-61.4	-80.8	3.8	7.43e-01	0	34	104	799539200	91	33813
2026-01-01 14:42:26.94	334.73	3.01	-61.4	-80.8	3.8	7.47e-01	0	34	104	799539200	91	33734
2026-01-01 14:42:27.95	334.85	2.96	-61.4	-80.7	3.8	7.46e-01	0	34	104	799539200	91	33673
2026-01-01 14:42:28.95	334.97	2.92	-61.4	-80.7	3.8	7.45e-01	0	34	104	799539200	91	33639
2026-01-01 14:42:29.96	335.09	2.87	-61.4	-80.7	3.8	7.48e-01	0	34	104	799539200	91	33672
2026-01-01 14:42:30.97	335.21	2.83	-61.4	-80.7	3.8	7.46e-01	0	34	104	799539200	91	33670
2026-01-01 14:42:31.97	335.33	2.78	-61.4	-80.7	3.8	7.45e-01	0	34	104	799539200	91	33637
2026-01-01 14:42:32.98	335.45	2.74	-61.4	-80.7	3.8	7.48e-01	0	34	104	799539200	91	33661
2026-01-01 14:42:33.99	335.57	2.69	-61.4	-80.7	3.8	7.46e-01	0	34	104	799539200	91	33605
2026-01-01 14:42:35.00	335.69	2.65	-61.4	-80.7	3.8	7.46e-01	0	34	104	799539200	91	33631
2026-01-01 14:42:36.01	335.81	2.61	-61.4	-80.7	3.8	7.47e-01	0	34	104	799539200	91	33538
2026-01-01 14:42:37.01	335.93	2.56	-61.4	-80.7	3.8	7.47e-01	0	34	104	799539200	91	33496
2026-01-01 14:42:38.02	336.04	2.52	-61.4	-80.7	3.8	7.47e-01	0	34	104	799539200	91	33548
2026-01-01 14:42:39.03	336.16	2.47	-61.4	-80.7	3.8	7.46e-01	0	34	104	799539200	91	33521
2026-01-01 14:42:40.04	336.28	2.43	-61.4	-80.7	3.8	7.46e-01	0	34	104	799539200	91	33523
2026-01-01 14:42:41.05	336.40	2.38	-61.4	-80.7	3.8	7.46e-01	0	34	104	799539200	91	33491
2026-01-01 14:42:42.06	336.51	2.34	-61.4	-80.7	3.8	7.44e-01	0	33	104	799539200	91	33466
2026-01-01 14:42:43.06	336.63	2.29	-61.4	-80.7	3.8	7.49e-01	0	34	104	799539200	91	33446
2026-01-01 14:42:44.07	336.75	2.25	-61.4	-80.7	3.8	7.44e-01	0	34	104	799539200	91	33453
2026-01-01 14:42:45.07	336.86	2.20	-61.4	-80.7	3.8	7.44e-01	0	34	104	799539200	91	33484
2026-01-01 14:42:46.08	336.98	2.16	-61.3	-80.7	3.8	7.48e-01	0	34	104	799539200	91	33482
2026-01-01 14:42:47.09	337.09	2.11	-61.3	-80.7	3.8	7.50e-01	0	34	104	799539200	91	33442
2026-01-01 14:42:48.10	337.20	2.07	-61.3	-80.7	3.8	7.45e-01	0	34	104	799539200	91	33428
2026-01-01 14:42:49.11	337.32	2.02	-61.3	-80.7	3.8	7.45e-01	0	34	104	799539200	91	33335
2026-01-01 14:42:50.12	337.43	1.98	-61.3	-80.7	3.8	7.48e-01	0	34	104	799539200	91	33394

#Closed at: 2026-01-01 14:42:50
#Recorded file [799 MB]: D:/lorett/data/31004_260101_173333.dat