passes_logs/2026/01/01/R3.2S_Murmansk/R3.2S_Murmansk__20260101_125308_AQUA_rec.log

#Pass ID: 20260101_125308_AQUA
#Satellite: AQUA
#Configuration: AQUA
#almurnet v.1.7.20251203
#Start time: 2026-01-01 12:53:08

#Version: 2.2.20231116
#Station: R3.2S_Murmansk
#Location: 33.079688 lon 68.888172 lat
#TLE: 1 27424U 02022A   25365.92641127  .00002078  00000+0  42628-3 0  9999
#TLE: 2 27424  98.4058 327.1196 0001962  94.7781 340.6230 14.61783896258835

#Time	Az	El	Level	Level2	SNR	BER	BlckErr	Temp	State	Recorded	gain1	gain2
2026-01-01 12:53:08.36	194.85	1.99	-59.8	-78.8	3.8	7.45e-01	0	37	0	0	87	33930
2026-01-01 12:53:09.37	194.91	2.05	-59.8	-78.9	3.8	7.43e-01	0	37	104	0	87	34290
2026-01-01 12:53:10.38	194.97	2.11	-59.8	-78.8	3.8	7.47e-01	0	37	104	0	87	33980
2026-01-01 12:53:11.39	195.03	2.18	-59.8	-78.7	3.8	7.48e-01	0	37	104	0	87	33607
2026-01-01 12:53:12.40	195.09	2.24	-59.8	-78.5	3.8	7.43e-01	0	37	104	0	87	32840
2026-01-01 12:53:13.41	195.15	2.30	-59.8	-78.4	3.8	7.43e-01	0	37	104	0	87	32497
2026-01-01 12:53:14.42	195.21	2.36	-59.8	-78.4	3.8	7.48e-01	0	37	104	0	87	32450
2026-01-01 12:53:15.43	195.27	2.43	-59.8	-78.4	3.8	7.44e-01	0	37	104	0	87	32318
2026-01-01 12:53:16.44	195.33	2.49	-59.8	-78.5	3.8	7.40e-01	0	37	104	0	87	32900
2026-01-01 12:53:17.45	195.39	2.55	-59.8	-78.7	3.8	7.45e-01	0	37	104	0	87	33364
2026-01-01 12:53:18.45	195.45	2.62	-59.8	-78.8	3.8	7.47e-01	0	37	104	0	87	33936
2026-01-01 12:53:19.46	195.51	2.68	-59.8	-78.9	3.8	7.50e-01	0	36	104	0	87	34149
2026-01-01 12:53:20.47	195.57	2.74	-59.8	-78.9	3.8	7.46e-01	0	36	104	0	87	34141
2026-01-01 12:53:21.48	195.64	2.81	-59.8	-79.0	3.8	7.46e-01	0	36	104	0	87	34485
2026-01-01 12:53:22.49	195.70	2.87	-59.7	-78.9	3.8	7.46e-01	0	37	104	0	87	34356
2026-01-01 12:53:23.50	195.76	2.94	-59.7	-78.9	3.8	7.46e-01	0	36	104	0	87	34283
2026-01-01 12:53:24.51	195.82	3.00	-59.7	-78.8	3.8	7.47e-01	0	36	104	0	87	33783
2026-01-01 12:53:25.52	195.89	3.06	-59.7	-78.8	3.8	7.46e-01	0	36	104	0	87	33702
2026-01-01 12:53:26.53	195.95	3.13	-59.7	-78.6	3.8	7.46e-01	0	36	104	0	87	33165
2026-01-01 12:53:27.53	196.01	3.19	-59.7	-78.5	3.8	7.48e-01	0	36	104	0	87	32755
2026-01-01 12:53:28.54	196.08	3.26	-59.7	-78.3	3.8	7.45e-01	0	36	104	0	87	31902
2026-01-01 12:53:29.54	196.14	3.32	-59.7	-78.4	3.8	7.43e-01	0	36	104	0	87	32212
2026-01-01 12:53:30.56	196.21	3.39	-59.7	-78.2	3.8	7.47e-01	0	36	104	0	87	31757
2026-01-01 12:53:31.56	196.27	3.45	-59.7	-78.2	3.8	7.46e-01	0	36	104	0	87	31645
2026-01-01 12:53:32.57	196.34	3.52	-59.7	-78.0	3.8	7.46e-01	0	36	104	0	87	30943
2026-01-01 12:53:33.58	196.40	3.58	-59.7	-77.7	3.8	7.45e-01	0	36	104	0	87	29991
2026-01-01 12:53:34.58	196.47	3.65	-59.7	-77.4	3.8	7.44e-01	0	36	104	0	87	28932
2026-01-01 12:53:35.59	196.53	3.72	-59.7	-76.9	3.8	7.43e-01	0	36	104	0	87	27251
2026-01-01 12:53:36.60	196.60	3.78	-59.7	-76.9	3.9	7.38e-01	0	36	104	0	87	27199
2026-01-01 12:53:37.61	196.67	3.85	-59.7	-77.1	3.8	7.44e-01	0	36	104	0	87	27820
2026-01-01 12:53:38.62	196.73	3.91	-59.7	-77.8	3.8	7.44e-01	0	36	104	0	87	30126
2026-01-01 12:53:39.62	196.80	3.98	-59.7	-78.6	3.8	7.49e-01	0	36	104	0	87	33077
2026-01-01 12:53:40.63	196.87	4.05	-59.7	-78.9	3.8	7.45e-01	0	36	104	0	87	34462
2026-01-01 12:53:41.64	196.94	4.11	-59.7	-78.0	3.8	7.44e-01	0	36	104	0	87	30752
2026-01-01 12:53:42.65	197.00	4.18	-59.6	-75.1	4.3	7.29e-01	0	36	104	0	87	22084
2026-01-01 12:53:43.66	197.07	4.25	-59.5	-72.6	5.4	6.99e-01	13	36	0	0	87	16631
2026-01-01 12:53:44.66	197.14	4.31	-59.4	-70.7	6.8	6.64e-01	92	35	0	1572864	86	14194
2026-01-01 12:53:45.67	197.21	4.38	-59.3	-69.7	7.7	6.48e-01	86	36	0	3145728	86	12620
2026-01-01 12:53:46.68	197.28	4.45	-59.2	-68.8	8.6	6.34e-01	0	35	0	5242880	86	11350
2026-01-01 12:53:47.69	197.35	4.52	-59.1	-68.5	8.9	6.32e-01	0	35	0	7340032	86	10914
2026-01-01 12:53:48.70	197.42	4.58	-59.1	-68.3	9.0	6.31e-01	0	36	0	8912896	86	10754
2026-01-01 12:53:49.70	197.49	4.65	-59.1	-68.5	8.9	6.32e-01	0	35	0	11010048	86	10927
2026-01-01 12:53:50.71	197.56	4.72	-59.1	-68.6	8.8	6.31e-01	0	35	0	12582912	85	11716
2026-01-01 12:53:51.72	197.63	4.79	-59.0	-67.8	9.4	6.25e-01	0	35	0	14680064	85	10732
2026-01-01 12:53:52.73	197.70	4.86	-58.8	-67.1	10.2	6.22e-01	0	35	0	16777216	85	9843
2026-01-01 12:53:53.74	197.77	4.93	-58.6	-65.9	11.1	6.13e-01	0	35	0	18350080	85	8640
2026-01-01 12:53:54.75	197.85	4.99	-58.4	-65.0	12.0	6.14e-01	0	35	0	20447232	85	7754
2026-01-01 12:53:55.76	197.92	5.06	-57.7	-62.6	14.1	6.07e-01	0	35	0	22020096	84	6266
2026-01-01 12:53:56.76	197.99	5.13	-58.9	-67.1	10.4	6.19e-01	0	35	0	24117248	85	9915
2026-01-01 12:53:57.77	198.07	5.20	-58.2	-64.4	12.6	6.11e-01	0	35	0	26214400	85	7253
2026-01-01 12:53:58.78	198.14	5.27	-59.5	-75.4	3.9	7.41e-01	0	35	104	27262976	86	24408
2026-01-01 12:53:59.79	198.21	5.34	-54.5	-57.1	16.7	6.07e-01	0	35	0	27262976	78	4692
2026-01-01 12:54:00.78	198.29	5.41	-53.8	-56.1	17.4	6.07e-01	0	35	0	29360128	76	4686
2026-01-01 12:54:01.79	198.36	5.48	-53.6	-55.8	17.6	6.07e-01	0	35	0	30932992	76	4517
2026-01-01 12:54:02.80	198.44	5.55	-53.8	-56.1	17.5	6.06e-01	0	35	0	33030144	76	4654
2026-01-01 12:54:03.80	198.51	5.62	-53.8	-56.1	17.5	6.06e-01	0	35	0	35127296	76	4659
2026-01-01 12:54:04.81	198.59	5.69	-53.6	-55.8	17.6	6.06e-01	0	35	0	36700160	76	4515
2026-01-01 12:54:05.82	198.66	5.76	-53.6	-55.8	17.6	6.07e-01	0	35	0	38797312	76	4512
2026-01-01 12:54:06.83	198.74	5.83	-53.5	-55.8	17.5	6.08e-01	0	35	0	40894464	76	4510
2026-01-01 12:54:07.83	198.82	5.90	-53.6	-55.8	17.6	6.07e-01	0	35	0	42467328	76	4525
2026-01-01 12:54:08.84	198.89	5.97	-53.6	-55.9	17.6	6.05e-01	0	35	0	44564480	76	4550
2026-01-01 12:54:09.85	198.97	6.04	-53.5	-55.7	17.6	6.07e-01	0	35	0	46137344	76	4491
2026-01-01 12:54:10.86	199.05	6.12	-53.6	-55.9	17.5	6.07e-01	0	35	0	48234496	76	4556
2026-01-01 12:54:11.87	199.13	6.19	-53.6	-55.9	17.5	6.08e-01	0	35	0	50331648	76	4559
2026-01-01 12:54:12.87	199.21	6.26	-53.4	-55.6	17.6	6.05e-01	0	35	0	51904512	76	4430
2026-01-01 12:54:13.88	199.29	6.33	-53.2	-55.4	17.6	6.04e-01	0	35	0	54001664	75	4574
2026-01-01 12:54:14.89	199.37	6.40	-53.2	-55.4	17.6	6.08e-01	0	35	0	55574528	75	4553
2026-01-01 12:54:15.89	199.45	6.48	-53.1	-55.2	17.7	6.07e-01	0	35	0	57671680	75	4463
2026-01-01 12:54:16.90	199.53	6.55	-53.1	-55.1	17.7	6.03e-01	0	35	0	59768832	75	4440
2026-01-01 12:54:17.90	199.61	6.62	-53.0	-55.1	17.7	6.06e-01	0	35	0	61341696	75	4431
2026-01-01 12:54:18.91	199.69	6.69	-53.1	-55.2	17.7	6.06e-01	0	35	0	63438848	75	4447
2026-01-01 12:54:19.92	199.77	6.77	-53.1	-55.2	17.7	6.08e-01	0	35	0	65011712	75	4451
2026-01-01 12:54:20.93	199.85	6.84	-53.0	-55.1	17.7	6.07e-01	0	35	0	67108864	75	4418
2026-01-01 12:54:21.93	199.93	6.91	-53.0	-55.0	17.7	6.07e-01	0	35	0	69206016	74	4627
2026-01-01 12:54:22.94	200.02	6.99	-53.0	-55.1	17.7	6.07e-01	0	35	0	70778880	74	4671
2026-01-01 12:54:23.95	200.10	7.06	-53.1	-55.1	17.7	6.07e-01	0	35	0	72876032	74	4688
2026-01-01 12:54:24.96	200.19	7.14	-52.9	-55.0	17.8	6.06e-01	0	34	0	74448896	73	4875
2026-01-01 12:54:25.96	200.27	7.21	-53.0	-55.0	17.7	6.05e-01	0	35	0	76546048	73	4922
2026-01-01 12:54:26.97	200.35	7.28	-53.0	-55.0	17.7	6.05e-01	0	34	0	78643200	73	4914
2026-01-01 12:54:27.98	200.44	7.36	-53.0	-55.0	17.7	6.08e-01	0	34	0	80216064	73	4926
2026-01-01 12:54:28.99	200.53	7.43	-52.8	-54.9	17.7	6.08e-01	0	34	0	82313216	73	4822
2026-01-01 12:54:30.00	200.61	7.51	-53.0	-55.1	17.6	6.06e-01	0	35	0	83886080	74	4687
2026-01-01 12:54:31.01	200.70	7.58	-52.6	-54.6	17.8	6.07e-01	0	34	0	85983232	73	4679
2026-01-01 12:54:32.02	200.79	7.66	-52.7	-54.7	17.8	6.08e-01	0	34	0	88080384	73	4730
2026-01-01 12:54:33.03	200.87	7.74	-52.8	-54.8	17.8	6.07e-01	0	35	0	89653248	73	4778
2026-01-01 12:54:34.04	200.96	7.81	-52.6	-54.6	17.8	6.07e-01	0	34	0	91750400	73	4678
2026-01-01 12:54:35.04	201.05	7.89	-52.6	-54.5	17.8	6.05e-01	0	34	0	93323264	73	4630
2026-01-01 12:54:36.05	201.14	7.96	-52.6	-54.6	17.8	6.05e-01	0	34	0	95420416	73	4690
2026-01-01 12:54:37.06	201.23	8.04	-52.7	-54.7	17.8	6.07e-01	0	34	0	97517568	73	4724
2026-01-01 12:54:38.07	201.32	8.12	-52.6	-54.6	17.8	6.06e-01	0	34	0	99090432	73	4684
2026-01-01 12:54:39.08	201.41	8.19	-52.6	-54.6	17.8	6.09e-01	0	34	0	101187584	73	4678
2026-01-01 12:54:40.09	201.50	8.27	-52.7	-54.6	17.8	6.07e-01	0	34	0	102760448	73	4685
2026-01-01 12:54:41.09	201.59	8.35	-52.7	-54.6	17.8	6.04e-01	0	34	0	104857600	73	4691
2026-01-01 12:54:42.10	201.68	8.43	-52.7	-54.7	17.8	6.04e-01	0	34	0	106954752	73	4714
2026-01-01 12:54:43.11	201.78	8.50	-52.7	-54.7	17.8	6.07e-01	0	34	0	108527616	73	4714
2026-01-01 12:54:44.12	201.87	8.58	-52.6	-54.6	17.8	6.06e-01	0	34	0	110624768	73	4654
2026-01-01 12:54:45.13	201.96	8.66	-52.7	-54.6	17.8	6.04e-01	0	34	0	112721920	73	4700
2026-01-01 12:54:46.14	202.06	8.74	-52.6	-54.5	17.9	6.05e-01	0	34	0	114294784	73	4647
2026-01-01 12:54:47.15	202.15	8.82	-52.6	-54.6	17.8	6.06e-01	0	34	0	116391936	73	4652
2026-01-01 12:54:48.15	202.25	8.89	-52.6	-54.5	17.9	6.05e-01	0	34	0	117964800	73	4620
2026-01-01 12:54:49.16	202.34	8.97	-52.5	-54.4	17.9	6.05e-01	0	34	0	120061952	73	4579
2026-01-01 12:54:50.17	202.44	9.05	-52.5	-54.4	17.9	6.05e-01	0	34	0	122159104	73	4572
2026-01-01 12:54:51.18	202.54	9.13	-52.5	-54.4	17.8	6.07e-01	0	34	0	123731968	73	4565
2026-01-01 12:54:52.18	202.63	9.21	-52.4	-54.3	17.9	6.07e-01	0	34	0	125829120	73	4502
2026-01-01 12:54:53.19	202.73	9.29	-52.5	-54.4	17.9	6.04e-01	0	34	0	127401984	73	4563
2026-01-01 12:54:54.20	202.83	9.37	-52.5	-54.4	17.8	6.03e-01	0	34	0	129499136	73	4590
2026-01-01 12:54:55.21	202.93	9.45	-52.5	-54.3	17.9	6.07e-01	0	34	0	131596288	73	4545
2026-01-01 12:54:56.22	203.03	9.53	-52.3	-54.2	17.9	6.06e-01	0	34	0	133169152	73	4479
2026-01-01 12:54:57.23	203.13	9.61	-52.4	-54.2	17.9	6.05e-01	0	34	0	135266304	73	4489
2026-01-01 12:54:58.24	203.23	9.69	-52.3	-54.2	17.9	6.06e-01	0	34	0	136839168	73	4470
2026-01-01 12:54:59.25	203.33	9.78	-52.4	-54.2	17.8	6.07e-01	0	34	0	138936320	73	4488
2026-01-01 12:55:00.25	203.43	9.86	-52.2	-54.1	17.9	6.07e-01	0	34	0	141033472	73	4401
2026-01-01 12:55:01.26	203.54	9.94	-52.1	-53.9	17.9	6.05e-01	0	34	0	142606336	73	4337
2026-01-01 12:55:02.27	203.64	10.02	-52.1	-53.9	18.0	6.05e-01	0	34	0	144703488	73	4325
2026-01-01 12:55:03.28	203.74	10.10	-52.1	-54.0	18.0	6.07e-01	0	34	0	146276352	73	4352
2026-01-01 12:55:04.29	203.85	10.19	-52.0	-53.8	18.0	6.07e-01	0	34	0	148373504	73	4287
2026-01-01 12:55:05.29	203.95	10.27	-52.1	-53.9	18.0	6.06e-01	0	34	0	150470656	73	4305
2026-01-01 12:55:06.30	204.06	10.35	-52.1	-54.0	18.0	6.08e-01	0	34	0	152043520	73	4346
2026-01-01 12:55:07.31	204.16	10.43	-52.1	-53.9	17.9	6.07e-01	0	34	0	154140672	73	4339
2026-01-01 12:55:08.32	204.27	10.52	-52.2	-54.0	17.9	6.08e-01	0	34	0	156237824	73	4373
2026-01-01 12:55:09.32	204.38	10.60	-52.2	-54.1	17.9	6.07e-01	0	34	0	157810688	73	4394
2026-01-01 12:55:10.33	204.48	10.68	-52.2	-54.0	17.9	6.07e-01	0	34	0	159907840	73	4372
2026-01-01 12:55:11.34	204.59	10.77	-52.2	-54.0	17.9	6.05e-01	0	34	0	161480704	73	4369
2026-01-01 12:55:12.34	204.70	10.85	-52.2	-54.0	17.9	6.05e-01	0	34	0	163577856	73	4367
2026-01-01 12:55:13.35	204.81	10.94	-52.0	-53.8	18.0	6.06e-01	0	34	0	165150720	73	4283
2026-01-01 12:55:14.36	204.92	11.02	-52.0	-53.7	18.0	6.07e-01	0	34	0	167247872	73	4238
2026-01-01 12:55:15.36	205.03	11.10	-52.0	-53.8	18.0	6.06e-01	0	34	0	169345024	73	4269
2026-01-01 12:55:16.37	205.14	11.19	-52.0	-53.8	18.0	6.07e-01	0	34	0	170917888	73	4245
2026-01-01 12:55:17.38	205.26	11.27	-51.9	-53.7	18.0	6.06e-01	0	34	0	173015040	73	4212
2026-01-01 12:55:18.38	205.37	11.36	-51.9	-53.7	18.0	6.06e-01	0	34	0	174587904	73	4213
2026-01-01 12:55:19.39	205.48	11.45	-52.0	-53.7	18.0	6.08e-01	0	34	0	176685056	73	4234
2026-01-01 12:55:20.39	205.60	11.53	-51.9	-53.7	18.0	6.08e-01	0	34	0	178782208	73	4201
2026-01-01 12:55:21.40	205.71	11.62	-51.9	-53.6	18.0	6.05e-01	0	34	0	180355072	72	4440
2026-01-01 12:55:22.41	205.83	11.70	-51.9	-53.7	18.0	6.07e-01	0	34	0	182452224	72	4454
2026-01-01 12:55:23.42	205.95	11.79	-51.9	-53.7	17.9	6.08e-01	0	34	0	184549376	72	4444
2026-01-01 12:55:24.43	206.06	11.88	-51.8	-53.6	18.0	6.05e-01	0	34	0	186122240	72	4401
2026-01-01 12:55:25.43	206.18	11.96	-51.9	-53.6	18.0	6.06e-01	0	34	0	188219392	72	4431
2026-01-01 12:55:26.44	206.30	12.05	-51.8	-53.6	18.0	6.06e-01	0	34	0	189792256	72	4416
2026-01-01 12:55:27.45	206.42	12.14	-51.9	-53.6	18.0	6.05e-01	0	34	0	191889408	72	4429
2026-01-01 12:55:28.46	206.54	12.23	-51.9	-53.6	18.0	6.06e-01	0	34	0	193462272	72	4420
2026-01-01 12:55:29.46	206.66	12.32	-51.9	-53.6	17.9	6.06e-01	0	34	0	195559424	72	4424
2026-01-01 12:55:30.47	206.78	12.40	-51.8	-53.5	18.0	6.07e-01	0	34	0	197656576	72	4381
2026-01-01 12:55:31.48	206.91	12.49	-51.7	-53.5	18.0	6.04e-01	0	34	0	199229440	72	4353
2026-01-01 12:55:32.49	207.03	12.58	-51.8	-53.5	18.0	6.06e-01	0	34	0	201326592	72	4381
2026-01-01 12:55:33.50	207.15	12.67	-51.6	-53.3	18.0	6.07e-01	0	34	0	202899456	72	4285
2026-01-01 12:55:34.51	207.28	12.76	-51.6	-53.3	18.0	6.06e-01	0	34	0	204996608	72	4281
2026-01-01 12:55:35.51	207.40	12.85	-51.6	-53.3	18.0	6.05e-01	0	34	0	207093760	72	4271
2026-01-01 12:55:36.52	207.53	12.94	-51.6	-53.4	18.0	6.06e-01	0	34	0	208666624	72	4292
2026-01-01 12:55:37.53	207.66	13.03	-51.6	-53.3	18.0	6.08e-01	0	34	0	210763776	72	4286
2026-01-01 12:55:38.54	207.79	13.12	-51.6	-53.3	18.0	6.08e-01	0	34	0	212860928	72	4270
2026-01-01 12:55:39.54	207.91	13.21	-51.6	-53.3	18.0	6.04e-01	0	34	0	214433792	72	4266
2026-01-01 12:55:40.55	208.04	13.30	-51.7	-53.4	18.0	6.06e-01	0	34	0	216530944	72	4293
2026-01-01 12:55:41.56	208.18	13.39	-51.5	-53.2	18.1	6.05e-01	0	34	0	218103808	72	4207
2026-01-01 12:55:42.57	208.31	13.49	-51.5	-53.2	18.1	6.06e-01	0	34	0	220200960	72	4232
2026-01-01 12:55:43.57	208.44	13.58	-51.5	-53.2	18.1	6.07e-01	0	34	0	222298112	72	4226
2026-01-01 12:55:44.58	208.57	13.67	-51.5	-53.2	18.1	6.06e-01	0	34	0	223870976	72	4222
2026-01-01 12:55:45.59	208.71	13.76	-51.6	-53.3	18.0	6.07e-01	0	34	0	225968128	72	4276
2026-01-01 12:55:46.60	208.84	13.85	-51.6	-53.3	18.0	6.06e-01	0	34	0	227540992	72	4249
2026-01-01 12:55:47.60	208.98	13.95	-51.6	-53.3	18.0	6.06e-01	0	34	0	229638144	72	4283
2026-01-01 12:55:48.61	209.11	14.04	-51.6	-53.3	18.0	6.06e-01	0	34	0	231735296	72	4269
2026-01-01 12:55:49.62	209.25	14.13	-51.6	-53.3	18.0	6.08e-01	0	34	0	233308160	72	4279
2026-01-01 12:55:50.63	209.39	14.23	-51.5	-53.2	18.0	6.08e-01	0	34	0	235405312	72	4221
2026-01-01 12:55:51.64	209.53	14.32	-51.6	-53.2	18.1	6.08e-01	0	34	0	236978176	72	4238
2026-01-01 12:55:52.64	209.67	14.41	-51.6	-53.3	18.0	6.08e-01	0	34	0	239075328	72	4258
2026-01-01 12:55:53.65	209.81	14.51	-51.6	-53.3	18.0	6.05e-01	0	34	0	241172480	72	4285
2026-01-01 12:55:54.66	209.95	14.60	-51.5	-53.2	18.0	6.06e-01	0	34	0	242745344	72	4198
2026-01-01 12:55:55.67	210.09	14.70	-51.5	-53.1	18.0	6.08e-01	0	34	0	244842496	72	4185
2026-01-01 12:55:56.68	210.24	14.79	-51.4	-53.1	18.0	6.06e-01	0	34	0	246415360	72	4174
2026-01-01 12:55:57.68	210.38	14.89	-51.4	-53.1	18.0	6.06e-01	0	34	0	248512512	72	4161
2026-01-01 12:55:58.69	210.53	14.98	-51.3	-53.0	18.0	6.07e-01	0	34	0	250609664	71	4357
2026-01-01 12:55:59.70	210.68	15.08	-51.4	-53.1	18.0	6.09e-01	0	34	0	252182528	71	4398
2026-01-01 12:56:00.69	210.82	15.17	-51.4	-53.1	18.0	6.07e-01	0	34	0	254279680	71	4425
2026-01-01 12:56:01.70	210.97	15.27	-51.5	-53.1	18.0	6.06e-01	0	34	0	255852544	71	4433
2026-01-01 12:56:02.70	211.12	15.37	-51.3	-53.0	18.0	6.08e-01	0	34	0	257949696	71	4365
2026-01-01 12:56:03.71	211.27	15.46	-51.4	-53.0	18.0	6.08e-01	0	34	0	259522560	71	4379
2026-01-01 12:56:04.71	211.42	15.56	-51.4	-53.0	18.0	6.06e-01	0	34	0	261619712	71	4382
2026-01-01 12:56:05.72	211.57	15.66	-51.4	-53.1	18.0	6.07e-01	0	34	0	263716864	71	4407
2026-01-01 12:56:06.73	211.73	15.76	-51.4	-53.0	18.0	6.04e-01	0	34	0	265289728	71	4373
2026-01-01 12:56:07.74	211.88	15.85	-51.5	-53.1	18.0	6.08e-01	0	34	0	267386880	71	4431
2026-01-01 12:56:08.74	212.04	15.95	-51.4	-53.1	18.0	6.06e-01	0	34	0	269484032	71	4413
2026-01-01 12:56:09.75	212.19	16.05	-51.4	-53.1	18.0	6.06e-01	0	34	0	271056896	71	4418
2026-01-01 12:56:10.76	212.35	16.15	-51.5	-53.2	18.0	6.07e-01	0	34	0	273154048	71	4451
2026-01-01 12:56:11.76	212.51	16.25	-51.4	-53.1	18.0	6.08e-01	0	34	0	274726912	71	4399
2026-01-01 12:56:12.77	212.67	16.35	-51.4	-53.0	18.0	6.08e-01	0	34	0	276824064	71	4391
2026-01-01 12:56:13.78	212.83	16.44	-51.3	-52.9	18.0	6.06e-01	0	34	0	278921216	71	4329
2026-01-01 12:56:14.79	212.99	16.54	-51.3	-52.9	18.1	6.06e-01	0	34	0	280494080	71	4317
2026-01-01 12:56:15.79	213.16	16.64	-51.4	-53.0	18.0	6.05e-01	0	34	0	282591232	71	4384
2026-01-01 12:56:16.80	213.32	16.74	-51.4	-53.0	18.0	6.07e-01	0	34	0	284164096	71	4379
2026-01-01 12:56:17.81	213.49	16.84	-51.3	-53.0	18.0	6.08e-01	0	34	0	286261248	71	4363
2026-01-01 12:56:18.81	213.65	16.94	-51.3	-53.0	18.0	6.08e-01	0	34	0	288358400	71	4349
2026-01-01 12:56:19.82	213.82	17.04	-51.4	-53.0	18.0	6.08e-01	0	34	0	289931264	71	4386
2026-01-01 12:56:20.83	213.99	17.15	-51.3	-52.9	18.0	6.06e-01	0	34	0	292028416	71	4311
2026-01-01 12:56:21.83	214.16	17.25	-51.3	-52.9	18.0	6.05e-01	0	34	0	293601280	71	4335
2026-01-01 12:56:22.85	214.33	17.35	-51.3	-53.0	18.0	6.08e-01	0	34	0	295698432	71	4353
2026-01-01 12:56:23.85	214.51	17.45	-51.4	-53.1	18.0	6.06e-01	0	34	0	297795584	71	4398
2026-01-01 12:56:24.86	214.68	17.55	-51.5	-53.1	18.0	6.07e-01	0	34	0	299368448	71	4425
2026-01-01 12:56:25.87	214.86	17.65	-51.4	-53.0	18.0	6.04e-01	0	34	0	301465600	71	4373
2026-01-01 12:56:26.88	215.03	17.76	-51.3	-53.0	18.0	6.06e-01	0	33	0	303038464	71	4346
2026-01-01 12:56:27.88	215.21	17.86	-51.3	-52.9	18.0	6.05e-01	0	33	0	305135616	71	4331
2026-01-01 12:56:28.89	215.39	17.96	-51.3	-52.9	18.0	6.09e-01	0	34	0	307232768	71	4339
2026-01-01 12:56:29.90	215.57	18.06	-51.3	-52.9	18.0	6.06e-01	0	34	0	308805632	71	4307
2026-01-01 12:56:30.91	215.75	18.17	-51.2	-52.8	18.0	6.06e-01	0	34	0	310902784	71	4264
2026-01-01 12:56:31.91	215.93	18.27	-51.2	-52.8	18.1	6.07e-01	0	34	0	312999936	71	4271
2026-01-01 12:56:32.92	216.11	18.37	-51.2	-52.9	18.0	6.07e-01	0	33	0	314572800	71	4303
2026-01-01 12:56:33.93	216.30	18.48	-51.2	-52.8	18.0	6.07e-01	0	33	0	316669952	71	4282
2026-01-01 12:56:34.93	216.49	18.58	-51.2	-52.8	18.0	6.09e-01	0	34	0	318242816	71	4276
2026-01-01 12:56:35.94	216.67	18.69	-51.2	-52.9	18.0	6.05e-01	0	34	0	320339968	71	4302
2026-01-01 12:56:36.94	216.86	18.79	-51.2	-52.8	18.0	6.06e-01	0	34	0	321912832	71	4263
2026-01-01 12:56:37.95	217.05	18.89	-51.3	-52.9	18.0	6.06e-01	0	34	0	324009984	71	4322
2026-01-01 12:56:38.96	217.24	19.00	-51.3	-52.9	18.0	6.08e-01	0	34	0	326107136	71	4340
2026-01-01 12:56:39.96	217.44	19.10	-51.2	-52.8	18.0	6.06e-01	0	34	0	327680000	71	4267
2026-01-01 12:56:40.97	217.63	19.21	-51.2	-52.9	18.0	6.06e-01	0	34	0	329777152	71	4298
2026-01-01 12:56:41.98	217.83	19.31	-51.1	-52.7	18.0	6.06e-01	0	34	0	331350016	71	4235
2026-01-01 12:56:42.98	218.02	19.42	-51.3	-52.9	18.0	6.07e-01	0	33	0	333447168	71	4310
2026-01-01 12:56:43.99	218.22	19.52	-51.3	-52.9	18.0	6.06e-01	0	33	0	335544320	71	4326
2026-01-01 12:56:45.00	218.42	19.63	-51.3	-52.9	18.0	6.08e-01	0	33	0	337117184	71	4314
2026-01-01 12:56:46.01	218.62	19.74	-51.3	-52.9	18.0	6.07e-01	0	34	0	339214336	71	4306
2026-01-01 12:56:47.01	218.83	19.84	-51.2	-52.8	18.0	6.06e-01	0	34	0	341311488	71	4263
2026-01-01 12:56:48.02	219.03	19.95	-51.2	-52.8	18.0	6.05e-01	0	34	0	342884352	71	4253
2026-01-01 12:56:49.03	219.24	20.05	-51.2	-52.8	18.0	6.05e-01	0	33	0	344981504	71	4288
2026-01-01 12:56:50.04	219.44	20.16	-51.3	-52.9	18.0	6.04e-01	0	33	0	346554368	71	4306
2026-01-01 12:56:51.05	219.65	20.27	-51.3	-52.9	18.0	6.04e-01	0	34	0	348651520	71	4319
2026-01-01 12:56:52.05	219.86	20.37	-51.2	-52.8	18.0	6.05e-01	0	34	0	350224384	71	4268
2026-01-01 12:56:53.06	220.08	20.48	-51.2	-52.8	18.0	6.07e-01	0	34	0	352321536	71	4291
2026-01-01 12:56:54.07	220.29	20.59	-51.2	-52.9	18.0	6.08e-01	0	34	0	354418688	71	4296
2026-01-01 12:56:55.08	220.50	20.70	-51.3	-53.0	18.0	6.06e-01	0	34	0	355991552	71	4358
2026-01-01 12:56:56.08	220.72	20.80	-51.4	-53.0	18.0	6.07e-01	0	34	0	358088704	71	4389
2026-01-01 12:56:57.09	220.94	20.91	-51.3	-53.0	18.0	6.06e-01	0	34	0	359661568	71	4358
2026-01-01 12:56:58.10	221.16	21.02	-51.3	-53.0	18.0	6.06e-01	0	34	0	361758720	71	4343
2026-01-01 12:56:59.11	221.38	21.13	-51.3	-52.9	18.0	6.06e-01	0	34	0	363855872	71	4303
2026-01-01 12:57:00.12	221.60	21.23	-51.3	-53.0	18.0	6.07e-01	0	34	0	365428736	71	4341
2026-01-01 12:57:01.13	221.83	21.34	-51.3	-52.9	18.0	6.06e-01	0	34	0	367525888	71	4311
2026-01-01 12:57:02.13	222.05	21.45	-51.4	-53.1	18.0	6.05e-01	0	34	0	369623040	71	4413
2026-01-01 12:57:03.14	222.28	21.56	-51.5	-53.1	17.9	6.08e-01	0	33	0	371195904	71	4438
2026-01-01 12:57:04.15	222.51	21.67	-51.4	-53.1	18.0	6.08e-01	0	34	0	373293056	71	4409
2026-01-01 12:57:05.15	222.74	21.77	-51.4	-53.1	17.9	6.06e-01	0	34	0	374865920	71	4414
2026-01-01 12:57:06.16	222.97	21.88	-51.4	-53.1	17.9	6.06e-01	0	34	0	376963072	71	4413
2026-01-01 12:57:07.16	223.20	21.99	-51.4	-53.1	17.9	6.06e-01	0	33	0	379060224	71	4417
2026-01-01 12:57:08.17	223.44	22.10	-51.4	-53.0	17.9	6.07e-01	0	33	0	380633088	71	4366
2026-01-01 12:57:09.18	223.68	22.21	-51.3	-52.9	18.0	6.07e-01	0	33	0	382730240	71	4340
2026-01-01 12:57:10.18	223.91	22.31	-51.3	-52.9	17.9	6.03e-01	0	33	0	384303104	71	4305
2026-01-01 12:57:11.19	224.16	22.42	-51.3	-53.0	17.9	6.07e-01	0	34	0	386400256	71	4354
2026-01-01 12:57:12.20	224.40	22.53	-51.5	-53.1	17.9	6.07e-01	0	34	0	387973120	71	4440
2026-01-01 12:57:13.21	224.64	22.64	-51.5	-53.1	17.9	6.06e-01	0	34	0	390070272	71	4432
2026-01-01 12:57:14.22	224.89	22.75	-51.4	-53.1	17.9	6.07e-01	0	33	0	392167424	71	4410
2026-01-01 12:57:15.22	225.14	22.85	-51.5	-53.1	17.9	6.07e-01	0	33	0	393740288	71	4420
2026-01-01 12:57:16.23	225.39	22.96	-51.5	-53.2	17.9	6.07e-01	0	33	0	395837440	71	4455
2026-01-01 12:57:17.23	225.64	23.07	-51.4	-53.0	18.0	6.06e-01	0	34	0	397934592	71	4388
2026-01-01 12:57:18.24	225.89	23.18	-51.3	-53.0	18.0	6.08e-01	0	33	0	399507456	71	4345
2026-01-01 12:57:19.25	226.14	23.29	-51.4	-53.1	18.0	6.09e-01	0	34	0	401604608	71	4412
2026-01-01 12:57:20.25	226.40	23.39	-51.5	-53.2	17.9	6.08e-01	0	33	0	403177472	71	4458
2026-01-01 12:57:21.26	226.66	23.50	-51.5	-53.2	17.9	6.07e-01	0	33	0	405274624	71	4454
2026-01-01 12:57:22.26	226.92	23.61	-51.6	-53.2	17.9	6.06e-01	0	34	0	407371776	71	4478
2026-01-01 12:57:23.27	227.18	23.72	-51.5	-53.2	17.9	6.06e-01	0	33	0	408944640	71	4473
2026-01-01 12:57:24.28	227.44	23.83	-51.7	-53.3	17.9	6.07e-01	0	33	0	411041792	71	4542
2026-01-01 12:57:25.29	227.71	23.93	-51.5	-53.2	17.9	6.08e-01	0	34	0	412614656	71	4448
2026-01-01 12:57:26.29	227.98	24.04	-51.5	-53.2	18.0	6.06e-01	0	34	0	414711808	71	4449
2026-01-01 12:57:27.29	228.24	24.15	-51.4	-53.0	18.0	6.07e-01	0	33	0	416284672	71	4385
2026-01-01 12:57:28.30	228.52	24.25	-51.6	-53.3	17.9	6.04e-01	0	33	0	418381824	71	4518
2026-01-01 12:57:29.31	228.79	24.36	-51.6	-53.3	17.9	6.07e-01	0	33	0	420478976	71	4507
2026-01-01 12:57:30.31	229.06	24.47	-51.6	-53.2	17.9	6.07e-01	0	33	0	422051840	71	4473
2026-01-01 12:57:31.32	229.34	24.57	-51.7	-53.4	17.9	6.07e-01	0	34	0	424148992	71	4565
2026-01-01 12:57:32.33	229.62	24.68	-51.7	-53.3	17.9	6.06e-01	0	34	0	426246144	71	4545
2026-01-01 12:57:33.34	229.90	24.79	-51.6	-53.3	17.9	6.07e-01	0	33	0	427819008	71	4508
2026-01-01 12:57:34.34	230.18	24.89	-51.5	-53.1	17.9	6.07e-01	0	34	0	429916160	71	4425
2026-01-01 12:57:35.35	230.47	25.00	-51.6	-53.3	17.9	6.05e-01	0	34	0	431489024	71	4505
2026-01-01 12:57:36.35	230.75	25.10	-51.6	-53.2	17.9	6.07e-01	0	34	0	433586176	71	4480
2026-01-01 12:57:37.36	231.04	25.21	-51.6	-53.2	17.9	6.02e-01	0	34	0	435683328	71	4485
2026-01-01 12:57:38.37	231.33	25.31	-51.6	-53.2	17.9	6.07e-01	0	33	0	437256192	71	4487
2026-01-01 12:57:39.37	231.62	25.41	-51.6	-53.2	17.9	6.07e-01	0	33	0	439353344	71	4470
2026-01-01 12:57:40.38	231.92	25.52	-51.6	-53.2	17.9	6.06e-01	0	33	0	440926208	71	4481
2026-01-01 12:57:41.39	232.22	25.62	-51.6	-53.3	17.9	6.07e-01	0	33	0	443023360	71	4515
2026-01-01 12:57:42.39	232.51	25.73	-51.6	-53.3	17.9	6.06e-01	0	33	0	444596224	71	4518
2026-01-01 12:57:43.40	232.82	25.83	-51.5	-53.2	18.0	6.06e-01	0	33	0	446693376	71	4461
2026-01-01 12:57:44.41	233.12	25.93	-51.7	-53.4	17.9	6.07e-01	0	33	0	448790528	71	4547
2026-01-01 12:57:45.42	233.42	26.03	-51.7	-53.4	17.9	6.05e-01	0	34	0	450363392	71	4568
2026-01-01 12:57:46.42	233.73	26.14	-51.6	-53.3	17.9	6.06e-01	0	33	0	452460544	71	4505
2026-01-01 12:57:47.43	234.04	26.24	-51.7	-53.4	17.9	6.09e-01	0	33	0	454557696	71	4567
2026-01-01 12:57:48.44	234.35	26.34	-51.6	-53.3	17.9	6.07e-01	0	34	0	456130560	71	4522
2026-01-01 12:57:49.45	234.66	26.44	-51.6	-53.2	17.9	6.07e-01	0	33	0	458227712	71	4485
2026-01-01 12:57:50.45	234.97	26.54	-51.6	-53.2	17.9	6.07e-01	0	33	0	459800576	71	4478
2026-01-01 12:57:51.46	235.29	26.64	-51.7	-53.4	17.9	6.05e-01	0	33	0	461897728	71	4559
2026-01-01 12:57:52.47	235.61	26.74	-51.7	-53.4	17.8	6.05e-01	0	34	0	463994880	71	4566
2026-01-01 12:57:53.47	235.93	26.84	-51.6	-53.2	17.9	6.06e-01	0	33	0	465567744	71	4489
2026-01-01 12:57:54.48	236.25	26.93	-51.6	-53.3	17.9	6.05e-01	0	33	0	467664896	71	4506
2026-01-01 12:57:55.48	236.58	27.03	-51.8	-53.4	17.9	6.06e-01	0	33	0	469237760	71	4596
2026-01-01 12:57:56.49	236.90	27.13	-51.6	-53.3	17.9	6.05e-01	0	33	0	471334912	71	4503
2026-01-01 12:57:57.50	237.23	27.22	-51.7	-53.3	17.9	6.06e-01	0	33	0	472907776	71	4528
2026-01-01 12:57:58.51	237.56	27.32	-51.6	-53.3	17.9	6.07e-01	0	34	0	475004928	71	4512
2026-01-01 12:57:59.52	237.90	27.42	-51.6	-53.3	17.9	6.05e-01	0	33	0	477102080	71	4525
2026-01-01 12:58:00.53	238.23	27.51	-51.5	-53.2	18.0	6.06e-01	0	33	0	478674944	71	4450
2026-01-01 12:58:01.53	238.57	27.60	-51.5	-53.1	18.0	6.06e-01	0	33	0	480772096	71	4434
2026-01-01 12:58:02.54	238.91	27.70	-51.5	-53.2	17.9	6.05e-01	0	33	0	482869248	71	4462
2026-01-01 12:58:03.55	239.25	27.79	-51.6	-53.2	17.9	6.03e-01	0	33	0	484442112	71	4471
2026-01-01 12:58:04.56	239.59	27.88	-51.6	-53.2	17.9	6.04e-01	0	34	0	486539264	71	4488
2026-01-01 12:58:05.56	239.93	27.97	-51.6	-53.2	18.0	6.05e-01	0	34	0	488112128	71	4469
2026-01-01 12:58:06.57	240.28	28.06	-51.5	-53.1	18.0	6.04e-01	0	34	0	490209280	71	4416
2026-01-01 12:58:07.58	240.63	28.15	-51.5	-53.2	18.0	6.08e-01	0	34	0	492306432	71	4459
2026-01-01 12:58:08.59	240.98	28.24	-51.5	-53.1	18.0	6.07e-01	0	34	0	493879296	71	4436
2026-01-01 12:58:09.60	241.34	28.33	-51.5	-53.1	17.9	6.04e-01	0	33	0	495976448	71	4432
2026-01-01 12:58:10.61	241.69	28.42	-51.4	-53.0	18.0	6.07e-01	0	33	0	497549312	71	4389
2026-01-01 12:58:11.61	242.05	28.50	-51.4	-53.0	18.0	6.08e-01	0	33	0	499646464	71	4370
2026-01-01 12:58:12.62	242.41	28.59	-51.5	-53.2	17.9	6.08e-01	0	33	0	501743616	71	4444
2026-01-01 12:58:13.63	242.77	28.67	-51.5	-53.1	18.0	6.08e-01	0	33	0	503316480	71	4398
2026-01-01 12:58:14.64	243.13	28.75	-51.5	-53.1	17.9	6.05e-01	0	33	0	505413632	71	4437
2026-01-01 12:58:15.65	243.50	28.84	-51.5	-53.2	17.9	6.06e-01	0	34	0	506986496	71	4450
2026-01-01 12:58:16.66	243.86	28.92	-51.5	-53.1	17.9	6.06e-01	0	33	0	509083648	71	4422
2026-01-01 12:58:17.67	244.23	29.00	-51.4	-53.1	18.0	6.06e-01	0	34	0	511180800	71	4401
2026-01-01 12:58:18.67	244.60	29.08	-51.4	-53.0	18.0	6.04e-01	0	34	0	512753664	71	4387
2026-01-01 12:58:19.67	244.97	29.16	-51.5	-53.1	18.0	6.06e-01	0	33	0	514850816	71	4435
2026-01-01 12:58:20.68	245.34	29.23	-51.5	-53.1	18.0	6.06e-01	0	33	0	516423680	71	4411
2026-01-01 12:58:21.69	245.72	29.31	-51.4	-53.0	18.0	6.09e-01	0	34	0	518520832	71	4367
2026-01-01 12:58:22.70	246.10	29.39	-51.4	-53.0	17.9	6.07e-01	0	34	0	520617984	71	4389
2026-01-01 12:58:23.71	246.48	29.46	-51.5	-53.1	18.0	6.08e-01	0	33	0	522190848	71	4410
2026-01-01 12:58:24.72	246.86	29.53	-51.4	-53.0	18.0	6.07e-01	0	33	0	524288000	71	4361
2026-01-01 12:58:25.72	247.24	29.61	-51.4	-53.0	18.0	6.06e-01	0	34	0	525860864	71	4384
2026-01-01 12:58:26.73	247.62	29.68	-51.5	-53.1	17.9	6.05e-01	0	33	0	527958016	71	4439
2026-01-01 12:58:27.73	248.01	29.75	-51.2	-52.8	18.0	6.07e-01	0	33	0	530055168	71	4275
2026-01-01 12:58:28.74	248.40	29.81	-51.3	-52.9	18.0	6.07e-01	0	33	0	531628032	71	4295
2026-01-01 12:58:29.75	248.79	29.88	-51.3	-52.9	18.0	6.08e-01	0	33	0	533725184	71	4295
2026-01-01 12:58:30.76	249.18	29.95	-51.2	-52.7	18.0	6.05e-01	0	34	0	535822336	71	4235
2026-01-01 12:58:31.77	249.57	30.01	-51.3	-52.9	18.0	6.06e-01	0	33	0	537395200	71	4294
2026-01-01 12:58:32.78	249.97	30.08	-51.2	-52.8	18.0	6.07e-01	0	33	0	539492352	71	4258
2026-01-01 12:58:33.79	250.36	30.14	-51.0	-52.6	18.1	6.07e-01	0	33	0	541065216	71	4157
2026-01-01 12:58:34.79	250.76	30.20	-51.1	-52.7	18.0	6.06e-01	0	33	0	543162368	71	4215
2026-01-01 12:58:35.80	251.16	30.26	-51.4	-53.0	17.9	6.03e-01	0	33	0	544735232	71	4377
2026-01-01 12:58:36.81	251.56	30.32	-51.1	-52.7	18.0	6.02e-01	0	33	0	546832384	71	4197
2026-01-01 12:58:37.82	251.96	30.38	-51.2	-52.8	18.0	6.00e-01	0	33	0	548929536	71	4256
2026-01-01 12:58:38.83	252.37	30.43	-51.2	-52.7	18.0	6.04e-01	0	33	0	550502400	71	4242
2026-01-01 12:58:39.84	252.77	30.49	-51.2	-52.8	18.0	6.03e-01	0	34	0	552599552	71	4256
2026-01-01 12:58:40.85	253.18	30.54	-51.2	-52.8	18.0	6.02e-01	0	33	0	554172416	71	4283
2026-01-01 12:58:41.86	253.59	30.59	-51.2	-52.7	18.0	6.02e-01	0	34	0	556269568	71	4237
2026-01-01 12:58:42.86	253.99	30.64	-51.1	-52.6	18.0	6.03e-01	0	33	0	558366720	71	4189
2026-01-01 12:58:43.87	254.40	30.69	-51.1	-52.7	18.0	6.01e-01	0	33	0	559939584	71	4225
2026-01-01 12:58:44.88	254.81	30.74	-51.1	-52.7	18.0	6.04e-01	0	33	0	562036736	71	4214
2026-01-01 12:58:45.88	255.22	30.78	-51.2	-52.7	18.0	6.05e-01	0	33	0	564133888	71	4239
2026-01-01 12:58:46.89	255.64	30.82	-51.0	-52.6	18.0	6.03e-01	0	33	0	565706752	71	4150
2026-01-01 12:58:47.90	256.05	30.87	-50.9	-52.4	18.1	6.01e-01	0	33	0	567803904	71	4088
2026-01-01 12:58:48.90	256.46	30.91	-51.0	-52.5	18.0	6.03e-01	0	33	0	569376768	70	4391
2026-01-01 12:58:49.91	256.88	30.95	-51.0	-52.5	18.0	6.02e-01	0	33	0	571473920	70	4379
2026-01-01 12:58:50.92	257.30	30.99	-51.0	-52.6	18.0	6.04e-01	0	33	0	573571072	70	4418
2026-01-01 12:58:51.92	257.72	31.02	-51.0	-52.6	18.0	6.02e-01	0	33	0	575143936	70	4426
2026-01-01 12:58:52.93	258.14	31.06	-50.8	-52.4	18.1	6.03e-01	0	33	0	577241088	70	4296
2026-01-01 12:58:53.94	258.56	31.09	-50.9	-52.4	18.0	6.03e-01	0	34	0	578813952	70	4330
2026-01-01 12:58:54.95	258.98	31.12	-51.0	-52.6	18.0	6.02e-01	0	34	0	580911104	70	4394
2026-01-01 12:58:55.95	259.40	31.15	-50.8	-52.4	18.0	6.02e-01	0	33	0	582483968	70	4313
2026-01-01 12:58:56.96	259.82	31.18	-50.9	-52.4	18.0	6.02e-01	0	34	0	584581120	70	4330
2026-01-01 12:58:57.97	260.25	31.21	-50.7	-52.2	18.1	6.04e-01	0	33	0	586678272	70	4237
2026-01-01 12:58:58.98	260.67	31.23	-50.9	-52.4	18.1	6.00e-01	0	33	0	588251136	70	4333
2026-01-01 12:58:59.99	261.10	31.26	-50.9	-52.5	18.0	6.02e-01	0	33	0	590348288	70	4364
2026-01-01 12:59:00.99	261.52	31.28	-50.9	-52.4	18.0	6.05e-01	0	33	0	592445440	70	4331
2026-01-01 12:59:02.00	261.95	31.30	-50.8	-52.3	18.0	6.03e-01	0	33	0	594018304	70	4278
2026-01-01 12:59:03.01	262.37	31.32	-50.8	-52.3	18.0	6.01e-01	0	33	0	596115456	70	4279
2026-01-01 12:59:04.02	262.80	31.33	-50.8	-52.4	18.1	6.05e-01	0	33	0	597688320	70	4301
2026-01-01 12:59:05.03	263.23	31.35	-50.8	-52.4	18.1	6.02e-01	0	33	0	599785472	70	4313
2026-01-01 12:59:06.03	263.65	31.36	-50.8	-52.3	18.1	6.03e-01	0	33	0	601882624	70	4281
2026-01-01 12:59:07.04	264.08	31.37	-50.8	-52.4	18.1	6.03e-01	0	33	0	603455488	70	4292
2026-01-01 12:59:08.05	264.51	31.38	-50.8	-52.3	18.1	6.02e-01	0	33	0	605552640	70	4264
2026-01-01 12:59:09.06	264.94	31.39	-50.7	-52.3	18.0	6.03e-01	0	34	0	607649792	70	4250
2026-01-01 12:59:10.07	265.37	31.40	-50.8	-52.3	18.1	6.03e-01	0	34	0	609222656	70	4283
2026-01-01 12:59:11.07	265.80	31.40	-50.9	-52.4	18.1	6.04e-01	0	33	0	611319808	70	4314
2026-01-01 12:59:12.08	266.23	31.41	-50.9	-52.4	18.0	6.04e-01	0	33	0	612892672	70	4327
2026-01-01 12:59:13.10	266.66	31.41	-50.9	-52.5	18.0	6.03e-01	0	33	0	614989824	70	4356
2026-01-01 12:59:14.10	267.09	31.41	-50.9	-52.4	18.0	6.05e-01	0	33	0	616562688	70	4336
2026-01-01 12:59:15.11	267.52	31.41	-50.8	-52.4	18.0	6.03e-01	0	33	0	618659840	70	4304
2026-01-01 12:59:16.11	267.94	31.40	-50.9	-52.4	18.0	6.01e-01	0	34	0	620756992	70	4337
2026-01-01 12:59:17.11	268.37	31.40	-50.8	-52.4	18.1	6.02e-01	0	34	0	622329856	70	4296
2026-01-01 12:59:18.12	268.80	31.39	-50.6	-52.2	18.1	6.07e-01	0	33	0	624427008	70	4195
2026-01-01 12:59:19.13	269.23	31.38	-50.7	-52.2	18.1	6.04e-01	0	33	0	625999872	70	4223
2026-01-01 12:59:20.14	269.66	31.37	-50.7	-52.2	18.1	6.02e-01	0	33	0	628097024	70	4204
2026-01-01 12:59:21.15	270.09	31.36	-50.8	-52.3	18.0	6.00e-01	0	33	0	630194176	70	4283
2026-01-01 12:59:22.16	270.52	31.35	-50.6	-52.1	18.0	6.05e-01	0	33	0	631767040	70	4182
2026-01-01 12:59:23.16	270.94	31.33	-50.6	-52.1	18.1	6.03e-01	0	34	0	633864192	70	4171
2026-01-01 12:59:24.17	271.37	31.31	-50.5	-52.0	18.1	6.02e-01	0	33	0	635961344	70	4141
2026-01-01 12:59:25.18	271.79	31.30	-50.5	-52.0	18.1	6.02e-01	0	34	0	637534208	70	4127
2026-01-01 12:59:26.19	272.22	31.28	-50.6	-52.1	18.1	6.03e-01	0	33	0	639631360	70	4158
2026-01-01 12:59:27.20	272.65	31.25	-50.7	-52.2	18.0	6.02e-01	0	33	0	641204224	70	4206
2026-01-01 12:59:28.21	273.07	31.23	-50.5	-52.0	18.0	6.03e-01	0	34	0	643301376	70	4118
2026-01-01 12:59:29.21	273.49	31.21	-50.6	-52.0	18.1	6.03e-01	0	33	0	645398528	70	4144
2026-01-01 12:59:30.22	273.92	31.18	-50.6	-52.2	18.1	6.00e-01	0	33	0	646971392	70	4197
2026-01-01 12:59:31.23	274.34	31.15	-50.6	-52.2	18.1	6.03e-01	0	33	0	649068544	70	4194
2026-01-01 12:59:32.24	274.76	31.12	-50.6	-52.1	18.1	6.03e-01	0	34	0	650641408	70	4156
2026-01-01 12:59:33.24	275.18	31.09	-50.7	-52.3	18.0	6.02e-01	0	33	0	652738560	70	4253
2026-01-01 12:59:34.26	275.60	31.05	-50.6	-52.1	18.0	6.01e-01	0	33	0	654311424	70	4148
2026-01-01 12:59:35.26	276.02	31.02	-50.8	-52.3	18.0	6.04e-01	0	33	0	656408576	70	4251
2026-01-01 12:59:36.27	276.44	30.98	-50.7	-52.2	18.0	6.03e-01	0	33	0	658505728	70	4201
2026-01-01 12:59:37.27	276.85	30.95	-50.5	-52.0	18.1	6.02e-01	0	33	0	660078592	70	4137
2026-01-01 12:59:38.28	277.27	30.91	-50.7	-52.2	18.1	6.03e-01	0	33	0	662175744	70	4219
2026-01-01 12:59:39.29	277.69	30.86	-50.5	-52.0	18.1	6.02e-01	0	33	0	664272896	70	4141
2026-01-01 12:59:40.30	278.10	30.82	-50.5	-52.1	18.0	6.05e-01	0	33	0	665845760	70	4146
2026-01-01 12:59:41.30	278.51	30.78	-50.5	-52.0	18.1	6.03e-01	0	34	0	667942912	70	4100
2026-01-01 12:59:42.31	278.92	30.73	-50.5	-52.0	18.1	6.04e-01	0	33	0	669515776	70	4131
2026-01-01 12:59:43.32	279.33	30.69	-50.5	-52.0	18.1	6.05e-01	0	34	0	671612928	70	4143
2026-01-01 12:59:44.33	279.74	30.64	-50.6	-52.1	18.1	6.05e-01	0	34	0	673710080	70	4172
2026-01-01 12:59:45.34	280.15	30.59	-50.5	-52.0	18.1	6.03e-01	0	34	0	675282944	70	4128
2026-01-01 12:59:46.35	280.56	30.53	-50.5	-51.9	18.1	6.03e-01	0	33	0	677380096	70	4094
2026-01-01 12:59:47.35	280.96	30.48	-50.6	-52.1	18.1	6.02e-01	0	33	0	678952960	70	4157
2026-01-01 12:59:48.36	281.37	30.43	-50.6	-52.1	18.1	5.99e-01	0	34	0	681050112	70	4160
2026-01-01 12:59:49.37	281.77	30.37	-50.5	-52.0	18.1	6.04e-01	0	33	0	683147264	70	4117
2026-01-01 12:59:50.37	282.17	30.32	-50.5	-52.0	18.1	6.03e-01	0	33	0	684720128	70	4129
2026-01-01 12:59:51.38	282.57	30.26	-50.5	-52.0	18.1	6.02e-01	0	33	0	686817280	70	4133
2026-01-01 12:59:52.38	282.96	30.20	-50.6	-52.1	18.1	6.02e-01	0	33	0	688390144	70	4158
2026-01-01 12:59:53.39	283.36	30.14	-50.5	-52.0	18.1	6.02e-01	0	33	0	690487296	70	4133
2026-01-01 12:59:54.40	283.76	30.07	-50.5	-52.0	18.1	6.02e-01	0	33	0	692584448	70	4107
2026-01-01 12:59:55.41	284.15	30.01	-50.5	-52.0	18.1	6.04e-01	0	33	0	694157312	70	4114
2026-01-01 12:59:56.42	284.54	29.95	-50.5	-52.0	18.1	6.03e-01	0	33	0	696254464	70	4127
2026-01-01 12:59:57.43	284.93	29.88	-50.7	-52.2	18.0	6.03e-01	0	33	0	697827328	70	4211
2026-01-01 12:59:58.44	285.32	29.81	-50.6	-52.1	18.1	6.03e-01	0	33	0	699924480	70	4190
2026-01-01 12:59:59.45	285.71	29.74	-50.7	-52.2	18.1	6.03e-01	0	33	0	702021632	70	4195
2026-01-01 13:00:00.46	286.10	29.67	-50.4	-51.9	18.1	6.01e-01	0	33	0	703594496	70	4081
2026-01-01 13:00:01.46	286.48	29.60	-50.4	-51.9	18.1	6.04e-01	0	33	0	705691648	70	4080
2026-01-01 13:00:02.47	286.86	29.53	-50.6	-52.1	18.1	6.03e-01	0	33	0	707264512	70	4165
2026-01-01 13:00:03.48	287.24	29.46	-50.6	-52.1	18.0	6.05e-01	0	33	0	709361664	70	4177
2026-01-01 13:00:04.49	287.62	29.38	-50.6	-52.2	18.1	6.03e-01	0	33	0	711458816	70	4199
2026-01-01 13:00:05.50	288.00	29.31	-50.5	-52.0	18.1	6.03e-01	0	33	0	713031680	70	4142
2026-01-01 13:00:06.51	288.37	29.23	-50.4	-51.9	18.1	6.01e-01	0	33	0	715128832	70	4059
2026-01-01 13:00:07.52	288.75	29.16	-50.5	-52.0	18.1	6.05e-01	0	33	0	717225984	70	4101
2026-01-01 13:00:08.53	289.12	29.08	-50.6	-52.1	18.1	6.05e-01	0	33	0	718798848	70	4168
2026-01-01 13:00:09.53	289.48	29.00	-50.6	-52.1	18.1	6.02e-01	0	33	0	720896000	70	4172
2026-01-01 13:00:10.54	289.85	28.92	-50.6	-52.1	18.1	6.02e-01	0	33	0	722468864	70	4177
2026-01-01 13:00:11.55	290.22	28.84	-50.6	-52.1	18.0	6.00e-01	0	33	0	724566016	70	4190
2026-01-01 13:00:12.55	290.58	28.75	-50.6	-52.1	18.1	6.02e-01	0	33	0	726138880	70	4190
2026-01-01 13:00:13.56	290.94	28.67	-50.6	-52.1	18.1	6.04e-01	0	33	0	728236032	70	4190
2026-01-01 13:00:14.57	291.30	28.59	-50.6	-52.1	18.1	6.02e-01	0	33	0	730333184	70	4159
2026-01-01 13:00:15.58	291.66	28.50	-50.7	-52.2	18.1	6.03e-01	0	33	0	731906048	70	4205
2026-01-01 13:00:16.59	292.02	28.42	-50.8	-52.3	18.0	6.04e-01	0	34	0	734003200	70	4282
2026-01-01 13:00:17.59	292.37	28.33	-50.7	-52.2	18.0	6.04e-01	0	33	0	735576064	70	4231
2026-01-01 13:00:18.60	292.72	28.24	-50.6	-52.2	18.0	6.02e-01	0	33	0	737673216	70	4195
2026-01-01 13:00:19.61	293.07	28.15	-50.8	-52.3	18.0	6.01e-01	0	33	0	739770368	70	4263
2026-01-01 13:00:20.62	293.42	28.06	-50.8	-52.3	18.0	6.03e-01	0	33	0	741343232	70	4290
2026-01-01 13:00:21.63	293.77	27.97	-50.7	-52.3	18.0	6.03e-01	0	33	0	743440384	70	4247
2026-01-01 13:00:22.63	294.11	27.88	-50.7	-52.2	18.0	6.01e-01	0	33	0	745537536	70	4242
2026-01-01 13:00:23.64	294.45	27.79	-50.7	-52.2	18.0	6.03e-01	0	33	0	747110400	70	4242
2026-01-01 13:00:24.65	294.79	27.70	-50.8	-52.4	18.0	6.03e-01	0	34	0	749207552	70	4296
2026-01-01 13:00:25.66	295.13	27.61	-50.8	-52.4	18.0	6.03e-01	0	33	0	750780416	70	4304
2026-01-01 13:00:26.67	295.46	27.51	-51.0	-52.5	18.0	6.03e-01	0	33	0	752877568	70	4369
2026-01-01 13:00:27.68	295.80	27.42	-50.9	-52.5	18.0	6.02e-01	0	33	0	754974720	70	4363
2026-01-01 13:00:28.69	296.13	27.33	-50.8	-52.4	18.0	6.02e-01	0	33	0	756547584	70	4300
2026-01-01 13:00:29.69	296.46	27.23	-50.8	-52.4	18.0	6.01e-01	0	33	0	758644736	70	4299
2026-01-01 13:00:30.70	296.79	27.13	-50.8	-52.4	18.0	6.03e-01	0	33	0	760217600	70	4297
2026-01-01 13:00:31.71	297.11	27.04	-50.9	-52.5	18.0	6.02e-01	0	34	0	762314752	70	4359
2026-01-01 13:00:32.72	297.44	26.94	-51.0	-52.5	17.9	6.03e-01	0	33	0	764411904	70	4389
2026-01-01 13:00:33.72	297.76	26.84	-50.9	-52.4	18.0	6.02e-01	0	33	0	765984768	70	4316
2026-01-01 13:00:34.73	298.08	26.75	-50.9	-52.5	18.0	6.03e-01	0	33	0	768081920	70	4348
2026-01-01 13:00:35.73	298.39	26.65	-50.8	-52.3	18.0	6.01e-01	0	33	0	769654784	70	4278
2026-01-01 13:00:36.74	298.71	26.55	-51.0	-52.6	18.0	6.01e-01	0	33	0	771751936	70	4413
2026-01-01 13:00:37.74	299.02	26.45	-51.1	-52.6	17.9	6.04e-01	0	34	0	773849088	70	4430
2026-01-01 13:00:38.75	299.33	26.35	-51.0	-52.5	18.0	6.02e-01	0	33	0	775421952	70	4367
2026-01-01 13:00:39.76	299.64	26.25	-51.0	-52.5	18.0	6.02e-01	0	33	0	777519104	70	4373
2026-01-01 13:00:40.77	299.95	26.15	-51.0	-52.5	18.0	6.02e-01	0	33	0	779091968	70	4386
2026-01-01 13:00:41.77	300.25	26.05	-50.9	-52.5	18.0	6.03e-01	0	33	0	781189120	70	4369
2026-01-01 13:00:42.78	300.56	25.94	-51.0	-52.5	18.0	6.04e-01	0	34	0	783286272	70	4381
2026-01-01 13:00:43.79	300.86	25.84	-50.9	-52.5	17.9	6.01e-01	0	33	0	784859136	70	4357
2026-01-01 13:00:44.80	301.16	25.74	-51.0	-52.6	17.9	6.03e-01	0	33	0	786956288	70	4404
2026-01-01 13:00:45.81	301.46	25.64	-51.1	-52.6	18.0	6.02e-01	0	33	0	788529152	70	4428
2026-01-01 13:00:46.81	301.75	25.53	-51.1	-52.6	17.9	6.02e-01	0	33	0	790626304	70	4441
2026-01-01 13:00:47.82	302.05	25.43	-51.1	-52.7	17.9	6.03e-01	0	33	0	792723456	70	4477
2026-01-01 13:00:48.83	302.34	25.32	-51.2	-52.7	17.9	6.03e-01	0	33	0	794296320	70	4488
2026-01-01 13:00:49.84	302.63	25.22	-51.0	-52.5	18.0	6.03e-01	0	33	0	796393472	70	4387
2026-01-01 13:00:50.84	302.92	25.12	-51.0	-52.5	18.0	6.05e-01	0	33	0	797966336	70	4369
2026-01-01 13:00:51.85	303.20	25.01	-51.1	-52.7	17.9	6.03e-01	0	34	0	800063488	70	4470
2026-01-01 13:00:52.86	303.49	24.91	-51.1	-52.7	17.9	6.06e-01	0	33	0	802160640	70	4465
2026-01-01 13:00:53.86	303.77	24.80	-51.1	-52.6	17.9	6.02e-01	0	33	0	803733504	70	4426
2026-01-01 13:00:54.86	304.04	24.70	-51.0	-52.6	18.0	6.01e-01	0	33	0	805830656	70	4413
2026-01-01 13:00:55.87	304.32	24.59	-51.1	-52.6	17.9	6.04e-01	0	33	0	807403520	70	4434
2026-01-01 13:00:56.88	304.60	24.49	-51.2	-52.8	17.9	6.00e-01	0	34	0	809500672	70	4524
2026-01-01 13:00:57.88	304.87	24.38	-51.1	-52.7	17.9	6.02e-01	0	33	0	811597824	70	4478
2026-01-01 13:00:58.89	305.15	24.27	-51.2	-52.8	17.9	6.03e-01	0	33	0	813170688	70	4501
2026-01-01 13:00:59.90	305.42	24.17	-51.2	-52.8	17.9	6.00e-01	0	33	0	815267840	70	4494
2026-01-01 13:01:00.90	305.68	24.06	-51.0	-52.6	17.9	6.05e-01	0	33	0	816840704	70	4395
2026-01-01 13:01:01.92	305.95	23.95	-51.1	-52.6	17.9	6.04e-01	0	33	0	818937856	70	4439
2026-01-01 13:01:02.92	306.22	23.85	-51.1	-52.7	17.9	6.00e-01	0	33	0	821035008	70	4442
2026-01-01 13:01:03.93	306.48	23.74	-51.1	-52.6	17.9	6.02e-01	0	33	0	822607872	70	4432
2026-01-01 13:01:04.93	306.74	23.63	-51.2	-52.7	17.9	6.03e-01	0	33	0	824705024	70	4491
2026-01-01 13:01:05.94	307.00	23.53	-51.1	-52.7	17.9	6.04e-01	0	33	0	826277888	70	4481
2026-01-01 13:01:06.94	307.25	23.42	-51.1	-52.7	17.9	6.03e-01	0	34	0	828375040	70	4475
2026-01-01 13:01:07.95	307.51	23.31	-51.1	-52.7	17.9	6.03e-01	0	33	0	830472192	70	4463
2026-01-01 13:01:08.96	307.77	23.20	-50.9	-52.5	18.0	6.04e-01	0	33	0	832045056	70	4350
2026-01-01 13:01:09.96	308.02	23.10	-51.0	-52.6	18.0	6.04e-01	0	33	0	834142208	70	4425
2026-01-01 13:01:10.97	308.27	22.99	-51.1	-52.7	17.9	6.01e-01	0	33	0	835715072	70	4449
2026-01-01 13:01:11.98	308.52	22.88	-51.1	-52.7	17.9	6.02e-01	0	33	0	837812224	70	4444
2026-01-01 13:01:12.98	308.76	22.78	-51.0	-52.6	17.9	6.03e-01	0	33	0	839909376	70	4422
2026-01-01 13:01:13.99	309.01	22.67	-51.0	-52.5	17.9	6.01e-01	0	34	0	841482240	70	4380
2026-01-01 13:01:15.00	309.25	22.56	-50.9	-52.5	17.9	6.01e-01	0	33	0	843579392	70	4347
2026-01-01 13:01:16.01	309.49	22.45	-51.0	-52.5	17.9	6.01e-01	0	33	0	845676544	70	4387
2026-01-01 13:01:17.02	309.73	22.34	-51.1	-52.7	17.9	6.01e-01	0	33	0	847249408	70	4444
2026-01-01 13:01:18.01	309.97	22.24	-51.1	-52.7	17.9	6.02e-01	0	33	0	849346560	70	4447
2026-01-01 13:01:19.02	310.21	22.13	-51.2	-52.8	17.9	6.02e-01	0	33	0	850919424	70	4495
2026-01-01 13:01:20.02	310.44	22.02	-51.0	-52.6	17.9	6.01e-01	0	33	0	853016576	70	4427
2026-01-01 13:01:21.03	310.67	21.92	-51.1	-52.7	17.9	6.03e-01	0	33	0	854589440	70	4448
2026-01-01 13:01:22.03	310.90	21.81	-51.2	-52.8	17.9	6.00e-01	0	33	0	856686592	70	4509
2026-01-01 13:01:23.04	311.13	21.70	-51.0	-52.6	17.9	6.02e-01	0	33	0	858783744	70	4393
2026-01-01 13:01:24.05	311.36	21.59	-51.0	-52.5	18.0	6.04e-01	0	33	0	860356608	70	4373
2026-01-01 13:01:25.06	311.59	21.49	-51.0	-52.6	17.9	6.04e-01	0	33	0	862453760	70	4408
2026-01-01 13:01:26.06	311.81	21.38	-51.0	-52.6	17.9	6.05e-01	0	34	0	864026624	70	4411
2026-01-01 13:01:27.07	312.04	21.27	-51.0	-52.6	17.9	6.03e-01	0	34	0	866123776	70	4414
2026-01-01 13:01:28.08	312.26	21.16	-51.2	-52.8	17.9	6.02e-01	0	33	0	868220928	70	4514
2026-01-01 13:01:29.09	312.48	21.06	-51.2	-52.8	17.9	6.01e-01	0	34	0	869793792	70	4526
2026-01-01 13:01:30.10	312.70	20.95	-51.1	-52.7	17.9	6.01e-01	0	33	0	871890944	70	4444
2026-01-01 13:01:31.11	312.92	20.84	-50.9	-52.5	17.9	6.03e-01	0	33	0	873463808	70	4362
2026-01-01 13:01:32.11	313.13	20.74	-51.0	-52.5	17.9	6.02e-01	0	33	0	875560960	70	4389
2026-01-01 13:01:33.11	313.34	20.63	-50.9	-52.4	17.9	6.05e-01	0	33	0	877658112	70	4336
2026-01-01 13:01:34.12	313.56	20.53	-50.8	-52.4	17.9	6.05e-01	0	33	0	879230976	70	4311
2026-01-01 13:01:35.13	313.77	20.42	-50.9	-52.5	17.9	6.02e-01	0	33	0	881328128	70	4346
2026-01-01 13:01:36.13	313.98	20.31	-50.9	-52.5	17.9	6.03e-01	0	34	0	882900992	70	4363
2026-01-01 13:01:37.14	314.19	20.21	-51.0	-52.5	17.9	6.01e-01	0	33	0	884998144	70	4377
2026-01-01 13:01:38.15	314.39	20.10	-50.9	-52.5	17.9	6.04e-01	0	33	0	887095296	70	4342
2026-01-01 13:01:39.16	314.60	19.99	-50.9	-52.4	17.9	6.03e-01	0	33	0	888668160	70	4333
2026-01-01 13:01:40.17	314.80	19.89	-50.9	-52.4	18.0	6.03e-01	0	33	0	890765312	70	4321
2026-01-01 13:01:41.17	315.00	19.78	-50.9	-52.5	17.9	6.03e-01	0	33	0	892338176	70	4354
2026-01-01 13:01:42.18	315.21	19.68	-50.8	-52.3	18.0	6.04e-01	0	33	0	894435328	70	4286
2026-01-01 13:01:43.19	315.41	19.57	-50.8	-52.3	18.0	6.02e-01	0	33	0	896532480	70	4275
2026-01-01 13:01:44.20	315.60	19.47	-50.8	-52.3	17.9	6.03e-01	0	34	0	898105344	70	4284
2026-01-01 13:01:45.21	315.80	19.36	-50.8	-52.3	17.9	6.00e-01	0	33	0	900202496	70	4279
2026-01-01 13:01:46.22	316.00	19.26	-50.8	-52.3	17.9	6.03e-01	0	33	0	902299648	70	4282
2026-01-01 13:01:47.23	316.19	19.15	-50.8	-52.4	17.9	6.04e-01	0	33	0	903872512	70	4295
2026-01-01 13:01:48.24	316.38	19.05	-50.8	-52.4	17.9	6.01e-01	0	34	0	905969664	70	4318
2026-01-01 13:01:49.24	316.57	18.95	-50.9	-52.5	17.9	6.02e-01	0	33	0	907542528	70	4368
2026-01-01 13:01:50.25	316.76	18.84	-50.9	-52.4	17.9	6.01e-01	0	33	0	909639680	70	4330
2026-01-01 13:01:51.25	316.95	18.74	-50.8	-52.4	17.9	6.02e-01	0	34	0	911212544	70	4324
2026-01-01 13:01:52.26	317.14	18.63	-50.8	-52.4	17.9	6.02e-01	0	33	0	913309696	70	4321
2026-01-01 13:01:53.27	317.33	18.53	-50.8	-52.3	17.9	6.00e-01	0	33	0	915406848	70	4278
2026-01-01 13:01:54.28	317.51	18.43	-50.8	-52.3	17.9	6.05e-01	0	33	0	916979712	70	4273
2026-01-01 13:01:55.29	317.69	18.32	-50.7	-52.3	17.9	6.01e-01	0	33	0	919076864	70	4269
2026-01-01 13:01:56.29	317.88	18.22	-50.8	-52.3	17.9	6.04e-01	0	33	0	920649728	70	4277
2026-01-01 13:01:57.30	318.06	18.12	-50.9	-52.4	17.9	6.03e-01	0	33	0	922746880	70	4337
2026-01-01 13:01:58.31	318.24	18.02	-50.8	-52.4	17.7	6.02e-01	0	34	0	924844032	70	4318
2026-01-01 13:01:59.31	318.41	17.92	-50.8	-52.4	17.9	6.03e-01	0	33	0	926416896	70	4328
2026-01-01 13:02:00.32	318.59	17.81	-50.8	-52.4	17.9	6.02e-01	0	33	0	928514048	70	4317
2026-01-01 13:02:01.33	318.77	17.71	-50.8	-52.4	17.9	6.01e-01	0	33	0	930611200	70	4312
2026-01-01 13:02:02.34	318.94	17.61	-50.8	-52.4	17.9	6.02e-01	0	33	0	932184064	70	4325
2026-01-01 13:02:03.34	319.11	17.51	-50.8	-52.4	17.9	6.03e-01	0	33	0	934281216	70	4303
2026-01-01 13:02:04.35	319.29	17.41	-50.9	-52.5	17.9	6.04e-01	0	33	0	935854080	70	4342
2026-01-01 13:02:05.36	319.46	17.31	-50.7	-52.3	17.9	6.04e-01	0	33	0	937951232	70	4248
2026-01-01 13:02:06.37	319.63	17.21	-50.8	-52.3	17.9	6.03e-01	0	33	0	940048384	70	4275
2026-01-01 13:02:07.37	319.80	17.11	-50.7	-52.3	17.9	6.05e-01	0	34	0	941621248	70	4252
2026-01-01 13:02:08.38	319.96	17.01	-50.6	-52.2	17.9	6.02e-01	0	33	0	943718400	70	4203
2026-01-01 13:02:09.38	320.13	16.91	-50.6	-52.1	17.9	6.02e-01	0	33	0	945291264	70	4174
2026-01-01 13:02:10.39	320.30	16.81	-50.6	-52.1	18.0	6.03e-01	0	34	0	947388416	70	4188
2026-01-01 13:02:11.40	320.46	16.71	-50.6	-52.2	18.0	6.03e-01	0	33	0	948961280	70	4211
2026-01-01 13:02:12.41	320.62	16.61	-50.7	-52.2	17.9	6.02e-01	0	33	0	951058432	70	4242
2026-01-01 13:02:13.42	320.79	16.51	-50.9	-52.5	17.9	6.01e-01	0	33	0	953155584	70	4349
2026-01-01 13:02:14.43	320.95	16.41	-50.8	-52.4	17.9	6.02e-01	0	33	0	954728448	70	4311
2026-01-01 13:02:15.43	321.11	16.31	-50.9	-52.5	17.9	6.04e-01	0	33	0	956825600	70	4344
2026-01-01 13:02:16.44	321.26	16.22	-50.8	-52.4	17.9	6.04e-01	0	34	0	958922752	70	4325
2026-01-01 13:02:17.45	321.42	16.12	-50.8	-52.4	17.9	6.01e-01	0	33	0	960495616	70	4302
2026-01-01 13:02:18.45	321.58	16.02	-50.9	-52.5	17.8	6.03e-01	0	33	0	962592768	70	4346
2026-01-01 13:02:19.46	321.73	15.92	-50.8	-52.4	17.9	6.01e-01	0	33	0	964165632	70	4317
2026-01-01 13:02:20.46	321.89	15.83	-50.8	-52.4	17.9	6.04e-01	0	33	0	966262784	70	4318
2026-01-01 13:02:21.47	322.04	15.73	-50.7	-52.3	17.9	6.05e-01	0	33	0	968359936	70	4272
2026-01-01 13:02:22.48	322.19	15.63	-50.7	-52.3	17.9	6.04e-01	0	33	0	969932800	70	4275
2026-01-01 13:02:23.49	322.35	15.54	-50.7	-52.3	17.9	6.03e-01	0	34	0	972029952	70	4254
2026-01-01 13:02:24.50	322.50	15.44	-50.7	-52.3	17.9	6.03e-01	0	34	0	973602816	70	4247
2026-01-01 13:02:25.51	322.65	15.34	-50.7	-52.2	18.0	6.05e-01	0	33	0	975699968	70	4234
2026-01-01 13:02:26.52	322.80	15.25	-50.7	-52.2	17.9	6.03e-01	0	33	0	977797120	70	4232
2026-01-01 13:02:27.53	322.94	15.15	-50.7	-52.2	17.9	6.03e-01	0	34	0	979369984	70	4231
2026-01-01 13:02:28.54	323.09	15.06	-50.7	-52.3	17.9	6.02e-01	0	33	0	981467136	70	4251
2026-01-01 13:02:29.55	323.24	14.96	-50.8	-52.3	17.9	6.02e-01	0	34	0	983040000	70	4290
2026-01-01 13:02:30.56	323.38	14.87	-50.7	-52.3	17.9	6.01e-01	0	33	0	985137152	70	4271
2026-01-01 13:02:31.56	323.52	14.77	-50.8	-52.4	17.9	6.00e-01	0	33	0	987234304	70	4318
2026-01-01 13:02:32.57	323.67	14.68	-50.8	-52.4	17.9	6.03e-01	0	33	0	988807168	70	4325
2026-01-01 13:02:33.57	323.81	14.58	-50.8	-52.4	17.9	6.03e-01	0	33	0	990904320	70	4332
2026-01-01 13:02:34.58	323.95	14.49	-50.8	-52.4	17.8	6.02e-01	0	33	0	992477184	70	4316
2026-01-01 13:02:35.58	324.09	14.40	-50.8	-52.4	17.9	6.02e-01	0	33	0	994574336	70	4320
2026-01-01 13:02:36.59	324.23	14.30	-50.9	-52.5	17.9	6.03e-01	0	33	0	996671488	70	4349
2026-01-01 13:02:37.60	324.37	14.21	-50.8	-52.4	17.9	6.04e-01	0	33	0	998244352	70	4332
2026-01-01 13:02:38.61	324.50	14.12	-50.8	-52.4	17.8	6.03e-01	0	33	0	1000341504	70	4313
2026-01-01 13:02:39.61	324.64	14.03	-50.8	-52.4	17.8	6.01e-01	0	34	0	1001914368	70	4296
2026-01-01 13:02:40.62	324.77	13.93	-50.7	-52.3	17.9	6.04e-01	0	34	0	1004011520	70	4264
2026-01-01 13:02:41.63	324.91	13.84	-50.8	-52.3	17.9	6.04e-01	0	33	0	1006108672	70	4285
2026-01-01 13:02:42.63	325.04	13.75	-50.7	-52.3	17.9	6.02e-01	0	33	0	1007681536	70	4244
2026-01-01 13:02:43.64	325.18	13.66	-50.7	-52.3	17.9	6.03e-01	0	33	0	1009778688	70	4272
2026-01-01 13:02:44.64	325.31	13.57	-50.8	-52.3	17.9	6.04e-01	0	33	0	1011351552	70	4288
2026-01-01 13:02:45.65	325.44	13.48	-50.8	-52.4	17.9	6.04e-01	0	33	0	1013448704	70	4319
2026-01-01 13:02:46.66	325.57	13.39	-50.9	-52.5	17.9	6.01e-01	0	33	0	1015545856	70	4381
2026-01-01 13:02:47.67	325.70	13.30	-51.0	-52.6	17.9	6.04e-01	0	34	0	1017118720	70	4419
2026-01-01 13:02:48.68	325.83	13.21	-51.0	-52.6	17.9	6.03e-01	0	33	0	1019215872	70	4438
2026-01-01 13:02:49.68	325.96	13.12	-51.0	-52.7	17.9	6.03e-01	0	33	0	1020788736	70	4444
2026-01-01 13:02:50.69	326.08	13.03	-51.1	-52.7	17.8	6.04e-01	0	33	0	1022885888	70	4489
2026-01-01 13:02:51.69	326.21	12.94	-51.0	-52.7	17.8	6.04e-01	0	33	0	1024983040	70	4464
2026-01-01 13:02:52.70	326.33	12.85	-51.1	-52.7	17.8	6.02e-01	0	34	0	1026555904	70	4479
2026-01-01 13:02:53.70	326.46	12.76	-51.2	-52.9	17.8	6.02e-01	0	33	0	1028653056	70	4548
2026-01-01 13:02:54.71	326.58	12.67	-51.0	-52.6	17.8	6.03e-01	0	33	0	1030225920	70	4440
2026-01-01 13:02:55.72	326.71	12.58	-51.0	-52.6	17.8	6.04e-01	0	33	0	1032323072	70	4406
2026-01-01 13:02:56.73	326.83	12.49	-51.0	-52.7	17.8	6.03e-01	0	33	0	1034420224	70	4456
2026-01-01 13:02:57.73	326.95	12.41	-51.1	-52.7	17.8	6.02e-01	0	34	0	1035993088	70	4476
2026-01-01 13:02:58.74	327.07	12.32	-51.0	-52.6	17.8	6.03e-01	0	33	0	1038090240	70	4427
2026-01-01 13:02:59.75	327.19	12.23	-51.0	-52.6	17.8	6.03e-01	0	34	0	1039663104	70	4424
2026-01-01 13:03:00.75	327.31	12.14	-51.1	-52.7	17.8	6.03e-01	0	33	0	1041760256	70	4467
2026-01-01 13:03:01.76	327.43	12.06	-51.0	-52.6	17.7	6.02e-01	0	34	0	1043857408	70	4415
2026-01-01 13:03:02.77	327.55	11.97	-51.0	-52.6	17.8	6.00e-01	0	34	0	1045430272	70	4439
2026-01-01 13:03:03.78	327.67	11.88	-51.0	-52.6	17.8	6.04e-01	0	33	0	1047527424	70	4435
2026-01-01 13:03:04.79	327.78	11.80	-51.0	-52.6	17.8	6.04e-01	0	33	0	1049100288	70	4411
2026-01-01 13:03:05.80	327.90	11.71	-51.0	-52.7	17.8	6.03e-01	0	33	0	1051197440	70	4444
2026-01-01 13:03:06.81	328.02	11.62	-51.1	-52.7	17.8	6.03e-01	0	33	0	1053294592	70	4474
2026-01-01 13:03:07.81	328.13	11.54	-51.1	-52.7	17.8	6.02e-01	0	33	0	1054867456	70	4475
2026-01-01 13:03:08.82	328.24	11.45	-51.1	-52.8	17.8	6.05e-01	0	34	0	1056964608	70	4508
2026-01-01 13:03:09.83	328.36	11.37	-51.1	-52.8	17.8	6.05e-01	0	33	0	1058537472	70	4516
2026-01-01 13:03:10.84	328.47	11.28	-51.2	-52.8	17.7	6.01e-01	0	34	0	1060634624	70	4541
2026-01-01 13:03:11.85	328.58	11.20	-51.3	-53.0	17.7	6.04e-01	0	33	0	1062731776	70	4623
2026-01-01 13:03:12.86	328.69	11.11	-51.2	-52.9	17.7	6.03e-01	0	33	0	1064304640	70	4567
2026-01-01 13:03:13.86	328.80	11.03	-51.2	-52.9	17.7	6.03e-01	0	33	0	1066401792	70	4576
2026-01-01 13:03:14.87	328.91	10.95	-51.3	-53.0	17.7	6.01e-01	0	33	0	1068498944	70	4603
2026-01-01 13:03:15.88	329.02	10.86	-51.2	-52.8	17.7	6.04e-01	0	34	0	1070071808	70	4540
2026-01-01 13:03:16.89	329.13	10.78	-51.2	-52.9	17.7	6.03e-01	0	33	0	1072168960	70	4589
2026-01-01 13:03:17.90	329.24	10.70	-51.3	-53.0	17.7	6.03e-01	0	33	0	1073741824	70	4616
2026-01-01 13:03:18.90	329.35	10.61	-51.3	-53.0	17.7	6.04e-01	0	33	0	1075838976	70	4601
2026-01-01 13:03:19.91	329.45	10.53	-51.3	-53.1	17.7	6.02e-01	0	33	0	1077936128	70	4652
2026-01-01 13:03:20.92	329.56	10.45	-51.3	-53.0	17.7	6.01e-01	0	33	0	1079508992	70	4646
2026-01-01 13:03:21.92	329.67	10.37	-51.3	-53.1	17.7	6.02e-01	0	33	0	1081606144	70	4652
2026-01-01 13:03:22.93	329.77	10.28	-51.5	-53.2	17.7	6.02e-01	0	33	0	1083179008	70	4726
2026-01-01 13:03:23.94	329.87	10.20	-51.4	-53.2	17.7	6.02e-01	0	34	0	1085276160	70	4719
2026-01-01 13:03:24.95	329.98	10.12	-51.5	-53.2	17.7	6.03e-01	0	34	0	1086849024	70	4741
2026-01-01 13:03:25.95	330.08	10.04	-51.6	-53.3	17.6	6.02e-01	0	33	0	1088946176	70	4789
2026-01-01 13:03:26.96	330.18	9.96	-51.6	-53.4	17.6	6.02e-01	0	33	0	1091043328	70	4817
2026-01-01 13:03:27.97	330.29	9.88	-51.7	-53.5	17.6	6.02e-01	0	33	0	1092616192	71	4607
2026-01-01 13:03:28.98	330.39	9.80	-51.6	-53.3	17.6	6.03e-01	0	33	0	1094713344	71	4536
2026-01-01 13:03:29.99	330.49	9.72	-51.5	-53.2	17.6	6.06e-01	0	33	0	1096810496	71	4478
2026-01-01 13:03:30.99	330.59	9.64	-51.6	-53.3	17.6	6.01e-01	0	33	0	1098383360	71	4525
2026-01-01 13:03:32.00	330.69	9.56	-51.6	-53.3	17.6	6.03e-01	0	33	0	1100480512	71	4527
2026-01-01 13:03:33.01	330.79	9.48	-51.6	-53.3	17.6	6.03e-01	0	33	0	1102053376	71	4544
2026-01-01 13:03:34.02	330.89	9.40	-51.6	-53.3	17.6	6.06e-01	0	33	0	1104150528	71	4534
2026-01-01 13:03:35.03	330.98	9.32	-51.6	-53.4	17.6	6.03e-01	0	33	0	1106247680	71	4575
2026-01-01 13:03:36.04	331.08	9.24	-51.6	-53.4	17.6	6.03e-01	0	33	0	1107820544	71	4552
2026-01-01 13:03:37.04	331.18	9.16	-51.7	-53.5	17.6	6.03e-01	0	33	0	1109917696	71	4627
2026-01-01 13:03:38.05	331.28	9.08	-51.7	-53.5	17.5	6.04e-01	0	34	0	1111490560	71	4633
2026-01-01 13:03:39.06	331.37	9.00	-51.6	-53.4	17.6	6.03e-01	0	33	0	1113587712	71	4576
2026-01-01 13:03:40.07	331.47	8.92	-51.6	-53.4	17.6	6.03e-01	0	33	0	1115684864	71	4589
2026-01-01 13:03:41.07	331.56	8.85	-51.6	-53.3	17.6	6.02e-01	0	33	0	1117257728	71	4539
2026-01-01 13:03:42.08	331.66	8.77	-51.6	-53.4	17.6	6.03e-01	0	33	0	1119354880	71	4586
2026-01-01 13:03:43.09	331.75	8.69	-51.8	-53.6	17.6	6.01e-01	0	34	0	1120927744	71	4655
2026-01-01 13:03:44.10	331.84	8.61	-51.7	-53.4	17.6	6.01e-01	0	33	0	1123024896	71	4596
2026-01-01 13:03:45.11	331.94	8.53	-51.7	-53.5	17.6	6.03e-01	0	33	0	1125122048	71	4602
2026-01-01 13:03:46.11	332.03	8.46	-51.7	-53.5	17.5	6.03e-01	0	34	0	1126694912	71	4621
2026-01-01 13:03:47.12	332.12	8.38	-51.7	-53.5	17.5	6.03e-01	0	33	0	1128792064	71	4650
2026-01-01 13:03:48.13	332.21	8.30	-51.8	-53.6	17.5	6.02e-01	0	33	0	1130364928	71	4661
2026-01-01 13:03:49.14	332.30	8.23	-51.7	-53.6	17.6	6.03e-01	0	34	0	1132462080	71	4658
2026-01-01 13:03:50.15	332.39	8.15	-51.8	-53.6	17.6	6.04e-01	0	33	0	1134559232	71	4669
2026-01-01 13:03:51.15	332.48	8.08	-51.8	-53.7	17.5	6.02e-01	0	33	0	1136132096	71	4707
2026-01-01 13:03:52.16	332.57	8.00	-51.7	-53.6	17.5	6.03e-01	0	33	0	1138229248	71	4661
2026-01-01 13:03:53.17	332.66	7.92	-51.9	-53.7	17.5	6.04e-01	0	33	0	1140326400	71	4735
2026-01-01 13:03:54.17	332.75	7.85	-51.8	-53.6	17.5	6.03e-01	0	33	0	1141899264	71	4703
2026-01-01 13:03:55.18	332.84	7.77	-51.8	-53.7	17.5	6.01e-01	0	33	0	1143996416	71	4726
2026-01-01 13:03:56.19	332.92	7.70	-51.9	-53.7	17.5	6.02e-01	0	34	0	1145569280	71	4725
2026-01-01 13:03:57.20	333.01	7.62	-51.9	-53.7	17.5	6.05e-01	0	33	0	1147666432	71	4732
2026-01-01 13:03:58.20	333.10	7.55	-51.8	-53.7	17.5	6.03e-01	0	33	0	1149239296	71	4725
2026-01-01 13:03:59.21	333.18	7.48	-52.0	-53.9	17.4	6.02e-01	0	33	0	1151336448	71	4828
2026-01-01 13:04:00.22	333.27	7.40	-52.0	-53.8	17.4	6.04e-01	0	34	0	1153433600	71	4796
2026-01-01 13:04:01.22	333.35	7.33	-51.9	-53.8	17.4	6.01e-01	0	33	0	1155006464	71	4795
2026-01-01 13:04:02.23	333.44	7.25	-52.0	-53.9	17.4	6.05e-01	0	33	0	1157103616	71	4828
2026-01-01 13:04:03.24	333.52	7.18	-52.0	-53.9	17.4	6.02e-01	0	33	0	1158676480	71	4831
2026-01-01 13:04:04.25	333.61	7.11	-52.0	-53.9	17.4	6.02e-01	0	33	0	1160773632	71	4862
2026-01-01 13:04:05.26	333.69	7.03	-52.1	-54.0	17.4	6.03e-01	0	34	0	1162870784	72	4626
2026-01-01 13:04:06.27	333.77	6.96	-52.0	-53.9	17.5	6.03e-01	0	34	0	1164443648	72	4587
2026-01-01 13:04:07.28	333.86	6.89	-52.1	-54.1	17.5	6.01e-01	0	33	0	1166540800	72	4655
2026-01-01 13:04:08.29	333.94	6.81	-52.1	-54.1	17.4	6.03e-01	0	33	0	1168637952	72	4667
2026-01-01 13:04:09.30	334.02	6.74	-52.2	-54.1	17.4	6.03e-01	0	33	0	1170210816	72	4673
2026-01-01 13:04:10.31	334.10	6.67	-52.1	-54.1	17.4	6.04e-01	0	34	0	1172307968	72	4672
2026-01-01 13:04:11.31	334.18	6.60	-52.2	-54.1	17.4	6.04e-01	0	33	0	1173880832	72	4703
2026-01-01 13:04:12.32	334.26	6.52	-52.3	-54.3	17.4	6.03e-01	0	33	0	1175977984	72	4796
2026-01-01 13:04:13.33	334.34	6.45	-52.2	-54.2	17.4	6.05e-01	0	33	0	1178075136	72	4732
2026-01-01 13:04:14.33	334.42	6.38	-52.3	-54.3	17.3	6.01e-01	0	33	0	1179648000	72	4780
2026-01-01 13:04:15.34	334.50	6.31	-52.3	-54.3	17.3	6.04e-01	0	33	0	1181745152	72	4801
2026-01-01 13:04:16.35	334.58	6.24	-52.4	-54.4	17.3	6.02e-01	0	33	0	1183318016	72	4828
2026-01-01 13:04:17.36	334.66	6.17	-52.4	-54.5	17.3	6.03e-01	0	33	0	1185415168	72	4872
2026-01-01 13:04:18.36	334.74	6.10	-52.4	-54.4	17.4	6.04e-01	0	34	0	1187512320	72	4825
2026-01-01 13:04:19.37	334.82	6.03	-52.4	-54.4	17.3	6.03e-01	0	33	0	1189085184	72	4837
2026-01-01 13:04:20.38	334.89	5.95	-52.4	-54.4	17.3	6.04e-01	0	33	0	1191182336	72	4856
2026-01-01 13:04:21.38	334.97	5.88	-52.5	-54.5	17.3	6.01e-01	0	34	0	1192755200	72	4912
2026-01-01 13:04:22.39	335.05	5.81	-52.5	-54.6	17.2	6.04e-01	0	33	0	1194852352	72	4933
2026-01-01 13:04:23.40	335.12	5.74	-52.4	-54.5	17.2	6.05e-01	0	33	0	1196949504	72	4890
2026-01-01 13:04:24.41	335.20	5.67	-52.4	-54.5	17.3	6.02e-01	0	33	0	1198522368	72	4874
2026-01-01 13:04:25.42	335.27	5.60	-52.5	-54.6	17.2	6.01e-01	0	34	0	1200619520	72	4948
2026-01-01 13:04:26.43	335.35	5.53	-52.6	-54.7	17.2	6.02e-01	0	33	0	1202192384	72	5025
2026-01-01 13:04:27.43	335.42	5.47	-52.5	-54.6	17.2	6.02e-01	0	33	0	1204289536	73	4688
2026-01-01 13:04:28.44	335.50	5.40	-52.5	-54.6	17.2	6.02e-01	0	33	0	1206386688	73	4680
2026-01-01 13:04:29.45	335.57	5.33	-52.5	-54.5	17.2	6.02e-01	0	33	0	1207959552	73	4651
2026-01-01 13:04:30.46	335.65	5.26	-52.5	-54.5	17.2	6.03e-01	0	33	0	1210056704	73	4639
2026-01-01 13:04:31.46	335.72	5.19	-52.5	-54.6	17.2	6.02e-01	0	33	0	1211629568	73	4666
2026-01-01 13:04:32.47	335.79	5.12	-52.5	-54.6	17.2	6.04e-01	0	33	0	1213726720	73	4675
2026-01-01 13:04:33.48	335.86	5.05	-52.4	-54.5	17.2	6.01e-01	0	33	0	1215823872	73	4640
2026-01-01 13:04:34.49	335.94	4.98	-53.7	-56.3	16.9	6.04e-01	0	33	0	1217396736	75	5057
2026-01-01 13:04:35.50	336.01	4.92	-60.0	-79.1	3.7	7.45e-01	0	34	104	1218969600	87	35118
2026-01-01 13:04:36.51	336.08	4.85	-60.4	-79.7	3.8	7.48e-01	0	33	104	1218969600	88	35589
2026-01-01 13:04:37.52	336.15	4.78	-60.7	-80.1	3.8	7.43e-01	0	33	104	1218969600	89	34882
2026-01-01 13:04:38.52	336.22	4.71	-60.9	-80.3	3.8	7.44e-01	0	33	104	1218969600	89	35746
2026-01-01 13:04:39.53	336.29	4.65	-61.1	-80.5	3.8	7.44e-01	0	33	104	1218969600	89	36549
2026-01-01 13:04:40.54	336.36	4.58	-61.3	-80.6	3.8	7.45e-01	0	33	104	1218969600	90	35154
