passes_logs/2026/01/01/R3.2S_Murmansk/R3.2S_Murmansk__20260101_035338_SUOMI_NPP_rec.log

#Pass ID: 20260101_035338_SUOMI NPP
#Satellite: SUOMI NPP
#Configuration: NPP
#almurnet v.1.7.20251203
#Start time: 2026-01-01 03:53:40

#Version: 2.2.20231116
#Station: R3.2S_Murmansk
#Location: 33.079688 lon 68.888172 lat
#TLE: 1 37849U 11061A   25364.87906317  .00000195  00000+0  11345-3 0  9992
#TLE: 2 37849  98.7794 302.0592 0002571  89.2401 270.9069 14.19520347734561

#Time	Az	El	Level	Level2	SNR	BER	BlckErr	Temp	State	Recorded	gain1	gain2
2026-01-01 03:53:40.72	45.13	2.13	-59.7	-75.7	3.8	1.49e+00	0	31	0	0	86	21688
2026-01-01 03:53:41.71	45.08	2.19	-59.8	-75.7	3.8	1.49e+00	0	32	104	0	84	24370
2026-01-01 03:53:42.71	45.02	2.25	-59.8	-75.7	3.8	1.49e+00	0	32	104	0	84	24401
2026-01-01 03:53:43.71	44.96	2.31	-59.8	-75.7	3.8	1.49e+00	0	32	104	0	84	24351
2026-01-01 03:53:44.71	44.90	2.36	-59.8	-75.7	3.8	1.49e+00	0	32	104	0	84	24277
2026-01-01 03:53:45.70	44.84	2.42	-59.8	-75.7	3.8	1.49e+00	0	32	104	0	84	24294
2026-01-01 03:53:46.70	44.78	2.48	-59.8	-75.7	3.8	1.49e+00	0	32	104	0	84	24267
2026-01-01 03:53:47.70	44.72	2.54	-59.8	-75.7	3.8	1.49e+00	0	32	104	0	84	24316
2026-01-01 03:53:48.69	44.66	2.60	-59.8	-75.7	3.8	1.49e+00	0	32	104	0	84	24358
2026-01-01 03:53:49.69	44.61	2.66	-59.8	-75.8	3.8	1.49e+00	0	32	104	0	84	24429
2026-01-01 03:53:50.68	44.55	2.72	-59.8	-75.7	3.8	1.49e+00	0	32	104	0	84	24358
2026-01-01 03:53:51.68	44.49	2.77	-59.8	-75.7	3.8	1.49e+00	0	32	104	0	84	24372
2026-01-01 03:53:52.68	44.42	2.83	-59.8	-75.7	3.8	1.49e+00	0	32	104	0	84	24404
2026-01-01 03:53:53.68	44.36	2.89	-59.8	-75.8	3.8	1.49e+00	0	32	104	0	84	24435
2026-01-01 03:53:54.69	44.30	2.95	-59.8	-75.7	3.8	1.49e+00	0	32	104	0	84	24347
2026-01-01 03:53:55.69	44.24	3.01	-59.8	-75.7	3.8	1.49e+00	0	32	104	0	84	24392
2026-01-01 03:53:56.69	44.18	3.07	-59.8	-75.7	3.8	1.49e+00	0	32	104	0	84	24383
2026-01-01 03:53:57.68	44.12	3.13	-59.8	-75.7	3.8	1.49e+00	0	32	104	0	84	24355
2026-01-01 03:53:58.68	44.06	3.19	-59.8	-75.7	3.8	1.49e+00	0	32	104	0	84	24371
2026-01-01 03:53:59.68	43.99	3.25	-59.8	-75.7	3.8	1.49e+00	0	32	104	0	84	24280
2026-01-01 03:54:00.69	43.93	3.31	-59.8	-75.7	3.8	1.49e+00	0	32	104	0	84	24171
2026-01-01 03:54:01.69	43.87	3.37	-59.8	-75.6	3.8	1.49e+00	0	32	104	0	84	24125
2026-01-01 03:54:02.69	43.80	3.43	-59.8	-75.7	3.8	1.49e+00	0	32	104	0	84	24187
2026-01-01 03:54:03.69	43.74	3.49	-59.8	-75.7	3.8	1.49e+00	0	32	104	0	84	24229
2026-01-01 03:54:04.68	43.68	3.55	-59.8	-75.7	3.8	1.49e+00	0	32	104	0	84	24204
2026-01-01 03:54:05.69	43.61	3.61	-59.8	-75.7	3.8	1.49e+00	0	32	104	0	84	24297
2026-01-01 03:54:06.69	43.55	3.67	-59.8	-75.7	3.8	1.49e+00	0	32	104	0	84	24345
2026-01-01 03:54:07.69	43.48	3.74	-59.8	-75.7	3.8	1.49e+00	0	32	104	0	84	24386
2026-01-01 03:54:08.68	43.42	3.80	-59.8	-75.7	3.8	1.49e+00	0	32	104	0	84	24361
2026-01-01 03:54:09.67	43.36	3.86	-59.8	-75.7	3.8	1.49e+00	0	32	104	0	84	24289
2026-01-01 03:54:10.67	43.29	3.92	-59.8	-75.7	3.8	1.49e+00	0	33	104	0	84	24355
2026-01-01 03:54:11.67	43.22	3.98	-59.8	-75.7	3.8	1.49e+00	0	33	104	0	84	24275
2026-01-01 03:54:12.67	43.16	4.04	-59.8	-75.6	3.8	1.49e+00	0	32	104	0	84	24120
2026-01-01 03:54:13.67	43.09	4.10	-59.8	-75.6	3.8	1.49e+00	0	32	104	0	84	23856
2026-01-01 03:54:14.67	43.03	4.16	-59.8	-75.3	3.8	1.49e+00	0	32	104	0	84	23303
2026-01-01 03:54:15.67	42.96	4.22	-59.7	-75.1	3.8	1.49e+00	0	33	104	0	84	22590
2026-01-01 03:54:16.67	42.89	4.29	-59.7	-74.7	3.8	1.49e+00	0	33	104	0	84	21509
2026-01-01 03:54:17.67	42.82	4.35	-59.7	-74.3	3.8	1.49e+00	0	33	104	0	84	20689
2026-01-01 03:54:18.67	42.76	4.41	-59.7	-74.2	3.8	1.49e+00	0	33	104	0	84	20463
2026-01-01 03:54:19.67	42.69	4.47	-59.7	-74.1	3.8	1.49e+00	0	33	104	0	84	20244
2026-01-01 03:54:20.68	42.62	4.53	-59.7	-74.3	3.8	1.49e+00	0	33	104	0	84	20699
2026-01-01 03:54:21.68	42.55	4.60	-59.7	-74.3	3.8	1.49e+00	0	33	104	0	84	20605
2026-01-01 03:54:22.68	42.48	4.66	-59.7	-73.5	3.8	1.49e+00	0	32	104	0	84	18890
2026-01-01 03:54:23.68	42.41	4.72	-59.6	-72.2	4.2	1.42e+00	0	33	0	0	84	16210
2026-01-01 03:54:24.68	42.34	4.78	-59.4	-70.1	5.0	8.47e-01	0	33	0	1048576	84	12668
2026-01-01 03:54:25.68	42.27	4.85	-59.1	-68.0	6.3	4.12e-01	0	33	0	3145728	84	10009
2026-01-01 03:54:26.68	42.20	4.91	-58.8	-66.5	7.5	1.68e-01	0	33	0	5242880	84	8432
2026-01-01 03:54:27.68	42.13	4.97	-58.2	-64.8	9.0	2.54e-02	0	33	0	6291456	83	7301
2026-01-01 03:54:28.67	42.06	5.03	-57.9	-63.7	10.0	6.33e-03	0	33	0	8388608	82	6840
2026-01-01 03:54:29.67	41.99	5.10	-59.3	-70.3	5.0	6.65e-03	0	33	0	10485760	83	13804
2026-01-01 03:54:30.67	41.92	5.16	-59.6	-71.5	4.4	1.18e+00	59	33	0	12582912	84	15006
2026-01-01 03:54:31.67	41.85	5.22	-57.5	-62.8	10.7	2.20e-01	0	33	0	13631488	81	6547
2026-01-01 03:54:32.66	41.77	5.29	-56.0	-59.5	13.4	1.08e-03	0	33	0	15728640	78	5307
2026-01-01 03:54:33.66	41.70	5.35	-58.4	-65.4	8.8	0.00e+00	0	33	0	17825792	81	8788
2026-01-01 03:54:34.66	41.63	5.41	-56.7	-60.9	12.2	1.04e-01	0	33	0	19922944	80	5533
2026-01-01 03:54:35.65	41.56	5.48	-56.1	-59.7	13.3	0.00e+00	0	33	0	20971520	78	5429
2026-01-01 03:54:36.64	41.48	5.54	-56.2	-59.8	13.2	0.00e+00	0	33	0	23068672	78	5523
2026-01-01 03:54:37.65	41.41	5.60	-56.3	-60.0	13.1	0.00e+00	0	33	0	25165824	78	5621
2026-01-01 03:54:38.65	41.34	5.67	-56.2	-59.8	13.3	0.00e+00	0	33	0	27262976	78	5483
2026-01-01 03:54:39.65	41.26	5.73	-56.3	-60.1	13.1	0.00e+00	0	33	0	29360128	78	5718
2026-01-01 03:54:40.64	41.19	5.80	-56.2	-59.8	13.3	7.00e-07	0	33	0	30408704	78	5502
2026-01-01 03:54:41.65	41.11	5.86	-56.0	-59.4	13.6	7.00e-07	0	33	0	32505856	78	5274
2026-01-01 03:54:42.65	41.03	5.92	-56.1	-59.6	13.4	0.00e+00	0	33	0	34603008	78	5379
2026-01-01 03:54:43.63	40.96	5.99	-56.1	-59.6	13.4	0.00e+00	0	33	0	36700160	78	5370
2026-01-01 03:54:44.62	40.88	6.05	-55.9	-59.2	13.8	0.00e+00	0	33	0	37748736	78	5123
2026-01-01 03:54:45.61	40.81	6.12	-55.9	-59.3	13.6	0.00e+00	0	33	0	39845888	78	5211
2026-01-01 03:54:46.61	40.73	6.18	-55.9	-59.3	13.8	0.00e+00	0	33	0	41943040	78	5170
2026-01-01 03:54:47.62	40.65	6.25	-56.0	-59.3	13.7	0.00e+00	0	33	0	44040192	78	5209
2026-01-01 03:54:48.62	40.58	6.31	-55.8	-59.0	14.0	0.00e+00	0	33	0	46137344	78	4990
2026-01-01 03:54:49.61	40.50	6.38	-55.8	-59.1	13.9	0.00e+00	0	33	0	47185920	78	5044
2026-01-01 03:54:50.61	40.42	6.44	-56.0	-59.4	13.7	0.00e+00	0	33	0	49283072	78	5253
2026-01-01 03:54:51.60	40.34	6.51	-56.0	-59.4	13.7	0.00e+00	0	33	0	51380224	78	5219
2026-01-01 03:54:52.60	40.26	6.57	-56.0	-59.3	13.8	0.00e+00	0	33	0	53477376	78	5190
2026-01-01 03:54:53.59	40.18	6.64	-55.8	-59.0	13.9	0.00e+00	0	33	0	54525952	78	5007
2026-01-01 03:54:54.59	40.10	6.70	-55.5	-58.5	14.3	0.00e+00	0	33	0	56623104	77	4985
2026-01-01 03:54:55.59	40.02	6.77	-55.4	-58.4	14.4	0.00e+00	0	33	0	58720256	77	4944
2026-01-01 03:54:56.60	39.94	6.84	-55.3	-58.2	14.5	0.00e+00	0	33	0	60817408	77	4862
2026-01-01 03:54:57.60	39.86	6.90	-55.4	-58.4	14.3	0.00e+00	0	33	0	62914560	77	4946
2026-01-01 03:54:58.60	39.78	6.97	-55.3	-58.2	14.5	0.00e+00	0	33	0	63963136	77	4820
2026-01-01 03:54:59.59	39.70	7.03	-55.3	-58.2	14.5	0.00e+00	0	33	0	66060288	77	4844
2026-01-01 03:55:00.59	39.62	7.10	-55.2	-58.0	14.6	0.00e+00	0	33	0	68157440	76	5027
2026-01-01 03:55:01.59	39.53	7.17	-55.1	-58.0	14.6	0.00e+00	0	33	0	70254592	76	4995
2026-01-01 03:55:02.58	39.45	7.23	-55.1	-58.0	14.6	0.00e+00	0	33	0	72351744	76	5011
2026-01-01 03:55:03.58	39.37	7.30	-55.3	-58.3	14.4	0.00e+00	0	33	0	73400320	76	5177
2026-01-01 03:55:04.57	39.28	7.37	-55.2	-58.2	14.5	0.00e+00	0	33	0	75497472	76	5104
2026-01-01 03:55:05.57	39.20	7.43	-55.3	-58.2	14.5	0.00e+00	0	33	0	77594624	76	5156
2026-01-01 03:55:06.57	39.12	7.50	-55.4	-58.4	14.4	0.00e+00	0	33	0	79691776	76	5238
2026-01-01 03:55:07.57	39.03	7.57	-55.3	-58.2	14.5	0.00e+00	0	33	0	81788928	76	5149
2026-01-01 03:55:08.57	38.95	7.63	-55.3	-58.3	14.5	0.00e+00	0	33	0	82837504	76	5181
2026-01-01 03:55:09.58	38.86	7.70	-55.3	-58.3	14.5	0.00e+00	0	33	0	84934656	76	5173
2026-01-01 03:55:10.58	38.77	7.77	-55.3	-58.2	14.6	0.00e+00	0	33	0	87031808	76	5128
2026-01-01 03:55:11.57	38.69	7.84	-55.3	-58.2	14.5	0.00e+00	0	33	0	89128960	76	5146
2026-01-01 03:55:12.57	38.60	7.90	-55.3	-58.2	14.5	0.00e+00	0	33	0	90177536	76	5140
2026-01-01 03:55:13.58	38.51	7.97	-55.2	-58.0	14.7	0.00e+00	0	33	0	92274688	76	5006
2026-01-01 03:55:14.57	38.42	8.04	-55.5	-58.5	14.4	0.00e+00	0	33	0	94371840	76	5285
2026-01-01 03:55:15.57	38.34	8.11	-55.3	-58.2	14.6	0.00e+00	0	33	0	96468992	76	5126
2026-01-01 03:55:16.57	38.25	8.18	-55.3	-58.1	14.6	0.00e+00	0	33	0	98566144	76	5099
2026-01-01 03:55:17.57	38.16	8.25	-55.4	-58.4	14.5	0.00e+00	0	33	0	99614720	76	5224
2026-01-01 03:55:18.57	38.07	8.31	-55.4	-58.3	14.5	0.00e+00	0	33	0	101711872	76	5205
2026-01-01 03:55:19.57	37.98	8.38	-55.5	-58.5	14.4	0.00e+00	0	33	0	103809024	76	5282
2026-01-01 03:55:20.57	37.89	8.45	-55.4	-58.3	14.5	0.00e+00	0	33	0	105906176	76	5209
2026-01-01 03:55:21.57	37.80	8.52	-55.5	-58.4	14.5	0.00e+00	0	33	0	108003328	76	5256
2026-01-01 03:55:22.57	37.70	8.59	-55.3	-58.2	14.6	0.00e+00	0	33	0	109051904	76	5112
2026-01-01 03:55:23.57	37.61	8.66	-55.4	-58.2	14.6	0.00e+00	0	33	0	111149056	76	5112
2026-01-01 03:55:24.57	37.52	8.73	-55.4	-58.2	14.6	0.00e+00	0	33	0	113246208	76	5122
2026-01-01 03:55:25.57	37.43	8.80	-55.4	-58.2	14.5	0.00e+00	0	33	0	115343360	76	5157
2026-01-01 03:55:26.58	37.33	8.87	-55.4	-58.2	14.6	0.00e+00	0	33	0	117440512	76	5140
2026-01-01 03:55:27.58	37.24	8.94	-55.5	-58.5	14.4	0.00e+00	0	33	0	118489088	76	5282
2026-01-01 03:55:28.59	37.14	9.01	-55.3	-58.2	14.5	0.00e+00	0	33	0	120586240	76	5108
2026-01-01 03:55:29.59	37.05	9.08	-55.3	-58.0	14.7	0.00e+00	0	33	0	122683392	76	5009
2026-01-01 03:55:30.59	36.95	9.15	-55.2	-58.0	14.7	0.00e+00	0	33	0	124780544	76	5033
2026-01-01 03:55:31.58	36.86	9.22	-55.3	-58.1	14.7	0.00e+00	0	33	0	125829120	76	5051
2026-01-01 03:55:32.58	36.76	9.29	-55.2	-58.0	14.8	0.00e+00	0	33	0	127926272	76	5007
2026-01-01 03:55:33.58	36.67	9.36	-55.4	-58.2	14.6	0.00e+00	0	33	0	130023424	76	5157
2026-01-01 03:55:34.58	36.57	9.43	-55.4	-58.2	14.6	0.00e+00	0	33	0	132120576	76	5133
2026-01-01 03:55:35.58	36.47	9.50	-55.3	-58.1	14.6	0.00e+00	0	33	0	134217728	76	5068
2026-01-01 03:55:36.57	36.37	9.57	-55.3	-58.2	14.6	0.00e+00	0	33	0	135266304	76	5107
2026-01-01 03:55:37.57	36.28	9.64	-55.3	-58.2	14.6	0.00e+00	0	33	0	137363456	76	5130
2026-01-01 03:55:38.56	36.18	9.71	-55.4	-58.3	14.6	0.00e+00	0	33	0	139460608	76	5178
2026-01-01 03:55:39.56	36.08	9.78	-55.3	-58.3	14.6	0.00e+00	0	33	0	141557760	76	5166
2026-01-01 03:55:40.56	35.98	9.85	-55.5	-58.5	14.5	0.00e+00	0	33	0	142606336	76	5284
2026-01-01 03:55:41.55	35.88	9.92	-55.5	-58.5	14.4	0.00e+00	0	33	0	144703488	76	5316
2026-01-01 03:55:42.55	35.78	9.99	-55.5	-58.6	14.4	0.00e+00	0	33	0	146800640	76	5363
2026-01-01 03:55:43.54	35.68	10.06	-55.5	-58.5	14.5	0.00e+00	0	33	0	148897792	76	5291
2026-01-01 03:55:44.53	35.58	10.13	-55.4	-58.4	14.5	0.00e+00	0	33	0	150994944	76	5264
2026-01-01 03:55:45.53	35.47	10.21	-55.3	-58.3	14.6	0.00e+00	0	33	0	152043520	76	5164
2026-01-01 03:55:46.54	35.37	10.28	-55.3	-58.3	14.6	0.00e+00	0	33	0	154140672	76	5190
2026-01-01 03:55:47.53	35.27	10.35	-55.1	-57.9	14.8	0.00e+00	0	33	0	156237824	76	4931
2026-01-01 03:55:48.53	35.16	10.42	-55.1	-58.0	14.8	0.00e+00	0	33	0	158334976	76	4987
2026-01-01 03:55:49.52	35.06	10.49	-55.2	-58.1	14.7	0.00e+00	0	33	0	160432128	76	5043
2026-01-01 03:55:50.52	34.95	10.57	-55.1	-57.9	14.8	0.00e+00	0	33	0	161480704	76	4971
2026-01-01 03:55:51.52	34.85	10.64	-55.1	-58.0	14.8	0.00e+00	0	33	0	163577856	76	5000
2026-01-01 03:55:52.53	34.74	10.71	-55.1	-58.0	14.8	0.00e+00	0	33	0	165675008	76	4995
2026-01-01 03:55:53.53	34.63	10.78	-55.1	-57.9	14.8	0.00e+00	0	33	0	167772160	76	4959
2026-01-01 03:55:54.53	34.53	10.86	-55.0	-57.8	14.9	0.00e+00	0	33	0	168820736	76	4920
2026-01-01 03:55:55.53	34.42	10.93	-55.2	-58.0	14.7	0.00e+00	0	33	0	170917888	76	5040
2026-01-01 03:55:56.53	34.31	11.00	-55.2	-58.0	14.8	0.00e+00	0	33	0	173015040	76	5038
2026-01-01 03:55:57.53	34.20	11.08	-55.2	-58.0	14.8	0.00e+00	0	33	0	175112192	76	5009
2026-01-01 03:55:58.53	34.09	11.15	-55.1	-57.9	14.8	0.00e+00	0	33	0	177209344	76	4968
2026-01-01 03:55:59.53	33.98	11.22	-55.0	-57.7	14.9	0.00e+00	0	34	0	178257920	76	4856
2026-01-01 03:56:00.53	33.87	11.30	-55.0	-57.7	14.9	0.00e+00	0	33	0	180355072	76	4869
2026-01-01 03:56:01.53	33.76	11.37	-55.0	-57.7	14.9	0.00e+00	0	33	0	182452224	76	4855
2026-01-01 03:56:02.53	33.65	11.44	-54.9	-57.6	15.0	0.00e+00	0	33	0	184549376	76	4774
2026-01-01 03:56:03.52	33.53	11.52	-55.1	-57.8	14.9	0.00e+00	0	33	0	186646528	76	4896
2026-01-01 03:56:04.52	33.42	11.59	-55.0	-57.6	15.1	0.00e+00	0	33	0	187695104	76	4784
2026-01-01 03:56:05.52	33.31	11.66	-55.0	-57.7	15.1	0.00e+00	0	33	0	189792256	76	4825
2026-01-01 03:56:06.52	33.19	11.74	-55.0	-57.6	15.1	0.00e+00	0	33	0	191889408	76	4771
2026-01-01 03:56:07.52	33.08	11.81	-54.9	-57.3	15.1	0.00e+00	0	33	0	193986560	76	4651
2026-01-01 03:56:08.52	32.96	11.89	-54.8	-57.3	15.2	0.00e+00	0	33	0	196083712	76	4639
2026-01-01 03:56:09.53	32.85	11.96	-54.6	-57.0	15.3	0.00e+00	0	33	0	197132288	75	4741
2026-01-01 03:56:10.53	32.73	12.04	-54.6	-57.0	15.3	0.00e+00	0	33	0	199229440	75	4709
2026-01-01 03:56:11.52	32.61	12.11	-54.5	-56.8	15.4	0.00e+00	0	33	0	201326592	75	4643
2026-01-01 03:56:12.53	32.49	12.18	-54.5	-56.9	15.3	0.00e+00	0	33	0	203423744	75	4686
2026-01-01 03:56:13.53	32.38	12.26	-54.6	-57.1	15.2	0.00e+00	0	33	0	204472320	75	4776
2026-01-01 03:56:14.53	32.26	12.33	-54.7	-57.2	15.2	0.00e+00	0	34	0	206569472	75	4832
2026-01-01 03:56:15.52	32.14	12.41	-54.7	-57.1	15.3	0.00e+00	0	33	0	208666624	75	4788
2026-01-01 03:56:16.52	32.02	12.48	-54.7	-57.1	15.3	0.00e+00	0	33	0	210763776	75	4792
2026-01-01 03:56:17.52	31.90	12.56	-54.9	-57.5	15.1	0.00e+00	0	33	0	212860928	75	4992
2026-01-01 03:56:18.52	31.77	12.63	-55.0	-57.5	15.1	0.00e+00	0	33	0	213909504	75	5005
2026-01-01 03:56:19.52	31.65	12.71	-55.1	-57.8	14.9	0.00e+00	0	33	0	216006656	75	5162
2026-01-01 03:56:20.52	31.53	12.79	-55.2	-57.9	14.8	0.00e+00	0	33	0	218103808	75	5259
2026-01-01 03:56:21.52	31.41	12.86	-55.1	-57.7	15.0	0.00e+00	0	33	0	220200960	75	5117
2026-01-01 03:56:22.52	31.28	12.94	-55.0	-57.5	15.0	0.00e+00	0	33	0	222298112	75	5026
2026-01-01 03:56:23.53	31.16	13.01	-55.0	-57.6	15.0	0.00e+00	0	33	0	223346688	75	5083
2026-01-01 03:56:24.52	31.03	13.09	-55.2	-57.8	14.9	0.00e+00	0	34	0	225443840	75	5211
2026-01-01 03:56:25.52	30.91	13.17	-55.3	-57.9	14.8	0.00e+00	0	33	0	227540992	75	5279
2026-01-01 03:56:26.52	30.78	13.24	-55.2	-57.8	14.9	0.00e+00	0	33	0	229638144	75	5200
2026-01-01 03:56:27.52	30.65	13.32	-55.2	-57.9	14.8	0.00e+00	0	34	0	230686720	75	5261
2026-01-01 03:56:28.52	30.52	13.39	-55.0	-57.6	15.0	0.00e+00	0	33	0	232783872	75	5099
2026-01-01 03:56:29.52	30.39	13.47	-54.9	-57.4	15.1	0.00e+00	0	33	0	234881024	75	4960
2026-01-01 03:56:30.52	30.26	13.55	-54.8	-57.3	15.1	0.00e+00	0	33	0	236978176	75	4879
2026-01-01 03:56:31.52	30.13	13.62	-54.7	-57.1	15.2	0.00e+00	0	33	0	239075328	75	4813
2026-01-01 03:56:32.53	30.00	13.70	-54.7	-57.1	15.3	0.00e+00	0	33	0	240123904	75	4780
2026-01-01 03:56:33.53	29.87	13.78	-54.6	-57.0	15.4	0.00e+00	0	33	0	242221056	75	4722
2026-01-01 03:56:34.53	29.74	13.86	-54.4	-56.7	15.5	0.00e+00	0	33	0	244318208	75	4556
2026-01-01 03:56:35.53	29.60	13.93	-54.5	-56.9	15.4	0.00e+00	0	33	0	246415360	75	4675
2026-01-01 03:56:36.52	29.47	14.01	-54.5	-56.8	15.4	0.00e+00	0	33	0	248512512	75	4630
2026-01-01 03:56:37.52	29.34	14.09	-54.3	-56.6	15.6	0.00e+00	0	33	0	249561088	75	4510
2026-01-01 03:56:38.52	29.20	14.16	-54.2	-56.5	15.6	0.00e+00	0	33	0	251658240	75	4451
2026-01-01 03:56:39.51	29.07	14.24	-54.1	-56.4	15.7	0.00e+00	0	33	0	253755392	74	4654
2026-01-01 03:56:40.52	28.93	14.32	-53.9	-56.0	15.9	0.00e+00	0	33	0	255852544	74	4458
2026-01-01 03:56:41.51	28.79	14.39	-53.8	-56.0	15.9	0.00e+00	0	33	0	256901120	74	4444
2026-01-01 03:56:42.50	28.66	14.47	-53.8	-55.9	15.9	0.00e+00	0	33	0	258998272	74	4411
2026-01-01 03:56:43.49	28.52	14.55	-54.0	-56.1	15.8	0.00e+00	0	33	0	261095424	74	4521
2026-01-01 03:56:44.49	28.38	14.63	-54.0	-56.2	15.8	0.00e+00	0	33	0	263192576	74	4556
2026-01-01 03:56:45.49	28.24	14.70	-54.1	-56.3	15.8	0.00e+00	0	33	0	265289728	74	4603
2026-01-01 03:56:46.49	28.10	14.78	-54.1	-56.3	15.7	0.00e+00	0	34	0	266338304	74	4608
2026-01-01 03:56:47.49	27.96	14.86	-54.1	-56.3	15.7	0.00e+00	0	34	0	268435456	74	4633
2026-01-01 03:56:48.49	27.81	14.94	-53.9	-56.1	15.8	0.00e+00	0	34	0	270532608	74	4519
2026-01-01 03:56:49.49	27.67	15.02	-54.0	-56.2	15.8	0.00e+00	0	33	0	272629760	74	4549
2026-01-01 03:56:50.48	27.53	15.09	-54.0	-56.1	15.9	0.00e+00	0	33	0	274726912	74	4513
2026-01-01 03:56:51.49	27.38	15.17	-54.0	-56.2	15.8	0.00e+00	0	33	0	275775488	74	4581
2026-01-01 03:56:52.50	27.23	15.25	-54.1	-56.3	15.8	0.00e+00	0	33	0	277872640	74	4606
2026-01-01 03:56:53.50	27.09	15.33	-54.2	-56.5	15.7	0.00e+00	0	33	0	279969792	74	4720
2026-01-01 03:56:54.50	26.94	15.41	-54.2	-56.5	15.7	0.00e+00	0	34	0	282066944	74	4714
2026-01-01 03:56:55.50	26.79	15.49	-54.1	-56.2	15.8	0.00e+00	0	33	0	283115520	74	4593
2026-01-01 03:56:56.49	26.64	15.56	-54.0	-56.1	15.9	0.00e+00	0	33	0	285212672	74	4525
2026-01-01 03:56:57.49	26.49	15.64	-54.0	-56.2	15.8	0.00e+00	0	33	0	287309824	74	4562
2026-01-01 03:56:58.50	26.34	15.72	-53.9	-56.0	15.9	0.00e+00	0	33	0	289406976	74	4465
2026-01-01 03:56:59.50	26.19	15.80	-53.9	-56.1	15.9	0.00e+00	0	33	0	291504128	74	4499
2026-01-01 03:57:00.50	26.04	15.88	-54.0	-56.2	15.8	0.00e+00	0	33	0	292552704	74	4564
2026-01-01 03:57:01.50	25.88	15.96	-54.0	-56.2	15.8	0.00e+00	0	34	0	294649856	74	4578
2026-01-01 03:57:02.49	25.73	16.04	-54.2	-56.4	15.7	0.00e+00	0	34	0	296747008	74	4702
2026-01-01 03:57:03.49	25.58	16.12	-54.1	-56.4	15.7	0.00e+00	0	33	0	298844160	74	4672
2026-01-01 03:57:04.49	25.42	16.19	-54.2	-56.5	15.6	0.00e+00	0	33	0	300941312	74	4724
2026-01-01 03:57:05.49	25.27	16.27	-54.3	-56.6	15.5	0.00e+00	0	34	0	301989888	74	4813
2026-01-01 03:57:06.50	25.11	16.35	-54.0	-56.2	15.8	0.00e+00	0	33	0	304087040	74	4588
2026-01-01 03:57:07.50	24.95	16.43	-53.9	-56.1	15.8	0.00e+00	0	34	0	306184192	74	4532
2026-01-01 03:57:08.50	24.79	16.51	-53.9	-56.2	15.7	0.00e+00	0	34	0	308281344	74	4574
2026-01-01 03:57:09.50	24.63	16.59	-54.0	-56.4	15.6	0.00e+00	0	33	0	310378496	74	4654
2026-01-01 03:57:10.51	24.47	16.67	-54.1	-56.4	15.6	0.00e+00	0	33	0	311427072	74	4692
2026-01-01 03:57:11.50	24.31	16.75	-54.4	-56.8	15.4	0.00e+00	0	34	0	313524224	74	4895
2026-01-01 03:57:12.50	24.15	16.83	-54.5	-57.0	15.4	0.00e+00	0	33	0	315621376	74	4997
2026-01-01 03:57:13.49	23.99	16.91	-54.4	-56.9	15.4	0.00e+00	0	33	0	317718528	74	4951
2026-01-01 03:57:14.50	23.82	16.99	-54.6	-57.1	15.4	0.00e+00	0	33	0	318767104	74	5044
2026-01-01 03:57:15.51	23.65	17.07	-54.6	-57.1	15.3	0.00e+00	0	33	0	320864256	74	5085
2026-01-01 03:57:16.51	23.49	17.14	-54.7	-57.2	15.3	0.00e+00	0	34	0	322961408	74	5133
2026-01-01 03:57:17.51	23.32	17.22	-54.7	-57.3	15.2	0.00e+00	0	33	0	325058560	74	5167
2026-01-01 03:57:18.51	23.15	17.30	-54.6	-57.1	15.3	0.00e+00	0	33	0	327155712	74	5096
2026-01-01 03:57:19.51	22.98	17.38	-54.9	-57.6	15.1	0.00e+00	0	33	0	328204288	74	5357
2026-01-01 03:57:20.51	22.82	17.46	-54.9	-57.6	15.1	0.00e+00	0	33	0	330301440	75	5048
2026-01-01 03:57:21.52	22.64	17.54	-54.9	-57.5	15.1	0.00e+00	0	33	0	332398592	75	5017
2026-01-01 03:57:22.52	22.47	17.62	-55.0	-57.6	15.0	0.00e+00	0	33	0	334495744	75	5081
2026-01-01 03:57:23.52	22.30	17.70	-54.8	-57.3	15.2	0.00e+00	0	33	0	336592896	75	4904
2026-01-01 03:57:24.52	22.13	17.78	-54.7	-57.1	15.4	0.00e+00	0	34	0	337641472	75	4779
2026-01-01 03:57:25.52	21.95	17.86	-54.5	-56.8	15.5	0.00e+00	0	33	0	339738624	75	4651
2026-01-01 03:57:26.51	21.78	17.94	-54.4	-56.8	15.5	0.00e+00	0	33	0	341835776	75	4604
2026-01-01 03:57:27.52	21.60	18.02	-54.5	-56.9	15.5	0.00e+00	0	33	0	343932928	75	4671
2026-01-01 03:57:28.52	21.43	18.09	-54.3	-56.5	15.7	0.00e+00	0	34	0	346030080	75	4490
2026-01-01 03:57:29.52	21.25	18.17	-54.6	-57.0	15.4	0.00e+00	0	34	0	347078656	75	4739
2026-01-01 03:57:30.51	21.07	18.25	-54.6	-57.0	15.5	0.00e+00	0	34	0	349175808	75	4738
2026-01-01 03:57:31.51	20.89	18.33	-54.5	-56.9	15.4	0.00e+00	0	34	0	351272960	75	4704
2026-01-01 03:57:32.51	20.71	18.41	-54.3	-56.6	15.6	0.00e+00	0	34	0	353370112	75	4520
2026-01-01 03:57:33.51	20.53	18.49	-54.0	-56.2	15.8	0.00e+00	0	34	0	355467264	74	4564
2026-01-01 03:57:34.51	20.35	18.57	-54.0	-56.3	15.7	0.00e+00	0	33	0	356515840	74	4601
2026-01-01 03:57:35.51	20.16	18.65	-53.9	-56.2	15.8	0.00e+00	0	33	0	358612992	74	4551
2026-01-01 03:57:36.51	19.98	18.72	-54.1	-56.4	15.7	0.00e+00	0	33	0	360710144	74	4682
2026-01-01 03:57:37.51	19.79	18.80	-54.4	-56.8	15.5	0.00e+00	0	33	0	362807296	74	4883
2026-01-01 03:57:38.50	19.61	18.88	-54.3	-56.7	15.5	0.00e+00	0	34	0	363855872	74	4866
2026-01-01 03:57:39.50	19.42	18.96	-54.4	-56.8	15.5	0.00e+00	0	34	0	365953024	74	4912
2026-01-01 03:57:40.50	19.23	19.04	-54.4	-56.8	15.6	0.00e+00	0	34	0	368050176	74	4902
2026-01-01 03:57:41.49	19.05	19.12	-54.5	-56.9	15.5	0.00e+00	0	34	0	370147328	74	4931
2026-01-01 03:57:42.49	18.86	19.19	-54.5	-56.9	15.5	0.00e+00	0	33	0	372244480	74	4962
2026-01-01 03:57:43.49	18.66	19.27	-54.5	-56.8	15.5	0.00e+00	0	34	0	373293056	74	4925
2026-01-01 03:57:44.49	18.47	19.35	-54.6	-57.1	15.4	0.00e+00	0	34	0	375390208	74	5053
2026-01-01 03:57:45.49	18.28	19.43	-54.4	-56.8	15.5	0.00e+00	0	33	0	377487360	74	4898
2026-01-01 03:57:46.48	18.09	19.51	-54.3	-56.7	15.7	0.00e+00	0	33	0	379584512	74	4817
2026-01-01 03:57:47.49	17.89	19.58	-54.0	-56.1	15.9	0.00e+00	0	33	0	380633088	74	4542
2026-01-01 03:57:48.49	17.69	19.66	-53.6	-55.7	16.2	0.00e+00	0	33	0	382730240	73	4547
2026-01-01 03:57:49.48	17.50	19.74	-53.7	-55.8	16.1	0.00e+00	0	33	0	384827392	73	4616
2026-01-01 03:57:50.48	17.30	19.82	-53.8	-55.8	16.1	0.00e+00	0	34	0	386924544	73	4628
2026-01-01 03:57:51.47	17.10	19.89	-53.8	-55.8	16.0	0.00e+00	0	34	0	389021696	73	4648
2026-01-01 03:57:52.47	16.90	19.97	-54.1	-56.3	15.9	0.00e+00	0	33	0	390070272	73	4893
2026-01-01 03:57:53.47	16.70	20.05	-54.2	-56.5	15.8	0.00e+00	0	34	0	392167424	73	4989
2026-01-01 03:57:54.47	16.50	20.12	-54.5	-56.8	15.6	0.00e+00	0	33	0	394264576	74	4892
2026-01-01 03:57:55.47	16.30	20.20	-54.3	-56.6	15.8	0.00e+00	0	34	0	396361728	74	4763
2026-01-01 03:57:56.47	16.09	20.28	-54.5	-56.8	15.7	0.00e+00	0	34	0	398458880	74	4900
2026-01-01 03:57:57.46	15.89	20.35	-54.4	-56.7	15.7	0.00e+00	0	34	0	399507456	74	4831
2026-01-01 03:57:58.47	15.68	20.43	-54.4	-56.7	15.7	0.00e+00	0	33	0	401604608	74	4839
2026-01-01 03:57:59.47	15.47	20.51	-54.4	-56.7	15.7	0.00e+00	0	34	0	403701760	74	4819
2026-01-01 03:58:00.48	15.26	20.58	-54.5	-56.8	15.6	0.00e+00	0	34	0	405798912	74	4898
2026-01-01 03:58:01.48	15.05	20.66	-54.4	-56.8	15.6	0.00e+00	0	34	0	406847488	74	4889
2026-01-01 03:58:02.48	14.84	20.73	-54.0	-56.2	15.9	0.00e+00	0	34	0	408944640	74	4550
2026-01-01 03:58:03.47	14.63	20.81	-53.8	-55.9	16.0	0.00e+00	0	33	0	411041792	74	4428
2026-01-01 03:58:04.48	14.42	20.88	-53.5	-55.6	16.1	0.00e+00	0	33	0	413138944	73	4507
2026-01-01 03:58:05.48	14.20	20.96	-53.3	-55.4	16.2	0.00e+00	0	34	0	415236096	72	4654
2026-01-01 03:58:06.48	13.99	21.03	-53.3	-55.4	16.2	0.00e+00	0	34	0	416284672	72	4653
2026-01-01 03:58:07.47	13.77	21.11	-53.4	-55.6	16.1	0.00e+00	0	34	0	418381824	72	4787
2026-01-01 03:58:08.47	13.56	21.18	-53.6	-55.8	16.0	0.00e+00	0	34	0	420478976	72	4873
2026-01-01 03:58:09.47	13.34	21.26	-53.6	-55.8	16.0	0.00e+00	0	34	0	422576128	72	4911
2026-01-01 03:58:10.47	13.12	21.33	-53.3	-55.3	16.2	0.00e+00	0	34	0	424673280	72	4649
2026-01-01 03:58:11.47	12.90	21.40	-53.1	-55.1	16.3	0.00e+00	0	34	0	425721856	72	4542
2026-01-01 03:58:12.47	12.68	21.48	-53.3	-55.3	16.2	0.00e+00	0	34	0	427819008	72	4628
2026-01-01 03:58:13.48	12.45	21.55	-53.3	-55.3	16.0	0.00e+00	0	34	0	429916160	72	4618
2026-01-01 03:58:14.48	12.23	21.62	-53.2	-55.2	16.2	0.00e+00	0	34	0	432013312	72	4580
2026-01-01 03:58:15.49	12.00	21.70	-53.3	-55.3	16.2	0.00e+00	0	34	0	434110464	72	4633
2026-01-01 03:58:16.49	11.78	21.77	-53.2	-55.2	16.3	0.00e+00	0	33	0	435159040	72	4554
2026-01-01 03:58:17.49	11.55	21.84	-52.9	-54.8	16.4	0.00e+00	0	34	0	437256192	72	4367
2026-01-01 03:58:18.49	11.32	21.91	-52.7	-54.6	16.5	0.00e+00	0	34	0	439353344	72	4245
2026-01-01 03:58:19.49	11.10	21.99	-52.8	-54.6	16.5	0.00e+00	0	34	0	441450496	71	4525
2026-01-01 03:58:20.49	10.87	22.06	-52.7	-54.5	16.5	0.00e+00	0	34	0	442499072	71	4456
2026-01-01 03:58:21.49	10.63	22.13	-52.8	-54.6	16.5	0.00e+00	0	34	0	444596224	71	4534
2026-01-01 03:58:22.49	10.40	22.20	-53.0	-54.9	16.3	0.00e+00	0	34	0	446693376	71	4705
2026-01-01 03:58:23.50	10.17	22.27	-53.3	-55.3	16.3	0.00e+00	0	34	0	448790528	71	4898
2026-01-01 03:58:24.49	9.94	22.34	-53.2	-55.1	16.3	0.00e+00	0	34	0	450887680	71	4798
2026-01-01 03:58:25.49	9.70	22.41	-52.9	-54.8	16.4	0.00e+00	0	34	0	451936256	71	4614
2026-01-01 03:58:26.48	9.47	22.48	-52.6	-54.4	16.6	0.00e+00	0	34	0	454033408	71	4406
2026-01-01 03:58:27.49	9.23	22.55	-52.6	-54.4	16.6	0.00e+00	0	34	0	456130560	71	4438
2026-01-01 03:58:28.49	8.99	22.62	-52.6	-54.4	16.6	0.00e+00	0	34	0	458227712	71	4415
2026-01-01 03:58:29.49	8.75	22.68	-52.5	-54.3	16.6	0.00e+00	0	34	0	460324864	71	4351
2026-01-01 03:58:30.49	8.51	22.75	-52.5	-54.4	16.6	0.00e+00	0	34	0	461373440	71	4393
2026-01-01 03:58:31.49	8.27	22.82	-52.6	-54.4	16.6	0.00e+00	0	34	0	463470592	71	4435
2026-01-01 03:58:32.50	8.02	22.89	-52.5	-54.4	16.6	0.00e+00	0	34	0	465567744	71	4411
2026-01-01 03:58:33.51	7.78	22.96	-52.4	-54.2	16.7	0.00e+00	0	33	0	467664896	71	4336
2026-01-01 03:58:34.51	7.53	23.02	-52.6	-54.5	16.6	0.00e+00	0	34	0	468713472	71	4446
2026-01-01 03:58:35.51	7.29	23.09	-52.6	-54.5	16.6	0.00e+00	0	34	0	470810624	71	4456
2026-01-01 03:58:36.50	7.04	23.15	-52.6	-54.4	16.6	0.00e+00	0	34	0	472907776	71	4431
2026-01-01 03:58:37.51	6.79	23.22	-52.6	-54.3	16.6	0.00e+00	0	34	0	475004928	71	4378
2026-01-01 03:58:38.51	6.54	23.28	-52.3	-54.0	16.8	0.00e+00	0	34	0	477102080	71	4227
2026-01-01 03:58:39.50	6.29	23.35	-52.2	-53.9	16.8	0.00e+00	0	34	0	478150656	71	4158
2026-01-01 03:58:40.49	6.05	23.41	-52.1	-53.8	16.8	0.00e+00	0	34	0	480247808	70	4345
2026-01-01 03:58:41.50	5.79	23.48	-52.4	-54.1	16.8	0.00e+00	0	34	0	482344960	70	4545
2026-01-01 03:58:42.50	5.54	23.54	-52.6	-54.3	16.7	0.00e+00	0	34	0	484442112	70	4646
2026-01-01 03:58:43.50	5.28	23.60	-52.9	-54.7	16.5	0.00e+00	0	34	0	486539264	71	4571
2026-01-01 03:58:44.50	5.03	23.66	-53.1	-54.9	16.5	0.00e+00	0	34	0	487587840	71	4685
2026-01-01 03:58:45.49	4.78	23.72	-52.8	-54.6	16.6	0.00e+00	0	34	0	489684992	71	4523
2026-01-01 03:58:46.48	4.52	23.79	-52.8	-54.6	16.6	0.00e+00	0	34	0	491782144	71	4509
2026-01-01 03:58:47.48	4.26	23.85	-52.7	-54.5	16.7	0.00e+00	0	34	0	493879296	71	4444
2026-01-01 03:58:48.48	4.00	23.91	-52.8	-54.6	16.6	0.00e+00	0	34	0	495976448	71	4508
2026-01-01 03:58:49.48	3.74	23.97	-52.9	-54.7	16.6	0.00e+00	0	34	0	497025024	71	4563
2026-01-01 03:58:50.47	3.49	24.02	-53.1	-55.1	16.4	0.00e+00	0	34	0	499122176	71	4761
2026-01-01 03:58:51.47	3.22	24.08	-53.1	-55.0	16.4	0.00e+00	0	33	0	501219328	71	4747
2026-01-01 03:58:52.48	2.96	24.14	-52.8	-54.7	16.6	0.00e+00	0	34	0	503316480	71	4561
2026-01-01 03:58:53.48	2.69	24.20	-52.6	-54.4	16.7	0.00e+00	0	34	0	504365056	71	4421
2026-01-01 03:58:54.47	2.43	24.26	-52.5	-54.2	16.7	0.00e+00	0	34	0	506462208	71	4325
2026-01-01 03:58:55.47	2.16	24.31	-52.5	-54.3	16.7	0.00e+00	0	34	0	508559360	71	4358
2026-01-01 03:58:56.47	1.90	24.37	-52.8	-54.6	16.6	0.00e+00	0	34	0	510656512	71	4520
2026-01-01 03:58:57.48	1.63	24.43	-53.1	-55.0	16.5	0.00e+00	0	34	0	512753664	71	4721
2026-01-01 03:58:58.48	1.36	24.48	-52.9	-54.7	16.5	0.00e+00	0	34	0	513802240	71	4595
2026-01-01 03:58:59.48	1.09	24.53	-52.8	-54.5	16.7	0.00e+00	0	34	0	515899392	71	4472
2026-01-01 03:59:00.49	0.81	24.59	-52.8	-54.5	16.7	0.00e+00	0	34	0	517996544	71	4445
2026-01-01 03:59:01.49	0.54	24.64	-52.7	-54.4	16.7	0.00e+00	0	34	0	520093696	71	4402
2026-01-01 03:59:02.49	0.27	24.69	-52.6	-54.2	16.8	0.00e+00	0	34	0	522190848	71	4321
2026-01-01 03:59:03.49	360.00	24.75	-52.8	-54.5	16.7	0.00e+00	0	34	0	523239424	71	4452
2026-01-01 03:59:04.49	359.72	24.80	-52.8	-54.5	16.6	0.00e+00	0	34	0	525336576	71	4472
2026-01-01 03:59:05.49	359.45	24.85	-52.7	-54.4	16.7	0.00e+00	0	34	0	527433728	71	4426
2026-01-01 03:59:06.49	359.17	24.90	-52.6	-54.2	16.7	0.00e+00	0	33	0	529530880	71	4325
2026-01-01 03:59:07.49	358.89	24.95	-52.5	-54.1	16.8	0.00e+00	0	34	0	531628032	71	4274
2026-01-01 03:59:08.49	358.61	25.00	-52.6	-54.3	16.8	0.00e+00	0	34	0	532676608	71	4369
2026-01-01 03:59:09.49	358.34	25.05	-52.9	-54.6	16.6	0.00e+00	0	34	0	534773760	71	4542
2026-01-01 03:59:10.49	358.06	25.09	-53.2	-55.0	16.4	0.00e+00	0	33	0	536870912	71	4757
2026-01-01 03:59:11.48	357.78	25.14	-53.0	-54.8	16.5	0.00e+00	0	34	0	538968064	71	4624
2026-01-01 03:59:12.48	357.50	25.19	-52.8	-54.6	16.6	0.00e+00	0	34	0	540016640	71	4529
2026-01-01 03:59:13.48	357.21	25.23	-52.6	-54.4	16.7	0.00e+00	0	34	0	542113792	71	4413
2026-01-01 03:59:14.48	356.93	25.28	-52.7	-54.4	16.7	0.00e+00	0	34	0	544210944	71	4422
2026-01-01 03:59:15.47	356.65	25.32	-52.6	-54.3	16.8	0.00e+00	0	34	0	546308096	71	4354
2026-01-01 03:59:16.47	356.37	25.36	-52.5	-54.2	16.7	0.00e+00	0	34	0	548405248	71	4339
2026-01-01 03:59:17.48	356.08	25.41	-52.8	-54.6	16.6	0.00e+00	0	34	0	549453824	71	4511
2026-01-01 03:59:18.49	355.79	25.45	-53.1	-54.9	16.6	0.00e+00	0	34	0	551550976	71	4664
2026-01-01 03:59:19.48	355.50	25.49	-53.2	-55.0	16.5	0.00e+00	0	34	0	553648128	71	4759
2026-01-01 03:59:20.48	355.22	25.53	-53.0	-54.8	16.6	0.00e+00	0	34	0	555745280	71	4619
2026-01-01 03:59:21.47	354.93	25.57	-53.2	-55.0	16.5	0.00e+00	0	34	0	557842432	71	4715
2026-01-01 03:59:22.47	354.64	25.61	-53.3	-55.1	16.5	0.00e+00	0	34	0	558891008	71	4789
2026-01-01 03:59:23.47	354.35	25.65	-53.7	-55.6	16.2	0.00e+00	0	34	0	560988160	72	4790
2026-01-01 03:59:24.47	354.06	25.68	-54.0	-56.0	16.1	0.00e+00	0	34	0	563085312	73	4751
2026-01-01 03:59:25.47	353.77	25.72	-54.5	-56.7	15.8	0.00e+00	0	34	0	565182464	74	4819
2026-01-01 03:59:26.48	353.47	25.76	-54.6	-56.9	15.7	0.00e+00	0	34	0	566231040	74	4970
2026-01-01 03:59:27.47	353.18	25.79	-54.5	-56.7	15.8	0.00e+00	0	34	0	568328192	74	4829
2026-01-01 03:59:28.48	352.89	25.83	-54.3	-56.5	15.9	0.00e+00	0	34	0	570425344	74	4706
2026-01-01 03:59:29.48	352.59	25.86	-54.0	-56.1	16.0	0.00e+00	0	34	0	572522496	74	4499
2026-01-01 03:59:30.49	352.30	25.89	-53.9	-56.0	16.1	0.00e+00	0	34	0	574619648	74	4458
2026-01-01 03:59:31.49	352.00	25.93	-54.0	-56.1	16.1	0.00e+00	0	34	0	575668224	74	4509
2026-01-01 03:59:32.49	351.71	25.96	-54.1	-56.2	16.0	0.00e+00	0	34	0	577765376	74	4581
2026-01-01 03:59:33.49	351.41	25.99	-54.2	-56.3	15.9	0.00e+00	0	34	0	579862528	74	4638
2026-01-01 03:59:34.49	351.11	26.02	-54.0	-56.2	16.0	0.00e+00	0	34	0	581959680	74	4563
2026-01-01 03:59:35.49	350.81	26.05	-54.1	-56.2	16.0	0.00e+00	0	34	0	584056832	74	4584
2026-01-01 03:59:36.49	350.52	26.07	-54.4	-56.7	15.7	0.00e+00	0	34	0	585105408	74	4822
2026-01-01 03:59:37.50	350.22	26.10	-54.5	-56.8	15.7	0.00e+00	0	34	0	587202560	74	4905
2026-01-01 03:59:38.50	349.92	26.13	-54.8	-57.2	15.5	0.00e+00	0	34	0	589299712	74	5150
2026-01-01 03:59:39.50	349.62	26.15	-54.8	-57.2	15.5	0.00e+00	0	34	0	591396864	74	5121
2026-01-01 03:59:40.49	349.32	26.18	-54.5	-56.9	15.6	0.00e+00	0	34	0	593494016	74	4934
2026-01-01 03:59:41.49	349.02	26.20	-54.1	-56.2	15.9	0.00e+00	0	34	0	594542592	74	4597
2026-01-01 03:59:42.48	348.72	26.22	-54.0	-56.1	16.0	0.00e+00	0	34	0	596639744	74	4539
2026-01-01 03:59:43.49	348.42	26.25	-54.2	-56.4	15.9	0.00e+00	0	34	0	598736896	74	4699
2026-01-01 03:59:44.48	348.12	26.27	-54.5	-57.0	15.6	0.00e+00	0	34	0	600834048	74	5001
2026-01-01 03:59:45.49	347.81	26.29	-54.8	-57.3	15.4	0.00e+00	0	34	0	601882624	74	5216
2026-01-01 03:59:46.48	347.51	26.31	-54.8	-57.3	15.4	0.00e+00	0	34	0	603979776	75	4911
2026-01-01 03:59:47.48	347.21	26.33	-54.5	-56.9	15.6	0.00e+00	0	34	0	606076928	75	4705
2026-01-01 03:59:48.48	346.91	26.34	-54.2	-56.5	15.8	0.00e+00	0	34	0	608174080	75	4476
2026-01-01 03:59:49.48	346.60	26.36	-53.9	-56.1	16.0	0.00e+00	0	34	0	610271232	74	4508
2026-01-01 03:59:50.47	346.30	26.38	-53.6	-55.8	16.1	0.00e+00	0	34	0	611319808	73	4606
2026-01-01 03:59:51.47	346.00	26.39	-53.6	-55.8	16.2	0.00e+00	0	34	0	613416960	73	4602
2026-01-01 03:59:52.46	345.70	26.41	-53.7	-55.8	16.1	0.00e+00	0	34	0	615514112	73	4647
2026-01-01 03:59:53.46	345.39	26.42	-53.9	-56.1	16.0	0.00e+00	0	34	0	617611264	73	4778
2026-01-01 03:59:54.46	345.09	26.43	-54.0	-56.3	15.9	0.00e+00	0	34	0	618659840	73	4872
2026-01-01 03:59:55.46	344.78	26.44	-54.4	-56.8	15.6	0.00e+00	0	33	0	620756992	73	5169
2026-01-01 03:59:56.46	344.48	26.46	-54.4	-56.7	15.6	0.00e+00	0	34	0	622854144	74	4867
2026-01-01 03:59:57.46	344.17	26.47	-54.5	-56.9	15.6	0.00e+00	0	34	0	624951296	74	4945
2026-01-01 03:59:58.46	343.86	26.47	-54.6	-57.1	15.6	0.00e+00	0	34	0	627048448	74	5055
2026-01-01 03:59:59.45	343.56	26.48	-54.5	-56.8	15.7	0.00e+00	0	34	0	628097024	74	4901
2026-01-01 04:00:00.45	343.25	26.49	-54.5	-56.8	15.7	0.00e+00	0	34	0	630194176	74	4903
2026-01-01 04:00:01.45	342.95	26.50	-54.6	-57.0	15.6	0.00e+00	0	34	0	632291328	74	5033
2026-01-01 04:00:02.46	342.64	26.50	-54.8	-57.2	15.5	0.00e+00	0	34	0	634388480	74	5140
2026-01-01 04:00:03.46	342.33	26.51	-54.3	-56.6	15.9	0.00e+00	0	34	0	636485632	74	4760
2026-01-01 04:00:04.46	342.02	26.51	-54.1	-56.3	16.0	0.00e+00	0	34	0	637534208	74	4603
2026-01-01 04:00:05.46	341.72	26.51	-53.6	-55.5	16.3	0.00e+00	0	34	0	639631360	73	4487
2026-01-01 04:00:06.45	341.41	26.51	-53.4	-55.3	16.4	0.00e+00	0	34	0	641728512	73	4363
2026-01-01 04:00:07.44	341.11	26.51	-53.4	-55.3	16.4	0.00e+00	0	34	0	643825664	73	4346
2026-01-01 04:00:08.44	340.80	26.51	-53.8	-55.9	16.2	0.00e+00	0	34	0	644874240	73	4676
2026-01-01 04:00:09.44	340.50	26.51	-54.3	-56.5	15.8	0.00e+00	0	34	0	646971392	73	5026
2026-01-01 04:00:10.44	340.19	26.51	-54.6	-56.9	15.7	0.00e+00	0	34	0	649068544	74	4962
2026-01-01 04:00:11.44	339.88	26.51	-54.8	-57.2	15.5	0.00e+00	0	34	0	651165696	74	5136
2026-01-01 04:00:12.45	339.57	26.51	-54.8	-57.3	15.5	0.00e+00	0	34	0	653262848	74	5197
2026-01-01 04:00:13.46	339.26	26.50	-54.5	-56.9	15.7	0.00e+00	0	34	0	654311424	74	4939
2026-01-01 04:00:14.46	338.96	26.50	-54.3	-56.6	15.8	0.00e+00	0	34	0	656408576	74	4767
2026-01-01 04:00:15.47	338.65	26.49	-54.4	-56.7	15.8	0.00e+00	0	34	0	658505728	74	4822
2026-01-01 04:00:16.47	338.34	26.48	-54.1	-56.3	16.0	0.00e+00	0	34	0	660602880	74	4619
2026-01-01 04:00:17.47	338.04	26.47	-54.1	-56.3	16.0	0.00e+00	0	34	0	662700032	74	4609
2026-01-01 04:00:18.46	337.73	26.46	-54.0	-56.1	16.1	0.00e+00	0	34	0	663748608	74	4535
2026-01-01 04:00:19.45	337.43	26.45	-53.6	-55.6	16.2	0.00e+00	0	34	0	665845760	73	4539
2026-01-01 04:00:20.46	337.12	26.44	-53.6	-55.6	16.2	0.00e+00	0	34	0	667942912	73	4518
2026-01-01 04:00:21.46	336.82	26.43	-53.2	-55.0	16.5	0.00e+00	0	34	0	670040064	73	4236
2026-01-01 04:00:22.46	336.51	26.42	-53.3	-55.2	16.4	0.00e+00	0	34	0	672137216	72	4555
2026-01-01 04:00:23.46	336.21	26.41	-53.3	-55.2	16.4	0.00e+00	0	34	0	673185792	72	4589
2026-01-01 04:00:24.47	335.90	26.39	-53.4	-55.3	16.4	0.00e+00	0	34	0	675282944	72	4632
2026-01-01 04:00:25.46	335.60	26.38	-53.5	-55.5	16.3	0.00e+00	0	34	0	677380096	72	4712
2026-01-01 04:00:26.46	335.29	26.36	-53.3	-55.2	16.5	0.00e+00	0	34	0	679477248	72	4546
2026-01-01 04:00:27.46	334.99	26.34	-53.4	-55.3	16.5	0.00e+00	0	34	0	680525824	72	4611
2026-01-01 04:00:28.46	334.69	26.32	-53.0	-54.8	16.6	0.00e+00	0	34	0	682622976	72	4366
2026-01-01 04:00:29.46	334.38	26.31	-52.7	-54.4	16.8	0.00e+00	0	34	0	684720128	72	4179
2026-01-01 04:00:30.46	334.08	26.29	-52.4	-54.0	16.9	0.00e+00	0	34	0	686817280	71	4214
2026-01-01 04:00:31.46	333.78	26.27	-52.1	-53.7	16.9	0.00e+00	0	34	0	688914432	70	4327
2026-01-01 04:00:32.46	333.48	26.24	-52.1	-53.7	17.0	0.00e+00	0	34	0	689963008	70	4299
2026-01-01 04:00:33.47	333.17	26.22	-52.1	-53.6	17.1	0.00e+00	0	34	0	692060160	70	4288
2026-01-01 04:00:34.47	332.87	26.20	-52.1	-53.6	17.0	0.00e+00	0	34	0	694157312	70	4281
2026-01-01 04:00:35.48	332.57	26.17	-52.5	-54.1	16.9	0.00e+00	0	34	0	696254464	70	4504
2026-01-01 04:00:36.48	332.27	26.15	-52.1	-53.7	17.0	0.00e+00	0	34	0	698351616	70	4314
2026-01-01 04:00:37.48	331.97	26.12	-52.2	-53.8	17.0	0.00e+00	0	34	0	699400192	70	4346
2026-01-01 04:00:38.47	331.67	26.10	-52.3	-53.9	16.9	0.00e+00	0	34	0	701497344	70	4441
2026-01-01 04:00:39.47	331.37	26.07	-52.8	-54.5	16.7	0.00e+00	0	34	0	703594496	70	4717
2026-01-01 04:00:40.48	331.07	26.04	-52.8	-54.5	16.6	0.00e+00	0	34	0	705691648	71	4487
2026-01-01 04:00:41.48	330.77	26.01	-53.0	-54.7	16.7	0.00e+00	0	34	0	707788800	71	4578
2026-01-01 04:00:42.47	330.48	25.98	-53.0	-54.7	16.7	0.00e+00	0	34	0	708837376	71	4556
2026-01-01 04:00:43.47	330.18	25.95	-53.1	-54.9	16.6	0.00e+00	0	34	0	710934528	71	4657
2026-01-01 04:00:44.47	329.89	25.92	-53.1	-54.9	16.7	0.00e+00	0	34	0	713031680	71	4665
2026-01-01 04:00:45.48	329.59	25.89	-53.1	-54.8	16.7	0.00e+00	0	34	0	715128832	71	4633
2026-01-01 04:00:46.48	329.29	25.85	-52.8	-54.4	16.8	0.00e+00	0	34	0	717225984	71	4426
2026-01-01 04:00:47.47	329.00	25.82	-52.7	-54.4	16.8	0.00e+00	0	34	0	718274560	71	4409
2026-01-01 04:00:48.48	328.71	25.79	-52.8	-54.4	16.8	0.00e+00	0	34	0	720371712	71	4425
2026-01-01 04:00:49.48	328.41	25.75	-53.3	-55.0	16.6	0.00e+00	0	34	0	722468864	71	4736
2026-01-01 04:00:50.47	328.12	25.72	-53.5	-55.3	16.5	0.00e+00	0	34	0	724566016	72	4629
2026-01-01 04:00:51.47	327.83	25.68	-53.6	-55.4	16.5	0.00e+00	0	34	0	725614592	72	4670
2026-01-01 04:00:52.46	327.55	25.64	-53.6	-55.4	16.5	0.00e+00	0	34	0	727711744	72	4685
2026-01-01 04:00:53.46	327.26	25.60	-53.6	-55.5	16.4	0.00e+00	0	34	0	729808896	72	4710
2026-01-01 04:00:54.46	326.97	25.56	-54.0	-55.9	16.2	0.00e+00	0	34	0	731906048	73	4700
2026-01-01 04:00:55.46	326.68	25.52	-54.2	-56.1	16.2	0.00e+00	0	34	0	734003200	73	4794
2026-01-01 04:00:56.45	326.39	25.48	-54.1	-56.1	16.2	0.00e+00	0	34	0	735051776	73	4769
2026-01-01 04:00:57.45	326.11	25.44	-53.8	-55.6	16.4	0.00e+00	0	34	0	737148928	73	4540
2026-01-01 04:00:58.45	325.82	25.40	-53.3	-55.1	16.6	0.00e+00	0	34	0	739246080	73	4256
2026-01-01 04:00:59.45	325.53	25.36	-53.3	-55.0	16.6	0.00e+00	0	34	0	741343232	73	4212
2026-01-01 04:01:00.45	325.25	25.31	-53.4	-55.2	16.5	0.00e+00	0	34	0	742391808	72	4579
2026-01-01 04:01:01.46	324.96	25.27	-53.8	-55.7	16.3	0.00e+00	0	34	0	744488960	72	4830
2026-01-01 04:01:02.44	324.68	25.22	-53.8	-55.7	16.4	0.00e+00	0	34	0	746586112	72	4816
2026-01-01 04:01:03.45	324.40	25.18	-53.9	-55.8	16.3	0.00e+00	0	34	0	748683264	72	4886
2026-01-01 04:01:04.45	324.12	25.13	-54.2	-56.2	16.1	0.00e+00	0	34	0	750780416	73	4860
2026-01-01 04:01:05.45	323.84	25.09	-54.3	-56.4	15.9	0.00e+00	0	34	0	751828992	73	4974
2026-01-01 04:01:06.45	323.56	25.04	-54.5	-56.6	15.9	0.00e+00	0	34	0	753926144	74	4810
2026-01-01 04:01:07.46	323.28	24.99	-54.6	-56.9	15.8	0.00e+00	0	34	0	756023296	74	4941
2026-01-01 04:01:08.46	323.00	24.94	-54.5	-56.8	15.8	0.00e+00	0	34	0	758120448	74	4879
2026-01-01 04:01:09.46	322.72	24.89	-54.6	-56.9	15.8	0.00e+00	0	34	0	760217600	74	4930
2026-01-01 04:01:10.45	322.45	24.84	-54.7	-57.0	15.8	0.00e+00	0	34	0	761266176	74	4997
2026-01-01 04:01:11.45	322.17	24.79	-54.9	-57.3	15.6	0.00e+00	0	34	0	763363328	74	5160
2026-01-01 04:01:12.45	321.90	24.74	-54.9	-57.4	15.5	0.00e+00	0	34	0	765460480	75	4934
2026-01-01 04:01:13.45	321.62	24.69	-54.7	-57.1	15.7	0.00e+00	0	34	0	767557632	75	4767
2026-01-01 04:01:14.44	321.35	24.63	-54.4	-56.6	15.9	0.00e+00	0	34	0	769654784	75	4527
2026-01-01 04:01:15.45	321.08	24.58	-54.2	-56.4	16.0	0.00e+00	0	34	0	770703360	74	4667
2026-01-01 04:01:16.45	320.81	24.53	-54.0	-56.1	16.1	0.00e+00	0	34	0	772800512	74	4506
2026-01-01 04:01:17.45	320.54	24.47	-54.1	-56.3	16.1	0.00e+00	0	34	0	774897664	74	4611
2026-01-01 04:01:18.45	320.27	24.42	-54.3	-56.5	15.9	0.00e+00	0	34	0	776994816	74	4728
2026-01-01 04:01:19.45	320.00	24.36	-54.5	-56.8	15.8	0.00e+00	0	34	0	778043392	74	4898
2026-01-01 04:01:20.45	319.73	24.30	-54.7	-57.0	15.7	0.00e+00	0	34	0	780140544	74	5010
2026-01-01 04:01:21.45	319.47	24.25	-54.7	-57.1	15.6	0.00e+00	0	34	0	782237696	74	5077
2026-01-01 04:01:22.45	319.20	24.19	-54.4	-56.7	15.8	0.00e+00	0	34	0	784334848	74	4816
2026-01-01 04:01:23.45	318.94	24.13	-54.3	-56.5	15.9	0.00e+00	0	34	0	786432000	74	4736
2026-01-01 04:01:24.45	318.67	24.07	-54.0	-56.1	16.0	0.00e+00	0	34	0	787480576	74	4541
2026-01-01 04:01:25.45	318.41	24.02	-54.0	-56.1	16.1	0.00e+00	0	34	0	789577728	74	4507
2026-01-01 04:01:26.44	318.15	23.96	-54.1	-56.2	16.0	0.00e+00	0	34	0	791674880	74	4561
2026-01-01 04:01:27.44	317.89	23.90	-53.9	-55.9	16.1	0.00e+00	0	34	0	793772032	74	4439
2026-01-01 04:01:28.44	317.63	23.84	-53.9	-56.0	16.1	0.00e+00	0	34	0	795869184	74	4446
2026-01-01 04:01:29.44	317.38	23.78	-54.0	-56.1	16.0	0.00e+00	0	34	0	796917760	74	4517
2026-01-01 04:01:30.43	317.12	23.72	-53.9	-56.1	16.1	0.00e+00	0	34	0	799014912	74	4505
2026-01-01 04:01:31.43	316.86	23.65	-54.5	-56.9	15.6	0.00e+00	0	34	0	801112064	74	4931
2026-01-01 04:01:32.42	316.61	23.59	-54.7	-57.2	15.5	0.00e+00	0	34	0	803209216	74	5124
2026-01-01 04:01:33.41	316.36	23.53	-54.7	-57.2	15.4	0.00e+00	0	34	0	804257792	74	5127
2026-01-01 04:01:34.41	316.11	23.47	-54.4	-56.8	15.6	0.00e+00	0	34	0	806354944	74	4894
2026-01-01 04:01:35.41	315.85	23.40	-54.0	-56.2	15.9	0.00e+00	0	34	0	808452096	74	4594
2026-01-01 04:01:36.41	315.60	23.34	-53.8	-56.0	16.0	0.00e+00	0	34	0	810549248	74	4466
2026-01-01 04:01:37.41	315.35	23.27	-53.7	-55.9	16.1	0.00e+00	0	34	0	812646400	74	4415
2026-01-01 04:01:38.41	315.10	23.21	-54.0	-56.2	16.0	0.00e+00	0	34	0	813694976	74	4590
2026-01-01 04:01:39.41	314.86	23.14	-54.4	-56.8	15.7	0.00e+00	0	33	0	815792128	74	4905
2026-01-01 04:01:40.40	314.61	23.08	-54.7	-57.2	15.5	0.00e+00	0	34	0	817889280	74	5140
2026-01-01 04:01:41.39	314.37	23.01	-54.8	-57.3	15.4	0.00e+00	0	34	0	819986432	75	4911
2026-01-01 04:01:42.38	314.13	22.95	-55.1	-57.9	15.0	0.00e+00	0	34	0	821035008	75	5270
2026-01-01 04:01:43.38	313.88	22.88	-55.0	-57.7	15.2	0.00e+00	0	33	0	823132160	75	5133
2026-01-01 04:01:44.37	313.64	22.81	-54.9	-57.5	15.3	0.00e+00	0	34	0	825229312	75	5040
2026-01-01 04:01:45.37	313.40	22.75	-54.7	-57.3	15.4	0.00e+00	0	34	0	827326464	75	4910
2026-01-01 04:01:46.37	313.16	22.68	-54.7	-57.3	15.5	0.00e+00	0	34	0	829423616	75	4873
2026-01-01 04:01:47.37	312.92	22.61	-54.0	-56.2	16.0	0.00e+00	0	34	0	830472192	74	4592
2026-01-01 04:01:48.36	312.68	22.54	-53.8	-55.9	16.2	0.00e+00	0	34	0	832569344	74	4424
2026-01-01 04:01:49.36	312.45	22.47	-53.6	-55.6	16.3	0.00e+00	0	34	0	834666496	73	4527
2026-01-01 04:01:50.36	312.21	22.40	-53.5	-55.5	16.3	0.00e+00	0	34	0	836763648	73	4476
2026-01-01 04:01:51.36	311.97	22.33	-53.7	-55.8	16.2	0.00e+00	0	34	0	837812224	73	4599
2026-01-01 04:01:52.35	311.74	22.26	-53.8	-55.9	16.1	0.00e+00	0	34	0	839909376	73	4660
2026-01-01 04:01:53.35	311.51	22.19	-54.1	-56.3	15.9	0.00e+00	0	34	0	842006528	73	4917
2026-01-01 04:01:54.35	311.28	22.12	-54.1	-56.4	15.8	0.00e+00	0	34	0	844103680	73	4930
2026-01-01 04:01:55.35	311.05	22.05	-54.4	-56.8	15.7	0.00e+00	0	34	0	846200832	73	5185
2026-01-01 04:01:56.34	310.82	21.98	-54.3	-56.7	15.7	0.00e+00	0	34	0	847249408	74	4832
2026-01-01 04:01:57.34	310.59	21.91	-53.9	-56.1	16.0	0.00e+00	0	34	0	849346560	74	4529
2026-01-01 04:01:58.34	310.36	21.84	-53.4	-55.5	16.3	0.00e+00	0	34	0	851443712	73	4460
2026-01-01 04:01:59.35	310.13	21.76	-53.3	-55.3	16.4	0.00e+00	0	34	0	853540864	73	4359
2026-01-01 04:02:00.35	309.91	21.69	-52.8	-54.7	16.6	0.00e+00	0	34	0	855638016	72	4300
2026-01-01 04:02:01.35	309.68	21.62	-52.5	-54.2	16.8	0.00e+00	0	34	0	856686592	71	4320
2026-01-01 04:02:02.34	309.46	21.55	-52.2	-53.9	16.8	0.00e+00	0	34	0	858783744	70	4400
2026-01-01 04:02:03.34	309.24	21.47	-52.2	-53.9	16.7	0.00e+00	0	34	0	860880896	70	4434
2026-01-01 04:02:04.34	309.02	21.40	-52.4	-54.2	16.7	0.00e+00	0	34	0	862978048	70	4597
2026-01-01 04:02:05.34	308.80	21.32	-52.6	-54.5	16.6	0.00e+00	0	34	0	865075200	70	4714
2026-01-01 04:02:06.35	308.58	21.25	-52.9	-54.8	16.5	0.00e+00	0	34	0	866123776	70	4900
2026-01-01 04:02:07.34	308.36	21.18	-53.1	-55.0	16.4	0.00e+00	0	34	0	868220928	71	4746
2026-01-01 04:02:08.34	308.14	21.10	-53.0	-54.9	16.5	0.00e+00	0	34	0	870318080	71	4684
2026-01-01 04:02:09.33	307.93	21.03	-53.0	-55.0	16.4	0.00e+00	0	34	0	872415232	71	4710
2026-01-01 04:02:10.32	307.71	20.95	-53.1	-55.1	16.4	0.00e+00	0	34	0	873463808	71	4770
2026-01-01 04:02:11.32	307.50	20.88	-53.3	-55.3	16.3	0.00e+00	0	34	0	875560960	71	4876
2026-01-01 04:02:12.33	307.29	20.80	-53.2	-55.2	16.3	0.00e+00	0	34	0	877658112	71	4850
2026-01-01 04:02:13.33	307.07	20.73	-53.2	-55.2	16.3	0.00e+00	0	34	0	879755264	71	4848
2026-01-01 04:02:14.33	306.86	20.65	-53.3	-55.3	16.2	0.00e+00	0	34	0	881852416	71	4881
2026-01-01 04:02:15.33	306.65	20.58	-53.2	-55.2	16.3	0.00e+00	0	34	0	882900992	71	4830
2026-01-01 04:02:16.32	306.45	20.50	-53.1	-55.1	16.3	0.00e+00	0	34	0	884998144	71	4777
2026-01-01 04:02:17.32	306.24	20.42	-53.1	-55.1	16.3	0.00e+00	0	34	0	887095296	71	4771
2026-01-01 04:02:18.32	306.03	20.35	-53.2	-55.3	16.2	0.00e+00	0	34	0	889192448	71	4913
2026-01-01 04:02:19.32	305.83	20.27	-53.2	-55.3	16.2	0.00e+00	0	34	0	891289600	71	4921
2026-01-01 04:02:20.32	305.62	20.19	-53.4	-55.5	16.1	0.00e+00	0	34	0	892338176	72	4759
2026-01-01 04:02:21.32	305.42	20.12	-53.3	-55.4	16.2	0.00e+00	0	34	0	894435328	72	4702
2026-01-01 04:02:22.33	305.21	20.04	-53.3	-55.3	16.3	0.00e+00	0	34	0	896532480	72	4641
2026-01-01 04:02:23.33	305.01	19.96	-53.5	-55.6	16.2	0.00e+00	0	34	0	898629632	72	4774
2026-01-01 04:02:24.33	304.81	19.89	-53.7	-55.9	16.1	0.00e+00	0	34	0	899678208	72	4966
2026-01-01 04:02:25.32	304.61	19.81	-53.9	-56.2	15.9	0.00e+00	0	34	0	901775360	73	4832
2026-01-01 04:02:26.32	304.41	19.73	-53.9	-56.2	15.9	0.00e+00	0	34	0	903872512	73	4857
2026-01-01 04:02:27.32	304.22	19.65	-53.7	-55.9	16.0	0.00e+00	0	34	0	905969664	73	4682
2026-01-01 04:02:28.31	304.02	19.58	-53.4	-55.5	16.3	0.00e+00	0	34	0	908066816	73	4458
2026-01-01 04:02:29.30	303.83	19.50	-53.5	-55.5	16.2	0.00e+00	0	34	0	909115392	73	4464
2026-01-01 04:02:30.31	303.63	19.42	-53.2	-55.2	16.4	0.00e+00	0	34	0	911212544	73	4312
2026-01-01 04:02:31.30	303.44	19.34	-53.3	-55.3	16.4	0.00e+00	0	34	0	913309696	73	4355
2026-01-01 04:02:32.30	303.25	19.27	-53.3	-55.3	16.3	0.00e+00	0	34	0	915406848	73	4357
2026-01-01 04:02:33.30	303.06	19.19	-53.7	-55.8	16.1	0.00e+00	0	33	0	916455424	73	4615
2026-01-01 04:02:34.30	302.87	19.11	-53.7	-55.8	16.1	0.00e+00	0	34	0	918552576	73	4643
2026-01-01 04:02:35.30	302.68	19.03	-53.6	-55.6	16.1	0.00e+00	0	34	0	920649728	73	4530
2026-01-01 04:02:36.31	302.49	18.95	-53.1	-55.1	16.4	0.00e+00	0	34	0	922746880	72	4496
2026-01-01 04:02:37.31	302.30	18.87	-52.9	-54.8	16.6	0.00e+00	0	34	0	924844032	72	4346
2026-01-01 04:02:38.31	302.11	18.79	-52.6	-54.4	16.7	0.00e+00	0	34	0	925892608	71	4415
2026-01-01 04:02:39.31	301.93	18.72	-52.5	-54.2	16.8	0.00e+00	0	34	0	927989760	71	4331
2026-01-01 04:02:40.30	301.74	18.64	-52.4	-54.1	16.8	0.00e+00	0	34	0	930086912	71	4282
2026-01-01 04:02:41.29	301.56	18.56	-52.4	-54.1	16.8	0.00e+00	0	34	0	932184064	71	4248
2026-01-01 04:02:42.29	301.38	18.48	-52.4	-54.0	16.8	0.00e+00	0	34	0	934281216	71	4241
2026-01-01 04:02:43.29	301.20	18.40	-52.4	-54.1	16.8	0.00e+00	0	34	0	935329792	71	4263
2026-01-01 04:02:44.29	301.02	18.32	-52.5	-54.2	16.8	0.00e+00	0	34	0	937426944	71	4316
2026-01-01 04:02:45.29	300.84	18.24	-52.6	-54.2	16.8	0.00e+00	0	34	0	939524096	71	4339
2026-01-01 04:02:46.29	300.66	18.16	-52.8	-54.6	16.6	0.00e+00	0	34	0	941621248	71	4508
2026-01-01 04:02:47.29	300.48	18.09	-52.9	-54.7	16.6	0.00e+00	0	34	0	943718400	71	4590
2026-01-01 04:02:48.28	300.30	18.01	-53.1	-54.9	16.5	0.00e+00	0	34	0	944766976	71	4682
2026-01-01 04:02:49.26	300.13	17.93	-53.0	-54.8	16.5	0.00e+00	0	34	0	946864128	71	4650
2026-01-01 04:02:50.26	299.96	17.85	-53.0	-54.8	16.6	0.00e+00	0	34	0	948961280	71	4624
2026-01-01 04:02:51.25	299.78	17.77	-52.9	-54.7	16.7	0.00e+00	0	34	0	951058432	71	4546
2026-01-01 04:02:52.25	299.61	17.69	-52.7	-54.4	16.8	0.00e+00	0	34	0	952107008	71	4411
2026-01-01 04:02:53.24	299.44	17.61	-52.6	-54.3	16.8	0.00e+00	0	34	0	954204160	71	4386
2026-01-01 04:02:54.24	299.27	17.54	-52.6	-54.3	16.8	0.00e+00	0	34	0	956301312	71	4385
2026-01-01 04:02:55.24	299.10	17.46	-52.7	-54.4	16.8	0.00e+00	0	34	0	958398464	71	4412
2026-01-01 04:02:56.24	298.93	17.38	-52.6	-54.3	16.8	0.00e+00	0	34	0	960495616	71	4366
2026-01-01 04:02:57.24	298.76	17.30	-52.8	-54.5	16.7	0.00e+00	0	34	0	961544192	71	4466
2026-01-01 04:02:58.24	298.59	17.22	-52.9	-54.6	16.7	0.00e+00	0	34	0	963641344	71	4534
2026-01-01 04:02:59.23	298.43	17.14	-53.0	-54.7	16.7	0.00e+00	0	33	0	965738496	71	4570
2026-01-01 04:03:00.24	298.26	17.06	-53.0	-54.7	16.6	0.00e+00	0	34	0	967835648	71	4577
2026-01-01 04:03:01.23	298.10	16.98	-53.1	-54.9	16.6	0.00e+00	0	34	0	968884224	71	4693
2026-01-01 04:03:02.24	297.93	16.90	-53.1	-54.9	16.6	0.00e+00	0	33	0	970981376	71	4655
2026-01-01 04:03:03.23	297.77	16.82	-53.0	-54.8	16.6	0.00e+00	0	34	0	973078528	71	4635
2026-01-01 04:03:04.23	297.60	16.74	-53.2	-55.0	16.5	0.00e+00	0	34	0	975175680	71	4712
2026-01-01 04:03:05.23	297.44	16.66	-53.0	-54.8	16.6	0.00e+00	0	34	0	977272832	71	4625
2026-01-01 04:03:06.23	297.28	16.58	-52.9	-54.6	16.8	0.00e+00	0	34	0	978321408	71	4500
2026-01-01 04:03:07.22	297.12	16.51	-52.6	-54.2	16.8	0.00e+00	0	33	0	980418560	71	4321
2026-01-01 04:03:08.22	296.96	16.43	-52.4	-54.1	16.9	0.00e+00	0	33	0	982515712	71	4246
2026-01-01 04:03:09.22	296.81	16.35	-52.3	-53.9	16.9	0.00e+00	0	34	0	984612864	71	4185
2026-01-01 04:03:10.21	296.65	16.27	-52.6	-54.2	16.8	0.00e+00	0	34	0	986710016	71	4330
2026-01-01 04:03:11.21	296.49	16.19	-52.7	-54.3	16.7	0.00e+00	0	33	0	987758592	71	4380
2026-01-01 04:03:12.21	296.34	16.11	-52.9	-54.6	16.7	0.00e+00	0	34	0	989855744	71	4517
2026-01-01 04:03:13.21	296.18	16.03	-53.3	-55.2	16.5	0.00e+00	0	33	0	991952896	71	4830
2026-01-01 04:03:14.20	296.03	15.95	-53.6	-55.5	16.3	0.00e+00	0	34	0	994050048	72	4725
2026-01-01 04:03:15.21	295.88	15.88	-53.7	-55.6	16.2	0.00e+00	0	34	0	995098624	72	4812
2026-01-01 04:03:16.20	295.72	15.80	-53.7	-55.6	16.2	0.00e+00	0	34	0	997195776	72	4793
2026-01-01 04:03:17.20	295.57	15.72	-53.7	-55.6	16.2	0.00e+00	0	34	0	999292928	72	4810
2026-01-01 04:03:18.20	295.42	15.64	-53.4	-55.3	16.4	0.00e+00	0	34	0	1001390080	72	4614
2026-01-01 04:03:19.20	295.27	15.56	-53.4	-55.2	16.4	0.00e+00	0	34	0	1003487232	72	4585
2026-01-01 04:03:20.20	295.12	15.48	-53.4	-55.2	16.4	0.00e+00	0	34	0	1004535808	72	4565
2026-01-01 04:03:21.19	294.98	15.40	-53.2	-55.0	16.5	0.00e+00	0	34	0	1006632960	72	4445
2026-01-01 04:03:22.18	294.83	15.33	-53.2	-55.0	16.5	0.00e+00	0	34	0	1008730112	72	4479
2026-01-01 04:03:23.18	294.68	15.25	-53.0	-54.8	16.6	0.00e+00	0	34	0	1010827264	72	4343
2026-01-01 04:03:24.17	294.54	15.17	-53.2	-55.1	16.5	0.00e+00	0	34	0	1012924416	72	4498
2026-01-01 04:03:25.17	294.39	15.09	-53.1	-54.9	16.5	0.00e+00	0	34	0	1013972992	72	4429
2026-01-01 04:03:26.18	294.25	15.01	-53.1	-54.9	16.5	0.00e+00	0	34	0	1016070144	72	4423
2026-01-01 04:03:27.17	294.10	14.94	-53.2	-55.0	16.5	0.00e+00	0	34	0	1018167296	72	4451
2026-01-01 04:03:28.18	293.96	14.86	-53.2	-55.0	16.5	0.00e+00	0	34	0	1020264448	72	4447
2026-01-01 04:03:29.17	293.82	14.78	-53.3	-55.1	16.5	0.00e+00	0	34	0	1021313024	72	4520
2026-01-01 04:03:30.17	293.68	14.70	-53.5	-55.4	16.4	0.00e+00	0	34	0	1023410176	72	4698
2026-01-01 04:03:31.17	293.54	14.62	-54.0	-55.9	16.1	0.00e+00	0	34	0	1025507328	73	4705
2026-01-01 04:03:32.17	293.40	14.55	-54.1	-56.1	16.0	0.00e+00	0	34	0	1027604480	73	4803
2026-01-01 04:03:33.18	293.26	14.47	-54.4	-56.6	15.9	0.00e+00	0	34	0	1029701632	74	4762
2026-01-01 04:03:34.18	293.12	14.39	-54.4	-56.6	15.9	0.00e+00	0	34	0	1030750208	74	4765
2026-01-01 04:03:35.18	292.98	14.31	-54.3	-56.4	15.9	0.00e+00	0	34	0	1032847360	74	4688
2026-01-01 04:03:36.19	292.84	14.23	-54.3	-56.4	15.9	0.00e+00	0	34	0	1034944512	74	4658
2026-01-01 04:03:37.19	292.70	14.16	-54.2	-56.2	16.0	0.00e+00	0	34	0	1037041664	74	4596
2026-01-01 04:03:38.18	292.57	14.08	-53.7	-55.6	16.2	0.00e+00	0	34	0	1039138816	74	4274
2026-01-01 04:03:39.18	292.44	14.00	-53.4	-55.2	16.4	0.00e+00	0	34	0	1040187392	73	4310
2026-01-01 04:03:40.18	292.30	13.93	-53.1	-54.9	16.5	0.00e+00	0	34	0	1042284544	72	4428
2026-01-01 04:03:41.18	292.17	13.85	-52.9	-54.6	16.7	0.00e+00	0	34	0	1044381696	72	4268
2026-01-01 04:03:42.18	292.03	13.77	-53.2	-54.9	16.5	0.00e+00	0	34	0	1046478848	72	4433
2026-01-01 04:03:43.19	291.90	13.69	-53.4	-55.2	16.4	0.00e+00	0	34	0	1047527424	72	4570
2026-01-01 04:03:44.19	291.77	13.62	-53.4	-55.3	16.4	0.00e+00	0	34	0	1049624576	72	4600
2026-01-01 04:03:45.19	291.64	13.54	-53.5	-55.4	16.3	0.00e+00	0	34	0	1051721728	72	4674
2026-01-01 04:03:46.18	291.51	13.46	-53.5	-55.4	16.3	0.00e+00	0	34	0	1053818880	72	4669
2026-01-01 04:03:47.18	291.38	13.39	-53.6	-55.4	16.3	0.00e+00	0	34	0	1055916032	72	4688
2026-01-01 04:03:48.18	291.25	13.31	-53.4	-55.3	16.3	0.00e+00	0	34	0	1056964608	72	4612
2026-01-01 04:03:49.18	291.12	13.23	-53.5	-55.3	16.3	0.00e+00	0	34	0	1059061760	72	4645
2026-01-01 04:03:50.18	291.00	13.16	-53.4	-55.3	16.3	0.00e+00	0	34	0	1061158912	72	4616
2026-01-01 04:03:51.18	290.87	13.08	-53.3	-55.1	16.4	0.00e+00	0	34	0	1063256064	72	4540
2026-01-01 04:03:52.19	290.74	13.01	-53.4	-55.3	16.3	0.00e+00	0	34	0	1065353216	72	4624
2026-01-01 04:03:53.18	290.62	12.93	-53.4	-55.3	16.3	0.00e+00	0	34	0	1066401792	72	4624
2026-01-01 04:03:54.18	290.50	12.85	-53.6	-55.6	16.3	0.00e+00	0	34	0	1068498944	72	4760
2026-01-01 04:03:55.18	290.37	12.78	-53.7	-55.7	16.2	0.00e+00	0	34	0	1070596096	72	4831
2026-01-01 04:03:56.18	290.25	12.70	-53.8	-55.8	16.1	0.00e+00	0	34	0	1072693248	72	4900
2026-01-01 04:03:57.17	290.13	12.63	-53.8	-55.9	16.0	0.00e+00	0	34	0	1074790400	72	4940
2026-01-01 04:03:58.16	290.01	12.55	-54.0	-56.1	16.0	0.00e+00	0	34	0	1075838976	73	4766
2026-01-01 04:03:59.16	289.88	12.48	-54.0	-56.1	15.9	0.00e+00	0	33	0	1077936128	73	4804
2026-01-01 04:04:00.16	289.76	12.40	-54.0	-56.1	16.0	0.00e+00	0	34	0	1080033280	73	4798
2026-01-01 04:04:01.16	289.64	12.33	-54.1	-56.3	15.9	0.00e+00	0	34	0	1082130432	73	4873
2026-01-01 04:04:02.16	289.52	12.25	-54.1	-56.2	15.9	0.00e+00	0	34	0	1083179008	73	4846
2026-01-01 04:04:03.16	289.41	12.18	-54.2	-56.3	15.8	0.00e+00	0	34	0	1085276160	73	4926
2026-01-01 04:04:04.16	289.29	12.10	-54.3	-56.5	15.7	0.00e+00	0	34	0	1087373312	73	4985
2026-01-01 04:04:05.16	289.17	12.03	-54.5	-56.8	15.6	0.00e+00	0	34	0	1089470464	74	4912
2026-01-01 04:04:06.16	289.05	11.95	-54.5	-56.8	15.6	0.00e+00	0	34	0	1091567616	74	4922
2026-01-01 04:04:07.15	288.94	11.88	-54.7	-57.1	15.5	0.00e+00	0	34	0	1092616192	74	5078
2026-01-01 04:04:08.16	288.82	11.80	-55.1	-57.6	15.1	0.00e+00	0	34	0	1094713344	75	5056
2026-01-01 04:04:09.15	288.71	11.73	-55.0	-57.5	15.2	0.00e+00	0	34	0	1096810496	75	5029
2026-01-01 04:04:10.15	288.59	11.66	-55.0	-57.5	15.2	0.00e+00	0	34	0	1098907648	75	4989
2026-01-01 04:04:11.14	288.48	11.58	-55.0	-57.4	15.3	0.00e+00	0	34	0	1099956224	75	4967
2026-01-01 04:04:12.14	288.36	11.51	-54.8	-57.2	15.4	0.00e+00	0	34	0	1102053376	75	4862
2026-01-01 04:04:13.14	288.25	11.44	-54.6	-56.9	15.5	0.00e+00	0	34	0	1104150528	75	4698
2026-01-01 04:04:14.14	288.14	11.36	-54.5	-56.7	15.6	0.00e+00	0	34	0	1106247680	75	4575
2026-01-01 04:04:15.14	288.03	11.29	-54.4	-56.6	15.7	0.00e+00	0	34	0	1108344832	75	4539
2026-01-01 04:04:16.13	287.92	11.22	-54.3	-56.4	15.8	0.00e+00	0	34	0	1109393408	75	4434
2026-01-01 04:04:17.13	287.81	11.14	-54.3	-56.4	15.8	0.00e+00	0	34	0	1111490560	75	4409
2026-01-01 04:04:18.14	287.70	11.07	-54.2	-56.3	15.7	0.00e+00	0	34	0	1113587712	74	4646
2026-01-01 04:04:19.13	287.59	11.00	-54.3	-56.4	15.8	0.00e+00	0	34	0	1115684864	74	4672
2026-01-01 04:04:20.13	287.48	10.92	-54.2	-56.3	15.8	0.00e+00	0	34	0	1117782016	74	4648
2026-01-01 04:04:21.13	287.37	10.85	-54.3	-56.4	15.8	0.00e+00	0	34	0	1118830592	74	4678
2026-01-01 04:04:22.13	287.26	10.78	-54.6	-56.8	15.5	0.00e+00	0	34	0	1120927744	74	4907
2026-01-01 04:04:23.12	287.16	10.70	-54.7	-56.9	15.5	0.00e+00	0	34	0	1123024896	74	4983
2026-01-01 04:04:24.11	287.05	10.63	-54.9	-57.3	15.3	0.00e+00	0	34	0	1125122048	74	5160
2026-01-01 04:04:25.10	286.95	10.56	-55.0	-57.3	15.3	0.00e+00	0	34	0	1126170624	75	4916
2026-01-01 04:04:26.10	286.84	10.49	-55.1	-57.5	15.2	0.00e+00	0	34	0	1128267776	75	5022
2026-01-01 04:04:27.09	286.74	10.42	-55.0	-57.4	15.2	0.00e+00	0	34	0	1130364928	75	4946
2026-01-01 04:04:28.09	286.63	10.35	-55.0	-57.4	15.2	0.00e+00	0	34	0	1132462080	75	4937
2026-01-01 04:04:29.10	286.53	10.27	-55.0	-57.5	15.2	0.00e+00	0	34	0	1134559232	75	4992
2026-01-01 04:04:30.10	286.42	10.20	-54.9	-57.3	15.3	0.00e+00	0	34	0	1135607808	75	4897
2026-01-01 04:04:31.10	286.32	10.13	-54.7	-56.9	15.5	0.00e+00	0	34	0	1137704960	75	4703
2026-01-01 04:04:32.10	286.22	10.06	-54.5	-56.7	15.6	0.00e+00	0	34	0	1139802112	75	4583
2026-01-01 04:04:33.09	286.12	9.99	-54.5	-56.7	15.6	0.00e+00	0	34	0	1141899264	75	4584
2026-01-01 04:04:34.09	286.02	9.91	-54.2	-56.3	15.8	0.00e+00	0	33	0	1142947840	75	4380
2026-01-01 04:04:35.09	285.91	9.84	-54.2	-56.4	15.8	0.00e+00	0	33	0	1145044992	75	4405
2026-01-01 04:04:36.09	285.81	9.77	-54.2	-56.4	15.8	0.00e+00	0	34	0	1147142144	75	4409
2026-01-01 04:04:37.09	285.71	9.70	-54.1	-56.2	15.8	0.00e+00	0	34	0	1149239296	74	4597
2026-01-01 04:04:38.09	285.61	9.63	-54.3	-56.4	15.7	0.00e+00	0	34	0	1151336448	74	4696
2026-01-01 04:04:39.09	285.52	9.56	-54.4	-56.7	15.6	0.00e+00	0	34	0	1152385024	74	4818
2026-01-01 04:04:40.08	285.42	9.49	-54.5	-56.7	15.6	0.00e+00	0	34	0	1154482176	74	4863
2026-01-01 04:04:41.08	285.32	9.42	-54.7	-57.0	15.4	0.00e+00	0	34	0	1156579328	74	5040
2026-01-01 04:04:42.08	285.22	9.35	-54.8	-57.2	15.3	0.00e+00	0	34	0	1158676480	74	5113
2026-01-01 04:04:43.08	285.13	9.28	-55.0	-57.4	15.2	0.00e+00	0	34	0	1160773632	75	4957
2026-01-01 04:04:44.08	285.03	9.21	-55.1	-57.7	15.0	0.00e+00	0	34	0	1161822208	75	5104
2026-01-01 04:04:45.08	284.93	9.14	-55.3	-57.9	14.9	0.00e+00	0	34	0	1163919360	75	5269
2026-01-01 04:04:46.08	284.84	9.07	-55.5	-58.1	14.8	0.00e+00	0	34	0	1166016512	76	5090
2026-01-01 04:04:47.07	284.74	9.00	-55.5	-58.2	14.8	0.00e+00	0	34	0	1168113664	76	5110
2026-01-01 04:04:48.07	284.65	8.93	-55.7	-58.5	14.6	0.00e+00	0	34	0	1170210816	76	5312
2026-01-01 04:04:49.08	284.55	8.86	-55.8	-58.6	14.5	0.00e+00	0	34	0	1171259392	76	5358
2026-01-01 04:04:50.08	284.46	8.79	-55.9	-58.8	14.4	0.00e+00	0	34	0	1173356544	76	5489
2026-01-01 04:04:51.08	284.37	8.72	-56.0	-58.9	14.3	0.00e+00	0	34	0	1175453696	77	5271
2026-01-01 04:04:52.08	284.27	8.65	-55.9	-58.9	14.3	0.00e+00	0	34	0	1177550848	77	5239
2026-01-01 04:04:53.08	284.18	8.58	-55.9	-58.8	14.4	0.00e+00	0	34	0	1178599424	77	5186
2026-01-01 04:04:54.08	284.09	8.51	-56.1	-59.1	14.2	0.00e+00	0	34	0	1180696576	77	5350
2026-01-01 04:04:55.07	284.00	8.44	-56.0	-59.0	14.2	0.00e+00	0	34	0	1182793728	77	5306
2026-01-01 04:04:56.07	283.91	8.37	-55.9	-58.8	14.3	0.00e+00	0	34	0	1184890880	77	5216
2026-01-01 04:04:57.07	283.82	8.31	-56.0	-59.0	14.2	0.00e+00	0	34	0	1186988032	77	5325
2026-01-01 04:04:58.07	283.73	8.24	-56.1	-59.1	14.2	0.00e+00	0	34	0	1188036608	77	5360
2026-01-01 04:04:59.07	283.64	8.17	-56.0	-58.9	14.3	0.00e+00	0	34	0	1190133760	77	5243
2026-01-01 04:05:00.06	283.55	8.10	-56.0	-59.0	14.2	0.00e+00	0	33	0	1192230912	77	5315
2026-01-01 04:05:01.06	283.46	8.03	-56.1	-59.1	14.1	0.00e+00	0	34	0	1194328064	77	5389
2026-01-01 04:05:02.06	283.37	7.96	-56.1	-59.1	14.2	0.00e+00	0	34	0	1195376640	77	5393
2026-01-01 04:05:03.06	283.29	7.90	-56.1	-59.2	14.1	0.00e+00	0	34	0	1197473792	77	5403
2026-01-01 04:05:04.06	283.20	7.83	-56.0	-58.9	14.3	0.00e+00	0	34	0	1199570944	77	5276
2026-01-01 04:05:05.06	283.11	7.76	-56.0	-59.0	14.2	0.00e+00	0	34	0	1201668096	77	5309
2026-01-01 04:05:06.05	283.03	7.69	-56.2	-59.3	14.1	0.00e+00	0	34	0	1203765248	77	5468
2026-01-01 04:05:07.05	282.94	7.63	-56.3	-59.4	13.9	0.00e+00	0	34	0	1204813824	77	5563
2026-01-01 04:05:08.04	282.85	7.56	-56.4	-59.6	13.9	0.00e+00	0	34	0	1206910976	77	5674
2026-01-01 04:05:09.05	282.77	7.49	-56.5	-59.9	13.6	7.00e-07	0	34	0	1209008128	78	5552
2026-01-01 04:05:10.05	282.68	7.42	-56.5	-59.9	13.6	0.00e+00	0	34	0	1211105280	78	5536
2026-01-01 04:05:11.04	282.60	7.36	-56.5	-59.9	13.5	0.00e+00	0	34	0	1213202432	78	5581
