passes_logs/2026/01/01/R3.2S_Murmansk/R3.2S_Murmansk__20260101_131327_FENGYUN_3D_rec.log

#Pass ID: 20260101_131327_FENGYUN 3D
#Satellite: FENGYUN 3D
#Configuration: FENGYUN 3D
#almurnet v.1.7.20251203
#Start time: 2026-01-01 13:13:29

#Version: 2.2.20231116
#Station: R3.2S_Murmansk
#Location: 33.079688 lon 68.888172 lat
#TLE: 1 43010U 17072A   26001.19005061  .00000535  00000+0  27473-3 0  9994
#TLE: 2 43010  98.9910 332.7942 0001852 133.6060 226.5269 14.19691635421296

#Time	Az	El	Level	Level2	SNR	BER	BlckErr	Temp	State	Recorded	gain1	gain2
2026-01-01 13:13:29.05	193.55	2.08	-59.9	-72.8	3.8	8.47e-01	0	32	0	0	86	15412
2026-01-01 13:13:30.06	193.60	2.14	-59.9	-72.8	3.8	8.47e-01	0	32	104	0	85	16347
2026-01-01 13:13:31.06	193.65	2.20	-59.9	-72.7	3.8	8.46e-01	0	32	104	0	85	16296
2026-01-01 13:13:32.07	193.70	2.26	-59.9	-72.8	3.8	8.45e-01	0	32	104	0	85	16455
2026-01-01 13:13:33.08	193.76	2.32	-59.9	-72.9	3.8	8.46e-01	0	32	104	0	85	16544
2026-01-01 13:13:34.09	193.81	2.38	-59.9	-72.8	3.8	8.46e-01	0	32	104	0	85	16472
2026-01-01 13:13:35.10	193.86	2.44	-59.9	-72.8	3.8	8.45e-01	0	32	104	0	85	16434
2026-01-01 13:13:36.11	193.91	2.51	-59.9	-72.8	3.8	8.45e-01	0	32	104	0	85	16470
2026-01-01 13:13:37.12	193.97	2.57	-59.9	-72.8	3.8	8.46e-01	0	32	104	0	85	16440
2026-01-01 13:13:38.13	194.02	2.63	-59.9	-72.8	3.8	8.47e-01	0	32	104	0	85	16354
2026-01-01 13:13:39.13	194.07	2.69	-59.9	-72.8	3.8	8.45e-01	0	32	104	0	85	16415
2026-01-01 13:13:40.14	194.13	2.75	-59.9	-72.8	3.8	8.46e-01	0	32	104	0	85	16344
2026-01-01 13:13:41.15	194.18	2.81	-59.9	-72.7	3.8	8.46e-01	0	32	104	0	85	16247
2026-01-01 13:13:42.15	194.24	2.87	-59.9	-72.7	3.8	8.46e-01	0	32	104	0	85	16172
2026-01-01 13:13:43.16	194.29	2.94	-59.9	-72.7	3.8	8.46e-01	0	32	104	0	85	16177
2026-01-01 13:13:44.17	194.35	3.00	-59.9	-72.5	3.8	8.46e-01	0	32	104	0	85	15924
2026-01-01 13:13:45.18	194.40	3.06	-59.9	-72.5	3.8	8.46e-01	0	32	104	0	85	15825
2026-01-01 13:13:46.19	194.46	3.12	-59.9	-72.5	3.8	8.45e-01	0	32	104	0	85	15834
2026-01-01 13:13:47.20	194.51	3.18	-59.9	-72.6	3.8	8.46e-01	0	32	104	0	85	16068
2026-01-01 13:13:48.21	194.57	3.25	-59.9	-72.7	3.8	8.46e-01	0	32	104	0	85	16214
2026-01-01 13:13:49.22	194.62	3.31	-59.9	-72.7	3.8	8.47e-01	0	32	104	0	85	16183
2026-01-01 13:13:50.23	194.68	3.37	-59.9	-72.6	3.8	8.46e-01	0	32	104	0	85	16104
2026-01-01 13:13:51.23	194.73	3.43	-59.9	-72.5	3.8	8.46e-01	0	32	104	0	85	15784
2026-01-01 13:13:52.24	194.79	3.50	-59.9	-72.2	3.8	8.48e-01	0	32	104	0	85	15342
2026-01-01 13:13:53.25	194.85	3.56	-59.8	-72.0	3.8	8.45e-01	0	32	104	0	85	15044
2026-01-01 13:13:54.26	194.91	3.62	-59.8	-72.1	3.8	8.46e-01	0	32	104	0	85	15083
2026-01-01 13:13:55.27	194.96	3.69	-59.8	-72.0	3.8	8.45e-01	0	32	104	0	85	14914
2026-01-01 13:13:56.27	195.02	3.75	-59.8	-72.2	3.8	8.44e-01	0	32	104	0	85	15280
2026-01-01 13:13:57.28	195.08	3.81	-59.9	-72.6	3.8	8.47e-01	0	32	104	0	85	16073
2026-01-01 13:13:58.29	195.13	3.88	-59.9	-72.9	3.8	8.47e-01	0	32	104	0	85	16517
2026-01-01 13:13:59.30	195.19	3.94	-59.9	-72.8	3.8	8.46e-01	0	32	104	0	85	16351
2026-01-01 13:14:00.31	195.25	4.01	-59.9	-72.1	3.8	8.47e-01	0	32	104	0	85	15174
2026-01-01 13:14:01.32	195.31	4.07	-59.8	-71.0	3.8	8.46e-01	0	32	104	0	85	13378
2026-01-01 13:14:02.33	195.37	4.13	-59.6	-69.7	4.1	8.40e-01	0	32	0	0	85	11436
2026-01-01 13:14:03.34	195.43	4.20	-59.4	-68.4	4.5	8.27e-01	0	32	0	0	85	9938
2026-01-01 13:14:04.34	195.49	4.26	-59.3	-67.8	4.8	8.04e-01	0	32	0	0	85	9228
2026-01-01 13:14:05.35	195.55	4.33	-59.2	-67.1	5.1	7.68e-01	0	32	0	0	85	8483
2026-01-01 13:14:06.35	195.61	4.39	-59.2	-66.8	5.2	7.44e-01	0	32	0	0	84	8759
2026-01-01 13:14:07.36	195.67	4.46	-59.2	-66.8	5.3	7.36e-01	0	33	0	0	84	8695
2026-01-01 13:14:08.37	195.73	4.52	-59.1	-66.7	5.3	7.32e-01	0	32	0	0	84	8625
2026-01-01 13:14:09.38	195.79	4.59	-59.2	-66.9	5.2	7.33e-01	0	33	0	0	84	8768
2026-01-01 13:14:10.39	195.85	4.65	-59.1	-66.4	5.5	7.06e-01	0	32	0	0	84	8313
2026-01-01 13:14:11.40	195.91	4.72	-58.9	-65.6	6.1	3.67e-01	0	32	0	5242880	84	7600
2026-01-01 13:14:12.40	195.97	4.78	-58.4	-64.3	6.9	1.98e-01	0	33	0	10485760	83	6915
2026-01-01 13:14:13.41	196.03	4.85	-58.0	-63.0	8.0	6.95e-02	0	33	0	16777216	82	6341
2026-01-01 13:14:14.42	196.09	4.91	-57.6	-62.1	8.9	3.18e-02	0	33	0	22020096	81	6026
2026-01-01 13:14:15.43	196.16	4.98	-57.3	-61.5	9.4	1.06e-02	0	33	0	27262976	81	5622
2026-01-01 13:14:16.43	196.22	5.05	-57.1	-61.0	9.8	4.95e-03	0	33	0	33554432	80	5652
2026-01-01 13:14:17.45	196.28	5.11	-57.8	-62.5	8.7	1.48e-02	0	33	0	38797312	80	6686
2026-01-01 13:14:18.46	196.34	5.18	-57.2	-61.1	9.8	1.57e-01	0	33	0	45088768	81	5383
2026-01-01 13:14:19.47	196.41	5.25	-59.3	-68.6	4.5	4.08e-02	0	33	0	50331648	83	11374
2026-01-01 13:14:20.48	196.47	5.31	-58.0	-63.1	4.9	8.45e-01	0	33	104	50331648	82	6352
2026-01-01 13:14:21.49	196.53	5.38	-51.5	-53.1	15.4	0.00e+00	0	33	0	52428800	69	4254
2026-01-01 13:14:22.50	196.60	5.45	-51.5	-53.1	15.5	0.00e+00	0	33	0	58720256	69	4250
2026-01-01 13:14:23.50	196.66	5.51	-51.4	-53.0	15.5	0.00e+00	0	33	0	63963136	69	4215
2026-01-01 13:14:24.51	196.73	5.58	-51.3	-52.9	15.6	0.00e+00	0	32	0	70254592	69	4169
2026-01-01 13:14:25.52	196.79	5.65	-51.3	-52.9	15.6	0.00e+00	0	33	0	75497472	69	4149
2026-01-01 13:14:26.52	196.86	5.71	-51.1	-52.6	15.7	0.00e+00	0	33	0	80740352	68	4268
2026-01-01 13:14:27.53	196.92	5.78	-50.9	-52.4	15.7	0.00e+00	0	33	0	87031808	68	4179
2026-01-01 13:14:28.53	196.99	5.85	-51.0	-52.5	15.7	0.00e+00	0	33	0	92274688	68	4229
2026-01-01 13:14:29.54	197.05	5.92	-50.9	-52.4	15.8	0.00e+00	0	33	0	98566144	68	4170
2026-01-01 13:14:30.55	197.12	5.99	-50.9	-52.4	15.8	0.00e+00	0	33	0	103809024	68	4191
2026-01-01 13:14:31.56	197.19	6.05	-50.8	-52.3	15.9	0.00e+00	0	33	0	110100480	68	4103
2026-01-01 13:14:32.57	197.25	6.12	-50.9	-52.4	15.8	0.00e+00	0	33	0	115343360	68	4163
2026-01-01 13:14:33.58	197.32	6.19	-50.8	-52.2	15.9	0.00e+00	0	33	0	120586240	68	4095
2026-01-01 13:14:34.59	197.39	6.26	-50.8	-52.3	15.9	0.00e+00	0	33	0	126877696	68	4107
2026-01-01 13:14:35.59	197.45	6.33	-50.5	-51.9	15.9	0.00e+00	0	33	0	132120576	67	4170
2026-01-01 13:14:36.59	197.52	6.40	-50.5	-51.9	15.9	0.00e+00	0	33	0	138412032	67	4179
2026-01-01 13:14:37.60	197.59	6.47	-50.6	-52.0	15.9	0.00e+00	0	33	0	143654912	67	4228
2026-01-01 13:14:38.61	197.66	6.53	-50.6	-52.0	15.9	0.00e+00	0	33	0	148897792	67	4229
2026-01-01 13:14:39.62	197.73	6.60	-50.6	-52.0	15.9	0.00e+00	0	33	0	155189248	67	4230
2026-01-01 13:14:40.63	197.80	6.67	-50.5	-51.9	15.9	0.00e+00	0	33	0	160432128	67	4183
2026-01-01 13:14:41.64	197.87	6.74	-50.5	-51.9	16.0	0.00e+00	0	33	0	165675008	67	4177
2026-01-01 13:14:42.65	197.94	6.81	-50.6	-52.0	15.9	0.00e+00	0	33	0	171966464	67	4237
2026-01-01 13:14:43.66	198.01	6.88	-50.5	-51.9	16.0	0.00e+00	0	33	0	177209344	67	4174
2026-01-01 13:14:44.66	198.08	6.95	-50.5	-52.0	16.0	0.00e+00	0	33	0	183500800	67	4197
2026-01-01 13:14:45.67	198.15	7.02	-50.5	-52.0	15.9	0.00e+00	0	33	0	188743680	67	4213
2026-01-01 13:14:46.68	198.22	7.09	-50.5	-52.0	15.9	0.00e+00	0	33	0	195035136	67	4227
2026-01-01 13:14:47.69	198.29	7.17	-50.4	-51.9	16.0	0.00e+00	0	33	0	200278016	67	4158
2026-01-01 13:14:48.70	198.36	7.24	-50.5	-52.0	16.0	0.00e+00	0	33	0	206569472	67	4220
2026-01-01 13:14:49.71	198.43	7.31	-50.5	-51.9	16.0	0.00e+00	0	33	0	211812352	67	4181
2026-01-01 13:14:50.72	198.51	7.38	-50.5	-52.0	16.0	0.00e+00	0	33	0	217055232	67	4204
2026-01-01 13:14:51.73	198.58	7.45	-50.5	-51.9	16.0	0.00e+00	0	33	0	223346688	67	4182
2026-01-01 13:14:52.74	198.65	7.52	-50.6	-52.1	15.9	0.00e+00	0	33	0	228589568	67	4256
2026-01-01 13:14:53.75	198.73	7.59	-50.6	-52.0	15.9	0.00e+00	0	33	0	234881024	67	4233
2026-01-01 13:14:54.76	198.80	7.67	-50.7	-52.2	15.9	0.00e+00	0	33	0	240123904	67	4307
2026-01-01 13:14:55.77	198.87	7.74	-50.6	-52.0	16.0	0.00e+00	0	33	0	245366784	67	4234
2026-01-01 13:14:56.77	198.95	7.81	-50.6	-52.0	16.0	0.00e+00	0	33	0	251658240	67	4231
2026-01-01 13:14:57.78	199.02	7.88	-50.6	-52.1	15.9	0.00e+00	0	33	0	256901120	67	4250
2026-01-01 13:14:58.79	199.10	7.95	-50.5	-52.0	16.0	0.00e+00	0	33	0	263192576	67	4213
2026-01-01 13:14:59.79	199.17	8.03	-50.5	-52.0	16.0	0.00e+00	0	33	0	268435456	67	4207
2026-01-01 13:15:00.80	199.25	8.10	-50.5	-52.0	16.0	0.00e+00	0	33	0	273678336	67	4196
2026-01-01 13:15:01.81	199.33	8.17	-50.5	-51.9	16.0	0.00e+00	0	33	0	279969792	67	4183
2026-01-01 13:15:02.82	199.40	8.25	-50.5	-51.9	16.0	0.00e+00	0	33	0	285212672	67	4172
2026-01-01 13:15:03.83	199.48	8.32	-50.4	-51.9	16.1	0.00e+00	0	33	0	291504128	67	4153
2026-01-01 13:15:04.84	199.56	8.39	-50.3	-51.7	16.1	0.00e+00	0	33	0	296747008	67	4079
2026-01-01 13:15:05.85	199.64	8.47	-50.3	-51.7	16.1	0.00e+00	0	33	0	303038464	67	4073
2026-01-01 13:15:06.85	199.71	8.54	-50.3	-51.7	16.2	0.00e+00	0	33	0	308281344	67	4075
2026-01-01 13:15:07.87	199.79	8.61	-50.1	-51.5	16.2	0.00e+00	0	33	0	313524224	66	4212
2026-01-01 13:15:08.87	199.87	8.69	-50.2	-51.6	16.2	0.00e+00	0	33	0	319815680	66	4252
2026-01-01 13:15:09.88	199.95	8.76	-50.2	-51.6	16.1	0.00e+00	0	33	0	325058560	66	4283
2026-01-01 13:15:10.89	200.03	8.84	-50.1	-51.5	16.2	0.00e+00	0	33	0	330301440	66	4194
2026-01-01 13:15:11.90	200.11	8.91	-49.9	-51.2	16.3	0.00e+00	0	33	0	336592896	66	4080
2026-01-01 13:15:12.91	200.19	8.99	-49.9	-51.2	16.3	0.00e+00	0	33	0	341835776	66	4092
2026-01-01 13:15:13.91	200.27	9.06	-49.8	-51.2	16.4	0.00e+00	0	33	0	348127232	66	4061
2026-01-01 13:15:14.92	200.35	9.14	-49.8	-51.2	16.4	0.00e+00	0	33	0	353370112	66	4063
2026-01-01 13:15:15.93	200.43	9.21	-49.8	-51.2	16.4	0.00e+00	0	33	0	359661568	66	4066
2026-01-01 13:15:16.94	200.52	9.29	-49.8	-51.1	16.4	0.00e+00	0	33	0	364904448	66	4037
2026-01-01 13:15:17.95	200.60	9.36	-49.9	-51.3	16.3	0.00e+00	0	33	0	370147328	66	4115
2026-01-01 13:15:18.95	200.68	9.44	-49.8	-51.1	16.4	0.00e+00	0	33	0	376438784	66	4039
2026-01-01 13:15:19.96	200.76	9.51	-49.7	-51.0	16.4	0.00e+00	0	33	0	381681664	66	3997
2026-01-01 13:15:20.97	200.85	9.59	-49.5	-50.9	16.5	0.00e+00	0	33	0	387973120	65	4154
2026-01-01 13:15:21.98	200.93	9.67	-49.7	-51.0	16.4	0.00e+00	0	33	0	393216000	65	4241
2026-01-01 13:15:22.99	201.02	9.74	-49.6	-51.0	16.4	0.00e+00	0	33	0	398458880	65	4196
2026-01-01 13:15:24.00	201.10	9.82	-49.5	-50.8	16.5	0.00e+00	0	33	0	404750336	65	4120
2026-01-01 13:15:25.00	201.19	9.90	-49.5	-50.9	16.5	0.00e+00	0	33	0	409993216	65	4152
2026-01-01 13:15:26.01	201.27	9.98	-49.4	-50.7	16.5	0.00e+00	0	33	0	416284672	65	4098
2026-01-01 13:15:27.02	201.36	10.05	-49.4	-50.8	16.5	0.00e+00	0	33	0	421527552	65	4107
2026-01-01 13:15:28.02	201.44	10.13	-49.4	-50.8	16.5	0.00e+00	0	33	0	426770432	65	4099
2026-01-01 13:15:29.03	201.53	10.21	-49.5	-50.8	16.5	0.00e+00	0	33	0	433061888	65	4136
2026-01-01 13:15:30.03	201.62	10.29	-49.4	-50.7	16.5	0.00e+00	0	33	0	438304768	65	4079
2026-01-01 13:15:31.04	201.71	10.36	-49.4	-50.7	16.5	0.00e+00	0	33	0	444596224	65	4091
2026-01-01 13:15:32.05	201.79	10.44	-49.4	-50.7	16.6	0.00e+00	0	33	0	449839104	65	4075
2026-01-01 13:15:33.06	201.88	10.52	-49.5	-50.8	16.5	0.00e+00	0	33	0	455081984	65	4141
2026-01-01 13:15:34.07	201.97	10.60	-49.4	-50.7	16.6	0.00e+00	0	33	0	461373440	65	4096
2026-01-01 13:15:35.08	202.06	10.68	-49.3	-50.6	16.6	0.00e+00	0	33	0	466616320	65	4010
2026-01-01 13:15:36.09	202.15	10.76	-49.3	-50.6	16.6	0.00e+00	0	33	0	472907776	65	4028
2026-01-01 13:15:37.10	202.24	10.84	-49.3	-50.6	16.6	0.00e+00	0	33	0	478150656	65	4041
2026-01-01 13:15:38.10	202.33	10.92	-49.3	-50.5	16.8	0.00e+00	0	33	0	484442112	65	3986
2026-01-01 13:15:39.10	202.43	11.00	-49.3	-50.5	16.8	0.00e+00	0	33	0	489684992	65	3976
2026-01-01 13:15:40.11	202.52	11.08	-49.3	-50.5	16.8	0.00e+00	0	33	0	494927872	65	3967
2026-01-01 13:15:41.12	202.61	11.16	-49.3	-50.5	16.8	0.00e+00	0	33	0	501219328	65	3970
2026-01-01 13:15:42.13	202.70	11.24	-49.2	-50.4	16.8	0.00e+00	0	33	0	506462208	65	3937
2026-01-01 13:15:43.13	202.80	11.32	-49.1	-50.3	16.8	0.00e+00	0	33	0	511705088	64	4109
2026-01-01 13:15:44.14	202.89	11.40	-49.2	-50.4	16.8	0.00e+00	0	33	0	517996544	64	4170
2026-01-01 13:15:45.14	202.98	11.48	-49.2	-50.4	16.8	0.00e+00	0	33	0	523239424	64	4176
2026-01-01 13:15:46.15	203.08	11.56	-49.3	-50.5	16.8	0.00e+00	0	33	0	529530880	64	4201
2026-01-01 13:15:47.16	203.17	11.64	-49.2	-50.3	16.8	0.00e+00	0	33	0	534773760	64	4141
2026-01-01 13:15:48.17	203.27	11.72	-49.2	-50.3	16.8	0.00e+00	0	33	0	541065216	64	4140
2026-01-01 13:15:49.18	203.37	11.80	-49.1	-50.3	16.8	0.00e+00	0	33	0	546308096	64	4121
2026-01-01 13:15:50.19	203.47	11.89	-49.1	-50.3	16.8	0.00e+00	0	33	0	551550976	64	4111
2026-01-01 13:15:51.20	203.56	11.97	-49.2	-50.3	16.8	0.00e+00	0	33	0	557842432	64	4143
2026-01-01 13:15:52.20	203.66	12.05	-49.1	-50.2	16.8	0.00e+00	0	33	0	563085312	64	4091
2026-01-01 13:15:53.22	203.76	12.13	-49.1	-50.2	16.8	0.00e+00	0	33	0	569376768	64	4085
2026-01-01 13:15:54.23	203.86	12.22	-49.1	-50.2	16.8	0.00e+00	0	33	0	574619648	64	4086
2026-01-01 13:15:55.24	203.96	12.30	-49.0	-50.2	16.9	0.00e+00	0	33	0	579862528	64	4054
2026-01-01 13:15:56.25	204.06	12.38	-48.9	-50.0	16.9	0.00e+00	0	33	0	586153984	64	3997
2026-01-01 13:15:57.25	204.16	12.47	-48.9	-50.1	16.9	0.00e+00	0	33	0	591396864	64	4016
2026-01-01 13:15:58.26	204.26	12.55	-49.0	-50.1	16.9	0.00e+00	0	33	0	597688320	64	4031
2026-01-01 13:15:59.27	204.36	12.63	-49.0	-50.1	16.9	0.00e+00	0	33	0	602931200	64	4048
2026-01-01 13:16:00.28	204.47	12.72	-48.9	-50.0	17.0	0.00e+00	0	33	0	608174080	64	4000
2026-01-01 13:16:01.28	204.57	12.80	-48.8	-49.9	17.0	0.00e+00	0	33	0	614465536	64	3953
2026-01-01 13:16:02.29	204.67	12.89	-48.7	-49.9	17.0	0.00e+00	0	33	0	619708416	64	3924
2026-01-01 13:16:03.30	204.78	12.97	-48.8	-50.0	17.0	0.00e+00	0	33	0	625999872	64	3964
2026-01-01 13:16:04.31	204.88	13.06	-48.8	-49.9	17.0	0.00e+00	0	33	0	631242752	64	3943
2026-01-01 13:16:05.32	204.99	13.14	-48.8	-49.9	17.0	0.00e+00	0	33	0	637534208	64	3951
2026-01-01 13:16:06.33	205.09	13.23	-48.8	-49.9	17.0	0.00e+00	0	33	0	642777088	64	3950
2026-01-01 13:16:07.33	205.20	13.31	-48.9	-50.0	16.9	0.00e+00	0	33	0	648019968	64	3990
2026-01-01 13:16:08.34	205.30	13.40	-48.8	-49.9	17.0	0.00e+00	0	33	0	654311424	64	3942
2026-01-01 13:16:09.35	205.41	13.48	-48.8	-50.0	17.0	0.00e+00	0	33	0	659554304	64	3961
2026-01-01 13:16:10.36	205.52	13.57	-48.7	-49.9	17.0	0.00e+00	0	33	0	665845760	64	3927
2026-01-01 13:16:11.36	205.63	13.65	-48.8	-50.0	17.0	0.00e+00	0	33	0	671088640	64	3968
2026-01-01 13:16:12.37	205.74	13.74	-48.7	-49.9	17.0	0.00e+00	0	33	0	676331520	63	4148
2026-01-01 13:16:13.39	205.85	13.83	-48.6	-49.7	17.0	0.00e+00	0	33	0	682622976	63	4061
2026-01-01 13:16:14.39	205.96	13.92	-48.6	-49.7	17.0	0.00e+00	0	33	0	687865856	63	4091
2026-01-01 13:16:15.39	206.07	14.00	-48.6	-49.7	17.1	0.00e+00	0	33	0	694157312	63	4058
2026-01-01 13:16:16.40	206.18	14.09	-48.6	-49.7	17.1	0.00e+00	0	33	0	699400192	63	4066
2026-01-01 13:16:17.41	206.30	14.18	-48.6	-49.7	17.1	0.00e+00	0	33	0	704643072	63	4090
2026-01-01 13:16:18.42	206.41	14.26	-48.6	-49.7	17.0	0.00e+00	0	33	0	710934528	63	4084
2026-01-01 13:16:19.43	206.52	14.35	-48.6	-49.8	17.0	0.00e+00	0	33	0	716177408	63	4102
2026-01-01 13:16:20.44	206.64	14.44	-48.7	-49.9	17.0	0.00e+00	0	33	0	722468864	63	4154
2026-01-01 13:16:21.45	206.75	14.53	-48.8	-49.9	17.0	0.00e+00	0	33	0	727711744	63	4180
2026-01-01 13:16:22.46	206.87	14.62	-48.7	-49.8	17.0	0.00e+00	0	33	0	734003200	63	4131
2026-01-01 13:16:23.46	206.98	14.71	-48.8	-49.9	17.0	0.00e+00	0	33	0	739246080	63	4159
2026-01-01 13:16:24.47	207.10	14.80	-48.8	-49.9	17.0	0.00e+00	0	33	0	744488960	63	4187
2026-01-01 13:16:25.47	207.22	14.89	-48.6	-49.7	17.1	0.00e+00	0	33	0	750780416	63	4092
2026-01-01 13:16:26.48	207.34	14.97	-48.6	-49.7	17.1	0.00e+00	0	33	0	756023296	63	4083
2026-01-01 13:16:27.49	207.46	15.06	-48.6	-49.8	17.1	0.00e+00	0	33	0	761266176	63	4103
2026-01-01 13:16:28.50	207.58	15.16	-48.5	-49.6	17.1	0.00e+00	0	33	0	767557632	63	4024
2026-01-01 13:16:29.51	207.70	15.25	-48.4	-49.5	17.1	0.00e+00	0	33	0	772800512	63	3988
2026-01-01 13:16:30.52	207.82	15.34	-48.4	-49.5	17.2	0.00e+00	0	33	0	779091968	63	3998
2026-01-01 13:16:31.53	207.94	15.43	-48.3	-49.4	17.2	0.00e+00	0	33	0	784334848	63	3946
2026-01-01 13:16:32.53	208.06	15.52	-48.3	-49.4	17.2	0.00e+00	0	34	0	789577728	63	3949
2026-01-01 13:16:33.55	208.19	15.61	-48.3	-49.4	17.2	0.00e+00	0	34	0	795869184	63	3930
2026-01-01 13:16:34.56	208.31	15.70	-48.3	-49.4	17.2	0.00e+00	0	33	0	801112064	63	3928
2026-01-01 13:16:35.56	208.44	15.79	-48.3	-49.4	17.2	0.00e+00	0	33	0	807403520	63	3934
2026-01-01 13:16:36.57	208.56	15.88	-48.3	-49.4	17.2	0.00e+00	0	33	0	812646400	63	3923
2026-01-01 13:16:37.58	208.69	15.98	-48.3	-49.4	17.2	0.00e+00	0	33	0	818937856	63	3928
2026-01-01 13:16:38.59	208.82	16.07	-48.4	-49.5	17.1	0.00e+00	0	33	0	824180736	63	3986
2026-01-01 13:16:39.60	208.94	16.16	-48.4	-49.5	17.2	0.00e+00	0	34	0	830472192	63	3988
2026-01-01 13:16:40.61	209.07	16.25	-48.5	-49.6	17.2	0.00e+00	0	34	0	835715072	63	4013
2026-01-01 13:16:41.62	209.20	16.35	-48.3	-49.4	17.2	0.00e+00	0	33	0	840957952	63	3956
2026-01-01 13:16:42.63	209.33	16.44	-48.3	-49.5	17.2	0.00e+00	0	33	0	847249408	63	3961
2026-01-01 13:16:43.64	209.46	16.53	-48.3	-49.4	17.2	0.00e+00	0	33	0	852492288	63	3951
2026-01-01 13:16:44.65	209.60	16.63	-48.4	-49.5	17.2	0.00e+00	0	33	0	858783744	63	3968
2026-01-01 13:16:45.66	209.73	16.72	-48.3	-49.4	17.2	0.00e+00	0	33	0	864026624	63	3950
2026-01-01 13:16:46.67	209.86	16.81	-48.4	-49.5	17.2	0.00e+00	0	33	0	869269504	63	3965
2026-01-01 13:16:47.68	210.00	16.91	-48.3	-49.4	17.2	0.00e+00	0	34	0	875560960	63	3957
2026-01-01 13:16:48.68	210.13	17.00	-48.3	-49.4	17.2	0.00e+00	0	33	0	880803840	63	3950
2026-01-01 13:16:49.69	210.27	17.10	-48.3	-49.3	17.2	0.00e+00	0	34	0	887095296	63	3913
2026-01-01 13:16:50.70	210.40	17.19	-48.1	-49.2	17.2	0.00e+00	0	33	0	892338176	62	4075
2026-01-01 13:16:51.71	210.54	17.29	-48.2	-49.3	17.2	0.00e+00	0	34	0	897581056	62	4108
2026-01-01 13:16:52.72	210.68	17.38	-48.1	-49.2	17.2	0.00e+00	0	33	0	903872512	62	4075
2026-01-01 13:16:53.73	210.82	17.48	-48.1	-49.2	17.2	0.00e+00	0	34	0	909115392	62	4080
2026-01-01 13:16:54.74	210.96	17.57	-48.1	-49.2	17.2	0.00e+00	0	34	0	915406848	62	4087
2026-01-01 13:16:55.74	211.10	17.67	-48.1	-49.1	17.3	0.00e+00	0	33	0	920649728	62	4044
2026-01-01 13:16:56.75	211.24	17.77	-48.0	-49.1	17.3	0.00e+00	0	33	0	926941184	62	4030
2026-01-01 13:16:57.76	211.39	17.86	-47.9	-49.0	17.3	0.00e+00	0	34	0	932184064	62	3991
2026-01-01 13:16:58.77	211.53	17.96	-48.0	-49.1	17.3	0.00e+00	0	33	0	937426944	62	4015
2026-01-01 13:16:59.78	211.67	18.06	-48.1	-49.1	17.3	0.00e+00	0	33	0	943718400	62	4050
2026-01-01 13:17:00.79	211.82	18.15	-48.0	-49.1	17.3	0.00e+00	0	34	0	948961280	62	4016
2026-01-01 13:17:01.80	211.97	18.25	-48.0	-49.1	17.3	0.00e+00	0	33	0	955252736	62	4008
2026-01-01 13:17:02.81	212.11	18.35	-48.0	-49.0	17.3	0.00e+00	0	33	0	960495616	62	4003
2026-01-01 13:17:03.82	212.26	18.45	-47.9	-48.9	17.3	0.00e+00	0	33	0	965738496	62	3956
2026-01-01 13:17:04.82	212.41	18.54	-47.8	-48.9	17.3	0.00e+00	0	33	0	972029952	62	3944
2026-01-01 13:17:05.83	212.56	18.64	-47.8	-48.9	17.3	0.00e+00	0	33	0	977272832	62	3944
2026-01-01 13:17:06.83	212.71	18.74	-47.6	-48.7	17.3	0.00e+00	0	33	0	982515712	61	4074
2026-01-01 13:17:07.84	212.86	18.84	-47.7	-48.7	17.3	0.00e+00	0	34	0	988807168	61	4085
2026-01-01 13:17:08.85	213.01	18.94	-47.7	-48.8	17.3	0.00e+00	0	33	0	994050048	61	4104
2026-01-01 13:17:09.85	213.17	19.03	-47.6	-48.6	17.4	0.00e+00	0	34	0	1000341504	61	4032
2026-01-01 13:17:10.86	213.32	19.13	-47.6	-48.7	17.4	0.00e+00	0	34	0	1005584384	61	4072
2026-01-01 13:17:11.86	213.48	19.23	-47.5	-48.6	17.4	0.00e+00	0	34	0	1011875840	61	4022
2026-01-01 13:17:12.87	213.63	19.33	-47.5	-48.6	17.4	0.00e+00	0	34	0	1017118720	61	4021
2026-01-01 13:17:13.88	213.79	19.43	-47.5	-48.6	17.4	0.00e+00	0	34	0	1022361600	61	4030
2026-01-01 13:17:14.88	213.95	19.53	-47.6	-48.6	17.4	0.00e+00	0	33	0	1028653056	61	4046
2026-01-01 13:17:15.89	214.11	19.63	-47.5	-48.6	17.4	0.00e+00	0	33	0	1033895936	61	4028
2026-01-01 13:17:16.90	214.27	19.73	-47.7	-48.7	17.4	0.00e+00	0	34	0	1040187392	61	4083
2026-01-01 13:17:17.91	214.43	19.83	-47.6	-48.7	17.3	0.00e+00	0	33	0	1045430272	61	4070
2026-01-01 13:17:18.92	214.59	19.93	-47.7	-48.8	17.4	0.00e+00	0	34	0	1050673152	61	4113
2026-01-01 13:17:19.93	214.76	20.03	-47.6	-48.7	17.4	0.00e+00	0	33	0	1056964608	61	4057
2026-01-01 13:17:20.93	214.92	20.13	-47.7	-48.8	17.4	0.00e+00	0	33	0	1062207488	61	4100
2026-01-01 13:17:21.94	215.09	20.23	-47.5	-48.6	17.4	0.00e+00	0	33	0	1068498944	61	4014
2026-01-01 13:17:22.95	215.25	20.33	-47.6	-48.6	17.4	0.00e+00	0	33	0	1073741824	61	4036
2026-01-01 13:17:23.95	215.42	20.43	-47.6	-48.6	17.4	0.00e+00	0	33	0	1078984704	61	4034
2026-01-01 13:17:24.96	215.59	20.54	-47.5	-48.5	17.5	0.00e+00	0	34	0	1085276160	61	3999
2026-01-01 13:17:25.97	215.76	20.64	-47.5	-48.6	17.4	0.00e+00	0	33	0	1090519040	61	4014
2026-01-01 13:17:26.96	215.93	20.74	-47.4	-48.4	17.5	0.00e+00	0	34	0	1096810496	61	3939
2026-01-01 13:17:27.97	216.10	20.84	-47.3	-48.4	17.5	0.00e+00	0	33	0	1102053376	61	3915
2026-01-01 13:17:28.97	216.27	20.94	-47.2	-48.3	17.5	0.00e+00	0	33	0	1107296256	61	3884
2026-01-01 13:17:29.97	216.44	21.04	-47.3	-48.3	17.5	0.00e+00	0	34	0	1113587712	61	3908
2026-01-01 13:17:30.96	216.62	21.14	-47.3	-48.3	17.5	0.00e+00	0	34	0	1118830592	61	3912
2026-01-01 13:17:31.95	216.79	21.24	-47.4	-48.4	17.5	0.00e+00	0	34	0	1124073472	61	3946
2026-01-01 13:17:32.95	216.97	21.35	-47.4	-48.4	17.5	0.00e+00	0	34	0	1130364928	61	3943
2026-01-01 13:17:33.94	217.14	21.45	-47.3	-48.4	17.5	0.00e+00	0	33	0	1135607808	61	3930
2026-01-01 13:17:34.93	217.32	21.55	-47.3	-48.4	17.5	0.00e+00	0	34	0	1140850688	61	3923
2026-01-01 13:17:35.92	217.50	21.65	-47.2	-48.2	17.5	0.00e+00	0	33	0	1147142144	60	4082
2026-01-01 13:17:36.92	217.68	21.75	-47.2	-48.3	17.5	0.00e+00	0	34	0	1152385024	60	4099
2026-01-01 13:17:37.92	217.86	21.85	-47.2	-48.3	17.5	0.00e+00	0	33	0	1157627904	60	4107
2026-01-01 13:17:38.92	218.04	21.96	-47.0	-48.0	17.5	0.00e+00	0	34	0	1163919360	60	4003
2026-01-01 13:17:39.92	218.23	22.06	-46.9	-47.9	17.6	0.00e+00	0	34	0	1169162240	60	3934
2026-01-01 13:17:40.92	218.41	22.16	-46.9	-47.9	17.6	0.00e+00	0	34	0	1174405120	60	3944
2026-01-01 13:17:41.92	218.60	22.27	-46.9	-48.0	17.6	0.00e+00	0	34	0	1180696576	60	3967
2026-01-01 13:17:42.93	218.79	22.37	-46.9	-47.9	17.6	0.00e+00	0	34	0	1185939456	60	3949
2026-01-01 13:17:43.92	218.98	22.47	-47.0	-48.0	17.5	0.00e+00	0	34	0	1191182336	60	3983
2026-01-01 13:17:44.93	219.17	22.58	-47.0	-48.0	17.5	0.00e+00	0	33	0	1197473792	60	3986
2026-01-01 13:17:45.93	219.36	22.68	-47.0	-48.0	17.5	0.00e+00	0	34	0	1202716672	60	3977
2026-01-01 13:17:46.93	219.55	22.78	-46.9	-47.9	17.6	0.00e+00	0	34	0	1209008128	60	3943
2026-01-01 13:17:47.93	219.75	22.89	-46.9	-47.9	17.6	0.00e+00	0	34	0	1214251008	60	3955
2026-01-01 13:17:48.93	219.94	22.99	-46.8	-47.8	17.6	0.00e+00	0	34	0	1219493888	60	3882
2026-01-01 13:17:49.94	220.14	23.10	-47.1	-48.1	17.5	0.00e+00	0	34	0	1225785344	59	4284
2026-01-01 13:17:50.94	220.34	23.20	-47.2	-48.3	17.5	0.00e+00	0	34	0	1231028224	59	4365
2026-01-01 13:17:51.94	220.54	23.30	-47.2	-48.3	17.5	0.00e+00	0	34	0	1237319680	59	4345
2026-01-01 13:17:52.94	220.74	23.41	-47.2	-48.2	17.5	0.00e+00	0	34	0	1242562560	59	4334
2026-01-01 13:17:53.95	220.94	23.51	-47.2	-48.3	17.5	0.00e+00	0	34	0	1247805440	59	4361
2026-01-01 13:17:54.95	221.15	23.62	-47.2	-48.3	17.5	0.00e+00	0	34	0	1254096896	59	4366
2026-01-01 13:17:55.95	221.35	23.72	-47.3	-48.4	17.5	0.00e+00	0	34	0	1259339776	59	4393
2026-01-01 13:17:56.94	221.56	23.83	-47.2	-48.2	17.5	0.00e+00	0	34	0	1264582656	59	4329
2026-01-01 13:17:57.94	221.76	23.93	-47.2	-48.2	17.5	0.00e+00	0	34	0	1270874112	59	4340
2026-01-01 13:17:58.95	221.97	24.04	-47.0	-48.1	17.5	0.00e+00	0	33	0	1276116992	59	4253
2026-01-01 13:17:59.95	222.18	24.14	-47.0	-48.0	17.6	0.00e+00	0	34	0	1282408448	59	4220
2026-01-01 13:18:00.96	222.40	24.24	-47.1	-48.1	17.5	0.00e+00	0	34	0	1287651328	59	4288
2026-01-01 13:18:01.97	222.61	24.35	-47.0	-48.1	17.6	0.00e+00	0	34	0	1292894208	59	4246
2026-01-01 13:18:02.98	222.83	24.46	-46.9	-47.9	17.6	0.00e+00	0	34	0	1299185664	59	4174
2026-01-01 13:18:03.98	223.04	24.56	-46.9	-47.9	17.6	0.00e+00	0	34	0	1304428544	59	4188
2026-01-01 13:18:04.99	223.26	24.67	-47.0	-48.0	17.5	0.00e+00	0	34	0	1310720000	59	4238
2026-01-01 13:18:06.00	223.48	24.77	-46.9	-48.0	17.6	0.00e+00	0	34	0	1315962880	59	4196
2026-01-01 13:18:07.00	223.70	24.88	-46.9	-47.9	17.6	0.00e+00	0	34	0	1321205760	59	4168
2026-01-01 13:18:08.01	223.93	24.98	-46.9	-48.0	17.6	0.00e+00	0	34	0	1327497216	59	4218
2026-01-01 13:18:09.02	224.15	25.09	-46.9	-48.0	17.6	0.00e+00	0	34	0	1332740096	59	4207
2026-01-01 13:18:10.03	224.38	25.19	-47.0	-48.0	17.6	0.00e+00	0	34	0	1337982976	59	4237
2026-01-01 13:18:11.04	224.60	25.30	-46.9	-48.0	17.6	0.00e+00	0	34	0	1344274432	59	4197
2026-01-01 13:18:12.05	224.83	25.40	-46.8	-47.8	17.6	0.00e+00	0	34	0	1349517312	59	4145
2026-01-01 13:18:13.05	225.06	25.51	-46.9	-47.9	17.6	0.00e+00	0	34	0	1355808768	59	4181
2026-01-01 13:18:14.06	225.29	25.61	-46.9	-48.0	17.6	0.00e+00	0	34	0	1361051648	59	4196
2026-01-01 13:18:15.06	225.53	25.72	-47.0	-48.0	17.6	0.00e+00	0	34	0	1367343104	59	4238
2026-01-01 13:18:16.07	225.76	25.82	-47.0	-48.1	17.6	0.00e+00	0	34	0	1372585984	59	4245
2026-01-01 13:18:17.08	226.00	25.93	-46.9	-48.0	17.6	0.00e+00	0	34	0	1377828864	59	4197
2026-01-01 13:18:18.08	226.23	26.03	-47.0	-48.1	17.6	0.00e+00	0	34	0	1384120320	59	4247
2026-01-01 13:18:19.09	226.47	26.13	-47.0	-48.0	17.5	0.00e+00	0	33	0	1389363200	59	4239
2026-01-01 13:18:20.08	226.71	26.24	-46.8	-47.8	17.6	0.00e+00	0	34	0	1394606080	59	4118
2026-01-01 13:18:21.08	226.95	26.34	-46.6	-47.6	17.7	0.00e+00	0	34	0	1400897536	59	4049
2026-01-01 13:18:22.07	227.19	26.44	-46.7	-47.7	17.7	0.00e+00	0	34	0	1406140416	59	4067
2026-01-01 13:18:23.06	227.43	26.54	-46.6	-47.6	17.7	0.00e+00	0	34	0	1411383296	59	4029
2026-01-01 13:18:24.06	227.68	26.65	-46.6	-47.6	17.7	0.00e+00	0	34	0	1417674752	59	4030
2026-01-01 13:18:25.06	227.92	26.75	-46.6	-47.6	17.7	0.00e+00	0	34	0	1422917632	59	4020
2026-01-01 13:18:26.06	228.17	26.85	-46.6	-47.6	17.7	0.00e+00	0	34	0	1429209088	59	4040
2026-01-01 13:18:27.06	228.42	26.95	-46.6	-47.7	17.7	0.00e+00	0	34	0	1434451968	59	4058
2026-01-01 13:18:28.06	228.67	27.06	-46.7	-47.7	17.7	0.00e+00	0	34	0	1439694848	59	4083
2026-01-01 13:18:29.06	228.92	27.16	-46.6	-47.6	17.7	0.00e+00	0	34	0	1445986304	59	4028
2026-01-01 13:18:30.06	229.18	27.26	-46.6	-47.6	17.7	0.00e+00	0	34	0	1451229184	59	4014
2026-01-01 13:18:31.07	229.44	27.36	-46.4	-47.4	17.8	0.00e+00	0	34	0	1456472064	59	3923
2026-01-01 13:18:32.07	229.70	27.47	-46.5	-47.5	17.8	0.00e+00	0	34	0	1462763520	59	3964
2026-01-01 13:18:33.07	229.95	27.57	-46.5	-47.5	17.7	0.00e+00	0	34	0	1468006400	59	3997
2026-01-01 13:18:34.07	230.22	27.67	-46.5	-47.6	17.7	0.00e+00	0	34	0	1473249280	59	4010
2026-01-01 13:18:35.08	230.48	27.77	-46.6	-47.6	17.7	0.00e+00	0	34	0	1479540736	59	4033
2026-01-01 13:18:36.08	230.74	27.87	-46.6	-47.6	17.7	0.00e+00	0	34	0	1484783616	59	4021
2026-01-01 13:18:37.08	231.01	27.97	-46.5	-47.5	17.7	0.00e+00	0	34	0	1491075072	59	3980
2026-01-01 13:18:38.08	231.28	28.07	-46.5	-47.5	17.7	0.00e+00	0	34	0	1496317952	59	3979
2026-01-01 13:18:39.09	231.55	28.17	-46.4	-47.4	17.8	0.00e+00	0	34	0	1501560832	59	3930
2026-01-01 13:18:40.10	231.82	28.27	-46.5	-47.5	17.8	0.00e+00	0	34	0	1507852288	59	3969
2026-01-01 13:18:41.10	232.10	28.37	-46.3	-47.3	17.8	0.00e+00	0	34	0	1513095168	59	3909
2026-01-01 13:18:42.10	232.37	28.47	-46.2	-47.2	17.8	0.00e+00	0	34	0	1519386624	59	3860
2026-01-01 13:18:43.10	232.64	28.57	-46.4	-47.4	17.8	0.00e+00	0	34	0	1524629504	59	3917
2026-01-01 13:18:44.11	232.92	28.66	-46.2	-47.2	17.8	0.00e+00	0	34	0	1529872384	59	3868
2026-01-01 13:18:45.10	233.20	28.76	-46.2	-47.2	17.8	0.00e+00	0	34	0	1536163840	59	3862
2026-01-01 13:18:46.10	233.48	28.86	-46.3	-47.3	17.8	0.00e+00	0	34	0	1541406720	59	3879
2026-01-01 13:18:47.11	233.77	28.96	-46.3	-47.3	17.8	0.00e+00	0	34	0	1546649600	59	3873
2026-01-01 13:18:48.12	234.05	29.05	-46.4	-47.4	17.8	0.00e+00	0	34	0	1552941056	59	3945
2026-01-01 13:18:49.13	234.34	29.15	-46.4	-47.4	17.8	0.00e+00	0	34	0	1558183936	59	3932
2026-01-01 13:18:50.14	234.63	29.25	-46.3	-47.3	17.8	0.00e+00	0	34	0	1564475392	59	3889
2026-01-01 13:18:51.15	234.92	29.34	-46.3	-47.3	17.8	0.00e+00	0	34	0	1569718272	59	3875
2026-01-01 13:18:52.16	235.22	29.44	-46.2	-47.2	17.8	0.00e+00	0	34	0	1576009728	59	3848
2026-01-01 13:18:53.17	235.51	29.53	-46.2	-47.2	17.8	0.00e+00	0	34	0	1581252608	58	4061
2026-01-01 13:18:54.17	235.81	29.63	-46.3	-47.3	17.8	0.00e+00	0	34	0	1586495488	58	4104
2026-01-01 13:18:55.18	236.11	29.72	-46.1	-47.1	17.8	0.00e+00	0	34	0	1592786944	58	4032
2026-01-01 13:18:56.19	236.41	29.81	-46.3	-47.3	17.8	0.00e+00	0	34	0	1598029824	58	4117
2026-01-01 13:18:57.20	236.71	29.91	-46.4	-47.4	17.8	0.00e+00	0	34	0	1604321280	58	4184
2026-01-01 13:18:58.21	237.01	30.00	-46.6	-47.6	17.7	0.00e+00	0	34	0	1609564160	58	4255
2026-01-01 13:18:59.22	237.32	30.09	-46.6	-47.6	17.7	0.00e+00	0	34	0	1614807040	58	4272
2026-01-01 13:19:00.21	237.62	30.18	-46.5	-47.5	17.7	0.00e+00	0	34	0	1621098496	58	4199
2026-01-01 13:19:01.23	237.93	30.27	-46.4	-47.4	17.7	0.00e+00	0	34	0	1626341376	58	4189
2026-01-01 13:19:02.23	238.24	30.36	-46.3	-47.2	17.8	0.00e+00	0	34	0	1632632832	58	4097
2026-01-01 13:19:03.24	238.55	30.45	-46.2	-47.2	17.8	0.00e+00	0	34	0	1637875712	58	4075
2026-01-01 13:19:04.25	238.86	30.54	-46.3	-47.3	17.8	0.00e+00	0	34	0	1643118592	58	4126
2026-01-01 13:19:05.26	239.18	30.62	-46.4	-47.4	17.7	0.00e+00	0	34	0	1649410048	58	4181
2026-01-01 13:19:06.26	239.49	30.71	-46.5	-47.5	17.7	0.00e+00	0	34	0	1654652928	58	4209
2026-01-01 13:19:07.27	239.81	30.80	-46.6	-47.6	17.7	0.00e+00	0	34	0	1660944384	58	4266
2026-01-01 13:19:08.28	240.13	30.88	-46.6	-47.6	17.7	0.00e+00	0	34	0	1666187264	58	4286
2026-01-01 13:19:09.28	240.45	30.97	-46.6	-47.6	17.7	0.00e+00	0	34	0	1672478720	58	4287
2026-01-01 13:19:10.29	240.78	31.05	-46.4	-47.5	17.7	0.00e+00	0	34	0	1677721600	58	4196
2026-01-01 13:19:11.30	241.10	31.14	-46.4	-47.4	17.7	0.00e+00	0	34	0	1682964480	58	4151
2026-01-01 13:19:12.31	241.43	31.22	-46.4	-47.4	17.7	0.00e+00	0	34	0	1689255936	58	4179
2026-01-01 13:19:13.32	241.76	31.30	-46.6	-47.6	17.7	0.00e+00	0	34	0	1694498816	58	4273
2026-01-01 13:19:14.32	242.08	31.38	-46.6	-47.6	17.7	0.00e+00	0	34	0	1699741696	58	4276
2026-01-01 13:19:15.32	242.41	31.46	-46.5	-47.5	17.7	0.00e+00	0	34	0	1706033152	58	4233
2026-01-01 13:19:16.33	242.75	31.54	-46.4	-47.4	17.7	0.00e+00	0	34	0	1711276032	58	4150
2026-01-01 13:19:17.34	243.08	31.62	-46.2	-47.2	17.8	0.00e+00	0	34	0	1717567488	58	4089
2026-01-01 13:19:18.35	243.42	31.70	-46.2	-47.2	17.8	0.00e+00	0	34	0	1722810368	58	4075
2026-01-01 13:19:19.36	243.76	31.78	-46.3	-47.3	17.8	0.00e+00	0	34	0	1728053248	58	4108
2026-01-01 13:19:20.37	244.10	31.85	-46.3	-47.3	17.8	0.00e+00	0	34	0	1734344704	58	4122
2026-01-01 13:19:21.38	244.44	31.93	-46.3	-47.3	17.8	0.00e+00	0	34	0	1739587584	58	4131
2026-01-01 13:19:22.39	244.78	32.00	-46.3	-47.3	17.8	0.00e+00	0	34	0	1745879040	58	4117
2026-01-01 13:19:23.40	245.13	32.08	-46.3	-47.3	17.8	0.00e+00	0	34	0	1751121920	58	4117
2026-01-01 13:19:24.41	245.47	32.15	-46.1	-47.1	17.8	0.00e+00	0	34	0	1757413376	58	4009
2026-01-01 13:19:25.42	245.82	32.22	-46.1	-47.1	17.8	0.00e+00	0	34	0	1762656256	58	4016
2026-01-01 13:19:26.42	246.17	32.29	-46.1	-47.1	17.8	0.00e+00	0	34	0	1767899136	58	4018
2026-01-01 13:19:27.43	246.52	32.36	-46.3	-47.3	17.8	0.00e+00	0	34	0	1774190592	58	4137
2026-01-01 13:19:28.44	246.87	32.43	-46.5	-47.5	17.8	0.00e+00	0	34	0	1779433472	58	4203
2026-01-01 13:19:29.45	247.22	32.50	-46.5	-47.5	17.7	0.00e+00	0	34	0	1785724928	58	4228
2026-01-01 13:19:30.45	247.57	32.56	-46.5	-47.5	17.8	0.00e+00	0	34	0	1790967808	58	4240
2026-01-01 13:19:31.46	247.93	32.63	-46.5	-47.6	17.7	0.00e+00	0	34	0	1796210688	58	4250
2026-01-01 13:19:32.47	248.29	32.69	-46.6	-47.6	17.8	0.00e+00	0	34	0	1802502144	58	4265
2026-01-01 13:19:33.48	248.65	32.75	-46.5	-47.5	17.8	0.00e+00	0	34	0	1807745024	58	4219
2026-01-01 13:19:34.48	249.00	32.82	-46.4	-47.4	17.8	0.00e+00	0	34	0	1814036480	58	4159
2026-01-01 13:19:35.49	249.37	32.88	-46.3	-47.3	17.9	0.00e+00	0	34	0	1819279360	58	4113
2026-01-01 13:19:36.50	249.73	32.94	-46.4	-47.4	17.9	0.00e+00	0	34	0	1824522240	58	4153
2026-01-01 13:19:37.51	250.09	33.00	-46.5	-47.5	17.8	0.00e+00	0	34	0	1830813696	58	4231
2026-01-01 13:19:38.51	250.46	33.05	-46.4	-47.4	17.8	0.00e+00	0	34	0	1836056576	58	4163
2026-01-01 13:19:39.51	250.82	33.11	-46.2	-47.2	17.9	0.00e+00	0	34	0	1842348032	58	4095
2026-01-01 13:19:40.52	251.19	33.16	-46.3	-47.2	17.8	0.00e+00	0	34	0	1847590912	58	4097
2026-01-01 13:19:41.53	251.56	33.22	-46.3	-47.3	17.9	0.00e+00	0	34	0	1853882368	58	4121
2026-01-01 13:19:42.54	251.93	33.27	-46.4	-47.5	17.8	0.00e+00	0	34	0	1859125248	58	4202
2026-01-01 13:19:43.55	252.30	33.32	-46.5	-47.5	17.8	0.00e+00	0	34	0	1864368128	58	4230
2026-01-01 13:19:44.56	252.67	33.37	-46.4	-47.4	17.8	0.00e+00	0	34	0	1870659584	58	4190
2026-01-01 13:19:45.57	253.05	33.42	-46.3	-47.3	17.8	0.00e+00	0	34	0	1875902464	58	4103
2026-01-01 13:19:46.58	253.42	33.47	-46.3	-47.3	17.9	0.00e+00	0	34	0	1881145344	58	4137
2026-01-01 13:19:47.58	253.79	33.52	-46.2	-47.2	17.9	0.00e+00	0	34	0	1887436800	58	4094
2026-01-01 13:19:48.59	254.17	33.56	-46.1	-47.1	17.9	0.00e+00	0	34	0	1892679680	58	4034
2026-01-01 13:19:49.60	254.55	33.61	-46.2	-47.2	17.9	0.00e+00	0	34	0	1898971136	58	4088
2026-01-01 13:19:50.60	254.93	33.65	-46.4	-47.4	17.8	0.00e+00	0	34	0	1904214016	58	4189
2026-01-01 13:19:51.61	255.31	33.69	-46.5	-47.5	17.8	0.00e+00	0	34	0	1909456896	58	4216
2026-01-01 13:19:52.62	255.69	33.73	-46.5	-47.5	17.8	0.00e+00	0	34	0	1915748352	58	4217
2026-01-01 13:19:53.63	256.07	33.77	-46.5	-47.5	17.8	0.00e+00	0	34	0	1920991232	58	4236
2026-01-01 13:19:54.64	256.45	33.81	-46.4	-47.4	17.8	0.00e+00	0	34	0	1927282688	58	4153
2026-01-01 13:19:55.65	256.84	33.85	-46.3	-47.3	17.9	0.00e+00	0	34	0	1932525568	58	4111
2026-01-01 13:19:56.66	257.22	33.88	-46.3	-47.3	17.8	0.00e+00	0	34	0	1938817024	58	4131
2026-01-01 13:19:57.67	257.61	33.91	-46.3	-47.3	17.8	0.00e+00	0	34	0	1944059904	58	4114
2026-01-01 13:19:58.68	257.99	33.95	-46.4	-47.4	17.8	0.00e+00	0	34	0	1950351360	58	4155
2026-01-01 13:19:59.69	258.38	33.98	-46.4	-47.4	17.8	0.00e+00	0	34	0	1955594240	58	4192
2026-01-01 13:20:00.69	258.76	34.01	-46.6	-47.6	17.8	0.00e+00	0	34	0	1960837120	58	4259
2026-01-01 13:20:01.70	259.15	34.03	-46.7	-47.7	17.7	0.00e+00	0	34	0	1967128576	58	4315
2026-01-01 13:20:02.71	259.54	34.06	-46.4	-47.4	17.9	0.00e+00	0	34	0	1972371456	58	4172
2026-01-01 13:20:03.72	259.93	34.09	-46.4	-47.4	17.8	0.00e+00	0	34	0	1977614336	58	4192
2026-01-01 13:20:04.74	260.32	34.11	-46.3	-47.3	17.8	0.00e+00	0	34	0	1983905792	58	4117
2026-01-01 13:20:05.74	260.71	34.13	-46.3	-47.3	17.8	0.00e+00	0	34	0	1989148672	58	4128
2026-01-01 13:20:06.75	261.10	34.15	-46.2	-47.2	17.9	0.00e+00	0	34	0	1995440128	58	4082
2026-01-01 13:20:07.76	261.49	34.17	-46.3	-47.2	17.9	0.00e+00	0	34	0	2000683008	58	4097
2026-01-01 13:20:08.77	261.89	34.19	-46.3	-47.3	17.8	0.00e+00	0	34	0	2005925888	58	4135
2026-01-01 13:20:09.78	262.28	34.21	-46.3	-47.3	17.8	0.00e+00	0	34	0	2012217344	58	4134
2026-01-01 13:20:10.78	262.67	34.22	-46.1	-47.1	17.9	0.00e+00	0	34	0	2017460224	58	4049
2026-01-01 13:20:11.79	263.06	34.23	-46.2	-47.2	17.8	0.00e+00	0	34	0	2023751680	58	4070
2026-01-01 13:20:12.80	263.45	34.25	-46.2	-47.1	17.9	0.00e+00	0	34	0	2028994560	58	4048
2026-01-01 13:20:13.80	263.84	34.26	-46.3	-47.3	17.8	0.00e+00	0	34	0	2035286016	58	4119
2026-01-01 13:20:14.81	264.24	34.27	-46.4	-47.4	17.8	0.00e+00	0	34	0	2040528896	58	4158
2026-01-01 13:20:15.82	264.63	34.27	-46.4	-47.4	17.8	0.00e+00	0	34	0	2045771776	58	4192
2026-01-01 13:20:16.83	265.03	34.28	-46.3	-47.3	17.9	0.00e+00	0	34	0	2052063232	58	4107
2026-01-01 13:20:17.84	265.42	34.28	-46.2	-47.1	17.9	0.00e+00	0	34	0	2057306112	58	4050
2026-01-01 13:20:18.84	265.81	34.29	-46.2	-47.2	17.8	0.00e+00	0	34	0	2063597568	58	4085
2026-01-01 13:20:19.86	266.21	34.29	-46.4	-47.4	17.8	0.00e+00	0	34	0	2068840448	58	4182
2026-01-01 13:20:20.86	266.60	34.29	-46.5	-47.6	17.8	0.00e+00	0	34	0	2074083328	58	4249
2026-01-01 13:20:21.87	266.99	34.29	-46.4	-47.4	17.8	0.00e+00	0	34	0	2080374784	58	4166
2026-01-01 13:20:22.88	267.39	34.28	-46.5	-47.5	17.8	0.00e+00	0	34	0	2085617664	58	4206
2026-01-01 13:20:23.89	267.78	34.28	-46.4	-47.4	17.9	0.00e+00	0	34	0	2091909120	58	4154
2026-01-01 13:20:24.90	268.18	34.27	-46.5	-47.6	17.8	0.00e+00	0	34	0	2097152000	58	4243
2026-01-01 13:20:25.90	268.57	34.27	-46.4	-47.4	17.8	0.00e+00	0	34	0	2102394880	58	4191
2026-01-01 13:20:26.92	268.97	34.26	-46.4	-47.4	17.8	0.00e+00	0	34	0	2108686336	58	4190
2026-01-01 13:20:27.92	269.36	34.25	-46.4	-47.4	17.8	0.00e+00	0	34	0	2113929216	58	4156
2026-01-01 13:20:28.93	269.75	34.24	-46.4	-47.4	17.8	0.00e+00	0	34	0	2120220672	58	4158
2026-01-01 13:20:29.94	270.14	34.22	-46.4	-47.4	17.8	0.00e+00	0	34	0	2125463552	58	4186
2026-01-01 13:20:30.95	270.53	34.21	-46.5	-47.5	17.8	0.00e+00	0	34	0	2131755008	58	4214
2026-01-01 13:20:31.95	270.92	34.19	-46.4	-47.4	17.8	0.00e+00	0	34	0	2136997888	58	4192
2026-01-01 13:20:32.96	271.32	34.18	-46.3	-47.2	17.9	0.00e+00	0	34	0	2142240768	58	4096
2026-01-01 13:20:33.97	271.71	34.16	-46.2	-47.2	17.9	0.00e+00	0	34	0	2148532224	58	4081
2026-01-01 13:20:34.97	272.09	34.14	-46.3	-47.3	17.9	0.00e+00	0	34	0	2153775104	58	4122
2026-01-01 13:20:35.98	272.48	34.12	-46.5	-47.5	17.8	0.00e+00	0	34	0	2160066560	58	4220
2026-01-01 13:20:36.99	272.87	34.09	-46.7	-47.7	17.8	0.00e+00	0	34	0	2165309440	58	4302
2026-01-01 13:20:38.00	273.26	34.07	-46.7	-47.7	17.8	0.00e+00	0	34	0	2170552320	58	4336
2026-01-01 13:20:39.01	273.65	34.04	-46.6	-47.6	17.8	0.00e+00	0	34	0	2176843776	58	4291
2026-01-01 13:20:40.02	274.04	34.01	-46.5	-47.5	17.8	0.00e+00	0	34	0	2182086656	58	4216
2026-01-01 13:20:41.02	274.42	33.99	-46.5	-47.5	17.8	0.00e+00	0	34	0	2187329536	58	4227
2026-01-01 13:20:42.03	274.81	33.96	-46.5	-47.5	17.8	0.00e+00	0	34	0	2193620992	58	4229
2026-01-01 13:20:43.04	275.20	33.92	-46.5	-47.5	17.8	0.00e+00	0	34	0	2198863872	58	4238
2026-01-01 13:20:44.05	275.58	33.89	-46.5	-47.5	17.8	0.00e+00	0	34	0	2205155328	58	4230
2026-01-01 13:20:45.06	275.97	33.86	-46.4	-47.4	17.8	0.00e+00	0	34	0	2210398208	58	4181
2026-01-01 13:20:46.07	276.35	33.82	-46.3	-47.3	17.9	0.00e+00	0	34	0	2216689664	58	4105
2026-01-01 13:20:47.07	276.73	33.78	-46.4	-47.4	17.8	0.00e+00	0	34	0	2221932544	58	4163
2026-01-01 13:20:48.08	277.11	33.74	-46.6	-47.6	17.8	0.00e+00	0	34	0	2228224000	58	4261
2026-01-01 13:20:49.09	277.49	33.71	-46.7	-47.8	17.8	0.00e+00	0	34	0	2233466880	58	4348
2026-01-01 13:20:50.10	277.87	33.66	-46.8	-47.8	17.8	0.00e+00	0	34	0	2238709760	58	4390
2026-01-01 13:20:51.11	278.25	33.62	-46.6	-47.6	17.8	0.00e+00	0	34	0	2245001216	58	4277
2026-01-01 13:20:52.12	278.63	33.58	-46.7	-47.7	17.8	0.00e+00	0	34	0	2250244096	58	4305
2026-01-01 13:20:53.13	279.01	33.53	-46.6	-47.6	17.8	0.00e+00	0	34	0	2256535552	58	4275
2026-01-01 13:20:54.14	279.38	33.49	-46.8	-47.8	17.8	0.00e+00	0	34	0	2261778432	58	4357
2026-01-01 13:20:55.15	279.76	33.44	-47.0	-48.0	17.8	0.00e+00	0	34	0	2267021312	59	4241
2026-01-01 13:20:56.16	280.13	33.39	-46.9	-47.9	17.8	0.00e+00	0	34	0	2273312768	59	4191
2026-01-01 13:20:57.17	280.51	33.34	-46.7	-47.8	17.8	0.00e+00	0	34	0	2278555648	59	4107
2026-01-01 13:20:58.18	280.88	33.29	-46.8	-47.8	17.8	0.00e+00	0	34	0	2283798528	59	4135
2026-01-01 13:20:59.18	281.25	33.24	-46.8	-47.8	17.9	0.00e+00	0	34	0	2290089984	59	4128
2026-01-01 13:21:00.19	281.61	33.18	-46.9	-48.0	17.8	0.00e+00	0	34	0	2295332864	59	4202
2026-01-01 13:21:01.20	281.98	33.13	-47.0	-48.1	17.8	0.00e+00	0	34	0	2301624320	59	4243
2026-01-01 13:21:02.20	282.35	33.07	-46.8	-47.9	17.8	0.00e+00	0	34	0	2306867200	59	4146
2026-01-01 13:21:03.21	282.71	33.01	-46.6	-47.6	17.9	0.00e+00	0	34	0	2313158656	59	4016
2026-01-01 13:21:04.22	283.08	32.96	-46.6	-47.6	17.9	0.00e+00	0	34	0	2318401536	59	4021
2026-01-01 13:21:05.23	283.44	32.90	-46.6	-47.6	17.9	0.00e+00	0	34	0	2324692992	59	4029
2026-01-01 13:21:06.24	283.80	32.84	-46.8	-47.8	17.9	0.00e+00	0	34	0	2329935872	59	4114
2026-01-01 13:21:07.25	284.16	32.77	-46.9	-47.9	17.8	0.00e+00	0	34	0	2335178752	59	4165
2026-01-01 13:21:08.26	284.52	32.71	-46.7	-47.8	17.8	0.00e+00	0	34	0	2341470208	59	4104
2026-01-01 13:21:09.27	284.88	32.65	-46.5	-47.5	17.9	0.00e+00	0	34	0	2346713088	59	3978
2026-01-01 13:21:10.28	285.23	32.58	-46.5	-47.5	17.9	0.00e+00	0	34	0	2351955968	59	3999
2026-01-01 13:21:11.28	285.58	32.52	-46.8	-47.8	17.8	0.00e+00	0	34	0	2358247424	59	4110
2026-01-01 13:21:12.29	285.94	32.45	-46.8	-47.8	17.8	0.00e+00	0	34	0	2363490304	59	4139
2026-01-01 13:21:13.30	286.29	32.38	-46.8	-47.9	17.8	0.00e+00	0	34	0	2369781760	59	4156
2026-01-01 13:21:14.31	286.64	32.31	-47.0	-48.0	17.8	0.00e+00	0	34	0	2375024640	59	4219
2026-01-01 13:21:15.32	286.99	32.24	-47.0	-48.0	17.8	0.00e+00	0	34	0	2380267520	59	4241
2026-01-01 13:21:16.32	287.33	32.17	-47.1	-48.1	17.8	0.00e+00	0	34	0	2386558976	59	4261
2026-01-01 13:21:17.33	287.68	32.10	-47.1	-48.2	17.7	0.00e+00	0	34	0	2391801856	59	4312
2026-01-01 13:21:18.34	288.02	32.03	-47.2	-48.3	17.8	0.00e+00	0	34	0	2398093312	59	4351
2026-01-01 13:21:19.35	288.37	31.95	-47.1	-48.1	17.8	0.00e+00	0	34	0	2403336192	59	4271
2026-01-01 13:21:20.36	288.71	31.88	-47.1	-48.1	17.7	0.00e+00	0	34	0	2409627648	59	4279
2026-01-01 13:21:21.37	289.05	31.80	-47.0	-48.1	17.8	0.00e+00	0	34	0	2414870528	59	4247
2026-01-01 13:21:22.37	289.38	31.73	-47.0	-48.0	17.8	0.00e+00	0	34	0	2420113408	59	4216
2026-01-01 13:21:23.38	289.72	31.65	-47.0	-48.0	17.8	0.00e+00	0	34	0	2426404864	59	4237
2026-01-01 13:21:24.39	290.05	31.57	-47.1	-48.1	17.8	0.00e+00	0	34	0	2431647744	59	4280
2026-01-01 13:21:25.39	290.38	31.49	-47.1	-48.1	17.8	0.00e+00	0	34	0	2437939200	59	4256
2026-01-01 13:21:26.39	290.71	31.41	-47.0	-48.1	17.8	0.00e+00	0	34	0	2443182080	59	4252
2026-01-01 13:21:27.40	291.04	31.33	-47.0	-48.0	17.8	0.00e+00	0	34	0	2448424960	59	4230
2026-01-01 13:21:28.40	291.37	31.25	-47.2	-48.2	17.8	0.00e+00	0	34	0	2454716416	59	4318
2026-01-01 13:21:29.40	291.69	31.17	-47.1	-48.2	17.7	0.00e+00	0	34	0	2459959296	59	4309
2026-01-01 13:21:30.41	292.02	31.09	-47.2	-48.2	17.8	0.00e+00	0	34	0	2465202176	59	4322
2026-01-01 13:21:31.41	292.34	31.00	-47.2	-48.2	17.7	0.00e+00	0	34	0	2471493632	59	4333
2026-01-01 13:21:32.42	292.66	30.92	-47.1	-48.2	17.8	0.00e+00	0	34	0	2476736512	59	4297
2026-01-01 13:21:33.43	292.98	30.83	-47.2	-48.2	17.8	0.00e+00	0	34	0	2483027968	59	4332
2026-01-01 13:21:34.44	293.30	30.75	-47.1	-48.1	17.8	0.00e+00	0	34	0	2488270848	59	4266
2026-01-01 13:21:35.45	293.62	30.66	-47.1	-48.2	17.8	0.00e+00	0	34	0	2494562304	59	4304
2026-01-01 13:21:36.46	293.93	30.57	-47.2	-48.3	17.8	0.00e+00	0	34	0	2499805184	59	4343
2026-01-01 13:21:37.47	294.25	30.48	-47.2	-48.2	17.8	0.00e+00	0	34	0	2505048064	59	4338
2026-01-01 13:21:38.47	294.55	30.40	-47.2	-48.2	17.8	0.00e+00	0	34	0	2511339520	59	4338
2026-01-01 13:21:39.48	294.86	30.31	-47.2	-48.2	17.8	0.00e+00	0	34	0	2516582400	59	4323
2026-01-01 13:21:40.49	295.17	30.22	-47.0	-48.0	17.8	0.00e+00	0	34	0	2522873856	59	4198
2026-01-01 13:21:41.49	295.48	30.13	-47.1	-48.1	17.8	0.00e+00	0	34	0	2528116736	59	4265
2026-01-01 13:21:42.50	295.78	30.04	-47.1	-48.1	17.8	0.00e+00	0	34	0	2533359616	59	4269
2026-01-01 13:21:43.51	296.09	29.95	-47.1	-48.2	17.8	0.00e+00	0	34	0	2539651072	59	4316
2026-01-01 13:21:44.52	296.39	29.85	-47.3	-48.3	17.7	0.00e+00	0	34	0	2544893952	59	4383
2026-01-01 13:21:45.52	296.69	29.76	-47.3	-48.3	17.7	0.00e+00	0	34	0	2550136832	59	4383
2026-01-01 13:21:46.53	296.98	29.67	-47.1	-48.1	17.8	0.00e+00	0	34	0	2556428288	59	4280
2026-01-01 13:21:47.54	297.28	29.57	-47.0	-48.1	17.8	0.00e+00	0	34	0	2561671168	59	4244
2026-01-01 13:21:48.55	297.58	29.48	-46.9	-47.9	17.8	0.00e+00	0	34	0	2567962624	59	4181
2026-01-01 13:21:49.56	297.87	29.38	-46.9	-47.9	17.8	0.00e+00	0	34	0	2573205504	59	4168
2026-01-01 13:21:50.56	298.16	29.29	-47.0	-48.0	17.8	0.00e+00	0	34	0	2579496960	59	4242
2026-01-01 13:21:51.57	298.45	29.19	-47.2	-48.3	17.8	0.00e+00	0	34	0	2584739840	59	4345
2026-01-01 13:21:52.58	298.74	29.10	-47.3	-48.3	17.7	0.00e+00	0	34	0	2591031296	59	4379
2026-01-01 13:21:53.59	299.02	29.00	-47.3	-48.3	17.7	0.00e+00	0	34	0	2596274176	59	4381
2026-01-01 13:21:54.59	299.30	28.91	-47.1	-48.2	17.8	0.00e+00	0	34	0	2601517056	59	4303
2026-01-01 13:21:55.60	299.59	28.81	-47.1	-48.2	17.8	0.00e+00	0	34	0	2607808512	59	4295
2026-01-01 13:21:56.61	299.87	28.71	-47.0	-48.1	17.8	0.00e+00	0	34	0	2613051392	59	4249
2026-01-01 13:21:57.62	300.15	28.61	-47.1	-48.1	17.8	0.00e+00	0	34	0	2618294272	59	4289
2026-01-01 13:21:58.63	300.43	28.51	-47.3	-48.4	17.7	0.00e+00	0	34	0	2624585728	59	4407
2026-01-01 13:21:59.64	300.70	28.41	-47.3	-48.4	17.8	0.00e+00	0	34	0	2629828608	59	4408
2026-01-01 13:22:00.66	300.98	28.31	-47.4	-48.4	17.7	0.00e+00	0	34	0	2636120064	59	4434
2026-01-01 13:22:01.66	301.25	28.22	-47.4	-48.5	17.7	0.00e+00	0	34	0	2641362944	59	4448
2026-01-01 13:22:02.67	301.52	28.12	-47.1	-48.1	17.8	0.00e+00	0	34	0	2646605824	59	4270
2026-01-01 13:22:03.68	301.79	28.02	-47.1	-48.1	17.8	0.00e+00	0	34	0	2652897280	59	4280
2026-01-01 13:22:04.70	302.06	27.91	-47.1	-48.1	17.7	0.00e+00	0	34	0	2658140160	59	4256
2026-01-01 13:22:05.70	302.33	27.81	-47.1	-48.2	17.8	0.00e+00	0	34	0	2664431616	59	4298
2026-01-01 13:22:06.71	302.59	27.71	-47.3	-48.3	17.7	0.00e+00	0	34	0	2669674496	59	4387
2026-01-01 13:22:07.72	302.86	27.61	-47.2	-48.2	17.8	0.00e+00	0	34	0	2675965952	60	4070
2026-01-01 13:22:08.73	303.12	27.51	-47.1	-48.1	17.8	0.00e+00	0	34	0	2681208832	60	4038
2026-01-01 13:22:09.74	303.38	27.41	-47.0	-48.0	17.8	0.00e+00	0	34	0	2687500288	60	3989
2026-01-01 13:22:10.75	303.64	27.31	-46.8	-47.9	17.9	0.00e+00	0	34	0	2692743168	60	3926
2026-01-01 13:22:11.76	303.89	27.20	-46.9	-47.9	17.9	0.00e+00	0	34	0	2697986048	60	3935
2026-01-01 13:22:12.76	304.15	27.10	-47.0	-48.0	17.9	0.00e+00	0	34	0	2704277504	60	3978
2026-01-01 13:22:13.77	304.40	27.00	-46.9	-48.0	17.8	0.00e+00	0	34	0	2709520384	60	3966
2026-01-01 13:22:14.78	304.65	26.90	-47.0	-48.0	17.8	0.00e+00	0	34	0	2715811840	60	4002
2026-01-01 13:22:15.79	304.90	26.79	-46.9	-48.0	17.8	0.00e+00	0	34	0	2721054720	60	3967
2026-01-01 13:22:16.79	305.15	26.69	-46.9	-47.9	17.9	0.00e+00	0	34	0	2726297600	60	3931
2026-01-01 13:22:17.80	305.39	26.59	-46.9	-47.9	17.9	0.00e+00	0	34	0	2732589056	60	3953
2026-01-01 13:22:18.81	305.64	26.48	-46.8	-47.8	17.9	0.00e+00	0	34	0	2737831936	60	3906
2026-01-01 13:22:19.82	305.88	26.38	-46.8	-47.8	17.9	0.00e+00	0	34	0	2743074816	60	3908
2026-01-01 13:22:20.83	306.13	26.28	-46.9	-47.9	17.9	0.00e+00	0	34	0	2749366272	60	3946
2026-01-01 13:22:21.84	306.37	26.17	-47.0	-48.0	17.9	0.00e+00	0	34	0	2754609152	60	3998
2026-01-01 13:22:22.85	306.61	26.07	-47.0	-48.0	17.9	0.00e+00	0	34	0	2760900608	60	3971
2026-01-01 13:22:23.86	306.84	25.96	-47.1	-48.1	17.8	0.00e+00	0	34	0	2766143488	60	4012
2026-01-01 13:22:24.87	307.08	25.86	-46.8	-47.9	17.9	0.00e+00	0	34	0	2772434944	60	3917
2026-01-01 13:22:25.88	307.32	25.76	-46.9	-47.9	17.9	0.00e+00	0	34	0	2777677824	60	3928
2026-01-01 13:22:26.89	307.55	25.65	-46.8	-47.8	17.9	0.00e+00	0	34	0	2783969280	60	3885
2026-01-01 13:22:27.90	307.78	25.55	-46.9	-47.9	17.9	0.00e+00	0	34	0	2789212160	60	3940
2026-01-01 13:22:28.90	308.01	25.44	-47.0	-48.0	17.9	0.00e+00	0	34	0	2794455040	60	3982
2026-01-01 13:22:29.91	308.24	25.34	-47.1	-48.1	17.8	0.00e+00	0	34	0	2800746496	60	4043
2026-01-01 13:22:30.92	308.46	25.23	-47.1	-48.1	17.9	0.00e+00	0	34	0	2805989376	60	4039
2026-01-01 13:22:31.92	308.69	25.13	-47.1	-48.2	17.9	0.00e+00	0	34	0	2811232256	60	4053
2026-01-01 13:22:32.93	308.91	25.02	-47.0	-48.0	17.9	0.00e+00	0	34	0	2817523712	60	4001
2026-01-01 13:22:33.94	309.14	24.92	-46.9	-48.0	17.8	0.00e+00	0	34	0	2822766592	60	3962
2026-01-01 13:22:34.95	309.36	24.81	-46.8	-47.9	17.9	0.00e+00	0	34	0	2829058048	60	3918
2026-01-01 13:22:35.96	309.58	24.71	-46.8	-47.8	17.9	0.00e+00	0	34	0	2834300928	60	3897
2026-01-01 13:22:36.97	309.80	24.60	-46.9	-47.9	17.9	0.00e+00	0	34	0	2839543808	60	3953
2026-01-01 13:22:37.98	310.01	24.50	-46.9	-47.9	17.8	0.00e+00	0	34	0	2845835264	60	3926
2026-01-01 13:22:38.98	310.23	24.40	-46.9	-47.9	17.8	0.00e+00	0	34	0	2851078144	60	3934
2026-01-01 13:22:39.99	310.44	24.29	-46.9	-47.9	17.8	0.00e+00	0	34	0	2857369600	60	3949
2026-01-01 13:22:41.00	310.65	24.19	-46.9	-47.9	17.9	0.00e+00	0	34	0	2862612480	60	3951
2026-01-01 13:22:42.01	310.87	24.08	-46.9	-47.9	17.8	0.00e+00	0	34	0	2868903936	60	3952
2026-01-01 13:22:43.01	311.07	23.98	-46.9	-48.0	17.9	0.00e+00	0	34	0	2874146816	60	3966
2026-01-01 13:22:44.02	311.28	23.87	-47.0	-48.1	17.8	0.00e+00	0	34	0	2879389696	60	4014
2026-01-01 13:22:45.02	311.49	23.77	-47.0	-48.0	17.8	0.00e+00	0	34	0	2885681152	60	3999
2026-01-01 13:22:46.03	311.70	23.66	-47.1	-48.1	17.8	0.00e+00	0	34	0	2890924032	60	4036
2026-01-01 13:22:47.04	311.90	23.56	-47.1	-48.1	17.8	0.00e+00	0	34	0	2897215488	60	4032
2026-01-01 13:22:48.04	312.10	23.46	-47.1	-48.1	17.8	0.00e+00	0	34	0	2902458368	60	4028
2026-01-01 13:22:49.05	312.30	23.35	-47.1	-48.1	17.8	0.00e+00	0	34	0	2907701248	60	4039
2026-01-01 13:22:50.06	312.51	23.25	-47.1	-48.1	17.8	0.00e+00	0	34	0	2913992704	60	4044
2026-01-01 13:22:51.07	312.70	23.14	-47.1	-48.1	17.8	0.00e+00	0	34	0	2919235584	60	4018
2026-01-01 13:22:52.08	312.90	23.04	-47.2	-48.2	17.8	0.00e+00	0	34	0	2925527040	60	4066
2026-01-01 13:22:53.09	313.10	22.93	-47.2	-48.2	17.7	0.00e+00	0	34	0	2930769920	60	4071
2026-01-01 13:22:54.09	313.29	22.83	-47.2	-48.2	17.7	0.00e+00	0	34	0	2936012800	60	4089
2026-01-01 13:22:55.10	313.49	22.73	-47.5	-48.5	17.7	0.00e+00	0	34	0	2942304256	60	4225
2026-01-01 13:22:56.11	313.68	22.62	-47.5	-48.6	17.7	0.00e+00	0	34	0	2947547136	60	4243
2026-01-01 13:22:57.12	313.87	22.52	-47.5	-48.6	17.7	0.00e+00	0	34	0	2953838592	60	4253
2026-01-01 13:22:58.13	314.06	22.42	-47.7	-48.8	17.6	0.00e+00	0	34	0	2959081472	60	4345
2026-01-01 13:22:59.13	314.25	22.31	-47.7	-48.8	17.7	0.00e+00	0	34	0	2965372928	60	4348
2026-01-01 13:23:00.14	314.44	22.21	-47.6	-48.7	17.6	0.00e+00	0	34	0	2970615808	60	4302
2026-01-01 13:23:01.15	314.63	22.11	-47.6	-48.7	17.6	0.00e+00	0	34	0	2975858688	60	4302
2026-01-01 13:23:02.16	314.81	22.00	-47.7	-48.7	17.6	0.00e+00	0	34	0	2982150144	60	4325
2026-01-01 13:23:03.17	315.00	21.90	-47.7	-48.7	17.6	0.00e+00	0	34	0	2987393024	60	4322
2026-01-01 13:23:04.18	315.18	21.80	-47.7	-48.8	17.6	0.00e+00	0	34	0	2993684480	60	4359
2026-01-01 13:23:05.19	315.36	21.69	-47.8	-48.8	17.6	0.00e+00	0	34	0	2998927360	60	4386
2026-01-01 13:23:06.19	315.54	21.59	-47.9	-49.0	17.6	0.00e+00	0	34	0	3004170240	60	4466
2026-01-01 13:23:07.20	315.72	21.49	-47.9	-49.0	17.6	0.00e+00	0	34	0	3010461696	61	4228
2026-01-01 13:23:08.21	315.90	21.39	-48.0	-49.0	17.6	0.00e+00	0	34	0	3015704576	61	4228
2026-01-01 13:23:09.22	316.08	21.28	-47.8	-48.9	17.6	0.00e+00	0	34	0	3020947456	61	4168
2026-01-01 13:23:10.23	316.26	21.18	-47.8	-48.9	17.6	0.00e+00	0	34	0	3027238912	61	4169
2026-01-01 13:23:11.24	316.43	21.08	-47.8	-48.8	17.6	0.00e+00	0	34	0	3032481792	61	4145
2026-01-01 13:23:12.24	316.60	20.98	-47.7	-48.7	17.7	0.00e+00	0	34	0	3038773248	61	4075
2026-01-01 13:23:13.25	316.78	20.88	-47.7	-48.7	17.7	0.00e+00	0	34	0	3044016128	61	4076
2026-01-01 13:23:14.26	316.95	20.78	-47.7	-48.7	17.7	0.00e+00	0	34	0	3050307584	61	4077
2026-01-01 13:23:15.27	317.12	20.67	-47.7	-48.7	17.7	0.00e+00	0	34	0	3055550464	61	4093
2026-01-01 13:23:16.28	317.29	20.57	-47.6	-48.7	17.7	0.00e+00	0	34	0	3061841920	61	4072
2026-01-01 13:23:17.28	317.46	20.47	-47.7	-48.8	17.7	0.00e+00	0	34	0	3067084800	61	4117
2026-01-01 13:23:18.29	317.63	20.37	-47.8	-48.8	17.6	0.00e+00	0	34	0	3072327680	61	4123
2026-01-01 13:23:19.30	317.79	20.27	-47.8	-48.9	17.6	0.00e+00	0	34	0	3078619136	61	4148
2026-01-01 13:23:20.31	317.96	20.17	-47.8	-48.9	17.7	0.00e+00	0	34	0	3083862016	61	4165
2026-01-01 13:23:21.32	318.12	20.07	-47.9	-49.0	17.6	0.00e+00	0	34	0	3089104896	61	4222
2026-01-01 13:23:22.33	318.29	19.97	-47.9	-49.0	17.6	0.00e+00	0	34	0	3095396352	61	4218
2026-01-01 13:23:23.34	318.45	19.87	-48.0	-49.1	17.6	0.00e+00	0	34	0	3100639232	61	4250
2026-01-01 13:23:24.34	318.61	19.77	-48.0	-49.1	17.6	0.00e+00	0	34	0	3106930688	61	4275
2026-01-01 13:23:25.36	318.77	19.67	-48.1	-49.2	17.6	0.00e+00	0	34	0	3112173568	61	4297
2026-01-01 13:23:26.37	318.93	19.57	-48.2	-49.3	17.5	0.00e+00	0	34	0	3117416448	61	4363
2026-01-01 13:23:27.37	319.09	19.47	-48.2	-49.3	17.5	0.00e+00	0	34	0	3123707904	61	4369
2026-01-01 13:23:28.38	319.24	19.37	-48.2	-49.3	17.5	0.00e+00	0	34	0	3128950784	61	4379
2026-01-01 13:23:29.38	319.40	19.28	-48.3	-49.5	17.5	0.00e+00	0	34	0	3135242240	61	4442
2026-01-01 13:23:30.39	319.55	19.18	-48.2	-49.3	17.5	0.00e+00	0	34	0	3140485120	61	4374
2026-01-01 13:23:31.40	319.71	19.08	-48.3	-49.4	17.5	0.00e+00	0	34	0	3146776576	61	4395
2026-01-01 13:23:32.40	319.86	18.98	-48.2	-49.3	17.5	0.00e+00	0	34	0	3152019456	61	4352
2026-01-01 13:23:33.41	320.01	18.88	-48.3	-49.3	17.5	0.00e+00	0	34	0	3157262336	61	4386
2026-01-01 13:23:34.41	320.16	18.79	-48.2	-49.3	17.5	0.00e+00	0	34	0	3163553792	61	4376
2026-01-01 13:23:35.42	320.32	18.69	-48.1	-49.2	17.5	0.00e+00	0	34	0	3168796672	61	4327
2026-01-01 13:23:36.43	320.46	18.59	-48.1	-49.2	17.5	0.00e+00	0	34	0	3175088128	61	4307
2026-01-01 13:23:37.44	320.61	18.49	-48.2	-49.3	17.5	0.00e+00	0	34	0	3180331008	61	4343
2026-01-01 13:23:38.44	320.76	18.40	-48.1	-49.2	17.5	0.00e+00	0	34	0	3185573888	61	4314
2026-01-01 13:23:39.45	320.91	18.30	-48.3	-49.3	17.5	0.00e+00	0	34	0	3191865344	61	4387
2026-01-01 13:23:40.46	321.05	18.20	-48.3	-49.4	17.5	0.00e+00	0	34	0	3197108224	61	4393
2026-01-01 13:23:41.47	321.20	18.11	-48.4	-49.5	17.4	0.00e+00	0	34	0	3202351104	61	4475
2026-01-01 13:23:42.48	321.34	18.01	-48.5	-49.6	17.5	0.00e+00	0	34	0	3208642560	62	4255
2026-01-01 13:23:43.49	321.49	17.91	-48.6	-49.7	17.4	0.00e+00	0	34	0	3213885440	62	4328
2026-01-01 13:23:44.50	321.63	17.82	-48.7	-49.8	17.4	0.00e+00	0	34	0	3220176896	62	4374
2026-01-01 13:23:45.51	321.77	17.72	-48.7	-49.8	17.4	0.00e+00	0	34	0	3225419776	62	4384
2026-01-01 13:23:46.51	321.91	17.63	-48.8	-49.9	17.3	0.00e+00	0	34	0	3231711232	62	4412
2026-01-01 13:23:47.52	322.05	17.53	-48.8	-49.9	17.4	0.00e+00	0	34	0	3236954112	62	4440
2026-01-01 13:23:48.53	322.19	17.44	-48.7	-49.9	17.4	0.00e+00	0	34	0	3243245568	62	4399
2026-01-01 13:23:49.54	322.33	17.34	-48.8	-50.0	17.3	0.00e+00	0	34	0	3248488448	62	4444
2026-01-01 13:23:50.54	322.46	17.25	-48.8	-49.9	17.4	0.00e+00	0	34	0	3253731328	62	4431
2026-01-01 13:23:51.56	322.60	17.15	-48.7	-49.8	17.4	0.00e+00	0	34	0	3260022784	62	4383
2026-01-01 13:23:52.56	322.74	17.06	-48.7	-49.8	17.4	0.00e+00	0	34	0	3265265664	62	4370
2026-01-01 13:23:53.57	322.87	16.97	-48.7	-49.8	17.4	0.00e+00	0	34	0	3270508544	62	4370
2026-01-01 13:23:54.58	323.01	16.87	-48.7	-49.9	17.4	0.00e+00	0	34	0	3276800000	62	4402
2026-01-01 13:23:55.58	323.14	16.78	-48.7	-49.8	17.4	0.00e+00	0	34	0	3282042880	62	4383
2026-01-01 13:23:56.59	323.27	16.69	-48.7	-49.9	17.3	0.00e+00	0	34	0	3288334336	62	4397
2026-01-01 13:23:57.60	323.40	16.59	-48.8	-50.0	17.3	0.00e+00	0	34	0	3293577216	62	4459
2026-01-01 13:23:58.60	323.53	16.50	-48.9	-50.0	17.3	0.00e+00	0	34	0	3298820096	63	4224
2026-01-01 13:23:59.61	323.66	16.41	-48.9	-50.0	17.4	0.00e+00	0	34	0	3305111552	63	4215
2026-01-01 13:24:00.62	323.79	16.32	-48.9	-50.0	17.3	0.00e+00	0	34	0	3310354432	63	4233
2026-01-01 13:24:01.62	323.92	16.22	-48.8	-50.0	17.4	0.00e+00	0	34	0	3316645888	63	4200
2026-01-01 13:24:02.63	324.05	16.13	-48.8	-49.9	17.3	0.00e+00	0	34	0	3321888768	63	4190
2026-01-01 13:24:03.64	324.18	16.04	-48.8	-49.9	17.4	0.00e+00	0	34	0	3328180224	63	4165
2026-01-01 13:24:04.65	324.30	15.95	-48.8	-49.9	17.4	0.00e+00	0	34	0	3333423104	63	4152
2026-01-01 13:24:05.65	324.43	15.86	-48.7	-49.8	17.4	0.00e+00	0	34	0	3338665984	63	4142
2026-01-01 13:24:06.66	324.55	15.77	-48.6	-49.7	17.4	0.00e+00	0	34	0	3344957440	63	4087
2026-01-01 13:24:07.67	324.68	15.68	-48.6	-49.7	17.4	0.00e+00	0	34	0	3350200320	63	4076
2026-01-01 13:24:08.68	324.80	15.59	-48.7	-49.7	17.4	0.00e+00	0	34	0	3356491776	63	4096
2026-01-01 13:24:09.69	324.92	15.49	-48.6	-49.7	17.4	0.00e+00	0	34	0	3361734656	63	4062
2026-01-01 13:24:10.70	325.05	15.40	-48.6	-49.7	17.4	0.00e+00	0	34	0	3366977536	63	4096
2026-01-01 13:24:11.71	325.17	15.31	-48.7	-49.8	17.4	0.00e+00	0	34	0	3373268992	63	4139
2026-01-01 13:24:12.72	325.29	15.22	-48.7	-49.8	17.4	0.00e+00	0	34	0	3378511872	63	4127
2026-01-01 13:24:13.73	325.41	15.13	-48.7	-49.8	17.4	0.00e+00	0	34	0	3383754752	63	4127
2026-01-01 13:24:14.74	325.53	15.05	-48.7	-49.9	17.4	0.00e+00	0	34	0	3390046208	63	4152
2026-01-01 13:24:15.75	325.65	14.96	-48.8	-49.9	17.3	0.00e+00	0	34	0	3395289088	63	4169
2026-01-01 13:24:16.76	325.76	14.87	-48.9	-50.0	17.3	0.00e+00	0	34	0	3401580544	63	4240
2026-01-01 13:24:17.76	325.88	14.78	-48.9	-50.0	17.3	0.00e+00	0	34	0	3406823424	63	4223
2026-01-01 13:24:18.77	326.00	14.69	-48.9	-50.0	17.3	0.00e+00	0	34	0	3413114880	63	4235
2026-01-01 13:24:19.78	326.11	14.60	-48.9	-50.1	17.3	0.00e+00	0	34	0	3418357760	63	4253
2026-01-01 13:24:20.79	326.23	14.51	-48.9	-50.0	17.3	0.00e+00	0	34	0	3424649216	63	4235
2026-01-01 13:24:21.80	326.34	14.43	-49.0	-50.1	17.3	0.00e+00	0	34	0	3429892096	63	4271
2026-01-01 13:24:22.80	326.46	14.34	-49.0	-50.1	17.3	0.00e+00	0	34	0	3435134976	63	4276
2026-01-01 13:24:23.81	326.57	14.25	-49.0	-50.2	17.2	0.00e+00	0	34	0	3441426432	63	4307
2026-01-01 13:24:24.82	326.68	14.16	-49.1	-50.2	17.2	0.00e+00	0	34	0	3446669312	63	4324
2026-01-01 13:24:25.83	326.79	14.08	-49.2	-50.3	17.2	0.00e+00	0	34	0	3452960768	63	4380
2026-01-01 13:24:26.84	326.91	13.99	-49.2	-50.4	17.2	0.00e+00	0	34	0	3458203648	63	4393
2026-01-01 13:24:27.85	327.02	13.90	-49.2	-50.3	17.2	0.00e+00	0	34	0	3463446528	63	4376
2026-01-01 13:24:28.86	327.13	13.82	-49.2	-50.4	17.2	0.00e+00	0	34	0	3469737984	63	4396
2026-01-01 13:24:29.87	327.24	13.73	-49.2	-50.4	17.2	0.00e+00	0	34	0	3474980864	63	4393
2026-01-01 13:24:30.88	327.35	13.65	-49.3	-50.5	17.1	0.00e+00	0	34	0	3480223744	63	4482
2026-01-01 13:24:31.89	327.46	13.56	-49.3	-50.5	17.1	0.00e+00	0	34	0	3486515200	63	4457
2026-01-01 13:24:32.89	327.56	13.47	-49.4	-50.6	17.1	0.00e+00	0	34	0	3491758080	63	4500
2026-01-01 13:24:33.90	327.67	13.39	-49.4	-50.6	17.1	0.00e+00	0	34	0	3498049536	64	4249
2026-01-01 13:24:34.91	327.78	13.30	-49.4	-50.6	17.1	0.00e+00	0	34	0	3503292416	64	4280
2026-01-01 13:24:35.92	327.88	13.22	-49.4	-50.6	17.1	0.00e+00	0	34	0	3509583872	64	4268
2026-01-01 13:24:36.93	327.99	13.13	-49.4	-50.7	17.1	0.00e+00	0	34	0	3514826752	64	4298
2026-01-01 13:24:37.94	328.09	13.05	-49.4	-50.7	17.1	0.00e+00	0	34	0	3521118208	64	4294
2026-01-01 13:24:38.95	328.20	12.97	-49.5	-50.7	17.1	0.00e+00	0	34	0	3526361088	64	4300
2026-01-01 13:24:39.95	328.30	12.88	-49.6	-50.8	17.0	0.00e+00	0	34	0	3531603968	64	4357
2026-01-01 13:24:40.96	328.40	12.80	-49.5	-50.7	17.1	0.00e+00	0	34	0	3537895424	64	4312
2026-01-01 13:24:41.97	328.51	12.72	-49.6	-50.8	17.0	0.00e+00	0	34	0	3543138304	64	4358
2026-01-01 13:24:42.97	328.61	12.63	-49.5	-50.7	17.1	0.00e+00	0	35	0	3548381184	64	4312
2026-01-01 13:24:43.98	328.71	12.55	-49.5	-50.8	17.1	0.00e+00	0	34	0	3554672640	64	4342
2026-01-01 13:24:44.99	328.81	12.47	-49.5	-50.7	17.1	0.00e+00	0	34	0	3559915520	64	4334
2026-01-01 13:24:45.99	328.91	12.38	-49.5	-50.7	17.1	0.00e+00	0	34	0	3566206976	64	4326
2026-01-01 13:24:47.00	329.01	12.30	-49.5	-50.7	17.1	0.00e+00	0	34	0	3571449856	64	4314
2026-01-01 13:24:48.00	329.11	12.22	-49.5	-50.7	17.0	0.00e+00	0	34	0	3576692736	64	4318
2026-01-01 13:24:49.01	329.21	12.14	-49.6	-50.8	17.1	0.00e+00	0	34	0	3582984192	64	4345
2026-01-01 13:24:50.02	329.31	12.06	-49.6	-50.8	17.0	0.00e+00	0	34	0	3588227072	64	4347
2026-01-01 13:24:51.03	329.40	11.97	-49.6	-50.8	17.0	0.00e+00	0	34	0	3594518528	64	4387
2026-01-01 13:24:52.04	329.50	11.89	-49.7	-50.9	17.0	0.00e+00	0	34	0	3599761408	64	4411
2026-01-01 13:24:53.05	329.60	11.81	-49.7	-51.0	17.0	0.00e+00	0	34	0	3606052864	64	4444
2026-01-01 13:24:54.06	329.69	11.73	-49.7	-50.9	17.0	0.00e+00	0	34	0	3611295744	64	4402
2026-01-01 13:24:55.07	329.79	11.65	-49.8	-51.0	17.0	0.00e+00	0	34	0	3616538624	64	4453
2026-01-01 13:24:56.08	329.89	11.57	-49.7	-50.9	17.0	0.00e+00	0	34	0	3622830080	64	4435
