passes_logs/2026/01/01/R3.2S_Murmansk/R3.2S_Murmansk__20260101_023433_NOAA_20_JPSS-1_rec.log

#Pass ID: 20260101_023433_NOAA 20 (JPSS-1)
#Satellite: NOAA 20 (JPSS-1)
#Configuration: NOAA 20
#almurnet v.1.7.20251203
#Start time: 2026-01-01 02:34:35

#Version: 2.2.20231116
#Station: R3.2S_Murmansk
#Location: 33.079688 lon 68.888172 lat
#TLE: 1 43013U 17073A   25365.59858899  .00000178  00000+0  10524-3 0  9991
#TLE: 2 43013  98.7620 301.6911 0001952  60.2533 299.8837 14.19531732420695

#Time	Az	El	Level	Level2	SNR	BER	BlckErr	Temp	State	Recorded	gain1	gain2
2026-01-01 02:34:35.54	34.39	2.12	-59.9	-75.9	3.8	1.49e+00	0	34	0	0	86	22082
2026-01-01 02:34:36.53	34.35	2.18	-59.9	-75.9	3.8	1.49e+00	0	34	104	0	85	23432
2026-01-01 02:34:37.54	34.31	2.24	-59.9	-75.9	3.8	1.49e+00	0	34	104	0	85	23387
2026-01-01 02:34:38.54	34.27	2.30	-59.9	-75.9	3.8	1.49e+00	0	34	104	0	85	23428
2026-01-01 02:34:39.55	34.23	2.36	-59.9	-75.9	3.8	1.49e+00	0	34	104	0	85	23354
2026-01-01 02:34:40.55	34.18	2.42	-59.9	-75.9	3.8	1.49e+00	0	34	104	0	85	23345
2026-01-01 02:34:41.54	34.14	2.49	-59.9	-75.9	3.8	1.49e+00	0	34	104	0	85	23381
2026-01-01 02:34:42.54	34.10	2.55	-59.9	-75.9	3.8	1.49e+00	0	34	104	0	85	23331
2026-01-01 02:34:43.54	34.06	2.61	-59.9	-75.9	3.8	1.49e+00	0	34	104	0	85	23313
2026-01-01 02:34:44.55	34.02	2.67	-59.9	-75.8	3.8	1.49e+00	0	34	104	0	85	23302
2026-01-01 02:34:45.55	33.98	2.74	-59.9	-75.8	3.8	1.49e+00	0	34	104	0	85	23240
2026-01-01 02:34:46.55	33.94	2.80	-59.9	-75.8	3.8	1.49e+00	0	34	104	0	85	23295
2026-01-01 02:34:47.54	33.89	2.86	-59.9	-75.8	3.8	1.49e+00	0	34	104	0	85	23259
2026-01-01 02:34:48.53	33.85	2.92	-59.9	-75.8	3.8	1.49e+00	0	34	104	0	85	23162
2026-01-01 02:34:49.52	33.81	2.99	-59.9	-75.7	3.8	1.49e+00	0	34	104	0	85	23007
2026-01-01 02:34:50.52	33.77	3.05	-59.9	-75.8	3.8	1.49e+00	0	34	104	0	85	23146
2026-01-01 02:34:51.52	33.73	3.11	-59.9	-75.8	3.8	1.49e+00	0	34	104	0	85	23128
2026-01-01 02:34:52.50	33.68	3.17	-59.9	-75.8	3.8	1.49e+00	0	34	104	0	85	23204
2026-01-01 02:34:53.50	33.64	3.24	-59.9	-75.8	3.8	1.49e+00	0	34	104	0	85	23264
2026-01-01 02:34:54.50	33.60	3.30	-59.9	-75.9	3.8	1.49e+00	0	34	104	0	85	23354
2026-01-01 02:34:55.51	33.55	3.37	-59.9	-75.9	3.8	1.49e+00	0	34	104	0	85	23413
2026-01-01 02:34:56.51	33.51	3.43	-59.9	-75.9	3.8	1.49e+00	0	34	104	0	85	23374
2026-01-01 02:34:57.51	33.47	3.49	-59.9	-75.9	3.8	1.49e+00	0	34	104	0	85	23312
2026-01-01 02:34:58.50	33.42	3.56	-59.9	-75.8	3.8	1.49e+00	0	34	104	0	85	23297
2026-01-01 02:34:59.50	33.38	3.62	-59.9	-75.8	3.8	1.49e+00	0	34	104	0	85	23201
2026-01-01 02:35:00.50	33.33	3.69	-59.9	-75.8	3.8	1.49e+00	0	34	104	0	85	23109
2026-01-01 02:35:01.49	33.29	3.75	-59.9	-75.6	3.8	1.49e+00	0	35	104	0	85	22742
2026-01-01 02:35:02.49	33.24	3.81	-59.9	-75.5	3.8	1.49e+00	0	35	104	0	85	22265
2026-01-01 02:35:03.49	33.20	3.88	-59.9	-75.3	3.8	1.49e+00	0	35	104	0	85	21858
2026-01-01 02:35:04.48	33.15	3.94	-59.9	-75.1	3.8	1.49e+00	0	35	104	0	85	21315
2026-01-01 02:35:05.48	33.11	4.01	-59.9	-74.8	3.8	1.49e+00	0	34	104	0	85	20543
2026-01-01 02:35:06.48	33.06	4.07	-59.9	-74.5	3.8	1.49e+00	0	35	104	0	85	19961
2026-01-01 02:35:07.49	33.01	4.14	-59.9	-74.5	3.8	1.49e+00	0	35	104	0	85	19937
2026-01-01 02:35:08.49	32.97	4.20	-59.9	-74.4	3.8	1.49e+00	0	35	104	0	85	19779
2026-01-01 02:35:09.49	32.92	4.27	-59.9	-74.6	3.8	1.49e+00	0	35	104	0	85	20206
2026-01-01 02:35:10.49	32.87	4.34	-59.9	-74.9	3.8	1.49e+00	0	35	104	0	85	20971
2026-01-01 02:35:11.48	32.83	4.40	-59.9	-75.1	3.8	1.49e+00	0	35	104	0	85	21466
2026-01-01 02:35:12.48	32.78	4.47	-59.9	-75.0	3.8	1.49e+00	0	35	104	0	85	21210
2026-01-01 02:35:13.48	32.73	4.53	-59.8	-74.3	3.8	1.49e+00	0	35	104	0	85	19414
2026-01-01 02:35:14.48	32.68	4.60	-59.8	-72.5	4.2	1.48e+00	0	35	0	0	85	15804
2026-01-01 02:35:15.48	32.64	4.67	-59.6	-70.4	4.9	8.68e-01	0	35	0	1048576	85	12472
2026-01-01 02:35:16.48	32.59	4.73	-59.4	-68.7	6.0	4.37e-01	0	35	0	3145728	85	10179
2026-01-01 02:35:17.48	32.54	4.80	-59.1	-67.0	7.4	1.85e-01	0	35	0	4194304	84	8940
2026-01-01 02:35:18.48	32.49	4.87	-58.8	-65.6	8.6	5.95e-02	0	35	0	6291456	84	7578
2026-01-01 02:35:19.48	32.44	4.93	-58.4	-64.4	9.7	1.09e-02	0	35	0	8388608	83	6980
2026-01-01 02:35:20.48	32.39	5.00	-58.1	-63.4	10.6	3.27e-03	0	35	0	10485760	82	6587
2026-01-01 02:35:21.48	32.34	5.07	-58.8	-65.5	9.0	9.19e-04	0	35	0	11534336	82	8375
2026-01-01 02:35:22.47	32.29	5.14	-60.0	-73.2	4.0	1.48e+00	0	35	104	12582912	85	17234
2026-01-01 02:35:23.48	32.24	5.20	-58.3	-64.1	9.8	9.51e-01	0	35	0	12582912	83	6747
2026-01-01 02:35:24.48	32.19	5.27	-57.0	-60.8	12.8	1.98e-03	0	35	0	14680064	80	5476
2026-01-01 02:35:25.48	32.14	5.34	-57.2	-61.3	12.7	0.00e+00	0	35	0	16777216	79	6172
2026-01-01 02:35:26.48	32.09	5.41	-58.3	-64.3	9.4	2.16e-01	0	35	0	18874368	83	6898
2026-01-01 02:35:27.49	32.04	5.48	-56.0	-58.9	14.5	0.00e+00	0	35	0	20971520	78	4969
2026-01-01 02:35:28.49	31.99	5.54	-56.0	-58.9	14.5	0.00e+00	0	35	0	22020096	78	4934
2026-01-01 02:35:29.49	31.94	5.61	-56.0	-58.9	14.6	0.00e+00	0	35	0	24117248	78	4928
2026-01-01 02:35:30.49	31.89	5.68	-55.9	-58.8	14.6	0.00e+00	0	35	0	26214400	78	4897
2026-01-01 02:35:31.49	31.83	5.75	-56.0	-58.8	14.6	0.00e+00	0	35	0	28311552	78	4900
2026-01-01 02:35:32.49	31.78	5.82	-55.9	-58.8	14.6	0.00e+00	0	35	0	30408704	78	4886
2026-01-01 02:35:33.50	31.73	5.89	-55.8	-58.6	14.8	0.00e+00	0	35	0	31457280	78	4774
2026-01-01 02:35:34.49	31.68	5.96	-55.9	-58.7	14.7	0.00e+00	0	35	0	33554432	78	4849
2026-01-01 02:35:35.50	31.62	6.03	-55.7	-58.5	14.9	0.00e+00	0	35	0	35651584	78	4712
2026-01-01 02:35:36.50	31.57	6.10	-55.8	-58.6	14.8	0.00e+00	0	35	0	37748736	78	4770
2026-01-01 02:35:37.49	31.52	6.17	-55.8	-58.5	14.9	0.00e+00	0	35	0	38797312	78	4732
2026-01-01 02:35:38.49	31.46	6.24	-55.8	-58.5	14.9	0.00e+00	0	35	0	40894464	78	4740
2026-01-01 02:35:39.50	31.41	6.31	-55.8	-58.5	14.9	0.00e+00	0	35	0	42991616	78	4738
2026-01-01 02:35:40.50	31.35	6.38	-55.9	-58.6	14.9	0.00e+00	0	35	0	45088768	78	4774
2026-01-01 02:35:41.50	31.30	6.45	-55.8	-58.6	14.9	0.00e+00	0	35	0	47185920	78	4762
2026-01-01 02:35:42.49	31.24	6.52	-55.9	-58.6	14.9	0.00e+00	0	35	0	48234496	78	4772
2026-01-01 02:35:43.49	31.19	6.59	-55.9	-58.7	14.8	0.00e+00	0	35	0	50331648	78	4822
2026-01-01 02:35:44.49	31.13	6.66	-55.9	-58.7	14.9	0.00e+00	0	35	0	52428800	78	4824
2026-01-01 02:35:45.48	31.08	6.73	-55.9	-58.7	14.8	0.00e+00	0	35	0	54525952	78	4830
2026-01-01 02:35:46.48	31.02	6.80	-55.8	-58.5	15.0	0.00e+00	0	35	0	55574528	78	4733
2026-01-01 02:35:47.47	30.97	6.87	-55.9	-58.5	15.0	0.00e+00	0	35	0	57671680	78	4753
2026-01-01 02:35:48.46	30.91	6.95	-55.7	-58.3	15.2	0.00e+00	0	35	0	59768832	78	4648
2026-01-01 02:35:49.45	30.85	7.02	-55.7	-58.2	15.2	0.00e+00	0	35	0	61865984	77	4861
2026-01-01 02:35:50.45	30.80	7.09	-55.8	-58.4	15.2	0.00e+00	0	35	0	63963136	77	4938
2026-01-01 02:35:51.44	30.74	7.16	-55.6	-58.2	15.2	0.00e+00	0	35	0	65011712	77	4821
2026-01-01 02:35:52.43	30.68	7.23	-55.6	-58.2	15.2	0.00e+00	0	35	0	67108864	77	4831
2026-01-01 02:35:53.43	30.62	7.30	-55.7	-58.2	15.2	0.00e+00	0	35	0	69206016	77	4859
2026-01-01 02:35:54.42	30.56	7.38	-55.6	-58.2	15.3	0.00e+00	0	35	0	71303168	77	4825
2026-01-01 02:35:55.42	30.51	7.45	-55.6	-58.1	15.3	0.00e+00	0	35	0	72351744	77	4798
2026-01-01 02:35:56.41	30.45	7.52	-55.6	-58.2	15.3	0.00e+00	0	35	0	74448896	77	4839
2026-01-01 02:35:57.41	30.39	7.59	-55.5	-58.0	15.4	0.00e+00	0	35	0	76546048	77	4749
2026-01-01 02:35:58.41	30.33	7.67	-55.5	-58.0	15.4	0.00e+00	0	35	0	78643200	77	4717
2026-01-01 02:35:59.40	30.27	7.74	-55.6	-58.1	15.3	0.00e+00	0	35	0	80740352	77	4778
2026-01-01 02:36:00.39	30.21	7.81	-55.6	-58.1	15.4	0.00e+00	0	35	0	81788928	77	4771
2026-01-01 02:36:01.40	30.15	7.89	-55.5	-58.0	15.5	0.00e+00	0	35	0	83886080	77	4711
2026-01-01 02:36:02.39	30.09	7.96	-55.5	-58.0	15.5	0.00e+00	0	35	0	85983232	77	4715
2026-01-01 02:36:03.38	30.02	8.04	-55.5	-57.9	15.5	0.00e+00	0	35	0	88080384	77	4686
2026-01-01 02:36:04.37	29.96	8.11	-55.5	-57.9	15.5	0.00e+00	0	35	0	89128960	77	4691
2026-01-01 02:36:05.37	29.90	8.18	-55.5	-57.9	15.5	0.00e+00	0	35	0	91226112	77	4670
2026-01-01 02:36:06.37	29.84	8.26	-55.4	-57.8	15.6	0.00e+00	0	35	0	93323264	77	4649
2026-01-01 02:36:07.36	29.78	8.33	-55.4	-57.8	15.6	0.00e+00	0	35	0	95420416	77	4604
2026-01-01 02:36:08.36	29.71	8.41	-55.4	-57.8	15.6	0.00e+00	0	35	0	97517568	77	4639
2026-01-01 02:36:09.37	29.65	8.48	-55.3	-57.7	15.7	0.00e+00	0	35	0	98566144	77	4563
2026-01-01 02:36:10.36	29.59	8.56	-55.3	-57.6	15.8	0.00e+00	0	35	0	100663296	77	4509
2026-01-01 02:36:11.35	29.52	8.63	-55.3	-57.6	15.7	0.00e+00	0	35	0	102760448	77	4535
2026-01-01 02:36:12.35	29.46	8.71	-55.3	-57.6	15.7	0.00e+00	0	35	0	104857600	77	4532
2026-01-01 02:36:13.35	29.39	8.79	-55.3	-57.6	15.8	0.00e+00	0	35	0	106954752	77	4536
2026-01-01 02:36:14.35	29.33	8.86	-55.3	-57.6	15.8	0.00e+00	0	35	0	108003328	77	4503
2026-01-01 02:36:15.35	29.26	8.94	-55.2	-57.5	15.9	0.00e+00	0	35	0	110100480	76	4728
2026-01-01 02:36:16.34	29.20	9.02	-55.2	-57.5	15.8	0.00e+00	0	35	0	112197632	76	4732
2026-01-01 02:36:17.35	29.13	9.09	-55.1	-57.3	16.0	0.00e+00	0	35	0	114294784	76	4625
2026-01-01 02:36:18.35	29.06	9.17	-55.1	-57.4	16.0	0.00e+00	0	36	0	115343360	76	4653
2026-01-01 02:36:19.34	29.00	9.25	-55.1	-57.3	15.9	0.00e+00	0	35	0	117440512	76	4651
2026-01-01 02:36:20.35	28.93	9.33	-55.1	-57.4	15.9	0.00e+00	0	35	0	119537664	76	4654
2026-01-01 02:36:21.34	28.86	9.40	-55.0	-57.2	16.0	0.00e+00	0	35	0	121634816	76	4580
2026-01-01 02:36:22.34	28.79	9.48	-55.1	-57.3	16.0	0.00e+00	0	35	0	123731968	76	4635
2026-01-01 02:36:23.34	28.72	9.56	-55.1	-57.3	16.0	0.00e+00	0	35	0	124780544	76	4605
2026-01-01 02:36:24.33	28.66	9.64	-55.0	-57.2	16.1	0.00e+00	0	35	0	126877696	76	4565
2026-01-01 02:36:25.33	28.59	9.72	-55.0	-57.2	16.0	0.00e+00	0	35	0	128974848	76	4589
2026-01-01 02:36:26.32	28.52	9.79	-55.0	-57.2	16.1	0.00e+00	0	35	0	131072000	76	4589
2026-01-01 02:36:27.32	28.45	9.87	-55.1	-57.3	16.0	0.00e+00	0	35	0	132120576	76	4611
2026-01-01 02:36:28.32	28.38	9.95	-55.1	-57.3	16.0	0.00e+00	0	35	0	134217728	76	4623
2026-01-01 02:36:29.32	28.30	10.03	-55.1	-57.3	16.0	0.00e+00	0	35	0	136314880	76	4610
2026-01-01 02:36:30.32	28.23	10.11	-55.1	-57.3	16.0	0.00e+00	0	35	0	138412032	76	4628
2026-01-01 02:36:31.32	28.16	10.19	-55.1	-57.2	16.0	0.00e+00	0	35	0	140509184	76	4596
2026-01-01 02:36:32.31	28.09	10.27	-55.0	-57.2	16.0	0.00e+00	0	35	0	141557760	76	4580
2026-01-01 02:36:33.31	28.02	10.35	-55.1	-57.3	16.1	0.00e+00	0	35	0	143654912	76	4601
2026-01-01 02:36:34.32	27.94	10.43	-55.0	-57.2	16.1	0.00e+00	0	35	0	145752064	76	4567
2026-01-01 02:36:35.31	27.87	10.51	-55.1	-57.2	16.1	0.00e+00	0	35	0	147849216	76	4592
2026-01-01 02:36:36.31	27.80	10.59	-55.1	-57.3	16.1	0.00e+00	0	35	0	149946368	76	4616
2026-01-01 02:36:37.31	27.72	10.67	-55.0	-57.2	16.1	0.00e+00	0	35	0	150994944	76	4588
2026-01-01 02:36:38.31	27.65	10.76	-55.2	-57.4	16.0	0.00e+00	0	35	0	153092096	76	4671
2026-01-01 02:36:39.30	27.57	10.84	-55.1	-57.2	16.1	0.00e+00	0	35	0	155189248	76	4589
2026-01-01 02:36:40.31	27.50	10.92	-55.0	-57.1	16.2	0.00e+00	0	35	0	157286400	76	4532
2026-01-01 02:36:41.30	27.42	11.00	-55.0	-57.2	16.1	0.00e+00	0	36	0	159383552	76	4561
2026-01-01 02:36:42.31	27.34	11.08	-55.0	-57.2	16.2	0.00e+00	0	35	0	160432128	76	4547
2026-01-01 02:36:43.31	27.27	11.17	-55.0	-57.2	16.1	0.00e+00	0	35	0	162529280	76	4554
2026-01-01 02:36:44.31	27.19	11.25	-55.0	-57.2	16.1	0.00e+00	0	35	0	164626432	76	4573
2026-01-01 02:36:45.30	27.11	11.33	-55.0	-57.2	16.1	0.00e+00	0	35	0	166723584	76	4553
2026-01-01 02:36:46.30	27.03	11.41	-55.0	-57.2	16.1	0.00e+00	0	35	0	167772160	76	4558
2026-01-01 02:36:47.30	26.95	11.50	-55.0	-57.1	16.1	0.00e+00	0	35	0	169869312	76	4540
2026-01-01 02:36:48.30	26.87	11.58	-55.0	-57.2	16.1	0.00e+00	0	36	0	171966464	76	4572
2026-01-01 02:36:49.30	26.79	11.66	-55.0	-57.2	16.1	0.00e+00	0	35	0	174063616	76	4570
2026-01-01 02:36:50.30	26.71	11.75	-55.0	-57.1	16.2	0.00e+00	0	35	0	176160768	76	4535
2026-01-01 02:36:51.30	26.63	11.83	-55.0	-57.2	16.2	0.00e+00	0	35	0	177209344	76	4561
2026-01-01 02:36:52.29	26.55	11.92	-55.1	-57.2	16.1	0.00e+00	0	35	0	179306496	76	4584
2026-01-01 02:36:53.30	26.47	12.00	-55.1	-57.2	16.2	0.00e+00	0	35	0	181403648	76	4578
2026-01-01 02:36:54.29	26.39	12.09	-55.0	-57.2	16.2	0.00e+00	0	35	0	183500800	76	4552
2026-01-01 02:36:55.30	26.31	12.17	-55.1	-57.3	16.1	0.00e+00	0	35	0	185597952	76	4632
2026-01-01 02:36:56.29	26.22	12.26	-55.0	-57.1	16.2	0.00e+00	0	35	0	186646528	76	4496
2026-01-01 02:36:57.29	26.14	12.34	-55.0	-57.1	16.2	0.00e+00	0	36	0	188743680	76	4503
2026-01-01 02:36:58.28	26.06	12.43	-54.9	-57.0	16.3	0.00e+00	0	35	0	190840832	76	4450
2026-01-01 02:36:59.28	25.97	12.51	-55.0	-57.1	16.2	0.00e+00	0	36	0	192937984	76	4514
2026-01-01 02:37:00.28	25.89	12.60	-54.9	-57.0	16.3	0.00e+00	0	36	0	193986560	76	4464
2026-01-01 02:37:01.28	25.80	12.69	-55.0	-57.1	16.2	0.00e+00	0	35	0	196083712	76	4505
2026-01-01 02:37:02.27	25.71	12.77	-55.0	-57.1	16.3	0.00e+00	0	36	0	198180864	76	4515
2026-01-01 02:37:03.27	25.63	12.86	-54.7	-56.8	16.4	0.00e+00	0	35	0	200278016	76	4342
2026-01-01 02:37:04.27	25.54	12.95	-54.8	-56.9	16.4	0.00e+00	0	36	0	202375168	76	4400
2026-01-01 02:37:05.27	25.45	13.03	-54.8	-56.9	16.4	0.00e+00	0	35	0	203423744	76	4408
2026-01-01 02:37:06.27	25.36	13.12	-54.8	-56.8	16.4	0.00e+00	0	36	0	205520896	76	4385
2026-01-01 02:37:07.27	25.27	13.21	-54.8	-56.9	16.4	0.00e+00	0	35	0	207618048	76	4395
2026-01-01 02:37:08.25	25.19	13.30	-54.8	-56.9	16.4	0.00e+00	0	36	0	209715200	76	4411
2026-01-01 02:37:09.26	25.09	13.39	-54.8	-56.9	16.3	0.00e+00	0	35	0	211812352	76	4414
2026-01-01 02:37:10.26	25.00	13.48	-54.9	-57.0	16.3	0.00e+00	0	36	0	212860928	76	4447
2026-01-01 02:37:11.24	24.91	13.56	-54.8	-56.8	16.4	0.00e+00	0	35	0	214958080	76	4371
2026-01-01 02:37:12.24	24.82	13.65	-54.8	-56.8	16.4	0.00e+00	0	35	0	217055232	76	4375
2026-01-01 02:37:13.24	24.73	13.74	-54.8	-56.8	16.4	0.00e+00	0	36	0	219152384	76	4378
2026-01-01 02:37:14.24	24.64	13.83	-54.8	-56.8	16.4	0.00e+00	0	35	0	220200960	76	4380
2026-01-01 02:37:15.24	24.54	13.92	-54.8	-56.9	16.4	0.00e+00	0	35	0	222298112	76	4392
2026-01-01 02:37:16.24	24.45	14.01	-54.8	-56.8	16.5	0.00e+00	0	35	0	224395264	76	4366
2026-01-01 02:37:17.24	24.35	14.10	-54.8	-56.9	16.4	0.00e+00	0	36	0	226492416	76	4395
2026-01-01 02:37:18.23	24.26	14.19	-54.8	-56.8	16.4	0.00e+00	0	35	0	228589568	76	4375
2026-01-01 02:37:19.24	24.16	14.29	-54.6	-56.6	16.5	0.00e+00	0	36	0	229638144	75	4514
2026-01-01 02:37:20.24	24.07	14.38	-54.6	-56.6	16.5	0.00e+00	0	36	0	231735296	75	4507
2026-01-01 02:37:21.23	23.97	14.47	-54.6	-56.7	16.5	0.00e+00	0	36	0	233832448	75	4546
2026-01-01 02:37:22.24	23.87	14.56	-54.6	-56.6	16.6	0.00e+00	0	36	0	235929600	75	4532
2026-01-01 02:37:23.23	23.77	14.65	-54.6	-56.6	16.5	0.00e+00	0	36	0	236978176	75	4545
2026-01-01 02:37:24.23	23.67	14.74	-54.6	-56.6	16.6	0.00e+00	0	36	0	239075328	75	4499
2026-01-01 02:37:25.24	23.57	14.84	-54.6	-56.6	16.5	0.00e+00	0	36	0	241172480	75	4518
2026-01-01 02:37:26.24	23.47	14.93	-54.6	-56.6	16.5	0.00e+00	0	36	0	243269632	75	4525
2026-01-01 02:37:27.24	23.37	15.02	-54.6	-56.5	16.6	0.00e+00	0	35	0	245366784	75	4487
2026-01-01 02:37:28.24	23.27	15.12	-54.4	-56.4	16.7	0.00e+00	0	36	0	246415360	75	4396
2026-01-01 02:37:29.24	23.17	15.21	-54.5	-56.4	16.7	0.00e+00	0	36	0	248512512	75	4413
2026-01-01 02:37:30.24	23.06	15.31	-54.5	-56.5	16.6	0.00e+00	0	35	0	250609664	75	4462
2026-01-01 02:37:31.25	22.96	15.40	-54.5	-56.5	16.6	0.00e+00	0	36	0	252706816	75	4467
2026-01-01 02:37:32.25	22.85	15.50	-54.4	-56.3	16.7	0.00e+00	0	36	0	254803968	75	4388
2026-01-01 02:37:33.25	22.75	15.59	-54.3	-56.2	16.8	0.00e+00	0	35	0	255852544	75	4324
2026-01-01 02:37:34.25	22.64	15.69	-54.3	-56.3	16.8	0.00e+00	0	36	0	257949696	75	4341
2026-01-01 02:37:35.25	22.54	15.78	-54.4	-56.3	16.8	0.00e+00	0	36	0	260046848	75	4347
2026-01-01 02:37:36.25	22.43	15.88	-54.3	-56.2	16.8	0.00e+00	0	36	0	262144000	75	4333
2026-01-01 02:37:37.25	22.32	15.97	-54.4	-56.3	16.8	0.00e+00	0	36	0	264241152	75	4351
2026-01-01 02:37:38.25	22.21	16.07	-54.3	-56.1	16.8	0.00e+00	0	36	0	265289728	75	4288
2026-01-01 02:37:39.25	22.10	16.16	-54.3	-56.2	16.8	0.00e+00	0	36	0	267386880	75	4309
2026-01-01 02:37:40.24	21.99	16.26	-54.3	-56.2	16.8	0.00e+00	0	36	0	269484032	75	4330
2026-01-01 02:37:41.25	21.88	16.36	-54.3	-56.2	16.8	0.00e+00	0	36	0	271581184	75	4328
2026-01-01 02:37:42.25	21.77	16.46	-54.4	-56.3	16.8	0.00e+00	0	36	0	273678336	75	4367
2026-01-01 02:37:43.24	21.66	16.55	-54.3	-56.2	16.8	0.00e+00	0	36	0	274726912	75	4329
2026-01-01 02:37:44.24	21.55	16.65	-54.3	-56.2	16.8	0.00e+00	0	35	0	276824064	75	4314
2026-01-01 02:37:45.24	21.43	16.75	-54.4	-56.3	16.7	0.00e+00	0	35	0	278921216	75	4381
2026-01-01 02:37:46.24	21.32	16.85	-54.5	-56.4	16.7	0.00e+00	0	36	0	281018368	75	4404
2026-01-01 02:37:47.23	21.20	16.94	-54.5	-56.4	16.7	0.00e+00	0	36	0	282066944	75	4414
2026-01-01 02:37:48.23	21.09	17.04	-54.5	-56.4	16.7	0.00e+00	0	36	0	284164096	75	4419
2026-01-01 02:37:49.23	20.97	17.14	-54.5	-56.5	16.7	0.00e+00	0	35	0	286261248	75	4442
2026-01-01 02:37:50.23	20.85	17.24	-54.5	-56.4	16.7	0.00e+00	0	35	0	288358400	75	4438
2026-01-01 02:37:51.22	20.74	17.34	-54.5	-56.4	16.7	0.00e+00	0	36	0	290455552	75	4438
2026-01-01 02:37:52.22	20.62	17.44	-54.6	-56.5	16.6	0.00e+00	0	35	0	291504128	75	4490
2026-01-01 02:37:53.21	20.50	17.54	-54.5	-56.5	16.7	0.00e+00	0	35	0	293601280	75	4464
2026-01-01 02:37:54.21	20.38	17.64	-54.6	-56.6	16.6	0.00e+00	0	36	0	295698432	75	4513
2026-01-01 02:37:55.22	20.25	17.74	-54.6	-56.6	16.6	0.00e+00	0	36	0	297795584	75	4504
2026-01-01 02:37:56.21	20.13	17.84	-54.5	-56.4	16.7	0.00e+00	0	35	0	298844160	75	4431
2026-01-01 02:37:57.21	20.01	17.94	-54.5	-56.4	16.7	0.00e+00	0	36	0	300941312	75	4435
2026-01-01 02:37:58.21	19.88	18.05	-54.4	-56.3	16.8	0.00e+00	0	36	0	303038464	75	4371
2026-01-01 02:37:59.21	19.76	18.15	-54.4	-56.3	16.8	0.00e+00	0	35	0	305135616	75	4365
2026-01-01 02:38:00.20	19.63	18.25	-54.4	-56.3	16.8	0.00e+00	0	36	0	307232768	75	4357
2026-01-01 02:38:01.20	19.51	18.35	-54.4	-56.3	16.8	0.00e+00	0	36	0	308281344	75	4383
2026-01-01 02:38:02.20	19.38	18.45	-54.5	-56.4	16.7	0.00e+00	0	35	0	310378496	75	4437
2026-01-01 02:38:03.20	19.25	18.56	-54.5	-56.4	16.8	0.00e+00	0	36	0	312475648	75	4424
2026-01-01 02:38:04.20	19.12	18.66	-54.3	-56.2	16.9	0.00e+00	0	36	0	314572800	75	4295
2026-01-01 02:38:05.20	18.99	18.76	-54.4	-56.3	16.9	0.00e+00	0	35	0	316669952	75	4345
2026-01-01 02:38:06.20	18.86	18.87	-54.4	-56.3	16.8	0.00e+00	0	36	0	317718528	75	4350
2026-01-01 02:38:07.19	18.73	18.97	-54.3	-56.1	16.9	0.00e+00	0	36	0	319815680	75	4274
2026-01-01 02:38:08.19	18.59	19.08	-54.3	-56.1	16.9	0.00e+00	0	36	0	321912832	75	4282
2026-01-01 02:38:09.20	18.46	19.18	-54.3	-56.1	16.9	0.00e+00	0	36	0	324009984	75	4267
2026-01-01 02:38:10.20	18.32	19.29	-54.3	-56.2	16.9	0.00e+00	0	36	0	326107136	75	4315
2026-01-01 02:38:11.20	18.19	19.39	-54.4	-56.3	16.8	0.00e+00	0	36	0	327155712	75	4344
2026-01-01 02:38:12.20	18.05	19.50	-54.4	-56.3	16.8	0.00e+00	0	36	0	329252864	75	4367
2026-01-01 02:38:13.20	17.91	19.60	-54.5	-56.3	16.8	0.00e+00	0	36	0	331350016	75	4386
2026-01-01 02:38:14.19	17.77	19.71	-54.5	-56.4	16.8	0.00e+00	0	35	0	333447168	75	4411
2026-01-01 02:38:15.19	17.63	19.82	-54.6	-56.6	16.7	0.00e+00	0	36	0	334495744	75	4518
2026-01-01 02:38:16.20	17.49	19.92	-54.6	-56.5	16.7	0.00e+00	0	36	0	336592896	75	4480
2026-01-01 02:38:17.20	17.35	20.03	-54.7	-56.7	16.7	0.00e+00	0	36	0	338690048	75	4559
2026-01-01 02:38:18.20	17.20	20.14	-54.8	-56.7	16.6	0.00e+00	0	36	0	340787200	75	4586
2026-01-01 02:38:19.21	17.06	20.25	-54.7	-56.7	16.7	0.00e+00	0	36	0	342884352	75	4561
2026-01-01 02:38:20.21	16.91	20.35	-54.7	-56.6	16.7	0.00e+00	0	36	0	343932928	75	4531
2026-01-01 02:38:21.21	16.77	20.46	-54.7	-56.7	16.7	0.00e+00	0	36	0	346030080	75	4561
2026-01-01 02:38:22.21	16.62	20.57	-54.7	-56.7	16.7	0.00e+00	0	36	0	348127232	75	4572
2026-01-01 02:38:23.20	16.47	20.68	-54.8	-56.8	16.6	0.00e+00	0	36	0	350224384	75	4645
2026-01-01 02:38:24.19	16.33	20.78	-54.9	-56.9	16.5	0.00e+00	0	36	0	352321536	75	4700
2026-01-01 02:38:25.19	16.17	20.89	-55.0	-57.0	16.5	0.00e+00	0	36	0	353370112	75	4739
2026-01-01 02:38:26.19	16.02	21.00	-55.1	-57.2	16.4	0.00e+00	0	36	0	355467264	75	4815
2026-01-01 02:38:27.19	15.87	21.11	-55.1	-57.1	16.4	0.00e+00	0	36	0	357564416	75	4807
2026-01-01 02:38:28.18	15.72	21.22	-55.1	-57.2	16.4	0.00e+00	0	36	0	359661568	75	4822
2026-01-01 02:38:29.18	15.56	21.33	-55.1	-57.1	16.5	0.00e+00	0	36	0	360710144	75	4797
2026-01-01 02:38:30.19	15.41	21.44	-55.1	-57.1	16.4	0.00e+00	0	36	0	362807296	75	4805
2026-01-01 02:38:31.18	15.25	21.55	-55.1	-57.1	16.4	0.00e+00	0	36	0	364904448	75	4808
2026-01-01 02:38:32.18	15.09	21.66	-55.1	-57.1	16.4	0.00e+00	0	36	0	367001600	75	4806
2026-01-01 02:38:33.18	14.93	21.77	-55.1	-57.2	16.4	0.00e+00	0	36	0	369098752	75	4839
2026-01-01 02:38:34.17	14.77	21.88	-55.2	-57.3	16.4	0.00e+00	0	36	0	370147328	75	4873
2026-01-01 02:38:35.16	14.61	21.99	-55.0	-57.1	16.5	0.00e+00	0	36	0	372244480	75	4781
2026-01-01 02:38:36.16	14.45	22.11	-55.0	-57.0	16.5	0.00e+00	0	36	0	374341632	75	4742
2026-01-01 02:38:37.16	14.29	22.22	-54.9	-56.9	16.6	0.00e+00	0	36	0	376438784	75	4704
2026-01-01 02:38:38.16	14.12	22.33	-54.8	-56.8	16.6	0.00e+00	0	36	0	377487360	75	4628
2026-01-01 02:38:39.16	13.95	22.44	-54.9	-56.8	16.6	0.00e+00	0	36	0	379584512	75	4643
2026-01-01 02:38:40.16	13.79	22.56	-54.8	-56.8	16.7	0.00e+00	0	36	0	381681664	75	4612
2026-01-01 02:38:41.16	13.62	22.67	-54.7	-56.7	16.7	0.00e+00	0	36	0	383778816	75	4556
2026-01-01 02:38:42.16	13.45	22.78	-54.6	-56.6	16.8	0.00e+00	0	36	0	385875968	75	4505
2026-01-01 02:38:43.15	13.28	22.89	-54.7	-56.6	16.8	0.00e+00	0	36	0	386924544	75	4521
2026-01-01 02:38:44.15	13.10	23.01	-54.7	-56.6	16.7	0.00e+00	0	36	0	389021696	75	4532
2026-01-01 02:38:45.16	12.93	23.12	-54.6	-56.4	16.9	0.00e+00	0	36	0	391118848	75	4439
2026-01-01 02:38:46.16	12.75	23.24	-54.5	-56.4	16.9	0.00e+00	0	36	0	393216000	75	4419
2026-01-01 02:38:47.15	12.58	23.35	-54.6	-56.5	16.9	0.00e+00	0	36	0	395313152	75	4443
2026-01-01 02:38:48.16	12.40	23.47	-54.6	-56.5	16.8	0.00e+00	0	36	0	396361728	75	4461
2026-01-01 02:38:49.15	12.22	23.58	-54.7	-56.6	16.8	0.00e+00	0	36	0	398458880	75	4523
2026-01-01 02:38:50.14	12.04	23.69	-54.8	-56.7	16.7	0.00e+00	0	36	0	400556032	75	4570
2026-01-01 02:38:51.14	11.86	23.81	-54.7	-56.6	16.8	0.00e+00	0	36	0	402653184	75	4544
2026-01-01 02:38:52.13	11.68	23.92	-54.8	-56.7	16.7	0.00e+00	0	36	0	403701760	75	4578
2026-01-01 02:38:53.13	11.49	24.04	-54.7	-56.7	16.8	0.00e+00	0	36	0	405798912	75	4550
2026-01-01 02:38:54.12	11.31	24.15	-54.7	-56.7	16.7	0.00e+00	0	36	0	407896064	75	4562
2026-01-01 02:38:55.13	11.12	24.27	-54.8	-56.8	16.7	0.00e+00	0	36	0	409993216	75	4603
2026-01-01 02:38:56.12	10.93	24.38	-54.8	-56.7	16.7	0.00e+00	0	36	0	412090368	75	4598
2026-01-01 02:38:57.12	10.74	24.50	-54.9	-56.9	16.6	0.00e+00	0	36	0	413138944	75	4684
2026-01-01 02:38:58.12	10.55	24.62	-55.0	-56.9	16.6	0.00e+00	0	36	0	415236096	75	4702
2026-01-01 02:38:59.11	10.35	24.73	-55.0	-56.9	16.6	0.00e+00	0	36	0	417333248	75	4697
2026-01-01 02:39:00.11	10.16	24.85	-55.0	-57.0	16.6	0.00e+00	0	36	0	419430400	75	4714
2026-01-01 02:39:01.11	9.96	24.96	-55.0	-57.0	16.6	0.00e+00	0	36	0	421527552	75	4710
2026-01-01 02:39:02.10	9.77	25.08	-54.9	-56.9	16.7	0.00e+00	0	36	0	422576128	75	4660
2026-01-01 02:39:03.10	9.57	25.20	-55.0	-57.0	16.6	0.00e+00	0	36	0	424673280	75	4710
2026-01-01 02:39:04.10	9.37	25.31	-54.9	-56.8	16.7	0.00e+00	0	36	0	426770432	75	4635
2026-01-01 02:39:05.10	9.17	25.43	-54.9	-56.9	16.6	0.00e+00	0	36	0	428867584	75	4667
2026-01-01 02:39:06.09	8.96	25.55	-55.1	-57.1	16.5	0.00e+00	0	36	0	429916160	75	4803
2026-01-01 02:39:07.09	8.76	25.66	-55.2	-57.2	16.4	0.00e+00	0	36	0	432013312	75	4858
2026-01-01 02:39:08.09	8.55	25.78	-55.5	-57.7	16.3	0.00e+00	0	36	0	434110464	76	4823
2026-01-01 02:39:09.07	8.35	25.90	-55.8	-58.0	16.1	0.00e+00	0	36	0	436207616	76	5005
2026-01-01 02:39:10.07	8.14	26.02	-55.9	-58.2	15.9	0.00e+00	0	36	0	438304768	76	5104
2026-01-01 02:39:11.07	7.93	26.13	-56.0	-58.3	15.9	0.00e+00	0	36	0	439353344	77	4880
2026-01-01 02:39:12.07	7.71	26.25	-56.1	-58.4	15.8	0.00e+00	0	36	0	441450496	77	4942
2026-01-01 02:39:13.07	7.50	26.37	-56.1	-58.4	15.8	0.00e+00	0	36	0	443547648	77	4955
2026-01-01 02:39:14.08	7.28	26.49	-56.1	-58.5	15.8	0.00e+00	0	35	0	445644800	77	4990
2026-01-01 02:39:15.08	7.06	26.61	-56.1	-58.4	15.8	0.00e+00	0	36	0	446693376	77	4981
2026-01-01 02:39:16.08	6.84	26.72	-56.3	-58.7	15.6	0.00e+00	0	36	0	448790528	77	5128
2026-01-01 02:39:17.08	6.62	26.84	-56.3	-58.8	15.6	0.00e+00	0	36	0	450887680	77	5193
2026-01-01 02:39:18.08	6.40	26.96	-56.4	-58.8	15.6	0.00e+00	0	35	0	452984832	77	5205
2026-01-01 02:39:19.08	6.17	27.08	-56.5	-59.0	15.5	0.00e+00	0	36	0	455081984	78	4989
2026-01-01 02:39:20.08	5.94	27.20	-56.3	-58.8	15.6	0.00e+00	0	36	0	456130560	78	4891
2026-01-01 02:39:21.08	5.72	27.32	-56.3	-58.7	15.7	0.00e+00	0	36	0	458227712	78	4844
2026-01-01 02:39:22.08	5.49	27.43	-56.2	-58.6	15.8	0.00e+00	0	36	0	460324864	78	4770
2026-01-01 02:39:23.08	5.25	27.55	-56.1	-58.4	15.9	0.00e+00	0	36	0	462422016	78	4672
2026-01-01 02:39:24.09	5.02	27.67	-56.1	-58.4	15.9	0.00e+00	0	35	0	464519168	78	4654
2026-01-01 02:39:25.09	4.78	27.79	-56.1	-58.4	15.8	0.00e+00	0	36	0	465567744	78	4693
2026-01-01 02:39:26.09	4.55	27.91	-56.2	-58.6	15.7	0.00e+00	0	36	0	467664896	78	4785
2026-01-01 02:39:27.08	4.31	28.03	-56.2	-58.6	15.8	0.00e+00	0	36	0	469762048	78	4775
2026-01-01 02:39:28.08	4.07	28.14	-56.3	-58.7	15.6	0.00e+00	0	36	0	471859200	78	4869
2026-01-01 02:39:29.08	3.83	28.26	-56.4	-58.8	15.6	0.00e+00	0	36	0	472907776	78	4909
2026-01-01 02:39:30.07	3.59	28.38	-56.4	-58.9	15.6	0.00e+00	0	35	0	475004928	78	4930
2026-01-01 02:39:31.07	3.34	28.50	-56.4	-58.8	15.6	0.00e+00	0	36	0	477102080	78	4907
2026-01-01 02:39:32.07	3.09	28.61	-56.4	-58.9	15.5	0.00e+00	0	36	0	479199232	78	4932
2026-01-01 02:39:33.07	2.84	28.73	-56.5	-58.9	15.5	0.00e+00	0	36	0	481296384	78	4983
2026-01-01 02:39:34.07	2.59	28.85	-56.5	-59.0	15.5	0.00e+00	0	36	0	482344960	78	4993
2026-01-01 02:39:35.07	2.34	28.97	-56.3	-58.6	15.7	0.00e+00	0	36	0	484442112	78	4813
2026-01-01 02:39:36.07	2.08	29.08	-56.3	-58.7	15.7	0.00e+00	0	36	0	486539264	78	4823
2026-01-01 02:39:37.07	1.83	29.20	-56.1	-58.5	15.9	0.00e+00	0	36	0	488636416	78	4707
2026-01-01 02:39:38.06	1.57	29.32	-56.2	-58.5	15.8	0.00e+00	0	36	0	490733568	78	4746
2026-01-01 02:39:39.07	1.31	29.44	-56.3	-58.6	15.8	0.00e+00	0	36	0	491782144	78	4808
2026-01-01 02:39:40.07	1.04	29.55	-56.4	-58.9	15.6	0.00e+00	0	36	0	493879296	78	4933
2026-01-01 02:39:41.07	0.78	29.67	-56.4	-58.8	15.6	0.00e+00	0	36	0	495976448	78	4905
2026-01-01 02:39:42.07	0.51	29.78	-56.3	-58.6	15.8	0.00e+00	0	36	0	498073600	78	4803
2026-01-01 02:39:43.07	0.24	29.90	-56.2	-58.5	15.8	0.00e+00	0	36	0	500170752	78	4756
2026-01-01 02:39:44.06	359.97	30.02	-56.2	-58.5	15.9	0.00e+00	0	36	0	501219328	78	4727
2026-01-01 02:39:45.07	359.70	30.13	-56.2	-58.5	15.9	0.00e+00	0	36	0	503316480	78	4719
2026-01-01 02:39:46.07	359.43	30.25	-56.3	-58.6	15.7	0.00e+00	0	36	0	505413632	78	4801
2026-01-01 02:39:47.06	359.15	30.36	-56.3	-58.7	15.7	0.00e+00	0	36	0	507510784	78	4844
2026-01-01 02:39:48.07	358.87	30.48	-56.2	-58.6	15.8	0.00e+00	0	36	0	508559360	78	4775
2026-01-01 02:39:49.06	358.59	30.59	-56.1	-58.4	15.9	0.00e+00	0	36	0	510656512	78	4670
2026-01-01 02:39:50.07	358.31	30.70	-55.9	-58.0	16.1	0.00e+00	0	36	0	512753664	78	4489
2026-01-01 02:39:51.07	358.02	30.82	-55.8	-58.0	16.2	0.00e+00	0	35	0	514850816	78	4477
2026-01-01 02:39:52.07	357.74	30.93	-55.8	-58.0	16.2	0.00e+00	0	36	0	516947968	78	4462
2026-01-01 02:39:53.06	357.45	31.04	-56.1	-58.4	16.0	0.00e+00	0	36	0	517996544	78	4677
2026-01-01 02:39:54.07	357.16	31.16	-56.3	-58.7	15.8	0.00e+00	0	36	0	520093696	78	4836
2026-01-01 02:39:55.07	356.86	31.27	-56.6	-59.1	15.5	0.00e+00	0	36	0	522190848	78	5090
2026-01-01 02:39:56.06	356.57	31.38	-57.0	-59.7	15.1	0.00e+00	0	36	0	524288000	79	5116
2026-01-01 02:39:57.05	356.28	31.49	-57.2	-60.0	14.8	0.00e+00	0	36	0	526385152	79	5333
2026-01-01 02:39:58.05	355.98	31.60	-57.2	-60.0	14.9	0.00e+00	0	36	0	527433728	79	5295
2026-01-01 02:39:59.05	355.68	31.71	-57.2	-60.1	14.8	0.00e+00	0	36	0	529530880	79	5343
2026-01-01 02:40:00.05	355.38	31.82	-57.3	-60.2	14.7	0.00e+00	0	36	0	531628032	79	5457
2026-01-01 02:40:01.04	355.07	31.93	-57.4	-60.3	14.7	0.00e+00	0	36	0	533725184	79	5484
2026-01-01 02:40:02.03	354.77	32.04	-57.5	-60.5	14.5	0.00e+00	0	36	0	534773760	80	5324
2026-01-01 02:40:03.02	354.46	32.14	-57.8	-61.0	14.1	0.00e+00	0	36	0	536870912	80	5639
2026-01-01 02:40:04.01	354.16	32.25	-57.8	-61.1	14.1	0.00e+00	0	36	0	538968064	81	5351
2026-01-01 02:40:05.01	353.84	32.36	-57.8	-61.0	14.1	0.00e+00	0	36	0	541065216	81	5340
2026-01-01 02:40:06.01	353.53	32.46	-57.9	-61.2	14.0	0.00e+00	0	36	0	543162368	81	5455
2026-01-01 02:40:07.00	353.21	32.57	-57.9	-61.1	14.1	0.00e+00	0	36	0	544210944	81	5360
2026-01-01 02:40:08.00	352.89	32.67	-58.0	-61.2	14.0	0.00e+00	0	36	0	546308096	81	5459
2026-01-01 02:40:09.00	352.57	32.78	-58.1	-61.5	13.7	0.00e+00	0	36	0	548405248	81	5641
2026-01-01 02:40:10.00	352.25	32.88	-58.1	-61.5	13.7	0.00e+00	0	36	0	550502400	81	5635
2026-01-01 02:40:11.00	351.92	32.98	-58.2	-61.6	13.7	0.00e+00	0	36	0	552599552	81	5703
2026-01-01 02:40:12.00	351.59	33.09	-58.4	-62.1	13.3	0.00e+00	0	36	0	553648128	82	5702
2026-01-01 02:40:13.01	351.26	33.19	-58.6	-62.5	12.9	3.00e-06	0	36	0	555745280	82	5950
2026-01-01 02:40:14.00	350.93	33.29	-58.7	-62.5	12.9	9.10e-06	0	36	0	557842432	82	5972
2026-01-01 02:40:15.00	350.60	33.39	-58.8	-62.9	12.6	6.10e-06	0	36	0	559939584	82	6216
2026-01-01 02:40:16.01	350.26	33.49	-58.8	-62.9	12.6	6.10e-06	0	36	0	560988160	82	6254
2026-01-01 02:40:17.00	349.92	33.59	-58.9	-63.0	12.5	1.44e-05	0	36	0	563085312	83	5966
2026-01-01 02:40:18.00	349.58	33.69	-58.9	-63.1	12.4	3.28e-05	0	36	0	565182464	83	6061
2026-01-01 02:40:19.00	349.24	33.78	-59.0	-63.4	12.3	2.51e-05	0	36	0	567279616	83	6210
2026-01-01 02:40:20.00	348.90	33.88	-58.9	-63.1	12.5	2.28e-05	0	36	0	569376768	83	5996
2026-01-01 02:40:21.00	348.55	33.97	-58.7	-62.6	12.8	9.90e-06	0	36	0	570425344	83	5678
2026-01-01 02:40:22.00	348.20	34.07	-58.6	-62.4	13.1	3.00e-06	0	36	0	572522496	83	5549
2026-01-01 02:40:22.99	347.85	34.16	-58.1	-61.5	13.8	0.00e+00	0	36	0	574619648	82	5300
2026-01-01 02:40:23.99	347.50	34.25	-58.0	-61.2	14.0	0.00e+00	0	36	0	576716800	82	5104
2026-01-01 02:40:24.99	347.15	34.34	-57.8	-60.9	14.2	0.00e+00	0	36	0	578813952	82	4945
2026-01-01 02:40:25.99	346.79	34.43	-57.9	-61.1	14.2	0.00e+00	0	36	0	579862528	82	5086
2026-01-01 02:40:26.98	346.44	34.52	-57.9	-61.1	14.2	0.00e+00	0	36	0	581959680	82	5043
2026-01-01 02:40:27.99	346.07	34.61	-57.9	-61.1	14.2	0.00e+00	0	36	0	584056832	82	5047
2026-01-01 02:40:28.99	345.71	34.70	-57.8	-60.9	14.3	0.00e+00	0	36	0	586153984	82	4978
2026-01-01 02:40:29.98	345.35	34.78	-57.7	-60.7	14.4	0.00e+00	0	36	0	587202560	82	4854
2026-01-01 02:40:30.98	344.98	34.87	-57.2	-60.0	15.0	0.00e+00	0	36	0	589299712	81	4719
2026-01-01 02:40:31.98	344.61	34.95	-57.0	-59.5	15.3	0.00e+00	0	36	0	591396864	80	4759
2026-01-01 02:40:32.98	344.24	35.04	-57.0	-59.6	15.2	0.00e+00	0	36	0	593494016	80	4788
2026-01-01 02:40:33.99	343.87	35.12	-56.8	-59.4	15.4	0.00e+00	0	36	0	595591168	80	4662
2026-01-01 02:40:35.00	343.49	35.20	-56.7	-59.1	15.6	0.00e+00	0	36	0	596639744	79	4813
2026-01-01 02:40:36.00	343.11	35.28	-56.1	-58.4	16.1	0.00e+00	0	36	0	598736896	78	4664
2026-01-01 02:40:37.00	342.74	35.36	-55.8	-58.0	16.3	0.00e+00	0	36	0	600834048	78	4453
2026-01-01 02:40:38.00	342.36	35.43	-55.8	-57.9	16.4	0.00e+00	0	36	0	602931200	78	4393
2026-01-01 02:40:39.00	341.98	35.51	-55.6	-57.7	16.5	0.00e+00	0	36	0	605028352	77	4557
2026-01-01 02:40:40.00	341.59	35.58	-55.4	-57.4	16.6	0.00e+00	0	36	0	606076928	77	4404
2026-01-01 02:40:41.00	341.21	35.66	-55.3	-57.2	16.7	0.00e+00	0	36	0	608174080	77	4339
2026-01-01 02:40:42.00	340.82	35.73	-55.1	-57.0	16.8	0.00e+00	0	36	0	610271232	76	4477
2026-01-01 02:40:42.99	340.44	35.80	-55.0	-56.9	16.9	0.00e+00	0	36	0	612368384	76	4413
2026-01-01 02:40:43.98	340.05	35.87	-55.1	-56.9	16.9	0.00e+00	0	36	0	614465536	76	4429
2026-01-01 02:40:44.98	339.66	35.93	-55.0	-56.9	16.9	0.00e+00	0	36	0	615514112	76	4399
2026-01-01 02:40:45.99	339.26	36.00	-55.0	-56.9	16.9	0.00e+00	0	36	0	617611264	76	4414
2026-01-01 02:40:46.99	338.87	36.07	-55.1	-56.9	16.9	0.00e+00	0	36	0	619708416	76	4441
2026-01-01 02:40:47.98	338.48	36.13	-55.0	-56.8	17.0	0.00e+00	0	36	0	621805568	76	4385
2026-01-01 02:40:48.98	338.08	36.19	-54.9	-56.7	17.0	0.00e+00	0	36	0	622854144	76	4309
2026-01-01 02:40:49.98	337.68	36.25	-54.8	-56.6	17.1	0.00e+00	0	36	0	624951296	76	4285
2026-01-01 02:40:50.97	337.28	36.31	-54.8	-56.6	17.1	0.00e+00	0	36	0	627048448	76	4279
2026-01-01 02:40:51.97	336.88	36.37	-54.6	-56.4	17.1	0.00e+00	0	36	0	629145600	75	4410
2026-01-01 02:40:52.96	336.48	36.42	-54.6	-56.3	17.2	0.00e+00	0	36	0	631242752	75	4388
2026-01-01 02:40:53.96	336.08	36.48	-54.6	-56.3	17.2	0.00e+00	0	36	0	632291328	75	4386
2026-01-01 02:40:54.95	335.67	36.53	-54.5	-56.2	17.2	0.00e+00	0	36	0	634388480	75	4323
2026-01-01 02:40:55.95	335.26	36.58	-54.4	-56.1	17.2	0.00e+00	0	36	0	636485632	75	4291
2026-01-01 02:40:56.95	334.86	36.63	-54.3	-56.1	17.3	0.00e+00	0	36	0	638582784	75	4245
2026-01-01 02:40:57.95	334.45	36.68	-54.1	-55.7	17.5	0.00e+00	0	36	0	639631360	74	4312
2026-01-01 02:40:58.94	334.04	36.73	-54.1	-55.7	17.5	0.00e+00	0	36	0	641728512	74	4318
2026-01-01 02:40:59.94	333.63	36.77	-53.9	-55.5	17.5	0.00e+00	0	36	0	643825664	74	4228
2026-01-01 02:41:00.94	333.21	36.81	-54.0	-55.6	17.5	0.00e+00	0	36	0	645922816	74	4279
2026-01-01 02:41:01.94	332.80	36.86	-53.9	-55.6	17.5	0.00e+00	0	36	0	648019968	74	4254
2026-01-01 02:41:02.94	332.38	36.90	-54.0	-55.7	17.5	0.00e+00	0	36	0	649068544	74	4318
2026-01-01 02:41:03.94	331.96	36.93	-54.2	-55.8	17.4	0.00e+00	0	36	0	651165696	74	4389
2026-01-01 02:41:04.93	331.55	36.97	-54.1	-55.8	17.5	0.00e+00	0	36	0	653262848	74	4355
2026-01-01 02:41:05.93	331.13	37.01	-54.1	-55.8	17.5	0.00e+00	0	36	0	655360000	74	4343
2026-01-01 02:41:06.93	330.71	37.04	-53.9	-55.5	17.6	0.00e+00	0	36	0	656408576	74	4209
2026-01-01 02:41:07.93	330.29	37.07	-53.7	-55.3	17.7	0.00e+00	0	36	0	658505728	74	4101
2026-01-01 02:41:08.92	329.87	37.10	-53.4	-55.0	17.8	0.00e+00	0	36	0	660602880	73	4205
2026-01-01 02:41:09.92	329.45	37.13	-53.3	-54.8	17.8	0.00e+00	0	36	0	662700032	73	4144
2026-01-01 02:41:10.92	329.03	37.15	-53.3	-54.8	17.9	0.00e+00	0	36	0	664797184	73	4131
2026-01-01 02:41:11.91	328.61	37.18	-53.2	-54.8	17.9	0.00e+00	0	36	0	665845760	73	4099
2026-01-01 02:41:12.92	328.18	37.20	-53.2	-54.7	17.9	0.00e+00	0	36	0	667942912	73	4087
2026-01-01 02:41:13.90	327.77	37.22	-53.4	-54.9	17.8	0.00e+00	0	36	0	670040064	73	4154
2026-01-01 02:41:14.90	327.34	37.24	-53.7	-55.3	17.7	0.00e+00	0	36	0	672137216	73	4365
2026-01-01 02:41:15.90	326.92	37.26	-54.0	-55.7	17.5	0.00e+00	0	36	0	674234368	73	4556
2026-01-01 02:41:16.90	326.49	37.27	-54.3	-55.9	17.3	0.00e+00	0	36	0	675282944	73	4699
2026-01-01 02:41:17.91	326.06	37.29	-54.4	-56.1	17.3	0.00e+00	0	36	0	677380096	74	4506
2026-01-01 02:41:18.91	325.63	37.30	-54.3	-56.0	17.4	0.00e+00	0	36	0	679477248	74	4459
2026-01-01 02:41:19.91	325.21	37.31	-54.3	-56.0	17.4	0.00e+00	0	36	0	681574400	74	4468
2026-01-01 02:41:20.90	324.78	37.32	-54.3	-56.0	17.4	0.00e+00	0	36	0	682622976	74	4475
2026-01-01 02:41:21.90	324.35	37.33	-54.4	-56.1	17.3	0.00e+00	0	36	0	684720128	74	4507
2026-01-01 02:41:22.90	323.93	37.33	-54.7	-56.5	17.1	0.00e+00	0	36	0	686817280	74	4734
2026-01-01 02:41:23.90	323.50	37.33	-54.9	-56.8	17.0	0.00e+00	0	36	0	688914432	75	4633
2026-01-01 02:41:24.90	323.07	37.33	-55.0	-56.9	16.9	0.00e+00	0	36	0	691011584	75	4701
2026-01-01 02:41:25.89	322.65	37.33	-55.0	-56.9	16.9	0.00e+00	0	36	0	692060160	75	4663
2026-01-01 02:41:26.90	322.22	37.33	-55.1	-57.0	16.9	0.00e+00	0	36	0	694157312	75	4718
2026-01-01 02:41:27.90	321.79	37.33	-55.2	-57.1	16.8	0.00e+00	0	36	0	696254464	75	4795
2026-01-01 02:41:28.89	321.36	37.32	-55.3	-57.2	16.7	0.00e+00	0	36	0	698351616	75	4864
2026-01-01 02:41:29.90	320.93	37.31	-55.3	-57.2	16.8	0.00e+00	0	36	0	700448768	75	4832
2026-01-01 02:41:30.89	320.51	37.30	-55.3	-57.2	16.8	0.00e+00	0	36	0	701497344	75	4833
2026-01-01 02:41:31.90	320.08	37.29	-55.2	-57.1	16.8	0.00e+00	0	36	0	703594496	75	4806
2026-01-01 02:41:32.89	319.66	37.28	-55.2	-57.1	16.8	0.00e+00	0	36	0	705691648	75	4787
2026-01-01 02:41:33.90	319.23	37.26	-55.2	-57.1	16.8	0.00e+00	0	36	0	707788800	75	4770
2026-01-01 02:41:34.90	318.80	37.25	-55.1	-57.1	16.8	0.00e+00	0	36	0	709885952	75	4760
2026-01-01 02:41:35.90	318.37	37.23	-55.3	-57.2	16.8	0.00e+00	0	36	0	710934528	75	4834
2026-01-01 02:41:36.90	317.95	37.21	-55.4	-57.3	16.7	0.00e+00	0	36	0	713031680	76	4637
2026-01-01 02:41:37.90	317.53	37.18	-55.4	-57.4	16.7	0.00e+00	0	36	0	715128832	76	4652
2026-01-01 02:41:38.89	317.11	37.16	-55.4	-57.3	16.8	0.00e+00	0	36	0	717225984	76	4629
2026-01-01 02:41:39.89	316.68	37.13	-55.6	-57.5	16.6	0.00e+00	0	36	0	718274560	76	4756
2026-01-01 02:41:40.89	316.26	37.11	-55.8	-57.9	16.4	0.00e+00	0	36	0	720371712	76	4962
2026-01-01 02:41:41.88	315.84	37.08	-56.1	-58.2	16.3	0.00e+00	0	36	0	722468864	77	4857
2026-01-01 02:41:42.88	315.42	37.05	-56.1	-58.2	16.1	0.00e+00	0	36	0	724566016	77	4863
2026-01-01 02:41:43.88	315.00	37.01	-55.9	-58.0	16.4	0.00e+00	0	36	0	726663168	77	4718
2026-01-01 02:41:44.87	314.59	36.98	-55.8	-57.9	16.4	0.00e+00	0	36	0	727711744	77	4681
2026-01-01 02:41:45.88	314.16	36.94	-56.1	-58.2	16.2	0.00e+00	0	36	0	729808896	77	4830
2026-01-01 02:41:46.87	313.75	36.90	-56.2	-58.4	16.1	0.00e+00	0	36	0	731906048	77	4935
2026-01-01 02:41:47.87	313.34	36.86	-56.2	-58.4	16.1	0.00e+00	0	36	0	734003200	77	4964
2026-01-01 02:41:48.88	312.92	36.82	-56.4	-58.7	16.0	0.00e+00	0	36	0	735051776	77	5106
2026-01-01 02:41:49.88	312.50	36.78	-56.4	-58.7	16.0	0.00e+00	0	36	0	737148928	78	4842
2026-01-01 02:41:50.87	312.09	36.74	-56.4	-58.7	15.9	0.00e+00	0	36	0	739246080	78	4856
2026-01-01 02:41:51.87	311.68	36.69	-56.5	-58.8	15.9	0.00e+00	0	36	0	741343232	78	4882
2026-01-01 02:41:52.86	311.27	36.64	-56.4	-58.7	15.9	0.00e+00	0	36	0	743440384	78	4843
2026-01-01 02:41:53.85	310.87	36.59	-56.6	-58.9	15.9	0.00e+00	0	36	0	744488960	78	4936
2026-01-01 02:41:54.85	310.46	36.54	-56.5	-58.8	15.8	0.00e+00	0	36	0	746586112	78	4912
2026-01-01 02:41:55.84	310.06	36.49	-56.5	-58.8	15.8	0.00e+00	0	36	0	748683264	78	4905
2026-01-01 02:41:56.84	309.65	36.43	-56.7	-59.0	15.7	0.00e+00	0	36	0	750780416	78	5040
2026-01-01 02:41:57.84	309.25	36.38	-56.7	-59.0	15.7	0.00e+00	0	36	0	752877568	78	5036
2026-01-01 02:41:58.84	308.84	36.32	-56.8	-59.3	15.6	0.00e+00	0	36	0	753926144	78	5184
2026-01-01 02:41:59.84	308.44	36.26	-56.7	-59.0	15.7	0.00e+00	0	36	0	756023296	78	5026
2026-01-01 02:42:00.83	308.05	36.20	-56.7	-59.1	15.7	0.00e+00	0	36	0	758120448	78	5049
2026-01-01 02:42:01.83	307.65	36.14	-56.5	-58.8	15.9	0.00e+00	0	36	0	760217600	78	4886
2026-01-01 02:42:02.83	307.25	36.08	-56.6	-58.9	15.8	0.00e+00	0	36	0	761266176	78	4940
2026-01-01 02:42:03.83	306.86	36.01	-56.4	-58.7	16.0	0.00e+00	0	36	0	763363328	78	4849
2026-01-01 02:42:04.82	306.47	35.95	-56.4	-58.7	15.9	0.00e+00	0	36	0	765460480	78	4850
2026-01-01 02:42:05.82	306.07	35.88	-56.3	-58.5	16.1	0.00e+00	0	36	0	767557632	78	4756
2026-01-01 02:42:06.82	305.68	35.81	-56.2	-58.4	16.2	0.00e+00	0	36	0	769654784	78	4680
2026-01-01 02:42:07.81	305.30	35.74	-55.7	-57.7	16.6	0.00e+00	0	36	0	770703360	77	4551
2026-01-01 02:42:08.81	304.91	35.67	-55.5	-57.5	16.7	0.00e+00	0	36	0	772800512	77	4472
2026-01-01 02:42:09.81	304.53	35.60	-55.4	-57.3	16.8	0.00e+00	0	36	0	774897664	77	4376
2026-01-01 02:42:10.81	304.14	35.52	-55.5	-57.5	16.7	0.00e+00	0	36	0	776994816	77	4447
2026-01-01 02:42:11.81	303.76	35.45	-55.5	-57.5	16.8	0.00e+00	0	36	0	779091968	77	4443
2026-01-01 02:42:12.79	303.39	35.37	-55.6	-57.6	16.6	0.00e+00	0	36	0	780140544	77	4506
2026-01-01 02:42:13.79	303.01	35.30	-55.6	-57.5	16.7	0.00e+00	0	36	0	782237696	77	4492
2026-01-01 02:42:14.78	302.64	35.22	-55.5	-57.4	16.8	0.00e+00	0	36	0	784334848	77	4441
2026-01-01 02:42:15.78	302.26	35.14	-55.5	-57.4	16.8	0.00e+00	0	36	0	786432000	77	4416
2026-01-01 02:42:16.78	301.89	35.06	-55.2	-57.1	17.0	0.00e+00	0	36	0	787480576	77	4249
2026-01-01 02:42:17.77	301.52	34.97	-55.0	-56.8	17.1	0.00e+00	0	36	0	789577728	76	4390
2026-01-01 02:42:18.77	301.15	34.89	-55.1	-56.9	17.1	0.00e+00	0	36	0	791674880	76	4421
2026-01-01 02:42:19.77	300.78	34.80	-55.0	-56.7	17.1	0.00e+00	0	36	0	793772032	76	4328
2026-01-01 02:42:20.77	300.42	34.72	-55.0	-56.8	17.1	0.00e+00	0	36	0	795869184	76	4362
2026-01-01 02:42:21.77	300.06	34.63	-55.3	-57.2	16.9	0.00e+00	0	36	0	796917760	76	4555
2026-01-01 02:42:22.76	299.70	34.54	-55.5	-57.5	16.8	0.00e+00	0	36	0	799014912	76	4716
2026-01-01 02:42:23.77	299.34	34.45	-55.7	-57.7	16.7	0.00e+00	0	36	0	801112064	76	4826
2026-01-01 02:42:24.77	298.98	34.36	-55.7	-57.7	16.6	0.00e+00	0	36	0	803209216	76	4820
2026-01-01 02:42:25.76	298.63	34.27	-55.7	-57.7	16.7	0.00e+00	0	36	0	804257792	76	4815
2026-01-01 02:42:26.75	298.28	34.18	-55.7	-57.6	16.6	0.00e+00	0	36	0	806354944	76	4814
2026-01-01 02:42:27.75	297.92	34.09	-55.6	-57.6	16.7	0.00e+00	0	36	0	808452096	76	4803
2026-01-01 02:42:28.75	297.57	33.99	-55.7	-57.6	16.6	0.00e+00	0	36	0	810549248	76	4804
2026-01-01 02:42:29.75	297.23	33.90	-55.9	-58.0	16.4	0.00e+00	0	36	0	812646400	77	4751
2026-01-01 02:42:30.75	296.88	33.80	-56.3	-58.5	16.1	0.00e+00	0	36	0	813694976	77	5028
2026-01-01 02:42:31.75	296.54	33.71	-56.6	-58.9	15.9	0.00e+00	0	36	0	815792128	78	4959
2026-01-01 02:42:32.74	296.20	33.61	-56.7	-59.1	15.7	0.00e+00	0	36	0	817889280	78	5088
2026-01-01 02:42:33.73	295.86	33.51	-56.8	-59.3	15.6	0.00e+00	0	36	0	819986432	78	5189
2026-01-01 02:42:34.73	295.53	33.41	-56.8	-59.2	15.7	0.00e+00	0	36	0	821035008	78	5126
2026-01-01 02:42:35.73	295.19	33.31	-56.6	-58.9	15.9	0.00e+00	0	36	0	823132160	78	4940
2026-01-01 02:42:36.73	294.86	33.21	-56.4	-58.6	16.0	0.00e+00	0	36	0	825229312	78	4798
2026-01-01 02:42:37.73	294.53	33.11	-56.3	-58.5	16.1	0.00e+00	0	36	0	827326464	78	4739
2026-01-01 02:42:38.73	294.20	33.01	-56.0	-58.1	16.4	0.00e+00	0	36	0	829423616	78	4522
2026-01-01 02:42:39.73	293.87	32.91	-56.1	-58.3	16.1	0.00e+00	0	36	0	830472192	78	4616
2026-01-01 02:42:40.72	293.55	32.80	-56.2	-58.4	16.1	0.00e+00	0	36	0	832569344	78	4694
2026-01-01 02:42:41.72	293.23	32.70	-56.6	-59.0	15.8	0.00e+00	0	36	0	834666496	78	4987
2026-01-01 02:42:42.72	292.91	32.59	-56.7	-59.1	15.7	0.00e+00	0	36	0	836763648	78	5083
2026-01-01 02:42:43.73	292.59	32.49	-56.8	-59.2	15.6	0.00e+00	0	36	0	838860800	78	5134
2026-01-01 02:42:44.73	292.27	32.38	-56.7	-59.1	15.7	0.00e+00	0	36	0	839909376	78	5066
2026-01-01 02:42:45.72	291.96	32.27	-56.7	-59.1	15.7	0.00e+00	0	36	0	842006528	78	5070
2026-01-01 02:42:46.72	291.65	32.17	-56.4	-58.7	15.9	0.00e+00	0	36	0	844103680	78	4831
2026-01-01 02:42:47.72	291.34	32.06	-56.2	-58.4	16.2	0.00e+00	0	36	0	846200832	78	4683
2026-01-01 02:42:48.73	291.02	31.95	-56.1	-58.3	16.2	0.00e+00	0	36	0	848297984	78	4630
2026-01-01 02:42:49.73	290.72	31.84	-56.4	-58.6	16.0	0.00e+00	0	36	0	849346560	78	4801
2026-01-01 02:42:50.73	290.42	31.73	-56.4	-58.7	15.9	0.00e+00	0	36	0	851443712	78	4870
2026-01-01 02:42:51.72	290.12	31.62	-56.4	-58.7	15.9	0.00e+00	0	36	0	853540864	78	4868
2026-01-01 02:42:52.72	289.82	31.51	-56.6	-58.9	15.8	0.00e+00	0	36	0	855638016	78	4976
2026-01-01 02:42:53.71	289.52	31.40	-56.7	-59.1	15.6	0.00e+00	0	36	0	856686592	78	5077
2026-01-01 02:42:54.71	289.23	31.29	-56.5	-58.9	15.8	0.00e+00	0	36	0	858783744	78	4931
2026-01-01 02:42:55.70	288.94	31.18	-56.6	-59.0	15.8	0.00e+00	0	36	0	860880896	78	5004
2026-01-01 02:42:56.70	288.64	31.06	-56.5	-58.8	15.9	0.00e+00	0	36	0	862978048	78	4882
2026-01-01 02:42:57.69	288.36	30.95	-56.5	-58.9	15.8	0.00e+00	0	36	0	865075200	78	4939
2026-01-01 02:42:58.69	288.07	30.84	-56.6	-59.0	15.8	0.00e+00	0	36	0	866123776	78	4986
2026-01-01 02:42:59.70	287.78	30.72	-56.6	-59.0	15.7	0.00e+00	0	36	0	868220928	78	5011
2026-01-01 02:43:00.71	287.49	30.61	-56.7	-59.1	15.6	0.00e+00	0	36	0	870318080	78	5095
2026-01-01 02:43:01.70	287.22	30.50	-56.8	-59.4	15.5	0.00e+00	0	36	0	872415232	78	5224
2026-01-01 02:43:02.71	286.93	30.38	-56.9	-59.4	15.4	0.00e+00	0	36	0	874512384	78	5241
2026-01-01 02:43:03.70	286.66	30.27	-56.7	-59.2	15.6	0.00e+00	0	36	0	875560960	78	5116
2026-01-01 02:43:04.70	286.38	30.15	-56.6	-59.0	15.7	0.00e+00	0	36	0	877658112	78	5040
2026-01-01 02:43:05.70	286.11	30.03	-56.4	-58.7	15.9	0.00e+00	0	36	0	879755264	78	4829
2026-01-01 02:43:06.69	285.84	29.92	-56.4	-58.7	15.9	0.00e+00	0	36	0	881852416	78	4835
2026-01-01 02:43:07.68	285.57	29.80	-56.3	-58.6	15.9	0.00e+00	0	36	0	882900992	78	4805
2026-01-01 02:43:08.68	285.31	29.69	-56.2	-58.5	16.0	0.00e+00	0	36	0	884998144	78	4738
2026-01-01 02:43:09.68	285.04	29.57	-56.3	-58.6	16.0	0.00e+00	0	36	0	887095296	78	4769
2026-01-01 02:43:10.67	284.78	29.46	-56.1	-58.3	16.1	0.00e+00	0	36	0	889192448	78	4651
2026-01-01 02:43:11.67	284.52	29.34	-56.0	-58.2	16.2	0.00e+00	0	36	0	891289600	78	4593
2026-01-01 02:43:12.67	284.26	29.22	-56.0	-58.2	16.2	0.00e+00	0	36	0	892338176	78	4553
2026-01-01 02:43:13.67	284.00	29.10	-55.7	-57.7	16.5	0.00e+00	0	36	0	894435328	78	4330
2026-01-01 02:43:14.66	283.75	28.99	-55.5	-57.5	16.6	0.00e+00	0	36	0	896532480	77	4492
2026-01-01 02:43:15.66	283.49	28.87	-55.5	-57.5	16.6	0.00e+00	0	36	0	898629632	77	4460
2026-01-01 02:43:16.66	283.24	28.75	-55.3	-57.3	16.6	0.00e+00	0	36	0	899678208	77	4371
2026-01-01 02:43:17.65	282.99	28.64	-55.3	-57.2	16.7	0.00e+00	0	36	0	901775360	77	4333
2026-01-01 02:43:18.65	282.74	28.52	-55.3	-57.3	16.7	0.00e+00	0	36	0	903872512	77	4341
2026-01-01 02:43:19.66	282.49	28.40	-55.2	-57.2	16.7	0.00e+00	0	36	0	905969664	77	4307
2026-01-01 02:43:20.65	282.25	28.28	-55.0	-56.9	16.9	0.00e+00	0	36	0	908066816	76	4413
2026-01-01 02:43:21.65	282.01	28.16	-54.8	-56.6	17.0	0.00e+00	0	36	0	909115392	76	4291
2026-01-01 02:43:22.65	281.76	28.05	-54.8	-56.6	17.1	0.00e+00	0	36	0	911212544	76	4259
2026-01-01 02:43:23.65	281.53	27.93	-54.6	-56.4	17.1	0.00e+00	0	36	0	913309696	75	4407
2026-01-01 02:43:24.65	281.29	27.81	-54.5	-56.3	17.2	0.00e+00	0	36	0	915406848	75	4385
2026-01-01 02:43:25.65	281.05	27.69	-54.6	-56.3	17.2	0.00e+00	0	36	0	917504000	75	4384
2026-01-01 02:43:26.64	280.82	27.57	-54.4	-56.2	17.2	0.00e+00	0	36	0	918552576	75	4308
2026-01-01 02:43:27.65	280.58	27.45	-54.5	-56.3	17.2	0.00e+00	0	36	0	920649728	75	4370
2026-01-01 02:43:28.64	280.36	27.34	-54.5	-56.3	17.1	0.00e+00	0	36	0	922746880	75	4385
2026-01-01 02:43:29.64	280.13	27.22	-54.6	-56.4	17.1	0.00e+00	0	36	0	924844032	75	4440
2026-01-01 02:43:30.64	279.90	27.10	-54.6	-56.4	17.1	0.00e+00	0	36	0	926941184	75	4407
2026-01-01 02:43:31.64	279.67	26.98	-54.4	-56.2	17.2	0.00e+00	0	36	0	927989760	75	4294
2026-01-01 02:43:32.64	279.45	26.86	-54.4	-56.2	17.2	0.00e+00	0	36	0	930086912	75	4313
2026-01-01 02:43:33.63	279.23	26.74	-54.2	-56.0	17.3	0.00e+00	0	36	0	932184064	75	4207
2026-01-01 02:43:34.63	279.01	26.63	-54.0	-55.7	17.4	0.00e+00	0	36	0	934281216	74	4322
2026-01-01 02:43:35.62	278.79	26.51	-54.0	-55.7	17.4	0.00e+00	0	36	0	935329792	74	4316
2026-01-01 02:43:36.62	278.57	26.39	-54.0	-55.7	17.5	0.00e+00	0	36	0	937426944	74	4325
2026-01-01 02:43:37.62	278.36	26.27	-54.0	-55.7	17.4	0.00e+00	0	36	0	939524096	74	4322
2026-01-01 02:43:38.62	278.14	26.15	-54.0	-55.7	17.4	0.00e+00	0	36	0	941621248	74	4299
2026-01-01 02:43:39.63	277.93	26.03	-53.8	-55.5	17.5	0.00e+00	0	36	0	943718400	74	4194
2026-01-01 02:43:40.63	277.72	25.92	-53.8	-55.4	17.6	0.00e+00	0	36	0	944766976	74	4162
2026-01-01 02:43:41.62	277.51	25.80	-53.6	-55.2	17.6	0.00e+00	0	36	0	946864128	73	4337
2026-01-01 02:43:42.63	277.30	25.68	-53.7	-55.3	17.6	0.00e+00	0	36	0	948961280	73	4379
2026-01-01 02:43:43.63	277.09	25.56	-53.8	-55.4	17.6	0.00e+00	0	36	0	951058432	73	4434
2026-01-01 02:43:44.64	276.89	25.44	-53.9	-55.6	17.5	0.00e+00	0	36	0	953155584	73	4498
2026-01-01 02:43:45.63	276.69	25.33	-53.9	-55.6	17.5	0.00e+00	0	36	0	954204160	73	4494
2026-01-01 02:43:46.63	276.48	25.21	-53.8	-55.5	17.5	0.00e+00	0	36	0	956301312	73	4454
2026-01-01 02:43:47.62	276.29	25.09	-54.0	-55.6	17.4	0.00e+00	0	36	0	958398464	73	4535
2026-01-01 02:43:48.62	276.09	24.98	-54.0	-55.7	17.4	0.00e+00	0	36	0	960495616	73	4564
2026-01-01 02:43:49.62	275.89	24.86	-54.0	-55.8	17.4	0.00e+00	0	36	0	961544192	73	4599
2026-01-01 02:43:50.61	275.70	24.74	-54.1	-55.9	17.3	0.00e+00	0	36	0	963641344	73	4652
2026-01-01 02:43:51.61	275.50	24.63	-54.1	-55.8	17.4	0.00e+00	0	36	0	965738496	73	4613
2026-01-01 02:43:52.61	275.31	24.51	-54.0	-55.6	17.4	0.00e+00	0	36	0	967835648	73	4542
2026-01-01 02:43:53.61	275.12	24.39	-54.0	-55.7	17.4	0.00e+00	0	36	0	969932800	73	4598
2026-01-01 02:43:54.61	274.93	24.28	-54.2	-55.9	17.3	0.00e+00	0	36	0	970981376	73	4686
2026-01-01 02:43:55.61	274.74	24.16	-54.2	-55.9	17.3	0.00e+00	0	36	0	973078528	73	4689
2026-01-01 02:43:56.61	274.55	24.05	-54.3	-56.1	17.2	0.00e+00	0	36	0	975175680	73	4779
2026-01-01 02:43:57.61	274.37	23.93	-54.5	-56.3	17.1	0.00e+00	0	36	0	977272832	74	4599
2026-01-01 02:43:58.61	274.18	23.82	-54.5	-56.3	17.1	0.00e+00	0	36	0	978321408	74	4647
2026-01-01 02:43:59.61	274.00	23.70	-54.4	-56.2	17.2	0.00e+00	0	36	0	980418560	74	4569
2026-01-01 02:44:00.60	273.82	23.59	-54.3	-56.1	17.2	0.00e+00	0	36	0	982515712	74	4503
2026-01-01 02:44:01.60	273.64	23.47	-54.2	-55.9	17.3	0.00e+00	0	36	0	984612864	74	4441
2026-01-01 02:44:02.59	273.46	23.36	-54.3	-56.1	17.3	0.00e+00	0	36	0	986710016	74	4501
2026-01-01 02:44:03.59	273.28	23.24	-54.3	-56.0	17.3	0.00e+00	0	36	0	987758592	74	4467
2026-01-01 02:44:04.58	273.11	23.13	-54.4	-56.1	17.2	0.00e+00	0	36	0	989855744	74	4531
2026-01-01 02:44:05.57	272.94	23.02	-54.3	-56.1	17.2	0.00e+00	0	36	0	991952896	74	4523
2026-01-01 02:44:06.57	272.76	22.90	-54.5	-56.3	17.1	0.00e+00	0	36	0	994050048	74	4621
2026-01-01 02:44:07.57	272.59	22.79	-54.5	-56.3	17.1	0.00e+00	0	36	0	995098624	74	4614
2026-01-01 02:44:08.57	272.42	22.68	-54.4	-56.2	17.2	0.00e+00	0	36	0	997195776	74	4582
2026-01-01 02:44:09.57	272.25	22.56	-54.4	-56.2	17.2	0.00e+00	0	36	0	999292928	74	4576
2026-01-01 02:44:10.57	272.08	22.45	-54.4	-56.2	17.2	0.00e+00	0	36	0	1001390080	74	4546
2026-01-01 02:44:11.57	271.91	22.34	-54.5	-56.4	17.1	0.00e+00	0	36	0	1003487232	74	4653
2026-01-01 02:44:12.56	271.75	22.23	-54.3	-56.1	17.2	0.00e+00	0	36	0	1004535808	74	4517
2026-01-01 02:44:13.56	271.58	22.11	-54.5	-56.3	17.1	0.00e+00	0	36	0	1006632960	74	4616
2026-01-01 02:44:14.56	271.42	22.00	-54.6	-56.4	17.0	0.00e+00	0	36	0	1008730112	74	4704
2026-01-01 02:44:15.56	271.26	21.89	-54.8	-56.7	16.9	0.00e+00	0	36	0	1010827264	74	4826
2026-01-01 02:44:16.56	271.09	21.78	-54.8	-56.7	16.9	0.00e+00	0	36	0	1012924416	74	4829
2026-01-01 02:44:17.56	270.93	21.67	-54.9	-56.8	16.8	0.00e+00	0	36	0	1013972992	74	4871
2026-01-01 02:44:18.55	270.78	21.56	-55.0	-56.9	16.8	0.00e+00	0	36	0	1016070144	75	4673
2026-01-01 02:44:19.56	270.62	21.44	-54.9	-56.9	16.8	0.00e+00	0	36	0	1018167296	75	4654
2026-01-01 02:44:20.56	270.46	21.33	-54.9	-56.8	16.8	0.00e+00	0	36	0	1020264448	75	4649
2026-01-01 02:44:21.56	270.30	21.22	-55.0	-56.9	16.8	0.00e+00	0	36	0	1022361600	75	4673
2026-01-01 02:44:22.56	270.15	21.11	-55.0	-56.9	16.8	0.00e+00	0	36	0	1023410176	75	4688
2026-01-01 02:44:23.57	270.00	21.00	-54.9	-56.8	16.8	0.00e+00	0	36	0	1025507328	75	4648
2026-01-01 02:44:24.57	269.84	20.89	-55.0	-57.0	16.7	0.00e+00	0	36	0	1027604480	75	4729
2026-01-01 02:44:25.58	269.69	20.78	-55.0	-56.9	16.8	0.00e+00	0	36	0	1029701632	75	4700
2026-01-01 02:44:26.57	269.54	20.67	-55.1	-57.1	16.7	0.00e+00	0	36	0	1030750208	75	4773
2026-01-01 02:44:27.57	269.39	20.57	-55.2	-57.2	16.6	0.00e+00	0	36	0	1032847360	75	4844
2026-01-01 02:44:28.57	269.24	20.46	-55.4	-57.4	16.4	0.00e+00	0	36	0	1034944512	75	4976
2026-01-01 02:44:29.57	269.10	20.35	-55.4	-57.5	16.4	0.00e+00	0	36	0	1037041664	76	4713
2026-01-01 02:44:30.57	268.95	20.24	-55.5	-57.6	16.4	0.00e+00	0	36	0	1039138816	76	4771
2026-01-01 02:44:31.57	268.81	20.13	-55.4	-57.5	16.5	0.00e+00	0	36	0	1040187392	76	4711
2026-01-01 02:44:32.57	268.66	20.03	-55.4	-57.4	16.5	0.00e+00	0	36	0	1042284544	76	4682
2026-01-01 02:44:33.57	268.52	19.92	-55.3	-57.3	16.6	0.00e+00	0	36	0	1044381696	76	4619
2026-01-01 02:44:34.57	268.38	19.81	-55.1	-57.0	16.7	0.00e+00	0	36	0	1046478848	76	4474
2026-01-01 02:44:35.56	268.24	19.71	-55.1	-57.0	16.8	0.00e+00	0	36	0	1048576000	76	4468
2026-01-01 02:44:36.57	268.10	19.60	-55.1	-57.1	16.7	0.00e+00	0	36	0	1049624576	76	4511
2026-01-01 02:44:37.56	267.96	19.49	-55.2	-57.2	16.6	0.00e+00	0	36	0	1051721728	76	4571
2026-01-01 02:44:38.56	267.82	19.39	-55.2	-57.2	16.7	0.00e+00	0	36	0	1053818880	76	4552
2026-01-01 02:44:39.55	267.69	19.28	-55.3	-57.3	16.5	0.00e+00	0	36	0	1055916032	76	4647
2026-01-01 02:44:40.54	267.55	19.18	-55.4	-57.4	16.5	0.00e+00	0	36	0	1058013184	76	4692
2026-01-01 02:44:41.54	267.42	19.07	-55.4	-57.5	16.5	0.00e+00	0	36	0	1059061760	76	4737
2026-01-01 02:44:42.54	267.28	18.97	-55.4	-57.5	16.5	0.00e+00	0	36	0	1061158912	76	4741
2026-01-01 02:44:43.53	267.15	18.87	-55.5	-57.6	16.4	0.00e+00	0	36	0	1063256064	76	4764
2026-01-01 02:44:44.53	267.02	18.76	-55.6	-57.7	16.3	0.00e+00	0	36	0	1065353216	76	4840
2026-01-01 02:44:45.53	266.89	18.66	-55.6	-57.7	16.3	0.00e+00	0	36	0	1066401792	76	4834
2026-01-01 02:44:46.52	266.76	18.55	-55.5	-57.6	16.3	0.00e+00	0	36	0	1068498944	76	4813
2026-01-01 02:44:47.52	266.63	18.45	-55.5	-57.6	16.3	0.00e+00	0	36	0	1070596096	76	4805
2026-01-01 02:44:48.52	266.50	18.35	-55.6	-57.7	16.3	0.00e+00	0	36	0	1072693248	76	4832
2026-01-01 02:44:49.52	266.37	18.25	-55.6	-57.8	16.2	0.00e+00	0	36	0	1074790400	76	4897
2026-01-01 02:44:50.51	266.25	18.14	-55.8	-58.0	16.2	0.00e+00	0	36	0	1075838976	76	5000
2026-01-01 02:44:51.50	266.12	18.04	-55.8	-58.0	16.1	0.00e+00	0	36	0	1077936128	76	5029
2026-01-01 02:44:52.50	266.00	17.94	-55.8	-58.0	16.1	0.00e+00	0	36	0	1080033280	76	5021
2026-01-01 02:44:53.50	265.87	17.84	-55.8	-58.0	16.1	0.00e+00	0	36	0	1082130432	77	4756
2026-01-01 02:44:54.50	265.75	17.74	-55.8	-58.0	16.1	0.00e+00	0	36	0	1083179008	77	4739
2026-01-01 02:44:55.50	265.63	17.64	-55.7	-57.8	16.2	0.00e+00	0	36	0	1085276160	77	4642
2026-01-01 02:44:56.51	265.50	17.53	-55.5	-57.6	16.4	0.00e+00	0	36	0	1087373312	77	4498
2026-01-01 02:44:57.50	265.39	17.44	-55.4	-57.5	16.4	0.00e+00	0	36	0	1089470464	77	4452
2026-01-01 02:44:58.50	265.27	17.33	-55.3	-57.4	16.4	0.00e+00	0	36	0	1091567616	77	4422
2026-01-01 02:44:59.50	265.15	17.23	-55.4	-57.5	16.4	0.00e+00	0	36	0	1092616192	77	4456
2026-01-01 02:45:00.50	265.03	17.13	-55.3	-57.4	16.5	0.00e+00	0	36	0	1094713344	77	4393
2026-01-01 02:45:01.49	264.91	17.04	-55.3	-57.3	16.5	0.00e+00	0	36	0	1096810496	77	4377
2026-01-01 02:45:02.50	264.79	16.94	-55.2	-57.3	16.5	0.00e+00	0	36	0	1098907648	77	4363
2026-01-01 02:45:03.50	264.68	16.84	-55.3	-57.4	16.5	0.00e+00	0	36	0	1101004800	77	4392
2026-01-01 02:45:04.49	264.56	16.74	-55.3	-57.4	16.5	0.00e+00	0	36	0	1102053376	77	4394
2026-01-01 02:45:05.49	264.45	16.64	-55.3	-57.4	16.5	0.00e+00	0	36	0	1104150528	77	4404
2026-01-01 02:45:06.48	264.34	16.54	-55.4	-57.4	16.4	0.00e+00	0	36	0	1106247680	77	4434
2026-01-01 02:45:07.48	264.22	16.45	-55.4	-57.5	16.4	0.00e+00	0	36	0	1108344832	77	4461
2026-01-01 02:45:08.47	264.11	16.35	-55.4	-57.5	16.4	0.00e+00	0	36	0	1109393408	77	4473
2026-01-01 02:45:09.47	264.00	16.25	-55.4	-57.6	16.4	0.00e+00	0	36	0	1111490560	77	4500
2026-01-01 02:45:10.46	263.89	16.16	-55.5	-57.7	16.2	0.00e+00	0	36	0	1113587712	77	4559
2026-01-01 02:45:11.46	263.78	16.06	-55.4	-57.6	16.3	0.00e+00	0	36	0	1115684864	77	4510
2026-01-01 02:45:12.45	263.67	15.96	-55.4	-57.6	16.4	0.00e+00	0	36	0	1117782016	77	4495
2026-01-01 02:45:13.46	263.56	15.87	-55.5	-57.6	16.2	0.00e+00	0	36	0	1118830592	77	4508
2026-01-01 02:45:14.46	263.45	15.77	-55.3	-57.4	16.4	0.00e+00	0	36	0	1120927744	77	4426
2026-01-01 02:45:15.47	263.35	15.67	-55.4	-57.5	16.4	0.00e+00	0	36	0	1123024896	77	4455
2026-01-01 02:45:16.47	263.24	15.58	-55.4	-57.5	16.4	0.00e+00	0	36	0	1125122048	77	4462
2026-01-01 02:45:17.47	263.13	15.48	-55.5	-57.6	16.3	0.00e+00	0	36	0	1126170624	77	4531
2026-01-01 02:45:18.46	263.03	15.39	-55.4	-57.6	16.3	0.00e+00	0	36	0	1128267776	77	4496
2026-01-01 02:45:19.46	262.93	15.30	-55.5	-57.6	16.3	0.00e+00	0	36	0	1130364928	77	4529
2026-01-01 02:45:20.46	262.82	15.20	-55.5	-57.7	16.2	0.00e+00	0	36	0	1132462080	77	4579
2026-01-01 02:45:21.46	262.72	15.11	-55.6	-57.8	16.2	0.00e+00	0	36	0	1134559232	77	4609
2026-01-01 02:45:22.46	262.62	15.01	-55.6	-57.9	16.1	0.00e+00	0	36	0	1135607808	77	4657
2026-01-01 02:45:23.46	262.51	14.92	-55.7	-57.9	16.1	0.00e+00	0	36	0	1137704960	77	4676
2026-01-01 02:45:24.46	262.41	14.83	-55.5	-57.7	16.2	0.00e+00	0	36	0	1139802112	77	4583
2026-01-01 02:45:25.46	262.31	14.73	-55.5	-57.7	16.2	0.00e+00	0	36	0	1141899264	77	4566
2026-01-01 02:45:26.45	262.21	14.64	-55.6	-57.7	16.2	0.00e+00	0	36	0	1143996416	77	4594
2026-01-01 02:45:27.44	262.12	14.55	-55.5	-57.7	16.2	0.00e+00	0	36	0	1145044992	77	4582
2026-01-01 02:45:28.44	262.02	14.46	-55.4	-57.6	16.3	0.00e+00	0	36	0	1147142144	77	4504
2026-01-01 02:45:29.43	261.92	14.37	-55.3	-57.4	16.4	0.00e+00	0	36	0	1149239296	77	4410
2026-01-01 02:45:30.42	261.82	14.28	-55.3	-57.3	16.4	0.00e+00	0	36	0	1151336448	77	4383
2026-01-01 02:45:31.42	261.73	14.19	-55.2	-57.2	16.5	0.00e+00	0	36	0	1152385024	76	4581
2026-01-01 02:45:32.42	261.63	14.09	-55.2	-57.3	16.5	0.00e+00	0	36	0	1154482176	76	4627
2026-01-01 02:45:33.40	261.54	14.01	-55.3	-57.4	16.4	0.00e+00	0	36	0	1156579328	76	4654
2026-01-01 02:45:34.40	261.44	13.91	-55.3	-57.4	16.4	0.00e+00	0	36	0	1158676480	76	4684
2026-01-01 02:45:35.40	261.35	13.82	-55.4	-57.5	16.3	0.00e+00	0	36	0	1160773632	76	4750
2026-01-01 02:45:36.39	261.26	13.73	-55.4	-57.6	16.3	0.00e+00	0	36	0	1161822208	76	4770
2026-01-01 02:45:37.39	261.16	13.64	-55.5	-57.6	16.2	0.00e+00	0	36	0	1163919360	76	4793
2026-01-01 02:45:38.40	261.07	13.55	-55.5	-57.7	16.1	0.00e+00	0	36	0	1166016512	76	4862
2026-01-01 02:45:39.40	260.98	13.47	-55.7	-57.9	16.0	0.00e+00	0	36	0	1168113664	76	4958
2026-01-01 02:45:40.39	260.89	13.38	-55.8	-58.1	16.0	0.00e+00	0	36	0	1170210816	76	5043
2026-01-01 02:45:41.39	260.80	13.29	-55.8	-58.1	15.9	0.00e+00	0	36	0	1171259392	76	5045
2026-01-01 02:45:42.38	260.71	13.20	-55.9	-58.2	15.9	0.00e+00	0	36	0	1173356544	76	5138
2026-01-01 02:45:43.39	260.62	13.11	-55.9	-58.2	15.9	0.00e+00	0	36	0	1175453696	76	5134
2026-01-01 02:45:44.39	260.53	13.02	-55.9	-58.2	15.8	0.00e+00	0	36	0	1177550848	77	4850
2026-01-01 02:45:45.40	260.44	12.93	-55.9	-58.2	15.9	0.00e+00	0	36	0	1178599424	77	4853
2026-01-01 02:45:46.38	260.35	12.85	-55.9	-58.2	15.8	0.00e+00	0	36	0	1180696576	77	4863
2026-01-01 02:45:47.38	260.26	12.76	-55.9	-58.3	15.8	0.00e+00	0	36	0	1182793728	77	4877
2026-01-01 02:45:48.39	260.17	12.67	-55.9	-58.3	15.8	0.00e+00	0	36	0	1184890880	77	4886
2026-01-01 02:45:49.39	260.09	12.59	-55.9	-58.3	15.8	0.00e+00	0	36	0	1186988032	77	4894
2026-01-01 02:45:50.39	260.00	12.50	-56.0	-58.4	15.7	0.00e+00	0	36	0	1188036608	77	4963
2026-01-01 02:45:51.39	259.92	12.41	-56.1	-58.5	15.6	0.00e+00	0	36	0	1190133760	77	5023
2026-01-01 02:45:52.38	259.83	12.33	-56.0	-58.4	15.8	0.00e+00	0	36	0	1192230912	77	4954
2026-01-01 02:45:53.39	259.75	12.24	-56.0	-58.5	15.7	0.00e+00	0	36	0	1194328064	77	5000
2026-01-01 02:45:54.39	259.66	12.16	-56.1	-58.5	15.7	0.00e+00	0	36	0	1196425216	77	5002
2026-01-01 02:45:55.38	259.58	12.07	-56.0	-58.4	15.7	0.00e+00	0	36	0	1197473792	77	4983
2026-01-01 02:45:56.37	259.50	11.99	-56.0	-58.5	15.6	0.00e+00	0	36	0	1199570944	77	5001
2026-01-01 02:45:57.37	259.42	11.90	-56.1	-58.6	15.6	0.00e+00	0	36	0	1201668096	77	5059
2026-01-01 02:45:58.37	259.33	11.82	-56.1	-58.6	15.5	0.00e+00	0	36	0	1203765248	77	5078
2026-01-01 02:45:59.37	259.25	11.73	-56.0	-58.4	15.7	0.00e+00	0	36	0	1204813824	77	4983
2026-01-01 02:46:00.37	259.17	11.65	-56.0	-58.4	15.7	0.00e+00	0	36	0	1206910976	77	4968
2026-01-01 02:46:01.37	259.09	11.56	-56.0	-58.4	15.7	0.00e+00	0	36	0	1209008128	77	4980
2026-01-01 02:46:02.37	259.01	11.48	-56.0	-58.4	15.7	0.00e+00	0	36	0	1211105280	77	4930
2026-01-01 02:46:03.36	258.93	11.40	-55.9	-58.3	15.7	0.00e+00	0	36	0	1213202432	77	4920
2026-01-01 02:46:04.35	258.85	11.31	-55.9	-58.3	15.8	0.00e+00	0	36	0	1214251008	77	4912
