passes_logs/2026/01/01/R3.2S_Murmansk/R3.2S_Murmansk__20260101_220127_ZKG05_rec.log

#Pass ID: 20260101_220127_ZKG05
#Satellite: ZKG05
#Configuration: ZKG05
#almurnet v.1.7.20251203
#Start time: 2026-01-01 22:01:28

#Version: 2.2.20231116
#Station: R3.2S_Murmansk
#Location: 33.079688 lon 68.888172 lat
#TLE: 1 65263U 25180E   25363.54303023  .00006586  00000-0  34273-3 0  9994
#TLE: 2 65263  97.4772 128.0191 0001674  87.3453 272.7971 15.16366041 20011

#Time	Az	El	Level	Level2	SNR	BER	BlckErr	Temp	State	Recorded	gain1	gain2
2026-01-01 22:01:28.73	146.96	2.09	-58.8	-62.0	6.2	0.00e+00	0	38	0	0	84	20207
2026-01-01 22:01:29.74	146.95	2.16	-58.8	-62.0	6.2	0.00e+00	0	38	104	0	84	20272
2026-01-01 22:01:30.74	146.93	2.23	-58.8	-62.0	6.2	0.00e+00	0	38	104	0	84	20314
2026-01-01 22:01:31.74	146.92	2.30	-58.8	-62.0	6.2	0.00e+00	0	38	104	0	84	20276
2026-01-01 22:01:32.73	146.91	2.37	-58.8	-62.0	6.2	0.00e+00	0	38	104	0	84	20235
2026-01-01 22:01:33.73	146.90	2.44	-58.8	-62.0	6.2	0.00e+00	0	38	104	0	84	20272
2026-01-01 22:01:34.73	146.88	2.52	-58.8	-62.0	6.2	0.00e+00	0	38	104	0	84	20250
2026-01-01 22:01:35.72	146.87	2.59	-58.8	-62.0	6.2	0.00e+00	0	39	104	0	84	20317
2026-01-01 22:01:36.72	146.86	2.66	-58.8	-62.0	6.2	0.00e+00	0	39	104	0	84	20295
2026-01-01 22:01:37.72	146.84	2.73	-58.8	-62.0	6.2	0.00e+00	0	39	104	0	84	20249
2026-01-01 22:01:38.72	146.83	2.80	-58.8	-62.0	6.2	0.00e+00	0	39	104	0	84	20311
2026-01-01 22:01:39.72	146.82	2.87	-58.8	-62.0	6.2	0.00e+00	0	39	104	0	84	20314
2026-01-01 22:01:40.73	146.80	2.95	-58.8	-62.0	6.2	0.00e+00	0	39	104	0	84	20291
2026-01-01 22:01:41.74	146.79	3.02	-58.8	-62.0	6.2	0.00e+00	0	39	104	0	84	20294
2026-01-01 22:01:42.74	146.78	3.09	-58.8	-62.0	6.2	0.00e+00	0	39	104	0	84	20268
2026-01-01 22:01:43.75	146.76	3.17	-58.8	-62.0	6.2	0.00e+00	0	39	104	0	84	20322
2026-01-01 22:01:44.75	146.75	3.24	-58.8	-62.0	6.2	0.00e+00	0	39	104	0	84	20259
2026-01-01 22:01:45.74	146.74	3.32	-58.8	-62.0	6.2	0.00e+00	0	39	104	0	84	20242
2026-01-01 22:01:46.74	146.72	3.39	-58.9	-62.0	6.2	0.00e+00	0	39	104	0	84	20303
2026-01-01 22:01:47.74	146.71	3.46	-58.9	-62.0	6.2	0.00e+00	0	39	104	0	84	20272
2026-01-01 22:01:48.74	146.69	3.54	-58.9	-62.0	6.2	0.00e+00	0	39	104	0	84	20358
2026-01-01 22:01:49.74	146.68	3.61	-58.9	-62.0	6.2	0.00e+00	0	39	104	0	84	20305
2026-01-01 22:01:50.74	146.67	3.69	-58.9	-62.0	6.2	0.00e+00	0	39	104	0	84	20262
2026-01-01 22:01:51.73	146.65	3.76	-58.9	-62.0	6.2	0.00e+00	0	39	104	0	84	20338
2026-01-01 22:01:52.73	146.64	3.84	-58.8	-62.0	6.2	0.00e+00	0	39	104	0	84	20254
2026-01-01 22:01:53.72	146.62	3.92	-58.9	-62.0	6.2	0.00e+00	0	39	104	0	84	20295
2026-01-01 22:01:54.72	146.61	3.99	-58.9	-62.0	6.2	0.00e+00	0	39	104	0	84	20292
2026-01-01 22:01:55.71	146.59	4.07	-58.9	-62.0	6.2	0.00e+00	0	39	104	0	84	20298
2026-01-01 22:01:56.71	146.58	4.14	-58.9	-62.0	6.2	0.00e+00	0	39	104	0	84	20357
2026-01-01 22:01:57.71	146.56	4.22	-58.9	-62.0	6.2	0.00e+00	0	39	104	0	84	20284
2026-01-01 22:01:58.71	146.55	4.30	-58.8	-62.0	6.2	0.00e+00	0	40	104	0	84	20271
2026-01-01 22:01:59.71	146.53	4.38	-58.9	-62.0	6.2	0.00e+00	0	39	104	0	84	20298
2026-01-01 22:02:00.70	146.52	4.45	-58.8	-62.0	6.2	0.00e+00	0	40	104	0	84	20284
2026-01-01 22:02:01.70	146.50	4.53	-58.9	-62.0	6.2	0.00e+00	0	39	104	0	84	20366
2026-01-01 22:02:02.69	146.48	4.61	-58.9	-62.0	6.2	0.00e+00	0	40	104	0	84	20364
2026-01-01 22:02:03.69	146.47	4.69	-58.8	-62.0	6.2	0.00e+00	0	40	104	0	84	20289
2026-01-01 22:02:04.69	146.45	4.77	-58.9	-62.0	6.2	0.00e+00	0	40	104	0	84	20334
2026-01-01 22:02:05.69	146.44	4.85	-58.9	-62.0	6.2	0.00e+00	0	40	104	0	84	20355
2026-01-01 22:02:06.70	146.42	4.93	-58.9	-62.0	6.2	0.00e+00	0	40	104	0	84	20296
2026-01-01 22:02:07.69	146.40	5.01	-58.9	-62.0	6.2	0.00e+00	0	40	104	0	84	20315
2026-01-01 22:02:08.69	146.39	5.09	-59.3	-62.5	6.2	0.00e+00	0	40	104	0	84	21411
2026-01-01 22:02:09.68	146.37	5.17	-59.3	-62.5	6.2	0.00e+00	0	40	104	0	84	21359
2026-01-01 22:02:10.68	146.35	5.25	-59.1	-62.3	6.2	0.00e+00	0	40	104	0	84	21054
2026-01-01 22:02:11.68	146.34	5.33	-59.5	-62.7	6.2	0.00e+00	0	40	104	0	84	21902
2026-01-01 22:02:12.68	146.32	5.41	-59.0	-62.2	6.2	0.00e+00	0	40	104	0	84	20667
2026-01-01 22:02:13.67	146.30	5.49	-58.5	-61.6	6.2	0.00e+00	0	40	104	0	83	20555
2026-01-01 22:02:14.67	146.28	5.58	-58.4	-61.6	6.2	0.00e+00	0	40	104	0	83	20491
2026-01-01 22:02:15.66	146.27	5.66	-58.2	-61.3	6.2	0.00e+00	0	40	104	0	83	19866
2026-01-01 22:02:16.66	146.25	5.74	-57.9	-61.1	6.2	0.00e+00	0	40	104	0	82	20478
2026-01-01 22:02:17.66	146.23	5.82	-57.5	-60.6	6.2	0.00e+00	0	40	104	0	81	20537
2026-01-01 22:02:18.66	146.21	5.91	-58.8	-62.0	6.2	0.00e+00	0	40	104	0	82	22735
2026-01-01 22:02:19.66	146.19	5.99	-59.7	-62.8	6.2	0.00e+00	0	40	104	0	84	22341
2026-01-01 22:02:20.65	146.18	6.08	-59.6	-62.7	6.2	0.00e+00	0	40	104	0	84	22031
2026-01-01 22:02:21.65	146.16	6.16	-59.4	-62.6	6.2	0.00e+00	0	40	104	0	84	21636
2026-01-01 22:02:22.66	146.14	6.25	-59.4	-62.6	6.2	0.00e+00	0	40	104	0	84	21618
2026-01-01 22:02:23.66	146.12	6.33	-59.4	-62.6	6.2	0.00e+00	0	40	104	0	84	21742
2026-01-01 22:02:24.66	146.10	6.42	-59.4	-62.6	6.2	0.00e+00	0	40	104	0	84	21668
2026-01-01 22:02:25.67	146.08	6.51	-59.4	-62.6	6.2	0.00e+00	0	40	104	0	84	21645
2026-01-01 22:02:26.67	146.06	6.59	-59.5	-62.7	6.2	0.00e+00	0	41	104	0	84	21917
2026-01-01 22:02:27.67	146.04	6.68	-59.5	-62.7	6.2	0.00e+00	0	40	104	0	84	21921
2026-01-01 22:02:28.67	146.02	6.77	-59.7	-62.9	6.2	0.00e+00	0	41	104	0	84	22505
2026-01-01 22:02:29.67	146.00	6.85	-59.7	-62.9	6.2	0.00e+00	0	40	104	0	84	22503
2026-01-01 22:02:30.67	145.98	6.94	-59.7	-62.9	6.2	0.00e+00	0	40	104	0	84	22369
2026-01-01 22:02:31.67	145.96	7.03	-59.8	-62.9	6.2	0.00e+00	0	40	104	0	84	22594
2026-01-01 22:02:32.68	145.94	7.12	-59.6	-62.8	6.2	0.00e+00	0	40	104	0	84	22271
2026-01-01 22:02:33.68	145.92	7.21	-59.7	-62.8	6.2	0.00e+00	0	40	104	0	84	22355
2026-01-01 22:02:34.67	145.90	7.30	-59.7	-62.8	6.2	0.00e+00	0	40	104	0	84	22257
2026-01-01 22:02:35.67	145.88	7.39	-59.8	-63.0	6.2	0.00e+00	0	40	104	0	84	22659
2026-01-01 22:02:36.67	145.86	7.48	-59.6	-62.8	6.2	0.00e+00	0	41	104	0	85	21071
2026-01-01 22:02:37.67	145.84	7.57	-59.7	-62.9	6.2	0.00e+00	0	41	104	0	85	21121
2026-01-01 22:02:38.67	145.81	7.66	-59.7	-62.8	6.2	0.00e+00	0	41	104	0	85	21039
2026-01-01 22:02:39.67	145.79	7.76	-59.8	-63.0	6.2	0.00e+00	0	41	104	0	85	21390
2026-01-01 22:02:40.68	145.77	7.85	-59.7	-62.8	6.2	0.00e+00	0	41	104	0	85	21084
2026-01-01 22:02:41.68	145.75	7.94	-59.7	-62.9	6.2	0.00e+00	0	41	104	0	85	21244
2026-01-01 22:02:42.67	145.73	8.03	-59.7	-62.9	6.2	0.00e+00	0	41	104	0	85	21167
2026-01-01 22:02:43.67	145.70	8.13	-59.8	-63.0	6.2	0.00e+00	0	41	104	0	85	21419
2026-01-01 22:02:44.66	145.68	8.22	-59.7	-62.9	6.2	0.00e+00	0	41	104	0	85	21190
2026-01-01 22:02:45.66	145.66	8.32	-59.8	-62.9	6.2	0.00e+00	0	41	104	0	85	21322
2026-01-01 22:02:46.66	145.63	8.41	-59.7	-62.9	6.2	0.00e+00	0	41	104	0	85	21318
2026-01-01 22:02:47.65	145.61	8.51	-59.9	-63.0	6.2	0.00e+00	0	41	104	0	85	21525
2026-01-01 22:02:48.65	145.59	8.60	-59.7	-62.9	6.2	0.00e+00	0	41	104	0	85	21296
2026-01-01 22:02:49.64	145.56	8.70	-59.8	-62.9	6.2	0.00e+00	0	41	104	0	85	21324
2026-01-01 22:02:50.64	145.54	8.80	-59.7	-62.9	6.2	0.00e+00	0	41	104	0	85	21312
2026-01-01 22:02:51.64	145.52	8.89	-59.9	-63.0	6.2	0.00e+00	0	41	104	0	85	21537
2026-01-01 22:02:52.63	145.49	8.99	-59.8	-62.9	6.2	0.00e+00	0	41	104	0	85	21233
2026-01-01 22:02:53.63	145.47	9.09	-59.8	-63.0	6.2	0.00e+00	0	41	104	0	85	21423
2026-01-01 22:02:54.64	145.44	9.19	-59.8	-63.0	6.2	0.00e+00	0	41	104	0	85	21396
2026-01-01 22:02:55.63	145.42	9.29	-59.9	-63.1	6.2	0.00e+00	0	41	104	0	85	21630
2026-01-01 22:02:56.63	145.39	9.39	-59.8	-63.0	6.2	0.00e+00	0	41	104	0	85	21504
2026-01-01 22:02:57.62	145.37	9.49	-59.8	-63.0	6.2	0.00e+00	0	41	104	0	85	21437
2026-01-01 22:02:58.61	145.34	9.59	-59.8	-63.0	6.2	0.00e+00	0	41	104	0	85	21493
2026-01-01 22:02:59.61	145.31	9.69	-59.9	-63.1	6.2	0.00e+00	0	41	104	0	85	21628
2026-01-01 22:03:00.61	145.29	9.79	-59.8	-63.0	6.2	0.00e+00	0	41	104	0	85	21477
2026-01-01 22:03:01.61	145.26	9.89	-59.9	-63.0	6.2	0.00e+00	0	41	104	0	85	21597
2026-01-01 22:03:02.60	145.23	10.00	-59.8	-63.0	6.2	0.00e+00	0	41	104	0	85	21544
2026-01-01 22:03:03.61	145.21	10.10	-59.9	-63.1	6.2	0.00e+00	0	41	104	0	85	21702
2026-01-01 22:03:04.61	145.18	10.20	-59.9	-63.0	6.2	0.00e+00	0	41	104	0	85	21547
2026-01-01 22:03:05.62	145.15	10.31	-59.9	-63.1	6.2	0.00e+00	0	41	104	0	85	21623
2026-01-01 22:03:06.62	145.12	10.42	-59.9	-63.1	6.2	0.00e+00	0	41	104	0	85	21607
2026-01-01 22:03:07.62	145.10	10.52	-60.0	-63.1	6.2	0.00e+00	0	41	104	0	85	21773
2026-01-01 22:03:08.62	145.07	10.63	-59.9	-63.1	6.2	0.00e+00	0	41	104	0	85	21630
2026-01-01 22:03:09.61	145.04	10.74	-59.9	-63.1	6.2	0.00e+00	0	41	104	0	85	21668
2026-01-01 22:03:10.61	145.01	10.84	-59.9	-63.1	6.2	0.00e+00	0	41	104	0	85	21608
2026-01-01 22:03:11.61	144.98	10.95	-60.0	-63.1	6.2	0.00e+00	0	41	104	0	85	21811
2026-01-01 22:03:12.61	144.95	11.06	-59.9	-63.1	6.2	0.00e+00	0	41	104	0	85	21770
2026-01-01 22:03:13.61	144.92	11.17	-59.9	-63.1	6.2	0.00e+00	0	41	104	0	85	21704
2026-01-01 22:03:14.61	144.89	11.28	-59.9	-63.1	6.2	0.00e+00	0	41	104	0	85	21722
2026-01-01 22:03:15.62	144.86	11.39	-60.0	-63.1	6.2	0.00e+00	0	41	104	0	85	21832
2026-01-01 22:03:16.61	144.83	11.50	-59.9	-63.1	6.2	0.00e+00	0	41	104	0	85	21765
2026-01-01 22:03:17.62	144.80	11.62	-60.0	-63.1	6.2	0.00e+00	0	41	104	0	85	21798
2026-01-01 22:03:18.62	144.76	11.73	-60.0	-63.1	6.2	0.00e+00	0	41	104	0	85	21742
2026-01-01 22:03:19.62	144.73	11.85	-60.0	-63.2	6.2	0.00e+00	0	41	104	0	85	21915
2026-01-01 22:03:20.63	144.70	11.96	-60.0	-63.2	6.2	0.00e+00	0	41	104	0	85	21882
2026-01-01 22:03:21.63	144.67	12.08	-60.0	-63.1	6.2	0.00e+00	0	41	104	0	85	21830
2026-01-01 22:03:22.63	144.63	12.19	-60.0	-63.1	6.2	0.00e+00	0	41	104	0	85	21836
2026-01-01 22:03:23.63	144.60	12.31	-60.0	-63.2	6.2	0.00e+00	0	41	104	0	85	21970
2026-01-01 22:03:24.64	144.57	12.43	-60.0	-63.2	6.2	0.00e+00	0	41	104	0	85	21910
2026-01-01 22:03:25.64	144.53	12.55	-60.0	-63.2	6.2	0.00e+00	0	41	104	0	85	21930
2026-01-01 22:03:26.64	144.50	12.66	-60.0	-63.2	6.2	0.00e+00	0	41	104	0	85	21949
2026-01-01 22:03:27.64	144.46	12.78	-60.1	-63.3	6.2	0.00e+00	0	41	104	0	85	22115
2026-01-01 22:03:28.64	144.43	12.90	-60.0	-63.2	6.2	0.00e+00	0	41	104	0	85	22054
2026-01-01 22:03:29.64	144.39	13.02	-60.1	-63.3	6.2	0.00e+00	0	41	104	0	85	22138
2026-01-01 22:03:30.63	144.36	13.15	-60.1	-63.3	6.2	0.00e+00	0	41	104	0	85	22131
2026-01-01 22:03:31.64	144.32	13.27	-60.1	-63.3	6.2	0.00e+00	0	41	104	0	85	22205
2026-01-01 22:03:32.63	144.29	13.39	-60.1	-63.3	6.2	0.00e+00	0	41	104	0	85	22167
2026-01-01 22:03:33.63	144.25	13.52	-60.1	-63.3	6.2	0.00e+00	0	41	104	0	85	22123
2026-01-01 22:03:34.63	144.21	13.64	-60.1	-63.3	6.2	0.00e+00	0	41	104	0	85	22169
2026-01-01 22:03:35.64	144.17	13.77	-60.2	-63.4	6.2	0.00e+00	0	41	104	0	85	22392
2026-01-01 22:03:36.64	144.14	13.89	-60.1	-63.3	6.2	0.00e+00	0	41	104	0	85	22282
2026-01-01 22:03:37.64	144.10	14.02	-60.1	-63.3	6.2	0.00e+00	0	41	104	0	85	22317
2026-01-01 22:03:38.64	144.06	14.15	-60.1	-63.3	6.2	0.00e+00	0	42	104	0	85	22192
2026-01-01 22:03:39.64	144.02	14.28	-60.2	-63.3	6.2	0.00e+00	0	41	104	0	85	22349
2026-01-01 22:03:40.63	143.98	14.41	-60.1	-63.3	6.2	0.00e+00	0	41	104	0	85	22240
2026-01-01 22:03:41.63	143.94	14.54	-60.1	-63.3	6.2	0.00e+00	0	41	104	0	85	22231
2026-01-01 22:03:42.62	143.90	14.67	-60.1	-63.3	6.2	0.00e+00	0	41	104	0	85	22153
2026-01-01 22:03:43.62	143.86	14.80	-60.2	-63.3	6.2	0.00e+00	0	41	104	0	85	22319
2026-01-01 22:03:44.63	143.81	14.94	-60.2	-63.3	6.2	0.00e+00	0	41	104	0	85	22362
2026-01-01 22:03:45.63	143.77	15.07	-60.2	-63.3	6.2	0.00e+00	0	42	104	0	85	22264
2026-01-01 22:03:46.63	143.73	15.21	-60.2	-63.3	6.2	0.00e+00	0	41	104	0	85	22325
2026-01-01 22:03:47.62	143.69	15.34	-60.2	-63.4	6.2	0.00e+00	0	41	104	0	85	22448
2026-01-01 22:03:48.62	143.64	15.48	-60.2	-63.4	6.2	0.00e+00	0	41	104	0	85	22405
2026-01-01 22:03:49.62	143.60	15.62	-60.2	-63.3	6.2	0.00e+00	0	41	104	0	85	22316
2026-01-01 22:03:50.61	143.55	15.76	-60.2	-63.3	6.2	0.00e+00	0	41	104	0	85	22330
2026-01-01 22:03:51.61	143.51	15.90	-60.2	-63.4	6.2	0.00e+00	0	41	104	0	85	22484
2026-01-01 22:03:52.61	143.46	16.04	-60.2	-63.4	6.2	0.00e+00	0	41	104	0	85	22483
2026-01-01 22:03:53.61	143.42	16.18	-60.2	-63.4	6.2	0.00e+00	0	42	104	0	85	22435
2026-01-01 22:03:54.61	143.37	16.33	-60.2	-63.4	6.2	0.00e+00	0	41	104	0	85	22434
2026-01-01 22:03:55.60	143.32	16.47	-60.3	-63.5	6.2	0.00e+00	0	41	104	0	85	22653
2026-01-01 22:03:56.60	143.27	16.61	-60.3	-63.5	6.2	0.00e+00	0	42	104	0	86	21363
2026-01-01 22:03:57.59	143.23	16.76	-60.3	-63.5	6.2	0.00e+00	0	41	104	0	86	21392
2026-01-01 22:03:58.60	143.18	16.91	-60.3	-63.4	6.2	0.00e+00	0	42	104	0	86	21319
2026-01-01 22:03:59.59	143.13	17.06	-60.3	-63.5	6.2	0.00e+00	0	41	104	0	86	21457
2026-01-01 22:04:00.59	143.08	17.21	-60.3	-63.5	6.2	0.00e+00	0	41	104	0	86	21422
2026-01-01 22:04:01.59	143.03	17.36	-60.3	-63.5	6.2	0.00e+00	0	42	104	0	86	21365
2026-01-01 22:04:02.58	142.97	17.51	-60.3	-63.4	6.2	0.00e+00	0	42	104	0	86	21344
2026-01-01 22:04:03.58	142.92	17.66	-60.4	-63.5	6.2	0.00e+00	0	41	104	0	86	21546
2026-01-01 22:04:04.57	142.87	17.82	-60.3	-63.5	6.2	0.00e+00	0	41	104	0	86	21521
2026-01-01 22:04:05.57	142.82	17.97	-60.3	-63.5	6.2	0.00e+00	0	41	104	0	86	21440
2026-01-01 22:04:06.57	142.76	18.13	-60.3	-63.5	6.2	0.00e+00	0	41	104	0	86	21447
2026-01-01 22:04:07.56	142.71	18.29	-60.4	-63.5	6.2	0.00e+00	0	41	104	0	86	21558
2026-01-01 22:04:08.56	142.65	18.45	-60.4	-63.5	6.2	0.00e+00	0	42	104	0	86	21604
2026-01-01 22:04:09.56	142.60	18.61	-60.4	-63.5	6.2	0.00e+00	0	42	104	0	86	21526
2026-01-01 22:04:10.57	142.54	18.77	-60.4	-63.5	6.2	0.00e+00	0	42	104	0	86	21471
2026-01-01 22:04:11.57	142.48	18.93	-60.4	-63.6	6.2	0.00e+00	0	42	104	0	86	21710
2026-01-01 22:04:12.57	142.42	19.10	-60.4	-63.6	6.2	0.00e+00	0	42	104	0	86	21663
2026-01-01 22:04:13.57	142.36	19.26	-60.4	-63.6	6.2	0.00e+00	0	42	104	0	86	21652
2026-01-01 22:04:14.57	142.30	19.43	-60.4	-63.6	6.2	0.00e+00	0	42	104	0	86	21649
2026-01-01 22:04:15.56	142.24	19.60	-60.5	-63.6	6.2	0.00e+00	0	42	104	0	86	21781
2026-01-01 22:04:16.56	142.18	19.77	-60.4	-63.6	6.2	0.00e+00	0	41	104	0	86	21701
2026-01-01 22:04:17.56	142.12	19.94	-60.4	-63.6	6.2	0.00e+00	0	42	104	0	86	21763
2026-01-01 22:04:18.57	142.05	20.12	-60.4	-63.6	6.2	0.00e+00	0	42	104	0	86	21677
2026-01-01 22:04:19.57	141.99	20.29	-60.5	-63.6	6.2	0.00e+00	0	42	104	0	86	21821
2026-01-01 22:04:20.57	141.92	20.47	-60.5	-63.6	6.2	0.00e+00	0	42	104	0	86	21817
2026-01-01 22:04:21.58	141.86	20.65	-60.4	-63.6	6.2	0.00e+00	0	42	104	0	86	21735
2026-01-01 22:04:22.58	141.79	20.83	-60.5	-63.6	6.2	0.00e+00	0	42	104	0	86	21769
2026-01-01 22:04:23.57	141.72	21.01	-60.5	-63.7	6.2	0.00e+00	0	42	104	0	86	21925
2026-01-01 22:04:24.57	141.65	21.19	-60.5	-63.7	6.2	0.00e+00	0	42	104	0	86	21858
2026-01-01 22:04:25.57	141.58	21.37	-60.5	-63.6	6.2	0.00e+00	0	42	104	0	86	21712
2026-01-01 22:04:26.57	141.51	21.56	-60.5	-63.6	6.2	0.00e+00	0	42	104	0	86	21837
2026-01-01 22:04:27.58	141.44	21.75	-60.5	-63.7	6.2	0.00e+00	0	42	104	0	86	21946
2026-01-01 22:04:28.58	141.36	21.94	-60.5	-63.7	6.2	0.00e+00	0	42	104	0	86	21944
2026-01-01 22:04:29.58	141.29	22.13	-60.5	-63.6	6.2	0.00e+00	0	42	104	0	86	21813
2026-01-01 22:04:30.57	141.22	22.32	-60.5	-63.7	6.2	0.00e+00	0	42	104	0	86	21864
2026-01-01 22:04:31.58	141.14	22.52	-60.6	-63.7	6.2	0.00e+00	0	42	104	0	86	22005
2026-01-01 22:04:32.57	141.06	22.71	-60.6	-63.7	6.2	0.00e+00	0	42	104	0	86	22047
2026-01-01 22:04:33.58	140.98	22.91	-60.5	-63.7	6.2	0.00e+00	0	41	104	0	86	21957
2026-01-01 22:04:34.58	140.90	23.11	-60.5	-63.7	6.2	0.00e+00	0	42	104	0	86	22001
2026-01-01 22:04:35.57	140.82	23.31	-60.6	-63.7	6.2	0.00e+00	0	42	104	0	86	22074
2026-01-01 22:04:36.56	140.74	23.51	-60.6	-63.7	6.2	0.00e+00	0	42	104	0	86	22104
2026-01-01 22:04:37.57	140.66	23.72	-60.6	-63.7	6.2	0.00e+00	0	42	104	0	86	22037
2026-01-01 22:04:38.57	140.57	23.92	-60.6	-63.7	6.2	0.00e+00	0	42	104	0	86	22089
2026-01-01 22:04:39.56	140.49	24.13	-60.6	-63.8	6.2	0.00e+00	0	42	104	0	86	22205
2026-01-01 22:04:40.56	140.40	24.34	-60.6	-63.7	6.2	0.00e+00	0	42	104	0	86	22098
2026-01-01 22:04:41.56	140.31	24.55	-60.6	-63.8	6.2	0.00e+00	0	42	104	0	86	22124
2026-01-01 22:04:42.56	140.22	24.77	-60.6	-63.8	6.2	0.00e+00	0	42	104	0	86	22153
2026-01-01 22:04:43.56	140.13	24.99	-60.7	-63.8	6.2	0.00e+00	0	42	104	0	86	22287
2026-01-01 22:04:44.56	140.04	25.21	-60.6	-63.8	6.2	0.00e+00	0	42	104	0	86	22204
2026-01-01 22:04:45.56	139.94	25.43	-60.6	-63.8	6.2	0.00e+00	0	42	104	0	86	22154
2026-01-01 22:04:46.56	139.85	25.65	-60.7	-63.8	6.2	0.00e+00	0	42	104	0	86	22269
2026-01-01 22:04:47.55	139.75	25.87	-60.7	-63.8	6.2	0.00e+00	0	42	104	0	86	22355
2026-01-01 22:04:48.55	139.65	26.10	-60.7	-63.8	6.2	0.00e+00	0	42	104	0	86	22291
2026-01-01 22:04:49.55	139.55	26.33	-60.6	-63.8	6.2	0.00e+00	0	42	104	0	86	22199
2026-01-01 22:04:50.54	139.45	26.56	-60.7	-63.8	6.2	0.00e+00	0	42	104	0	86	22270
2026-01-01 22:04:51.54	139.35	26.80	-60.7	-63.9	6.2	0.00e+00	0	42	104	0	86	22422
2026-01-01 22:04:52.53	139.24	27.03	-60.7	-63.8	6.2	0.00e+00	0	42	104	0	86	22341
2026-01-01 22:04:53.53	139.13	27.27	-60.7	-63.8	6.2	0.00e+00	0	42	104	0	86	22297
2026-01-01 22:04:54.52	139.03	27.51	-60.7	-63.8	6.2	0.00e+00	0	42	104	0	86	22360
2026-01-01 22:04:55.52	138.91	27.75	-60.8	-63.9	6.2	0.00e+00	0	42	104	0	86	22506
2026-01-01 22:04:56.52	138.80	28.00	-60.7	-63.9	6.2	0.00e+00	0	42	104	0	86	22443
2026-01-01 22:04:57.52	138.69	28.25	-60.7	-63.9	6.2	0.00e+00	0	42	104	0	86	22455
2026-01-01 22:04:58.51	138.57	28.50	-60.7	-63.9	6.2	0.00e+00	0	42	104	0	86	22495
2026-01-01 22:04:59.50	138.45	28.75	-60.8	-63.9	6.2	0.00e+00	0	42	104	0	86	22580
2026-01-01 22:05:00.50	138.33	29.01	-60.8	-63.9	6.2	0.00e+00	0	42	104	0	86	22560
2026-01-01 22:05:01.49	138.21	29.27	-60.7	-63.9	6.2	0.00e+00	0	42	104	0	86	22450
2026-01-01 22:05:02.48	138.08	29.53	-60.8	-63.9	6.2	0.00e+00	0	42	104	0	86	22547
2026-01-01 22:05:03.48	137.96	29.79	-60.8	-63.9	6.2	0.00e+00	0	42	104	0	86	22622
2026-01-01 22:05:04.48	137.83	30.06	-60.8	-63.9	6.2	0.00e+00	0	42	104	0	87	21339
2026-01-01 22:05:05.48	137.69	30.33	-60.8	-63.9	6.2	0.00e+00	0	42	104	0	87	21255
2026-01-01 22:05:06.48	137.56	30.60	-60.8	-63.9	6.2	0.00e+00	0	42	104	0	87	21351
2026-01-01 22:05:07.48	137.42	30.88	-60.8	-64.0	6.2	0.00e+00	0	42	104	0	87	21420
2026-01-01 22:05:08.48	137.28	31.16	-60.8	-64.0	6.2	0.00e+00	0	42	104	0	87	21390
2026-01-01 22:05:09.48	137.14	31.44	-60.8	-63.9	6.2	0.00e+00	0	42	104	0	87	21354
2026-01-01 22:05:10.49	136.99	31.73	-60.8	-64.0	6.2	0.00e+00	0	42	104	0	87	21419
2026-01-01 22:05:11.48	136.84	32.01	-60.9	-64.0	6.2	0.00e+00	0	42	104	0	87	21464
2026-01-01 22:05:12.47	136.69	32.30	-60.8	-64.0	6.2	0.00e+00	0	42	104	0	87	21529
2026-01-01 22:05:13.47	136.54	32.60	-60.8	-64.0	6.2	0.00e+00	0	42	104	0	87	21405
2026-01-01 22:05:14.48	136.38	32.90	-60.9	-64.0	6.2	0.00e+00	0	42	104	0	87	21514
2026-01-01 22:05:15.47	136.22	33.19	-60.9	-64.0	6.2	0.00e+00	0	42	104	0	87	21583
2026-01-01 22:05:16.47	136.05	33.50	-60.9	-64.0	6.2	0.00e+00	0	42	104	0	87	21487
2026-01-01 22:05:17.47	135.88	33.80	-60.8	-64.0	6.2	0.00e+00	0	42	104	0	87	21470
2026-01-01 22:05:18.47	135.71	34.12	-60.9	-64.1	6.2	0.00e+00	0	42	104	0	87	21667
2026-01-01 22:05:19.46	135.54	34.43	-60.9	-64.1	6.2	0.00e+00	0	42	104	0	87	21629
2026-01-01 22:05:20.45	135.36	34.74	-60.9	-64.0	6.2	0.00e+00	0	42	104	0	87	21550
2026-01-01 22:05:21.46	135.18	35.06	-60.9	-64.0	6.2	0.00e+00	0	42	104	0	87	21412
2026-01-01 22:05:22.46	134.99	35.39	-60.9	-64.1	6.2	0.00e+00	0	42	104	0	87	21620
2026-01-01 22:05:23.46	134.80	35.72	-60.9	-64.1	6.2	0.00e+00	0	42	104	0	87	21692
2026-01-01 22:05:24.46	134.61	36.05	-60.9	-64.1	6.2	0.00e+00	0	42	104	0	87	21644
2026-01-01 22:05:25.46	134.41	36.38	-60.9	-64.0	6.2	0.00e+00	0	42	104	0	87	21492
2026-01-01 22:05:26.46	134.21	36.72	-60.9	-64.1	6.2	0.00e+00	0	42	104	0	87	21718
2026-01-01 22:05:27.46	134.00	37.06	-60.9	-64.1	6.2	0.00e+00	0	42	104	0	87	21733
2026-01-01 22:05:28.46	133.79	37.41	-61.0	-64.1	6.2	0.00e+00	0	42	104	0	87	21716
2026-01-01 22:05:29.45	133.57	37.75	-60.9	-64.1	6.2	0.00e+00	0	42	104	0	87	21669
2026-01-01 22:05:30.45	133.35	38.11	-61.0	-64.1	6.2	0.00e+00	0	42	104	0	87	21826
2026-01-01 22:05:31.45	133.12	38.46	-61.0	-64.1	6.2	0.00e+00	0	42	104	0	87	21751
2026-01-01 22:05:32.45	132.89	38.82	-61.0	-64.1	6.2	0.00e+00	0	42	104	0	87	21757
2026-01-01 22:05:33.44	132.65	39.18	-60.9	-64.1	6.2	0.00e+00	0	42	104	0	87	21744
2026-01-01 22:05:34.44	132.41	39.55	-61.0	-64.2	6.2	0.00e+00	0	42	104	0	87	21864
2026-01-01 22:05:35.44	132.16	39.92	-61.0	-64.2	6.2	0.00e+00	0	42	104	0	87	21892
2026-01-01 22:05:36.45	131.90	40.30	-61.0	-64.2	6.2	0.00e+00	0	42	104	0	87	21862
2026-01-01 22:05:37.45	131.64	40.68	-61.0	-64.1	6.2	0.00e+00	0	42	104	0	87	21800
2026-01-01 22:05:38.45	131.37	41.07	-61.0	-64.2	6.2	0.00e+00	0	42	104	0	87	21968
2026-01-01 22:05:39.45	131.09	41.45	-61.0	-64.2	6.2	0.00e+00	0	42	104	0	87	21941
2026-01-01 22:05:40.45	130.81	41.84	-61.0	-64.2	6.2	0.00e+00	0	42	104	0	87	21882
2026-01-01 22:05:41.46	130.52	42.24	-61.0	-64.2	6.2	0.00e+00	0	42	104	0	87	21919
2026-01-01 22:05:42.45	130.22	42.64	-61.0	-64.2	6.2	0.00e+00	0	42	104	0	87	21948
2026-01-01 22:05:43.46	129.91	43.05	-61.1	-64.2	6.2	0.00e+00	0	42	104	0	87	22056
2026-01-01 22:05:44.46	129.60	43.45	-61.0	-64.2	6.2	0.00e+00	0	42	104	0	87	21924
2026-01-01 22:05:45.47	129.27	43.87	-61.0	-64.2	6.2	0.00e+00	0	42	104	0	87	21888
2026-01-01 22:05:46.47	128.94	44.28	-61.1	-64.2	6.2	0.00e+00	0	42	104	0	87	22048
2026-01-01 22:05:47.47	128.60	44.70	-61.1	-64.2	6.2	0.00e+00	0	42	104	0	87	22032
2026-01-01 22:05:48.46	128.25	45.12	-61.1	-64.2	6.2	0.00e+00	0	42	104	0	87	22083
2026-01-01 22:05:49.46	127.89	45.55	-61.1	-64.2	6.2	0.00e+00	0	42	104	0	87	22073
2026-01-01 22:05:50.46	127.52	45.98	-61.1	-64.3	6.2	0.00e+00	0	42	104	0	87	22185
2026-01-01 22:05:51.46	127.14	46.41	-61.1	-64.3	6.2	0.00e+00	0	42	104	0	87	22223
2026-01-01 22:05:52.46	126.75	46.85	-61.1	-64.3	6.2	0.00e+00	0	42	104	0	87	22230
2026-01-01 22:05:53.46	126.34	47.29	-61.1	-64.2	6.2	0.00e+00	0	42	104	0	87	22057
2026-01-01 22:05:54.46	125.93	47.73	-61.1	-64.3	6.2	0.00e+00	0	42	104	0	87	22222
2026-01-01 22:05:55.46	125.50	48.18	-61.1	-64.3	6.2	0.00e+00	0	42	104	0	87	22240
2026-01-01 22:05:56.45	125.06	48.63	-61.1	-64.3	6.2	0.00e+00	0	42	104	0	87	22171
2026-01-01 22:05:57.45	124.60	49.09	-61.1	-64.2	6.2	0.00e+00	0	42	104	0	87	22070
2026-01-01 22:05:58.44	124.14	49.54	-61.2	-64.3	6.2	0.00e+00	0	42	104	0	87	22323
2026-01-01 22:05:59.44	123.66	50.00	-61.2	-64.3	6.2	0.00e+00	0	42	104	0	87	22306
2026-01-01 22:06:00.43	123.16	50.46	-61.2	-64.3	6.2	0.00e+00	0	42	104	0	87	22264
2026-01-01 22:06:01.43	122.65	50.93	-61.1	-64.3	6.2	0.00e+00	0	42	104	0	87	22251
2026-01-01 22:06:02.43	122.11	51.40	-61.2	-64.4	6.2	0.00e+00	0	42	104	0	87	22386
2026-01-01 22:06:03.43	121.56	51.87	-61.2	-64.3	6.2	0.00e+00	0	42	104	0	87	22365
2026-01-01 22:06:04.42	121.00	52.34	-61.2	-64.4	6.2	0.00e+00	0	42	104	0	87	22372
2026-01-01 22:06:05.42	120.41	52.81	-61.2	-64.3	6.2	0.00e+00	0	42	104	0	87	22274
2026-01-01 22:06:06.40	119.82	53.28	-61.2	-64.4	6.2	0.00e+00	0	42	104	0	87	22443
2026-01-01 22:06:07.40	119.19	53.76	-61.2	-64.4	6.2	0.00e+00	0	42	104	0	87	22483
2026-01-01 22:06:08.40	118.54	54.25	-61.2	-64.4	6.2	0.00e+00	0	42	104	0	87	22412
2026-01-01 22:06:09.39	117.88	54.72	-61.2	-64.3	6.2	0.00e+00	0	42	104	0	87	22353
2026-01-01 22:06:10.40	117.18	55.21	-61.3	-64.4	6.2	0.00e+00	0	42	104	0	87	22597
2026-01-01 22:06:11.40	116.46	55.69	-61.3	-64.4	6.2	0.00e+00	0	42	104	0	87	22607
2026-01-01 22:06:12.40	115.71	56.18	-61.3	-64.4	6.2	0.00e+00	0	42	104	0	87	22599
2026-01-01 22:06:13.40	114.94	56.66	-61.2	-64.4	6.2	0.00e+00	0	42	104	0	87	22455
2026-01-01 22:06:14.40	114.14	57.15	-61.3	-64.5	6.2	0.00e+00	0	42	104	0	87	22656
2026-01-01 22:06:15.39	113.31	57.62	-61.3	-64.5	6.2	0.00e+00	0	42	104	0	87	22730
2026-01-01 22:06:16.38	112.46	58.10	-61.3	-64.4	6.2	0.00e+00	0	42	104	0	88	21331
2026-01-01 22:06:17.38	111.57	58.58	-61.3	-64.4	6.2	0.00e+00	0	42	104	0	88	21259
2026-01-01 22:06:18.38	110.65	59.05	-61.3	-64.5	6.2	0.00e+00	0	42	104	0	88	21387
2026-01-01 22:06:19.38	109.69	59.53	-61.3	-64.5	6.2	0.00e+00	0	42	104	0	88	21462
2026-01-01 22:06:20.38	108.69	60.00	-61.3	-64.5	6.2	0.00e+00	0	42	104	0	88	21425
2026-01-01 22:06:21.38	107.66	60.46	-61.3	-64.4	6.2	0.00e+00	0	42	104	0	88	21337
2026-01-01 22:06:22.38	106.58	60.92	-61.3	-64.5	6.2	0.00e+00	0	42	104	0	88	21464
2026-01-01 22:06:23.38	105.47	61.38	-61.4	-64.5	6.2	0.00e+00	0	42	104	0	88	21467
2026-01-01 22:06:24.37	104.33	61.82	-61.3	-64.5	6.2	0.00e+00	0	42	104	0	88	21488
2026-01-01 22:06:25.37	103.13	62.26	-61.3	-64.4	6.2	0.00e+00	0	42	104	0	88	21288
2026-01-01 22:06:26.37	101.89	62.69	-61.4	-64.5	6.2	0.00e+00	0	42	104	0	88	21478
2026-01-01 22:06:27.37	100.61	63.12	-61.4	-64.5	6.2	0.00e+00	0	42	104	0	88	21585
2026-01-01 22:06:28.37	99.27	63.53	-61.4	-64.5	6.2	0.00e+00	0	42	104	0	88	21516
2026-01-01 22:06:29.36	97.91	63.93	-61.3	-64.5	6.2	0.00e+00	0	42	104	0	88	21443
2026-01-01 22:06:30.36	96.48	64.33	-61.4	-64.5	6.2	0.00e+00	0	42	104	0	88	21577
2026-01-01 22:06:31.37	94.98	64.71	-61.4	-64.5	6.2	0.00e+00	0	42	104	0	88	21517
2026-01-01 22:06:32.36	93.47	65.07	-61.4	-64.5	6.2	0.00e+00	0	42	104	0	88	21562
2026-01-01 22:06:33.36	91.89	65.43	-61.3	-64.5	6.2	0.00e+00	0	42	104	0	88	21410
2026-01-01 22:06:34.36	90.26	65.76	-61.4	-64.6	6.2	0.00e+00	0	42	104	0	88	21700
2026-01-01 22:06:35.37	88.56	66.09	-61.4	-64.6	6.2	0.00e+00	0	42	104	0	88	21662
2026-01-01 22:06:36.36	86.85	66.38	-61.4	-64.6	6.2	0.00e+00	0	42	104	0	88	21635
2026-01-01 22:06:37.36	85.08	66.67	-61.4	-64.5	6.2	0.00e+00	0	42	104	0	88	21542
2026-01-01 22:06:38.36	83.25	66.93	-61.4	-64.6	6.2	0.00e+00	0	42	104	0	88	21711
2026-01-01 22:06:39.37	81.37	67.17	-61.5	-64.6	6.2	0.00e+00	0	42	104	0	88	21660
2026-01-01 22:06:40.37	79.46	67.39	-61.4	-64.6	6.2	0.00e+00	0	42	104	0	88	21670
2026-01-01 22:06:41.37	77.51	67.59	-61.4	-64.6	6.2	0.00e+00	0	42	104	0	88	21682
2026-01-01 22:06:42.37	75.53	67.76	-61.5	-64.7	6.2	0.00e+00	0	42	104	0	88	21881
2026-01-01 22:06:43.37	73.51	67.91	-61.5	-64.7	6.2	0.00e+00	0	42	104	0	88	21929
2026-01-01 22:06:44.37	71.47	68.04	-61.5	-64.7	6.2	0.00e+00	0	42	104	0	88	21896
2026-01-01 22:06:45.38	69.38	68.13	-61.5	-64.6	6.2	0.00e+00	0	42	104	0	88	21772
2026-01-01 22:06:46.38	67.30	68.20	-61.6	-64.7	6.2	0.00e+00	0	42	104	0	88	21991
2026-01-01 22:06:47.38	65.20	68.25	-61.5	-64.7	6.2	0.00e+00	0	42	104	0	88	21964
2026-01-01 22:06:48.37	63.12	68.27	-61.5	-64.7	6.2	0.00e+00	0	42	104	0	88	21943
2026-01-01 22:06:49.38	61.00	68.26	-61.5	-64.6	6.2	0.00e+00	0	42	104	0	88	21839
2026-01-01 22:06:50.38	58.90	68.22	-61.6	-64.7	6.2	0.00e+00	0	42	104	0	88	21997
2026-01-01 22:06:51.38	56.81	68.16	-61.6	-64.7	6.2	0.00e+00	0	42	104	0	88	22069
2026-01-01 22:06:52.37	54.76	68.07	-61.6	-64.7	6.2	0.00e+00	0	42	104	0	88	21963
2026-01-01 22:06:53.37	52.71	67.95	-61.5	-64.7	6.2	0.00e+00	0	42	104	0	88	21903
2026-01-01 22:06:54.37	50.69	67.81	-61.6	-64.7	6.2	0.00e+00	0	42	104	0	88	22068
2026-01-01 22:06:55.37	48.69	67.65	-61.6	-64.7	6.2	0.00e+00	0	42	104	0	88	22047
2026-01-01 22:06:56.37	46.73	67.46	-61.6	-64.7	6.2	0.00e+00	0	42	104	0	88	21995
2026-01-01 22:06:57.37	44.81	67.25	-61.6	-64.7	6.2	0.00e+00	0	42	104	0	88	21932
2026-01-01 22:06:58.36	42.95	67.01	-61.6	-64.8	6.2	0.00e+00	0	42	104	0	88	22211
2026-01-01 22:06:59.35	41.13	66.76	-61.6	-64.8	6.2	0.00e+00	0	42	104	0	88	22139
2026-01-01 22:07:00.35	39.34	66.49	-61.6	-64.7	6.2	0.00e+00	0	42	104	0	88	22071
2026-01-01 22:07:01.34	37.61	66.19	-61.6	-64.7	6.2	0.00e+00	0	42	104	0	88	21999
2026-01-01 22:07:02.34	35.92	65.88	-61.6	-64.8	6.2	0.00e+00	0	42	104	0	88	22197
2026-01-01 22:07:03.33	34.29	65.55	-61.6	-64.8	6.2	0.00e+00	0	42	104	0	88	22123
2026-01-01 22:07:04.32	32.71	65.21	-61.6	-64.8	6.2	0.00e+00	0	42	104	0	88	22130
2026-01-01 22:07:05.32	31.16	64.85	-61.6	-64.7	6.2	0.00e+00	0	42	104	0	88	21985
2026-01-01 22:07:06.32	29.67	64.48	-61.6	-64.8	6.2	0.00e+00	0	42	104	0	88	22154
2026-01-01 22:07:07.32	28.22	64.09	-61.6	-64.8	6.2	0.00e+00	0	42	104	0	88	22207
2026-01-01 22:07:08.32	26.82	63.69	-61.6	-64.8	6.2	0.00e+00	0	42	104	0	88	22159
2026-01-01 22:07:09.31	25.49	63.28	-61.6	-64.7	6.2	0.00e+00	0	42	104	0	88	21953
2026-01-01 22:07:10.31	24.18	62.86	-61.6	-64.8	6.2	0.00e+00	0	42	104	0	88	22173
2026-01-01 22:07:11.30	22.94	62.44	-61.6	-64.8	6.2	0.00e+00	0	42	104	0	88	22135
2026-01-01 22:07:12.30	21.73	62.00	-61.6	-64.7	6.2	0.00e+00	0	42	104	0	88	22071
2026-01-01 22:07:13.29	20.57	61.56	-61.6	-64.7	6.2	0.00e+00	0	42	104	0	88	22006
2026-01-01 22:07:14.28	19.45	61.11	-61.6	-64.8	6.2	0.00e+00	0	42	104	0	88	22132
2026-01-01 22:07:15.28	18.37	60.66	-61.6	-64.8	6.2	0.00e+00	0	42	104	0	88	22112
2026-01-01 22:07:16.29	17.31	60.19	-61.6	-64.7	6.2	0.00e+00	0	42	104	0	88	22076
2026-01-01 22:07:17.29	16.30	59.72	-61.5	-64.7	6.2	0.00e+00	0	42	104	0	88	21958
2026-01-01 22:07:18.29	15.33	59.25	-61.6	-64.8	6.2	0.00e+00	0	42	104	0	88	22161
2026-01-01 22:07:19.29	14.39	58.78	-61.6	-64.8	6.2	0.00e+00	0	42	104	0	88	22134
2026-01-01 22:07:20.29	13.48	58.30	-61.6	-64.7	6.2	0.00e+00	0	42	104	0	88	22072
2026-01-01 22:07:21.29	12.61	57.82	-61.5	-64.7	6.2	0.00e+00	0	42	104	0	88	21910
2026-01-01 22:07:22.30	11.76	57.34	-61.6	-64.7	6.2	0.00e+00	0	42	104	0	88	22051
2026-01-01 22:07:23.30	10.95	56.86	-61.6	-64.8	6.2	0.00e+00	0	42	104	0	88	22110
2026-01-01 22:07:24.30	10.17	56.37	-61.6	-64.7	6.2	0.00e+00	0	42	104	0	88	21969
2026-01-01 22:07:25.30	9.42	55.89	-61.5	-64.6	6.2	0.00e+00	0	42	104	0	88	21844
2026-01-01 22:07:26.30	8.69	55.41	-61.6	-64.7	6.2	0.00e+00	0	42	104	0	88	21996
2026-01-01 22:07:27.31	7.98	54.92	-61.6	-64.7	6.2	0.00e+00	0	42	104	0	88	22018
2026-01-01 22:07:28.30	7.31	54.44	-61.5	-64.7	6.2	0.00e+00	0	42	104	0	88	21872
2026-01-01 22:07:29.30	6.65	53.96	-61.5	-64.6	6.2	0.00e+00	0	42	104	0	88	21831
2026-01-01 22:07:30.29	6.02	53.49	-61.6	-64.7	6.2	0.00e+00	0	42	104	0	88	21934
2026-01-01 22:07:31.29	5.41	53.01	-61.5	-64.7	6.2	0.00e+00	0	42	104	0	88	21978
2026-01-01 22:07:32.29	4.81	52.54	-61.5	-64.7	6.2	0.00e+00	0	42	104	0	88	21898
2026-01-01 22:07:33.29	4.24	52.06	-61.5	-64.6	6.2	0.00e+00	0	42	104	0	88	21806
2026-01-01 22:07:34.29	3.68	51.59	-61.5	-64.7	6.2	0.00e+00	0	42	104	0	88	21903
2026-01-01 22:07:35.28	3.15	51.13	-61.5	-64.7	6.2	0.00e+00	0	42	104	0	88	21874
2026-01-01 22:07:36.27	2.64	50.66	-61.5	-64.6	6.2	0.00e+00	0	42	104	0	88	21802
2026-01-01 22:07:37.27	2.13	50.20	-61.4	-64.6	6.2	0.00e+00	0	42	104	0	88	21742
2026-01-01 22:07:38.26	1.65	49.74	-61.5	-64.6	6.2	0.00e+00	0	42	104	0	88	21802
2026-01-01 22:07:39.25	1.18	49.29	-61.5	-64.7	6.2	0.00e+00	0	42	104	0	88	21898
2026-01-01 22:07:40.25	0.72	48.83	-61.5	-64.6	6.2	0.00e+00	0	42	104	0	88	21832
2026-01-01 22:07:41.25	0.27	48.38	-61.4	-64.6	6.2	0.00e+00	0	42	104	0	88	21670
2026-01-01 22:07:42.25	359.84	47.94	-61.5	-64.6	6.2	0.00e+00	0	42	104	0	88	21848
2026-01-01 22:07:43.25	359.42	47.49	-61.5	-64.6	6.2	0.00e+00	0	42	104	0	88	21820
2026-01-01 22:07:44.25	359.01	47.05	-61.5	-64.6	6.2	0.00e+00	0	42	104	0	88	21796
2026-01-01 22:07:45.25	358.62	46.61	-61.4	-64.6	6.2	0.00e+00	0	42	104	0	88	21618
2026-01-01 22:07:46.25	358.23	46.18	-61.5	-64.7	6.2	0.00e+00	0	42	104	0	88	21885
2026-01-01 22:07:47.25	357.86	45.75	-61.5	-64.6	6.2	0.00e+00	0	42	104	0	88	21839
2026-01-01 22:07:48.25	357.49	45.32	-61.5	-64.6	6.2	0.00e+00	0	42	104	0	88	21805
2026-01-01 22:07:49.24	357.14	44.90	-61.4	-64.6	6.2	0.00e+00	0	42	104	0	88	21624
2026-01-01 22:07:50.24	356.80	44.48	-61.5	-64.6	6.2	0.00e+00	0	42	104	0	88	21780
2026-01-01 22:07:51.24	356.46	44.07	-61.5	-64.6	6.2	0.00e+00	0	42	104	0	88	21776
2026-01-01 22:07:52.25	356.14	43.65	-61.5	-64.6	6.2	0.00e+00	0	42	104	0	88	21818
2026-01-01 22:07:53.24	355.82	43.25	-61.4	-64.6	6.2	0.00e+00	0	42	104	0	88	21631
2026-01-01 22:07:54.23	355.52	42.85	-61.5	-64.6	6.2	0.00e+00	0	42	104	0	88	21753
2026-01-01 22:07:55.23	355.22	42.45	-61.5	-64.6	6.2	0.00e+00	0	42	104	0	88	21775
2026-01-01 22:07:56.22	354.93	42.06	-61.5	-64.6	6.2	0.00e+00	0	42	104	0	88	21843
2026-01-01 22:07:57.22	354.64	41.67	-61.4	-64.5	6.2	0.00e+00	0	42	104	0	88	21569
2026-01-01 22:07:58.22	354.36	41.28	-61.4	-64.6	6.2	0.00e+00	0	42	104	0	88	21661
2026-01-01 22:07:59.22	354.09	40.89	-61.5	-64.6	6.2	0.00e+00	0	42	104	0	88	21785
2026-01-01 22:08:00.22	353.82	40.51	-61.4	-64.6	6.2	0.00e+00	0	42	104	0	88	21679
2026-01-01 22:08:01.22	353.57	40.14	-61.4	-64.5	6.2	0.00e+00	0	42	104	0	88	21526
2026-01-01 22:08:02.22	353.31	39.77	-61.4	-64.5	6.2	0.00e+00	0	42	104	0	88	21578
2026-01-01 22:08:03.22	353.07	39.40	-61.4	-64.6	6.2	0.00e+00	0	42	104	0	88	21705
2026-01-01 22:08:04.22	352.83	39.03	-61.4	-64.5	6.2	0.00e+00	0	42	104	0	88	21561
2026-01-01 22:08:05.21	352.59	38.68	-61.4	-64.5	6.2	0.00e+00	0	42	104	0	88	21528
2026-01-01 22:08:06.21	352.37	38.32	-61.4	-64.5	6.2	0.00e+00	0	42	104	0	88	21532
2026-01-01 22:08:07.21	352.14	37.97	-61.4	-64.6	6.2	0.00e+00	0	42	104	0	88	21627
2026-01-01 22:08:08.21	351.92	37.62	-61.4	-64.5	6.2	0.00e+00	0	42	104	0	88	21589
2026-01-01 22:08:09.20	351.71	37.27	-61.4	-64.5	6.2	0.00e+00	0	42	104	0	88	21535
2026-01-01 22:08:10.20	351.50	36.93	-61.4	-64.5	6.2	0.00e+00	0	42	104	0	88	21501
2026-01-01 22:08:11.20	351.30	36.59	-61.4	-64.5	6.2	0.00e+00	0	42	104	0	88	21576
2026-01-01 22:08:12.20	351.10	36.26	-61.4	-64.5	6.2	0.00e+00	0	42	104	0	88	21488
2026-01-01 22:08:13.19	350.90	35.93	-61.3	-64.5	6.2	0.00e+00	0	42	104	0	88	21467
2026-01-01 22:08:14.18	350.71	35.60	-61.3	-64.5	6.2	0.00e+00	0	42	104	0	88	21454
2026-01-01 22:08:15.19	350.52	35.28	-61.4	-64.5	6.2	0.00e+00	0	42	104	0	88	21475
2026-01-01 22:08:16.19	350.34	34.96	-61.3	-64.5	6.2	0.00e+00	0	42	104	0	88	21444
2026-01-01 22:08:17.18	350.16	34.64	-61.3	-64.4	6.2	0.00e+00	0	42	104	0	88	21284
2026-01-01 22:08:18.18	349.99	34.33	-61.3	-64.4	6.2	0.00e+00	0	42	104	0	88	21322
2026-01-01 22:08:19.18	349.81	34.02	-61.3	-64.4	6.2	0.00e+00	0	42	104	0	88	21326
2026-01-01 22:08:20.18	349.64	33.71	-61.3	-64.4	6.2	0.00e+00	0	42	104	0	88	21286
2026-01-01 22:08:21.18	349.48	33.40	-61.3	-64.4	6.2	0.00e+00	0	42	104	0	88	21187
2026-01-01 22:08:22.17	349.32	33.10	-61.3	-64.4	6.2	0.00e+00	0	42	104	0	88	21258
2026-01-01 22:08:23.17	349.16	32.81	-61.3	-64.4	6.2	0.00e+00	0	42	104	0	88	21320
2026-01-01 22:08:24.18	349.00	32.51	-61.3	-64.4	6.2	0.00e+00	0	42	104	0	88	21173
2026-01-01 22:08:25.18	348.85	32.22	-61.2	-64.4	6.2	0.00e+00	0	42	104	0	88	21154
2026-01-01 22:08:26.17	348.70	31.93	-61.2	-64.3	6.2	0.00e+00	0	42	104	0	88	21113
2026-01-01 22:08:27.17	348.55	31.65	-61.2	-64.4	6.2	0.00e+00	0	42	104	0	88	21148
2026-01-01 22:08:28.17	348.41	31.36	-61.2	-64.4	6.2	0.00e+00	0	42	104	0	88	21146
2026-01-01 22:08:29.16	348.27	31.09	-61.2	-64.3	6.2	0.00e+00	0	42	104	0	88	21028
2026-01-01 22:08:30.16	348.13	30.81	-61.2	-64.3	6.2	0.00e+00	0	42	104	0	88	20976
2026-01-01 22:08:31.16	348.00	30.54	-61.2	-64.3	6.2	0.00e+00	0	42	104	0	88	21114
2026-01-01 22:08:32.15	347.86	30.27	-61.2	-64.3	6.2	0.00e+00	0	42	104	0	88	21006
2026-01-01 22:08:33.15	347.73	30.00	-61.2	-64.3	6.2	0.00e+00	0	42	104	0	88	20998
2026-01-01 22:08:34.16	347.60	29.73	-61.1	-64.3	6.2	0.00e+00	0	42	104	0	88	20880
2026-01-01 22:08:35.15	347.48	29.47	-61.2	-64.3	6.2	0.00e+00	0	42	104	0	88	20969
2026-01-01 22:08:36.15	347.35	29.21	-61.1	-64.3	6.2	0.00e+00	0	42	104	0	88	20945
2026-01-01 22:08:37.15	347.23	28.95	-61.1	-64.3	6.2	0.00e+00	0	42	104	0	88	20876
2026-01-01 22:08:38.14	347.11	28.70	-61.1	-64.2	6.2	0.00e+00	0	42	104	0	88	20828
2026-01-01 22:08:39.14	346.99	28.45	-61.1	-64.3	6.2	0.00e+00	0	42	104	0	88	20952
2026-01-01 22:08:40.14	346.88	28.20	-61.1	-64.2	6.2	0.00e+00	0	42	104	0	88	20868
2026-01-01 22:08:41.14	346.77	27.95	-61.1	-64.2	6.2	0.00e+00	0	42	104	0	88	20827
2026-01-01 22:08:42.14	346.65	27.71	-61.0	-64.2	6.2	0.00e+00	0	42	104	0	88	20716
2026-01-01 22:08:43.14	346.54	27.47	-61.1	-64.2	6.2	0.00e+00	0	42	104	0	88	20867
2026-01-01 22:08:44.13	346.44	27.23	-61.0	-64.2	6.2	0.00e+00	0	42	104	0	88	20707
2026-01-01 22:08:45.13	346.33	26.99	-61.0	-64.2	6.2	0.00e+00	0	42	104	0	88	20708
2026-01-01 22:08:46.14	346.22	26.75	-61.0	-64.2	6.2	0.00e+00	0	42	104	0	88	20664
2026-01-01 22:08:47.13	346.12	26.52	-61.0	-64.2	6.2	0.00e+00	0	42	104	0	88	20668
2026-01-01 22:08:48.13	346.02	26.29	-61.0	-64.2	6.2	0.00e+00	0	42	104	0	88	20694
2026-01-01 22:08:49.14	345.92	26.06	-61.0	-64.1	6.2	0.00e+00	0	42	104	0	88	20622
2026-01-01 22:08:50.14	345.82	25.84	-61.0	-64.1	6.2	0.00e+00	0	42	104	0	88	20529
2026-01-01 22:08:51.14	345.73	25.61	-61.0	-64.1	6.2	0.00e+00	0	42	104	0	88	20603
2026-01-01 22:08:52.14	345.63	25.39	-61.0	-64.1	6.2	0.00e+00	0	42	104	0	88	20589
2026-01-01 22:08:53.14	345.54	25.17	-61.0	-64.1	6.2	0.00e+00	0	42	104	0	88	20521
2026-01-01 22:08:54.15	345.45	24.95	-60.9	-64.1	6.2	0.00e+00	0	42	104	0	88	20438
2026-01-01 22:08:55.14	345.36	24.74	-61.0	-64.1	6.2	0.00e+00	0	42	104	0	88	20525
2026-01-01 22:08:56.13	345.27	24.53	-61.0	-64.1	6.2	0.00e+00	0	42	104	0	88	20547
2026-01-01 22:08:57.14	345.18	24.31	-61.0	-64.1	6.2	0.00e+00	0	42	104	0	88	20501
2026-01-01 22:08:58.13	345.10	24.11	-60.9	-64.0	6.2	0.00e+00	0	42	104	0	88	20318
2026-01-01 22:08:59.13	345.01	23.90	-60.9	-64.1	6.2	0.00e+00	0	42	104	0	88	20475
2026-01-01 22:09:00.13	344.93	23.69	-60.9	-64.1	6.2	0.00e+00	0	42	104	0	88	20440
2026-01-01 22:09:01.12	344.85	23.49	-60.9	-64.0	6.2	0.00e+00	0	42	104	0	88	20396
2026-01-01 22:09:02.12	344.77	23.29	-60.9	-64.0	6.2	0.00e+00	0	42	104	0	88	20335
2026-01-01 22:09:03.12	344.69	23.09	-60.9	-64.1	6.2	0.00e+00	0	42	104	0	88	20465
2026-01-01 22:09:04.12	344.61	22.89	-60.9	-64.0	6.2	0.00e+00	0	42	104	0	88	20248
2026-01-01 22:09:05.13	344.53	22.70	-60.9	-64.0	6.2	0.00e+00	0	42	104	0	88	20277
2026-01-01 22:09:06.12	344.45	22.50	-60.8	-64.0	6.2	0.00e+00	0	42	104	0	88	20263
2026-01-01 22:09:07.12	344.38	22.31	-60.9	-64.0	6.2	0.00e+00	0	42	104	0	88	20285
2026-01-01 22:09:08.12	344.30	22.12	-60.9	-64.0	6.2	0.00e+00	0	42	104	0	88	20229
2026-01-01 22:09:09.12	344.23	21.93	-60.9	-64.0	6.2	0.00e+00	0	42	104	0	88	20328
2026-01-01 22:09:10.12	344.16	21.74	-60.8	-64.0	6.2	0.00e+00	0	42	104	0	88	20176
2026-01-01 22:09:11.11	344.09	21.56	-60.8	-64.0	6.2	0.00e+00	0	42	104	0	88	20193
2026-01-01 22:09:12.11	344.02	21.37	-60.8	-63.9	6.2	0.00e+00	0	42	104	0	88	20157
2026-01-01 22:09:13.11	343.95	21.19	-60.8	-63.9	6.2	0.00e+00	0	42	104	0	88	20144
2026-01-01 22:09:14.10	343.88	21.01	-60.8	-63.9	6.2	0.00e+00	0	42	104	0	88	19982
2026-01-01 22:09:15.10	343.81	20.83	-60.8	-63.9	6.2	0.00e+00	0	42	104	0	88	20134
2026-01-01 22:09:16.09	343.75	20.66	-60.8	-63.9	6.2	0.00e+00	0	42	104	0	88	20065
2026-01-01 22:09:17.10	343.68	20.48	-60.8	-63.9	6.2	0.00e+00	0	42	104	0	88	20065
2026-01-01 22:09:18.10	343.62	20.30	-60.7	-63.8	6.2	0.00e+00	0	42	104	0	88	19925
2026-01-01 22:09:19.10	343.56	20.13	-60.8	-63.9	6.2	0.00e+00	0	42	104	0	88	20130
2026-01-01 22:09:20.09	343.49	19.96	-60.7	-63.9	6.2	0.00e+00	0	42	104	0	88	20029
2026-01-01 22:09:21.10	343.43	19.79	-60.8	-63.9	6.2	0.00e+00	0	42	104	0	88	20020
2026-01-01 22:09:22.10	343.37	19.62	-60.7	-63.8	6.2	0.00e+00	0	42	104	0	88	19928
2026-01-01 22:09:23.10	343.31	19.45	-60.7	-63.9	6.2	0.00e+00	0	42	104	0	88	19974
2026-01-01 22:09:24.10	343.25	19.28	-60.7	-63.8	6.2	0.00e+00	0	42	104	0	88	19924
2026-01-01 22:09:25.11	343.19	19.12	-60.7	-63.8	6.2	0.00e+00	0	42	104	0	88	19933
2026-01-01 22:09:26.10	343.13	18.95	-60.7	-63.8	6.2	0.00e+00	0	42	104	0	88	19810
2026-01-01 22:09:27.11	343.08	18.79	-60.7	-63.9	6.2	0.00e+00	0	42	104	0	88	19977
2026-01-01 22:09:28.11	343.02	18.63	-60.7	-63.8	6.2	0.00e+00	0	42	104	0	88	19862
2026-01-01 22:09:29.10	342.96	18.47	-60.7	-63.8	6.2	0.00e+00	0	42	104	0	88	19856
2026-01-01 22:09:30.10	342.91	18.31	-60.6	-63.8	6.2	0.00e+00	0	42	104	0	88	19750
2026-01-01 22:09:31.10	342.85	18.15	-60.7	-63.8	6.2	0.00e+00	0	42	104	0	88	19829
2026-01-01 22:09:32.10	342.80	18.00	-60.7	-63.8	6.2	0.00e+00	0	42	104	0	88	19844
2026-01-01 22:09:33.10	342.75	17.84	-60.7	-63.8	6.2	0.00e+00	0	42	104	0	88	19754
2026-01-01 22:09:34.10	342.70	17.69	-60.6	-63.8	6.2	0.00e+00	0	42	104	0	88	19775
2026-01-01 22:09:35.10	342.64	17.54	-60.6	-63.8	6.2	0.00e+00	0	42	104	0	87	20946
2026-01-01 22:09:36.09	342.59	17.39	-60.6	-63.7	6.2	0.00e+00	0	42	104	0	87	20867
2026-01-01 22:09:37.10	342.54	17.23	-60.6	-63.8	6.2	0.00e+00	0	42	104	0	87	20907
2026-01-01 22:09:38.10	342.49	17.09	-60.6	-63.7	6.2	0.00e+00	0	42	104	0	87	20816
2026-01-01 22:09:39.09	342.44	16.94	-60.6	-63.8	6.2	0.00e+00	0	42	104	0	87	20901
2026-01-01 22:09:40.09	342.40	16.79	-60.6	-63.7	6.2	0.00e+00	0	42	104	0	87	20749
2026-01-01 22:09:41.09	342.35	16.65	-60.6	-63.7	6.2	0.00e+00	0	42	104	0	87	20805
2026-01-01 22:09:42.08	342.30	16.50	-60.6	-63.7	6.2	0.00e+00	0	42	104	0	87	20686
2026-01-01 22:09:43.08	342.25	16.36	-60.6	-63.7	6.2	0.00e+00	0	42	104	0	87	20748
2026-01-01 22:09:44.08	342.21	16.22	-60.5	-63.7	6.2	0.00e+00	0	42	104	0	87	20710
2026-01-01 22:09:45.08	342.16	16.08	-60.5	-63.7	6.2	0.00e+00	0	42	104	0	87	20772
2026-01-01 22:09:46.08	342.12	15.93	-60.5	-63.7	6.2	0.00e+00	0	42	104	0	87	20705
2026-01-01 22:09:47.08	342.07	15.79	-60.5	-63.7	6.2	0.00e+00	0	42	104	0	87	20726
2026-01-01 22:09:48.08	342.03	15.66	-60.5	-63.6	6.2	0.00e+00	0	42	104	0	87	20583
2026-01-01 22:09:49.08	341.99	15.52	-60.5	-63.6	6.2	0.00e+00	0	42	104	0	87	20631
2026-01-01 22:09:50.08	341.94	15.38	-60.5	-63.6	6.2	0.00e+00	0	42	104	0	87	20582
2026-01-01 22:09:51.08	341.90	15.25	-60.5	-63.6	6.2	0.00e+00	0	42	104	0	87	20597
2026-01-01 22:09:52.08	341.86	15.11	-60.5	-63.6	6.2	0.00e+00	0	42	104	0	87	20530
2026-01-01 22:09:53.08	341.82	14.98	-60.5	-63.6	6.2	0.00e+00	0	42	104	0	87	20525
2026-01-01 22:09:54.08	341.78	14.85	-60.4	-63.6	6.2	0.00e+00	0	42	104	0	87	20509
2026-01-01 22:09:55.08	341.73	14.71	-60.5	-63.6	6.2	0.00e+00	0	42	104	0	87	20526
2026-01-01 22:09:56.07	341.69	14.58	-60.4	-63.6	6.2	0.00e+00	0	42	104	0	87	20447
2026-01-01 22:09:57.07	341.66	14.45	-60.4	-63.6	6.2	0.00e+00	0	42	104	0	87	20442
2026-01-01 22:09:58.07	341.62	14.32	-60.4	-63.5	6.2	0.00e+00	0	42	104	0	87	20327
2026-01-01 22:09:59.06	341.58	14.20	-60.4	-63.6	6.2	0.00e+00	0	42	104	0	87	20415
2026-01-01 22:10:00.05	341.54	14.07	-60.4	-63.6	6.2	0.00e+00	0	42	104	0	87	20418
2026-01-01 22:10:01.05	341.50	13.94	-60.4	-63.6	6.2	0.00e+00	0	42	104	0	87	20423
2026-01-01 22:10:02.05	341.46	13.82	-60.4	-63.5	6.2	0.00e+00	0	42	104	0	87	20354
2026-01-01 22:10:03.05	341.43	13.69	-60.4	-63.5	6.2	0.00e+00	0	42	104	0	87	20356
2026-01-01 22:10:04.04	341.39	13.57	-60.4	-63.5	6.2	0.00e+00	0	42	104	0	87	20288
2026-01-01 22:10:05.05	341.35	13.44	-60.4	-63.5	6.2	0.00e+00	0	42	104	0	87	20371
2026-01-01 22:10:06.06	341.32	13.32	-60.4	-63.5	6.2	0.00e+00	0	42	104	0	87	20258
2026-01-01 22:10:07.05	341.28	13.20	-60.4	-63.5	6.2	0.00e+00	0	42	104	0	87	20228
2026-01-01 22:10:08.05	341.25	13.08	-60.3	-63.5	6.2	0.00e+00	0	42	104	0	87	20242
2026-01-01 22:10:09.04	341.21	12.96	-60.4	-63.5	6.2	0.00e+00	0	42	104	0	87	20324
2026-01-01 22:10:10.05	341.18	12.84	-60.3	-63.5	6.2	0.00e+00	0	42	104	0	87	20177
2026-01-01 22:10:11.05	341.14	12.72	-60.3	-63.4	6.2	0.00e+00	0	42	104	0	87	20123
2026-01-01 22:10:12.05	341.11	12.60	-60.3	-63.4	6.2	0.00e+00	0	42	104	0	87	20136
2026-01-01 22:10:13.04	341.08	12.49	-60.3	-63.5	6.2	0.00e+00	0	42	104	0	87	20213
2026-01-01 22:10:14.04	341.04	12.37	-60.3	-63.4	6.2	0.00e+00	0	42	104	0	87	20035
2026-01-01 22:10:15.04	341.01	12.25	-60.3	-63.4	6.2	0.00e+00	0	42	104	0	86	21256
2026-01-01 22:10:16.04	340.98	12.14	-60.3	-63.4	6.2	0.00e+00	0	42	104	0	86	21227
2026-01-01 22:10:17.04	340.95	12.02	-60.3	-63.5	6.2	0.00e+00	0	42	104	0	86	21404
2026-01-01 22:10:18.04	340.92	11.91	-60.3	-63.4	6.2	0.00e+00	0	42	104	0	86	21259
2026-01-01 22:10:19.04	340.88	11.80	-60.3	-63.4	6.2	0.00e+00	0	42	104	0	86	21193
2026-01-01 22:10:20.03	340.85	11.68	-60.2	-63.4	6.2	0.00e+00	0	42	104	0	86	21174
2026-01-01 22:10:21.03	340.82	11.57	-60.3	-63.4	6.2	0.00e+00	0	42	104	0	86	21311
2026-01-01 22:10:22.03	340.79	11.46	-60.2	-63.3	6.2	0.00e+00	0	42	104	0	86	21114
2026-01-01 22:10:23.02	340.76	11.35	-60.2	-63.4	6.2	0.00e+00	0	42	104	0	86	21117
2026-01-01 22:10:24.02	340.73	11.24	-60.2	-63.3	6.2	0.00e+00	0	42	104	0	86	21113
2026-01-01 22:10:25.02	340.70	11.13	-60.2	-63.4	6.2	0.00e+00	0	42	104	0	86	21217
2026-01-01 22:10:26.02	340.67	11.02	-60.2	-63.3	6.2	0.00e+00	0	42	104	0	86	21065
2026-01-01 22:10:27.02	340.65	10.92	-60.2	-63.3	6.2	0.00e+00	0	42	104	0	86	21090
2026-01-01 22:10:28.03	340.62	10.81	-60.2	-63.3	6.2	0.00e+00	0	42	104	0	86	21060
2026-01-01 22:10:29.03	340.59	10.70	-60.2	-63.4	6.2	0.00e+00	0	42	104	0	86	21160
2026-01-01 22:10:30.03	340.56	10.59	-60.2	-63.3	6.2	0.00e+00	0	42	104	0	86	21014
2026-01-01 22:10:31.03	340.53	10.49	-60.2	-63.3	6.2	0.00e+00	0	42	104	0	86	20970
2026-01-01 22:10:32.03	340.51	10.38	-60.1	-63.3	6.2	0.00e+00	0	42	104	0	86	20927
2026-01-01 22:10:33.03	340.48	10.28	-60.2	-63.3	6.2	0.00e+00	0	42	104	0	86	20958
2026-01-01 22:10:34.03	340.45	10.18	-60.1	-63.3	6.2	0.00e+00	0	42	104	0	86	20942
2026-01-01 22:10:35.04	340.43	10.07	-60.1	-63.2	6.2	0.00e+00	0	42	104	0	86	20802
2026-01-01 22:10:36.03	340.40	9.97	-60.1	-63.2	6.2	0.00e+00	0	42	104	0	86	20739
2026-01-01 22:10:37.03	340.37	9.87	-60.1	-63.3	6.2	0.00e+00	0	42	104	0	86	20943
2026-01-01 22:10:38.04	340.35	9.76	-60.1	-63.2	6.2	0.00e+00	0	42	104	0	86	20849
2026-01-01 22:10:39.03	340.32	9.66	-60.1	-63.2	6.2	0.00e+00	0	42	104	0	86	20817
2026-01-01 22:10:40.03	340.30	9.56	-60.0	-63.2	6.2	0.00e+00	0	42	104	0	86	20733
2026-01-01 22:10:41.03	340.27	9.46	-60.1	-63.2	6.2	0.00e+00	0	42	104	0	86	20846
2026-01-01 22:10:42.03	340.25	9.36	-60.1	-63.2	6.2	0.00e+00	0	42	104	0	86	20762
2026-01-01 22:10:43.03	340.22	9.26	-60.0	-63.2	6.2	0.00e+00	0	42	104	0	86	20692
2026-01-01 22:10:44.03	340.20	9.17	-60.0	-63.1	6.2	0.00e+00	0	42	104	0	86	20583
2026-01-01 22:10:45.03	340.17	9.07	-60.1	-63.2	6.2	0.00e+00	0	42	104	0	86	20777
2026-01-01 22:10:46.03	340.15	8.97	-60.0	-63.2	6.2	0.00e+00	0	42	104	0	86	20735
2026-01-01 22:10:47.03	340.13	8.87	-60.0	-63.1	6.2	0.00e+00	0	42	104	0	86	20589
2026-01-01 22:10:48.04	340.10	8.78	-60.0	-63.1	6.2	0.00e+00	0	42	104	0	86	20469
2026-01-01 22:10:49.04	340.08	8.68	-60.0	-63.2	6.2	0.00e+00	0	42	104	0	86	20707
2026-01-01 22:10:50.04	340.06	8.58	-60.0	-63.1	6.2	0.00e+00	0	42	104	0	86	20595
2026-01-01 22:10:51.05	340.03	8.49	-60.0	-63.1	6.2	0.00e+00	0	42	104	0	86	20461
2026-01-01 22:10:52.04	340.01	8.39	-59.9	-63.0	6.2	0.00e+00	0	42	104	0	86	20352
2026-01-01 22:10:53.04	339.99	8.30	-60.0	-63.2	6.2	0.00e+00	0	42	104	0	86	20685
2026-01-01 22:10:54.04	339.97	8.21	-59.9	-63.1	6.2	0.00e+00	0	42	104	0	86	20531
2026-01-01 22:10:55.04	339.94	8.11	-59.9	-63.0	6.2	0.00e+00	0	42	104	0	86	20384
2026-01-01 22:10:56.05	339.92	8.02	-59.8	-63.0	6.2	0.00e+00	0	42	104	0	86	20188
2026-01-01 22:10:57.05	339.90	7.93	-59.9	-63.1	6.2	0.00e+00	0	42	104	0	86	20429
2026-01-01 22:10:58.05	339.88	7.83	-59.9	-63.0	6.2	0.00e+00	0	42	104	0	86	20393
2026-01-01 22:10:59.05	339.86	7.74	-59.8	-63.0	6.2	0.00e+00	0	42	104	0	85	21418
2026-01-01 22:11:00.04	339.84	7.65	-59.8	-63.0	6.2	0.00e+00	0	42	104	0	85	21359
2026-01-01 22:11:01.04	339.82	7.56	-59.7	-63.0	6.2	0.00e+00	0	42	104	0	85	21566
2026-01-01 22:11:02.03	339.80	7.47	-59.8	-63.0	6.2	0.00e+00	0	42	104	0	85	21378
2026-01-01 22:11:03.03	339.78	7.38	-59.8	-62.9	6.2	0.00e+00	0	42	104	0	85	21318
2026-01-01 22:11:04.02	339.76	7.29	-59.8	-62.9	6.2	0.00e+00	0	42	104	0	84	22460
2026-01-01 22:11:05.03	339.74	7.20	-59.9	-63.0	6.2	0.00e+00	0	42	104	0	85	21564
2026-01-01 22:11:06.02	339.72	7.12	-59.8	-62.9	6.2	0.00e+00	0	42	104	0	85	21325
2026-01-01 22:11:07.01	339.70	7.03	-59.8	-62.9	6.2	0.00e+00	0	42	104	0	85	21176
2026-01-01 22:11:08.01	339.68	6.94	-59.7	-62.8	6.2	0.00e+00	0	42	104	0	85	21094
2026-01-01 22:11:09.00	339.66	6.85	-59.8	-63.0	6.2	0.00e+00	0	42	104	0	85	21385
2026-01-01 22:11:09.99	339.64	6.77	-59.8	-62.9	6.2	0.00e+00	0	42	104	0	85	21229
2026-01-01 22:11:10.99	339.62	6.68	-59.7	-62.9	6.2	0.00e+00	0	42	104	0	85	21132
2026-01-01 22:11:11.97	339.60	6.60	-59.7	-62.8	6.2	0.00e+00	0	42	104	0	85	20909
2026-01-01 22:11:12.97	339.58	6.51	-59.8	-62.9	6.2	0.00e+00	0	42	104	0	85	21303
2026-01-01 22:11:13.97	339.56	6.42	-59.7	-62.8	6.2	0.00e+00	0	42	104	0	85	21016
2026-01-01 22:11:14.97	339.55	6.34	-59.7	-62.8	6.2	0.00e+00	0	42	104	0	85	20999
2026-01-01 22:11:15.97	339.53	6.25	-59.6	-62.7	6.2	0.00e+00	0	42	104	0	84	22105
2026-01-01 22:11:16.97	339.51	6.17	-59.8	-62.9	6.2	0.00e+00	0	42	104	0	84	22484
2026-01-01 22:11:17.96	339.49	6.09	-59.7	-62.8	6.2	0.00e+00	0	42	104	0	84	22181
2026-01-01 22:11:18.96	339.48	6.00	-59.6	-62.8	6.2	0.00e+00	0	42	104	0	84	22110
2026-01-01 22:11:19.96	339.46	5.92	-59.6	-62.7	6.2	0.00e+00	0	42	104	0	84	21930
2026-01-01 22:11:20.96	339.44	5.84	-59.7	-62.9	6.2	0.00e+00	0	43	104	0	84	22393
2026-01-01 22:11:21.96	339.42	5.75	-59.6	-62.8	6.2	0.00e+00	0	42	104	0	84	22143
2026-01-01 22:11:22.97	339.41	5.67	-59.6	-62.7	6.2	0.00e+00	0	42	104	0	84	21972
2026-01-01 22:11:23.97	339.39	5.59	-59.5	-62.7	6.2	0.00e+00	0	42	104	0	84	21867
2026-01-01 22:11:24.97	339.37	5.51	-59.7	-62.9	6.2	0.00e+00	0	42	104	0	84	22371
2026-01-01 22:11:25.97	339.36	5.42	-59.6	-62.7	6.2	0.00e+00	0	42	104	0	84	22045
2026-01-01 22:11:26.97	339.34	5.34	-59.5	-62.6	6.2	0.00e+00	0	42	104	0	84	21825
2026-01-01 22:11:27.96	339.32	5.26	-59.5	-62.6	6.2	0.00e+00	0	42	104	0	84	21711
2026-01-01 22:11:28.96	339.31	5.18	-59.6	-62.8	6.2	0.00e+00	0	42	104	0	84	22150
2026-01-01 22:11:29.96	339.29	5.10	-59.5	-62.7	6.2	0.00e+00	0	42	104	0	84	21871
2026-01-01 22:11:30.96	339.28	5.02	-59.5	-62.6	6.2	0.00e+00	0	42	104	0	84	21698
2026-01-01 22:11:31.96	339.26	4.94	-59.7	-62.8	6.2	0.00e+00	0	42	104	0	84	22344
2026-01-01 22:11:32.96	339.24	4.86	-60.3	-63.4	6.2	0.00e+00	0	42	104	0	85	22448
2026-01-01 22:11:33.97	339.23	4.78	-60.7	-63.8	6.2	0.00e+00	0	42	104	0	86	22284
2026-01-01 22:11:34.96	339.21	4.71	-61.0	-64.1	6.2	0.00e+00	0	42	104	0	87	21833
2026-01-01 22:11:35.96	339.20	4.63	-61.2	-64.3	6.2	0.00e+00	0	42	104	0	87	22342
2026-01-01 22:11:36.96	339.18	4.55	-61.4	-64.5	6.2	0.00e+00	0	42	104	0	88	21520
2026-01-01 22:11:37.97	339.17	4.47	-61.5	-64.7	6.2	0.00e+00	0	42	104	0	88	21895
2026-01-01 22:11:38.97	339.15	4.39	-61.7	-64.8	6.2	0.00e+00	0	42	104	0	88	22282
2026-01-01 22:11:39.97	339.14	4.32	-61.8	-64.9	6.2	0.00e+00	0	42	104	0	88	22623
2026-01-01 22:11:40.97	339.12	4.24	-61.9	-65.0	6.2	0.00e+00	0	42	104	0	89	21572
2026-01-01 22:11:41.98	339.11	4.16	-61.9	-65.1	6.2	0.00e+00	0	42	104	0	89	21716
2026-01-01 22:11:42.98	339.09	4.09	-62.0	-65.1	6.2	0.00e+00	0	42	104	0	89	21804
2026-01-01 22:11:43.99	339.08	4.01	-62.0	-65.2	6.2	0.00e+00	0	42	104	0	89	21958
2026-01-01 22:11:44.99	339.07	3.93	-62.1	-65.2	6.2	0.00e+00	0	42	104	0	89	22001
2026-01-01 22:11:46.00	339.05	3.86	-62.1	-65.2	6.2	0.00e+00	0	42	104	0	89	22109
2026-01-01 22:11:47.00	339.04	3.78	-62.1	-65.3	6.2	0.00e+00	0	42	104	0	89	22261
2026-01-01 22:11:48.00	339.02	3.71	-62.2	-65.4	6.2	0.00e+00	0	42	104	0	89	22396
2026-01-01 22:11:48.99	339.01	3.63	-62.2	-65.4	6.2	0.00e+00	0	42	104	0	89	22402
2026-01-01 22:11:49.99	339.00	3.56	-62.2	-65.4	6.2	0.00e+00	0	42	104	0	89	22403
2026-01-01 22:11:50.98	338.98	3.49	-62.2	-65.4	6.2	0.00e+00	0	42	104	0	89	22417
2026-01-01 22:11:51.98	338.97	3.41	-62.2	-65.4	6.2	0.00e+00	0	42	104	0	89	22502
2026-01-01 22:11:52.98	338.96	3.34	-62.2	-65.4	6.2	0.00e+00	0	42	104	0	89	22530
2026-01-01 22:11:53.98	338.94	3.26	-62.2	-65.4	6.2	0.00e+00	0	43	104	0	89	22532
2026-01-01 22:11:54.98	338.93	3.19	-62.2	-65.3	6.2	0.00e+00	0	42	104	0	89	22310
2026-01-01 22:11:55.98	338.92	3.12	-62.2	-65.3	6.2	0.00e+00	0	42	104	0	89	22170
2026-01-01 22:11:56.98	338.91	3.05	-62.2	-65.3	6.2	0.00e+00	0	42	104	0	89	22199
2026-01-01 22:11:57.98	338.89	2.97	-62.1	-65.3	6.2	0.00e+00	0	42	104	0	89	22196
2026-01-01 22:11:58.98	338.88	2.90	-62.1	-65.3	6.2	0.00e+00	0	42	104	0	89	22192
2026-01-01 22:11:59.98	338.87	2.83	-62.1	-65.2	6.2	0.00e+00	0	42	104	0	89	22063
2026-01-01 22:12:00.97	338.86	2.76	-62.1	-65.3	6.2	0.00e+00	0	42	104	0	89	22136
2026-01-01 22:12:01.97	338.84	2.69	-62.1	-65.2	6.2	0.00e+00	0	42	104	0	89	22038
2026-01-01 22:12:02.97	338.83	2.62	-62.1	-65.2	6.2	0.00e+00	0	42	104	0	89	21988
2026-01-01 22:12:03.96	338.82	2.55	-62.0	-65.2	6.2	0.00e+00	0	42	104	0	89	21934
2026-01-01 22:12:04.97	338.81	2.47	-62.0	-65.2	6.2	0.00e+00	0	42	104	0	89	21939
2026-01-01 22:12:05.97	338.80	2.40	-62.0	-65.2	6.2	0.00e+00	0	42	104	0	89	21947
2026-01-01 22:12:06.96	338.78	2.33	-62.0	-65.2	6.2	0.00e+00	0	42	104	0	89	21946
2026-01-01 22:12:07.96	338.77	2.26	-62.0	-65.2	6.2	0.00e+00	0	42	104	0	89	21876
2026-01-01 22:12:08.96	338.76	2.19	-62.0	-65.1	6.2	0.00e+00	0	42	104	0	89	21850
2026-01-01 22:12:09.96	338.75	2.12	-62.0	-65.1	6.2	0.00e+00	0	42	104	0	89	21837
2026-01-01 22:12:10.95	338.74	2.06	-62.0	-65.1	6.2	0.00e+00	0	42	104	0	89	21850
2026-01-01 22:12:11.95	338.73	1.99	-62.0	-65.1	6.2	0.00e+00	0	42	104	0	89	21831

#Closed at: 2026-01-01 22:12:12
#Recorded file [0 MB]: D:/lorett/data/31004_260102_010128.dat