passes_logs/2026/01/01/R3.2S_Murmansk/R3.2S_Murmansk__20260101_041413_NOAA_20_JPSS-1_rec.log

#Pass ID: 20260101_041413_NOAA 20 (JPSS-1)
#Satellite: NOAA 20 (JPSS-1)
#Configuration: NOAA 20
#almurnet v.1.7.20251203
#Start time: 2026-01-01 04:14:13

#Version: 2.2.20231116
#Station: R3.2S_Murmansk
#Location: 33.079688 lon 68.888172 lat
#TLE: 1 43013U 17073A   25365.59858899  .00000178  00000+0  10524-3 0  9991
#TLE: 2 43013  98.7620 301.6911 0001952  60.2533 299.8837 14.19531732420695

#Time	Az	El	Level	Level2	SNR	BER	BlckErr	Temp	State	Recorded	gain1	gain2
2026-01-01 04:14:13.39	49.86	1.97	-59.6	-75.6	3.8	1.49e+00	0	32	0	0	85	22632
2026-01-01 04:14:14.39	49.80	2.03	-59.6	-75.6	3.8	1.49e+00	0	32	104	0	84	24024
2026-01-01 04:14:15.39	49.74	2.09	-59.6	-75.6	3.8	1.49e+00	0	32	104	0	84	24041
2026-01-01 04:14:16.39	49.67	2.14	-59.6	-75.6	3.8	1.49e+00	0	32	104	0	84	24009
2026-01-01 04:14:17.39	49.61	2.20	-59.6	-75.6	3.8	1.49e+00	0	32	104	0	84	23996
2026-01-01 04:14:18.39	49.55	2.26	-59.6	-75.6	3.8	1.49e+00	0	32	104	0	84	24022
2026-01-01 04:14:19.39	49.49	2.32	-59.6	-75.6	3.8	1.49e+00	0	32	104	0	84	24010
2026-01-01 04:14:20.39	49.43	2.37	-59.6	-75.6	3.8	1.49e+00	0	32	104	0	84	23978
2026-01-01 04:14:21.40	49.36	2.43	-59.6	-75.6	3.8	1.49e+00	0	32	104	0	84	23998
2026-01-01 04:14:22.39	49.30	2.49	-59.6	-75.6	3.8	1.49e+00	0	32	104	0	84	23981
2026-01-01 04:14:23.39	49.24	2.55	-59.6	-75.6	3.8	1.49e+00	0	32	104	0	84	23936
2026-01-01 04:14:24.39	49.18	2.61	-59.6	-75.6	3.8	1.49e+00	0	32	104	0	84	23982
2026-01-01 04:14:25.39	49.11	2.66	-59.6	-75.6	3.8	1.49e+00	0	32	104	0	84	24004
2026-01-01 04:14:26.39	49.05	2.72	-59.6	-75.6	3.8	1.49e+00	0	32	104	0	84	24003
2026-01-01 04:14:27.39	48.98	2.78	-59.6	-75.6	3.8	1.49e+00	0	32	104	0	84	23923
2026-01-01 04:14:28.39	48.92	2.84	-59.6	-75.6	3.8	1.49e+00	0	32	104	0	84	23996
2026-01-01 04:14:29.38	48.86	2.90	-59.6	-75.6	3.8	1.49e+00	0	32	104	0	84	23978
2026-01-01 04:14:30.37	48.79	2.95	-59.6	-75.6	3.8	1.49e+00	0	32	104	0	84	24008
2026-01-01 04:14:31.37	48.73	3.01	-59.6	-75.6	3.8	1.49e+00	0	32	104	0	84	24029
2026-01-01 04:14:32.37	48.66	3.07	-59.6	-75.6	3.8	1.49e+00	0	32	104	0	84	24047
2026-01-01 04:14:33.38	48.59	3.13	-59.6	-75.6	3.8	1.49e+00	0	32	104	0	84	24021
2026-01-01 04:14:34.37	48.53	3.19	-59.6	-75.6	3.8	1.49e+00	0	32	104	0	84	23991
2026-01-01 04:14:35.37	48.46	3.25	-59.6	-75.6	3.8	1.49e+00	0	32	104	0	84	23998
2026-01-01 04:14:36.37	48.40	3.31	-59.7	-75.6	3.8	1.49e+00	0	32	104	0	84	23921
2026-01-01 04:14:37.37	48.33	3.37	-59.6	-75.6	3.8	1.49e+00	0	32	104	0	84	23862
2026-01-01 04:14:38.37	48.26	3.43	-59.6	-75.6	3.8	1.49e+00	0	32	104	0	84	23856
2026-01-01 04:14:39.37	48.20	3.49	-59.6	-75.6	3.8	1.49e+00	0	32	104	0	84	23862
2026-01-01 04:14:40.37	48.13	3.55	-59.6	-75.6	3.8	1.49e+00	0	32	104	0	84	23985
2026-01-01 04:14:41.37	48.06	3.61	-59.7	-75.6	3.8	1.49e+00	0	33	104	0	84	24021
2026-01-01 04:14:42.38	47.99	3.67	-59.7	-75.6	3.8	1.49e+00	0	32	104	0	84	24128
2026-01-01 04:14:43.37	47.92	3.73	-59.6	-75.6	3.8	1.49e+00	0	33	104	0	84	24067
2026-01-01 04:14:44.37	47.85	3.79	-59.7	-75.6	3.8	1.49e+00	0	33	104	0	84	23961
2026-01-01 04:14:45.36	47.79	3.84	-59.7	-75.6	3.8	1.49e+00	0	32	104	0	84	23955
2026-01-01 04:14:46.37	47.72	3.91	-59.7	-75.6	3.8	1.49e+00	0	32	104	0	84	23934
2026-01-01 04:14:47.37	47.65	3.97	-59.6	-75.6	3.8	1.49e+00	0	32	104	0	84	23950
2026-01-01 04:14:48.36	47.58	4.02	-59.7	-75.6	3.8	1.49e+00	0	33	104	0	84	24084
2026-01-01 04:14:49.36	47.51	4.09	-59.6	-75.6	3.8	1.49e+00	0	33	104	0	84	24039
2026-01-01 04:14:50.36	47.44	4.15	-59.7	-75.5	3.8	1.49e+00	0	33	104	0	84	23790
2026-01-01 04:14:51.36	47.36	4.21	-59.6	-75.3	3.8	1.49e+00	0	33	104	0	84	23166
2026-01-01 04:14:52.36	47.29	4.27	-59.6	-75.0	3.8	1.49e+00	0	33	104	0	84	22289
2026-01-01 04:14:53.35	47.22	4.33	-59.6	-74.6	3.8	1.49e+00	0	33	104	0	84	21342
2026-01-01 04:14:54.34	47.15	4.39	-59.6	-74.1	3.8	1.49e+00	0	33	104	0	84	20183
2026-01-01 04:14:55.34	47.08	4.45	-59.6	-73.7	3.8	1.49e+00	0	33	104	0	84	19196
2026-01-01 04:14:56.33	47.01	4.51	-59.5	-73.0	4.0	1.48e+00	0	33	104	0	84	17840
2026-01-01 04:14:57.33	46.93	4.57	-59.5	-72.4	4.1	1.46e+00	0	33	0	0	84	16669
2026-01-01 04:14:58.33	46.86	4.63	-59.4	-71.5	4.4	1.36e+00	90	33	0	0	84	14948
2026-01-01 04:14:59.33	46.79	4.69	-59.4	-70.5	4.7	1.02e+00	0	33	0	2097152	84	13393
2026-01-01 04:15:00.33	46.71	4.75	-59.2	-69.2	5.4	5.80e-01	0	33	0	3145728	84	11508
2026-01-01 04:15:01.32	46.64	4.81	-59.1	-68.0	6.2	3.21e-01	0	33	0	5242880	84	10037
2026-01-01 04:15:02.31	46.57	4.88	-58.9	-67.1	6.9	1.91e-01	0	33	0	7340032	84	9062
2026-01-01 04:15:03.31	46.49	4.94	-58.8	-66.4	7.6	1.04e-01	0	33	0	9437184	84	8332
2026-01-01 04:15:04.30	46.42	5.00	-58.7	-66.1	7.9	5.69e-02	0	33	0	11534336	84	8029
2026-01-01 04:15:05.30	46.34	5.06	-58.4	-65.2	8.5	5.02e-02	0	33	0	12582912	83	7647
2026-01-01 04:15:06.29	46.27	5.12	-58.3	-64.4	9.4	3.20e-02	0	33	0	14680064	83	6993
2026-01-01 04:15:07.30	46.19	5.18	-57.5	-62.1	11.7	1.06e-05	0	33	0	16777216	80	6352
2026-01-01 04:15:08.30	46.11	5.25	-59.0	-68.9	5.4	1.06e+00	0	33	0	18874368	83	11734
2026-01-01 04:15:09.29	46.04	5.31	-58.5	-64.8	8.8	1.29e-01	0	33	0	19922944	83	7330
2026-01-01 04:15:10.27	45.96	5.37	-57.1	-61.1	12.2	2.20e-06	0	33	0	22020096	79	6059
2026-01-01 04:15:11.27	45.89	5.43	-56.5	-60.1	13.1	1.50e-06	0	33	0	24117248	79	5362
2026-01-01 04:15:12.26	45.81	5.49	-56.5	-60.0	13.1	0.00e+00	0	33	0	26214400	79	5308
2026-01-01 04:15:13.25	45.73	5.55	-56.2	-59.4	13.6	0.00e+00	0	33	0	27262976	78	5257
2026-01-01 04:15:14.25	45.65	5.62	-56.0	-59.0	13.9	0.00e+00	0	33	0	29360128	78	5030
2026-01-01 04:15:15.24	45.57	5.68	-56.0	-59.0	13.9	0.00e+00	0	33	0	31457280	78	5017
2026-01-01 04:15:16.24	45.50	5.74	-56.1	-59.2	13.8	0.00e+00	0	33	0	33554432	78	5102
2026-01-01 04:15:17.23	45.42	5.80	-55.9	-58.9	14.0	0.00e+00	0	33	0	34603008	78	4962
2026-01-01 04:15:18.22	45.34	5.87	-56.0	-59.1	13.8	0.00e+00	0	33	0	36700160	78	5077
2026-01-01 04:15:19.22	45.26	5.93	-56.0	-59.0	13.9	0.00e+00	0	33	0	38797312	78	5006
2026-01-01 04:15:20.22	45.18	5.99	-56.1	-59.2	13.8	0.00e+00	0	33	0	40894464	78	5122
2026-01-01 04:15:21.22	45.10	6.06	-56.0	-59.0	13.9	0.00e+00	0	33	0	42991616	78	5029
2026-01-01 04:15:22.21	45.02	6.12	-56.0	-59.0	14.0	0.00e+00	0	33	0	44040192	78	4987
2026-01-01 04:15:23.21	44.93	6.18	-55.9	-58.9	14.0	0.00e+00	0	33	0	46137344	78	4961
2026-01-01 04:15:24.20	44.85	6.25	-56.1	-59.1	13.9	0.00e+00	0	33	0	48234496	78	5051
2026-01-01 04:15:25.19	44.77	6.31	-56.1	-59.2	13.8	0.00e+00	0	33	0	50331648	78	5128
2026-01-01 04:15:26.20	44.69	6.37	-56.0	-59.0	14.0	0.00e+00	0	33	0	52428800	78	4994
2026-01-01 04:15:27.20	44.60	6.44	-56.0	-58.9	14.1	0.00e+00	0	33	0	53477376	78	4961
2026-01-01 04:15:28.20	44.52	6.50	-56.0	-59.0	14.0	0.00e+00	0	33	0	55574528	78	5000
2026-01-01 04:15:29.20	44.44	6.57	-56.1	-59.1	14.0	0.00e+00	0	33	0	57671680	78	5060
2026-01-01 04:15:30.19	44.35	6.63	-56.1	-59.1	14.0	0.00e+00	0	33	0	59768832	78	5053
2026-01-01 04:15:31.19	44.27	6.69	-56.1	-59.1	14.0	0.00e+00	0	33	0	60817408	78	5065
2026-01-01 04:15:32.18	44.18	6.76	-56.2	-59.3	13.8	0.00e+00	0	33	0	62914560	78	5192
2026-01-01 04:15:33.19	44.10	6.82	-56.1	-59.1	14.0	0.00e+00	0	33	0	65011712	78	5064
2026-01-01 04:15:34.19	44.01	6.89	-56.1	-59.1	14.0	0.00e+00	0	33	0	67108864	78	5074
2026-01-01 04:15:35.19	43.92	6.95	-56.1	-59.2	13.9	0.00e+00	0	33	0	69206016	78	5121
2026-01-01 04:15:36.20	43.84	7.02	-56.2	-59.2	13.9	0.00e+00	0	33	0	70254592	78	5153
2026-01-01 04:15:37.20	43.75	7.08	-56.1	-59.1	14.0	0.00e+00	0	33	0	72351744	78	5095
2026-01-01 04:15:38.19	43.66	7.15	-56.2	-59.2	13.9	0.00e+00	0	33	0	74448896	78	5144
2026-01-01 04:15:39.19	43.58	7.21	-56.1	-59.0	14.1	0.00e+00	0	33	0	76546048	78	5036
2026-01-01 04:15:40.19	43.49	7.28	-55.9	-58.8	14.2	0.00e+00	0	33	0	77594624	78	4915
2026-01-01 04:15:41.18	43.40	7.34	-56.0	-58.9	14.2	0.00e+00	0	33	0	79691776	78	4929
2026-01-01 04:15:42.18	43.31	7.41	-56.0	-58.9	14.2	0.00e+00	0	33	0	81788928	78	4952
2026-01-01 04:15:43.19	43.22	7.47	-55.9	-58.7	14.3	0.00e+00	0	33	0	83886080	78	4867
2026-01-01 04:15:44.19	43.13	7.54	-55.9	-58.8	14.3	0.00e+00	0	33	0	85983232	78	4871
2026-01-01 04:15:45.20	43.04	7.61	-55.9	-58.8	14.3	0.00e+00	0	33	0	87031808	78	4878
2026-01-01 04:15:46.20	42.95	7.67	-55.9	-58.6	14.3	0.00e+00	0	33	0	89128960	78	4810
2026-01-01 04:15:47.19	42.86	7.74	-55.8	-58.6	14.4	0.00e+00	0	33	0	91226112	78	4797
2026-01-01 04:15:48.19	42.76	7.80	-55.8	-58.6	14.4	0.00e+00	0	33	0	93323264	78	4790
2026-01-01 04:15:49.18	42.67	7.87	-55.8	-58.5	14.5	0.00e+00	0	33	0	95420416	78	4739
2026-01-01 04:15:50.19	42.58	7.94	-55.9	-58.7	14.4	0.00e+00	0	33	0	96468992	78	4818
2026-01-01 04:15:51.18	42.49	8.00	-55.9	-58.7	14.4	0.00e+00	0	33	0	98566144	78	4815
2026-01-01 04:15:52.18	42.39	8.07	-55.8	-58.6	14.4	0.00e+00	0	33	0	100663296	78	4777
2026-01-01 04:15:53.19	42.30	8.14	-55.8	-58.6	14.4	0.00e+00	0	33	0	102760448	78	4774
2026-01-01 04:15:54.19	42.21	8.20	-55.8	-58.5	14.4	0.00e+00	0	33	0	104857600	78	4757
2026-01-01 04:15:55.19	42.11	8.27	-55.8	-58.6	14.4	0.00e+00	0	34	0	105906176	78	4780
2026-01-01 04:15:56.19	42.02	8.34	-55.8	-58.5	14.5	0.00e+00	0	33	0	108003328	78	4750
2026-01-01 04:15:57.19	41.92	8.40	-55.8	-58.6	14.4	0.00e+00	0	33	0	110100480	78	4774
2026-01-01 04:15:58.19	41.82	8.47	-55.8	-58.6	14.5	0.00e+00	0	33	0	112197632	78	4774
2026-01-01 04:15:59.17	41.73	8.54	-55.9	-58.6	14.5	0.00e+00	0	33	0	113246208	78	4776
2026-01-01 04:16:00.17	41.63	8.60	-55.9	-58.6	14.5	0.00e+00	0	33	0	115343360	78	4787
2026-01-01 04:16:01.16	41.53	8.67	-55.8	-58.5	14.5	0.00e+00	0	33	0	117440512	78	4727
2026-01-01 04:16:02.17	41.44	8.74	-55.9	-58.6	14.5	0.00e+00	0	33	0	119537664	78	4794
2026-01-01 04:16:03.16	41.34	8.81	-56.0	-58.7	14.4	0.00e+00	0	33	0	121634816	78	4854
2026-01-01 04:16:04.15	41.24	8.87	-55.9	-58.7	14.4	0.00e+00	0	33	0	122683392	78	4852
2026-01-01 04:16:05.15	41.14	8.94	-55.9	-58.6	14.5	0.00e+00	0	33	0	124780544	78	4764
2026-01-01 04:16:06.15	41.04	9.01	-55.9	-58.7	14.5	0.00e+00	0	33	0	126877696	78	4818
2026-01-01 04:16:07.15	40.94	9.08	-55.8	-58.5	14.6	0.00e+00	0	33	0	128974848	78	4720
2026-01-01 04:16:08.14	40.84	9.14	-55.9	-58.6	14.5	0.00e+00	0	33	0	130023424	78	4776
2026-01-01 04:16:09.15	40.74	9.21	-55.8	-58.4	14.6	0.00e+00	0	34	0	132120576	78	4671
2026-01-01 04:16:10.14	40.64	9.28	-55.7	-58.3	14.7	0.00e+00	0	33	0	134217728	78	4639
2026-01-01 04:16:11.14	40.53	9.35	-55.8	-58.4	14.6	0.00e+00	0	33	0	136314880	78	4703
2026-01-01 04:16:12.13	40.43	9.42	-55.7	-58.3	14.7	0.00e+00	0	34	0	138412032	77	4884
2026-01-01 04:16:13.13	40.33	9.48	-55.8	-58.4	14.6	0.00e+00	0	33	0	139460608	77	4962
2026-01-01 04:16:14.14	40.22	9.55	-55.6	-58.2	14.8	0.00e+00	0	34	0	141557760	77	4819
2026-01-01 04:16:15.13	40.12	9.62	-55.6	-58.1	14.8	0.00e+00	0	33	0	143654912	77	4795
2026-01-01 04:16:16.13	40.02	9.69	-55.5	-58.0	14.9	0.00e+00	0	34	0	145752064	77	4712
2026-01-01 04:16:17.13	39.91	9.76	-55.4	-57.8	15.0	0.00e+00	0	33	0	147849216	77	4632
2026-01-01 04:16:18.12	39.81	9.83	-55.4	-57.8	15.0	0.00e+00	0	34	0	148897792	77	4620
2026-01-01 04:16:19.12	39.70	9.90	-55.4	-57.8	15.0	0.00e+00	0	34	0	150994944	77	4632
2026-01-01 04:16:20.12	39.59	9.97	-55.3	-57.7	15.1	0.00e+00	0	33	0	153092096	77	4586
2026-01-01 04:16:21.11	39.49	10.03	-55.4	-57.8	15.0	0.00e+00	0	34	0	155189248	77	4620
2026-01-01 04:16:22.11	39.38	10.10	-55.4	-57.8	15.1	0.00e+00	0	33	0	156237824	77	4622
2026-01-01 04:16:23.11	39.27	10.17	-55.3	-57.7	15.1	0.00e+00	0	33	0	158334976	77	4575
2026-01-01 04:16:24.10	39.16	10.24	-55.3	-57.7	15.0	0.00e+00	0	33	0	160432128	77	4577
2026-01-01 04:16:25.11	39.05	10.31	-55.4	-57.8	15.0	0.00e+00	0	34	0	162529280	77	4644
2026-01-01 04:16:26.11	38.94	10.38	-55.4	-57.8	15.0	0.00e+00	0	33	0	164626432	77	4611
2026-01-01 04:16:27.11	38.83	10.45	-55.3	-57.7	15.1	0.00e+00	0	33	0	165675008	77	4569
2026-01-01 04:16:28.11	38.72	10.52	-55.3	-57.7	15.1	0.00e+00	0	33	0	167772160	77	4576
2026-01-01 04:16:29.10	38.61	10.59	-55.3	-57.7	15.1	0.00e+00	0	34	0	169869312	77	4590
2026-01-01 04:16:30.10	38.50	10.66	-55.3	-57.8	15.0	0.00e+00	0	33	0	171966464	77	4603
2026-01-01 04:16:31.10	38.38	10.73	-55.4	-57.8	15.0	0.00e+00	0	34	0	174063616	77	4612
2026-01-01 04:16:32.10	38.27	10.80	-55.4	-57.9	15.0	0.00e+00	0	33	0	175112192	77	4654
2026-01-01 04:16:33.09	38.16	10.87	-55.5	-57.9	15.0	0.00e+00	0	34	0	177209344	77	4681
2026-01-01 04:16:34.09	38.04	10.94	-55.5	-58.0	15.0	0.00e+00	0	33	0	179306496	77	4710
2026-01-01 04:16:35.09	37.93	11.01	-55.5	-57.9	15.0	0.00e+00	0	33	0	181403648	77	4690
2026-01-01 04:16:36.08	37.81	11.08	-55.5	-58.0	15.0	0.00e+00	0	34	0	182452224	77	4708
2026-01-01 04:16:37.09	37.70	11.15	-55.5	-57.9	15.0	0.00e+00	0	34	0	184549376	77	4682
2026-01-01 04:16:38.09	37.58	11.23	-55.5	-58.0	14.9	0.00e+00	0	33	0	186646528	77	4735
2026-01-01 04:16:39.09	37.46	11.30	-55.5	-58.0	15.0	0.00e+00	0	33	0	188743680	77	4733
2026-01-01 04:16:40.08	37.34	11.37	-55.6	-58.1	14.9	0.00e+00	0	34	0	190840832	77	4788
2026-01-01 04:16:41.08	37.23	11.44	-55.6	-58.1	14.9	0.00e+00	0	34	0	191889408	77	4811
2026-01-01 04:16:42.08	37.11	11.51	-55.5	-58.0	15.0	0.00e+00	0	33	0	193986560	77	4728
2026-01-01 04:16:43.07	36.99	11.58	-55.5	-57.9	15.1	0.00e+00	0	33	0	196083712	77	4664
2026-01-01 04:16:44.07	36.87	11.65	-55.5	-57.9	15.0	0.00e+00	0	33	0	198180864	77	4682
2026-01-01 04:16:45.08	36.75	11.72	-55.6	-58.1	14.9	0.00e+00	0	33	0	200278016	77	4783
2026-01-01 04:16:46.08	36.62	11.79	-55.5	-57.9	15.0	0.00e+00	0	34	0	201326592	77	4692
2026-01-01 04:16:47.07	36.50	11.87	-55.4	-57.8	15.1	0.00e+00	0	34	0	203423744	77	4635
2026-01-01 04:16:48.07	36.38	11.94	-55.3	-57.7	15.1	0.00e+00	0	34	0	205520896	77	4560
2026-01-01 04:16:49.07	36.26	12.01	-55.3	-57.7	15.1	0.00e+00	0	34	0	207618048	77	4548
2026-01-01 04:16:50.06	36.13	12.08	-55.3	-57.6	15.2	0.00e+00	0	34	0	208666624	77	4525
2026-01-01 04:16:51.06	36.01	12.15	-55.3	-57.7	15.2	0.00e+00	0	34	0	210763776	77	4557
2026-01-01 04:16:52.05	35.89	12.22	-55.3	-57.6	15.2	0.00e+00	0	34	0	212860928	77	4515
2026-01-01 04:16:53.04	35.76	12.29	-55.3	-57.7	15.2	0.00e+00	0	33	0	214958080	77	4551
2026-01-01 04:16:54.04	35.63	12.37	-55.3	-57.6	15.2	0.00e+00	0	34	0	217055232	77	4517
2026-01-01 04:16:55.04	35.51	12.44	-55.3	-57.6	15.2	0.00e+00	0	34	0	218103808	77	4520
2026-01-01 04:16:56.03	35.38	12.51	-55.3	-57.7	15.2	0.00e+00	0	34	0	220200960	77	4548
2026-01-01 04:16:57.02	35.25	12.58	-55.2	-57.5	15.3	0.00e+00	0	34	0	222298112	76	4740
2026-01-01 04:16:58.02	35.12	12.65	-55.3	-57.6	15.2	0.00e+00	0	33	0	224395264	76	4805
2026-01-01 04:16:59.02	34.99	12.73	-55.2	-57.5	15.3	0.00e+00	0	34	0	225443840	76	4732
2026-01-01 04:17:00.01	34.87	12.80	-55.0	-57.3	15.4	0.00e+00	0	33	0	227540992	76	4617
2026-01-01 04:17:01.01	34.73	12.87	-55.0	-57.2	15.5	0.00e+00	0	33	0	229638144	76	4549
2026-01-01 04:17:02.00	34.60	12.94	-54.9	-57.1	15.5	0.00e+00	0	34	0	231735296	76	4520
2026-01-01 04:17:02.99	34.47	13.02	-54.9	-57.1	15.5	0.00e+00	0	34	0	233832448	76	4511
2026-01-01 04:17:03.99	34.34	13.09	-54.9	-57.1	15.5	0.00e+00	0	34	0	234881024	76	4508
2026-01-01 04:17:04.99	34.21	13.16	-55.0	-57.2	15.5	0.00e+00	0	34	0	236978176	76	4550
2026-01-01 04:17:05.99	34.07	13.23	-55.0	-57.1	15.5	0.00e+00	0	34	0	239075328	76	4542
2026-01-01 04:17:06.99	33.94	13.31	-54.9	-57.1	15.5	0.00e+00	0	34	0	241172480	76	4501
2026-01-01 04:17:07.98	33.80	13.38	-54.9	-57.1	15.5	0.00e+00	0	34	0	242221056	76	4522
2026-01-01 04:17:08.98	33.67	13.45	-55.0	-57.2	15.5	0.00e+00	0	34	0	244318208	76	4549
2026-01-01 04:17:09.97	33.53	13.52	-54.9	-57.1	15.6	0.00e+00	0	34	0	246415360	76	4497
2026-01-01 04:17:10.97	33.39	13.60	-55.0	-57.1	15.5	0.00e+00	0	33	0	248512512	76	4544
2026-01-01 04:17:11.96	33.26	13.67	-54.9	-57.0	15.6	0.00e+00	0	34	0	250609664	76	4477
2026-01-01 04:17:12.96	33.12	13.74	-54.9	-57.1	15.5	0.00e+00	0	34	0	251658240	76	4494
2026-01-01 04:17:13.95	32.98	13.82	-54.9	-57.1	15.5	0.00e+00	0	34	0	253755392	76	4535
2026-01-01 04:17:14.94	32.84	13.89	-54.7	-56.8	15.6	0.00e+00	0	34	0	255852544	76	4390
2026-01-01 04:17:15.94	32.70	13.96	-54.8	-56.9	15.6	0.00e+00	0	34	0	257949696	76	4415
2026-01-01 04:17:16.94	32.56	14.04	-54.8	-56.9	15.7	0.00e+00	0	34	0	258998272	76	4403
2026-01-01 04:17:17.93	32.41	14.11	-54.7	-56.8	15.7	0.00e+00	0	34	0	261095424	75	4611
2026-01-01 04:17:18.92	32.27	14.18	-54.6	-56.7	15.7	0.00e+00	0	33	0	263192576	75	4572
2026-01-01 04:17:19.93	32.13	14.26	-54.6	-56.6	15.7	0.00e+00	0	34	0	265289728	75	4537
2026-01-01 04:17:20.93	31.98	14.33	-54.5	-56.6	15.8	0.00e+00	0	34	0	267386880	75	4511
2026-01-01 04:17:21.93	31.84	14.40	-54.6	-56.6	15.7	0.00e+00	0	33	0	268435456	75	4536
2026-01-01 04:17:22.93	31.69	14.48	-54.4	-56.4	15.8	0.00e+00	0	34	0	270532608	75	4431
2026-01-01 04:17:23.93	31.54	14.55	-54.4	-56.4	15.8	0.00e+00	0	34	0	272629760	75	4440
2026-01-01 04:17:24.93	31.39	14.62	-54.4	-56.4	15.9	0.00e+00	0	34	0	274726912	75	4427
2026-01-01 04:17:25.93	31.25	14.70	-54.4	-56.4	15.9	0.00e+00	0	34	0	276824064	75	4410
2026-01-01 04:17:26.92	31.10	14.77	-54.5	-56.5	15.8	0.00e+00	0	34	0	277872640	75	4462
2026-01-01 04:17:27.92	30.95	14.85	-54.4	-56.4	15.9	0.00e+00	0	34	0	279969792	75	4412
2026-01-01 04:17:28.93	30.80	14.92	-54.3	-56.3	15.9	0.00e+00	0	34	0	282066944	75	4381
2026-01-01 04:17:29.93	30.64	14.99	-54.4	-56.4	15.9	0.00e+00	0	34	0	284164096	75	4411
2026-01-01 04:17:30.93	30.49	15.07	-54.5	-56.5	15.8	0.00e+00	0	34	0	286261248	75	4473
2026-01-01 04:17:31.93	30.34	15.14	-54.6	-56.7	15.8	0.00e+00	0	34	0	287309824	75	4556
2026-01-01 04:17:32.92	30.19	15.21	-54.6	-56.7	15.8	0.00e+00	0	34	0	289406976	75	4561
2026-01-01 04:17:33.92	30.03	15.29	-54.7	-56.8	15.7	0.00e+00	0	34	0	291504128	75	4635
2026-01-01 04:17:34.92	29.88	15.36	-54.6	-56.7	15.8	0.00e+00	0	34	0	293601280	75	4577
2026-01-01 04:17:35.92	29.72	15.44	-54.7	-56.8	15.7	0.00e+00	0	34	0	294649856	75	4632
2026-01-01 04:17:36.92	29.56	15.51	-54.8	-56.9	15.6	0.00e+00	0	34	0	296747008	75	4677
2026-01-01 04:17:37.92	29.40	15.58	-54.8	-56.9	15.6	0.00e+00	0	34	0	298844160	75	4698
2026-01-01 04:17:38.93	29.24	15.66	-54.8	-56.9	15.6	0.00e+00	0	34	0	300941312	75	4693
2026-01-01 04:17:39.93	29.08	15.73	-54.8	-56.9	15.6	0.00e+00	0	34	0	303038464	75	4667
2026-01-01 04:17:40.93	28.92	15.81	-54.8	-56.9	15.7	0.00e+00	0	34	0	304087040	75	4662
2026-01-01 04:17:41.93	28.76	15.88	-54.8	-56.9	15.7	0.00e+00	0	34	0	306184192	75	4663
2026-01-01 04:17:42.93	28.60	15.96	-54.8	-56.9	15.7	0.00e+00	0	34	0	308281344	75	4668
2026-01-01 04:17:43.93	28.44	16.03	-54.8	-56.9	15.7	0.00e+00	0	34	0	310378496	75	4690
2026-01-01 04:17:44.93	28.27	16.10	-54.9	-57.0	15.6	0.00e+00	0	34	0	312475648	75	4741
2026-01-01 04:17:45.93	28.11	16.18	-54.9	-57.1	15.6	0.00e+00	0	34	0	313524224	75	4760
2026-01-01 04:17:46.93	27.95	16.25	-54.8	-56.9	15.6	0.00e+00	0	34	0	315621376	75	4700
2026-01-01 04:17:47.90	27.78	16.32	-54.9	-57.0	15.6	0.00e+00	0	34	0	317718528	75	4746
2026-01-01 04:17:48.90	27.62	16.40	-54.9	-57.0	15.6	0.00e+00	0	34	0	319815680	75	4745
2026-01-01 04:17:49.91	27.45	16.47	-55.0	-57.2	15.6	0.00e+00	0	34	0	321912832	75	4825
2026-01-01 04:17:50.91	27.28	16.55	-55.0	-57.1	15.6	0.00e+00	0	34	0	322961408	75	4796
2026-01-01 04:17:51.91	27.11	16.62	-55.0	-57.2	15.5	0.00e+00	0	34	0	325058560	75	4841
2026-01-01 04:17:52.91	26.94	16.69	-54.9	-57.1	15.6	0.00e+00	0	34	0	327155712	75	4772
2026-01-01 04:17:53.91	26.77	16.77	-54.9	-57.1	15.6	0.00e+00	0	34	0	329252864	75	4765
2026-01-01 04:17:54.90	26.60	16.84	-54.9	-57.0	15.6	0.00e+00	0	34	0	330301440	75	4747
2026-01-01 04:17:55.90	26.43	16.91	-54.9	-57.0	15.6	0.00e+00	0	34	0	332398592	75	4727
2026-01-01 04:17:56.90	26.25	16.99	-55.0	-57.2	15.5	0.00e+00	0	34	0	334495744	75	4821
2026-01-01 04:17:57.90	26.08	17.06	-55.0	-57.2	15.5	0.00e+00	0	34	0	336592896	75	4818
2026-01-01 04:17:58.89	25.90	17.13	-55.1	-57.3	15.5	0.00e+00	0	34	0	338690048	75	4899
2026-01-01 04:17:59.90	25.73	17.21	-55.1	-57.3	15.5	0.00e+00	0	34	0	339738624	75	4890
2026-01-01 04:18:00.90	25.55	17.28	-55.1	-57.3	15.5	0.00e+00	0	34	0	341835776	75	4878
2026-01-01 04:18:01.89	25.37	17.35	-55.2	-57.4	15.5	0.00e+00	0	34	0	343932928	75	4943
2026-01-01 04:18:02.89	25.19	17.43	-55.2	-57.5	15.4	0.00e+00	0	34	0	346030080	75	4994
2026-01-01 04:18:03.89	25.01	17.50	-55.1	-57.4	15.5	0.00e+00	0	34	0	348127232	75	4927
2026-01-01 04:18:04.88	24.83	17.57	-55.1	-57.3	15.4	0.00e+00	0	34	0	349175808	75	4918
2026-01-01 04:18:05.88	24.65	17.64	-55.1	-57.3	15.5	0.00e+00	0	34	0	351272960	75	4897
2026-01-01 04:18:06.88	24.47	17.72	-55.1	-57.2	15.5	0.00e+00	0	34	0	353370112	75	4866
2026-01-01 04:18:07.88	24.29	17.79	-55.0	-57.2	15.6	0.00e+00	0	34	0	355467264	75	4819
2026-01-01 04:18:08.88	24.10	17.86	-55.0	-57.2	15.6	0.00e+00	0	34	0	356515840	75	4853
2026-01-01 04:18:09.88	23.92	17.94	-55.1	-57.3	15.5	0.00e+00	0	34	0	358612992	75	4903
2026-01-01 04:18:10.88	23.73	18.01	-55.0	-57.2	15.6	0.00e+00	0	34	0	360710144	75	4825
2026-01-01 04:18:11.88	23.55	18.08	-55.0	-57.2	15.5	0.00e+00	0	34	0	362807296	75	4861
2026-01-01 04:18:12.87	23.36	18.15	-55.0	-57.2	15.5	0.00e+00	0	34	0	364904448	75	4819
2026-01-01 04:18:13.87	23.17	18.22	-55.0	-57.2	15.5	0.00e+00	0	34	0	365953024	75	4852
2026-01-01 04:18:14.87	22.98	18.30	-55.0	-57.1	15.6	0.00e+00	0	34	0	368050176	75	4800
2026-01-01 04:18:15.87	22.79	18.37	-55.0	-57.2	15.5	0.00e+00	0	34	0	370147328	75	4847
2026-01-01 04:18:16.87	22.60	18.44	-55.0	-57.2	15.6	0.00e+00	0	34	0	372244480	75	4826
2026-01-01 04:18:17.86	22.41	18.51	-54.9	-57.1	15.6	0.00e+00	0	34	0	374341632	75	4769
2026-01-01 04:18:18.86	22.22	18.58	-54.8	-56.9	15.7	0.00e+00	0	34	0	375390208	75	4694
2026-01-01 04:18:19.86	22.02	18.65	-54.8	-56.9	15.7	0.00e+00	0	34	0	377487360	75	4691
2026-01-01 04:18:20.86	21.83	18.73	-54.8	-56.9	15.7	0.00e+00	0	34	0	379584512	75	4656
2026-01-01 04:18:21.86	21.63	18.80	-54.8	-56.9	15.7	0.00e+00	0	34	0	381681664	75	4697
2026-01-01 04:18:22.86	21.43	18.87	-54.8	-56.9	15.7	0.00e+00	0	34	0	382730240	75	4699
2026-01-01 04:18:23.86	21.23	18.94	-54.8	-56.9	15.7	0.00e+00	0	34	0	384827392	75	4653
2026-01-01 04:18:24.86	21.04	19.01	-54.6	-56.7	15.8	0.00e+00	0	34	0	386924544	75	4558
2026-01-01 04:18:25.86	20.84	19.08	-54.5	-56.6	15.8	0.00e+00	0	34	0	389021696	75	4497
2026-01-01 04:18:26.85	20.64	19.15	-54.4	-56.4	16.0	0.00e+00	0	34	0	391118848	75	4410
2026-01-01 04:18:27.85	20.44	19.22	-54.3	-56.2	16.1	0.00e+00	0	34	0	392167424	75	4326
2026-01-01 04:18:28.84	20.23	19.29	-54.4	-56.3	16.0	0.00e+00	0	34	0	394264576	75	4363
2026-01-01 04:18:29.84	20.03	19.36	-54.2	-56.1	16.1	0.00e+00	0	34	0	396361728	75	4287
2026-01-01 04:18:30.84	19.83	19.43	-54.1	-55.9	16.2	0.00e+00	0	34	0	398458880	74	4436
2026-01-01 04:18:31.84	19.62	19.50	-53.7	-55.5	16.4	0.00e+00	0	34	0	399507456	74	4197
2026-01-01 04:18:32.84	19.41	19.57	-53.7	-55.5	16.4	0.00e+00	0	34	0	401604608	73	4445
2026-01-01 04:18:33.83	19.21	19.64	-53.5	-55.2	16.5	0.00e+00	0	34	0	403701760	73	4334
2026-01-01 04:18:34.84	19.00	19.71	-53.3	-55.0	16.6	0.00e+00	0	34	0	405798912	73	4216
2026-01-01 04:18:35.83	18.79	19.77	-53.3	-55.0	16.6	0.00e+00	0	34	0	407896064	73	4200
2026-01-01 04:18:36.83	18.58	19.84	-53.3	-55.0	16.6	0.00e+00	0	34	0	408944640	73	4212
2026-01-01 04:18:37.84	18.37	19.91	-53.3	-55.0	16.6	0.00e+00	0	34	0	411041792	73	4233
2026-01-01 04:18:38.83	18.16	19.98	-53.2	-54.9	16.6	0.00e+00	0	34	0	413138944	73	4164
2026-01-01 04:18:39.83	17.95	20.05	-53.3	-54.9	16.6	0.00e+00	0	34	0	415236096	73	4185
2026-01-01 04:18:40.84	17.73	20.11	-53.2	-54.9	16.6	0.00e+00	0	34	0	417333248	73	4166
2026-01-01 04:18:41.83	17.52	20.18	-53.2	-54.9	16.6	0.00e+00	0	34	0	418381824	73	4150
2026-01-01 04:18:42.83	17.30	20.25	-53.2	-54.9	16.6	0.00e+00	0	34	0	420478976	73	4179
2026-01-01 04:18:43.84	17.08	20.31	-53.2	-54.8	16.7	0.00e+00	0	34	0	422576128	72	4370
2026-01-01 04:18:44.84	16.86	20.38	-53.2	-54.9	16.7	0.00e+00	0	34	0	424673280	72	4397
2026-01-01 04:18:45.84	16.65	20.45	-53.1	-54.8	16.7	0.00e+00	0	34	0	426770432	72	4343
2026-01-01 04:18:46.83	16.43	20.51	-53.1	-54.7	16.7	0.00e+00	0	34	0	427819008	72	4333
2026-01-01 04:18:47.83	16.21	20.58	-53.1	-54.7	16.7	0.00e+00	0	34	0	429916160	72	4317
2026-01-01 04:18:48.84	15.98	20.64	-53.0	-54.7	16.7	0.00e+00	0	34	0	432013312	72	4303
2026-01-01 04:18:49.85	15.76	20.71	-52.9	-54.5	16.8	0.00e+00	0	34	0	434110464	72	4228
2026-01-01 04:18:50.84	15.54	20.77	-52.9	-54.5	16.8	0.00e+00	0	34	0	435159040	72	4219
2026-01-01 04:18:51.85	15.31	20.84	-52.9	-54.5	16.8	0.00e+00	0	34	0	437256192	72	4214
2026-01-01 04:18:52.85	15.08	20.90	-53.0	-54.6	16.8	0.00e+00	0	34	0	439353344	72	4247
2026-01-01 04:18:53.85	14.86	20.97	-53.0	-54.6	16.8	0.00e+00	0	34	0	441450496	72	4273
2026-01-01 04:18:54.85	14.63	21.03	-52.8	-54.3	16.9	0.00e+00	0	34	0	443547648	72	4140
2026-01-01 04:18:55.85	14.40	21.10	-52.7	-54.3	16.9	0.00e+00	0	34	0	444596224	71	4347
2026-01-01 04:18:56.85	14.17	21.16	-52.8	-54.4	16.8	0.00e+00	0	34	0	446693376	71	4396
2026-01-01 04:18:57.86	13.94	21.22	-52.8	-54.3	16.8	0.00e+00	0	34	0	448790528	71	4375
2026-01-01 04:18:58.86	13.71	21.28	-52.9	-54.5	16.8	0.00e+00	0	34	0	450887680	71	4442
2026-01-01 04:18:59.85	13.48	21.34	-52.9	-54.5	16.8	0.00e+00	0	34	0	452984832	71	4447
2026-01-01 04:19:00.85	13.25	21.41	-52.8	-54.4	16.8	0.00e+00	0	34	0	454033408	71	4417
2026-01-01 04:19:01.85	13.01	21.47	-52.8	-54.3	16.8	0.00e+00	0	34	0	456130560	71	4386
2026-01-01 04:19:02.85	12.78	21.53	-52.8	-54.3	16.8	0.00e+00	0	34	0	458227712	71	4388
2026-01-01 04:19:03.85	12.54	21.59	-53.0	-54.6	16.8	0.00e+00	0	34	0	460324864	71	4508
2026-01-01 04:19:04.85	12.31	21.65	-53.0	-54.6	16.7	0.00e+00	0	34	0	462422016	71	4538
2026-01-01 04:19:05.85	12.07	21.71	-53.1	-54.8	16.7	0.00e+00	0	34	0	463470592	71	4601
2026-01-01 04:19:06.85	11.83	21.77	-53.2	-54.8	16.6	0.00e+00	0	34	0	465567744	71	4635
2026-01-01 04:19:07.85	11.59	21.83	-53.1	-54.8	16.7	0.00e+00	0	34	0	467664896	71	4602
2026-01-01 04:19:08.85	11.35	21.89	-53.0	-54.6	16.7	0.00e+00	0	34	0	469762048	71	4519
2026-01-01 04:19:09.85	11.11	21.94	-52.9	-54.5	16.8	0.00e+00	0	34	0	471859200	71	4465
2026-01-01 04:19:10.86	10.86	22.00	-53.0	-54.6	16.8	0.00e+00	0	34	0	472907776	71	4506
2026-01-01 04:19:11.86	10.62	22.06	-53.0	-54.6	16.8	0.00e+00	0	34	0	475004928	71	4517
2026-01-01 04:19:12.86	10.38	22.12	-53.1	-54.7	16.7	0.00e+00	0	34	0	477102080	71	4573
2026-01-01 04:19:13.86	10.13	22.17	-53.1	-54.8	16.7	0.00e+00	0	34	0	479199232	71	4608
2026-01-01 04:19:14.86	9.88	22.23	-53.2	-54.8	16.7	0.00e+00	0	34	0	480247808	71	4620
2026-01-01 04:19:15.86	9.64	22.28	-53.0	-54.6	16.8	0.00e+00	0	34	0	482344960	71	4544
2026-01-01 04:19:16.86	9.39	22.34	-52.9	-54.5	16.8	0.00e+00	0	34	0	484442112	71	4469
2026-01-01 04:19:17.86	9.14	22.39	-52.9	-54.5	16.8	0.00e+00	0	34	0	486539264	71	4470
2026-01-01 04:19:18.85	8.89	22.45	-52.8	-54.4	16.9	0.00e+00	0	34	0	488636416	71	4410
2026-01-01 04:19:19.85	8.64	22.50	-52.7	-54.2	16.9	0.00e+00	0	34	0	489684992	71	4326
2026-01-01 04:19:20.85	8.39	22.55	-52.7	-54.2	16.9	0.00e+00	0	34	0	491782144	71	4333
2026-01-01 04:19:21.86	8.14	22.61	-52.7	-54.3	16.9	0.00e+00	0	34	0	493879296	71	4342
2026-01-01 04:19:22.85	7.89	22.66	-52.7	-54.2	16.9	0.00e+00	0	34	0	495976448	71	4338
2026-01-01 04:19:23.85	7.63	22.71	-52.7	-54.3	16.9	0.00e+00	0	34	0	497025024	71	4342
2026-01-01 04:19:24.84	7.38	22.76	-52.7	-54.2	16.9	0.00e+00	0	34	0	499122176	71	4332
2026-01-01 04:19:25.84	7.13	22.81	-52.6	-54.2	16.9	0.00e+00	0	34	0	501219328	71	4308
2026-01-01 04:19:26.84	6.87	22.86	-52.7	-54.3	16.9	0.00e+00	0	34	0	503316480	71	4365
2026-01-01 04:19:27.84	6.61	22.91	-52.8	-54.3	16.9	0.00e+00	0	34	0	505413632	71	4385
2026-01-01 04:19:28.84	6.36	22.96	-52.7	-54.2	16.9	0.00e+00	0	34	0	506462208	71	4312
2026-01-01 04:19:29.84	6.10	23.01	-52.5	-54.0	17.0	0.00e+00	0	33	0	508559360	71	4240
2026-01-01 04:19:30.85	5.83	23.06	-52.4	-53.9	17.0	0.00e+00	0	34	0	510656512	71	4183
2026-01-01 04:19:31.85	5.57	23.11	-52.4	-53.9	17.0	0.00e+00	0	34	0	512753664	71	4179
2026-01-01 04:19:32.85	5.31	23.15	-52.4	-53.9	17.0	0.00e+00	0	34	0	514850816	71	4176
2026-01-01 04:19:33.84	5.05	23.20	-52.4	-53.9	17.0	0.00e+00	0	34	0	515899392	71	4162
2026-01-01 04:19:34.84	4.79	23.25	-52.4	-53.9	17.0	0.00e+00	0	34	0	517996544	71	4180
2026-01-01 04:19:35.84	4.53	23.29	-52.3	-53.8	17.1	0.00e+00	0	34	0	520093696	71	4126
2026-01-01 04:19:36.84	4.26	23.34	-52.3	-53.8	17.1	0.00e+00	0	34	0	522190848	71	4125
2026-01-01 04:19:37.84	4.00	23.38	-52.4	-53.9	17.0	0.00e+00	0	34	0	524288000	71	4178
2026-01-01 04:19:38.84	3.73	23.42	-52.4	-53.9	17.0	0.00e+00	0	34	0	525336576	71	4161
2026-01-01 04:19:39.85	3.46	23.47	-52.6	-54.1	17.0	0.00e+00	0	34	0	527433728	71	4280
2026-01-01 04:19:40.85	3.20	23.51	-52.7	-54.2	16.9	0.00e+00	0	34	0	529530880	71	4340
2026-01-01 04:19:41.85	2.93	23.55	-52.9	-54.5	16.8	0.00e+00	0	34	0	531628032	71	4447
2026-01-01 04:19:42.84	2.66	23.59	-52.8	-54.4	16.8	0.00e+00	0	34	0	532676608	71	4420
2026-01-01 04:19:43.83	2.39	23.63	-52.9	-54.4	16.8	0.00e+00	0	34	0	534773760	71	4441
2026-01-01 04:19:44.84	2.12	23.67	-52.9	-54.5	16.8	0.00e+00	0	34	0	536870912	71	4443
2026-01-01 04:19:45.84	1.85	23.71	-52.9	-54.5	16.8	0.00e+00	0	34	0	538968064	71	4474
2026-01-01 04:19:46.83	1.58	23.75	-53.0	-54.6	16.8	0.00e+00	0	34	0	541065216	71	4519
2026-01-01 04:19:47.83	1.31	23.79	-53.1	-54.7	16.8	0.00e+00	0	34	0	542113792	71	4550
2026-01-01 04:19:48.83	1.04	23.82	-53.0	-54.6	16.7	0.00e+00	0	34	0	544210944	71	4541
2026-01-01 04:19:49.84	0.76	23.86	-53.1	-54.7	16.8	0.00e+00	0	34	0	546308096	71	4568
2026-01-01 04:19:50.85	0.48	23.90	-53.2	-54.8	16.7	0.00e+00	0	34	0	548405248	71	4623
2026-01-01 04:19:51.85	0.21	23.93	-53.2	-54.8	16.7	0.00e+00	0	34	0	550502400	71	4648
2026-01-01 04:19:52.85	359.93	23.97	-53.3	-55.0	16.6	0.00e+00	0	34	0	551550976	71	4708
2026-01-01 04:19:53.85	359.66	24.00	-53.5	-55.2	16.6	0.00e+00	0	34	0	553648128	72	4547
2026-01-01 04:19:54.85	359.38	24.03	-53.7	-55.5	16.5	0.00e+00	0	34	0	555745280	72	4709
2026-01-01 04:19:55.85	359.10	24.07	-53.9	-55.6	16.4	0.00e+00	0	34	0	557842432	72	4797
2026-01-01 04:19:56.85	358.83	24.10	-53.9	-55.7	16.4	0.00e+00	0	33	0	558891008	73	4595
2026-01-01 04:19:57.85	358.55	24.13	-53.8	-55.6	16.4	0.00e+00	0	34	0	560988160	73	4519
2026-01-01 04:19:58.85	358.27	24.16	-53.9	-55.7	16.4	0.00e+00	0	34	0	563085312	73	4551
2026-01-01 04:19:59.85	357.99	24.19	-54.0	-55.8	16.4	0.00e+00	0	34	0	565182464	73	4601
2026-01-01 04:20:00.85	357.71	24.22	-54.0	-55.8	16.4	0.00e+00	0	34	0	567279616	73	4623
2026-01-01 04:20:01.85	357.43	24.25	-54.1	-56.0	16.3	0.00e+00	0	34	0	568328192	73	4718
2026-01-01 04:20:02.85	357.15	24.28	-54.2	-56.1	16.2	0.00e+00	0	34	0	570425344	73	4768
2026-01-01 04:20:03.84	356.87	24.30	-54.2	-56.0	16.3	0.00e+00	0	34	0	572522496	73	4750
2026-01-01 04:20:04.84	356.59	24.33	-54.2	-56.1	16.2	0.00e+00	0	34	0	574619648	73	4770
2026-01-01 04:20:05.84	356.31	24.35	-54.2	-56.1	16.2	0.00e+00	0	34	0	576716800	73	4764
2026-01-01 04:20:06.84	356.02	24.38	-54.2	-56.1	16.2	0.00e+00	0	34	0	577765376	73	4785
2026-01-01 04:20:07.84	355.74	24.40	-54.3	-56.2	16.2	0.00e+00	0	34	0	579862528	73	4835
2026-01-01 04:20:08.84	355.46	24.43	-54.5	-56.4	16.1	0.00e+00	0	34	0	581959680	74	4671
2026-01-01 04:20:09.85	355.17	24.45	-54.5	-56.4	16.1	0.00e+00	0	34	0	584056832	74	4696
2026-01-01 04:20:10.84	354.89	24.47	-54.5	-56.5	16.1	0.00e+00	0	34	0	586153984	74	4712
2026-01-01 04:20:11.84	354.60	24.49	-54.5	-56.4	16.1	0.00e+00	0	34	0	587202560	74	4683
2026-01-01 04:20:12.84	354.32	24.51	-54.5	-56.4	16.1	0.00e+00	0	34	0	589299712	74	4668
2026-01-01 04:20:13.83	354.03	24.53	-54.5	-56.4	16.1	0.00e+00	0	34	0	591396864	74	4691
2026-01-01 04:20:14.84	353.75	24.55	-54.7	-56.7	16.0	0.00e+00	0	34	0	593494016	74	4836
2026-01-01 04:20:15.84	353.46	24.57	-54.8	-56.8	15.9	0.00e+00	0	34	0	594542592	74	4879
2026-01-01 04:20:16.84	353.17	24.59	-54.8	-56.8	15.9	0.00e+00	0	34	0	596639744	74	4900
2026-01-01 04:20:17.83	352.89	24.60	-54.8	-56.8	15.9	0.00e+00	0	34	0	598736896	74	4891
2026-01-01 04:20:18.83	352.60	24.62	-54.7	-56.6	16.0	0.00e+00	0	34	0	600834048	74	4801
2026-01-01 04:20:19.82	352.32	24.63	-54.6	-56.5	16.1	0.00e+00	0	34	0	602931200	74	4749
2026-01-01 04:20:20.81	352.03	24.65	-54.4	-56.3	16.1	0.00e+00	0	34	0	603979776	74	4628
2026-01-01 04:20:21.80	351.75	24.66	-54.4	-56.3	16.2	0.00e+00	0	34	0	606076928	74	4608
2026-01-01 04:20:22.80	351.46	24.67	-54.3	-56.2	16.2	0.00e+00	0	34	0	608174080	74	4578
2026-01-01 04:20:23.80	351.17	24.68	-54.3	-56.2	16.2	0.00e+00	0	34	0	610271232	74	4548
2026-01-01 04:20:24.80	350.88	24.69	-54.4	-56.3	16.1	0.00e+00	0	34	0	611319808	74	4605
2026-01-01 04:20:25.80	350.59	24.70	-54.5	-56.4	16.1	0.00e+00	0	34	0	613416960	74	4684
2026-01-01 04:20:26.80	350.30	24.71	-54.6	-56.6	16.0	0.00e+00	0	34	0	615514112	74	4767
2026-01-01 04:20:27.80	350.01	24.72	-54.6	-56.6	16.0	0.00e+00	0	34	0	617611264	74	4782
2026-01-01 04:20:28.79	349.73	24.73	-54.5	-56.4	16.1	0.00e+00	0	34	0	619708416	74	4684
2026-01-01 04:20:29.79	349.44	24.74	-54.5	-56.4	16.1	0.00e+00	0	34	0	620756992	74	4685
2026-01-01 04:20:30.79	349.15	24.74	-54.5	-56.4	16.1	0.00e+00	0	34	0	622854144	74	4692
2026-01-01 04:20:31.80	348.85	24.75	-54.5	-56.4	16.1	0.00e+00	0	34	0	624951296	74	4692
2026-01-01 04:20:32.80	348.56	24.75	-54.5	-56.4	16.1	0.00e+00	0	34	0	627048448	74	4688
2026-01-01 04:20:33.80	348.27	24.76	-54.4	-56.2	16.2	0.00e+00	0	34	0	629145600	74	4593
2026-01-01 04:20:34.81	347.98	24.76	-54.2	-56.0	16.3	0.00e+00	0	34	0	630194176	74	4483
2026-01-01 04:20:35.81	347.69	24.76	-54.1	-55.9	16.3	0.00e+00	0	34	0	632291328	74	4435
2026-01-01 04:20:36.81	347.40	24.76	-54.0	-55.8	16.4	0.00e+00	0	34	0	634388480	74	4374
2026-01-01 04:20:37.81	347.11	24.77	-54.0	-55.8	16.4	0.00e+00	0	34	0	636485632	74	4346
2026-01-01 04:20:38.81	346.82	24.77	-54.1	-55.9	16.3	0.00e+00	0	34	0	638582784	74	4441
2026-01-01 04:20:39.81	346.53	24.76	-54.2	-56.0	16.3	0.00e+00	0	34	0	639631360	74	4462
2026-01-01 04:20:40.81	346.24	24.76	-54.2	-56.0	16.3	0.00e+00	0	34	0	641728512	74	4474
2026-01-01 04:20:41.81	345.95	24.76	-54.0	-55.8	16.4	0.00e+00	0	34	0	643825664	74	4351
2026-01-01 04:20:42.81	345.66	24.76	-53.8	-55.5	16.5	0.00e+00	0	34	0	645922816	74	4242
2026-01-01 04:20:43.81	345.37	24.75	-53.7	-55.4	16.6	0.00e+00	0	34	0	648019968	74	4168
2026-01-01 04:20:44.81	345.08	24.75	-53.7	-55.4	16.5	0.00e+00	0	34	0	649068544	73	4408
2026-01-01 04:20:45.81	344.79	24.74	-53.6	-55.3	16.6	0.00e+00	0	34	0	651165696	73	4349
2026-01-01 04:20:46.81	344.50	24.73	-53.6	-55.3	16.6	0.00e+00	0	34	0	653262848	73	4367
2026-01-01 04:20:47.81	344.21	24.73	-53.5	-55.2	16.6	0.00e+00	0	34	0	655360000	73	4331
2026-01-01 04:20:48.81	343.92	24.72	-53.5	-55.2	16.7	0.00e+00	0	34	0	656408576	73	4302
2026-01-01 04:20:49.80	343.64	24.71	-53.3	-55.0	16.8	0.00e+00	0	34	0	658505728	73	4204
2026-01-01 04:20:50.80	343.35	24.70	-53.3	-55.0	16.8	0.00e+00	0	34	0	660602880	73	4215
2026-01-01 04:20:51.80	343.06	24.69	-53.2	-54.8	16.8	0.00e+00	0	34	0	662700032	73	4142
2026-01-01 04:20:52.79	342.77	24.68	-53.1	-54.6	16.9	0.00e+00	0	34	0	664797184	72	4284
2026-01-01 04:20:53.80	342.48	24.67	-53.0	-54.6	16.9	0.00e+00	0	34	0	665845760	72	4246
2026-01-01 04:20:54.80	342.19	24.65	-52.9	-54.5	16.9	0.00e+00	0	34	0	667942912	72	4203
2026-01-01 04:20:55.78	341.91	24.64	-52.7	-54.2	16.9	0.00e+00	0	34	0	670040064	72	4098
2026-01-01 04:20:56.79	341.62	24.63	-52.8	-54.3	16.9	0.00e+00	0	34	0	672137216	71	4379
2026-01-01 04:20:57.79	341.33	24.61	-52.7	-54.2	17.0	0.00e+00	0	34	0	673185792	71	4311
2026-01-01 04:20:58.78	341.05	24.59	-52.6	-54.1	17.0	0.00e+00	0	34	0	675282944	71	4256
2026-01-01 04:20:59.78	340.76	24.58	-52.6	-54.1	17.0	0.00e+00	0	34	0	677380096	71	4256
2026-01-01 04:21:00.78	340.47	24.56	-52.6	-54.1	16.9	0.00e+00	0	34	0	679477248	71	4270
2026-01-01 04:21:01.78	340.19	24.54	-52.7	-54.2	17.0	0.00e+00	0	34	0	681574400	71	4327
2026-01-01 04:21:02.78	339.90	24.52	-52.6	-54.1	17.0	0.00e+00	0	34	0	682622976	71	4248
2026-01-01 04:21:03.78	339.62	24.50	-52.5	-54.0	17.0	0.00e+00	0	34	0	684720128	71	4238
2026-01-01 04:21:04.77	339.33	24.48	-52.4	-53.8	17.1	0.00e+00	0	34	0	686817280	71	4143
2026-01-01 04:21:05.77	339.05	24.46	-52.2	-53.6	17.2	0.00e+00	0	34	0	688914432	71	4051
2026-01-01 04:21:06.77	338.77	24.44	-52.2	-53.7	17.1	0.00e+00	0	34	0	691011584	70	4307
2026-01-01 04:21:07.77	338.48	24.42	-52.2	-53.7	17.2	0.00e+00	0	34	0	692060160	70	4300
2026-01-01 04:21:08.77	338.20	24.39	-52.3	-53.7	17.1	0.00e+00	0	34	0	694157312	70	4324
2026-01-01 04:21:09.76	337.92	24.37	-52.3	-53.7	17.2	0.00e+00	0	34	0	696254464	70	4331
2026-01-01 04:21:10.76	337.63	24.34	-52.2	-53.7	17.2	0.00e+00	0	34	0	698351616	70	4310
2026-01-01 04:21:11.76	337.35	24.32	-52.3	-53.8	17.2	0.00e+00	0	34	0	700448768	70	4350
2026-01-01 04:21:12.75	337.07	24.29	-52.3	-53.8	17.2	0.00e+00	0	34	0	701497344	70	4356
2026-01-01 04:21:13.75	336.79	24.26	-52.4	-53.9	17.1	0.00e+00	0	34	0	703594496	70	4402
2026-01-01 04:21:14.75	336.51	24.24	-52.5	-53.9	17.1	0.00e+00	0	34	0	705691648	70	4437
2026-01-01 04:21:15.75	336.23	24.21	-52.5	-53.9	17.0	0.00e+00	0	34	0	707788800	70	4431
2026-01-01 04:21:16.75	335.95	24.18	-52.5	-53.9	17.1	0.00e+00	0	34	0	708837376	70	4432
2026-01-01 04:21:17.74	335.67	24.15	-52.5	-54.0	17.0	0.00e+00	0	34	0	710934528	70	4444
2026-01-01 04:21:18.75	335.39	24.12	-52.6	-54.1	17.0	0.00e+00	0	34	0	713031680	70	4511
2026-01-01 04:21:19.74	335.12	24.09	-52.5	-54.0	17.0	0.00e+00	0	34	0	715128832	70	4471
2026-01-01 04:21:20.75	334.84	24.05	-52.5	-54.0	17.0	0.00e+00	0	34	0	717225984	70	4490
2026-01-01 04:21:21.74	334.56	24.02	-52.6	-54.1	17.0	0.00e+00	0	34	0	718274560	70	4538
2026-01-01 04:21:22.75	334.28	23.99	-52.7	-54.3	17.0	0.00e+00	0	34	0	720371712	70	4608
2026-01-01 04:21:23.74	334.01	23.95	-52.9	-54.5	16.9	0.00e+00	0	34	0	722468864	70	4711
2026-01-01 04:21:24.74	333.74	23.92	-52.9	-54.5	16.9	0.00e+00	0	34	0	724566016	71	4464
2026-01-01 04:21:25.74	333.46	23.88	-53.0	-54.6	16.8	0.00e+00	0	34	0	725614592	71	4522
2026-01-01 04:21:26.74	333.19	23.85	-53.1	-54.7	16.8	0.00e+00	0	34	0	727711744	71	4587
2026-01-01 04:21:27.74	332.91	23.81	-53.2	-54.8	16.8	0.00e+00	0	34	0	729808896	71	4620
2026-01-01 04:21:28.75	332.64	23.77	-53.2	-54.9	16.7	0.00e+00	0	34	0	731906048	71	4653
2026-01-01 04:21:29.74	332.37	23.73	-53.3	-54.9	16.7	0.00e+00	0	34	0	734003200	71	4689
2026-01-01 04:21:30.74	332.10	23.69	-53.4	-55.0	16.7	0.00e+00	0	34	0	735051776	72	4479
2026-01-01 04:21:31.75	331.82	23.65	-53.3	-54.9	16.7	0.00e+00	0	34	0	737148928	72	4421
2026-01-01 04:21:32.75	331.55	23.61	-53.3	-55.0	16.7	0.00e+00	0	34	0	739246080	72	4450
2026-01-01 04:21:33.75	331.29	23.57	-53.3	-55.0	16.7	0.00e+00	0	34	0	741343232	72	4453
2026-01-01 04:21:34.75	331.02	23.53	-53.4	-55.1	16.7	0.00e+00	0	34	0	743440384	72	4494
2026-01-01 04:21:35.74	330.75	23.49	-53.4	-55.1	16.7	7.00e-07	0	34	0	744488960	72	4509
2026-01-01 04:21:36.74	330.49	23.45	-53.4	-55.1	16.7	0.00e+00	0	34	0	746586112	72	4518
2026-01-01 04:21:37.75	330.22	23.40	-53.6	-55.3	16.6	0.00e+00	0	34	0	748683264	72	4628
2026-01-01 04:21:38.76	329.95	23.36	-53.7	-55.4	16.5	0.00e+00	0	34	0	750780416	72	4665
2026-01-01 04:21:39.76	329.68	23.32	-53.8	-55.5	16.5	0.00e+00	0	34	0	752877568	72	4735
2026-01-01 04:21:40.76	329.42	23.27	-53.9	-55.6	16.4	0.00e+00	0	34	0	753926144	72	4810
2026-01-01 04:21:41.76	329.16	23.23	-54.0	-55.8	16.4	0.00e+00	0	34	0	756023296	73	4611
2026-01-01 04:21:42.77	328.89	23.18	-54.0	-55.7	16.4	0.00e+00	0	34	0	758120448	73	4594
2026-01-01 04:21:43.76	328.63	23.13	-54.0	-55.7	16.4	0.00e+00	0	34	0	760217600	73	4597
2026-01-01 04:21:44.76	328.37	23.09	-54.0	-55.8	16.4	0.00e+00	0	34	0	762314752	73	4638
2026-01-01 04:21:45.76	328.11	23.04	-54.1	-55.8	16.4	0.00e+00	0	34	0	763363328	73	4650
2026-01-01 04:21:46.76	327.85	22.99	-54.1	-55.8	16.4	0.00e+00	0	34	0	765460480	73	4651
2026-01-01 04:21:47.76	327.59	22.94	-53.9	-55.7	16.4	0.00e+00	0	34	0	767557632	73	4572
2026-01-01 04:21:48.76	327.33	22.89	-54.0	-55.7	16.4	0.00e+00	0	34	0	769654784	73	4590
2026-01-01 04:21:49.76	327.08	22.84	-54.0	-55.8	16.4	0.00e+00	0	34	0	770703360	73	4605
2026-01-01 04:21:50.75	326.82	22.79	-54.0	-55.8	16.4	0.00e+00	0	34	0	772800512	73	4618
2026-01-01 04:21:51.75	326.57	22.74	-54.1	-55.9	16.4	0.00e+00	0	34	0	774897664	73	4700
2026-01-01 04:21:52.74	326.32	22.69	-54.2	-56.1	16.3	0.00e+00	0	34	0	776994816	73	4776
2026-01-01 04:21:53.73	326.07	22.64	-54.4	-56.3	16.2	0.00e+00	0	34	0	779091968	73	4883
2026-01-01 04:21:54.73	325.81	22.59	-54.5	-56.4	16.2	0.00e+00	0	34	0	780140544	74	4680
2026-01-01 04:21:55.73	325.56	22.53	-54.5	-56.4	16.2	0.00e+00	0	34	0	782237696	74	4655
2026-01-01 04:21:56.73	325.31	22.48	-54.5	-56.4	16.1	0.00e+00	0	34	0	784334848	74	4704
2026-01-01 04:21:57.73	325.06	22.43	-54.5	-56.5	16.1	0.00e+00	0	34	0	786432000	74	4710
2026-01-01 04:21:58.74	324.81	22.37	-54.5	-56.4	16.1	0.00e+00	0	34	0	787480576	74	4704
2026-01-01 04:21:59.74	324.56	22.32	-54.4	-56.3	16.1	0.00e+00	0	34	0	789577728	74	4642
2026-01-01 04:22:00.75	324.31	22.26	-54.3	-56.2	16.2	0.00e+00	0	34	0	791674880	74	4548
2026-01-01 04:22:01.74	324.07	22.20	-54.3	-56.1	16.3	0.00e+00	0	34	0	793772032	74	4532
2026-01-01 04:22:02.74	323.82	22.15	-54.3	-56.2	16.3	0.00e+00	0	34	0	795869184	74	4549
2026-01-01 04:22:03.74	323.58	22.09	-54.4	-56.3	16.2	0.00e+00	0	34	0	796917760	74	4648
2026-01-01 04:22:04.74	323.33	22.03	-54.6	-56.6	16.1	0.00e+00	0	34	0	799014912	74	4779
2026-01-01 04:22:05.74	323.09	21.98	-54.6	-56.6	16.1	0.00e+00	0	34	0	801112064	74	4766
2026-01-01 04:22:06.73	322.85	21.92	-54.7	-56.6	16.0	0.00e+00	0	34	0	803209216	74	4787
2026-01-01 04:22:07.74	322.61	21.86	-54.6	-56.5	16.1	0.00e+00	0	34	0	805306368	74	4726
2026-01-01 04:22:08.74	322.37	21.80	-54.5	-56.4	16.2	0.00e+00	0	34	0	806354944	74	4682
2026-01-01 04:22:09.74	322.13	21.74	-54.3	-56.1	16.3	0.00e+00	0	34	0	808452096	74	4523
2026-01-01 04:22:10.74	321.89	21.68	-54.3	-56.1	16.3	0.00e+00	0	34	0	810549248	74	4536
2026-01-01 04:22:11.74	321.65	21.62	-54.3	-56.2	16.3	0.00e+00	0	34	0	812646400	74	4550
2026-01-01 04:22:12.74	321.41	21.56	-54.3	-56.2	16.3	0.00e+00	0	34	0	814743552	74	4554
2026-01-01 04:22:13.74	321.18	21.50	-54.3	-56.1	16.3	0.00e+00	0	34	0	815792128	74	4544
2026-01-01 04:22:14.74	320.94	21.44	-54.4	-56.2	16.2	0.00e+00	0	34	0	817889280	74	4588
2026-01-01 04:22:15.74	320.71	21.38	-54.3	-56.1	16.3	0.00e+00	0	34	0	819986432	74	4522
2026-01-01 04:22:16.74	320.48	21.32	-54.2	-56.0	16.3	0.00e+00	0	34	0	822083584	74	4486
2026-01-01 04:22:17.73	320.25	21.26	-54.2	-56.0	16.3	0.00e+00	0	34	0	823132160	74	4463
2026-01-01 04:22:18.73	320.02	21.19	-54.3	-56.1	16.2	0.00e+00	0	34	0	825229312	74	4544
2026-01-01 04:22:19.73	319.79	21.13	-54.0	-55.8	16.4	0.00e+00	0	34	0	827326464	74	4373
2026-01-01 04:22:20.73	319.56	21.07	-53.9	-55.6	16.5	0.00e+00	0	34	0	829423616	74	4274
2026-01-01 04:22:21.73	319.33	21.01	-53.9	-55.7	16.5	0.00e+00	0	34	0	831520768	74	4319
2026-01-01 04:22:22.74	319.10	20.94	-54.0	-55.8	16.4	0.00e+00	0	34	0	832569344	74	4355
2026-01-01 04:22:23.73	318.88	20.88	-53.8	-55.6	16.5	0.00e+00	0	34	0	834666496	74	4265
2026-01-01 04:22:24.74	318.65	20.81	-53.9	-55.6	16.5	0.00e+00	0	34	0	836763648	74	4289
2026-01-01 04:22:25.73	318.43	20.75	-53.8	-55.5	16.5	0.00e+00	0	34	0	838860800	74	4224
2026-01-01 04:22:26.73	318.20	20.68	-53.8	-55.5	16.5	0.00e+00	0	34	0	840957952	74	4239
2026-01-01 04:22:27.73	317.98	20.62	-53.8	-55.5	16.6	0.00e+00	0	34	0	842006528	74	4212
2026-01-01 04:22:28.74	317.76	20.55	-53.8	-55.5	16.5	0.00e+00	0	34	0	844103680	74	4237
2026-01-01 04:22:29.74	317.54	20.49	-53.9	-55.7	16.5	0.00e+00	0	33	0	846200832	74	4296
2026-01-01 04:22:30.74	317.32	20.42	-53.8	-55.6	16.5	0.00e+00	0	34	0	848297984	74	4259
2026-01-01 04:22:31.74	317.10	20.35	-53.9	-55.7	16.5	0.00e+00	0	34	0	849346560	74	4309
2026-01-01 04:22:32.74	316.88	20.29	-53.9	-55.7	16.4	0.00e+00	0	34	0	851443712	74	4326
2026-01-01 04:22:33.74	316.67	20.22	-53.9	-55.7	16.5	0.00e+00	0	34	0	853540864	74	4301
2026-01-01 04:22:34.75	316.45	20.15	-53.8	-55.5	16.5	0.00e+00	0	34	0	855638016	74	4223
2026-01-01 04:22:35.74	316.24	20.09	-53.7	-55.4	16.6	0.00e+00	0	34	0	857735168	74	4167
2026-01-01 04:22:36.74	316.02	20.02	-53.7	-55.4	16.6	0.00e+00	0	34	0	858783744	74	4170
2026-01-01 04:22:37.74	315.81	19.95	-53.7	-55.5	16.5	0.00e+00	0	34	0	860880896	73	4449
2026-01-01 04:22:38.74	315.60	19.88	-53.8	-55.5	16.5	0.00e+00	0	34	0	862978048	73	4468
2026-01-01 04:22:39.74	315.39	19.81	-53.7	-55.4	16.5	0.00e+00	0	34	0	865075200	73	4414
2026-01-01 04:22:40.74	315.18	19.74	-53.7	-55.4	16.5	0.00e+00	0	33	0	867172352	73	4430
2026-01-01 04:22:41.74	314.97	19.68	-53.7	-55.4	16.5	0.00e+00	0	34	0	868220928	73	4440
2026-01-01 04:22:42.74	314.76	19.61	-53.8	-55.5	16.5	0.00e+00	0	34	0	870318080	73	4469
2026-01-01 04:22:43.74	314.55	19.54	-53.8	-55.5	16.5	0.00e+00	0	34	0	872415232	73	4490
2026-01-01 04:22:44.75	314.34	19.47	-53.8	-55.5	16.5	0.00e+00	0	34	0	874512384	73	4476
2026-01-01 04:22:45.74	314.14	19.40	-53.8	-55.5	16.5	0.00e+00	0	34	0	876609536	73	4491
2026-01-01 04:22:46.74	313.94	19.33	-53.8	-55.5	16.5	0.00e+00	0	34	0	877658112	73	4493
2026-01-01 04:22:47.74	313.73	19.26	-53.9	-55.7	16.4	0.00e+00	0	34	0	879755264	73	4556
2026-01-01 04:22:48.74	313.53	19.19	-53.9	-55.7	16.4	0.00e+00	0	33	0	881852416	73	4558
2026-01-01 04:22:49.74	313.33	19.12	-53.8	-55.5	16.5	0.00e+00	0	34	0	883949568	73	4483
2026-01-01 04:22:50.74	313.13	19.05	-53.8	-55.6	16.4	0.00e+00	0	34	0	884998144	73	4509
2026-01-01 04:22:51.74	312.93	18.98	-53.9	-55.7	16.4	0.00e+00	0	34	0	887095296	73	4573
2026-01-01 04:22:52.74	312.73	18.91	-53.8	-55.6	16.4	0.00e+00	0	34	0	889192448	73	4503
2026-01-01 04:22:53.74	312.53	18.84	-53.8	-55.6	16.5	0.00e+00	0	34	0	891289600	73	4507
2026-01-01 04:22:54.74	312.34	18.76	-53.8	-55.5	16.5	0.00e+00	0	34	0	893386752	73	4471
2026-01-01 04:22:55.74	312.14	18.69	-53.7	-55.4	16.5	0.00e+00	0	34	0	894435328	73	4418
2026-01-01 04:22:56.74	311.95	18.62	-53.6	-55.3	16.6	0.00e+00	0	34	0	896532480	73	4388
2026-01-01 04:22:57.75	311.75	18.55	-53.6	-55.3	16.5	0.00e+00	0	34	0	898629632	73	4386
2026-01-01 04:22:58.75	311.56	18.48	-53.6	-55.4	16.6	0.00e+00	0	34	0	900726784	73	4395
2026-01-01 04:22:59.75	311.36	18.41	-53.6	-55.3	16.6	0.00e+00	0	34	0	902823936	73	4385
2026-01-01 04:23:00.74	311.17	18.33	-53.6	-55.3	16.6	0.00e+00	0	33	0	903872512	73	4374
2026-01-01 04:23:01.74	310.98	18.26	-53.7	-55.5	16.5	0.00e+00	0	34	0	905969664	73	4466
2026-01-01 04:23:02.74	310.79	18.19	-53.5	-55.2	16.6	0.00e+00	0	34	0	908066816	73	4335
2026-01-01 04:23:03.74	310.61	18.12	-53.5	-55.2	16.6	0.00e+00	0	34	0	910163968	73	4337
2026-01-01 04:23:04.74	310.42	18.05	-53.5	-55.2	16.6	0.00e+00	0	34	0	911212544	73	4339
2026-01-01 04:23:05.74	310.23	17.97	-53.5	-55.2	16.6	0.00e+00	0	34	0	913309696	73	4315
2026-01-01 04:23:06.73	310.05	17.90	-53.4	-55.1	16.6	0.00e+00	0	34	0	915406848	73	4281
2026-01-01 04:23:07.74	309.86	17.83	-53.5	-55.1	16.6	0.00e+00	0	34	0	917504000	73	4291
2026-01-01 04:23:08.74	309.68	17.76	-53.5	-55.2	16.6	0.00e+00	0	34	0	919601152	73	4337
2026-01-01 04:23:09.73	309.50	17.68	-53.4	-55.1	16.7	0.00e+00	0	34	0	920649728	73	4246
2026-01-01 04:23:10.73	309.31	17.61	-53.3	-54.9	16.7	0.00e+00	0	34	0	922746880	73	4166
2026-01-01 04:23:11.73	309.13	17.54	-53.1	-54.7	16.8	0.00e+00	0	34	0	924844032	72	4340
2026-01-01 04:23:12.72	308.95	17.46	-53.1	-54.7	16.8	0.00e+00	0	34	0	926941184	72	4327
2026-01-01 04:23:13.73	308.77	17.39	-53.2	-54.8	16.8	0.00e+00	0	34	0	929038336	72	4355
2026-01-01 04:23:14.73	308.59	17.32	-53.1	-54.7	16.7	0.00e+00	0	34	0	930086912	72	4331
2026-01-01 04:23:15.73	308.42	17.24	-53.2	-54.9	16.7	0.00e+00	0	34	0	932184064	72	4399
2026-01-01 04:23:16.74	308.24	17.17	-53.1	-54.7	16.8	0.00e+00	0	34	0	934281216	72	4333
2026-01-01 04:23:17.74	308.06	17.10	-53.1	-54.7	16.8	0.00e+00	0	34	0	936378368	72	4331
2026-01-01 04:23:18.74	307.89	17.02	-53.2	-54.8	16.7	0.00e+00	0	34	0	938475520	72	4384
2026-01-01 04:23:19.73	307.71	16.95	-53.2	-54.8	16.8	0.00e+00	0	34	0	939524096	72	4359
2026-01-01 04:23:20.72	307.54	16.88	-53.1	-54.7	16.8	0.00e+00	0	34	0	941621248	72	4329
2026-01-01 04:23:21.72	307.37	16.80	-53.1	-54.7	16.8	0.00e+00	0	34	0	943718400	72	4319
2026-01-01 04:23:22.72	307.20	16.73	-53.1	-54.7	16.8	0.00e+00	0	34	0	945815552	72	4323
2026-01-01 04:23:23.72	307.03	16.66	-53.0	-54.6	16.8	0.00e+00	0	34	0	946864128	72	4282
2026-01-01 04:23:24.72	306.86	16.58	-52.9	-54.5	16.8	0.00e+00	0	34	0	948961280	72	4233
2026-01-01 04:23:25.72	306.69	16.51	-52.8	-54.4	16.9	0.00e+00	0	34	0	951058432	72	4177
2026-01-01 04:23:26.72	306.52	16.43	-52.9	-54.5	16.9	0.00e+00	0	34	0	953155584	72	4209
2026-01-01 04:23:27.72	306.35	16.36	-52.9	-54.5	16.9	0.00e+00	0	34	0	955252736	72	4207
2026-01-01 04:23:28.72	306.19	16.29	-53.0	-54.6	16.9	0.00e+00	0	34	0	956301312	72	4264
2026-01-01 04:23:29.72	306.02	16.21	-53.0	-54.7	16.8	0.00e+00	0	34	0	958398464	72	4295
2026-01-01 04:23:30.72	305.85	16.14	-53.2	-54.9	16.7	0.00e+00	0	34	0	960495616	72	4416
2026-01-01 04:23:31.72	305.69	16.07	-53.1	-54.7	16.8	0.00e+00	0	34	0	962592768	72	4321
2026-01-01 04:23:32.73	305.53	15.99	-53.1	-54.8	16.8	0.00e+00	0	34	0	964689920	72	4357
2026-01-01 04:23:33.73	305.36	15.92	-53.1	-54.7	16.7	0.00e+00	0	34	0	965738496	72	4313
2026-01-01 04:23:34.74	305.20	15.84	-53.2	-54.8	16.7	0.00e+00	0	34	0	967835648	72	4370
2026-01-01 04:23:35.73	305.04	15.77	-53.1	-54.7	16.8	0.00e+00	0	34	0	969932800	72	4295
2026-01-01 04:23:36.74	304.88	15.69	-52.9	-54.5	16.8	0.00e+00	0	34	0	972029952	72	4233
2026-01-01 04:23:37.74	304.72	15.62	-52.9	-54.5	16.9	0.00e+00	0	34	0	973078528	72	4221
2026-01-01 04:23:38.74	304.56	15.55	-53.0	-54.6	16.8	0.00e+00	0	34	0	975175680	72	4272
2026-01-01 04:23:39.74	304.40	15.47	-53.0	-54.6	16.8	0.00e+00	0	34	0	977272832	72	4256
2026-01-01 04:23:40.74	304.25	15.40	-52.9	-54.5	16.8	0.00e+00	0	34	0	979369984	72	4222
2026-01-01 04:23:41.75	304.09	15.32	-52.9	-54.5	16.8	0.00e+00	0	34	0	981467136	72	4222
2026-01-01 04:23:42.74	303.94	15.25	-53.0	-54.7	16.7	0.00e+00	0	34	0	982515712	72	4292
2026-01-01 04:23:43.74	303.78	15.18	-53.1	-54.7	16.7	0.00e+00	0	34	0	984612864	72	4314
2026-01-01 04:23:44.74	303.63	15.10	-53.0	-54.7	16.8	0.00e+00	0	34	0	986710016	72	4294
2026-01-01 04:23:45.74	303.47	15.03	-53.1	-54.7	16.8	0.00e+00	0	34	0	988807168	72	4328
2026-01-01 04:23:46.75	303.32	14.95	-53.1	-54.8	16.7	0.00e+00	0	34	0	990904320	72	4352
2026-01-01 04:23:47.74	303.17	14.88	-53.2	-54.9	16.7	0.00e+00	0	34	0	991952896	72	4393
2026-01-01 04:23:48.75	303.02	14.80	-53.2	-54.9	16.7	0.00e+00	0	34	0	994050048	72	4418
2026-01-01 04:23:49.74	302.87	14.73	-53.3	-55.0	16.6	0.00e+00	0	34	0	996147200	72	4475
2026-01-01 04:23:50.74	302.72	14.66	-53.4	-55.1	16.6	0.00e+00	0	34	0	998244352	72	4498
2026-01-01 04:23:51.74	302.57	14.58	-53.4	-55.1	16.6	0.00e+00	0	34	0	1000341504	72	4535
2026-01-01 04:23:52.74	302.42	14.51	-53.5	-55.2	16.5	0.00e+00	0	34	0	1001390080	72	4577
2026-01-01 04:23:53.74	302.28	14.44	-53.5	-55.3	16.5	0.00e+00	0	34	0	1003487232	72	4615
2026-01-01 04:23:54.73	302.13	14.36	-53.6	-55.4	16.5	0.00e+00	0	34	0	1005584384	72	4669
2026-01-01 04:23:55.74	301.99	14.29	-53.8	-55.6	16.4	0.00e+00	0	34	0	1007681536	72	4762
2026-01-01 04:23:56.73	301.84	14.22	-53.8	-55.6	16.3	0.00e+00	0	34	0	1008730112	72	4788
2026-01-01 04:23:57.73	301.70	14.14	-53.9	-55.8	16.3	0.00e+00	0	34	0	1010827264	73	4609
2026-01-01 04:23:58.74	301.55	14.07	-53.9	-55.8	16.3	0.00e+00	0	34	0	1012924416	73	4607
2026-01-01 04:23:59.74	301.41	13.99	-53.9	-55.8	16.3	0.00e+00	0	34	0	1015021568	73	4602
2026-01-01 04:24:00.74	301.27	13.92	-53.8	-55.6	16.3	0.00e+00	0	34	0	1017118720	73	4536
2026-01-01 04:24:01.75	301.13	13.85	-53.8	-55.6	16.4	0.00e+00	0	34	0	1018167296	73	4515
2026-01-01 04:24:02.75	300.99	13.77	-53.8	-55.6	16.3	0.00e+00	0	34	0	1020264448	73	4533
2026-01-01 04:24:03.75	300.85	13.70	-53.8	-55.6	16.4	0.00e+00	0	34	0	1022361600	73	4520
2026-01-01 04:24:04.75	300.71	13.63	-53.6	-55.4	16.4	0.00e+00	0	34	0	1024458752	73	4399
2026-01-01 04:24:05.74	300.57	13.55	-53.6	-55.4	16.4	0.00e+00	0	34	0	1026555904	73	4416
2026-01-01 04:24:06.75	300.43	13.48	-53.8	-55.6	16.4	0.00e+00	0	34	0	1027604480	73	4524
2026-01-01 04:24:07.74	300.30	13.41	-53.7	-55.5	16.4	0.00e+00	0	34	0	1029701632	73	4467
2026-01-01 04:24:08.74	300.16	13.33	-53.9	-55.8	16.3	0.00e+00	0	34	0	1031798784	73	4609
2026-01-01 04:24:09.74	300.02	13.26	-54.0	-55.9	16.2	0.00e+00	0	34	0	1033895936	73	4663
2026-01-01 04:24:10.75	299.89	13.19	-54.1	-56.0	16.2	0.00e+00	0	34	0	1034944512	73	4753
2026-01-01 04:24:11.75	299.75	13.11	-54.3	-56.3	16.0	0.00e+00	0	33	0	1037041664	73	4887
2026-01-01 04:24:12.74	299.62	13.04	-54.3	-56.2	16.0	0.00e+00	0	34	0	1039138816	73	4868
2026-01-01 04:24:13.74	299.49	12.97	-54.3	-56.3	16.0	0.00e+00	0	34	0	1041235968	73	4875
2026-01-01 04:24:14.74	299.36	12.90	-54.2	-56.1	16.1	0.00e+00	0	34	0	1043333120	73	4799
2026-01-01 04:24:15.74	299.23	12.82	-54.1	-56.0	16.2	0.00e+00	0	34	0	1044381696	73	4737
2026-01-01 04:24:16.74	299.10	12.75	-54.1	-56.0	16.1	0.00e+00	0	34	0	1046478848	73	4732
2026-01-01 04:24:17.74	298.97	12.68	-54.1	-56.0	16.2	0.00e+00	0	34	0	1048576000	73	4712
2026-01-01 04:24:18.74	298.84	12.61	-54.1	-56.1	16.1	0.00e+00	0	34	0	1050673152	73	4760
2026-01-01 04:24:19.73	298.71	12.54	-54.1	-56.0	16.1	0.00e+00	0	34	0	1052770304	73	4712
2026-01-01 04:24:20.72	298.58	12.46	-54.1	-56.0	16.1	0.00e+00	0	34	0	1053818880	73	4714
2026-01-01 04:24:21.72	298.45	12.39	-54.1	-56.0	16.1	0.00e+00	0	34	0	1055916032	73	4752
2026-01-01 04:24:22.72	298.33	12.32	-54.3	-56.2	16.0	0.00e+00	0	34	0	1058013184	73	4849
2026-01-01 04:24:23.72	298.20	12.25	-54.3	-56.2	16.1	0.00e+00	0	34	0	1060110336	73	4847
2026-01-01 04:24:24.72	298.07	12.18	-54.3	-56.2	16.0	0.00e+00	0	34	0	1062207488	73	4858
2026-01-01 04:24:25.71	297.95	12.10	-54.3	-56.3	16.0	0.00e+00	0	34	0	1063256064	73	4887
2026-01-01 04:24:26.72	297.83	12.03	-54.4	-56.4	16.0	0.00e+00	0	34	0	1065353216	74	4673
2026-01-01 04:24:27.71	297.70	11.96	-54.4	-56.4	16.0	0.00e+00	0	34	0	1067450368	74	4656
2026-01-01 04:24:28.70	297.58	11.89	-54.4	-56.3	16.0	0.00e+00	0	34	0	1069547520	74	4629
2026-01-01 04:24:29.70	297.46	11.82	-54.4	-56.4	16.0	0.00e+00	0	34	0	1070596096	74	4657
2026-01-01 04:24:30.71	297.33	11.75	-54.4	-56.4	16.0	0.00e+00	0	34	0	1072693248	74	4654
2026-01-01 04:24:31.71	297.21	11.67	-54.5	-56.5	15.9	0.00e+00	0	34	0	1074790400	74	4729
2026-01-01 04:24:32.71	297.09	11.60	-54.5	-56.5	15.9	0.00e+00	0	34	0	1076887552	74	4753
2026-01-01 04:24:33.70	296.97	11.53	-54.6	-56.6	15.9	0.00e+00	0	34	0	1078984704	74	4780
2026-01-01 04:24:34.71	296.85	11.46	-54.6	-56.6	15.8	0.00e+00	0	34	0	1080033280	74	4780
2026-01-01 04:24:35.71	296.73	11.39	-54.6	-56.7	15.8	0.00e+00	0	34	0	1082130432	74	4817
2026-01-01 04:24:36.70	296.62	11.32	-54.7	-56.8	15.8	0.00e+00	0	34	0	1084227584	74	4897
2026-01-01 04:24:37.70	296.50	11.25	-54.6	-56.7	15.8	0.00e+00	0	34	0	1086324736	74	4834
2026-01-01 04:24:38.70	296.38	11.18	-54.7	-56.8	15.7	0.00e+00	0	34	0	1087373312	74	4909
2026-01-01 04:24:39.70	296.27	11.11	-54.8	-56.9	15.7	0.00e+00	0	34	0	1089470464	74	4932
2026-01-01 04:24:40.69	296.15	11.04	-54.8	-57.0	15.6	0.00e+00	0	34	0	1091567616	74	4998
2026-01-01 04:24:41.69	296.03	10.96	-54.9	-57.0	15.6	0.00e+00	0	34	0	1093664768	74	5028
2026-01-01 04:24:42.69	295.92	10.89	-54.9	-57.0	15.6	0.00e+00	0	34	0	1095761920	75	4747
2026-01-01 04:24:43.69	295.81	10.82	-54.8	-56.9	15.6	0.00e+00	0	34	0	1096810496	75	4703
2026-01-01 04:24:44.69	295.69	10.75	-54.9	-57.0	15.6	0.00e+00	0	34	0	1098907648	75	4744
2026-01-01 04:24:45.69	295.58	10.68	-54.9	-57.1	15.6	0.00e+00	0	34	0	1101004800	75	4778
2026-01-01 04:24:46.69	295.47	10.61	-54.7	-56.9	15.7	0.00e+00	0	34	0	1103101952	75	4654
2026-01-01 04:24:47.68	295.35	10.54	-54.8	-56.9	15.7	0.00e+00	0	34	0	1105199104	75	4667
2026-01-01 04:24:48.68	295.24	10.47	-54.7	-56.8	15.7	0.00e+00	0	34	0	1106247680	75	4630
2026-01-01 04:24:49.67	295.13	10.40	-54.8	-56.9	15.7	0.00e+00	0	34	0	1108344832	75	4675
2026-01-01 04:24:50.67	295.02	10.33	-54.9	-57.0	15.6	0.00e+00	0	34	0	1110441984	75	4739
2026-01-01 04:24:51.67	294.91	10.26	-54.9	-57.1	15.6	0.00e+00	0	34	0	1112539136	75	4767
2026-01-01 04:24:52.66	294.80	10.20	-55.1	-57.2	15.5	0.00e+00	0	34	0	1114636288	75	4869
2026-01-01 04:24:53.66	294.70	10.13	-55.0	-57.2	15.6	0.00e+00	0	34	0	1115684864	75	4828
2026-01-01 04:24:54.65	294.59	10.06	-55.1	-57.3	15.5	0.00e+00	0	34	0	1117782016	75	4895
2026-01-01 04:24:55.65	294.48	9.99	-55.3	-57.6	15.3	0.00e+00	0	34	0	1119879168	75	5061
2026-01-01 04:24:56.64	294.37	9.92	-55.4	-57.7	15.3	0.00e+00	0	34	0	1121976320	75	5137
2026-01-01 04:24:57.64	294.27	9.85	-55.5	-57.8	15.3	0.00e+00	0	34	0	1123024896	76	4901
2026-01-01 04:24:58.63	294.16	9.78	-55.5	-57.9	15.3	0.00e+00	0	34	0	1125122048	76	4933
2026-01-01 04:24:59.63	294.06	9.71	-55.4	-57.7	15.3	0.00e+00	0	34	0	1127219200	76	4836
2026-01-01 04:25:00.63	293.95	9.64	-55.5	-57.8	15.3	0.00e+00	0	34	0	1129316352	76	4920
2026-01-01 04:25:01.63	293.85	9.57	-55.5	-57.9	15.2	0.00e+00	0	34	0	1131413504	76	4972
2026-01-01 04:25:02.63	293.74	9.51	-55.5	-57.8	15.2	0.00e+00	0	34	0	1132462080	76	4910
2026-01-01 04:25:03.63	293.64	9.44	-55.5	-57.8	15.2	0.00e+00	0	34	0	1134559232	76	4926
2026-01-01 04:25:04.64	293.53	9.37	-55.5	-57.9	15.2	0.00e+00	0	34	0	1136656384	76	4934
2026-01-01 04:25:05.64	293.43	9.30	-55.5	-57.9	15.2	0.00e+00	0	34	0	1138753536	76	4951
2026-01-01 04:25:06.64	293.33	9.23	-55.6	-58.0	15.1	0.00e+00	0	34	0	1139802112	76	5019
2026-01-01 04:25:07.64	293.23	9.16	-55.7	-58.1	15.0	0.00e+00	0	34	0	1141899264	76	5092
2026-01-01 04:25:08.64	293.13	9.10	-55.8	-58.4	14.9	0.00e+00	0	34	0	1143996416	76	5231
2026-01-01 04:25:09.64	293.03	9.03	-55.8	-58.4	14.9	0.00e+00	0	34	0	1146093568	76	5221
2026-01-01 04:25:10.63	292.93	8.96	-55.9	-58.5	14.8	0.00e+00	0	34	0	1148190720	77	5009
2026-01-01 04:25:11.64	292.83	8.89	-55.9	-58.5	14.8	0.00e+00	0	34	0	1149239296	77	4992
2026-01-01 04:25:12.63	292.73	8.82	-55.9	-58.5	14.8	0.00e+00	0	34	0	1151336448	77	4993
2026-01-01 04:25:13.63	292.63	8.76	-55.9	-58.5	14.8	0.00e+00	0	34	0	1153433600	77	5015
2026-01-01 04:25:14.62	292.53	8.69	-55.9	-58.5	14.8	0.00e+00	0	34	0	1155530752	77	5023
2026-01-01 04:25:15.60	292.43	8.62	-56.0	-58.6	14.7	0.00e+00	0	34	0	1156579328	77	5069
2026-01-01 04:25:16.60	292.34	8.56	-55.8	-58.4	14.9	0.00e+00	0	34	0	1158676480	77	4935
2026-01-01 04:25:17.59	292.24	8.49	-55.8	-58.3	14.9	0.00e+00	0	34	0	1160773632	77	4910
2026-01-01 04:25:18.58	292.15	8.42	-55.8	-58.3	14.9	0.00e+00	0	34	0	1162870784	77	4917
2026-01-01 04:25:19.58	292.05	8.36	-55.7	-58.2	14.9	0.00e+00	0	34	0	1164967936	77	4861
2026-01-01 04:25:20.57	291.95	8.29	-55.7	-58.2	15.0	0.00e+00	0	34	0	1166016512	77	4829
2026-01-01 04:25:21.57	291.86	8.22	-55.6	-58.1	15.0	0.00e+00	0	34	0	1168113664	77	4772
2026-01-01 04:25:22.57	291.76	8.16	-55.7	-58.2	14.9	0.00e+00	0	34	0	1170210816	77	4823
2026-01-01 04:25:23.56	291.67	8.09	-55.8	-58.3	14.8	0.00e+00	0	34	0	1172307968	77	4921
2026-01-01 04:25:24.56	291.58	8.02	-55.7	-58.3	14.8	0.00e+00	0	34	0	1174405120	77	4886
2026-01-01 04:25:25.55	291.49	7.96	-55.7	-58.2	14.9	0.00e+00	0	34	0	1175453696	77	4851
2026-01-01 04:25:26.54	291.39	7.89	-55.8	-58.3	14.8	0.00e+00	0	34	0	1177550848	77	4918
2026-01-01 04:25:27.54	291.30	7.83	-55.9	-58.6	14.7	0.00e+00	0	34	0	1179648000	77	5064
2026-01-01 04:25:28.53	291.21	7.76	-55.9	-58.6	14.7	0.00e+00	0	34	0	1181745152	77	5047
2026-01-01 04:25:29.54	291.12	7.69	-55.9	-58.5	14.7	0.00e+00	0	34	0	1182793728	77	4996
2026-01-01 04:25:30.54	291.03	7.63	-56.0	-58.7	14.6	0.00e+00	0	34	0	1184890880	77	5123
2026-01-01 04:25:31.53	290.94	7.56	-56.0	-58.7	14.6	0.00e+00	0	34	0	1186988032	77	5156
2026-01-01 04:25:32.54	290.84	7.50	-56.1	-58.8	14.5	0.00e+00	0	34	0	1189085184	77	5176
2026-01-01 04:25:33.54	290.75	7.43	-56.0	-58.7	14.6	0.00e+00	0	34	0	1191182336	77	5103
2026-01-01 04:25:34.54	290.66	7.37	-56.1	-58.8	14.5	0.00e+00	0	34	0	1192230912	77	5181
2026-01-01 04:25:35.53	290.58	7.30	-56.2	-59.0	14.3	0.00e+00	0	34	0	1194328064	77	5289
2026-01-01 04:25:36.53	290.49	7.24	-56.2	-59.0	14.3	0.00e+00	0	33	0	1196425216	77	5305
2026-01-01 04:25:37.53	290.40	7.17	-56.1	-58.9	14.3	0.00e+00	0	34	0	1198522368	77	5243
2026-01-01 04:25:38.53	290.31	7.11	-56.1	-58.9	14.4	0.00e+00	0	34	0	1199570944	77	5254
2026-01-01 04:25:39.53	290.22	7.04	-56.3	-59.1	14.2	0.00e+00	0	34	0	1201668096	77	5402
2026-01-01 04:25:40.53	290.14	6.98	-56.2	-59.1	14.2	0.00e+00	0	34	0	1203765248	77	5365
2026-01-01 04:25:41.53	290.05	6.91	-56.3	-59.2	14.1	0.00e+00	0	34	0	1205862400	77	5461
2026-01-01 04:25:42.53	289.96	6.85	-56.3	-59.2	14.2	0.00e+00	0	34	0	1207959552	77	5413
2026-01-01 04:25:43.53	289.88	6.78	-56.1	-59.0	14.3	0.00e+00	0	34	0	1209008128	77	5309
2026-01-01 04:25:44.52	289.79	6.72	-56.3	-59.3	14.1	0.00e+00	0	34	0	1211105280	77	5496
