passes_logs/2026/01/01/R3.2S_Murmansk/R3.2S_Murmansk__20260101_110733_ZKG05_rec.log

#Pass ID: 20260101_110733_ZKG05
#Satellite: ZKG05
#Configuration: ZKG05
#almurnet v.1.7.20251203
#Start time: 2026-01-01 11:07:33

#Version: 2.2.20231116
#Station: R3.2S_Murmansk
#Location: 33.079688 lon 68.888172 lat
#TLE: 1 65263U 25180E   25363.54303023  .00006586  00000-0  34273-3 0  9994
#TLE: 2 65263  97.4772 128.0191 0001674  87.3453 272.7971 15.16366041 20011

#Time	Az	El	Level	Level2	SNR	BER	BlckErr	Temp	State	Recorded	gain1	gain2
2026-01-01 11:07:33.51	22.87	1.97	-59.6	-62.8	6.2	0.00e+00	0	40	0	0	85	20889
2026-01-01 11:07:34.51	22.96	2.03	-59.6	-62.8	6.2	0.00e+00	0	40	104	0	86	19778
2026-01-01 11:07:35.51	23.06	2.09	-59.6	-62.8	6.2	0.00e+00	0	40	104	0	85	20883
2026-01-01 11:07:36.50	23.15	2.15	-59.6	-62.8	6.2	0.00e+00	0	40	104	0	85	20892
2026-01-01 11:07:37.48	23.24	2.21	-59.6	-62.8	6.2	0.00e+00	0	40	104	0	85	20887
2026-01-01 11:07:38.48	23.33	2.27	-59.6	-62.7	6.2	0.00e+00	0	41	104	0	85	20840
2026-01-01 11:07:39.47	23.43	2.33	-59.6	-62.8	6.2	0.00e+00	0	41	104	0	85	20922
2026-01-01 11:07:40.47	23.52	2.39	-59.6	-62.7	6.2	0.00e+00	0	40	104	0	85	20872
2026-01-01 11:07:41.46	23.62	2.45	-59.6	-62.8	6.2	0.00e+00	0	40	104	0	85	20935
2026-01-01 11:07:42.45	23.71	2.51	-59.6	-62.8	6.2	0.00e+00	0	41	104	0	85	20910
2026-01-01 11:07:43.45	23.81	2.57	-59.6	-62.7	6.2	0.00e+00	0	41	104	0	85	20852
2026-01-01 11:07:44.44	23.91	2.63	-59.6	-62.8	6.2	0.00e+00	0	41	104	0	85	20910
2026-01-01 11:07:45.43	24.00	2.69	-59.6	-62.8	6.2	0.00e+00	0	41	104	0	85	20948
2026-01-01 11:07:46.43	24.10	2.75	-59.6	-62.8	6.2	0.00e+00	0	41	104	0	85	20917
2026-01-01 11:07:47.43	24.20	2.81	-59.6	-62.8	6.2	0.00e+00	0	41	104	0	85	20923
2026-01-01 11:07:48.42	24.30	2.87	-59.6	-62.8	6.2	0.00e+00	0	41	104	0	85	20892
2026-01-01 11:07:49.41	24.39	2.93	-59.6	-62.7	6.2	0.00e+00	0	41	104	0	85	20857
2026-01-01 11:07:50.41	24.49	2.99	-59.6	-62.7	6.2	0.00e+00	0	41	104	0	85	20846
2026-01-01 11:07:51.40	24.59	3.05	-59.6	-62.8	6.2	0.00e+00	0	41	104	0	85	20887
2026-01-01 11:07:52.39	24.69	3.12	-59.6	-62.7	6.2	0.00e+00	0	41	104	0	85	20862
2026-01-01 11:07:53.38	24.79	3.18	-59.6	-62.8	6.2	0.00e+00	0	41	104	0	85	20889
2026-01-01 11:07:54.37	24.89	3.24	-59.6	-62.8	6.2	0.00e+00	0	41	104	0	85	20877
2026-01-01 11:07:55.37	25.00	3.30	-59.6	-62.7	6.2	0.00e+00	0	41	104	0	85	20844
2026-01-01 11:07:56.37	25.10	3.36	-59.6	-62.8	6.2	0.00e+00	0	41	104	0	85	20874
2026-01-01 11:07:57.36	25.20	3.42	-59.6	-62.8	6.2	0.00e+00	0	41	104	0	85	20908
2026-01-01 11:07:58.35	25.31	3.48	-59.6	-62.8	6.2	0.00e+00	0	41	104	0	85	20893
2026-01-01 11:07:59.34	25.41	3.55	-59.6	-62.8	6.2	0.00e+00	0	41	104	0	85	20903
2026-01-01 11:08:00.33	25.51	3.61	-59.6	-62.8	6.2	0.00e+00	0	41	104	0	85	20893
2026-01-01 11:08:01.33	25.62	3.67	-59.6	-62.8	6.2	0.00e+00	0	41	104	0	85	20916
2026-01-01 11:08:02.32	25.72	3.73	-59.6	-62.8	6.2	0.00e+00	0	41	104	0	85	20982
2026-01-01 11:08:03.32	25.83	3.80	-59.6	-62.8	6.2	0.00e+00	0	41	104	0	85	20903
2026-01-01 11:08:04.31	25.94	3.86	-59.6	-62.8	6.2	0.00e+00	0	41	104	0	85	20948
2026-01-01 11:08:05.30	26.04	3.92	-59.6	-62.8	6.2	0.00e+00	0	41	104	0	85	20913
2026-01-01 11:08:06.30	26.15	3.98	-59.6	-62.8	6.2	0.00e+00	0	41	104	0	85	20906
2026-01-01 11:08:07.29	26.26	4.05	-59.6	-62.8	6.2	0.00e+00	0	41	104	0	85	20881
2026-01-01 11:08:08.28	26.37	4.11	-59.6	-62.8	6.2	0.00e+00	0	41	104	0	85	20892
2026-01-01 11:08:09.27	26.48	4.17	-59.6	-62.8	6.2	0.00e+00	0	41	104	0	85	20953
2026-01-01 11:08:10.27	26.59	4.24	-59.6	-62.7	6.2	0.00e+00	0	41	104	0	85	20855
2026-01-01 11:08:11.26	26.70	4.30	-59.6	-62.8	6.2	0.00e+00	0	41	104	0	85	20873
2026-01-01 11:08:12.25	26.81	4.36	-59.6	-62.8	6.2	0.00e+00	0	41	104	0	85	20914
2026-01-01 11:08:13.24	26.92	4.43	-59.6	-62.8	6.2	0.00e+00	0	41	104	0	85	20991
2026-01-01 11:08:14.24	27.03	4.49	-59.6	-62.7	6.2	0.00e+00	0	41	104	0	85	20862
2026-01-01 11:08:15.23	27.14	4.55	-59.6	-62.7	6.2	0.00e+00	0	41	104	0	85	20822
2026-01-01 11:08:16.22	27.26	4.62	-59.6	-62.7	6.2	0.00e+00	0	41	104	0	85	20758
2026-01-01 11:08:17.22	27.37	4.68	-59.6	-62.7	6.2	0.00e+00	0	42	104	0	85	20786
2026-01-01 11:08:18.21	27.48	4.75	-59.6	-62.7	6.2	0.00e+00	0	41	104	0	85	20696
2026-01-01 11:08:19.20	27.60	4.81	-59.5	-62.6	6.2	0.00e+00	0	41	104	0	85	20573
2026-01-01 11:08:20.19	27.71	4.87	-59.5	-62.7	6.2	0.00e+00	0	42	104	0	85	20683
2026-01-01 11:08:21.19	27.83	4.94	-59.5	-62.6	6.2	0.00e+00	0	42	104	0	85	20629
2026-01-01 11:08:22.18	27.95	5.00	-59.5	-62.7	6.2	0.00e+00	0	42	104	0	85	20722
2026-01-01 11:08:23.17	28.06	5.07	-59.6	-62.7	6.2	0.00e+00	0	42	104	0	85	20705
2026-01-01 11:08:24.17	28.18	5.13	-59.6	-62.7	6.2	0.00e+00	0	42	104	0	85	20809
2026-01-01 11:08:25.16	28.30	5.20	-59.5	-62.7	6.2	0.00e+00	0	42	104	0	85	20670
2026-01-01 11:08:26.16	28.42	5.26	-59.8	-62.9	6.2	0.00e+00	0	42	104	0	85	21222
2026-01-01 11:08:27.15	28.54	5.33	-59.6	-62.6	6.2	0.00e+00	0	42	104	0	85	20508
2026-01-01 11:08:28.15	28.66	5.40	-59.6	-62.8	6.2	0.00e+00	0	42	104	0	85	20930
2026-01-01 11:08:29.14	28.78	5.46	-59.6	-62.7	6.2	0.00e+00	0	42	104	0	85	20840
2026-01-01 11:08:30.14	28.91	5.53	-59.8	-62.9	6.2	0.00e+00	0	42	104	0	85	21252
2026-01-01 11:08:31.13	29.03	5.59	-59.8	-62.9	6.2	0.00e+00	0	42	104	0	85	21161
2026-01-01 11:08:32.12	29.15	5.66	-59.7	-62.9	6.2	0.00e+00	0	42	104	0	85	21156
2026-01-01 11:08:33.11	29.28	5.72	-59.7	-62.8	6.2	0.00e+00	0	42	104	0	85	20963
2026-01-01 11:08:34.10	29.40	5.79	-59.9	-63.0	6.2	0.00e+00	0	42	104	0	85	21366
2026-01-01 11:08:35.09	29.52	5.86	-59.9	-63.0	6.2	0.00e+00	0	42	104	0	85	21560
2026-01-01 11:08:36.08	29.65	5.92	-59.7	-62.9	6.2	0.00e+00	0	42	104	0	85	21252
2026-01-01 11:08:37.08	29.78	5.99	-59.7	-62.8	6.2	0.00e+00	0	42	104	0	85	21014
2026-01-01 11:08:38.08	29.91	6.06	-60.0	-63.1	6.2	0.00e+00	0	42	104	0	85	21738
2026-01-01 11:08:39.07	30.03	6.12	-59.9	-63.0	6.2	0.00e+00	0	42	104	0	85	21582
2026-01-01 11:08:40.07	30.16	6.19	-59.8	-63.0	6.2	0.00e+00	0	42	104	0	85	21415
2026-01-01 11:08:41.07	30.29	6.26	-59.8	-62.9	6.2	0.00e+00	0	42	104	0	85	21227
2026-01-01 11:08:42.06	30.42	6.33	-60.0	-63.1	6.2	0.00e+00	0	42	104	0	85	21779
2026-01-01 11:08:43.06	30.56	6.39	-60.0	-63.1	6.2	0.00e+00	0	42	104	0	85	21756
2026-01-01 11:08:44.06	30.69	6.46	-59.8	-63.0	6.2	0.00e+00	0	42	104	0	85	21493
2026-01-01 11:08:45.05	30.82	6.53	-59.8	-62.9	6.2	0.00e+00	0	42	104	0	85	21306
2026-01-01 11:08:46.05	30.95	6.60	-60.1	-63.2	6.2	0.00e+00	0	42	104	0	85	21959
2026-01-01 11:08:47.04	31.09	6.66	-60.0	-63.1	6.2	0.00e+00	0	42	104	0	85	21748
2026-01-01 11:08:48.03	31.22	6.73	-59.8	-63.0	6.2	0.00e+00	0	42	104	0	85	21545
2026-01-01 11:08:49.02	31.36	6.80	-59.8	-63.0	6.2	0.00e+00	0	42	104	0	85	21481
2026-01-01 11:08:50.01	31.49	6.87	-60.1	-63.2	6.2	0.00e+00	0	42	104	0	85	22026
2026-01-01 11:08:51.01	31.63	6.94	-60.0	-63.2	6.2	0.00e+00	0	42	104	0	85	21919
2026-01-01 11:08:52.00	31.77	7.01	-59.9	-63.1	6.2	0.00e+00	0	42	104	0	85	21683
2026-01-01 11:08:53.00	31.91	7.07	-59.9	-63.0	6.2	0.00e+00	0	42	104	0	85	21606
2026-01-01 11:08:53.99	32.05	7.14	-60.1	-63.3	6.2	0.00e+00	0	42	104	0	85	22187
2026-01-01 11:08:54.98	32.19	7.21	-60.0	-63.2	6.2	0.00e+00	0	42	104	0	85	21960
2026-01-01 11:08:55.97	32.33	7.28	-59.9	-63.1	6.2	0.00e+00	0	42	104	0	85	21787
2026-01-01 11:08:56.96	32.47	7.35	-59.9	-63.1	6.2	0.00e+00	0	42	104	0	85	21642
2026-01-01 11:08:57.96	32.61	7.42	-60.1	-63.3	6.2	0.00e+00	0	42	104	0	85	22145
2026-01-01 11:08:58.96	32.76	7.49	-60.1	-63.2	6.2	0.00e+00	0	42	104	0	85	22029
2026-01-01 11:08:59.95	32.90	7.56	-59.9	-63.1	6.2	0.00e+00	0	42	104	0	85	21830
2026-01-01 11:09:00.94	33.04	7.63	-60.0	-63.1	6.2	0.00e+00	0	42	104	0	85	21808
2026-01-01 11:09:01.92	33.19	7.70	-60.1	-63.3	6.2	0.00e+00	0	42	104	0	85	22144
2026-01-01 11:09:02.92	33.33	7.77	-60.1	-63.2	6.2	0.00e+00	0	42	104	0	85	22063
2026-01-01 11:09:03.91	33.48	7.84	-60.0	-63.2	6.2	0.00e+00	0	42	104	0	85	21858
2026-01-01 11:09:04.90	33.63	7.91	-60.0	-63.1	6.2	0.00e+00	0	42	104	0	85	21834
2026-01-01 11:09:05.89	33.78	7.98	-60.2	-63.3	6.2	0.00e+00	0	42	104	0	85	22148
2026-01-01 11:09:06.88	33.93	8.05	-60.1	-63.3	6.2	0.00e+00	0	42	104	0	85	22169
2026-01-01 11:09:07.89	34.08	8.12	-60.0	-63.2	6.2	0.00e+00	0	42	104	0	85	22029
2026-01-01 11:09:08.89	34.23	8.19	-60.0	-63.2	6.2	0.00e+00	0	42	104	0	85	21938
2026-01-01 11:09:09.88	34.39	8.26	-60.2	-63.3	6.2	0.00e+00	0	42	104	0	85	22256
2026-01-01 11:09:10.88	34.54	8.33	-60.2	-63.3	6.2	0.00e+00	0	42	104	0	85	22219
2026-01-01 11:09:11.87	34.69	8.40	-60.0	-63.2	6.2	0.00e+00	0	42	104	0	85	22041
2026-01-01 11:09:12.87	34.85	8.47	-60.0	-63.1	6.2	0.00e+00	0	42	104	0	85	21846
2026-01-01 11:09:13.87	35.01	8.54	-60.2	-63.3	6.2	0.00e+00	0	42	104	0	85	22349
2026-01-01 11:09:14.86	35.16	8.61	-60.2	-63.3	6.2	0.00e+00	0	42	104	0	85	22323
2026-01-01 11:09:15.86	35.32	8.69	-60.1	-63.2	6.2	0.00e+00	0	42	104	0	85	22100
2026-01-01 11:09:16.85	35.48	8.76	-60.1	-63.3	6.2	0.00e+00	0	42	104	0	85	22113
2026-01-01 11:09:17.85	35.64	8.83	-60.2	-63.4	6.2	0.00e+00	0	42	104	0	85	22407
2026-01-01 11:09:18.84	35.80	8.90	-60.2	-63.3	6.2	0.00e+00	0	42	104	0	85	22296
2026-01-01 11:09:19.83	35.96	8.97	-60.1	-63.3	6.2	0.00e+00	0	42	104	0	85	22261
2026-01-01 11:09:20.83	36.13	9.04	-60.1	-63.2	6.2	0.00e+00	0	42	104	0	85	22065
2026-01-01 11:09:21.82	36.29	9.12	-60.2	-63.4	6.2	0.00e+00	0	42	104	0	85	22434
2026-01-01 11:09:22.81	36.45	9.19	-60.2	-63.4	6.2	0.00e+00	0	42	104	0	85	22382
2026-01-01 11:09:23.79	36.62	9.26	-60.1	-63.3	6.2	0.00e+00	0	42	104	0	85	22172
2026-01-01 11:09:24.78	36.78	9.33	-60.1	-63.3	6.2	0.00e+00	0	42	104	0	85	22176
2026-01-01 11:09:25.77	36.95	9.40	-60.3	-63.4	6.2	0.00e+00	0	42	104	0	85	22512
2026-01-01 11:09:26.77	37.12	9.47	-60.2	-63.4	6.2	0.00e+00	0	42	104	0	85	22430
2026-01-01 11:09:27.77	37.29	9.55	-60.2	-63.3	6.2	0.00e+00	0	42	104	0	85	22320
2026-01-01 11:09:28.75	37.46	9.62	-60.2	-63.3	6.2	0.00e+00	0	42	104	0	85	22200
2026-01-01 11:09:29.74	37.63	9.69	-60.3	-63.4	6.2	0.00e+00	0	42	104	0	85	22476
2026-01-01 11:09:30.74	37.80	9.76	-60.3	-63.4	6.2	0.00e+00	0	42	104	0	85	22431
2026-01-01 11:09:31.73	37.98	9.84	-60.2	-63.3	6.2	0.00e+00	0	42	104	0	85	22315
2026-01-01 11:09:32.72	38.15	9.91	-60.2	-63.3	6.2	0.00e+00	0	43	104	0	85	22328
2026-01-01 11:09:33.72	38.33	9.98	-60.3	-63.4	6.2	0.00e+00	0	42	104	0	85	22571
2026-01-01 11:09:34.70	38.50	10.06	-60.3	-63.4	6.2	0.00e+00	0	42	104	0	85	22591
2026-01-01 11:09:35.70	38.68	10.13	-60.2	-63.4	6.2	0.00e+00	0	42	104	0	85	22491
2026-01-01 11:09:36.70	38.86	10.20	-60.2	-63.4	6.2	0.00e+00	0	42	104	0	85	22387
2026-01-01 11:09:37.70	39.04	10.28	-60.3	-63.5	6.2	0.00e+00	0	42	104	0	85	22641
2026-01-01 11:09:38.69	39.22	10.35	-60.3	-63.5	6.2	0.00e+00	0	42	104	0	86	21464
2026-01-01 11:09:39.69	39.40	10.42	-60.3	-63.4	6.2	0.00e+00	0	42	104	0	86	21345
2026-01-01 11:09:40.68	39.59	10.50	-60.3	-63.4	6.2	0.00e+00	0	42	104	0	86	21265
2026-01-01 11:09:41.67	39.77	10.57	-60.3	-63.5	6.2	0.00e+00	0	42	104	0	86	21410
2026-01-01 11:09:42.66	39.95	10.64	-60.3	-63.5	6.2	0.00e+00	0	42	104	0	86	21417
2026-01-01 11:09:43.66	40.14	10.72	-60.3	-63.4	6.2	0.00e+00	0	42	104	0	86	21326
2026-01-01 11:09:44.66	40.33	10.79	-60.3	-63.4	6.2	0.00e+00	0	42	104	0	86	21260
2026-01-01 11:09:45.66	40.52	10.87	-60.3	-63.5	6.2	0.00e+00	0	42	104	0	86	21497
2026-01-01 11:09:46.65	40.71	10.94	-60.4	-63.5	6.2	0.00e+00	0	42	104	0	86	21467
2026-01-01 11:09:47.64	40.90	11.01	-60.3	-63.5	6.2	0.00e+00	0	42	104	0	86	21478
2026-01-01 11:09:48.63	41.09	11.09	-60.3	-63.4	6.2	0.00e+00	0	43	104	0	86	21321
2026-01-01 11:09:49.62	41.28	11.16	-60.4	-63.5	6.2	0.00e+00	0	42	104	0	86	21543
2026-01-01 11:09:50.62	41.48	11.23	-60.4	-63.5	6.2	0.00e+00	0	42	104	0	86	21556
2026-01-01 11:09:51.61	41.67	11.31	-60.4	-63.5	6.2	0.00e+00	0	42	104	0	86	21470
2026-01-01 11:09:52.61	41.87	11.38	-60.3	-63.4	6.2	0.00e+00	0	43	104	0	86	21349
2026-01-01 11:09:53.61	42.07	11.46	-60.4	-63.5	6.2	0.00e+00	0	43	104	0	86	21522
2026-01-01 11:09:54.61	42.27	11.53	-60.4	-63.5	6.2	0.00e+00	0	42	104	0	86	21521
2026-01-01 11:09:55.60	42.47	11.61	-60.4	-63.5	6.2	0.00e+00	0	42	104	0	86	21494
2026-01-01 11:09:56.60	42.67	11.68	-60.3	-63.5	6.2	0.00e+00	0	42	104	0	86	21423
2026-01-01 11:09:57.59	42.87	11.75	-60.4	-63.5	6.2	0.00e+00	0	43	104	0	86	21545
2026-01-01 11:09:58.59	43.08	11.83	-60.4	-63.6	6.2	0.00e+00	0	42	104	0	86	21664
2026-01-01 11:09:59.58	43.28	11.90	-60.4	-63.5	6.2	0.00e+00	0	42	104	0	86	21588
2026-01-01 11:10:00.58	43.49	11.98	-60.4	-63.5	6.2	0.00e+00	0	42	104	0	86	21514
2026-01-01 11:10:01.56	43.69	12.05	-60.3	-63.5	6.2	0.00e+00	0	43	104	0	86	21451
2026-01-01 11:10:02.56	43.90	12.12	-60.2	-63.4	6.2	0.00e+00	0	43	104	0	86	21125
2026-01-01 11:10:03.55	44.11	12.20	-60.1	-63.2	6.2	0.00e+00	0	43	104	0	85	22092
2026-01-01 11:10:04.54	44.32	12.27	-59.6	-62.7	6.2	0.00e+00	0	42	104	0	85	20864
2026-01-01 11:10:05.54	44.53	12.35	-59.2	-62.3	6.2	0.00e+00	0	43	104	0	84	20963
2026-01-01 11:10:06.53	44.75	12.42	-59.4	-62.6	6.2	0.00e+00	0	43	104	0	84	21656
2026-01-01 11:10:07.53	44.96	12.50	-59.9	-63.0	6.2	0.00e+00	0	42	104	0	85	21425
2026-01-01 11:10:08.53	45.18	12.57	-60.4	-63.5	6.2	0.00e+00	0	43	104	0	86	21567
2026-01-01 11:10:09.53	45.40	12.64	-60.4	-63.5	6.2	0.00e+00	0	43	104	0	86	21546
2026-01-01 11:10:10.52	45.62	12.72	-60.2	-63.3	6.2	0.00e+00	0	42	104	0	86	21096
2026-01-01 11:10:11.52	45.84	12.79	-60.3	-63.5	6.2	0.00e+00	0	43	104	0	86	21382
2026-01-01 11:10:12.52	46.06	12.87	-60.4	-63.5	6.2	0.00e+00	0	42	104	0	86	21462
2026-01-01 11:10:13.51	46.28	12.94	-60.5	-63.6	6.2	0.00e+00	0	43	104	0	86	21814
2026-01-01 11:10:14.51	46.51	13.02	-60.4	-63.6	6.2	0.00e+00	0	43	104	0	86	21633
2026-01-01 11:10:15.51	46.73	13.09	-60.4	-63.6	6.2	0.00e+00	0	42	104	0	86	21644
2026-01-01 11:10:16.51	46.96	13.16	-60.5	-63.6	6.2	0.00e+00	0	43	104	0	86	21747
2026-01-01 11:10:17.50	47.19	13.24	-60.5	-63.7	6.2	0.00e+00	0	43	104	0	86	21907
2026-01-01 11:10:18.50	47.42	13.31	-60.5	-63.6	6.2	0.00e+00	0	43	104	0	86	21797
2026-01-01 11:10:19.49	47.65	13.38	-60.5	-63.6	6.2	0.00e+00	0	43	104	0	86	21738
2026-01-01 11:10:20.49	47.88	13.46	-60.5	-63.6	6.2	0.00e+00	0	42	104	0	86	21807
2026-01-01 11:10:21.48	48.11	13.53	-60.5	-63.7	6.2	0.00e+00	0	42	104	0	86	21925
2026-01-01 11:10:22.47	48.35	13.60	-60.5	-63.7	6.2	0.00e+00	0	43	104	0	86	21879
2026-01-01 11:10:23.46	48.58	13.68	-60.5	-63.6	6.2	0.00e+00	0	42	104	0	86	21788
2026-01-01 11:10:24.46	48.82	13.75	-60.5	-63.6	6.2	0.00e+00	0	43	104	0	86	21794
2026-01-01 11:10:25.45	49.06	13.82	-60.6	-63.7	6.2	0.00e+00	0	43	104	0	86	21979
2026-01-01 11:10:26.44	49.30	13.89	-60.5	-63.7	6.2	0.00e+00	0	42	104	0	86	21877
2026-01-01 11:10:27.43	49.54	13.97	-60.5	-63.6	6.2	0.00e+00	0	42	104	0	86	21815
2026-01-01 11:10:28.43	49.78	14.04	-60.5	-63.7	6.2	0.00e+00	0	43	104	0	86	21882
2026-01-01 11:10:29.41	50.02	14.11	-60.6	-63.7	6.2	0.00e+00	0	43	104	0	86	22060
2026-01-01 11:10:30.41	50.27	14.18	-60.5	-63.7	6.2	0.00e+00	0	43	104	0	86	21923
2026-01-01 11:10:31.40	50.51	14.26	-60.5	-63.7	6.2	0.00e+00	0	43	104	0	86	21858
2026-01-01 11:10:32.39	50.76	14.33	-60.5	-63.7	6.2	0.00e+00	0	42	104	0	86	21916
2026-01-01 11:10:33.39	51.01	14.40	-60.6	-63.7	6.2	0.00e+00	0	43	104	0	86	22026
2026-01-01 11:10:34.38	51.26	14.47	-60.6	-63.7	6.2	0.00e+00	0	43	104	0	86	22023
2026-01-01 11:10:35.37	51.51	14.54	-60.5	-63.7	6.2	0.00e+00	0	43	104	0	86	21914
2026-01-01 11:10:36.37	51.77	14.61	-60.5	-63.7	6.2	0.00e+00	0	43	104	0	86	21914
2026-01-01 11:10:37.36	52.02	14.68	-60.6	-63.7	6.2	0.00e+00	0	43	104	0	86	22058
2026-01-01 11:10:38.35	52.28	14.75	-60.6	-63.7	6.2	0.00e+00	0	43	104	0	86	22007
2026-01-01 11:10:39.34	52.53	14.82	-60.6	-63.7	6.2	0.00e+00	0	42	104	0	86	21993
2026-01-01 11:10:40.34	52.80	14.90	-60.6	-63.7	6.2	0.00e+00	0	43	104	0	86	21969
2026-01-01 11:10:41.33	53.05	14.97	-60.6	-63.8	6.2	0.00e+00	0	43	104	0	86	22227
2026-01-01 11:10:42.32	53.32	15.03	-60.6	-63.7	6.2	0.00e+00	0	43	104	0	86	22072
2026-01-01 11:10:43.32	53.58	15.10	-60.6	-63.7	6.2	0.00e+00	0	43	104	0	86	21974
2026-01-01 11:10:44.32	53.85	15.17	-60.6	-63.7	6.2	0.00e+00	0	43	104	0	86	22042
2026-01-01 11:10:45.30	54.11	15.24	-60.7	-63.8	6.2	0.00e+00	0	43	104	0	86	22239
2026-01-01 11:10:46.29	54.38	15.31	-60.6	-63.8	6.2	0.00e+00	0	42	104	0	86	22142
2026-01-01 11:10:47.29	54.65	15.38	-60.6	-63.7	6.2	0.00e+00	0	42	104	0	86	22042
2026-01-01 11:10:48.28	54.92	15.45	-60.6	-63.7	6.2	0.00e+00	0	43	104	0	86	22059
2026-01-01 11:10:49.27	55.19	15.52	-60.7	-63.8	6.2	0.00e+00	0	43	104	0	86	22222
2026-01-01 11:10:50.27	55.46	15.58	-60.6	-63.8	6.2	0.00e+00	0	43	104	0	86	22168
2026-01-01 11:10:51.26	55.74	15.65	-60.6	-63.8	6.2	0.00e+00	0	43	104	0	86	22116
2026-01-01 11:10:52.26	56.01	15.72	-60.6	-63.7	6.2	0.00e+00	0	43	104	0	86	22048
2026-01-01 11:10:53.25	56.29	15.79	-60.7	-63.8	6.2	0.00e+00	0	42	104	0	86	22333
2026-01-01 11:10:54.24	56.57	15.85	-60.7	-63.8	6.2	0.00e+00	0	42	104	0	86	22152
2026-01-01 11:10:55.24	56.85	15.92	-60.6	-63.7	6.2	0.00e+00	0	43	104	0	86	22086
2026-01-01 11:10:56.24	57.14	15.98	-60.6	-63.7	6.2	0.00e+00	0	43	104	0	86	22074
2026-01-01 11:10:57.23	57.42	16.05	-60.7	-63.9	6.2	0.00e+00	0	43	104	0	86	22407
2026-01-01 11:10:58.22	57.70	16.11	-60.7	-63.8	6.2	0.00e+00	0	43	104	0	86	22275
2026-01-01 11:10:59.22	57.99	16.18	-60.6	-63.8	6.2	0.00e+00	0	43	104	0	86	22179
2026-01-01 11:11:00.22	58.28	16.24	-60.6	-63.8	6.2	0.00e+00	0	43	104	0	86	22195
2026-01-01 11:11:01.21	58.57	16.31	-60.7	-63.9	6.2	0.00e+00	0	43	104	0	86	22421
2026-01-01 11:11:02.20	58.86	16.37	-60.7	-63.8	6.2	0.00e+00	0	43	104	0	86	22304
2026-01-01 11:11:03.20	59.15	16.43	-60.7	-63.8	6.2	0.00e+00	0	43	104	0	86	22234
2026-01-01 11:11:04.19	59.44	16.50	-60.6	-63.8	6.2	0.00e+00	0	43	104	0	86	22172
2026-01-01 11:11:05.17	59.73	16.56	-60.7	-63.9	6.2	0.00e+00	0	43	104	0	86	22427
2026-01-01 11:11:06.18	60.03	16.62	-60.7	-63.9	6.2	0.00e+00	0	43	104	0	86	22448
2026-01-01 11:11:07.17	60.33	16.68	-60.7	-63.8	6.2	0.00e+00	0	43	104	0	86	22335
2026-01-01 11:11:08.17	60.63	16.74	-60.7	-63.8	6.2	0.00e+00	0	43	104	0	86	22255
2026-01-01 11:11:09.16	60.93	16.80	-60.7	-63.9	6.2	0.00e+00	0	43	104	0	86	22442
2026-01-01 11:11:10.15	61.23	16.86	-60.7	-63.9	6.2	0.00e+00	0	43	104	0	86	22420
2026-01-01 11:11:11.15	61.53	16.92	-60.7	-63.8	6.2	0.00e+00	0	42	104	0	86	22252
2026-01-01 11:11:12.15	61.84	16.98	-60.7	-63.8	6.2	0.00e+00	0	43	104	0	86	22269
2026-01-01 11:11:13.14	62.15	17.04	-60.8	-63.9	6.2	0.00e+00	0	43	104	0	86	22505
2026-01-01 11:11:14.14	62.45	17.10	-60.7	-63.9	6.2	0.00e+00	0	43	104	0	86	22410
2026-01-01 11:11:15.14	62.76	17.15	-60.7	-63.8	6.2	0.00e+00	0	43	104	0	86	22360
2026-01-01 11:11:16.12	63.07	17.21	-60.7	-63.8	6.2	0.00e+00	0	43	104	0	86	22324
2026-01-01 11:11:17.12	63.38	17.27	-60.8	-63.9	6.2	0.00e+00	0	43	104	0	86	22559
2026-01-01 11:11:18.11	63.69	17.32	-60.7	-63.9	6.2	0.00e+00	0	43	104	0	86	22470
2026-01-01 11:11:19.10	64.01	17.38	-60.7	-63.9	6.2	0.00e+00	0	43	104	0	86	22402
2026-01-01 11:11:20.09	64.32	17.43	-60.7	-63.8	6.2	0.00e+00	0	43	104	0	86	22339
2026-01-01 11:11:21.08	64.63	17.48	-60.8	-63.9	6.2	0.00e+00	0	43	104	0	86	22550
2026-01-01 11:11:22.07	64.95	17.54	-60.8	-63.9	6.2	0.00e+00	0	43	104	0	86	22480
2026-01-01 11:11:23.06	65.27	17.59	-60.7	-63.9	6.2	0.00e+00	0	42	104	0	86	22413
2026-01-01 11:11:24.05	65.59	17.64	-60.7	-63.8	6.2	0.00e+00	0	43	104	0	86	22354
2026-01-01 11:11:25.05	65.91	17.69	-60.8	-64.0	6.2	0.00e+00	0	43	104	0	86	22683
2026-01-01 11:11:26.03	66.23	17.74	-60.8	-63.9	6.2	0.00e+00	0	43	104	0	86	22505
2026-01-01 11:11:27.03	66.55	17.79	-60.8	-63.9	6.2	0.00e+00	0	43	104	0	86	22484
2026-01-01 11:11:28.02	66.88	17.84	-60.7	-63.9	6.2	0.00e+00	0	43	104	0	86	22452
2026-01-01 11:11:29.02	67.21	17.89	-60.8	-63.9	6.2	0.00e+00	0	43	104	0	86	22575
2026-01-01 11:11:30.01	67.53	17.94	-60.8	-63.9	6.2	0.00e+00	0	43	104	0	86	22522
2026-01-01 11:11:31.00	67.86	17.98	-60.8	-63.9	6.2	0.00e+00	0	43	104	0	86	22438
2026-01-01 11:11:31.99	68.19	18.03	-60.8	-63.9	6.2	0.00e+00	0	43	104	0	86	22425
2026-01-01 11:11:32.99	68.52	18.08	-60.8	-64.0	6.2	0.00e+00	0	43	104	0	87	21369
2026-01-01 11:11:33.98	68.85	18.12	-60.8	-63.9	6.2	0.00e+00	0	43	104	0	87	21236
2026-01-01 11:11:34.98	69.19	18.17	-60.8	-63.9	6.2	0.00e+00	0	43	104	0	87	21197
2026-01-01 11:11:35.98	69.52	18.21	-60.7	-63.9	6.2	0.00e+00	0	43	104	0	87	21123
2026-01-01 11:11:36.97	69.86	18.25	-60.8	-64.0	6.2	0.00e+00	0	43	104	0	87	21468
2026-01-01 11:11:37.96	70.19	18.29	-60.8	-63.9	6.2	0.00e+00	0	43	104	0	87	21261
2026-01-01 11:11:38.95	70.53	18.33	-60.8	-63.9	6.2	0.00e+00	0	43	104	0	87	21262
2026-01-01 11:11:39.94	70.86	18.37	-60.7	-63.9	6.2	0.00e+00	0	43	104	0	87	21204
2026-01-01 11:11:40.94	71.21	18.41	-60.8	-64.0	6.2	0.00e+00	0	43	104	0	87	21419
2026-01-01 11:11:41.95	71.55	18.45	-60.8	-63.9	6.2	0.00e+00	0	43	104	0	87	21278
2026-01-01 11:11:42.94	71.89	18.49	-60.8	-63.9	6.2	0.00e+00	0	43	104	0	87	21288
2026-01-01 11:11:43.93	72.23	18.53	-60.7	-63.9	6.2	0.00e+00	0	43	104	0	87	21249
2026-01-01 11:11:44.92	72.57	18.57	-60.8	-64.0	6.2	0.00e+00	0	43	104	0	87	21489
2026-01-01 11:11:45.91	72.92	18.60	-60.8	-64.0	6.2	0.00e+00	0	43	104	0	87	21373
2026-01-01 11:11:46.90	73.26	18.64	-60.8	-63.9	6.2	0.00e+00	0	43	104	0	87	21342
2026-01-01 11:11:47.89	73.61	18.67	-60.8	-63.9	6.2	0.00e+00	0	43	104	0	87	21182
2026-01-01 11:11:48.89	73.95	18.70	-60.8	-64.0	6.2	0.00e+00	0	43	104	0	87	21406
2026-01-01 11:11:49.89	74.30	18.73	-60.8	-64.0	6.2	0.00e+00	0	43	104	0	87	21416
2026-01-01 11:11:50.88	74.65	18.77	-60.8	-63.9	6.2	0.00e+00	0	43	104	0	87	21298
2026-01-01 11:11:51.88	75.00	18.80	-60.8	-63.9	6.2	0.00e+00	0	43	104	0	87	21194
2026-01-01 11:11:52.88	75.36	18.83	-60.9	-64.0	6.2	0.00e+00	0	43	104	0	87	21508
2026-01-01 11:11:53.87	75.70	18.85	-60.8	-64.0	6.2	0.00e+00	0	43	104	0	87	21403
2026-01-01 11:11:54.87	76.06	18.88	-60.8	-64.0	6.2	0.00e+00	0	43	104	0	87	21359
2026-01-01 11:11:55.87	76.41	18.91	-60.8	-63.9	6.2	0.00e+00	0	43	104	0	87	21251
2026-01-01 11:11:56.86	76.76	18.93	-60.9	-64.0	6.2	0.00e+00	0	43	104	0	87	21495
2026-01-01 11:11:57.86	77.12	18.96	-60.8	-63.9	6.2	0.00e+00	0	43	104	0	87	21358
2026-01-01 11:11:58.86	77.48	18.98	-60.8	-64.0	6.2	0.00e+00	0	42	104	0	87	21456
2026-01-01 11:11:59.85	77.83	19.01	-60.8	-63.9	6.2	0.00e+00	0	43	104	0	87	21287
2026-01-01 11:12:00.84	78.18	19.03	-60.9	-64.0	6.2	0.00e+00	0	43	104	0	87	21465
2026-01-01 11:12:01.82	78.54	19.05	-60.8	-64.0	6.2	0.00e+00	0	43	104	0	87	21414
2026-01-01 11:12:02.81	78.89	19.07	-60.8	-64.0	6.2	0.00e+00	0	43	104	0	87	21393
2026-01-01 11:12:03.81	79.25	19.09	-60.8	-63.9	6.2	0.00e+00	0	43	104	0	87	21309
2026-01-01 11:12:04.81	79.61	19.11	-60.9	-64.0	6.2	0.00e+00	0	43	104	0	87	21444
2026-01-01 11:12:05.81	79.97	19.12	-60.8	-64.0	6.2	0.00e+00	0	43	104	0	87	21403
2026-01-01 11:12:06.82	80.33	19.14	-60.8	-64.0	6.2	0.00e+00	0	43	104	0	87	21390
2026-01-01 11:12:07.81	80.69	19.15	-60.8	-63.9	6.2	0.00e+00	0	43	104	0	87	21314
2026-01-01 11:12:08.81	81.05	19.17	-60.9	-64.0	6.2	0.00e+00	0	43	104	0	87	21487
2026-01-01 11:12:09.80	81.41	19.18	-60.8	-64.0	6.2	0.00e+00	0	43	104	0	87	21422
2026-01-01 11:12:10.80	81.77	19.19	-60.8	-64.0	6.2	0.00e+00	0	43	104	0	87	21373
2026-01-01 11:12:11.80	82.14	19.20	-60.8	-63.9	6.2	0.00e+00	0	43	104	0	87	21306
2026-01-01 11:12:12.80	82.50	19.21	-60.9	-64.0	6.2	0.00e+00	0	43	104	0	87	21494
2026-01-01 11:12:13.79	82.86	19.22	-60.8	-64.0	6.2	0.00e+00	0	43	104	0	87	21400
2026-01-01 11:12:14.79	83.22	19.23	-60.8	-64.0	6.2	0.00e+00	0	43	104	0	87	21381
2026-01-01 11:12:15.79	83.59	19.24	-60.8	-63.9	6.2	0.00e+00	0	43	104	0	87	21254
2026-01-01 11:12:16.78	83.95	19.24	-60.9	-64.0	6.2	0.00e+00	0	43	104	0	87	21429
2026-01-01 11:12:17.77	84.31	19.25	-60.8	-64.0	6.2	0.00e+00	0	43	104	0	87	21471
2026-01-01 11:12:18.77	84.67	19.25	-60.8	-64.0	6.2	0.00e+00	0	43	104	0	87	21430
2026-01-01 11:12:19.77	85.04	19.26	-60.8	-63.9	6.2	0.00e+00	0	43	104	0	87	21309
2026-01-01 11:12:20.77	85.40	19.26	-60.9	-64.0	6.2	0.00e+00	0	43	104	0	87	21517
2026-01-01 11:12:21.75	85.76	19.26	-60.8	-64.0	6.2	0.00e+00	0	43	104	0	87	21445
2026-01-01 11:12:22.75	86.12	19.26	-60.8	-63.9	6.2	0.00e+00	0	43	104	0	87	21332
2026-01-01 11:12:23.74	86.48	19.26	-60.8	-63.9	6.2	0.00e+00	0	43	104	0	87	21240
2026-01-01 11:12:24.74	86.85	19.26	-60.9	-64.0	6.2	0.00e+00	0	43	104	0	87	21451
2026-01-01 11:12:25.73	87.21	19.25	-60.8	-64.0	6.2	0.00e+00	0	43	104	0	87	21404
2026-01-01 11:12:26.72	87.57	19.25	-60.8	-63.9	6.2	0.00e+00	0	43	104	0	87	21331
2026-01-01 11:12:27.71	87.93	19.24	-60.8	-63.9	6.2	0.00e+00	0	43	104	0	87	21251
2026-01-01 11:12:28.71	88.29	19.24	-60.9	-64.0	6.2	0.00e+00	0	43	104	0	87	21451
2026-01-01 11:12:29.70	88.65	19.23	-60.8	-64.0	6.2	0.00e+00	0	43	104	0	87	21396
2026-01-01 11:12:30.69	89.01	19.22	-60.8	-64.0	6.2	0.00e+00	0	43	104	0	87	21452
2026-01-01 11:12:31.69	89.38	19.21	-60.8	-63.9	6.2	0.00e+00	0	43	104	0	87	21300
2026-01-01 11:12:32.68	89.74	19.20	-60.9	-64.0	6.2	0.00e+00	0	43	104	0	87	21485
2026-01-01 11:12:33.68	90.10	19.19	-60.8	-64.0	6.2	0.00e+00	0	43	104	0	87	21389
2026-01-01 11:12:34.67	90.46	19.18	-60.8	-64.0	6.2	0.00e+00	0	43	104	0	87	21436
2026-01-01 11:12:35.66	90.82	19.17	-60.8	-63.9	6.2	0.00e+00	0	43	104	0	87	21206
2026-01-01 11:12:36.66	91.18	19.15	-60.9	-64.0	6.2	0.00e+00	0	43	104	0	87	21481
2026-01-01 11:12:37.65	91.54	19.14	-60.8	-63.9	6.2	0.00e+00	0	43	104	0	87	21353
2026-01-01 11:12:38.63	91.89	19.12	-60.8	-64.0	6.2	0.00e+00	0	43	104	0	87	21459
2026-01-01 11:12:39.62	92.25	19.10	-60.8	-63.9	6.2	0.00e+00	0	43	104	0	87	21288
2026-01-01 11:12:40.62	92.61	19.09	-60.9	-64.0	6.2	0.00e+00	0	43	104	0	87	21547
2026-01-01 11:12:41.61	92.96	19.07	-60.8	-64.0	6.2	0.00e+00	0	43	104	0	87	21444
2026-01-01 11:12:42.60	93.32	19.05	-60.8	-64.0	6.2	0.00e+00	0	43	104	0	87	21450
2026-01-01 11:12:43.60	93.68	19.03	-60.8	-63.9	6.2	0.00e+00	0	43	104	0	87	21307
2026-01-01 11:12:44.59	94.03	19.00	-60.9	-64.0	6.2	0.00e+00	0	43	104	0	87	21475
2026-01-01 11:12:45.58	94.39	18.98	-60.9	-64.0	6.2	0.00e+00	0	43	104	0	87	21488
2026-01-01 11:12:46.57	94.74	18.96	-60.9	-64.0	6.2	0.00e+00	0	43	104	0	87	21400
2026-01-01 11:12:47.57	95.10	18.93	-60.8	-63.9	6.2	0.00e+00	0	43	104	0	87	21267
2026-01-01 11:12:48.56	95.45	18.91	-60.9	-64.0	6.2	0.00e+00	0	43	104	0	87	21468
2026-01-01 11:12:49.55	95.80	18.88	-60.9	-64.0	6.2	0.00e+00	0	43	104	0	87	21419
2026-01-01 11:12:50.54	96.15	18.85	-60.8	-64.0	6.2	0.00e+00	0	43	104	0	87	21469
2026-01-01 11:12:51.53	96.50	18.82	-60.8	-63.9	6.2	0.00e+00	0	43	104	0	87	21247
2026-01-01 11:12:52.53	96.85	18.79	-60.9	-64.0	6.2	0.00e+00	0	43	104	0	87	21502
2026-01-01 11:12:53.52	97.20	18.76	-60.9	-64.0	6.2	0.00e+00	0	43	104	0	87	21475
2026-01-01 11:12:54.52	97.55	18.73	-60.9	-64.0	6.2	0.00e+00	0	43	104	0	87	21514
2026-01-01 11:12:55.52	97.91	18.70	-60.8	-63.9	6.2	0.00e+00	0	43	104	0	87	21326
2026-01-01 11:12:56.51	98.25	18.67	-60.8	-64.0	6.2	0.00e+00	0	43	104	0	87	21481
2026-01-01 11:12:57.50	98.60	18.63	-60.9	-64.0	6.2	0.00e+00	0	43	104	0	87	21449
2026-01-01 11:12:58.48	98.94	18.60	-60.9	-64.0	6.2	0.00e+00	0	43	104	0	87	21466
2026-01-01 11:12:59.47	99.28	18.56	-60.8	-63.9	6.2	0.00e+00	0	43	104	0	87	21325
2026-01-01 11:13:00.46	99.62	18.53	-60.8	-64.0	6.2	0.00e+00	0	43	104	0	87	21521
2026-01-01 11:13:01.46	99.97	18.49	-60.9	-64.0	6.2	0.00e+00	0	43	104	0	87	21454
2026-01-01 11:13:02.45	100.31	18.45	-60.8	-64.0	6.2	0.00e+00	0	43	104	0	87	21495
2026-01-01 11:13:03.44	100.65	18.41	-60.8	-64.0	6.2	0.00e+00	0	43	104	0	87	21372
2026-01-01 11:13:04.44	100.99	18.37	-60.8	-64.0	6.2	0.00e+00	0	43	104	0	87	21415
2026-01-01 11:13:05.43	101.33	18.33	-60.8	-64.0	6.2	0.00e+00	0	43	104	0	87	21441
2026-01-01 11:13:06.42	101.67	18.29	-60.9	-64.0	6.2	0.00e+00	0	43	104	0	87	21437
2026-01-01 11:13:07.41	102.00	18.25	-60.8	-63.9	6.2	0.00e+00	0	43	104	0	87	21298
2026-01-01 11:13:08.42	102.34	18.20	-60.8	-64.0	6.2	0.00e+00	0	43	104	0	87	21467
2026-01-01 11:13:09.41	102.68	18.16	-60.8	-64.0	6.2	0.00e+00	0	43	104	0	87	21456
2026-01-01 11:13:10.41	103.01	18.12	-60.8	-64.0	6.2	0.00e+00	0	43	104	0	87	21407
2026-01-01 11:13:11.40	103.34	18.07	-60.8	-64.0	6.2	0.00e+00	0	43	104	0	87	21383
2026-01-01 11:13:12.38	103.67	18.03	-60.8	-64.0	6.2	0.00e+00	0	43	104	0	87	21386
2026-01-01 11:13:13.37	104.00	17.98	-60.8	-64.0	6.2	0.00e+00	0	43	104	0	87	21426
2026-01-01 11:13:14.37	104.33	17.93	-60.8	-64.0	6.2	0.00e+00	0	43	104	0	87	21451
2026-01-01 11:13:15.38	104.67	17.88	-60.8	-64.0	6.2	0.00e+00	0	43	104	0	87	21419
2026-01-01 11:13:16.37	104.99	17.83	-60.8	-64.0	6.2	0.00e+00	0	43	104	0	87	21378
2026-01-01 11:13:17.36	105.32	17.79	-60.8	-64.0	6.2	0.00e+00	0	43	104	0	87	21462
2026-01-01 11:13:18.35	105.64	17.74	-60.8	-64.0	6.2	0.00e+00	0	43	104	0	87	21434
2026-01-01 11:13:19.35	105.97	17.68	-60.8	-64.0	6.2	0.00e+00	0	43	104	0	87	21379
2026-01-01 11:13:20.34	106.29	17.63	-60.8	-63.9	6.2	0.00e+00	0	43	104	0	87	21302
2026-01-01 11:13:21.33	106.61	17.58	-60.8	-64.0	6.2	0.00e+00	0	43	104	0	87	21448
2026-01-01 11:13:22.33	106.93	17.53	-60.8	-64.0	6.2	0.00e+00	0	43	104	0	87	21361
2026-01-01 11:13:23.32	107.24	17.47	-60.8	-64.0	6.2	0.00e+00	0	43	104	0	87	21373
2026-01-01 11:13:24.31	107.56	17.42	-60.8	-64.0	6.2	0.00e+00	0	43	104	0	87	21379
2026-01-01 11:13:25.30	107.88	17.37	-60.8	-64.0	6.2	0.00e+00	0	43	104	0	87	21480
2026-01-01 11:13:26.30	108.19	17.31	-60.8	-64.0	6.2	0.00e+00	0	43	104	0	87	21452
2026-01-01 11:13:27.29	108.50	17.26	-60.8	-63.9	6.2	0.00e+00	0	43	104	0	87	21356
2026-01-01 11:13:28.28	108.81	17.20	-60.8	-63.9	6.2	0.00e+00	0	43	104	0	87	21317
2026-01-01 11:13:29.27	109.12	17.14	-60.8	-64.0	6.2	0.00e+00	0	43	104	0	87	21467
2026-01-01 11:13:30.27	109.44	17.08	-60.8	-64.0	6.2	0.00e+00	0	43	104	0	87	21370
2026-01-01 11:13:31.26	109.74	17.03	-60.8	-64.0	6.2	0.00e+00	0	43	104	0	87	21378
2026-01-01 11:13:32.25	110.05	16.97	-60.8	-64.0	6.2	0.00e+00	0	43	104	0	87	21397
2026-01-01 11:13:33.25	110.36	16.91	-60.8	-64.0	6.2	0.00e+00	0	43	104	0	87	21511
2026-01-01 11:13:34.23	110.66	16.85	-60.8	-63.9	6.2	0.00e+00	0	43	104	0	87	21319
2026-01-01 11:13:35.22	110.96	16.79	-60.8	-63.9	6.2	0.00e+00	0	43	104	0	87	21338
2026-01-01 11:13:36.21	111.26	16.73	-60.8	-63.9	6.2	0.00e+00	0	43	104	0	87	21267
2026-01-01 11:13:37.19	111.55	16.67	-60.8	-63.9	6.2	0.00e+00	0	43	104	0	87	21341
2026-01-01 11:13:38.19	111.85	16.61	-60.8	-63.9	6.2	0.00e+00	0	43	104	0	87	21232
2026-01-01 11:13:39.18	112.15	16.55	-60.8	-63.9	6.2	0.00e+00	0	43	104	0	87	21258
2026-01-01 11:13:40.17	112.44	16.48	-60.8	-63.9	6.2	0.00e+00	0	43	104	0	87	21235
2026-01-01 11:13:41.16	112.74	16.42	-60.8	-64.0	6.2	0.00e+00	0	43	104	0	87	21373
2026-01-01 11:13:42.16	113.03	16.36	-60.8	-63.9	6.2	0.00e+00	0	43	104	0	87	21178
2026-01-01 11:13:43.15	113.32	16.29	-60.8	-63.9	6.2	0.00e+00	0	43	104	0	87	21299
2026-01-01 11:13:44.14	113.61	16.23	-60.7	-63.9	6.2	0.00e+00	0	43	104	0	87	21171
2026-01-01 11:13:45.14	113.90	16.17	-60.8	-63.9	6.2	0.00e+00	0	43	104	0	87	21301
2026-01-01 11:13:46.13	114.19	16.10	-60.7	-63.9	6.2	0.00e+00	0	43	104	0	87	21222
2026-01-01 11:13:47.13	114.48	16.04	-60.8	-63.9	6.2	0.00e+00	0	43	104	0	87	21207
2026-01-01 11:13:48.14	114.76	15.97	-60.7	-63.9	6.2	0.00e+00	0	43	104	0	87	21168
2026-01-01 11:13:49.13	115.05	15.90	-60.7	-63.9	6.2	0.00e+00	0	43	104	0	87	21202
2026-01-01 11:13:50.13	115.33	15.84	-60.7	-63.8	6.2	0.00e+00	0	43	104	0	87	21087
2026-01-01 11:13:51.13	115.61	15.77	-60.7	-63.8	6.2	0.00e+00	0	43	104	0	87	21091
2026-01-01 11:13:52.11	115.89	15.70	-60.7	-63.8	6.2	0.00e+00	0	43	104	0	87	21091
2026-01-01 11:13:53.11	116.17	15.63	-60.7	-63.8	6.2	0.00e+00	0	43	104	0	87	21105
2026-01-01 11:13:54.10	116.44	15.57	-60.7	-63.8	6.2	0.00e+00	0	43	104	0	87	21041
2026-01-01 11:13:55.10	116.72	15.50	-60.7	-63.9	6.2	0.00e+00	0	43	104	0	87	21119
2026-01-01 11:13:56.09	116.99	15.43	-60.7	-63.8	6.2	0.00e+00	0	43	104	0	87	21008
2026-01-01 11:13:57.08	117.26	15.36	-60.7	-63.8	6.2	0.00e+00	0	43	104	0	87	21049
2026-01-01 11:13:58.07	117.53	15.29	-60.7	-63.8	6.2	0.00e+00	0	43	104	0	87	20998
2026-01-01 11:13:59.07	117.80	15.22	-60.7	-63.8	6.2	0.00e+00	0	43	104	0	87	21003
2026-01-01 11:14:00.06	118.07	15.15	-60.6	-63.8	6.2	0.00e+00	0	43	104	0	87	20947
2026-01-01 11:14:01.06	118.33	15.08	-60.7	-63.8	6.2	0.00e+00	0	43	104	0	87	20995
2026-01-01 11:14:02.05	118.60	15.01	-60.6	-63.8	6.2	0.00e+00	0	43	104	0	87	20965
2026-01-01 11:14:03.05	118.86	14.94	-60.7	-63.8	6.2	0.00e+00	0	43	104	0	87	21101
2026-01-01 11:14:04.04	119.12	14.87	-60.6	-63.8	6.2	0.00e+00	0	43	104	0	87	20947
2026-01-01 11:14:05.03	119.38	14.80	-60.7	-63.8	6.2	0.00e+00	0	43	104	0	87	21058
2026-01-01 11:14:06.02	119.64	14.73	-60.6	-63.7	6.2	0.00e+00	0	43	104	0	87	20854
2026-01-01 11:14:07.02	119.90	14.66	-60.6	-63.8	6.2	0.00e+00	0	43	104	0	87	20971
2026-01-01 11:14:08.01	120.15	14.59	-60.6	-63.7	6.2	0.00e+00	0	43	104	0	87	20746
2026-01-01 11:14:09.01	120.41	14.52	-60.6	-63.7	6.2	0.00e+00	0	43	104	0	87	20819
2026-01-01 11:14:10.01	120.66	14.44	-60.5	-63.7	6.2	0.00e+00	0	43	104	0	87	20676
2026-01-01 11:14:11.01	120.92	14.37	-60.6	-63.7	6.2	0.00e+00	0	43	104	0	87	20793
2026-01-01 11:14:12.00	121.17	14.30	-60.5	-63.7	6.2	0.00e+00	0	43	104	0	87	20658
2026-01-01 11:14:12.99	121.42	14.23	-60.5	-63.7	6.2	0.00e+00	0	43	104	0	87	20692
2026-01-01 11:14:13.98	121.66	14.16	-60.5	-63.6	6.2	0.00e+00	0	43	104	0	87	20587
2026-01-01 11:14:14.98	121.91	14.08	-60.5	-63.6	6.2	0.00e+00	0	43	104	0	87	20596
2026-01-01 11:14:15.98	122.16	14.01	-60.5	-63.6	6.2	0.00e+00	0	43	104	0	87	20510
2026-01-01 11:14:16.97	122.40	13.94	-60.5	-63.7	6.2	0.00e+00	0	43	104	0	87	20689
2026-01-01 11:14:17.97	122.64	13.86	-60.5	-63.6	6.2	0.00e+00	0	43	104	0	87	20482
2026-01-01 11:14:18.96	122.88	13.79	-60.4	-63.6	6.2	0.00e+00	0	43	104	0	87	20496
2026-01-01 11:14:19.95	123.12	13.72	-60.4	-63.6	6.2	0.00e+00	0	43	104	0	87	20405
2026-01-01 11:14:20.95	123.36	13.64	-60.5	-63.6	6.2	0.00e+00	0	43	104	0	87	20534
2026-01-01 11:14:21.94	123.60	13.57	-60.4	-63.6	6.2	0.00e+00	0	43	104	0	87	20421
2026-01-01 11:14:22.94	123.83	13.50	-60.4	-63.6	6.2	0.00e+00	0	43	104	0	87	20400
2026-01-01 11:14:23.93	124.07	13.42	-60.4	-63.5	6.2	0.00e+00	0	43	104	0	87	20329
2026-01-01 11:14:24.92	124.30	13.35	-60.4	-63.6	6.2	0.00e+00	0	43	104	0	87	20489
2026-01-01 11:14:25.91	124.53	13.27	-60.4	-63.5	6.2	0.00e+00	0	43	104	0	87	20336
2026-01-01 11:14:26.90	124.76	13.20	-60.4	-63.5	6.2	0.00e+00	0	43	104	0	87	20317
2026-01-01 11:14:27.90	124.99	13.13	-60.3	-63.5	6.2	0.00e+00	0	43	104	0	87	20304
2026-01-01 11:14:28.89	125.21	13.05	-60.4	-63.6	6.2	0.00e+00	0	43	104	0	87	20408
2026-01-01 11:14:29.89	125.44	12.98	-60.4	-63.5	6.2	0.00e+00	0	43	104	0	87	20265
2026-01-01 11:14:30.87	125.66	12.90	-60.3	-63.5	6.2	0.00e+00	0	43	104	0	87	20215
2026-01-01 11:14:31.86	125.88	12.83	-60.3	-63.5	6.2	0.00e+00	0	43	104	0	87	20201
2026-01-01 11:14:32.86	126.11	12.76	-60.4	-63.5	6.2	0.00e+00	0	43	104	0	87	20354
2026-01-01 11:14:33.84	126.33	12.68	-60.3	-63.5	6.2	0.00e+00	0	43	104	0	87	20196
2026-01-01 11:14:34.83	126.54	12.61	-60.3	-63.4	6.2	0.00e+00	0	43	104	0	87	20138
2026-01-01 11:14:35.82	126.76	12.53	-60.3	-63.4	6.2	0.00e+00	0	43	104	0	87	20129
2026-01-01 11:14:36.82	126.98	12.46	-60.3	-63.5	6.2	0.00e+00	0	43	104	0	87	20227
2026-01-01 11:14:37.81	127.19	12.38	-60.3	-63.4	6.2	0.00e+00	0	43	104	0	87	20138
2026-01-01 11:14:38.80	127.41	12.31	-60.3	-63.4	6.2	0.00e+00	0	43	104	0	87	20103
2026-01-01 11:14:39.79	127.62	12.24	-60.3	-63.4	6.2	0.00e+00	0	43	104	0	87	20077
2026-01-01 11:14:40.78	127.83	12.16	-60.3	-63.4	6.2	0.00e+00	0	43	104	0	87	20150
2026-01-01 11:14:41.78	128.04	12.09	-60.3	-63.4	6.2	0.00e+00	0	43	104	0	87	20050
2026-01-01 11:14:42.77	128.25	12.01	-60.3	-63.4	6.2	0.00e+00	0	43	104	0	87	20023
2026-01-01 11:14:43.76	128.46	11.94	-60.2	-63.4	6.2	0.00e+00	0	43	104	0	87	19972
2026-01-01 11:14:44.76	128.67	11.86	-60.3	-63.4	6.2	0.00e+00	0	43	104	0	87	20126
2026-01-01 11:14:45.77	128.88	11.79	-60.2	-63.4	6.2	0.00e+00	0	43	104	0	87	19975
2026-01-01 11:14:46.76	129.08	11.71	-60.2	-63.4	6.2	0.00e+00	0	43	104	0	87	20007
2026-01-01 11:14:47.76	129.28	11.64	-60.2	-63.4	6.2	0.00e+00	0	43	104	0	87	19941
2026-01-01 11:14:48.75	129.49	11.56	-60.3	-63.4	6.2	0.00e+00	0	43	104	0	87	20048
2026-01-01 11:14:49.75	129.69	11.49	-60.2	-63.3	6.2	0.00e+00	0	43	104	0	87	19922
2026-01-01 11:14:50.74	129.89	11.41	-60.2	-63.3	6.2	0.00e+00	0	43	104	0	87	19903
2026-01-01 11:14:51.73	130.08	11.34	-60.2	-63.3	6.2	0.00e+00	0	43	104	0	87	19883
2026-01-01 11:14:52.73	130.28	11.26	-60.2	-63.4	6.2	0.00e+00	0	43	104	0	87	19990
2026-01-01 11:14:53.72	130.48	11.19	-60.2	-63.3	6.2	0.00e+00	0	43	104	0	87	19880
2026-01-01 11:14:54.71	130.67	11.11	-60.2	-63.3	6.2	0.00e+00	0	43	104	0	87	19812
2026-01-01 11:14:55.71	130.87	11.04	-60.1	-63.3	6.2	0.00e+00	0	43	104	0	87	19757
2026-01-01 11:14:56.70	131.06	10.97	-60.2	-63.3	6.2	0.00e+00	0	43	104	0	87	19846
2026-01-01 11:14:57.69	131.25	10.89	-60.1	-63.3	6.2	0.00e+00	0	43	104	0	87	19726
2026-01-01 11:14:58.68	131.44	10.82	-60.1	-63.3	6.2	0.00e+00	0	43	104	0	87	19748
2026-01-01 11:14:59.67	131.63	10.74	-60.1	-63.3	6.2	0.00e+00	0	43	104	0	87	19724
2026-01-01 11:15:00.66	131.82	10.67	-60.2	-63.3	6.2	0.00e+00	0	43	104	0	87	19794
2026-01-01 11:15:01.65	132.00	10.60	-60.1	-63.3	6.2	0.00e+00	0	43	104	0	87	19712
2026-01-01 11:15:02.63	132.18	10.52	-60.1	-63.2	6.2	0.00e+00	0	43	104	0	87	19684
2026-01-01 11:15:03.61	132.37	10.45	-60.1	-63.2	6.2	0.00e+00	0	43	104	0	87	19620
2026-01-01 11:15:04.60	132.55	10.38	-60.1	-63.3	6.2	0.00e+00	0	43	104	0	87	19727
2026-01-01 11:15:05.59	132.73	10.30	-60.1	-63.2	6.2	0.00e+00	0	43	104	0	87	19625
2026-01-01 11:15:06.58	132.91	10.23	-60.1	-63.3	6.2	0.00e+00	0	43	104	0	87	19706
2026-01-01 11:15:07.56	133.09	10.16	-60.1	-63.2	6.2	0.00e+00	0	43	104	0	86	20770
2026-01-01 11:15:08.56	133.27	10.08	-60.1	-63.2	6.2	0.00e+00	0	43	104	0	86	20848
2026-01-01 11:15:09.54	133.45	10.01	-60.1	-63.3	6.2	0.00e+00	0	43	104	0	86	20873
2026-01-01 11:15:10.52	133.62	9.94	-60.1	-63.2	6.2	0.00e+00	0	43	104	0	86	20869
2026-01-01 11:15:11.51	133.80	9.86	-60.0	-63.2	6.2	0.00e+00	0	43	104	0	86	20696
2026-01-01 11:15:12.50	133.97	9.79	-60.1	-63.2	6.2	0.00e+00	0	43	104	0	86	20785
2026-01-01 11:15:13.49	134.15	9.72	-60.1	-63.2	6.2	0.00e+00	0	43	104	0	86	20749
2026-01-01 11:15:14.48	134.32	9.64	-60.0	-63.1	6.2	0.00e+00	0	43	104	0	86	20631
2026-01-01 11:15:15.46	134.49	9.57	-60.0	-63.2	6.2	0.00e+00	0	43	104	0	86	20644
2026-01-01 11:15:16.44	134.66	9.50	-60.0	-63.2	6.2	0.00e+00	0	43	104	0	86	20708
2026-01-01 11:15:17.43	134.83	9.43	-60.0	-63.2	6.2	0.00e+00	0	43	104	0	86	20782
2026-01-01 11:15:18.41	134.99	9.36	-60.0	-63.2	6.2	0.00e+00	0	43	104	0	86	20726
2026-01-01 11:15:19.39	135.16	9.28	-60.0	-63.1	6.2	0.00e+00	0	43	104	0	86	20577
2026-01-01 11:15:20.38	135.33	9.21	-60.0	-63.1	6.2	0.00e+00	0	43	104	0	86	20615
2026-01-01 11:15:21.37	135.49	9.14	-60.0	-63.2	6.2	0.00e+00	0	43	104	0	86	20681
2026-01-01 11:15:22.35	135.65	9.07	-60.0	-63.1	6.2	0.00e+00	0	43	104	0	86	20520
2026-01-01 11:15:23.34	135.82	8.99	-60.0	-63.1	6.2	0.00e+00	0	43	104	0	86	20480
2026-01-01 11:15:24.33	135.98	8.92	-60.0	-63.1	6.2	0.00e+00	0	43	104	0	86	20487
2026-01-01 11:15:25.32	136.14	8.85	-60.0	-63.1	6.2	0.00e+00	0	43	104	0	86	20555
2026-01-01 11:15:26.30	136.30	8.78	-59.9	-63.1	6.2	0.00e+00	0	43	104	0	86	20457
2026-01-01 11:15:27.29	136.46	8.71	-59.9	-63.1	6.2	0.00e+00	0	43	104	0	86	20405
2026-01-01 11:15:28.28	136.62	8.64	-59.9	-63.0	6.2	0.00e+00	0	43	104	0	86	20360
2026-01-01 11:15:29.27	136.78	8.56	-60.0	-63.1	6.2	0.00e+00	0	43	104	0	86	20571
2026-01-01 11:15:30.26	136.94	8.49	-59.9	-63.0	6.2	0.00e+00	0	43	104	0	86	20386
2026-01-01 11:15:31.25	137.09	8.42	-59.9	-63.1	6.2	0.00e+00	0	43	104	0	86	20427
2026-01-01 11:15:32.24	137.25	8.35	-59.9	-63.0	6.2	0.00e+00	0	43	104	0	86	20264
2026-01-01 11:15:33.22	137.40	8.28	-59.9	-63.1	6.2	0.00e+00	0	43	104	0	86	20470
2026-01-01 11:15:34.21	137.55	8.21	-59.9	-63.0	6.2	0.00e+00	0	43	104	0	86	20318
2026-01-01 11:15:35.20	137.71	8.14	-59.9	-63.0	6.2	0.00e+00	0	43	104	0	86	20299
2026-01-01 11:15:36.18	137.86	8.07	-59.8	-62.9	6.2	0.00e+00	0	43	104	0	86	20141
2026-01-01 11:15:37.17	138.01	8.00	-59.9	-63.1	6.2	0.00e+00	0	43	104	0	86	20422
2026-01-01 11:15:38.16	138.16	7.93	-59.8	-62.9	6.2	0.00e+00	0	43	104	0	86	20129
2026-01-01 11:15:39.14	138.31	7.86	-59.8	-63.0	6.2	0.00e+00	0	43	104	0	86	20245
2026-01-01 11:15:40.12	138.45	7.79	-59.8	-62.9	6.2	0.00e+00	0	43	104	0	86	20079
2026-01-01 11:15:41.11	138.60	7.72	-59.9	-63.0	6.2	0.00e+00	0	43	104	0	86	20319
2026-01-01 11:15:42.11	138.75	7.65	-59.8	-62.9	6.2	0.00e+00	0	43	104	0	86	20073
2026-01-01 11:15:43.09	138.89	7.58	-59.8	-63.0	6.2	0.00e+00	0	43	104	0	86	20172
2026-01-01 11:15:44.07	139.04	7.51	-59.7	-62.9	6.2	0.00e+00	0	43	104	0	86	19937
2026-01-01 11:15:45.06	139.18	7.44	-59.9	-63.0	6.2	0.00e+00	0	43	104	0	86	20261
2026-01-01 11:15:46.05	139.32	7.37	-59.7	-62.9	6.2	0.00e+00	0	43	104	0	86	19949
2026-01-01 11:15:47.04	139.47	7.30	-59.8	-62.9	6.2	0.00e+00	0	43	104	0	86	20035
2026-01-01 11:15:48.03	139.61	7.23	-59.7	-62.8	6.2	0.00e+00	0	43	104	0	86	19799
2026-01-01 11:15:49.01	139.75	7.16	-59.8	-63.0	6.2	0.00e+00	0	43	104	0	86	20180
2026-01-01 11:15:50.00	139.89	7.09	-59.7	-62.8	6.2	0.00e+00	0	43	104	0	86	19908
2026-01-01 11:15:50.98	140.03	7.02	-59.7	-62.9	6.2	0.00e+00	0	43	104	0	86	19970
2026-01-01 11:15:51.97	140.16	6.96	-59.6	-62.8	6.2	0.00e+00	0	43	104	0	86	19711
2026-01-01 11:15:52.96	140.30	6.89	-59.8	-62.9	6.2	0.00e+00	0	43	104	0	86	20039
2026-01-01 11:15:53.96	140.44	6.82	-59.6	-62.8	6.2	0.00e+00	0	43	104	0	86	19759
2026-01-01 11:15:54.95	140.58	6.75	-59.7	-62.8	6.2	0.00e+00	0	43	104	0	86	19838
2026-01-01 11:15:55.94	140.71	6.68	-59.6	-62.7	6.2	0.00e+00	0	43	104	0	86	19588
2026-01-01 11:15:56.93	140.85	6.61	-59.7	-62.9	6.2	0.00e+00	0	43	104	0	86	20010
2026-01-01 11:15:57.93	140.98	6.54	-59.6	-62.7	6.2	0.00e+00	0	43	104	0	86	19691
2026-01-01 11:15:58.92	141.12	6.48	-59.6	-62.8	6.2	0.00e+00	0	43	104	0	86	19759
2026-01-01 11:15:59.91	141.25	6.41	-59.5	-62.6	6.2	0.00e+00	0	43	104	0	85	20615
2026-01-01 11:16:00.90	141.38	6.34	-59.7	-62.8	6.2	0.00e+00	0	43	104	0	85	21034
2026-01-01 11:16:01.89	141.51	6.27	-59.6	-62.7	6.2	0.00e+00	0	43	104	0	85	20701
2026-01-01 11:16:02.87	141.64	6.21	-59.6	-62.7	6.2	0.00e+00	0	43	104	0	85	20837
2026-01-01 11:16:03.87	141.77	6.14	-59.5	-62.6	6.2	0.00e+00	0	43	104	0	85	20536
2026-01-01 11:16:04.86	141.90	6.07	-59.7	-62.8	6.2	0.00e+00	0	43	104	0	85	20960
2026-01-01 11:16:05.84	142.03	6.00	-59.5	-62.6	6.2	0.00e+00	0	43	104	0	85	20587
2026-01-01 11:16:06.83	142.15	5.94	-59.5	-62.7	6.2	0.00e+00	0	43	104	0	85	20681
2026-01-01 11:16:07.82	142.28	5.87	-59.4	-62.5	6.2	0.00e+00	0	43	104	0	85	20343
2026-01-01 11:16:08.82	142.41	5.80	-59.6	-62.8	6.2	0.00e+00	0	43	104	0	85	20911
2026-01-01 11:16:09.81	142.53	5.74	-59.4	-62.6	6.2	0.00e+00	0	43	104	0	85	20448
2026-01-01 11:16:10.79	142.66	5.67	-59.5	-62.6	6.2	0.00e+00	0	43	104	0	85	20605
2026-01-01 11:16:11.79	142.78	5.60	-59.3	-62.4	6.2	0.00e+00	0	43	104	0	85	20158
2026-01-01 11:16:12.78	142.91	5.54	-59.6	-62.7	6.2	0.00e+00	0	43	104	0	85	20772
2026-01-01 11:16:13.78	143.03	5.47	-59.4	-62.5	6.2	0.00e+00	0	43	104	0	85	20281
2026-01-01 11:16:14.76	143.15	5.40	-59.4	-62.5	6.2	0.00e+00	0	43	104	0	85	20376
2026-01-01 11:16:15.75	143.27	5.34	-59.3	-62.4	6.2	0.00e+00	0	43	104	0	85	20006
2026-01-01 11:16:16.74	143.39	5.27	-59.5	-62.6	6.2	0.00e+00	0	43	104	0	85	20608
2026-01-01 11:16:17.73	143.51	5.21	-59.3	-62.5	6.2	0.00e+00	0	43	104	0	85	20174
2026-01-01 11:16:18.72	143.63	5.14	-59.4	-62.5	6.2	0.00e+00	0	43	104	0	85	20282
2026-01-01 11:16:19.71	143.75	5.08	-59.2	-62.3	6.2	0.00e+00	0	43	104	0	85	19883
2026-01-01 11:16:20.70	143.87	5.01	-59.3	-62.4	6.2	0.00e+00	0	43	104	0	85	20074
2026-01-01 11:16:21.69	143.99	4.95	-59.8	-63.0	6.2	0.00e+00	0	43	104	0	85	21415
2026-01-01 11:16:22.68	144.10	4.88	-60.2	-63.4	6.2	0.00e+00	0	43	104	0	85	22442
2026-01-01 11:16:23.67	144.22	4.82	-60.5	-63.6	6.2	0.00e+00	0	43	104	0	86	21667
2026-01-01 11:16:24.66	144.33	4.75	-60.7	-63.9	6.2	0.00e+00	0	43	104	0	86	22410
2026-01-01 11:16:25.65	144.45	4.69	-60.9	-64.1	6.2	0.00e+00	0	43	104	0	87	21650
2026-01-01 11:16:26.65	144.57	4.62	-61.1	-64.2	6.2	0.00e+00	0	43	104	0	87	22019
2026-01-01 11:16:27.65	144.68	4.56	-61.2	-64.4	6.2	0.00e+00	0	43	104	0	87	22390
2026-01-01 11:16:28.64	144.79	4.49	-61.3	-64.5	6.2	0.00e+00	0	43	104	0	88	21407
2026-01-01 11:16:29.63	144.91	4.43	-61.4	-64.6	6.2	0.00e+00	0	43	104	0	88	21702
2026-01-01 11:16:30.63	145.02	4.36	-61.5	-64.7	6.2	0.00e+00	0	43	104	0	88	21925
2026-01-01 11:16:31.61	145.13	4.30	-61.6	-64.8	6.2	0.00e+00	0	43	104	0	88	22153
2026-01-01 11:16:32.60	145.24	4.24	-61.7	-64.8	6.2	0.00e+00	0	43	104	0	88	22299
2026-01-01 11:16:33.60	145.35	4.17	-61.8	-64.9	6.2	0.00e+00	0	43	104	0	88	22417
2026-01-01 11:16:34.60	145.46	4.11	-61.8	-65.0	6.2	0.00e+00	0	43	104	0	89	21407
2026-01-01 11:16:35.59	145.57	4.04	-61.9	-65.0	6.2	0.00e+00	0	43	104	0	89	21509
2026-01-01 11:16:36.59	145.68	3.98	-61.9	-65.1	6.2	0.00e+00	0	43	104	0	89	21632
2026-01-01 11:16:37.58	145.79	3.92	-62.0	-65.1	6.2	0.00e+00	0	43	104	0	89	21814
2026-01-01 11:16:38.58	145.90	3.85	-62.0	-65.2	6.2	0.00e+00	0	43	104	0	89	21861
2026-01-01 11:16:39.57	146.00	3.79	-62.0	-65.2	6.2	0.00e+00	0	43	104	0	89	21903
2026-01-01 11:16:40.57	146.11	3.73	-62.1	-65.2	6.2	0.00e+00	0	43	104	0	89	21954
2026-01-01 11:16:41.57	146.22	3.66	-62.1	-65.2	6.2	0.00e+00	0	43	104	0	89	21991
2026-01-01 11:16:42.56	146.32	3.60	-62.1	-65.2	6.2	0.00e+00	0	43	104	0	89	21966
2026-01-01 11:16:43.54	146.43	3.54	-62.0	-65.1	6.2	0.00e+00	0	43	104	0	89	21846
2026-01-01 11:16:44.53	146.53	3.48	-62.0	-65.1	6.2	0.00e+00	0	43	104	0	89	21813
2026-01-01 11:16:45.52	146.63	3.41	-62.0	-65.1	6.2	0.00e+00	0	43	104	0	89	21758
2026-01-01 11:16:46.50	146.74	3.35	-62.0	-65.1	6.2	0.00e+00	0	43	104	0	89	21745
2026-01-01 11:16:47.49	146.84	3.29	-62.0	-65.1	6.2	0.00e+00	0	43	104	0	89	21758
2026-01-01 11:16:48.48	146.94	3.23	-62.0	-65.1	6.2	0.00e+00	0	43	104	0	89	21694
2026-01-01 11:16:49.46	147.04	3.17	-62.0	-65.1	6.2	0.00e+00	0	43	104	0	89	21695
2026-01-01 11:16:50.45	147.14	3.11	-61.9	-65.1	6.2	0.00e+00	0	43	104	0	89	21659
2026-01-01 11:16:51.44	147.24	3.05	-61.9	-65.1	6.2	0.00e+00	0	43	104	0	89	21688
2026-01-01 11:16:52.44	147.34	2.98	-61.9	-65.0	6.2	0.00e+00	0	43	104	0	89	21575
2026-01-01 11:16:53.43	147.44	2.92	-61.9	-65.0	6.2	0.00e+00	0	43	104	0	89	21592
2026-01-01 11:16:54.42	147.54	2.86	-61.9	-65.0	6.2	0.00e+00	0	43	104	0	89	21571
2026-01-01 11:16:55.41	147.64	2.80	-61.9	-65.0	6.2	0.00e+00	0	43	104	0	89	21589
2026-01-01 11:16:56.41	147.74	2.74	-61.9	-65.0	6.2	0.00e+00	0	43	104	0	89	21548
2026-01-01 11:16:57.40	147.84	2.68	-61.9	-65.0	6.2	0.00e+00	0	43	104	0	89	21576
2026-01-01 11:16:58.39	147.93	2.62	-61.9	-65.0	6.2	0.00e+00	0	43	104	0	89	21511
2026-01-01 11:16:59.38	148.03	2.56	-61.9	-65.0	6.2	0.00e+00	0	43	104	0	89	21469
2026-01-01 11:17:00.37	148.13	2.50	-61.9	-65.0	6.2	0.00e+00	0	43	104	0	89	21510
2026-01-01 11:17:01.36	148.22	2.44	-61.9	-65.0	6.2	0.00e+00	0	43	104	0	89	21449
2026-01-01 11:17:02.35	148.32	2.38	-61.9	-65.0	6.2	0.00e+00	0	43	104	0	89	21437
2026-01-01 11:17:03.33	148.41	2.32	-61.8	-65.0	6.2	0.00e+00	0	43	104	0	89	21473
2026-01-01 11:17:04.32	148.51	2.26	-61.8	-65.0	6.2	0.00e+00	0	43	104	0	89	21455
2026-01-01 11:17:05.31	148.60	2.20	-61.8	-65.0	6.2	0.00e+00	0	43	104	0	89	21389
2026-01-01 11:17:06.29	148.69	2.14	-61.8	-64.9	6.2	0.00e+00	0	43	104	0	89	21337
2026-01-01 11:17:07.28	148.78	2.08	-61.8	-65.0	6.2	0.00e+00	0	43	104	0	89	21391
2026-01-01 11:17:08.28	148.88	2.02	-61.8	-65.0	6.2	0.00e+00	0	43	104	0	89	21378
2026-01-01 11:17:09.27	148.97	1.96	-61.8	-65.0	6.2	0.00e+00	0	43	104	0	89	21425
2026-01-01 11:17:10.26	149.06	1.90	-61.8	-64.9	6.2	0.00e+00	0	43	104	0	89	21334

#Closed at: 2026-01-01 11:17:11
#Recorded file [0 MB]: D:/lorett/data/31004_260101_140733.dat