passes_logs/2026/01/01/R3.2S_Murmansk/R3.2S_Murmansk__20260101_233645_KANOPUS-V_5_rec.log

#Pass ID: 20260101_233645_KANOPUS-V 5
#Satellite: KANOPUS-V 5
#Configuration: KANOPUS-V_8320
#almurnet v.1.7.20251203
#Start time: 2026-01-01 23:36:45

#Version: 2.2.20231116
#Station: R3.2S_Murmansk
#Location: 33.079688 lon 68.888172 lat
#TLE: 1 43876U 18111A   25365.78559900  .00000034  00000+0  43243-5 0  9991
#TLE: 2 43876  97.3689 269.5581 0001682  83.9573 276.1856 15.23322632389307

#Time	Az	El	Level	Level2	SNR	BER	BlckErr	Temp	State	Recorded	gain1	gain2
2026-01-01 23:36:45.65	22.25	2.01	-60.7	-70.5	3.8	7.47e-01	0	31	0	0	86	10554
2026-01-01 23:36:46.65	22.19	2.07	-60.7	-70.5	3.8	7.46e-01	0	31	104	0	86	10563
2026-01-01 23:36:47.64	22.14	2.14	-60.7	-70.5	3.8	7.47e-01	0	31	104	0	86	10551
2026-01-01 23:36:48.64	22.09	2.21	-60.7	-70.5	3.8	7.46e-01	0	32	104	0	86	10572
2026-01-01 23:36:49.63	22.03	2.27	-60.7	-70.5	3.8	7.46e-01	0	32	104	0	86	10569
2026-01-01 23:36:50.63	21.98	2.34	-60.7	-70.4	3.8	7.45e-01	0	32	104	0	86	10532
2026-01-01 23:36:51.62	21.92	2.41	-60.7	-70.5	3.8	7.45e-01	0	32	104	0	86	10548
2026-01-01 23:36:52.61	21.87	2.48	-60.7	-70.4	3.8	7.46e-01	0	32	104	0	86	10521
2026-01-01 23:36:53.61	21.81	2.54	-60.7	-70.5	3.8	7.47e-01	0	32	104	0	86	10546
2026-01-01 23:36:54.59	21.75	2.61	-60.7	-70.5	3.8	7.44e-01	0	32	104	0	86	10615
2026-01-01 23:36:55.59	21.70	2.68	-60.7	-70.4	3.8	7.46e-01	0	32	104	0	86	10516
2026-01-01 23:36:56.58	21.64	2.75	-60.7	-70.5	3.8	7.47e-01	0	32	104	0	86	10534
2026-01-01 23:36:57.57	21.58	2.82	-60.7	-70.5	3.8	7.45e-01	0	32	104	0	86	10571
2026-01-01 23:36:58.57	21.52	2.88	-60.7	-70.4	3.8	7.45e-01	0	32	104	0	86	10516
2026-01-01 23:36:59.57	21.47	2.95	-60.7	-70.5	3.8	7.46e-01	0	32	104	0	86	10552
2026-01-01 23:37:00.57	21.41	3.02	-60.7	-70.5	3.8	7.45e-01	0	32	104	0	86	10563
2026-01-01 23:37:01.57	21.35	3.09	-60.7	-70.5	3.8	7.46e-01	0	32	104	0	86	10602
2026-01-01 23:37:02.57	21.29	3.16	-60.7	-70.4	3.8	7.46e-01	0	32	104	0	86	10500
2026-01-01 23:37:03.56	21.23	3.23	-60.7	-70.5	3.8	7.44e-01	0	32	104	0	86	10546
2026-01-01 23:37:04.55	21.17	3.30	-60.7	-70.4	3.8	7.46e-01	0	32	104	0	86	10530
2026-01-01 23:37:05.55	21.11	3.37	-60.7	-70.4	3.8	7.45e-01	0	32	104	0	86	10510
2026-01-01 23:37:06.55	21.05	3.44	-60.7	-70.5	3.8	7.47e-01	0	32	104	0	86	10580
2026-01-01 23:37:07.55	20.98	3.51	-60.7	-70.4	3.8	7.45e-01	0	32	104	0	86	10528
2026-01-01 23:37:08.54	20.92	3.58	-60.7	-70.4	3.8	7.45e-01	0	32	104	0	86	10513
2026-01-01 23:37:09.54	20.86	3.66	-60.7	-70.4	3.8	7.44e-01	0	32	104	0	86	10518
2026-01-01 23:37:10.53	20.80	3.73	-60.7	-70.4	3.8	7.45e-01	0	32	104	0	86	10525
2026-01-01 23:37:11.53	20.73	3.80	-60.7	-70.4	3.8	7.46e-01	0	32	104	0	86	10514
2026-01-01 23:37:12.52	20.67	3.87	-60.7	-70.4	3.8	7.45e-01	0	32	104	0	86	10493
2026-01-01 23:37:13.52	20.61	3.94	-60.7	-70.4	3.8	7.45e-01	0	32	104	0	86	10497
2026-01-01 23:37:14.51	20.54	4.01	-60.7	-70.5	3.8	7.45e-01	0	32	104	0	86	10544
2026-01-01 23:37:15.51	20.48	4.09	-60.7	-70.4	3.8	7.46e-01	0	32	104	0	86	10530
2026-01-01 23:37:16.50	20.41	4.16	-60.7	-70.5	3.8	7.45e-01	0	32	104	0	86	10553
2026-01-01 23:37:17.50	20.35	4.23	-60.7	-70.4	3.8	7.46e-01	0	32	104	0	86	10514
2026-01-01 23:37:18.50	20.28	4.31	-60.7	-70.4	3.8	7.46e-01	0	32	104	0	86	10509
2026-01-01 23:37:19.50	20.21	4.38	-60.7	-70.4	3.8	7.44e-01	0	32	104	0	86	10505
2026-01-01 23:37:20.50	20.15	4.45	-60.7	-70.5	3.8	7.46e-01	0	32	104	0	86	10535
2026-01-01 23:37:21.50	20.08	4.53	-60.7	-70.4	3.8	7.45e-01	0	32	104	0	86	10501
2026-01-01 23:37:22.49	20.01	4.60	-60.7	-70.4	3.8	7.45e-01	0	32	104	0	86	10529
2026-01-01 23:37:23.49	19.94	4.68	-60.7	-70.5	3.8	7.44e-01	0	32	104	0	86	10537
2026-01-01 23:37:24.49	19.87	4.75	-60.7	-70.4	3.8	7.46e-01	0	32	104	0	86	10515
2026-01-01 23:37:25.49	19.80	4.83	-60.7	-70.5	3.9	7.46e-01	0	33	104	0	86	10555
2026-01-01 23:37:26.49	19.73	4.90	-60.7	-70.4	3.8	7.46e-01	0	33	104	0	86	10490
2026-01-01 23:37:27.49	19.66	4.98	-60.7	-70.4	3.8	7.44e-01	0	32	104	0	86	10513
2026-01-01 23:37:28.49	19.59	5.05	-60.8	-70.5	3.8	7.47e-01	0	32	104	0	86	10617
2026-01-01 23:37:29.49	19.52	5.13	-60.9	-70.6	3.8	7.45e-01	0	33	104	0	86	10706
2026-01-01 23:37:30.48	19.45	5.21	-60.8	-70.5	3.8	7.48e-01	0	32	104	0	86	10590
2026-01-01 23:37:31.49	19.37	5.28	-60.7	-70.4	3.8	7.45e-01	0	32	104	0	86	10518
2026-01-01 23:37:32.49	19.30	5.36	-60.8	-70.5	3.8	7.45e-01	0	32	104	0	86	10573
2026-01-01 23:37:33.49	19.23	5.44	-60.7	-70.5	3.8	7.47e-01	0	33	104	0	86	10557
2026-01-01 23:37:34.48	19.15	5.52	-60.8	-70.5	3.8	7.46e-01	0	32	104	0	86	10559
2026-01-01 23:37:35.48	19.08	5.59	-60.7	-70.4	3.8	7.47e-01	0	33	104	0	86	10530
2026-01-01 23:37:36.47	19.00	5.67	-60.8	-70.5	3.8	7.45e-01	0	33	104	0	86	10611
2026-01-01 23:37:37.48	18.93	5.75	-60.8	-70.5	3.8	7.45e-01	0	33	104	0	86	10580
2026-01-01 23:37:38.48	18.85	5.83	-60.8	-70.5	3.8	7.45e-01	0	33	104	0	86	10646
2026-01-01 23:37:39.48	18.77	5.91	-60.8	-70.5	3.8	7.45e-01	0	33	104	0	86	10632
2026-01-01 23:37:40.47	18.70	5.99	-60.8	-70.5	3.8	7.45e-01	0	33	104	0	86	10639
2026-01-01 23:37:41.47	18.62	6.06	-60.8	-70.5	3.8	7.44e-01	0	33	104	0	86	10606
2026-01-01 23:37:42.47	18.54	6.14	-60.8	-70.6	3.8	7.45e-01	0	33	104	0	86	10709
2026-01-01 23:37:43.47	18.46	6.22	-60.8	-70.5	3.8	7.47e-01	0	33	104	0	86	10590
2026-01-01 23:37:44.46	18.38	6.30	-60.8	-70.5	3.8	7.46e-01	0	33	104	0	86	10639
2026-01-01 23:37:45.46	18.30	6.38	-60.8	-70.5	3.8	7.45e-01	0	33	104	0	86	10607
2026-01-01 23:37:46.46	18.22	6.47	-60.9	-70.6	3.8	7.47e-01	0	33	104	0	86	10698
2026-01-01 23:37:47.46	18.14	6.55	-60.8	-70.5	3.8	7.46e-01	0	33	104	0	86	10629
2026-01-01 23:37:48.45	18.06	6.63	-60.9	-70.6	3.8	7.44e-01	0	33	104	0	86	10683
2026-01-01 23:37:49.45	17.98	6.71	-60.8	-70.6	3.8	7.46e-01	0	33	104	0	86	10685
2026-01-01 23:37:50.44	17.89	6.79	-60.9	-70.6	3.8	7.47e-01	0	33	104	0	86	10738
2026-01-01 23:37:51.42	17.81	6.87	-60.8	-70.6	3.8	7.46e-01	0	33	104	0	86	10691
2026-01-01 23:37:52.41	17.73	6.95	-60.9	-70.6	3.8	7.44e-01	0	33	104	0	86	10767
2026-01-01 23:37:53.40	17.64	7.03	-60.9	-70.6	3.8	7.46e-01	0	33	104	0	86	10774
2026-01-01 23:37:54.40	17.56	7.12	-60.9	-70.6	3.8	7.47e-01	0	33	104	0	86	10766
2026-01-01 23:37:55.40	17.47	7.20	-60.9	-70.6	3.8	7.45e-01	0	33	104	0	86	10707
2026-01-01 23:37:56.40	17.38	7.29	-60.9	-70.6	3.8	7.45e-01	0	33	104	0	86	10754
2026-01-01 23:37:57.40	17.29	7.37	-60.9	-70.6	3.8	7.45e-01	0	33	104	0	86	10730
2026-01-01 23:37:58.40	17.21	7.45	-61.0	-70.7	3.8	7.44e-01	0	33	104	0	86	10826
2026-01-01 23:37:59.40	17.12	7.54	-60.9	-70.6	3.8	7.44e-01	0	33	104	0	86	10740
2026-01-01 23:38:00.40	17.03	7.62	-61.0	-70.7	3.8	7.46e-01	0	33	104	0	86	10819
2026-01-01 23:38:01.40	16.94	7.71	-60.9	-70.7	3.8	7.45e-01	0	33	104	0	86	10814
2026-01-01 23:38:02.40	16.85	7.80	-61.0	-70.7	3.8	7.46e-01	0	33	104	0	86	10866
2026-01-01 23:38:03.40	16.75	7.88	-60.9	-70.7	3.8	7.46e-01	0	33	104	0	86	10802
2026-01-01 23:38:04.39	16.66	7.97	-61.0	-70.7	3.8	7.45e-01	0	33	104	0	86	10863
2026-01-01 23:38:05.39	16.57	8.05	-61.0	-70.7	3.8	7.46e-01	0	33	104	0	86	10826
2026-01-01 23:38:06.39	16.47	8.14	-61.0	-70.8	3.8	7.46e-01	0	33	104	0	86	10914
2026-01-01 23:38:07.38	16.38	8.23	-61.0	-70.7	3.8	7.45e-01	0	33	104	0	86	10804
2026-01-01 23:38:08.38	16.28	8.32	-61.0	-70.7	3.8	7.46e-01	0	33	104	0	86	10901
2026-01-01 23:38:09.37	16.19	8.40	-61.0	-70.7	3.8	7.46e-01	0	33	104	0	86	10847
2026-01-01 23:38:10.36	16.09	8.49	-61.1	-70.8	3.8	7.46e-01	0	33	104	0	86	10941
2026-01-01 23:38:11.35	16.00	8.58	-61.0	-70.7	3.8	7.44e-01	0	33	104	0	86	10877
2026-01-01 23:38:12.35	15.90	8.67	-61.1	-70.8	3.8	7.45e-01	0	33	104	0	86	10944
2026-01-01 23:38:13.34	15.80	8.76	-61.0	-70.7	3.8	7.45e-01	0	33	104	0	86	10891
2026-01-01 23:38:14.34	15.70	8.85	-61.1	-70.8	3.8	7.46e-01	0	33	104	0	86	10978
2026-01-01 23:38:15.33	15.60	8.94	-61.0	-70.8	3.8	7.46e-01	0	33	104	0	86	10919
2026-01-01 23:38:16.33	15.50	9.03	-61.1	-70.8	3.8	7.47e-01	0	33	104	0	86	11012
2026-01-01 23:38:17.32	15.40	9.12	-61.1	-70.8	3.8	7.45e-01	0	33	104	0	86	10926
2026-01-01 23:38:18.32	15.29	9.21	-61.1	-70.8	3.8	7.44e-01	0	33	104	0	86	11025
2026-01-01 23:38:19.32	15.19	9.30	-61.1	-70.8	3.8	7.47e-01	0	33	104	0	86	10972
2026-01-01 23:38:20.31	15.08	9.39	-61.1	-70.8	3.8	7.45e-01	0	33	104	0	86	10978
2026-01-01 23:38:21.31	14.98	9.48	-61.1	-70.8	3.8	7.46e-01	0	33	104	0	86	10959
2026-01-01 23:38:22.30	14.87	9.58	-61.2	-70.9	3.8	7.45e-01	0	33	104	0	86	11089
2026-01-01 23:38:23.30	14.76	9.67	-61.1	-70.8	3.8	7.44e-01	0	33	104	0	86	10989
2026-01-01 23:38:24.29	14.66	9.76	-61.2	-70.9	3.8	7.47e-01	0	33	104	0	86	11045
2026-01-01 23:38:25.28	14.55	9.86	-61.1	-70.8	3.8	7.46e-01	0	33	104	0	86	11015
2026-01-01 23:38:26.28	14.44	9.95	-61.2	-70.9	3.8	7.47e-01	0	33	104	0	86	11127
2026-01-01 23:38:27.28	14.33	10.04	-61.1	-70.8	3.8	7.43e-01	0	33	104	0	86	11027
2026-01-01 23:38:28.28	14.21	10.14	-61.2	-70.9	3.8	7.46e-01	0	33	104	0	86	11104
2026-01-01 23:38:29.27	14.10	10.23	-61.1	-70.8	3.8	7.43e-01	0	33	104	0	86	11028
2026-01-01 23:38:30.27	13.99	10.33	-61.2	-71.0	3.8	7.45e-01	0	33	104	0	86	11173
2026-01-01 23:38:31.26	13.87	10.43	-61.2	-70.9	3.8	7.45e-01	0	33	104	0	86	11036
2026-01-01 23:38:32.26	13.76	10.52	-61.2	-70.9	3.8	7.46e-01	0	33	104	0	86	11073
2026-01-01 23:38:33.27	13.64	10.62	-61.1	-70.9	3.8	7.46e-01	0	33	104	0	86	11097
2026-01-01 23:38:34.27	13.52	10.72	-61.2	-71.0	3.8	7.45e-01	0	33	104	0	86	11161
2026-01-01 23:38:35.27	13.40	10.82	-61.2	-70.9	3.8	7.45e-01	0	33	104	0	86	11125
2026-01-01 23:38:36.27	13.28	10.92	-61.2	-70.9	3.8	7.45e-01	0	33	104	0	86	11150
2026-01-01 23:38:37.27	13.16	11.01	-61.2	-70.9	3.8	7.46e-01	0	33	104	0	86	11076
2026-01-01 23:38:38.26	13.04	11.11	-61.3	-70.9	3.8	7.45e-01	0	33	104	0	86	11154
2026-01-01 23:38:39.27	12.92	11.21	-61.2	-71.0	3.8	7.46e-01	0	33	104	0	86	11173
2026-01-01 23:38:40.27	12.79	11.31	-61.3	-71.0	3.8	7.45e-01	0	33	104	0	86	11177
2026-01-01 23:38:41.27	12.67	11.41	-61.2	-70.9	3.8	7.45e-01	0	33	104	0	86	11146
2026-01-01 23:38:42.27	12.54	11.52	-61.3	-71.0	3.8	7.46e-01	0	33	104	0	86	11260
2026-01-01 23:38:43.26	12.41	11.62	-61.3	-71.0	3.8	7.45e-01	0	33	104	0	86	11197
2026-01-01 23:38:44.25	12.29	11.72	-61.3	-71.0	3.8	7.45e-01	0	33	104	0	86	11221
2026-01-01 23:38:45.24	12.16	11.82	-61.3	-71.0	3.8	7.46e-01	0	33	104	0	86	11206
2026-01-01 23:38:46.24	12.03	11.92	-61.3	-71.0	3.8	7.45e-01	0	33	104	0	86	11246
2026-01-01 23:38:47.24	11.90	12.02	-61.3	-71.0	3.8	7.44e-01	0	33	104	0	86	11244
2026-01-01 23:38:48.23	11.76	12.13	-61.3	-71.1	3.8	7.46e-01	0	33	104	0	86	11298
2026-01-01 23:38:49.22	11.63	12.23	-61.3	-71.0	3.8	7.46e-01	0	33	104	0	86	11253
2026-01-01 23:38:50.22	11.50	12.34	-61.4	-71.1	3.8	7.46e-01	0	33	104	0	86	11295
2026-01-01 23:38:51.21	11.36	12.44	-61.3	-71.0	3.8	7.44e-01	0	33	104	0	86	11259
2026-01-01 23:38:52.21	11.22	12.54	-61.4	-71.1	3.8	7.45e-01	0	33	104	0	86	11304
2026-01-01 23:38:53.20	11.08	12.65	-61.3	-71.0	3.8	7.44e-01	0	33	104	0	86	11252
2026-01-01 23:38:54.19	10.95	12.76	-61.4	-71.1	3.8	7.47e-01	0	33	104	0	86	11398
2026-01-01 23:38:55.19	10.80	12.86	-61.4	-71.0	3.8	7.46e-01	0	33	104	0	86	11281
2026-01-01 23:38:56.19	10.66	12.97	-61.4	-71.1	3.8	7.46e-01	0	33	104	0	86	11396
2026-01-01 23:38:57.18	10.52	13.08	-61.3	-71.1	3.8	7.45e-01	0	33	104	0	86	11294
2026-01-01 23:38:58.18	10.37	13.18	-61.4	-71.2	3.8	7.46e-01	0	33	104	0	86	11448
2026-01-01 23:38:59.17	10.23	13.29	-61.4	-71.1	3.8	7.47e-01	0	33	104	0	86	11346
2026-01-01 23:39:00.18	10.08	13.40	-61.4	-71.1	3.8	7.46e-01	0	33	104	0	86	11406
2026-01-01 23:39:01.17	9.93	13.51	-61.4	-71.1	3.8	7.45e-01	0	33	104	0	86	11317
2026-01-01 23:39:02.17	9.78	13.62	-61.5	-71.2	3.8	7.44e-01	0	33	104	0	86	11435
2026-01-01 23:39:03.16	9.63	13.73	-61.4	-71.1	3.8	7.45e-01	0	33	104	0	86	11376
2026-01-01 23:39:04.16	9.48	13.84	-61.4	-71.2	3.8	7.47e-01	0	33	104	0	86	11440
2026-01-01 23:39:05.15	9.32	13.95	-61.4	-71.1	3.8	7.46e-01	0	33	104	0	86	11390
2026-01-01 23:39:06.15	9.17	14.07	-61.5	-71.2	3.8	7.46e-01	0	33	104	0	86	11464
2026-01-01 23:39:07.14	9.01	14.18	-61.5	-71.1	3.8	7.46e-01	0	33	104	0	86	11416
2026-01-01 23:39:08.14	8.85	14.29	-61.5	-71.2	3.8	7.45e-01	0	33	104	0	86	11520
2026-01-01 23:39:09.13	8.69	14.40	-61.5	-71.2	3.8	7.46e-01	0	33	104	0	86	11490
2026-01-01 23:39:10.13	8.53	14.52	-61.6	-71.3	3.8	7.44e-01	0	33	104	0	86	11578
2026-01-01 23:39:11.12	8.37	14.63	-61.5	-71.2	3.8	7.45e-01	0	33	104	0	86	11452
2026-01-01 23:39:12.12	8.20	14.75	-61.5	-71.3	3.8	7.45e-01	0	33	104	0	86	11579
2026-01-01 23:39:13.11	8.03	14.86	-61.5	-71.2	3.8	7.44e-01	0	33	104	0	86	11504
2026-01-01 23:39:14.11	7.87	14.98	-61.6	-71.3	3.8	7.46e-01	0	33	104	0	86	11602
2026-01-01 23:39:15.10	7.70	15.09	-61.5	-71.2	3.8	7.47e-01	0	34	104	0	86	11460
2026-01-01 23:39:16.10	7.53	15.21	-61.5	-71.2	3.8	7.45e-01	0	33	104	0	86	11545
2026-01-01 23:39:17.09	7.35	15.33	-61.5	-71.2	3.8	7.46e-01	0	34	104	0	86	11506
2026-01-01 23:39:18.09	7.18	15.44	-61.6	-71.3	3.8	7.45e-01	0	33	104	0	86	11569
2026-01-01 23:39:19.08	7.00	15.56	-61.5	-71.2	3.8	7.47e-01	0	33	104	0	86	11506
2026-01-01 23:39:20.06	6.83	15.68	-61.6	-71.3	3.8	7.45e-01	0	33	104	0	86	11573
2026-01-01 23:39:21.06	6.65	15.80	-61.5	-71.2	3.8	7.46e-01	0	34	104	0	86	11495
2026-01-01 23:39:22.05	6.47	15.92	-61.6	-71.3	3.8	7.45e-01	0	33	104	0	86	11625
2026-01-01 23:39:23.05	6.28	16.04	-61.5	-71.3	3.8	7.47e-01	0	33	104	0	86	11592
2026-01-01 23:39:24.04	6.10	16.16	-61.6	-71.3	3.8	7.45e-01	0	33	104	0	86	11611
2026-01-01 23:39:25.03	5.92	16.28	-61.5	-71.3	3.8	7.46e-01	0	34	104	0	86	11559
2026-01-01 23:39:26.03	5.73	16.40	-61.6	-71.3	3.8	7.46e-01	0	33	104	0	86	11648
2026-01-01 23:39:27.03	5.54	16.52	-61.6	-71.3	3.8	7.46e-01	0	33	104	0	86	11619
2026-01-01 23:39:28.02	5.34	16.65	-61.6	-71.3	3.8	7.47e-01	0	34	104	0	86	11666
2026-01-01 23:39:29.01	5.15	16.77	-61.6	-71.3	3.8	7.45e-01	0	33	104	0	86	11560
2026-01-01 23:39:30.01	4.96	16.89	-61.6	-71.3	3.8	7.46e-01	0	33	104	0	86	11683
2026-01-01 23:39:31.00	4.76	17.02	-61.6	-71.3	3.8	7.45e-01	0	34	104	0	86	11603
2026-01-01 23:39:31.99	4.56	17.14	-61.7	-71.4	3.8	7.47e-01	0	33	104	0	86	11727
2026-01-01 23:39:32.99	4.36	17.27	-61.6	-71.3	3.8	7.45e-01	0	33	104	0	86	11620
2026-01-01 23:39:33.98	4.16	17.39	-61.7	-71.4	3.8	7.46e-01	0	33	104	0	86	11722
2026-01-01 23:39:34.97	3.95	17.52	-61.6	-71.3	3.8	7.46e-01	0	33	104	0	86	11640
2026-01-01 23:39:35.97	3.74	17.65	-61.7	-71.4	3.8	7.45e-01	0	33	104	0	86	11708
2026-01-01 23:39:36.97	3.53	17.77	-61.6	-71.3	3.8	7.47e-01	0	33	104	0	86	11654
2026-01-01 23:39:37.96	3.32	17.90	-61.7	-71.4	3.8	7.46e-01	0	33	104	0	86	11737
2026-01-01 23:39:38.97	3.10	18.03	-61.7	-71.4	3.8	7.46e-01	0	34	104	0	86	11726
2026-01-01 23:39:39.96	2.89	18.16	-61.7	-71.4	3.8	7.46e-01	0	33	104	0	86	11739
2026-01-01 23:39:40.96	2.67	18.29	-61.6	-71.4	3.8	7.46e-01	0	33	104	0	86	11719
2026-01-01 23:39:41.96	2.45	18.42	-61.7	-71.4	3.8	7.45e-01	0	34	104	0	86	11783
2026-01-01 23:39:42.96	2.22	18.55	-61.7	-71.4	3.8	7.45e-01	0	33	104	0	86	11699
2026-01-01 23:39:43.96	2.00	18.68	-61.7	-71.4	3.8	7.45e-01	0	34	104	0	86	11811
2026-01-01 23:39:44.96	1.77	18.81	-61.7	-71.4	3.8	7.45e-01	0	33	104	0	86	11736
2026-01-01 23:39:45.96	1.54	18.95	-61.7	-71.4	3.8	7.46e-01	0	33	104	0	86	11808
2026-01-01 23:39:46.96	1.31	19.08	-61.7	-71.4	3.8	7.44e-01	0	34	104	0	86	11753
2026-01-01 23:39:47.95	1.07	19.21	-61.7	-71.5	3.8	7.45e-01	0	33	104	0	86	11821
2026-01-01 23:39:48.95	0.84	19.34	-61.7	-71.4	3.8	7.46e-01	0	34	104	0	86	11760
2026-01-01 23:39:49.95	0.59	19.48	-61.8	-71.5	3.8	7.49e-01	0	33	104	0	86	11855
2026-01-01 23:39:50.94	0.35	19.61	-61.7	-71.4	3.8	7.47e-01	0	33	104	0	86	11803
2026-01-01 23:39:51.95	0.11	19.75	-61.8	-71.5	3.8	7.47e-01	0	33	104	0	86	11904
2026-01-01 23:39:52.94	359.86	19.88	-61.7	-71.4	3.8	7.44e-01	0	34	104	0	86	11784
2026-01-01 23:39:53.94	359.61	20.02	-61.8	-71.5	3.8	7.46e-01	0	34	104	0	86	11876
2026-01-01 23:39:54.93	359.36	20.15	-61.8	-71.5	3.8	7.44e-01	0	34	104	0	86	11823
2026-01-01 23:39:55.93	359.11	20.29	-61.8	-71.5	3.8	7.46e-01	0	33	104	0	86	11901
2026-01-01 23:39:56.92	358.85	20.42	-61.7	-71.4	3.8	7.45e-01	0	33	104	0	86	11788
2026-01-01 23:39:57.91	358.59	20.56	-61.8	-71.5	3.8	7.44e-01	0	34	104	0	86	11923
2026-01-01 23:39:58.91	358.33	20.70	-61.8	-71.5	3.8	7.46e-01	0	33	104	0	86	11839
2026-01-01 23:39:59.91	358.06	20.84	-61.8	-71.5	3.8	7.47e-01	0	34	104	0	86	11942
2026-01-01 23:40:00.90	357.79	20.97	-61.8	-71.5	3.8	7.46e-01	0	34	104	0	86	11827
2026-01-01 23:40:01.89	357.53	21.11	-61.8	-71.5	3.8	7.44e-01	0	34	104	0	86	11913
2026-01-01 23:40:02.89	357.25	21.25	-61.8	-71.5	3.8	7.46e-01	0	34	104	0	86	11886
2026-01-01 23:40:03.88	356.98	21.39	-61.8	-71.5	3.8	7.45e-01	0	34	104	0	86	11931
2026-01-01 23:40:04.88	356.70	21.53	-61.8	-71.5	3.8	7.44e-01	0	34	104	0	86	11895
2026-01-01 23:40:05.88	356.41	21.67	-61.9	-71.6	3.8	7.45e-01	0	34	104	0	86	12038
2026-01-01 23:40:06.87	356.13	21.81	-61.8	-71.6	3.8	7.45e-01	0	34	104	0	86	11976
2026-01-01 23:40:07.86	355.84	21.95	-61.9	-71.6	3.8	7.44e-01	0	33	104	0	86	11984
2026-01-01 23:40:08.86	355.55	22.09	-61.8	-71.5	3.8	7.46e-01	0	34	104	0	86	11876
2026-01-01 23:40:09.86	355.25	22.23	-61.9	-71.6	3.8	7.45e-01	0	34	104	0	86	12019
2026-01-01 23:40:10.85	354.96	22.37	-61.9	-71.6	3.8	7.47e-01	0	34	104	0	86	11986
2026-01-01 23:40:11.85	354.66	22.51	-61.9	-71.6	3.8	7.45e-01	0	34	104	0	86	12010
2026-01-01 23:40:12.84	354.36	22.65	-61.8	-71.6	3.8	7.45e-01	0	34	104	0	86	11970
2026-01-01 23:40:13.84	354.05	22.80	-61.9	-71.6	3.8	7.46e-01	0	33	104	0	86	12042
2026-01-01 23:40:14.84	353.74	22.94	-61.9	-71.6	3.8	7.45e-01	0	34	104	0	86	12005
2026-01-01 23:40:15.83	353.43	23.08	-61.9	-71.6	3.8	7.46e-01	0	34	104	0	86	12020
2026-01-01 23:40:16.81	353.11	23.22	-61.9	-71.6	3.8	7.46e-01	0	34	104	0	87	11356
2026-01-01 23:40:17.80	352.80	23.36	-61.9	-71.7	3.8	7.47e-01	0	34	104	0	87	11437
2026-01-01 23:40:18.79	352.48	23.50	-61.9	-71.6	3.8	7.45e-01	0	34	104	0	87	11401
2026-01-01 23:40:19.78	352.15	23.64	-61.9	-71.6	3.8	7.46e-01	0	34	104	0	87	11398
2026-01-01 23:40:20.77	351.82	23.78	-61.9	-71.6	3.8	7.45e-01	0	33	104	0	87	11393
2026-01-01 23:40:21.77	351.49	23.93	-62.0	-71.7	3.8	7.46e-01	0	34	104	0	87	11465
2026-01-01 23:40:22.77	351.15	24.07	-61.9	-71.7	3.8	7.47e-01	0	34	104	0	87	11450
2026-01-01 23:40:23.76	350.82	24.21	-62.0	-71.7	3.8	7.44e-01	0	34	104	0	87	11458
2026-01-01 23:40:24.77	350.47	24.36	-62.0	-71.7	3.8	7.45e-01	0	34	104	0	87	11427
2026-01-01 23:40:25.76	350.12	24.50	-62.0	-71.7	3.8	7.45e-01	0	33	104	0	87	11499
2026-01-01 23:40:26.76	349.77	24.64	-62.0	-71.7	3.8	7.45e-01	0	34	104	0	87	11469
2026-01-01 23:40:27.75	349.42	24.78	-62.0	-71.7	3.8	7.46e-01	0	34	104	0	87	11509
2026-01-01 23:40:28.74	349.06	24.92	-62.0	-71.7	3.8	7.45e-01	0	34	104	0	87	11475
2026-01-01 23:40:29.74	348.70	25.07	-62.0	-71.7	3.8	7.47e-01	0	34	104	0	87	11540
2026-01-01 23:40:30.73	348.34	25.21	-62.0	-71.7	3.8	7.45e-01	0	34	104	0	87	11549
2026-01-01 23:40:31.72	347.97	25.35	-62.0	-71.8	3.8	7.45e-01	0	34	104	0	87	11592
2026-01-01 23:40:32.71	347.60	25.49	-62.0	-71.7	3.8	7.45e-01	0	34	104	0	87	11485
2026-01-01 23:40:33.71	347.22	25.63	-62.1	-71.8	3.8	7.47e-01	0	34	104	0	87	11613
2026-01-01 23:40:34.71	346.84	25.77	-62.1	-71.8	3.8	7.46e-01	0	34	104	0	87	11598
2026-01-01 23:40:35.70	346.46	25.91	-62.1	-71.8	3.8	7.47e-01	0	34	104	0	87	11621
2026-01-01 23:40:36.70	346.07	26.05	-62.1	-71.8	3.8	7.46e-01	0	34	104	0	87	11601
2026-01-01 23:40:37.70	345.68	26.19	-62.1	-71.8	3.8	7.45e-01	0	33	104	0	87	11615
2026-01-01 23:40:38.70	345.28	26.33	-62.1	-71.8	3.8	7.44e-01	0	34	104	0	87	11628
2026-01-01 23:40:39.70	344.88	26.46	-62.1	-71.8	3.8	7.47e-01	0	34	104	0	87	11650
2026-01-01 23:40:40.69	344.48	26.60	-62.1	-71.8	3.8	7.46e-01	0	34	104	0	87	11573
2026-01-01 23:40:41.69	344.08	26.74	-62.1	-71.9	3.8	7.44e-01	0	34	104	0	87	11723
2026-01-01 23:40:42.69	343.66	26.88	-62.1	-71.8	3.8	7.47e-01	0	34	104	0	87	11646
2026-01-01 23:40:43.69	343.25	27.01	-62.1	-71.9	3.8	7.46e-01	0	33	104	0	87	11736
2026-01-01 23:40:44.69	342.83	27.15	-62.1	-71.8	3.8	7.46e-01	0	34	104	0	87	11621
2026-01-01 23:40:45.69	342.40	27.28	-62.2	-71.9	3.8	7.46e-01	0	34	104	0	87	11701
2026-01-01 23:40:46.68	341.98	27.41	-62.1	-71.9	3.8	7.46e-01	0	34	104	0	87	11713
2026-01-01 23:40:47.68	341.55	27.55	-62.2	-71.9	3.8	7.45e-01	0	34	104	0	87	11720
2026-01-01 23:40:48.67	341.12	27.68	-62.1	-71.8	3.8	7.47e-01	0	33	104	0	87	11678
2026-01-01 23:40:49.67	340.68	27.81	-62.2	-71.9	3.8	7.47e-01	0	34	104	0	87	11703
2026-01-01 23:40:50.66	340.24	27.94	-62.2	-71.9	3.8	7.45e-01	0	34	104	0	87	11786
2026-01-01 23:40:51.67	339.79	28.07	-62.2	-71.9	3.8	7.46e-01	0	34	104	0	87	11786
2026-01-01 23:40:52.67	339.33	28.20	-62.2	-71.9	3.8	7.45e-01	0	34	104	0	87	11760
2026-01-01 23:40:53.66	338.88	28.32	-62.2	-71.9	3.8	7.46e-01	0	34	104	0	87	11804
2026-01-01 23:40:54.64	338.43	28.44	-62.2	-71.9	3.8	7.45e-01	0	33	104	0	87	11757
2026-01-01 23:40:55.64	337.97	28.57	-62.2	-71.9	3.8	7.45e-01	0	34	104	0	87	11794
2026-01-01 23:40:56.63	337.51	28.69	-62.2	-71.9	3.8	7.47e-01	0	34	104	0	87	11789
2026-01-01 23:40:57.62	337.04	28.81	-62.3	-72.0	3.8	7.44e-01	0	34	104	0	87	11873
2026-01-01 23:40:58.62	336.57	28.93	-62.3	-72.0	3.8	7.46e-01	0	34	104	0	87	11886
2026-01-01 23:40:59.62	336.09	29.05	-62.3	-72.0	3.8	7.45e-01	0	34	104	0	87	11877
2026-01-01 23:41:00.62	335.60	29.17	-62.2	-71.9	3.8	7.45e-01	0	34	104	0	87	11787
2026-01-01 23:41:01.61	335.12	29.28	-62.3	-72.0	3.8	7.46e-01	0	34	104	0	87	11894
2026-01-01 23:41:02.61	334.63	29.40	-62.3	-72.0	3.8	7.45e-01	0	34	104	0	87	11881
2026-01-01 23:41:03.60	334.14	29.51	-62.3	-72.0	3.8	7.48e-01	0	34	104	0	87	11892
2026-01-01 23:41:04.61	333.64	29.62	-62.3	-72.0	3.8	7.47e-01	0	34	104	0	87	11822
2026-01-01 23:41:05.61	333.14	29.73	-62.3	-72.0	3.8	7.46e-01	0	34	104	0	87	11928
2026-01-01 23:41:06.60	332.64	29.84	-62.3	-72.0	3.8	7.46e-01	0	34	104	0	87	11954
2026-01-01 23:41:07.60	332.13	29.94	-62.3	-72.0	3.8	7.44e-01	0	34	104	0	87	11947
2026-01-01 23:41:08.60	331.61	30.05	-62.3	-72.0	3.8	7.45e-01	0	34	104	0	87	11873
2026-01-01 23:41:09.60	331.10	30.15	-62.3	-72.1	3.8	7.45e-01	0	34	104	0	87	11960
2026-01-01 23:41:10.59	330.58	30.25	-62.3	-72.0	3.8	7.45e-01	0	34	104	0	87	11952
2026-01-01 23:41:11.59	330.06	30.34	-62.3	-72.0	3.8	7.46e-01	0	34	104	0	87	11920
2026-01-01 23:41:12.58	329.54	30.44	-62.3	-72.0	3.8	7.46e-01	0	34	104	0	87	11940
2026-01-01 23:41:13.58	329.01	30.53	-62.3	-72.1	3.8	7.44e-01	0	34	104	0	87	11957
2026-01-01 23:41:14.56	328.48	30.62	-62.3	-72.1	3.8	7.46e-01	0	34	104	0	87	12004
2026-01-01 23:41:15.56	327.95	30.71	-62.4	-72.1	3.8	7.47e-01	0	34	104	0	87	12018
2026-01-01 23:41:16.55	327.41	30.79	-62.3	-72.0	3.8	7.46e-01	0	34	104	0	87	11946
2026-01-01 23:41:17.54	326.87	30.88	-62.3	-72.1	3.8	7.47e-01	0	34	104	0	87	12001
2026-01-01 23:41:18.53	326.33	30.96	-62.4	-72.1	3.8	7.46e-01	0	33	104	0	87	12006
2026-01-01 23:41:19.51	325.80	31.04	-62.4	-72.1	3.8	7.45e-01	0	34	104	0	87	12031
2026-01-01 23:41:20.51	325.24	31.11	-62.3	-72.0	3.8	7.46e-01	0	34	104	0	87	11939
2026-01-01 23:41:21.50	324.69	31.19	-62.4	-72.1	3.8	7.47e-01	0	34	104	0	87	11996
2026-01-01 23:41:22.50	324.14	31.26	-62.4	-72.1	3.8	7.46e-01	0	34	104	0	87	11989
2026-01-01 23:41:23.49	323.58	31.33	-62.4	-72.1	3.8	7.47e-01	0	34	104	0	87	12038
2026-01-01 23:41:24.49	323.02	31.39	-62.4	-72.1	3.8	7.46e-01	0	34	104	0	87	11968
2026-01-01 23:41:25.49	322.46	31.46	-62.4	-72.1	3.8	7.46e-01	0	34	104	0	87	12015
2026-01-01 23:41:26.48	321.89	31.52	-62.4	-72.1	3.8	7.46e-01	0	34	104	0	87	12022
2026-01-01 23:41:27.47	321.33	31.57	-62.4	-72.1	3.8	7.44e-01	0	34	104	0	87	12024
2026-01-01 23:41:28.46	320.76	31.63	-62.4	-72.1	3.8	7.45e-01	0	34	104	0	88	11349
2026-01-01 23:41:29.46	320.19	31.68	-62.4	-72.2	3.8	7.45e-01	0	34	104	0	88	11424
2026-01-01 23:41:30.46	319.61	31.73	-62.4	-72.1	3.8	7.45e-01	0	34	104	0	88	11404
2026-01-01 23:41:31.46	319.04	31.78	-62.4	-72.2	3.8	7.46e-01	0	34	104	0	88	11439
2026-01-01 23:41:32.45	318.46	31.82	-62.4	-72.1	3.8	7.46e-01	0	34	104	0	88	11410
2026-01-01 23:41:33.45	317.88	31.86	-62.4	-72.1	3.8	7.47e-01	0	34	104	0	88	11373
2026-01-01 23:41:34.45	317.30	31.90	-62.4	-72.2	3.8	7.46e-01	0	34	104	0	88	11425
2026-01-01 23:41:35.44	316.72	31.93	-62.4	-72.2	3.8	7.46e-01	0	34	104	0	88	11444
2026-01-01 23:41:36.43	316.14	31.96	-62.4	-72.2	3.8	7.45e-01	0	34	104	0	88	11455
2026-01-01 23:41:37.43	315.56	31.99	-62.4	-72.2	3.8	7.44e-01	0	34	104	0	88	11422
2026-01-01 23:41:38.43	314.97	32.01	-62.4	-72.2	3.8	7.45e-01	0	34	104	0	88	11437
2026-01-01 23:41:39.44	314.37	32.04	-62.5	-72.2	3.8	7.47e-01	0	34	104	0	88	11458
2026-01-01 23:41:40.43	313.79	32.05	-62.5	-72.2	3.8	7.46e-01	0	34	104	0	88	11484
2026-01-01 23:41:41.43	313.20	32.07	-62.4	-72.2	3.8	7.44e-01	0	34	104	0	88	11474
2026-01-01 23:41:42.43	312.61	32.08	-62.5	-72.2	3.8	7.47e-01	0	34	104	0	88	11509
2026-01-01 23:41:43.43	312.02	32.09	-62.5	-72.2	3.8	7.45e-01	0	34	104	0	88	11499
2026-01-01 23:41:44.43	311.43	32.10	-62.5	-72.2	3.8	7.45e-01	0	34	104	0	88	11482
2026-01-01 23:41:45.43	310.84	32.10	-62.5	-72.2	3.8	7.44e-01	0	34	104	0	88	11454
2026-01-01 23:41:46.43	310.25	32.10	-62.5	-72.2	3.8	7.46e-01	0	34	104	0	88	11481
2026-01-01 23:41:47.42	309.66	32.09	-62.5	-72.2	3.8	7.45e-01	0	34	104	0	88	11517
2026-01-01 23:41:48.42	309.07	32.09	-62.5	-72.2	3.8	7.46e-01	0	34	104	0	88	11481
2026-01-01 23:41:49.42	308.48	32.07	-62.5	-72.2	3.8	7.48e-01	0	34	104	0	88	11483
2026-01-01 23:41:50.42	307.89	32.06	-62.5	-72.2	3.8	7.47e-01	0	34	104	0	88	11512
2026-01-01 23:41:51.41	307.31	32.04	-62.5	-72.2	3.8	7.47e-01	0	34	104	0	88	11518
2026-01-01 23:41:52.41	306.72	32.02	-62.5	-72.2	3.8	7.44e-01	0	34	104	0	88	11507
2026-01-01 23:41:53.39	306.14	32.00	-62.5	-72.2	3.8	7.45e-01	0	34	104	0	88	11472
2026-01-01 23:41:54.39	305.55	31.98	-62.5	-72.3	3.8	7.45e-01	0	34	104	0	88	11571
2026-01-01 23:41:55.39	304.97	31.95	-62.5	-72.3	3.8	7.45e-01	0	34	104	0	88	11580
2026-01-01 23:41:56.38	304.39	31.91	-62.5	-72.2	3.8	7.46e-01	0	34	104	0	88	11546
2026-01-01 23:41:57.39	303.80	31.88	-62.5	-72.2	3.8	7.45e-01	0	34	104	0	88	11539
2026-01-01 23:41:58.39	303.22	31.84	-62.5	-72.3	3.8	7.47e-01	0	34	104	0	88	11620
2026-01-01 23:41:59.38	302.64	31.80	-62.6	-72.3	3.8	7.46e-01	0	34	104	0	88	11577
2026-01-01 23:42:00.38	302.06	31.75	-62.6	-72.3	3.8	7.47e-01	0	34	104	0	88	11640
2026-01-01 23:42:01.38	301.49	31.70	-62.6	-72.3	3.8	7.45e-01	0	34	104	0	88	11633
2026-01-01 23:42:02.37	300.92	31.65	-62.6	-72.3	3.8	7.45e-01	0	34	104	0	88	11650
2026-01-01 23:42:03.36	300.35	31.60	-62.6	-72.3	3.8	7.44e-01	0	34	104	0	88	11650
2026-01-01 23:42:04.35	299.78	31.54	-62.6	-72.3	3.8	7.46e-01	0	34	104	0	88	11595
2026-01-01 23:42:05.35	299.21	31.49	-62.5	-72.3	3.8	7.45e-01	0	34	104	0	88	11584
2026-01-01 23:42:06.35	298.65	31.42	-62.6	-72.3	3.8	7.45e-01	0	34	104	0	88	11648
2026-01-01 23:42:07.35	298.08	31.36	-62.6	-72.4	3.8	7.46e-01	0	34	104	0	88	11709
2026-01-01 23:42:08.34	297.53	31.29	-62.6	-72.3	3.8	7.47e-01	0	34	104	0	88	11676
2026-01-01 23:42:09.33	296.97	31.22	-62.6	-72.3	3.8	7.46e-01	0	34	104	0	88	11605
2026-01-01 23:42:10.33	296.42	31.15	-62.6	-72.3	3.8	7.46e-01	0	34	104	0	88	11664
2026-01-01 23:42:11.32	295.87	31.07	-62.6	-72.3	3.8	7.47e-01	0	34	104	0	88	11671
2026-01-01 23:42:12.31	295.32	31.00	-62.6	-72.3	3.8	7.44e-01	0	34	104	0	88	11598
2026-01-01 23:42:13.31	294.77	30.92	-62.5	-72.3	3.8	7.46e-01	0	34	104	0	88	11593
2026-01-01 23:42:14.30	294.23	30.83	-62.6	-72.3	3.8	7.46e-01	0	34	104	0	88	11610
2026-01-01 23:42:15.28	293.70	30.75	-62.6	-72.3	3.8	7.46e-01	0	34	104	0	88	11635
2026-01-01 23:42:16.26	293.17	30.66	-62.5	-72.2	3.8	7.47e-01	0	34	104	0	88	11547
2026-01-01 23:42:17.26	292.64	30.57	-62.5	-72.2	3.8	7.46e-01	0	34	104	0	88	11538
2026-01-01 23:42:18.25	292.11	30.48	-62.5	-72.2	3.8	7.46e-01	0	34	104	0	88	11542
2026-01-01 23:42:19.25	291.58	30.39	-62.5	-72.3	3.8	7.44e-01	0	34	104	0	88	11553
2026-01-01 23:42:20.25	291.06	30.29	-62.5	-72.2	3.8	7.47e-01	0	34	104	0	88	11496
2026-01-01 23:42:21.24	290.54	30.19	-62.5	-72.2	3.8	7.46e-01	0	34	104	0	88	11462
2026-01-01 23:42:22.24	290.02	30.09	-62.5	-72.2	3.8	7.45e-01	0	34	104	0	88	11549
2026-01-01 23:42:23.23	289.51	29.99	-62.5	-72.2	3.8	7.46e-01	0	34	104	0	88	11493
2026-01-01 23:42:24.22	289.00	29.89	-62.5	-72.2	3.8	7.46e-01	0	33	104	0	88	11498
2026-01-01 23:42:25.22	288.49	29.78	-62.4	-72.2	3.8	7.45e-01	0	34	104	0	88	11454
2026-01-01 23:42:26.22	287.99	29.67	-62.5	-72.2	3.8	7.46e-01	0	34	104	0	88	11485
2026-01-01 23:42:27.21	287.49	29.56	-62.5	-72.2	3.8	7.45e-01	0	34	104	0	88	11435
2026-01-01 23:42:28.21	286.99	29.45	-62.4	-72.2	3.8	7.46e-01	0	34	104	0	88	11453
2026-01-01 23:42:29.20	286.51	29.34	-62.4	-72.1	3.8	7.46e-01	0	34	104	0	88	11368
2026-01-01 23:42:30.19	286.02	29.22	-62.4	-72.2	3.8	7.46e-01	0	34	104	0	88	11470
2026-01-01 23:42:31.18	285.54	29.11	-62.4	-72.1	3.8	7.46e-01	0	34	104	0	88	11413
2026-01-01 23:42:32.18	285.06	28.99	-62.4	-72.2	3.8	7.45e-01	0	34	104	0	88	11426
2026-01-01 23:42:33.17	284.58	28.87	-62.4	-72.1	3.8	7.47e-01	0	34	104	0	88	11361
2026-01-01 23:42:34.16	284.11	28.75	-62.4	-72.1	3.8	7.44e-01	0	34	104	0	88	11384
2026-01-01 23:42:35.16	283.64	28.63	-62.4	-72.1	3.8	7.46e-01	0	34	104	0	88	11373
2026-01-01 23:42:36.15	283.18	28.50	-62.4	-72.1	3.8	7.46e-01	0	34	104	0	88	11358
2026-01-01 23:42:37.15	282.72	28.38	-62.4	-72.1	3.8	7.44e-01	0	34	104	0	88	11338
2026-01-01 23:42:38.14	282.26	28.25	-62.4	-72.1	3.8	7.45e-01	0	34	104	0	88	11381
2026-01-01 23:42:39.14	281.81	28.12	-62.4	-72.1	3.8	7.44e-01	0	33	104	0	88	11316
2026-01-01 23:42:40.13	281.36	28.00	-62.4	-72.1	3.8	7.47e-01	0	34	104	0	88	11368
2026-01-01 23:42:41.13	280.92	27.87	-62.3	-72.1	3.8	7.46e-01	0	34	104	0	88	11296
2026-01-01 23:42:42.12	280.48	27.74	-62.3	-72.1	3.8	7.45e-01	0	34	104	0	88	11304
2026-01-01 23:42:43.12	280.04	27.61	-62.3	-72.0	3.8	7.44e-01	0	34	104	0	88	11272
2026-01-01 23:42:44.12	279.60	27.47	-62.3	-72.1	3.8	7.45e-01	0	34	104	0	88	11322
2026-01-01 23:42:45.12	279.17	27.34	-62.3	-72.0	3.8	7.45e-01	0	34	104	0	88	11262
2026-01-01 23:42:46.11	278.75	27.21	-62.3	-72.1	3.8	7.47e-01	0	34	104	0	88	11299
2026-01-01 23:42:47.10	278.33	27.07	-62.3	-72.0	3.8	7.46e-01	0	34	104	0	88	11271
2026-01-01 23:42:48.10	277.91	26.94	-62.3	-72.0	3.8	7.45e-01	0	34	104	0	88	11248
2026-01-01 23:42:49.10	277.50	26.80	-62.3	-72.0	3.8	7.46e-01	0	34	104	0	88	11203
2026-01-01 23:42:50.10	277.09	26.66	-62.3	-72.0	3.8	7.46e-01	0	33	104	0	88	11239
2026-01-01 23:42:51.09	276.68	26.52	-62.3	-72.0	3.8	7.47e-01	0	34	104	0	88	11223
2026-01-01 23:42:52.08	276.28	26.39	-62.3	-72.0	3.8	7.45e-01	0	34	104	0	88	11235
2026-01-01 23:42:53.07	275.89	26.25	-62.3	-72.0	3.8	7.46e-01	0	34	104	0	88	11234
2026-01-01 23:42:54.07	275.49	26.11	-62.3	-72.0	3.8	7.46e-01	0	34	104	0	88	11200
2026-01-01 23:42:55.07	275.10	25.97	-62.3	-72.0	3.8	7.47e-01	0	34	104	0	88	11219
2026-01-01 23:42:56.08	274.71	25.83	-62.3	-72.0	3.8	7.47e-01	0	34	104	0	88	11246
2026-01-01 23:42:57.07	274.33	25.69	-62.2	-72.0	3.8	7.47e-01	0	34	104	0	88	11167
2026-01-01 23:42:58.07	273.95	25.55	-62.2	-72.0	3.8	7.45e-01	0	34	104	0	88	11189
2026-01-01 23:42:59.07	273.57	25.40	-62.2	-72.0	3.8	7.45e-01	0	34	104	0	88	11170
2026-01-01 23:43:00.07	273.20	25.26	-62.3	-72.0	3.8	7.45e-01	0	34	104	0	88	11184
2026-01-01 23:43:01.07	272.83	25.12	-62.2	-71.9	3.8	7.45e-01	0	34	104	0	88	11141
2026-01-01 23:43:02.07	272.46	24.98	-62.2	-71.9	3.8	7.44e-01	0	34	104	0	88	11112
2026-01-01 23:43:03.07	272.10	24.83	-62.2	-72.0	3.8	7.47e-01	0	34	104	0	88	11163
2026-01-01 23:43:04.06	271.75	24.69	-62.2	-71.9	3.8	7.45e-01	0	34	104	0	88	11140
2026-01-01 23:43:05.05	271.40	24.55	-62.2	-71.9	3.8	7.44e-01	0	34	104	0	88	11106
2026-01-01 23:43:06.05	271.04	24.41	-62.2	-71.9	3.8	7.45e-01	0	34	104	0	88	11108
2026-01-01 23:43:07.04	270.70	24.26	-62.2	-71.9	3.8	7.46e-01	0	34	104	0	88	11130
2026-01-01 23:43:08.03	270.36	24.12	-62.2	-71.9	3.8	7.46e-01	0	34	104	0	88	11145
2026-01-01 23:43:09.02	270.02	23.98	-62.2	-71.9	3.8	7.46e-01	0	34	104	0	88	11080
2026-01-01 23:43:10.02	269.69	23.84	-62.1	-71.9	3.8	7.47e-01	0	34	104	0	88	11058
2026-01-01 23:43:11.02	269.35	23.69	-62.2	-71.9	3.8	7.46e-01	0	34	104	0	88	11099
2026-01-01 23:43:12.02	269.02	23.55	-62.2	-71.9	3.8	7.44e-01	0	34	104	0	88	11092
2026-01-01 23:43:13.01	268.70	23.41	-62.2	-71.9	3.8	7.47e-01	0	34	104	0	88	11060
2026-01-01 23:43:14.00	268.38	23.27	-62.1	-71.9	3.8	7.46e-01	0	34	104	0	88	11051
2026-01-01 23:43:15.00	268.06	23.12	-62.2	-71.9	3.8	7.46e-01	0	34	104	0	88	11060
2026-01-01 23:43:16.00	267.74	22.98	-62.2	-71.9	3.8	7.45e-01	0	34	104	0	88	11091
2026-01-01 23:43:16.99	267.43	22.84	-62.1	-71.8	3.8	7.46e-01	0	34	104	0	88	11024
2026-01-01 23:43:17.99	267.12	22.70	-62.1	-71.8	3.8	7.47e-01	0	34	104	0	88	11002
2026-01-01 23:43:18.98	266.82	22.55	-62.1	-71.9	3.8	7.46e-01	0	33	104	0	88	11033
2026-01-01 23:43:19.97	266.52	22.41	-62.1	-71.9	3.8	7.46e-01	0	34	104	0	88	11043
2026-01-01 23:43:20.96	266.22	22.27	-62.1	-71.9	3.8	7.43e-01	0	34	104	0	88	11030
2026-01-01 23:43:21.96	265.92	22.13	-62.1	-71.8	3.8	7.46e-01	0	34	104	0	88	10964
2026-01-01 23:43:22.95	265.63	21.99	-62.1	-71.8	3.8	7.46e-01	0	34	104	0	88	10991
2026-01-01 23:43:23.94	265.34	21.85	-62.1	-71.8	3.8	7.44e-01	0	34	104	0	88	10996
2026-01-01 23:43:24.94	265.05	21.71	-62.1	-71.8	3.8	7.45e-01	0	34	104	0	88	10947
2026-01-01 23:43:25.94	264.76	21.57	-62.0	-71.8	3.8	7.45e-01	0	34	104	0	88	10926
2026-01-01 23:43:26.94	264.48	21.43	-62.1	-71.8	3.8	7.45e-01	0	34	104	0	88	10931
2026-01-01 23:43:27.92	264.21	21.29	-62.1	-71.8	3.8	7.45e-01	0	34	104	0	88	10933
2026-01-01 23:43:28.92	263.93	21.15	-62.0	-71.7	3.8	7.47e-01	0	34	104	0	88	10890
2026-01-01 23:43:29.91	263.66	21.01	-62.0	-71.7	3.8	7.46e-01	0	34	104	0	88	10842
2026-01-01 23:43:30.92	263.38	20.87	-62.0	-71.7	3.8	7.46e-01	0	34	104	0	88	10894
2026-01-01 23:43:31.92	263.12	20.73	-62.0	-71.8	3.8	7.44e-01	0	34	104	0	88	10927
2026-01-01 23:43:32.92	262.85	20.59	-62.0	-71.7	3.8	7.46e-01	0	34	104	0	88	10874
2026-01-01 23:43:33.92	262.59	20.45	-62.0	-71.7	3.8	7.46e-01	0	34	104	0	88	10865
2026-01-01 23:43:34.92	262.33	20.32	-62.0	-71.7	3.8	7.45e-01	0	34	104	0	88	10862
2026-01-01 23:43:35.92	262.07	20.18	-62.0	-71.7	3.8	7.46e-01	0	34	104	0	88	10860
2026-01-01 23:43:36.92	261.81	20.04	-62.0	-71.7	3.9	7.45e-01	0	34	104	0	88	10812
2026-01-01 23:43:37.92	261.56	19.91	-62.0	-71.7	3.8	7.46e-01	0	34	104	0	88	10820
2026-01-01 23:43:38.91	261.31	19.77	-62.0	-71.7	3.8	7.45e-01	0	34	104	0	88	10826
2026-01-01 23:43:39.91	261.07	19.64	-62.0	-71.7	3.8	7.47e-01	0	34	104	0	88	10807
2026-01-01 23:43:40.90	260.83	19.50	-61.9	-71.7	3.8	7.45e-01	0	34	104	0	88	10783
2026-01-01 23:43:41.90	260.58	19.37	-61.9	-71.6	3.8	7.45e-01	0	34	104	0	88	10764
2026-01-01 23:43:42.90	260.34	19.23	-61.9	-71.6	3.8	7.45e-01	0	34	104	0	88	10746
2026-01-01 23:43:43.90	260.11	19.10	-61.9	-71.7	3.8	7.44e-01	0	34	104	0	88	10819
2026-01-01 23:43:44.89	259.87	18.97	-61.9	-71.6	3.8	7.45e-01	0	34	104	0	88	10726
2026-01-01 23:43:45.89	259.64	18.83	-61.9	-71.6	3.8	7.44e-01	0	34	104	0	88	10737
2026-01-01 23:43:46.88	259.41	18.70	-61.9	-71.6	3.8	7.45e-01	0	34	104	0	88	10745
2026-01-01 23:43:47.87	259.19	18.57	-61.9	-71.6	3.8	7.45e-01	0	34	104	0	88	10762
2026-01-01 23:43:48.88	258.96	18.44	-61.9	-71.6	3.8	7.45e-01	0	34	104	0	88	10701
2026-01-01 23:43:49.88	258.74	18.31	-61.9	-71.6	3.8	7.46e-01	0	34	104	0	88	10680
2026-01-01 23:43:50.87	258.52	18.18	-61.9	-71.6	3.8	7.44e-01	0	34	104	0	88	10677
2026-01-01 23:43:51.86	258.30	18.05	-61.9	-71.6	3.8	7.45e-01	0	34	104	0	88	10687
2026-01-01 23:43:52.86	258.08	17.92	-61.8	-71.5	3.8	7.45e-01	0	34	104	0	88	10644
2026-01-01 23:43:53.85	257.87	17.79	-61.8	-71.6	3.8	7.47e-01	0	34	104	0	88	10670
2026-01-01 23:43:54.85	257.66	17.66	-61.8	-71.6	3.8	7.45e-01	0	34	104	0	88	10675
2026-01-01 23:43:55.85	257.45	17.53	-61.8	-71.5	3.8	7.46e-01	0	34	104	0	88	10632
2026-01-01 23:43:56.85	257.24	17.41	-61.8	-71.5	3.8	7.44e-01	0	34	104	0	88	10649
2026-01-01 23:43:57.85	257.03	17.28	-61.8	-71.6	3.8	7.45e-01	0	34	104	0	88	10658
2026-01-01 23:43:58.85	256.83	17.15	-61.8	-71.5	3.8	7.46e-01	0	34	104	0	88	10638
2026-01-01 23:43:59.85	256.63	17.03	-61.8	-71.5	3.8	7.48e-01	0	34	104	0	88	10605
2026-01-01 23:44:00.85	256.43	16.90	-61.8	-71.5	3.8	7.47e-01	0	34	104	0	88	10563
2026-01-01 23:44:01.84	256.23	16.78	-61.8	-71.5	3.8	7.45e-01	0	34	104	0	88	10564
2026-01-01 23:44:02.84	256.03	16.65	-61.8	-71.5	3.8	7.46e-01	0	34	104	0	88	10535
2026-01-01 23:44:03.84	255.84	16.53	-61.8	-71.5	3.8	7.46e-01	0	34	104	0	88	10574
2026-01-01 23:44:04.83	255.65	16.41	-61.8	-71.5	3.8	7.45e-01	0	34	104	0	88	10597
2026-01-01 23:44:05.83	255.46	16.28	-61.8	-71.5	3.8	7.45e-01	0	34	104	0	88	10585
2026-01-01 23:44:06.82	255.27	16.16	-61.7	-71.5	3.8	7.45e-01	0	34	104	0	88	10564
2026-01-01 23:44:07.82	255.08	16.04	-61.8	-71.5	3.8	7.45e-01	0	34	104	0	88	10566
2026-01-01 23:44:08.82	254.90	15.92	-61.7	-71.5	3.8	7.45e-01	0	34	104	0	88	10548
2026-01-01 23:44:09.81	254.72	15.80	-61.7	-71.4	3.8	7.43e-01	0	34	104	0	88	10480
2026-01-01 23:44:10.81	254.54	15.68	-61.7	-71.4	3.8	7.45e-01	0	34	104	0	88	10456
2026-01-01 23:44:11.81	254.36	15.56	-61.7	-71.5	3.8	7.44e-01	0	34	104	0	88	10563
2026-01-01 23:44:12.81	254.18	15.44	-61.7	-71.4	3.8	7.46e-01	0	34	104	0	88	10497
2026-01-01 23:44:13.80	254.00	15.32	-61.7	-71.4	3.8	7.44e-01	0	34	104	0	88	10495
2026-01-01 23:44:14.79	253.83	15.20	-61.7	-71.4	3.8	7.46e-01	0	34	104	0	88	10438
2026-01-01 23:44:15.79	253.66	15.09	-61.7	-71.4	3.8	7.46e-01	0	34	104	0	87	11043
2026-01-01 23:44:16.79	253.49	14.97	-61.7	-71.4	3.8	7.46e-01	0	34	104	0	87	11090
2026-01-01 23:44:17.79	253.32	14.85	-61.7	-71.4	3.8	7.45e-01	0	34	104	0	87	11078
2026-01-01 23:44:18.78	253.15	14.74	-61.6	-71.4	3.8	7.47e-01	0	34	104	0	87	11042
2026-01-01 23:44:19.77	252.98	14.62	-61.6	-71.4	3.8	7.45e-01	0	34	104	0	87	11033
2026-01-01 23:44:20.77	252.82	14.51	-61.6	-71.3	3.8	7.45e-01	0	34	104	0	87	10982
2026-01-01 23:44:21.76	252.66	14.39	-61.6	-71.3	3.8	7.47e-01	0	34	104	0	87	10994
2026-01-01 23:44:22.75	252.50	14.28	-61.6	-71.3	3.8	7.45e-01	0	34	104	0	87	11002
2026-01-01 23:44:23.73	252.34	14.17	-61.6	-71.3	3.8	7.44e-01	0	34	104	0	87	10997
2026-01-01 23:44:24.73	252.18	14.06	-61.6	-71.3	3.8	7.47e-01	0	34	104	0	87	10976
2026-01-01 23:44:25.72	252.02	13.94	-61.6	-71.3	3.8	7.44e-01	0	34	104	0	87	10990
2026-01-01 23:44:26.71	251.87	13.83	-61.6	-71.3	3.8	7.46e-01	0	34	104	0	87	10921
2026-01-01 23:44:27.71	251.71	13.72	-61.6	-71.3	3.8	7.44e-01	0	34	104	0	87	10962
2026-01-01 23:44:28.71	251.56	13.61	-61.6	-71.3	3.8	7.46e-01	0	34	104	0	87	10960
2026-01-01 23:44:29.71	251.41	13.50	-61.6	-71.3	3.8	7.45e-01	0	34	104	0	87	10926
2026-01-01 23:44:30.71	251.26	13.39	-61.6	-71.2	3.8	7.46e-01	0	34	104	0	87	10899
2026-01-01 23:44:31.70	251.11	13.28	-61.5	-71.3	3.8	7.46e-01	0	34	104	0	87	10925
2026-01-01 23:44:32.70	250.96	13.17	-61.5	-71.3	3.8	7.46e-01	0	34	104	0	87	10943
2026-01-01 23:44:33.69	250.82	13.06	-61.6	-71.3	3.8	7.46e-01	0	34	104	0	87	10909
2026-01-01 23:44:34.69	250.67	12.95	-61.5	-71.2	3.8	7.46e-01	0	34	104	0	87	10879
2026-01-01 23:44:35.69	250.53	12.85	-61.5	-71.2	3.8	7.45e-01	0	34	104	0	87	10821
2026-01-01 23:44:36.68	250.39	12.74	-61.5	-71.2	3.8	7.46e-01	0	34	104	0	87	10835
2026-01-01 23:44:37.68	250.24	12.63	-61.5	-71.2	3.8	7.44e-01	0	34	104	0	87	10841
2026-01-01 23:44:38.68	250.10	12.53	-61.5	-71.2	3.8	7.46e-01	0	34	104	0	87	10873
2026-01-01 23:44:39.67	249.97	12.42	-61.5	-71.2	3.8	7.44e-01	0	34	104	0	87	10793
2026-01-01 23:44:40.67	249.83	12.32	-61.5	-71.2	3.8	7.45e-01	0	34	104	0	87	10795
2026-01-01 23:44:41.66	249.69	12.21	-61.5	-71.2	3.8	7.46e-01	0	34	104	0	87	10817
2026-01-01 23:44:42.65	249.56	12.11	-61.5	-71.2	3.8	7.44e-01	0	34	104	0	87	10791
2026-01-01 23:44:43.65	249.42	12.00	-61.5	-71.2	3.8	7.47e-01	0	34	104	0	87	10798
2026-01-01 23:44:44.64	249.29	11.90	-61.5	-71.2	3.8	7.47e-01	0	34	104	0	87	10804
2026-01-01 23:44:45.63	249.16	11.80	-61.5	-71.2	3.8	7.44e-01	0	34	104	0	87	10852
2026-01-01 23:44:46.63	249.03	11.70	-61.4	-71.2	3.8	7.46e-01	0	34	104	0	87	10798
2026-01-01 23:44:47.63	248.90	11.59	-61.5	-71.1	3.8	7.45e-01	0	34	104	0	87	10764
2026-01-01 23:44:48.64	248.77	11.49	-61.5	-71.2	3.8	7.44e-01	0	34	104	0	87	10795
2026-01-01 23:44:49.63	248.65	11.39	-61.4	-71.1	3.8	7.47e-01	0	34	104	0	87	10776
2026-01-01 23:44:50.63	248.52	11.29	-61.4	-71.1	3.8	7.45e-01	0	34	104	0	87	10738
2026-01-01 23:44:51.63	248.39	11.19	-61.4	-71.1	3.8	7.45e-01	0	34	104	0	87	10765
2026-01-01 23:44:52.61	248.27	11.09	-61.4	-71.1	3.8	7.46e-01	0	34	104	0	87	10747
2026-01-01 23:44:53.60	248.15	10.99	-61.4	-71.1	3.8	7.44e-01	0	34	104	0	87	10759
2026-01-01 23:44:54.59	248.03	10.89	-61.4	-71.1	3.8	7.46e-01	0	34	104	0	87	10692
2026-01-01 23:44:55.59	247.91	10.79	-61.4	-71.1	3.8	7.45e-01	0	34	104	0	87	10702
2026-01-01 23:44:56.59	247.79	10.69	-61.4	-71.1	3.8	7.45e-01	0	34	104	0	87	10715
2026-01-01 23:44:57.58	247.67	10.60	-61.4	-71.1	3.8	7.47e-01	0	34	104	0	87	10726
2026-01-01 23:44:58.58	247.55	10.50	-61.4	-71.1	3.8	7.44e-01	0	34	104	0	87	10711
2026-01-01 23:44:59.58	247.44	10.40	-61.3	-71.0	3.8	7.46e-01	0	34	104	0	87	10639
2026-01-01 23:45:00.57	247.32	10.31	-61.3	-71.1	3.8	7.45e-01	0	34	104	0	87	10683
2026-01-01 23:45:01.57	247.21	10.21	-61.4	-71.1	3.8	7.44e-01	0	33	104	0	87	10686
2026-01-01 23:45:02.57	247.09	10.11	-61.3	-71.0	3.8	7.44e-01	0	34	104	0	87	10631
2026-01-01 23:45:03.57	246.98	10.02	-61.3	-71.0	3.8	7.44e-01	0	34	104	0	87	10603
2026-01-01 23:45:04.57	246.87	9.92	-61.3	-71.0	3.8	7.45e-01	0	34	104	0	87	10602
2026-01-01 23:45:05.56	246.76	9.83	-61.3	-71.0	3.8	7.45e-01	0	34	104	0	87	10624
2026-01-01 23:45:06.55	246.65	9.74	-61.3	-71.0	3.8	7.45e-01	0	34	104	0	87	10574
2026-01-01 23:45:07.55	246.54	9.64	-61.3	-71.0	3.8	7.45e-01	0	34	104	0	87	10555
2026-01-01 23:45:08.55	246.43	9.55	-61.3	-71.0	3.8	7.45e-01	0	34	104	0	87	10606
2026-01-01 23:45:09.54	246.32	9.45	-61.3	-71.0	3.8	7.45e-01	0	34	104	0	87	10546
2026-01-01 23:45:10.54	246.21	9.36	-61.2	-71.0	3.8	7.47e-01	0	34	104	0	87	10542
2026-01-01 23:45:11.53	246.11	9.27	-61.2	-71.0	3.8	7.46e-01	0	34	104	0	87	10534
2026-01-01 23:45:12.52	246.01	9.18	-61.3	-70.9	3.8	7.46e-01	0	34	104	0	87	10512
2026-01-01 23:45:13.52	245.90	9.09	-61.3	-71.0	3.8	7.45e-01	0	34	104	0	87	10550
2026-01-01 23:45:14.51	245.80	9.00	-61.2	-70.9	3.8	7.46e-01	0	34	104	0	87	10455
2026-01-01 23:45:15.51	245.70	8.91	-61.2	-70.9	3.8	7.45e-01	0	34	104	0	87	10469
2026-01-01 23:45:16.50	245.59	8.82	-61.2	-70.9	3.8	7.45e-01	0	34	104	0	87	10473
2026-01-01 23:45:17.49	245.49	8.73	-61.2	-70.9	3.8	7.44e-01	0	34	104	0	87	10506
2026-01-01 23:45:18.49	245.39	8.64	-61.2	-70.9	3.8	7.45e-01	0	34	104	0	86	11094
2026-01-01 23:45:19.47	245.30	8.55	-61.1	-70.8	3.8	7.44e-01	0	34	104	0	86	11004
2026-01-01 23:45:20.46	245.20	8.46	-61.2	-70.9	3.8	7.46e-01	0	34	104	0	86	11036
2026-01-01 23:45:21.45	245.10	8.37	-61.2	-70.9	3.8	7.45e-01	0	34	104	0	86	11080
2026-01-01 23:45:22.45	245.00	8.28	-61.1	-70.8	3.8	7.46e-01	0	34	104	0	86	10988
2026-01-01 23:45:23.44	244.91	8.20	-61.1	-70.8	3.8	7.46e-01	0	34	104	0	86	10958
2026-01-01 23:45:24.44	244.81	8.11	-61.1	-70.8	3.8	7.46e-01	0	34	104	0	86	11006
2026-01-01 23:45:25.44	244.72	8.02	-61.2	-70.9	3.8	7.44e-01	0	34	104	0	86	11069
2026-01-01 23:45:26.42	244.63	7.93	-61.1	-70.8	3.8	7.46e-01	0	34	104	0	86	10966
2026-01-01 23:45:27.42	244.53	7.85	-61.1	-70.8	3.8	7.46e-01	0	34	104	0	86	10956
2026-01-01 23:45:28.42	244.44	7.76	-61.1	-70.8	3.8	7.47e-01	0	34	104	0	86	10949
2026-01-01 23:45:29.41	244.35	7.68	-61.1	-70.8	3.8	7.44e-01	0	34	104	0	86	11001
2026-01-01 23:45:30.41	244.26	7.59	-61.0	-70.7	3.8	7.46e-01	0	34	104	0	86	10901
2026-01-01 23:45:31.41	244.17	7.50	-61.0	-70.7	3.8	7.45e-01	0	34	104	0	86	10895
2026-01-01 23:45:32.41	244.07	7.42	-61.0	-70.7	3.8	7.46e-01	0	34	104	0	86	10899
2026-01-01 23:45:33.41	243.99	7.33	-61.1	-70.8	3.8	7.46e-01	0	34	104	0	86	11002
2026-01-01 23:45:34.41	243.90	7.25	-61.0	-70.7	3.8	7.45e-01	0	34	104	0	86	10881
2026-01-01 23:45:35.40	243.81	7.17	-61.0	-70.7	3.8	7.45e-01	0	34	104	0	86	10865
2026-01-01 23:45:36.40	243.72	7.08	-61.0	-70.7	3.8	7.44e-01	0	34	104	0	86	10888
2026-01-01 23:45:37.40	243.64	7.00	-61.1	-70.7	3.8	7.44e-01	0	34	104	0	86	10901
2026-01-01 23:45:38.40	243.55	6.92	-61.0	-70.7	3.8	7.44e-01	0	34	104	0	86	10845
2026-01-01 23:45:39.39	243.46	6.83	-60.9	-70.7	3.8	7.47e-01	0	34	104	0	86	10792
2026-01-01 23:45:40.39	243.38	6.75	-61.0	-70.7	3.8	7.46e-01	0	34	104	0	86	10823
2026-01-01 23:45:41.39	243.30	6.67	-61.0	-70.7	3.8	7.44e-01	0	34	104	0	86	10824
2026-01-01 23:45:42.40	243.21	6.59	-60.9	-70.6	3.8	7.46e-01	0	34	104	0	86	10743
2026-01-01 23:45:43.41	243.13	6.50	-60.8	-70.6	3.8	7.45e-01	0	34	104	0	86	10665
2026-01-01 23:45:44.41	243.04	6.42	-60.9	-70.6	3.8	7.45e-01	0	34	104	0	86	10733
2026-01-01 23:45:45.42	242.96	6.34	-60.9	-70.6	3.8	7.47e-01	0	34	104	0	86	10735
2026-01-01 23:45:46.42	242.88	6.26	-60.8	-70.5	3.8	7.45e-01	0	34	104	0	86	10651
2026-01-01 23:45:47.42	242.80	6.18	-60.8	-70.5	3.8	7.45e-01	0	34	104	0	86	10538
2026-01-01 23:45:48.42	242.72	6.10	-60.8	-70.5	3.8	7.46e-01	0	34	104	0	86	10621
2026-01-01 23:45:49.41	242.64	6.02	-60.9	-70.6	3.8	7.47e-01	0	34	104	0	86	10680
2026-01-01 23:45:50.42	242.56	5.94	-60.8	-70.5	3.8	7.43e-01	0	34	104	0	86	10593
2026-01-01 23:45:51.41	242.48	5.86	-60.7	-70.4	3.8	7.45e-01	0	34	104	0	86	10515
2026-01-01 23:45:52.42	242.41	5.78	-60.7	-70.5	3.8	7.46e-01	0	34	104	0	86	10572
2026-01-01 23:45:53.42	242.33	5.70	-60.8	-70.5	3.8	7.45e-01	0	34	104	0	86	10600
2026-01-01 23:45:54.41	242.25	5.62	-60.7	-70.4	3.8	7.45e-01	0	34	104	0	86	10530
2026-01-01 23:45:55.41	242.18	5.54	-60.6	-70.3	3.8	7.46e-01	0	34	104	0	85	10976
2026-01-01 23:45:56.42	242.10	5.47	-60.7	-70.4	3.8	7.46e-01	0	34	104	0	85	11093
2026-01-01 23:45:57.41	242.03	5.39	-60.7	-70.5	3.8	7.46e-01	0	34	104	0	85	11161
2026-01-01 23:45:58.41	241.95	5.31	-60.6	-70.3	3.8	7.44e-01	0	34	104	0	85	11019
2026-01-01 23:45:59.41	241.88	5.23	-60.5	-70.3	3.8	7.46e-01	0	34	104	0	85	10922
2026-01-01 23:46:00.41	241.80	5.16	-60.6	-70.3	3.8	7.46e-01	0	34	104	0	85	10978
2026-01-01 23:46:01.41	241.73	5.08	-60.7	-70.4	3.8	7.45e-01	0	34	104	0	85	11085
2026-01-01 23:46:02.41	241.66	5.00	-60.7	-70.5	3.8	7.46e-01	0	34	104	0	85	11158
2026-01-01 23:46:03.41	241.59	4.93	-61.3	-71.0	3.8	7.47e-01	0	34	104	0	85	11854
2026-01-01 23:46:04.41	241.52	4.85	-61.7	-71.4	3.8	7.46e-01	0	34	104	0	86	11762
2026-01-01 23:46:05.41	241.44	4.78	-61.9	-71.6	3.9	7.45e-01	0	33	104	0	87	11390
2026-01-01 23:46:06.41	241.37	4.70	-62.1	-71.8	3.8	7.45e-01	0	34	104	0	87	11632
2026-01-01 23:46:07.41	241.30	4.62	-62.3	-72.0	3.8	7.47e-01	0	34	104	0	87	11903
2026-01-01 23:46:08.41	241.23	4.55	-62.4	-72.1	3.8	7.44e-01	0	34	104	0	87	12042
2026-01-01 23:46:09.41	241.17	4.47	-62.6	-72.3	3.8	7.46e-01	0	34	104	0	88	11607
2026-01-01 23:46:10.41	241.10	4.40	-62.7	-72.4	3.8	7.46e-01	0	34	104	0	88	11744
2026-01-01 23:46:11.41	241.03	4.33	-62.8	-72.5	3.8	7.46e-01	0	34	104	0	88	11921
2026-01-01 23:46:12.41	240.96	4.25	-62.9	-72.6	3.8	7.46e-01	0	34	104	0	88	12049
2026-01-01 23:46:13.41	240.89	4.18	-62.9	-72.7	3.8	7.46e-01	0	34	104	0	89	11437
2026-01-01 23:46:14.40	240.83	4.11	-63.0	-72.7	3.8	7.45e-01	0	34	104	0	89	11496
2026-01-01 23:46:15.40	240.76	4.03	-63.0	-72.8	3.8	7.46e-01	0	34	104	0	89	11575
2026-01-01 23:46:16.39	240.70	3.96	-63.1	-72.8	3.8	7.44e-01	0	34	104	0	89	11601
2026-01-01 23:46:17.38	240.63	3.89	-63.1	-72.8	3.8	7.45e-01	0	34	104	0	89	11614
2026-01-01 23:46:18.38	240.57	3.82	-63.1	-72.8	3.8	7.44e-01	0	34	104	0	89	11649
2026-01-01 23:46:19.38	240.50	3.74	-63.1	-72.8	3.8	7.46e-01	0	34	104	0	89	11674
2026-01-01 23:46:20.38	240.44	3.67	-63.1	-72.8	3.8	7.47e-01	0	34	104	0	89	11667
2026-01-01 23:46:21.37	240.37	3.60	-63.1	-72.9	3.8	7.45e-01	0	34	104	0	89	11709
2026-01-01 23:46:22.38	240.31	3.53	-63.1	-72.9	3.8	7.46e-01	0	34	104	0	89	11757
2026-01-01 23:46:23.38	240.25	3.46	-63.2	-73.0	3.8	7.45e-01	0	34	104	0	89	11862
2026-01-01 23:46:24.37	240.19	3.39	-63.2	-73.0	3.8	7.46e-01	0	34	104	0	89	11846
2026-01-01 23:46:25.37	240.12	3.31	-63.2	-72.9	3.8	7.46e-01	0	34	104	0	89	11759
2026-01-01 23:46:26.37	240.06	3.24	-63.1	-72.9	3.8	7.45e-01	0	34	104	0	89	11688
2026-01-01 23:46:27.36	240.00	3.17	-63.1	-72.9	3.8	7.44e-01	0	34	104	0	89	11693
2026-01-01 23:46:28.36	239.94	3.10	-63.1	-72.8	3.8	7.44e-01	0	34	104	0	89	11682
2026-01-01 23:46:29.36	239.88	3.03	-63.1	-72.8	3.8	7.45e-01	0	34	104	0	89	11658
2026-01-01 23:46:30.36	239.82	2.96	-63.1	-72.8	3.8	7.46e-01	0	34	104	0	89	11565
2026-01-01 23:46:31.36	239.76	2.89	-63.1	-72.8	3.8	7.46e-01	0	34	104	0	89	11578
2026-01-01 23:46:32.35	239.70	2.82	-63.0	-72.7	3.8	7.47e-01	0	34	104	0	89	11534
2026-01-01 23:46:33.35	239.64	2.75	-63.0	-72.8	3.8	7.45e-01	0	34	104	0	89	11556
2026-01-01 23:46:34.35	239.58	2.69	-63.0	-72.7	3.8	7.45e-01	0	34	104	0	89	11522
2026-01-01 23:46:35.36	239.52	2.62	-63.0	-72.7	3.8	7.48e-01	0	34	104	0	89	11514
2026-01-01 23:46:36.36	239.47	2.55	-63.0	-72.7	3.8	7.45e-01	0	34	104	0	89	11477
2026-01-01 23:46:37.36	239.41	2.48	-62.9	-72.7	3.8	7.47e-01	0	34	104	0	89	11464
2026-01-01 23:46:38.36	239.35	2.41	-62.9	-72.7	3.8	7.46e-01	0	34	104	0	89	11432
2026-01-01 23:46:39.36	239.30	2.34	-62.9	-72.6	3.8	7.45e-01	0	34	104	0	89	11408
2026-01-01 23:46:40.35	239.24	2.27	-62.9	-72.7	3.8	7.47e-01	0	34	104	0	89	11424
2026-01-01 23:46:41.36	239.18	2.21	-62.9	-72.6	3.8	7.46e-01	0	34	104	0	89	11388
2026-01-01 23:46:42.36	239.13	2.14	-62.9	-72.6	3.8	7.46e-01	0	34	104	0	89	11359
2026-01-01 23:46:43.36	239.07	2.07	-62.9	-72.6	3.8	7.46e-01	0	34	104	0	89	11390
2026-01-01 23:46:44.37	239.02	2.00	-62.9	-72.6	3.8	7.46e-01	0	34	104	0	89	11360

#Closed at: 2026-01-01 23:46:44
#Recorded file [0 MB]: D:/lorett/data/31004_260102_023645.dat