passes_logs/2026/01/01/R3.2S_Murmansk/R3.2S_Murmansk__20260101_121323_SUOMI_NPP_rec.log

#Pass ID: 20260101_121323_SUOMI NPP
#Satellite: SUOMI NPP
#Configuration: NPP
#almurnet v.1.7.20251203
#Start time: 2026-01-01 12:13:23

#Version: 2.2.20231116
#Station: R3.2S_Murmansk
#Location: 33.079688 lon 68.888172 lat
#TLE: 1 37849U 11061A   26001.07732418  .00000182  00000+0  10735-3 0  9990
#TLE: 2 37849  98.7795 303.2470 0002580  87.2016 272.9455 14.19520779734739

#Time	Az	El	Level	Level2	SNR	BER	BlckErr	Temp	State	Recorded	gain1	gain2
2026-01-01 12:13:23.76	218.73	2.03	-60.0	-76.0	3.8	1.49e+00	0	31	0	0	85	23693
2026-01-01 12:13:24.77	218.80	2.08	-60.0	-75.9	3.8	1.49e+00	0	31	104	0	85	23411
2026-01-01 12:13:25.78	218.88	2.14	-60.0	-75.9	3.8	1.49e+00	0	31	104	0	85	23483
2026-01-01 12:13:26.79	218.96	2.19	-60.0	-75.9	3.8	1.49e+00	0	31	104	0	85	23520
2026-01-01 12:13:27.79	219.04	2.24	-60.0	-75.9	3.8	1.49e+00	0	31	104	0	85	23565
2026-01-01 12:13:28.79	219.12	2.30	-60.0	-75.9	3.8	1.49e+00	0	31	104	0	85	23544
2026-01-01 12:13:29.80	219.20	2.35	-60.0	-75.9	3.8	1.49e+00	0	31	104	0	85	23518
2026-01-01 12:13:30.81	219.28	2.41	-60.0	-75.9	3.8	1.49e+00	0	31	104	0	85	23513
2026-01-01 12:13:31.82	219.36	2.46	-60.0	-75.9	3.8	1.49e+00	0	31	104	0	85	23530
2026-01-01 12:13:32.83	219.44	2.51	-60.0	-75.9	3.8	1.49e+00	0	32	104	0	85	23487
2026-01-01 12:13:33.84	219.52	2.57	-60.0	-75.9	3.8	1.49e+00	0	32	104	0	85	23542
2026-01-01 12:13:34.84	219.60	2.62	-60.0	-76.0	3.8	1.49e+00	0	31	104	0	85	23641
2026-01-01 12:13:35.85	219.68	2.68	-60.0	-76.0	3.8	1.49e+00	0	32	104	0	85	23630
2026-01-01 12:13:36.86	219.76	2.73	-60.0	-76.0	3.8	1.49e+00	0	31	104	0	85	23601
2026-01-01 12:13:37.87	219.84	2.79	-60.0	-75.9	3.8	1.49e+00	0	32	104	0	85	23563
2026-01-01 12:13:38.88	219.92	2.84	-60.0	-75.9	3.8	1.49e+00	0	32	104	0	85	23500
2026-01-01 12:13:39.89	220.01	2.89	-60.0	-75.8	3.8	1.49e+00	0	31	104	0	85	23277
2026-01-01 12:13:40.90	220.09	2.95	-60.0	-75.7	3.8	1.49e+00	0	31	104	0	85	22975
2026-01-01 12:13:41.90	220.17	3.00	-60.0	-75.7	3.8	1.49e+00	0	32	104	0	85	22974
2026-01-01 12:13:42.91	220.25	3.06	-60.0	-75.7	3.8	1.49e+00	0	32	104	0	85	23015
2026-01-01 12:13:43.92	220.34	3.11	-60.0	-75.8	3.8	1.49e+00	0	32	104	0	85	23119
2026-01-01 12:13:44.93	220.42	3.17	-60.0	-75.9	3.8	1.49e+00	0	32	104	0	85	23364
2026-01-01 12:13:45.93	220.50	3.22	-60.0	-75.9	3.8	1.49e+00	0	32	104	0	85	23504
2026-01-01 12:13:46.94	220.59	3.28	-60.0	-75.9	3.8	1.49e+00	0	32	104	0	85	23541
2026-01-01 12:13:47.96	220.67	3.33	-60.0	-76.0	3.8	1.49e+00	0	32	104	0	85	23657
2026-01-01 12:13:48.96	220.76	3.39	-60.0	-76.0	3.8	1.49e+00	0	32	104	0	85	23586
2026-01-01 12:13:49.98	220.84	3.44	-60.0	-75.9	3.8	1.49e+00	0	32	104	0	85	23461
2026-01-01 12:13:50.98	220.93	3.50	-60.0	-75.8	3.8	1.49e+00	0	32	104	0	85	23298
2026-01-01 12:13:51.99	221.01	3.55	-59.9	-75.7	3.8	1.49e+00	0	32	104	0	85	23010
2026-01-01 12:13:53.01	221.10	3.61	-59.9	-75.7	3.8	1.49e+00	0	32	104	0	85	22881
2026-01-01 12:13:54.01	221.19	3.67	-59.9	-75.5	3.8	1.49e+00	0	32	104	0	85	22516
2026-01-01 12:13:55.02	221.27	3.72	-59.9	-75.6	3.8	1.49e+00	0	32	104	0	85	22536
2026-01-01 12:13:56.02	221.36	3.78	-59.9	-75.7	3.8	1.49e+00	0	32	104	0	85	22810
2026-01-01 12:13:57.04	221.45	3.83	-59.9	-75.6	3.8	1.49e+00	0	32	104	0	85	22528
2026-01-01 12:13:58.04	221.53	3.89	-59.9	-75.7	3.8	1.49e+00	0	32	104	0	85	22827
2026-01-01 12:13:59.05	221.62	3.94	-59.9	-75.5	3.8	1.49e+00	0	32	104	0	85	22417
2026-01-01 12:14:00.06	221.71	4.00	-59.9	-75.5	3.8	1.49e+00	0	32	104	0	85	22274
2026-01-01 12:14:01.07	221.80	4.06	-59.9	-75.4	3.8	1.49e+00	0	32	104	0	85	22120
2026-01-01 12:14:02.08	221.89	4.11	-59.9	-75.3	3.8	1.49e+00	0	32	104	0	85	21864
2026-01-01 12:14:03.08	221.98	4.17	-59.9	-75.5	3.8	1.49e+00	0	32	104	0	85	22306
2026-01-01 12:14:04.09	222.07	4.22	-59.9	-75.6	3.8	1.49e+00	0	32	104	0	85	22684
2026-01-01 12:14:05.10	222.16	4.28	-60.0	-75.9	3.8	1.49e+00	0	32	104	0	85	23444
2026-01-01 12:14:06.11	222.25	4.34	-60.0	-75.9	3.8	1.49e+00	0	32	104	0	85	23544
2026-01-01 12:14:07.12	222.34	4.39	-59.9	-75.6	3.8	1.49e+00	0	32	104	0	85	22732
2026-01-01 12:14:08.13	222.43	4.45	-59.9	-74.9	3.8	1.49e+00	0	32	104	0	85	20811
2026-01-01 12:14:09.13	222.52	4.50	-59.9	-74.5	3.8	1.49e+00	0	32	104	0	85	20008
2026-01-01 12:14:10.14	222.61	4.56	-59.9	-73.8	3.8	1.49e+00	0	32	104	0	85	18448
2026-01-01 12:14:11.15	222.70	4.62	-59.9	-73.9	3.8	1.48e+00	0	32	104	0	85	18697
2026-01-01 12:14:12.16	222.79	4.67	-59.9	-74.2	3.8	1.49e+00	0	32	104	0	85	19344
2026-01-01 12:14:13.17	222.89	4.73	-59.9	-74.5	3.8	1.49e+00	0	32	104	0	85	20044
2026-01-01 12:14:14.18	222.98	4.79	-59.9	-75.0	3.8	1.49e+00	0	32	104	0	85	21020
2026-01-01 12:14:15.18	223.07	4.84	-59.9	-74.5	3.8	1.49e+00	0	32	104	0	85	19906
2026-01-01 12:14:16.19	223.17	4.90	-59.8	-73.1	3.9	1.48e+00	0	32	104	0	85	16918
2026-01-01 12:14:17.19	223.26	4.96	-59.7	-71.8	4.4	1.41e+00	92	32	0	0	85	14679
2026-01-01 12:14:18.20	223.35	5.01	-59.6	-69.8	5.1	7.85e-01	0	32	0	2097152	85	11672
2026-01-01 12:14:19.21	223.45	5.07	-58.5	-64.4	9.7	6.61e-03	0	33	0	3145728	83	6996
2026-01-01 12:14:20.22	223.54	5.13	-59.9	-75.0	3.8	1.10e+00	0	33	104	4194304	85	21199
2026-01-01 12:14:21.22	223.64	5.18	-57.3	-61.2	12.3	8.54e-02	0	32	0	4194304	80	5764
2026-01-01 12:14:22.22	223.73	5.24	-58.5	-65.5	8.6	5.72e-02	0	33	0	6291456	83	7951
2026-01-01 12:14:23.23	223.83	5.30	-56.3	-59.5	13.5	3.00e-06	0	32	0	8388608	79	5035
2026-01-01 12:14:24.24	223.92	5.36	-56.1	-59.1	13.8	0.00e+00	0	32	0	9437184	78	5057
2026-01-01 12:14:25.25	224.02	5.41	-56.0	-58.9	13.9	0.00e+00	0	33	0	11534336	78	4973
2026-01-01 12:14:26.25	224.12	5.47	-55.8	-58.6	14.1	0.00e+00	0	32	0	13631488	78	4805
2026-01-01 12:14:27.26	224.22	5.53	-55.5	-58.1	14.4	0.00e+00	0	33	0	15728640	77	4806
2026-01-01 12:14:28.26	224.31	5.59	-55.5	-58.2	14.4	0.00e+00	0	32	0	17825792	77	4835
2026-01-01 12:14:29.27	224.41	5.64	-55.4	-58.0	14.5	0.00e+00	0	33	0	18874368	77	4746
2026-01-01 12:14:30.28	224.51	5.70	-55.5	-58.1	14.5	0.00e+00	0	33	0	20971520	77	4767
2026-01-01 12:14:31.28	224.61	5.76	-55.6	-58.3	14.3	0.00e+00	0	33	0	23068672	77	4891
2026-01-01 12:14:32.29	224.71	5.82	-55.5	-58.2	14.4	0.00e+00	0	33	0	25165824	77	4817
2026-01-01 12:14:33.30	224.81	5.87	-55.5	-58.2	14.4	0.00e+00	0	33	0	26214400	77	4822
2026-01-01 12:14:34.30	224.91	5.93	-55.6	-58.3	14.4	0.00e+00	0	33	0	28311552	77	4913
2026-01-01 12:14:35.31	225.01	5.99	-55.6	-58.3	14.4	0.00e+00	0	33	0	30408704	77	4880
2026-01-01 12:14:36.31	225.11	6.05	-55.6	-58.2	14.4	0.00e+00	0	33	0	32505856	77	4844
2026-01-01 12:14:37.32	225.21	6.10	-55.6	-58.2	14.4	0.00e+00	0	33	0	34603008	77	4838
2026-01-01 12:14:38.33	225.31	6.16	-55.6	-58.2	14.4	0.00e+00	0	33	0	36700160	77	4869
2026-01-01 12:14:39.34	225.41	6.22	-55.5	-58.1	14.5	0.00e+00	0	33	0	37748736	77	4768
2026-01-01 12:14:40.35	225.51	6.28	-55.7	-58.5	14.3	0.00e+00	0	33	0	39845888	77	4988
2026-01-01 12:14:41.35	225.62	6.34	-55.6	-58.3	14.4	0.00e+00	0	33	0	41943040	77	4872
2026-01-01 12:14:42.35	225.72	6.39	-55.7	-58.4	14.3	0.00e+00	0	33	0	44040192	77	4951
2026-01-01 12:14:43.36	225.82	6.45	-55.8	-58.6	14.2	0.00e+00	0	33	0	46137344	77	5078
2026-01-01 12:14:44.37	225.93	6.51	-55.9	-58.7	14.2	0.00e+00	0	33	0	47185920	77	5122
2026-01-01 12:14:45.38	226.03	6.57	-55.8	-58.5	14.3	0.00e+00	0	33	0	49283072	77	5030
2026-01-01 12:14:46.38	226.13	6.63	-56.0	-58.8	14.1	0.00e+00	0	33	0	51380224	77	5197
2026-01-01 12:14:47.39	226.24	6.69	-56.0	-58.8	14.1	0.00e+00	0	33	0	53477376	77	5177
2026-01-01 12:14:48.39	226.34	6.74	-55.9	-58.6	14.2	0.00e+00	0	33	0	54525952	77	5079
2026-01-01 12:14:49.40	226.45	6.80	-56.1	-59.0	14.0	0.00e+00	0	33	0	56623104	77	5319
2026-01-01 12:14:50.41	226.56	6.86	-55.9	-58.7	14.2	0.00e+00	0	33	0	58720256	77	5117
2026-01-01 12:14:51.42	226.66	6.92	-55.9	-58.6	14.2	0.00e+00	0	33	0	60817408	77	5095
2026-01-01 12:14:52.42	226.77	6.98	-55.8	-58.6	14.3	0.00e+00	0	33	0	62914560	77	5055
2026-01-01 12:14:53.43	226.88	7.04	-55.9	-58.7	14.2	0.00e+00	0	33	0	65011712	77	5126
2026-01-01 12:14:54.44	226.99	7.10	-55.8	-58.5	14.3	0.00e+00	0	33	0	66060288	77	5009
2026-01-01 12:14:55.44	227.09	7.16	-55.8	-58.5	14.3	0.00e+00	0	33	0	68157440	77	5005
2026-01-01 12:14:56.45	227.20	7.22	-55.8	-58.5	14.3	0.00e+00	0	33	0	70254592	77	5017
2026-01-01 12:14:57.44	227.31	7.27	-55.6	-58.2	14.5	0.00e+00	0	33	0	72351744	77	4841
2026-01-01 12:14:58.45	227.42	7.33	-55.6	-58.2	14.5	0.00e+00	0	33	0	73400320	77	4869
2026-01-01 12:14:59.46	227.53	7.39	-55.6	-58.2	14.5	0.00e+00	0	33	0	75497472	77	4870
2026-01-01 12:15:00.47	227.64	7.45	-55.6	-58.2	14.5	0.00e+00	0	33	0	77594624	77	4829
2026-01-01 12:15:01.48	227.75	7.51	-55.6	-58.2	14.5	0.00e+00	0	33	0	79691776	77	4843
2026-01-01 12:15:02.49	227.86	7.57	-55.6	-58.1	14.5	0.00e+00	0	33	0	81788928	77	4801
2026-01-01 12:15:03.50	227.97	7.63	-55.6	-58.2	14.5	0.00e+00	0	33	0	82837504	77	4836
2026-01-01 12:15:04.50	228.09	7.69	-55.6	-58.2	14.5	0.00e+00	0	33	0	84934656	77	4819
2026-01-01 12:15:05.52	228.20	7.75	-55.5	-58.1	14.6	0.00e+00	0	33	0	87031808	77	4778
2026-01-01 12:15:06.52	228.31	7.81	-55.5	-58.0	14.6	0.00e+00	0	33	0	89128960	77	4726
2026-01-01 12:15:07.53	228.43	7.87	-55.4	-57.8	14.7	0.00e+00	0	33	0	91226112	77	4650
2026-01-01 12:15:08.54	228.54	7.93	-55.4	-57.9	14.7	0.00e+00	0	33	0	93323264	77	4680
2026-01-01 12:15:09.55	228.65	7.99	-55.4	-57.8	14.8	0.00e+00	0	33	0	94371840	77	4642
2026-01-01 12:15:10.56	228.77	8.05	-55.3	-57.7	14.8	0.00e+00	0	33	0	96468992	77	4593
2026-01-01 12:15:11.57	228.89	8.11	-55.4	-57.8	14.8	0.00e+00	0	33	0	98566144	77	4629
2026-01-01 12:15:12.57	229.00	8.17	-55.2	-57.6	14.9	0.00e+00	0	33	0	100663296	76	4768
2026-01-01 12:15:13.58	229.12	8.23	-55.1	-57.4	15.0	0.00e+00	0	33	0	102760448	76	4667
2026-01-01 12:15:14.58	229.23	8.28	-54.9	-57.1	15.1	0.00e+00	0	33	0	103809024	76	4508
2026-01-01 12:15:15.59	229.35	8.34	-54.8	-57.0	15.1	0.00e+00	0	33	0	105906176	76	4483
2026-01-01 12:15:16.60	229.47	8.40	-54.8	-57.0	15.2	0.00e+00	0	33	0	108003328	76	4473
2026-01-01 12:15:17.60	229.58	8.46	-54.9	-57.1	15.1	0.00e+00	0	33	0	110100480	76	4537
2026-01-01 12:15:18.61	229.70	8.52	-54.8	-57.0	15.2	0.00e+00	0	33	0	112197632	76	4474
2026-01-01 12:15:19.62	229.82	8.58	-54.8	-57.0	15.2	0.00e+00	0	33	0	113246208	76	4452
2026-01-01 12:15:20.63	229.94	8.64	-54.9	-57.1	15.1	0.00e+00	0	33	0	115343360	76	4521
2026-01-01 12:15:21.64	230.06	8.71	-54.8	-57.0	15.2	0.00e+00	0	33	0	117440512	76	4457
2026-01-01 12:15:22.63	230.18	8.76	-54.9	-57.1	15.1	0.00e+00	0	33	0	119537664	76	4535
2026-01-01 12:15:23.64	230.30	8.82	-54.9	-57.1	15.2	0.00e+00	0	33	0	121634816	76	4509
2026-01-01 12:15:24.65	230.42	8.88	-54.8	-56.9	15.2	0.00e+00	0	33	0	122683392	76	4441
2026-01-01 12:15:25.65	230.54	8.94	-54.9	-57.1	15.2	0.00e+00	0	33	0	124780544	76	4528
2026-01-01 12:15:26.66	230.67	9.01	-54.9	-57.1	15.2	0.00e+00	0	33	0	126877696	76	4519
2026-01-01 12:15:27.67	230.79	9.07	-54.9	-57.1	15.2	0.00e+00	0	33	0	128974848	76	4520
2026-01-01 12:15:28.68	230.91	9.13	-54.8	-57.0	15.1	0.00e+00	0	33	0	131072000	75	4736
2026-01-01 12:15:29.69	231.04	9.19	-54.9	-57.1	15.1	0.00e+00	0	33	0	132120576	75	4796
2026-01-01 12:15:30.70	231.16	9.25	-54.7	-56.9	15.2	0.00e+00	0	33	0	134217728	75	4696
2026-01-01 12:15:31.71	231.29	9.31	-54.8	-57.0	15.2	0.00e+00	0	33	0	136314880	75	4722
2026-01-01 12:15:32.71	231.41	9.37	-54.8	-57.0	15.2	0.00e+00	0	33	0	138412032	75	4732
2026-01-01 12:15:33.72	231.54	9.43	-54.7	-56.9	15.3	0.00e+00	0	33	0	140509184	75	4658
2026-01-01 12:15:34.72	231.66	9.49	-54.6	-56.8	15.3	0.00e+00	0	33	0	141557760	75	4623
2026-01-01 12:15:35.73	231.79	9.55	-54.5	-56.6	15.4	0.00e+00	0	33	0	143654912	75	4502
2026-01-01 12:15:36.74	231.92	9.61	-54.4	-56.5	15.4	0.00e+00	0	33	0	145752064	75	4490
2026-01-01 12:15:37.74	232.04	9.67	-54.5	-56.6	15.3	0.00e+00	0	33	0	147849216	75	4533
2026-01-01 12:15:38.75	232.17	9.73	-54.5	-56.6	15.4	0.00e+00	0	33	0	149946368	75	4514
2026-01-01 12:15:39.76	232.30	9.79	-54.5	-56.6	15.4	0.00e+00	0	33	0	150994944	75	4514
2026-01-01 12:15:40.77	232.43	9.85	-54.6	-56.7	15.3	0.00e+00	0	33	0	153092096	75	4579
2026-01-01 12:15:41.77	232.56	9.91	-54.6	-56.8	15.3	0.00e+00	0	33	0	155189248	75	4631
2026-01-01 12:15:42.78	232.69	9.97	-54.6	-56.7	15.3	0.00e+00	0	33	0	157286400	75	4574
2026-01-01 12:15:43.79	232.82	10.03	-54.5	-56.6	15.4	0.00e+00	0	33	0	159383552	75	4526
2026-01-01 12:15:44.79	232.95	10.09	-54.7	-56.8	15.3	0.00e+00	0	33	0	160432128	75	4630
2026-01-01 12:15:45.80	233.09	10.16	-54.5	-56.7	15.4	0.00e+00	0	33	0	162529280	75	4552
2026-01-01 12:15:46.81	233.22	10.22	-54.7	-56.8	15.3	0.00e+00	0	33	0	164626432	75	4631
2026-01-01 12:15:47.82	233.35	10.28	-54.7	-56.9	15.3	0.00e+00	0	33	0	166723584	75	4677
2026-01-01 12:15:48.83	233.49	10.34	-54.6	-56.7	15.3	0.00e+00	0	33	0	168820736	75	4597
2026-01-01 12:15:49.83	233.62	10.40	-54.4	-56.5	15.5	0.00e+00	0	33	0	169869312	75	4458
2026-01-01 12:15:50.83	233.75	10.46	-54.4	-56.5	15.5	0.00e+00	0	33	0	171966464	75	4476
2026-01-01 12:15:51.84	233.89	10.52	-54.5	-56.5	15.4	0.00e+00	0	33	0	174063616	75	4488
2026-01-01 12:15:52.85	234.02	10.58	-54.3	-56.2	15.6	0.00e+00	0	33	0	176160768	75	4340
2026-01-01 12:15:53.86	234.16	10.64	-54.2	-56.3	15.6	0.00e+00	0	33	0	178257920	75	4350
2026-01-01 12:15:54.87	234.30	10.70	-54.2	-56.2	15.6	0.00e+00	0	33	0	179306496	75	4330
2026-01-01 12:15:55.87	234.43	10.76	-54.2	-56.1	15.6	0.00e+00	0	33	0	181403648	74	4529
2026-01-01 12:15:56.87	234.57	10.82	-54.4	-56.5	15.5	0.00e+00	0	33	0	183500800	74	4709
2026-01-01 12:15:57.87	234.71	10.89	-54.2	-56.3	15.6	0.00e+00	0	33	0	185597952	74	4600
2026-01-01 12:15:58.88	234.85	10.95	-54.3	-56.3	15.5	0.00e+00	0	33	0	187695104	74	4650
2026-01-01 12:15:59.89	234.99	11.01	-54.2	-56.2	15.6	0.00e+00	0	33	0	188743680	74	4598
2026-01-01 12:16:00.89	235.13	11.07	-54.3	-56.4	15.5	0.00e+00	0	33	0	190840832	74	4653
2026-01-01 12:16:01.90	235.27	11.13	-54.3	-56.3	15.6	0.00e+00	0	33	0	192937984	74	4615
2026-01-01 12:16:02.91	235.41	11.19	-54.4	-56.4	15.5	0.00e+00	0	33	0	195035136	74	4683
2026-01-01 12:16:03.92	235.55	11.25	-54.3	-56.4	15.5	0.00e+00	0	33	0	197132288	74	4674
2026-01-01 12:16:04.92	235.69	11.31	-54.3	-56.3	15.5	0.00e+00	0	33	0	198180864	74	4646
2026-01-01 12:16:05.93	235.83	11.37	-54.5	-56.5	15.5	0.00e+00	0	33	0	200278016	74	4741
2026-01-01 12:16:06.93	235.98	11.43	-54.6	-56.7	15.4	0.00e+00	0	33	0	202375168	74	4838
2026-01-01 12:16:07.94	236.12	11.49	-54.6	-56.7	15.4	0.00e+00	0	33	0	204472320	74	4825
2026-01-01 12:16:08.95	236.27	11.56	-54.6	-56.7	15.4	0.00e+00	0	33	0	206569472	74	4834
2026-01-01 12:16:09.96	236.41	11.62	-54.7	-56.9	15.3	0.00e+00	0	33	0	207618048	74	4945
2026-01-01 12:16:10.97	236.56	11.68	-54.5	-56.6	15.5	0.00e+00	0	33	0	209715200	74	4783
2026-01-01 12:16:11.97	236.70	11.74	-54.6	-56.7	15.5	0.00e+00	0	33	0	211812352	74	4827
2026-01-01 12:16:12.97	236.85	11.80	-54.6	-56.7	15.4	0.00e+00	0	33	0	213909504	74	4867
2026-01-01 12:16:13.98	237.00	11.86	-54.5	-56.5	15.5	0.00e+00	0	33	0	216006656	74	4754
2026-01-01 12:16:14.99	237.15	11.92	-54.5	-56.5	15.5	0.00e+00	0	33	0	217055232	74	4727
2026-01-01 12:16:16.00	237.30	11.98	-54.4	-56.5	15.5	0.00e+00	0	33	0	219152384	74	4713
2026-01-01 12:16:17.00	237.44	12.04	-54.7	-56.8	15.4	0.00e+00	0	33	0	221249536	74	4918
2026-01-01 12:16:18.01	237.59	12.10	-54.6	-56.6	15.4	0.00e+00	0	33	0	223346688	74	4808
2026-01-01 12:16:19.02	237.74	12.16	-54.5	-56.6	15.4	0.00e+00	0	33	0	225443840	74	4787
2026-01-01 12:16:20.02	237.89	12.22	-54.5	-56.5	15.5	0.00e+00	0	33	0	226492416	74	4742
2026-01-01 12:16:21.03	238.05	12.28	-54.6	-56.7	15.5	0.00e+00	0	33	0	228589568	74	4825
2026-01-01 12:16:22.03	238.20	12.34	-54.4	-56.5	15.6	0.00e+00	0	33	0	230686720	74	4721
2026-01-01 12:16:23.04	238.35	12.41	-54.2	-56.2	15.7	0.00e+00	0	33	0	232783872	74	4579
2026-01-01 12:16:24.05	238.51	12.47	-54.3	-56.3	15.7	0.00e+00	0	33	0	234881024	74	4605
2026-01-01 12:16:25.06	238.66	12.53	-54.2	-56.1	15.7	0.00e+00	0	33	0	235929600	74	4520
2026-01-01 12:16:26.06	238.81	12.59	-54.0	-55.9	15.8	0.00e+00	0	33	0	238026752	74	4403
2026-01-01 12:16:27.06	238.97	12.65	-53.9	-55.8	15.9	0.00e+00	0	33	0	240123904	74	4353
2026-01-01 12:16:28.06	239.12	12.71	-53.9	-55.8	15.9	0.00e+00	0	33	0	242221056	74	4353
2026-01-01 12:16:29.07	239.28	12.77	-53.7	-55.5	16.0	0.00e+00	0	33	0	244318208	73	4470
2026-01-01 12:16:30.09	239.44	12.83	-53.7	-55.6	15.9	0.00e+00	0	33	0	245366784	73	4498
2026-01-01 12:16:31.09	239.59	12.89	-53.7	-55.6	15.9	0.00e+00	0	33	0	247463936	73	4516
2026-01-01 12:16:32.10	239.75	12.95	-53.8	-55.6	15.9	0.00e+00	0	33	0	249561088	73	4541
2026-01-01 12:16:33.10	239.91	13.01	-53.9	-55.8	15.8	0.00e+00	0	33	0	251658240	73	4618
2026-01-01 12:16:34.11	240.07	13.07	-53.9	-55.8	15.8	0.00e+00	0	33	0	253755392	73	4629
2026-01-01 12:16:35.12	240.23	13.13	-54.1	-56.1	15.7	0.00e+00	0	33	0	254803968	73	4769
2026-01-01 12:16:36.13	240.39	13.19	-53.9	-55.7	15.9	0.00e+00	0	33	0	256901120	73	4596
2026-01-01 12:16:37.14	240.56	13.25	-54.0	-55.9	15.8	0.00e+00	0	33	0	258998272	73	4684
2026-01-01 12:16:38.14	240.72	13.31	-54.0	-55.9	15.8	0.00e+00	0	33	0	261095424	73	4702
2026-01-01 12:16:39.14	240.88	13.37	-54.1	-56.0	15.7	0.00e+00	0	33	0	263192576	73	4712
2026-01-01 12:16:40.15	241.04	13.43	-54.1	-56.0	15.7	0.00e+00	0	33	0	264241152	73	4739
2026-01-01 12:16:41.16	241.21	13.49	-54.2	-56.2	15.6	0.00e+00	0	33	0	266338304	73	4851
2026-01-01 12:16:42.17	241.37	13.55	-54.4	-56.4	15.6	0.00e+00	0	33	0	268435456	73	4959
2026-01-01 12:16:43.17	241.54	13.61	-54.0	-55.9	15.8	0.00e+00	0	33	0	270532608	73	4669
2026-01-01 12:16:44.18	241.70	13.67	-54.0	-55.9	15.8	0.00e+00	0	33	0	272629760	73	4686
2026-01-01 12:16:45.19	241.87	13.73	-54.1	-56.0	15.8	0.00e+00	0	33	0	273678336	73	4723
2026-01-01 12:16:46.19	242.04	13.79	-54.1	-56.0	15.7	0.00e+00	0	33	0	275775488	73	4755
2026-01-01 12:16:47.20	242.20	13.84	-54.3	-56.3	15.6	0.00e+00	0	33	0	277872640	73	4874
2026-01-01 12:16:48.21	242.37	13.90	-54.3	-56.3	15.6	0.00e+00	0	33	0	279969792	73	4919
2026-01-01 12:16:49.22	242.54	13.96	-54.5	-56.5	15.6	0.00e+00	0	33	0	282066944	74	4734
2026-01-01 12:16:50.22	242.71	14.02	-54.5	-56.5	15.5	0.00e+00	0	33	0	283115520	74	4744
2026-01-01 12:16:51.23	242.88	14.08	-54.5	-56.6	15.5	0.00e+00	0	33	0	285212672	74	4792
2026-01-01 12:16:52.23	243.05	14.14	-54.3	-56.3	15.6	0.00e+00	0	33	0	287309824	74	4641
2026-01-01 12:16:53.24	243.23	14.20	-54.2	-56.2	15.7	0.00e+00	0	33	0	289406976	74	4574
2026-01-01 12:16:54.25	243.40	14.26	-54.0	-55.9	15.8	0.00e+00	0	33	0	291504128	74	4406
2026-01-01 12:16:55.26	243.57	14.32	-53.8	-55.6	15.9	0.00e+00	0	33	0	292552704	74	4284
2026-01-01 12:16:56.27	243.75	14.37	-53.7	-55.5	16.0	0.00e+00	0	33	0	294649856	74	4209
2026-01-01 12:16:57.27	243.92	14.43	-53.8	-55.6	15.9	0.00e+00	0	33	0	296747008	73	4512
2026-01-01 12:16:58.27	244.09	14.49	-53.9	-55.8	15.9	0.00e+00	0	33	0	298844160	73	4635
2026-01-01 12:16:59.28	244.27	14.55	-53.9	-55.8	15.9	0.00e+00	0	33	0	300941312	73	4638
2026-01-01 12:17:00.28	244.45	14.61	-54.1	-56.0	15.8	0.00e+00	0	33	0	301989888	73	4709
2026-01-01 12:17:01.29	244.62	14.66	-54.2	-56.1	15.7	0.00e+00	0	33	0	304087040	73	4793
2026-01-01 12:17:02.30	244.80	14.72	-54.2	-56.1	15.7	0.00e+00	0	33	0	306184192	73	4781
2026-01-01 12:17:03.31	244.98	14.78	-54.1	-56.0	15.8	0.00e+00	0	33	0	308281344	73	4730
2026-01-01 12:17:04.31	245.16	14.84	-54.0	-55.9	15.8	0.00e+00	0	33	0	310378496	73	4669
2026-01-01 12:17:05.32	245.34	14.90	-53.8	-55.6	15.9	0.00e+00	0	33	0	311427072	73	4542
2026-01-01 12:17:06.33	245.52	14.95	-53.8	-55.6	15.9	0.00e+00	0	33	0	313524224	73	4535
2026-01-01 12:17:07.33	245.70	15.01	-53.7	-55.5	16.0	0.00e+00	0	33	0	315621376	73	4453
2026-01-01 12:17:08.34	245.88	15.07	-53.7	-55.5	16.0	0.00e+00	0	33	0	317718528	73	4448
2026-01-01 12:17:09.35	246.07	15.12	-53.5	-55.2	16.1	0.00e+00	0	33	0	319815680	73	4333
2026-01-01 12:17:10.36	246.25	15.18	-53.6	-55.4	16.0	0.00e+00	0	33	0	320864256	73	4399
2026-01-01 12:17:11.36	246.43	15.24	-53.4	-55.2	16.1	0.00e+00	0	33	0	322961408	73	4314
2026-01-01 12:17:12.37	246.62	15.29	-53.5	-55.3	16.1	0.00e+00	0	33	0	325058560	73	4353
2026-01-01 12:17:13.38	246.80	15.35	-53.6	-55.4	16.0	0.00e+00	0	33	0	327155712	73	4417
2026-01-01 12:17:14.39	246.99	15.41	-53.6	-55.3	16.0	0.00e+00	0	33	0	329252864	73	4383
2026-01-01 12:17:15.39	247.17	15.46	-53.5	-55.2	16.1	0.00e+00	0	33	0	330301440	73	4334
2026-01-01 12:17:16.40	247.36	15.52	-53.5	-55.3	16.1	0.00e+00	0	33	0	332398592	73	4353
2026-01-01 12:17:17.41	247.55	15.57	-53.5	-55.3	16.1	0.00e+00	0	33	0	334495744	73	4359
2026-01-01 12:17:18.42	247.74	15.63	-53.6	-55.4	16.0	0.00e+00	0	33	0	336592896	73	4411
2026-01-01 12:17:19.43	247.93	15.69	-53.6	-55.4	16.0	0.00e+00	0	33	0	338690048	73	4401
2026-01-01 12:17:20.44	248.12	15.74	-53.7	-55.5	16.0	0.00e+00	0	33	0	339738624	73	4460
2026-01-01 12:17:21.45	248.31	15.80	-53.8	-55.6	16.0	0.00e+00	0	33	0	341835776	73	4525
2026-01-01 12:17:22.46	248.50	15.85	-53.8	-55.7	15.9	0.00e+00	0	33	0	343932928	73	4547
2026-01-01 12:17:23.47	248.70	15.91	-53.6	-55.4	16.1	0.00e+00	0	33	0	346030080	73	4408
2026-01-01 12:17:24.48	248.89	15.96	-53.7	-55.5	16.0	0.00e+00	0	33	0	348127232	73	4490
2026-01-01 12:17:25.49	249.08	16.02	-53.6	-55.4	16.1	0.00e+00	0	33	0	349175808	73	4407
2026-01-01 12:17:26.50	249.28	16.07	-53.5	-55.2	16.1	0.00e+00	0	33	0	351272960	73	4324
2026-01-01 12:17:27.50	249.47	16.12	-53.5	-55.2	16.1	0.00e+00	0	33	0	353370112	73	4321
2026-01-01 12:17:28.50	249.67	16.18	-53.6	-55.4	16.1	0.00e+00	0	33	0	355467264	73	4404
2026-01-01 12:17:29.51	249.86	16.23	-53.8	-55.7	16.0	0.00e+00	0	33	0	357564416	73	4546
2026-01-01 12:17:30.51	250.06	16.28	-53.9	-55.7	15.9	0.00e+00	0	33	0	358612992	73	4597
2026-01-01 12:17:31.52	250.26	16.34	-54.0	-55.9	15.8	0.00e+00	0	33	0	360710144	73	4674
2026-01-01 12:17:32.52	250.45	16.39	-54.1	-56.0	15.8	0.00e+00	0	33	0	362807296	73	4750
2026-01-01 12:17:33.53	250.65	16.44	-54.3	-56.2	15.7	0.00e+00	0	33	0	364904448	73	4865
2026-01-01 12:17:34.54	250.85	16.49	-54.0	-55.9	15.9	0.00e+00	0	33	0	367001600	73	4655
2026-01-01 12:17:35.54	251.05	16.55	-54.0	-55.9	15.8	0.00e+00	0	33	0	368050176	73	4672
2026-01-01 12:17:36.55	251.25	16.60	-54.0	-55.8	15.9	0.00e+00	0	33	0	370147328	73	4648
2026-01-01 12:17:37.55	251.45	16.65	-54.0	-55.8	15.9	0.00e+00	0	33	0	372244480	73	4635
2026-01-01 12:17:38.56	251.66	16.70	-54.2	-56.1	15.8	0.00e+00	0	33	0	374341632	73	4812
2026-01-01 12:17:39.57	251.86	16.75	-54.2	-56.2	15.8	0.00e+00	0	33	0	376438784	73	4821
2026-01-01 12:17:40.58	252.06	16.81	-54.4	-56.4	15.7	0.00e+00	0	33	0	377487360	74	4677
2026-01-01 12:17:41.58	252.27	16.86	-54.5	-56.6	15.6	0.00e+00	0	33	0	379584512	74	4762
2026-01-01 12:17:42.59	252.47	16.91	-54.6	-56.7	15.5	0.00e+00	0	33	0	381681664	74	4839
2026-01-01 12:17:43.60	252.68	16.96	-54.6	-56.6	15.6	0.00e+00	0	33	0	383778816	74	4801
2026-01-01 12:17:44.61	252.88	17.01	-54.6	-56.7	15.5	0.00e+00	0	33	0	385875968	74	4835
2026-01-01 12:17:45.62	253.09	17.06	-54.6	-56.6	15.6	0.00e+00	0	33	0	386924544	74	4760
2026-01-01 12:17:46.63	253.30	17.11	-54.6	-56.6	15.6	0.00e+00	0	33	0	389021696	74	4789
2026-01-01 12:17:47.64	253.51	17.16	-54.7	-56.8	15.5	0.00e+00	0	33	0	391118848	74	4881
2026-01-01 12:17:48.65	253.72	17.21	-54.7	-56.7	15.5	0.00e+00	0	33	0	393216000	74	4868
2026-01-01 12:17:49.65	253.93	17.26	-54.8	-56.9	15.5	0.00e+00	0	33	0	395313152	74	4942
2026-01-01 12:17:50.66	254.14	17.30	-54.9	-57.0	15.4	0.00e+00	0	33	0	396361728	75	4750
2026-01-01 12:17:51.67	254.35	17.35	-54.8	-56.9	15.5	0.00e+00	0	33	0	398458880	75	4657
2026-01-01 12:17:52.68	254.56	17.40	-54.9	-57.0	15.4	0.00e+00	0	33	0	400556032	75	4751
2026-01-01 12:17:53.68	254.77	17.45	-55.0	-57.1	15.3	0.00e+00	0	33	0	402653184	75	4786
2026-01-01 12:17:54.69	254.99	17.50	-54.9	-57.0	15.4	0.00e+00	0	33	0	404750336	75	4745
2026-01-01 12:17:55.70	255.20	17.54	-55.0	-57.2	15.3	0.00e+00	0	33	0	405798912	75	4850
2026-01-01 12:17:56.71	255.41	17.59	-55.1	-57.3	15.3	0.00e+00	0	33	0	407896064	75	4920
2026-01-01 12:17:57.72	255.63	17.64	-55.2	-57.5	15.1	0.00e+00	0	33	0	409993216	75	4997
2026-01-01 12:17:58.72	255.84	17.68	-55.2	-57.4	15.2	0.00e+00	0	33	0	412090368	75	4937
2026-01-01 12:17:59.73	256.06	17.73	-55.2	-57.4	15.2	0.00e+00	0	33	0	414187520	75	4943
2026-01-01 12:18:00.74	256.28	17.78	-55.2	-57.4	15.2	0.00e+00	0	33	0	415236096	75	4956
2026-01-01 12:18:01.75	256.50	17.82	-55.4	-57.7	15.1	0.00e+00	0	33	0	417333248	75	5101
2026-01-01 12:18:02.75	256.71	17.87	-55.5	-57.8	15.0	0.00e+00	0	33	0	419430400	76	4924
2026-01-01 12:18:03.76	256.93	17.91	-55.6	-58.0	15.0	0.00e+00	0	33	0	421527552	76	4998
2026-01-01 12:18:04.77	257.15	17.96	-55.6	-57.9	15.0	0.00e+00	0	33	0	423624704	76	4979
2026-01-01 12:18:05.78	257.37	18.00	-55.6	-58.0	15.0	0.00e+00	0	33	0	424673280	76	4984
2026-01-01 12:18:06.78	257.59	18.04	-55.4	-57.7	15.1	0.00e+00	0	33	0	426770432	76	4828
2026-01-01 12:18:07.79	257.81	18.09	-55.1	-57.2	15.4	0.00e+00	0	33	0	428867584	76	4578
2026-01-01 12:18:08.80	258.03	18.13	-54.7	-56.7	15.6	0.00e+00	0	33	0	430964736	76	4317
2026-01-01 12:18:09.81	258.26	18.17	-54.7	-56.7	15.5	0.00e+00	0	33	0	433061888	75	4597
2026-01-01 12:18:10.81	258.48	18.22	-54.5	-56.5	15.6	0.00e+00	0	33	0	434110464	75	4492
2026-01-01 12:18:11.82	258.70	18.26	-54.6	-56.6	15.6	0.00e+00	0	33	0	436207616	75	4529
2026-01-01 12:18:12.82	258.93	18.30	-54.7	-56.8	15.5	0.00e+00	0	33	0	438304768	75	4620
2026-01-01 12:18:13.82	259.15	18.34	-54.7	-56.7	15.5	0.00e+00	0	33	0	440401920	75	4592
2026-01-01 12:18:14.83	259.37	18.38	-54.7	-56.8	15.5	0.00e+00	0	33	0	442499072	75	4617
2026-01-01 12:18:15.84	259.60	18.42	-54.3	-56.3	15.7	0.00e+00	0	33	0	443547648	75	4375
2026-01-01 12:18:16.85	259.83	18.46	-54.1	-56.2	15.7	0.00e+00	0	33	0	445644800	74	4558
2026-01-01 12:18:17.85	260.05	18.50	-54.1	-56.2	15.7	0.00e+00	0	33	0	447741952	74	4580
2026-01-01 12:18:18.87	260.28	18.54	-54.0	-56.2	15.7	0.00e+00	0	33	0	449839104	74	4577
2026-01-01 12:18:19.87	260.51	18.58	-54.0	-56.5	15.6	0.00e+00	0	33	0	451936256	74	4709
2026-01-01 12:18:20.88	260.74	18.62	-53.8	-56.5	15.5	0.00e+00	0	33	0	452984832	74	4749
2026-01-01 12:18:21.89	260.97	18.66	-53.9	-56.8	15.3	0.00e+00	0	33	0	455081984	74	4924
2026-01-01 12:18:22.90	261.20	18.70	-53.5	-56.4	15.4	0.00e+00	0	33	0	457179136	73	4959
2026-01-01 12:18:23.91	261.43	18.74	-53.3	-56.0	15.6	0.00e+00	0	33	0	459276288	73	4748
2026-01-01 12:18:24.91	261.66	18.77	-53.6	-55.9	15.8	0.00e+00	0	33	0	461373440	73	4655
2026-01-01 12:18:25.93	261.90	18.81	-53.7	-55.7	16.0	0.00e+00	0	33	0	462422016	73	4559
2026-01-01 12:18:26.93	262.13	18.85	-53.7	-55.6	16.1	0.00e+00	0	33	0	464519168	73	4512
2026-01-01 12:18:27.93	262.36	18.88	-53.8	-55.6	16.0	0.00e+00	0	33	0	466616320	73	4535
2026-01-01 12:18:28.93	262.59	18.92	-54.0	-55.8	16.0	0.00e+00	0	33	0	468713472	73	4647
2026-01-01 12:18:29.94	262.82	18.95	-54.2	-56.1	15.8	0.00e+00	0	33	0	470810624	73	4800
2026-01-01 12:18:30.95	263.06	18.99	-54.1	-56.0	15.8	0.00e+00	0	33	0	471859200	73	4759
2026-01-01 12:18:31.96	263.29	19.02	-53.9	-55.7	16.0	0.00e+00	0	33	0	473956352	73	4566
2026-01-01 12:18:32.97	263.53	19.06	-53.7	-55.4	16.1	0.00e+00	0	33	0	476053504	73	4427
2026-01-01 12:18:33.97	263.76	19.09	-53.6	-55.3	16.2	0.00e+00	0	33	0	478150656	73	4350
2026-01-01 12:18:34.98	264.00	19.12	-53.6	-55.4	16.1	0.00e+00	0	33	0	480247808	73	4392
2026-01-01 12:18:35.98	264.24	19.16	-53.4	-55.1	16.2	0.00e+00	0	33	0	481296384	73	4273
2026-01-01 12:18:36.99	264.47	19.19	-53.5	-55.3	16.2	0.00e+00	0	33	0	483393536	73	4353
2026-01-01 12:18:37.99	264.71	19.22	-53.4	-55.1	16.2	0.00e+00	0	33	0	485490688	73	4272
2026-01-01 12:18:39.00	264.95	19.25	-53.4	-55.1	16.3	0.00e+00	0	33	0	487587840	73	4244
2026-01-01 12:18:40.03	265.19	19.28	-53.2	-54.9	16.3	0.00e+00	0	33	0	489684992	73	4167
2026-01-01 12:18:41.04	265.43	19.31	-53.1	-54.7	16.3	0.00e+00	0	33	0	490733568	72	4335
2026-01-01 12:18:42.05	265.67	19.34	-53.1	-54.7	16.4	0.00e+00	0	33	0	492830720	72	4314
2026-01-01 12:18:43.05	265.91	19.37	-53.1	-54.8	16.4	0.00e+00	0	33	0	494927872	72	4347
2026-01-01 12:18:44.06	266.15	19.40	-53.3	-55.0	16.2	0.00e+00	0	33	0	497025024	72	4455
2026-01-01 12:18:45.06	266.39	19.43	-53.4	-55.1	16.2	0.00e+00	0	33	0	499122176	72	4515
2026-01-01 12:18:46.07	266.63	19.46	-53.7	-55.5	16.1	0.00e+00	0	33	0	500170752	72	4714
2026-01-01 12:18:47.08	266.88	19.49	-53.5	-55.2	16.2	0.00e+00	0	33	0	502267904	72	4596
2026-01-01 12:18:48.08	267.12	19.51	-53.5	-55.3	16.1	0.00e+00	0	33	0	504365056	72	4606
2026-01-01 12:18:49.09	267.36	19.54	-53.5	-55.2	16.2	0.00e+00	0	33	0	506462208	72	4583
2026-01-01 12:18:50.10	267.60	19.57	-53.4	-55.1	16.2	0.00e+00	0	33	0	508559360	72	4518
2026-01-01 12:18:51.11	267.85	19.59	-53.6	-55.4	16.1	0.00e+00	0	33	0	509607936	72	4656
2026-01-01 12:18:52.11	268.09	19.62	-53.9	-55.6	16.1	0.00e+00	0	33	0	511705088	72	4806
2026-01-01 12:18:53.12	268.34	19.64	-53.9	-55.7	16.1	0.00e+00	0	33	0	513802240	73	4591
2026-01-01 12:18:54.13	268.58	19.67	-53.8	-55.5	16.1	0.00e+00	0	33	0	515899392	73	4472
2026-01-01 12:18:55.13	268.82	19.69	-53.7	-55.5	16.1	0.00e+00	0	33	0	517996544	73	4469
2026-01-01 12:18:56.14	269.07	19.72	-53.6	-55.3	16.2	0.00e+00	0	33	0	519045120	73	4364
2026-01-01 12:18:57.14	269.31	19.74	-53.6	-55.3	16.2	0.00e+00	0	33	0	521142272	73	4352
2026-01-01 12:18:58.14	269.56	19.76	-53.7	-55.5	16.1	0.00e+00	0	33	0	523239424	73	4454
2026-01-01 12:18:59.15	269.81	19.78	-53.9	-55.6	16.1	0.00e+00	0	33	0	525336576	73	4532
2026-01-01 12:19:00.16	270.05	19.80	-53.7	-55.5	16.1	0.00e+00	0	33	0	527433728	73	4460
2026-01-01 12:19:01.16	270.30	19.83	-53.6	-55.3	16.2	0.00e+00	0	33	0	528482304	73	4389
2026-01-01 12:19:02.18	270.55	19.85	-53.3	-54.9	16.3	0.00e+00	0	33	0	530579456	73	4183
2026-01-01 12:19:03.18	270.79	19.87	-53.3	-54.9	16.3	0.00e+00	0	33	0	532676608	73	4174
2026-01-01 12:19:04.20	271.05	19.89	-53.3	-55.0	16.3	0.00e+00	0	33	0	534773760	72	4452
2026-01-01 12:19:05.20	271.29	19.90	-53.5	-55.1	16.2	0.00e+00	0	33	0	536870912	72	4540
2026-01-01 12:19:06.21	271.54	19.92	-53.8	-55.5	16.1	0.00e+00	0	33	0	537919488	72	4743
2026-01-01 12:19:07.22	271.79	19.94	-54.0	-55.7	16.0	0.00e+00	0	33	0	540016640	73	4598
2026-01-01 12:19:08.22	272.04	19.96	-54.2	-56.0	15.9	0.00e+00	0	33	0	542113792	73	4746
2026-01-01 12:19:09.22	272.29	19.97	-54.1	-56.0	15.9	0.00e+00	0	33	0	544210944	73	4730
2026-01-01 12:19:10.23	272.54	19.99	-54.2	-56.1	15.9	0.00e+00	0	33	0	546308096	73	4770
2026-01-01 12:19:11.24	272.79	20.01	-54.3	-56.1	15.9	0.00e+00	0	33	0	547356672	73	4813
2026-01-01 12:19:12.24	273.04	20.02	-54.4	-56.2	15.8	0.00e+00	0	33	0	549453824	73	4870
2026-01-01 12:19:13.25	273.29	20.04	-54.6	-56.6	15.7	0.00e+00	0	33	0	551550976	74	4783
2026-01-01 12:19:14.25	273.54	20.05	-54.7	-56.7	15.6	0.00e+00	0	33	0	553648128	74	4834
2026-01-01 12:19:15.26	273.79	20.06	-54.7	-56.6	15.7	0.00e+00	0	33	0	555745280	74	4810
2026-01-01 12:19:16.27	274.04	20.08	-54.5	-56.4	15.8	0.00e+00	0	33	0	556793856	74	4654
2026-01-01 12:19:17.27	274.29	20.09	-54.3	-56.1	15.9	0.00e+00	0	33	0	558891008	74	4531
2026-01-01 12:19:18.28	274.54	20.10	-54.0	-55.8	16.0	0.00e+00	0	33	0	560988160	74	4352
2026-01-01 12:19:19.29	274.79	20.11	-53.9	-55.7	16.1	0.00e+00	0	33	0	563085312	74	4315
2026-01-01 12:19:20.30	275.05	20.13	-54.0	-55.7	16.0	0.00e+00	0	33	0	565182464	74	4338
2026-01-01 12:19:21.30	275.30	20.14	-54.1	-55.9	16.0	0.00e+00	0	33	0	566231040	74	4426
2026-01-01 12:19:22.31	275.55	20.15	-54.0	-55.8	16.0	0.00e+00	0	33	0	568328192	74	4352
2026-01-01 12:19:23.32	275.80	20.15	-54.0	-55.7	16.1	0.00e+00	0	33	0	570425344	74	4339
2026-01-01 12:19:24.32	276.05	20.16	-53.7	-55.4	16.1	0.00e+00	0	33	0	572522496	74	4169
2026-01-01 12:19:25.33	276.31	20.17	-53.7	-55.4	16.2	0.00e+00	0	33	0	574619648	74	4174
2026-01-01 12:19:26.34	276.56	20.18	-53.7	-55.4	16.2	0.00e+00	0	33	0	575668224	73	4417
2026-01-01 12:19:27.35	276.81	20.19	-53.8	-55.5	16.1	0.00e+00	0	33	0	577765376	73	4487
2026-01-01 12:19:28.36	277.07	20.19	-54.1	-56.0	16.0	0.00e+00	0	33	0	579862528	73	4726
2026-01-01 12:19:29.36	277.32	20.20	-54.5	-56.4	15.8	0.00e+00	0	33	0	581959680	74	4674
2026-01-01 12:19:30.37	277.57	20.21	-54.7	-56.7	15.7	0.00e+00	0	33	0	584056832	74	4866
2026-01-01 12:19:31.38	277.83	20.21	-54.9	-56.9	15.6	0.00e+00	0	33	0	586153984	75	4676
2026-01-01 12:19:32.39	278.08	20.21	-54.9	-56.9	15.6	0.00e+00	0	33	0	587202560	75	4669
2026-01-01 12:19:33.40	278.33	20.22	-54.8	-56.8	15.7	0.00e+00	0	33	0	589299712	75	4603
2026-01-01 12:19:34.40	278.59	20.22	-54.9	-56.9	15.6	0.00e+00	0	33	0	591396864	75	4686
2026-01-01 12:19:35.41	278.84	20.22	-54.8	-56.9	15.6	0.00e+00	0	33	0	593494016	75	4656
2026-01-01 12:19:36.42	279.09	20.23	-54.8	-56.8	15.6	0.00e+00	0	33	0	594542592	75	4651
2026-01-01 12:19:37.42	279.35	20.23	-54.9	-56.8	15.6	0.00e+00	0	33	0	596639744	75	4649
2026-01-01 12:19:38.43	279.60	20.23	-54.8	-56.7	15.7	0.00e+00	0	33	0	598736896	75	4593
2026-01-01 12:19:39.43	279.85	20.23	-54.6	-56.5	15.7	0.00e+00	0	33	0	600834048	75	4461
2026-01-01 12:19:40.44	280.11	20.23	-54.5	-56.4	15.8	0.00e+00	0	33	0	602931200	75	4426
2026-01-01 12:19:41.45	280.36	20.23	-54.7	-56.7	15.7	0.00e+00	0	33	0	603979776	75	4556
2026-01-01 12:19:42.45	280.61	20.23	-54.7	-56.7	15.7	0.00e+00	0	33	0	606076928	75	4558
2026-01-01 12:19:43.46	280.87	20.23	-54.9	-56.9	15.6	0.00e+00	0	33	0	608174080	75	4672
2026-01-01 12:19:44.47	281.12	20.22	-55.1	-57.2	15.5	0.00e+00	0	33	0	610271232	75	4835
2026-01-01 12:19:45.47	281.37	20.22	-54.9	-56.9	15.6	0.00e+00	0	33	0	612368384	75	4671
2026-01-01 12:19:46.49	281.63	20.22	-54.8	-56.8	15.6	0.00e+00	0	33	0	614465536	75	4639
2026-01-01 12:19:47.49	281.88	20.21	-54.6	-56.6	15.7	0.00e+00	0	33	0	615514112	75	4530
2026-01-01 12:19:48.50	282.13	20.21	-54.7	-56.6	15.7	0.00e+00	0	33	0	617611264	75	4544
2026-01-01 12:19:49.51	282.39	20.21	-54.7	-56.7	15.7	0.00e+00	0	33	0	619708416	75	4590
2026-01-01 12:19:50.52	282.64	20.20	-54.9	-56.9	15.5	0.00e+00	0	33	0	621805568	75	4705
2026-01-01 12:19:51.53	282.90	20.19	-55.1	-57.2	15.4	0.00e+00	0	33	0	623902720	75	4866
2026-01-01 12:19:52.53	283.15	20.19	-54.9	-57.0	15.6	0.00e+00	0	33	0	624951296	75	4710
2026-01-01 12:19:53.54	283.40	20.18	-55.0	-57.1	15.5	0.00e+00	0	33	0	627048448	75	4778
2026-01-01 12:19:54.54	283.65	20.17	-54.9	-56.9	15.5	0.00e+00	0	33	0	629145600	75	4700
2026-01-01 12:19:55.55	283.90	20.16	-54.9	-57.0	15.6	0.00e+00	0	33	0	631242752	75	4721
2026-01-01 12:19:56.56	284.16	20.15	-55.0	-57.1	15.5	0.00e+00	0	33	0	632291328	75	4791
2026-01-01 12:19:57.57	284.41	20.15	-55.3	-57.5	15.3	0.00e+00	0	33	0	634388480	75	4986
2026-01-01 12:19:58.58	284.66	20.14	-55.2	-57.3	15.5	0.00e+00	0	33	0	636485632	75	4878
2026-01-01 12:19:59.58	284.91	20.13	-55.1	-57.2	15.5	0.00e+00	0	33	0	638582784	75	4837
2026-01-01 12:20:00.58	285.16	20.11	-55.1	-57.2	15.4	0.00e+00	0	33	0	640679936	75	4841
2026-01-01 12:20:01.59	285.41	20.10	-54.7	-56.7	15.7	0.00e+00	0	33	0	642777088	75	4566
2026-01-01 12:20:02.59	285.66	20.09	-54.6	-56.6	15.8	0.00e+00	0	33	0	643825664	75	4496
2026-01-01 12:20:03.60	285.92	20.08	-54.4	-56.3	15.9	0.00e+00	0	33	0	645922816	75	4349
2026-01-01 12:20:04.60	286.16	20.07	-54.2	-56.1	16.0	0.00e+00	0	33	0	648019968	75	4244
2026-01-01 12:20:05.61	286.42	20.05	-54.0	-55.8	16.1	0.00e+00	0	33	0	650117120	74	4370
2026-01-01 12:20:06.61	286.66	20.04	-54.0	-55.7	16.1	0.00e+00	0	33	0	651165696	74	4334
2026-01-01 12:20:07.62	286.92	20.02	-54.0	-55.8	16.1	0.00e+00	0	33	0	653262848	74	4358
2026-01-01 12:20:08.63	287.17	20.01	-54.1	-55.9	16.0	0.00e+00	0	33	0	655360000	74	4400
2026-01-01 12:20:09.64	287.42	19.99	-54.3	-56.1	15.9	0.00e+00	0	33	0	657457152	74	4530
2026-01-01 12:20:10.64	287.66	19.98	-54.4	-56.3	15.8	0.00e+00	0	33	0	659554304	74	4628
2026-01-01 12:20:11.65	287.91	19.96	-54.6	-56.6	15.8	0.00e+00	0	33	0	660602880	74	4763
2026-01-01 12:20:12.66	288.16	19.94	-54.6	-56.5	15.8	0.00e+00	0	33	0	662700032	74	4746
2026-01-01 12:20:13.67	288.41	19.92	-54.6	-56.6	15.7	0.00e+00	0	33	0	664797184	74	4768
2026-01-01 12:20:14.67	288.66	19.90	-54.5	-56.4	15.8	0.00e+00	0	33	0	666894336	74	4653
2026-01-01 12:20:15.68	288.91	19.89	-54.4	-56.2	15.9	0.00e+00	0	33	0	668991488	74	4593
2026-01-01 12:20:16.69	289.16	19.87	-54.4	-56.2	15.9	0.00e+00	0	34	0	671088640	74	4598
2026-01-01 12:20:17.69	289.40	19.85	-54.4	-56.2	15.9	0.00e+00	0	33	0	672137216	74	4587
2026-01-01 12:20:18.70	289.65	19.83	-54.4	-56.3	15.9	0.00e+00	0	33	0	674234368	74	4600
2026-01-01 12:20:19.70	289.90	19.81	-54.3	-56.1	15.9	0.00e+00	0	33	0	676331520	74	4525
2026-01-01 12:20:20.71	290.14	19.78	-54.3	-56.1	15.9	0.00e+00	0	33	0	678428672	74	4518
2026-01-01 12:20:21.72	290.39	19.76	-54.6	-56.5	15.8	0.00e+00	0	33	0	679477248	74	4720
2026-01-01 12:20:22.73	290.64	19.74	-54.3	-56.2	15.9	0.00e+00	0	33	0	681574400	74	4572
2026-01-01 12:20:23.74	290.88	19.72	-54.4	-56.2	15.9	0.00e+00	0	33	0	683671552	74	4576
2026-01-01 12:20:24.75	291.13	19.69	-54.3	-56.2	15.9	0.00e+00	0	33	0	685768704	74	4553
2026-01-01 12:20:25.75	291.37	19.67	-54.0	-55.8	16.1	0.00e+00	0	33	0	687865856	74	4373
2026-01-01 12:20:26.75	291.61	19.65	-54.0	-55.7	16.1	0.00e+00	0	33	0	688914432	74	4336
2026-01-01 12:20:27.76	291.86	19.62	-54.0	-55.8	16.1	0.00e+00	0	33	0	691011584	74	4356
2026-01-01 12:20:28.76	292.10	19.60	-54.2	-56.1	16.0	0.00e+00	0	33	0	693108736	74	4507
2026-01-01 12:20:29.77	292.34	19.57	-54.2	-56.1	16.0	0.00e+00	0	33	0	695205888	74	4511
2026-01-01 12:20:30.77	292.58	19.54	-54.5	-56.4	15.8	0.00e+00	0	33	0	697303040	74	4679
2026-01-01 12:20:31.78	292.83	19.52	-54.4	-56.2	15.9	0.00e+00	0	33	0	699400192	74	4586
2026-01-01 12:20:32.79	293.07	19.49	-54.4	-56.2	15.9	0.00e+00	0	33	0	700448768	74	4591
2026-01-01 12:20:33.80	293.31	19.46	-54.2	-56.0	16.0	0.00e+00	0	34	0	702545920	74	4473
2026-01-01 12:20:34.81	293.55	19.43	-54.2	-56.1	16.0	0.00e+00	0	33	0	704643072	74	4507
2026-01-01 12:20:35.81	293.79	19.40	-54.4	-56.2	15.9	0.00e+00	0	33	0	706740224	74	4587
2026-01-01 12:20:36.82	294.03	19.38	-54.6	-56.6	15.7	0.00e+00	0	33	0	707788800	74	4777
2026-01-01 12:20:37.83	294.27	19.35	-54.9	-57.0	15.5	0.00e+00	0	33	0	709885952	75	4740
2026-01-01 12:20:38.84	294.51	19.32	-55.2	-57.3	15.4	0.00e+00	0	33	0	711983104	75	4912
2026-01-01 12:20:39.84	294.75	19.29	-55.2	-57.4	15.4	0.00e+00	0	33	0	714080256	75	4958
2026-01-01 12:20:40.85	294.99	19.25	-55.2	-57.3	15.4	0.00e+00	0	33	0	716177408	75	4922
2026-01-01 12:20:41.86	295.23	19.22	-54.7	-56.7	15.7	0.00e+00	0	33	0	717225984	75	4596
2026-01-01 12:20:42.87	295.46	19.19	-54.4	-56.3	15.9	0.00e+00	0	33	0	719323136	75	4387
2026-01-01 12:20:43.88	295.70	19.16	-54.0	-55.8	16.1	0.00e+00	0	33	0	721420288	74	4367
2026-01-01 12:20:44.89	295.94	19.13	-53.9	-55.6	16.1	0.00e+00	0	33	0	723517440	74	4275
2026-01-01 12:20:45.89	296.17	19.09	-53.9	-55.7	16.2	0.00e+00	0	33	0	725614592	74	4299
2026-01-01 12:20:46.90	296.41	19.06	-54.1	-55.9	16.0	0.00e+00	0	33	0	727711744	74	4418
2026-01-01 12:20:47.91	296.64	19.03	-54.2	-56.0	16.0	0.00e+00	0	33	0	728760320	74	4487
2026-01-01 12:20:48.92	296.88	18.99	-54.2	-56.0	16.0	0.00e+00	0	33	0	730857472	74	4481
2026-01-01 12:20:49.92	297.11	18.96	-53.9	-55.7	16.1	0.00e+00	0	33	0	732954624	74	4323
2026-01-01 12:20:50.93	297.35	18.92	-53.7	-55.4	16.2	0.00e+00	0	33	0	735051776	73	4405
2026-01-01 12:20:51.94	297.58	18.89	-53.4	-55.0	16.3	0.00e+00	0	33	0	737148928	73	4235
2026-01-01 12:20:52.95	297.81	18.85	-53.2	-54.8	16.4	0.00e+00	0	33	0	738197504	72	4345
2026-01-01 12:20:53.96	298.04	18.81	-53.3	-55.0	16.3	0.00e+00	0	33	0	740294656	72	4468
2026-01-01 12:20:54.96	298.27	18.78	-53.5	-55.3	16.2	0.00e+00	0	33	0	742391808	72	4614
2026-01-01 12:20:55.98	298.51	18.74	-53.7	-55.4	16.2	0.00e+00	0	33	0	744488960	72	4691
2026-01-01 12:20:56.98	298.73	18.70	-53.9	-55.7	16.1	0.00e+00	0	33	0	746586112	73	4591
2026-01-01 12:20:57.98	298.96	18.66	-53.8	-55.6	16.1	0.00e+00	0	33	0	747634688	73	4511
2026-01-01 12:20:58.99	299.19	18.63	-53.7	-55.4	16.2	0.00e+00	0	33	0	749731840	73	4433
2026-01-01 12:21:00.00	299.42	18.59	-53.5	-55.2	16.3	0.00e+00	0	33	0	751828992	73	4323
2026-01-01 12:21:01.01	299.65	18.55	-53.5	-55.2	16.3	0.00e+00	0	33	0	753926144	73	4294
2026-01-01 12:21:02.02	299.88	18.51	-53.3	-54.9	16.4	0.00e+00	0	33	0	756023296	73	4180
2026-01-01 12:21:03.02	300.10	18.47	-53.2	-54.8	16.4	0.00e+00	0	33	0	757071872	72	4371
2026-01-01 12:21:04.03	300.33	18.43	-53.3	-55.0	16.3	0.00e+00	0	33	0	759169024	72	4465
2026-01-01 12:21:05.04	300.55	18.39	-53.4	-55.1	16.3	0.00e+00	0	33	0	761266176	72	4503
2026-01-01 12:21:06.05	300.78	18.35	-53.5	-55.2	16.3	0.00e+00	0	33	0	763363328	72	4573
2026-01-01 12:21:07.06	301.00	18.30	-53.6	-55.3	16.2	0.00e+00	0	33	0	765460480	72	4630
2026-01-01 12:21:08.07	301.23	18.26	-53.6	-55.3	16.2	0.00e+00	0	33	0	766509056	72	4651
2026-01-01 12:21:09.08	301.45	18.22	-53.6	-55.3	16.2	0.00e+00	0	33	0	768606208	72	4631
2026-01-01 12:21:10.08	301.67	18.18	-53.7	-55.5	16.2	0.00e+00	0	33	0	770703360	72	4711
2026-01-01 12:21:11.09	301.89	18.14	-53.5	-55.2	16.2	0.00e+00	0	33	0	772800512	72	4595
2026-01-01 12:21:12.10	302.12	18.09	-53.6	-55.4	16.2	0.00e+00	0	33	0	774897664	72	4675
2026-01-01 12:21:13.11	302.34	18.05	-54.0	-55.8	16.0	0.00e+00	0	33	0	775946240	73	4644
2026-01-01 12:21:14.12	302.56	18.01	-54.1	-55.9	16.0	0.00e+00	0	33	0	778043392	73	4678
2026-01-01 12:21:15.13	302.78	17.96	-54.3	-56.2	15.9	0.00e+00	0	33	0	780140544	73	4847
2026-01-01 12:21:16.14	303.00	17.92	-54.2	-56.1	15.9	0.00e+00	0	33	0	782237696	73	4775
2026-01-01 12:21:17.14	303.21	17.87	-54.2	-56.1	15.9	0.00e+00	0	33	0	784334848	73	4772
2026-01-01 12:21:18.15	303.43	17.83	-54.1	-55.9	16.0	0.00e+00	0	33	0	785383424	73	4696
2026-01-01 12:21:19.15	303.65	17.78	-54.0	-55.9	16.0	0.00e+00	0	33	0	787480576	73	4671
2026-01-01 12:21:20.16	303.86	17.74	-54.1	-55.9	15.9	0.00e+00	0	33	0	789577728	73	4698
2026-01-01 12:21:21.17	304.08	17.69	-53.9	-55.8	16.0	0.00e+00	0	33	0	791674880	73	4608
2026-01-01 12:21:22.17	304.29	17.65	-54.0	-55.9	16.0	0.00e+00	0	34	0	793772032	73	4659
2026-01-01 12:21:23.19	304.51	17.60	-53.9	-55.7	16.0	0.00e+00	0	33	0	794820608	73	4565
2026-01-01 12:21:24.19	304.72	17.55	-53.9	-55.7	16.0	0.00e+00	0	34	0	796917760	73	4559
2026-01-01 12:21:25.20	304.93	17.51	-54.0	-55.8	16.0	0.00e+00	0	33	0	799014912	73	4615
2026-01-01 12:21:26.21	305.15	17.46	-54.1	-55.9	16.0	0.00e+00	0	33	0	801112064	73	4686
2026-01-01 12:21:27.21	305.36	17.41	-54.2	-56.1	15.9	0.00e+00	0	34	0	803209216	73	4788
2026-01-01 12:21:28.21	305.57	17.36	-54.4	-56.3	15.8	0.00e+00	0	33	0	804257792	73	4903
2026-01-01 12:21:29.22	305.78	17.31	-54.6	-56.6	15.7	0.00e+00	0	33	0	806354944	74	4777
2026-01-01 12:21:30.22	305.99	17.27	-54.9	-56.9	15.5	0.00e+00	0	33	0	808452096	74	4971
2026-01-01 12:21:31.23	306.20	17.22	-54.9	-57.0	15.5	0.00e+00	0	33	0	810549248	74	4998
2026-01-01 12:21:32.24	306.40	17.17	-54.8	-56.9	15.6	0.00e+00	0	33	0	812646400	74	4944
2026-01-01 12:21:33.24	306.61	17.12	-54.7	-56.7	15.7	0.00e+00	0	33	0	813694976	74	4818
2026-01-01 12:21:34.25	306.82	17.07	-54.6	-56.5	15.7	0.00e+00	0	33	0	815792128	74	4757
2026-01-01 12:21:35.26	307.03	17.02	-54.7	-56.8	15.6	0.00e+00	0	33	0	817889280	74	4881
2026-01-01 12:21:36.26	307.23	16.97	-54.9	-57.0	15.5	0.00e+00	0	34	0	819986432	74	5006
2026-01-01 12:21:37.27	307.43	16.92	-54.8	-56.8	15.6	0.00e+00	0	33	0	822083584	75	4616
2026-01-01 12:21:38.28	307.64	16.87	-54.7	-56.7	15.7	0.00e+00	0	33	0	823132160	75	4563
2026-01-01 12:21:39.29	307.84	16.82	-54.4	-56.3	15.8	0.00e+00	0	33	0	825229312	75	4369
2026-01-01 12:21:40.29	308.05	16.77	-54.3	-56.1	15.9	0.00e+00	0	33	0	827326464	75	4285
2026-01-01 12:21:41.30	308.25	16.72	-54.2	-56.0	15.9	0.00e+00	0	33	0	829423616	74	4481
2026-01-01 12:21:42.31	308.45	16.67	-54.1	-56.0	16.0	0.00e+00	0	33	0	831520768	74	4456
2026-01-01 12:21:43.32	308.65	16.61	-54.1	-56.0	16.0	0.00e+00	0	33	0	832569344	74	4448
2026-01-01 12:21:44.33	308.85	16.56	-54.4	-56.3	15.8	0.00e+00	0	33	0	834666496	74	4637
2026-01-01 12:21:45.33	309.05	16.51	-54.5	-56.5	15.7	0.00e+00	0	33	0	836763648	74	4715
2026-01-01 12:21:46.34	309.25	16.46	-54.6	-56.6	15.7	0.00e+00	0	34	0	838860800	74	4767
2026-01-01 12:21:47.35	309.45	16.41	-54.9	-57.0	15.5	0.00e+00	0	33	0	840957952	74	4984
2026-01-01 12:21:48.35	309.65	16.35	-55.1	-57.2	15.4	0.00e+00	0	33	0	842006528	75	4853
2026-01-01 12:21:49.36	309.84	16.30	-55.4	-57.7	15.2	0.00e+00	0	33	0	844103680	75	5102
2026-01-01 12:21:50.37	310.04	16.25	-55.5	-57.8	15.1	0.00e+00	0	33	0	846200832	76	4889
2026-01-01 12:21:51.38	310.24	16.19	-55.7	-58.0	15.0	0.00e+00	0	33	0	848297984	76	5018
2026-01-01 12:21:52.38	310.43	16.14	-55.7	-58.1	15.0	0.00e+00	0	34	0	850395136	76	5073
2026-01-01 12:21:53.39	310.62	16.09	-55.7	-58.1	14.9	0.00e+00	0	33	0	851443712	76	5085
2026-01-01 12:21:54.39	310.82	16.03	-55.3	-57.6	15.2	0.00e+00	0	33	0	853540864	76	4797
2026-01-01 12:21:55.40	311.01	15.98	-55.2	-57.4	15.4	0.00e+00	0	33	0	855638016	76	4653
2026-01-01 12:21:56.41	311.20	15.92	-55.0	-57.2	15.4	0.00e+00	0	33	0	857735168	76	4569
2026-01-01 12:21:57.41	311.39	15.87	-54.9	-57.0	15.6	0.00e+00	0	34	0	859832320	76	4472
2026-01-01 12:21:58.42	311.58	15.82	-54.8	-56.8	15.6	0.00e+00	0	33	0	860880896	76	4382
2026-01-01 12:21:59.42	311.77	15.76	-54.6	-56.6	15.7	0.00e+00	0	34	0	862978048	75	4529
2026-01-01 12:22:00.43	311.96	15.71	-54.4	-56.3	15.8	0.00e+00	0	33	0	865075200	75	4356
2026-01-01 12:22:01.43	312.15	15.65	-54.2	-56.1	15.9	0.00e+00	0	33	0	867172352	75	4248
2026-01-01 12:22:02.44	312.34	15.60	-54.2	-56.1	15.9	0.00e+00	0	33	0	869269504	74	4536
2026-01-01 12:22:03.45	312.53	15.54	-54.5	-56.5	15.7	0.00e+00	0	33	0	870318080	74	4720
2026-01-01 12:22:04.46	312.71	15.49	-54.8	-56.8	15.5	0.00e+00	0	33	0	872415232	74	4921
2026-01-01 12:22:05.47	312.90	15.43	-55.0	-57.1	15.4	0.00e+00	0	33	0	874512384	75	4789
2026-01-01 12:22:06.47	313.08	15.37	-55.3	-57.6	15.2	0.00e+00	0	33	0	876609536	75	5057
2026-01-01 12:22:07.48	313.27	15.32	-55.4	-57.7	15.1	0.00e+00	0	33	0	878706688	76	4831
2026-01-01 12:22:08.49	313.45	15.26	-55.6	-57.9	15.0	0.00e+00	0	33	0	879755264	76	4965
2026-01-01 12:22:09.50	313.64	15.20	-55.2	-57.4	15.4	0.00e+00	0	33	0	881852416	76	4657
2026-01-01 12:22:10.51	313.82	15.15	-55.1	-57.3	15.4	0.00e+00	0	33	0	883949568	76	4607
2026-01-01 12:22:11.51	314.00	15.09	-55.1	-57.2	15.4	0.00e+00	0	33	0	886046720	76	4576
2026-01-01 12:22:12.51	314.18	15.04	-55.1	-57.2	15.4	0.00e+00	0	34	0	888143872	76	4578
2026-01-01 12:22:13.52	314.36	14.98	-54.9	-57.0	15.5	0.00e+00	0	33	0	889192448	76	4466
2026-01-01 12:22:14.53	314.54	14.92	-55.0	-57.2	15.4	0.00e+00	0	33	0	891289600	76	4561
2026-01-01 12:22:15.54	314.72	14.86	-55.0	-57.2	15.4	0.00e+00	0	34	0	893386752	76	4552
2026-01-01 12:22:16.54	314.90	14.81	-54.9	-57.0	15.5	0.00e+00	0	33	0	895483904	76	4468
2026-01-01 12:22:17.56	315.08	14.75	-54.8	-56.9	15.5	0.00e+00	0	34	0	897581056	76	4404
2026-01-01 12:22:18.56	315.26	14.69	-54.7	-56.7	15.7	0.00e+00	0	34	0	898629632	76	4312
2026-01-01 12:22:19.57	315.43	14.64	-54.4	-56.3	15.8	0.00e+00	0	33	0	900726784	75	4370
2026-01-01 12:22:20.58	315.61	14.58	-54.2	-56.1	15.9	0.00e+00	0	33	0	902823936	75	4287
2026-01-01 12:22:21.59	315.79	14.52	-54.2	-56.1	15.8	0.00e+00	0	33	0	904921088	74	4516
2026-01-01 12:22:22.59	315.96	14.46	-54.3	-56.2	15.8	0.00e+00	0	33	0	907018240	74	4593
2026-01-01 12:22:23.60	316.13	14.40	-54.3	-56.3	15.8	0.00e+00	0	33	0	908066816	74	4607
2026-01-01 12:22:24.61	316.31	14.35	-54.4	-56.4	15.7	0.00e+00	0	33	0	910163968	74	4689
2026-01-01 12:22:25.61	316.48	14.29	-54.6	-56.7	15.6	0.00e+00	0	33	0	912261120	74	4818
2026-01-01 12:22:26.62	316.65	14.23	-54.7	-56.8	15.5	0.00e+00	0	33	0	914358272	74	4894
2026-01-01 12:22:27.63	316.82	14.17	-54.9	-57.1	15.4	0.00e+00	0	33	0	916455424	75	4767
2026-01-01 12:22:28.64	317.00	14.11	-54.7	-56.8	15.5	0.00e+00	0	34	0	917504000	75	4635
2026-01-01 12:22:29.65	317.17	14.05	-54.7	-56.8	15.5	0.00e+00	0	34	0	919601152	75	4639
2026-01-01 12:22:30.65	317.33	14.00	-54.7	-56.8	15.5	0.00e+00	0	33	0	921698304	75	4604
2026-01-01 12:22:31.66	317.50	13.94	-54.4	-56.4	15.7	0.00e+00	0	34	0	923795456	75	4414
2026-01-01 12:22:32.66	317.67	13.88	-54.3	-56.3	15.7	0.00e+00	0	34	0	925892608	75	4381
2026-01-01 12:22:33.67	317.84	13.82	-54.3	-56.3	15.8	0.00e+00	0	34	0	926941184	75	4349
2026-01-01 12:22:34.68	318.01	13.76	-54.3	-56.2	15.8	0.00e+00	0	34	0	929038336	75	4320
2026-01-01 12:22:35.68	318.17	13.70	-54.4	-56.3	15.7	0.00e+00	0	33	0	931135488	74	4636
2026-01-01 12:22:36.69	318.34	13.64	-54.4	-56.3	15.7	0.00e+00	0	34	0	933232640	74	4651
2026-01-01 12:22:37.70	318.50	13.58	-54.4	-56.4	15.7	0.00e+00	0	33	0	935329792	74	4679
2026-01-01 12:22:38.70	318.67	13.52	-54.4	-56.4	15.7	0.00e+00	0	33	0	936378368	74	4660
2026-01-01 12:22:39.71	318.83	13.46	-54.3	-56.3	15.7	0.00e+00	0	33	0	938475520	74	4625
2026-01-01 12:22:40.72	318.99	13.41	-54.4	-56.4	15.7	0.00e+00	0	34	0	940572672	74	4674
2026-01-01 12:22:41.73	319.16	13.35	-54.2	-56.2	15.8	0.00e+00	0	33	0	942669824	74	4549
2026-01-01 12:22:42.74	319.32	13.29	-54.4	-56.3	15.7	0.00e+00	0	34	0	944766976	74	4647
2026-01-01 12:22:43.75	319.48	13.23	-54.3	-56.3	15.7	0.00e+00	0	33	0	945815552	74	4619
2026-01-01 12:22:44.75	319.64	13.17	-54.4	-56.4	15.7	0.00e+00	0	33	0	947912704	74	4680
2026-01-01 12:22:45.75	319.80	13.11	-54.5	-56.6	15.6	0.00e+00	0	33	0	950009856	74	4770
2026-01-01 12:22:46.76	319.96	13.05	-54.5	-56.5	15.6	0.00e+00	0	33	0	952107008	74	4735
2026-01-01 12:22:47.77	320.12	12.99	-54.5	-56.6	15.6	0.00e+00	0	33	0	954204160	74	4784
2026-01-01 12:22:48.78	320.27	12.93	-54.5	-56.6	15.6	0.00e+00	0	34	0	955252736	74	4785
2026-01-01 12:22:49.79	320.43	12.87	-54.3	-56.3	15.7	0.00e+00	0	34	0	957349888	74	4623
2026-01-01 12:22:50.80	320.59	12.81	-54.2	-56.1	15.8	0.00e+00	0	33	0	959447040	74	4528
2026-01-01 12:22:51.80	320.74	12.75	-53.9	-55.7	16.0	0.00e+00	0	33	0	961544192	74	4336
2026-01-01 12:22:52.81	320.90	12.69	-53.6	-55.4	16.1	0.00e+00	0	34	0	963641344	73	4407
2026-01-01 12:22:53.82	321.06	12.63	-53.6	-55.4	16.1	0.00e+00	0	34	0	964689920	73	4412
2026-01-01 12:22:54.82	321.21	12.57	-53.4	-55.2	16.2	0.00e+00	0	33	0	966787072	73	4321
2026-01-01 12:22:55.83	321.36	12.51	-53.5	-55.3	16.1	0.00e+00	0	33	0	968884224	73	4353
2026-01-01 12:22:56.83	321.52	12.45	-53.6	-55.4	16.1	0.00e+00	0	34	0	970981376	73	4404
2026-01-01 12:22:57.84	321.67	12.39	-53.6	-55.4	16.0	0.00e+00	0	34	0	973078528	73	4439
2026-01-01 12:22:58.85	321.82	12.33	-54.0	-55.9	15.9	0.00e+00	0	33	0	974127104	73	4671
2026-01-01 12:22:59.86	321.97	12.27	-54.0	-55.9	15.8	0.00e+00	0	34	0	976224256	73	4681
2026-01-01 12:23:00.86	322.12	12.21	-54.0	-55.9	15.8	0.00e+00	0	33	0	978321408	73	4661
2026-01-01 12:23:01.87	322.27	12.15	-54.1	-56.0	15.8	0.00e+00	0	34	0	980418560	73	4739
2026-01-01 12:23:02.88	322.42	12.09	-54.0	-56.0	15.8	0.00e+00	0	34	0	982515712	73	4715
2026-01-01 12:23:03.89	322.57	12.03	-53.9	-55.8	15.9	0.00e+00	0	33	0	983564288	73	4645
2026-01-01 12:23:04.90	322.72	11.97	-53.8	-55.7	15.9	0.00e+00	0	33	0	985661440	73	4574
2026-01-01 12:23:05.91	322.87	11.91	-53.8	-55.7	15.9	0.00e+00	0	33	0	987758592	73	4565
2026-01-01 12:23:06.91	323.01	11.85	-53.9	-55.7	15.9	0.00e+00	0	33	0	989855744	73	4593
2026-01-01 12:23:07.92	323.16	11.78	-54.0	-55.9	15.8	0.00e+00	0	33	0	991952896	73	4678
2026-01-01 12:23:08.93	323.31	11.72	-54.0	-55.9	15.8	0.00e+00	0	34	0	994050048	73	4689
2026-01-01 12:23:09.94	323.45	11.66	-54.0	-56.0	15.8	0.00e+00	0	33	0	995098624	73	4710
2026-01-01 12:23:10.94	323.60	11.60	-54.3	-56.3	15.7	0.00e+00	0	33	0	997195776	73	4879
2026-01-01 12:23:11.95	323.74	11.54	-54.2	-56.2	15.7	0.00e+00	0	33	0	999292928	73	4838
2026-01-01 12:23:12.96	323.89	11.48	-54.3	-56.4	15.6	0.00e+00	0	34	0	1001390080	74	4663
2026-01-01 12:23:13.97	324.03	11.42	-54.4	-56.4	15.6	0.00e+00	0	33	0	1002438656	74	4671
2026-01-01 12:23:14.98	324.17	11.36	-54.5	-56.5	15.5	0.00e+00	0	34	0	1004535808	74	4758
2026-01-01 12:23:15.99	324.32	11.30	-54.3	-56.3	15.6	0.00e+00	0	34	0	1006632960	74	4634
2026-01-01 12:23:17.00	324.46	11.24	-54.1	-56.1	15.8	0.00e+00	0	34	0	1008730112	74	4532
2026-01-01 12:23:18.00	324.60	11.18	-53.9	-55.8	15.9	0.00e+00	0	34	0	1010827264	74	4370
2026-01-01 12:23:19.01	324.74	11.12	-53.8	-55.7	16.0	0.00e+00	0	34	0	1011875840	74	4299
2026-01-01 12:23:20.02	324.88	11.06	-53.7	-55.5	16.0	0.00e+00	0	33	0	1013972992	73	4491
2026-01-01 12:23:21.02	325.02	11.00	-53.7	-55.6	16.0	0.00e+00	0	33	0	1016070144	73	4518
2026-01-01 12:23:22.03	325.16	10.94	-54.0	-56.0	15.8	0.00e+00	0	34	0	1018167296	73	4726
2026-01-01 12:23:23.03	325.29	10.88	-54.3	-56.3	15.6	0.00e+00	0	34	0	1020264448	73	4880
2026-01-01 12:23:24.04	325.43	10.82	-54.4	-56.5	15.5	0.00e+00	0	34	0	1022361600	74	4725
2026-01-01 12:23:25.04	325.57	10.76	-54.7	-56.9	15.4	0.00e+00	0	34	0	1023410176	74	4940
2026-01-01 12:23:26.05	325.70	10.70	-54.9	-57.1	15.3	0.00e+00	0	34	0	1025507328	74	5065
2026-01-01 12:23:27.06	325.84	10.64	-55.0	-57.3	15.2	0.00e+00	0	34	0	1027604480	75	4884
2026-01-01 12:23:28.06	325.97	10.58	-55.1	-57.4	15.1	0.00e+00	0	33	0	1029701632	75	4968
2026-01-01 12:23:29.07	326.11	10.52	-55.0	-57.3	15.1	0.00e+00	0	34	0	1030750208	75	4893
2026-01-01 12:23:30.08	326.24	10.45	-55.0	-57.2	15.2	0.00e+00	0	33	0	1032847360	75	4857
2026-01-01 12:23:31.08	326.38	10.39	-54.9	-57.2	15.2	0.00e+00	0	33	0	1034944512	75	4825
2026-01-01 12:23:32.09	326.51	10.33	-54.8	-56.9	15.3	0.00e+00	0	33	0	1037041664	75	4704
2026-01-01 12:23:33.10	326.64	10.27	-54.7	-56.9	15.3	0.00e+00	0	34	0	1039138816	75	4687
2026-01-01 12:23:34.11	326.78	10.21	-54.6	-56.8	15.4	0.00e+00	0	34	0	1040187392	75	4632
2026-01-01 12:23:35.12	326.91	10.15	-54.7	-56.8	15.4	0.00e+00	0	34	0	1042284544	75	4649
2026-01-01 12:23:36.13	327.04	10.09	-54.7	-56.9	15.3	0.00e+00	0	33	0	1044381696	75	4675
2026-01-01 12:23:37.14	327.17	10.03	-54.7	-56.9	15.3	0.00e+00	0	34	0	1046478848	75	4693
2026-01-01 12:23:38.15	327.30	9.97	-54.9	-57.2	15.1	0.00e+00	0	34	0	1048576000	75	4835
2026-01-01 12:23:39.15	327.43	9.91	-55.0	-57.3	15.1	0.00e+00	0	33	0	1050673152	75	4883
2026-01-01 12:23:40.16	327.56	9.85	-54.8	-57.1	15.2	0.00e+00	0	34	0	1051721728	75	4785
2026-01-01 12:23:41.17	327.69	9.79	-54.7	-56.9	15.3	0.00e+00	0	33	0	1053818880	75	4679
2026-01-01 12:23:42.18	327.82	9.73	-54.6	-56.8	15.4	0.00e+00	0	34	0	1055916032	75	4638
2026-01-01 12:23:43.19	327.94	9.67	-54.5	-56.7	15.4	0.00e+00	0	33	0	1058013184	75	4555
2026-01-01 12:23:44.19	328.07	9.61	-54.4	-56.5	15.5	0.00e+00	0	34	0	1060110336	75	4467
2026-01-01 12:23:45.20	328.20	9.55	-54.4	-56.5	15.5	0.00e+00	0	34	0	1061158912	75	4465
2026-01-01 12:23:46.20	328.32	9.49	-54.5	-56.6	15.4	0.00e+00	0	34	0	1063256064	75	4529
2026-01-01 12:23:47.21	328.45	9.43	-54.6	-56.7	15.4	0.00e+00	0	34	0	1065353216	75	4594
2026-01-01 12:23:48.21	328.57	9.37	-54.6	-56.8	15.4	0.00e+00	0	33	0	1067450368	75	4599
2026-01-01 12:23:49.22	328.70	9.31	-54.7	-56.9	15.2	0.00e+00	0	33	0	1068498944	75	4705
2026-01-01 12:23:50.23	328.82	9.25	-54.8	-57.1	15.2	0.00e+00	0	33	0	1070596096	75	4788
2026-01-01 12:23:51.24	328.95	9.19	-55.0	-57.4	15.0	0.00e+00	0	34	0	1072693248	75	4929
2026-01-01 12:23:52.24	329.07	9.13	-55.0	-57.4	15.0	0.00e+00	0	34	0	1074790400	75	4946
2026-01-01 12:23:53.24	329.19	9.07	-55.0	-57.3	15.1	0.00e+00	0	34	0	1076887552	75	4891
2026-01-01 12:23:54.25	329.31	9.01	-54.8	-57.1	15.2	0.00e+00	0	34	0	1078984704	75	4800
2026-01-01 12:23:55.26	329.43	8.95	-54.7	-56.9	15.3	0.00e+00	0	34	0	1080033280	75	4694
2026-01-01 12:23:56.26	329.55	8.89	-54.5	-56.6	15.4	0.00e+00	0	34	0	1082130432	75	4513
2026-01-01 12:23:57.27	329.68	8.83	-54.5	-56.6	15.5	0.00e+00	0	34	0	1084227584	74	4783
2026-01-01 12:23:58.28	329.80	8.77	-54.3	-56.4	15.5	0.00e+00	0	34	0	1086324736	74	4683
2026-01-01 12:23:59.29	329.92	8.71	-54.3	-56.4	15.5	0.00e+00	0	34	0	1088421888	74	4679
2026-01-01 12:24:00.30	330.04	8.65	-54.2	-56.3	15.6	0.00e+00	0	34	0	1089470464	74	4633
2026-01-01 12:24:01.30	330.15	8.59	-54.3	-56.4	15.5	0.00e+00	0	34	0	1091567616	74	4692
2026-01-01 12:24:02.30	330.27	8.54	-54.4	-56.5	15.4	0.00e+00	0	34	0	1093664768	74	4731
2026-01-01 12:24:03.31	330.39	8.48	-54.4	-56.6	15.4	0.00e+00	0	33	0	1095761920	74	4780
2026-01-01 12:24:04.32	330.51	8.42	-54.6	-56.7	15.4	0.00e+00	0	33	0	1096810496	74	4861
2026-01-01 12:24:05.32	330.62	8.36	-54.7	-56.9	15.2	0.00e+00	0	33	0	1098907648	74	4976
2026-01-01 12:24:06.33	330.74	8.30	-54.9	-57.3	15.1	0.00e+00	0	33	0	1101004800	75	4893
2026-01-01 12:24:07.34	330.86	8.24	-54.9	-57.3	15.0	0.00e+00	0	34	0	1103101952	75	4885
2026-01-01 12:24:08.35	330.97	8.18	-55.0	-57.4	14.9	0.00e+00	0	34	0	1105199104	75	4982
2026-01-01 12:24:09.36	331.09	8.12	-55.1	-57.5	14.9	0.00e+00	0	34	0	1107296256	75	5019
2026-01-01 12:24:10.36	331.20	8.06	-55.0	-57.4	15.0	0.00e+00	0	34	0	1108344832	75	4948
2026-01-01 12:24:11.37	331.32	8.00	-55.0	-57.4	15.0	0.00e+00	0	34	0	1110441984	75	4935
2026-01-01 12:24:12.37	331.43	7.94	-54.6	-56.9	15.3	0.00e+00	0	34	0	1112539136	75	4657
2026-01-01 12:24:13.38	331.54	7.88	-54.5	-56.6	15.4	0.00e+00	0	34	0	1114636288	75	4542
2026-01-01 12:24:14.39	331.66	7.82	-54.4	-56.5	15.4	0.00e+00	0	34	0	1116733440	74	4754
2026-01-01 12:24:15.40	331.77	7.76	-54.3	-56.4	15.5	0.00e+00	0	34	0	1117782016	74	4694
2026-01-01 12:24:16.41	331.88	7.71	-54.3	-56.4	15.5	0.00e+00	0	34	0	1119879168	74	4669
2026-01-01 12:24:17.41	331.99	7.65	-54.3	-56.4	15.5	0.00e+00	0	34	0	1121976320	74	4695
2026-01-01 12:24:18.41	332.10	7.59	-54.3	-56.4	15.5	0.00e+00	0	34	0	1124073472	74	4683
2026-01-01 12:24:19.42	332.21	7.53	-54.4	-56.6	15.3	0.00e+00	0	34	0	1125122048	74	4789
2026-01-01 12:24:20.43	332.33	7.47	-54.5	-56.6	15.4	0.00e+00	0	34	0	1127219200	74	4811
2026-01-01 12:24:21.44	332.44	7.41	-54.8	-57.1	15.1	0.00e+00	0	34	0	1129316352	74	5045
2026-01-01 12:24:22.44	332.54	7.35	-54.9	-57.3	15.0	0.00e+00	0	34	0	1131413504	75	4900
2026-01-01 12:24:23.44	332.65	7.30	-55.0	-57.5	14.9	0.00e+00	0	34	0	1133510656	75	4985
2026-01-01 12:24:24.45	332.76	7.24	-55.2	-57.6	14.8	0.00e+00	0	33	0	1135607808	75	5097
2026-01-01 12:24:25.46	332.87	7.18	-55.2	-57.7	14.7	0.00e+00	0	34	0	1136656384	75	5156
2026-01-01 12:24:26.46	332.98	7.12	-55.2	-57.7	14.7	0.00e+00	0	34	0	1138753536	75	5159
2026-01-01 12:24:27.47	333.08	7.06	-55.5	-58.1	14.5	0.00e+00	0	34	0	1140850688	76	5069
2026-01-01 12:24:28.47	333.19	7.00	-55.3	-57.9	14.7	0.00e+00	0	33	0	1142947840	76	4930
2026-01-01 12:24:29.49	333.30	6.95	-55.4	-58.0	14.6	0.00e+00	0	34	0	1145044992	76	4995
2026-01-01 12:24:30.50	333.41	6.89	-55.5	-58.2	14.5	0.00e+00	0	34	0	1146093568	76	5126
2026-01-01 12:24:31.50	333.51	6.83	-55.5	-58.1	14.5	0.00e+00	0	34	0	1148190720	76	5073
2026-01-01 12:24:32.51	333.62	6.77	-55.6	-58.3	14.4	0.00e+00	0	34	0	1150287872	76	5215
2026-01-01 12:24:33.52	333.72	6.71	-55.8	-58.6	14.2	0.00e+00	0	34	0	1152385024	76	5368
2026-01-01 12:24:34.52	333.83	6.65	-55.8	-58.6	14.2	0.00e+00	0	34	0	1153433600	76	5392
2026-01-01 12:24:35.53	333.93	6.60	-55.9	-58.8	14.1	0.00e+00	0	34	0	1155530752	77	5218
2026-01-01 12:24:36.54	334.03	6.54	-56.1	-59.1	13.9	0.00e+00	0	34	0	1157627904	77	5361
2026-01-01 12:24:37.55	334.14	6.48	-56.3	-59.4	13.7	0.00e+00	0	34	0	1159725056	77	5562
2026-01-01 12:24:38.55	334.24	6.42	-56.4	-59.5	13.6	0.00e+00	0	34	0	1161822208	78	5332
2026-01-01 12:24:39.55	334.34	6.37	-56.4	-59.7	13.5	7.00e-07	0	34	0	1163919360	78	5416
2026-01-01 12:24:40.56	334.45	6.31	-56.5	-59.9	13.3	0.00e+00	0	34	0	1164967936	78	5552
2026-01-01 12:24:41.56	334.55	6.25	-56.4	-59.7	13.4	7.00e-07	0	34	0	1167065088	78	5451
2026-01-01 12:24:42.57	334.65	6.19	-56.4	-59.6	13.5	0.00e+00	0	34	0	1169162240	78	5388
2026-01-01 12:24:43.58	334.75	6.14	-56.3	-59.6	13.5	0.00e+00	0	34	0	1171259392	77	5664
2026-01-01 12:24:44.59	334.85	6.08	-56.2	-59.4	13.6	0.00e+00	0	34	0	1173356544	77	5572
2026-01-01 12:24:45.59	334.95	6.02	-56.1	-59.2	13.7	0.00e+00	0	34	0	1174405120	77	5454
2026-01-01 12:24:46.60	335.05	5.96	-56.0	-59.0	13.8	0.00e+00	0	34	0	1176502272	77	5326
2026-01-01 12:24:47.61	335.15	5.91	-55.9	-58.8	14.0	0.00e+00	0	34	0	1178599424	77	5194
2026-01-01 12:24:48.62	335.25	5.85	-55.7	-58.6	14.0	0.00e+00	0	34	0	1180696576	77	5084
2026-01-01 12:24:49.62	335.35	5.79	-55.7	-58.6	14.1	0.00e+00	0	34	0	1181745152	76	5351
2026-01-01 12:24:50.63	335.45	5.73	-55.8	-58.8	13.9	0.00e+00	0	34	0	1183842304	76	5498
2026-01-01 12:24:51.64	335.55	5.68	-56.0	-59.0	13.8	0.00e+00	0	34	0	1185939456	77	5336
2026-01-01 12:24:52.64	335.64	5.62	-55.8	-58.7	14.0	0.00e+00	0	33	0	1188036608	77	5142
2026-01-01 12:24:53.65	335.74	5.56	-55.8	-58.8	14.0	0.00e+00	0	34	0	1190133760	77	5181
2026-01-01 12:24:54.66	335.84	5.51	-55.9	-58.9	13.9	0.00e+00	0	34	0	1192230912	77	5230
2026-01-01 12:24:55.67	335.94	5.45	-55.8	-58.7	14.1	0.00e+00	0	34	0	1193279488	77	5134
2026-01-01 12:24:56.68	336.03	5.39	-56.1	-59.2	13.7	0.00e+00	0	34	0	1195376640	77	5444
2026-01-01 12:24:57.69	336.13	5.34	-55.9	-59.0	13.9	0.00e+00	0	34	0	1197473792	77	5304
