passes_logs/2026/01/01/R3.2S_Murmansk/R3.2S_Murmansk__20260101_085042_SUOMI_NPP_rec.log

#Pass ID: 20260101_085042_SUOMI NPP
#Satellite: SUOMI NPP
#Configuration: NPP
#almurnet v.1.7.20251203
#Start time: 2026-01-01 08:50:42

#Version: 2.2.20231116
#Station: R3.2S_Murmansk
#Location: 33.079688 lon 68.888172 lat
#TLE: 1 37849U 11061A   26001.07732418  .00000182  00000+0  10735-3 0  9990
#TLE: 2 37849  98.7795 303.2470 0002580  87.2016 272.9455 14.19520779734739

#Time	Az	El	Level	Level2	SNR	BER	BlckErr	Temp	State	Recorded	gain1	gain2
2026-01-01 08:50:42.03	134.04	1.97	-59.6	-75.6	3.8	1.49e+00	0	32	0	0	85	22590
2026-01-01 08:50:43.02	134.02	2.03	-59.6	-75.6	3.8	1.49e+00	0	32	104	0	84	23943
2026-01-01 08:50:44.01	134.00	2.09	-59.6	-75.6	3.8	1.49e+00	0	32	104	0	84	24005
2026-01-01 08:50:45.01	133.99	2.16	-59.6	-75.6	3.8	1.49e+00	0	32	104	0	84	23981
2026-01-01 08:50:46.00	133.97	2.22	-59.5	-75.6	3.8	1.49e+00	0	32	104	0	84	23956
2026-01-01 08:50:46.99	133.95	2.28	-59.6	-75.6	3.8	1.49e+00	0	32	104	0	84	23953
2026-01-01 08:50:47.98	133.94	2.35	-59.6	-75.6	3.8	1.49e+00	0	32	104	0	84	24007
2026-01-01 08:50:48.97	133.92	2.41	-59.6	-75.6	3.8	1.49e+00	0	33	104	0	84	24019
2026-01-01 08:50:49.97	133.91	2.48	-59.6	-75.6	3.8	1.49e+00	0	33	104	0	84	24000
2026-01-01 08:50:50.97	133.89	2.54	-59.6	-75.6	3.8	1.49e+00	0	33	104	0	84	23912
2026-01-01 08:50:51.97	133.87	2.61	-59.6	-75.6	3.8	1.49e+00	0	33	104	0	84	23946
2026-01-01 08:50:52.95	133.85	2.67	-59.6	-75.6	3.8	1.49e+00	0	33	104	0	84	23871
2026-01-01 08:50:53.94	133.84	2.74	-59.6	-75.5	3.8	1.49e+00	0	32	104	0	84	23814
2026-01-01 08:50:54.94	133.82	2.80	-59.6	-75.5	3.8	1.49e+00	0	33	104	0	84	23778
2026-01-01 08:50:55.94	133.80	2.87	-59.6	-75.5	3.8	1.49e+00	0	32	104	0	84	23729
2026-01-01 08:50:56.93	133.79	2.93	-59.6	-75.5	3.8	1.49e+00	0	33	104	0	84	23790
2026-01-01 08:50:57.92	133.77	3.00	-59.6	-75.5	3.8	1.49e+00	0	33	104	0	84	23684
2026-01-01 08:50:58.92	133.75	3.06	-59.6	-75.5	3.8	1.49e+00	0	33	104	0	84	23692
2026-01-01 08:50:59.92	133.73	3.13	-59.6	-75.5	3.8	1.49e+00	0	33	104	0	84	23590
2026-01-01 08:51:00.91	133.72	3.19	-59.6	-75.4	3.8	1.49e+00	0	33	104	0	84	23437
2026-01-01 08:51:01.90	133.70	3.26	-59.6	-75.4	3.8	1.49e+00	0	33	104	0	84	23357
2026-01-01 08:51:02.90	133.68	3.33	-59.6	-75.4	3.8	1.49e+00	0	33	104	0	84	23337
2026-01-01 08:51:03.89	133.66	3.39	-59.6	-75.3	3.8	1.49e+00	0	33	104	0	84	23088
2026-01-01 08:51:04.88	133.65	3.46	-59.6	-75.2	3.8	1.49e+00	0	33	104	0	84	22949
2026-01-01 08:51:05.88	133.63	3.53	-59.6	-75.1	3.8	1.49e+00	0	33	104	0	84	22654
2026-01-01 08:51:06.87	133.61	3.59	-59.6	-74.8	3.8	1.49e+00	0	33	104	0	84	22007
2026-01-01 08:51:07.86	133.59	3.66	-59.6	-74.5	3.8	1.49e+00	0	33	104	0	84	21209
2026-01-01 08:51:08.86	133.57	3.73	-59.5	-73.9	3.8	1.49e+00	0	33	104	0	84	19643
2026-01-01 08:51:09.85	133.55	3.80	-59.5	-73.0	4.0	1.49e+00	0	33	104	0	84	17758
2026-01-01 08:51:10.85	133.54	3.86	-59.4	-71.8	4.2	1.43e+00	0	33	0	0	84	15550
2026-01-01 08:51:11.85	133.52	3.93	-59.3	-70.3	4.8	1.21e+00	0	33	0	1048576	84	13044
2026-01-01 08:51:12.84	133.50	4.00	-59.1	-68.6	5.8	4.67e-01	0	33	0	3145728	84	10669
2026-01-01 08:51:13.84	133.48	4.07	-58.8	-66.6	7.3	2.16e-01	0	33	0	4194304	84	8518
2026-01-01 08:51:14.83	133.46	4.14	-58.2	-65.0	8.7	5.69e-02	0	33	0	6291456	83	7478
2026-01-01 08:51:15.82	133.44	4.20	-57.8	-63.1	10.3	1.22e-02	0	33	0	8388608	82	6416
2026-01-01 08:51:16.81	133.42	4.27	-57.3	-62.0	11.4	3.42e-04	0	33	0	10485760	81	5946
2026-01-01 08:51:17.80	133.40	4.34	-57.0	-61.2	12.0	8.62e-05	0	33	0	11534336	80	5768
2026-01-01 08:51:18.80	133.38	4.41	-56.6	-60.5	12.6	1.90e-05	0	33	0	13631488	79	5621
2026-01-01 08:51:19.79	133.36	4.48	-56.2	-59.6	13.2	0.00e+00	0	33	0	15728640	79	5090
2026-01-01 08:51:20.78	133.34	4.55	-55.9	-59.2	13.6	0.00e+00	0	33	0	17825792	78	5108
2026-01-01 08:51:21.78	133.32	4.62	-55.3	-58.2	14.2	0.00e+00	0	33	0	19922944	77	4832
2026-01-01 08:51:22.77	133.30	4.69	-55.2	-58.0	14.3	0.00e+00	0	33	0	20971520	77	4743
2026-01-01 08:51:23.76	133.28	4.76	-55.1	-57.8	14.4	0.00e+00	0	33	0	23068672	76	4915
2026-01-01 08:51:24.76	133.26	4.83	-55.1	-57.8	14.5	0.00e+00	0	33	0	25165824	76	4908
2026-01-01 08:51:25.75	133.24	4.90	-55.1	-57.8	14.5	0.00e+00	0	33	0	27262976	76	4902
2026-01-01 08:51:26.75	133.22	4.97	-55.2	-58.0	14.3	0.00e+00	0	33	0	28311552	76	5021
2026-01-01 08:51:27.74	133.20	5.04	-55.5	-58.4	14.1	0.00e+00	0	33	0	30408704	76	5255
2026-01-01 08:51:28.73	133.18	5.11	-54.9	-57.4	14.8	0.00e+00	0	33	0	32505856	76	4678
2026-01-01 08:51:29.72	133.16	5.18	-56.6	-60.3	13.0	0.00e+00	0	33	0	34603008	78	5820
2026-01-01 08:51:30.71	133.14	5.25	-55.7	-58.7	14.0	1.50e-06	0	33	0	36700160	77	5156
2026-01-01 08:51:31.70	133.12	5.32	-55.3	-58.0	14.6	0.00e+00	0	33	0	37748736	76	4987
2026-01-01 08:51:32.70	133.10	5.39	-57.6	-62.7	11.1	0.00e+00	0	33	0	39845888	80	6815
2026-01-01 08:51:33.69	133.08	5.46	-55.3	-58.1	14.3	3.18e-01	0	33	0	41943040	77	4791
2026-01-01 08:51:34.69	133.06	5.54	-55.0	-57.6	14.7	0.00e+00	0	33	0	44040192	76	4806
2026-01-01 08:51:35.68	133.04	5.61	-54.8	-57.2	15.0	0.00e+00	0	33	0	45088768	76	4584
2026-01-01 08:51:36.67	133.02	5.68	-54.8	-57.2	15.0	0.00e+00	0	33	0	47185920	76	4595
2026-01-01 08:51:37.67	132.99	5.75	-54.8	-57.2	15.0	0.00e+00	0	33	0	49283072	76	4592
2026-01-01 08:51:38.67	132.97	5.83	-54.8	-57.2	15.0	0.00e+00	0	33	0	51380224	76	4562
2026-01-01 08:51:39.66	132.95	5.90	-55.0	-57.5	14.8	0.00e+00	0	33	0	53477376	76	4739
2026-01-01 08:51:40.65	132.93	5.97	-54.6	-56.9	15.1	0.00e+00	0	33	0	54525952	75	4700
2026-01-01 08:51:41.65	132.91	6.05	-54.5	-56.8	15.2	0.00e+00	0	33	0	56623104	75	4614
2026-01-01 08:51:42.63	132.88	6.12	-54.5	-56.8	15.2	0.00e+00	0	33	0	58720256	75	4633
2026-01-01 08:51:43.64	132.86	6.19	-54.6	-56.9	15.2	0.00e+00	0	34	0	60817408	75	4668
2026-01-01 08:51:44.63	132.84	6.27	-54.7	-57.1	15.1	0.00e+00	0	33	0	61865984	75	4776
2026-01-01 08:51:45.64	132.82	6.34	-54.5	-56.8	15.2	0.00e+00	0	33	0	63963136	75	4622
2026-01-01 08:51:46.63	132.79	6.42	-54.4	-56.7	15.3	0.00e+00	0	33	0	66060288	75	4573
2026-01-01 08:51:47.62	132.77	6.49	-54.4	-56.6	15.4	0.00e+00	0	34	0	68157440	75	4535
2026-01-01 08:51:48.61	132.75	6.56	-54.5	-56.8	15.3	0.00e+00	0	34	0	70254592	75	4610
2026-01-01 08:51:49.61	132.72	6.64	-54.6	-56.9	15.3	0.00e+00	0	33	0	71303168	75	4674
2026-01-01 08:51:50.60	132.70	6.71	-54.6	-56.9	15.2	0.00e+00	0	33	0	73400320	75	4699
2026-01-01 08:51:51.60	132.68	6.79	-54.4	-56.7	15.4	0.00e+00	0	33	0	75497472	75	4552
2026-01-01 08:51:52.60	132.65	6.87	-54.4	-56.6	15.4	0.00e+00	0	34	0	77594624	75	4530
2026-01-01 08:51:53.60	132.63	6.94	-54.4	-56.7	15.4	0.00e+00	0	33	0	78643200	75	4547
2026-01-01 08:51:54.60	132.61	7.02	-54.3	-56.4	15.6	0.00e+00	0	34	0	80740352	75	4432
2026-01-01 08:51:55.59	132.58	7.09	-54.3	-56.5	15.5	0.00e+00	0	34	0	82837504	75	4477
2026-01-01 08:51:56.58	132.56	7.17	-54.4	-56.6	15.5	0.00e+00	0	34	0	84934656	75	4514
2026-01-01 08:51:57.57	132.53	7.25	-54.2	-56.3	15.6	0.00e+00	0	34	0	87031808	74	4650
2026-01-01 08:51:58.57	132.51	7.32	-54.2	-56.3	15.6	0.00e+00	0	34	0	88080384	74	4632
2026-01-01 08:51:59.56	132.49	7.40	-54.2	-56.3	15.6	0.00e+00	0	34	0	90177536	74	4622
2026-01-01 08:52:00.55	132.46	7.48	-54.1	-56.2	15.7	0.00e+00	0	33	0	92274688	74	4569
2026-01-01 08:52:01.54	132.44	7.55	-54.1	-56.2	15.7	0.00e+00	0	34	0	94371840	74	4586
2026-01-01 08:52:02.54	132.41	7.63	-54.0	-56.1	15.7	0.00e+00	0	34	0	95420416	74	4524
2026-01-01 08:52:03.53	132.39	7.71	-54.1	-56.2	15.7	0.00e+00	0	33	0	97517568	74	4569
2026-01-01 08:52:04.53	132.36	7.79	-54.1	-56.1	15.7	0.00e+00	0	34	0	99614720	74	4536
2026-01-01 08:52:05.52	132.34	7.87	-53.9	-55.9	15.9	0.00e+00	0	34	0	101711872	74	4409
2026-01-01 08:52:06.52	132.31	7.95	-53.9	-55.9	15.9	0.00e+00	0	34	0	103809024	74	4406
2026-01-01 08:52:07.51	132.28	8.03	-53.9	-55.9	15.8	0.00e+00	0	33	0	104857600	74	4425
2026-01-01 08:52:08.49	132.26	8.10	-53.9	-55.8	15.9	0.00e+00	0	34	0	106954752	74	4390
2026-01-01 08:52:09.49	132.23	8.18	-53.7	-55.7	16.0	0.00e+00	0	34	0	109051904	74	4297
2026-01-01 08:52:10.49	132.21	8.26	-53.8	-55.7	15.9	0.00e+00	0	34	0	111149056	74	4320
2026-01-01 08:52:11.48	132.18	8.34	-53.8	-55.8	15.9	0.00e+00	0	33	0	112197632	74	4342
2026-01-01 08:52:12.48	132.15	8.42	-53.7	-55.7	15.9	0.00e+00	0	34	0	114294784	73	4553
2026-01-01 08:52:13.46	132.13	8.50	-53.6	-55.6	16.0	0.00e+00	0	34	0	116391936	73	4496
2026-01-01 08:52:14.46	132.10	8.58	-53.7	-55.6	16.0	0.00e+00	0	34	0	118489088	73	4529
2026-01-01 08:52:15.45	132.07	8.66	-53.7	-55.7	16.0	0.00e+00	0	34	0	120586240	73	4569
2026-01-01 08:52:16.44	132.05	8.75	-53.8	-55.7	16.0	0.00e+00	0	34	0	121634816	73	4585
2026-01-01 08:52:17.43	132.02	8.83	-53.7	-55.7	16.0	0.00e+00	0	34	0	123731968	73	4556
2026-01-01 08:52:18.42	131.99	8.91	-53.6	-55.4	16.1	0.00e+00	0	33	0	125829120	73	4437
2026-01-01 08:52:19.42	131.96	8.99	-53.7	-55.6	16.1	0.00e+00	0	34	0	127926272	73	4501
2026-01-01 08:52:20.41	131.94	9.07	-53.7	-55.6	16.0	0.00e+00	0	34	0	128974848	73	4515
2026-01-01 08:52:21.40	131.91	9.15	-53.5	-55.4	16.1	0.00e+00	0	34	0	131072000	73	4396
2026-01-01 08:52:22.40	131.88	9.24	-53.5	-55.3	16.1	0.00e+00	0	34	0	133169152	73	4384
2026-01-01 08:52:23.39	131.85	9.32	-53.7	-55.6	16.1	0.00e+00	0	34	0	135266304	73	4499
2026-01-01 08:52:24.38	131.82	9.40	-53.5	-55.4	16.2	0.00e+00	0	34	0	137363456	73	4397
2026-01-01 08:52:25.38	131.79	9.49	-53.4	-55.3	16.2	0.00e+00	0	33	0	138412032	73	4359
2026-01-01 08:52:26.37	131.76	9.57	-53.5	-55.4	16.1	0.00e+00	0	34	0	140509184	73	4411
2026-01-01 08:52:27.36	131.74	9.66	-53.5	-55.3	16.2	0.00e+00	0	34	0	142606336	73	4381
2026-01-01 08:52:28.35	131.71	9.74	-53.3	-55.1	16.3	0.00e+00	0	34	0	144703488	73	4289
2026-01-01 08:52:29.35	131.68	9.82	-53.3	-55.1	16.3	0.00e+00	0	34	0	145752064	73	4261
2026-01-01 08:52:30.35	131.65	9.91	-53.2	-55.0	16.3	0.00e+00	0	34	0	147849216	73	4229
2026-01-01 08:52:31.35	131.62	10.00	-53.3	-55.1	16.3	0.00e+00	0	34	0	149946368	73	4290
2026-01-01 08:52:32.34	131.59	10.08	-53.4	-55.3	16.2	0.00e+00	0	34	0	152043520	73	4347
2026-01-01 08:52:33.34	131.56	10.17	-53.2	-55.0	16.3	0.00e+00	0	34	0	154140672	73	4226
2026-01-01 08:52:34.34	131.52	10.25	-53.3	-55.1	16.3	0.00e+00	0	34	0	155189248	73	4284
2026-01-01 08:52:35.33	131.49	10.34	-53.2	-55.0	16.3	0.00e+00	0	34	0	157286400	73	4229
2026-01-01 08:52:36.32	131.46	10.43	-53.3	-55.0	16.3	0.00e+00	0	34	0	159383552	73	4239
2026-01-01 08:52:37.32	131.43	10.51	-53.2	-55.0	16.4	0.00e+00	0	34	0	161480704	72	4452
2026-01-01 08:52:38.31	131.40	10.60	-53.3	-55.0	16.3	0.00e+00	0	34	0	162529280	72	4489
2026-01-01 08:52:39.31	131.37	10.69	-53.2	-55.0	16.3	0.00e+00	0	34	0	164626432	72	4477
2026-01-01 08:52:40.30	131.34	10.78	-53.2	-55.0	16.3	0.00e+00	0	34	0	166723584	72	4464
2026-01-01 08:52:41.29	131.31	10.86	-53.2	-54.9	16.4	0.00e+00	0	34	0	168820736	72	4423
2026-01-01 08:52:42.29	131.27	10.95	-53.2	-54.9	16.4	0.00e+00	0	34	0	170917888	72	4408
2026-01-01 08:52:43.28	131.24	11.04	-53.0	-54.8	16.4	0.00e+00	0	34	0	171966464	72	4347
2026-01-01 08:52:44.28	131.21	11.13	-53.0	-54.7	16.5	0.00e+00	0	34	0	174063616	72	4325
2026-01-01 08:52:45.27	131.18	11.22	-53.0	-54.7	16.5	0.00e+00	0	34	0	176160768	72	4311
2026-01-01 08:52:46.27	131.14	11.31	-52.9	-54.6	16.5	0.00e+00	0	34	0	178257920	72	4280
2026-01-01 08:52:47.26	131.11	11.40	-53.1	-54.8	16.4	0.00e+00	0	34	0	179306496	72	4381
2026-01-01 08:52:48.26	131.08	11.49	-53.2	-54.9	16.4	0.00e+00	0	34	0	181403648	72	4433
2026-01-01 08:52:49.24	131.04	11.58	-53.2	-55.0	16.4	0.00e+00	0	34	0	183500800	72	4461
2026-01-01 08:52:50.23	131.01	11.67	-53.3	-55.0	16.4	0.00e+00	0	34	0	185597952	72	4485
2026-01-01 08:52:51.22	130.97	11.76	-53.1	-54.9	16.4	0.00e+00	0	34	0	187695104	72	4394
2026-01-01 08:52:52.22	130.94	11.85	-53.1	-54.8	16.4	0.00e+00	0	34	0	188743680	72	4379
2026-01-01 08:52:53.20	130.91	11.95	-53.0	-54.8	16.4	0.00e+00	0	34	0	190840832	72	4343
2026-01-01 08:52:54.20	130.87	12.04	-53.1	-54.8	16.4	0.00e+00	0	34	0	192937984	72	4365
2026-01-01 08:52:55.20	130.84	12.13	-53.1	-54.8	16.4	0.00e+00	0	34	0	195035136	72	4374
2026-01-01 08:52:56.19	130.80	12.22	-53.0	-54.7	16.5	0.00e+00	0	34	0	196083712	72	4303
2026-01-01 08:52:57.19	130.76	12.32	-52.9	-54.6	16.5	0.00e+00	0	34	0	198180864	72	4284
2026-01-01 08:52:58.18	130.73	12.41	-52.8	-54.6	16.5	0.00e+00	0	34	0	200278016	72	4289
2026-01-01 08:52:59.17	130.69	12.51	-52.6	-54.4	16.5	0.00e+00	0	34	0	202375168	71	4438
2026-01-01 08:53:00.16	130.66	12.60	-52.7	-54.5	16.5	0.00e+00	0	34	0	203423744	71	4480
2026-01-01 08:53:01.15	130.62	12.69	-52.8	-54.7	16.4	0.00e+00	0	34	0	205520896	71	4563
2026-01-01 08:53:02.14	130.58	12.79	-52.8	-54.6	16.5	0.00e+00	0	34	0	207618048	71	4507
2026-01-01 08:53:03.14	130.55	12.88	-52.7	-54.5	16.5	0.00e+00	0	34	0	209715200	71	4486
2026-01-01 08:53:04.13	130.51	12.98	-52.9	-54.8	16.4	0.00e+00	0	34	0	211812352	71	4640
2026-01-01 08:53:05.12	130.47	13.08	-52.8	-54.7	16.4	0.00e+00	0	34	0	212860928	71	4556
2026-01-01 08:53:06.11	130.43	13.17	-52.9	-54.7	16.4	0.00e+00	0	34	0	214958080	71	4587
2026-01-01 08:53:07.10	130.40	13.27	-52.8	-54.7	16.4	0.00e+00	0	34	0	217055232	71	4557
2026-01-01 08:53:08.09	130.36	13.37	-53.0	-54.9	16.4	0.00e+00	0	34	0	219152384	71	4663
2026-01-01 08:53:09.08	130.32	13.46	-53.0	-54.9	16.3	0.00e+00	0	34	0	220200960	71	4675
2026-01-01 08:53:10.08	130.28	13.56	-52.9	-54.9	16.4	0.00e+00	0	34	0	222298112	71	4656
2026-01-01 08:53:11.07	130.24	13.66	-53.0	-54.9	16.4	0.00e+00	0	34	0	224395264	71	4667
2026-01-01 08:53:12.06	130.20	13.76	-52.8	-54.7	16.5	0.00e+00	0	34	0	226492416	71	4563
2026-01-01 08:53:13.05	130.16	13.86	-52.8	-54.7	16.4	0.00e+00	0	34	0	228589568	71	4552
2026-01-01 08:53:14.03	130.12	13.96	-52.8	-54.7	16.5	0.00e+00	0	34	0	229638144	71	4553
2026-01-01 08:53:15.03	130.08	14.06	-52.6	-54.4	16.6	0.00e+00	0	34	0	231735296	71	4400
2026-01-01 08:53:16.02	130.04	14.16	-52.6	-54.5	16.5	0.00e+00	0	34	0	233832448	71	4460
2026-01-01 08:53:17.01	130.00	14.26	-52.8	-54.6	16.5	0.00e+00	0	34	0	235929600	71	4531
2026-01-01 08:53:18.01	129.96	14.36	-52.7	-54.5	16.5	0.00e+00	0	34	0	236978176	71	4490
2026-01-01 08:53:19.00	129.92	14.46	-52.6	-54.4	16.5	0.00e+00	0	34	0	239075328	71	4423
2026-01-01 08:53:19.99	129.87	14.56	-52.7	-54.6	16.5	0.00e+00	0	34	0	241172480	71	4500
2026-01-01 08:53:20.98	129.83	14.66	-52.8	-54.7	16.5	0.00e+00	0	34	0	243269632	71	4552
2026-01-01 08:53:21.98	129.79	14.77	-52.6	-54.4	16.5	0.00e+00	0	34	0	245366784	71	4441
2026-01-01 08:53:22.97	129.75	14.87	-52.5	-54.4	16.6	0.00e+00	0	34	0	246415360	71	4398
2026-01-01 08:53:23.95	129.70	14.97	-52.7	-54.6	16.5	0.00e+00	0	34	0	248512512	71	4515
2026-01-01 08:53:24.94	129.66	15.08	-52.7	-54.6	16.5	0.00e+00	0	34	0	250609664	71	4494
2026-01-01 08:53:25.93	129.62	15.18	-52.6	-54.4	16.6	0.00e+00	0	34	0	252706816	71	4415
2026-01-01 08:53:26.92	129.57	15.28	-52.6	-54.5	16.5	0.00e+00	0	34	0	253755392	71	4463
2026-01-01 08:53:27.91	129.53	15.39	-52.7	-54.6	16.5	0.00e+00	0	34	0	255852544	71	4511
2026-01-01 08:53:28.90	129.48	15.50	-52.5	-54.4	16.6	0.00e+00	0	34	0	257949696	71	4407
2026-01-01 08:53:29.90	129.44	15.60	-52.5	-54.3	16.6	0.00e+00	0	34	0	260046848	71	4364
2026-01-01 08:53:30.88	129.39	15.71	-52.4	-54.2	16.7	0.00e+00	0	34	0	261095424	71	4336
2026-01-01 08:53:31.89	129.35	15.82	-52.4	-54.2	16.7	0.00e+00	0	34	0	263192576	71	4299
2026-01-01 08:53:32.88	129.30	15.92	-52.5	-54.3	16.7	0.00e+00	0	34	0	265289728	71	4350
2026-01-01 08:53:33.87	129.25	16.03	-52.4	-54.2	16.7	0.00e+00	0	34	0	267386880	71	4300
2026-01-01 08:53:34.87	129.21	16.14	-52.4	-54.1	16.7	0.00e+00	0	34	0	269484032	71	4291
2026-01-01 08:53:35.86	129.16	16.25	-52.6	-54.4	16.6	0.00e+00	0	34	0	270532608	71	4439
2026-01-01 08:53:36.86	129.11	16.36	-52.4	-54.2	16.7	0.00e+00	0	34	0	272629760	71	4315
2026-01-01 08:53:37.85	129.06	16.47	-52.5	-54.3	16.7	0.00e+00	0	34	0	274726912	71	4387
2026-01-01 08:53:38.84	129.02	16.58	-52.5	-54.3	16.7	0.00e+00	0	34	0	276824064	71	4373
2026-01-01 08:53:39.83	128.97	16.69	-52.5	-54.3	16.7	0.00e+00	0	34	0	277872640	71	4358
2026-01-01 08:53:40.82	128.92	16.80	-52.6	-54.4	16.6	0.00e+00	0	34	0	279969792	71	4426
2026-01-01 08:53:41.81	128.87	16.91	-52.6	-54.4	16.7	0.00e+00	0	34	0	282066944	71	4421
2026-01-01 08:53:42.80	128.82	17.02	-52.6	-54.4	16.7	0.00e+00	0	34	0	284164096	71	4407
2026-01-01 08:53:43.80	128.77	17.14	-52.7	-54.5	16.6	0.00e+00	0	34	0	286261248	71	4480
2026-01-01 08:53:44.80	128.72	17.25	-52.6	-54.4	16.7	0.00e+00	0	34	0	287309824	71	4414
2026-01-01 08:53:45.79	128.67	17.37	-52.5	-54.3	16.7	0.00e+00	0	34	0	289406976	71	4379
2026-01-01 08:53:46.78	128.62	17.48	-52.6	-54.4	16.7	0.00e+00	0	34	0	291504128	71	4395
2026-01-01 08:53:47.78	128.56	17.59	-52.6	-54.3	16.7	0.00e+00	0	34	0	293601280	71	4387
2026-01-01 08:53:48.77	128.51	17.71	-52.7	-54.5	16.6	0.00e+00	0	34	0	294649856	71	4450
2026-01-01 08:53:49.76	128.46	17.83	-52.7	-54.4	16.6	0.00e+00	0	34	0	296747008	71	4440
2026-01-01 08:53:50.75	128.40	17.94	-52.7	-54.4	16.7	0.00e+00	0	34	0	298844160	71	4430
2026-01-01 08:53:51.74	128.35	18.06	-52.8	-54.6	16.6	0.00e+00	0	34	0	300941312	71	4532
2026-01-01 08:53:52.74	128.30	18.18	-52.8	-54.6	16.6	0.00e+00	0	34	0	303038464	71	4513
2026-01-01 08:53:53.73	128.24	18.29	-52.7	-54.5	16.6	0.00e+00	0	34	0	304087040	71	4470
2026-01-01 08:53:54.72	128.19	18.41	-52.9	-54.8	16.5	0.00e+00	0	34	0	306184192	71	4622
2026-01-01 08:53:55.71	128.13	18.53	-52.8	-54.6	16.6	0.00e+00	0	34	0	308281344	71	4520
2026-01-01 08:53:56.70	128.08	18.65	-52.8	-54.5	16.7	0.00e+00	0	34	0	310378496	71	4477
2026-01-01 08:53:57.69	128.02	18.77	-52.7	-54.4	16.7	0.00e+00	0	34	0	311427072	71	4410
2026-01-01 08:53:58.69	127.96	18.89	-52.8	-54.6	16.6	0.00e+00	0	34	0	313524224	71	4532
2026-01-01 08:53:59.68	127.91	19.01	-52.8	-54.6	16.6	0.00e+00	0	34	0	315621376	71	4513
2026-01-01 08:54:00.68	127.85	19.13	-52.6	-54.4	16.7	0.00e+00	0	34	0	317718528	71	4398
2026-01-01 08:54:01.67	127.79	19.26	-52.7	-54.5	16.7	0.00e+00	0	34	0	319815680	71	4448
2026-01-01 08:54:02.66	127.73	19.38	-52.9	-54.7	16.6	0.00e+00	0	34	0	320864256	71	4554
2026-01-01 08:54:03.66	127.67	19.50	-52.7	-54.4	16.7	0.00e+00	0	34	0	322961408	71	4400
2026-01-01 08:54:04.66	127.61	19.63	-52.7	-54.4	16.7	0.00e+00	0	34	0	325058560	71	4419
2026-01-01 08:54:05.66	127.55	19.75	-52.6	-54.3	16.8	0.00e+00	0	34	0	327155712	71	4373
2026-01-01 08:54:06.65	127.49	19.88	-52.4	-54.1	16.8	0.00e+00	0	34	0	328204288	71	4276
2026-01-01 08:54:07.65	127.43	20.01	-52.7	-54.5	16.7	0.00e+00	0	34	0	330301440	71	4450
2026-01-01 08:54:08.63	127.37	20.13	-52.7	-54.4	16.7	0.00e+00	0	34	0	332398592	71	4419
2026-01-01 08:54:09.63	127.30	20.26	-52.6	-54.3	16.8	0.00e+00	0	34	0	334495744	71	4387
2026-01-01 08:54:10.62	127.24	20.39	-52.8	-54.6	16.7	0.00e+00	0	34	0	335544320	71	4502
2026-01-01 08:54:11.61	127.18	20.51	-52.6	-54.3	16.7	0.00e+00	0	34	0	337641472	71	4381
2026-01-01 08:54:12.60	127.11	20.64	-52.8	-54.5	16.7	0.00e+00	0	34	0	339738624	71	4487
2026-01-01 08:54:13.59	127.05	20.77	-52.7	-54.5	16.7	0.00e+00	0	34	0	341835776	71	4449
2026-01-01 08:54:14.59	126.98	20.90	-52.9	-54.7	16.6	0.00e+00	0	34	0	343932928	71	4586
2026-01-01 08:54:15.59	126.92	21.03	-53.2	-55.1	16.5	0.00e+00	0	34	0	344981504	71	4783
2026-01-01 08:54:16.57	126.85	21.16	-53.2	-55.1	16.4	0.00e+00	0	34	0	347078656	71	4799
2026-01-01 08:54:17.58	126.78	21.30	-53.2	-55.1	16.4	0.00e+00	0	34	0	349175808	71	4778
2026-01-01 08:54:18.58	126.71	21.43	-53.5	-55.5	16.3	0.00e+00	0	34	0	351272960	72	4742
2026-01-01 08:54:19.57	126.65	21.56	-53.2	-55.1	16.4	0.00e+00	0	34	0	353370112	72	4533
2026-01-01 08:54:20.56	126.58	21.70	-53.3	-55.2	16.4	0.00e+00	0	34	0	354418688	72	4591
2026-01-01 08:54:21.55	126.51	21.83	-53.3	-55.3	16.4	0.00e+00	0	34	0	356515840	72	4625
2026-01-01 08:54:22.55	126.44	21.97	-53.3	-55.3	16.4	0.00e+00	0	34	0	358612992	72	4612
2026-01-01 08:54:23.54	126.37	22.11	-53.4	-55.4	16.3	0.00e+00	0	34	0	360710144	72	4672
2026-01-01 08:54:24.53	126.30	22.24	-53.5	-55.5	16.3	0.00e+00	0	34	0	361758720	72	4742
2026-01-01 08:54:25.53	126.22	22.38	-53.3	-55.3	16.4	0.00e+00	0	34	0	363855872	72	4625
2026-01-01 08:54:26.52	126.15	22.52	-53.5	-55.5	16.3	0.00e+00	0	34	0	365953024	72	4720
2026-01-01 08:54:27.52	126.08	22.66	-53.3	-55.2	16.4	0.00e+00	0	34	0	368050176	72	4591
2026-01-01 08:54:28.51	126.00	22.80	-53.2	-55.1	16.4	0.00e+00	0	34	0	369098752	72	4536
2026-01-01 08:54:29.50	125.93	22.94	-53.2	-55.2	16.4	0.00e+00	0	34	0	371195904	72	4562
2026-01-01 08:54:30.49	125.85	23.08	-53.2	-55.2	16.4	0.00e+00	0	34	0	373293056	72	4568
2026-01-01 08:54:31.48	125.78	23.22	-53.1	-55.0	16.5	0.00e+00	0	34	0	375390208	72	4472
2026-01-01 08:54:32.48	125.70	23.36	-53.2	-55.2	16.5	0.00e+00	0	34	0	377487360	72	4551
2026-01-01 08:54:33.47	125.62	23.50	-53.4	-55.4	16.4	0.00e+00	0	34	0	378535936	72	4664
2026-01-01 08:54:34.47	125.54	23.65	-53.4	-55.4	16.4	0.00e+00	0	34	0	380633088	72	4655
2026-01-01 08:54:35.46	125.46	23.79	-53.4	-55.4	16.4	0.00e+00	0	34	0	382730240	72	4660
2026-01-01 08:54:36.45	125.38	23.94	-53.5	-55.5	16.3	0.00e+00	0	34	0	384827392	72	4723
2026-01-01 08:54:37.44	125.30	24.08	-53.6	-55.7	16.2	0.00e+00	0	34	0	385875968	72	4817
2026-01-01 08:54:38.44	125.22	24.23	-53.6	-55.6	16.2	0.00e+00	0	34	0	387973120	72	4808
2026-01-01 08:54:39.43	125.14	24.38	-54.0	-56.1	16.1	0.00e+00	0	34	0	390070272	73	4799
2026-01-01 08:54:40.42	125.06	24.53	-54.1	-56.3	15.9	0.00e+00	0	34	0	392167424	73	4889
2026-01-01 08:54:41.41	124.97	24.68	-54.1	-56.2	16.0	0.00e+00	0	34	0	394264576	73	4854
2026-01-01 08:54:42.40	124.89	24.83	-54.2	-56.5	15.9	0.00e+00	0	34	0	395313152	73	4994
2026-01-01 08:54:43.39	124.80	24.98	-54.3	-56.5	15.9	0.00e+00	0	34	0	397410304	73	5016
2026-01-01 08:54:44.39	124.72	25.13	-54.1	-56.2	16.0	0.00e+00	0	34	0	399507456	73	4857
2026-01-01 08:54:45.38	124.63	25.28	-54.2	-56.4	15.9	0.00e+00	0	34	0	401604608	73	4969
2026-01-01 08:54:46.37	124.54	25.43	-54.2	-56.4	16.0	0.00e+00	0	34	0	402653184	73	4939
2026-01-01 08:54:47.37	124.45	25.59	-54.2	-56.4	16.0	0.00e+00	0	34	0	404750336	73	4954
2026-01-01 08:54:48.36	124.36	25.74	-54.3	-56.5	16.0	0.00e+00	0	34	0	406847488	74	4741
2026-01-01 08:54:49.36	124.27	25.90	-54.3	-56.5	16.0	0.00e+00	0	34	0	408944640	74	4730
2026-01-01 08:54:50.35	124.18	26.05	-54.2	-56.3	16.1	0.00e+00	0	34	0	411041792	74	4635
2026-01-01 08:54:51.34	124.09	26.21	-54.4	-56.7	15.8	0.00e+00	0	34	0	412090368	74	4828
2026-01-01 08:54:52.33	123.99	26.37	-54.4	-56.7	15.9	0.00e+00	0	34	0	414187520	74	4824
2026-01-01 08:54:53.32	123.90	26.53	-54.4	-56.7	15.9	0.00e+00	0	34	0	416284672	74	4824
2026-01-01 08:54:54.31	123.80	26.69	-54.3	-56.5	15.9	0.00e+00	0	34	0	418381824	74	4721
2026-01-01 08:54:55.31	123.70	26.85	-54.2	-56.4	16.0	0.00e+00	0	34	0	419430400	74	4673
2026-01-01 08:54:56.30	123.61	27.01	-54.1	-56.2	16.1	0.00e+00	0	34	0	421527552	74	4588
2026-01-01 08:54:57.29	123.51	27.17	-54.3	-56.5	16.0	0.00e+00	0	34	0	423624704	74	4757
2026-01-01 08:54:58.29	123.41	27.34	-54.2	-56.4	16.0	0.00e+00	0	34	0	425721856	74	4664
2026-01-01 08:54:59.28	123.31	27.50	-54.4	-56.7	15.9	0.00e+00	0	34	0	427819008	74	4840
2026-01-01 08:55:00.28	123.20	27.67	-54.5	-56.7	15.9	0.00e+00	0	34	0	428867584	74	4867
2026-01-01 08:55:01.27	123.10	27.83	-54.8	-57.3	15.5	0.00e+00	0	34	0	430964736	74	5167
2026-01-01 08:55:02.26	123.00	28.00	-54.6	-57.0	15.7	0.00e+00	0	34	0	433061888	74	4990
2026-01-01 08:55:03.25	122.89	28.16	-54.6	-56.9	15.8	0.00e+00	0	34	0	435159040	74	4978
2026-01-01 08:55:04.25	122.79	28.33	-54.5	-56.8	15.8	0.00e+00	0	34	0	436207616	74	4917
2026-01-01 08:55:05.25	122.68	28.50	-54.6	-57.0	15.6	0.00e+00	0	34	0	438304768	74	5016
2026-01-01 08:55:06.24	122.57	28.67	-54.4	-56.6	15.8	0.00e+00	0	34	0	440401920	74	4793
2026-01-01 08:55:07.24	122.46	28.85	-54.7	-57.1	15.7	0.00e+00	0	34	0	442499072	74	5057
2026-01-01 08:55:08.23	122.35	29.02	-54.6	-56.9	15.7	0.00e+00	0	34	0	444596224	74	4982
2026-01-01 08:55:09.23	122.23	29.19	-54.9	-57.4	15.5	0.00e+00	0	34	0	445644800	75	4966
2026-01-01 08:55:10.23	122.12	29.37	-55.2	-57.7	15.3	0.00e+00	0	34	0	447741952	75	5142
2026-01-01 08:55:11.22	122.01	29.54	-55.4	-58.0	15.2	0.00e+00	0	34	0	449839104	75	5335
2026-01-01 08:55:12.21	121.89	29.72	-55.6	-58.2	15.2	0.00e+00	0	34	0	451936256	76	5127
2026-01-01 08:55:13.21	121.77	29.90	-55.6	-58.2	15.2	0.00e+00	0	34	0	452984832	76	5133
2026-01-01 08:55:14.20	121.65	30.07	-55.7	-58.4	15.0	0.00e+00	0	34	0	455081984	76	5241
2026-01-01 08:55:15.19	121.53	30.25	-55.5	-57.9	15.3	0.00e+00	0	34	0	457179136	76	4976
2026-01-01 08:55:16.19	121.41	30.43	-55.5	-57.9	15.3	0.00e+00	0	34	0	459276288	76	4971
2026-01-01 08:55:17.18	121.29	30.61	-55.4	-57.9	15.3	0.00e+00	0	34	0	461373440	76	4949
2026-01-01 08:55:18.17	121.16	30.80	-55.4	-57.8	15.4	0.00e+00	0	34	0	462422016	76	4888
2026-01-01 08:55:19.16	121.04	30.98	-55.5	-58.0	15.4	0.00e+00	0	34	0	464519168	76	4985
2026-01-01 08:55:20.15	120.91	31.16	-55.7	-58.3	15.1	0.00e+00	0	34	0	466616320	77	4921
2026-01-01 08:55:21.15	120.78	31.35	-55.7	-58.4	15.1	0.00e+00	0	34	0	468713472	77	4942
2026-01-01 08:55:22.14	120.65	31.53	-56.2	-59.2	14.7	0.00e+00	0	34	0	469762048	77	5425
2026-01-01 08:55:23.13	120.52	31.72	-56.0	-58.8	14.8	0.00e+00	0	34	0	471859200	77	5176
2026-01-01 08:55:24.12	120.39	31.91	-55.8	-58.6	14.9	0.00e+00	0	34	0	473956352	77	5045
2026-01-01 08:55:25.11	120.25	32.09	-55.7	-58.5	15.0	0.00e+00	0	34	0	476053504	77	5004
2026-01-01 08:55:26.10	120.12	32.28	-55.3	-57.9	15.4	0.00e+00	0	34	0	477102080	77	4654
2026-01-01 08:55:27.10	119.98	32.48	-54.8	-57.1	15.7	0.00e+00	0	34	0	479199232	76	4542
2026-01-01 08:55:28.09	119.84	32.67	-55.0	-57.4	15.5	0.00e+00	0	34	0	481296384	76	4695
2026-01-01 08:55:29.08	119.70	32.86	-55.0	-57.5	15.6	0.00e+00	0	34	0	483393536	76	4706
2026-01-01 08:55:30.07	119.55	33.05	-55.2	-57.8	15.3	0.00e+00	0	34	0	485490688	76	4910
2026-01-01 08:55:31.07	119.41	33.25	-55.6	-58.3	15.1	0.00e+00	0	34	0	486539264	76	5175
2026-01-01 08:55:32.06	119.26	33.44	-55.6	-58.3	15.1	0.00e+00	0	34	0	488636416	76	5174
2026-01-01 08:55:33.05	119.11	33.64	-56.1	-59.1	14.7	0.00e+00	0	34	0	490733568	77	5347
2026-01-01 08:55:34.04	118.96	33.84	-55.6	-58.2	15.2	0.00e+00	0	34	0	492830720	77	4861
2026-01-01 08:55:35.04	118.81	34.04	-55.6	-58.2	15.2	0.00e+00	0	34	0	493879296	77	4840
2026-01-01 08:55:36.02	118.66	34.24	-55.4	-58.0	15.3	0.00e+00	0	34	0	495976448	77	4714
2026-01-01 08:55:37.02	118.50	34.44	-55.2	-57.7	15.4	0.00e+00	0	34	0	498073600	76	4859
2026-01-01 08:55:38.02	118.34	34.64	-55.2	-57.7	15.4	0.00e+00	0	34	0	500170752	76	4865
2026-01-01 08:55:39.02	118.18	34.85	-55.3	-57.9	15.3	0.00e+00	0	34	0	502267904	76	4968
2026-01-01 08:55:40.01	118.01	35.05	-55.6	-58.2	15.1	0.00e+00	0	34	0	503316480	76	5155
2026-01-01 08:55:41.00	117.85	35.26	-56.0	-59.1	14.6	0.00e+00	0	34	0	505413632	77	5386
2026-01-01 08:55:41.99	117.68	35.46	-56.0	-59.2	14.6	0.00e+00	0	34	0	507510784	77	5404
2026-01-01 08:55:42.98	117.52	35.67	-56.3	-59.7	14.2	0.00e+00	0	34	0	509607936	77	5727
2026-01-01 08:55:43.97	117.35	35.88	-56.3	-60.0	13.9	0.00e+00	0	34	0	510656512	78	5649
2026-01-01 08:55:44.97	117.17	36.09	-56.2	-59.9	14.0	0.00e+00	0	34	0	512753664	78	5566
2026-01-01 08:55:45.96	117.00	36.30	-55.9	-59.7	14.1	0.00e+00	0	34	0	514850816	78	5417
2026-01-01 08:55:46.95	116.82	36.51	-56.1	-60.0	13.9	0.00e+00	0	34	0	516947968	78	5645
2026-01-01 08:55:47.95	116.64	36.72	-56.3	-60.7	13.5	0.00e+00	0	34	0	519045120	78	6068
2026-01-01 08:55:48.94	116.46	36.94	-56.5	-60.9	13.4	0.00e+00	0	34	0	520093696	78	6259
2026-01-01 08:55:49.94	116.27	37.15	-56.6	-61.3	13.0	0.00e+00	0	34	0	522190848	78	6550
2026-01-01 08:55:50.93	116.08	37.37	-56.6	-61.3	13.0	0.00e+00	0	34	0	524288000	78	6562
2026-01-01 08:55:51.92	115.89	37.59	-56.7	-61.2	13.0	1.50e-06	0	34	0	526385152	78	6438
2026-01-01 08:55:52.92	115.70	37.81	-56.5	-61.0	13.2	0.00e+00	0	34	0	527433728	78	6306
2026-01-01 08:55:53.92	115.50	38.03	-56.3	-60.5	13.7	0.00e+00	0	34	0	529530880	78	5931
2026-01-01 08:55:54.90	115.31	38.24	-56.2	-60.2	13.8	0.00e+00	0	34	0	531628032	78	5750
2026-01-01 08:55:55.89	115.11	38.46	-56.3	-60.3	13.8	0.00e+00	0	34	0	533725184	78	5814
2026-01-01 08:55:56.88	114.90	38.69	-55.5	-58.6	14.8	0.00e+00	0	34	0	535822336	77	5090
2026-01-01 08:55:57.88	114.69	38.91	-55.1	-57.9	15.2	0.00e+00	0	34	0	536870912	76	4945
2026-01-01 08:55:58.87	114.49	39.13	-54.7	-57.2	15.6	0.00e+00	0	34	0	538968064	76	4562
2026-01-01 08:55:59.87	114.27	39.36	-54.2	-56.6	15.9	0.00e+00	0	34	0	541065216	75	4524
2026-01-01 08:56:00.86	114.06	39.59	-54.6	-57.1	15.7	0.00e+00	0	34	0	543162368	74	5070
2026-01-01 08:56:01.85	113.84	39.81	-54.9	-57.6	15.4	0.00e+00	0	34	0	544210944	75	5099
2026-01-01 08:56:02.84	113.62	40.04	-55.1	-57.9	15.3	0.00e+00	0	34	0	546308096	75	5248
2026-01-01 08:56:03.83	113.39	40.27	-55.3	-58.2	15.2	0.00e+00	0	34	0	548405248	75	5411
2026-01-01 08:56:04.83	113.16	40.50	-55.4	-58.2	15.2	0.00e+00	0	34	0	550502400	76	5130
2026-01-01 08:56:05.82	112.93	40.73	-55.5	-58.3	15.1	0.00e+00	0	34	0	551550976	76	5214
2026-01-01 08:56:06.81	112.70	40.96	-55.4	-58.3	15.1	0.00e+00	0	34	0	553648128	76	5161
2026-01-01 08:56:07.80	112.46	41.20	-55.0	-57.6	15.5	0.00e+00	0	34	0	555745280	76	4785
2026-01-01 08:56:08.80	112.22	41.43	-55.3	-58.1	15.2	0.00e+00	0	34	0	557842432	76	5055
2026-01-01 08:56:09.80	111.97	41.67	-55.2	-58.1	15.2	0.00e+00	0	34	0	559939584	76	5046
2026-01-01 08:56:10.80	111.72	41.91	-55.6	-58.5	15.0	0.00e+00	0	34	0	560988160	76	5330
2026-01-01 08:56:11.79	111.47	42.14	-55.7	-58.9	14.8	0.00e+00	0	34	0	563085312	77	5230
2026-01-01 08:56:12.78	111.21	42.38	-56.1	-59.5	14.4	0.00e+00	0	34	0	565182464	77	5648
2026-01-01 08:56:13.77	110.96	42.62	-56.1	-59.3	14.5	0.00e+00	0	34	0	567279616	78	5183
2026-01-01 08:56:14.76	110.69	42.86	-56.1	-59.2	14.6	0.00e+00	0	34	0	568328192	78	5142
2026-01-01 08:56:15.75	110.42	43.10	-56.3	-59.5	14.5	0.00e+00	0	34	0	570425344	78	5297
2026-01-01 08:56:16.74	110.15	43.34	-55.8	-58.6	15.0	0.00e+00	0	34	0	572522496	78	4786
2026-01-01 08:56:17.74	109.88	43.58	-55.7	-58.4	15.1	0.00e+00	0	34	0	574619648	78	4677
2026-01-01 08:56:18.72	109.60	43.82	-56.0	-59.0	14.8	0.00e+00	0	34	0	576716800	78	5016
2026-01-01 08:56:19.73	109.31	44.07	-56.1	-59.0	14.8	0.00e+00	0	34	0	577765376	78	5005
2026-01-01 08:56:20.72	109.02	44.31	-56.3	-59.4	14.5	0.00e+00	0	34	0	579862528	78	5236
2026-01-01 08:56:21.71	108.73	44.55	-55.6	-58.4	15.1	0.00e+00	0	34	0	581959680	77	4933
2026-01-01 08:56:22.69	108.43	44.80	-55.5	-58.2	15.2	0.00e+00	0	34	0	584056832	77	4835
2026-01-01 08:56:23.68	108.13	45.04	-55.6	-58.3	15.1	0.00e+00	0	34	0	585105408	77	4922
2026-01-01 08:56:24.67	107.82	45.29	-55.8	-58.8	14.8	0.00e+00	0	34	0	587202560	77	5213
2026-01-01 08:56:25.67	107.51	45.54	-55.9	-59.0	14.7	0.00e+00	0	34	0	589299712	77	5326
2026-01-01 08:56:26.66	107.19	45.78	-55.5	-58.3	15.1	0.00e+00	0	34	0	591396864	77	4897
2026-01-01 08:56:27.65	106.87	46.03	-55.0	-57.6	15.5	0.00e+00	0	34	0	593494016	76	4793
2026-01-01 08:56:28.64	106.54	46.28	-54.5	-56.9	15.7	0.00e+00	0	34	0	594542592	75	4698
2026-01-01 08:56:29.64	106.21	46.53	-54.3	-56.8	15.8	0.00e+00	0	34	0	596639744	75	4616
2026-01-01 08:56:30.64	105.86	46.78	-54.1	-56.5	16.0	0.00e+00	0	34	0	598736896	74	4740
2026-01-01 08:56:31.62	105.53	47.03	-54.5	-57.1	15.7	0.00e+00	0	34	0	600834048	74	5063
2026-01-01 08:56:32.61	105.18	47.28	-54.5	-57.0	15.8	0.00e+00	0	34	0	601882624	74	5011
2026-01-01 08:56:33.60	104.82	47.53	-54.2	-56.7	15.9	0.00e+00	0	34	0	603979776	74	4828
2026-01-01 08:56:34.59	104.46	47.78	-53.9	-56.3	16.1	0.00e+00	0	34	0	606076928	74	4649
2026-01-01 08:56:35.59	104.09	48.03	-54.0	-56.5	16.1	0.00e+00	0	34	0	608174080	74	4739
2026-01-01 08:56:36.58	103.72	48.28	-54.2	-56.8	15.9	0.00e+00	0	34	0	610271232	74	4921
2026-01-01 08:56:37.58	103.34	48.53	-54.4	-57.1	15.7	0.00e+00	0	34	0	611319808	74	5074
2026-01-01 08:56:38.58	102.95	48.79	-54.6	-57.4	15.5	0.00e+00	0	34	0	613416960	74	5229
2026-01-01 08:56:39.57	102.56	49.04	-55.3	-58.4	14.9	0.00e+00	0	34	0	615514112	75	5567
2026-01-01 08:56:40.56	102.16	49.29	-55.1	-58.2	15.0	0.00e+00	0	34	0	617611264	75	5419
2026-01-01 08:56:41.55	101.76	49.54	-55.0	-58.3	15.0	0.00e+00	0	34	0	618659840	75	5468
2026-01-01 08:56:42.54	101.35	49.79	-54.5	-57.5	15.3	0.00e+00	0	34	0	620756992	75	5034
2026-01-01 08:56:43.53	100.93	50.04	-53.6	-56.2	15.9	0.00e+00	0	34	0	622854144	73	4833
2026-01-01 08:56:44.52	100.50	50.29	-53.5	-56.1	16.0	0.00e+00	0	34	0	624951296	72	5063
2026-01-01 08:56:45.52	100.07	50.54	-53.4	-56.0	16.0	0.00e+00	0	34	0	625999872	72	4997
2026-01-01 08:56:46.51	99.63	50.79	-53.7	-56.3	15.9	0.00e+00	0	34	0	628097024	72	5176
2026-01-01 08:56:47.50	99.18	51.04	-53.1	-55.5	16.3	0.00e+00	0	34	0	630194176	72	4730
2026-01-01 08:56:48.50	98.72	51.29	-52.1	-54.1	16.7	0.00e+00	0	34	0	632291328	70	4520
2026-01-01 08:56:49.48	98.27	51.53	-51.6	-53.5	17.0	0.00e+00	0	34	0	634388480	69	4490
2026-01-01 08:56:50.48	97.79	51.78	-51.8	-53.6	17.0	0.00e+00	0	34	0	635437056	69	4543
2026-01-01 08:56:51.46	97.32	52.02	-52.5	-54.5	16.7	0.00e+00	0	34	0	637534208	70	4729
2026-01-01 08:56:52.45	96.84	52.27	-52.9	-55.0	16.5	0.00e+00	0	34	0	639631360	70	5023
2026-01-01 08:56:53.44	96.34	52.51	-52.9	-55.1	16.5	0.00e+00	0	34	0	641728512	71	4774
2026-01-01 08:56:54.44	95.84	52.76	-53.2	-55.3	16.4	0.00e+00	0	34	0	642777088	71	4924
2026-01-01 08:56:55.43	95.33	53.00	-53.8	-56.2	16.2	0.00e+00	0	34	0	644874240	72	5138
2026-01-01 08:56:56.43	94.80	53.24	-54.2	-56.8	15.8	0.00e+00	0	34	0	646971392	73	5199
2026-01-01 08:56:57.44	94.27	53.49	-54.6	-57.5	15.4	0.00e+00	0	34	0	649068544	74	5323
2026-01-01 08:56:58.44	93.72	53.73	-54.9	-58.2	15.0	0.00e+00	0	34	0	651165696	75	5414
2026-01-01 08:56:59.43	93.18	53.96	-54.7	-57.8	15.3	0.00e+00	0	34	0	652214272	75	5217
2026-01-01 08:57:00.43	92.62	54.20	-53.4	-55.9	16.1	0.00e+00	0	34	0	654311424	73	4682
2026-01-01 08:57:01.42	92.06	54.43	-52.5	-54.6	16.7	0.00e+00	0	34	0	656408576	71	4500
2026-01-01 08:57:02.41	91.48	54.66	-52.5	-54.5	16.7	0.00e+00	0	34	0	658505728	71	4480
2026-01-01 08:57:03.42	90.89	54.90	-53.3	-55.6	16.3	0.00e+00	0	34	0	659554304	71	5073
2026-01-01 08:57:04.41	90.30	55.12	-53.6	-56.1	16.1	0.00e+00	0	34	0	661651456	72	5064
2026-01-01 08:57:05.40	89.70	55.35	-53.5	-55.8	16.2	0.00e+00	0	34	0	663748608	72	4892
2026-01-01 08:57:06.40	89.08	55.57	-53.2	-55.3	16.4	0.00e+00	0	34	0	665845760	72	4635
2026-01-01 08:57:07.39	88.46	55.79	-53.3	-55.4	16.4	0.00e+00	0	34	0	667942912	72	4684
2026-01-01 08:57:08.38	87.83	56.01	-53.2	-55.3	16.5	0.00e+00	0	34	0	668991488	72	4615
2026-01-01 08:57:09.39	87.18	56.23	-53.4	-55.5	16.4	0.00e+00	0	34	0	671088640	72	4723
2026-01-01 08:57:10.39	86.52	56.45	-53.1	-55.1	16.5	0.00e+00	0	34	0	673185792	72	4494
2026-01-01 08:57:11.38	85.86	56.65	-53.4	-55.5	16.4	0.00e+00	0	34	0	675282944	72	4746
2026-01-01 08:57:12.38	85.18	56.86	-53.9	-56.2	16.1	0.00e+00	0	34	0	677380096	72	5126
2026-01-01 08:57:13.37	84.50	57.07	-53.8	-56.1	16.2	0.00e+00	0	34	0	678428672	73	4776
2026-01-01 08:57:14.37	83.80	57.27	-53.8	-56.0	16.2	0.00e+00	0	34	0	680525824	73	4748
2026-01-01 08:57:15.36	83.10	57.47	-53.6	-55.9	16.2	0.00e+00	0	34	0	682622976	73	4660
2026-01-01 08:57:16.36	82.38	57.66	-53.8	-56.2	16.1	0.00e+00	0	34	0	684720128	73	4850
2026-01-01 08:57:17.34	81.67	57.85	-53.5	-55.7	16.3	0.00e+00	0	34	0	685768704	73	4560
2026-01-01 08:57:18.33	80.94	58.03	-52.9	-54.8	16.7	0.00e+00	0	34	0	687865856	72	4389
2026-01-01 08:57:19.32	80.20	58.22	-53.4	-55.6	16.4	0.00e+00	0	34	0	689963008	72	4775
2026-01-01 08:57:20.32	79.44	58.40	-53.8	-56.1	16.2	0.00e+00	0	34	0	692060160	72	5064
2026-01-01 08:57:21.31	78.68	58.57	-54.2	-56.7	15.8	0.00e+00	0	34	0	693108736	73	5159
2026-01-01 08:57:22.30	77.90	58.74	-54.1	-56.7	15.8	0.00e+00	0	34	0	695205888	73	5153
2026-01-01 08:57:23.29	77.12	58.91	-53.7	-56.3	16.0	0.00e+00	0	34	0	697303040	73	4877
2026-01-01 08:57:24.28	76.33	59.07	-53.6	-56.2	16.0	0.00e+00	0	34	0	699400192	73	4858
2026-01-01 08:57:25.27	75.53	59.22	-53.5	-56.2	16.1	0.00e+00	0	34	0	700448768	73	4845
2026-01-01 08:57:26.26	74.72	59.37	-53.3	-55.8	16.2	0.00e+00	0	34	0	702545920	73	4630
2026-01-01 08:57:27.26	73.89	59.52	-53.0	-55.3	16.4	0.00e+00	0	34	0	704643072	72	4641
2026-01-01 08:57:28.24	73.07	59.66	-52.8	-55.0	16.5	0.00e+00	0	34	0	706740224	71	4758
2026-01-01 08:57:29.24	72.22	59.80	-52.7	-54.9	16.5	0.00e+00	0	34	0	708837376	71	4703
2026-01-01 08:57:30.23	71.38	59.93	-53.8	-56.5	15.9	0.00e+00	0	34	0	709885952	72	5281
2026-01-01 08:57:31.22	70.52	60.05	-54.4	-57.3	15.5	0.00e+00	0	34	0	711983104	74	5212
2026-01-01 08:57:32.22	69.65	60.17	-53.3	-55.6	16.3	0.00e+00	0	34	0	714080256	73	4510
2026-01-01 08:57:33.21	68.78	60.29	-52.9	-55.0	16.4	0.00e+00	0	34	0	716177408	72	4493
2026-01-01 08:57:34.20	67.90	60.39	-53.7	-56.3	16.0	0.00e+00	0	34	0	718274560	72	5206
2026-01-01 08:57:35.20	67.00	60.50	-54.6	-57.7	15.3	0.00e+00	0	34	0	719323136	74	5403
2026-01-01 08:57:36.20	66.10	60.59	-53.8	-56.3	15.9	0.00e+00	0	34	0	721420288	74	4624
2026-01-01 08:57:37.19	65.20	60.68	-53.0	-55.3	16.4	0.00e+00	0	34	0	723517440	72	4630
2026-01-01 08:57:38.18	64.29	60.77	-53.5	-55.8	16.2	0.00e+00	0	34	0	725614592	72	4917
2026-01-01 08:57:39.16	63.39	60.84	-53.3	-55.5	16.4	0.00e+00	0	34	0	726663168	72	4745
2026-01-01 08:57:40.15	62.47	60.91	-53.3	-55.6	16.4	0.00e+00	0	34	0	728760320	72	4772
2026-01-01 08:57:41.14	61.55	60.98	-52.9	-55.0	16.6	0.00e+00	0	34	0	730857472	72	4461
2026-01-01 08:57:42.13	60.63	61.04	-52.1	-53.9	16.9	0.00e+00	0	34	0	732954624	70	4439
2026-01-01 08:57:43.11	59.70	61.09	-52.1	-54.0	16.8	0.00e+00	0	34	0	734003200	70	4493
2026-01-01 08:57:44.10	58.77	61.13	-52.1	-54.1	16.8	0.00e+00	0	34	0	736100352	70	4503
2026-01-01 08:57:45.10	57.82	61.17	-51.6	-53.4	17.0	0.00e+00	0	34	0	738197504	69	4441
2026-01-01 08:57:46.10	56.87	61.20	-51.5	-53.3	17.1	0.00e+00	0	34	0	740294656	69	4380
2026-01-01 08:57:47.09	55.93	61.23	-51.4	-53.1	17.2	0.00e+00	0	34	0	742391808	69	4283
2026-01-01 08:57:48.08	54.99	61.24	-51.3	-53.0	17.2	0.00e+00	0	34	0	743440384	69	4218
2026-01-01 08:57:49.08	54.04	61.25	-51.1	-52.7	17.3	0.00e+00	0	34	0	745537536	68	4331
2026-01-01 08:57:50.08	53.08	61.26	-52.3	-54.2	16.9	0.00e+00	0	34	0	747634688	69	4865
2026-01-01 08:57:51.07	52.14	61.25	-52.9	-55.0	16.6	0.00e+00	0	34	0	749731840	71	4758
2026-01-01 08:57:52.07	51.18	61.24	-52.3	-54.2	16.9	0.00e+00	0	34	0	750780416	71	4311
2026-01-01 08:57:53.06	50.24	61.23	-52.0	-53.8	17.0	0.00e+00	0	34	0	752877568	70	4347
2026-01-01 08:57:54.05	49.30	61.20	-51.2	-53.2	17.1	0.00e+00	0	34	0	754974720	69	4304
2026-01-01 08:57:55.05	48.35	61.17	-51.1	-52.8	17.3	0.00e+00	0	34	0	757071872	68	4345
2026-01-01 08:57:56.04	47.41	61.14	-51.6	-53.3	17.1	0.00e+00	0	34	0	759169024	68	4620
2026-01-01 08:57:57.03	46.48	61.09	-52.9	-54.9	16.6	0.00e+00	0	34	0	760217600	70	4977
2026-01-01 08:57:58.02	45.54	61.04	-52.9	-55.0	16.6	0.00e+00	0	34	0	762314752	71	4737
2026-01-01 08:57:59.01	44.62	60.98	-52.8	-54.9	16.6	0.00e+00	0	34	0	764411904	71	4685
2026-01-01 08:58:00.00	43.70	60.92	-52.5	-54.5	16.8	0.00e+00	0	34	0	766509056	71	4444
2026-01-01 08:58:01.00	42.77	60.85	-51.8	-53.6	17.0	0.00e+00	0	34	0	767557632	70	4273
2026-01-01 08:58:01.99	41.86	60.77	-51.7	-53.5	17.1	0.00e+00	0	34	0	769654784	69	4471
2026-01-01 08:58:02.98	40.95	60.69	-52.4	-54.3	16.8	0.00e+00	0	34	0	771751936	69	4885
2026-01-01 08:58:03.98	40.04	60.60	-53.4	-55.5	16.4	0.00e+00	0	34	0	773849088	71	5030
2026-01-01 08:58:04.97	39.15	60.51	-53.3	-55.4	16.5	0.00e+00	0	34	0	775946240	72	4703
2026-01-01 08:58:05.97	38.25	60.40	-53.2	-55.2	16.5	0.00e+00	0	34	0	776994816	72	4575
2026-01-01 08:58:06.96	37.37	60.30	-52.6	-54.4	16.9	0.00e+00	0	34	0	779091968	71	4417
2026-01-01 08:58:07.95	36.50	60.18	-52.6	-54.3	16.8	0.00e+00	0	34	0	781189120	71	4388
2026-01-01 08:58:08.95	35.63	60.06	-53.2	-55.2	16.5	0.00e+00	0	34	0	783286272	71	4840
2026-01-01 08:58:09.94	34.77	59.94	-53.6	-55.8	16.3	0.00e+00	0	34	0	784334848	72	4872
2026-01-01 08:58:10.94	33.92	59.81	-53.7	-55.9	16.3	0.00e+00	0	34	0	786432000	72	4971
2026-01-01 08:58:11.93	33.08	59.67	-53.2	-55.2	16.6	0.00e+00	0	34	0	788529152	72	4561
2026-01-01 08:58:12.93	32.24	59.53	-53.2	-55.0	16.7	0.00e+00	0	34	0	790626304	72	4486
2026-01-01 08:58:13.92	31.42	59.39	-52.9	-54.6	16.9	0.00e+00	0	34	0	791674880	72	4266
2026-01-01 08:58:14.91	30.61	59.24	-52.4	-54.1	16.9	0.00e+00	0	34	0	793772032	71	4272
2026-01-01 08:58:15.90	29.81	59.08	-52.9	-54.7	16.8	0.00e+00	0	34	0	795869184	71	4587
2026-01-01 08:58:16.90	29.01	58.92	-53.2	-55.0	16.6	0.00e+00	0	34	0	797966336	72	4489
2026-01-01 08:58:17.89	28.23	58.75	-52.5	-54.1	17.0	0.00e+00	0	34	0	800063488	71	4288
2026-01-01 08:58:18.88	27.46	58.59	-52.5	-54.1	17.0	0.00e+00	0	34	0	801112064	71	4256
2026-01-01 08:58:19.87	26.70	58.41	-53.2	-55.0	16.7	0.00e+00	0	34	0	803209216	71	4713
2026-01-01 08:58:20.86	25.94	58.23	-54.4	-56.6	16.1	0.00e+00	0	34	0	805306368	73	5072
2026-01-01 08:58:21.86	25.19	58.05	-54.7	-56.9	15.9	0.00e+00	0	34	0	807403520	74	4973
2026-01-01 08:58:22.85	24.46	57.87	-54.1	-56.1	16.3	0.00e+00	0	34	0	808452096	74	4504
2026-01-01 08:58:23.84	23.74	57.68	-54.3	-56.3	16.3	0.00e+00	0	34	0	810549248	74	4630
2026-01-01 08:58:24.83	23.03	57.48	-54.5	-56.7	16.0	0.00e+00	0	34	0	812646400	74	4834
2026-01-01 08:58:25.83	22.32	57.29	-55.3	-58.0	15.4	0.00e+00	0	34	0	814743552	75	5315
2026-01-01 08:58:26.82	21.63	57.09	-55.5	-58.2	15.4	0.00e+00	0	34	0	816840704	76	5123
2026-01-01 08:58:27.82	20.94	56.88	-55.4	-58.1	15.2	0.00e+00	0	34	0	817889280	76	5065
2026-01-01 08:58:28.81	20.27	56.68	-55.4	-58.1	15.4	0.00e+00	0	34	0	819986432	76	5050
2026-01-01 08:58:29.81	19.60	56.46	-55.1	-57.4	15.7	0.00e+00	0	34	0	822083584	76	4696
2026-01-01 08:58:30.80	18.95	56.25	-55.2	-57.7	15.6	0.00e+00	0	34	0	824180736	76	4842
2026-01-01 08:58:31.79	18.31	56.04	-54.6	-56.9	16.0	0.00e+00	0	34	0	825229312	75	4665
2026-01-01 08:58:32.78	17.68	55.82	-54.4	-56.6	16.1	0.00e+00	0	34	0	827326464	75	4509
2026-01-01 08:58:33.78	17.06	55.60	-54.2	-56.3	16.2	0.00e+00	0	34	0	829423616	74	4628
2026-01-01 08:58:34.77	16.45	55.38	-53.7	-55.7	16.3	0.00e+00	0	34	0	831520768	74	4326
2026-01-01 08:58:35.77	15.84	55.15	-52.7	-54.4	16.9	0.00e+00	0	34	0	833617920	71	4419
2026-01-01 08:58:36.76	15.25	54.92	-53.0	-54.8	16.7	0.00e+00	0	34	0	834666496	71	4642
2026-01-01 08:58:37.75	14.66	54.69	-53.6	-55.8	16.3	0.00e+00	0	34	0	836763648	72	4896
2026-01-01 08:58:38.74	14.09	54.46	-52.6	-54.5	16.8	0.00e+00	0	34	0	838860800	71	4454
2026-01-01 08:58:39.74	13.52	54.23	-52.6	-54.6	16.8	0.00e+00	0	34	0	840957952	71	4496
2026-01-01 08:58:40.73	12.97	54.00	-52.7	-54.6	16.8	0.00e+00	0	34	0	843055104	71	4518
2026-01-01 08:58:41.72	12.42	53.76	-53.1	-55.1	16.6	0.00e+00	0	34	0	844103680	71	4814
2026-01-01 08:58:42.72	11.88	53.52	-53.3	-55.3	16.4	0.00e+00	0	34	0	846200832	72	4599
2026-01-01 08:58:43.72	11.35	53.28	-54.2	-56.5	15.9	0.00e+00	0	34	0	848297984	73	5029
2026-01-01 08:58:44.71	10.83	53.04	-54.0	-56.2	16.1	0.00e+00	0	34	0	850395136	73	4867
2026-01-01 08:58:45.71	10.31	52.80	-53.0	-54.9	16.6	0.00e+00	0	34	0	851443712	72	4393
2026-01-01 08:58:46.70	9.81	52.55	-52.4	-54.0	16.9	0.00e+00	0	34	0	853540864	71	4238
2026-01-01 08:58:47.70	9.31	52.31	-53.0	-54.8	16.6	0.00e+00	0	34	0	855638016	71	4610
2026-01-01 08:58:48.70	8.82	52.06	-53.2	-55.1	16.5	0.00e+00	0	34	0	857735168	71	4809
2026-01-01 08:58:49.69	8.35	51.82	-54.3	-56.6	15.9	0.00e+00	0	34	0	859832320	73	5062
2026-01-01 08:58:50.69	7.87	51.57	-54.5	-56.9	15.8	0.00e+00	0	34	0	860880896	74	4937
2026-01-01 08:58:51.68	7.41	51.32	-55.0	-57.6	15.3	0.00e+00	0	34	0	862978048	75	5063
2026-01-01 08:58:52.67	6.96	51.08	-54.3	-56.6	15.7	0.00e+00	0	34	0	865075200	75	4538
2026-01-01 08:58:53.66	6.51	50.83	-53.9	-56.1	15.9	0.00e+00	0	34	0	867172352	74	4530
2026-01-01 08:58:54.66	6.07	50.58	-52.6	-54.6	16.5	0.00e+00	0	34	0	868220928	71	4499
2026-01-01 08:58:55.65	5.64	50.33	-52.7	-54.6	16.6	0.00e+00	0	34	0	870318080	71	4519
2026-01-01 08:58:56.65	5.21	50.08	-53.4	-55.6	16.1	0.00e+00	0	34	0	872415232	72	4761
2026-01-01 08:58:57.64	4.79	49.83	-54.6	-57.3	15.4	0.00e+00	0	34	0	874512384	74	5185
2026-01-01 08:58:58.63	4.38	49.58	-55.9	-59.4	14.2	0.00e+00	0	34	0	876609536	77	5530
2026-01-01 08:58:59.61	3.98	49.33	-55.6	-58.7	14.7	0.00e+00	0	34	0	877658112	77	5115
2026-01-01 08:59:00.61	3.58	49.08	-53.5	-55.6	16.3	0.00e+00	0	34	0	879755264	73	4544
2026-01-01 08:59:01.59	3.19	48.83	-53.2	-55.2	16.5	0.00e+00	0	34	0	881852416	72	4564
2026-01-01 08:59:02.58	2.81	48.58	-53.4	-55.5	16.4	0.00e+00	0	34	0	883949568	72	4727
2026-01-01 08:59:03.57	2.43	48.33	-53.8	-55.9	16.2	0.00e+00	0	34	0	884998144	73	4677
2026-01-01 08:59:04.56	2.06	48.08	-54.0	-56.2	16.2	0.00e+00	0	34	0	887095296	73	4848
2026-01-01 08:59:05.56	1.69	47.83	-54.0	-56.2	16.2	0.00e+00	0	34	0	889192448	73	4843
2026-01-01 08:59:06.56	1.32	47.58	-54.7	-57.1	15.7	0.00e+00	0	34	0	891289600	74	5075
2026-01-01 08:59:07.56	0.96	47.33	-54.6	-57.0	15.8	0.00e+00	0	34	0	892338176	75	4733
2026-01-01 08:59:08.55	0.61	47.08	-54.6	-57.0	15.8	0.00e+00	0	34	0	894435328	75	4726
2026-01-01 08:59:09.54	0.27	46.83	-54.9	-57.4	15.6	0.00e+00	0	34	0	896532480	75	4982
2026-01-01 08:59:10.54	359.93	46.58	-55.0	-57.6	15.5	0.00e+00	0	34	0	898629632	75	5070
2026-01-01 08:59:11.53	359.60	46.33	-54.4	-56.7	15.9	0.00e+00	0	34	0	900726784	75	4585
2026-01-01 08:59:12.52	359.27	46.08	-54.2	-56.4	16.1	0.00e+00	0	34	0	901775360	74	4677
2026-01-01 08:59:13.51	358.95	45.84	-54.8	-57.3	15.6	0.00e+00	0	34	0	903872512	74	5169
2026-01-01 08:59:14.51	358.63	45.59	-55.1	-57.8	15.3	0.00e+00	0	34	0	905969664	76	4908
2026-01-01 08:59:15.50	358.32	45.34	-54.8	-57.3	15.6	0.00e+00	0	34	0	908066816	75	4912
2026-01-01 08:59:16.50	358.01	45.09	-54.1	-56.3	16.0	0.00e+00	0	34	0	909115392	74	4630
2026-01-01 08:59:17.50	357.70	44.85	-54.2	-56.5	16.0	0.00e+00	0	34	0	911212544	74	4731
2026-01-01 08:59:18.50	357.40	44.60	-54.6	-57.1	15.8	0.00e+00	0	34	0	913309696	74	5044
2026-01-01 08:59:19.49	357.11	44.36	-55.0	-57.6	15.4	0.00e+00	0	34	0	915406848	75	5100
2026-01-01 08:59:20.48	356.82	44.11	-55.1	-57.9	15.3	0.00e+00	0	34	0	917504000	75	5261
2026-01-01 08:59:21.49	356.53	43.87	-55.9	-59.3	14.6	0.00e+00	0	34	0	918552576	77	5469
2026-01-01 08:59:22.48	356.25	43.62	-55.6	-58.6	15.1	0.00e+00	0	34	0	920649728	77	5049
2026-01-01 08:59:23.46	355.98	43.39	-54.9	-57.5	15.6	0.00e+00	0	34	0	922746880	76	4709
2026-01-01 08:59:24.45	355.71	43.15	-54.8	-57.2	15.7	0.00e+00	0	34	0	924844032	76	4584
2026-01-01 08:59:25.45	355.44	42.91	-54.6	-57.1	15.8	0.00e+00	0	34	0	925892608	75	4761
2026-01-01 08:59:26.44	355.17	42.67	-54.5	-56.8	16.0	0.00e+00	0	34	0	927989760	75	4620
2026-01-01 08:59:27.43	354.91	42.43	-54.7	-57.1	15.8	0.00e+00	0	34	0	930086912	75	4762
2026-01-01 08:59:28.42	354.66	42.19	-55.0	-57.4	15.6	0.00e+00	0	34	0	932184064	75	4965
2026-01-01 08:59:29.41	354.41	41.96	-55.4	-58.0	15.3	0.00e+00	0	34	0	933232640	75	5305
2026-01-01 08:59:30.40	354.16	41.72	-55.6	-58.2	15.3	0.00e+00	0	34	0	935329792	77	4837
2026-01-01 08:59:31.39	353.92	41.49	-55.9	-58.6	15.0	0.00e+00	0	34	0	937426944	77	5063
2026-01-01 08:59:32.38	353.67	41.26	-55.8	-58.4	15.2	0.00e+00	0	34	0	939524096	77	4947
2026-01-01 08:59:33.37	353.44	41.02	-56.2	-59.0	14.8	0.00e+00	0	34	0	941621248	77	5309
2026-01-01 08:59:34.36	353.20	40.79	-55.9	-58.5	15.1	0.00e+00	0	34	0	942669824	78	4726
2026-01-01 08:59:35.36	352.97	40.56	-56.1	-58.8	15.0	0.00e+00	0	34	0	944766976	78	4912
2026-01-01 08:59:36.35	352.74	40.33	-56.7	-59.9	14.3	0.00e+00	0	34	0	946864128	78	5534
2026-01-01 08:59:37.33	352.52	40.11	-57.3	-60.9	13.7	0.00e+00	0	34	0	948961280	79	5899
2026-01-01 08:59:38.32	352.30	39.88	-57.4	-61.1	13.5	3.00e-06	0	34	0	950009856	81	5388
2026-01-01 08:59:39.31	352.08	39.65	-58.3	-63.1	12.0	6.10e-06	0	34	0	952107008	81	6795
2026-01-01 08:59:40.31	351.87	39.43	-58.3	-63.2	11.9	4.26e-04	0	34	0	954204160	82	6446
2026-01-01 08:59:41.31	351.65	39.20	-57.7	-61.7	13.0	5.87e-05	0	34	0	956301312	82	5449
2026-01-01 08:59:42.31	351.44	38.97	-56.8	-60.0	14.2	0.00e+00	0	34	0	958398464	80	5002
2026-01-01 08:59:43.31	351.23	38.75	-56.3	-59.2	14.8	0.00e+00	0	34	0	959447040	79	4852
2026-01-01 08:59:44.30	351.03	38.53	-56.5	-59.5	14.6	0.00e+00	0	34	0	961544192	78	5282
2026-01-01 08:59:45.29	350.83	38.31	-56.5	-59.5	14.6	0.00e+00	0	34	0	963641344	78	5330
2026-01-01 08:59:46.28	350.63	38.09	-56.8	-60.1	14.1	0.00e+00	0	34	0	965738496	78	5681
2026-01-01 08:59:47.28	350.44	37.87	-57.3	-61.0	13.5	0.00e+00	0	34	0	966787072	79	5956
2026-01-01 08:59:48.27	350.25	37.65	-57.3	-60.9	13.5	7.00e-07	0	34	0	968884224	80	5571
2026-01-01 08:59:49.26	350.06	37.44	-56.9	-60.2	13.9	0.00e+00	0	34	0	970981376	80	5133
2026-01-01 08:59:50.25	349.87	37.22	-56.7	-59.8	14.3	0.00e+00	0	34	0	973078528	79	5168
2026-01-01 08:59:51.23	349.69	37.01	-56.4	-59.4	14.5	0.00e+00	0	34	0	975175680	79	4963
2026-01-01 08:59:52.22	349.50	36.80	-56.5	-59.7	14.3	0.00e+00	0	34	0	976224256	78	5437
2026-01-01 08:59:53.21	349.33	36.58	-56.3	-59.4	14.5	0.00e+00	0	34	0	978321408	78	5242
2026-01-01 08:59:54.19	349.15	36.38	-56.7	-60.1	14.3	0.00e+00	0	34	0	980418560	78	5657
2026-01-01 08:59:55.19	348.97	36.16	-56.4	-59.5	14.4	0.00e+00	0	34	0	982515712	79	5037
2026-01-01 08:59:56.19	348.80	35.95	-56.6	-59.7	14.3	0.00e+00	0	34	0	983564288	79	5147
2026-01-01 08:59:57.20	348.62	35.74	-56.5	-59.7	14.3	0.00e+00	0	34	0	985661440	79	5142
2026-01-01 08:59:58.19	348.46	35.53	-57.2	-60.8	13.7	0.00e+00	0	34	0	987758592	79	5803
2026-01-01 08:59:59.19	348.29	35.33	-57.2	-61.0	13.4	7.00e-07	0	34	0	989855744	80	5636
2026-01-01 09:00:00.18	348.13	35.12	-56.9	-60.5	13.7	0.00e+00	0	34	0	991952896	80	5307
2026-01-01 09:00:01.18	347.96	34.92	-56.8	-60.2	13.9	0.00e+00	0	34	0	993001472	79	5439
2026-01-01 09:00:02.17	347.80	34.71	-56.3	-59.3	14.4	0.00e+00	0	34	0	995098624	79	4919
2026-01-01 09:00:03.16	347.64	34.51	-56.3	-59.5	14.4	0.00e+00	0	34	0	997195776	79	5021
2026-01-01 09:00:04.15	347.49	34.31	-56.5	-59.9	14.2	0.00e+00	0	34	0	999292928	79	5248
2026-01-01 09:00:05.14	347.33	34.11	-56.8	-60.6	13.6	0.00e+00	0	34	0	1000341504	79	5712
2026-01-01 09:00:06.14	347.18	33.91	-56.4	-59.8	14.2	0.00e+00	0	34	0	1002438656	79	5200
2026-01-01 09:00:07.13	347.03	33.72	-55.9	-58.9	14.8	0.00e+00	0	34	0	1004535808	78	4939
2026-01-01 09:00:08.12	346.88	33.52	-55.1	-57.6	15.5	0.00e+00	0	34	0	1006632960	76	4804
2026-01-01 09:00:09.11	346.74	33.33	-54.9	-57.3	15.6	0.00e+00	0	34	0	1007681536	76	4629
2026-01-01 09:00:10.10	346.59	33.13	-55.0	-57.5	15.6	0.00e+00	0	34	0	1009778688	76	4731
2026-01-01 09:00:11.09	346.45	32.94	-54.9	-57.4	15.5	0.00e+00	0	34	0	1011875840	75	4979
2026-01-01 09:00:12.09	346.31	32.74	-55.4	-58.1	15.2	0.00e+00	0	34	0	1013972992	76	5045
2026-01-01 09:00:13.08	346.17	32.55	-55.6	-58.5	14.9	0.00e+00	0	34	0	1016070144	76	5289
2026-01-01 09:00:14.08	346.03	32.36	-55.6	-58.5	15.0	0.00e+00	0	34	0	1017118720	77	5013
2026-01-01 09:00:15.08	345.89	32.17	-55.3	-58.0	15.3	0.00e+00	0	34	0	1019215872	77	4710
2026-01-01 09:00:16.07	345.76	31.98	-55.5	-58.2	15.1	0.00e+00	0	34	0	1021313024	77	4841
2026-01-01 09:00:17.06	345.62	31.80	-55.2	-57.8	15.3	0.00e+00	0	34	0	1023410176	76	4920
2026-01-01 09:00:18.06	345.49	31.61	-55.9	-59.0	14.7	0.00e+00	0	34	0	1024458752	76	5593
2026-01-01 09:00:19.05	345.36	31.42	-56.2	-59.5	14.4	0.00e+00	0	34	0	1026555904	77	5605
2026-01-01 09:00:20.04	345.23	31.24	-56.6	-60.2	14.0	0.00e+00	0	34	0	1028653056	78	5737
2026-01-01 09:00:21.04	345.11	31.05	-56.0	-59.1	14.6	0.00e+00	0	34	0	1030750208	78	5081
2026-01-01 09:00:22.03	344.98	30.87	-55.3	-58.0	15.4	0.00e+00	0	34	0	1032847360	77	4707
2026-01-01 09:00:23.02	344.86	30.69	-54.5	-56.7	16.0	0.00e+00	0	34	0	1033895936	75	4572
2026-01-01 09:00:24.01	344.73	30.51	-54.0	-56.1	16.2	0.00e+00	0	34	0	1035993088	74	4530
2026-01-01 09:00:25.00	344.61	30.33	-53.6	-55.5	16.4	0.00e+00	0	34	0	1038090240	73	4488
2026-01-01 09:00:26.00	344.49	30.15	-53.5	-55.4	16.4	0.00e+00	0	34	0	1040187392	73	4430
2026-01-01 09:00:26.99	344.37	29.98	-53.9	-55.9	16.3	0.00e+00	0	34	0	1041235968	73	4685
2026-01-01 09:00:27.97	344.26	29.80	-54.1	-56.2	16.1	0.00e+00	0	34	0	1043333120	73	4838
2026-01-01 09:00:28.96	344.14	29.63	-54.7	-56.9	15.8	0.00e+00	0	34	0	1045430272	74	4949
2026-01-01 09:00:29.95	344.03	29.45	-54.6	-56.8	15.9	0.00e+00	0	34	0	1047527424	74	4875
2026-01-01 09:00:30.95	343.91	29.28	-54.5	-56.7	15.9	0.00e+00	0	34	0	1049624576	74	4839
2026-01-01 09:00:31.94	343.80	29.11	-54.5	-56.7	15.9	0.00e+00	0	34	0	1050673152	74	4849
2026-01-01 09:00:32.93	343.69	28.93	-54.7	-57.0	15.7	0.00e+00	0	34	0	1052770304	74	5022
2026-01-01 09:00:33.92	343.58	28.76	-55.1	-57.5	15.5	0.00e+00	0	34	0	1054867456	75	5022
2026-01-01 09:00:34.91	343.47	28.59	-55.5	-58.1	15.2	0.00e+00	0	34	0	1056964608	76	5073
2026-01-01 09:00:35.90	343.37	28.43	-56.3	-59.5	14.3	0.00e+00	0	34	0	1058013184	77	5622
2026-01-01 09:00:36.89	343.26	28.26	-56.8	-60.3	13.8	0.00e+00	0	34	0	1060110336	78	5853
2026-01-01 09:00:37.89	343.16	28.09	-57.3	-61.3	13.1	0.00e+00	0	34	0	1062207488	79	6198
2026-01-01 09:00:38.88	343.05	27.92	-57.2	-61.1	13.3	0.00e+00	0	34	0	1064304640	79	5997
2026-01-01 09:00:39.88	342.95	27.76	-57.0	-60.7	13.4	0.00e+00	0	34	0	1066401792	79	5766
2026-01-01 09:00:40.87	342.85	27.59	-56.4	-59.5	14.3	0.00e+00	0	34	0	1067450368	79	5006
2026-01-01 09:00:41.86	342.75	27.43	-56.2	-59.1	14.6	0.00e+00	0	34	0	1069547520	78	5076
2026-01-01 09:00:42.86	342.65	27.26	-55.8	-58.5	15.0	0.00e+00	0	34	0	1071644672	78	4739
2026-01-01 09:00:43.85	342.55	27.10	-55.6	-58.3	15.1	0.00e+00	0	34	0	1073741824	77	4885
2026-01-01 09:00:44.84	342.45	26.94	-55.5	-58.0	15.4	0.00e+00	0	34	0	1074790400	77	4733
2026-01-01 09:00:45.84	342.35	26.78	-54.9	-57.2	15.7	0.00e+00	0	34	0	1076887552	76	4589
2026-01-01 09:00:46.83	342.26	26.62	-55.0	-57.2	15.7	0.00e+00	0	34	0	1078984704	76	4590
2026-01-01 09:00:47.83	342.16	26.46	-54.9	-57.2	15.7	0.00e+00	0	34	0	1081081856	76	4562
2026-01-01 09:00:48.82	342.07	26.30	-54.8	-57.0	15.8	0.00e+00	0	34	0	1083179008	76	4473
2026-01-01 09:00:49.82	341.98	26.15	-54.8	-57.0	15.8	0.00e+00	0	34	0	1084227584	76	4455
2026-01-01 09:00:50.81	341.89	25.99	-54.9	-57.2	15.7	0.00e+00	0	34	0	1086324736	76	4565
2026-01-01 09:00:51.80	341.79	25.84	-54.7	-56.9	15.8	0.00e+00	0	34	0	1088421888	75	4687
2026-01-01 09:00:52.80	341.70	25.68	-54.9	-57.3	15.7	0.00e+00	0	34	0	1090519040	75	4877
2026-01-01 09:00:53.78	341.62	25.53	-55.1	-57.5	15.5	0.00e+00	0	34	0	1091567616	75	5033
2026-01-01 09:00:54.78	341.53	25.38	-55.3	-57.8	15.3	0.00e+00	0	34	0	1093664768	75	5212
2026-01-01 09:00:55.77	341.44	25.22	-55.6	-58.2	15.1	0.00e+00	0	34	0	1095761920	76	5129
2026-01-01 09:00:56.76	341.36	25.07	-55.9	-58.7	14.9	0.00e+00	0	34	0	1097859072	76	5404
2026-01-01 09:00:57.75	341.27	24.92	-55.9	-58.8	14.8	0.00e+00	0	34	0	1098907648	77	5165
2026-01-01 09:00:58.75	341.18	24.77	-55.6	-58.4	15.0	0.00e+00	0	34	0	1101004800	77	4927
2026-01-01 09:00:59.75	341.10	24.62	-55.7	-58.5	14.9	0.00e+00	0	34	0	1103101952	77	5035
2026-01-01 09:01:00.74	341.02	24.47	-55.6	-58.4	14.9	0.00e+00	0	34	0	1105199104	77	4969
2026-01-01 09:01:01.73	340.94	24.33	-55.3	-57.9	15.2	0.00e+00	0	34	0	1107296256	77	4672
2026-01-01 09:01:02.72	340.86	24.18	-55.6	-58.3	15.0	0.00e+00	0	34	0	1108344832	77	4916
2026-01-01 09:01:03.71	340.77	24.04	-55.3	-58.0	15.2	0.00e+00	0	34	0	1110441984	77	4727
2026-01-01 09:01:04.71	340.69	23.89	-55.7	-58.5	14.9	0.00e+00	0	34	0	1112539136	77	5038
2026-01-01 09:01:05.70	340.62	23.75	-55.9	-58.9	14.7	0.00e+00	0	34	0	1114636288	77	5251
2026-01-01 09:01:06.70	340.54	23.60	-56.3	-59.5	14.3	0.00e+00	0	34	0	1115684864	77	5617
2026-01-01 09:01:07.69	340.46	23.46	-56.2	-59.4	14.4	0.00e+00	0	34	0	1117782016	77	5567
2026-01-01 09:01:08.68	340.38	23.32	-56.4	-59.7	14.2	0.00e+00	0	34	0	1119879168	78	5426
2026-01-01 09:01:09.67	340.31	23.18	-56.6	-60.0	14.0	0.00e+00	0	34	0	1121976320	78	5656
2026-01-01 09:01:10.67	340.23	23.03	-56.6	-60.0	14.0	0.00e+00	0	34	0	1124073472	78	5643
2026-01-01 09:01:11.66	340.16	22.89	-56.3	-59.5	14.2	0.00e+00	0	34	0	1125122048	78	5336
2026-01-01 09:01:12.66	340.08	22.75	-56.0	-59.0	14.6	0.00e+00	0	34	0	1127219200	78	4999
2026-01-01 09:01:13.64	340.01	22.62	-55.8	-58.7	14.8	0.00e+00	0	34	0	1129316352	78	4822
2026-01-01 09:01:14.63	339.94	22.48	-55.5	-58.1	15.0	0.00e+00	0	34	0	1131413504	77	4793
2026-01-01 09:01:15.63	339.87	22.34	-55.0	-57.4	15.4	0.00e+00	0	34	0	1132462080	76	4704
2026-01-01 09:01:16.63	339.79	22.20	-54.8	-57.1	15.6	0.00e+00	0	34	0	1134559232	76	4539
2026-01-01 09:01:17.62	339.72	22.07	-54.6	-56.9	15.7	0.00e+00	0	34	0	1136656384	75	4665
2026-01-01 09:01:18.62	339.65	21.93	-54.4	-56.6	15.8	0.00e+00	0	34	0	1138753536	75	4494
2026-01-01 09:01:19.61	339.59	21.80	-54.0	-56.0	16.0	0.00e+00	0	34	0	1140850688	74	4491
2026-01-01 09:01:20.60	339.52	21.66	-54.0	-56.1	16.1	0.00e+00	0	34	0	1141899264	74	4507
2026-01-01 09:01:21.59	339.45	21.53	-54.0	-56.1	16.0	0.00e+00	0	34	0	1143996416	74	4509
2026-01-01 09:01:22.58	339.38	21.40	-53.9	-55.9	16.1	0.00e+00	0	34	0	1146093568	74	4435
2026-01-01 09:01:23.57	339.32	21.27	-53.9	-55.9	16.1	0.00e+00	0	34	0	1148190720	74	4397
2026-01-01 09:01:24.57	339.25	21.14	-53.8	-55.8	16.2	0.00e+00	0	34	0	1149239296	74	4350
2026-01-01 09:01:25.56	339.18	21.01	-53.7	-55.6	16.2	0.00e+00	0	34	0	1151336448	74	4291
2026-01-01 09:01:26.55	339.12	20.88	-53.8	-55.8	16.2	0.00e+00	0	34	0	1153433600	74	4347
2026-01-01 09:01:27.54	339.05	20.75	-54.0	-56.0	16.1	0.00e+00	0	34	0	1155530752	73	4736
2026-01-01 09:01:28.53	338.99	20.62	-53.9	-55.9	16.1	0.00e+00	0	34	0	1157627904	73	4671
2026-01-01 09:01:29.53	338.93	20.49	-53.9	-56.0	16.1	0.00e+00	0	34	0	1158676480	73	4725
2026-01-01 09:01:30.51	338.87	20.36	-54.2	-56.3	15.9	0.00e+00	0	34	0	1160773632	73	4891
2026-01-01 09:01:31.50	338.80	20.24	-54.1	-56.2	16.0	0.00e+00	0	34	0	1162870784	73	4835
2026-01-01 09:01:32.50	338.74	20.11	-54.3	-56.5	15.8	0.00e+00	0	34	0	1164967936	73	4985
2026-01-01 09:01:33.49	338.68	19.98	-54.3	-56.5	15.8	0.00e+00	0	34	0	1166016512	73	5008
2026-01-01 09:01:34.47	338.62	19.86	-54.5	-56.7	15.7	0.00e+00	0	34	0	1168113664	74	4852
2026-01-01 09:01:35.45	338.56	19.74	-54.7	-57.0	15.6	0.00e+00	0	34	0	1170210816	74	4989
2026-01-01 09:01:36.44	338.50	19.61	-54.8	-57.1	15.5	0.00e+00	0	34	0	1172307968	74	5054
2026-01-01 09:01:37.44	338.44	19.49	-54.5	-56.8	15.6	0.00e+00	0	34	0	1173356544	74	4889
2026-01-01 09:01:38.43	338.38	19.37	-54.7	-57.0	15.5	0.00e+00	0	34	0	1175453696	74	5009
2026-01-01 09:01:39.42	338.33	19.25	-54.6	-56.9	15.6	0.00e+00	0	34	0	1177550848	74	4948
2026-01-01 09:01:40.41	338.27	19.12	-54.5	-56.8	15.7	0.00e+00	0	34	0	1179648000	74	4891
2026-01-01 09:01:41.41	338.21	19.00	-54.3	-56.4	15.8	0.00e+00	0	34	0	1181745152	74	4686
2026-01-01 09:01:42.40	338.16	18.88	-54.6	-56.8	15.6	0.00e+00	0	34	0	1182793728	74	4905
2026-01-01 09:01:43.40	338.10	18.76	-54.5	-56.7	15.7	0.00e+00	0	34	0	1184890880	74	4848
2026-01-01 09:01:44.41	338.04	18.64	-54.3	-56.4	15.8	0.00e+00	0	34	0	1186988032	74	4678
2026-01-01 09:01:45.40	337.99	18.52	-54.5	-56.7	15.6	0.00e+00	0	34	0	1189085184	74	4837
2026-01-01 09:01:46.39	337.93	18.40	-54.5	-56.7	15.7	0.00e+00	0	34	0	1190133760	74	4850
2026-01-01 09:01:47.38	337.88	18.29	-54.7	-57.0	15.5	0.00e+00	0	34	0	1192230912	74	5004
2026-01-01 09:01:48.37	337.83	18.17	-55.0	-57.5	15.3	0.00e+00	0	34	0	1194328064	75	4984
2026-01-01 09:01:49.38	337.77	18.05	-55.0	-57.5	15.3	0.00e+00	0	34	0	1196425216	75	5014
2026-01-01 09:01:50.37	337.72	17.93	-55.0	-57.5	15.3	0.00e+00	0	34	0	1198522368	75	5019
2026-01-01 09:01:51.36	337.67	17.82	-55.2	-57.7	15.1	0.00e+00	0	34	0	1199570944	75	5124
2026-01-01 09:01:52.36	337.61	17.70	-55.5	-58.1	14.9	0.00e+00	0	34	0	1201668096	76	5094
2026-01-01 09:01:53.36	337.56	17.59	-55.4	-58.0	15.0	0.00e+00	0	34	0	1203765248	76	4985
2026-01-01 09:01:54.36	337.51	17.47	-55.3	-57.9	15.0	0.00e+00	0	34	0	1205862400	76	4972
2026-01-01 09:01:55.35	337.46	17.36	-55.3	-57.9	15.0	0.00e+00	0	34	0	1206910976	76	4981
2026-01-01 09:01:56.34	337.41	17.25	-55.2	-57.7	15.1	0.00e+00	0	34	0	1209008128	76	4859
2026-01-01 09:01:57.33	337.36	17.13	-55.3	-57.8	15.1	0.00e+00	0	34	0	1211105280	76	4907
2026-01-01 09:01:58.32	337.31	17.02	-54.9	-57.3	15.4	0.00e+00	0	34	0	1213202432	76	4650
2026-01-01 09:01:59.32	337.26	16.91	-54.6	-57.0	15.6	0.00e+00	0	34	0	1215299584	75	4706
2026-01-01 09:02:00.32	337.21	16.80	-54.6	-56.9	15.6	0.00e+00	0	34	0	1216348160	75	4667
2026-01-01 09:02:01.32	337.16	16.69	-54.2	-56.3	15.9	0.00e+00	0	34	0	1218445312	75	4388
2026-01-01 09:02:02.31	337.11	16.58	-54.3	-56.4	15.8	0.00e+00	0	34	0	1220542464	74	4700
2026-01-01 09:02:03.30	337.07	16.47	-54.1	-56.2	15.9	0.00e+00	0	34	0	1222639616	74	4555
2026-01-01 09:02:04.29	337.02	16.36	-54.1	-56.2	15.9	0.00e+00	0	34	0	1223688192	74	4576
2026-01-01 09:02:05.29	336.97	16.25	-53.7	-55.7	16.2	0.00e+00	0	34	0	1225785344	74	4305
