passes_logs/2026/01/01/R3.2S_Murmansk/R3.2S_Murmansk__20260101_053247_SUOMI_NPP_rec.log

#Pass ID: 20260101_053247_SUOMI NPP
#Satellite: SUOMI NPP
#Configuration: NPP
#almurnet v.1.7.20251203
#Start time: 2026-01-01 05:32:49

#Version: 2.2.20231116
#Station: R3.2S_Murmansk
#Location: 33.079688 lon 68.888172 lat
#TLE: 1 37849U 11061A   25364.87906317  .00000195  00000+0  11345-3 0  9992
#TLE: 2 37849  98.7794 302.0592 0002571  89.2401 270.9069 14.19520347734561

#Time	Az	El	Level	Level2	SNR	BER	BlckErr	Temp	State	Recorded	gain1	gain2
2026-01-01 05:32:49.09	66.96	2.07	-59.7	-75.7	3.9	1.49e+00	0	32	0	0	85	22899
2026-01-01 05:32:50.09	66.89	2.13	-59.7	-75.7	3.8	1.49e+00	0	32	104	0	84	24291
2026-01-01 05:32:51.08	66.83	2.18	-59.7	-75.7	3.8	1.49e+00	0	32	104	0	84	24296
2026-01-01 05:32:52.08	66.77	2.24	-59.7	-75.7	3.8	1.49e+00	0	32	104	0	84	24272
2026-01-01 05:32:53.08	66.70	2.30	-59.7	-75.7	3.8	1.49e+00	0	32	104	0	84	24311
2026-01-01 05:32:54.08	66.64	2.35	-59.7	-75.7	3.8	1.49e+00	0	32	104	0	84	24272
2026-01-01 05:32:55.07	66.57	2.41	-59.7	-75.7	3.8	1.49e+00	0	32	104	0	84	24280
2026-01-01 05:32:56.07	66.51	2.47	-59.7	-75.7	3.8	1.49e+00	0	32	104	0	84	24291
2026-01-01 05:32:57.07	66.44	2.52	-59.7	-75.7	3.8	1.49e+00	0	32	104	0	84	24258
2026-01-01 05:32:58.06	66.38	2.58	-59.7	-75.7	3.8	1.49e+00	0	32	104	0	84	24188
2026-01-01 05:32:59.06	66.31	2.64	-59.7	-75.7	3.8	1.49e+00	0	32	104	0	84	24236
2026-01-01 05:33:00.05	66.25	2.70	-59.7	-75.7	3.8	1.49e+00	0	33	104	0	84	24288
2026-01-01 05:33:01.05	66.18	2.75	-59.7	-75.7	3.8	1.49e+00	0	33	104	0	84	24242
2026-01-01 05:33:02.05	66.11	2.81	-59.7	-75.7	3.8	1.49e+00	0	33	104	0	84	24268
2026-01-01 05:33:03.05	66.04	2.87	-59.7	-75.7	3.8	1.49e+00	0	32	104	0	84	24238
2026-01-01 05:33:04.04	65.98	2.93	-59.7	-75.7	3.8	1.49e+00	0	33	104	0	84	24253
2026-01-01 05:33:05.04	65.91	2.98	-59.7	-75.7	3.8	1.49e+00	0	33	104	0	84	24250
2026-01-01 05:33:06.04	65.84	3.04	-59.7	-75.7	3.8	1.49e+00	0	33	104	0	84	24244
2026-01-01 05:33:07.05	65.77	3.10	-59.7	-75.7	3.8	1.49e+00	0	33	104	0	84	24294
2026-01-01 05:33:08.05	65.70	3.16	-59.7	-75.7	3.8	1.49e+00	0	33	104	0	84	24272
2026-01-01 05:33:09.06	65.63	3.22	-59.7	-75.7	3.8	1.49e+00	0	33	104	0	84	24312
2026-01-01 05:33:10.06	65.57	3.28	-59.7	-75.7	3.8	1.49e+00	0	33	104	0	84	24299
2026-01-01 05:33:11.07	65.49	3.34	-59.7	-75.7	3.8	1.49e+00	0	33	104	0	84	24215
2026-01-01 05:33:12.07	65.43	3.40	-59.7	-75.7	3.8	1.49e+00	0	33	104	0	84	24197
2026-01-01 05:33:13.07	65.36	3.45	-59.7	-75.7	3.8	1.49e+00	0	33	104	0	84	24176
2026-01-01 05:33:14.06	65.29	3.51	-59.7	-75.7	3.8	1.49e+00	0	33	104	0	84	24147
2026-01-01 05:33:15.06	65.21	3.57	-59.7	-75.7	3.8	1.49e+00	0	33	104	0	84	24145
2026-01-01 05:33:16.06	65.14	3.63	-59.7	-75.7	3.8	1.49e+00	0	33	104	0	84	24212
2026-01-01 05:33:17.06	65.07	3.69	-59.7	-75.7	3.8	1.49e+00	0	33	104	0	84	24314
2026-01-01 05:33:18.06	65.00	3.75	-59.7	-75.7	3.8	1.49e+00	0	33	104	0	84	24310
2026-01-01 05:33:19.05	64.93	3.81	-59.7	-75.7	3.8	1.49e+00	0	33	104	0	84	24287
2026-01-01 05:33:20.06	64.86	3.87	-59.7	-75.7	3.8	1.49e+00	0	33	104	0	84	24248
2026-01-01 05:33:21.05	64.78	3.93	-59.7	-75.7	3.8	1.49e+00	0	33	104	0	84	24270
2026-01-01 05:33:22.05	64.71	3.98	-59.7	-75.7	3.8	1.49e+00	0	33	104	0	84	24235
2026-01-01 05:33:23.04	64.64	4.04	-59.7	-75.7	3.8	1.49e+00	0	33	104	0	84	24306
2026-01-01 05:33:24.04	64.57	4.10	-59.7	-75.7	3.8	1.49e+00	0	33	104	0	84	24238
2026-01-01 05:33:25.04	64.49	4.16	-59.7	-75.5	3.8	1.49e+00	0	33	104	0	84	23836
2026-01-01 05:33:26.03	64.42	4.22	-59.7	-75.3	3.8	1.49e+00	0	33	104	0	84	23132
2026-01-01 05:33:27.03	64.34	4.28	-59.7	-74.8	3.8	1.49e+00	0	34	104	0	84	21996
2026-01-01 05:33:28.03	64.27	4.34	-59.7	-74.5	3.8	1.49e+00	0	33	104	0	84	21026
2026-01-01 05:33:29.02	64.20	4.40	-59.7	-73.9	3.8	1.49e+00	0	33	104	0	84	19646
2026-01-01 05:33:30.02	64.12	4.46	-59.6	-73.5	3.8	1.49e+00	0	33	104	0	84	18873
2026-01-01 05:33:31.02	64.04	4.52	-59.6	-73.3	3.9	1.49e+00	0	33	104	0	84	18435
2026-01-01 05:33:32.03	63.97	4.58	-59.6	-72.7	4.1	1.47e+00	0	33	104	0	84	17126
2026-01-01 05:33:33.03	63.89	4.64	-59.5	-71.5	4.4	1.37e+00	71	33	0	0	84	14920
2026-01-01 05:33:34.03	63.82	4.70	-59.3	-69.9	5.1	8.65e-01	0	33	0	1048576	84	12507
2026-01-01 05:33:35.03	63.74	4.76	-59.1	-68.4	6.1	4.63e-01	0	33	0	3145728	84	10429
2026-01-01 05:33:36.04	63.66	4.83	-58.9	-66.9	7.2	1.39e-01	0	33	0	5242880	84	8815
2026-01-01 05:33:37.04	63.58	4.89	-58.4	-65.4	8.4	4.65e-02	0	33	0	7340032	83	7821
2026-01-01 05:33:38.04	63.50	4.95	-58.1	-64.3	9.4	1.70e-02	0	33	0	9437184	82	7345
2026-01-01 05:33:39.04	63.43	5.01	-57.8	-63.4	10.2	4.09e-03	0	33	0	10485760	82	6606
2026-01-01 05:33:40.04	63.35	5.07	-58.5	-65.5	8.4	2.08e-02	0	34	0	12582912	82	8443
2026-01-01 05:33:41.04	63.27	5.13	-56.7	-60.8	12.5	1.08e-03	0	34	0	14680064	80	5498
2026-01-01 05:33:42.04	63.19	5.19	-59.0	-68.9	5.6	5.94e-03	0	33	0	16777216	83	11804
2026-01-01 05:33:43.05	63.11	5.25	-59.4	-69.7	5.2	2.28e-01	0	34	0	18874368	83	12903
2026-01-01 05:33:44.04	63.03	5.32	-56.0	-59.4	13.5	9.10e-06	0	33	0	19922944	77	5579
2026-01-01 05:33:45.04	62.95	5.38	-55.7	-59.0	13.9	0.00e+00	0	34	0	22020096	77	5293
2026-01-01 05:33:46.04	62.87	5.44	-55.6	-58.8	14.0	0.00e+00	0	33	0	24117248	77	5199
2026-01-01 05:33:47.04	62.79	5.50	-55.6	-58.9	14.0	0.00e+00	0	34	0	26214400	77	5226
2026-01-01 05:33:48.04	62.71	5.56	-55.5	-58.7	14.1	0.00e+00	0	34	0	28311552	77	5101
2026-01-01 05:33:49.03	62.62	5.62	-55.4	-58.5	14.2	0.00e+00	0	34	0	29360128	77	5008
2026-01-01 05:33:50.02	62.54	5.68	-55.4	-58.4	14.2	0.00e+00	0	33	0	31457280	77	4970
2026-01-01 05:33:51.01	62.46	5.75	-55.5	-58.6	14.2	0.00e+00	0	34	0	33554432	77	5074
2026-01-01 05:33:52.00	62.38	5.81	-55.5	-58.7	14.1	0.00e+00	0	34	0	35651584	77	5133
2026-01-01 05:33:53.01	62.29	5.87	-55.4	-58.5	14.2	0.00e+00	0	34	0	36700160	77	5021
2026-01-01 05:33:54.00	62.21	5.93	-55.6	-58.7	14.1	0.00e+00	0	34	0	38797312	77	5151
2026-01-01 05:33:55.00	62.13	5.99	-55.6	-58.8	14.1	0.00e+00	0	34	0	40894464	77	5181
2026-01-01 05:33:56.00	62.04	6.06	-55.5	-58.6	14.2	0.00e+00	0	34	0	42991616	77	5092
2026-01-01 05:33:56.99	61.96	6.12	-55.4	-58.5	14.3	0.00e+00	0	34	0	45088768	77	4990
2026-01-01 05:33:57.99	61.87	6.18	-55.6	-58.7	14.2	0.00e+00	0	34	0	46137344	77	5115
2026-01-01 05:33:58.98	61.79	6.24	-55.6	-58.8	14.2	0.00e+00	0	34	0	48234496	77	5166
2026-01-01 05:33:59.97	61.70	6.31	-55.8	-59.1	13.9	0.00e+00	0	34	0	50331648	77	5347
2026-01-01 05:34:00.97	61.62	6.37	-55.8	-59.1	13.9	0.00e+00	0	34	0	52428800	77	5372
2026-01-01 05:34:01.97	61.53	6.43	-55.8	-59.2	13.8	0.00e+00	0	34	0	53477376	77	5406
2026-01-01 05:34:02.97	61.44	6.49	-55.8	-59.2	13.8	0.00e+00	0	34	0	55574528	77	5424
2026-01-01 05:34:03.97	61.36	6.56	-55.8	-59.0	13.9	0.00e+00	0	34	0	57671680	77	5337
2026-01-01 05:34:04.97	61.27	6.62	-55.8	-59.1	13.9	0.00e+00	0	34	0	59768832	77	5389
2026-01-01 05:34:05.97	61.18	6.68	-55.8	-59.1	13.9	0.00e+00	0	34	0	61865984	77	5374
2026-01-01 05:34:06.96	61.09	6.75	-55.7	-59.0	14.0	0.00e+00	0	34	0	62914560	77	5315
2026-01-01 05:34:07.96	61.00	6.81	-55.9	-59.3	13.8	0.00e+00	0	34	0	65011712	77	5492
2026-01-01 05:34:08.97	60.91	6.87	-56.0	-59.5	13.7	0.00e+00	0	34	0	67108864	77	5618
2026-01-01 05:34:09.97	60.82	6.94	-55.9	-59.4	13.7	0.00e+00	0	34	0	69206016	77	5585
2026-01-01 05:34:10.97	60.73	7.00	-56.0	-59.5	13.7	0.00e+00	0	34	0	70254592	77	5647
2026-01-01 05:34:11.97	60.64	7.07	-55.9	-59.4	13.7	0.00e+00	0	34	0	72351744	77	5553
2026-01-01 05:34:12.98	60.55	7.13	-55.9	-59.4	13.8	0.00e+00	0	34	0	74448896	77	5540
2026-01-01 05:34:13.98	60.46	7.20	-55.9	-59.4	13.7	0.00e+00	0	34	0	76546048	77	5591
2026-01-01 05:34:14.97	60.37	7.26	-55.9	-59.3	13.8	0.00e+00	0	34	0	78643200	77	5509
2026-01-01 05:34:15.97	60.28	7.32	-55.9	-59.3	13.8	0.00e+00	0	34	0	79691776	77	5522
2026-01-01 05:34:16.96	60.18	7.39	-55.8	-59.1	14.0	0.00e+00	0	34	0	81788928	77	5365
2026-01-01 05:34:17.96	60.09	7.45	-55.8	-59.1	14.0	0.00e+00	0	34	0	83886080	77	5369
2026-01-01 05:34:18.96	60.00	7.52	-55.8	-59.1	14.0	0.00e+00	0	34	0	85983232	77	5372
2026-01-01 05:34:19.96	59.90	7.58	-55.8	-59.2	13.9	0.00e+00	0	34	0	88080384	77	5446
2026-01-01 05:34:20.96	59.81	7.64	-55.8	-59.1	14.0	0.00e+00	0	34	0	89128960	77	5348
2026-01-01 05:34:21.96	59.71	7.71	-55.7	-58.9	14.2	0.00e+00	0	34	0	91226112	77	5262
2026-01-01 05:34:22.95	59.62	7.77	-55.6	-58.9	14.2	0.00e+00	0	34	0	93323264	77	5234
2026-01-01 05:34:23.94	59.52	7.84	-55.7	-58.9	14.2	0.00e+00	0	34	0	95420416	77	5260
2026-01-01 05:34:24.93	59.43	7.90	-55.4	-58.4	14.5	0.00e+00	0	34	0	96468992	77	4964
2026-01-01 05:34:25.93	59.33	7.97	-55.3	-58.3	14.5	0.00e+00	0	34	0	98566144	77	4904
2026-01-01 05:34:26.93	59.24	8.03	-55.3	-58.4	14.5	0.00e+00	0	34	0	100663296	77	4930
2026-01-01 05:34:27.93	59.14	8.10	-55.3	-58.3	14.6	0.00e+00	0	34	0	102760448	77	4895
2026-01-01 05:34:28.92	59.04	8.16	-55.3	-58.4	14.5	0.00e+00	0	34	0	104857600	77	4955
2026-01-01 05:34:29.92	58.94	8.23	-55.4	-58.4	14.5	0.00e+00	0	34	0	105906176	77	4971
2026-01-01 05:34:30.91	58.84	8.29	-55.2	-58.2	14.7	0.00e+00	0	34	0	108003328	77	4833
2026-01-01 05:34:31.92	58.74	8.36	-55.3	-58.3	14.6	0.00e+00	0	34	0	110100480	76	5191
2026-01-01 05:34:32.92	58.64	8.43	-55.1	-57.9	14.8	0.00e+00	0	34	0	112197632	76	4983
2026-01-01 05:34:33.92	58.54	8.49	-55.0	-57.8	14.9	0.00e+00	0	34	0	114294784	76	4899
2026-01-01 05:34:34.92	58.44	8.56	-55.0	-57.8	15.0	0.00e+00	0	34	0	115343360	76	4871
2026-01-01 05:34:35.91	58.34	8.62	-54.9	-57.6	15.0	0.00e+00	0	34	0	117440512	76	4803
2026-01-01 05:34:36.91	58.24	8.69	-55.1	-57.9	14.9	0.00e+00	0	34	0	119537664	76	4976
2026-01-01 05:34:37.92	58.14	8.76	-55.1	-57.8	14.9	0.00e+00	0	34	0	121634816	76	4911
2026-01-01 05:34:38.92	58.03	8.82	-55.1	-57.9	14.9	0.00e+00	0	34	0	122683392	76	4928
2026-01-01 05:34:39.92	57.93	8.89	-55.0	-57.7	15.0	0.00e+00	0	34	0	124780544	76	4850
2026-01-01 05:34:40.92	57.83	8.96	-55.1	-58.0	14.9	0.00e+00	0	34	0	126877696	76	4986
2026-01-01 05:34:41.92	57.72	9.02	-55.2	-58.1	14.8	0.00e+00	0	34	0	128974848	76	5048
2026-01-01 05:34:42.92	57.62	9.09	-55.2	-58.0	14.8	0.00e+00	0	34	0	131072000	76	5002
2026-01-01 05:34:43.91	57.51	9.15	-55.1	-57.9	14.9	0.00e+00	0	34	0	132120576	76	4975
2026-01-01 05:34:44.92	57.41	9.22	-55.1	-57.9	15.0	0.00e+00	0	34	0	134217728	76	4936
2026-01-01 05:34:45.92	57.30	9.29	-55.0	-57.8	15.0	0.00e+00	0	34	0	136314880	76	4877
2026-01-01 05:34:46.92	57.20	9.36	-55.2	-58.0	14.9	0.00e+00	0	34	0	138412032	76	5001
2026-01-01 05:34:47.92	57.09	9.42	-55.3	-58.1	14.8	0.00e+00	0	34	0	140509184	76	5066
2026-01-01 05:34:48.92	56.98	9.49	-55.3	-58.1	14.8	0.00e+00	0	34	0	141557760	76	5052
2026-01-01 05:34:49.91	56.87	9.56	-55.4	-58.3	14.7	0.00e+00	0	34	0	143654912	76	5160
2026-01-01 05:34:50.91	56.76	9.62	-55.6	-58.6	14.5	0.00e+00	0	34	0	145752064	76	5386
2026-01-01 05:34:51.90	56.66	9.69	-55.6	-58.6	14.6	0.00e+00	0	34	0	147849216	76	5354
2026-01-01 05:34:52.90	56.55	9.76	-55.6	-58.6	14.5	0.00e+00	0	34	0	148897792	76	5396
2026-01-01 05:34:53.90	56.44	9.83	-55.7	-58.8	14.4	0.00e+00	0	34	0	150994944	76	5483
2026-01-01 05:34:54.90	56.33	9.89	-55.6	-58.5	14.6	0.00e+00	0	34	0	153092096	76	5318
2026-01-01 05:34:55.90	56.21	9.96	-55.4	-58.3	14.7	0.00e+00	0	34	0	155189248	76	5170
2026-01-01 05:34:56.89	56.10	10.03	-55.2	-57.9	14.9	0.00e+00	0	34	0	157286400	76	4983
2026-01-01 05:34:57.89	55.99	10.10	-55.4	-58.2	14.8	0.00e+00	0	34	0	158334976	76	5105
2026-01-01 05:34:58.88	55.88	10.16	-55.4	-58.2	14.7	0.00e+00	0	34	0	160432128	76	5152
2026-01-01 05:34:59.87	55.77	10.23	-55.4	-58.3	14.8	0.00e+00	0	34	0	162529280	76	5171
2026-01-01 05:35:00.88	55.65	10.30	-55.6	-58.6	14.5	0.00e+00	0	34	0	164626432	76	5378
2026-01-01 05:35:01.87	55.54	10.37	-55.5	-58.4	14.7	0.00e+00	0	34	0	165675008	76	5229
2026-01-01 05:35:02.87	55.42	10.43	-55.4	-58.2	14.8	0.00e+00	0	34	0	167772160	76	5159
2026-01-01 05:35:03.87	55.31	10.50	-55.4	-58.3	14.7	0.00e+00	0	34	0	169869312	76	5195
2026-01-01 05:35:04.87	55.19	10.57	-55.5	-58.4	14.7	0.00e+00	0	34	0	171966464	76	5220
2026-01-01 05:35:05.87	55.07	10.64	-55.3	-58.1	14.9	0.00e+00	0	34	0	174063616	76	5066
2026-01-01 05:35:06.86	54.96	10.71	-55.1	-57.9	15.0	0.00e+00	0	34	0	175112192	76	4928
2026-01-01 05:35:07.87	54.84	10.78	-55.1	-57.8	15.1	0.00e+00	0	34	0	177209344	76	4878
2026-01-01 05:35:08.87	54.72	10.85	-55.3	-58.1	14.9	0.00e+00	0	34	0	179306496	76	5056
2026-01-01 05:35:09.87	54.60	10.91	-55.1	-57.7	15.1	0.00e+00	0	34	0	181403648	76	4842
2026-01-01 05:35:10.86	54.48	10.98	-55.0	-57.6	15.2	0.00e+00	0	34	0	183500800	76	4810
2026-01-01 05:35:11.86	54.36	11.05	-55.0	-57.7	15.1	0.00e+00	0	34	0	184549376	76	4858
2026-01-01 05:35:12.86	54.24	11.12	-55.1	-57.7	15.0	0.00e+00	0	34	0	186646528	76	4869
2026-01-01 05:35:13.86	54.12	11.19	-55.0	-57.7	15.2	0.00e+00	0	34	0	188743680	76	4816
2026-01-01 05:35:14.86	54.00	11.26	-55.2	-57.9	15.1	0.00e+00	0	34	0	190840832	76	4929
2026-01-01 05:35:15.86	53.88	11.33	-55.0	-57.7	15.1	0.00e+00	0	34	0	192937984	76	4846
2026-01-01 05:35:16.86	53.75	11.40	-54.9	-57.6	15.2	0.00e+00	0	34	0	193986560	76	4761
2026-01-01 05:35:17.86	53.63	11.47	-54.8	-57.3	15.4	0.00e+00	0	34	0	196083712	76	4651
2026-01-01 05:35:18.87	53.50	11.54	-54.8	-57.4	15.3	0.00e+00	0	34	0	198180864	76	4664
2026-01-01 05:35:19.86	53.38	11.60	-54.7	-57.2	15.4	0.00e+00	0	34	0	200278016	75	4853
2026-01-01 05:35:20.86	53.26	11.67	-54.7	-57.2	15.4	0.00e+00	0	34	0	201326592	75	4849
2026-01-01 05:35:21.85	53.13	11.74	-54.7	-57.3	15.3	0.00e+00	0	34	0	203423744	75	4913
2026-01-01 05:35:22.84	53.01	11.81	-54.7	-57.3	15.3	0.00e+00	0	34	0	205520896	75	4896
2026-01-01 05:35:23.84	52.88	11.88	-54.6	-57.1	15.5	0.00e+00	0	34	0	207618048	75	4804
2026-01-01 05:35:24.84	52.75	11.95	-54.6	-57.2	15.4	0.00e+00	0	34	0	209715200	75	4827
2026-01-01 05:35:25.85	52.62	12.02	-54.4	-56.8	15.7	0.00e+00	0	34	0	210763776	75	4602
2026-01-01 05:35:26.85	52.49	12.09	-54.4	-56.8	15.7	0.00e+00	0	34	0	212860928	75	4614
2026-01-01 05:35:27.86	52.36	12.16	-54.4	-56.8	15.7	0.00e+00	0	34	0	214958080	75	4631
2026-01-01 05:35:28.85	52.23	12.23	-54.5	-56.9	15.6	0.00e+00	0	34	0	217055232	75	4683
2026-01-01 05:35:29.85	52.10	12.30	-54.5	-57.0	15.6	0.00e+00	0	35	0	219152384	75	4713
2026-01-01 05:35:30.84	51.97	12.37	-54.5	-56.9	15.6	0.00e+00	0	34	0	220200960	75	4705
2026-01-01 05:35:31.84	51.84	12.44	-54.3	-56.7	15.7	0.00e+00	0	34	0	222298112	75	4580
2026-01-01 05:35:32.83	51.71	12.51	-54.3	-56.7	15.7	0.00e+00	0	34	0	224395264	75	4576
2026-01-01 05:35:33.83	51.57	12.58	-54.4	-56.8	15.7	0.00e+00	0	34	0	226492416	75	4648
2026-01-01 05:35:34.83	51.44	12.65	-54.4	-56.7	15.8	0.00e+00	0	35	0	227540992	75	4569
2026-01-01 05:35:35.83	51.30	12.72	-54.3	-56.6	15.8	0.00e+00	0	34	0	229638144	75	4496
2026-01-01 05:35:36.84	51.17	12.79	-54.3	-56.7	15.8	0.00e+00	0	35	0	231735296	75	4548
2026-01-01 05:35:37.83	51.03	12.86	-54.3	-56.6	15.8	0.00e+00	0	35	0	233832448	75	4516
2026-01-01 05:35:38.83	50.89	12.93	-54.3	-56.6	15.8	0.00e+00	0	34	0	235929600	75	4543
2026-01-01 05:35:39.83	50.76	13.00	-54.4	-56.8	15.7	0.00e+00	0	35	0	236978176	75	4634
2026-01-01 05:35:40.83	50.62	13.07	-54.4	-56.8	15.7	0.00e+00	0	34	0	239075328	75	4613
2026-01-01 05:35:41.83	50.48	13.14	-54.3	-56.7	15.7	0.00e+00	0	34	0	241172480	75	4593
2026-01-01 05:35:42.82	50.34	13.21	-54.2	-56.6	15.8	0.00e+00	0	34	0	243269632	75	4517
2026-01-01 05:35:43.82	50.20	13.28	-54.2	-56.6	15.8	0.00e+00	0	34	0	245366784	74	4764
2026-01-01 05:35:44.82	50.06	13.35	-54.2	-56.6	15.7	0.00e+00	0	34	0	246415360	74	4812
2026-01-01 05:35:45.82	49.92	13.42	-54.4	-56.9	15.6	0.00e+00	0	34	0	248512512	74	4957
2026-01-01 05:35:46.83	49.77	13.50	-54.2	-56.6	15.8	0.00e+00	0	34	0	250609664	74	4801
2026-01-01 05:35:47.83	49.63	13.57	-54.2	-56.7	15.7	0.00e+00	0	34	0	252706816	74	4856
2026-01-01 05:35:48.83	49.49	13.64	-54.3	-56.8	15.8	0.00e+00	0	35	0	253755392	74	4902
2026-01-01 05:35:49.83	49.34	13.71	-54.4	-57.1	15.5	0.00e+00	0	34	0	255852544	74	5049
2026-01-01 05:35:50.82	49.20	13.78	-54.4	-57.1	15.5	0.00e+00	0	34	0	257949696	74	5062
2026-01-01 05:35:51.81	49.05	13.85	-54.5	-57.1	15.5	0.00e+00	0	35	0	260046848	74	5075
2026-01-01 05:35:52.81	48.91	13.92	-54.5	-57.2	15.4	0.00e+00	0	35	0	262144000	74	5148
2026-01-01 05:35:53.80	48.76	13.99	-54.5	-57.3	15.4	0.00e+00	0	35	0	263192576	74	5160
2026-01-01 05:35:54.80	48.61	14.06	-54.6	-57.3	15.4	0.00e+00	0	34	0	265289728	74	5177
2026-01-01 05:35:55.80	48.46	14.13	-54.5	-57.2	15.5	0.00e+00	0	34	0	267386880	74	5110
2026-01-01 05:35:56.80	48.32	14.20	-54.6	-57.3	15.5	0.00e+00	0	34	0	269484032	74	5164
2026-01-01 05:35:57.80	48.17	14.27	-54.6	-57.3	15.4	0.00e+00	0	35	0	271581184	74	5207
2026-01-01 05:35:58.80	48.01	14.34	-54.6	-57.2	15.4	0.00e+00	0	35	0	272629760	74	5135
2026-01-01 05:35:59.80	47.86	14.41	-54.5	-57.1	15.5	0.00e+00	0	34	0	274726912	74	5097
2026-01-01 05:36:00.79	47.71	14.48	-54.6	-57.2	15.5	0.00e+00	0	35	0	276824064	74	5148
2026-01-01 05:36:01.79	47.56	14.55	-54.5	-57.1	15.5	0.00e+00	0	35	0	278921216	74	5087
2026-01-01 05:36:02.79	47.40	14.63	-54.4	-57.0	15.6	0.00e+00	0	34	0	279969792	74	4993
2026-01-01 05:36:03.79	47.25	14.70	-54.3	-56.8	15.7	0.00e+00	0	35	0	282066944	74	4910
2026-01-01 05:36:04.79	47.09	14.77	-54.4	-57.0	15.7	0.00e+00	0	35	0	284164096	74	5000
2026-01-01 05:36:05.78	46.94	14.84	-54.4	-56.9	15.7	0.00e+00	0	35	0	286261248	74	4964
2026-01-01 05:36:06.77	46.78	14.91	-54.6	-57.2	15.5	0.00e+00	0	35	0	288358400	74	5130
2026-01-01 05:36:07.76	46.63	14.98	-54.6	-57.2	15.5	0.00e+00	0	34	0	289406976	74	5140
2026-01-01 05:36:08.75	46.47	15.05	-54.6	-57.3	15.5	0.00e+00	0	34	0	291504128	74	5170
2026-01-01 05:36:09.73	46.32	15.12	-54.7	-57.5	15.4	0.00e+00	0	35	0	293601280	74	5285
2026-01-01 05:36:10.73	46.16	15.19	-54.8	-57.5	15.3	0.00e+00	0	34	0	295698432	75	5014
2026-01-01 05:36:11.73	46.00	15.26	-54.8	-57.6	15.2	0.00e+00	0	35	0	296747008	75	5097
2026-01-01 05:36:12.73	45.83	15.33	-54.9	-57.7	15.2	0.00e+00	0	34	0	298844160	75	5152
2026-01-01 05:36:13.72	45.67	15.40	-54.8	-57.6	15.2	0.00e+00	0	35	0	300941312	75	5084
2026-01-01 05:36:14.72	45.51	15.47	-54.8	-57.5	15.3	0.00e+00	0	35	0	303038464	75	5041
2026-01-01 05:36:15.72	45.35	15.54	-54.7	-57.4	15.4	0.00e+00	0	35	0	305135616	75	4937
2026-01-01 05:36:16.72	45.18	15.61	-54.6	-57.4	15.4	0.00e+00	0	35	0	306184192	75	4928
2026-01-01 05:36:17.72	45.02	15.68	-54.7	-57.4	15.4	0.00e+00	0	35	0	308281344	75	4964
2026-01-01 05:36:18.73	44.85	15.75	-54.5	-57.2	15.5	0.00e+00	0	34	0	310378496	75	4818
2026-01-01 05:36:19.72	44.68	15.82	-54.5	-57.1	15.6	0.00e+00	0	35	0	312475648	75	4783
2026-01-01 05:36:20.73	44.51	15.89	-54.6	-57.2	15.6	0.00e+00	0	35	0	313524224	75	4864
2026-01-01 05:36:21.72	44.35	15.96	-54.6	-57.3	15.4	0.00e+00	0	35	0	315621376	75	4914
2026-01-01 05:36:22.73	44.18	16.03	-54.8	-57.5	15.3	0.00e+00	0	34	0	317718528	75	5000
2026-01-01 05:36:23.74	44.00	16.10	-54.7	-57.3	15.3	0.00e+00	0	34	0	319815680	75	4913
2026-01-01 05:36:24.73	43.83	16.17	-54.7	-57.3	15.4	0.00e+00	0	35	0	321912832	75	4909
2026-01-01 05:36:25.73	43.66	16.24	-54.7	-57.4	15.3	0.00e+00	0	35	0	322961408	75	4959
2026-01-01 05:36:26.72	43.49	16.31	-54.5	-57.1	15.5	0.00e+00	0	35	0	325058560	75	4779
2026-01-01 05:36:27.72	43.32	16.38	-54.6	-57.2	15.4	0.00e+00	0	35	0	327155712	75	4828
2026-01-01 05:36:28.72	43.14	16.45	-54.6	-57.1	15.5	0.00e+00	0	35	0	329252864	75	4793
2026-01-01 05:36:29.72	42.97	16.52	-54.5	-57.0	15.5	0.00e+00	0	35	0	331350016	75	4736
2026-01-01 05:36:30.72	42.79	16.59	-54.5	-57.0	15.5	0.00e+00	0	35	0	332398592	75	4719
2026-01-01 05:36:31.72	42.62	16.66	-54.4	-56.9	15.6	0.00e+00	0	35	0	334495744	75	4660
2026-01-01 05:36:32.72	42.44	16.73	-54.5	-57.0	15.5	0.00e+00	0	34	0	336592896	75	4725
2026-01-01 05:36:33.72	42.26	16.80	-54.5	-57.0	15.5	0.00e+00	0	35	0	338690048	75	4751
2026-01-01 05:36:34.72	42.08	16.87	-54.5	-57.1	15.6	0.00e+00	0	35	0	340787200	75	4767
2026-01-01 05:36:35.72	41.90	16.94	-54.7	-57.3	15.4	0.00e+00	0	35	0	341835776	75	4904
2026-01-01 05:36:36.72	41.72	17.01	-54.9	-57.6	15.2	0.00e+00	0	35	0	343932928	75	5070
2026-01-01 05:36:37.72	41.54	17.08	-55.0	-57.8	15.2	0.00e+00	0	35	0	346030080	75	5183
2026-01-01 05:36:38.73	41.35	17.15	-54.9	-57.7	15.1	0.00e+00	0	35	0	348127232	75	5127
2026-01-01 05:36:39.73	41.17	17.22	-54.9	-57.7	15.2	0.00e+00	0	35	0	349175808	75	5118
2026-01-01 05:36:40.73	40.99	17.29	-54.7	-57.3	15.3	0.00e+00	0	35	0	351272960	75	4924
2026-01-01 05:36:41.73	40.80	17.36	-54.6	-57.1	15.6	0.00e+00	0	35	0	353370112	75	4790
2026-01-01 05:36:42.73	40.61	17.42	-54.5	-57.1	15.6	0.00e+00	0	35	0	355467264	75	4764
2026-01-01 05:36:43.73	40.43	17.49	-54.4	-56.9	15.7	0.00e+00	0	35	0	357564416	75	4688
2026-01-01 05:36:44.72	40.24	17.56	-54.4	-56.9	15.7	0.00e+00	0	34	0	358612992	75	4670
2026-01-01 05:36:45.72	40.05	17.63	-54.4	-56.8	15.7	0.00e+00	0	35	0	360710144	75	4637
2026-01-01 05:36:46.73	39.86	17.70	-54.0	-56.2	16.0	0.00e+00	0	35	0	362807296	74	4573
2026-01-01 05:36:47.72	39.67	17.76	-54.1	-56.4	15.9	0.00e+00	0	35	0	364904448	74	4655
2026-01-01 05:36:48.72	39.48	17.83	-53.9	-56.2	16.0	0.00e+00	0	35	0	367001600	74	4567
2026-01-01 05:36:49.72	39.29	17.90	-54.1	-56.4	16.0	0.00e+00	0	34	0	368050176	74	4666
2026-01-01 05:36:50.71	39.10	17.97	-54.0	-56.4	15.9	0.00e+00	0	35	0	370147328	74	4688
2026-01-01 05:36:51.70	38.91	18.03	-54.0	-56.4	16.0	0.00e+00	0	35	0	372244480	74	4672
2026-01-01 05:36:52.69	38.71	18.10	-54.0	-56.4	15.9	0.00e+00	0	35	0	374341632	74	4685
2026-01-01 05:36:53.69	38.52	18.17	-54.0	-56.4	15.9	0.00e+00	0	35	0	375390208	74	4688
2026-01-01 05:36:54.69	38.32	18.23	-53.9	-56.3	15.9	0.00e+00	0	35	0	377487360	74	4602
2026-01-01 05:36:55.68	38.13	18.30	-53.6	-55.9	16.1	0.00e+00	0	35	0	379584512	73	4676
2026-01-01 05:36:56.69	37.93	18.37	-53.6	-55.9	16.1	0.00e+00	0	35	0	381681664	73	4665
2026-01-01 05:36:57.69	37.73	18.43	-53.5	-55.8	16.1	0.00e+00	0	35	0	383778816	73	4612
2026-01-01 05:36:58.68	37.53	18.50	-53.2	-55.4	16.4	0.00e+00	0	35	0	384827392	72	4683
2026-01-01 05:36:59.68	37.33	18.56	-53.2	-55.4	16.4	0.00e+00	0	35	0	386924544	72	4666
2026-01-01 05:37:00.68	37.13	18.63	-53.1	-55.2	16.4	0.00e+00	0	35	0	389021696	72	4568
2026-01-01 05:37:01.67	36.93	18.70	-53.1	-55.2	16.5	0.00e+00	0	35	0	391118848	72	4551
2026-01-01 05:37:02.67	36.72	18.76	-53.1	-55.2	16.5	0.00e+00	0	35	0	392167424	72	4597
2026-01-01 05:37:03.66	36.52	18.82	-53.3	-55.4	16.4	0.00e+00	0	35	0	394264576	72	4664
2026-01-01 05:37:04.65	36.32	18.89	-53.3	-55.5	16.2	0.00e+00	0	35	0	396361728	72	4730
2026-01-01 05:37:05.65	36.11	18.95	-53.3	-55.4	16.4	0.00e+00	0	35	0	398458880	72	4679
2026-01-01 05:37:06.65	35.90	19.02	-53.3	-55.5	16.4	0.00e+00	0	35	0	400556032	72	4723
2026-01-01 05:37:07.65	35.70	19.08	-53.1	-55.1	16.5	0.00e+00	0	35	0	401604608	72	4538
2026-01-01 05:37:08.64	35.49	19.15	-53.1	-55.2	16.5	0.00e+00	0	35	0	403701760	72	4560
2026-01-01 05:37:09.65	35.28	19.21	-53.3	-55.4	16.5	0.00e+00	0	35	0	405798912	72	4657
2026-01-01 05:37:10.66	35.07	19.27	-53.2	-55.3	16.5	0.00e+00	0	35	0	407896064	72	4615
2026-01-01 05:37:11.66	34.85	19.34	-53.2	-55.3	16.4	0.00e+00	0	35	0	409993216	72	4611
2026-01-01 05:37:12.66	34.64	19.40	-52.9	-54.9	16.6	0.00e+00	0	35	0	411041792	72	4421
2026-01-01 05:37:13.65	34.43	19.46	-53.0	-55.0	16.6	0.00e+00	0	35	0	413138944	72	4447
2026-01-01 05:37:14.65	34.22	19.53	-53.0	-55.0	16.6	0.00e+00	0	35	0	415236096	72	4444
2026-01-01 05:37:15.66	34.00	19.59	-53.2	-55.3	16.5	0.00e+00	0	35	0	417333248	72	4608
2026-01-01 05:37:16.66	33.78	19.65	-53.2	-55.3	16.5	0.00e+00	0	35	0	419430400	72	4641
2026-01-01 05:37:17.66	33.57	19.71	-53.3	-55.4	16.4	0.00e+00	0	35	0	420478976	72	4654
2026-01-01 05:37:18.65	33.35	19.77	-53.2	-55.3	16.5	0.00e+00	0	35	0	422576128	72	4606
2026-01-01 05:37:19.65	33.13	19.83	-53.2	-55.3	16.5	0.00e+00	0	35	0	424673280	72	4599
2026-01-01 05:37:20.65	32.91	19.90	-53.1	-55.2	16.5	0.00e+00	0	35	0	426770432	72	4557
2026-01-01 05:37:21.65	32.69	19.96	-53.0	-55.1	16.6	0.00e+00	0	35	0	427819008	72	4513
2026-01-01 05:37:22.65	32.47	20.02	-52.9	-54.9	16.6	0.00e+00	0	35	0	429916160	72	4439
2026-01-01 05:37:23.65	32.25	20.08	-52.8	-54.8	16.7	0.00e+00	0	35	0	432013312	72	4387
2026-01-01 05:37:24.65	32.03	20.14	-52.8	-54.7	16.8	0.00e+00	0	35	0	434110464	72	4338
2026-01-01 05:37:25.65	31.80	20.20	-52.7	-54.6	16.8	0.00e+00	0	35	0	436207616	72	4279
2026-01-01 05:37:26.66	31.58	20.26	-52.5	-54.4	16.9	0.00e+00	0	35	0	437256192	71	4414
2026-01-01 05:37:27.65	31.35	20.31	-52.5	-54.3	16.9	0.00e+00	0	35	0	439353344	71	4384
2026-01-01 05:37:28.66	31.12	20.37	-52.5	-54.4	16.9	0.00e+00	0	35	0	441450496	71	4395
2026-01-01 05:37:29.65	30.90	20.43	-52.8	-54.7	16.7	0.00e+00	0	35	0	443547648	71	4585
2026-01-01 05:37:30.65	30.67	20.49	-53.1	-55.1	16.6	0.00e+00	0	35	0	445644800	71	4789
2026-01-01 05:37:31.64	30.44	20.54	-53.0	-54.9	16.7	0.00e+00	0	35	0	446693376	71	4661
2026-01-01 05:37:32.65	30.21	20.60	-52.6	-54.5	16.9	0.00e+00	0	35	0	448790528	71	4451
2026-01-01 05:37:33.64	29.98	20.66	-52.5	-54.3	17.0	0.00e+00	0	35	0	450887680	71	4377
2026-01-01 05:37:34.64	29.75	20.71	-52.6	-54.4	17.0	0.00e+00	0	35	0	452984832	71	4393
2026-01-01 05:37:35.64	29.52	20.77	-52.8	-54.7	16.9	0.00e+00	0	35	0	455081984	71	4548
2026-01-01 05:37:36.64	29.29	20.83	-52.8	-54.7	16.8	0.00e+00	0	35	0	456130560	71	4582
2026-01-01 05:37:37.64	29.05	20.88	-52.9	-54.8	16.8	0.00e+00	0	35	0	458227712	71	4610
2026-01-01 05:37:38.64	28.82	20.94	-52.6	-54.4	17.0	0.00e+00	0	35	0	460324864	71	4416
2026-01-01 05:37:39.64	28.58	20.99	-52.5	-54.3	17.0	0.00e+00	0	35	0	462422016	71	4351
2026-01-01 05:37:40.64	28.34	21.04	-52.5	-54.3	17.0	0.00e+00	0	35	0	463470592	71	4376
2026-01-01 05:37:41.63	28.11	21.10	-52.6	-54.4	16.9	0.00e+00	0	35	0	465567744	71	4416
2026-01-01 05:37:42.63	27.87	21.15	-52.5	-54.3	16.9	0.00e+00	0	35	0	467664896	71	4362
2026-01-01 05:37:43.63	27.63	21.20	-52.4	-54.1	17.0	0.00e+00	0	35	0	469762048	71	4289
2026-01-01 05:37:44.64	27.39	21.25	-52.3	-54.1	17.1	0.00e+00	0	35	0	471859200	71	4247
2026-01-01 05:37:45.63	27.15	21.31	-52.2	-53.9	17.2	0.00e+00	0	35	0	472907776	71	4169
2026-01-01 05:37:46.63	26.91	21.36	-52.2	-53.9	17.2	0.00e+00	0	35	0	475004928	70	4427
2026-01-01 05:37:47.62	26.67	21.41	-52.3	-54.0	17.1	0.00e+00	0	35	0	477102080	70	4491
2026-01-01 05:37:48.61	26.43	21.46	-52.5	-54.2	17.1	0.00e+00	0	35	0	479199232	70	4596
2026-01-01 05:37:49.61	26.19	21.51	-52.5	-54.2	17.0	0.00e+00	0	35	0	480247808	70	4591
2026-01-01 05:37:50.60	25.94	21.56	-52.6	-54.3	17.0	0.00e+00	0	35	0	482344960	70	4612
2026-01-01 05:37:51.60	25.70	21.61	-52.3	-54.0	17.1	0.00e+00	0	35	0	484442112	70	4461
2026-01-01 05:37:52.60	25.45	21.66	-52.3	-53.9	17.1	0.00e+00	0	35	0	486539264	70	4430
2026-01-01 05:37:53.60	25.20	21.70	-52.4	-54.1	17.1	0.00e+00	0	35	0	488636416	70	4522
2026-01-01 05:37:54.60	24.96	21.75	-52.6	-54.3	17.0	0.00e+00	0	35	0	489684992	70	4651
2026-01-01 05:37:55.60	24.71	21.80	-52.6	-54.4	17.0	0.00e+00	0	35	0	491782144	70	4659
2026-01-01 05:37:56.58	24.46	21.84	-52.8	-54.6	17.0	0.00e+00	0	35	0	493879296	70	4762
2026-01-01 05:37:57.58	24.21	21.89	-52.6	-54.3	17.0	0.00e+00	0	35	0	495976448	70	4629
2026-01-01 05:37:58.58	23.96	21.94	-52.7	-54.4	17.0	0.00e+00	0	35	0	497025024	70	4693
2026-01-01 05:37:59.57	23.71	21.98	-52.7	-54.5	16.9	0.00e+00	0	35	0	499122176	70	4748
2026-01-01 05:38:00.56	23.46	22.03	-52.8	-54.5	16.9	0.00e+00	0	35	0	501219328	70	4753
2026-01-01 05:38:01.56	23.21	22.07	-53.0	-54.8	16.8	0.00e+00	0	35	0	503316480	71	4637
2026-01-01 05:38:02.56	22.96	22.11	-52.9	-54.7	16.9	0.00e+00	0	35	0	505413632	71	4571
2026-01-01 05:38:03.56	22.70	22.16	-52.6	-54.4	17.0	0.00e+00	0	35	0	506462208	71	4400
2026-01-01 05:38:04.57	22.44	22.20	-52.4	-54.2	17.1	0.00e+00	0	35	0	508559360	71	4297
2026-01-01 05:38:05.57	22.19	22.24	-52.4	-54.1	17.1	0.00e+00	0	35	0	510656512	71	4274
2026-01-01 05:38:06.57	21.93	22.28	-52.6	-54.4	17.1	0.00e+00	0	35	0	512753664	71	4399
2026-01-01 05:38:07.57	21.67	22.32	-52.5	-54.2	17.1	0.00e+00	0	35	0	514850816	71	4337
2026-01-01 05:38:08.57	21.42	22.36	-52.6	-54.2	17.1	0.00e+00	0	35	0	515899392	71	4339
2026-01-01 05:38:09.56	21.16	22.40	-52.3	-53.9	17.2	0.00e+00	0	35	0	517996544	71	4179
2026-01-01 05:38:10.57	20.90	22.44	-52.2	-53.8	17.3	0.00e+00	0	35	0	520093696	70	4375
2026-01-01 05:38:11.56	20.64	22.48	-52.0	-53.6	17.4	0.00e+00	0	35	0	522190848	70	4252
2026-01-01 05:38:12.56	20.38	22.52	-52.3	-53.9	17.2	0.00e+00	0	35	0	523239424	70	4440
2026-01-01 05:38:13.56	20.12	22.56	-52.6	-54.3	17.1	0.00e+00	0	35	0	525336576	70	4640
2026-01-01 05:38:14.56	19.86	22.59	-52.9	-54.7	16.9	0.00e+00	0	35	0	527433728	71	4561
2026-01-01 05:38:15.56	19.59	22.63	-53.2	-55.0	16.8	0.00e+00	0	35	0	529530880	71	4752
2026-01-01 05:38:16.56	19.33	22.67	-53.1	-54.9	16.8	0.00e+00	0	35	0	531628032	71	4664
2026-01-01 05:38:17.55	19.07	22.70	-53.3	-55.2	16.7	0.00e+00	0	35	0	532676608	71	4819
2026-01-01 05:38:18.55	18.81	22.74	-53.6	-55.6	16.5	0.00e+00	0	35	0	534773760	72	4795
2026-01-01 05:38:19.55	18.54	22.77	-54.1	-56.3	16.2	0.00e+00	0	35	0	536870912	73	4900
2026-01-01 05:38:20.55	18.27	22.80	-54.4	-56.7	16.0	0.00e+00	0	35	0	538968064	74	4870
2026-01-01 05:38:21.55	18.01	22.84	-54.5	-56.9	15.9	0.00e+00	0	35	0	541065216	74	4953
2026-01-01 05:38:22.54	17.74	22.87	-54.2	-56.5	16.1	0.00e+00	0	35	0	542113792	74	4718
2026-01-01 05:38:23.54	17.48	22.90	-54.2	-56.4	16.2	0.00e+00	0	35	0	544210944	74	4662
2026-01-01 05:38:24.54	17.21	22.93	-54.1	-56.2	16.2	0.00e+00	0	35	0	546308096	74	4584
2026-01-01 05:38:25.53	16.94	22.96	-53.9	-56.0	16.3	0.00e+00	0	35	0	548405248	74	4492
2026-01-01 05:38:26.53	16.68	22.99	-54.0	-56.1	16.2	0.00e+00	0	35	0	549453824	74	4536
2026-01-01 05:38:27.53	16.41	23.02	-53.8	-55.9	16.4	0.00e+00	0	35	0	551550976	74	4402
2026-01-01 05:38:28.53	16.14	23.05	-53.8	-55.9	16.4	0.00e+00	0	35	0	553648128	74	4402
2026-01-01 05:38:29.54	15.86	23.08	-53.5	-55.5	16.6	0.00e+00	0	35	0	555745280	73	4456
2026-01-01 05:38:30.54	15.59	23.10	-53.4	-55.4	16.6	0.00e+00	0	35	0	557842432	73	4434
2026-01-01 05:38:31.54	15.32	23.13	-53.6	-55.6	16.5	0.00e+00	0	35	0	558891008	73	4530
2026-01-01 05:38:32.54	15.05	23.15	-53.5	-55.5	16.6	0.00e+00	0	35	0	560988160	73	4460
2026-01-01 05:38:33.55	14.78	23.18	-53.6	-55.6	16.5	0.00e+00	0	35	0	563085312	73	4540
2026-01-01 05:38:34.55	14.50	23.20	-53.6	-55.6	16.5	0.00e+00	0	35	0	565182464	73	4532
2026-01-01 05:38:35.54	14.23	23.23	-53.7	-55.8	16.4	0.00e+00	0	35	0	567279616	73	4599
2026-01-01 05:38:36.55	13.96	23.25	-53.7	-55.8	16.4	0.00e+00	0	35	0	568328192	73	4636
2026-01-01 05:38:37.54	13.69	23.27	-53.7	-55.9	16.3	0.00e+00	0	35	0	570425344	73	4673
2026-01-01 05:38:38.54	13.41	23.29	-53.8	-56.0	16.3	0.00e+00	0	35	0	572522496	73	4726
2026-01-01 05:38:39.54	13.14	23.31	-53.7	-55.8	16.4	0.00e+00	0	35	0	574619648	73	4617
2026-01-01 05:38:40.54	12.86	23.34	-53.8	-55.9	16.4	0.00e+00	0	35	0	576716800	73	4676
2026-01-01 05:38:41.55	12.58	23.35	-53.9	-56.1	16.3	0.00e+00	0	35	0	577765376	73	4782
2026-01-01 05:38:42.55	12.31	23.37	-54.0	-56.2	16.2	0.00e+00	0	35	0	579862528	73	4859
2026-01-01 05:38:43.55	12.03	23.39	-54.1	-56.3	16.1	0.00e+00	0	35	0	581959680	73	4926
2026-01-01 05:38:44.55	11.76	23.41	-54.3	-56.6	15.9	0.00e+00	0	35	0	584056832	73	5059
2026-01-01 05:38:45.55	11.48	23.43	-54.4	-56.8	15.9	0.00e+00	0	35	0	585105408	74	4882
2026-01-01 05:38:46.55	11.20	23.44	-54.5	-57.0	15.8	0.00e+00	0	35	0	587202560	74	4989
2026-01-01 05:38:47.55	10.93	23.46	-54.6	-57.1	15.7	0.00e+00	0	35	0	589299712	74	5078
2026-01-01 05:38:48.54	10.65	23.47	-54.5	-56.9	15.8	0.00e+00	0	35	0	591396864	74	4978
2026-01-01 05:38:49.54	10.37	23.48	-54.2	-56.5	16.1	0.00e+00	0	35	0	593494016	74	4758
2026-01-01 05:38:50.54	10.10	23.50	-54.2	-56.5	16.1	0.00e+00	0	35	0	594542592	74	4727
2026-01-01 05:38:51.54	9.82	23.51	-54.5	-56.9	15.9	0.00e+00	0	35	0	596639744	74	4937
2026-01-01 05:38:52.53	9.54	23.52	-54.7	-57.2	15.7	0.00e+00	0	35	0	598736896	74	5114
2026-01-01 05:38:53.53	9.26	23.53	-54.9	-57.6	15.5	0.00e+00	0	35	0	600834048	75	5062
2026-01-01 05:38:54.53	8.98	23.54	-55.2	-58.0	15.2	0.00e+00	0	35	0	601882624	75	5319
2026-01-01 05:38:55.52	8.71	23.55	-55.1	-57.9	15.3	0.00e+00	0	35	0	603979776	75	5249
2026-01-01 05:38:56.52	8.43	23.56	-55.1	-57.9	15.3	0.00e+00	0	35	0	606076928	75	5260
2026-01-01 05:38:57.52	8.15	23.57	-55.0	-57.7	15.4	0.00e+00	0	35	0	608174080	75	5156
2026-01-01 05:38:58.52	7.87	23.58	-55.0	-57.6	15.5	0.00e+00	0	35	0	610271232	75	5078
2026-01-01 05:38:59.52	7.59	23.58	-54.5	-57.0	15.8	0.00e+00	0	35	0	611319808	75	4720
2026-01-01 05:39:00.52	7.31	23.59	-54.3	-56.6	16.0	0.00e+00	0	35	0	613416960	75	4545
2026-01-01 05:39:01.51	7.03	23.59	-54.0	-56.2	16.2	0.00e+00	0	35	0	615514112	74	4594
2026-01-01 05:39:02.50	6.76	23.60	-53.7	-55.8	16.3	0.00e+00	0	35	0	617611264	73	4637
2026-01-01 05:39:03.50	6.48	23.60	-53.6	-55.8	16.3	0.00e+00	0	35	0	619708416	73	4632
2026-01-01 05:39:04.49	6.20	23.60	-53.5	-55.7	16.4	0.00e+00	0	35	0	620756992	73	4554
2026-01-01 05:39:05.48	5.92	23.61	-53.5	-55.7	16.4	0.00e+00	0	35	0	622854144	73	4558
2026-01-01 05:39:06.48	5.64	23.61	-53.6	-55.9	16.3	0.00e+00	0	35	0	624951296	73	4661
2026-01-01 05:39:07.49	5.36	23.61	-53.9	-56.2	16.1	0.00e+00	0	35	0	627048448	73	4867
2026-01-01 05:39:08.49	5.08	23.61	-53.8	-56.2	16.1	0.00e+00	0	35	0	629145600	73	4819
2026-01-01 05:39:09.50	4.80	23.61	-53.8	-56.1	16.1	0.00e+00	0	35	0	630194176	73	4804
2026-01-01 05:39:10.51	4.52	23.61	-53.8	-56.1	16.2	0.00e+00	0	35	0	632291328	73	4813
2026-01-01 05:39:11.51	4.24	23.60	-53.7	-55.9	16.3	0.00e+00	0	35	0	634388480	73	4663
2026-01-01 05:39:12.49	3.96	23.60	-53.5	-55.6	16.4	0.00e+00	0	35	0	636485632	73	4541
2026-01-01 05:39:13.49	3.68	23.60	-53.6	-55.8	16.3	0.00e+00	0	35	0	637534208	73	4638
2026-01-01 05:39:14.48	3.41	23.59	-53.3	-55.4	16.6	0.00e+00	0	35	0	639631360	73	4409
2026-01-01 05:39:15.48	3.13	23.59	-53.4	-55.5	16.5	0.00e+00	0	35	0	641728512	73	4477
2026-01-01 05:39:16.49	2.84	23.58	-53.3	-55.3	16.6	0.00e+00	0	35	0	643825664	73	4376
2026-01-01 05:39:17.49	2.56	23.57	-53.5	-55.5	16.5	0.00e+00	0	35	0	645922816	72	4751
2026-01-01 05:39:18.49	2.28	23.57	-53.4	-55.4	16.6	0.00e+00	0	35	0	646971392	72	4682
2026-01-01 05:39:19.48	2.01	23.56	-53.4	-55.4	16.5	0.00e+00	0	35	0	649068544	72	4678
2026-01-01 05:39:20.48	1.73	23.55	-53.3	-55.2	16.6	0.00e+00	0	35	0	651165696	72	4597
2026-01-01 05:39:21.48	1.45	23.54	-53.2	-55.1	16.7	0.00e+00	0	35	0	653262848	72	4533
2026-01-01 05:39:22.48	1.17	23.53	-53.1	-55.0	16.8	0.00e+00	0	35	0	655360000	72	4443
2026-01-01 05:39:23.48	0.89	23.52	-52.9	-54.8	16.9	0.00e+00	0	35	0	656408576	72	4350
2026-01-01 05:39:24.48	0.62	23.51	-53.0	-54.8	16.9	0.00e+00	0	35	0	658505728	72	4385
2026-01-01 05:39:25.48	0.34	23.49	-53.2	-55.2	16.8	0.00e+00	0	35	0	660602880	72	4549
2026-01-01 05:39:26.48	0.06	23.48	-53.6	-55.7	16.5	0.00e+00	0	35	0	662700032	72	4832
2026-01-01 05:39:27.48	359.78	23.47	-53.4	-55.4	16.7	0.00e+00	0	35	0	663748608	72	4675
2026-01-01 05:39:28.48	359.50	23.45	-53.4	-55.3	16.8	0.00e+00	0	35	0	665845760	72	4635
2026-01-01 05:39:29.48	359.23	23.44	-53.3	-55.1	16.8	0.00e+00	0	35	0	667942912	72	4525
2026-01-01 05:39:30.48	358.95	23.42	-53.2	-55.0	16.9	0.00e+00	0	35	0	670040064	72	4456
2026-01-01 05:39:31.47	358.68	23.40	-52.9	-54.6	17.1	0.00e+00	0	35	0	672137216	72	4265
2026-01-01 05:39:32.48	358.40	23.39	-52.8	-54.5	17.1	0.00e+00	0	35	0	673185792	72	4224
2026-01-01 05:39:33.47	358.13	23.37	-52.7	-54.4	17.1	0.00e+00	0	35	0	675282944	71	4422
2026-01-01 05:39:34.47	357.85	23.35	-52.7	-54.4	17.1	0.00e+00	0	35	0	677380096	71	4428
2026-01-01 05:39:35.47	357.57	23.33	-52.4	-54.1	17.3	0.00e+00	0	35	0	679477248	71	4245
2026-01-01 05:39:36.47	357.30	23.31	-52.3	-54.0	17.3	0.00e+00	0	35	0	681574400	71	4199
2026-01-01 05:39:37.46	357.03	23.29	-52.4	-54.0	17.3	0.00e+00	0	35	0	682622976	71	4242
2026-01-01 05:39:38.46	356.75	23.27	-52.3	-53.9	17.4	0.00e+00	0	35	0	684720128	70	4415
2026-01-01 05:39:39.45	356.48	23.24	-52.3	-54.0	17.3	0.00e+00	0	35	0	686817280	70	4444
2026-01-01 05:39:40.45	356.21	23.22	-52.1	-53.7	17.4	0.00e+00	0	35	0	688914432	70	4307
2026-01-01 05:39:41.45	355.94	23.20	-52.2	-53.8	17.4	0.00e+00	0	35	0	689963008	70	4377
2026-01-01 05:39:42.43	355.67	23.17	-52.1	-53.7	17.4	0.00e+00	0	35	0	692060160	70	4315
2026-01-01 05:39:43.43	355.40	23.15	-52.4	-54.1	17.3	0.00e+00	0	35	0	694157312	70	4494
2026-01-01 05:39:44.43	355.13	23.12	-52.6	-54.3	17.2	0.00e+00	0	35	0	696254464	70	4603
2026-01-01 05:39:45.43	354.86	23.09	-52.7	-54.4	17.1	0.00e+00	0	35	0	698351616	70	4700
2026-01-01 05:39:46.43	354.59	23.07	-52.7	-54.3	17.1	0.00e+00	0	35	0	699400192	70	4644
2026-01-01 05:39:47.42	354.32	23.04	-52.9	-54.6	17.0	0.00e+00	0	35	0	701497344	71	4530
2026-01-01 05:39:48.42	354.05	23.01	-53.0	-54.7	17.0	0.00e+00	0	35	0	703594496	71	4577
2026-01-01 05:39:49.41	353.78	22.98	-53.0	-54.7	17.0	0.00e+00	0	35	0	705691648	71	4592
2026-01-01 05:39:50.40	353.52	22.95	-53.0	-54.7	17.0	0.00e+00	0	35	0	706740224	71	4594
2026-01-01 05:39:51.39	353.25	22.92	-52.7	-54.3	17.1	0.00e+00	0	35	0	708837376	71	4389
2026-01-01 05:39:52.39	352.98	22.89	-52.4	-54.0	17.3	0.00e+00	0	35	0	710934528	71	4230
2026-01-01 05:39:53.39	352.72	22.86	-52.3	-53.9	17.3	0.00e+00	0	35	0	713031680	71	4186
2026-01-01 05:39:54.39	352.45	22.83	-52.6	-54.3	17.2	0.00e+00	0	35	0	715128832	71	4349
2026-01-01 05:39:55.38	352.19	22.80	-52.9	-54.6	17.1	0.00e+00	0	35	0	716177408	71	4519
2026-01-01 05:39:56.37	351.92	22.76	-53.2	-55.0	16.9	0.00e+00	0	35	0	718274560	71	4754
2026-01-01 05:39:57.38	351.66	22.73	-53.4	-55.2	16.8	0.00e+00	0	35	0	720371712	72	4580
2026-01-01 05:39:58.38	351.39	22.69	-53.3	-55.1	16.9	0.00e+00	0	35	0	722468864	72	4533
2026-01-01 05:39:59.38	351.13	22.66	-53.2	-55.0	16.9	0.00e+00	0	35	0	723517440	72	4481
2026-01-01 05:40:00.37	350.87	22.62	-53.3	-55.1	16.8	0.00e+00	0	35	0	725614592	72	4508
2026-01-01 05:40:01.37	350.61	22.59	-53.1	-55.0	16.9	0.00e+00	0	35	0	727711744	72	4444
2026-01-01 05:40:02.36	350.35	22.55	-53.1	-54.8	17.0	0.00e+00	0	35	0	729808896	72	4390
2026-01-01 05:40:03.36	350.09	22.51	-53.0	-54.8	17.0	0.00e+00	0	35	0	731906048	72	4385
2026-01-01 05:40:04.35	349.83	22.47	-53.0	-54.8	17.0	0.00e+00	0	35	0	732954624	72	4373
2026-01-01 05:40:05.35	349.57	22.43	-53.2	-55.1	16.9	0.00e+00	0	35	0	735051776	72	4498
2026-01-01 05:40:06.35	349.31	22.39	-53.3	-55.1	16.9	0.00e+00	0	35	0	737148928	72	4531
2026-01-01 05:40:07.34	349.05	22.36	-53.3	-55.2	16.8	0.00e+00	0	35	0	739246080	72	4591
2026-01-01 05:40:08.33	348.80	22.32	-53.5	-55.4	16.7	0.00e+00	0	35	0	740294656	72	4705
2026-01-01 05:40:09.33	348.54	22.27	-53.8	-55.8	16.5	0.00e+00	0	35	0	742391808	72	4892
2026-01-01 05:40:10.33	348.28	22.23	-53.8	-55.8	16.5	0.00e+00	0	35	0	744488960	72	4895
2026-01-01 05:40:11.33	348.03	22.19	-54.2	-56.4	16.2	0.00e+00	0	35	0	746586112	73	4962
2026-01-01 05:40:12.33	347.77	22.15	-54.5	-56.8	16.0	0.00e+00	0	35	0	748683264	74	4896
2026-01-01 05:40:13.32	347.52	22.10	-54.5	-56.8	16.0	0.00e+00	0	35	0	749731840	74	4919
2026-01-01 05:40:14.32	347.27	22.06	-54.4	-56.7	16.0	0.00e+00	0	35	0	751828992	74	4828
2026-01-01 05:40:15.31	347.02	22.02	-54.2	-56.4	16.2	0.00e+00	0	35	0	753926144	74	4681
2026-01-01 05:40:16.32	346.76	21.97	-54.0	-56.1	16.3	0.00e+00	0	35	0	756023296	74	4536
2026-01-01 05:40:17.32	346.51	21.93	-53.9	-56.1	16.3	0.00e+00	0	35	0	758120448	74	4500
2026-01-01 05:40:18.32	346.26	21.88	-53.8	-56.0	16.4	0.00e+00	0	35	0	759169024	74	4455
2026-01-01 05:40:19.32	346.01	21.83	-53.7	-55.8	16.5	0.00e+00	0	35	0	761266176	74	4365
2026-01-01 05:40:20.33	345.76	21.79	-53.7	-55.7	16.5	0.00e+00	0	35	0	763363328	73	4597
2026-01-01 05:40:21.33	345.51	21.74	-53.9	-56.0	16.4	0.00e+00	0	35	0	765460480	73	4735
2026-01-01 05:40:22.32	345.27	21.69	-53.8	-56.0	16.4	0.00e+00	0	35	0	766509056	73	4720
2026-01-01 05:40:23.32	345.02	21.64	-54.1	-56.3	16.2	0.00e+00	0	35	0	768606208	73	4883
2026-01-01 05:40:24.31	344.78	21.60	-53.7	-55.8	16.4	0.00e+00	0	35	0	770703360	73	4650
2026-01-01 05:40:25.30	344.53	21.55	-53.6	-55.7	16.5	0.00e+00	0	35	0	772800512	73	4562
2026-01-01 05:40:26.30	344.29	21.50	-53.4	-55.3	16.6	0.00e+00	0	35	0	774897664	73	4391
2026-01-01 05:40:27.30	344.04	21.45	-53.4	-55.4	16.6	0.00e+00	0	35	0	775946240	73	4426
2026-01-01 05:40:28.30	343.80	21.40	-53.6	-55.6	16.5	0.00e+00	0	35	0	778043392	73	4542
2026-01-01 05:40:29.30	343.56	21.35	-53.7	-55.8	16.5	0.00e+00	0	35	0	780140544	73	4615
2026-01-01 05:40:30.30	343.32	21.29	-53.6	-55.6	16.6	0.00e+00	0	35	0	782237696	73	4528
2026-01-01 05:40:31.29	343.08	21.24	-53.6	-55.6	16.5	0.00e+00	0	35	0	784334848	73	4527
2026-01-01 05:40:32.29	342.84	21.19	-53.6	-55.6	16.6	0.00e+00	0	35	0	785383424	73	4530
2026-01-01 05:40:33.29	342.60	21.14	-53.7	-55.8	16.4	0.00e+00	0	35	0	787480576	73	4647
2026-01-01 05:40:34.29	342.36	21.08	-54.0	-56.2	16.3	0.00e+00	0	35	0	789577728	73	4847
2026-01-01 05:40:35.29	342.13	21.03	-54.2	-56.5	16.2	0.00e+00	0	35	0	791674880	73	5015
2026-01-01 05:40:36.28	341.89	20.98	-54.3	-56.7	16.0	0.00e+00	0	35	0	792723456	73	5127
2026-01-01 05:40:37.28	341.66	20.92	-54.4	-56.8	16.0	0.00e+00	0	35	0	794820608	74	4896
2026-01-01 05:40:38.29	341.42	20.87	-54.5	-56.9	15.9	0.00e+00	0	35	0	796917760	74	4948
2026-01-01 05:40:39.29	341.19	20.81	-54.5	-56.9	15.9	0.00e+00	0	35	0	799014912	74	4940
2026-01-01 05:40:40.28	340.96	20.76	-54.2	-56.6	16.1	0.00e+00	0	35	0	801112064	74	4763
2026-01-01 05:40:41.28	340.72	20.70	-54.1	-56.3	16.2	0.00e+00	0	35	0	802160640	74	4651
2026-01-01 05:40:42.28	340.49	20.64	-54.4	-56.8	16.0	0.00e+00	0	35	0	804257792	74	4897
2026-01-01 05:40:43.28	340.26	20.59	-54.4	-56.8	15.9	0.00e+00	0	35	0	806354944	74	4905
2026-01-01 05:40:44.28	340.03	20.53	-54.6	-57.1	15.8	0.00e+00	0	35	0	808452096	74	5072
2026-01-01 05:40:45.27	339.81	20.47	-55.0	-57.8	15.3	0.00e+00	0	35	0	810549248	75	5209
2026-01-01 05:40:46.27	339.58	20.42	-55.6	-58.8	14.8	0.00e+00	0	35	0	811597824	76	5509
2026-01-01 05:40:47.27	339.35	20.36	-55.8	-59.2	14.5	0.00e+00	0	35	0	813694976	76	5723
2026-01-01 05:40:48.27	339.13	20.30	-55.6	-58.8	14.7	0.00e+00	0	35	0	815792128	76	5519
2026-01-01 05:40:49.26	338.90	20.24	-55.5	-58.6	14.9	0.00e+00	0	35	0	817889280	76	5363
2026-01-01 05:40:50.26	338.68	20.18	-55.1	-58.0	15.3	0.00e+00	0	35	0	818937856	76	4986
2026-01-01 05:40:51.26	338.45	20.12	-54.9	-57.6	15.5	0.00e+00	0	35	0	821035008	76	4796
2026-01-01 05:40:52.25	338.23	20.06	-54.6	-57.1	15.8	0.00e+00	0	35	0	823132160	75	4769
2026-01-01 05:40:53.25	338.01	20.00	-54.6	-57.0	15.9	0.00e+00	0	35	0	825229312	75	4746
2026-01-01 05:40:54.26	337.79	19.94	-54.1	-56.4	16.2	0.00e+00	0	35	0	827326464	74	4698
2026-01-01 05:40:55.25	337.57	19.88	-53.8	-55.9	16.4	0.00e+00	0	35	0	828375040	74	4436
2026-01-01 05:40:56.25	337.35	19.82	-53.5	-55.6	16.6	0.00e+00	0	35	0	830472192	73	4523
2026-01-01 05:40:57.25	337.13	19.76	-53.5	-55.5	16.6	0.00e+00	0	35	0	832569344	73	4488
2026-01-01 05:40:58.25	336.92	19.70	-53.2	-55.2	16.7	0.00e+00	0	35	0	834666496	72	4562
2026-01-01 05:40:59.25	336.70	19.64	-53.1	-55.1	16.8	0.00e+00	0	35	0	836763648	72	4521
2026-01-01 05:41:00.25	336.48	19.58	-53.0	-55.0	16.8	0.00e+00	0	35	0	837812224	72	4467
2026-01-01 05:41:01.25	336.27	19.51	-52.9	-54.8	16.9	0.00e+00	0	35	0	839909376	72	4373
2026-01-01 05:41:02.24	336.06	19.45	-52.9	-54.8	16.9	0.00e+00	0	35	0	842006528	72	4350
2026-01-01 05:41:03.23	335.85	19.39	-52.7	-54.5	17.1	0.00e+00	0	35	0	844103680	71	4463
2026-01-01 05:41:04.23	335.64	19.33	-52.6	-54.5	17.1	0.00e+00	0	35	0	845152256	71	4447
2026-01-01 05:41:05.23	335.42	19.26	-52.6	-54.3	17.1	0.00e+00	0	35	0	847249408	71	4388
2026-01-01 05:41:06.22	335.22	19.20	-52.5	-54.3	17.1	0.00e+00	0	35	0	849346560	71	4376
2026-01-01 05:41:07.22	335.01	19.14	-52.5	-54.3	17.1	1.50e-06	0	35	0	851443712	71	4359
2026-01-01 05:41:08.22	334.80	19.07	-52.4	-54.2	17.1	0.00e+00	0	35	0	853540864	71	4304
2026-01-01 05:41:09.21	334.59	19.01	-52.5	-54.4	17.1	0.00e+00	0	35	0	854589440	71	4397
2026-01-01 05:41:10.20	334.39	18.94	-52.9	-54.9	16.8	0.00e+00	0	35	0	856686592	71	4668
2026-01-01 05:41:11.20	334.18	18.88	-53.4	-55.5	16.4	0.00e+00	0	35	0	858783744	71	5019
2026-01-01 05:41:12.20	333.98	18.81	-53.7	-55.9	16.3	0.00e+00	0	35	0	860880896	72	4935
2026-01-01 05:41:13.20	333.77	18.75	-54.1	-56.5	16.0	0.00e+00	0	35	0	862978048	73	5006
2026-01-01 05:41:14.20	333.57	18.68	-54.4	-56.9	15.8	0.00e+00	0	35	0	864026624	73	5269
2026-01-01 05:41:15.20	333.37	18.62	-54.4	-57.0	15.8	0.00e+00	0	35	0	866123776	74	4997
2026-01-01 05:41:16.20	333.17	18.55	-54.7	-57.4	15.5	0.00e+00	0	35	0	868220928	74	5264
2026-01-01 05:41:17.21	332.96	18.49	-54.8	-57.5	15.5	0.00e+00	0	35	0	870318080	74	5308
2026-01-01 05:41:18.20	332.77	18.42	-54.5	-57.1	15.7	0.00e+00	0	35	0	871366656	74	5042
2026-01-01 05:41:19.20	332.57	18.35	-54.3	-56.8	15.9	0.00e+00	0	35	0	873463808	74	4915
2026-01-01 05:41:20.20	332.37	18.29	-54.0	-56.3	16.1	0.00e+00	0	35	0	875560960	74	4622
2026-01-01 05:41:21.19	332.17	18.22	-53.8	-56.1	16.3	0.00e+00	0	35	0	877658112	74	4495
2026-01-01 05:41:22.19	331.98	18.15	-53.5	-55.7	16.4	0.00e+00	0	35	0	879755264	73	4582
2026-01-01 05:41:23.18	331.78	18.09	-53.5	-55.6	16.5	0.00e+00	0	35	0	880803840	73	4514
2026-01-01 05:41:24.18	331.59	18.02	-53.5	-55.6	16.5	0.00e+00	0	35	0	882900992	73	4510
2026-01-01 05:41:25.19	331.39	17.95	-53.3	-55.4	16.6	0.00e+00	0	35	0	884998144	73	4420
2026-01-01 05:41:26.18	331.20	17.89	-53.1	-55.0	16.8	0.00e+00	0	35	0	887095296	72	4491
2026-01-01 05:41:27.18	331.01	17.82	-52.9	-54.8	16.9	0.00e+00	0	35	0	888143872	72	4362
2026-01-01 05:41:28.18	330.82	17.75	-52.8	-54.7	16.9	0.00e+00	0	35	0	890241024	71	4569
2026-01-01 05:41:29.18	330.63	17.68	-52.9	-54.8	16.9	0.00e+00	0	35	0	892338176	71	4614
2026-01-01 05:41:30.18	330.44	17.61	-53.2	-55.2	16.7	0.00e+00	0	35	0	894435328	71	4851
2026-01-01 05:41:31.18	330.25	17.55	-53.5	-55.6	16.6	0.00e+00	0	35	0	896532480	72	4767
2026-01-01 05:41:32.18	330.07	17.48	-53.6	-55.8	16.4	0.00e+00	0	35	0	897581056	72	4910
2026-01-01 05:41:33.18	329.88	17.41	-53.7	-55.9	16.4	0.00e+00	0	35	0	899678208	72	4934
2026-01-01 05:41:34.18	329.69	17.34	-53.8	-56.0	16.3	0.00e+00	0	35	0	901775360	72	5005
2026-01-01 05:41:35.19	329.51	17.27	-53.7	-55.8	16.4	0.00e+00	0	35	0	903872512	72	4921
2026-01-01 05:41:36.19	329.32	17.20	-53.6	-55.8	16.4	0.00e+00	0	35	0	905969664	72	4879
2026-01-01 05:41:37.19	329.14	17.13	-53.6	-55.7	16.5	0.00e+00	0	35	0	907018240	72	4836
2026-01-01 05:41:38.20	328.96	17.06	-53.6	-55.7	16.5	0.00e+00	0	35	0	909115392	72	4854
2026-01-01 05:41:39.19	328.78	17.00	-53.7	-55.9	16.4	0.00e+00	0	35	0	911212544	72	4951
2026-01-01 05:41:40.20	328.59	16.93	-53.8	-56.1	16.3	0.00e+00	0	35	0	913309696	72	5048
2026-01-01 05:41:41.19	328.42	16.86	-53.8	-56.1	16.3	0.00e+00	0	35	0	915406848	73	4781
2026-01-01 05:41:42.19	328.24	16.79	-53.8	-56.0	16.4	0.00e+00	0	35	0	916455424	73	4733
2026-01-01 05:41:43.20	328.06	16.72	-53.7	-55.9	16.4	0.00e+00	0	35	0	918552576	73	4689
2026-01-01 05:41:44.21	327.88	16.65	-53.7	-55.9	16.4	0.00e+00	0	35	0	920649728	73	4680
2026-01-01 05:41:45.21	327.70	16.58	-53.7	-55.8	16.5	0.00e+00	0	35	0	922746880	73	4650
2026-01-01 05:41:46.20	327.53	16.51	-53.7	-55.8	16.5	0.00e+00	0	35	0	924844032	73	4609
2026-01-01 05:41:47.20	327.35	16.44	-53.6	-55.7	16.5	0.00e+00	0	35	0	925892608	73	4552
2026-01-01 05:41:48.20	327.18	16.37	-53.5	-55.6	16.5	0.00e+00	0	35	0	927989760	73	4529
2026-01-01 05:41:49.20	327.00	16.30	-53.3	-55.4	16.6	0.00e+00	0	35	0	930086912	73	4396
2026-01-01 05:41:50.20	326.83	16.23	-53.2	-55.1	16.8	0.00e+00	0	35	0	932184064	72	4509
2026-01-01 05:41:51.19	326.66	16.16	-53.1	-55.1	16.8	0.00e+00	0	35	0	933232640	72	4503
2026-01-01 05:41:52.19	326.49	16.09	-53.0	-54.9	16.9	0.00e+00	0	35	0	935329792	72	4395
2026-01-01 05:41:53.19	326.32	16.02	-53.2	-55.1	16.8	0.00e+00	0	35	0	937426944	72	4539
2026-01-01 05:41:54.19	326.15	15.95	-53.2	-55.1	16.8	0.00e+00	0	35	0	939524096	72	4545
2026-01-01 05:41:55.20	325.98	15.88	-53.3	-55.3	16.7	0.00e+00	0	35	0	941621248	72	4622
2026-01-01 05:41:56.19	325.82	15.81	-53.5	-55.5	16.6	0.00e+00	0	35	0	942669824	72	4758
2026-01-01 05:41:57.19	325.65	15.74	-53.5	-55.5	16.7	0.00e+00	0	35	0	944766976	72	4724
2026-01-01 05:41:58.20	325.48	15.67	-53.1	-55.0	16.8	0.00e+00	0	35	0	946864128	72	4471
2026-01-01 05:41:59.20	325.32	15.60	-53.1	-54.9	16.9	0.00e+00	0	35	0	948961280	72	4413
2026-01-01 05:42:00.19	325.16	15.53	-52.7	-54.5	17.1	0.00e+00	0	35	0	951058432	72	4202
2026-01-01 05:42:01.18	324.99	15.46	-52.6	-54.3	17.2	0.00e+00	0	35	0	952107008	71	4377
2026-01-01 05:42:02.18	324.83	15.39	-52.5	-54.1	17.2	0.00e+00	0	35	0	954204160	71	4290
2026-01-01 05:42:03.17	324.67	15.32	-52.5	-54.1	17.2	0.00e+00	0	35	0	956301312	71	4277
2026-01-01 05:42:04.17	324.51	15.25	-52.6	-54.3	17.2	0.00e+00	0	35	0	958398464	71	4351
2026-01-01 05:42:05.17	324.35	15.17	-52.8	-54.5	17.1	0.00e+00	0	35	0	959447040	71	4464
2026-01-01 05:42:06.16	324.19	15.10	-52.9	-54.6	17.0	0.00e+00	0	35	0	961544192	71	4536
2026-01-01 05:42:07.16	324.03	15.03	-53.0	-54.8	17.0	0.00e+00	0	35	0	963641344	71	4646
2026-01-01 05:42:08.17	323.87	14.96	-53.1	-54.9	16.9	0.00e+00	0	35	0	965738496	71	4671
2026-01-01 05:42:09.16	323.72	14.89	-53.3	-55.1	16.8	0.00e+00	0	35	0	967835648	71	4793
2026-01-01 05:42:10.16	323.56	14.82	-53.2	-55.0	16.9	0.00e+00	0	35	0	968884224	71	4759
2026-01-01 05:42:11.16	323.40	14.75	-53.3	-55.2	16.8	0.00e+00	0	35	0	970981376	71	4845
2026-01-01 05:42:12.16	323.25	14.68	-53.4	-55.3	16.7	0.00e+00	0	35	0	973078528	72	4643
2026-01-01 05:42:13.16	323.09	14.61	-53.4	-55.3	16.7	0.00e+00	0	35	0	975175680	72	4624
2026-01-01 05:42:14.16	322.94	14.54	-53.3	-55.1	16.8	0.00e+00	0	35	0	976224256	72	4534
2026-01-01 05:42:15.16	322.79	14.47	-53.0	-54.7	17.0	0.00e+00	0	35	0	978321408	72	4338
2026-01-01 05:42:16.16	322.64	14.40	-52.9	-54.6	17.0	0.00e+00	0	35	0	980418560	72	4285
2026-01-01 05:42:17.16	322.48	14.33	-52.8	-54.5	17.1	0.00e+00	0	35	0	982515712	72	4198
2026-01-01 05:42:18.16	322.33	14.26	-52.6	-54.3	17.2	0.00e+00	0	35	0	984612864	71	4384
2026-01-01 05:42:19.16	322.18	14.18	-52.7	-54.4	17.2	0.00e+00	0	35	0	985661440	71	4419
2026-01-01 05:42:20.15	322.04	14.11	-52.9	-54.6	17.1	0.00e+00	0	35	0	987758592	71	4515
2026-01-01 05:42:21.15	321.89	14.04	-53.1	-54.9	16.9	0.00e+00	0	35	0	989855744	71	4663
2026-01-01 05:42:22.16	321.74	13.97	-53.3	-55.2	16.8	0.00e+00	0	35	0	991952896	71	4823
2026-01-01 05:42:23.16	321.59	13.90	-53.7	-55.7	16.5	0.00e+00	0	35	0	994050048	72	4826
2026-01-01 05:42:24.16	321.44	13.83	-53.7	-55.7	16.5	0.00e+00	0	35	0	995098624	72	4847
2026-01-01 05:42:25.16	321.30	13.76	-53.9	-55.9	16.4	0.00e+00	0	35	0	997195776	72	4969
2026-01-01 05:42:26.16	321.15	13.69	-53.8	-55.9	16.4	0.00e+00	0	35	0	999292928	72	4941
2026-01-01 05:42:27.17	321.01	13.62	-53.8	-55.8	16.4	0.00e+00	0	35	0	1001390080	72	4919
2026-01-01 05:42:28.17	320.87	13.55	-53.9	-55.9	16.4	0.00e+00	0	35	0	1003487232	72	4961
2026-01-01 05:42:29.18	320.72	13.48	-53.7	-55.7	16.5	0.00e+00	0	35	0	1004535808	72	4864
2026-01-01 05:42:30.18	320.58	13.41	-53.8	-55.8	16.5	0.00e+00	0	35	0	1006632960	72	4891
2026-01-01 05:42:31.18	320.44	13.33	-53.6	-55.6	16.6	0.00e+00	0	35	0	1008730112	72	4784
2026-01-01 05:42:32.18	320.30	13.26	-53.7	-55.6	16.5	0.00e+00	0	35	0	1010827264	72	4808
2026-01-01 05:42:33.19	320.16	13.19	-53.4	-55.4	16.6	0.00e+00	0	35	0	1012924416	72	4655
2026-01-01 05:42:34.19	320.02	13.12	-53.3	-55.2	16.7	0.00e+00	0	35	0	1013972992	72	4592
2026-01-01 05:42:35.19	319.88	13.05	-53.2	-55.0	16.8	0.00e+00	0	35	0	1016070144	72	4489
2026-01-01 05:42:36.19	319.74	12.98	-53.1	-55.0	16.8	0.00e+00	0	35	0	1018167296	72	4452
2026-01-01 05:42:37.19	319.60	12.91	-53.1	-54.9	16.9	0.00e+00	0	35	0	1020264448	72	4411
2026-01-01 05:42:38.19	319.47	12.84	-53.2	-55.0	16.8	0.00e+00	0	35	0	1021313024	72	4467
2026-01-01 05:42:39.19	319.33	12.77	-53.3	-55.1	16.8	0.00e+00	0	35	0	1023410176	72	4516
2026-01-01 05:42:40.18	319.20	12.70	-53.2	-55.1	16.9	0.00e+00	0	35	0	1025507328	72	4496
2026-01-01 05:42:41.17	319.06	12.63	-53.7	-55.6	16.6	0.00e+00	0	35	0	1027604480	72	4805
2026-01-01 05:42:42.17	318.93	12.56	-53.8	-55.8	16.4	0.00e+00	0	35	0	1029701632	73	4649
2026-01-01 05:42:43.16	318.80	12.49	-54.2	-56.3	16.3	0.00e+00	0	35	0	1030750208	73	4875
2026-01-01 05:42:44.17	318.66	12.42	-54.3	-56.5	16.1	0.00e+00	0	35	0	1032847360	73	5012
2026-01-01 05:42:45.17	318.53	12.35	-54.6	-56.9	15.9	0.00e+00	0	35	0	1034944512	74	4932
2026-01-01 05:42:46.18	318.40	12.28	-54.6	-56.8	16.0	0.00e+00	0	35	0	1037041664	74	4909
2026-01-01 05:42:47.19	318.27	12.21	-54.5	-56.7	16.0	0.00e+00	0	35	0	1039138816	74	4870
2026-01-01 05:42:48.19	318.14	12.14	-54.5	-56.8	16.0	0.00e+00	0	35	0	1040187392	74	4887
2026-01-01 05:42:49.18	318.01	12.07	-54.4	-56.6	16.1	0.00e+00	0	35	0	1042284544	74	4768
2026-01-01 05:42:50.19	317.88	12.00	-54.2	-56.3	16.3	0.00e+00	0	35	0	1044381696	74	4612
2026-01-01 05:42:51.18	317.75	11.93	-53.6	-55.6	16.6	0.00e+00	0	35	0	1046478848	73	4504
2026-01-01 05:42:52.18	317.62	11.86	-53.5	-55.4	16.6	0.00e+00	0	35	0	1047527424	73	4439
2026-01-01 05:42:53.18	317.50	11.79	-53.5	-55.4	16.7	0.00e+00	0	35	0	1049624576	73	4436
2026-01-01 05:42:54.17	317.37	11.72	-53.6	-55.6	16.6	0.00e+00	0	35	0	1051721728	73	4500
2026-01-01 05:42:55.17	317.24	11.65	-53.6	-55.6	16.5	0.00e+00	0	35	0	1053818880	73	4530
2026-01-01 05:42:56.17	317.12	11.58	-53.7	-55.6	16.5	0.00e+00	0	35	0	1055916032	73	4543
2026-01-01 05:42:57.16	317.00	11.52	-53.8	-55.9	16.5	0.00e+00	0	35	0	1056964608	73	4662
2026-01-01 05:42:58.16	316.87	11.45	-53.7	-55.7	16.5	0.00e+00	0	35	0	1059061760	73	4591
2026-01-01 05:42:59.15	316.75	11.38	-53.8	-55.8	16.4	0.00e+00	0	35	0	1061158912	73	4629
2026-01-01 05:43:00.16	316.63	11.31	-53.7	-55.7	16.5	0.00e+00	0	35	0	1063256064	73	4566
2026-01-01 05:43:01.16	316.50	11.24	-53.6	-55.6	16.5	0.00e+00	0	35	0	1065353216	73	4531
2026-01-01 05:43:02.15	316.38	11.17	-53.7	-55.7	16.5	0.00e+00	0	35	0	1066401792	73	4547
2026-01-01 05:43:03.15	316.26	11.10	-53.8	-55.8	16.4	0.00e+00	0	35	0	1068498944	73	4615
2026-01-01 05:43:04.16	316.14	11.03	-54.0	-56.1	16.3	0.00e+00	0	35	0	1070596096	73	4774
2026-01-01 05:43:05.15	316.02	10.96	-53.9	-56.0	16.4	0.00e+00	0	35	0	1072693248	73	4710
2026-01-01 05:43:06.15	315.90	10.90	-54.1	-56.2	16.3	0.00e+00	0	35	0	1073741824	73	4859
2026-01-01 05:43:07.15	315.78	10.83	-54.2	-56.4	16.2	0.00e+00	0	35	0	1075838976	73	4941
2026-01-01 05:43:08.15	315.67	10.76	-54.3	-56.6	16.0	0.00e+00	0	35	0	1077936128	73	5054
2026-01-01 05:43:09.15	315.55	10.69	-54.4	-56.7	16.0	0.00e+00	0	35	0	1080033280	74	4863
2026-01-01 05:43:10.14	315.43	10.62	-54.5	-56.8	15.9	0.00e+00	0	35	0	1082130432	74	4916
2026-01-01 05:43:11.14	315.32	10.55	-54.6	-56.9	15.8	0.00e+00	0	35	0	1083179008	74	4976
2026-01-01 05:43:12.13	315.20	10.49	-54.4	-56.7	16.0	0.00e+00	0	35	0	1085276160	74	4857
2026-01-01 05:43:13.13	315.09	10.42	-54.6	-56.9	15.8	0.00e+00	0	35	0	1087373312	74	4972
2026-01-01 05:43:14.12	314.97	10.35	-54.5	-56.8	15.9	0.00e+00	0	35	0	1089470464	74	4907
2026-01-01 05:43:15.12	314.86	10.28	-54.5	-56.8	15.9	0.00e+00	0	35	0	1090519040	74	4909
2026-01-01 05:43:16.11	314.74	10.21	-54.5	-56.9	15.9	0.00e+00	0	35	0	1092616192	74	4946
2026-01-01 05:43:17.11	314.63	10.15	-54.5	-56.8	15.9	0.00e+00	0	35	0	1094713344	74	4912
2026-01-01 05:43:18.11	314.52	10.08	-54.8	-57.3	15.6	0.00e+00	0	35	0	1096810496	74	5181
2026-01-01 05:43:19.11	314.41	10.01	-54.9	-57.4	15.6	0.00e+00	0	35	0	1098907648	74	5225
2026-01-01 05:43:20.11	314.30	9.94	-55.1	-57.8	15.3	0.00e+00	0	35	0	1099956224	75	5179
2026-01-01 05:43:21.11	314.18	9.88	-55.1	-57.8	15.3	0.00e+00	0	35	0	1102053376	75	5183
2026-01-01 05:43:22.11	314.07	9.81	-55.1	-57.8	15.3	0.00e+00	0	35	0	1104150528	75	5190
2026-01-01 05:43:23.12	313.96	9.74	-55.2	-57.9	15.2	0.00e+00	0	35	0	1106247680	75	5271
2026-01-01 05:43:24.12	313.85	9.67	-55.1	-57.7	15.3	0.00e+00	0	35	0	1108344832	75	5157
2026-01-01 05:43:25.12	313.74	9.61	-55.3	-57.9	15.2	0.00e+00	0	35	0	1109393408	75	5271
2026-01-01 05:43:26.12	313.64	9.54	-55.0	-57.6	15.4	0.00e+00	0	35	0	1111490560	75	5066
2026-01-01 05:43:27.12	313.53	9.47	-54.8	-57.3	15.6	0.00e+00	0	35	0	1113587712	75	4889
2026-01-01 05:43:28.12	313.42	9.40	-54.5	-56.8	15.9	0.00e+00	0	35	0	1115684864	75	4632
2026-01-01 05:43:29.12	313.31	9.34	-54.6	-56.9	15.8	0.00e+00	0	35	0	1117782016	75	4685
2026-01-01 05:43:30.12	313.21	9.27	-54.4	-56.7	16.0	0.00e+00	0	35	0	1118830592	75	4554
2026-01-01 05:43:31.11	313.10	9.20	-54.2	-56.4	16.1	0.00e+00	0	35	0	1120927744	74	4671
2026-01-01 05:43:32.12	313.00	9.14	-54.2	-56.4	16.1	0.00e+00	0	35	0	1123024896	74	4688
2026-01-01 05:43:33.12	312.89	9.07	-54.1	-56.2	16.2	0.00e+00	0	35	0	1125122048	74	4553
2026-01-01 05:43:34.12	312.79	9.00	-54.3	-56.4	16.1	0.00e+00	0	35	0	1126170624	74	4703
2026-01-01 05:43:35.12	312.68	8.94	-54.3	-56.5	16.0	0.00e+00	0	35	0	1128267776	74	4719
2026-01-01 05:43:36.12	312.58	8.87	-54.3	-56.6	16.0	0.00e+00	0	35	0	1130364928	74	4768
2026-01-01 05:43:37.13	312.48	8.80	-54.5	-56.7	15.9	0.00e+00	0	35	0	1132462080	74	4854
2026-01-01 05:43:38.13	312.37	8.74	-54.5	-56.8	15.9	0.00e+00	0	35	0	1134559232	74	4907
2026-01-01 05:43:39.13	312.27	8.67	-54.8	-57.2	15.7	0.00e+00	0	35	0	1135607808	74	5105
2026-01-01 05:43:40.13	312.17	8.60	-54.7	-57.0	15.7	0.00e+00	0	35	0	1137704960	74	5041
2026-01-01 05:43:41.13	312.07	8.54	-54.8	-57.2	15.6	0.00e+00	0	35	0	1139802112	74	5158
2026-01-01 05:43:42.13	311.97	8.47	-54.8	-57.2	15.6	0.00e+00	0	35	0	1141899264	75	4848
2026-01-01 05:43:43.13	311.87	8.41	-54.8	-57.2	15.7	0.00e+00	0	35	0	1143996416	75	4835
2026-01-01 05:43:44.14	311.77	8.34	-54.7	-57.1	15.7	0.00e+00	0	35	0	1145044992	75	4774
2026-01-01 05:43:45.14	311.67	8.27	-54.7	-57.1	15.8	0.00e+00	0	35	0	1147142144	75	4773
2026-01-01 05:43:46.14	311.57	8.21	-54.8	-57.2	15.7	0.00e+00	0	35	0	1149239296	75	4845
2026-01-01 05:43:47.15	311.47	8.14	-54.6	-56.9	15.8	0.00e+00	0	35	0	1151336448	75	4684
2026-01-01 05:43:48.14	311.37	8.08	-54.5	-56.8	15.9	0.00e+00	0	35	0	1153433600	75	4641
2026-01-01 05:43:49.14	311.28	8.01	-54.5	-56.8	15.9	0.00e+00	0	35	0	1154482176	75	4619
2026-01-01 05:43:50.13	311.18	7.95	-54.4	-56.7	15.9	0.00e+00	0	35	0	1156579328	75	4554
2026-01-01 05:43:51.13	311.08	7.88	-54.5	-56.7	15.9	0.00e+00	0	35	0	1158676480	75	4588
2026-01-01 05:43:52.14	310.99	7.82	-54.4	-56.6	15.9	0.00e+00	0	35	0	1160773632	75	4545
2026-01-01 05:43:53.14	310.89	7.75	-54.7	-57.0	15.8	0.00e+00	0	35	0	1162870784	75	4743
2026-01-01 05:43:54.14	310.80	7.69	-54.6	-57.0	15.7	0.00e+00	0	35	0	1163919360	75	4723
2026-01-01 05:43:55.15	310.70	7.62	-54.6	-56.9	15.7	0.00e+00	0	35	0	1166016512	75	4705
2026-01-01 05:43:56.14	310.61	7.56	-54.7	-57.0	15.7	0.00e+00	0	35	0	1168113664	75	4758
2026-01-01 05:43:57.14	310.51	7.49	-54.9	-57.3	15.5	0.00e+00	0	35	0	1170210816	75	4919
2026-01-01 05:43:58.15	310.42	7.43	-54.9	-57.4	15.4	0.00e+00	0	35	0	1171259392	75	4979
2026-01-01 05:43:59.14	310.33	7.37	-55.0	-57.5	15.4	0.00e+00	0	35	0	1173356544	75	5014
2026-01-01 05:44:00.14	310.23	7.30	-55.2	-57.8	15.2	0.00e+00	0	35	0	1175453696	75	5193
2026-01-01 05:44:01.14	310.14	7.24	-55.2	-57.8	15.2	0.00e+00	0	35	0	1177550848	75	5192
2026-01-01 05:44:02.14	310.05	7.17	-55.2	-57.8	15.2	0.00e+00	0	35	0	1179648000	75	5211
2026-01-01 05:44:03.15	309.96	7.11	-55.4	-58.2	15.0	0.00e+00	0	35	0	1180696576	76	5139
2026-01-01 05:44:04.15	309.87	7.04	-55.5	-58.3	14.9	0.00e+00	0	35	0	1182793728	76	5197
2026-01-01 05:44:05.15	309.78	6.98	-55.8	-58.7	14.6	0.00e+00	0	35	0	1184890880	76	5459
2026-01-01 05:44:06.15	309.69	6.92	-55.9	-59.0	14.5	0.00e+00	0	35	0	1186988032	76	5597
2026-01-01 05:44:07.15	309.60	6.85	-56.1	-59.2	14.2	0.00e+00	0	35	0	1189085184	77	5446
2026-01-01 05:44:08.15	309.51	6.79	-55.9	-58.9	14.4	0.00e+00	0	35	0	1190133760	77	5279
2026-01-01 05:44:09.14	309.42	6.73	-56.1	-59.3	14.2	0.00e+00	0	35	0	1192230912	77	5471
2026-01-01 05:44:10.14	309.33	6.66	-56.3	-59.7	14.0	0.00e+00	0	35	0	1194328064	77	5730
2026-01-01 05:44:11.13	309.24	6.60	-56.1	-59.3	14.1	0.00e+00	0	35	0	1196425216	77	5500
2026-01-01 05:44:12.13	309.16	6.54	-56.1	-59.3	14.1	0.00e+00	0	35	0	1197473792	77	5526
2026-01-01 05:44:13.13	309.07	6.47	-56.2	-59.4	14.0	0.00e+00	0	35	0	1199570944	77	5583
2026-01-01 05:44:14.13	308.98	6.41	-56.2	-59.6	13.9	0.00e+00	0	35	0	1201668096	77	5665
2026-01-01 05:44:15.13	308.90	6.35	-56.3	-59.6	13.9	0.00e+00	0	35	0	1203765248	77	5691
2026-01-01 05:44:16.13	308.81	6.29	-56.3	-59.7	13.8	0.00e+00	0	35	0	1205862400	77	5758
2026-01-01 05:44:17.13	308.72	6.22	-56.3	-59.6	13.9	0.00e+00	0	35	0	1206910976	77	5692
2026-01-01 05:44:18.13	308.64	6.16	-56.2	-59.6	13.9	0.00e+00	0	35	0	1209008128	77	5659
2026-01-01 05:44:19.13	308.55	6.10	-56.2	-59.5	14.0	0.00e+00	0	35	0	1211105280	77	5594
2026-01-01 05:44:20.13	308.47	6.03	-56.1	-59.3	14.1	0.00e+00	0	35	0	1213202432	77	5493
2026-01-01 05:44:21.13	308.39	5.97	-56.1	-59.4	14.1	0.00e+00	0	35	0	1214251008	77	5534
