passes_logs/2026/01/01/R3.2S_Murmansk/R3.2S_Murmansk__20260101_213930_KANOPUS-V_4_rec.log

#Pass ID: 20260101_213930_KANOPUS-V 4
#Satellite: KANOPUS-V 4
#Configuration: KANOPUS-V_8320
#almurnet v.1.7.20251203
#Start time: 2026-01-01 21:39:31

#Version: 2.2.20231116
#Station: R3.2S_Murmansk
#Location: 33.079688 lon 68.888172 lat
#TLE: 1 43181U 18014B   25365.57208584  .00000531  00000+0  25305-4 0  9998
#TLE: 2 43181  97.3700 269.4964 0001685  86.9371 273.2058 15.23323021439228

#Time	Az	El	Level	Level2	SNR	BER	BlckErr	Temp	State	Recorded	gain1	gain2
2026-01-01 21:39:31.56	20.99	2.10	-60.9	-70.6	3.8	7.46e-01	0	32	0	0	86	10733
2026-01-01 21:39:32.56	21.02	2.17	-60.9	-70.6	3.8	7.46e-01	0	31	104	0	86	10704
2026-01-01 21:39:33.55	21.06	2.24	-60.9	-70.6	3.8	7.46e-01	0	31	104	0	86	10658
2026-01-01 21:39:34.56	21.09	2.31	-60.9	-70.6	3.8	7.45e-01	0	32	104	0	86	10687
2026-01-01 21:39:35.55	21.13	2.38	-60.9	-70.6	3.8	7.46e-01	0	32	104	0	86	10701
2026-01-01 21:39:36.55	21.16	2.45	-60.9	-70.6	3.8	7.46e-01	0	32	104	0	86	10701
2026-01-01 21:39:37.55	21.20	2.52	-60.9	-70.6	3.8	7.46e-01	0	32	104	0	86	10704
2026-01-01 21:39:38.55	21.24	2.59	-60.9	-70.6	3.8	7.45e-01	0	32	104	0	86	10726
2026-01-01 21:39:39.56	21.27	2.66	-60.9	-70.6	3.8	7.46e-01	0	32	104	0	86	10730
2026-01-01 21:39:40.55	21.31	2.73	-60.9	-70.6	3.8	7.47e-01	0	32	104	0	86	10714
2026-01-01 21:39:41.55	21.35	2.80	-60.9	-70.6	3.8	7.47e-01	0	32	104	0	86	10667
2026-01-01 21:39:42.54	21.38	2.87	-60.9	-70.6	3.8	7.45e-01	0	32	104	0	86	10720
2026-01-01 21:39:43.55	21.42	2.94	-60.9	-70.6	3.8	7.46e-01	0	32	104	0	86	10710
2026-01-01 21:39:44.55	21.46	3.01	-60.9	-70.6	3.8	7.47e-01	0	32	104	0	86	10720
2026-01-01 21:39:45.55	21.49	3.09	-60.9	-70.6	3.8	7.46e-01	0	32	104	0	86	10698
2026-01-01 21:39:46.55	21.53	3.16	-60.9	-70.6	3.8	7.45e-01	0	32	104	0	86	10690
2026-01-01 21:39:47.55	21.57	3.23	-60.9	-70.6	3.8	7.45e-01	0	32	104	0	86	10707
2026-01-01 21:39:48.54	21.61	3.30	-60.9	-70.6	3.8	7.46e-01	0	32	104	0	86	10666
2026-01-01 21:39:49.53	21.64	3.38	-60.9	-70.6	3.8	7.47e-01	0	32	104	0	86	10738
2026-01-01 21:39:50.53	21.68	3.45	-60.9	-70.6	3.8	7.46e-01	0	32	104	0	86	10708
2026-01-01 21:39:51.54	21.72	3.52	-60.9	-70.6	3.8	7.46e-01	0	32	104	0	86	10712
2026-01-01 21:39:52.54	21.76	3.60	-60.9	-70.6	3.8	7.46e-01	0	32	104	0	86	10700
2026-01-01 21:39:53.54	21.80	3.67	-60.9	-70.6	3.8	7.45e-01	0	32	104	0	86	10676
2026-01-01 21:39:54.54	21.84	3.74	-60.9	-70.6	3.8	7.45e-01	0	32	104	0	86	10719
2026-01-01 21:39:55.54	21.88	3.82	-60.9	-70.6	3.8	7.46e-01	0	32	104	0	86	10719
2026-01-01 21:39:56.55	21.92	3.89	-60.9	-70.6	3.8	7.47e-01	0	32	104	0	86	10685
2026-01-01 21:39:57.55	21.96	3.97	-60.9	-70.6	3.8	7.46e-01	0	32	104	0	86	10683
2026-01-01 21:39:58.55	22.00	4.04	-60.9	-70.6	3.8	7.45e-01	0	32	104	0	86	10672
2026-01-01 21:39:59.55	22.04	4.12	-60.9	-70.6	3.8	7.46e-01	0	32	104	0	86	10690
2026-01-01 21:40:00.55	22.08	4.19	-60.8	-70.6	3.8	7.44e-01	0	32	104	0	86	10659
2026-01-01 21:40:01.56	22.12	4.27	-60.8	-70.5	3.8	7.45e-01	0	32	104	0	86	10653
2026-01-01 21:40:02.55	22.16	4.35	-60.9	-70.5	3.8	7.44e-01	0	32	104	0	86	10655
2026-01-01 21:40:03.55	22.20	4.42	-60.9	-70.6	3.8	7.45e-01	0	32	104	0	86	10673
2026-01-01 21:40:04.56	22.25	4.50	-60.8	-70.6	3.8	7.46e-01	0	32	104	0	86	10676
2026-01-01 21:40:05.56	22.29	4.58	-60.9	-70.6	3.8	7.45e-01	0	32	104	0	86	10721
2026-01-01 21:40:06.56	22.33	4.66	-60.8	-70.5	3.8	7.46e-01	0	32	104	0	86	10647
2026-01-01 21:40:07.56	22.37	4.73	-60.8	-70.6	3.8	7.47e-01	0	32	104	0	86	10691
2026-01-01 21:40:08.56	22.42	4.81	-60.9	-70.6	3.8	7.45e-01	0	32	104	0	86	10676
2026-01-01 21:40:09.56	22.46	4.89	-60.8	-70.6	3.8	7.46e-01	0	32	104	0	86	10690
2026-01-01 21:40:10.56	22.50	4.97	-60.8	-70.6	3.8	7.46e-01	0	32	104	0	86	10717
2026-01-01 21:40:11.56	22.55	5.05	-61.0	-70.7	3.8	7.45e-01	0	32	104	0	86	10835
2026-01-01 21:40:12.56	22.59	5.13	-61.0	-70.7	3.8	7.46e-01	0	33	104	0	86	10812
2026-01-01 21:40:13.56	22.63	5.21	-60.9	-70.6	3.8	7.44e-01	0	32	104	0	86	10704
2026-01-01 21:40:14.56	22.68	5.29	-60.8	-70.5	3.8	7.46e-01	0	33	104	0	86	10635
2026-01-01 21:40:15.56	22.72	5.37	-60.9	-70.6	3.8	7.45e-01	0	32	104	0	86	10762
2026-01-01 21:40:16.56	22.77	5.45	-61.0	-70.7	3.8	7.43e-01	0	32	104	0	86	10831
2026-01-01 21:40:17.55	22.81	5.53	-60.9	-70.6	3.8	7.48e-01	0	32	104	0	86	10714
2026-01-01 21:40:18.55	22.86	5.61	-60.8	-70.6	3.8	7.44e-01	0	32	104	0	86	10684
2026-01-01 21:40:19.55	22.90	5.69	-60.9	-70.6	3.8	7.45e-01	0	32	104	0	86	10756
2026-01-01 21:40:20.54	22.95	5.77	-61.0	-70.7	3.8	7.45e-01	0	33	104	0	86	10884
2026-01-01 21:40:21.54	23.00	5.85	-60.9	-70.7	3.8	7.46e-01	0	32	104	0	86	10796
2026-01-01 21:40:22.53	23.04	5.93	-60.9	-70.6	3.8	7.48e-01	0	33	104	0	86	10677
2026-01-01 21:40:23.53	23.09	6.02	-60.9	-70.7	3.8	7.46e-01	0	32	104	0	86	10804
2026-01-01 21:40:24.53	23.14	6.10	-61.0	-70.8	3.8	7.45e-01	0	33	104	0	86	10912
2026-01-01 21:40:25.52	23.18	6.18	-61.0	-70.6	3.8	7.46e-01	0	33	104	0	86	10763
2026-01-01 21:40:26.52	23.23	6.27	-60.9	-70.6	3.8	7.45e-01	0	33	104	0	86	10728
2026-01-01 21:40:27.51	23.28	6.35	-61.0	-70.7	3.8	7.44e-01	0	32	104	0	86	10825
2026-01-01 21:40:28.51	23.33	6.43	-61.1	-70.8	3.8	7.46e-01	0	33	104	0	86	10945
2026-01-01 21:40:29.51	23.38	6.52	-61.0	-70.7	3.8	7.46e-01	0	33	104	0	86	10859
2026-01-01 21:40:30.51	23.43	6.60	-60.9	-70.6	3.8	7.46e-01	0	33	104	0	86	10705
2026-01-01 21:40:31.51	23.47	6.69	-61.0	-70.7	3.8	7.47e-01	0	33	104	0	86	10854
2026-01-01 21:40:32.52	23.53	6.78	-61.1	-70.8	3.8	7.45e-01	0	33	104	0	86	10981
2026-01-01 21:40:33.51	23.57	6.86	-61.0	-70.8	3.8	7.46e-01	0	32	104	0	86	10941
2026-01-01 21:40:34.51	23.63	6.95	-61.0	-70.7	3.8	7.46e-01	0	33	104	0	86	10822
2026-01-01 21:40:35.50	23.68	7.03	-61.0	-70.7	3.8	7.43e-01	0	33	104	0	86	10888
2026-01-01 21:40:36.51	23.73	7.12	-61.1	-70.8	3.8	7.45e-01	0	33	104	0	86	11020
2026-01-01 21:40:37.51	23.78	7.21	-61.0	-70.7	3.8	7.45e-01	0	33	104	0	86	10896
2026-01-01 21:40:38.50	23.83	7.30	-61.0	-70.7	3.8	7.44e-01	0	33	104	0	86	10873
2026-01-01 21:40:39.49	23.88	7.39	-61.0	-70.8	3.8	7.46e-01	0	33	104	0	86	10922
2026-01-01 21:40:40.48	23.93	7.47	-61.1	-70.9	3.8	7.46e-01	0	33	104	0	86	11047
2026-01-01 21:40:41.49	23.99	7.56	-61.1	-70.8	3.8	7.46e-01	0	33	104	0	86	10981
2026-01-01 21:40:42.49	24.04	7.65	-61.0	-70.7	3.8	7.44e-01	0	33	104	0	86	10881
2026-01-01 21:40:43.48	24.09	7.74	-61.1	-70.8	3.8	7.45e-01	0	33	104	0	86	10941
2026-01-01 21:40:44.48	24.15	7.83	-61.2	-70.9	3.8	7.46e-01	0	33	104	0	86	11031
2026-01-01 21:40:45.48	24.20	7.93	-61.1	-70.8	3.8	7.43e-01	0	33	104	0	86	11013
2026-01-01 21:40:46.49	24.26	8.02	-61.0	-70.8	3.8	7.44e-01	0	33	104	0	86	10934
2026-01-01 21:40:47.48	24.31	8.11	-61.1	-70.8	3.8	7.45e-01	0	33	104	0	86	10966
2026-01-01 21:40:48.49	24.37	8.20	-61.2	-70.9	3.8	7.44e-01	0	33	104	0	86	11102
2026-01-01 21:40:49.49	24.43	8.30	-61.1	-70.9	3.8	7.46e-01	0	33	104	0	86	11054
2026-01-01 21:40:50.49	24.48	8.39	-61.1	-70.8	3.8	7.44e-01	0	33	104	0	86	10965
2026-01-01 21:40:51.49	24.54	8.48	-61.1	-70.8	3.8	7.46e-01	0	33	104	0	86	10995
2026-01-01 21:40:52.49	24.60	8.58	-61.2	-70.9	3.8	7.45e-01	0	33	104	0	86	11126
2026-01-01 21:40:53.49	24.65	8.67	-61.2	-70.8	3.8	7.45e-01	0	33	104	0	86	11029
2026-01-01 21:40:54.48	24.71	8.77	-61.1	-70.8	3.8	7.46e-01	0	33	104	0	86	11005
2026-01-01 21:40:55.48	24.77	8.86	-61.1	-70.9	3.8	7.45e-01	0	33	104	0	86	11030
2026-01-01 21:40:56.48	24.83	8.96	-61.2	-70.9	3.8	7.45e-01	0	33	104	0	86	11137
2026-01-01 21:40:57.48	24.89	9.05	-61.2	-70.9	3.8	7.46e-01	0	33	104	0	86	11082
2026-01-01 21:40:58.48	24.95	9.15	-61.1	-70.9	3.8	7.46e-01	0	33	104	0	86	11056
2026-01-01 21:40:59.47	25.01	9.25	-61.2	-70.9	3.8	7.46e-01	0	33	104	0	86	11041
2026-01-01 21:41:00.47	25.07	9.35	-61.2	-71.0	3.8	7.47e-01	0	33	104	0	86	11181
2026-01-01 21:41:01.47	25.13	9.44	-61.2	-70.9	3.8	7.45e-01	0	33	104	0	86	11150
2026-01-01 21:41:02.47	25.19	9.54	-61.2	-70.9	3.8	7.45e-01	0	33	104	0	86	11048
2026-01-01 21:41:03.47	25.26	9.64	-61.2	-70.9	3.8	7.45e-01	0	33	104	0	86	11110
2026-01-01 21:41:04.48	25.32	9.74	-61.3	-71.0	3.8	7.45e-01	0	33	104	0	86	11165
2026-01-01 21:41:05.47	25.38	9.84	-61.3	-71.0	3.8	7.46e-01	0	33	104	0	86	11169
2026-01-01 21:41:06.47	25.45	9.94	-61.2	-70.9	3.8	7.45e-01	0	33	104	0	86	11130
2026-01-01 21:41:07.47	25.51	10.05	-61.2	-70.9	3.8	7.46e-01	0	33	104	0	86	11132
2026-01-01 21:41:08.47	25.58	10.15	-61.3	-71.0	3.8	7.45e-01	0	33	104	0	86	11263
2026-01-01 21:41:09.47	25.64	10.25	-61.3	-71.0	3.8	7.47e-01	0	33	104	0	86	11222
2026-01-01 21:41:10.47	25.71	10.35	-61.2	-70.9	3.8	7.45e-01	0	33	104	0	86	11149
2026-01-01 21:41:11.47	25.77	10.46	-61.2	-71.0	3.8	7.45e-01	0	33	104	0	86	11175
2026-01-01 21:41:12.46	25.84	10.56	-61.3	-71.0	3.8	7.45e-01	0	33	104	0	86	11281
2026-01-01 21:41:13.46	25.91	10.67	-61.3	-71.0	3.8	7.46e-01	0	33	104	0	86	11242
2026-01-01 21:41:14.47	25.98	10.77	-61.3	-71.0	3.8	7.44e-01	0	33	104	0	86	11163
2026-01-01 21:41:15.46	26.05	10.88	-61.3	-71.0	3.8	7.44e-01	0	33	104	0	86	11231
2026-01-01 21:41:16.46	26.12	10.98	-61.4	-71.0	3.8	7.45e-01	0	33	104	0	86	11281
2026-01-01 21:41:17.46	26.18	11.09	-61.3	-71.1	3.8	7.46e-01	0	33	104	0	86	11287
2026-01-01 21:41:18.46	26.26	11.20	-61.3	-71.0	3.8	7.44e-01	0	33	104	0	86	11230
2026-01-01 21:41:19.46	26.33	11.31	-61.3	-71.0	3.8	7.45e-01	0	33	104	0	86	11267
2026-01-01 21:41:20.45	26.40	11.42	-61.4	-71.1	3.8	7.47e-01	0	33	104	0	86	11354
2026-01-01 21:41:21.46	26.47	11.53	-61.3	-71.1	3.8	7.46e-01	0	33	104	0	86	11290
2026-01-01 21:41:22.45	26.54	11.64	-61.3	-71.0	3.8	7.46e-01	0	33	104	0	86	11244
2026-01-01 21:41:23.44	26.62	11.75	-61.3	-71.1	3.8	7.43e-01	0	33	104	0	86	11295
2026-01-01 21:41:24.44	26.69	11.86	-61.4	-71.1	3.8	7.45e-01	0	33	104	0	86	11369
2026-01-01 21:41:25.44	26.76	11.97	-61.4	-71.1	3.8	7.47e-01	0	33	104	0	86	11358
2026-01-01 21:41:26.43	26.84	12.08	-61.3	-71.0	3.8	7.47e-01	0	33	104	0	86	11279
2026-01-01 21:41:27.43	26.92	12.19	-61.3	-71.1	3.8	7.45e-01	0	33	104	0	86	11308
2026-01-01 21:41:28.44	26.99	12.31	-61.4	-71.1	3.8	7.45e-01	0	33	104	0	86	11371
2026-01-01 21:41:29.44	27.07	12.42	-61.4	-71.1	3.8	7.45e-01	0	33	104	0	86	11380
2026-01-01 21:41:30.43	27.15	12.54	-61.4	-71.0	3.8	7.45e-01	0	33	104	0	86	11264
2026-01-01 21:41:31.43	27.23	12.66	-61.4	-71.1	3.8	7.44e-01	0	33	104	0	86	11333
2026-01-01 21:41:32.43	27.31	12.77	-61.5	-71.2	3.8	7.46e-01	0	33	104	0	86	11450
2026-01-01 21:41:33.43	27.39	12.89	-61.4	-71.1	3.8	7.45e-01	0	33	104	0	86	11375
2026-01-01 21:41:34.43	27.47	13.01	-61.4	-71.1	3.8	7.44e-01	0	33	104	0	86	11362
2026-01-01 21:41:35.43	27.55	13.13	-61.4	-71.1	3.8	7.46e-01	0	33	104	0	86	11403
2026-01-01 21:41:36.43	27.63	13.25	-61.5	-71.2	3.8	7.46e-01	0	33	104	0	86	11475
2026-01-01 21:41:37.43	27.72	13.37	-61.5	-71.2	3.8	7.45e-01	0	33	104	0	86	11463
2026-01-01 21:41:38.42	27.80	13.49	-61.4	-71.1	3.8	7.47e-01	0	33	104	0	86	11389
2026-01-01 21:41:39.41	27.88	13.61	-61.4	-71.1	3.8	7.44e-01	0	33	104	0	86	11383
2026-01-01 21:41:40.41	27.97	13.73	-61.5	-71.2	3.8	7.46e-01	0	33	104	0	86	11508
2026-01-01 21:41:41.41	28.06	13.86	-61.5	-71.2	3.8	7.45e-01	0	33	104	0	86	11523
2026-01-01 21:41:42.41	28.14	13.98	-61.4	-71.1	3.8	7.45e-01	0	33	104	0	86	11384
2026-01-01 21:41:43.41	28.23	14.10	-61.4	-71.2	3.8	7.46e-01	0	33	104	0	86	11442
2026-01-01 21:41:44.41	28.32	14.23	-61.5	-71.2	3.8	7.46e-01	0	33	104	0	86	11518
2026-01-01 21:41:45.41	28.41	14.36	-61.5	-71.2	3.8	7.45e-01	0	33	104	0	86	11502
2026-01-01 21:41:46.41	28.50	14.49	-61.5	-71.2	3.8	7.46e-01	0	33	104	0	86	11426
2026-01-01 21:41:47.41	28.59	14.61	-61.5	-71.2	3.8	7.47e-01	0	33	104	0	86	11484
2026-01-01 21:41:48.40	28.69	14.74	-61.5	-71.2	3.8	7.47e-01	0	33	104	0	86	11542
2026-01-01 21:41:49.40	28.78	14.87	-61.5	-71.3	3.8	7.44e-01	0	33	104	0	86	11566
2026-01-01 21:41:50.40	28.87	15.00	-61.5	-71.2	3.8	7.47e-01	0	33	104	0	86	11512
2026-01-01 21:41:51.41	28.97	15.14	-61.5	-71.2	3.8	7.46e-01	0	33	104	0	86	11534
2026-01-01 21:41:52.41	29.07	15.27	-61.6	-71.3	3.8	7.45e-01	0	33	104	0	86	11593
2026-01-01 21:41:53.40	29.16	15.40	-61.6	-71.3	3.8	7.45e-01	0	33	104	0	86	11630
2026-01-01 21:41:54.40	29.26	15.54	-61.5	-71.2	3.8	7.46e-01	0	33	104	0	86	11528
2026-01-01 21:41:55.40	29.36	15.67	-61.5	-71.2	3.8	7.45e-01	0	33	104	0	86	11530
2026-01-01 21:41:56.39	29.46	15.81	-61.6	-71.4	3.8	7.45e-01	0	33	104	0	86	11688
2026-01-01 21:41:57.40	29.56	15.94	-61.6	-71.3	3.8	7.47e-01	0	33	104	0	86	11642
2026-01-01 21:41:58.40	29.66	16.08	-61.5	-71.2	3.8	7.46e-01	0	33	104	0	86	11545
2026-01-01 21:41:59.40	29.77	16.22	-61.6	-71.3	3.8	7.46e-01	0	33	104	0	86	11607
2026-01-01 21:42:00.40	29.87	16.36	-61.6	-71.3	3.8	7.47e-01	0	33	104	0	86	11652
2026-01-01 21:42:01.40	29.98	16.50	-61.6	-71.3	3.8	7.46e-01	0	33	104	0	86	11670
2026-01-01 21:42:02.40	30.09	16.64	-61.6	-71.3	3.8	7.46e-01	0	34	104	0	86	11622
2026-01-01 21:42:03.39	30.19	16.79	-61.6	-71.3	3.8	7.47e-01	0	33	104	0	86	11597
2026-01-01 21:42:04.39	30.30	16.93	-61.6	-71.4	3.8	7.45e-01	0	33	104	0	86	11686
2026-01-01 21:42:05.38	30.41	17.07	-61.6	-71.4	3.8	7.45e-01	0	33	104	0	86	11696
2026-01-01 21:42:06.38	30.52	17.22	-61.6	-71.3	3.8	7.46e-01	0	33	104	0	86	11592
2026-01-01 21:42:07.38	30.63	17.37	-61.6	-71.3	3.8	7.47e-01	0	33	104	0	86	11662
2026-01-01 21:42:08.39	30.75	17.52	-61.7	-71.4	3.8	7.45e-01	0	33	104	0	86	11759
2026-01-01 21:42:09.39	30.87	17.67	-61.6	-71.3	3.8	7.45e-01	0	33	104	0	86	11658
2026-01-01 21:42:10.39	30.98	17.82	-61.6	-71.3	3.8	7.45e-01	0	33	104	0	86	11656
2026-01-01 21:42:11.39	31.10	17.97	-61.6	-71.3	3.8	7.45e-01	0	33	104	0	86	11635
2026-01-01 21:42:12.40	31.22	18.12	-61.7	-71.4	3.8	7.46e-01	0	33	104	0	86	11796
2026-01-01 21:42:13.40	31.34	18.28	-61.7	-71.4	3.8	7.47e-01	0	33	104	0	86	11731
2026-01-01 21:42:14.40	31.46	18.43	-61.6	-71.3	3.8	7.46e-01	0	33	104	0	86	11677
2026-01-01 21:42:15.39	31.59	18.59	-61.6	-71.4	3.8	7.47e-01	0	33	104	0	86	11688
2026-01-01 21:42:16.39	31.71	18.74	-61.7	-71.4	3.8	7.46e-01	0	33	104	0	86	11815
2026-01-01 21:42:17.39	31.84	18.90	-61.7	-71.4	3.8	7.45e-01	0	33	104	0	86	11781
2026-01-01 21:42:18.39	31.96	19.06	-61.7	-71.4	3.8	7.47e-01	0	33	104	0	86	11735
2026-01-01 21:42:19.40	32.09	19.22	-61.7	-71.4	3.8	7.45e-01	0	33	104	0	86	11737
2026-01-01 21:42:20.40	32.23	19.38	-61.7	-71.5	3.8	7.47e-01	0	33	104	0	86	11835
2026-01-01 21:42:21.39	32.36	19.55	-61.7	-71.4	3.8	7.47e-01	0	33	104	0	86	11801
2026-01-01 21:42:22.38	32.49	19.71	-61.7	-71.4	3.8	7.44e-01	0	33	104	0	86	11753
2026-01-01 21:42:23.38	32.62	19.87	-61.7	-71.4	3.8	7.45e-01	0	33	104	0	86	11745
2026-01-01 21:42:24.38	32.76	20.04	-61.8	-71.5	3.8	7.46e-01	0	33	104	0	86	11874
2026-01-01 21:42:25.37	32.90	20.21	-61.8	-71.5	3.8	7.45e-01	0	33	104	0	86	11855
2026-01-01 21:42:26.37	33.04	20.38	-61.7	-71.4	3.8	7.45e-01	0	33	104	0	86	11778
2026-01-01 21:42:27.36	33.18	20.55	-61.7	-71.5	3.8	7.47e-01	0	33	104	0	86	11827
2026-01-01 21:42:28.35	33.32	20.72	-61.8	-71.5	3.8	7.45e-01	0	33	104	0	86	11882
2026-01-01 21:42:29.35	33.47	20.89	-61.8	-71.5	3.8	7.44e-01	0	33	104	0	86	11894
2026-01-01 21:42:30.35	33.62	21.07	-61.7	-71.4	3.8	7.45e-01	0	33	104	0	86	11797
2026-01-01 21:42:31.35	33.77	21.24	-61.8	-71.5	3.8	7.45e-01	0	33	104	0	86	11857
2026-01-01 21:42:32.35	33.92	21.42	-61.8	-71.6	3.8	7.45e-01	0	34	104	0	86	11964
2026-01-01 21:42:33.34	34.07	21.60	-61.8	-71.5	3.8	7.44e-01	0	33	104	0	86	11878
2026-01-01 21:42:34.34	34.22	21.78	-61.8	-71.5	3.8	7.46e-01	0	33	104	0	86	11876
2026-01-01 21:42:35.35	34.38	21.96	-61.8	-71.5	3.8	7.44e-01	0	33	104	0	86	11826
2026-01-01 21:42:36.35	34.54	22.14	-61.8	-71.6	3.8	7.45e-01	0	33	104	0	86	11957
2026-01-01 21:42:37.35	34.70	22.33	-61.8	-71.5	3.8	7.45e-01	0	33	104	0	86	11945
2026-01-01 21:42:38.35	34.87	22.51	-61.8	-71.5	3.8	7.47e-01	0	33	104	0	86	11893
2026-01-01 21:42:39.35	35.03	22.70	-61.8	-71.5	3.8	7.46e-01	0	33	104	0	86	11886
2026-01-01 21:42:40.35	35.20	22.89	-61.9	-71.6	3.8	7.46e-01	0	33	104	0	86	11995
2026-01-01 21:42:41.35	35.37	23.08	-61.8	-71.6	3.8	7.45e-01	0	33	104	0	86	11998
2026-01-01 21:42:42.35	35.54	23.27	-61.8	-71.5	3.8	7.45e-01	0	33	104	0	86	11927
2026-01-01 21:42:43.34	35.72	23.47	-61.8	-71.5	3.8	7.44e-01	0	33	104	0	86	11894
2026-01-01 21:42:44.34	35.89	23.66	-61.9	-71.6	3.8	7.46e-01	0	33	104	0	86	12023
2026-01-01 21:42:45.34	36.07	23.86	-61.9	-71.6	3.8	7.46e-01	0	33	104	0	86	11999
2026-01-01 21:42:46.34	36.26	24.06	-61.8	-71.5	3.8	7.47e-01	0	33	104	0	86	11938
2026-01-01 21:42:47.35	36.44	24.26	-61.8	-71.6	3.8	7.45e-01	0	33	104	0	86	11988
2026-01-01 21:42:48.35	36.63	24.46	-61.9	-71.6	3.8	7.45e-01	0	33	104	0	86	12038
2026-01-01 21:42:49.34	36.82	24.66	-61.9	-71.6	3.8	7.46e-01	0	33	104	0	87	11356
2026-01-01 21:42:50.34	37.01	24.87	-61.8	-71.6	3.8	7.47e-01	0	33	104	0	87	11302
2026-01-01 21:42:51.33	37.20	25.07	-61.9	-71.6	3.8	7.44e-01	0	34	104	0	87	11338
2026-01-01 21:42:52.33	37.40	25.28	-61.9	-71.6	3.8	7.46e-01	0	33	104	0	87	11372
2026-01-01 21:42:53.33	37.60	25.49	-61.9	-71.7	3.8	7.47e-01	0	33	104	0	87	11422
2026-01-01 21:42:54.33	37.81	25.70	-61.9	-71.6	3.8	7.45e-01	0	33	104	0	87	11343
2026-01-01 21:42:55.33	38.01	25.91	-61.9	-71.6	3.8	7.45e-01	0	33	104	0	87	11344
2026-01-01 21:42:56.33	38.22	26.13	-62.0	-71.7	3.8	7.47e-01	0	33	104	0	87	11438
2026-01-01 21:42:57.32	38.43	26.34	-62.0	-71.7	3.8	7.45e-01	0	33	104	0	87	11423
2026-01-01 21:42:58.33	38.65	26.57	-61.9	-71.6	3.8	7.47e-01	0	33	104	0	87	11375
2026-01-01 21:42:59.32	38.87	26.78	-61.9	-71.7	3.8	7.45e-01	0	33	104	0	87	11429
2026-01-01 21:43:00.32	39.09	27.01	-62.0	-71.7	3.8	7.45e-01	0	33	104	0	87	11477
2026-01-01 21:43:01.32	39.32	27.23	-62.0	-71.7	3.8	7.45e-01	0	33	104	0	87	11430
2026-01-01 21:43:02.32	39.55	27.46	-61.9	-71.7	3.8	7.46e-01	0	33	104	0	87	11424
2026-01-01 21:43:03.31	39.78	27.68	-62.0	-71.7	3.8	7.47e-01	0	33	104	0	87	11441
2026-01-01 21:43:04.31	40.02	27.91	-62.0	-71.7	3.8	7.45e-01	0	34	104	0	87	11492
2026-01-01 21:43:05.30	40.25	28.14	-62.0	-71.7	3.8	7.46e-01	0	34	104	0	87	11495
2026-01-01 21:43:06.30	40.50	28.37	-62.0	-71.7	3.8	7.45e-01	0	34	104	0	87	11441
2026-01-01 21:43:07.30	40.75	28.61	-62.0	-71.7	3.8	7.46e-01	0	34	104	0	87	11447
2026-01-01 21:43:08.29	41.00	28.84	-62.0	-71.7	3.8	7.46e-01	0	33	104	0	87	11539
2026-01-01 21:43:09.29	41.25	29.08	-62.0	-71.7	3.8	7.45e-01	0	33	104	0	87	11545
2026-01-01 21:43:10.29	41.51	29.32	-62.0	-71.7	3.8	7.47e-01	0	34	104	0	87	11483
2026-01-01 21:43:11.29	41.78	29.56	-62.0	-71.7	3.8	7.46e-01	0	34	104	0	87	11493
2026-01-01 21:43:12.30	42.05	29.81	-62.1	-71.8	3.8	7.46e-01	0	33	104	0	87	11613
2026-01-01 21:43:13.30	42.32	30.06	-62.1	-71.8	3.8	7.45e-01	0	33	104	0	87	11595
2026-01-01 21:43:14.30	42.60	30.31	-62.0	-71.7	3.8	7.46e-01	0	34	104	0	87	11515
2026-01-01 21:43:15.31	42.88	30.56	-62.0	-71.7	3.8	7.47e-01	0	33	104	0	87	11512
2026-01-01 21:43:16.30	43.17	30.81	-62.1	-71.8	3.8	7.46e-01	0	33	104	0	87	11622
2026-01-01 21:43:17.29	43.46	31.06	-62.1	-71.8	3.8	7.45e-01	0	33	104	0	87	11608
2026-01-01 21:43:18.29	43.75	31.31	-62.0	-71.7	3.8	7.45e-01	0	34	104	0	87	11488
2026-01-01 21:43:19.29	44.06	31.57	-62.0	-71.8	3.8	7.45e-01	0	34	104	0	87	11555
2026-01-01 21:43:20.28	44.36	31.83	-62.1	-71.8	3.8	7.46e-01	0	33	104	0	87	11642
2026-01-01 21:43:21.28	44.67	32.09	-62.1	-71.8	3.8	7.46e-01	0	34	104	0	87	11618
2026-01-01 21:43:22.28	44.99	32.35	-62.1	-71.8	3.8	7.45e-01	0	34	104	0	87	11581
2026-01-01 21:43:23.27	45.31	32.62	-62.1	-71.8	3.8	7.45e-01	0	34	104	0	87	11639
2026-01-01 21:43:24.27	45.64	32.88	-62.1	-71.9	3.8	7.46e-01	0	34	104	0	87	11719
2026-01-01 21:43:25.27	45.97	33.15	-62.1	-71.9	3.8	7.45e-01	0	33	104	0	87	11717
2026-01-01 21:43:26.26	46.31	33.42	-62.1	-71.8	3.8	7.45e-01	0	33	104	0	87	11611
2026-01-01 21:43:27.26	46.66	33.69	-62.1	-71.8	3.8	7.47e-01	0	34	104	0	87	11635
2026-01-01 21:43:28.25	47.00	33.96	-62.2	-71.9	3.8	7.47e-01	0	34	104	0	87	11710
2026-01-01 21:43:29.25	47.36	34.24	-62.2	-71.9	3.8	7.46e-01	0	33	104	0	87	11747
2026-01-01 21:43:30.25	47.73	34.52	-62.1	-71.8	3.8	7.46e-01	0	33	104	0	87	11666
2026-01-01 21:43:31.24	48.10	34.79	-62.1	-71.9	3.8	7.46e-01	0	33	104	0	87	11721
2026-01-01 21:43:32.24	48.48	35.07	-62.2	-71.9	3.8	7.44e-01	0	34	104	0	87	11750
2026-01-01 21:43:33.24	48.86	35.35	-62.2	-71.9	3.8	7.45e-01	0	33	104	0	87	11767
2026-01-01 21:43:34.25	49.26	35.64	-62.1	-71.9	3.8	7.45e-01	0	33	104	0	87	11711
2026-01-01 21:43:35.25	49.66	35.93	-62.2	-71.9	3.8	7.45e-01	0	33	104	0	87	11715
2026-01-01 21:43:36.25	50.06	36.21	-62.2	-71.9	3.8	7.44e-01	0	33	104	0	87	11815
2026-01-01 21:43:37.24	50.48	36.50	-62.2	-71.9	3.8	7.45e-01	0	34	104	0	87	11815
2026-01-01 21:43:38.24	50.90	36.79	-62.2	-71.9	3.8	7.44e-01	0	34	104	0	87	11716
2026-01-01 21:43:39.25	51.33	37.08	-62.2	-71.9	3.8	7.44e-01	0	34	104	0	87	11772
2026-01-01 21:43:40.25	51.77	37.37	-62.2	-72.0	3.8	7.45e-01	0	33	104	0	87	11833
2026-01-01 21:43:41.25	52.22	37.67	-62.2	-72.0	3.8	7.47e-01	0	33	104	0	87	11827
2026-01-01 21:43:42.26	52.68	37.96	-62.2	-71.9	3.8	7.47e-01	0	33	104	0	87	11746
2026-01-01 21:43:43.25	53.14	38.26	-62.2	-72.0	3.8	7.44e-01	0	34	104	0	87	11820
2026-01-01 21:43:44.26	53.62	38.56	-62.2	-72.0	3.8	7.47e-01	0	34	104	0	87	11845
2026-01-01 21:43:45.25	54.09	38.85	-62.2	-72.0	3.8	7.46e-01	0	34	104	0	87	11854
2026-01-01 21:43:46.25	54.59	39.15	-62.2	-71.9	3.8	7.44e-01	0	34	104	0	87	11762
2026-01-01 21:43:47.26	55.09	39.45	-62.2	-71.9	3.8	7.46e-01	0	33	104	0	87	11777
2026-01-01 21:43:48.26	55.60	39.75	-62.3	-71.9	3.8	7.45e-01	0	33	104	0	87	11798
2026-01-01 21:43:49.26	56.12	40.05	-62.3	-72.0	3.8	7.44e-01	0	33	104	0	87	11864
2026-01-01 21:43:50.27	56.66	40.35	-62.2	-71.9	3.8	7.45e-01	0	33	104	0	87	11780
2026-01-01 21:43:51.27	57.20	40.65	-62.2	-72.0	3.8	7.45e-01	0	33	104	0	87	11844
2026-01-01 21:43:52.28	57.76	40.96	-62.3	-72.0	3.8	7.45e-01	0	33	104	0	87	11933
2026-01-01 21:43:53.27	58.32	41.26	-62.3	-72.0	3.8	7.45e-01	0	34	104	0	87	11885
2026-01-01 21:43:54.28	58.90	41.56	-62.2	-71.9	3.8	7.46e-01	0	34	104	0	87	11815
2026-01-01 21:43:55.28	59.48	41.86	-62.3	-72.0	3.8	7.45e-01	0	33	104	0	87	11866
2026-01-01 21:43:56.28	60.08	42.16	-62.3	-72.0	3.8	7.45e-01	0	33	104	0	87	11944
2026-01-01 21:43:57.28	60.69	42.46	-62.3	-72.0	3.8	7.45e-01	0	33	104	0	87	11873
2026-01-01 21:43:58.29	61.31	42.76	-62.3	-72.0	3.8	7.45e-01	0	34	104	0	87	11862
2026-01-01 21:43:59.29	61.94	43.06	-62.3	-72.1	3.8	7.45e-01	0	33	104	0	87	11957
2026-01-01 21:44:00.29	62.59	43.35	-62.3	-72.1	3.8	7.45e-01	0	33	104	0	87	11969
2026-01-01 21:44:01.29	63.24	43.65	-62.3	-72.0	3.8	7.45e-01	0	33	104	0	87	11954
2026-01-01 21:44:02.28	63.91	43.94	-62.3	-72.0	3.8	7.47e-01	0	34	104	0	87	11875
2026-01-01 21:44:03.28	64.59	44.23	-62.3	-72.0	3.8	7.45e-01	0	33	104	0	87	11925
2026-01-01 21:44:04.27	65.28	44.52	-62.3	-72.1	3.8	7.47e-01	0	33	104	0	87	12001
2026-01-01 21:44:05.27	65.98	44.81	-62.3	-72.1	3.8	7.47e-01	0	33	104	0	87	11961
2026-01-01 21:44:06.27	66.70	45.09	-62.3	-72.0	3.8	7.45e-01	0	33	104	0	87	11867
2026-01-01 21:44:07.28	67.45	45.38	-62.3	-72.0	3.8	7.46e-01	0	33	104	0	87	11948
2026-01-01 21:44:08.28	68.19	45.66	-62.4	-72.1	3.8	7.46e-01	0	33	104	0	87	12039
2026-01-01 21:44:09.28	68.95	45.93	-62.4	-72.1	3.8	7.45e-01	0	33	104	0	87	11972
2026-01-01 21:44:10.28	69.73	46.21	-62.3	-72.0	3.8	7.46e-01	0	33	104	0	87	11926
2026-01-01 21:44:11.28	70.52	46.48	-62.4	-72.1	3.8	7.46e-01	0	34	104	0	87	11990
2026-01-01 21:44:12.28	71.32	46.74	-62.4	-72.1	3.8	7.45e-01	0	33	104	0	87	12048
2026-01-01 21:44:13.28	72.14	47.01	-62.4	-72.1	3.8	7.45e-01	0	34	104	0	87	12070
2026-01-01 21:44:14.28	72.97	47.26	-62.3	-72.1	3.8	7.46e-01	0	33	104	0	87	12013
2026-01-01 21:44:15.28	73.82	47.52	-62.4	-72.1	3.8	7.45e-01	0	33	104	0	87	12057
2026-01-01 21:44:16.28	74.68	47.76	-62.4	-72.2	3.8	7.45e-01	0	33	104	0	88	11437
2026-01-01 21:44:17.27	75.54	48.00	-62.4	-72.2	3.8	7.45e-01	0	33	104	0	88	11419
2026-01-01 21:44:18.27	76.43	48.24	-62.4	-72.1	3.8	7.47e-01	0	33	104	0	88	11339
2026-01-01 21:44:19.27	77.33	48.47	-62.4	-72.1	3.8	7.47e-01	0	33	104	0	88	11405
2026-01-01 21:44:20.28	78.26	48.70	-62.4	-72.2	3.8	7.47e-01	0	33	104	0	88	11467
2026-01-01 21:44:21.28	79.19	48.92	-62.4	-72.1	3.8	7.44e-01	0	34	104	0	88	11404
2026-01-01 21:44:22.28	80.13	49.13	-62.4	-72.1	3.8	7.45e-01	0	33	104	0	88	11310
2026-01-01 21:44:23.27	81.07	49.34	-62.4	-72.1	3.8	7.45e-01	0	34	104	0	88	11388
2026-01-01 21:44:24.27	82.04	49.53	-62.5	-72.2	3.8	7.46e-01	0	34	104	0	88	11422
2026-01-01 21:44:25.26	83.01	49.72	-62.4	-72.1	3.8	7.44e-01	0	34	104	0	88	11399
2026-01-01 21:44:26.25	84.00	49.90	-62.4	-72.1	3.8	7.45e-01	0	33	104	0	88	11396
2026-01-01 21:44:27.25	85.00	50.08	-62.4	-72.2	3.8	7.46e-01	0	34	104	0	88	11462
2026-01-01 21:44:28.25	86.02	50.24	-62.5	-72.2	3.8	7.45e-01	0	34	104	0	88	11486
2026-01-01 21:44:29.25	87.05	50.40	-62.5	-72.2	3.8	7.45e-01	0	33	104	0	88	11447
2026-01-01 21:44:30.24	88.08	50.55	-62.4	-72.1	3.8	7.45e-01	0	33	104	0	88	11405
2026-01-01 21:44:31.24	89.13	50.69	-62.5	-72.2	3.8	7.45e-01	0	33	104	0	88	11456
2026-01-01 21:44:32.24	90.19	50.82	-62.5	-72.2	3.8	7.44e-01	0	33	104	0	88	11484
2026-01-01 21:44:33.24	91.25	50.94	-62.5	-72.2	3.8	7.46e-01	0	33	104	0	88	11436
2026-01-01 21:44:34.24	92.33	51.05	-62.4	-72.1	3.8	7.46e-01	0	33	104	0	88	11410
2026-01-01 21:44:35.24	93.41	51.15	-62.5	-72.2	3.8	7.44e-01	0	33	104	0	88	11487
2026-01-01 21:44:36.23	94.49	51.24	-62.5	-72.2	3.8	7.45e-01	0	34	104	0	88	11479
2026-01-01 21:44:37.23	95.59	51.32	-62.5	-72.2	3.8	7.45e-01	0	33	104	0	88	11483
2026-01-01 21:44:38.22	96.68	51.39	-62.4	-72.1	3.8	7.45e-01	0	34	104	0	88	11404
2026-01-01 21:44:39.22	97.79	51.45	-62.5	-72.2	3.8	7.45e-01	0	33	104	0	88	11494
2026-01-01 21:44:40.22	98.90	51.49	-62.5	-72.2	3.8	7.45e-01	0	34	104	0	88	11521
2026-01-01 21:44:41.21	100.01	51.53	-62.5	-72.2	3.8	7.45e-01	0	34	104	0	88	11495
2026-01-01 21:44:42.21	101.13	51.56	-62.4	-72.1	3.8	7.46e-01	0	34	104	0	88	11398
2026-01-01 21:44:43.21	102.25	51.57	-62.5	-72.2	3.8	7.46e-01	0	34	104	0	88	11467
2026-01-01 21:44:44.21	103.37	51.58	-62.5	-72.2	3.8	7.47e-01	0	34	104	0	88	11493
2026-01-01 21:44:45.20	104.47	51.57	-62.5	-72.2	3.8	7.45e-01	0	34	104	0	88	11468
2026-01-01 21:44:46.21	105.61	51.55	-62.4	-72.2	3.8	7.46e-01	0	34	104	0	88	11469
2026-01-01 21:44:47.22	106.73	51.52	-62.5	-72.2	3.8	7.47e-01	0	34	104	0	88	11463
2026-01-01 21:44:48.21	107.84	51.48	-62.5	-72.2	3.8	7.46e-01	0	34	104	0	88	11472
2026-01-01 21:44:49.22	108.96	51.43	-62.5	-72.2	3.8	7.46e-01	0	33	104	0	88	11465
2026-01-01 21:44:50.21	110.06	51.37	-62.4	-72.1	3.8	7.46e-01	0	33	104	0	88	11393
2026-01-01 21:44:51.21	111.16	51.30	-62.5	-72.2	3.8	7.47e-01	0	34	104	0	88	11477
2026-01-01 21:44:52.22	112.27	51.22	-62.5	-72.2	3.8	7.44e-01	0	33	104	0	88	11529
2026-01-01 21:44:53.22	113.36	51.12	-62.5	-72.2	3.8	7.46e-01	0	34	104	0	88	11463
2026-01-01 21:44:54.23	114.45	51.02	-62.4	-72.2	3.8	7.46e-01	0	34	104	0	88	11422
2026-01-01 21:44:55.22	115.52	50.91	-62.5	-72.2	3.8	7.47e-01	0	33	104	0	88	11468
2026-01-01 21:44:56.23	116.59	50.78	-62.5	-72.2	3.8	7.46e-01	0	34	104	0	88	11525
2026-01-01 21:44:57.23	117.65	50.65	-62.5	-72.2	3.8	7.47e-01	0	34	104	0	88	11454
2026-01-01 21:44:58.23	118.70	50.51	-62.4	-72.2	3.8	7.48e-01	0	34	104	0	88	11423
2026-01-01 21:44:59.22	119.72	50.36	-62.5	-72.2	3.8	7.45e-01	0	33	104	0	88	11457
2026-01-01 21:45:00.22	120.75	50.20	-62.5	-72.2	3.8	7.46e-01	0	34	104	0	88	11465
2026-01-01 21:45:01.22	121.77	50.03	-62.5	-72.2	3.8	7.46e-01	0	34	104	0	88	11501
2026-01-01 21:45:02.22	122.77	49.85	-62.4	-72.1	3.8	7.47e-01	0	34	104	0	88	11407
2026-01-01 21:45:03.22	123.76	49.67	-62.5	-72.2	3.8	7.45e-01	0	34	104	0	88	11444
2026-01-01 21:45:04.22	124.74	49.47	-62.5	-72.2	3.8	7.45e-01	0	34	104	0	88	11467
2026-01-01 21:45:05.22	125.71	49.27	-62.5	-72.2	3.8	7.46e-01	0	34	104	0	88	11457
2026-01-01 21:45:06.22	126.66	49.07	-62.4	-72.1	3.8	7.45e-01	0	34	104	0	88	11364
2026-01-01 21:45:07.22	127.60	48.85	-62.4	-72.1	3.8	7.45e-01	0	34	104	0	88	11396
2026-01-01 21:45:08.22	128.53	48.63	-62.5	-72.2	3.8	7.44e-01	0	34	104	0	88	11463
2026-01-01 21:45:09.22	129.44	48.40	-62.4	-72.2	3.8	7.46e-01	0	34	104	0	88	11468
2026-01-01 21:45:10.22	130.34	48.17	-62.4	-72.1	3.8	7.45e-01	0	34	104	0	88	11339
2026-01-01 21:45:11.22	131.22	47.93	-62.4	-72.2	3.8	7.47e-01	0	33	104	0	88	11446
2026-01-01 21:45:12.22	132.09	47.68	-62.4	-72.2	3.8	7.46e-01	0	34	104	0	88	11444
2026-01-01 21:45:13.22	132.95	47.43	-62.4	-72.1	3.8	7.44e-01	0	34	104	0	88	11343
2026-01-01 21:45:14.22	133.79	47.18	-62.4	-72.1	3.8	7.46e-01	0	34	104	0	88	11322
2026-01-01 21:45:15.22	134.62	46.92	-62.4	-72.1	3.8	7.46e-01	0	34	104	0	88	11373
2026-01-01 21:45:16.23	135.45	46.65	-62.4	-72.1	3.8	7.44e-01	0	34	104	0	88	11401
2026-01-01 21:45:17.22	136.24	46.39	-62.4	-72.1	3.8	7.44e-01	0	34	104	0	88	11353
2026-01-01 21:45:18.22	137.02	46.11	-62.3	-72.0	3.8	7.45e-01	0	34	104	0	88	11284
2026-01-01 21:45:19.22	137.80	45.84	-62.4	-72.1	3.8	7.45e-01	0	34	104	0	88	11358
2026-01-01 21:45:20.22	138.56	45.56	-62.4	-72.1	3.8	7.45e-01	0	33	104	0	88	11375
2026-01-01 21:45:21.22	139.30	45.28	-62.4	-72.1	3.8	7.45e-01	0	34	104	0	88	11334
2026-01-01 21:45:22.22	140.03	44.99	-62.3	-72.1	3.8	7.46e-01	0	33	104	0	88	11301
2026-01-01 21:45:23.22	140.75	44.71	-62.4	-72.1	3.8	7.45e-01	0	33	104	0	88	11347
2026-01-01 21:45:24.22	141.46	44.42	-62.4	-72.1	3.8	7.46e-01	0	34	104	0	88	11365
2026-01-01 21:45:25.22	142.15	44.13	-62.4	-72.1	3.8	7.45e-01	0	34	104	0	88	11353
2026-01-01 21:45:26.22	142.83	43.83	-62.3	-72.1	3.8	7.46e-01	0	33	104	0	88	11291
2026-01-01 21:45:27.22	143.49	43.54	-62.4	-72.1	3.8	7.44e-01	0	34	104	0	88	11333
2026-01-01 21:45:28.21	144.14	43.24	-62.3	-72.1	3.8	7.46e-01	0	34	104	0	88	11292
2026-01-01 21:45:29.21	144.78	42.95	-62.3	-72.1	3.8	7.45e-01	0	34	104	0	88	11333
2026-01-01 21:45:30.21	145.41	42.65	-62.3	-72.0	3.8	7.45e-01	0	34	104	0	88	11226
2026-01-01 21:45:31.21	146.03	42.35	-62.3	-72.1	3.8	7.45e-01	0	34	104	0	88	11312
2026-01-01 21:45:32.20	146.63	42.05	-62.3	-72.0	3.8	7.46e-01	0	34	104	0	88	11284
2026-01-01 21:45:33.20	147.22	41.75	-62.3	-72.1	3.8	7.46e-01	0	34	104	0	88	11288
2026-01-01 21:45:34.20	147.81	41.45	-62.3	-72.0	3.8	7.47e-01	0	34	104	0	88	11230
2026-01-01 21:45:35.20	148.38	41.15	-62.3	-72.0	3.8	7.46e-01	0	33	104	0	88	11237
2026-01-01 21:45:36.19	148.93	40.85	-62.3	-72.0	3.8	7.44e-01	0	34	104	0	88	11245
2026-01-01 21:45:37.19	149.48	40.55	-62.3	-72.0	3.8	7.45e-01	0	34	104	0	88	11224
2026-01-01 21:45:38.19	150.02	40.24	-62.3	-72.0	3.8	7.47e-01	0	33	104	0	88	11230
2026-01-01 21:45:39.19	150.55	39.94	-62.3	-72.0	3.8	7.46e-01	0	34	104	0	88	11239
2026-01-01 21:45:40.19	151.07	39.64	-62.3	-72.0	3.8	7.46e-01	0	33	104	0	88	11227
2026-01-01 21:45:41.19	151.58	39.34	-62.3	-72.0	3.8	7.45e-01	0	34	104	0	88	11247
2026-01-01 21:45:42.19	152.08	39.04	-62.2	-72.0	3.8	7.44e-01	0	34	104	0	88	11168
2026-01-01 21:45:43.19	152.57	38.74	-62.3	-72.0	3.8	7.46e-01	0	33	104	0	88	11189
2026-01-01 21:45:44.18	153.05	38.45	-62.2	-72.0	3.8	7.45e-01	0	34	104	0	88	11223
2026-01-01 21:45:45.18	153.52	38.15	-62.3	-72.0	3.8	7.46e-01	0	34	104	0	88	11212
2026-01-01 21:45:46.18	153.98	37.85	-62.2	-71.9	3.8	7.46e-01	0	33	104	0	88	11154
2026-01-01 21:45:47.18	154.44	37.56	-62.2	-71.9	3.8	7.46e-01	0	34	104	0	88	11127
2026-01-01 21:45:48.18	154.88	37.26	-62.2	-72.0	3.8	7.45e-01	0	34	104	0	88	11170
2026-01-01 21:45:49.18	155.32	36.97	-62.2	-72.0	3.8	7.46e-01	0	34	104	0	88	11164
2026-01-01 21:45:50.18	155.75	36.68	-62.2	-71.9	3.8	7.45e-01	0	33	104	0	88	11144
2026-01-01 21:45:51.18	156.17	36.39	-62.2	-71.9	3.8	7.45e-01	0	33	104	0	88	11141
2026-01-01 21:45:52.18	156.59	36.10	-62.2	-71.9	3.8	7.44e-01	0	33	104	0	88	11074
2026-01-01 21:45:53.17	156.99	35.81	-62.2	-71.9	3.8	7.45e-01	0	34	104	0	88	11068
2026-01-01 21:45:54.17	157.39	35.53	-62.2	-71.9	3.8	7.46e-01	0	34	104	0	88	11111
2026-01-01 21:45:55.16	157.78	35.25	-62.2	-71.9	3.8	7.46e-01	0	33	104	0	88	11101
2026-01-01 21:45:56.16	158.16	34.96	-62.2	-71.9	3.8	7.45e-01	0	34	104	0	88	11135
2026-01-01 21:45:57.16	158.54	34.68	-62.2	-71.9	3.8	7.45e-01	0	34	104	0	88	11104
2026-01-01 21:45:58.16	158.91	34.40	-62.2	-71.9	3.8	7.44e-01	0	34	104	0	88	11045
2026-01-01 21:45:59.16	159.27	34.12	-62.2	-71.9	3.8	7.46e-01	0	33	104	0	88	11088
2026-01-01 21:46:00.16	159.63	33.85	-62.2	-71.9	3.8	7.45e-01	0	34	104	0	88	11065
2026-01-01 21:46:01.16	159.98	33.57	-62.2	-71.9	3.8	7.46e-01	0	34	104	0	88	11042
2026-01-01 21:46:02.16	160.33	33.30	-62.1	-71.8	3.8	7.45e-01	0	34	104	0	88	10998
2026-01-01 21:46:03.15	160.66	33.03	-62.1	-71.9	3.8	7.45e-01	0	33	104	0	88	11037
2026-01-01 21:46:04.15	161.00	32.76	-62.1	-71.8	3.8	7.45e-01	0	34	104	0	88	10994
2026-01-01 21:46:05.15	161.33	32.49	-62.1	-71.8	3.8	7.45e-01	0	34	104	0	88	11000
2026-01-01 21:46:06.15	161.65	32.23	-62.1	-71.9	3.8	7.46e-01	0	34	104	0	88	11033
2026-01-01 21:46:07.14	161.96	31.97	-62.1	-71.8	3.8	7.47e-01	0	33	104	0	88	11004
2026-01-01 21:46:08.14	162.27	31.71	-62.1	-71.8	3.8	7.46e-01	0	34	104	0	88	11009
2026-01-01 21:46:09.14	162.58	31.45	-62.1	-71.8	3.8	7.45e-01	0	34	104	0	88	10995
2026-01-01 21:46:10.15	162.88	31.18	-62.1	-71.8	3.8	7.45e-01	0	34	104	0	88	10957
2026-01-01 21:46:11.14	163.18	30.93	-62.1	-71.8	3.8	7.44e-01	0	34	104	0	88	10944
2026-01-01 21:46:12.14	163.47	30.68	-62.1	-71.8	3.8	7.45e-01	0	34	104	0	88	10956
2026-01-01 21:46:13.14	163.75	30.42	-62.0	-71.8	3.8	7.45e-01	0	34	104	0	88	10939
2026-01-01 21:46:14.14	164.03	30.17	-62.0	-71.7	3.8	7.45e-01	0	34	104	0	88	10876
2026-01-01 21:46:15.14	164.31	29.92	-62.0	-71.8	3.8	7.46e-01	0	34	104	0	88	10923
2026-01-01 21:46:16.13	164.58	29.68	-62.0	-71.7	3.8	7.46e-01	0	33	104	0	88	10870
2026-01-01 21:46:17.13	164.85	29.44	-62.0	-71.7	3.8	7.45e-01	0	34	104	0	88	10894
2026-01-01 21:46:18.13	165.11	29.19	-62.0	-71.7	3.8	7.43e-01	0	33	104	0	88	10822
2026-01-01 21:46:19.13	165.37	28.95	-62.0	-71.7	3.8	7.47e-01	0	34	104	0	88	10868
2026-01-01 21:46:20.14	165.63	28.71	-62.0	-71.7	3.8	7.45e-01	0	33	104	0	88	10848
2026-01-01 21:46:21.13	165.88	28.47	-62.0	-71.7	3.8	7.46e-01	0	34	104	0	88	10863
2026-01-01 21:46:22.13	166.13	28.24	-62.0	-71.7	3.8	7.47e-01	0	34	104	0	88	10850
2026-01-01 21:46:23.13	166.37	28.01	-62.0	-71.7	3.8	7.46e-01	0	34	104	0	88	10797
2026-01-01 21:46:24.12	166.61	27.78	-62.0	-71.7	3.8	7.45e-01	0	34	104	0	88	10783
2026-01-01 21:46:25.12	166.84	27.55	-62.0	-71.7	3.8	7.44e-01	0	34	104	0	88	10783
2026-01-01 21:46:26.12	167.08	27.32	-61.9	-71.7	3.8	7.46e-01	0	34	104	0	88	10817
2026-01-01 21:46:27.11	167.30	27.09	-61.9	-71.7	3.8	7.45e-01	0	34	104	0	88	10807
2026-01-01 21:46:28.11	167.53	26.87	-61.9	-71.6	3.8	7.44e-01	0	34	104	0	88	10743
2026-01-01 21:46:29.11	167.75	26.65	-61.9	-71.6	3.8	7.46e-01	0	34	104	0	88	10748
2026-01-01 21:46:30.11	167.97	26.43	-61.9	-71.6	3.8	7.45e-01	0	34	104	0	88	10746
2026-01-01 21:46:31.10	168.18	26.21	-61.9	-71.6	3.8	7.46e-01	0	34	104	0	88	10769
2026-01-01 21:46:32.10	168.40	25.99	-61.9	-71.6	3.8	7.46e-01	0	34	104	0	88	10707
2026-01-01 21:46:33.11	168.61	25.77	-61.9	-71.6	3.8	7.45e-01	0	34	104	0	88	10745
2026-01-01 21:46:34.10	168.81	25.56	-61.9	-71.6	3.8	7.46e-01	0	33	104	0	88	10681
2026-01-01 21:46:35.10	169.01	25.35	-61.9	-71.6	3.8	7.46e-01	0	34	104	0	88	10707
2026-01-01 21:46:36.10	169.21	25.14	-61.9	-71.6	3.8	7.46e-01	0	33	104	0	88	10679
2026-01-01 21:46:37.10	169.41	24.93	-61.8	-71.6	3.8	7.44e-01	0	34	104	0	88	10705
2026-01-01 21:46:38.10	169.61	24.72	-61.8	-71.6	3.8	7.46e-01	0	34	104	0	88	10698
2026-01-01 21:46:39.10	169.80	24.52	-61.8	-71.5	3.8	7.43e-01	0	34	104	0	88	10624
2026-01-01 21:46:40.10	169.99	24.31	-61.8	-71.6	3.8	7.45e-01	0	34	104	0	88	10684
2026-01-01 21:46:41.09	170.17	24.11	-61.8	-71.6	3.8	7.45e-01	0	33	104	0	88	10667
2026-01-01 21:46:42.09	170.36	23.91	-61.8	-71.5	3.8	7.46e-01	0	34	104	0	88	10631
2026-01-01 21:46:43.08	170.54	23.72	-61.8	-71.5	3.8	7.45e-01	0	34	104	0	88	10606
2026-01-01 21:46:44.08	170.72	23.52	-61.8	-71.5	3.8	7.46e-01	0	34	104	0	88	10621
2026-01-01 21:46:45.08	170.89	23.32	-61.8	-71.5	3.8	7.46e-01	0	34	104	0	88	10587
2026-01-01 21:46:46.08	171.07	23.13	-61.8	-71.5	3.8	7.45e-01	0	34	104	0	88	10587
2026-01-01 21:46:47.08	171.24	22.94	-61.8	-71.5	3.8	7.46e-01	0	34	104	0	88	10580
2026-01-01 21:46:48.08	171.41	22.75	-61.8	-71.5	3.8	7.47e-01	0	34	104	0	88	10596
2026-01-01 21:46:49.08	171.58	22.56	-61.8	-71.5	3.8	7.45e-01	0	34	104	0	88	10587
2026-01-01 21:46:50.07	171.74	22.37	-61.7	-71.5	3.8	7.44e-01	0	34	104	0	88	10551
2026-01-01 21:46:51.08	171.90	22.18	-61.7	-71.5	3.8	7.43e-01	0	34	104	0	88	10545
2026-01-01 21:46:52.08	172.07	22.00	-61.7	-71.5	3.8	7.47e-01	0	33	104	0	88	10542
2026-01-01 21:46:53.08	172.22	21.81	-61.7	-71.5	3.8	7.46e-01	0	34	104	0	88	10543
2026-01-01 21:46:54.08	172.38	21.63	-61.7	-71.5	3.8	7.45e-01	0	34	104	0	88	10572
2026-01-01 21:46:55.08	172.54	21.45	-61.7	-71.4	3.8	7.47e-01	0	33	104	0	88	10485
2026-01-01 21:46:56.09	172.69	21.27	-61.7	-71.4	3.8	7.45e-01	0	34	104	0	88	10517
2026-01-01 21:46:57.09	172.84	21.09	-61.7	-71.4	3.8	7.46e-01	0	34	104	0	88	10513
2026-01-01 21:46:58.08	172.99	20.92	-61.7	-71.4	3.8	7.46e-01	0	34	104	0	88	10485
2026-01-01 21:46:59.09	173.14	20.74	-61.7	-71.4	3.8	7.45e-01	0	34	104	0	87	11066
2026-01-01 21:47:00.09	173.28	20.57	-61.7	-71.4	3.8	7.45e-01	0	33	104	0	87	11074
2026-01-01 21:47:01.09	173.43	20.40	-61.7	-71.4	3.8	7.45e-01	0	34	104	0	87	11088
2026-01-01 21:47:02.10	173.57	20.22	-61.7	-71.4	3.8	7.47e-01	0	34	104	0	87	11048
2026-01-01 21:47:03.09	173.71	20.05	-61.6	-71.4	3.8	7.46e-01	0	34	104	0	87	11046
2026-01-01 21:47:04.10	173.85	19.88	-61.7	-71.4	3.8	7.46e-01	0	34	104	0	87	11106
2026-01-01 21:47:05.10	173.98	19.72	-61.6	-71.3	3.8	7.46e-01	0	34	104	0	87	11025
2026-01-01 21:47:06.10	174.12	19.55	-61.6	-71.3	3.8	7.46e-01	0	34	104	0	87	11026
2026-01-01 21:47:07.10	174.25	19.39	-61.6	-71.3	3.8	7.46e-01	0	34	104	0	87	10978
2026-01-01 21:47:08.10	174.38	19.22	-61.6	-71.3	3.8	7.45e-01	0	34	104	0	87	11019
2026-01-01 21:47:09.10	174.51	19.06	-61.6	-71.3	3.8	7.45e-01	0	34	104	0	87	10975
2026-01-01 21:47:10.10	174.64	18.90	-61.6	-71.3	3.8	7.45e-01	0	34	104	0	87	11018
2026-01-01 21:47:11.10	174.77	18.74	-61.6	-71.3	3.8	7.46e-01	0	34	104	0	87	10966
2026-01-01 21:47:12.09	174.89	18.58	-61.6	-71.3	3.8	7.46e-01	0	33	104	0	87	10954
2026-01-01 21:47:13.08	175.02	18.43	-61.6	-71.3	3.8	7.46e-01	0	34	104	0	87	11001
2026-01-01 21:47:14.09	175.14	18.27	-61.6	-71.3	3.8	7.46e-01	0	34	104	0	87	10939
2026-01-01 21:47:15.09	175.26	18.12	-61.6	-71.3	3.8	7.46e-01	0	34	104	0	87	10916
2026-01-01 21:47:16.10	175.38	17.96	-61.6	-71.3	3.8	7.45e-01	0	34	104	0	87	10925
2026-01-01 21:47:17.11	175.50	17.81	-61.6	-71.3	3.8	7.47e-01	0	34	104	0	87	10907
2026-01-01 21:47:18.10	175.62	17.66	-61.5	-71.2	3.8	7.45e-01	0	34	104	0	87	10888
2026-01-01 21:47:19.11	175.74	17.50	-61.5	-71.2	3.8	7.45e-01	0	34	104	0	87	10901
2026-01-01 21:47:20.11	175.85	17.35	-61.5	-71.3	3.8	7.46e-01	0	34	104	0	87	10970
2026-01-01 21:47:21.12	175.97	17.20	-61.5	-71.2	3.8	7.43e-01	0	34	104	0	87	10884
2026-01-01 21:47:22.11	176.08	17.06	-61.5	-71.2	3.8	7.46e-01	0	34	104	0	87	10833
2026-01-01 21:47:23.11	176.19	16.91	-61.5	-71.2	3.8	7.44e-01	0	33	104	0	87	10851
2026-01-01 21:47:24.11	176.30	16.77	-61.5	-71.3	3.8	7.45e-01	0	34	104	0	87	10922
2026-01-01 21:47:25.11	176.41	16.62	-61.5	-71.2	3.8	7.43e-01	0	34	104	0	87	10848
2026-01-01 21:47:26.10	176.51	16.48	-61.5	-71.2	3.8	7.45e-01	0	34	104	0	87	10851
2026-01-01 21:47:27.10	176.62	16.34	-61.5	-71.2	3.8	7.45e-01	0	34	104	0	87	10822
2026-01-01 21:47:28.11	176.73	16.20	-61.5	-71.2	3.8	7.46e-01	0	34	104	0	87	10862
2026-01-01 21:47:29.11	176.83	16.06	-61.5	-71.2	3.8	7.44e-01	0	34	104	0	87	10819
2026-01-01 21:47:30.10	176.93	15.92	-61.5	-71.2	3.8	7.46e-01	0	33	104	0	87	10836
2026-01-01 21:47:31.10	177.03	15.78	-61.4	-71.2	3.8	7.45e-01	0	34	104	0	87	10780
2026-01-01 21:47:32.08	177.13	15.65	-61.5	-71.2	3.8	7.46e-01	0	34	104	0	87	10781
2026-01-01 21:47:33.08	177.23	15.51	-61.4	-71.1	3.8	7.44e-01	0	34	104	0	87	10750
2026-01-01 21:47:34.08	177.33	15.37	-61.4	-71.1	3.8	7.45e-01	0	34	104	0	87	10770
2026-01-01 21:47:35.07	177.43	15.24	-61.4	-71.1	3.8	7.47e-01	0	33	104	0	87	10725
2026-01-01 21:47:36.07	177.52	15.11	-61.4	-71.2	3.8	7.45e-01	0	34	104	0	87	10788
2026-01-01 21:47:37.06	177.62	14.97	-61.4	-71.1	3.8	7.46e-01	0	33	104	0	87	10719
2026-01-01 21:47:38.06	177.71	14.84	-61.4	-71.1	3.8	7.46e-01	0	34	104	0	87	10739
2026-01-01 21:47:39.05	177.81	14.71	-61.4	-71.1	3.8	7.45e-01	0	34	104	0	87	10708
2026-01-01 21:47:40.05	177.90	14.58	-61.4	-71.1	3.8	7.47e-01	0	34	104	0	87	10706
2026-01-01 21:47:41.05	177.99	14.45	-61.4	-71.0	3.8	7.44e-01	0	33	104	0	87	10649
2026-01-01 21:47:42.04	178.08	14.33	-61.4	-71.0	3.8	7.47e-01	0	34	104	0	87	10653
2026-01-01 21:47:43.04	178.17	14.20	-61.4	-71.1	3.8	7.45e-01	0	34	104	0	87	10672
2026-01-01 21:47:44.03	178.26	14.07	-61.4	-71.1	3.8	7.46e-01	0	34	104	0	87	10671
2026-01-01 21:47:45.02	178.35	13.95	-61.3	-71.0	3.8	7.45e-01	0	34	104	0	87	10655
2026-01-01 21:47:46.02	178.44	13.82	-61.4	-71.1	3.8	7.46e-01	0	33	104	0	87	10721
2026-01-01 21:47:47.02	178.52	13.70	-61.3	-71.0	3.8	7.46e-01	0	33	104	0	87	10630
2026-01-01 21:47:48.02	178.61	13.57	-61.3	-71.1	3.8	7.46e-01	0	34	104	0	87	10661
2026-01-01 21:47:49.01	178.69	13.45	-61.3	-71.0	3.8	7.45e-01	0	33	104	0	87	10592
2026-01-01 21:47:50.01	178.78	13.33	-61.3	-71.0	3.8	7.45e-01	0	34	104	0	87	10631
2026-01-01 21:47:51.01	178.86	13.21	-61.3	-71.0	3.8	7.45e-01	0	34	104	0	87	10598
2026-01-01 21:47:52.01	178.95	13.09	-61.3	-71.0	3.8	7.46e-01	0	34	104	0	87	10636
2026-01-01 21:47:53.01	179.03	12.97	-61.3	-71.0	3.8	7.47e-01	0	34	104	0	87	10601
2026-01-01 21:47:54.02	179.11	12.85	-61.3	-71.0	3.8	7.45e-01	0	34	104	0	87	10590
2026-01-01 21:47:55.01	179.19	12.73	-61.2	-70.9	3.8	7.46e-01	0	33	104	0	87	10529
2026-01-01 21:47:56.01	179.27	12.61	-61.3	-71.0	3.8	7.44e-01	0	34	104	0	87	10567
2026-01-01 21:47:57.01	179.35	12.50	-61.2	-71.0	3.8	7.46e-01	0	34	104	0	87	10574
2026-01-01 21:47:58.01	179.43	12.38	-61.3	-70.9	3.8	7.47e-01	0	34	104	0	87	10531
2026-01-01 21:47:59.02	179.51	12.26	-61.2	-70.9	3.8	7.44e-01	0	34	104	0	87	10485
2026-01-01 21:48:00.01	179.58	12.15	-61.2	-71.0	3.8	7.45e-01	0	34	104	0	87	10550
2026-01-01 21:48:01.01	179.66	12.03	-61.2	-70.9	3.8	7.46e-01	0	34	104	0	87	10494
2026-01-01 21:48:02.00	179.73	11.92	-61.2	-70.9	3.8	7.45e-01	0	34	104	0	87	10521
2026-01-01 21:48:03.00	179.81	11.81	-61.2	-70.9	3.8	7.47e-01	0	34	104	0	87	10441
2026-01-01 21:48:04.00	179.88	11.70	-61.2	-70.9	3.8	7.46e-01	0	34	104	0	87	10502
2026-01-01 21:48:05.01	179.96	11.58	-61.2	-70.9	3.8	7.46e-01	0	34	104	0	86	11069
2026-01-01 21:48:06.00	180.03	11.47	-61.2	-70.9	3.8	7.46e-01	0	34	104	0	86	11132
2026-01-01 21:48:07.00	180.10	11.36	-61.1	-70.9	3.8	7.46e-01	0	34	104	0	86	11079
2026-01-01 21:48:08.00	180.17	11.25	-61.2	-70.9	3.8	7.45e-01	0	34	104	0	86	11107
2026-01-01 21:48:09.00	180.24	11.14	-61.2	-70.9	3.8	7.43e-01	0	34	104	0	86	11054
2026-01-01 21:48:10.00	180.31	11.04	-61.2	-70.9	3.8	7.46e-01	0	34	104	0	86	11082
2026-01-01 21:48:11.00	180.38	10.93	-61.1	-70.8	3.8	7.43e-01	0	34	104	0	86	11006
2026-01-01 21:48:12.00	180.45	10.82	-61.2	-70.9	3.8	7.45e-01	0	34	104	0	86	11054
2026-01-01 21:48:12.99	180.52	10.71	-61.1	-70.8	3.8	7.45e-01	0	34	104	0	86	10969
2026-01-01 21:48:13.99	180.59	10.61	-61.1	-70.8	3.8	7.46e-01	0	34	104	0	86	11022
2026-01-01 21:48:14.99	180.66	10.50	-61.1	-70.8	3.8	7.46e-01	0	34	104	0	86	10977
2026-01-01 21:48:15.99	180.73	10.40	-61.1	-70.8	3.8	7.46e-01	0	33	104	0	86	11017
2026-01-01 21:48:16.99	180.79	10.29	-61.1	-70.8	3.8	7.46e-01	0	34	104	0	86	10968
2026-01-01 21:48:17.99	180.86	10.19	-61.1	-70.8	3.8	7.46e-01	0	33	104	0	86	11026
2026-01-01 21:48:18.99	180.92	10.09	-61.0	-70.8	3.8	7.44e-01	0	34	104	0	86	10906
2026-01-01 21:48:19.99	180.99	9.98	-61.1	-70.8	3.8	7.45e-01	0	34	104	0	86	10982
2026-01-01 21:48:20.99	181.05	9.88	-61.0	-70.8	3.8	7.46e-01	0	34	104	0	86	10909
2026-01-01 21:48:21.98	181.12	9.78	-61.1	-70.8	3.8	7.45e-01	0	34	104	0	86	10961
2026-01-01 21:48:22.98	181.18	9.68	-61.0	-70.7	3.8	7.45e-01	0	34	104	0	86	10874
2026-01-01 21:48:23.98	181.24	9.58	-61.1	-70.7	3.8	7.45e-01	0	34	104	0	86	10895
2026-01-01 21:48:24.98	181.30	9.48	-61.0	-70.7	3.8	7.45e-01	0	34	104	0	86	10868
2026-01-01 21:48:25.98	181.37	9.38	-61.0	-70.8	3.8	7.46e-01	0	34	104	0	86	10914
2026-01-01 21:48:26.98	181.43	9.28	-61.0	-70.7	3.8	7.45e-01	0	33	104	0	86	10798
2026-01-01 21:48:27.98	181.49	9.18	-61.0	-70.7	3.8	7.46e-01	0	34	104	0	86	10866
2026-01-01 21:48:28.99	181.55	9.08	-60.9	-70.7	3.8	7.45e-01	0	33	104	0	86	10786
2026-01-01 21:48:29.99	181.61	8.98	-61.0	-70.7	3.8	7.47e-01	0	34	104	0	86	10877
2026-01-01 21:48:30.99	181.67	8.89	-60.9	-70.6	3.8	7.46e-01	0	34	104	0	86	10740
2026-01-01 21:48:31.98	181.73	8.79	-61.0	-70.7	3.8	7.44e-01	0	33	104	0	86	10852
2026-01-01 21:48:32.97	181.79	8.70	-60.9	-70.6	3.8	7.46e-01	0	34	104	0	86	10711
2026-01-01 21:48:33.97	181.84	8.60	-61.0	-70.7	3.8	7.46e-01	0	34	104	0	86	10787
2026-01-01 21:48:34.97	181.90	8.50	-60.9	-70.6	3.8	7.46e-01	0	34	104	0	86	10727
2026-01-01 21:48:35.97	181.96	8.41	-61.0	-70.7	3.8	7.46e-01	0	34	104	0	86	10788
2026-01-01 21:48:36.96	182.02	8.32	-60.9	-70.6	3.8	7.46e-01	0	34	104	0	86	10658
2026-01-01 21:48:37.96	182.07	8.22	-60.9	-70.6	3.8	7.46e-01	0	34	104	0	86	10773
2026-01-01 21:48:38.95	182.13	8.13	-60.8	-70.6	3.8	7.47e-01	0	34	104	0	86	10682
2026-01-01 21:48:39.96	182.18	8.04	-60.9	-70.6	3.8	7.45e-01	0	34	104	0	86	10754
2026-01-01 21:48:40.95	182.24	7.94	-60.8	-70.6	3.8	7.46e-01	0	34	104	0	86	10663
2026-01-01 21:48:41.95	182.29	7.85	-60.9	-70.6	3.8	7.45e-01	0	34	104	0	86	10706
2026-01-01 21:48:42.96	182.35	7.76	-60.8	-70.5	3.8	7.44e-01	0	34	104	0	86	10595
2026-01-01 21:48:43.95	182.40	7.67	-60.9	-70.6	3.8	7.45e-01	0	34	104	0	86	10669
2026-01-01 21:48:44.95	182.45	7.58	-60.8	-70.5	3.8	7.46e-01	0	34	104	0	86	10568
2026-01-01 21:48:45.94	182.51	7.49	-60.8	-70.6	3.8	7.46e-01	0	34	104	0	86	10662
2026-01-01 21:48:46.95	182.56	7.40	-60.7	-70.5	3.8	7.45e-01	0	34	104	0	86	10566
2026-01-01 21:48:47.94	182.61	7.31	-60.8	-70.5	3.8	7.45e-01	0	34	104	0	86	10647
2026-01-01 21:48:48.93	182.66	7.22	-60.7	-70.4	3.8	7.44e-01	0	34	104	0	86	10503
2026-01-01 21:48:49.93	182.72	7.13	-60.8	-70.5	3.8	7.44e-01	0	34	104	0	86	10625
2026-01-01 21:48:50.92	182.77	7.05	-60.7	-70.4	3.8	7.44e-01	0	34	104	0	86	10461
2026-01-01 21:48:51.93	182.82	6.96	-60.8	-70.5	3.8	7.47e-01	0	34	104	0	86	10570
2026-01-01 21:48:52.93	182.87	6.87	-60.6	-70.3	3.8	7.45e-01	0	33	104	0	85	11010
2026-01-01 21:48:53.93	182.92	6.78	-60.7	-70.4	3.8	7.45e-01	0	34	104	0	85	11146
2026-01-01 21:48:54.93	182.97	6.69	-60.6	-70.3	3.8	7.45e-01	0	33	104	0	85	10985
2026-01-01 21:48:55.94	183.02	6.61	-60.7	-70.4	3.8	7.45e-01	0	33	104	0	85	11129
2026-01-01 21:48:56.93	183.07	6.52	-60.6	-70.3	3.8	7.44e-01	0	34	104	0	85	10994
2026-01-01 21:48:57.93	183.12	6.44	-60.7	-70.4	3.8	7.45e-01	0	34	104	0	85	11101
2026-01-01 21:48:58.93	183.17	6.35	-60.6	-70.3	3.8	7.45e-01	0	34	104	0	85	10936
2026-01-01 21:48:59.92	183.21	6.27	-60.6	-70.3	3.8	7.44e-01	0	34	104	0	85	11027
2026-01-01 21:49:00.92	183.26	6.18	-60.5	-70.2	3.8	7.46e-01	0	34	104	0	85	10894
2026-01-01 21:49:01.91	183.31	6.10	-60.6	-70.3	3.8	7.45e-01	0	34	104	0	85	11016
2026-01-01 21:49:02.91	183.36	6.02	-60.5	-70.2	3.8	7.44e-01	0	34	104	0	85	10864
2026-01-01 21:49:03.91	183.40	5.93	-60.6	-70.3	3.8	7.45e-01	0	34	104	0	85	10969
2026-01-01 21:49:04.92	183.45	5.85	-60.5	-70.2	3.8	7.46e-01	0	34	104	0	85	10850
2026-01-01 21:49:05.91	183.50	5.77	-60.6	-70.3	3.8	7.46e-01	0	34	104	0	85	10961
2026-01-01 21:49:06.92	183.54	5.68	-60.4	-70.1	3.8	7.46e-01	0	34	104	0	85	10731
2026-01-01 21:49:07.93	183.59	5.60	-60.5	-70.3	3.8	7.46e-01	0	34	104	0	85	10917
2026-01-01 21:49:08.93	183.63	5.52	-60.4	-70.1	3.8	7.45e-01	0	34	104	0	85	10733
2026-01-01 21:49:09.93	183.68	5.44	-60.5	-70.2	3.8	7.45e-01	0	34	104	0	85	10862
2026-01-01 21:49:10.94	183.72	5.35	-60.4	-70.1	3.8	7.45e-01	0	34	104	0	85	10710
2026-01-01 21:49:11.94	183.77	5.27	-60.5	-70.2	3.8	7.45e-01	0	34	104	0	85	10818
2026-01-01 21:49:12.93	183.81	5.19	-60.3	-70.0	3.8	7.44e-01	0	34	104	0	85	10590
2026-01-01 21:49:13.93	183.86	5.11	-60.5	-70.1	3.8	7.46e-01	0	34	104	0	85	10760
2026-01-01 21:49:14.92	183.90	5.03	-60.3	-69.9	3.8	7.48e-01	0	34	104	0	85	10527
2026-01-01 21:49:15.92	183.94	4.95	-60.6	-70.3	3.8	7.47e-01	0	34	104	0	85	10966
2026-01-01 21:49:16.92	183.99	4.87	-61.2	-70.9	3.8	7.45e-01	0	34	104	0	85	11714
2026-01-01 21:49:17.92	184.03	4.80	-61.5	-71.3	3.8	7.45e-01	0	34	104	0	86	11585
2026-01-01 21:49:18.91	184.07	4.72	-61.8	-71.5	3.8	7.45e-01	0	34	104	0	86	11856
2026-01-01 21:49:19.91	184.11	4.64	-61.9	-71.7	3.8	7.46e-01	0	34	104	0	87	11461
2026-01-01 21:49:20.91	184.16	4.56	-62.1	-71.8	3.8	7.43e-01	0	34	104	0	87	11647
2026-01-01 21:49:21.91	184.20	4.48	-62.3	-72.0	3.8	7.46e-01	0	34	104	0	87	11896
2026-01-01 21:49:22.92	184.24	4.41	-62.4	-72.1	3.8	7.44e-01	0	34	104	0	87	12019
2026-01-01 21:49:23.91	184.28	4.33	-62.5	-72.3	3.8	7.46e-01	0	34	104	0	88	11564
2026-01-01 21:49:24.91	184.32	4.25	-62.6	-72.3	3.8	7.45e-01	0	34	104	0	88	11653
2026-01-01 21:49:25.91	184.36	4.18	-62.7	-72.4	3.8	7.48e-01	0	34	104	0	88	11783
2026-01-01 21:49:26.91	184.40	4.10	-62.7	-72.5	3.8	7.44e-01	0	34	104	0	88	11831
2026-01-01 21:49:27.91	184.44	4.02	-62.8	-72.5	3.8	7.45e-01	0	34	104	0	88	11889
2026-01-01 21:49:28.90	184.48	3.95	-62.8	-72.6	3.8	7.47e-01	0	34	104	0	88	12012
2026-01-01 21:49:29.90	184.52	3.87	-62.9	-72.6	3.8	7.44e-01	0	34	104	0	88	12042
2026-01-01 21:49:30.90	184.56	3.80	-62.9	-72.6	3.8	7.44e-01	0	34	104	0	88	12074
2026-01-01 21:49:31.89	184.60	3.72	-62.9	-72.7	3.8	7.48e-01	0	34	104	0	89	11453
2026-01-01 21:49:32.89	184.64	3.65	-63.0	-72.7	3.8	7.45e-01	0	34	104	0	89	11495
2026-01-01 21:49:33.89	184.68	3.57	-63.0	-72.7	3.8	7.45e-01	0	34	104	0	89	11514
2026-01-01 21:49:34.89	184.72	3.50	-63.0	-72.7	3.8	7.45e-01	0	34	104	0	89	11484
2026-01-01 21:49:35.88	184.76	3.43	-63.0	-72.7	3.8	7.44e-01	0	34	104	0	89	11513
2026-01-01 21:49:36.88	184.79	3.35	-63.0	-72.8	3.8	7.45e-01	0	34	104	0	89	11556
2026-01-01 21:49:37.88	184.83	3.28	-63.0	-72.8	3.8	7.46e-01	0	34	104	0	89	11552
2026-01-01 21:49:38.89	184.87	3.21	-63.0	-72.8	3.8	7.45e-01	0	34	104	0	89	11559
2026-01-01 21:49:39.88	184.91	3.13	-63.0	-72.7	3.8	7.46e-01	0	34	104	0	89	11449
2026-01-01 21:49:40.88	184.94	3.06	-63.0	-72.7	3.8	7.45e-01	0	34	104	0	89	11501
2026-01-01 21:49:41.88	184.98	2.99	-63.0	-72.7	3.8	7.47e-01	0	34	104	0	89	11487
2026-01-01 21:49:42.87	185.02	2.92	-62.9	-72.7	3.8	7.47e-01	0	34	104	0	89	11431
2026-01-01 21:49:43.87	185.06	2.84	-62.9	-72.7	3.8	7.46e-01	0	33	104	0	89	11434
2026-01-01 21:49:44.88	185.09	2.77	-62.9	-72.7	3.8	7.47e-01	0	34	104	0	89	11424
2026-01-01 21:49:45.88	185.13	2.70	-62.9	-72.6	3.8	7.46e-01	0	34	104	0	89	11416
2026-01-01 21:49:46.88	185.16	2.63	-62.9	-72.6	3.8	7.45e-01	0	34	104	0	89	11408
2026-01-01 21:49:47.88	185.20	2.56	-62.9	-72.6	3.8	7.45e-01	0	34	104	0	89	11415
2026-01-01 21:49:48.88	185.24	2.49	-62.9	-72.6	3.8	7.47e-01	0	34	104	0	89	11410
2026-01-01 21:49:49.88	185.27	2.42	-62.9	-72.6	3.8	7.45e-01	0	34	104	0	89	11356
2026-01-01 21:49:50.88	185.31	2.35	-62.9	-72.6	3.8	7.46e-01	0	34	104	0	89	11356
2026-01-01 21:49:51.88	185.34	2.28	-62.9	-72.6	3.8	7.46e-01	0	34	104	0	89	11365
2026-01-01 21:49:52.88	185.38	2.21	-62.9	-72.6	3.8	7.48e-01	0	34	104	0	89	11364
2026-01-01 21:49:53.88	185.41	2.14	-62.9	-72.6	3.8	7.46e-01	0	34	104	0	89	11336
2026-01-01 21:49:54.88	185.45	2.07	-62.8	-72.6	3.8	7.45e-01	0	34	104	0	89	11316
2026-01-01 21:49:55.89	185.48	2.00	-62.8	-72.6	3.8	7.46e-01	0	34	104	0	89	11306
2026-01-01 21:49:56.88	185.51	1.93	-62.8	-72.6	3.8	7.44e-01	0	34	104	0	89	11314

#Closed at: 2026-01-01 21:49:57
#Recorded file [0 MB]: D:/lorett/data/31004_260102_003931.dat