passes_logs/2026/01/01/R3.2S_Murmansk/R3.2S_Murmansk__20260101_005420_NOAA_20_JPSS-1_rec.log

#Pass ID: 20260101_005420_NOAA 20 (JPSS-1)
#Satellite: NOAA 20 (JPSS-1)
#Configuration: NOAA 20
#almurnet v.1.7.20251203
#Start time: 2026-01-01 00:54:19

#Version: 2.2.20231116
#Station: R3.2S_Murmansk
#Location: 33.079688 lon 68.888172 lat
#TLE: 1 43013U 17073A   25365.59858899  .00000178  00000+0  10524-3 0  9991
#TLE: 2 43013  98.7620 301.6911 0001952  60.2533 299.8837 14.19531732420695

#Time	Az	El	Level	Level2	SNR	BER	BlckErr	Temp	State	Recorded	gain1	gain2
2026-01-01 00:54:19.92	25.38	1.96	-59.9	-75.9	3.8	1.49e+00	0	33	0	0	86	22101
2026-01-01 00:54:20.92	25.38	2.03	-59.9	-75.9	3.8	1.49e+00	0	33	104	0	85	23374
2026-01-01 00:54:21.92	25.37	2.09	-59.9	-75.9	3.8	1.49e+00	0	33	104	0	85	23360
2026-01-01 00:54:22.92	25.37	2.16	-59.9	-75.9	3.8	1.49e+00	0	33	104	0	85	23396
2026-01-01 00:54:23.93	25.37	2.22	-59.9	-75.9	3.8	1.49e+00	0	33	104	0	85	23445
2026-01-01 00:54:24.94	25.37	2.29	-59.9	-75.9	3.8	1.49e+00	0	33	104	0	85	23338
2026-01-01 00:54:25.93	25.37	2.35	-59.9	-75.9	3.8	1.49e+00	0	33	104	0	85	23388
2026-01-01 00:54:26.93	25.36	2.42	-59.9	-75.9	3.8	1.49e+00	0	33	104	0	85	23431
2026-01-01 00:54:27.93	25.36	2.48	-59.9	-75.9	3.8	1.49e+00	0	33	104	0	85	23394
2026-01-01 00:54:28.93	25.36	2.54	-59.9	-75.9	3.8	1.49e+00	0	33	104	0	85	23387
2026-01-01 00:54:29.93	25.36	2.61	-59.9	-75.8	3.8	1.49e+00	0	33	104	0	85	23290
2026-01-01 00:54:30.93	25.35	2.68	-59.9	-75.9	3.8	1.49e+00	0	33	104	0	85	23388
2026-01-01 00:54:31.92	25.35	2.74	-59.9	-75.9	3.8	1.49e+00	0	33	104	0	85	23332
2026-01-01 00:54:32.92	25.35	2.81	-59.9	-75.9	3.8	1.49e+00	0	33	104	0	85	23427
2026-01-01 00:54:33.92	25.35	2.87	-59.9	-75.9	3.8	1.49e+00	0	33	104	0	85	23373
2026-01-01 00:54:34.93	25.34	2.94	-59.9	-75.9	3.8	1.49e+00	0	33	104	0	85	23354
2026-01-01 00:54:35.92	25.34	3.00	-59.9	-75.8	3.8	1.49e+00	0	33	104	0	85	23250
2026-01-01 00:54:36.92	25.34	3.07	-59.9	-75.8	3.8	1.49e+00	0	33	104	0	85	23073
2026-01-01 00:54:37.92	25.34	3.14	-59.9	-75.7	3.8	1.49e+00	0	33	104	0	85	22870
2026-01-01 00:54:38.92	25.33	3.20	-59.9	-75.6	3.8	1.49e+00	0	33	104	0	85	22585
2026-01-01 00:54:39.91	25.33	3.27	-59.9	-75.5	3.8	1.49e+00	0	33	104	0	85	22292
2026-01-01 00:54:40.90	25.33	3.33	-59.9	-75.4	3.8	1.49e+00	0	33	104	0	85	22048
2026-01-01 00:54:41.90	25.33	3.40	-59.9	-75.3	3.8	1.49e+00	0	33	104	0	85	21793
2026-01-01 00:54:42.89	25.32	3.47	-59.9	-75.2	3.8	1.49e+00	0	34	104	0	85	21699
2026-01-01 00:54:43.89	25.32	3.54	-59.9	-75.2	3.8	1.49e+00	0	33	104	0	85	21589
2026-01-01 00:54:44.89	25.32	3.60	-59.9	-75.2	3.8	1.49e+00	0	33	104	0	85	21649
2026-01-01 00:54:45.89	25.31	3.67	-59.9	-75.2	3.8	1.49e+00	0	33	104	0	85	21624
2026-01-01 00:54:46.89	25.31	3.74	-59.9	-75.2	3.8	1.49e+00	0	34	104	0	85	21748
2026-01-01 00:54:47.88	25.31	3.81	-59.9	-75.3	3.8	1.49e+00	0	34	104	0	85	21873
2026-01-01 00:54:48.89	25.31	3.87	-59.9	-75.5	3.8	1.49e+00	0	33	104	0	85	22340
2026-01-01 00:54:49.89	25.30	3.94	-59.9	-75.6	3.8	1.49e+00	0	33	104	0	85	22676
2026-01-01 00:54:50.89	25.30	4.01	-59.9	-75.7	3.8	1.49e+00	0	34	104	0	85	22886
2026-01-01 00:54:51.89	25.30	4.08	-59.9	-75.5	3.8	1.49e+00	0	34	104	0	85	22379
2026-01-01 00:54:52.90	25.29	4.15	-59.9	-74.8	3.8	1.49e+00	0	34	104	0	85	20732
2026-01-01 00:54:53.90	25.29	4.22	-59.8	-73.7	3.9	1.49e+00	0	34	104	0	85	18271
2026-01-01 00:54:54.90	25.29	4.29	-59.7	-72.4	4.2	1.46e+00	0	34	0	0	85	15608
2026-01-01 00:54:55.89	25.28	4.36	-59.6	-70.9	4.7	1.01e+00	0	34	0	1048576	85	13213
2026-01-01 00:54:56.89	25.28	4.43	-59.5	-69.9	5.2	6.57e-01	0	34	0	2097152	85	11745
2026-01-01 00:54:57.88	25.28	4.49	-59.4	-68.9	5.8	4.38e-01	0	34	0	4194304	85	10496
2026-01-01 00:54:58.87	25.27	4.56	-59.2	-67.7	6.7	2.77e-01	0	34	0	6291456	85	9155
2026-01-01 00:54:59.88	25.27	4.63	-59.1	-66.6	7.6	1.09e-01	0	34	0	8388608	84	8534
2026-01-01 00:55:00.88	25.27	4.71	-58.9	-66.0	8.2	4.81e-02	0	34	0	10485760	84	7961
2026-01-01 00:55:01.88	25.26	4.78	-58.8	-65.5	8.6	3.61e-02	0	34	0	11534336	84	7540
2026-01-01 00:55:02.87	25.26	4.85	-58.7	-65.1	9.1	1.54e-02	0	34	0	13631488	84	7129
2026-01-01 00:55:03.87	25.26	4.92	-58.5	-64.8	9.2	1.37e-02	0	34	0	15728640	83	7288
2026-01-01 00:55:04.87	25.25	4.99	-58.3	-64.3	9.6	7.39e-03	0	34	0	17825792	83	6931
2026-01-01 00:55:05.87	25.25	5.06	-58.3	-64.1	9.9	5.63e-03	0	34	0	19922944	83	6748
2026-01-01 00:55:06.87	25.25	5.13	-59.9	-73.2	3.9	8.50e-01	0	34	104	20971520	84	18097
2026-01-01 00:55:07.87	25.24	5.20	-59.6	-69.2	5.7	1.29e+00	0	34	0	20971520	84	11438
2026-01-01 00:55:08.87	25.24	5.27	-58.9	-67.1	7.1	4.99e-02	0	34	0	22020096	83	9513
2026-01-01 00:55:09.88	25.24	5.35	-57.3	-61.6	12.1	3.39e-03	0	34	0	24117248	81	5677
2026-01-01 00:55:10.88	25.23	5.42	-59.4	-69.6	5.3	5.53e-02	0	34	0	26214400	83	12798
2026-01-01 00:55:11.88	25.23	5.49	-57.3	-61.5	12.1	1.58e-01	0	34	0	28311552	81	5654
2026-01-01 00:55:12.88	25.22	5.56	-57.1	-61.1	12.6	1.29e-05	0	34	0	30408704	80	5673
2026-01-01 00:55:13.88	25.22	5.64	-57.0	-60.7	12.8	3.80e-06	0	34	0	31457280	80	5462
2026-01-01 00:55:14.87	25.22	5.71	-57.0	-60.8	12.8	3.80e-06	0	34	0	33554432	80	5498
2026-01-01 00:55:15.87	25.21	5.78	-56.8	-60.4	13.2	2.20e-06	0	34	0	35651584	80	5240
2026-01-01 00:55:16.88	25.21	5.86	-56.8	-60.3	13.3	0.00e+00	0	34	0	37748736	80	5170
2026-01-01 00:55:17.88	25.20	5.93	-56.8	-60.3	13.3	0.00e+00	0	34	0	39845888	80	5162
2026-01-01 00:55:18.89	25.20	6.00	-56.6	-59.9	13.6	7.00e-07	0	34	0	40894464	79	5247
2026-01-01 00:55:19.89	25.20	6.08	-56.6	-59.9	13.7	0.00e+00	0	34	0	42991616	79	5242
2026-01-01 00:55:20.90	25.19	6.15	-56.5	-59.8	13.7	0.00e+00	0	34	0	45088768	79	5189
2026-01-01 00:55:21.90	25.19	6.23	-56.7	-60.0	13.6	0.00e+00	0	34	0	47185920	79	5306
2026-01-01 00:55:22.90	25.18	6.30	-56.6	-59.9	13.7	0.00e+00	0	34	0	48234496	79	5224
2026-01-01 00:55:23.90	25.18	6.38	-56.6	-59.9	13.6	0.00e+00	0	34	0	50331648	79	5278
2026-01-01 00:55:24.89	25.17	6.45	-56.7	-60.1	13.6	7.00e-07	0	34	0	52428800	79	5365
2026-01-01 00:55:25.89	25.17	6.53	-56.7	-60.0	13.7	0.00e+00	0	34	0	54525952	79	5286
2026-01-01 00:55:26.90	25.16	6.60	-56.5	-59.7	13.9	0.00e+00	0	34	0	56623104	79	5117
2026-01-01 00:55:27.90	25.16	6.68	-56.5	-59.6	13.9	0.00e+00	0	34	0	57671680	79	5100
2026-01-01 00:55:28.89	25.16	6.75	-56.5	-59.7	13.9	0.00e+00	0	34	0	59768832	79	5116
2026-01-01 00:55:29.88	25.15	6.83	-56.5	-59.7	13.9	0.00e+00	0	34	0	61865984	79	5118
2026-01-01 00:55:30.87	25.15	6.90	-56.4	-59.5	14.1	0.00e+00	0	34	0	63963136	79	5018
2026-01-01 00:55:31.86	25.14	6.98	-56.4	-59.5	14.0	0.00e+00	0	34	0	65011712	79	5030
2026-01-01 00:55:32.86	25.14	7.06	-56.4	-59.5	14.1	0.00e+00	0	34	0	67108864	79	4984
2026-01-01 00:55:33.86	25.13	7.13	-56.4	-59.4	14.1	0.00e+00	0	34	0	69206016	79	4963
2026-01-01 00:55:34.86	25.13	7.21	-56.4	-59.4	14.1	0.00e+00	0	34	0	71303168	79	4979
2026-01-01 00:55:35.86	25.12	7.29	-56.4	-59.4	14.2	0.00e+00	0	34	0	73400320	79	4968
2026-01-01 00:55:36.86	25.12	7.37	-56.5	-59.6	14.0	0.00e+00	0	34	0	74448896	79	5060
2026-01-01 00:55:37.86	25.11	7.45	-56.3	-59.3	14.2	0.00e+00	0	34	0	76546048	79	4923
2026-01-01 00:55:38.86	25.11	7.52	-56.4	-59.5	14.1	0.00e+00	0	34	0	78643200	79	4990
2026-01-01 00:55:39.86	25.10	7.60	-56.4	-59.3	14.3	0.00e+00	0	34	0	80740352	79	4907
2026-01-01 00:55:40.86	25.10	7.68	-56.4	-59.4	14.2	0.00e+00	0	34	0	82837504	79	4965
2026-01-01 00:55:41.85	25.09	7.76	-56.4	-59.4	14.2	0.00e+00	0	34	0	83886080	79	4977
2026-01-01 00:55:42.86	25.09	7.84	-56.5	-59.6	14.1	0.00e+00	0	34	0	85983232	79	5078
2026-01-01 00:55:43.86	25.08	7.92	-56.4	-59.4	14.3	0.00e+00	0	34	0	88080384	79	4953
2026-01-01 00:55:44.85	25.08	8.00	-56.3	-59.3	14.4	0.00e+00	0	34	0	90177536	79	4874
2026-01-01 00:55:45.85	25.07	8.08	-56.3	-59.3	14.4	0.00e+00	0	34	0	92274688	79	4879
2026-01-01 00:55:46.85	25.07	8.16	-56.2	-59.1	14.4	0.00e+00	0	34	0	93323264	78	5048
2026-01-01 00:55:47.85	25.06	8.24	-56.3	-59.2	14.3	0.00e+00	0	34	0	95420416	78	5155
2026-01-01 00:55:48.84	25.05	8.32	-56.3	-59.2	14.4	0.00e+00	0	34	0	97517568	78	5141
2026-01-01 00:55:49.85	25.05	8.40	-56.2	-59.1	14.5	0.00e+00	0	34	0	99614720	78	5073
2026-01-01 00:55:50.85	25.04	8.48	-56.3	-59.1	14.4	0.00e+00	0	34	0	100663296	78	5095
2026-01-01 00:55:51.84	25.04	8.56	-56.2	-59.0	14.5	0.00e+00	0	35	0	102760448	78	5024
2026-01-01 00:55:52.84	25.03	8.64	-56.2	-59.0	14.5	0.00e+00	0	34	0	104857600	78	5036
2026-01-01 00:55:53.84	25.03	8.73	-56.2	-59.1	14.5	0.00e+00	0	35	0	106954752	78	5056
2026-01-01 00:55:54.84	25.02	8.81	-56.2	-59.0	14.6	0.00e+00	0	35	0	109051904	78	5005
2026-01-01 00:55:55.84	25.01	8.89	-56.2	-59.1	14.5	0.00e+00	0	34	0	110100480	78	5048
2026-01-01 00:55:56.84	25.01	8.97	-56.3	-59.2	14.4	0.00e+00	0	34	0	112197632	78	5137
2026-01-01 00:55:57.83	25.00	9.06	-56.2	-59.0	14.6	0.00e+00	0	34	0	114294784	78	4988
2026-01-01 00:55:58.84	25.00	9.14	-56.1	-58.9	14.7	0.00e+00	0	34	0	116391936	78	4935
2026-01-01 00:55:59.84	24.99	9.22	-56.2	-59.0	14.6	0.00e+00	0	34	0	118489088	78	5006
2026-01-01 00:56:00.84	24.98	9.31	-56.2	-59.0	14.6	0.00e+00	0	34	0	119537664	78	5032
2026-01-01 00:56:01.83	24.98	9.39	-56.1	-58.9	14.7	0.00e+00	0	34	0	121634816	78	4945
2026-01-01 00:56:02.84	24.97	9.48	-56.1	-58.8	14.7	0.00e+00	0	34	0	123731968	78	4912
2026-01-01 00:56:03.84	24.96	9.56	-56.1	-58.8	14.7	0.00e+00	0	35	0	125829120	78	4898
2026-01-01 00:56:04.83	24.96	9.65	-56.1	-58.8	14.8	0.00e+00	0	34	0	127926272	78	4880
2026-01-01 00:56:05.84	24.95	9.73	-56.1	-58.9	14.7	0.00e+00	0	34	0	128974848	78	4927
2026-01-01 00:56:06.84	24.94	9.82	-56.0	-58.7	14.8	0.00e+00	0	34	0	131072000	78	4817
2026-01-01 00:56:07.84	24.94	9.90	-56.0	-58.7	14.8	0.00e+00	0	34	0	133169152	78	4865
2026-01-01 00:56:08.84	24.93	9.99	-56.1	-58.8	14.7	0.00e+00	0	34	0	135266304	78	4888
2026-01-01 00:56:09.84	24.92	10.08	-56.0	-58.6	14.9	0.00e+00	0	34	0	136314880	78	4809
2026-01-01 00:56:10.83	24.92	10.16	-56.0	-58.6	14.8	0.00e+00	0	34	0	138412032	78	4808
2026-01-01 00:56:11.83	24.91	10.25	-56.0	-58.6	14.9	0.00e+00	0	35	0	140509184	78	4788
2026-01-01 00:56:12.83	24.90	10.34	-56.0	-58.6	14.9	0.00e+00	0	34	0	142606336	78	4803
2026-01-01 00:56:13.83	24.90	10.43	-56.0	-58.6	14.9	0.00e+00	0	34	0	144703488	78	4789
2026-01-01 00:56:14.84	24.89	10.51	-55.9	-58.6	15.0	0.00e+00	0	34	0	145752064	78	4768
2026-01-01 00:56:15.84	24.88	10.60	-55.9	-58.5	15.0	0.00e+00	0	34	0	147849216	78	4739
2026-01-01 00:56:16.84	24.87	10.69	-55.9	-58.5	15.0	0.00e+00	0	34	0	149946368	78	4755
2026-01-01 00:56:17.84	24.87	10.78	-55.9	-58.5	15.0	0.00e+00	0	34	0	152043520	78	4712
2026-01-01 00:56:18.84	24.86	10.87	-55.8	-58.4	15.1	0.00e+00	0	35	0	154140672	78	4682
2026-01-01 00:56:19.84	24.85	10.96	-55.8	-58.4	15.1	0.00e+00	0	35	0	155189248	78	4674
2026-01-01 00:56:20.85	24.84	11.05	-55.9	-58.5	15.0	0.00e+00	0	34	0	157286400	78	4739
2026-01-01 00:56:21.84	24.84	11.14	-55.9	-58.5	15.1	0.00e+00	0	34	0	159383552	78	4712
2026-01-01 00:56:22.84	24.83	11.23	-55.8	-58.3	15.1	0.00e+00	0	34	0	161480704	78	4636
2026-01-01 00:56:23.84	24.82	11.32	-55.8	-58.3	15.1	0.00e+00	0	35	0	162529280	78	4621
2026-01-01 00:56:24.84	24.81	11.41	-55.7	-58.2	15.2	0.00e+00	0	34	0	164626432	78	4587
2026-01-01 00:56:25.83	24.81	11.51	-55.8	-58.3	15.2	0.00e+00	0	35	0	166723584	78	4619
2026-01-01 00:56:26.82	24.80	11.60	-55.7	-58.1	15.3	0.00e+00	0	35	0	168820736	78	4540
2026-01-01 00:56:27.82	24.79	11.69	-55.7	-58.1	15.2	0.00e+00	0	34	0	170917888	77	4798
2026-01-01 00:56:28.82	24.78	11.78	-55.7	-58.1	15.2	0.00e+00	0	34	0	171966464	77	4806
2026-01-01 00:56:29.82	24.77	11.87	-55.7	-58.2	15.2	0.00e+00	0	34	0	174063616	77	4822
2026-01-01 00:56:30.82	24.76	11.97	-55.7	-58.2	15.2	0.00e+00	0	34	0	176160768	77	4845
2026-01-01 00:56:31.82	24.76	12.06	-55.7	-58.1	15.2	0.00e+00	0	35	0	178257920	77	4808
2026-01-01 00:56:32.81	24.75	12.16	-55.7	-58.2	15.2	0.00e+00	0	35	0	179306496	77	4826
2026-01-01 00:56:33.81	24.74	12.25	-55.6	-58.0	15.3	0.00e+00	0	34	0	181403648	77	4754
2026-01-01 00:56:34.81	24.73	12.35	-55.7	-58.1	15.3	0.00e+00	0	34	0	183500800	77	4804
2026-01-01 00:56:35.81	24.72	12.44	-55.6	-58.0	15.4	0.00e+00	0	35	0	185597952	77	4722
2026-01-01 00:56:36.81	24.71	12.54	-55.6	-58.0	15.4	0.00e+00	0	34	0	187695104	77	4712
2026-01-01 00:56:37.80	24.70	12.63	-55.5	-57.9	15.4	0.00e+00	0	34	0	188743680	77	4694
2026-01-01 00:56:38.80	24.69	12.73	-55.5	-57.9	15.5	0.00e+00	0	34	0	190840832	77	4672
2026-01-01 00:56:39.80	24.69	12.82	-55.6	-58.0	15.4	0.00e+00	0	34	0	192937984	77	4715
2026-01-01 00:56:40.80	24.68	12.92	-55.6	-58.0	15.4	0.00e+00	0	35	0	195035136	77	4719
2026-01-01 00:56:41.80	24.67	13.02	-55.5	-57.8	15.5	0.00e+00	0	34	0	197132288	77	4627
2026-01-01 00:56:42.80	24.66	13.12	-55.6	-58.0	15.4	0.00e+00	0	34	0	198180864	77	4719
2026-01-01 00:56:43.81	24.65	13.22	-55.5	-57.8	15.5	0.00e+00	0	34	0	200278016	77	4643
2026-01-01 00:56:44.81	24.64	13.32	-55.5	-57.8	15.5	0.00e+00	0	34	0	202375168	77	4638
2026-01-01 00:56:45.81	24.63	13.42	-55.5	-57.9	15.5	0.00e+00	0	34	0	204472320	77	4656
2026-01-01 00:56:46.81	24.62	13.51	-55.5	-57.9	15.5	0.00e+00	0	34	0	206569472	77	4656
2026-01-01 00:56:47.80	24.61	13.61	-55.4	-57.6	15.6	0.00e+00	0	35	0	207618048	77	4536
2026-01-01 00:56:48.81	24.60	13.72	-55.4	-57.7	15.6	0.00e+00	0	34	0	209715200	77	4548
2026-01-01 00:56:49.80	24.59	13.82	-55.3	-57.5	15.7	0.00e+00	0	35	0	211812352	77	4490
2026-01-01 00:56:50.80	24.58	13.92	-55.3	-57.5	15.8	0.00e+00	0	35	0	213909504	77	4473
2026-01-01 00:56:51.80	24.57	14.02	-55.3	-57.5	15.8	0.00e+00	0	35	0	214958080	77	4476
2026-01-01 00:56:52.80	24.56	14.12	-55.2	-57.5	15.7	0.00e+00	0	34	0	217055232	77	4447
2026-01-01 00:56:53.80	24.55	14.22	-55.3	-57.5	15.8	0.00e+00	0	35	0	219152384	77	4461
2026-01-01 00:56:54.80	24.54	14.33	-55.3	-57.6	15.7	0.00e+00	0	35	0	221249536	77	4496
2026-01-01 00:56:55.81	24.53	14.43	-55.3	-57.6	15.7	0.00e+00	0	34	0	223346688	77	4496
2026-01-01 00:56:56.81	24.52	14.53	-55.2	-57.4	15.8	0.00e+00	0	34	0	224395264	76	4675
2026-01-01 00:56:57.81	24.51	14.64	-55.1	-57.3	15.8	0.00e+00	0	35	0	226492416	76	4646
2026-01-01 00:56:58.82	24.49	14.74	-55.1	-57.3	15.9	0.00e+00	0	35	0	228589568	76	4624
2026-01-01 00:56:59.82	24.48	14.85	-55.1	-57.2	15.9	0.00e+00	0	34	0	230686720	76	4592
2026-01-01 00:57:00.82	24.47	14.96	-55.1	-57.3	15.9	0.00e+00	0	35	0	232783872	76	4618
2026-01-01 00:57:01.83	24.46	15.06	-55.1	-57.2	15.9	0.00e+00	0	35	0	233832448	76	4577
2026-01-01 00:57:02.83	24.45	15.17	-55.1	-57.3	15.9	0.00e+00	0	34	0	235929600	76	4619
2026-01-01 00:57:03.83	24.44	15.28	-55.1	-57.2	15.9	0.00e+00	0	34	0	238026752	76	4589
2026-01-01 00:57:04.83	24.43	15.38	-55.0	-57.1	16.0	0.00e+00	0	35	0	240123904	76	4531
2026-01-01 00:57:05.83	24.41	15.49	-54.9	-57.0	16.1	0.00e+00	0	34	0	242221056	76	4475
2026-01-01 00:57:06.83	24.40	15.60	-54.9	-57.1	16.1	0.00e+00	0	34	0	243269632	76	4494
2026-01-01 00:57:07.83	24.39	15.71	-54.9	-56.9	16.1	0.00e+00	0	35	0	245366784	76	4426
2026-01-01 00:57:08.83	24.38	15.82	-54.9	-57.0	16.1	0.00e+00	0	35	0	247463936	76	4474
2026-01-01 00:57:09.83	24.37	15.93	-55.0	-57.1	16.1	0.00e+00	0	35	0	249561088	76	4513
2026-01-01 00:57:10.83	24.35	16.04	-54.8	-56.9	16.2	0.00e+00	0	35	0	251658240	76	4423
2026-01-01 00:57:11.83	24.34	16.15	-54.8	-56.9	16.2	0.00e+00	0	34	0	252706816	76	4402
2026-01-01 00:57:12.83	24.33	16.26	-54.8	-56.9	16.2	0.00e+00	0	35	0	254803968	76	4400
2026-01-01 00:57:13.83	24.32	16.37	-54.7	-56.7	16.3	0.00e+00	0	34	0	256901120	76	4327
2026-01-01 00:57:14.83	24.30	16.49	-54.6	-56.6	16.3	0.00e+00	0	35	0	258998272	75	4499
2026-01-01 00:57:15.84	24.29	16.60	-54.6	-56.6	16.3	0.00e+00	0	35	0	260046848	75	4510
2026-01-01 00:57:16.84	24.28	16.71	-54.6	-56.6	16.3	0.00e+00	0	34	0	262144000	75	4513
2026-01-01 00:57:17.83	24.26	16.83	-54.7	-56.7	16.2	0.00e+00	0	34	0	264241152	75	4580
2026-01-01 00:57:18.83	24.25	16.94	-54.6	-56.6	16.3	0.00e+00	0	34	0	266338304	75	4520
2026-01-01 00:57:19.84	24.24	17.06	-54.5	-56.4	16.4	0.00e+00	0	34	0	268435456	75	4425
2026-01-01 00:57:20.84	24.22	17.17	-54.4	-56.4	16.4	0.00e+00	0	35	0	269484032	75	4402
2026-01-01 00:57:21.84	24.21	17.29	-54.5	-56.4	16.4	0.00e+00	0	34	0	271581184	75	4427
2026-01-01 00:57:22.83	24.20	17.41	-54.4	-56.3	16.4	0.00e+00	0	34	0	273678336	75	4374
2026-01-01 00:57:23.83	24.18	17.52	-54.3	-56.2	16.5	0.00e+00	0	35	0	275775488	75	4308
2026-01-01 00:57:24.82	24.17	17.64	-54.3	-56.2	16.5	0.00e+00	0	35	0	276824064	75	4315
2026-01-01 00:57:25.82	24.15	17.76	-54.3	-56.2	16.5	0.00e+00	0	34	0	278921216	75	4293
2026-01-01 00:57:26.82	24.14	17.88	-54.3	-56.2	16.5	0.00e+00	0	34	0	281018368	75	4324
2026-01-01 00:57:27.82	24.12	18.00	-54.4	-56.3	16.5	0.00e+00	0	35	0	283115520	75	4360
2026-01-01 00:57:28.81	24.11	18.12	-54.4	-56.3	16.5	0.00e+00	0	34	0	285212672	75	4355
2026-01-01 00:57:29.81	24.10	18.24	-54.2	-56.1	16.6	0.00e+00	0	34	0	286261248	75	4269
2026-01-01 00:57:30.82	24.08	18.36	-54.2	-56.1	16.6	0.00e+00	0	34	0	288358400	74	4497
2026-01-01 00:57:31.82	24.06	18.48	-54.1	-55.9	16.6	0.00e+00	0	35	0	290455552	74	4439
2026-01-01 00:57:32.82	24.05	18.60	-54.1	-55.9	16.6	0.00e+00	0	35	0	292552704	74	4428
2026-01-01 00:57:33.83	24.03	18.73	-54.1	-55.9	16.6	0.00e+00	0	35	0	294649856	74	4414
2026-01-01 00:57:34.83	24.02	18.85	-54.0	-55.9	16.7	0.00e+00	0	35	0	295698432	74	4396
2026-01-01 00:57:35.82	24.00	18.98	-54.0	-55.9	16.7	0.00e+00	0	35	0	297795584	74	4396
2026-01-01 00:57:36.83	23.99	19.10	-54.0	-55.8	16.7	0.00e+00	0	35	0	299892736	74	4378
2026-01-01 00:57:37.82	23.97	19.23	-54.0	-55.8	16.7	0.00e+00	0	35	0	301989888	74	4357
2026-01-01 00:57:38.81	23.95	19.35	-54.0	-55.9	16.7	0.00e+00	0	35	0	304087040	74	4398
2026-01-01 00:57:39.82	23.94	19.48	-54.0	-55.8	16.7	0.00e+00	0	35	0	305135616	74	4385
2026-01-01 00:57:40.81	23.92	19.61	-53.9	-55.7	16.8	0.00e+00	0	35	0	307232768	74	4296
2026-01-01 00:57:41.81	23.90	19.73	-53.9	-55.7	16.8	0.00e+00	0	35	0	309329920	74	4303
2026-01-01 00:57:42.80	23.89	19.86	-53.9	-55.7	16.8	0.00e+00	0	35	0	311427072	74	4304
2026-01-01 00:57:43.80	23.87	19.99	-53.9	-55.7	16.8	0.00e+00	0	35	0	312475648	74	4325
2026-01-01 00:57:44.80	23.85	20.12	-53.9	-55.7	16.8	0.00e+00	0	35	0	314572800	74	4313
2026-01-01 00:57:45.81	23.83	20.25	-53.9	-55.7	16.8	0.00e+00	0	35	0	316669952	74	4306
2026-01-01 00:57:46.81	23.82	20.39	-54.0	-55.7	16.8	0.00e+00	0	35	0	318767104	74	4335
2026-01-01 00:57:47.80	23.80	20.52	-54.0	-55.8	16.7	0.00e+00	0	35	0	320864256	74	4371
2026-01-01 00:57:48.80	23.78	20.65	-53.8	-55.6	16.8	0.00e+00	0	35	0	321912832	74	4270
2026-01-01 00:57:49.80	23.76	20.78	-53.8	-55.6	16.9	0.00e+00	0	35	0	324009984	74	4263
2026-01-01 00:57:50.80	23.74	20.92	-53.8	-55.6	16.9	0.00e+00	0	35	0	326107136	74	4243
2026-01-01 00:57:51.81	23.73	21.05	-53.7	-55.4	16.9	0.00e+00	0	35	0	328204288	74	4188
2026-01-01 00:57:52.80	23.71	21.19	-53.7	-55.4	16.9	0.00e+00	0	34	0	330301440	74	4191
2026-01-01 00:57:53.80	23.69	21.33	-53.7	-55.4	17.0	0.00e+00	0	35	0	331350016	74	4186
2026-01-01 00:57:54.80	23.67	21.46	-53.7	-55.4	17.0	0.00e+00	0	35	0	333447168	73	4396
2026-01-01 00:57:55.80	23.65	21.60	-53.7	-55.5	16.9	0.00e+00	0	35	0	335544320	73	4454
2026-01-01 00:57:56.80	23.63	21.74	-53.7	-55.4	16.9	0.00e+00	0	35	0	337641472	73	4439
2026-01-01 00:57:57.79	23.61	21.88	-53.8	-55.5	16.9	0.00e+00	0	35	0	338690048	73	4456
2026-01-01 00:57:58.79	23.59	22.02	-53.7	-55.4	17.0	0.00e+00	0	35	0	340787200	73	4410
2026-01-01 00:57:59.79	23.57	22.16	-53.7	-55.4	17.0	0.00e+00	0	35	0	342884352	73	4394
2026-01-01 00:58:00.79	23.55	22.30	-53.7	-55.4	16.9	0.00e+00	0	35	0	344981504	73	4437
2026-01-01 00:58:01.79	23.53	22.45	-53.7	-55.5	16.9	0.00e+00	0	35	0	347078656	73	4442
2026-01-01 00:58:02.78	23.51	22.59	-53.7	-55.3	16.9	0.00e+00	0	35	0	348127232	73	4388
2026-01-01 00:58:03.77	23.48	22.73	-53.7	-55.5	16.9	0.00e+00	0	35	0	350224384	73	4448
2026-01-01 00:58:04.77	23.46	22.88	-53.8	-55.5	16.9	0.00e+00	0	35	0	352321536	73	4460
2026-01-01 00:58:05.76	23.44	23.02	-53.7	-55.4	16.9	0.00e+00	0	35	0	354418688	73	4436
2026-01-01 00:58:06.76	23.42	23.17	-53.7	-55.4	16.9	0.00e+00	0	35	0	355467264	73	4430
2026-01-01 00:58:07.77	23.40	23.32	-53.7	-55.5	17.0	0.00e+00	0	35	0	357564416	73	4448
2026-01-01 00:58:08.76	23.37	23.46	-53.8	-55.5	16.9	0.00e+00	0	35	0	359661568	73	4463
2026-01-01 00:58:09.76	23.35	23.61	-53.7	-55.4	17.0	0.00e+00	0	34	0	361758720	73	4423
2026-01-01 00:58:10.76	23.33	23.76	-53.7	-55.5	16.9	0.00e+00	0	35	0	363855872	73	4444
2026-01-01 00:58:11.75	23.31	23.91	-53.9	-55.6	16.9	0.00e+00	0	35	0	364904448	73	4535
2026-01-01 00:58:12.75	23.28	24.06	-53.9	-55.6	16.8	0.00e+00	0	35	0	367001600	73	4544
2026-01-01 00:58:13.75	23.26	24.22	-53.9	-55.7	16.9	0.00e+00	0	34	0	369098752	73	4554
2026-01-01 00:58:14.74	23.23	24.37	-54.0	-55.7	16.8	0.00e+00	0	34	0	371195904	73	4576
2026-01-01 00:58:15.74	23.21	24.52	-54.0	-55.8	16.8	0.00e+00	0	35	0	373293056	73	4614
2026-01-01 00:58:16.74	23.19	24.68	-54.0	-55.7	16.8	0.00e+00	0	35	0	374341632	73	4597
2026-01-01 00:58:17.73	23.16	24.83	-54.1	-55.9	16.8	0.00e+00	0	35	0	376438784	73	4667
2026-01-01 00:58:18.74	23.13	24.99	-54.0	-55.8	16.8	0.00e+00	0	35	0	378535936	73	4634
2026-01-01 00:58:19.73	23.11	25.15	-54.0	-55.8	16.8	0.00e+00	0	35	0	380633088	73	4625
2026-01-01 00:58:20.73	23.08	25.31	-54.1	-55.9	16.7	0.00e+00	0	34	0	382730240	73	4699
2026-01-01 00:58:21.73	23.06	25.47	-54.1	-55.9	16.8	0.00e+00	0	35	0	383778816	73	4662
2026-01-01 00:58:22.73	23.03	25.63	-54.2	-56.0	16.7	0.00e+00	0	35	0	385875968	73	4737
2026-01-01 00:58:23.72	23.00	25.79	-54.2	-56.0	16.7	0.00e+00	0	35	0	387973120	73	4747
2026-01-01 00:58:24.72	22.98	25.95	-54.2	-56.0	16.7	0.00e+00	0	35	0	390070272	73	4732
2026-01-01 00:58:25.72	22.95	26.12	-54.2	-56.0	16.7	0.00e+00	0	35	0	391118848	73	4707
2026-01-01 00:58:26.71	22.92	26.28	-54.1	-55.9	16.8	0.00e+00	0	35	0	393216000	73	4678
2026-01-01 00:58:27.70	22.89	26.45	-54.1	-55.9	16.7	0.00e+00	0	35	0	395313152	73	4680
2026-01-01 00:58:28.70	22.87	26.61	-54.2	-56.0	16.7	0.00e+00	0	35	0	397410304	73	4734
2026-01-01 00:58:29.70	22.84	26.78	-54.3	-56.1	16.7	0.00e+00	0	35	0	399507456	73	4770
2026-01-01 00:58:30.70	22.81	26.95	-54.3	-56.2	16.6	0.00e+00	0	34	0	400556032	73	4821
2026-01-01 00:58:31.70	22.78	27.12	-54.4	-56.2	16.6	0.00e+00	0	35	0	402653184	74	4595
2026-01-01 00:58:32.69	22.75	27.29	-54.5	-56.4	16.6	0.00e+00	0	35	0	404750336	74	4668
2026-01-01 00:58:33.69	22.72	27.46	-54.5	-56.4	16.5	0.00e+00	0	35	0	406847488	74	4693
2026-01-01 00:58:34.68	22.69	27.63	-54.6	-56.5	16.5	0.00e+00	0	35	0	407896064	74	4743
2026-01-01 00:58:35.67	22.66	27.81	-54.7	-56.6	16.5	0.00e+00	0	35	0	409993216	74	4777
2026-01-01 00:58:36.67	22.63	27.98	-54.8	-56.8	16.3	0.00e+00	0	35	0	412090368	74	4885
2026-01-01 00:58:37.67	22.60	28.16	-54.8	-56.8	16.4	0.00e+00	0	35	0	414187520	74	4886
2026-01-01 00:58:38.67	22.56	28.34	-54.9	-57.0	16.3	0.00e+00	0	35	0	416284672	75	4706
2026-01-01 00:58:39.65	22.53	28.51	-55.2	-57.2	16.2	0.00e+00	0	34	0	417333248	75	4847
2026-01-01 00:58:40.65	22.50	28.69	-55.1	-57.1	16.2	0.00e+00	0	35	0	419430400	75	4792
2026-01-01 00:58:41.65	22.47	28.87	-55.3	-57.4	16.1	0.00e+00	0	35	0	421527552	75	4956
2026-01-01 00:58:42.65	22.43	29.06	-55.5	-57.7	15.9	0.00e+00	0	35	0	423624704	76	4844
2026-01-01 00:58:43.64	22.40	29.24	-55.7	-57.9	15.8	0.00e+00	0	35	0	424673280	76	4940
2026-01-01 00:58:44.63	22.36	29.42	-55.9	-58.1	15.6	0.00e+00	0	35	0	426770432	76	5092
2026-01-01 00:58:45.63	22.33	29.61	-56.0	-58.2	15.6	0.00e+00	0	35	0	428867584	77	4867
2026-01-01 00:58:46.63	22.29	29.79	-56.0	-58.3	15.6	0.00e+00	0	35	0	430964736	77	4914
2026-01-01 00:58:47.63	22.26	29.98	-56.1	-58.4	15.5	0.00e+00	0	35	0	433061888	77	4955
2026-01-01 00:58:48.63	22.22	30.17	-56.1	-58.4	15.5	0.00e+00	0	34	0	434110464	77	4981
2026-01-01 00:58:49.63	22.18	30.36	-56.3	-58.7	15.4	0.00e+00	0	35	0	436207616	77	5126
2026-01-01 00:58:50.63	22.15	30.56	-56.4	-58.8	15.3	0.00e+00	0	35	0	438304768	77	5211
2026-01-01 00:58:51.62	22.11	30.75	-56.5	-59.1	15.2	0.00e+00	0	35	0	440401920	78	5064
2026-01-01 00:58:52.61	22.07	30.94	-56.6	-59.1	15.1	0.00e+00	0	35	0	441450496	78	5073
2026-01-01 00:58:53.60	22.03	31.13	-56.7	-59.3	15.0	0.00e+00	0	35	0	443547648	78	5214
2026-01-01 00:58:54.60	21.99	31.33	-56.6	-59.1	15.1	0.00e+00	0	35	0	445644800	78	5088
2026-01-01 00:58:55.59	21.95	31.53	-56.6	-59.2	15.1	0.00e+00	0	35	0	447741952	78	5135
2026-01-01 00:58:56.60	21.91	31.73	-56.6	-59.2	15.1	0.00e+00	0	35	0	449839104	78	5155
2026-01-01 00:58:57.60	21.87	31.93	-56.7	-59.3	15.0	0.00e+00	0	35	0	450887680	78	5174
2026-01-01 00:58:58.59	21.83	32.13	-56.6	-59.2	15.1	0.00e+00	0	35	0	452984832	78	5139
2026-01-01 00:58:59.59	21.79	32.34	-56.6	-59.2	15.0	0.00e+00	0	35	0	455081984	78	5141
2026-01-01 00:59:00.59	21.75	32.54	-56.6	-59.2	15.1	0.00e+00	0	35	0	457179136	78	5136
2026-01-01 00:59:01.59	21.70	32.75	-56.6	-59.2	15.1	0.00e+00	0	34	0	459276288	78	5126
2026-01-01 00:59:02.58	21.66	32.95	-56.5	-59.0	15.2	0.00e+00	0	35	0	460324864	78	4985
2026-01-01 00:59:03.59	21.61	33.17	-56.5	-58.9	15.2	0.00e+00	0	35	0	462422016	78	4981
2026-01-01 00:59:04.58	21.57	33.38	-56.5	-59.0	15.2	0.00e+00	0	35	0	464519168	78	5010
2026-01-01 00:59:05.59	21.52	33.59	-56.4	-58.9	15.3	0.00e+00	0	35	0	466616320	78	4972
2026-01-01 00:59:06.59	21.48	33.80	-56.3	-58.7	15.5	0.00e+00	0	35	0	468713472	78	4829
2026-01-01 00:59:07.58	21.43	34.02	-56.1	-58.5	15.6	0.00e+00	0	35	0	469762048	78	4736
2026-01-01 00:59:08.58	21.38	34.23	-56.1	-58.4	15.6	0.00e+00	0	35	0	471859200	78	4691
2026-01-01 00:59:09.58	21.33	34.45	-55.8	-58.0	15.9	0.00e+00	0	35	0	473956352	78	4452
2026-01-01 00:59:10.58	21.28	34.67	-55.6	-57.7	16.0	0.00e+00	0	35	0	476053504	77	4593
2026-01-01 00:59:11.58	21.23	34.89	-55.6	-57.8	15.9	0.00e+00	0	35	0	477102080	77	4620
2026-01-01 00:59:12.58	21.18	35.12	-55.2	-57.2	16.3	0.00e+00	0	34	0	479199232	77	4315
2026-01-01 00:59:13.57	21.13	35.34	-55.0	-56.9	16.5	0.00e+00	0	35	0	481296384	76	4419
2026-01-01 00:59:14.57	21.08	35.57	-54.8	-56.7	16.5	0.00e+00	0	35	0	483393536	76	4303
2026-01-01 00:59:15.57	21.03	35.79	-54.6	-56.5	16.6	0.00e+00	0	35	0	485490688	75	4443
2026-01-01 00:59:16.57	20.97	36.02	-54.3	-56.1	16.8	0.00e+00	0	35	0	486539264	75	4285
2026-01-01 00:59:17.56	20.92	36.25	-54.2	-56.0	16.8	0.00e+00	0	35	0	488636416	74	4458
2026-01-01 00:59:18.56	20.86	36.49	-54.2	-55.9	16.9	0.00e+00	0	35	0	490733568	74	4418
2026-01-01 00:59:19.56	20.81	36.72	-53.9	-55.6	17.0	0.00e+00	0	35	0	492830720	74	4275
2026-01-01 00:59:20.56	20.75	36.96	-53.7	-55.4	17.1	0.00e+00	0	35	0	493879296	74	4151
2026-01-01 00:59:21.56	20.69	37.19	-53.7	-55.4	17.2	0.00e+00	0	35	0	495976448	74	4158
2026-01-01 00:59:22.56	20.63	37.43	-53.7	-55.4	17.2	0.00e+00	0	35	0	498073600	74	4170
2026-01-01 00:59:23.56	20.57	37.67	-53.5	-55.1	17.2	0.00e+00	0	35	0	500170752	73	4290
2026-01-01 00:59:24.55	20.51	37.91	-53.6	-55.2	17.2	0.00e+00	0	35	0	502267904	73	4339
2026-01-01 00:59:25.55	20.45	38.16	-53.6	-55.3	17.2	0.00e+00	0	35	0	503316480	73	4357
2026-01-01 00:59:26.54	20.39	38.40	-53.6	-55.3	17.2	0.00e+00	0	35	0	505413632	73	4342
2026-01-01 00:59:27.53	20.32	38.65	-53.5	-55.1	17.2	0.00e+00	0	35	0	507510784	73	4283
2026-01-01 00:59:28.53	20.26	38.90	-53.7	-55.4	17.1	0.00e+00	0	35	0	509607936	73	4402
2026-01-01 00:59:29.53	20.19	39.15	-53.7	-55.3	17.1	0.00e+00	0	35	0	511705088	73	4378
2026-01-01 00:59:30.53	20.13	39.40	-53.8	-55.4	17.1	0.00e+00	0	35	0	512753664	73	4433
2026-01-01 00:59:31.53	20.06	39.66	-54.0	-55.7	17.0	0.00e+00	0	35	0	514850816	73	4567
2026-01-01 00:59:32.52	19.99	39.91	-54.1	-55.9	16.9	0.00e+00	0	35	0	516947968	73	4653
2026-01-01 00:59:33.52	19.92	40.17	-54.3	-56.1	16.8	0.00e+00	0	35	0	519045120	73	4776
2026-01-01 00:59:34.52	19.85	40.43	-54.5	-56.3	16.7	0.00e+00	0	35	0	520093696	74	4620
2026-01-01 00:59:35.52	19.77	40.69	-54.5	-56.3	16.7	0.00e+00	0	35	0	522190848	74	4632
2026-01-01 00:59:36.52	19.70	40.96	-54.7	-56.6	16.6	0.00e+00	0	35	0	524288000	74	4796
2026-01-01 00:59:37.52	19.62	41.22	-54.7	-56.6	16.6	0.00e+00	0	35	0	526385152	74	4801
2026-01-01 00:59:38.52	19.55	41.49	-54.8	-56.6	16.6	0.00e+00	0	35	0	528482304	74	4805
2026-01-01 00:59:39.51	19.47	41.76	-54.9	-56.9	16.5	0.00e+00	0	35	0	529530880	75	4672
2026-01-01 00:59:40.51	19.39	42.03	-55.0	-57.0	16.4	0.00e+00	0	35	0	531628032	75	4709
2026-01-01 00:59:41.51	19.31	42.31	-54.9	-56.8	16.5	0.00e+00	0	35	0	533725184	75	4629
2026-01-01 00:59:42.51	19.23	42.58	-54.8	-56.7	16.5	0.00e+00	0	35	0	535822336	75	4570
2026-01-01 00:59:43.51	19.14	42.86	-54.8	-56.7	16.5	0.00e+00	0	35	0	536870912	75	4584
2026-01-01 00:59:44.50	19.06	43.14	-54.7	-56.5	16.7	0.00e+00	0	35	0	538968064	75	4468
2026-01-01 00:59:45.50	18.97	43.42	-54.8	-56.7	16.6	0.00e+00	0	35	0	541065216	75	4560
2026-01-01 00:59:46.50	18.88	43.70	-54.9	-56.8	16.5	0.00e+00	0	35	0	543162368	75	4616
2026-01-01 00:59:47.50	18.79	43.99	-55.0	-56.9	16.5	0.00e+00	0	35	0	545259520	75	4690
2026-01-01 00:59:48.48	18.70	44.27	-55.3	-57.3	16.2	0.00e+00	0	35	0	546308096	75	4925
2026-01-01 00:59:49.48	18.61	44.56	-55.4	-57.4	16.2	0.00e+00	0	35	0	548405248	75	4951
2026-01-01 00:59:50.48	18.51	44.85	-55.5	-57.6	16.1	0.00e+00	0	35	0	550502400	76	4792
2026-01-01 00:59:51.48	18.41	45.15	-55.9	-58.1	15.9	0.00e+00	0	35	0	552599552	76	5050
2026-01-01 00:59:52.49	18.31	45.45	-56.2	-58.6	15.7	0.00e+00	0	35	0	554696704	77	5043
2026-01-01 00:59:53.48	18.21	45.74	-56.6	-59.1	15.3	0.00e+00	0	34	0	555745280	78	5046
2026-01-01 00:59:54.48	18.11	46.04	-56.7	-59.3	15.2	0.00e+00	0	35	0	557842432	78	5164
2026-01-01 00:59:55.48	18.01	46.35	-56.6	-59.1	15.3	0.00e+00	0	35	0	559939584	78	5067
2026-01-01 00:59:56.48	17.90	46.65	-56.9	-59.5	15.0	0.00e+00	0	35	0	562036736	78	5300
2026-01-01 00:59:57.48	17.79	46.96	-57.1	-59.9	14.8	0.00e+00	0	35	0	564133888	79	5224
2026-01-01 00:59:58.48	17.68	47.27	-57.2	-60.0	14.7	0.00e+00	0	35	0	565182464	79	5336
2026-01-01 00:59:59.48	17.56	47.58	-57.3	-60.1	14.6	0.00e+00	0	35	0	567279616	79	5354
2026-01-01 01:00:00.48	17.45	47.89	-57.5	-60.4	14.5	0.00e+00	0	35	0	569376768	79	5535
2026-01-01 01:00:01.48	17.33	48.21	-57.2	-60.0	14.7	0.00e+00	0	35	0	571473920	80	5005
2026-01-01 01:00:02.47	17.21	48.52	-56.9	-59.6	15.0	0.00e+00	0	35	0	572522496	80	4764
2026-01-01 01:00:03.47	17.08	48.84	-56.8	-59.3	15.1	0.00e+00	0	35	0	574619648	80	4628
2026-01-01 01:00:04.47	16.95	49.16	-56.3	-58.7	15.6	0.00e+00	0	35	0	576716800	79	4561
2026-01-01 01:00:05.46	16.83	49.48	-55.9	-58.1	15.9	0.00e+00	0	34	0	578813952	78	4506
2026-01-01 01:00:06.46	16.69	49.81	-55.5	-57.6	16.2	0.00e+00	0	35	0	580911104	77	4507
2026-01-01 01:00:07.47	16.56	50.14	-55.1	-57.0	16.5	0.00e+00	0	35	0	581959680	76	4448
2026-01-01 01:00:08.46	16.42	50.47	-54.3	-56.1	16.9	0.00e+00	0	35	0	584056832	75	4256
2026-01-01 01:00:09.46	16.28	50.80	-53.8	-55.4	17.2	0.00e+00	0	35	0	586153984	74	4186
2026-01-01 01:00:10.46	16.13	51.14	-53.3	-54.8	17.4	0.00e+00	0	35	0	588251136	73	4127
2026-01-01 01:00:11.45	15.98	51.47	-53.0	-54.4	17.6	0.00e+00	0	35	0	589299712	72	4189
2026-01-01 01:00:12.45	15.83	51.81	-52.8	-54.2	17.6	0.00e+00	0	35	0	591396864	72	4098
2026-01-01 01:00:13.44	15.68	52.15	-52.8	-54.3	17.6	0.00e+00	0	35	0	593494016	72	4113
2026-01-01 01:00:14.44	15.52	52.49	-52.9	-54.3	17.6	0.00e+00	0	35	0	595591168	72	4143
2026-01-01 01:00:15.44	15.36	52.84	-52.8	-54.3	17.6	0.00e+00	0	35	0	597688320	72	4128
2026-01-01 01:00:16.43	15.19	53.18	-53.1	-54.6	17.5	0.00e+00	0	35	0	598736896	72	4260
2026-01-01 01:00:17.43	15.02	53.53	-53.4	-54.9	17.4	0.00e+00	0	35	0	600834048	72	4418
2026-01-01 01:00:18.43	14.84	53.89	-53.6	-55.2	17.3	0.00e+00	0	35	0	602931200	72	4572
2026-01-01 01:00:19.44	14.66	54.25	-53.7	-55.3	17.2	0.00e+00	0	35	0	605028352	72	4606
2026-01-01 01:00:20.44	14.48	54.60	-53.6	-55.2	17.3	0.00e+00	0	35	0	607125504	72	4588
2026-01-01 01:00:21.44	14.29	54.96	-53.8	-55.4	17.2	0.00e+00	0	35	0	608174080	72	4692
2026-01-01 01:00:22.44	14.09	55.32	-54.2	-55.9	17.0	0.00e+00	0	35	0	610271232	73	4661
2026-01-01 01:00:23.44	13.89	55.69	-54.4	-56.1	16.9	0.00e+00	0	35	0	612368384	73	4800
2026-01-01 01:00:24.44	13.69	56.05	-54.7	-56.5	16.7	0.00e+00	0	35	0	614465536	74	4748
2026-01-01 01:00:25.44	13.48	56.42	-55.2	-57.1	16.5	0.00e+00	0	35	0	616562688	75	4789
2026-01-01 01:00:26.45	13.26	56.79	-55.9	-58.0	16.0	0.00e+00	0	35	0	617611264	76	5019
2026-01-01 01:00:27.44	13.04	57.16	-56.0	-58.2	15.9	0.00e+00	0	35	0	619708416	77	4822
2026-01-01 01:00:28.44	12.81	57.53	-56.0	-58.2	15.9	0.00e+00	0	35	0	621805568	77	4842
2026-01-01 01:00:29.44	12.58	57.91	-56.1	-58.3	15.8	0.00e+00	0	35	0	623902720	77	4883
2026-01-01 01:00:30.43	12.34	58.28	-56.4	-58.7	15.6	0.00e+00	0	35	0	624951296	78	4866
2026-01-01 01:00:31.42	12.09	58.66	-56.7	-59.1	15.3	0.00e+00	0	35	0	627048448	78	5085
2026-01-01 01:00:32.42	11.84	59.04	-56.6	-59.0	15.5	0.00e+00	0	35	0	629145600	78	4986
2026-01-01 01:00:33.42	11.57	59.42	-56.5	-58.8	15.5	0.00e+00	0	35	0	631242752	78	4901
2026-01-01 01:00:34.42	11.30	59.81	-56.3	-58.6	15.6	0.00e+00	0	35	0	633339904	78	4801
2026-01-01 01:00:35.42	11.02	60.20	-55.8	-57.9	16.1	0.00e+00	0	35	0	634388480	78	4425
2026-01-01 01:00:36.42	10.73	60.58	-55.2	-57.1	16.5	0.00e+00	0	35	0	636485632	76	4501
2026-01-01 01:00:37.42	10.43	60.97	-54.7	-56.5	16.8	0.00e+00	0	35	0	638582784	76	4201
2026-01-01 01:00:38.42	10.13	61.37	-54.2	-55.9	17.1	0.00e+00	0	35	0	640679936	74	4404
2026-01-01 01:00:39.42	9.81	61.76	-53.7	-55.2	17.3	0.00e+00	0	35	0	642777088	73	4338
2026-01-01 01:00:40.41	9.48	62.15	-53.5	-55.1	17.3	0.00e+00	0	35	0	643825664	73	4274
2026-01-01 01:00:41.41	9.14	62.55	-53.2	-54.7	17.5	0.00e+00	0	35	0	645922816	72	4295
2026-01-01 01:00:42.41	8.79	62.95	-52.8	-54.2	17.7	0.00e+00	0	35	0	648019968	72	4089
2026-01-01 01:00:43.41	8.43	63.34	-52.5	-53.9	17.8	0.00e+00	0	35	0	650117120	71	4164
2026-01-01 01:00:44.41	8.06	63.75	-52.6	-54.0	17.8	0.00e+00	0	35	0	651165696	71	4203
2026-01-01 01:00:45.41	7.67	64.15	-52.9	-54.3	17.7	0.00e+00	0	35	0	653262848	71	4373
2026-01-01 01:00:46.41	7.27	64.55	-53.1	-54.6	17.5	0.00e+00	0	35	0	655360000	71	4538
2026-01-01 01:00:47.40	6.85	64.95	-53.7	-55.3	17.3	0.00e+00	0	35	0	657457152	72	4638
2026-01-01 01:00:48.39	6.43	65.35	-54.3	-56.0	17.0	0.00e+00	0	35	0	659554304	73	4723
2026-01-01 01:00:49.38	5.98	65.75	-54.6	-56.3	16.9	0.00e+00	0	35	0	660602880	74	4651
2026-01-01 01:00:50.38	5.52	66.16	-54.8	-56.7	16.7	0.00e+00	0	35	0	662700032	74	4836
2026-01-01 01:00:51.38	5.04	66.56	-55.0	-56.9	16.6	0.00e+00	0	35	0	664797184	75	4668
2026-01-01 01:00:52.37	4.54	66.97	-55.0	-56.8	16.6	0.00e+00	0	35	0	666894336	75	4637
2026-01-01 01:00:53.37	4.02	67.37	-54.7	-56.5	16.8	0.00e+00	0	35	0	667942912	75	4458
2026-01-01 01:00:54.37	3.48	67.78	-54.6	-56.3	16.9	0.00e+00	0	35	0	670040064	75	4390
2026-01-01 01:00:55.38	2.91	68.19	-54.5	-56.2	16.9	0.00e+00	0	35	0	672137216	75	4316
2026-01-01 01:00:56.37	2.32	68.60	-54.3	-56.1	17.0	0.00e+00	0	35	0	674234368	75	4247
2026-01-01 01:00:57.37	1.71	69.00	-54.1	-55.8	17.1	0.00e+00	0	35	0	676331520	74	4344
2026-01-01 01:00:58.37	1.07	69.41	-54.3	-56.0	17.1	0.00e+00	0	35	0	677380096	74	4471
2026-01-01 01:00:59.37	0.40	69.82	-54.1	-55.8	17.1	0.00e+00	0	34	0	679477248	74	4366
2026-01-01 01:01:00.37	359.71	70.22	-53.9	-55.5	17.3	0.00e+00	0	34	0	681574400	74	4216
2026-01-01 01:01:01.37	358.98	70.62	-54.3	-56.1	17.0	0.00e+00	0	35	0	683671552	74	4494
2026-01-01 01:01:02.38	358.21	71.03	-54.6	-56.4	16.9	0.00e+00	0	35	0	685768704	74	4673
2026-01-01 01:01:03.38	357.41	71.43	-54.0	-55.7	17.2	0.00e+00	0	35	0	686817280	74	4302
2026-01-01 01:01:04.38	356.58	71.83	-53.6	-55.1	17.4	0.00e+00	0	34	0	688914432	73	4288
2026-01-01 01:01:05.38	355.71	72.22	-53.6	-55.1	17.4	0.00e+00	0	35	0	691011584	73	4260
2026-01-01 01:01:06.38	354.79	72.62	-54.1	-55.7	17.2	0.00e+00	0	35	0	693108736	73	4584
2026-01-01 01:01:07.38	353.83	73.01	-54.7	-56.5	16.8	0.00e+00	0	35	0	695205888	74	4748
2026-01-01 01:01:08.37	352.83	73.39	-55.6	-57.5	16.3	0.00e+00	0	35	0	696254464	76	4742
2026-01-01 01:01:09.37	351.78	73.77	-56.3	-58.5	15.8	0.00e+00	0	35	0	698351616	77	4992
2026-01-01 01:01:10.37	350.66	74.15	-57.0	-59.6	15.1	0.00e+00	0	35	0	700448768	79	5056
2026-01-01 01:01:11.37	349.50	74.53	-57.1	-59.7	15.1	0.00e+00	0	35	0	702545920	79	5123
2026-01-01 01:01:12.38	348.26	74.90	-56.9	-59.4	15.3	0.00e+00	0	35	0	703594496	79	4952
2026-01-01 01:01:13.38	346.97	75.26	-56.5	-58.8	15.6	0.00e+00	0	35	0	705691648	79	4639
2026-01-01 01:01:14.37	345.62	75.61	-56.0	-58.1	16.0	0.00e+00	0	35	0	707788800	78	4542
2026-01-01 01:01:15.37	344.19	75.96	-55.7	-57.6	16.3	0.00e+00	0	35	0	709885952	77	4541
2026-01-01 01:01:16.38	342.67	76.30	-56.0	-58.1	16.0	0.00e+00	0	35	0	711983104	77	4796
2026-01-01 01:01:17.38	341.09	76.63	-55.9	-58.1	16.1	0.00e+00	0	35	0	713031680	77	4760
2026-01-01 01:01:18.37	339.44	76.95	-55.7	-57.7	16.3	0.00e+00	0	35	0	715128832	77	4586
2026-01-01 01:01:19.37	337.69	77.26	-55.8	-57.8	16.2	0.00e+00	0	35	0	717225984	77	4651
2026-01-01 01:01:20.37	335.86	77.56	-56.0	-58.1	16.0	0.00e+00	0	35	0	719323136	77	4797
2026-01-01 01:01:21.37	333.93	77.85	-56.0	-58.1	16.0	0.00e+00	0	35	0	721420288	77	4813
2026-01-01 01:01:22.38	331.89	78.12	-55.2	-57.1	16.6	0.00e+00	0	35	0	722468864	77	4246
2026-01-01 01:01:23.37	329.79	78.38	-55.1	-56.9	16.7	0.00e+00	0	35	0	724566016	76	4411
2026-01-01 01:01:24.37	327.58	78.62	-55.0	-56.9	16.7	0.00e+00	0	35	0	726663168	76	4401
2026-01-01 01:01:25.37	325.27	78.85	-55.1	-56.9	16.7	0.00e+00	0	35	0	728760320	76	4422
2026-01-01 01:01:26.36	322.89	79.05	-55.2	-57.1	16.7	0.00e+00	0	35	0	729808896	76	4503
2026-01-01 01:01:27.36	320.40	79.24	-54.8	-56.6	16.8	0.00e+00	0	35	0	731906048	76	4271
2026-01-01 01:01:28.36	317.83	79.41	-54.7	-56.5	16.9	0.00e+00	0	35	0	734003200	75	4461
2026-01-01 01:01:29.35	315.20	79.55	-55.0	-56.9	16.7	0.00e+00	0	35	0	736100352	75	4678
2026-01-01 01:01:30.36	312.45	79.68	-55.9	-58.1	16.2	0.00e+00	0	35	0	738197504	77	4768
2026-01-01 01:01:31.36	309.66	79.78	-55.8	-57.9	16.2	0.00e+00	0	35	0	739246080	77	4666
2026-01-01 01:01:32.36	306.82	79.85	-55.4	-57.4	16.5	0.00e+00	0	35	0	741343232	77	4409
2026-01-01 01:01:33.36	303.95	79.90	-55.1	-57.0	16.7	0.00e+00	0	35	0	743440384	76	4444
2026-01-01 01:01:34.37	301.03	79.93	-54.5	-56.2	16.9	0.00e+00	0	35	0	745537536	75	4323
2026-01-01 01:01:35.36	298.16	79.93	-54.2	-55.8	17.2	0.00e+00	0	35	0	746586112	74	4381
2026-01-01 01:01:36.35	295.29	79.90	-54.1	-55.7	17.2	0.00e+00	0	35	0	748683264	74	4338
2026-01-01 01:01:37.35	292.42	79.85	-53.9	-55.5	17.3	0.00e+00	0	35	0	750780416	74	4239
2026-01-01 01:01:38.35	289.58	79.78	-53.9	-55.5	17.3	0.00e+00	0	35	0	752877568	74	4222
2026-01-01 01:01:39.35	286.79	79.68	-53.9	-55.5	17.4	0.00e+00	0	35	0	754974720	74	4195
2026-01-01 01:01:40.35	284.07	79.56	-53.5	-55.0	17.5	0.00e+00	0	35	0	756023296	73	4242
2026-01-01 01:01:41.34	281.44	79.41	-53.6	-55.1	17.5	0.00e+00	0	35	0	758120448	73	4269
2026-01-01 01:01:42.33	278.88	79.25	-54.2	-55.9	17.2	0.00e+00	0	35	0	760217600	73	4683
2026-01-01 01:01:43.33	276.39	79.06	-54.5	-56.2	17.1	0.00e+00	0	35	0	762314752	74	4549
2026-01-01 01:01:44.33	273.98	78.85	-54.5	-56.2	17.0	0.00e+00	0	35	0	764411904	74	4585
2026-01-01 01:01:45.32	271.69	78.63	-55.0	-56.8	16.8	0.00e+00	0	35	0	765460480	75	4645
2026-01-01 01:01:46.31	269.50	78.39	-55.6	-57.6	16.3	0.00e+00	0	35	0	767557632	76	4771
2026-01-01 01:01:47.31	267.38	78.14	-56.2	-58.3	16.0	0.00e+00	0	35	0	769654784	77	4903
2026-01-01 01:01:48.30	265.37	77.87	-57.0	-59.5	15.4	0.00e+00	0	35	0	771751936	79	4987
2026-01-01 01:01:49.30	263.43	77.58	-57.6	-60.3	14.7	0.00e+00	0	35	0	772800512	80	5192
2026-01-01 01:01:50.29	261.61	77.28	-58.1	-61.3	14.1	0.00e+00	0	35	0	774897664	81	5470
2026-01-01 01:01:51.29	259.85	76.97	-58.6	-62.1	13.4	0.00e+00	0	35	0	776994816	82	5711
2026-01-01 01:01:52.29	258.18	76.65	-58.2	-61.5	13.9	7.00e-07	0	35	0	779091968	82	5297
2026-01-01 01:01:53.30	256.58	76.32	-57.6	-60.4	14.7	0.00e+00	0	35	0	781189120	81	4957
2026-01-01 01:01:54.29	255.08	75.98	-57.4	-60.1	15.0	0.00e+00	0	35	0	782237696	81	4798
2026-01-01 01:01:55.29	253.65	75.63	-57.3	-60.0	15.0	0.00e+00	0	35	0	784334848	80	5002
2026-01-01 01:01:56.28	252.30	75.28	-57.4	-60.1	14.9	0.00e+00	0	35	0	786432000	80	5043
2026-01-01 01:01:57.27	251.01	74.92	-57.2	-59.7	15.2	0.00e+00	0	35	0	788529152	80	4857
2026-01-01 01:01:58.28	249.77	74.55	-56.3	-58.5	16.0	0.00e+00	0	35	0	790626304	79	4450
2026-01-01 01:01:59.28	248.59	74.18	-55.7	-57.7	16.4	0.00e+00	0	35	0	791674880	78	4333
2026-01-01 01:02:00.27	247.49	73.80	-55.5	-57.5	16.5	0.00e+00	0	35	0	793772032	77	4466
2026-01-01 01:02:01.27	246.43	73.42	-55.2	-57.1	16.6	0.00e+00	0	35	0	795869184	77	4250
2026-01-01 01:02:02.26	245.42	73.04	-54.5	-56.2	17.0	0.00e+00	0	35	0	797966336	75	4313
2026-01-01 01:02:03.27	244.45	72.64	-54.2	-55.8	17.2	0.00e+00	0	35	0	799014912	74	4371
2026-01-01 01:02:04.26	243.54	72.26	-53.8	-55.4	17.3	0.00e+00	0	35	0	801112064	74	4180
2026-01-01 01:02:05.26	242.66	71.86	-53.7	-55.3	17.4	0.00e+00	0	35	0	803209216	74	4126
2026-01-01 01:02:06.26	241.82	71.46	-53.6	-55.1	17.4	0.00e+00	0	35	0	805306368	73	4261
2026-01-01 01:02:07.26	241.02	71.06	-53.9	-55.5	17.3	0.00e+00	0	35	0	807403520	73	4485
2026-01-01 01:02:08.25	240.27	70.66	-54.5	-56.2	17.0	0.00e+00	0	34	0	808452096	74	4558
2026-01-01 01:02:09.24	239.54	70.26	-55.1	-56.9	16.7	0.00e+00	0	35	0	810549248	75	4694
2026-01-01 01:02:10.25	238.83	69.85	-55.5	-57.4	16.5	0.00e+00	0	35	0	812646400	76	4701
2026-01-01 01:02:11.25	238.16	69.45	-55.4	-57.3	16.5	0.00e+00	0	35	0	814743552	76	4627
2026-01-01 01:02:12.25	237.52	69.04	-55.0	-56.8	16.7	0.00e+00	0	35	0	815792128	76	4388
2026-01-01 01:02:13.25	236.90	68.63	-55.5	-57.4	16.4	0.00e+00	0	35	0	817889280	76	4664
2026-01-01 01:02:14.25	236.31	68.22	-56.5	-58.7	15.8	0.00e+00	0	35	0	819986432	78	4856
2026-01-01 01:02:15.24	235.75	67.82	-57.3	-60.0	15.0	0.00e+00	0	35	0	822083584	79	5316
2026-01-01 01:02:16.24	235.21	67.41	-57.5	-60.3	14.8	0.00e+00	0	35	0	824180736	80	5172
2026-01-01 01:02:17.24	234.68	67.00	-57.0	-59.5	15.2	0.00e+00	0	35	0	825229312	80	4758
2026-01-01 01:02:18.24	234.18	66.60	-56.7	-59.1	15.6	0.00e+00	0	35	0	827326464	79	4773
2026-01-01 01:02:19.24	233.69	66.19	-56.1	-58.2	16.0	0.00e+00	0	35	0	829423616	78	4565
2026-01-01 01:02:20.23	233.23	65.79	-55.2	-57.1	16.6	0.00e+00	0	35	0	831520768	77	4276
2026-01-01 01:02:21.22	232.79	65.38	-54.3	-56.0	17.1	0.00e+00	0	35	0	833617920	75	4201
2026-01-01 01:02:22.22	232.35	64.98	-54.0	-55.7	17.2	0.00e+00	0	35	0	834666496	74	4293
2026-01-01 01:02:23.22	231.93	64.57	-53.6	-55.1	17.4	0.00e+00	0	35	0	836763648	73	4277
2026-01-01 01:02:24.22	231.53	64.17	-53.2	-54.7	17.6	0.00e+00	0	35	0	838860800	72	4293
2026-01-01 01:02:25.22	231.14	63.77	-53.1	-54.6	17.6	0.00e+00	0	35	0	840957952	72	4252
2026-01-01 01:02:26.22	230.76	63.37	-53.2	-54.7	17.6	0.00e+00	0	35	0	843055104	72	4295
2026-01-01 01:02:27.22	230.40	62.97	-53.0	-54.5	17.6	0.00e+00	0	35	0	844103680	72	4227
2026-01-01 01:02:28.22	230.05	62.57	-52.9	-54.3	17.7	0.00e+00	0	35	0	846200832	72	4144
2026-01-01 01:02:29.23	229.70	62.17	-53.0	-54.4	17.7	0.00e+00	0	35	0	848297984	72	4176
2026-01-01 01:02:30.22	229.38	61.78	-53.6	-55.1	17.4	0.00e+00	0	35	0	850395136	72	4524
2026-01-01 01:02:31.22	229.06	61.38	-53.9	-55.5	17.2	0.00e+00	0	35	0	851443712	73	4474
2026-01-01 01:02:32.22	228.75	60.99	-54.6	-56.3	16.9	0.00e+00	0	35	0	853540864	74	4622
2026-01-01 01:02:33.22	228.45	60.60	-55.4	-57.4	16.4	0.00e+00	0	35	0	855638016	75	4939
2026-01-01 01:02:34.22	228.16	60.21	-56.2	-58.4	15.9	0.00e+00	0	35	0	857735168	77	4979
2026-01-01 01:02:35.22	227.88	59.82	-56.3	-58.5	15.8	0.00e+00	0	35	0	859832320	77	5027
2026-01-01 01:02:36.21	227.61	59.44	-56.4	-58.6	15.7	0.00e+00	0	35	0	860880896	78	4810
2026-01-01 01:02:37.21	227.35	59.05	-56.4	-58.6	15.8	0.00e+00	0	35	0	862978048	78	4802
2026-01-01 01:02:38.21	227.09	58.67	-56.9	-59.4	15.3	0.00e+00	0	35	0	865075200	78	5225
2026-01-01 01:02:39.20	226.84	58.29	-57.3	-60.0	14.9	0.00e+00	0	35	0	867172352	79	5327
2026-01-01 01:02:40.19	226.60	57.92	-57.3	-59.9	14.9	0.00e+00	0	35	0	868220928	80	4969
2026-01-01 01:02:41.18	226.37	57.55	-57.3	-60.0	14.8	0.00e+00	0	34	0	870318080	80	5037
2026-01-01 01:02:42.18	226.14	57.17	-57.1	-59.6	15.2	0.00e+00	0	35	0	872415232	80	4808
2026-01-01 01:02:43.18	225.92	56.80	-56.4	-58.7	15.7	0.00e+00	0	35	0	874512384	79	4568
2026-01-01 01:02:44.17	225.70	56.43	-55.7	-57.8	16.2	0.00e+00	0	35	0	876609536	78	4352
2026-01-01 01:02:45.17	225.49	56.06	-55.2	-57.1	16.6	0.00e+00	0	35	0	877658112	77	4261
2026-01-01 01:02:46.17	225.28	55.70	-55.2	-57.0	16.6	0.00e+00	0	35	0	879755264	76	4481
2026-01-01 01:02:47.17	225.08	55.33	-54.9	-56.7	16.8	0.00e+00	0	35	0	881852416	76	4320
2026-01-01 01:02:48.17	224.89	54.97	-54.1	-55.7	17.1	0.00e+00	0	35	0	883949568	74	4337
2026-01-01 01:02:49.15	224.70	54.62	-53.8	-55.4	17.3	0.00e+00	0	35	0	884998144	74	4172
2026-01-01 01:02:50.15	224.52	54.26	-53.5	-55.0	17.4	0.00e+00	0	35	0	887095296	73	4230
2026-01-01 01:02:51.15	224.34	53.90	-53.2	-54.7	17.5	0.00e+00	0	35	0	889192448	73	4094
2026-01-01 01:02:52.15	224.16	53.55	-53.3	-54.8	17.5	0.00e+00	0	35	0	891289600	72	4355
2026-01-01 01:02:53.15	223.99	53.20	-53.1	-54.6	17.6	0.00e+00	0	35	0	893386752	72	4271
2026-01-01 01:02:54.15	223.82	52.85	-53.4	-55.0	17.5	0.00e+00	0	35	0	894435328	72	4457
2026-01-01 01:02:55.14	223.66	52.51	-53.9	-55.5	17.2	0.00e+00	0	35	0	896532480	72	4720
2026-01-01 01:02:56.13	223.50	52.16	-54.0	-55.7	17.2	0.00e+00	0	35	0	898629632	73	4555
2026-01-01 01:02:57.13	223.34	51.82	-54.2	-55.9	17.1	0.00e+00	0	35	0	900726784	74	4417
2026-01-01 01:02:58.12	223.19	51.48	-54.3	-56.0	17.0	0.00e+00	0	35	0	902823936	74	4493
2026-01-01 01:02:59.12	223.04	51.15	-54.5	-56.3	16.9	0.00e+00	0	35	0	903872512	74	4605
2026-01-01 01:03:00.12	222.90	50.81	-54.6	-56.4	16.9	0.00e+00	0	35	0	905969664	74	4686
2026-01-01 01:03:01.12	222.75	50.48	-55.0	-56.9	16.7	0.00e+00	0	35	0	908066816	75	4653
2026-01-01 01:03:02.12	222.61	50.14	-55.6	-57.5	16.3	0.00e+00	0	35	0	910163968	76	4756
2026-01-01 01:03:03.12	222.48	49.81	-56.3	-58.6	15.7	0.00e+00	0	35	0	911212544	77	5084
2026-01-01 01:03:04.13	222.34	49.48	-56.9	-59.4	15.3	0.00e+00	0	35	0	913309696	78	5229
2026-01-01 01:03:05.12	222.21	49.16	-57.1	-59.7	15.1	0.00e+00	0	35	0	915406848	79	5127
2026-01-01 01:03:06.12	222.09	48.84	-57.1	-59.7	15.1	0.00e+00	0	35	0	917504000	79	5107
2026-01-01 01:03:07.12	221.96	48.52	-57.1	-59.7	15.0	0.00e+00	0	35	0	919601152	79	5128
2026-01-01 01:03:08.13	221.84	48.20	-57.0	-59.5	15.1	0.00e+00	0	35	0	920649728	79	5026
2026-01-01 01:03:09.12	221.72	47.88	-57.0	-59.6	15.1	0.00e+00	0	35	0	922746880	79	5055
2026-01-01 01:03:10.13	221.60	47.57	-57.0	-59.5	15.2	0.00e+00	0	35	0	924844032	79	5020
2026-01-01 01:03:11.12	221.49	47.26	-57.4	-60.2	14.6	0.00e+00	0	35	0	926941184	80	5125
2026-01-01 01:03:12.13	221.37	46.94	-57.6	-60.5	14.5	0.00e+00	0	35	0	929038336	80	5338
2026-01-01 01:03:13.13	221.26	46.64	-57.4	-60.3	14.6	0.00e+00	0	35	0	930086912	80	5178
2026-01-01 01:03:14.12	221.16	46.33	-57.2	-60.0	14.8	0.00e+00	0	35	0	932184064	80	5015
2026-01-01 01:03:15.12	221.05	46.03	-57.1	-59.8	15.0	0.00e+00	0	35	0	934281216	80	4873
2026-01-01 01:03:16.12	220.95	45.73	-57.0	-59.6	15.1	0.00e+00	0	35	0	936378368	80	4760
2026-01-01 01:03:17.13	220.84	45.43	-56.9	-59.4	15.2	0.00e+00	0	35	0	938475520	80	4693
2026-01-01 01:03:18.12	220.75	45.13	-56.6	-59.0	15.5	0.00e+00	0	35	0	939524096	79	4736
2026-01-01 01:03:19.12	220.65	44.84	-56.5	-58.9	15.5	0.00e+00	0	35	0	941621248	79	4681
2026-01-01 01:03:20.12	220.55	44.54	-56.6	-59.0	15.5	0.00e+00	0	35	0	943718400	79	4733
2026-01-01 01:03:21.12	220.46	44.25	-56.7	-59.2	15.4	0.00e+00	0	35	0	945815552	79	4832
2026-01-01 01:03:22.12	220.37	43.96	-57.0	-59.6	15.1	0.00e+00	0	35	0	946864128	79	5085
2026-01-01 01:03:23.12	220.27	43.68	-57.1	-59.8	14.9	0.00e+00	0	35	0	948961280	79	5207
2026-01-01 01:03:24.13	220.18	43.39	-57.3	-60.0	14.8	0.00e+00	0	35	0	951058432	79	5332
2026-01-01 01:03:25.13	220.10	43.11	-57.2	-59.9	14.8	0.00e+00	0	35	0	953155584	79	5255
2026-01-01 01:03:26.14	220.01	42.82	-57.4	-60.2	14.6	0.00e+00	0	35	0	955252736	80	5118
2026-01-01 01:03:27.13	219.93	42.55	-57.3	-60.1	14.7	0.00e+00	0	35	0	956301312	80	5060
2026-01-01 01:03:28.13	219.84	42.27	-57.2	-60.0	14.7	0.00e+00	0	35	0	958398464	80	4999
2026-01-01 01:03:29.13	219.76	41.99	-57.2	-59.9	14.8	0.00e+00	0	35	0	960495616	80	4967
2026-01-01 01:03:30.13	219.68	41.72	-57.3	-60.1	14.7	0.00e+00	0	35	0	962592768	80	5087
2026-01-01 01:03:31.13	219.60	41.45	-57.2	-59.9	14.9	0.00e+00	0	35	0	964689920	80	4954
2026-01-01 01:03:32.12	219.53	41.18	-57.2	-60.0	14.8	0.00e+00	0	35	0	965738496	80	5008
2026-01-01 01:03:33.12	219.45	40.92	-57.3	-60.1	14.7	0.00e+00	0	35	0	967835648	80	5052
2026-01-01 01:03:34.12	219.38	40.65	-57.3	-60.1	14.8	0.00e+00	0	35	0	969932800	80	5053
2026-01-01 01:03:35.13	219.30	40.39	-57.3	-60.1	14.7	0.00e+00	0	35	0	972029952	80	5069
2026-01-01 01:03:36.13	219.23	40.13	-57.4	-60.3	14.6	0.00e+00	0	35	0	973078528	80	5190
2026-01-01 01:03:37.12	219.16	39.87	-57.7	-60.7	14.2	0.00e+00	0	35	0	975175680	80	5449
2026-01-01 01:03:38.12	219.09	39.61	-57.7	-60.9	14.2	0.00e+00	0	35	0	977272832	80	5537
2026-01-01 01:03:39.13	219.02	39.35	-57.8	-60.9	14.1	0.00e+00	0	35	0	979369984	80	5550
2026-01-01 01:03:40.13	218.95	39.10	-57.6	-60.7	14.3	0.00e+00	0	35	0	981467136	80	5427
2026-01-01 01:03:41.12	218.89	38.85	-57.7	-60.7	14.2	0.00e+00	0	35	0	982515712	80	5450
2026-01-01 01:03:42.12	218.82	38.60	-57.2	-60.0	14.7	0.00e+00	0	35	0	984612864	80	5034
2026-01-01 01:03:43.12	218.76	38.35	-57.1	-59.8	14.9	0.00e+00	0	35	0	986710016	80	4872
2026-01-01 01:03:44.13	218.70	38.10	-56.8	-59.3	15.2	0.00e+00	0	35	0	988807168	80	4650
2026-01-01 01:03:45.13	218.63	37.86	-56.6	-59.0	15.4	0.00e+00	0	35	0	990904320	79	4732
2026-01-01 01:03:46.13	218.57	37.61	-56.1	-58.3	15.8	0.00e+00	0	35	0	991952896	78	4623
2026-01-01 01:03:47.13	218.51	37.37	-55.8	-58.0	16.0	0.00e+00	0	35	0	994050048	78	4449
2026-01-01 01:03:48.12	218.45	37.13	-55.8	-57.9	16.0	0.00e+00	0	35	0	996147200	78	4439
2026-01-01 01:03:49.13	218.39	36.89	-55.7	-57.8	16.1	0.00e+00	0	35	0	998244352	77	4604
2026-01-01 01:03:50.12	218.34	36.66	-55.8	-58.0	16.0	0.00e+00	0	35	0	1000341504	77	4714
2026-01-01 01:03:51.12	218.28	36.42	-55.9	-58.0	16.0	0.00e+00	0	35	0	1001390080	77	4749
2026-01-01 01:03:52.11	218.23	36.19	-55.9	-58.1	15.9	0.00e+00	0	35	0	1003487232	77	4802
2026-01-01 01:03:53.11	218.17	35.96	-55.9	-58.1	16.0	0.00e+00	0	35	0	1005584384	77	4783
2026-01-01 01:03:54.11	218.12	35.73	-56.1	-58.4	15.8	0.00e+00	0	35	0	1007681536	77	4937
2026-01-01 01:03:55.11	218.06	35.50	-56.2	-58.5	15.7	0.00e+00	0	35	0	1008730112	77	5015
2026-01-01 01:03:56.10	218.01	35.28	-56.2	-58.6	15.7	0.00e+00	0	35	0	1010827264	77	5052
2026-01-01 01:03:57.10	217.96	35.05	-56.2	-58.5	15.7	0.00e+00	0	35	0	1012924416	77	5000
2026-01-01 01:03:58.11	217.91	34.83	-56.3	-58.6	15.7	0.00e+00	0	35	0	1015021568	77	5057
2026-01-01 01:03:59.11	217.86	34.60	-56.1	-58.4	15.7	0.00e+00	0	35	0	1017118720	77	4940
2026-01-01 01:04:00.11	217.81	34.38	-56.0	-58.2	15.9	0.00e+00	0	35	0	1018167296	77	4818
2026-01-01 01:04:01.11	217.76	34.17	-55.9	-58.1	15.9	0.00e+00	0	35	0	1020264448	77	4805
2026-01-01 01:04:02.11	217.71	33.95	-55.9	-58.0	15.9	0.00e+00	0	35	0	1022361600	77	4753
2026-01-01 01:04:03.10	217.66	33.73	-55.9	-58.1	15.9	0.00e+00	0	35	0	1024458752	77	4767
2026-01-01 01:04:04.11	217.62	33.52	-56.0	-58.2	15.9	0.00e+00	0	35	0	1025507328	77	4836
2026-01-01 01:04:05.10	217.57	33.31	-56.0	-58.2	15.8	0.00e+00	0	35	0	1027604480	77	4832
2026-01-01 01:04:06.10	217.52	33.09	-55.9	-58.1	15.9	0.00e+00	0	35	0	1029701632	77	4778
2026-01-01 01:04:07.10	217.48	32.88	-56.1	-58.4	15.8	0.00e+00	0	35	0	1031798784	77	4930
2026-01-01 01:04:08.11	217.44	32.67	-56.2	-58.5	15.6	0.00e+00	0	35	0	1033895936	77	5014
2026-01-01 01:04:09.11	217.39	32.47	-56.2	-58.5	15.6	0.00e+00	0	35	0	1034944512	77	5008
2026-01-01 01:04:10.12	217.35	32.26	-56.4	-58.8	15.4	0.00e+00	0	35	0	1037041664	77	5190
2026-01-01 01:04:11.11	217.31	32.06	-56.6	-59.1	15.3	0.00e+00	0	35	0	1039138816	78	5062
2026-01-01 01:04:12.10	217.26	31.85	-56.9	-59.5	15.0	0.00e+00	0	35	0	1041235968	78	5311
2026-01-01 01:04:13.10	217.22	31.65	-56.9	-59.6	15.0	0.00e+00	0	35	0	1043333120	79	5073
2026-01-01 01:04:14.10	217.18	31.45	-57.1	-59.9	14.7	0.00e+00	0	35	0	1044381696	79	5250
2026-01-01 01:04:15.10	217.14	31.25	-57.2	-60.0	14.7	0.00e+00	0	35	0	1046478848	79	5314
2026-01-01 01:04:16.11	217.10	31.05	-57.2	-60.1	14.6	0.00e+00	0	35	0	1048576000	79	5344
2026-01-01 01:04:17.11	217.06	30.86	-57.2	-60.1	14.6	0.00e+00	0	35	0	1050673152	79	5354
2026-01-01 01:04:18.11	217.02	30.66	-57.1	-59.9	14.7	0.00e+00	0	35	0	1052770304	79	5279
2026-01-01 01:04:19.11	216.99	30.47	-57.2	-60.0	14.7	0.00e+00	0	34	0	1053818880	79	5290
2026-01-01 01:04:20.11	216.95	30.28	-57.1	-59.9	14.8	0.00e+00	0	35	0	1055916032	79	5240
2026-01-01 01:04:21.11	216.91	30.08	-57.0	-59.7	14.9	0.00e+00	0	35	0	1058013184	79	5142
2026-01-01 01:04:22.11	216.87	29.89	-56.8	-59.4	15.1	0.00e+00	0	35	0	1060110336	79	4931
2026-01-01 01:04:23.11	216.84	29.71	-56.8	-59.4	15.0	0.00e+00	0	35	0	1061158912	79	4965
2026-01-01 01:04:24.11	216.80	29.52	-56.6	-59.2	15.2	0.00e+00	0	35	0	1063256064	79	4823
2026-01-01 01:04:25.11	216.77	29.33	-56.4	-58.9	15.4	0.00e+00	0	35	0	1065353216	79	4654
2026-01-01 01:04:26.12	216.73	29.14	-56.4	-58.9	15.4	0.00e+00	0	35	0	1067450368	79	4662
2026-01-01 01:04:27.12	216.70	28.96	-56.1	-58.4	15.7	0.00e+00	0	35	0	1069547520	78	4696
2026-01-01 01:04:28.12	216.66	28.78	-56.1	-58.4	15.7	0.00e+00	0	35	0	1070596096	78	4678
2026-01-01 01:04:29.12	216.63	28.60	-56.0	-58.2	15.8	0.00e+00	0	35	0	1072693248	78	4575
2026-01-01 01:04:30.11	216.60	28.42	-55.9	-58.1	15.8	0.00e+00	0	35	0	1074790400	78	4539
2026-01-01 01:04:31.11	216.56	28.24	-55.8	-58.1	15.9	0.00e+00	0	35	0	1076887552	78	4498
2026-01-01 01:04:32.10	216.53	28.06	-55.9	-58.1	15.8	0.00e+00	0	35	0	1078984704	78	4527
2026-01-01 01:04:33.10	216.50	27.88	-56.0	-58.2	15.8	0.00e+00	0	35	0	1080033280	78	4584
2026-01-01 01:04:34.10	216.47	27.71	-55.9	-58.1	15.8	0.00e+00	0	35	0	1082130432	78	4529
2026-01-01 01:04:35.11	216.44	27.53	-56.0	-58.3	15.7	0.00e+00	0	35	0	1084227584	78	4599
2026-01-01 01:04:36.11	216.41	27.36	-55.9	-58.1	15.8	0.00e+00	0	35	0	1086324736	78	4523
2026-01-01 01:04:37.11	216.38	27.19	-55.8	-58.0	15.9	0.00e+00	0	35	0	1087373312	78	4492
2026-01-01 01:04:38.11	216.35	27.01	-55.8	-58.0	15.9	0.00e+00	0	35	0	1089470464	78	4449
2026-01-01 01:04:39.10	216.32	26.85	-55.8	-58.0	15.8	0.00e+00	0	35	0	1091567616	78	4492
2026-01-01 01:04:40.10	216.29	26.68	-55.8	-58.0	15.8	0.00e+00	0	35	0	1093664768	78	4486
2026-01-01 01:04:41.09	216.26	26.51	-55.7	-57.8	16.0	0.00e+00	0	35	0	1095761920	78	4386
2026-01-01 01:04:42.09	216.23	26.34	-55.7	-57.8	15.9	0.00e+00	0	35	0	1096810496	77	4645
2026-01-01 01:04:43.10	216.20	26.17	-55.6	-57.8	16.0	0.00e+00	0	35	0	1098907648	77	4619
2026-01-01 01:04:44.08	216.17	26.01	-55.4	-57.5	16.2	0.00e+00	0	35	0	1101004800	77	4469
2026-01-01 01:04:45.07	216.15	25.85	-55.3	-57.4	16.2	0.00e+00	0	35	0	1103101952	77	4400
2026-01-01 01:04:46.07	216.12	25.69	-55.2	-57.3	16.3	0.00e+00	0	35	0	1105199104	77	4352
2026-01-01 01:04:47.06	216.09	25.52	-55.2	-57.2	16.3	0.00e+00	0	35	0	1106247680	77	4337
2026-01-01 01:04:48.06	216.06	25.36	-55.0	-56.9	16.4	0.00e+00	0	35	0	1108344832	76	4434
2026-01-01 01:04:49.06	216.04	25.20	-55.0	-57.0	16.4	0.00e+00	0	35	0	1110441984	76	4447
2026-01-01 01:04:50.06	216.01	25.04	-55.1	-57.0	16.4	0.00e+00	0	35	0	1112539136	76	4480
2026-01-01 01:04:51.07	215.99	24.88	-55.0	-57.0	16.4	0.00e+00	0	35	0	1113587712	76	4472
2026-01-01 01:04:52.07	215.96	24.73	-54.8	-56.8	16.5	0.00e+00	0	35	0	1115684864	76	4344
2026-01-01 01:04:53.07	215.93	24.57	-54.8	-56.8	16.5	0.00e+00	0	35	0	1117782016	76	4343
2026-01-01 01:04:54.07	215.91	24.41	-54.9	-56.8	16.5	0.00e+00	0	35	0	1119879168	76	4379
2026-01-01 01:04:55.08	215.88	24.26	-54.9	-56.8	16.5	0.00e+00	0	35	0	1121976320	76	4367
2026-01-01 01:04:56.08	215.86	24.10	-54.9	-56.9	16.5	0.00e+00	0	35	0	1123024896	76	4402
2026-01-01 01:04:57.08	215.84	23.95	-55.0	-57.0	16.4	0.00e+00	0	35	0	1125122048	76	4460
2026-01-01 01:04:58.08	215.81	23.80	-55.0	-56.9	16.4	0.00e+00	0	35	0	1127219200	76	4437
2026-01-01 01:04:59.07	215.79	23.65	-55.1	-57.1	16.4	0.00e+00	0	35	0	1129316352	76	4504
2026-01-01 01:05:00.07	215.76	23.50	-55.1	-57.1	16.3	0.00e+00	0	35	0	1131413504	76	4534
2026-01-01 01:05:01.07	215.74	23.35	-55.1	-57.2	16.3	0.00e+00	0	35	0	1132462080	76	4557
2026-01-01 01:05:02.07	215.72	23.20	-55.2	-57.3	16.2	0.00e+00	0	35	0	1134559232	76	4608
2026-01-01 01:05:03.07	215.70	23.05	-55.3	-57.4	16.2	0.00e+00	0	35	0	1136656384	76	4667
2026-01-01 01:05:04.07	215.67	22.90	-55.3	-57.4	16.1	0.00e+00	0	35	0	1138753536	76	4688
2026-01-01 01:05:05.07	215.65	22.76	-55.3	-57.4	16.1	0.00e+00	0	35	0	1139802112	76	4669
2026-01-01 01:05:06.07	215.63	22.61	-55.4	-57.5	16.1	0.00e+00	0	35	0	1141899264	76	4728
2026-01-01 01:05:07.08	215.61	22.47	-55.4	-57.5	16.1	0.00e+00	0	35	0	1143996416	76	4750
2026-01-01 01:05:08.07	215.59	22.33	-55.3	-57.4	16.2	0.00e+00	0	35	0	1146093568	76	4679
2026-01-01 01:05:09.07	215.57	22.18	-55.3	-57.4	16.1	0.00e+00	0	35	0	1148190720	76	4702
2026-01-01 01:05:10.07	215.54	22.04	-55.3	-57.3	16.2	0.00e+00	0	35	0	1149239296	76	4643
2026-01-01 01:05:11.07	215.52	21.90	-55.1	-57.1	16.3	0.00e+00	0	35	0	1151336448	76	4538
2026-01-01 01:05:12.07	215.50	21.76	-55.1	-57.0	16.3	0.00e+00	0	35	0	1153433600	76	4491
2026-01-01 01:05:13.07	215.48	21.62	-55.0	-57.0	16.3	0.00e+00	0	35	0	1155530752	76	4456
2026-01-01 01:05:14.07	215.46	21.48	-55.0	-57.0	16.3	0.00e+00	0	35	0	1157627904	76	4469
2026-01-01 01:05:15.08	215.44	21.34	-55.0	-57.0	16.4	0.00e+00	0	35	0	1158676480	76	4466
2026-01-01 01:05:16.07	215.42	21.20	-55.0	-57.0	16.4	0.00e+00	0	35	0	1160773632	76	4486
2026-01-01 01:05:17.08	215.40	21.07	-55.0	-57.0	16.4	0.00e+00	0	35	0	1162870784	76	4479
2026-01-01 01:05:18.07	215.38	20.93	-55.0	-57.0	16.4	0.00e+00	0	35	0	1164967936	76	4474
2026-01-01 01:05:19.06	215.36	20.80	-55.0	-57.0	16.4	0.00e+00	0	35	0	1166016512	76	4452
2026-01-01 01:05:20.07	215.35	20.66	-55.0	-57.0	16.4	0.00e+00	0	35	0	1168113664	76	4474
2026-01-01 01:05:21.07	215.33	20.53	-55.2	-57.3	16.3	0.00e+00	0	35	0	1170210816	76	4603
2026-01-01 01:05:22.07	215.31	20.39	-55.2	-57.3	16.2	0.00e+00	0	35	0	1172307968	76	4619
2026-01-01 01:05:23.06	215.29	20.26	-55.4	-57.5	16.1	0.00e+00	0	35	0	1174405120	76	4727
2026-01-01 01:05:24.05	215.27	20.13	-55.4	-57.6	16.1	0.00e+00	0	35	0	1175453696	76	4771
2026-01-01 01:05:25.05	215.25	20.00	-55.5	-57.6	16.0	0.00e+00	0	35	0	1177550848	76	4802
2026-01-01 01:05:26.05	215.24	19.87	-55.6	-57.8	15.9	0.00e+00	0	35	0	1179648000	76	4900
2026-01-01 01:05:27.05	215.22	19.74	-55.5	-57.7	15.9	0.00e+00	0	35	0	1181745152	76	4853
2026-01-01 01:05:28.05	215.20	19.61	-55.6	-57.7	15.9	0.00e+00	0	35	0	1183842304	76	4860
2026-01-01 01:05:29.05	215.18	19.48	-55.7	-57.9	15.8	0.00e+00	0	35	0	1184890880	76	4974
2026-01-01 01:05:30.05	215.17	19.36	-55.6	-57.8	15.8	0.00e+00	0	35	0	1186988032	76	4911
2026-01-01 01:05:31.05	215.15	19.23	-55.7	-58.0	15.7	0.00e+00	0	35	0	1189085184	76	4993
2026-01-01 01:05:32.04	215.13	19.10	-55.7	-57.9	15.8	0.00e+00	0	35	0	1191182336	76	4953
2026-01-01 01:05:33.03	215.12	18.98	-55.7	-57.9	15.8	0.00e+00	0	35	0	1193279488	76	4965
2026-01-01 01:05:34.03	215.10	18.85	-55.7	-57.9	15.8	0.00e+00	0	35	0	1194328064	76	4978
2026-01-01 01:05:35.03	215.08	18.73	-55.8	-58.0	15.8	0.00e+00	0	35	0	1196425216	76	5018
2026-01-01 01:05:36.03	215.07	18.60	-55.7	-57.9	15.8	0.00e+00	0	35	0	1198522368	76	4940
2026-01-01 01:05:37.03	215.05	18.48	-55.7	-57.9	15.8	0.00e+00	0	35	0	1200619520	76	4972
2026-01-01 01:05:38.02	215.04	18.36	-55.6	-57.8	15.8	0.00e+00	0	35	0	1201668096	76	4915
2026-01-01 01:05:39.02	215.02	18.24	-55.7	-57.9	15.8	0.00e+00	0	35	0	1203765248	76	4971
2026-01-01 01:05:40.01	215.01	18.12	-55.7	-57.9	15.8	0.00e+00	0	35	0	1205862400	76	4951
2026-01-01 01:05:41.00	214.99	18.00	-55.7	-58.0	15.7	0.00e+00	0	35	0	1207959552	76	5012
2026-01-01 01:05:42.00	214.98	17.88	-55.7	-57.9	15.8	0.00e+00	0	35	0	1210056704	76	4969
2026-01-01 01:05:42.99	214.96	17.76	-55.6	-57.8	15.8	0.00e+00	0	35	0	1211105280	76	4922
2026-01-01 01:05:43.99	214.95	17.64	-55.7	-58.0	15.8	0.00e+00	0	35	0	1213202432	76	4987
2026-01-01 01:05:44.99	214.93	17.52	-55.7	-57.9	15.8	0.00e+00	0	35	0	1215299584	76	4980
2026-01-01 01:05:45.99	214.92	17.40	-55.7	-58.0	15.7	0.00e+00	0	35	0	1217396736	76	5033
2026-01-01 01:05:46.99	214.90	17.29	-55.7	-58.0	15.7	0.00e+00	0	35	0	1218445312	76	4997
2026-01-01 01:05:47.99	214.89	17.17	-55.9	-58.2	15.6	0.00e+00	0	35	0	1220542464	76	5114
2026-01-01 01:05:49.00	214.87	17.05	-55.8	-58.2	15.6	0.00e+00	0	35	0	1222639616	76	5116
2026-01-01 01:05:49.99	214.86	16.94	-55.9	-58.3	15.6	0.00e+00	0	35	0	1224736768	76	5172
