passes_logs/2026/01/01/R3.2S_Murmansk/R3.2S_Murmansk__20260101_073200_NOAA_20_JPSS-1_rec.log

#Pass ID: 20260101_073200_NOAA 20 (JPSS-1)
#Satellite: NOAA 20 (JPSS-1)
#Configuration: NOAA 20
#almurnet v.1.7.20251203
#Start time: 2026-01-01 07:32:00

#Version: 2.2.20231116
#Station: R3.2S_Murmansk
#Location: 33.079688 lon 68.888172 lat
#TLE: 1 43013U 17073A   25365.59858899  .00000178  00000+0  10524-3 0  9991
#TLE: 2 43013  98.7620 301.6911 0001952  60.2533 299.8837 14.19531732420695

#Time	Az	El	Level	Level2	SNR	BER	BlckErr	Temp	State	Recorded	gain1	gain2
2026-01-01 07:32:00.15	106.19	2.01	-59.8	-75.8	3.8	1.49e+00	0	33	0	0	86	21835
2026-01-01 07:32:01.15	106.14	2.07	-59.9	-75.7	3.8	1.49e+00	0	33	104	0	84	24358
2026-01-01 07:32:02.15	106.10	2.13	-59.8	-75.7	3.8	1.49e+00	0	33	104	0	84	24299
2026-01-01 07:32:03.15	106.06	2.19	-59.9	-75.8	3.8	1.49e+00	0	33	104	0	84	24484
2026-01-01 07:32:04.16	106.02	2.25	-59.8	-75.8	3.8	1.49e+00	0	33	104	0	84	24563
2026-01-01 07:32:05.16	105.97	2.31	-59.8	-75.8	3.8	1.49e+00	0	33	104	0	84	24558
2026-01-01 07:32:06.16	105.93	2.38	-59.9	-75.8	3.8	1.49e+00	0	33	104	0	84	24550
2026-01-01 07:32:07.15	105.89	2.44	-59.9	-75.8	3.8	1.49e+00	0	33	104	0	84	24472
2026-01-01 07:32:08.15	105.84	2.50	-59.9	-75.7	3.8	1.49e+00	0	33	104	0	84	24407
2026-01-01 07:32:09.14	105.80	2.56	-59.8	-75.7	3.8	1.49e+00	0	33	104	0	84	24393
2026-01-01 07:32:10.14	105.76	2.62	-59.9	-75.8	3.8	1.49e+00	0	33	104	0	84	24529
2026-01-01 07:32:11.14	105.71	2.69	-59.9	-75.8	3.8	1.49e+00	0	33	104	0	84	24417
2026-01-01 07:32:12.14	105.67	2.75	-59.8	-75.7	3.8	1.49e+00	0	33	104	0	84	24377
2026-01-01 07:32:13.14	105.62	2.81	-59.8	-75.7	3.8	1.49e+00	0	33	104	0	84	24355
2026-01-01 07:32:14.14	105.58	2.87	-59.9	-75.7	3.8	1.49e+00	0	33	104	0	84	24404
2026-01-01 07:32:15.15	105.53	2.94	-59.9	-75.7	3.8	1.49e+00	0	33	104	0	84	24371
2026-01-01 07:32:16.15	105.49	3.00	-59.9	-75.8	3.8	1.49e+00	0	33	104	0	84	24421
2026-01-01 07:32:17.16	105.44	3.06	-59.9	-75.8	3.8	1.49e+00	0	34	104	0	84	24551
2026-01-01 07:32:18.16	105.39	3.13	-59.8	-75.8	3.8	1.49e+00	0	33	104	0	84	24423
2026-01-01 07:32:19.16	105.35	3.19	-59.9	-75.7	3.8	1.49e+00	0	33	104	0	84	24343
2026-01-01 07:32:20.17	105.30	3.25	-59.9	-75.7	3.8	1.49e+00	0	33	104	0	84	24179
2026-01-01 07:32:21.16	105.26	3.32	-59.8	-75.6	3.8	1.49e+00	0	33	104	0	84	23985
2026-01-01 07:32:22.17	105.21	3.38	-59.8	-75.5	3.8	1.49e+00	0	33	104	0	84	23777
2026-01-01 07:32:23.16	105.16	3.44	-59.8	-75.5	3.8	1.49e+00	0	34	104	0	84	23608
2026-01-01 07:32:24.16	105.12	3.51	-59.9	-75.5	3.8	1.49e+00	0	34	104	0	84	23622
2026-01-01 07:32:25.17	105.07	3.57	-59.8	-75.5	3.8	1.49e+00	0	33	104	0	84	23726
2026-01-01 07:32:26.16	105.02	3.64	-59.9	-75.6	3.8	1.49e+00	0	33	104	0	84	24031
2026-01-01 07:32:27.15	104.97	3.70	-59.9	-75.7	3.8	1.49e+00	0	34	104	0	84	24323
2026-01-01 07:32:28.16	104.93	3.76	-59.9	-75.8	3.8	1.49e+00	0	33	104	0	84	24525
2026-01-01 07:32:29.15	104.88	3.83	-59.9	-75.8	3.8	1.49e+00	0	33	104	0	84	24459
2026-01-01 07:32:30.15	104.83	3.89	-59.8	-75.5	3.8	1.49e+00	0	34	104	0	84	23721
2026-01-01 07:32:31.15	104.78	3.96	-59.8	-75.1	3.8	1.49e+00	0	33	104	0	84	22680
2026-01-01 07:32:32.14	104.73	4.02	-59.8	-74.3	3.8	1.49e+00	0	34	104	0	84	20675
2026-01-01 07:32:33.14	104.68	4.09	-59.8	-73.6	3.9	1.49e+00	0	34	104	0	84	19022
2026-01-01 07:32:34.14	104.63	4.15	-59.7	-72.5	4.1	1.45e+00	0	34	0	0	84	16882
2026-01-01 07:32:35.14	104.58	4.22	-59.7	-71.8	4.3	1.40e+00	0	34	0	0	84	15529
2026-01-01 07:32:36.14	104.54	4.28	-59.6	-70.8	4.7	9.24e-01	0	34	0	1048576	84	13801
2026-01-01 07:32:37.14	104.49	4.35	-59.5	-70.1	5.0	7.25e-01	0	34	0	3145728	84	12791
2026-01-01 07:32:38.14	104.44	4.42	-59.4	-69.1	5.6	4.76e-01	0	34	0	5242880	84	11390
2026-01-01 07:32:39.15	104.38	4.48	-59.3	-68.4	6.1	3.56e-01	0	34	0	7340032	84	10496
2026-01-01 07:32:40.14	104.33	4.55	-59.2	-67.4	6.9	1.76e-01	0	34	0	8388608	84	9311
2026-01-01 07:32:41.14	104.28	4.61	-59.0	-66.8	7.4	1.15e-01	0	34	0	10485760	84	8672
2026-01-01 07:32:42.14	104.23	4.68	-58.9	-66.0	8.1	5.97e-02	0	34	0	12582912	84	7986
2026-01-01 07:32:43.14	104.18	4.75	-58.8	-65.6	8.6	3.58e-02	0	34	0	14680064	84	7581
2026-01-01 07:32:44.14	104.13	4.81	-58.7	-65.2	8.9	2.41e-02	0	34	0	15728640	84	7276
2026-01-01 07:32:45.14	104.08	4.88	-58.4	-64.8	9.2	1.58e-02	0	34	0	17825792	83	7290
2026-01-01 07:32:46.14	104.02	4.95	-58.4	-64.8	9.1	1.34e-02	0	34	0	19922944	83	7331
2026-01-01 07:32:47.15	103.97	5.01	-58.4	-64.8	9.1	1.34e-02	0	34	0	22020096	83	7368
2026-01-01 07:32:48.15	103.92	5.08	-58.3	-64.2	9.6	1.05e-02	0	34	0	24117248	83	6876
2026-01-01 07:32:49.15	103.87	5.15	-57.0	-60.6	13.0	1.68e-04	0	34	0	25165824	80	5399
2026-01-01 07:32:50.15	103.81	5.22	-59.7	-70.7	4.8	8.12e-01	0	34	0	27262976	84	13677
2026-01-01 07:32:51.14	103.76	5.28	-59.5	-67.1	7.4	4.13e-02	0	34	0	29360128	84	9047
2026-01-01 07:32:52.13	103.71	5.35	-57.2	-61.1	12.6	3.00e-06	0	34	0	31457280	79	5996
2026-01-01 07:32:53.13	103.65	5.42	-56.4	-59.6	13.8	7.00e-07	0	34	0	32505856	79	5063
2026-01-01 07:32:54.13	103.60	5.49	-56.2	-59.3	14.1	0.00e+00	0	34	0	34603008	79	4890
2026-01-01 07:32:55.13	103.54	5.55	-56.2	-59.2	14.0	0.00e+00	0	34	0	36700160	78	5156
2026-01-01 07:32:56.13	103.49	5.62	-56.3	-59.3	14.0	0.00e+00	0	34	0	38797312	78	5216
2026-01-01 07:32:57.13	103.43	5.69	-56.0	-59.0	14.2	0.00e+00	0	34	0	40894464	78	5008
2026-01-01 07:32:58.13	103.38	5.76	-56.1	-59.1	14.1	0.00e+00	0	34	0	41943040	78	5086
2026-01-01 07:32:59.13	103.32	5.83	-56.1	-59.1	14.2	0.00e+00	0	34	0	44040192	78	5063
2026-01-01 07:33:00.13	103.27	5.90	-56.0	-59.0	14.3	0.00e+00	0	34	0	46137344	78	4990
2026-01-01 07:33:01.13	103.21	5.97	-56.0	-59.0	14.3	0.00e+00	0	34	0	48234496	78	4987
2026-01-01 07:33:02.13	103.15	6.04	-55.9	-58.8	14.4	0.00e+00	0	34	0	50331648	78	4896
2026-01-01 07:33:03.13	103.10	6.11	-55.8	-58.7	14.5	0.00e+00	0	34	0	51380224	78	4815
2026-01-01 07:33:04.13	103.04	6.18	-55.9	-58.7	14.5	0.00e+00	0	34	0	53477376	78	4826
2026-01-01 07:33:05.13	102.98	6.25	-55.7	-58.5	14.6	0.00e+00	0	34	0	55574528	78	4735
2026-01-01 07:33:06.13	102.93	6.32	-55.7	-58.5	14.6	0.00e+00	0	34	0	57671680	78	4710
2026-01-01 07:33:07.13	102.87	6.39	-55.7	-58.4	14.6	0.00e+00	0	34	0	58720256	77	4935
2026-01-01 07:33:08.13	102.81	6.46	-55.7	-58.4	14.7	0.00e+00	0	34	0	60817408	77	4944
2026-01-01 07:33:09.13	102.75	6.53	-55.8	-58.5	14.6	0.00e+00	0	34	0	62914560	77	5031
2026-01-01 07:33:10.12	102.69	6.60	-55.7	-58.4	14.7	0.00e+00	0	34	0	65011712	77	4935
2026-01-01 07:33:11.12	102.63	6.67	-55.8	-58.5	14.6	0.00e+00	0	34	0	67108864	77	5024
2026-01-01 07:33:12.13	102.57	6.74	-55.7	-58.4	14.7	0.00e+00	0	34	0	68157440	77	4960
2026-01-01 07:33:13.13	102.51	6.81	-55.8	-58.5	14.6	0.00e+00	0	34	0	70254592	77	5006
2026-01-01 07:33:14.14	102.45	6.88	-55.7	-58.5	14.6	0.00e+00	0	34	0	72351744	77	5006
2026-01-01 07:33:15.14	102.39	6.95	-55.7	-58.4	14.7	0.00e+00	0	34	0	74448896	77	4955
2026-01-01 07:33:16.14	102.33	7.03	-55.6	-58.3	14.7	0.00e+00	0	34	0	76546048	77	4888
2026-01-01 07:33:17.14	102.27	7.10	-55.6	-58.3	14.7	0.00e+00	0	34	0	77594624	77	4908
2026-01-01 07:33:18.14	102.21	7.17	-55.7	-58.4	14.7	0.00e+00	0	34	0	79691776	77	4947
2026-01-01 07:33:19.13	102.15	7.24	-55.7	-58.4	14.7	0.00e+00	0	34	0	81788928	77	4961
2026-01-01 07:33:20.14	102.09	7.31	-55.6	-58.2	14.8	0.00e+00	0	34	0	83886080	77	4863
2026-01-01 07:33:21.14	102.02	7.39	-55.6	-58.3	14.8	0.00e+00	0	34	0	85983232	77	4877
2026-01-01 07:33:22.14	101.96	7.46	-55.5	-58.1	14.9	0.00e+00	0	34	0	87031808	77	4791
2026-01-01 07:33:23.14	101.90	7.53	-55.6	-58.2	14.8	0.00e+00	0	34	0	89128960	77	4850
2026-01-01 07:33:24.13	101.84	7.60	-55.5	-58.2	14.9	0.00e+00	0	34	0	91226112	77	4827
2026-01-01 07:33:25.14	101.77	7.68	-55.5	-58.0	14.9	0.00e+00	0	35	0	93323264	77	4758
2026-01-01 07:33:26.14	101.71	7.75	-55.5	-58.1	14.9	0.00e+00	0	34	0	95420416	77	4813
2026-01-01 07:33:27.14	101.64	7.82	-55.5	-58.0	15.0	0.00e+00	0	34	0	96468992	77	4755
2026-01-01 07:33:28.14	101.58	7.90	-55.4	-58.0	15.0	0.00e+00	0	34	0	98566144	77	4713
2026-01-01 07:33:29.14	101.52	7.97	-55.5	-58.1	14.9	0.00e+00	0	34	0	100663296	77	4803
2026-01-01 07:33:30.14	101.45	8.05	-55.4	-57.9	15.0	0.00e+00	0	34	0	102760448	77	4694
2026-01-01 07:33:31.13	101.38	8.12	-55.4	-57.9	15.0	0.00e+00	0	34	0	103809024	77	4693
2026-01-01 07:33:32.13	101.32	8.19	-55.4	-57.8	15.1	0.00e+00	0	34	0	105906176	77	4651
2026-01-01 07:33:33.13	101.25	8.27	-55.3	-57.9	15.1	0.00e+00	0	35	0	108003328	77	4653
2026-01-01 07:33:34.13	101.19	8.34	-55.3	-57.8	15.1	0.00e+00	0	34	0	110100480	77	4616
2026-01-01 07:33:35.13	101.12	8.42	-55.3	-57.8	15.1	0.00e+00	0	34	0	112197632	77	4626
2026-01-01 07:33:36.13	101.05	8.49	-55.4	-57.9	15.1	0.00e+00	0	34	0	113246208	77	4676
2026-01-01 07:33:37.13	100.98	8.57	-55.4	-58.0	15.1	0.00e+00	0	34	0	115343360	77	4721
2026-01-01 07:33:38.12	100.92	8.64	-55.5	-58.0	15.0	0.00e+00	0	35	0	117440512	77	4750
2026-01-01 07:33:39.13	100.85	8.72	-55.4	-58.0	15.1	0.00e+00	0	34	0	119537664	77	4719
2026-01-01 07:33:40.13	100.78	8.80	-55.4	-57.9	15.2	0.00e+00	0	34	0	120586240	77	4661
2026-01-01 07:33:41.13	100.71	8.87	-55.4	-57.8	15.1	0.00e+00	0	34	0	122683392	77	4640
2026-01-01 07:33:42.14	100.64	8.95	-55.3	-57.8	15.2	0.00e+00	0	34	0	124780544	77	4601
2026-01-01 07:33:43.14	100.57	9.02	-55.3	-57.8	15.2	0.00e+00	0	34	0	126877696	77	4624
2026-01-01 07:33:44.15	100.50	9.10	-55.4	-57.8	15.2	0.00e+00	0	34	0	128974848	77	4635
2026-01-01 07:33:45.15	100.43	9.18	-55.4	-57.8	15.2	0.00e+00	0	34	0	131072000	77	4629
2026-01-01 07:33:46.16	100.36	9.26	-55.3	-57.7	15.2	0.00e+00	0	34	0	132120576	77	4592
2026-01-01 07:33:47.15	100.28	9.33	-55.3	-57.7	15.3	0.00e+00	0	34	0	134217728	77	4591
2026-01-01 07:33:48.16	100.21	9.41	-55.3	-57.7	15.2	0.00e+00	0	34	0	136314880	77	4588
2026-01-01 07:33:49.16	100.14	9.49	-55.3	-57.8	15.2	0.00e+00	0	34	0	138412032	77	4625
2026-01-01 07:33:50.17	100.07	9.57	-55.4	-57.8	15.2	0.00e+00	0	34	0	139460608	77	4640
2026-01-01 07:33:51.16	99.99	9.65	-55.5	-58.0	15.1	0.00e+00	0	34	0	141557760	77	4723
2026-01-01 07:33:52.17	99.92	9.72	-55.4	-57.9	15.2	0.00e+00	0	34	0	143654912	77	4670
2026-01-01 07:33:53.17	99.84	9.80	-55.4	-57.8	15.2	0.00e+00	0	34	0	145752064	77	4627
2026-01-01 07:33:54.17	99.77	9.88	-55.3	-57.7	15.3	0.00e+00	0	34	0	147849216	77	4579
2026-01-01 07:33:55.18	99.69	9.96	-55.2	-57.6	15.3	0.00e+00	0	35	0	148897792	77	4526
2026-01-01 07:33:56.18	99.62	10.04	-55.3	-57.7	15.3	0.00e+00	0	34	0	150994944	77	4563
2026-01-01 07:33:57.18	99.54	10.12	-55.3	-57.7	15.3	0.00e+00	0	34	0	153092096	77	4593
2026-01-01 07:33:58.18	99.47	10.20	-55.3	-57.7	15.3	0.00e+00	0	34	0	155189248	77	4581
2026-01-01 07:33:59.18	99.39	10.28	-55.4	-57.9	15.2	0.00e+00	0	34	0	157286400	77	4657
2026-01-01 07:34:00.19	99.31	10.36	-55.3	-57.7	15.3	0.00e+00	0	34	0	158334976	77	4595
2026-01-01 07:34:01.19	99.24	10.44	-55.3	-57.7	15.3	0.00e+00	0	34	0	160432128	77	4558
2026-01-01 07:34:02.19	99.16	10.52	-55.3	-57.7	15.3	0.00e+00	0	34	0	162529280	77	4593
2026-01-01 07:34:03.20	99.08	10.60	-55.2	-57.5	15.4	0.00e+00	0	34	0	164626432	77	4488
2026-01-01 07:34:04.20	99.00	10.68	-55.2	-57.6	15.4	0.00e+00	0	34	0	166723584	77	4510
2026-01-01 07:34:05.20	98.92	10.76	-55.2	-57.6	15.4	0.00e+00	0	35	0	167772160	76	4762
2026-01-01 07:34:06.20	98.84	10.84	-55.3	-57.6	15.4	0.00e+00	0	35	0	169869312	76	4813
2026-01-01 07:34:07.20	98.76	10.92	-55.2	-57.5	15.4	0.00e+00	0	34	0	171966464	76	4749
2026-01-01 07:34:08.20	98.68	11.01	-55.2	-57.5	15.5	0.00e+00	0	34	0	174063616	76	4728
2026-01-01 07:34:09.19	98.60	11.09	-55.1	-57.4	15.5	0.00e+00	0	34	0	176160768	76	4698
2026-01-01 07:34:10.18	98.52	11.17	-55.1	-57.3	15.6	0.00e+00	0	34	0	177209344	76	4637
2026-01-01 07:34:11.18	98.44	11.25	-55.1	-57.3	15.6	0.00e+00	0	34	0	179306496	76	4635
2026-01-01 07:34:12.18	98.36	11.33	-55.0	-57.3	15.6	0.00e+00	0	34	0	181403648	76	4627
2026-01-01 07:34:13.17	98.27	11.41	-55.0	-57.2	15.7	0.00e+00	0	34	0	183500800	76	4572
2026-01-01 07:34:14.18	98.19	11.50	-55.0	-57.3	15.6	0.00e+00	0	34	0	184549376	76	4603
2026-01-01 07:34:15.17	98.11	11.58	-54.9	-57.2	15.7	0.00e+00	0	35	0	186646528	76	4549
2026-01-01 07:34:16.17	98.02	11.66	-54.9	-57.2	15.7	0.00e+00	0	34	0	188743680	76	4549
2026-01-01 07:34:17.18	97.94	11.75	-55.0	-57.3	15.6	0.00e+00	0	35	0	190840832	76	4612
2026-01-01 07:34:18.18	97.85	11.83	-55.0	-57.3	15.7	0.00e+00	0	34	0	192937984	76	4624
2026-01-01 07:34:19.18	97.76	11.92	-54.8	-57.0	15.8	0.00e+00	0	35	0	193986560	76	4465
2026-01-01 07:34:20.17	97.68	12.00	-54.8	-57.0	15.9	0.00e+00	0	34	0	196083712	76	4444
2026-01-01 07:34:21.17	97.59	12.08	-54.7	-56.8	15.9	0.00e+00	0	35	0	198180864	76	4374
2026-01-01 07:34:22.16	97.51	12.17	-54.7	-56.8	15.9	0.00e+00	0	34	0	200278016	75	4612
2026-01-01 07:34:23.15	97.42	12.25	-54.6	-56.7	15.9	0.00e+00	0	35	0	201326592	75	4598
2026-01-01 07:34:24.15	97.33	12.34	-54.7	-56.8	15.9	0.00e+00	0	34	0	203423744	75	4614
2026-01-01 07:34:25.15	97.24	12.42	-54.7	-56.8	15.9	0.00e+00	0	34	0	205520896	75	4647
2026-01-01 07:34:26.15	97.15	12.51	-54.7	-56.8	15.9	0.00e+00	0	35	0	207618048	75	4623
2026-01-01 07:34:27.15	97.06	12.59	-54.7	-56.8	15.9	0.00e+00	0	35	0	209715200	75	4645
2026-01-01 07:34:28.14	96.97	12.68	-54.7	-56.8	15.9	0.00e+00	0	35	0	210763776	75	4618
2026-01-01 07:34:29.13	96.88	12.76	-54.5	-56.6	16.0	0.00e+00	0	35	0	212860928	75	4533
2026-01-01 07:34:30.12	96.79	12.85	-54.5	-56.6	16.0	0.00e+00	0	34	0	214958080	75	4521
2026-01-01 07:34:31.10	96.70	12.93	-54.5	-56.6	16.0	0.00e+00	0	34	0	217055232	75	4536
2026-01-01 07:34:32.10	96.61	13.02	-54.5	-56.6	16.0	0.00e+00	0	35	0	218103808	75	4531
2026-01-01 07:34:33.09	96.51	13.11	-54.6	-56.7	16.0	0.00e+00	0	35	0	220200960	75	4584
2026-01-01 07:34:34.09	96.42	13.19	-54.5	-56.6	16.0	0.00e+00	0	35	0	222298112	75	4501
2026-01-01 07:34:35.09	96.33	13.28	-54.6	-56.7	16.0	0.00e+00	0	35	0	224395264	75	4556
2026-01-01 07:34:36.08	96.23	13.37	-54.6	-56.7	16.0	0.00e+00	0	34	0	226492416	75	4569
2026-01-01 07:34:37.08	96.14	13.46	-54.6	-56.7	16.0	0.00e+00	0	35	0	227540992	75	4591
2026-01-01 07:34:38.07	96.04	13.54	-54.6	-56.6	16.0	0.00e+00	0	34	0	229638144	75	4544
2026-01-01 07:34:39.07	95.94	13.63	-54.6	-56.7	16.0	0.00e+00	0	34	0	231735296	75	4550
2026-01-01 07:34:40.07	95.85	13.72	-54.6	-56.6	16.0	0.00e+00	0	34	0	233832448	75	4545
2026-01-01 07:34:41.07	95.75	13.81	-54.5	-56.6	16.1	0.00e+00	0	35	0	234881024	75	4502
2026-01-01 07:34:42.07	95.65	13.90	-54.5	-56.6	16.1	0.00e+00	0	35	0	236978176	75	4534
2026-01-01 07:34:43.06	95.55	13.99	-54.5	-56.5	16.1	0.00e+00	0	34	0	239075328	75	4472
2026-01-01 07:34:44.06	95.45	14.08	-54.5	-56.5	16.1	0.00e+00	0	34	0	241172480	75	4492
2026-01-01 07:34:45.05	95.35	14.17	-54.5	-56.5	16.1	0.00e+00	0	35	0	243269632	75	4473
2026-01-01 07:34:46.04	95.25	14.25	-54.5	-56.5	16.1	0.00e+00	0	35	0	244318208	75	4463
2026-01-01 07:34:47.04	95.15	14.35	-54.4	-56.5	16.1	0.00e+00	0	35	0	246415360	75	4459
2026-01-01 07:34:48.03	95.05	14.44	-54.5	-56.5	16.2	0.00e+00	0	35	0	248512512	75	4464
2026-01-01 07:34:49.04	94.94	14.53	-54.3	-56.3	16.3	0.00e+00	0	35	0	250609664	75	4380
2026-01-01 07:34:50.04	94.84	14.62	-54.3	-56.3	16.2	0.00e+00	0	35	0	251658240	75	4382
2026-01-01 07:34:51.03	94.74	14.71	-54.4	-56.4	16.2	0.00e+00	0	35	0	253755392	75	4429
2026-01-01 07:34:52.03	94.63	14.80	-54.3	-56.2	16.3	0.00e+00	0	35	0	255852544	75	4340
2026-01-01 07:34:53.03	94.53	14.89	-54.3	-56.2	16.3	0.00e+00	0	35	0	257949696	75	4323
2026-01-01 07:34:54.03	94.42	14.98	-54.2	-56.2	16.3	0.00e+00	0	35	0	260046848	75	4308
2026-01-01 07:34:55.02	94.31	15.08	-54.2	-56.1	16.3	0.00e+00	0	34	0	261095424	74	4512
2026-01-01 07:34:56.02	94.21	15.17	-54.2	-56.2	16.3	0.00e+00	0	34	0	263192576	74	4554
2026-01-01 07:34:57.02	94.10	15.26	-54.2	-56.1	16.4	0.00e+00	0	35	0	265289728	74	4526
2026-01-01 07:34:58.01	93.99	15.35	-54.2	-56.1	16.4	0.00e+00	0	35	0	267386880	74	4511
2026-01-01 07:34:59.01	93.88	15.45	-54.3	-56.3	16.3	0.00e+00	0	35	0	269484032	74	4620
2026-01-01 07:35:00.00	93.77	15.54	-54.2	-56.1	16.3	0.00e+00	0	35	0	270532608	74	4524
2026-01-01 07:35:01.00	93.66	15.63	-54.2	-56.2	16.3	0.00e+00	0	34	0	272629760	74	4557
2026-01-01 07:35:01.99	93.55	15.73	-54.3	-56.2	16.3	0.00e+00	0	35	0	274726912	74	4584
2026-01-01 07:35:02.99	93.44	15.82	-54.3	-56.2	16.3	0.00e+00	0	35	0	276824064	74	4594
2026-01-01 07:35:03.98	93.32	15.91	-54.3	-56.3	16.3	0.00e+00	0	35	0	277872640	74	4629
2026-01-01 07:35:04.97	93.21	16.01	-54.4	-56.3	16.3	0.00e+00	0	35	0	279969792	74	4640
2026-01-01 07:35:05.97	93.10	16.10	-54.4	-56.4	16.2	0.00e+00	0	35	0	282066944	74	4680
2026-01-01 07:35:06.96	92.98	16.20	-54.5	-56.6	16.1	0.00e+00	0	35	0	284164096	74	4776
2026-01-01 07:35:07.96	92.87	16.29	-54.4	-56.4	16.2	0.00e+00	0	35	0	286261248	74	4684
2026-01-01 07:35:08.95	92.75	16.39	-54.4	-56.4	16.2	0.00e+00	0	35	0	287309824	74	4694
2026-01-01 07:35:09.96	92.63	16.49	-54.5	-56.5	16.2	0.00e+00	0	35	0	289406976	74	4731
2026-01-01 07:35:10.96	92.51	16.58	-54.4	-56.4	16.2	0.00e+00	0	35	0	291504128	74	4705
2026-01-01 07:35:11.95	92.39	16.68	-54.6	-56.6	16.1	0.00e+00	0	35	0	293601280	74	4786
2026-01-01 07:35:12.94	92.27	16.77	-54.5	-56.6	16.1	0.00e+00	0	35	0	295698432	74	4765
2026-01-01 07:35:13.93	92.16	16.87	-54.6	-56.6	16.1	0.00e+00	0	35	0	296747008	74	4810
2026-01-01 07:35:14.93	92.03	16.97	-54.6	-56.7	16.1	0.00e+00	0	35	0	298844160	74	4820
2026-01-01 07:35:15.94	91.91	17.07	-54.6	-56.7	16.1	0.00e+00	0	35	0	300941312	74	4816
2026-01-01 07:35:16.93	91.79	17.16	-54.6	-56.6	16.1	0.00e+00	0	35	0	303038464	74	4796
2026-01-01 07:35:17.93	91.66	17.26	-54.6	-56.7	16.1	0.00e+00	0	35	0	304087040	74	4847
2026-01-01 07:35:18.93	91.54	17.36	-54.7	-56.7	16.1	0.00e+00	0	35	0	306184192	74	4857
2026-01-01 07:35:19.92	91.41	17.46	-54.6	-56.6	16.1	0.00e+00	0	34	0	308281344	74	4787
2026-01-01 07:35:20.93	91.29	17.56	-54.6	-56.6	16.1	0.00e+00	0	35	0	310378496	74	4811
2026-01-01 07:35:21.93	91.16	17.66	-54.6	-56.7	16.1	0.00e+00	0	35	0	312475648	74	4820
2026-01-01 07:35:22.93	91.03	17.75	-54.6	-56.6	16.1	0.00e+00	0	35	0	313524224	74	4781
2026-01-01 07:35:23.94	90.90	17.86	-54.6	-56.6	16.2	0.00e+00	0	35	0	315621376	74	4772
2026-01-01 07:35:24.93	90.77	17.95	-54.5	-56.5	16.2	0.00e+00	0	35	0	317718528	74	4755
2026-01-01 07:35:25.92	90.64	18.05	-54.6	-56.7	16.1	0.00e+00	0	34	0	319815680	74	4824
2026-01-01 07:35:26.92	90.51	18.15	-54.7	-56.7	16.1	0.00e+00	0	35	0	320864256	74	4856
2026-01-01 07:35:27.91	90.38	18.25	-54.7	-56.8	16.0	0.00e+00	0	35	0	322961408	74	4903
2026-01-01 07:35:28.90	90.24	18.35	-54.7	-56.8	16.1	0.00e+00	0	35	0	325058560	74	4899
2026-01-01 07:35:29.88	90.11	18.45	-54.8	-56.9	16.0	0.00e+00	0	35	0	327155712	74	4960
2026-01-01 07:35:30.88	89.98	18.55	-54.8	-57.0	16.0	0.00e+00	0	35	0	329252864	74	4989
2026-01-01 07:35:31.87	89.84	18.65	-54.9	-57.0	16.0	0.00e+00	0	35	0	330301440	75	4736
2026-01-01 07:35:32.87	89.70	18.76	-54.9	-57.1	15.9	0.00e+00	0	35	0	332398592	75	4760
2026-01-01 07:35:33.86	89.57	18.86	-55.1	-57.2	15.8	0.00e+00	0	35	0	334495744	75	4861
2026-01-01 07:35:34.86	89.43	18.96	-55.0	-57.2	15.9	0.00e+00	0	35	0	336592896	75	4836
2026-01-01 07:35:35.86	89.29	19.06	-55.0	-57.1	15.9	0.00e+00	0	35	0	337641472	75	4794
2026-01-01 07:35:36.86	89.15	19.16	-55.0	-57.1	15.9	0.00e+00	0	35	0	339738624	75	4791
2026-01-01 07:35:37.86	89.00	19.27	-55.0	-57.2	15.9	0.00e+00	0	35	0	341835776	75	4822
2026-01-01 07:35:38.86	88.86	19.37	-54.9	-57.0	15.9	0.00e+00	0	35	0	343932928	75	4722
2026-01-01 07:35:39.85	88.72	19.47	-54.8	-56.9	16.0	0.00e+00	0	35	0	346030080	75	4655
2026-01-01 07:35:40.85	88.57	19.58	-54.8	-56.8	16.1	0.00e+00	0	35	0	347078656	75	4644
2026-01-01 07:35:41.85	88.43	19.68	-54.8	-56.9	16.1	0.00e+00	0	35	0	349175808	75	4659
2026-01-01 07:35:42.86	88.28	19.79	-54.6	-56.6	16.2	0.00e+00	0	35	0	351272960	75	4537
2026-01-01 07:35:43.85	88.13	19.89	-54.6	-56.6	16.2	0.00e+00	0	35	0	353370112	75	4542
2026-01-01 07:35:44.84	87.98	19.99	-54.6	-56.6	16.2	0.00e+00	0	35	0	355467264	75	4522
2026-01-01 07:35:45.83	87.84	20.10	-54.5	-56.5	16.3	0.00e+00	0	35	0	356515840	75	4468
2026-01-01 07:35:46.83	87.68	20.20	-54.5	-56.5	16.3	0.00e+00	0	34	0	358612992	75	4456
2026-01-01 07:35:47.83	87.53	20.31	-54.5	-56.5	16.3	0.00e+00	0	35	0	360710144	75	4460
2026-01-01 07:35:48.83	87.38	20.41	-54.5	-56.5	16.3	0.00e+00	0	35	0	362807296	75	4471
2026-01-01 07:35:49.83	87.22	20.52	-54.5	-56.4	16.3	0.00e+00	0	35	0	363855872	75	4433
2026-01-01 07:35:50.83	87.07	20.63	-54.3	-56.3	16.4	0.00e+00	0	35	0	365953024	75	4357
2026-01-01 07:35:51.82	86.91	20.73	-54.4	-56.4	16.3	0.00e+00	0	35	0	368050176	75	4402
2026-01-01 07:35:52.81	86.76	20.84	-54.4	-56.3	16.4	0.00e+00	0	35	0	370147328	75	4374
2026-01-01 07:35:53.82	86.60	20.94	-54.4	-56.4	16.3	0.00e+00	0	35	0	372244480	75	4400
2026-01-01 07:35:54.82	86.44	21.05	-54.5	-56.4	16.3	0.00e+00	0	35	0	373293056	75	4418
2026-01-01 07:35:55.82	86.28	21.16	-54.5	-56.5	16.3	0.00e+00	0	35	0	375390208	75	4478
2026-01-01 07:35:56.82	86.11	21.27	-54.5	-56.5	16.3	0.00e+00	0	35	0	377487360	75	4448
2026-01-01 07:35:57.82	85.95	21.37	-54.5	-56.5	16.3	0.00e+00	0	35	0	379584512	75	4476
2026-01-01 07:35:58.82	85.79	21.48	-54.6	-56.5	16.3	0.00e+00	0	35	0	381681664	75	4487
2026-01-01 07:35:59.82	85.62	21.59	-54.4	-56.3	16.4	0.00e+00	0	35	0	382730240	75	4390
2026-01-01 07:36:00.81	85.45	21.70	-54.3	-56.3	16.4	0.00e+00	0	35	0	384827392	75	4344
2026-01-01 07:36:01.81	85.29	21.80	-54.3	-56.2	16.4	0.00e+00	0	35	0	386924544	75	4331
2026-01-01 07:36:02.81	85.12	21.91	-54.4	-56.3	16.4	0.00e+00	0	35	0	389021696	75	4371
2026-01-01 07:36:03.81	84.95	22.02	-54.4	-56.3	16.4	0.00e+00	0	35	0	390070272	75	4368
2026-01-01 07:36:04.80	84.78	22.13	-54.5	-56.5	16.3	0.00e+00	0	35	0	392167424	75	4444
2026-01-01 07:36:05.81	84.60	22.24	-54.6	-56.6	16.2	0.00e+00	0	35	0	394264576	75	4495
2026-01-01 07:36:06.80	84.43	22.35	-54.4	-56.4	16.4	0.00e+00	0	35	0	396361728	75	4407
2026-01-01 07:36:07.80	84.25	22.46	-54.3	-56.2	16.5	0.00e+00	0	35	0	398458880	75	4295
2026-01-01 07:36:08.79	84.08	22.57	-54.3	-56.1	16.5	0.00e+00	0	35	0	399507456	75	4282
2026-01-01 07:36:09.79	83.90	22.68	-54.4	-56.3	16.4	0.00e+00	0	35	0	401604608	75	4356
2026-01-01 07:36:10.78	83.72	22.78	-54.3	-56.2	16.5	0.00e+00	0	35	0	403701760	75	4317
2026-01-01 07:36:11.78	83.54	22.89	-54.4	-56.3	16.4	0.00e+00	0	35	0	405798912	75	4368
2026-01-01 07:36:12.78	83.36	23.00	-54.5	-56.4	16.4	0.00e+00	0	35	0	406847488	75	4428
2026-01-01 07:36:13.77	83.18	23.11	-54.6	-56.6	16.3	0.00e+00	0	35	0	408944640	75	4534
2026-01-01 07:36:14.77	83.00	23.22	-54.7	-56.7	16.2	0.00e+00	0	35	0	411041792	75	4565
2026-01-01 07:36:15.77	82.81	23.34	-54.7	-56.8	16.2	0.00e+00	0	35	0	413138944	75	4612
2026-01-01 07:36:16.77	82.62	23.45	-54.7	-56.8	16.2	0.00e+00	0	35	0	415236096	75	4605
2026-01-01 07:36:17.76	82.44	23.56	-54.8	-56.8	16.1	0.00e+00	0	35	0	416284672	75	4646
2026-01-01 07:36:18.77	82.25	23.67	-55.0	-57.1	16.0	0.00e+00	0	35	0	418381824	75	4767
2026-01-01 07:36:19.76	82.06	23.78	-55.1	-57.2	16.0	0.00e+00	0	35	0	420478976	75	4832
2026-01-01 07:36:20.76	81.86	23.89	-55.1	-57.2	15.9	0.00e+00	0	35	0	422576128	75	4845
2026-01-01 07:36:21.76	81.67	24.00	-55.2	-57.4	15.8	0.00e+00	0	35	0	424673280	75	4960
2026-01-01 07:36:22.75	81.48	24.11	-55.2	-57.4	15.8	0.00e+00	0	35	0	425721856	75	4962
2026-01-01 07:36:23.76	81.28	24.23	-55.2	-57.4	15.9	0.00e+00	0	35	0	427819008	75	4942
2026-01-01 07:36:24.75	81.08	24.34	-55.2	-57.4	15.9	0.00e+00	0	35	0	429916160	75	4943
2026-01-01 07:36:25.75	80.88	24.45	-55.3	-57.4	15.8	0.00e+00	0	35	0	432013312	75	4973
2026-01-01 07:36:26.75	80.68	24.56	-55.3	-57.4	15.8	0.00e+00	0	35	0	433061888	75	4981
2026-01-01 07:36:27.74	80.48	24.67	-55.3	-57.4	15.8	0.00e+00	0	35	0	435159040	75	4976
2026-01-01 07:36:28.74	80.28	24.78	-55.4	-57.6	15.8	0.00e+00	0	35	0	437256192	75	5048
2026-01-01 07:36:29.74	80.07	24.90	-55.5	-57.8	15.7	0.00e+00	0	35	0	439353344	76	4873
2026-01-01 07:36:30.74	79.87	25.01	-55.5	-57.8	15.7	0.00e+00	0	35	0	441450496	76	4889
2026-01-01 07:36:31.73	79.66	25.12	-55.6	-57.8	15.7	0.00e+00	0	35	0	442499072	76	4909
2026-01-01 07:36:32.74	79.45	25.23	-55.6	-57.8	15.7	0.00e+00	0	35	0	444596224	76	4908
2026-01-01 07:36:33.73	79.24	25.34	-55.5	-57.7	15.7	0.00e+00	0	35	0	446693376	76	4830
2026-01-01 07:36:34.73	79.02	25.46	-55.5	-57.7	15.8	0.00e+00	0	35	0	448790528	76	4835
2026-01-01 07:36:35.74	78.81	25.57	-55.5	-57.7	15.7	0.00e+00	0	35	0	450887680	76	4858
2026-01-01 07:36:36.73	78.59	25.68	-55.4	-57.6	15.8	0.00e+00	0	34	0	451936256	76	4800
2026-01-01 07:36:37.74	78.37	25.80	-55.3	-57.4	15.9	0.00e+00	0	35	0	454033408	76	4694
2026-01-01 07:36:38.74	78.16	25.91	-55.3	-57.5	15.9	0.00e+00	0	35	0	456130560	76	4729
2026-01-01 07:36:39.74	77.94	26.02	-55.4	-57.6	15.8	0.00e+00	0	35	0	458227712	76	4781
2026-01-01 07:36:40.74	77.71	26.13	-55.4	-57.6	15.8	0.00e+00	0	35	0	459276288	76	4804
2026-01-01 07:36:41.74	77.49	26.25	-55.4	-57.6	15.9	0.00e+00	0	35	0	461373440	76	4800
2026-01-01 07:36:42.73	77.27	26.36	-55.4	-57.6	15.8	0.00e+00	0	35	0	463470592	76	4790
2026-01-01 07:36:43.73	77.04	26.47	-55.3	-57.5	15.9	0.00e+00	0	35	0	465567744	76	4722
2026-01-01 07:36:44.73	76.81	26.58	-55.1	-57.2	16.0	0.00e+00	0	35	0	467664896	76	4591
2026-01-01 07:36:45.73	76.58	26.70	-55.1	-57.2	16.1	0.00e+00	0	34	0	468713472	76	4589
2026-01-01 07:36:46.73	76.35	26.81	-55.1	-57.1	16.1	0.00e+00	0	35	0	470810624	76	4543
2026-01-01 07:36:47.73	76.11	26.92	-55.0	-57.1	16.2	0.00e+00	0	35	0	472907776	76	4514
2026-01-01 07:36:48.73	75.88	27.03	-55.0	-57.1	16.1	0.00e+00	0	35	0	475004928	76	4525
2026-01-01 07:36:49.73	75.64	27.15	-55.0	-57.1	16.1	0.00e+00	0	35	0	477102080	76	4518
2026-01-01 07:36:50.73	75.40	27.26	-55.1	-57.2	16.1	0.00e+00	0	35	0	478150656	76	4587
2026-01-01 07:36:51.73	75.16	27.37	-55.2	-57.4	16.0	0.00e+00	0	35	0	480247808	76	4671
2026-01-01 07:36:52.73	74.92	27.48	-55.3	-57.4	16.0	0.00e+00	0	35	0	482344960	76	4700
2026-01-01 07:36:53.72	74.68	27.59	-55.3	-57.5	15.9	0.00e+00	0	35	0	484442112	76	4718
2026-01-01 07:36:54.72	74.43	27.71	-55.2	-57.3	16.0	0.00e+00	0	35	0	485490688	76	4645
2026-01-01 07:36:55.72	74.19	27.82	-55.1	-57.2	16.1	0.00e+00	0	35	0	487587840	76	4579
2026-01-01 07:36:56.73	73.94	27.93	-55.2	-57.3	16.0	0.00e+00	0	35	0	489684992	76	4631
2026-01-01 07:36:57.73	73.68	28.04	-55.2	-57.3	16.1	0.00e+00	0	35	0	491782144	76	4604
2026-01-01 07:36:58.72	73.43	28.15	-55.1	-57.1	16.1	0.00e+00	0	35	0	493879296	76	4516
2026-01-01 07:36:59.72	73.18	28.26	-55.0	-57.0	16.2	0.00e+00	0	35	0	494927872	76	4491
2026-01-01 07:37:00.72	72.92	28.37	-55.1	-57.1	16.2	0.00e+00	0	35	0	497025024	76	4515
2026-01-01 07:37:01.71	72.67	28.48	-55.1	-57.1	16.1	0.00e+00	0	35	0	499122176	76	4523
2026-01-01 07:37:02.71	72.41	28.59	-55.1	-57.2	16.1	0.00e+00	0	35	0	501219328	76	4546
2026-01-01 07:37:03.71	72.15	28.70	-55.1	-57.1	16.1	0.00e+00	0	35	0	503316480	76	4515
2026-01-01 07:37:04.72	71.88	28.81	-55.1	-57.2	16.1	0.00e+00	0	35	0	504365056	76	4562
2026-01-01 07:37:05.72	71.62	28.92	-55.3	-57.4	16.0	0.00e+00	0	35	0	506462208	76	4670
2026-01-01 07:37:06.72	71.35	29.03	-55.4	-57.6	15.9	0.00e+00	0	35	0	508559360	76	4774
2026-01-01 07:37:07.72	71.08	29.14	-55.4	-57.6	15.9	0.00e+00	0	35	0	510656512	76	4793
2026-01-01 07:37:08.72	70.81	29.25	-55.5	-57.7	15.8	0.00e+00	0	35	0	512753664	76	4859
2026-01-01 07:37:09.72	70.54	29.36	-55.5	-57.7	15.9	0.00e+00	0	35	0	513802240	76	4840
2026-01-01 07:37:10.72	70.26	29.47	-55.7	-57.9	15.7	0.00e+00	0	35	0	515899392	76	4981
2026-01-01 07:37:11.71	69.99	29.57	-55.8	-58.1	15.6	0.00e+00	0	35	0	517996544	76	5074
2026-01-01 07:37:12.70	69.72	29.68	-56.1	-58.6	15.3	0.00e+00	0	35	0	520093696	77	5069
2026-01-01 07:37:13.70	69.44	29.79	-56.4	-59.0	15.0	0.00e+00	0	35	0	521142272	78	5033
2026-01-01 07:37:14.70	69.15	29.89	-56.6	-59.4	14.8	0.00e+00	0	35	0	523239424	78	5222
2026-01-01 07:37:15.70	68.87	30.00	-56.8	-59.6	14.7	0.00e+00	0	35	0	525336576	78	5375
2026-01-01 07:37:16.69	68.59	30.11	-56.9	-59.7	14.6	0.00e+00	0	35	0	527433728	79	5149
2026-01-01 07:37:17.70	68.30	30.21	-57.0	-60.0	14.4	0.00e+00	0	35	0	529530880	79	5289
2026-01-01 07:37:18.70	68.01	30.32	-57.1	-60.1	14.3	0.00e+00	0	35	0	530579456	79	5360
2026-01-01 07:37:19.70	67.72	30.42	-57.3	-60.3	14.1	0.00e+00	0	35	0	532676608	79	5527
2026-01-01 07:37:20.71	67.42	30.53	-57.4	-60.5	14.1	0.00e+00	0	35	0	534773760	79	5613
2026-01-01 07:37:21.70	67.13	30.63	-57.5	-60.7	13.9	0.00e+00	0	35	0	536870912	80	5409
2026-01-01 07:37:22.70	66.83	30.73	-57.4	-60.6	14.0	7.00e-07	0	35	0	538968064	80	5342
2026-01-01 07:37:23.69	66.54	30.84	-57.4	-60.5	14.0	0.00e+00	0	35	0	540016640	80	5323
2026-01-01 07:37:24.69	66.24	30.94	-57.3	-60.4	14.1	0.00e+00	0	35	0	542113792	80	5248
2026-01-01 07:37:25.69	65.93	31.04	-57.4	-60.5	14.1	0.00e+00	0	35	0	544210944	80	5281
2026-01-01 07:37:26.69	65.63	31.14	-57.5	-60.7	13.9	0.00e+00	0	35	0	546308096	80	5426
2026-01-01 07:37:27.69	65.32	31.24	-57.6	-60.9	13.8	0.00e+00	0	35	0	547356672	80	5529
2026-01-01 07:37:28.69	65.01	31.34	-57.9	-61.4	13.3	0.00e+00	0	35	0	549453824	80	5912
2026-01-01 07:37:29.68	64.71	31.44	-58.0	-61.6	13.2	7.00e-07	0	35	0	551550976	81	5682
2026-01-01 07:37:30.67	64.40	31.54	-58.0	-61.7	13.2	1.50e-06	0	35	0	553648128	81	5743
2026-01-01 07:37:31.67	64.08	31.63	-58.1	-61.9	13.0	3.80e-06	0	35	0	555745280	81	5868
2026-01-01 07:37:32.67	63.77	31.73	-58.2	-62.1	12.8	2.20e-06	0	35	0	556793856	81	6011
2026-01-01 07:37:33.67	63.45	31.83	-58.3	-62.1	12.8	3.00e-06	0	35	0	558891008	81	6031
2026-01-01 07:37:34.67	63.13	31.93	-58.2	-61.9	12.9	7.00e-07	0	35	0	560988160	81	5913
2026-01-01 07:37:35.67	62.81	32.02	-58.1	-61.8	13.1	2.20e-06	0	35	0	563085312	81	5790
2026-01-01 07:37:36.67	62.49	32.12	-57.8	-61.3	13.4	1.50e-06	0	35	0	564133888	81	5476
2026-01-01 07:37:37.67	62.16	32.21	-57.7	-61.0	13.7	7.00e-07	0	35	0	566231040	81	5332
2026-01-01 07:37:38.67	61.83	32.30	-57.6	-60.9	13.8	0.00e+00	0	35	0	568328192	81	5247
2026-01-01 07:37:39.66	61.51	32.39	-57.5	-60.7	13.9	0.00e+00	0	35	0	570425344	81	5153
2026-01-01 07:37:40.65	61.18	32.48	-57.2	-60.3	14.2	0.00e+00	0	35	0	572522496	81	4874
2026-01-01 07:37:41.65	60.85	32.57	-57.2	-60.3	14.3	7.00e-07	0	35	0	573571072	80	5163
2026-01-01 07:37:42.66	60.51	32.67	-57.3	-60.3	14.2	0.00e+00	0	35	0	575668224	80	5202
2026-01-01 07:37:43.66	60.17	32.75	-57.2	-60.1	14.3	0.00e+00	0	35	0	577765376	80	5087
2026-01-01 07:37:44.66	59.83	32.84	-57.1	-60.1	14.4	0.00e+00	0	35	0	579862528	80	5056
2026-01-01 07:37:45.67	59.49	32.93	-57.2	-60.1	14.4	0.00e+00	0	35	0	581959680	80	5083
2026-01-01 07:37:46.66	59.15	33.02	-57.0	-59.8	14.6	0.00e+00	0	35	0	583008256	80	4926
2026-01-01 07:37:47.66	58.81	33.10	-56.9	-59.7	14.7	0.00e+00	0	35	0	585105408	80	4849
2026-01-01 07:37:48.66	58.46	33.19	-56.9	-59.7	14.7	0.00e+00	0	35	0	587202560	80	4825
2026-01-01 07:37:49.65	58.12	33.27	-56.7	-59.3	14.9	0.00e+00	0	35	0	589299712	79	4904
2026-01-01 07:37:50.65	57.77	33.35	-56.5	-59.1	15.1	0.00e+00	0	35	0	591396864	79	4796
2026-01-01 07:37:51.66	57.41	33.43	-56.6	-59.2	15.0	0.00e+00	0	35	0	592445440	79	4859
2026-01-01 07:37:52.66	57.06	33.51	-56.3	-58.8	15.2	0.00e+00	0	35	0	594542592	79	4640
2026-01-01 07:37:53.66	56.71	33.59	-56.0	-58.3	15.6	0.00e+00	0	35	0	596639744	78	4619
2026-01-01 07:37:54.66	56.35	33.67	-55.8	-58.1	15.7	0.00e+00	0	35	0	598736896	78	4509
2026-01-01 07:37:55.66	55.99	33.75	-55.6	-57.9	15.9	0.00e+00	0	35	0	599785472	77	4655
2026-01-01 07:37:56.66	55.63	33.83	-55.5	-57.6	16.0	0.00e+00	0	35	0	601882624	77	4527
2026-01-01 07:37:57.66	55.27	33.90	-55.4	-57.5	16.0	0.00e+00	0	35	0	603979776	77	4489
2026-01-01 07:37:58.66	54.91	33.98	-55.5	-57.6	16.0	0.00e+00	0	35	0	606076928	77	4537
2026-01-01 07:37:59.66	54.54	34.05	-55.4	-57.5	16.0	0.00e+00	0	35	0	608174080	77	4481
2026-01-01 07:38:00.66	54.18	34.12	-55.4	-57.5	16.1	0.00e+00	0	35	0	609222656	77	4450
2026-01-01 07:38:01.67	53.80	34.19	-55.3	-57.4	16.1	0.00e+00	0	35	0	611319808	77	4429
2026-01-01 07:38:02.67	53.43	34.26	-55.3	-57.3	16.1	0.00e+00	0	35	0	613416960	77	4385
2026-01-01 07:38:03.67	53.06	34.33	-55.3	-57.3	16.1	0.00e+00	0	35	0	615514112	77	4391
2026-01-01 07:38:04.67	52.69	34.40	-55.4	-57.5	16.1	0.00e+00	0	35	0	617611264	77	4453
2026-01-01 07:38:05.67	52.32	34.46	-55.4	-57.5	16.0	0.00e+00	0	35	0	618659840	77	4480
2026-01-01 07:38:06.67	51.94	34.53	-55.2	-57.3	16.1	0.00e+00	0	35	0	620756992	77	4349
2026-01-01 07:38:07.67	51.56	34.59	-55.1	-57.2	16.2	0.00e+00	0	35	0	622854144	76	4547
2026-01-01 07:38:08.66	51.19	34.65	-55.0	-56.9	16.3	0.00e+00	0	35	0	624951296	76	4425
2026-01-01 07:38:09.66	50.81	34.71	-54.8	-56.8	16.5	0.00e+00	0	35	0	627048448	76	4341
2026-01-01 07:38:10.66	50.43	34.77	-54.8	-56.7	16.4	0.00e+00	0	35	0	628097024	76	4325
2026-01-01 07:38:11.66	50.04	34.83	-54.8	-56.7	16.5	0.00e+00	0	35	0	630194176	76	4296
2026-01-01 07:38:12.66	49.66	34.88	-54.9	-56.9	16.3	0.00e+00	0	35	0	632291328	76	4419
2026-01-01 07:38:13.66	49.27	34.94	-54.7	-56.6	16.6	0.00e+00	0	35	0	634388480	76	4287
2026-01-01 07:38:14.66	48.89	34.99	-54.6	-56.4	16.6	0.00e+00	0	35	0	635437056	75	4439
2026-01-01 07:38:15.66	48.50	35.05	-54.4	-56.2	16.7	0.00e+00	0	35	0	637534208	75	4318
2026-01-01 07:38:16.65	48.11	35.10	-54.0	-55.8	16.9	0.00e+00	0	35	0	639631360	74	4359
2026-01-01 07:38:17.65	47.72	35.15	-53.9	-55.6	17.0	0.00e+00	0	35	0	641728512	74	4254
2026-01-01 07:38:18.65	47.33	35.19	-53.9	-55.5	17.0	0.00e+00	0	35	0	643825664	74	4239
2026-01-01 07:38:19.64	46.94	35.24	-53.9	-55.6	17.0	0.00e+00	0	35	0	644874240	74	4249
2026-01-01 07:38:20.65	46.54	35.29	-53.9	-55.7	16.9	0.00e+00	0	35	0	646971392	74	4299
2026-01-01 07:38:21.64	46.15	35.33	-54.0	-55.7	16.9	0.00e+00	0	35	0	649068544	74	4315
2026-01-01 07:38:22.64	45.76	35.37	-54.1	-55.8	16.9	0.00e+00	0	35	0	651165696	74	4391
2026-01-01 07:38:23.64	45.36	35.41	-54.0	-55.7	16.9	0.00e+00	0	35	0	652214272	74	4306
2026-01-01 07:38:24.64	44.96	35.45	-53.9	-55.6	17.0	0.00e+00	0	35	0	654311424	74	4267
2026-01-01 07:38:25.63	44.57	35.49	-53.9	-55.6	16.9	0.00e+00	0	35	0	656408576	74	4291
2026-01-01 07:38:26.63	44.17	35.52	-53.9	-55.6	17.0	0.00e+00	0	35	0	658505728	74	4268
2026-01-01 07:38:27.63	43.77	35.56	-53.8	-55.5	17.0	0.00e+00	0	35	0	660602880	74	4202
2026-01-01 07:38:28.63	43.36	35.59	-53.5	-55.1	17.2	0.00e+00	0	35	0	661651456	73	4264
2026-01-01 07:38:29.63	42.96	35.62	-53.5	-55.1	17.2	0.00e+00	0	35	0	663748608	73	4276
2026-01-01 07:38:30.63	42.56	35.65	-53.3	-54.9	17.3	0.00e+00	0	35	0	665845760	73	4166
2026-01-01 07:38:31.62	42.16	35.68	-53.5	-55.1	17.1	0.00e+00	0	35	0	667942912	73	4267
2026-01-01 07:38:32.62	41.75	35.71	-53.7	-55.4	17.0	0.00e+00	0	35	0	670040064	73	4401
2026-01-01 07:38:33.61	41.35	35.73	-53.9	-55.6	16.9	0.00e+00	0	35	0	671088640	73	4521
2026-01-01 07:38:34.61	40.95	35.75	-54.1	-55.8	16.9	0.00e+00	0	35	0	673185792	73	4623
2026-01-01 07:38:35.60	40.55	35.78	-54.1	-55.9	16.8	0.00e+00	0	35	0	675282944	73	4652
2026-01-01 07:38:36.60	40.14	35.80	-54.3	-56.1	16.7	0.00e+00	0	35	0	677380096	73	4796
2026-01-01 07:38:37.59	39.74	35.81	-54.4	-56.2	16.6	0.00e+00	0	35	0	678428672	74	4593
2026-01-01 07:38:38.58	39.33	35.83	-54.4	-56.2	16.7	0.00e+00	0	35	0	680525824	74	4592
2026-01-01 07:38:39.58	38.92	35.85	-54.3	-56.2	16.7	0.00e+00	0	35	0	682622976	74	4547
2026-01-01 07:38:40.58	38.52	35.86	-54.3	-56.1	16.7	0.00e+00	0	35	0	684720128	74	4537
2026-01-01 07:38:41.57	38.11	35.87	-54.4	-56.2	16.7	0.00e+00	0	35	0	686817280	74	4570
2026-01-01 07:38:42.57	37.70	35.88	-54.5	-56.3	16.7	0.00e+00	0	35	0	687865856	74	4621
2026-01-01 07:38:43.57	37.29	35.89	-54.3	-56.0	16.8	0.00e+00	0	35	0	689963008	74	4479
2026-01-01 07:38:44.57	36.88	35.90	-54.4	-56.2	16.7	0.00e+00	0	35	0	692060160	74	4570
2026-01-01 07:38:45.56	36.48	35.90	-54.5	-56.3	16.6	0.00e+00	0	35	0	694157312	74	4635
2026-01-01 07:38:46.56	36.07	35.91	-54.6	-56.4	16.6	0.00e+00	0	35	0	695205888	74	4687
2026-01-01 07:38:47.57	35.65	35.91	-54.7	-56.6	16.5	0.00e+00	0	35	0	697303040	74	4802
2026-01-01 07:38:48.57	35.24	35.91	-54.6	-56.4	16.6	0.00e+00	0	35	0	699400192	74	4679
2026-01-01 07:38:49.57	34.83	35.91	-54.3	-56.1	16.7	0.00e+00	0	35	0	701497344	74	4527
2026-01-01 07:38:50.57	34.42	35.90	-54.4	-56.2	16.7	0.00e+00	0	35	0	703594496	74	4557
2026-01-01 07:38:51.56	34.02	35.90	-54.4	-56.2	16.7	0.00e+00	0	35	0	704643072	74	4591
2026-01-01 07:38:52.55	33.61	35.89	-54.7	-56.6	16.5	0.00e+00	0	35	0	706740224	74	4814
2026-01-01 07:38:53.54	33.21	35.88	-54.9	-56.9	16.4	0.00e+00	0	35	0	708837376	75	4660
2026-01-01 07:38:54.54	32.80	35.87	-55.0	-57.0	16.3	0.00e+00	0	35	0	710934528	75	4741
2026-01-01 07:38:55.54	32.39	35.86	-55.2	-57.3	16.2	0.00e+00	0	35	0	713031680	75	4876
2026-01-01 07:38:56.54	31.98	35.85	-55.1	-57.2	16.2	0.00e+00	0	35	0	714080256	75	4828
2026-01-01 07:38:57.54	31.57	35.83	-55.0	-56.9	16.4	0.00e+00	0	35	0	716177408	75	4700
2026-01-01 07:38:58.54	31.17	35.82	-54.9	-56.8	16.4	0.00e+00	0	35	0	718274560	75	4632
2026-01-01 07:38:59.54	30.76	35.80	-55.1	-57.1	16.3	0.00e+00	0	35	0	720371712	75	4767
2026-01-01 07:39:00.54	30.35	35.78	-55.3	-57.4	16.1	0.00e+00	0	35	0	721420288	75	4934
2026-01-01 07:39:01.54	29.95	35.76	-55.5	-57.6	16.0	0.00e+00	0	35	0	723517440	76	4793
2026-01-01 07:39:02.53	29.55	35.74	-55.6	-57.7	16.0	0.00e+00	0	35	0	725614592	76	4841
2026-01-01 07:39:03.53	29.14	35.71	-55.8	-58.0	15.7	0.00e+00	0	35	0	727711744	76	5034
2026-01-01 07:39:04.53	28.74	35.69	-56.2	-58.6	15.4	0.00e+00	0	35	0	729808896	77	5045
2026-01-01 07:39:05.53	28.33	35.66	-56.2	-58.7	15.4	0.00e+00	0	35	0	730857472	77	5107
2026-01-01 07:39:06.53	27.93	35.63	-56.3	-58.7	15.4	0.00e+00	0	35	0	732954624	77	5157
2026-01-01 07:39:07.52	27.53	35.60	-56.2	-58.5	15.3	0.00e+00	0	35	0	735051776	77	5030
2026-01-01 07:39:08.53	27.12	35.57	-56.0	-58.3	15.6	0.00e+00	0	35	0	737148928	77	4883
2026-01-01 07:39:09.53	26.72	35.53	-55.9	-58.1	15.7	0.00e+00	0	35	0	739246080	77	4802
2026-01-01 07:39:10.54	26.32	35.50	-55.8	-58.0	15.8	0.00e+00	0	35	0	740294656	77	4742
2026-01-01 07:39:11.53	25.93	35.46	-55.7	-57.9	15.9	0.00e+00	0	35	0	742391808	77	4691
2026-01-01 07:39:12.53	25.53	35.42	-55.9	-58.1	15.7	0.00e+00	0	35	0	744488960	77	4804
2026-01-01 07:39:13.53	25.13	35.38	-56.0	-58.4	15.6	0.00e+00	0	35	0	746586112	77	4934
2026-01-01 07:39:14.53	24.73	35.34	-56.2	-58.6	15.5	0.00e+00	0	35	0	747634688	77	5079
2026-01-01 07:39:15.53	24.34	35.29	-56.3	-58.7	15.4	0.00e+00	0	35	0	749731840	77	5145
2026-01-01 07:39:16.53	23.95	35.25	-56.3	-58.7	15.4	0.00e+00	0	35	0	751828992	77	5133
2026-01-01 07:39:17.53	23.55	35.20	-56.1	-58.5	15.5	0.00e+00	0	35	0	753926144	77	4991
2026-01-01 07:39:18.54	23.16	35.16	-56.1	-58.5	15.5	0.00e+00	0	35	0	756023296	77	5022
2026-01-01 07:39:19.54	22.77	35.11	-56.0	-58.3	15.6	0.00e+00	0	35	0	757071872	77	4886
2026-01-01 07:39:20.54	22.38	35.06	-56.1	-58.4	15.5	0.00e+00	0	35	0	759169024	77	4978
2026-01-01 07:39:21.54	21.99	35.00	-56.1	-58.5	15.5	0.00e+00	0	35	0	761266176	77	4997
2026-01-01 07:39:22.54	21.60	34.95	-56.2	-58.6	15.5	0.00e+00	0	35	0	763363328	77	5055
2026-01-01 07:39:23.54	21.22	34.90	-56.2	-58.5	15.5	0.00e+00	0	35	0	765460480	77	5022
2026-01-01 07:39:24.54	20.83	34.84	-56.2	-58.6	15.5	0.00e+00	0	35	0	766509056	77	5044
2026-01-01 07:39:25.54	20.45	34.78	-56.0	-58.3	15.6	0.00e+00	0	35	0	768606208	77	4903
2026-01-01 07:39:26.53	20.07	34.72	-55.8	-58.1	15.8	0.00e+00	0	35	0	770703360	77	4776
2026-01-01 07:39:27.54	19.69	34.66	-55.4	-57.4	16.2	0.00e+00	0	35	0	772800512	77	4413
2026-01-01 07:39:28.53	19.31	34.60	-55.2	-57.2	16.2	0.00e+00	0	35	0	773849088	77	4322
2026-01-01 07:39:29.53	18.94	34.54	-55.0	-57.0	16.4	0.00e+00	0	35	0	775946240	76	4452
2026-01-01 07:39:30.53	18.56	34.48	-55.1	-57.1	16.3	0.00e+00	0	35	0	778043392	76	4511
2026-01-01 07:39:31.53	18.19	34.41	-55.3	-57.4	16.2	0.00e+00	0	35	0	780140544	76	4666
2026-01-01 07:39:32.53	17.81	34.34	-55.3	-57.3	16.2	0.00e+00	0	35	0	782237696	76	4623
2026-01-01 07:39:33.53	17.44	34.28	-55.3	-57.3	16.2	0.00e+00	0	35	0	783286272	76	4638
2026-01-01 07:39:34.54	17.07	34.21	-55.3	-57.3	16.2	0.00e+00	0	35	0	785383424	76	4630
2026-01-01 07:39:35.53	16.71	34.14	-55.1	-57.1	16.3	0.00e+00	0	35	0	787480576	76	4533
2026-01-01 07:39:36.54	16.34	34.06	-55.1	-57.0	16.3	0.00e+00	0	35	0	789577728	76	4479
2026-01-01 07:39:37.54	15.97	33.99	-55.2	-57.2	16.2	0.00e+00	0	35	0	791674880	76	4561
2026-01-01 07:39:38.55	15.61	33.92	-55.2	-57.2	16.2	0.00e+00	0	35	0	792723456	76	4575
2026-01-01 07:39:39.55	15.24	33.84	-55.3	-57.3	16.2	0.00e+00	0	35	0	794820608	76	4609
2026-01-01 07:39:40.55	14.88	33.77	-55.2	-57.2	16.2	0.00e+00	0	35	0	796917760	76	4596
2026-01-01 07:39:41.54	14.53	33.69	-55.4	-57.5	16.1	0.00e+00	0	35	0	799014912	76	4716
2026-01-01 07:39:42.54	14.17	33.61	-55.5	-57.7	16.0	0.00e+00	0	35	0	801112064	76	4834
2026-01-01 07:39:43.53	13.82	33.53	-55.7	-57.9	15.9	0.00e+00	0	35	0	802160640	76	4960
2026-01-01 07:39:44.54	13.47	33.45	-55.9	-58.2	15.7	0.00e+00	0	35	0	804257792	77	4854
2026-01-01 07:39:45.54	13.12	33.37	-56.1	-58.4	15.6	0.00e+00	0	35	0	806354944	77	4953
2026-01-01 07:39:46.54	12.77	33.29	-56.0	-58.3	15.6	0.00e+00	0	35	0	808452096	77	4901
2026-01-01 07:39:47.55	12.42	33.21	-56.0	-58.3	15.7	0.00e+00	0	35	0	810549248	77	4871
2026-01-01 07:39:48.55	12.07	33.12	-55.9	-58.2	15.7	0.00e+00	0	35	0	811597824	77	4819
2026-01-01 07:39:49.55	11.73	33.04	-56.0	-58.4	15.7	0.00e+00	0	35	0	813694976	77	4947
2026-01-01 07:39:50.55	11.38	32.95	-56.2	-58.6	15.4	0.00e+00	0	35	0	815792128	77	5100
2026-01-01 07:39:51.55	11.04	32.86	-56.4	-58.9	15.3	0.00e+00	0	35	0	817889280	77	5253
2026-01-01 07:39:52.55	10.71	32.78	-56.5	-59.1	15.2	0.00e+00	0	35	0	819986432	78	5046
2026-01-01 07:39:53.55	10.37	32.69	-56.5	-59.1	15.1	0.00e+00	0	35	0	821035008	78	5076
2026-01-01 07:39:54.56	10.03	32.60	-56.7	-59.3	15.1	0.00e+00	0	35	0	823132160	78	5174
2026-01-01 07:39:55.56	9.70	32.51	-56.5	-59.1	15.2	0.00e+00	0	35	0	825229312	78	5058
2026-01-01 07:39:56.56	9.37	32.41	-56.4	-58.9	15.3	0.00e+00	0	35	0	827326464	78	4937
2026-01-01 07:39:57.56	9.04	32.32	-56.4	-58.9	15.3	0.00e+00	0	35	0	828375040	78	4934
2026-01-01 07:39:58.56	8.71	32.23	-56.2	-58.5	15.5	0.00e+00	0	35	0	830472192	78	4751
2026-01-01 07:39:59.56	8.39	32.14	-56.2	-58.6	15.5	0.00e+00	0	35	0	832569344	78	4796
2026-01-01 07:40:00.56	8.06	32.04	-56.2	-58.6	15.5	0.00e+00	0	35	0	834666496	78	4770
2026-01-01 07:40:01.56	7.74	31.95	-56.4	-58.8	15.4	0.00e+00	0	35	0	836763648	78	4921
2026-01-01 07:40:02.57	7.42	31.85	-56.4	-58.9	15.3	0.00e+00	0	35	0	837812224	78	4930
2026-01-01 07:40:03.57	7.10	31.75	-56.3	-58.8	15.4	0.00e+00	0	35	0	839909376	78	4885
2026-01-01 07:40:04.57	6.79	31.66	-56.4	-58.9	15.3	0.00e+00	0	35	0	842006528	78	4960
2026-01-01 07:40:05.57	6.47	31.56	-56.5	-59.0	15.2	0.00e+00	0	35	0	844103680	78	5041
2026-01-01 07:40:06.57	6.16	31.46	-56.4	-58.9	15.3	0.00e+00	0	35	0	846200832	78	4964
2026-01-01 07:40:07.56	5.85	31.36	-56.2	-58.5	15.5	0.00e+00	0	35	0	847249408	78	4752
2026-01-01 07:40:08.57	5.54	31.26	-56.1	-58.5	15.5	0.00e+00	0	35	0	849346560	78	4734
2026-01-01 07:40:09.56	5.24	31.16	-56.2	-58.6	15.5	0.00e+00	0	35	0	851443712	78	4763
2026-01-01 07:40:10.55	4.94	31.06	-56.2	-58.6	15.5	0.00e+00	0	35	0	853540864	78	4779
2026-01-01 07:40:11.55	4.64	30.96	-56.1	-58.5	15.5	0.00e+00	0	35	0	854589440	78	4722
2026-01-01 07:40:12.55	4.34	30.86	-56.2	-58.7	15.4	0.00e+00	0	35	0	856686592	78	4819
2026-01-01 07:40:13.55	4.04	30.76	-56.4	-58.8	15.3	0.00e+00	0	35	0	858783744	78	4914
2026-01-01 07:40:14.56	3.74	30.65	-56.3	-58.7	15.4	0.00e+00	0	35	0	860880896	78	4822
2026-01-01 07:40:15.57	3.44	30.55	-56.1	-58.5	15.5	0.00e+00	0	35	0	862978048	78	4713
2026-01-01 07:40:16.57	3.15	30.44	-56.0	-58.4	15.6	0.00e+00	0	35	0	864026624	78	4659
2026-01-01 07:40:17.57	2.86	30.34	-56.1	-58.4	15.5	0.00e+00	0	35	0	866123776	78	4703
2026-01-01 07:40:18.57	2.57	30.24	-56.2	-58.5	15.5	0.00e+00	0	35	0	868220928	78	4748
2026-01-01 07:40:19.57	2.28	30.13	-56.1	-58.5	15.5	0.00e+00	0	35	0	870318080	78	4747
2026-01-01 07:40:20.57	2.00	30.02	-56.1	-58.4	15.5	0.00e+00	0	35	0	872415232	78	4681
2026-01-01 07:40:21.57	1.71	29.92	-56.2	-58.6	15.4	0.00e+00	0	35	0	873463808	78	4789
2026-01-01 07:40:22.58	1.43	29.81	-56.1	-58.5	15.5	0.00e+00	0	35	0	875560960	78	4744
2026-01-01 07:40:23.58	1.15	29.70	-56.1	-58.4	15.6	0.00e+00	0	35	0	877658112	78	4678
2026-01-01 07:40:24.58	0.87	29.60	-56.0	-58.3	15.6	0.00e+00	0	35	0	879755264	78	4649
2026-01-01 07:40:25.58	0.60	29.49	-56.1	-58.5	15.5	0.00e+00	0	35	0	881852416	78	4733
2026-01-01 07:40:26.59	0.32	29.38	-55.9	-58.2	15.7	0.00e+00	0	35	0	882900992	78	4579
2026-01-01 07:40:27.58	0.05	29.27	-55.8	-58.1	15.8	0.00e+00	0	35	0	884998144	78	4512
2026-01-01 07:40:28.58	359.78	29.16	-55.8	-58.1	15.7	0.00e+00	0	35	0	887095296	78	4521
2026-01-01 07:40:29.58	359.51	29.06	-55.9	-58.1	15.7	0.00e+00	0	35	0	889192448	78	4535
2026-01-01 07:40:30.58	359.24	28.95	-55.6	-57.8	15.9	0.00e+00	0	35	0	890241024	77	4601
2026-01-01 07:40:31.58	358.98	28.84	-55.6	-57.7	15.9	0.00e+00	0	35	0	892338176	77	4589
2026-01-01 07:40:32.58	358.72	28.73	-55.5	-57.7	16.0	0.00e+00	0	35	0	894435328	77	4555
2026-01-01 07:40:33.58	358.46	28.62	-55.3	-57.4	16.1	0.00e+00	0	35	0	896532480	77	4416
2026-01-01 07:40:34.57	358.20	28.51	-55.1	-57.1	16.3	0.00e+00	0	35	0	898629632	76	4544
2026-01-01 07:40:35.57	357.94	28.40	-54.9	-56.9	16.4	0.00e+00	0	35	0	899678208	76	4407
2026-01-01 07:40:36.58	357.68	28.29	-54.7	-56.5	16.6	0.00e+00	0	35	0	901775360	76	4237
2026-01-01 07:40:37.58	357.43	28.18	-54.5	-56.3	16.6	0.00e+00	0	35	0	903872512	75	4380
2026-01-01 07:40:38.57	357.18	28.07	-54.5	-56.3	16.7	0.00e+00	0	35	0	905969664	75	4378
2026-01-01 07:40:39.57	356.93	27.96	-54.5	-56.4	16.6	0.00e+00	0	35	0	908066816	75	4400
2026-01-01 07:40:40.57	356.68	27.84	-54.3	-56.1	16.8	0.00e+00	0	35	0	909115392	75	4253
2026-01-01 07:40:41.57	356.43	27.73	-54.2	-56.0	16.8	0.00e+00	0	35	0	911212544	75	4227
2026-01-01 07:40:42.57	356.19	27.62	-54.2	-56.0	16.8	0.00e+00	0	35	0	913309696	74	4450
2026-01-01 07:40:43.57	355.95	27.51	-54.0	-55.7	17.0	0.00e+00	0	35	0	915406848	74	4317
2026-01-01 07:40:44.57	355.70	27.40	-53.9	-55.6	17.0	0.00e+00	0	35	0	916455424	74	4244
2026-01-01 07:40:45.56	355.47	27.29	-53.9	-55.7	16.9	0.00e+00	0	35	0	918552576	74	4303
2026-01-01 07:40:46.55	355.23	27.18	-53.7	-55.4	17.1	0.00e+00	0	35	0	920649728	74	4167
2026-01-01 07:40:47.54	355.00	27.07	-53.7	-55.3	17.1	0.00e+00	0	35	0	922746880	73	4391
2026-01-01 07:40:48.54	354.76	26.95	-53.7	-55.3	17.1	0.00e+00	0	35	0	924844032	73	4382
2026-01-01 07:40:49.54	354.53	26.84	-53.7	-55.4	17.0	0.00e+00	0	35	0	925892608	73	4434
2026-01-01 07:40:50.54	354.30	26.73	-53.8	-55.6	16.9	0.00e+00	0	35	0	927989760	73	4501
2026-01-01 07:40:51.53	354.07	26.62	-53.8	-55.5	17.0	0.00e+00	0	35	0	930086912	73	4445
2026-01-01 07:40:52.52	353.84	26.51	-53.8	-55.5	17.0	0.00e+00	0	35	0	932184064	73	4464
2026-01-01 07:40:53.52	353.62	26.39	-53.7	-55.4	17.0	0.00e+00	0	35	0	933232640	73	4430
2026-01-01 07:40:54.52	353.39	26.28	-53.5	-55.2	17.1	0.00e+00	0	35	0	935329792	73	4296
2026-01-01 07:40:55.51	353.17	26.17	-53.4	-55.1	17.2	0.00e+00	0	35	0	937426944	73	4246
2026-01-01 07:40:56.50	352.95	26.06	-53.3	-54.9	17.2	0.00e+00	0	35	0	939524096	73	4179
2026-01-01 07:40:57.50	352.73	25.95	-53.3	-54.9	17.3	0.00e+00	0	35	0	941621248	73	4162
2026-01-01 07:40:58.51	352.51	25.83	-53.4	-55.0	17.2	0.00e+00	0	35	0	942669824	73	4211
2026-01-01 07:40:59.50	352.29	25.72	-53.4	-55.0	17.2	0.00e+00	0	35	0	944766976	73	4221
2026-01-01 07:41:00.50	352.08	25.61	-53.3	-54.9	17.2	0.00e+00	0	35	0	946864128	73	4186
2026-01-01 07:41:01.50	351.86	25.50	-53.2	-54.8	17.3	0.00e+00	0	35	0	948961280	73	4132
2026-01-01 07:41:02.49	351.65	25.39	-53.1	-54.7	17.3	0.00e+00	0	35	0	951058432	72	4320
2026-01-01 07:41:03.49	351.44	25.27	-53.2	-54.8	17.3	0.00e+00	0	35	0	952107008	72	4351
2026-01-01 07:41:04.48	351.24	25.16	-53.3	-54.8	17.3	0.00e+00	0	35	0	954204160	72	4383
2026-01-01 07:41:05.48	351.03	25.05	-53.3	-54.9	17.2	0.00e+00	0	35	0	956301312	72	4418
2026-01-01 07:41:06.47	350.82	24.94	-53.3	-54.9	17.2	0.00e+00	0	35	0	958398464	72	4439
2026-01-01 07:41:07.47	350.62	24.83	-53.3	-54.9	17.2	0.00e+00	0	35	0	959447040	72	4402
2026-01-01 07:41:08.47	350.41	24.72	-53.4	-55.0	17.2	0.00e+00	0	35	0	961544192	72	4451
2026-01-01 07:41:09.46	350.21	24.61	-53.5	-55.1	17.1	0.00e+00	0	35	0	963641344	72	4523
2026-01-01 07:41:10.46	350.01	24.49	-53.5	-55.1	17.1	0.00e+00	0	35	0	965738496	72	4521
2026-01-01 07:41:11.45	349.82	24.38	-53.6	-55.3	17.0	0.00e+00	0	35	0	967835648	72	4617
2026-01-01 07:41:12.46	349.62	24.27	-53.7	-55.3	17.0	0.00e+00	0	35	0	968884224	72	4643
2026-01-01 07:41:13.45	349.42	24.16	-53.6	-55.3	17.0	0.00e+00	0	35	0	970981376	72	4623
2026-01-01 07:41:14.45	349.23	24.05	-53.6	-55.3	17.0	0.00e+00	0	35	0	973078528	72	4601
2026-01-01 07:41:15.45	349.03	23.94	-53.7	-55.5	16.9	0.00e+00	0	35	0	975175680	72	4706
2026-01-01 07:41:16.45	348.84	23.83	-53.8	-55.5	16.9	0.00e+00	0	35	0	977272832	72	4723
2026-01-01 07:41:17.45	348.65	23.71	-53.8	-55.6	16.9	0.00e+00	0	35	0	978321408	72	4778
2026-01-01 07:41:18.45	348.46	23.60	-53.9	-55.7	16.9	0.00e+00	0	35	0	980418560	73	4548
2026-01-01 07:41:19.45	348.27	23.49	-53.9	-55.6	16.9	0.00e+00	0	35	0	982515712	73	4512
2026-01-01 07:41:20.45	348.09	23.38	-54.0	-55.7	16.9	0.00e+00	0	35	0	984612864	73	4573
2026-01-01 07:41:21.45	347.90	23.27	-53.8	-55.5	17.0	0.00e+00	0	35	0	985661440	73	4450
2026-01-01 07:41:22.45	347.72	23.16	-53.9	-55.6	16.9	0.00e+00	0	35	0	987758592	73	4525
2026-01-01 07:41:23.45	347.53	23.05	-53.8	-55.5	17.0	0.00e+00	0	35	0	989855744	73	4470
2026-01-01 07:41:24.45	347.35	22.94	-53.8	-55.5	17.0	0.00e+00	0	35	0	991952896	73	4473
2026-01-01 07:41:25.45	347.17	22.83	-53.8	-55.5	17.0	0.00e+00	0	35	0	994050048	73	4466
2026-01-01 07:41:26.45	346.99	22.72	-53.8	-55.5	16.9	0.00e+00	0	35	0	995098624	73	4453
2026-01-01 07:41:27.45	346.82	22.61	-53.9	-55.6	16.9	0.00e+00	0	35	0	997195776	73	4510
2026-01-01 07:41:28.45	346.64	22.50	-53.9	-55.6	16.9	0.00e+00	0	35	0	999292928	73	4527
2026-01-01 07:41:29.45	346.46	22.39	-53.7	-55.5	17.0	0.00e+00	0	35	0	1001390080	73	4444
2026-01-01 07:41:30.46	346.29	22.28	-53.8	-55.5	16.9	0.00e+00	0	35	0	1003487232	73	4447
2026-01-01 07:41:31.46	346.12	22.17	-53.9	-55.7	16.8	0.00e+00	0	35	0	1004535808	73	4556
2026-01-01 07:41:32.46	345.94	22.07	-53.9	-55.6	16.9	0.00e+00	0	35	0	1006632960	73	4526
2026-01-01 07:41:33.46	345.77	21.96	-53.9	-55.7	16.9	0.00e+00	0	35	0	1008730112	73	4555
2026-01-01 07:41:34.46	345.61	21.85	-54.0	-55.8	16.8	0.00e+00	0	35	0	1010827264	73	4609
2026-01-01 07:41:35.45	345.44	21.74	-54.0	-55.7	16.8	0.00e+00	0	35	0	1011875840	73	4595
2026-01-01 07:41:36.43	345.28	21.64	-54.0	-55.7	16.9	0.00e+00	0	35	0	1013972992	73	4584
2026-01-01 07:41:37.43	345.11	21.53	-54.1	-55.9	16.8	0.00e+00	0	35	0	1016070144	73	4655
2026-01-01 07:41:38.43	344.95	21.42	-54.1	-55.9	16.8	0.00e+00	0	35	0	1018167296	73	4659
2026-01-01 07:41:39.43	344.78	21.31	-54.1	-55.9	16.7	0.00e+00	0	35	0	1020264448	73	4684
2026-01-01 07:41:40.43	344.62	21.21	-54.2	-56.0	16.7	0.00e+00	0	35	0	1021313024	73	4725
2026-01-01 07:41:41.43	344.46	21.10	-54.3	-56.1	16.6	0.00e+00	0	35	0	1023410176	73	4790
2026-01-01 07:41:42.43	344.30	20.99	-54.4	-56.2	16.6	0.00e+00	0	35	0	1025507328	73	4852
2026-01-01 07:41:43.44	344.14	20.89	-54.5	-56.4	16.6	0.00e+00	0	35	0	1027604480	74	4654
2026-01-01 07:41:44.44	343.98	20.78	-54.5	-56.4	16.5	0.00e+00	0	35	0	1029701632	74	4667
2026-01-01 07:41:45.45	343.83	20.67	-54.5	-56.4	16.4	0.00e+00	0	35	0	1030750208	74	4705
2026-01-01 07:41:46.44	343.67	20.57	-54.6	-56.5	16.4	0.00e+00	0	35	0	1032847360	74	4740
2026-01-01 07:41:47.45	343.52	20.46	-54.7	-56.7	16.4	0.00e+00	0	35	0	1034944512	74	4843
2026-01-01 07:41:48.45	343.36	20.36	-54.8	-56.8	16.3	0.00e+00	0	35	0	1037041664	74	4905
2026-01-01 07:41:49.44	343.21	20.25	-54.8	-56.8	16.3	0.00e+00	0	35	0	1039138816	74	4878
2026-01-01 07:41:50.44	343.06	20.15	-54.8	-56.8	16.3	0.00e+00	0	35	0	1040187392	74	4887
2026-01-01 07:41:51.43	342.91	20.04	-54.8	-56.8	16.3	0.00e+00	0	35	0	1042284544	74	4899
2026-01-01 07:41:52.43	342.76	19.94	-54.8	-56.8	16.3	0.00e+00	0	35	0	1044381696	74	4875
2026-01-01 07:41:53.43	342.62	19.83	-54.8	-56.7	16.3	0.00e+00	0	35	0	1046478848	74	4861
2026-01-01 07:41:54.43	342.47	19.73	-54.7	-56.7	16.4	0.00e+00	0	35	0	1047527424	74	4829
2026-01-01 07:41:55.43	342.32	19.63	-54.6	-56.5	16.5	0.00e+00	0	35	0	1049624576	74	4759
2026-01-01 07:41:56.43	342.18	19.52	-54.6	-56.5	16.5	0.00e+00	0	35	0	1051721728	74	4714
2026-01-01 07:41:57.44	342.03	19.42	-54.6	-56.5	16.4	0.00e+00	0	35	0	1053818880	74	4718
2026-01-01 07:41:58.44	341.89	19.32	-54.5	-56.4	16.5	0.00e+00	0	35	0	1055916032	74	4676
2026-01-01 07:41:59.45	341.75	19.21	-54.6	-56.6	16.4	0.00e+00	0	35	0	1056964608	74	4769
2026-01-01 07:42:00.46	341.61	19.11	-54.7	-56.6	16.4	0.00e+00	0	34	0	1059061760	74	4796
2026-01-01 07:42:01.45	341.47	19.01	-54.6	-56.6	16.4	0.00e+00	0	35	0	1061158912	74	4770
2026-01-01 07:42:02.46	341.33	18.90	-54.8	-56.8	16.3	0.00e+00	0	35	0	1063256064	74	4897
2026-01-01 07:42:03.46	341.19	18.80	-54.8	-56.8	16.3	0.00e+00	0	35	0	1065353216	74	4904
2026-01-01 07:42:04.46	341.05	18.70	-54.8	-56.9	16.3	0.00e+00	0	35	0	1066401792	74	4928
2026-01-01 07:42:05.46	340.92	18.60	-54.9	-57.0	16.2	0.00e+00	0	35	0	1068498944	75	4727
2026-01-01 07:42:06.46	340.78	18.50	-54.9	-57.0	16.2	0.00e+00	0	35	0	1070596096	75	4707
2026-01-01 07:42:07.47	340.65	18.40	-55.0	-57.0	16.1	0.00e+00	0	35	0	1072693248	75	4742
2026-01-01 07:42:08.47	340.51	18.30	-54.9	-57.0	16.2	0.00e+00	0	35	0	1074790400	75	4720
2026-01-01 07:42:09.47	340.38	18.20	-54.9	-56.9	16.2	0.00e+00	0	35	0	1075838976	75	4676
2026-01-01 07:42:10.47	340.25	18.10	-54.9	-56.9	16.2	0.00e+00	0	35	0	1077936128	75	4685
2026-01-01 07:42:11.46	340.12	18.00	-54.9	-57.0	16.2	0.00e+00	0	35	0	1080033280	75	4716
2026-01-01 07:42:12.45	339.99	17.90	-54.8	-56.7	16.3	0.00e+00	0	35	0	1082130432	75	4594
2026-01-01 07:42:13.45	339.86	17.80	-54.8	-56.9	16.2	0.00e+00	0	35	0	1083179008	75	4654
2026-01-01 07:42:14.45	339.73	17.70	-54.7	-56.6	16.3	0.00e+00	0	35	0	1085276160	75	4539
2026-01-01 07:42:15.46	339.61	17.60	-54.7	-56.7	16.3	0.00e+00	0	35	0	1087373312	75	4592
2026-01-01 07:42:16.45	339.48	17.50	-54.7	-56.7	16.3	0.00e+00	0	35	0	1089470464	75	4552
2026-01-01 07:42:17.45	339.36	17.40	-54.7	-56.6	16.4	0.00e+00	0	35	0	1091567616	75	4533
2026-01-01 07:42:18.44	339.23	17.31	-54.7	-56.7	16.3	0.00e+00	0	35	0	1092616192	75	4555
2026-01-01 07:42:19.44	339.11	17.21	-54.7	-56.7	16.3	0.00e+00	0	35	0	1094713344	75	4557
2026-01-01 07:42:20.43	338.99	17.11	-54.6	-56.6	16.4	0.00e+00	0	35	0	1096810496	75	4502
2026-01-01 07:42:21.43	338.86	17.01	-54.6	-56.5	16.4	0.00e+00	0	35	0	1098907648	75	4493
2026-01-01 07:42:22.44	338.74	16.92	-54.6	-56.6	16.4	0.00e+00	0	35	0	1099956224	75	4524
2026-01-01 07:42:23.44	338.62	16.82	-54.7	-56.7	16.3	0.00e+00	0	35	0	1102053376	75	4549
2026-01-01 07:42:24.44	338.50	16.72	-54.5	-56.5	16.4	0.00e+00	0	35	0	1104150528	75	4460
2026-01-01 07:42:25.45	338.38	16.63	-54.6	-56.5	16.4	0.00e+00	0	35	0	1106247680	75	4493
2026-01-01 07:42:26.44	338.26	16.53	-54.5	-56.5	16.4	0.00e+00	0	35	0	1108344832	75	4446
2026-01-01 07:42:27.45	338.15	16.43	-54.6	-56.5	16.4	0.00e+00	0	35	0	1109393408	75	4486
2026-01-01 07:42:28.44	338.03	16.34	-54.6	-56.5	16.4	0.00e+00	0	35	0	1111490560	75	4478
2026-01-01 07:42:29.44	337.91	16.24	-54.7	-56.7	16.3	0.00e+00	0	35	0	1113587712	75	4574
2026-01-01 07:42:30.44	337.80	16.15	-54.8	-56.8	16.2	0.00e+00	0	35	0	1115684864	75	4626
2026-01-01 07:42:31.43	337.69	16.05	-54.8	-56.9	16.2	0.00e+00	0	35	0	1117782016	75	4654
2026-01-01 07:42:32.43	337.57	15.96	-54.9	-57.0	16.1	0.00e+00	0	35	0	1118830592	75	4717
2026-01-01 07:42:33.42	337.46	15.87	-54.9	-57.0	16.1	0.00e+00	0	35	0	1120927744	75	4754
2026-01-01 07:42:34.42	337.35	15.77	-55.0	-57.1	16.1	0.00e+00	0	35	0	1123024896	75	4798
2026-01-01 07:42:35.42	337.24	15.68	-55.1	-57.2	16.0	0.00e+00	0	35	0	1125122048	75	4837
2026-01-01 07:42:36.42	337.13	15.58	-55.0	-57.2	16.0	0.00e+00	0	35	0	1126170624	75	4820
2026-01-01 07:42:37.42	337.02	15.49	-55.0	-57.1	16.0	0.00e+00	0	35	0	1128267776	75	4788
2026-01-01 07:42:38.41	336.91	15.40	-55.0	-57.1	16.1	0.00e+00	0	35	0	1130364928	75	4761
2026-01-01 07:42:39.41	336.80	15.31	-55.0	-57.0	16.0	0.00e+00	0	35	0	1132462080	75	4751
2026-01-01 07:42:40.42	336.69	15.21	-54.9	-57.0	16.1	0.00e+00	0	35	0	1134559232	75	4726
2026-01-01 07:42:41.42	336.58	15.12	-54.9	-56.9	16.1	0.00e+00	0	35	0	1135607808	75	4694
2026-01-01 07:42:42.42	336.48	15.03	-54.8	-56.9	16.1	0.00e+00	0	35	0	1137704960	75	4655
2026-01-01 07:42:43.43	336.37	14.94	-54.9	-57.0	16.1	0.00e+00	0	35	0	1139802112	75	4727
2026-01-01 07:42:44.43	336.26	14.84	-54.8	-56.8	16.2	0.00e+00	0	35	0	1141899264	75	4622
2026-01-01 07:42:45.44	336.16	14.75	-54.7	-56.8	16.2	0.00e+00	0	35	0	1143996416	75	4602
2026-01-01 07:42:46.44	336.05	14.66	-54.7	-56.8	16.2	0.00e+00	0	35	0	1145044992	75	4604
2026-01-01 07:42:47.44	335.95	14.57	-54.7	-56.7	16.3	0.00e+00	0	35	0	1147142144	75	4590
2026-01-01 07:42:48.44	335.85	14.48	-54.7	-56.7	16.3	0.00e+00	0	35	0	1149239296	75	4597
2026-01-01 07:42:49.45	335.75	14.39	-54.7	-56.8	16.2	0.00e+00	0	35	0	1151336448	75	4607
2026-01-01 07:42:50.45	335.64	14.30	-54.8	-56.8	16.2	0.00e+00	0	35	0	1153433600	75	4631
2026-01-01 07:42:51.45	335.54	14.21	-54.8	-56.9	16.2	0.00e+00	0	35	0	1154482176	75	4654
2026-01-01 07:42:52.45	335.44	14.12	-54.8	-56.8	16.2	0.00e+00	0	35	0	1156579328	75	4648
2026-01-01 07:42:53.46	335.34	14.03	-54.8	-56.9	16.2	0.00e+00	0	35	0	1158676480	75	4671
2026-01-01 07:42:54.46	335.25	13.94	-54.9	-57.0	16.1	0.00e+00	0	35	0	1160773632	75	4745
2026-01-01 07:42:55.46	335.15	13.85	-54.9	-57.1	16.0	0.00e+00	0	35	0	1162870784	75	4763
2026-01-01 07:42:56.46	335.05	13.76	-55.0	-57.2	15.9	0.00e+00	0	35	0	1163919360	75	4834
2026-01-01 07:42:57.45	334.95	13.67	-55.0	-57.2	15.9	0.00e+00	0	35	0	1166016512	75	4829
2026-01-01 07:42:58.45	334.86	13.58	-55.1	-57.3	15.9	0.00e+00	0	35	0	1168113664	75	4923
2026-01-01 07:42:59.46	334.76	13.50	-55.2	-57.4	15.8	0.00e+00	0	35	0	1170210816	75	4972
2026-01-01 07:43:00.46	334.67	13.41	-55.2	-57.4	15.8	0.00e+00	0	35	0	1171259392	75	4971
2026-01-01 07:43:01.46	334.57	13.32	-55.3	-57.5	15.8	0.00e+00	0	35	0	1173356544	75	5024
2026-01-01 07:43:02.47	334.48	13.23	-55.4	-57.7	15.7	0.00e+00	0	35	0	1175453696	75	5101
2026-01-01 07:43:03.47	334.38	13.14	-55.4	-57.7	15.7	0.00e+00	0	35	0	1177550848	76	4834
2026-01-01 07:43:04.47	334.29	13.06	-55.4	-57.7	15.7	0.00e+00	0	35	0	1179648000	76	4835
2026-01-01 07:43:05.47	334.20	12.97	-55.5	-57.8	15.6	0.00e+00	0	35	0	1180696576	76	4881
2026-01-01 07:43:06.48	334.10	12.88	-55.5	-57.8	15.6	0.00e+00	0	35	0	1182793728	76	4899
2026-01-01 07:43:07.48	334.01	12.80	-55.4	-57.7	15.6	0.00e+00	0	35	0	1184890880	76	4865
2026-01-01 07:43:08.48	333.92	12.71	-55.5	-57.8	15.6	0.00e+00	0	35	0	1186988032	76	4888
2026-01-01 07:43:09.48	333.83	12.63	-55.5	-57.8	15.6	0.00e+00	0	35	0	1189085184	76	4899
2026-01-01 07:43:10.48	333.74	12.54	-55.5	-57.8	15.6	0.00e+00	0	35	0	1190133760	76	4890
2026-01-01 07:43:11.49	333.65	12.45	-55.6	-58.0	15.5	0.00e+00	0	35	0	1192230912	76	5003
2026-01-01 07:43:12.49	333.56	12.37	-55.6	-57.9	15.5	0.00e+00	0	35	0	1194328064	76	4978
2026-01-01 07:43:13.49	333.48	12.28	-55.5	-57.9	15.5	0.00e+00	0	35	0	1196425216	76	4943
2026-01-01 07:43:14.50	333.39	12.20	-55.5	-57.9	15.5	0.00e+00	0	35	0	1198522368	76	4942
2026-01-01 07:43:15.51	333.30	12.11	-55.5	-57.8	15.6	0.00e+00	0	35	0	1199570944	76	4895
2026-01-01 07:43:16.51	333.21	12.03	-55.5	-57.8	15.6	0.00e+00	0	35	0	1201668096	76	4900
2026-01-01 07:43:17.51	333.13	11.95	-55.5	-57.8	15.6	0.00e+00	0	35	0	1203765248	76	4907
2026-01-01 07:43:18.51	333.04	11.86	-55.5	-57.8	15.6	0.00e+00	0	35	0	1205862400	76	4884
2026-01-01 07:43:19.51	332.96	11.78	-55.5	-57.9	15.5	0.00e+00	0	35	0	1207959552	76	4947
2026-01-01 07:43:20.51	332.87	11.70	-55.5	-57.9	15.5	0.00e+00	0	35	0	1209008128	76	4963
2026-01-01 07:43:21.51	332.79	11.61	-55.6	-58.0	15.4	0.00e+00	0	35	0	1211105280	76	5039
2026-01-01 07:43:22.52	332.71	11.53	-55.5	-57.9	15.5	0.00e+00	0	35	0	1213202432	76	4941
2026-01-01 07:43:23.52	332.62	11.45	-55.6	-58.0	15.4	0.00e+00	0	35	0	1215299584	76	5040
2026-01-01 07:43:24.53	332.54	11.36	-55.6	-58.0	15.4	0.00e+00	0	35	0	1216348160	76	5018
2026-01-01 07:43:25.53	332.46	11.28	-55.7	-58.1	15.4	0.00e+00	0	35	0	1218445312	76	5055
2026-01-01 07:43:26.53	332.38	11.20	-55.7	-58.2	15.3	0.00e+00	0	35	0	1220542464	76	5104
2026-01-01 07:43:27.53	332.30	11.12	-55.8	-58.3	15.3	0.00e+00	0	35	0	1222639616	76	5164
2026-01-01 07:43:28.53	332.22	11.04	-55.8	-58.3	15.2	0.00e+00	0	35	0	1224736768	76	5171
2026-01-01 07:43:29.53	332.14	10.95	-55.9	-58.5	15.1	0.00e+00	0	35	0	1225785344	77	5007
2026-01-01 07:43:30.53	332.06	10.87	-56.0	-58.6	15.0	0.00e+00	0	35	0	1227882496	77	5064
