passes_logs/2026/01/01/R3.2S_Murmansk/R3.2S_Murmansk__20260101_003329_SUOMI_NPP_rec.log

#Pass ID: 20260101_003329_SUOMI NPP
#Satellite: SUOMI NPP
#Configuration: NPP
#almurnet v.1.7.20251203
#Start time: 2026-01-01 00:33:29

#Version: 2.2.20231116
#Station: R3.2S_Murmansk
#Location: 33.079688 lon 68.888172 lat
#TLE: 1 37849U 11061A   25364.87906317  .00000195  00000+0  11345-3 0  9992
#TLE: 2 37849  98.7794 302.0592 0002571  89.2401 270.9069 14.19520347734561

#Time	Az	El	Level	Level2	SNR	BER	BlckErr	Temp	State	Recorded	gain1	gain2
2026-01-01 00:33:29.10	23.82	1.96	-59.8	-75.8	3.8	1.49e+00	0	33	0	0	86	21798
2026-01-01 00:33:30.10	23.83	2.02	-59.8	-75.8	3.8	1.49e+00	0	33	104	0	84	24459
2026-01-01 00:33:31.11	23.84	2.09	-59.8	-75.8	3.8	1.49e+00	0	33	104	0	84	24452
2026-01-01 00:33:32.10	23.85	2.15	-59.8	-75.7	3.8	1.49e+00	0	33	104	0	84	24320
2026-01-01 00:33:33.10	23.85	2.22	-59.8	-75.7	3.8	1.49e+00	0	33	104	0	84	24406
2026-01-01 00:33:34.10	23.86	2.28	-59.8	-75.7	3.8	1.49e+00	0	33	104	0	84	24269
2026-01-01 00:33:35.09	23.87	2.34	-59.8	-75.7	3.8	1.49e+00	0	33	104	0	84	24243
2026-01-01 00:33:36.08	23.88	2.41	-59.8	-75.7	3.8	1.49e+00	0	33	104	0	84	24181
2026-01-01 00:33:37.08	23.89	2.47	-59.8	-75.6	3.8	1.49e+00	0	33	104	0	84	24098
2026-01-01 00:33:38.08	23.90	2.54	-59.8	-75.7	3.8	1.49e+00	0	33	104	0	84	24146
2026-01-01 00:33:39.08	23.91	2.60	-59.8	-75.7	3.8	1.49e+00	0	33	104	0	84	24159
2026-01-01 00:33:40.08	23.92	2.67	-59.8	-75.6	3.8	1.49e+00	0	33	104	0	84	24041
2026-01-01 00:33:41.07	23.93	2.73	-59.8	-75.5	3.8	1.49e+00	0	33	104	0	84	23666
2026-01-01 00:33:42.07	23.94	2.80	-59.8	-75.3	3.8	1.49e+00	0	33	104	0	84	23100
2026-01-01 00:33:43.06	23.95	2.86	-59.8	-75.1	3.8	1.49e+00	0	33	104	0	84	22553
2026-01-01 00:33:44.06	23.96	2.93	-59.8	-74.9	3.8	1.49e+00	0	33	104	0	84	22175
2026-01-01 00:33:45.06	23.97	2.99	-59.8	-74.6	3.8	1.49e+00	0	33	104	0	84	21441
2026-01-01 00:33:46.05	23.98	3.06	-59.8	-74.4	3.8	1.49e+00	0	33	104	0	84	20820
2026-01-01 00:33:47.05	23.98	3.13	-59.7	-74.3	3.8	1.49e+00	0	33	104	0	84	20554
2026-01-01 00:33:48.06	23.99	3.19	-59.7	-74.3	3.8	1.49e+00	0	33	104	0	84	20593
2026-01-01 00:33:49.06	24.00	3.26	-59.7	-74.4	3.8	1.49e+00	0	33	104	0	84	20823
2026-01-01 00:33:50.06	24.01	3.33	-59.7	-74.3	3.8	1.49e+00	0	33	104	0	84	20569
2026-01-01 00:33:51.07	24.02	3.39	-59.7	-74.2	3.8	1.49e+00	0	33	104	0	84	20371
2026-01-01 00:33:52.07	24.03	3.46	-59.7	-73.8	3.8	1.49e+00	0	34	104	0	84	19572
2026-01-01 00:33:53.07	24.04	3.53	-59.7	-72.8	4.1	1.48e+00	0	33	104	0	84	17380
2026-01-01 00:33:54.06	24.05	3.59	-59.6	-71.7	4.4	1.39e+00	26	34	0	0	84	15310
2026-01-01 00:33:55.05	24.06	3.66	-59.5	-70.7	4.7	9.87e-01	0	34	0	1048576	84	13721
2026-01-01 00:33:56.05	24.07	3.73	-59.4	-69.7	5.2	6.39e-01	0	33	0	3145728	84	12211
2026-01-01 00:33:57.04	24.08	3.80	-59.2	-68.5	6.0	4.27e-01	0	33	0	5242880	84	10604
2026-01-01 00:33:58.04	24.09	3.86	-59.0	-67.1	7.0	2.46e-01	0	34	0	7340032	84	9046
2026-01-01 00:33:59.04	24.10	3.93	-58.8	-66.2	7.8	7.25e-02	0	34	0	8388608	84	8176
2026-01-01 00:34:00.03	24.11	4.00	-58.4	-65.1	8.7	2.94e-02	0	34	0	10485760	83	7618
2026-01-01 00:34:01.03	24.12	4.07	-58.2	-64.4	9.4	1.40e-02	0	34	0	12582912	83	6997
2026-01-01 00:34:02.03	24.13	4.14	-58.1	-64.1	9.8	7.08e-03	0	33	0	14680064	82	7125
2026-01-01 00:34:03.03	24.14	4.21	-57.8	-63.4	10.3	4.43e-03	0	34	0	15728640	82	6612
2026-01-01 00:34:04.02	24.15	4.27	-57.8	-63.1	10.6	1.86e-03	0	34	0	17825792	82	6418
2026-01-01 00:34:05.02	24.16	4.34	-57.6	-62.7	10.9	9.72e-04	0	34	0	19922944	81	6458
2026-01-01 00:34:06.02	24.17	4.41	-57.5	-62.6	11.1	5.72e-04	0	34	0	22020096	81	6362
2026-01-01 00:34:07.01	24.18	4.48	-57.6	-62.8	10.9	5.51e-04	0	34	0	24117248	81	6499
2026-01-01 00:34:08.00	24.19	4.55	-57.7	-63.0	10.7	6.70e-04	0	34	0	25165824	81	6688
2026-01-01 00:34:09.00	24.20	4.62	-57.7	-63.0	10.7	8.19e-04	0	34	0	27262976	81	6653
2026-01-01 00:34:09.99	24.21	4.69	-57.8	-63.4	10.4	1.64e-03	0	34	0	29360128	81	6979
2026-01-01 00:34:10.99	24.22	4.76	-58.0	-63.8	10.0	3.05e-03	0	34	0	31457280	81	7292
2026-01-01 00:34:11.98	24.23	4.83	-58.2	-64.4	9.4	4.82e-03	0	34	0	32505856	81	7852
2026-01-01 00:34:12.97	24.24	4.90	-58.3	-64.7	9.1	1.09e-02	0	34	0	34603008	81	8143
2026-01-01 00:34:13.96	24.25	4.97	-58.4	-65.2	8.7	1.87e-02	0	34	0	36700160	81	8574
2026-01-01 00:34:14.96	24.26	5.04	-58.6	-65.8	8.1	3.26e-02	0	34	0	38797312	82	8741
2026-01-01 00:34:15.95	24.27	5.11	-56.9	-61.1	12.5	1.69e-02	0	34	0	40894464	80	5657
2026-01-01 00:34:16.95	24.28	5.18	-57.5	-62.2	11.6	9.00e-05	0	34	0	41943040	80	6477
2026-01-01 00:34:17.95	24.29	5.25	-59.3	-71.3	4.4	1.15e-01	27	34	0	44040192	83	15420
2026-01-01 00:34:18.95	24.30	5.33	-56.3	-59.9	13.4	2.66e-01	0	34	0	46137344	79	5266
2026-01-01 00:34:19.95	24.31	5.40	-59.8	-71.2	4.7	2.41e-01	0	34	0	48234496	84	14412
2026-01-01 00:34:20.95	24.32	5.47	-56.2	-59.7	13.6	1.89e-03	0	34	0	49283072	78	5414
2026-01-01 00:34:21.95	24.33	5.54	-56.3	-59.8	13.5	0.00e+00	0	34	0	51380224	78	5497
2026-01-01 00:34:22.95	24.34	5.61	-56.0	-59.4	13.8	0.00e+00	0	34	0	53477376	78	5250
2026-01-01 00:34:23.94	24.35	5.69	-56.1	-59.6	13.8	0.00e+00	0	34	0	55574528	78	5346
2026-01-01 00:34:24.94	24.36	5.76	-55.8	-59.1	14.1	0.00e+00	0	34	0	56623104	78	5082
2026-01-01 00:34:25.95	24.37	5.83	-55.9	-59.2	14.0	0.00e+00	0	34	0	58720256	78	5137
2026-01-01 00:34:26.94	24.38	5.91	-55.9	-59.2	14.0	0.00e+00	0	34	0	60817408	78	5116
2026-01-01 00:34:27.94	24.39	5.98	-55.9	-59.2	14.0	0.00e+00	0	34	0	62914560	78	5159
2026-01-01 00:34:28.94	24.40	6.05	-55.8	-59.0	14.2	0.00e+00	0	34	0	65011712	78	4995
2026-01-01 00:34:29.94	24.41	6.13	-55.7	-58.9	14.2	0.00e+00	0	34	0	66060288	78	4972
2026-01-01 00:34:30.93	24.43	6.20	-55.8	-59.1	14.1	0.00e+00	0	34	0	68157440	78	5053
2026-01-01 00:34:31.92	24.44	6.27	-55.9	-59.2	14.1	0.00e+00	0	34	0	70254592	78	5118
2026-01-01 00:34:32.91	24.45	6.35	-55.8	-58.9	14.3	0.00e+00	0	34	0	72351744	78	4980
2026-01-01 00:34:33.91	24.46	6.42	-55.7	-58.9	14.3	0.00e+00	0	34	0	74448896	78	4950
2026-01-01 00:34:34.91	24.47	6.50	-55.7	-58.9	14.3	0.00e+00	0	34	0	75497472	78	4951
2026-01-01 00:34:35.91	24.48	6.57	-55.7	-58.8	14.4	0.00e+00	0	34	0	77594624	77	5162
2026-01-01 00:34:36.90	24.49	6.65	-55.7	-58.8	14.4	0.00e+00	0	34	0	79691776	77	5206
2026-01-01 00:34:37.89	24.50	6.72	-55.7	-58.9	14.4	0.00e+00	0	34	0	81788928	77	5230
2026-01-01 00:34:38.89	24.51	6.80	-55.6	-58.6	14.5	0.00e+00	0	34	0	82837504	77	5089
2026-01-01 00:34:39.89	24.52	6.88	-55.6	-58.7	14.5	0.00e+00	0	34	0	84934656	77	5149
2026-01-01 00:34:40.89	24.53	6.95	-55.7	-58.8	14.5	0.00e+00	0	34	0	87031808	77	5177
2026-01-01 00:34:41.88	24.54	7.03	-55.7	-58.7	14.5	0.00e+00	0	34	0	89128960	77	5156
2026-01-01 00:34:42.89	24.55	7.11	-55.6	-58.7	14.5	0.00e+00	0	34	0	91226112	77	5106
2026-01-01 00:34:43.88	24.57	7.18	-55.5	-58.5	14.6	0.00e+00	0	34	0	92274688	77	5033
2026-01-01 00:34:44.88	24.58	7.26	-55.6	-58.6	14.5	0.00e+00	0	34	0	94371840	77	5091
2026-01-01 00:34:45.89	24.59	7.34	-55.4	-58.4	14.7	0.00e+00	0	34	0	96468992	77	4928
2026-01-01 00:34:46.89	24.60	7.42	-55.3	-58.2	14.8	0.00e+00	0	34	0	98566144	77	4867
2026-01-01 00:34:47.89	24.61	7.49	-55.6	-58.6	14.5	0.00e+00	0	34	0	100663296	77	5099
2026-01-01 00:34:48.89	24.62	7.57	-55.5	-58.5	14.6	0.00e+00	0	34	0	101711872	77	4990
2026-01-01 00:34:49.88	24.63	7.65	-55.5	-58.4	14.7	0.00e+00	0	34	0	103809024	77	4935
2026-01-01 00:34:50.88	24.64	7.73	-55.5	-58.4	14.7	0.00e+00	0	34	0	105906176	77	4952
2026-01-01 00:34:51.88	24.66	7.81	-55.5	-58.3	14.7	0.00e+00	0	34	0	108003328	77	4914
2026-01-01 00:34:52.88	24.67	7.89	-55.5	-58.4	14.7	0.00e+00	0	34	0	109051904	77	4938
2026-01-01 00:34:53.88	24.68	7.97	-55.4	-58.3	14.7	0.00e+00	0	34	0	111149056	77	4896
2026-01-01 00:34:54.88	24.69	8.05	-55.3	-58.2	14.8	0.00e+00	0	34	0	113246208	77	4831
2026-01-01 00:34:55.88	24.70	8.13	-55.4	-58.3	14.7	0.00e+00	0	34	0	115343360	77	4915
2026-01-01 00:34:56.89	24.71	8.21	-55.4	-58.2	14.9	0.00e+00	0	34	0	117440512	77	4834
2026-01-01 00:34:57.89	24.72	8.29	-55.4	-58.2	14.8	0.00e+00	0	34	0	118489088	77	4859
2026-01-01 00:34:58.89	24.74	8.37	-55.2	-57.9	15.0	0.00e+00	0	34	0	120586240	77	4705
2026-01-01 00:34:59.89	24.75	8.45	-55.0	-57.6	15.2	0.00e+00	0	34	0	122683392	76	4794
2026-01-01 00:35:00.88	24.76	8.53	-55.1	-57.8	15.1	0.00e+00	0	34	0	124780544	76	4878
2026-01-01 00:35:01.88	24.77	8.61	-55.1	-57.7	15.1	0.00e+00	0	34	0	126877696	76	4869
2026-01-01 00:35:02.88	24.78	8.69	-55.0	-57.7	15.2	0.00e+00	0	34	0	127926272	76	4826
2026-01-01 00:35:03.87	24.79	8.77	-55.0	-57.7	15.2	0.00e+00	0	34	0	130023424	76	4857
2026-01-01 00:35:04.87	24.81	8.86	-54.9	-57.5	15.3	0.00e+00	0	34	0	132120576	76	4732
2026-01-01 00:35:05.87	24.82	8.94	-54.9	-57.4	15.3	0.00e+00	0	34	0	134217728	76	4691
2026-01-01 00:35:06.86	24.83	9.02	-54.9	-57.4	15.3	0.00e+00	0	34	0	135266304	76	4700
2026-01-01 00:35:07.86	24.84	9.10	-54.8	-57.4	15.4	0.00e+00	0	34	0	137363456	76	4652
2026-01-01 00:35:08.85	24.85	9.19	-54.8	-57.4	15.3	0.00e+00	0	34	0	139460608	76	4680
2026-01-01 00:35:09.85	24.87	9.27	-54.7	-57.3	15.4	0.00e+00	0	34	0	141557760	76	4619
2026-01-01 00:35:10.84	24.88	9.35	-54.8	-57.4	15.4	0.00e+00	0	34	0	143654912	76	4661
2026-01-01 00:35:11.83	24.89	9.44	-54.8	-57.4	15.4	0.00e+00	0	34	0	144703488	76	4662
2026-01-01 00:35:12.82	24.90	9.52	-54.5	-57.0	15.6	0.00e+00	0	34	0	146800640	75	4711
2026-01-01 00:35:13.81	24.91	9.61	-54.6	-57.1	15.5	0.00e+00	0	34	0	148897792	75	4768
2026-01-01 00:35:14.81	24.93	9.69	-54.6	-57.1	15.5	0.00e+00	0	34	0	150994944	75	4778
2026-01-01 00:35:15.80	24.94	9.78	-54.5	-57.0	15.6	0.00e+00	0	34	0	152043520	75	4708
2026-01-01 00:35:16.80	24.95	9.86	-54.6	-57.1	15.5	0.00e+00	0	35	0	154140672	75	4769
2026-01-01 00:35:17.79	24.96	9.95	-54.5	-56.9	15.6	0.00e+00	0	34	0	156237824	75	4679
2026-01-01 00:35:18.80	24.98	10.03	-54.4	-56.8	15.7	0.00e+00	0	34	0	158334976	75	4623
2026-01-01 00:35:19.80	24.99	10.12	-54.3	-56.6	15.8	0.00e+00	0	34	0	160432128	75	4541
2026-01-01 00:35:20.79	25.00	10.21	-54.5	-56.9	15.6	0.00e+00	0	34	0	161480704	75	4685
2026-01-01 00:35:21.79	25.01	10.29	-54.4	-56.8	15.7	0.00e+00	0	34	0	163577856	75	4622
2026-01-01 00:35:22.79	25.03	10.38	-54.3	-56.7	15.7	0.00e+00	0	34	0	165675008	75	4581
2026-01-01 00:35:23.79	25.04	10.47	-54.3	-56.7	15.7	0.00e+00	0	34	0	167772160	75	4558
2026-01-01 00:35:24.79	25.05	10.56	-54.3	-56.6	15.8	0.00e+00	0	34	0	168820736	75	4530
2026-01-01 00:35:25.78	25.06	10.64	-54.2	-56.5	15.8	0.00e+00	0	34	0	170917888	74	4759
2026-01-01 00:35:26.78	25.08	10.73	-54.3	-56.7	15.7	0.00e+00	0	34	0	173015040	74	4837
2026-01-01 00:35:27.78	25.09	10.82	-54.2	-56.5	15.8	0.00e+00	0	34	0	175112192	74	4753
2026-01-01 00:35:28.77	25.10	10.91	-54.2	-56.5	15.9	0.00e+00	0	34	0	177209344	74	4741
2026-01-01 00:35:29.77	25.12	11.00	-54.2	-56.6	15.9	0.00e+00	0	34	0	178257920	74	4760
2026-01-01 00:35:30.77	25.13	11.09	-54.1	-56.3	15.9	0.00e+00	0	34	0	180355072	74	4650
2026-01-01 00:35:31.77	25.14	11.18	-54.1	-56.4	15.9	0.00e+00	0	34	0	182452224	74	4705
2026-01-01 00:35:32.77	25.16	11.27	-54.1	-56.4	15.9	0.00e+00	0	34	0	184549376	74	4686
2026-01-01 00:35:33.77	25.17	11.36	-54.0	-56.2	16.0	0.00e+00	0	34	0	186646528	74	4587
2026-01-01 00:35:34.76	25.18	11.45	-54.0	-56.3	16.0	0.00e+00	0	35	0	187695104	74	4620
2026-01-01 00:35:35.77	25.20	11.55	-54.0	-56.3	16.0	0.00e+00	0	34	0	189792256	74	4625
2026-01-01 00:35:36.77	25.21	11.64	-54.0	-56.2	16.1	0.00e+00	0	34	0	191889408	74	4578
2026-01-01 00:35:37.76	25.22	11.73	-53.9	-56.1	16.1	0.00e+00	0	34	0	193986560	74	4514
2026-01-01 00:35:38.76	25.24	11.82	-53.9	-56.0	16.2	0.00e+00	0	34	0	196083712	74	4492
2026-01-01 00:35:39.75	25.25	11.92	-53.9	-56.1	16.1	0.00e+00	0	34	0	197132288	74	4538
2026-01-01 00:35:40.75	25.26	12.01	-53.9	-56.1	16.1	0.00e+00	0	34	0	199229440	74	4503
2026-01-01 00:35:41.75	25.28	12.10	-53.8	-56.0	16.2	0.00e+00	0	35	0	201326592	74	4478
2026-01-01 00:35:42.75	25.29	12.20	-53.8	-56.0	16.2	0.00e+00	0	34	0	203423744	74	4455
2026-01-01 00:35:43.75	25.30	12.29	-53.8	-55.9	16.2	0.00e+00	0	34	0	204472320	74	4435
2026-01-01 00:35:44.74	25.32	12.39	-53.7	-55.8	16.3	0.00e+00	0	35	0	206569472	73	4620
2026-01-01 00:35:45.74	25.33	12.48	-53.6	-55.8	16.3	0.00e+00	0	34	0	208666624	73	4606
2026-01-01 00:35:46.74	25.35	12.58	-53.6	-55.7	16.3	0.00e+00	0	34	0	210763776	73	4596
2026-01-01 00:35:47.73	25.36	12.67	-53.7	-55.8	16.3	0.00e+00	0	34	0	212860928	73	4649
2026-01-01 00:35:48.73	25.37	12.77	-53.8	-56.0	16.3	0.00e+00	0	34	0	213909504	73	4711
2026-01-01 00:35:49.73	25.39	12.87	-53.6	-55.8	16.3	0.00e+00	0	34	0	216006656	73	4602
2026-01-01 00:35:50.72	25.40	12.96	-53.6	-55.7	16.4	0.00e+00	0	34	0	218103808	73	4557
2026-01-01 00:35:51.72	25.42	13.06	-53.6	-55.6	16.4	0.00e+00	0	34	0	220200960	73	4531
2026-01-01 00:35:52.72	25.43	13.16	-53.6	-55.6	16.4	0.00e+00	0	34	0	221249536	73	4523
2026-01-01 00:35:53.72	25.45	13.26	-53.5	-55.6	16.4	0.00e+00	0	35	0	223346688	73	4525
2026-01-01 00:35:54.72	25.46	13.36	-53.6	-55.6	16.4	0.00e+00	0	34	0	225443840	73	4522
2026-01-01 00:35:55.72	25.48	13.45	-53.5	-55.6	16.5	0.00e+00	0	34	0	227540992	73	4519
2026-01-01 00:35:56.72	25.49	13.55	-53.4	-55.4	16.5	0.00e+00	0	35	0	229638144	73	4419
2026-01-01 00:35:57.71	25.50	13.65	-53.3	-55.3	16.6	0.00e+00	0	34	0	230686720	73	4343
2026-01-01 00:35:58.71	25.52	13.75	-53.3	-55.3	16.6	0.00e+00	0	35	0	232783872	73	4351
2026-01-01 00:35:59.72	25.53	13.86	-53.3	-55.3	16.6	0.00e+00	0	34	0	234881024	73	4377
2026-01-01 00:36:00.71	25.55	13.96	-53.2	-55.2	16.6	0.00e+00	0	34	0	236978176	72	4582
2026-01-01 00:36:01.71	25.56	14.06	-53.3	-55.3	16.6	0.00e+00	0	35	0	239075328	72	4648
2026-01-01 00:36:02.71	25.58	14.16	-53.2	-55.2	16.6	0.00e+00	0	35	0	240123904	72	4580
2026-01-01 00:36:03.71	25.59	14.26	-53.2	-55.2	16.6	0.00e+00	0	35	0	242221056	72	4581
2026-01-01 00:36:04.71	25.61	14.37	-53.5	-55.5	16.5	0.00e+00	0	35	0	244318208	72	4731
2026-01-01 00:36:05.71	25.62	14.47	-53.3	-55.3	16.6	0.00e+00	0	34	0	246415360	72	4612
2026-01-01 00:36:06.71	25.64	14.57	-53.2	-55.2	16.6	0.00e+00	0	34	0	248512512	72	4560
2026-01-01 00:36:07.70	25.66	14.68	-53.2	-55.2	16.6	0.00e+00	0	35	0	249561088	72	4588
2026-01-01 00:36:08.70	25.67	14.78	-53.3	-55.3	16.6	0.00e+00	0	35	0	251658240	72	4614
2026-01-01 00:36:09.70	25.69	14.89	-53.2	-55.2	16.6	0.00e+00	0	35	0	253755392	72	4578
2026-01-01 00:36:10.69	25.70	14.99	-53.1	-55.1	16.7	0.00e+00	0	34	0	255852544	72	4505
2026-01-01 00:36:11.69	25.72	15.10	-53.3	-55.3	16.6	0.00e+00	0	35	0	256901120	72	4612
2026-01-01 00:36:12.69	25.73	15.20	-53.3	-55.3	16.6	0.00e+00	0	35	0	258998272	72	4641
2026-01-01 00:36:13.69	25.75	15.31	-53.2	-55.2	16.6	0.00e+00	0	34	0	261095424	72	4561
2026-01-01 00:36:14.68	25.77	15.42	-53.2	-55.1	16.6	0.00e+00	0	35	0	263192576	72	4526
2026-01-01 00:36:15.68	25.78	15.53	-53.1	-55.1	16.7	0.00e+00	0	34	0	265289728	72	4502
2026-01-01 00:36:16.68	25.80	15.63	-53.2	-55.2	16.6	0.00e+00	0	35	0	266338304	72	4575
2026-01-01 00:36:17.68	25.81	15.74	-53.2	-55.1	16.7	0.00e+00	0	35	0	268435456	72	4535
2026-01-01 00:36:18.67	25.83	15.85	-53.1	-55.0	16.7	0.00e+00	0	35	0	270532608	72	4489
2026-01-01 00:36:19.67	25.85	15.96	-53.2	-55.1	16.7	0.00e+00	0	35	0	272629760	72	4510
2026-01-01 00:36:20.67	25.86	16.07	-52.9	-54.8	16.8	0.00e+00	0	34	0	273678336	72	4376
2026-01-01 00:36:21.66	25.88	16.18	-53.1	-55.0	16.8	0.00e+00	0	35	0	275775488	72	4462
2026-01-01 00:36:22.65	25.90	16.29	-53.2	-55.1	16.7	0.00e+00	0	34	0	277872640	72	4499
2026-01-01 00:36:23.64	25.91	16.40	-53.1	-55.0	16.8	0.00e+00	0	35	0	279969792	72	4472
2026-01-01 00:36:24.65	25.93	16.52	-53.2	-55.1	16.7	0.00e+00	0	35	0	282066944	72	4539
2026-01-01 00:36:25.64	25.95	16.63	-53.2	-55.1	16.7	0.00e+00	0	35	0	283115520	72	4503
2026-01-01 00:36:26.64	25.96	16.74	-53.1	-55.0	16.7	0.00e+00	0	35	0	285212672	72	4451
2026-01-01 00:36:27.64	25.98	16.86	-53.2	-55.1	16.7	0.00e+00	0	35	0	287309824	72	4508
2026-01-01 00:36:28.63	26.00	16.97	-53.2	-55.1	16.7	0.00e+00	0	34	0	289406976	72	4524
2026-01-01 00:36:29.64	26.02	17.09	-53.2	-55.1	16.7	0.00e+00	0	35	0	290455552	72	4539
2026-01-01 00:36:30.64	26.03	17.20	-53.2	-55.0	16.8	0.00e+00	0	35	0	292552704	72	4492
2026-01-01 00:36:31.64	26.05	17.32	-53.4	-55.3	16.7	0.00e+00	0	35	0	294649856	72	4629
2026-01-01 00:36:32.63	26.07	17.43	-53.6	-55.5	16.6	0.00e+00	0	35	0	296747008	72	4748
2026-01-01 00:36:33.63	26.09	17.55	-53.6	-55.6	16.5	0.00e+00	0	35	0	298844160	72	4786
2026-01-01 00:36:34.64	26.11	17.67	-53.6	-55.6	16.5	0.00e+00	0	35	0	299892736	72	4809
2026-01-01 00:36:35.63	26.12	17.79	-53.5	-55.5	16.6	0.00e+00	0	34	0	301989888	72	4713
2026-01-01 00:36:36.63	26.14	17.91	-53.4	-55.4	16.6	0.00e+00	0	34	0	304087040	72	4698
2026-01-01 00:36:37.62	26.16	18.03	-53.5	-55.6	16.5	0.00e+00	0	35	0	306184192	72	4766
2026-01-01 00:36:38.62	26.18	18.15	-53.7	-55.7	16.4	0.00e+00	0	35	0	308281344	72	4850
2026-01-01 00:36:39.62	26.20	18.27	-53.7	-55.7	16.4	0.00e+00	0	35	0	309329920	72	4862
2026-01-01 00:36:40.62	26.21	18.39	-53.7	-55.8	16.4	0.00e+00	0	35	0	311427072	72	4889
2026-01-01 00:36:41.62	26.23	18.51	-53.7	-55.8	16.4	0.00e+00	0	34	0	313524224	72	4898
2026-01-01 00:36:42.62	26.25	18.63	-53.8	-55.9	16.3	0.00e+00	0	35	0	315621376	72	4956
2026-01-01 00:36:43.61	26.27	18.76	-53.7	-55.8	16.3	0.00e+00	0	34	0	316669952	73	4651
2026-01-01 00:36:44.60	26.29	18.88	-53.8	-56.0	16.3	0.00e+00	0	35	0	318767104	73	4724
2026-01-01 00:36:45.60	26.31	19.00	-53.8	-56.0	16.3	0.00e+00	0	35	0	320864256	73	4715
2026-01-01 00:36:46.61	26.33	19.13	-53.7	-55.9	16.3	0.00e+00	0	35	0	322961408	73	4685
2026-01-01 00:36:47.61	26.35	19.25	-53.8	-56.0	16.3	0.00e+00	0	35	0	325058560	73	4728
2026-01-01 00:36:48.61	26.37	19.38	-53.8	-56.0	16.3	0.00e+00	0	35	0	326107136	73	4747
2026-01-01 00:36:49.61	26.39	19.51	-53.9	-56.2	16.2	0.00e+00	0	35	0	328204288	73	4828
2026-01-01 00:36:50.61	26.41	19.64	-54.0	-56.3	16.1	0.00e+00	0	35	0	330301440	73	4912
2026-01-01 00:36:51.62	26.43	19.77	-54.0	-56.3	16.2	0.00e+00	0	35	0	332398592	73	4875
2026-01-01 00:36:52.61	26.45	19.89	-54.0	-56.2	16.1	0.00e+00	0	35	0	334495744	73	4868
2026-01-01 00:36:53.61	26.47	20.02	-54.1	-56.5	16.0	0.00e+00	0	35	0	335544320	73	5033
2026-01-01 00:36:54.62	26.49	20.15	-54.2	-56.6	16.0	0.00e+00	0	35	0	337641472	73	5071
2026-01-01 00:36:55.62	26.51	20.29	-54.2	-56.7	15.9	0.00e+00	0	35	0	339738624	73	5115
2026-01-01 00:36:56.62	26.53	20.42	-54.4	-56.9	15.8	0.00e+00	0	35	0	341835776	74	4974
2026-01-01 00:36:57.62	26.55	20.55	-54.4	-56.9	15.8	0.00e+00	0	35	0	343932928	74	4981
2026-01-01 00:36:58.63	26.57	20.68	-54.5	-57.1	15.8	0.00e+00	0	35	0	344981504	74	5064
2026-01-01 00:36:59.63	26.59	20.82	-54.6	-57.3	15.6	0.00e+00	0	35	0	347078656	74	5176
2026-01-01 00:37:00.62	26.61	20.95	-54.5	-57.1	15.7	0.00e+00	0	35	0	349175808	74	5051
2026-01-01 00:37:01.62	26.63	21.09	-54.5	-57.1	15.7	0.00e+00	0	35	0	351272960	74	5065
2026-01-01 00:37:02.62	26.66	21.22	-54.6	-57.2	15.7	0.00e+00	0	35	0	352321536	74	5121
2026-01-01 00:37:03.62	26.68	21.36	-54.8	-57.5	15.6	0.00e+00	0	35	0	354418688	74	5285
2026-01-01 00:37:04.63	26.70	21.50	-54.5	-57.0	15.8	0.00e+00	0	35	0	356515840	74	5037
2026-01-01 00:37:05.63	26.72	21.64	-54.6	-57.1	15.8	0.00e+00	0	35	0	358612992	74	5047
2026-01-01 00:37:06.63	26.74	21.78	-54.6	-57.1	15.8	0.00e+00	0	35	0	360710144	74	5046
2026-01-01 00:37:07.63	26.77	21.92	-54.6	-57.1	15.8	0.00e+00	0	35	0	361758720	74	5051
2026-01-01 00:37:08.63	26.79	22.06	-54.6	-57.1	15.8	0.00e+00	0	35	0	363855872	74	5058
2026-01-01 00:37:09.62	26.81	22.20	-54.8	-57.4	15.7	0.00e+00	0	35	0	365953024	74	5243
2026-01-01 00:37:10.61	26.83	22.34	-54.7	-57.3	15.7	0.00e+00	0	35	0	368050176	74	5161
2026-01-01 00:37:11.60	26.86	22.48	-54.8	-57.4	15.7	0.00e+00	0	34	0	370147328	75	4937
2026-01-01 00:37:12.60	26.88	22.62	-54.7	-57.2	15.8	0.00e+00	0	35	0	371195904	75	4825
2026-01-01 00:37:13.60	26.90	22.77	-54.8	-57.3	15.7	0.00e+00	0	35	0	373293056	75	4891
2026-01-01 00:37:14.60	26.93	22.91	-55.0	-57.6	15.5	0.00e+00	0	35	0	375390208	75	5051
2026-01-01 00:37:15.60	26.95	23.06	-55.0	-57.6	15.5	0.00e+00	0	35	0	377487360	75	5048
2026-01-01 00:37:16.60	26.97	23.21	-54.9	-57.4	15.7	0.00e+00	0	35	0	379584512	75	4958
2026-01-01 00:37:17.61	27.00	23.35	-55.0	-57.5	15.6	0.00e+00	0	35	0	380633088	75	5004
2026-01-01 00:37:18.60	27.02	23.50	-54.7	-57.1	15.8	0.00e+00	0	35	0	382730240	75	4793
2026-01-01 00:37:19.59	27.04	23.65	-54.9	-57.5	15.6	0.00e+00	0	35	0	384827392	75	4992
2026-01-01 00:37:20.60	27.07	23.80	-54.6	-57.0	15.9	0.00e+00	0	35	0	386924544	75	4747
2026-01-01 00:37:21.60	27.09	23.95	-54.5	-56.9	15.9	0.00e+00	0	35	0	387973120	75	4689
2026-01-01 00:37:22.59	27.12	24.10	-54.5	-56.9	15.9	0.00e+00	0	35	0	390070272	75	4661
2026-01-01 00:37:23.59	27.14	24.26	-54.4	-56.7	16.0	0.00e+00	0	35	0	392167424	75	4565
2026-01-01 00:37:24.60	27.17	24.41	-54.5	-56.8	16.0	0.00e+00	0	35	0	394264576	75	4620
2026-01-01 00:37:25.60	27.20	24.57	-54.7	-57.2	15.8	0.00e+00	0	35	0	396361728	75	4819
2026-01-01 00:37:26.60	27.22	24.72	-54.6	-56.9	16.0	0.00e+00	0	35	0	397410304	75	4700
2026-01-01 00:37:27.60	27.25	24.88	-54.6	-56.9	16.0	0.00e+00	0	35	0	399507456	75	4696
2026-01-01 00:37:28.59	27.27	25.04	-54.6	-56.9	16.0	0.00e+00	0	35	0	401604608	75	4680
2026-01-01 00:37:29.59	27.30	25.19	-54.4	-56.8	16.0	0.00e+00	0	35	0	403701760	75	4600
2026-01-01 00:37:30.59	27.33	25.35	-54.5	-56.8	16.0	0.00e+00	0	35	0	404750336	75	4633
2026-01-01 00:37:31.58	27.35	25.51	-54.6	-56.9	16.0	0.00e+00	0	35	0	406847488	75	4703
2026-01-01 00:37:32.58	27.38	25.67	-54.2	-56.5	16.2	0.00e+00	0	34	0	408944640	75	4451
2026-01-01 00:37:33.58	27.41	25.84	-54.3	-56.5	16.2	0.00e+00	0	35	0	411041792	74	4718
2026-01-01 00:37:34.58	27.44	26.00	-54.2	-56.5	16.2	0.00e+00	0	35	0	413138944	74	4714
2026-01-01 00:37:35.58	27.46	26.17	-54.0	-56.1	16.4	0.00e+00	0	35	0	414187520	74	4527
2026-01-01 00:37:36.58	27.49	26.33	-54.0	-56.2	16.4	0.00e+00	0	35	0	416284672	74	4563
2026-01-01 00:37:37.58	27.52	26.50	-54.2	-56.4	16.3	0.00e+00	0	34	0	418381824	74	4689
2026-01-01 00:37:38.58	27.55	26.66	-53.9	-56.0	16.5	0.00e+00	0	35	0	420478976	74	4488
2026-01-01 00:37:39.58	27.58	26.83	-54.4	-56.6	16.1	0.00e+00	0	35	0	422576128	74	4814
2026-01-01 00:37:40.58	27.61	27.00	-54.5	-56.8	16.1	0.00e+00	0	35	0	423624704	74	4892
2026-01-01 00:37:41.57	27.64	27.17	-54.5	-56.7	16.1	0.00e+00	0	35	0	425721856	74	4848
2026-01-01 00:37:42.57	27.66	27.34	-54.6	-56.9	16.0	0.00e+00	0	35	0	427819008	74	4953
2026-01-01 00:37:43.57	27.69	27.52	-54.5	-56.8	16.1	0.00e+00	0	35	0	429916160	74	4911
2026-01-01 00:37:44.57	27.72	27.69	-54.8	-57.2	15.9	0.00e+00	0	35	0	430964736	74	5129
2026-01-01 00:37:45.57	27.76	27.87	-54.7	-57.0	16.0	0.00e+00	0	35	0	433061888	74	5009
2026-01-01 00:37:46.56	27.79	28.04	-54.3	-56.5	16.3	0.00e+00	0	35	0	435159040	74	4719
2026-01-01 00:37:47.56	27.82	28.22	-54.5	-56.8	16.1	0.00e+00	0	35	0	437256192	74	4874
2026-01-01 00:37:48.56	27.85	28.40	-54.4	-56.7	16.1	0.00e+00	0	35	0	439353344	74	4842
2026-01-01 00:37:49.56	27.88	28.57	-54.3	-56.5	16.2	0.00e+00	0	35	0	440401920	74	4748
2026-01-01 00:37:50.56	27.91	28.76	-54.4	-56.6	16.2	0.00e+00	0	35	0	442499072	74	4795
2026-01-01 00:37:51.57	27.94	28.94	-54.4	-56.7	16.1	0.00e+00	0	35	0	444596224	74	4865
2026-01-01 00:37:52.57	27.98	29.12	-54.3	-56.5	16.3	0.00e+00	0	35	0	446693376	74	4737
2026-01-01 00:37:53.58	28.01	29.31	-54.4	-56.6	16.2	0.00e+00	0	35	0	448790528	74	4808
2026-01-01 00:37:54.57	28.04	29.49	-54.8	-57.2	15.9	0.00e+00	0	35	0	449839104	74	5155
2026-01-01 00:37:55.57	28.08	29.68	-54.7	-57.0	16.1	0.00e+00	0	35	0	451936256	74	4986
2026-01-01 00:37:56.57	28.11	29.87	-54.9	-57.2	15.9	0.00e+00	0	35	0	454033408	75	4864
2026-01-01 00:37:57.57	28.15	30.06	-54.9	-57.2	16.0	0.00e+00	0	35	0	456130560	75	4853
2026-01-01 00:37:58.56	28.18	30.24	-54.8	-57.0	16.0	0.00e+00	0	35	0	458227712	75	4737
2026-01-01 00:37:59.57	28.22	30.44	-55.1	-57.6	15.7	0.00e+00	0	35	0	459276288	75	5070
2026-01-01 00:38:00.56	28.25	30.63	-55.0	-57.3	15.9	0.00e+00	0	35	0	461373440	75	4926
2026-01-01 00:38:01.57	28.29	30.83	-54.9	-57.3	15.9	0.00e+00	0	35	0	463470592	75	4894
2026-01-01 00:38:02.57	28.32	31.02	-55.7	-58.4	15.2	0.00e+00	0	35	0	465567744	76	5262
2026-01-01 00:38:03.57	28.36	31.22	-55.3	-57.9	15.6	0.00e+00	0	35	0	466616320	76	4939
2026-01-01 00:38:04.57	28.40	31.42	-55.4	-58.0	15.4	0.00e+00	0	35	0	468713472	76	5020
2026-01-01 00:38:05.57	28.43	31.62	-56.2	-59.5	14.6	0.00e+00	0	35	0	470810624	77	5605
2026-01-01 00:38:06.56	28.47	31.81	-56.3	-59.4	14.6	0.00e+00	0	35	0	472907776	77	5584
2026-01-01 00:38:07.57	28.51	32.02	-56.5	-60.0	14.2	0.00e+00	0	35	0	475004928	78	5621
2026-01-01 00:38:08.57	28.55	32.22	-56.6	-60.2	14.0	0.00e+00	0	35	0	476053504	78	5767
2026-01-01 00:38:09.57	28.59	32.43	-57.0	-61.0	13.5	0.00e+00	0	35	0	478150656	79	5929
2026-01-01 00:38:10.57	28.63	32.63	-56.8	-60.5	13.9	0.00e+00	0	35	0	480247808	79	5602
2026-01-01 00:38:11.58	28.67	32.84	-56.8	-60.6	13.7	0.00e+00	0	35	0	482344960	79	5710
2026-01-01 00:38:12.58	28.71	33.05	-56.7	-60.5	13.8	0.00e+00	0	35	0	484442112	79	5607
2026-01-01 00:38:13.58	28.75	33.26	-56.8	-60.6	13.6	0.00e+00	0	35	0	485490688	79	5721
2026-01-01 00:38:14.58	28.79	33.48	-56.6	-60.4	13.8	0.00e+00	0	35	0	487587840	79	5563
2026-01-01 00:38:15.58	28.83	33.69	-56.6	-60.5	13.8	0.00e+00	0	35	0	489684992	79	5613
2026-01-01 00:38:16.57	28.87	33.90	-56.4	-59.9	14.1	0.00e+00	0	35	0	491782144	78	5591
2026-01-01 00:38:17.57	28.92	34.12	-56.2	-59.6	14.4	0.00e+00	0	35	0	492830720	78	5355
2026-01-01 00:38:18.56	28.96	34.34	-55.6	-58.5	15.1	0.00e+00	0	35	0	494927872	77	5014
2026-01-01 00:38:19.56	29.00	34.55	-55.5	-58.5	15.1	0.00e+00	0	35	0	497025024	77	5001
2026-01-01 00:38:20.56	29.05	34.78	-55.0	-57.7	15.6	0.00e+00	0	35	0	499122176	76	4820
2026-01-01 00:38:21.56	29.09	35.00	-54.7	-57.2	15.9	0.00e+00	0	35	0	501219328	75	4851
2026-01-01 00:38:22.56	29.14	35.22	-54.7	-57.2	15.9	0.00e+00	0	35	0	502267904	75	4860
2026-01-01 00:38:23.57	29.18	35.45	-54.4	-56.7	16.1	0.00e+00	0	35	0	504365056	75	4579
2026-01-01 00:38:24.57	29.23	35.68	-54.2	-56.6	16.1	0.00e+00	0	35	0	506462208	74	4761
2026-01-01 00:38:25.57	29.28	35.91	-53.7	-55.8	16.5	0.00e+00	0	35	0	508559360	73	4640
2026-01-01 00:38:26.57	29.33	36.14	-53.6	-55.7	16.5	0.00e+00	0	35	0	510656512	73	4575
2026-01-01 00:38:27.57	29.37	36.37	-53.4	-55.5	16.6	0.00e+00	0	35	0	511705088	73	4470
2026-01-01 00:38:28.56	29.42	36.60	-53.4	-55.6	16.6	0.00e+00	0	35	0	513802240	73	4508
2026-01-01 00:38:29.57	29.47	36.84	-53.2	-55.3	16.7	0.00e+00	0	35	0	515899392	72	4608
2026-01-01 00:38:30.57	29.52	37.08	-53.4	-55.6	16.5	0.00e+00	0	35	0	517996544	72	4765
2026-01-01 00:38:31.57	29.58	37.32	-53.1	-55.2	16.7	0.00e+00	0	35	0	520093696	72	4557
2026-01-01 00:38:32.57	29.63	37.56	-53.3	-55.6	16.5	0.00e+00	0	35	0	521142272	72	4787
2026-01-01 00:38:33.57	29.68	37.80	-53.3	-55.6	16.5	0.00e+00	0	35	0	523239424	72	4807
2026-01-01 00:38:34.56	29.73	38.04	-53.5	-56.0	16.3	0.00e+00	0	35	0	525336576	72	5037
2026-01-01 00:38:35.57	29.79	38.29	-53.4	-56.2	16.3	0.00e+00	0	35	0	527433728	72	5107
2026-01-01 00:38:36.57	29.84	38.54	-53.0	-55.8	16.6	0.00e+00	0	35	0	528482304	72	4878
2026-01-01 00:38:37.57	29.90	38.79	-52.9	-55.7	16.6	0.00e+00	0	35	0	530579456	72	4840
2026-01-01 00:38:38.56	29.95	39.04	-53.1	-55.7	16.7	0.00e+00	0	35	0	532676608	72	4822
2026-01-01 00:38:39.56	30.01	39.29	-53.2	-55.5	16.8	0.00e+00	0	35	0	534773760	72	4723
2026-01-01 00:38:40.56	30.07	39.55	-53.4	-55.5	16.8	0.00e+00	0	35	0	536870912	72	4744
2026-01-01 00:38:41.56	30.13	39.81	-53.6	-55.7	16.7	0.00e+00	0	35	0	537919488	72	4837
2026-01-01 00:38:42.56	30.19	40.07	-53.7	-55.8	16.6	0.00e+00	0	35	0	540016640	73	4637
2026-01-01 00:38:43.55	30.25	40.32	-53.5	-55.6	16.7	0.00e+00	0	35	0	542113792	73	4529
2026-01-01 00:38:44.55	30.31	40.59	-53.7	-55.8	16.6	0.00e+00	0	35	0	544210944	73	4647
2026-01-01 00:38:45.56	30.37	40.85	-53.6	-55.8	16.5	0.00e+00	0	35	0	546308096	73	4605
2026-01-01 00:38:46.56	30.44	41.12	-54.0	-56.3	16.2	0.00e+00	0	35	0	547356672	73	4898
2026-01-01 00:38:47.55	30.50	41.39	-53.9	-56.4	16.2	0.00e+00	0	35	0	549453824	73	4937
2026-01-01 00:38:48.55	30.57	41.66	-54.0	-56.5	16.1	0.00e+00	0	35	0	551550976	73	4987
2026-01-01 00:38:49.55	30.63	41.93	-54.0	-56.4	16.2	0.00e+00	0	35	0	553648128	73	4949
2026-01-01 00:38:50.54	30.70	42.20	-53.8	-56.1	16.3	0.00e+00	0	35	0	554696704	73	4797
2026-01-01 00:38:51.54	30.77	42.48	-53.6	-55.9	16.5	0.00e+00	0	35	0	556793856	73	4655
2026-01-01 00:38:52.53	30.84	42.75	-53.3	-55.4	16.8	0.00e+00	0	35	0	558891008	73	4402
2026-01-01 00:38:53.54	30.91	43.04	-53.3	-55.4	16.8	0.00e+00	0	35	0	560988160	73	4395
2026-01-01 00:38:54.54	30.98	43.32	-53.2	-55.1	16.9	0.00e+00	0	35	0	563085312	72	4545
2026-01-01 00:38:55.53	31.05	43.60	-53.1	-55.1	16.9	0.00e+00	0	35	0	564133888	72	4513
2026-01-01 00:38:56.53	31.13	43.89	-53.3	-55.4	16.8	0.00e+00	0	35	0	566231040	72	4660
2026-01-01 00:38:57.52	31.20	44.18	-53.3	-55.4	16.8	0.00e+00	0	35	0	568328192	72	4655
2026-01-01 00:38:58.51	31.28	44.46	-53.7	-55.9	16.5	0.00e+00	0	35	0	570425344	72	4940
2026-01-01 00:38:59.51	31.36	44.76	-53.7	-56.0	16.5	0.00e+00	0	35	0	572522496	73	4711
2026-01-01 00:39:00.50	31.44	45.05	-54.4	-56.8	16.1	0.00e+00	0	35	0	573571072	73	5197
2026-01-01 00:39:01.50	31.52	45.35	-54.8	-57.4	15.8	0.00e+00	0	35	0	575668224	74	5244
2026-01-01 00:39:02.50	31.60	45.65	-55.3	-58.2	15.3	0.00e+00	0	35	0	577765376	75	5424
2026-01-01 00:39:03.51	31.69	45.95	-55.9	-59.1	14.8	0.00e+00	0	35	0	579862528	77	5398
2026-01-01 00:39:04.51	31.77	46.26	-56.1	-59.5	14.6	0.00e+00	0	35	0	580911104	77	5608
2026-01-01 00:39:05.50	31.86	46.56	-56.1	-59.6	14.4	0.00e+00	0	35	0	583008256	77	5666
2026-01-01 00:39:06.50	31.95	46.87	-56.3	-59.9	14.2	0.00e+00	0	35	0	585105408	78	5581
2026-01-01 00:39:07.49	32.04	47.17	-56.3	-60.0	14.2	0.00e+00	0	35	0	587202560	78	5607
2026-01-01 00:39:08.50	32.13	47.49	-56.2	-59.8	14.2	0.00e+00	0	35	0	589299712	78	5514
2026-01-01 00:39:09.50	32.23	47.81	-56.1	-59.9	14.1	0.00e+00	0	35	0	590348288	78	5530
2026-01-01 00:39:10.50	32.32	48.12	-56.0	-59.8	14.1	0.00e+00	0	35	0	592445440	78	5481
2026-01-01 00:39:11.50	32.42	48.44	-55.7	-59.3	14.5	0.00e+00	0	35	0	594542592	78	5171
2026-01-01 00:39:12.49	32.52	48.76	-55.4	-58.6	15.0	0.00e+00	0	35	0	596639744	76	5398
2026-01-01 00:39:13.48	32.62	49.08	-54.4	-57.0	16.0	0.00e+00	0	35	0	597688320	75	4744
2026-01-01 00:39:14.48	32.73	49.41	-53.8	-56.1	16.4	0.00e+00	0	35	0	599785472	73	4776
2026-01-01 00:39:15.47	32.83	49.73	-53.3	-55.4	16.8	0.00e+00	0	35	0	601882624	73	4403
2026-01-01 00:39:16.48	32.94	50.07	-53.0	-55.0	17.0	0.00e+00	0	35	0	603979776	72	4443
2026-01-01 00:39:17.48	33.05	50.40	-53.0	-55.0	17.0	0.00e+00	0	35	0	606076928	72	4469
2026-01-01 00:39:18.47	33.16	50.73	-52.9	-54.9	17.0	0.00e+00	0	35	0	607125504	72	4414
2026-01-01 00:39:19.47	33.28	51.07	-53.1	-55.2	16.9	0.00e+00	0	35	0	609222656	72	4550
2026-01-01 00:39:20.46	33.40	51.41	-53.1	-55.2	16.9	0.00e+00	0	35	0	611319808	72	4560
2026-01-01 00:39:21.46	33.52	51.75	-52.6	-54.6	17.0	0.00e+00	0	35	0	613416960	71	4544
2026-01-01 00:39:22.45	33.64	52.09	-52.4	-54.3	17.1	0.00e+00	0	35	0	614465536	71	4372
2026-01-01 00:39:23.44	33.77	52.44	-52.4	-54.3	17.2	0.00e+00	0	35	0	616562688	70	4611
2026-01-01 00:39:24.44	33.89	52.79	-52.3	-54.2	17.2	0.00e+00	0	35	0	618659840	70	4587
2026-01-01 00:39:25.43	34.03	53.14	-51.9	-53.7	17.5	0.00e+00	0	35	0	620756992	70	4300
2026-01-01 00:39:26.43	34.16	53.49	-52.0	-53.8	17.4	0.00e+00	0	35	0	622854144	70	4367
2026-01-01 00:39:27.43	34.30	53.85	-52.1	-53.9	17.4	0.00e+00	0	35	0	623902720	70	4415
2026-01-01 00:39:28.43	34.44	54.21	-52.5	-54.3	17.3	0.00e+00	0	35	0	625999872	70	4644
2026-01-01 00:39:29.43	34.59	54.57	-52.3	-54.1	17.3	0.00e+00	0	35	0	628097024	70	4533
2026-01-01 00:39:30.43	34.74	54.93	-51.9	-53.7	17.5	0.00e+00	0	35	0	630194176	70	4303
2026-01-01 00:39:31.43	34.89	55.30	-51.7	-53.3	17.6	0.00e+00	0	35	0	632291328	69	4376
2026-01-01 00:39:32.43	35.05	55.67	-51.2	-52.8	17.8	0.00e+00	0	35	0	633339904	68	4344
2026-01-01 00:39:33.42	35.21	56.04	-51.0	-52.5	18.0	0.00e+00	0	35	0	635437056	68	4205
2026-01-01 00:39:34.42	35.37	56.41	-51.4	-52.9	17.8	0.00e+00	0	35	0	637534208	68	4439
2026-01-01 00:39:35.42	35.54	56.78	-51.7	-53.4	17.6	0.00e+00	0	35	0	639631360	68	4660
2026-01-01 00:39:36.42	35.72	57.16	-52.1	-53.9	17.4	0.00e+00	0	35	0	640679936	69	4689
2026-01-01 00:39:37.42	35.90	57.54	-52.1	-53.9	17.4	0.00e+00	0	35	0	642777088	69	4654
2026-01-01 00:39:38.42	36.08	57.92	-51.9	-53.6	17.5	0.00e+00	0	35	0	644874240	69	4508
2026-01-01 00:39:39.41	36.27	58.30	-51.6	-53.2	17.7	0.00e+00	0	35	0	646971392	69	4306
2026-01-01 00:39:40.41	36.46	58.69	-51.4	-53.0	17.7	0.00e+00	0	35	0	649068544	69	4234
2026-01-01 00:39:41.41	36.66	59.08	-52.2	-54.0	17.3	0.00e+00	0	35	0	650117120	69	4742
2026-01-01 00:39:42.41	36.87	59.47	-52.4	-54.3	17.1	0.00e+00	0	35	0	652214272	69	4903
2026-01-01 00:39:43.40	37.08	59.86	-52.1	-54.0	17.2	0.00e+00	0	35	0	654311424	70	4475
2026-01-01 00:39:44.40	37.30	60.26	-52.3	-54.1	17.3	0.00e+00	0	35	0	656408576	70	4531
2026-01-01 00:39:45.39	37.52	60.65	-52.1	-53.9	17.4	0.00e+00	0	35	0	657457152	70	4415
2026-01-01 00:39:46.39	37.75	61.05	-51.8	-53.6	17.4	0.00e+00	0	35	0	659554304	70	4250
2026-01-01 00:39:47.38	37.99	61.45	-51.4	-53.1	17.6	0.00e+00	0	35	0	661651456	69	4265
2026-01-01 00:39:48.38	38.24	61.85	-51.1	-52.8	17.7	0.00e+00	0	35	0	663748608	68	4359
2026-01-01 00:39:49.38	38.50	62.26	-51.2	-52.9	17.7	0.00e+00	0	35	0	665845760	68	4422
2026-01-01 00:39:50.39	38.76	62.67	-51.2	-52.9	17.7	0.00e+00	0	35	0	666894336	68	4420
2026-01-01 00:39:51.39	39.04	63.08	-51.5	-53.2	17.7	0.00e+00	0	35	0	668991488	68	4556
2026-01-01 00:39:52.39	39.32	63.49	-52.1	-54.0	17.4	0.00e+00	0	35	0	671088640	69	4727
2026-01-01 00:39:53.38	39.61	63.90	-52.6	-54.4	17.3	0.00e+00	0	35	0	673185792	70	4697
2026-01-01 00:39:54.38	39.91	64.32	-52.8	-54.7	17.2	0.00e+00	0	35	0	675282944	71	4554
2026-01-01 00:39:55.38	40.23	64.73	-52.9	-54.8	17.2	0.00e+00	0	35	0	676331520	71	4623
2026-01-01 00:39:56.37	40.55	65.15	-52.8	-54.6	17.4	0.00e+00	0	35	0	678428672	71	4502
2026-01-01 00:39:57.37	40.89	65.57	-52.7	-54.4	17.4	0.00e+00	0	35	0	680525824	71	4411
2026-01-01 00:39:58.37	41.24	65.99	-52.5	-54.2	17.4	0.00e+00	0	35	0	682622976	71	4295
2026-01-01 00:39:59.36	41.60	66.41	-52.6	-54.3	17.3	0.00e+00	0	35	0	684720128	71	4382
2026-01-01 00:40:00.37	41.99	66.83	-53.4	-55.2	17.1	0.00e+00	0	35	0	685768704	71	4853
2026-01-01 00:40:01.36	42.38	67.26	-54.4	-56.4	16.6	0.00e+00	0	35	0	687865856	73	4974
2026-01-01 00:40:02.37	42.79	67.69	-55.4	-57.9	15.8	0.00e+00	0	35	0	689963008	75	5230
2026-01-01 00:40:03.36	43.22	68.11	-56.1	-58.8	15.5	0.00e+00	0	35	0	692060160	77	5169
2026-01-01 00:40:04.35	43.66	68.53	-55.5	-58.0	15.7	0.00e+00	0	35	0	693108736	77	4732
2026-01-01 00:40:05.34	44.12	68.96	-54.7	-56.8	16.3	0.00e+00	0	35	0	695205888	76	4388
2026-01-01 00:40:06.34	44.61	69.39	-54.9	-57.2	16.2	0.00e+00	0	35	0	697303040	75	4839
2026-01-01 00:40:07.34	45.12	69.82	-55.6	-58.1	15.7	0.00e+00	0	35	0	699400192	76	5071
2026-01-01 00:40:08.34	45.65	70.25	-56.0	-58.7	15.3	0.00e+00	0	35	0	701497344	77	5138
2026-01-01 00:40:09.35	46.21	70.69	-56.5	-59.5	14.8	0.00e+00	0	35	0	702545920	78	5330
2026-01-01 00:40:10.35	46.80	71.12	-56.7	-59.7	14.8	0.00e+00	0	35	0	704643072	78	5448
2026-01-01 00:40:11.34	47.41	71.54	-56.2	-59.0	15.2	0.00e+00	0	35	0	706740224	78	5022
2026-01-01 00:40:12.34	48.05	71.98	-56.0	-58.7	15.4	0.00e+00	0	35	0	708837376	78	4864
2026-01-01 00:40:13.33	48.72	72.40	-55.2	-57.6	15.9	0.00e+00	0	35	0	709885952	77	4519
2026-01-01 00:40:14.32	49.43	72.83	-53.9	-55.8	16.8	0.00e+00	0	35	0	711983104	74	4379
2026-01-01 00:40:15.32	50.18	73.26	-53.6	-55.4	16.9	0.00e+00	0	35	0	714080256	73	4439
2026-01-01 00:40:16.32	50.97	73.68	-54.9	-57.2	16.2	0.00e+00	0	35	0	716177408	74	5155
2026-01-01 00:40:17.32	51.81	74.11	-56.4	-59.3	15.0	0.00e+00	0	35	0	718274560	77	5514
2026-01-01 00:40:18.32	52.69	74.53	-56.5	-59.4	15.0	0.00e+00	0	35	0	719323136	78	5247
2026-01-01 00:40:19.32	53.63	74.96	-55.7	-58.2	15.6	0.00e+00	0	35	0	721420288	77	4850
2026-01-01 00:40:20.32	54.62	75.37	-55.9	-58.6	15.4	0.00e+00	0	35	0	723517440	77	5056
2026-01-01 00:40:21.31	55.66	75.79	-56.2	-59.3	14.9	0.00e+00	0	35	0	725614592	77	5500
2026-01-01 00:40:22.30	56.77	76.19	-57.2	-61.3	13.3	0.00e+00	0	35	0	726663168	79	6163
2026-01-01 00:40:23.29	57.94	76.60	-57.5	-61.9	13.0	0.00e+00	0	35	0	728760320	80	6216
2026-01-01 00:40:24.28	59.19	77.00	-57.6	-61.7	13.1	7.60e-06	0	35	0	730857472	81	5769
2026-01-01 00:40:25.28	60.53	77.40	-57.8	-62.0	13.0	0.00e+00	0	35	0	732954624	81	5968
2026-01-01 00:40:26.28	61.97	77.79	-57.5	-61.3	13.5	0.00e+00	0	35	0	735051776	81	5517
2026-01-01 00:40:27.28	63.50	78.17	-57.5	-61.2	13.6	0.00e+00	0	35	0	736100352	80	5778
2026-01-01 00:40:28.28	65.13	78.55	-57.4	-61.1	13.5	0.00e+00	0	35	0	738197504	80	5711
2026-01-01 00:40:29.28	66.88	78.92	-58.0	-62.6	12.6	7.00e-07	0	35	0	740294656	81	6368
2026-01-01 00:40:30.28	68.74	79.28	-58.1	-62.5	12.6	2.13e-05	0	35	0	742391808	82	5944
2026-01-01 00:40:31.27	70.72	79.62	-57.5	-61.1	13.7	2.20e-06	0	35	0	744488960	81	5396
2026-01-01 00:40:32.27	72.85	79.96	-57.0	-60.2	14.3	0.00e+00	0	35	0	745537536	80	5129
2026-01-01 00:40:33.26	75.10	80.27	-56.9	-60.2	14.4	0.00e+00	0	35	0	747634688	80	5108
2026-01-01 00:40:34.25	77.51	80.58	-56.0	-58.7	15.3	0.00e+00	0	35	0	749731840	78	4835
2026-01-01 00:40:35.25	80.10	80.86	-55.3	-57.6	16.0	0.00e+00	0	35	0	751828992	76	4805
2026-01-01 00:40:36.24	82.82	81.13	-55.9	-58.6	15.5	0.00e+00	0	35	0	752877568	77	5095
2026-01-01 00:40:37.24	85.74	81.38	-56.7	-59.7	14.8	0.00e+00	0	35	0	754974720	78	5433
2026-01-01 00:40:38.24	88.83	81.60	-55.3	-57.7	16.0	0.00e+00	0	35	0	757071872	77	4561
2026-01-01 00:40:39.24	92.08	81.80	-55.3	-57.7	15.9	0.00e+00	0	35	0	759169024	76	4865
2026-01-01 00:40:40.24	95.48	81.98	-55.6	-58.2	15.6	0.00e+00	0	35	0	761266176	76	5128
2026-01-01 00:40:41.24	99.02	82.12	-55.9	-58.6	15.3	0.00e+00	0	35	0	762314752	76	5362
2026-01-01 00:40:42.24	102.67	82.23	-55.7	-58.3	15.5	0.00e+00	0	35	0	764411904	76	5175
2026-01-01 00:40:43.24	106.42	82.31	-54.9	-57.1	16.2	0.00e+00	0	35	0	766509056	76	4539
2026-01-01 00:40:44.23	110.20	82.36	-54.8	-56.9	16.4	0.00e+00	0	35	0	768606208	76	4411
2026-01-01 00:40:45.23	114.05	82.38	-54.2	-56.2	16.8	0.00e+00	0	35	0	770703360	74	4562
2026-01-01 00:40:46.23	117.89	82.36	-53.3	-54.9	17.3	0.00e+00	0	35	0	771751936	73	4182
2026-01-01 00:40:47.22	121.66	82.31	-53.3	-54.9	17.3	0.00e+00	0	35	0	773849088	72	4428
2026-01-01 00:40:48.23	125.44	82.22	-55.7	-58.0	15.8	0.00e+00	0	35	0	775946240	76	5029
2026-01-01 00:40:49.22	129.05	82.10	-57.0	-60.1	14.7	0.00e+00	0	35	0	778043392	79	5356
2026-01-01 00:40:50.22	132.57	81.95	-56.2	-58.8	15.5	0.00e+00	0	35	0	779091968	78	4894
2026-01-01 00:40:51.22	135.95	81.78	-56.0	-58.4	15.6	0.00e+00	0	35	0	781189120	78	4702
2026-01-01 00:40:52.21	139.14	81.57	-55.8	-58.1	15.8	0.00e+00	0	35	0	783286272	78	4526
2026-01-01 00:40:53.21	142.21	81.35	-55.0	-57.1	16.3	0.00e+00	0	35	0	785383424	76	4508
2026-01-01 00:40:54.21	145.11	81.10	-56.0	-58.6	15.5	0.00e+00	0	35	0	787480576	77	5050
2026-01-01 00:40:55.22	147.86	80.82	-56.7	-59.9	14.6	0.00e+00	0	35	0	788529152	79	5247
2026-01-01 00:40:56.22	150.43	80.53	-56.0	-58.7	15.3	0.00e+00	0	35	0	790626304	78	4827
2026-01-01 00:40:57.22	152.83	80.22	-56.3	-59.2	15.1	0.00e+00	0	35	0	792723456	77	5411
2026-01-01 00:40:58.21	155.06	79.90	-57.4	-61.0	13.9	0.00e+00	0	35	0	794820608	80	5623
2026-01-01 00:40:59.20	157.15	79.57	-56.2	-58.8	15.4	0.00e+00	0	35	0	796917760	79	4642
2026-01-01 00:41:00.20	159.13	79.22	-55.8	-58.2	15.8	0.00e+00	0	35	0	797966336	78	4553
2026-01-01 00:41:01.20	160.97	78.86	-56.6	-59.3	15.1	0.00e+00	0	35	0	800063488	78	5203
2026-01-01 00:41:02.20	162.70	78.49	-56.1	-58.7	15.4	0.00e+00	0	35	0	802160640	78	4839
2026-01-01 00:41:03.19	164.30	78.11	-56.1	-58.8	15.3	0.00e+00	0	35	0	804257792	78	4910
2026-01-01 00:41:04.19	165.82	77.73	-55.2	-57.5	16.1	0.00e+00	0	35	0	805306368	77	4448
2026-01-01 00:41:05.18	167.22	77.34	-55.4	-57.7	16.0	0.00e+00	0	35	0	807403520	75	5142
2026-01-01 00:41:06.18	168.55	76.94	-56.9	-60.0	14.6	0.00e+00	0	35	0	809500672	79	5334
2026-01-01 00:41:07.17	169.79	76.54	-56.9	-59.9	14.6	0.00e+00	0	35	0	811597824	79	5254
2026-01-01 00:41:08.18	170.98	76.12	-55.4	-57.6	16.1	0.00e+00	0	35	0	813694976	77	4532
2026-01-01 00:41:09.17	172.07	75.71	-54.9	-56.9	16.6	0.00e+00	0	35	0	814743552	76	4405
2026-01-01 00:41:10.16	173.11	75.30	-54.6	-56.6	16.6	0.00e+00	0	35	0	816840704	75	4506
2026-01-01 00:41:11.15	174.08	74.89	-53.7	-55.4	17.1	0.00e+00	0	35	0	818937856	73	4416
2026-01-01 00:41:12.14	175.00	74.47	-54.4	-56.4	16.7	0.00e+00	0	35	0	821035008	74	4682
2026-01-01 00:41:13.14	175.88	74.04	-55.7	-58.1	15.8	0.00e+00	0	35	0	822083584	76	5076
2026-01-01 00:41:14.14	176.71	73.62	-55.4	-57.7	16.1	0.00e+00	0	35	0	824180736	76	4828
2026-01-01 00:41:15.14	177.49	73.19	-56.1	-58.7	15.4	0.00e+00	0	35	0	826277888	78	4841
2026-01-01 00:41:16.15	178.25	72.75	-55.5	-57.8	15.9	0.00e+00	0	35	0	828375040	77	4641
2026-01-01 00:41:17.14	178.95	72.33	-55.6	-58.0	15.9	0.00e+00	0	35	0	830472192	77	4746
2026-01-01 00:41:18.14	179.62	71.90	-56.9	-60.0	14.6	0.00e+00	0	35	0	831520768	78	5637
2026-01-01 00:41:19.13	180.25	71.47	-58.3	-62.7	12.7	7.00e-07	0	35	0	833617920	81	6425
2026-01-01 00:41:20.12	180.86	71.04	-57.4	-60.9	14.0	2.20e-06	0	35	0	835715072	81	5225
2026-01-01 00:41:21.12	181.44	70.61	-55.7	-58.1	15.8	0.00e+00	0	35	0	837812224	78	4514
2026-01-01 00:41:22.12	181.99	70.18	-55.3	-57.4	16.0	0.00e+00	0	35	0	838860800	77	4439
2026-01-01 00:41:23.12	182.52	69.75	-57.4	-60.6	14.5	0.00e+00	0	35	0	840957952	79	5682
2026-01-01 00:41:24.12	183.03	69.31	-58.8	-63.7	11.9	0.00e+00	0	35	0	843055104	82	6817
2026-01-01 00:41:25.12	183.51	68.88	-58.4	-62.8	12.6	9.46e-05	0	35	0	845152256	83	5811
2026-01-01 00:41:26.12	183.97	68.45	-56.4	-59.1	15.0	7.00e-07	0	35	0	847249408	79	4796
2026-01-01 00:41:27.12	184.42	68.02	-54.4	-56.3	16.7	0.00e+00	0	35	0	848297984	75	4379
2026-01-01 00:41:28.12	184.84	67.60	-54.6	-56.6	16.6	0.00e+00	0	35	0	850395136	74	4813
2026-01-01 00:41:29.11	185.25	67.17	-54.7	-56.7	16.5	0.00e+00	0	35	0	852492288	74	4825
2026-01-01 00:41:30.11	185.64	66.75	-54.0	-55.8	16.9	0.00e+00	0	35	0	854589440	74	4381
2026-01-01 00:41:31.12	186.02	66.32	-53.7	-55.4	17.1	0.00e+00	0	35	0	856686592	74	4189
2026-01-01 00:41:32.11	186.38	65.90	-52.7	-54.2	17.6	0.00e+00	0	35	0	857735168	72	4079
2026-01-01 00:41:33.11	186.73	65.48	-52.8	-54.3	17.6	0.00e+00	0	35	0	859832320	71	4385
2026-01-01 00:41:34.12	187.07	65.05	-53.8	-55.7	17.0	0.00e+00	0	35	0	861929472	73	4563
2026-01-01 00:41:35.12	187.39	64.63	-54.7	-57.0	16.3	0.00e+00	0	35	0	864026624	74	4998
2026-01-01 00:41:36.12	187.71	64.22	-53.8	-55.8	16.8	0.00e+00	0	35	0	866123776	74	4378
2026-01-01 00:41:37.11	188.00	63.81	-53.7	-55.6	16.9	0.00e+00	0	35	0	867172352	73	4531
2026-01-01 00:41:38.12	188.30	63.39	-54.8	-57.0	16.2	0.00e+00	0	35	0	869269504	74	5029
2026-01-01 00:41:39.12	188.58	62.98	-55.2	-57.7	15.9	0.00e+00	0	35	0	871366656	75	5109
2026-01-01 00:41:40.11	188.85	62.57	-54.8	-57.0	16.3	0.00e+00	0	35	0	873463808	75	4745
2026-01-01 00:41:41.11	189.11	62.16	-54.7	-57.0	16.3	0.00e+00	0	35	0	874512384	75	4714
2026-01-01 00:41:42.12	189.37	61.75	-55.4	-58.0	15.8	0.00e+00	0	35	0	876609536	76	4998
2026-01-01 00:41:43.12	189.61	61.35	-55.0	-57.4	16.1	0.00e+00	0	35	0	878706688	76	4696
2026-01-01 00:41:44.11	189.85	60.95	-54.1	-56.4	16.5	0.00e+00	0	35	0	880803840	74	4678
2026-01-01 00:41:45.12	190.08	60.54	-54.9	-57.5	15.9	0.00e+00	0	35	0	882900992	74	5301
2026-01-01 00:41:46.12	190.31	60.15	-55.2	-58.3	15.4	0.00e+00	0	35	0	883949568	75	5470
2026-01-01 00:41:47.12	190.53	59.75	-55.3	-58.4	15.4	0.00e+00	0	35	0	886046720	76	5256
2026-01-01 00:41:48.13	190.74	59.35	-54.3	-56.8	16.0	0.00e+00	0	35	0	888143872	75	4649
2026-01-01 00:41:49.13	190.94	58.96	-54.2	-56.7	16.3	0.00e+00	0	35	0	890241024	74	4846
2026-01-01 00:41:50.13	191.14	58.57	-54.7	-57.3	15.9	0.00e+00	0	35	0	892338176	74	5175
2026-01-01 00:41:51.12	191.33	58.19	-54.8	-57.5	15.7	0.00e+00	0	35	0	893386752	75	5007
2026-01-01 00:41:52.13	191.52	57.80	-53.4	-55.4	16.8	0.00e+00	0	35	0	895483904	73	4418
2026-01-01 00:41:53.12	191.71	57.42	-52.0	-53.8	17.4	0.00e+00	0	35	0	897581056	70	4347
2026-01-01 00:41:54.12	191.88	57.04	-52.4	-54.2	17.4	0.00e+00	0	35	0	899678208	70	4592
2026-01-01 00:41:55.11	192.06	56.67	-53.3	-55.3	16.9	0.00e+00	0	35	0	901775360	71	4906
2026-01-01 00:41:56.11	192.22	56.29	-52.7	-54.7	17.1	0.00e+00	0	35	0	902823936	71	4577
2026-01-01 00:41:57.11	192.39	55.92	-53.0	-55.0	17.1	0.00e+00	0	35	0	904921088	71	4737
2026-01-01 00:41:58.10	192.55	55.55	-53.5	-55.8	16.5	0.00e+00	0	35	0	907018240	72	4919
2026-01-01 00:41:59.10	192.70	55.18	-54.4	-57.2	15.8	0.00e+00	0	35	0	909115392	73	5428
2026-01-01 00:42:00.10	192.86	54.81	-54.2	-56.7	16.2	0.00e+00	0	35	0	910163968	74	4846
2026-01-01 00:42:01.10	193.00	54.45	-53.3	-55.4	16.7	0.00e+00	0	35	0	912261120	73	4422
2026-01-01 00:42:02.10	193.15	54.09	-53.5	-55.6	16.7	0.00e+00	0	35	0	914358272	72	4793
2026-01-01 00:42:03.09	193.29	53.73	-55.6	-58.7	15.4	0.00e+00	0	35	0	916455424	76	5420
2026-01-01 00:42:04.09	193.43	53.37	-56.8	-61.0	13.5	0.00e+00	0	35	0	918552576	78	6324
2026-01-01 00:42:05.07	193.56	53.03	-56.6	-60.4	14.1	0.00e+00	0	35	0	919601152	79	5534
2026-01-01 00:42:06.07	193.69	52.67	-55.5	-58.5	15.4	0.00e+00	0	35	0	921698304	77	4989
2026-01-01 00:42:07.07	193.82	52.32	-55.3	-58.2	15.5	0.00e+00	0	35	0	923795456	76	5102
2026-01-01 00:42:08.07	193.94	51.98	-55.5	-58.6	15.4	0.00e+00	0	35	0	925892608	76	5360
2026-01-01 00:42:09.07	194.07	51.63	-55.4	-58.2	15.5	0.00e+00	0	35	0	926941184	76	5143
2026-01-01 00:42:10.07	194.19	51.29	-54.7	-57.3	15.8	0.00e+00	0	35	0	929038336	76	4610
2026-01-01 00:42:11.06	194.30	50.95	-54.9	-57.7	15.7	0.00e+00	0	35	0	931135488	76	4815
2026-01-01 00:42:12.06	194.42	50.61	-55.1	-58.0	15.5	0.00e+00	0	35	0	933232640	76	4996
2026-01-01 00:42:13.06	194.53	50.28	-55.0	-57.8	15.4	0.00e+00	0	35	0	935329792	76	4899
2026-01-01 00:42:14.06	194.64	49.94	-54.2	-56.6	16.2	0.00e+00	0	35	0	936378368	75	4535
2026-01-01 00:42:15.06	194.75	49.61	-53.7	-55.7	16.7	0.00e+00	0	35	0	938475520	73	4547
2026-01-01 00:42:16.05	194.86	49.28	-53.6	-55.7	16.8	0.00e+00	0	35	0	940572672	73	4553
2026-01-01 00:42:17.05	194.96	48.96	-54.2	-56.4	16.4	0.00e+00	0	35	0	942669824	73	4977
2026-01-01 00:42:18.05	195.06	48.63	-54.8	-57.3	16.1	0.00e+00	0	35	0	943718400	74	5176
2026-01-01 00:42:19.05	195.16	48.31	-56.2	-59.5	14.7	0.00e+00	0	35	0	945815552	77	5635
2026-01-01 00:42:20.05	195.26	47.99	-57.0	-61.4	13.2	0.00e+00	0	35	0	947912704	79	6225
2026-01-01 00:42:21.04	195.35	47.68	-56.9	-61.2	13.2	0.00e+00	0	35	0	950009856	79	6106
2026-01-01 00:42:22.03	195.44	47.36	-56.3	-59.9	14.4	0.00e+00	0	35	0	952107008	78	5581
2026-01-01 00:42:23.03	195.54	47.05	-55.4	-58.4	15.2	0.00e+00	0	35	0	953155584	77	4946
2026-01-01 00:42:24.03	195.63	46.74	-55.0	-57.7	15.6	0.00e+00	0	35	0	955252736	76	4866
2026-01-01 00:42:25.02	195.71	46.43	-54.2	-56.4	16.5	0.00e+00	0	35	0	957349888	74	4669
2026-01-01 00:42:26.03	195.80	46.12	-53.9	-56.0	16.6	0.00e+00	0	35	0	959447040	74	4462
2026-01-01 00:42:27.02	195.89	45.82	-53.9	-56.1	16.5	0.00e+00	0	35	0	961544192	73	4785
2026-01-01 00:42:28.02	195.97	45.52	-54.8	-57.3	15.9	0.00e+00	0	35	0	962592768	74	5211
2026-01-01 00:42:29.02	196.05	45.22	-54.9	-57.6	15.8	0.00e+00	0	35	0	964689920	75	5058
2026-01-01 00:42:30.02	196.13	44.92	-55.9	-59.2	14.9	0.00e+00	0	35	0	966787072	77	5409
2026-01-01 00:42:31.01	196.21	44.63	-56.0	-59.3	14.7	0.00e+00	0	35	0	968884224	77	5488
2026-01-01 00:42:32.01	196.29	44.34	-55.2	-57.8	15.6	0.00e+00	0	35	0	969932800	76	4915
2026-01-01 00:42:33.00	196.37	44.05	-54.2	-56.5	16.3	0.00e+00	0	35	0	972029952	75	4466
2026-01-01 00:42:34.00	196.44	43.76	-53.4	-55.4	16.9	0.00e+00	0	35	0	974127104	73	4403
2026-01-01 00:42:35.00	196.52	43.47	-52.9	-54.7	17.1	0.00e+00	0	35	0	976224256	72	4311
2026-01-01 00:42:36.01	196.59	43.18	-52.6	-54.3	17.3	0.00e+00	0	35	0	978321408	71	4373
2026-01-01 00:42:37.01	196.66	42.90	-53.3	-55.2	17.0	0.00e+00	0	35	0	979369984	71	4823
2026-01-01 00:42:38.01	196.73	42.62	-53.8	-55.9	16.7	0.00e+00	0	35	0	981467136	72	4945
2026-01-01 00:42:39.02	196.80	42.34	-54.6	-57.0	16.1	0.00e+00	0	35	0	983564288	74	5021
2026-01-01 00:42:40.01	196.87	42.07	-54.7	-57.3	15.9	0.00e+00	0	35	0	985661440	75	4884
2026-01-01 00:42:41.01	196.94	41.79	-55.7	-58.7	15.2	0.00e+00	0	35	0	987758592	76	5451
2026-01-01 00:42:42.01	197.00	41.52	-55.9	-59.0	14.9	0.00e+00	0	35	0	988807168	77	5328
2026-01-01 00:42:43.00	197.07	41.25	-55.6	-58.5	15.2	0.00e+00	0	35	0	990904320	77	4986
2026-01-01 00:42:44.00	197.13	40.98	-55.6	-58.5	15.2	0.00e+00	0	35	0	993001472	77	4990
2026-01-01 00:42:45.00	197.19	40.71	-55.2	-57.8	15.5	0.00e+00	0	35	0	995098624	76	4913
2026-01-01 00:42:45.99	197.26	40.45	-54.6	-57.1	16.0	0.00e+00	0	35	0	996147200	75	4763
2026-01-01 00:42:46.99	197.32	40.19	-53.3	-55.4	16.8	0.00e+00	0	35	0	998244352	73	4406
2026-01-01 00:42:47.99	197.38	39.93	-52.8	-54.7	17.1	0.00e+00	0	35	0	1000341504	72	4304
2026-01-01 00:42:48.99	197.44	39.67	-52.7	-54.6	17.1	0.00e+00	0	35	0	1002438656	72	4250
2026-01-01 00:42:49.99	197.50	39.41	-53.1	-55.1	16.9	0.00e+00	0	35	0	1004535808	71	4800
2026-01-01 00:42:50.98	197.55	39.16	-54.0	-56.3	16.4	0.00e+00	0	35	0	1005584384	73	4906
2026-01-01 00:42:51.99	197.61	38.90	-54.8	-57.6	15.6	0.00e+00	0	35	0	1007681536	74	5369
2026-01-01 00:42:52.98	197.67	38.65	-55.6	-58.8	14.9	0.00e+00	0	35	0	1009778688	76	5518
2026-01-01 00:42:53.98	197.72	38.40	-56.9	-61.6	12.9	0.00e+00	0	35	0	1011875840	78	6795
2026-01-01 00:42:54.97	197.77	38.16	-58.0	-65.3	9.8	4.28e-04	0	35	0	1013972992	81	8702
2026-01-01 00:42:55.97	197.83	37.91	-58.2	-66.1	8.9	9.95e-03	0	35	0	1015021568	81	9514
2026-01-01 00:42:56.98	197.88	37.66	-58.4	-66.9	7.6	3.47e-02	0	35	0	1017118720	81	10418
2026-01-01 00:42:57.99	197.93	37.42	-58.3	-66.8	7.7	7.91e-02	0	35	0	1019215872	82	9818
2026-01-01 00:42:58.99	197.99	37.18	-57.9	-64.7	9.9	1.55e-02	0	35	0	1021313024	82	7688
2026-01-01 00:42:59.99	198.04	36.94	-57.9	-64.3	10.6	2.58e-03	0	35	0	1022361600	82	7315
2026-01-01 00:43:00.99	198.09	36.70	-56.9	-61.2	13.1	2.67e-05	0	35	0	1024458752	80	5748
2026-01-01 00:43:01.99	198.14	36.46	-55.6	-58.7	14.9	0.00e+00	0	35	0	1026555904	77	5139
2026-01-01 00:43:02.99	198.19	36.23	-54.8	-57.5	15.8	0.00e+00	0	35	0	1028653056	76	4711
2026-01-01 00:43:03.99	198.23	36.00	-54.7	-57.2	15.9	0.00e+00	0	35	0	1030750208	75	4868
2026-01-01 00:43:04.99	198.28	35.77	-54.4	-56.9	16.1	0.00e+00	0	35	0	1031798784	75	4662
2026-01-01 00:43:05.99	198.33	35.54	-54.9	-57.6	15.7	0.00e+00	0	35	0	1033895936	75	5091
2026-01-01 00:43:06.99	198.37	35.31	-55.9	-59.2	14.7	0.00e+00	0	35	0	1035993088	76	5739
2026-01-01 00:43:08.00	198.42	35.08	-56.3	-60.1	14.1	0.00e+00	0	35	0	1038090240	77	6041
2026-01-01 00:43:09.00	198.47	34.86	-57.0	-61.5	12.9	0.00e+00	0	35	0	1040187392	79	6340
2026-01-01 00:43:10.00	198.51	34.63	-57.5	-63.0	11.7	7.85e-05	0	35	0	1041235968	80	7098
2026-01-01 00:43:10.99	198.55	34.41	-58.0	-64.6	10.4	8.04e-04	0	35	0	1043333120	81	8034
2026-01-01 00:43:12.00	198.60	34.19	-58.2	-65.2	9.8	2.73e-03	0	35	0	1045430272	81	8603
2026-01-01 00:43:12.99	198.64	33.97	-58.5	-66.2	8.7	1.35e-02	0	35	0	1047527424	82	9155
2026-01-01 00:43:13.99	198.68	33.76	-58.3	-65.2	9.6	8.01e-03	0	35	0	1048576000	82	8108
2026-01-01 00:43:14.99	198.72	33.54	-58.1	-64.1	10.7	1.15e-03	0	35	0	1050673152	82	7185
2026-01-01 00:43:16.00	198.77	33.33	-58.0	-63.4	11.4	1.29e-03	0	35	0	1052770304	82	6626
2026-01-01 00:43:17.00	198.81	33.11	-57.6	-62.5	12.2	3.01e-04	0	35	0	1054867456	81	6281
2026-01-01 00:43:17.99	198.85	32.91	-57.9	-63.2	11.6	7.17e-05	0	35	0	1056964608	81	6823
2026-01-01 00:43:18.99	198.89	32.70	-57.6	-62.2	12.5	5.56e-05	0	35	0	1058013184	81	6085
2026-01-01 00:43:19.98	198.93	32.49	-56.7	-60.3	13.9	0.00e+00	0	35	0	1060110336	79	5500
2026-01-01 00:43:20.98	198.97	32.28	-56.1	-59.4	14.6	0.00e+00	0	35	0	1062207488	78	5221
2026-01-01 00:43:21.98	199.00	32.08	-55.2	-57.8	15.5	0.00e+00	0	35	0	1064304640	77	4643
2026-01-01 00:43:22.98	199.04	31.87	-55.0	-57.5	15.8	0.00e+00	0	35	0	1066401792	76	4737
2026-01-01 00:43:23.98	199.08	31.67	-54.8	-57.2	16.0	0.00e+00	0	35	0	1067450368	76	4578
2026-01-01 00:43:24.98	199.12	31.47	-55.0	-57.5	15.8	0.00e+00	0	35	0	1069547520	76	4753
2026-01-01 00:43:25.97	199.15	31.27	-54.9	-57.4	15.9	0.00e+00	0	35	0	1071644672	76	4687
2026-01-01 00:43:26.96	199.19	31.08	-55.2	-57.8	15.6	0.00e+00	0	35	0	1073741824	76	4876
2026-01-01 00:43:27.97	199.23	30.88	-55.8	-58.7	14.9	0.00e+00	0	35	0	1075838976	76	5462
2026-01-01 00:43:28.96	199.26	30.68	-56.2	-59.5	14.5	0.00e+00	0	35	0	1076887552	77	5614
2026-01-01 00:43:29.95	199.30	30.49	-56.5	-60.0	14.1	0.00e+00	0	35	0	1078984704	78	5654
2026-01-01 00:43:30.96	199.33	30.30	-56.9	-60.9	13.4	7.00e-07	0	35	0	1081081856	79	5920
2026-01-01 00:43:31.96	199.37	30.11	-57.3	-61.6	13.0	7.00e-07	0	35	0	1083179008	79	6377
2026-01-01 00:43:32.95	199.40	29.92	-56.8	-60.7	13.7	0.00e+00	0	35	0	1084227584	80	5442
2026-01-01 00:43:33.95	199.43	29.73	-57.0	-61.1	13.4	7.00e-07	0	35	0	1086324736	80	5665
2026-01-01 00:43:34.95	199.47	29.54	-56.9	-60.9	13.6	7.00e-07	0	35	0	1088421888	80	5543
2026-01-01 00:43:35.95	199.50	29.35	-56.6	-60.2	14.1	0.00e+00	0	35	0	1090519040	79	5455
2026-01-01 00:43:36.95	199.53	29.17	-56.2	-59.5	14.6	0.00e+00	0	35	0	1092616192	79	4997
2026-01-01 00:43:37.95	199.57	28.98	-56.1	-59.2	14.7	0.00e+00	0	35	0	1093664768	78	5156
2026-01-01 00:43:38.95	199.60	28.80	-55.8	-58.8	14.9	0.00e+00	0	35	0	1095761920	78	4885
2026-01-01 00:43:39.95	199.63	28.62	-55.6	-58.4	15.2	0.00e+00	0	35	0	1097859072	77	4950
2026-01-01 00:43:40.95	199.66	28.44	-55.6	-58.3	15.4	0.00e+00	0	35	0	1099956224	77	4894
2026-01-01 00:43:41.94	199.69	28.26	-55.3	-57.9	15.6	0.00e+00	0	35	0	1101004800	77	4697
2026-01-01 00:43:42.95	199.73	28.08	-54.9	-57.3	16.0	0.00e+00	0	35	0	1103101952	76	4610
2026-01-01 00:43:43.95	199.76	27.90	-54.7	-57.0	16.1	0.00e+00	0	35	0	1105199104	76	4481
2026-01-01 00:43:44.94	199.79	27.73	-54.5	-56.7	16.3	0.00e+00	0	35	0	1107296256	75	4590
2026-01-01 00:43:45.94	199.82	27.55	-54.2	-56.4	16.4	0.00e+00	0	35	0	1109393408	74	4677
2026-01-01 00:43:46.94	199.85	27.38	-54.3	-56.4	16.5	0.00e+00	0	35	0	1110441984	74	4679
2026-01-01 00:43:47.94	199.88	27.20	-54.1	-56.2	16.6	0.00e+00	0	35	0	1112539136	74	4547
2026-01-01 00:43:48.94	199.90	27.03	-54.0	-56.1	16.6	0.00e+00	0	35	0	1114636288	73	4793
2026-01-01 00:43:49.94	199.93	26.86	-53.7	-55.6	16.8	0.00e+00	0	35	0	1116733440	73	4545
2026-01-01 00:43:50.95	199.96	26.69	-53.6	-55.5	16.9	0.00e+00	0	35	0	1118830592	73	4485
2026-01-01 00:43:51.95	199.99	26.52	-53.5	-55.4	16.9	0.00e+00	0	35	0	1119879168	73	4421
2026-01-01 00:43:52.95	200.02	26.35	-53.4	-55.3	17.0	0.00e+00	0	35	0	1121976320	73	4363
2026-01-01 00:43:53.94	200.05	26.19	-53.4	-55.3	17.0	0.00e+00	0	35	0	1124073472	73	4353
2026-01-01 00:43:54.95	200.07	26.02	-53.1	-54.9	17.2	0.00e+00	0	35	0	1126170624	72	4426
2026-01-01 00:43:55.95	200.10	25.86	-53.1	-55.0	17.1	0.00e+00	0	35	0	1128267776	72	4442
2026-01-01 00:43:56.95	200.13	25.69	-53.0	-54.9	17.1	0.00e+00	0	35	0	1129316352	72	4401
2026-01-01 00:43:57.95	200.16	25.53	-52.8	-54.6	17.3	0.00e+00	0	35	0	1131413504	72	4280
2026-01-01 00:43:58.95	200.18	25.37	-53.0	-54.9	17.1	0.00e+00	0	35	0	1133510656	72	4399
2026-01-01 00:43:59.95	200.21	25.21	-53.0	-54.8	17.2	0.00e+00	0	35	0	1135607808	72	4367
2026-01-01 00:44:00.95	200.24	25.05	-53.1	-54.9	17.1	0.00e+00	0	35	0	1137704960	72	4429
2026-01-01 00:44:01.96	200.26	24.89	-53.3	-55.2	17.0	0.00e+00	0	35	0	1138753536	72	4576
2026-01-01 00:44:02.96	200.29	24.73	-53.4	-55.3	17.0	0.00e+00	0	35	0	1140850688	72	4617
2026-01-01 00:44:03.96	200.31	24.57	-54.8	-57.1	16.0	0.00e+00	0	35	0	1142947840	76	4507
2026-01-01 00:44:04.96	200.34	24.42	-55.7	-58.3	15.6	0.00e+00	0	35	0	1145044992	76	5184
2026-01-01 00:44:05.97	200.36	24.26	-55.5	-58.0	15.7	0.00e+00	0	35	0	1146093568	76	5026
2026-01-01 00:44:06.97	200.39	24.11	-55.3	-57.7	15.8	0.00e+00	0	35	0	1148190720	76	4848
2026-01-01 00:44:07.97	200.41	23.95	-54.9	-57.3	16.0	0.00e+00	0	35	0	1150287872	75	4891
2026-01-01 00:44:08.97	200.44	23.80	-54.6	-56.9	16.2	0.00e+00	0	35	0	1152385024	75	4672
2026-01-01 00:44:09.96	200.46	23.65	-54.1	-56.2	16.5	0.00e+00	0	35	0	1154482176	74	4578
2026-01-01 00:44:10.96	200.49	23.50	-53.8	-55.8	16.7	0.00e+00	0	35	0	1155530752	73	4626
2026-01-01 00:44:11.96	200.51	23.35	-53.4	-55.3	16.9	0.00e+00	0	35	0	1157627904	73	4383
2026-01-01 00:44:12.96	200.53	23.20	-52.9	-54.7	17.2	0.00e+00	0	35	0	1159725056	72	4315
2026-01-01 00:44:13.95	200.56	23.06	-52.9	-54.7	17.2	0.00e+00	0	35	0	1161822208	72	4319
2026-01-01 00:44:14.95	200.58	22.91	-52.6	-54.4	17.3	0.00e+00	0	35	0	1163919360	71	4406
2026-01-01 00:44:15.95	200.60	22.76	-52.6	-54.3	17.4	0.00e+00	0	35	0	1164967936	71	4351
2026-01-01 00:44:16.95	200.63	22.62	-52.5	-54.2	17.4	0.00e+00	0	35	0	1167065088	71	4317
2026-01-01 00:44:17.95	200.65	22.47	-52.2	-53.9	17.5	0.00e+00	0	35	0	1169162240	71	4172
2026-01-01 00:44:18.95	200.67	22.33	-52.5	-54.1	17.4	0.00e+00	0	35	0	1171259392	70	4542
2026-01-01 00:44:19.95	200.70	22.19	-52.4	-54.1	17.5	0.00e+00	0	35	0	1172307968	70	4525
2026-01-01 00:44:20.94	200.72	22.04	-52.6	-54.3	17.4	0.00e+00	0	35	0	1174405120	70	4613
2026-01-01 00:44:21.94	200.74	21.90	-52.6	-54.4	17.3	0.00e+00	0	35	0	1176502272	70	4665
2026-01-01 00:44:22.94	200.76	21.76	-52.7	-54.4	17.4	0.00e+00	0	35	0	1178599424	70	4681
2026-01-01 00:44:23.94	200.78	21.62	-52.8	-54.6	17.2	0.00e+00	0	35	0	1180696576	70	4795
2026-01-01 00:44:24.93	200.80	21.48	-52.8	-54.6	17.3	0.00e+00	0	35	0	1181745152	70	4774
2026-01-01 00:44:25.92	200.83	21.35	-52.8	-54.6	17.3	0.00e+00	0	35	0	1183842304	70	4772
2026-01-01 00:44:26.92	200.85	21.21	-53.0	-54.8	17.2	0.00e+00	0	35	0	1185939456	71	4618
2026-01-01 00:44:27.92	200.87	21.07	-53.0	-54.8	17.1	0.00e+00	0	35	0	1188036608	71	4646
2026-01-01 00:44:28.92	200.89	20.94	-53.0	-54.8	17.1	0.00e+00	0	35	0	1190133760	71	4636
2026-01-01 00:44:29.92	200.91	20.80	-53.2	-55.1	17.0	0.00e+00	0	35	0	1191182336	71	4788
2026-01-01 00:44:30.93	200.93	20.67	-53.3	-55.2	16.9	0.00e+00	0	35	0	1193279488	71	4854
2026-01-01 00:44:31.92	200.95	20.53	-53.2	-55.2	16.9	0.00e+00	0	35	0	1195376640	71	4825
2026-01-01 00:44:32.92	200.97	20.40	-53.4	-55.4	16.9	0.00e+00	0	35	0	1197473792	71	4950
2026-01-01 00:44:33.92	200.99	20.27	-53.5	-55.5	16.8	0.00e+00	0	35	0	1198522368	72	4731
2026-01-01 00:44:34.91	201.01	20.14	-53.3	-55.2	16.9	0.00e+00	0	35	0	1200619520	72	4586
2026-01-01 00:44:35.92	201.03	20.00	-53.5	-55.5	16.8	0.00e+00	0	35	0	1202716672	72	4750
2026-01-01 00:44:36.93	201.05	19.87	-53.3	-55.3	16.9	0.00e+00	0	35	0	1204813824	72	4644
2026-01-01 00:44:37.92	201.07	19.74	-53.4	-55.4	16.9	0.00e+00	0	35	0	1206910976	72	4671
2026-01-01 00:44:38.92	201.09	19.61	-53.5	-55.6	16.8	0.00e+00	0	35	0	1207959552	72	4785
2026-01-01 00:44:39.92	201.11	19.49	-53.3	-55.3	16.9	0.00e+00	0	35	0	1210056704	72	4631
2026-01-01 00:44:40.92	201.13	19.36	-53.3	-55.3	16.9	0.00e+00	0	35	0	1212153856	72	4611
2026-01-01 00:44:41.92	201.15	19.23	-53.3	-55.3	16.9	0.00e+00	0	35	0	1214251008	72	4615
2026-01-01 00:44:42.91	201.17	19.11	-53.1	-55.1	16.9	0.00e+00	0	35	0	1216348160	72	4515
2026-01-01 00:44:43.92	201.19	18.98	-53.2	-55.2	16.9	0.00e+00	0	35	0	1217396736	72	4550
2026-01-01 00:44:44.92	201.21	18.85	-53.2	-55.1	17.0	0.00e+00	0	35	0	1219493888	72	4513
2026-01-01 00:44:45.92	201.23	18.73	-53.2	-55.1	16.9	0.00e+00	0	35	0	1221591040	72	4526
2026-01-01 00:44:46.92	201.24	18.60	-53.2	-55.2	16.9	0.00e+00	0	35	0	1223688192	72	4551
2026-01-01 00:44:47.92	201.26	18.48	-53.2	-55.1	16.9	0.00e+00	0	35	0	1224736768	72	4544
2026-01-01 00:44:48.91	201.28	18.36	-53.2	-55.2	16.9	0.00e+00	0	35	0	1226833920	72	4585
2026-01-01 00:44:49.90	201.30	18.24	-53.3	-55.3	16.8	0.00e+00	0	35	0	1228931072	72	4609
2026-01-01 00:44:50.90	201.32	18.12	-53.3	-55.3	16.8	0.00e+00	0	35	0	1231028224	72	4621
2026-01-01 00:44:51.90	201.33	18.00	-53.3	-55.4	16.9	0.00e+00	0	35	0	1233125376	72	4681
2026-01-01 00:44:52.89	201.35	17.88	-53.7	-55.5	17.0	0.00e+00	0	35	0	1234173952	72	4715
2026-01-01 00:44:53.89	201.37	17.76	-53.7	-55.4	17.0	0.00e+00	0	35	0	1236271104	72	4678
2026-01-01 00:44:54.89	201.39	17.64	-53.9	-55.6	16.9	0.00e+00	0	35	0	1238368256	73	4541
2026-01-01 00:44:55.88	201.40	17.52	-54.1	-55.9	16.8	0.00e+00	0	35	0	1240465408	73	4674
2026-01-01 00:44:56.88	201.42	17.40	-54.1	-55.9	16.8	0.00e+00	0	35	0	1241513984	73	4662
2026-01-01 00:44:57.89	201.44	17.28	-54.2	-56.1	16.7	0.00e+00	0	35	0	1243611136	73	4783
