passes_logs/2026/01/01/R3.2S_Murmansk/R3.2S_Murmansk__20260101_222623_KANOPUS-V_3_rec.log

#Pass ID: 20260101_222623_KANOPUS-V 3
#Satellite: KANOPUS-V 3
#Configuration: KANOPUS-V_8128
#almurnet v.1.7.20251203
#Start time: 2026-01-01 22:26:23

#Version: 2.2.20231116
#Station: R3.2S_Murmansk
#Location: 33.079688 lon 68.888172 lat
#TLE: 1 43180U 18014A   25365.80198866  .00000174  00000+0  10241-4 0  9990
#TLE: 2 43180  97.3690 269.5835 0001690  87.9498 272.1932 15.23322034439244

#Time	Az	El	Level	Level2	SNR	BER	BlckErr	Temp	State	Recorded	gain1	gain2
2026-01-01 22:26:23.24	20.77	1.99	-59.0	-69.7	3.8	7.45e-01	0	31	0	0	86	12787
2026-01-01 22:26:24.25	20.77	2.06	-59.0	-69.7	3.8	7.44e-01	0	31	104	0	86	12787
2026-01-01 22:26:25.25	20.77	2.13	-59.0	-69.7	3.8	7.46e-01	0	31	104	0	86	12764
2026-01-01 22:26:26.24	20.76	2.20	-59.0	-69.7	3.8	7.45e-01	0	31	104	0	86	12774
2026-01-01 22:26:27.23	20.76	2.27	-59.0	-69.7	3.8	7.45e-01	0	31	104	0	86	12746
2026-01-01 22:26:28.23	20.76	2.34	-59.0	-69.7	3.8	7.47e-01	0	31	104	0	86	12770
2026-01-01 22:26:29.23	20.75	2.42	-59.0	-69.7	3.8	7.48e-01	0	31	104	0	86	12783
2026-01-01 22:26:30.23	20.75	2.49	-59.0	-69.7	3.8	7.45e-01	0	32	104	0	86	12735
2026-01-01 22:26:31.23	20.75	2.56	-59.0	-69.7	3.8	7.45e-01	0	32	104	0	86	12763
2026-01-01 22:26:32.23	20.74	2.63	-59.0	-69.7	3.8	7.45e-01	0	31	104	0	86	12727
2026-01-01 22:26:33.21	20.74	2.70	-59.0	-69.7	3.8	7.46e-01	0	32	104	0	86	12792
2026-01-01 22:26:34.21	20.73	2.77	-59.0	-69.7	3.8	7.44e-01	0	32	104	0	86	12734
2026-01-01 22:26:35.21	20.73	2.84	-59.0	-69.7	3.8	7.46e-01	0	32	104	0	86	12766
2026-01-01 22:26:36.21	20.73	2.92	-59.0	-69.7	3.8	7.45e-01	0	32	104	0	86	12714
2026-01-01 22:26:37.20	20.72	2.99	-59.0	-69.7	3.8	7.46e-01	0	32	104	0	86	12736
2026-01-01 22:26:38.20	20.72	3.06	-59.0	-69.7	3.8	7.46e-01	0	32	104	0	86	12726
2026-01-01 22:26:39.20	20.71	3.14	-59.0	-69.7	3.8	7.46e-01	0	32	104	0	86	12778
2026-01-01 22:26:40.19	20.71	3.21	-59.0	-69.7	3.8	7.45e-01	0	32	104	0	86	12674
2026-01-01 22:26:41.19	20.71	3.28	-59.0	-69.7	3.8	7.46e-01	0	32	104	0	86	12750
2026-01-01 22:26:42.20	20.70	3.36	-59.0	-69.7	3.8	7.46e-01	0	32	104	0	86	12760
2026-01-01 22:26:43.20	20.70	3.43	-59.0	-69.7	3.8	7.47e-01	0	32	104	0	86	12745
2026-01-01 22:26:44.19	20.69	3.51	-59.0	-69.7	3.8	7.45e-01	0	32	104	0	86	12770
2026-01-01 22:26:45.19	20.69	3.58	-59.0	-69.7	3.8	7.46e-01	0	32	104	0	86	12770
2026-01-01 22:26:46.19	20.68	3.66	-59.0	-69.7	3.8	7.47e-01	0	32	104	0	86	12748
2026-01-01 22:26:47.18	20.68	3.73	-59.0	-69.7	3.8	7.47e-01	0	32	104	0	86	12768
2026-01-01 22:26:48.19	20.67	3.81	-59.0	-69.6	3.8	7.46e-01	0	32	104	0	86	12663
2026-01-01 22:26:49.20	20.67	3.89	-59.0	-69.7	3.8	7.48e-01	0	32	104	0	86	12681
2026-01-01 22:26:50.20	20.66	3.96	-59.0	-69.7	3.8	7.46e-01	0	32	104	0	86	12744
2026-01-01 22:26:51.20	20.66	4.04	-59.0	-69.7	3.8	7.46e-01	0	32	104	0	86	12722
2026-01-01 22:26:52.19	20.66	4.11	-59.0	-69.7	3.8	7.45e-01	0	32	104	0	86	12696
2026-01-01 22:26:53.19	20.65	4.19	-59.0	-69.7	3.8	7.45e-01	0	32	104	0	86	12739
2026-01-01 22:26:54.20	20.65	4.27	-59.0	-69.7	3.8	7.47e-01	0	32	104	0	86	12714
2026-01-01 22:26:55.21	20.64	4.35	-59.0	-69.7	3.8	7.46e-01	0	32	104	0	86	12751
2026-01-01 22:26:56.21	20.64	4.43	-59.0	-69.7	3.8	7.47e-01	0	32	104	0	86	12739
2026-01-01 22:26:57.21	20.63	4.51	-59.0	-69.7	3.8	7.45e-01	0	32	104	0	86	12706
2026-01-01 22:26:58.20	20.62	4.58	-59.0	-69.7	3.8	7.44e-01	0	32	104	0	86	12709
2026-01-01 22:26:59.20	20.62	4.66	-59.0	-69.7	3.8	7.45e-01	0	32	104	0	86	12688
2026-01-01 22:27:00.20	20.61	4.74	-59.0	-69.7	3.8	7.45e-01	0	32	104	0	86	12704
2026-01-01 22:27:01.20	20.61	4.82	-59.0	-69.7	3.8	7.46e-01	0	32	104	0	86	12724
2026-01-01 22:27:02.21	20.60	4.90	-59.0	-69.7	3.8	7.46e-01	0	32	104	0	86	12760
2026-01-01 22:27:03.21	20.60	4.98	-58.9	-69.6	3.8	7.46e-01	0	32	104	0	86	12657
2026-01-01 22:27:04.21	20.59	5.06	-59.0	-69.7	3.8	7.47e-01	0	32	104	0	86	12670
2026-01-01 22:27:05.21	20.59	5.14	-59.1	-69.8	3.8	7.45e-01	0	32	104	0	86	12858
2026-01-01 22:27:06.20	20.58	5.22	-59.0	-69.7	3.8	7.46e-01	0	32	104	0	86	12777
2026-01-01 22:27:07.20	20.57	5.31	-59.0	-69.7	3.8	7.45e-01	0	32	104	0	86	12735
2026-01-01 22:27:08.20	20.57	5.39	-59.1	-69.8	3.8	7.45e-01	0	32	104	0	86	12931
2026-01-01 22:27:09.20	20.56	5.47	-59.0	-69.6	3.8	7.46e-01	0	32	104	0	86	12658
2026-01-01 22:27:10.20	20.56	5.55	-59.1	-69.7	3.8	7.46e-01	0	32	104	0	86	12807
2026-01-01 22:27:11.20	20.55	5.64	-59.1	-69.8	3.8	7.45e-01	0	32	104	0	86	12854
2026-01-01 22:27:12.20	20.54	5.72	-59.2	-69.9	3.8	7.47e-01	0	32	104	0	86	12995
2026-01-01 22:27:13.21	20.54	5.80	-59.0	-69.6	3.8	7.45e-01	0	32	104	0	86	12663
2026-01-01 22:27:14.20	20.53	5.89	-59.1	-69.8	3.8	7.47e-01	0	32	104	0	86	12826
2026-01-01 22:27:15.20	20.52	5.97	-59.1	-69.8	3.8	7.46e-01	0	32	104	0	86	12828
2026-01-01 22:27:16.20	20.52	6.06	-59.2	-69.9	3.8	7.47e-01	0	33	104	0	86	13025
2026-01-01 22:27:17.20	20.51	6.14	-59.0	-69.7	3.8	7.46e-01	0	32	104	0	86	12745
2026-01-01 22:27:18.19	20.51	6.23	-59.1	-69.8	3.8	7.45e-01	0	32	104	0	86	12875
2026-01-01 22:27:19.19	20.50	6.31	-59.1	-69.8	3.8	7.46e-01	0	32	104	0	86	12844
2026-01-01 22:27:20.19	20.49	6.40	-59.2	-69.9	3.8	7.44e-01	0	32	104	0	86	13044
2026-01-01 22:27:21.20	20.48	6.49	-59.1	-69.8	3.8	7.45e-01	0	33	104	0	86	12822
2026-01-01 22:27:22.19	20.48	6.57	-59.1	-69.9	3.8	7.43e-01	0	32	104	0	86	12968
2026-01-01 22:27:23.19	20.47	6.66	-59.1	-69.8	3.8	7.44e-01	0	33	104	0	86	12887
2026-01-01 22:27:24.19	20.46	6.75	-59.3	-69.9	3.8	7.46e-01	0	33	104	0	86	13107
2026-01-01 22:27:25.18	20.46	6.84	-59.1	-69.8	3.8	7.47e-01	0	33	104	0	86	12880
2026-01-01 22:27:26.17	20.45	6.92	-59.2	-69.9	3.8	7.44e-01	0	33	104	0	86	12999
2026-01-01 22:27:27.16	20.44	7.01	-59.2	-69.9	3.8	7.45e-01	0	32	104	0	86	12995
2026-01-01 22:27:28.15	20.43	7.10	-59.3	-70.0	3.8	7.46e-01	0	33	104	0	86	13212
2026-01-01 22:27:29.15	20.43	7.19	-59.1	-69.8	3.8	7.47e-01	0	33	104	0	86	12945
2026-01-01 22:27:30.14	20.42	7.28	-59.2	-69.9	3.8	7.47e-01	0	32	104	0	86	13037
2026-01-01 22:27:31.14	20.41	7.37	-59.2	-69.9	3.8	7.45e-01	0	33	104	0	86	13044
2026-01-01 22:27:32.14	20.40	7.46	-59.3	-70.0	3.8	7.44e-01	0	32	104	0	86	13185
2026-01-01 22:27:33.13	20.39	7.55	-59.2	-69.9	3.8	7.45e-01	0	33	104	0	86	13037
2026-01-01 22:27:34.13	20.39	7.65	-59.2	-69.9	3.8	7.45e-01	0	33	104	0	86	13067
2026-01-01 22:27:35.13	20.38	7.74	-59.2	-69.9	3.8	7.47e-01	0	33	104	0	86	13055
2026-01-01 22:27:36.13	20.37	7.83	-59.4	-70.0	3.8	7.45e-01	0	33	104	0	86	13258
2026-01-01 22:27:37.12	20.36	7.93	-59.2	-69.9	3.8	7.45e-01	0	33	104	0	86	13078
2026-01-01 22:27:38.12	20.35	8.02	-59.3	-69.9	3.8	7.48e-01	0	33	104	0	86	13074
2026-01-01 22:27:39.12	20.34	8.11	-59.2	-69.9	3.8	7.46e-01	0	33	104	0	86	13068
2026-01-01 22:27:40.12	20.34	8.21	-59.4	-70.1	3.8	7.44e-01	0	33	104	0	86	13333
2026-01-01 22:27:41.11	20.33	8.30	-59.2	-69.9	3.8	7.46e-01	0	33	104	0	86	13098
2026-01-01 22:27:42.11	20.32	8.40	-59.3	-70.0	3.8	7.46e-01	0	33	104	0	86	13162
2026-01-01 22:27:43.11	20.31	8.50	-59.3	-69.9	3.8	7.46e-01	0	33	104	0	86	13109
2026-01-01 22:27:44.10	20.30	8.59	-59.4	-70.1	3.8	7.45e-01	0	33	104	0	86	13372
2026-01-01 22:27:45.10	20.29	8.69	-59.3	-69.9	3.8	7.45e-01	0	33	104	0	86	13091
2026-01-01 22:27:46.10	20.28	8.79	-59.3	-70.0	3.8	7.46e-01	0	33	104	0	86	13231
2026-01-01 22:27:47.09	20.27	8.88	-59.3	-70.0	3.8	7.45e-01	0	33	104	0	86	13195
2026-01-01 22:27:48.10	20.26	8.98	-59.4	-70.1	3.8	7.45e-01	0	33	104	0	86	13338
2026-01-01 22:27:49.10	20.25	9.08	-59.3	-70.0	3.8	7.44e-01	0	33	104	0	86	13208
2026-01-01 22:27:50.11	20.24	9.19	-59.4	-70.0	3.8	7.45e-01	0	33	104	0	86	13193
2026-01-01 22:27:51.11	20.23	9.29	-59.3	-70.0	3.8	7.46e-01	0	33	104	0	86	13243
2026-01-01 22:27:52.10	20.22	9.39	-59.5	-70.2	3.8	7.45e-01	0	33	104	0	86	13429
2026-01-01 22:27:53.10	20.21	9.49	-59.3	-70.0	3.8	7.45e-01	0	33	104	0	86	13234
2026-01-01 22:27:54.11	20.20	9.59	-59.4	-70.1	3.8	7.44e-01	0	33	104	0	86	13275
2026-01-01 22:27:55.10	20.19	9.69	-59.4	-70.1	3.8	7.47e-01	0	33	104	0	86	13273
2026-01-01 22:27:56.10	20.18	9.80	-59.5	-70.2	3.8	7.45e-01	0	33	104	0	86	13481
2026-01-01 22:27:57.10	20.17	9.90	-59.4	-70.1	3.8	7.44e-01	0	33	104	0	86	13300
2026-01-01 22:27:58.11	20.16	10.01	-59.4	-70.1	3.8	7.46e-01	0	33	104	0	86	13395
2026-01-01 22:27:59.10	20.15	10.11	-59.4	-70.1	3.8	7.44e-01	0	33	104	0	86	13388
2026-01-01 22:28:00.11	20.14	10.22	-59.5	-70.2	3.8	7.45e-01	0	33	104	0	87	12773
2026-01-01 22:28:01.11	20.13	10.32	-59.4	-70.0	3.8	7.46e-01	0	33	104	0	87	12514
2026-01-01 22:28:02.11	20.11	10.43	-59.4	-70.1	3.8	7.45e-01	0	33	104	0	87	12597
2026-01-01 22:28:03.11	20.10	10.54	-59.4	-70.1	3.8	7.46e-01	0	33	104	0	87	12567
2026-01-01 22:28:04.11	20.09	10.65	-59.5	-70.2	3.8	7.44e-01	0	33	104	0	87	12755
2026-01-01 22:28:05.11	20.08	10.75	-59.4	-70.1	3.8	7.47e-01	0	33	104	0	87	12600
2026-01-01 22:28:06.11	20.07	10.86	-59.4	-70.2	3.8	7.45e-01	0	33	104	0	87	12686
2026-01-01 22:28:07.11	20.05	10.97	-59.4	-70.1	3.8	7.44e-01	0	33	104	0	87	12647
2026-01-01 22:28:08.11	20.04	11.09	-59.6	-70.2	3.8	7.47e-01	0	33	104	0	87	12783
2026-01-01 22:28:09.11	20.03	11.20	-59.4	-70.1	3.8	7.47e-01	0	33	104	0	87	12596
2026-01-01 22:28:10.11	20.02	11.31	-59.5	-70.2	3.8	7.46e-01	0	33	104	0	87	12685
2026-01-01 22:28:11.10	20.00	11.42	-59.5	-70.2	3.8	7.45e-01	0	33	104	0	87	12682
2026-01-01 22:28:12.10	19.99	11.53	-59.6	-70.3	3.8	7.46e-01	0	33	104	0	87	12837
2026-01-01 22:28:13.10	19.98	11.65	-59.5	-70.2	3.8	7.46e-01	0	33	104	0	87	12771
2026-01-01 22:28:14.10	19.97	11.76	-59.5	-70.2	3.8	7.46e-01	0	33	104	0	87	12739
2026-01-01 22:28:15.11	19.95	11.88	-59.5	-70.2	3.8	7.47e-01	0	33	104	0	87	12741
2026-01-01 22:28:16.10	19.94	12.00	-59.6	-70.3	3.8	7.45e-01	0	33	104	0	87	12852
2026-01-01 22:28:17.11	19.92	12.11	-59.5	-70.2	3.8	7.46e-01	0	33	104	0	87	12705
2026-01-01 22:28:18.11	19.91	12.23	-59.4	-70.2	3.8	7.45e-01	0	33	104	0	87	12809
2026-01-01 22:28:19.11	19.90	12.35	-59.5	-70.3	3.8	7.43e-01	0	33	104	0	87	12817
2026-01-01 22:28:20.11	19.88	12.47	-59.6	-70.3	3.8	7.46e-01	0	33	104	0	87	12930
2026-01-01 22:28:21.11	19.87	12.59	-59.4	-70.2	3.8	7.45e-01	0	33	104	0	87	12763
2026-01-01 22:28:22.11	19.85	12.71	-59.6	-70.2	3.8	7.46e-01	0	33	104	0	87	12771
2026-01-01 22:28:23.10	19.84	12.83	-59.5	-70.2	3.8	7.43e-01	0	33	104	0	87	12797
2026-01-01 22:28:24.10	19.82	12.95	-59.7	-70.3	3.8	7.45e-01	0	33	104	0	87	12957
2026-01-01 22:28:25.09	19.81	13.08	-59.6	-70.2	3.8	7.46e-01	0	33	104	0	87	12767
2026-01-01 22:28:26.09	19.79	13.20	-59.6	-70.3	3.8	7.46e-01	0	33	104	0	87	12835
2026-01-01 22:28:27.09	19.78	13.33	-59.6	-70.3	3.8	7.46e-01	0	33	104	0	87	12855
2026-01-01 22:28:28.09	19.76	13.45	-59.7	-70.4	3.8	7.45e-01	0	33	104	0	87	12965
2026-01-01 22:28:29.08	19.75	13.58	-59.6	-70.3	3.8	7.46e-01	0	33	104	0	87	12812
2026-01-01 22:28:30.07	19.73	13.70	-59.6	-70.3	3.8	7.46e-01	0	33	104	0	87	12859
2026-01-01 22:28:31.07	19.71	13.83	-59.6	-70.3	3.8	7.47e-01	0	33	104	0	87	12866
2026-01-01 22:28:32.07	19.70	13.96	-59.7	-70.4	3.8	7.45e-01	0	33	104	0	87	13033
2026-01-01 22:28:33.07	19.68	14.09	-59.6	-70.3	3.8	7.44e-01	0	33	104	0	87	12865
2026-01-01 22:28:34.06	19.66	14.22	-59.6	-70.3	3.8	7.46e-01	0	33	104	0	87	12921
2026-01-01 22:28:35.06	19.65	14.35	-59.6	-70.4	3.8	7.45e-01	0	33	104	0	87	12965
2026-01-01 22:28:36.06	19.63	14.49	-59.7	-70.5	3.8	7.46e-01	0	33	104	0	87	13110
2026-01-01 22:28:37.05	19.61	14.62	-59.6	-70.3	3.8	7.45e-01	0	33	104	0	87	12942
2026-01-01 22:28:38.06	19.59	14.76	-59.7	-70.4	3.8	7.47e-01	0	33	104	0	87	12960
2026-01-01 22:28:39.05	19.57	14.89	-59.7	-70.3	3.8	7.45e-01	0	33	104	0	87	12913
2026-01-01 22:28:40.04	19.56	15.03	-59.7	-70.4	3.8	7.47e-01	0	33	104	0	87	13095
2026-01-01 22:28:41.05	19.54	15.17	-59.7	-70.3	3.8	7.45e-01	0	33	104	0	87	12934
2026-01-01 22:28:42.04	19.52	15.30	-59.7	-70.4	3.8	7.46e-01	0	33	104	0	87	12992
2026-01-01 22:28:43.04	19.50	15.44	-59.7	-70.4	3.8	7.45e-01	0	33	104	0	87	13003
2026-01-01 22:28:44.04	19.48	15.59	-59.8	-70.4	3.8	7.45e-01	0	33	104	0	87	13095
2026-01-01 22:28:45.04	19.46	15.73	-59.7	-70.4	3.8	7.44e-01	0	33	104	0	87	13015
2026-01-01 22:28:46.05	19.44	15.87	-59.7	-70.4	3.8	7.45e-01	0	33	104	0	87	13004
2026-01-01 22:28:47.04	19.42	16.02	-59.7	-70.4	3.8	7.44e-01	0	33	104	0	87	12991
2026-01-01 22:28:48.04	19.40	16.16	-59.8	-70.5	3.8	7.45e-01	0	33	104	0	87	13114
2026-01-01 22:28:49.04	19.38	16.31	-59.7	-70.4	3.8	7.46e-01	0	33	104	0	87	13049
2026-01-01 22:28:50.04	19.36	16.46	-59.7	-70.4	3.8	7.47e-01	0	33	104	0	87	13072
2026-01-01 22:28:51.04	19.33	16.61	-59.7	-70.4	3.8	7.45e-01	0	33	104	0	87	13022
2026-01-01 22:28:52.04	19.31	16.76	-59.8	-70.5	3.8	7.44e-01	0	33	104	0	87	13203
2026-01-01 22:28:53.04	19.29	16.91	-59.7	-70.4	3.8	7.47e-01	0	33	104	0	87	13019
2026-01-01 22:28:54.04	19.27	17.06	-59.8	-70.4	3.8	7.45e-01	0	33	104	0	87	13091
2026-01-01 22:28:55.05	19.25	17.22	-59.8	-70.4	3.8	7.46e-01	0	33	104	0	87	13093
2026-01-01 22:28:56.05	19.22	17.37	-59.8	-70.5	3.8	7.46e-01	0	33	104	0	87	13258
2026-01-01 22:28:57.05	19.20	17.53	-59.8	-70.4	3.8	7.45e-01	0	33	104	0	87	13108
2026-01-01 22:28:58.06	19.17	17.69	-59.8	-70.4	3.8	7.46e-01	0	33	104	0	87	13093
2026-01-01 22:28:59.06	19.15	17.85	-59.8	-70.5	3.8	7.45e-01	0	33	104	0	87	13125
2026-01-01 22:29:00.06	19.13	18.01	-59.8	-70.5	3.8	7.47e-01	0	33	104	0	87	13238
2026-01-01 22:29:01.06	19.10	18.17	-59.8	-70.5	3.8	7.47e-01	0	33	104	0	87	13124
2026-01-01 22:29:02.06	19.08	18.33	-59.8	-70.5	3.8	7.44e-01	0	33	104	0	87	13173
2026-01-01 22:29:03.06	19.05	18.49	-59.8	-70.5	3.8	7.45e-01	0	33	104	0	87	13219
2026-01-01 22:29:04.06	19.03	18.66	-59.9	-70.6	3.8	7.46e-01	0	33	104	0	87	13282
2026-01-01 22:29:05.06	19.00	18.83	-59.8	-70.5	3.8	7.46e-01	0	33	104	0	87	13173
2026-01-01 22:29:06.05	18.97	19.00	-59.8	-70.5	3.8	7.47e-01	0	33	104	0	87	13212
2026-01-01 22:29:07.05	18.95	19.17	-59.8	-70.5	3.8	7.46e-01	0	33	104	0	87	13124
2026-01-01 22:29:08.05	18.92	19.34	-59.9	-70.6	3.8	7.46e-01	0	33	104	0	87	13312
2026-01-01 22:29:09.05	18.89	19.51	-59.9	-70.5	3.8	7.45e-01	0	33	104	0	87	13241
2026-01-01 22:29:10.05	18.86	19.69	-59.9	-70.6	3.8	7.46e-01	0	33	104	0	87	13262
2026-01-01 22:29:11.06	18.83	19.86	-59.9	-70.6	3.8	7.45e-01	0	33	104	0	87	13262
2026-01-01 22:29:12.06	18.80	20.04	-59.9	-70.6	3.8	7.46e-01	0	33	104	0	87	13398
2026-01-01 22:29:13.06	18.77	20.22	-59.9	-70.6	3.8	7.45e-01	0	33	104	0	87	13293
2026-01-01 22:29:14.06	18.74	20.40	-59.9	-70.6	3.8	7.43e-01	0	33	104	0	87	13280
2026-01-01 22:29:15.06	18.71	20.58	-59.9	-70.6	3.8	7.45e-01	0	33	104	0	87	13298
2026-01-01 22:29:16.06	18.68	20.77	-60.0	-70.7	3.8	7.47e-01	0	33	104	0	87	13484
2026-01-01 22:29:17.06	18.65	20.96	-59.9	-70.6	3.8	7.47e-01	0	33	104	0	87	13290
2026-01-01 22:29:18.07	18.62	21.15	-59.9	-70.6	3.8	7.46e-01	0	33	104	0	87	13376
2026-01-01 22:29:19.07	18.59	21.34	-59.9	-70.6	3.8	7.43e-01	0	33	104	0	87	13371
2026-01-01 22:29:20.08	18.55	21.53	-60.0	-70.7	3.8	7.45e-01	0	33	104	0	87	13493
2026-01-01 22:29:21.08	18.52	21.72	-59.9	-70.6	3.8	7.45e-01	0	33	104	0	87	13349
2026-01-01 22:29:22.08	18.49	21.92	-60.0	-70.7	3.8	7.44e-01	0	33	104	0	87	13429
2026-01-01 22:29:23.08	18.45	22.11	-60.0	-70.6	3.8	7.45e-01	0	33	104	0	87	13412
2026-01-01 22:29:24.08	18.42	22.31	-60.0	-70.8	3.8	7.44e-01	0	33	104	0	88	12811
2026-01-01 22:29:25.08	18.38	22.51	-60.0	-70.7	3.8	7.47e-01	0	33	104	0	88	12700
2026-01-01 22:29:26.08	18.34	22.72	-60.0	-70.7	3.8	7.47e-01	0	33	104	0	88	12718
2026-01-01 22:29:27.08	18.31	22.92	-60.0	-70.7	3.8	7.46e-01	0	33	104	0	88	12741
2026-01-01 22:29:28.08	18.27	23.13	-60.1	-70.8	3.8	7.44e-01	0	33	104	0	88	12841
2026-01-01 22:29:29.08	18.23	23.34	-60.0	-70.7	3.8	7.46e-01	0	33	104	0	88	12683
2026-01-01 22:29:30.08	18.19	23.55	-60.0	-70.7	3.8	7.45e-01	0	33	104	0	88	12809
2026-01-01 22:29:31.08	18.15	23.76	-60.0	-70.7	3.8	7.45e-01	0	33	104	0	88	12789
2026-01-01 22:29:32.08	18.11	23.98	-60.1	-70.8	3.8	7.47e-01	0	33	104	0	88	12857
2026-01-01 22:29:33.08	18.07	24.20	-60.0	-70.7	3.8	7.46e-01	0	33	104	0	88	12716
2026-01-01 22:29:34.08	18.03	24.42	-60.1	-70.8	3.8	7.46e-01	0	33	104	0	88	12816
2026-01-01 22:29:35.09	17.99	24.64	-60.1	-70.7	3.8	7.46e-01	0	33	104	0	88	12739
2026-01-01 22:29:36.08	17.94	24.86	-60.1	-70.8	3.8	7.47e-01	0	33	104	0	88	12870
2026-01-01 22:29:37.08	17.90	25.09	-60.1	-70.7	3.8	7.45e-01	0	33	104	0	88	12777
2026-01-01 22:29:38.08	17.86	25.32	-60.1	-70.8	3.8	7.48e-01	0	33	104	0	88	12833
2026-01-01 22:29:39.08	17.81	25.55	-60.1	-70.8	3.8	7.46e-01	0	33	104	0	88	12835
2026-01-01 22:29:40.08	17.77	25.79	-60.1	-70.8	3.8	7.45e-01	0	33	104	0	88	12915
2026-01-01 22:29:41.08	17.72	26.02	-60.1	-70.8	3.8	7.46e-01	0	33	104	0	88	12849
2026-01-01 22:29:42.08	17.67	26.26	-60.1	-70.8	3.8	7.45e-01	0	33	104	0	88	12874
2026-01-01 22:29:43.07	17.62	26.50	-60.1	-70.8	3.8	7.45e-01	0	33	104	0	88	12871
2026-01-01 22:29:44.07	17.57	26.75	-60.2	-70.9	3.8	7.46e-01	0	33	104	0	88	12976
2026-01-01 22:29:45.07	17.52	26.99	-60.1	-70.8	3.8	7.46e-01	0	33	104	0	88	12840
2026-01-01 22:29:46.07	17.47	27.24	-60.2	-70.8	3.8	7.45e-01	0	33	104	0	88	12912
2026-01-01 22:29:47.07	17.42	27.50	-60.1	-70.8	3.8	7.45e-01	0	33	104	0	88	12947
2026-01-01 22:29:48.07	17.37	27.75	-60.2	-70.9	3.8	7.46e-01	0	33	104	0	88	13046
2026-01-01 22:29:49.08	17.31	28.01	-60.2	-70.9	3.8	7.45e-01	0	33	104	0	88	12965
2026-01-01 22:29:50.08	17.25	28.27	-60.2	-70.8	3.8	7.44e-01	0	33	104	0	88	12951
2026-01-01 22:29:51.09	17.20	28.54	-60.2	-70.9	3.8	7.46e-01	0	33	104	0	88	12963
2026-01-01 22:29:52.09	17.14	28.81	-60.3	-70.9	3.8	7.46e-01	0	33	104	0	88	13076
2026-01-01 22:29:53.09	17.08	29.08	-60.2	-70.9	3.8	7.47e-01	0	33	104	0	88	13007
2026-01-01 22:29:54.08	17.02	29.35	-60.2	-70.9	3.8	7.46e-01	0	33	104	0	88	13049
2026-01-01 22:29:55.08	16.96	29.63	-60.2	-70.9	3.8	7.46e-01	0	33	104	0	88	13048
2026-01-01 22:29:56.08	16.90	29.91	-60.3	-71.0	3.8	7.46e-01	0	33	104	0	88	13111
2026-01-01 22:29:57.08	16.83	30.19	-60.2	-70.9	3.8	7.45e-01	0	33	104	0	88	13014
2026-01-01 22:29:58.08	16.77	30.48	-60.3	-70.9	3.8	7.47e-01	0	33	104	0	88	13108
2026-01-01 22:29:59.09	16.70	30.77	-60.3	-70.9	3.8	7.45e-01	0	33	104	0	88	13079
2026-01-01 22:30:00.10	16.63	31.07	-60.3	-71.0	3.8	7.45e-01	0	33	104	0	88	13150
2026-01-01 22:30:01.10	16.57	31.36	-60.3	-71.0	3.8	7.47e-01	0	33	104	0	88	13154
2026-01-01 22:30:02.10	16.49	31.66	-60.3	-71.0	3.8	7.47e-01	0	33	104	0	88	13121
2026-01-01 22:30:03.09	16.42	31.96	-60.3	-71.0	3.8	7.47e-01	0	33	104	0	88	13123
2026-01-01 22:30:04.09	16.35	32.27	-60.4	-71.0	3.8	7.45e-01	0	33	104	0	88	13214
2026-01-01 22:30:05.09	16.27	32.58	-60.3	-70.9	3.8	7.46e-01	0	33	104	0	88	13102
2026-01-01 22:30:06.09	16.20	32.90	-60.3	-71.0	3.8	7.46e-01	0	33	104	0	88	13207
2026-01-01 22:30:07.09	16.12	33.22	-60.3	-71.0	3.8	7.46e-01	0	33	104	0	88	13174
2026-01-01 22:30:08.10	16.04	33.54	-60.4	-71.0	3.8	7.45e-01	0	33	104	0	88	13234
2026-01-01 22:30:09.10	15.96	33.87	-60.3	-71.0	3.8	7.46e-01	0	33	104	0	88	13197
2026-01-01 22:30:10.10	15.87	34.20	-60.3	-71.0	3.8	7.46e-01	0	33	104	0	88	13217
2026-01-01 22:30:11.10	15.79	34.54	-60.4	-71.0	3.8	7.45e-01	0	33	104	0	88	13254
2026-01-01 22:30:12.11	15.70	34.88	-60.4	-71.0	3.8	7.46e-01	0	33	104	0	88	13234
2026-01-01 22:30:13.11	15.61	35.22	-60.4	-71.0	3.8	7.46e-01	0	33	104	0	88	13204
2026-01-01 22:30:14.11	15.51	35.57	-60.4	-71.1	3.8	7.45e-01	0	33	104	0	88	13296
2026-01-01 22:30:15.10	15.42	35.92	-60.4	-71.0	3.8	7.44e-01	0	33	104	0	88	13259
2026-01-01 22:30:16.10	15.32	36.28	-60.4	-71.1	3.8	7.46e-01	0	33	104	0	88	13351
2026-01-01 22:30:17.10	15.22	36.64	-60.4	-71.0	3.8	7.46e-01	0	33	104	0	88	13235
2026-01-01 22:30:18.10	15.12	37.00	-60.4	-71.1	3.8	7.45e-01	0	33	104	0	88	13274
2026-01-01 22:30:19.10	15.02	37.37	-60.4	-71.1	3.8	7.46e-01	0	33	104	0	88	13335
2026-01-01 22:30:20.09	14.91	37.75	-60.5	-71.1	3.8	7.44e-01	0	33	104	0	88	13396
2026-01-01 22:30:21.08	14.80	38.12	-60.4	-71.1	3.8	7.46e-01	0	33	104	0	88	13343
2026-01-01 22:30:22.08	14.69	38.51	-60.5	-71.1	3.8	7.45e-01	0	33	104	0	88	13359
2026-01-01 22:30:23.07	14.58	38.89	-60.5	-71.2	3.8	7.45e-01	0	33	104	0	88	13441
2026-01-01 22:30:24.08	14.46	39.29	-60.5	-71.2	3.8	7.47e-01	0	33	104	0	89	12683
2026-01-01 22:30:25.08	14.34	39.69	-60.5	-71.1	3.8	7.46e-01	0	33	104	0	89	12653
2026-01-01 22:30:26.08	14.21	40.10	-60.5	-71.2	3.8	7.46e-01	0	33	104	0	89	12727
2026-01-01 22:30:27.07	14.09	40.50	-60.5	-71.2	3.8	7.46e-01	0	33	104	0	89	12709
2026-01-01 22:30:28.07	13.95	40.92	-60.5	-71.2	3.8	7.45e-01	0	33	104	0	89	12795
2026-01-01 22:30:29.07	13.82	41.34	-60.5	-71.2	3.8	7.47e-01	0	33	104	0	89	12715
2026-01-01 22:30:30.07	13.68	41.77	-60.5	-71.2	3.8	7.47e-01	0	33	104	0	89	12721
2026-01-01 22:30:31.06	13.54	42.19	-60.6	-71.2	3.8	7.45e-01	0	33	104	0	89	12766
2026-01-01 22:30:32.05	13.39	42.63	-60.6	-71.2	3.8	7.46e-01	0	33	104	0	89	12809
2026-01-01 22:30:33.04	13.24	43.07	-60.5	-71.2	3.8	7.46e-01	0	33	104	0	89	12719
2026-01-01 22:30:34.04	13.08	43.51	-60.6	-71.2	3.8	7.46e-01	0	33	104	0	89	12772
2026-01-01 22:30:35.04	12.92	43.97	-60.6	-71.3	3.8	7.46e-01	0	33	104	0	89	12880
2026-01-01 22:30:36.04	12.76	44.43	-60.6	-71.3	3.8	7.46e-01	0	33	104	0	89	12855
2026-01-01 22:30:37.04	12.58	44.89	-60.6	-71.2	3.8	7.44e-01	0	33	104	0	89	12741
2026-01-01 22:30:38.03	12.41	45.36	-60.6	-71.3	3.8	7.46e-01	0	33	104	0	89	12844
2026-01-01 22:30:39.04	12.23	45.84	-60.6	-71.3	3.8	7.46e-01	0	33	104	0	89	12874
2026-01-01 22:30:40.03	12.04	46.32	-60.7	-71.3	3.8	7.44e-01	0	33	104	0	89	12947
2026-01-01 22:30:41.03	11.84	46.81	-60.6	-71.2	3.8	7.45e-01	0	33	104	0	89	12798
2026-01-01 22:30:42.03	11.64	47.31	-60.6	-71.3	3.8	7.47e-01	0	33	104	0	89	12897
2026-01-01 22:30:43.03	11.43	47.81	-60.7	-71.4	3.8	7.45e-01	0	33	104	0	89	12966
2026-01-01 22:30:44.02	11.22	48.32	-60.7	-71.3	3.8	7.46e-01	0	33	104	0	89	12924
2026-01-01 22:30:45.03	11.00	48.84	-60.6	-71.3	3.8	7.47e-01	0	33	104	0	89	12908
2026-01-01 22:30:46.03	10.77	49.36	-60.7	-71.4	3.8	7.45e-01	0	33	104	0	89	12978
2026-01-01 22:30:47.03	10.53	49.89	-60.7	-71.4	3.8	7.46e-01	0	33	104	0	89	13017
2026-01-01 22:30:48.03	10.28	50.42	-60.7	-71.4	3.8	7.45e-01	0	33	104	0	89	13012
2026-01-01 22:30:49.03	10.02	50.96	-60.7	-71.4	3.8	7.45e-01	0	33	104	0	89	13006
2026-01-01 22:30:50.03	9.75	51.51	-60.7	-71.4	3.8	7.47e-01	0	33	104	0	89	13026
2026-01-01 22:30:51.03	9.47	52.06	-60.8	-71.4	3.8	7.46e-01	0	33	104	0	89	13055
2026-01-01 22:30:52.03	9.18	52.62	-60.8	-71.4	3.8	7.45e-01	0	33	104	0	89	13077
2026-01-01 22:30:53.03	8.88	53.19	-60.7	-71.4	3.8	7.46e-01	0	33	104	0	89	13028
2026-01-01 22:30:54.03	8.57	53.76	-60.8	-71.4	3.8	7.46e-01	0	33	104	0	89	13018
2026-01-01 22:30:55.03	8.24	54.34	-60.8	-71.5	3.8	7.45e-01	0	33	104	0	89	13146
2026-01-01 22:30:56.03	7.90	54.92	-60.8	-71.5	3.8	7.46e-01	0	34	104	0	89	13160
2026-01-01 22:30:57.02	7.55	55.51	-60.8	-71.4	3.8	7.46e-01	0	33	104	0	89	13067
2026-01-01 22:30:58.02	7.18	56.10	-60.8	-71.5	3.8	7.47e-01	0	33	104	0	89	13116
2026-01-01 22:30:59.02	6.80	56.71	-60.9	-71.5	3.8	7.47e-01	0	33	104	0	89	13230
2026-01-01 22:31:00.02	6.39	57.32	-60.9	-71.5	3.8	7.45e-01	0	33	104	0	89	13246
2026-01-01 22:31:01.02	5.97	57.93	-60.8	-71.5	3.8	7.45e-01	0	33	104	0	89	13157
2026-01-01 22:31:02.02	5.52	58.55	-60.9	-71.5	3.8	7.46e-01	0	33	104	0	89	13208
2026-01-01 22:31:03.02	5.05	59.18	-60.9	-71.6	3.8	7.46e-01	0	33	104	0	89	13304
2026-01-01 22:31:04.01	4.57	59.80	-60.9	-71.6	3.8	7.45e-01	0	33	104	0	89	13318
2026-01-01 22:31:05.01	4.05	60.44	-60.9	-71.5	3.8	7.45e-01	0	33	104	0	89	13239
2026-01-01 22:31:06.01	3.51	61.08	-60.9	-71.6	3.8	7.46e-01	0	33	104	0	89	13288
2026-01-01 22:31:07.01	2.94	61.72	-61.0	-71.6	3.8	7.46e-01	0	33	104	0	89	13344
2026-01-01 22:31:08.01	2.34	62.37	-61.0	-71.6	3.8	7.45e-01	0	33	104	0	89	13318
2026-01-01 22:31:09.00	1.71	63.02	-60.9	-71.6	3.8	7.46e-01	0	33	104	0	89	13288
2026-01-01 22:31:09.99	1.04	63.67	-60.9	-71.6	3.8	7.46e-01	0	33	104	0	89	13361
2026-01-01 22:31:10.99	0.33	64.33	-61.0	-71.6	3.8	7.45e-01	0	33	104	0	89	13413
2026-01-01 22:31:11.99	359.57	64.99	-61.0	-71.6	3.8	7.46e-01	0	33	104	0	89	13369
2026-01-01 22:31:12.99	358.77	65.66	-60.9	-71.6	3.8	7.46e-01	0	33	104	0	89	13310
2026-01-01 22:31:13.98	357.93	66.32	-61.0	-71.7	3.8	7.45e-01	0	33	104	0	89	13418
2026-01-01 22:31:14.98	357.02	66.98	-61.0	-71.7	3.8	7.46e-01	0	33	104	0	90	12748
2026-01-01 22:31:15.98	356.06	67.65	-61.0	-71.7	3.8	7.45e-01	0	33	104	0	90	12707
2026-01-01 22:31:16.98	355.02	68.32	-61.0	-71.7	3.8	7.45e-01	0	33	104	0	90	12703
2026-01-01 22:31:17.97	353.93	68.98	-61.0	-71.7	3.8	7.46e-01	0	33	104	0	90	12690
2026-01-01 22:31:18.97	352.75	69.64	-61.1	-71.7	3.8	7.44e-01	0	33	104	0	90	12805
2026-01-01 22:31:19.97	351.48	70.30	-61.1	-71.7	3.8	7.47e-01	0	33	104	0	90	12736
2026-01-01 22:31:20.97	350.12	70.95	-61.0	-71.7	3.8	7.48e-01	0	33	104	0	90	12731
2026-01-01 22:31:21.96	348.67	71.59	-61.1	-71.7	3.8	7.47e-01	0	33	104	0	90	12806
2026-01-01 22:31:22.96	347.09	72.23	-61.1	-71.8	3.8	7.46e-01	0	33	104	0	90	12830
2026-01-01 22:31:23.95	345.40	72.86	-61.1	-71.8	3.8	7.44e-01	0	33	104	0	90	12832
2026-01-01 22:31:24.95	343.57	73.47	-61.1	-71.7	3.8	7.45e-01	0	33	104	0	90	12769
2026-01-01 22:31:25.95	341.58	74.08	-61.1	-71.8	3.8	7.47e-01	0	33	104	0	90	12853
2026-01-01 22:31:26.95	339.43	74.67	-61.1	-71.8	3.8	7.46e-01	0	33	104	0	90	12849
2026-01-01 22:31:27.94	337.13	75.23	-61.1	-71.8	3.8	7.46e-01	0	33	104	0	90	12905
2026-01-01 22:31:28.94	334.61	75.77	-61.1	-71.7	3.8	7.47e-01	0	34	104	0	90	12720
2026-01-01 22:31:29.94	331.89	76.29	-61.1	-71.8	3.8	7.47e-01	0	33	104	0	90	12869
2026-01-01 22:31:30.93	328.99	76.78	-61.1	-71.8	3.8	7.47e-01	0	33	104	0	90	12875
2026-01-01 22:31:31.93	325.84	77.23	-61.1	-71.8	3.8	7.46e-01	0	33	104	0	90	12852
2026-01-01 22:31:32.93	322.45	77.65	-61.1	-71.8	3.8	7.47e-01	0	33	104	0	90	12831
2026-01-01 22:31:33.93	318.84	78.02	-61.1	-71.8	3.8	7.44e-01	0	33	104	0	90	12892
2026-01-01 22:31:34.93	315.00	78.34	-61.2	-71.8	3.8	7.44e-01	0	33	104	0	90	12927
2026-01-01 22:31:35.93	310.96	78.61	-61.1	-71.8	3.8	7.46e-01	0	33	104	0	90	12867
2026-01-01 22:31:36.93	306.74	78.82	-61.1	-71.7	3.8	7.46e-01	0	34	104	0	90	12810
2026-01-01 22:31:37.93	302.38	78.97	-61.1	-71.8	3.8	7.44e-01	0	33	104	0	90	12856
2026-01-01 22:31:38.93	297.92	79.06	-61.2	-71.8	3.8	7.45e-01	0	33	104	0	90	12922
2026-01-01 22:31:39.92	293.46	79.08	-61.1	-71.8	3.8	7.45e-01	0	33	104	0	90	12870
2026-01-01 22:31:40.92	288.97	79.03	-61.1	-71.8	3.8	7.47e-01	0	33	104	0	90	12821
2026-01-01 22:31:41.91	284.58	78.92	-61.1	-71.8	3.8	7.46e-01	0	33	104	0	90	12848
2026-01-01 22:31:42.91	280.27	78.75	-61.2	-71.8	3.8	7.46e-01	0	33	104	0	90	12910
2026-01-01 22:31:43.90	276.15	78.52	-61.1	-71.8	3.8	7.44e-01	0	33	104	0	90	12904
2026-01-01 22:31:44.91	272.14	78.23	-61.1	-71.7	3.8	7.47e-01	0	33	104	0	90	12797
2026-01-01 22:31:45.91	268.38	77.89	-61.1	-71.8	3.8	7.43e-01	0	33	104	0	90	12933
2026-01-01 22:31:46.91	264.84	77.50	-61.2	-71.8	3.8	7.46e-01	0	33	104	0	90	12923
2026-01-01 22:31:47.90	261.57	77.08	-61.1	-71.8	3.8	7.47e-01	0	33	104	0	90	12885
2026-01-01 22:31:48.90	258.50	76.61	-61.1	-71.7	3.8	7.46e-01	0	33	104	0	90	12781
2026-01-01 22:31:49.90	255.64	76.11	-61.1	-71.8	3.8	7.46e-01	0	33	104	0	90	12852
2026-01-01 22:31:50.89	253.02	75.58	-61.1	-71.8	3.8	7.45e-01	0	33	104	0	90	12934
2026-01-01 22:31:51.89	250.57	75.03	-61.1	-71.8	3.8	7.46e-01	0	33	104	0	90	12867
2026-01-01 22:31:52.89	248.31	74.45	-61.1	-71.7	3.8	7.46e-01	0	33	104	0	90	12689
2026-01-01 22:31:53.89	246.22	73.86	-61.1	-71.8	3.8	7.47e-01	0	33	104	0	90	12848
2026-01-01 22:31:54.88	244.31	73.25	-61.1	-71.7	3.8	7.45e-01	0	33	104	0	90	12802
2026-01-01 22:31:55.88	242.52	72.63	-61.1	-71.8	3.8	7.46e-01	0	33	104	0	90	12915
2026-01-01 22:31:56.89	240.84	71.99	-61.1	-71.7	3.8	7.45e-01	0	33	104	0	90	12745
2026-01-01 22:31:57.88	239.32	71.35	-61.1	-71.8	3.8	7.45e-01	0	33	104	0	90	12842
2026-01-01 22:31:58.88	237.89	70.70	-61.1	-71.8	3.8	7.47e-01	0	33	104	0	90	12820
2026-01-01 22:31:59.88	236.57	70.04	-61.1	-71.8	3.8	7.44e-01	0	33	104	0	90	12830
2026-01-01 22:32:00.88	235.33	69.38	-61.1	-71.7	3.8	7.47e-01	0	33	104	0	90	12732
2026-01-01 22:32:01.88	234.18	68.72	-61.1	-71.7	3.8	7.45e-01	0	33	104	0	90	12805
2026-01-01 22:32:02.88	233.10	68.05	-61.1	-71.7	3.8	7.48e-01	0	33	104	0	90	12773
2026-01-01 22:32:03.88	232.09	67.38	-61.1	-71.8	3.8	7.46e-01	0	33	104	0	90	12812
2026-01-01 22:32:04.87	231.16	66.72	-61.0	-71.6	3.8	7.46e-01	0	33	104	0	90	12661
2026-01-01 22:32:05.87	230.27	66.05	-61.1	-71.7	3.8	7.46e-01	0	33	104	0	90	12764
2026-01-01 22:32:06.87	229.44	65.39	-61.1	-71.8	3.8	7.45e-01	0	33	104	0	90	12842
2026-01-01 22:32:07.87	228.66	64.72	-61.0	-71.7	3.8	7.45e-01	0	33	104	0	90	12736
2026-01-01 22:32:08.87	227.92	64.06	-61.0	-71.7	3.8	7.48e-01	0	33	104	0	90	12775
2026-01-01 22:32:09.87	227.22	63.40	-61.0	-71.7	3.8	7.47e-01	0	33	104	0	90	12763
2026-01-01 22:32:10.87	226.56	62.74	-61.1	-71.7	3.8	7.46e-01	0	34	104	0	90	12762
2026-01-01 22:32:11.87	225.94	62.09	-61.0	-71.7	3.8	7.46e-01	0	33	104	0	90	12698
2026-01-01 22:32:12.86	225.36	61.44	-61.0	-71.6	3.8	7.46e-01	0	33	104	0	90	12632
2026-01-01 22:32:13.86	224.80	60.80	-61.0	-71.7	3.8	7.44e-01	0	34	104	0	90	12670
2026-01-01 22:32:14.87	224.26	60.15	-61.0	-71.7	3.8	7.47e-01	0	33	104	0	90	12677
2026-01-01 22:32:15.87	223.75	59.52	-61.0	-71.6	3.8	7.45e-01	0	33	104	0	90	12635
2026-01-01 22:32:16.87	223.27	58.89	-60.9	-71.6	3.8	7.45e-01	0	33	104	0	90	12595
2026-01-01 22:32:17.87	222.82	58.26	-61.0	-71.6	3.8	7.46e-01	0	33	104	0	90	12627
2026-01-01 22:32:18.87	222.38	57.64	-61.0	-71.7	3.8	7.44e-01	0	33	104	0	90	12665
2026-01-01 22:32:19.87	221.96	57.03	-60.9	-71.6	3.8	7.45e-01	0	33	104	0	90	12625
2026-01-01 22:32:20.87	221.57	56.42	-60.9	-71.5	3.8	7.45e-01	0	33	104	0	90	12512
2026-01-01 22:32:21.87	221.18	55.82	-60.9	-71.5	3.8	7.48e-01	0	33	104	0	90	12511
2026-01-01 22:32:22.87	220.82	55.22	-60.9	-71.6	3.8	7.46e-01	0	33	104	0	90	12564
2026-01-01 22:32:23.87	220.47	54.63	-60.9	-71.6	3.8	7.45e-01	0	33	104	0	90	12588
2026-01-01 22:32:24.87	220.14	54.05	-60.9	-71.5	3.8	7.45e-01	0	33	104	0	90	12463
2026-01-01 22:32:25.87	219.82	53.47	-60.9	-71.5	3.8	7.46e-01	0	33	104	0	90	12491
2026-01-01 22:32:26.87	219.51	52.90	-60.9	-71.6	3.8	7.46e-01	0	33	104	0	90	12534
2026-01-01 22:32:27.86	219.22	52.34	-60.9	-71.5	3.8	7.43e-01	0	33	104	0	90	12465
2026-01-01 22:32:28.86	218.93	51.79	-60.8	-71.5	3.8	7.45e-01	0	33	104	0	90	12418
2026-01-01 22:32:29.86	218.66	51.23	-60.8	-71.5	3.8	7.46e-01	0	33	104	0	90	12478
2026-01-01 22:32:30.86	218.39	50.69	-60.9	-71.5	3.8	7.48e-01	0	33	104	0	90	12441
2026-01-01 22:32:31.85	218.14	50.15	-60.8	-71.5	3.8	7.47e-01	0	33	104	0	90	12476
2026-01-01 22:32:32.84	217.90	49.63	-60.8	-71.4	3.8	7.46e-01	0	34	104	0	90	12338
2026-01-01 22:32:33.84	217.66	49.10	-60.8	-71.4	3.8	7.45e-01	0	33	104	0	90	12366
2026-01-01 22:32:34.83	217.44	48.59	-60.8	-71.5	3.8	7.46e-01	0	33	104	0	90	12437
2026-01-01 22:32:35.84	217.21	48.07	-60.8	-71.4	3.8	7.45e-01	0	33	104	0	90	12354
2026-01-01 22:32:36.83	217.00	47.56	-60.8	-71.4	3.8	7.45e-01	0	33	104	0	90	12315
2026-01-01 22:32:37.84	216.80	47.06	-60.8	-71.4	3.8	7.45e-01	0	33	104	0	90	12332
2026-01-01 22:32:38.84	216.60	46.56	-60.8	-71.4	3.8	7.46e-01	0	33	104	0	90	12364
2026-01-01 22:32:39.83	216.41	46.08	-60.8	-71.4	3.8	7.46e-01	0	33	104	0	90	12353
2026-01-01 22:32:40.83	216.22	45.59	-60.7	-71.4	3.8	7.44e-01	0	33	104	0	90	12285
2026-01-01 22:32:41.83	216.04	45.12	-60.7	-71.4	3.8	7.45e-01	0	33	104	0	90	12251
2026-01-01 22:32:42.82	215.87	44.65	-60.7	-71.4	3.8	7.46e-01	0	33	104	0	90	12311
2026-01-01 22:32:43.82	215.70	44.19	-60.7	-71.4	3.8	7.45e-01	0	33	104	0	90	12270
2026-01-01 22:32:44.82	215.53	43.73	-60.7	-71.3	3.8	7.47e-01	0	34	104	0	90	12189
2026-01-01 22:32:45.83	215.37	43.27	-60.7	-71.4	3.8	7.45e-01	0	33	104	0	90	12252
2026-01-01 22:32:46.82	215.22	42.83	-60.7	-71.4	3.8	7.45e-01	0	33	104	0	90	12240
2026-01-01 22:32:47.82	215.07	42.38	-60.7	-71.3	3.8	7.47e-01	0	33	104	0	90	12203
2026-01-01 22:32:48.82	214.92	41.95	-60.6	-71.3	3.8	7.46e-01	0	33	104	0	90	12166
2026-01-01 22:32:49.82	214.78	41.52	-60.6	-71.3	3.8	7.47e-01	0	33	104	0	90	12157
2026-01-01 22:32:50.81	214.64	41.10	-60.7	-71.4	3.8	7.44e-01	0	33	104	0	90	12267
2026-01-01 22:32:51.80	214.51	40.68	-60.7	-71.3	3.8	7.44e-01	0	33	104	0	90	12176
2026-01-01 22:32:52.80	214.38	40.27	-60.6	-71.3	3.8	7.46e-01	0	33	104	0	90	12098
2026-01-01 22:32:53.80	214.25	39.86	-60.6	-71.3	3.8	7.46e-01	0	33	104	0	90	12100
2026-01-01 22:32:54.79	214.13	39.46	-60.6	-71.3	3.8	7.45e-01	0	33	104	0	90	12102
2026-01-01 22:32:55.80	214.01	39.05	-60.6	-71.3	3.8	7.46e-01	0	33	104	0	90	12141
2026-01-01 22:32:56.79	213.89	38.66	-60.6	-71.3	3.8	7.46e-01	0	33	104	0	90	12104
2026-01-01 22:32:57.79	213.78	38.28	-60.6	-71.2	3.8	7.45e-01	0	33	104	0	90	12082
2026-01-01 22:32:58.79	213.67	37.89	-60.6	-71.2	3.8	7.46e-01	0	33	104	0	90	12066
2026-01-01 22:32:59.79	213.56	37.51	-60.6	-71.2	3.8	7.46e-01	0	33	104	0	90	12076
2026-01-01 22:33:00.79	213.45	37.14	-60.5	-71.2	3.8	7.44e-01	0	33	104	0	90	12043
2026-01-01 22:33:01.79	213.35	36.77	-60.5	-71.2	3.8	7.46e-01	0	33	104	0	90	12035
2026-01-01 22:33:02.79	213.25	36.40	-60.5	-71.2	3.8	7.45e-01	0	33	104	0	90	12049
2026-01-01 22:33:03.79	213.15	36.04	-60.5	-71.2	3.8	7.46e-01	0	34	104	0	90	11997
2026-01-01 22:33:04.79	213.05	35.69	-60.5	-71.2	3.8	7.44e-01	0	33	104	0	90	12012
2026-01-01 22:33:05.80	212.96	35.33	-60.5	-71.2	3.8	7.46e-01	0	33	104	0	90	11993
2026-01-01 22:33:06.79	212.87	34.99	-60.5	-71.2	3.8	7.46e-01	0	33	104	0	90	12008
2026-01-01 22:33:07.78	212.78	34.65	-60.5	-71.1	3.8	7.47e-01	0	33	104	0	90	11945
2026-01-01 22:33:08.77	212.69	34.31	-60.4	-71.1	3.8	7.45e-01	0	33	104	0	90	11941
2026-01-01 22:33:09.78	212.61	33.98	-60.4	-71.1	3.8	7.46e-01	0	33	104	0	90	11828
2026-01-01 22:33:10.77	212.52	33.65	-60.5	-71.1	3.8	7.45e-01	0	33	104	0	90	11930
2026-01-01 22:33:11.77	212.44	33.32	-60.5	-71.1	3.8	7.45e-01	0	33	104	0	90	11912
2026-01-01 22:33:12.77	212.36	33.00	-60.4	-71.1	3.8	7.46e-01	0	33	104	0	90	11859
2026-01-01 22:33:13.77	212.28	32.68	-60.4	-71.1	3.8	7.47e-01	0	33	104	0	90	11829
2026-01-01 22:33:14.78	212.21	32.37	-60.4	-71.1	3.8	7.46e-01	0	33	104	0	90	11911
2026-01-01 22:33:15.78	212.13	32.05	-60.4	-71.1	3.8	7.44e-01	0	33	104	0	90	11862
2026-01-01 22:33:16.78	212.06	31.75	-60.4	-71.0	3.8	7.46e-01	0	34	104	0	90	11812
2026-01-01 22:33:17.78	211.99	31.44	-60.4	-71.0	3.8	7.46e-01	0	33	104	0	90	11815
2026-01-01 22:33:18.79	211.92	31.14	-60.4	-71.0	3.8	7.47e-01	0	33	104	0	90	11804
2026-01-01 22:33:19.79	211.85	30.85	-60.4	-71.1	3.8	7.46e-01	0	34	104	0	90	11836
2026-01-01 22:33:20.79	211.78	30.55	-60.4	-71.0	3.8	7.44e-01	0	33	104	0	90	11809
2026-01-01 22:33:21.79	211.71	30.26	-60.3	-71.0	3.8	7.48e-01	0	33	104	0	90	11766
2026-01-01 22:33:22.79	211.65	29.98	-60.4	-71.0	3.8	7.46e-01	0	33	104	0	90	11788
2026-01-01 22:33:23.79	211.59	29.70	-60.4	-71.0	3.8	7.46e-01	0	33	104	0	90	11761
2026-01-01 22:33:24.78	211.53	29.42	-60.3	-71.0	3.8	7.46e-01	0	33	104	0	90	11723
2026-01-01 22:33:25.78	211.46	29.14	-60.3	-71.0	3.8	7.45e-01	0	33	104	0	90	11697
2026-01-01 22:33:26.77	211.41	28.87	-60.3	-71.0	3.8	7.46e-01	0	33	104	0	90	11684
2026-01-01 22:33:27.76	211.35	28.61	-60.3	-71.0	3.8	7.47e-01	0	33	104	0	90	11697
2026-01-01 22:33:28.76	211.29	28.34	-60.3	-70.9	3.8	7.46e-01	0	33	104	0	90	11663
2026-01-01 22:33:29.76	211.23	28.07	-60.3	-70.9	3.8	7.45e-01	0	33	104	0	89	12290
2026-01-01 22:33:30.76	211.18	27.81	-60.3	-71.0	3.8	7.45e-01	0	33	104	0	89	12379
2026-01-01 22:33:31.76	211.12	27.56	-60.3	-70.9	3.8	7.47e-01	0	33	104	0	89	12355
2026-01-01 22:33:32.76	211.07	27.30	-60.2	-70.9	3.8	7.47e-01	0	33	104	0	89	12284
2026-01-01 22:33:33.76	211.02	27.05	-60.2	-70.9	3.8	7.46e-01	0	34	104	0	89	12299
2026-01-01 22:33:34.75	210.97	26.80	-60.2	-70.9	3.8	7.47e-01	0	34	104	0	89	12297
2026-01-01 22:33:35.74	210.92	26.56	-60.2	-70.9	3.8	7.46e-01	0	33	104	0	89	12288
2026-01-01 22:33:36.74	210.87	26.31	-60.2	-70.9	3.8	7.46e-01	0	33	104	0	89	12316
2026-01-01 22:33:37.74	210.82	26.07	-60.2	-70.9	3.8	7.46e-01	0	33	104	0	89	12235
2026-01-01 22:33:38.74	210.77	25.83	-60.2	-70.8	3.8	7.46e-01	0	33	104	0	89	12223
2026-01-01 22:33:39.73	210.73	25.60	-60.2	-70.9	3.8	7.46e-01	0	33	104	0	89	12274
2026-01-01 22:33:40.73	210.68	25.36	-60.2	-70.9	3.8	7.47e-01	0	34	104	0	89	12240
2026-01-01 22:33:41.72	210.63	25.14	-60.2	-70.8	3.8	7.45e-01	0	33	104	0	89	12178
2026-01-01 22:33:42.71	210.59	24.91	-60.2	-70.8	3.8	7.46e-01	0	33	104	0	89	12167
2026-01-01 22:33:43.70	210.55	24.68	-60.2	-70.9	3.8	7.45e-01	0	33	104	0	89	12237
2026-01-01 22:33:44.70	210.50	24.46	-60.1	-70.8	3.8	7.45e-01	0	33	104	0	89	12142
2026-01-01 22:33:45.69	210.46	24.24	-60.1	-70.8	3.8	7.48e-01	0	33	104	0	89	12153
2026-01-01 22:33:46.69	210.42	24.02	-60.1	-70.8	3.8	7.47e-01	0	33	104	0	89	12184
2026-01-01 22:33:47.70	210.38	23.80	-60.1	-70.8	3.8	7.46e-01	0	33	104	0	89	12135
2026-01-01 22:33:48.69	210.34	23.59	-60.1	-70.8	3.8	7.45e-01	0	33	104	0	89	12096
2026-01-01 22:33:49.69	210.30	23.37	-60.1	-70.8	3.8	7.46e-01	0	33	104	0	89	12100
2026-01-01 22:33:50.69	210.26	23.16	-60.1	-70.8	3.8	7.45e-01	0	33	104	0	89	12102
2026-01-01 22:33:51.68	210.22	22.96	-60.1	-70.7	3.8	7.46e-01	0	34	104	0	89	12039
2026-01-01 22:33:52.68	210.19	22.75	-60.1	-70.7	3.8	7.45e-01	0	33	104	0	89	12017
2026-01-01 22:33:53.68	210.15	22.54	-60.0	-70.7	3.8	7.44e-01	0	33	104	0	89	11984
2026-01-01 22:33:54.68	210.11	22.34	-60.0	-70.7	3.8	7.46e-01	0	33	104	0	89	12013
2026-01-01 22:33:55.68	210.08	22.14	-60.1	-70.7	3.8	7.46e-01	0	33	104	0	89	12026
2026-01-01 22:33:56.68	210.04	21.94	-60.0	-70.7	3.8	7.45e-01	0	33	104	0	89	11999
2026-01-01 22:33:57.69	210.01	21.74	-60.0	-70.7	3.8	7.44e-01	0	33	104	0	89	11961
2026-01-01 22:33:58.69	209.97	21.55	-60.0	-70.7	3.8	7.47e-01	0	33	104	0	89	12007
2026-01-01 22:33:59.70	209.94	21.35	-60.0	-70.7	3.8	7.45e-01	0	33	104	0	89	11968
2026-01-01 22:34:00.69	209.91	21.16	-60.0	-70.6	3.8	7.47e-01	0	34	104	0	89	11891
2026-01-01 22:34:01.69	209.87	20.97	-60.0	-70.6	3.8	7.44e-01	0	33	104	0	89	11893
2026-01-01 22:34:02.69	209.84	20.79	-60.0	-70.6	3.8	7.46e-01	0	33	104	0	89	11926
2026-01-01 22:34:03.69	209.81	20.60	-60.0	-70.6	3.8	7.46e-01	0	33	104	0	89	11951
2026-01-01 22:34:04.69	209.78	20.42	-60.0	-70.7	3.8	7.45e-01	0	33	104	0	89	11970
2026-01-01 22:34:05.69	209.75	20.23	-59.9	-70.6	3.8	7.45e-01	0	33	104	0	89	11901
2026-01-01 22:34:06.69	209.72	20.05	-60.0	-70.6	3.8	7.46e-01	0	33	104	0	89	11907
2026-01-01 22:34:07.69	209.69	19.87	-60.0	-70.6	3.8	7.44e-01	0	33	104	0	89	11911
2026-01-01 22:34:08.68	209.66	19.70	-59.9	-70.6	3.8	7.46e-01	0	33	104	0	89	11884
2026-01-01 22:34:09.69	209.63	19.52	-59.9	-70.6	3.8	7.46e-01	0	34	104	0	89	11847
2026-01-01 22:34:10.67	209.60	19.35	-59.9	-70.6	3.8	7.45e-01	0	33	104	0	89	11866
2026-01-01 22:34:11.67	209.57	19.17	-59.9	-70.6	3.8	7.46e-01	0	33	104	0	89	11858
2026-01-01 22:34:12.67	209.54	19.00	-59.9	-70.6	3.8	7.46e-01	0	33	104	0	89	11819
2026-01-01 22:34:13.68	209.52	18.83	-59.9	-70.6	3.8	7.45e-01	0	34	104	0	89	11820
2026-01-01 22:34:14.68	209.49	18.66	-59.9	-70.6	3.8	7.46e-01	0	33	104	0	89	11855
2026-01-01 22:34:15.68	209.46	18.49	-59.9	-70.5	3.8	7.45e-01	0	34	104	0	89	11811
2026-01-01 22:34:16.68	209.44	18.33	-59.9	-70.5	3.8	7.46e-01	0	33	104	0	89	11753
2026-01-01 22:34:17.68	209.41	18.16	-59.8	-70.4	3.8	7.46e-01	0	33	104	0	89	11664
2026-01-01 22:34:18.69	209.39	18.00	-59.8	-70.5	3.8	7.45e-01	0	33	104	0	89	11746
2026-01-01 22:34:19.69	209.36	17.84	-59.8	-70.5	3.8	7.46e-01	0	33	104	0	88	12477
2026-01-01 22:34:20.69	209.34	17.68	-59.9	-70.5	3.8	7.44e-01	0	33	104	0	88	12464
2026-01-01 22:34:21.69	209.31	17.52	-59.8	-70.5	3.8	7.44e-01	0	33	104	0	88	12437
2026-01-01 22:34:22.69	209.29	17.36	-59.8	-70.5	3.8	7.46e-01	0	33	104	0	88	12448
2026-01-01 22:34:23.69	209.27	17.20	-59.8	-70.5	3.8	7.47e-01	0	33	104	0	88	12455
2026-01-01 22:34:24.69	209.24	17.05	-59.8	-70.5	3.8	7.46e-01	0	34	104	0	88	12478
2026-01-01 22:34:25.69	209.22	16.90	-59.8	-70.5	3.8	7.44e-01	0	33	104	0	88	12429
2026-01-01 22:34:26.69	209.20	16.74	-59.8	-70.5	3.8	7.47e-01	0	33	104	0	88	12472
2026-01-01 22:34:27.68	209.17	16.59	-59.8	-70.5	3.8	7.47e-01	0	33	104	0	88	12405
2026-01-01 22:34:28.68	209.15	16.44	-59.8	-70.5	3.8	7.46e-01	0	34	104	0	88	12438
2026-01-01 22:34:29.68	209.13	16.29	-59.8	-70.5	3.8	7.45e-01	0	33	104	0	88	12385
2026-01-01 22:34:30.68	209.11	16.15	-59.8	-70.4	3.8	7.45e-01	0	33	104	0	88	12349
2026-01-01 22:34:31.68	209.09	16.00	-59.7	-70.4	3.8	7.46e-01	0	33	104	0	88	12338
2026-01-01 22:34:32.68	209.07	15.85	-59.8	-70.4	3.8	7.46e-01	0	33	104	0	88	12342
2026-01-01 22:34:33.67	209.05	15.71	-59.8	-70.4	3.8	7.47e-01	0	33	104	0	88	12333
2026-01-01 22:34:34.67	209.03	15.57	-59.7	-70.4	3.8	7.47e-01	0	34	104	0	88	12293
2026-01-01 22:34:35.68	209.01	15.42	-59.7	-70.4	3.8	7.46e-01	0	33	104	0	88	12308
2026-01-01 22:34:36.68	208.99	15.28	-59.7	-70.4	3.8	7.45e-01	0	33	104	0	88	12344
2026-01-01 22:34:37.68	208.97	15.14	-59.7	-70.4	3.9	7.47e-01	0	33	104	0	88	12296
2026-01-01 22:34:38.67	208.95	15.00	-59.7	-70.4	3.8	7.45e-01	0	33	104	0	88	12251
2026-01-01 22:34:39.66	208.93	14.87	-59.7	-70.4	3.8	7.46e-01	0	33	104	0	88	12238
2026-01-01 22:34:40.66	208.91	14.73	-59.7	-70.4	3.8	7.45e-01	0	33	104	0	88	12259
2026-01-01 22:34:41.66	208.89	14.59	-59.7	-70.3	3.8	7.47e-01	0	33	104	0	88	12229
2026-01-01 22:34:42.66	208.87	14.46	-59.7	-70.4	3.8	7.45e-01	0	33	104	0	88	12238
2026-01-01 22:34:43.65	208.85	14.33	-59.7	-70.3	3.8	7.44e-01	0	34	104	0	88	12225
2026-01-01 22:34:44.65	208.84	14.19	-59.7	-70.3	3.8	7.46e-01	0	33	104	0	88	12224
2026-01-01 22:34:45.65	208.82	14.06	-59.7	-70.3	3.8	7.47e-01	0	33	104	0	88	12212
2026-01-01 22:34:46.65	208.80	13.93	-59.6	-70.3	3.8	7.45e-01	0	33	104	0	88	12199
2026-01-01 22:34:47.66	208.78	13.80	-59.6	-70.3	3.8	7.45e-01	0	33	104	0	88	12189
2026-01-01 22:34:48.65	208.77	13.67	-59.6	-70.3	3.8	7.46e-01	0	33	104	0	88	12188
2026-01-01 22:34:49.65	208.75	13.54	-59.6	-70.3	3.8	7.45e-01	0	33	104	0	88	12183
2026-01-01 22:34:50.64	208.73	13.42	-59.6	-70.3	3.8	7.45e-01	0	33	104	0	88	12125
2026-01-01 22:34:51.64	208.72	13.29	-59.6	-70.3	3.8	7.45e-01	0	33	104	0	88	12148
2026-01-01 22:34:52.63	208.70	13.16	-59.6	-70.3	3.8	7.44e-01	0	33	104	0	88	12133
2026-01-01 22:34:53.63	208.69	13.04	-59.6	-70.2	3.8	7.45e-01	0	33	104	0	88	12064
2026-01-01 22:34:54.63	208.67	12.91	-59.6	-70.2	3.8	7.45e-01	0	33	104	0	88	12047
2026-01-01 22:34:55.63	208.65	12.79	-59.6	-70.3	3.8	7.46e-01	0	34	104	0	88	12103
2026-01-01 22:34:56.63	208.64	12.67	-59.6	-70.3	3.8	7.46e-01	0	33	104	0	88	12111
2026-01-01 22:34:57.63	208.62	12.55	-59.6	-70.2	3.8	7.44e-01	0	33	104	0	88	12050
2026-01-01 22:34:58.62	208.61	12.43	-59.5	-70.2	3.8	7.47e-01	0	33	104	0	88	11975
2026-01-01 22:34:59.62	208.59	12.31	-59.5	-70.2	3.8	7.46e-01	0	33	104	0	88	12012
2026-01-01 22:35:00.62	208.58	12.19	-59.6	-70.2	3.8	7.44e-01	0	34	104	0	87	12773
2026-01-01 22:35:01.62	208.56	12.07	-59.5	-70.2	3.8	7.46e-01	0	33	104	0	87	12695
2026-01-01 22:35:02.62	208.55	11.95	-59.5	-70.2	3.8	7.46e-01	0	33	104	0	87	12696
2026-01-01 22:35:03.62	208.54	11.83	-59.5	-70.1	3.8	7.47e-01	0	33	104	0	87	12628
2026-01-01 22:35:04.61	208.52	11.72	-59.5	-70.2	3.8	7.45e-01	0	33	104	0	87	12678
2026-01-01 22:35:05.61	208.51	11.60	-59.4	-70.1	3.8	7.46e-01	0	33	104	0	87	12610
2026-01-01 22:35:06.61	208.50	11.49	-59.4	-70.1	3.8	7.47e-01	0	33	104	0	87	12589
2026-01-01 22:35:07.61	208.48	11.37	-59.4	-70.1	3.8	7.46e-01	0	33	104	0	87	12618
2026-01-01 22:35:08.62	208.47	11.26	-59.5	-70.1	3.8	7.44e-01	0	34	104	0	87	12645
2026-01-01 22:35:09.62	208.46	11.15	-59.4	-70.1	3.8	7.44e-01	0	34	104	0	87	12595
2026-01-01 22:35:10.61	208.44	11.03	-59.4	-70.1	3.8	7.44e-01	0	33	104	0	87	12564
2026-01-01 22:35:11.60	208.43	10.92	-59.4	-70.1	3.8	7.44e-01	0	34	104	0	86	13314
2026-01-01 22:35:12.60	208.42	10.81	-59.4	-70.1	3.8	7.45e-01	0	33	104	0	86	13360
2026-01-01 22:35:13.60	208.40	10.70	-59.4	-70.1	3.8	7.45e-01	0	33	104	0	86	13330
2026-01-01 22:35:14.59	208.39	10.60	-59.4	-70.1	3.8	7.45e-01	0	33	104	0	86	13331
2026-01-01 22:35:15.59	208.38	10.49	-59.4	-70.0	3.8	7.47e-01	0	33	104	0	86	13259
2026-01-01 22:35:16.58	208.37	10.38	-59.4	-70.0	3.8	7.43e-01	0	33	104	0	86	13260
2026-01-01 22:35:17.58	208.36	10.27	-59.4	-70.0	3.8	7.45e-01	0	33	104	0	86	13240
2026-01-01 22:35:18.58	208.34	10.16	-59.4	-70.1	3.8	7.46e-01	0	33	104	0	86	13268
2026-01-01 22:35:19.58	208.33	10.06	-59.3	-70.0	3.8	7.46e-01	0	33	104	0	86	13185
2026-01-01 22:35:20.58	208.32	9.95	-59.4	-70.1	3.8	7.47e-01	0	33	104	0	86	13292
2026-01-01 22:35:21.58	208.31	9.85	-59.4	-70.0	3.8	7.43e-01	0	33	104	0	86	13215
2026-01-01 22:35:22.58	208.30	9.74	-59.3	-70.0	3.8	7.46e-01	0	33	104	0	86	13210
2026-01-01 22:35:23.58	208.29	9.64	-59.3	-70.0	3.8	7.44e-01	0	33	104	0	86	13160
2026-01-01 22:35:24.59	208.28	9.53	-59.3	-70.0	3.8	7.46e-01	0	33	104	0	86	13203
2026-01-01 22:35:25.59	208.26	9.43	-59.3	-70.0	3.8	7.45e-01	0	33	104	0	86	13184
2026-01-01 22:35:26.59	208.25	9.33	-59.3	-70.0	3.8	7.45e-01	0	34	104	0	86	13123
2026-01-01 22:35:27.59	208.24	9.23	-59.2	-69.9	3.8	7.47e-01	0	34	104	0	86	13030
2026-01-01 22:35:28.59	208.23	9.13	-59.3	-70.0	3.8	7.47e-01	0	34	104	0	86	13168
2026-01-01 22:35:29.59	208.22	9.03	-59.3	-69.9	3.8	7.47e-01	0	33	104	0	86	13095
2026-01-01 22:35:30.59	208.21	8.93	-59.2	-69.9	3.8	7.46e-01	0	33	104	0	86	13050
2026-01-01 22:35:31.59	208.20	8.83	-59.2	-69.9	3.8	7.45e-01	0	33	104	0	86	13009
2026-01-01 22:35:32.59	208.19	8.73	-59.2	-69.9	3.8	7.45e-01	0	33	104	0	86	13089
2026-01-01 22:35:33.58	208.18	8.63	-59.2	-69.9	3.8	7.47e-01	0	34	104	0	86	13051
2026-01-01 22:35:34.58	208.17	8.53	-59.2	-69.9	3.8	7.45e-01	0	33	104	0	86	12982
2026-01-01 22:35:35.58	208.16	8.43	-59.1	-69.8	3.8	7.46e-01	0	33	104	0	86	12913
2026-01-01 22:35:36.58	208.15	8.34	-59.2	-69.9	3.8	7.45e-01	0	33	104	0	86	12972
2026-01-01 22:35:37.58	208.14	8.24	-59.2	-69.8	3.8	7.47e-01	0	33	104	0	86	12935
2026-01-01 22:35:38.58	208.13	8.14	-59.1	-69.8	3.8	7.45e-01	0	33	104	0	86	12884
2026-01-01 22:35:39.56	208.12	8.05	-59.1	-69.8	3.8	7.43e-01	0	33	104	0	86	12831
2026-01-01 22:35:40.56	208.12	7.96	-59.2	-69.8	3.8	7.45e-01	0	33	104	0	86	12929
2026-01-01 22:35:41.56	208.11	7.86	-59.1	-69.8	3.8	7.47e-01	0	33	104	0	86	12946
2026-01-01 22:35:42.55	208.10	7.77	-59.1	-69.8	3.8	7.45e-01	0	33	104	0	86	12812
2026-01-01 22:35:43.55	208.09	7.67	-59.0	-69.7	3.8	7.45e-01	0	33	104	0	86	12786
2026-01-01 22:35:44.54	208.08	7.58	-59.1	-69.8	3.8	7.46e-01	0	33	104	0	86	12854
2026-01-01 22:35:45.54	208.07	7.49	-59.1	-69.7	3.8	7.44e-01	0	33	104	0	86	12810
2026-01-01 22:35:46.53	208.06	7.40	-59.0	-69.7	3.8	7.45e-01	0	33	104	0	86	12800
2026-01-01 22:35:47.53	208.05	7.31	-59.0	-69.7	3.8	7.44e-01	0	34	104	0	86	12702
2026-01-01 22:35:48.53	208.05	7.22	-59.1	-69.7	3.8	7.46e-01	0	33	104	0	86	12763
2026-01-01 22:35:49.53	208.04	7.12	-59.0	-69.8	3.8	7.45e-01	0	33	104	0	86	12829
2026-01-01 22:35:50.52	208.03	7.03	-59.0	-69.7	3.8	7.46e-01	0	33	104	0	86	12689
2026-01-01 22:35:51.51	208.02	6.95	-58.9	-69.6	3.8	7.45e-01	0	33	104	0	86	12633
2026-01-01 22:35:52.51	208.01	6.86	-59.0	-69.7	3.8	7.45e-01	0	33	104	0	86	12719
2026-01-01 22:35:53.51	208.00	6.77	-59.0	-69.7	3.8	7.45e-01	0	34	104	0	86	12694
2026-01-01 22:35:54.51	208.00	6.68	-59.0	-69.6	3.8	7.44e-01	0	33	104	0	86	12617
2026-01-01 22:35:55.50	207.99	6.59	-58.9	-69.5	3.8	7.46e-01	0	33	104	0	86	12497
2026-01-01 22:35:56.50	207.98	6.50	-59.0	-69.6	3.8	7.46e-01	0	33	104	0	86	12659
2026-01-01 22:35:57.50	207.97	6.41	-59.0	-69.6	3.8	7.44e-01	0	33	104	0	86	12628
2026-01-01 22:35:58.49	207.97	6.33	-58.9	-69.6	3.8	7.46e-01	0	33	104	0	86	12589
2026-01-01 22:35:59.50	207.96	6.24	-58.8	-69.5	3.8	7.44e-01	0	34	104	0	86	12433
2026-01-01 22:36:00.49	207.95	6.16	-58.9	-69.6	3.8	7.47e-01	0	33	104	0	86	12547
2026-01-01 22:36:01.49	207.94	6.07	-58.9	-69.6	3.8	7.46e-01	0	34	104	0	86	12582
2026-01-01 22:36:02.49	207.94	5.98	-58.8	-69.5	3.8	7.47e-01	0	34	104	0	86	12438
2026-01-01 22:36:03.48	207.93	5.90	-58.8	-69.4	3.8	7.44e-01	0	33	104	0	86	12352
2026-01-01 22:36:04.48	207.92	5.81	-58.8	-69.5	3.8	7.46e-01	0	34	104	0	86	12461
2026-01-01 22:36:05.47	207.92	5.73	-58.9	-69.5	3.8	7.45e-01	0	34	104	0	86	12479
2026-01-01 22:36:06.47	207.91	5.65	-58.8	-69.5	3.8	7.48e-01	0	33	104	0	86	12378
2026-01-01 22:36:07.47	207.90	5.56	-58.7	-69.4	3.8	7.44e-01	0	34	104	0	86	12253
2026-01-01 22:36:08.48	207.90	5.48	-58.8	-69.5	3.8	7.47e-01	0	34	104	0	86	12378
2026-01-01 22:36:09.48	207.89	5.40	-58.8	-69.5	3.8	7.45e-01	0	33	104	0	86	12418
2026-01-01 22:36:10.48	207.88	5.31	-58.7	-69.4	3.8	7.44e-01	0	33	104	0	86	12262
2026-01-01 22:36:11.47	207.88	5.23	-58.6	-69.3	3.8	7.46e-01	0	33	104	0	86	12186
2026-01-01 22:36:12.47	207.87	5.15	-58.7	-69.4	3.8	7.45e-01	0	33	104	0	85	12975
2026-01-01 22:36:13.47	207.86	5.07	-58.7	-69.4	3.8	7.46e-01	0	33	104	0	85	13001
2026-01-01 22:36:14.47	207.86	4.99	-58.7	-69.4	3.8	7.44e-01	0	33	104	0	85	13043
2026-01-01 22:36:15.46	207.85	4.91	-59.3	-70.0	3.8	7.47e-01	0	33	104	0	86	13201
2026-01-01 22:36:16.45	207.84	4.83	-59.7	-70.3	3.8	7.45e-01	0	33	104	0	87	12954
2026-01-01 22:36:17.46	207.84	4.74	-60.0	-70.6	3.8	7.45e-01	0	33	104	0	87	13397
2026-01-01 22:36:18.46	207.83	4.66	-60.2	-70.8	3.8	7.44e-01	0	33	104	0	88	12946
2026-01-01 22:36:19.45	207.83	4.59	-60.3	-71.0	3.8	7.45e-01	0	33	104	0	88	13173
2026-01-01 22:36:20.45	207.82	4.51	-60.4	-71.1	3.8	7.45e-01	0	33	104	0	88	13377
2026-01-01 22:36:21.45	207.81	4.43	-60.5	-71.1	3.8	7.44e-01	0	34	104	0	89	12645
2026-01-01 22:36:22.44	207.81	4.35	-60.6	-71.3	3.8	7.45e-01	0	33	104	0	89	12840
2026-01-01 22:36:23.44	207.80	4.27	-60.7	-71.4	3.8	7.46e-01	0	33	104	0	89	12993
2026-01-01 22:36:24.45	207.80	4.19	-60.8	-71.4	3.8	7.46e-01	0	33	104	0	89	13090
2026-01-01 22:36:25.44	207.79	4.11	-60.8	-71.5	3.8	7.46e-01	0	33	104	0	89	13196
2026-01-01 22:36:26.44	207.79	4.04	-60.9	-71.5	3.8	7.46e-01	0	33	104	0	89	13260
2026-01-01 22:36:27.44	207.78	3.96	-61.0	-71.6	3.8	7.46e-01	0	33	104	0	89	13353
2026-01-01 22:36:28.45	207.77	3.88	-61.0	-71.7	3.8	7.45e-01	0	33	104	0	89	13421
2026-01-01 22:36:29.45	207.77	3.80	-61.1	-71.7	3.8	7.47e-01	0	34	104	0	90	12781
2026-01-01 22:36:30.46	207.76	3.73	-61.1	-71.7	3.8	7.45e-01	0	33	104	0	90	12799
2026-01-01 22:36:31.45	207.76	3.65	-61.1	-71.8	3.8	7.44e-01	0	34	104	0	90	12864
2026-01-01 22:36:32.46	207.75	3.58	-61.2	-71.8	3.8	7.46e-01	0	33	104	0	90	12918
2026-01-01 22:36:33.45	207.75	3.50	-61.2	-71.9	3.8	7.46e-01	0	33	104	0	90	12990
2026-01-01 22:36:34.46	207.74	3.42	-61.3	-71.9	3.8	7.44e-01	0	33	104	0	90	13067
2026-01-01 22:36:35.46	207.74	3.35	-61.3	-71.9	3.8	7.46e-01	0	33	104	0	90	13088
2026-01-01 22:36:36.46	207.73	3.27	-61.3	-72.0	3.8	7.46e-01	0	34	104	0	90	13146
2026-01-01 22:36:37.45	207.73	3.20	-61.3	-72.0	3.8	7.47e-01	0	33	104	0	90	13181
2026-01-01 22:36:38.45	207.72	3.13	-61.3	-71.9	3.8	7.46e-01	0	34	104	0	90	13109
2026-01-01 22:36:39.43	207.72	3.05	-61.3	-71.9	3.8	7.46e-01	0	33	104	0	90	13068
2026-01-01 22:36:40.43	207.71	2.98	-61.3	-71.9	3.8	7.47e-01	0	33	104	0	90	13063
2026-01-01 22:36:41.43	207.71	2.91	-61.2	-71.9	3.8	7.45e-01	0	33	104	0	90	13083
2026-01-01 22:36:42.42	207.70	2.83	-61.2	-71.9	3.8	7.46e-01	0	33	104	0	90	13023
2026-01-01 22:36:43.42	207.70	2.76	-61.2	-71.9	3.8	7.45e-01	0	33	104	0	90	13034
2026-01-01 22:36:44.42	207.70	2.69	-61.2	-71.9	3.8	7.46e-01	0	33	104	0	90	12988
2026-01-01 22:36:45.42	207.69	2.62	-61.2	-71.8	3.8	7.47e-01	0	33	104	0	90	12953
2026-01-01 22:36:46.42	207.69	2.54	-61.2	-71.8	3.8	7.44e-01	0	34	104	0	90	12908
2026-01-01 22:36:47.42	207.68	2.47	-61.2	-71.8	3.8	7.45e-01	0	33	104	0	90	12904
2026-01-01 22:36:48.42	207.68	2.40	-61.2	-71.8	3.8	7.47e-01	0	33	104	0	90	12886
2026-01-01 22:36:49.41	207.67	2.33	-61.1	-71.8	3.8	7.45e-01	0	34	104	0	90	12868
2026-01-01 22:36:50.41	207.67	2.26	-61.1	-71.8	3.8	7.46e-01	0	33	104	0	90	12818
2026-01-01 22:36:51.41	207.66	2.19	-61.1	-71.7	3.8	7.46e-01	0	33	104	0	90	12789
2026-01-01 22:36:52.41	207.66	2.12	-61.1	-71.8	3.8	7.44e-01	0	33	104	0	90	12841
2026-01-01 22:36:53.42	207.66	2.05	-61.1	-71.7	3.8	7.46e-01	0	33	104	0	90	12781
2026-01-01 22:36:54.43	207.65	1.97	-61.1	-71.7	3.8	7.46e-01	0	33	104	0	90	12792

#Closed at: 2026-01-01 22:36:55
#Recorded file [0 MB]: D:/lorett/data/31004_260102_012623.dat