passes_logs/2026/01/01/R3.2S_Murmansk/R3.2S_Murmansk__20260101_080203_AQUA_rec.log

#Pass ID: 20260101_080203_AQUA
#Satellite: AQUA
#Configuration: AQUA
#almurnet v.1.7.20251203
#Start time: 2026-01-01 08:02:03

#Version: 2.2.20231116
#Station: R3.2S_Murmansk
#Location: 33.079688 lon 68.888172 lat
#TLE: 1 27424U 02022A   25364.96158943  .00001951  00000+0  40088-3 0  9998
#TLE: 2 27424  98.4061 326.1389 0001917  95.3187 305.7939 14.61780362258696

#Time	Az	El	Level	Level2	SNR	BER	BlckErr	Temp	State	Recorded	gain1	gain2
2026-01-01 08:02:03.00	78.74	1.97	-59.2	-78.6	3.8	7.47e-01	0	32	0	0	87	32997
2026-01-01 08:02:03.99	78.67	2.03	-59.3	-78.6	3.8	7.46e-01	0	32	104	0	86	34992
2026-01-01 08:02:04.98	78.59	2.08	-59.3	-78.6	3.8	7.46e-01	0	33	104	0	86	35004
2026-01-01 08:02:05.98	78.52	2.14	-59.3	-78.6	3.8	7.44e-01	0	33	104	0	86	35032
2026-01-01 08:02:06.99	78.44	2.20	-59.3	-78.6	3.8	7.46e-01	0	32	104	0	86	35052
2026-01-01 08:02:07.98	78.37	2.26	-59.3	-78.6	3.9	7.43e-01	0	33	104	0	86	35121
2026-01-01 08:02:08.97	78.30	2.32	-59.3	-78.6	3.8	7.47e-01	0	33	104	0	86	35030
2026-01-01 08:02:09.97	78.22	2.37	-59.3	-78.6	3.8	7.46e-01	0	33	104	0	86	35140
2026-01-01 08:02:10.96	78.14	2.43	-59.3	-78.6	3.8	7.43e-01	0	32	104	0	86	35042
2026-01-01 08:02:11.95	78.07	2.49	-59.3	-78.6	3.8	7.47e-01	0	33	104	0	86	35135
2026-01-01 08:02:12.95	77.99	2.55	-59.3	-78.6	3.8	7.46e-01	0	33	104	0	86	35175
2026-01-01 08:02:13.94	77.91	2.61	-59.3	-78.6	3.8	7.44e-01	0	33	104	0	86	35146
2026-01-01 08:02:14.94	77.84	2.67	-59.3	-78.6	3.8	7.47e-01	0	33	104	0	86	35087
2026-01-01 08:02:15.94	77.76	2.73	-59.3	-78.6	3.8	7.46e-01	0	33	104	0	86	34988
2026-01-01 08:02:16.94	77.68	2.79	-59.3	-78.5	3.8	7.47e-01	0	33	104	0	86	34736
2026-01-01 08:02:17.93	77.60	2.84	-59.3	-78.5	3.8	7.46e-01	0	33	104	0	86	34538
2026-01-01 08:02:18.92	77.52	2.90	-59.3	-78.4	3.8	7.47e-01	0	33	104	0	86	34255
2026-01-01 08:02:19.91	77.45	2.96	-59.3	-78.4	3.8	7.43e-01	0	33	104	0	86	34151
2026-01-01 08:02:20.91	77.37	3.02	-59.3	-78.4	3.8	7.47e-01	0	33	104	0	86	34316
2026-01-01 08:02:21.90	77.29	3.08	-59.3	-78.4	3.8	7.45e-01	0	33	104	0	86	34378
2026-01-01 08:02:22.89	77.21	3.14	-59.3	-78.4	3.8	7.47e-01	0	33	104	0	86	34176
2026-01-01 08:02:23.90	77.12	3.20	-59.3	-78.4	3.8	7.46e-01	0	33	104	0	86	34197
2026-01-01 08:02:24.90	77.04	3.26	-59.3	-78.4	3.8	7.47e-01	0	33	104	0	86	34240
2026-01-01 08:02:25.89	76.96	3.32	-59.3	-78.4	3.8	7.41e-01	0	33	104	0	86	34390
2026-01-01 08:02:26.89	76.88	3.38	-59.3	-78.4	3.8	7.46e-01	0	33	104	0	86	34418
2026-01-01 08:02:27.88	76.80	3.44	-59.3	-78.6	3.8	7.43e-01	0	33	104	0	86	34913
2026-01-01 08:02:28.87	76.72	3.50	-59.3	-78.5	3.8	7.46e-01	0	33	104	0	86	34845
2026-01-01 08:02:29.86	76.63	3.56	-59.3	-78.5	3.8	7.47e-01	0	33	104	0	86	34737
2026-01-01 08:02:30.86	76.55	3.62	-59.3	-78.4	3.8	7.45e-01	0	33	104	0	86	34319
2026-01-01 08:02:31.86	76.47	3.68	-59.3	-78.3	3.8	7.46e-01	0	33	104	0	86	33839
2026-01-01 08:02:32.85	76.38	3.74	-59.3	-78.2	3.8	7.46e-01	0	33	104	0	86	33663
2026-01-01 08:02:33.85	76.30	3.80	-59.3	-78.4	3.8	7.46e-01	0	33	104	0	86	34189
2026-01-01 08:02:34.85	76.21	3.86	-59.3	-78.5	3.8	7.47e-01	0	33	104	0	86	34548
2026-01-01 08:02:35.84	76.13	3.92	-59.3	-78.5	3.8	7.45e-01	0	33	104	0	86	34505
2026-01-01 08:02:36.83	76.04	3.98	-59.3	-78.2	3.8	7.43e-01	0	33	104	0	86	33660
2026-01-01 08:02:37.83	75.96	4.04	-59.2	-78.0	3.8	7.41e-01	0	33	104	0	86	32566
2026-01-01 08:02:38.83	75.87	4.11	-59.2	-77.7	3.8	7.43e-01	0	33	104	0	86	31624
2026-01-01 08:02:39.82	75.78	4.17	-59.2	-77.7	3.8	7.43e-01	0	33	104	0	86	31743
2026-01-01 08:02:40.81	75.70	4.23	-59.3	-78.1	3.8	7.43e-01	0	33	104	0	86	33066
2026-01-01 08:02:41.81	75.61	4.29	-59.3	-78.6	3.8	7.43e-01	0	33	104	0	86	34940
2026-01-01 08:02:42.81	75.52	4.35	-59.3	-78.4	3.8	7.45e-01	0	33	104	0	86	34471
2026-01-01 08:02:43.81	75.43	4.41	-59.2	-77.2	3.8	7.48e-01	0	33	104	0	86	29736
2026-01-01 08:02:44.80	75.34	4.47	-59.2	-74.4	4.4	7.29e-01	0	33	104	0	86	21729
2026-01-01 08:02:45.79	75.26	4.54	-59.1	-72.1	5.4	6.93e-01	2	33	0	0	86	16675
2026-01-01 08:02:46.79	75.16	4.60	-58.9	-70.5	6.6	6.68e-01	92	33	0	1048576	86	13772
2026-01-01 08:02:47.78	75.08	4.66	-58.7	-68.5	8.4	6.40e-01	1	34	0	3145728	86	10959
2026-01-01 08:02:48.78	74.98	4.72	-58.4	-66.5	10.2	6.18e-01	0	34	0	4718592	86	8714
2026-01-01 08:02:49.77	74.89	4.78	-58.1	-65.0	11.6	6.13e-01	0	34	0	6815744	85	7736
2026-01-01 08:02:50.76	74.80	4.84	-57.5	-63.1	13.2	6.09e-01	0	34	0	8388608	84	6583
2026-01-01 08:02:51.76	74.71	4.91	-56.8	-61.6	14.1	6.07e-01	0	34	0	10485760	82	6213
2026-01-01 08:02:52.75	74.62	4.97	-56.4	-60.7	14.7	6.03e-01	0	33	0	12582912	82	5614
2026-01-01 08:02:53.75	74.53	5.03	-55.8	-59.5	15.4	6.03e-01	0	34	0	14155776	80	5513
2026-01-01 08:02:54.74	74.43	5.09	-56.3	-60.5	15.0	6.04e-01	0	34	0	16252928	80	6135
2026-01-01 08:02:55.73	74.34	5.16	-57.5	-63.3	13.1	6.05e-01	0	34	0	17825792	82	7554
2026-01-01 08:02:56.72	74.25	5.22	-55.8	-59.5	15.5	6.02e-01	0	34	0	19922944	80	5506
2026-01-01 08:02:57.72	74.15	5.28	-53.4	-55.7	17.2	6.02e-01	0	34	0	21495808	76	4491
2026-01-01 08:02:58.71	74.06	5.35	-57.4	-63.0	13.4	6.06e-01	0	34	0	23592960	82	7371
2026-01-01 08:02:59.71	73.96	5.41	-54.1	-56.7	16.8	6.02e-01	0	34	0	25165824	77	4742
2026-01-01 08:03:00.70	73.86	5.47	-53.4	-55.7	17.3	6.03e-01	0	34	0	27262976	76	4479
2026-01-01 08:03:01.69	73.77	5.53	-53.2	-55.4	17.3	6.02e-01	0	33	0	29360128	75	4586
2026-01-01 08:03:02.68	73.67	5.60	-53.2	-55.5	17.3	6.00e-01	0	34	0	30932992	75	4635
2026-01-01 08:03:03.68	73.57	5.66	-53.1	-55.3	17.4	6.04e-01	0	34	0	33030144	75	4519
2026-01-01 08:03:04.66	73.48	5.72	-52.7	-54.8	17.5	6.03e-01	0	34	0	34603008	74	4530
2026-01-01 08:03:05.64	73.38	5.79	-52.8	-54.9	17.5	6.04e-01	0	34	0	36700160	74	4598
2026-01-01 08:03:06.63	73.28	5.85	-52.6	-54.7	17.5	6.02e-01	0	34	0	38273024	74	4480
2026-01-01 08:03:07.62	73.18	5.91	-52.6	-54.7	17.6	6.04e-01	0	33	0	40370176	74	4470
2026-01-01 08:03:08.62	73.08	5.98	-52.5	-54.5	17.6	6.03e-01	0	34	0	41943040	74	4372
2026-01-01 08:03:09.61	72.98	6.04	-52.5	-54.5	17.6	6.04e-01	0	34	0	44040192	74	4359
2026-01-01 08:03:10.60	72.88	6.10	-52.4	-54.4	17.6	6.01e-01	0	34	0	45613056	74	4339
2026-01-01 08:03:11.59	72.78	6.17	-52.3	-54.3	17.7	6.03e-01	0	34	0	47710208	73	4511
2026-01-01 08:03:12.60	72.68	6.23	-52.4	-54.4	17.6	6.02e-01	0	34	0	49807360	73	4592
2026-01-01 08:03:13.59	72.58	6.30	-52.3	-54.3	17.7	6.03e-01	0	34	0	51380224	73	4520
2026-01-01 08:03:14.58	72.48	6.36	-52.4	-54.4	17.6	6.03e-01	0	34	0	53477376	73	4593
2026-01-01 08:03:15.58	72.37	6.43	-52.3	-54.3	17.6	6.02e-01	0	34	0	55050240	73	4530
2026-01-01 08:03:16.57	72.27	6.49	-52.3	-54.3	17.7	6.04e-01	0	34	0	57147392	73	4507
2026-01-01 08:03:17.57	72.16	6.56	-52.4	-54.3	17.7	6.03e-01	0	34	0	58720256	73	4544
2026-01-01 08:03:18.56	72.06	6.62	-52.3	-54.2	17.7	6.03e-01	0	34	0	60817408	73	4493
2026-01-01 08:03:19.55	71.95	6.68	-52.3	-54.3	17.8	6.04e-01	0	34	0	62390272	73	4495
2026-01-01 08:03:20.55	71.85	6.75	-52.2	-54.2	17.7	6.03e-01	0	34	0	64487424	73	4458
2026-01-01 08:03:21.54	71.74	6.82	-52.3	-54.3	17.7	6.02e-01	0	34	0	66060288	73	4500
2026-01-01 08:03:22.53	71.64	6.88	-52.3	-54.3	17.7	6.02e-01	0	34	0	68157440	73	4508
2026-01-01 08:03:23.52	71.53	6.95	-52.2	-54.2	17.7	6.01e-01	0	34	0	70254592	73	4445
2026-01-01 08:03:24.51	71.42	7.01	-52.2	-54.1	17.8	6.03e-01	0	34	0	71827456	73	4439
2026-01-01 08:03:25.51	71.31	7.08	-52.3	-54.3	17.7	6.04e-01	0	34	0	73924608	73	4533
2026-01-01 08:03:26.50	71.20	7.14	-52.1	-54.1	17.7	6.02e-01	0	34	0	75497472	73	4402
2026-01-01 08:03:27.49	71.09	7.21	-52.2	-54.2	17.7	6.04e-01	0	34	0	77594624	73	4473
2026-01-01 08:03:28.48	70.98	7.27	-52.2	-54.1	17.8	6.01e-01	0	34	0	79167488	73	4424
2026-01-01 08:03:29.49	70.87	7.34	-52.2	-54.1	17.8	6.04e-01	0	34	0	81264640	73	4422
2026-01-01 08:03:30.49	70.76	7.41	-52.2	-54.1	17.8	6.03e-01	0	34	0	82837504	73	4412
2026-01-01 08:03:31.49	70.65	7.47	-52.2	-54.1	17.8	6.01e-01	0	34	0	84934656	73	4405
2026-01-01 08:03:32.48	70.54	7.54	-52.1	-54.0	17.8	6.01e-01	0	34	0	87031808	73	4358
2026-01-01 08:03:33.47	70.42	7.60	-52.1	-54.1	17.8	6.03e-01	0	34	0	88604672	73	4398
2026-01-01 08:03:34.47	70.31	7.67	-52.2	-54.1	17.7	6.00e-01	0	34	0	90701824	73	4420
2026-01-01 08:03:35.46	70.20	7.74	-52.1	-54.1	17.8	6.01e-01	0	34	0	92274688	73	4401
2026-01-01 08:03:36.45	70.08	7.80	-52.1	-54.0	17.8	6.02e-01	0	34	0	94371840	73	4367
2026-01-01 08:03:37.44	69.97	7.87	-52.1	-54.0	17.8	6.03e-01	0	34	0	95944704	73	4384
2026-01-01 08:03:38.43	69.85	7.93	-52.2	-54.1	17.8	6.02e-01	0	34	0	98041856	73	4419
2026-01-01 08:03:39.44	69.73	8.00	-52.1	-54.0	17.8	6.04e-01	0	34	0	99614720	73	4386
2026-01-01 08:03:40.44	69.62	8.07	-52.0	-53.8	17.8	6.02e-01	0	34	0	101711872	73	4287
2026-01-01 08:03:41.43	69.50	8.14	-52.0	-53.9	17.8	6.01e-01	0	34	0	103809024	73	4318
2026-01-01 08:03:42.42	69.38	8.20	-51.9	-53.8	17.8	6.04e-01	0	34	0	105381888	73	4283
2026-01-01 08:03:43.40	69.26	8.27	-52.1	-54.0	17.8	6.04e-01	0	34	0	107479040	73	4389
2026-01-01 08:03:44.40	69.14	8.34	-52.2	-54.1	17.8	6.04e-01	0	34	0	109051904	73	4396
2026-01-01 08:03:45.40	69.02	8.40	-52.1	-54.0	17.8	6.02e-01	0	34	0	111149056	73	4378
2026-01-01 08:03:46.39	68.90	8.47	-52.0	-53.8	17.9	6.03e-01	0	34	0	112721920	73	4275
2026-01-01 08:03:47.39	68.78	8.54	-52.1	-54.1	17.9	6.03e-01	0	34	0	114819072	73	4392
2026-01-01 08:03:48.38	68.66	8.61	-52.1	-54.0	17.9	6.02e-01	0	34	0	116391936	73	4367
2026-01-01 08:03:49.38	68.54	8.67	-52.0	-53.8	17.9	6.02e-01	0	34	0	118489088	73	4287
2026-01-01 08:03:50.37	68.41	8.74	-52.0	-53.9	17.9	6.01e-01	0	34	0	120586240	73	4314
2026-01-01 08:03:51.37	68.29	8.81	-52.1	-54.0	17.9	6.02e-01	0	34	0	122159104	73	4356
2026-01-01 08:03:52.37	68.16	8.88	-52.1	-54.0	17.9	6.03e-01	0	34	0	124256256	73	4366
2026-01-01 08:03:53.36	68.04	8.95	-51.9	-53.7	17.9	6.01e-01	0	34	0	125829120	73	4241
2026-01-01 08:03:54.36	67.91	9.01	-51.8	-53.6	17.9	6.02e-01	0	34	0	127926272	72	4435
2026-01-01 08:03:55.35	67.79	9.08	-51.9	-53.7	17.9	6.03e-01	0	34	0	129499136	72	4468
2026-01-01 08:03:56.35	67.66	9.15	-51.8	-53.7	17.9	6.05e-01	0	34	0	131596288	72	4451
2026-01-01 08:03:57.34	67.53	9.22	-51.9	-53.8	17.9	6.03e-01	0	34	0	133693440	72	4495
2026-01-01 08:03:58.34	67.40	9.29	-51.8	-53.6	18.0	6.02e-01	0	34	0	135266304	72	4419
2026-01-01 08:03:59.33	67.27	9.36	-51.6	-53.4	18.0	6.03e-01	0	34	0	137363456	72	4319
2026-01-01 08:04:00.33	67.14	9.42	-51.6	-53.4	18.0	6.03e-01	0	34	0	138936320	72	4331
2026-01-01 08:04:01.32	67.01	9.49	-51.8	-53.6	18.0	6.02e-01	0	34	0	141033472	72	4409
2026-01-01 08:04:02.31	66.88	9.56	-51.6	-53.4	18.0	6.03e-01	0	34	0	142606336	72	4329
2026-01-01 08:04:03.29	66.75	9.63	-51.5	-53.3	18.0	6.03e-01	0	34	0	144703488	72	4256
2026-01-01 08:04:04.29	66.62	9.70	-51.5	-53.3	18.0	6.02e-01	0	34	0	146276352	72	4279
2026-01-01 08:04:05.28	66.49	9.77	-51.6	-53.4	18.0	6.03e-01	0	34	0	148373504	72	4329
2026-01-01 08:04:06.27	66.35	9.84	-51.5	-53.3	18.1	6.03e-01	0	34	0	149946368	72	4256
2026-01-01 08:04:07.26	66.22	9.90	-51.6	-53.3	18.0	6.01e-01	0	34	0	152043520	72	4283
2026-01-01 08:04:08.25	66.08	9.97	-51.6	-53.4	18.0	6.03e-01	0	34	0	154140672	72	4323
2026-01-01 08:04:09.24	65.95	10.04	-51.7	-53.5	18.0	6.03e-01	0	34	0	155713536	72	4374
2026-01-01 08:04:10.22	65.81	10.11	-51.7	-53.5	18.0	6.04e-01	0	34	0	157810688	72	4380
2026-01-01 08:04:11.21	65.68	10.18	-51.7	-53.4	18.0	6.04e-01	0	34	0	159383552	72	4339
2026-01-01 08:04:12.20	65.54	10.25	-51.6	-53.4	18.1	6.01e-01	0	34	0	161480704	72	4318
2026-01-01 08:04:13.19	65.40	10.32	-51.7	-53.5	18.0	6.04e-01	0	34	0	163053568	72	4357
2026-01-01 08:04:14.19	65.26	10.39	-51.7	-53.5	18.0	6.02e-01	0	34	0	165150720	72	4341
2026-01-01 08:04:15.18	65.12	10.46	-51.6	-53.4	18.1	6.03e-01	0	34	0	166723584	72	4299
2026-01-01 08:04:16.17	64.98	10.52	-51.6	-53.4	18.0	6.03e-01	0	34	0	168820736	72	4305
2026-01-01 08:04:17.16	64.84	10.59	-51.6	-53.4	18.0	6.02e-01	0	34	0	170393600	72	4328
2026-01-01 08:04:18.16	64.70	10.66	-51.4	-53.2	18.1	6.05e-01	0	34	0	172490752	72	4211
2026-01-01 08:04:19.15	64.55	10.73	-51.4	-53.1	18.2	6.04e-01	0	34	0	174587904	72	4169
2026-01-01 08:04:20.15	64.41	10.80	-51.4	-53.2	18.1	6.02e-01	0	34	0	176160768	71	4452
2026-01-01 08:04:21.14	64.26	10.87	-51.2	-52.9	18.1	6.03e-01	0	34	0	178257920	71	4338
2026-01-01 08:04:22.12	64.12	10.94	-51.3	-53.0	18.1	6.05e-01	0	34	0	179830784	71	4381
2026-01-01 08:04:23.12	63.97	11.01	-51.4	-53.2	18.1	6.03e-01	0	34	0	181927936	71	4463
2026-01-01 08:04:24.12	63.83	11.08	-51.3	-53.0	18.1	6.03e-01	0	34	0	183500800	71	4378
2026-01-01 08:04:25.11	63.68	11.15	-51.2	-52.9	18.1	6.03e-01	0	34	0	185597952	71	4332
2026-01-01 08:04:26.10	63.53	11.22	-51.2	-52.9	18.1	6.04e-01	0	34	0	187170816	71	4338
2026-01-01 08:04:27.10	63.38	11.29	-51.2	-52.9	18.1	6.03e-01	0	34	0	189267968	71	4326
2026-01-01 08:04:28.09	63.23	11.36	-51.4	-53.1	18.1	6.03e-01	0	34	0	191365120	71	4404
2026-01-01 08:04:29.09	63.08	11.43	-51.3	-53.0	18.2	6.06e-01	0	34	0	192937984	71	4347
2026-01-01 08:04:30.08	62.93	11.50	-51.2	-52.9	18.2	6.03e-01	0	34	0	195035136	71	4304
2026-01-01 08:04:31.07	62.78	11.57	-51.3	-53.0	18.1	6.04e-01	0	34	0	196608000	71	4362
2026-01-01 08:04:32.06	62.62	11.64	-51.4	-53.1	18.1	6.02e-01	0	34	0	198705152	71	4418
2026-01-01 08:04:33.06	62.47	11.71	-51.3	-53.0	18.2	6.01e-01	0	34	0	200278016	71	4366
2026-01-01 08:04:34.05	62.31	11.78	-51.3	-53.0	18.2	6.03e-01	0	34	0	202375168	71	4370
2026-01-01 08:04:35.05	62.16	11.85	-51.3	-53.0	18.2	6.02e-01	0	34	0	203948032	71	4343
2026-01-01 08:04:36.04	62.00	11.92	-51.2	-52.8	18.2	6.03e-01	0	34	0	206045184	71	4289
2026-01-01 08:04:37.02	61.85	11.99	-51.1	-52.8	18.2	6.04e-01	0	34	0	207618048	71	4272
2026-01-01 08:04:38.02	61.69	12.07	-51.1	-52.8	18.2	6.02e-01	0	34	0	209715200	71	4283
2026-01-01 08:04:39.01	61.53	12.14	-51.2	-52.9	18.2	6.06e-01	0	34	0	211812352	71	4311
2026-01-01 08:04:40.01	61.37	12.21	-51.0	-52.7	18.2	6.01e-01	0	34	0	213385216	71	4195
2026-01-01 08:04:41.01	61.21	12.28	-51.1	-52.8	18.2	6.02e-01	0	34	0	215482368	71	4244
2026-01-01 08:04:41.99	61.05	12.35	-51.1	-52.7	18.2	6.03e-01	0	34	0	217055232	71	4241
2026-01-01 08:04:42.98	60.89	12.42	-51.1	-52.8	18.2	6.03e-01	0	34	0	219152384	71	4275
2026-01-01 08:04:43.97	60.72	12.49	-51.3	-53.0	18.2	6.03e-01	0	34	0	220725248	71	4342
2026-01-01 08:04:44.97	60.56	12.56	-51.2	-52.9	18.2	6.03e-01	0	34	0	222822400	71	4300
2026-01-01 08:04:45.97	60.39	12.63	-51.1	-52.8	18.2	6.02e-01	0	34	0	224395264	71	4267
2026-01-01 08:04:46.96	60.23	12.70	-51.2	-52.9	18.2	6.04e-01	0	34	0	226492416	71	4326
2026-01-01 08:04:47.95	60.06	12.77	-51.2	-52.9	18.2	6.03e-01	0	34	0	228589568	71	4334
2026-01-01 08:04:48.95	59.89	12.84	-51.2	-52.9	18.2	6.02e-01	0	34	0	230162432	71	4325
2026-01-01 08:04:49.94	59.73	12.91	-51.4	-53.1	18.2	6.03e-01	0	34	0	232259584	71	4396
2026-01-01 08:04:50.94	59.56	12.98	-51.2	-52.9	18.2	6.03e-01	0	34	0	233832448	71	4330
2026-01-01 08:04:51.93	59.39	13.05	-51.2	-52.9	18.2	6.02e-01	0	34	0	235929600	71	4323
2026-01-01 08:04:52.93	59.21	13.12	-51.2	-52.9	18.2	6.03e-01	0	34	0	237502464	71	4321
2026-01-01 08:04:53.92	59.04	13.19	-51.2	-52.9	18.2	6.03e-01	0	34	0	239599616	71	4335
2026-01-01 08:04:54.92	58.87	13.26	-51.2	-52.9	18.2	6.04e-01	0	34	0	241172480	71	4319
2026-01-01 08:04:55.90	58.70	13.33	-51.0	-52.7	18.3	6.04e-01	0	34	0	243269632	71	4208
2026-01-01 08:04:56.88	58.52	13.40	-51.1	-52.7	18.3	6.03e-01	0	34	0	244842496	71	4227
2026-01-01 08:04:57.87	58.35	13.47	-51.1	-52.8	18.3	6.01e-01	0	34	0	246939648	71	4250
2026-01-01 08:04:58.86	58.17	13.54	-51.0	-52.6	18.3	6.04e-01	0	34	0	249036800	71	4175
2026-01-01 08:04:59.85	58.00	13.61	-51.0	-52.7	18.2	6.02e-01	0	34	0	250609664	71	4218
2026-01-01 08:05:00.85	57.82	13.68	-51.1	-52.7	18.2	6.04e-01	0	34	0	252706816	71	4232
2026-01-01 08:05:01.84	57.64	13.75	-51.1	-52.7	18.2	6.03e-01	0	34	0	254279680	71	4221
2026-01-01 08:05:02.83	57.46	13.82	-51.1	-52.7	18.3	6.04e-01	0	34	0	256376832	71	4221
2026-01-01 08:05:03.83	57.28	13.89	-51.0	-52.7	18.3	6.03e-01	0	34	0	257949696	71	4198
2026-01-01 08:05:04.83	57.10	13.96	-51.1	-52.8	18.3	6.00e-01	0	34	0	260046848	71	4253
2026-01-01 08:05:05.82	56.91	14.03	-51.0	-52.7	18.3	6.03e-01	0	34	0	261619712	71	4202
2026-01-01 08:05:06.81	56.73	14.10	-50.9	-52.5	18.3	6.04e-01	0	34	0	263716864	70	4366
2026-01-01 08:05:07.80	56.55	14.17	-50.9	-52.5	18.4	6.03e-01	0	34	0	265814016	70	4355
2026-01-01 08:05:08.80	56.36	14.24	-50.9	-52.6	18.3	6.03e-01	0	34	0	267386880	70	4394
2026-01-01 08:05:09.79	56.17	14.31	-50.9	-52.6	18.3	6.02e-01	0	34	0	269484032	70	4393
2026-01-01 08:05:10.78	55.99	14.38	-51.0	-52.6	18.3	6.01e-01	0	34	0	271056896	70	4423
2026-01-01 08:05:11.77	55.80	14.45	-51.0	-52.6	18.3	6.02e-01	0	34	0	273154048	70	4436
2026-01-01 08:05:12.77	55.61	14.52	-51.0	-52.6	18.3	6.05e-01	0	34	0	274726912	70	4440
2026-01-01 08:05:13.76	55.42	14.59	-51.0	-52.6	18.3	6.01e-01	0	34	0	276824064	70	4439
2026-01-01 08:05:14.76	55.23	14.66	-51.1	-52.7	18.2	6.03e-01	0	34	0	278396928	70	4476
2026-01-01 08:05:15.74	55.04	14.73	-51.1	-52.7	18.2	6.03e-01	0	34	0	280494080	70	4482
2026-01-01 08:05:16.73	54.84	14.80	-51.1	-52.8	18.2	6.02e-01	0	34	0	282066944	70	4504
2026-01-01 08:05:17.72	54.65	14.87	-51.0	-52.6	18.3	6.02e-01	0	34	0	284164096	70	4411
2026-01-01 08:05:18.71	54.46	14.94	-51.0	-52.7	18.2	6.04e-01	0	34	0	286261248	70	4451
2026-01-01 08:05:19.70	54.26	15.01	-51.0	-52.7	18.3	6.03e-01	0	34	0	287834112	70	4456
2026-01-01 08:05:20.69	54.06	15.07	-50.9	-52.6	18.3	6.02e-01	0	34	0	289931264	70	4394
2026-01-01 08:05:21.68	53.87	15.14	-50.9	-52.5	18.3	6.04e-01	0	34	0	291504128	70	4380
2026-01-01 08:05:22.66	53.67	15.21	-50.9	-52.5	18.3	6.02e-01	0	34	0	293601280	70	4373
2026-01-01 08:05:23.65	53.47	15.28	-51.0	-52.6	18.3	6.05e-01	0	34	0	295174144	70	4437
2026-01-01 08:05:24.65	53.27	15.35	-50.9	-52.6	18.3	6.02e-01	0	34	0	297271296	70	4405
2026-01-01 08:05:25.64	53.07	15.42	-51.0	-52.7	18.3	6.02e-01	0	34	0	298844160	70	4455
2026-01-01 08:05:26.64	52.86	15.48	-51.1	-52.7	18.3	6.03e-01	0	34	0	300941312	70	4469
2026-01-01 08:05:27.63	52.66	15.55	-51.0	-52.7	18.3	6.02e-01	0	34	0	302514176	70	4450
2026-01-01 08:05:28.62	52.45	15.62	-51.0	-52.7	18.3	6.03e-01	0	34	0	304611328	70	4448
2026-01-01 08:05:29.61	52.25	15.69	-51.1	-52.7	18.3	6.03e-01	0	34	0	306708480	70	4483
2026-01-01 08:05:30.60	52.04	15.75	-51.0	-52.7	18.2	6.02e-01	0	34	0	308281344	70	4455
2026-01-01 08:05:31.60	51.83	15.82	-51.0	-52.7	18.3	6.05e-01	0	34	0	310378496	70	4444
2026-01-01 08:05:32.59	51.62	15.89	-50.9	-52.5	18.3	6.03e-01	0	34	0	311951360	70	4389
2026-01-01 08:05:33.60	51.41	15.96	-50.9	-52.5	18.3	6.04e-01	0	34	0	314048512	70	4380
2026-01-01 08:05:34.59	51.20	16.02	-51.0	-52.6	18.3	6.01e-01	0	34	0	315621376	70	4433
2026-01-01 08:05:35.57	50.99	16.09	-51.0	-52.6	18.3	6.06e-01	0	34	0	317718528	70	4413
2026-01-01 08:05:36.56	50.78	16.16	-51.0	-52.7	18.3	6.02e-01	0	34	0	319291392	70	4457
2026-01-01 08:05:37.56	50.56	16.22	-51.0	-52.7	18.3	6.04e-01	0	34	0	321388544	70	4444
2026-01-01 08:05:38.56	50.35	16.29	-51.0	-52.6	18.3	6.03e-01	0	34	0	323485696	70	4421
2026-01-01 08:05:39.55	50.13	16.35	-51.0	-52.7	18.3	6.05e-01	0	34	0	325058560	70	4458
2026-01-01 08:05:40.55	49.91	16.42	-51.1	-52.7	18.3	6.02e-01	0	34	0	327155712	70	4476
2026-01-01 08:05:41.53	49.70	16.49	-51.0	-52.6	18.3	6.03e-01	0	34	0	328728576	70	4421
2026-01-01 08:05:42.53	49.48	16.55	-51.0	-52.6	18.3	6.00e-01	0	34	0	330825728	70	4433
2026-01-01 08:05:43.52	49.26	16.62	-51.0	-52.6	18.3	6.01e-01	0	34	0	332398592	70	4419
2026-01-01 08:05:44.51	49.04	16.68	-51.0	-52.7	18.3	6.04e-01	0	34	0	334495744	70	4451
2026-01-01 08:05:45.50	48.81	16.74	-50.9	-52.6	18.3	6.04e-01	0	34	0	336068608	70	4401
2026-01-01 08:05:46.50	48.59	16.81	-51.1	-52.7	18.3	6.05e-01	0	34	0	338165760	70	4478
2026-01-01 08:05:47.50	48.36	16.87	-51.1	-52.7	18.3	6.01e-01	0	34	0	340262912	70	4467
2026-01-01 08:05:48.50	48.14	16.94	-51.0	-52.6	18.3	6.05e-01	0	34	0	341835776	70	4403
2026-01-01 08:05:49.50	47.91	17.00	-51.0	-52.6	18.3	6.01e-01	0	34	0	343932928	70	4428
2026-01-01 08:05:50.50	47.68	17.07	-50.9	-52.6	18.3	6.00e-01	0	34	0	345505792	70	4399
2026-01-01 08:05:51.49	47.45	17.13	-50.9	-52.5	18.3	6.03e-01	0	34	0	347602944	70	4360
2026-01-01 08:05:52.48	47.22	17.19	-50.9	-52.5	18.3	6.01e-01	0	34	0	349175808	70	4350
2026-01-01 08:05:53.47	46.99	17.25	-51.0	-52.7	18.3	6.02e-01	0	34	0	351272960	70	4444
2026-01-01 08:05:54.46	46.76	17.32	-51.1	-52.7	18.3	6.02e-01	0	34	0	352845824	70	4490
2026-01-01 08:05:55.45	46.53	17.38	-51.2	-52.8	18.3	6.03e-01	0	34	0	354942976	70	4523
2026-01-01 08:05:56.44	46.30	17.44	-51.1	-52.8	18.3	6.02e-01	0	35	0	357040128	70	4517
2026-01-01 08:05:57.43	46.06	17.50	-51.1	-52.7	18.3	6.03e-01	0	34	0	358612992	70	4484
2026-01-01 08:05:58.43	45.83	17.56	-51.1	-52.7	18.3	6.02e-01	0	34	0	360710144	70	4481
2026-01-01 08:05:59.43	45.59	17.62	-51.0	-52.7	18.3	6.05e-01	0	34	0	362283008	70	4449
2026-01-01 08:06:00.42	45.35	17.68	-51.0	-52.7	18.4	6.02e-01	0	34	0	364380160	70	4446
2026-01-01 08:06:01.41	45.11	17.74	-51.1	-52.7	18.3	6.03e-01	0	34	0	365953024	70	4492
2026-01-01 08:06:02.41	44.87	17.80	-51.0	-52.7	18.3	6.02e-01	0	34	0	368050176	70	4458
2026-01-01 08:06:03.40	44.63	17.86	-51.2	-52.8	18.3	6.02e-01	0	34	0	369623040	70	4529
2026-01-01 08:06:04.39	44.39	17.92	-51.2	-52.9	18.3	6.02e-01	0	34	0	371720192	70	4549
2026-01-01 08:06:05.39	44.15	17.98	-51.1	-52.7	18.3	6.04e-01	0	34	0	373293056	70	4480
2026-01-01 08:06:06.39	43.90	18.04	-51.1	-52.7	18.3	6.02e-01	0	34	0	375390208	70	4487
2026-01-01 08:06:07.38	43.66	18.10	-51.1	-52.7	18.3	6.03e-01	0	34	0	377487360	70	4469
2026-01-01 08:06:08.37	43.41	18.15	-51.1	-52.7	18.3	6.02e-01	0	34	0	379060224	70	4476
2026-01-01 08:06:09.36	43.17	18.21	-51.2	-52.8	18.3	6.03e-01	0	34	0	381157376	70	4538
2026-01-01 08:06:10.35	42.92	18.27	-51.2	-52.8	18.3	6.03e-01	0	34	0	382730240	70	4522
2026-01-01 08:06:11.33	42.68	18.32	-51.2	-52.8	18.3	6.02e-01	0	34	0	384827392	70	4534
2026-01-01 08:06:12.33	42.42	18.38	-51.2	-52.8	18.3	6.02e-01	0	34	0	386400256	70	4536
2026-01-01 08:06:13.32	42.17	18.44	-51.1	-52.8	18.3	6.02e-01	0	34	0	388497408	70	4495
2026-01-01 08:06:14.32	41.92	18.49	-51.2	-52.9	18.3	6.03e-01	0	34	0	390070272	70	4546
2026-01-01 08:06:15.32	41.67	18.55	-51.2	-52.8	18.3	6.04e-01	0	34	0	392167424	70	4534
2026-01-01 08:06:16.30	41.42	18.60	-51.1	-52.8	18.3	6.02e-01	0	34	0	394264576	70	4506
2026-01-01 08:06:17.30	41.16	18.66	-51.2	-52.8	18.3	6.03e-01	0	34	0	395837440	70	4538
2026-01-01 08:06:18.30	40.90	18.71	-51.1	-52.8	18.3	6.03e-01	0	34	0	397934592	70	4500
2026-01-01 08:06:19.29	40.65	18.76	-51.1	-52.7	18.3	6.02e-01	0	34	0	399507456	70	4466
2026-01-01 08:06:20.27	40.39	18.81	-51.2	-52.8	18.3	6.04e-01	0	34	0	401604608	70	4533
2026-01-01 08:06:21.26	40.14	18.87	-51.2	-52.9	18.3	6.02e-01	0	34	0	403177472	70	4553
2026-01-01 08:06:22.25	39.88	18.92	-51.2	-52.8	18.3	6.04e-01	0	34	0	405274624	70	4544
2026-01-01 08:06:23.24	39.62	18.97	-51.2	-52.8	18.3	6.02e-01	0	34	0	406847488	70	4527
2026-01-01 08:06:24.23	39.36	19.02	-51.2	-52.9	18.2	6.03e-01	0	34	0	408944640	70	4571
2026-01-01 08:06:25.22	39.10	19.07	-51.2	-52.9	18.3	6.00e-01	0	34	0	410517504	70	4549
2026-01-01 08:06:26.21	38.83	19.12	-51.2	-52.9	18.3	6.02e-01	0	34	0	412614656	70	4561
2026-01-01 08:06:27.20	38.57	19.17	-51.2	-52.9	18.3	6.04e-01	0	34	0	414711808	70	4571
2026-01-01 08:06:28.19	38.31	19.22	-51.2	-52.9	18.3	6.04e-01	0	34	0	416284672	70	4556
2026-01-01 08:06:29.18	38.04	19.27	-51.2	-52.9	18.3	6.03e-01	0	34	0	418381824	70	4556
2026-01-01 08:06:30.17	37.78	19.31	-51.3	-53.0	18.2	6.03e-01	0	34	0	419954688	70	4600
2026-01-01 08:06:31.16	37.51	19.36	-51.2	-52.9	18.3	6.05e-01	0	34	0	422051840	70	4546
2026-01-01 08:06:32.15	37.24	19.41	-51.3	-52.9	18.3	6.03e-01	0	34	0	423624704	70	4580
2026-01-01 08:06:33.15	36.97	19.45	-51.3	-53.0	18.2	6.02e-01	0	34	0	425721856	70	4609
2026-01-01 08:06:34.15	36.70	19.50	-51.3	-52.9	18.3	6.03e-01	0	34	0	427294720	70	4572
2026-01-01 08:06:35.14	36.43	19.55	-51.3	-53.0	18.3	6.03e-01	0	34	0	429391872	70	4609
2026-01-01 08:06:36.13	36.16	19.59	-51.3	-53.0	18.3	6.02e-01	0	34	0	430964736	70	4613
2026-01-01 08:06:37.12	35.89	19.63	-51.3	-52.9	18.3	6.02e-01	0	34	0	433061888	70	4591
2026-01-01 08:06:38.11	35.62	19.68	-51.3	-52.9	18.3	6.04e-01	0	34	0	435159040	70	4593
2026-01-01 08:06:39.11	35.34	19.72	-51.3	-53.0	18.3	6.01e-01	0	34	0	436731904	70	4619
2026-01-01 08:06:40.09	35.07	19.76	-51.3	-52.9	18.3	6.06e-01	0	34	0	438829056	70	4596
2026-01-01 08:06:41.08	34.79	19.80	-51.3	-53.0	18.3	6.03e-01	0	34	0	440401920	70	4613
2026-01-01 08:06:42.07	34.52	19.85	-51.4	-53.1	18.2	6.03e-01	0	34	0	442499072	70	4659
2026-01-01 08:06:43.06	34.24	19.89	-51.3	-52.9	18.3	6.04e-01	0	34	0	444071936	70	4589
2026-01-01 08:06:44.05	33.96	19.93	-51.3	-53.0	18.3	6.02e-01	0	34	0	446169088	70	4628
2026-01-01 08:06:45.04	33.69	19.96	-51.4	-53.0	18.3	6.03e-01	0	34	0	447741952	70	4640
2026-01-01 08:06:46.03	33.41	20.00	-51.3	-53.0	18.3	6.04e-01	0	34	0	449839104	70	4606
2026-01-01 08:06:47.02	33.13	20.04	-51.3	-53.0	18.3	6.03e-01	0	34	0	451411968	70	4608
2026-01-01 08:06:48.01	32.85	20.08	-51.4	-53.0	18.3	6.04e-01	0	35	0	453509120	70	4632
2026-01-01 08:06:49.00	32.57	20.12	-51.4	-53.0	18.3	6.03e-01	0	34	0	455606272	70	4638
2026-01-01 08:06:49.99	32.28	20.15	-51.3	-53.0	18.3	6.06e-01	0	34	0	457179136	70	4625
2026-01-01 08:06:50.99	32.00	20.19	-51.4	-53.0	18.2	6.03e-01	0	34	0	458752000	70	4644
2026-01-01 08:06:51.97	31.72	20.22	-51.4	-53.0	18.2	6.02e-01	0	34	0	460849152	70	4646
2026-01-01 08:06:52.97	31.43	20.26	-51.3	-52.9	18.3	6.02e-01	0	34	0	462946304	70	4585
2026-01-01 08:06:53.97	31.15	20.29	-51.3	-53.0	18.3	6.05e-01	0	35	0	464519168	70	4631
2026-01-01 08:06:54.96	30.86	20.32	-51.4	-53.1	18.3	6.02e-01	0	34	0	466616320	70	4688
2026-01-01 08:06:55.95	30.57	20.36	-51.5	-53.1	18.2	6.03e-01	0	34	0	468189184	70	4705
2026-01-01 08:06:56.95	30.29	20.39	-51.4	-53.1	18.3	6.04e-01	0	34	0	470286336	70	4675
2026-01-01 08:06:57.93	30.00	20.42	-51.4	-53.1	18.3	6.01e-01	0	34	0	471859200	70	4699
2026-01-01 08:06:58.93	29.71	20.45	-51.4	-53.1	18.3	6.03e-01	0	34	0	473956352	70	4679
2026-01-01 08:06:59.92	29.42	20.48	-51.4	-53.1	18.2	6.02e-01	0	34	0	475529216	70	4699
2026-01-01 08:07:00.92	29.13	20.51	-51.5	-53.2	18.2	6.04e-01	0	34	0	477626368	70	4727
2026-01-01 08:07:01.91	28.84	20.53	-51.5	-53.2	18.2	6.03e-01	0	34	0	479723520	70	4733
2026-01-01 08:07:02.90	28.55	20.56	-51.5	-53.2	18.3	6.02e-01	0	35	0	481296384	70	4746
2026-01-01 08:07:03.89	28.26	20.59	-51.4	-53.1	18.3	6.03e-01	0	34	0	483393536	70	4667
2026-01-01 08:07:04.89	27.97	20.61	-51.5	-53.2	18.3	6.01e-01	0	34	0	484966400	70	4713
2026-01-01 08:07:05.89	27.67	20.64	-51.5	-53.2	18.2	6.01e-01	0	34	0	487063552	70	4752
2026-01-01 08:07:06.88	27.38	20.66	-51.5	-53.1	18.2	6.04e-01	0	34	0	488636416	70	4692
2026-01-01 08:07:07.87	27.09	20.69	-51.5	-53.1	18.2	6.02e-01	0	34	0	490733568	70	4691
2026-01-01 08:07:08.87	26.79	20.71	-51.5	-53.2	18.3	6.03e-01	0	34	0	492306432	70	4736
2026-01-01 08:07:09.86	26.50	20.73	-51.6	-53.3	18.3	6.04e-01	0	34	0	494403584	70	4773
2026-01-01 08:07:10.85	26.21	20.75	-51.5	-53.2	18.3	6.02e-01	0	34	0	496500736	70	4754
2026-01-01 08:07:11.85	25.91	20.78	-51.5	-53.2	18.3	6.02e-01	0	34	0	498073600	70	4753
2026-01-01 08:07:12.83	25.62	20.80	-51.6	-53.3	18.2	6.02e-01	0	34	0	500170752	70	4760
2026-01-01 08:07:13.82	25.32	20.81	-51.6	-53.2	18.2	6.02e-01	0	34	0	501743616	70	4756
2026-01-01 08:07:14.82	25.02	20.83	-51.6	-53.2	18.2	6.04e-01	0	34	0	503840768	71	4492
2026-01-01 08:07:15.81	24.73	20.85	-51.5	-53.1	18.2	6.04e-01	0	34	0	505413632	71	4438
2026-01-01 08:07:16.81	24.43	20.87	-51.5	-53.2	18.2	6.03e-01	0	34	0	507510784	71	4484
2026-01-01 08:07:17.80	24.13	20.88	-51.5	-53.2	18.3	6.02e-01	0	34	0	509083648	71	4465
2026-01-01 08:07:18.79	23.84	20.90	-51.5	-53.1	18.3	6.04e-01	0	34	0	511180800	71	4437
2026-01-01 08:07:19.78	23.54	20.91	-51.5	-53.1	18.3	6.01e-01	0	34	0	512753664	71	4432
2026-01-01 08:07:20.77	23.24	20.93	-51.5	-53.1	18.3	6.03e-01	0	34	0	514850816	71	4434
2026-01-01 08:07:21.76	22.94	20.94	-51.5	-53.1	18.3	6.00e-01	0	34	0	516947968	71	4437
2026-01-01 08:07:22.75	22.65	20.95	-51.5	-53.2	18.3	6.03e-01	0	35	0	518520832	71	4479
2026-01-01 08:07:23.74	22.35	20.97	-51.7	-53.3	18.3	6.04e-01	0	34	0	520617984	71	4545
2026-01-01 08:07:24.74	22.05	20.98	-51.6	-53.2	18.3	6.01e-01	0	34	0	522190848	71	4489
2026-01-01 08:07:25.73	21.75	20.99	-51.6	-53.3	18.3	6.01e-01	0	34	0	524288000	71	4525
2026-01-01 08:07:26.72	21.45	21.00	-51.5	-53.2	18.3	6.02e-01	0	34	0	525860864	71	4471
2026-01-01 08:07:27.71	21.15	21.00	-51.6	-53.3	18.2	6.03e-01	0	34	0	527958016	71	4512
2026-01-01 08:07:28.69	20.85	21.01	-51.6	-53.3	18.3	6.03e-01	0	34	0	529530880	71	4517
2026-01-01 08:07:29.69	20.55	21.02	-51.6	-53.3	18.3	6.02e-01	0	34	0	531628032	71	4511
2026-01-01 08:07:30.68	20.25	21.02	-51.7	-53.4	18.3	6.02e-01	0	34	0	533200896	71	4562
2026-01-01 08:07:31.68	19.95	21.03	-51.7	-53.4	18.2	6.03e-01	0	34	0	535298048	71	4546
2026-01-01 08:07:32.66	19.65	21.03	-51.5	-53.2	18.2	6.03e-01	0	34	0	537395200	71	4477
2026-01-01 08:07:33.66	19.35	21.04	-51.5	-53.2	18.3	6.02e-01	0	34	0	538968064	71	4478
2026-01-01 08:07:34.66	19.05	21.04	-51.7	-53.4	18.3	6.03e-01	0	34	0	541065216	71	4555
2026-01-01 08:07:35.64	18.75	21.04	-51.6	-53.2	18.3	6.03e-01	0	34	0	542638080	71	4493
2026-01-01 08:07:36.64	18.45	21.04	-51.5	-53.2	18.3	6.03e-01	0	34	0	544735232	71	4467
2026-01-01 08:07:37.63	18.15	21.04	-51.5	-53.2	18.3	6.04e-01	0	34	0	546308096	71	4479
2026-01-01 08:07:38.62	17.85	21.04	-51.6	-53.3	18.3	6.03e-01	0	34	0	548405248	71	4523
2026-01-01 08:07:39.62	17.55	21.04	-51.6	-53.3	18.2	6.03e-01	0	35	0	549978112	71	4517
2026-01-01 08:07:40.61	17.25	21.04	-51.6	-53.3	18.2	6.02e-01	0	34	0	552075264	71	4498
2026-01-01 08:07:41.61	16.94	21.04	-51.5	-53.1	18.3	6.05e-01	0	34	0	554172416	71	4426
2026-01-01 08:07:42.60	16.64	21.03	-51.6	-53.2	18.3	6.04e-01	0	34	0	555745280	71	4490
2026-01-01 08:07:43.59	16.35	21.03	-51.6	-53.3	18.3	6.00e-01	0	34	0	557842432	71	4514
2026-01-01 08:07:44.58	16.05	21.02	-51.6	-53.3	18.3	6.04e-01	0	34	0	559415296	71	4507
2026-01-01 08:07:45.56	15.75	21.02	-51.6	-53.3	18.3	6.02e-01	0	35	0	561512448	71	4535
2026-01-01 08:07:46.56	15.45	21.01	-51.5	-53.1	18.3	6.03e-01	0	34	0	563085312	71	4437
2026-01-01 08:07:47.56	15.15	21.00	-51.6	-53.3	18.2	6.01e-01	0	34	0	565182464	71	4539
2026-01-01 08:07:48.55	14.85	21.00	-51.6	-53.3	18.2	6.04e-01	0	34	0	566755328	71	4531
2026-01-01 08:07:49.54	14.55	20.99	-51.6	-53.3	18.3	6.01e-01	0	34	0	568852480	71	4528
2026-01-01 08:07:50.54	14.25	20.98	-51.6	-53.3	18.3	6.03e-01	0	34	0	570425344	71	4515
2026-01-01 08:07:51.52	13.95	20.97	-51.6	-53.3	18.3	6.02e-01	0	35	0	572522496	71	4501
2026-01-01 08:07:52.52	13.65	20.95	-51.6	-53.3	18.3	6.03e-01	0	35	0	574619648	71	4515
2026-01-01 08:07:53.51	13.35	20.94	-51.6	-53.2	18.3	6.04e-01	0	34	0	576192512	71	4484
2026-01-01 08:07:54.51	13.05	20.93	-51.7	-53.4	18.3	6.03e-01	0	34	0	578289664	71	4557
2026-01-01 08:07:55.50	12.75	20.91	-51.7	-53.4	18.2	6.02e-01	0	34	0	579862528	71	4585
2026-01-01 08:07:56.49	12.46	20.90	-51.7	-53.4	18.2	6.04e-01	0	34	0	581959680	71	4583
2026-01-01 08:07:57.49	12.16	20.88	-51.7	-53.4	18.3	6.02e-01	0	34	0	583532544	71	4566
2026-01-01 08:07:58.48	11.86	20.87	-51.7	-53.4	18.2	6.02e-01	0	34	0	585629696	71	4594
2026-01-01 08:07:59.47	11.57	20.85	-51.7	-53.4	18.2	6.04e-01	0	34	0	587202560	71	4585
2026-01-01 08:08:00.46	11.27	20.83	-51.7	-53.4	18.2	6.04e-01	0	34	0	589299712	71	4572
2026-01-01 08:08:01.46	10.97	20.81	-51.6	-53.3	18.3	6.02e-01	0	34	0	591396864	71	4525
2026-01-01 08:08:02.45	10.68	20.80	-51.6	-53.3	18.3	6.02e-01	0	34	0	592969728	71	4536
2026-01-01 08:08:03.44	10.38	20.78	-51.6	-53.2	18.3	6.02e-01	0	34	0	595066880	71	4483
2026-01-01 08:08:04.44	10.09	20.75	-51.6	-53.3	18.2	6.02e-01	0	35	0	596639744	71	4541
2026-01-01 08:08:05.43	9.79	20.73	-51.6	-53.2	18.3	6.02e-01	0	34	0	598736896	71	4492
2026-01-01 08:08:06.42	9.50	20.71	-51.6	-53.2	18.3	6.00e-01	0	34	0	600309760	71	4486
2026-01-01 08:08:07.42	9.20	20.69	-51.5	-53.2	18.3	6.03e-01	0	34	0	602406912	71	4450
2026-01-01 08:08:08.41	8.91	20.66	-51.5	-53.2	18.3	6.04e-01	0	34	0	603979776	71	4473
2026-01-01 08:08:09.41	8.62	20.64	-51.6	-53.2	18.3	6.01e-01	0	35	0	606076928	71	4481
2026-01-01 08:08:10.40	8.32	20.61	-51.6	-53.3	18.3	6.04e-01	0	35	0	608174080	71	4512
2026-01-01 08:08:11.40	8.03	20.59	-51.6	-53.3	18.3	6.03e-01	0	34	0	609746944	71	4534
2026-01-01 08:08:12.39	7.74	20.56	-51.7	-53.4	18.3	6.04e-01	0	34	0	611844096	71	4583
2026-01-01 08:08:13.38	7.45	20.53	-51.7	-53.4	18.2	6.03e-01	0	35	0	613416960	71	4576
2026-01-01 08:08:14.38	7.16	20.51	-51.6	-53.3	18.3	6.01e-01	0	34	0	615514112	71	4543
2026-01-01 08:08:15.37	6.87	20.48	-51.6	-53.3	18.3	6.03e-01	0	34	0	617086976	71	4520
2026-01-01 08:08:16.35	6.59	20.45	-51.6	-53.3	18.3	6.02e-01	0	34	0	619184128	71	4507
2026-01-01 08:08:17.34	6.30	20.42	-51.6	-53.3	18.3	6.03e-01	0	34	0	620756992	71	4527
2026-01-01 08:08:18.34	6.01	20.39	-51.8	-53.5	18.3	6.01e-01	0	34	0	622854144	71	4626
2026-01-01 08:08:19.32	5.72	20.36	-51.7	-53.5	18.3	6.03e-01	0	34	0	624427008	71	4600
2026-01-01 08:08:20.31	5.44	20.32	-51.6	-53.2	18.3	6.02e-01	0	34	0	626524160	71	4493
2026-01-01 08:08:21.30	5.15	20.29	-51.6	-53.3	18.3	6.01e-01	0	34	0	628621312	71	4495
2026-01-01 08:08:22.29	4.87	20.26	-51.6	-53.3	18.3	6.04e-01	0	34	0	630194176	71	4517
2026-01-01 08:08:23.28	4.59	20.22	-51.6	-53.3	18.3	6.06e-01	0	34	0	632291328	71	4498
2026-01-01 08:08:24.26	4.31	20.19	-51.7	-53.4	18.3	6.02e-01	0	34	0	633864192	71	4557
2026-01-01 08:08:25.25	4.02	20.15	-51.6	-53.3	18.3	6.02e-01	0	34	0	635961344	71	4509
2026-01-01 08:08:26.24	3.74	20.12	-51.6	-53.3	18.3	6.02e-01	0	34	0	637534208	71	4506
2026-01-01 08:08:27.24	3.46	20.08	-51.7	-53.3	18.3	6.03e-01	0	34	0	639631360	71	4544
2026-01-01 08:08:28.24	3.18	20.04	-51.6	-53.3	18.3	6.04e-01	0	35	0	641204224	71	4524
2026-01-01 08:08:29.23	2.90	20.00	-51.6	-53.2	18.3	6.04e-01	0	34	0	643301376	71	4492
2026-01-01 08:08:30.22	2.62	19.97	-51.5	-53.2	18.2	6.03e-01	0	34	0	644874240	71	4474
2026-01-01 08:08:31.21	2.34	19.93	-51.5	-53.2	18.3	6.05e-01	0	34	0	646971392	71	4443
2026-01-01 08:08:32.21	2.06	19.89	-51.6	-53.3	18.3	6.04e-01	0	34	0	649068544	71	4537
2026-01-01 08:08:33.20	1.78	19.85	-51.6	-53.3	18.3	6.03e-01	0	34	0	650641408	71	4524
2026-01-01 08:08:34.19	1.51	19.81	-51.5	-53.2	18.4	6.04e-01	0	34	0	652738560	71	4468
2026-01-01 08:08:35.19	1.23	19.76	-51.4	-53.1	18.4	6.02e-01	0	34	0	654311424	71	4407
2026-01-01 08:08:36.18	0.96	19.72	-51.6	-53.3	18.3	6.02e-01	0	34	0	656408576	71	4505
2026-01-01 08:08:37.18	0.68	19.68	-51.5	-53.2	18.3	6.02e-01	0	34	0	657981440	71	4462
2026-01-01 08:08:38.17	0.41	19.63	-51.5	-53.2	18.3	6.01e-01	0	35	0	660078592	71	4459
2026-01-01 08:08:39.16	0.14	19.59	-51.5	-53.2	18.3	6.05e-01	0	34	0	661651456	71	4459
2026-01-01 08:08:40.15	359.87	19.55	-51.5	-53.2	18.3	6.04e-01	0	34	0	663748608	71	4450
2026-01-01 08:08:41.15	359.59	19.50	-51.5	-53.1	18.3	6.02e-01	0	34	0	665845760	71	4424
2026-01-01 08:08:42.14	359.33	19.45	-51.5	-53.2	18.3	6.02e-01	0	34	0	667418624	71	4469
2026-01-01 08:08:43.13	359.06	19.41	-51.7	-53.4	18.3	6.02e-01	0	34	0	669515776	71	4555
2026-01-01 08:08:44.13	358.79	19.36	-51.7	-53.4	18.3	6.05e-01	0	34	0	671088640	71	4564
2026-01-01 08:08:45.12	358.52	19.31	-51.3	-53.0	18.4	6.04e-01	0	34	0	673185792	71	4356
2026-01-01 08:08:46.11	358.26	19.27	-51.5	-53.2	18.3	6.03e-01	0	34	0	674758656	71	4465
2026-01-01 08:08:47.12	357.99	19.22	-51.5	-53.2	18.3	6.05e-01	0	34	0	676855808	71	4487
2026-01-01 08:08:48.11	357.72	19.17	-51.4	-53.0	18.3	6.03e-01	0	35	0	678428672	71	4382
2026-01-01 08:08:49.10	357.46	19.12	-51.7	-53.4	18.3	6.02e-01	0	34	0	680525824	71	4564
2026-01-01 08:08:50.09	357.20	19.07	-51.7	-53.4	18.3	6.03e-01	0	34	0	682098688	71	4591
2026-01-01 08:08:51.08	356.94	19.02	-51.4	-53.1	18.3	6.03e-01	0	34	0	684195840	71	4392
2026-01-01 08:08:52.08	356.67	18.97	-51.6	-53.3	18.2	6.02e-01	0	34	0	686292992	71	4544
2026-01-01 08:08:53.07	356.42	18.92	-51.5	-53.1	18.3	6.03e-01	0	34	0	687865856	71	4428
2026-01-01 08:08:54.08	356.15	18.86	-51.2	-52.8	18.4	6.02e-01	0	35	0	689963008	71	4264
2026-01-01 08:08:55.07	355.90	18.81	-51.6	-53.3	18.3	6.04e-01	0	34	0	691535872	71	4540
2026-01-01 08:08:56.06	355.64	18.76	-51.5	-53.2	18.2	6.05e-01	0	34	0	693633024	71	4484
2026-01-01 08:08:57.05	355.38	18.71	-51.4	-53.0	18.3	6.02e-01	0	34	0	695205888	71	4372
2026-01-01 08:08:58.04	355.13	18.65	-51.3	-53.0	18.3	6.01e-01	0	34	0	697303040	71	4361
2026-01-01 08:08:59.04	354.87	18.60	-51.4	-53.1	18.3	6.01e-01	0	34	0	698875904	71	4392
2026-01-01 08:09:00.03	354.62	18.55	-51.5	-53.1	18.3	6.00e-01	0	34	0	700973056	71	4435
2026-01-01 08:09:01.02	354.37	18.49	-51.4	-53.1	18.3	6.02e-01	0	34	0	703070208	71	4408
2026-01-01 08:09:02.02	354.12	18.43	-51.4	-53.0	18.4	6.03e-01	0	34	0	704643072	71	4369
2026-01-01 08:09:03.01	353.87	18.38	-51.4	-53.0	18.3	6.02e-01	0	34	0	706740224	71	4382
2026-01-01 08:09:04.01	353.62	18.32	-51.5	-53.2	18.3	6.03e-01	0	35	0	708313088	71	4488
2026-01-01 08:09:05.01	353.37	18.27	-51.4	-53.1	18.3	6.03e-01	0	34	0	710410240	71	4404
2026-01-01 08:09:05.99	353.12	18.21	-51.2	-52.8	18.3	6.02e-01	0	34	0	711983104	71	4257
2026-01-01 08:09:06.99	352.87	18.15	-51.5	-53.1	18.3	6.02e-01	0	34	0	714080256	71	4433
2026-01-01 08:09:07.99	352.63	18.09	-51.3	-52.9	18.4	6.02e-01	0	34	0	715653120	71	4309
2026-01-01 08:09:08.99	352.38	18.04	-51.3	-53.0	18.3	6.04e-01	0	34	0	717750272	71	4363
2026-01-01 08:09:09.99	352.14	17.98	-51.8	-53.5	18.2	6.03e-01	0	34	0	719847424	71	4645
2026-01-01 08:09:10.97	351.90	17.92	-51.1	-52.7	18.4	6.02e-01	0	34	0	721420288	71	4226
2026-01-01 08:09:11.97	351.65	17.86	-51.1	-52.8	18.4	6.03e-01	0	34	0	723517440	71	4244
2026-01-01 08:09:12.96	351.41	17.80	-51.4	-53.1	18.3	6.03e-01	0	35	0	725090304	71	4432
2026-01-01 08:09:13.95	351.18	17.74	-51.1	-52.7	18.4	6.04e-01	0	34	0	727187456	71	4226
2026-01-01 08:09:14.94	350.94	17.68	-51.5	-53.2	18.3	6.03e-01	0	34	0	728760320	71	4484
2026-01-01 08:09:15.93	350.70	17.62	-51.5	-53.2	18.3	6.02e-01	0	34	0	730857472	71	4443
2026-01-01 08:09:16.91	350.47	17.56	-51.4	-53.0	18.3	6.03e-01	0	34	0	732430336	71	4377
2026-01-01 08:09:17.91	350.23	17.50	-51.8	-53.6	18.2	6.02e-01	0	34	0	734527488	71	4674
2026-01-01 08:09:18.89	350.00	17.44	-51.1	-52.7	18.4	6.03e-01	0	34	0	736100352	71	4222
2026-01-01 08:09:19.88	349.77	17.38	-51.1	-52.7	18.3	6.02e-01	0	34	0	738197504	71	4213
2026-01-01 08:09:20.87	349.54	17.32	-51.4	-53.1	18.3	6.02e-01	0	34	0	740294656	70	4704
2026-01-01 08:09:21.86	349.31	17.25	-51.2	-52.8	18.4	6.04e-01	0	34	0	741867520	70	4524
2026-01-01 08:09:22.85	349.08	17.19	-51.1	-52.7	18.4	6.04e-01	0	34	0	743964672	71	4201
2026-01-01 08:09:23.84	348.85	17.13	-51.8	-53.6	18.2	6.01e-01	0	34	0	745537536	71	4688
2026-01-01 08:09:24.82	348.62	17.07	-51.2	-52.9	18.4	6.02e-01	0	35	0	747634688	71	4303
2026-01-01 08:09:25.82	348.40	17.00	-51.1	-52.7	18.4	6.03e-01	0	35	0	749207552	71	4202
2026-01-01 08:09:26.81	348.17	16.94	-51.6	-53.3	18.3	6.03e-01	0	34	0	751304704	70	4788
2026-01-01 08:09:27.80	347.95	16.88	-51.3	-53.0	18.3	6.04e-01	0	34	0	752877568	70	4619
2026-01-01 08:09:28.80	347.72	16.81	-50.9	-52.5	18.4	6.01e-01	0	34	0	754974720	71	4109
2026-01-01 08:09:29.79	347.50	16.75	-52.0	-53.9	18.1	6.04e-01	0	34	0	757071872	71	4819
2026-01-01 08:09:30.79	347.27	16.68	-51.1	-52.7	18.4	6.02e-01	0	34	0	758644736	70	4442
2026-01-01 08:09:31.78	347.05	16.62	-50.9	-52.4	18.4	6.05e-01	0	34	0	760741888	71	4083
2026-01-01 08:09:32.78	346.83	16.55	-52.1	-54.0	18.2	6.04e-01	0	34	0	762314752	71	4882
2026-01-01 08:09:33.77	346.61	16.49	-51.1	-52.7	18.4	6.02e-01	0	34	0	764411904	70	4476
2026-01-01 08:09:34.76	346.40	16.42	-51.1	-52.7	18.3	6.01e-01	0	34	0	765984768	71	4232
2026-01-01 08:09:35.75	346.18	16.36	-52.1	-54.0	18.1	6.04e-01	0	34	0	768081920	71	4899
2026-01-01 08:09:36.74	345.97	16.29	-50.8	-52.3	18.5	6.03e-01	0	34	0	769654784	70	4254
2026-01-01 08:09:37.74	345.75	16.23	-51.3	-53.0	18.3	6.04e-01	0	34	0	771751936	71	4358
2026-01-01 08:09:38.74	345.53	16.16	-51.4	-53.1	18.3	6.03e-01	0	34	0	773324800	70	4671
2026-01-01 08:09:39.73	345.32	16.09	-51.2	-52.9	18.3	6.03e-01	0	34	0	775421952	70	4555
2026-01-01 08:09:40.72	345.11	16.03	-51.3	-52.9	18.3	6.02e-01	0	34	0	777519104	71	4324
2026-01-01 08:09:41.71	344.90	15.96	-51.9	-53.6	18.2	6.02e-01	0	34	0	779091968	71	4705
2026-01-01 08:09:42.71	344.69	15.89	-51.0	-52.5	18.4	6.02e-01	0	34	0	781189120	71	4144
2026-01-01 08:09:43.70	344.48	15.83	-52.2	-54.1	18.1	6.03e-01	0	34	0	782761984	72	4685
2026-01-01 08:09:44.70	344.27	15.76	-51.2	-52.8	18.4	6.02e-01	0	34	0	784859136	71	4274
2026-01-01 08:09:45.69	344.07	15.69	-51.9	-53.7	18.2	6.04e-01	0	34	0	786432000	71	4755
2026-01-01 08:09:46.68	343.86	15.62	-51.8	-53.6	18.2	6.03e-01	0	34	0	788529152	71	4663
2026-01-01 08:09:47.68	343.66	15.56	-51.7	-53.4	18.3	6.01e-01	0	34	0	790102016	71	4570
2026-01-01 08:09:48.68	343.45	15.49	-52.1	-53.9	18.2	6.03e-01	0	34	0	792199168	72	4570
2026-01-01 08:09:49.67	343.25	15.42	-51.7	-53.4	18.3	6.05e-01	0	35	0	794296320	72	4294
2026-01-01 08:09:50.66	343.05	15.35	-52.2	-54.1	18.1	6.02e-01	0	34	0	795869184	72	4652
2026-01-01 08:09:51.65	342.85	15.28	-51.3	-52.9	18.4	6.03e-01	0	34	0	797966336	71	4317
2026-01-01 08:09:52.64	342.65	15.22	-52.0	-53.8	18.1	6.03e-01	0	34	0	799539200	71	4799
2026-01-01 08:09:53.64	342.45	15.15	-51.2	-52.8	18.4	6.04e-01	0	34	0	801636352	71	4258
2026-01-01 08:09:54.63	342.25	15.08	-52.1	-54.0	18.1	6.02e-01	0	34	0	803209216	71	4875
2026-01-01 08:09:55.62	342.06	15.01	-51.1	-52.7	18.3	6.01e-01	0	35	0	805306368	71	4206
2026-01-01 08:09:56.62	341.86	14.94	-51.6	-53.4	18.2	6.05e-01	0	34	0	806879232	71	4597
2026-01-01 08:09:57.62	341.66	14.87	-51.5	-53.2	18.2	6.05e-01	0	34	0	808976384	72	4202
2026-01-01 08:09:58.61	341.47	14.80	-51.4	-53.0	18.2	6.03e-01	0	34	0	811073536	71	4386
2026-01-01 08:09:59.61	341.27	14.73	-52.1	-53.9	18.0	6.03e-01	0	34	0	812646400	72	4591
2026-01-01 08:10:00.60	341.08	14.66	-51.0	-52.6	18.4	6.05e-01	0	34	0	814743552	70	4419
2026-01-01 08:10:01.60	340.89	14.59	-52.0	-53.8	18.2	6.05e-01	0	34	0	816316416	71	4777
2026-01-01 08:10:02.60	340.70	14.52	-51.0	-52.5	18.4	6.03e-01	0	34	0	818413568	71	4141
2026-01-01 08:10:03.59	340.51	14.45	-51.5	-53.2	18.3	6.02e-01	0	34	0	819986432	71	4449
2026-01-01 08:10:04.57	340.33	14.39	-51.6	-53.4	18.2	6.03e-01	0	34	0	822083584	71	4554
2026-01-01 08:10:05.58	340.14	14.31	-51.3	-53.0	18.3	6.02e-01	0	34	0	823656448	71	4349
2026-01-01 08:10:06.57	339.95	14.25	-51.8	-53.6	18.1	6.02e-01	0	34	0	825753600	71	4699
2026-01-01 08:10:07.56	339.77	14.18	-51.2	-52.8	18.4	6.06e-01	0	34	0	827850752	71	4252
2026-01-01 08:10:08.56	339.58	14.11	-51.6	-53.3	18.3	6.03e-01	0	34	0	829423616	71	4501
2026-01-01 08:10:09.56	339.40	14.04	-51.6	-53.3	18.3	6.04e-01	0	34	0	831520768	71	4531
2026-01-01 08:10:10.54	339.22	13.97	-51.6	-53.3	18.3	6.04e-01	0	34	0	833093632	71	4530
2026-01-01 08:10:11.53	339.03	13.90	-52.1	-54.0	18.1	6.02e-01	0	34	0	835190784	71	4882
2026-01-01 08:10:12.53	338.85	13.83	-51.4	-53.0	18.3	6.02e-01	0	34	0	836763648	72	4144
2026-01-01 08:10:13.52	338.67	13.76	-51.8	-53.6	18.2	6.03e-01	0	34	0	838860800	71	4675
2026-01-01 08:10:14.52	338.49	13.69	-51.7	-53.5	18.2	6.01e-01	0	35	0	840433664	71	4609
2026-01-01 08:10:15.52	338.32	13.62	-51.8	-53.5	18.2	6.03e-01	0	34	0	842530816	71	4628
2026-01-01 08:10:16.51	338.14	13.55	-52.4	-54.2	18.0	6.03e-01	0	34	0	844627968	72	4752
2026-01-01 08:10:17.50	337.96	13.48	-51.9	-53.6	18.2	6.04e-01	0	34	0	846200832	72	4429
2026-01-01 08:10:18.50	337.79	13.40	-52.1	-53.9	18.2	6.03e-01	0	34	0	848297984	72	4579
2026-01-01 08:10:19.49	337.61	13.33	-51.8	-53.5	18.3	6.01e-01	0	34	0	849870848	72	4359
2026-01-01 08:10:20.48	337.44	13.26	-52.0	-53.8	18.2	6.02e-01	0	35	0	851968000	72	4504
2026-01-01 08:10:21.47	337.27	13.19	-51.9	-53.7	18.2	6.02e-01	0	34	0	853540864	72	4442
2026-01-01 08:10:22.47	337.10	13.12	-51.6	-53.3	18.3	6.03e-01	0	34	0	855638016	72	4254
2026-01-01 08:10:23.46	336.93	13.05	-51.8	-53.5	18.2	6.02e-01	0	34	0	857210880	72	4390
2026-01-01 08:10:24.45	336.76	12.98	-51.4	-53.0	18.3	6.03e-01	0	34	0	859308032	72	4136
2026-01-01 08:10:25.43	336.59	12.91	-51.9	-53.7	18.2	6.03e-01	0	34	0	860880896	71	4722
2026-01-01 08:10:26.43	336.42	12.84	-51.8	-53.6	18.2	6.03e-01	0	34	0	862978048	71	4673
2026-01-01 08:10:27.42	336.26	12.77	-51.3	-52.9	18.3	6.02e-01	0	34	0	865075200	71	4340
2026-01-01 08:10:28.41	336.09	12.70	-52.1	-53.9	18.1	5.99e-01	0	34	0	866648064	71	4852
2026-01-01 08:10:29.40	335.93	12.63	-51.3	-53.0	18.3	6.05e-01	0	34	0	868745216	71	4356
2026-01-01 08:10:30.39	335.76	12.56	-51.4	-53.1	18.3	6.05e-01	0	34	0	870318080	71	4394
2026-01-01 08:10:31.39	335.60	12.49	-52.1	-53.9	18.1	6.01e-01	0	34	0	872415232	72	4595
2026-01-01 08:10:32.37	335.44	12.42	-51.4	-53.1	18.3	6.04e-01	0	34	0	873988096	72	4146
2026-01-01 08:10:33.36	335.28	12.35	-52.0	-53.9	18.1	6.03e-01	0	34	0	876085248	71	4823
2026-01-01 08:10:34.35	335.11	12.28	-52.0	-53.9	18.1	6.02e-01	0	34	0	877658112	72	4552
2026-01-01 08:10:35.35	334.95	12.21	-52.0	-53.8	18.2	6.02e-01	0	34	0	879755264	72	4501
2026-01-01 08:10:36.34	334.79	12.14	-52.2	-54.1	18.1	6.02e-01	0	34	0	881852416	72	4670
2026-01-01 08:10:37.33	334.64	12.07	-51.8	-53.6	18.2	6.05e-01	0	34	0	883425280	72	4403
2026-01-01 08:10:38.32	334.48	12.00	-51.9	-53.6	18.2	6.02e-01	0	35	0	885522432	72	4434
2026-01-01 08:10:39.32	334.32	11.93	-52.2	-54.1	18.1	6.06e-01	0	34	0	887095296	72	4662
2026-01-01 08:10:40.31	334.17	11.86	-51.8	-53.6	18.2	6.02e-01	0	34	0	889192448	72	4398
2026-01-01 08:10:41.31	334.01	11.79	-52.0	-53.9	18.2	6.03e-01	0	34	0	890765312	72	4550
2026-01-01 08:10:42.30	333.86	11.72	-52.3	-54.2	18.0	6.02e-01	0	34	0	892862464	72	4718
2026-01-01 08:10:43.29	333.70	11.65	-52.0	-53.8	18.2	6.02e-01	0	34	0	894435328	72	4508
2026-01-01 08:10:44.28	333.55	11.58	-52.1	-53.9	18.1	6.04e-01	0	35	0	896532480	72	4594
2026-01-01 08:10:45.27	333.40	11.51	-52.4	-54.3	18.0	6.04e-01	0	34	0	898105344	72	4781
2026-01-01 08:10:46.26	333.25	11.44	-52.0	-53.7	18.2	6.02e-01	0	34	0	900202496	72	4471
2026-01-01 08:10:47.25	333.10	11.37	-52.3	-54.1	18.1	6.05e-01	0	34	0	902299648	72	4697
2026-01-01 08:10:48.24	332.95	11.30	-52.7	-54.7	17.9	6.04e-01	0	35	0	903872512	73	4720
2026-01-01 08:10:49.23	332.80	11.23	-51.9	-53.7	18.2	6.03e-01	0	34	0	905969664	73	4208
2026-01-01 08:10:50.24	332.65	11.16	-52.4	-54.2	18.0	6.03e-01	0	34	0	907542528	72	4757
2026-01-01 08:10:51.23	332.50	11.09	-52.5	-54.5	18.0	6.03e-01	0	35	0	909639680	73	4603
2026-01-01 08:10:52.22	332.36	11.02	-51.8	-53.5	18.2	6.00e-01	0	34	0	911212544	72	4356
2026-01-01 08:10:53.22	332.21	10.95	-52.1	-53.9	18.1	6.02e-01	0	34	0	913309696	72	4590
2026-01-01 08:10:54.22	332.06	10.88	-52.4	-54.3	18.0	6.03e-01	0	34	0	914882560	72	4782
2026-01-01 08:10:55.22	331.92	10.81	-51.7	-53.5	18.2	6.04e-01	0	34	0	916979712	72	4349
2026-01-01 08:10:56.22	331.78	10.74	-51.8	-53.6	18.2	6.03e-01	0	34	0	919076864	72	4404
2026-01-01 08:10:57.21	331.63	10.67	-52.5	-54.4	17.9	6.03e-01	0	35	0	920649728	72	4837
2026-01-01 08:10:58.21	331.49	10.60	-52.3	-54.2	18.0	6.03e-01	0	34	0	922746880	72	4727
2026-01-01 08:10:59.21	331.35	10.53	-51.9	-53.7	18.1	6.02e-01	0	35	0	924319744	72	4444
2026-01-01 08:11:00.20	331.21	10.46	-52.2	-54.0	18.0	6.03e-01	0	34	0	926416896	72	4638
2026-01-01 08:11:01.19	331.07	10.39	-52.3	-54.2	17.9	6.03e-01	0	34	0	927989760	72	4758
2026-01-01 08:11:02.19	330.93	10.32	-51.8	-53.6	18.1	6.02e-01	0	35	0	930086912	72	4422
2026-01-01 08:11:03.18	330.79	10.25	-51.9	-53.6	18.1	6.04e-01	0	34	0	931659776	72	4439
2026-01-01 08:11:04.17	330.65	10.18	-52.5	-54.4	17.9	6.04e-01	0	35	0	933756928	72	4848
2026-01-01 08:11:05.17	330.52	10.11	-52.1	-54.0	18.0	6.03e-01	0	34	0	935854080	72	4608
2026-01-01 08:11:06.16	330.38	10.05	-51.9	-53.7	18.1	6.02e-01	0	34	0	937426944	72	4469
2026-01-01 08:11:07.15	330.24	9.98	-52.2	-54.1	18.0	6.03e-01	0	35	0	939524096	72	4669
2026-01-01 08:11:08.14	330.11	9.91	-52.3	-54.3	18.0	6.02e-01	0	34	0	941096960	72	4777
2026-01-01 08:11:09.13	329.98	9.84	-52.2	-54.0	18.1	6.05e-01	0	34	0	943194112	72	4625
2026-01-01 08:11:10.14	329.84	9.77	-52.1	-53.9	18.1	6.04e-01	0	35	0	944766976	72	4563
2026-01-01 08:11:11.13	329.71	9.70	-52.3	-54.2	18.0	6.01e-01	0	35	0	946864128	72	4737
2026-01-01 08:11:12.12	329.58	9.63	-52.3	-54.3	18.0	6.03e-01	0	34	0	948436992	72	4765
2026-01-01 08:11:13.12	329.45	9.56	-52.1	-54.0	18.1	6.03e-01	0	34	0	950534144	72	4615
2026-01-01 08:11:14.11	329.32	9.50	-52.2	-54.0	18.1	6.03e-01	0	34	0	952631296	72	4636
2026-01-01 08:11:15.10	329.19	9.43	-52.3	-54.2	18.0	6.04e-01	0	34	0	954204160	72	4745
2026-01-01 08:11:16.09	329.06	9.36	-52.4	-54.4	18.0	6.02e-01	0	34	0	956301312	72	4827
2026-01-01 08:11:17.09	328.93	9.29	-52.3	-54.2	18.0	6.03e-01	0	35	0	957874176	72	4750
2026-01-01 08:11:18.09	328.80	9.22	-52.3	-54.2	18.0	6.02e-01	0	34	0	959971328	72	4730
2026-01-01 08:11:19.08	328.67	9.15	-52.4	-54.3	18.0	6.03e-01	0	35	0	961544192	72	4794
2026-01-01 08:11:20.06	328.55	9.09	-52.6	-54.5	17.9	6.03e-01	0	34	0	963641344	72	4912
2026-01-01 08:11:21.05	328.42	9.02	-52.3	-54.2	18.0	6.01e-01	0	35	0	965214208	72	4712
2026-01-01 08:11:22.04	328.30	8.95	-52.2	-54.0	18.0	6.03e-01	0	34	0	967311360	72	4648
2026-01-01 08:11:23.04	328.17	8.88	-52.0	-53.9	18.0	6.04e-01	0	34	0	968884224	72	4560
2026-01-01 08:11:24.03	328.05	8.82	-52.1	-54.0	18.0	6.02e-01	0	34	0	970981376	72	4625
2026-01-01 08:11:25.03	327.92	8.75	-52.3	-54.2	18.0	6.05e-01	0	35	0	973078528	72	4747
2026-01-01 08:11:26.01	327.80	8.68	-52.2	-54.1	18.0	6.05e-01	0	35	0	974651392	72	4702
2026-01-01 08:11:27.01	327.68	8.61	-52.2	-54.1	18.0	6.02e-01	0	34	0	976748544	72	4677
2026-01-01 08:11:28.00	327.56	8.55	-52.4	-54.3	18.0	6.04e-01	0	34	0	978321408	72	4794
2026-01-01 08:11:29.00	327.44	8.48	-52.6	-54.5	17.9	6.03e-01	0	34	0	980418560	72	4918
2026-01-01 08:11:29.99	327.32	8.41	-52.6	-54.6	17.9	6.01e-01	0	34	0	981991424	73	4698
2026-01-01 08:11:30.98	327.20	8.35	-52.5	-54.5	18.0	6.04e-01	0	34	0	984088576	73	4619
2026-01-01 08:11:31.98	327.08	8.28	-52.3	-54.2	18.0	6.03e-01	0	35	0	985661440	73	4473
2026-01-01 08:11:32.96	326.96	8.21	-52.4	-54.3	18.0	6.03e-01	0	35	0	987758592	73	4519
2026-01-01 08:11:33.96	326.84	8.14	-52.6	-54.6	17.9	6.02e-01	0	35	0	989855744	73	4673
2026-01-01 08:11:34.95	326.73	8.08	-52.5	-54.5	17.9	6.03e-01	0	35	0	991428608	73	4601
2026-01-01 08:11:35.95	326.61	8.01	-52.4	-54.3	18.0	6.01e-01	0	34	0	993525760	73	4526
2026-01-01 08:11:36.95	326.49	7.94	-52.3	-54.2	18.0	6.03e-01	0	35	0	995098624	73	4473
2026-01-01 08:11:37.94	326.38	7.88	-52.5	-54.5	18.0	6.02e-01	0	34	0	997195776	73	4608
2026-01-01 08:11:38.94	326.26	7.81	-52.5	-54.5	17.9	6.04e-01	0	34	0	998768640	73	4610
2026-01-01 08:11:39.93	326.15	7.74	-52.6	-54.6	17.9	6.01e-01	0	34	0	1000865792	73	4675
2026-01-01 08:11:40.94	326.03	7.68	-52.5	-54.4	17.9	6.04e-01	0	34	0	1002438656	73	4580
2026-01-01 08:11:41.92	325.92	7.61	-52.7	-54.7	17.9	6.03e-01	0	34	0	1004535808	73	4715
2026-01-01 08:11:42.93	325.81	7.54	-52.5	-54.4	17.9	6.01e-01	0	34	0	1006632960	73	4575
2026-01-01 08:11:43.92	325.69	7.48	-52.4	-54.4	18.0	6.05e-01	0	34	0	1008205824	73	4571
2026-01-01 08:11:44.92	325.58	7.41	-52.6	-54.6	17.8	6.02e-01	0	35	0	1010302976	73	4693
2026-01-01 08:11:45.91	325.47	7.35	-52.8	-54.8	17.8	6.04e-01	0	34	0	1011875840	73	4788
2026-01-01 08:11:46.90	325.36	7.28	-52.7	-54.7	17.8	6.02e-01	0	35	0	1013972992	73	4712
2026-01-01 08:11:47.90	325.25	7.22	-52.6	-54.6	17.8	6.02e-01	0	34	0	1015545856	73	4698
2026-01-01 08:11:48.89	325.14	7.15	-52.7	-54.7	17.8	6.03e-01	0	34	0	1017643008	73	4719
2026-01-01 08:11:49.88	325.03	7.09	-52.7	-54.7	17.8	6.00e-01	0	34	0	1019215872	73	4728
2026-01-01 08:11:50.87	324.93	7.02	-52.7	-54.8	17.8	6.03e-01	0	34	0	1021313024	73	4782
2026-01-01 08:11:51.86	324.82	6.96	-52.5	-54.5	17.8	6.01e-01	0	34	0	1023410176	73	4613
2026-01-01 08:11:52.86	324.71	6.89	-52.7	-54.7	17.8	6.02e-01	0	34	0	1024983040	73	4716
2026-01-01 08:11:53.85	324.61	6.82	-52.6	-54.7	17.8	6.05e-01	0	34	0	1027080192	73	4720
2026-01-01 08:11:54.85	324.50	6.76	-52.7	-54.8	17.8	6.02e-01	0	34	0	1028653056	73	4773
2026-01-01 08:11:55.85	324.39	6.69	-52.7	-54.7	17.8	6.01e-01	0	34	0	1030750208	73	4732
2026-01-01 08:11:56.84	324.29	6.63	-52.9	-55.0	17.7	6.03e-01	0	34	0	1032323072	73	4912
2026-01-01 08:11:57.84	324.18	6.56	-53.1	-55.3	17.6	6.02e-01	0	35	0	1034420224	74	4793
2026-01-01 08:11:58.83	324.08	6.50	-53.2	-55.4	17.6	6.04e-01	0	34	0	1035993088	74	4821
2026-01-01 08:11:59.83	323.98	6.44	-53.1	-55.2	17.6	6.03e-01	0	34	0	1038090240	74	4746
2026-01-01 08:12:00.82	323.87	6.37	-53.0	-55.1	17.7	6.02e-01	0	34	0	1040187392	74	4689
2026-01-01 08:12:01.82	323.77	6.31	-52.9	-55.0	17.7	6.03e-01	0	34	0	1041760256	74	4651
2026-01-01 08:12:02.81	323.67	6.24	-53.1	-55.3	17.7	6.02e-01	0	34	0	1043857408	74	4760
2026-01-01 08:12:03.81	323.57	6.18	-52.9	-55.0	17.7	6.03e-01	0	34	0	1045430272	74	4646
2026-01-01 08:12:04.79	323.47	6.12	-52.9	-55.0	17.7	6.03e-01	0	34	0	1047527424	74	4646
2026-01-01 08:12:05.78	323.37	6.05	-53.0	-55.1	17.7	6.02e-01	0	34	0	1049100288	74	4673
2026-01-01 08:12:06.78	323.27	5.99	-52.9	-55.0	17.7	6.02e-01	0	34	0	1051197440	74	4640
2026-01-01 08:12:07.76	323.17	5.92	-52.9	-55.0	17.7	6.02e-01	0	34	0	1052770304	74	4627
2026-01-01 08:12:08.76	323.07	5.86	-53.1	-55.3	17.7	6.00e-01	0	35	0	1054867456	74	4772
2026-01-01 08:12:09.75	322.97	5.80	-53.0	-55.1	17.7	6.04e-01	0	35	0	1056964608	74	4681
2026-01-01 08:12:10.74	322.87	5.73	-53.0	-55.2	17.7	6.03e-01	0	34	0	1058537472	74	4731
2026-01-01 08:12:11.74	322.78	5.67	-53.2	-55.5	17.6	6.02e-01	0	34	0	1060634624	74	4886
2026-01-01 08:12:12.73	322.68	5.61	-53.2	-55.5	17.5	6.02e-01	0	34	0	1062207488	74	4873
2026-01-01 08:12:13.72	322.58	5.54	-53.3	-55.5	17.5	6.04e-01	0	34	0	1064304640	74	4926
2026-01-01 08:12:14.72	322.49	5.48	-53.2	-55.5	17.6	6.02e-01	0	34	0	1065877504	74	4874
2026-01-01 08:12:15.70	322.39	5.42	-53.4	-55.6	17.5	6.03e-01	0	34	0	1067974656	74	4971
2026-01-01 08:12:16.69	322.30	5.36	-53.1	-55.3	17.6	6.02e-01	0	34	0	1069547520	74	4773
2026-01-01 08:12:17.69	322.20	5.29	-53.1	-55.3	17.6	6.04e-01	0	34	0	1071644672	74	4780
2026-01-01 08:12:18.67	322.11	5.23	-53.2	-55.4	17.6	6.03e-01	0	34	0	1073217536	74	4852
2026-01-01 08:12:19.67	322.02	5.17	-53.3	-55.6	17.6	6.01e-01	0	34	0	1075314688	74	4928
2026-01-01 08:12:20.66	321.92	5.11	-53.3	-55.6	17.5	6.03e-01	0	34	0	1077411840	74	4966
2026-01-01 08:12:21.65	321.83	5.04	-53.3	-55.6	17.5	6.03e-01	0	34	0	1078984704	74	4955
2026-01-01 08:12:22.64	321.74	4.98	-56.8	-61.2	15.5	6.02e-01	0	34	0	1081081856	81	6311
2026-01-01 08:12:23.64	321.65	4.92	-60.0	-78.9	3.9	7.49e-01	0	34	104	1081606144	87	34294
2026-01-01 08:12:24.63	321.56	4.86	-60.4	-79.7	3.8	7.46e-01	0	34	104	1081606144	88	35570
2026-01-01 08:12:25.62	321.46	4.80	-60.7	-80.0	3.8	7.49e-01	0	35	104	1081606144	89	34656
2026-01-01 08:12:26.61	321.37	4.73	-60.9	-80.2	3.8	7.45e-01	0	34	104	1081606144	89	35523
2026-01-01 08:12:27.60	321.28	4.67	-61.0	-80.4	3.8	7.44e-01	0	35	104	1081606144	89	36181
2026-01-01 08:12:28.58	321.20	4.61	-61.2	-80.5	3.8	7.47e-01	0	35	104	1081606144	90	34833
2026-01-01 08:12:29.58	321.11	4.55	-61.3	-80.6	3.8	7.45e-01	0	34	104	1081606144	90	35260
2026-01-01 08:12:30.58	321.02	4.49	-61.4	-80.8	3.8	7.45e-01	0	34	104	1081606144	90	35789
2026-01-01 08:12:31.57	320.93	4.43	-61.5	-80.8	3.8	7.42e-01	0	35	104	1081606144	90	36085
2026-01-01 08:12:32.56	320.84	4.37	-61.6	-81.1	3.8	7.42e-01	0	34	104	1081606144	91	35167
2026-01-01 08:12:33.56	320.75	4.30	-61.7	-81.0	3.8	7.46e-01	0	35	104	1081606144	91	34656
2026-01-01 08:12:34.56	320.67	4.24	-61.7	-81.1	3.8	7.50e-01	0	35	104	1081606144	91	34932
2026-01-01 08:12:35.55	320.58	4.18	-61.8	-81.1	3.8	7.47e-01	0	35	104	1081606144	91	35068
2026-01-01 08:12:36.55	320.49	4.12	-61.8	-81.1	3.8	7.42e-01	0	35	104	1081606144	91	35200
2026-01-01 08:12:37.55	320.41	4.06	-61.8	-81.2	3.8	7.46e-01	0	35	104	1081606144	91	35287
2026-01-01 08:12:38.54	320.32	4.00	-61.8	-81.2	3.8	7.45e-01	0	35	104	1081606144	91	35428
2026-01-01 08:12:39.53	320.24	3.94	-61.9	-81.2	3.8	7.46e-01	0	34	104	1081606144	91	35450
2026-01-01 08:12:40.53	320.15	3.88	-61.9	-81.2	3.8	7.47e-01	0	35	104	1081606144	91	35563
2026-01-01 08:12:41.53	320.07	3.82	-61.9	-81.2	3.8	7.46e-01	0	35	104	1081606144	91	35530
2026-01-01 08:12:42.52	319.98	3.76	-61.9	-81.2	3.8	7.44e-01	0	35	104	1081606144	91	35401
2026-01-01 08:12:43.51	319.90	3.70	-61.8	-81.2	3.8	7.48e-01	0	34	104	1081606144	91	35412
2026-01-01 08:12:44.51	319.82	3.64	-61.8	-81.1	3.8	7.49e-01	0	35	104	1081606144	91	35114
2026-01-01 08:12:45.50	319.73	3.58	-61.8	-81.1	3.8	7.45e-01	0	35	104	1081606144	91	35028
2026-01-01 08:12:46.50	319.65	3.51	-61.7	-81.1	3.8	7.45e-01	0	35	104	1081606144	91	35068
2026-01-01 08:12:47.49	319.57	3.46	-61.7	-81.1	3.8	7.46e-01	0	35	104	1081606144	91	34981
2026-01-01 08:12:48.49	319.49	3.39	-61.7	-81.1	3.8	7.45e-01	0	35	104	1081606144	91	34883
2026-01-01 08:12:49.47	319.41	3.34	-61.7	-81.0	3.8	7.42e-01	0	35	104	1081606144	91	34787
2026-01-01 08:12:50.47	319.33	3.28	-61.7	-81.0	3.8	7.45e-01	0	35	104	1081606144	91	34788
2026-01-01 08:12:51.47	319.24	3.22	-61.7	-81.0	3.8	7.44e-01	0	35	104	1081606144	91	34845
2026-01-01 08:12:52.46	319.16	3.16	-61.7	-81.0	3.8	7.46e-01	0	35	104	1081606144	91	34773
2026-01-01 08:12:53.46	319.08	3.10	-61.7	-81.0	3.8	7.44e-01	0	35	104	1081606144	91	34715
2026-01-01 08:12:54.45	319.01	3.04	-61.7	-81.0	3.8	7.45e-01	0	35	104	1081606144	91	34606
2026-01-01 08:12:55.46	318.92	2.98	-61.7	-81.0	3.8	7.47e-01	0	35	104	1081606144	91	34631
2026-01-01 08:12:56.45	318.85	2.92	-61.6	-81.0	3.8	7.48e-01	0	34	104	1081606144	91	34623
2026-01-01 08:12:57.44	318.77	2.86	-61.6	-81.0	3.8	7.46e-01	0	35	104	1081606144	91	34483
2026-01-01 08:12:58.43	318.69	2.80	-61.6	-81.0	3.8	7.47e-01	0	35	104	1081606144	91	34566
2026-01-01 08:12:59.43	318.61	2.74	-61.6	-81.0	3.8	7.48e-01	0	35	104	1081606144	91	34543
2026-01-01 08:13:00.43	318.54	2.68	-61.6	-80.9	3.8	7.44e-01	0	35	104	1081606144	91	34455
2026-01-01 08:13:01.42	318.46	2.62	-61.6	-80.9	3.8	7.44e-01	0	35	104	1081606144	91	34437
2026-01-01 08:13:02.42	318.38	2.57	-61.6	-80.9	3.8	7.45e-01	0	35	104	1081606144	91	34327
2026-01-01 08:13:03.41	318.31	2.51	-61.6	-80.9	3.8	7.41e-01	0	34	104	1081606144	91	34401
2026-01-01 08:13:04.41	318.23	2.45	-61.6	-80.9	3.8	7.47e-01	0	35	104	1081606144	91	34330
2026-01-01 08:13:05.40	318.15	2.39	-61.6	-80.9	3.8	7.43e-01	0	35	104	1081606144	91	34315
2026-01-01 08:13:06.39	318.08	2.33	-61.6	-80.9	3.8	7.48e-01	0	35	104	1081606144	91	34366
2026-01-01 08:13:07.39	318.00	2.27	-61.6	-80.9	3.8	7.49e-01	0	35	104	1081606144	91	34331
2026-01-01 08:13:08.39	317.93	2.22	-61.6	-80.9	3.8	7.48e-01	0	35	104	1081606144	91	34261
2026-01-01 08:13:09.38	317.86	2.16	-61.6	-80.9	3.8	7.44e-01	0	35	104	1081606144	91	34226
2026-01-01 08:13:10.38	317.78	2.10	-61.6	-80.9	3.8	7.47e-01	0	35	104	1081606144	91	34324
2026-01-01 08:13:11.38	317.71	2.04	-61.6	-80.9	3.8	7.44e-01	0	35	104	1081606144	91	34278
2026-01-01 08:13:12.36	317.64	1.99	-61.5	-80.9	3.8	7.45e-01	0	35	104	1081606144	91	34159
2026-01-01 08:13:13.35	317.56	1.93	-61.5	-80.9	3.8	7.48e-01	0	35	104	1081606144	91	34236

#Closed at: 2026-01-01 08:13:13
#Recorded file [1081 MB]: D:/lorett/data/31004_260101_110202.dat