passes_logs/2026/01/01/R3.2S_Murmansk/R3.2S_Murmansk__20260101_202815_ZKG05_rec.log

#Pass ID: 20260101_202815_ZKG05
#Satellite: ZKG05
#Configuration: ZKG05
#almurnet v.1.7.20251203
#Start time: 2026-01-01 20:28:18

#Version: 2.2.20231116
#Station: R3.2S_Murmansk
#Location: 33.079688 lon 68.888172 lat
#TLE: 1 65263U 25180E   25363.54303023  .00006586  00000-0  34273-3 0  9994
#TLE: 2 65263  97.4772 128.0191 0001674  87.3453 272.7971 15.16366041 20011

#Time	Az	El	Level	Level2	SNR	BER	BlckErr	Temp	State	Recorded	gain1	gain2
2026-01-01 20:28:18.35	106.21	2.16	-59.4	-62.6	6.2	0.00e+00	0	38	0	0	85	20481
2026-01-01 20:28:19.35	106.13	2.22	-59.4	-62.6	6.2	0.00e+00	0	38	104	0	85	20540
2026-01-01 20:28:20.35	106.06	2.28	-59.4	-62.6	6.2	0.00e+00	0	38	104	0	85	20535
2026-01-01 20:28:21.35	105.98	2.35	-59.4	-62.6	6.2	0.00e+00	0	38	104	0	85	20499
2026-01-01 20:28:22.36	105.91	2.42	-59.4	-62.6	6.2	0.00e+00	0	38	104	0	85	20544
2026-01-01 20:28:23.36	105.83	2.48	-59.4	-62.6	6.2	0.00e+00	0	38	104	0	85	20505
2026-01-01 20:28:24.36	105.76	2.55	-59.4	-62.6	6.2	0.00e+00	0	38	104	0	85	20560
2026-01-01 20:28:25.36	105.68	2.61	-59.4	-62.6	6.2	0.00e+00	0	38	104	0	85	20543
2026-01-01 20:28:26.36	105.61	2.68	-59.4	-62.6	6.2	0.00e+00	0	38	104	0	85	20500
2026-01-01 20:28:27.36	105.53	2.74	-59.4	-62.6	6.2	0.00e+00	0	38	104	0	85	20529
2026-01-01 20:28:28.36	105.45	2.81	-59.4	-62.6	6.2	0.00e+00	0	38	104	0	85	20468
2026-01-01 20:28:29.36	105.37	2.87	-59.4	-62.6	6.2	0.00e+00	0	39	104	0	85	20482
2026-01-01 20:28:30.35	105.29	2.94	-59.4	-62.6	6.2	0.00e+00	0	38	104	0	85	20496
2026-01-01 20:28:31.35	105.22	3.01	-59.4	-62.6	6.2	0.00e+00	0	38	104	0	85	20499
2026-01-01 20:28:32.35	105.14	3.07	-59.4	-62.6	6.2	0.00e+00	0	39	104	0	85	20475
2026-01-01 20:28:33.35	105.06	3.14	-59.5	-62.6	6.2	0.00e+00	0	39	104	0	85	20526
2026-01-01 20:28:34.34	104.98	3.20	-59.4	-62.6	6.2	0.00e+00	0	39	104	0	85	20515
2026-01-01 20:28:35.34	104.90	3.27	-59.4	-62.6	6.2	0.00e+00	0	39	104	0	85	20496
2026-01-01 20:28:36.33	104.82	3.34	-59.4	-62.6	6.2	0.00e+00	0	39	104	0	85	20565
2026-01-01 20:28:37.33	104.73	3.40	-59.5	-62.6	6.2	0.00e+00	0	39	104	0	85	20534
2026-01-01 20:28:38.32	104.65	3.47	-59.5	-62.6	6.2	0.00e+00	0	39	104	0	85	20562
2026-01-01 20:28:39.32	104.57	3.54	-59.5	-62.6	6.2	0.00e+00	0	39	104	0	85	20610
2026-01-01 20:28:40.32	104.49	3.61	-59.5	-62.6	6.2	0.00e+00	0	39	104	0	85	20545
2026-01-01 20:28:41.32	104.40	3.67	-59.5	-62.6	6.2	0.00e+00	0	39	104	0	85	20496
2026-01-01 20:28:42.31	104.32	3.74	-59.5	-62.6	6.2	0.00e+00	0	39	104	0	85	20610
2026-01-01 20:28:43.31	104.23	3.81	-59.5	-62.6	6.2	0.00e+00	0	39	104	0	85	20562
2026-01-01 20:28:44.31	104.15	3.88	-59.5	-62.6	6.2	0.00e+00	0	39	104	0	85	20581
2026-01-01 20:28:45.31	104.06	3.95	-59.5	-62.6	6.2	0.00e+00	0	39	104	0	85	20581
2026-01-01 20:28:46.31	103.98	4.02	-59.5	-62.6	6.2	0.00e+00	0	39	104	0	85	20513
2026-01-01 20:28:47.30	103.89	4.08	-59.5	-62.6	6.2	0.00e+00	0	39	104	0	85	20548
2026-01-01 20:28:48.30	103.80	4.15	-59.5	-62.6	6.2	0.00e+00	0	39	104	0	85	20556
2026-01-01 20:28:49.30	103.72	4.22	-59.5	-62.6	6.2	0.00e+00	0	39	104	0	85	20589
2026-01-01 20:28:50.29	103.63	4.29	-59.5	-62.6	6.2	0.00e+00	0	40	104	0	85	20532
2026-01-01 20:28:51.29	103.54	4.36	-59.5	-62.6	6.2	0.00e+00	0	39	104	0	85	20596
2026-01-01 20:28:52.28	103.45	4.43	-59.5	-62.6	6.2	0.00e+00	0	39	104	0	85	20582
2026-01-01 20:28:53.28	103.36	4.50	-59.5	-62.6	6.2	0.00e+00	0	40	104	0	85	20562
2026-01-01 20:28:54.28	103.27	4.57	-59.5	-62.6	6.2	0.00e+00	0	40	104	0	85	20618
2026-01-01 20:28:55.28	103.18	4.64	-59.5	-62.6	6.2	0.00e+00	0	40	104	0	85	20592
2026-01-01 20:28:56.28	103.09	4.71	-59.5	-62.6	6.2	0.00e+00	0	40	104	0	85	20611
2026-01-01 20:28:57.28	102.99	4.78	-59.5	-62.6	6.2	0.00e+00	0	40	104	0	85	20620
2026-01-01 20:28:58.28	102.90	4.85	-59.5	-62.6	6.2	0.00e+00	0	40	104	0	85	20574
2026-01-01 20:28:59.28	102.81	4.92	-59.5	-62.7	6.2	0.00e+00	0	40	104	0	85	20649
2026-01-01 20:29:00.28	102.71	5.00	-59.5	-62.6	6.2	0.00e+00	0	40	104	0	85	20618
2026-01-01 20:29:01.28	102.62	5.07	-59.5	-62.7	6.2	0.00e+00	0	40	104	0	85	20839
2026-01-01 20:29:02.28	102.52	5.14	-59.8	-62.9	6.2	0.00e+00	0	40	104	0	85	21242
2026-01-01 20:29:03.28	102.43	5.21	-59.8	-62.9	6.2	0.00e+00	0	40	104	0	85	21252
2026-01-01 20:29:04.28	102.33	5.28	-59.6	-62.8	6.2	0.00e+00	0	40	104	0	85	20953
2026-01-01 20:29:05.28	102.23	5.36	-59.8	-62.9	6.2	0.00e+00	0	40	104	0	85	21275
2026-01-01 20:29:06.28	102.14	5.43	-59.7	-62.9	6.2	0.00e+00	0	40	104	0	85	21131
2026-01-01 20:29:07.27	102.04	5.50	-59.9	-63.0	6.2	0.00e+00	0	40	104	0	85	21559
2026-01-01 20:29:08.27	101.94	5.57	-59.7	-62.9	6.2	0.00e+00	0	40	104	0	85	21219
2026-01-01 20:29:09.27	101.84	5.65	-59.8	-63.0	6.2	0.00e+00	0	40	104	0	85	21367
2026-01-01 20:29:10.27	101.74	5.72	-59.8	-62.9	6.2	0.00e+00	0	40	104	0	85	21319
2026-01-01 20:29:11.27	101.64	5.79	-59.9	-63.0	6.2	0.00e+00	0	40	104	0	85	21600
2026-01-01 20:29:12.26	101.54	5.87	-59.8	-62.9	6.2	0.00e+00	0	40	104	0	85	21328
2026-01-01 20:29:13.26	101.44	5.94	-59.8	-63.0	6.2	0.00e+00	0	40	104	0	85	21439
2026-01-01 20:29:14.25	101.33	6.01	-59.8	-63.0	6.2	0.00e+00	0	40	104	0	85	21371
2026-01-01 20:29:15.25	101.23	6.09	-59.9	-63.1	6.2	0.00e+00	0	40	104	0	85	21753
2026-01-01 20:29:16.24	101.13	6.16	-59.8	-63.0	6.2	0.00e+00	0	40	104	0	85	21423
2026-01-01 20:29:17.24	101.02	6.24	-59.9	-63.1	6.2	0.00e+00	0	40	104	0	85	21610
2026-01-01 20:29:18.24	100.92	6.31	-59.8	-63.0	6.2	0.00e+00	0	40	104	0	85	21448
2026-01-01 20:29:19.24	100.81	6.39	-60.0	-63.1	6.2	0.00e+00	0	40	104	0	85	21747
2026-01-01 20:29:20.24	100.70	6.46	-59.8	-63.0	6.2	0.00e+00	0	40	104	0	85	21470
2026-01-01 20:29:21.24	100.60	6.54	-59.9	-63.1	6.2	0.00e+00	0	40	104	0	85	21719
2026-01-01 20:29:22.23	100.49	6.61	-59.9	-63.0	6.2	0.00e+00	0	40	104	0	85	21521
2026-01-01 20:29:23.23	100.38	6.69	-60.0	-63.1	6.2	0.00e+00	0	40	104	0	85	21834
2026-01-01 20:29:24.24	100.27	6.76	-59.9	-63.0	6.2	0.00e+00	0	40	104	0	85	21484
2026-01-01 20:29:25.24	100.16	6.84	-59.9	-63.1	6.2	0.00e+00	0	40	104	0	85	21724
2026-01-01 20:29:26.25	100.05	6.92	-59.9	-63.0	6.2	0.00e+00	0	40	104	0	85	21598
2026-01-01 20:29:27.24	99.93	6.99	-60.0	-63.2	6.2	0.00e+00	0	40	104	0	85	21859
2026-01-01 20:29:28.24	99.82	7.07	-59.9	-63.0	6.2	0.00e+00	0	41	104	0	85	21559
2026-01-01 20:29:29.23	99.71	7.15	-59.9	-63.1	6.2	0.00e+00	0	41	104	0	85	21687
2026-01-01 20:29:30.23	99.59	7.22	-59.9	-63.1	6.2	0.00e+00	0	41	104	0	85	21679
2026-01-01 20:29:31.23	99.48	7.30	-60.0	-63.2	6.2	0.00e+00	0	41	104	0	85	21907
2026-01-01 20:29:32.22	99.36	7.38	-59.9	-63.1	6.2	0.00e+00	0	40	104	0	85	21679
2026-01-01 20:29:33.22	99.25	7.46	-60.0	-63.1	6.2	0.00e+00	0	41	104	0	85	21728
2026-01-01 20:29:34.22	99.13	7.54	-59.9	-63.1	6.2	0.00e+00	0	40	104	0	85	21718
2026-01-01 20:29:35.21	99.01	7.61	-60.0	-63.2	6.2	0.00e+00	0	41	104	0	85	22002
2026-01-01 20:29:36.21	98.89	7.69	-59.9	-63.1	6.2	0.00e+00	0	41	104	0	85	21698
2026-01-01 20:29:37.20	98.78	7.77	-60.0	-63.1	6.2	0.00e+00	0	41	104	0	85	21804
2026-01-01 20:29:38.20	98.66	7.85	-59.9	-63.1	6.2	0.00e+00	0	41	104	0	85	21683
2026-01-01 20:29:39.19	98.53	7.93	-60.1	-63.2	6.2	0.00e+00	0	41	104	0	85	22030
2026-01-01 20:29:40.19	98.41	8.01	-60.0	-63.1	6.2	0.00e+00	0	41	104	0	85	21819
2026-01-01 20:29:41.18	98.29	8.09	-60.0	-63.2	6.2	0.00e+00	0	41	104	0	85	21878
2026-01-01 20:29:42.17	98.17	8.17	-60.0	-63.1	6.2	0.00e+00	0	41	104	0	85	21805
2026-01-01 20:29:43.16	98.04	8.24	-60.1	-63.2	6.2	0.00e+00	0	41	104	0	85	22045
2026-01-01 20:29:44.16	97.92	8.33	-60.0	-63.2	6.2	0.00e+00	0	41	104	0	85	21868
2026-01-01 20:29:45.16	97.79	8.41	-60.0	-63.2	6.2	0.00e+00	0	41	104	0	85	21945
2026-01-01 20:29:46.16	97.66	8.49	-60.0	-63.1	6.2	0.00e+00	0	41	104	0	85	21854
2026-01-01 20:29:47.14	97.54	8.57	-60.1	-63.3	6.2	0.00e+00	0	41	104	0	85	22171
2026-01-01 20:29:48.13	97.41	8.65	-60.0	-63.2	6.2	0.00e+00	0	41	104	0	85	21959
2026-01-01 20:29:49.13	97.28	8.73	-60.0	-63.2	6.2	0.00e+00	0	41	104	0	85	22074
2026-01-01 20:29:50.13	97.15	8.81	-60.0	-63.2	6.2	0.00e+00	0	41	104	0	85	21898
2026-01-01 20:29:51.13	97.02	8.89	-60.1	-63.3	6.2	0.00e+00	0	41	104	0	85	22151
2026-01-01 20:29:52.12	96.88	8.97	-60.1	-63.2	6.2	0.00e+00	0	41	104	0	85	22013
2026-01-01 20:29:53.12	96.75	9.06	-60.1	-63.2	6.2	0.00e+00	0	41	104	0	85	22008
2026-01-01 20:29:54.11	96.62	9.14	-60.0	-63.2	6.2	0.00e+00	0	41	104	0	85	21990
2026-01-01 20:29:55.11	96.48	9.22	-60.1	-63.3	6.2	0.00e+00	0	41	104	0	85	22221
2026-01-01 20:29:56.10	96.35	9.30	-60.1	-63.2	6.2	0.00e+00	0	41	104	0	85	22065
2026-01-01 20:29:57.10	96.21	9.39	-60.1	-63.3	6.2	0.00e+00	0	41	104	0	85	22178
2026-01-01 20:29:58.11	96.07	9.47	-60.1	-63.2	6.2	0.00e+00	0	41	104	0	85	22052
2026-01-01 20:29:59.10	95.93	9.55	-60.2	-63.3	6.2	0.00e+00	0	41	104	0	85	22262
2026-01-01 20:30:00.10	95.79	9.64	-60.1	-63.2	6.2	0.00e+00	0	41	104	0	85	22065
2026-01-01 20:30:01.10	95.65	9.72	-60.1	-63.3	6.2	0.00e+00	0	41	104	0	85	22154
2026-01-01 20:30:02.10	95.50	9.81	-60.1	-63.2	6.2	0.00e+00	0	41	104	0	85	22004
2026-01-01 20:30:03.10	95.36	9.89	-60.2	-63.3	6.2	0.00e+00	0	41	104	0	85	22259
2026-01-01 20:30:04.10	95.22	9.98	-60.1	-63.2	6.2	0.00e+00	0	41	104	0	85	22109
2026-01-01 20:30:05.09	95.07	10.06	-60.1	-63.3	6.2	0.00e+00	0	41	104	0	85	22261
2026-01-01 20:30:06.09	94.93	10.15	-60.1	-63.3	6.2	0.00e+00	0	41	104	0	85	22121
2026-01-01 20:30:07.08	94.78	10.23	-60.2	-63.3	6.2	0.00e+00	0	41	104	0	85	22298
2026-01-01 20:30:08.08	94.63	10.32	-60.1	-63.3	6.2	0.00e+00	0	41	104	0	85	22142
2026-01-01 20:30:09.08	94.48	10.40	-60.2	-63.3	6.2	0.00e+00	0	41	104	0	85	22237
2026-01-01 20:30:10.07	94.33	10.49	-60.1	-63.3	6.2	0.00e+00	0	41	104	0	85	22117
2026-01-01 20:30:11.07	94.18	10.58	-60.2	-63.4	6.2	0.00e+00	0	41	104	0	85	22368
2026-01-01 20:30:12.06	94.03	10.66	-60.1	-63.3	6.2	0.00e+00	0	41	104	0	85	22273
2026-01-01 20:30:13.07	93.87	10.75	-60.2	-63.3	6.2	0.00e+00	0	41	104	0	85	22326
2026-01-01 20:30:14.06	93.72	10.84	-60.1	-63.3	6.2	0.00e+00	0	41	104	0	85	22246
2026-01-01 20:30:15.06	93.56	10.92	-60.2	-63.4	6.2	0.00e+00	0	41	104	0	85	22382
2026-01-01 20:30:16.07	93.40	11.01	-60.2	-63.3	6.2	0.00e+00	0	41	104	0	85	22297
2026-01-01 20:30:17.06	93.24	11.10	-60.2	-63.4	6.2	0.00e+00	0	41	104	0	85	22375
2026-01-01 20:30:18.06	93.08	11.19	-60.2	-63.3	6.2	0.00e+00	0	41	104	0	85	22190
2026-01-01 20:30:19.06	92.92	11.28	-60.2	-63.4	6.2	0.00e+00	0	41	104	0	85	22434
2026-01-01 20:30:20.06	92.76	11.36	-60.2	-63.3	6.2	0.00e+00	0	41	104	0	85	22319
2026-01-01 20:30:21.05	92.60	11.45	-60.2	-63.4	6.2	0.00e+00	0	41	104	0	85	22401
2026-01-01 20:30:22.04	92.43	11.54	-60.2	-63.3	6.2	0.00e+00	0	41	104	0	85	22267
2026-01-01 20:30:23.04	92.27	11.63	-60.3	-63.4	6.2	0.00e+00	0	41	104	0	85	22503
2026-01-01 20:30:24.04	92.10	11.72	-60.2	-63.4	6.2	0.00e+00	0	41	104	0	85	22379
2026-01-01 20:30:25.04	91.93	11.81	-60.2	-63.4	6.2	0.00e+00	0	41	104	0	85	22408
2026-01-01 20:30:26.04	91.76	11.90	-60.2	-63.4	6.2	0.00e+00	0	41	104	0	85	22423
2026-01-01 20:30:27.03	91.59	11.99	-60.3	-63.4	6.2	0.00e+00	0	41	104	0	85	22552
2026-01-01 20:30:28.03	91.42	12.08	-60.2	-63.4	6.2	0.00e+00	0	41	104	0	85	22479
2026-01-01 20:30:29.03	91.24	12.17	-60.3	-63.4	6.2	0.00e+00	0	41	104	0	85	22564
2026-01-01 20:30:30.04	91.07	12.26	-60.2	-63.4	6.2	0.00e+00	0	41	104	0	85	22474
2026-01-01 20:30:31.04	90.89	12.35	-60.3	-63.4	6.2	0.00e+00	0	41	104	0	85	22488
2026-01-01 20:30:32.04	90.71	12.44	-60.2	-63.4	6.2	0.00e+00	0	41	104	0	85	22456
2026-01-01 20:30:33.03	90.53	12.53	-60.3	-63.4	6.2	0.00e+00	0	41	104	0	85	22533
2026-01-01 20:30:34.03	90.35	12.62	-60.2	-63.4	6.2	0.00e+00	0	41	104	0	85	22476
2026-01-01 20:30:35.03	90.17	12.72	-60.3	-63.4	6.2	0.00e+00	0	41	104	0	85	22618
2026-01-01 20:30:36.03	89.99	12.81	-60.3	-63.4	6.2	0.00e+00	0	41	104	0	85	22550
2026-01-01 20:30:37.02	89.81	12.90	-60.3	-63.4	6.2	0.00e+00	0	41	104	0	85	22585
2026-01-01 20:30:38.02	89.62	12.99	-60.3	-63.4	6.2	0.00e+00	0	41	104	0	85	22417
2026-01-01 20:30:39.01	89.43	13.08	-60.3	-63.5	6.2	0.00e+00	0	41	104	0	86	21466
2026-01-01 20:30:40.00	89.25	13.18	-60.3	-63.4	6.2	0.00e+00	0	41	104	0	86	21310
2026-01-01 20:30:41.01	89.06	13.27	-60.3	-63.5	6.2	0.00e+00	0	41	104	0	86	21370
2026-01-01 20:30:42.00	88.87	13.36	-60.3	-63.4	6.2	0.00e+00	0	41	104	0	86	21346
2026-01-01 20:30:42.99	88.67	13.45	-60.4	-63.5	6.2	0.00e+00	0	41	104	0	86	21469
2026-01-01 20:30:43.98	88.48	13.55	-60.3	-63.5	6.2	0.00e+00	0	41	104	0	86	21392
2026-01-01 20:30:44.98	88.29	13.64	-60.3	-63.5	6.2	0.00e+00	0	41	104	0	86	21454
2026-01-01 20:30:45.97	88.09	13.73	-60.3	-63.4	6.2	0.00e+00	0	41	104	0	86	21333
2026-01-01 20:30:46.97	87.89	13.83	-60.4	-63.5	6.2	0.00e+00	0	41	104	0	86	21501
2026-01-01 20:30:47.97	87.69	13.92	-60.3	-63.5	6.2	0.00e+00	0	42	104	0	86	21379
2026-01-01 20:30:48.98	87.49	14.02	-60.3	-63.5	6.2	0.00e+00	0	42	104	0	86	21382
2026-01-01 20:30:49.98	87.28	14.11	-60.3	-63.5	6.2	0.00e+00	0	42	104	0	86	21382
2026-01-01 20:30:50.98	87.08	14.21	-60.4	-63.5	6.2	0.00e+00	0	41	104	0	86	21544
2026-01-01 20:30:51.98	86.87	14.30	-60.3	-63.5	6.2	0.00e+00	0	41	104	0	86	21403
2026-01-01 20:30:52.98	86.66	14.39	-60.3	-63.5	6.2	0.00e+00	0	41	104	0	86	21490
2026-01-01 20:30:53.97	86.46	14.49	-60.3	-63.5	6.2	0.00e+00	0	41	104	0	86	21397
2026-01-01 20:30:54.97	86.24	14.58	-60.4	-63.5	6.2	0.00e+00	0	41	104	0	86	21549
2026-01-01 20:30:55.96	86.03	14.68	-60.3	-63.5	6.2	0.00e+00	0	41	104	0	86	21434
2026-01-01 20:30:56.97	85.82	14.77	-60.4	-63.5	6.2	0.00e+00	0	41	104	0	86	21505
2026-01-01 20:30:57.97	85.60	14.87	-60.3	-63.5	6.2	0.00e+00	0	41	104	0	86	21400
2026-01-01 20:30:58.97	85.38	14.97	-60.4	-63.5	6.2	0.00e+00	0	41	104	0	86	21536
2026-01-01 20:30:59.97	85.16	15.06	-60.4	-63.5	6.2	0.00e+00	0	41	104	0	86	21553
2026-01-01 20:31:00.96	84.94	15.16	-60.4	-63.5	6.2	0.00e+00	0	41	104	0	86	21560
2026-01-01 20:31:01.96	84.72	15.25	-60.3	-63.5	6.2	0.00e+00	0	41	104	0	86	21446
2026-01-01 20:31:02.96	84.50	15.35	-60.4	-63.6	6.2	0.00e+00	0	41	104	0	86	21631
2026-01-01 20:31:03.95	84.27	15.44	-60.4	-63.5	6.2	0.00e+00	0	42	104	0	86	21583
2026-01-01 20:31:04.95	84.04	15.54	-60.4	-63.5	6.2	0.00e+00	0	41	104	0	86	21551
2026-01-01 20:31:05.95	83.81	15.64	-60.4	-63.5	6.2	0.00e+00	0	41	104	0	86	21499
2026-01-01 20:31:06.95	83.58	15.73	-60.4	-63.6	6.2	0.00e+00	0	41	104	0	86	21632
2026-01-01 20:31:07.95	83.35	15.83	-60.4	-63.5	6.2	0.00e+00	0	41	104	0	86	21591
2026-01-01 20:31:08.96	83.11	15.93	-60.4	-63.6	6.2	0.00e+00	0	41	104	0	86	21618
2026-01-01 20:31:09.96	82.87	16.02	-60.4	-63.5	6.2	0.00e+00	0	41	104	0	86	21520
2026-01-01 20:31:10.96	82.64	16.12	-60.4	-63.6	6.2	0.00e+00	0	42	104	0	86	21662
2026-01-01 20:31:11.95	82.40	16.22	-60.4	-63.5	6.2	0.00e+00	0	41	104	0	86	21555
2026-01-01 20:31:12.95	82.15	16.31	-60.4	-63.6	6.2	0.00e+00	0	41	104	0	86	21614
2026-01-01 20:31:13.95	81.91	16.41	-60.4	-63.5	6.2	0.00e+00	0	41	104	0	86	21534
2026-01-01 20:31:14.95	81.66	16.51	-60.4	-63.6	6.2	0.00e+00	0	41	104	0	86	21684
2026-01-01 20:31:15.95	81.42	16.60	-60.4	-63.6	6.2	0.00e+00	0	42	104	0	86	21637
2026-01-01 20:31:16.95	81.17	16.70	-60.4	-63.6	6.2	0.00e+00	0	41	104	0	86	21609
2026-01-01 20:31:17.95	80.91	16.80	-60.4	-63.5	6.2	0.00e+00	0	42	104	0	86	21520
2026-01-01 20:31:18.94	80.66	16.89	-60.4	-63.6	6.2	0.00e+00	0	42	104	0	86	21681
2026-01-01 20:31:19.95	80.41	16.99	-60.4	-63.6	6.2	0.00e+00	0	42	104	0	86	21609
2026-01-01 20:31:20.94	80.15	17.08	-60.4	-63.6	6.2	0.00e+00	0	42	104	0	86	21621
2026-01-01 20:31:21.94	79.89	17.18	-60.4	-63.5	6.2	0.00e+00	0	42	104	0	86	21519
2026-01-01 20:31:22.94	79.63	17.28	-60.4	-63.6	6.2	0.00e+00	0	41	104	0	86	21691
2026-01-01 20:31:23.94	79.37	17.37	-60.4	-63.6	6.2	0.00e+00	0	42	104	0	86	21658
2026-01-01 20:31:24.94	79.10	17.47	-60.4	-63.5	6.2	0.00e+00	0	42	104	0	86	21572
2026-01-01 20:31:25.93	78.84	17.57	-60.4	-63.6	6.2	0.00e+00	0	42	104	0	86	21620
2026-01-01 20:31:26.93	78.57	17.66	-60.5	-63.6	6.2	0.00e+00	0	41	104	0	86	21698
2026-01-01 20:31:27.93	78.30	17.76	-60.4	-63.6	6.2	0.00e+00	0	42	104	0	86	21716
2026-01-01 20:31:28.93	78.02	17.85	-60.4	-63.6	6.2	0.00e+00	0	41	104	0	86	21627
2026-01-01 20:31:29.93	77.75	17.95	-60.4	-63.6	6.2	0.00e+00	0	42	104	0	86	21714
2026-01-01 20:31:30.92	77.47	18.04	-60.5	-63.6	6.2	0.00e+00	0	41	104	0	86	21767
2026-01-01 20:31:31.93	77.19	18.14	-60.4	-63.6	6.2	0.00e+00	0	42	104	0	86	21739
2026-01-01 20:31:32.93	76.91	18.24	-60.4	-63.6	6.2	0.00e+00	0	42	104	0	86	21631
2026-01-01 20:31:33.93	76.63	18.33	-60.4	-63.5	6.2	0.00e+00	0	42	104	0	86	21582
2026-01-01 20:31:34.93	76.34	18.43	-60.5	-63.6	6.2	0.00e+00	0	41	104	0	86	21787
2026-01-01 20:31:35.93	76.06	18.52	-60.4	-63.6	6.2	0.00e+00	0	42	104	0	86	21672
2026-01-01 20:31:36.93	75.77	18.62	-60.4	-63.6	6.2	0.00e+00	0	42	104	0	86	21691
2026-01-01 20:31:37.92	75.48	18.71	-60.4	-63.6	6.2	0.00e+00	0	42	104	0	86	21632
2026-01-01 20:31:38.93	75.18	18.80	-60.5	-63.6	6.2	0.00e+00	0	42	104	0	86	21665
2026-01-01 20:31:39.92	74.89	18.90	-60.4	-63.6	6.2	0.00e+00	0	42	104	0	86	21738
2026-01-01 20:31:40.92	74.59	18.99	-60.4	-63.6	6.2	0.00e+00	0	42	104	0	86	21785
2026-01-01 20:31:41.92	74.29	19.08	-60.4	-63.6	6.2	0.00e+00	0	42	104	0	86	21672
2026-01-01 20:31:42.91	73.99	19.18	-60.5	-63.6	6.2	0.00e+00	0	42	104	0	86	21803
2026-01-01 20:31:43.91	73.69	19.27	-60.5	-63.6	6.2	0.00e+00	0	42	104	0	86	21785
2026-01-01 20:31:44.90	73.39	19.36	-60.5	-63.6	6.2	0.00e+00	0	42	104	0	86	21793
2026-01-01 20:31:45.89	73.08	19.45	-60.4	-63.6	6.2	0.00e+00	0	42	104	0	86	21767
2026-01-01 20:31:46.89	72.77	19.54	-60.5	-63.7	6.2	0.00e+00	0	42	104	0	86	21860
2026-01-01 20:31:47.89	72.46	19.63	-60.5	-63.6	6.2	0.00e+00	0	42	104	0	86	21760
2026-01-01 20:31:48.89	72.14	19.73	-60.5	-63.6	6.2	0.00e+00	0	42	104	0	86	21792
2026-01-01 20:31:49.88	71.83	19.81	-60.4	-63.6	6.2	0.00e+00	0	42	104	0	86	21744
2026-01-01 20:31:50.88	71.51	19.90	-60.5	-63.6	6.2	0.00e+00	0	42	104	0	86	21798
2026-01-01 20:31:51.88	71.19	19.99	-60.5	-63.6	6.2	0.00e+00	0	42	104	0	86	21783
2026-01-01 20:31:52.88	70.87	20.08	-60.5	-63.6	6.2	0.00e+00	0	42	104	0	86	21785
2026-01-01 20:31:53.88	70.54	20.17	-60.5	-63.6	6.2	0.00e+00	0	42	104	0	86	21760
2026-01-01 20:31:54.87	70.22	20.26	-60.5	-63.6	6.2	0.00e+00	0	42	104	0	86	21828
2026-01-01 20:31:55.87	69.89	20.35	-60.5	-63.6	6.2	0.00e+00	0	42	104	0	86	21840
2026-01-01 20:31:56.87	69.56	20.43	-60.5	-63.6	6.2	0.00e+00	0	42	104	0	86	21789
2026-01-01 20:31:57.87	69.22	20.52	-60.5	-63.6	6.2	0.00e+00	0	42	104	0	86	21783
2026-01-01 20:31:58.87	68.89	20.61	-60.5	-63.7	6.2	0.00e+00	0	42	104	0	86	21927
2026-01-01 20:31:59.86	68.55	20.69	-60.5	-63.7	6.2	0.00e+00	0	42	104	0	86	21877
2026-01-01 20:32:00.86	68.21	20.78	-60.5	-63.6	6.2	0.00e+00	0	42	104	0	86	21833
2026-01-01 20:32:01.87	67.86	20.86	-60.5	-63.6	6.2	0.00e+00	0	42	104	0	86	21776
2026-01-01 20:32:02.87	67.52	20.95	-60.5	-63.7	6.2	0.00e+00	0	42	104	0	86	21904
2026-01-01 20:32:03.87	67.17	21.03	-60.5	-63.7	6.2	0.00e+00	0	42	104	0	86	21905
2026-01-01 20:32:04.87	66.83	21.11	-60.5	-63.6	6.2	0.00e+00	0	42	104	0	86	21815
2026-01-01 20:32:05.86	66.48	21.19	-60.5	-63.7	6.2	0.00e+00	0	42	104	0	86	21898
2026-01-01 20:32:06.86	66.13	21.27	-60.5	-63.7	6.2	0.00e+00	0	42	104	0	86	21926
2026-01-01 20:32:07.85	65.77	21.35	-60.5	-63.7	6.2	0.00e+00	0	42	104	0	86	21961
2026-01-01 20:32:08.86	65.41	21.43	-60.5	-63.7	6.2	0.00e+00	0	42	104	0	86	21900
2026-01-01 20:32:09.86	65.05	21.51	-60.5	-63.7	6.2	0.00e+00	0	42	104	0	86	21870
2026-01-01 20:32:10.86	64.69	21.59	-60.5	-63.7	6.2	0.00e+00	0	42	104	0	86	21897
2026-01-01 20:32:11.86	64.33	21.67	-60.5	-63.6	6.2	0.00e+00	0	41	104	0	86	21855
2026-01-01 20:32:12.86	63.96	21.74	-60.5	-63.7	6.2	0.00e+00	0	42	104	0	86	21959
2026-01-01 20:32:13.84	63.60	21.82	-60.5	-63.7	6.2	0.00e+00	0	42	104	0	86	21860
2026-01-01 20:32:14.84	63.24	21.89	-60.5	-63.7	6.2	0.00e+00	0	42	104	0	86	22004
2026-01-01 20:32:15.84	62.86	21.96	-60.5	-63.7	6.2	0.00e+00	0	42	104	0	86	21932
2026-01-01 20:32:16.84	62.49	22.04	-60.5	-63.7	6.2	0.00e+00	0	42	104	0	86	21930
2026-01-01 20:32:17.84	62.12	22.11	-60.5	-63.7	6.2	0.00e+00	0	42	104	0	86	21914
2026-01-01 20:32:18.84	61.74	22.18	-60.6	-63.7	6.2	0.00e+00	0	42	104	0	86	21979
2026-01-01 20:32:19.84	61.36	22.25	-60.5	-63.7	6.2	0.00e+00	0	42	104	0	86	22003
2026-01-01 20:32:20.84	60.98	22.32	-60.5	-63.7	6.2	0.00e+00	0	42	104	0	86	21938
2026-01-01 20:32:21.83	60.60	22.38	-60.5	-63.7	6.2	0.00e+00	0	42	104	0	86	21927
2026-01-01 20:32:22.83	60.22	22.45	-60.6	-63.7	6.2	0.00e+00	0	42	104	0	86	21982
2026-01-01 20:32:23.83	59.83	22.52	-60.6	-63.7	6.2	0.00e+00	0	42	104	0	86	22056
2026-01-01 20:32:24.82	59.45	22.58	-60.6	-63.7	6.2	0.00e+00	0	42	104	0	86	21977
2026-01-01 20:32:25.83	59.05	22.65	-60.5	-63.7	6.2	0.00e+00	0	42	104	0	86	22015
2026-01-01 20:32:26.82	58.66	22.71	-60.6	-63.7	6.2	0.00e+00	0	42	104	0	86	22061
2026-01-01 20:32:27.81	58.27	22.77	-60.6	-63.7	6.2	0.00e+00	0	42	104	0	86	22035
2026-01-01 20:32:28.81	57.88	22.83	-60.6	-63.7	6.2	0.00e+00	0	41	104	0	86	22072
2026-01-01 20:32:29.81	57.48	22.89	-60.5	-63.7	6.2	0.00e+00	0	41	104	0	86	21996
2026-01-01 20:32:30.81	57.08	22.95	-60.6	-63.7	6.2	0.00e+00	0	42	104	0	86	22085
2026-01-01 20:32:31.81	56.68	23.00	-60.6	-63.8	6.2	0.00e+00	0	42	104	0	86	22111
2026-01-01 20:32:32.81	56.28	23.06	-60.6	-63.7	6.2	0.00e+00	0	42	104	0	86	22089
2026-01-01 20:32:33.80	55.88	23.11	-60.6	-63.7	6.2	0.00e+00	0	42	104	0	86	22006
2026-01-01 20:32:34.81	55.47	23.16	-60.6	-63.7	6.2	0.00e+00	0	42	104	0	86	22047
2026-01-01 20:32:35.81	55.07	23.22	-60.6	-63.8	6.2	0.00e+00	0	42	104	0	86	22110
2026-01-01 20:32:36.80	54.66	23.27	-60.6	-63.7	6.2	0.00e+00	0	42	104	0	86	22051
2026-01-01 20:32:37.80	54.25	23.32	-60.6	-63.7	6.2	0.00e+00	0	42	104	0	86	22046
2026-01-01 20:32:38.80	53.84	23.36	-60.6	-63.7	6.2	0.00e+00	0	42	104	0	86	22036
2026-01-01 20:32:39.80	53.43	23.41	-60.6	-63.8	6.2	0.00e+00	0	42	104	0	86	22110
2026-01-01 20:32:40.80	53.02	23.45	-60.6	-63.7	6.2	0.00e+00	0	41	104	0	86	22071
2026-01-01 20:32:41.79	52.61	23.50	-60.6	-63.7	6.2	0.00e+00	0	41	104	0	86	22096
2026-01-01 20:32:42.79	52.19	23.54	-60.6	-63.8	6.2	0.00e+00	0	42	104	0	86	22133
2026-01-01 20:32:43.79	51.77	23.58	-60.6	-63.8	6.2	0.00e+00	0	42	104	0	86	22142
2026-01-01 20:32:44.78	51.36	23.62	-60.6	-63.8	6.2	0.00e+00	0	42	104	0	86	22112
2026-01-01 20:32:45.77	50.94	23.66	-60.6	-63.7	6.2	0.00e+00	0	42	104	0	86	22062
2026-01-01 20:32:46.77	50.52	23.69	-60.6	-63.8	6.2	0.00e+00	0	42	104	0	86	22121
2026-01-01 20:32:47.77	50.10	23.73	-60.6	-63.8	6.2	0.00e+00	0	42	104	0	86	22159
2026-01-01 20:32:48.77	49.68	23.76	-60.6	-63.7	6.2	0.00e+00	0	42	104	0	86	22063
2026-01-01 20:32:49.75	49.26	23.79	-60.6	-63.8	6.2	0.00e+00	0	42	104	0	86	22114
2026-01-01 20:32:50.75	48.84	23.83	-60.6	-63.8	6.2	0.00e+00	0	42	104	0	86	22180
2026-01-01 20:32:51.75	48.41	23.85	-60.6	-63.8	6.2	0.00e+00	0	42	104	0	86	22195
2026-01-01 20:32:52.74	47.99	23.88	-60.6	-63.8	6.2	0.00e+00	0	42	104	0	86	22187
2026-01-01 20:32:53.74	47.56	23.91	-60.6	-63.7	6.2	0.00e+00	0	42	104	0	86	22092
2026-01-01 20:32:54.74	47.14	23.93	-60.6	-63.8	6.2	0.00e+00	0	42	104	0	86	22180
2026-01-01 20:32:55.74	46.71	23.96	-60.7	-63.8	6.2	0.00e+00	0	42	104	0	86	22268
2026-01-01 20:32:56.73	46.28	23.98	-60.6	-63.8	6.2	0.00e+00	0	42	104	0	86	22202
2026-01-01 20:32:57.73	45.85	24.00	-60.6	-63.8	6.2	0.00e+00	0	42	104	0	86	22194
2026-01-01 20:32:58.73	45.42	24.01	-60.6	-63.8	6.2	0.00e+00	0	42	104	0	86	22178
2026-01-01 20:32:59.73	44.99	24.03	-60.6	-63.8	6.2	0.00e+00	0	42	104	0	86	22285
2026-01-01 20:33:00.72	44.56	24.05	-60.6	-63.8	6.2	0.00e+00	0	42	104	0	86	22261
2026-01-01 20:33:01.72	44.13	24.06	-60.6	-63.8	6.2	0.00e+00	0	42	104	0	86	22173
2026-01-01 20:33:02.72	43.70	24.07	-60.6	-63.8	6.2	0.00e+00	0	42	104	0	86	22236
2026-01-01 20:33:03.72	43.27	24.08	-60.6	-63.8	6.2	0.00e+00	0	42	104	0	86	22274
2026-01-01 20:33:04.72	42.83	24.09	-60.7	-63.8	6.2	0.00e+00	0	42	104	0	86	22253
2026-01-01 20:33:05.72	42.40	24.10	-60.6	-63.8	6.2	0.00e+00	0	42	104	0	86	22216
2026-01-01 20:33:06.72	41.97	24.10	-60.7	-63.8	6.2	0.00e+00	0	42	104	0	86	22318
2026-01-01 20:33:07.73	41.53	24.11	-60.7	-63.8	6.2	0.00e+00	0	42	104	0	86	22237
2026-01-01 20:33:08.72	41.10	24.11	-60.7	-63.8	6.2	0.00e+00	0	42	104	0	86	22248
2026-01-01 20:33:09.72	40.66	24.11	-60.6	-63.8	6.2	0.00e+00	0	42	104	0	86	22171
2026-01-01 20:33:10.72	40.23	24.11	-60.7	-63.8	6.2	0.00e+00	0	42	104	0	86	22299
2026-01-01 20:33:11.72	39.80	24.11	-60.7	-63.8	6.2	0.00e+00	0	42	104	0	86	22337
2026-01-01 20:33:12.72	39.36	24.10	-60.7	-63.8	6.2	0.00e+00	0	42	104	0	86	22282
2026-01-01 20:33:13.71	38.94	24.10	-60.6	-63.8	6.2	0.00e+00	0	42	104	0	86	22205
2026-01-01 20:33:14.72	38.50	24.09	-60.7	-63.8	6.2	0.00e+00	0	42	104	0	86	22281
2026-01-01 20:33:15.71	38.07	24.08	-60.7	-63.8	6.2	0.00e+00	0	42	104	0	86	22255
2026-01-01 20:33:16.71	37.64	24.07	-60.7	-63.8	6.2	0.00e+00	0	42	104	0	86	22275
2026-01-01 20:33:17.71	37.20	24.06	-60.7	-63.8	6.2	0.00e+00	0	42	104	0	86	22282
2026-01-01 20:33:18.71	36.77	24.04	-60.7	-63.8	6.2	0.00e+00	0	42	104	0	86	22314
2026-01-01 20:33:19.71	36.34	24.03	-60.7	-63.8	6.2	0.00e+00	0	42	104	0	86	22274
2026-01-01 20:33:20.70	35.92	24.01	-60.7	-63.8	6.2	0.00e+00	0	42	104	0	86	22286
2026-01-01 20:33:21.70	35.49	23.99	-60.7	-63.8	6.2	0.00e+00	0	42	104	0	86	22241
2026-01-01 20:33:22.71	35.05	23.97	-60.7	-63.8	6.2	0.00e+00	0	42	104	0	86	22286
2026-01-01 20:33:23.70	34.63	23.95	-60.7	-63.8	6.2	0.00e+00	0	42	104	0	86	22268
2026-01-01 20:33:24.70	34.20	23.93	-60.7	-63.8	6.2	0.00e+00	0	42	104	0	86	22288
2026-01-01 20:33:25.69	33.77	23.90	-60.7	-63.8	6.2	0.00e+00	0	42	104	0	86	22258
2026-01-01 20:33:26.68	33.35	23.88	-60.7	-63.8	6.2	0.00e+00	0	42	104	0	86	22287
2026-01-01 20:33:27.68	32.93	23.85	-60.7	-63.8	6.2	0.00e+00	0	42	104	0	86	22306
2026-01-01 20:33:28.67	32.51	23.82	-60.7	-63.8	6.2	0.00e+00	0	42	104	0	86	22296
2026-01-01 20:33:29.68	32.08	23.79	-60.7	-63.8	6.2	0.00e+00	0	42	104	0	86	22215
2026-01-01 20:33:30.67	31.66	23.76	-60.7	-63.8	6.2	0.00e+00	0	42	104	0	86	22306
2026-01-01 20:33:31.67	31.24	23.72	-60.7	-63.8	6.2	0.00e+00	0	42	104	0	86	22322
2026-01-01 20:33:32.68	30.81	23.69	-60.7	-63.8	6.2	0.00e+00	0	42	104	0	86	22260
2026-01-01 20:33:33.68	30.39	23.65	-60.7	-63.8	6.2	0.00e+00	0	42	104	0	86	22218
2026-01-01 20:33:34.68	29.97	23.61	-60.7	-63.8	6.2	0.00e+00	0	42	104	0	86	22334
2026-01-01 20:33:35.68	29.55	23.57	-60.7	-63.8	6.2	0.00e+00	0	42	104	0	86	22269
2026-01-01 20:33:36.68	29.14	23.53	-60.7	-63.8	6.2	0.00e+00	0	42	104	0	86	22324
2026-01-01 20:33:37.69	28.72	23.49	-60.7	-63.8	6.2	0.00e+00	0	42	104	0	86	22242
2026-01-01 20:33:38.68	28.31	23.44	-60.7	-63.8	6.2	0.00e+00	0	42	104	0	86	22267
2026-01-01 20:33:39.68	27.90	23.40	-60.7	-63.8	6.2	0.00e+00	0	42	104	0	86	22338
2026-01-01 20:33:40.69	27.48	23.35	-60.7	-63.8	6.2	0.00e+00	0	42	104	0	86	22253
2026-01-01 20:33:41.68	27.08	23.30	-60.7	-63.8	6.2	0.00e+00	0	42	104	0	86	22207
2026-01-01 20:33:42.68	26.67	23.25	-60.7	-63.8	6.2	0.00e+00	0	42	104	0	86	22286
2026-01-01 20:33:43.68	26.26	23.20	-60.7	-63.8	6.2	0.00e+00	0	42	104	0	86	22287
2026-01-01 20:33:44.68	25.86	23.15	-60.7	-63.8	6.2	0.00e+00	0	42	104	0	86	22266
2026-01-01 20:33:45.67	25.46	23.10	-60.7	-63.8	6.2	0.00e+00	0	42	104	0	86	22240
2026-01-01 20:33:46.67	25.05	23.04	-60.7	-63.8	6.2	0.00e+00	0	42	104	0	86	22303
2026-01-01 20:33:47.67	24.65	22.99	-60.7	-63.8	6.2	0.00e+00	0	42	104	0	86	22323
2026-01-01 20:33:48.66	24.26	22.93	-60.7	-63.8	6.2	0.00e+00	0	42	104	0	86	22248
2026-01-01 20:33:49.66	23.86	22.87	-60.7	-63.8	6.2	0.00e+00	0	42	104	0	86	22246
2026-01-01 20:33:50.66	23.46	22.81	-60.7	-63.8	6.2	0.00e+00	0	42	104	0	86	22360
2026-01-01 20:33:51.66	23.07	22.75	-60.7	-63.8	6.2	0.00e+00	0	42	104	0	86	22315
2026-01-01 20:33:52.64	22.69	22.69	-60.7	-63.8	6.2	0.00e+00	0	42	104	0	86	22292
2026-01-01 20:33:53.63	22.30	22.63	-60.7	-63.8	6.2	0.00e+00	0	42	104	0	86	22262
2026-01-01 20:33:54.63	21.91	22.57	-60.7	-63.8	6.2	0.00e+00	0	42	104	0	86	22278
2026-01-01 20:33:55.62	21.53	22.50	-60.7	-63.8	6.2	0.00e+00	0	42	104	0	86	22302
2026-01-01 20:33:56.61	21.15	22.44	-60.7	-63.8	6.2	0.00e+00	0	42	104	0	86	22296
2026-01-01 20:33:57.61	20.76	22.37	-60.7	-63.8	6.2	0.00e+00	0	42	104	0	86	22294
2026-01-01 20:33:58.62	20.38	22.30	-60.7	-63.8	6.2	0.00e+00	0	42	104	0	86	22282
2026-01-01 20:33:59.62	20.00	22.23	-60.7	-63.8	6.2	0.00e+00	0	42	104	0	86	22207
2026-01-01 20:34:00.61	19.62	22.16	-60.7	-63.8	6.2	0.00e+00	0	42	104	0	86	22339
2026-01-01 20:34:01.61	19.25	22.09	-60.6	-63.8	6.2	0.00e+00	0	42	104	0	86	22191
2026-01-01 20:34:02.62	18.87	22.02	-60.6	-63.8	6.2	0.00e+00	0	42	104	0	86	22124
2026-01-01 20:34:03.61	18.50	21.95	-60.7	-63.8	6.2	0.00e+00	0	42	104	0	86	22246
2026-01-01 20:34:04.61	18.13	21.88	-60.7	-63.8	6.2	0.00e+00	0	42	104	0	86	22313
2026-01-01 20:34:05.61	17.76	21.80	-60.6	-63.8	6.2	0.00e+00	0	42	104	0	86	22132
2026-01-01 20:34:06.60	17.40	21.73	-60.7	-63.8	6.2	0.00e+00	0	42	104	0	86	22259
2026-01-01 20:34:07.60	17.04	21.65	-60.7	-63.8	6.2	0.00e+00	0	42	104	0	86	22172
2026-01-01 20:34:08.60	16.68	21.57	-60.7	-63.8	6.2	0.00e+00	0	42	104	0	86	22220
2026-01-01 20:34:09.60	16.32	21.49	-60.7	-63.8	6.2	0.00e+00	0	42	104	0	86	22215
2026-01-01 20:34:10.60	15.96	21.42	-60.7	-63.8	6.2	0.00e+00	0	42	104	0	86	22275
2026-01-01 20:34:11.60	15.60	21.34	-60.6	-63.7	6.2	0.00e+00	0	42	104	0	86	22037
2026-01-01 20:34:12.60	15.25	21.26	-60.6	-63.7	6.2	0.00e+00	0	42	104	0	86	22053
2026-01-01 20:34:13.60	14.90	21.18	-60.6	-63.7	6.2	0.00e+00	0	42	104	0	86	22015
2026-01-01 20:34:14.61	14.55	21.09	-60.6	-63.7	6.2	0.00e+00	0	42	104	0	86	21966
2026-01-01 20:34:15.61	14.20	21.01	-60.6	-63.8	6.2	0.00e+00	0	42	104	0	86	22239
2026-01-01 20:34:16.61	13.85	20.93	-60.6	-63.8	6.2	0.00e+00	0	42	104	0	86	22193
2026-01-01 20:34:17.61	13.51	20.85	-60.6	-63.8	6.2	0.00e+00	0	42	104	0	86	22151
2026-01-01 20:34:18.61	13.17	20.76	-60.6	-63.8	6.2	0.00e+00	0	42	104	0	86	22174
2026-01-01 20:34:19.60	12.83	20.68	-60.6	-63.7	6.2	0.00e+00	0	42	104	0	86	22096
2026-01-01 20:34:20.61	12.49	20.59	-60.6	-63.7	6.2	0.00e+00	0	42	104	0	86	22092
2026-01-01 20:34:21.61	12.16	20.50	-60.6	-63.8	6.2	0.00e+00	0	42	104	0	86	22115
2026-01-01 20:34:22.61	11.83	20.42	-60.6	-63.8	6.2	0.00e+00	0	42	104	0	86	22122
2026-01-01 20:34:23.61	11.50	20.33	-60.6	-63.8	6.2	0.00e+00	0	42	104	0	86	22133
2026-01-01 20:34:24.60	11.17	20.24	-60.6	-63.7	6.2	0.00e+00	0	42	104	0	86	22070
2026-01-01 20:34:25.60	10.85	20.16	-60.6	-63.7	6.2	0.00e+00	0	42	104	0	86	22096
2026-01-01 20:34:26.61	10.52	20.07	-60.6	-63.8	6.2	0.00e+00	0	42	104	0	86	22139
2026-01-01 20:34:27.60	10.20	19.98	-60.6	-63.7	6.2	0.00e+00	0	42	104	0	86	22092
2026-01-01 20:34:28.60	9.88	19.89	-60.6	-63.7	6.2	0.00e+00	0	42	104	0	86	22079
2026-01-01 20:34:29.59	9.57	19.80	-60.6	-63.7	6.2	0.00e+00	0	42	104	0	86	22017
2026-01-01 20:34:30.59	9.25	19.71	-60.6	-63.7	6.2	0.00e+00	0	42	104	0	86	22051
2026-01-01 20:34:31.59	8.94	19.62	-60.6	-63.7	6.2	0.00e+00	0	42	104	0	86	21867
2026-01-01 20:34:32.59	8.63	19.53	-60.4	-63.4	6.2	0.00e+00	0	42	104	0	86	21137
2026-01-01 20:34:33.60	8.32	19.44	-60.5	-63.7	6.2	0.00e+00	0	42	104	0	86	21872
2026-01-01 20:34:34.60	8.01	19.34	-60.6	-63.7	6.2	0.00e+00	0	42	104	0	86	22070
2026-01-01 20:34:35.60	7.71	19.25	-60.1	-62.9	6.2	0.00e+00	0	42	104	0	86	20023
2026-01-01 20:34:36.61	7.40	19.16	-60.5	-63.6	6.2	0.00e+00	0	42	104	0	86	21610
2026-01-01 20:34:37.60	7.10	19.07	-60.3	-63.2	6.2	0.00e+00	0	42	104	0	86	20697
2026-01-01 20:34:38.61	6.80	18.97	-60.4	-63.5	6.2	0.00e+00	0	42	104	0	86	21464
2026-01-01 20:34:39.60	6.51	18.88	-60.4	-63.4	6.2	0.00e+00	0	42	104	0	86	21284
2026-01-01 20:34:40.60	6.21	18.79	-60.2	-63.2	6.2	0.00e+00	0	42	104	0	86	20656
2026-01-01 20:34:41.59	5.93	18.69	-60.1	-62.9	6.2	0.00e+00	0	42	104	0	86	20023
2026-01-01 20:34:42.59	5.64	18.60	-60.1	-62.9	6.2	0.00e+00	0	42	104	0	86	20084
2026-01-01 20:34:43.58	5.35	18.51	-59.8	-62.5	6.2	0.00e+00	0	42	104	0	86	19225
2026-01-01 20:34:44.57	5.07	18.41	-60.4	-63.4	6.2	0.00e+00	0	42	104	0	86	21289
2026-01-01 20:34:45.58	4.78	18.32	-60.3	-63.2	6.2	0.00e+00	0	42	104	0	86	20821
2026-01-01 20:34:46.57	4.50	18.22	-58.7	-60.9	6.3	0.00e+00	0	42	104	0	84	17844
2026-01-01 20:34:47.57	4.22	18.13	-58.0	-60.0	6.3	0.00e+00	0	42	104	0	82	17977
2026-01-01 20:34:48.56	3.95	18.03	-57.8	-59.7	6.3	0.00e+00	0	42	104	0	82	17465
2026-01-01 20:34:49.56	3.67	17.94	-57.4	-59.2	6.3	0.00e+00	0	42	104	0	81	17476
2026-01-01 20:34:50.55	3.40	17.84	-57.0	-58.7	6.3	0.00e+00	0	42	104	0	80	17467
2026-01-01 20:34:51.53	3.14	17.75	-56.3	-57.9	6.4	0.00e+00	0	42	104	0	79	16891
2026-01-01 20:34:52.54	2.86	17.65	-57.3	-59.1	6.3	0.00e+00	0	42	104	0	79	19410
2026-01-01 20:34:53.53	2.60	17.56	-58.2	-60.3	6.3	0.00e+00	0	42	104	0	81	19795
2026-01-01 20:34:54.52	2.33	17.46	-59.5	-62.1	6.2	0.00e+00	0	42	104	0	84	20408
2026-01-01 20:34:55.52	2.07	17.37	-56.8	-58.4	6.4	0.00e+00	0	42	104	0	80	16928
2026-01-01 20:34:56.52	1.81	17.27	-49.2	-50.2	6.4	0.00e+00	0	42	104	0	65	15542
2026-01-01 20:34:57.52	1.55	17.18	-45.7	-46.6	6.4	0.00e+00	0	42	104	0	58	15304
2026-01-01 20:34:58.52	1.29	17.08	-42.9	-43.7	6.4	0.00e+00	0	42	104	0	52	15591
2026-01-01 20:34:59.52	1.04	16.98	-42.8	-43.7	6.4	0.00e+00	0	42	104	0	52	15477
2026-01-01 20:35:00.52	0.78	16.89	-44.6	-45.5	6.4	0.00e+00	0	42	104	0	54	17094
2026-01-01 20:35:01.52	0.53	16.79	-43.9	-44.7	6.4	0.00e+00	0	42	104	0	54	15603
2026-01-01 20:35:02.52	0.28	16.69	-49.3	-50.4	6.4	0.00e+00	0	42	104	0	63	17767
2026-01-01 20:35:03.51	0.03	16.60	-48.0	-49.0	6.4	0.00e+00	0	42	104	0	63	15131
2026-01-01 20:35:04.52	359.78	16.50	-43.8	-44.6	6.4	0.00e+00	0	42	104	0	54	15425
2026-01-01 20:35:05.51	359.54	16.41	-44.9	-45.8	6.4	0.00e+00	0	42	104	0	56	15676
2026-01-01 20:35:06.51	359.30	16.31	-46.3	-47.2	6.4	0.00e+00	0	42	104	0	58	16549
2026-01-01 20:35:07.51	359.06	16.21	-48.2	-49.1	6.4	0.00e+00	0	42	104	0	61	17325
2026-01-01 20:35:08.51	358.82	16.12	-50.7	-51.7	6.4	0.00e+00	0	42	104	0	66	17419
2026-01-01 20:35:09.51	358.58	16.02	-52.3	-53.3	6.4	0.00e+00	0	42	104	0	69	17721
2026-01-01 20:35:10.51	358.35	15.93	-55.0	-56.4	6.4	0.00e+00	0	42	104	0	75	17904
2026-01-01 20:35:11.50	358.11	15.83	-47.1	-48.0	6.4	0.00e+00	0	42	104	0	61	15157
2026-01-01 20:35:12.50	357.88	15.73	-46.5	-47.4	6.4	0.00e+00	0	42	104	0	58	16848
2026-01-01 20:35:13.50	357.65	15.64	-44.4	-45.3	6.4	0.00e+00	0	42	104	0	55	15701
2026-01-01 20:35:14.50	357.42	15.54	-46.4	-47.3	6.4	0.00e+00	0	42	104	0	58	16700
2026-01-01 20:35:15.50	357.20	15.45	-48.4	-49.3	6.4	0.00e+00	0	42	104	0	62	16638
2026-01-01 20:35:16.50	356.97	15.35	-50.7	-51.8	6.4	0.00e+00	0	42	104	0	66	17572
2026-01-01 20:35:17.49	356.75	15.26	-52.6	-53.7	6.4	0.00e+00	0	42	104	0	70	17488
2026-01-01 20:35:18.49	356.53	15.16	-54.0	-55.2	6.4	0.00e+00	0	42	104	0	73	17525
2026-01-01 20:35:19.48	356.31	15.07	-55.3	-56.7	6.4	0.00e+00	0	42	104	0	75	18483
2026-01-01 20:35:20.48	356.09	14.97	-59.9	-62.7	6.2	0.00e+00	0	42	104	0	85	20657
2026-01-01 20:35:21.48	355.87	14.87	-59.7	-62.4	6.2	0.00e+00	0	42	104	0	85	20104
2026-01-01 20:35:22.48	355.66	14.78	-60.1	-62.9	6.2	0.00e+00	0	42	104	0	85	21276
2026-01-01 20:35:23.48	355.45	14.68	-60.1	-63.0	6.2	0.00e+00	0	42	104	0	85	21420
2026-01-01 20:35:24.47	355.24	14.59	-60.3	-63.3	6.2	0.00e+00	0	42	104	0	85	22216
2026-01-01 20:35:25.48	355.02	14.49	-60.4	-63.5	6.2	0.00e+00	0	42	104	0	86	21555
2026-01-01 20:35:26.48	354.82	14.40	-60.4	-63.6	6.2	0.00e+00	0	42	104	0	86	21631
2026-01-01 20:35:27.47	354.61	14.31	-60.3	-63.3	6.2	0.00e+00	0	42	104	0	86	20972
2026-01-01 20:35:28.48	354.40	14.21	-60.0	-62.8	6.2	0.00e+00	0	42	104	0	86	19809
2026-01-01 20:35:29.47	354.20	14.12	-60.2	-63.3	6.2	0.00e+00	0	42	104	0	85	22115
2026-01-01 20:35:30.47	354.00	14.02	-60.2	-63.1	6.2	0.00e+00	0	42	104	0	85	21855
2026-01-01 20:35:31.46	353.80	13.93	-60.1	-63.0	6.2	0.00e+00	0	42	104	0	85	21580
2026-01-01 20:35:32.46	353.60	13.84	-60.2	-63.2	6.2	0.00e+00	0	42	104	0	85	21983
2026-01-01 20:35:33.46	353.40	13.74	-60.2	-63.2	6.2	0.00e+00	0	42	104	0	85	21930
2026-01-01 20:35:34.46	353.21	13.65	-60.2	-63.2	6.2	0.00e+00	0	42	104	0	85	21886
2026-01-01 20:35:35.47	353.01	13.56	-60.2	-63.2	6.2	0.00e+00	0	42	104	0	85	21873
2026-01-01 20:35:36.46	352.82	13.46	-60.0	-62.9	6.2	0.00e+00	0	42	104	0	85	21138
2026-01-01 20:35:37.46	352.63	13.37	-60.1	-63.0	6.2	0.00e+00	0	42	104	0	85	21502
2026-01-01 20:35:38.46	352.44	13.28	-60.1	-63.1	6.2	0.00e+00	0	42	104	0	85	21786
2026-01-01 20:35:39.45	352.25	13.19	-60.4	-63.5	6.2	0.00e+00	0	42	104	0	86	21456
2026-01-01 20:35:40.45	352.06	13.09	-60.2	-63.2	6.2	0.00e+00	0	42	104	0	86	20669
2026-01-01 20:35:41.46	351.87	13.00	-60.3	-63.4	6.2	0.00e+00	0	42	104	0	86	21214
2026-01-01 20:35:42.46	351.69	12.91	-60.3	-63.4	6.2	0.00e+00	0	42	104	0	86	21316
2026-01-01 20:35:43.46	351.50	12.82	-60.3	-63.5	6.2	0.00e+00	0	42	104	0	86	21359
2026-01-01 20:35:44.46	351.32	12.73	-60.3	-63.4	6.2	0.00e+00	0	42	104	0	86	21300
2026-01-01 20:35:45.46	351.14	12.63	-60.3	-63.3	6.2	0.00e+00	0	42	104	0	86	21059
2026-01-01 20:35:46.46	350.96	12.54	-60.3	-63.4	6.2	0.00e+00	0	42	104	0	86	21185
2026-01-01 20:35:47.46	350.78	12.45	-60.2	-63.1	6.2	0.00e+00	0	42	104	0	86	20618
2026-01-01 20:35:48.46	350.61	12.36	-60.2	-63.3	6.2	0.00e+00	0	42	104	0	86	21029
2026-01-01 20:35:49.45	350.43	12.27	-60.3	-63.3	6.2	0.00e+00	0	42	104	0	85	22361
2026-01-01 20:35:50.44	350.26	12.18	-60.3	-63.4	6.2	0.00e+00	0	42	104	0	85	22400
2026-01-01 20:35:51.44	350.09	12.09	-60.3	-63.5	6.2	0.00e+00	0	42	104	0	85	22632
2026-01-01 20:35:52.43	349.92	12.00	-60.2	-63.3	6.2	0.00e+00	0	42	104	0	85	22260
2026-01-01 20:35:53.43	349.75	11.91	-60.2	-63.4	6.2	0.00e+00	0	42	104	0	85	22430
2026-01-01 20:35:54.42	349.58	11.82	-60.3	-63.4	6.2	0.00e+00	0	42	104	0	85	22432
2026-01-01 20:35:55.42	349.41	11.74	-60.2	-63.3	6.2	0.00e+00	0	42	104	0	85	22180
2026-01-01 20:35:56.41	349.25	11.65	-60.2	-63.2	6.2	0.00e+00	0	42	104	0	85	22099
2026-01-01 20:35:57.40	349.09	11.56	-60.1	-63.2	6.2	0.00e+00	0	42	104	0	85	22083
2026-01-01 20:35:58.41	348.92	11.47	-60.2	-63.4	6.2	0.00e+00	0	42	104	0	85	22367
2026-01-01 20:35:59.41	348.76	11.38	-60.2	-63.3	6.2	0.00e+00	0	42	104	0	85	22217
2026-01-01 20:36:00.41	348.60	11.29	-60.2	-63.3	6.2	0.00e+00	0	42	104	0	85	22347
2026-01-01 20:36:01.41	348.43	11.21	-60.2	-63.4	6.2	0.00e+00	0	42	104	0	85	22391
2026-01-01 20:36:02.40	348.28	11.12	-60.2	-63.4	6.2	0.00e+00	0	42	104	0	85	22415
2026-01-01 20:36:03.40	348.12	11.03	-60.2	-63.3	6.2	0.00e+00	0	42	104	0	85	22328
2026-01-01 20:36:04.40	347.96	10.94	-60.2	-63.3	6.2	0.00e+00	0	42	104	0	85	22247
2026-01-01 20:36:05.40	347.81	10.86	-60.2	-63.3	6.2	0.00e+00	0	42	104	0	85	22254
2026-01-01 20:36:06.40	347.65	10.77	-60.2	-63.3	6.2	0.00e+00	0	42	104	0	85	22238
2026-01-01 20:36:07.41	347.50	10.68	-60.2	-63.3	6.2	0.00e+00	0	42	104	0	85	22264
2026-01-01 20:36:08.41	347.34	10.60	-60.2	-63.3	6.2	0.00e+00	0	42	104	0	85	22162
2026-01-01 20:36:09.41	347.19	10.51	-60.2	-63.3	6.2	0.00e+00	0	42	104	0	85	22201
2026-01-01 20:36:10.41	347.04	10.42	-60.2	-63.3	6.2	0.00e+00	0	42	104	0	85	22203
2026-01-01 20:36:11.41	346.89	10.34	-60.2	-63.3	6.2	0.00e+00	0	42	104	0	85	22160
2026-01-01 20:36:12.42	346.74	10.25	-60.1	-63.2	6.2	0.00e+00	0	42	104	0	85	22073
2026-01-01 20:36:13.42	346.60	10.17	-60.1	-63.3	6.2	0.00e+00	0	42	104	0	85	22148
2026-01-01 20:36:14.42	346.45	10.08	-60.2	-63.3	6.2	0.00e+00	0	42	104	0	85	22185
2026-01-01 20:36:15.41	346.31	10.00	-60.1	-63.3	6.2	0.00e+00	0	42	104	0	85	22162
2026-01-01 20:36:16.41	346.16	9.91	-60.1	-63.2	6.2	0.00e+00	0	42	104	0	85	22008
2026-01-01 20:36:17.41	346.02	9.83	-60.1	-63.2	6.2	0.00e+00	0	42	104	0	85	22043
2026-01-01 20:36:18.42	345.88	9.74	-60.1	-63.3	6.2	0.00e+00	0	42	104	0	85	22149
2026-01-01 20:36:19.42	345.74	9.66	-60.1	-63.2	6.2	0.00e+00	0	42	104	0	85	22055
2026-01-01 20:36:20.42	345.60	9.57	-60.1	-63.2	6.2	0.00e+00	0	42	104	0	85	21976
2026-01-01 20:36:21.42	345.46	9.49	-60.1	-63.2	6.2	0.00e+00	0	42	104	0	85	22052
2026-01-01 20:36:22.42	345.32	9.41	-60.1	-63.2	6.2	0.00e+00	0	42	104	0	85	22068
2026-01-01 20:36:23.41	345.19	9.33	-60.1	-63.2	6.2	0.00e+00	0	42	104	0	85	21903
2026-01-01 20:36:24.41	345.05	9.24	-60.0	-63.1	6.2	0.00e+00	0	42	104	0	85	21834
2026-01-01 20:36:25.40	344.92	9.16	-60.0	-63.2	6.2	0.00e+00	0	42	104	0	85	21927
2026-01-01 20:36:26.40	344.78	9.08	-60.1	-63.2	6.2	0.00e+00	0	42	104	0	85	21901
2026-01-01 20:36:27.40	344.65	9.00	-60.0	-63.1	6.2	0.00e+00	0	42	104	0	85	21767
2026-01-01 20:36:28.40	344.52	8.91	-59.9	-63.0	6.2	0.00e+00	0	42	104	0	85	21559
2026-01-01 20:36:29.39	344.39	8.83	-59.9	-63.0	6.2	0.00e+00	0	42	104	0	85	21552
2026-01-01 20:36:30.39	344.26	8.75	-60.0	-63.1	6.2	0.00e+00	0	42	104	0	85	21764
2026-01-01 20:36:31.38	344.13	8.67	-60.0	-63.1	6.2	0.00e+00	0	42	104	0	85	21628
2026-01-01 20:36:32.38	344.00	8.59	-59.9	-63.0	6.2	0.00e+00	0	42	104	0	85	21451
2026-01-01 20:36:33.38	343.87	8.51	-59.9	-63.0	6.2	0.00e+00	0	42	104	0	85	21602
2026-01-01 20:36:34.38	343.75	8.43	-60.0	-63.1	6.2	0.00e+00	0	42	104	0	85	21691
2026-01-01 20:36:35.38	343.62	8.35	-59.9	-63.1	6.2	0.00e+00	0	42	104	0	85	21641
2026-01-01 20:36:36.38	343.50	8.27	-59.8	-62.9	6.2	0.00e+00	0	42	104	0	85	21227
2026-01-01 20:36:37.38	343.37	8.19	-59.9	-63.0	6.2	0.00e+00	0	42	104	0	85	21390
2026-01-01 20:36:38.38	343.25	8.11	-59.9	-63.1	6.2	0.00e+00	0	42	104	0	85	21700
2026-01-01 20:36:39.38	343.13	8.03	-59.9	-63.0	6.2	0.00e+00	0	42	104	0	85	21598
2026-01-01 20:36:40.38	343.01	7.95	-59.9	-63.0	6.2	0.00e+00	0	42	104	0	85	21370
2026-01-01 20:36:41.38	342.88	7.87	-59.9	-63.0	6.2	0.00e+00	0	42	104	0	85	21424
2026-01-01 20:36:42.39	342.76	7.79	-59.9	-63.0	6.2	0.00e+00	0	42	104	0	85	21568
2026-01-01 20:36:43.38	342.65	7.71	-59.9	-63.0	6.2	0.00e+00	0	42	104	0	85	21383
2026-01-01 20:36:44.38	342.53	7.64	-59.8	-62.9	6.2	0.00e+00	0	42	104	0	84	22561
2026-01-01 20:36:45.38	342.41	7.56	-59.8	-63.0	6.2	0.00e+00	0	42	104	0	85	21381
2026-01-01 20:36:46.37	342.29	7.48	-59.9	-63.0	6.2	0.00e+00	0	42	104	0	85	21389
2026-01-01 20:36:47.37	342.18	7.40	-59.8	-63.0	6.2	0.00e+00	0	42	104	0	85	21442
2026-01-01 20:36:48.37	342.06	7.32	-59.8	-62.9	6.2	0.00e+00	0	42	104	0	85	21246
2026-01-01 20:36:49.37	341.95	7.25	-59.8	-62.9	6.2	0.00e+00	0	42	104	0	85	21209
2026-01-01 20:36:50.37	341.84	7.17	-59.8	-62.9	6.2	0.00e+00	0	42	104	0	85	21282
2026-01-01 20:36:51.36	341.72	7.09	-59.8	-62.9	6.2	0.00e+00	0	42	104	0	85	21193
2026-01-01 20:36:52.36	341.61	7.02	-59.7	-62.9	6.2	0.00e+00	0	42	104	0	85	21166
2026-01-01 20:36:53.36	341.50	6.94	-59.8	-62.9	6.2	0.00e+00	0	42	104	0	85	21284
2026-01-01 20:36:54.35	341.39	6.87	-59.8	-62.9	6.2	0.00e+00	0	42	104	0	85	21301
2026-01-01 20:36:55.35	341.28	6.79	-59.8	-62.9	6.2	0.00e+00	0	42	104	0	85	21154
2026-01-01 20:36:56.34	341.17	6.71	-59.6	-62.6	6.2	0.00e+00	0	42	104	0	85	20616
2026-01-01 20:36:57.34	341.07	6.64	-59.5	-62.6	6.2	0.00e+00	0	42	104	0	85	20403
2026-01-01 20:36:58.33	340.96	6.56	-59.7	-62.8	6.2	0.00e+00	0	42	104	0	85	20956
2026-01-01 20:36:59.33	340.85	6.49	-59.6	-62.6	6.2	0.00e+00	0	42	104	0	85	20432
2026-01-01 20:37:00.32	340.75	6.41	-59.0	-61.8	6.2	0.00e+00	0	42	104	0	84	19834
2026-01-01 20:37:01.33	340.64	6.34	-59.0	-61.7	6.2	0.00e+00	0	42	104	0	84	19572
2026-01-01 20:37:02.32	340.54	6.27	-59.0	-61.8	6.2	0.00e+00	0	42	104	0	84	19741
2026-01-01 20:37:03.32	340.43	6.19	-58.4	-60.9	6.2	0.00e+00	0	42	104	0	83	18986
2026-01-01 20:37:04.32	340.33	6.12	-58.2	-60.7	6.2	0.00e+00	0	42	104	0	83	18400
2026-01-01 20:37:05.33	340.23	6.04	-58.4	-61.0	6.2	0.00e+00	0	42	104	0	83	19051
2026-01-01 20:37:06.33	340.12	5.97	-58.9	-61.7	6.2	0.00e+00	0	42	104	0	83	20747
2026-01-01 20:37:07.33	340.02	5.89	-59.5	-62.6	6.2	0.00e+00	0	42	104	0	84	21654
2026-01-01 20:37:08.32	339.92	5.82	-59.5	-62.5	6.2	0.00e+00	0	42	104	0	84	21507
2026-01-01 20:37:09.33	339.82	5.75	-59.6	-62.8	6.2	0.00e+00	0	42	104	0	84	22113
2026-01-01 20:37:10.32	339.72	5.68	-59.6	-62.7	6.2	0.00e+00	0	42	104	0	84	22059
2026-01-01 20:37:11.31	339.63	5.60	-59.4	-62.5	6.2	0.00e+00	0	42	104	0	84	21458
2026-01-01 20:37:12.31	339.53	5.53	-59.5	-62.6	6.2	0.00e+00	0	42	104	0	84	21739
2026-01-01 20:37:13.31	339.43	5.46	-59.6	-62.7	6.2	0.00e+00	0	42	104	0	84	21996
2026-01-01 20:37:14.32	339.33	5.39	-59.6	-62.7	6.2	0.00e+00	0	42	104	0	84	22030
2026-01-01 20:37:15.32	339.24	5.31	-59.4	-62.6	6.2	0.00e+00	0	42	104	0	84	21631
2026-01-01 20:37:16.32	339.14	5.24	-59.5	-62.6	6.2	0.00e+00	0	42	104	0	84	21816
2026-01-01 20:37:17.32	339.04	5.17	-59.4	-62.3	6.2	0.00e+00	0	42	104	0	84	21058
2026-01-01 20:37:18.32	338.95	5.10	-59.5	-62.6	6.2	0.00e+00	0	42	104	0	84	21735
2026-01-01 20:37:19.32	338.86	5.03	-59.4	-62.5	6.2	0.00e+00	0	42	104	0	84	21527
2026-01-01 20:37:20.31	338.76	4.96	-59.6	-62.5	6.2	0.00e+00	0	42	104	0	84	21476
2026-01-01 20:37:21.31	338.67	4.89	-60.4	-63.5	6.2	0.00e+00	0	42	104	0	86	21504
2026-01-01 20:37:22.31	338.58	4.82	-60.8	-63.9	6.2	0.00e+00	0	42	104	0	86	22449
2026-01-01 20:37:23.31	338.49	4.75	-61.0	-64.1	6.2	0.00e+00	0	42	104	0	87	21793
2026-01-01 20:37:24.31	338.40	4.67	-61.2	-64.3	6.2	0.00e+00	0	42	104	0	87	22308
2026-01-01 20:37:25.32	338.31	4.60	-61.4	-64.5	6.2	0.00e+00	0	42	104	0	88	21438
2026-01-01 20:37:26.32	338.22	4.53	-61.4	-64.6	6.2	0.00e+00	0	42	104	0	88	21642
2026-01-01 20:37:27.33	338.13	4.46	-61.6	-64.8	6.2	0.00e+00	0	42	104	0	88	22230
2026-01-01 20:37:28.32	338.04	4.39	-61.8	-64.9	6.2	0.00e+00	0	42	104	0	88	22470
2026-01-01 20:37:29.32	337.95	4.33	-61.8	-65.0	6.2	0.00e+00	0	42	104	0	89	21388
2026-01-01 20:37:30.32	337.86	4.26	-61.9	-65.0	6.2	0.00e+00	0	42	104	0	89	21502
2026-01-01 20:37:31.31	337.78	4.19	-62.0	-65.1	6.2	0.00e+00	0	42	104	0	89	21684
2026-01-01 20:37:32.31	337.69	4.12	-62.0	-65.1	6.2	0.00e+00	0	42	104	0	89	21834
2026-01-01 20:37:33.30	337.60	4.05	-62.0	-65.2	6.2	0.00e+00	0	42	104	0	89	21965
2026-01-01 20:37:34.30	337.52	3.98	-62.1	-65.2	6.2	0.00e+00	0	42	104	0	89	22061
2026-01-01 20:37:35.30	337.43	3.91	-62.1	-65.3	6.2	0.00e+00	0	42	104	0	89	22248
2026-01-01 20:37:36.29	337.35	3.85	-62.2	-65.3	6.2	0.00e+00	0	42	104	0	89	22262
2026-01-01 20:37:37.30	337.26	3.78	-62.2	-65.3	6.2	0.00e+00	0	42	104	0	89	22335
2026-01-01 20:37:38.29	337.18	3.71	-62.2	-65.3	6.2	0.00e+00	0	42	104	0	89	22363
2026-01-01 20:37:39.29	337.10	3.64	-62.2	-65.4	6.2	0.00e+00	0	42	104	0	89	22388
2026-01-01 20:37:40.29	337.02	3.57	-62.2	-65.4	6.2	0.00e+00	0	42	104	0	89	22388
2026-01-01 20:37:41.29	336.93	3.51	-62.2	-65.4	6.2	0.00e+00	0	42	104	0	89	22381
2026-01-01 20:37:42.29	336.85	3.44	-62.2	-65.3	6.2	0.00e+00	0	42	104	0	89	22313
2026-01-01 20:37:43.28	336.77	3.37	-62.1	-65.3	6.2	0.00e+00	0	42	104	0	89	22213
2026-01-01 20:37:44.28	336.69	3.31	-62.1	-65.3	6.2	0.00e+00	0	42	104	0	89	22133
2026-01-01 20:37:45.27	336.61	3.24	-62.1	-65.3	6.2	0.00e+00	0	42	104	0	89	22135
2026-01-01 20:37:46.27	336.53	3.17	-62.1	-65.2	6.2	0.00e+00	0	42	104	0	89	22092
2026-01-01 20:37:47.26	336.46	3.11	-62.1	-65.3	6.2	0.00e+00	0	42	104	0	89	22126
2026-01-01 20:37:48.26	336.38	3.04	-62.1	-65.2	6.2	0.00e+00	0	42	104	0	89	22053
2026-01-01 20:37:49.26	336.30	2.98	-62.1	-65.2	6.2	0.00e+00	0	42	104	0	89	21965
2026-01-01 20:37:50.27	336.22	2.91	-62.1	-65.2	6.2	0.00e+00	0	42	104	0	89	22009
2026-01-01 20:37:51.26	336.14	2.85	-62.1	-65.2	6.2	0.00e+00	0	42	104	0	89	21987
2026-01-01 20:37:52.26	336.07	2.78	-62.1	-65.2	6.2	0.00e+00	0	42	104	0	89	22003
2026-01-01 20:37:53.26	335.99	2.71	-62.1	-65.2	6.2	0.00e+00	0	42	104	0	89	21984
2026-01-01 20:37:54.25	335.92	2.65	-62.0	-65.2	6.2	0.00e+00	0	42	104	0	89	21894
2026-01-01 20:37:55.24	335.84	2.59	-62.0	-65.2	6.2	0.00e+00	0	43	104	0	89	21906
2026-01-01 20:37:56.24	335.77	2.52	-62.0	-65.2	6.2	0.00e+00	0	42	104	0	89	21908
2026-01-01 20:37:57.23	335.69	2.46	-62.0	-65.2	6.2	0.00e+00	0	42	104	0	89	21939
2026-01-01 20:37:58.24	335.62	2.39	-62.0	-65.1	6.2	0.00e+00	0	42	104	0	89	21856
2026-01-01 20:37:59.24	335.54	2.33	-62.0	-65.1	6.2	0.00e+00	0	42	104	0	89	21846
2026-01-01 20:38:00.24	335.47	2.26	-62.0	-65.1	6.2	0.00e+00	0	42	104	0	89	21796
2026-01-01 20:38:01.23	335.40	2.20	-62.0	-65.2	6.2	0.00e+00	0	42	104	0	89	21864
2026-01-01 20:38:02.23	335.33	2.13	-62.0	-65.1	6.2	0.00e+00	0	42	104	0	89	21727
2026-01-01 20:38:03.23	335.25	2.07	-62.0	-65.1	6.2	0.00e+00	0	42	104	0	89	21772
2026-01-01 20:38:04.23	335.18	2.01	-62.0	-65.1	6.2	0.00e+00	0	42	104	0	89	21758

#Closed at: 2026-01-01 20:38:05
#Recorded file [0 MB]: D:/lorett/data/31004_260101_232818.dat