passes_logs/2026/01/01/R3.2S_Murmansk/R3.2S_Murmansk__20260101_093803_AQUA_rec.log

#Pass ID: 20260101_093803_AQUA
#Satellite: AQUA
#Configuration: AQUA
#almurnet v.1.7.20251203
#Start time: 2026-01-01 09:38:03

#Version: 2.2.20231116
#Station: R3.2S_Murmansk
#Location: 33.079688 lon 68.888172 lat
#TLE: 1 27424U 02022A   25365.92641127  .00002078  00000+0  42628-3 0  9999
#TLE: 2 27424  98.4058 327.1196 0001962  94.7781 340.6230 14.61783896258835

#Time	Az	El	Level	Level2	SNR	BER	BlckErr	Temp	State	Recorded	gain1	gain2
2026-01-01 09:38:03.61	113.05	2.03	-59.4	-78.8	3.8	7.45e-01	0	32	0	0	87	33716
2026-01-01 09:38:04.62	113.01	2.10	-59.4	-78.7	3.8	7.45e-01	0	32	104	0	86	35638
2026-01-01 09:38:05.61	112.96	2.16	-59.4	-78.7	3.8	7.43e-01	0	32	104	0	86	35542
2026-01-01 09:38:06.60	112.92	2.22	-59.4	-78.7	3.8	7.48e-01	0	32	104	0	86	35344
2026-01-01 09:38:07.59	112.87	2.29	-59.4	-78.6	3.8	7.44e-01	0	32	104	0	86	35253
2026-01-01 09:38:08.59	112.83	2.35	-59.4	-78.6	3.8	7.45e-01	0	32	104	0	86	34891
2026-01-01 09:38:09.58	112.78	2.42	-59.4	-78.5	3.8	7.45e-01	0	32	104	0	86	34650
2026-01-01 09:38:10.58	112.73	2.48	-59.4	-78.5	3.8	7.47e-01	0	32	104	0	86	34684
2026-01-01 09:38:11.57	112.69	2.54	-59.4	-78.4	3.8	7.42e-01	0	32	104	0	86	34364
2026-01-01 09:38:12.57	112.64	2.61	-59.4	-78.3	3.8	7.49e-01	0	32	104	0	86	33971
2026-01-01 09:38:13.56	112.59	2.67	-59.4	-78.5	3.8	7.44e-01	0	32	104	0	86	34698
2026-01-01 09:38:14.56	112.55	2.74	-59.4	-78.6	3.8	7.44e-01	0	32	104	0	86	35088
2026-01-01 09:38:15.56	112.50	2.80	-59.4	-78.6	3.8	7.44e-01	0	32	104	0	86	35273
2026-01-01 09:38:16.56	112.45	2.87	-59.4	-78.6	3.8	7.43e-01	0	32	104	0	86	35044
2026-01-01 09:38:17.56	112.40	2.94	-59.4	-78.5	3.8	7.45e-01	0	32	104	0	86	34562
2026-01-01 09:38:18.55	112.35	3.00	-59.4	-78.3	3.8	7.46e-01	0	32	104	0	86	34048
2026-01-01 09:38:19.54	112.30	3.07	-59.4	-77.9	3.8	7.46e-01	0	32	104	0	86	32507
2026-01-01 09:38:20.54	112.26	3.13	-59.4	-77.6	3.8	7.45e-01	0	32	104	0	86	31255
2026-01-01 09:38:21.53	112.21	3.20	-59.4	-77.4	3.8	7.48e-01	0	32	104	0	86	30465
2026-01-01 09:38:22.54	112.16	3.26	-59.4	-77.6	3.8	7.45e-01	0	32	104	0	86	31102
2026-01-01 09:38:23.54	112.11	3.33	-59.4	-78.0	3.8	7.42e-01	0	32	104	0	86	32817
2026-01-01 09:38:24.53	112.06	3.40	-59.4	-78.0	3.8	7.48e-01	0	32	104	0	86	32844
2026-01-01 09:38:25.53	112.01	3.46	-59.4	-78.0	3.8	7.50e-01	0	32	104	0	86	32813
2026-01-01 09:38:26.53	111.96	3.53	-59.4	-78.0	3.8	7.48e-01	0	32	104	0	86	32679
2026-01-01 09:38:27.52	111.91	3.60	-59.4	-78.0	3.8	7.43e-01	0	32	104	0	86	32667
2026-01-01 09:38:28.51	111.85	3.66	-59.4	-77.6	3.8	7.42e-01	0	32	104	0	86	31186
2026-01-01 09:38:29.51	111.80	3.73	-59.4	-78.0	3.8	7.47e-01	0	32	104	0	86	32658
2026-01-01 09:38:30.50	111.75	3.80	-59.4	-78.4	3.8	7.44e-01	0	32	104	0	86	34425
2026-01-01 09:38:31.50	111.70	3.87	-59.4	-78.8	3.8	7.49e-01	0	32	104	0	86	35833
2026-01-01 09:38:32.49	111.65	3.93	-59.4	-78.3	3.8	7.46e-01	0	32	104	0	86	34013
2026-01-01 09:38:33.48	111.60	4.00	-59.4	-76.6	3.9	7.42e-01	0	33	104	0	86	27910
2026-01-01 09:38:34.47	111.54	4.07	-59.3	-73.5	4.4	7.14e-01	0	33	104	0	86	19406
2026-01-01 09:38:35.46	111.49	4.14	-59.1	-71.1	6.2	6.75e-01	92	33	0	524288	86	14836
2026-01-01 09:38:36.44	111.44	4.20	-59.0	-69.4	7.7	6.46e-01	79	33	0	2097152	86	12096
2026-01-01 09:38:37.44	111.39	4.27	-58.7	-67.6	9.3	6.27e-01	0	33	0	4194304	86	9910
2026-01-01 09:38:38.43	111.33	4.34	-58.5	-66.4	10.4	6.19e-01	0	33	0	5767168	86	8659
2026-01-01 09:38:39.42	111.28	4.41	-58.2	-65.1	11.5	6.13e-01	0	33	0	7864320	85	7869
2026-01-01 09:38:40.42	111.22	4.48	-57.9	-64.0	12.4	6.11e-01	0	33	0	9437184	85	6925
2026-01-01 09:38:41.41	111.17	4.55	-57.6	-63.1	13.1	6.09e-01	0	33	0	11534336	84	6643
2026-01-01 09:38:42.40	111.11	4.62	-57.0	-61.7	13.9	6.07e-01	0	33	0	13107200	83	5987
2026-01-01 09:38:43.41	111.06	4.69	-56.7	-61.1	14.4	6.06e-01	0	32	0	15204352	82	5871
2026-01-01 09:38:44.40	111.00	4.76	-56.2	-60.1	14.9	6.06e-01	0	33	0	17301504	81	5567
2026-01-01 09:38:45.40	110.95	4.83	-55.7	-59.1	15.4	6.06e-01	0	33	0	18874368	80	5274
2026-01-01 09:38:46.39	110.89	4.90	-55.1	-58.2	15.9	6.05e-01	0	33	0	20971520	79	5017
2026-01-01 09:38:47.39	110.83	4.97	-54.7	-57.5	16.2	6.08e-01	0	33	0	22544384	78	4880
2026-01-01 09:38:48.38	110.78	5.04	-54.2	-56.8	16.4	6.05e-01	0	33	0	24641536	77	4808
2026-01-01 09:38:49.38	110.72	5.11	-53.6	-55.9	16.8	6.06e-01	0	33	0	26214400	76	4568
2026-01-01 09:38:50.38	110.66	5.18	-54.0	-56.4	16.7	6.08e-01	0	33	0	28311552	77	4568
2026-01-01 09:38:51.38	110.60	5.25	-57.7	-63.1	12.5	6.09e-01	0	33	0	30408704	84	6625
2026-01-01 09:38:52.38	110.55	5.32	-55.2	-58.2	15.9	6.07e-01	0	33	0	31981568	79	4991
2026-01-01 09:38:53.37	110.49	5.39	-53.2	-55.4	17.0	6.07e-01	0	33	0	34078720	75	4575
2026-01-01 09:38:54.36	110.43	5.46	-52.9	-55.0	17.1	6.05e-01	0	33	0	35651584	74	4635
2026-01-01 09:38:55.36	110.37	5.54	-53.0	-55.1	17.0	6.06e-01	0	33	0	37748736	74	4692
2026-01-01 09:38:56.35	110.31	5.61	-52.8	-54.9	17.1	6.06e-01	0	33	0	39321600	74	4562
2026-01-01 09:38:57.34	110.25	5.68	-52.7	-54.8	17.1	6.06e-01	0	33	0	41418752	74	4503
2026-01-01 09:38:58.33	110.19	5.75	-52.7	-54.8	17.2	6.07e-01	0	33	0	42991616	74	4518
2026-01-01 09:38:59.32	110.13	5.82	-52.7	-54.8	17.2	6.05e-01	0	33	0	45088768	74	4518
2026-01-01 09:39:00.31	110.07	5.90	-52.9	-55.0	17.1	6.05e-01	0	33	0	46661632	74	4606
2026-01-01 09:39:01.31	110.01	5.97	-52.6	-54.7	17.2	6.07e-01	0	33	0	48758784	74	4469
2026-01-01 09:39:02.30	109.95	6.04	-52.7	-54.8	17.2	6.05e-01	0	33	0	50855936	74	4502
2026-01-01 09:39:03.29	109.89	6.11	-52.3	-54.3	17.3	6.09e-01	0	33	0	52428800	73	4496
2026-01-01 09:39:04.28	109.83	6.19	-52.5	-54.5	17.2	6.06e-01	0	33	0	54525952	73	4631
2026-01-01 09:39:05.26	109.76	6.26	-52.5	-54.6	17.2	6.07e-01	0	33	0	56098816	73	4660
2026-01-01 09:39:06.25	109.70	6.33	-52.4	-54.4	17.3	6.08e-01	0	33	0	58195968	73	4576
2026-01-01 09:39:07.25	109.64	6.41	-52.4	-54.4	17.2	6.07e-01	0	33	0	59768832	73	4577
2026-01-01 09:39:08.24	109.57	6.48	-52.4	-54.4	17.3	6.07e-01	0	33	0	61865984	73	4558
2026-01-01 09:39:09.23	109.51	6.56	-52.5	-54.5	17.2	6.04e-01	0	33	0	63438848	73	4643
2026-01-01 09:39:10.23	109.45	6.63	-52.4	-54.4	17.3	6.08e-01	0	33	0	65536000	73	4583
2026-01-01 09:39:11.22	109.38	6.71	-52.3	-54.3	17.3	6.07e-01	0	33	0	67633152	73	4517
2026-01-01 09:39:12.22	109.32	6.78	-52.4	-54.4	17.3	6.06e-01	0	33	0	69206016	73	4582
2026-01-01 09:39:13.21	109.25	6.86	-52.5	-54.4	17.2	6.05e-01	0	33	0	71303168	73	4596
2026-01-01 09:39:14.20	109.19	6.93	-52.5	-54.5	17.3	6.06e-01	0	33	0	72876032	73	4610
2026-01-01 09:39:15.19	109.12	7.01	-52.4	-54.4	17.3	6.07e-01	0	33	0	74973184	73	4552
2026-01-01 09:39:16.18	109.05	7.08	-52.4	-54.4	17.3	6.06e-01	0	33	0	76546048	73	4555
2026-01-01 09:39:17.18	108.99	7.16	-52.4	-54.4	17.3	6.05e-01	0	33	0	78643200	73	4582
2026-01-01 09:39:18.18	108.92	7.24	-52.4	-54.4	17.3	6.07e-01	0	33	0	80216064	73	4558
2026-01-01 09:39:19.17	108.85	7.31	-52.4	-54.4	17.3	6.08e-01	0	33	0	82313216	73	4552
2026-01-01 09:39:20.17	108.78	7.39	-52.3	-54.2	17.4	6.08e-01	0	33	0	84410368	73	4471
2026-01-01 09:39:21.16	108.71	7.47	-52.2	-54.2	17.4	6.05e-01	0	33	0	85983232	73	4442
2026-01-01 09:39:22.15	108.64	7.54	-52.2	-54.2	17.3	6.06e-01	0	33	0	88080384	73	4442
2026-01-01 09:39:23.15	108.58	7.62	-52.1	-54.0	17.4	6.07e-01	0	33	0	89653248	73	4376
2026-01-01 09:39:24.15	108.50	7.70	-52.1	-54.0	17.4	6.05e-01	0	33	0	91750400	73	4378
2026-01-01 09:39:25.15	108.43	7.78	-52.2	-54.0	17.4	6.05e-01	0	33	0	93323264	73	4389
2026-01-01 09:39:26.14	108.36	7.85	-52.0	-53.9	17.5	6.07e-01	0	33	0	95420416	73	4300
2026-01-01 09:39:27.12	108.29	7.93	-52.1	-54.0	17.4	6.07e-01	0	33	0	96993280	73	4344
2026-01-01 09:39:28.12	108.22	8.01	-51.9	-53.7	17.5	6.08e-01	0	33	0	99090432	73	4233
2026-01-01 09:39:29.11	108.15	8.09	-51.9	-53.8	17.5	6.06e-01	0	33	0	100663296	72	4500
2026-01-01 09:39:30.10	108.08	8.17	-51.9	-53.8	17.5	6.07e-01	0	33	0	102760448	72	4503
2026-01-01 09:39:31.10	108.00	8.25	-51.9	-53.7	17.5	6.06e-01	0	33	0	104857600	72	4478
2026-01-01 09:39:32.10	107.93	8.33	-51.8	-53.6	17.5	6.05e-01	0	33	0	106430464	72	4418
2026-01-01 09:39:33.09	107.86	8.41	-51.8	-53.6	17.5	6.07e-01	0	33	0	108527616	72	4436
2026-01-01 09:39:34.08	107.78	8.49	-51.7	-53.6	17.5	6.07e-01	0	33	0	110100480	72	4392
2026-01-01 09:39:35.08	107.71	8.57	-51.7	-53.5	17.5	6.06e-01	0	33	0	112197632	72	4373
2026-01-01 09:39:36.08	107.63	8.65	-51.7	-53.5	17.5	6.06e-01	0	33	0	113770496	72	4376
2026-01-01 09:39:37.07	107.56	8.73	-51.7	-53.6	17.5	6.06e-01	0	33	0	115867648	72	4398
2026-01-01 09:39:38.06	107.48	8.81	-51.7	-53.5	17.5	6.06e-01	0	33	0	117964800	72	4372
2026-01-01 09:39:39.06	107.40	8.89	-51.7	-53.5	17.5	6.06e-01	0	33	0	119537664	72	4349
2026-01-01 09:39:40.06	107.33	8.97	-51.8	-53.6	17.5	6.06e-01	0	33	0	121634816	72	4408
2026-01-01 09:39:41.05	107.25	9.05	-51.5	-53.3	17.6	6.06e-01	0	33	0	123207680	72	4274
2026-01-01 09:39:42.05	107.17	9.14	-51.5	-53.3	17.5	6.07e-01	0	33	0	125304832	72	4272
2026-01-01 09:39:43.05	107.09	9.22	-51.5	-53.3	17.6	6.04e-01	0	33	0	126877696	72	4253
2026-01-01 09:39:44.04	107.01	9.30	-51.6	-53.4	17.5	6.05e-01	0	33	0	128974848	72	4318
2026-01-01 09:39:45.03	106.93	9.38	-51.7	-53.5	17.5	6.05e-01	0	33	0	131072000	72	4348
2026-01-01 09:39:46.03	106.85	9.47	-51.4	-53.1	17.6	6.07e-01	0	33	0	132644864	72	4188
2026-01-01 09:39:47.03	106.77	9.55	-51.5	-53.2	17.6	6.06e-01	0	33	0	134742016	72	4229
2026-01-01 09:39:48.02	106.69	9.63	-51.5	-53.3	17.6	6.06e-01	0	33	0	136314880	72	4245
2026-01-01 09:39:49.02	106.61	9.72	-51.4	-53.1	17.6	6.05e-01	0	33	0	138412032	72	4187
2026-01-01 09:39:50.01	106.53	9.80	-51.4	-53.1	17.7	6.08e-01	0	33	0	139984896	72	4185
2026-01-01 09:39:51.00	106.44	9.89	-51.3	-53.1	17.7	6.06e-01	0	33	0	142082048	71	4400
2026-01-01 09:39:51.99	106.36	9.97	-51.3	-53.1	17.6	6.07e-01	0	33	0	143654912	71	4402
2026-01-01 09:39:52.99	106.28	10.05	-51.4	-53.1	17.6	6.08e-01	0	33	0	145752064	71	4405
2026-01-01 09:39:53.99	106.19	10.14	-51.5	-53.2	17.6	6.08e-01	0	33	0	147849216	71	4470
2026-01-01 09:39:54.98	106.11	10.22	-51.5	-53.3	17.6	6.08e-01	0	33	0	149422080	71	4521
2026-01-01 09:39:55.98	106.02	10.31	-51.5	-53.3	17.6	6.04e-01	0	33	0	151519232	71	4498
2026-01-01 09:39:56.96	105.94	10.40	-51.3	-53.1	17.6	6.05e-01	0	33	0	153092096	71	4403
2026-01-01 09:39:57.97	105.85	10.48	-51.4	-53.2	17.6	6.06e-01	0	33	0	155189248	71	4449
2026-01-01 09:39:58.96	105.76	10.57	-51.4	-53.1	17.6	6.06e-01	0	33	0	156762112	71	4418
2026-01-01 09:39:59.95	105.67	10.66	-51.4	-53.2	17.6	6.05e-01	0	33	0	158859264	71	4443
2026-01-01 09:40:00.95	105.59	10.74	-51.3	-53.0	17.7	6.07e-01	0	33	0	160432128	71	4366
2026-01-01 09:40:01.95	105.50	10.83	-51.4	-53.1	17.6	6.08e-01	0	33	0	162529280	71	4408
2026-01-01 09:40:02.94	105.41	10.92	-51.3	-53.0	17.7	6.06e-01	0	33	0	164626432	71	4388
2026-01-01 09:40:03.93	105.32	11.00	-51.4	-53.1	17.7	6.05e-01	0	33	0	166199296	71	4419
2026-01-01 09:40:04.92	105.23	11.09	-51.3	-53.0	17.7	6.06e-01	0	33	0	168296448	71	4368
2026-01-01 09:40:05.91	105.14	11.18	-51.3	-53.0	17.7	6.08e-01	0	33	0	169869312	71	4374
2026-01-01 09:40:06.90	105.04	11.27	-51.2	-52.9	17.7	6.06e-01	0	33	0	171966464	71	4317
2026-01-01 09:40:07.91	104.95	11.36	-51.2	-52.8	17.7	6.06e-01	0	33	0	173539328	71	4288
2026-01-01 09:40:08.90	104.86	11.45	-51.2	-52.8	17.7	6.06e-01	0	33	0	175636480	71	4288
2026-01-01 09:40:09.89	104.76	11.54	-51.2	-52.9	17.7	6.06e-01	0	33	0	177209344	71	4297
2026-01-01 09:40:10.89	104.67	11.63	-51.2	-52.9	17.7	6.08e-01	0	33	0	179306496	71	4335
2026-01-01 09:40:11.88	104.58	11.72	-51.1	-52.8	17.7	6.07e-01	0	33	0	181403648	71	4257
2026-01-01 09:40:12.87	104.48	11.81	-51.1	-52.8	17.7	6.07e-01	0	33	0	182976512	71	4266
2026-01-01 09:40:13.87	104.38	11.90	-51.1	-52.8	17.7	6.06e-01	0	33	0	185073664	71	4249
2026-01-01 09:40:14.86	104.29	11.99	-51.1	-52.8	17.7	6.06e-01	0	33	0	186646528	71	4267
2026-01-01 09:40:15.85	104.19	12.08	-51.0	-52.6	17.8	6.06e-01	0	33	0	188743680	71	4185
2026-01-01 09:40:16.84	104.09	12.17	-50.9	-52.6	17.8	6.07e-01	0	33	0	190316544	71	4172
2026-01-01 09:40:17.83	103.99	12.26	-51.1	-52.8	17.8	6.06e-01	0	33	0	192413696	71	4246
2026-01-01 09:40:18.82	103.89	12.35	-50.9	-52.6	17.8	6.07e-01	0	33	0	193986560	71	4170
2026-01-01 09:40:19.81	103.79	12.45	-51.0	-52.7	17.8	6.05e-01	0	33	0	196083712	71	4196
2026-01-01 09:40:20.80	103.69	12.54	-50.9	-52.5	17.8	6.05e-01	0	33	0	197656576	71	4145
2026-01-01 09:40:21.79	103.59	12.63	-51.0	-52.6	17.8	6.07e-01	0	34	0	199753728	71	4179
2026-01-01 09:40:22.79	103.49	12.72	-50.9	-52.6	17.8	6.06e-01	0	34	0	201850880	71	4150
2026-01-01 09:40:23.78	103.38	12.82	-50.9	-52.5	17.8	6.07e-01	0	33	0	203423744	71	4140
2026-01-01 09:40:24.78	103.28	12.91	-50.9	-52.5	17.8	6.06e-01	0	33	0	205520896	70	4371
2026-01-01 09:40:25.77	103.18	13.01	-51.0	-52.6	17.8	6.08e-01	0	33	0	207093760	70	4439
2026-01-01 09:40:26.76	103.07	13.10	-50.9	-52.6	17.8	6.06e-01	0	33	0	209190912	70	4396
2026-01-01 09:40:27.76	102.96	13.20	-50.9	-52.5	17.7	6.06e-01	0	34	0	210763776	70	4387
2026-01-01 09:40:28.75	102.86	13.29	-50.8	-52.4	17.8	6.06e-01	0	33	0	212860928	70	4328
2026-01-01 09:40:29.74	102.75	13.39	-50.8	-52.5	17.8	6.08e-01	0	33	0	214433792	70	4345
2026-01-01 09:40:30.73	102.64	13.48	-50.8	-52.5	17.8	6.07e-01	0	33	0	216530944	70	4350
2026-01-01 09:40:31.72	102.53	13.58	-50.8	-52.4	17.8	6.06e-01	0	33	0	218628096	70	4339
2026-01-01 09:40:32.72	102.42	13.67	-50.7	-52.3	17.8	6.05e-01	0	33	0	220200960	70	4283
2026-01-01 09:40:33.71	102.31	13.77	-50.7	-52.3	17.8	6.05e-01	0	33	0	221773824	70	4281
2026-01-01 09:40:34.70	102.20	13.87	-50.8	-52.4	17.8	6.05e-01	0	33	0	223870976	70	4328
2026-01-01 09:40:35.69	102.09	13.96	-50.7	-52.3	17.8	6.07e-01	0	33	0	225968128	70	4252
2026-01-01 09:40:36.68	101.98	14.06	-50.7	-52.4	17.8	6.06e-01	0	33	0	227540992	70	4295
2026-01-01 09:40:37.68	101.86	14.16	-50.5	-52.1	17.8	6.05e-01	0	33	0	229638144	70	4188
2026-01-01 09:40:38.67	101.75	14.26	-50.7	-52.3	17.8	6.08e-01	0	33	0	231211008	70	4246
2026-01-01 09:40:39.66	101.63	14.36	-50.5	-52.1	17.8	6.06e-01	0	33	0	233308160	70	4190
2026-01-01 09:40:40.66	101.51	14.46	-50.5	-52.1	17.8	6.07e-01	0	34	0	234881024	70	4173
2026-01-01 09:40:41.65	101.40	14.56	-50.6	-52.2	17.8	6.04e-01	0	33	0	236978176	70	4205
2026-01-01 09:40:42.63	101.28	14.65	-50.6	-52.2	17.9	6.07e-01	0	33	0	239075328	70	4211
2026-01-01 09:40:43.63	101.16	14.75	-50.6	-52.2	17.9	6.07e-01	0	33	0	240648192	70	4203
2026-01-01 09:40:44.63	101.04	14.86	-50.5	-52.1	17.9	6.06e-01	0	33	0	242745344	70	4185
2026-01-01 09:40:45.63	100.92	14.96	-50.5	-52.1	17.9	6.07e-01	0	34	0	244318208	70	4153
2026-01-01 09:40:46.62	100.80	15.06	-50.6	-52.1	17.9	6.06e-01	0	33	0	246415360	70	4189
2026-01-01 09:40:47.61	100.68	15.16	-50.3	-51.9	17.9	6.07e-01	0	33	0	247988224	69	4321
2026-01-01 09:40:48.60	100.55	15.26	-50.4	-52.0	17.9	6.07e-01	0	33	0	250085376	69	4350
2026-01-01 09:40:49.59	100.43	15.36	-50.4	-51.9	17.8	6.07e-01	0	33	0	251658240	69	4325
2026-01-01 09:40:50.59	100.30	15.46	-50.4	-52.0	17.8	6.05e-01	0	33	0	253755392	69	4351
2026-01-01 09:40:51.58	100.18	15.57	-50.4	-51.9	17.8	6.08e-01	0	33	0	255852544	69	4335
2026-01-01 09:40:52.58	100.05	15.67	-50.4	-52.0	17.9	6.06e-01	0	33	0	257425408	69	4356
2026-01-01 09:40:53.57	99.92	15.77	-50.4	-52.0	17.8	6.07e-01	0	33	0	259522560	69	4361
2026-01-01 09:40:54.56	99.79	15.88	-50.5	-52.1	17.8	6.06e-01	0	33	0	261095424	69	4397
2026-01-01 09:40:55.55	99.66	15.98	-50.4	-52.0	17.8	6.05e-01	0	33	0	263192576	69	4372
2026-01-01 09:40:56.55	99.53	16.09	-50.5	-52.1	17.8	6.05e-01	0	33	0	264765440	69	4398
2026-01-01 09:40:57.54	99.40	16.19	-50.5	-52.0	17.8	6.08e-01	0	33	0	266862592	69	4384
2026-01-01 09:40:58.53	99.26	16.30	-50.5	-52.1	17.8	6.06e-01	0	34	0	268435456	69	4396
2026-01-01 09:40:59.53	99.13	16.40	-50.5	-52.0	17.8	6.06e-01	0	33	0	270532608	69	4387
2026-01-01 09:41:00.53	98.99	16.51	-50.5	-52.1	17.8	6.07e-01	0	33	0	272629760	69	4423
2026-01-01 09:41:01.52	98.86	16.61	-50.5	-52.0	17.9	6.07e-01	0	33	0	274202624	69	4382
2026-01-01 09:41:02.51	98.72	16.72	-50.8	-62.1	3.8	7.48e-01	0	33	104	275775488	69	14004
2026-01-01 09:41:03.50	98.58	16.83	-50.8	-62.1	3.8	7.46e-01	0	34	104	275775488	69	14032
2026-01-01 09:41:04.49	98.44	16.93	-50.8	-62.0	4.0	7.43e-01	0	34	104	275775488	69	13781
2026-01-01 09:41:05.48	98.30	17.04	-50.8	-62.0	3.8	7.45e-01	0	34	104	275775488	69	13875
2026-01-01 09:41:06.47	98.16	17.15	-51.6	-62.8	3.9	7.40e-01	0	34	104	275775488	70	14334
2026-01-01 09:41:07.47	98.02	17.26	-53.2	-64.7	3.8	7.47e-01	0	34	104	275775488	74	14110
2026-01-01 09:41:08.46	97.88	17.37	-55.0	-66.9	4.0	7.42e-01	0	34	104	275775488	79	13689
2026-01-01 09:41:09.45	97.73	17.47	-52.0	-63.2	3.9	7.45e-01	0	34	104	275775488	71	14119
2026-01-01 09:41:10.44	97.59	17.58	-55.7	-67.8	4.0	7.39e-01	0	34	104	275775488	80	14315
2026-01-01 09:41:11.44	97.44	17.69	-51.6	-62.9	3.9	7.49e-01	0	34	104	275775488	72	12956
2026-01-01 09:41:12.44	97.29	17.80	-51.6	-62.8	3.9	7.43e-01	0	34	104	275775488	72	12772
2026-01-01 09:41:13.44	97.14	17.92	-51.6	-62.9	3.8	7.44e-01	0	33	104	275775488	72	12847
2026-01-01 09:41:14.43	96.99	18.03	-52.8	-64.2	3.8	7.41e-01	0	34	104	275775488	73	14150
2026-01-01 09:41:15.42	96.84	18.14	-54.5	-66.5	3.8	7.42e-01	0	34	104	275775488	78	13755
2026-01-01 09:41:16.42	96.68	18.25	-53.1	-64.6	3.8	7.42e-01	0	34	104	275775488	75	13217
2026-01-01 09:41:17.41	96.53	18.36	-56.6	-69.3	3.9	7.47e-01	0	34	104	275775488	82	15147
2026-01-01 09:41:18.41	96.37	18.47	-54.4	-66.4	3.8	7.46e-01	0	34	104	275775488	78	13601
2026-01-01 09:41:19.40	96.21	18.59	-52.9	-64.3	4.1	7.35e-01	0	34	104	275775488	74	13482
2026-01-01 09:41:20.39	96.06	18.70	-52.6	-63.9	3.9	7.37e-01	0	34	104	275775488	74	12820
2026-01-01 09:41:21.38	95.90	18.81	-52.3	-63.4	4.1	7.37e-01	0	33	104	275775488	73	12957
2026-01-01 09:41:22.38	95.74	18.92	-51.4	-62.5	3.9	7.37e-01	0	34	104	275775488	72	12239
2026-01-01 09:41:23.38	95.57	19.04	-50.8	-61.9	3.8	7.47e-01	0	34	104	275775488	70	12947
2026-01-01 09:41:24.37	95.41	19.15	-50.7	-61.9	3.8	7.46e-01	0	34	104	275775488	70	12890
2026-01-01 09:41:25.37	95.24	19.27	-52.2	-63.5	3.8	7.44e-01	0	33	104	275775488	73	13065
2026-01-01 09:41:26.36	95.08	19.38	-55.7	-67.9	3.9	7.47e-01	0	34	104	275775488	80	14486
2026-01-01 09:41:27.35	94.91	19.50	-51.3	-62.5	3.9	7.48e-01	0	33	104	275775488	71	13074
2026-01-01 09:41:28.35	94.74	19.61	-56.5	-69.3	3.9	7.47e-01	0	34	104	275775488	82	15096
2026-01-01 09:41:29.34	94.57	19.73	-51.5	-62.7	3.8	7.45e-01	0	33	104	275775488	72	12624
2026-01-01 09:41:30.33	94.40	19.85	-51.4	-62.7	3.8	7.48e-01	0	33	104	275775488	71	13289
2026-01-01 09:41:31.31	94.23	19.96	-51.1	-62.3	3.8	7.45e-01	0	34	104	275775488	71	12759
2026-01-01 09:41:32.30	94.06	20.08	-51.4	-62.7	3.8	7.44e-01	0	34	104	275775488	71	13289
2026-01-01 09:41:33.30	93.88	20.19	-54.5	-66.3	3.9	7.46e-01	0	34	104	275775488	78	13547
2026-01-01 09:41:34.29	93.71	20.31	-52.4	-63.8	3.8	7.45e-01	0	34	104	275775488	74	12736
2026-01-01 09:41:35.28	93.53	20.43	-56.2	-68.8	3.9	7.47e-01	0	34	104	275775488	81	15137
2026-01-01 09:41:36.27	93.35	20.55	-51.7	-63.1	3.9	7.46e-01	0	34	104	275775488	72	13113
2026-01-01 09:41:37.27	93.17	20.67	-57.1	-70.0	3.9	7.44e-01	0	34	104	275775488	83	15516
2026-01-01 09:41:38.26	92.98	20.78	-51.7	-63.0	3.8	7.45e-01	0	34	104	275775488	72	13065
2026-01-01 09:41:39.26	92.80	20.90	-51.8	-63.2	3.8	7.49e-01	0	34	104	275775488	72	13302
2026-01-01 09:41:40.25	92.61	21.02	-51.8	-63.1	3.8	7.43e-01	0	33	104	275775488	72	13176
2026-01-01 09:41:41.24	92.43	21.14	-51.6	-62.9	3.8	7.42e-01	0	34	104	275775488	72	12847
2026-01-01 09:41:42.24	92.24	21.26	-54.5	-66.3	3.9	7.45e-01	0	34	104	275775488	78	13493
2026-01-01 09:41:43.23	92.05	21.38	-52.4	-63.9	3.8	7.47e-01	0	34	104	275775488	74	12852
2026-01-01 09:41:44.22	91.85	21.50	-56.6	-69.4	3.8	7.46e-01	0	33	104	275775488	82	15229
2026-01-01 09:41:45.22	91.66	21.63	-52.2	-63.6	3.8	7.45e-01	0	34	104	275775488	73	13128
2026-01-01 09:41:46.21	91.46	21.75	-57.9	-71.4	3.9	7.45e-01	0	34	104	275775488	84	17239
2026-01-01 09:41:47.20	91.27	21.87	-51.7	-63.0	3.8	7.46e-01	0	34	104	275775488	72	13035
2026-01-01 09:41:48.20	91.07	21.99	-51.5	-62.7	3.8	7.45e-01	0	34	104	275775488	72	12648
2026-01-01 09:41:49.20	90.87	22.11	-51.2	-62.4	3.8	7.46e-01	0	34	104	275775488	71	12933
2026-01-01 09:41:50.19	90.67	22.23	-51.0	-62.2	3.8	7.45e-01	0	34	104	275775488	71	12617
2026-01-01 09:41:51.19	90.46	22.36	-55.0	-67.1	3.8	7.43e-01	0	34	104	275775488	79	13961
2026-01-01 09:41:52.18	90.26	22.48	-52.4	-63.8	3.8	7.43e-01	0	34	104	275775488	73	13558
2026-01-01 09:41:53.18	90.05	22.60	-56.8	-69.7	3.9	7.43e-01	0	34	104	275775488	82	15825
2026-01-01 09:41:54.16	89.84	22.73	-52.8	-64.4	3.9	7.45e-01	0	34	104	275775488	75	12901
2026-01-01 09:41:55.15	89.63	22.85	-58.0	-71.6	3.9	7.44e-01	0	34	104	275775488	84	17485
2026-01-01 09:41:56.15	89.42	22.97	-51.9	-63.1	3.8	7.46e-01	0	34	104	275775488	72	13236
2026-01-01 09:41:57.15	89.20	23.10	-51.8	-63.1	3.8	7.47e-01	0	34	104	275775488	72	13240
2026-01-01 09:41:58.15	88.98	23.22	-52.0	-63.3	3.8	7.43e-01	0	34	104	275775488	72	13533
2026-01-01 09:41:59.14	88.77	23.35	-51.9	-63.2	3.9	7.45e-01	0	34	104	275775488	72	13315
2026-01-01 09:42:00.13	88.55	23.47	-55.7	-68.0	3.8	7.46e-01	0	34	104	275775488	80	14549
2026-01-01 09:42:01.12	88.33	23.60	-52.5	-64.0	3.8	7.43e-01	0	34	104	275775488	74	13013
2026-01-01 09:42:02.12	88.10	23.72	-57.1	-70.2	3.9	7.45e-01	0	34	104	275775488	82	16736
2026-01-01 09:42:03.11	87.88	23.85	-52.9	-64.5	3.9	7.47e-01	0	34	104	275775488	75	13019
2026-01-01 09:42:04.11	87.65	23.97	-57.9	-71.6	3.8	7.41e-01	0	34	104	275775488	83	18560
2026-01-01 09:42:05.10	87.42	24.10	-51.9	-63.2	3.8	7.43e-01	0	34	104	275775488	72	13307
2026-01-01 09:42:06.10	87.19	24.23	-51.6	-62.9	3.8	7.47e-01	0	34	104	275775488	72	12941
2026-01-01 09:42:07.09	86.95	24.35	-51.3	-62.6	3.8	7.45e-01	0	34	104	275775488	71	13160
2026-01-01 09:42:08.08	86.72	24.48	-51.5	-62.8	3.8	7.45e-01	0	34	104	275775488	71	13489
2026-01-01 09:42:09.08	86.48	24.60	-59.7	-76.1	3.8	7.45e-01	0	34	104	275775488	87	24916
2026-01-01 09:42:10.08	86.24	24.73	-55.8	-68.0	3.8	7.43e-01	0	34	104	275775488	80	14677
2026-01-01 09:42:11.07	86.00	24.86	-57.5	-70.8	3.8	7.46e-01	0	34	104	275775488	83	16949
2026-01-01 09:42:12.06	85.76	24.98	-57.5	-70.8	3.9	7.42e-01	0	34	104	275775488	83	16989
2026-01-01 09:42:13.05	85.51	25.11	-52.4	-63.8	3.8	7.43e-01	0	34	104	275775488	73	13515
2026-01-01 09:42:14.04	85.27	25.24	-51.9	-63.2	3.8	7.44e-01	0	34	104	275775488	73	12591
2026-01-01 09:42:15.04	85.02	25.36	-51.6	-62.9	3.8	7.43e-01	0	34	104	275775488	72	12847
2026-01-01 09:42:16.03	84.77	25.49	-51.1	-62.4	3.8	7.46e-01	0	34	104	275775488	71	12813
2026-01-01 09:42:17.02	84.51	25.62	-50.9	-62.1	3.9	7.43e-01	0	34	104	275775488	71	12516
2026-01-01 09:42:18.01	84.26	25.74	-53.0	-64.5	3.8	7.45e-01	0	34	104	275775488	73	14639
2026-01-01 09:42:19.00	84.00	25.87	-52.2	-63.6	3.8	7.43e-01	0	34	104	275775488	72	13894
2026-01-01 09:42:20.00	83.74	26.00	-57.6	-70.8	3.8	7.46e-01	0	34	104	275775488	82	18060
2026-01-01 09:42:20.99	83.48	26.13	-54.2	-65.9	3.8	7.44e-01	0	34	104	275775488	77	13690
2026-01-01 09:42:21.99	83.21	26.25	-57.7	-71.0	3.8	7.45e-01	0	34	104	275775488	83	17451
2026-01-01 09:42:22.99	82.94	26.38	-51.8	-63.1	3.8	7.43e-01	0	34	104	275775488	72	13171
2026-01-01 09:42:23.98	82.67	26.51	-51.9	-63.3	3.8	7.45e-01	0	34	104	275775488	72	13434
2026-01-01 09:42:24.98	82.40	26.64	-51.8	-63.2	3.8	7.46e-01	0	34	104	275775488	72	13274
2026-01-01 09:42:25.98	82.13	26.77	-51.6	-62.9	3.8	7.44e-01	0	34	104	275775488	72	12839
2026-01-01 09:42:26.98	81.85	26.89	-55.7	-67.8	3.8	7.48e-01	0	34	104	275775488	79	15220
2026-01-01 09:42:27.97	81.57	27.02	-51.9	-63.1	3.8	7.43e-01	0	33	104	275775488	72	13223
2026-01-01 09:42:28.96	81.29	27.15	-57.6	-70.9	3.8	7.45e-01	0	34	104	275775488	82	18110
2026-01-01 09:42:29.95	81.01	27.27	-53.2	-64.7	3.8	7.45e-01	0	34	104	275775488	75	13279
2026-01-01 09:42:30.95	80.72	27.40	-57.7	-71.1	3.8	7.49e-01	0	34	104	275775488	83	17548
2026-01-01 09:42:31.94	80.44	27.53	-50.9	-62.1	3.8	7.43e-01	0	34	104	275775488	71	12391
2026-01-01 09:42:32.92	80.15	27.65	-50.7	-61.9	3.8	7.49e-01	0	34	104	275775488	70	12923
2026-01-01 09:42:33.91	79.86	27.78	-50.6	-61.8	3.8	7.42e-01	0	34	104	275775488	70	12748
2026-01-01 09:42:34.90	79.56	27.90	-50.7	-61.9	3.8	7.47e-01	0	34	104	275775488	70	12866
2026-01-01 09:42:35.90	79.27	28.03	-54.6	-66.4	3.8	7.44e-01	0	34	104	275775488	76	15309
2026-01-01 09:42:36.89	78.97	28.15	-51.6	-62.8	3.9	7.45e-01	0	34	104	275775488	72	12719
2026-01-01 09:42:37.89	78.66	28.28	-57.6	-71.1	3.8	7.46e-01	0	34	104	275775488	83	17681
2026-01-01 09:42:38.89	78.36	28.41	-53.7	-65.2	3.9	7.47e-01	0	34	104	275775488	76	13402
2026-01-01 09:42:39.88	78.05	28.53	-57.2	-70.3	3.8	7.47e-01	0	34	104	275775488	82	16907
2026-01-01 09:42:40.87	77.74	28.65	-50.7	-61.9	3.8	7.44e-01	0	34	104	275775488	70	12822
2026-01-01 09:42:41.87	77.43	28.78	-50.8	-61.9	3.9	7.45e-01	0	34	104	275775488	70	12936
2026-01-01 09:42:42.87	77.11	28.90	-50.5	-61.7	3.8	7.45e-01	0	34	104	275775488	70	12535
2026-01-01 09:42:43.86	76.79	29.03	-50.5	-61.6	3.8	7.48e-01	0	34	104	275775488	70	12390
2026-01-01 09:42:44.86	76.47	29.15	-58.7	-73.2	3.8	7.44e-01	0	34	104	275775488	85	19853
2026-01-01 09:42:45.85	76.15	29.27	-50.9	-62.1	3.8	7.47e-01	0	34	104	275775488	70	13143
2026-01-01 09:42:46.85	75.83	29.40	-57.6	-70.8	3.8	7.43e-01	0	34	104	275775488	82	18018
2026-01-01 09:42:47.85	75.50	29.52	-53.8	-65.4	3.8	7.48e-01	0	34	104	275775488	76	13614
2026-01-01 09:42:48.84	75.17	29.64	-56.6	-69.1	3.8	7.46e-01	0	34	104	275775488	80	16520
2026-01-01 09:42:49.83	74.84	29.76	-50.7	-61.8	3.9	7.43e-01	0	34	104	275775488	70	12799
2026-01-01 09:42:50.82	74.50	29.88	-50.7	-61.9	3.8	7.44e-01	0	34	104	275775488	70	12816
2026-01-01 09:42:51.81	74.16	30.00	-50.4	-61.5	3.8	7.43e-01	0	34	104	275775488	70	12375
2026-01-01 09:42:52.80	73.83	30.12	-50.3	-61.4	3.9	7.44e-01	0	34	104	275775488	69	12875
2026-01-01 09:42:53.80	73.48	30.24	-58.1	-71.8	3.8	7.45e-01	0	34	104	275775488	83	18958
2026-01-01 09:42:54.79	73.14	30.35	-50.6	-61.8	3.8	7.45e-01	0	34	104	275775488	70	12743
2026-01-01 09:42:55.79	72.79	30.47	-57.4	-70.5	3.8	7.44e-01	0	34	104	275775488	82	17311
2026-01-01 09:42:56.77	72.44	30.59	-54.1	-65.7	3.9	7.42e-01	0	34	104	275775488	77	13348
2026-01-01 09:42:57.76	72.09	30.70	-55.4	-67.4	3.8	7.45e-01	0	34	104	275775488	78	15271
2026-01-01 09:42:58.75	71.73	30.82	-51.4	-62.6	3.8	7.41e-01	0	34	104	275775488	72	12509
2026-01-01 09:42:59.75	71.37	30.93	-50.9	-62.1	3.9	7.46e-01	0	34	104	275775488	70	13171
2026-01-01 09:43:00.74	71.01	31.05	-50.8	-61.9	3.9	7.45e-01	0	34	104	275775488	70	12944
2026-01-01 09:43:01.73	70.65	31.16	-50.5	-61.6	3.9	7.46e-01	0	34	104	275775488	70	12516
2026-01-01 09:43:02.72	70.28	31.27	-55.0	-66.8	3.9	7.44e-01	0	34	104	275775488	77	15208
2026-01-01 09:43:03.71	69.92	31.38	-50.6	-61.7	3.9	7.44e-01	0	34	104	275775488	70	12613
2026-01-01 09:43:04.71	69.54	31.49	-57.4	-70.4	3.8	7.49e-01	0	34	104	275775488	82	17148
2026-01-01 09:43:05.71	69.17	31.60	-54.4	-66.2	3.9	7.47e-01	0	34	104	275775488	78	13286
2026-01-01 09:43:06.70	68.79	31.71	-54.4	-66.2	3.8	7.45e-01	0	34	104	275775488	76	14896
2026-01-01 09:43:07.69	68.41	31.82	-51.6	-62.8	3.9	7.43e-01	0	34	104	275775488	72	12760
2026-01-01 09:43:08.69	68.03	31.92	-50.8	-62.0	3.8	7.46e-01	0	34	104	275775488	70	13008
2026-01-01 09:43:09.68	67.64	32.03	-50.8	-61.9	3.8	7.43e-01	0	34	104	275775488	70	12929
2026-01-01 09:43:10.68	67.25	32.14	-50.8	-62.0	3.8	7.45e-01	0	34	104	275775488	70	12972
2026-01-01 09:43:11.66	66.87	32.24	-53.2	-65.0	3.9	7.47e-01	0	34	104	275775488	74	14662
2026-01-01 09:43:12.66	66.47	32.34	-51.1	-62.3	3.9	7.48e-01	0	34	104	275775488	71	12697
2026-01-01 09:43:13.65	66.08	32.44	-56.7	-69.5	3.8	7.46e-01	0	34	104	275775488	81	16416
2026-01-01 09:43:14.64	65.68	32.54	-55.3	-67.2	3.9	7.44e-01	0	34	104	275775488	79	14185
2026-01-01 09:43:15.64	65.28	32.64	-53.6	-65.1	3.8	7.47e-01	0	34	104	275775488	74	14733
2026-01-01 09:43:16.62	64.88	32.74	-52.0	-63.4	3.9	7.43e-01	0	34	104	275775488	73	12875
2026-01-01 09:43:17.62	64.48	32.83	-51.0	-62.1	3.9	7.40e-01	0	34	104	275775488	71	12514
2026-01-01 09:43:18.61	64.07	32.93	-50.9	-62.1	3.8	7.47e-01	0	34	104	275775488	71	12395
2026-01-01 09:43:19.62	63.65	33.02	-51.0	-62.2	3.9	7.45e-01	0	34	104	275775488	70	13285
2026-01-01 09:43:20.61	63.24	33.12	-54.7	-66.6	3.8	7.48e-01	0	34	104	275775488	77	14746
2026-01-01 09:43:21.61	62.82	33.21	-51.8	-63.0	3.9	7.43e-01	0	34	104	275775488	72	13071
2026-01-01 09:43:22.60	62.41	33.30	-56.5	-68.8	3.8	7.43e-01	0	34	104	275775488	80	16075
2026-01-01 09:43:23.60	61.99	33.39	-55.6	-67.7	3.9	7.44e-01	0	34	104	275775488	80	14201
2026-01-01 09:43:24.60	61.56	33.47	-53.0	-64.4	3.8	7.41e-01	0	34	104	275775488	73	14413
2026-01-01 09:43:25.58	61.14	33.56	-52.5	-63.9	3.9	7.46e-01	0	34	104	275775488	74	12901
2026-01-01 09:43:26.58	60.71	33.64	-51.3	-62.4	3.9	7.44e-01	0	34	104	275775488	71	12953
2026-01-01 09:43:27.58	60.28	33.73	-51.4	-62.6	3.8	7.44e-01	0	34	104	275775488	71	13194
2026-01-01 09:43:28.57	59.85	33.81	-51.2	-62.3	3.9	7.47e-01	0	34	104	275775488	71	12773
2026-01-01 09:43:29.57	59.42	33.89	-53.1	-64.5	3.9	7.46e-01	0	34	104	275775488	73	14655
2026-01-01 09:43:30.57	58.98	33.96	-51.8	-63.1	3.9	7.50e-01	0	34	104	275775488	72	13185
2026-01-01 09:43:31.57	58.54	34.04	-56.8	-69.5	3.8	7.45e-01	0	34	104	275775488	81	16414
2026-01-01 09:43:32.56	58.10	34.12	-55.8	-67.9	3.9	7.45e-01	0	34	104	275775488	80	14382
2026-01-01 09:43:33.55	57.66	34.19	-52.1	-63.3	3.8	7.43e-01	0	34	104	275775488	71	14257
2026-01-01 09:43:34.55	57.21	34.26	-52.6	-64.0	3.9	7.46e-01	0	34	104	275775488	74	13102
2026-01-01 09:43:35.54	56.77	34.33	-51.2	-62.3	3.8	7.44e-01	0	34	104	275775488	71	12737
2026-01-01 09:43:36.52	56.33	34.39	-51.2	-62.4	3.9	7.48e-01	0	34	104	275775488	71	12828
2026-01-01 09:43:37.51	55.88	34.46	-51.2	-62.4	3.8	7.45e-01	0	34	104	275775488	71	12847
2026-01-01 09:43:38.51	55.43	34.52	-52.8	-64.3	3.8	7.47e-01	0	34	104	275775488	73	14304
2026-01-01 09:43:39.50	54.97	34.59	-52.1	-63.4	3.9	7.43e-01	0	34	104	275775488	73	12834
2026-01-01 09:43:40.49	54.52	34.64	-55.3	-67.4	3.8	7.46e-01	0	34	104	275775488	78	15363
2026-01-01 09:43:41.48	54.07	34.70	-56.5	-69.2	3.9	7.44e-01	0	34	104	275775488	82	14982
2026-01-01 09:43:42.47	53.61	34.76	-51.6	-62.8	3.9	7.47e-01	0	34	104	275775488	71	13534
2026-01-01 09:43:43.46	53.15	34.81	-53.3	-64.9	3.9	7.44e-01	0	34	104	275775488	76	12867
2026-01-01 09:43:44.45	52.69	34.86	-51.4	-62.6	3.8	7.44e-01	0	34	104	275775488	72	12517
2026-01-01 09:43:45.45	52.23	34.92	-51.3	-62.5	3.8	7.44e-01	0	34	104	275775488	71	13060
2026-01-01 09:43:46.44	51.76	34.96	-51.3	-62.4	3.9	7.45e-01	0	34	104	275775488	71	12942
2026-01-01 09:43:47.44	51.30	35.01	-52.5	-63.7	3.8	7.42e-01	0	34	104	275775488	72	14128
2026-01-01 09:43:48.43	50.83	35.05	-52.8	-64.0	3.8	7.46e-01	0	34	104	275775488	74	13045
2026-01-01 09:43:49.43	50.36	35.10	-54.2	-65.7	3.8	7.45e-01	0	34	104	275775488	75	14939
2026-01-01 09:43:50.43	49.89	35.14	-57.1	-69.9	3.8	7.45e-01	0	34	104	275775488	83	15280
2026-01-01 09:43:51.41	49.42	35.17	-51.4	-62.6	3.9	7.45e-01	0	34	104	275775488	72	12388
2026-01-01 09:43:52.41	48.95	35.21	-54.4	-66.3	3.9	7.43e-01	0	34	104	275775488	78	13531
2026-01-01 09:43:53.40	48.48	35.24	-51.6	-62.8	3.9	7.45e-01	0	34	104	275775488	72	12809
2026-01-01 09:43:54.40	48.00	35.28	-51.5	-62.7	3.8	7.46e-01	0	34	104	275775488	72	12636
2026-01-01 09:43:55.39	47.53	35.31	-51.4	-62.6	3.8	7.47e-01	0	34	104	275775488	71	13201
2026-01-01 09:43:56.39	47.05	35.33	-51.5	-62.7	3.8	7.45e-01	0	34	104	275775488	71	13344
2026-01-01 09:43:57.38	46.58	35.36	-52.2	-63.5	3.8	7.44e-01	0	34	104	275775488	73	13100
2026-01-01 09:43:58.37	46.10	35.38	-53.4	-64.9	3.8	7.47e-01	0	34	104	275775488	74	14419
2026-01-01 09:43:59.36	45.62	35.40	-58.0	-71.5	3.9	7.43e-01	0	34	104	275775488	85	16436
2026-01-01 09:44:00.36	45.14	35.42	-51.9	-63.3	3.8	7.48e-01	0	34	104	275775488	73	12717
2026-01-01 09:44:01.36	44.66	35.44	-54.3	-66.3	3.9	7.44e-01	0	34	104	275775488	78	13432
2026-01-01 09:44:02.35	44.18	35.45	-51.7	-63.0	3.8	7.47e-01	0	34	104	275775488	72	12991
2026-01-01 09:44:03.33	43.71	35.46	-51.4	-62.6	3.8	7.48e-01	0	34	104	275775488	72	12462
2026-01-01 09:44:04.33	43.23	35.47	-51.5	-62.7	3.8	7.45e-01	0	34	104	275775488	72	12533
2026-01-01 09:44:05.32	42.75	35.48	-51.8	-63.1	3.9	7.46e-01	0	34	104	275775488	72	13230
2026-01-01 09:44:06.32	42.27	35.48	-54.1	-65.9	3.9	7.42e-01	0	34	104	275775488	77	13607
2026-01-01 09:44:07.30	41.79	35.49	-52.2	-63.4	3.9	7.47e-01	0	34	104	275775488	72	13664
2026-01-01 09:44:08.30	41.31	35.49	-58.7	-72.6	3.9	7.45e-01	0	34	104	275775488	86	17611
2026-01-01 09:44:09.30	40.83	35.49	-52.6	-64.1	3.9	7.45e-01	0	34	104	275775488	74	13167
2026-01-01 09:44:10.29	40.35	35.48	-55.1	-67.1	3.8	7.47e-01	0	34	104	275775488	79	13922
2026-01-01 09:44:11.28	39.87	35.48	-51.8	-63.1	3.9	7.47e-01	0	34	104	275775488	72	13236
2026-01-01 09:44:12.27	39.39	35.47	-51.8	-63.0	3.8	7.44e-01	0	34	104	275775488	72	13071
2026-01-01 09:44:13.26	38.91	35.46	-51.7	-63.0	3.8	7.43e-01	0	34	104	275775488	72	13104
2026-01-01 09:44:14.26	38.43	35.44	-51.7	-62.9	3.8	7.42e-01	0	34	104	275775488	72	12916
2026-01-01 09:44:15.25	37.96	35.43	-53.5	-65.0	3.9	7.44e-01	0	34	104	275775488	76	13081
2026-01-01 09:44:16.25	37.47	35.41	-52.0	-63.3	3.8	7.44e-01	0	34	104	275775488	72	13473
2026-01-01 09:44:17.24	37.00	35.39	-59.0	-73.4	3.9	7.48e-01	0	34	104	275775488	86	19384
2026-01-01 09:44:18.23	36.52	35.37	-53.4	-64.9	3.8	7.46e-01	0	34	104	275775488	76	12913
2026-01-01 09:44:19.22	36.05	35.35	-55.5	-67.6	3.9	7.44e-01	0	34	104	275775488	80	13979
2026-01-01 09:44:20.22	35.57	35.32	-51.6	-62.9	3.9	7.43e-01	0	34	104	275775488	72	12894
2026-01-01 09:44:21.21	35.10	35.29	-51.6	-62.8	3.8	7.43e-01	0	34	104	275775488	72	12803
2026-01-01 09:44:22.20	34.62	35.26	-51.6	-62.9	3.9	7.43e-01	0	34	104	275775488	72	12923
2026-01-01 09:44:23.20	34.15	35.23	-51.7	-62.9	3.9	7.45e-01	0	34	104	275775488	72	12915
2026-01-01 09:44:24.19	33.68	35.19	-53.2	-64.7	3.9	7.48e-01	0	34	104	275775488	75	13354
2026-01-01 09:44:25.19	33.20	35.16	-51.8	-63.0	3.9	7.43e-01	0	34	104	275775488	72	13039
2026-01-01 09:44:26.19	32.73	35.12	-59.2	-73.9	3.9	7.47e-01	0	34	104	275775488	86	20376
2026-01-01 09:44:27.18	32.26	35.08	-54.0	-65.6	3.8	7.47e-01	0	34	104	275775488	77	13149
2026-01-01 09:44:28.18	31.79	35.03	-55.7	-67.8	3.9	7.46e-01	0	34	104	275775488	80	14354
2026-01-01 09:44:29.17	31.33	34.99	-51.6	-62.9	3.8	7.48e-01	0	34	104	275775488	72	12887
2026-01-01 09:44:30.16	30.87	34.94	-51.6	-62.8	3.9	7.42e-01	0	34	104	275775488	72	12809
2026-01-01 09:44:31.16	30.40	34.89	-51.6	-62.8	3.8	7.45e-01	0	34	104	275775488	72	12796
2026-01-01 09:44:32.16	29.94	34.84	-51.7	-62.7	3.8	7.43e-01	0	34	104	275775488	72	12641
2026-01-01 09:44:33.15	29.48	34.79	-53.9	-65.5	3.9	7.46e-01	0	34	104	275775488	76	13845
2026-01-01 09:44:34.15	29.02	34.73	-51.7	-63.1	3.8	7.47e-01	0	34	104	275775488	72	13135
2026-01-01 09:44:35.16	28.55	34.67	-59.3	-74.1	3.9	7.41e-01	0	34	104	275775488	86	20986
2026-01-01 09:44:36.15	28.10	34.62	-54.8	-66.4	3.9	7.45e-01	0	34	104	275775488	78	13587
2026-01-01 09:44:37.14	27.65	34.55	-55.9	-68.1	3.8	7.45e-01	0	34	104	275775488	80	14719
2026-01-01 09:44:38.13	27.20	34.49	-51.7	-63.0	3.8	7.48e-01	0	34	104	275775488	72	13072
2026-01-01 09:44:39.13	26.74	34.43	-51.7	-62.9	3.8	7.43e-01	0	34	104	275775488	72	12829
2026-01-01 09:44:40.12	26.30	34.36	-51.8	-63.1	3.8	7.42e-01	0	34	104	275775488	72	13155
2026-01-01 09:44:41.12	25.85	34.29	-51.7	-63.0	3.8	7.45e-01	0	34	104	275775488	72	13013
2026-01-01 09:44:42.10	25.41	34.22	-52.7	-64.0	3.9	7.43e-01	0	34	104	275775488	73	13761
2026-01-01 09:44:43.09	24.97	34.15	-51.7	-63.0	3.8	7.44e-01	0	34	104	275775488	72	12968
2026-01-01 09:44:44.09	24.53	34.08	-59.4	-74.2	3.9	7.44e-01	0	34	104	275775488	86	21237
2026-01-01 09:44:45.08	24.09	34.00	-55.6	-67.7	3.8	7.44e-01	0	34	104	275775488	80	14095
2026-01-01 09:44:46.07	23.66	33.93	-55.9	-68.2	3.8	7.41e-01	0	34	104	275775488	80	14903
2026-01-01 09:44:47.06	23.22	33.85	-52.1	-63.5	3.9	7.43e-01	0	34	104	275775488	73	13034
2026-01-01 09:44:48.04	22.80	33.77	-51.8	-62.9	3.8	7.45e-01	0	34	104	275775488	72	12913
2026-01-01 09:44:49.03	22.37	33.69	-51.7	-62.9	3.9	7.46e-01	0	34	104	275775488	72	12866
2026-01-01 09:44:50.02	21.94	33.61	-51.8	-63.1	3.9	7.48e-01	0	34	104	275775488	72	13161
2026-01-01 09:44:51.02	21.52	33.52	-54.9	-66.8	3.9	7.42e-01	0	34	104	275775488	78	14267
2026-01-01 09:44:52.00	21.10	33.44	-51.6	-62.8	3.9	7.42e-01	0	34	104	275775488	72	12786
2026-01-01 09:44:52.99	20.68	33.35	-59.6	-74.7	3.8	7.50e-01	0	34	104	275775488	86	22297
2026-01-01 09:44:53.98	20.26	33.26	-56.3	-68.6	3.9	7.46e-01	0	34	104	275775488	81	14819
2026-01-01 09:44:54.98	19.85	33.17	-56.0	-68.2	3.8	7.48e-01	0	34	104	275775488	79	15781
2026-01-01 09:44:55.99	19.43	33.08	-52.2	-63.7	3.9	7.46e-01	0	34	104	275775488	73	13308
2026-01-01 09:44:56.98	19.02	32.98	-51.7	-63.0	3.9	7.45e-01	0	34	104	275775488	72	13054
2026-01-01 09:44:57.97	18.61	32.89	-51.7	-62.7	3.9	7.41e-01	0	34	104	275775488	72	12595
2026-01-01 09:44:58.97	18.20	32.79	-51.8	-63.0	3.8	7.43e-01	0	34	104	275775488	72	12993
2026-01-01 09:44:59.96	17.80	32.70	-56.6	-69.1	3.8	7.43e-01	0	34	104	275775488	80	16693
2026-01-01 09:45:00.96	17.40	32.60	-51.8	-63.0	3.8	7.43e-01	0	34	104	275775488	72	13039
2026-01-01 09:45:01.95	17.00	32.50	-59.5	-74.5	3.8	7.48e-01	0	34	104	275775488	86	21861
2026-01-01 09:45:02.95	16.60	32.40	-57.1	-69.9	3.8	7.43e-01	0	34	104	275775488	83	15307
2026-01-01 09:45:03.94	16.21	32.30	-55.7	-67.7	3.8	7.44e-01	0	34	104	275775488	79	14912
2026-01-01 09:45:04.94	15.82	32.19	-52.4	-63.7	3.9	7.44e-01	0	34	104	275775488	74	12621
2026-01-01 09:45:05.93	15.43	32.09	-52.2	-63.6	3.9	7.47e-01	0	34	104	275775488	73	13117
2026-01-01 09:45:06.93	15.04	31.99	-52.0	-63.4	3.9	7.42e-01	0	34	104	275775488	73	12867
2026-01-01 09:45:07.92	14.66	31.88	-51.7	-63.0	3.9	7.46e-01	0	34	104	275775488	72	12986
2026-01-01 09:45:08.91	14.28	31.77	-53.2	-64.6	3.9	7.46e-01	0	34	104	275775488	74	14029
2026-01-01 09:45:09.91	13.90	31.66	-51.7	-63.0	3.9	7.44e-01	0	34	104	275775488	72	13003
2026-01-01 09:45:10.91	13.52	31.56	-59.6	-74.7	3.8	7.43e-01	0	34	104	275775488	86	22455
2026-01-01 09:45:11.90	13.15	31.45	-56.8	-69.4	3.8	7.47e-01	0	34	104	275775488	82	15257
2026-01-01 09:45:12.89	12.78	31.34	-55.5	-67.4	3.8	7.45e-01	0	34	104	275775488	78	15291
2026-01-01 09:45:13.88	12.42	31.23	-52.2	-63.5	3.9	7.46e-01	0	34	104	275775488	73	13049
2026-01-01 09:45:14.89	12.05	31.11	-51.7	-63.0	3.8	7.44e-01	0	34	104	275775488	72	13011
2026-01-01 09:45:15.88	11.69	31.00	-51.7	-62.9	3.9	7.44e-01	0	34	104	275775488	72	12866
2026-01-01 09:45:16.87	11.33	30.88	-51.6	-62.9	3.9	7.47e-01	0	34	104	275775488	72	12822
2026-01-01 09:45:17.86	10.97	30.77	-52.5	-63.8	3.9	7.46e-01	0	34	104	275775488	72	14290
2026-01-01 09:45:18.85	10.62	30.66	-51.7	-62.8	3.9	7.43e-01	0	34	104	275775488	72	12726
2026-01-01 09:45:19.86	10.26	30.54	-59.5	-74.5	3.8	7.43e-01	0	34	104	275775488	86	21762
2026-01-01 09:45:20.84	9.92	30.42	-56.9	-69.7	3.8	7.42e-01	0	34	104	275775488	82	15913
2026-01-01 09:45:21.83	9.57	30.31	-54.9	-66.7	3.8	7.46e-01	0	34	104	275775488	77	14991
2026-01-01 09:45:22.83	9.23	30.19	-52.1	-63.4	3.9	7.47e-01	0	34	104	275775488	73	12863
2026-01-01 09:45:23.82	8.89	30.07	-51.8	-62.9	3.8	7.46e-01	0	34	104	275775488	72	12958
2026-01-01 09:45:24.81	8.55	29.95	-51.8	-63.0	3.9	7.43e-01	0	34	104	275775488	72	13109
2026-01-01 09:45:25.81	8.21	29.83	-51.7	-63.0	3.9	7.43e-01	0	34	104	275775488	72	13026
2026-01-01 09:45:26.80	7.88	29.71	-52.6	-64.0	3.8	7.44e-01	0	34	104	275775488	73	13863
2026-01-01 09:45:27.80	7.55	29.59	-51.7	-62.8	3.9	7.45e-01	0	34	104	275775488	72	12747
2026-01-01 09:45:28.79	7.22	29.47	-59.4	-74.1	3.9	7.46e-01	0	34	104	275775488	86	20952
2026-01-01 09:45:29.79	6.89	29.35	-57.0	-69.9	3.8	7.48e-01	0	34	104	275775488	83	15347
2026-01-01 09:45:30.78	6.57	29.22	-54.8	-66.9	3.8	7.44e-01	0	34	104	275775488	77	15277
2026-01-01 09:45:31.77	6.25	29.10	-52.4	-63.9	3.8	7.44e-01	0	34	104	275775488	74	12821
2026-01-01 09:45:32.77	5.93	28.98	-51.8	-62.9	3.8	7.44e-01	0	34	104	275775488	72	12939
2026-01-01 09:45:33.77	5.62	28.85	-51.7	-62.8	3.8	7.44e-01	0	34	104	275775488	72	12771
2026-01-01 09:45:34.75	5.31	28.73	-51.6	-62.8	3.8	7.45e-01	0	34	104	275775488	72	12750
2026-01-01 09:45:35.74	5.00	28.61	-53.9	-65.4	3.9	7.48e-01	0	34	104	275775488	75	14395
2026-01-01 09:45:36.73	4.69	28.48	-52.1	-63.4	3.8	7.45e-01	0	34	104	275775488	73	12923
2026-01-01 09:45:37.72	4.39	28.36	-59.2	-74.0	3.8	7.44e-01	0	34	104	275775488	86	20614
2026-01-01 09:45:38.72	4.08	28.24	-57.7	-70.9	3.9	7.42e-01	0	34	104	275775488	84	16177
2026-01-01 09:45:39.71	3.78	28.11	-54.3	-66.0	3.9	7.46e-01	0	34	104	275775488	76	14671
2026-01-01 09:45:40.70	3.49	27.99	-52.8	-64.0	3.9	7.48e-01	0	34	104	275775488	74	13089
2026-01-01 09:45:41.70	3.19	27.86	-52.2	-63.5	3.9	7.46e-01	0	34	104	275775488	73	13031
2026-01-01 09:45:42.69	2.90	27.73	-51.9	-63.3	3.8	7.44e-01	0	34	104	275775488	73	12679
2026-01-01 09:45:43.69	2.60	27.61	-51.8	-63.1	3.8	7.46e-01	0	34	104	275775488	72	13201
2026-01-01 09:45:44.68	2.32	27.48	-53.5	-64.8	3.9	7.50e-01	0	34	104	275775488	74	14333
2026-01-01 09:45:45.67	2.03	27.36	-52.1	-63.4	3.8	7.45e-01	0	34	104	275775488	73	12937
2026-01-01 09:45:46.66	1.75	27.23	-58.9	-73.3	3.8	7.45e-01	0	34	104	275775488	85	20267
2026-01-01 09:45:47.65	1.47	27.10	-57.4	-70.4	3.9	7.45e-01	0	34	104	275775488	84	15352
2026-01-01 09:45:48.65	1.19	26.98	-53.0	-64.0	3.8	7.45e-01	0	34	104	275775488	73	13829
2026-01-01 09:45:49.64	0.91	26.85	-52.6	-64.0	3.8	7.44e-01	0	34	104	275775488	74	12988
2026-01-01 09:45:50.64	0.64	26.72	-52.1	-63.5	3.8	7.44e-01	0	34	104	275775488	73	13000
2026-01-01 09:45:51.63	0.37	26.60	-52.0	-63.1	3.8	7.46e-01	0	34	104	275775488	73	12506
2026-01-01 09:45:52.62	0.10	26.47	-52.0	-63.5	3.9	7.46e-01	0	34	104	275775488	73	12999
2026-01-01 09:45:53.61	359.83	26.34	-55.0	-67.0	3.8	7.42e-01	0	34	104	275775488	77	15489
2026-01-01 09:45:54.61	359.56	26.22	-52.8	-64.0	3.9	7.47e-01	0	34	104	275775488	74	13084
2026-01-01 09:45:55.60	359.30	26.09	-58.7	-72.7	3.8	7.47e-01	0	34	104	275775488	85	18943
2026-01-01 09:45:56.59	359.04	25.96	-57.8	-71.1	3.9	7.45e-01	0	34	104	275775488	84	16504
2026-01-01 09:45:57.58	358.79	25.84	-52.6	-63.9	3.8	7.46e-01	0	34	104	275775488	73	13606
2026-01-01 09:45:58.58	358.53	25.71	-52.9	-64.0	3.9	7.47e-01	0	34	104	275775488	74	13077
2026-01-01 09:45:59.56	358.28	25.58	-52.1	-63.6	3.9	7.45e-01	0	34	104	275775488	73	13158
2026-01-01 09:46:00.55	358.03	25.46	-51.9	-63.1	3.8	7.45e-01	0	34	104	275775488	72	13227
2026-01-01 09:46:01.53	357.78	25.33	-51.9	-63.1	3.8	7.46e-01	0	34	104	275775488	72	13252
2026-01-01 09:46:02.52	357.53	25.21	-53.2	-64.6	3.8	7.47e-01	0	34	104	275775488	73	14789
2026-01-01 09:46:03.51	357.29	25.08	-52.6	-64.0	3.9	7.43e-01	0	34	104	275775488	74	13032
2026-01-01 09:46:04.51	357.04	24.95	-57.4	-70.4	3.8	7.46e-01	0	34	104	275775488	82	17234
2026-01-01 09:46:05.50	356.80	24.83	-58.3	-72.1	3.9	7.46e-01	0	34	104	275775488	85	17606
2026-01-01 09:46:06.50	356.56	24.70	-52.2	-63.4	3.8	7.46e-01	0	34	104	275775488	73	12940
2026-01-01 09:46:07.50	356.32	24.57	-53.1	-64.6	3.9	7.43e-01	0	34	104	275775488	75	13221
2026-01-01 09:46:08.49	356.09	24.45	-52.1	-63.6	3.8	7.42e-01	0	34	104	275775488	73	13115
2026-01-01 09:46:09.49	355.85	24.32	-52.4	-63.6	3.8	7.43e-01	0	34	104	275775488	73	13188
2026-01-01 09:46:10.48	355.62	24.20	-52.3	-63.8	3.8	7.45e-01	0	34	104	275775488	73	13537
2026-01-01 09:46:11.47	355.39	24.07	-54.4	-66.2	3.8	7.43e-01	0	34	104	275775488	76	14897
2026-01-01 09:46:12.47	355.16	23.95	-53.4	-64.8	3.8	7.44e-01	0	34	104	275775488	76	12762
2026-01-01 09:46:13.45	354.94	23.82	-56.7	-69.3	3.8	7.49e-01	0	34	104	275775488	80	16961
2026-01-01 09:46:14.46	354.71	23.69	-58.6	-72.6	3.8	7.42e-01	0	34	104	275775488	86	17547
2026-01-01 09:46:15.45	354.49	23.57	-52.3	-63.6	3.9	7.42e-01	0	34	104	275775488	73	13244
2026-01-01 09:46:16.44	354.27	23.45	-53.4	-64.9	3.8	7.42e-01	0	34	104	275775488	76	12941
2026-01-01 09:46:17.44	354.05	23.32	-52.2	-63.4	3.9	7.43e-01	0	34	104	275775488	73	12884
2026-01-01 09:46:18.43	353.83	23.20	-52.0	-63.5	3.8	7.44e-01	0	34	104	275775488	73	13086
2026-01-01 09:46:19.42	353.62	23.07	-52.4	-63.6	3.8	7.44e-01	0	34	104	275775488	73	13139
2026-01-01 09:46:20.41	353.41	22.95	-52.7	-64.3	3.8	7.47e-01	0	34	104	275775488	73	14278
2026-01-01 09:46:21.40	353.20	22.83	-52.7	-64.0	3.8	7.46e-01	0	34	104	275775488	74	13067
2026-01-01 09:46:22.39	352.99	22.71	-55.7	-67.7	3.8	7.44e-01	0	34	104	275775488	78	15879
2026-01-01 09:46:23.38	352.78	22.58	-58.9	-73.7	3.8	7.42e-01	0	34	104	275775488	86	19962
2026-01-01 09:46:24.37	352.58	22.46	-52.8	-63.9	3.9	7.46e-01	0	34	104	275775488	74	12893
2026-01-01 09:46:25.37	352.37	22.34	-53.6	-65.7	3.9	7.47e-01	0	34	104	275775488	76	14125
2026-01-01 09:46:26.36	352.17	22.22	-52.2	-63.3	3.8	7.43e-01	0	34	104	275775488	73	12769
2026-01-01 09:46:27.35	351.97	22.09	-51.9	-63.4	3.9	7.43e-01	0	34	104	275775488	73	12894
2026-01-01 09:46:28.33	351.77	21.97	-51.8	-62.8	3.8	7.46e-01	0	34	104	275775488	72	12772
2026-01-01 09:46:29.33	351.57	21.85	-52.2	-63.5	3.8	7.46e-01	0	34	104	275775488	72	13762
2026-01-01 09:46:30.32	351.38	21.73	-53.0	-64.4	3.8	7.44e-01	0	34	104	275775488	75	12915
2026-01-01 09:46:31.32	351.18	21.61	-54.6	-66.2	3.9	7.44e-01	0	34	104	275775488	76	14881
2026-01-01 09:46:32.31	350.99	21.49	-59.0	-73.8	3.9	7.48e-01	0	34	104	275775488	86	20139
2026-01-01 09:46:33.29	350.80	21.37	-54.1	-65.7	3.9	7.45e-01	0	34	104	275775488	77	13384
2026-01-01 09:46:34.28	350.61	21.25	-54.0	-66.0	3.9	7.47e-01	0	34	104	275775488	77	13772
2026-01-01 09:46:35.28	350.43	21.13	-52.1	-63.1	3.8	7.47e-01	0	34	104	275775488	73	12518
2026-01-01 09:46:36.26	350.24	21.01	-52.0	-63.4	3.8	7.48e-01	0	34	104	275775488	73	12882
2026-01-01 09:46:37.26	350.06	20.89	-51.8	-62.7	3.8	7.43e-01	0	34	104	275775488	72	12660
2026-01-01 09:46:38.25	349.87	20.78	-51.9	-63.3	3.8	7.44e-01	0	34	104	275775488	72	13569
2026-01-01 09:46:39.25	349.69	20.66	-52.9	-64.4	3.8	7.45e-01	0	34	104	275775488	74	13669
2026-01-01 09:46:40.24	349.51	20.54	-53.2	-65.3	3.8	7.45e-01	0	34	104	275775488	74	15186
2026-01-01 09:46:41.24	349.33	20.42	-58.9	-73.3	3.8	7.46e-01	0	34	104	275775488	86	18983
2026-01-01 09:46:42.23	349.15	20.30	-54.9	-67.1	3.8	7.49e-01	0	34	104	275775488	79	14018
2026-01-01 09:46:43.22	348.98	20.19	-54.0	-65.3	3.9	7.46e-01	0	34	104	275775488	77	12788
2026-01-01 09:46:44.23	348.80	20.07	-52.1	-63.5	3.8	7.43e-01	0	34	104	275775488	73	13021
2026-01-01 09:46:45.22	348.63	19.95	-51.8	-63.0	3.9	7.46e-01	0	34	104	275775488	72	13059
2026-01-01 09:46:46.21	348.46	19.84	-51.7	-63.2	3.8	7.47e-01	0	34	104	275775488	72	13328
2026-01-01 09:46:47.21	348.29	19.72	-51.7	-63.1	3.8	7.44e-01	0	34	104	275775488	72	13179
2026-01-01 09:46:48.20	348.12	19.61	-52.9	-64.3	3.8	7.46e-01	0	34	104	275775488	74	13507
2026-01-01 09:46:49.19	347.95	19.49	-52.7	-64.0	3.8	7.45e-01	0	34	104	275775488	73	13823
2026-01-01 09:46:50.18	347.79	19.38	-58.9	-73.2	3.8	7.45e-01	0	34	104	275775488	86	18875
2026-01-01 09:46:51.17	347.62	19.26	-55.6	-68.0	3.8	7.43e-01	0	34	104	275775488	80	14626
2026-01-01 09:46:52.16	347.46	19.15	-54.3	-66.0	3.9	7.42e-01	0	34	104	275775488	77	13881
2026-01-01 09:46:53.15	347.30	19.03	-52.0	-63.5	3.8	7.44e-01	0	34	104	275775488	73	13017
2026-01-01 09:46:54.14	347.14	18.92	-52.0	-63.3	3.8	7.45e-01	0	34	104	275775488	73	12738
2026-01-01 09:46:55.14	346.98	18.81	-52.1	-63.3	3.8	7.47e-01	0	34	104	275775488	73	12691
2026-01-01 09:46:56.14	346.82	18.69	-51.9	-63.2	3.8	7.42e-01	0	34	104	275775488	73	12537
2026-01-01 09:46:57.13	346.66	18.58	-53.2	-64.5	3.9	7.44e-01	0	34	104	275775488	74	13757
2026-01-01 09:46:58.12	346.50	18.47	-52.5	-64.0	3.8	7.45e-01	0	34	104	275775488	73	13855
2026-01-01 09:46:59.11	346.35	18.36	-58.9	-73.6	3.8	7.46e-01	0	34	104	275775488	86	19777
2026-01-01 09:47:00.11	346.20	18.25	-56.3	-69.5	3.9	7.42e-01	0	34	104	275775488	82	15530
2026-01-01 09:47:01.10	346.04	18.14	-54.3	-66.1	3.8	7.49e-01	0	34	104	275775488	77	14032
2026-01-01 09:47:02.09	345.89	18.03	-52.0	-63.2	4.0	7.44e-01	0	34	104	275775488	73	12643
2026-01-01 09:47:03.09	345.74	17.92	-51.7	-62.9	3.8	7.46e-01	0	34	104	275775488	72	12903
2026-01-01 09:47:04.08	345.59	17.81	-51.3	-52.9	17.5	6.06e-01	0	34	0	275775488	71	4307
2026-01-01 09:47:05.07	345.45	17.70	-51.6	-53.3	17.8	6.02e-01	0	34	0	277348352	71	4508
2026-01-01 09:47:06.07	345.30	17.59	-51.5	-53.1	17.8	6.03e-01	0	34	0	279445504	71	4440
2026-01-01 09:47:07.07	345.15	17.48	-51.4	-53.1	17.8	6.03e-01	0	34	0	281018368	71	4401
2026-01-01 09:47:08.06	345.01	17.37	-51.5	-53.3	17.8	6.02e-01	0	34	0	283115520	71	4502
2026-01-01 09:47:09.04	344.87	17.26	-51.3	-53.0	17.8	6.05e-01	0	34	0	284688384	71	4370
2026-01-01 09:47:10.03	344.73	17.15	-51.4	-53.0	17.8	6.04e-01	0	34	0	286785536	71	4384
2026-01-01 09:47:11.03	344.59	17.05	-51.3	-52.9	17.8	6.02e-01	0	34	0	288882688	71	4323
2026-01-01 09:47:12.02	344.45	16.94	-51.1	-52.8	17.8	6.03e-01	0	34	0	290455552	71	4259
2026-01-01 09:47:13.01	344.31	16.83	-51.3	-52.9	17.8	6.03e-01	0	34	0	292028416	71	4335
2026-01-01 09:47:14.00	344.17	16.73	-51.3	-53.0	17.8	6.02e-01	0	34	0	294125568	71	4359
2026-01-01 09:47:15.00	344.03	16.62	-51.2	-52.8	17.9	6.02e-01	0	34	0	296222720	71	4265
2026-01-01 09:47:16.00	343.90	16.51	-51.2	-52.9	17.9	6.03e-01	0	34	0	297795584	71	4299
2026-01-01 09:47:16.99	343.76	16.41	-51.2	-52.9	17.9	6.03e-01	0	34	0	299892736	71	4301
2026-01-01 09:47:17.98	343.63	16.30	-51.3	-52.9	17.9	6.02e-01	0	34	0	301465600	71	4331
2026-01-01 09:47:18.97	343.50	16.20	-51.3	-53.0	17.8	6.03e-01	0	34	0	303562752	71	4350
2026-01-01 09:47:19.97	343.37	16.09	-51.4	-53.1	17.9	6.02e-01	0	34	0	305659904	71	4406
2026-01-01 09:47:20.97	343.24	15.99	-51.4	-53.1	17.8	6.04e-01	0	34	0	307232768	71	4424
2026-01-01 09:47:21.96	343.11	15.89	-51.6	-53.3	17.8	6.03e-01	0	34	0	309329920	71	4539
2026-01-01 09:47:22.95	342.98	15.78	-51.5	-53.2	17.8	6.06e-01	0	34	0	310902784	71	4493
2026-01-01 09:47:23.95	342.85	15.68	-51.4	-53.1	17.8	6.02e-01	0	34	0	312999936	71	4441
2026-01-01 09:47:24.95	342.72	15.58	-51.5	-53.2	17.8	6.03e-01	0	34	0	314572800	71	4459
2026-01-01 09:47:25.94	342.60	15.47	-51.3	-52.9	17.8	6.02e-01	0	34	0	316669952	71	4325
2026-01-01 09:47:26.93	342.47	15.37	-51.2	-52.8	17.9	6.03e-01	0	34	0	318242816	71	4264
2026-01-01 09:47:27.93	342.35	15.27	-51.4	-53.1	17.8	6.03e-01	0	34	0	320339968	71	4423
2026-01-01 09:47:28.92	342.23	15.17	-51.5	-53.2	17.8	6.04e-01	0	34	0	322437120	71	4477
2026-01-01 09:47:29.91	342.11	15.07	-51.4	-53.0	17.8	6.05e-01	0	34	0	324009984	71	4376
2026-01-01 09:47:30.90	341.99	14.97	-51.5	-53.2	17.8	6.04e-01	0	34	0	325582848	71	4448
2026-01-01 09:47:31.89	341.87	14.87	-51.6	-53.4	17.7	6.04e-01	0	34	0	327680000	71	4572
2026-01-01 09:47:32.89	341.75	14.77	-51.6	-53.3	17.7	6.04e-01	0	34	0	329777152	71	4530
2026-01-01 09:47:33.88	341.63	14.67	-51.4	-53.1	17.8	6.03e-01	0	34	0	331350016	71	4401
2026-01-01 09:47:34.87	341.51	14.57	-51.4	-53.1	17.8	6.01e-01	0	34	0	333447168	71	4434
2026-01-01 09:47:35.86	341.40	14.47	-51.3	-53.0	17.8	6.04e-01	0	34	0	335020032	71	4356
2026-01-01 09:47:36.85	341.28	14.37	-51.2	-52.9	17.8	6.02e-01	0	34	0	337117184	71	4316
2026-01-01 09:47:37.83	341.17	14.28	-51.2	-52.9	17.8	6.06e-01	0	34	0	338690048	71	4318
2026-01-01 09:47:38.83	341.05	14.18	-51.3	-53.0	17.8	6.03e-01	0	34	0	340787200	71	4356
2026-01-01 09:47:39.82	340.94	14.08	-51.5	-53.3	17.8	6.04e-01	0	34	0	342360064	71	4502
2026-01-01 09:47:40.82	340.83	13.98	-51.6	-53.3	17.8	6.03e-01	0	34	0	344457216	71	4518
2026-01-01 09:47:41.81	340.72	13.88	-51.5	-53.2	17.8	6.05e-01	0	34	0	346030080	71	4492
2026-01-01 09:47:42.80	340.60	13.79	-51.6	-53.4	17.7	6.04e-01	0	34	0	348127232	71	4556
2026-01-01 09:47:43.79	340.50	13.69	-51.7	-53.5	17.7	6.03e-01	0	34	0	350224384	71	4608
2026-01-01 09:47:44.79	340.39	13.60	-51.6	-53.4	17.7	6.03e-01	0	34	0	351797248	71	4568
2026-01-01 09:47:45.78	340.28	13.50	-51.7	-53.5	17.7	6.03e-01	0	34	0	353894400	71	4613
2026-01-01 09:47:46.77	340.17	13.40	-51.5	-53.2	17.8	6.04e-01	0	34	0	355467264	71	4450
2026-01-01 09:47:47.76	340.06	13.31	-51.5	-53.3	17.7	6.04e-01	0	34	0	357564416	71	4498
2026-01-01 09:47:48.75	339.96	13.22	-51.6	-53.3	17.7	6.03e-01	0	34	0	359137280	71	4522
2026-01-01 09:47:49.75	339.85	13.12	-51.7	-53.5	17.7	6.03e-01	0	34	0	361234432	71	4609
2026-01-01 09:47:50.73	339.75	13.03	-51.6	-53.3	17.7	6.03e-01	0	34	0	362807296	71	4515
2026-01-01 09:47:51.72	339.64	12.93	-51.5	-53.2	17.7	6.01e-01	0	34	0	364904448	71	4493
2026-01-01 09:47:52.72	339.54	12.84	-51.5	-53.2	17.7	6.01e-01	0	34	0	367001600	71	4470
2026-01-01 09:47:53.70	339.44	12.75	-51.5	-53.3	17.7	6.04e-01	0	34	0	368574464	71	4512
2026-01-01 09:47:54.70	339.34	12.65	-51.6	-53.3	17.7	6.05e-01	0	34	0	370671616	71	4539
2026-01-01 09:47:55.70	339.24	12.56	-51.6	-53.3	17.7	6.01e-01	0	34	0	372244480	71	4545
2026-01-01 09:47:56.69	339.14	12.47	-51.7	-53.4	17.7	6.03e-01	0	34	0	374341632	71	4572
2026-01-01 09:47:57.68	339.04	12.38	-51.7	-53.5	17.7	6.04e-01	0	34	0	375914496	71	4600
2026-01-01 09:47:58.68	338.94	12.28	-51.8	-53.6	17.6	6.04e-01	0	34	0	378011648	71	4693
2026-01-01 09:47:59.66	338.84	12.19	-51.8	-53.5	17.7	6.05e-01	0	34	0	379584512	71	4649
2026-01-01 09:48:00.65	338.74	12.10	-51.7	-53.5	17.7	6.03e-01	0	34	0	381681664	71	4623
2026-01-01 09:48:01.65	338.65	12.01	-51.9	-53.7	17.6	6.05e-01	0	34	0	383254528	71	4710
2026-01-01 09:48:02.65	338.55	11.92	-51.9	-53.7	17.6	6.03e-01	0	34	0	385351680	71	4750
2026-01-01 09:48:03.65	338.45	11.83	-51.7	-53.5	17.7	6.04e-01	0	34	0	387448832	71	4603
2026-01-01 09:48:04.64	338.36	11.74	-51.7	-53.5	17.7	6.04e-01	0	34	0	389021696	71	4600
2026-01-01 09:48:05.63	338.26	11.65	-51.8	-53.6	17.6	6.05e-01	0	34	0	391118848	71	4654
2026-01-01 09:48:06.63	338.17	11.56	-51.8	-53.5	17.7	6.02e-01	0	34	0	392691712	71	4650
2026-01-01 09:48:07.62	338.08	11.47	-51.7	-53.5	17.7	6.04e-01	0	34	0	394788864	71	4634
2026-01-01 09:48:08.61	337.98	11.38	-51.7	-53.5	17.7	6.06e-01	0	34	0	396361728	71	4609
2026-01-01 09:48:09.61	337.89	11.29	-51.8	-53.6	17.6	6.04e-01	0	34	0	398458880	71	4704
2026-01-01 09:48:10.60	337.80	11.21	-51.8	-53.6	17.6	6.04e-01	0	34	0	400031744	71	4657
2026-01-01 09:48:11.28	337.74	11.15	-51.9	-53.7	17.6	6.03e-01	0	34	0	402128896	71	4736
2026-01-01 09:48:12.71	337.61	11.02	-52.0	-53.9	17.6	6.03e-01	0	34	0	404750336	71	4823
2026-01-01 09:48:13.42	337.55	10.96	-52.0	-53.9	17.6	6.02e-01	0	34	0	406323200	71	4839
2026-01-01 09:48:14.73	337.43	10.84	-51.9	-53.7	17.6	6.02e-01	0	34	0	408420352	71	4748
2026-01-01 09:48:15.43	337.37	10.78	-51.8	-53.6	17.6	6.05e-01	0	34	0	409993216	71	4703
2026-01-01 09:48:16.73	337.25	10.67	-51.8	-53.6	17.6	6.04e-01	0	34	0	412614656	71	4687
2026-01-01 09:48:17.44	337.19	10.61	-51.9	-53.7	17.6	6.04e-01	0	34	0	413663232	71	4710
2026-01-01 09:48:18.74	337.08	10.49	-51.8	-53.6	17.6	6.02e-01	0	34	0	416284672	71	4689
2026-01-01 09:48:19.46	337.01	10.43	-51.8	-53.6	17.6	6.01e-01	0	34	0	417333248	71	4659
2026-01-01 09:48:20.73	336.91	10.32	-51.8	-53.6	17.6	6.03e-01	0	34	0	419954688	71	4662
2026-01-01 09:48:21.45	336.84	10.26	-51.8	-53.7	17.6	6.02e-01	0	34	0	421003264	71	4709
2026-01-01 09:48:22.73	336.74	10.15	-51.9	-53.7	17.6	6.03e-01	0	34	0	423624704	71	4755
2026-01-01 09:48:23.45	336.68	10.09	-51.9	-53.7	17.6	6.04e-01	0	34	0	424673280	71	4751
2026-01-01 09:48:24.72	336.57	9.98	-52.1	-54.0	17.6	6.02e-01	0	34	0	427294720	72	4622
2026-01-01 09:48:25.52	336.50	9.92	-52.1	-54.0	17.6	6.03e-01	0	34	0	428867584	72	4632
2026-01-01 09:48:26.67	336.41	9.82	-52.1	-54.0	17.5	6.03e-01	0	34	0	430964736	72	4642
2026-01-01 09:48:27.52	336.34	9.75	-52.1	-54.0	17.6	6.01e-01	0	34	0	432537600	72	4601
2026-01-01 09:48:28.65	336.25	9.65	-52.1	-54.0	17.5	6.03e-01	0	34	0	434634752	72	4637
2026-01-01 09:48:29.50	336.18	9.58	-52.2	-54.1	17.5	6.05e-01	0	34	0	436207616	72	4685
2026-01-01 09:48:30.63	336.09	9.49	-52.3	-54.2	17.5	6.02e-01	0	34	0	438304768	72	4730
2026-01-01 09:48:31.48	336.02	9.42	-52.2	-54.1	17.5	6.03e-01	0	34	0	439877632	72	4690
2026-01-01 09:48:32.62	335.93	9.32	-52.1	-54.0	17.5	6.04e-01	0	34	0	441974784	72	4618
2026-01-01 09:48:33.47	335.86	9.25	-52.2	-54.1	17.5	6.01e-01	0	34	0	443547648	72	4664
2026-01-01 09:48:34.62	335.77	9.16	-52.2	-54.2	17.5	6.03e-01	0	34	0	445644800	72	4709
2026-01-01 09:48:35.47	335.71	9.09	-52.2	-54.0	17.5	6.05e-01	0	34	0	447217664	72	4646
2026-01-01 09:48:36.60	335.62	8.99	-52.0	-53.9	17.6	6.02e-01	0	34	0	449839104	72	4582
2026-01-01 09:48:37.46	335.55	8.92	-52.1	-53.9	17.6	6.04e-01	0	34	0	451411968	72	4591
2026-01-01 09:48:38.59	335.47	8.83	-52.0	-53.8	17.6	6.02e-01	0	34	0	453509120	72	4511
2026-01-01 09:48:39.45	335.40	8.76	-52.1	-53.9	17.6	6.03e-01	0	34	0	455081984	72	4590
2026-01-01 09:48:40.58	335.31	8.67	-52.1	-54.0	17.5	6.02e-01	0	34	0	457179136	72	4640
2026-01-01 09:48:41.43	335.25	8.60	-52.1	-54.0	17.6	6.03e-01	0	34	0	458752000	72	4612
2026-01-01 09:48:42.57	335.17	8.51	-52.1	-54.0	17.5	6.01e-01	0	34	0	460849152	72	4604
2026-01-01 09:48:43.42	335.10	8.44	-52.1	-54.0	17.5	6.03e-01	0	34	0	462422016	72	4623
2026-01-01 09:48:44.56	335.02	8.35	-52.2	-54.1	17.5	6.01e-01	0	34	0	464519168	72	4658
2026-01-01 09:48:45.41	334.96	8.28	-52.2	-54.1	17.5	6.06e-01	0	34	0	466092032	72	4689
2026-01-01 09:48:46.54	334.88	8.19	-52.2	-54.1	17.5	6.05e-01	0	34	0	468189184	72	4661
2026-01-01 09:48:47.39	334.81	8.13	-52.3	-54.2	17.4	6.03e-01	0	34	0	469762048	72	4749
2026-01-01 09:48:48.53	334.73	8.04	-52.3	-54.2	17.4	6.03e-01	0	34	0	471859200	72	4758
2026-01-01 09:48:49.38	334.67	7.97	-52.3	-54.3	17.4	6.04e-01	0	34	0	473432064	72	4764
2026-01-01 09:48:50.51	334.59	7.88	-52.4	-54.3	17.4	6.02e-01	0	34	0	475529216	72	4789
2026-01-01 09:48:51.37	334.53	7.81	-52.3	-54.3	17.4	6.03e-01	0	34	0	477102080	72	4767
2026-01-01 09:48:52.51	334.45	7.72	-52.3	-54.2	17.4	6.04e-01	0	34	0	479199232	72	4730
2026-01-01 09:48:53.35	334.39	7.66	-52.3	-54.2	17.5	6.02e-01	0	34	0	480772096	72	4745
2026-01-01 09:48:54.49	334.31	7.57	-52.4	-54.3	17.4	6.02e-01	0	34	0	483393536	72	4814
2026-01-01 09:48:55.34	334.26	7.50	-52.4	-54.5	17.4	6.05e-01	0	34	0	484966400	72	4873
2026-01-01 09:48:56.48	334.18	7.42	-52.5	-54.5	17.3	6.03e-01	0	34	0	487063552	72	4913
2026-01-01 09:48:57.33	334.12	7.35	-52.5	-54.6	17.3	6.02e-01	0	34	0	488636416	72	4935
2026-01-01 09:48:58.46	334.04	7.26	-52.6	-54.6	17.3	6.03e-01	0	34	0	490733568	72	4981
2026-01-01 09:48:59.31	333.99	7.20	-52.5	-54.5	17.4	6.03e-01	0	34	0	492306432	72	4895
2026-01-01 09:49:00.44	333.91	7.11	-52.5	-54.5	17.4	6.02e-01	0	34	0	494403584	73	4629
2026-01-01 09:49:01.30	333.85	7.05	-52.6	-54.6	17.4	6.02e-01	0	34	0	495976448	73	4675
2026-01-01 09:49:02.43	333.78	6.96	-52.7	-54.7	17.3	6.02e-01	0	34	0	498073600	73	4741
2026-01-01 09:49:03.29	333.72	6.90	-52.7	-54.8	17.3	6.04e-01	0	34	0	499646464	73	4798
2026-01-01 09:49:04.42	333.65	6.81	-52.7	-54.8	17.3	6.04e-01	0	34	0	501743616	73	4776
2026-01-01 09:49:05.27	333.59	6.75	-52.7	-54.8	17.3	6.03e-01	0	34	0	503316480	73	4772
2026-01-01 09:49:06.40	333.52	6.66	-52.7	-54.7	17.3	6.04e-01	0	34	0	505413632	73	4759
2026-01-01 09:49:07.26	333.47	6.60	-52.7	-54.8	17.3	6.03e-01	0	34	0	506986496	73	4805
2026-01-01 09:49:08.40	333.39	6.51	-52.7	-54.8	17.3	6.01e-01	0	34	0	509083648	73	4765
2026-01-01 09:49:09.25	333.34	6.45	-52.7	-54.8	17.3	6.04e-01	0	34	0	510656512	73	4774
2026-01-01 09:49:10.39	333.27	6.37	-52.8	-54.9	17.3	6.04e-01	0	34	0	512753664	73	4817
2026-01-01 09:49:11.25	333.21	6.30	-52.6	-54.7	17.3	6.04e-01	0	34	0	514326528	73	4743
2026-01-01 09:49:12.38	333.14	6.22	-52.8	-55.0	17.3	6.05e-01	0	34	0	516947968	73	4886
2026-01-01 09:49:13.23	333.09	6.16	-52.8	-54.9	17.3	6.02e-01	0	34	0	518520832	73	4861
2026-01-01 09:49:14.36	333.02	6.07	-52.9	-55.0	17.2	6.03e-01	0	34	0	520617984	73	4907
2026-01-01 09:49:15.21	332.97	6.01	-52.8	-54.9	17.2	6.04e-01	0	34	0	522190848	73	4861
2026-01-01 09:49:16.35	332.90	5.93	-52.9	-55.0	17.2	6.01e-01	0	34	0	524288000	73	4913
2026-01-01 09:49:17.20	332.85	5.87	-52.8	-55.0	17.2	6.03e-01	0	34	0	525860864	73	4876
2026-01-01 09:49:18.33	332.78	5.78	-52.9	-55.0	17.2	6.03e-01	0	34	0	527958016	73	4924
2026-01-01 09:49:19.18	332.73	5.72	-52.8	-55.0	17.3	6.01e-01	0	34	0	529530880	73	4882
2026-01-01 09:49:20.32	332.66	5.64	-52.9	-55.0	17.2	6.03e-01	0	34	0	531628032	73	4922
2026-01-01 09:49:21.17	332.61	5.58	-52.7	-54.9	17.2	6.03e-01	0	34	0	533200896	73	4824
2026-01-01 09:49:22.30	332.55	5.50	-52.8	-55.0	17.2	6.04e-01	0	34	0	535298048	73	4875
