passes_logs/2026/01/01/R3.2S_Murmansk/R3.2S_Murmansk__20260101_185549_ZKG05_rec.log

#Pass ID: 20260101_185549_ZKG05
#Satellite: ZKG05
#Configuration: ZKG05
#almurnet v.1.7.20251203
#Start time: 2026-01-01 18:55:50

#Version: 2.2.20231116
#Station: R3.2S_Murmansk
#Location: 33.079688 lon 68.888172 lat
#TLE: 1 65263U 25180E   25363.54303023  .00006586  00000-0  34273-3 0  9994
#TLE: 2 65263  97.4772 128.0191 0001674  87.3453 272.7971 15.16366041 20011

#Time	Az	El	Level	Level2	SNR	BER	BlckErr	Temp	State	Recorded	gain1	gain2
2026-01-01 18:55:50.62	70.41	2.08	-59.4	-62.6	6.2	0.00e+00	0	38	0	0	85	20496
2026-01-01 18:55:51.63	70.30	2.14	-59.4	-62.6	6.2	0.00e+00	0	38	104	0	85	20517
2026-01-01 18:55:52.63	70.18	2.19	-59.4	-62.6	6.2	0.00e+00	0	38	104	0	85	20527
2026-01-01 18:55:53.65	70.07	2.25	-59.4	-62.6	6.2	0.00e+00	0	38	104	0	85	20419
2026-01-01 18:55:54.65	69.96	2.31	-59.4	-62.6	6.2	0.00e+00	0	38	104	0	85	20588
2026-01-01 18:55:55.66	69.84	2.36	-59.4	-62.6	6.2	0.00e+00	0	38	104	0	85	20573
2026-01-01 18:55:56.67	69.73	2.42	-59.4	-62.6	6.2	0.00e+00	0	39	104	0	85	20512
2026-01-01 18:55:57.67	69.62	2.47	-59.4	-62.6	6.2	0.00e+00	0	38	104	0	85	20528
2026-01-01 18:55:58.68	69.50	2.53	-59.4	-62.6	6.2	0.00e+00	0	39	104	0	85	20528
2026-01-01 18:55:59.69	69.38	2.59	-59.4	-62.6	6.2	0.00e+00	0	39	104	0	85	20501
2026-01-01 18:56:00.70	69.27	2.64	-59.4	-62.6	6.2	0.00e+00	0	38	104	0	85	20561
2026-01-01 18:56:01.71	69.15	2.70	-59.4	-62.6	6.2	0.00e+00	0	39	104	0	85	20547
2026-01-01 18:56:02.72	69.03	2.76	-59.4	-62.6	6.2	0.00e+00	0	39	104	0	85	20537
2026-01-01 18:56:03.72	68.91	2.81	-59.4	-62.6	6.2	0.00e+00	0	39	104	0	85	20559
2026-01-01 18:56:04.73	68.80	2.87	-59.4	-62.6	6.2	0.00e+00	0	39	104	0	85	20541
2026-01-01 18:56:05.74	68.68	2.93	-59.4	-62.6	6.2	0.00e+00	0	39	104	0	85	20491
2026-01-01 18:56:06.75	68.55	2.98	-59.4	-62.6	6.2	0.00e+00	0	39	104	0	85	20468
2026-01-01 18:56:07.75	68.44	3.04	-59.4	-62.6	6.2	0.00e+00	0	39	104	0	85	20468
2026-01-01 18:56:08.76	68.31	3.10	-59.4	-62.6	6.2	0.00e+00	0	39	104	0	85	20559
2026-01-01 18:56:09.77	68.19	3.15	-59.4	-62.6	6.2	0.00e+00	0	39	104	0	85	20578
2026-01-01 18:56:10.77	68.07	3.21	-59.4	-62.6	6.2	0.00e+00	0	39	104	0	85	20553
2026-01-01 18:56:11.78	67.95	3.27	-59.5	-62.6	6.2	0.00e+00	0	39	104	0	85	20508
2026-01-01 18:56:12.79	67.82	3.32	-59.4	-62.6	6.2	0.00e+00	0	39	104	0	85	20553
2026-01-01 18:56:13.79	67.70	3.38	-59.5	-62.6	6.2	0.00e+00	0	39	104	0	85	20559
2026-01-01 18:56:14.80	67.57	3.44	-59.4	-62.6	6.2	0.00e+00	0	39	104	0	85	20538
2026-01-01 18:56:15.81	67.45	3.49	-59.4	-62.6	6.2	0.00e+00	0	39	104	0	85	20535
2026-01-01 18:56:16.81	67.32	3.55	-59.5	-62.6	6.2	0.00e+00	0	39	104	0	85	20570
2026-01-01 18:56:17.82	67.20	3.61	-59.4	-62.6	6.2	0.00e+00	0	39	104	0	85	20505
2026-01-01 18:56:18.83	67.07	3.67	-59.5	-62.6	6.2	0.00e+00	0	39	104	0	85	20572
2026-01-01 18:56:19.84	66.94	3.72	-59.4	-62.6	6.2	0.00e+00	0	40	104	0	85	20502
2026-01-01 18:56:20.85	66.81	3.78	-59.5	-62.6	6.2	0.00e+00	0	40	104	0	85	20519
2026-01-01 18:56:21.85	66.68	3.84	-59.5	-62.6	6.2	0.00e+00	0	40	104	0	85	20495
2026-01-01 18:56:22.86	66.55	3.90	-59.5	-62.6	6.2	0.00e+00	0	40	104	0	85	20545
2026-01-01 18:56:23.86	66.42	3.95	-59.5	-62.6	6.2	0.00e+00	0	40	104	0	85	20529
2026-01-01 18:56:24.87	66.29	4.01	-59.5	-62.6	6.2	0.00e+00	0	40	104	0	85	20555
2026-01-01 18:56:25.88	66.16	4.07	-59.5	-62.6	6.2	0.00e+00	0	40	104	0	85	20591
2026-01-01 18:56:26.88	66.02	4.13	-59.5	-62.6	6.2	0.00e+00	0	40	104	0	85	20542
2026-01-01 18:56:27.88	65.89	4.18	-59.5	-62.6	6.2	0.00e+00	0	40	104	0	85	20518
2026-01-01 18:56:28.88	65.76	4.24	-59.5	-62.6	6.2	0.00e+00	0	40	104	0	85	20561
2026-01-01 18:56:29.89	65.62	4.30	-59.5	-62.6	6.2	0.00e+00	0	40	104	0	85	20567
2026-01-01 18:56:30.89	65.49	4.36	-59.5	-62.6	6.2	0.00e+00	0	40	104	0	85	20596
2026-01-01 18:56:31.89	65.35	4.41	-59.5	-62.6	6.2	0.00e+00	0	40	104	0	85	20570
2026-01-01 18:56:32.90	65.22	4.47	-59.5	-62.6	6.2	0.00e+00	0	40	104	0	85	20565
2026-01-01 18:56:33.91	65.08	4.53	-59.5	-62.6	6.2	0.00e+00	0	40	104	0	85	20547
2026-01-01 18:56:34.92	64.94	4.59	-59.5	-62.6	6.2	0.00e+00	0	40	104	0	85	20594
2026-01-01 18:56:35.93	64.80	4.64	-59.5	-62.6	6.2	0.00e+00	0	40	104	0	85	20612
2026-01-01 18:56:36.93	64.66	4.70	-59.5	-62.6	6.2	0.00e+00	0	40	104	0	85	20563
2026-01-01 18:56:37.93	64.52	4.76	-59.5	-62.6	6.2	0.00e+00	0	40	104	0	85	20556
2026-01-01 18:56:38.94	64.38	4.82	-59.5	-62.7	6.2	0.00e+00	0	40	104	0	85	20647
2026-01-01 18:56:39.95	64.24	4.88	-59.5	-62.6	6.2	0.00e+00	0	40	104	0	85	20583
2026-01-01 18:56:40.95	64.10	4.93	-59.5	-62.6	6.2	0.00e+00	0	40	104	0	85	20608
2026-01-01 18:56:41.96	63.96	4.99	-59.5	-62.6	6.2	0.00e+00	0	40	104	0	85	20633
2026-01-01 18:56:42.97	63.81	5.05	-59.5	-62.6	6.2	0.00e+00	0	40	104	0	85	20547
2026-01-01 18:56:43.97	63.67	5.11	-59.7	-62.8	6.2	0.00e+00	0	40	104	0	85	21070
2026-01-01 18:56:44.97	63.52	5.17	-59.5	-62.7	6.2	0.00e+00	0	40	104	0	85	20777
2026-01-01 18:56:45.98	63.38	5.22	-59.5	-62.7	6.2	0.00e+00	0	40	104	0	85	20647
2026-01-01 18:56:46.99	63.23	5.28	-59.7	-62.8	6.2	0.00e+00	0	40	104	0	85	21010
2026-01-01 18:56:47.99	63.08	5.34	-59.5	-62.6	6.2	0.00e+00	0	40	104	0	85	20582
2026-01-01 18:56:49.00	62.93	5.40	-59.6	-62.7	6.2	0.00e+00	0	40	104	0	85	20837
2026-01-01 18:56:50.00	62.79	5.46	-59.5	-62.7	6.2	0.00e+00	0	40	104	0	85	20690
2026-01-01 18:56:51.01	62.64	5.52	-59.7	-62.9	6.2	0.00e+00	0	40	104	0	85	21155
2026-01-01 18:56:52.01	62.49	5.57	-59.5	-62.6	6.2	0.00e+00	0	40	104	0	85	20611
2026-01-01 18:56:53.01	62.34	5.63	-59.6	-62.7	6.2	0.00e+00	0	40	104	0	85	20856
2026-01-01 18:56:54.02	62.18	5.69	-59.5	-62.7	6.2	0.00e+00	0	40	104	0	85	20746
2026-01-01 18:56:55.02	62.03	5.75	-59.7	-62.9	6.2	0.00e+00	0	41	104	0	85	21186
2026-01-01 18:56:56.03	61.88	5.81	-59.5	-62.6	6.2	0.00e+00	0	41	104	0	85	20601
2026-01-01 18:56:57.04	61.72	5.86	-59.6	-62.8	6.2	0.00e+00	0	41	104	0	85	20973
2026-01-01 18:56:58.05	61.57	5.92	-59.6	-62.7	6.2	0.00e+00	0	41	104	0	85	20808
2026-01-01 18:56:59.05	61.41	5.98	-59.7	-62.9	6.2	0.00e+00	0	41	104	0	85	21210
2026-01-01 18:57:00.06	61.26	6.04	-59.5	-62.7	6.2	0.00e+00	0	41	104	0	85	20770
2026-01-01 18:57:01.06	61.10	6.10	-59.6	-62.8	6.2	0.00e+00	0	41	104	0	85	21021
2026-01-01 18:57:02.06	60.94	6.16	-59.6	-62.8	6.2	0.00e+00	0	41	104	0	85	20901
2026-01-01 18:57:03.07	60.78	6.21	-59.7	-62.9	6.2	0.00e+00	0	41	104	0	85	21227
2026-01-01 18:57:04.07	60.62	6.27	-59.6	-62.7	6.2	0.00e+00	0	41	104	0	85	20769
2026-01-01 18:57:05.07	60.46	6.33	-59.7	-62.8	6.2	0.00e+00	0	41	104	0	85	21048
2026-01-01 18:57:06.08	60.30	6.39	-59.6	-62.8	6.2	0.00e+00	0	41	104	0	85	20902
2026-01-01 18:57:07.08	60.14	6.45	-59.8	-62.9	6.2	0.00e+00	0	41	104	0	85	21321
2026-01-01 18:57:08.09	59.98	6.50	-59.6	-62.7	6.2	0.00e+00	0	41	104	0	85	20846
2026-01-01 18:57:09.09	59.81	6.56	-59.7	-62.9	6.2	0.00e+00	0	41	104	0	85	21231
2026-01-01 18:57:10.10	59.65	6.62	-59.6	-62.8	6.2	0.00e+00	0	41	104	0	85	20967
2026-01-01 18:57:11.11	59.48	6.68	-59.8	-63.0	6.2	0.00e+00	0	41	104	0	85	21374
2026-01-01 18:57:12.12	59.32	6.74	-59.6	-62.8	6.2	0.00e+00	0	41	104	0	85	20903
2026-01-01 18:57:13.13	59.15	6.80	-59.7	-62.9	6.2	0.00e+00	0	41	104	0	85	21158
2026-01-01 18:57:14.13	58.98	6.85	-59.7	-62.8	6.2	0.00e+00	0	41	104	0	85	21034
2026-01-01 18:57:15.14	58.81	6.91	-59.8	-62.9	6.2	0.00e+00	0	41	104	0	85	21313
2026-01-01 18:57:16.14	58.64	6.97	-59.7	-62.8	6.2	0.00e+00	0	41	104	0	85	20955
2026-01-01 18:57:17.14	58.47	7.03	-59.7	-62.9	6.2	0.00e+00	0	41	104	0	85	21175
2026-01-01 18:57:18.15	58.30	7.09	-59.7	-62.9	6.2	0.00e+00	0	41	104	0	85	21133
2026-01-01 18:57:19.15	58.13	7.14	-59.8	-63.0	6.2	0.00e+00	0	41	104	0	85	21420
2026-01-01 18:57:20.16	57.96	7.20	-59.7	-62.8	6.2	0.00e+00	0	41	104	0	85	21094
2026-01-01 18:57:21.16	57.78	7.26	-59.8	-62.9	6.2	0.00e+00	0	41	104	0	85	21272
2026-01-01 18:57:22.17	57.61	7.32	-59.7	-62.9	6.2	0.00e+00	0	41	104	0	85	21214
2026-01-01 18:57:23.17	57.43	7.38	-59.8	-63.0	6.2	0.00e+00	0	41	104	0	85	21418
2026-01-01 18:57:24.17	57.26	7.43	-59.7	-62.9	6.2	0.00e+00	0	41	104	0	85	21134
2026-01-01 18:57:25.18	57.08	7.49	-59.8	-62.9	6.2	0.00e+00	0	41	104	0	85	21286
2026-01-01 18:57:26.19	56.90	7.55	-59.7	-62.9	6.2	0.00e+00	0	41	104	0	85	21226
2026-01-01 18:57:27.19	56.72	7.61	-59.9	-63.0	6.2	0.00e+00	0	41	104	0	85	21483
2026-01-01 18:57:28.20	56.54	7.66	-59.7	-62.9	6.2	0.00e+00	0	41	104	0	85	21196
2026-01-01 18:57:29.20	56.36	7.72	-59.8	-63.0	6.2	0.00e+00	0	41	104	0	85	21373
2026-01-01 18:57:30.21	56.18	7.78	-59.8	-62.9	6.2	0.00e+00	0	41	104	0	85	21278
2026-01-01 18:57:31.21	56.00	7.84	-59.9	-63.0	6.2	0.00e+00	0	41	104	0	85	21491
2026-01-01 18:57:32.20	55.81	7.89	-59.8	-62.9	6.2	0.00e+00	0	41	104	0	85	21303
2026-01-01 18:57:33.21	55.63	7.95	-59.8	-63.0	6.2	0.00e+00	0	41	104	0	85	21434
2026-01-01 18:57:34.22	55.44	8.01	-59.8	-63.0	6.2	0.00e+00	0	41	104	0	85	21370
2026-01-01 18:57:35.23	55.26	8.06	-59.9	-63.0	6.2	0.00e+00	0	41	104	0	85	21482
2026-01-01 18:57:36.22	55.07	8.12	-59.8	-62.9	6.2	0.00e+00	0	41	104	0	85	21330
2026-01-01 18:57:37.22	54.88	8.18	-59.8	-63.0	6.2	0.00e+00	0	41	104	0	85	21433
2026-01-01 18:57:38.22	54.70	8.23	-59.8	-63.0	6.2	0.00e+00	0	41	104	0	85	21449
2026-01-01 18:57:39.23	54.51	8.29	-59.9	-63.0	6.2	0.00e+00	0	41	104	0	85	21578
2026-01-01 18:57:40.23	54.32	8.35	-59.8	-62.9	6.2	0.00e+00	0	41	104	0	85	21326
2026-01-01 18:57:41.24	54.12	8.40	-59.9	-63.0	6.2	0.00e+00	0	41	104	0	85	21496
2026-01-01 18:57:42.25	53.93	8.46	-59.8	-63.0	6.2	0.00e+00	0	41	104	0	85	21512
2026-01-01 18:57:43.26	53.73	8.52	-59.9	-63.1	6.2	0.00e+00	0	41	104	0	85	21674
2026-01-01 18:57:44.26	53.54	8.57	-59.8	-63.0	6.2	0.00e+00	0	41	104	0	85	21447
2026-01-01 18:57:45.26	53.35	8.63	-59.9	-63.0	6.2	0.00e+00	0	41	104	0	85	21545
2026-01-01 18:57:46.26	53.15	8.69	-59.9	-63.0	6.2	0.00e+00	0	41	104	0	85	21541
2026-01-01 18:57:47.26	52.95	8.74	-59.9	-63.1	6.2	0.00e+00	0	41	104	0	85	21648
2026-01-01 18:57:48.27	52.76	8.80	-59.8	-63.0	6.2	0.00e+00	0	42	104	0	85	21425
2026-01-01 18:57:49.27	52.56	8.85	-59.9	-63.0	6.2	0.00e+00	0	41	104	0	85	21581
2026-01-01 18:57:50.28	52.36	8.91	-59.9	-63.0	6.2	0.00e+00	0	41	104	0	85	21581
2026-01-01 18:57:51.28	52.16	8.96	-59.9	-63.1	6.2	0.00e+00	0	41	104	0	85	21743
2026-01-01 18:57:52.29	51.95	9.02	-59.9	-63.0	6.2	0.00e+00	0	42	104	0	85	21507
2026-01-01 18:57:53.30	51.75	9.07	-59.9	-63.1	6.2	0.00e+00	0	41	104	0	85	21652
2026-01-01 18:57:54.30	51.55	9.13	-59.9	-63.0	6.2	0.00e+00	0	42	104	0	85	21563
2026-01-01 18:57:55.31	51.34	9.18	-60.0	-63.1	6.2	0.00e+00	0	42	104	0	85	21765
2026-01-01 18:57:56.31	51.14	9.24	-59.9	-63.0	6.2	0.00e+00	0	42	104	0	85	21580
2026-01-01 18:57:57.31	50.93	9.29	-59.9	-63.1	6.2	0.00e+00	0	42	104	0	85	21665
2026-01-01 18:57:58.32	50.72	9.35	-59.9	-63.1	6.2	0.00e+00	0	41	104	0	85	21693
2026-01-01 18:57:59.33	50.51	9.40	-60.0	-63.1	6.2	0.00e+00	0	42	104	0	85	21750
2026-01-01 18:58:00.34	50.30	9.46	-59.9	-63.1	6.2	0.00e+00	0	41	104	0	85	21668
2026-01-01 18:58:01.34	50.09	9.51	-60.0	-63.1	6.2	0.00e+00	0	42	104	0	85	21714
2026-01-01 18:58:02.35	49.88	9.57	-59.9	-63.1	6.2	0.00e+00	0	41	104	0	85	21756
2026-01-01 18:58:03.35	49.67	9.62	-60.0	-63.1	6.2	0.00e+00	0	42	104	0	85	21811
2026-01-01 18:58:04.36	49.45	9.67	-59.9	-63.1	6.2	0.00e+00	0	41	104	0	85	21727
2026-01-01 18:58:05.36	49.24	9.73	-60.0	-63.1	6.2	0.00e+00	0	42	104	0	85	21784
2026-01-01 18:58:06.37	49.02	9.78	-60.0	-63.1	6.2	0.00e+00	0	42	104	0	85	21775
2026-01-01 18:58:07.37	48.81	9.83	-60.0	-63.2	6.2	0.00e+00	0	42	104	0	85	21860
2026-01-01 18:58:08.37	48.59	9.88	-60.0	-63.1	6.2	0.00e+00	0	41	104	0	85	21791
2026-01-01 18:58:09.37	48.37	9.94	-60.0	-63.2	6.2	0.00e+00	0	42	104	0	85	21869
2026-01-01 18:58:10.38	48.15	9.99	-60.0	-63.1	6.2	0.00e+00	0	42	104	0	85	21831
2026-01-01 18:58:11.39	47.93	10.04	-60.0	-63.2	6.2	0.00e+00	0	42	104	0	85	21910
2026-01-01 18:58:12.39	47.71	10.09	-60.0	-63.1	6.2	0.00e+00	0	42	104	0	85	21848
2026-01-01 18:58:13.39	47.49	10.15	-60.0	-63.1	6.2	0.00e+00	0	42	104	0	85	21834
2026-01-01 18:58:14.40	47.27	10.20	-60.0	-63.2	6.2	0.00e+00	0	42	104	0	85	21880
2026-01-01 18:58:15.40	47.04	10.25	-60.0	-63.2	6.2	0.00e+00	0	42	104	0	85	21961
2026-01-01 18:58:16.40	46.82	10.30	-60.0	-63.1	6.2	0.00e+00	0	42	104	0	85	21811
2026-01-01 18:58:17.41	46.59	10.35	-60.0	-63.2	6.2	0.00e+00	0	42	104	0	85	21900
2026-01-01 18:58:18.40	46.37	10.40	-60.0	-63.2	6.2	0.00e+00	0	42	104	0	85	21909
2026-01-01 18:58:19.40	46.14	10.45	-60.0	-63.2	6.2	0.00e+00	0	41	104	0	85	21940
2026-01-01 18:58:20.41	45.91	10.50	-60.0	-63.2	6.2	0.00e+00	0	42	104	0	85	21911
2026-01-01 18:58:21.42	45.68	10.55	-60.0	-63.2	6.2	0.00e+00	0	42	104	0	85	21927
2026-01-01 18:58:22.42	45.45	10.60	-60.0	-63.2	6.2	0.00e+00	0	42	104	0	85	21957
2026-01-01 18:58:23.43	45.22	10.65	-60.1	-63.2	6.2	0.00e+00	0	42	104	0	85	22046
2026-01-01 18:58:24.43	44.99	10.70	-60.0	-63.2	6.2	0.00e+00	0	42	104	0	85	21871
2026-01-01 18:58:25.44	44.75	10.75	-60.1	-63.2	6.2	0.00e+00	0	42	104	0	85	22004
2026-01-01 18:58:26.45	44.52	10.80	-60.1	-63.2	6.2	0.00e+00	0	42	104	0	85	21954
2026-01-01 18:58:27.45	44.28	10.84	-60.1	-63.2	6.2	0.00e+00	0	42	104	0	85	21996
2026-01-01 18:58:28.46	44.04	10.89	-60.0	-63.2	6.2	0.00e+00	0	42	104	0	85	21981
2026-01-01 18:58:29.47	43.80	10.94	-60.1	-63.2	6.2	0.00e+00	0	42	104	0	85	22012
2026-01-01 18:58:30.47	43.57	10.99	-60.1	-63.2	6.2	0.00e+00	0	42	104	0	85	22040
2026-01-01 18:58:31.48	43.33	11.04	-60.1	-63.2	6.2	0.00e+00	0	41	104	0	85	22026
2026-01-01 18:58:32.48	43.09	11.08	-60.1	-63.2	6.2	0.00e+00	0	42	104	0	85	22040
2026-01-01 18:58:33.48	42.85	11.13	-60.1	-63.2	6.2	0.00e+00	0	42	104	0	85	22049
2026-01-01 18:58:34.48	42.61	11.17	-60.1	-63.2	6.2	0.00e+00	0	41	104	0	85	22058
2026-01-01 18:58:35.49	42.36	11.22	-60.1	-63.2	6.2	0.00e+00	0	42	104	0	85	22079
2026-01-01 18:58:36.49	42.12	11.27	-60.1	-63.2	6.2	0.00e+00	0	42	104	0	85	22038
2026-01-01 18:58:37.49	41.88	11.31	-60.1	-63.2	6.2	0.00e+00	0	42	104	0	85	22046
2026-01-01 18:58:38.50	41.63	11.36	-60.1	-63.2	6.2	0.00e+00	0	42	104	0	85	22071
2026-01-01 18:58:39.50	41.38	11.40	-60.1	-63.3	6.2	0.00e+00	0	42	104	0	85	22126
2026-01-01 18:58:40.50	41.14	11.45	-60.1	-63.2	6.2	0.00e+00	0	42	104	0	85	22103
2026-01-01 18:58:41.51	40.89	11.49	-60.1	-63.3	6.2	0.00e+00	0	42	104	0	85	22171
2026-01-01 18:58:42.52	40.64	11.53	-60.1	-63.3	6.2	0.00e+00	0	42	104	0	85	22176
2026-01-01 18:58:43.51	40.39	11.58	-60.1	-63.3	6.2	0.00e+00	0	42	104	0	85	22115
2026-01-01 18:58:44.52	40.14	11.62	-60.1	-63.3	6.2	0.00e+00	0	42	104	0	85	22171
2026-01-01 18:58:45.52	39.89	11.66	-60.1	-63.3	6.2	0.00e+00	0	42	104	0	85	22185
2026-01-01 18:58:46.53	39.63	11.70	-60.2	-63.3	6.2	0.00e+00	0	42	104	0	85	22204
2026-01-01 18:58:47.54	39.38	11.75	-60.1	-63.3	6.2	0.00e+00	0	42	104	0	85	22172
2026-01-01 18:58:48.55	39.12	11.79	-60.1	-63.3	6.2	0.00e+00	0	42	104	0	85	22169
2026-01-01 18:58:49.55	38.87	11.83	-60.1	-63.3	6.2	0.00e+00	0	42	104	0	85	22147
2026-01-01 18:58:50.55	38.61	11.87	-60.2	-63.3	6.2	0.00e+00	0	42	104	0	85	22244
2026-01-01 18:58:51.56	38.35	11.91	-60.1	-63.3	6.2	0.00e+00	0	42	104	0	85	22251
2026-01-01 18:58:52.56	38.10	11.95	-60.1	-63.3	6.2	0.00e+00	0	42	104	0	85	22180
2026-01-01 18:58:53.56	37.84	11.99	-60.1	-63.3	6.2	0.00e+00	0	42	104	0	85	22144
2026-01-01 18:58:54.56	37.58	12.03	-60.2	-63.3	6.2	0.00e+00	0	42	104	0	85	22237
2026-01-01 18:58:55.57	37.32	12.07	-60.2	-63.3	6.2	0.00e+00	0	42	104	0	85	22271
2026-01-01 18:58:56.57	37.06	12.10	-60.1	-63.3	6.2	0.00e+00	0	42	104	0	85	22264
2026-01-01 18:58:57.58	36.80	12.14	-60.2	-63.3	6.2	0.00e+00	0	42	104	0	85	22215
2026-01-01 18:58:58.59	36.53	12.18	-60.2	-63.3	6.2	0.00e+00	0	42	104	0	85	22284
2026-01-01 18:58:59.59	36.27	12.22	-60.2	-63.3	6.2	0.00e+00	0	42	104	0	85	22230
2026-01-01 18:59:00.60	36.00	12.25	-60.2	-63.3	6.2	0.00e+00	0	42	104	0	85	22275
2026-01-01 18:59:01.61	35.74	12.29	-60.2	-63.3	6.2	0.00e+00	0	42	104	0	85	22243
2026-01-01 18:59:02.61	35.47	12.32	-60.2	-63.3	6.2	0.00e+00	0	42	104	0	85	22331
2026-01-01 18:59:03.62	35.20	12.36	-60.2	-63.3	6.2	0.00e+00	0	42	104	0	85	22200
2026-01-01 18:59:04.62	34.94	12.39	-60.2	-63.3	6.2	0.00e+00	0	42	104	0	85	22251
2026-01-01 18:59:05.62	34.67	12.43	-60.2	-63.3	6.2	0.00e+00	0	42	104	0	85	22238
2026-01-01 18:59:06.63	34.40	12.46	-60.2	-63.3	6.2	0.00e+00	0	42	104	0	85	22336
2026-01-01 18:59:07.63	34.13	12.49	-60.2	-63.3	6.2	0.00e+00	0	42	104	0	85	22234
2026-01-01 18:59:08.63	33.86	12.53	-60.2	-63.3	6.2	0.00e+00	0	42	104	0	85	22226
2026-01-01 18:59:09.64	33.59	12.56	-60.2	-63.3	6.2	0.00e+00	0	42	104	0	85	22263
2026-01-01 18:59:10.64	33.32	12.59	-60.2	-63.3	6.2	0.00e+00	0	42	104	0	85	22329
2026-01-01 18:59:11.65	33.04	12.62	-60.2	-63.3	6.2	0.00e+00	0	42	104	0	85	22249
2026-01-01 18:59:12.65	32.77	12.65	-60.2	-63.3	6.2	0.00e+00	0	42	104	0	85	22303
2026-01-01 18:59:13.66	32.50	12.68	-60.2	-63.3	6.2	0.00e+00	0	42	104	0	85	22281
2026-01-01 18:59:14.66	32.22	12.71	-60.2	-63.4	6.2	0.00e+00	0	42	104	0	85	22379
2026-01-01 18:59:15.67	31.95	12.74	-60.2	-63.3	6.2	0.00e+00	0	42	104	0	85	22301
2026-01-01 18:59:16.67	31.67	12.77	-60.2	-63.3	6.2	0.00e+00	0	42	104	0	85	22340
2026-01-01 18:59:17.66	31.40	12.80	-60.2	-63.3	6.2	0.00e+00	0	42	104	0	85	22266
2026-01-01 18:59:18.67	31.12	12.82	-60.2	-63.4	6.2	0.00e+00	0	42	104	0	85	22395
2026-01-01 18:59:19.68	30.84	12.85	-60.2	-63.3	6.2	0.00e+00	0	42	104	0	85	22325
2026-01-01 18:59:20.68	30.56	12.88	-60.2	-63.4	6.2	0.00e+00	0	42	104	0	85	22408
2026-01-01 18:59:21.68	30.29	12.90	-60.2	-63.3	6.2	0.00e+00	0	42	104	0	85	22299
2026-01-01 18:59:22.68	30.01	12.93	-60.2	-63.3	6.2	0.00e+00	0	42	104	0	85	22362
2026-01-01 18:59:23.68	29.73	12.95	-60.2	-63.3	6.2	0.00e+00	0	42	104	0	85	22311
2026-01-01 18:59:24.68	29.45	12.98	-60.2	-63.3	6.2	0.00e+00	0	42	104	0	85	22326
2026-01-01 18:59:25.68	29.17	13.00	-60.2	-63.3	6.2	0.00e+00	0	42	104	0	85	22328
2026-01-01 18:59:26.69	28.89	13.03	-60.2	-63.4	6.2	0.00e+00	0	42	104	0	85	22423
2026-01-01 18:59:27.69	28.60	13.05	-60.2	-63.3	6.2	0.00e+00	0	42	104	0	85	22339
2026-01-01 18:59:28.70	28.32	13.07	-60.2	-63.3	6.2	0.00e+00	0	42	104	0	85	22335
2026-01-01 18:59:29.70	28.04	13.09	-60.2	-63.4	6.2	0.00e+00	0	42	104	0	85	22375
2026-01-01 18:59:30.70	27.76	13.11	-60.2	-63.4	6.2	0.00e+00	0	42	104	0	85	22446
2026-01-01 18:59:31.71	27.47	13.13	-60.2	-63.4	6.2	0.00e+00	0	42	104	0	85	22373
2026-01-01 18:59:32.71	27.19	13.15	-60.2	-63.3	6.2	0.00e+00	0	42	104	0	85	22359
2026-01-01 18:59:33.72	26.90	13.17	-60.2	-63.4	6.2	0.00e+00	0	42	104	0	85	22439
2026-01-01 18:59:34.73	26.61	13.19	-60.2	-63.4	6.2	0.00e+00	0	42	104	0	85	22438
2026-01-01 18:59:35.74	26.32	13.21	-60.2	-63.3	6.2	0.00e+00	0	42	104	0	85	22339
2026-01-01 18:59:36.74	26.04	13.23	-60.2	-63.3	6.2	0.00e+00	0	42	104	0	85	22337
2026-01-01 18:59:37.75	25.75	13.24	-60.2	-63.4	6.2	0.00e+00	0	42	104	0	85	22381
2026-01-01 18:59:38.75	25.47	13.26	-60.2	-63.4	6.2	0.00e+00	0	42	104	0	85	22472
2026-01-01 18:59:39.76	25.18	13.27	-60.2	-63.3	6.2	0.00e+00	0	42	104	0	85	22318
2026-01-01 18:59:40.76	24.89	13.29	-60.2	-63.3	6.2	0.00e+00	0	42	104	0	85	22328
2026-01-01 18:59:41.76	24.60	13.30	-60.2	-63.3	6.2	0.00e+00	0	42	104	0	85	22329
2026-01-01 18:59:42.76	24.31	13.32	-60.2	-63.4	6.2	0.00e+00	0	42	104	0	85	22492
2026-01-01 18:59:43.76	24.03	13.33	-60.2	-63.3	6.2	0.00e+00	0	42	104	0	85	22364
2026-01-01 18:59:44.77	23.74	13.34	-60.2	-63.4	6.2	0.00e+00	0	42	104	0	85	22431
2026-01-01 18:59:45.77	23.45	13.35	-60.2	-63.3	6.2	0.00e+00	0	42	104	0	85	22342
2026-01-01 18:59:46.78	23.16	13.37	-60.3	-63.4	6.2	0.00e+00	0	42	104	0	85	22515
2026-01-01 18:59:47.78	22.87	13.38	-60.2	-63.3	6.2	0.00e+00	0	42	104	0	85	22356
2026-01-01 18:59:48.78	22.58	13.39	-60.2	-63.4	6.2	0.00e+00	0	42	104	0	85	22429
2026-01-01 18:59:49.78	22.29	13.40	-60.2	-63.4	6.2	0.00e+00	0	42	104	0	85	22408
2026-01-01 18:59:50.79	22.00	13.40	-60.3	-63.4	6.2	0.00e+00	0	42	104	0	85	22513
2026-01-01 18:59:51.79	21.71	13.41	-60.2	-63.4	6.2	0.00e+00	0	42	104	0	85	22402
2026-01-01 18:59:52.80	21.42	13.42	-60.2	-63.4	6.2	0.00e+00	0	42	104	0	85	22415
2026-01-01 18:59:53.81	21.12	13.43	-60.2	-63.4	6.2	0.00e+00	0	42	104	0	85	22419
2026-01-01 18:59:54.81	20.83	13.43	-60.3	-63.4	6.2	0.00e+00	0	42	104	0	85	22558
2026-01-01 18:59:55.81	20.54	13.44	-60.2	-63.4	6.2	0.00e+00	0	42	104	0	85	22511
2026-01-01 18:59:56.81	20.25	13.44	-60.3	-63.4	6.2	0.00e+00	0	42	104	0	85	22477
2026-01-01 18:59:57.82	19.96	13.45	-60.3	-63.4	6.2	0.00e+00	0	42	104	0	85	22570
2026-01-01 18:59:58.83	19.67	13.45	-60.3	-63.4	6.2	0.00e+00	0	42	104	0	85	22608
2026-01-01 18:59:59.83	19.37	13.45	-60.2	-63.4	6.2	0.00e+00	0	42	104	0	85	22432
2026-01-01 19:00:00.83	19.08	13.46	-60.3	-63.4	6.2	0.00e+00	0	42	104	0	85	22583
2026-01-01 19:00:01.84	18.79	13.46	-60.2	-63.4	6.2	0.00e+00	0	42	104	0	85	22457
2026-01-01 19:00:02.84	18.50	13.46	-60.3	-63.4	6.2	0.00e+00	0	42	104	0	85	22549
2026-01-01 19:00:03.85	18.21	13.46	-60.2	-63.4	6.2	0.00e+00	0	42	104	0	85	22516
2026-01-01 19:00:04.85	17.92	13.46	-60.3	-63.4	6.2	0.00e+00	0	42	104	0	85	22519
2026-01-01 19:00:05.86	17.62	13.46	-60.2	-63.4	6.2	0.00e+00	0	42	104	0	85	22518
2026-01-01 19:00:06.87	17.33	13.46	-60.3	-63.4	6.2	0.00e+00	0	42	104	0	85	22557
2026-01-01 19:00:07.87	17.04	13.46	-60.2	-63.4	6.2	0.00e+00	0	42	104	0	85	22443
2026-01-01 19:00:08.88	16.74	13.45	-60.2	-63.4	6.2	0.00e+00	0	42	104	0	85	22502
2026-01-01 19:00:09.89	16.45	13.45	-60.3	-63.4	6.2	0.00e+00	0	42	104	0	85	22479
2026-01-01 19:00:10.90	16.16	13.45	-60.3	-63.4	6.2	0.00e+00	0	42	104	0	85	22604
2026-01-01 19:00:11.90	15.87	13.44	-60.2	-63.4	6.2	0.00e+00	0	42	104	0	85	22438
2026-01-01 19:00:12.91	15.57	13.44	-60.3	-63.4	6.2	0.00e+00	0	42	104	0	85	22543
2026-01-01 19:00:13.91	15.28	13.43	-60.2	-63.4	6.2	0.00e+00	0	42	104	0	85	22429
2026-01-01 19:00:14.91	14.99	13.42	-60.3	-63.4	6.2	0.00e+00	0	42	104	0	85	22554
2026-01-01 19:00:15.92	14.70	13.42	-60.2	-63.4	6.2	0.00e+00	0	42	104	0	85	22414
2026-01-01 19:00:16.92	14.41	13.41	-60.2	-63.4	6.2	0.00e+00	0	42	104	0	85	22386
2026-01-01 19:00:17.93	14.12	13.40	-60.2	-63.4	6.2	0.00e+00	0	42	104	0	85	22440
2026-01-01 19:00:18.94	13.83	13.39	-60.3	-63.4	6.2	0.00e+00	0	42	104	0	85	22567
2026-01-01 19:00:19.94	13.54	13.38	-60.2	-63.4	6.2	0.00e+00	0	42	104	0	85	22488
2026-01-01 19:00:20.95	13.25	13.37	-60.3	-63.4	6.2	0.00e+00	0	42	104	0	85	22487
2026-01-01 19:00:21.95	12.96	13.36	-60.2	-63.4	6.2	0.00e+00	0	42	104	0	85	22438
2026-01-01 19:00:22.96	12.67	13.35	-60.3	-63.4	6.2	0.00e+00	0	42	104	0	85	22616
2026-01-01 19:00:23.97	12.38	13.34	-60.2	-63.4	6.2	0.00e+00	0	42	104	0	85	22450
2026-01-01 19:00:24.97	12.09	13.32	-60.2	-63.4	6.2	0.00e+00	0	42	104	0	85	22534
2026-01-01 19:00:25.97	11.80	13.31	-60.2	-63.4	6.2	0.00e+00	0	42	104	0	85	22494
2026-01-01 19:00:26.98	11.51	13.30	-60.3	-63.4	6.2	0.00e+00	0	42	104	0	85	22602
2026-01-01 19:00:27.98	11.22	13.28	-60.2	-63.4	6.2	0.00e+00	0	42	104	0	85	22397
2026-01-01 19:00:28.98	10.94	13.27	-60.3	-63.4	6.2	0.00e+00	0	42	104	0	85	22584
2026-01-01 19:00:29.98	10.65	13.25	-60.3	-63.4	6.2	0.00e+00	0	42	104	0	85	22433
2026-01-01 19:00:30.98	10.37	13.23	-60.3	-63.4	6.2	0.00e+00	0	42	104	0	85	22548
2026-01-01 19:00:31.99	10.08	13.22	-60.2	-63.4	6.2	0.00e+00	0	42	104	0	85	22484
2026-01-01 19:00:32.99	9.79	13.20	-60.2	-63.4	6.2	0.00e+00	0	42	104	0	85	22509
2026-01-01 19:00:33.99	9.51	13.18	-60.2	-63.4	6.2	0.00e+00	0	42	104	0	85	22437
2026-01-01 19:00:35.00	9.22	13.16	-60.3	-63.4	6.2	0.00e+00	0	42	104	0	85	22591
2026-01-01 19:00:36.01	8.94	13.14	-60.2	-63.4	6.2	0.00e+00	0	42	104	0	85	22370
2026-01-01 19:00:37.02	8.65	13.12	-60.2	-63.4	6.2	0.00e+00	0	42	104	0	85	22512
2026-01-01 19:00:38.02	8.37	13.10	-60.2	-63.4	6.2	0.00e+00	0	42	104	0	85	22511
2026-01-01 19:00:39.02	8.09	13.08	-60.3	-63.4	6.2	0.00e+00	0	42	104	0	85	22614
2026-01-01 19:00:40.03	7.80	13.06	-60.2	-63.3	6.2	0.00e+00	0	42	104	0	85	22364
2026-01-01 19:00:41.03	7.52	13.04	-60.2	-63.4	6.2	0.00e+00	0	42	104	0	85	22476
2026-01-01 19:00:42.03	7.24	13.01	-60.2	-63.4	6.2	0.00e+00	0	42	104	0	85	22548
2026-01-01 19:00:43.04	6.96	12.99	-60.3	-63.4	6.2	0.00e+00	0	42	104	0	85	22583
2026-01-01 19:00:44.05	6.67	12.97	-60.2	-63.4	6.2	0.00e+00	0	42	104	0	85	22397
2026-01-01 19:00:45.05	6.40	12.94	-60.2	-63.4	6.2	0.00e+00	0	42	104	0	85	22507
2026-01-01 19:00:46.05	6.12	12.92	-60.2	-63.4	6.2	0.00e+00	0	42	104	0	85	22433
2026-01-01 19:00:47.06	5.84	12.89	-60.3	-63.4	6.2	0.00e+00	0	42	104	0	85	22612
2026-01-01 19:00:48.07	5.56	12.87	-60.2	-63.4	6.2	0.00e+00	0	42	104	0	85	22425
2026-01-01 19:00:49.07	5.28	12.84	-60.3	-63.4	6.2	0.00e+00	0	42	104	0	85	22480
2026-01-01 19:00:50.08	5.00	12.81	-60.3	-63.4	6.2	0.00e+00	0	42	104	0	85	22487
2026-01-01 19:00:51.08	4.73	12.78	-60.3	-63.4	6.2	0.00e+00	0	42	104	0	85	22592
2026-01-01 19:00:52.09	4.45	12.75	-60.2	-63.4	6.2	0.00e+00	0	42	104	0	85	22375
2026-01-01 19:00:53.09	4.17	12.73	-60.2	-63.4	6.2	0.00e+00	0	42	104	0	85	22445
2026-01-01 19:00:54.10	3.90	12.70	-60.2	-63.4	6.2	0.00e+00	0	42	104	0	85	22401
2026-01-01 19:00:55.10	3.63	12.67	-60.3	-63.4	6.2	0.00e+00	0	42	104	0	85	22576
2026-01-01 19:00:56.11	3.35	12.64	-60.2	-63.4	6.2	0.00e+00	0	42	104	0	85	22401
2026-01-01 19:00:57.12	3.08	12.61	-60.2	-63.4	6.2	0.00e+00	0	42	104	0	85	22420
2026-01-01 19:00:58.12	2.81	12.57	-60.2	-63.4	6.2	0.00e+00	0	42	104	0	85	22413
2026-01-01 19:00:59.13	2.53	12.54	-60.3	-63.4	6.2	0.00e+00	0	42	104	0	85	22422
2026-01-01 19:01:00.13	2.26	12.51	-60.2	-63.3	6.2	0.00e+00	0	42	104	0	85	22351
2026-01-01 19:01:01.13	1.99	12.48	-60.2	-63.4	6.2	0.00e+00	0	42	104	0	85	22467
2026-01-01 19:01:02.13	1.73	12.44	-60.2	-63.4	6.2	0.00e+00	0	42	104	0	85	22391
2026-01-01 19:01:03.14	1.46	12.41	-60.2	-63.4	6.2	0.00e+00	0	42	104	0	85	22508
2026-01-01 19:01:04.14	1.19	12.38	-60.2	-63.3	6.2	0.00e+00	0	42	104	0	85	22332
2026-01-01 19:01:05.14	0.92	12.34	-60.2	-63.3	6.2	0.00e+00	0	42	104	0	85	22338
2026-01-01 19:01:06.14	0.66	12.31	-60.2	-63.4	6.2	0.00e+00	0	42	104	0	85	22373
2026-01-01 19:01:07.14	0.40	12.27	-60.2	-63.4	6.2	0.00e+00	0	42	104	0	85	22502
2026-01-01 19:01:08.14	0.13	12.23	-60.2	-63.3	6.2	0.00e+00	0	42	104	0	85	22322
2026-01-01 19:01:09.15	359.87	12.20	-60.2	-63.3	6.2	0.00e+00	0	42	104	0	85	22346
2026-01-01 19:01:10.15	359.61	12.16	-60.2	-63.3	6.2	0.00e+00	0	42	104	0	85	22314
2026-01-01 19:01:11.16	359.34	12.12	-60.2	-63.4	6.2	0.00e+00	0	42	104	0	85	22508
2026-01-01 19:01:12.16	359.08	12.09	-60.2	-63.3	6.2	0.00e+00	0	42	104	0	85	22337
2026-01-01 19:01:13.17	358.82	12.05	-60.2	-63.4	6.2	0.00e+00	0	42	104	0	85	22390
2026-01-01 19:01:14.17	358.56	12.01	-60.2	-63.4	6.2	0.00e+00	0	42	104	0	85	22380
2026-01-01 19:01:15.18	358.30	11.97	-60.2	-63.4	6.2	0.00e+00	0	42	104	0	85	22435
2026-01-01 19:01:16.18	358.04	11.93	-60.2	-63.3	6.2	0.00e+00	0	42	104	0	85	22289
2026-01-01 19:01:17.19	357.79	11.89	-60.2	-63.3	6.2	0.00e+00	0	42	104	0	85	22310
2026-01-01 19:01:18.19	357.53	11.85	-60.2	-63.3	6.2	0.00e+00	0	42	104	0	85	22288
2026-01-01 19:01:19.20	357.27	11.81	-60.2	-63.4	6.2	0.00e+00	0	42	104	0	85	22383
2026-01-01 19:01:20.20	357.02	11.77	-60.2	-63.3	6.2	0.00e+00	0	42	104	0	85	22196
2026-01-01 19:01:21.20	356.77	11.73	-60.2	-63.3	6.2	0.00e+00	0	42	104	0	85	22287
2026-01-01 19:01:22.20	356.52	11.68	-60.2	-63.3	6.2	0.00e+00	0	42	104	0	85	22301
2026-01-01 19:01:23.21	356.26	11.64	-60.2	-63.3	6.2	0.00e+00	0	42	104	0	85	22365
2026-01-01 19:01:24.20	356.01	11.60	-60.1	-63.3	6.2	0.00e+00	0	42	104	0	85	22185
2026-01-01 19:01:25.20	355.77	11.56	-60.2	-63.3	6.2	0.00e+00	0	42	104	0	85	22223
2026-01-01 19:01:26.20	355.52	11.51	-60.2	-63.3	6.2	0.00e+00	0	42	104	0	85	22240
2026-01-01 19:01:27.20	355.27	11.47	-60.2	-63.3	6.2	0.00e+00	0	42	104	0	85	22305
2026-01-01 19:01:28.20	355.02	11.43	-60.1	-63.3	6.2	0.00e+00	0	42	104	0	85	22129
2026-01-01 19:01:29.21	354.77	11.38	-60.1	-63.3	6.2	0.00e+00	0	42	104	0	85	22223
2026-01-01 19:01:30.22	354.53	11.34	-60.2	-63.3	6.2	0.00e+00	0	42	104	0	85	22211
2026-01-01 19:01:31.22	354.28	11.29	-60.2	-63.4	6.2	0.00e+00	0	42	104	0	85	22366
2026-01-01 19:01:32.23	354.04	11.25	-60.1	-63.3	6.2	0.00e+00	0	42	104	0	85	22139
2026-01-01 19:01:33.23	353.80	11.20	-60.1	-63.3	6.2	0.00e+00	0	42	104	0	85	22117
2026-01-01 19:01:34.24	353.55	11.16	-60.1	-63.3	6.2	0.00e+00	0	42	104	0	85	22185
2026-01-01 19:01:35.24	353.31	11.11	-60.2	-63.3	6.2	0.00e+00	0	42	104	0	85	22273
2026-01-01 19:01:36.24	353.07	11.06	-60.1	-63.3	6.2	0.00e+00	0	42	104	0	85	22178
2026-01-01 19:01:37.25	352.83	11.02	-60.1	-63.3	6.2	0.00e+00	0	42	104	0	85	22129
2026-01-01 19:01:38.25	352.60	10.97	-60.1	-63.3	6.2	0.00e+00	0	42	104	0	85	22159
2026-01-01 19:01:39.25	352.36	10.92	-60.1	-63.3	6.2	0.00e+00	0	42	104	0	85	22218
2026-01-01 19:01:40.25	352.12	10.87	-60.1	-63.2	6.2	0.00e+00	0	42	104	0	85	22022
2026-01-01 19:01:41.25	351.89	10.83	-60.1	-63.2	6.2	0.00e+00	0	42	104	0	85	22065
2026-01-01 19:01:42.26	351.65	10.78	-60.1	-63.3	6.2	0.00e+00	0	42	104	0	85	22181
2026-01-01 19:01:43.26	351.42	10.73	-60.1	-63.3	6.2	0.00e+00	0	42	104	0	85	22203
2026-01-01 19:01:44.27	351.19	10.68	-60.1	-63.2	6.2	0.00e+00	0	42	104	0	85	22009
2026-01-01 19:01:45.27	350.96	10.63	-60.1	-63.2	6.2	0.00e+00	0	42	104	0	85	22079
2026-01-01 19:01:46.28	350.72	10.58	-60.1	-63.3	6.2	0.00e+00	0	42	104	0	85	22160
2026-01-01 19:01:47.29	350.49	10.53	-60.1	-63.3	6.2	0.00e+00	0	42	104	0	85	22130
2026-01-01 19:01:48.29	350.27	10.48	-60.1	-63.2	6.2	0.00e+00	0	42	104	0	85	22027
2026-01-01 19:01:49.29	350.04	10.43	-60.1	-63.2	6.2	0.00e+00	0	42	104	0	85	22020
2026-01-01 19:01:50.29	349.81	10.38	-60.1	-63.2	6.2	0.00e+00	0	42	104	0	85	22088
2026-01-01 19:01:51.30	349.59	10.33	-60.1	-63.2	6.2	0.00e+00	0	42	104	0	85	22089
2026-01-01 19:01:52.30	349.36	10.28	-60.0	-63.2	6.2	0.00e+00	0	42	104	0	85	21972
2026-01-01 19:01:53.31	349.14	10.23	-60.1	-63.2	6.2	0.00e+00	0	42	104	0	85	22031
2026-01-01 19:01:54.31	348.91	10.18	-60.1	-63.2	6.2	0.00e+00	0	42	104	0	85	22042
2026-01-01 19:01:55.31	348.69	10.13	-60.1	-63.2	6.2	0.00e+00	0	42	104	0	85	22108
2026-01-01 19:01:56.31	348.47	10.07	-60.0	-63.2	6.2	0.00e+00	0	42	104	0	85	21941
2026-01-01 19:01:57.32	348.25	10.02	-60.1	-63.2	6.2	0.00e+00	0	42	104	0	85	21980
2026-01-01 19:01:58.32	348.03	9.97	-60.1	-63.2	6.2	0.00e+00	0	42	104	0	85	21993
2026-01-01 19:01:59.32	347.82	9.92	-59.9	-63.2	6.2	0.00e+00	0	42	104	0	85	22008
2026-01-01 19:02:00.33	347.60	9.86	-60.0	-63.2	6.2	0.00e+00	0	42	104	0	85	21900
2026-01-01 19:02:01.33	347.38	9.81	-60.0	-63.2	6.2	0.00e+00	0	42	104	0	85	21939
2026-01-01 19:02:02.34	347.17	9.76	-60.1	-63.2	6.2	0.00e+00	0	42	104	0	85	22061
2026-01-01 19:02:03.35	346.95	9.71	-60.1	-63.2	6.2	0.00e+00	0	42	104	0	85	21931
2026-01-01 19:02:04.35	346.74	9.65	-60.0	-63.2	6.2	0.00e+00	0	42	104	0	85	21866
2026-01-01 19:02:05.35	346.53	9.60	-60.0	-63.2	6.2	0.00e+00	0	42	104	0	85	21902
2026-01-01 19:02:06.36	346.31	9.55	-60.0	-63.2	6.2	0.00e+00	0	42	104	0	85	22005
2026-01-01 19:02:07.36	346.10	9.49	-60.0	-63.2	6.2	0.00e+00	0	42	104	0	85	21928
2026-01-01 19:02:08.37	345.89	9.44	-60.0	-63.1	6.2	0.00e+00	0	42	104	0	85	21822
2026-01-01 19:02:09.37	345.68	9.38	-60.0	-63.2	6.2	0.00e+00	0	42	104	0	85	21908
2026-01-01 19:02:10.37	345.48	9.33	-60.0	-63.2	6.2	0.00e+00	0	42	104	0	85	21907
2026-01-01 19:02:11.37	345.27	9.28	-60.0	-63.2	6.2	0.00e+00	0	42	104	0	85	21865
2026-01-01 19:02:12.37	345.07	9.22	-60.0	-63.1	6.2	0.00e+00	0	42	104	0	85	21837
2026-01-01 19:02:13.37	344.86	9.17	-60.0	-63.1	6.2	0.00e+00	0	42	104	0	85	21801
2026-01-01 19:02:14.38	344.66	9.11	-60.0	-63.2	6.2	0.00e+00	0	42	104	0	85	21860
2026-01-01 19:02:15.38	344.46	9.06	-60.0	-63.1	6.2	0.00e+00	0	42	104	0	85	21813
2026-01-01 19:02:16.38	344.25	9.00	-60.0	-63.1	6.2	0.00e+00	0	42	104	0	85	21757
2026-01-01 19:02:17.38	344.05	8.95	-60.0	-63.1	6.2	0.00e+00	0	42	104	0	85	21761
2026-01-01 19:02:18.39	343.85	8.89	-60.0	-63.1	6.2	0.00e+00	0	42	104	0	85	21806
2026-01-01 19:02:19.39	343.65	8.84	-60.0	-63.1	6.2	0.00e+00	0	42	104	0	85	21768
2026-01-01 19:02:20.39	343.46	8.78	-59.9	-63.1	6.2	0.00e+00	0	42	104	0	85	21648
2026-01-01 19:02:21.40	343.26	8.72	-59.9	-63.1	6.2	0.00e+00	0	42	104	0	85	21694
2026-01-01 19:02:22.41	343.06	8.67	-60.0	-63.1	6.2	0.00e+00	0	42	104	0	85	21741
2026-01-01 19:02:23.41	342.87	8.61	-59.9	-63.1	6.2	0.00e+00	0	42	104	0	85	21656
2026-01-01 19:02:24.42	342.67	8.56	-59.9	-63.0	6.2	0.00e+00	0	42	104	0	85	21597
2026-01-01 19:02:25.42	342.48	8.50	-59.9	-63.1	6.2	0.00e+00	0	42	104	0	85	21711
2026-01-01 19:02:26.42	342.29	8.44	-59.9	-63.1	6.2	0.00e+00	0	42	104	0	85	21652
2026-01-01 19:02:27.43	342.09	8.39	-59.9	-63.0	6.2	0.00e+00	0	42	104	0	85	21602
2026-01-01 19:02:28.43	341.90	8.33	-59.9	-63.0	6.2	0.00e+00	0	42	104	0	85	21552
2026-01-01 19:02:29.44	341.71	8.27	-59.9	-63.0	6.2	0.00e+00	0	42	104	0	85	21588
2026-01-01 19:02:30.44	341.52	8.22	-59.9	-63.0	6.2	0.00e+00	0	42	104	0	85	21581
2026-01-01 19:02:31.44	341.34	8.16	-59.9	-63.1	6.2	0.00e+00	0	42	104	0	85	21616
2026-01-01 19:02:32.44	341.15	8.10	-59.9	-63.0	6.2	0.00e+00	0	42	104	0	85	21517
2026-01-01 19:02:33.45	340.96	8.05	-59.9	-63.0	6.2	0.00e+00	0	42	104	0	85	21545
2026-01-01 19:02:34.46	340.78	7.99	-59.9	-63.1	6.2	0.00e+00	0	42	104	0	85	21616
2026-01-01 19:02:35.46	340.59	7.93	-59.9	-63.0	6.2	0.00e+00	0	42	104	0	85	21551
2026-01-01 19:02:36.46	340.41	7.88	-59.8	-63.0	6.2	0.00e+00	0	42	104	0	85	21428
2026-01-01 19:02:37.47	340.23	7.82	-59.9	-63.0	6.2	0.00e+00	0	42	104	0	85	21544
2026-01-01 19:02:38.48	340.04	7.76	-59.9	-63.1	6.2	0.00e+00	0	42	104	0	85	21660
2026-01-01 19:02:39.48	339.86	7.70	-59.9	-63.0	6.2	0.00e+00	0	42	104	0	85	21527
2026-01-01 19:02:40.48	339.69	7.65	-59.8	-63.0	6.2	0.00e+00	0	42	104	0	85	21450
2026-01-01 19:02:41.49	339.51	7.59	-59.8	-63.0	6.2	0.00e+00	0	42	104	0	85	21411
2026-01-01 19:02:42.50	339.33	7.53	-59.9	-63.0	6.2	0.00e+00	0	42	104	0	85	21513
2026-01-01 19:02:43.50	339.15	7.47	-59.8	-62.9	6.2	0.00e+00	0	42	104	0	85	21357
2026-01-01 19:02:44.51	338.97	7.42	-59.8	-62.9	6.2	0.00e+00	0	42	104	0	85	21336
2026-01-01 19:02:45.52	338.80	7.36	-59.5	-62.9	6.2	0.00e+00	0	42	104	0	85	21354
2026-01-01 19:02:46.52	338.62	7.30	-59.8	-63.0	6.2	0.00e+00	0	42	104	0	85	21459
2026-01-01 19:02:47.53	338.45	7.24	-59.8	-62.9	6.2	0.00e+00	0	42	104	0	85	21325
2026-01-01 19:02:48.53	338.27	7.19	-59.8	-62.9	6.2	0.00e+00	0	42	104	0	85	21202
2026-01-01 19:02:49.54	338.10	7.13	-59.8	-62.9	6.2	0.00e+00	0	42	104	0	85	21327
2026-01-01 19:02:50.54	337.93	7.07	-59.8	-63.0	6.2	0.00e+00	0	42	104	0	85	21397
2026-01-01 19:02:51.54	337.76	7.01	-59.8	-62.9	6.2	0.00e+00	0	42	104	0	84	22527
2026-01-01 19:02:52.55	337.59	6.95	-59.8	-62.9	6.2	0.00e+00	0	42	104	0	84	22486
2026-01-01 19:02:53.56	337.42	6.90	-59.8	-62.9	6.2	0.00e+00	0	42	104	0	84	22552
2026-01-01 19:02:54.56	337.25	6.84	-59.8	-63.0	6.2	0.00e+00	0	42	104	0	85	21403
2026-01-01 19:02:55.56	337.09	6.78	-59.7	-62.9	6.2	0.00e+00	0	42	104	0	85	21197
2026-01-01 19:02:56.56	336.92	6.72	-59.7	-62.8	6.2	0.00e+00	0	42	104	0	85	21111
2026-01-01 19:02:57.57	336.76	6.66	-59.8	-62.9	6.2	0.00e+00	0	42	104	0	84	22486
2026-01-01 19:02:58.57	336.59	6.61	-59.8	-62.9	6.2	0.00e+00	0	42	104	0	84	22519
2026-01-01 19:02:59.58	336.43	6.55	-59.7	-62.8	6.2	0.00e+00	0	42	104	0	84	22273
2026-01-01 19:03:00.59	336.26	6.49	-59.6	-62.8	6.2	0.00e+00	0	42	104	0	84	22165
2026-01-01 19:03:01.59	336.10	6.43	-59.7	-62.8	6.2	0.00e+00	0	42	104	0	84	22300
2026-01-01 19:03:02.60	335.94	6.37	-59.7	-62.9	6.2	0.00e+00	0	42	104	0	84	22458
2026-01-01 19:03:03.60	335.78	6.32	-59.6	-62.7	6.2	0.00e+00	0	42	104	0	84	21946
2026-01-01 19:03:04.60	335.62	6.26	-59.5	-62.7	6.2	0.00e+00	0	42	104	0	84	21896
2026-01-01 19:03:05.60	335.46	6.20	-59.6	-62.8	6.2	0.00e+00	0	42	104	0	84	22140
2026-01-01 19:03:06.60	335.31	6.14	-59.7	-62.8	6.2	0.00e+00	0	42	104	0	84	22324
2026-01-01 19:03:07.61	335.15	6.08	-59.5	-62.6	6.2	0.00e+00	0	42	104	0	84	21827
2026-01-01 19:03:08.62	334.99	6.03	-59.5	-62.7	6.2	0.00e+00	0	42	104	0	84	22061
2026-01-01 19:03:09.63	334.84	5.97	-59.6	-62.7	6.2	0.00e+00	0	42	104	0	84	22070
2026-01-01 19:03:10.63	334.68	5.91	-59.7	-62.8	6.2	0.00e+00	0	42	104	0	84	22282
2026-01-01 19:03:11.64	334.53	5.85	-59.5	-62.6	6.2	0.00e+00	0	42	104	0	84	21817
2026-01-01 19:03:12.64	334.37	5.79	-59.6	-62.7	6.2	0.00e+00	0	42	104	0	84	21980
2026-01-01 19:03:13.65	334.22	5.73	-59.6	-62.7	6.2	0.00e+00	0	42	104	0	84	22029
2026-01-01 19:03:14.66	334.07	5.68	-59.7	-62.8	6.2	0.00e+00	0	42	104	0	84	22259
2026-01-01 19:03:15.66	333.92	5.62	-59.5	-62.7	6.2	0.00e+00	0	42	104	0	84	21887
2026-01-01 19:03:16.66	333.77	5.56	-59.6	-62.7	6.2	0.00e+00	0	42	104	0	84	21989
2026-01-01 19:03:17.67	333.62	5.50	-59.6	-62.7	6.2	0.00e+00	0	42	104	0	84	22067
2026-01-01 19:03:18.68	333.47	5.44	-59.7	-62.8	6.2	0.00e+00	0	42	104	0	84	22221
2026-01-01 19:03:19.68	333.32	5.39	-59.5	-62.6	6.2	0.00e+00	0	42	104	0	84	21794
2026-01-01 19:03:20.68	333.17	5.33	-59.5	-62.7	6.2	0.00e+00	0	42	104	0	84	21883
2026-01-01 19:03:21.68	333.03	5.27	-59.6	-62.7	6.2	0.00e+00	0	42	104	0	84	22041
2026-01-01 19:03:22.68	332.88	5.21	-59.6	-62.8	6.2	0.00e+00	0	42	104	0	84	22140
2026-01-01 19:03:23.69	332.74	5.15	-59.5	-62.6	6.2	0.00e+00	0	42	104	0	84	21752
2026-01-01 19:03:24.68	332.60	5.10	-59.5	-62.6	6.2	0.00e+00	0	42	104	0	84	21782
2026-01-01 19:03:25.69	332.45	5.04	-59.5	-62.7	6.2	0.00e+00	0	42	104	0	84	21907
2026-01-01 19:03:26.70	332.31	4.98	-59.6	-62.8	6.2	0.00e+00	0	42	104	0	84	22255
2026-01-01 19:03:27.70	332.17	4.92	-60.1	-63.3	6.2	0.00e+00	0	42	104	0	85	22158
2026-01-01 19:03:28.70	332.03	4.87	-60.5	-63.7	6.2	0.00e+00	0	42	104	0	86	21919
2026-01-01 19:03:29.71	331.88	4.81	-60.8	-64.0	6.2	0.00e+00	0	42	104	0	87	21416
2026-01-01 19:03:30.71	331.74	4.75	-61.1	-64.2	6.2	0.00e+00	0	42	104	0	87	21997
2026-01-01 19:03:31.72	331.60	4.69	-61.3	-64.5	6.2	0.00e+00	0	42	104	0	87	22632
2026-01-01 19:03:32.73	331.47	4.63	-61.4	-64.6	6.2	0.00e+00	0	42	104	0	88	21630
2026-01-01 19:03:33.74	331.33	4.58	-61.6	-64.7	6.2	0.00e+00	0	42	104	0	88	22091
2026-01-01 19:03:34.74	331.19	4.52	-61.7	-64.9	6.2	0.00e+00	0	42	104	0	88	22415
2026-01-01 19:03:35.75	331.05	4.46	-61.8	-64.9	6.2	0.00e+00	0	42	104	0	89	21330
2026-01-01 19:03:36.76	330.92	4.40	-61.9	-65.0	6.2	0.00e+00	0	42	104	0	89	21582
2026-01-01 19:03:37.76	330.78	4.35	-62.0	-65.1	6.2	0.00e+00	0	42	104	0	89	21829
2026-01-01 19:03:38.76	330.65	4.29	-62.0	-65.2	6.2	0.00e+00	0	42	104	0	89	21943
2026-01-01 19:03:39.77	330.51	4.23	-62.1	-65.2	6.2	0.00e+00	0	42	104	0	89	22069
2026-01-01 19:03:40.78	330.38	4.17	-62.1	-65.3	6.2	0.00e+00	0	42	104	0	89	22131
2026-01-01 19:03:41.78	330.25	4.12	-62.1	-65.3	6.2	0.00e+00	0	42	104	0	89	22231
2026-01-01 19:03:42.79	330.12	4.06	-62.2	-65.3	6.2	0.00e+00	0	42	104	0	89	22258
2026-01-01 19:03:43.79	329.99	4.00	-62.2	-65.3	6.2	0.00e+00	0	42	104	0	89	22341
2026-01-01 19:03:44.80	329.85	3.94	-62.2	-65.3	6.2	0.00e+00	0	42	104	0	89	22327
2026-01-01 19:03:45.81	329.72	3.89	-62.2	-65.3	6.2	0.00e+00	0	42	104	0	89	22325
2026-01-01 19:03:46.81	329.60	3.83	-62.2	-65.3	6.2	0.00e+00	0	42	104	0	89	22335
2026-01-01 19:03:47.82	329.47	3.77	-62.2	-65.3	6.2	0.00e+00	0	42	104	0	89	22225
2026-01-01 19:03:48.83	329.34	3.71	-62.1	-65.2	6.2	0.00e+00	0	42	104	0	89	22098
2026-01-01 19:03:49.83	329.21	3.66	-62.1	-65.2	6.2	0.00e+00	0	42	104	0	89	22007
2026-01-01 19:03:50.84	329.08	3.60	-62.0	-65.2	6.2	0.00e+00	0	42	104	0	89	21956
2026-01-01 19:03:51.85	328.96	3.54	-62.0	-65.2	6.2	0.00e+00	0	42	104	0	89	21987
2026-01-01 19:03:52.86	328.83	3.49	-62.0	-65.2	6.2	0.00e+00	0	42	104	0	89	21949
2026-01-01 19:03:53.87	328.71	3.43	-62.0	-65.2	6.2	0.00e+00	0	42	104	0	89	21884
2026-01-01 19:03:54.87	328.58	3.37	-62.0	-65.2	6.2	0.00e+00	0	42	104	0	89	21879
2026-01-01 19:03:55.88	328.46	3.31	-62.0	-65.2	6.2	0.00e+00	0	42	104	0	89	21863
2026-01-01 19:03:56.89	328.34	3.26	-62.0	-65.1	6.2	0.00e+00	0	42	104	0	89	21834
2026-01-01 19:03:57.90	328.21	3.20	-62.0	-65.1	6.2	0.00e+00	0	42	104	0	89	21833
2026-01-01 19:03:58.91	328.09	3.14	-62.0	-65.2	6.2	0.00e+00	0	42	104	0	89	21879
2026-01-01 19:03:59.91	327.97	3.09	-62.0	-65.1	6.2	0.00e+00	0	42	104	0	89	21843
2026-01-01 19:04:00.92	327.85	3.03	-62.0	-65.1	6.2	0.00e+00	0	42	104	0	89	21738
2026-01-01 19:04:01.92	327.73	2.97	-62.0	-65.1	6.2	0.00e+00	0	42	104	0	89	21698
2026-01-01 19:04:02.93	327.61	2.92	-61.9	-65.1	6.2	0.00e+00	0	42	104	0	89	21756
2026-01-01 19:04:03.94	327.49	2.86	-61.9	-65.1	6.2	0.00e+00	0	42	104	0	89	21689
2026-01-01 19:04:04.95	327.37	2.80	-61.9	-65.1	6.2	0.00e+00	0	42	104	0	89	21689
2026-01-01 19:04:05.95	327.26	2.75	-61.9	-65.1	6.2	0.00e+00	0	42	104	0	89	21669
2026-01-01 19:04:06.95	327.14	2.69	-61.9	-65.1	6.2	0.00e+00	0	42	104	0	89	21704
2026-01-01 19:04:07.96	327.02	2.64	-61.9	-65.1	6.2	0.00e+00	0	42	104	0	89	21655
2026-01-01 19:04:08.96	326.91	2.58	-61.9	-65.1	6.2	0.00e+00	0	42	104	0	89	21641
2026-01-01 19:04:09.97	326.79	2.52	-61.9	-65.1	6.2	0.00e+00	0	42	104	0	89	21623
2026-01-01 19:04:10.98	326.68	2.47	-61.9	-65.1	6.2	0.00e+00	0	42	104	0	89	21639
2026-01-01 19:04:11.98	326.56	2.41	-61.9	-65.0	6.2	0.00e+00	0	42	104	0	89	21577
2026-01-01 19:04:12.99	326.45	2.36	-61.9	-65.0	6.2	0.00e+00	0	42	104	0	89	21521
2026-01-01 19:04:14.00	326.34	2.30	-61.9	-65.0	6.2	0.00e+00	0	42	104	0	89	21552
2026-01-01 19:04:15.01	326.22	2.24	-61.9	-65.0	6.2	0.00e+00	0	42	104	0	89	21529
2026-01-01 19:04:16.01	326.11	2.19	-61.9	-65.0	6.2	0.00e+00	0	42	104	0	89	21573
2026-01-01 19:04:17.02	326.00	2.13	-61.9	-65.0	6.2	0.00e+00	0	42	104	0	89	21530
2026-01-01 19:04:18.02	325.89	2.08	-61.9	-65.0	6.2	0.00e+00	0	42	104	0	89	21519
2026-01-01 19:04:19.03	325.78	2.02	-61.9	-65.0	6.2	0.00e+00	0	42	104	0	89	21474
2026-01-01 19:04:20.04	325.67	1.97	-61.9	-65.0	6.2	0.00e+00	0	42	104	0	89	21466
2026-01-01 19:04:21.05	325.56	1.91	-61.9	-65.0	6.2	0.00e+00	0	42	104	0	89	21496
2026-01-01 19:04:22.06	325.45	1.85	-61.9	-65.0	6.2	0.00e+00	0	42	104	0	89	21497

#Closed at: 2026-01-01 19:04:22
#Recorded file [0 MB]: D:/lorett/data/31004_260101_215550.dat