passes_logs/2026/01/01/R3.2S_Murmansk/R3.2S_Murmansk__20260101_055314_NOAA_20_JPSS-1_rec.log

#Pass ID: 20260101_055314_NOAA 20 (JPSS-1)
#Satellite: NOAA 20 (JPSS-1)
#Configuration: NOAA 20
#almurnet v.1.7.20251203
#Start time: 2026-01-01 05:53:15

#Version: 2.2.20231116
#Station: R3.2S_Murmansk
#Location: 33.079688 lon 68.888172 lat
#TLE: 1 43013U 17073A   25365.59858899  .00000178  00000+0  10524-3 0  9991
#TLE: 2 43013  98.7620 301.6911 0001952  60.2533 299.8837 14.19531732420695

#Time	Az	El	Level	Level2	SNR	BER	BlckErr	Temp	State	Recorded	gain1	gain2
2026-01-01 05:53:15.96	73.78	2.11	-59.8	-75.8	3.8	1.49e+00	0	34	0	0	86	21827
2026-01-01 05:53:16.95	73.71	2.16	-59.9	-75.8	3.8	1.49e+00	0	34	104	0	84	24631
2026-01-01 05:53:17.95	73.65	2.22	-59.9	-75.8	3.8	1.49e+00	0	33	104	0	84	24583
2026-01-01 05:53:18.95	73.59	2.28	-59.9	-75.8	3.8	1.49e+00	0	34	104	0	84	24607
2026-01-01 05:53:19.95	73.53	2.34	-59.9	-75.8	3.8	1.49e+00	0	33	104	0	84	24567
2026-01-01 05:53:20.94	73.46	2.39	-59.9	-75.8	3.8	1.49e+00	0	34	104	0	84	24529
2026-01-01 05:53:21.94	73.40	2.45	-59.8	-75.8	3.8	1.49e+00	0	34	104	0	84	24578
2026-01-01 05:53:22.93	73.34	2.51	-59.8	-75.8	3.8	1.49e+00	0	34	104	0	84	24457
2026-01-01 05:53:23.93	73.27	2.57	-59.9	-75.8	3.8	1.49e+00	0	34	104	0	84	24474
2026-01-01 05:53:24.93	73.21	2.63	-59.8	-75.8	3.8	1.49e+00	0	34	104	0	84	24572
2026-01-01 05:53:25.93	73.14	2.68	-59.9	-75.8	3.8	1.49e+00	0	34	104	0	84	24500
2026-01-01 05:53:26.93	73.08	2.74	-59.9	-75.8	3.8	1.49e+00	0	34	104	0	84	24577
2026-01-01 05:53:27.93	73.01	2.80	-59.9	-75.8	3.8	1.49e+00	0	34	104	0	84	24572
2026-01-01 05:53:28.93	72.95	2.86	-59.9	-75.8	3.8	1.49e+00	0	34	104	0	84	24579
2026-01-01 05:53:29.93	72.88	2.92	-59.9	-75.8	3.8	1.49e+00	0	34	104	0	84	24577
2026-01-01 05:53:30.92	72.82	2.97	-59.8	-75.8	3.8	1.49e+00	0	34	104	0	84	24574
2026-01-01 05:53:31.93	72.75	3.03	-59.8	-75.8	3.8	1.49e+00	0	34	104	0	84	24578
2026-01-01 05:53:32.93	72.68	3.09	-59.8	-75.8	3.8	1.49e+00	0	34	104	0	84	24607
2026-01-01 05:53:33.93	72.62	3.15	-59.9	-75.8	3.8	1.49e+00	0	34	104	0	84	24682
2026-01-01 05:53:34.93	72.55	3.21	-59.9	-75.8	3.8	1.49e+00	0	34	104	0	84	24602
2026-01-01 05:53:35.93	72.48	3.27	-59.9	-75.8	3.8	1.49e+00	0	34	104	0	84	24555
2026-01-01 05:53:36.93	72.41	3.33	-59.8	-75.8	3.8	1.49e+00	0	34	104	0	84	24493
2026-01-01 05:53:37.93	72.35	3.39	-59.8	-75.7	3.8	1.49e+00	0	34	104	0	84	24408
2026-01-01 05:53:38.92	72.28	3.45	-59.9	-75.8	3.8	1.49e+00	0	34	104	0	84	24418
2026-01-01 05:53:39.92	72.21	3.51	-59.8	-75.7	3.8	1.49e+00	0	34	104	0	84	24384
2026-01-01 05:53:40.93	72.14	3.57	-59.8	-75.8	3.8	1.49e+00	0	34	104	0	84	24486
2026-01-01 05:53:41.92	72.07	3.62	-59.8	-75.8	3.8	1.49e+00	0	34	104	0	84	24527
2026-01-01 05:53:42.92	72.00	3.68	-59.9	-75.8	3.8	1.49e+00	0	34	104	0	84	24556
2026-01-01 05:53:43.93	71.93	3.74	-59.8	-75.8	3.8	1.49e+00	0	34	104	0	84	24614
2026-01-01 05:53:44.92	71.86	3.80	-59.9	-75.8	3.8	1.49e+00	0	34	104	0	84	24505
2026-01-01 05:53:45.92	71.79	3.86	-59.8	-75.8	3.8	1.49e+00	0	34	104	0	84	24522
2026-01-01 05:53:46.93	71.72	3.92	-59.9	-75.8	3.8	1.49e+00	0	34	104	0	84	24493
2026-01-01 05:53:47.93	71.65	3.98	-59.8	-75.8	3.8	1.49e+00	0	34	104	0	84	24587
2026-01-01 05:53:48.94	71.58	4.04	-59.8	-75.8	3.8	1.49e+00	0	34	104	0	84	24551
2026-01-01 05:53:49.94	71.51	4.10	-59.9	-75.8	3.8	1.49e+00	0	34	104	0	84	24415
2026-01-01 05:53:50.94	71.44	4.17	-59.8	-75.6	3.8	1.49e+00	0	34	104	0	84	23877
2026-01-01 05:53:51.94	71.36	4.23	-59.8	-75.2	3.8	1.49e+00	0	34	104	0	84	23012
2026-01-01 05:53:52.95	71.29	4.29	-59.8	-74.8	3.8	1.49e+00	0	34	104	0	84	21991
2026-01-01 05:53:53.95	71.22	4.35	-59.8	-74.4	3.8	1.49e+00	0	34	104	0	84	20898
2026-01-01 05:53:54.95	71.15	4.41	-59.8	-74.1	3.8	1.49e+00	0	34	104	0	84	20157
2026-01-01 05:53:55.96	71.07	4.47	-59.8	-73.7	3.8	1.49e+00	0	34	104	0	84	19322
2026-01-01 05:53:56.95	71.00	4.53	-59.8	-73.3	4.0	1.48e+00	0	34	104	0	84	18481
2026-01-01 05:53:57.95	70.92	4.59	-59.7	-72.4	4.2	1.47e+00	0	34	0	0	84	16550
2026-01-01 05:53:58.95	70.85	4.65	-59.6	-71.1	4.6	1.18e+00	0	34	0	0	84	14264
2026-01-01 05:53:59.95	70.77	4.71	-59.5	-69.7	5.3	7.08e-01	0	34	0	2097152	84	12179
2026-01-01 05:54:00.95	70.70	4.77	-59.3	-68.2	6.2	3.80e-01	0	35	0	4194304	84	10185
2026-01-01 05:54:01.95	70.62	4.84	-59.0	-66.6	7.6	1.56e-01	0	34	0	6291456	84	8505
2026-01-01 05:54:02.95	70.55	4.90	-58.7	-65.4	8.8	3.17e-02	0	34	0	7340032	84	7390
2026-01-01 05:54:03.95	70.47	4.96	-58.3	-64.3	9.6	1.19e-02	0	35	0	9437184	83	6939
2026-01-01 05:54:04.95	70.40	5.02	-58.2	-64.0	9.9	5.62e-03	0	35	0	11534336	83	6672
2026-01-01 05:54:05.95	70.32	5.08	-58.3	-64.2	9.8	4.42e-03	0	35	0	13631488	82	7205
2026-01-01 05:54:06.95	70.24	5.14	-57.1	-60.9	12.7	1.33e-04	0	34	0	15728640	80	5588
2026-01-01 05:54:07.96	70.16	5.21	-59.3	-69.7	5.2	7.95e-03	0	34	0	17825792	83	12942
2026-01-01 05:54:08.95	70.09	5.27	-59.8	-70.6	5.0	2.61e-01	0	35	0	18874368	84	13429
2026-01-01 05:54:09.95	70.01	5.33	-56.7	-60.3	13.3	8.31e-05	0	34	0	20971520	79	5477
2026-01-01 05:54:10.94	69.93	5.39	-56.4	-59.8	13.6	0.00e+00	0	35	0	23068672	79	5171
2026-01-01 05:54:11.94	69.85	5.45	-56.4	-59.7	13.7	0.00e+00	0	35	0	25165824	79	5148
2026-01-01 05:54:12.94	69.77	5.52	-56.3	-59.5	13.9	0.00e+00	0	35	0	26214400	79	5012
2026-01-01 05:54:13.94	69.70	5.58	-56.3	-59.6	13.8	0.00e+00	0	34	0	28311552	79	5062
2026-01-01 05:54:14.94	69.62	5.64	-56.2	-59.3	14.0	0.00e+00	0	35	0	30408704	79	4924
2026-01-01 05:54:15.95	69.53	5.70	-56.3	-59.4	14.1	0.00e+00	0	35	0	32505856	79	4943
2026-01-01 05:54:16.94	69.45	5.77	-56.3	-59.4	14.0	0.00e+00	0	35	0	34603008	79	4971
2026-01-01 05:54:17.94	69.37	5.83	-56.3	-59.4	14.0	0.00e+00	0	35	0	35651584	79	4971
2026-01-01 05:54:18.93	69.29	5.89	-56.4	-59.7	13.8	0.00e+00	0	35	0	37748736	79	5109
2026-01-01 05:54:19.93	69.21	5.95	-56.3	-59.5	14.0	0.00e+00	0	35	0	39845888	79	5021
2026-01-01 05:54:20.92	69.13	6.02	-56.3	-59.4	14.0	0.00e+00	0	35	0	41943040	79	4957
2026-01-01 05:54:21.91	69.05	6.08	-56.4	-59.5	14.0	0.00e+00	0	35	0	42991616	79	5031
2026-01-01 05:54:22.91	68.97	6.14	-56.3	-59.5	14.0	0.00e+00	0	35	0	45088768	79	4991
2026-01-01 05:54:23.90	68.88	6.20	-56.4	-59.5	14.0	0.00e+00	0	35	0	47185920	79	5020
2026-01-01 05:54:24.89	68.80	6.27	-56.3	-59.4	14.1	0.00e+00	0	35	0	49283072	79	4964
2026-01-01 05:54:25.89	68.72	6.33	-56.2	-59.2	14.2	0.00e+00	0	35	0	51380224	78	5146
2026-01-01 05:54:26.89	68.63	6.39	-56.2	-59.2	14.2	0.00e+00	0	35	0	52428800	78	5140
2026-01-01 05:54:27.89	68.55	6.46	-56.2	-59.2	14.3	0.00e+00	0	35	0	54525952	78	5112
2026-01-01 05:54:28.89	68.46	6.52	-56.1	-59.1	14.3	0.00e+00	0	35	0	56623104	78	5071
2026-01-01 05:54:29.89	68.38	6.59	-56.2	-59.2	14.3	0.00e+00	0	35	0	58720256	78	5110
2026-01-01 05:54:30.88	68.29	6.65	-56.2	-59.2	14.3	0.00e+00	0	35	0	59768832	78	5104
2026-01-01 05:54:31.88	68.21	6.71	-56.1	-59.1	14.4	0.00e+00	0	35	0	61865984	78	5064
2026-01-01 05:54:32.88	68.12	6.78	-56.2	-59.2	14.3	0.00e+00	0	35	0	63963136	78	5104
2026-01-01 05:54:33.88	68.03	6.84	-56.1	-59.0	14.4	0.00e+00	0	35	0	66060288	78	5020
2026-01-01 05:54:34.88	67.95	6.91	-56.2	-59.1	14.4	0.00e+00	0	35	0	68157440	78	5062
2026-01-01 05:54:35.88	67.86	6.97	-56.1	-58.9	14.5	0.00e+00	0	35	0	69206016	78	4977
2026-01-01 05:54:36.88	67.77	7.04	-56.0	-58.8	14.5	0.00e+00	0	35	0	71303168	78	4920
2026-01-01 05:54:37.88	67.68	7.10	-56.0	-58.9	14.5	0.00e+00	0	35	0	73400320	78	4957
2026-01-01 05:54:38.89	67.59	7.17	-56.1	-58.9	14.5	0.00e+00	0	35	0	75497472	78	4982
2026-01-01 05:54:39.89	67.50	7.23	-56.0	-58.9	14.6	0.00e+00	0	35	0	77594624	78	4946
2026-01-01 05:54:40.88	67.41	7.30	-56.2	-59.1	14.5	0.00e+00	0	35	0	78643200	78	5079
2026-01-01 05:54:41.88	67.32	7.36	-56.1	-59.0	14.5	0.00e+00	0	35	0	80740352	78	5035
2026-01-01 05:54:42.88	67.23	7.43	-56.2	-59.1	14.4	0.00e+00	0	35	0	82837504	78	5069
2026-01-01 05:54:43.88	67.14	7.49	-56.2	-59.2	14.4	0.00e+00	0	35	0	84934656	78	5115
2026-01-01 05:54:44.88	67.05	7.56	-56.2	-59.1	14.5	0.00e+00	0	35	0	85983232	78	5042
2026-01-01 05:54:45.88	66.96	7.62	-56.1	-58.9	14.5	0.00e+00	0	35	0	88080384	78	4976
2026-01-01 05:54:46.88	66.87	7.69	-56.2	-59.1	14.4	0.00e+00	0	35	0	90177536	78	5091
2026-01-01 05:54:47.88	66.77	7.75	-56.2	-59.0	14.5	0.00e+00	0	35	0	92274688	78	5036
2026-01-01 05:54:48.88	66.68	7.82	-56.1	-58.9	14.6	0.00e+00	0	35	0	94371840	78	4955
2026-01-01 05:54:49.88	66.59	7.89	-56.1	-58.9	14.6	0.00e+00	0	35	0	95420416	78	4935
2026-01-01 05:54:50.88	66.49	7.95	-56.1	-58.9	14.6	0.00e+00	0	35	0	97517568	78	4944
2026-01-01 05:54:51.87	66.40	8.02	-56.2	-59.1	14.4	0.00e+00	0	35	0	99614720	78	5071
2026-01-01 05:54:52.88	66.30	8.08	-56.2	-59.1	14.5	0.00e+00	0	35	0	101711872	78	5059
2026-01-01 05:54:53.87	66.21	8.15	-56.2	-59.1	14.5	0.00e+00	0	35	0	103809024	78	5042
2026-01-01 05:54:54.86	66.11	8.22	-56.2	-59.1	14.5	0.00e+00	0	35	0	104857600	78	5057
2026-01-01 05:54:55.85	66.02	8.28	-56.1	-59.0	14.5	0.00e+00	0	35	0	106954752	78	5003
2026-01-01 05:54:56.85	65.92	8.35	-56.3	-59.2	14.5	0.00e+00	0	35	0	109051904	78	5105
2026-01-01 05:54:57.85	65.83	8.41	-56.2	-59.0	14.5	0.00e+00	0	35	0	111149056	78	5019
2026-01-01 05:54:58.85	65.73	8.48	-56.1	-58.8	14.7	0.00e+00	0	35	0	113246208	78	4922
2026-01-01 05:54:59.86	65.63	8.55	-56.0	-58.8	14.7	0.00e+00	0	35	0	114294784	78	4889
2026-01-01 05:55:00.86	65.53	8.62	-56.0	-58.8	14.7	0.00e+00	0	35	0	116391936	78	4893
2026-01-01 05:55:01.85	65.43	8.68	-56.1	-58.8	14.7	0.00e+00	0	35	0	118489088	78	4922
2026-01-01 05:55:02.85	65.33	8.75	-56.0	-58.7	14.8	0.00e+00	0	35	0	120586240	78	4847
2026-01-01 05:55:03.85	65.23	8.82	-55.9	-58.6	14.9	0.00e+00	0	35	0	121634816	78	4763
2026-01-01 05:55:04.85	65.13	8.88	-55.8	-58.5	15.0	0.00e+00	0	35	0	123731968	78	4709
2026-01-01 05:55:05.86	65.03	8.95	-55.8	-58.4	15.0	0.00e+00	0	35	0	125829120	78	4686
2026-01-01 05:55:06.85	64.93	9.02	-55.8	-58.3	15.1	0.00e+00	0	35	0	127926272	78	4643
2026-01-01 05:55:07.85	64.83	9.09	-55.8	-58.4	15.0	0.00e+00	0	35	0	130023424	78	4688
2026-01-01 05:55:08.84	64.73	9.15	-55.7	-58.2	15.1	0.00e+00	0	35	0	131072000	78	4593
2026-01-01 05:55:09.84	64.62	9.22	-55.7	-58.3	15.1	0.00e+00	0	35	0	133169152	77	4892
2026-01-01 05:55:10.84	64.52	9.29	-55.7	-58.2	15.1	0.00e+00	0	35	0	135266304	77	4865
2026-01-01 05:55:11.84	64.42	9.36	-55.7	-58.3	15.1	0.00e+00	0	35	0	137363456	77	4896
2026-01-01 05:55:12.83	64.31	9.43	-55.7	-58.3	15.1	0.00e+00	0	35	0	138412032	77	4892
2026-01-01 05:55:13.83	64.21	9.49	-55.7	-58.2	15.2	0.00e+00	0	35	0	140509184	77	4853
2026-01-01 05:55:14.83	64.10	9.56	-55.7	-58.3	15.1	0.00e+00	0	35	0	142606336	77	4875
2026-01-01 05:55:15.83	64.00	9.63	-55.7	-58.2	15.2	0.00e+00	0	35	0	144703488	77	4849
2026-01-01 05:55:16.83	63.89	9.70	-55.6	-58.1	15.2	0.00e+00	0	35	0	146800640	77	4784
2026-01-01 05:55:17.83	63.78	9.77	-55.7	-58.3	15.1	0.00e+00	0	35	0	147849216	77	4878
2026-01-01 05:55:18.83	63.68	9.84	-55.7	-58.2	15.2	0.00e+00	0	35	0	149946368	77	4832
2026-01-01 05:55:19.83	63.57	9.90	-55.7	-58.2	15.2	0.00e+00	0	35	0	152043520	77	4859
2026-01-01 05:55:20.83	63.46	9.97	-55.8	-58.3	15.2	0.00e+00	0	35	0	154140672	77	4910
2026-01-01 05:55:21.82	63.35	10.04	-55.7	-58.2	15.3	0.00e+00	0	35	0	156237824	77	4824
2026-01-01 05:55:22.82	63.24	10.11	-55.7	-58.2	15.2	0.00e+00	0	35	0	157286400	77	4865
2026-01-01 05:55:23.82	63.13	10.18	-55.7	-58.3	15.2	0.00e+00	0	35	0	159383552	77	4879
2026-01-01 05:55:24.81	63.02	10.25	-55.8	-58.3	15.2	0.00e+00	0	35	0	161480704	77	4894
2026-01-01 05:55:25.82	62.91	10.32	-55.8	-58.4	15.1	0.00e+00	0	35	0	163577856	77	4953
2026-01-01 05:55:26.82	62.80	10.39	-55.8	-58.4	15.0	0.00e+00	0	35	0	165675008	77	4968
2026-01-01 05:55:27.81	62.69	10.46	-55.8	-58.4	15.1	0.00e+00	0	35	0	166723584	77	4946
2026-01-01 05:55:28.81	62.58	10.53	-55.9	-58.5	15.0	0.00e+00	0	35	0	168820736	77	5013
2026-01-01 05:55:29.81	62.46	10.60	-55.8	-58.4	15.1	0.00e+00	0	35	0	170917888	77	4973
2026-01-01 05:55:30.80	62.35	10.66	-55.9	-58.5	15.0	0.00e+00	0	35	0	173015040	77	5030
2026-01-01 05:55:31.79	62.24	10.73	-55.9	-58.5	15.0	0.00e+00	0	35	0	174063616	77	5032
2026-01-01 05:55:32.79	62.12	10.80	-55.9	-58.5	15.1	0.00e+00	0	35	0	176160768	77	4994
2026-01-01 05:55:33.79	62.01	10.87	-56.0	-58.7	14.9	0.00e+00	0	35	0	178257920	77	5103
2026-01-01 05:55:34.79	61.89	10.94	-55.8	-58.4	15.1	0.00e+00	0	35	0	180355072	77	4958
2026-01-01 05:55:35.79	61.77	11.01	-55.8	-58.4	15.2	0.00e+00	0	35	0	182452224	77	4937
2026-01-01 05:55:36.79	61.66	11.08	-55.8	-58.3	15.3	0.00e+00	0	35	0	183500800	77	4880
2026-01-01 05:55:37.80	61.54	11.16	-55.8	-58.3	15.3	0.00e+00	0	35	0	185597952	77	4904
2026-01-01 05:55:38.80	61.42	11.23	-55.6	-58.1	15.4	0.00e+00	0	35	0	187695104	77	4774
2026-01-01 05:55:39.79	61.30	11.30	-55.6	-58.0	15.4	0.00e+00	0	35	0	189792256	77	4733
2026-01-01 05:55:40.79	61.18	11.37	-55.6	-58.1	15.4	0.00e+00	0	35	0	190840832	77	4793
2026-01-01 05:55:41.79	61.06	11.44	-55.7	-58.1	15.3	0.00e+00	0	35	0	192937984	77	4811
2026-01-01 05:55:42.80	60.94	11.51	-55.7	-58.2	15.3	0.00e+00	0	35	0	195035136	77	4850
2026-01-01 05:55:43.80	60.82	11.58	-55.6	-58.1	15.4	0.00e+00	0	35	0	197132288	77	4779
2026-01-01 05:55:44.80	60.70	11.65	-55.5	-57.9	15.5	0.00e+00	0	35	0	199229440	77	4683
2026-01-01 05:55:45.80	60.57	11.72	-55.5	-57.9	15.5	0.00e+00	0	35	0	200278016	77	4674
2026-01-01 05:55:46.80	60.45	11.79	-55.5	-57.9	15.5	0.00e+00	0	35	0	202375168	77	4680
2026-01-01 05:55:47.81	60.32	11.86	-55.4	-57.8	15.5	0.00e+00	0	35	0	204472320	77	4617
2026-01-01 05:55:48.80	60.20	11.93	-55.4	-57.8	15.6	0.00e+00	0	35	0	206569472	77	4610
2026-01-01 05:55:49.80	60.08	12.01	-55.4	-57.7	15.6	0.00e+00	0	35	0	208666624	77	4591
2026-01-01 05:55:50.79	59.95	12.08	-55.3	-57.6	15.7	0.00e+00	0	35	0	209715200	77	4495
2026-01-01 05:55:51.79	59.83	12.15	-55.4	-57.7	15.6	0.00e+00	0	35	0	211812352	77	4593
2026-01-01 05:55:52.79	59.70	12.22	-55.4	-57.7	15.7	0.00e+00	0	35	0	213909504	77	4574
2026-01-01 05:55:53.79	59.57	12.29	-55.3	-57.6	15.7	0.00e+00	0	35	0	216006656	77	4527
2026-01-01 05:55:54.79	59.44	12.36	-55.4	-57.7	15.7	0.00e+00	0	35	0	217055232	77	4567
2026-01-01 05:55:55.78	59.32	12.43	-55.2	-57.4	15.8	0.00e+00	0	35	0	219152384	77	4438
2026-01-01 05:55:56.78	59.19	12.50	-55.2	-57.5	15.8	0.00e+00	0	35	0	221249536	76	4735
2026-01-01 05:55:57.78	59.06	12.58	-55.3	-57.6	15.7	0.00e+00	0	35	0	223346688	76	4812
2026-01-01 05:55:58.79	58.92	12.65	-55.4	-57.7	15.6	0.00e+00	0	35	0	225443840	76	4844
2026-01-01 05:55:59.78	58.79	12.72	-55.3	-57.6	15.7	0.00e+00	0	35	0	226492416	76	4778
2026-01-01 05:56:00.78	58.66	12.79	-55.3	-57.6	15.7	0.00e+00	0	35	0	228589568	76	4783
2026-01-01 05:56:01.78	58.53	12.86	-55.3	-57.6	15.7	0.00e+00	0	36	0	230686720	76	4775
2026-01-01 05:56:02.78	58.40	12.94	-55.2	-57.5	15.8	0.00e+00	0	35	0	232783872	76	4723
2026-01-01 05:56:03.79	58.26	13.01	-55.2	-57.4	15.8	0.00e+00	0	35	0	234881024	76	4675
2026-01-01 05:56:04.79	58.13	13.08	-55.2	-57.4	15.8	0.00e+00	0	35	0	235929600	76	4703
2026-01-01 05:56:05.79	57.99	13.15	-55.2	-57.4	15.8	0.00e+00	0	35	0	238026752	76	4693
2026-01-01 05:56:06.79	57.85	13.23	-55.2	-57.4	15.8	0.00e+00	0	35	0	240123904	76	4697
2026-01-01 05:56:07.79	57.72	13.30	-55.3	-57.5	15.8	0.00e+00	0	35	0	242221056	76	4735
2026-01-01 05:56:08.79	57.58	13.37	-55.1	-57.4	15.9	0.00e+00	0	35	0	244318208	76	4652
2026-01-01 05:56:09.80	57.44	13.44	-55.1	-57.3	15.9	0.00e+00	0	35	0	245366784	76	4628
2026-01-01 05:56:10.79	57.30	13.52	-55.1	-57.2	15.9	0.00e+00	0	36	0	247463936	76	4594
2026-01-01 05:56:11.79	57.16	13.59	-54.9	-57.1	16.1	0.00e+00	0	35	0	249561088	76	4508
2026-01-01 05:56:12.79	57.02	13.66	-54.9	-57.0	16.1	0.00e+00	0	35	0	251658240	76	4449
2026-01-01 05:56:13.79	56.88	13.73	-55.0	-57.1	16.1	0.00e+00	0	35	0	252706816	76	4503
2026-01-01 05:56:14.80	56.74	13.81	-54.9	-57.0	16.1	0.00e+00	0	35	0	254803968	76	4449
2026-01-01 05:56:15.79	56.60	13.88	-54.8	-56.8	16.2	0.00e+00	0	35	0	256901120	76	4388
2026-01-01 05:56:16.80	56.45	13.95	-54.6	-56.6	16.3	0.00e+00	0	35	0	258998272	75	4536
2026-01-01 05:56:17.80	56.31	14.02	-54.6	-56.7	16.3	0.00e+00	0	35	0	261095424	75	4549
2026-01-01 05:56:18.80	56.17	14.10	-54.6	-56.6	16.3	0.00e+00	0	35	0	262144000	75	4523
2026-01-01 05:56:19.80	56.02	14.17	-54.7	-56.7	16.2	0.00e+00	0	35	0	264241152	75	4584
2026-01-01 05:56:20.79	55.88	14.24	-54.6	-56.7	16.3	0.00e+00	0	35	0	266338304	75	4547
2026-01-01 05:56:21.78	55.73	14.31	-54.7	-56.7	16.3	0.00e+00	0	35	0	268435456	75	4573
2026-01-01 05:56:22.77	55.58	14.39	-54.6	-56.7	16.3	0.00e+00	0	35	0	270532608	75	4565
2026-01-01 05:56:23.76	55.44	14.46	-54.7	-56.7	16.3	0.00e+00	0	35	0	271581184	75	4595
2026-01-01 05:56:24.76	55.29	14.53	-54.7	-56.8	16.2	0.00e+00	0	35	0	273678336	75	4634
2026-01-01 05:56:25.76	55.14	14.61	-54.8	-56.9	16.2	0.00e+00	0	35	0	275775488	75	4657
2026-01-01 05:56:26.76	54.99	14.68	-54.8	-56.9	16.2	0.00e+00	0	35	0	277872640	75	4680
2026-01-01 05:56:27.74	54.84	14.75	-54.9	-57.0	16.1	0.00e+00	0	35	0	278921216	75	4708
2026-01-01 05:56:28.74	54.69	14.82	-54.9	-57.0	16.1	0.00e+00	0	35	0	281018368	75	4757
2026-01-01 05:56:29.74	54.54	14.90	-54.9	-57.1	16.1	0.00e+00	0	35	0	283115520	75	4769
2026-01-01 05:56:30.72	54.39	14.97	-54.9	-57.1	16.1	0.00e+00	0	35	0	285212672	75	4771
2026-01-01 05:56:31.72	54.23	15.04	-54.9	-57.1	16.1	0.00e+00	0	36	0	287309824	75	4762
2026-01-01 05:56:32.71	54.08	15.11	-55.0	-57.2	16.1	0.00e+00	0	35	0	288358400	75	4815
2026-01-01 05:56:33.71	53.92	15.19	-54.9	-57.1	16.1	0.00e+00	0	35	0	290455552	75	4780
2026-01-01 05:56:34.72	53.77	15.26	-55.0	-57.2	16.0	0.00e+00	0	36	0	292552704	75	4846
2026-01-01 05:56:35.72	53.61	15.33	-54.9	-57.1	16.1	0.00e+00	0	36	0	294649856	75	4766
2026-01-01 05:56:36.71	53.45	15.41	-55.0	-57.1	16.1	0.00e+00	0	35	0	296747008	75	4814
2026-01-01 05:56:37.71	53.29	15.48	-55.0	-57.2	16.0	0.00e+00	0	36	0	297795584	75	4849
2026-01-01 05:56:38.71	53.13	15.55	-55.1	-57.2	16.0	0.00e+00	0	35	0	299892736	75	4860
2026-01-01 05:56:39.72	52.97	15.63	-55.1	-57.3	16.0	0.00e+00	0	36	0	301989888	75	4910
2026-01-01 05:56:40.72	52.81	15.70	-55.2	-57.4	15.9	0.00e+00	0	36	0	304087040	75	4944
2026-01-01 05:56:41.72	52.65	15.77	-55.2	-57.4	15.9	0.00e+00	0	35	0	305135616	75	4937
2026-01-01 05:56:42.72	52.49	15.84	-55.2	-57.5	15.9	0.00e+00	0	35	0	307232768	75	4996
2026-01-01 05:56:43.72	52.32	15.92	-55.2	-57.5	15.9	0.00e+00	0	36	0	309329920	75	4995
2026-01-01 05:56:44.72	52.16	15.99	-55.2	-57.4	16.0	0.00e+00	0	35	0	311427072	75	4949
2026-01-01 05:56:45.73	51.99	16.06	-55.2	-57.5	15.9	0.00e+00	0	36	0	313524224	75	4988
2026-01-01 05:56:46.73	51.82	16.14	-55.2	-57.4	15.9	0.00e+00	0	35	0	314572800	75	4979
2026-01-01 05:56:47.73	51.66	16.21	-55.2	-57.4	15.9	0.00e+00	0	35	0	316669952	75	4977
2026-01-01 05:56:48.72	51.49	16.28	-55.2	-57.4	15.9	0.00e+00	0	36	0	318767104	75	4953
2026-01-01 05:56:49.72	51.32	16.36	-55.2	-57.5	15.9	0.00e+00	0	35	0	320864256	75	4999
2026-01-01 05:56:50.71	51.16	16.43	-55.1	-57.2	16.0	0.00e+00	0	35	0	322961408	75	4856
2026-01-01 05:56:51.72	50.98	16.50	-55.2	-57.4	15.9	0.00e+00	0	35	0	324009984	75	4937
2026-01-01 05:56:52.72	50.81	16.57	-55.3	-57.5	15.9	0.00e+00	0	35	0	326107136	75	5004
2026-01-01 05:56:53.71	50.64	16.65	-55.2	-57.5	15.9	0.00e+00	0	35	0	328204288	75	4990
2026-01-01 05:56:54.71	50.47	16.72	-55.2	-57.5	15.9	0.00e+00	0	36	0	330301440	75	4988
2026-01-01 05:56:55.71	50.30	16.79	-55.3	-57.5	15.9	0.00e+00	0	36	0	331350016	75	5018
2026-01-01 05:56:56.71	50.12	16.86	-55.3	-57.5	15.9	0.00e+00	0	35	0	333447168	75	5016
2026-01-01 05:56:57.71	49.95	16.94	-55.3	-57.6	15.9	0.00e+00	0	36	0	335544320	75	5044
2026-01-01 05:56:58.71	49.77	17.01	-55.3	-57.5	15.9	0.00e+00	0	36	0	337641472	75	5025
2026-01-01 05:56:59.71	49.59	17.08	-55.3	-57.5	15.9	0.00e+00	0	36	0	339738624	75	5025
2026-01-01 05:57:00.71	49.42	17.15	-55.4	-57.7	15.8	0.00e+00	0	35	0	340787200	75	5116
2026-01-01 05:57:01.71	49.24	17.23	-55.4	-57.6	15.9	0.00e+00	0	35	0	342884352	76	4778
2026-01-01 05:57:02.71	49.06	17.30	-55.4	-57.6	15.9	0.00e+00	0	36	0	344981504	76	4785
2026-01-01 05:57:03.71	48.88	17.37	-55.3	-57.5	15.9	0.00e+00	0	36	0	347078656	76	4748
2026-01-01 05:57:04.70	48.70	17.44	-55.4	-57.6	15.9	0.00e+00	0	36	0	349175808	76	4786
2026-01-01 05:57:05.70	48.52	17.51	-55.3	-57.5	16.0	0.00e+00	0	35	0	350224384	76	4743
2026-01-01 05:57:06.70	48.33	17.58	-55.3	-57.4	16.0	0.00e+00	0	35	0	352321536	76	4700
2026-01-01 05:57:07.70	48.15	17.66	-55.3	-57.5	15.9	0.00e+00	0	36	0	354418688	76	4744
2026-01-01 05:57:08.70	47.96	17.73	-55.3	-57.5	16.0	0.00e+00	0	35	0	356515840	76	4716
2026-01-01 05:57:09.70	47.78	17.80	-55.2	-57.4	16.0	0.00e+00	0	36	0	357564416	76	4677
2026-01-01 05:57:10.69	47.59	17.87	-55.3	-57.4	16.0	0.00e+00	0	35	0	359661568	76	4699
2026-01-01 05:57:11.69	47.41	17.94	-55.1	-57.3	16.1	0.00e+00	0	35	0	361758720	76	4623
2026-01-01 05:57:12.70	47.21	18.01	-55.2	-57.3	16.1	0.00e+00	0	36	0	363855872	76	4640
2026-01-01 05:57:13.69	47.03	18.08	-55.2	-57.3	16.1	0.00e+00	0	36	0	365953024	76	4624
2026-01-01 05:57:14.69	46.84	18.15	-55.1	-57.3	16.1	0.00e+00	0	36	0	367001600	76	4604
2026-01-01 05:57:15.69	46.65	18.22	-55.0	-57.1	16.2	0.00e+00	0	36	0	369098752	76	4532
2026-01-01 05:57:16.69	46.45	18.30	-54.9	-57.0	16.3	0.00e+00	0	35	0	371195904	76	4445
2026-01-01 05:57:17.69	46.26	18.37	-55.0	-57.0	16.3	0.00e+00	0	35	0	373293056	76	4477
2026-01-01 05:57:18.69	46.07	18.44	-54.8	-56.8	16.4	0.00e+00	0	35	0	375390208	76	4349
2026-01-01 05:57:19.69	45.87	18.51	-54.8	-56.7	16.4	0.00e+00	0	35	0	376438784	76	4337
2026-01-01 05:57:20.70	45.68	18.58	-54.5	-56.5	16.6	0.00e+00	0	36	0	378535936	75	4443
2026-01-01 05:57:21.69	45.48	18.65	-54.4	-56.4	16.5	0.00e+00	0	35	0	380633088	75	4399
2026-01-01 05:57:22.68	45.29	18.72	-54.5	-56.5	16.4	0.00e+00	0	35	0	382730240	75	4456
2026-01-01 05:57:23.68	45.09	18.79	-54.3	-56.2	16.7	0.00e+00	0	36	0	383778816	75	4300
2026-01-01 05:57:24.68	44.89	18.85	-54.0	-55.8	16.9	0.00e+00	0	35	0	385875968	74	4388
2026-01-01 05:57:25.67	44.69	18.92	-54.1	-55.9	16.9	0.00e+00	0	36	0	387973120	74	4407
2026-01-01 05:57:26.67	44.49	18.99	-54.0	-55.8	16.9	0.00e+00	0	35	0	390070272	74	4375
2026-01-01 05:57:27.66	44.29	19.06	-53.9	-55.7	17.0	0.00e+00	0	36	0	392167424	74	4329
2026-01-01 05:57:28.65	44.09	19.13	-53.7	-55.4	17.1	0.00e+00	0	36	0	393216000	74	4169
2026-01-01 05:57:29.65	43.88	19.20	-53.5	-55.2	17.2	0.00e+00	0	36	0	395313152	73	4311
2026-01-01 05:57:30.65	43.68	19.27	-53.6	-55.3	17.2	0.00e+00	0	35	0	397410304	73	4356
2026-01-01 05:57:31.65	43.47	19.33	-53.5	-55.2	17.2	0.00e+00	0	36	0	399507456	73	4300
2026-01-01 05:57:32.64	43.27	19.40	-53.4	-55.1	17.2	0.00e+00	0	36	0	400556032	73	4264
2026-01-01 05:57:33.64	43.06	19.47	-53.3	-55.0	17.3	0.00e+00	0	35	0	402653184	73	4200
2026-01-01 05:57:34.64	42.85	19.54	-53.3	-55.0	17.3	0.00e+00	0	36	0	404750336	73	4218
2026-01-01 05:57:35.63	42.64	19.60	-53.3	-54.9	17.3	0.00e+00	0	35	0	406847488	73	4180
2026-01-01 05:57:36.64	42.43	19.67	-53.3	-55.0	17.3	0.00e+00	0	35	0	408944640	73	4199
2026-01-01 05:57:37.63	42.22	19.74	-53.3	-54.9	17.3	0.00e+00	0	35	0	409993216	73	4168
2026-01-01 05:57:38.63	42.01	19.80	-53.3	-55.0	17.3	0.00e+00	0	35	0	412090368	73	4213
2026-01-01 05:57:39.63	41.80	19.87	-53.3	-54.9	17.3	0.00e+00	0	35	0	414187520	73	4163
2026-01-01 05:57:40.62	41.59	19.94	-53.2	-54.8	17.4	0.00e+00	0	36	0	416284672	73	4134
2026-01-01 05:57:41.62	41.37	20.00	-53.2	-54.8	17.4	0.00e+00	0	35	0	418381824	72	4354
2026-01-01 05:57:42.62	41.15	20.07	-53.1	-54.7	17.4	0.00e+00	0	36	0	419430400	72	4330
2026-01-01 05:57:43.62	40.94	20.13	-53.1	-54.7	17.4	0.00e+00	0	36	0	421527552	72	4297
2026-01-01 05:57:44.62	40.72	20.20	-53.0	-54.6	17.5	0.00e+00	0	36	0	423624704	72	4272
2026-01-01 05:57:45.63	40.50	20.26	-53.1	-54.7	17.4	0.00e+00	0	36	0	425721856	72	4294
2026-01-01 05:57:46.62	40.28	20.33	-53.2	-54.8	17.4	0.00e+00	0	36	0	427819008	72	4349
2026-01-01 05:57:47.63	40.06	20.39	-53.0	-54.6	17.5	0.00e+00	0	35	0	428867584	72	4258
2026-01-01 05:57:48.63	39.84	20.46	-52.9	-54.5	17.5	0.00e+00	0	36	0	430964736	72	4194
2026-01-01 05:57:49.63	39.61	20.52	-52.9	-54.4	17.5	0.00e+00	0	36	0	433061888	72	4175
2026-01-01 05:57:50.63	39.39	20.58	-52.9	-54.5	17.5	0.00e+00	0	35	0	435159040	72	4216
2026-01-01 05:57:51.63	39.17	20.65	-52.9	-54.4	17.5	0.00e+00	0	36	0	436207616	72	4175
2026-01-01 05:57:52.63	38.94	20.71	-52.9	-54.4	17.5	0.00e+00	0	35	0	438304768	72	4181
2026-01-01 05:57:53.63	38.72	20.77	-52.9	-54.4	17.5	0.00e+00	0	36	0	440401920	72	4185
2026-01-01 05:57:54.63	38.49	20.83	-52.9	-54.4	17.5	0.00e+00	0	36	0	442499072	72	4183
2026-01-01 05:57:55.62	38.26	20.89	-52.9	-54.4	17.5	0.00e+00	0	36	0	444596224	72	4185
2026-01-01 05:57:56.62	38.03	20.96	-52.9	-54.4	17.6	0.00e+00	0	35	0	445644800	72	4185
2026-01-01 05:57:57.61	37.81	21.02	-52.8	-54.4	17.6	0.00e+00	0	36	0	447741952	72	4162
2026-01-01 05:57:58.60	37.58	21.08	-53.0	-54.5	17.5	0.00e+00	0	36	0	449839104	72	4226
2026-01-01 05:57:59.58	37.35	21.14	-53.0	-54.6	17.5	0.00e+00	0	36	0	451936256	72	4266
2026-01-01 05:58:00.57	37.12	21.20	-53.0	-54.5	17.5	0.00e+00	0	36	0	452984832	72	4227
2026-01-01 05:58:01.57	36.89	21.26	-53.1	-54.7	17.4	0.00e+00	0	35	0	455081984	72	4313
2026-01-01 05:58:02.56	36.65	21.31	-53.2	-54.7	17.4	0.00e+00	0	36	0	457179136	72	4340
2026-01-01 05:58:03.56	36.42	21.37	-53.0	-54.6	17.5	0.00e+00	0	36	0	459276288	72	4255
2026-01-01 05:58:04.56	36.18	21.43	-53.1	-54.6	17.5	0.00e+00	0	36	0	461373440	72	4288
2026-01-01 05:58:05.56	35.95	21.49	-53.0	-54.6	17.5	0.00e+00	0	35	0	462422016	72	4267
2026-01-01 05:58:06.56	35.71	21.55	-53.1	-54.6	17.5	0.00e+00	0	35	0	464519168	72	4288
2026-01-01 05:58:07.56	35.47	21.61	-53.0	-54.6	17.5	0.00e+00	0	35	0	466616320	72	4262
2026-01-01 05:58:08.56	35.23	21.66	-53.1	-54.7	17.5	0.00e+00	0	36	0	468713472	72	4318
2026-01-01 05:58:09.55	34.99	21.72	-53.2	-54.8	17.5	0.00e+00	0	36	0	470810624	72	4351
2026-01-01 05:58:10.56	34.75	21.78	-53.2	-54.8	17.4	0.00e+00	0	36	0	471859200	72	4369
2026-01-01 05:58:11.56	34.50	21.83	-53.2	-54.8	17.4	0.00e+00	0	36	0	473956352	72	4384
2026-01-01 05:58:12.56	34.26	21.89	-52.9	-54.4	17.5	0.00e+00	0	35	0	476053504	72	4182
2026-01-01 05:58:13.57	34.01	21.94	-52.8	-54.4	17.5	0.00e+00	0	36	0	478150656	72	4165
2026-01-01 05:58:14.57	33.77	22.00	-52.9	-54.5	17.6	0.00e+00	0	35	0	479199232	72	4220
2026-01-01 05:58:15.57	33.52	22.05	-52.8	-54.4	17.6	0.00e+00	0	36	0	481296384	72	4157
2026-01-01 05:58:16.57	33.28	22.10	-52.8	-54.3	17.7	0.00e+00	0	36	0	483393536	72	4112
2026-01-01 05:58:17.56	33.03	22.16	-52.8	-54.3	17.7	0.00e+00	0	36	0	485490688	72	4112
2026-01-01 05:58:18.56	32.78	22.21	-52.7	-54.2	17.7	0.00e+00	0	36	0	487587840	72	4083
2026-01-01 05:58:19.55	32.54	22.26	-52.7	-54.3	17.6	0.00e+00	0	35	0	488636416	71	4346
2026-01-01 05:58:20.54	32.29	22.31	-52.8	-54.3	17.6	0.00e+00	0	35	0	490733568	71	4376
2026-01-01 05:58:21.53	32.04	22.36	-52.9	-54.5	17.5	0.00e+00	0	35	0	492830720	71	4443
2026-01-01 05:58:22.53	31.79	22.41	-52.9	-54.5	17.6	0.00e+00	0	35	0	494927872	71	4477
2026-01-01 05:58:23.53	31.54	22.46	-53.0	-54.5	17.6	0.00e+00	0	35	0	495976448	71	4490
2026-01-01 05:58:24.52	31.28	22.51	-52.9	-54.5	17.5	0.00e+00	0	35	0	498073600	71	4474
2026-01-01 05:58:25.52	31.03	22.56	-52.7	-54.2	17.7	0.00e+00	0	35	0	500170752	71	4336
2026-01-01 05:58:26.52	30.77	22.61	-52.6	-54.1	17.7	0.00e+00	0	35	0	502267904	71	4269
2026-01-01 05:58:27.51	30.52	22.66	-52.6	-54.0	17.8	0.00e+00	0	36	0	504365056	71	4240
2026-01-01 05:58:28.50	30.27	22.71	-52.6	-54.1	17.7	0.00e+00	0	35	0	505413632	71	4270
2026-01-01 05:58:29.50	30.01	22.75	-52.6	-54.1	17.7	0.00e+00	0	35	0	507510784	71	4283
2026-01-01 05:58:30.50	29.75	22.80	-52.5	-54.0	17.8	0.00e+00	0	36	0	509607936	71	4238
2026-01-01 05:58:31.50	29.49	22.85	-52.5	-53.9	17.8	0.00e+00	0	36	0	511705088	71	4184
2026-01-01 05:58:32.49	29.24	22.89	-52.6	-54.0	17.8	0.00e+00	0	36	0	512753664	71	4240
2026-01-01 05:58:33.48	28.98	22.94	-52.6	-54.1	17.8	0.00e+00	0	35	0	514850816	71	4268
2026-01-01 05:58:34.49	28.71	22.98	-52.7	-54.2	17.7	0.00e+00	0	35	0	516947968	71	4305
2026-01-01 05:58:35.48	28.45	23.02	-52.6	-54.2	17.7	0.00e+00	0	36	0	519045120	71	4292
2026-01-01 05:58:36.48	28.19	23.07	-52.7	-54.2	17.7	0.00e+00	0	36	0	521142272	71	4320
2026-01-01 05:58:37.47	27.93	23.11	-52.8	-54.4	17.6	0.00e+00	0	36	0	522190848	71	4409
2026-01-01 05:58:38.47	27.67	23.15	-52.9	-54.4	17.6	0.00e+00	0	36	0	524288000	71	4424
2026-01-01 05:58:39.47	27.40	23.19	-53.0	-54.6	17.5	0.00e+00	0	36	0	526385152	71	4502
2026-01-01 05:58:40.48	27.13	23.23	-53.0	-54.5	17.5	0.00e+00	0	36	0	528482304	71	4493
2026-01-01 05:58:41.48	26.87	23.28	-53.0	-54.6	17.5	0.00e+00	0	36	0	530579456	71	4505
2026-01-01 05:58:42.48	26.60	23.31	-52.9	-54.5	17.6	0.00e+00	0	35	0	531628032	71	4465
2026-01-01 05:58:43.48	26.33	23.35	-53.0	-54.6	17.5	0.00e+00	0	36	0	533725184	71	4519
2026-01-01 05:58:44.48	26.06	23.39	-53.0	-54.5	17.5	0.00e+00	0	36	0	535822336	71	4482
2026-01-01 05:58:45.49	25.79	23.43	-53.0	-54.6	17.6	0.00e+00	0	36	0	537919488	71	4501
2026-01-01 05:58:46.49	25.52	23.47	-53.1	-54.7	17.5	0.00e+00	0	36	0	540016640	71	4569
2026-01-01 05:58:47.48	25.25	23.50	-53.2	-54.7	17.4	0.00e+00	0	36	0	541065216	71	4596
2026-01-01 05:58:48.47	24.99	23.54	-53.3	-54.9	17.4	0.00e+00	0	36	0	543162368	71	4674
2026-01-01 05:58:49.47	24.71	23.57	-53.4	-55.0	17.4	0.00e+00	0	36	0	545259520	71	4722
2026-01-01 05:58:50.47	24.44	23.61	-53.6	-55.3	17.2	0.00e+00	0	36	0	547356672	72	4633
2026-01-01 05:58:51.47	24.17	23.64	-53.9	-55.7	17.1	0.00e+00	0	35	0	548405248	73	4551
2026-01-01 05:58:52.46	23.90	23.68	-54.1	-55.9	17.0	0.00e+00	0	35	0	550502400	73	4677
2026-01-01 05:58:53.46	23.62	23.71	-54.0	-55.8	17.0	0.00e+00	0	36	0	552599552	73	4612
2026-01-01 05:58:54.46	23.35	23.74	-54.0	-55.8	17.0	0.00e+00	0	36	0	554696704	73	4603
2026-01-01 05:58:55.46	23.08	23.77	-54.0	-55.8	17.0	0.00e+00	0	35	0	556793856	73	4607
2026-01-01 05:58:56.46	22.80	23.80	-54.2	-56.0	16.8	0.00e+00	0	35	0	557842432	73	4736
2026-01-01 05:58:57.46	22.52	23.83	-54.3	-56.2	16.8	0.00e+00	0	36	0	559939584	73	4819
2026-01-01 05:58:58.45	22.25	23.86	-54.5	-56.4	16.7	0.00e+00	0	36	0	562036736	74	4673
2026-01-01 05:58:59.45	21.97	23.89	-54.2	-56.0	16.9	0.00e+00	0	35	0	564133888	74	4472
2026-01-01 05:59:00.45	21.69	23.92	-54.3	-56.1	16.9	0.00e+00	0	35	0	565182464	74	4524
2026-01-01 05:59:01.44	21.42	23.95	-54.3	-56.1	16.9	0.00e+00	0	36	0	567279616	74	4544
2026-01-01 05:59:02.45	21.14	23.97	-54.2	-56.0	17.0	0.00e+00	0	36	0	569376768	74	4480
2026-01-01 05:59:03.45	20.86	24.00	-54.3	-56.1	16.9	0.00e+00	0	36	0	571473920	74	4525
2026-01-01 05:59:04.45	20.58	24.02	-54.4	-56.3	16.8	0.00e+00	0	36	0	573571072	74	4638
2026-01-01 05:59:05.45	20.30	24.05	-54.5	-56.4	16.7	0.00e+00	0	36	0	574619648	74	4680
2026-01-01 05:59:06.45	20.02	24.07	-54.6	-56.5	16.7	0.00e+00	0	35	0	576716800	74	4708
2026-01-01 05:59:07.45	19.74	24.09	-54.6	-56.5	16.7	0.00e+00	0	35	0	578813952	74	4727
2026-01-01 05:59:08.44	19.46	24.12	-54.6	-56.5	16.7	0.00e+00	0	35	0	580911104	74	4734
2026-01-01 05:59:09.45	19.17	24.14	-54.6	-56.5	16.7	0.00e+00	0	35	0	583008256	74	4756
2026-01-01 05:59:10.44	18.90	24.16	-54.9	-56.9	16.5	0.00e+00	0	35	0	584056832	74	4939
2026-01-01 05:59:11.44	18.61	24.18	-55.0	-57.0	16.4	0.00e+00	0	35	0	586153984	75	4753
2026-01-01 05:59:12.43	18.33	24.20	-54.9	-56.9	16.4	0.00e+00	0	36	0	588251136	75	4701
2026-01-01 05:59:13.43	18.05	24.22	-54.9	-56.9	16.5	0.00e+00	0	36	0	590348288	75	4665
2026-01-01 05:59:14.42	17.77	24.23	-54.7	-56.6	16.6	0.00e+00	0	35	0	592445440	75	4531
2026-01-01 05:59:15.42	17.49	24.25	-54.7	-56.7	16.6	0.00e+00	0	36	0	593494016	75	4548
2026-01-01 05:59:16.42	17.20	24.27	-54.5	-56.3	16.8	0.00e+00	0	35	0	595591168	75	4389
2026-01-01 05:59:17.42	16.92	24.28	-54.5	-56.4	16.7	0.00e+00	0	36	0	597688320	75	4408
2026-01-01 05:59:18.42	16.63	24.30	-54.5	-56.3	16.8	0.00e+00	0	36	0	599785472	75	4373
2026-01-01 05:59:19.42	16.35	24.31	-54.4	-56.3	16.8	0.00e+00	0	36	0	600834048	75	4352
2026-01-01 05:59:20.41	16.07	24.32	-54.5	-56.3	16.7	0.00e+00	0	36	0	602931200	75	4380
2026-01-01 05:59:21.41	15.78	24.34	-54.4	-56.3	16.8	0.00e+00	0	36	0	605028352	75	4359
2026-01-01 05:59:22.40	15.50	24.35	-54.5	-56.4	16.7	0.00e+00	0	35	0	607125504	75	4417
2026-01-01 05:59:23.40	15.21	24.36	-54.7	-56.6	16.6	0.00e+00	0	36	0	609222656	75	4517
2026-01-01 05:59:24.39	14.93	24.37	-54.8	-56.7	16.5	0.00e+00	0	36	0	610271232	75	4597
2026-01-01 05:59:25.39	14.64	24.38	-54.9	-56.9	16.5	0.00e+00	0	36	0	612368384	75	4669
2026-01-01 05:59:26.39	14.36	24.39	-54.7	-56.7	16.6	0.00e+00	0	36	0	614465536	75	4556
2026-01-01 05:59:27.38	14.07	24.39	-54.6	-56.5	16.7	0.00e+00	0	36	0	616562688	75	4461
2026-01-01 05:59:28.38	13.79	24.40	-54.6	-56.5	16.7	0.00e+00	0	36	0	617611264	75	4475
2026-01-01 05:59:29.37	13.50	24.41	-54.4	-56.3	16.8	0.00e+00	0	36	0	619708416	75	4345
2026-01-01 05:59:30.37	13.22	24.41	-54.4	-56.2	16.9	0.00e+00	0	36	0	621805568	75	4324
2026-01-01 05:59:31.36	12.93	24.42	-54.3	-56.1	16.9	0.00e+00	0	36	0	623902720	75	4270
2026-01-01 05:59:32.35	12.65	24.42	-54.3	-56.1	16.9	0.00e+00	0	36	0	625999872	75	4282
2026-01-01 05:59:33.35	12.36	24.42	-54.3	-56.1	16.9	0.00e+00	0	36	0	627048448	75	4291
2026-01-01 05:59:34.34	12.08	24.43	-54.4	-56.2	16.9	0.00e+00	0	35	0	629145600	75	4324
2026-01-01 05:59:35.33	11.79	24.43	-54.4	-56.2	16.9	0.00e+00	0	36	0	631242752	75	4317
2026-01-01 05:59:36.33	11.50	24.43	-54.3	-56.1	16.9	0.00e+00	0	36	0	633339904	75	4288
2026-01-01 05:59:37.33	11.22	24.43	-54.2	-55.9	17.0	0.00e+00	0	36	0	634388480	74	4432
2026-01-01 05:59:38.32	10.93	24.43	-54.1	-55.8	17.0	0.00e+00	0	36	0	636485632	74	4379
2026-01-01 05:59:39.33	10.64	24.43	-53.9	-55.6	17.2	0.00e+00	0	36	0	638582784	74	4279
2026-01-01 05:59:40.32	10.36	24.42	-53.9	-55.7	17.2	0.00e+00	0	36	0	640679936	74	4292
2026-01-01 05:59:41.32	10.07	24.42	-53.8	-55.6	17.2	0.00e+00	0	36	0	642777088	74	4247
2026-01-01 05:59:42.32	9.78	24.42	-53.9	-55.6	17.2	0.00e+00	0	35	0	643825664	74	4256
2026-01-01 05:59:43.33	9.50	24.41	-53.6	-55.3	17.3	0.00e+00	0	36	0	645922816	73	4376
2026-01-01 05:59:44.32	9.21	24.41	-53.5	-55.1	17.4	0.00e+00	0	36	0	648019968	73	4286
2026-01-01 05:59:45.32	8.92	24.40	-53.5	-55.1	17.4	0.00e+00	0	36	0	650117120	73	4274
2026-01-01 05:59:46.32	8.64	24.39	-53.5	-55.1	17.3	0.00e+00	0	36	0	652214272	73	4291
2026-01-01 05:59:47.33	8.35	24.39	-53.5	-55.2	17.4	0.00e+00	0	36	0	653262848	73	4312
2026-01-01 05:59:48.33	8.06	24.38	-53.5	-55.1	17.3	0.00e+00	0	36	0	655360000	73	4290
2026-01-01 05:59:49.32	7.78	24.37	-53.3	-54.9	17.5	0.00e+00	0	36	0	657457152	73	4162
2026-01-01 05:59:50.32	7.49	24.36	-53.2	-54.8	17.5	0.00e+00	0	36	0	659554304	72	4349
2026-01-01 05:59:51.32	7.21	24.35	-53.1	-54.6	17.6	0.00e+00	0	36	0	660602880	72	4289
2026-01-01 05:59:52.32	6.92	24.34	-52.9	-54.4	17.7	0.00e+00	0	36	0	662700032	72	4163
2026-01-01 05:59:53.33	6.63	24.32	-52.8	-54.3	17.8	0.00e+00	0	36	0	664797184	72	4119
2026-01-01 05:59:54.33	6.35	24.31	-52.7	-54.2	17.8	0.00e+00	0	36	0	666894336	72	4073
2026-01-01 05:59:55.33	6.06	24.30	-52.7	-54.2	17.8	0.00e+00	0	36	0	668991488	71	4327
2026-01-01 05:59:56.34	5.78	24.28	-52.7	-54.2	17.8	0.00e+00	0	36	0	670040064	71	4295
2026-01-01 05:59:57.34	5.49	24.27	-52.7	-54.2	17.8	0.00e+00	0	36	0	672137216	71	4328
2026-01-01 05:59:58.35	5.21	24.25	-52.6	-54.1	17.8	0.00e+00	0	35	0	674234368	71	4278
2026-01-01 05:59:59.34	4.92	24.23	-52.6	-54.0	17.8	0.00e+00	0	36	0	676331520	71	4233
2026-01-01 06:00:00.34	4.64	24.21	-52.5	-54.0	17.9	0.00e+00	0	36	0	678428672	71	4198
2026-01-01 06:00:01.34	4.36	24.20	-52.2	-53.7	18.0	0.00e+00	0	36	0	679477248	71	4057
2026-01-01 06:00:02.34	4.08	24.18	-52.2	-53.6	17.9	0.00e+00	0	36	0	681574400	70	4272
2026-01-01 06:00:03.34	3.79	24.16	-52.3	-53.8	17.9	0.00e+00	0	36	0	683671552	70	4342
2026-01-01 06:00:04.34	3.51	24.14	-52.4	-53.8	17.9	0.00e+00	0	36	0	685768704	70	4379
2026-01-01 06:00:05.34	3.23	24.11	-52.3	-53.8	18.0	0.00e+00	0	36	0	687865856	70	4354
2026-01-01 06:00:06.34	2.95	24.09	-52.3	-53.7	18.0	0.00e+00	0	36	0	688914432	70	4304
2026-01-01 06:00:07.34	2.67	24.07	-52.3	-53.7	18.0	0.00e+00	0	36	0	691011584	70	4333
2026-01-01 06:00:08.34	2.39	24.05	-52.3	-53.8	17.9	0.00e+00	0	36	0	693108736	70	4342
2026-01-01 06:00:09.34	2.11	24.02	-52.3	-53.7	17.9	0.00e+00	0	36	0	695205888	70	4333
2026-01-01 06:00:10.32	1.83	24.00	-52.3	-53.8	17.9	0.00e+00	0	36	0	696254464	70	4359
2026-01-01 06:00:11.32	1.55	23.97	-52.3	-53.8	17.9	0.00e+00	0	35	0	698351616	70	4353
2026-01-01 06:00:12.32	1.28	23.94	-52.5	-54.0	17.9	0.00e+00	0	36	0	700448768	70	4446
2026-01-01 06:00:13.32	1.00	23.92	-52.5	-53.9	17.9	0.00e+00	0	35	0	702545920	70	4438
2026-01-01 06:00:14.32	0.72	23.89	-52.5	-54.0	17.8	0.00e+00	0	35	0	704643072	70	4462
2026-01-01 06:00:15.33	0.44	23.86	-52.6	-54.1	17.8	0.00e+00	0	36	0	705691648	70	4527
2026-01-01 06:00:16.33	0.16	23.83	-52.7	-54.3	17.7	0.00e+00	0	36	0	707788800	70	4600
2026-01-01 06:00:17.33	359.89	23.80	-52.7	-54.2	17.7	0.00e+00	0	35	0	709885952	70	4574
2026-01-01 06:00:18.32	359.62	23.77	-52.6	-54.1	17.8	0.00e+00	0	36	0	711983104	70	4541
2026-01-01 06:00:19.32	359.34	23.74	-52.7	-54.2	17.8	0.00e+00	0	36	0	714080256	70	4546
2026-01-01 06:00:20.31	359.07	23.71	-52.7	-54.2	17.8	0.00e+00	0	36	0	715128832	70	4588
2026-01-01 06:00:21.30	358.80	23.68	-52.8	-54.3	17.7	0.00e+00	0	36	0	717225984	70	4628
2026-01-01 06:00:22.30	358.52	23.64	-52.9	-54.4	17.7	0.00e+00	0	35	0	719323136	70	4699
2026-01-01 06:00:23.30	358.25	23.61	-52.9	-54.5	17.7	0.00e+00	0	36	0	721420288	71	4443
2026-01-01 06:00:24.30	357.98	23.57	-53.0	-54.6	17.6	0.00e+00	0	36	0	722468864	71	4511
2026-01-01 06:00:25.30	357.71	23.54	-53.2	-54.8	17.5	0.00e+00	0	36	0	724566016	71	4620
2026-01-01 06:00:26.30	357.44	23.50	-53.3	-55.0	17.5	0.00e+00	0	36	0	726663168	71	4714
2026-01-01 06:00:27.29	357.17	23.47	-53.4	-55.0	17.4	0.00e+00	0	36	0	728760320	72	4483
2026-01-01 06:00:28.28	356.90	23.43	-53.4	-55.0	17.4	0.00e+00	0	36	0	730857472	72	4469
2026-01-01 06:00:29.28	356.63	23.39	-53.5	-55.2	17.4	0.00e+00	0	36	0	731906048	72	4548
2026-01-01 06:00:30.27	356.37	23.35	-53.5	-55.1	17.4	0.00e+00	0	36	0	734003200	72	4523
2026-01-01 06:00:31.27	356.10	23.31	-53.4	-55.0	17.4	0.00e+00	0	36	0	736100352	72	4491
2026-01-01 06:00:32.26	355.84	23.27	-53.5	-55.1	17.4	0.00e+00	0	36	0	738197504	72	4542
2026-01-01 06:00:33.26	355.57	23.23	-53.4	-55.1	17.4	0.00e+00	0	36	0	739246080	72	4503
2026-01-01 06:00:34.26	355.31	23.19	-53.6	-55.2	17.3	0.00e+00	0	36	0	741343232	72	4586
2026-01-01 06:00:35.26	355.04	23.15	-53.6	-55.3	17.3	0.00e+00	0	36	0	743440384	72	4610
2026-01-01 06:00:36.26	354.78	23.11	-53.7	-55.3	17.3	0.00e+00	0	36	0	745537536	72	4635
2026-01-01 06:00:37.25	354.52	23.07	-53.8	-55.5	17.2	0.00e+00	0	36	0	747634688	72	4733
2026-01-01 06:00:38.24	354.26	23.02	-53.9	-55.6	17.1	0.00e+00	0	36	0	748683264	72	4798
2026-01-01 06:00:39.24	353.99	22.98	-54.0	-55.8	17.1	0.00e+00	0	35	0	750780416	73	4600
2026-01-01 06:00:40.24	353.73	22.94	-54.0	-55.8	17.1	0.00e+00	0	36	0	752877568	73	4622
2026-01-01 06:00:41.24	353.47	22.89	-54.1	-55.8	17.1	0.00e+00	0	36	0	754974720	73	4651
2026-01-01 06:00:42.24	353.21	22.85	-54.1	-55.9	17.1	0.00e+00	0	36	0	756023296	73	4667
2026-01-01 06:00:43.24	352.95	22.80	-54.1	-55.8	17.1	0.00e+00	0	36	0	758120448	73	4638
2026-01-01 06:00:44.24	352.70	22.75	-54.1	-55.8	17.1	0.00e+00	0	35	0	760217600	73	4640
2026-01-01 06:00:45.24	352.44	22.71	-54.1	-55.8	17.1	0.00e+00	0	36	0	762314752	73	4642
2026-01-01 06:00:46.24	352.18	22.66	-54.1	-55.8	17.0	0.00e+00	0	36	0	764411904	73	4637
2026-01-01 06:00:47.23	351.93	22.61	-54.1	-55.9	17.1	0.00e+00	0	36	0	765460480	73	4653
2026-01-01 06:00:48.22	351.68	22.56	-54.2	-56.0	17.0	0.00e+00	0	36	0	767557632	73	4742
2026-01-01 06:00:49.21	351.43	22.51	-54.3	-56.1	17.0	0.00e+00	0	36	0	769654784	73	4786
2026-01-01 06:00:50.20	351.17	22.46	-54.4	-56.2	16.9	0.00e+00	0	36	0	771751936	73	4865
2026-01-01 06:00:51.20	350.92	22.41	-54.4	-56.3	16.8	0.00e+00	0	36	0	773849088	74	4612
2026-01-01 06:00:52.20	350.67	22.36	-54.5	-56.4	16.8	0.00e+00	0	36	0	774897664	74	4663
2026-01-01 06:00:53.21	350.42	22.31	-54.5	-56.3	16.9	0.00e+00	0	36	0	776994816	74	4629
2026-01-01 06:00:54.21	350.17	22.26	-54.5	-56.4	16.8	0.00e+00	0	36	0	779091968	74	4687
2026-01-01 06:00:55.20	349.92	22.21	-54.4	-56.3	16.8	0.00e+00	0	36	0	781189120	74	4620
2026-01-01 06:00:56.20	349.67	22.16	-54.4	-56.3	16.8	0.00e+00	0	36	0	782237696	74	4626
2026-01-01 06:00:57.19	349.43	22.10	-54.3	-56.2	16.9	0.00e+00	0	36	0	784334848	74	4558
2026-01-01 06:00:58.19	349.18	22.05	-54.2	-56.0	17.0	0.00e+00	0	36	0	786432000	74	4474
2026-01-01 06:00:59.19	348.93	22.00	-54.3	-56.1	16.9	0.00e+00	0	36	0	788529152	74	4510
2026-01-01 06:01:00.18	348.69	21.94	-54.4	-56.3	16.9	0.00e+00	0	36	0	790626304	74	4625
2026-01-01 06:01:01.19	348.45	21.89	-54.6	-56.5	16.7	0.00e+00	0	36	0	791674880	74	4752
2026-01-01 06:01:02.18	348.20	21.83	-54.8	-56.7	16.6	0.00e+00	0	36	0	793772032	74	4851
2026-01-01 06:01:03.19	347.96	21.78	-54.7	-56.6	16.7	0.00e+00	0	36	0	795869184	74	4804
2026-01-01 06:01:04.19	347.72	21.72	-54.6	-56.5	16.7	0.00e+00	0	36	0	797966336	74	4720
2026-01-01 06:01:05.18	347.48	21.66	-54.6	-56.5	16.8	0.00e+00	0	36	0	800063488	74	4716
2026-01-01 06:01:06.18	347.24	21.61	-54.5	-56.4	16.8	0.00e+00	0	36	0	801112064	74	4679
2026-01-01 06:01:07.17	347.00	21.55	-54.4	-56.3	16.9	0.00e+00	0	36	0	803209216	74	4624
2026-01-01 06:01:08.16	346.77	21.49	-54.4	-56.3	16.9	0.00e+00	0	36	0	805306368	74	4604
2026-01-01 06:01:09.16	346.53	21.43	-54.4	-56.2	16.9	0.00e+00	0	35	0	807403520	74	4597
2026-01-01 06:01:10.16	346.30	21.38	-54.4	-56.2	16.8	0.00e+00	0	36	0	808452096	74	4573
2026-01-01 06:01:11.16	346.06	21.32	-54.3	-56.2	16.9	0.00e+00	0	36	0	810549248	74	4550
2026-01-01 06:01:12.15	345.83	21.26	-54.4	-56.2	16.9	0.00e+00	0	36	0	812646400	74	4563
2026-01-01 06:01:13.15	345.60	21.20	-54.4	-56.3	16.8	0.00e+00	0	36	0	814743552	74	4602
2026-01-01 06:01:14.16	345.36	21.14	-54.4	-56.3	16.9	0.00e+00	0	36	0	816840704	74	4601
2026-01-01 06:01:15.15	345.13	21.08	-54.2	-56.0	17.0	0.00e+00	0	36	0	817889280	74	4483
2026-01-01 06:01:16.14	344.90	21.02	-54.1	-55.9	17.0	0.00e+00	0	35	0	819986432	74	4426
2026-01-01 06:01:17.14	344.67	20.96	-54.0	-55.8	17.1	0.00e+00	0	36	0	822083584	74	4353
2026-01-01 06:01:18.14	344.45	20.89	-54.0	-55.7	17.1	0.00e+00	0	36	0	824180736	74	4331
2026-01-01 06:01:19.14	344.22	20.83	-53.9	-55.7	17.1	0.00e+00	0	35	0	825229312	74	4304
2026-01-01 06:01:20.14	343.99	20.77	-53.9	-55.7	17.2	0.00e+00	0	36	0	827326464	74	4307
2026-01-01 06:01:21.14	343.77	20.71	-54.0	-55.8	17.1	0.00e+00	0	36	0	829423616	74	4350
2026-01-01 06:01:22.14	343.54	20.65	-54.0	-55.7	17.1	0.00e+00	0	36	0	831520768	74	4324
2026-01-01 06:01:23.14	343.32	20.58	-53.9	-55.6	17.2	0.00e+00	0	36	0	833617920	74	4290
2026-01-01 06:01:24.14	343.09	20.52	-53.8	-55.5	17.2	0.00e+00	0	36	0	834666496	74	4237
2026-01-01 06:01:25.13	342.87	20.46	-53.8	-55.5	17.2	0.00e+00	0	36	0	836763648	74	4216
2026-01-01 06:01:26.12	342.65	20.39	-53.8	-55.5	17.2	0.00e+00	0	36	0	838860800	74	4200
2026-01-01 06:01:27.12	342.43	20.33	-53.8	-55.6	17.2	0.00e+00	0	36	0	840957952	74	4248
2026-01-01 06:01:28.12	342.21	20.26	-53.8	-55.5	17.2	0.00e+00	0	36	0	843055104	74	4237
2026-01-01 06:01:29.11	342.00	20.20	-53.9	-55.7	17.2	0.00e+00	0	36	0	844103680	74	4296
2026-01-01 06:01:30.11	341.78	20.14	-53.9	-55.6	17.2	0.00e+00	0	36	0	846200832	74	4268
2026-01-01 06:01:31.11	341.56	20.07	-53.9	-55.6	17.2	0.00e+00	0	36	0	848297984	74	4265
2026-01-01 06:01:32.11	341.35	20.00	-53.9	-55.6	17.2	0.00e+00	0	36	0	850395136	74	4264
2026-01-01 06:01:33.10	341.14	19.94	-53.8	-55.5	17.2	0.00e+00	0	36	0	851443712	74	4242
2026-01-01 06:01:34.10	340.92	19.87	-53.7	-55.4	17.3	0.00e+00	0	36	0	853540864	74	4176
2026-01-01 06:01:35.09	340.71	19.81	-53.8	-55.5	17.2	0.00e+00	0	36	0	855638016	74	4200
2026-01-01 06:01:36.08	340.50	19.74	-53.7	-55.4	17.3	0.00e+00	0	36	0	857735168	74	4184
2026-01-01 06:01:37.07	340.29	19.68	-53.8	-55.5	17.2	0.00e+00	0	36	0	859832320	74	4212
2026-01-01 06:01:38.08	340.08	19.61	-53.9	-55.6	17.2	0.00e+00	0	36	0	860880896	74	4268
2026-01-01 06:01:39.08	339.87	19.54	-53.9	-55.7	17.1	0.00e+00	0	36	0	862978048	74	4295
2026-01-01 06:01:40.08	339.66	19.47	-54.0	-55.8	17.1	0.00e+00	0	36	0	865075200	74	4350
2026-01-01 06:01:41.08	339.45	19.41	-53.9	-55.7	17.2	0.00e+00	0	36	0	867172352	74	4317
2026-01-01 06:01:42.08	339.25	19.34	-53.9	-55.7	17.1	0.00e+00	0	36	0	869269504	74	4324
2026-01-01 06:01:43.07	339.04	19.27	-54.0	-55.7	17.1	0.00e+00	0	36	0	870318080	74	4333
2026-01-01 06:01:44.06	338.84	19.20	-54.0	-55.8	17.1	0.00e+00	0	36	0	872415232	74	4375
2026-01-01 06:01:45.06	338.64	19.13	-54.0	-55.8	17.1	0.00e+00	0	36	0	874512384	74	4377
2026-01-01 06:01:46.05	338.44	19.07	-54.1	-55.9	17.1	0.00e+00	0	36	0	876609536	74	4405
2026-01-01 06:01:47.05	338.24	19.00	-54.2	-56.1	17.0	0.00e+00	0	36	0	877658112	74	4497
2026-01-01 06:01:48.05	338.04	18.93	-54.1	-55.8	17.1	0.00e+00	0	36	0	879755264	74	4389
2026-01-01 06:01:49.05	337.84	18.86	-54.0	-55.8	17.1	0.00e+00	0	36	0	881852416	74	4380
2026-01-01 06:01:50.05	337.64	18.79	-54.0	-55.7	17.1	0.00e+00	0	36	0	883949568	74	4340
2026-01-01 06:01:51.05	337.44	18.72	-53.9	-55.7	17.1	0.00e+00	0	36	0	886046720	74	4294
2026-01-01 06:01:52.05	337.24	18.65	-53.8	-55.5	17.2	0.00e+00	0	36	0	887095296	74	4235
2026-01-01 06:01:53.04	337.05	18.58	-53.9	-55.6	17.2	0.00e+00	0	36	0	889192448	74	4273
2026-01-01 06:01:54.04	336.85	18.51	-53.8	-55.6	17.2	0.00e+00	0	36	0	891289600	74	4255
2026-01-01 06:01:55.04	336.66	18.44	-53.7	-55.4	17.3	0.00e+00	0	36	0	893386752	74	4193
2026-01-01 06:01:56.04	336.46	18.37	-53.8	-55.5	17.2	0.00e+00	0	36	0	894435328	74	4232
2026-01-01 06:01:57.03	336.27	18.30	-53.8	-55.6	17.1	0.00e+00	0	36	0	896532480	74	4257
2026-01-01 06:01:58.03	336.08	18.23	-53.8	-55.5	17.2	0.00e+00	0	36	0	898629632	74	4213
2026-01-01 06:01:59.03	335.89	18.16	-53.9	-55.7	17.2	0.00e+00	0	36	0	900726784	74	4292
2026-01-01 06:02:00.02	335.70	18.09	-53.8	-55.5	17.2	0.00e+00	0	36	0	902823936	74	4221
2026-01-01 06:02:01.02	335.51	18.02	-53.7	-55.4	17.3	0.00e+00	0	36	0	903872512	74	4185
2026-01-01 06:02:02.01	335.33	17.95	-53.6	-55.2	17.3	0.00e+00	0	36	0	905969664	73	4337
2026-01-01 06:02:03.00	335.14	17.88	-53.5	-55.2	17.4	0.00e+00	0	36	0	908066816	73	4296
2026-01-01 06:02:04.00	334.95	17.81	-53.5	-55.2	17.3	0.00e+00	0	36	0	910163968	73	4306
2026-01-01 06:02:05.00	334.77	17.74	-53.5	-55.2	17.3	0.00e+00	0	36	0	911212544	73	4324
2026-01-01 06:02:06.00	334.58	17.66	-53.5	-55.2	17.4	0.00e+00	0	36	0	913309696	73	4302
2026-01-01 06:02:06.99	334.40	17.59	-53.3	-55.0	17.4	0.00e+00	0	36	0	915406848	73	4214
2026-01-01 06:02:07.99	334.22	17.52	-53.2	-54.8	17.4	0.00e+00	0	36	0	917504000	73	4140
2026-01-01 06:02:08.99	334.04	17.45	-53.2	-54.8	17.5	0.00e+00	0	36	0	919601152	72	4356
2026-01-01 06:02:09.99	333.86	17.38	-53.3	-54.9	17.5	0.00e+00	0	36	0	920649728	72	4414
2026-01-01 06:02:10.99	333.68	17.31	-53.3	-54.9	17.5	0.00e+00	0	36	0	922746880	72	4406
2026-01-01 06:02:11.98	333.50	17.23	-53.2	-54.8	17.5	0.00e+00	0	36	0	924844032	72	4360
2026-01-01 06:02:12.98	333.32	17.16	-53.4	-55.0	17.4	0.00e+00	0	36	0	926941184	72	4470
2026-01-01 06:02:13.97	333.14	17.09	-53.3	-54.9	17.5	0.00e+00	0	36	0	929038336	72	4414
2026-01-01 06:02:14.97	332.97	17.02	-53.2	-54.9	17.5	0.00e+00	0	36	0	930086912	72	4398
2026-01-01 06:02:15.97	332.79	16.95	-53.3	-54.9	17.4	0.00e+00	0	36	0	932184064	72	4424
2026-01-01 06:02:16.97	332.62	16.87	-53.3	-54.9	17.4	0.00e+00	0	36	0	934281216	72	4413
2026-01-01 06:02:17.96	332.44	16.80	-53.2	-54.9	17.4	0.00e+00	0	36	0	936378368	72	4394
2026-01-01 06:02:18.97	332.27	16.73	-53.1	-54.7	17.5	0.00e+00	0	35	0	937426944	72	4340
2026-01-01 06:02:19.96	332.10	16.66	-53.2	-54.8	17.5	0.00e+00	0	36	0	939524096	72	4355
2026-01-01 06:02:20.96	331.93	16.58	-53.0	-54.6	17.6	0.00e+00	0	36	0	941621248	72	4266
2026-01-01 06:02:21.96	331.76	16.51	-53.0	-54.6	17.6	0.00e+00	0	36	0	943718400	72	4244
2026-01-01 06:02:22.96	331.59	16.44	-53.0	-54.6	17.6	0.00e+00	0	36	0	945815552	72	4265
2026-01-01 06:02:23.96	331.42	16.37	-53.0	-54.5	17.6	0.00e+00	0	36	0	946864128	72	4240
2026-01-01 06:02:24.96	331.25	16.29	-53.0	-54.6	17.6	0.00e+00	0	36	0	948961280	72	4252
2026-01-01 06:02:25.96	331.08	16.22	-53.0	-54.6	17.6	0.00e+00	0	36	0	951058432	72	4261
2026-01-01 06:02:26.95	330.92	16.15	-53.0	-54.6	17.6	0.00e+00	0	36	0	953155584	72	4247
2026-01-01 06:02:27.95	330.75	16.08	-53.1	-54.7	17.5	0.00e+00	0	36	0	955252736	72	4339
2026-01-01 06:02:28.94	330.59	16.00	-53.2	-54.9	17.4	0.00e+00	0	36	0	956301312	72	4398
2026-01-01 06:02:29.94	330.42	15.93	-53.1	-54.7	17.5	0.00e+00	0	36	0	958398464	72	4320
2026-01-01 06:02:30.93	330.26	15.86	-53.1	-54.7	17.5	0.00e+00	0	36	0	960495616	72	4314
2026-01-01 06:02:31.93	330.10	15.79	-53.1	-54.7	17.5	0.00e+00	0	36	0	962592768	72	4321
2026-01-01 06:02:32.93	329.94	15.71	-53.1	-54.7	17.5	0.00e+00	0	36	0	963641344	72	4333
2026-01-01 06:02:33.92	329.78	15.64	-53.0	-54.6	17.5	0.00e+00	0	36	0	965738496	72	4286
2026-01-01 06:02:34.91	329.62	15.57	-53.0	-54.6	17.6	0.00e+00	0	36	0	967835648	72	4285
2026-01-01 06:02:35.91	329.46	15.49	-53.0	-54.6	17.5	0.00e+00	0	36	0	969932800	72	4290
2026-01-01 06:02:36.91	329.30	15.42	-53.1	-54.7	17.5	0.00e+00	0	36	0	972029952	72	4299
2026-01-01 06:02:37.92	329.14	15.35	-53.1	-54.7	17.5	0.00e+00	0	36	0	973078528	72	4304
2026-01-01 06:02:38.92	328.98	15.27	-53.2	-54.8	17.5	0.00e+00	0	36	0	975175680	72	4348
2026-01-01 06:02:39.92	328.83	15.20	-53.1	-54.7	17.5	7.00e-07	0	36	0	977272832	72	4338
2026-01-01 06:02:40.92	328.67	15.13	-53.2	-54.8	17.5	0.00e+00	0	36	0	979369984	72	4358
2026-01-01 06:02:41.90	328.52	15.06	-53.2	-54.9	17.5	0.00e+00	0	36	0	981467136	72	4398
2026-01-01 06:02:42.91	328.36	14.98	-53.3	-54.9	17.4	0.00e+00	0	36	0	982515712	72	4423
2026-01-01 06:02:43.90	328.21	14.91	-53.3	-54.9	17.4	0.00e+00	0	36	0	984612864	72	4406
2026-01-01 06:02:44.90	328.06	14.84	-53.4	-55.1	17.4	0.00e+00	0	36	0	986710016	72	4495
2026-01-01 06:02:45.90	327.91	14.77	-53.4	-55.0	17.4	0.00e+00	0	36	0	988807168	72	4488
2026-01-01 06:02:46.91	327.76	14.69	-53.5	-55.2	17.3	0.00e+00	0	36	0	989855744	72	4560
2026-01-01 06:02:47.90	327.61	14.62	-53.6	-55.3	17.2	0.00e+00	0	36	0	991952896	72	4608
2026-01-01 06:02:48.90	327.46	14.55	-53.6	-55.4	17.2	0.00e+00	0	36	0	994050048	72	4664
2026-01-01 06:02:49.90	327.31	14.47	-53.7	-55.5	17.1	0.00e+00	0	36	0	996147200	72	4708
2026-01-01 06:02:50.90	327.16	14.40	-53.9	-55.6	17.1	0.00e+00	0	36	0	998244352	72	4812
2026-01-01 06:02:51.89	327.02	14.33	-53.8	-55.6	17.0	0.00e+00	0	36	0	999292928	72	4802
2026-01-01 06:02:52.89	326.87	14.26	-53.9	-55.7	17.0	0.00e+00	0	36	0	1001390080	72	4839
2026-01-01 06:02:53.89	326.72	14.18	-54.0	-55.8	17.0	0.00e+00	0	36	0	1003487232	73	4610
2026-01-01 06:02:54.87	326.58	14.11	-54.0	-55.8	16.9	0.00e+00	0	35	0	1005584384	73	4646
2026-01-01 06:02:55.87	326.44	14.04	-54.0	-55.8	17.0	0.00e+00	0	36	0	1006632960	73	4639
2026-01-01 06:02:56.88	326.29	13.97	-53.9	-55.7	17.0	0.00e+00	0	36	0	1008730112	73	4587
2026-01-01 06:02:57.88	326.15	13.89	-53.9	-55.7	17.0	0.00e+00	0	36	0	1010827264	73	4560
2026-01-01 06:02:58.87	326.01	13.82	-53.8	-55.5	17.1	0.00e+00	0	36	0	1012924416	73	4486
2026-01-01 06:02:59.86	325.87	13.75	-53.8	-55.6	17.1	0.00e+00	0	36	0	1015021568	73	4501
2026-01-01 06:03:00.86	325.73	13.68	-53.9	-55.6	17.1	0.00e+00	0	36	0	1016070144	73	4543
2026-01-01 06:03:01.86	325.59	13.60	-53.9	-55.6	17.1	0.00e+00	0	36	0	1018167296	73	4541
2026-01-01 06:03:02.86	325.45	13.53	-53.9	-55.7	17.1	0.00e+00	0	36	0	1020264448	73	4554
2026-01-01 06:03:03.86	325.31	13.46	-54.0	-55.8	17.0	0.00e+00	0	36	0	1022361600	73	4621
2026-01-01 06:03:04.86	325.17	13.39	-54.1	-55.9	16.9	0.00e+00	0	36	0	1024458752	73	4688
2026-01-01 06:03:05.86	325.03	13.31	-54.1	-55.9	16.9	0.00e+00	0	36	0	1025507328	73	4692
2026-01-01 06:03:06.86	324.90	13.24	-54.1	-56.0	16.9	0.00e+00	0	36	0	1027604480	73	4724
2026-01-01 06:03:07.86	324.76	13.17	-54.2	-56.1	16.8	0.00e+00	0	36	0	1029701632	73	4763
2026-01-01 06:03:08.85	324.63	13.10	-54.2	-56.1	16.8	0.00e+00	0	36	0	1031798784	73	4776
2026-01-01 06:03:09.85	324.49	13.03	-54.2	-56.1	16.8	0.00e+00	0	36	0	1033895936	73	4769
2026-01-01 06:03:10.85	324.36	12.95	-54.1	-56.0	16.8	0.00e+00	0	36	0	1034944512	73	4726
2026-01-01 06:03:11.85	324.23	12.88	-54.3	-56.2	16.8	0.00e+00	0	36	0	1037041664	73	4823
2026-01-01 06:03:12.85	324.09	12.81	-54.3	-56.3	16.7	0.00e+00	0	36	0	1039138816	73	4878
2026-01-01 06:03:13.84	323.96	12.74	-54.3	-56.2	16.8	0.00e+00	0	36	0	1041235968	73	4841
2026-01-01 06:03:14.84	323.83	12.67	-54.2	-56.1	16.8	0.00e+00	0	36	0	1042284544	73	4770
2026-01-01 06:03:15.85	323.70	12.59	-54.3	-56.2	16.8	0.00e+00	0	36	0	1044381696	73	4824
2026-01-01 06:03:16.84	323.57	12.52	-54.3	-56.2	16.7	0.00e+00	0	36	0	1046478848	73	4852
2026-01-01 06:03:17.84	323.44	12.45	-54.4	-56.4	16.7	0.00e+00	0	36	0	1048576000	73	4929
2026-01-01 06:03:18.85	323.31	12.38	-54.4	-56.3	16.7	0.00e+00	0	36	0	1050673152	73	4899
2026-01-01 06:03:19.85	323.18	12.31	-54.3	-56.3	16.7	0.00e+00	0	36	0	1051721728	74	4601
2026-01-01 06:03:20.84	323.06	12.24	-54.3	-56.3	16.7	0.00e+00	0	36	0	1053818880	74	4607
2026-01-01 06:03:21.84	322.93	12.17	-54.4	-56.3	16.7	0.00e+00	0	36	0	1055916032	74	4620
2026-01-01 06:03:22.83	322.81	12.10	-54.4	-56.4	16.7	0.00e+00	0	36	0	1058013184	74	4663
2026-01-01 06:03:23.83	322.68	12.02	-54.4	-56.4	16.6	0.00e+00	0	36	0	1059061760	74	4663
2026-01-01 06:03:24.83	322.56	11.95	-54.4	-56.4	16.6	0.00e+00	0	36	0	1061158912	74	4665
2026-01-01 06:03:25.82	322.43	11.88	-54.4	-56.3	16.7	0.00e+00	0	36	0	1063256064	74	4621
2026-01-01 06:03:26.82	322.31	11.81	-54.4	-56.4	16.6	0.00e+00	0	36	0	1065353216	74	4654
2026-01-01 06:03:27.82	322.19	11.74	-54.5	-56.4	16.6	0.00e+00	0	36	0	1067450368	74	4703
2026-01-01 06:03:28.82	322.06	11.67	-54.5	-56.5	16.5	0.00e+00	0	36	0	1068498944	74	4729
2026-01-01 06:03:29.82	321.94	11.60	-54.5	-56.6	16.5	0.00e+00	0	36	0	1070596096	74	4761
2026-01-01 06:03:30.81	321.82	11.53	-54.6	-56.7	16.4	0.00e+00	0	36	0	1072693248	74	4834
2026-01-01 06:03:31.79	321.70	11.46	-54.7	-56.8	16.4	0.00e+00	0	36	0	1074790400	74	4880
2026-01-01 06:03:32.78	321.59	11.39	-54.7	-56.8	16.4	0.00e+00	0	36	0	1075838976	74	4875
2026-01-01 06:03:33.79	321.46	11.32	-54.6	-56.6	16.5	0.00e+00	0	36	0	1077936128	74	4802
2026-01-01 06:03:34.78	321.35	11.25	-54.7	-56.7	16.5	0.00e+00	0	36	0	1080033280	74	4855
2026-01-01 06:03:35.77	321.23	11.18	-54.7	-56.8	16.4	0.00e+00	0	36	0	1082130432	74	4905
2026-01-01 06:03:36.76	321.11	11.11	-54.8	-56.9	16.4	0.00e+00	0	36	0	1084227584	74	4939
2026-01-01 06:03:37.77	320.99	11.04	-54.8	-56.8	16.4	0.00e+00	0	36	0	1085276160	74	4913
2026-01-01 06:03:38.76	320.88	10.97	-54.7	-56.8	16.4	0.00e+00	0	36	0	1087373312	74	4896
2026-01-01 06:03:39.76	320.76	10.90	-54.8	-56.9	16.3	0.00e+00	0	36	0	1089470464	74	4927
2026-01-01 06:03:40.75	320.65	10.83	-54.6	-56.7	16.4	0.00e+00	0	36	0	1091567616	74	4829
2026-01-01 06:03:41.75	320.53	10.76	-54.7	-56.8	16.4	0.00e+00	0	36	0	1092616192	74	4897
2026-01-01 06:03:42.75	320.42	10.69	-54.6	-56.7	16.4	0.00e+00	0	36	0	1094713344	74	4826
2026-01-01 06:03:43.75	320.31	10.62	-54.7	-56.8	16.4	0.00e+00	0	36	0	1096810496	74	4912
2026-01-01 06:03:44.75	320.19	10.55	-54.8	-56.9	16.4	0.00e+00	0	36	0	1098907648	74	4934
2026-01-01 06:03:45.75	320.08	10.48	-54.8	-56.9	16.3	0.00e+00	0	36	0	1101004800	74	4947
2026-01-01 06:03:46.75	319.97	10.41	-54.8	-56.9	16.3	0.00e+00	0	36	0	1102053376	74	4960
2026-01-01 06:03:47.75	319.86	10.34	-54.9	-57.0	16.2	0.00e+00	0	36	0	1104150528	74	5022
2026-01-01 06:03:48.75	319.75	10.27	-54.9	-57.1	16.2	0.00e+00	0	36	0	1106247680	75	4789
2026-01-01 06:03:49.75	319.64	10.21	-55.0	-57.1	16.1	0.00e+00	0	36	0	1108344832	75	4811
2026-01-01 06:03:50.74	319.53	10.14	-55.1	-57.3	16.0	0.00e+00	0	36	0	1110441984	75	4923
2026-01-01 06:03:51.74	319.42	10.07	-55.2	-57.5	15.9	0.00e+00	0	36	0	1111490560	75	5000
2026-01-01 06:03:52.73	319.31	10.00	-55.2	-57.4	15.9	0.00e+00	0	36	0	1113587712	75	4975
2026-01-01 06:03:53.73	319.20	9.93	-55.1	-57.4	16.0	0.00e+00	0	36	0	1115684864	75	4954
2026-01-01 06:03:54.73	319.09	9.86	-55.2	-57.5	15.9	0.00e+00	0	36	0	1117782016	75	5024
2026-01-01 06:03:55.73	318.99	9.79	-55.2	-57.5	15.9	0.00e+00	0	36	0	1119879168	75	5003
2026-01-01 06:03:56.73	318.88	9.73	-55.3	-57.6	15.9	0.00e+00	0	36	0	1120927744	75	5061
2026-01-01 06:03:57.73	318.77	9.66	-55.3	-57.6	15.9	0.00e+00	0	36	0	1123024896	75	5060
2026-01-01 06:03:58.73	318.67	9.59	-55.4	-57.7	15.7	0.00e+00	0	36	0	1125122048	75	5144
2026-01-01 06:03:59.72	318.56	9.52	-55.4	-57.8	15.8	0.00e+00	0	36	0	1127219200	76	4878
2026-01-01 06:04:00.72	318.46	9.45	-55.5	-57.9	15.7	0.00e+00	0	36	0	1128267776	76	4938
2026-01-01 06:04:01.72	318.35	9.38	-55.5	-57.9	15.7	0.00e+00	0	36	0	1130364928	76	4963
2026-01-01 06:04:02.73	318.25	9.32	-55.6	-58.0	15.6	0.00e+00	0	35	0	1132462080	76	5019
2026-01-01 06:04:03.73	318.15	9.25	-55.7	-58.2	15.5	0.00e+00	0	36	0	1134559232	76	5125
2026-01-01 06:04:04.74	318.04	9.18	-55.7	-58.2	15.4	0.00e+00	0	36	0	1136656384	76	5138
2026-01-01 06:04:05.74	317.94	9.11	-55.7	-58.1	15.5	0.00e+00	0	36	0	1137704960	76	5097
2026-01-01 06:04:06.74	317.84	9.04	-55.8	-58.3	15.4	0.00e+00	0	36	0	1139802112	76	5171
2026-01-01 06:04:07.73	317.74	8.98	-55.8	-58.4	15.3	0.00e+00	0	36	0	1141899264	76	5228
2026-01-01 06:04:08.73	317.64	8.91	-55.7	-58.2	15.5	0.00e+00	0	36	0	1143996416	76	5139
2026-01-01 06:04:09.72	317.54	8.84	-55.8	-58.3	15.4	0.00e+00	0	36	0	1146093568	76	5213
2026-01-01 06:04:10.72	317.44	8.78	-55.8	-58.3	15.4	0.00e+00	0	36	0	1147142144	76	5189
2026-01-01 06:04:11.72	317.34	8.71	-55.8	-58.3	15.4	0.00e+00	0	36	0	1149239296	76	5166
2026-01-01 06:04:12.72	317.24	8.64	-55.7	-58.2	15.4	0.00e+00	0	36	0	1151336448	76	5122
2026-01-01 06:04:13.72	317.14	8.58	-55.7	-58.1	15.5	0.00e+00	0	36	0	1153433600	76	5083
2026-01-01 06:04:14.72	317.04	8.51	-55.7	-58.2	15.4	0.00e+00	0	36	0	1154482176	76	5108
2026-01-01 06:04:15.72	316.95	8.44	-55.6	-58.0	15.5	0.00e+00	0	35	0	1156579328	76	5013
2026-01-01 06:04:16.71	316.85	8.38	-55.6	-58.1	15.5	0.00e+00	0	36	0	1158676480	76	5051
2026-01-01 06:04:17.71	316.75	8.31	-55.7	-58.2	15.4	0.00e+00	0	36	0	1160773632	76	5128
2026-01-01 06:04:18.72	316.66	8.24	-55.6	-58.1	15.5	0.00e+00	0	36	0	1162870784	76	5063
2026-01-01 06:04:19.72	316.56	8.18	-55.6	-58.0	15.6	0.00e+00	0	36	0	1163919360	76	5004
2026-01-01 06:04:20.72	316.47	8.11	-55.6	-58.1	15.5	0.00e+00	0	36	0	1166016512	76	5054
2026-01-01 06:04:21.72	316.37	8.04	-55.7	-58.3	15.3	0.00e+00	0	36	0	1168113664	76	5163
2026-01-01 06:04:22.72	316.28	7.98	-55.8	-58.3	15.3	0.00e+00	0	36	0	1170210816	76	5188
2026-01-01 06:04:23.72	316.18	7.91	-55.8	-58.4	15.3	0.00e+00	0	36	0	1172307968	76	5232
2026-01-01 06:04:24.71	316.09	7.85	-55.8	-58.3	15.3	0.00e+00	0	36	0	1173356544	76	5207
2026-01-01 06:04:25.69	316.00	7.78	-55.9	-58.4	15.2	0.00e+00	0	36	0	1175453696	76	5277
2026-01-01 06:04:26.68	315.91	7.72	-55.9	-58.6	15.1	0.00e+00	0	36	0	1177550848	77	5062
2026-01-01 06:04:27.69	315.81	7.65	-55.9	-58.6	15.1	0.00e+00	0	36	0	1179648000	77	5063
2026-01-01 06:04:28.69	315.72	7.58	-56.0	-58.6	15.0	0.00e+00	0	36	0	1180696576	77	5099
2026-01-01 06:04:29.68	315.63	7.52	-55.9	-58.5	15.1	0.00e+00	0	36	0	1182793728	77	5026
2026-01-01 06:04:30.68	315.54	7.45	-55.9	-58.6	15.0	0.00e+00	0	35	0	1184890880	77	5075
2026-01-01 06:04:31.67	315.45	7.39	-56.0	-58.7	15.0	0.00e+00	0	36	0	1186988032	77	5142
2026-01-01 06:04:32.67	315.36	7.33	-56.0	-58.7	15.0	0.00e+00	0	36	0	1189085184	77	5109
2026-01-01 06:04:33.67	315.27	7.26	-56.0	-58.7	15.0	0.00e+00	0	36	0	1190133760	77	5112
2026-01-01 06:04:34.66	315.18	7.20	-56.0	-58.6	15.0	0.00e+00	0	36	0	1192230912	77	5098
2026-01-01 06:04:35.66	315.09	7.13	-56.0	-58.7	15.0	0.00e+00	0	36	0	1194328064	77	5103
2026-01-01 06:04:36.65	315.01	7.07	-56.1	-58.8	14.9	0.00e+00	0	36	0	1196425216	77	5191
2026-01-01 06:04:37.65	314.92	7.00	-56.0	-58.7	14.8	0.00e+00	0	36	0	1197473792	77	5137
2026-01-01 06:04:38.65	314.83	6.94	-56.0	-58.8	14.8	0.00e+00	0	36	0	1199570944	77	5182
2026-01-01 06:04:39.64	314.74	6.87	-56.0	-58.8	14.8	0.00e+00	0	36	0	1201668096	77	5205
2026-01-01 06:04:40.64	314.66	6.81	-56.1	-59.0	14.8	0.00e+00	0	36	0	1203765248	77	5282
2026-01-01 06:04:41.64	314.57	6.75	-56.2	-59.2	14.6	0.00e+00	0	36	0	1205862400	77	5405
2026-01-01 06:04:42.64	314.49	6.68	-56.2	-59.1	14.6	0.00e+00	0	36	0	1206910976	77	5378
2026-01-01 06:04:43.63	314.40	6.62	-56.3	-59.3	14.5	0.00e+00	0	36	0	1209008128	77	5470
2026-01-01 06:04:44.62	314.32	6.55	-56.3	-59.3	14.5	0.00e+00	0	36	0	1211105280	77	5508
2026-01-01 06:04:45.62	314.23	6.49	-56.4	-59.4	14.4	0.00e+00	0	36	0	1213202432	77	5561
2026-01-01 06:04:46.61	314.15	6.43	-56.4	-59.5	14.3	0.00e+00	0	36	0	1215299584	78	5289
2026-01-01 06:04:47.60	314.06	6.36	-56.5	-59.7	14.2	0.00e+00	0	36	0	1216348160	78	5421
