passes_logs/2026/01/01/R3.2S_Murmansk/R3.2S_Murmansk__20260101_095652_TY-42_rec.log

#Pass ID: 20260101_095652_TY-42
#Satellite: TY-42
#Configuration: TY-42_900M
#almurnet v.1.7.20251203
#Start time: 2026-01-01 09:56:54

#Version: 2.2.20231116
#Station: R3.2S_Murmansk
#Location: 33.079688 lon 68.888172 lat
#TLE: 1 64048U 25103A   26001.16230324  .00008011  00000-0  38191-3 0 09998
#TLE: 2 64048 097.4120 076.8412 0001853 093.7312 056.4064 15.19175193 34719

#Time	Az	El	Level	Level2	SNR	BER	BlckErr	Temp	State	Recorded	gain1	gain2
2026-01-01 09:56:54.05	21.19	2.11	-59.6	-62.8	6.1	0.00e+00	0	39	0	0	86	20271
2026-01-01 09:56:55.04	21.17	2.18	-59.6	-62.8	6.2	0.00e+00	0	39	104	0	86	20299
2026-01-01 09:56:56.04	21.15	2.25	-59.6	-62.8	6.2	0.00e+00	0	39	104	0	86	20222
2026-01-01 09:56:57.03	21.13	2.31	-59.6	-62.8	6.2	0.00e+00	0	39	104	0	86	20296
2026-01-01 09:56:58.02	21.11	2.38	-59.6	-62.8	6.2	0.00e+00	0	39	104	0	86	20262
2026-01-01 09:56:59.01	21.09	2.45	-59.6	-62.8	6.2	0.00e+00	0	39	104	0	86	20253
2026-01-01 09:56:59.99	21.07	2.52	-59.6	-62.8	6.2	0.00e+00	0	39	104	0	86	20276
2026-01-01 09:57:00.99	21.05	2.59	-59.6	-62.8	6.2	0.00e+00	0	39	104	0	86	20293
2026-01-01 09:57:01.99	21.03	2.66	-59.6	-62.8	6.2	0.00e+00	0	39	104	0	86	20254
2026-01-01 09:57:02.98	21.01	2.73	-59.6	-62.8	6.2	0.00e+00	0	39	104	0	86	20358
2026-01-01 09:57:03.96	20.99	2.81	-59.6	-62.8	6.2	0.00e+00	0	39	104	0	86	20333
2026-01-01 09:57:04.96	20.97	2.88	-59.6	-62.8	6.2	0.00e+00	0	40	104	0	86	20304
2026-01-01 09:57:05.96	20.95	2.95	-59.6	-62.8	6.2	0.00e+00	0	39	104	0	86	20301
2026-01-01 09:57:06.95	20.92	3.02	-59.6	-62.8	6.2	0.00e+00	0	40	104	0	86	20268
2026-01-01 09:57:07.95	20.90	3.09	-59.6	-62.8	6.2	0.00e+00	0	40	104	0	86	20299
2026-01-01 09:57:08.94	20.88	3.16	-59.6	-62.8	6.2	0.00e+00	0	40	104	0	86	20265
2026-01-01 09:57:09.92	20.86	3.24	-59.6	-62.8	6.2	0.00e+00	0	40	104	0	86	20298
2026-01-01 09:57:10.91	20.84	3.31	-59.6	-62.8	6.2	0.00e+00	0	40	104	0	86	20341
2026-01-01 09:57:11.90	20.81	3.38	-59.6	-62.8	6.2	0.00e+00	0	40	104	0	86	20320
2026-01-01 09:57:12.90	20.79	3.46	-59.6	-62.8	6.2	0.00e+00	0	40	104	0	86	20338
2026-01-01 09:57:13.88	20.77	3.53	-59.6	-62.8	6.2	0.00e+00	0	40	104	0	86	20266
2026-01-01 09:57:14.88	20.75	3.60	-59.6	-62.8	6.2	0.00e+00	0	40	104	0	86	20268
2026-01-01 09:57:15.88	20.72	3.68	-59.6	-62.8	6.2	0.00e+00	0	40	104	0	86	20317
2026-01-01 09:57:16.87	20.70	3.75	-59.6	-62.8	6.2	0.00e+00	0	40	104	0	86	20346
2026-01-01 09:57:17.86	20.68	3.82	-59.6	-62.8	6.2	0.00e+00	0	40	104	0	86	20281
2026-01-01 09:57:18.86	20.65	3.90	-59.6	-62.8	6.2	0.00e+00	0	40	104	0	86	20280
2026-01-01 09:57:19.85	20.63	3.97	-59.6	-62.8	6.2	0.00e+00	0	40	104	0	86	20340
2026-01-01 09:57:20.85	20.60	4.05	-59.6	-62.8	6.2	0.00e+00	0	40	104	0	86	20294
2026-01-01 09:57:21.84	20.58	4.13	-59.6	-62.8	6.2	0.00e+00	0	40	104	0	86	20279
2026-01-01 09:57:22.83	20.56	4.20	-59.6	-62.8	6.2	0.00e+00	0	40	104	0	86	20315
2026-01-01 09:57:23.82	20.53	4.28	-59.6	-62.8	6.2	0.00e+00	0	40	104	0	86	20341
2026-01-01 09:57:24.81	20.51	4.35	-59.6	-62.8	6.2	0.00e+00	0	40	104	0	86	20342
2026-01-01 09:57:25.81	20.48	4.43	-59.6	-62.8	6.2	0.00e+00	0	40	104	0	86	20257
2026-01-01 09:57:26.80	20.46	4.51	-59.6	-62.8	6.2	0.00e+00	0	40	104	0	86	20310
2026-01-01 09:57:27.79	20.43	4.58	-59.6	-62.8	6.2	0.00e+00	0	40	104	0	86	20335
2026-01-01 09:57:28.77	20.41	4.66	-59.6	-62.8	6.2	0.00e+00	0	40	104	0	86	20342
2026-01-01 09:57:29.77	20.38	4.74	-59.6	-62.8	6.2	0.00e+00	0	40	104	0	86	20356
2026-01-01 09:57:30.76	20.35	4.82	-59.6	-62.8	6.2	0.00e+00	0	40	104	0	86	20382
2026-01-01 09:57:31.75	20.33	4.89	-59.6	-62.8	6.2	0.00e+00	0	40	104	0	86	20372
2026-01-01 09:57:32.74	20.30	4.97	-59.6	-62.8	6.2	0.00e+00	0	40	104	0	86	20342
2026-01-01 09:57:33.72	20.27	5.05	-59.6	-62.8	6.2	0.00e+00	0	41	104	0	86	20294
2026-01-01 09:57:34.71	20.25	5.13	-59.7	-62.9	6.2	0.00e+00	0	41	104	0	86	20588
2026-01-01 09:57:35.70	20.22	5.21	-59.7	-63.0	6.2	0.00e+00	0	41	104	0	86	20706
2026-01-01 09:57:36.70	20.19	5.29	-59.6	-62.8	6.2	0.00e+00	0	41	104	0	86	20371
2026-01-01 09:57:37.69	20.17	5.37	-59.7	-62.9	6.2	0.00e+00	0	41	104	0	86	20525
2026-01-01 09:57:38.68	20.14	5.45	-59.6	-62.9	6.2	0.00e+00	0	41	104	0	86	20452
2026-01-01 09:57:39.68	20.11	5.53	-59.7	-63.0	6.2	0.00e+00	0	41	104	0	86	20664
2026-01-01 09:57:40.67	20.08	5.61	-59.6	-62.9	6.2	0.00e+00	0	41	104	0	86	20504
2026-01-01 09:57:41.66	20.05	5.69	-59.7	-62.9	6.2	0.00e+00	0	41	104	0	86	20550
2026-01-01 09:57:42.65	20.03	5.78	-59.7	-62.9	6.2	0.00e+00	0	41	104	0	86	20468
2026-01-01 09:57:43.64	20.00	5.86	-59.8	-63.0	6.2	0.00e+00	0	41	104	0	86	20669
2026-01-01 09:57:44.63	19.97	5.94	-59.7	-62.9	6.2	0.00e+00	0	41	104	0	86	20526
2026-01-01 09:57:45.62	19.94	6.02	-59.7	-62.9	6.2	0.00e+00	0	41	104	0	86	20516
2026-01-01 09:57:46.61	19.91	6.11	-59.7	-62.9	6.2	0.00e+00	0	41	104	0	86	20545
2026-01-01 09:57:47.60	19.88	6.19	-59.8	-63.0	6.2	0.00e+00	0	41	104	0	86	20768
2026-01-01 09:57:48.59	19.85	6.27	-59.6	-62.9	6.2	0.00e+00	0	41	104	0	86	20539
2026-01-01 09:57:49.59	19.82	6.36	-59.7	-63.0	6.2	0.00e+00	0	41	104	0	86	20698
2026-01-01 09:57:50.58	19.79	6.44	-59.7	-62.9	6.2	0.00e+00	0	41	104	0	86	20610
2026-01-01 09:57:51.57	19.76	6.53	-59.8	-63.0	6.2	0.00e+00	0	41	104	0	86	20751
2026-01-01 09:57:52.56	19.73	6.61	-59.7	-63.0	6.2	0.00e+00	0	41	104	0	86	20693
2026-01-01 09:57:53.55	19.70	6.70	-59.8	-63.0	6.2	0.00e+00	0	41	104	0	86	20651
2026-01-01 09:57:54.54	19.66	6.78	-59.8	-62.9	6.2	0.00e+00	0	41	104	0	86	20607
2026-01-01 09:57:55.53	19.63	6.87	-59.8	-63.0	6.2	0.00e+00	0	41	104	0	86	20696
2026-01-01 09:57:56.52	19.60	6.96	-59.8	-63.0	6.2	0.00e+00	0	41	104	0	86	20835
2026-01-01 09:57:57.52	19.57	7.04	-59.8	-63.0	6.2	0.00e+00	0	41	104	0	86	20708
2026-01-01 09:57:58.51	19.54	7.13	-59.8	-63.0	6.2	0.00e+00	0	41	104	0	86	20763
2026-01-01 09:57:59.50	19.50	7.22	-59.8	-63.0	6.2	0.00e+00	0	41	104	0	86	20848
2026-01-01 09:58:00.50	19.47	7.31	-59.8	-63.1	6.2	0.00e+00	0	41	104	0	86	20971
2026-01-01 09:58:01.49	19.44	7.40	-59.8	-63.0	6.2	0.00e+00	0	41	104	0	86	20789
2026-01-01 09:58:02.47	19.40	7.48	-59.8	-63.1	6.2	0.00e+00	0	41	104	0	86	20902
2026-01-01 09:58:03.46	19.37	7.57	-59.8	-63.1	6.2	0.00e+00	0	41	104	0	86	20917
2026-01-01 09:58:04.45	19.33	7.66	-59.9	-63.1	6.2	0.00e+00	0	41	104	0	86	20988
2026-01-01 09:58:05.45	19.30	7.75	-59.8	-63.1	6.2	0.00e+00	0	42	104	0	86	20877
2026-01-01 09:58:06.44	19.27	7.84	-59.8	-63.1	6.2	0.00e+00	0	42	104	0	86	20957
2026-01-01 09:58:07.43	19.23	7.94	-59.8	-63.1	6.2	0.00e+00	0	41	104	0	86	20970
2026-01-01 09:58:08.42	19.19	8.03	-59.9	-63.1	6.2	0.00e+00	0	42	104	0	86	21039
2026-01-01 09:58:09.41	19.16	8.12	-59.9	-63.1	6.2	0.00e+00	0	42	104	0	86	20963
2026-01-01 09:58:10.39	19.12	8.21	-59.9	-63.1	6.2	0.00e+00	0	42	104	0	86	21023
2026-01-01 09:58:11.38	19.09	8.30	-59.9	-63.1	6.2	0.00e+00	0	42	104	0	86	20934
2026-01-01 09:58:12.37	19.05	8.40	-60.0	-63.2	6.2	0.00e+00	0	42	104	0	86	21218
2026-01-01 09:58:13.36	19.01	8.49	-59.9	-63.1	6.2	0.00e+00	0	42	104	0	86	20922
2026-01-01 09:58:14.36	18.98	8.58	-59.9	-63.2	6.2	0.00e+00	0	42	104	0	86	21183
2026-01-01 09:58:15.35	18.94	8.68	-52.5	-53.2	8.9	0.00e+00	0	42	104	0	72	14949
2026-01-01 09:58:16.34	18.90	8.77	-48.5	-48.9	11.4	0.00e+00	0	43	0	41943040	63	15374
2026-01-01 09:58:17.34	18.86	8.87	-47.9	-48.3	11.7	0.00e+00	0	43	0	150994944	63	14320
2026-01-01 09:58:18.33	18.82	8.97	-47.0	-47.4	12.1	1.56e-01	0	43	0	260046848	61	14555
2026-01-01 09:58:19.32	18.78	9.06	-46.8	-47.2	12.3	1.56e-01	0	43	0	377487360	60	14960
2026-01-01 09:58:20.31	18.74	9.16	-46.3	-46.7	12.5	1.56e-01	0	43	0	486539264	59	15010
2026-01-01 09:58:21.30	18.70	9.26	-46.4	-46.7	12.5	6.00e-02	0	43	0	603979776	59	15056
2026-01-01 09:58:22.29	18.66	9.35	-45.8	-46.2	12.8	6.00e-02	0	43	0	713031680	58	14954
2026-01-01 09:58:23.28	18.62	9.45	-45.3	-45.7	12.9	4.33e-02	0	43	0	822083584	57	14958
2026-01-01 09:58:24.27	18.58	9.55	-45.1	-45.4	13.1	4.33e-02	0	43	0	931135488	57	14511
2026-01-01 09:58:25.26	18.54	9.65	-45.1	-45.5	13.1	4.33e-02	0	43	0	1048576000	57	14620
2026-01-01 09:58:26.24	18.50	9.75	-44.4	-44.7	13.3	4.33e-02	0	43	0	1157627904	56	14164
2026-01-01 09:58:27.24	18.46	9.85	-44.0	-44.3	13.5	2.46e-02	0	43	0	1266679808	55	14341
2026-01-01 09:58:28.22	18.42	9.95	-43.9	-44.2	13.5	2.46e-02	0	43	0	1375731712	54	14970
2026-01-01 09:58:29.22	18.37	10.05	-43.8	-44.1	13.6	2.46e-02	0	43	0	1493172224	54	14784
2026-01-01 09:58:30.20	18.33	10.15	-43.8	-44.1	13.6	1.12e-02	0	43	0	1602224128	54	14919
2026-01-01 09:58:31.19	18.29	10.26	-43.6	-43.9	13.6	1.12e-02	0	43	0	1719664640	54	14585
2026-01-01 09:58:32.19	18.24	10.36	-43.5	-43.8	13.7	1.12e-02	0	43	0	1820327936	54	14371
2026-01-01 09:58:33.18	18.20	10.47	-43.4	-43.7	13.7	8.76e-03	0	43	0	1937768448	53	14989
2026-01-01 09:58:34.17	18.15	10.57	-43.4	-43.7	13.8	8.76e-03	0	43	0	2046820352	53	15001
2026-01-01 09:58:35.16	18.11	10.67	-43.3	-43.6	13.8	8.76e-03	0	44	0	2164260864	53	14927
2026-01-01 09:58:36.15	18.06	10.78	-43.2	-43.5	13.8	7.47e-03	0	44	0	2273312768	53	14741
2026-01-01 09:58:37.14	18.02	10.89	-43.2	-43.5	13.8	7.47e-03	0	43	0	2382364672	53	14664
2026-01-01 09:58:38.13	17.97	10.99	-43.1	-43.4	13.9	7.47e-03	0	44	0	2491416576	53	14576
2026-01-01 09:58:39.13	17.92	11.10	-43.1	-43.3	13.9	6.17e-03	0	44	0	2600468480	53	14432
2026-01-01 09:58:40.13	17.88	11.21	-43.0	-43.3	13.9	6.17e-03	0	44	0	2717908992	53	14280
2026-01-01 09:58:41.12	17.83	11.32	-42.9	-43.2	13.9	6.17e-03	0	44	0	2826960896	52	15002
2026-01-01 09:58:42.12	17.78	11.43	-42.9	-43.1	13.9	5.08e-03	0	44	0	2944401408	52	14914
2026-01-01 09:58:43.10	17.73	11.54	-43.0	-43.3	13.9	5.08e-03	0	44	0	3053453312	52	15220
2026-01-01 09:58:44.09	17.68	11.65	-42.8	-43.1	13.9	5.08e-03	0	44	0	3170893824	52	14883
2026-01-01 09:58:45.08	17.63	11.76	-42.8	-43.1	14.0	5.08e-03	0	44	0	3271557120	52	14781
2026-01-01 09:58:46.07	17.58	11.87	-42.7	-43.0	14.0	4.16e-03	0	44	0	3388997632	52	14723
2026-01-01 09:58:47.06	17.53	11.98	-42.7	-42.9	14.1	4.16e-03	0	44	0	3498049536	52	14566
2026-01-01 09:58:48.06	17.48	12.09	-42.6	-42.9	14.1	4.16e-03	0	44	0	3615490048	52	14502
2026-01-01 09:58:49.06	17.43	12.21	-42.4	-42.7	14.2	3.35e-03	0	44	0	3724541952	52	14176
2026-01-01 09:58:50.04	17.37	12.32	-42.4	-42.7	14.2	3.35e-03	0	44	0	3833593856	52	14215
2026-01-01 09:58:51.04	17.32	12.44	-42.4	-42.7	14.2	3.35e-03	0	44	0	3942645760	52	14231
2026-01-01 09:58:52.03	17.27	12.55	-42.4	-42.7	14.2	2.58e-03	0	44	0	4060086272	51	15004
2026-01-01 09:58:53.01	17.21	12.67	-42.3	-42.6	14.2	2.58e-03	0	44	0	4169138176	51	14786
2026-01-01 09:58:54.01	17.16	12.79	-42.4	-42.6	14.2	2.21e-03	0	44	0	4278190080	51	14931
2026-01-01 09:58:55.00	17.10	12.90	-42.1	-42.4	14.3	2.21e-03	0	44	0	4395630592	51	14474
2026-01-01 09:58:55.99	17.05	13.02	-42.1	-42.4	14.3	2.21e-03	0	44	0	4504682496	51	14550
2026-01-01 09:58:56.98	16.99	13.14	-42.0	-42.2	14.3	1.91e-03	0	44	0	4613734400	51	14257
2026-01-01 09:58:57.97	16.94	13.26	-42.0	-42.3	14.3	1.91e-03	0	44	0	4722786304	51	14278
2026-01-01 09:58:58.96	16.88	13.38	-41.9	-42.1	14.3	1.91e-03	0	44	0	4840226816	50	14916
2026-01-01 09:58:59.96	16.82	13.50	-41.8	-42.1	14.4	1.29e-03	0	45	0	4949278720	50	14872
2026-01-01 09:59:00.94	16.76	13.62	-41.8	-42.1	14.4	1.29e-03	0	45	0	5066719232	50	14810
2026-01-01 09:59:01.93	16.70	13.75	-41.7	-42.0	14.5	1.29e-03	0	44	0	5167382528	50	14637
2026-01-01 09:59:02.93	16.64	13.87	-41.8	-42.1	14.5	1.04e-03	0	45	0	5284823040	50	14782
2026-01-01 09:59:03.92	16.58	14.00	-41.7	-42.0	14.5	1.04e-03	0	45	0	5393874944	50	14657
2026-01-01 09:59:04.91	16.52	14.12	-41.6	-41.9	14.5	1.04e-03	0	45	0	5511315456	50	14471
2026-01-01 09:59:05.90	16.46	14.25	-41.5	-41.8	14.5	9.11e-04	0	45	0	5620367360	50	14287
2026-01-01 09:59:06.90	16.40	14.38	-41.6	-41.8	14.5	9.11e-04	0	45	0	5729419264	50	14419
2026-01-01 09:59:07.89	16.33	14.50	-41.5	-41.8	14.5	9.11e-04	0	45	0	5846859776	50	14362
2026-01-01 09:59:08.88	16.27	14.63	-41.5	-41.7	14.5	9.11e-04	0	45	0	5947523072	50	14264
2026-01-01 09:59:09.88	16.20	14.76	-41.4	-41.7	14.6	8.39e-04	0	45	0	6064963584	50	14137
2026-01-01 09:59:10.87	16.14	14.89	-41.2	-41.5	14.6	8.39e-04	0	45	0	6174015488	49	14661
2026-01-01 09:59:11.86	16.07	15.02	-41.2	-41.4	14.6	8.39e-04	0	45	0	6291456000	49	14593
2026-01-01 09:59:12.86	16.01	15.16	-41.1	-41.4	14.6	5.91e-04	0	45	0	6400507904	49	14521
2026-01-01 09:59:13.85	15.94	15.29	-41.1	-41.4	14.7	5.91e-04	0	45	0	6517948416	49	14457
2026-01-01 09:59:14.84	15.87	15.42	-41.1	-41.3	14.7	5.91e-04	0	45	0	6627000320	49	14389
2026-01-01 09:59:15.83	15.80	15.56	-41.0	-41.3	14.7	4.58e-04	0	45	0	6736052224	49	14353
2026-01-01 09:59:16.83	15.73	15.70	-41.0	-41.3	14.7	4.58e-04	0	45	0	6845104128	49	14288
2026-01-01 09:59:17.82	15.66	15.83	-40.9	-41.1	14.7	4.58e-04	0	45	0	6962544640	48	14876
2026-01-01 09:59:18.81	15.59	15.97	-40.8	-41.1	14.7	4.67e-04	0	45	0	7071596544	48	14876
2026-01-01 09:59:19.80	15.52	16.11	-40.9	-41.1	14.7	4.67e-04	0	45	0	7180648448	48	14895
2026-01-01 09:59:20.79	15.44	16.25	-40.8	-41.1	14.7	4.67e-04	0	45	0	7289700352	48	14789
2026-01-01 09:59:21.78	15.37	16.39	-40.8	-41.1	14.8	3.81e-04	0	45	0	7398752256	48	14817
2026-01-01 09:59:22.77	15.30	16.53	-40.6	-40.9	14.8	3.81e-04	0	45	0	7516192768	48	14507
2026-01-01 09:59:23.77	15.22	16.67	-40.6	-40.8	14.8	3.81e-04	0	45	0	7625244672	48	14387
2026-01-01 09:59:24.75	15.14	16.82	-40.6	-40.8	14.8	2.67e-04	0	45	0	7742685184	48	14380
2026-01-01 09:59:25.75	15.07	16.96	-40.5	-40.7	14.8	2.67e-04	0	45	0	7851737088	48	14247
2026-01-01 09:59:26.74	14.99	17.11	-40.5	-40.7	14.8	2.67e-04	0	45	0	7960788992	48	14220
2026-01-01 09:59:27.72	14.91	17.25	-40.6	-40.8	14.9	2.86e-04	0	45	0	8069840896	48	14395
2026-01-01 09:59:28.71	14.83	17.40	-40.5	-40.7	14.9	2.86e-04	0	45	0	8187281408	48	14227
2026-01-01 09:59:29.70	14.75	17.55	-39.6	-39.8	14.7	2.86e-04	0	45	0	8296333312	46	14421
2026-01-01 09:59:30.69	14.67	17.70	-39.6	-39.9	14.7	2.86e-04	0	45	0	8413773824	46	14443
2026-01-01 09:59:31.69	14.58	17.85	-39.6	-39.8	14.6	4.39e-04	0	45	0	8514437120	46	14432
2026-01-01 09:59:32.68	14.50	18.00	-39.5	-39.8	14.6	4.39e-04	0	45	0	8631877632	46	14279
2026-01-01 09:59:33.68	14.41	18.16	-39.2	-39.5	14.7	4.39e-04	0	45	0	8740929536	45	14668
2026-01-01 09:59:34.67	14.33	18.31	-39.3	-39.5	14.6	6.39e-04	0	45	0	8849981440	45	14738
2026-01-01 09:59:35.66	14.24	18.47	-39.2	-39.5	14.6	6.39e-04	0	45	0	8967421952	45	14641
2026-01-01 09:59:36.65	14.15	18.63	-39.0	-39.3	14.7	5.72e-04	0	45	0	9076473856	45	14332
2026-01-01 09:59:37.64	14.06	18.78	-39.1	-39.3	14.7	5.72e-04	0	45	0	9193914368	45	14408
2026-01-01 09:59:38.64	13.97	18.95	-38.8	-39.1	14.7	5.72e-04	0	45	0	9294577664	44	14835
2026-01-01 09:59:39.63	13.88	19.11	-38.8	-39.1	14.8	3.96e-04	0	45	0	9412018176	44	14786
2026-01-01 09:59:40.62	13.79	19.27	-38.8	-39.0	14.8	3.96e-04	0	45	0	9521070080	44	14730
2026-01-01 09:59:41.62	13.69	19.43	-38.7	-38.9	14.8	3.96e-04	0	45	0	9638510592	44	14571
2026-01-01 09:59:42.60	13.60	19.60	-38.6	-38.8	14.8	3.34e-04	0	45	0	9747562496	44	14431
2026-01-01 09:59:43.60	13.50	19.76	-38.6	-38.9	14.8	3.34e-04	0	45	0	9865003008	44	14477
2026-01-01 09:59:44.59	13.40	19.93	-38.5	-38.7	14.9	3.00e-04	0	45	0	9974054912	44	14227
2026-01-01 09:59:45.58	13.30	20.10	-38.4	-38.7	14.9	3.00e-04	0	45	0	10083106816	44	14190
2026-01-01 09:59:46.58	13.20	20.27	-38.4	-38.7	15.0	2.34e-04	0	45	0	10192158720	44	14178
2026-01-01 09:59:47.56	13.10	20.44	-38.4	-38.7	15.0	2.34e-04	0	45	0	10309599232	44	14133
2026-01-01 09:59:48.54	13.00	20.61	-38.2	-38.4	15.1	2.34e-04	0	45	0	10418651136	43	14605
2026-01-01 09:59:49.53	12.89	20.78	-38.2	-38.5	15.1	1.33e-04	0	45	0	10527703040	43	14623
2026-01-01 09:59:50.52	12.79	20.96	-38.2	-38.5	15.1	1.33e-04	0	45	0	10636754944	43	14686
2026-01-01 09:59:51.52	12.68	21.14	-38.1	-38.3	15.1	1.33e-04	0	45	0	10745806848	43	14379
2026-01-01 09:59:52.51	12.57	21.31	-37.9	-38.1	15.1	7.62e-05	0	45	0	10863247360	42	14900
2026-01-01 09:59:53.50	12.46	21.49	-37.8	-38.1	15.2	7.62e-05	0	46	0	10972299264	42	14853
2026-01-01 09:59:54.49	12.35	21.68	-37.8	-38.1	15.1	7.62e-05	0	45	0	11089739776	42	14854
2026-01-01 09:59:55.49	12.24	21.86	-37.7	-38.0	15.2	6.19e-05	0	45	0	11190403072	42	14686
2026-01-01 09:59:56.48	12.12	22.04	-37.6	-37.8	15.2	6.19e-05	0	45	0	11307843584	42	14382
2026-01-01 09:59:57.47	12.00	22.23	-37.6	-37.9	15.2	6.19e-05	0	45	0	11416895488	42	14471
2026-01-01 09:59:58.46	11.89	22.42	-37.4	-37.6	15.2	5.24e-05	0	46	0	11534336000	42	14088
2026-01-01 09:59:59.45	11.77	22.61	-37.1	-37.3	15.3	5.24e-05	0	45	0	11643387904	41	14430
2026-01-01 10:00:00.45	11.64	22.80	-37.0	-37.3	15.3	5.24e-05	0	45	0	11752439808	41	14276
2026-01-01 10:00:01.44	11.52	22.99	-37.0	-37.2	15.3	2.86e-05	0	45	0	11861491712	41	14245
2026-01-01 10:00:02.42	11.40	23.18	-36.9	-37.1	15.3	2.86e-05	0	45	0	11978932224	41	14086
2026-01-01 10:00:03.42	11.27	23.38	-36.8	-37.1	15.3	2.86e-05	0	45	0	12087984128	40	14800
2026-01-01 10:00:04.41	11.14	23.58	-36.8	-37.1	15.3	1.43e-05	0	45	0	12197036032	40	14861
2026-01-01 10:00:05.40	11.01	23.77	-36.9	-37.1	15.4	1.43e-05	0	45	0	12314476544	40	14902
2026-01-01 10:00:06.39	10.88	23.97	-36.7	-37.0	15.4	1.43e-05	0	45	0	12423528448	40	14660
2026-01-01 10:00:07.38	10.75	24.18	-36.8	-37.1	15.4	1.43e-05	0	45	0	12532580352	40	14790
2026-01-01 10:00:08.37	10.61	24.38	-36.6	-36.9	15.4	1.43e-05	0	45	0	12641632256	40	14492
2026-01-01 10:00:09.35	10.47	24.58	-36.7	-37.0	15.4	1.43e-05	0	45	0	12759072768	40	14647
2026-01-01 10:00:10.35	10.33	24.79	-36.7	-36.9	15.4	1.43e-05	0	46	0	12868124672	40	14529
2026-01-01 10:00:11.35	10.19	25.01	-36.6	-36.8	15.4	1.43e-05	0	45	0	12985565184	40	14403
2026-01-01 10:00:12.34	10.04	25.22	-36.6	-36.8	15.4	9.50e-06	0	45	0	13086228480	40	14363
2026-01-01 10:00:13.32	9.90	25.43	-36.6	-36.8	15.4	9.50e-06	0	45	0	13203668992	40	14432
2026-01-01 10:00:14.31	9.75	25.64	-36.5	-36.8	15.5	9.50e-06	0	45	0	13312720896	40	14297
2026-01-01 10:00:15.30	9.60	25.86	-36.6	-36.9	15.5	4.70e-06	0	45	0	13430161408	40	14452
2026-01-01 10:00:16.29	9.44	26.08	-36.6	-36.8	15.5	4.70e-06	0	45	0	13530824704	40	14411
2026-01-01 10:00:17.28	9.29	26.30	-36.4	-36.7	15.5	4.70e-06	0	46	0	13648265216	40	14152
2026-01-01 10:00:18.27	9.13	26.52	-36.3	-36.6	15.5	0.00e+00	0	45	0	13757317120	39	14860
2026-01-01 10:00:19.26	8.97	26.75	-36.4	-36.6	15.5	0.00e+00	0	45	0	13874757632	39	14880
2026-01-01 10:00:20.25	8.80	26.97	-36.3	-36.6	15.5	0.00e+00	0	45	0	13983809536	39	14835
2026-01-01 10:00:21.24	8.64	27.20	-36.1	-36.4	15.5	9.50e-06	0	45	0	14092861440	39	14483
2026-01-01 10:00:22.23	8.47	27.43	-36.1	-36.4	15.5	9.50e-06	0	46	0	14201913344	39	14481
2026-01-01 10:00:23.22	8.30	27.67	-35.8	-36.0	15.5	9.50e-06	0	45	0	14319353856	38	14711
2026-01-01 10:00:24.21	8.12	27.90	-35.6	-35.9	15.5	9.50e-06	0	45	0	14428405760	38	14511
2026-01-01 10:00:25.20	7.94	28.14	-35.5	-35.7	15.5	9.50e-06	0	45	0	14537457664	38	14239
2026-01-01 10:00:26.20	7.76	28.38	-35.4	-35.7	15.6	9.50e-06	0	46	0	14654898176	38	14129
2026-01-01 10:00:27.19	7.58	28.62	-35.3	-35.6	15.5	9.50e-06	0	46	0	14763950080	37	14797
2026-01-01 10:00:28.18	7.39	28.87	-35.1	-35.3	15.6	0.00e+00	0	45	0	14873001984	37	14434
2026-01-01 10:00:29.18	7.20	29.11	-34.9	-35.2	15.6	0.00e+00	0	45	0	14982053888	37	14127
2026-01-01 10:00:30.17	7.01	29.36	-34.8	-35.0	15.6	0.00e+00	0	46	0	15099494400	36	14734
2026-01-01 10:00:31.16	6.81	29.61	-34.7	-34.9	15.7	0.00e+00	0	46	0	15208546304	36	14523
2026-01-01 10:00:32.15	6.61	29.87	-34.7	-34.9	15.6	0.00e+00	0	45	0	15325986816	36	14572
2026-01-01 10:00:33.15	6.40	30.12	-34.6	-34.8	15.7	0.00e+00	0	46	0	15435038720	36	14437
2026-01-01 10:00:34.14	6.20	30.38	-34.4	-34.6	15.7	0.00e+00	0	46	0	15544090624	36	14039
2026-01-01 10:00:35.13	5.99	30.64	-31.8	-32.0	15.6	0.00e+00	0	45	0	15653142528	30	14745
2026-01-01 10:00:36.12	5.77	30.90	-31.8	-32.0	15.6	0.00e+00	0	46	0	15762194432	30	14757
2026-01-01 10:00:37.11	5.55	31.17	-31.6	-31.9	15.6	0.00e+00	0	45	0	15879634944	30	14478
2026-01-01 10:00:38.11	5.33	31.44	-31.6	-31.9	15.6	0.00e+00	0	45	0	15988686848	30	14469
2026-01-01 10:00:39.10	5.10	31.71	-31.5	-31.8	15.6	0.00e+00	0	45	0	16106127360	30	14279
2026-01-01 10:00:40.10	4.87	31.98	-31.4	-31.6	15.6	0.00e+00	0	45	0	16215179264	30	14083
2026-01-01 10:00:41.10	4.63	32.26	-31.3	-31.6	15.6	0.00e+00	0	46	0	16332619776	29	14828
2026-01-01 10:00:42.09	4.39	32.54	-31.3	-31.5	15.6	0.00e+00	0	46	0	16441671680	29	14770
2026-01-01 10:00:43.09	4.15	32.82	-31.1	-31.3	15.7	0.00e+00	0	45	0	16550723584	29	14426
2026-01-01 10:00:44.07	3.90	33.10	-31.1	-31.3	15.7	0.00e+00	0	45	0	16659775488	29	14370
2026-01-01 10:00:45.07	3.64	33.38	-31.1	-31.3	15.7	0.00e+00	0	45	0	16777216000	29	14328
2026-01-01 10:00:46.06	3.39	33.67	-31.0	-31.3	15.7	0.00e+00	0	46	0	16886267904	29	14281
2026-01-01 10:00:47.05	3.12	33.96	-30.9	-31.1	15.7	0.00e+00	0	46	0	16995319808	28	14851
2026-01-01 10:00:48.04	2.85	34.25	-30.9	-31.1	15.7	0.00e+00	0	46	0	17112760320	28	14907
2026-01-01 10:00:49.03	2.58	34.55	-30.8	-31.1	15.7	0.00e+00	0	46	0	17221812224	28	14808
2026-01-01 10:00:50.02	2.30	34.84	-30.8	-31.1	15.7	0.00e+00	0	46	0	17330864128	28	14790
2026-01-01 10:00:51.01	2.02	35.14	-30.6	-30.8	15.8	0.00e+00	0	46	0	17439916032	28	14371
2026-01-01 10:00:52.00	1.73	35.44	-30.6	-30.8	15.8	0.00e+00	0	46	0	17557356544	28	14423
2026-01-01 10:00:52.99	1.43	35.75	-30.4	-30.6	15.8	0.00e+00	0	46	0	17666408448	28	14111
2026-01-01 10:00:53.99	1.13	36.06	-30.4	-30.6	15.8	0.00e+00	0	46	0	17775460352	27	14833
2026-01-01 10:00:54.98	0.82	36.37	-30.4	-30.6	15.8	0.00e+00	0	46	0	17884512256	27	14910
2026-01-01 10:00:55.97	0.50	36.68	-30.4	-30.7	15.8	0.00e+00	0	46	0	18001952768	27	14961
2026-01-01 10:00:56.97	0.18	37.00	-30.2	-30.4	15.9	0.00e+00	0	46	0	18111004672	27	14581
2026-01-01 10:00:57.96	359.85	37.31	-30.2	-30.4	15.9	0.00e+00	0	46	0	18228445184	27	14508
2026-01-01 10:00:58.96	359.51	37.64	-30.1	-30.3	15.9	0.00e+00	0	46	0	18337497088	27	14413
2026-01-01 10:00:59.95	359.17	37.96	-30.0	-30.2	15.9	0.00e+00	0	46	0	18446548992	27	14255
2026-01-01 10:01:00.93	358.83	38.28	-30.0	-30.3	15.9	0.00e+00	0	46	0	18555600896	27	14282
2026-01-01 10:01:01.91	358.47	38.60	-30.1	-30.4	15.9	0.00e+00	0	46	0	18673041408	27	14452
2026-01-01 10:01:02.90	358.11	38.93	-30.0	-30.2	15.9	0.00e+00	0	46	0	18782093312	27	14207
2026-01-01 10:01:03.89	357.74	39.26	-29.9	-30.1	16.0	0.00e+00	0	46	0	18891145216	27	14046
2026-01-01 10:01:04.88	357.36	39.60	-29.7	-29.9	16.0	0.00e+00	0	46	0	19000197120	26	14594
2026-01-01 10:01:05.87	356.97	39.93	-29.7	-29.9	16.0	0.00e+00	0	46	0	19117637632	26	14451
2026-01-01 10:01:06.85	356.58	40.27	-29.5	-29.7	15.9	0.00e+00	0	46	0	19226689536	26	14261
2026-01-01 10:01:07.84	356.17	40.61	-29.5	-29.7	15.9	0.00e+00	0	46	0	19335741440	26	14190
2026-01-01 10:01:08.83	355.75	40.95	-29.4	-29.6	16.0	0.00e+00	0	46	0	19444793344	26	14030
2026-01-01 10:01:09.83	355.33	41.30	-29.5	-29.7	15.9	0.00e+00	0	46	0	19562233856	26	14117
2026-01-01 10:01:10.83	354.89	41.65	-29.5	-29.7	16.0	0.00e+00	0	46	0	19671285760	26	14180
2026-01-01 10:01:11.82	354.44	41.99	-29.4	-29.6	16.0	0.00e+00	0	45	0	19780337664	26	14039
2026-01-01 10:01:12.81	353.99	42.34	-29.3	-29.5	15.9	0.00e+00	0	46	0	19897778176	25	14704
2026-01-01 10:01:13.80	353.52	42.70	-29.2	-29.4	16.0	0.00e+00	0	46	0	20006830080	25	14512
2026-01-01 10:01:14.79	353.05	43.05	-29.1	-29.3	15.9	0.00e+00	0	46	0	20115881984	25	14290
2026-01-01 10:01:15.78	352.56	43.40	-29.0	-29.2	15.9	0.00e+00	0	46	0	20224933888	25	14146
2026-01-01 10:01:16.77	352.06	43.76	-28.8	-29.0	16.0	0.00e+00	0	46	0	20342374400	24	14644
2026-01-01 10:01:17.76	351.55	44.12	-28.8	-29.0	15.9	0.00e+00	0	46	0	20451426304	24	14746
2026-01-01 10:01:18.75	351.03	44.48	-28.8	-29.0	15.9	0.00e+00	0	46	0	20568866816	24	14716
2026-01-01 10:01:19.74	350.50	44.84	-28.6	-28.8	15.9	0.00e+00	0	46	0	20677918720	24	14426
2026-01-01 10:01:20.74	349.94	45.20	-28.6	-28.8	16.0	0.00e+00	0	46	0	20786970624	24	14341
2026-01-01 10:01:21.73	349.38	45.56	-28.4	-28.6	16.0	0.00e+00	0	46	0	20896022528	24	14107
2026-01-01 10:01:22.73	348.80	45.93	-28.4	-28.6	16.0	0.00e+00	0	46	0	21013463040	24	14020
2026-01-01 10:01:23.72	348.22	46.29	-28.2	-28.4	16.0	0.00e+00	0	46	0	21122514944	23	14587
2026-01-01 10:01:24.71	347.61	46.65	-28.2	-28.4	15.9	0.00e+00	0	46	0	21231566848	23	14538
2026-01-01 10:01:25.71	346.99	47.02	-28.1	-28.3	16.0	0.00e+00	0	46	0	21349007360	23	14327
2026-01-01 10:01:26.69	346.36	47.38	-28.0	-28.2	16.0	0.00e+00	0	46	0	21458059264	23	14259
2026-01-01 10:01:27.68	345.72	47.74	-27.9	-28.1	16.0	0.00e+00	0	45	0	21567111168	23	14035
2026-01-01 10:01:28.66	345.06	48.10	-27.8	-28.0	15.9	0.00e+00	0	46	0	21676163072	22	14739
2026-01-01 10:01:29.66	344.37	48.46	-27.7	-27.9	16.0	0.00e+00	0	46	0	21793603584	22	14487
2026-01-01 10:01:30.65	343.68	48.82	-27.6	-27.8	16.0	0.00e+00	0	46	0	21902655488	22	14367
2026-01-01 10:01:31.64	342.97	49.18	-27.6	-27.8	16.0	0.00e+00	0	46	0	22011707392	22	14412
2026-01-01 10:01:32.62	342.24	49.53	-27.6	-27.8	16.0	0.00e+00	0	46	0	22120759296	22	14313
2026-01-01 10:01:33.62	341.49	49.89	-27.6	-27.8	16.0	0.00e+00	0	46	0	22238199808	22	14348
2026-01-01 10:01:34.61	340.72	50.24	-27.6	-27.8	16.0	0.00e+00	0	46	0	22347251712	22	14378
2026-01-01 10:01:35.60	339.94	50.60	-27.5	-27.7	16.0	0.00e+00	0	46	0	22464692224	22	14179
2026-01-01 10:01:36.59	339.13	50.94	-27.4	-27.6	16.0	0.00e+00	0	46	0	22573744128	22	14056
2026-01-01 10:01:37.59	338.30	51.29	-27.5	-27.7	16.0	0.00e+00	0	46	0	22682796032	22	14249
2026-01-01 10:01:38.59	337.45	51.64	-27.4	-27.6	16.0	0.00e+00	0	46	0	22791847936	22	14035
2026-01-01 10:01:39.58	336.59	51.97	-27.4	-27.6	16.0	0.00e+00	0	46	0	22909288448	22	14101
2026-01-01 10:01:40.57	335.70	52.31	-27.3	-27.5	15.9	0.00e+00	0	46	0	23018340352	21	14670
2026-01-01 10:01:41.56	334.80	52.63	-27.4	-27.6	15.9	0.00e+00	0	46	0	23127392256	21	14827
2026-01-01 10:01:42.56	333.87	52.96	-27.1	-27.3	16.0	0.00e+00	0	46	0	23244832768	21	14375
2026-01-01 10:01:43.55	332.92	53.28	-27.2	-27.4	15.9	0.00e+00	0	46	0	23353884672	21	14449
2026-01-01 10:01:44.53	331.96	53.59	-27.0	-27.2	15.9	0.00e+00	0	46	0	23462936576	21	14265
2026-01-01 10:01:45.52	330.98	53.89	-26.9	-27.1	16.0	0.00e+00	0	46	0	23571988480	21	14034
2026-01-01 10:01:46.52	329.96	54.19	-27.0	-27.2	15.9	0.00e+00	0	46	0	23689428992	21	14165
2026-01-01 10:01:47.51	328.92	54.49	-26.8	-27.0	15.9	0.00e+00	0	46	0	23798480896	20	14654
2026-01-01 10:01:48.50	327.87	54.77	-26.8	-27.0	15.9	0.00e+00	0	46	0	23915921408	20	14729
2026-01-01 10:01:49.50	326.79	55.05	-27.0	-27.2	15.9	0.00e+00	0	46	0	24024973312	20	14991
2026-01-01 10:01:50.49	325.69	55.32	-26.8	-27.0	15.9	0.00e+00	0	46	0	24134025216	20	14670
2026-01-01 10:01:51.48	324.58	55.58	-26.7	-26.9	15.9	0.00e+00	0	46	0	24243077120	20	14562
2026-01-01 10:01:52.48	323.43	55.83	-26.7	-26.9	15.9	0.00e+00	0	46	0	24360517632	20	14518
2026-01-01 10:01:53.48	322.26	56.07	-26.7	-26.8	15.9	0.00e+00	0	46	0	24469569536	20	14434
2026-01-01 10:01:54.47	321.08	56.30	-26.5	-26.7	15.9	0.00e+00	0	46	0	24578621440	20	14191
2026-01-01 10:01:55.46	319.88	56.52	-26.5	-26.7	15.9	0.00e+00	0	46	0	24696061952	20	14229
2026-01-01 10:01:56.45	318.66	56.72	-26.5	-26.7	15.9	0.00e+00	0	46	0	24805113856	20	14174
2026-01-01 10:01:57.44	317.43	56.92	-26.5	-26.7	15.9	0.00e+00	0	46	0	24922554368	20	14163
2026-01-01 10:01:58.43	316.18	57.10	-26.4	-26.6	15.9	0.00e+00	0	46	0	25023217664	20	14050
2026-01-01 10:01:59.42	314.91	57.27	-26.4	-26.6	15.9	0.00e+00	0	46	0	25140658176	20	14078
2026-01-01 10:02:00.41	313.62	57.43	-26.4	-26.6	15.9	0.00e+00	0	46	0	25249710080	19	14898
2026-01-01 10:02:01.40	312.32	57.58	-26.5	-26.7	15.9	0.00e+00	0	46	0	25367150592	19	14948
2026-01-01 10:02:02.39	311.01	57.71	-26.4	-26.7	15.9	0.00e+00	0	46	0	25476202496	19	14950
2026-01-01 10:02:03.39	309.67	57.82	-26.3	-26.5	15.9	0.00e+00	0	46	0	25585254400	19	14719
2026-01-01 10:02:04.38	308.33	57.93	-26.3	-26.5	15.9	0.00e+00	0	46	0	25694306304	19	14739
2026-01-01 10:02:05.38	306.97	58.02	-26.4	-26.6	16.0	0.00e+00	0	46	0	25811746816	19	14882
2026-01-01 10:02:06.36	305.63	58.09	-26.5	-26.7	16.0	0.00e+00	0	46	0	25920798720	19	15098
2026-01-01 10:02:07.35	304.27	58.15	-26.4	-26.6	16.0	0.00e+00	0	46	0	26029850624	19	14792
2026-01-01 10:02:08.34	302.90	58.19	-26.4	-26.6	16.0	0.00e+00	0	46	0	26147291136	19	14887
2026-01-01 10:02:09.34	301.52	58.22	-26.4	-26.6	16.0	0.00e+00	0	46	0	26256343040	19	14930
2026-01-01 10:02:10.34	300.13	58.23	-26.3	-26.5	16.1	0.00e+00	0	46	0	26365394944	19	14737
2026-01-01 10:02:11.33	298.76	58.23	-26.3	-26.5	16.1	0.00e+00	0	46	0	26474446848	19	14724
2026-01-01 10:02:12.32	297.38	58.21	-26.3	-26.6	16.1	0.00e+00	0	46	0	26591887360	19	14777
2026-01-01 10:02:13.31	296.01	58.18	-26.3	-26.5	16.2	0.00e+00	0	46	0	26700939264	19	14717
2026-01-01 10:02:14.31	294.63	58.13	-26.3	-26.5	16.2	0.00e+00	0	46	0	26818379776	19	14717
2026-01-01 10:02:15.30	293.27	58.07	-26.3	-26.5	16.2	0.00e+00	0	46	0	26927431680	19	14720
2026-01-01 10:02:16.30	291.91	57.99	-26.4	-26.6	16.2	0.00e+00	0	46	0	27036483584	19	14910
2026-01-01 10:02:17.29	290.56	57.90	-26.4	-26.6	16.2	0.00e+00	0	46	0	27153924096	19	14813
2026-01-01 10:02:18.28	289.23	57.79	-26.4	-26.6	16.2	0.00e+00	0	46	0	27254587392	19	14800
2026-01-01 10:02:19.28	287.89	57.67	-26.4	-26.6	16.2	0.00e+00	0	46	0	27372027904	19	14811
2026-01-01 10:02:20.27	286.58	57.54	-26.5	-26.7	16.2	0.00e+00	0	46	0	27481079808	19	14980
2026-01-01 10:02:21.25	285.30	57.39	-26.4	-26.6	16.2	0.00e+00	0	46	0	27598520320	19	14892
2026-01-01 10:02:22.23	284.03	57.23	-26.5	-26.7	16.3	0.00e+00	0	46	0	27707572224	19	14967
2026-01-01 10:02:23.22	282.76	57.06	-26.4	-26.6	16.2	0.00e+00	0	46	0	27816624128	19	14928
2026-01-01 10:02:24.21	281.51	56.87	-26.5	-26.7	16.2	0.00e+00	0	46	0	27925676032	19	15017
2026-01-01 10:02:25.21	280.27	56.67	-26.6	-26.8	16.2	0.00e+00	0	46	0	28043116544	19	15235
2026-01-01 10:02:26.20	279.05	56.46	-26.6	-26.8	16.2	0.00e+00	0	46	0	28152168448	19	15280
2026-01-01 10:02:27.19	277.86	56.24	-26.6	-26.8	16.2	0.00e+00	0	46	0	28269608960	19	15203
2026-01-01 10:02:28.18	276.69	56.01	-26.7	-26.9	16.2	0.00e+00	0	46	0	28370272256	19	15334
2026-01-01 10:02:29.18	275.52	55.76	-26.7	-26.9	16.2	0.00e+00	0	46	0	28487712768	19	15436
2026-01-01 10:02:30.18	274.38	55.51	-26.7	-26.9	16.2	0.00e+00	0	46	0	28596764672	19	15451
2026-01-01 10:02:31.18	273.25	55.24	-26.8	-27.0	16.2	0.00e+00	0	46	0	28714205184	19	15548
2026-01-01 10:02:32.16	272.17	54.98	-26.9	-27.1	16.2	0.00e+00	0	46	0	28823257088	19	15670
2026-01-01 10:02:33.15	271.10	54.70	-26.9	-27.1	16.1	0.00e+00	0	46	0	28932308992	19	15687
2026-01-01 10:02:34.14	270.05	54.41	-26.9	-27.1	16.1	0.00e+00	0	46	0	29049749504	19	15734
2026-01-01 10:02:35.14	269.02	54.11	-26.9	-27.1	16.1	0.00e+00	0	46	0	29158801408	19	15669
2026-01-01 10:02:36.13	268.01	53.81	-26.9	-27.1	16.1	0.00e+00	0	46	0	29267853312	19	15815
2026-01-01 10:02:37.12	267.03	53.50	-27.0	-27.1	16.1	0.00e+00	0	46	0	29376905216	19	15833
2026-01-01 10:02:38.11	266.06	53.19	-27.0	-27.2	16.1	0.00e+00	0	46	0	29494345728	19	15929
2026-01-01 10:02:39.10	265.12	52.87	-27.1	-27.3	16.1	0.00e+00	0	46	0	29603397632	20	15144
2026-01-01 10:02:40.09	264.20	52.55	-27.0	-27.2	16.1	0.00e+00	0	46	0	29720838144	20	15062
2026-01-01 10:02:41.09	263.29	52.21	-27.1	-27.3	16.1	0.00e+00	0	46	0	29829890048	20	15292
2026-01-01 10:02:42.08	262.41	51.88	-27.3	-27.5	16.1	0.00e+00	0	46	0	29938941952	20	15525
2026-01-01 10:02:43.07	261.55	51.54	-27.3	-27.5	16.1	0.00e+00	0	46	0	30047993856	20	15513
2026-01-01 10:02:44.06	260.71	51.20	-27.4	-27.5	16.1	0.00e+00	0	46	0	30165434368	20	15649
2026-01-01 10:02:45.06	259.89	50.85	-27.4	-27.6	16.1	0.00e+00	0	46	0	30274486272	20	15762
2026-01-01 10:02:46.05	259.09	50.50	-27.5	-27.7	16.1	0.00e+00	0	46	0	30383538176	20	15882
2026-01-01 10:02:47.05	258.30	50.14	-27.6	-27.8	16.1	0.00e+00	0	46	0	30500978688	20	16088
2026-01-01 10:02:48.04	257.53	49.79	-27.6	-27.8	16.1	0.00e+00	0	46	0	30610030592	21	15282
2026-01-01 10:02:49.03	256.79	49.43	-27.7	-27.9	16.1	0.00e+00	0	46	0	30719082496	21	15389
2026-01-01 10:02:50.02	256.06	49.07	-27.7	-27.9	16.1	0.00e+00	0	46	0	30828134400	21	15339
2026-01-01 10:02:51.01	255.35	48.71	-27.7	-27.9	16.1	0.00e+00	0	46	0	30945574912	21	15467
2026-01-01 10:02:51.99	254.67	48.35	-27.8	-28.0	16.1	0.00e+00	0	46	0	31054626816	21	15532
2026-01-01 10:02:52.99	253.98	47.99	-27.9	-28.1	16.1	0.00e+00	0	46	0	31172067328	21	15731
2026-01-01 10:02:53.98	253.32	47.63	-28.0	-28.2	16.1	0.00e+00	0	46	0	31272730624	21	15956
2026-01-01 10:02:54.97	252.68	47.26	-28.0	-28.2	16.1	0.00e+00	0	46	0	31390171136	21	15997
2026-01-01 10:02:55.97	252.04	46.89	-28.2	-28.4	16.1	0.00e+00	0	46	0	31499223040	22	15402
2026-01-01 10:02:56.96	251.43	46.53	-28.2	-28.5	16.1	0.00e+00	0	46	0	31616663552	22	15487
2026-01-01 10:02:57.95	250.83	46.17	-28.3	-28.5	16.1	0.00e+00	0	46	0	31725715456	22	15572
2026-01-01 10:02:58.94	250.25	45.80	-28.3	-28.5	16.1	0.00e+00	0	46	0	31834767360	22	15640
2026-01-01 10:02:59.93	249.67	45.44	-28.3	-28.5	16.1	0.00e+00	0	46	0	31943819264	22	15589
2026-01-01 10:03:00.93	249.11	45.08	-28.5	-28.7	16.1	0.00e+00	0	46	0	32061259776	22	15881
2026-01-01 10:03:01.93	248.56	44.71	-28.6	-28.8	16.1	0.00e+00	0	46	0	32170311680	22	16127
2026-01-01 10:03:02.92	248.03	44.35	-28.6	-28.8	16.1	0.00e+00	0	46	0	32279363584	23	15128
2026-01-01 10:03:03.91	247.51	43.99	-28.7	-28.9	16.1	0.00e+00	0	46	0	32396804096	23	15390
2026-01-01 10:03:04.90	247.00	43.63	-28.7	-28.9	16.1	0.00e+00	0	46	0	32505856000	23	15322
2026-01-01 10:03:05.89	246.51	43.28	-28.8	-29.0	16.1	0.00e+00	0	46	0	32623296512	23	15543
2026-01-01 10:03:06.88	246.02	42.92	-28.8	-29.0	16.1	0.00e+00	0	46	0	32723959808	23	15630
2026-01-01 10:03:07.88	245.54	42.56	-28.9	-29.1	16.1	0.00e+00	0	46	0	32841400320	23	15686
2026-01-01 10:03:08.88	245.08	42.21	-29.0	-29.2	16.1	0.00e+00	0	46	0	32950452224	23	15872
2026-01-01 10:03:09.88	244.62	41.85	-29.0	-29.3	16.1	0.00e+00	0	46	0	33059504128	23	16020
2026-01-01 10:03:10.87	244.18	41.50	-29.1	-29.3	16.0	0.00e+00	0	46	0	33176944640	23	16071
2026-01-01 10:03:11.87	243.74	41.15	-29.3	-29.5	16.1	0.00e+00	0	46	0	33285996544	24	15500
2026-01-01 10:03:12.86	243.32	40.81	-29.4	-29.6	16.0	0.00e+00	0	46	0	33403437056	24	15709
2026-01-01 10:03:13.86	242.90	40.46	-29.4	-29.7	16.0	0.00e+00	0	46	0	33512488960	24	15858
2026-01-01 10:03:14.85	242.50	40.12	-29.6	-29.8	16.0	0.00e+00	0	46	0	33629929472	24	16129
2026-01-01 10:03:15.84	242.10	39.78	-29.6	-29.8	16.1	0.00e+00	0	46	0	33738981376	25	15247
2026-01-01 10:03:16.84	241.71	39.44	-29.7	-30.0	16.0	0.00e+00	0	46	0	33848033280	25	15494
2026-01-01 10:03:17.84	241.33	39.11	-29.8	-30.1	16.0	0.00e+00	0	46	0	33957085184	25	15688
2026-01-01 10:03:18.83	240.96	38.78	-29.9	-30.1	16.0	0.00e+00	0	46	0	34074525696	25	15757
2026-01-01 10:03:19.82	240.60	38.45	-29.9	-30.1	16.0	0.00e+00	0	46	0	34183577600	25	15832
2026-01-01 10:03:20.81	240.24	38.12	-30.1	-30.3	16.0	0.00e+00	0	46	0	34292629504	25	16085
2026-01-01 10:03:21.80	239.90	37.80	-30.2	-30.4	16.0	0.00e+00	0	46	0	34410070016	26	15390
2026-01-01 10:03:22.79	239.56	37.47	-30.3	-30.5	16.0	0.00e+00	0	46	0	34519121920	26	15618
2026-01-01 10:03:23.78	239.22	37.15	-30.4	-30.6	15.9	0.00e+00	0	46	0	34628173824	26	15791
2026-01-01 10:03:24.78	238.89	36.83	-30.5	-30.7	15.9	0.00e+00	0	46	0	34737225728	26	15928
2026-01-01 10:03:25.77	238.57	36.52	-30.6	-30.8	15.9	0.00e+00	0	46	0	34854666240	26	16037
2026-01-01 10:03:26.75	238.26	36.21	-30.6	-30.8	15.9	0.00e+00	0	46	0	34963718144	27	15288
2026-01-01 10:03:27.74	237.96	35.90	-30.8	-31.0	15.9	0.00e+00	0	46	0	35081158656	27	15538
2026-01-01 10:03:28.73	237.66	35.59	-30.8	-31.0	15.9	0.00e+00	0	46	0	35181821952	27	15585
2026-01-01 10:03:29.72	237.36	35.29	-30.8	-31.0	15.9	0.00e+00	0	46	0	35299262464	27	15560
2026-01-01 10:03:30.71	237.07	34.99	-30.9	-31.1	15.9	0.00e+00	0	46	0	35408314368	27	15681
2026-01-01 10:03:31.71	236.79	34.68	-31.0	-31.2	15.9	0.00e+00	0	46	0	35525754880	27	15924
2026-01-01 10:03:32.70	236.51	34.39	-31.0	-31.2	15.8	0.00e+00	0	46	0	35634806784	27	15995
2026-01-01 10:03:33.70	236.24	34.09	-31.0	-31.3	15.8	0.00e+00	0	46	0	35743858688	27	16045
2026-01-01 10:03:34.69	235.97	33.80	-31.1	-31.3	15.8	0.00e+00	0	46	0	35852910592	28	15236
2026-01-01 10:03:35.68	235.71	33.51	-31.3	-31.5	15.8	0.00e+00	0	46	0	35970351104	28	15501
2026-01-01 10:03:36.67	235.45	33.22	-31.3	-31.5	15.8	0.00e+00	0	46	0	36079403008	28	15535
2026-01-01 10:03:37.67	235.20	32.94	-31.4	-31.6	15.8	0.00e+00	0	46	0	36188454912	28	15774
2026-01-01 10:03:38.67	234.95	32.65	-31.4	-31.6	15.7	0.00e+00	0	46	0	36305895424	28	15775
2026-01-01 10:03:39.66	234.70	32.37	-31.4	-31.6	15.8	0.00e+00	0	46	0	36414947328	28	15712
2026-01-01 10:03:40.65	234.46	32.09	-31.5	-31.7	15.8	0.00e+00	0	46	0	36532387840	28	15862
2026-01-01 10:03:41.64	234.23	31.82	-31.5	-31.7	15.7	0.00e+00	0	46	0	36633051136	28	15975
2026-01-01 10:03:42.63	234.00	31.55	-31.5	-31.8	15.7	0.00e+00	0	46	0	36750491648	28	16037
2026-01-01 10:03:43.62	233.78	31.28	-31.7	-31.9	15.7	0.00e+00	0	46	0	36859543552	29	15447
2026-01-01 10:03:44.61	233.55	31.01	-31.8	-32.0	15.7	0.00e+00	0	46	0	36976984064	29	15578
2026-01-01 10:03:45.59	233.34	30.75	-31.8	-32.1	15.7	0.00e+00	0	46	0	37086035968	29	15667
2026-01-01 10:03:46.58	233.12	30.49	-31.8	-32.1	15.7	0.00e+00	0	46	0	37195087872	29	15655
2026-01-01 10:03:47.58	232.91	30.23	-31.9	-32.1	15.7	0.00e+00	0	46	0	37304139776	29	15813
2026-01-01 10:03:48.57	232.71	29.97	-31.9	-32.2	15.7	0.00e+00	0	46	0	37421580288	29	15854
2026-01-01 10:03:49.58	232.50	29.71	-32.2	-32.4	15.7	0.00e+00	0	46	0	37530632192	30	15326
2026-01-01 10:03:50.57	232.30	29.45	-32.2	-32.5	15.7	0.00e+00	0	46	0	37639684096	30	15476
2026-01-01 10:03:51.56	232.10	29.20	-32.3	-32.5	15.7	0.00e+00	0	46	0	37757124608	30	15621
2026-01-01 10:03:52.55	231.91	28.96	-32.3	-32.5	15.7	0.00e+00	0	46	0	37866176512	30	15591
2026-01-01 10:03:53.54	231.72	28.71	-32.4	-32.7	15.7	0.00e+00	0	46	0	37975228416	30	15845
2026-01-01 10:03:54.53	231.54	28.47	-32.5	-32.7	15.7	0.00e+00	0	46	0	38084280320	30	15920
2026-01-01 10:03:55.52	231.35	28.22	-32.6	-32.9	15.7	0.00e+00	0	46	0	38201720832	31	15310
2026-01-01 10:03:56.52	231.17	27.98	-32.7	-32.9	15.6	0.00e+00	0	46	0	38310772736	31	15432
2026-01-01 10:03:57.51	230.99	27.75	-32.7	-33.0	15.7	0.00e+00	0	46	0	38428213248	31	15478
2026-01-01 10:03:58.51	230.82	27.51	-32.9	-33.1	15.6	0.00e+00	0	46	0	38537265152	31	15759
2026-01-01 10:03:59.50	230.65	27.27	-33.0	-33.2	15.6	0.00e+00	0	46	0	38646317056	31	15972
2026-01-01 10:04:00.49	230.48	27.04	-33.1	-33.4	15.6	0.00e+00	0	46	0	38755368960	32	15304
2026-01-01 10:04:01.48	230.31	26.82	-33.2	-33.4	15.6	0.00e+00	0	46	0	38872809472	32	15445
2026-01-01 10:04:02.47	230.15	26.59	-33.4	-33.6	15.5	0.00e+00	0	46	0	38981861376	32	15694
2026-01-01 10:04:03.46	229.99	26.36	-33.5	-33.7	15.5	0.00e+00	0	46	0	39090913280	32	16015
2026-01-01 10:04:04.45	229.83	26.14	-33.7	-33.9	15.5	0.00e+00	0	46	0	39208353792	33	15335
2026-01-01 10:04:05.44	229.67	25.92	-33.8	-34.0	15.5	1.43e-05	0	46	0	39317405696	33	15614
2026-01-01 10:04:06.43	229.52	25.70	-33.9	-34.1	15.5	1.43e-05	0	46	0	39426457600	33	15752
2026-01-01 10:04:07.42	229.37	25.48	-33.9	-34.2	15.4	0.00e+00	0	46	0	39535509504	33	15879
2026-01-01 10:04:08.41	229.22	25.27	-34.1	-34.3	15.4	0.00e+00	0	46	0	39652950016	33	16165
2026-01-01 10:04:09.40	229.08	25.06	-34.2	-34.5	15.4	0.00e+00	0	46	0	39762001920	34	15495
2026-01-01 10:04:10.40	228.93	24.84	-34.4	-34.6	15.3	0.00e+00	0	46	0	39879442432	34	15799
2026-01-01 10:04:11.38	228.79	24.64	-34.5	-34.7	15.3	1.90e-05	0	46	0	39980105728	34	15888
2026-01-01 10:04:12.37	228.65	24.43	-34.6	-34.8	15.3	1.90e-05	0	46	0	40097546240	34	16083
2026-01-01 10:04:13.37	228.51	24.22	-34.6	-34.8	15.3	1.90e-05	0	46	0	40206598144	35	15288
2026-01-01 10:04:14.36	228.37	24.02	-34.8	-35.0	15.3	2.86e-05	0	46	0	40324038656	35	15519
2026-01-01 10:04:15.34	228.24	23.82	-34.9	-35.1	15.3	2.86e-05	0	46	0	40433090560	35	15722
2026-01-01 10:04:16.33	228.11	23.62	-35.0	-35.2	15.3	7.15e-05	0	46	0	40542142464	35	15896
2026-01-01 10:04:17.32	227.98	23.42	-35.0	-35.3	15.3	7.15e-05	0	46	0	40651194368	35	16037
2026-01-01 10:04:18.31	227.85	23.22	-37.6	-37.8	15.5	7.15e-05	0	46	0	40768634880	41	15229
2026-01-01 10:04:19.31	227.72	23.02	-37.6	-37.9	15.5	2.86e-05	0	46	0	40877686784	41	15309
2026-01-01 10:04:20.30	227.60	22.83	-37.7	-37.9	15.4	2.86e-05	0	46	0	40986738688	41	15465
2026-01-01 10:04:21.30	227.48	22.64	-37.8	-38.0	15.4	2.86e-05	0	46	0	41104179200	41	15642
2026-01-01 10:04:22.29	227.35	22.45	-37.8	-38.0	15.4	2.38e-05	0	46	0	41213231104	41	15637
2026-01-01 10:04:23.29	227.23	22.25	-37.8	-38.0	15.4	2.38e-05	0	46	0	41322283008	41	15628
2026-01-01 10:04:24.27	227.12	22.07	-37.8	-38.1	15.4	2.38e-05	0	46	0	41431334912	41	15666
2026-01-01 10:04:25.26	227.00	21.88	-37.9	-38.1	15.4	1.43e-05	0	46	0	41548775424	41	15805
2026-01-01 10:04:26.24	226.89	21.70	-37.9	-38.1	15.4	1.43e-05	0	46	0	41657827328	41	15833
2026-01-01 10:04:27.24	226.77	21.52	-38.0	-38.2	15.4	1.43e-05	0	46	0	41775267840	41	16012
2026-01-01 10:04:28.24	226.66	21.33	-38.2	-38.4	15.4	2.86e-05	0	46	0	41875931136	42	15337
2026-01-01 10:04:29.23	226.55	21.16	-38.2	-38.4	15.4	2.86e-05	0	46	0	41993371648	42	15410
2026-01-01 10:04:30.22	226.44	20.98	-38.3	-38.5	15.4	4.29e-05	0	46	0	42102423552	42	15533
2026-01-01 10:04:31.22	226.33	20.80	-38.3	-38.5	15.4	4.29e-05	0	46	0	42219864064	42	15584
2026-01-01 10:04:32.21	226.23	20.62	-38.4	-38.6	15.4	4.29e-05	0	46	0	42328915968	42	15712
2026-01-01 10:04:33.20	226.12	20.45	-38.4	-38.7	15.3	1.00e-04	0	46	0	42437967872	42	15837
2026-01-01 10:04:34.19	226.02	20.28	-38.5	-38.7	15.3	1.00e-04	0	46	0	42555408384	42	15966
2026-01-01 10:04:35.19	225.92	20.11	-38.6	-38.9	15.3	1.00e-04	0	46	0	42664460288	42	16207
2026-01-01 10:04:36.18	225.82	19.94	-38.6	-38.8	15.3	8.58e-05	0	46	0	42773512192	43	15221
2026-01-01 10:04:37.17	225.72	19.77	-38.7	-39.0	15.3	8.58e-05	0	46	0	42882564096	43	15497
2026-01-01 10:04:38.16	225.62	19.60	-38.8	-39.0	15.2	7.62e-05	0	46	0	43000004608	43	15633
2026-01-01 10:04:39.15	225.53	19.44	-38.8	-39.0	15.3	7.62e-05	0	46	0	43109056512	43	15574
2026-01-01 10:04:40.14	225.43	19.27	-38.9	-39.2	15.3	7.62e-05	0	46	0	43218108416	43	15838
2026-01-01 10:04:41.13	225.34	19.11	-39.0	-39.2	15.3	6.19e-05	0	46	0	43327160320	43	15918
2026-01-01 10:04:42.12	225.24	18.95	-39.1	-39.3	15.2	6.19e-05	0	46	0	43444600832	43	16189
2026-01-01 10:04:43.11	225.15	18.79	-39.2	-39.4	15.2	6.19e-05	0	46	0	43553652736	44	15429
2026-01-01 10:04:44.11	225.06	18.62	-39.2	-39.4	15.2	2.14e-04	0	46	0	43671093248	44	15432
2026-01-01 10:04:45.10	224.97	18.47	-39.3	-39.6	15.2	2.14e-04	0	46	0	43780145152	44	15683
2026-01-01 10:04:46.09	224.88	18.31	-39.4	-39.7	15.1	2.14e-04	0	46	0	43889197056	44	15871
2026-01-01 10:04:47.08	224.80	18.15	-39.6	-39.8	15.1	2.10e-04	0	46	0	43998248960	44	16065
2026-01-01 10:04:48.08	224.71	18.00	-39.7	-39.9	15.1	2.10e-04	0	46	0	44107300864	45	15359
2026-01-01 10:04:49.08	224.62	17.84	-39.7	-40.0	15.1	2.10e-04	0	46	0	44224741376	45	15487
2026-01-01 10:04:50.07	224.54	17.69	-39.8	-40.0	15.1	2.72e-04	0	46	0	44333793280	45	15638
2026-01-01 10:04:51.06	224.46	17.54	-39.9	-40.1	15.1	2.72e-04	0	46	0	44451233792	45	15830
2026-01-01 10:04:52.05	224.38	17.39	-39.9	-40.2	15.1	3.96e-04	0	46	0	44560285696	45	15849
2026-01-01 10:04:53.04	224.29	17.24	-40.0	-40.3	15.0	3.96e-04	0	46	0	44669337600	45	16048
2026-01-01 10:04:54.03	224.21	17.09	-40.2	-40.4	15.0	3.96e-04	0	46	0	44778389504	46	15401
2026-01-01 10:04:55.02	224.13	16.95	-40.2	-40.5	15.0	5.15e-04	0	46	0	44895830016	46	15521
2026-01-01 10:04:56.02	224.06	16.80	-40.3	-40.5	15.0	5.15e-04	0	46	0	45004881920	46	15651
2026-01-01 10:04:57.01	223.98	16.66	-40.4	-40.6	14.9	5.53e-04	0	46	0	45113933824	46	15825
2026-01-01 10:04:57.99	223.90	16.51	-40.5	-40.8	14.9	5.53e-04	0	46	0	45231374336	46	16048
2026-01-01 10:04:58.98	223.83	16.37	-40.6	-40.9	14.9	5.53e-04	0	47	0	45340426240	47	15337
2026-01-01 10:04:59.97	223.75	16.23	-40.7	-40.9	14.9	5.53e-04	0	47	0	45449478144	47	15470
2026-01-01 10:05:00.96	223.68	16.09	-40.7	-40.9	14.9	9.68e-04	0	46	0	45558530048	47	15381
2026-01-01 10:05:01.95	223.61	15.95	-40.8	-41.1	14.8	9.68e-04	0	47	0	45675970560	47	15661
2026-01-01 10:05:02.94	223.53	15.81	-40.8	-41.0	14.8	9.68e-04	0	47	0	45785022464	47	15630
2026-01-01 10:05:03.93	223.46	15.67	-40.8	-41.1	14.8	1.03e-03	0	46	0	45894074368	47	15698
2026-01-01 10:05:04.92	223.39	15.54	-40.9	-41.1	14.8	1.03e-03	0	46	0	46003126272	47	15830
2026-01-01 10:05:05.91	223.32	15.40	-41.0	-41.2	14.8	1.03e-03	0	46	0	46120566784	47	15962
2026-01-01 10:05:06.90	223.25	15.27	-41.0	-41.2	14.8	1.38e-03	0	46	0	46229618688	47	15960
2026-01-01 10:05:07.88	223.18	15.14	-41.0	-41.3	14.8	1.38e-03	0	47	0	46338670592	47	16082
2026-01-01 10:05:08.87	223.12	15.00	-41.9	-42.1	14.9	1.38e-03	0	47	0	46447722496	49	15789
2026-01-01 10:05:09.86	223.05	14.87	-42.0	-42.3	14.9	1.15e-03	0	46	0	46565163008	49	16027
2026-01-01 10:05:10.84	222.99	14.74	-42.0	-42.3	14.9	1.15e-03	0	46	0	46674214912	49	16045
2026-01-01 10:05:11.84	222.92	14.61	-42.2	-42.5	14.9	1.15e-03	0	46	0	46783266816	50	15474
2026-01-01 10:05:12.83	222.85	14.48	-42.2	-42.4	14.9	9.77e-04	0	46	0	46892318720	50	15421
2026-01-01 10:05:13.83	222.79	14.35	-42.3	-42.5	14.8	9.77e-04	0	46	0	47009759232	50	15544
2026-01-01 10:05:14.82	222.73	14.22	-42.3	-42.5	14.8	9.77e-04	0	46	0	47118811136	50	15521
2026-01-01 10:05:15.81	222.66	14.10	-42.3	-42.5	14.8	1.23e-03	0	46	0	47236251648	50	15630
2026-01-01 10:05:16.80	222.60	13.97	-42.3	-42.6	14.8	1.23e-03	0	47	0	47345303552	50	15693
2026-01-01 10:05:17.79	222.54	13.84	-42.4	-42.7	14.8	1.23e-03	0	47	0	47454355456	50	15837
2026-01-01 10:05:18.78	222.48	13.72	-42.4	-42.7	14.8	1.25e-03	0	47	0	47563407360	50	15843
2026-01-01 10:05:19.77	222.42	13.60	-42.5	-42.7	14.8	1.25e-03	0	47	0	47680847872	50	15936
2026-01-01 10:05:20.76	222.36	13.47	-42.5	-42.7	14.7	1.56e-03	0	47	0	47789899776	50	15954
2026-01-01 10:05:21.75	222.30	13.35	-42.6	-42.8	14.7	1.56e-03	0	47	0	47898951680	50	16127
2026-01-01 10:05:22.75	222.24	13.23	-42.6	-42.8	14.7	1.56e-03	0	46	0	48016392192	51	15262
2026-01-01 10:05:23.74	222.19	13.11	-42.7	-42.9	14.7	1.68e-03	0	46	0	48125444096	51	15431
2026-01-01 10:05:24.73	222.13	12.99	-42.8	-43.1	14.6	1.68e-03	0	47	0	48234496000	51	15711
2026-01-01 10:05:25.72	222.07	12.87	-42.9	-43.1	14.6	1.68e-03	0	47	0	48343547904	51	15769
2026-01-01 10:05:26.71	222.02	12.75	-42.9	-43.1	14.6	1.91e-03	0	47	0	48460988416	51	15770
2026-01-01 10:05:27.70	221.96	12.63	-42.9	-43.2	14.6	1.91e-03	0	47	0	48570040320	51	15894
2026-01-01 10:05:28.68	221.91	12.52	-43.1	-43.3	14.6	2.61e-03	0	47	0	48679092224	51	16085
2026-01-01 10:05:29.67	221.85	12.40	-43.0	-43.2	14.6	2.61e-03	0	47	0	48788144128	52	15085
2026-01-01 10:05:30.66	221.80	12.29	-43.0	-43.2	14.6	2.61e-03	0	47	0	48905584640	52	15063
2026-01-01 10:05:31.66	221.75	12.17	-43.0	-43.3	14.5	2.67e-03	0	47	0	49014636544	52	15163
2026-01-01 10:05:32.65	221.69	12.06	-43.2	-43.4	14.5	2.67e-03	0	47	0	49132077056	52	15432
2026-01-01 10:05:33.64	221.64	11.94	-43.2	-43.4	14.5	2.67e-03	0	46	0	49241128960	52	15402
2026-01-01 10:05:34.65	221.59	11.83	-43.2	-43.5	14.5	3.22e-03	0	46	0	49350180864	52	15492
2026-01-01 10:05:35.64	221.54	11.71	-43.3	-43.6	14.4	3.22e-03	0	47	0	49467621376	52	15653
2026-01-01 10:05:36.63	221.49	11.60	-43.3	-43.5	14.4	3.22e-03	0	46	0	49568284672	52	15561
2026-01-01 10:05:37.62	221.44	11.49	-43.3	-43.5	14.4	3.63e-03	0	46	0	49685725184	52	15648
2026-01-01 10:05:38.61	221.39	11.38	-43.3	-43.6	14.4	3.63e-03	0	47	0	49794777088	52	15689
2026-01-01 10:05:39.60	221.34	11.27	-43.5	-43.7	14.4	3.63e-03	0	47	0	49912217600	52	15918
2026-01-01 10:05:40.58	221.29	11.17	-43.5	-43.7	14.4	3.63e-03	0	47	0	50021269504	52	15945
2026-01-01 10:05:41.57	221.24	11.06	-43.6	-43.9	14.3	4.46e-03	0	47	0	50130321408	52	16234
2026-01-01 10:05:42.56	221.19	10.95	-43.8	-44.0	14.3	4.46e-03	0	47	0	50239373312	53	15637
2026-01-01 10:05:43.56	221.15	10.84	-43.9	-44.1	14.3	4.46e-03	0	47	0	50356813824	53	15739
2026-01-01 10:05:44.55	221.10	10.73	-43.7	-44.0	14.3	5.45e-03	0	47	0	50465865728	53	15532
2026-01-01 10:05:45.55	221.05	10.63	-43.8	-44.0	14.3	5.45e-03	0	47	0	50583306240	53	15567
2026-01-01 10:05:46.55	221.01	10.52	-43.8	-44.1	14.3	5.45e-03	0	47	0	50692358144	53	15700
2026-01-01 10:05:47.54	220.96	10.42	-43.9	-44.2	14.2	5.69e-03	0	46	0	50801410048	53	15917
2026-01-01 10:05:48.54	220.91	10.31	-43.9	-44.2	14.2	5.69e-03	0	46	0	50910461952	53	15906
2026-01-01 10:05:49.53	220.87	10.21	-43.9	-44.2	14.2	6.58e-03	0	47	0	51027902464	53	15899
2026-01-01 10:05:50.51	220.83	10.11	-43.9	-44.2	14.2	6.58e-03	0	47	0	51136954368	53	15916
2026-01-01 10:05:51.50	220.78	10.00	-44.0	-44.3	14.1	6.53e-03	0	47	0	51246006272	53	16055
2026-01-01 10:05:52.49	220.74	9.90	-44.1	-44.4	14.1	6.53e-03	0	47	0	51363446784	53	16245
2026-01-01 10:05:53.48	220.70	9.80	-44.1	-44.3	14.1	6.53e-03	0	47	0	51472498688	53	16165
2026-01-01 10:05:54.47	220.65	9.70	-44.1	-44.4	14.1	8.22e-03	0	47	0	51581550592	53	16243
2026-01-01 10:05:55.46	220.61	9.60	-44.2	-44.5	14.1	8.22e-03	0	46	0	51690602496	54	15547
2026-01-01 10:05:56.45	220.57	9.50	-44.2	-44.5	14.1	8.22e-03	0	47	0	51808043008	54	15478
2026-01-01 10:05:57.43	220.53	9.40	-44.3	-44.5	14.0	8.90e-03	0	47	0	51908706304	54	15595
2026-01-01 10:05:58.42	220.49	9.30	-44.4	-44.7	14.0	8.90e-03	0	47	0	52026146816	54	15871
2026-01-01 10:05:59.40	220.45	9.20	-44.3	-44.5	14.0	9.67e-03	0	46	0	52135198720	54	15627
2026-01-01 10:06:00.39	220.41	9.11	-44.3	-44.6	14.0	9.67e-03	0	47	0	52252639232	54	15760
2026-01-01 10:06:01.39	220.37	9.01	-44.6	-44.9	13.9	9.67e-03	0	47	0	52353302528	54	16280
2026-01-01 10:06:02.38	220.33	8.91	-44.7	-45.0	13.8	1.16e-02	0	47	0	52470743040	55	15540
2026-01-01 10:06:03.37	220.29	8.81	-44.7	-45.0	13.8	1.16e-02	0	47	0	52579794944	55	15517
2026-01-01 10:06:04.37	220.25	8.72	-44.8	-45.0	13.8	1.41e-02	0	47	0	52697235456	55	15614
2026-01-01 10:06:05.35	220.21	8.62	-44.8	-45.0	13.8	1.41e-02	0	46	0	52806287360	55	15633
2026-01-01 10:06:06.34	220.17	8.53	-44.8	-45.0	13.8	1.41e-02	0	47	0	52915339264	55	15649
2026-01-01 10:06:07.32	220.13	8.43	-44.8	-45.1	13.8	1.45e-02	0	47	0	53024391168	55	15798
2026-01-01 10:06:08.31	220.10	8.34	-44.9	-45.1	13.8	1.45e-02	0	47	0	53141831680	55	15815
2026-01-01 10:06:09.30	220.06	8.25	-45.0	-45.3	13.7	1.45e-02	0	47	0	53250883584	55	16022
2026-01-01 10:06:10.28	220.02	8.15	-45.0	-45.3	13.7	1.45e-02	0	47	0	53359935488	55	16066
2026-01-01 10:06:11.28	219.98	8.06	-45.1	-45.3	13.7	1.54e-02	0	47	0	53468987392	55	16182
2026-01-01 10:06:12.27	219.95	7.97	-45.0	-45.3	13.7	1.54e-02	0	47	0	53586427904	55	16125
2026-01-01 10:06:13.27	219.91	7.88	-45.0	-45.3	13.7	1.63e-02	0	47	0	53695479808	55	16161
2026-01-01 10:06:14.26	219.88	7.78	-45.0	-45.3	13.7	1.63e-02	0	47	0	53804531712	55	16122
2026-01-01 10:06:15.25	219.84	7.69	-45.1	-45.4	13.7	1.63e-02	0	47	0	53921972224	55	16257
2026-01-01 10:06:16.24	219.80	7.60	-45.2	-45.5	13.7	1.96e-02	0	47	0	54031024128	56	15512
2026-01-01 10:06:17.24	219.77	7.51	-45.1	-45.4	13.7	1.96e-02	0	47	0	54140076032	56	15379
2026-01-01 10:06:18.23	219.73	7.42	-45.3	-45.6	13.6	1.96e-02	0	47	0	54249127936	56	15722
2026-01-01 10:06:19.22	219.70	7.33	-45.2	-45.5	13.6	1.96e-02	0	47	0	54366568448	56	15522
2026-01-01 10:06:20.21	219.67	7.24	-45.3	-45.6	13.6	2.37e-02	0	47	0	54475620352	56	15782
2026-01-01 10:06:21.21	219.63	7.15	-45.4	-45.7	13.5	2.37e-02	0	47	0	54593060864	56	15859
2026-01-01 10:06:22.20	219.60	7.07	-45.5	-45.8	13.5	2.68e-02	0	47	0	54702112768	56	16063
2026-01-01 10:06:23.19	219.57	6.98	-45.5	-45.8	13.5	2.68e-02	0	47	0	54811164672	56	16083
2026-01-01 10:06:24.20	219.53	6.89	-59.9	-62.0	5.4	2.68e-02	0	47	0	54920216576	64	65535
2026-01-01 10:06:25.18	219.50	6.80	-60.1	-63.3	6.2	2.68e-02	0	46	104	54920216576	85	22819
2026-01-01 10:06:26.18	219.47	6.72	-60.1	-63.3	6.2	2.68e-02	0	46	104	54920216576	85	22688
2026-01-01 10:06:27.16	219.44	6.63	-60.1	-63.3	6.2	2.68e-02	0	46	104	54920216576	85	22681
2026-01-01 10:06:28.15	219.40	6.54	-60.1	-63.3	6.2	2.68e-02	0	46	104	54920216576	85	22641
2026-01-01 10:06:29.14	219.37	6.46	-60.0	-63.2	6.2	2.68e-02	0	46	104	54920216576	85	22480
2026-01-01 10:06:30.14	219.34	6.37	-59.9	-63.1	6.2	2.68e-02	0	46	104	54920216576	85	22320
2026-01-01 10:06:31.13	219.31	6.29	-59.9	-63.1	6.2	1.89e-02	0	46	104	54920216576	85	22238
2026-01-01 10:06:32.12	219.28	6.20	-60.0	-63.2	6.2	1.89e-02	0	46	104	54920216576	85	22521
2026-01-01 10:06:33.11	219.25	6.12	-59.9	-63.1	6.2	1.89e-02	0	46	104	54920216576	85	22358
2026-01-01 10:06:34.10	219.22	6.04	-59.9	-63.1	6.2	1.89e-02	0	46	104	54920216576	85	22130
2026-01-01 10:06:35.09	219.19	5.95	-59.8	-63.0	6.2	1.89e-02	0	46	104	54920216576	85	21947
2026-01-01 10:06:36.08	219.16	5.87	-59.9	-63.1	6.2	1.89e-02	0	46	104	54920216576	85	22283
2026-01-01 10:06:37.07	219.13	5.79	-59.9	-63.1	6.2	1.89e-02	0	46	104	54920216576	85	22141
2026-01-01 10:06:38.06	219.10	5.71	-59.8	-63.0	6.2	1.89e-02	0	46	104	54920216576	85	21959
2026-01-01 10:06:39.05	219.07	5.62	-59.7	-62.9	6.2	1.89e-02	0	46	104	54920216576	85	21741
2026-01-01 10:06:40.05	219.04	5.54	-59.8	-63.1	6.2	1.89e-02	0	46	104	54920216576	85	22165
2026-01-01 10:06:41.04	219.01	5.46	-59.8	-63.0	6.2	1.89e-02	0	45	104	54920216576	85	21950
2026-01-01 10:06:42.04	218.98	5.38	-59.7	-62.9	6.2	1.89e-02	0	45	104	54920216576	85	21619
2026-01-01 10:06:43.03	218.95	5.30	-59.6	-62.8	6.2	0.00e+00	0	45	104	54920216576	85	21475
2026-01-01 10:06:44.03	218.93	5.22	-59.8	-63.0	6.2	0.00e+00	0	45	104	54920216576	85	21899
2026-01-01 10:06:45.01	218.90	5.14	-59.7	-62.9	6.2	0.00e+00	0	45	104	54920216576	85	21703
2026-01-01 10:06:46.00	218.87	5.06	-59.6	-62.8	6.2	0.00e+00	0	46	104	54920216576	85	21435
2026-01-01 10:06:46.99	218.84	4.98	-59.9	-63.1	6.2	0.00e+00	0	45	104	54920216576	85	22329
2026-01-01 10:06:48.00	218.82	4.90	-60.5	-63.7	6.2	0.00e+00	0	45	104	54920216576	86	22473
2026-01-01 10:06:49.00	218.79	4.82	-60.8	-64.0	6.2	0.00e+00	0	45	104	54920216576	87	22067
2026-01-01 10:06:50.01	218.76	4.74	-61.0	-64.2	6.2	0.00e+00	0	45	104	54920216576	87	22583
2026-01-01 10:06:51.02	218.73	4.66	-61.2	-64.3	6.2	0.00e+00	0	45	104	54920216576	88	21566
2026-01-01 10:06:52.03	218.71	4.58	-61.3	-64.5	6.2	0.00e+00	0	45	104	54920216576	88	21917
2026-01-01 10:06:53.03	218.68	4.50	-61.4	-64.5	6.2	0.00e+00	0	45	104	54920216576	88	22103
2026-01-01 10:06:54.04	218.65	4.42	-61.5	-64.7	6.2	0.00e+00	0	45	104	54920216576	88	22416
2026-01-01 10:06:55.04	218.63	4.34	-61.6	-64.7	6.2	0.00e+00	0	45	104	54920216576	88	22610
2026-01-01 10:06:56.05	218.60	4.26	-61.6	-64.8	6.2	0.00e+00	0	45	104	54920216576	89	21488
2026-01-01 10:06:57.06	218.58	4.19	-61.7	-64.8	6.2	0.00e+00	0	45	104	54920216576	89	21588
2026-01-01 10:06:58.06	218.55	4.11	-61.7	-64.9	6.2	0.00e+00	0	45	104	54920216576	89	21729
2026-01-01 10:06:59.05	218.53	4.03	-61.7	-64.9	6.2	0.00e+00	0	45	104	54920216576	89	21798
2026-01-01 10:07:00.05	218.50	3.96	-61.8	-65.0	6.2	0.00e+00	0	45	104	54920216576	89	21880
2026-01-01 10:07:01.05	218.48	3.88	-61.8	-65.0	6.2	0.00e+00	0	45	104	54920216576	89	21979
2026-01-01 10:07:02.04	218.45	3.81	-61.8	-65.0	6.2	0.00e+00	0	45	104	54920216576	89	22087
2026-01-01 10:07:03.03	218.43	3.73	-61.8	-65.0	6.2	0.00e+00	0	45	104	54920216576	89	22027
2026-01-01 10:07:04.04	218.40	3.66	-61.9	-65.1	6.2	0.00e+00	0	45	104	54920216576	89	22188
2026-01-01 10:07:05.03	218.38	3.58	-61.9	-65.1	6.2	0.00e+00	0	45	104	54920216576	89	22210
2026-01-01 10:07:06.02	218.35	3.51	-61.9	-65.1	6.2	0.00e+00	0	45	104	54920216576	89	22269
2026-01-01 10:07:07.02	218.33	3.43	-61.9	-65.1	6.2	0.00e+00	0	45	104	54920216576	89	22297
2026-01-01 10:07:08.01	218.31	3.36	-61.9	-65.1	6.2	0.00e+00	0	45	104	54920216576	89	22289
2026-01-01 10:07:09.01	218.28	3.29	-61.9	-65.1	6.2	0.00e+00	0	45	104	54920216576	89	22343
2026-01-01 10:07:10.00	218.26	3.21	-61.9	-65.1	6.2	0.00e+00	0	45	104	54920216576	89	22184
2026-01-01 10:07:11.00	218.24	3.14	-61.9	-65.1	6.2	0.00e+00	0	45	104	54920216576	89	22129
2026-01-01 10:07:11.99	218.21	3.07	-61.8	-65.0	6.2	0.00e+00	0	45	104	54920216576	89	22050
2026-01-01 10:07:12.98	218.19	3.00	-61.8	-65.0	6.2	0.00e+00	0	45	104	54920216576	89	22064
2026-01-01 10:07:13.96	218.17	2.92	-61.8	-65.0	6.2	0.00e+00	0	45	104	54920216576	89	22044
2026-01-01 10:07:14.96	218.15	2.85	-61.8	-65.0	6.2	0.00e+00	0	45	104	54920216576	89	22008
2026-01-01 10:07:15.95	218.12	2.78	-61.8	-65.0	6.2	0.00e+00	0	45	104	54920216576	89	21975
2026-01-01 10:07:16.94	218.10	2.71	-61.8	-65.0	6.2	0.00e+00	0	45	104	54920216576	89	21927
2026-01-01 10:07:17.93	218.08	2.64	-61.8	-65.0	6.2	0.00e+00	0	45	104	54920216576	89	21942
2026-01-01 10:07:18.93	218.06	2.57	-61.8	-64.9	6.2	0.00e+00	0	45	104	54920216576	89	21845
2026-01-01 10:07:19.92	218.04	2.50	-61.7	-64.9	6.2	0.00e+00	0	45	104	54920216576	89	21840
2026-01-01 10:07:20.91	218.02	2.43	-61.7	-64.9	6.2	0.00e+00	0	44	104	54920216576	89	21799
2026-01-01 10:07:21.91	217.99	2.35	-61.7	-64.9	6.2	0.00e+00	0	44	104	54920216576	89	21818
2026-01-01 10:07:22.91	217.97	2.28	-61.7	-64.9	6.2	0.00e+00	0	44	104	54920216576	89	21689
2026-01-01 10:07:23.89	217.95	2.22	-61.7	-64.9	6.2	0.00e+00	0	45	104	54920216576	89	21691
2026-01-01 10:07:24.88	217.93	2.15	-61.7	-64.9	6.2	0.00e+00	0	45	104	54920216576	89	21745
2026-01-01 10:07:25.88	217.91	2.08	-61.7	-64.9	6.2	0.00e+00	0	44	104	54920216576	89	21673
2026-01-01 10:07:26.87	217.89	2.01	-61.7	-64.9	6.2	0.00e+00	0	45	104	54920216576	89	21738
2026-01-01 10:07:27.87	217.87	1.94	-61.7	-64.9	6.2	0.00e+00	0	45	104	54920216576	89	21627
2026-01-01 10:07:28.86	217.85	1.87	-61.7	-64.9	6.2	0.00e+00	0	44	104	54920216576	89	21620

#Closed at: 2026-01-01 10:07:29
#Recorded file [54920 MB]: D:/lorett/data/31004_260101_125653.dat