passes_logs/2026/01/01/R3.2S_Murmansk/R3.2S_Murmansk__20260101_071133_SUOMI_NPP_rec.log

#Pass ID: 20260101_071133_SUOMI NPP
#Satellite: SUOMI NPP
#Configuration: NPP
#almurnet v.1.7.20251203
#Start time: 2026-01-01 07:11:33

#Version: 2.2.20231116
#Station: R3.2S_Murmansk
#Location: 33.079688 lon 68.888172 lat
#TLE: 1 37849U 11061A   25364.87906317  .00000195  00000+0  11345-3 0  9992
#TLE: 2 37849  98.7794 302.0592 0002571  89.2401 270.9069 14.19520347734561

#Time	Az	El	Level	Level2	SNR	BER	BlckErr	Temp	State	Recorded	gain1	gain2
2026-01-01 07:11:33.73	97.48	2.04	-59.8	-75.7	3.8	1.49e+00	0	33	0	0	86	21731
2026-01-01 07:11:34.73	97.43	2.10	-59.8	-75.8	3.8	1.49e+00	0	33	104	0	84	24438
2026-01-01 07:11:35.73	97.38	2.16	-59.8	-75.8	3.8	1.49e+00	0	33	104	0	84	24461
2026-01-01 07:11:36.73	97.33	2.22	-59.8	-75.8	3.8	1.49e+00	0	33	104	0	84	24474
2026-01-01 07:11:37.73	97.28	2.28	-59.8	-75.8	3.8	1.49e+00	0	33	104	0	84	24424
2026-01-01 07:11:38.73	97.23	2.35	-59.8	-75.8	3.8	1.49e+00	0	33	104	0	84	24432
2026-01-01 07:11:39.73	97.18	2.41	-59.8	-75.8	3.8	1.49e+00	0	33	104	0	84	24547
2026-01-01 07:11:40.74	97.13	2.47	-59.8	-75.8	3.8	1.49e+00	0	33	104	0	84	24510
2026-01-01 07:11:41.73	97.08	2.53	-59.8	-75.8	3.8	1.49e+00	0	33	104	0	84	24470
2026-01-01 07:11:42.73	97.03	2.59	-59.8	-75.8	3.8	1.49e+00	0	33	104	0	84	24600
2026-01-01 07:11:43.73	96.98	2.65	-59.8	-75.8	3.8	1.49e+00	0	33	104	0	84	24492
2026-01-01 07:11:44.73	96.93	2.71	-59.8	-75.8	3.8	1.49e+00	0	33	104	0	84	24564
2026-01-01 07:11:45.73	96.87	2.77	-59.8	-75.8	3.8	1.49e+00	0	33	104	0	84	24535
2026-01-01 07:11:46.73	96.82	2.83	-59.8	-75.8	3.8	1.49e+00	0	33	104	0	84	24482
2026-01-01 07:11:47.72	96.77	2.89	-59.8	-75.8	3.8	1.49e+00	0	33	104	0	84	24462
2026-01-01 07:11:48.72	96.72	2.96	-59.8	-75.7	3.8	1.49e+00	0	33	104	0	84	24385
2026-01-01 07:11:49.72	96.67	3.02	-59.8	-75.8	3.8	1.49e+00	0	33	104	0	84	24441
2026-01-01 07:11:50.72	96.61	3.08	-59.8	-75.7	3.8	1.49e+00	0	33	104	0	84	24369
2026-01-01 07:11:51.72	96.56	3.14	-59.8	-75.8	3.8	1.49e+00	0	33	104	0	84	24442
2026-01-01 07:11:52.72	96.51	3.20	-59.8	-75.8	3.8	1.49e+00	0	33	104	0	84	24489
2026-01-01 07:11:53.72	96.45	3.26	-59.8	-75.8	3.8	1.49e+00	0	33	104	0	84	24514
2026-01-01 07:11:54.72	96.40	3.33	-59.8	-75.8	3.8	1.49e+00	0	33	104	0	84	24515
2026-01-01 07:11:55.72	96.35	3.39	-59.8	-75.8	3.8	1.49e+00	0	33	104	0	84	24438
2026-01-01 07:11:56.72	96.29	3.45	-59.8	-75.7	3.8	1.49e+00	0	33	104	0	84	24393
2026-01-01 07:11:57.72	96.24	3.51	-59.8	-75.7	3.8	1.49e+00	0	33	104	0	84	24237
2026-01-01 07:11:58.72	96.18	3.58	-59.8	-75.7	3.8	1.49e+00	0	34	104	0	84	24148
2026-01-01 07:11:59.72	96.13	3.64	-59.8	-75.7	3.8	1.49e+00	0	33	104	0	84	24245
2026-01-01 07:12:00.71	96.08	3.70	-59.8	-75.7	3.8	1.49e+00	0	34	104	0	84	24352
2026-01-01 07:12:01.71	96.02	3.77	-59.8	-75.8	3.8	1.49e+00	0	33	104	0	84	24461
2026-01-01 07:12:02.71	95.96	3.83	-59.8	-75.8	3.8	1.49e+00	0	33	104	0	84	24534
2026-01-01 07:12:03.71	95.91	3.89	-59.8	-75.7	3.8	1.49e+00	0	33	104	0	84	24361
2026-01-01 07:12:04.71	95.85	3.96	-59.8	-75.6	3.8	1.49e+00	0	34	104	0	84	23926
2026-01-01 07:12:05.71	95.80	4.02	-59.8	-75.2	3.8	1.49e+00	0	34	104	0	84	22852
2026-01-01 07:12:06.70	95.74	4.08	-59.8	-75.0	3.8	1.49e+00	0	34	104	0	84	22323
2026-01-01 07:12:07.70	95.68	4.15	-59.8	-74.3	3.8	1.49e+00	0	34	104	0	84	20743
2026-01-01 07:12:08.70	95.63	4.21	-59.8	-73.9	3.8	1.49e+00	0	34	104	0	84	19676
2026-01-01 07:12:09.70	95.57	4.27	-59.7	-73.2	3.9	1.49e+00	0	34	104	0	84	18241
2026-01-01 07:12:10.70	95.51	4.34	-59.7	-72.4	4.2	1.42e+00	0	33	0	0	84	16518
2026-01-01 07:12:11.70	95.45	4.40	-59.6	-71.4	4.5	1.30e+00	25	34	0	0	84	14758
2026-01-01 07:12:12.70	95.40	4.47	-59.5	-70.6	4.8	9.67e-01	0	34	0	2097152	84	13506
2026-01-01 07:12:13.70	95.34	4.53	-59.4	-69.5	5.4	6.02e-01	0	34	0	4194304	84	11831
2026-01-01 07:12:14.69	95.28	4.60	-59.3	-68.5	6.0	4.04e-01	0	34	0	6291456	84	10606
2026-01-01 07:12:15.70	95.22	4.66	-59.1	-67.2	7.0	2.36e-01	0	34	0	7340032	84	9160
2026-01-01 07:12:16.70	95.16	4.73	-59.0	-66.6	7.6	8.49e-02	0	34	0	9437184	84	8510
2026-01-01 07:12:17.70	95.10	4.79	-58.9	-66.1	8.0	6.64e-02	0	34	0	11534336	84	8052
2026-01-01 07:12:18.71	95.04	4.86	-58.7	-65.5	8.5	4.09e-02	0	34	0	13631488	84	7539
2026-01-01 07:12:19.70	94.98	4.92	-58.7	-65.6	8.5	2.50e-02	0	34	0	15728640	84	7602
2026-01-01 07:12:20.71	94.92	4.99	-58.5	-65.2	8.7	2.53e-02	0	34	0	16777216	83	7674
2026-01-01 07:12:21.71	94.86	5.05	-57.8	-62.5	11.3	1.26e-02	0	34	0	18874368	82	5948
2026-01-01 07:12:22.71	94.80	5.12	-57.2	-61.2	12.4	1.31e-04	0	34	0	20971520	81	5427
2026-01-01 07:12:23.71	94.74	5.18	-59.3	-68.8	5.9	5.15e-02	0	34	0	23068672	83	11659
2026-01-01 07:12:24.71	94.67	5.25	-59.1	-66.1	8.5	3.71e-01	0	34	0	24117248	84	8067
2026-01-01 07:12:25.72	94.61	5.32	-56.8	-60.3	13.1	7.71e-02	0	34	0	26214400	80	5218
2026-01-01 07:12:26.72	94.55	5.38	-56.7	-60.1	13.2	3.05e-05	0	34	0	28311552	80	5091
2026-01-01 07:12:27.71	94.49	5.45	-56.4	-59.6	13.6	0.00e+00	0	34	0	30408704	79	5100
2026-01-01 07:12:28.71	94.43	5.52	-56.3	-59.4	13.8	0.00e+00	0	34	0	32505856	79	4972
2026-01-01 07:12:29.71	94.36	5.58	-56.1	-59.1	14.1	0.00e+00	0	34	0	33554432	78	5045
2026-01-01 07:12:30.71	94.30	5.65	-55.9	-58.8	14.3	0.00e+00	0	34	0	35651584	78	4877
2026-01-01 07:12:31.71	94.24	5.72	-56.1	-59.1	14.1	0.00e+00	0	34	0	37748736	78	5061
2026-01-01 07:12:32.71	94.17	5.78	-55.9	-58.7	14.3	0.00e+00	0	34	0	39845888	78	4852
2026-01-01 07:12:33.71	94.11	5.85	-55.9	-58.8	14.3	0.00e+00	0	34	0	41943040	78	4873
2026-01-01 07:12:34.72	94.04	5.92	-56.1	-59.0	14.1	0.00e+00	0	34	0	42991616	78	5027
2026-01-01 07:12:35.71	93.98	5.98	-56.1	-59.2	14.0	0.00e+00	0	34	0	45088768	78	5117
2026-01-01 07:12:36.71	93.91	6.05	-56.0	-58.9	14.2	0.00e+00	0	34	0	47185920	78	4975
2026-01-01 07:12:37.71	93.85	6.12	-55.8	-58.6	14.5	0.00e+00	0	34	0	49283072	78	4784
2026-01-01 07:12:38.71	93.78	6.19	-55.8	-58.7	14.4	0.00e+00	0	34	0	51380224	78	4830
2026-01-01 07:12:39.71	93.72	6.26	-55.7	-58.5	14.6	0.00e+00	0	34	0	52428800	78	4716
2026-01-01 07:12:40.71	93.65	6.32	-55.8	-58.5	14.5	0.00e+00	0	34	0	54525952	78	4755
2026-01-01 07:12:41.71	93.58	6.39	-55.8	-58.6	14.5	0.00e+00	0	34	0	56623104	78	4810
2026-01-01 07:12:42.71	93.51	6.46	-55.8	-58.5	14.5	0.00e+00	0	34	0	58720256	78	4728
2026-01-01 07:12:43.70	93.45	6.53	-55.8	-58.5	14.6	0.00e+00	0	34	0	59768832	78	4719
2026-01-01 07:12:44.70	93.38	6.60	-55.7	-58.4	14.6	0.00e+00	0	34	0	61865984	78	4689
2026-01-01 07:12:45.70	93.31	6.67	-55.6	-58.2	14.7	0.00e+00	0	34	0	63963136	77	4847
2026-01-01 07:12:46.70	93.24	6.74	-55.6	-58.3	14.7	0.00e+00	0	34	0	66060288	77	4888
2026-01-01 07:12:47.70	93.17	6.80	-55.8	-58.5	14.5	0.00e+00	0	34	0	68157440	77	5020
2026-01-01 07:12:48.69	93.11	6.87	-55.7	-58.4	14.6	0.00e+00	0	34	0	69206016	77	4960
2026-01-01 07:12:49.69	93.04	6.94	-55.7	-58.4	14.6	0.00e+00	0	34	0	71303168	77	4977
2026-01-01 07:12:50.69	92.97	7.01	-55.5	-58.1	14.8	0.00e+00	0	34	0	73400320	77	4804
2026-01-01 07:12:51.69	92.90	7.08	-55.8	-58.5	14.6	0.00e+00	0	34	0	75497472	77	5026
2026-01-01 07:12:52.69	92.83	7.15	-55.8	-58.5	14.6	0.00e+00	0	34	0	77594624	77	5040
2026-01-01 07:12:53.69	92.76	7.22	-55.7	-58.3	14.7	0.00e+00	0	34	0	78643200	77	4926
2026-01-01 07:12:54.69	92.68	7.29	-55.8	-58.6	14.5	0.00e+00	0	34	0	80740352	77	5059
2026-01-01 07:12:55.68	92.61	7.36	-55.8	-58.6	14.4	0.00e+00	0	34	0	82837504	77	5089
2026-01-01 07:12:56.69	92.54	7.43	-55.7	-58.4	14.7	0.00e+00	0	34	0	84934656	77	4939
2026-01-01 07:12:57.69	92.47	7.50	-55.7	-58.4	14.7	0.00e+00	0	34	0	85983232	77	4935
2026-01-01 07:12:58.68	92.40	7.57	-55.6	-58.3	14.7	0.00e+00	0	34	0	88080384	77	4879
2026-01-01 07:12:59.67	92.32	7.64	-55.6	-58.3	14.7	0.00e+00	0	34	0	90177536	77	4901
2026-01-01 07:13:00.67	92.25	7.71	-55.7	-58.4	14.7	0.00e+00	0	34	0	92274688	77	4972
2026-01-01 07:13:01.67	92.18	7.79	-55.8	-58.6	14.5	0.00e+00	0	34	0	94371840	77	5062
2026-01-01 07:13:02.67	92.10	7.86	-55.5	-58.5	14.5	0.00e+00	0	34	0	95420416	77	5031
2026-01-01 07:13:03.68	92.03	7.93	-55.8	-59.0	14.2	0.00e+00	0	34	0	97517568	77	5325
2026-01-01 07:13:04.67	91.95	8.00	-55.6	-58.7	14.4	0.00e+00	0	34	0	99614720	77	5136
2026-01-01 07:13:05.67	91.88	8.07	-55.6	-58.7	14.4	0.00e+00	0	34	0	101711872	77	5132
2026-01-01 07:13:06.67	91.80	8.14	-55.7	-58.9	14.3	0.00e+00	0	34	0	103809024	77	5241
2026-01-01 07:13:07.67	91.73	8.22	-55.6	-58.6	14.5	0.00e+00	0	34	0	104857600	77	5093
2026-01-01 07:13:08.68	91.65	8.29	-55.3	-58.2	14.7	0.00e+00	0	34	0	106954752	77	4847
2026-01-01 07:13:09.67	91.57	8.36	-55.4	-58.4	14.6	0.00e+00	0	34	0	109051904	77	4954
2026-01-01 07:13:10.67	91.49	8.43	-55.4	-58.3	14.7	0.00e+00	0	34	0	111149056	77	4891
2026-01-01 07:13:11.67	91.42	8.51	-55.6	-58.6	14.5	0.00e+00	0	34	0	112197632	77	5094
2026-01-01 07:13:12.67	91.34	8.58	-55.3	-58.2	14.8	0.00e+00	0	34	0	114294784	77	4824
2026-01-01 07:13:13.67	91.26	8.65	-55.4	-58.4	14.7	0.00e+00	0	34	0	116391936	77	4935
2026-01-01 07:13:14.67	91.18	8.73	-55.5	-58.4	14.7	0.00e+00	0	34	0	118489088	77	4960
2026-01-01 07:13:15.66	91.10	8.80	-55.6	-58.6	14.6	0.00e+00	0	34	0	120586240	77	5052
2026-01-01 07:13:16.66	91.02	8.87	-55.7	-58.8	14.5	0.00e+00	0	34	0	121634816	77	5163
2026-01-01 07:13:17.67	90.94	8.95	-55.8	-58.8	14.4	0.00e+00	0	34	0	123731968	77	5209
2026-01-01 07:13:18.67	90.86	9.02	-55.6	-58.6	14.5	0.00e+00	0	34	0	125829120	77	5061
2026-01-01 07:13:19.66	90.78	9.09	-55.8	-59.0	14.3	0.00e+00	0	34	0	127926272	77	5289
2026-01-01 07:13:20.66	90.70	9.17	-55.3	-58.1	14.9	0.00e+00	0	34	0	130023424	77	4783
2026-01-01 07:13:21.65	90.62	9.24	-55.0	-57.7	15.1	0.00e+00	0	34	0	131072000	76	4818
2026-01-01 07:13:22.64	90.54	9.32	-54.9	-57.5	15.1	0.00e+00	0	34	0	133169152	76	4749
2026-01-01 07:13:23.65	90.45	9.39	-54.9	-57.6	15.2	0.00e+00	0	34	0	135266304	76	4775
2026-01-01 07:13:24.64	90.37	9.47	-54.8	-57.3	15.3	0.00e+00	0	35	0	137363456	76	4640
2026-01-01 07:13:25.64	90.29	9.54	-54.8	-57.4	15.3	0.00e+00	0	35	0	138412032	76	4687
2026-01-01 07:13:26.64	90.20	9.62	-54.9	-57.5	15.3	0.00e+00	0	35	0	140509184	76	4736
2026-01-01 07:13:27.65	90.12	9.69	-55.0	-57.7	15.1	0.00e+00	0	34	0	142606336	76	4864
2026-01-01 07:13:28.64	90.03	9.77	-55.0	-57.6	15.2	0.00e+00	0	34	0	144703488	76	4805
2026-01-01 07:13:29.64	89.95	9.84	-55.1	-57.8	15.1	0.00e+00	0	34	0	146800640	76	4916
2026-01-01 07:13:30.64	89.86	9.92	-55.1	-57.9	15.0	0.00e+00	0	35	0	147849216	76	4965
2026-01-01 07:13:31.64	89.78	9.99	-55.0	-57.8	15.1	0.00e+00	0	35	0	149946368	76	4879
2026-01-01 07:13:32.64	89.69	10.07	-54.9	-57.6	15.1	0.00e+00	0	34	0	152043520	76	4813
2026-01-01 07:13:33.65	89.60	10.15	-54.6	-57.1	15.4	0.00e+00	0	35	0	154140672	75	4797
2026-01-01 07:13:34.64	89.51	10.22	-54.6	-57.1	15.4	0.00e+00	0	34	0	156237824	75	4803
2026-01-01 07:13:35.64	89.43	10.30	-54.7	-57.4	15.3	0.00e+00	0	35	0	157286400	75	4943
2026-01-01 07:13:36.64	89.34	10.38	-54.6	-57.1	15.4	0.00e+00	0	35	0	159383552	75	4808
2026-01-01 07:13:37.64	89.25	10.45	-54.4	-56.9	15.5	0.00e+00	0	34	0	161480704	75	4680
2026-01-01 07:13:38.64	89.16	10.53	-54.6	-57.2	15.4	0.00e+00	0	35	0	163577856	75	4849
2026-01-01 07:13:39.64	89.07	10.61	-54.5	-57.0	15.5	0.00e+00	0	35	0	165675008	75	4754
2026-01-01 07:13:40.64	88.98	10.69	-54.6	-57.2	15.4	0.00e+00	0	34	0	166723584	75	4830
2026-01-01 07:13:41.64	88.89	10.76	-54.6	-57.2	15.4	0.00e+00	0	35	0	168820736	75	4846
2026-01-01 07:13:42.63	88.80	10.84	-54.7	-57.2	15.4	0.00e+00	0	34	0	170917888	75	4868
2026-01-01 07:13:43.63	88.70	10.92	-54.7	-57.3	15.4	0.00e+00	0	34	0	173015040	75	4885
2026-01-01 07:13:44.62	88.61	11.00	-54.5	-57.1	15.5	0.00e+00	0	35	0	174063616	75	4763
2026-01-01 07:13:45.61	88.52	11.08	-54.5	-56.9	15.6	0.00e+00	0	35	0	176160768	75	4698
2026-01-01 07:13:46.61	88.43	11.15	-54.6	-57.1	15.5	0.00e+00	0	35	0	178257920	75	4793
2026-01-01 07:13:47.60	88.33	11.23	-54.5	-57.0	15.5	0.00e+00	0	34	0	180355072	75	4734
2026-01-01 07:13:48.60	88.24	11.31	-54.6	-57.1	15.5	0.00e+00	0	34	0	182452224	75	4802
2026-01-01 07:13:49.59	88.14	11.39	-54.6	-57.1	15.5	0.00e+00	0	35	0	183500800	75	4784
2026-01-01 07:13:50.58	88.05	11.47	-54.6	-57.1	15.5	0.00e+00	0	35	0	185597952	75	4802
2026-01-01 07:13:51.59	87.95	11.55	-54.5	-57.0	15.6	0.00e+00	0	34	0	187695104	75	4739
2026-01-01 07:13:52.59	87.85	11.63	-54.4	-56.8	15.7	0.00e+00	0	35	0	189792256	75	4644
2026-01-01 07:13:53.59	87.76	11.71	-54.5	-56.9	15.6	0.00e+00	0	35	0	190840832	75	4693
2026-01-01 07:13:54.58	87.66	11.79	-54.5	-57.0	15.6	0.00e+00	0	35	0	192937984	75	4738
2026-01-01 07:13:55.58	87.56	11.87	-54.5	-56.9	15.6	0.00e+00	0	35	0	195035136	75	4701
2026-01-01 07:13:56.58	87.46	11.95	-54.4	-56.7	15.8	0.00e+00	0	35	0	197132288	75	4581
2026-01-01 07:13:57.59	87.36	12.03	-54.5	-56.9	15.6	0.00e+00	0	35	0	199229440	75	4701
2026-01-01 07:13:58.58	87.26	12.11	-54.4	-56.8	15.7	0.00e+00	0	35	0	200278016	75	4609
2026-01-01 07:13:59.58	87.16	12.19	-54.5	-56.9	15.6	0.00e+00	0	35	0	202375168	75	4691
2026-01-01 07:14:00.57	87.06	12.27	-54.6	-57.0	15.6	0.00e+00	0	35	0	204472320	75	4758
2026-01-01 07:14:01.57	86.96	12.35	-54.5	-56.9	15.6	0.00e+00	0	35	0	206569472	75	4693
2026-01-01 07:14:02.57	86.86	12.43	-54.3	-56.7	15.7	0.00e+00	0	35	0	207618048	75	4546
2026-01-01 07:14:03.57	86.75	12.52	-54.3	-56.7	15.8	0.00e+00	0	35	0	209715200	75	4546
2026-01-01 07:14:04.58	86.65	12.60	-54.3	-56.6	15.8	0.00e+00	0	35	0	211812352	75	4542
2026-01-01 07:14:05.56	86.55	12.68	-54.3	-56.5	15.9	0.00e+00	0	35	0	213909504	75	4492
2026-01-01 07:14:06.57	86.44	12.76	-54.3	-56.6	15.8	0.00e+00	0	35	0	216006656	75	4515
2026-01-01 07:14:07.57	86.33	12.84	-54.3	-56.7	15.8	0.00e+00	0	35	0	217055232	75	4555
2026-01-01 07:14:08.57	86.23	12.93	-54.4	-56.8	15.7	0.00e+00	0	35	0	219152384	75	4599
2026-01-01 07:14:09.57	86.12	13.01	-54.5	-57.0	15.6	0.00e+00	0	34	0	221249536	75	4730
2026-01-01 07:14:10.57	86.01	13.09	-54.6	-57.1	15.5	0.00e+00	0	35	0	223346688	75	4804
2026-01-01 07:14:11.56	85.91	13.17	-54.7	-57.2	15.5	0.00e+00	0	35	0	225443840	75	4864
2026-01-01 07:14:12.56	85.80	13.26	-54.8	-57.4	15.4	0.00e+00	0	35	0	226492416	75	4969
2026-01-01 07:14:13.55	85.69	13.34	-54.6	-57.1	15.6	0.00e+00	0	35	0	228589568	75	4766
2026-01-01 07:14:14.56	85.58	13.42	-54.5	-56.9	15.7	0.00e+00	0	35	0	230686720	75	4672
2026-01-01 07:14:15.56	85.47	13.51	-54.4	-56.7	15.7	0.00e+00	0	35	0	232783872	75	4589
2026-01-01 07:14:16.56	85.36	13.59	-54.4	-56.8	15.7	0.00e+00	0	35	0	233832448	75	4629
2026-01-01 07:14:17.56	85.25	13.68	-54.4	-56.8	15.6	0.00e+00	0	35	0	235929600	75	4649
2026-01-01 07:14:18.57	85.13	13.76	-54.6	-57.1	15.5	0.00e+00	0	35	0	238026752	75	4813
2026-01-01 07:14:19.57	85.02	13.85	-54.8	-57.4	15.4	0.00e+00	0	34	0	240123904	75	4940
2026-01-01 07:14:20.56	84.91	13.93	-54.6	-57.2	15.4	0.00e+00	0	35	0	242221056	75	4843
2026-01-01 07:14:21.56	84.79	14.02	-54.7	-57.3	15.4	0.00e+00	0	35	0	243269632	75	4897
2026-01-01 07:14:22.55	84.68	14.10	-54.7	-57.3	15.4	0.00e+00	0	34	0	245366784	75	4878
2026-01-01 07:14:23.55	84.56	14.18	-54.4	-56.9	15.6	0.00e+00	0	35	0	247463936	75	4658
2026-01-01 07:14:24.55	84.45	14.27	-54.7	-57.2	15.5	0.00e+00	0	34	0	249561088	75	4864
2026-01-01 07:14:25.56	84.33	14.36	-54.6	-57.1	15.6	0.00e+00	0	35	0	251658240	75	4778
2026-01-01 07:14:26.56	84.21	14.44	-54.5	-56.9	15.7	0.00e+00	0	35	0	252706816	75	4685
2026-01-01 07:14:27.56	84.09	14.53	-54.5	-56.9	15.7	0.00e+00	0	35	0	254803968	75	4705
2026-01-01 07:14:28.56	83.97	14.61	-54.5	-57.0	15.6	0.00e+00	0	35	0	256901120	75	4708
2026-01-01 07:14:29.56	83.85	14.70	-54.8	-57.3	15.5	0.00e+00	0	35	0	258998272	75	4892
2026-01-01 07:14:30.56	83.73	14.79	-54.6	-57.1	15.6	0.00e+00	0	35	0	261095424	75	4786
2026-01-01 07:14:31.56	83.61	14.87	-54.3	-56.6	15.8	0.00e+00	0	35	0	262144000	75	4545
2026-01-01 07:14:32.56	83.49	14.96	-54.2	-56.5	15.9	0.00e+00	0	35	0	264241152	75	4450
2026-01-01 07:14:33.56	83.37	15.05	-54.3	-56.6	15.9	0.00e+00	0	35	0	266338304	75	4507
2026-01-01 07:14:34.56	83.24	15.14	-54.1	-56.3	16.0	0.00e+00	0	35	0	268435456	74	4637
2026-01-01 07:14:35.56	83.12	15.22	-54.1	-56.3	16.0	0.00e+00	0	35	0	269484032	74	4622
2026-01-01 07:14:36.56	82.99	15.31	-53.9	-56.0	16.2	0.00e+00	0	35	0	271581184	74	4488
2026-01-01 07:14:37.56	82.87	15.40	-53.9	-56.1	16.2	0.00e+00	0	35	0	273678336	73	4785
2026-01-01 07:14:38.56	82.74	15.49	-54.1	-56.3	16.1	0.00e+00	0	35	0	275775488	73	4910
2026-01-01 07:14:39.56	82.61	15.57	-53.9	-56.1	16.1	0.00e+00	0	35	0	277872640	73	4771
2026-01-01 07:14:40.55	82.49	15.66	-54.3	-56.6	15.9	0.00e+00	0	35	0	278921216	73	5079
2026-01-01 07:14:41.55	82.36	15.75	-54.4	-56.8	15.8	0.00e+00	0	35	0	281018368	74	4877
2026-01-01 07:14:42.56	82.23	15.84	-54.2	-56.5	16.0	0.00e+00	0	35	0	283115520	74	4725
2026-01-01 07:14:43.55	82.10	15.93	-54.4	-56.7	15.9	0.00e+00	0	35	0	285212672	74	4841
2026-01-01 07:14:44.56	81.96	16.02	-54.4	-56.7	15.9	0.00e+00	0	34	0	287309824	74	4850
2026-01-01 07:14:45.56	81.83	16.11	-54.5	-56.9	15.8	0.00e+00	0	35	0	288358400	74	4940
2026-01-01 07:14:46.55	81.70	16.19	-54.8	-57.3	15.5	0.00e+00	0	35	0	290455552	74	5181
2026-01-01 07:14:47.55	81.57	16.28	-54.5	-56.9	15.7	0.00e+00	0	35	0	292552704	74	4949
2026-01-01 07:14:48.55	81.43	16.37	-54.8	-57.4	15.5	0.00e+00	0	35	0	294649856	75	4955
2026-01-01 07:14:49.54	81.30	16.46	-54.9	-57.5	15.5	0.00e+00	0	35	0	296747008	75	4989
2026-01-01 07:14:50.54	81.16	16.55	-54.9	-57.4	15.5	0.00e+00	0	35	0	297795584	75	4965
2026-01-01 07:14:51.54	81.02	16.64	-54.9	-57.5	15.4	0.00e+00	0	35	0	299892736	75	5002
2026-01-01 07:14:52.55	80.89	16.73	-54.8	-57.3	15.5	0.00e+00	0	35	0	301989888	75	4925
2026-01-01 07:14:53.55	80.75	16.82	-54.7	-57.1	15.6	0.00e+00	0	35	0	304087040	75	4797
2026-01-01 07:14:54.55	80.61	16.91	-54.7	-57.2	15.6	0.00e+00	0	35	0	305135616	75	4829
2026-01-01 07:14:55.55	80.47	17.01	-54.5	-56.8	15.8	0.00e+00	0	35	0	307232768	75	4649
2026-01-01 07:14:56.54	80.33	17.10	-54.7	-57.1	15.6	0.00e+00	0	35	0	309329920	75	4814
2026-01-01 07:14:57.54	80.19	17.19	-54.8	-57.4	15.5	0.00e+00	0	35	0	311427072	75	4934
2026-01-01 07:14:58.54	80.04	17.28	-54.9	-57.5	15.5	0.00e+00	0	35	0	313524224	75	4993
2026-01-01 07:14:59.53	79.90	17.37	-54.7	-57.2	15.6	0.00e+00	0	35	0	314572800	75	4826
2026-01-01 07:15:00.52	79.76	17.46	-54.6	-57.0	15.7	0.00e+00	0	35	0	316669952	75	4749
2026-01-01 07:15:01.51	79.61	17.55	-54.6	-57.1	15.7	0.00e+00	0	35	0	318767104	75	4779
2026-01-01 07:15:02.52	79.46	17.64	-54.6	-57.0	15.7	0.00e+00	0	35	0	320864256	75	4746
2026-01-01 07:15:03.51	79.32	17.73	-54.3	-56.7	15.9	0.00e+00	0	35	0	321912832	75	4556
2026-01-01 07:15:04.51	79.17	17.83	-54.7	-57.2	15.6	0.00e+00	0	35	0	324009984	75	4839
2026-01-01 07:15:05.51	79.02	17.92	-54.3	-56.6	15.9	0.00e+00	0	35	0	326107136	75	4542
2026-01-01 07:15:06.51	78.87	18.01	-54.1	-56.3	16.1	0.00e+00	0	35	0	328204288	74	4650
2026-01-01 07:15:07.50	78.72	18.10	-54.1	-56.3	16.1	0.00e+00	0	35	0	330301440	74	4651
2026-01-01 07:15:08.50	78.57	18.19	-54.2	-56.4	16.0	0.00e+00	0	35	0	331350016	74	4697
2026-01-01 07:15:09.49	78.42	18.29	-54.1	-56.4	16.1	0.00e+00	0	35	0	333447168	74	4654
2026-01-01 07:15:10.49	78.26	18.38	-54.0	-56.2	16.1	0.00e+00	0	35	0	335544320	74	4598
2026-01-01 07:15:11.48	78.11	18.47	-54.0	-56.2	16.1	0.00e+00	0	35	0	337641472	74	4562
2026-01-01 07:15:12.48	77.95	18.56	-54.0	-56.2	16.2	0.00e+00	0	35	0	339738624	74	4572
2026-01-01 07:15:13.48	77.80	18.66	-54.0	-56.2	16.2	0.00e+00	0	35	0	340787200	74	4547
2026-01-01 07:15:14.47	77.64	18.75	-53.9	-55.9	16.3	0.00e+00	0	35	0	342884352	74	4438
2026-01-01 07:15:15.46	77.48	18.84	-53.9	-56.0	16.3	0.00e+00	0	35	0	344981504	74	4456
2026-01-01 07:15:16.46	77.32	18.94	-53.8	-55.9	16.4	0.00e+00	0	35	0	347078656	74	4405
2026-01-01 07:15:17.46	77.16	19.03	-53.9	-56.0	16.3	0.00e+00	0	35	0	348127232	74	4481
2026-01-01 07:15:18.45	77.00	19.12	-54.1	-56.2	16.2	0.00e+00	0	35	0	350224384	74	4584
2026-01-01 07:15:19.45	76.84	19.22	-54.4	-56.7	16.0	0.00e+00	0	35	0	352321536	74	4821
2026-01-01 07:15:20.44	76.68	19.31	-54.3	-56.5	16.1	0.00e+00	0	35	0	354418688	74	4723
2026-01-01 07:15:21.44	76.51	19.41	-54.3	-56.5	16.1	0.00e+00	0	35	0	356515840	74	4734
2026-01-01 07:15:22.42	76.35	19.50	-54.1	-56.3	16.2	0.00e+00	0	35	0	357564416	74	4605
2026-01-01 07:15:23.43	76.18	19.59	-54.4	-56.7	16.0	0.00e+00	0	35	0	359661568	74	4823
2026-01-01 07:15:24.43	76.01	19.69	-54.3	-56.6	16.0	0.00e+00	0	35	0	361758720	74	4812
2026-01-01 07:15:25.42	75.85	19.78	-54.5	-56.9	15.8	0.00e+00	0	35	0	363855872	74	4953
2026-01-01 07:15:26.42	75.68	19.88	-54.4	-56.7	15.9	0.00e+00	0	35	0	364904448	74	4854
2026-01-01 07:15:27.41	75.51	19.97	-54.3	-56.7	16.0	0.00e+00	0	35	0	367001600	74	4823
2026-01-01 07:15:28.40	75.34	20.06	-54.3	-56.6	15.9	0.00e+00	0	35	0	369098752	74	4794
2026-01-01 07:15:29.40	75.16	20.16	-54.0	-56.3	16.1	0.00e+00	0	35	0	371195904	74	4622
2026-01-01 07:15:30.41	74.99	20.26	-53.8	-56.0	16.2	0.00e+00	0	35	0	373293056	74	4490
2026-01-01 07:15:31.40	74.81	20.35	-53.8	-56.0	16.3	0.00e+00	0	35	0	374341632	74	4453
2026-01-01 07:15:32.40	74.64	20.44	-53.6	-55.7	16.4	0.00e+00	0	35	0	376438784	73	4555
2026-01-01 07:15:33.41	74.46	20.54	-53.3	-55.3	16.6	0.00e+00	0	35	0	378535936	73	4359
2026-01-01 07:15:34.41	74.28	20.64	-53.4	-55.4	16.6	0.00e+00	0	35	0	380633088	73	4421
2026-01-01 07:15:35.41	74.10	20.73	-53.3	-55.4	16.6	0.00e+00	0	35	0	381681664	73	4410
2026-01-01 07:15:36.41	73.92	20.83	-53.4	-55.4	16.5	0.00e+00	0	35	0	383778816	73	4431
2026-01-01 07:15:37.41	73.73	20.92	-53.4	-55.5	16.5	0.00e+00	0	35	0	385875968	73	4456
2026-01-01 07:15:38.41	73.55	21.02	-53.5	-55.5	16.5	0.00e+00	0	35	0	387973120	73	4486
2026-01-01 07:15:39.42	73.37	21.12	-53.7	-55.8	16.4	0.00e+00	0	35	0	390070272	73	4637
2026-01-01 07:15:40.41	73.18	21.21	-53.8	-56.0	16.3	0.00e+00	0	35	0	391118848	73	4743
2026-01-01 07:15:41.41	72.99	21.31	-53.9	-56.0	16.3	0.00e+00	0	35	0	393216000	73	4723
2026-01-01 07:15:42.41	72.81	21.40	-54.1	-56.2	16.2	0.00e+00	0	35	0	395313152	73	4861
2026-01-01 07:15:43.42	72.62	21.50	-54.2	-56.4	16.1	0.00e+00	0	35	0	397410304	73	4954
2026-01-01 07:15:44.41	72.43	21.59	-54.4	-56.6	16.0	0.00e+00	0	35	0	399507456	73	5092
2026-01-01 07:15:45.42	72.23	21.69	-54.2	-56.3	16.1	0.00e+00	0	35	0	400556032	73	4899
2026-01-01 07:15:46.41	72.04	21.79	-54.2	-56.4	16.1	0.00e+00	0	35	0	402653184	73	4963
2026-01-01 07:15:47.41	71.85	21.88	-53.9	-55.9	16.3	0.00e+00	0	35	0	404750336	73	4704
2026-01-01 07:15:48.41	71.65	21.98	-53.9	-55.9	16.4	0.00e+00	0	35	0	406847488	73	4677
2026-01-01 07:15:49.40	71.46	22.07	-54.0	-56.1	16.3	0.00e+00	0	35	0	408944640	73	4766
2026-01-01 07:15:50.40	71.26	22.17	-54.1	-56.2	16.3	0.00e+00	0	35	0	409993216	73	4826
2026-01-01 07:15:51.41	71.06	22.26	-53.9	-56.0	16.3	0.00e+00	0	35	0	412090368	73	4727
2026-01-01 07:15:52.41	70.86	22.36	-54.1	-56.2	16.2	0.00e+00	0	35	0	414187520	73	4820
2026-01-01 07:15:53.40	70.66	22.46	-53.7	-55.7	16.5	0.00e+00	0	35	0	416284672	73	4583
2026-01-01 07:15:54.41	70.46	22.55	-53.9	-55.9	16.4	0.00e+00	0	35	0	417333248	73	4690
2026-01-01 07:15:55.41	70.25	22.65	-54.0	-56.0	16.3	0.00e+00	0	35	0	419430400	73	4754
2026-01-01 07:15:56.41	70.05	22.74	-54.0	-56.1	16.3	0.00e+00	0	35	0	421527552	73	4779
2026-01-01 07:15:57.40	69.84	22.84	-54.5	-56.7	16.0	0.00e+00	0	35	0	423624704	74	4845
2026-01-01 07:15:58.40	69.63	22.93	-54.2	-56.4	16.2	0.00e+00	0	35	0	425721856	74	4654
2026-01-01 07:15:59.40	69.42	23.03	-54.1	-56.2	16.2	0.00e+00	0	35	0	426770432	74	4575
2026-01-01 07:16:00.40	69.21	23.12	-54.1	-56.2	16.3	0.00e+00	0	35	0	428867584	74	4588
2026-01-01 07:16:01.40	69.00	23.22	-54.1	-56.3	16.2	0.00e+00	0	35	0	430964736	74	4617
2026-01-01 07:16:02.41	68.79	23.32	-54.2	-56.4	16.1	0.00e+00	0	35	0	433061888	74	4658
2026-01-01 07:16:03.41	68.57	23.41	-54.1	-56.3	16.2	0.00e+00	0	35	0	435159040	74	4620
2026-01-01 07:16:04.42	68.36	23.51	-54.1	-56.3	16.2	0.00e+00	0	35	0	436207616	74	4610
2026-01-01 07:16:05.42	68.14	23.60	-54.3	-56.5	16.2	0.00e+00	0	35	0	438304768	74	4715
2026-01-01 07:16:06.42	67.92	23.70	-54.6	-57.0	15.9	0.00e+00	0	35	0	440401920	74	4993
2026-01-01 07:16:07.42	67.70	23.79	-54.9	-57.4	15.7	0.00e+00	0	35	0	442499072	74	5221
2026-01-01 07:16:08.42	67.48	23.89	-55.0	-57.3	15.7	0.00e+00	0	35	0	443547648	75	4925
2026-01-01 07:16:09.42	67.26	23.98	-54.8	-57.1	15.9	0.00e+00	0	35	0	445644800	75	4793
2026-01-01 07:16:10.42	67.03	24.08	-54.5	-56.6	16.1	0.00e+00	0	35	0	447741952	75	4530
2026-01-01 07:16:11.42	66.81	24.17	-54.3	-56.3	16.3	0.00e+00	0	35	0	449839104	75	4366
2026-01-01 07:16:12.42	66.58	24.27	-54.1	-56.1	16.3	0.00e+00	0	35	0	451936256	74	4517
2026-01-01 07:16:13.42	66.35	24.36	-53.9	-55.8	16.5	0.00e+00	0	35	0	452984832	74	4386
2026-01-01 07:16:14.42	66.12	24.45	-53.9	-55.8	16.5	0.00e+00	0	35	0	455081984	74	4391
2026-01-01 07:16:15.42	65.89	24.55	-53.8	-55.8	16.5	0.00e+00	0	35	0	457179136	73	4619
2026-01-01 07:16:16.42	65.66	24.64	-53.5	-55.4	16.7	0.00e+00	0	35	0	459276288	73	4394
2026-01-01 07:16:17.42	65.43	24.73	-53.3	-55.1	16.8	0.00e+00	0	35	0	461373440	73	4279
2026-01-01 07:16:18.42	65.19	24.83	-53.3	-55.1	16.7	0.00e+00	0	35	0	462422016	72	4541
2026-01-01 07:16:19.41	64.96	24.92	-52.8	-54.6	17.0	0.00e+00	0	35	0	464519168	72	4264
2026-01-01 07:16:20.41	64.72	25.01	-52.8	-54.6	17.0	0.00e+00	0	35	0	466616320	72	4260
2026-01-01 07:16:21.41	64.48	25.11	-52.8	-54.6	16.9	0.00e+00	0	35	0	468713472	71	4514
2026-01-01 07:16:22.41	64.24	25.20	-52.6	-54.3	17.0	0.00e+00	0	35	0	470810624	71	4382
2026-01-01 07:16:23.41	64.00	25.29	-52.7	-54.5	17.0	0.00e+00	0	35	0	471859200	71	4447
2026-01-01 07:16:24.41	63.76	25.38	-52.9	-54.7	16.9	0.00e+00	0	35	0	473956352	71	4553
2026-01-01 07:16:25.40	63.52	25.47	-53.0	-54.8	16.8	0.00e+00	0	35	0	476053504	71	4641
2026-01-01 07:16:26.40	63.27	25.56	-53.2	-55.1	16.8	0.00e+00	0	35	0	478150656	71	4773
2026-01-01 07:16:27.40	63.02	25.65	-53.2	-55.1	16.8	0.00e+00	0	35	0	479199232	71	4762
2026-01-01 07:16:28.39	62.78	25.74	-53.2	-55.1	16.7	0.00e+00	0	35	0	481296384	71	4796
2026-01-01 07:16:29.40	62.52	25.84	-53.2	-55.2	16.7	0.00e+00	0	35	0	483393536	72	4556
2026-01-01 07:16:30.40	62.27	25.93	-53.6	-55.6	16.3	0.00e+00	0	35	0	485490688	72	4785
2026-01-01 07:16:31.40	62.02	26.02	-53.9	-56.0	16.3	0.00e+00	0	35	0	487587840	72	5022
2026-01-01 07:16:32.41	61.76	26.11	-53.9	-56.1	16.3	0.00e+00	0	35	0	488636416	72	5052
2026-01-01 07:16:33.41	61.50	26.20	-53.8	-56.0	16.3	0.00e+00	0	35	0	490733568	73	4719
2026-01-01 07:16:34.39	61.25	26.28	-53.7	-55.7	16.5	0.00e+00	0	35	0	492830720	73	4579
2026-01-01 07:16:35.39	60.99	26.37	-53.7	-55.7	16.5	0.00e+00	0	35	0	494927872	73	4563
2026-01-01 07:16:36.39	60.73	26.46	-53.8	-55.8	16.5	0.00e+00	0	35	0	497025024	73	4603
2026-01-01 07:16:37.39	60.47	26.55	-53.9	-55.9	16.4	0.00e+00	0	35	0	498073600	73	4691
2026-01-01 07:16:38.39	60.21	26.64	-53.8	-55.8	16.4	0.00e+00	0	35	0	500170752	73	4604
2026-01-01 07:16:39.38	59.94	26.72	-53.6	-55.5	16.5	0.00e+00	0	35	0	502267904	73	4487
2026-01-01 07:16:40.38	59.68	26.81	-53.9	-55.9	16.4	0.00e+00	0	35	0	504365056	73	4690
2026-01-01 07:16:41.38	59.41	26.89	-54.1	-56.3	16.2	0.00e+00	0	35	0	505413632	73	4888
2026-01-01 07:16:42.37	59.14	26.98	-54.4	-56.7	15.9	0.00e+00	0	35	0	507510784	74	4840
2026-01-01 07:16:43.37	58.87	27.06	-54.0	-56.1	16.3	0.00e+00	0	35	0	509607936	74	4540
2026-01-01 07:16:44.37	58.60	27.15	-53.9	-55.9	16.4	0.00e+00	0	35	0	511705088	74	4436
2026-01-01 07:16:45.38	58.32	27.23	-53.7	-55.7	16.5	0.00e+00	0	35	0	513802240	73	4586
2026-01-01 07:16:46.38	58.05	27.32	-53.7	-55.7	16.4	0.00e+00	0	35	0	514850816	73	4585
2026-01-01 07:16:47.38	57.77	27.40	-53.5	-55.4	16.6	0.00e+00	0	35	0	516947968	73	4438
2026-01-01 07:16:48.38	57.49	27.49	-53.7	-55.8	16.4	0.00e+00	0	35	0	519045120	73	4620
2026-01-01 07:16:49.38	57.21	27.57	-53.9	-56.0	16.3	0.00e+00	0	35	0	521142272	73	4748
2026-01-01 07:16:50.37	56.94	27.65	-53.6	-55.6	16.5	0.00e+00	0	35	0	523239424	73	4501
2026-01-01 07:16:51.37	56.65	27.73	-54.2	-56.4	16.0	0.00e+00	0	35	0	524288000	73	4973
2026-01-01 07:16:52.38	56.37	27.81	-54.4	-56.8	15.9	0.00e+00	0	35	0	526385152	74	4893
2026-01-01 07:16:53.38	56.08	27.89	-54.8	-57.2	15.7	0.00e+00	0	35	0	528482304	74	5130
2026-01-01 07:16:54.39	55.79	27.97	-54.8	-57.3	15.7	0.00e+00	0	35	0	530579456	75	4905
2026-01-01 07:16:55.39	55.50	28.05	-54.7	-57.1	15.8	0.00e+00	0	35	0	532676608	75	4778
2026-01-01 07:16:56.39	55.21	28.13	-54.7	-57.0	15.9	0.00e+00	0	35	0	533725184	75	4748
2026-01-01 07:16:57.38	54.93	28.21	-54.8	-57.2	15.8	0.00e+00	0	35	0	535822336	75	4820
2026-01-01 07:16:58.38	54.63	28.29	-55.0	-57.4	15.6	0.00e+00	0	35	0	537919488	75	4967
2026-01-01 07:16:59.38	54.34	28.36	-55.0	-57.4	15.7	0.00e+00	0	35	0	540016640	75	4965
2026-01-01 07:17:00.38	54.04	28.44	-55.0	-57.4	15.7	0.00e+00	0	35	0	541065216	75	4974
2026-01-01 07:17:01.38	53.75	28.51	-54.7	-56.9	15.9	0.00e+00	0	35	0	543162368	75	4702
2026-01-01 07:17:02.38	53.45	28.59	-54.8	-57.2	15.8	0.00e+00	0	35	0	545259520	75	4832
2026-01-01 07:17:03.38	53.15	28.66	-54.6	-56.8	15.9	0.00e+00	0	35	0	547356672	75	4622
2026-01-01 07:17:04.38	52.85	28.74	-54.4	-56.5	16.1	0.00e+00	0	35	0	549453824	75	4485
2026-01-01 07:17:05.38	52.55	28.81	-54.2	-56.4	16.2	0.00e+00	0	35	0	550502400	74	4660
2026-01-01 07:17:06.38	52.24	28.88	-54.2	-56.4	16.2	0.00e+00	0	35	0	552599552	74	4684
2026-01-01 07:17:07.37	51.94	28.95	-54.3	-56.5	16.1	0.00e+00	0	35	0	554696704	74	4746
2026-01-01 07:17:08.37	51.63	29.02	-54.4	-56.7	16.0	0.00e+00	0	35	0	556793856	74	4868
2026-01-01 07:17:09.38	51.32	29.09	-54.5	-56.8	15.9	0.00e+00	0	35	0	557842432	74	4924
2026-01-01 07:17:10.38	51.01	29.16	-54.4	-56.8	15.9	0.00e+00	0	35	0	559939584	74	4880
2026-01-01 07:17:11.38	50.70	29.23	-54.4	-56.8	15.9	0.00e+00	0	35	0	562036736	74	4895
2026-01-01 07:17:12.37	50.40	29.30	-54.5	-56.9	15.8	0.00e+00	0	35	0	564133888	74	4983
2026-01-01 07:17:13.37	50.08	29.36	-54.5	-57.0	15.8	0.00e+00	0	35	0	566231040	74	4993
2026-01-01 07:17:14.37	49.77	29.43	-54.1	-56.3	16.1	0.00e+00	0	35	0	567279616	74	4640
2026-01-01 07:17:15.36	49.46	29.49	-54.0	-56.2	16.2	0.00e+00	0	35	0	569376768	74	4579
2026-01-01 07:17:16.36	49.14	29.56	-54.1	-56.3	16.1	0.00e+00	0	35	0	571473920	74	4631
2026-01-01 07:17:17.36	48.82	29.62	-54.1	-56.3	16.2	0.00e+00	0	35	0	573571072	74	4644
2026-01-01 07:17:18.36	48.50	29.69	-54.3	-56.5	16.1	0.00e+00	0	35	0	575668224	74	4759
2026-01-01 07:17:19.36	48.18	29.75	-54.3	-56.5	16.1	0.00e+00	0	35	0	576716800	74	4750
2026-01-01 07:17:20.36	47.86	29.81	-53.9	-56.0	16.3	0.00e+00	0	35	0	578813952	74	4456
2026-01-01 07:17:21.36	47.54	29.87	-53.7	-55.7	16.5	0.00e+00	0	35	0	580911104	73	4585
2026-01-01 07:17:22.35	47.21	29.93	-53.8	-55.8	16.4	0.00e+00	0	35	0	583008256	73	4632
2026-01-01 07:17:23.35	46.89	29.98	-54.3	-56.5	16.1	0.00e+00	0	35	0	585105408	73	5024
2026-01-01 07:17:24.35	46.56	30.04	-54.5	-56.8	15.9	0.00e+00	0	35	0	586153984	74	4900
2026-01-01 07:17:25.35	46.24	30.10	-54.6	-57.0	15.8	0.00e+00	0	35	0	588251136	74	5012
2026-01-01 07:17:26.35	45.91	30.15	-54.8	-57.4	15.6	0.00e+00	0	35	0	590348288	74	5244
2026-01-01 07:17:27.35	45.58	30.21	-54.5	-56.9	15.8	0.00e+00	0	35	0	592445440	74	4934
2026-01-01 07:17:28.35	45.25	30.26	-54.3	-56.6	16.0	0.00e+00	0	35	0	593494016	74	4781
2026-01-01 07:17:29.36	44.91	30.31	-54.0	-56.1	16.2	0.00e+00	0	35	0	595591168	74	4544
2026-01-01 07:17:30.36	44.58	30.37	-53.8	-55.8	16.4	0.00e+00	0	35	0	597688320	73	4631
2026-01-01 07:17:31.37	44.24	30.42	-53.4	-55.4	16.6	0.00e+00	0	35	0	599785472	73	4409
2026-01-01 07:17:32.37	43.90	30.47	-53.6	-55.6	16.5	0.00e+00	0	35	0	601882624	73	4496
2026-01-01 07:17:33.37	43.57	30.51	-53.6	-55.7	16.5	0.00e+00	0	35	0	602931200	73	4563
2026-01-01 07:17:34.37	43.23	30.56	-53.7	-55.8	16.4	0.00e+00	0	35	0	605028352	73	4613
2026-01-01 07:17:35.36	42.89	30.61	-53.7	-55.8	16.4	0.00e+00	0	35	0	607125504	73	4612
2026-01-01 07:17:36.37	42.55	30.65	-53.7	-55.7	16.5	0.00e+00	0	35	0	609222656	73	4562
2026-01-01 07:17:37.37	42.21	30.70	-53.8	-55.9	16.4	0.00e+00	0	35	0	611319808	73	4656
2026-01-01 07:17:38.37	41.87	30.74	-54.2	-56.4	16.1	0.00e+00	0	35	0	612368384	73	4979
2026-01-01 07:17:39.37	41.53	30.78	-54.8	-57.4	15.6	0.00e+00	0	35	0	614465536	74	5257
2026-01-01 07:17:40.38	41.18	30.82	-55.3	-58.1	15.2	0.00e+00	0	35	0	616562688	75	5400
2026-01-01 07:17:41.38	40.84	30.86	-55.4	-58.2	15.2	0.00e+00	0	35	0	618659840	76	5128
2026-01-01 07:17:42.38	40.49	30.90	-55.3	-58.1	15.2	0.00e+00	0	35	0	620756992	76	5056
2026-01-01 07:17:43.39	40.14	30.94	-55.2	-58.0	15.2	0.00e+00	0	35	0	621805568	76	4997
2026-01-01 07:17:44.39	39.80	30.98	-55.0	-57.6	15.4	0.00e+00	0	35	0	623902720	76	4800
2026-01-01 07:17:45.39	39.45	31.01	-54.8	-57.3	15.7	0.00e+00	0	35	0	625999872	76	4638
2026-01-01 07:17:46.40	39.10	31.05	-55.1	-57.7	15.5	0.00e+00	0	35	0	628097024	76	4818
2026-01-01 07:17:47.40	38.75	31.08	-55.1	-57.7	15.5	0.00e+00	0	35	0	630194176	76	4830
2026-01-01 07:17:48.40	38.40	31.11	-55.3	-58.0	15.3	0.00e+00	0	35	0	631242752	76	4997
2026-01-01 07:17:49.40	38.05	31.14	-55.3	-57.9	15.3	0.00e+00	0	35	0	633339904	76	4970
2026-01-01 07:17:50.40	37.70	31.17	-54.9	-57.4	15.6	0.00e+00	0	35	0	635437056	76	4682
2026-01-01 07:17:51.40	37.35	31.20	-54.1	-56.3	16.1	0.00e+00	0	35	0	637534208	74	4634
2026-01-01 07:17:52.41	36.99	31.23	-53.7	-55.8	16.5	0.00e+00	0	35	0	638582784	74	4353
2026-01-01 07:17:53.41	36.64	31.25	-53.9	-56.0	16.4	0.00e+00	0	35	0	640679936	74	4486
2026-01-01 07:17:54.40	36.29	31.28	-54.5	-56.8	16.0	0.00e+00	0	35	0	642777088	74	4888
2026-01-01 07:17:55.40	35.94	31.30	-54.9	-57.5	15.6	0.00e+00	0	35	0	644874240	74	5303
2026-01-01 07:17:56.40	35.58	31.32	-55.3	-58.1	15.2	0.00e+00	0	35	0	646971392	75	5342
2026-01-01 07:17:57.39	35.23	31.34	-55.1	-57.8	15.4	0.00e+00	0	35	0	648019968	75	5200
2026-01-01 07:17:58.39	34.88	31.36	-54.8	-57.2	15.7	0.00e+00	0	35	0	650117120	75	4868
2026-01-01 07:17:59.38	34.53	31.38	-54.6	-56.9	15.9	0.00e+00	0	35	0	652214272	75	4693
2026-01-01 07:18:00.38	34.17	31.40	-54.8	-57.2	15.7	0.00e+00	0	35	0	654311424	75	4870
2026-01-01 07:18:01.37	33.82	31.41	-54.8	-57.2	15.7	0.00e+00	0	35	0	655360000	75	4860
2026-01-01 07:18:02.37	33.46	31.43	-54.8	-57.2	15.7	0.00e+00	0	35	0	657457152	75	4851
2026-01-01 07:18:03.37	33.11	31.44	-54.7	-57.2	15.8	0.00e+00	0	35	0	659554304	75	4815
2026-01-01 07:18:04.37	32.75	31.45	-54.7	-57.1	15.8	0.00e+00	0	35	0	661651456	75	4782
2026-01-01 07:18:05.45	32.36	31.47	-54.6	-57.0	15.8	0.00e+00	0	35	0	663748608	75	4752
2026-01-01 07:18:06.31	32.05	31.48	-54.6	-57.0	15.9	0.00e+00	0	35	0	664797184	75	4709
2026-01-01 07:18:07.45	31.65	31.49	-54.2	-56.3	16.1	0.00e+00	0	35	0	666894336	75	4387
2026-01-01 07:18:08.31	31.34	31.49	-54.2	-56.3	16.2	0.00e+00	0	35	0	668991488	74	4644
2026-01-01 07:18:09.46	30.93	31.50	-54.4	-56.7	16.0	0.00e+00	0	35	0	671088640	74	4844
2026-01-01 07:18:10.32	30.62	31.50	-55.0	-57.5	15.6	0.00e+00	0	35	0	672137216	75	5017
2026-01-01 07:18:11.46	30.21	31.51	-55.4	-58.1	15.2	0.00e+00	0	35	0	674234368	75	5399
2026-01-01 07:18:12.31	29.91	31.51	-55.6	-58.5	15.1	0.00e+00	0	35	0	676331520	76	5287
2026-01-01 07:18:13.45	29.50	31.51	-55.5	-58.2	15.2	0.00e+00	0	35	0	678428672	76	5120
2026-01-01 07:18:14.31	29.19	31.51	-55.3	-58.0	15.4	0.00e+00	0	35	0	679477248	76	4987
2026-01-01 07:18:15.45	28.78	31.51	-54.8	-57.1	15.8	0.00e+00	0	35	0	682622976	76	4538
2026-01-01 07:18:16.30	28.48	31.51	-54.7	-57.1	15.9	0.00e+00	0	35	0	683671552	75	4781
2026-01-01 07:18:17.45	28.07	31.50	-54.6	-56.9	15.9	0.00e+00	0	35	0	685768704	75	4672
2026-01-01 07:18:18.31	27.76	31.50	-54.4	-56.6	16.1	0.00e+00	0	35	0	687865856	75	4526
2026-01-01 07:18:19.45	27.35	31.49	-54.1	-56.2	16.3	0.00e+00	0	35	0	689963008	74	4566
2026-01-01 07:18:20.30	27.05	31.48	-53.9	-55.9	16.5	0.00e+00	0	35	0	691011584	74	4423
2026-01-01 07:18:21.44	26.64	31.47	-54.1	-56.2	16.3	0.00e+00	0	35	0	693108736	73	4836
2026-01-01 07:18:22.30	26.33	31.46	-54.4	-56.7	16.1	0.00e+00	0	35	0	695205888	74	4831
2026-01-01 07:18:23.44	25.92	31.45	-55.1	-57.6	15.6	0.00e+00	0	35	0	697303040	75	5095
2026-01-01 07:18:24.29	25.62	31.44	-55.5	-58.2	15.3	0.00e+00	0	35	0	698351616	76	5143
2026-01-01 07:18:25.43	25.21	31.42	-55.1	-57.5	15.7	0.00e+00	0	35	0	700448768	76	4742
2026-01-01 07:18:26.29	24.91	31.41	-54.9	-57.2	15.8	0.00e+00	0	35	0	702545920	76	4583
2026-01-01 07:18:27.43	24.50	31.39	-54.7	-56.9	16.0	0.00e+00	0	35	0	704643072	75	4690
2026-01-01 07:18:28.29	24.20	31.37	-54.8	-57.1	16.0	0.00e+00	0	35	0	705691648	75	4789
2026-01-01 07:18:29.42	23.79	31.35	-54.9	-57.2	15.9	0.00e+00	0	35	0	708837376	75	4842
2026-01-01 07:18:30.28	23.49	31.34	-55.1	-57.5	15.7	0.00e+00	0	35	0	709885952	75	5019
2026-01-01 07:18:31.42	23.09	31.31	-55.2	-57.7	15.6	0.00e+00	0	35	0	711983104	75	5159
2026-01-01 07:18:32.27	22.79	31.29	-55.0	-57.5	15.7	0.00e+00	0	35	0	714080256	75	5013
2026-01-01 07:18:33.41	22.38	31.26	-54.7	-56.9	15.9	0.00e+00	0	35	0	716177408	75	4703
2026-01-01 07:18:34.26	22.08	31.24	-54.5	-56.6	16.1	0.00e+00	0	35	0	717225984	75	4543
2026-01-01 07:18:35.41	21.68	31.21	-54.0	-56.1	16.4	0.00e+00	0	35	0	719323136	74	4525
2026-01-01 07:18:36.27	21.38	31.19	-54.2	-56.3	16.3	0.00e+00	0	35	0	721420288	74	4630
2026-01-01 07:18:37.42	20.97	31.16	-55.0	-57.5	15.7	0.00e+00	0	35	0	723517440	75	4996
2026-01-01 07:18:38.28	20.67	31.13	-55.3	-57.9	15.4	0.00e+00	0	35	0	724566016	75	5246
2026-01-01 07:18:39.42	20.27	31.09	-55.3	-58.0	15.3	0.00e+00	0	35	0	726663168	75	5330
2026-01-01 07:18:40.28	19.97	31.07	-55.1	-57.7	15.4	0.00e+00	0	35	0	728760320	75	5151
2026-01-01 07:18:41.42	19.58	31.03	-54.7	-57.1	15.8	0.00e+00	0	35	0	730857472	75	4813
2026-01-01 07:18:42.27	19.28	31.00	-54.2	-56.5	16.0	0.00e+00	0	35	0	732954624	75	4447
2026-01-01 07:18:43.41	18.89	30.96	-53.9	-56.1	16.3	0.00e+00	0	35	0	735051776	74	4501
2026-01-01 07:18:44.27	18.59	30.93	-53.9	-56.1	16.4	0.00e+00	0	35	0	736100352	74	4495
2026-01-01 07:18:45.42	18.19	30.88	-54.2	-56.5	16.1	0.00e+00	0	35	0	738197504	74	4744
2026-01-01 07:18:46.28	17.90	30.85	-54.4	-56.8	16.0	0.00e+00	0	35	0	740294656	74	4895
2026-01-01 07:18:47.43	17.50	30.80	-54.2	-56.4	16.2	0.00e+00	0	35	0	742391808	74	4681
2026-01-01 07:18:48.29	17.21	30.77	-54.1	-56.3	16.2	0.00e+00	0	35	0	743440384	74	4636
2026-01-01 07:18:49.43	16.82	30.72	-54.2	-56.5	16.1	0.00e+00	0	35	0	745537536	74	4725
2026-01-01 07:18:50.28	16.53	30.68	-54.1	-56.3	16.2	0.00e+00	0	35	0	747634688	74	4628
2026-01-01 07:18:51.42	16.14	30.63	-54.7	-57.1	15.8	0.00e+00	0	35	0	749731840	74	5099
2026-01-01 07:18:52.27	15.85	30.59	-54.9	-57.5	15.6	0.00e+00	0	35	0	750780416	75	5014
2026-01-01 07:18:53.41	15.47	30.54	-55.0	-57.5	15.7	0.00e+00	0	35	0	752877568	75	5012
2026-01-01 07:18:54.27	15.18	30.50	-55.1	-57.7	15.5	0.00e+00	0	35	0	754974720	75	5108
2026-01-01 07:18:55.40	14.80	30.44	-54.9	-57.4	15.7	0.00e+00	0	35	0	757071872	75	4951
2026-01-01 07:18:56.25	14.51	30.40	-54.8	-57.2	15.7	0.00e+00	0	35	0	758120448	75	4855
2026-01-01 07:18:57.40	14.13	30.34	-54.8	-57.3	15.8	0.00e+00	0	35	0	761266176	75	4886
2026-01-01 07:18:58.26	13.84	30.30	-54.6	-57.0	15.9	0.00e+00	0	35	0	762314752	75	4713
2026-01-01 07:18:59.39	13.47	30.24	-54.7	-57.0	15.9	0.00e+00	0	35	0	764411904	75	4727
2026-01-01 07:19:00.24	13.19	30.19	-54.8	-57.2	15.8	0.00e+00	0	35	0	766509056	75	4823
2026-01-01 07:19:01.38	12.81	30.13	-54.7	-57.1	15.9	0.00e+00	0	35	0	768606208	75	4764
2026-01-01 07:19:02.24	12.53	30.08	-54.7	-57.0	15.9	0.00e+00	0	35	0	769654784	75	4738
2026-01-01 07:19:03.38	12.16	30.02	-54.4	-56.6	16.1	0.00e+00	0	35	0	771751936	75	4543
2026-01-01 07:19:04.24	11.88	29.97	-54.6	-56.8	16.1	0.00e+00	0	35	0	773849088	75	4646
2026-01-01 07:19:05.38	11.51	29.90	-54.5	-56.8	16.1	0.00e+00	0	35	0	775946240	75	4615
2026-01-01 07:19:06.24	11.23	29.85	-54.9	-57.3	15.9	0.00e+00	0	35	0	776994816	75	4877
2026-01-01 07:19:07.38	10.86	29.78	-55.4	-58.0	15.4	0.00e+00	0	35	0	779091968	75	5331
2026-01-01 07:19:08.24	10.59	29.73	-55.8	-58.5	15.1	0.00e+00	0	35	0	781189120	76	5326
2026-01-01 07:19:09.38	10.22	29.66	-55.7	-58.4	15.2	0.00e+00	0	35	0	783286272	76	5232
2026-01-01 07:19:10.23	9.95	29.61	-55.6	-58.3	15.2	0.00e+00	0	35	0	784334848	77	4911
2026-01-01 07:19:11.37	9.59	29.53	-55.8	-58.6	15.1	0.00e+00	0	35	0	787480576	77	5048
2026-01-01 07:19:12.22	9.32	29.48	-56.0	-58.9	14.8	0.00e+00	0	35	0	788529152	77	5256
2026-01-01 07:19:13.37	8.96	29.40	-56.2	-59.4	14.4	0.00e+00	0	35	0	790626304	77	5570
2026-01-01 07:19:14.22	8.69	29.35	-56.2	-59.4	14.5	0.00e+00	0	35	0	792723456	77	5551
2026-01-01 07:19:15.36	8.34	29.27	-56.2	-59.3	14.6	0.00e+00	0	35	0	794820608	78	5171
2026-01-01 07:19:16.22	8.07	29.21	-56.2	-59.3	14.5	0.00e+00	0	35	0	795869184	78	5198
2026-01-01 07:19:17.36	7.72	29.13	-56.2	-59.4	14.5	0.00e+00	0	35	0	797966336	78	5243
2026-01-01 07:19:18.21	7.45	29.08	-56.2	-59.3	14.6	0.00e+00	0	35	0	800063488	78	5191
2026-01-01 07:19:19.36	7.10	29.00	-56.0	-58.9	14.8	0.00e+00	0	35	0	802160640	78	4975
2026-01-01 07:19:20.21	6.84	28.94	-55.9	-58.8	14.8	0.00e+00	0	35	0	803209216	77	5186
2026-01-01 07:19:21.35	6.49	28.85	-56.2	-59.4	14.5	0.00e+00	0	35	0	805306368	77	5588
2026-01-01 07:19:22.21	6.23	28.79	-56.1	-59.3	14.3	0.00e+00	0	35	0	807403520	77	5504
2026-01-01 07:19:23.35	5.89	28.71	-56.0	-59.1	14.6	0.00e+00	0	35	0	809500672	77	5400
2026-01-01 07:19:24.20	5.64	28.65	-55.7	-58.5	15.1	0.00e+00	0	35	0	810549248	77	5005
2026-01-01 07:19:25.34	5.30	28.56	-55.3	-57.9	15.5	0.00e+00	0	35	0	812646400	77	4701
2026-01-01 07:19:26.19	5.04	28.50	-55.2	-57.7	15.6	0.00e+00	0	35	0	814743552	76	4839
2026-01-01 07:19:27.33	4.71	28.41	-54.2	-56.4	16.2	0.00e+00	0	35	0	816840704	75	4434
2026-01-01 07:19:28.17	4.46	28.35	-53.6	-55.6	16.5	0.00e+00	0	35	0	818937856	73	4532
2026-01-01 07:19:29.32	4.12	28.26	-53.1	-55.0	16.8	0.00e+00	0	35	0	821035008	72	4479
2026-01-01 07:19:30.17	3.87	28.19	-53.0	-54.8	16.8	0.00e+00	0	35	0	822083584	72	4378
2026-01-01 07:19:31.32	3.54	28.10	-53.3	-55.2	16.7	0.00e+00	0	35	0	824180736	72	4587
2026-01-01 07:19:32.17	3.29	28.04	-53.3	-55.3	16.7	0.00e+00	0	35	0	826277888	72	4623
2026-01-01 07:19:33.31	2.97	27.95	-53.3	-55.2	16.7	0.00e+00	0	35	0	828375040	72	4589
2026-01-01 07:19:34.16	2.72	27.88	-53.1	-55.0	16.9	0.00e+00	0	35	0	829423616	72	4454
2026-01-01 07:19:35.30	2.40	27.79	-53.3	-55.2	16.7	0.00e+00	0	35	0	831520768	72	4562
2026-01-01 07:19:36.16	2.16	27.72	-53.9	-56.0	16.4	0.00e+00	0	35	0	833617920	72	5003
2026-01-01 07:19:37.31	1.83	27.62	-54.5	-56.9	15.9	0.00e+00	0	35	0	835715072	74	4962
2026-01-01 07:19:38.17	1.59	27.55	-54.5	-56.8	15.9	0.00e+00	0	35	0	836763648	74	4895
2026-01-01 07:19:39.31	1.27	27.46	-54.3	-56.5	16.2	0.00e+00	0	35	0	838860800	74	4711
2026-01-01 07:19:40.17	1.03	27.39	-53.9	-56.0	16.4	0.00e+00	0	35	0	840957952	74	4458
2026-01-01 07:19:41.32	0.72	27.29	-53.9	-55.9	16.5	0.00e+00	0	35	0	843055104	74	4429
2026-01-01 07:19:42.18	0.48	27.22	-54.2	-56.3	16.3	0.00e+00	0	35	0	845152256	74	4625
2026-01-01 07:19:43.32	0.17	27.12	-55.1	-57.7	15.6	0.00e+00	0	35	0	847249408	75	5107
2026-01-01 07:19:44.17	359.94	27.05	-56.1	-59.2	14.7	0.00e+00	0	35	0	848297984	77	5416
2026-01-01 07:19:45.30	359.64	26.95	-56.2	-59.4	14.7	0.00e+00	0	35	0	850395136	77	5539
2026-01-01 07:19:46.15	359.41	26.88	-56.3	-59.5	14.7	0.00e+00	0	35	0	852492288	77	5620
2026-01-01 07:19:47.28	359.11	26.78	-56.1	-59.1	14.9	0.00e+00	0	35	0	854589440	77	5374
2026-01-01 07:19:48.14	358.88	26.71	-56.0	-58.8	15.0	0.00e+00	0	35	0	855638016	77	5212
2026-01-01 07:19:49.28	358.58	26.61	-55.3	-57.7	15.7	0.00e+00	0	35	0	857735168	77	4563
2026-01-01 07:19:50.13	358.35	26.54	-55.2	-57.6	15.8	0.00e+00	0	35	0	859832320	76	4766
2026-01-01 07:19:51.28	358.05	26.43	-54.5	-56.7	16.2	0.00e+00	0	35	0	861929472	75	4553
2026-01-01 07:19:52.13	357.83	26.36	-54.6	-56.8	16.1	0.00e+00	0	35	0	862978048	75	4651
2026-01-01 07:19:53.28	357.53	26.26	-54.3	-56.4	16.3	0.00e+00	0	35	0	865075200	75	4411
2026-01-01 07:19:54.13	357.32	26.18	-54.2	-56.3	16.4	0.00e+00	0	35	0	867172352	74	4634
2026-01-01 07:19:55.27	357.03	26.08	-54.1	-56.2	16.4	0.00e+00	0	35	0	869269504	74	4564
2026-01-01 07:19:56.13	356.81	26.00	-53.6	-55.5	16.7	0.00e+00	0	35	0	871366656	73	4448
2026-01-01 07:19:57.27	356.52	25.90	-52.9	-54.6	17.0	0.00e+00	0	35	0	873463808	72	4274
2026-01-01 07:19:58.13	356.30	25.82	-53.0	-54.7	17.0	0.00e+00	0	35	0	874512384	72	4333
2026-01-01 07:19:59.27	356.02	25.72	-52.8	-54.6	17.1	0.00e+00	0	35	0	876609536	72	4251
2026-01-01 07:20:00.13	355.81	25.64	-52.9	-54.6	17.1	0.00e+00	0	35	0	878706688	72	4270
2026-01-01 07:20:01.27	355.52	25.54	-53.0	-54.8	17.0	0.00e+00	0	35	0	880803840	72	4378
2026-01-01 07:20:02.12	355.32	25.46	-52.9	-54.7	17.0	0.00e+00	0	35	0	881852416	72	4314
2026-01-01 07:20:03.26	355.04	25.36	-53.1	-54.9	16.9	0.00e+00	0	35	0	883949568	72	4437
2026-01-01 07:20:04.11	354.83	25.28	-53.0	-54.7	16.9	0.00e+00	0	35	0	886046720	72	4340
2026-01-01 07:20:05.26	354.55	25.17	-53.0	-54.8	17.0	0.00e+00	0	35	0	888143872	72	4350
2026-01-01 07:20:06.12	354.35	25.09	-53.2	-55.1	16.9	0.00e+00	0	35	0	889192448	72	4497
2026-01-01 07:20:07.27	354.07	24.99	-53.4	-55.3	16.7	0.00e+00	0	35	0	892338176	72	4630
2026-01-01 07:20:08.12	353.87	24.91	-53.4	-55.3	16.7	0.00e+00	0	35	0	893386752	72	4648
2026-01-01 07:20:09.25	353.61	24.80	-53.7	-55.7	16.6	0.00e+00	0	35	0	895483904	72	4824
2026-01-01 07:20:10.11	353.41	24.72	-53.6	-55.6	16.6	0.00e+00	0	35	0	897581056	72	4788
2026-01-01 07:20:11.24	353.14	24.62	-53.6	-55.6	16.6	0.00e+00	0	35	0	899678208	72	4772
2026-01-01 07:20:12.09	352.95	24.54	-53.5	-55.5	16.6	0.00e+00	0	35	0	900726784	72	4709
2026-01-01 07:20:13.23	352.69	24.43	-53.4	-55.3	16.8	0.00e+00	0	35	0	902823936	72	4625
2026-01-01 07:20:14.08	352.49	24.35	-53.4	-55.3	16.7	0.00e+00	0	35	0	904921088	72	4619
2026-01-01 07:20:15.22	352.23	24.25	-53.3	-55.2	16.8	0.00e+00	0	35	0	907018240	72	4574
2026-01-01 07:20:16.07	352.04	24.17	-53.4	-55.3	16.8	0.00e+00	0	35	0	908066816	72	4632
2026-01-01 07:20:17.21	351.78	24.06	-53.2	-55.0	16.9	0.00e+00	0	35	0	910163968	72	4465
2026-01-01 07:20:18.07	351.59	23.98	-53.1	-54.9	16.9	0.00e+00	0	35	0	912261120	72	4393
2026-01-01 07:20:19.22	351.34	23.87	-52.7	-54.4	17.2	0.00e+00	0	35	0	914358272	71	4409
2026-01-01 07:20:20.07	351.15	23.79	-52.5	-54.1	17.2	0.00e+00	0	35	0	915406848	71	4264
2026-01-01 07:20:21.20	350.90	23.68	-52.2	-53.8	17.3	0.00e+00	0	35	0	917504000	70	4348
2026-01-01 07:20:22.06	350.72	23.60	-51.8	-53.3	17.5	0.00e+00	0	35	0	919601152	70	4127
2026-01-01 07:20:23.21	350.47	23.49	-51.6	-53.1	17.6	0.00e+00	0	35	0	921698304	69	4279
2026-01-01 07:20:24.07	350.28	23.41	-51.6	-53.1	17.6	0.00e+00	0	35	0	923795456	69	4271
2026-01-01 07:20:25.21	350.04	23.30	-51.8	-53.3	17.5	0.00e+00	0	35	0	925892608	69	4356
2026-01-01 07:20:26.06	349.86	23.22	-52.0	-53.6	17.4	0.00e+00	0	35	0	926941184	69	4515
2026-01-01 07:20:27.20	349.62	23.11	-52.5	-54.1	17.3	0.00e+00	0	35	0	929038336	70	4525
2026-01-01 07:20:28.06	349.44	23.03	-52.7	-54.4	17.2	0.00e+00	0	35	0	931135488	70	4654
2026-01-01 07:20:29.20	349.20	22.92	-53.0	-54.8	17.0	0.00e+00	0	35	0	933232640	71	4632
2026-01-01 07:20:30.06	349.02	22.84	-52.9	-54.6	17.0	0.00e+00	0	35	0	934281216	71	4538
2026-01-01 07:20:31.20	348.79	22.73	-52.7	-54.4	17.1	0.00e+00	0	35	0	936378368	71	4430
2026-01-01 07:20:32.06	348.61	22.65	-52.5	-54.1	17.3	0.00e+00	0	35	0	938475520	71	4286
2026-01-01 07:20:33.20	348.38	22.54	-52.6	-54.3	17.2	0.00e+00	0	35	0	940572672	71	4361
2026-01-01 07:20:34.06	348.21	22.45	-52.6	-54.3	17.2	0.00e+00	0	35	0	941621248	71	4351
2026-01-01 07:20:35.20	347.98	22.35	-52.7	-54.3	17.2	0.00e+00	0	35	0	943718400	71	4382
2026-01-01 07:20:36.06	347.81	22.26	-52.8	-54.5	17.1	0.00e+00	0	35	0	945815552	71	4485
2026-01-01 07:20:37.20	347.58	22.15	-52.9	-54.6	17.1	0.00e+00	0	35	0	947912704	71	4516
2026-01-01 07:20:38.06	347.41	22.07	-52.8	-54.5	17.1	0.00e+00	0	35	0	948961280	71	4469
2026-01-01 07:20:39.20	347.19	21.96	-52.7	-54.3	17.2	0.00e+00	0	35	0	952107008	71	4384
2026-01-01 07:20:40.06	347.02	21.88	-52.8	-54.5	17.1	0.00e+00	0	35	0	953155584	71	4481
2026-01-01 07:20:41.21	346.80	21.77	-52.9	-54.6	17.0	0.00e+00	0	35	0	955252736	71	4526
2026-01-01 07:20:42.07	346.63	21.69	-53.1	-54.9	16.9	0.00e+00	0	35	0	957349888	71	4655
2026-01-01 07:20:43.21	346.42	21.58	-53.1	-54.9	16.9	0.00e+00	0	35	0	959447040	71	4671
2026-01-01 07:20:44.07	346.25	21.50	-53.0	-54.8	17.0	0.00e+00	0	35	0	960495616	71	4628
2026-01-01 07:20:45.20	346.04	21.39	-52.8	-54.6	17.1	0.00e+00	0	35	0	962592768	71	4495
2026-01-01 07:20:46.05	345.88	21.31	-52.7	-54.4	17.2	0.00e+00	0	35	0	964689920	71	4411
2026-01-01 07:20:47.20	345.67	21.20	-52.6	-54.3	17.2	0.00e+00	0	35	0	966787072	71	4349
2026-01-01 07:20:48.06	345.51	21.12	-52.5	-54.1	17.3	0.00e+00	0	35	0	967835648	71	4280
2026-01-01 07:20:49.20	345.30	21.01	-52.5	-54.2	17.3	0.00e+00	0	35	0	969932800	71	4303
2026-01-01 07:20:50.05	345.14	20.93	-52.7	-54.3	17.2	0.00e+00	0	35	0	972029952	71	4387
2026-01-01 07:20:51.19	344.93	20.82	-52.9	-54.7	17.0	0.00e+00	0	35	0	974127104	71	4562
2026-01-01 07:20:52.06	344.78	20.73	-53.1	-54.8	17.0	0.00e+00	0	35	0	976224256	71	4648
2026-01-01 07:20:53.19	344.57	20.63	-53.6	-55.4	16.7	0.00e+00	0	35	0	978321408	72	4701
2026-01-01 07:20:54.05	344.42	20.54	-53.5	-55.3	16.8	0.00e+00	0	35	0	979369984	72	4632
2026-01-01 07:20:55.19	344.22	20.44	-53.4	-55.3	16.8	0.00e+00	0	35	0	981467136	72	4624
2026-01-01 07:20:56.04	344.07	20.36	-53.4	-55.3	16.8	0.00e+00	0	35	0	983564288	72	4599
2026-01-01 07:20:57.18	343.87	20.25	-53.5	-55.3	16.8	0.00e+00	0	35	0	985661440	72	4636
2026-01-01 07:20:58.03	343.72	20.17	-53.4	-55.2	16.9	0.00e+00	0	35	0	986710016	72	4551
2026-01-01 07:20:59.17	343.53	20.06	-53.1	-54.8	17.0	0.00e+00	0	35	0	988807168	72	4364
2026-01-01 07:21:00.03	343.38	19.98	-53.0	-54.7	17.1	0.00e+00	0	35	0	990904320	72	4296
2026-01-01 07:21:01.18	343.18	19.87	-52.6	-54.3	17.2	0.00e+00	0	35	0	993001472	71	4355
2026-01-01 07:21:02.04	343.04	19.79	-52.8	-54.4	17.2	0.00e+00	0	35	0	994050048	71	4422
2026-01-01 07:21:03.17	342.85	19.68	-52.8	-54.4	17.1	0.00e+00	0	35	0	996147200	71	4439
2026-01-01 07:21:04.03	342.70	19.60	-53.1	-54.9	17.0	0.00e+00	0	35	0	998244352	71	4664
2026-01-01 07:21:05.17	342.51	19.49	-53.2	-55.0	16.9	0.00e+00	0	35	0	1000341504	71	4735
2026-01-01 07:21:06.03	342.37	19.41	-53.5	-55.3	16.8	0.00e+00	0	35	0	1002438656	72	4646
2026-01-01 07:21:07.17	342.18	19.30	-53.9	-55.8	16.5	0.00e+00	0	35	0	1004535808	72	4914
2026-01-01 07:21:08.03	342.04	19.22	-54.1	-56.2	16.4	0.00e+00	0	35	0	1005584384	73	4821
2026-01-01 07:21:09.17	341.86	19.12	-54.3	-56.4	16.3	0.00e+00	0	35	0	1007681536	74	4701
2026-01-01 07:21:10.03	341.72	19.03	-54.4	-56.5	16.2	0.00e+00	0	35	0	1009778688	74	4748
2026-01-01 07:21:11.17	341.54	18.93	-54.4	-56.6	16.2	0.00e+00	0	35	0	1011875840	74	4762
2026-01-01 07:21:12.02	341.40	18.85	-54.1	-56.1	16.5	0.00e+00	0	35	0	1012924416	74	4514
2026-01-01 07:21:13.15	341.22	18.74	-53.9	-55.9	16.6	0.00e+00	0	35	0	1015021568	74	4415
2026-01-01 07:21:14.01	341.09	18.66	-53.7	-55.6	16.6	0.00e+00	0	35	0	1017118720	73	4502
2026-01-01 07:21:15.14	340.91	18.56	-53.4	-55.3	16.8	0.00e+00	0	35	0	1019215872	73	4348
2026-01-01 07:21:16.00	340.78	18.48	-53.4	-55.3	16.8	0.00e+00	0	35	0	1020264448	73	4348
2026-01-01 07:21:17.14	340.60	18.37	-53.4	-55.2	16.9	0.00e+00	0	35	0	1022361600	73	4312
2026-01-01 07:21:18.00	340.47	18.29	-53.3	-55.1	16.8	0.00e+00	0	35	0	1024458752	73	4287
2026-01-01 07:21:19.13	340.30	18.19	-53.4	-55.3	16.8	0.00e+00	0	35	0	1026555904	73	4358
2026-01-01 07:21:19.99	340.17	18.11	-53.9	-55.9	16.5	0.00e+00	0	35	0	1027604480	73	4679
2026-01-01 07:21:21.13	340.00	18.00	-54.0	-56.1	16.4	0.00e+00	0	35	0	1030750208	73	4762
2026-01-01 07:21:21.99	339.87	17.92	-54.1	-56.1	16.4	0.00e+00	0	35	0	1031798784	73	4797
2026-01-01 07:21:23.12	339.70	17.82	-54.1	-56.2	16.3	0.00e+00	0	35	0	1033895936	73	4843
2026-01-01 07:21:23.97	339.57	17.74	-54.0	-56.1	16.3	0.00e+00	0	35	0	1035993088	73	4796
2026-01-01 07:21:25.11	339.41	17.64	-53.8	-55.8	16.5	0.00e+00	0	35	0	1038090240	73	4628
2026-01-01 07:21:25.96	339.28	17.56	-53.7	-55.6	16.6	0.00e+00	0	35	0	1039138816	73	4537
2026-01-01 07:21:27.10	339.12	17.45	-53.6	-55.5	16.6	0.00e+00	0	35	0	1041235968	73	4479
2026-01-01 07:21:27.96	338.99	17.38	-53.3	-55.1	16.8	0.00e+00	0	35	0	1043333120	73	4287
2026-01-01 07:21:29.11	338.83	17.27	-53.2	-55.1	16.8	0.00e+00	0	35	0	1045430272	73	4243
2026-01-01 07:21:29.96	338.71	17.19	-53.0	-54.7	17.0	0.00e+00	0	35	0	1046478848	72	4339
2026-01-01 07:21:31.10	338.55	17.09	-53.0	-54.8	16.9	0.00e+00	0	35	0	1048576000	72	4371
2026-01-01 07:21:31.96	338.43	17.01	-53.0	-54.7	17.0	0.00e+00	0	35	0	1050673152	72	4331
2026-01-01 07:21:33.10	338.27	16.91	-53.2	-54.9	16.9	0.00e+00	0	35	0	1052770304	72	4439
2026-01-01 07:21:33.96	338.15	16.83	-53.2	-54.9	16.9	0.00e+00	0	35	0	1053818880	72	4437
2026-01-01 07:21:35.09	337.99	16.73	-53.3	-55.1	16.9	0.00e+00	0	35	0	1055916032	72	4512
2026-01-01 07:21:35.95	337.87	16.65	-53.5	-55.3	16.7	0.00e+00	0	35	0	1058013184	72	4631
2026-01-01 07:21:37.09	337.72	16.55	-53.5	-55.4	16.7	0.00e+00	0	35	0	1060110336	72	4656
2026-01-01 07:21:37.94	337.60	16.47	-53.8	-55.7	16.6	0.00e+00	0	35	0	1062207488	72	4828
2026-01-01 07:21:39.08	337.45	16.37	-53.7	-55.7	16.6	0.00e+00	0	35	0	1064304640	72	4823
2026-01-01 07:21:39.93	337.34	16.30	-53.8	-55.8	16.5	0.00e+00	0	35	0	1065353216	72	4900
2026-01-01 07:21:41.07	337.18	16.19	-53.7	-55.6	16.6	0.00e+00	0	35	0	1067450368	73	4512
2026-01-01 07:21:41.92	337.07	16.12	-53.6	-55.5	16.7	0.00e+00	0	35	0	1069547520	73	4459
2026-01-01 07:21:43.07	336.92	16.02	-53.5	-55.4	16.7	0.00e+00	0	35	0	1071644672	73	4396
2026-01-01 07:21:43.92	336.81	15.94	-53.2	-55.0	16.9	0.00e+00	0	35	0	1072693248	73	4236
2026-01-01 07:21:45.06	336.66	15.84	-53.3	-55.1	16.8	0.00e+00	0	35	0	1074790400	73	4278
2026-01-01 07:21:45.91	336.55	15.76	-53.3	-55.1	16.8	0.00e+00	0	35	0	1076887552	73	4278
2026-01-01 07:21:47.06	336.40	15.66	-53.5	-55.4	16.7	0.00e+00	0	35	0	1078984704	73	4393
2026-01-01 07:21:47.91	336.30	15.59	-53.5	-55.4	16.7	0.00e+00	0	35	0	1080033280	73	4407
2026-01-01 07:21:49.06	336.15	15.49	-54.0	-56.1	16.3	0.00e+00	0	35	0	1082130432	73	4772
2026-01-01 07:21:49.91	336.04	15.41	-54.3	-56.5	16.1	0.00e+00	0	35	0	1084227584	73	5022
2026-01-01 07:21:51.05	335.90	15.31	-54.6	-56.8	16.0	0.00e+00	0	35	0	1086324736	74	4918
2026-01-01 07:21:51.90	335.79	15.24	-55.1	-57.6	15.5	0.00e+00	0	35	0	1088421888	75	5071
2026-01-01 07:21:53.04	335.65	15.14	-55.4	-58.0	15.2	0.00e+00	0	35	0	1090519040	75	5301
2026-01-01 07:21:53.90	335.55	15.06	-55.5	-58.1	15.2	0.00e+00	0	35	0	1091567616	76	5051
2026-01-01 07:21:55.04	335.41	14.96	-55.4	-57.9	15.3	0.00e+00	0	35	0	1093664768	76	4980
2026-01-01 07:21:55.90	335.30	14.89	-55.3	-57.9	15.4	0.00e+00	0	35	0	1095761920	76	4931
2026-01-01 07:21:57.04	335.16	14.79	-54.9	-57.3	15.8	0.00e+00	0	35	0	1097859072	76	4613
2026-01-01 07:21:57.90	335.06	14.72	-54.4	-56.6	16.0	0.00e+00	0	35	0	1098907648	75	4529
2026-01-01 07:21:59.04	334.93	14.62	-54.2	-56.3	16.3	0.00e+00	0	35	0	1101004800	74	4599
2026-01-01 07:21:59.90	334.82	14.55	-53.8	-55.8	16.5	0.00e+00	0	35	0	1103101952	74	4351
2026-01-01 07:22:01.03	334.69	14.45	-53.5	-55.4	16.7	0.00e+00	0	35	0	1105199104	73	4410
2026-01-01 07:22:01.88	334.59	14.38	-53.5	-55.4	16.7	0.00e+00	0	35	0	1106247680	73	4430
2026-01-01 07:22:03.03	334.46	14.28	-53.3	-55.1	16.8	0.00e+00	0	35	0	1108344832	73	4278
2026-01-01 07:22:03.89	334.36	14.20	-53.3	-55.1	16.8	0.00e+00	0	35	0	1110441984	73	4283
2026-01-01 07:22:05.02	334.23	14.11	-53.5	-55.4	16.6	0.00e+00	0	35	0	1112539136	73	4424
2026-01-01 07:22:05.88	334.13	14.03	-53.8	-55.8	16.5	0.00e+00	0	35	0	1114636288	73	4607
2026-01-01 07:22:07.02	334.00	13.94	-54.0	-56.0	16.3	0.00e+00	0	35	0	1116733440	73	4759
2026-01-01 07:22:07.88	333.90	13.87	-54.3	-56.5	16.1	0.00e+00	0	35	0	1117782016	73	5006
2026-01-01 07:22:09.03	333.77	13.77	-54.5	-56.8	16.0	0.00e+00	0	35	0	1119879168	74	4871
2026-01-01 07:22:09.88	333.68	13.70	-54.7	-57.0	15.8	0.00e+00	0	35	0	1121976320	74	5010
2026-01-01 07:22:11.03	333.55	13.60	-54.9	-57.3	15.7	0.00e+00	0	35	0	1124073472	75	4902
2026-01-01 07:22:11.89	333.45	13.53	-55.1	-57.6	15.5	0.00e+00	0	35	0	1125122048	75	5073
2026-01-01 07:22:13.03	333.33	13.43	-55.2	-57.7	15.4	0.00e+00	0	35	0	1127219200	75	5153
2026-01-01 07:22:13.89	333.23	13.36	-55.0	-57.5	15.6	0.00e+00	0	35	0	1129316352	75	5021
2026-01-01 07:22:15.02	333.11	13.27	-55.1	-57.6	15.5	0.00e+00	0	35	0	1131413504	75	5067
2026-01-01 07:22:15.87	333.02	13.20	-55.0	-57.5	15.6	0.00e+00	0	35	0	1132462080	75	5000
2026-01-01 07:22:17.01	332.90	13.10	-54.9	-57.4	15.6	0.00e+00	0	35	0	1135607808	75	4941
2026-01-01 07:22:17.87	332.80	13.03	-54.9	-57.4	15.6	0.00e+00	0	35	0	1136656384	75	4927
2026-01-01 07:22:19.01	332.68	12.94	-55.1	-57.6	15.5	0.00e+00	0	35	0	1138753536	75	5057
2026-01-01 07:22:19.86	332.59	12.87	-54.9	-57.3	15.6	0.00e+00	0	35	0	1140850688	75	4920
2026-01-01 07:22:21.00	332.47	12.77	-54.9	-57.3	15.7	0.00e+00	0	35	0	1142947840	75	4897
2026-01-01 07:22:21.85	332.39	12.70	-54.9	-57.4	15.6	0.00e+00	0	35	0	1143996416	75	4936
2026-01-01 07:22:22.99	332.27	12.61	-55.0	-57.4	15.6	0.00e+00	0	35	0	1146093568	75	4956
2026-01-01 07:22:23.84	332.18	12.54	-55.0	-57.5	15.5	0.00e+00	0	35	0	1148190720	75	4993
2026-01-01 07:22:24.98	332.06	12.45	-55.1	-57.6	15.4	0.00e+00	0	35	0	1150287872	75	5066
2026-01-01 07:22:25.84	331.97	12.38	-55.0	-57.4	15.5	0.00e+00	0	35	0	1151336448	75	4970
2026-01-01 07:22:26.98	331.86	12.28	-55.0	-57.5	15.5	0.00e+00	0	35	0	1153433600	75	5000
2026-01-01 07:22:27.83	331.77	12.22	-55.2	-57.8	15.3	0.00e+00	0	35	0	1155530752	75	5165
2026-01-01 07:22:28.97	331.66	12.12	-55.2	-57.8	15.3	0.00e+00	0	35	0	1157627904	75	5210
2026-01-01 07:22:29.81	331.57	12.06	-55.3	-58.0	15.2	0.00e+00	0	35	0	1158676480	75	5285
2026-01-01 07:22:30.95	331.46	11.96	-55.3	-58.0	15.2	0.00e+00	0	35	0	1160773632	75	5283
2026-01-01 07:22:31.80	331.38	11.90	-55.4	-58.0	15.3	0.00e+00	0	35	0	1162870784	76	4994
2026-01-01 07:22:32.96	331.26	11.80	-55.4	-58.0	15.2	0.00e+00	0	35	0	1164967936	76	5009
2026-01-01 07:22:33.81	331.18	11.74	-55.4	-58.0	15.2	0.00e+00	0	35	0	1166016512	76	5037
2026-01-01 07:22:34.94	331.07	11.65	-55.3	-57.8	15.3	0.00e+00	0	35	0	1169162240	76	4919
2026-01-01 07:22:35.80	330.99	11.58	-55.3	-57.8	15.3	0.00e+00	0	35	0	1170210816	76	4909
2026-01-01 07:22:36.94	330.88	11.49	-55.3	-57.9	15.3	0.00e+00	0	35	0	1172307968	76	4935
2026-01-01 07:22:37.79	330.80	11.42	-55.0	-57.4	15.6	0.00e+00	0	35	0	1174405120	76	4678
2026-01-01 07:22:38.94	330.69	11.33	-54.9	-57.3	15.6	0.00e+00	0	35	0	1176502272	76	4614
2026-01-01 07:22:39.80	330.61	11.26	-54.5	-56.7	15.9	0.00e+00	0	35	0	1177550848	75	4565
2026-01-01 07:22:40.93	330.50	11.17	-54.3	-56.4	16.1	0.00e+00	0	35	0	1179648000	75	4432
2026-01-01 07:22:41.79	330.42	11.10	-54.2	-56.3	16.2	0.00e+00	0	35	0	1181745152	74	4620
2026-01-01 07:22:42.93	330.32	11.01	-54.1	-56.2	16.3	0.00e+00	0	35	0	1183842304	74	4546
2026-01-01 07:22:43.79	330.24	10.95	-53.9	-55.9	16.4	0.00e+00	0	35	0	1184890880	74	4398
2026-01-01 07:22:44.92	330.13	10.86	-53.9	-55.9	16.4	0.00e+00	0	35	0	1186988032	74	4432
2026-01-01 07:22:45.77	330.06	10.79	-54.0	-56.1	16.3	0.00e+00	0	35	0	1189085184	74	4509
2026-01-01 07:22:46.92	329.95	10.70	-54.1	-56.2	16.2	0.00e+00	0	35	0	1191182336	74	4560
2026-01-01 07:22:47.77	329.87	10.64	-54.2	-56.3	16.2	0.00e+00	0	35	0	1192230912	74	4607
2026-01-01 07:22:48.91	329.77	10.55	-54.3	-56.5	16.0	0.00e+00	0	35	0	1195376640	74	4732
2026-01-01 07:22:49.77	329.70	10.48	-54.5	-56.8	15.9	0.00e+00	0	35	0	1196425216	74	4896
2026-01-01 07:22:50.91	329.59	10.40	-54.6	-56.9	15.8	0.00e+00	0	35	0	1198522368	74	4965
2026-01-01 07:22:51.76	329.52	10.33	-55.0	-57.4	15.5	0.00e+00	0	35	0	1200619520	75	4969
2026-01-01 07:22:52.90	329.42	10.24	-55.2	-57.8	15.4	0.00e+00	0	35	0	1202716672	75	5186
2026-01-01 07:22:53.76	329.34	10.18	-55.4	-58.0	15.2	0.00e+00	0	35	0	1203765248	75	5311
2026-01-01 07:22:54.90	329.25	10.09	-55.5	-58.2	15.1	0.00e+00	0	35	0	1205862400	76	5136
2026-01-01 07:22:55.76	329.17	10.03	-55.6	-58.4	15.0	0.00e+00	0	35	0	1207959552	76	5236
2026-01-01 07:22:56.90	329.07	9.94	-55.8	-58.7	14.8	0.00e+00	0	35	0	1210056704	76	5430
2026-01-01 07:22:57.76	329.00	9.87	-55.9	-58.7	14.7	0.00e+00	0	35	0	1211105280	76	5452
2026-01-01 07:22:58.90	328.90	9.79	-56.0	-58.9	14.6	0.00e+00	0	35	0	1213202432	77	5267
2026-01-01 07:22:59.76	328.83	9.72	-56.0	-58.9	14.6	0.00e+00	0	35	0	1215299584	77	5244
2026-01-01 07:23:00.90	328.73	9.64	-56.0	-59.0	14.5	0.00e+00	0	35	0	1217396736	77	5331
2026-01-01 07:23:01.75	328.66	9.57	-55.9	-58.9	14.6	0.00e+00	0	35	0	1218445312	77	5235
2026-01-01 07:23:02.89	328.57	9.49	-55.9	-58.9	14.6	0.00e+00	0	35	0	1220542464	77	5230
2026-01-01 07:23:03.75	328.50	9.42	-55.9	-58.8	14.6	0.00e+00	0	35	0	1222639616	77	5198
2026-01-01 07:23:04.89	328.40	9.34	-56.0	-59.0	14.5	0.00e+00	0	35	0	1224736768	77	5287
2026-01-01 07:23:05.74	328.33	9.28	-56.0	-59.0	14.4	0.00e+00	0	35	0	1226833920	77	5304
