passes_logs/2026/01/01/R3.2S_Murmansk/R3.2S_Murmansk__20260101_194239_KANOPUS-V-IK_rec.log

#Pass ID: 20260101_194239_KANOPUS-V-IK
#Satellite: KANOPUS-V-IK
#Configuration: KANOPUS-V_8128
#almurnet v.1.7.20251203
#Start time: 2026-01-01 19:42:40

#Version: 2.2.20231116
#Station: R3.2S_Murmansk
#Location: 33.079688 lon 68.888172 lat
#TLE: 1 42825U 17042A   26001.21266440  .00005755  00000+0  24506-3 0  9990
#TLE: 2 42825  97.3692 269.9908 0001826  86.2004 273.9442 15.23363314469954

#Time	Az	El	Level	Level2	SNR	BER	BlckErr	Temp	State	Recorded	gain1	gain2
2026-01-01 19:42:40.43	26.62	2.06	-58.7	-69.5	3.8	7.46e-01	0	31	0	0	86	12384
2026-01-01 19:42:41.44	26.75	2.11	-58.7	-69.4	3.8	7.45e-01	0	32	104	0	85	13100
2026-01-01 19:42:42.44	26.89	2.16	-58.7	-69.5	3.8	7.45e-01	0	31	104	0	85	13126
2026-01-01 19:42:43.45	27.02	2.21	-58.7	-69.5	3.8	7.46e-01	0	31	104	0	85	13179
2026-01-01 19:42:44.46	27.15	2.26	-58.7	-69.4	3.8	7.44e-01	0	32	104	0	85	13091
2026-01-01 19:42:45.46	27.28	2.31	-58.7	-69.5	3.8	7.46e-01	0	32	104	0	85	13144
2026-01-01 19:42:46.47	27.42	2.36	-58.7	-69.4	3.8	7.46e-01	0	32	104	0	85	13104
2026-01-01 19:42:47.47	27.55	2.41	-58.7	-69.5	3.8	7.46e-01	0	32	104	0	85	13115
2026-01-01 19:42:48.48	27.69	2.46	-58.7	-69.4	3.8	7.44e-01	0	32	104	0	85	13091
2026-01-01 19:42:49.49	27.82	2.51	-58.7	-69.4	3.8	7.45e-01	0	32	104	0	85	13091
2026-01-01 19:42:50.49	27.96	2.56	-58.7	-69.5	3.8	7.45e-01	0	32	104	0	85	13124
2026-01-01 19:42:51.50	28.10	2.61	-58.7	-69.4	3.8	7.44e-01	0	32	104	0	85	13052
2026-01-01 19:42:52.50	28.23	2.66	-58.7	-69.4	3.8	7.47e-01	0	32	104	0	85	13101
2026-01-01 19:42:53.51	28.37	2.71	-58.7	-69.4	3.8	7.45e-01	0	32	104	0	85	13092
2026-01-01 19:42:54.52	28.51	2.76	-58.7	-69.4	3.8	7.46e-01	0	32	104	0	85	13108
2026-01-01 19:42:55.53	28.65	2.81	-58.7	-69.4	3.8	7.47e-01	0	32	104	0	85	13077
2026-01-01 19:42:56.53	28.79	2.86	-58.7	-69.4	3.8	7.44e-01	0	32	104	0	85	13108
2026-01-01 19:42:57.54	28.93	2.91	-58.7	-69.4	3.8	7.45e-01	0	32	104	0	85	13087
2026-01-01 19:42:58.55	29.07	2.96	-58.7	-69.4	3.8	7.45e-01	0	32	104	0	85	13077
2026-01-01 19:42:59.56	29.21	3.01	-58.7	-69.4	3.8	7.47e-01	0	32	104	0	85	13101
2026-01-01 19:43:00.56	29.35	3.06	-58.7	-69.5	3.8	7.45e-01	0	32	104	0	85	13124
2026-01-01 19:43:01.57	29.50	3.11	-58.7	-69.4	3.8	7.47e-01	0	32	104	0	85	13091
2026-01-01 19:43:02.58	29.64	3.16	-58.7	-69.4	3.8	7.45e-01	0	32	104	0	85	13079
2026-01-01 19:43:03.59	29.78	3.21	-58.7	-69.5	3.8	7.46e-01	0	32	104	0	85	13121
2026-01-01 19:43:04.60	29.93	3.26	-58.7	-69.4	3.8	7.45e-01	0	32	104	0	85	13102
2026-01-01 19:43:05.59	30.07	3.31	-58.7	-69.5	3.8	7.46e-01	0	32	104	0	85	13120
2026-01-01 19:43:06.60	30.22	3.36	-58.7	-69.5	3.8	7.46e-01	0	32	104	0	85	13135
2026-01-01 19:43:07.60	30.36	3.41	-58.7	-69.4	3.8	7.45e-01	0	32	104	0	85	13042
2026-01-01 19:43:08.60	30.51	3.46	-58.7	-69.4	3.8	7.46e-01	0	32	104	0	85	13088
2026-01-01 19:43:09.61	30.66	3.51	-58.7	-69.4	3.8	7.45e-01	0	32	104	0	85	13083
2026-01-01 19:43:10.62	30.81	3.56	-58.7	-69.4	3.8	7.46e-01	0	32	104	0	85	13072
2026-01-01 19:43:11.62	30.95	3.61	-58.7	-69.4	3.8	7.46e-01	0	32	104	0	85	13106
2026-01-01 19:43:12.63	31.10	3.66	-58.7	-69.4	3.8	7.47e-01	0	32	104	0	85	13080
2026-01-01 19:43:13.64	31.25	3.71	-58.7	-69.4	3.8	7.46e-01	0	32	104	0	85	13083
2026-01-01 19:43:14.64	31.40	3.76	-58.7	-69.4	3.8	7.47e-01	0	32	104	0	85	13047
2026-01-01 19:43:15.65	31.56	3.81	-58.7	-69.4	3.8	7.44e-01	0	32	104	0	85	13037
2026-01-01 19:43:16.65	31.71	3.86	-58.7	-69.4	3.8	7.47e-01	0	32	104	0	85	12999
2026-01-01 19:43:17.66	31.86	3.91	-58.7	-69.5	3.8	7.47e-01	0	32	104	0	85	13110
2026-01-01 19:43:18.67	32.01	3.96	-58.7	-69.4	3.8	7.44e-01	0	32	104	0	85	13087
2026-01-01 19:43:19.67	32.17	4.01	-58.7	-69.5	3.8	7.47e-01	0	32	104	0	85	13114
2026-01-01 19:43:20.68	32.32	4.06	-58.7	-69.4	3.8	7.44e-01	0	32	104	0	85	13072
2026-01-01 19:43:21.69	32.48	4.11	-58.7	-69.4	3.8	7.45e-01	0	32	104	0	85	13077
2026-01-01 19:43:22.69	32.63	4.16	-58.7	-69.4	3.8	7.46e-01	0	32	104	0	85	13023
2026-01-01 19:43:23.70	32.79	4.21	-58.7	-69.4	3.8	7.46e-01	0	32	104	0	85	13083
2026-01-01 19:43:24.70	32.95	4.26	-58.7	-69.4	3.8	7.47e-01	0	32	104	0	85	13063
2026-01-01 19:43:25.71	33.10	4.31	-58.7	-69.4	3.8	7.47e-01	0	32	104	0	85	13095
2026-01-01 19:43:26.72	33.26	4.36	-58.7	-69.4	3.8	7.45e-01	0	33	104	0	85	13080
2026-01-01 19:43:27.72	33.42	4.41	-58.7	-69.4	3.8	7.46e-01	0	33	104	0	85	13047
2026-01-01 19:43:28.73	33.58	4.46	-58.7	-69.4	3.8	7.48e-01	0	32	104	0	85	13060
2026-01-01 19:43:29.74	33.74	4.51	-58.7	-69.4	3.8	7.45e-01	0	32	104	0	85	13040
2026-01-01 19:43:30.74	33.90	4.56	-58.7	-69.4	3.8	7.46e-01	0	32	104	0	85	13064
2026-01-01 19:43:31.75	34.07	4.61	-58.7	-69.5	3.8	7.46e-01	0	32	104	0	85	13118
2026-01-01 19:43:32.75	34.23	4.66	-58.7	-69.4	3.8	7.46e-01	0	33	104	0	85	13096
2026-01-01 19:43:33.75	34.39	4.71	-58.7	-69.4	3.8	7.44e-01	0	33	104	0	85	13078
2026-01-01 19:43:34.76	34.55	4.76	-58.7	-69.4	3.8	7.45e-01	0	33	104	0	85	13048
2026-01-01 19:43:35.77	34.72	4.81	-58.7	-69.4	3.8	7.44e-01	0	33	104	0	85	13098
2026-01-01 19:43:36.78	34.89	4.86	-58.7	-69.4	3.8	7.46e-01	0	33	104	0	85	13091
2026-01-01 19:43:37.78	35.05	4.91	-58.7	-69.4	3.8	7.46e-01	0	33	104	0	85	13061
2026-01-01 19:43:38.79	35.22	4.96	-58.7	-69.4	3.8	7.45e-01	0	33	104	0	85	13047
2026-01-01 19:43:39.80	35.39	5.01	-58.7	-69.4	3.8	7.46e-01	0	33	104	0	85	13018
2026-01-01 19:43:40.80	35.55	5.06	-58.8	-69.5	3.8	7.46e-01	0	33	104	0	85	13213
2026-01-01 19:43:41.81	35.72	5.11	-58.8	-69.5	3.8	7.46e-01	0	33	104	0	85	13227
2026-01-01 19:43:42.82	35.89	5.16	-58.7	-69.4	3.8	7.46e-01	0	33	104	0	85	13061
2026-01-01 19:43:43.82	36.06	5.21	-58.6	-69.3	3.8	7.45e-01	0	33	104	0	85	12869
2026-01-01 19:43:44.83	36.23	5.26	-59.0	-69.7	3.8	7.46e-01	0	33	104	0	85	13470
2026-01-01 19:43:45.83	36.40	5.31	-58.9	-69.6	3.8	7.46e-01	0	33	104	0	85	13303
2026-01-01 19:43:46.83	36.58	5.35	-58.8	-69.5	3.8	7.44e-01	0	33	104	0	85	13168
2026-01-01 19:43:47.83	36.75	5.40	-58.7	-69.4	3.8	7.46e-01	0	33	104	0	85	13031
2026-01-01 19:43:48.83	36.92	5.45	-59.0	-69.7	3.8	7.45e-01	0	33	104	0	85	13448
2026-01-01 19:43:49.84	37.10	5.50	-58.9	-69.6	3.8	7.44e-01	0	33	104	0	85	13359
2026-01-01 19:43:50.84	37.27	5.55	-58.8	-69.5	3.8	7.47e-01	0	33	104	0	85	13247
2026-01-01 19:43:51.84	37.44	5.60	-58.8	-69.4	3.8	7.46e-01	0	33	104	0	85	13090
2026-01-01 19:43:52.85	37.62	5.65	-59.0	-69.7	3.8	7.45e-01	0	33	104	0	85	13538
2026-01-01 19:43:53.85	37.80	5.70	-58.9	-69.7	3.8	7.46e-01	0	33	104	0	86	12689
2026-01-01 19:43:54.86	37.98	5.74	-58.9	-69.6	3.8	7.44e-01	0	33	104	0	86	12526
2026-01-01 19:43:55.87	38.16	5.79	-58.8	-69.5	3.8	7.46e-01	0	33	104	0	86	12436
2026-01-01 19:43:56.87	38.34	5.84	-59.0	-69.8	3.8	7.45e-01	0	33	104	0	86	12834
2026-01-01 19:43:57.88	38.52	5.89	-58.9	-69.7	3.8	7.44e-01	0	33	104	0	86	12699
2026-01-01 19:43:58.88	38.70	5.94	-58.9	-69.6	3.8	7.45e-01	0	33	104	0	86	12609
2026-01-01 19:43:59.89	38.88	5.99	-58.8	-69.5	3.8	7.46e-01	0	33	104	0	86	12470
2026-01-01 19:44:00.89	39.06	6.03	-59.1	-69.8	3.8	7.46e-01	0	33	104	0	86	12857
2026-01-01 19:44:01.90	39.24	6.08	-59.0	-69.7	3.8	7.45e-01	0	33	104	0	86	12719
2026-01-01 19:44:02.90	39.43	6.13	-58.9	-69.6	3.8	7.46e-01	0	33	104	0	86	12645
2026-01-01 19:44:03.90	39.61	6.18	-58.8	-69.5	3.8	7.46e-01	0	33	104	0	86	12517
2026-01-01 19:44:04.91	39.80	6.23	-59.1	-69.8	3.8	7.45e-01	0	33	104	0	86	12870
2026-01-01 19:44:05.91	39.98	6.27	-59.0	-69.7	3.8	7.45e-01	0	33	104	0	86	12767
2026-01-01 19:44:06.91	40.17	6.32	-58.9	-69.7	3.8	7.46e-01	0	33	104	0	86	12684
2026-01-01 19:44:07.91	40.36	6.37	-58.9	-69.6	3.8	7.45e-01	0	33	104	0	86	12542
2026-01-01 19:44:08.91	40.54	6.41	-59.1	-69.8	3.8	7.47e-01	0	33	104	0	86	12879
2026-01-01 19:44:09.92	40.73	6.46	-59.0	-69.7	3.8	7.45e-01	0	33	104	0	86	12778
2026-01-01 19:44:10.93	40.92	6.51	-59.0	-69.6	3.8	7.44e-01	0	33	104	0	86	12663
2026-01-01 19:44:11.94	41.12	6.56	-58.9	-69.6	3.8	7.46e-01	0	33	104	0	86	12533
2026-01-01 19:44:12.95	41.31	6.60	-59.1	-69.8	3.8	7.47e-01	0	33	104	0	86	12890
2026-01-01 19:44:13.95	41.50	6.65	-59.0	-69.7	3.8	7.45e-01	0	33	104	0	86	12725
2026-01-01 19:44:14.95	41.69	6.70	-59.0	-69.7	3.8	7.44e-01	0	33	104	0	86	12713
2026-01-01 19:44:15.96	41.89	6.74	-58.9	-69.6	3.8	7.45e-01	0	33	104	0	86	12571
2026-01-01 19:44:16.96	42.08	6.79	-59.1	-69.8	3.8	7.47e-01	0	33	104	0	86	12929
2026-01-01 19:44:17.96	42.27	6.83	-59.0	-69.7	3.8	7.46e-01	0	33	104	0	86	12772
2026-01-01 19:44:18.97	42.47	6.88	-59.0	-69.7	3.9	7.46e-01	0	33	104	0	86	12751
2026-01-01 19:44:19.97	42.67	6.93	-58.9	-69.7	3.8	7.45e-01	0	33	104	0	86	12670
2026-01-01 19:44:20.98	42.86	6.97	-59.1	-69.9	3.8	7.46e-01	0	33	104	0	86	12961
2026-01-01 19:44:21.98	43.06	7.02	-59.1	-69.7	3.8	7.44e-01	0	33	104	0	86	12777
2026-01-01 19:44:22.99	43.26	7.06	-59.0	-69.7	3.8	7.45e-01	0	33	104	0	86	12750
2026-01-01 19:44:23.99	43.46	7.11	-58.9	-69.7	3.8	7.46e-01	0	33	104	0	86	12677
2026-01-01 19:44:25.00	43.66	7.16	-59.1	-69.8	3.8	7.47e-01	0	33	104	0	86	12937
2026-01-01 19:44:25.99	43.86	7.20	-59.1	-69.8	3.8	7.44e-01	0	33	104	0	86	12836
2026-01-01 19:44:27.00	44.06	7.24	-59.0	-69.7	3.8	7.45e-01	0	33	104	0	86	12734
2026-01-01 19:44:28.00	44.27	7.29	-59.0	-69.6	3.8	7.45e-01	0	33	104	0	86	12660
2026-01-01 19:44:29.01	44.47	7.33	-59.2	-69.8	3.8	7.46e-01	0	33	104	0	86	12945
2026-01-01 19:44:30.01	44.67	7.38	-59.1	-69.8	3.8	7.46e-01	0	33	104	0	86	12879
2026-01-01 19:44:31.02	44.88	7.42	-59.0	-69.7	3.8	7.46e-01	0	33	104	0	86	12797
2026-01-01 19:44:32.03	45.09	7.47	-59.0	-69.7	3.8	7.45e-01	0	33	104	0	86	12755
2026-01-01 19:44:33.03	45.29	7.51	-59.2	-69.9	3.8	7.45e-01	0	33	104	0	86	13041
2026-01-01 19:44:34.03	45.50	7.56	-59.1	-69.8	3.8	7.46e-01	0	33	104	0	86	12871
2026-01-01 19:44:35.04	45.71	7.60	-59.1	-69.7	3.8	7.46e-01	0	33	104	0	86	12810
2026-01-01 19:44:36.04	45.92	7.64	-59.0	-69.7	3.8	7.45e-01	0	33	104	0	86	12748
2026-01-01 19:44:37.05	46.13	7.69	-59.2	-69.9	3.8	7.45e-01	0	33	104	0	86	13061
2026-01-01 19:44:38.06	46.34	7.73	-59.1	-69.8	3.8	7.46e-01	0	33	104	0	86	12932
2026-01-01 19:44:39.06	46.55	7.77	-59.1	-69.8	3.8	7.47e-01	0	33	104	0	86	12835
2026-01-01 19:44:40.07	46.76	7.82	-59.1	-69.7	3.8	7.47e-01	0	33	104	0	86	12802
2026-01-01 19:44:41.07	46.97	7.86	-59.2	-69.9	3.8	7.47e-01	0	33	104	0	86	13091
2026-01-01 19:44:42.08	47.19	7.90	-59.1	-69.9	3.8	7.46e-01	0	33	104	0	86	12972
2026-01-01 19:44:43.08	47.40	7.94	-59.1	-69.8	3.8	7.45e-01	0	33	104	0	86	12854
2026-01-01 19:44:44.09	47.62	7.98	-59.1	-69.7	3.8	7.46e-01	0	33	104	0	86	12795
2026-01-01 19:44:45.09	47.83	8.03	-59.2	-69.9	3.8	7.47e-01	0	33	104	0	86	13017
2026-01-01 19:44:46.09	48.05	8.07	-59.1	-69.8	3.8	7.47e-01	0	33	104	0	86	12933
2026-01-01 19:44:47.10	48.27	8.11	-59.1	-69.8	3.8	7.45e-01	0	33	104	0	86	12938
2026-01-01 19:44:48.10	48.48	8.15	-59.1	-69.8	3.8	7.45e-01	0	33	104	0	86	12849
2026-01-01 19:44:49.10	48.70	8.19	-59.2	-70.0	3.8	7.44e-01	0	33	104	0	86	13149
2026-01-01 19:44:50.11	48.92	8.23	-59.2	-69.9	3.8	7.46e-01	0	33	104	0	86	13015
2026-01-01 19:44:51.12	49.14	8.27	-59.1	-69.9	3.8	7.47e-01	0	33	104	0	86	13030
2026-01-01 19:44:52.11	49.36	8.31	-59.1	-69.8	3.8	7.46e-01	0	33	104	0	86	12879
2026-01-01 19:44:53.12	49.59	8.35	-59.2	-70.0	3.8	7.43e-01	0	33	104	0	86	13136
2026-01-01 19:44:54.12	49.81	8.39	-59.2	-69.9	3.8	7.46e-01	0	33	104	0	86	12983
2026-01-01 19:44:55.13	50.03	8.43	-59.2	-69.9	3.8	7.46e-01	0	33	104	0	86	13012
2026-01-01 19:44:56.14	50.26	8.47	-59.1	-69.9	3.8	7.45e-01	0	33	104	0	86	12960
2026-01-01 19:44:57.15	50.48	8.51	-59.3	-70.0	3.8	7.47e-01	0	33	104	0	86	13160
2026-01-01 19:44:58.15	50.71	8.55	-59.2	-69.9	3.8	7.44e-01	0	33	104	0	86	13057
2026-01-01 19:44:59.16	50.93	8.59	-59.2	-69.9	3.8	7.45e-01	0	33	104	0	86	12998
2026-01-01 19:45:00.16	51.16	8.63	-59.1	-69.8	3.8	7.43e-01	0	33	104	0	86	12935
2026-01-01 19:45:01.17	51.39	8.67	-59.3	-70.0	3.8	7.44e-01	0	33	104	0	86	13170
2026-01-01 19:45:02.18	51.62	8.70	-59.2	-69.9	3.8	7.47e-01	0	33	104	0	86	13060
2026-01-01 19:45:03.18	51.85	8.74	-59.2	-69.9	3.8	7.46e-01	0	33	104	0	86	13028
2026-01-01 19:45:04.19	52.08	8.78	-59.1	-69.8	3.8	7.45e-01	0	33	104	0	86	12890
2026-01-01 19:45:05.19	52.31	8.82	-59.3	-70.0	3.8	7.46e-01	0	33	104	0	86	13181
2026-01-01 19:45:06.19	52.54	8.85	-59.2	-69.9	3.8	7.45e-01	0	33	104	0	86	13107
2026-01-01 19:45:07.20	52.77	8.89	-59.2	-69.9	3.8	7.44e-01	0	33	104	0	86	13013
2026-01-01 19:45:08.21	53.01	8.93	-59.1	-69.9	3.8	7.46e-01	0	33	104	0	86	12962
2026-01-01 19:45:09.21	53.24	8.96	-59.2	-70.0	3.8	7.46e-01	0	33	104	0	86	13161
2026-01-01 19:45:10.22	53.47	9.00	-59.2	-69.9	3.8	7.45e-01	0	33	104	0	86	13091
2026-01-01 19:45:11.23	53.71	9.03	-59.2	-69.9	3.8	7.47e-01	0	33	104	0	86	13074
2026-01-01 19:45:12.23	53.94	9.07	-59.2	-69.9	3.8	7.44e-01	0	33	104	0	86	12964
2026-01-01 19:45:13.24	54.18	9.10	-59.3	-70.0	3.8	7.46e-01	0	33	104	0	86	13229
2026-01-01 19:45:14.25	54.42	9.14	-59.2	-69.9	3.8	7.47e-01	0	33	104	0	86	13034
2026-01-01 19:45:15.25	54.66	9.17	-59.2	-69.9	3.8	7.45e-01	0	33	104	0	86	13019
2026-01-01 19:45:16.26	54.90	9.21	-59.2	-69.9	3.8	7.47e-01	0	33	104	0	86	12966
2026-01-01 19:45:17.26	55.13	9.24	-59.3	-70.0	3.8	7.46e-01	0	33	104	0	86	13208
2026-01-01 19:45:18.26	55.37	9.27	-59.3	-70.0	3.8	7.44e-01	0	33	104	0	86	13145
2026-01-01 19:45:19.26	55.61	9.30	-59.2	-69.9	3.8	7.47e-01	0	33	104	0	86	13066
2026-01-01 19:45:20.26	55.85	9.34	-59.2	-69.9	3.8	7.45e-01	0	33	104	0	86	13033
2026-01-01 19:45:21.26	56.09	9.37	-59.3	-70.0	3.8	7.47e-01	0	33	104	0	86	13186
2026-01-01 19:45:22.27	56.34	9.40	-59.3	-70.0	3.8	7.45e-01	0	33	104	0	86	13166
2026-01-01 19:45:23.27	56.58	9.43	-59.3	-69.9	3.8	7.46e-01	0	33	104	0	86	13051
2026-01-01 19:45:24.28	56.82	9.46	-59.2	-69.9	3.8	7.45e-01	0	33	104	0	86	13107
2026-01-01 19:45:25.28	57.07	9.50	-59.3	-70.0	3.8	7.46e-01	0	33	104	0	86	13251
2026-01-01 19:45:26.28	57.31	9.53	-59.3	-70.0	3.8	7.46e-01	0	33	104	0	86	13164
2026-01-01 19:45:27.29	57.56	9.56	-59.3	-69.9	3.8	7.44e-01	0	33	104	0	86	13107
2026-01-01 19:45:28.30	57.80	9.59	-59.2	-69.9	3.8	7.45e-01	0	33	104	0	86	13032
2026-01-01 19:45:29.30	58.05	9.62	-59.3	-70.0	3.8	7.47e-01	0	33	104	0	86	13235
2026-01-01 19:45:30.31	58.30	9.65	-59.3	-70.0	3.8	7.46e-01	0	33	104	0	86	13197
2026-01-01 19:45:31.32	58.55	9.67	-59.3	-70.0	3.8	7.45e-01	0	33	104	0	86	13111
2026-01-01 19:45:32.33	58.80	9.70	-59.2	-70.0	3.8	7.47e-01	0	33	104	0	86	13112
2026-01-01 19:45:33.33	59.05	9.73	-59.4	-70.1	3.8	7.46e-01	0	33	104	0	86	13293
2026-01-01 19:45:34.33	59.29	9.76	-59.3	-70.0	3.8	7.46e-01	0	33	104	0	86	13162
2026-01-01 19:45:35.34	59.55	9.79	-59.3	-70.0	3.8	7.45e-01	0	33	104	0	86	13160
2026-01-01 19:45:36.34	59.80	9.81	-59.3	-69.9	3.8	7.45e-01	0	33	104	0	86	13104
2026-01-01 19:45:37.35	60.05	9.84	-59.4	-70.1	3.8	7.45e-01	0	33	104	0	86	13274
2026-01-01 19:45:38.36	60.30	9.87	-59.3	-70.0	3.8	7.45e-01	0	34	104	0	86	13135
2026-01-01 19:45:39.36	60.55	9.89	-59.3	-70.0	3.8	7.45e-01	0	33	104	0	86	13158
2026-01-01 19:45:40.37	60.81	9.92	-59.3	-70.0	3.8	7.47e-01	0	33	104	0	86	13134
2026-01-01 19:45:41.37	61.06	9.94	-59.4	-70.1	3.8	7.46e-01	0	33	104	0	86	13272
2026-01-01 19:45:42.38	61.32	9.97	-59.3	-70.0	3.8	7.45e-01	0	33	104	0	86	13181
2026-01-01 19:45:43.38	61.57	9.99	-59.3	-70.0	3.8	7.44e-01	0	33	104	0	86	13144
2026-01-01 19:45:44.39	61.83	10.02	-59.3	-70.0	3.8	7.47e-01	0	33	104	0	86	13126
2026-01-01 19:45:45.40	62.08	10.04	-59.4	-70.1	3.8	7.45e-01	0	33	104	0	86	13279
2026-01-01 19:45:46.40	62.34	10.06	-59.3	-70.0	3.8	7.47e-01	0	33	104	0	86	13202
2026-01-01 19:45:47.41	62.60	10.09	-59.3	-70.0	3.8	7.47e-01	0	33	104	0	86	13175
2026-01-01 19:45:48.41	62.85	10.11	-59.3	-70.0	3.8	7.46e-01	0	33	104	0	86	13169
2026-01-01 19:45:49.41	63.11	10.13	-59.4	-70.1	3.8	7.47e-01	0	33	104	0	86	13306
2026-01-01 19:45:50.42	63.37	10.15	-59.4	-70.1	3.8	7.46e-01	0	33	104	0	86	13272
2026-01-01 19:45:51.43	63.63	10.17	-59.3	-70.0	3.8	7.46e-01	0	33	104	0	86	13162
2026-01-01 19:45:52.43	63.89	10.19	-59.3	-70.0	3.8	7.46e-01	0	33	104	0	86	13210
2026-01-01 19:45:53.43	64.14	10.21	-59.4	-70.1	3.8	7.46e-01	0	33	104	0	86	13325
2026-01-01 19:45:54.43	64.40	10.23	-59.4	-70.0	3.8	7.44e-01	0	33	104	0	86	13218
2026-01-01 19:45:55.44	64.67	10.25	-59.3	-70.0	3.8	7.46e-01	0	33	104	0	86	13214
2026-01-01 19:45:56.44	64.92	10.27	-59.3	-70.0	3.8	7.45e-01	0	33	104	0	86	13212
2026-01-01 19:45:57.45	65.19	10.29	-59.4	-70.1	3.8	7.47e-01	0	34	104	0	86	13323
2026-01-01 19:45:58.45	65.45	10.31	-59.4	-70.1	3.8	7.47e-01	0	33	104	0	86	13307
2026-01-01 19:45:59.45	65.71	10.33	-59.3	-70.0	3.8	7.46e-01	0	33	104	0	86	13143
2026-01-01 19:46:00.46	65.97	10.34	-59.3	-70.0	3.8	7.45e-01	0	33	104	0	86	13243
2026-01-01 19:46:01.47	66.24	10.36	-59.4	-70.1	3.8	7.47e-01	0	33	104	0	86	13386
2026-01-01 19:46:02.47	66.50	10.38	-59.4	-70.1	3.8	7.44e-01	0	33	104	0	86	13279
2026-01-01 19:46:03.47	66.76	10.39	-59.3	-70.0	3.8	7.46e-01	0	33	104	0	86	13211
2026-01-01 19:46:04.48	67.03	10.41	-59.3	-70.0	3.8	7.45e-01	0	33	104	0	86	13255
2026-01-01 19:46:05.49	67.29	10.42	-59.4	-70.1	3.8	7.45e-01	0	33	104	0	86	13325
2026-01-01 19:46:06.49	67.55	10.44	-59.4	-70.1	3.8	7.47e-01	0	33	104	0	86	13315
2026-01-01 19:46:07.50	67.82	10.45	-59.3	-70.0	3.8	7.45e-01	0	33	104	0	86	13224
2026-01-01 19:46:08.51	68.09	10.47	-59.4	-70.1	3.8	7.44e-01	0	33	104	0	86	13289
2026-01-01 19:46:09.51	68.35	10.48	-59.4	-70.1	3.8	7.45e-01	0	33	104	0	86	13399
2026-01-01 19:46:10.51	68.62	10.49	-59.4	-70.1	3.8	7.44e-01	0	34	104	0	86	13336
2026-01-01 19:46:11.52	68.88	10.50	-59.4	-70.1	3.8	7.47e-01	0	33	104	0	86	13266
2026-01-01 19:46:12.53	69.15	10.52	-59.4	-70.1	3.8	7.44e-01	0	33	104	0	86	13296
2026-01-01 19:46:13.53	69.42	10.53	-59.4	-70.2	3.8	7.46e-01	0	34	104	0	86	13421
2026-01-01 19:46:14.54	69.68	10.54	-59.4	-70.1	3.8	7.46e-01	0	34	104	0	86	13345
2026-01-01 19:46:15.54	69.95	10.55	-59.4	-70.1	3.8	7.45e-01	0	33	104	0	86	13345
2026-01-01 19:46:16.54	70.22	10.56	-59.4	-70.1	3.8	7.45e-01	0	33	104	0	86	13332
2026-01-01 19:46:17.54	70.48	10.57	-59.4	-70.1	3.8	7.45e-01	0	33	104	0	86	13350
2026-01-01 19:46:18.54	70.75	10.58	-59.3	-70.1	3.8	7.45e-01	0	34	104	0	86	13313
2026-01-01 19:46:19.55	71.02	10.58	-59.4	-70.1	3.8	7.43e-01	0	33	104	0	86	13278
2026-01-01 19:46:20.55	71.29	10.59	-59.4	-70.1	3.8	7.46e-01	0	33	104	0	86	13326
2026-01-01 19:46:21.55	71.55	10.60	-59.4	-70.1	3.8	7.45e-01	0	33	104	0	86	13411
2026-01-01 19:46:22.56	71.82	10.61	-59.4	-70.1	3.8	7.47e-01	0	33	104	0	86	13342
2026-01-01 19:46:23.56	72.09	10.61	-59.4	-70.1	3.8	7.45e-01	0	33	104	0	86	13358
2026-01-01 19:46:24.57	72.36	10.62	-59.4	-70.1	3.8	7.46e-01	0	34	104	0	86	13318
2026-01-01 19:46:25.58	72.63	10.63	-59.4	-70.2	3.8	7.47e-01	0	33	104	0	86	13446
2026-01-01 19:46:26.58	72.90	10.63	-59.4	-70.1	3.8	7.45e-01	0	33	104	0	86	13406
2026-01-01 19:46:27.59	73.17	10.64	-59.4	-70.1	3.8	7.47e-01	0	33	104	0	86	13273
2026-01-01 19:46:28.60	73.44	10.64	-59.4	-70.2	3.8	7.45e-01	0	33	104	0	86	13459
2026-01-01 19:46:29.60	73.71	10.64	-59.5	-70.2	3.8	7.46e-01	0	33	104	0	86	13444
2026-01-01 19:46:30.60	73.97	10.65	-59.4	-70.1	3.8	7.46e-01	0	33	104	0	86	13358
2026-01-01 19:46:31.61	74.25	10.65	-59.4	-70.1	3.8	7.44e-01	0	34	104	0	86	13337
2026-01-01 19:46:32.62	74.52	10.65	-59.5	-70.2	3.8	7.47e-01	0	33	104	0	86	13447
2026-01-01 19:46:33.62	74.78	10.65	-59.4	-70.1	3.8	7.46e-01	0	34	104	0	86	13359
2026-01-01 19:46:34.62	75.05	10.65	-59.4	-70.1	3.8	7.46e-01	0	34	104	0	86	13347
2026-01-01 19:46:35.63	75.32	10.65	-59.4	-70.1	3.8	7.44e-01	0	33	104	0	86	13320
2026-01-01 19:46:36.63	75.59	10.65	-59.5	-70.2	3.8	7.46e-01	0	34	104	0	86	13501
2026-01-01 19:46:37.63	75.86	10.65	-59.5	-70.2	3.8	7.45e-01	0	33	104	0	86	13453
2026-01-01 19:46:38.64	76.13	10.65	-59.4	-70.1	3.8	7.45e-01	0	33	104	0	86	13403
2026-01-01 19:46:39.65	76.40	10.65	-59.4	-70.1	3.8	7.45e-01	0	33	104	0	86	13332
2026-01-01 19:46:40.65	76.67	10.65	-59.5	-70.2	3.8	7.45e-01	0	33	104	0	86	13490
2026-01-01 19:46:41.66	76.94	10.65	-59.4	-70.1	3.8	7.45e-01	0	33	104	0	86	13401
2026-01-01 19:46:42.67	77.21	10.65	-59.4	-70.1	3.8	7.44e-01	0	33	104	0	86	13380
2026-01-01 19:46:43.67	77.48	10.64	-59.4	-70.1	3.8	7.45e-01	0	33	104	0	86	13326
2026-01-01 19:46:44.68	77.75	10.64	-59.5	-70.2	3.8	7.47e-01	0	33	104	0	86	13462
2026-01-01 19:46:45.67	78.02	10.64	-59.4	-70.1	3.8	7.44e-01	0	34	104	0	87	12641
2026-01-01 19:46:46.66	78.28	10.63	-59.4	-70.1	3.8	7.45e-01	0	34	104	0	87	12642
2026-01-01 19:46:47.66	78.55	10.63	-59.4	-70.1	3.8	7.46e-01	0	34	104	0	87	12565
2026-01-01 19:46:48.66	78.82	10.62	-59.5	-70.2	3.8	7.44e-01	0	33	104	0	87	12684
2026-01-01 19:46:49.65	79.08	10.61	-59.4	-70.1	3.8	7.45e-01	0	34	104	0	87	12644
2026-01-01 19:46:50.65	79.35	10.61	-59.4	-70.1	3.8	7.46e-01	0	33	104	0	87	12581
2026-01-01 19:46:51.66	79.62	10.60	-59.4	-70.1	3.8	7.46e-01	0	33	104	0	87	12595
2026-01-01 19:46:52.65	79.89	10.59	-59.5	-70.2	3.8	7.46e-01	0	34	104	0	87	12724
2026-01-01 19:46:53.64	80.15	10.59	-59.4	-70.2	3.8	7.44e-01	0	33	104	0	87	12668
2026-01-01 19:46:54.64	80.42	10.58	-59.4	-70.1	3.8	7.45e-01	0	33	104	0	87	12585
2026-01-01 19:46:55.64	80.68	10.57	-59.4	-70.1	3.8	7.46e-01	0	33	104	0	87	12583
2026-01-01 19:46:56.64	80.95	10.56	-59.5	-70.2	3.8	7.46e-01	0	33	104	0	87	12776
2026-01-01 19:46:57.64	81.22	10.55	-59.5	-70.1	3.8	7.48e-01	0	34	104	0	87	12638
2026-01-01 19:46:58.64	81.48	10.54	-59.4	-70.1	3.8	7.45e-01	0	33	104	0	87	12664
2026-01-01 19:46:59.63	81.75	10.53	-59.4	-70.1	3.8	7.45e-01	0	33	104	0	87	12602
2026-01-01 19:47:00.63	82.01	10.52	-59.5	-70.2	3.8	7.45e-01	0	33	104	0	87	12685
2026-01-01 19:47:01.64	82.28	10.51	-59.5	-70.1	3.8	7.46e-01	0	33	104	0	87	12654
2026-01-01 19:47:02.64	82.55	10.49	-59.4	-70.1	3.8	7.46e-01	0	33	104	0	87	12647
2026-01-01 19:47:03.64	82.81	10.48	-59.4	-70.1	3.8	7.47e-01	0	33	104	0	87	12574
2026-01-01 19:47:04.63	83.07	10.47	-59.5	-70.2	3.8	7.44e-01	0	33	104	0	87	12706
2026-01-01 19:47:05.63	83.34	10.46	-59.5	-70.1	3.8	7.45e-01	0	33	104	0	87	12658
2026-01-01 19:47:06.62	83.60	10.44	-59.4	-70.1	3.8	7.46e-01	0	33	104	0	87	12616
2026-01-01 19:47:07.63	83.86	10.43	-59.4	-70.1	3.8	7.45e-01	0	34	104	0	87	12601
2026-01-01 19:47:08.62	84.13	10.41	-59.5	-70.2	3.8	7.46e-01	0	34	104	0	87	12716
2026-01-01 19:47:09.63	84.39	10.40	-59.5	-70.2	3.8	7.46e-01	0	33	104	0	87	12694
2026-01-01 19:47:10.63	84.65	10.38	-59.3	-70.1	3.8	7.45e-01	0	33	104	0	87	12628
2026-01-01 19:47:11.64	84.92	10.36	-59.4	-70.1	3.8	7.46e-01	0	33	104	0	87	12589
2026-01-01 19:47:12.65	85.18	10.35	-59.5	-70.2	3.8	7.45e-01	0	33	104	0	87	12716
2026-01-01 19:47:13.66	85.45	10.33	-59.5	-70.1	3.8	7.47e-01	0	33	104	0	87	12635
2026-01-01 19:47:14.67	85.71	10.31	-59.4	-70.1	3.8	7.45e-01	0	34	104	0	87	12634
2026-01-01 19:47:15.68	85.98	10.29	-59.4	-70.1	3.8	7.45e-01	0	33	104	0	87	12562
2026-01-01 19:47:16.68	86.24	10.28	-59.5	-70.2	3.8	7.46e-01	0	34	104	0	87	12672
2026-01-01 19:47:17.70	86.50	10.26	-59.4	-70.2	3.8	7.45e-01	0	33	104	0	87	12679
2026-01-01 19:47:18.70	86.76	10.24	-59.4	-70.1	3.8	7.47e-01	0	33	104	0	87	12637
2026-01-01 19:47:19.71	87.02	10.22	-59.4	-70.1	3.8	7.45e-01	0	33	104	0	87	12570
2026-01-01 19:47:20.71	87.28	10.20	-59.5	-70.2	3.8	7.44e-01	0	34	104	0	87	12713
2026-01-01 19:47:21.72	87.54	10.18	-59.4	-70.1	3.8	7.46e-01	0	33	104	0	87	12616
2026-01-01 19:47:22.72	87.80	10.16	-59.4	-70.1	3.8	7.46e-01	0	33	104	0	87	12626
2026-01-01 19:47:23.73	88.06	10.13	-59.4	-70.0	3.8	7.45e-01	0	33	104	0	87	12493
2026-01-01 19:47:24.74	88.32	10.11	-59.5	-70.2	3.8	7.46e-01	0	34	104	0	87	12707
2026-01-01 19:47:25.75	88.58	10.09	-59.4	-70.1	3.8	7.47e-01	0	34	104	0	87	12622
2026-01-01 19:47:26.75	88.84	10.07	-59.4	-70.1	3.8	7.45e-01	0	33	104	0	87	12629
2026-01-01 19:47:27.76	89.10	10.04	-59.4	-70.1	3.8	7.47e-01	0	34	104	0	87	12562
2026-01-01 19:47:28.77	89.35	10.02	-59.5	-70.2	3.8	7.44e-01	0	33	104	0	87	12690
2026-01-01 19:47:29.77	89.61	10.00	-59.4	-70.1	3.8	7.47e-01	0	34	104	0	87	12633
2026-01-01 19:47:30.78	89.87	9.97	-59.4	-70.1	3.8	7.44e-01	0	33	104	0	87	12578
2026-01-01 19:47:31.79	90.12	9.95	-59.4	-70.0	3.8	7.45e-01	0	34	104	0	87	12515
2026-01-01 19:47:32.80	90.38	9.92	-59.5	-70.2	3.8	7.46e-01	0	33	104	0	87	12759
2026-01-01 19:47:33.81	90.63	9.90	-59.4	-70.1	3.8	7.45e-01	0	33	104	0	87	12621
2026-01-01 19:47:34.81	90.89	9.87	-59.4	-70.1	3.8	7.46e-01	0	33	104	0	87	12611
2026-01-01 19:47:35.82	91.14	9.84	-59.4	-70.1	3.8	7.46e-01	0	33	104	0	87	12534
2026-01-01 19:47:36.83	91.39	9.82	-59.5	-70.2	3.8	7.44e-01	0	33	104	0	87	12714
2026-01-01 19:47:37.84	91.65	9.79	-59.4	-70.1	3.8	7.46e-01	0	33	104	0	87	12555
2026-01-01 19:47:38.84	91.90	9.76	-59.4	-70.1	3.8	7.45e-01	0	34	104	0	87	12568
2026-01-01 19:47:39.85	92.15	9.73	-59.3	-70.0	3.8	7.45e-01	0	34	104	0	87	12493
2026-01-01 19:47:40.86	92.40	9.71	-59.5	-70.2	3.8	7.46e-01	0	34	104	0	87	12674
2026-01-01 19:47:41.87	92.65	9.68	-59.4	-70.1	3.8	7.44e-01	0	34	104	0	87	12539
2026-01-01 19:47:42.88	92.90	9.65	-59.4	-70.1	3.8	7.45e-01	0	34	104	0	87	12596
2026-01-01 19:47:43.88	93.15	9.62	-59.3	-70.0	3.8	7.45e-01	0	33	104	0	87	12457
2026-01-01 19:47:44.89	93.40	9.59	-59.5	-70.2	3.8	7.46e-01	0	34	104	0	87	12698
2026-01-01 19:47:45.90	93.65	9.56	-59.4	-70.1	3.8	7.47e-01	0	33	104	0	87	12549
2026-01-01 19:47:46.90	93.89	9.53	-59.4	-70.1	3.8	7.47e-01	0	34	104	0	87	12529
2026-01-01 19:47:47.91	94.14	9.50	-59.3	-70.0	3.8	7.44e-01	0	34	104	0	87	12467
2026-01-01 19:47:48.92	94.39	9.47	-59.5	-70.2	3.8	7.47e-01	0	33	104	0	87	12674
2026-01-01 19:47:49.93	94.63	9.43	-59.4	-70.0	3.8	7.44e-01	0	34	104	0	87	12507
2026-01-01 19:47:50.93	94.87	9.40	-59.4	-70.0	3.8	7.45e-01	0	34	104	0	87	12494
2026-01-01 19:47:51.94	95.12	9.37	-59.3	-70.0	3.8	7.46e-01	0	34	104	0	87	12446
2026-01-01 19:47:52.94	95.36	9.34	-59.4	-70.1	3.8	7.45e-01	0	34	104	0	87	12623
2026-01-01 19:47:53.95	95.60	9.31	-59.3	-70.0	3.8	7.45e-01	0	33	104	0	87	12504
2026-01-01 19:47:54.96	95.85	9.27	-59.4	-70.1	3.8	7.45e-01	0	33	104	0	87	12555
2026-01-01 19:47:55.97	96.09	9.24	-59.3	-70.0	3.8	7.46e-01	0	33	104	0	87	12395
2026-01-01 19:47:56.98	96.33	9.21	-59.4	-70.1	3.8	7.46e-01	0	34	104	0	87	12607
2026-01-01 19:47:57.99	96.57	9.17	-59.3	-70.0	3.8	7.46e-01	0	34	104	0	87	12498
2026-01-01 19:47:59.00	96.81	9.14	-59.3	-70.0	3.8	7.45e-01	0	33	104	0	87	12486
2026-01-01 19:48:00.01	97.05	9.10	-59.3	-70.0	3.8	7.45e-01	0	34	104	0	87	12416
2026-01-01 19:48:01.01	97.29	9.07	-59.4	-70.1	3.8	7.46e-01	0	33	104	0	87	12599
2026-01-01 19:48:02.01	97.52	9.03	-59.3	-70.0	3.8	7.45e-01	0	34	104	0	87	12450
2026-01-01 19:48:03.02	97.76	9.00	-59.4	-70.0	3.8	7.46e-01	0	33	104	0	87	12497
2026-01-01 19:48:04.03	98.00	8.96	-59.3	-70.0	3.8	7.45e-01	0	34	104	0	87	12460
2026-01-01 19:48:05.03	98.23	8.92	-59.4	-70.1	3.8	7.45e-01	0	33	104	0	87	12583
2026-01-01 19:48:06.05	98.47	8.89	-59.3	-70.0	3.8	7.47e-01	0	33	104	0	87	12427
2026-01-01 19:48:07.05	98.70	8.85	-59.3	-70.0	3.8	7.46e-01	0	34	104	0	87	12482
2026-01-01 19:48:08.06	98.93	8.81	-59.3	-69.9	3.8	7.45e-01	0	34	104	0	87	12357
2026-01-01 19:48:09.07	99.16	8.78	-59.4	-70.1	3.8	7.45e-01	0	34	104	0	87	12557
2026-01-01 19:48:10.08	99.40	8.74	-59.3	-70.0	3.8	7.44e-01	0	34	104	0	87	12474
2026-01-01 19:48:11.09	99.63	8.70	-59.3	-70.0	3.8	7.48e-01	0	33	104	0	87	12482
2026-01-01 19:48:12.10	99.86	8.66	-59.3	-69.9	3.8	7.45e-01	0	33	104	0	87	12354
2026-01-01 19:48:13.11	100.09	8.62	-59.4	-70.1	3.8	7.45e-01	0	34	104	0	87	12567
2026-01-01 19:48:14.12	100.32	8.58	-59.3	-70.0	3.8	7.45e-01	0	33	104	0	87	12489
2026-01-01 19:48:15.12	100.54	8.55	-59.4	-70.0	3.8	7.45e-01	0	33	104	0	87	12509
2026-01-01 19:48:16.13	100.77	8.51	-59.3	-70.0	3.8	7.46e-01	0	33	104	0	87	12404
2026-01-01 19:48:17.14	101.00	8.47	-59.4	-70.1	3.8	7.44e-01	0	34	104	0	87	12602
2026-01-01 19:48:18.15	101.23	8.43	-59.3	-70.0	3.8	7.45e-01	0	34	104	0	87	12454
2026-01-01 19:48:19.15	101.45	8.39	-59.4	-70.1	3.8	7.45e-01	0	33	104	0	87	12542
2026-01-01 19:48:20.16	101.67	8.35	-59.3	-70.0	3.8	7.44e-01	0	34	104	0	87	12381
2026-01-01 19:48:21.17	101.90	8.31	-59.4	-70.1	3.8	7.45e-01	0	33	104	0	87	12559
2026-01-01 19:48:22.18	102.12	8.27	-59.3	-70.1	3.8	7.46e-01	0	34	104	0	87	12539
2026-01-01 19:48:23.19	102.34	8.22	-59.4	-70.1	3.8	7.46e-01	0	34	104	0	87	12521
2026-01-01 19:48:24.20	102.57	8.18	-59.3	-70.0	3.8	7.45e-01	0	34	104	0	87	12431
2026-01-01 19:48:25.21	102.79	8.14	-59.4	-70.1	3.8	7.46e-01	0	33	104	0	87	12547
2026-01-01 19:48:26.21	103.01	8.10	-59.3	-70.0	3.8	7.45e-01	0	34	104	0	87	12487
2026-01-01 19:48:27.22	103.23	8.06	-59.4	-70.1	3.8	7.44e-01	0	34	104	0	87	12561
2026-01-01 19:48:28.23	103.44	8.02	-59.3	-70.0	3.8	7.45e-01	0	33	104	0	87	12466
2026-01-01 19:48:29.24	103.66	7.97	-59.4	-70.1	3.8	7.46e-01	0	33	104	0	87	12580
2026-01-01 19:48:30.24	103.88	7.93	-59.4	-70.1	3.8	7.47e-01	0	33	104	0	87	12548
2026-01-01 19:48:31.25	104.09	7.89	-59.4	-70.1	3.8	7.46e-01	0	33	104	0	87	12522
2026-01-01 19:48:32.25	104.31	7.85	-59.3	-70.0	3.8	7.45e-01	0	33	104	0	87	12471
2026-01-01 19:48:33.26	104.52	7.80	-59.4	-70.1	3.8	7.44e-01	0	33	104	0	87	12548
2026-01-01 19:48:34.27	104.74	7.76	-59.4	-70.1	3.8	7.45e-01	0	33	104	0	87	12525
2026-01-01 19:48:35.28	104.95	7.72	-59.4	-70.1	3.8	7.45e-01	0	34	104	0	87	12533
2026-01-01 19:48:36.29	105.16	7.67	-59.3	-70.0	3.8	7.45e-01	0	33	104	0	87	12503
2026-01-01 19:48:37.29	105.37	7.63	-59.4	-70.1	3.8	7.45e-01	0	34	104	0	87	12553
2026-01-01 19:48:38.30	105.58	7.59	-59.4	-70.1	3.8	7.45e-01	0	33	104	0	87	12567
2026-01-01 19:48:39.30	105.79	7.54	-59.4	-70.1	3.8	7.45e-01	0	33	104	0	87	12526
2026-01-01 19:48:40.31	106.00	7.50	-59.3	-70.0	3.8	7.45e-01	0	34	104	0	87	12480
2026-01-01 19:48:41.32	106.21	7.45	-59.4	-70.1	3.8	7.47e-01	0	34	104	0	87	12600
2026-01-01 19:48:42.33	106.42	7.41	-59.4	-70.1	3.8	7.45e-01	0	33	104	0	87	12544
2026-01-01 19:48:43.34	106.62	7.36	-59.4	-70.1	3.8	7.46e-01	0	34	104	0	87	12530
2026-01-01 19:48:44.35	106.83	7.32	-59.4	-70.1	3.8	7.44e-01	0	34	104	0	87	12556
2026-01-01 19:48:45.35	107.03	7.27	-59.4	-70.1	3.8	7.46e-01	0	34	104	0	87	12594
2026-01-01 19:48:46.36	107.24	7.23	-59.4	-70.1	3.8	7.45e-01	0	33	104	0	87	12613
2026-01-01 19:48:47.37	107.44	7.18	-59.4	-70.1	3.8	7.46e-01	0	34	104	0	87	12580
2026-01-01 19:48:48.37	107.65	7.14	-59.4	-70.0	3.8	7.45e-01	0	34	104	0	87	12503
2026-01-01 19:48:49.38	107.85	7.09	-59.4	-70.1	3.8	7.45e-01	0	33	104	0	87	12561
2026-01-01 19:48:50.38	108.05	7.05	-59.4	-70.1	3.8	7.45e-01	0	33	104	0	87	12580
2026-01-01 19:48:51.39	108.25	7.00	-59.4	-70.1	3.8	7.47e-01	0	34	104	0	87	12633
2026-01-01 19:48:52.39	108.45	6.95	-59.4	-70.1	3.8	7.47e-01	0	34	104	0	87	12573
2026-01-01 19:48:53.40	108.65	6.91	-59.4	-70.1	3.8	7.46e-01	0	33	104	0	87	12554
2026-01-01 19:48:54.41	108.84	6.86	-59.4	-70.1	3.8	7.47e-01	0	33	104	0	87	12610
2026-01-01 19:48:55.42	109.04	6.81	-59.4	-70.1	3.8	7.47e-01	0	33	104	0	87	12564
2026-01-01 19:48:56.43	109.24	6.77	-59.4	-70.1	3.8	7.45e-01	0	34	104	0	87	12557
2026-01-01 19:48:57.44	109.44	6.72	-59.4	-70.1	3.8	7.46e-01	0	33	104	0	87	12526
2026-01-01 19:48:58.44	109.63	6.67	-59.5	-70.2	3.8	7.47e-01	0	34	104	0	87	12701
2026-01-01 19:48:59.45	109.82	6.63	-59.4	-70.1	3.8	7.45e-01	0	33	104	0	87	12600
2026-01-01 19:49:00.46	110.02	6.58	-59.4	-70.1	3.8	7.46e-01	0	34	104	0	87	12591
2026-01-01 19:49:01.46	110.21	6.53	-59.4	-70.1	3.8	7.45e-01	0	34	104	0	87	12552
2026-01-01 19:49:02.47	110.40	6.48	-59.4	-70.1	3.8	7.46e-01	0	34	104	0	87	12642
2026-01-01 19:49:03.48	110.59	6.44	-59.4	-70.1	3.8	7.46e-01	0	34	104	0	87	12586
2026-01-01 19:49:04.49	110.79	6.39	-59.4	-70.1	3.8	7.45e-01	0	34	104	0	87	12539
2026-01-01 19:49:05.49	110.97	6.34	-59.3	-70.0	3.8	7.45e-01	0	34	104	0	87	12466
2026-01-01 19:49:06.50	111.16	6.29	-59.4	-70.1	3.8	7.46e-01	0	34	104	0	87	12577
2026-01-01 19:49:07.51	111.35	6.25	-59.3	-70.0	3.8	7.46e-01	0	34	104	0	87	12516
2026-01-01 19:49:08.52	111.54	6.20	-59.3	-70.0	3.8	7.45e-01	0	34	104	0	87	12415
2026-01-01 19:49:09.53	111.73	6.15	-59.3	-70.0	3.8	7.46e-01	0	33	104	0	87	12418
2026-01-01 19:49:10.54	111.91	6.10	-59.4	-70.1	3.8	7.46e-01	0	34	104	0	87	12577
2026-01-01 19:49:11.55	112.10	6.05	-59.3	-70.0	3.8	7.46e-01	0	33	104	0	87	12406
2026-01-01 19:49:12.56	112.28	6.00	-59.3	-69.9	3.8	7.44e-01	0	33	104	0	87	12375
2026-01-01 19:49:13.57	112.47	5.95	-59.2	-69.9	3.8	7.47e-01	0	34	104	0	87	12275
2026-01-01 19:49:14.57	112.65	5.91	-59.3	-70.0	3.8	7.46e-01	0	33	104	0	87	12431
2026-01-01 19:49:15.58	112.83	5.86	-59.2	-69.8	3.8	7.45e-01	0	33	104	0	87	12232
2026-01-01 19:49:16.59	113.01	5.81	-59.2	-69.9	3.8	7.47e-01	0	34	104	0	87	12261
2026-01-01 19:49:17.60	113.20	5.76	-59.1	-69.8	3.8	7.46e-01	0	33	104	0	87	12161
2026-01-01 19:49:18.61	113.38	5.71	-59.2	-69.9	3.8	7.47e-01	0	33	104	0	87	12284
2026-01-01 19:49:19.62	113.56	5.66	-59.1	-69.7	3.8	7.46e-01	0	34	104	0	87	12093
2026-01-01 19:49:20.62	113.73	5.61	-59.3	-69.9	3.8	7.45e-01	0	34	104	0	87	12343
2026-01-01 19:49:21.62	113.91	5.56	-59.3	-69.9	3.8	7.45e-01	0	33	104	0	87	12365
2026-01-01 19:49:22.63	114.09	5.51	-59.2	-69.9	3.8	7.45e-01	0	34	104	0	87	12340
2026-01-01 19:49:23.64	114.26	5.47	-59.1	-69.8	3.8	7.45e-01	0	34	104	0	87	12105
2026-01-01 19:49:24.65	114.44	5.42	-59.3	-70.0	3.8	7.46e-01	0	34	104	0	87	12462
2026-01-01 19:49:25.66	114.61	5.37	-59.3	-69.9	3.8	7.47e-01	0	34	104	0	87	12373
2026-01-01 19:49:26.67	114.79	5.32	-59.3	-70.0	3.8	7.45e-01	0	34	104	0	87	12407
2026-01-01 19:49:27.68	114.96	5.27	-59.1	-69.8	3.8	7.44e-01	0	34	104	0	87	12148
2026-01-01 19:49:28.69	115.14	5.22	-59.4	-70.1	3.8	7.47e-01	0	33	104	0	87	12544
2026-01-01 19:49:29.69	115.31	5.17	-59.3	-70.0	3.8	7.46e-01	0	34	104	0	87	12494
2026-01-01 19:49:30.69	115.48	5.12	-59.3	-70.0	3.8	7.45e-01	0	34	104	0	87	12446
2026-01-01 19:49:31.70	115.65	5.07	-59.1	-69.8	3.8	7.46e-01	0	33	104	0	87	12190
2026-01-01 19:49:32.71	115.82	5.02	-59.3	-70.0	3.8	7.46e-01	0	34	104	0	87	12448
2026-01-01 19:49:33.72	115.99	4.97	-59.4	-70.1	3.8	7.46e-01	0	34	104	0	87	12581
2026-01-01 19:49:34.73	116.16	4.92	-59.7	-70.4	3.8	7.46e-01	0	33	104	0	87	13029
2026-01-01 19:49:35.74	116.32	4.87	-60.0	-70.7	3.8	7.44e-01	0	33	104	0	87	13455
2026-01-01 19:49:36.75	116.49	4.82	-60.2	-70.8	3.8	7.45e-01	0	34	104	0	88	12897
2026-01-01 19:49:37.76	116.66	4.77	-60.3	-71.0	3.8	7.45e-01	0	34	104	0	88	13158
2026-01-01 19:49:38.77	116.82	4.72	-60.4	-71.1	3.8	7.45e-01	0	34	104	0	88	13392
2026-01-01 19:49:39.78	116.99	4.67	-60.5	-71.2	3.8	7.45e-01	0	34	104	0	89	12804
2026-01-01 19:49:40.78	117.15	4.62	-60.6	-71.3	3.8	7.46e-01	0	33	104	0	89	12878
2026-01-01 19:49:41.79	117.32	4.57	-60.7	-71.4	3.8	7.45e-01	0	34	104	0	89	12999
2026-01-01 19:49:42.80	117.48	4.52	-60.7	-71.4	3.8	7.47e-01	0	34	104	0	89	13082
2026-01-01 19:49:43.81	117.64	4.47	-60.8	-71.5	3.8	7.46e-01	0	34	104	0	89	13205
2026-01-01 19:49:44.82	117.80	4.42	-60.9	-71.5	3.8	7.45e-01	0	34	104	0	89	13236
2026-01-01 19:49:45.82	117.96	4.37	-60.9	-71.5	3.8	7.45e-01	0	34	104	0	89	13225
2026-01-01 19:49:46.84	118.12	4.31	-60.9	-71.6	3.8	7.45e-01	0	34	104	0	89	13316
2026-01-01 19:49:47.84	118.28	4.26	-61.0	-71.6	3.8	7.46e-01	0	34	104	0	89	13400
2026-01-01 19:49:48.53	118.39	4.23	-61.0	-71.6	3.8	7.44e-01	0	33	104	0	89	13399
2026-01-01 19:49:49.85	118.60	4.16	-61.0	-71.7	3.8	7.47e-01	0	34	104	0	89	13459
2026-01-01 19:49:50.56	118.71	4.13	-61.1	-71.7	3.8	7.45e-01	0	34	104	0	90	12787
2026-01-01 19:49:51.86	118.91	4.06	-61.1	-71.8	3.8	7.44e-01	0	34	104	0	90	12920
2026-01-01 19:49:52.58	119.02	4.03	-61.1	-71.8	3.8	7.46e-01	0	33	104	0	90	12872
2026-01-01 19:49:53.88	119.22	3.96	-61.2	-71.8	3.8	7.44e-01	0	33	104	0	90	12926
2026-01-01 19:49:54.60	119.33	3.93	-61.2	-71.8	3.8	7.45e-01	0	34	104	0	90	12958
2026-01-01 19:49:55.90	119.53	3.86	-61.2	-71.9	3.8	7.45e-01	0	34	104	0	90	13039
2026-01-01 19:49:56.62	119.64	3.82	-61.2	-71.9	3.8	7.45e-01	0	34	104	0	90	13017
2026-01-01 19:49:57.92	119.84	3.76	-61.2	-71.9	3.8	7.47e-01	0	33	104	0	90	13075
2026-01-01 19:49:58.64	119.95	3.72	-61.3	-71.9	3.8	7.44e-01	0	33	104	0	90	13079
2026-01-01 19:49:59.93	120.14	3.66	-61.3	-71.9	3.8	7.46e-01	0	33	104	0	90	13086
2026-01-01 19:50:00.65	120.25	3.62	-61.3	-72.0	3.8	7.45e-01	0	33	104	0	90	13163
2026-01-01 19:50:01.95	120.44	3.56	-61.3	-72.0	3.8	7.45e-01	0	33	104	0	90	13175
2026-01-01 19:50:02.67	120.55	3.52	-61.3	-72.0	3.8	7.45e-01	0	34	104	0	90	13156
2026-01-01 19:50:03.97	120.74	3.45	-61.3	-72.0	3.8	7.47e-01	0	34	104	0	90	13112
2026-01-01 19:50:04.69	120.85	3.42	-61.3	-72.0	3.8	7.47e-01	0	34	104	0	90	13114
2026-01-01 19:50:05.98	121.04	3.35	-61.3	-71.9	3.8	7.46e-01	0	33	104	0	90	13019
2026-01-01 19:50:06.70	121.14	3.32	-61.2	-71.9	3.8	7.46e-01	0	33	104	0	90	13018
2026-01-01 19:50:08.00	121.33	3.25	-61.3	-72.0	3.8	7.43e-01	0	33	104	0	90	13140
2026-01-01 19:50:08.72	121.43	3.22	-61.3	-72.0	3.8	7.46e-01	0	33	104	0	90	13256
2026-01-01 19:50:10.02	121.62	3.15	-61.3	-72.0	3.8	7.46e-01	0	33	104	0	90	13215
2026-01-01 19:50:10.75	121.73	3.11	-61.3	-72.0	3.8	7.47e-01	0	33	104	0	90	13194
2026-01-01 19:50:12.04	121.91	3.05	-61.3	-72.0	3.8	7.45e-01	0	33	104	0	90	13129
2026-01-01 19:50:12.77	122.01	3.01	-61.3	-72.0	3.8	7.46e-01	0	33	104	0	90	13146
2026-01-01 19:50:14.06	122.20	2.95	-61.2	-71.9	3.8	7.47e-01	0	34	104	0	90	13073
2026-01-01 19:50:14.78	122.30	2.91	-61.2	-71.9	3.8	7.45e-01	0	33	104	0	90	13046
2026-01-01 19:50:16.08	122.48	2.85	-61.2	-71.9	3.8	7.46e-01	0	33	104	0	90	12995
2026-01-01 19:50:16.80	122.58	2.81	-61.2	-71.9	3.8	7.46e-01	0	33	104	0	90	13015
2026-01-01 19:50:18.10	122.76	2.74	-61.3	-71.9	3.8	7.45e-01	0	33	104	0	90	13058
2026-01-01 19:50:18.82	122.86	2.71	-61.2	-71.9	3.8	7.46e-01	0	33	104	0	90	13066
2026-01-01 19:50:20.12	123.04	2.64	-61.2	-71.9	3.8	7.47e-01	0	34	104	0	90	13038
2026-01-01 19:50:20.83	123.14	2.61	-61.2	-71.9	3.8	7.46e-01	0	34	104	0	90	13032
2026-01-01 19:50:22.13	123.32	2.54	-61.2	-71.9	3.8	7.46e-01	0	34	104	0	90	12972
2026-01-01 19:50:22.85	123.41	2.50	-61.2	-71.9	3.8	7.45e-01	0	34	104	0	90	12988
2026-01-01 19:50:24.15	123.59	2.44	-61.2	-71.8	3.8	7.47e-01	0	34	104	0	90	12909
2026-01-01 19:50:24.88	123.69	2.40	-61.2	-71.8	3.8	7.45e-01	0	34	104	0	90	12929
2026-01-01 19:50:26.17	123.86	2.34	-61.2	-71.8	3.8	7.47e-01	0	34	104	0	90	12926
2026-01-01 19:50:26.89	123.96	2.30	-61.2	-71.8	3.8	7.45e-01	0	34	104	0	90	12882
2026-01-01 19:50:28.18	124.13	2.24	-61.1	-71.8	3.8	7.46e-01	0	34	104	0	90	12912
2026-01-01 19:50:28.90	124.23	2.20	-61.1	-71.8	3.8	7.43e-01	0	33	104	0	90	12901
2026-01-01 19:50:30.20	124.40	2.14	-61.1	-71.8	3.8	7.47e-01	0	34	104	0	90	12874
2026-01-01 19:50:30.92	124.49	2.10	-61.1	-71.8	3.8	7.47e-01	0	33	104	0	90	12907
2026-01-01 19:50:32.21	124.66	2.03	-61.1	-71.8	3.8	7.48e-01	0	34	104	0	90	12927
2026-01-01 19:50:32.93	124.76	2.00	-61.1	-71.8	3.8	7.46e-01	0	33	104	0	90	12870

#Closed at: 2026-01-01 19:50:33
#Recorded file [0 MB]: D:/lorett/data/31004_260101_224240.dat