passes_logs/2026/01/01/R3.2S_Murmansk/R3.2S_Murmansk__20260101_103106_SUOMI_NPP_rec.log

#Pass ID: 20260101_103106_SUOMI NPP
#Satellite: SUOMI NPP
#Configuration: NPP
#almurnet v.1.7.20251203
#Start time: 2026-01-01 10:31:07

#Version: 2.2.20231116
#Station: R3.2S_Murmansk
#Location: 33.079688 lon 68.888172 lat
#TLE: 1 37849U 11061A   26001.07732418  .00000182  00000+0  10735-3 0  9990
#TLE: 2 37849  98.7795 303.2470 0002580  87.2016 272.9455 14.19520779734739

#Time	Az	El	Level	Level2	SNR	BER	BlckErr	Temp	State	Recorded	gain1	gain2
2026-01-01 10:31:07.89	174.34	2.08	-60.0	-75.9	3.8	1.49e+00	0	33	0	0	85	23377
2026-01-01 10:31:08.86	174.37	2.14	-60.0	-75.7	3.8	1.49e+00	0	33	104	0	85	22980
2026-01-01 10:31:09.82	174.40	2.20	-60.0	-75.7	3.8	1.49e+00	0	33	104	0	85	22944
2026-01-01 10:31:10.79	174.43	2.27	-60.0	-75.7	3.8	1.49e+00	0	33	104	0	85	23042
2026-01-01 10:31:11.75	174.45	2.33	-60.0	-75.8	3.8	1.49e+00	0	33	104	0	85	23142
2026-01-01 10:31:12.72	174.48	2.39	-60.0	-75.8	3.8	1.49e+00	0	33	104	0	85	23239
2026-01-01 10:31:13.68	174.51	2.45	-60.0	-75.9	3.8	1.49e+00	0	33	104	0	85	23395
2026-01-01 10:31:14.65	174.54	2.51	-60.0	-75.9	3.8	1.49e+00	0	33	104	0	85	23429
2026-01-01 10:31:15.62	174.57	2.57	-60.0	-75.9	3.8	1.49e+00	0	33	104	0	85	23411
2026-01-01 10:31:16.58	174.60	2.63	-60.0	-75.9	3.8	1.49e+00	0	33	104	0	85	23362
2026-01-01 10:31:17.55	174.63	2.70	-60.0	-75.8	3.8	1.49e+00	0	33	104	0	85	23152
2026-01-01 10:31:18.52	174.65	2.76	-60.0	-75.8	3.8	1.49e+00	0	33	104	0	85	23100
2026-01-01 10:31:19.49	174.68	2.82	-60.0	-75.7	3.8	1.49e+00	0	33	104	0	85	23031
2026-01-01 10:31:20.46	174.71	2.88	-60.0	-75.8	3.8	1.49e+00	0	33	104	0	85	23082
2026-01-01 10:31:21.42	174.74	2.95	-60.0	-75.9	3.8	1.49e+00	0	33	104	0	85	23324
2026-01-01 10:31:22.39	174.77	3.01	-60.0	-75.9	3.8	1.49e+00	0	33	104	0	85	23558
2026-01-01 10:31:23.36	174.80	3.07	-60.0	-75.9	3.8	1.49e+00	0	33	104	0	85	23574
2026-01-01 10:31:24.33	174.83	3.14	-60.0	-75.8	3.8	1.49e+00	0	33	104	0	85	23165
2026-01-01 10:31:25.29	174.86	3.20	-59.9	-75.4	3.8	1.49e+00	0	33	104	0	85	22152
2026-01-01 10:31:26.26	174.89	3.26	-59.9	-74.8	3.8	1.49e+00	0	34	104	0	85	20693
2026-01-01 10:31:27.23	174.92	3.33	-59.9	-74.0	3.8	1.49e+00	0	33	104	0	85	18904
2026-01-01 10:31:28.19	174.95	3.39	-59.8	-72.9	4.1	1.46e+00	0	33	0	0	85	16623
2026-01-01 10:31:29.16	174.98	3.45	-59.8	-71.9	4.3	1.37e+00	92	33	0	0	85	14807
2026-01-01 10:31:30.13	175.01	3.52	-59.7	-71.5	4.5	1.10e+00	4	33	0	1048576	85	14064
2026-01-01 10:31:31.09	175.04	3.58	-59.7	-70.8	4.8	9.36e-01	0	33	0	3145728	85	13051
2026-01-01 10:31:32.06	175.07	3.65	-59.6	-69.9	5.2	7.82e-01	0	33	0	5242880	85	11805
2026-01-01 10:31:33.03	175.10	3.71	-59.6	-69.9	5.3	5.77e-01	0	33	0	6291456	85	11698
2026-01-01 10:31:34.00	175.13	3.78	-59.5	-69.2	5.7	4.50e-01	0	33	0	8388608	85	10834
2026-01-01 10:31:34.96	175.16	3.84	-59.5	-68.6	6.1	3.79e-01	0	33	0	10485760	84	10720
2026-01-01 10:31:35.93	175.20	3.90	-59.4	-68.3	6.2	2.91e-01	0	33	0	12582912	84	10391
2026-01-01 10:31:36.89	175.23	3.97	-59.4	-68.4	6.2	2.67e-01	0	33	0	13631488	84	10496
2026-01-01 10:31:37.86	175.26	4.03	-59.4	-67.9	6.6	2.16e-01	0	34	0	15728640	84	9913
2026-01-01 10:31:38.83	175.29	4.10	-59.2	-67.3	7.1	1.60e-01	0	34	0	17825792	84	9212
2026-01-01 10:31:39.80	175.32	4.17	-58.9	-66.7	7.7	8.12e-02	0	33	0	19922944	84	8563
2026-01-01 10:31:40.76	175.35	4.23	-59.0	-66.2	8.1	6.28e-02	0	33	0	20971520	84	8086
2026-01-01 10:31:41.73	175.38	4.30	-59.0	-66.1	8.2	4.23e-02	0	34	0	23068672	84	7997
2026-01-01 10:31:42.70	175.42	4.36	-58.7	-65.3	8.7	1.99e-02	0	33	0	25165824	83	7798
2026-01-01 10:31:43.67	175.45	4.43	-58.5	-64.8	9.2	1.40e-02	0	34	0	27262976	83	7370
2026-01-01 10:31:44.63	175.48	4.50	-58.5	-64.8	9.3	1.10e-02	0	33	0	28311552	83	7363
2026-01-01 10:31:45.60	175.51	4.56	-58.5	-64.6	9.4	1.20e-02	0	34	0	30408704	82	7579
2026-01-01 10:31:46.56	175.55	4.63	-58.5	-64.6	9.4	8.62e-03	0	34	0	32505856	82	7581
2026-01-01 10:31:47.53	175.58	4.69	-58.6	-65.0	9.0	1.30e-02	0	34	0	33554432	82	7954
2026-01-01 10:31:48.49	175.61	4.76	-58.7	-65.3	8.8	1.61e-02	0	34	0	35651584	82	8219
2026-01-01 10:31:49.46	175.64	4.83	-58.7	-65.5	8.6	1.82e-02	0	34	0	37748736	82	8390
2026-01-01 10:31:50.43	175.68	4.90	-58.9	-66.4	7.8	3.36e-02	0	34	0	39845888	83	8857
2026-01-01 10:31:51.39	175.71	4.96	-59.1	-67.4	6.9	1.01e-01	0	34	0	40894464	83	9919
2026-01-01 10:31:52.36	175.74	5.03	-59.2	-67.7	6.6	1.64e-01	0	34	0	42991616	83	10283
2026-01-01 10:31:53.33	175.78	5.10	-60.0	-73.0	4.1	7.59e-01	0	34	0	45088768	85	16877
2026-01-01 10:31:54.29	175.81	5.17	-59.9	-75.1	3.8	1.49e+00	0	34	104	45088768	85	21495
2026-01-01 10:31:55.26	175.84	5.23	-56.5	-59.8	13.5	0.00e+00	0	34	0	45088768	79	5207
2026-01-01 10:31:56.23	175.88	5.30	-56.0	-58.8	14.4	0.00e+00	0	34	0	47185920	78	4898
2026-01-01 10:31:57.19	175.91	5.37	-59.1	-67.2	7.0	4.44e-02	0	34	0	49283072	83	9680
2026-01-01 10:31:58.15	175.95	5.44	-56.3	-59.4	13.9	1.23e-04	0	34	0	51380224	79	4930
2026-01-01 10:31:59.12	175.98	5.51	-56.2	-59.2	14.0	0.00e+00	0	34	0	52428800	78	5141
2026-01-01 10:32:00.08	176.01	5.58	-56.0	-58.9	14.3	0.00e+00	0	34	0	54525952	78	4960
2026-01-01 10:32:01.05	176.05	5.64	-56.2	-59.2	14.0	0.00e+00	0	34	0	56623104	78	5153
2026-01-01 10:32:02.02	176.08	5.71	-56.1	-59.0	14.2	0.00e+00	0	34	0	58720256	78	5038
2026-01-01 10:32:02.98	176.12	5.78	-56.0	-58.8	14.4	0.00e+00	0	34	0	59768832	78	4916
2026-01-01 10:32:03.95	176.15	5.85	-56.1	-58.9	14.3	0.00e+00	0	34	0	61865984	78	4982
2026-01-01 10:32:04.92	176.19	5.92	-55.9	-58.7	14.5	0.00e+00	0	34	0	63963136	78	4848
2026-01-01 10:32:05.88	176.22	5.99	-55.9	-58.6	14.5	0.00e+00	0	34	0	65011712	78	4803
2026-01-01 10:32:06.85	176.26	6.06	-55.9	-58.6	14.5	0.00e+00	0	34	0	67108864	78	4795
2026-01-01 10:32:07.81	176.29	6.13	-55.9	-58.6	14.6	0.00e+00	0	34	0	69206016	78	4792
2026-01-01 10:32:08.78	176.33	6.20	-55.9	-58.6	14.6	0.00e+00	0	34	0	71303168	78	4776
2026-01-01 10:32:09.74	176.37	6.27	-55.9	-58.6	14.6	0.00e+00	0	34	0	72351744	78	4774
2026-01-01 10:32:10.71	176.40	6.34	-55.8	-58.4	14.7	0.00e+00	0	34	0	74448896	78	4705
2026-01-01 10:32:11.67	176.44	6.41	-55.9	-58.6	14.6	0.00e+00	0	34	0	76546048	78	4784
2026-01-01 10:32:12.64	176.47	6.49	-55.7	-58.4	14.7	0.00e+00	0	34	0	78643200	77	4942
2026-01-01 10:32:13.61	176.51	6.56	-55.8	-58.5	14.6	0.00e+00	0	34	0	79691776	77	4998
2026-01-01 10:32:14.58	176.55	6.63	-55.7	-58.4	14.7	0.00e+00	0	34	0	81788928	77	4932
2026-01-01 10:32:15.55	176.59	6.70	-55.7	-58.4	14.8	0.00e+00	0	34	0	83886080	77	4934
2026-01-01 10:32:16.51	176.62	6.77	-55.6	-58.1	14.9	0.00e+00	0	34	0	84934656	77	4807
2026-01-01 10:32:17.48	176.66	6.84	-55.7	-58.3	14.8	0.00e+00	0	34	0	87031808	77	4883
2026-01-01 10:32:18.44	176.70	6.92	-55.5	-58.0	15.0	0.00e+00	0	34	0	89128960	77	4753
2026-01-01 10:32:19.42	176.73	6.99	-55.6	-58.2	14.9	0.00e+00	0	34	0	91226112	77	4825
2026-01-01 10:32:20.38	176.77	7.06	-55.6	-58.2	14.9	0.00e+00	0	34	0	92274688	77	4820
2026-01-01 10:32:21.35	176.81	7.14	-55.6	-58.2	14.9	0.00e+00	0	34	0	94371840	77	4832
2026-01-01 10:32:22.32	176.85	7.21	-55.5	-58.0	15.0	0.00e+00	0	34	0	96468992	77	4754
2026-01-01 10:32:23.28	176.89	7.28	-55.5	-57.9	15.1	0.00e+00	0	34	0	98566144	77	4704
2026-01-01 10:32:24.25	176.93	7.36	-55.5	-58.0	15.1	0.00e+00	0	34	0	99614720	77	4716
2026-01-01 10:32:25.22	176.96	7.43	-55.3	-57.8	15.2	0.00e+00	0	34	0	101711872	77	4600
2026-01-01 10:32:26.18	177.00	7.50	-55.4	-57.8	15.2	0.00e+00	0	34	0	103809024	77	4631
2026-01-01 10:32:27.15	177.04	7.58	-55.3	-57.7	15.3	0.00e+00	0	34	0	105906176	77	4571
2026-01-01 10:32:28.12	177.08	7.65	-55.2	-57.6	15.3	0.00e+00	0	34	0	106954752	77	4498
2026-01-01 10:32:29.09	177.12	7.73	-55.2	-57.5	15.4	0.00e+00	0	34	0	109051904	77	4493
2026-01-01 10:32:30.06	177.16	7.80	-55.3	-57.7	15.3	0.00e+00	0	34	0	111149056	77	4568
2026-01-01 10:32:31.03	177.20	7.88	-55.3	-57.6	15.4	0.00e+00	0	34	0	112197632	77	4520
2026-01-01 10:32:31.99	177.24	7.95	-55.2	-57.6	15.4	0.00e+00	0	34	0	114294784	77	4506
2026-01-01 10:32:32.96	177.28	8.03	-55.2	-57.5	15.4	0.00e+00	0	34	0	116391936	76	4724
2026-01-01 10:32:33.92	177.32	8.10	-55.2	-57.5	15.4	0.00e+00	0	34	0	118489088	76	4742
2026-01-01 10:32:34.89	177.36	8.18	-55.3	-57.6	15.3	0.00e+00	0	34	0	119537664	76	4795
2026-01-01 10:32:35.86	177.40	8.25	-55.0	-57.3	15.5	0.00e+00	0	34	0	121634816	76	4608
2026-01-01 10:32:36.83	177.44	8.33	-55.0	-57.2	15.5	0.00e+00	0	34	0	123731968	76	4593
2026-01-01 10:32:37.79	177.48	8.41	-55.1	-57.3	15.5	0.00e+00	0	34	0	125829120	76	4648
2026-01-01 10:32:38.75	177.52	8.48	-54.9	-57.2	15.6	0.00e+00	0	34	0	126877696	76	4548
2026-01-01 10:32:39.72	177.57	8.56	-54.9	-57.2	15.6	0.00e+00	0	34	0	128974848	76	4550
2026-01-01 10:32:40.69	177.61	8.64	-54.9	-57.1	15.6	0.00e+00	0	34	0	131072000	76	4528
2026-01-01 10:32:41.65	177.65	8.71	-54.8	-57.0	15.7	0.00e+00	0	34	0	132120576	76	4465
2026-01-01 10:32:42.62	177.69	8.79	-55.0	-57.2	15.6	0.00e+00	0	34	0	134217728	76	4585
2026-01-01 10:32:43.59	177.73	8.87	-54.8	-57.0	15.7	0.00e+00	0	34	0	136314880	76	4469
2026-01-01 10:32:44.56	177.78	8.95	-54.8	-57.0	15.7	0.00e+00	0	34	0	138412032	76	4466
2026-01-01 10:32:45.53	177.82	9.03	-55.0	-57.2	15.6	0.00e+00	0	34	0	139460608	76	4565
2026-01-01 10:32:46.50	177.86	9.11	-54.9	-57.0	15.7	0.00e+00	0	34	0	141557760	76	4482
2026-01-01 10:32:47.46	177.90	9.18	-54.8	-57.0	15.7	0.00e+00	0	34	0	143654912	76	4453
2026-01-01 10:32:48.43	177.95	9.26	-54.8	-57.0	15.7	0.00e+00	0	34	0	145752064	76	4463
2026-01-01 10:32:49.40	177.99	9.34	-54.7	-56.8	15.9	0.00e+00	0	34	0	146800640	76	4359
2026-01-01 10:32:50.36	178.03	9.42	-54.6	-56.7	15.9	0.00e+00	0	34	0	148897792	75	4583
2026-01-01 10:32:51.33	178.08	9.50	-54.6	-56.8	15.8	0.00e+00	0	34	0	150994944	75	4601
2026-01-01 10:32:52.30	178.12	9.58	-54.8	-57.0	15.7	0.00e+00	0	34	0	152043520	75	4730
2026-01-01 10:32:53.26	178.17	9.66	-54.6	-56.7	15.9	0.00e+00	0	34	0	154140672	75	4573
2026-01-01 10:32:54.23	178.21	9.74	-54.6	-56.7	15.8	0.00e+00	0	34	0	156237824	75	4585
2026-01-01 10:32:55.20	178.26	9.82	-54.6	-56.6	15.9	0.00e+00	0	34	0	158334976	75	4539
2026-01-01 10:32:56.17	178.30	9.91	-54.5	-56.5	16.0	0.00e+00	0	34	0	159383552	75	4468
2026-01-01 10:32:57.13	178.35	9.99	-54.6	-56.7	15.9	0.00e+00	0	34	0	161480704	75	4561
2026-01-01 10:32:58.10	178.39	10.07	-54.5	-56.6	15.9	0.00e+00	0	34	0	163577856	75	4526
2026-01-01 10:32:59.07	178.44	10.15	-54.5	-56.6	15.9	0.00e+00	0	35	0	165675008	75	4495
2026-01-01 10:33:00.03	178.48	10.23	-54.6	-56.7	15.9	0.00e+00	0	34	0	166723584	75	4552
2026-01-01 10:33:01.00	178.53	10.31	-54.4	-56.5	16.0	0.00e+00	0	34	0	168820736	75	4449
2026-01-01 10:33:01.96	178.58	10.40	-54.3	-56.3	16.1	0.00e+00	0	34	0	170917888	75	4361
2026-01-01 10:33:02.93	178.62	10.48	-54.3	-56.3	16.1	0.00e+00	0	34	0	171966464	75	4365
2026-01-01 10:33:03.90	178.67	10.56	-54.3	-56.3	16.2	0.00e+00	0	34	0	174063616	75	4345
2026-01-01 10:33:04.86	178.72	10.65	-54.3	-56.3	16.1	0.00e+00	0	34	0	176160768	75	4348
2026-01-01 10:33:05.83	178.77	10.73	-54.2	-56.1	16.2	0.00e+00	0	34	0	178257920	74	4524
2026-01-01 10:33:06.79	178.81	10.81	-54.2	-56.1	16.2	0.00e+00	0	34	0	179306496	74	4531
2026-01-01 10:33:07.76	178.86	10.90	-54.2	-56.2	16.2	0.00e+00	0	34	0	181403648	74	4563
2026-01-01 10:33:08.73	178.91	10.98	-54.3	-56.2	16.2	0.00e+00	0	34	0	183500800	74	4594
2026-01-01 10:33:09.70	178.96	11.07	-54.2	-56.1	16.3	0.00e+00	0	34	0	185597952	74	4508
2026-01-01 10:33:10.66	179.01	11.15	-54.2	-56.2	16.2	0.00e+00	0	34	0	186646528	74	4554
2026-01-01 10:33:11.62	179.06	11.24	-54.2	-56.1	16.2	0.00e+00	0	34	0	188743680	74	4538
2026-01-01 10:33:12.59	179.10	11.32	-54.2	-56.1	16.2	0.00e+00	0	34	0	190840832	74	4530
2026-01-01 10:33:13.56	179.15	11.41	-54.2	-56.1	16.2	0.00e+00	0	34	0	191889408	74	4536
2026-01-01 10:33:14.53	179.20	11.49	-54.1	-56.1	16.2	0.00e+00	0	34	0	193986560	74	4507
2026-01-01 10:33:15.50	179.25	11.58	-54.3	-56.3	16.1	0.00e+00	0	34	0	196083712	74	4601
2026-01-01 10:33:16.46	179.30	11.67	-54.2	-56.2	16.2	0.00e+00	0	34	0	198180864	74	4549
2026-01-01 10:33:17.43	179.36	11.75	-54.2	-56.1	16.2	0.00e+00	0	34	0	199229440	74	4514
2026-01-01 10:33:18.40	179.41	11.84	-54.2	-56.1	16.3	0.00e+00	0	34	0	201326592	74	4520
2026-01-01 10:33:19.36	179.46	11.93	-54.2	-56.1	16.3	0.00e+00	0	34	0	203423744	74	4534
2026-01-01 10:33:20.33	179.51	12.02	-54.2	-56.1	16.2	0.00e+00	0	34	0	205520896	74	4543
2026-01-01 10:33:21.30	179.56	12.10	-54.2	-56.1	16.3	0.00e+00	0	34	0	206569472	74	4527
2026-01-01 10:33:22.27	179.61	12.19	-54.2	-56.2	16.2	0.00e+00	0	34	0	208666624	74	4558
2026-01-01 10:33:23.23	179.67	12.28	-54.1	-56.0	16.3	0.00e+00	0	34	0	210763776	74	4469
2026-01-01 10:33:24.20	179.72	12.37	-54.2	-56.2	16.3	0.00e+00	0	34	0	212860928	74	4554
2026-01-01 10:33:25.17	179.77	12.46	-54.2	-56.2	16.3	0.00e+00	0	34	0	213909504	74	4561
2026-01-01 10:33:26.13	179.82	12.55	-54.3	-56.3	16.2	0.00e+00	0	34	0	216006656	74	4605
2026-01-01 10:33:27.10	179.88	12.64	-54.2	-56.1	16.3	0.00e+00	0	35	0	218103808	74	4541
2026-01-01 10:33:28.07	179.93	12.73	-54.3	-56.3	16.2	0.00e+00	0	34	0	219152384	74	4605
2026-01-01 10:33:29.03	179.99	12.82	-54.2	-56.1	16.3	0.00e+00	0	34	0	221249536	74	4519
2026-01-01 10:33:30.00	180.04	12.91	-54.2	-56.1	16.3	0.00e+00	0	34	0	223346688	74	4528
2026-01-01 10:33:30.96	180.09	13.00	-54.3	-56.3	16.2	0.00e+00	0	34	0	225443840	74	4625
2026-01-01 10:33:31.93	180.15	13.09	-54.4	-56.3	16.2	0.00e+00	0	34	0	226492416	74	4641
2026-01-01 10:33:32.90	180.21	13.19	-54.3	-56.2	16.3	0.00e+00	0	34	0	228589568	74	4579
2026-01-01 10:33:33.87	180.26	13.28	-54.3	-56.2	16.2	0.00e+00	0	34	0	230686720	74	4586
2026-01-01 10:33:34.83	180.32	13.37	-54.2	-56.1	16.3	0.00e+00	0	34	0	231735296	74	4507
2026-01-01 10:33:35.79	180.37	13.46	-54.2	-56.1	16.3	0.00e+00	0	34	0	233832448	74	4510
2026-01-01 10:33:36.76	180.43	13.56	-54.2	-56.1	16.3	0.00e+00	0	34	0	235929600	74	4539
2026-01-01 10:33:37.73	180.49	13.65	-54.2	-56.1	16.3	0.00e+00	0	34	0	238026752	74	4540
2026-01-01 10:33:38.69	180.54	13.74	-54.3	-56.2	16.3	0.00e+00	0	34	0	239075328	74	4579
2026-01-01 10:33:39.66	180.60	13.84	-54.2	-56.1	16.4	0.00e+00	0	34	0	241172480	74	4508
2026-01-01 10:33:40.62	180.66	13.93	-54.1	-56.0	16.4	0.00e+00	0	35	0	243269632	74	4452
2026-01-01 10:33:41.59	180.72	14.03	-54.2	-56.1	16.4	0.00e+00	0	34	0	245366784	74	4518
2026-01-01 10:33:42.56	180.78	14.12	-54.1	-56.0	16.4	0.00e+00	0	34	0	246415360	74	4457
2026-01-01 10:33:43.52	180.84	14.22	-54.0	-55.9	16.4	0.00e+00	0	34	0	248512512	74	4401
2026-01-01 10:33:44.49	180.90	14.31	-54.1	-55.9	16.4	0.00e+00	0	34	0	250609664	74	4435
2026-01-01 10:33:45.45	180.96	14.41	-54.1	-56.0	16.4	0.00e+00	0	35	0	252706816	74	4447
2026-01-01 10:33:46.42	181.02	14.51	-54.2	-56.1	16.3	0.00e+00	0	34	0	253755392	74	4516
2026-01-01 10:33:47.38	181.08	14.60	-54.2	-56.0	16.3	0.00e+00	0	34	0	255852544	74	4483
2026-01-01 10:33:48.35	181.14	14.70	-54.1	-56.0	16.4	0.00e+00	0	35	0	257949696	74	4470
2026-01-01 10:33:49.32	181.20	14.80	-54.1	-56.0	16.4	0.00e+00	0	34	0	258998272	74	4460
2026-01-01 10:33:50.28	181.26	14.90	-54.2	-56.1	16.4	0.00e+00	0	35	0	261095424	74	4525
2026-01-01 10:33:51.25	181.32	14.99	-54.2	-56.1	16.4	0.00e+00	0	34	0	263192576	74	4539
2026-01-01 10:33:52.22	181.39	15.09	-54.1	-56.0	16.4	0.00e+00	0	34	0	265289728	74	4458
2026-01-01 10:33:53.18	181.45	15.19	-54.1	-56.0	16.4	0.00e+00	0	34	0	266338304	74	4470
2026-01-01 10:33:54.14	181.51	15.29	-54.2	-56.0	16.4	0.00e+00	0	34	0	268435456	74	4493
2026-01-01 10:33:55.11	181.57	15.39	-54.0	-55.8	16.5	0.00e+00	0	34	0	270532608	74	4364
2026-01-01 10:33:56.07	181.64	15.49	-54.2	-56.0	16.4	0.00e+00	0	34	0	271581184	74	4477
2026-01-01 10:33:57.04	181.70	15.59	-54.1	-55.9	16.4	0.00e+00	0	34	0	273678336	74	4436
2026-01-01 10:33:58.01	181.77	15.69	-53.9	-55.7	16.5	0.00e+00	0	34	0	275775488	74	4331
2026-01-01 10:33:58.97	181.83	15.79	-53.9	-55.7	16.5	0.00e+00	0	35	0	277872640	73	4549
2026-01-01 10:33:59.94	181.90	15.90	-53.8	-55.6	16.6	0.00e+00	0	34	0	278921216	73	4528
2026-01-01 10:34:00.91	181.96	16.00	-53.8	-55.6	16.6	0.00e+00	0	35	0	281018368	73	4497
2026-01-01 10:34:01.87	182.03	16.10	-53.8	-55.5	16.6	0.00e+00	0	34	0	283115520	73	4483
2026-01-01 10:34:02.84	182.10	16.20	-53.8	-55.6	16.5	0.00e+00	0	34	0	285212672	73	4529
2026-01-01 10:34:03.80	182.17	16.31	-53.6	-55.4	16.7	0.00e+00	0	34	0	286261248	73	4392
2026-01-01 10:34:04.77	182.23	16.41	-53.7	-55.5	16.6	0.00e+00	0	35	0	288358400	73	4447
2026-01-01 10:34:05.73	182.30	16.51	-53.7	-55.4	16.6	0.00e+00	0	34	0	290455552	73	4423
2026-01-01 10:34:06.70	182.37	16.62	-53.6	-55.3	16.7	0.00e+00	0	35	0	292552704	73	4389
2026-01-01 10:34:07.67	182.44	16.73	-53.7	-55.4	16.7	0.00e+00	0	35	0	293601280	73	4415
2026-01-01 10:34:08.64	182.51	16.83	-53.8	-55.5	16.6	0.00e+00	0	35	0	295698432	73	4472
2026-01-01 10:34:09.60	182.58	16.94	-53.9	-55.7	16.6	0.00e+00	0	35	0	297795584	73	4561
2026-01-01 10:34:10.57	182.65	17.04	-53.8	-55.6	16.6	0.00e+00	0	34	0	298844160	73	4496
2026-01-01 10:34:11.54	182.72	17.15	-53.7	-55.5	16.6	0.00e+00	0	35	0	300941312	73	4443
2026-01-01 10:34:12.51	182.79	17.26	-53.8	-55.6	16.6	0.00e+00	0	35	0	303038464	73	4494
2026-01-01 10:34:13.47	182.86	17.36	-53.9	-55.7	16.6	0.00e+00	0	35	0	305135616	73	4551
2026-01-01 10:34:14.44	182.94	17.47	-53.9	-55.6	16.6	0.00e+00	0	35	0	306184192	73	4544
2026-01-01 10:34:15.40	183.01	17.58	-53.8	-55.5	16.6	0.00e+00	0	35	0	308281344	73	4485
2026-01-01 10:34:16.37	183.08	17.69	-53.8	-55.5	16.6	0.00e+00	0	35	0	310378496	73	4470
2026-01-01 10:34:17.34	183.16	17.80	-53.7	-55.4	16.6	0.00e+00	0	35	0	312475648	73	4439
2026-01-01 10:34:18.30	183.23	17.91	-53.5	-55.2	16.8	0.00e+00	0	35	0	313524224	73	4328
2026-01-01 10:34:19.27	183.31	18.02	-53.6	-55.3	16.7	0.00e+00	0	34	0	315621376	73	4371
2026-01-01 10:34:20.24	183.38	18.13	-53.5	-55.2	16.8	0.00e+00	0	35	0	317718528	73	4303
2026-01-01 10:34:21.20	183.46	18.24	-53.4	-55.0	16.9	0.00e+00	0	35	0	318767104	73	4232
2026-01-01 10:34:22.17	183.54	18.35	-53.3	-54.9	16.9	0.00e+00	0	34	0	320864256	73	4174
2026-01-01 10:34:23.13	183.61	18.47	-53.3	-54.9	16.9	0.00e+00	0	35	0	322961408	73	4181
2026-01-01 10:34:24.10	183.69	18.58	-53.2	-54.8	17.0	0.00e+00	0	35	0	325058560	72	4352
2026-01-01 10:34:25.07	183.77	18.69	-53.1	-54.7	17.0	0.00e+00	0	35	0	326107136	72	4331
2026-01-01 10:34:26.03	183.85	18.80	-53.1	-54.7	17.0	0.00e+00	0	34	0	328204288	72	4304
2026-01-01 10:34:27.00	183.93	18.92	-52.9	-54.4	17.1	0.00e+00	0	35	0	330301440	72	4167
2026-01-01 10:34:27.97	184.01	19.03	-53.0	-54.5	17.1	0.00e+00	0	34	0	332398592	72	4235
2026-01-01 10:34:28.93	184.09	19.15	-52.7	-54.2	17.2	0.00e+00	0	34	0	333447168	72	4087
2026-01-01 10:34:29.90	184.17	19.26	-52.7	-54.2	17.2	0.00e+00	0	35	0	335544320	71	4300
2026-01-01 10:34:30.87	184.25	19.38	-52.7	-54.2	17.2	0.00e+00	0	35	0	337641472	71	4316
2026-01-01 10:34:31.83	184.33	19.50	-52.6	-54.0	17.2	0.00e+00	0	34	0	338690048	71	4235
2026-01-01 10:34:32.80	184.41	19.61	-52.6	-54.1	17.2	0.00e+00	0	35	0	340787200	71	4253
2026-01-01 10:34:33.76	184.50	19.73	-52.3	-53.8	17.3	0.00e+00	0	35	0	342884352	71	4126
2026-01-01 10:34:34.73	184.58	19.85	-52.4	-53.9	17.3	0.00e+00	0	35	0	344981504	71	4156
2026-01-01 10:34:35.70	184.67	19.97	-52.4	-53.9	17.2	0.00e+00	0	35	0	346030080	71	4182
2026-01-01 10:34:36.67	184.75	20.09	-52.4	-53.9	17.3	0.00e+00	0	34	0	348127232	71	4148
2026-01-01 10:34:37.63	184.84	20.20	-52.6	-54.1	17.2	0.00e+00	0	35	0	350224384	71	4260
2026-01-01 10:34:38.60	184.93	20.33	-52.6	-54.1	17.2	0.00e+00	0	35	0	352321536	71	4267
2026-01-01 10:34:39.57	185.01	20.45	-52.8	-54.3	17.1	0.00e+00	0	35	0	353370112	71	4380
2026-01-01 10:34:40.53	185.10	20.57	-52.8	-54.3	17.2	0.00e+00	0	34	0	355467264	71	4391
2026-01-01 10:34:41.50	185.19	20.69	-52.9	-54.5	17.1	0.00e+00	0	35	0	357564416	71	4466
2026-01-01 10:34:42.47	185.28	20.81	-53.0	-54.6	17.0	0.00e+00	0	35	0	358612992	71	4514
2026-01-01 10:34:43.44	185.37	20.93	-53.1	-54.7	16.9	0.00e+00	0	34	0	360710144	71	4573
2026-01-01 10:34:44.40	185.46	21.06	-53.1	-54.7	17.0	0.00e+00	0	35	0	362807296	71	4563
2026-01-01 10:34:45.37	185.55	21.18	-53.2	-54.9	16.9	0.00e+00	0	35	0	364904448	71	4677
2026-01-01 10:34:46.33	185.64	21.30	-53.2	-54.8	17.0	0.00e+00	0	35	0	365953024	71	4646
2026-01-01 10:34:47.30	185.73	21.43	-53.0	-54.7	17.0	0.00e+00	0	35	0	368050176	71	4556
2026-01-01 10:34:48.27	185.83	21.55	-53.2	-54.8	17.0	0.00e+00	0	35	0	370147328	71	4648
2026-01-01 10:34:49.24	185.92	21.68	-53.1	-54.8	17.0	0.00e+00	0	35	0	372244480	71	4610
2026-01-01 10:34:50.20	186.02	21.81	-53.1	-54.7	17.0	0.00e+00	0	35	0	373293056	71	4564
2026-01-01 10:34:51.17	186.11	21.93	-53.0	-54.6	17.1	0.00e+00	0	34	0	375390208	71	4522
2026-01-01 10:34:52.14	186.21	22.06	-53.1	-54.7	17.0	0.00e+00	0	35	0	377487360	71	4560
2026-01-01 10:34:53.10	186.31	22.19	-52.9	-54.5	17.1	0.00e+00	0	35	0	378535936	71	4474
2026-01-01 10:34:54.07	186.40	22.32	-53.0	-54.5	17.1	0.00e+00	0	35	0	380633088	71	4493
2026-01-01 10:34:55.03	186.50	22.45	-53.0	-54.6	17.0	0.00e+00	0	35	0	382730240	71	4526
2026-01-01 10:34:56.00	186.60	22.58	-53.0	-54.6	17.1	0.00e+00	0	35	0	384827392	71	4502
2026-01-01 10:34:56.96	186.70	22.71	-53.0	-54.6	17.1	0.00e+00	0	35	0	385875968	71	4522
2026-01-01 10:34:57.93	186.80	22.84	-53.0	-54.6	17.1	0.00e+00	0	35	0	387973120	71	4503
2026-01-01 10:34:58.89	186.90	22.97	-52.8	-54.3	17.2	0.00e+00	0	35	0	390070272	71	4380
2026-01-01 10:34:59.86	187.01	23.10	-52.9	-54.5	17.1	0.00e+00	0	35	0	392167424	71	4450
2026-01-01 10:35:00.83	187.11	23.23	-52.7	-54.2	17.2	0.00e+00	0	35	0	393216000	71	4324
2026-01-01 10:35:01.80	187.22	23.37	-52.6	-54.1	17.2	0.00e+00	0	34	0	395313152	71	4276
2026-01-01 10:35:02.76	187.32	23.50	-52.7	-54.2	17.2	0.00e+00	0	35	0	397410304	71	4333
2026-01-01 10:35:03.73	187.43	23.63	-52.7	-54.2	17.2	0.00e+00	0	35	0	398458880	71	4322
2026-01-01 10:35:04.69	187.53	23.77	-52.6	-54.1	17.2	0.00e+00	0	35	0	400556032	71	4261
2026-01-01 10:35:05.66	187.64	23.90	-52.6	-54.1	17.3	0.00e+00	0	35	0	402653184	71	4256
2026-01-01 10:35:06.62	187.75	24.04	-52.5	-54.0	17.3	0.00e+00	0	34	0	404750336	71	4237
2026-01-01 10:35:07.59	187.86	24.18	-52.4	-53.9	17.3	0.00e+00	0	35	0	405798912	71	4164
2026-01-01 10:35:08.55	187.97	24.31	-52.1	-53.5	17.4	0.00e+00	0	34	0	407896064	70	4236
2026-01-01 10:35:09.52	188.08	24.45	-52.2	-53.7	17.4	0.00e+00	0	35	0	409993216	70	4293
2026-01-01 10:35:10.48	188.19	24.59	-52.2	-53.6	17.4	0.00e+00	0	35	0	412090368	70	4290
2026-01-01 10:35:11.45	188.31	24.73	-52.1	-53.5	17.4	0.00e+00	0	35	0	413138944	70	4229
2026-01-01 10:35:12.42	188.42	24.87	-52.0	-53.4	17.5	0.00e+00	0	35	0	415236096	70	4191
2026-01-01 10:35:13.38	188.54	25.01	-51.8	-53.2	17.5	0.00e+00	0	35	0	417333248	70	4079
2026-01-01 10:35:14.35	188.65	25.15	-52.0	-53.4	17.4	0.00e+00	0	35	0	418381824	70	4180
2026-01-01 10:35:15.31	188.77	25.29	-51.9	-53.3	17.5	0.00e+00	0	35	0	420478976	70	4119
2026-01-01 10:35:16.28	188.89	25.44	-52.1	-53.5	17.5	0.00e+00	0	35	0	422576128	70	4200
2026-01-01 10:35:17.25	189.01	25.58	-52.1	-53.5	17.4	0.00e+00	0	35	0	424673280	70	4229
2026-01-01 10:35:18.21	189.13	25.72	-52.3	-53.7	17.4	0.00e+00	0	35	0	425721856	70	4319
2026-01-01 10:35:19.17	189.25	25.87	-52.3	-53.7	17.4	0.00e+00	0	34	0	427819008	70	4325
2026-01-01 10:35:20.14	189.37	26.01	-52.2	-53.7	17.4	0.00e+00	0	35	0	429916160	70	4304
2026-01-01 10:35:21.11	189.50	26.16	-52.3	-53.7	17.4	0.00e+00	0	35	0	432013312	70	4334
2026-01-01 10:35:22.08	189.62	26.30	-52.4	-53.8	17.3	0.00e+00	0	35	0	433061888	70	4372
2026-01-01 10:35:23.05	189.75	26.45	-52.3	-53.8	17.4	0.00e+00	0	35	0	435159040	70	4348
2026-01-01 10:35:24.02	189.88	26.60	-52.4	-53.9	17.4	0.00e+00	0	35	0	437256192	70	4402
2026-01-01 10:35:24.98	190.00	26.75	-52.5	-54.0	17.3	0.00e+00	0	35	0	438304768	70	4464
2026-01-01 10:35:25.95	190.13	26.90	-52.7	-54.2	17.2	0.00e+00	0	34	0	440401920	70	4578
2026-01-01 10:35:26.91	190.26	27.05	-52.7	-54.2	17.3	0.00e+00	0	35	0	442499072	70	4546
2026-01-01 10:35:27.89	190.40	27.20	-52.9	-54.5	17.2	0.00e+00	0	35	0	444596224	70	4707
2026-01-01 10:35:28.85	190.53	27.35	-52.9	-54.5	17.2	0.00e+00	0	35	0	445644800	71	4461
2026-01-01 10:35:29.82	190.67	27.50	-53.1	-54.7	17.1	0.00e+00	0	34	0	447741952	71	4594
2026-01-01 10:35:30.78	190.80	27.65	-53.2	-54.9	17.0	0.00e+00	0	34	0	449839104	71	4656
2026-01-01 10:35:31.75	190.94	27.81	-53.4	-55.0	16.9	0.00e+00	0	35	0	451936256	72	4481
2026-01-01 10:35:32.71	191.07	27.96	-53.4	-55.0	16.9	0.00e+00	0	35	0	452984832	72	4477
2026-01-01 10:35:33.68	191.21	28.11	-53.3	-54.9	17.0	0.00e+00	0	34	0	455081984	72	4406
2026-01-01 10:35:34.65	191.36	28.27	-53.5	-55.1	16.9	0.00e+00	0	34	0	457179136	72	4530
2026-01-01 10:35:35.62	191.50	28.43	-53.7	-55.3	16.9	0.00e+00	0	35	0	458227712	72	4648
2026-01-01 10:35:36.58	191.64	28.58	-53.5	-55.2	16.9	0.00e+00	0	34	0	460324864	72	4558
2026-01-01 10:35:37.55	191.79	28.74	-53.8	-55.5	16.8	0.00e+00	0	34	0	462422016	72	4733
2026-01-01 10:35:38.51	191.93	28.90	-54.0	-55.8	16.7	0.00e+00	0	35	0	464519168	73	4616
2026-01-01 10:35:39.48	192.08	29.06	-54.3	-56.1	16.5	0.00e+00	0	35	0	465567744	73	4803
2026-01-01 10:35:40.46	192.23	29.22	-54.2	-56.1	16.6	0.00e+00	0	35	0	467664896	74	4507
2026-01-01 10:35:41.42	192.38	29.38	-54.5	-56.4	16.4	0.00e+00	0	34	0	469762048	74	4682
2026-01-01 10:35:42.39	192.53	29.54	-54.6	-56.5	16.3	0.00e+00	0	35	0	471859200	74	4759
2026-01-01 10:35:43.36	192.68	29.70	-54.8	-56.7	16.2	0.00e+00	0	35	0	472907776	74	4863
2026-01-01 10:35:44.33	192.84	29.86	-55.1	-57.1	16.1	0.00e+00	0	35	0	475004928	75	4798
2026-01-01 10:35:45.29	193.00	30.02	-54.8	-56.8	16.2	0.00e+00	0	35	0	477102080	75	4621
2026-01-01 10:35:46.26	193.15	30.19	-55.0	-57.0	16.1	0.00e+00	0	35	0	479199232	75	4747
2026-01-01 10:35:47.22	193.31	30.35	-55.7	-57.9	15.7	0.00e+00	0	35	0	480247808	76	4934
2026-01-01 10:35:48.19	193.47	30.52	-55.7	-57.8	15.7	0.00e+00	0	35	0	482344960	76	4917
2026-01-01 10:35:49.15	193.64	30.68	-55.9	-58.2	15.5	0.00e+00	0	35	0	484442112	77	4868
2026-01-01 10:35:50.12	193.80	30.85	-56.3	-58.8	15.2	0.00e+00	0	34	0	485490688	78	4888
2026-01-01 10:35:51.09	193.97	31.02	-56.4	-58.9	15.2	0.00e+00	0	35	0	487587840	78	4957
2026-01-01 10:35:52.06	194.13	31.19	-56.4	-58.9	15.2	0.00e+00	0	35	0	489684992	78	4927
2026-01-01 10:35:53.03	194.30	31.35	-56.5	-59.0	15.1	0.00e+00	0	35	0	491782144	78	5017
2026-01-01 10:35:53.99	194.47	31.52	-56.4	-59.0	15.1	0.00e+00	0	35	0	492830720	78	5009
2026-01-01 10:35:54.96	194.65	31.69	-56.0	-58.4	15.5	0.00e+00	0	35	0	494927872	78	4672
2026-01-01 10:35:55.93	194.82	31.86	-56.2	-58.6	15.3	0.00e+00	0	35	0	497025024	78	4799
2026-01-01 10:35:56.89	195.00	32.03	-55.7	-58.0	15.6	0.00e+00	0	35	0	499122176	78	4451
2026-01-01 10:35:57.86	195.18	32.21	-55.5	-57.7	15.9	0.00e+00	0	35	0	500170752	77	4551
2026-01-01 10:35:58.83	195.36	32.38	-55.4	-57.5	16.0	0.00e+00	0	35	0	502267904	77	4459
2026-01-01 10:35:59.79	195.54	32.55	-55.2	-57.2	16.1	0.00e+00	0	35	0	504365056	77	4306
2026-01-01 10:36:00.76	195.72	32.73	-55.7	-57.9	15.7	0.00e+00	0	34	0	505413632	76	4944
2026-01-01 10:36:01.73	195.91	32.90	-55.5	-57.6	15.9	0.00e+00	0	35	0	507510784	76	4791
2026-01-01 10:36:02.70	196.10	33.08	-55.5	-57.6	15.9	0.00e+00	0	35	0	509607936	76	4778
2026-01-01 10:36:03.66	196.29	33.25	-55.2	-57.2	16.1	0.00e+00	0	35	0	511705088	76	4546
2026-01-01 10:36:04.63	196.48	33.43	-55.1	-57.1	16.1	0.00e+00	0	35	0	512753664	76	4533
2026-01-01 10:36:05.59	196.67	33.61	-54.9	-56.9	16.3	0.00e+00	0	35	0	514850816	76	4396
2026-01-01 10:36:06.56	196.87	33.79	-54.5	-56.4	16.5	0.00e+00	0	35	0	516947968	75	4395
2026-01-01 10:36:07.53	197.07	33.97	-54.7	-56.5	16.4	0.00e+00	0	35	0	519045120	75	4488
2026-01-01 10:36:08.49	197.27	34.15	-54.7	-56.6	16.4	0.00e+00	0	35	0	520093696	75	4532
2026-01-01 10:36:09.46	197.47	34.33	-54.9	-56.8	16.3	0.00e+00	0	35	0	522190848	75	4624
2026-01-01 10:36:10.43	197.67	34.51	-55.1	-57.1	16.1	0.00e+00	0	35	0	524288000	75	4805
2026-01-01 10:36:11.39	197.88	34.69	-55.2	-57.2	16.0	0.00e+00	0	35	0	526385152	75	4852
2026-01-01 10:36:12.36	198.09	34.87	-55.5	-57.6	15.8	0.00e+00	0	35	0	527433728	76	4814
2026-01-01 10:36:13.33	198.30	35.05	-55.3	-57.4	16.0	0.00e+00	0	35	0	529530880	76	4665
2026-01-01 10:36:14.30	198.52	35.24	-55.4	-57.5	16.0	0.00e+00	0	35	0	531628032	76	4725
2026-01-01 10:36:15.27	198.73	35.42	-55.3	-57.3	16.1	0.00e+00	0	35	0	532676608	76	4608
2026-01-01 10:36:16.24	198.95	35.61	-55.4	-57.5	16.0	0.00e+00	0	35	0	534773760	76	4743
2026-01-01 10:36:17.21	199.17	35.80	-54.8	-56.6	16.4	0.00e+00	0	35	0	536870912	76	4281
2026-01-01 10:36:18.18	199.40	35.98	-54.5	-56.3	16.5	0.00e+00	0	35	0	538968064	75	4371
2026-01-01 10:36:19.14	199.62	36.17	-54.3	-56.1	16.6	0.00e+00	0	35	0	540016640	75	4255
2026-01-01 10:36:20.11	199.85	36.36	-54.2	-55.9	16.7	0.00e+00	0	35	0	542113792	74	4431
2026-01-01 10:36:21.07	200.08	36.54	-54.1	-55.8	16.7	0.00e+00	0	35	0	544210944	74	4380
2026-01-01 10:36:22.04	200.31	36.73	-54.4	-56.2	16.6	0.00e+00	0	35	0	546308096	74	4559
2026-01-01 10:36:23.01	200.55	36.92	-54.7	-56.6	16.5	0.00e+00	0	35	0	547356672	74	4768
2026-01-01 10:36:23.97	200.79	37.11	-55.1	-57.1	16.1	0.00e+00	0	35	0	549453824	75	4801
2026-01-01 10:36:24.94	201.03	37.30	-55.3	-57.4	16.0	0.00e+00	0	35	0	551550976	75	4945
2026-01-01 10:36:25.90	201.27	37.49	-55.7	-57.9	15.6	0.00e+00	0	35	0	552599552	76	4965
2026-01-01 10:36:26.87	201.52	37.68	-55.6	-57.8	15.8	0.00e+00	0	35	0	554696704	76	4878
2026-01-01 10:36:27.83	201.77	37.87	-55.2	-57.2	16.1	0.00e+00	0	35	0	556793856	76	4589
2026-01-01 10:36:28.80	202.03	38.06	-55.0	-56.9	16.3	0.00e+00	0	35	0	558891008	76	4432
2026-01-01 10:36:29.76	202.28	38.26	-55.2	-57.3	16.0	0.00e+00	0	35	0	559939584	76	4611
2026-01-01 10:36:30.73	202.54	38.45	-54.9	-56.9	16.3	0.00e+00	0	35	0	562036736	76	4413
2026-01-01 10:36:31.70	202.80	38.64	-54.4	-56.3	16.5	0.00e+00	0	35	0	564133888	75	4360
2026-01-01 10:36:32.67	203.07	38.84	-54.5	-56.4	16.5	0.00e+00	0	35	0	566231040	74	4658
2026-01-01 10:36:33.63	203.34	39.03	-54.2	-55.9	16.7	0.00e+00	0	35	0	567279616	74	4428
2026-01-01 10:36:34.60	203.61	39.23	-54.1	-55.8	16.7	0.00e+00	0	35	0	569376768	74	4391
2026-01-01 10:36:35.56	203.88	39.42	-53.9	-55.6	16.8	0.00e+00	0	35	0	571473920	74	4261
2026-01-01 10:36:36.53	204.16	39.62	-53.6	-55.2	16.9	0.00e+00	0	35	0	572522496	73	4330
2026-01-01 10:36:37.49	204.44	39.81	-53.6	-55.2	17.0	0.00e+00	0	35	0	574619648	73	4307
2026-01-01 10:36:38.46	204.72	40.01	-53.8	-55.5	16.9	0.00e+00	0	35	0	576716800	73	4465
2026-01-01 10:36:39.42	205.01	40.20	-53.9	-55.7	16.8	0.00e+00	0	35	0	578813952	73	4557
2026-01-01 10:36:40.39	205.30	40.40	-54.8	-56.7	16.3	0.00e+00	0	35	0	579862528	74	4838
2026-01-01 10:36:41.35	205.60	40.60	-54.7	-56.6	16.4	0.00e+00	0	35	0	581959680	74	4793
2026-01-01 10:36:42.32	205.89	40.79	-54.6	-56.5	16.4	0.00e+00	0	35	0	584056832	74	4717
2026-01-01 10:36:43.29	206.20	40.99	-54.4	-56.2	16.6	0.00e+00	0	35	0	586153984	74	4558
2026-01-01 10:36:44.25	206.50	41.19	-54.1	-55.8	16.7	0.00e+00	0	35	0	587202560	74	4365
2026-01-01 10:36:45.22	206.81	41.39	-54.0	-55.7	16.8	0.00e+00	0	35	0	589299712	74	4299
2026-01-01 10:36:46.19	207.13	41.59	-54.1	-55.7	16.8	0.00e+00	0	35	0	591396864	74	4335
2026-01-01 10:36:47.15	207.44	41.78	-54.7	-56.6	16.4	0.00e+00	0	35	0	592445440	74	4768
2026-01-01 10:36:48.11	207.76	41.98	-55.0	-57.0	16.2	0.00e+00	0	35	0	594542592	75	4717
2026-01-01 10:36:49.08	208.09	42.18	-55.4	-57.5	16.0	0.00e+00	0	35	0	596639744	76	4728
2026-01-01 10:36:50.05	208.42	42.38	-55.6	-57.7	15.9	0.00e+00	0	35	0	598736896	76	4837
2026-01-01 10:36:51.02	208.75	42.58	-55.9	-58.1	15.7	0.00e+00	0	35	0	599785472	76	5057
2026-01-01 10:36:51.99	209.09	42.78	-55.6	-57.7	15.9	0.00e+00	0	35	0	601882624	76	4843
2026-01-01 10:36:52.95	209.43	42.97	-55.7	-57.8	15.8	0.00e+00	0	35	0	603979776	76	4923
2026-01-01 10:36:53.92	209.77	43.17	-55.6	-57.7	15.9	0.00e+00	0	35	0	605028352	76	4834
2026-01-01 10:36:54.89	210.12	43.37	-55.9	-58.1	15.7	0.00e+00	0	35	0	607125504	77	4793
2026-01-01 10:36:55.85	210.47	43.57	-55.9	-58.1	15.7	0.00e+00	0	35	0	609222656	77	4814
2026-01-01 10:36:56.82	210.83	43.77	-55.9	-58.2	15.7	0.00e+00	0	35	0	611319808	77	4815
2026-01-01 10:36:57.79	211.20	43.97	-56.0	-58.3	15.5	0.00e+00	0	35	0	612368384	77	4899
2026-01-01 10:36:58.75	211.56	44.16	-55.9	-58.1	15.7	0.00e+00	0	35	0	614465536	77	4777
2026-01-01 10:36:59.71	211.93	44.36	-55.8	-58.0	15.8	0.00e+00	0	35	0	616562688	77	4725
2026-01-01 10:37:00.68	212.31	44.56	-55.5	-57.5	16.0	0.00e+00	0	35	0	618659840	77	4479
2026-01-01 10:37:01.65	212.69	44.75	-55.6	-57.7	16.0	0.00e+00	0	35	0	619708416	77	4558
2026-01-01 10:37:02.61	213.07	44.95	-56.1	-58.3	15.5	0.00e+00	0	35	0	621805568	77	4925
2026-01-01 10:37:03.58	213.46	45.14	-56.5	-59.0	15.1	0.00e+00	0	35	0	623902720	78	5023
2026-01-01 10:37:04.54	213.85	45.34	-57.3	-60.1	14.5	0.00e+00	0	35	0	625999872	79	5388
2026-01-01 10:37:05.51	214.26	45.53	-57.2	-60.0	14.5	0.00e+00	0	35	0	627048448	79	5329
2026-01-01 10:37:06.48	214.66	45.73	-56.7	-59.2	15.1	0.00e+00	0	35	0	629145600	79	4836
2026-01-01 10:37:07.44	215.07	45.92	-56.2	-58.5	15.5	0.00e+00	0	35	0	631242752	78	4747
2026-01-01 10:37:08.40	215.48	46.11	-56.1	-58.3	15.5	0.00e+00	0	35	0	632291328	78	4651
2026-01-01 10:37:09.37	215.90	46.30	-56.4	-58.8	15.4	0.00e+00	0	35	0	634388480	78	4875
2026-01-01 10:37:10.34	216.32	46.50	-56.8	-59.4	15.0	0.00e+00	0	35	0	636485632	78	5251
2026-01-01 10:37:11.30	216.75	46.69	-56.9	-59.4	15.0	0.00e+00	0	35	0	638582784	78	5276
2026-01-01 10:37:12.27	217.19	46.88	-57.0	-59.6	14.8	0.00e+00	0	35	0	639631360	79	5091
2026-01-01 10:37:13.23	217.62	47.06	-56.8	-59.4	14.9	0.00e+00	0	35	0	641728512	79	4977
2026-01-01 10:37:14.20	218.07	47.25	-56.2	-58.5	15.3	0.00e+00	0	35	0	643825664	79	4464
2026-01-01 10:37:15.17	218.52	47.44	-55.7	-57.8	15.9	0.00e+00	0	35	0	644874240	78	4346
2026-01-01 10:37:16.13	218.97	47.62	-55.0	-56.9	16.3	0.00e+00	0	35	0	646971392	76	4411
2026-01-01 10:37:17.10	219.44	47.81	-55.2	-57.1	16.3	0.00e+00	0	35	0	649068544	76	4535
2026-01-01 10:37:18.06	219.90	47.99	-55.6	-57.7	16.0	0.00e+00	0	35	0	651165696	76	4863
2026-01-01 10:37:19.03	220.37	48.17	-55.5	-57.6	16.1	0.00e+00	0	35	0	652214272	77	4497
2026-01-01 10:37:20.00	220.85	48.35	-55.5	-57.5	16.1	0.00e+00	0	35	0	654311424	77	4474
2026-01-01 10:37:20.97	221.34	48.53	-54.6	-56.3	16.6	0.00e+00	0	35	0	656408576	75	4388
2026-01-01 10:37:21.93	221.82	48.71	-54.6	-56.4	16.6	0.00e+00	0	35	0	658505728	75	4432
2026-01-01 10:37:22.90	222.32	48.89	-55.2	-57.2	16.2	0.00e+00	0	35	0	659554304	75	4840
2026-01-01 10:37:23.86	222.82	49.06	-55.2	-57.2	16.2	0.00e+00	0	35	0	661651456	75	4816
2026-01-01 10:37:24.83	223.32	49.23	-55.3	-57.3	16.2	0.00e+00	0	35	0	663748608	75	4891
2026-01-01 10:37:25.80	223.84	49.41	-55.2	-57.2	16.2	0.00e+00	0	35	0	665845760	75	4823
2026-01-01 10:37:26.76	224.35	49.58	-55.1	-57.0	16.3	0.00e+00	0	35	0	666894336	76	4458
2026-01-01 10:37:27.73	224.87	49.74	-54.8	-56.6	16.5	0.00e+00	0	35	0	668991488	76	4285
2026-01-01 10:37:28.69	225.40	49.91	-53.9	-55.6	16.9	0.00e+00	0	35	0	671088640	74	4258
2026-01-01 10:37:29.66	225.93	50.07	-54.0	-55.7	16.9	0.00e+00	0	35	0	672137216	74	4298
2026-01-01 10:37:30.63	226.47	50.24	-54.2	-55.9	16.8	0.00e+00	0	35	0	674234368	74	4416
2026-01-01 10:37:31.60	227.02	50.40	-54.5	-56.3	16.6	0.00e+00	0	35	0	676331520	74	4624
2026-01-01 10:37:32.56	227.57	50.55	-54.0	-55.6	16.9	0.00e+00	0	35	0	678428672	74	4272
2026-01-01 10:37:33.53	228.13	50.71	-53.5	-55.1	17.1	0.00e+00	0	35	0	679477248	73	4255
2026-01-01 10:37:34.50	228.69	50.86	-53.1	-54.6	17.2	0.00e+00	0	35	0	681574400	72	4291
2026-01-01 10:37:35.47	229.26	51.01	-53.3	-54.9	17.2	0.00e+00	0	35	0	683671552	72	4392
2026-01-01 10:37:36.43	229.83	51.16	-53.3	-54.9	17.2	0.00e+00	0	35	0	684720128	72	4393
2026-01-01 10:37:37.40	230.41	51.31	-53.0	-54.4	17.3	0.00e+00	0	35	0	686817280	72	4191
2026-01-01 10:37:38.36	230.99	51.45	-53.5	-55.1	17.1	0.00e+00	0	35	0	688914432	72	4532
2026-01-01 10:37:39.33	231.58	51.59	-53.7	-55.3	17.0	0.00e+00	0	35	0	691011584	72	4634
2026-01-01 10:37:40.30	232.18	51.73	-53.6	-55.2	17.0	0.00e+00	0	35	0	692060160	72	4573
2026-01-01 10:37:41.26	232.78	51.86	-53.2	-54.7	17.2	0.00e+00	0	35	0	694157312	72	4328
2026-01-01 10:37:42.23	233.39	52.00	-53.2	-54.7	17.2	0.00e+00	0	35	0	696254464	72	4338
2026-01-01 10:37:43.20	234.00	52.13	-53.6	-55.2	17.1	0.00e+00	0	35	0	698351616	72	4562
2026-01-01 10:37:44.17	234.62	52.25	-53.3	-54.8	17.2	0.00e+00	0	35	0	699400192	72	4360
2026-01-01 10:37:45.14	235.24	52.38	-52.6	-54.0	17.5	0.00e+00	0	35	0	701497344	71	4216
2026-01-01 10:37:46.10	235.87	52.49	-52.7	-54.2	17.4	0.00e+00	0	35	0	703594496	71	4299
2026-01-01 10:37:47.07	236.50	52.61	-53.3	-54.8	17.2	0.00e+00	0	35	0	705691648	71	4640
2026-01-01 10:37:48.04	237.14	52.73	-53.9	-55.6	16.8	0.00e+00	0	35	0	706740224	73	4495
2026-01-01 10:37:49.00	237.78	52.84	-53.7	-55.2	17.1	0.00e+00	0	35	0	708837376	73	4330
2026-01-01 10:37:49.97	238.43	52.94	-53.8	-55.5	16.9	0.00e+00	0	35	0	710934528	73	4444
2026-01-01 10:37:50.94	239.08	53.05	-54.1	-55.8	16.8	0.00e+00	0	35	0	711983104	73	4621
2026-01-01 10:37:51.90	239.73	53.14	-53.4	-55.0	17.1	0.00e+00	0	35	0	714080256	73	4202
2026-01-01 10:37:52.87	240.39	53.24	-52.8	-54.3	17.4	0.00e+00	0	35	0	716177408	72	4119
2026-01-01 10:37:53.84	241.06	53.33	-52.7	-54.1	17.4	0.00e+00	0	35	0	718274560	71	4289
2026-01-01 10:37:54.80	241.73	53.42	-53.9	-55.6	16.9	0.00e+00	0	35	0	719323136	72	4781
2026-01-01 10:37:55.77	242.40	53.51	-54.8	-56.7	16.4	0.00e+00	0	35	0	721420288	74	4845
2026-01-01 10:37:56.74	243.08	53.59	-54.5	-56.3	16.6	0.00e+00	0	35	0	723517440	74	4605
2026-01-01 10:37:57.71	243.76	53.67	-54.4	-56.3	16.6	0.00e+00	0	35	0	725614592	74	4608
2026-01-01 10:37:58.68	244.45	53.74	-54.9	-56.8	16.4	0.00e+00	0	35	0	726663168	75	4629
2026-01-01 10:37:59.65	245.14	53.81	-54.9	-56.8	16.4	0.00e+00	0	35	0	728760320	75	4620
2026-01-01 10:38:00.62	245.83	53.88	-54.1	-55.9	16.8	0.00e+00	0	35	0	730857472	74	4398
2026-01-01 10:38:01.59	246.52	53.94	-53.9	-55.5	16.9	0.00e+00	0	35	0	732954624	73	4485
2026-01-01 10:38:02.56	247.22	53.99	-53.9	-55.5	16.9	0.00e+00	0	35	0	734003200	73	4486
2026-01-01 10:38:03.52	247.92	54.05	-54.7	-56.6	16.5	0.00e+00	0	35	0	736100352	74	4767
2026-01-01 10:38:04.49	248.62	54.10	-55.4	-57.4	16.1	0.00e+00	0	35	0	738197504	75	4966
2026-01-01 10:38:05.45	249.32	54.14	-54.7	-56.5	16.5	0.00e+00	0	35	0	739246080	75	4489
2026-01-01 10:38:06.42	250.03	54.18	-54.1	-55.8	16.8	0.00e+00	0	35	0	741343232	74	4375
2026-01-01 10:38:07.39	250.74	54.22	-54.0	-55.7	17.0	0.00e+00	0	35	0	743440384	74	4310
2026-01-01 10:38:08.35	251.44	54.25	-54.2	-55.9	16.8	0.00e+00	0	35	0	745537536	74	4406
2026-01-01 10:38:09.32	252.15	54.28	-54.6	-56.4	16.6	0.00e+00	0	35	0	746586112	74	4686
2026-01-01 10:38:10.28	252.86	54.30	-54.6	-56.3	16.6	0.00e+00	0	35	0	748683264	74	4646
2026-01-01 10:38:11.25	253.57	54.32	-54.9	-56.7	16.4	0.00e+00	0	35	0	750780416	74	4865
2026-01-01 10:38:12.21	254.28	54.33	-55.2	-57.3	16.2	0.00e+00	0	35	0	752877568	75	4872
2026-01-01 10:38:13.18	255.00	54.34	-56.1	-58.3	15.6	0.00e+00	0	35	0	753926144	77	4903
2026-01-01 10:38:14.14	255.71	54.35	-55.1	-57.0	16.3	0.00e+00	0	35	0	756023296	76	4470
2026-01-01 10:38:15.11	256.42	54.35	-54.4	-56.2	16.7	0.00e+00	0	35	0	758120448	75	4314
2026-01-01 10:38:16.07	257.13	54.35	-54.6	-56.4	16.6	0.00e+00	0	35	0	759169024	75	4418
2026-01-01 10:38:17.04	257.85	54.34	-54.7	-56.5	16.5	0.00e+00	0	35	0	761266176	75	4458
2026-01-01 10:38:18.01	258.57	54.33	-54.3	-56.1	16.7	0.00e+00	0	35	0	763363328	75	4252
2026-01-01 10:38:18.97	259.27	54.31	-53.9	-55.5	17.0	0.00e+00	0	35	0	765460480	73	4446
2026-01-01 10:38:19.94	259.99	54.29	-53.6	-55.1	17.1	0.00e+00	0	35	0	766509056	73	4273
2026-01-01 10:38:20.91	260.70	54.26	-53.8	-55.4	17.0	0.00e+00	0	35	0	768606208	73	4427
2026-01-01 10:38:21.87	261.41	54.24	-54.2	-55.9	16.8	0.00e+00	0	35	0	770703360	73	4684
2026-01-01 10:38:22.84	262.12	54.20	-54.0	-55.6	16.9	0.00e+00	0	35	0	771751936	73	4538
2026-01-01 10:38:23.80	262.82	54.16	-54.5	-56.2	16.7	0.00e+00	0	35	0	773849088	74	4589
2026-01-01 10:38:24.77	263.53	54.12	-54.4	-56.1	16.7	0.00e+00	0	35	0	775946240	74	4520
2026-01-01 10:38:25.74	264.23	54.08	-54.4	-56.2	16.7	0.00e+00	0	35	0	778043392	74	4555
2026-01-01 10:38:26.70	264.92	54.03	-54.2	-55.9	16.8	0.00e+00	0	34	0	779091968	74	4424
2026-01-01 10:38:27.67	265.62	53.97	-53.9	-55.6	16.9	0.00e+00	0	35	0	781189120	74	4245
2026-01-01 10:38:28.64	266.32	53.91	-53.6	-55.1	17.1	0.00e+00	0	35	0	783286272	73	4284
2026-01-01 10:38:29.61	267.01	53.85	-53.2	-54.7	17.2	0.00e+00	0	35	0	785383424	72	4299
2026-01-01 10:38:30.58	267.71	53.78	-53.4	-54.9	17.2	0.00e+00	0	35	0	786432000	72	4423
2026-01-01 10:38:31.55	268.39	53.71	-54.1	-55.7	16.9	0.00e+00	0	35	0	788529152	73	4597
2026-01-01 10:38:32.51	269.07	53.64	-54.3	-56.1	16.7	0.00e+00	0	35	0	790626304	73	4773
2026-01-01 10:38:33.48	269.75	53.56	-54.2	-55.9	16.8	0.00e+00	0	35	0	792723456	74	4400
2026-01-01 10:38:34.45	270.43	53.47	-54.0	-55.7	16.8	0.00e+00	0	35	0	793772032	73	4561
2026-01-01 10:38:35.42	271.10	53.39	-54.1	-55.8	16.8	0.00e+00	0	35	0	795869184	73	4616
2026-01-01 10:38:36.38	271.76	53.30	-54.8	-56.6	16.5	0.00e+00	0	35	0	797966336	74	4771
2026-01-01 10:38:37.35	272.43	53.20	-54.8	-56.7	16.5	0.00e+00	0	35	0	799014912	75	4551
2026-01-01 10:38:38.32	273.09	53.11	-54.9	-56.8	16.4	0.00e+00	0	35	0	801112064	75	4638
2026-01-01 10:38:39.29	273.74	53.00	-55.1	-57.0	16.3	0.00e+00	0	35	0	803209216	75	4759
2026-01-01 10:38:40.26	274.39	52.90	-55.0	-56.9	16.3	0.00e+00	0	35	0	805306368	75	4694
2026-01-01 10:38:41.23	275.04	52.79	-54.1	-55.8	16.8	0.00e+00	0	35	0	806354944	74	4372
2026-01-01 10:38:42.20	275.68	52.68	-53.9	-55.5	16.9	0.00e+00	0	35	0	808452096	74	4220
2026-01-01 10:38:43.16	276.31	52.57	-54.9	-56.8	16.5	0.00e+00	0	35	0	810549248	74	4899
2026-01-01 10:38:44.12	276.94	52.45	-55.4	-57.4	16.2	0.00e+00	0	35	0	812646400	76	4694
2026-01-01 10:38:45.09	277.56	52.33	-55.6	-57.6	16.1	0.00e+00	0	35	0	813694976	76	4799
2026-01-01 10:38:46.06	278.18	52.20	-55.4	-57.4	16.2	0.00e+00	0	35	0	815792128	76	4657
2026-01-01 10:38:47.03	278.80	52.07	-55.2	-57.2	16.3	0.00e+00	0	35	0	817889280	76	4552
2026-01-01 10:38:48.00	279.41	51.94	-54.2	-55.9	16.8	0.00e+00	0	35	0	819986432	75	4179
2026-01-01 10:38:48.97	280.02	51.81	-53.8	-55.4	17.0	0.00e+00	0	35	0	821035008	74	4165
2026-01-01 10:38:49.93	280.61	51.68	-53.9	-55.5	17.0	0.00e+00	0	35	0	823132160	73	4458
2026-01-01 10:38:50.90	281.21	51.54	-54.6	-56.4	16.6	0.00e+00	0	35	0	825229312	74	4692
2026-01-01 10:38:51.86	281.79	51.40	-54.5	-56.3	16.6	0.00e+00	0	35	0	826277888	74	4623
2026-01-01 10:38:52.83	282.37	51.25	-54.2	-55.9	16.9	0.00e+00	0	35	0	828375040	74	4402
2026-01-01 10:38:53.80	282.95	51.10	-53.3	-54.9	17.2	0.00e+00	0	35	0	830472192	73	4154
2026-01-01 10:38:54.76	283.52	50.96	-53.6	-55.2	17.1	0.00e+00	0	35	0	832569344	73	4327
2026-01-01 10:38:55.73	284.08	50.80	-53.5	-55.1	17.1	0.00e+00	0	35	0	833617920	73	4251
2026-01-01 10:38:56.69	284.64	50.65	-53.0	-54.5	17.3	0.00e+00	0	35	0	835715072	72	4195
2026-01-01 10:38:57.66	285.19	50.49	-52.7	-54.2	17.4	0.00e+00	0	35	0	837812224	71	4297
2026-01-01 10:38:58.63	285.74	50.34	-52.9	-54.3	17.3	0.00e+00	0	35	0	838860800	71	4389
2026-01-01 10:38:59.59	286.28	50.18	-53.3	-54.8	17.2	0.00e+00	0	35	0	840957952	71	4645
2026-01-01 10:39:00.56	286.82	50.01	-53.3	-54.8	17.2	0.00e+00	0	35	0	843055104	71	4641
2026-01-01 10:39:01.53	287.35	49.85	-54.0	-55.6	16.9	0.00e+00	0	35	0	845152256	73	4510
2026-01-01 10:39:02.50	287.88	49.68	-54.6	-56.3	16.6	0.00e+00	0	35	0	846200832	74	4639
2026-01-01 10:39:03.46	288.39	49.52	-54.0	-55.7	16.9	0.00e+00	0	35	0	848297984	74	4296
2026-01-01 10:39:04.43	288.91	49.34	-53.1	-54.6	17.3	0.00e+00	0	35	0	850395136	72	4264
2026-01-01 10:39:05.39	289.41	49.17	-52.6	-54.0	17.5	0.00e+00	0	35	0	852492288	71	4219
2026-01-01 10:39:06.36	289.92	49.00	-53.4	-54.9	17.2	0.00e+00	0	35	0	853540864	72	4438
2026-01-01 10:39:07.32	290.41	48.83	-54.6	-56.5	16.6	0.00e+00	0	35	0	855638016	74	4718
2026-01-01 10:39:08.29	290.90	48.65	-55.1	-57.1	16.4	0.00e+00	0	35	0	857735168	75	4764
2026-01-01 10:39:09.26	291.39	48.47	-54.5	-56.3	16.7	0.00e+00	0	35	0	859832320	75	4358
2026-01-01 10:39:10.22	291.87	48.29	-54.7	-56.5	16.6	0.00e+00	0	35	0	860880896	75	4446
2026-01-01 10:39:11.19	292.34	48.11	-55.1	-57.0	16.3	0.00e+00	0	35	0	862978048	75	4721
2026-01-01 10:39:12.16	292.81	47.93	-55.9	-58.1	15.8	0.00e+00	0	35	0	865075200	77	4770
2026-01-01 10:39:13.13	293.28	47.75	-56.0	-58.2	15.8	0.00e+00	0	35	0	866123776	77	4821
2026-01-01 10:39:14.09	293.73	47.56	-56.3	-58.5	15.5	0.00e+00	0	35	0	868220928	77	5026
2026-01-01 10:39:15.06	294.19	47.38	-56.5	-58.9	15.4	0.00e+00	0	34	0	870318080	78	4933
2026-01-01 10:39:16.03	294.64	47.19	-56.3	-58.5	15.6	0.00e+00	0	35	0	872415232	78	4751
2026-01-01 10:39:16.99	295.08	47.00	-56.3	-58.5	15.6	0.00e+00	0	35	0	873463808	78	4741
2026-01-01 10:39:17.96	295.52	46.81	-56.7	-59.2	15.2	0.00e+00	0	35	0	875560960	78	5150
2026-01-01 10:39:18.93	295.95	46.62	-57.1	-59.8	14.9	0.00e+00	0	35	0	877658112	79	5173
2026-01-01 10:39:19.90	296.38	46.43	-56.4	-58.7	15.4	0.00e+00	0	35	0	879755264	79	4551
2026-01-01 10:39:20.86	296.80	46.24	-55.3	-57.3	16.2	0.00e+00	0	35	0	880803840	77	4344
2026-01-01 10:39:21.83	297.21	46.05	-55.2	-57.1	16.3	0.00e+00	0	35	0	882900992	76	4500
2026-01-01 10:39:22.80	297.63	45.86	-56.3	-58.6	15.5	0.00e+00	0	35	0	884998144	77	5081
2026-01-01 10:39:23.77	298.03	45.66	-57.1	-59.7	14.9	0.00e+00	0	35	0	886046720	79	5135
2026-01-01 10:39:24.73	298.43	45.47	-57.9	-61.0	14.0	0.00e+00	0	35	0	888143872	80	5655
2026-01-01 10:39:25.70	298.83	45.28	-57.7	-60.7	14.2	0.00e+00	0	35	0	890241024	80	5432
2026-01-01 10:39:26.67	299.22	45.08	-57.5	-60.3	14.5	0.00e+00	0	35	0	892338176	80	5200
2026-01-01 10:39:27.63	299.61	44.89	-57.4	-60.3	14.5	0.00e+00	0	35	0	893386752	80	5161
2026-01-01 10:39:28.60	299.99	44.69	-57.4	-60.2	14.5	0.00e+00	0	35	0	895483904	80	5112
2026-01-01 10:39:29.58	300.38	44.49	-58.0	-61.3	13.8	0.00e+00	0	35	0	897581056	81	5474
2026-01-01 10:39:30.54	300.75	44.30	-58.3	-61.8	13.3	7.00e-07	0	35	0	899678208	82	5485
2026-01-01 10:39:31.51	301.12	44.10	-58.3	-61.8	13.4	0.00e+00	0	35	0	900726784	82	5479
2026-01-01 10:39:32.48	301.48	43.90	-58.6	-62.4	13.0	7.00e-07	0	35	0	902823936	82	5896
2026-01-01 10:39:33.44	301.84	43.71	-58.8	-62.6	12.8	0.00e+00	0	35	0	904921088	82	5994
2026-01-01 10:39:34.41	302.20	43.51	-60.1	-65.9	10.0	3.58e-05	0	35	0	905969664	85	7380
2026-01-01 10:39:35.38	302.55	43.31	-60.7	-68.0	8.1	2.80e-02	0	35	0	908066816	86	8899
2026-01-01 10:39:36.34	302.89	43.11	-60.8	-69.0	6.9	1.64e-01	0	35	0	910163968	87	9413
2026-01-01 10:39:37.31	303.24	42.92	-59.6	-64.5	11.1	2.97e-02	0	35	0	912261120	85	6336
2026-01-01 10:39:38.27	303.57	42.72	-58.1	-61.3	13.7	2.89e-05	0	35	0	913309696	82	5199
2026-01-01 10:39:39.24	303.91	42.52	-57.3	-60.1	14.6	0.00e+00	0	35	0	915406848	81	4776
2026-01-01 10:39:40.21	304.24	42.32	-57.4	-60.2	14.5	0.00e+00	0	35	0	917504000	81	4843
2026-01-01 10:39:41.17	304.56	42.13	-57.6	-60.7	14.2	0.00e+00	0	35	0	919601152	81	5106
2026-01-01 10:39:42.14	304.89	41.93	-58.6	-62.4	13.0	0.00e+00	0	35	0	920649728	82	5862
2026-01-01 10:39:43.11	305.21	41.73	-58.9	-63.0	12.5	1.67e-05	0	35	0	922746880	83	5932
2026-01-01 10:39:44.08	305.52	41.53	-57.6	-60.6	14.2	0.00e+00	0	35	0	924844032	81	5063
2026-01-01 10:39:45.05	305.84	41.33	-56.2	-58.4	15.6	0.00e+00	0	34	0	926941184	79	4425
2026-01-01 10:39:46.01	306.14	41.14	-55.6	-57.5	16.1	0.00e+00	0	35	0	927989760	77	4487
2026-01-01 10:39:46.98	306.45	40.94	-55.4	-57.4	16.1	0.00e+00	0	35	0	930086912	77	4408
2026-01-01 10:39:47.94	306.74	40.74	-55.5	-57.4	16.1	0.00e+00	0	35	0	932184064	77	4441
2026-01-01 10:39:48.91	307.04	40.55	-56.4	-58.7	15.4	0.00e+00	0	35	0	933232640	78	4864
2026-01-01 10:39:49.87	307.33	40.35	-57.6	-60.7	14.2	0.00e+00	0	35	0	935329792	80	5403
2026-01-01 10:39:50.84	307.62	40.16	-56.6	-59.1	15.1	0.00e+00	0	35	0	937426944	79	4801
2026-01-01 10:39:51.81	307.91	39.96	-55.1	-57.0	16.3	0.00e+00	0	35	0	939524096	76	4490
2026-01-01 10:39:52.77	308.19	39.77	-54.4	-56.1	16.7	0.00e+00	0	35	0	940572672	75	4272
2026-01-01 10:39:53.74	308.47	39.57	-54.1	-55.8	16.8	0.00e+00	0	35	0	942669824	74	4355
2026-01-01 10:39:54.70	308.75	39.38	-54.6	-56.4	16.6	0.00e+00	0	35	0	944766976	74	4687
2026-01-01 10:39:55.67	309.02	39.18	-56.2	-58.5	15.6	0.00e+00	0	35	0	945815552	77	5021
2026-01-01 10:39:56.64	309.29	38.99	-57.7	-60.9	14.0	0.00e+00	0	35	0	947912704	80	5541
2026-01-01 10:39:57.60	309.56	38.79	-57.0	-59.7	14.7	0.00e+00	0	35	0	950009856	80	4844
2026-01-01 10:39:58.57	309.82	38.60	-55.9	-58.1	15.7	0.00e+00	0	35	0	952107008	78	4529
2026-01-01 10:39:59.53	310.08	38.41	-55.5	-57.5	16.1	0.00e+00	0	35	0	953155584	77	4479
2026-01-01 10:40:00.51	310.34	38.22	-54.8	-56.6	16.5	0.00e+00	0	35	0	955252736	76	4284
2026-01-01 10:40:01.47	310.59	38.02	-54.3	-56.0	16.8	0.00e+00	0	35	0	957349888	75	4222
2026-01-01 10:40:02.44	310.84	37.83	-54.5	-56.3	16.6	0.00e+00	0	35	0	959447040	75	4345
2026-01-01 10:40:03.41	311.09	37.64	-54.9	-56.8	16.4	0.00e+00	0	35	0	960495616	75	4631
2026-01-01 10:40:04.37	311.34	37.45	-56.0	-58.2	15.7	0.00e+00	0	35	0	962592768	77	4851
2026-01-01 10:40:05.34	311.58	37.26	-56.5	-59.0	15.2	0.00e+00	0	35	0	964689920	78	5014
2026-01-01 10:40:06.30	311.82	37.07	-56.2	-58.6	15.5	0.00e+00	0	35	0	966787072	78	4790
2026-01-01 10:40:07.27	312.06	36.89	-55.5	-57.6	16.0	0.00e+00	0	35	0	967835648	77	4494
2026-01-01 10:40:08.24	312.29	36.70	-54.4	-56.1	16.7	0.00e+00	0	35	0	969932800	75	4274
2026-01-01 10:40:09.20	312.53	36.51	-53.8	-55.4	17.0	0.00e+00	0	35	0	972029952	74	4164
2026-01-01 10:40:10.17	312.76	36.32	-53.6	-55.2	17.0	0.00e+00	0	35	0	973078528	73	4303
2026-01-01 10:40:11.13	312.98	36.14	-53.6	-55.1	17.1	0.00e+00	0	35	0	975175680	73	4277
2026-01-01 10:40:12.10	313.21	35.95	-54.4	-56.2	16.7	0.00e+00	0	35	0	977272832	73	4827
2026-01-01 10:40:13.07	313.43	35.77	-55.4	-57.5	16.0	0.00e+00	0	35	0	979369984	75	5025
2026-01-01 10:40:14.04	313.65	35.58	-55.9	-58.2	15.7	0.00e+00	0	35	0	980418560	77	4815
2026-01-01 10:40:15.00	313.87	35.40	-55.9	-58.2	15.7	0.00e+00	0	35	0	982515712	77	4832
2026-01-01 10:40:15.97	314.08	35.21	-55.6	-57.7	15.9	0.00e+00	0	35	0	984612864	77	4582
2026-01-01 10:40:16.93	314.29	35.03	-54.9	-56.8	16.4	0.00e+00	0	35	0	985661440	76	4356
2026-01-01 10:40:17.90	314.50	34.85	-54.8	-56.6	16.5	0.00e+00	0	35	0	987758592	76	4255
2026-01-01 10:40:18.86	314.71	34.67	-54.8	-56.7	16.4	0.00e+00	0	34	0	989855744	75	4549
2026-01-01 10:40:19.83	314.92	34.49	-54.9	-56.7	16.4	0.00e+00	0	35	0	991952896	75	4583
2026-01-01 10:40:20.79	315.12	34.31	-55.6	-57.6	16.0	0.00e+00	0	34	0	993001472	76	4803
2026-01-01 10:40:21.76	315.32	34.13	-56.1	-58.4	15.5	0.00e+00	0	35	0	995098624	77	4940
2026-01-01 10:40:22.73	315.52	33.95	-56.4	-58.9	15.2	0.00e+00	0	35	0	997195776	78	4930
2026-01-01 10:40:23.70	315.72	33.77	-57.0	-59.7	14.8	0.00e+00	0	35	0	999292928	79	5124
2026-01-01 10:40:24.66	315.91	33.60	-57.5	-60.5	14.3	0.00e+00	0	35	0	1000341504	80	5285
2026-01-01 10:40:25.63	316.10	33.42	-57.6	-60.7	14.1	0.00e+00	0	35	0	1002438656	80	5425
2026-01-01 10:40:26.59	316.29	33.25	-57.0	-59.7	14.7	0.00e+00	0	35	0	1004535808	80	4840
2026-01-01 10:40:27.56	316.48	33.07	-56.5	-58.9	15.3	0.00e+00	0	35	0	1006632960	79	4662
2026-01-01 10:40:28.52	316.67	32.90	-55.4	-57.4	16.0	0.00e+00	0	35	0	1007681536	77	4414
2026-01-01 10:40:29.49	316.85	32.72	-54.5	-56.3	16.5	0.00e+00	0	35	0	1009778688	75	4379
2026-01-01 10:40:30.45	317.04	32.55	-54.3	-56.1	16.6	0.00e+00	0	35	0	1011875840	75	4254
2026-01-01 10:40:31.42	317.22	32.38	-54.5	-56.2	16.6	0.00e+00	0	35	0	1012924416	74	4585
2026-01-01 10:40:32.39	317.40	32.20	-54.9	-56.7	16.3	0.00e+00	0	35	0	1015021568	74	4863
2026-01-01 10:40:33.35	317.57	32.03	-55.6	-57.7	15.9	0.00e+00	0	35	0	1017118720	76	4830
2026-01-01 10:40:34.32	317.75	31.86	-56.4	-58.8	15.3	0.00e+00	0	35	0	1019215872	77	5171
2026-01-01 10:40:35.28	317.92	31.69	-56.8	-59.4	14.9	0.00e+00	0	35	0	1020264448	78	5272
2026-01-01 10:40:36.25	318.10	31.52	-57.2	-60.0	14.5	0.00e+00	0	35	0	1022361600	79	5338
2026-01-01 10:40:37.21	318.26	31.36	-57.1	-59.9	14.6	0.00e+00	0	35	0	1024458752	79	5246
2026-01-01 10:40:38.18	318.43	31.19	-57.1	-59.9	14.6	0.00e+00	0	35	0	1025507328	79	5240
2026-01-01 10:40:39.15	318.60	31.02	-56.3	-58.7	15.2	0.00e+00	0	35	0	1027604480	79	4555
2026-01-01 10:40:40.12	318.77	30.86	-56.1	-58.4	15.5	0.00e+00	0	35	0	1029701632	78	4671
2026-01-01 10:40:41.08	318.93	30.69	-55.6	-57.7	15.9	0.00e+00	0	35	0	1031798784	77	4581
2026-01-01 10:40:42.05	319.09	30.53	-55.1	-57.1	16.2	0.00e+00	0	35	0	1032847360	76	4499
2026-01-01 10:40:43.02	319.25	30.36	-55.0	-56.9	16.3	0.00e+00	0	35	0	1034944512	76	4436
2026-01-01 10:40:43.99	319.41	30.20	-54.7	-56.6	16.5	0.00e+00	0	35	0	1037041664	76	4247
2026-01-01 10:40:44.95	319.57	30.04	-55.2	-57.1	16.2	0.00e+00	0	35	0	1039138816	76	4543
2026-01-01 10:40:45.92	319.73	29.87	-55.8	-58.0	15.8	0.00e+00	0	35	0	1040187392	76	4991
2026-01-01 10:40:46.89	319.88	29.71	-55.7	-57.8	15.8	0.00e+00	0	35	0	1042284544	76	4926
2026-01-01 10:40:47.86	320.03	29.55	-56.4	-58.9	15.2	0.00e+00	0	35	0	1044381696	78	4942
2026-01-01 10:40:48.83	320.19	29.39	-56.5	-59.0	15.2	0.00e+00	0	35	0	1046478848	78	5011
2026-01-01 10:40:49.80	320.34	29.23	-56.6	-59.1	15.2	0.00e+00	0	35	0	1047527424	78	5052
2026-01-01 10:40:50.76	320.48	29.07	-56.9	-59.5	14.9	0.00e+00	0	35	0	1049624576	78	5312
2026-01-01 10:40:51.73	320.63	28.91	-56.8	-59.4	15.0	0.00e+00	0	35	0	1051721728	78	5223
2026-01-01 10:40:52.70	320.78	28.76	-56.5	-59.0	15.1	0.00e+00	0	35	0	1052770304	78	5036
2026-01-01 10:40:53.66	320.92	28.60	-56.0	-58.3	15.6	0.00e+00	0	35	0	1054867456	78	4605
2026-01-01 10:40:54.63	321.06	28.44	-55.6	-57.7	15.9	0.00e+00	0	35	0	1056964608	77	4583
2026-01-01 10:40:55.60	321.21	28.29	-55.0	-57.0	16.3	0.00e+00	0	35	0	1059061760	76	4455
2026-01-01 10:40:56.56	321.34	28.14	-54.2	-56.0	16.7	0.00e+00	0	35	0	1060110336	75	4217
2026-01-01 10:40:57.53	321.48	27.98	-54.2	-55.9	16.7	0.00e+00	0	35	0	1062207488	74	4419
2026-01-01 10:40:58.49	321.62	27.83	-53.8	-55.4	16.9	0.00e+00	0	35	0	1064304640	74	4183
2026-01-01 10:40:59.46	321.76	27.68	-53.4	-55.1	17.0	0.00e+00	0	35	0	1066401792	73	4255
2026-01-01 10:41:00.43	321.89	27.52	-53.7	-55.4	16.9	0.00e+00	0	35	0	1067450368	73	4409
2026-01-01 10:41:01.40	322.03	27.37	-53.7	-55.3	16.9	0.00e+00	0	35	0	1069547520	73	4388
2026-01-01 10:41:02.36	322.16	27.22	-54.4	-56.2	16.6	0.00e+00	0	35	0	1071644672	73	4837
2026-01-01 10:41:03.33	322.29	27.07	-55.0	-57.0	16.2	0.00e+00	0	35	0	1072693248	75	4755
2026-01-01 10:41:04.30	322.42	26.92	-55.2	-57.3	16.1	0.00e+00	0	35	0	1074790400	75	4882
2026-01-01 10:41:05.26	322.55	26.78	-56.0	-58.4	15.6	0.00e+00	0	35	0	1076887552	77	4952
2026-01-01 10:41:06.23	322.68	26.63	-56.2	-58.7	15.3	0.00e+00	0	35	0	1078984704	77	5103
2026-01-01 10:41:07.19	322.80	26.48	-56.1	-58.5	15.4	0.00e+00	0	35	0	1080033280	77	4990
2026-01-01 10:41:08.16	322.93	26.34	-56.2	-58.6	15.4	0.00e+00	0	35	0	1082130432	77	5058
2026-01-01 10:41:09.12	323.05	26.19	-55.8	-58.1	15.6	0.00e+00	0	35	0	1084227584	77	4798
2026-01-01 10:41:10.09	323.18	26.05	-55.3	-57.4	16.1	0.00e+00	0	35	0	1086324736	77	4404
2026-01-01 10:41:11.06	323.30	25.90	-54.7	-56.6	16.4	0.00e+00	0	35	0	1087373312	76	4270
2026-01-01 10:41:12.02	323.42	25.76	-54.1	-55.9	16.7	0.00e+00	0	35	0	1089470464	74	4401
2026-01-01 10:41:12.99	323.54	25.61	-53.9	-55.6	16.8	0.00e+00	0	35	0	1091567616	74	4273
2026-01-01 10:41:13.96	323.66	25.47	-53.7	-55.3	16.9	0.00e+00	0	35	0	1092616192	74	4140
2026-01-01 10:41:14.93	323.78	25.33	-53.6	-55.2	17.0	0.00e+00	0	35	0	1094713344	73	4297
2026-01-01 10:41:15.90	323.90	25.19	-53.8	-55.5	16.9	0.00e+00	0	35	0	1096810496	73	4463
2026-01-01 10:41:16.86	324.01	25.05	-53.8	-55.4	16.9	0.00e+00	0	35	0	1098907648	73	4441
2026-01-01 10:41:17.83	324.13	24.91	-54.2	-55.9	16.7	0.00e+00	0	35	0	1099956224	73	4672
2026-01-01 10:41:18.80	324.24	24.77	-54.4	-56.1	16.6	0.00e+00	0	35	0	1102053376	74	4542
2026-01-01 10:41:19.77	324.36	24.63	-54.9	-56.9	16.2	0.00e+00	0	35	0	1104150528	74	4928
2026-01-01 10:41:20.73	324.47	24.49	-55.1	-57.0	16.1	0.00e+00	0	35	0	1106247680	75	4751
2026-01-01 10:41:21.70	324.58	24.35	-55.1	-57.1	16.1	0.00e+00	0	35	0	1107296256	75	4783
2026-01-01 10:41:22.66	324.69	24.22	-55.4	-57.5	15.9	0.00e+00	0	35	0	1109393408	76	4745
2026-01-01 10:41:23.63	324.80	24.08	-55.5	-57.6	15.9	0.00e+00	0	35	0	1111490560	76	4774
2026-01-01 10:41:24.60	324.91	23.95	-55.2	-57.3	16.1	0.00e+00	0	35	0	1113587712	76	4599
2026-01-01 10:41:25.56	325.02	23.81	-55.4	-57.4	16.0	0.00e+00	0	35	0	1114636288	76	4695
2026-01-01 10:41:26.53	325.12	23.68	-55.0	-57.1	16.2	0.00e+00	0	35	0	1116733440	76	4496
2026-01-01 10:41:27.49	325.23	23.54	-55.0	-57.0	16.2	0.00e+00	0	35	0	1118830592	76	4473
2026-01-01 10:41:28.46	325.34	23.41	-55.2	-57.3	16.0	0.00e+00	0	35	0	1119879168	76	4624
2026-01-01 10:41:29.43	325.44	23.28	-54.8	-56.7	16.3	0.00e+00	0	35	0	1121976320	76	4308
2026-01-01 10:41:30.40	325.54	23.15	-54.5	-56.4	16.5	0.00e+00	0	35	0	1124073472	75	4405
2026-01-01 10:41:31.36	325.65	23.02	-54.2	-56.0	16.6	0.00e+00	0	35	0	1126170624	75	4234
2026-01-01 10:41:32.33	325.75	22.88	-54.0	-55.7	16.7	0.00e+00	0	35	0	1127219200	74	4333
2026-01-01 10:41:33.30	325.85	22.75	-54.2	-56.0	16.6	0.00e+00	0	35	0	1129316352	74	4451
2026-01-01 10:41:34.27	325.95	22.62	-54.0	-55.7	16.7	0.00e+00	0	35	0	1131413504	74	4335
2026-01-01 10:41:35.23	326.05	22.50	-53.9	-55.6	16.7	0.00e+00	0	35	0	1132462080	74	4289
2026-01-01 10:41:36.20	326.15	22.37	-54.0	-55.8	16.7	0.00e+00	0	35	0	1134559232	74	4347
2026-01-01 10:41:37.17	326.25	22.24	-53.7	-55.4	16.8	0.00e+00	0	35	0	1136656384	74	4189
2026-01-01 10:41:38.14	326.34	22.11	-53.7	-55.4	16.8	0.00e+00	0	35	0	1138753536	73	4430
2026-01-01 10:41:39.10	326.44	21.98	-53.9	-55.6	16.7	0.00e+00	0	34	0	1139802112	73	4543
2026-01-01 10:41:40.07	326.53	21.86	-53.8	-55.5	16.8	0.00e+00	0	35	0	1141899264	73	4469
2026-01-01 10:41:41.03	326.63	21.73	-53.9	-55.6	16.7	0.00e+00	0	35	0	1143996416	73	4523
2026-01-01 10:41:42.00	326.72	21.61	-54.0	-55.8	16.6	0.00e+00	0	35	0	1146093568	73	4624
2026-01-01 10:41:42.96	326.82	21.48	-54.2	-56.0	16.5	0.00e+00	0	35	0	1147142144	73	4732
2026-01-01 10:41:43.93	326.91	21.36	-54.3	-56.1	16.5	0.00e+00	0	35	0	1149239296	73	4799
2026-01-01 10:41:44.90	327.00	21.24	-54.5	-56.4	16.4	0.00e+00	0	35	0	1151336448	74	4677
2026-01-01 10:41:45.87	327.09	21.11	-54.8	-56.8	16.2	0.00e+00	0	35	0	1153433600	74	4879
2026-01-01 10:41:46.84	327.18	20.99	-54.9	-56.9	16.1	0.00e+00	0	35	0	1154482176	74	4937
2026-01-01 10:41:47.80	327.27	20.87	-54.9	-56.9	16.0	0.00e+00	0	35	0	1156579328	75	4658
2026-01-01 10:41:48.77	327.36	20.75	-54.9	-56.9	15.9	0.00e+00	0	35	0	1158676480	75	4672
2026-01-01 10:41:49.74	327.45	20.62	-54.9	-57.0	16.0	0.00e+00	0	35	0	1159725056	75	4733
2026-01-01 10:41:50.71	327.54	20.50	-54.9	-57.0	16.1	0.00e+00	0	35	0	1161822208	75	4727
2026-01-01 10:41:51.67	327.63	20.39	-54.6	-56.6	16.3	0.00e+00	0	35	0	1163919360	75	4502
2026-01-01 10:41:52.64	327.71	20.27	-54.6	-56.5	16.3	0.00e+00	0	35	0	1166016512	75	4474
2026-01-01 10:41:53.60	327.80	20.15	-54.5	-56.4	16.4	0.00e+00	0	35	0	1167065088	75	4436
2026-01-01 10:41:54.57	327.88	20.03	-54.0	-55.7	16.7	0.00e+00	0	35	0	1169162240	74	4333
2026-01-01 10:41:55.54	327.97	19.91	-54.1	-55.8	16.6	0.00e+00	0	35	0	1171259392	74	4388
2026-01-01 10:41:56.50	328.05	19.79	-53.9	-55.6	16.8	0.00e+00	0	35	0	1173356544	74	4262
2026-01-01 10:41:57.47	328.14	19.68	-53.8	-55.5	16.8	0.00e+00	0	35	0	1174405120	73	4452
2026-01-01 10:41:58.44	328.22	19.56	-53.8	-55.5	16.8	0.00e+00	0	35	0	1176502272	73	4461
2026-01-01 10:41:59.40	328.30	19.45	-53.7	-55.4	16.8	0.00e+00	0	35	0	1178599424	73	4403
2026-01-01 10:42:00.37	328.38	19.33	-53.5	-55.2	16.9	0.00e+00	0	35	0	1179648000	73	4317
2026-01-01 10:42:01.33	328.46	19.22	-53.6	-55.3	16.8	0.00e+00	0	35	0	1181745152	73	4372
2026-01-01 10:42:02.30	328.55	19.10	-53.6	-55.2	16.9	0.00e+00	0	35	0	1183842304	73	4340
2026-01-01 10:42:03.27	328.63	18.99	-53.9	-55.7	16.7	0.00e+00	0	35	0	1185939456	73	4556
2026-01-01 10:42:04.23	328.70	18.87	-54.1	-55.9	16.6	0.00e+00	0	35	0	1186988032	73	4658
2026-01-01 10:42:05.20	328.78	18.76	-54.0	-55.8	16.6	0.00e+00	0	35	0	1189085184	73	4638
2026-01-01 10:42:06.17	328.86	18.65	-54.3	-56.2	16.4	0.00e+00	0	35	0	1191182336	73	4849
2026-01-01 10:42:07.13	328.94	18.54	-54.4	-56.3	16.4	0.00e+00	0	35	0	1193279488	74	4631
2026-01-01 10:42:08.10	329.02	18.42	-54.4	-56.3	16.4	0.00e+00	0	35	0	1194328064	74	4600
2026-01-01 10:42:09.07	329.09	18.31	-54.5	-56.4	16.3	0.00e+00	0	35	0	1196425216	74	4704
2026-01-01 10:42:10.03	329.17	18.20	-54.4	-56.3	16.4	0.00e+00	0	35	0	1198522368	74	4622
2026-01-01 10:42:11.00	329.25	18.09	-54.2	-56.1	16.5	0.00e+00	0	35	0	1200619520	74	4522
