passes_logs/2026/01/01/R3.2S_Murmansk/R3.2S_Murmansk__20260101_141553_ZKG05_rec.log

#Pass ID: 20260101_141553_ZKG05
#Satellite: ZKG05
#Configuration: ZKG05
#almurnet v.1.7.20251203
#Start time: 2026-01-01 14:15:55

#Version: 2.2.20231116
#Station: R3.2S_Murmansk
#Location: 33.079688 lon 68.888172 lat
#TLE: 1 65263U 25180E   25363.54303023  .00006586  00000-0  34273-3 0  9994
#TLE: 2 65263  97.4772 128.0191 0001674  87.3453 272.7971 15.16366041 20011

#Time	Az	El	Level	Level2	SNR	BER	BlckErr	Temp	State	Recorded	gain1	gain2
2026-01-01 14:15:55.51	22.71	2.11	-59.7	-62.9	6.2	0.00e+00	0	38	0	0	86	20018
2026-01-01 14:15:56.52	22.66	2.18	-59.7	-62.9	6.2	0.00e+00	0	38	104	0	86	19951
2026-01-01 14:15:57.53	22.61	2.25	-59.7	-62.9	6.2	0.00e+00	0	39	104	0	86	20043
2026-01-01 14:15:58.54	22.56	2.31	-59.7	-62.9	6.2	0.00e+00	0	38	104	0	86	20032
2026-01-01 14:15:59.54	22.51	2.38	-59.7	-62.9	6.2	0.00e+00	0	39	104	0	86	19993
2026-01-01 14:16:00.55	22.46	2.45	-59.7	-62.9	6.2	0.00e+00	0	39	104	0	86	20121
2026-01-01 14:16:01.56	22.41	2.52	-59.7	-62.9	6.2	0.00e+00	0	39	104	0	86	20104
2026-01-01 14:16:02.56	22.36	2.59	-59.7	-62.9	6.2	0.00e+00	0	39	104	0	86	20075
2026-01-01 14:16:03.57	22.31	2.66	-59.7	-62.9	6.2	0.00e+00	0	39	104	0	86	20039
2026-01-01 14:16:04.58	22.26	2.73	-59.7	-62.9	6.2	0.00e+00	0	39	104	0	86	20018
2026-01-01 14:16:05.59	22.20	2.80	-59.7	-62.9	6.2	0.00e+00	0	39	104	0	86	20034
2026-01-01 14:16:06.60	22.15	2.87	-59.7	-62.9	6.2	0.00e+00	0	39	104	0	86	20036
2026-01-01 14:16:07.61	22.10	2.94	-59.7	-62.9	6.2	0.00e+00	0	39	104	0	86	20027
2026-01-01 14:16:08.62	22.05	3.01	-59.7	-62.9	6.2	0.00e+00	0	39	104	0	86	20012
2026-01-01 14:16:09.63	21.99	3.08	-59.7	-62.9	6.2	0.00e+00	0	39	104	0	86	20096
2026-01-01 14:16:10.64	21.94	3.15	-59.8	-62.9	6.2	0.00e+00	0	39	104	0	86	20023
2026-01-01 14:16:11.64	21.88	3.22	-59.7	-62.9	6.2	0.00e+00	0	39	104	0	86	20039
2026-01-01 14:16:12.66	21.83	3.29	-59.8	-62.9	6.2	0.00e+00	0	39	104	0	86	20056
2026-01-01 14:16:13.66	21.77	3.36	-59.7	-62.9	6.2	0.00e+00	0	39	104	0	86	20038
2026-01-01 14:16:14.67	21.72	3.43	-59.7	-62.9	6.2	0.00e+00	0	39	104	0	86	19982
2026-01-01 14:16:15.67	21.66	3.50	-59.7	-62.9	6.2	0.00e+00	0	39	104	0	86	20046
2026-01-01 14:16:16.68	21.61	3.57	-59.7	-62.9	6.2	0.00e+00	0	40	104	0	86	20034
2026-01-01 14:16:17.69	21.55	3.65	-59.8	-62.9	6.2	0.00e+00	0	40	104	0	86	20079
2026-01-01 14:16:18.69	21.50	3.72	-59.7	-62.9	6.2	0.00e+00	0	40	104	0	86	20118
2026-01-01 14:16:19.70	21.44	3.79	-59.7	-62.9	6.2	0.00e+00	0	40	104	0	86	20021
2026-01-01 14:16:20.70	21.38	3.86	-59.7	-62.9	6.2	0.00e+00	0	40	104	0	86	20042
2026-01-01 14:16:21.71	21.32	3.94	-59.8	-62.9	6.2	0.00e+00	0	40	104	0	86	20089
2026-01-01 14:16:22.72	21.26	4.01	-59.8	-62.9	6.2	0.00e+00	0	40	104	0	86	20082
2026-01-01 14:16:23.72	21.21	4.08	-59.8	-62.9	6.2	0.00e+00	0	40	104	0	86	20048
2026-01-01 14:16:24.74	21.15	4.16	-59.7	-62.9	6.2	0.00e+00	0	40	104	0	86	20093
2026-01-01 14:16:25.74	21.09	4.23	-59.7	-62.9	6.2	0.00e+00	0	40	104	0	86	20046
2026-01-01 14:16:26.75	21.03	4.30	-59.8	-62.9	6.2	0.00e+00	0	40	104	0	86	20097
2026-01-01 14:16:27.76	20.97	4.38	-59.8	-62.9	6.2	0.00e+00	0	40	104	0	86	20089
2026-01-01 14:16:28.77	20.91	4.45	-59.8	-62.9	6.2	0.00e+00	0	40	104	0	86	20101
2026-01-01 14:16:29.78	20.84	4.53	-59.7	-62.9	6.2	0.00e+00	0	40	104	0	86	20089
2026-01-01 14:16:30.78	20.78	4.60	-59.8	-62.9	6.2	0.00e+00	0	40	104	0	86	20088
2026-01-01 14:16:31.79	20.72	4.68	-59.8	-62.9	6.2	0.00e+00	0	40	104	0	86	20012
2026-01-01 14:16:32.80	20.66	4.75	-59.8	-62.9	6.2	0.00e+00	0	40	104	0	86	20162
2026-01-01 14:16:33.81	20.60	4.83	-59.8	-62.9	6.2	0.00e+00	0	40	104	0	86	20058
2026-01-01 14:16:34.82	20.53	4.91	-59.8	-62.9	6.2	0.00e+00	0	40	104	0	86	20105
2026-01-01 14:16:35.82	20.47	4.98	-59.8	-62.9	6.2	0.00e+00	0	40	104	0	86	20061
2026-01-01 14:16:36.83	20.40	5.06	-59.8	-62.9	6.2	0.00e+00	0	40	104	0	86	20117
2026-01-01 14:16:37.84	20.34	5.14	-59.8	-62.9	6.2	0.00e+00	0	40	104	0	86	20142
2026-01-01 14:16:38.85	20.27	5.21	-59.9	-63.1	6.2	0.00e+00	0	40	104	0	86	20405
2026-01-01 14:16:39.86	20.21	5.29	-59.8	-62.9	6.2	0.00e+00	0	40	104	0	86	20091
2026-01-01 14:16:40.86	20.14	5.37	-59.9	-63.1	6.2	0.00e+00	0	40	104	0	86	20447
2026-01-01 14:16:41.87	20.08	5.45	-59.8	-62.9	6.2	0.00e+00	0	40	104	0	86	20120
2026-01-01 14:16:42.87	20.01	5.52	-59.9	-63.1	6.2	0.00e+00	0	40	104	0	86	20462
2026-01-01 14:16:43.88	19.94	5.60	-59.8	-62.9	6.2	0.00e+00	0	40	104	0	86	20135
2026-01-01 14:16:44.89	19.88	5.68	-59.9	-63.0	6.2	0.00e+00	0	41	104	0	86	20369
2026-01-01 14:16:45.90	19.81	5.76	-59.8	-62.9	6.2	0.00e+00	0	40	104	0	86	20115
2026-01-01 14:16:46.91	19.74	5.84	-59.9	-63.1	6.2	0.00e+00	0	40	104	0	86	20427
2026-01-01 14:16:47.92	19.67	5.92	-59.8	-62.9	6.2	0.00e+00	0	41	104	0	86	20137
2026-01-01 14:16:48.93	19.60	6.00	-59.9	-63.1	6.2	0.00e+00	0	41	104	0	86	20449
2026-01-01 14:16:49.94	19.53	6.08	-59.8	-63.0	6.2	0.00e+00	0	41	104	0	86	20200
2026-01-01 14:16:50.94	19.46	6.16	-60.0	-63.1	6.2	0.00e+00	0	41	104	0	86	20566
2026-01-01 14:16:51.95	19.39	6.24	-59.8	-63.0	6.2	0.00e+00	0	41	104	0	86	20312
2026-01-01 14:16:52.96	19.31	6.32	-59.9	-63.1	6.2	0.00e+00	0	41	104	0	86	20486
2026-01-01 14:16:53.97	19.24	6.40	-59.8	-63.0	6.2	0.00e+00	0	41	104	0	86	20256
2026-01-01 14:16:54.97	19.17	6.48	-60.0	-63.2	6.2	0.00e+00	0	41	104	0	86	20650
2026-01-01 14:16:55.98	19.10	6.57	-59.9	-63.0	6.2	0.00e+00	0	41	104	0	86	20304
2026-01-01 14:16:56.99	19.02	6.65	-60.0	-63.1	6.2	0.00e+00	0	41	104	0	86	20504
2026-01-01 14:16:58.00	18.95	6.73	-59.9	-63.0	6.2	0.00e+00	0	41	104	0	86	20358
2026-01-01 14:16:59.00	18.87	6.81	-60.0	-63.2	6.2	0.00e+00	0	41	104	0	86	20694
2026-01-01 14:17:00.01	18.80	6.90	-59.9	-63.1	6.2	0.00e+00	0	41	104	0	86	20438
2026-01-01 14:17:01.02	18.72	6.98	-60.0	-63.2	6.2	0.00e+00	0	41	104	0	86	20634
2026-01-01 14:17:02.03	18.64	7.07	-59.9	-63.1	6.2	0.00e+00	0	41	104	0	86	20422
2026-01-01 14:17:03.03	18.57	7.15	-60.1	-63.2	6.2	0.00e+00	0	41	104	0	86	20800
2026-01-01 14:17:04.04	18.49	7.23	-59.9	-63.1	6.2	0.00e+00	0	41	104	0	86	20493
2026-01-01 14:17:05.05	18.41	7.32	-60.0	-63.2	6.2	0.00e+00	0	41	104	0	86	20639
2026-01-01 14:17:06.05	18.33	7.40	-59.9	-63.1	6.2	0.00e+00	0	41	104	0	86	20514
2026-01-01 14:17:07.05	18.25	7.49	-60.1	-63.2	6.2	0.00e+00	0	41	104	0	86	20761
2026-01-01 14:17:08.07	18.17	7.57	-60.0	-63.1	6.2	0.00e+00	0	41	104	0	86	20489
2026-01-01 14:17:09.07	18.09	7.66	-60.0	-63.2	6.2	0.00e+00	0	41	104	0	86	20726
2026-01-01 14:17:10.08	18.01	7.75	-60.0	-63.1	6.2	0.00e+00	0	41	104	0	86	20564
2026-01-01 14:17:11.08	17.93	7.83	-60.1	-63.2	6.2	0.00e+00	0	41	104	0	86	20840
2026-01-01 14:17:12.09	17.84	7.92	-60.0	-63.1	6.2	0.00e+00	0	41	104	0	86	20575
2026-01-01 14:17:13.09	17.76	8.01	-60.1	-63.2	6.2	0.00e+00	0	41	104	0	86	20862
2026-01-01 14:17:14.10	17.68	8.09	-60.0	-63.1	6.2	0.00e+00	0	41	104	0	86	20611
2026-01-01 14:17:15.10	17.59	8.18	-60.1	-63.3	6.2	0.00e+00	0	41	104	0	86	20928
2026-01-01 14:17:16.10	17.51	8.27	-60.0	-63.2	6.2	0.00e+00	0	41	104	0	86	20746
2026-01-01 14:17:17.11	17.42	8.36	-60.1	-63.3	6.2	0.00e+00	0	41	104	0	86	20958
2026-01-01 14:17:18.13	17.33	8.45	-60.0	-63.2	6.2	0.00e+00	0	41	104	0	86	20733
2026-01-01 14:17:19.13	17.25	8.54	-60.1	-63.3	6.2	0.00e+00	0	41	104	0	86	20960
2026-01-01 14:17:20.14	17.16	8.63	-60.1	-63.2	6.2	0.00e+00	0	41	104	0	86	20793
2026-01-01 14:17:21.15	17.07	8.72	-60.1	-63.3	6.2	0.00e+00	0	41	104	0	86	20994
2026-01-01 14:17:22.16	16.98	8.81	-60.1	-63.2	6.2	0.00e+00	0	41	104	0	86	20767
2026-01-01 14:17:23.16	16.89	8.90	-60.2	-63.3	6.2	0.00e+00	0	41	104	0	86	21052
2026-01-01 14:17:24.17	16.80	8.99	-60.1	-63.2	6.2	0.00e+00	0	41	104	0	86	20862
2026-01-01 14:17:25.17	16.71	9.08	-60.2	-63.3	6.2	0.00e+00	0	42	104	0	86	21066
2026-01-01 14:17:26.18	16.61	9.17	-60.1	-63.2	6.2	0.00e+00	0	41	104	0	86	20839
2026-01-01 14:17:27.19	16.52	9.27	-60.2	-63.4	6.2	0.00e+00	0	41	104	0	86	21159
2026-01-01 14:17:28.19	16.43	9.36	-60.1	-63.3	6.2	0.00e+00	0	41	104	0	86	20904
2026-01-01 14:17:29.20	16.33	9.45	-60.2	-63.3	6.2	0.00e+00	0	41	104	0	86	21068
2026-01-01 14:17:30.21	16.24	9.55	-60.1	-63.3	6.2	0.00e+00	0	41	104	0	86	20901
2026-01-01 14:17:31.21	16.14	9.64	-60.2	-63.4	6.2	0.00e+00	0	41	104	0	86	21150
2026-01-01 14:17:32.21	16.04	9.73	-60.1	-63.3	6.2	0.00e+00	0	42	104	0	86	21025
2026-01-01 14:17:33.22	15.95	9.83	-60.2	-63.4	6.2	0.00e+00	0	41	104	0	86	21159
2026-01-01 14:17:34.23	15.85	9.92	-60.2	-63.3	6.2	0.00e+00	0	41	104	0	86	21012
2026-01-01 14:17:35.23	15.75	10.02	-60.3	-63.4	6.2	0.00e+00	0	41	104	0	86	21252
2026-01-01 14:17:36.23	15.65	10.11	-60.2	-63.3	6.2	0.00e+00	0	41	104	0	86	21047
2026-01-01 14:17:37.24	15.55	10.21	-60.2	-63.4	6.2	0.00e+00	0	42	104	0	86	21189
2026-01-01 14:17:38.25	15.45	10.31	-60.2	-63.3	6.2	0.00e+00	0	42	104	0	86	21048
2026-01-01 14:17:39.26	15.34	10.41	-60.3	-63.4	6.2	0.00e+00	0	42	104	0	86	21256
2026-01-01 14:17:40.27	15.24	10.50	-60.2	-63.4	6.2	0.00e+00	0	42	104	0	86	21117
2026-01-01 14:17:41.28	15.13	10.60	-60.3	-63.4	6.2	0.00e+00	0	42	104	0	86	21254
2026-01-01 14:17:42.29	15.03	10.70	-60.2	-63.4	6.2	0.00e+00	0	41	104	0	86	21194
2026-01-01 14:17:43.30	14.92	10.80	-60.3	-63.4	6.2	0.00e+00	0	42	104	0	86	21316
2026-01-01 14:17:44.31	14.81	10.90	-60.2	-63.4	6.2	0.00e+00	0	41	104	0	86	21178
2026-01-01 14:17:45.32	14.71	11.00	-60.3	-63.4	6.2	0.00e+00	0	42	104	0	86	21312
2026-01-01 14:17:46.32	14.60	11.10	-60.2	-63.4	6.2	0.00e+00	0	41	104	0	86	21178
2026-01-01 14:17:47.34	14.49	11.20	-60.3	-63.4	6.2	0.00e+00	0	42	104	0	86	21338
2026-01-01 14:17:48.34	14.38	11.30	-60.3	-63.4	6.2	0.00e+00	0	42	104	0	86	21275
2026-01-01 14:17:49.35	14.26	11.40	-60.3	-63.4	6.2	0.00e+00	0	42	104	0	86	21345
2026-01-01 14:17:50.36	14.15	11.51	-60.3	-63.4	6.2	0.00e+00	0	42	104	0	86	21259
2026-01-01 14:17:51.37	14.04	11.61	-60.3	-63.5	6.2	0.00e+00	0	42	104	0	86	21373
2026-01-01 14:17:52.38	13.92	11.71	-60.3	-63.5	6.2	0.00e+00	0	42	104	0	86	21368
2026-01-01 14:17:53.39	13.81	11.82	-60.3	-63.5	6.2	0.00e+00	0	42	104	0	86	21359
2026-01-01 14:17:54.40	13.69	11.92	-60.3	-63.4	6.2	0.00e+00	0	42	104	0	86	21349
2026-01-01 14:17:55.41	13.57	12.03	-60.3	-63.5	6.2	0.00e+00	0	42	104	0	86	21492
2026-01-01 14:17:56.41	13.45	12.13	-60.3	-63.4	6.2	0.00e+00	0	42	104	0	86	21342
2026-01-01 14:17:57.42	13.33	12.24	-60.3	-63.5	6.2	0.00e+00	0	42	104	0	86	21495
2026-01-01 14:17:58.43	13.21	12.34	-60.3	-63.5	6.2	0.00e+00	0	42	104	0	86	21422
2026-01-01 14:17:59.43	13.09	12.45	-60.4	-63.5	6.2	0.00e+00	0	42	104	0	86	21471
2026-01-01 14:18:00.44	12.97	12.55	-60.3	-63.5	6.2	0.00e+00	0	42	104	0	86	21437
2026-01-01 14:18:01.44	12.84	12.66	-60.4	-63.5	6.2	0.00e+00	0	42	104	0	86	21543
2026-01-01 14:18:02.46	12.71	12.77	-60.4	-63.5	6.2	0.00e+00	0	42	104	0	86	21514
2026-01-01 14:18:03.46	12.59	12.88	-60.4	-63.6	6.2	0.00e+00	0	42	104	0	86	21638
2026-01-01 14:18:04.47	12.46	12.99	-60.4	-63.5	6.2	0.00e+00	0	42	104	0	86	21491
2026-01-01 14:18:05.48	12.33	13.10	-60.4	-63.5	6.2	0.00e+00	0	42	104	0	86	21577
2026-01-01 14:18:06.49	12.20	13.21	-60.4	-63.5	6.2	0.00e+00	0	42	104	0	86	21565
2026-01-01 14:18:07.50	12.07	13.32	-60.4	-63.6	6.2	0.00e+00	0	42	104	0	86	21620
2026-01-01 14:18:08.51	11.94	13.43	-60.4	-63.6	6.2	0.00e+00	0	42	104	0	86	21638
2026-01-01 14:18:09.52	11.80	13.54	-60.4	-63.6	6.2	0.00e+00	0	42	104	0	86	21612
2026-01-01 14:18:10.52	11.67	13.65	-60.4	-63.6	6.2	0.00e+00	0	42	104	0	86	21628
2026-01-01 14:18:11.53	11.53	13.76	-60.4	-63.6	6.2	0.00e+00	0	42	104	0	86	21617
2026-01-01 14:18:12.54	11.39	13.88	-60.4	-63.6	6.2	0.00e+00	0	42	104	0	86	21615
2026-01-01 14:18:13.55	11.26	13.99	-60.4	-63.6	6.2	0.00e+00	0	42	104	0	86	21682
2026-01-01 14:18:14.56	11.12	14.11	-60.4	-63.6	6.2	0.00e+00	0	42	104	0	86	21752
2026-01-01 14:18:15.56	10.97	14.22	-60.4	-63.6	6.2	0.00e+00	0	42	104	0	86	21711
2026-01-01 14:18:16.57	10.83	14.33	-60.5	-63.6	6.2	0.00e+00	0	42	104	0	86	21668
2026-01-01 14:18:17.58	10.69	14.45	-60.4	-63.6	6.2	0.00e+00	0	42	104	0	86	21678
2026-01-01 14:18:18.59	10.54	14.57	-60.5	-63.6	6.2	0.00e+00	0	42	104	0	86	21751
2026-01-01 14:18:19.59	10.40	14.68	-60.5	-63.6	6.2	0.00e+00	0	42	104	0	86	21755
2026-01-01 14:18:20.60	10.25	14.80	-60.5	-63.6	6.2	0.00e+00	0	42	104	0	86	21782
2026-01-01 14:18:21.61	10.10	14.92	-60.5	-63.6	6.2	0.00e+00	0	42	104	0	86	21720
2026-01-01 14:18:22.62	9.95	15.04	-60.5	-63.6	6.2	0.00e+00	0	42	104	0	86	21808
2026-01-01 14:18:23.63	9.79	15.16	-60.5	-63.6	6.2	0.00e+00	0	42	104	0	86	21778
2026-01-01 14:18:24.63	9.64	15.28	-60.5	-63.6	6.2	0.00e+00	0	42	104	0	86	21837
2026-01-01 14:18:25.64	9.48	15.40	-60.5	-63.7	6.2	0.00e+00	0	42	104	0	86	21884
2026-01-01 14:18:26.65	9.33	15.52	-60.5	-63.7	6.2	0.00e+00	0	42	104	0	86	21922
2026-01-01 14:18:27.66	9.17	15.64	-60.5	-63.6	6.2	0.00e+00	0	42	104	0	86	21855
2026-01-01 14:18:28.67	9.01	15.76	-60.5	-63.7	6.2	0.00e+00	0	42	104	0	86	21867
2026-01-01 14:18:29.67	8.85	15.88	-60.5	-63.7	6.2	0.00e+00	0	42	104	0	86	21986
2026-01-01 14:18:30.68	8.68	16.01	-60.6	-63.7	6.2	0.00e+00	0	42	104	0	86	21938
2026-01-01 14:18:31.69	8.52	16.13	-60.5	-63.7	6.2	0.00e+00	0	42	104	0	86	21939
2026-01-01 14:18:32.70	8.35	16.25	-60.5	-63.7	6.2	0.00e+00	0	42	104	0	86	21974
2026-01-01 14:18:33.71	8.18	16.38	-60.5	-63.7	6.2	0.00e+00	0	42	104	0	86	21898
2026-01-01 14:18:34.72	8.01	16.51	-60.6	-63.7	6.2	0.00e+00	0	42	104	0	86	22081
2026-01-01 14:18:35.72	7.84	16.63	-60.6	-63.7	6.2	0.00e+00	0	42	104	0	86	22004
2026-01-01 14:18:36.73	7.67	16.76	-60.6	-63.7	6.2	0.00e+00	0	42	104	0	86	22086
2026-01-01 14:18:37.74	7.49	16.89	-60.6	-63.7	6.2	0.00e+00	0	42	104	0	86	22031
2026-01-01 14:18:38.74	7.32	17.01	-60.6	-63.8	6.2	0.00e+00	0	42	104	0	86	22183
2026-01-01 14:18:39.75	7.14	17.14	-60.6	-63.8	6.2	0.00e+00	0	42	104	0	86	22146
2026-01-01 14:18:40.76	6.96	17.27	-60.6	-63.8	6.2	0.00e+00	0	42	104	0	86	22142
2026-01-01 14:18:41.77	6.78	17.40	-60.6	-63.7	6.2	0.00e+00	0	42	104	0	86	22071
2026-01-01 14:18:42.77	6.59	17.53	-60.6	-63.8	6.2	0.00e+00	0	42	104	0	86	22197
2026-01-01 14:18:43.78	6.41	17.66	-60.6	-63.8	6.2	0.00e+00	0	42	104	0	86	22152
2026-01-01 14:18:44.79	6.22	17.79	-60.6	-63.8	6.2	0.00e+00	0	42	104	0	86	22155
2026-01-01 14:18:45.80	6.03	17.92	-60.6	-63.8	6.2	0.00e+00	0	42	104	0	86	22148
2026-01-01 14:18:46.80	5.84	18.06	-60.7	-63.8	6.2	0.00e+00	0	42	104	0	86	22246
2026-01-01 14:18:47.82	5.64	18.19	-60.6	-63.8	6.2	0.00e+00	0	42	104	0	86	22192
2026-01-01 14:18:48.83	5.45	18.32	-60.7	-63.8	6.2	0.00e+00	0	42	104	0	86	22304
2026-01-01 14:18:49.83	5.25	18.46	-60.6	-63.8	6.2	0.00e+00	0	42	104	0	86	22232
2026-01-01 14:18:50.84	5.05	18.59	-60.7	-63.8	6.2	0.00e+00	0	42	104	0	86	22327
2026-01-01 14:18:51.85	4.85	18.73	-60.7	-63.8	6.2	0.00e+00	0	42	104	0	86	22237
2026-01-01 14:18:52.86	4.65	18.87	-60.7	-63.9	6.2	0.00e+00	0	42	104	0	86	22381
2026-01-01 14:18:53.86	4.44	19.00	-60.7	-63.8	6.2	0.00e+00	0	42	104	0	86	22260
2026-01-01 14:18:54.87	4.23	19.14	-60.7	-63.9	6.2	0.00e+00	0	42	104	0	86	22457
2026-01-01 14:18:55.88	4.02	19.28	-60.7	-63.9	6.2	0.00e+00	0	42	104	0	86	22415
2026-01-01 14:18:56.89	3.81	19.42	-60.7	-63.9	6.2	0.00e+00	0	42	104	0	86	22491
2026-01-01 14:18:57.89	3.60	19.55	-60.7	-63.8	6.2	0.00e+00	0	42	104	0	86	22277
2026-01-01 14:18:58.90	3.38	19.69	-60.8	-63.9	6.2	0.00e+00	0	42	104	0	86	22549
2026-01-01 14:18:59.90	3.16	19.83	-60.7	-63.9	6.2	0.00e+00	0	42	104	0	86	22479
2026-01-01 14:19:00.91	2.94	19.98	-60.8	-63.9	6.2	0.00e+00	0	42	104	0	86	22496
2026-01-01 14:19:01.92	2.71	20.12	-60.7	-63.9	6.2	0.00e+00	0	42	104	0	86	22434
2026-01-01 14:19:02.92	2.49	20.26	-60.8	-63.9	6.2	0.00e+00	0	42	104	0	86	22608
2026-01-01 14:19:03.93	2.26	20.40	-60.8	-63.9	6.2	0.00e+00	0	42	104	0	86	22548
2026-01-01 14:19:04.94	2.03	20.54	-60.8	-63.9	6.2	0.00e+00	0	42	104	0	86	22597
2026-01-01 14:19:05.95	1.79	20.69	-60.8	-63.9	6.2	0.00e+00	0	42	104	0	86	22482
2026-01-01 14:19:06.96	1.56	20.83	-60.8	-64.0	6.2	0.00e+00	0	42	104	0	86	22677
2026-01-01 14:19:07.97	1.32	20.98	-60.8	-63.9	6.2	0.00e+00	0	42	104	0	86	22611
2026-01-01 14:19:08.98	1.07	21.12	-60.8	-63.9	6.2	0.00e+00	0	42	104	0	87	21318
2026-01-01 14:19:09.99	0.83	21.27	-60.8	-63.9	6.2	0.00e+00	0	42	104	0	87	21260
2026-01-01 14:19:11.00	0.58	21.42	-60.8	-64.0	6.2	0.00e+00	0	42	104	0	87	21371
2026-01-01 14:19:12.01	0.33	21.57	-60.8	-63.9	6.2	0.00e+00	0	42	104	0	87	21328
2026-01-01 14:19:13.01	0.08	21.71	-60.8	-64.0	6.2	0.00e+00	0	42	104	0	87	21407
2026-01-01 14:19:14.02	359.83	21.86	-60.8	-63.9	6.2	0.00e+00	0	42	104	0	87	21322
2026-01-01 14:19:15.03	359.57	22.01	-60.8	-64.0	6.2	0.00e+00	0	42	104	0	87	21505
2026-01-01 14:19:16.03	359.31	22.16	-60.8	-64.0	6.2	0.00e+00	0	42	104	0	87	21392
2026-01-01 14:19:17.03	359.05	22.31	-60.9	-64.0	6.2	0.00e+00	0	42	104	0	87	21544
2026-01-01 14:19:18.04	358.78	22.46	-60.8	-64.0	6.2	0.00e+00	0	42	104	0	87	21405
2026-01-01 14:19:19.05	358.51	22.61	-60.9	-64.0	6.2	0.00e+00	0	42	104	0	87	21542
2026-01-01 14:19:20.06	358.24	22.76	-60.8	-64.0	6.2	0.00e+00	0	42	104	0	87	21419
2026-01-01 14:19:21.06	357.97	22.91	-60.9	-64.0	6.2	0.00e+00	0	42	104	0	87	21553
2026-01-01 14:19:22.07	357.69	23.06	-60.8	-64.0	6.2	0.00e+00	0	42	104	0	87	21461
2026-01-01 14:19:23.09	357.40	23.22	-60.9	-64.0	6.2	0.00e+00	0	42	104	0	87	21605
2026-01-01 14:19:24.09	357.12	23.37	-60.9	-64.0	6.2	0.00e+00	0	42	104	0	87	21521
2026-01-01 14:19:25.10	356.83	23.52	-60.9	-64.0	6.2	0.00e+00	0	42	104	0	87	21564
2026-01-01 14:19:26.11	356.54	23.67	-60.9	-64.0	6.2	0.00e+00	0	42	104	0	87	21462
2026-01-01 14:19:27.12	356.24	23.83	-60.9	-64.1	6.2	0.00e+00	0	42	104	0	87	21677
2026-01-01 14:19:28.13	355.95	23.98	-60.9	-64.0	6.2	0.00e+00	0	42	104	0	87	21578
2026-01-01 14:19:29.14	355.65	24.14	-60.9	-64.1	6.2	0.00e+00	0	42	104	0	87	21667
2026-01-01 14:19:30.14	355.34	24.29	-60.9	-64.0	6.2	0.00e+00	0	42	104	0	87	21577
2026-01-01 14:19:31.14	355.04	24.45	-61.0	-64.1	6.2	0.00e+00	0	42	104	0	87	21700
2026-01-01 14:19:32.15	354.73	24.60	-60.9	-64.1	6.2	0.00e+00	0	42	104	0	87	21638
2026-01-01 14:19:33.16	354.41	24.76	-61.0	-64.1	6.2	0.00e+00	0	42	104	0	87	21759
2026-01-01 14:19:34.16	354.10	24.91	-60.9	-64.1	6.2	0.00e+00	0	42	104	0	87	21716
2026-01-01 14:19:35.17	353.78	25.07	-61.0	-64.1	6.2	0.00e+00	0	42	104	0	87	21789
2026-01-01 14:19:36.18	353.45	25.23	-61.0	-64.1	6.2	0.00e+00	0	42	104	0	87	21708
2026-01-01 14:19:37.19	353.12	25.38	-61.0	-64.2	6.2	0.00e+00	0	42	104	0	87	21860
2026-01-01 14:19:38.20	352.79	25.54	-61.0	-64.1	6.2	0.00e+00	0	42	104	0	87	21807
2026-01-01 14:19:39.21	352.45	25.70	-61.0	-64.2	6.2	0.00e+00	0	42	104	0	87	21873
2026-01-01 14:19:40.21	352.11	25.85	-61.0	-64.1	6.2	0.00e+00	0	42	104	0	87	21748
2026-01-01 14:19:41.22	351.77	26.01	-61.0	-64.2	6.2	0.00e+00	0	42	104	0	87	21899
2026-01-01 14:19:42.23	351.42	26.17	-61.0	-64.1	6.2	0.00e+00	0	42	104	0	87	21800
2026-01-01 14:19:43.24	351.07	26.33	-61.0	-64.2	6.2	0.00e+00	0	42	104	0	87	22002
2026-01-01 14:19:44.24	350.72	26.48	-61.0	-64.2	6.2	0.00e+00	0	42	104	0	87	21922
2026-01-01 14:19:45.25	350.36	26.64	-61.1	-64.2	6.2	0.00e+00	0	42	104	0	87	22033
2026-01-01 14:19:46.25	350.00	26.80	-61.0	-64.2	6.2	0.00e+00	0	42	104	0	87	21916
2026-01-01 14:19:47.26	349.63	26.95	-61.1	-64.2	6.2	0.00e+00	0	42	104	0	87	22091
2026-01-01 14:19:48.26	349.26	27.11	-61.1	-64.2	6.2	0.00e+00	0	42	104	0	87	21999
2026-01-01 14:19:49.27	348.89	27.27	-61.1	-64.2	6.2	0.00e+00	0	42	104	0	87	22103
2026-01-01 14:19:50.27	348.51	27.42	-61.0	-64.2	6.2	0.00e+00	0	42	104	0	87	21896
2026-01-01 14:19:51.28	348.13	27.58	-61.1	-64.3	6.2	0.00e+00	0	42	104	0	87	22122
2026-01-01 14:19:52.29	347.74	27.73	-61.1	-64.3	6.2	0.00e+00	0	42	104	0	87	22146
2026-01-01 14:19:53.30	347.35	27.89	-61.1	-64.3	6.2	0.00e+00	0	42	104	0	87	22172
2026-01-01 14:19:54.30	346.96	28.04	-61.1	-64.2	6.2	0.00e+00	0	42	104	0	87	22006
2026-01-01 14:19:55.31	346.56	28.20	-61.1	-64.3	6.2	0.00e+00	0	42	104	0	87	22252
2026-01-01 14:19:56.32	346.15	28.35	-61.1	-64.3	6.2	0.00e+00	0	42	104	0	87	22176
2026-01-01 14:19:57.33	345.74	28.51	-61.2	-64.3	6.2	0.00e+00	0	42	104	0	87	22262
2026-01-01 14:19:58.34	345.33	28.66	-61.1	-64.3	6.2	0.00e+00	0	42	104	0	87	22161
2026-01-01 14:19:59.34	344.92	28.81	-61.2	-64.3	6.2	0.00e+00	0	42	104	0	87	22302
2026-01-01 14:20:00.34	344.50	28.97	-61.2	-64.3	6.2	0.00e+00	0	42	104	0	87	22262
2026-01-01 14:20:01.35	344.07	29.12	-61.2	-64.3	6.2	0.00e+00	0	42	104	0	87	22340
2026-01-01 14:20:02.36	343.64	29.27	-61.1	-64.3	6.2	0.00e+00	0	42	104	0	87	22143
2026-01-01 14:20:03.37	343.21	29.42	-61.2	-64.4	6.2	0.00e+00	0	42	104	0	87	22376
2026-01-01 14:20:04.38	342.77	29.57	-61.2	-64.3	6.2	0.00e+00	0	42	104	0	87	22310
2026-01-01 14:20:05.39	342.33	29.72	-61.2	-64.4	6.2	0.00e+00	0	42	104	0	87	22416
2026-01-01 14:20:06.39	341.88	29.87	-61.2	-64.3	6.2	0.00e+00	0	42	104	0	87	22307
2026-01-01 14:20:07.41	341.42	30.01	-61.2	-64.4	6.2	0.00e+00	0	42	104	0	87	22494
2026-01-01 14:20:08.42	340.97	30.16	-61.3	-64.4	6.2	0.00e+00	0	42	104	0	87	22455
2026-01-01 14:20:09.43	340.50	30.30	-61.3	-64.4	6.2	0.00e+00	0	42	104	0	87	22619
2026-01-01 14:20:10.44	340.04	30.45	-61.2	-64.4	6.2	0.00e+00	0	42	104	0	87	22399
2026-01-01 14:20:11.45	339.57	30.59	-61.3	-64.4	6.2	0.00e+00	0	42	104	0	87	22537
2026-01-01 14:20:12.45	339.10	30.73	-61.3	-64.5	6.2	0.00e+00	0	42	104	0	87	22650
2026-01-01 14:20:13.46	338.62	30.87	-61.3	-64.4	6.2	0.00e+00	0	42	104	0	88	21293
2026-01-01 14:20:14.47	338.13	31.01	-61.3	-64.4	6.2	0.00e+00	0	42	104	0	88	21344
2026-01-01 14:20:15.48	337.64	31.15	-61.3	-64.4	6.2	0.00e+00	0	42	104	0	88	21355
2026-01-01 14:20:16.49	337.15	31.28	-61.3	-64.4	6.2	0.00e+00	0	42	104	0	88	21306
2026-01-01 14:20:17.49	336.66	31.42	-61.3	-64.5	6.2	0.00e+00	0	42	104	0	88	21381
2026-01-01 14:20:18.50	336.15	31.55	-61.3	-64.5	6.2	0.00e+00	0	42	104	0	88	21372
2026-01-01 14:20:19.50	335.65	31.68	-61.3	-64.5	6.2	0.00e+00	0	42	104	0	88	21428
2026-01-01 14:20:20.51	335.14	31.81	-61.4	-64.5	6.2	0.00e+00	0	42	104	0	88	21441
2026-01-01 14:20:21.52	334.63	31.94	-61.3	-64.5	6.2	0.00e+00	0	42	104	0	88	21374
2026-01-01 14:20:22.54	334.10	32.06	-61.3	-64.5	6.2	0.00e+00	0	42	104	0	88	21362
2026-01-01 14:20:23.55	333.58	32.19	-61.4	-64.5	6.2	0.00e+00	0	42	104	0	88	21469
2026-01-01 14:20:24.55	333.05	32.31	-61.4	-64.5	6.2	0.00e+00	0	42	104	0	88	21534
2026-01-01 14:20:25.56	332.52	32.43	-61.3	-64.5	6.2	0.00e+00	0	43	104	0	88	21454
2026-01-01 14:20:26.57	331.98	32.55	-61.4	-64.5	6.2	0.00e+00	0	42	104	0	88	21554
2026-01-01 14:20:27.57	331.45	32.66	-61.4	-64.5	6.2	0.00e+00	0	43	104	0	88	21514
2026-01-01 14:20:28.58	330.90	32.77	-61.4	-64.5	6.2	0.00e+00	0	42	104	0	88	21591
2026-01-01 14:20:29.59	330.35	32.88	-61.4	-64.5	6.2	0.00e+00	0	42	104	0	88	21490
2026-01-01 14:20:30.59	329.81	32.99	-61.4	-64.5	6.2	0.00e+00	0	42	104	0	88	21594
2026-01-01 14:20:31.60	329.25	33.10	-61.4	-64.6	6.2	0.00e+00	0	42	104	0	88	21643
2026-01-01 14:20:32.61	328.69	33.20	-61.4	-64.6	6.2	0.00e+00	0	42	104	0	88	21636
2026-01-01 14:20:33.62	328.12	33.30	-61.4	-64.5	6.2	0.00e+00	0	42	104	0	88	21596
2026-01-01 14:20:34.63	327.55	33.40	-61.4	-64.6	6.2	0.00e+00	0	42	104	0	88	21608
2026-01-01 14:20:35.64	326.98	33.50	-61.4	-64.6	6.2	0.00e+00	0	42	104	0	88	21656
2026-01-01 14:20:36.65	326.41	33.59	-61.5	-64.6	6.2	0.00e+00	0	42	104	0	88	21743
2026-01-01 14:20:37.65	325.83	33.68	-61.4	-64.5	6.2	0.00e+00	0	43	104	0	88	21580
2026-01-01 14:20:38.66	325.25	33.77	-61.5	-64.6	6.2	0.00e+00	0	42	104	0	88	21760
2026-01-01 14:20:39.67	324.66	33.85	-61.5	-64.6	6.2	0.00e+00	0	42	104	0	88	21743
2026-01-01 14:20:40.67	324.08	33.93	-61.5	-64.6	6.2	0.00e+00	0	42	104	0	88	21781
2026-01-01 14:20:41.68	323.49	34.01	-61.4	-64.5	6.2	0.00e+00	0	42	104	0	88	21604
2026-01-01 14:20:42.69	322.89	34.09	-61.5	-64.6	6.2	0.00e+00	0	42	104	0	88	21683
2026-01-01 14:20:43.70	322.29	34.16	-61.5	-64.6	6.2	0.00e+00	0	42	104	0	88	21699
2026-01-01 14:20:44.71	321.69	34.23	-61.5	-64.6	6.2	0.00e+00	0	42	104	0	88	21763
2026-01-01 14:20:45.72	321.09	34.29	-61.4	-64.6	6.2	0.00e+00	0	42	104	0	88	21695
2026-01-01 14:20:46.73	320.48	34.36	-61.5	-64.6	6.2	0.00e+00	0	43	104	0	88	21719
2026-01-01 14:20:47.73	319.88	34.41	-61.5	-64.6	6.2	0.00e+00	0	42	104	0	88	21763
2026-01-01 14:20:48.75	319.26	34.47	-61.5	-64.7	6.2	0.00e+00	0	43	104	0	88	21878
2026-01-01 14:20:49.75	318.66	34.52	-61.5	-64.6	6.2	0.00e+00	0	42	104	0	88	21755
2026-01-01 14:20:50.76	318.04	34.57	-61.5	-64.6	6.2	0.00e+00	0	43	104	0	88	21840
2026-01-01 14:20:51.77	317.42	34.62	-61.5	-64.7	6.2	0.00e+00	0	42	104	0	88	21889
2026-01-01 14:20:52.77	316.81	34.66	-61.5	-64.7	6.2	0.00e+00	0	43	104	0	88	21882
2026-01-01 14:20:53.78	316.19	34.70	-61.5	-64.6	6.2	0.00e+00	0	42	104	0	88	21817
2026-01-01 14:20:54.79	315.57	34.73	-61.5	-64.7	6.2	0.00e+00	0	43	104	0	88	21917
2026-01-01 14:20:55.80	314.95	34.76	-61.5	-64.7	6.2	0.00e+00	0	42	104	0	88	21953
2026-01-01 14:20:56.81	314.32	34.79	-61.6	-64.7	6.2	0.00e+00	0	42	104	0	88	21987
2026-01-01 14:20:57.81	313.70	34.82	-61.5	-64.7	6.2	0.00e+00	0	43	104	0	88	21862
2026-01-01 14:20:58.82	313.07	34.84	-61.5	-64.7	6.2	0.00e+00	0	42	104	0	88	21911
2026-01-01 14:20:59.82	312.45	34.85	-61.5	-64.7	6.2	0.00e+00	0	43	104	0	88	21882
2026-01-01 14:21:00.83	311.83	34.87	-61.5	-64.7	6.2	0.00e+00	0	42	104	0	88	21932
2026-01-01 14:21:01.84	311.20	34.88	-61.5	-64.7	6.2	0.00e+00	0	42	104	0	88	21937
2026-01-01 14:21:02.84	310.57	34.88	-61.6	-64.7	6.2	0.00e+00	0	43	104	0	88	21996
2026-01-01 14:21:03.86	309.94	34.88	-61.5	-64.7	6.2	0.00e+00	0	43	104	0	88	21985
2026-01-01 14:21:04.87	309.31	34.88	-61.6	-64.7	6.2	0.00e+00	0	43	104	0	88	21992
2026-01-01 14:21:05.87	308.69	34.88	-61.5	-64.7	6.2	0.00e+00	0	43	104	0	88	21923
2026-01-01 14:21:06.88	308.06	34.87	-61.6	-64.7	6.2	0.00e+00	0	42	104	0	88	22036
2026-01-01 14:21:07.89	307.43	34.85	-61.6	-64.7	6.2	0.00e+00	0	43	104	0	88	21939
2026-01-01 14:21:08.90	306.80	34.84	-61.6	-64.7	6.2	0.00e+00	0	43	104	0	88	22035
2026-01-01 14:21:09.91	306.18	34.82	-61.6	-64.7	6.2	0.00e+00	0	43	104	0	88	21958
2026-01-01 14:21:10.92	305.55	34.79	-61.6	-64.7	6.2	0.00e+00	0	43	104	0	88	22048
2026-01-01 14:21:11.93	304.92	34.76	-61.6	-64.7	6.2	0.00e+00	0	43	104	0	88	22043
2026-01-01 14:21:12.93	304.31	34.73	-61.7	-64.8	6.2	0.00e+00	0	42	104	0	88	22184
2026-01-01 14:21:13.94	303.68	34.70	-61.6	-64.8	6.2	0.00e+00	0	42	104	0	88	22168
2026-01-01 14:21:14.95	303.06	34.66	-61.6	-64.8	6.2	0.00e+00	0	43	104	0	88	22155
2026-01-01 14:21:15.96	302.44	34.62	-61.6	-64.8	6.2	0.00e+00	0	42	104	0	88	22128
2026-01-01 14:21:16.97	301.83	34.57	-61.6	-64.7	6.2	0.00e+00	0	43	104	0	88	22105
2026-01-01 14:21:17.97	301.22	34.52	-61.6	-64.7	6.2	0.00e+00	0	43	104	0	88	22100
2026-01-01 14:21:18.98	300.60	34.47	-61.6	-64.8	6.2	0.00e+00	0	43	104	0	88	22122
2026-01-01 14:21:19.99	299.99	34.42	-61.6	-64.7	6.2	0.00e+00	0	42	104	0	88	22103
2026-01-01 14:21:21.00	299.38	34.36	-61.7	-64.8	6.2	0.00e+00	0	43	104	0	88	22274
2026-01-01 14:21:22.00	298.78	34.29	-61.7	-64.8	6.2	0.00e+00	0	42	104	0	88	22175
2026-01-01 14:21:23.01	298.18	34.23	-61.7	-64.8	6.2	0.00e+00	0	43	104	0	88	22255
2026-01-01 14:21:24.02	297.58	34.16	-61.7	-64.8	6.2	0.00e+00	0	42	104	0	88	22200
2026-01-01 14:21:25.03	296.98	34.09	-61.6	-64.8	6.2	0.00e+00	0	43	104	0	88	22166
2026-01-01 14:21:26.04	296.38	34.01	-61.6	-64.7	6.2	0.00e+00	0	42	104	0	88	22058
2026-01-01 14:21:27.05	295.79	33.93	-61.6	-64.7	6.2	0.00e+00	0	43	104	0	88	22052
2026-01-01 14:21:28.05	295.20	33.85	-61.6	-64.8	6.2	0.00e+00	0	43	104	0	88	22114
2026-01-01 14:21:29.06	294.62	33.77	-61.6	-64.7	6.2	0.00e+00	0	43	104	0	88	22050
2026-01-01 14:21:30.06	294.04	33.68	-61.6	-64.7	6.2	0.00e+00	0	43	104	0	88	21969
2026-01-01 14:21:31.07	293.46	33.59	-61.6	-64.7	6.2	0.00e+00	0	42	104	0	88	22048
2026-01-01 14:21:32.07	292.89	33.50	-61.6	-64.7	6.2	0.00e+00	0	42	104	0	88	22029
2026-01-01 14:21:33.08	292.31	33.40	-61.6	-64.7	6.2	0.00e+00	0	43	104	0	88	21941
2026-01-01 14:21:34.09	291.74	33.30	-61.5	-64.7	6.2	0.00e+00	0	42	104	0	88	22018
2026-01-01 14:21:35.10	291.18	33.20	-61.5	-64.7	6.2	0.00e+00	0	42	104	0	88	21928
2026-01-01 14:21:36.11	290.62	33.10	-61.6	-64.7	6.2	0.00e+00	0	42	104	0	88	21999
2026-01-01 14:21:37.11	290.06	32.99	-61.5	-64.7	6.2	0.00e+00	0	43	104	0	88	21916
2026-01-01 14:21:38.12	289.51	32.89	-61.5	-64.6	6.2	0.00e+00	0	43	104	0	88	21844
2026-01-01 14:21:39.13	288.96	32.77	-61.5	-64.7	6.2	0.00e+00	0	42	104	0	88	21922
2026-01-01 14:21:40.14	288.41	32.66	-61.5	-64.6	6.2	0.00e+00	0	43	104	0	88	21796
2026-01-01 14:21:41.15	287.87	32.54	-61.5	-64.6	6.2	0.00e+00	0	43	104	0	88	21739
2026-01-01 14:21:42.16	287.33	32.43	-61.5	-64.6	6.2	0.00e+00	0	42	104	0	88	21736
2026-01-01 14:21:43.16	286.80	32.31	-61.5	-64.6	6.2	0.00e+00	0	43	104	0	88	21773
2026-01-01 14:21:44.17	286.27	32.19	-61.5	-64.6	6.2	0.00e+00	0	42	104	0	88	21711
2026-01-01 14:21:45.18	285.75	32.06	-61.5	-64.6	6.2	0.00e+00	0	43	104	0	88	21713
2026-01-01 14:21:46.18	285.23	31.94	-61.4	-64.6	6.2	0.00e+00	0	42	104	0	88	21632
2026-01-01 14:21:47.19	284.72	31.81	-61.4	-64.6	6.2	0.00e+00	0	42	104	0	88	21639
2026-01-01 14:21:48.20	284.20	31.68	-61.4	-64.6	6.2	0.00e+00	0	43	104	0	88	21680
2026-01-01 14:21:49.21	283.70	31.55	-61.4	-64.6	6.2	0.00e+00	0	42	104	0	88	21630
2026-01-01 14:21:50.22	283.19	31.42	-61.4	-64.5	6.2	0.00e+00	0	43	104	0	88	21596
2026-01-01 14:21:51.23	282.69	31.28	-61.4	-64.6	6.2	0.00e+00	0	42	104	0	88	21623
2026-01-01 14:21:52.24	282.20	31.14	-61.4	-64.6	6.2	0.00e+00	0	43	104	0	88	21661
2026-01-01 14:21:53.25	281.71	31.01	-61.4	-64.5	6.2	0.00e+00	0	43	104	0	88	21536
2026-01-01 14:21:54.25	281.23	30.87	-61.4	-64.5	6.2	0.00e+00	0	43	104	0	88	21473
2026-01-01 14:21:55.26	280.75	30.73	-61.4	-64.5	6.2	0.00e+00	0	43	104	0	88	21577
2026-01-01 14:21:56.27	280.27	30.59	-61.4	-64.5	6.2	0.00e+00	0	43	104	0	88	21570
2026-01-01 14:21:57.27	279.80	30.44	-61.4	-64.5	6.2	0.00e+00	0	43	104	0	88	21439
2026-01-01 14:21:58.28	279.33	30.30	-61.3	-64.5	6.2	0.00e+00	0	43	104	0	88	21417
2026-01-01 14:21:59.29	278.87	30.16	-61.4	-64.5	6.2	0.00e+00	0	43	104	0	88	21492
2026-01-01 14:22:00.30	278.41	30.01	-61.4	-64.5	6.2	0.00e+00	0	42	104	0	88	21527
2026-01-01 14:22:01.30	277.96	29.86	-61.3	-64.5	6.2	0.00e+00	0	42	104	0	88	21377
2026-01-01 14:22:02.31	277.51	29.71	-61.3	-64.4	6.2	0.00e+00	0	43	104	0	88	21329
2026-01-01 14:22:03.32	277.07	29.57	-61.3	-64.5	6.2	0.00e+00	0	43	104	0	88	21403
2026-01-01 14:22:04.33	276.63	29.41	-61.3	-64.5	6.2	0.00e+00	0	43	104	0	88	21462
2026-01-01 14:22:05.34	276.19	29.26	-61.3	-64.4	6.2	0.00e+00	0	43	104	0	88	21340
2026-01-01 14:22:06.35	275.76	29.11	-61.3	-64.4	6.2	0.00e+00	0	43	104	0	88	21264
2026-01-01 14:22:07.35	275.34	28.96	-61.3	-64.4	6.2	0.00e+00	0	43	104	0	88	21307
2026-01-01 14:22:08.36	274.91	28.81	-61.3	-64.5	6.2	0.00e+00	0	43	104	0	88	21386
2026-01-01 14:22:09.37	274.49	28.65	-61.3	-64.4	6.2	0.00e+00	0	43	104	0	88	21284
2026-01-01 14:22:10.38	274.08	28.50	-61.2	-64.3	6.2	0.00e+00	0	43	104	0	88	21104
2026-01-01 14:22:11.39	273.67	28.34	-61.3	-64.4	6.2	0.00e+00	0	43	104	0	88	21302
2026-01-01 14:22:12.39	273.27	28.19	-61.3	-64.4	6.2	0.00e+00	0	43	104	0	88	21298
2026-01-01 14:22:13.40	272.87	28.04	-61.3	-64.4	6.2	0.00e+00	0	42	104	0	88	21214
2026-01-01 14:22:14.41	272.47	27.88	-61.2	-64.3	6.2	0.00e+00	0	43	104	0	88	21103
2026-01-01 14:22:15.41	272.08	27.72	-61.3	-64.4	6.2	0.00e+00	0	43	104	0	88	21261
2026-01-01 14:22:16.42	271.69	27.57	-61.3	-64.4	6.2	0.00e+00	0	43	104	0	88	21247
2026-01-01 14:22:17.43	271.31	27.41	-61.2	-64.4	6.2	0.00e+00	0	43	104	0	88	21121
2026-01-01 14:22:18.44	270.93	27.25	-61.2	-64.3	6.2	0.00e+00	0	43	104	0	88	21093
2026-01-01 14:22:19.44	270.55	27.10	-61.3	-64.4	6.2	0.00e+00	0	43	104	0	88	21160
2026-01-01 14:22:20.45	270.18	26.94	-61.3	-64.4	6.2	0.00e+00	0	43	104	0	88	21180
2026-01-01 14:22:21.46	269.81	26.78	-61.2	-64.3	6.2	0.00e+00	0	43	104	0	88	21067
2026-01-01 14:22:22.47	269.45	26.62	-61.2	-64.3	6.2	0.00e+00	0	43	104	0	88	21063
2026-01-01 14:22:23.48	269.09	26.46	-61.2	-64.4	6.2	0.00e+00	0	43	104	0	88	21183
2026-01-01 14:22:24.48	268.73	26.31	-61.2	-64.4	6.2	0.00e+00	0	43	104	0	88	21195
2026-01-01 14:22:25.49	268.38	26.15	-61.2	-64.3	6.2	0.00e+00	0	43	104	0	88	21076
2026-01-01 14:22:26.50	268.03	25.99	-61.2	-64.3	6.2	0.00e+00	0	43	104	0	88	21064
2026-01-01 14:22:27.51	267.69	25.83	-61.2	-64.3	6.2	0.00e+00	0	43	104	0	88	21110
2026-01-01 14:22:28.52	267.35	25.68	-61.2	-64.3	6.2	0.00e+00	0	43	104	0	88	21030
2026-01-01 14:22:29.53	267.01	25.52	-61.2	-64.3	6.2	0.00e+00	0	43	104	0	88	21026
2026-01-01 14:22:30.53	266.68	25.36	-61.1	-64.3	6.2	0.00e+00	0	43	104	0	88	21005
2026-01-01 14:22:31.54	266.35	25.20	-61.2	-64.3	6.2	0.00e+00	0	42	104	0	88	21000
2026-01-01 14:22:32.54	266.02	25.05	-61.2	-64.3	6.2	0.00e+00	0	43	104	0	88	21037
2026-01-01 14:22:33.55	265.70	24.89	-61.2	-64.3	6.2	0.00e+00	0	43	104	0	88	21040
2026-01-01 14:22:34.55	265.39	24.74	-61.1	-64.3	6.2	0.00e+00	0	43	104	0	88	20969
2026-01-01 14:22:35.56	265.07	24.58	-61.2	-64.3	6.2	0.00e+00	0	43	104	0	88	21004
2026-01-01 14:22:36.57	264.76	24.42	-61.2	-64.3	6.2	0.00e+00	0	43	104	0	88	20981
2026-01-01 14:22:37.58	264.45	24.27	-61.1	-64.3	6.2	0.00e+00	0	43	104	0	88	20909
2026-01-01 14:22:38.58	264.14	24.11	-61.1	-64.3	6.2	0.00e+00	0	42	104	0	88	20877
2026-01-01 14:22:39.59	263.84	23.96	-61.1	-64.3	6.2	0.00e+00	0	43	104	0	88	21006
2026-01-01 14:22:40.60	263.54	23.80	-61.1	-64.3	6.2	0.00e+00	0	43	104	0	88	20979
2026-01-01 14:22:41.61	263.25	23.65	-61.1	-64.3	6.2	0.00e+00	0	43	104	0	88	20885
2026-01-01 14:22:42.62	262.96	23.49	-61.1	-64.2	6.2	0.00e+00	0	43	104	0	88	20834
2026-01-01 14:22:43.62	262.67	23.34	-61.1	-64.3	6.2	0.00e+00	0	42	104	0	88	20925
2026-01-01 14:22:44.63	262.38	23.19	-61.1	-64.2	6.2	0.00e+00	0	43	104	0	88	20853
2026-01-01 14:22:45.64	262.10	23.03	-61.1	-64.2	6.2	0.00e+00	0	43	104	0	88	20827
2026-01-01 14:22:46.64	261.82	22.88	-61.1	-64.2	6.2	0.00e+00	0	42	104	0	88	20816
2026-01-01 14:22:47.65	261.55	22.73	-61.1	-64.2	6.2	0.00e+00	0	43	104	0	88	20789
2026-01-01 14:22:48.66	261.27	22.58	-61.1	-64.2	6.2	0.00e+00	0	43	104	0	88	20869
2026-01-01 14:22:49.66	261.00	22.43	-61.1	-64.2	6.2	0.00e+00	0	42	104	0	88	20761
2026-01-01 14:22:50.67	260.74	22.28	-61.0	-64.2	6.2	0.00e+00	0	43	104	0	88	20675
2026-01-01 14:22:51.68	260.47	22.13	-61.1	-64.2	6.2	0.00e+00	0	43	104	0	88	20786
2026-01-01 14:22:52.69	260.21	21.97	-61.1	-64.2	6.2	0.00e+00	0	43	104	0	88	20734
2026-01-01 14:22:53.70	259.95	21.83	-61.0	-64.2	6.2	0.00e+00	0	43	104	0	88	20667
2026-01-01 14:22:54.71	259.69	21.68	-61.0	-64.1	6.2	0.00e+00	0	43	104	0	88	20572
2026-01-01 14:22:55.72	259.44	21.53	-61.0	-64.2	6.2	0.00e+00	0	43	104	0	88	20703
2026-01-01 14:22:56.73	259.19	21.38	-61.0	-64.2	6.2	0.00e+00	0	43	104	0	88	20707
2026-01-01 14:22:57.74	258.94	21.23	-61.0	-64.1	6.2	0.00e+00	0	43	104	0	88	20622
2026-01-01 14:22:58.74	258.70	21.09	-61.0	-64.1	6.2	0.00e+00	0	43	104	0	88	20543
2026-01-01 14:22:59.75	258.45	20.94	-61.0	-64.2	6.2	0.00e+00	0	43	104	0	88	20645
2026-01-01 14:23:00.76	258.21	20.79	-61.0	-64.1	6.2	0.00e+00	0	43	104	0	88	20604
2026-01-01 14:23:01.77	257.98	20.65	-61.0	-64.1	6.2	0.00e+00	0	43	104	0	88	20594
2026-01-01 14:23:02.77	257.74	20.51	-61.0	-64.1	6.2	0.00e+00	0	43	104	0	88	20575
2026-01-01 14:23:03.78	257.51	20.36	-61.0	-64.1	6.2	0.00e+00	0	42	104	0	88	20567
2026-01-01 14:23:04.79	257.28	20.22	-61.0	-64.1	6.2	0.00e+00	0	43	104	0	88	20571
2026-01-01 14:23:05.80	257.05	20.08	-61.0	-64.1	6.2	0.00e+00	0	43	104	0	88	20498
2026-01-01 14:23:06.81	256.83	19.93	-61.0	-64.1	6.2	0.00e+00	0	43	104	0	88	20517
2026-01-01 14:23:07.81	256.61	19.79	-61.0	-64.1	6.2	0.00e+00	0	43	104	0	88	20554
2026-01-01 14:23:08.82	256.39	19.65	-61.0	-64.1	6.2	0.00e+00	0	43	104	0	88	20536
2026-01-01 14:23:09.83	256.17	19.51	-60.9	-64.1	6.2	0.00e+00	0	43	104	0	88	20425
2026-01-01 14:23:10.84	255.95	19.37	-60.9	-64.1	6.2	0.00e+00	0	43	104	0	88	20408
2026-01-01 14:23:11.85	255.74	19.23	-60.9	-64.1	6.2	0.00e+00	0	43	104	0	88	20464
2026-01-01 14:23:12.86	255.53	19.09	-60.9	-64.0	6.2	0.00e+00	0	43	104	0	88	20393
2026-01-01 14:23:13.86	255.32	18.96	-60.9	-64.0	6.2	0.00e+00	0	43	104	0	88	20395
2026-01-01 14:23:14.87	255.11	18.82	-60.9	-64.0	6.2	0.00e+00	0	43	104	0	88	20381
2026-01-01 14:23:15.87	254.91	18.68	-60.9	-64.1	6.2	0.00e+00	0	43	104	0	88	20437
2026-01-01 14:23:16.88	254.71	18.55	-60.9	-64.0	6.2	0.00e+00	0	43	104	0	88	20358
2026-01-01 14:23:17.89	254.51	18.41	-60.9	-64.0	6.2	0.00e+00	0	43	104	0	88	20303
2026-01-01 14:23:18.90	254.31	18.28	-60.9	-64.0	6.2	0.00e+00	0	43	104	0	88	20279
2026-01-01 14:23:19.91	254.11	18.14	-60.9	-64.0	6.2	0.00e+00	0	43	104	0	88	20336
2026-01-01 14:23:20.91	253.92	18.01	-60.9	-64.0	6.2	0.00e+00	0	43	104	0	88	20305
2026-01-01 14:23:21.92	253.72	17.87	-60.8	-64.0	6.2	0.00e+00	0	43	104	0	88	20242
2026-01-01 14:23:22.93	253.53	17.74	-60.8	-64.0	6.2	0.00e+00	0	43	104	0	88	20273
2026-01-01 14:23:23.94	253.34	17.61	-60.8	-64.0	6.2	0.00e+00	0	43	104	0	88	20206
2026-01-01 14:23:24.94	253.16	17.48	-60.8	-64.0	6.2	0.00e+00	0	43	104	0	88	20191
2026-01-01 14:23:25.95	252.97	17.35	-60.8	-63.9	6.2	0.00e+00	0	43	104	0	88	20122
2026-01-01 14:23:26.96	252.79	17.22	-60.8	-63.9	6.2	0.00e+00	0	42	104	0	88	20129
2026-01-01 14:23:27.97	252.61	17.09	-60.8	-63.9	6.2	0.00e+00	0	43	104	0	88	20130
2026-01-01 14:23:28.98	252.43	16.96	-60.8	-63.9	6.2	0.00e+00	0	43	104	0	88	20088
2026-01-01 14:23:29.99	252.25	16.83	-60.8	-63.9	6.2	0.00e+00	0	43	104	0	88	20047
2026-01-01 14:23:31.00	252.08	16.70	-60.8	-63.9	6.2	0.00e+00	0	43	104	0	88	20062
2026-01-01 14:23:32.00	251.90	16.58	-60.8	-63.9	6.2	0.00e+00	0	43	104	0	88	20092
2026-01-01 14:23:33.01	251.73	16.45	-60.8	-63.9	6.2	0.00e+00	0	43	104	0	88	20090
2026-01-01 14:23:34.02	251.56	16.32	-60.7	-63.9	6.2	0.00e+00	0	43	104	0	88	20021
2026-01-01 14:23:35.03	251.39	16.20	-60.8	-63.9	6.2	0.00e+00	0	43	104	0	88	20029
2026-01-01 14:23:36.04	251.22	16.07	-60.8	-63.9	6.2	0.00e+00	0	43	104	0	88	19997
2026-01-01 14:23:37.04	251.06	15.95	-60.7	-63.9	6.2	0.00e+00	0	43	104	0	88	19977
2026-01-01 14:23:38.05	250.90	15.83	-60.7	-63.9	6.2	0.00e+00	0	43	104	0	88	19954
2026-01-01 14:23:39.06	250.73	15.70	-60.7	-63.8	6.2	0.00e+00	0	43	104	0	88	19924
2026-01-01 14:23:40.07	250.57	15.58	-60.7	-63.9	6.2	0.00e+00	0	43	104	0	88	19941
2026-01-01 14:23:41.08	250.41	15.46	-60.7	-63.9	6.2	0.00e+00	0	43	104	0	88	19935
2026-01-01 14:23:42.08	250.26	15.34	-60.7	-63.8	6.2	0.00e+00	0	43	104	0	88	19855
2026-01-01 14:23:43.09	250.10	15.22	-60.7	-63.8	6.2	0.00e+00	0	43	104	0	88	19868
2026-01-01 14:23:44.09	249.95	15.10	-60.7	-63.8	6.2	0.00e+00	0	43	104	0	88	19854
2026-01-01 14:23:45.10	249.79	14.98	-60.7	-63.8	6.2	0.00e+00	0	43	104	0	88	19769
2026-01-01 14:23:46.11	249.64	14.86	-60.7	-63.8	6.2	0.00e+00	0	43	104	0	88	19827
2026-01-01 14:23:47.11	249.49	14.74	-60.7	-63.8	6.2	0.00e+00	0	43	104	0	88	19803
2026-01-01 14:23:48.12	249.34	14.62	-60.6	-63.8	6.2	0.00e+00	0	43	104	0	88	19797
2026-01-01 14:23:49.13	249.19	14.51	-60.6	-63.8	6.2	0.00e+00	0	43	104	0	88	19778
2026-01-01 14:23:50.13	249.05	14.39	-60.6	-63.8	6.2	0.00e+00	0	43	104	0	88	19707
2026-01-01 14:23:51.14	248.90	14.27	-60.6	-63.8	6.2	0.00e+00	0	43	104	0	88	19858
2026-01-01 14:23:52.15	248.76	14.16	-60.6	-63.7	6.2	0.00e+00	0	43	104	0	88	19702
2026-01-01 14:23:53.16	248.62	14.04	-60.6	-63.8	6.2	0.00e+00	0	43	104	0	88	19719
2026-01-01 14:23:54.17	248.48	13.93	-60.6	-63.7	6.2	0.00e+00	0	43	104	0	88	19685
2026-01-01 14:23:55.17	248.34	13.82	-60.6	-63.7	6.2	0.00e+00	0	43	104	0	88	19649
2026-01-01 14:23:56.19	248.20	13.70	-60.6	-63.7	6.2	0.00e+00	0	43	104	0	88	19654
2026-01-01 14:23:57.20	248.06	13.59	-60.6	-63.7	6.2	0.00e+00	0	43	104	0	88	19648
2026-01-01 14:23:58.20	247.93	13.48	-60.6	-63.7	6.2	0.00e+00	0	43	104	0	88	19628
2026-01-01 14:23:59.21	247.79	13.36	-60.6	-63.7	6.2	0.00e+00	0	43	104	0	87	20799
2026-01-01 14:24:00.22	247.66	13.25	-60.6	-63.7	6.2	0.00e+00	0	43	104	0	87	20801
2026-01-01 14:24:01.23	247.53	13.14	-60.6	-63.7	6.2	0.00e+00	0	43	104	0	87	20759
2026-01-01 14:24:02.23	247.40	13.03	-60.6	-63.7	6.2	0.00e+00	0	43	104	0	87	20755
2026-01-01 14:24:03.24	247.27	12.92	-60.6	-63.7	6.2	0.00e+00	0	43	104	0	87	20794
2026-01-01 14:24:04.25	247.14	12.81	-60.5	-63.7	6.2	0.00e+00	0	43	104	0	87	20753
2026-01-01 14:24:05.26	247.01	12.70	-60.5	-63.7	6.2	0.00e+00	0	43	104	0	87	20713
2026-01-01 14:24:06.26	246.89	12.60	-60.5	-63.7	6.2	0.00e+00	0	43	104	0	87	20725
2026-01-01 14:24:07.27	246.76	12.49	-60.5	-63.7	6.2	0.00e+00	0	43	104	0	87	20719
2026-01-01 14:24:08.28	246.64	12.38	-60.5	-63.6	6.2	0.00e+00	0	43	104	0	87	20593
2026-01-01 14:24:09.29	246.51	12.27	-60.5	-63.6	6.2	0.00e+00	0	43	104	0	87	20610
2026-01-01 14:24:10.30	246.39	12.17	-60.5	-63.7	6.2	0.00e+00	0	43	104	0	87	20704
2026-01-01 14:24:11.31	246.27	12.06	-60.5	-63.6	6.2	0.00e+00	0	43	104	0	87	20601
2026-01-01 14:24:12.31	246.15	11.96	-60.5	-63.6	6.2	0.00e+00	0	43	104	0	87	20589
2026-01-01 14:24:13.32	246.03	11.85	-60.5	-63.6	6.2	0.00e+00	0	43	104	0	87	20609
2026-01-01 14:24:14.33	245.92	11.75	-60.5	-63.7	6.2	0.00e+00	0	43	104	0	87	20635
2026-01-01 14:24:15.33	245.80	11.64	-60.5	-63.7	6.2	0.00e+00	0	43	104	0	87	20649
2026-01-01 14:24:16.34	245.68	11.54	-60.5	-63.6	6.2	0.00e+00	0	43	104	0	87	20479
2026-01-01 14:24:17.35	245.57	11.44	-60.5	-63.6	6.2	0.00e+00	0	43	104	0	87	20587
2026-01-01 14:24:18.36	245.46	11.33	-60.5	-63.6	6.2	0.00e+00	0	43	104	0	87	20620
2026-01-01 14:24:19.37	245.34	11.23	-60.4	-63.6	6.2	0.00e+00	0	43	104	0	87	20536
2026-01-01 14:24:20.37	245.23	11.13	-60.4	-63.6	6.2	0.00e+00	0	43	104	0	87	20498
2026-01-01 14:24:21.38	245.12	11.03	-60.4	-63.6	6.2	0.00e+00	0	43	104	0	87	20436
2026-01-01 14:24:22.39	245.01	10.93	-60.4	-63.6	6.2	0.00e+00	0	43	104	0	87	20551
2026-01-01 14:24:23.40	244.90	10.83	-60.4	-63.6	6.2	0.00e+00	0	43	104	0	87	20409
2026-01-01 14:24:24.41	244.79	10.73	-60.4	-63.5	6.2	0.00e+00	0	43	104	0	87	20351
2026-01-01 14:24:25.41	244.69	10.63	-60.4	-63.6	6.2	0.00e+00	0	43	104	0	87	20434
2026-01-01 14:24:26.42	244.58	10.53	-60.4	-63.6	6.2	0.00e+00	0	43	104	0	87	20400
2026-01-01 14:24:27.43	244.48	10.43	-60.4	-63.5	6.2	0.00e+00	0	43	104	0	87	20357
2026-01-01 14:24:28.44	244.37	10.33	-60.4	-63.5	6.2	0.00e+00	0	43	104	0	87	20218
2026-01-01 14:24:29.45	244.27	10.24	-60.4	-63.5	6.2	0.00e+00	0	43	104	0	87	20319
2026-01-01 14:24:30.45	244.17	10.14	-60.4	-63.5	6.2	0.00e+00	0	43	104	0	87	20331
2026-01-01 14:24:31.46	244.07	10.04	-60.3	-63.5	6.2	0.00e+00	0	43	104	0	87	20219
2026-01-01 14:24:32.47	243.96	9.95	-60.3	-63.4	6.2	0.00e+00	0	43	104	0	87	20158
2026-01-01 14:24:33.48	243.86	9.85	-60.3	-63.5	6.2	0.00e+00	0	43	104	0	87	20238
2026-01-01 14:24:34.49	243.76	9.75	-60.4	-63.5	6.2	0.00e+00	0	43	104	0	87	20301
2026-01-01 14:24:35.49	243.67	9.66	-60.3	-63.4	6.2	0.00e+00	0	43	104	0	87	20144
2026-01-01 14:24:36.50	243.57	9.57	-60.3	-63.4	6.2	0.00e+00	0	43	104	0	87	20094
2026-01-01 14:24:37.51	243.47	9.47	-60.3	-63.4	6.2	0.00e+00	0	43	104	0	87	20144
2026-01-01 14:24:38.52	243.38	9.38	-60.3	-63.4	6.2	0.00e+00	0	43	104	0	87	20161
2026-01-01 14:24:39.53	243.28	9.28	-60.3	-63.4	6.2	0.00e+00	0	43	104	0	87	20061
2026-01-01 14:24:40.54	243.19	9.19	-60.3	-63.4	6.2	0.00e+00	0	43	104	0	87	20079
2026-01-01 14:24:41.55	243.09	9.10	-60.3	-63.4	6.2	0.00e+00	0	43	104	0	87	20077
2026-01-01 14:24:42.55	243.00	9.01	-60.3	-63.4	6.2	0.00e+00	0	43	104	0	87	20113
2026-01-01 14:24:43.56	242.91	8.91	-60.2	-63.4	6.2	0.00e+00	0	43	104	0	87	19979
2026-01-01 14:24:44.57	242.81	8.82	-60.2	-63.4	6.2	0.00e+00	0	43	104	0	87	19964
2026-01-01 14:24:45.57	242.72	8.73	-60.2	-63.4	6.2	0.00e+00	0	43	104	0	87	20036
2026-01-01 14:24:46.58	242.63	8.64	-60.2	-63.4	6.2	0.00e+00	0	43	104	0	87	20092
2026-01-01 14:24:47.59	242.54	8.55	-60.2	-63.3	6.2	0.00e+00	0	43	104	0	87	19888
2026-01-01 14:24:48.60	242.46	8.46	-60.2	-63.3	6.2	0.00e+00	0	43	104	0	87	19818
2026-01-01 14:24:49.61	242.37	8.37	-60.2	-63.3	6.2	0.00e+00	0	43	104	0	87	19910
2026-01-01 14:24:50.61	242.28	8.28	-60.2	-63.4	6.2	0.00e+00	0	43	104	0	87	19952
2026-01-01 14:24:51.62	242.19	8.19	-60.1	-63.3	6.2	0.00e+00	0	43	104	0	87	19764
2026-01-01 14:24:52.63	242.11	8.10	-60.1	-63.2	6.2	0.00e+00	0	43	104	0	87	19684
2026-01-01 14:24:53.64	242.02	8.01	-60.1	-63.3	6.2	0.00e+00	0	43	104	0	87	19777
2026-01-01 14:24:54.64	241.94	7.93	-60.2	-63.3	6.2	0.00e+00	0	43	104	0	87	19805
2026-01-01 14:24:55.65	241.85	7.84	-60.1	-63.2	6.2	0.00e+00	0	43	104	0	87	19665
2026-01-01 14:24:56.66	241.77	7.75	-60.1	-63.2	6.2	0.00e+00	0	43	104	0	86	20788
2026-01-01 14:24:57.67	241.69	7.66	-60.1	-63.3	6.2	0.00e+00	0	43	104	0	86	20880
2026-01-01 14:24:58.68	241.60	7.58	-60.1	-63.3	6.2	0.00e+00	0	43	104	0	86	21001
2026-01-01 14:24:59.69	241.52	7.49	-60.1	-63.2	6.2	0.00e+00	0	43	104	0	86	20720
2026-01-01 14:25:00.70	241.44	7.40	-60.0	-63.2	6.2	0.00e+00	0	43	104	0	86	20757
2026-01-01 14:25:01.70	241.36	7.32	-60.1	-63.2	6.2	0.00e+00	0	43	104	0	86	20851
2026-01-01 14:25:02.71	241.28	7.23	-60.1	-63.2	6.2	0.00e+00	0	43	104	0	86	20851
2026-01-01 14:25:03.71	241.20	7.15	-60.0	-63.1	6.2	0.00e+00	0	43	104	0	86	20608
2026-01-01 14:25:04.72	241.13	7.07	-60.0	-63.1	6.2	0.00e+00	0	43	104	0	86	20597
2026-01-01 14:25:05.72	241.05	6.98	-60.1	-63.2	6.2	0.00e+00	0	43	104	0	86	20708
2026-01-01 14:25:06.73	240.97	6.90	-60.1	-63.2	6.2	0.00e+00	0	43	104	0	86	20765
2026-01-01 14:25:07.74	240.89	6.81	-60.0	-63.1	6.2	0.00e+00	0	43	104	0	86	20587
2026-01-01 14:25:08.75	240.82	6.73	-59.9	-63.1	6.2	0.00e+00	0	43	104	0	86	20418
2026-01-01 14:25:09.76	240.74	6.65	-60.0	-63.2	6.2	0.00e+00	0	43	104	0	86	20645
2026-01-01 14:25:10.77	240.67	6.56	-60.0	-63.2	6.2	0.00e+00	0	43	104	0	86	20691
2026-01-01 14:25:11.78	240.59	6.48	-59.9	-63.0	6.2	0.00e+00	0	43	104	0	86	20371
2026-01-01 14:25:12.79	240.52	6.40	-59.9	-63.0	6.2	0.00e+00	0	43	104	0	86	20304
2026-01-01 14:25:13.80	240.44	6.32	-60.0	-63.1	6.2	0.00e+00	0	43	104	0	86	20490
2026-01-01 14:25:14.81	240.37	6.24	-60.0	-63.1	6.2	0.00e+00	0	43	104	0	86	20568
2026-01-01 14:25:15.81	240.30	6.16	-59.8	-63.0	6.2	0.00e+00	0	43	104	0	86	20222
2026-01-01 14:25:16.82	240.23	6.07	-59.8	-63.0	6.2	0.00e+00	0	43	104	0	86	20183
2026-01-01 14:25:17.82	240.16	5.99	-59.9	-63.1	6.2	0.00e+00	0	43	104	0	86	20398
2026-01-01 14:25:18.83	240.08	5.91	-59.9	-63.0	6.2	0.00e+00	0	43	104	0	86	20395
2026-01-01 14:25:19.84	240.01	5.83	-59.8	-62.9	6.2	0.00e+00	0	43	104	0	86	20054
2026-01-01 14:25:20.84	239.94	5.75	-59.7	-62.9	6.2	0.00e+00	0	43	104	0	86	19965
2026-01-01 14:25:21.85	239.88	5.67	-59.8	-63.0	6.2	0.00e+00	0	43	104	0	86	20233
2026-01-01 14:25:22.86	239.81	5.60	-59.8	-63.0	6.2	0.00e+00	0	43	104	0	86	20258
2026-01-01 14:25:23.86	239.74	5.52	-59.7	-62.8	6.2	0.00e+00	0	43	104	0	86	19777
2026-01-01 14:25:24.87	239.67	5.44	-59.7	-62.8	6.2	0.00e+00	0	43	104	0	86	19809
2026-01-01 14:25:25.88	239.60	5.36	-59.8	-62.9	6.2	0.00e+00	0	43	104	0	86	20151
2026-01-01 14:25:26.89	239.54	5.28	-59.8	-62.9	6.2	0.00e+00	0	43	104	0	86	20140
2026-01-01 14:25:27.89	239.47	5.20	-59.6	-62.7	6.2	0.00e+00	0	43	104	0	86	19634
2026-01-01 14:25:28.90	239.40	5.13	-59.6	-62.7	6.2	0.00e+00	0	43	104	0	86	19704
2026-01-01 14:25:29.91	239.34	5.05	-59.7	-62.9	6.2	0.00e+00	0	43	104	0	86	20003
2026-01-01 14:25:30.90	239.27	4.97	-60.0	-63.2	6.2	0.00e+00	0	43	104	0	86	20644
2026-01-01 14:25:31.91	239.21	4.90	-60.5	-63.7	6.2	0.00e+00	0	43	104	0	86	21883
2026-01-01 14:25:32.92	239.14	4.82	-60.8	-63.9	6.2	0.00e+00	0	43	104	0	87	21324
2026-01-01 14:25:33.93	239.08	4.74	-61.0	-64.2	6.2	0.00e+00	0	43	104	0	87	21945
2026-01-01 14:25:34.94	239.02	4.67	-61.2	-64.4	6.2	0.00e+00	0	43	104	0	87	22400
2026-01-01 14:25:35.95	238.95	4.59	-61.4	-64.5	6.2	0.00e+00	0	43	104	0	88	21456
2026-01-01 14:25:36.96	238.89	4.52	-61.5	-64.6	6.2	0.00e+00	0	43	104	0	88	21786
2026-01-01 14:25:37.97	238.83	4.44	-61.6	-64.7	6.2	0.00e+00	0	43	104	0	88	22070
2026-01-01 14:25:38.98	238.77	4.36	-61.7	-64.9	6.2	0.00e+00	0	43	104	0	88	22395
2026-01-01 14:25:39.99	238.71	4.29	-61.8	-65.0	6.2	0.00e+00	0	43	104	0	88	22633
2026-01-01 14:25:40.99	238.64	4.22	-61.8	-64.9	6.2	0.00e+00	0	43	104	0	89	21342
2026-01-01 14:25:42.01	238.58	4.14	-61.9	-65.0	6.2	0.00e+00	0	43	104	0	89	21461
2026-01-01 14:25:43.02	238.52	4.07	-61.9	-65.0	6.2	0.00e+00	0	43	104	0	89	21592
2026-01-01 14:25:44.02	238.46	3.99	-61.9	-65.1	6.2	0.00e+00	0	43	104	0	89	21741
2026-01-01 14:25:45.03	238.40	3.92	-62.0	-65.1	6.2	0.00e+00	0	43	104	0	89	21728
2026-01-01 14:25:46.04	238.35	3.85	-62.0	-65.1	6.2	0.00e+00	0	43	104	0	89	21750
2026-01-01 14:25:47.05	238.29	3.77	-62.0	-65.1	6.2	0.00e+00	0	43	104	0	89	21816
2026-01-01 14:25:48.06	238.23	3.70	-62.0	-65.1	6.2	0.00e+00	0	43	104	0	89	21829
2026-01-01 14:25:49.06	238.17	3.63	-62.0	-65.2	6.2	0.00e+00	0	43	104	0	89	21902
2026-01-01 14:25:50.07	238.11	3.56	-62.1	-65.2	6.2	0.00e+00	0	43	104	0	89	21954
2026-01-01 14:25:51.07	238.06	3.48	-62.1	-65.2	6.2	0.00e+00	0	43	104	0	89	21999
2026-01-01 14:25:52.08	238.00	3.41	-62.1	-65.2	6.2	0.00e+00	0	43	104	0	89	22042
2026-01-01 14:25:53.08	237.95	3.34	-62.1	-65.2	6.2	0.00e+00	0	43	104	0	89	21980
2026-01-01 14:25:54.09	237.89	3.27	-62.0	-65.2	6.2	0.00e+00	0	43	104	0	89	21857
2026-01-01 14:25:55.10	237.83	3.20	-62.0	-65.1	6.2	0.00e+00	0	43	104	0	89	21853
2026-01-01 14:25:56.10	237.78	3.13	-62.0	-65.1	6.2	0.00e+00	0	43	104	0	89	21817
2026-01-01 14:25:57.12	237.72	3.06	-62.0	-65.1	6.2	0.00e+00	0	43	104	0	89	21802
2026-01-01 14:25:58.13	237.67	2.98	-62.0	-65.1	6.2	0.00e+00	0	43	104	0	89	21805
2026-01-01 14:25:59.14	237.61	2.91	-62.0	-65.1	6.2	0.00e+00	0	43	104	0	89	21730
2026-01-01 14:26:00.14	237.56	2.84	-61.9	-65.1	6.2	0.00e+00	0	43	104	0	89	21665
2026-01-01 14:26:01.15	237.51	2.77	-61.9	-65.1	6.2	0.00e+00	0	43	104	0	89	21621
2026-01-01 14:26:02.16	237.45	2.70	-61.9	-65.1	6.2	0.00e+00	0	43	104	0	89	21666
2026-01-01 14:26:03.17	237.40	2.63	-61.9	-65.0	6.2	0.00e+00	0	43	104	0	89	21599
2026-01-01 14:26:04.18	237.35	2.57	-61.9	-65.0	6.2	0.00e+00	0	43	104	0	89	21542
2026-01-01 14:26:05.19	237.30	2.50	-61.9	-65.0	6.2	0.00e+00	0	43	104	0	89	21577
2026-01-01 14:26:06.20	237.24	2.43	-61.9	-65.0	6.2	0.00e+00	0	43	104	0	89	21530
2026-01-01 14:26:07.21	237.19	2.36	-61.9	-65.0	6.2	0.00e+00	0	43	104	0	89	21554
2026-01-01 14:26:08.22	237.14	2.29	-61.9	-65.0	6.2	0.00e+00	0	43	104	0	89	21504
2026-01-01 14:26:09.23	237.09	2.22	-61.9	-65.0	6.2	0.00e+00	0	43	104	0	89	21511
2026-01-01 14:26:10.24	237.04	2.15	-61.9	-65.0	6.2	0.00e+00	0	43	104	0	89	21416
2026-01-01 14:26:11.25	236.99	2.08	-61.9	-65.0	6.2	0.00e+00	0	43	104	0	89	21453
2026-01-01 14:26:12.25	236.94	2.02	-61.9	-65.0	6.2	0.00e+00	0	43	104	0	89	21414
2026-01-01 14:26:13.26	236.89	1.95	-61.8	-65.0	6.2	0.00e+00	0	43	104	0	89	21460
2026-01-01 14:26:14.27	236.84	1.88	-61.8	-65.0	6.2	0.00e+00	0	43	104	0	89	21440
2026-01-01 14:26:15.28	236.79	1.81	-61.8	-65.0	6.2	0.00e+00	0	43	104	0	89	21384

#Closed at: 2026-01-01 14:26:15
#Recorded file [0 MB]: D:/lorett/data/31004_260101_171555.dat