passes_logs/2026/01/01/R3.2S_Murmansk/R3.2S_Murmansk__20260101_224959_KANOPUS-V-IK_rec.log

#Pass ID: 20260101_224959_KANOPUS-V-IK
#Satellite: KANOPUS-V-IK
#Configuration: KANOPUS-V_8128
#almurnet v.1.7.20251203
#Start time: 2026-01-01 22:50:01

#Version: 2.2.20231116
#Station: R3.2S_Murmansk
#Location: 33.079688 lon 68.888172 lat
#TLE: 1 42825U 17042A   26001.21266440  .00005755  00000+0  24506-3 0  9990
#TLE: 2 42825  97.3692 269.9908 0001826  86.2004 273.9442 15.23363314469954

#Time	Az	El	Level	Level2	SNR	BER	BlckErr	Temp	State	Recorded	gain1	gain2
2026-01-01 22:50:01.12	20.99	2.14	-59.0	-69.7	3.8	7.45e-01	0	32	0	0	86	12744
2026-01-01 22:50:02.11	20.97	2.21	-59.0	-69.7	3.8	7.46e-01	0	31	104	0	86	12762
2026-01-01 22:50:03.11	20.94	2.28	-59.0	-69.7	3.8	7.44e-01	0	31	104	0	86	12727
2026-01-01 22:50:04.10	20.92	2.35	-59.0	-69.7	3.8	7.45e-01	0	31	104	0	86	12720
2026-01-01 22:50:05.10	20.90	2.42	-59.0	-69.7	3.8	7.45e-01	0	31	104	0	86	12726
2026-01-01 22:50:06.10	20.88	2.49	-59.0	-69.7	3.8	7.46e-01	0	32	104	0	86	12742
2026-01-01 22:50:07.09	20.86	2.56	-59.0	-69.7	3.8	7.45e-01	0	32	104	0	86	12778
2026-01-01 22:50:08.08	20.83	2.63	-59.0	-69.7	3.8	7.48e-01	0	32	104	0	86	12777
2026-01-01 22:50:09.08	20.81	2.70	-59.0	-69.7	3.8	7.47e-01	0	32	104	0	86	12741
2026-01-01 22:50:10.07	20.79	2.77	-59.0	-69.7	3.8	7.43e-01	0	32	104	0	86	12724
2026-01-01 22:50:11.08	20.77	2.84	-59.0	-69.7	3.8	7.45e-01	0	32	104	0	86	12742
2026-01-01 22:50:12.08	20.74	2.92	-59.0	-69.7	3.8	7.46e-01	0	32	104	0	86	12759
2026-01-01 22:50:13.07	20.72	2.99	-59.0	-69.7	3.8	7.48e-01	0	32	104	0	86	12730
2026-01-01 22:50:14.07	20.70	3.06	-59.0	-69.7	3.8	7.45e-01	0	32	104	0	86	12768
2026-01-01 22:50:15.07	20.67	3.13	-59.0	-69.7	3.8	7.45e-01	0	32	104	0	86	12717
2026-01-01 22:50:16.08	20.65	3.21	-59.0	-69.7	3.8	7.46e-01	0	32	104	0	86	12752
2026-01-01 22:50:17.08	20.62	3.28	-59.0	-69.7	3.8	7.46e-01	0	32	104	0	86	12752
2026-01-01 22:50:18.08	20.60	3.35	-58.9	-69.7	3.8	7.46e-01	0	32	104	0	86	12760
2026-01-01 22:50:19.08	20.57	3.43	-59.0	-69.7	3.8	7.44e-01	0	32	104	0	86	12704
2026-01-01 22:50:20.04	20.55	3.50	-59.0	-69.7	3.8	7.46e-01	0	32	104	0	86	12709
2026-01-01 22:50:21.05	20.53	3.57	-59.0	-69.7	3.8	7.46e-01	0	32	104	0	86	12758
2026-01-01 22:50:22.04	20.50	3.65	-59.0	-69.7	3.8	7.45e-01	0	32	104	0	86	12735
2026-01-01 22:50:23.04	20.48	3.72	-59.0	-69.7	3.8	7.45e-01	0	32	104	0	86	12714
2026-01-01 22:50:24.04	20.45	3.80	-59.0	-69.7	3.8	7.48e-01	0	32	104	0	86	12695
2026-01-01 22:50:25.04	20.42	3.87	-59.0	-69.7	3.8	7.48e-01	0	32	104	0	86	12713
2026-01-01 22:50:26.05	20.40	3.95	-59.0	-69.7	3.8	7.46e-01	0	32	104	0	86	12692
2026-01-01 22:50:27.05	20.37	4.03	-59.0	-69.6	3.8	7.45e-01	0	32	104	0	86	12650
2026-01-01 22:50:28.05	20.35	4.10	-59.0	-69.6	3.8	7.47e-01	0	32	104	0	86	12606
2026-01-01 22:50:29.05	20.32	4.18	-59.0	-69.6	3.8	7.46e-01	0	32	104	0	86	12659
2026-01-01 22:50:30.05	20.29	4.26	-59.0	-69.6	3.8	7.46e-01	0	32	104	0	86	12663
2026-01-01 22:50:31.05	20.27	4.33	-59.0	-69.7	3.8	7.46e-01	0	32	104	0	86	12697
2026-01-01 22:50:32.04	20.24	4.41	-59.0	-69.7	3.8	7.46e-01	0	32	104	0	86	12721
2026-01-01 22:50:33.05	20.21	4.49	-59.0	-69.7	3.8	7.46e-01	0	32	104	0	86	12723
2026-01-01 22:50:34.05	20.18	4.57	-59.0	-69.7	3.8	7.46e-01	0	32	104	0	86	12728
2026-01-01 22:50:35.05	20.16	4.64	-59.0	-69.7	3.8	7.44e-01	0	32	104	0	86	12675
2026-01-01 22:50:36.04	20.13	4.72	-59.0	-69.7	3.8	7.46e-01	0	32	104	0	86	12721
2026-01-01 22:50:37.05	20.10	4.80	-59.0	-69.7	3.9	7.47e-01	0	32	104	0	86	12713
2026-01-01 22:50:38.05	20.07	4.88	-59.0	-69.7	3.8	7.44e-01	0	32	104	0	86	12729
2026-01-01 22:50:39.05	20.04	4.96	-59.0	-69.7	3.8	7.45e-01	0	32	104	0	86	12743
2026-01-01 22:50:40.04	20.02	5.04	-59.0	-69.7	3.8	7.45e-01	0	32	104	0	86	12691
2026-01-01 22:50:41.04	19.99	5.12	-59.2	-69.9	3.8	7.46e-01	0	32	104	0	86	13002
2026-01-01 22:50:42.04	19.96	5.20	-59.1	-69.8	3.8	7.45e-01	0	32	104	0	86	12898
2026-01-01 22:50:43.04	19.93	5.28	-58.9	-69.6	3.8	7.45e-01	0	33	104	0	86	12619
2026-01-01 22:50:44.04	19.90	5.36	-59.1	-69.7	3.8	7.44e-01	0	32	104	0	86	12800
2026-01-01 22:50:45.04	19.87	5.44	-59.0	-69.7	3.8	7.45e-01	0	32	104	0	86	12682
2026-01-01 22:50:46.03	19.84	5.53	-59.1	-69.9	3.8	7.46e-01	0	32	104	0	86	12983
2026-01-01 22:50:47.03	19.81	5.61	-59.0	-69.6	3.8	7.45e-01	0	32	104	0	86	12660
2026-01-01 22:50:48.04	19.78	5.69	-59.1	-69.8	3.8	7.46e-01	0	32	104	0	86	12881
2026-01-01 22:50:49.04	19.75	5.77	-59.0	-69.7	3.8	7.45e-01	0	32	104	0	86	12750
2026-01-01 22:50:50.03	19.71	5.86	-59.2	-69.9	3.8	7.47e-01	0	32	104	0	86	12960
2026-01-01 22:50:51.04	19.68	5.94	-59.0	-69.7	3.8	7.45e-01	0	32	104	0	86	12749
2026-01-01 22:50:52.04	19.65	6.02	-59.1	-69.8	3.8	7.45e-01	0	32	104	0	86	12952
2026-01-01 22:50:53.04	19.62	6.11	-59.0	-69.7	3.8	7.46e-01	0	33	104	0	86	12769
2026-01-01 22:50:54.03	19.59	6.19	-59.2	-69.9	3.8	7.45e-01	0	32	104	0	86	13082
2026-01-01 22:50:55.03	19.55	6.28	-59.0	-69.7	3.8	7.44e-01	0	33	104	0	86	12779
2026-01-01 22:50:56.04	19.52	6.36	-59.2	-69.8	3.8	7.46e-01	0	33	104	0	86	12939
2026-01-01 22:50:57.03	19.49	6.45	-59.1	-69.8	3.8	7.46e-01	0	33	104	0	86	12835
2026-01-01 22:50:58.03	19.46	6.53	-59.2	-69.9	3.8	7.46e-01	0	33	104	0	86	13078
2026-01-01 22:50:59.03	19.42	6.62	-59.1	-69.7	3.8	7.46e-01	0	33	104	0	86	12808
2026-01-01 22:51:00.03	19.39	6.71	-59.2	-69.9	3.8	7.45e-01	0	33	104	0	86	13030
2026-01-01 22:51:01.03	19.35	6.80	-59.1	-69.8	3.8	7.47e-01	0	33	104	0	86	12883
2026-01-01 22:51:02.03	19.32	6.88	-59.3	-70.0	3.8	7.46e-01	0	32	104	0	86	13156
2026-01-01 22:51:03.02	19.28	6.97	-59.1	-69.8	3.8	7.47e-01	0	33	104	0	86	12892
2026-01-01 22:51:04.02	19.25	7.06	-59.2	-69.9	3.8	7.45e-01	0	33	104	0	86	13070
2026-01-01 22:51:05.02	19.21	7.15	-59.1	-69.8	3.8	7.44e-01	0	33	104	0	86	12903
2026-01-01 22:51:06.01	19.18	7.24	-59.3	-69.9	3.8	7.44e-01	0	33	104	0	86	13105
2026-01-01 22:51:07.00	19.14	7.32	-59.1	-69.8	3.8	7.46e-01	0	33	104	0	86	12924
2026-01-01 22:51:08.01	19.11	7.42	-59.2	-69.9	3.8	7.45e-01	0	33	104	0	86	13064
2026-01-01 22:51:09.00	19.07	7.51	-59.2	-69.9	3.8	7.45e-01	0	33	104	0	86	13018
2026-01-01 22:51:09.99	19.03	7.59	-59.3	-70.0	3.8	7.46e-01	0	33	104	0	86	13215
2026-01-01 22:51:10.99	19.00	7.69	-59.2	-69.9	3.8	7.45e-01	0	33	104	0	86	12985
2026-01-01 22:51:11.99	18.96	7.78	-59.3	-69.9	3.8	7.46e-01	0	33	104	0	86	13086
2026-01-01 22:51:12.98	18.92	7.87	-59.2	-69.9	3.8	7.46e-01	0	33	104	0	86	13024
2026-01-01 22:51:13.98	18.88	7.96	-59.3	-70.0	3.8	7.46e-01	0	33	104	0	86	13244
2026-01-01 22:51:14.98	18.84	8.06	-59.2	-69.9	3.8	7.45e-01	0	33	104	0	86	13062
2026-01-01 22:51:15.98	18.81	8.15	-59.3	-70.0	3.8	7.46e-01	0	33	104	0	86	13174
2026-01-01 22:51:16.98	18.77	8.24	-59.2	-69.9	3.8	7.45e-01	0	33	104	0	86	13094
2026-01-01 22:51:17.97	18.73	8.34	-59.4	-70.0	3.8	7.46e-01	0	33	104	0	86	13244
2026-01-01 22:51:18.97	18.69	8.43	-59.2	-70.0	3.8	7.47e-01	0	33	104	0	86	13129
2026-01-01 22:51:19.97	18.65	8.53	-59.3	-70.0	3.8	7.46e-01	0	33	104	0	86	13192
2026-01-01 22:51:20.97	18.61	8.62	-59.3	-69.9	3.8	7.44e-01	0	33	104	0	86	13106
2026-01-01 22:51:21.97	18.56	8.72	-59.4	-70.1	3.8	7.46e-01	0	33	104	0	86	13301
2026-01-01 22:51:22.97	18.52	8.82	-59.3	-70.0	3.8	7.45e-01	0	33	104	0	86	13129
2026-01-01 22:51:23.97	18.48	8.91	-59.4	-70.0	3.8	7.47e-01	0	33	104	0	86	13209
2026-01-01 22:51:24.97	18.44	9.01	-59.3	-70.0	3.8	7.44e-01	0	33	104	0	86	13165
2026-01-01 22:51:25.97	18.40	9.11	-59.4	-70.1	3.8	7.44e-01	0	33	104	0	86	13347
2026-01-01 22:51:26.97	18.35	9.21	-59.3	-70.0	3.8	7.46e-01	0	33	104	0	86	13197
2026-01-01 22:51:27.97	18.31	9.31	-59.4	-70.1	3.8	7.45e-01	0	33	104	0	86	13281
2026-01-01 22:51:28.96	18.27	9.41	-59.3	-70.0	3.8	7.45e-01	0	33	104	0	86	13234
2026-01-01 22:51:29.97	18.22	9.51	-59.5	-70.1	3.8	7.46e-01	0	33	104	0	86	13400
2026-01-01 22:51:30.96	18.18	9.61	-59.3	-70.0	3.8	7.46e-01	0	33	104	0	86	13226
2026-01-01 22:51:31.96	18.13	9.71	-59.4	-70.1	3.8	7.45e-01	0	33	104	0	86	13294
2026-01-01 22:51:32.96	18.09	9.81	-59.4	-70.1	3.8	7.45e-01	0	33	104	0	86	13286
2026-01-01 22:51:33.96	18.04	9.91	-59.5	-70.1	3.8	7.46e-01	0	33	104	0	86	13408
2026-01-01 22:51:34.96	18.00	10.02	-59.4	-70.1	3.8	7.44e-01	0	33	104	0	86	13336
2026-01-01 22:51:35.95	17.95	10.12	-59.5	-70.1	3.8	7.45e-01	0	33	104	0	86	13413
2026-01-01 22:51:36.95	17.90	10.22	-59.4	-70.1	3.8	7.45e-01	0	33	104	0	86	13303
2026-01-01 22:51:37.95	17.85	10.33	-59.5	-70.2	3.8	7.43e-01	0	33	104	0	86	13445
2026-01-01 22:51:38.95	17.81	10.43	-59.4	-70.1	3.8	7.45e-01	0	33	104	0	86	13326
2026-01-01 22:51:39.95	17.76	10.54	-59.5	-70.2	3.8	7.46e-01	0	33	104	0	86	13430
2026-01-01 22:51:40.95	17.71	10.65	-59.4	-70.1	3.8	7.46e-01	0	33	104	0	86	13270
2026-01-01 22:51:41.94	17.66	10.75	-59.5	-70.2	3.8	7.46e-01	0	33	104	0	87	12703
2026-01-01 22:51:42.94	17.61	10.86	-59.4	-70.1	3.8	7.45e-01	0	33	104	0	87	12613
2026-01-01 22:51:43.94	17.56	10.97	-59.5	-70.2	3.8	7.45e-01	0	33	104	0	87	12700
2026-01-01 22:51:44.94	17.51	11.08	-59.4	-70.1	3.8	7.46e-01	0	33	104	0	87	12632
2026-01-01 22:51:45.94	17.46	11.19	-59.5	-70.2	3.8	7.44e-01	0	33	104	0	87	12747
2026-01-01 22:51:46.94	17.40	11.30	-59.4	-70.1	3.8	7.48e-01	0	33	104	0	87	12636
2026-01-01 22:51:47.93	17.35	11.41	-59.5	-70.2	3.8	7.46e-01	0	33	104	0	87	12684
2026-01-01 22:51:48.94	17.30	11.52	-59.5	-70.1	3.8	7.45e-01	0	33	104	0	87	12659
2026-01-01 22:51:49.94	17.24	11.63	-59.6	-70.2	3.8	7.43e-01	0	33	104	0	87	12788
2026-01-01 22:51:50.93	17.19	11.74	-59.5	-70.1	3.8	7.46e-01	0	33	104	0	87	12639
2026-01-01 22:51:51.93	17.14	11.86	-59.5	-70.3	3.8	7.46e-01	0	33	104	0	87	12830
2026-01-01 22:51:52.93	17.08	11.97	-59.5	-70.2	3.8	7.45e-01	0	33	104	0	87	12693
2026-01-01 22:51:53.93	17.03	12.09	-59.6	-70.3	3.8	7.45e-01	0	33	104	0	87	12886
2026-01-01 22:51:54.93	16.97	12.20	-59.5	-70.2	3.8	7.43e-01	0	33	104	0	87	12720
2026-01-01 22:51:55.93	16.91	12.32	-59.6	-70.3	3.8	7.45e-01	0	33	104	0	87	12816
2026-01-01 22:51:56.93	16.85	12.43	-59.5	-70.2	3.8	7.45e-01	0	33	104	0	87	12744
2026-01-01 22:51:57.93	16.80	12.55	-59.6	-70.3	3.8	7.45e-01	0	33	104	0	87	12853
2026-01-01 22:51:58.92	16.74	12.67	-59.5	-70.2	3.8	7.46e-01	0	33	104	0	87	12735
2026-01-01 22:51:59.92	16.68	12.79	-59.6	-70.3	3.8	7.46e-01	0	33	104	0	87	12831
2026-01-01 22:52:00.92	16.62	12.91	-59.5	-70.2	3.8	7.45e-01	0	33	104	0	87	12713
2026-01-01 22:52:01.92	16.56	13.03	-59.6	-70.3	3.8	7.45e-01	0	33	104	0	87	12891
2026-01-01 22:52:02.90	16.50	13.15	-59.5	-70.2	3.8	7.45e-01	0	33	104	0	87	12800
2026-01-01 22:52:03.90	16.44	13.27	-59.6	-70.3	3.8	7.46e-01	0	33	104	0	87	12858
2026-01-01 22:52:04.89	16.37	13.39	-59.5	-70.3	3.8	7.45e-01	0	33	104	0	87	12813
2026-01-01 22:52:05.89	16.31	13.52	-59.7	-70.3	3.8	7.47e-01	0	33	104	0	87	12950
2026-01-01 22:52:06.89	16.25	13.64	-59.6	-70.3	3.8	7.43e-01	0	33	104	0	87	12864
2026-01-01 22:52:07.88	16.18	13.76	-59.6	-70.3	3.8	7.45e-01	0	33	104	0	87	12884
2026-01-01 22:52:08.88	16.12	13.89	-59.6	-70.3	3.8	7.44e-01	0	33	104	0	87	12883
2026-01-01 22:52:09.88	16.05	14.02	-59.7	-70.3	3.8	7.46e-01	0	33	104	0	87	12937
2026-01-01 22:52:10.88	15.99	14.15	-59.6	-70.3	3.8	7.45e-01	0	33	104	0	87	12874
2026-01-01 22:52:11.88	15.92	14.27	-59.7	-70.3	3.8	7.46e-01	0	33	104	0	87	12932
2026-01-01 22:52:12.88	15.85	14.40	-59.6	-70.3	3.8	7.45e-01	0	33	104	0	87	12850
2026-01-01 22:52:13.87	15.78	14.53	-59.7	-70.4	3.8	7.46e-01	0	33	104	0	87	13005
2026-01-01 22:52:14.87	15.71	14.66	-59.6	-70.3	3.8	7.47e-01	0	33	104	0	87	12862
2026-01-01 22:52:15.87	15.64	14.80	-59.7	-70.3	3.8	7.44e-01	0	33	104	0	87	12958
2026-01-01 22:52:16.87	15.57	14.93	-59.6	-70.3	3.8	7.46e-01	0	33	104	0	87	12921
2026-01-01 22:52:17.87	15.50	15.06	-59.7	-70.4	3.8	7.46e-01	0	33	104	0	87	13010
2026-01-01 22:52:18.87	15.43	15.20	-59.7	-70.3	3.8	7.45e-01	0	33	104	0	87	12947
2026-01-01 22:52:19.86	15.35	15.33	-59.7	-70.4	3.8	7.44e-01	0	33	104	0	87	12964
2026-01-01 22:52:20.86	15.28	15.47	-59.7	-70.3	3.8	7.46e-01	0	33	104	0	87	12921
2026-01-01 22:52:21.86	15.20	15.61	-59.7	-70.4	3.8	7.45e-01	0	33	104	0	87	13043
2026-01-01 22:52:22.86	15.13	15.75	-59.7	-70.4	3.8	7.45e-01	0	33	104	0	87	12963
2026-01-01 22:52:23.86	15.05	15.89	-59.7	-70.4	3.8	7.46e-01	0	33	104	0	87	13009
2026-01-01 22:52:24.85	14.97	16.03	-59.7	-70.4	3.8	7.46e-01	0	33	104	0	87	12963
2026-01-01 22:52:25.86	14.89	16.17	-59.8	-70.4	3.8	7.48e-01	0	33	104	0	87	13083
2026-01-01 22:52:26.86	14.81	16.31	-59.7	-70.4	3.8	7.46e-01	0	33	104	0	87	13026
2026-01-01 22:52:27.86	14.73	16.46	-59.8	-70.4	3.8	7.46e-01	0	33	104	0	87	13054
2026-01-01 22:52:28.86	14.65	16.60	-59.7	-70.4	3.8	7.45e-01	0	33	104	0	87	13046
2026-01-01 22:52:29.87	14.57	16.75	-59.8	-70.4	3.8	7.46e-01	0	33	104	0	87	13097
2026-01-01 22:52:30.86	14.48	16.89	-59.7	-70.4	3.8	7.44e-01	0	33	104	0	87	13071
2026-01-01 22:52:31.86	14.40	17.04	-59.8	-70.5	3.8	7.45e-01	0	33	104	0	87	13120
2026-01-01 22:52:32.85	14.31	17.19	-59.7	-70.4	3.8	7.47e-01	0	33	104	0	87	13101
2026-01-01 22:52:33.86	14.22	17.34	-59.8	-70.5	3.8	7.45e-01	0	33	104	0	87	13153
2026-01-01 22:52:34.86	14.14	17.49	-59.8	-70.4	3.8	7.46e-01	0	33	104	0	87	13095
2026-01-01 22:52:35.86	14.05	17.65	-59.8	-70.5	3.8	7.46e-01	0	33	104	0	87	13164
2026-01-01 22:52:36.86	13.96	17.80	-59.8	-70.4	3.8	7.45e-01	0	33	104	0	87	13108
2026-01-01 22:52:37.86	13.87	17.96	-59.8	-70.5	3.8	7.47e-01	0	33	104	0	87	13176
2026-01-01 22:52:38.85	13.77	18.11	-59.8	-70.4	3.8	7.46e-01	0	33	104	0	87	13094
2026-01-01 22:52:39.85	13.68	18.27	-59.8	-70.5	3.8	7.44e-01	0	33	104	0	87	13206
2026-01-01 22:52:40.85	13.59	18.43	-59.8	-70.4	3.8	7.46e-01	0	33	104	0	87	13087
2026-01-01 22:52:41.84	13.49	18.58	-59.9	-70.5	3.8	7.46e-01	0	33	104	0	87	13251
2026-01-01 22:52:42.83	13.39	18.74	-59.8	-70.5	3.8	7.46e-01	0	33	104	0	87	13185
2026-01-01 22:52:43.83	13.30	18.91	-59.9	-70.6	3.8	7.46e-01	0	33	104	0	87	13300
2026-01-01 22:52:44.83	13.20	19.07	-59.8	-70.5	3.8	7.44e-01	0	33	104	0	87	13211
2026-01-01 22:52:45.83	13.10	19.24	-59.9	-70.6	3.8	7.46e-01	0	33	104	0	87	13305
2026-01-01 22:52:46.83	12.99	19.40	-59.8	-70.5	3.8	7.46e-01	0	33	104	0	87	13237
2026-01-01 22:52:47.84	12.89	19.57	-59.9	-70.5	3.8	7.47e-01	0	33	104	0	87	13253
2026-01-01 22:52:48.83	12.78	19.74	-59.9	-70.5	3.8	7.45e-01	0	33	104	0	87	13196
2026-01-01 22:52:49.83	12.68	19.91	-59.9	-70.6	3.8	7.46e-01	0	33	104	0	87	13353
2026-01-01 22:52:50.83	12.57	20.08	-59.9	-70.5	3.8	7.45e-01	0	33	104	0	87	13240
2026-01-01 22:52:51.82	12.46	20.25	-59.9	-70.6	3.8	7.45e-01	0	33	104	0	87	13332
2026-01-01 22:52:52.83	12.35	20.43	-59.9	-70.6	3.8	7.45e-01	0	33	104	0	87	13273
2026-01-01 22:52:53.82	12.24	20.60	-60.0	-70.6	3.8	7.46e-01	0	33	104	0	87	13387
2026-01-01 22:52:54.82	12.12	20.78	-59.9	-70.6	3.8	7.45e-01	0	33	104	0	87	13353
2026-01-01 22:52:55.83	12.01	20.96	-60.0	-70.6	3.8	7.45e-01	0	33	104	0	87	13371
2026-01-01 22:52:56.83	11.89	21.14	-59.9	-70.6	3.8	7.44e-01	0	33	104	0	87	13351
2026-01-01 22:52:57.83	11.77	21.32	-60.0	-70.7	3.8	7.47e-01	0	33	104	0	87	13427
2026-01-01 22:52:58.82	11.65	21.51	-59.9	-70.6	3.8	7.46e-01	0	33	104	0	87	13329
2026-01-01 22:52:59.82	11.53	21.69	-60.0	-70.7	3.8	7.46e-01	0	33	104	0	87	13437
2026-01-01 22:53:00.81	11.41	21.88	-60.0	-70.6	3.8	7.45e-01	0	33	104	0	87	13342
2026-01-01 22:53:01.81	11.28	22.06	-60.0	-70.7	3.8	7.47e-01	0	33	104	0	87	13486
2026-01-01 22:53:02.81	11.16	22.25	-60.0	-70.6	3.8	7.45e-01	0	33	104	0	88	12624
2026-01-01 22:53:03.81	11.03	22.45	-60.0	-70.7	3.8	7.44e-01	0	34	104	0	88	12709
2026-01-01 22:53:04.80	10.90	22.64	-60.0	-70.7	3.8	7.46e-01	0	34	104	0	88	12711
2026-01-01 22:53:05.80	10.77	22.83	-60.1	-70.7	3.8	7.47e-01	0	33	104	0	88	12784
2026-01-01 22:53:06.80	10.63	23.03	-60.0	-70.7	3.8	7.45e-01	0	33	104	0	88	12713
2026-01-01 22:53:07.80	10.49	23.23	-60.0	-70.7	3.8	7.46e-01	0	33	104	0	88	12765
2026-01-01 22:53:08.80	10.36	23.43	-60.0	-70.7	3.8	7.45e-01	0	33	104	0	88	12721
2026-01-01 22:53:09.80	10.21	23.63	-60.1	-70.7	3.8	7.45e-01	0	33	104	0	88	12795
2026-01-01 22:53:10.80	10.07	23.83	-60.0	-70.7	3.8	7.45e-01	0	33	104	0	88	12736
2026-01-01 22:53:11.80	9.93	24.04	-60.1	-70.8	3.8	7.44e-01	0	33	104	0	88	12850
2026-01-01 22:53:12.80	9.78	24.24	-60.1	-70.7	3.8	7.45e-01	0	33	104	0	88	12722
2026-01-01 22:53:13.80	9.63	24.45	-60.1	-70.8	3.8	7.47e-01	0	33	104	0	88	12887
2026-01-01 22:53:14.80	9.48	24.66	-60.1	-70.7	3.8	7.46e-01	0	33	104	0	88	12755
2026-01-01 22:53:15.80	9.32	24.88	-60.1	-70.8	3.8	7.47e-01	0	33	104	0	88	12858
2026-01-01 22:53:16.81	9.17	25.09	-60.1	-70.8	3.8	7.47e-01	0	33	104	0	88	12873
2026-01-01 22:53:17.80	9.01	25.31	-60.2	-70.8	3.8	7.44e-01	0	33	104	0	88	12938
2026-01-01 22:53:18.80	8.85	25.53	-60.1	-70.8	3.8	7.45e-01	0	33	104	0	88	12866
2026-01-01 22:53:19.79	8.68	25.75	-60.2	-70.8	3.8	7.46e-01	0	33	104	0	88	12940
2026-01-01 22:53:20.79	8.52	25.97	-60.1	-70.8	3.8	7.47e-01	0	33	104	0	88	12903
2026-01-01 22:53:21.79	8.35	26.19	-60.2	-70.9	3.8	7.47e-01	0	33	104	0	88	13010
2026-01-01 22:53:22.79	8.18	26.42	-60.1	-70.8	3.8	7.45e-01	0	33	104	0	88	12910
2026-01-01 22:53:23.79	8.00	26.65	-60.2	-70.8	3.8	7.46e-01	0	33	104	0	88	12953
2026-01-01 22:53:24.79	7.82	26.88	-60.2	-70.8	3.8	7.45e-01	0	33	104	0	88	12941
2026-01-01 22:53:25.79	7.64	27.11	-60.2	-70.9	3.8	7.45e-01	0	33	104	0	88	13047
2026-01-01 22:53:26.79	7.46	27.35	-60.2	-70.9	3.8	7.43e-01	0	33	104	0	88	12969
2026-01-01 22:53:27.79	7.27	27.58	-60.2	-70.9	3.8	7.48e-01	0	33	104	0	88	13068
2026-01-01 22:53:28.78	7.08	27.82	-60.2	-70.9	3.8	7.47e-01	0	33	104	0	88	13016
2026-01-01 22:53:29.79	6.89	28.07	-60.3	-71.0	3.8	7.46e-01	0	33	104	0	88	13152
2026-01-01 22:53:30.79	6.69	28.31	-60.2	-70.9	3.8	7.45e-01	0	33	104	0	88	13001
2026-01-01 22:53:31.79	6.49	28.56	-60.3	-70.9	3.8	7.46e-01	0	33	104	0	88	13104
2026-01-01 22:53:32.79	6.29	28.80	-60.2	-70.9	3.8	7.45e-01	0	33	104	0	88	13104
2026-01-01 22:53:33.79	6.08	29.05	-60.3	-71.0	3.8	7.45e-01	0	33	104	0	88	13134
2026-01-01 22:53:34.78	5.87	29.30	-60.3	-71.0	3.8	7.46e-01	0	33	104	0	88	13111
2026-01-01 22:53:35.78	5.66	29.56	-60.3	-71.0	3.8	7.45e-01	0	33	104	0	88	13115
2026-01-01 22:53:36.78	5.44	29.82	-60.3	-70.9	3.8	7.47e-01	0	33	104	0	88	13051
2026-01-01 22:53:37.78	5.22	30.08	-60.3	-71.0	3.8	7.46e-01	0	33	104	0	88	13200
2026-01-01 22:53:38.78	4.99	30.34	-60.3	-70.9	3.8	7.46e-01	0	33	104	0	88	13103
2026-01-01 22:53:39.78	4.76	30.60	-60.3	-71.0	3.8	7.44e-01	0	33	104	0	88	13192
2026-01-01 22:53:40.78	4.53	30.87	-60.3	-71.0	3.8	7.46e-01	0	33	104	0	88	13158
2026-01-01 22:53:41.77	4.29	31.14	-60.4	-71.0	3.8	7.45e-01	0	33	104	0	88	13253
2026-01-01 22:53:42.78	4.05	31.41	-60.3	-71.0	3.8	7.44e-01	0	33	104	0	88	13185
2026-01-01 22:53:43.78	3.80	31.69	-60.4	-71.0	3.8	7.45e-01	0	34	104	0	88	13236
2026-01-01 22:53:44.77	3.55	31.96	-60.3	-71.0	3.8	7.46e-01	0	33	104	0	88	13230
2026-01-01 22:53:45.77	3.30	32.24	-60.4	-71.1	3.8	7.47e-01	0	33	104	0	88	13333
2026-01-01 22:53:46.77	3.03	32.52	-60.4	-71.0	3.8	7.46e-01	0	33	104	0	88	13214
2026-01-01 22:53:47.77	2.77	32.81	-60.4	-71.1	3.8	7.43e-01	0	33	104	0	88	13374
2026-01-01 22:53:48.77	2.50	33.09	-60.4	-71.1	3.8	7.45e-01	0	33	104	0	88	13341
2026-01-01 22:53:49.77	2.22	33.38	-60.4	-71.1	3.8	7.45e-01	0	33	104	0	88	13368
2026-01-01 22:53:50.78	1.93	33.68	-60.4	-71.1	3.8	7.45e-01	0	33	104	0	88	13333
2026-01-01 22:53:51.77	1.65	33.97	-60.4	-71.1	3.8	7.48e-01	0	33	104	0	88	13370
2026-01-01 22:53:52.78	1.35	34.27	-60.5	-71.1	3.8	7.44e-01	0	33	104	0	88	13342
2026-01-01 22:53:53.77	1.05	34.56	-60.5	-71.2	3.8	7.47e-01	0	33	104	0	88	13433
2026-01-01 22:53:54.77	0.75	34.87	-60.4	-71.1	3.8	7.46e-01	0	33	104	0	88	13323
2026-01-01 22:53:55.77	0.44	35.17	-60.5	-71.2	3.8	7.46e-01	0	33	104	0	88	13447
2026-01-01 22:53:56.77	0.12	35.48	-60.5	-71.2	3.8	7.45e-01	0	33	104	0	88	13495
2026-01-01 22:53:57.77	359.79	35.79	-60.5	-71.2	3.8	7.46e-01	0	33	104	0	89	12738
2026-01-01 22:53:58.76	359.47	36.09	-60.5	-71.1	3.8	7.46e-01	0	33	104	0	89	12662
2026-01-01 22:53:59.77	359.12	36.41	-60.5	-71.2	3.8	7.45e-01	0	33	104	0	89	12693
2026-01-01 22:54:00.76	358.78	36.73	-60.5	-71.2	3.8	7.45e-01	0	33	104	0	89	12732
2026-01-01 22:54:01.76	358.43	37.04	-60.6	-71.2	3.8	7.47e-01	0	33	104	0	89	12796
2026-01-01 22:54:02.76	358.07	37.37	-60.5	-71.2	3.8	7.43e-01	0	33	104	0	89	12706
2026-01-01 22:54:03.76	357.70	37.69	-60.6	-71.2	3.8	7.45e-01	0	33	104	0	89	12767
2026-01-01 22:54:04.76	357.33	38.02	-60.6	-71.3	3.8	7.45e-01	0	33	104	0	89	12852
2026-01-01 22:54:05.76	356.94	38.34	-60.6	-71.3	3.8	7.46e-01	0	33	104	0	89	12901
2026-01-01 22:54:06.75	356.56	38.67	-60.6	-71.3	3.8	7.46e-01	0	33	104	0	89	12815
2026-01-01 22:54:07.75	356.15	39.00	-60.6	-71.3	3.8	7.45e-01	0	33	104	0	89	12827
2026-01-01 22:54:08.74	355.75	39.34	-60.6	-71.3	3.8	7.47e-01	0	33	104	0	89	12845
2026-01-01 22:54:09.73	355.34	39.67	-60.6	-71.3	3.8	7.45e-01	0	33	104	0	89	12872
2026-01-01 22:54:10.73	354.91	40.01	-60.6	-71.3	3.8	7.43e-01	0	33	104	0	89	12876
2026-01-01 22:54:11.72	354.48	40.35	-60.6	-71.3	3.8	7.44e-01	0	33	104	0	89	12897
2026-01-01 22:54:12.72	354.03	40.69	-60.7	-71.3	3.8	7.46e-01	0	33	104	0	89	12943
2026-01-01 22:54:13.72	353.57	41.03	-60.7	-71.4	3.8	7.45e-01	0	33	104	0	89	13017
2026-01-01 22:54:14.71	353.11	41.38	-60.6	-71.3	3.8	7.47e-01	0	33	104	0	89	12842
2026-01-01 22:54:15.70	352.64	41.72	-60.7	-71.3	3.8	7.46e-01	0	33	104	0	89	12922
2026-01-01 22:54:16.70	352.15	42.07	-60.7	-71.4	3.8	7.46e-01	0	33	104	0	89	12996
2026-01-01 22:54:17.70	351.65	42.42	-60.7	-71.4	3.8	7.47e-01	0	33	104	0	89	12995
2026-01-01 22:54:18.70	351.13	42.78	-60.7	-71.3	3.8	7.45e-01	0	33	104	0	89	12930
2026-01-01 22:54:19.70	350.61	43.13	-60.7	-71.4	3.8	7.45e-01	0	34	104	0	89	13005
2026-01-01 22:54:20.70	350.08	43.48	-60.7	-71.4	3.8	7.46e-01	0	33	104	0	89	13038
2026-01-01 22:54:21.70	349.53	43.84	-60.8	-71.4	3.8	7.46e-01	0	33	104	0	89	13085
2026-01-01 22:54:22.70	348.97	44.20	-60.7	-71.4	3.8	7.46e-01	0	33	104	0	89	13032
2026-01-01 22:54:23.69	348.40	44.55	-60.8	-71.4	3.8	7.45e-01	0	33	104	0	89	13070
2026-01-01 22:54:24.69	347.81	44.91	-60.8	-71.4	3.8	7.45e-01	0	33	104	0	89	13087
2026-01-01 22:54:25.69	347.21	45.27	-60.8	-71.5	3.8	7.45e-01	0	33	104	0	89	13144
2026-01-01 22:54:26.69	346.59	45.62	-60.7	-71.4	3.8	7.44e-01	0	33	104	0	89	13051
2026-01-01 22:54:27.69	345.96	45.98	-60.8	-71.5	3.8	7.46e-01	0	33	104	0	89	13133
2026-01-01 22:54:28.69	345.31	46.34	-60.8	-71.5	3.8	7.46e-01	0	33	104	0	89	13133
2026-01-01 22:54:29.69	344.65	46.70	-60.9	-71.5	3.8	7.46e-01	0	33	104	0	89	13198
2026-01-01 22:54:30.69	343.97	47.05	-60.8	-71.5	3.8	7.46e-01	0	33	104	0	89	13184
2026-01-01 22:54:31.68	343.29	47.40	-60.8	-71.5	3.8	7.46e-01	0	33	104	0	89	13186
2026-01-01 22:54:32.67	342.58	47.75	-60.9	-71.5	3.8	7.46e-01	0	33	104	0	89	13227
2026-01-01 22:54:33.67	341.86	48.11	-60.9	-71.6	3.8	7.47e-01	0	33	104	0	89	13266
2026-01-01 22:54:34.67	341.11	48.46	-60.8	-71.5	3.8	7.46e-01	0	33	104	0	89	13185
2026-01-01 22:54:35.67	340.35	48.81	-60.9	-71.5	3.8	7.46e-01	0	33	104	0	89	13241
2026-01-01 22:54:36.67	339.57	49.15	-60.9	-71.5	3.8	7.45e-01	0	33	104	0	89	13253
2026-01-01 22:54:37.67	338.77	49.50	-60.9	-71.6	3.8	7.47e-01	0	33	104	0	89	13329
2026-01-01 22:54:38.66	337.96	49.83	-60.9	-71.5	3.8	7.45e-01	0	33	104	0	89	13241
2026-01-01 22:54:39.65	337.14	50.17	-60.9	-71.6	3.8	7.45e-01	0	33	104	0	89	13330
2026-01-01 22:54:40.65	336.28	50.50	-60.9	-71.6	3.8	7.44e-01	0	33	104	0	89	13342
2026-01-01 22:54:41.65	335.41	50.83	-61.0	-71.6	3.8	7.46e-01	0	33	104	0	89	13346
2026-01-01 22:54:42.66	334.50	51.16	-60.9	-71.5	3.8	7.45e-01	0	33	104	0	89	13253
2026-01-01 22:54:43.65	333.60	51.48	-60.9	-71.6	3.8	7.46e-01	0	33	104	0	89	13267
2026-01-01 22:54:44.65	332.66	51.79	-61.0	-71.6	3.8	7.46e-01	0	33	104	0	89	13399
2026-01-01 22:54:45.65	331.71	52.10	-61.0	-71.6	3.8	7.44e-01	0	33	104	0	89	13354
2026-01-01 22:54:46.65	330.73	52.40	-60.9	-71.6	3.8	7.44e-01	0	33	104	0	89	13317
2026-01-01 22:54:47.65	329.74	52.70	-61.0	-71.6	3.8	7.45e-01	0	33	104	0	89	13371
2026-01-01 22:54:48.65	328.72	52.99	-61.0	-71.7	3.8	7.44e-01	0	33	104	0	89	13427
2026-01-01 22:54:49.65	327.68	53.27	-61.0	-71.7	3.8	7.48e-01	0	33	104	0	89	13433
2026-01-01 22:54:50.65	326.63	53.54	-60.9	-71.6	3.8	7.48e-01	0	33	104	0	89	13375
2026-01-01 22:54:51.65	325.55	53.81	-61.0	-71.7	3.8	7.45e-01	0	33	104	0	89	13427
2026-01-01 22:54:52.65	324.45	54.07	-61.0	-71.7	3.8	7.46e-01	0	33	104	0	89	13435
2026-01-01 22:54:53.65	323.33	54.31	-61.0	-71.7	3.8	7.46e-01	0	34	104	0	90	12733
2026-01-01 22:54:54.65	322.19	54.55	-61.0	-71.7	3.8	7.46e-01	0	33	104	0	90	12688
2026-01-01 22:54:55.65	321.04	54.78	-61.0	-71.7	3.8	7.44e-01	0	33	104	0	90	12758
2026-01-01 22:54:56.64	319.87	55.00	-61.1	-71.7	3.8	7.45e-01	0	33	104	0	90	12787
2026-01-01 22:54:57.64	318.68	55.20	-61.1	-71.7	3.8	7.46e-01	0	33	104	0	90	12759
2026-01-01 22:54:58.64	317.47	55.40	-61.0	-71.7	3.8	7.46e-01	0	33	104	0	90	12701
2026-01-01 22:54:59.64	316.24	55.58	-61.1	-71.7	3.8	7.45e-01	0	34	104	0	90	12743
2026-01-01 22:55:00.64	315.00	55.75	-61.1	-71.8	3.8	7.47e-01	0	33	104	0	90	12813
2026-01-01 22:55:01.64	313.74	55.91	-61.1	-71.7	3.8	7.46e-01	0	33	104	0	90	12777
2026-01-01 22:55:02.64	312.47	56.05	-61.0	-71.7	3.8	7.46e-01	0	33	104	0	90	12740
2026-01-01 22:55:03.64	311.18	56.19	-61.1	-71.7	3.8	7.46e-01	0	33	104	0	90	12802
2026-01-01 22:55:04.64	309.89	56.30	-61.1	-71.8	3.8	7.45e-01	0	33	104	0	90	12845
2026-01-01 22:55:05.63	308.59	56.41	-61.1	-71.8	3.8	7.45e-01	0	33	104	0	90	12888
2026-01-01 22:55:06.62	307.29	56.50	-61.1	-71.7	3.8	7.47e-01	0	33	104	0	90	12754
2026-01-01 22:55:07.62	305.96	56.57	-61.1	-71.7	3.8	7.44e-01	0	33	104	0	90	12788
2026-01-01 22:55:08.61	304.64	56.63	-61.2	-71.8	3.8	7.46e-01	0	33	104	0	90	12878
2026-01-01 22:55:09.61	303.31	56.68	-61.1	-71.8	3.8	7.46e-01	0	33	104	0	90	12892
2026-01-01 22:55:10.61	301.96	56.71	-61.1	-71.7	3.8	7.45e-01	0	33	104	0	90	12804
2026-01-01 22:55:11.61	300.62	56.73	-61.1	-71.8	3.8	7.45e-01	0	33	104	0	90	12894
2026-01-01 22:55:12.60	299.29	56.73	-61.1	-71.8	3.8	7.47e-01	0	33	104	0	90	12924
2026-01-01 22:55:13.59	297.96	56.72	-61.1	-71.8	3.8	7.47e-01	0	33	104	0	90	12866
2026-01-01 22:55:14.59	296.62	56.69	-61.1	-71.7	3.8	7.46e-01	0	33	104	0	90	12771
2026-01-01 22:55:15.59	295.28	56.65	-61.1	-71.8	3.8	7.46e-01	0	34	104	0	90	12849
2026-01-01 22:55:16.58	293.96	56.59	-61.1	-71.8	3.8	7.44e-01	0	33	104	0	90	12900
2026-01-01 22:55:17.58	292.63	56.52	-61.1	-71.8	3.8	7.46e-01	0	33	104	0	90	12880
2026-01-01 22:55:18.58	291.31	56.44	-61.1	-71.7	3.8	7.46e-01	0	33	104	0	90	12782
2026-01-01 22:55:19.57	290.01	56.34	-61.1	-71.8	3.8	7.46e-01	0	34	104	0	90	12827
2026-01-01 22:55:20.58	288.69	56.22	-61.1	-71.8	3.8	7.46e-01	0	33	104	0	90	12846
2026-01-01 22:55:21.57	287.42	56.09	-61.1	-71.7	3.8	7.45e-01	0	33	104	0	90	12795
2026-01-01 22:55:22.57	286.14	55.95	-61.0	-71.7	3.8	7.44e-01	0	33	104	0	90	12737
2026-01-01 22:55:23.57	284.88	55.80	-61.1	-71.8	3.8	7.46e-01	0	33	104	0	90	12834
2026-01-01 22:55:24.57	283.63	55.63	-61.1	-71.7	3.8	7.46e-01	0	34	104	0	90	12797
2026-01-01 22:55:25.57	282.40	55.45	-61.1	-71.7	3.8	7.45e-01	0	33	104	0	90	12732
2026-01-01 22:55:26.57	281.18	55.26	-61.0	-71.7	3.8	7.44e-01	0	33	104	0	90	12694
2026-01-01 22:55:27.57	279.98	55.06	-61.0	-71.7	3.8	7.47e-01	0	33	104	0	90	12735
2026-01-01 22:55:28.57	278.80	54.84	-61.1	-71.7	3.8	7.47e-01	0	33	104	0	90	12779
2026-01-01 22:55:29.57	277.63	54.62	-61.0	-71.7	3.8	7.45e-01	0	33	104	0	90	12737
2026-01-01 22:55:30.57	276.49	54.38	-61.0	-71.7	3.8	7.45e-01	0	33	104	0	90	12673
2026-01-01 22:55:31.58	275.35	54.13	-61.0	-71.7	3.8	7.45e-01	0	33	104	0	90	12686
2026-01-01 22:55:32.57	274.26	53.88	-61.0	-71.7	3.8	7.45e-01	0	33	104	0	90	12673
2026-01-01 22:55:33.57	273.18	53.62	-61.0	-71.7	3.8	7.46e-01	0	33	104	0	90	12684
2026-01-01 22:55:34.57	272.11	53.34	-61.0	-71.7	3.8	7.45e-01	0	33	104	0	90	12673
2026-01-01 22:55:35.57	271.07	53.06	-61.0	-71.6	3.8	7.46e-01	0	34	104	0	90	12631
2026-01-01 22:55:36.57	270.04	52.78	-61.0	-71.6	3.8	7.46e-01	0	34	104	0	90	12659
2026-01-01 22:55:37.57	269.04	52.48	-61.0	-71.6	3.8	7.46e-01	0	34	104	0	90	12596
2026-01-01 22:55:38.57	268.06	52.18	-60.9	-71.6	3.8	7.44e-01	0	33	104	0	90	12606
2026-01-01 22:55:39.56	267.11	51.87	-60.9	-71.6	3.8	7.45e-01	0	33	104	0	90	12608
2026-01-01 22:55:40.57	266.15	51.56	-61.0	-71.6	3.8	7.46e-01	0	33	104	0	90	12613
2026-01-01 22:55:41.57	265.23	51.24	-60.9	-71.6	3.8	7.45e-01	0	34	104	0	90	12611
2026-01-01 22:55:42.57	264.33	50.91	-60.9	-71.6	3.8	7.45e-01	0	33	104	0	90	12593
2026-01-01 22:55:43.57	263.45	50.59	-60.9	-71.6	3.8	7.46e-01	0	33	104	0	90	12566
2026-01-01 22:55:44.56	262.60	50.26	-60.9	-71.6	3.8	7.46e-01	0	33	104	0	90	12531
2026-01-01 22:55:45.56	261.75	49.92	-60.9	-71.6	3.8	7.46e-01	0	33	104	0	90	12559
2026-01-01 22:55:46.56	260.93	49.58	-60.9	-71.5	3.8	7.46e-01	0	33	104	0	90	12494
2026-01-01 22:55:47.55	260.14	49.24	-60.9	-71.5	3.8	7.45e-01	0	33	104	0	90	12479
2026-01-01 22:55:48.55	259.35	48.89	-60.9	-71.6	3.8	7.46e-01	0	34	104	0	90	12532
2026-01-01 22:55:49.55	258.58	48.54	-60.9	-71.5	3.8	7.47e-01	0	33	104	0	90	12469
2026-01-01 22:55:50.56	257.82	48.19	-60.9	-71.5	3.8	7.46e-01	0	33	104	0	90	12496
2026-01-01 22:55:51.56	257.09	47.83	-60.9	-71.6	3.8	7.45e-01	0	34	104	0	90	12520
2026-01-01 22:55:52.56	256.37	47.48	-60.9	-71.5	3.8	7.44e-01	0	33	104	0	90	12510
2026-01-01 22:55:53.56	255.68	47.12	-60.9	-71.5	3.8	7.46e-01	0	33	104	0	90	12502
2026-01-01 22:55:54.55	255.00	46.77	-60.8	-71.5	3.8	7.44e-01	0	33	104	0	90	12436
2026-01-01 22:55:55.54	254.34	46.42	-60.8	-71.5	3.8	7.45e-01	0	33	104	0	90	12448
2026-01-01 22:55:56.54	253.69	46.06	-60.8	-71.5	3.8	7.45e-01	0	33	104	0	90	12420
2026-01-01 22:55:57.55	253.04	45.69	-60.8	-71.5	3.8	7.47e-01	0	33	104	0	90	12420
2026-01-01 22:55:58.55	252.42	45.34	-60.8	-71.5	3.8	7.44e-01	0	33	104	0	90	12392
2026-01-01 22:55:59.55	251.82	44.98	-60.8	-71.5	3.8	7.46e-01	0	33	104	0	90	12393
2026-01-01 22:56:00.55	251.22	44.62	-60.8	-71.5	3.8	7.45e-01	0	33	104	0	90	12452
2026-01-01 22:56:01.55	250.64	44.26	-60.8	-71.5	3.8	7.45e-01	0	33	104	0	90	12423
2026-01-01 22:56:02.54	250.08	43.91	-60.8	-71.4	3.8	7.45e-01	0	33	104	0	90	12342
2026-01-01 22:56:03.54	249.53	43.55	-60.8	-71.4	3.8	7.45e-01	0	33	104	0	90	12340
2026-01-01 22:56:04.54	248.99	43.19	-60.8	-71.4	3.8	7.46e-01	0	33	104	0	90	12343
2026-01-01 22:56:05.54	248.46	42.84	-60.8	-71.4	3.8	7.45e-01	0	33	104	0	90	12357
2026-01-01 22:56:06.53	247.95	42.49	-60.7	-71.4	3.8	7.45e-01	0	33	104	0	90	12268
2026-01-01 22:56:07.52	247.45	42.14	-60.7	-71.4	3.8	7.45e-01	0	34	104	0	90	12289
2026-01-01 22:56:08.52	246.96	41.79	-60.8	-71.4	3.8	7.45e-01	0	33	104	0	90	12353
2026-01-01 22:56:09.51	246.48	41.44	-60.8	-71.4	3.8	7.45e-01	0	33	104	0	90	12299
2026-01-01 22:56:10.51	246.01	41.09	-60.7	-71.4	3.8	7.45e-01	0	33	104	0	90	12247
2026-01-01 22:56:11.51	245.55	40.75	-60.7	-71.4	3.8	7.47e-01	0	33	104	0	90	12263
2026-01-01 22:56:12.51	245.10	40.40	-60.7	-71.4	3.8	7.46e-01	0	33	104	0	90	12272
2026-01-01 22:56:13.50	244.67	40.06	-60.7	-71.4	3.8	7.45e-01	0	33	104	0	90	12287
2026-01-01 22:56:14.50	244.24	39.72	-60.7	-71.4	3.8	7.46e-01	0	33	104	0	90	12244
2026-01-01 22:56:15.50	243.81	39.38	-60.7	-71.3	3.8	7.45e-01	0	33	104	0	90	12174
2026-01-01 22:56:16.50	243.40	39.05	-60.7	-71.4	3.8	7.46e-01	0	34	104	0	90	12272
2026-01-01 22:56:17.49	243.00	38.71	-60.7	-71.4	3.8	7.48e-01	0	33	104	0	90	12273
2026-01-01 22:56:18.49	242.61	38.38	-60.7	-71.3	3.8	7.44e-01	0	33	104	0	90	12179
2026-01-01 22:56:19.49	242.22	38.05	-60.6	-71.3	3.8	7.45e-01	0	33	104	0	90	12175
2026-01-01 22:56:20.48	241.85	37.73	-60.7	-71.3	3.8	7.46e-01	0	33	104	0	90	12190
2026-01-01 22:56:21.48	241.48	37.40	-60.7	-71.3	3.8	7.43e-01	0	33	104	0	90	12164
2026-01-01 22:56:22.47	241.12	37.08	-60.6	-71.3	3.8	7.46e-01	0	33	104	0	90	12147
2026-01-01 22:56:23.47	240.76	36.76	-60.6	-71.3	3.8	7.46e-01	0	33	104	0	90	12130
2026-01-01 22:56:24.48	240.41	36.44	-60.6	-71.3	3.8	7.45e-01	0	33	104	0	90	12167
2026-01-01 22:56:25.47	240.07	36.13	-60.6	-71.3	3.8	7.47e-01	0	33	104	0	90	12165
2026-01-01 22:56:26.47	239.74	35.81	-60.6	-71.3	3.8	7.46e-01	0	33	104	0	90	12157
2026-01-01 22:56:27.48	239.41	35.50	-60.6	-71.3	3.8	7.45e-01	0	34	104	0	90	12110
2026-01-01 22:56:28.48	239.09	35.19	-60.6	-71.2	3.8	7.45e-01	0	34	104	0	90	12091
2026-01-01 22:56:29.48	238.78	34.89	-60.6	-71.3	3.8	7.45e-01	0	33	104	0	90	12098
2026-01-01 22:56:30.47	238.47	34.59	-60.6	-71.2	3.8	7.46e-01	0	33	104	0	90	12076
2026-01-01 22:56:31.47	238.17	34.29	-60.5	-71.2	3.8	7.45e-01	0	33	104	0	90	12030
2026-01-01 22:56:32.47	237.87	33.99	-60.6	-71.2	3.8	7.45e-01	0	34	104	0	90	12059
2026-01-01 22:56:33.47	237.58	33.69	-60.6	-71.2	3.8	7.44e-01	0	33	104	0	90	12093
2026-01-01 22:56:34.47	237.30	33.40	-60.5	-71.2	3.8	7.45e-01	0	33	104	0	90	12019
2026-01-01 22:56:35.47	237.02	33.11	-60.5	-71.2	3.8	7.45e-01	0	33	104	0	90	11969
2026-01-01 22:56:36.47	236.75	32.82	-60.5	-71.2	3.8	7.46e-01	0	33	104	0	89	12691
2026-01-01 22:56:37.47	236.48	32.53	-60.5	-71.2	3.8	7.44e-01	0	33	104	0	89	12679
2026-01-01 22:56:38.47	236.21	32.25	-60.5	-71.1	3.8	7.45e-01	0	33	104	0	89	12654
2026-01-01 22:56:39.47	235.96	31.97	-60.5	-71.1	3.8	7.44e-01	0	33	104	0	89	12643
2026-01-01 22:56:40.46	235.70	31.69	-60.5	-71.1	3.8	7.45e-01	0	34	104	0	89	12652
2026-01-01 22:56:41.46	235.46	31.42	-60.5	-71.2	3.8	7.48e-01	0	33	104	0	89	12694
2026-01-01 22:56:42.46	235.21	31.14	-60.5	-71.1	3.8	7.46e-01	0	33	104	0	89	12614
2026-01-01 22:56:43.47	234.97	30.87	-60.4	-71.1	3.8	7.46e-01	0	33	104	0	89	12625
2026-01-01 22:56:44.47	234.73	30.60	-60.4	-71.1	3.8	7.46e-01	0	33	104	0	89	12618
2026-01-01 22:56:45.46	234.50	30.34	-60.4	-71.1	3.8	7.45e-01	0	33	104	0	89	12576
2026-01-01 22:56:46.46	234.28	30.07	-60.4	-71.1	3.8	7.45e-01	0	33	104	0	89	12548
2026-01-01 22:56:47.46	234.05	29.81	-60.4	-71.1	3.8	7.46e-01	0	33	104	0	89	12564
2026-01-01 22:56:48.46	233.83	29.55	-60.4	-71.1	3.8	7.46e-01	0	33	104	0	89	12555
2026-01-01 22:56:49.46	233.62	29.30	-60.4	-71.1	3.9	7.46e-01	0	34	104	0	89	12540
2026-01-01 22:56:50.46	233.41	29.04	-60.4	-71.0	3.8	7.47e-01	0	33	104	0	89	12510
2026-01-01 22:56:51.46	233.20	28.79	-60.4	-71.0	3.8	7.44e-01	0	33	104	0	89	12463
2026-01-01 22:56:52.46	232.99	28.54	-60.4	-71.0	3.8	7.45e-01	0	33	104	0	89	12485
2026-01-01 22:56:53.46	232.79	28.29	-60.4	-71.0	3.8	7.44e-01	0	33	104	0	89	12480
2026-01-01 22:56:54.46	232.60	28.05	-60.3	-71.0	3.8	7.46e-01	0	34	104	0	89	12421
2026-01-01 22:56:55.47	232.40	27.80	-60.3	-71.0	3.8	7.44e-01	0	33	104	0	89	12390
2026-01-01 22:56:56.47	232.21	27.56	-60.3	-71.0	3.8	7.45e-01	0	33	104	0	89	12447
2026-01-01 22:56:57.46	232.02	27.33	-60.3	-71.0	3.8	7.44e-01	0	33	104	0	89	12453
2026-01-01 22:56:58.46	231.84	27.09	-60.3	-71.0	3.8	7.46e-01	0	33	104	0	89	12450
2026-01-01 22:56:59.46	231.65	26.86	-60.3	-71.0	3.8	7.45e-01	0	34	104	0	89	12379
2026-01-01 22:57:00.46	231.48	26.63	-60.3	-71.0	3.8	7.46e-01	0	33	104	0	89	12393
2026-01-01 22:57:01.46	231.30	26.40	-60.3	-70.9	3.8	7.47e-01	0	33	104	0	89	12328
2026-01-01 22:57:02.46	231.13	26.17	-60.3	-70.9	3.8	7.45e-01	0	33	104	0	89	12369
2026-01-01 22:57:03.46	230.96	25.94	-60.3	-70.9	3.8	7.46e-01	0	33	104	0	89	12340
2026-01-01 22:57:04.46	230.79	25.72	-60.3	-70.9	3.8	7.45e-01	0	33	104	0	89	12352
2026-01-01 22:57:05.46	230.62	25.50	-60.3	-70.9	3.8	7.46e-01	0	33	104	0	89	12310
2026-01-01 22:57:06.46	230.46	25.28	-60.2	-70.9	3.8	7.44e-01	0	33	104	0	89	12237
2026-01-01 22:57:07.46	230.30	25.06	-60.2	-70.9	3.8	7.47e-01	0	33	104	0	89	12294
2026-01-01 22:57:08.45	230.14	24.85	-60.2	-70.9	3.8	7.44e-01	0	33	104	0	89	12292
2026-01-01 22:57:09.45	229.99	24.63	-60.2	-70.9	3.8	7.46e-01	0	34	104	0	89	12310
2026-01-01 22:57:10.44	229.84	24.42	-60.2	-70.9	3.8	7.45e-01	0	33	104	0	89	12289
2026-01-01 22:57:11.44	229.69	24.21	-60.2	-70.9	3.8	7.47e-01	0	33	104	0	89	12246
2026-01-01 22:57:12.44	229.54	24.00	-60.2	-70.8	3.8	7.45e-01	0	33	104	0	89	12203
2026-01-01 22:57:13.44	229.39	23.80	-60.2	-70.8	3.8	7.45e-01	0	33	104	0	89	12219
2026-01-01 22:57:14.44	229.25	23.59	-60.2	-70.8	3.8	7.45e-01	0	33	104	0	89	12226
2026-01-01 22:57:15.43	229.11	23.39	-60.2	-70.8	3.8	7.46e-01	0	34	104	0	89	12228
2026-01-01 22:57:16.43	228.97	23.19	-60.1	-70.8	3.8	7.44e-01	0	33	104	0	89	12133
2026-01-01 22:57:17.42	228.83	22.99	-60.1	-70.8	3.8	7.45e-01	0	33	104	0	89	12208
2026-01-01 22:57:18.43	228.70	22.79	-60.1	-70.8	3.8	7.46e-01	0	33	104	0	89	12167
2026-01-01 22:57:19.42	228.56	22.60	-60.1	-70.7	3.8	7.44e-01	0	34	104	0	89	12089
2026-01-01 22:57:20.41	228.43	22.41	-60.1	-70.8	3.8	7.45e-01	0	33	104	0	88	12918
2026-01-01 22:57:21.41	228.30	22.22	-60.1	-70.8	3.8	7.45e-01	0	34	104	0	88	12904
2026-01-01 22:57:22.41	228.18	22.02	-60.1	-70.8	3.8	7.46e-01	0	34	104	0	88	12838
2026-01-01 22:57:23.41	228.05	21.84	-60.1	-70.8	3.8	7.46e-01	0	34	104	0	88	12855
2026-01-01 22:57:24.41	227.92	21.65	-60.1	-70.8	3.8	7.45e-01	0	33	104	0	88	12821
2026-01-01 22:57:25.41	227.80	21.46	-60.1	-70.8	3.8	7.45e-01	0	33	104	0	88	12874
2026-01-01 22:57:26.41	227.68	21.28	-60.1	-70.7	3.8	7.44e-01	0	33	104	0	88	12795
2026-01-01 22:57:27.41	227.56	21.09	-60.1	-70.7	3.8	7.47e-01	0	33	104	0	88	12805
2026-01-01 22:57:28.41	227.44	20.91	-60.0	-70.7	3.8	7.45e-01	0	33	104	0	88	12732
2026-01-01 22:57:29.41	227.33	20.73	-60.1	-70.8	3.8	7.46e-01	0	34	104	0	88	12812
2026-01-01 22:57:30.41	227.21	20.55	-60.1	-70.7	3.8	7.46e-01	0	33	104	0	88	12728
2026-01-01 22:57:31.41	227.10	20.38	-60.0	-70.7	3.8	7.45e-01	0	33	104	0	88	12785
2026-01-01 22:57:32.41	226.99	20.20	-60.0	-70.7	3.8	7.45e-01	0	34	104	0	88	12725
2026-01-01 22:57:33.41	226.88	20.03	-60.0	-70.7	3.8	7.46e-01	0	34	104	0	88	12766
2026-01-01 22:57:34.41	226.77	19.86	-60.0	-70.7	3.8	7.45e-01	0	34	104	0	88	12724
2026-01-01 22:57:35.40	226.66	19.69	-60.0	-70.7	3.8	7.45e-01	0	33	104	0	88	12711
2026-01-01 22:57:36.40	226.56	19.52	-60.0	-70.7	3.8	7.44e-01	0	33	104	0	88	12702
2026-01-01 22:57:37.39	226.45	19.35	-60.0	-70.6	3.8	7.47e-01	0	33	104	0	88	12661
2026-01-01 22:57:38.39	226.35	19.18	-60.0	-70.6	3.8	7.48e-01	0	34	104	0	88	12651
2026-01-01 22:57:39.39	226.25	19.02	-60.0	-70.7	3.8	7.45e-01	0	33	104	0	88	12672
2026-01-01 22:57:40.38	226.15	18.85	-60.0	-70.6	3.8	7.46e-01	0	33	104	0	88	12571
2026-01-01 22:57:41.39	226.05	18.69	-60.0	-70.6	3.8	7.45e-01	0	33	104	0	88	12656
2026-01-01 22:57:42.39	225.95	18.53	-60.0	-70.6	3.8	7.46e-01	0	33	104	0	88	12655
2026-01-01 22:57:43.39	225.86	18.37	-59.9	-70.6	3.8	7.47e-01	0	33	104	0	88	12632
2026-01-01 22:57:44.39	225.76	18.21	-59.9	-70.6	3.8	7.45e-01	0	34	104	0	88	12598
2026-01-01 22:57:45.39	225.67	18.05	-59.9	-70.6	3.8	7.45e-01	0	33	104	0	88	12588
2026-01-01 22:57:46.38	225.57	17.89	-59.9	-70.7	3.8	7.45e-01	0	33	104	0	88	12671
2026-01-01 22:57:47.38	225.48	17.74	-59.9	-70.6	3.8	7.45e-01	0	34	104	0	88	12559
2026-01-01 22:57:48.38	225.39	17.58	-59.9	-70.6	3.8	7.45e-01	0	33	104	0	88	12545
2026-01-01 22:57:49.38	225.30	17.43	-59.9	-70.6	3.8	7.45e-01	0	34	104	0	88	12538
2026-01-01 22:57:50.37	225.21	17.28	-59.9	-70.6	3.8	7.46e-01	0	33	104	0	88	12602
2026-01-01 22:57:51.37	225.13	17.13	-59.9	-70.5	3.8	7.45e-01	0	33	104	0	88	12517
2026-01-01 22:57:52.37	225.04	16.98	-59.9	-70.5	3.8	7.48e-01	0	33	104	0	88	12489
2026-01-01 22:57:53.37	224.95	16.83	-59.9	-70.5	3.8	7.46e-01	0	34	104	0	88	12518
2026-01-01 22:57:54.37	224.87	16.68	-59.9	-70.6	3.8	7.44e-01	0	33	104	0	88	12531
2026-01-01 22:57:55.37	224.79	16.54	-59.8	-70.5	3.8	7.47e-01	0	34	104	0	88	12417
2026-01-01 22:57:56.37	224.70	16.39	-59.8	-70.5	3.8	7.46e-01	0	33	104	0	88	12395
2026-01-01 22:57:57.37	224.62	16.25	-59.8	-70.5	3.8	7.46e-01	0	34	104	0	88	12435
2026-01-01 22:57:58.37	224.54	16.10	-59.8	-70.5	3.8	7.45e-01	0	33	104	0	88	12418
2026-01-01 22:57:59.37	224.46	15.96	-59.8	-70.5	3.8	7.46e-01	0	34	104	0	88	12429
2026-01-01 22:58:00.37	224.38	15.82	-59.8	-70.5	3.8	7.47e-01	0	33	104	0	88	12437
2026-01-01 22:58:01.36	224.31	15.68	-59.8	-70.5	3.8	7.46e-01	0	34	104	0	88	12432
2026-01-01 22:58:02.36	224.23	15.54	-59.8	-70.5	3.8	7.45e-01	0	33	104	0	88	12418
2026-01-01 22:58:03.36	224.15	15.40	-59.8	-70.5	3.8	7.46e-01	0	34	104	0	88	12392
2026-01-01 22:58:04.37	224.08	15.26	-59.8	-70.4	3.8	7.46e-01	0	33	104	0	88	12354
2026-01-01 22:58:05.36	224.00	15.13	-59.8	-70.4	3.8	7.46e-01	0	33	104	0	88	12303
2026-01-01 22:58:06.36	223.93	14.99	-59.8	-70.4	3.8	7.46e-01	0	34	104	0	88	12343
2026-01-01 22:58:07.37	223.86	14.86	-59.8	-70.4	3.8	7.45e-01	0	34	104	0	88	12327
2026-01-01 22:58:08.37	223.78	14.72	-59.7	-70.4	3.8	7.44e-01	0	34	104	0	88	12286
2026-01-01 22:58:09.37	223.71	14.59	-59.7	-70.4	3.8	7.45e-01	0	33	104	0	88	12298
2026-01-01 22:58:10.37	223.64	14.46	-59.7	-70.4	3.8	7.46e-01	0	34	104	0	88	12294
2026-01-01 22:58:11.37	223.57	14.33	-59.7	-70.4	3.8	7.45e-01	0	33	104	0	88	12318
2026-01-01 22:58:12.37	223.50	14.20	-59.7	-70.4	3.8	7.45e-01	0	34	104	0	88	12300
2026-01-01 22:58:13.36	223.44	14.07	-59.7	-70.4	3.8	7.45e-01	0	34	104	0	88	12262
2026-01-01 22:58:14.35	223.37	13.94	-59.7	-70.4	3.8	7.46e-01	0	34	104	0	88	12276
2026-01-01 22:58:15.35	223.30	13.81	-59.7	-70.4	3.8	7.47e-01	0	34	104	0	88	12334
2026-01-01 22:58:16.35	223.24	13.69	-59.7	-70.4	3.8	7.46e-01	0	34	104	0	88	12254
2026-01-01 22:58:17.34	223.17	13.56	-59.7	-70.4	3.8	7.46e-01	0	34	104	0	88	12239
2026-01-01 22:58:18.33	223.11	13.44	-59.7	-70.3	3.8	7.47e-01	0	34	104	0	88	12213
2026-01-01 22:58:19.33	223.05	13.31	-59.7	-70.3	3.8	7.46e-01	0	34	104	0	88	12230
2026-01-01 22:58:20.32	222.98	13.19	-59.7	-70.3	3.8	7.45e-01	0	33	104	0	88	12206
2026-01-01 22:58:21.32	222.92	13.07	-59.7	-70.3	3.8	7.46e-01	0	34	104	0	88	12155
2026-01-01 22:58:22.31	222.86	12.95	-59.6	-70.3	3.8	7.46e-01	0	33	104	0	88	12230
2026-01-01 22:58:23.31	222.80	12.83	-59.6	-70.3	3.8	7.46e-01	0	34	104	0	88	12196
2026-01-01 22:58:24.30	222.74	12.71	-59.6	-70.3	3.8	7.45e-01	0	33	104	0	88	12180
2026-01-01 22:58:25.30	222.68	12.59	-59.6	-70.3	3.8	7.47e-01	0	33	104	0	88	12187
2026-01-01 22:58:26.31	222.62	12.47	-59.6	-70.3	3.8	7.45e-01	0	34	104	0	88	12175
2026-01-01 22:58:27.31	222.56	12.35	-59.6	-70.3	3.8	7.46e-01	0	33	104	0	88	12154
2026-01-01 22:58:28.30	222.50	12.23	-59.6	-70.3	3.8	7.46e-01	0	33	104	0	88	12125
2026-01-01 22:58:29.30	222.44	12.12	-59.6	-70.3	3.8	7.46e-01	0	33	104	0	88	12129
2026-01-01 22:58:30.29	222.39	12.00	-59.6	-70.2	3.8	7.45e-01	0	33	104	0	88	12087
2026-01-01 22:58:31.30	222.33	11.89	-59.6	-70.3	3.8	7.44e-01	0	33	104	0	88	12182
2026-01-01 22:58:32.30	222.28	11.77	-59.6	-70.3	3.8	7.46e-01	0	34	104	0	88	12108
2026-01-01 22:58:33.30	222.22	11.66	-59.5	-70.2	3.8	7.45e-01	0	34	104	0	88	12055
2026-01-01 22:58:34.30	222.17	11.54	-59.6	-70.2	3.8	7.45e-01	0	34	104	0	88	12072
2026-01-01 22:58:35.30	222.11	11.43	-59.6	-70.3	3.8	7.46e-01	0	34	104	0	88	12117
2026-01-01 22:58:36.30	222.06	11.32	-59.5	-70.2	3.8	7.43e-01	0	33	104	0	88	11989
2026-01-01 22:58:37.30	222.00	11.21	-59.5	-70.2	3.8	7.44e-01	0	34	104	0	88	12026
2026-01-01 22:58:38.30	221.95	11.10	-59.5	-70.1	3.8	7.46e-01	0	34	104	0	87	12663
2026-01-01 22:58:39.29	221.90	10.99	-59.5	-70.2	3.8	7.46e-01	0	34	104	0	87	12699
2026-01-01 22:58:40.30	221.85	10.88	-59.5	-70.2	3.8	7.46e-01	0	33	104	0	87	12698
2026-01-01 22:58:41.29	221.80	10.77	-59.5	-70.1	3.8	7.46e-01	0	34	104	0	87	12622
2026-01-01 22:58:42.29	221.75	10.66	-59.5	-70.1	3.8	7.46e-01	0	34	104	0	87	12620
2026-01-01 22:58:43.28	221.70	10.56	-59.5	-70.1	3.8	7.45e-01	0	33	104	0	87	12621
2026-01-01 22:58:44.28	221.65	10.45	-59.4	-70.1	3.8	7.46e-01	0	33	104	0	87	12638
2026-01-01 22:58:45.27	221.60	10.35	-59.4	-70.1	3.8	7.46e-01	0	33	104	0	87	12606
2026-01-01 22:58:46.27	221.55	10.24	-59.4	-70.1	3.8	7.44e-01	0	34	104	0	87	12595
2026-01-01 22:58:47.26	221.50	10.14	-59.5	-70.1	3.8	7.44e-01	0	33	104	0	87	12659
2026-01-01 22:58:48.27	221.45	10.03	-59.4	-70.1	3.8	7.45e-01	0	33	104	0	87	12562
2026-01-01 22:58:49.26	221.41	9.93	-59.4	-70.1	3.8	7.47e-01	0	34	104	0	87	12577
2026-01-01 22:58:50.26	221.36	9.82	-59.4	-70.0	3.8	7.46e-01	0	33	104	0	87	12497
2026-01-01 22:58:51.26	221.31	9.72	-59.4	-70.1	3.8	7.47e-01	0	34	104	0	87	12602
2026-01-01 22:58:52.26	221.27	9.62	-59.4	-70.1	3.8	7.45e-01	0	33	104	0	87	12546
2026-01-01 22:58:53.26	221.22	9.52	-59.3	-70.0	3.8	7.46e-01	0	34	104	0	87	12467
2026-01-01 22:58:54.26	221.18	9.42	-59.3	-70.0	3.8	7.46e-01	0	34	104	0	87	12456
2026-01-01 22:58:55.26	221.13	9.31	-59.4	-70.0	3.8	7.45e-01	0	33	104	0	87	12491
2026-01-01 22:58:56.26	221.09	9.21	-59.3	-70.0	3.8	7.46e-01	0	34	104	0	87	12455
2026-01-01 22:58:57.26	221.04	9.11	-59.3	-70.0	3.8	7.43e-01	0	33	104	0	87	12449
2026-01-01 22:58:58.26	221.00	9.02	-59.3	-70.0	3.8	7.45e-01	0	34	104	0	87	12391
2026-01-01 22:58:59.26	220.96	8.92	-59.3	-70.1	3.8	7.46e-01	0	34	104	0	87	12554
2026-01-01 22:59:00.26	220.91	8.82	-59.3	-70.0	3.8	7.45e-01	0	34	104	0	87	12414
2026-01-01 22:59:01.26	220.87	8.72	-59.3	-69.9	3.8	7.45e-01	0	34	104	0	87	12356
2026-01-01 22:59:02.26	220.83	8.62	-59.3	-69.9	3.8	7.44e-01	0	33	104	0	87	12350
2026-01-01 22:59:03.25	220.79	8.53	-59.3	-70.0	3.8	7.47e-01	0	34	104	0	87	12441
2026-01-01 22:59:04.25	220.75	8.43	-59.3	-69.9	3.8	7.44e-01	0	34	104	0	87	12328
2026-01-01 22:59:05.25	220.71	8.34	-59.2	-69.9	3.8	7.48e-01	0	34	104	0	87	12266
2026-01-01 22:59:06.25	220.67	8.24	-59.2	-69.9	3.8	7.45e-01	0	33	104	0	87	12276
2026-01-01 22:59:07.24	220.63	8.15	-59.3	-70.0	3.8	7.44e-01	0	34	104	0	87	12400
2026-01-01 22:59:08.24	220.59	8.05	-59.2	-69.9	3.8	7.44e-01	0	34	104	0	87	12272
2026-01-01 22:59:09.23	220.55	7.96	-59.1	-69.8	3.8	7.46e-01	0	33	104	0	87	12234
2026-01-01 22:59:10.23	220.51	7.87	-59.2	-69.8	3.8	7.45e-01	0	34	104	0	87	12206
2026-01-01 22:59:11.23	220.47	7.77	-59.2	-69.9	3.8	7.45e-01	0	34	104	0	87	12271
2026-01-01 22:59:12.23	220.43	7.68	-59.2	-69.8	3.8	7.45e-01	0	33	104	0	87	12195
2026-01-01 22:59:13.23	220.39	7.59	-59.1	-69.8	3.8	7.45e-01	0	34	104	0	87	12118
2026-01-01 22:59:14.23	220.35	7.50	-59.1	-69.7	3.8	7.46e-01	0	33	104	0	87	12064
2026-01-01 22:59:15.22	220.32	7.41	-59.2	-69.8	3.8	7.46e-01	0	34	104	0	87	12213
2026-01-01 22:59:16.22	220.28	7.32	-59.1	-69.8	3.8	7.47e-01	0	34	104	0	87	12124
2026-01-01 22:59:17.21	220.24	7.23	-59.0	-69.7	3.8	7.47e-01	0	33	104	0	87	12043
2026-01-01 22:59:18.21	220.21	7.14	-59.0	-69.7	3.8	7.45e-01	0	33	104	0	87	12020
2026-01-01 22:59:19.21	220.17	7.05	-59.1	-69.8	3.8	7.45e-01	0	34	104	0	87	12188
2026-01-01 22:59:20.21	220.13	6.96	-59.1	-69.7	3.8	7.44e-01	0	33	104	0	87	12069
2026-01-01 22:59:21.22	220.10	6.87	-59.0	-69.7	3.9	7.45e-01	0	34	104	0	87	12016
2026-01-01 22:59:22.21	220.06	6.78	-59.0	-69.7	3.8	7.45e-01	0	34	104	0	87	11993
2026-01-01 22:59:23.22	220.03	6.69	-59.1	-69.7	3.8	7.45e-01	0	34	104	0	87	12056
2026-01-01 22:59:24.22	219.99	6.61	-59.0	-69.7	3.8	7.46e-01	0	34	104	0	87	12020
2026-01-01 22:59:25.22	219.96	6.52	-58.9	-69.6	3.8	7.44e-01	0	33	104	0	87	11897
2026-01-01 22:59:26.22	219.92	6.43	-58.9	-69.6	3.8	7.46e-01	0	33	104	0	87	11878
2026-01-01 22:59:27.22	219.89	6.35	-59.0	-69.7	3.8	7.47e-01	0	34	104	0	87	12052
2026-01-01 22:59:28.22	219.86	6.26	-59.0	-69.6	3.8	7.46e-01	0	34	104	0	87	11911
2026-01-01 22:59:29.22	219.82	6.18	-58.9	-69.5	3.8	7.45e-01	0	33	104	0	87	11808
2026-01-01 22:59:30.23	219.79	6.09	-58.9	-69.6	3.8	7.46e-01	0	33	104	0	87	11821
2026-01-01 22:59:31.24	219.76	6.00	-59.0	-69.6	3.8	7.47e-01	0	33	104	0	87	11896
2026-01-01 22:59:32.24	219.72	5.92	-58.9	-69.5	3.8	7.47e-01	0	33	104	0	87	11804
2026-01-01 22:59:33.24	219.69	5.83	-58.8	-69.5	3.8	7.47e-01	0	33	104	0	86	12460
2026-01-01 22:59:34.25	219.66	5.75	-58.8	-69.5	3.8	7.46e-01	0	33	104	0	86	12488
2026-01-01 22:59:35.25	219.63	5.67	-58.9	-69.6	3.8	7.47e-01	0	33	104	0	86	12613
2026-01-01 22:59:36.25	219.60	5.58	-58.8	-69.6	3.8	7.46e-01	0	34	104	0	86	12520
2026-01-01 22:59:37.25	219.56	5.50	-58.8	-69.4	3.8	7.44e-01	0	33	104	0	86	12362
2026-01-01 22:59:38.24	219.53	5.42	-58.8	-69.4	3.8	7.46e-01	0	33	104	0	86	12366
2026-01-01 22:59:39.25	219.50	5.34	-58.9	-69.5	3.8	7.46e-01	0	34	104	0	86	12469
2026-01-01 22:59:40.25	219.47	5.26	-58.8	-69.5	3.8	7.46e-01	0	34	104	0	86	12408
2026-01-01 22:59:41.25	219.44	5.17	-58.7	-69.4	3.8	7.46e-01	0	34	104	0	86	12272
2026-01-01 22:59:42.25	219.41	5.09	-58.7	-69.4	3.8	7.47e-01	0	33	104	0	86	12277
2026-01-01 22:59:43.25	219.38	5.01	-58.9	-69.5	3.8	7.45e-01	0	34	104	0	86	12461
2026-01-01 22:59:44.25	219.35	4.93	-59.3	-70.0	3.8	7.46e-01	0	33	104	0	86	13174
2026-01-01 22:59:45.25	219.32	4.85	-59.7	-70.4	3.8	7.46e-01	0	34	104	0	87	13034
2026-01-01 22:59:46.25	219.29	4.77	-60.0	-70.7	3.8	7.45e-01	0	34	104	0	87	13470
2026-01-01 22:59:47.26	219.26	4.69	-60.2	-70.9	3.8	7.45e-01	0	34	104	0	88	13049
2026-01-01 22:59:48.26	219.24	4.61	-60.4	-71.1	3.8	7.48e-01	0	34	104	0	88	13314
2026-01-01 22:59:49.26	219.21	4.53	-60.5	-71.2	3.8	7.46e-01	0	33	104	0	88	13431
2026-01-01 22:59:50.26	219.18	4.46	-60.6	-71.3	3.8	7.43e-01	0	33	104	0	89	12858
2026-01-01 22:59:51.26	219.15	4.38	-60.7	-71.4	3.8	7.45e-01	0	34	104	0	89	12993
2026-01-01 22:59:52.25	219.12	4.30	-60.8	-71.5	3.8	7.46e-01	0	34	104	0	89	13112
2026-01-01 22:59:53.24	219.10	4.22	-60.9	-71.6	3.8	7.45e-01	0	34	104	0	89	13269
2026-01-01 22:59:54.24	219.07	4.15	-60.9	-71.6	3.8	7.44e-01	0	34	104	0	89	13343
2026-01-01 22:59:55.24	219.04	4.07	-61.0	-71.7	3.8	7.47e-01	0	34	104	0	89	13453
2026-01-01 22:59:56.24	219.01	3.99	-61.1	-71.7	3.8	7.47e-01	0	33	104	0	90	12777
2026-01-01 22:59:57.24	218.99	3.92	-61.1	-71.8	3.8	7.46e-01	0	33	104	0	90	12859
2026-01-01 22:59:58.24	218.96	3.84	-61.1	-71.8	3.8	7.45e-01	0	34	104	0	90	12872
2026-01-01 22:59:59.23	218.93	3.76	-61.2	-71.8	3.8	7.45e-01	0	33	104	0	90	12905
2026-01-01 23:00:00.23	218.91	3.69	-61.2	-71.9	3.8	7.45e-01	0	33	104	0	90	12980
2026-01-01 23:00:01.23	218.88	3.61	-61.2	-71.9	3.8	7.45e-01	0	34	104	0	90	13035
2026-01-01 23:00:02.23	218.86	3.54	-61.2	-71.9	3.8	7.46e-01	0	34	104	0	90	13039
2026-01-01 23:00:03.23	218.83	3.46	-61.3	-71.9	3.8	7.46e-01	0	33	104	0	90	13093
2026-01-01 23:00:04.23	218.81	3.39	-61.3	-72.0	3.8	7.45e-01	0	33	104	0	90	13140
2026-01-01 23:00:05.23	218.78	3.31	-61.4	-72.0	3.8	7.47e-01	0	34	104	0	90	13184
2026-01-01 23:00:06.23	218.76	3.24	-61.3	-72.0	3.8	7.46e-01	0	34	104	0	90	13193
2026-01-01 23:00:07.23	218.73	3.17	-61.3	-71.9	3.8	7.43e-01	0	34	104	0	90	13095
2026-01-01 23:00:08.23	218.71	3.09	-61.3	-71.9	3.8	7.46e-01	0	34	104	0	90	13081
2026-01-01 23:00:09.23	218.68	3.02	-61.3	-71.9	3.8	7.47e-01	0	33	104	0	90	12993
2026-01-01 23:00:10.23	218.66	2.95	-61.2	-71.9	3.8	7.45e-01	0	34	104	0	90	13049
2026-01-01 23:00:11.22	218.63	2.87	-61.2	-71.9	3.8	7.45e-01	0	34	104	0	90	12979
2026-01-01 23:00:12.22	218.61	2.80	-61.2	-71.9	3.8	7.46e-01	0	34	104	0	90	12983
2026-01-01 23:00:13.22	218.58	2.73	-61.2	-71.9	3.8	7.45e-01	0	34	104	0	90	12970
2026-01-01 23:00:14.22	218.56	2.66	-61.2	-71.9	3.8	7.46e-01	0	34	104	0	90	12973
2026-01-01 23:00:15.22	218.54	2.59	-61.2	-71.8	3.8	7.44e-01	0	34	104	0	90	12951
2026-01-01 23:00:16.22	218.51	2.51	-61.2	-71.8	3.8	7.46e-01	0	33	104	0	90	12932
2026-01-01 23:00:17.22	218.49	2.44	-61.2	-71.8	3.8	7.47e-01	0	34	104	0	90	12874
2026-01-01 23:00:18.22	218.47	2.37	-61.1	-71.8	3.8	7.46e-01	0	33	104	0	90	12858
2026-01-01 23:00:19.22	218.45	2.30	-61.1	-71.8	3.8	7.47e-01	0	34	104	0	90	12881
2026-01-01 23:00:20.21	218.42	2.23	-61.1	-71.8	3.8	7.47e-01	0	34	104	0	90	12874
2026-01-01 23:00:21.21	218.40	2.16	-61.1	-71.8	3.8	7.45e-01	0	34	104	0	90	12863
2026-01-01 23:00:22.20	218.38	2.09	-61.1	-71.8	3.8	7.44e-01	0	34	104	0	90	12814
2026-01-01 23:00:23.19	218.36	2.02	-61.1	-71.8	3.8	7.45e-01	0	33	104	0	90	12867

#Closed at: 2026-01-01 23:00:23
#Recorded file [0 MB]: D:/lorett/data/31004_260102_015000.dat