passes_logs/2026/01/01/R3.2S_Murmansk/R3.2S_Murmansk__20260101_082122_NOAA_21_JPSS-2_rec.log

#Pass ID: 20260101_082122_NOAA 21 (JPSS-2)
#Satellite: NOAA 21 (JPSS-2)
#Configuration: NOAA-21
#almurnet v.1.7.20251203
#Start time: 2026-01-01 08:21:23

#Version: 2.2.20231116
#Station: R3.2S_Murmansk
#Location: 33.079688 lon 68.888172 lat
#TLE: 1 54234U 22150A   25365.56321383  .00000202  00000+0  11656-3 0  9995
#TLE: 2 54234  98.7483 301.6387 0001318 355.6519   4.4646 14.19530385162769

#Time	Az	El	Level	Level2	SNR	BER	BlckErr	Temp	State	Recorded	gain1	gain2
2026-01-01 08:21:23.32	124.41	2.04	-59.4	-73.1	3.8	1.49e+00	0	33	0	0	85	17043
2026-01-01 08:21:24.32	124.39	2.11	-59.3	-73.0	3.8	1.49e+00	0	33	104	0	83	18820
2026-01-01 08:21:25.31	124.36	2.17	-59.3	-73.0	3.8	1.49e+00	0	33	104	0	83	18817
2026-01-01 08:21:26.31	124.33	2.23	-59.2	-73.0	3.8	1.49e+00	0	33	104	0	83	18773
2026-01-01 08:21:27.30	124.31	2.29	-59.2	-73.0	3.8	1.49e+00	0	33	104	0	83	18818
2026-01-01 08:21:28.30	124.28	2.36	-59.3	-73.0	3.8	1.49e+00	0	33	104	0	83	18844
2026-01-01 08:21:29.29	124.26	2.42	-59.2	-73.0	3.8	1.49e+00	0	33	104	0	83	18794
2026-01-01 08:21:30.28	124.23	2.49	-59.3	-73.0	3.8	1.49e+00	0	33	104	0	83	18797
2026-01-01 08:21:31.27	124.20	2.55	-59.2	-73.0	3.8	1.49e+00	0	33	104	0	83	18846
2026-01-01 08:21:32.27	124.18	2.61	-59.2	-73.0	3.8	1.49e+00	0	33	104	0	83	18764
2026-01-01 08:21:33.26	124.15	2.68	-59.2	-73.0	3.8	1.49e+00	0	33	104	0	83	18765
2026-01-01 08:21:34.25	124.12	2.74	-59.2	-73.0	3.8	1.49e+00	0	33	104	0	83	18738
2026-01-01 08:21:35.25	124.09	2.81	-59.3	-72.9	3.8	1.49e+00	0	33	104	0	83	18704
2026-01-01 08:21:36.25	124.07	2.87	-59.3	-73.0	3.8	1.49e+00	0	33	104	0	83	18736
2026-01-01 08:21:37.24	124.04	2.93	-59.2	-72.9	3.8	1.49e+00	0	33	104	0	83	18731
2026-01-01 08:21:38.23	124.01	3.00	-59.2	-73.0	3.8	1.49e+00	0	33	104	0	83	18750
2026-01-01 08:21:39.23	123.98	3.06	-59.2	-73.0	3.8	1.49e+00	0	33	104	0	83	18812
2026-01-01 08:21:40.22	123.96	3.13	-59.3	-73.0	3.8	1.49e+00	0	33	104	0	83	18824
2026-01-01 08:21:41.21	123.93	3.19	-59.2	-72.9	3.8	1.49e+00	0	33	104	0	83	18707
2026-01-01 08:21:42.20	123.90	3.26	-59.2	-72.9	3.8	1.49e+00	0	33	104	0	83	18535
2026-01-01 08:21:43.20	123.87	3.32	-59.2	-72.7	3.8	1.49e+00	0	33	104	0	83	18265
2026-01-01 08:21:44.20	123.84	3.39	-59.2	-72.7	3.8	1.49e+00	0	33	104	0	83	18148
2026-01-01 08:21:45.19	123.81	3.46	-59.2	-72.5	3.8	1.49e+00	0	33	104	0	83	17861
2026-01-01 08:21:46.19	123.79	3.52	-59.2	-72.5	3.8	1.49e+00	0	33	104	0	83	17885
2026-01-01 08:21:47.18	123.76	3.59	-59.2	-72.6	3.8	1.49e+00	0	33	104	0	83	17915
2026-01-01 08:21:48.18	123.73	3.66	-59.2	-72.6	3.8	1.49e+00	0	33	104	0	83	18035
2026-01-01 08:21:49.17	123.70	3.72	-59.2	-72.7	3.8	1.49e+00	0	33	104	0	83	18097
2026-01-01 08:21:50.16	123.67	3.79	-59.2	-72.5	3.8	1.49e+00	0	33	104	0	83	17884
2026-01-01 08:21:51.15	123.64	3.85	-59.2	-72.4	3.8	1.49e+00	0	33	104	0	83	17602
2026-01-01 08:21:52.16	123.61	3.92	-59.2	-71.8	3.8	1.49e+00	0	33	104	0	83	16346
2026-01-01 08:21:53.15	123.58	3.99	-59.1	-70.9	3.9	1.49e+00	0	33	104	0	83	14823
2026-01-01 08:21:54.15	123.55	4.06	-59.0	-69.5	3.9	1.47e+00	0	33	104	0	83	12660
2026-01-01 08:21:55.14	123.52	4.12	-58.8	-67.6	4.9	1.04e+00	0	33	104	0	83	10156
2026-01-01 08:21:56.13	123.49	4.19	-58.4	-65.8	5.9	4.67e-01	0	33	0	2097152	83	8239
2026-01-01 08:21:57.12	123.46	4.26	-58.1	-64.3	7.1	1.84e-01	0	34	0	5242880	82	7370
2026-01-01 08:21:58.11	123.43	4.33	-57.6	-62.9	8.4	4.11e-02	0	33	0	8388608	81	6631
2026-01-01 08:21:59.11	123.40	4.39	-56.9	-61.2	10.0	5.98e-03	0	33	0	11534336	80	5726
2026-01-01 08:22:00.11	123.37	4.46	-56.3	-59.8	11.2	7.64e-04	0	34	0	14680064	79	5190
2026-01-01 08:22:01.10	123.34	4.53	-55.5	-58.4	12.4	3.58e-05	0	33	0	17825792	77	4968
2026-01-01 08:22:02.09	123.30	4.60	-54.9	-57.4	13.1	0.00e+00	0	34	0	20971520	76	4694
2026-01-01 08:22:03.09	123.27	4.67	-54.1	-56.3	13.9	0.00e+00	0	33	0	24117248	74	4651
2026-01-01 08:22:04.08	123.24	4.74	-53.9	-56.1	14.1	0.00e+00	0	34	0	27262976	74	4517
2026-01-01 08:22:05.08	123.21	4.81	-53.6	-55.7	14.3	0.00e+00	0	34	0	30408704	73	4561
2026-01-01 08:22:06.07	123.18	4.87	-53.2	-55.1	14.7	0.00e+00	0	34	0	33554432	73	4282
2026-01-01 08:22:07.06	123.15	4.94	-53.4	-55.4	14.5	0.00e+00	0	34	0	36700160	73	4420
2026-01-01 08:22:08.06	123.11	5.01	-53.5	-55.5	14.4	0.00e+00	0	34	0	39845888	73	4465
2026-01-01 08:22:09.05	123.08	5.08	-53.7	-55.7	14.5	0.00e+00	0	34	0	42991616	73	4554
2026-01-01 08:22:10.05	123.05	5.15	-55.7	-58.6	12.6	7.00e-07	0	33	0	46137344	76	5343
2026-01-01 08:22:11.05	123.02	5.22	-57.0	-61.7	9.3	6.10e-05	0	34	0	49283072	79	6438
2026-01-01 08:22:12.03	122.98	5.29	-56.3	-59.5	11.9	7.60e-06	0	34	0	52428800	77	5594
2026-01-01 08:22:13.03	122.95	5.36	-55.0	-57.7	13.0	0.00e+00	0	34	0	55574528	75	5132
2026-01-01 08:22:14.02	122.92	5.43	-53.2	-55.1	14.9	0.00e+00	0	34	0	58720256	73	4260
2026-01-01 08:22:15.01	122.88	5.50	-53.2	-55.1	14.9	0.00e+00	0	34	0	60817408	72	4518
2026-01-01 08:22:16.00	122.85	5.57	-53.2	-55.1	14.9	0.00e+00	0	34	0	63963136	72	4515
2026-01-01 08:22:16.99	122.82	5.64	-53.2	-55.1	15.0	0.00e+00	0	34	0	67108864	72	4508
2026-01-01 08:22:17.98	122.78	5.72	-53.2	-55.0	15.0	0.00e+00	0	34	0	70254592	72	4476
2026-01-01 08:22:18.98	122.75	5.79	-53.2	-55.1	15.0	0.00e+00	0	34	0	73400320	72	4494
2026-01-01 08:22:19.98	122.71	5.86	-53.2	-55.0	15.0	0.00e+00	0	34	0	76546048	72	4462
2026-01-01 08:22:20.98	122.68	5.93	-53.2	-55.1	15.0	0.00e+00	0	34	0	79691776	72	4507
2026-01-01 08:22:21.97	122.65	6.00	-53.0	-54.8	15.1	0.00e+00	0	34	0	82837504	72	4373
2026-01-01 08:22:22.97	122.61	6.08	-53.0	-54.7	15.2	0.00e+00	0	34	0	85983232	72	4329
2026-01-01 08:22:23.97	122.57	6.15	-53.2	-55.1	15.0	0.00e+00	0	34	0	89128960	72	4510
2026-01-01 08:22:24.96	122.54	6.22	-53.2	-55.0	15.0	0.00e+00	0	34	0	92274688	72	4492
2026-01-01 08:22:25.95	122.50	6.29	-52.9	-54.7	15.3	0.00e+00	0	34	0	95420416	72	4307
2026-01-01 08:22:26.95	122.47	6.37	-53.0	-54.8	15.2	0.00e+00	0	34	0	98566144	72	4369
2026-01-01 08:22:27.94	122.43	6.44	-52.8	-54.5	15.4	0.00e+00	0	34	0	101711872	72	4235
2026-01-01 08:22:28.93	122.40	6.51	-52.9	-54.6	15.4	0.00e+00	0	34	0	104857600	72	4254
2026-01-01 08:22:29.93	122.36	6.59	-52.9	-54.7	15.3	0.00e+00	0	34	0	108003328	72	4295
2026-01-01 08:22:30.92	122.32	6.66	-52.9	-54.6	15.3	0.00e+00	0	34	0	111149056	72	4291
2026-01-01 08:22:31.91	122.29	6.73	-52.8	-54.5	15.4	0.00e+00	0	34	0	114294784	72	4194
2026-01-01 08:22:32.90	122.25	6.81	-52.8	-54.5	15.5	0.00e+00	0	34	0	117440512	72	4198
2026-01-01 08:22:33.89	122.21	6.88	-52.7	-54.4	15.5	0.00e+00	0	34	0	120586240	72	4176
2026-01-01 08:22:34.88	122.18	6.96	-52.7	-54.4	15.5	0.00e+00	0	34	0	123731968	71	4425
2026-01-01 08:22:35.87	122.14	7.03	-52.7	-54.3	15.6	0.00e+00	0	34	0	126877696	71	4390
2026-01-01 08:22:36.87	122.10	7.11	-52.6	-54.3	15.6	0.00e+00	0	34	0	130023424	71	4341
2026-01-01 08:22:37.86	122.06	7.18	-52.7	-54.3	15.5	0.00e+00	0	34	0	133169152	71	4374
2026-01-01 08:22:38.85	122.03	7.26	-52.6	-54.3	15.6	0.00e+00	0	34	0	136314880	71	4347
2026-01-01 08:22:39.84	121.99	7.33	-52.6	-54.2	15.6	0.00e+00	0	34	0	139460608	71	4319
2026-01-01 08:22:40.83	121.95	7.41	-52.6	-54.2	15.7	0.00e+00	0	34	0	142606336	71	4298
2026-01-01 08:22:41.82	121.91	7.48	-52.6	-54.2	15.7	0.00e+00	0	34	0	144703488	71	4306
2026-01-01 08:22:42.81	121.87	7.56	-52.6	-54.2	15.7	0.00e+00	0	34	0	147849216	71	4295
2026-01-01 08:22:43.80	121.83	7.63	-52.4	-54.0	15.8	0.00e+00	0	34	0	150994944	71	4227
2026-01-01 08:22:44.79	121.79	7.71	-52.5	-54.1	15.7	0.00e+00	0	34	0	154140672	71	4250
2026-01-01 08:22:45.79	121.76	7.79	-52.4	-54.0	15.8	0.00e+00	0	34	0	157286400	71	4220
2026-01-01 08:22:46.78	121.72	7.86	-52.3	-53.9	15.9	0.00e+00	0	34	0	160432128	71	4161
2026-01-01 08:22:47.76	121.68	7.94	-52.4	-54.0	15.8	0.00e+00	0	34	0	163577856	71	4229
2026-01-01 08:22:48.75	121.64	8.02	-52.5	-54.0	15.8	0.00e+00	0	34	0	166723584	71	4236
2026-01-01 08:22:49.74	121.60	8.10	-52.3	-53.9	15.9	0.00e+00	0	34	0	169869312	71	4165
2026-01-01 08:22:50.72	121.56	8.17	-52.4	-53.9	15.9	0.00e+00	0	34	0	173015040	71	4174
2026-01-01 08:22:51.72	121.51	8.25	-52.5	-54.1	15.8	0.00e+00	0	34	0	176160768	71	4243
2026-01-01 08:22:52.71	121.47	8.33	-52.3	-53.8	16.0	0.00e+00	0	34	0	179306496	71	4135
2026-01-01 08:22:53.71	121.43	8.41	-52.3	-53.8	16.0	0.00e+00	0	34	0	182452224	71	4108
2026-01-01 08:22:54.70	121.39	8.49	-52.3	-53.8	16.0	0.00e+00	0	34	0	185597952	71	4124
2026-01-01 08:22:55.69	121.35	8.57	-52.2	-53.7	16.0	0.00e+00	0	34	0	188743680	71	4089
2026-01-01 08:22:56.68	121.31	8.64	-52.1	-53.6	16.1	0.00e+00	0	34	0	191889408	70	4286
2026-01-01 08:22:57.67	121.26	8.72	-52.1	-53.5	16.1	0.00e+00	0	34	0	195035136	70	4241
2026-01-01 08:22:58.66	121.22	8.80	-52.1	-53.5	16.1	0.00e+00	0	34	0	198180864	70	4240
2026-01-01 08:22:59.65	121.18	8.88	-52.1	-53.6	16.1	0.00e+00	0	34	0	201326592	70	4252
2026-01-01 08:23:00.64	121.14	8.96	-51.9	-53.4	16.2	0.00e+00	0	34	0	204472320	70	4164
2026-01-01 08:23:01.63	121.09	9.04	-52.0	-53.5	16.2	0.00e+00	0	34	0	207618048	70	4213
2026-01-01 08:23:02.62	121.05	9.12	-52.0	-53.5	16.2	0.00e+00	0	34	0	209715200	70	4206
2026-01-01 08:23:03.62	121.00	9.20	-52.0	-53.4	16.2	0.00e+00	0	34	0	212860928	70	4190
2026-01-01 08:23:04.61	120.96	9.29	-51.8	-53.2	16.3	0.00e+00	0	34	0	216006656	70	4087
2026-01-01 08:23:05.60	120.92	9.37	-51.8	-53.3	16.3	0.00e+00	0	34	0	219152384	70	4103
2026-01-01 08:23:06.59	120.87	9.45	-51.8	-53.2	16.3	0.00e+00	0	34	0	222298112	70	4086
2026-01-01 08:23:07.59	120.83	9.53	-51.8	-53.2	16.3	0.00e+00	0	34	0	225443840	70	4096
2026-01-01 08:23:08.58	120.78	9.61	-51.7	-53.1	16.4	0.00e+00	0	34	0	228589568	70	4019
2026-01-01 08:23:09.57	120.74	9.69	-51.7	-53.1	16.4	0.00e+00	0	34	0	231735296	70	4017
2026-01-01 08:23:10.56	120.69	9.78	-51.8	-53.2	16.3	0.00e+00	0	34	0	234881024	70	4086
2026-01-01 08:23:11.56	120.64	9.86	-51.9	-53.3	16.3	0.00e+00	0	34	0	238026752	70	4123
2026-01-01 08:23:12.55	120.60	9.94	-51.7	-53.1	16.4	0.00e+00	0	34	0	241172480	70	4035
2026-01-01 08:23:13.54	120.55	10.03	-51.6	-53.0	16.4	0.00e+00	0	34	0	244318208	69	4213
2026-01-01 08:23:14.54	120.50	10.11	-51.5	-52.9	16.5	0.00e+00	0	34	0	247463936	69	4157
2026-01-01 08:23:15.53	120.46	10.19	-51.5	-52.9	16.5	0.00e+00	0	34	0	250609664	69	4158
2026-01-01 08:23:16.52	120.41	10.28	-51.5	-52.8	16.5	0.00e+00	0	34	0	253755392	69	4129
2026-01-01 08:23:17.52	120.36	10.36	-51.5	-52.8	16.5	0.00e+00	0	34	0	256901120	69	4144
2026-01-01 08:23:18.51	120.31	10.45	-51.5	-52.8	16.5	0.00e+00	0	34	0	260046848	69	4122
2026-01-01 08:23:19.51	120.27	10.53	-51.4	-52.8	16.5	0.00e+00	0	34	0	263192576	69	4108
2026-01-01 08:23:20.50	120.22	10.62	-51.4	-52.7	16.6	0.00e+00	0	34	0	266338304	69	4098
2026-01-01 08:23:21.50	120.17	10.70	-51.4	-52.7	16.5	0.00e+00	0	34	0	269484032	69	4087
2026-01-01 08:23:22.49	120.12	10.79	-51.4	-52.7	16.6	0.00e+00	0	34	0	272629760	69	4095
2026-01-01 08:23:23.48	120.07	10.88	-51.4	-52.7	16.6	0.00e+00	0	34	0	275775488	69	4084
2026-01-01 08:23:24.48	120.02	10.96	-51.3	-52.6	16.6	0.00e+00	0	34	0	278921216	69	4032
2026-01-01 08:23:25.48	119.97	11.05	-51.3	-52.6	16.6	0.00e+00	0	34	0	282066944	69	4027
2026-01-01 08:23:26.47	119.92	11.14	-51.3	-52.6	16.7	0.00e+00	0	34	0	285212672	69	4029
2026-01-01 08:23:27.47	119.87	11.23	-51.3	-52.6	16.6	0.00e+00	0	34	0	288358400	69	4033
2026-01-01 08:23:28.47	119.82	11.31	-51.3	-52.6	16.6	0.00e+00	0	34	0	290455552	69	4032
2026-01-01 08:23:29.46	119.76	11.40	-51.2	-52.6	16.7	0.00e+00	0	34	0	293601280	69	4008
2026-01-01 08:23:30.45	119.71	11.49	-51.3	-52.6	16.7	0.00e+00	0	34	0	296747008	69	4035
2026-01-01 08:23:31.45	119.66	11.58	-51.3	-52.6	16.7	0.00e+00	0	34	0	299892736	69	4029
2026-01-01 08:23:32.44	119.61	11.67	-51.2	-52.5	16.7	0.00e+00	0	34	0	303038464	69	4004
2026-01-01 08:23:33.43	119.55	11.75	-51.2	-52.5	16.7	0.00e+00	0	34	0	306184192	69	3984
2026-01-01 08:23:34.43	119.50	11.84	-51.3	-52.6	16.7	0.00e+00	0	34	0	309329920	69	4029
2026-01-01 08:23:35.42	119.45	11.93	-51.3	-52.7	16.7	0.00e+00	0	34	0	312475648	69	4058
2026-01-01 08:23:36.40	119.39	12.02	-51.2	-52.5	16.7	0.00e+00	0	34	0	315621376	69	3979
2026-01-01 08:23:37.40	119.34	12.11	-51.3	-52.7	16.7	0.00e+00	0	34	0	318767104	69	4058
2026-01-01 08:23:38.39	119.29	12.20	-51.3	-52.6	16.7	0.00e+00	0	34	0	321912832	69	4047
2026-01-01 08:23:39.38	119.23	12.29	-51.2	-52.5	16.8	0.00e+00	0	34	0	325058560	69	3986
2026-01-01 08:23:40.38	119.18	12.39	-51.3	-52.6	16.7	0.00e+00	0	34	0	328204288	68	4261
2026-01-01 08:23:41.38	119.12	12.48	-51.1	-52.4	16.8	0.00e+00	0	34	0	331350016	68	4189
2026-01-01 08:23:42.36	119.06	12.57	-51.2	-52.5	16.7	0.00e+00	0	34	0	334495744	68	4233
2026-01-01 08:23:43.36	119.01	12.66	-51.3	-52.6	16.7	0.00e+00	0	34	0	337641472	68	4255
2026-01-01 08:23:44.35	118.95	12.75	-51.1	-52.4	16.8	0.00e+00	0	34	0	340787200	68	4156
2026-01-01 08:23:45.35	118.89	12.85	-51.1	-52.4	16.8	0.00e+00	0	34	0	343932928	68	4190
2026-01-01 08:23:46.34	118.84	12.94	-51.2	-52.5	16.8	0.00e+00	0	34	0	347078656	68	4199
2026-01-01 08:23:47.34	118.78	13.03	-51.3	-52.6	16.7	0.00e+00	0	34	0	350224384	68	4253
2026-01-01 08:23:48.33	118.72	13.13	-51.3	-52.6	16.7	0.00e+00	0	34	0	353370112	68	4279
2026-01-01 08:23:49.33	118.66	13.22	-51.2	-52.5	16.7	0.00e+00	0	34	0	356515840	68	4209
2026-01-01 08:23:50.32	118.60	13.32	-51.1	-52.4	16.8	0.00e+00	0	34	0	359661568	68	4167
2026-01-01 08:23:51.31	118.54	13.41	-51.2	-52.4	16.8	0.00e+00	0	34	0	361758720	68	4191
2026-01-01 08:23:52.30	118.48	13.51	-51.1	-52.4	16.8	0.00e+00	0	34	0	364904448	68	4183
2026-01-01 08:23:53.29	118.42	13.60	-51.1	-52.4	16.8	0.00e+00	0	34	0	368050176	68	4190
2026-01-01 08:23:54.28	118.36	13.70	-51.1	-52.4	16.8	0.00e+00	0	34	0	371195904	68	4188
2026-01-01 08:23:55.27	118.30	13.79	-51.1	-52.4	16.8	0.00e+00	0	34	0	374341632	68	4159
2026-01-01 08:23:56.27	118.24	13.89	-51.1	-52.4	16.8	0.00e+00	0	34	0	377487360	68	4184
2026-01-01 08:23:57.26	118.18	13.99	-51.2	-52.5	16.8	0.00e+00	0	34	0	380633088	68	4196
2026-01-01 08:23:58.25	118.12	14.08	-51.1	-52.3	16.9	0.00e+00	0	34	0	383778816	68	4144
2026-01-01 08:23:59.24	118.05	14.18	-51.2	-52.4	16.8	0.00e+00	0	34	0	386924544	68	4189
2026-01-01 08:24:00.24	117.99	14.28	-51.1	-52.4	16.8	0.00e+00	0	34	0	390070272	68	4168
2026-01-01 08:24:01.23	117.93	14.38	-51.2	-52.5	16.8	0.00e+00	0	34	0	393216000	68	4196
2026-01-01 08:24:02.24	117.86	14.48	-51.2	-52.5	16.8	0.00e+00	0	34	0	396361728	68	4199
2026-01-01 08:24:03.23	117.80	14.57	-51.3	-52.6	16.8	0.00e+00	0	34	0	399507456	68	4249
2026-01-01 08:24:04.22	117.73	14.67	-51.1	-52.4	16.8	0.00e+00	0	34	0	402653184	68	4177
2026-01-01 08:24:05.22	117.67	14.77	-51.1	-52.4	16.8	0.00e+00	0	34	0	405798912	68	4168
2026-01-01 08:24:06.23	117.60	14.88	-51.1	-52.4	16.8	0.00e+00	0	34	0	408944640	68	4175
2026-01-01 08:24:07.22	117.53	14.98	-51.2	-52.5	16.8	0.00e+00	0	34	0	412090368	68	4214
2026-01-01 08:24:08.20	117.47	15.08	-51.2	-52.5	16.8	0.00e+00	0	34	0	415236096	68	4225
2026-01-01 08:24:09.20	117.40	15.18	-51.2	-52.5	16.8	0.00e+00	0	34	0	418381824	68	4200
2026-01-01 08:24:10.19	117.33	15.28	-51.3	-52.6	16.8	0.00e+00	0	34	0	421527552	68	4256
2026-01-01 08:24:11.18	117.26	15.38	-51.3	-52.6	16.8	0.00e+00	0	34	0	424673280	68	4286
2026-01-01 08:24:12.17	117.19	15.48	-51.3	-52.6	16.8	0.00e+00	0	34	0	427819008	68	4278
2026-01-01 08:24:13.17	117.12	15.59	-51.3	-52.6	16.8	0.00e+00	0	34	0	430964736	68	4279
2026-01-01 08:24:14.15	117.06	15.69	-51.3	-52.6	16.8	0.00e+00	0	34	0	434110464	68	4248
2026-01-01 08:24:15.14	116.99	15.79	-51.4	-52.7	16.8	0.00e+00	0	34	0	437256192	68	4323
2026-01-01 08:24:16.14	116.91	15.89	-51.3	-52.6	16.8	0.00e+00	0	34	0	440401920	68	4245
2026-01-01 08:24:17.13	116.84	16.00	-51.3	-52.6	16.8	0.00e+00	0	34	0	443547648	68	4271
2026-01-01 08:24:18.12	116.77	16.10	-51.4	-52.7	16.8	0.00e+00	0	34	0	445644800	68	4293
2026-01-01 08:24:19.11	116.70	16.21	-51.3	-52.6	16.8	0.00e+00	0	34	0	448790528	68	4279
2026-01-01 08:24:20.11	116.63	16.31	-51.3	-52.6	16.8	0.00e+00	0	34	0	451936256	68	4262
2026-01-01 08:24:21.11	116.55	16.42	-51.4	-52.8	16.7	0.00e+00	0	34	0	455081984	68	4341
2026-01-01 08:24:22.10	116.48	16.53	-51.3	-52.6	16.8	0.00e+00	0	34	0	458227712	68	4278
2026-01-01 08:24:23.10	116.40	16.63	-51.4	-52.7	16.8	0.00e+00	0	34	0	461373440	68	4302
2026-01-01 08:24:24.09	116.33	16.74	-51.3	-52.6	16.8	0.00e+00	0	34	0	464519168	68	4289
2026-01-01 08:24:25.09	116.25	16.85	-51.4	-52.7	16.8	0.00e+00	0	34	0	467664896	68	4316
2026-01-01 08:24:26.08	116.18	16.96	-51.4	-52.7	16.8	0.00e+00	0	34	0	470810624	68	4314
2026-01-01 08:24:27.08	116.10	17.07	-51.5	-52.8	16.7	0.00e+00	0	34	0	473956352	68	4380
2026-01-01 08:24:28.07	116.02	17.17	-51.5	-52.8	16.7	0.00e+00	0	34	0	477102080	68	4360
2026-01-01 08:24:29.07	115.94	17.28	-51.5	-52.9	16.7	0.00e+00	0	35	0	480247808	68	4392
2026-01-01 08:24:30.05	115.87	17.39	-51.6	-52.9	16.7	0.00e+00	0	34	0	483393536	68	4413
2026-01-01 08:24:31.04	115.79	17.50	-51.5	-52.8	16.7	0.00e+00	0	34	0	486539264	68	4383
2026-01-01 08:24:32.03	115.71	17.61	-51.5	-52.8	16.7	0.00e+00	0	34	0	489684992	68	4389
2026-01-01 08:24:33.02	115.63	17.72	-51.5	-52.8	16.7	0.00e+00	0	34	0	492830720	68	4388
2026-01-01 08:24:34.02	115.55	17.83	-51.5	-52.8	16.7	0.00e+00	0	34	0	495976448	68	4389
2026-01-01 08:24:35.02	115.46	17.95	-51.6	-52.9	16.7	0.00e+00	0	34	0	499122176	68	4401
2026-01-01 08:24:36.00	115.38	18.06	-51.6	-52.9	16.7	0.00e+00	0	35	0	502267904	68	4415
2026-01-01 08:24:36.99	115.30	18.17	-51.6	-53.0	16.7	0.00e+00	0	34	0	505413632	68	4445
2026-01-01 08:24:37.98	115.22	18.28	-51.7	-53.0	16.6	0.00e+00	0	35	0	508559360	68	4490
2026-01-01 08:24:38.97	115.13	18.40	-51.7	-53.0	16.7	0.00e+00	0	34	0	511705088	68	4461
2026-01-01 08:24:39.96	115.05	18.51	-51.5	-52.8	16.8	0.00e+00	0	34	0	513802240	68	4375
2026-01-01 08:24:40.95	114.96	18.62	-51.6	-52.9	16.7	0.00e+00	0	34	0	516947968	68	4409
2026-01-01 08:24:41.93	114.88	18.74	-51.6	-52.9	16.7	0.00e+00	0	34	0	520093696	68	4420
2026-01-01 08:24:42.93	114.79	18.85	-51.5	-52.8	16.7	0.00e+00	0	35	0	523239424	68	4383
2026-01-01 08:24:43.92	114.71	18.97	-51.5	-52.8	16.8	0.00e+00	0	34	0	526385152	68	4351
2026-01-01 08:24:44.91	114.62	19.09	-51.4	-52.7	16.8	0.00e+00	0	34	0	529530880	68	4330
2026-01-01 08:24:45.91	114.53	19.20	-51.4	-52.7	16.8	0.00e+00	0	34	0	532676608	68	4316
2026-01-01 08:24:46.91	114.44	19.32	-51.5	-52.8	16.8	0.00e+00	0	35	0	535822336	68	4343
2026-01-01 08:24:47.90	114.35	19.44	-51.2	-52.5	16.9	0.00e+00	0	34	0	538968064	68	4211
2026-01-01 08:24:48.89	114.26	19.56	-51.2	-52.5	16.9	0.00e+00	0	34	0	542113792	68	4206
2026-01-01 08:24:49.88	114.17	19.68	-51.2	-52.5	16.9	0.00e+00	0	34	0	545259520	68	4212
2026-01-01 08:24:50.86	114.07	19.79	-51.2	-52.5	16.9	0.00e+00	0	34	0	548405248	68	4201
2026-01-01 08:24:51.86	113.98	19.91	-51.0	-52.2	17.0	0.00e+00	0	35	0	551550976	68	4069
2026-01-01 08:24:52.85	113.89	20.03	-51.0	-52.2	17.0	0.00e+00	0	34	0	554696704	68	4096
2026-01-01 08:24:53.84	113.79	20.15	-50.9	-52.1	17.0	0.00e+00	0	34	0	557842432	68	4041
2026-01-01 08:24:54.84	113.70	20.28	-50.8	-52.0	17.1	0.00e+00	0	35	0	560988160	68	3988
2026-01-01 08:24:55.83	113.60	20.40	-50.8	-52.0	17.1	0.00e+00	0	34	0	564133888	68	3967
2026-01-01 08:24:56.82	113.50	20.52	-50.8	-52.0	17.1	0.00e+00	0	35	0	567279616	68	3987
2026-01-01 08:24:57.82	113.41	20.64	-50.5	-51.7	17.2	0.00e+00	0	34	0	570425344	67	4056
2026-01-01 08:24:58.82	113.31	20.77	-50.3	-51.5	17.2	0.00e+00	0	34	0	573571072	67	3984
2026-01-01 08:24:59.81	113.21	20.89	-50.4	-51.5	17.2	0.00e+00	0	34	0	576716800	67	4001
2026-01-01 08:25:00.81	113.11	21.02	-50.3	-51.5	17.2	0.00e+00	0	34	0	579862528	67	3971
2026-01-01 08:25:01.81	113.01	21.14	-50.3	-51.5	17.2	0.00e+00	0	34	0	583008256	67	3989
2026-01-01 08:25:02.80	112.90	21.27	-50.4	-51.6	17.2	0.00e+00	0	34	0	586153984	67	4005
2026-01-01 08:25:03.80	112.80	21.39	-50.2	-51.4	17.2	0.00e+00	0	35	0	589299712	67	3929
2026-01-01 08:25:04.79	112.70	21.52	-50.2	-51.4	17.2	0.00e+00	0	34	0	592445440	67	3943
2026-01-01 08:25:05.79	112.59	21.65	-50.2	-51.4	17.2	0.00e+00	0	35	0	595591168	67	3928
2026-01-01 08:25:06.79	112.49	21.78	-50.2	-51.3	17.3	0.00e+00	0	34	0	597688320	66	4136
2026-01-01 08:25:07.77	112.38	21.90	-50.3	-51.5	17.2	0.00e+00	0	34	0	600834048	66	4203
2026-01-01 08:25:08.77	112.27	22.03	-50.2	-51.3	17.2	0.00e+00	0	34	0	603979776	66	4145
2026-01-01 08:25:09.75	112.17	22.16	-50.1	-51.3	17.3	0.00e+00	0	34	0	607125504	66	4111
2026-01-01 08:25:10.75	112.06	22.29	-50.2	-51.3	17.3	0.00e+00	0	34	0	610271232	66	4143
2026-01-01 08:25:11.74	111.95	22.42	-50.0	-51.2	17.3	0.00e+00	0	35	0	613416960	66	4070
2026-01-01 08:25:12.73	111.84	22.55	-50.0	-51.1	17.3	0.00e+00	0	34	0	616562688	66	4047
2026-01-01 08:25:13.73	111.72	22.68	-49.9	-51.1	17.3	0.00e+00	0	34	0	619708416	66	4013
2026-01-01 08:25:14.73	111.61	22.82	-49.8	-51.0	17.4	0.00e+00	0	34	0	622854144	66	3967
2026-01-01 08:25:15.73	111.49	22.95	-49.8	-50.9	17.4	0.00e+00	0	34	0	625999872	66	3957
2026-01-01 08:25:16.73	111.38	23.08	-49.8	-51.0	17.4	0.00e+00	0	34	0	629145600	66	3959
2026-01-01 08:25:17.72	111.26	23.22	-49.8	-51.0	17.4	0.00e+00	0	34	0	632291328	66	3968
2026-01-01 08:25:18.72	111.15	23.35	-49.8	-51.0	17.4	0.00e+00	0	35	0	635437056	66	3967
2026-01-01 08:25:19.70	111.03	23.48	-49.9	-51.1	17.4	0.00e+00	0	35	0	638582784	66	4010
2026-01-01 08:25:20.69	110.91	23.62	-49.9	-51.1	17.4	0.00e+00	0	34	0	641728512	66	4020
2026-01-01 08:25:21.69	110.79	23.76	-50.0	-51.1	17.4	0.00e+00	0	34	0	644874240	66	4035
2026-01-01 08:25:22.68	110.67	23.89	-50.0	-51.2	17.4	0.00e+00	0	34	0	648019968	66	4053
2026-01-01 08:25:23.67	110.55	24.03	-49.9	-51.1	17.4	0.00e+00	0	35	0	651165696	66	4020
2026-01-01 08:25:24.67	110.42	24.17	-50.1	-51.2	17.3	0.00e+00	0	35	0	654311424	66	4088
2026-01-01 08:25:25.65	110.30	24.30	-50.0	-51.2	17.4	0.00e+00	0	35	0	657457152	66	4054
2026-01-01 08:25:26.65	110.17	24.44	-50.0	-51.1	17.4	0.00e+00	0	34	0	660602880	66	4050
2026-01-01 08:25:27.65	110.05	24.58	-50.0	-51.1	17.4	0.00e+00	0	35	0	663748608	66	4048
2026-01-01 08:25:28.64	109.92	24.72	-50.0	-51.2	17.4	0.00e+00	0	34	0	666894336	66	4067
2026-01-01 08:25:29.64	109.79	24.86	-50.2	-51.4	17.3	0.00e+00	0	35	0	670040064	66	4160
2026-01-01 08:25:30.63	109.66	25.00	-50.2	-51.4	17.3	0.00e+00	0	34	0	673185792	66	4174
2026-01-01 08:25:31.63	109.53	25.15	-50.4	-51.5	17.2	0.00e+00	0	34	0	676331520	66	4242
2026-01-01 08:25:32.62	109.39	25.29	-50.4	-51.6	17.2	0.00e+00	0	35	0	678428672	66	4250
2026-01-01 08:25:33.61	109.26	25.43	-50.6	-51.8	17.1	0.00e+00	0	34	0	681574400	66	4350
2026-01-01 08:25:34.60	109.13	25.57	-50.6	-51.8	17.1	0.00e+00	0	35	0	684720128	66	4366
2026-01-01 08:25:35.58	108.99	25.71	-50.6	-51.9	17.1	0.00e+00	0	35	0	687865856	66	4406
2026-01-01 08:25:36.57	108.86	25.86	-50.7	-51.9	17.1	0.00e+00	0	34	0	691011584	66	4435
2026-01-01 08:25:37.56	108.72	26.00	-50.7	-51.9	17.1	0.00e+00	0	34	0	694157312	66	4438
2026-01-01 08:25:38.56	108.58	26.15	-50.8	-52.1	17.0	0.00e+00	0	34	0	697303040	66	4510
2026-01-01 08:25:39.55	108.44	26.30	-50.8	-52.0	17.1	0.00e+00	0	35	0	700448768	66	4484
2026-01-01 08:25:40.53	108.29	26.44	-50.8	-52.1	17.0	0.00e+00	0	34	0	703594496	66	4515
2026-01-01 08:25:41.53	108.15	26.59	-50.9	-52.1	17.0	0.00e+00	0	35	0	706740224	67	4280
2026-01-01 08:25:42.53	108.00	26.74	-50.9	-52.1	17.0	0.00e+00	0	35	0	709885952	67	4285
2026-01-01 08:25:43.53	107.85	26.89	-50.9	-52.1	17.0	0.00e+00	0	35	0	713031680	67	4286
2026-01-01 08:25:44.52	107.71	27.04	-50.9	-52.1	17.0	0.00e+00	0	34	0	716177408	67	4261
2026-01-01 08:25:45.51	107.56	27.19	-51.0	-52.2	17.0	0.00e+00	0	34	0	719323136	67	4318
2026-01-01 08:25:46.50	107.41	27.34	-50.9	-52.2	17.0	0.00e+00	0	34	0	722468864	67	4307
2026-01-01 08:25:47.50	107.25	27.49	-50.9	-52.1	17.0	0.00e+00	0	34	0	725614592	67	4290
2026-01-01 08:25:48.48	107.10	27.64	-50.9	-52.1	17.0	0.00e+00	0	35	0	728760320	67	4276
2026-01-01 08:25:49.46	106.95	27.79	-51.0	-52.2	17.0	0.00e+00	0	35	0	731906048	67	4319
2026-01-01 08:25:50.46	106.79	27.94	-51.0	-52.3	17.0	0.00e+00	0	35	0	735051776	67	4352
2026-01-01 08:25:51.44	106.63	28.09	-50.9	-52.2	17.0	0.00e+00	0	35	0	738197504	67	4307
2026-01-01 08:25:52.43	106.47	28.25	-51.0	-52.2	17.0	0.00e+00	0	34	0	741343232	67	4332
2026-01-01 08:25:53.42	106.31	28.40	-51.0	-52.3	17.0	0.00e+00	0	35	0	744488960	67	4344
2026-01-01 08:25:54.42	106.15	28.56	-50.9	-52.2	17.0	0.00e+00	0	35	0	746586112	67	4319
2026-01-01 08:25:55.41	105.98	28.71	-50.9	-52.2	17.1	0.00e+00	0	35	0	749731840	67	4303
2026-01-01 08:25:56.40	105.82	28.87	-50.9	-52.2	17.0	0.00e+00	0	34	0	752877568	67	4310
2026-01-01 08:25:57.40	105.65	29.03	-50.9	-52.2	17.0	0.00e+00	0	34	0	756023296	67	4304
2026-01-01 08:25:58.40	105.48	29.19	-50.8	-52.1	17.0	0.00e+00	0	34	0	759169024	67	4249
2026-01-01 08:25:59.38	105.31	29.34	-50.9	-52.1	17.0	0.00e+00	0	35	0	762314752	67	4279
2026-01-01 08:26:00.37	105.13	29.50	-50.8	-52.1	17.1	0.00e+00	0	35	0	765460480	67	4249
2026-01-01 08:26:01.36	104.96	29.66	-51.0	-52.2	17.0	0.00e+00	0	35	0	768606208	67	4306
2026-01-01 08:26:02.37	104.78	29.82	-50.8	-52.1	17.0	0.00e+00	0	34	0	771751936	67	4254
2026-01-01 08:26:03.36	104.60	29.98	-50.9	-52.1	17.0	0.00e+00	0	35	0	774897664	67	4280
2026-01-01 08:26:04.35	104.42	30.14	-51.1	-52.4	16.9	0.00e+00	0	34	0	778043392	67	4394
2026-01-01 08:26:05.35	104.24	30.31	-51.3	-52.5	16.9	0.00e+00	0	34	0	781189120	67	4490
2026-01-01 08:26:06.34	104.05	30.47	-51.4	-52.7	16.9	0.00e+00	0	35	0	784334848	67	4564
2026-01-01 08:26:07.34	103.87	30.63	-51.6	-52.9	16.8	0.00e+00	0	35	0	787480576	68	4409
2026-01-01 08:26:08.33	103.68	30.80	-51.5	-52.8	16.9	0.00e+00	0	35	0	790626304	68	4372
2026-01-01 08:26:09.33	103.49	30.96	-51.2	-52.5	17.0	0.00e+00	0	34	0	793772032	68	4214
2026-01-01 08:26:10.32	103.30	31.13	-51.2	-52.5	17.0	0.00e+00	0	34	0	796917760	68	4200
2026-01-01 08:26:11.32	103.10	31.29	-51.0	-52.2	17.1	0.00e+00	0	35	0	800063488	68	4087
2026-01-01 08:26:12.31	102.91	31.46	-51.0	-52.2	17.1	0.00e+00	0	35	0	803209216	68	4077
2026-01-01 08:26:13.31	102.71	31.63	-50.9	-52.1	17.2	0.00e+00	0	35	0	806354944	68	4025
2026-01-01 08:26:14.31	102.51	31.79	-50.9	-52.1	17.2	0.00e+00	0	35	0	809500672	68	4032
2026-01-01 08:26:15.29	102.31	31.96	-50.8	-52.0	17.2	0.00e+00	0	35	0	812646400	68	3963
2026-01-01 08:26:16.29	102.10	32.13	-50.8	-52.0	17.2	0.00e+00	0	34	0	815792128	68	3987
2026-01-01 08:26:17.28	101.90	32.30	-50.8	-52.0	17.2	0.00e+00	0	35	0	818937856	68	3978
2026-01-01 08:26:18.28	101.69	32.47	-50.9	-52.1	17.1	0.00e+00	0	35	0	822083584	68	4021
2026-01-01 08:26:19.28	101.47	32.64	-51.0	-52.2	17.1	0.00e+00	0	35	0	825229312	68	4090
2026-01-01 08:26:20.27	101.26	32.81	-51.1	-52.4	17.0	0.00e+00	0	35	0	828375040	68	4151
2026-01-01 08:26:21.26	101.05	32.98	-51.2	-52.5	17.0	0.00e+00	0	34	0	830472192	68	4201
2026-01-01 08:26:22.26	100.83	33.15	-51.3	-52.6	17.0	0.00e+00	0	35	0	833617920	68	4259
2026-01-01 08:26:23.25	100.61	33.32	-51.3	-52.6	17.0	0.00e+00	0	34	0	836763648	68	4244
2026-01-01 08:26:24.25	100.38	33.49	-51.5	-52.7	16.9	0.00e+00	0	34	0	839909376	68	4333
2026-01-01 08:26:25.24	100.16	33.66	-51.7	-53.0	16.8	0.00e+00	0	35	0	843055104	68	4451
2026-01-01 08:26:26.23	99.93	33.84	-51.8	-53.1	16.8	0.00e+00	0	35	0	846200832	68	4542
2026-01-01 08:26:27.22	99.70	34.01	-51.8	-53.1	16.7	0.00e+00	0	35	0	849346560	68	4530
2026-01-01 08:26:28.21	99.47	34.18	-51.9	-53.3	16.7	0.00e+00	0	34	0	852492288	69	4361
2026-01-01 08:26:29.20	99.24	34.36	-51.9	-53.3	16.7	0.00e+00	0	35	0	855638016	69	4354
2026-01-01 08:26:30.19	99.00	34.53	-52.0	-53.3	16.7	0.00e+00	0	35	0	858783744	69	4352
2026-01-01 08:26:31.19	98.76	34.71	-52.1	-53.5	16.7	0.00e+00	0	35	0	861929472	69	4463
2026-01-01 08:26:32.18	98.52	34.88	-52.2	-53.5	16.6	0.00e+00	0	35	0	865075200	69	4475
2026-01-01 08:26:33.18	98.27	35.06	-52.4	-53.8	16.5	0.00e+00	0	35	0	868220928	69	4612
2026-01-01 08:26:34.17	98.03	35.23	-52.4	-53.8	16.5	0.00e+00	0	35	0	871366656	69	4614
2026-01-01 08:26:35.17	97.77	35.41	-52.7	-54.1	16.4	0.00e+00	0	35	0	874512384	70	4520
2026-01-01 08:26:36.16	97.52	35.59	-52.7	-54.1	16.4	0.00e+00	0	34	0	877658112	70	4526
2026-01-01 08:26:37.14	97.27	35.76	-52.7	-54.2	16.3	0.00e+00	0	35	0	880803840	70	4558
2026-01-01 08:26:38.14	97.01	35.94	-52.8	-54.3	16.3	0.00e+00	0	35	0	883949568	70	4604
2026-01-01 08:26:39.13	96.75	36.12	-53.0	-54.4	16.2	0.00e+00	0	34	0	887095296	71	4436
2026-01-01 08:26:40.13	96.48	36.30	-53.0	-54.5	16.2	0.00e+00	0	35	0	890241024	71	4443
2026-01-01 08:26:41.12	96.21	36.48	-52.9	-54.3	16.3	0.00e+00	0	35	0	893386752	71	4378
2026-01-01 08:26:42.11	95.95	36.65	-52.9	-54.4	16.3	0.00e+00	0	35	0	896532480	71	4395
2026-01-01 08:26:43.10	95.67	36.83	-52.9	-54.3	16.3	0.00e+00	0	35	0	898629632	71	4379
2026-01-01 08:26:44.09	95.40	37.01	-52.8	-54.3	16.3	0.00e+00	0	35	0	901775360	71	4358
2026-01-01 08:26:45.08	95.12	37.19	-52.7	-54.1	16.3	0.00e+00	0	35	0	904921088	71	4287
2026-01-01 08:26:46.07	94.84	37.37	-52.5	-53.9	16.5	0.00e+00	0	35	0	908066816	71	4152
2026-01-01 08:26:47.06	94.55	37.55	-52.3	-53.7	16.6	0.00e+00	0	35	0	911212544	71	4073
2026-01-01 08:26:48.05	94.26	37.73	-52.3	-53.6	16.6	0.00e+00	0	35	0	914358272	71	4028
2026-01-01 08:26:49.04	93.97	37.91	-52.1	-53.5	16.7	0.00e+00	0	35	0	917504000	70	4205
2026-01-01 08:26:50.03	93.68	38.09	-52.3	-53.6	16.6	0.00e+00	0	35	0	920649728	70	4264
2026-01-01 08:26:51.02	93.38	38.27	-52.2	-53.5	16.7	0.00e+00	0	35	0	923795456	70	4230
2026-01-01 08:26:52.01	93.08	38.44	-52.3	-53.6	16.6	0.00e+00	0	35	0	926941184	70	4282
2026-01-01 08:26:53.00	92.78	38.62	-52.4	-53.8	16.5	0.00e+00	0	35	0	930086912	70	4365
2026-01-01 08:26:54.00	92.46	38.81	-52.4	-53.8	16.5	0.00e+00	0	35	0	933232640	70	4380
2026-01-01 08:26:54.99	92.15	38.99	-52.3	-53.7	16.6	0.00e+00	0	35	0	936378368	70	4323
2026-01-01 08:26:56.00	91.83	39.17	-52.4	-53.7	16.6	0.00e+00	0	34	0	939524096	70	4329
2026-01-01 08:26:56.98	91.52	39.35	-52.4	-53.7	16.6	0.00e+00	0	35	0	942669824	70	4329
2026-01-01 08:26:57.97	91.19	39.53	-52.6	-54.0	16.4	0.00e+00	0	35	0	945815552	70	4453
2026-01-01 08:26:58.97	90.87	39.71	-52.6	-54.0	16.4	0.00e+00	0	35	0	948961280	70	4465
2026-01-01 08:26:59.96	90.54	39.89	-52.7	-54.1	16.4	0.00e+00	0	34	0	952107008	70	4545
2026-01-01 08:27:00.95	90.20	40.06	-52.7	-54.1	16.4	0.00e+00	0	35	0	955252736	70	4540
2026-01-01 08:27:01.94	89.87	40.24	-52.6	-54.0	16.5	0.00e+00	0	35	0	958398464	70	4467
2026-01-01 08:27:02.94	89.52	40.42	-52.5	-53.9	16.5	0.00e+00	0	35	0	961544192	70	4437
2026-01-01 08:27:03.93	89.18	40.60	-52.5	-53.9	16.5	0.00e+00	0	35	0	964689920	70	4392
2026-01-01 08:27:04.92	88.83	40.78	-52.7	-54.1	16.4	0.00e+00	0	35	0	967835648	70	4513
2026-01-01 08:27:05.91	88.48	40.96	-53.0	-54.4	16.3	0.00e+00	0	35	0	969932800	71	4428
2026-01-01 08:27:06.91	88.12	41.14	-53.3	-54.8	16.1	0.00e+00	0	35	0	973078528	71	4634
2026-01-01 08:27:07.89	87.76	41.31	-53.5	-55.0	16.0	0.00e+00	0	35	0	976224256	72	4477
2026-01-01 08:27:08.89	87.40	41.49	-53.3	-54.8	16.1	0.00e+00	0	35	0	979369984	72	4345
2026-01-01 08:27:09.87	87.03	41.66	-53.3	-54.8	16.1	0.00e+00	0	35	0	982515712	72	4381
2026-01-01 08:27:10.86	86.66	41.84	-53.6	-55.2	15.9	0.00e+00	0	35	0	985661440	72	4567
2026-01-01 08:27:11.85	86.29	42.01	-53.5	-55.1	16.0	0.00e+00	0	34	0	988807168	72	4515
2026-01-01 08:27:12.84	85.91	42.19	-53.6	-55.2	15.9	0.00e+00	0	35	0	991952896	72	4566
2026-01-01 08:27:13.84	85.52	42.36	-53.7	-55.4	15.8	0.00e+00	0	35	0	995098624	72	4653
2026-01-01 08:27:14.83	85.13	42.53	-53.9	-55.5	15.7	0.00e+00	0	35	0	998244352	72	4750
2026-01-01 08:27:15.82	84.74	42.71	-53.8	-55.4	15.8	0.00e+00	0	35	0	1001390080	73	4430
2026-01-01 08:27:16.81	84.34	42.88	-53.9	-55.6	15.7	0.00e+00	0	35	0	1004535808	73	4502
2026-01-01 08:27:17.80	83.94	43.05	-53.9	-55.6	15.7	0.00e+00	0	35	0	1007681536	73	4505
2026-01-01 08:27:18.79	83.53	43.22	-54.0	-55.7	15.6	0.00e+00	0	35	0	1010827264	73	4568
2026-01-01 08:27:19.78	83.12	43.39	-54.1	-55.8	15.6	0.00e+00	0	35	0	1013972992	73	4635
2026-01-01 08:27:20.77	82.71	43.55	-53.8	-55.4	15.7	0.00e+00	0	34	0	1017118720	73	4416
2026-01-01 08:27:21.77	82.29	43.72	-53.5	-55.1	15.9	0.00e+00	0	35	0	1020264448	73	4252
2026-01-01 08:27:22.77	81.86	43.89	-53.4	-55.0	16.1	0.00e+00	0	35	0	1023410176	73	4196
2026-01-01 08:27:23.76	81.43	44.06	-53.5	-55.0	16.0	0.00e+00	0	35	0	1026555904	73	4218
2026-01-01 08:27:24.76	81.00	44.22	-53.4	-54.9	16.1	0.00e+00	0	35	0	1029701632	73	4171
2026-01-01 08:27:25.76	80.56	44.38	-53.2	-54.7	16.2	0.00e+00	0	35	0	1032847360	73	4084
2026-01-01 08:27:26.74	80.12	44.54	-53.1	-54.6	16.3	0.00e+00	0	34	0	1035993088	72	4265
2026-01-01 08:27:27.73	79.68	44.70	-53.1	-54.5	16.3	0.00e+00	0	35	0	1039138816	72	4233
2026-01-01 08:27:28.72	79.23	44.86	-52.9	-54.3	16.4	0.00e+00	0	35	0	1042284544	72	4139
2026-01-01 08:27:29.72	78.77	45.02	-53.0	-54.4	16.4	0.00e+00	0	35	0	1045430272	72	4160
2026-01-01 08:27:30.72	78.31	45.18	-53.0	-54.4	16.3	0.00e+00	0	35	0	1048576000	72	4192
2026-01-01 08:27:31.72	77.84	45.34	-53.1	-54.5	16.2	0.00e+00	0	35	0	1050673152	72	4230
2026-01-01 08:27:32.71	77.37	45.49	-53.3	-54.8	16.1	0.00e+00	0	35	0	1053818880	72	4375
2026-01-01 08:27:33.70	76.90	45.64	-53.5	-55.0	16.0	0.00e+00	0	35	0	1056964608	72	4480
2026-01-01 08:27:34.70	76.42	45.79	-53.6	-55.1	16.0	0.00e+00	0	35	0	1060110336	72	4535
2026-01-01 08:27:35.69	75.93	45.94	-53.5	-55.1	16.0	0.00e+00	0	35	0	1063256064	72	4509
2026-01-01 08:27:36.67	75.45	46.08	-53.7	-55.2	15.9	0.00e+00	0	35	0	1066401792	72	4597
2026-01-01 08:27:37.66	74.96	46.23	-53.9	-55.5	15.7	0.00e+00	0	35	0	1069547520	72	4754
2026-01-01 08:27:38.65	74.47	46.37	-54.0	-55.7	15.7	0.00e+00	0	35	0	1072693248	73	4554
2026-01-01 08:27:39.64	73.97	46.51	-53.9	-55.5	15.7	0.00e+00	0	35	0	1075838976	73	4481
2026-01-01 08:27:40.63	73.46	46.65	-53.6	-55.2	15.9	0.00e+00	0	35	0	1078984704	73	4298
2026-01-01 08:27:41.62	72.96	46.79	-53.6	-55.1	16.0	0.00e+00	0	35	0	1082130432	73	4274
2026-01-01 08:27:42.61	72.44	46.92	-53.8	-55.3	15.9	0.00e+00	0	35	0	1085276160	73	4389
2026-01-01 08:27:43.60	71.93	47.05	-53.7	-55.3	15.9	0.00e+00	0	35	0	1088421888	73	4376
2026-01-01 08:27:44.58	71.41	47.18	-53.6	-55.1	15.9	0.00e+00	0	35	0	1091567616	73	4266
2026-01-01 08:27:45.58	70.88	47.31	-53.3	-54.8	16.2	0.00e+00	0	35	0	1094713344	73	4110
2026-01-01 08:27:46.57	70.35	47.44	-53.4	-54.9	16.1	0.00e+00	0	35	0	1097859072	73	4147
2026-01-01 08:27:47.56	69.81	47.56	-53.3	-54.8	16.1	0.00e+00	0	35	0	1101004800	73	4128
2026-01-01 08:27:48.55	69.28	47.68	-53.3	-54.7	16.2	0.00e+00	0	35	0	1104150528	73	4092
2026-01-01 08:27:49.53	68.74	47.80	-53.3	-54.8	16.1	0.00e+00	0	35	0	1107296256	73	4127
2026-01-01 08:27:50.52	68.19	47.92	-53.1	-54.5	16.3	0.00e+00	0	35	0	1110441984	72	4211
2026-01-01 08:27:51.51	67.64	48.03	-52.8	-54.2	16.5	0.00e+00	0	35	0	1112539136	72	4071
2026-01-01 08:27:52.51	67.08	48.14	-52.9	-54.4	16.3	0.00e+00	0	35	0	1115684864	72	4146
2026-01-01 08:27:53.51	66.51	48.25	-53.0	-54.4	16.3	0.00e+00	0	35	0	1118830592	72	4172
2026-01-01 08:27:54.49	65.96	48.36	-52.9	-54.4	16.4	0.00e+00	0	35	0	1121976320	72	4147
2026-01-01 08:27:55.48	65.39	48.46	-53.1	-54.5	16.3	0.00e+00	0	35	0	1125122048	72	4234
2026-01-01 08:27:56.48	64.81	48.56	-53.2	-54.7	16.2	0.00e+00	0	35	0	1128267776	72	4297
2026-01-01 08:27:57.47	64.24	48.66	-53.4	-54.9	16.1	0.00e+00	0	35	0	1131413504	72	4399
2026-01-01 08:27:58.46	63.66	48.75	-53.7	-55.2	15.9	0.00e+00	0	35	0	1134559232	72	4598
2026-01-01 08:27:59.45	63.08	48.84	-53.9	-55.5	15.8	0.00e+00	0	35	0	1137704960	73	4492
2026-01-01 08:28:00.44	62.50	48.93	-54.0	-55.6	15.6	0.00e+00	0	35	0	1140850688	73	4544
2026-01-01 08:28:01.43	61.91	49.02	-54.0	-55.7	15.6	0.00e+00	0	35	0	1143996416	73	4597
2026-01-01 08:28:02.43	61.31	49.10	-53.7	-55.3	15.9	0.00e+00	0	35	0	1147142144	73	4391
2026-01-01 08:28:03.42	60.72	49.18	-53.7	-55.3	15.9	0.00e+00	0	35	0	1150287872	73	4366
2026-01-01 08:28:04.42	60.11	49.26	-53.7	-55.3	15.9	0.00e+00	0	35	0	1153433600	73	4368
2026-01-01 08:28:05.41	59.51	49.33	-53.5	-55.0	16.0	0.00e+00	0	35	0	1156579328	73	4238
2026-01-01 08:28:06.40	58.91	49.40	-53.3	-54.9	16.1	0.00e+00	0	35	0	1159725056	73	4147
2026-01-01 08:28:07.40	58.30	49.46	-52.8	-54.2	16.5	0.00e+00	0	35	0	1162870784	72	4059
2026-01-01 08:28:08.39	57.69	49.53	-52.8	-54.2	16.5	0.00e+00	0	35	0	1166016512	72	4058
2026-01-01 08:28:09.38	57.08	49.58	-53.3	-54.8	16.2	0.00e+00	0	35	0	1169162240	72	4362
2026-01-01 08:28:10.38	56.46	49.64	-53.4	-55.0	16.0	0.00e+00	0	35	0	1172307968	72	4445
2026-01-01 08:28:11.37	55.84	49.69	-53.8	-55.4	15.7	0.00e+00	0	35	0	1175453696	72	4652
2026-01-01 08:28:12.37	55.22	49.74	-53.4	-55.0	16.0	0.00e+00	0	35	0	1177550848	72	4444
2026-01-01 08:28:13.36	54.60	49.79	-53.2	-54.7	16.2	0.00e+00	0	35	0	1180696576	72	4312
2026-01-01 08:28:14.35	53.98	49.83	-53.1	-54.6	16.2	0.00e+00	0	35	0	1183842304	72	4262
2026-01-01 08:28:15.35	53.35	49.87	-53.0	-54.4	16.3	0.00e+00	0	35	0	1186988032	72	4192
2026-01-01 08:28:16.34	52.73	49.90	-53.1	-54.5	16.3	0.00e+00	0	35	0	1190133760	72	4221
2026-01-01 08:28:17.32	52.11	49.93	-53.2	-54.6	16.2	0.00e+00	0	35	0	1193279488	72	4281
2026-01-01 08:28:18.32	51.47	49.96	-53.2	-54.7	16.2	0.00e+00	0	35	0	1196425216	72	4298
2026-01-01 08:28:19.31	50.85	49.98	-53.0	-54.5	16.4	0.00e+00	0	35	0	1199570944	72	4198
2026-01-01 08:28:20.31	50.21	50.00	-53.0	-54.5	16.3	0.00e+00	0	35	0	1202716672	72	4210
2026-01-01 08:28:21.30	49.58	50.02	-52.9	-54.3	16.4	0.00e+00	0	35	0	1205862400	72	4130
2026-01-01 08:28:22.29	48.95	50.03	-52.9	-54.3	16.4	0.00e+00	0	35	0	1209008128	72	4124
2026-01-01 08:28:23.28	48.32	50.04	-52.8	-54.2	16.5	0.00e+00	0	35	0	1212153856	72	4076
2026-01-01 08:28:24.28	47.69	50.04	-52.7	-54.1	16.5	0.00e+00	0	35	0	1215299584	71	4286
2026-01-01 08:28:25.27	47.05	50.04	-53.1	-54.5	16.3	0.00e+00	0	35	0	1218445312	71	4486
2026-01-01 08:28:26.26	46.42	50.04	-53.1	-54.6	16.3	0.00e+00	0	35	0	1221591040	71	4517
2026-01-01 08:28:27.25	45.79	50.04	-53.3	-54.8	16.2	0.00e+00	0	35	0	1224736768	71	4636
2026-01-01 08:28:28.25	45.16	50.03	-53.3	-54.8	16.2	0.00e+00	0	35	0	1227882496	71	4641
2026-01-01 08:28:29.25	44.52	50.01	-53.2	-54.7	16.3	0.00e+00	0	35	0	1231028224	71	4565
2026-01-01 08:28:30.24	43.89	49.99	-53.1	-54.5	16.3	0.00e+00	0	35	0	1234173952	71	4489
2026-01-01 08:28:31.24	43.26	49.97	-53.2	-54.7	16.2	0.00e+00	0	35	0	1237319680	71	4552
2026-01-01 08:28:32.23	42.63	49.95	-53.3	-54.9	16.1	0.00e+00	0	35	0	1240465408	71	4664
2026-01-01 08:28:33.23	42.00	49.92	-53.5	-55.1	16.0	0.00e+00	0	35	0	1243611136	72	4537
2026-01-01 08:28:34.22	41.37	49.89	-53.4	-54.9	16.1	0.00e+00	0	35	0	1246756864	72	4429
2026-01-01 08:28:35.21	40.75	49.85	-53.5	-55.1	16.0	0.00e+00	0	35	0	1249902592	72	4535
2026-01-01 08:28:36.20	40.13	49.81	-53.5	-55.0	16.1	0.00e+00	0	35	0	1253048320	72	4478
2026-01-01 08:28:37.20	39.50	49.77	-53.1	-54.6	16.3	0.00e+00	0	35	0	1256194048	72	4286
2026-01-01 08:28:38.18	38.89	49.72	-53.0	-54.5	16.4	0.00e+00	0	35	0	1259339776	72	4194
2026-01-01 08:28:39.17	38.27	49.67	-52.9	-54.4	16.4	0.00e+00	0	35	0	1262485504	72	4163
2026-01-01 08:28:40.17	37.65	49.62	-53.1	-54.6	16.2	0.00e+00	0	35	0	1264582656	72	4257
2026-01-01 08:28:41.17	37.04	49.56	-53.4	-55.0	16.1	0.00e+00	0	35	0	1267728384	72	4462
2026-01-01 08:28:42.17	36.42	49.50	-53.3	-54.8	16.2	0.00e+00	0	35	0	1270874112	72	4344
2026-01-01 08:28:43.16	35.81	49.44	-53.0	-54.4	16.3	0.00e+00	0	35	0	1274019840	72	4193
2026-01-01 08:28:44.16	35.20	49.37	-52.9	-54.4	16.4	0.00e+00	0	35	0	1277165568	72	4148
2026-01-01 08:28:45.14	34.61	49.30	-52.9	-54.3	16.3	0.00e+00	0	35	0	1280311296	72	4128
2026-01-01 08:28:46.13	34.01	49.23	-53.3	-54.8	16.1	0.00e+00	0	35	0	1283457024	72	4360
2026-01-01 08:28:47.13	33.41	49.15	-53.5	-55.1	16.0	0.00e+00	0	35	0	1286602752	72	4495
2026-01-01 08:28:48.11	32.82	49.07	-53.7	-55.3	15.9	0.00e+00	0	35	0	1289748480	72	4608
2026-01-01 08:28:49.11	32.22	48.99	-53.4	-55.0	16.1	0.00e+00	0	35	0	1292894208	72	4446
2026-01-01 08:28:50.09	31.64	48.90	-53.1	-54.6	16.3	0.00e+00	0	35	0	1296039936	72	4250
2026-01-01 08:28:51.09	31.06	48.81	-52.8	-54.2	16.4	0.00e+00	0	35	0	1299185664	72	4084
2026-01-01 08:28:52.08	30.48	48.72	-52.6	-54.0	16.5	0.00e+00	0	35	0	1302331392	71	4206
2026-01-01 08:28:53.07	29.90	48.62	-52.8	-54.2	16.4	0.00e+00	0	35	0	1305477120	71	4329
2026-01-01 08:28:54.07	29.32	48.52	-52.9	-54.3	16.4	0.00e+00	0	35	0	1308622848	71	4371
2026-01-01 08:28:55.06	28.75	48.42	-53.1	-54.5	16.3	0.00e+00	0	35	0	1311768576	71	4478
2026-01-01 08:28:56.05	28.19	48.32	-53.1	-54.5	16.3	0.00e+00	0	35	0	1314914304	71	4475
2026-01-01 08:28:57.04	27.63	48.21	-52.7	-54.1	16.5	0.00e+00	0	35	0	1318060032	71	4244
2026-01-01 08:28:58.04	27.06	48.10	-52.3	-53.6	16.7	0.00e+00	0	35	0	1321205760	71	4038
2026-01-01 08:28:59.04	26.51	47.99	-52.0	-53.3	16.8	0.00e+00	0	35	0	1324351488	70	4141
2026-01-01 08:29:00.03	25.96	47.88	-52.4	-53.8	16.7	0.00e+00	0	35	0	1327497216	70	4374
2026-01-01 08:29:01.02	25.41	47.76	-53.1	-54.6	16.3	0.00e+00	0	35	0	1330642944	71	4532
2026-01-01 08:29:02.02	24.87	47.64	-53.7	-55.3	15.9	0.00e+00	0	35	0	1332740096	72	4647
2026-01-01 08:29:03.01	24.33	47.52	-53.8	-55.4	15.7	0.00e+00	0	35	0	1335885824	72	4694
2026-01-01 08:29:04.00	23.80	47.39	-53.3	-54.8	16.1	0.00e+00	0	35	0	1339031552	72	4383
2026-01-01 08:29:05.00	23.27	47.26	-52.7	-54.1	16.5	0.00e+00	0	35	0	1342177280	71	4252
2026-01-01 08:29:05.99	22.74	47.13	-52.4	-53.8	16.7	0.00e+00	0	35	0	1345323008	71	4102
2026-01-01 08:29:06.98	22.22	47.00	-52.3	-53.6	16.7	0.00e+00	0	35	0	1348468736	71	4044
2026-01-01 08:29:07.97	21.71	46.87	-53.0	-54.5	16.3	0.00e+00	0	35	0	1351614464	71	4461
2026-01-01 08:29:08.97	21.19	46.73	-53.9	-55.5	15.9	0.00e+00	0	35	0	1354760192	72	4710
2026-01-01 08:29:09.97	20.68	46.59	-53.8	-55.4	15.8	0.00e+00	0	35	0	1357905920	73	4436
2026-01-01 08:29:10.96	20.18	46.46	-53.2	-54.6	16.1	0.00e+00	0	35	0	1361051648	73	4048
2026-01-01 08:29:11.95	19.68	46.31	-52.6	-54.0	16.5	0.00e+00	0	35	0	1364197376	71	4196
2026-01-01 08:29:12.95	19.19	46.17	-51.8	-53.1	16.9	0.00e+00	0	35	0	1367343104	70	4020
2026-01-01 08:29:13.95	18.69	46.02	-51.8	-53.1	16.9	0.00e+00	0	35	0	1370488832	70	4028
2026-01-01 08:29:14.93	18.22	45.88	-53.0	-54.4	16.3	0.00e+00	0	35	0	1373634560	71	4425
2026-01-01 08:29:15.93	17.73	45.73	-54.6	-56.4	15.2	0.00e+00	0	35	0	1376780288	74	4685
2026-01-01 08:29:16.93	17.25	45.58	-55.6	-57.6	14.5	0.00e+00	0	35	0	1379926016	76	4812
2026-01-01 08:29:17.91	16.79	45.43	-54.7	-56.5	15.0	0.00e+00	0	35	0	1383071744	76	4221
2026-01-01 08:29:18.91	16.32	45.27	-53.3	-54.8	15.9	0.00e+00	0	35	0	1386217472	73	4102
2026-01-01 08:29:19.90	15.86	45.12	-52.6	-53.9	16.5	0.00e+00	0	35	0	1389363200	71	4189
2026-01-01 08:29:20.89	15.40	44.96	-52.3	-53.7	16.6	0.00e+00	0	35	0	1392508928	71	4052
2026-01-01 08:29:21.89	14.95	44.80	-52.8	-54.1	16.4	0.00e+00	0	35	0	1395654656	71	4284
2026-01-01 08:29:22.87	14.51	44.64	-53.9	-55.5	15.8	0.00e+00	0	35	0	1398800384	73	4453
2026-01-01 08:29:23.88	14.05	44.48	-55.2	-57.2	14.8	0.00e+00	0	35	0	1401946112	75	4849
2026-01-01 08:29:24.88	13.61	44.32	-55.7	-57.8	14.5	0.00e+00	0	35	0	1405091840	76	4875
2026-01-01 08:29:25.88	13.17	44.15	-55.2	-57.1	14.8	0.00e+00	0	35	0	1408237568	76	4511
2026-01-01 08:29:26.87	12.75	43.99	-54.5	-56.3	15.2	0.00e+00	0	35	0	1411383296	75	4350
2026-01-01 08:29:27.86	12.32	43.82	-53.9	-55.4	15.8	0.00e+00	0	35	0	1413480448	74	4192
2026-01-01 08:29:28.85	11.90	43.66	-53.6	-55.1	15.9	0.00e+00	0	35	0	1416626176	73	4286
2026-01-01 08:29:29.84	11.49	43.49	-54.2	-55.8	15.6	0.00e+00	0	35	0	1419771904	73	4650
2026-01-01 08:29:30.84	11.07	43.32	-55.7	-57.8	14.5	0.00e+00	0	35	0	1422917632	76	4873
2026-01-01 08:29:31.83	10.66	43.15	-56.3	-58.7	13.9	0.00e+00	0	35	0	1426063360	77	5138
2026-01-01 08:29:32.82	10.26	42.98	-56.0	-58.3	14.2	0.00e+00	0	35	0	1429209088	77	4895
2026-01-01 08:29:33.81	9.86	42.81	-55.5	-57.6	14.6	0.00e+00	0	35	0	1432354816	77	4507
2026-01-01 08:29:34.80	9.47	42.64	-55.0	-56.9	15.0	0.00e+00	0	35	0	1435500544	76	4419
2026-01-01 08:29:35.79	9.08	42.47	-54.3	-56.0	15.5	0.00e+00	0	35	0	1438646272	75	4228
2026-01-01 08:29:36.78	8.69	42.30	-53.5	-55.0	16.0	0.00e+00	0	35	0	1441792000	73	4237
2026-01-01 08:29:37.77	8.31	42.12	-53.5	-55.0	16.0	0.00e+00	0	35	0	1444937728	73	4240
2026-01-01 08:29:38.77	7.93	41.95	-54.6	-56.3	15.2	0.00e+00	0	35	0	1448083456	74	4650
2026-01-01 08:29:39.77	7.56	41.77	-55.3	-57.3	14.6	0.00e+00	0	35	0	1451229184	75	4913
2026-01-01 08:29:40.76	7.19	41.60	-55.5	-57.6	14.6	0.00e+00	0	35	0	1454374912	76	4768
2026-01-01 08:29:41.75	6.82	41.42	-54.5	-56.2	15.2	0.00e+00	0	35	0	1457520640	75	4334
2026-01-01 08:29:42.74	6.46	41.25	-53.4	-54.9	15.8	0.00e+00	0	35	0	1460666368	73	4191
2026-01-01 08:29:43.74	6.10	41.07	-53.0	-54.5	16.2	0.00e+00	0	35	0	1463812096	72	4203
2026-01-01 08:29:44.73	5.75	40.89	-52.9	-54.3	16.4	0.00e+00	0	35	0	1466957824	72	4113
2026-01-01 08:29:45.72	5.40	40.71	-52.8	-54.2	16.4	0.00e+00	0	35	0	1470103552	71	4318
2026-01-01 08:29:46.71	5.05	40.54	-53.0	-54.5	16.3	0.00e+00	0	35	0	1473249280	71	4466
2026-01-01 08:29:47.70	4.71	40.36	-53.5	-55.1	16.0	0.00e+00	0	35	0	1476395008	72	4514
2026-01-01 08:29:48.69	4.37	40.18	-54.2	-55.9	15.5	0.00e+00	0	35	0	1479540736	73	4675
2026-01-01 08:29:49.68	4.04	40.00	-54.6	-56.4	15.3	0.00e+00	0	35	0	1482686464	74	4700
2026-01-01 08:29:50.67	3.71	39.82	-54.6	-56.4	15.3	0.00e+00	0	35	0	1485832192	74	4661
2026-01-01 08:29:51.66	3.38	39.65	-54.1	-55.8	15.6	0.00e+00	0	35	0	1487929344	74	4358
2026-01-01 08:29:52.66	3.05	39.46	-53.6	-55.1	15.9	0.00e+00	0	35	0	1491075072	73	4277
2026-01-01 08:29:53.65	2.73	39.29	-53.0	-54.5	16.3	0.00e+00	0	35	0	1494220800	72	4200
2026-01-01 08:29:54.64	2.42	39.11	-52.5	-53.9	16.6	0.00e+00	0	35	0	1497366528	71	4161
2026-01-01 08:29:55.63	2.11	38.93	-52.1	-53.4	16.8	0.00e+00	0	35	0	1500512256	70	4148
2026-01-01 08:29:56.61	1.80	38.75	-52.5	-53.8	16.6	0.00e+00	0	35	0	1503657984	70	4379
2026-01-01 08:29:57.60	1.49	38.57	-52.9	-54.3	16.4	0.00e+00	0	35	0	1506803712	70	4629
2026-01-01 08:29:58.58	1.20	38.39	-53.0	-54.5	16.4	0.00e+00	0	35	0	1509949440	71	4474
2026-01-01 08:29:59.58	0.89	38.21	-52.8	-54.2	16.5	0.00e+00	0	35	0	1513095168	71	4338
2026-01-01 08:30:00.57	0.60	38.04	-52.6	-54.0	16.6	0.00e+00	0	35	0	1516240896	71	4218
2026-01-01 08:30:01.57	0.30	37.85	-52.7	-54.1	16.5	0.00e+00	0	35	0	1519386624	71	4251
2026-01-01 08:30:02.56	0.01	37.68	-52.3	-53.6	16.8	0.00e+00	0	35	0	1522532352	71	4027
2026-01-01 08:30:03.56	359.72	37.50	-52.1	-53.5	16.8	0.00e+00	0	35	0	1525678080	70	4206
2026-01-01 08:30:04.55	359.44	37.32	-52.1	-53.5	16.8	0.00e+00	0	35	0	1528823808	70	4195
2026-01-01 08:30:05.54	359.16	37.14	-52.1	-53.4	16.9	0.00e+00	0	35	0	1531969536	70	4170
2026-01-01 08:30:06.53	358.89	36.96	-51.9	-53.2	16.9	0.00e+00	0	35	0	1535115264	70	4079
2026-01-01 08:30:07.51	358.61	36.78	-52.0	-53.3	16.8	0.00e+00	0	35	0	1538260992	70	4140
2026-01-01 08:30:08.51	358.34	36.61	-52.1	-53.5	16.8	0.00e+00	0	35	0	1541406720	70	4198
2026-01-01 08:30:09.51	358.07	36.43	-52.4	-53.8	16.7	0.00e+00	0	35	0	1544552448	70	4354
2026-01-01 08:30:10.50	357.81	36.25	-52.4	-53.7	16.7	0.00e+00	0	35	0	1547698176	70	4329
2026-01-01 08:30:11.50	357.54	36.07	-52.3	-53.6	16.7	0.00e+00	0	35	0	1550843904	70	4276
2026-01-01 08:30:12.49	357.28	35.89	-51.9	-53.2	16.9	0.00e+00	0	35	0	1553989632	70	4082
2026-01-01 08:30:13.48	357.03	35.72	-51.3	-52.5	17.2	0.00e+00	0	35	0	1557135360	69	3976
2026-01-01 08:30:14.47	356.77	35.54	-51.2	-52.4	17.2	0.00e+00	0	35	0	1560281088	69	3939
2026-01-01 08:30:15.46	356.52	35.37	-51.5	-52.7	17.1	0.00e+00	0	35	0	1562378240	69	4093
2026-01-01 08:30:16.45	356.28	35.19	-51.8	-53.1	16.9	0.00e+00	0	35	0	1565523968	69	4284
2026-01-01 08:30:17.44	356.03	35.02	-51.7	-53.0	17.0	0.00e+00	0	35	0	1568669696	69	4195
2026-01-01 08:30:18.43	355.79	34.84	-51.4	-52.6	17.2	0.00e+00	0	35	0	1571815424	69	4042
2026-01-01 08:30:19.43	355.55	34.67	-51.2	-52.4	17.2	0.00e+00	0	35	0	1574961152	68	4160
2026-01-01 08:30:20.42	355.31	34.49	-51.0	-52.1	17.3	0.00e+00	0	35	0	1578106880	68	4048
2026-01-01 08:30:21.42	355.07	34.32	-51.1	-52.3	17.2	0.00e+00	0	35	0	1581252608	68	4123
2026-01-01 08:30:22.41	354.84	34.14	-51.2	-52.5	17.2	0.00e+00	0	35	0	1584398336	68	4199
2026-01-01 08:30:23.40	354.61	33.97	-51.4	-52.7	17.1	0.00e+00	0	35	0	1587544064	68	4303
2026-01-01 08:30:24.39	354.38	33.80	-51.6	-52.9	17.0	0.00e+00	0	35	0	1590689792	68	4414
2026-01-01 08:30:25.38	354.16	33.63	-51.8	-53.1	16.9	0.00e+00	0	35	0	1593835520	68	4519
2026-01-01 08:30:26.38	353.93	33.45	-51.8	-53.1	16.8	0.00e+00	0	35	0	1596981248	68	4505
2026-01-01 08:30:27.37	353.71	33.28	-51.8	-53.1	16.8	0.00e+00	0	35	0	1600126976	68	4523
2026-01-01 08:30:28.38	353.49	33.11	-51.6	-52.8	17.0	0.00e+00	0	35	0	1603272704	68	4383
2026-01-01 08:30:29.37	353.28	32.94	-51.5	-52.8	17.0	0.00e+00	0	35	0	1606418432	68	4366
2026-01-01 08:30:30.37	353.06	32.77	-51.6	-52.9	17.0	0.00e+00	0	35	0	1609564160	68	4394
2026-01-01 08:30:31.36	352.85	32.60	-51.7	-53.0	17.0	0.00e+00	0	35	0	1612709888	68	4456
2026-01-01 08:30:32.36	352.64	32.43	-51.8	-53.1	16.9	0.00e+00	0	35	0	1615855616	68	4508
2026-01-01 08:30:33.35	352.43	32.26	-51.8	-53.1	16.9	0.00e+00	0	35	0	1619001344	68	4531
2026-01-01 08:30:34.34	352.23	32.10	-51.7	-53.0	16.9	0.00e+00	0	35	0	1622147072	68	4485
2026-01-01 08:30:35.33	352.03	31.93	-51.5	-52.7	17.0	0.00e+00	0	35	0	1625292800	68	4326
2026-01-01 08:30:36.32	351.83	31.76	-51.3	-52.5	17.1	0.00e+00	0	35	0	1628438528	68	4239
2026-01-01 08:30:37.32	351.63	31.60	-51.2	-52.5	17.2	0.00e+00	0	35	0	1630535680	68	4205
2026-01-01 08:30:38.31	351.43	31.43	-51.3	-52.5	17.1	0.00e+00	0	35	0	1633681408	68	4208
2026-01-01 08:30:39.31	351.23	31.26	-51.3	-52.6	17.1	0.00e+00	0	35	0	1636827136	68	4261
2026-01-01 08:30:40.29	351.04	31.10	-51.3	-52.5	17.1	0.00e+00	0	35	0	1639972864	68	4238
2026-01-01 08:30:41.29	350.85	30.94	-51.3	-52.5	17.1	0.00e+00	0	35	0	1643118592	68	4235
2026-01-01 08:30:42.28	350.66	30.77	-51.3	-52.5	17.1	0.00e+00	0	35	0	1646264320	68	4229
2026-01-01 08:30:43.28	350.48	30.61	-51.3	-52.6	17.1	0.00e+00	0	35	0	1649410048	68	4252
2026-01-01 08:30:44.27	350.29	30.45	-51.3	-52.6	17.1	0.00e+00	0	35	0	1652555776	68	4266
2026-01-01 08:30:45.27	350.11	30.29	-51.5	-52.7	17.1	0.00e+00	0	35	0	1655701504	68	4333
2026-01-01 08:30:46.26	349.93	30.13	-51.2	-52.5	17.2	0.00e+00	0	35	0	1658847232	68	4209
2026-01-01 08:30:47.25	349.75	29.97	-51.1	-52.4	17.2	0.00e+00	0	35	0	1661992960	68	4147
2026-01-01 08:30:48.24	349.57	29.81	-51.1	-52.3	17.2	0.00e+00	0	35	0	1665138688	68	4119
2026-01-01 08:30:49.23	349.40	29.65	-51.1	-52.3	17.2	0.00e+00	0	35	0	1668284416	68	4143
2026-01-01 08:30:50.22	349.22	29.49	-51.2	-52.4	17.2	0.00e+00	0	35	0	1671430144	68	4188
2026-01-01 08:30:51.21	349.05	29.33	-51.2	-52.5	17.1	0.00e+00	0	35	0	1674575872	68	4210
2026-01-01 08:30:52.20	348.88	29.17	-51.3	-52.5	17.1	0.00e+00	0	35	0	1677721600	68	4241
2026-01-01 08:30:53.19	348.71	29.02	-51.3	-52.5	17.1	0.00e+00	0	35	0	1680867328	68	4221
2026-01-01 08:30:54.19	348.55	28.86	-51.2	-52.4	17.2	0.00e+00	0	35	0	1684013056	68	4182
2026-01-01 08:30:55.18	348.38	28.71	-51.1	-52.4	17.2	0.00e+00	0	35	0	1687158784	68	4158
2026-01-01 08:30:56.17	348.22	28.55	-51.0	-52.3	17.2	0.00e+00	0	35	0	1690304512	68	4104
2026-01-01 08:30:57.16	348.06	28.40	-51.0	-52.3	17.2	0.00e+00	0	35	0	1693450240	68	4105
2026-01-01 08:30:58.16	347.89	28.24	-51.0	-52.2	17.2	0.00e+00	0	35	0	1696595968	68	4097
2026-01-01 08:30:59.15	347.74	28.09	-51.1	-52.3	17.2	0.00e+00	0	35	0	1699741696	68	4117
2026-01-01 08:31:00.14	347.58	27.94	-51.2	-52.4	17.2	0.00e+00	0	35	0	1702887424	68	4170
2026-01-01 08:31:01.14	347.42	27.78	-51.0	-52.2	17.3	0.00e+00	0	35	0	1706033152	68	4068
2026-01-01 08:31:02.13	347.27	27.63	-50.9	-52.1	17.3	0.00e+00	0	35	0	1709178880	68	4019
2026-01-01 08:31:03.13	347.11	27.48	-50.9	-52.1	17.3	0.00e+00	0	35	0	1711276032	68	4029
2026-01-01 08:31:04.12	346.96	27.33	-50.9	-52.2	17.3	0.00e+00	0	35	0	1714421760	68	4056
2026-01-01 08:31:05.11	346.81	27.18	-50.8	-52.0	17.3	0.00e+00	0	35	0	1717567488	68	3963
2026-01-01 08:31:06.11	346.66	27.03	-50.8	-52.0	17.3	0.00e+00	0	35	0	1720713216	68	3960
2026-01-01 08:31:07.11	346.52	26.88	-50.4	-51.6	17.4	0.00e+00	0	35	0	1723858944	67	4022
2026-01-01 08:31:08.10	346.37	26.73	-50.4	-51.6	17.4	0.00e+00	0	35	0	1727004672	67	4019
2026-01-01 08:31:09.10	346.23	26.58	-50.4	-51.6	17.4	0.00e+00	0	35	0	1730150400	67	4006
2026-01-01 08:31:10.10	346.08	26.44	-50.1	-51.3	17.5	0.00e+00	0	35	0	1733296128	66	4110
2026-01-01 08:31:11.10	345.94	26.29	-50.0	-51.2	17.5	0.00e+00	0	35	0	1736441856	66	4061
2026-01-01 08:31:12.09	345.80	26.14	-50.1	-51.2	17.5	0.00e+00	0	35	0	1739587584	66	4080
2026-01-01 08:31:13.09	345.66	26.00	-50.1	-51.2	17.5	0.00e+00	0	35	0	1742733312	66	4073
2026-01-01 08:31:14.08	345.52	25.85	-50.1	-51.3	17.5	0.00e+00	0	35	0	1745879040	66	4099
2026-01-01 08:31:15.07	345.39	25.71	-50.0	-51.2	17.5	0.00e+00	0	35	0	1749024768	66	4064
2026-01-01 08:31:16.06	345.25	25.57	-50.2	-51.3	17.5	0.00e+00	0	35	0	1752170496	66	4130
2026-01-01 08:31:17.06	345.12	25.42	-50.2	-51.4	17.4	0.00e+00	0	35	0	1755316224	66	4156
2026-01-01 08:31:18.05	344.98	25.28	-50.3	-51.4	17.4	0.00e+00	0	35	0	1758461952	66	4180
2026-01-01 08:31:19.04	344.85	25.14	-50.3	-51.4	17.4	0.00e+00	0	35	0	1761607680	66	4190
2026-01-01 08:31:20.04	344.72	25.00	-50.3	-51.4	17.4	0.00e+00	0	35	0	1764753408	66	4182
2026-01-01 08:31:21.03	344.59	24.86	-50.4	-51.6	17.3	0.00e+00	0	35	0	1767899136	66	4271
2026-01-01 08:31:22.01	344.47	24.72	-50.5	-51.7	17.3	0.00e+00	0	35	0	1771044864	66	4299
2026-01-01 08:31:23.01	344.34	24.58	-50.5	-51.7	17.3	0.00e+00	0	35	0	1774190592	66	4299
2026-01-01 08:31:24.00	344.21	24.44	-50.6	-51.8	17.3	0.00e+00	0	35	0	1777336320	66	4357
2026-01-01 08:31:25.00	344.09	24.31	-50.7	-51.9	17.3	0.00e+00	0	35	0	1780482048	66	4400
2026-01-01 08:31:26.00	343.96	24.17	-50.8	-52.0	17.2	0.00e+00	0	35	0	1783627776	66	4454
2026-01-01 08:31:26.99	343.84	24.03	-50.8	-52.0	17.2	0.00e+00	0	35	0	1786773504	66	4489
2026-01-01 08:31:27.99	343.72	23.89	-50.8	-52.0	17.2	0.00e+00	0	35	0	1789919232	66	4487
2026-01-01 08:31:28.98	343.60	23.76	-50.9	-52.2	17.2	0.00e+00	0	35	0	1793064960	66	4556
2026-01-01 08:31:29.97	343.48	23.62	-50.9	-52.1	17.2	0.00e+00	0	35	0	1796210688	66	4544
2026-01-01 08:31:30.96	343.36	23.49	-50.9	-52.2	17.1	0.00e+00	0	35	0	1798307840	67	4308
2026-01-01 08:31:31.95	343.25	23.36	-50.9	-52.1	17.1	0.00e+00	0	35	0	1801453568	67	4285
2026-01-01 08:31:32.94	343.13	23.22	-50.9	-52.2	17.1	0.00e+00	0	35	0	1804599296	67	4313
2026-01-01 08:31:33.93	343.02	23.09	-51.0	-52.3	17.1	0.00e+00	0	35	0	1807745024	67	4368
2026-01-01 08:31:34.93	342.90	22.96	-50.9	-52.2	17.1	0.00e+00	0	35	0	1810890752	67	4303
2026-01-01 08:31:35.92	342.79	22.83	-50.9	-52.1	17.1	0.00e+00	0	35	0	1814036480	67	4260
2026-01-01 08:31:36.91	342.68	22.70	-50.8	-52.0	17.2	0.00e+00	0	35	0	1817182208	67	4240
2026-01-01 08:31:37.90	342.57	22.57	-50.6	-51.8	17.2	0.00e+00	0	35	0	1820327936	67	4115
2026-01-01 08:31:38.90	342.46	22.43	-50.5	-51.7	17.3	0.00e+00	0	35	0	1823473664	67	4088
2026-01-01 08:31:39.90	342.35	22.30	-50.4	-51.6	17.3	0.00e+00	0	35	0	1826619392	67	4032
2026-01-01 08:31:40.89	342.24	22.17	-50.4	-51.6	17.3	0.00e+00	0	35	0	1829765120	67	4028
2026-01-01 08:31:41.89	342.13	22.05	-50.5	-51.7	17.3	0.00e+00	0	35	0	1832910848	67	4052
2026-01-01 08:31:42.88	342.02	21.92	-50.3	-51.5	17.4	0.00e+00	0	35	0	1836056576	67	3994
2026-01-01 08:31:43.87	341.92	21.79	-50.4	-51.6	17.3	0.00e+00	0	35	0	1839202304	67	4020
2026-01-01 08:31:44.86	341.82	21.66	-50.4	-51.6	17.3	0.00e+00	0	35	0	1842348032	67	4021
2026-01-01 08:31:45.85	341.71	21.54	-50.4	-51.6	17.4	0.00e+00	0	35	0	1845493760	67	4010
2026-01-01 08:31:46.84	341.61	21.41	-50.4	-51.6	17.3	0.00e+00	0	35	0	1848639488	67	4033
2026-01-01 08:31:47.83	341.51	21.29	-50.4	-51.6	17.3	0.00e+00	0	35	0	1851785216	67	4030
2026-01-01 08:31:48.82	341.41	21.16	-50.4	-51.6	17.3	0.00e+00	0	35	0	1854930944	67	4006
2026-01-01 08:31:49.82	341.31	21.04	-50.4	-51.6	17.3	0.00e+00	0	35	0	1858076672	67	4012
2026-01-01 08:31:50.81	341.21	20.92	-50.5	-51.7	17.3	0.00e+00	0	35	0	1861222400	67	4074
2026-01-01 08:31:51.81	341.11	20.79	-50.5	-51.7	17.3	0.00e+00	0	35	0	1863319552	67	4079
2026-01-01 08:31:52.79	341.01	20.67	-50.5	-51.7	17.3	0.00e+00	0	35	0	1866465280	67	4078
2026-01-01 08:31:53.78	340.91	20.55	-50.5	-51.7	17.3	0.00e+00	0	35	0	1869611008	67	4065
2026-01-01 08:31:54.77	340.82	20.43	-50.5	-51.7	17.2	0.00e+00	0	35	0	1872756736	67	4090
2026-01-01 08:31:55.76	340.72	20.31	-50.5	-51.8	17.3	0.00e+00	0	35	0	1875902464	67	4103
2026-01-01 08:31:56.74	340.63	20.19	-50.5	-51.8	17.2	0.00e+00	0	34	0	1879048192	67	4101
2026-01-01 08:31:57.73	340.54	20.07	-50.5	-51.7	17.2	0.00e+00	0	35	0	1882193920	67	4066
2026-01-01 08:31:58.72	340.44	19.95	-50.4	-51.6	17.3	0.00e+00	0	35	0	1885339648	67	4035
2026-01-01 08:31:59.72	340.35	19.83	-50.5	-51.8	17.2	0.00e+00	0	35	0	1888485376	67	4101
2026-01-01 08:32:00.71	340.26	19.71	-50.4	-51.6	17.2	0.00e+00	0	35	0	1891631104	67	4046
2026-01-01 08:32:01.71	340.17	19.59	-50.4	-51.6	17.2	0.00e+00	0	35	0	1894776832	67	4039
2026-01-01 08:32:02.70	340.08	19.47	-50.4	-51.6	17.3	0.00e+00	0	35	0	1897922560	67	4029
2026-01-01 08:32:03.70	339.99	19.35	-50.4	-51.6	17.3	0.00e+00	0	35	0	1901068288	67	4046
2026-01-01 08:32:04.69	339.90	19.24	-50.3	-51.5	17.3	0.00e+00	0	35	0	1904214016	67	3990
2026-01-01 08:32:05.68	339.81	19.12	-50.4	-51.5	17.3	0.00e+00	0	35	0	1907359744	67	3998
2026-01-01 08:32:06.67	339.72	19.01	-50.3	-51.4	17.3	0.00e+00	0	35	0	1910505472	67	3954
2026-01-01 08:32:07.65	339.64	18.89	-50.3	-51.5	17.3	0.00e+00	0	35	0	1913651200	67	3966
2026-01-01 08:32:08.64	339.55	18.78	-50.3	-51.5	17.3	0.00e+00	0	35	0	1916796928	67	3978
2026-01-01 08:32:09.63	339.47	18.66	-50.4	-51.5	17.3	0.00e+00	0	35	0	1919942656	67	3998
2026-01-01 08:32:10.63	339.38	18.55	-50.4	-51.6	17.3	0.00e+00	0	35	0	1923088384	67	4006
2026-01-01 08:32:11.63	339.30	18.43	-50.3	-51.5	17.3	0.00e+00	0	35	0	1926234112	67	3964
2026-01-01 08:32:12.61	339.22	18.32	-50.3	-51.5	17.3	0.00e+00	0	35	0	1928331264	67	3979
2026-01-01 08:32:13.60	339.13	18.21	-50.4	-51.6	17.3	0.00e+00	0	35	0	1931476992	67	4013
2026-01-01 08:32:14.61	339.05	18.10	-50.4	-51.6	17.3	0.00e+00	0	35	0	1934622720	67	4019
2026-01-01 08:32:15.60	338.97	17.98	-50.4	-51.6	17.3	0.00e+00	0	35	0	1937768448	67	4035
2026-01-01 08:32:16.60	338.89	17.87	-50.5	-51.7	17.2	0.00e+00	0	35	0	1940914176	67	4055
2026-01-01 08:32:17.60	338.81	17.76	-50.6	-51.8	17.2	0.00e+00	0	35	0	1944059904	67	4110
2026-01-01 08:32:18.60	338.73	17.65	-50.6	-51.8	17.2	0.00e+00	0	35	0	1947205632	67	4125
2026-01-01 08:32:19.59	338.65	17.54	-50.6	-51.8	17.2	0.00e+00	0	35	0	1950351360	67	4129
2026-01-01 08:32:20.58	338.57	17.43	-50.7	-51.9	17.2	0.00e+00	0	35	0	1953497088	67	4163
2026-01-01 08:32:21.57	338.49	17.32	-50.7	-51.9	17.1	0.00e+00	0	35	0	1956642816	67	4175
2026-01-01 08:32:22.56	338.42	17.21	-50.8	-52.0	17.2	0.00e+00	0	35	0	1959788544	67	4213
2026-01-01 08:32:23.56	338.34	17.10	-50.9	-52.1	17.1	0.00e+00	0	35	0	1962934272	67	4268
2026-01-01 08:32:24.55	338.26	17.00	-50.9	-52.2	17.1	0.00e+00	0	35	0	1966080000	67	4309
2026-01-01 08:32:25.54	338.19	16.89	-51.0	-52.2	17.1	0.00e+00	0	35	0	1969225728	67	4319
2026-01-01 08:32:26.54	338.11	16.78	-51.1	-52.4	17.0	0.00e+00	0	35	0	1972371456	67	4421
2026-01-01 08:32:27.53	338.04	16.68	-51.1	-52.4	17.0	0.00e+00	0	35	0	1975517184	67	4422
2026-01-01 08:32:28.51	337.97	16.57	-51.1	-52.4	17.0	0.00e+00	0	35	0	1978662912	67	4428
2026-01-01 08:32:29.51	337.89	16.46	-51.3	-52.6	16.9	0.00e+00	0	35	0	1981808640	67	4494
2026-01-01 08:32:30.51	337.82	16.36	-51.3	-52.6	16.9	0.00e+00	0	35	0	1984954368	67	4515
2026-01-01 08:32:31.50	337.75	16.25	-51.4	-52.7	16.8	0.00e+00	0	35	0	1988100096	67	4563
2026-01-01 08:32:32.50	337.67	16.15	-51.6	-52.9	16.9	0.00e+00	0	35	0	1991245824	68	4401
2026-01-01 08:32:33.49	337.60	16.04	-51.5	-52.8	16.9	0.00e+00	0	35	0	1994391552	68	4373
2026-01-01 08:32:34.49	337.53	15.94	-51.6	-52.9	16.9	0.00e+00	0	35	0	1997537280	68	4422
2026-01-01 08:32:35.47	337.46	15.84	-51.6	-53.0	16.9	0.00e+00	0	35	0	2000683008	68	4445
2026-01-01 08:32:36.46	337.39	15.73	-51.6	-52.9	16.9	0.00e+00	0	35	0	2003828736	68	4436
2026-01-01 08:32:37.45	337.33	15.63	-51.7	-53.0	16.8	0.00e+00	0	35	0	2006974464	68	4465
2026-01-01 08:32:38.45	337.26	15.53	-51.6	-52.9	16.8	0.00e+00	0	35	0	2010120192	68	4430
2026-01-01 08:32:39.44	337.19	15.43	-51.6	-52.9	16.8	0.00e+00	0	35	0	2012217344	68	4434
2026-01-01 08:32:40.44	337.12	15.33	-51.5	-52.9	16.8	0.00e+00	0	35	0	2015363072	68	4400
2026-01-01 08:32:41.43	337.05	15.22	-51.5	-52.8	16.9	0.00e+00	0	35	0	2018508800	68	4358
2026-01-01 08:32:42.43	336.99	15.12	-51.5	-52.8	16.9	0.00e+00	0	35	0	2021654528	68	4368
2026-01-01 08:32:43.43	336.92	15.02	-51.5	-52.8	16.9	0.00e+00	0	35	0	2024800256	68	4368
2026-01-01 08:32:44.42	336.85	14.92	-51.5	-52.8	16.9	0.00e+00	0	35	0	2027945984	68	4358
