passes_logs/2026/01/01/R3.2S_Murmansk/R3.2S_Murmansk__20260101_211612_KANOPUS-V-IK_rec.log

#Pass ID: 20260101_211612_KANOPUS-V-IK
#Satellite: KANOPUS-V-IK
#Configuration: KANOPUS-V_8128
#almurnet v.1.7.20251203
#Start time: 2026-01-01 21:16:13

#Version: 2.2.20231116
#Station: R3.2S_Murmansk
#Location: 33.079688 lon 68.888172 lat
#TLE: 1 42825U 17042A   26001.21266440  .00005755  00000+0  24506-3 0  9990
#TLE: 2 42825  97.3692 269.9908 0001826  86.2004 273.9442 15.23363314469954

#Time	Az	El	Level	Level2	SNR	BER	BlckErr	Temp	State	Recorded	gain1	gain2
2026-01-01 21:16:13.46	21.43	2.10	-59.1	-69.8	3.8	7.44e-01	0	32	0	0	86	12865
2026-01-01 21:16:14.44	21.48	2.16	-59.1	-69.8	3.8	7.46e-01	0	32	104	0	86	12871
2026-01-01 21:16:15.41	21.54	2.23	-59.1	-69.8	3.8	7.46e-01	0	32	104	0	86	12859
2026-01-01 21:16:16.38	21.59	2.29	-59.1	-69.8	3.8	7.46e-01	0	32	104	0	86	12884
2026-01-01 21:16:17.35	21.64	2.36	-59.1	-69.8	3.8	7.45e-01	0	32	104	0	86	12815
2026-01-01 21:16:18.32	21.69	2.42	-59.1	-69.7	3.8	7.47e-01	0	32	104	0	86	12783
2026-01-01 21:16:19.30	21.75	2.49	-59.1	-69.8	3.8	7.44e-01	0	32	104	0	86	12813
2026-01-01 21:16:20.27	21.80	2.56	-59.1	-69.8	3.8	7.46e-01	0	32	104	0	86	12824
2026-01-01 21:16:21.24	21.86	2.62	-59.1	-69.8	3.8	7.46e-01	0	32	104	0	86	12853
2026-01-01 21:16:22.21	21.91	2.69	-59.1	-69.8	3.8	7.46e-01	0	32	104	0	86	12839
2026-01-01 21:16:23.18	21.97	2.76	-59.1	-69.8	3.8	7.46e-01	0	32	104	0	86	12835
2026-01-01 21:16:24.15	22.02	2.82	-59.1	-69.8	3.8	7.46e-01	0	32	104	0	86	12845
2026-01-01 21:16:25.13	22.08	2.89	-59.1	-69.7	3.8	7.46e-01	0	32	104	0	86	12804
2026-01-01 21:16:26.10	22.13	2.96	-59.1	-69.8	3.8	7.44e-01	0	32	104	0	86	12869
2026-01-01 21:16:27.08	22.19	3.03	-59.1	-69.7	3.8	7.44e-01	0	32	104	0	86	12803
2026-01-01 21:16:28.05	22.25	3.10	-59.1	-69.8	3.8	7.45e-01	0	32	104	0	86	12893
2026-01-01 21:16:29.02	22.30	3.16	-59.1	-69.7	3.8	7.46e-01	0	32	104	0	86	12794
2026-01-01 21:16:30.00	22.36	3.23	-59.1	-69.8	3.8	7.45e-01	0	32	104	0	86	12851
2026-01-01 21:16:30.97	22.42	3.30	-59.1	-69.7	3.8	7.46e-01	0	32	104	0	86	12797
2026-01-01 21:16:31.95	22.47	3.37	-59.1	-69.8	3.8	7.46e-01	0	32	104	0	86	12827
2026-01-01 21:16:32.92	22.53	3.44	-59.1	-69.8	3.8	7.45e-01	0	32	104	0	86	12835
2026-01-01 21:16:33.89	22.59	3.51	-59.1	-69.8	3.8	7.47e-01	0	32	104	0	86	12834
2026-01-01 21:16:34.87	22.65	3.58	-59.1	-69.7	3.8	7.47e-01	0	32	104	0	86	12800
2026-01-01 21:16:35.85	22.71	3.65	-59.1	-69.8	3.8	7.46e-01	0	32	104	0	86	12837
2026-01-01 21:16:36.82	22.77	3.72	-59.1	-69.8	3.8	7.44e-01	0	32	104	0	86	12838
2026-01-01 21:16:37.79	22.83	3.79	-59.1	-69.8	3.8	7.47e-01	0	32	104	0	86	12828
2026-01-01 21:16:38.76	22.89	3.86	-59.1	-69.8	3.8	7.47e-01	0	32	104	0	86	12831
2026-01-01 21:16:39.74	22.95	3.93	-59.0	-69.8	3.8	7.45e-01	0	32	104	0	86	12841
2026-01-01 21:16:40.70	23.01	4.00	-59.1	-69.8	3.8	7.45e-01	0	32	104	0	86	12851
2026-01-01 21:16:41.67	23.07	4.07	-59.1	-69.7	3.8	7.45e-01	0	32	104	0	86	12810
2026-01-01 21:16:42.64	23.13	4.14	-59.1	-69.7	3.8	7.46e-01	0	32	104	0	86	12800
2026-01-01 21:16:43.62	23.19	4.21	-59.1	-69.8	3.8	7.45e-01	0	32	104	0	86	12831
2026-01-01 21:16:44.58	23.25	4.28	-59.1	-69.7	3.8	7.46e-01	0	32	104	0	86	12801
2026-01-01 21:16:45.55	23.32	4.36	-59.1	-69.8	3.8	7.45e-01	0	32	104	0	86	12844
2026-01-01 21:16:46.52	23.38	4.43	-59.1	-69.8	3.8	7.46e-01	0	32	104	0	86	12812
2026-01-01 21:16:47.49	23.44	4.50	-59.1	-69.7	3.8	7.46e-01	0	32	104	0	86	12794
2026-01-01 21:16:48.46	23.50	4.57	-59.1	-69.7	3.8	7.45e-01	0	32	104	0	86	12789
2026-01-01 21:16:49.43	23.57	4.64	-59.0	-69.8	3.8	7.46e-01	0	32	104	0	86	12827
2026-01-01 21:16:50.39	23.63	4.72	-59.0	-69.8	3.8	7.45e-01	0	32	104	0	86	12846
2026-01-01 21:16:51.38	23.70	4.79	-59.1	-69.7	3.8	7.45e-01	0	33	104	0	86	12798
2026-01-01 21:16:52.35	23.76	4.87	-59.0	-69.7	3.8	7.45e-01	0	33	104	0	86	12800
2026-01-01 21:16:53.33	23.83	4.94	-59.1	-69.8	3.8	7.43e-01	0	33	104	0	86	12838
2026-01-01 21:16:54.30	23.89	5.01	-59.1	-69.7	3.8	7.46e-01	0	32	104	0	86	12807
2026-01-01 21:16:55.27	23.96	5.09	-59.1	-69.8	3.8	7.44e-01	0	33	104	0	86	12865
2026-01-01 21:16:56.24	24.03	5.16	-59.3	-70.0	3.8	7.45e-01	0	32	104	0	86	13131
2026-01-01 21:16:57.21	24.09	5.24	-59.0	-69.7	3.8	7.45e-01	0	32	104	0	86	12747
2026-01-01 21:16:58.18	24.16	5.31	-59.2	-69.9	3.8	7.46e-01	0	32	104	0	86	13044
2026-01-01 21:16:59.15	24.23	5.39	-59.2	-69.9	3.8	7.45e-01	0	33	104	0	86	13023
2026-01-01 21:17:00.12	24.30	5.46	-59.0	-69.7	3.8	7.46e-01	0	33	104	0	86	12769
2026-01-01 21:17:01.09	24.36	5.54	-59.0	-69.7	3.8	7.45e-01	0	33	104	0	86	12669
2026-01-01 21:17:02.07	24.43	5.62	-59.2	-69.9	3.8	7.45e-01	0	33	104	0	86	13081
2026-01-01 21:17:03.04	24.50	5.69	-59.2	-69.9	3.8	7.47e-01	0	33	104	0	86	13042
2026-01-01 21:17:04.01	24.57	5.77	-59.1	-69.7	3.8	7.46e-01	0	33	104	0	86	12794
2026-01-01 21:17:04.99	24.64	5.85	-59.0	-69.7	3.8	7.45e-01	0	33	104	0	86	12754
2026-01-01 21:17:05.96	24.72	5.92	-59.3	-70.0	3.8	7.45e-01	0	33	104	0	86	13153
2026-01-01 21:17:06.94	24.79	6.00	-59.2	-70.0	3.8	7.46e-01	0	33	104	0	86	13119
2026-01-01 21:17:07.91	24.86	6.08	-59.1	-69.8	3.8	7.45e-01	0	33	104	0	86	12909
2026-01-01 21:17:08.88	24.93	6.16	-59.1	-69.8	3.8	7.47e-01	0	33	104	0	86	12869
2026-01-01 21:17:09.85	25.00	6.23	-59.3	-70.0	3.8	7.46e-01	0	33	104	0	86	13138
2026-01-01 21:17:10.82	25.08	6.31	-59.3	-70.0	3.8	7.47e-01	0	33	104	0	86	13121
2026-01-01 21:17:11.79	25.15	6.39	-59.2	-69.9	3.8	7.46e-01	0	33	104	0	86	13007
2026-01-01 21:17:12.77	25.22	6.47	-59.1	-69.8	3.8	7.45e-01	0	33	104	0	86	12937
2026-01-01 21:17:13.75	25.30	6.55	-59.3	-70.0	3.8	7.45e-01	0	33	104	0	86	13156
2026-01-01 21:17:14.72	25.37	6.63	-59.3	-70.0	3.8	7.45e-01	0	33	104	0	86	13225
2026-01-01 21:17:15.69	25.45	6.71	-59.2	-69.9	3.8	7.45e-01	0	33	104	0	86	13008
2026-01-01 21:17:16.67	25.53	6.79	-59.2	-69.9	3.8	7.46e-01	0	33	104	0	86	13063
2026-01-01 21:17:17.64	25.60	6.87	-59.3	-70.0	3.8	7.44e-01	0	33	104	0	86	13137
2026-01-01 21:17:18.61	25.68	6.95	-59.3	-70.0	3.8	7.45e-01	0	33	104	0	86	13187
2026-01-01 21:17:19.58	25.76	7.04	-59.3	-70.0	3.8	7.46e-01	0	33	104	0	86	13147
2026-01-01 21:17:20.56	25.84	7.12	-59.2	-69.9	3.8	7.46e-01	0	33	104	0	86	13019
2026-01-01 21:17:21.53	25.91	7.20	-59.3	-70.0	3.8	7.46e-01	0	33	104	0	86	13175
2026-01-01 21:17:22.50	25.99	7.28	-59.4	-70.1	3.8	7.45e-01	0	33	104	0	86	13345
2026-01-01 21:17:23.48	26.07	7.37	-59.3	-70.0	3.8	7.46e-01	0	33	104	0	86	13235
2026-01-01 21:17:24.45	26.15	7.45	-59.3	-70.0	3.8	7.45e-01	0	33	104	0	86	13157
2026-01-01 21:17:25.42	26.23	7.53	-59.3	-70.0	3.8	7.46e-01	0	33	104	0	86	13200
2026-01-01 21:17:26.40	26.32	7.62	-59.4	-70.1	3.8	7.46e-01	0	33	104	0	86	13351
2026-01-01 21:17:27.37	26.40	7.70	-59.4	-70.1	3.8	7.45e-01	0	33	104	0	86	13329
2026-01-01 21:17:28.35	26.48	7.79	-59.3	-70.0	3.8	7.47e-01	0	33	104	0	86	13138
2026-01-01 21:17:29.32	26.56	7.87	-59.3	-70.0	3.8	7.44e-01	0	33	104	0	86	13189
2026-01-01 21:17:30.30	26.65	7.96	-59.4	-70.1	3.8	7.45e-01	0	33	104	0	86	13378
2026-01-01 21:17:31.28	26.73	8.04	-59.4	-70.1	3.8	7.45e-01	0	33	104	0	86	13374
2026-01-01 21:17:32.25	26.82	8.13	-59.3	-70.0	3.8	7.45e-01	0	33	104	0	86	13241
2026-01-01 21:17:33.23	26.90	8.21	-59.3	-70.0	3.8	7.45e-01	0	33	104	0	86	13246
2026-01-01 21:17:34.21	26.99	8.30	-59.5	-70.2	3.8	7.48e-01	0	33	104	0	86	13433
2026-01-01 21:17:35.18	27.08	8.39	-59.5	-70.1	3.8	7.45e-01	0	33	104	0	86	13406
2026-01-01 21:17:36.15	27.16	8.47	-59.4	-70.1	3.8	7.45e-01	0	33	104	0	86	13273
2026-01-01 21:17:37.11	27.25	8.56	-59.4	-70.1	3.8	7.46e-01	0	33	104	0	86	13277
2026-01-01 21:17:38.08	27.34	8.65	-59.5	-70.2	3.8	7.45e-01	0	33	104	0	86	13499
2026-01-01 21:17:39.06	27.43	8.74	-59.5	-70.2	3.8	7.46e-01	0	33	104	0	86	13495
2026-01-01 21:17:40.03	27.52	8.83	-59.4	-70.1	3.8	7.45e-01	0	33	104	0	86	13335
2026-01-01 21:17:41.00	27.61	8.91	-59.4	-70.1	3.8	7.45e-01	0	33	104	0	86	13281
2026-01-01 21:17:41.97	27.70	9.00	-59.5	-70.2	3.8	7.48e-01	0	33	104	0	86	13534
2026-01-01 21:17:42.94	27.79	9.09	-59.5	-70.2	3.8	7.46e-01	0	33	104	0	86	13490
2026-01-01 21:17:43.91	27.88	9.18	-59.2	-70.1	3.8	7.44e-01	0	33	104	0	86	13313
2026-01-01 21:17:44.89	27.98	9.27	-59.4	-70.1	3.8	7.47e-01	0	33	104	0	86	13400
2026-01-01 21:17:45.86	28.07	9.37	-59.5	-70.2	3.8	7.46e-01	0	33	104	0	87	12744
2026-01-01 21:17:46.83	28.16	9.46	-59.3	-70.2	3.8	7.45e-01	0	33	104	0	87	12713
2026-01-01 21:17:47.81	28.26	9.55	-59.4	-70.1	3.8	7.45e-01	0	33	104	0	87	12616
2026-01-01 21:17:48.78	28.35	9.64	-59.4	-70.1	3.8	7.45e-01	0	33	104	0	87	12582
2026-01-01 21:17:49.75	28.45	9.73	-59.5	-70.2	3.8	7.45e-01	0	33	104	0	87	12709
2026-01-01 21:17:50.73	28.55	9.83	-59.5	-70.2	3.8	7.45e-01	0	33	104	0	87	12740
2026-01-01 21:17:51.70	28.65	9.92	-59.5	-70.2	3.8	7.45e-01	0	33	104	0	87	12684
2026-01-01 21:17:52.68	28.75	10.01	-59.4	-70.1	3.8	7.47e-01	0	33	104	0	87	12603
2026-01-01 21:17:53.66	28.85	10.11	-59.5	-70.2	3.8	7.46e-01	0	33	104	0	87	12762
2026-01-01 21:17:54.63	28.95	10.20	-59.6	-70.2	3.8	7.44e-01	0	33	104	0	87	12787
2026-01-01 21:17:55.61	29.05	10.30	-59.5	-70.2	3.8	7.45e-01	0	33	104	0	87	12754
2026-01-01 21:17:56.58	29.15	10.39	-59.5	-70.1	3.8	7.47e-01	0	33	104	0	87	12656
2026-01-01 21:17:57.55	29.25	10.49	-59.5	-70.2	3.8	7.46e-01	0	33	104	0	87	12781
2026-01-01 21:17:58.52	29.35	10.59	-59.6	-70.3	3.8	7.44e-01	0	33	104	0	87	12908
2026-01-01 21:17:59.49	29.46	10.68	-59.6	-70.2	3.8	7.46e-01	0	33	104	0	87	12770
2026-01-01 21:18:00.46	29.56	10.78	-59.5	-70.2	3.8	7.46e-01	0	33	104	0	87	12721
2026-01-01 21:18:01.42	29.67	10.88	-59.5	-70.2	3.8	7.45e-01	0	33	104	0	87	12763
2026-01-01 21:18:02.40	29.78	10.98	-59.6	-70.3	3.8	7.46e-01	0	33	104	0	87	12909
2026-01-01 21:18:03.37	29.88	11.07	-59.6	-70.3	3.8	7.45e-01	0	33	104	0	87	12850
2026-01-01 21:18:04.35	29.99	11.17	-59.5	-70.2	3.8	7.45e-01	0	33	104	0	87	12790
2026-01-01 21:18:05.32	30.10	11.27	-59.5	-70.2	3.8	7.46e-01	0	33	104	0	87	12745
2026-01-01 21:18:06.28	30.21	11.37	-59.6	-70.3	3.8	7.47e-01	0	33	104	0	87	12930
2026-01-01 21:18:07.25	30.32	11.47	-59.6	-70.3	3.8	7.47e-01	0	33	104	0	87	12911
2026-01-01 21:18:08.22	30.43	11.57	-59.6	-70.3	3.8	7.46e-01	0	33	104	0	87	12814
2026-01-01 21:18:09.19	30.54	11.67	-59.5	-70.2	3.8	7.45e-01	0	34	104	0	87	12780
2026-01-01 21:18:10.15	30.66	11.77	-59.7	-70.4	3.8	7.45e-01	0	33	104	0	87	13013
2026-01-01 21:18:11.12	30.77	11.88	-59.7	-70.3	3.8	7.47e-01	0	33	104	0	87	12958
2026-01-01 21:18:12.09	30.89	11.98	-59.6	-70.3	3.8	7.46e-01	0	33	104	0	87	12886
2026-01-01 21:18:13.05	31.00	12.08	-59.6	-70.3	3.8	7.46e-01	0	33	104	0	87	12826
2026-01-01 21:18:14.02	31.12	12.18	-59.7	-70.4	3.8	7.47e-01	0	33	104	0	87	13029
2026-01-01 21:18:14.99	31.24	12.29	-59.7	-70.4	3.8	7.47e-01	0	33	104	0	87	12978
2026-01-01 21:18:15.96	31.35	12.39	-59.6	-70.3	3.8	7.46e-01	0	33	104	0	87	12952
2026-01-01 21:18:16.92	31.47	12.50	-59.6	-70.3	3.8	7.45e-01	0	33	104	0	87	12862
2026-01-01 21:18:17.89	31.59	12.60	-59.7	-70.4	3.8	7.46e-01	0	33	104	0	87	13054
2026-01-01 21:18:18.85	31.72	12.71	-59.7	-70.4	3.8	7.44e-01	0	33	104	0	87	13055
2026-01-01 21:18:19.82	31.84	12.81	-59.7	-70.4	3.8	7.45e-01	0	34	104	0	87	13008
2026-01-01 21:18:20.78	31.96	12.92	-59.6	-70.3	3.8	7.45e-01	0	33	104	0	87	12948
2026-01-01 21:18:21.75	32.09	13.03	-59.7	-70.4	3.8	7.46e-01	0	33	104	0	87	13021
2026-01-01 21:18:22.71	32.21	13.13	-59.7	-70.5	3.8	7.46e-01	0	33	104	0	87	13116
2026-01-01 21:18:23.68	32.34	13.24	-59.7	-70.4	3.8	7.47e-01	0	33	104	0	87	13009
2026-01-01 21:18:24.65	32.47	13.35	-59.7	-70.4	3.8	7.47e-01	0	33	104	0	87	12968
2026-01-01 21:18:25.61	32.60	13.46	-59.7	-70.4	3.8	7.45e-01	0	33	104	0	87	13103
2026-01-01 21:18:26.58	32.73	13.57	-59.8	-70.5	3.8	7.45e-01	0	33	104	0	87	13122
2026-01-01 21:18:27.55	32.86	13.68	-59.7	-70.4	3.8	7.45e-01	0	34	104	0	87	13081
2026-01-01 21:18:28.51	32.99	13.79	-59.7	-70.4	3.8	7.46e-01	0	33	104	0	87	13038
2026-01-01 21:18:29.48	33.12	13.90	-59.7	-70.4	3.8	7.45e-01	0	33	104	0	87	13034
2026-01-01 21:18:30.45	33.26	14.01	-59.8	-70.5	3.8	7.45e-01	0	33	104	0	87	13143
2026-01-01 21:18:31.42	33.39	14.13	-59.7	-70.4	3.8	7.46e-01	0	33	104	0	87	13047
2026-01-01 21:18:32.38	33.53	14.24	-59.7	-70.4	3.8	7.45e-01	0	33	104	0	87	13080
2026-01-01 21:18:33.35	33.67	14.35	-59.7	-70.4	3.8	7.45e-01	0	33	104	0	87	13047
2026-01-01 21:18:34.32	33.81	14.47	-59.8	-70.5	3.8	7.46e-01	0	33	104	0	87	13173
2026-01-01 21:18:35.28	33.95	14.58	-59.8	-70.5	3.8	7.47e-01	0	33	104	0	87	13158
2026-01-01 21:18:36.25	34.09	14.70	-59.7	-70.4	3.8	7.46e-01	0	34	104	0	87	13080
2026-01-01 21:18:37.21	34.23	14.81	-59.7	-70.4	3.8	7.45e-01	0	34	104	0	87	13048
2026-01-01 21:18:38.18	34.38	14.93	-59.8	-70.5	3.8	7.44e-01	0	33	104	0	87	13229
2026-01-01 21:18:39.14	34.53	15.05	-59.8	-70.5	3.8	7.45e-01	0	33	104	0	87	13181
2026-01-01 21:18:40.11	34.67	15.17	-59.8	-70.5	3.8	7.45e-01	0	33	104	0	87	13128
2026-01-01 21:18:41.08	34.82	15.28	-59.7	-70.5	3.8	7.47e-01	0	33	104	0	87	13133
2026-01-01 21:18:42.04	34.97	15.40	-59.8	-70.5	3.8	7.44e-01	0	33	104	0	87	13173
2026-01-01 21:18:43.01	35.12	15.52	-59.8	-70.5	3.8	7.47e-01	0	33	104	0	87	13253
2026-01-01 21:18:43.97	35.27	15.64	-59.8	-70.5	3.8	7.45e-01	0	34	104	0	87	13146
2026-01-01 21:18:44.94	35.43	15.76	-59.8	-70.5	3.8	7.45e-01	0	33	104	0	87	13123
2026-01-01 21:18:45.91	35.59	15.88	-59.9	-70.6	3.8	7.45e-01	0	34	104	0	87	13311
2026-01-01 21:18:46.87	35.74	16.01	-59.9	-70.5	3.8	7.45e-01	0	33	104	0	87	13258
2026-01-01 21:18:47.84	35.90	16.13	-59.8	-70.5	3.8	7.45e-01	0	34	104	0	87	13135
2026-01-01 21:18:48.81	36.06	16.25	-59.8	-70.5	3.8	7.45e-01	0	33	104	0	87	13134
2026-01-01 21:18:49.77	36.22	16.38	-59.9	-70.6	3.8	7.45e-01	0	34	104	0	87	13277
2026-01-01 21:18:50.74	36.39	16.50	-59.9	-70.6	3.8	7.46e-01	0	33	104	0	87	13303
2026-01-01 21:18:51.70	36.55	16.62	-59.8	-70.6	3.8	7.45e-01	0	34	104	0	87	13283
2026-01-01 21:18:52.67	36.72	16.75	-59.8	-70.5	3.8	7.46e-01	0	34	104	0	87	13220
2026-01-01 21:18:53.64	36.88	16.88	-59.9	-70.6	3.8	7.46e-01	0	34	104	0	87	13296
2026-01-01 21:18:54.61	37.05	17.01	-59.9	-70.6	3.8	7.47e-01	0	33	104	0	87	13309
2026-01-01 21:18:55.57	37.22	17.13	-59.9	-70.6	3.8	7.43e-01	0	33	104	0	87	13316
2026-01-01 21:18:56.54	37.40	17.26	-59.8	-70.5	3.8	7.45e-01	0	33	104	0	87	13247
2026-01-01 21:18:57.51	37.57	17.39	-59.9	-70.6	3.8	7.45e-01	0	33	104	0	87	13279
2026-01-01 21:18:58.47	37.75	17.52	-59.9	-70.6	3.8	7.46e-01	0	34	104	0	87	13326
2026-01-01 21:18:59.44	37.93	17.65	-59.9	-70.6	3.8	7.45e-01	0	33	104	0	87	13308
2026-01-01 21:19:00.41	38.11	17.78	-59.9	-70.5	3.8	7.45e-01	0	34	104	0	87	13246
2026-01-01 21:19:01.38	38.29	17.91	-59.9	-70.6	3.8	7.46e-01	0	33	104	0	87	13265
2026-01-01 21:19:02.34	38.47	18.04	-60.0	-70.6	3.8	7.46e-01	0	33	104	0	87	13351
2026-01-01 21:19:03.31	38.66	18.18	-59.9	-70.7	3.8	7.45e-01	0	33	104	0	87	13440
2026-01-01 21:19:04.28	38.85	18.31	-59.9	-70.6	3.8	7.44e-01	0	33	104	0	87	13315
2026-01-01 21:19:05.24	39.03	18.45	-59.9	-70.6	3.8	7.45e-01	0	34	104	0	87	13301
2026-01-01 21:19:06.21	39.22	18.58	-60.0	-70.7	3.8	7.47e-01	0	33	104	0	87	13447
2026-01-01 21:19:07.18	39.42	18.72	-60.0	-70.7	3.8	7.45e-01	0	34	104	0	87	13438
2026-01-01 21:19:08.14	39.61	18.85	-59.9	-70.6	3.8	7.46e-01	0	33	104	0	87	13358
2026-01-01 21:19:09.11	39.81	18.99	-59.9	-70.6	3.8	7.45e-01	0	33	104	0	87	13327
2026-01-01 21:19:10.08	40.01	19.13	-60.0	-70.7	3.8	7.45e-01	0	34	104	0	87	13460
2026-01-01 21:19:11.04	40.21	19.27	-60.0	-70.7	3.8	7.45e-01	0	33	104	0	87	13470
2026-01-01 21:19:12.01	40.41	19.41	-60.0	-70.7	3.8	7.46e-01	0	33	104	0	87	13439
2026-01-01 21:19:12.97	40.61	19.54	-59.9	-70.6	3.8	7.47e-01	0	34	104	0	87	13385
2026-01-01 21:19:13.94	40.82	19.69	-60.0	-70.7	3.8	7.47e-01	0	33	104	0	88	12748
2026-01-01 21:19:14.91	41.03	19.83	-60.0	-70.7	3.8	7.47e-01	0	33	104	0	88	12759
2026-01-01 21:19:15.88	41.24	19.97	-60.0	-70.7	3.8	7.45e-01	0	34	104	0	88	12724
2026-01-01 21:19:16.84	41.46	20.11	-60.0	-70.7	3.8	7.46e-01	0	34	104	0	88	12680
2026-01-01 21:19:17.81	41.67	20.25	-60.1	-70.8	3.8	7.45e-01	0	34	104	0	88	12823
2026-01-01 21:19:18.78	41.89	20.40	-60.1	-70.7	3.8	7.45e-01	0	34	104	0	88	12786
2026-01-01 21:19:19.74	42.11	20.54	-60.0	-70.7	3.8	7.44e-01	0	33	104	0	88	12770
2026-01-01 21:19:20.71	42.33	20.69	-60.0	-70.7	3.8	7.45e-01	0	34	104	0	88	12711
2026-01-01 21:19:21.68	42.56	20.83	-60.1	-70.8	3.8	7.45e-01	0	33	104	0	88	12818
2026-01-01 21:19:22.65	42.79	20.98	-60.1	-70.8	3.8	7.45e-01	0	33	104	0	88	12846
2026-01-01 21:19:23.62	43.02	21.13	-60.1	-70.8	3.8	7.45e-01	0	33	104	0	88	12816
2026-01-01 21:19:24.58	43.25	21.28	-60.0	-70.7	3.8	7.45e-01	0	34	104	0	88	12731
2026-01-01 21:19:25.55	43.48	21.43	-60.1	-70.8	3.8	7.45e-01	0	34	104	0	88	12871
2026-01-01 21:19:26.52	43.72	21.58	-60.1	-70.8	3.8	7.46e-01	0	34	104	0	88	12858
2026-01-01 21:19:27.49	43.96	21.73	-60.1	-70.8	3.8	7.44e-01	0	34	104	0	88	12854
2026-01-01 21:19:28.46	44.21	21.88	-60.0	-70.8	3.8	7.46e-01	0	34	104	0	88	12838
2026-01-01 21:19:29.43	44.45	22.03	-60.1	-70.8	3.8	7.46e-01	0	34	104	0	88	12857
2026-01-01 21:19:30.39	44.70	22.18	-60.1	-70.8	3.8	7.46e-01	0	33	104	0	88	12899
2026-01-01 21:19:31.35	44.95	22.33	-60.1	-70.8	3.8	7.46e-01	0	34	104	0	88	12859
2026-01-01 21:19:32.32	45.20	22.48	-60.1	-70.8	3.8	7.46e-01	0	34	104	0	88	12832
2026-01-01 21:19:33.29	45.46	22.64	-60.1	-70.7	3.8	7.44e-01	0	34	104	0	88	12776
2026-01-01 21:19:34.25	45.72	22.79	-60.1	-70.8	3.8	7.46e-01	0	33	104	0	88	12946
2026-01-01 21:19:35.22	45.98	22.95	-60.2	-70.8	3.8	7.44e-01	0	33	104	0	88	12952
2026-01-01 21:19:36.18	46.24	23.10	-60.1	-70.8	3.8	7.46e-01	0	33	104	0	88	12817
2026-01-01 21:19:37.15	46.51	23.26	-60.1	-70.8	3.8	7.45e-01	0	34	104	0	88	12821
2026-01-01 21:19:38.11	46.78	23.42	-60.2	-70.9	3.8	7.46e-01	0	33	104	0	88	12962
2026-01-01 21:19:39.08	47.05	23.57	-60.2	-70.8	3.8	7.46e-01	0	34	104	0	88	12954
2026-01-01 21:19:40.05	47.33	23.73	-60.1	-70.8	3.8	7.45e-01	0	34	104	0	88	12917
2026-01-01 21:19:41.02	47.61	23.89	-60.1	-70.7	3.8	7.44e-01	0	34	104	0	88	12799
2026-01-01 21:19:41.98	47.89	24.05	-60.2	-70.9	3.8	7.47e-01	0	34	104	0	88	13042
2026-01-01 21:19:42.95	48.18	24.21	-60.2	-70.9	3.8	7.46e-01	0	34	104	0	88	13031
2026-01-01 21:19:43.92	48.47	24.37	-60.2	-70.9	3.8	7.45e-01	0	34	104	0	88	12972
2026-01-01 21:19:44.89	48.77	24.53	-60.1	-70.8	3.8	7.46e-01	0	33	104	0	88	12910
2026-01-01 21:19:45.86	49.06	24.69	-60.2	-70.9	3.8	7.46e-01	0	34	104	0	88	13075
2026-01-01 21:19:46.83	49.36	24.85	-60.2	-70.9	3.8	7.45e-01	0	34	104	0	88	13025
2026-01-01 21:19:47.79	49.66	25.02	-60.2	-70.9	3.8	7.48e-01	0	34	104	0	88	12996
2026-01-01 21:19:48.76	49.97	25.18	-60.2	-70.9	3.8	7.46e-01	0	34	104	0	88	12987
2026-01-01 21:19:49.73	50.28	25.34	-60.3	-70.9	3.8	7.43e-01	0	34	104	0	88	13075
2026-01-01 21:19:50.69	50.59	25.51	-60.3	-70.9	3.8	7.44e-01	0	34	104	0	88	13100
2026-01-01 21:19:51.66	50.91	25.67	-60.2	-70.9	3.8	7.45e-01	0	34	104	0	88	13053
2026-01-01 21:19:52.63	51.23	25.83	-60.2	-70.9	3.8	7.46e-01	0	34	104	0	88	13032
2026-01-01 21:19:53.59	51.55	26.00	-60.3	-70.9	3.8	7.47e-01	0	34	104	0	88	13104
2026-01-01 21:19:54.56	51.88	26.16	-60.3	-71.0	3.8	7.45e-01	0	34	104	0	88	13167
2026-01-01 21:19:55.53	52.22	26.33	-60.3	-70.9	3.8	7.44e-01	0	34	104	0	88	13082
2026-01-01 21:19:56.50	52.55	26.50	-60.2	-70.9	3.8	7.46e-01	0	34	104	0	88	13034
2026-01-01 21:19:57.46	52.89	26.66	-60.3	-71.0	3.8	7.45e-01	0	33	104	0	88	13158
2026-01-01 21:19:58.42	53.23	26.83	-60.3	-71.0	3.8	7.45e-01	0	33	104	0	88	13177
2026-01-01 21:19:59.39	53.58	26.99	-60.3	-71.0	3.8	7.45e-01	0	34	104	0	88	13150
2026-01-01 21:20:00.36	53.93	27.16	-60.2	-70.9	3.8	7.45e-01	0	34	104	0	88	13108
2026-01-01 21:20:01.33	54.29	27.33	-60.3	-71.0	3.8	7.45e-01	0	34	104	0	88	13121
2026-01-01 21:20:02.29	54.64	27.49	-60.3	-71.0	3.8	7.46e-01	0	33	104	0	88	13204
2026-01-01 21:20:03.26	55.01	27.66	-60.3	-71.0	3.8	7.46e-01	0	34	104	0	88	13189
2026-01-01 21:20:04.23	55.37	27.83	-60.3	-71.0	3.8	7.43e-01	0	34	104	0	88	13175
2026-01-01 21:20:05.20	55.75	28.00	-60.3	-70.9	3.8	7.46e-01	0	34	104	0	88	13103
2026-01-01 21:20:06.16	56.12	28.16	-60.3	-71.0	3.8	7.45e-01	0	34	104	0	88	13228
2026-01-01 21:20:07.13	56.50	28.33	-60.3	-71.0	3.8	7.46e-01	0	33	104	0	88	13228
2026-01-01 21:20:08.10	56.89	28.50	-60.3	-71.0	3.8	7.45e-01	0	34	104	0	88	13132
2026-01-01 21:20:09.07	57.28	28.66	-60.3	-71.0	3.8	7.45e-01	0	34	104	0	88	13110
2026-01-01 21:20:10.03	57.67	28.83	-60.4	-71.1	3.8	7.46e-01	0	34	104	0	88	13317
2026-01-01 21:20:11.00	58.07	29.00	-60.4	-71.0	3.8	7.46e-01	0	34	104	0	88	13247
2026-01-01 21:20:11.97	58.47	29.16	-60.3	-71.1	3.8	7.45e-01	0	34	104	0	88	13283
2026-01-01 21:20:12.93	58.87	29.33	-60.3	-71.0	3.8	7.45e-01	0	34	104	0	88	13207
2026-01-01 21:20:13.90	59.29	29.50	-60.4	-71.1	3.8	7.47e-01	0	34	104	0	88	13351
2026-01-01 21:20:14.86	59.70	29.66	-60.4	-71.1	3.8	7.45e-01	0	34	104	0	88	13356
2026-01-01 21:20:15.83	60.12	29.83	-60.4	-71.1	3.8	7.45e-01	0	34	104	0	88	13276
2026-01-01 21:20:16.80	60.55	29.99	-60.4	-71.0	3.8	7.46e-01	0	33	104	0	88	13243
2026-01-01 21:20:17.77	60.98	30.16	-60.4	-71.1	3.8	7.45e-01	0	34	104	0	88	13323
2026-01-01 21:20:18.71	61.40	30.32	-60.4	-71.1	3.8	7.45e-01	0	34	104	0	88	13369
2026-01-01 21:20:19.67	61.83	30.48	-60.4	-71.1	3.8	7.47e-01	0	33	104	0	88	13319
2026-01-01 21:20:20.64	62.28	30.64	-60.4	-71.0	3.8	7.46e-01	0	34	104	0	88	13209
2026-01-01 21:20:21.61	62.73	30.80	-60.4	-71.1	3.8	7.45e-01	0	34	104	0	88	13338
2026-01-01 21:20:22.57	63.18	30.97	-60.4	-71.1	3.8	7.45e-01	0	34	104	0	88	13335
2026-01-01 21:20:23.54	63.64	31.13	-60.4	-71.1	3.8	7.46e-01	0	34	104	0	88	13334
2026-01-01 21:20:24.50	64.10	31.28	-60.4	-71.1	3.8	7.46e-01	0	34	104	0	88	13286
2026-01-01 21:20:25.47	64.57	31.44	-60.4	-71.1	3.8	7.45e-01	0	34	104	0	88	13392
2026-01-01 21:20:26.43	65.04	31.60	-60.5	-71.1	3.8	7.47e-01	0	34	104	0	88	13361
2026-01-01 21:20:27.40	65.52	31.76	-60.4	-71.1	3.8	7.45e-01	0	34	104	0	88	13366
2026-01-01 21:20:28.37	66.00	31.91	-60.4	-71.1	3.8	7.45e-01	0	33	104	0	88	13297
2026-01-01 21:20:29.33	66.49	32.07	-60.4	-71.1	3.8	7.45e-01	0	34	104	0	88	13369
2026-01-01 21:20:30.30	66.98	32.22	-60.5	-71.1	3.8	7.44e-01	0	34	104	0	88	13399
2026-01-01 21:20:31.28	67.48	32.38	-60.4	-71.1	3.8	7.45e-01	0	34	104	0	88	13349
2026-01-01 21:20:32.25	67.99	32.53	-60.4	-71.1	3.8	7.45e-01	0	34	104	0	88	13307
2026-01-01 21:20:33.22	68.50	32.68	-60.4	-71.1	3.8	7.48e-01	0	34	104	0	88	13298
2026-01-01 21:20:34.19	69.01	32.83	-60.5	-71.1	3.8	7.46e-01	0	34	104	0	88	13414
2026-01-01 21:20:35.16	69.53	32.97	-60.5	-71.1	3.8	7.45e-01	0	33	104	0	88	13371
2026-01-01 21:20:36.13	70.06	33.12	-60.4	-71.1	3.8	7.47e-01	0	34	104	0	88	13374
2026-01-01 21:20:37.11	70.59	33.26	-60.4	-71.1	3.8	7.46e-01	0	34	104	0	88	13341
2026-01-01 21:20:38.08	71.12	33.40	-60.5	-71.2	3.9	7.45e-01	0	34	104	0	88	13460
2026-01-01 21:20:39.05	71.66	33.54	-60.5	-71.2	3.8	7.46e-01	0	34	104	0	88	13425
2026-01-01 21:20:40.02	72.21	33.68	-60.4	-71.1	3.8	7.44e-01	0	34	104	0	88	13344
2026-01-01 21:20:40.99	72.76	33.82	-60.4	-71.1	3.8	7.46e-01	0	34	104	0	88	13327
2026-01-01 21:20:41.97	73.32	33.95	-60.5	-71.2	3.8	7.45e-01	0	33	104	0	88	13485
2026-01-01 21:20:42.94	73.88	34.08	-60.5	-71.2	3.8	7.46e-01	0	34	104	0	88	13461
2026-01-01 21:20:43.91	74.44	34.21	-60.5	-71.1	3.8	7.45e-01	0	34	104	0	88	13337
2026-01-01 21:20:44.89	75.01	34.34	-60.5	-71.1	3.8	7.45e-01	0	33	104	0	88	13375
2026-01-01 21:20:45.86	75.59	34.47	-60.5	-71.2	3.8	7.45e-01	0	34	104	0	88	13513
2026-01-01 21:20:46.83	76.16	34.59	-60.5	-71.2	3.8	7.46e-01	0	33	104	0	88	13496
2026-01-01 21:20:47.81	76.75	34.71	-60.5	-71.2	3.8	7.45e-01	0	34	104	0	88	13430
2026-01-01 21:20:48.79	77.34	34.83	-60.5	-71.2	3.8	7.46e-01	0	34	104	0	88	13474
2026-01-01 21:20:49.76	77.94	34.94	-60.5	-71.2	3.8	7.46e-01	0	34	104	0	89	12746
2026-01-01 21:20:50.73	78.53	35.06	-60.5	-71.2	3.8	7.46e-01	0	34	104	0	89	12722
2026-01-01 21:20:51.71	79.14	35.17	-60.5	-71.1	3.8	7.47e-01	0	34	104	0	89	12647
2026-01-01 21:20:52.68	79.74	35.27	-60.5	-71.1	3.8	7.45e-01	0	34	104	0	89	12628
2026-01-01 21:20:53.66	80.36	35.38	-60.5	-71.2	3.8	7.45e-01	0	33	104	0	89	12733
2026-01-01 21:20:54.63	80.97	35.48	-60.5	-71.2	3.8	7.45e-01	0	34	104	0	89	12710
2026-01-01 21:20:55.60	81.58	35.57	-60.5	-71.1	3.8	7.47e-01	0	34	104	0	89	12625
2026-01-01 21:20:56.57	82.20	35.67	-60.5	-71.2	3.8	7.44e-01	0	34	104	0	89	12680
2026-01-01 21:20:57.54	82.83	35.76	-60.5	-71.2	3.8	7.47e-01	0	34	104	0	89	12732
2026-01-01 21:20:58.51	83.46	35.84	-60.5	-71.2	3.8	7.45e-01	0	34	104	0	89	12729
2026-01-01 21:20:59.48	84.09	35.93	-60.5	-71.1	3.8	7.45e-01	0	34	104	0	89	12641
2026-01-01 21:21:00.45	84.72	36.01	-60.5	-71.2	3.8	7.46e-01	0	34	104	0	89	12687
2026-01-01 21:21:01.42	85.36	36.09	-60.5	-71.2	3.8	7.44e-01	0	34	104	0	89	12711
2026-01-01 21:21:02.40	86.01	36.16	-60.5	-71.2	3.8	7.46e-01	0	34	104	0	89	12747
2026-01-01 21:21:03.38	86.66	36.23	-60.5	-71.2	3.8	7.45e-01	0	34	104	0	89	12704
2026-01-01 21:21:04.35	87.30	36.30	-60.5	-71.1	3.8	7.46e-01	0	34	104	0	89	12606
2026-01-01 21:21:05.32	87.95	36.36	-60.5	-71.2	3.8	7.46e-01	0	34	104	0	89	12732
2026-01-01 21:21:06.29	88.60	36.42	-60.6	-71.2	3.8	7.46e-01	0	34	104	0	89	12789
2026-01-01 21:21:07.26	89.26	36.47	-60.5	-71.2	3.8	7.46e-01	0	33	104	0	89	12753
2026-01-01 21:21:08.23	89.91	36.52	-60.5	-71.1	3.8	7.47e-01	0	34	104	0	89	12636
2026-01-01 21:21:09.20	90.57	36.57	-60.5	-71.2	3.8	7.46e-01	0	34	104	0	89	12751
2026-01-01 21:21:10.18	91.24	36.61	-60.6	-71.3	3.8	7.47e-01	0	34	104	0	89	12822
2026-01-01 21:21:11.16	91.91	36.65	-60.5	-71.2	3.8	7.45e-01	0	34	104	0	89	12734
2026-01-01 21:21:12.13	92.57	36.69	-60.5	-71.2	3.8	7.47e-01	0	34	104	0	89	12721
2026-01-01 21:21:13.11	93.25	36.72	-60.5	-71.2	3.8	7.45e-01	0	34	104	0	89	12768
2026-01-01 21:21:14.08	93.91	36.75	-60.6	-71.2	3.8	7.45e-01	0	34	104	0	89	12773
2026-01-01 21:21:15.06	94.59	36.77	-60.6	-71.2	3.8	7.44e-01	0	34	104	0	89	12725
2026-01-01 21:21:16.02	95.25	36.79	-60.5	-71.2	3.8	7.46e-01	0	34	104	0	89	12756
2026-01-01 21:21:16.99	95.92	36.80	-60.5	-71.2	3.8	7.46e-01	0	34	104	0	89	12740
2026-01-01 21:21:17.96	96.59	36.81	-60.6	-71.2	3.8	7.45e-01	0	34	104	0	89	12810
2026-01-01 21:21:18.93	97.26	36.82	-60.6	-71.3	3.8	7.44e-01	0	34	104	0	89	12820
2026-01-01 21:21:19.91	97.94	36.82	-60.6	-71.2	3.8	7.46e-01	0	34	104	0	89	12791
2026-01-01 21:21:20.88	98.61	36.82	-60.5	-71.2	3.8	7.46e-01	0	34	104	0	89	12735
2026-01-01 21:21:21.85	99.28	36.81	-60.6	-71.2	3.8	7.45e-01	0	34	104	0	89	12784
2026-01-01 21:21:22.83	99.95	36.80	-60.6	-71.3	3.8	7.45e-01	0	34	104	0	89	12811
2026-01-01 21:21:23.80	100.62	36.79	-60.6	-71.3	3.8	7.46e-01	0	34	104	0	89	12832
2026-01-01 21:21:24.77	101.29	36.77	-60.5	-71.2	3.8	7.45e-01	0	34	104	0	89	12757
2026-01-01 21:21:25.75	101.97	36.74	-60.6	-71.2	3.8	7.45e-01	0	34	104	0	89	12797
2026-01-01 21:21:26.72	102.63	36.72	-60.6	-71.3	3.8	7.45e-01	0	34	104	0	89	12836
2026-01-01 21:21:27.69	103.30	36.69	-60.6	-71.2	3.8	7.45e-01	0	34	104	0	89	12793
2026-01-01 21:21:28.67	103.97	36.65	-60.6	-71.2	3.8	7.46e-01	0	34	104	0	89	12780
2026-01-01 21:21:29.64	104.63	36.61	-60.6	-71.2	3.8	7.46e-01	0	34	104	0	89	12771
2026-01-01 21:21:30.61	105.29	36.57	-60.6	-71.2	3.8	7.44e-01	0	34	104	0	89	12790
2026-01-01 21:21:31.59	105.96	36.52	-60.6	-71.2	3.8	7.46e-01	0	34	104	0	89	12754
2026-01-01 21:21:32.56	106.62	36.47	-60.6	-71.2	3.8	7.45e-01	0	34	104	0	89	12757
2026-01-01 21:21:33.53	107.27	36.42	-60.6	-71.2	3.8	7.46e-01	0	34	104	0	89	12743
2026-01-01 21:21:34.51	107.93	36.36	-60.6	-71.2	3.8	7.47e-01	0	34	104	0	89	12770
2026-01-01 21:21:35.48	108.58	36.29	-60.5	-71.2	3.8	7.47e-01	0	34	104	0	89	12710
2026-01-01 21:21:36.45	109.23	36.23	-60.5	-71.2	3.8	7.46e-01	0	34	104	0	89	12730
2026-01-01 21:21:37.42	109.87	36.16	-60.5	-71.2	3.8	7.44e-01	0	34	104	0	89	12797
2026-01-01 21:21:38.40	110.52	36.08	-60.5	-71.2	3.8	7.45e-01	0	34	104	0	89	12775
2026-01-01 21:21:39.38	111.16	36.01	-60.5	-71.2	3.8	7.45e-01	0	34	104	0	89	12771
2026-01-01 21:21:40.35	111.80	35.93	-60.5	-71.2	3.8	7.45e-01	0	34	104	0	89	12721
2026-01-01 21:21:41.33	112.44	35.84	-60.5	-71.2	3.8	7.46e-01	0	34	104	0	89	12725
2026-01-01 21:21:42.30	113.07	35.75	-60.6	-71.2	3.8	7.44e-01	0	34	104	0	89	12801
2026-01-01 21:21:43.28	113.70	35.66	-60.5	-71.2	3.8	7.44e-01	0	34	104	0	89	12745
2026-01-01 21:21:44.24	114.31	35.57	-60.5	-71.2	3.8	7.45e-01	0	34	104	0	89	12727
2026-01-01 21:21:45.22	114.94	35.47	-60.5	-71.2	3.8	7.46e-01	0	34	104	0	89	12693
2026-01-01 21:21:46.19	115.55	35.37	-60.5	-71.2	3.8	7.46e-01	0	34	104	0	89	12748
2026-01-01 21:21:47.16	116.16	35.27	-60.5	-71.2	3.8	7.46e-01	0	34	104	0	89	12746
2026-01-01 21:21:48.15	116.78	35.16	-60.5	-71.1	3.8	7.45e-01	0	34	104	0	89	12655
2026-01-01 21:21:49.12	117.38	35.05	-60.5	-71.2	3.8	7.45e-01	0	34	104	0	89	12729
2026-01-01 21:21:50.08	117.97	34.94	-60.5	-71.2	3.8	7.44e-01	0	34	104	0	89	12747
2026-01-01 21:21:51.06	118.56	34.82	-60.5	-71.2	3.8	7.44e-01	0	34	104	0	89	12672
2026-01-01 21:21:52.03	119.15	34.70	-60.5	-71.1	3.8	7.46e-01	0	33	104	0	89	12630
2026-01-01 21:21:53.00	119.74	34.58	-60.5	-71.2	3.8	7.45e-01	0	34	104	0	89	12690
2026-01-01 21:21:53.97	120.31	34.46	-60.5	-71.2	3.8	7.45e-01	0	34	104	0	89	12713
2026-01-01 21:21:54.94	120.89	34.33	-60.5	-71.1	3.8	7.45e-01	0	34	104	0	89	12638
2026-01-01 21:21:55.91	121.46	34.21	-60.5	-71.2	3.8	7.45e-01	0	34	104	0	89	12679
2026-01-01 21:21:56.89	122.03	34.08	-60.5	-71.2	3.8	7.45e-01	0	34	104	0	89	12697
2026-01-01 21:21:57.86	122.59	33.94	-60.5	-71.2	3.8	7.44e-01	0	34	104	0	89	12682
2026-01-01 21:21:58.83	123.14	33.81	-60.5	-71.2	3.8	7.44e-01	0	34	104	0	89	12685
2026-01-01 21:21:59.80	123.69	33.67	-60.5	-71.1	3.8	7.45e-01	0	34	104	0	89	12593
2026-01-01 21:22:00.77	124.24	33.53	-60.5	-71.1	3.8	7.46e-01	0	33	104	0	89	12627
2026-01-01 21:22:01.75	124.79	33.39	-60.5	-71.1	3.8	7.46e-01	0	34	104	0	89	12637
2026-01-01 21:22:02.71	125.32	33.25	-60.5	-71.2	3.8	7.44e-01	0	34	104	0	89	12668
2026-01-01 21:22:03.69	125.85	33.11	-60.4	-71.1	3.8	7.46e-01	0	34	104	0	89	12624
2026-01-01 21:22:04.66	126.38	32.96	-60.4	-71.1	3.8	7.45e-01	0	34	104	0	89	12656
2026-01-01 21:22:05.63	126.90	32.81	-60.4	-71.1	3.8	7.46e-01	0	34	104	0	89	12596
2026-01-01 21:22:06.61	127.42	32.66	-60.4	-71.1	3.8	7.45e-01	0	34	104	0	89	12600
2026-01-01 21:22:07.58	127.93	32.51	-60.4	-71.1	3.8	7.45e-01	0	34	104	0	89	12551
2026-01-01 21:22:08.56	128.44	32.36	-60.4	-71.1	3.8	7.45e-01	0	34	104	0	89	12571
2026-01-01 21:22:09.54	128.95	32.20	-60.4	-71.1	3.8	7.45e-01	0	34	104	0	89	12542
2026-01-01 21:22:10.51	129.44	32.05	-60.4	-71.1	3.8	7.47e-01	0	34	104	0	89	12590
2026-01-01 21:22:11.49	129.94	31.89	-60.4	-71.1	3.8	7.45e-01	0	34	104	0	89	12526
2026-01-01 21:22:12.46	130.42	31.73	-60.4	-71.1	3.8	7.45e-01	0	34	104	0	89	12532
2026-01-01 21:22:13.43	130.90	31.58	-60.4	-71.1	3.8	7.44e-01	0	34	104	0	89	12542
2026-01-01 21:22:14.41	131.38	31.42	-60.4	-71.0	3.8	7.45e-01	0	34	104	0	89	12501
2026-01-01 21:22:15.38	131.85	31.25	-60.3	-71.1	3.8	7.46e-01	0	34	104	0	89	12532
2026-01-01 21:22:16.35	132.32	31.09	-60.3	-71.0	3.8	7.45e-01	0	34	104	0	89	12454
2026-01-01 21:22:17.32	132.78	30.93	-60.3	-71.0	3.8	7.44e-01	0	34	104	0	89	12420
2026-01-01 21:22:18.30	133.24	30.77	-60.3	-71.0	3.8	7.44e-01	0	34	104	0	89	12448
2026-01-01 21:22:19.27	133.69	30.60	-60.3	-71.0	3.8	7.46e-01	0	34	104	0	89	12397
2026-01-01 21:22:20.24	134.14	30.44	-60.3	-71.0	3.8	7.45e-01	0	34	104	0	89	12423
2026-01-01 21:22:21.22	134.58	30.27	-60.3	-71.0	3.8	7.43e-01	0	34	104	0	89	12408
2026-01-01 21:22:22.18	135.01	30.11	-60.3	-71.0	3.8	7.46e-01	0	34	104	0	89	12409
2026-01-01 21:22:23.15	135.44	29.94	-60.3	-71.0	3.8	7.47e-01	0	34	104	0	89	12431
2026-01-01 21:22:24.12	135.87	29.78	-60.3	-71.0	3.8	7.46e-01	0	34	104	0	89	12404
2026-01-01 21:22:25.08	136.29	29.61	-60.3	-70.9	3.8	7.46e-01	0	34	104	0	89	12375
2026-01-01 21:22:26.05	136.71	29.45	-60.3	-70.9	3.8	7.45e-01	0	34	104	0	89	12370
2026-01-01 21:22:27.01	137.11	29.28	-60.3	-71.0	3.8	7.47e-01	0	34	104	0	89	12391
2026-01-01 21:22:27.98	137.52	29.11	-60.2	-70.9	3.8	7.45e-01	0	34	104	0	89	12351
2026-01-01 21:22:28.95	137.93	28.94	-60.3	-70.9	3.8	7.46e-01	0	34	104	0	89	12340
2026-01-01 21:22:29.91	138.32	28.78	-60.2	-70.9	3.8	7.45e-01	0	34	104	0	89	12364
2026-01-01 21:22:30.88	138.72	28.61	-60.2	-70.9	3.8	7.47e-01	0	34	104	0	89	12365
2026-01-01 21:22:31.84	139.10	28.44	-60.2	-70.9	3.8	7.45e-01	0	34	104	0	89	12336
2026-01-01 21:22:32.81	139.49	28.27	-60.2	-70.9	3.8	7.45e-01	0	34	104	0	89	12303
2026-01-01 21:22:33.77	139.87	28.11	-60.2	-70.9	3.8	7.47e-01	0	34	104	0	89	12292
2026-01-01 21:22:34.74	140.24	27.94	-60.2	-70.9	3.8	7.46e-01	0	34	104	0	89	12280
2026-01-01 21:22:35.71	140.62	27.77	-60.2	-70.9	3.8	7.44e-01	0	34	104	0	89	12279
2026-01-01 21:22:36.67	140.98	27.60	-60.2	-70.9	3.8	7.47e-01	0	34	104	0	89	12275
2026-01-01 21:22:37.63	141.34	27.44	-60.2	-70.9	3.8	7.46e-01	0	34	104	0	89	12269
2026-01-01 21:22:38.60	141.70	27.27	-60.2	-70.9	3.8	7.46e-01	0	34	104	0	89	12282
2026-01-01 21:22:39.57	142.06	27.10	-60.2	-70.9	3.8	7.44e-01	0	34	104	0	89	12239
2026-01-01 21:22:40.53	142.41	26.93	-60.2	-70.8	3.8	7.44e-01	0	34	104	0	89	12219
2026-01-01 21:22:41.50	142.76	26.77	-60.2	-70.8	3.8	7.45e-01	0	34	104	0	89	12189
2026-01-01 21:22:42.47	143.10	26.60	-60.1	-70.8	3.8	7.45e-01	0	34	104	0	89	12216
2026-01-01 21:22:43.43	143.44	26.43	-60.1	-70.8	3.8	7.46e-01	0	34	104	0	89	12194
2026-01-01 21:22:44.40	143.78	26.27	-60.1	-70.8	3.8	7.43e-01	0	34	104	0	89	12144
2026-01-01 21:22:45.37	144.11	26.10	-60.1	-70.8	3.8	7.43e-01	0	34	104	0	89	12144
2026-01-01 21:22:46.34	144.44	25.93	-60.1	-70.8	3.8	7.45e-01	0	34	104	0	89	12137
2026-01-01 21:22:47.31	144.76	25.77	-60.1	-70.8	3.8	7.46e-01	0	34	104	0	89	12137
2026-01-01 21:22:48.27	145.08	25.60	-60.1	-70.8	3.8	7.44e-01	0	34	104	0	89	12128
2026-01-01 21:22:49.24	145.40	25.44	-60.1	-70.7	3.8	7.45e-01	0	34	104	0	89	12065
2026-01-01 21:22:50.21	145.72	25.27	-60.1	-70.8	3.8	7.46e-01	0	34	104	0	89	12124
2026-01-01 21:22:51.18	146.03	25.11	-60.1	-70.8	3.8	7.45e-01	0	34	104	0	89	12117
2026-01-01 21:22:52.14	146.33	24.95	-60.1	-70.8	3.8	7.46e-01	0	34	104	0	89	12108
2026-01-01 21:22:53.11	146.64	24.78	-60.1	-70.8	3.8	7.44e-01	0	34	104	0	89	12147
2026-01-01 21:22:54.07	146.93	24.62	-60.1	-70.7	3.8	7.46e-01	0	34	104	0	89	12083
2026-01-01 21:22:55.04	147.23	24.46	-60.1	-70.7	3.8	7.45e-01	0	34	104	0	89	12084
2026-01-01 21:22:56.00	147.52	24.30	-60.0	-70.7	3.8	7.46e-01	0	34	104	0	89	12082
2026-01-01 21:22:56.97	147.81	24.14	-60.0	-70.7	3.8	7.45e-01	0	34	104	0	89	12048
2026-01-01 21:22:57.94	148.10	23.98	-60.0	-70.7	3.8	7.46e-01	0	34	104	0	89	12047
2026-01-01 21:22:58.91	148.38	23.81	-60.0	-70.7	3.9	7.45e-01	0	34	104	0	89	12042
2026-01-01 21:22:59.87	148.66	23.66	-60.0	-70.7	3.8	7.46e-01	0	34	104	0	89	12064
2026-01-01 21:23:00.84	148.94	23.50	-60.0	-70.7	3.8	7.44e-01	0	34	104	0	89	12027
2026-01-01 21:23:01.81	149.22	23.34	-60.0	-70.7	3.8	7.45e-01	0	34	104	0	89	12008
2026-01-01 21:23:02.78	149.49	23.18	-60.0	-70.7	3.8	7.45e-01	0	34	104	0	89	11960
2026-01-01 21:23:03.74	149.75	23.02	-60.0	-70.7	3.8	7.46e-01	0	34	104	0	89	12031
2026-01-01 21:23:04.71	150.02	22.87	-60.0	-70.7	3.8	7.45e-01	0	34	104	0	89	11990
2026-01-01 21:23:05.68	150.28	22.71	-60.0	-70.7	3.8	7.45e-01	0	34	104	0	89	12084
2026-01-01 21:23:06.64	150.54	22.56	-60.0	-70.7	3.8	7.47e-01	0	34	104	0	89	11975
2026-01-01 21:23:07.61	150.80	22.40	-60.0	-70.7	3.8	7.46e-01	0	34	104	0	89	12017
2026-01-01 21:23:08.58	151.05	22.25	-60.0	-70.6	3.8	7.47e-01	0	34	104	0	89	11946
2026-01-01 21:23:09.55	151.30	22.09	-60.0	-70.7	3.8	7.46e-01	0	34	104	0	89	11981
2026-01-01 21:23:10.51	151.55	21.94	-59.8	-70.7	3.8	7.45e-01	0	34	104	0	89	11967
2026-01-01 21:23:11.48	151.80	21.79	-60.0	-70.6	3.8	7.46e-01	0	34	104	0	89	11912
2026-01-01 21:23:12.44	152.04	21.64	-59.9	-70.6	3.8	7.45e-01	0	34	104	0	89	11905
2026-01-01 21:23:13.41	152.28	21.49	-59.9	-70.6	3.8	7.47e-01	0	34	104	0	89	11905
2026-01-01 21:23:14.38	152.52	21.34	-60.0	-70.6	3.8	7.46e-01	0	34	104	0	89	11882
2026-01-01 21:23:15.34	152.75	21.19	-59.9	-70.6	3.8	7.46e-01	0	34	104	0	89	11849
2026-01-01 21:23:16.31	152.98	21.04	-59.9	-70.6	3.8	7.45e-01	0	34	104	0	89	11871
2026-01-01 21:23:17.28	153.21	20.89	-59.9	-70.6	3.8	7.45e-01	0	34	104	0	89	11861
2026-01-01 21:23:18.25	153.44	20.74	-59.9	-70.6	3.8	7.44e-01	0	34	104	0	89	11863
2026-01-01 21:23:19.21	153.67	20.60	-59.9	-70.6	3.8	7.47e-01	0	34	104	0	89	11899
2026-01-01 21:23:20.18	153.89	20.45	-59.9	-70.6	3.8	7.45e-01	0	34	104	0	89	11831
2026-01-01 21:23:21.14	154.11	20.31	-59.9	-70.5	3.8	7.45e-01	0	33	104	0	89	11809
2026-01-01 21:23:22.11	154.33	20.16	-59.9	-70.6	3.8	7.45e-01	0	34	104	0	89	11875
2026-01-01 21:23:23.07	154.54	20.02	-59.9	-70.6	3.8	7.44e-01	0	34	104	0	89	11845
2026-01-01 21:23:24.04	154.76	19.88	-59.9	-70.6	3.8	7.45e-01	0	34	104	0	89	11842
2026-01-01 21:23:25.00	154.97	19.74	-59.9	-70.5	3.8	7.45e-01	0	34	104	0	89	11752
2026-01-01 21:23:25.97	155.18	19.59	-59.9	-70.6	3.8	7.45e-01	0	34	104	0	89	11871
2026-01-01 21:23:26.93	155.38	19.45	-59.9	-70.5	3.8	7.45e-01	0	34	104	0	89	11786
2026-01-01 21:23:27.90	155.59	19.31	-59.8	-70.5	3.8	7.45e-01	0	34	104	0	89	11807
2026-01-01 21:23:28.86	155.79	19.17	-59.8	-70.6	3.8	7.45e-01	0	34	104	0	89	11826
2026-01-01 21:23:29.83	155.99	19.03	-59.9	-70.5	3.8	7.47e-01	0	34	104	0	89	11817
2026-01-01 21:23:30.80	156.19	18.89	-59.8	-70.5	3.8	7.46e-01	0	34	104	0	89	11754
2026-01-01 21:23:31.77	156.39	18.76	-59.8	-70.5	3.8	7.44e-01	0	34	104	0	89	11798
2026-01-01 21:23:32.74	156.58	18.62	-59.8	-70.5	3.8	7.44e-01	0	34	104	0	89	11780
2026-01-01 21:23:33.71	156.78	18.48	-59.8	-70.5	3.8	7.47e-01	0	34	104	0	89	11750
2026-01-01 21:23:34.67	156.97	18.35	-59.8	-70.5	3.8	7.45e-01	0	34	104	0	89	11747
2026-01-01 21:23:35.64	157.16	18.21	-59.8	-70.5	3.8	7.44e-01	0	34	104	0	89	11735
2026-01-01 21:23:36.61	157.34	18.08	-59.8	-70.5	3.8	7.46e-01	0	34	104	0	88	12456
2026-01-01 21:23:37.58	157.53	17.94	-59.8	-70.5	3.8	7.44e-01	0	34	104	0	88	12501
2026-01-01 21:23:38.55	157.71	17.81	-59.8	-70.4	3.8	7.45e-01	0	34	104	0	88	12373
2026-01-01 21:23:39.52	157.90	17.68	-59.8	-70.5	3.8	7.44e-01	0	34	104	0	88	12465
2026-01-01 21:23:40.48	158.07	17.55	-59.8	-70.5	3.8	7.45e-01	0	34	104	0	88	12410
2026-01-01 21:23:41.45	158.25	17.42	-59.8	-70.5	3.8	7.44e-01	0	34	104	0	88	12410
2026-01-01 21:23:42.42	158.43	17.28	-59.8	-70.5	3.8	7.45e-01	0	34	104	0	88	12432
2026-01-01 21:23:43.38	158.60	17.16	-59.8	-70.5	3.8	7.44e-01	0	34	104	0	88	12390
2026-01-01 21:23:44.34	158.77	17.03	-59.8	-70.5	3.8	7.46e-01	0	34	104	0	88	12390
2026-01-01 21:23:45.31	158.95	16.90	-59.8	-70.5	3.8	7.45e-01	0	34	104	0	88	12391
2026-01-01 21:23:46.28	159.12	16.77	-59.8	-70.4	3.8	7.46e-01	0	34	104	0	88	12359
2026-01-01 21:23:47.25	159.29	16.64	-59.8	-70.4	3.8	7.46e-01	0	34	104	0	88	12371
2026-01-01 21:23:48.21	159.45	16.52	-59.7	-70.4	3.8	7.46e-01	0	34	104	0	88	12327
2026-01-01 21:23:49.19	159.62	16.39	-59.7	-70.4	3.8	7.43e-01	0	34	104	0	88	12300
2026-01-01 21:23:50.15	159.78	16.27	-59.8	-70.4	3.8	7.46e-01	0	34	104	0	88	12331
2026-01-01 21:23:51.12	159.94	16.14	-59.7	-70.4	3.8	7.45e-01	0	34	104	0	88	12333
2026-01-01 21:23:52.08	160.10	16.02	-59.7	-70.4	3.8	7.46e-01	0	34	104	0	88	12292
2026-01-01 21:23:53.05	160.26	15.90	-59.7	-70.4	3.8	7.46e-01	0	34	104	0	88	12294
2026-01-01 21:23:54.01	160.42	15.77	-59.7	-70.4	3.8	7.45e-01	0	34	104	0	88	12329
2026-01-01 21:23:54.98	160.57	15.65	-59.7	-70.4	3.8	7.45e-01	0	34	104	0	88	12286
2026-01-01 21:23:55.95	160.73	15.53	-59.7	-70.4	3.8	7.46e-01	0	34	104	0	88	12289
2026-01-01 21:23:56.92	160.88	15.41	-59.7	-70.4	3.8	7.46e-01	0	34	104	0	88	12275
2026-01-01 21:23:57.89	161.03	15.29	-59.7	-70.4	3.8	7.45e-01	0	34	104	0	88	12298
2026-01-01 21:23:58.85	161.18	15.17	-59.7	-70.3	3.8	7.45e-01	0	34	104	0	88	12223
2026-01-01 21:23:59.82	161.33	15.05	-59.7	-70.4	3.8	7.45e-01	0	34	104	0	88	12272
2026-01-01 21:24:00.79	161.48	14.93	-59.7	-70.4	3.8	7.44e-01	0	34	104	0	88	12270
2026-01-01 21:24:01.75	161.62	14.82	-59.7	-70.4	3.8	7.47e-01	0	34	104	0	88	12238
2026-01-01 21:24:02.72	161.77	14.70	-59.7	-70.3	3.8	7.46e-01	0	34	104	0	88	12194
2026-01-01 21:24:03.69	161.91	14.58	-59.6	-70.3	3.8	7.44e-01	0	34	104	0	88	12184
2026-01-01 21:24:04.66	162.05	14.46	-59.6	-70.3	3.8	7.45e-01	0	34	104	0	88	12175
2026-01-01 21:24:05.62	162.19	14.35	-59.6	-70.3	3.8	7.46e-01	0	34	104	0	88	12161
2026-01-01 21:24:06.59	162.33	14.24	-59.6	-70.3	3.8	7.46e-01	0	34	104	0	88	12174
2026-01-01 21:24:07.56	162.47	14.12	-59.6	-70.3	3.8	7.45e-01	0	34	104	0	88	12167
2026-01-01 21:24:08.52	162.61	14.01	-59.6	-70.3	3.8	7.47e-01	0	34	104	0	88	12202
2026-01-01 21:24:09.48	162.74	13.90	-59.6	-70.3	3.8	7.45e-01	0	34	104	0	88	12144
2026-01-01 21:24:10.45	162.88	13.78	-59.6	-70.3	3.8	7.45e-01	0	34	104	0	88	12141
2026-01-01 21:24:11.42	163.01	13.67	-59.6	-70.2	3.8	7.45e-01	0	34	104	0	88	12087
2026-01-01 21:24:12.39	163.14	13.56	-59.6	-70.3	3.8	7.45e-01	0	34	104	0	88	12111
2026-01-01 21:24:13.35	163.27	13.45	-59.6	-70.3	3.8	7.46e-01	0	34	104	0	88	12097
2026-01-01 21:24:14.31	163.40	13.34	-59.6	-70.3	3.8	7.47e-01	0	34	104	0	88	12164
2026-01-01 21:24:15.28	163.53	13.23	-59.6	-70.3	3.8	7.47e-01	0	34	104	0	88	12126
2026-01-01 21:24:16.24	163.66	13.12	-59.6	-70.3	3.8	7.47e-01	0	34	104	0	88	12110
2026-01-01 21:24:17.21	163.79	13.01	-59.5	-70.2	3.8	7.44e-01	0	34	104	0	88	12068
2026-01-01 21:24:18.18	163.91	12.90	-59.6	-70.2	3.8	7.45e-01	0	34	104	0	88	12051
2026-01-01 21:24:19.14	164.04	12.80	-59.5	-70.2	3.8	7.45e-01	0	34	104	0	88	12069
2026-01-01 21:24:20.11	164.16	12.69	-59.5	-70.2	3.8	7.44e-01	0	34	104	0	88	12070
2026-01-01 21:24:21.08	164.28	12.58	-59.5	-70.2	3.8	7.47e-01	0	34	104	0	88	12015
2026-01-01 21:24:22.04	164.40	12.48	-59.5	-70.2	3.8	7.46e-01	0	34	104	0	88	12069
2026-01-01 21:24:23.01	164.52	12.37	-59.5	-70.2	3.8	7.45e-01	0	34	104	0	88	11999
2026-01-01 21:24:23.98	164.64	12.27	-59.5	-70.2	3.8	7.45e-01	0	34	104	0	88	12027
2026-01-01 21:24:24.94	164.76	12.16	-59.5	-70.2	3.8	7.45e-01	0	34	104	0	88	11973
2026-01-01 21:24:25.91	164.88	12.06	-59.5	-70.2	3.8	7.44e-01	0	34	104	0	88	12044
2026-01-01 21:24:26.87	164.99	11.95	-59.5	-70.1	3.8	7.45e-01	0	34	104	0	88	11947
2026-01-01 21:24:27.84	165.11	11.85	-59.5	-70.2	3.8	7.45e-01	0	34	104	0	88	11985
2026-01-01 21:24:28.81	165.23	11.75	-59.5	-70.2	3.8	7.45e-01	0	34	104	0	88	11995
2026-01-01 21:24:29.77	165.34	11.65	-59.5	-70.2	3.8	7.45e-01	0	34	104	0	88	11974
2026-01-01 21:24:30.74	165.45	11.55	-59.4	-70.1	3.8	7.45e-01	0	34	104	0	88	11906
2026-01-01 21:24:31.71	165.56	11.44	-59.5	-70.1	3.8	7.46e-01	0	34	104	0	88	11921
2026-01-01 21:24:32.68	165.68	11.34	-59.4	-70.1	3.8	7.46e-01	0	34	104	0	88	11866
2026-01-01 21:24:33.65	165.79	11.24	-59.4	-70.1	3.8	7.45e-01	0	34	104	0	88	11955
2026-01-01 21:24:34.63	165.90	11.14	-59.4	-70.1	3.8	7.46e-01	0	34	104	0	88	11885
2026-01-01 21:24:35.60	166.00	11.04	-59.4	-70.1	3.8	7.45e-01	0	34	104	0	88	11865
2026-01-01 21:24:36.57	166.11	10.94	-59.4	-70.1	3.8	7.46e-01	0	34	104	0	88	11852
2026-01-01 21:24:37.54	166.22	10.84	-59.4	-70.1	3.8	7.44e-01	0	34	104	0	88	11876
2026-01-01 21:24:38.51	166.33	10.75	-59.4	-70.1	3.8	7.46e-01	0	34	104	0	88	11851
2026-01-01 21:24:39.48	166.43	10.65	-59.4	-70.1	3.8	7.46e-01	0	34	104	0	88	11869
2026-01-01 21:24:40.45	166.54	10.55	-59.4	-70.0	3.8	7.46e-01	0	34	104	0	88	11788
2026-01-01 21:24:41.42	166.64	10.45	-59.4	-70.1	3.8	7.46e-01	0	34	104	0	88	11823
2026-01-01 21:24:42.40	166.74	10.36	-59.4	-70.1	3.8	7.44e-01	0	34	104	0	88	11820
2026-01-01 21:24:43.38	166.85	10.26	-59.4	-70.0	3.8	7.45e-01	0	34	104	0	88	11801
2026-01-01 21:24:44.37	166.95	10.16	-59.3	-70.0	3.8	7.46e-01	0	34	104	0	88	11816
2026-01-01 21:24:45.36	167.05	10.07	-59.3	-70.0	3.8	7.45e-01	0	34	104	0	88	11777
2026-01-01 21:24:46.35	167.15	9.97	-59.3	-70.0	3.8	7.46e-01	0	34	104	0	88	11794
2026-01-01 21:24:47.35	167.25	9.87	-59.3	-70.0	3.8	7.46e-01	0	34	104	0	88	11720
2026-01-01 21:24:48.34	167.36	9.78	-59.3	-70.0	3.8	7.46e-01	0	34	104	0	88	11732
2026-01-01 21:24:49.32	167.45	9.68	-59.3	-69.9	3.8	7.45e-01	0	34	104	0	87	12366
2026-01-01 21:24:50.31	167.55	9.59	-59.3	-70.0	3.8	7.46e-01	0	34	104	0	87	12417
2026-01-01 21:24:51.31	167.65	9.49	-59.3	-70.0	3.8	7.45e-01	0	34	104	0	87	12403
2026-01-01 21:24:52.31	167.75	9.40	-59.3	-69.9	3.8	7.45e-01	0	34	104	0	87	12350
2026-01-01 21:24:53.30	167.85	9.30	-59.2	-69.9	3.8	7.46e-01	0	34	104	0	87	12338
2026-01-01 21:24:54.29	167.94	9.21	-59.3	-69.9	3.8	7.45e-01	0	34	104	0	87	12367
2026-01-01 21:24:55.28	168.04	9.12	-59.2	-69.9	3.8	7.46e-01	0	34	104	0	87	12333
2026-01-01 21:24:56.27	168.13	9.02	-59.2	-70.0	3.8	7.47e-01	0	34	104	0	87	12380
2026-01-01 21:24:57.25	168.22	8.93	-59.2	-69.9	3.8	7.45e-01	0	34	104	0	87	12287
2026-01-01 21:24:58.24	168.31	8.84	-59.2	-69.9	3.8	7.45e-01	0	34	104	0	87	12312
2026-01-01 21:24:59.23	168.41	8.75	-59.2	-69.9	3.8	7.46e-01	0	34	104	0	87	12263
2026-01-01 21:25:00.22	168.50	8.66	-59.2	-69.9	3.8	7.47e-01	0	34	104	0	87	12240
2026-01-01 21:25:01.21	168.59	8.57	-59.1	-69.9	3.8	7.46e-01	0	34	104	0	87	12257
2026-01-01 21:25:02.20	168.68	8.48	-59.2	-69.9	3.8	7.46e-01	0	34	104	0	87	12251
2026-01-01 21:25:03.19	168.77	8.39	-59.1	-69.8	3.8	7.47e-01	0	34	104	0	87	12132
2026-01-01 21:25:04.17	168.86	8.30	-59.2	-69.8	3.8	7.45e-01	0	33	104	0	87	12209
2026-01-01 21:25:05.17	168.95	8.21	-59.1	-69.8	3.8	7.44e-01	0	34	104	0	87	12146
2026-01-01 21:25:06.15	169.03	8.12	-59.2	-69.8	3.8	7.46e-01	0	34	104	0	87	12216
2026-01-01 21:25:07.15	169.12	8.03	-59.1	-69.8	3.8	7.47e-01	0	34	104	0	87	12150
2026-01-01 21:25:08.14	169.21	7.95	-59.1	-69.8	3.8	7.45e-01	0	34	104	0	87	12196
2026-01-01 21:25:09.14	169.29	7.86	-59.1	-69.8	3.8	7.45e-01	0	34	104	0	87	12098
2026-01-01 21:25:10.12	169.38	7.77	-59.1	-69.8	3.8	7.44e-01	0	34	104	0	87	12129
2026-01-01 21:25:11.11	169.46	7.69	-59.0	-69.7	3.8	7.45e-01	0	34	104	0	87	12034
2026-01-01 21:25:12.09	169.54	7.60	-59.1	-69.7	3.8	7.46e-01	0	34	104	0	87	12082
2026-01-01 21:25:13.09	169.63	7.51	-59.0	-69.7	3.8	7.46e-01	0	34	104	0	87	12060
2026-01-01 21:25:14.08	169.71	7.43	-59.1	-69.8	3.8	7.45e-01	0	34	104	0	87	12115
2026-01-01 21:25:15.06	169.79	7.34	-59.0	-69.7	3.8	7.47e-01	0	34	104	0	87	11979
2026-01-01 21:25:16.04	169.87	7.26	-59.1	-69.7	3.8	7.44e-01	0	34	104	0	87	12064
2026-01-01 21:25:17.03	169.95	7.17	-59.0	-69.6	3.8	7.46e-01	0	34	104	0	87	11945
2026-01-01 21:25:18.02	170.03	7.09	-59.1	-69.7	3.8	7.44e-01	0	34	104	0	87	12089
2026-01-01 21:25:19.00	170.11	7.01	-58.9	-69.7	3.8	7.47e-01	0	34	104	0	87	11974
2026-01-01 21:25:19.99	170.19	6.92	-59.0	-69.7	3.8	7.46e-01	0	34	104	0	87	12039
2026-01-01 21:25:20.98	170.27	6.84	-58.9	-69.6	3.8	7.45e-01	0	34	104	0	87	11855
2026-01-01 21:25:21.96	170.35	6.76	-59.0	-69.7	3.8	7.46e-01	0	34	104	0	87	12003
2026-01-01 21:25:22.95	170.43	6.68	-58.9	-69.6	3.8	7.46e-01	0	34	104	0	87	11850
2026-01-01 21:25:23.94	170.50	6.59	-59.0	-69.7	3.8	7.44e-01	0	33	104	0	87	11972
2026-01-01 21:25:24.94	170.58	6.51	-58.9	-69.6	3.8	7.46e-01	0	34	104	0	87	11837
2026-01-01 21:25:25.93	170.66	6.43	-59.0	-69.7	3.8	7.46e-01	0	33	104	0	87	11989
2026-01-01 21:25:26.91	170.73	6.35	-58.9	-69.5	3.8	7.46e-01	0	34	104	0	87	11814
2026-01-01 21:25:27.89	170.81	6.27	-58.9	-69.6	3.8	7.46e-01	0	34	104	0	87	11946
2026-01-01 21:25:28.88	170.88	6.19	-58.8	-69.5	3.8	7.45e-01	0	34	104	0	87	11754
2026-01-01 21:25:29.86	170.95	6.11	-59.0	-69.6	3.8	7.47e-01	0	34	104	0	85	13395
2026-01-01 21:25:30.85	171.03	6.03	-58.8	-69.5	3.8	7.45e-01	0	34	104	0	85	13177
2026-01-01 21:25:31.84	171.10	5.95	-58.9	-69.6	3.8	7.46e-01	0	34	104	0	85	13357
2026-01-01 21:25:32.84	171.17	5.87	-58.8	-69.5	3.8	7.45e-01	0	34	104	0	85	13124
2026-01-01 21:25:33.83	171.25	5.79	-58.9	-69.6	3.8	7.45e-01	0	34	104	0	85	13300
2026-01-01 21:25:34.81	171.32	5.71	-58.7	-69.4	3.8	7.47e-01	0	34	104	0	85	13018
2026-01-01 21:25:35.79	171.39	5.63	-58.8	-69.5	3.8	7.44e-01	0	34	104	0	85	13212
2026-01-01 21:25:36.79	171.46	5.55	-58.7	-69.4	3.8	7.47e-01	0	34	104	0	85	13049
2026-01-01 21:25:37.77	171.53	5.48	-58.8	-69.5	3.8	7.44e-01	0	34	104	0	85	13246
2026-01-01 21:25:38.76	171.60	5.40	-58.7	-69.4	3.8	7.45e-01	0	34	104	0	85	13050
2026-01-01 21:25:39.75	171.67	5.32	-58.8	-69.4	3.8	7.46e-01	0	34	104	0	85	13094
2026-01-01 21:25:40.74	171.74	5.24	-58.6	-69.3	3.8	7.47e-01	0	34	104	0	85	12946
2026-01-01 21:25:41.73	171.81	5.17	-58.8	-69.5	3.8	7.46e-01	0	34	104	0	85	13113
2026-01-01 21:25:42.72	171.87	5.09	-58.6	-69.3	3.8	7.45e-01	0	34	104	0	85	12892
2026-01-01 21:25:43.71	171.94	5.01	-58.8	-69.4	3.8	7.46e-01	0	34	104	0	85	13060
2026-01-01 21:25:44.71	172.01	4.94	-59.4	-70.0	3.8	7.45e-01	0	34	104	0	86	13253
2026-01-01 21:25:45.70	172.08	4.86	-59.7	-70.4	3.8	7.46e-01	0	34	104	0	87	13008
2026-01-01 21:25:46.68	172.14	4.78	-60.0	-70.7	3.8	7.45e-01	0	34	104	0	87	13443
2026-01-01 21:25:47.67	172.21	4.71	-60.2	-70.8	3.8	7.45e-01	0	34	104	0	88	12941
2026-01-01 21:25:48.65	172.27	4.63	-60.4	-71.1	3.8	7.46e-01	0	34	104	0	88	13294
2026-01-01 21:25:49.64	172.34	4.56	-60.5	-71.2	3.8	7.45e-01	0	34	104	0	89	12723
2026-01-01 21:25:50.62	172.40	4.49	-60.7	-71.3	3.8	7.46e-01	0	34	104	0	89	12938
2026-01-01 21:25:51.62	172.47	4.41	-60.8	-71.4	3.8	7.44e-01	0	34	104	0	89	13093
2026-01-01 21:25:52.60	172.53	4.34	-60.9	-71.6	3.8	7.46e-01	0	34	104	0	89	13370
2026-01-01 21:25:53.59	172.59	4.26	-61.0	-71.7	3.8	7.46e-01	0	34	104	0	89	13435
2026-01-01 21:25:54.58	172.66	4.19	-61.1	-71.7	3.8	7.45e-01	0	34	104	0	90	12764
2026-01-01 21:25:55.57	172.72	4.12	-61.1	-71.8	3.8	7.46e-01	0	34	104	0	90	12931
2026-01-01 21:25:56.55	172.78	4.04	-61.2	-71.9	3.8	7.46e-01	0	34	104	0	90	12998
2026-01-01 21:25:57.54	172.84	3.97	-61.2	-71.9	3.8	7.44e-01	0	34	104	0	90	13098
2026-01-01 21:25:58.53	172.91	3.90	-61.3	-72.0	3.8	7.46e-01	0	34	104	0	90	13153
2026-01-01 21:25:59.52	172.97	3.83	-61.3	-72.0	3.8	7.46e-01	0	34	104	0	90	13157
2026-01-01 21:26:00.51	173.03	3.75	-61.3	-72.0	3.8	7.45e-01	0	34	104	0	90	13211
2026-01-01 21:26:01.49	173.09	3.68	-61.4	-72.1	3.8	7.45e-01	0	34	104	0	90	13279
2026-01-01 21:26:02.47	173.15	3.61	-61.4	-72.1	3.8	7.46e-01	0	34	104	0	90	13268
2026-01-01 21:26:03.46	173.21	3.54	-61.4	-72.1	3.8	7.46e-01	0	34	104	0	90	13297
2026-01-01 21:26:04.46	173.27	3.47	-61.4	-72.1	3.8	7.46e-01	0	34	104	0	90	13263
2026-01-01 21:26:05.45	173.33	3.40	-61.4	-72.1	3.8	7.46e-01	0	34	104	0	90	13298
2026-01-01 21:26:06.44	173.39	3.33	-61.4	-72.1	3.8	7.45e-01	0	34	104	0	90	13321
2026-01-01 21:26:07.42	173.45	3.26	-61.4	-72.0	3.8	7.48e-01	0	34	104	0	90	13197
2026-01-01 21:26:08.42	173.50	3.19	-61.3	-72.0	3.8	7.46e-01	0	34	104	0	90	13191
2026-01-01 21:26:09.40	173.56	3.12	-61.3	-72.0	3.8	7.45e-01	0	34	104	0	90	13188
2026-01-01 21:26:10.39	173.62	3.05	-61.3	-72.0	3.8	7.45e-01	0	34	104	0	90	13122
2026-01-01 21:26:11.38	173.68	2.98	-61.3	-72.0	3.8	7.45e-01	0	34	104	0	90	13132
2026-01-01 21:26:12.36	173.73	2.91	-61.3	-72.0	3.8	7.46e-01	0	34	104	0	90	13149
2026-01-01 21:26:13.35	173.79	2.84	-61.3	-71.9	3.8	7.47e-01	0	34	104	0	90	13036
2026-01-01 21:26:14.34	173.85	2.77	-61.3	-71.9	3.8	7.44e-01	0	34	104	0	90	13090
2026-01-01 21:26:15.33	173.90	2.70	-61.2	-71.9	3.8	7.44e-01	0	34	104	0	90	13097
2026-01-01 21:26:16.33	173.96	2.63	-61.2	-71.9	3.8	7.48e-01	0	34	104	0	90	13066
2026-01-01 21:26:17.34	174.01	2.56	-61.2	-71.9	3.8	7.45e-01	0	34	104	0	90	13042
2026-01-01 21:26:18.34	174.07	2.49	-61.2	-71.9	3.8	7.46e-01	0	34	104	0	90	13037
2026-01-01 21:26:19.34	174.13	2.42	-61.2	-71.9	3.8	7.46e-01	0	34	104	0	90	13017
2026-01-01 21:26:20.34	174.18	2.35	-61.2	-71.9	3.8	7.47e-01	0	34	104	0	90	13044
2026-01-01 21:26:21.33	174.23	2.29	-61.2	-71.9	3.8	7.48e-01	0	34	104	0	90	12998
2026-01-01 21:26:22.33	174.29	2.22	-61.2	-71.9	3.8	7.44e-01	0	34	104	0	90	12977
2026-01-01 21:26:23.33	174.34	2.15	-61.2	-71.8	3.8	7.45e-01	0	34	104	0	90	12951
2026-01-01 21:26:24.33	174.40	2.08	-61.2	-71.9	3.8	7.45e-01	0	34	104	0	90	12988
2026-01-01 21:26:25.33	174.45	2.02	-61.2	-71.9	3.8	7.46e-01	0	34	104	0	90	12969
2026-01-01 21:26:26.33	174.50	1.95	-61.2	-71.8	3.8	7.47e-01	0	34	104	0	90	12957

#Closed at: 2026-01-01 21:26:27
#Recorded file [0 MB]: D:/lorett/data/31004_260102_001613.dat