passes_logs/2026/01/01/R3.2S_Murmansk/R3.2S_Murmansk__20260101_223425_KANOPUS-V_6_rec.log

#Pass ID: 20260101_223425_KANOPUS-V 6
#Satellite: KANOPUS-V 6
#Configuration: KANOPUS-V_8320
#almurnet v.1.7.20251203
#Start time: 2026-01-01 22:37:02

#Version: 2.2.20231116
#Station: R3.2S_Murmansk
#Location: 33.079688 lon 68.888172 lat
#TLE: 1 43877U 18111B   26001.20722580  .00026151  00000+0  76270-3 0  9995
#TLE: 2 43877  97.3771 277.3120 0002522 101.1090 259.0437 15.35332397389843

#Time	Az	El	Level	Level2	SNR	BER	BlckErr	Temp	State	Recorded	gain1	gain2
2026-01-01 22:37:02.26	24.81	18.55	-61.1	-71.7	3.8	7.46e-01	0	33	0	0	90	12782
2026-01-01 22:37:03.25	24.86	18.72	-63.0	-72.7	3.8	7.47e-01	0	33	104	0	90	10902
2026-01-01 22:37:04.26	24.90	18.90	-63.0	-72.8	3.8	7.45e-01	0	33	104	0	90	10941
2026-01-01 22:37:05.26	24.95	19.08	-63.0	-72.7	3.8	7.44e-01	0	33	104	0	90	10898
2026-01-01 22:37:06.26	25.00	19.25	-63.0	-72.7	3.8	7.45e-01	0	33	104	0	90	10857
2026-01-01 22:37:07.27	25.05	19.44	-62.9	-72.7	3.8	7.46e-01	0	33	104	0	90	10788
2026-01-01 22:37:08.26	25.10	19.62	-62.9	-72.6	3.8	7.46e-01	0	33	104	0	90	10730
2026-01-01 22:37:09.27	25.15	19.80	-62.9	-72.6	3.8	7.45e-01	0	33	104	0	90	10753
2026-01-01 22:37:10.26	25.20	19.99	-62.9	-72.6	3.8	7.45e-01	0	33	104	0	90	10688
2026-01-01 22:37:11.25	25.25	20.17	-62.8	-72.5	3.8	7.45e-01	0	33	104	0	90	10650
2026-01-01 22:37:12.26	25.30	20.36	-62.8	-72.5	3.8	7.46e-01	0	33	104	0	90	10591
2026-01-01 22:37:13.25	25.36	20.55	-62.7	-72.4	3.8	7.46e-01	0	33	104	0	90	10487
2026-01-01 22:37:14.26	25.41	20.75	-62.6	-72.3	3.8	7.47e-01	0	33	104	0	89	11014
2026-01-01 22:37:15.26	25.46	20.94	-62.6	-72.3	3.8	7.46e-01	0	33	104	0	89	10941
2026-01-01 22:37:16.26	25.52	21.14	-62.6	-72.3	3.8	7.46e-01	0	33	104	0	89	10925
2026-01-01 22:37:17.26	25.58	21.34	-62.5	-72.3	3.8	7.47e-01	0	33	104	0	89	10967
2026-01-01 22:37:18.25	25.63	21.54	-62.5	-72.2	3.8	7.46e-01	0	34	104	0	89	10899
2026-01-01 22:37:19.26	25.69	21.74	-62.5	-72.2	3.8	7.46e-01	0	33	104	0	89	10877
2026-01-01 22:37:20.26	25.75	21.95	-62.5	-72.2	3.8	7.46e-01	0	33	104	0	89	10874
2026-01-01 22:37:21.26	25.81	22.15	-62.5	-72.2	3.8	7.47e-01	0	33	104	0	89	10856
2026-01-01 22:37:22.26	25.87	22.36	-62.5	-72.3	3.8	7.45e-01	0	33	104	0	89	10907
2026-01-01 22:37:23.26	25.93	22.57	-62.5	-72.2	3.8	7.45e-01	0	33	104	0	89	10814
2026-01-01 22:37:24.25	25.99	22.78	-62.5	-72.2	3.8	7.45e-01	0	33	104	0	89	10900
2026-01-01 22:37:25.25	26.05	23.00	-62.5	-72.2	3.8	7.46e-01	0	33	104	0	89	10870
2026-01-01 22:37:26.26	26.12	23.22	-62.5	-72.2	3.8	7.45e-01	0	33	104	0	89	10847
2026-01-01 22:37:27.26	26.18	23.44	-62.5	-72.2	3.8	7.47e-01	0	33	104	0	89	10794
2026-01-01 22:37:28.26	26.25	23.66	-62.5	-72.2	3.8	7.46e-01	0	33	104	0	89	10861
2026-01-01 22:37:29.27	26.31	23.89	-62.5	-72.2	3.8	7.45e-01	0	33	104	0	89	10803
2026-01-01 22:37:30.27	26.38	24.12	-62.4	-72.2	3.8	7.45e-01	0	34	104	0	89	10789
2026-01-01 22:37:31.27	26.45	24.35	-62.4	-72.2	3.8	7.45e-01	0	33	104	0	89	10806
2026-01-01 22:37:32.26	26.52	24.58	-62.4	-72.2	3.8	7.44e-01	0	33	104	0	89	10789
2026-01-01 22:37:33.27	26.59	24.82	-62.4	-72.1	3.8	7.45e-01	0	33	104	0	89	10761
2026-01-01 22:37:34.26	26.66	25.06	-62.4	-72.2	3.8	7.45e-01	0	33	104	0	89	10810
2026-01-01 22:37:35.26	26.73	25.30	-62.4	-72.1	3.8	7.45e-01	0	33	104	0	89	10774
2026-01-01 22:37:36.26	26.81	25.54	-62.4	-72.1	3.8	7.44e-01	0	34	104	0	89	10770
2026-01-01 22:37:37.26	26.88	25.79	-62.4	-72.1	3.8	7.45e-01	0	34	104	0	89	10748
2026-01-01 22:37:38.25	26.96	26.03	-62.4	-72.2	3.8	7.45e-01	0	34	104	0	89	10780
2026-01-01 22:37:39.25	27.04	26.29	-62.4	-72.1	3.8	7.45e-01	0	33	104	0	89	10762
2026-01-01 22:37:40.25	27.12	26.54	-62.4	-72.1	3.8	7.46e-01	0	33	104	0	89	10736
2026-01-01 22:37:41.25	27.20	26.80	-62.4	-72.1	3.8	7.45e-01	0	33	104	0	89	10760
2026-01-01 22:37:42.25	27.28	27.06	-62.4	-72.1	3.8	7.45e-01	0	33	104	0	89	10731
2026-01-01 22:37:43.25	27.37	27.32	-62.4	-72.1	3.8	7.45e-01	0	33	104	0	89	10729
2026-01-01 22:37:44.25	27.45	27.59	-62.4	-72.1	3.8	7.46e-01	0	33	104	0	89	10750
2026-01-01 22:37:45.25	27.54	27.86	-62.4	-72.1	3.8	7.45e-01	0	34	104	0	89	10749
2026-01-01 22:37:46.24	27.62	28.13	-62.4	-72.1	3.8	7.44e-01	0	33	104	0	89	10676
2026-01-01 22:37:47.24	27.71	28.41	-62.4	-72.1	3.8	7.46e-01	0	34	104	0	89	10705
2026-01-01 22:37:48.23	27.80	28.69	-62.4	-72.1	3.8	7.45e-01	0	34	104	0	89	10722
2026-01-01 22:37:49.23	27.90	28.97	-62.4	-72.1	3.8	7.48e-01	0	33	104	0	89	10719
2026-01-01 22:37:50.23	27.99	29.26	-62.4	-72.1	3.8	7.46e-01	0	34	104	0	89	10738
2026-01-01 22:37:51.23	28.09	29.55	-62.4	-72.1	3.8	7.46e-01	0	34	104	0	89	10709
2026-01-01 22:37:52.23	28.19	29.84	-62.4	-72.1	3.8	7.46e-01	0	34	104	0	89	10724
2026-01-01 22:37:53.23	28.29	30.14	-62.4	-72.1	3.8	7.47e-01	0	33	104	0	89	10718
2026-01-01 22:37:54.23	28.39	30.45	-62.3	-72.1	3.8	7.47e-01	0	33	104	0	89	10663
2026-01-01 22:37:55.22	28.50	30.75	-62.4	-72.1	3.8	7.47e-01	0	33	104	0	89	10686
2026-01-01 22:37:56.22	28.60	31.06	-62.4	-72.0	3.8	7.45e-01	0	34	104	0	89	10654
2026-01-01 22:37:57.22	28.71	31.37	-62.4	-72.1	3.8	7.46e-01	0	33	104	0	89	10750
2026-01-01 22:37:58.21	28.82	31.69	-62.4	-72.1	3.8	7.46e-01	0	33	104	0	89	10713
2026-01-01 22:37:59.21	28.93	32.01	-62.4	-72.2	3.8	7.44e-01	0	33	104	0	89	10817
2026-01-01 22:38:00.22	29.05	32.34	-62.4	-72.1	3.8	7.47e-01	0	33	104	0	89	10732
2026-01-01 22:38:01.22	29.17	32.67	-62.3	-72.0	3.8	7.46e-01	0	33	104	0	89	10619
2026-01-01 22:38:02.22	29.29	33.00	-62.3	-72.1	3.8	7.47e-01	0	33	104	0	89	10674
2026-01-01 22:38:03.21	29.41	33.34	-62.4	-72.1	3.8	7.46e-01	0	34	104	0	89	10750
2026-01-01 22:38:04.22	29.54	33.68	-62.4	-72.1	3.8	7.45e-01	0	33	104	0	89	10766
2026-01-01 22:38:05.21	29.67	34.03	-62.3	-72.0	3.8	7.44e-01	0	33	104	0	89	10633
2026-01-01 22:38:06.21	29.80	34.38	-62.3	-72.1	3.8	7.46e-01	0	34	104	0	89	10670
2026-01-01 22:38:07.22	29.94	34.74	-62.4	-72.1	3.8	7.44e-01	0	33	104	0	89	10743
2026-01-01 22:38:08.22	30.07	35.10	-62.4	-72.1	3.8	7.45e-01	0	34	104	0	89	10731
2026-01-01 22:38:09.22	30.22	35.47	-62.3	-72.0	3.8	7.47e-01	0	33	104	0	89	10651
2026-01-01 22:38:10.22	30.36	35.84	-62.3	-72.1	3.8	7.46e-01	0	33	104	0	89	10705
2026-01-01 22:38:11.22	30.51	36.22	-62.4	-72.1	3.8	7.47e-01	0	34	104	0	89	10758
2026-01-01 22:38:12.22	30.66	36.60	-62.4	-72.1	3.8	7.45e-01	0	33	104	0	89	10718
2026-01-01 22:38:13.21	30.82	36.98	-62.3	-72.1	3.8	7.46e-01	0	33	104	0	89	10683
2026-01-01 22:38:14.21	30.97	37.37	-62.4	-72.1	3.8	7.46e-01	0	34	104	0	89	10696
2026-01-01 22:38:15.21	31.14	37.77	-62.4	-72.1	3.8	7.47e-01	0	33	104	0	89	10772
2026-01-01 22:38:16.22	31.31	38.17	-62.4	-72.1	3.8	7.45e-01	0	33	104	0	89	10762
2026-01-01 22:38:17.21	31.48	38.58	-62.3	-72.1	3.8	7.45e-01	0	33	104	0	89	10699
2026-01-01 22:38:18.21	31.66	38.99	-62.4	-72.1	3.8	7.44e-01	0	33	104	0	89	10691
2026-01-01 22:38:19.21	31.84	39.41	-62.4	-72.1	3.8	7.46e-01	0	34	104	0	89	10766
2026-01-01 22:38:20.21	32.02	39.83	-62.4	-72.2	3.8	7.47e-01	0	34	104	0	89	10785
2026-01-01 22:38:21.20	32.21	40.26	-62.4	-72.1	3.8	7.46e-01	0	33	104	0	89	10697
2026-01-01 22:38:22.20	32.41	40.70	-62.4	-72.1	3.8	7.45e-01	0	33	104	0	89	10742
2026-01-01 22:38:23.20	32.61	41.14	-62.4	-72.1	3.8	7.45e-01	0	34	104	0	89	10757
2026-01-01 22:38:24.20	32.82	41.59	-62.4	-72.2	3.8	7.46e-01	0	33	104	0	89	10786
2026-01-01 22:38:25.20	33.03	42.04	-62.4	-72.1	3.8	7.47e-01	0	34	104	0	89	10727
2026-01-01 22:38:26.20	33.25	42.50	-62.4	-72.1	3.8	7.44e-01	0	34	104	0	89	10765
2026-01-01 22:38:27.21	33.48	42.97	-62.4	-72.2	3.8	7.44e-01	0	34	104	0	89	10791
2026-01-01 22:38:28.21	33.72	43.44	-62.4	-72.2	3.8	7.45e-01	0	33	104	0	89	10812
2026-01-01 22:38:29.21	33.96	43.92	-62.4	-72.1	3.8	7.46e-01	0	34	104	0	89	10712
2026-01-01 22:38:30.21	34.21	44.41	-62.4	-72.2	3.8	7.46e-01	0	34	104	0	89	10805
2026-01-01 22:38:31.22	34.47	44.90	-62.5	-72.2	3.8	7.46e-01	0	33	104	0	89	10845
2026-01-01 22:38:32.21	34.73	45.40	-62.5	-72.2	3.8	7.46e-01	0	33	104	0	89	10818
2026-01-01 22:38:33.21	35.00	45.90	-62.4	-72.1	3.8	7.47e-01	0	33	104	0	89	10745
2026-01-01 22:38:34.20	35.29	46.41	-62.5	-72.2	3.8	7.46e-01	0	33	104	0	89	10808
2026-01-01 22:38:35.20	35.58	46.92	-62.5	-72.2	3.8	7.46e-01	0	33	104	0	89	10851
2026-01-01 22:38:36.20	35.88	47.45	-62.5	-72.2	3.8	7.45e-01	0	33	104	0	89	10863
2026-01-01 22:38:37.20	36.19	47.98	-62.4	-72.1	3.8	7.45e-01	0	34	104	0	89	10746
2026-01-01 22:38:38.19	36.52	48.51	-62.5	-72.2	3.8	7.47e-01	0	33	104	0	89	10817
2026-01-01 22:38:39.18	36.85	49.05	-62.5	-72.2	3.8	7.46e-01	0	33	104	0	89	10863
2026-01-01 22:38:40.18	37.20	49.60	-62.5	-72.2	3.8	7.47e-01	0	33	104	0	89	10900
2026-01-01 22:38:41.18	37.56	50.15	-62.4	-72.2	3.8	7.46e-01	0	34	104	0	89	10807
2026-01-01 22:38:42.17	37.93	50.71	-62.5	-72.2	3.8	7.46e-01	0	33	104	0	89	10882
2026-01-01 22:38:43.16	38.32	51.27	-62.5	-72.2	3.8	7.46e-01	0	33	104	0	89	10897
2026-01-01 22:38:44.15	38.72	51.84	-62.5	-72.2	3.8	7.46e-01	0	33	104	0	89	10862
2026-01-01 22:38:45.15	39.14	52.43	-62.5	-72.2	3.8	7.45e-01	0	33	104	0	89	10849
2026-01-01 22:38:46.15	39.58	53.02	-62.5	-72.2	3.8	7.43e-01	0	33	104	0	89	10884
2026-01-01 22:38:47.15	40.04	53.61	-62.5	-72.3	3.8	7.45e-01	0	34	104	0	89	10989
2026-01-01 22:38:48.14	40.51	54.20	-62.5	-72.3	3.8	7.45e-01	0	34	104	0	89	10913
2026-01-01 22:38:49.14	41.01	54.81	-62.5	-72.2	3.8	7.46e-01	0	33	104	0	89	10840
2026-01-01 22:38:50.13	41.52	55.42	-62.5	-72.2	3.8	7.46e-01	0	33	104	0	89	10903
2026-01-01 22:38:51.12	42.06	56.03	-62.6	-72.3	3.8	7.48e-01	0	33	104	0	89	10996
2026-01-01 22:38:52.11	42.62	56.64	-62.6	-72.3	3.8	7.45e-01	0	34	104	0	89	10992
2026-01-01 22:38:53.11	43.21	57.27	-62.5	-72.3	3.8	7.45e-01	0	34	104	0	89	10921
2026-01-01 22:38:54.11	43.84	57.90	-62.6	-72.3	3.8	7.46e-01	0	34	104	0	89	10974
2026-01-01 22:38:55.11	44.49	58.54	-62.6	-72.3	3.8	7.47e-01	0	33	104	0	89	10984
2026-01-01 22:38:56.11	45.18	59.18	-62.6	-72.3	3.8	7.43e-01	0	34	104	0	89	11004
2026-01-01 22:38:57.10	45.89	59.82	-62.5	-72.3	3.8	7.46e-01	0	33	104	0	89	10923
2026-01-01 22:38:58.10	46.65	60.47	-62.6	-72.3	3.8	7.47e-01	0	33	104	0	89	11029
2026-01-01 22:38:59.09	47.43	61.11	-62.6	-72.3	3.8	7.47e-01	0	33	104	0	89	10995
2026-01-01 22:39:00.09	48.27	61.77	-62.6	-72.3	3.8	7.46e-01	0	34	104	0	89	11029
2026-01-01 22:39:01.09	49.16	62.42	-62.6	-72.3	3.8	7.45e-01	0	33	104	0	89	10940
2026-01-01 22:39:02.08	50.09	63.07	-62.6	-72.3	3.8	7.46e-01	0	33	104	0	89	10991
2026-01-01 22:39:03.07	51.06	63.72	-62.6	-72.4	3.8	7.46e-01	0	33	104	0	89	11057
2026-01-01 22:39:04.07	52.11	64.37	-62.6	-72.3	3.8	7.44e-01	0	33	104	0	89	11025
2026-01-01 22:39:05.07	53.22	65.02	-62.6	-72.3	3.8	7.46e-01	0	33	104	0	89	11002
2026-01-01 22:39:06.08	54.40	65.68	-62.6	-72.4	3.8	7.45e-01	0	33	104	0	89	11030
2026-01-01 22:39:07.07	55.64	66.32	-62.6	-72.4	3.8	7.46e-01	0	33	104	0	89	11075
2026-01-01 22:39:08.08	56.97	66.97	-62.7	-72.4	3.8	7.46e-01	0	33	104	0	89	11095
2026-01-01 22:39:09.07	58.36	67.60	-62.6	-72.3	3.8	7.46e-01	0	33	104	0	89	10972
2026-01-01 22:39:10.07	59.86	68.23	-62.6	-72.4	3.8	7.46e-01	0	33	104	0	89	11081
2026-01-01 22:39:11.07	61.45	68.84	-62.7	-72.4	3.8	7.46e-01	0	33	104	0	89	11131
2026-01-01 22:39:12.07	63.15	69.45	-62.7	-72.4	3.8	7.48e-01	0	34	104	0	89	11110
2026-01-01 22:39:13.07	64.95	70.04	-62.6	-72.3	3.8	7.45e-01	0	34	104	0	89	11027
2026-01-01 22:39:14.07	66.87	70.62	-62.7	-72.4	3.8	7.45e-01	0	33	104	0	89	11115
2026-01-01 22:39:15.07	68.92	71.18	-62.7	-72.5	3.8	7.45e-01	0	34	104	0	89	11165
2026-01-01 22:39:16.07	71.10	71.72	-62.7	-72.4	3.8	7.45e-01	0	33	104	0	89	11129
2026-01-01 22:39:17.07	73.41	72.23	-62.7	-72.4	3.8	7.45e-01	0	33	104	0	89	11061
2026-01-01 22:39:18.07	75.87	72.72	-62.7	-72.4	3.8	7.45e-01	0	33	104	0	89	11087
2026-01-01 22:39:19.07	78.48	73.18	-62.7	-72.4	3.8	7.45e-01	0	33	104	0	89	11121
2026-01-01 22:39:20.06	81.20	73.60	-62.7	-72.4	3.8	7.47e-01	0	33	104	0	89	11132
2026-01-01 22:39:21.07	84.13	74.00	-62.6	-72.4	3.8	7.46e-01	0	33	104	0	89	11084
2026-01-01 22:39:22.07	87.18	74.35	-62.7	-72.4	3.8	7.46e-01	0	33	104	0	89	11144
2026-01-01 22:39:23.07	90.36	74.65	-62.7	-72.4	3.8	7.46e-01	0	33	104	0	89	11149
2026-01-01 22:39:24.07	93.67	74.91	-62.7	-72.4	3.8	7.44e-01	0	34	104	0	89	11133
2026-01-01 22:39:25.07	97.08	75.13	-62.7	-72.4	3.8	7.45e-01	0	34	104	0	89	11120
2026-01-01 22:39:26.07	100.59	75.29	-62.7	-72.4	3.8	7.46e-01	0	33	104	0	89	11109
2026-01-01 22:39:27.07	104.16	75.39	-62.7	-72.5	3.8	7.45e-01	0	33	104	0	89	11193
2026-01-01 22:39:28.07	107.77	75.44	-62.7	-72.4	3.8	7.47e-01	0	33	104	0	89	11157
2026-01-01 22:39:29.07	111.40	75.44	-62.7	-72.4	3.8	7.46e-01	0	33	104	0	89	11092
2026-01-01 22:39:30.07	115.01	75.38	-62.7	-72.4	3.8	7.46e-01	0	34	104	0	89	11148
2026-01-01 22:39:31.06	118.53	75.26	-62.7	-72.5	3.8	7.47e-01	0	33	104	0	89	11185
2026-01-01 22:39:32.06	122.03	75.09	-62.7	-72.4	3.8	7.46e-01	0	33	104	0	89	11156
2026-01-01 22:39:33.07	125.46	74.87	-62.7	-72.4	3.8	7.45e-01	0	33	104	0	89	11111
2026-01-01 22:39:34.07	128.75	74.60	-62.7	-72.4	3.8	7.47e-01	0	33	104	0	89	11139
2026-01-01 22:39:35.07	131.90	74.29	-62.7	-72.4	3.8	7.47e-01	0	33	104	0	89	11157
2026-01-01 22:39:36.07	134.92	73.93	-62.7	-72.4	3.8	7.46e-01	0	34	104	0	89	11148
2026-01-01 22:39:37.06	137.77	73.53	-62.7	-72.4	3.8	7.45e-01	0	33	104	0	89	11090
2026-01-01 22:39:38.06	140.50	73.10	-62.7	-72.4	3.8	7.44e-01	0	33	104	0	89	11138
2026-01-01 22:39:39.06	143.08	72.64	-62.7	-72.5	3.8	7.44e-01	0	34	104	0	89	11169
2026-01-01 22:39:40.06	145.52	72.14	-62.7	-72.4	3.8	7.47e-01	0	33	104	0	89	11150
2026-01-01 22:39:41.06	147.81	71.62	-62.7	-72.4	3.8	7.46e-01	0	33	104	0	89	11084
2026-01-01 22:39:42.06	149.97	71.08	-62.7	-72.4	3.8	7.45e-01	0	34	104	0	89	11110
2026-01-01 22:39:43.06	151.99	70.52	-62.7	-72.5	3.8	7.44e-01	0	33	104	0	89	11187
2026-01-01 22:39:44.04	153.86	69.95	-62.7	-72.4	3.8	7.45e-01	0	33	104	0	89	11136
2026-01-01 22:39:45.03	155.63	69.36	-62.6	-72.4	3.8	7.46e-01	0	33	104	0	89	11058
2026-01-01 22:39:46.03	157.31	68.75	-62.7	-72.4	3.8	7.46e-01	0	33	104	0	89	11138
2026-01-01 22:39:47.03	158.89	68.13	-62.7	-72.4	3.8	7.45e-01	0	34	104	0	89	11135
2026-01-01 22:39:48.03	160.37	67.50	-62.7	-72.4	3.8	7.45e-01	0	33	104	0	89	11134
2026-01-01 22:39:49.02	161.75	66.87	-62.6	-72.4	3.8	7.46e-01	0	33	104	0	89	11052
2026-01-01 22:39:50.02	163.06	66.22	-62.7	-72.4	3.8	7.45e-01	0	33	104	0	89	11093
2026-01-01 22:39:51.01	164.29	65.58	-62.7	-72.4	3.8	7.46e-01	0	33	104	0	89	11118
2026-01-01 22:39:52.00	165.44	64.94	-62.7	-72.4	3.8	7.46e-01	0	33	104	0	89	11113
2026-01-01 22:39:53.00	166.54	64.28	-62.6	-72.4	3.8	7.45e-01	0	34	104	0	89	11049
2026-01-01 22:39:54.00	167.58	63.62	-62.7	-72.4	3.8	7.46e-01	0	33	104	0	89	11098
2026-01-01 22:39:54.98	168.54	62.98	-62.7	-72.4	3.8	7.45e-01	0	33	104	0	89	11106
2026-01-01 22:39:55.98	169.47	62.32	-62.7	-72.4	3.8	7.47e-01	0	33	104	0	89	11115
2026-01-01 22:39:56.98	170.36	61.67	-62.6	-72.3	3.8	7.44e-01	0	33	104	0	89	11027
2026-01-01 22:39:57.98	171.19	61.01	-62.7	-72.4	3.8	7.44e-01	0	33	104	0	89	11067
2026-01-01 22:39:58.98	171.98	60.36	-62.6	-72.4	3.8	7.45e-01	0	33	104	0	89	11087
2026-01-01 22:39:59.98	172.74	59.71	-62.6	-72.3	3.8	7.46e-01	0	33	104	0	89	11029
2026-01-01 22:40:00.98	173.45	59.07	-62.6	-72.3	3.8	7.45e-01	0	33	104	0	89	10958
2026-01-01 22:40:01.98	174.13	58.43	-62.6	-72.4	3.8	7.46e-01	0	33	104	0	89	11033
2026-01-01 22:40:02.98	174.78	57.79	-62.6	-72.4	3.8	7.46e-01	0	33	104	0	89	11047
2026-01-01 22:40:03.98	175.40	57.15	-62.6	-72.4	3.8	7.46e-01	0	33	104	0	89	11048
2026-01-01 22:40:04.98	175.99	56.53	-62.6	-72.3	3.8	7.46e-01	0	33	104	0	89	10965
2026-01-01 22:40:05.99	176.56	55.90	-62.6	-72.3	3.8	7.46e-01	0	33	104	0	89	10982
2026-01-01 22:40:06.98	177.09	55.28	-62.6	-72.3	3.8	7.44e-01	0	34	104	0	89	10986
2026-01-01 22:40:07.99	177.62	54.67	-62.6	-72.3	3.8	7.46e-01	0	33	104	0	89	10978
2026-01-01 22:40:08.99	178.11	54.06	-62.5	-72.3	3.8	7.46e-01	0	33	104	0	89	10977
2026-01-01 22:40:09.98	178.58	53.46	-62.5	-72.3	3.8	7.47e-01	0	33	104	0	89	10924
2026-01-01 22:40:10.98	179.03	52.87	-62.6	-72.3	3.8	7.45e-01	0	34	104	0	89	10954
2026-01-01 22:40:11.97	179.46	52.29	-62.6	-72.3	3.8	7.46e-01	0	34	104	0	89	10984
2026-01-01 22:40:12.97	179.88	51.70	-62.5	-72.3	3.8	7.46e-01	0	33	104	0	89	10933
2026-01-01 22:40:13.97	180.29	51.13	-62.6	-72.3	3.8	7.45e-01	0	33	104	0	89	10940
2026-01-01 22:40:14.96	180.67	50.56	-62.6	-72.3	3.8	7.46e-01	0	33	104	0	89	10958
2026-01-01 22:40:15.96	181.04	50.00	-62.5	-72.2	3.8	7.46e-01	0	33	104	0	89	10867
2026-01-01 22:40:16.96	181.40	49.44	-62.5	-72.2	3.8	7.47e-01	0	33	104	0	89	10878
2026-01-01 22:40:17.96	181.75	48.89	-62.5	-72.2	3.8	7.45e-01	0	33	104	0	89	10853
2026-01-01 22:40:18.96	182.08	48.35	-62.5	-72.2	3.8	7.44e-01	0	33	104	0	89	10881
2026-01-01 22:40:19.96	182.41	47.81	-62.5	-72.2	3.8	7.44e-01	0	33	104	0	89	10900
2026-01-01 22:40:20.95	182.71	47.29	-62.5	-72.2	3.8	7.47e-01	0	34	104	0	89	10820
2026-01-01 22:40:21.95	183.01	46.76	-62.5	-72.2	3.8	7.46e-01	0	33	104	0	89	10853
2026-01-01 22:40:22.95	183.31	46.24	-62.5	-72.2	3.8	7.46e-01	0	33	104	0	89	10897
2026-01-01 22:40:23.95	183.59	45.73	-62.5	-72.2	3.8	7.46e-01	0	33	104	0	89	10846
2026-01-01 22:40:24.95	183.86	45.23	-62.4	-72.2	3.8	7.45e-01	0	33	104	0	89	10796
2026-01-01 22:40:25.95	184.12	44.73	-62.4	-72.1	3.8	7.45e-01	0	33	104	0	89	10774
2026-01-01 22:40:26.96	184.38	44.23	-62.4	-72.2	3.8	7.46e-01	0	33	104	0	89	10789
2026-01-01 22:40:27.96	184.63	43.75	-62.4	-72.2	3.8	7.47e-01	0	33	104	0	89	10795
2026-01-01 22:40:28.95	184.87	43.28	-62.4	-72.1	3.8	7.46e-01	0	33	104	0	89	10728
2026-01-01 22:40:29.95	185.10	42.80	-62.4	-72.2	3.8	7.46e-01	0	34	104	0	89	10798
2026-01-01 22:40:30.95	185.32	42.34	-62.4	-72.1	3.8	7.45e-01	0	33	104	0	89	10743
2026-01-01 22:40:31.95	185.54	41.88	-62.4	-72.1	3.8	7.46e-01	0	34	104	0	89	10754
2026-01-01 22:40:32.95	185.76	41.42	-62.4	-72.1	3.8	7.45e-01	0	33	104	0	89	10702
2026-01-01 22:40:33.95	185.96	40.98	-62.4	-72.1	3.8	7.46e-01	0	33	104	0	89	10712
2026-01-01 22:40:34.96	186.17	40.53	-62.4	-72.1	3.8	7.46e-01	0	33	104	0	89	10698
2026-01-01 22:40:35.96	186.36	40.09	-62.4	-72.1	3.8	7.46e-01	0	34	104	0	89	10693
2026-01-01 22:40:36.97	186.55	39.66	-62.3	-72.0	3.8	7.45e-01	0	34	104	0	89	10615
2026-01-01 22:40:37.96	186.74	39.24	-62.3	-72.0	3.8	7.46e-01	0	33	104	0	89	10653
2026-01-01 22:40:38.95	186.92	38.82	-62.3	-72.1	3.8	7.45e-01	0	34	104	0	89	10673
2026-01-01 22:40:39.96	187.09	38.41	-62.3	-72.0	3.8	7.47e-01	0	33	104	0	89	10627
2026-01-01 22:40:40.96	187.26	38.00	-62.3	-72.0	3.8	7.45e-01	0	33	104	0	89	10577
2026-01-01 22:40:41.95	187.43	37.60	-62.3	-72.0	3.8	7.45e-01	0	34	104	0	89	10631
2026-01-01 22:40:42.95	187.59	37.20	-62.3	-72.0	3.8	7.45e-01	0	34	104	0	89	10585
2026-01-01 22:40:43.95	187.75	36.81	-62.3	-72.0	3.8	7.44e-01	0	33	104	0	89	10615
2026-01-01 22:40:44.94	187.90	36.43	-62.2	-72.0	3.8	7.44e-01	0	34	104	0	89	10560
2026-01-01 22:40:45.94	188.05	36.05	-62.2	-72.0	3.8	7.46e-01	0	33	104	0	89	10535
2026-01-01 22:40:46.93	188.20	35.67	-62.2	-72.0	3.8	7.47e-01	0	33	104	0	89	10567
2026-01-01 22:40:47.93	188.34	35.30	-62.2	-72.0	3.8	7.46e-01	0	34	104	0	89	10566
2026-01-01 22:40:48.92	188.48	34.94	-62.2	-71.9	3.8	7.46e-01	0	34	104	0	89	10514
2026-01-01 22:40:49.92	188.62	34.58	-62.2	-72.0	3.8	7.45e-01	0	34	104	0	89	10536
2026-01-01 22:40:50.91	188.75	34.23	-62.2	-71.9	3.8	7.46e-01	0	34	104	0	89	10505
2026-01-01 22:40:51.91	188.89	33.87	-62.2	-71.9	3.8	7.45e-01	0	34	104	0	89	10495
2026-01-01 22:40:52.91	189.01	33.53	-62.2	-71.9	3.8	7.46e-01	0	33	104	0	88	11091
2026-01-01 22:40:53.91	189.14	33.18	-62.2	-71.9	3.8	7.47e-01	0	34	104	0	88	11080
2026-01-01 22:40:54.91	189.26	32.84	-62.2	-71.9	3.8	7.46e-01	0	34	104	0	88	11096
2026-01-01 22:40:55.91	189.38	32.51	-62.2	-71.9	3.8	7.44e-01	0	33	104	0	88	11073
2026-01-01 22:40:56.92	189.50	32.18	-62.1	-71.9	3.8	7.44e-01	0	33	104	0	88	11041
2026-01-01 22:40:57.91	189.62	31.85	-62.1	-71.9	3.8	7.44e-01	0	34	104	0	88	11035
2026-01-01 22:40:58.90	189.73	31.53	-62.1	-71.9	3.8	7.47e-01	0	34	104	0	88	11107
2026-01-01 22:40:59.90	189.84	31.22	-62.1	-71.9	3.8	7.45e-01	0	33	104	0	88	11044
2026-01-01 22:41:00.90	189.95	30.90	-62.1	-71.8	3.8	7.44e-01	0	34	104	0	88	10998
2026-01-01 22:41:01.90	190.05	30.59	-62.1	-71.8	3.8	7.46e-01	0	33	104	0	88	10968
2026-01-01 22:41:02.89	190.16	30.29	-62.1	-71.8	3.8	7.45e-01	0	34	104	0	88	11000
2026-01-01 22:41:03.89	190.26	29.99	-62.1	-71.8	3.8	7.45e-01	0	34	104	0	88	10919
2026-01-01 22:41:04.89	190.36	29.69	-62.0	-71.8	3.8	7.45e-01	0	34	104	0	88	10964
2026-01-01 22:41:05.89	190.46	29.39	-62.1	-71.8	3.8	7.45e-01	0	34	104	0	88	10905
2026-01-01 22:41:06.89	190.55	29.10	-62.1	-71.8	3.8	7.47e-01	0	33	104	0	88	10938
2026-01-01 22:41:07.89	190.65	28.82	-62.0	-71.7	3.8	7.46e-01	0	34	104	0	88	10903
2026-01-01 22:41:08.90	190.74	28.53	-62.0	-71.7	3.8	7.45e-01	0	34	104	0	88	10898
2026-01-01 22:41:09.89	190.83	28.25	-62.0	-71.7	3.8	7.44e-01	0	34	104	0	88	10844
2026-01-01 22:41:10.89	190.92	27.97	-62.0	-71.7	3.8	7.46e-01	0	34	104	0	88	10889
2026-01-01 22:41:11.88	191.01	27.70	-62.0	-71.7	3.8	7.46e-01	0	34	104	0	88	10897
2026-01-01 22:41:12.87	191.09	27.43	-62.0	-71.7	3.8	7.44e-01	0	34	104	0	88	10869
2026-01-01 22:41:13.87	191.18	27.17	-62.0	-71.7	3.8	7.46e-01	0	34	104	0	88	10863
2026-01-01 22:41:14.87	191.26	26.90	-62.0	-71.7	3.8	7.47e-01	0	34	104	0	88	10836
2026-01-01 22:41:15.86	191.34	26.64	-62.0	-71.7	3.8	7.45e-01	0	34	104	0	88	10840
2026-01-01 22:41:16.86	191.42	26.39	-61.9	-71.7	3.8	7.46e-01	0	34	104	0	88	10875
2026-01-01 22:41:17.86	191.50	26.13	-61.9	-71.7	3.8	7.45e-01	0	34	104	0	88	10792
2026-01-01 22:41:18.87	191.58	25.88	-61.9	-71.7	3.8	7.45e-01	0	34	104	0	88	10794
2026-01-01 22:41:19.87	191.66	25.63	-61.9	-71.7	3.8	7.46e-01	0	33	104	0	88	10793
2026-01-01 22:41:20.87	191.73	25.38	-61.9	-71.6	3.8	7.45e-01	0	34	104	0	88	10775
2026-01-01 22:41:21.87	191.80	25.14	-61.9	-71.6	3.8	7.46e-01	0	33	104	0	88	10720
2026-01-01 22:41:22.87	191.88	24.89	-61.9	-71.6	3.8	7.44e-01	0	34	104	0	88	10777
2026-01-01 22:41:23.86	191.95	24.66	-61.9	-71.6	3.8	7.47e-01	0	33	104	0	88	10776
2026-01-01 22:41:24.87	192.02	24.42	-61.9	-71.6	3.8	7.45e-01	0	34	104	0	88	10753
2026-01-01 22:41:25.86	192.09	24.19	-61.9	-71.6	3.8	7.46e-01	0	33	104	0	88	10734
2026-01-01 22:41:26.86	192.16	23.96	-61.9	-71.6	3.8	7.45e-01	0	34	104	0	88	10672
2026-01-01 22:41:27.86	192.22	23.73	-61.9	-71.6	3.8	7.46e-01	0	34	104	0	88	10728
2026-01-01 22:41:28.86	192.29	23.51	-61.8	-71.6	3.8	7.45e-01	0	33	104	0	88	10699
2026-01-01 22:41:29.86	192.35	23.28	-61.8	-71.5	3.8	7.46e-01	0	33	104	0	88	10632
2026-01-01 22:41:30.85	192.42	23.06	-61.8	-71.6	3.8	7.44e-01	0	34	104	0	88	10664
2026-01-01 22:41:31.86	192.48	22.84	-61.8	-71.6	3.8	7.45e-01	0	33	104	0	88	10666
2026-01-01 22:41:32.86	192.54	22.63	-61.8	-71.5	3.8	7.44e-01	0	34	104	0	88	10638
2026-01-01 22:41:33.86	192.61	22.41	-61.8	-71.5	3.8	7.44e-01	0	33	104	0	88	10623
2026-01-01 22:41:34.86	192.67	22.20	-61.8	-71.5	3.8	7.44e-01	0	34	104	0	88	10646
2026-01-01 22:41:35.86	192.73	21.99	-61.8	-71.5	3.8	7.47e-01	0	34	104	0	88	10617
2026-01-01 22:41:36.87	192.79	21.78	-61.8	-71.5	3.8	7.47e-01	0	34	104	0	88	10606
2026-01-01 22:41:37.87	192.84	21.58	-61.8	-71.5	3.8	7.46e-01	0	33	104	0	88	10622
2026-01-01 22:41:38.87	192.90	21.38	-61.8	-71.5	3.8	7.46e-01	0	33	104	0	88	10637
2026-01-01 22:41:39.87	192.96	21.18	-61.8	-71.5	3.8	7.45e-01	0	34	104	0	88	10551
2026-01-01 22:41:40.86	193.01	20.98	-61.8	-71.5	3.8	7.44e-01	0	33	104	0	88	10565
2026-01-01 22:41:41.87	193.07	20.78	-61.7	-71.4	3.8	7.45e-01	0	34	104	0	88	10523
2026-01-01 22:41:42.87	193.12	20.58	-61.7	-71.5	3.8	7.46e-01	0	33	104	0	88	10551
2026-01-01 22:41:43.86	193.17	20.39	-61.7	-71.5	3.8	7.44e-01	0	34	104	0	88	10560
2026-01-01 22:41:44.86	193.23	20.20	-61.7	-71.5	3.8	7.45e-01	0	34	104	0	88	10546
2026-01-01 22:41:45.86	193.28	20.01	-61.7	-71.4	3.8	7.45e-01	0	34	104	0	88	10500
2026-01-01 22:41:46.86	193.33	19.83	-61.7	-71.5	3.8	7.45e-01	0	34	104	0	88	10545
2026-01-01 22:41:47.85	193.38	19.64	-61.7	-71.4	3.8	7.45e-01	0	34	104	0	88	10509
2026-01-01 22:41:48.85	193.43	19.46	-61.7	-71.4	3.8	7.45e-01	0	34	104	0	88	10500
2026-01-01 22:41:49.84	193.48	19.28	-61.7	-71.3	3.8	7.46e-01	0	34	104	0	87	11018
2026-01-01 22:41:50.84	193.53	19.10	-61.7	-71.4	3.8	7.46e-01	0	34	104	0	87	11052
2026-01-01 22:41:51.84	193.57	18.92	-61.7	-71.4	3.8	7.44e-01	0	33	104	0	87	11069
2026-01-01 22:41:52.84	193.62	18.74	-61.7	-71.4	3.8	7.46e-01	0	34	104	0	87	11079
2026-01-01 22:41:53.84	193.67	18.57	-61.6	-71.3	3.8	7.45e-01	0	34	104	0	87	11005
2026-01-01 22:41:54.82	193.71	18.40	-61.6	-71.4	3.8	7.46e-01	0	34	104	0	87	11031
2026-01-01 22:41:55.82	193.76	18.22	-61.6	-71.3	3.8	7.47e-01	0	34	104	0	87	11010
2026-01-01 22:41:56.82	193.80	18.05	-61.6	-71.3	3.8	7.46e-01	0	33	104	0	87	10996
2026-01-01 22:41:57.82	193.85	17.88	-61.6	-71.3	3.8	7.45e-01	0	34	104	0	87	10993
2026-01-01 22:41:58.81	193.89	17.72	-61.6	-71.3	3.8	7.44e-01	0	34	104	0	87	11005
2026-01-01 22:41:59.81	193.94	17.55	-61.6	-71.3	3.8	7.46e-01	0	34	104	0	87	10988
2026-01-01 22:42:00.81	193.98	17.39	-61.6	-71.3	3.8	7.46e-01	0	34	104	0	87	10997
2026-01-01 22:42:01.82	194.02	17.22	-61.6	-71.3	3.8	7.46e-01	0	33	104	0	87	10962
2026-01-01 22:42:02.81	194.06	17.06	-61.6	-71.3	3.8	7.45e-01	0	33	104	0	87	10948
2026-01-01 22:42:03.81	194.11	16.90	-61.6	-71.3	3.8	7.44e-01	0	33	104	0	87	10934
2026-01-01 22:42:04.80	194.15	16.75	-61.6	-71.3	3.8	7.44e-01	0	33	104	0	87	10941
2026-01-01 22:42:05.80	194.19	16.59	-61.5	-71.3	3.8	7.45e-01	0	34	104	0	87	10932
2026-01-01 22:42:06.80	194.23	16.43	-61.5	-71.3	3.8	7.47e-01	0	34	104	0	87	10921
2026-01-01 22:42:07.80	194.27	16.28	-61.5	-71.2	3.8	7.45e-01	0	33	104	0	87	10885
2026-01-01 22:42:08.80	194.31	16.12	-61.5	-71.2	3.8	7.47e-01	0	34	104	0	87	10881
2026-01-01 22:42:09.80	194.34	15.97	-61.5	-71.2	3.8	7.45e-01	0	33	104	0	87	10850
2026-01-01 22:42:10.81	194.38	15.82	-61.5	-71.2	3.8	7.46e-01	0	34	104	0	87	10881
2026-01-01 22:42:11.80	194.42	15.67	-61.5	-71.2	3.8	7.44e-01	0	34	104	0	87	10830
2026-01-01 22:42:12.80	194.46	15.52	-61.5	-71.2	3.8	7.45e-01	0	34	104	0	87	10848
2026-01-01 22:42:13.80	194.50	15.37	-61.5	-71.2	3.8	7.46e-01	0	34	104	0	87	10837
2026-01-01 22:42:14.80	194.53	15.23	-61.5	-71.2	3.8	7.45e-01	0	33	104	0	87	10848
2026-01-01 22:42:15.80	194.57	15.08	-61.5	-71.2	3.8	7.45e-01	0	34	104	0	87	10800
2026-01-01 22:42:16.80	194.60	14.94	-61.5	-71.2	3.8	7.45e-01	0	34	104	0	87	10834
2026-01-01 22:42:17.80	194.64	14.80	-61.4	-71.1	3.8	7.46e-01	0	34	104	0	87	10762
2026-01-01 22:42:18.80	194.68	14.65	-61.4	-71.2	3.8	7.45e-01	0	33	104	0	87	10792
2026-01-01 22:42:19.80	194.71	14.51	-61.4	-71.2	3.8	7.45e-01	0	33	104	0	87	10787
2026-01-01 22:42:20.79	194.74	14.37	-61.4	-71.1	3.8	7.46e-01	0	34	104	0	87	10756
2026-01-01 22:42:21.78	194.78	14.24	-61.4	-71.1	3.8	7.46e-01	0	34	104	0	87	10749
2026-01-01 22:42:22.78	194.81	14.10	-61.4	-71.1	3.8	7.45e-01	0	34	104	0	87	10770
2026-01-01 22:42:23.77	194.85	13.97	-61.4	-71.1	3.8	7.45e-01	0	34	104	0	87	10687
2026-01-01 22:42:24.78	194.88	13.83	-61.4	-71.1	3.8	7.45e-01	0	34	104	0	87	10740
2026-01-01 22:42:25.78	194.91	13.69	-61.4	-71.1	3.8	7.46e-01	0	34	104	0	87	10732
2026-01-01 22:42:26.77	194.94	13.56	-61.4	-71.1	3.8	7.46e-01	0	34	104	0	87	10703
2026-01-01 22:42:27.77	194.98	13.43	-61.4	-71.0	3.8	7.45e-01	0	34	104	0	87	10644
2026-01-01 22:42:28.77	195.01	13.30	-61.4	-71.1	3.8	7.45e-01	0	34	104	0	87	10679
2026-01-01 22:42:29.77	195.04	13.17	-61.3	-71.1	3.8	7.46e-01	0	33	104	0	87	10662
2026-01-01 22:42:30.76	195.07	13.04	-61.3	-71.1	3.8	7.44e-01	0	34	104	0	87	10675
2026-01-01 22:42:31.76	195.10	12.91	-61.3	-71.0	3.8	7.46e-01	0	33	104	0	87	10650
2026-01-01 22:42:32.77	195.13	12.78	-61.3	-71.0	3.8	7.45e-01	0	33	104	0	87	10654
2026-01-01 22:42:33.77	195.16	12.66	-61.3	-71.0	3.8	7.45e-01	0	33	104	0	87	10602
2026-01-01 22:42:34.77	195.19	12.53	-61.3	-71.0	3.8	7.46e-01	0	33	104	0	87	10619
2026-01-01 22:42:35.77	195.22	12.41	-61.3	-71.0	3.8	7.46e-01	0	34	104	0	87	10634
2026-01-01 22:42:36.77	195.25	12.28	-61.3	-71.0	3.8	7.46e-01	0	34	104	0	87	10613
2026-01-01 22:42:37.76	195.28	12.16	-61.3	-71.0	3.8	7.45e-01	0	34	104	0	87	10578
2026-01-01 22:42:38.77	195.31	12.04	-61.3	-71.0	3.8	7.44e-01	0	34	104	0	87	10636
2026-01-01 22:42:39.77	195.34	11.92	-61.2	-70.9	3.8	7.46e-01	0	33	104	0	87	10524
2026-01-01 22:42:40.77	195.37	11.79	-61.3	-71.0	3.8	7.45e-01	0	33	104	0	87	10566
2026-01-01 22:42:41.77	195.40	11.67	-61.2	-70.9	3.8	7.45e-01	0	33	104	0	87	10491
2026-01-01 22:42:42.77	195.42	11.56	-61.2	-70.9	3.8	7.45e-01	0	33	104	0	87	10505
2026-01-01 22:42:43.77	195.45	11.44	-61.2	-70.9	3.8	7.45e-01	0	34	104	0	87	10503
2026-01-01 22:42:44.76	195.48	11.32	-61.2	-70.9	3.8	7.44e-01	0	33	104	0	87	10504
2026-01-01 22:42:45.76	195.51	11.20	-61.2	-70.9	3.8	7.46e-01	0	34	104	0	87	10479
2026-01-01 22:42:46.76	195.53	11.09	-61.2	-70.9	3.8	7.44e-01	0	34	104	0	87	10484
2026-01-01 22:42:47.75	195.56	10.97	-61.2	-70.9	3.8	7.46e-01	0	34	104	0	86	11083
2026-01-01 22:42:48.76	195.59	10.86	-61.2	-70.9	3.8	7.46e-01	0	34	104	0	86	11094
2026-01-01 22:42:49.76	195.61	10.75	-61.2	-70.9	3.8	7.46e-01	0	33	104	0	86	11046
2026-01-01 22:42:50.75	195.64	10.63	-61.2	-70.9	3.8	7.46e-01	0	33	104	0	86	11101
2026-01-01 22:42:51.76	195.67	10.52	-61.1	-70.9	3.8	7.45e-01	0	34	104	0	86	11049
2026-01-01 22:42:52.76	195.69	10.41	-61.2	-70.9	3.8	7.43e-01	0	33	104	0	86	11061
2026-01-01 22:42:53.75	195.72	10.30	-61.1	-70.9	3.8	7.46e-01	0	33	104	0	86	11049
2026-01-01 22:42:54.74	195.74	10.19	-61.1	-70.9	3.8	7.44e-01	0	34	104	0	86	11035
2026-01-01 22:42:55.73	195.77	10.08	-61.1	-70.8	3.8	7.47e-01	0	34	104	0	86	10926
2026-01-01 22:42:56.73	195.79	9.97	-61.1	-70.9	3.8	7.45e-01	0	33	104	0	86	11069
2026-01-01 22:42:57.72	195.82	9.87	-61.1	-70.8	3.8	7.45e-01	0	33	104	0	86	10942
2026-01-01 22:42:58.71	195.84	9.76	-61.1	-70.8	3.8	7.45e-01	0	33	104	0	86	10969
2026-01-01 22:42:59.71	195.87	9.65	-61.0	-70.8	3.8	7.44e-01	0	34	104	0	86	10922
2026-01-01 22:43:00.70	195.89	9.55	-61.1	-70.8	3.8	7.45e-01	0	34	104	0	86	11013
2026-01-01 22:43:01.70	195.91	9.44	-61.1	-70.8	3.8	7.45e-01	0	34	104	0	86	10936
2026-01-01 22:43:02.69	195.94	9.34	-61.1	-70.8	3.8	7.47e-01	0	34	104	0	86	10942
2026-01-01 22:43:03.69	195.96	9.23	-61.0	-70.7	3.8	7.46e-01	0	33	104	0	86	10894
2026-01-01 22:43:04.70	195.98	9.13	-61.0	-70.8	3.8	7.46e-01	0	34	104	0	86	10945
2026-01-01 22:43:05.69	196.01	9.03	-61.0	-70.7	3.8	7.46e-01	0	33	104	0	86	10862
2026-01-01 22:43:06.69	196.03	8.92	-61.0	-70.7	3.8	7.46e-01	0	34	104	0	86	10855
2026-01-01 22:43:07.69	196.05	8.82	-61.0	-70.7	3.8	7.47e-01	0	33	104	0	86	10849
2026-01-01 22:43:08.69	196.08	8.72	-61.0	-70.7	3.8	7.45e-01	0	34	104	0	86	10892
2026-01-01 22:43:09.69	196.10	8.62	-61.0	-70.7	3.8	7.45e-01	0	34	104	0	86	10805
2026-01-01 22:43:10.69	196.12	8.52	-61.0	-70.7	3.8	7.47e-01	0	33	104	0	86	10804
2026-01-01 22:43:11.69	196.14	8.42	-60.9	-70.6	3.8	7.46e-01	0	34	104	0	86	10758
2026-01-01 22:43:12.69	196.16	8.32	-61.0	-70.7	3.8	7.46e-01	0	34	104	0	86	10841
2026-01-01 22:43:13.69	196.19	8.22	-60.9	-70.6	3.8	7.43e-01	0	34	104	0	86	10710
2026-01-01 22:43:14.68	196.21	8.12	-60.9	-70.6	3.8	7.46e-01	0	33	104	0	86	10734
2026-01-01 22:43:15.68	196.23	8.03	-60.9	-70.6	3.8	7.46e-01	0	34	104	0	86	10659
2026-01-01 22:43:16.68	196.25	7.93	-60.9	-70.7	3.8	7.45e-01	0	34	104	0	86	10782
2026-01-01 22:43:17.68	196.27	7.83	-60.9	-70.6	3.8	7.46e-01	0	34	104	0	86	10693
2026-01-01 22:43:18.68	196.29	7.74	-60.9	-70.6	3.8	7.47e-01	0	34	104	0	86	10735
2026-01-01 22:43:19.67	196.31	7.64	-60.8	-70.6	3.8	7.46e-01	0	34	104	0	86	10663
2026-01-01 22:43:20.67	196.34	7.55	-60.9	-70.6	3.8	7.46e-01	0	34	104	0	86	10716
2026-01-01 22:43:21.67	196.36	7.45	-60.8	-70.5	3.8	7.47e-01	0	33	104	0	86	10655
2026-01-01 22:43:22.66	196.38	7.36	-60.8	-70.5	3.8	7.47e-01	0	34	104	0	86	10634
2026-01-01 22:43:23.66	196.40	7.27	-60.8	-70.5	3.8	7.47e-01	0	34	104	0	86	10585
2026-01-01 22:43:24.66	196.42	7.17	-60.8	-70.5	3.8	7.46e-01	0	34	104	0	86	10649
2026-01-01 22:43:25.66	196.44	7.08	-60.8	-70.5	3.8	7.46e-01	0	34	104	0	86	10534
2026-01-01 22:43:26.66	196.46	6.99	-60.8	-70.5	3.8	7.47e-01	0	33	104	0	86	10535
2026-01-01 22:43:27.65	196.48	6.90	-60.7	-70.4	3.8	7.45e-01	0	33	104	0	86	10490
2026-01-01 22:43:28.65	196.50	6.81	-60.8	-70.5	3.8	7.44e-01	0	34	104	0	86	10606
2026-01-01 22:43:29.65	196.52	6.72	-60.7	-70.4	3.8	7.45e-01	0	34	104	0	86	10496
2026-01-01 22:43:30.65	196.54	6.63	-60.7	-70.4	3.8	7.45e-01	0	34	104	0	86	10500
2026-01-01 22:43:31.66	196.55	6.53	-60.6	-70.3	3.8	7.45e-01	0	33	104	0	85	10998
2026-01-01 22:43:32.66	196.57	6.45	-60.7	-70.4	3.8	7.46e-01	0	34	104	0	85	11117
2026-01-01 22:43:33.66	196.59	6.36	-60.6	-70.3	3.8	7.45e-01	0	34	104	0	85	11021
2026-01-01 22:43:34.66	196.61	6.27	-60.6	-70.4	3.8	7.46e-01	0	33	104	0	85	11046
2026-01-01 22:43:35.66	196.63	6.18	-60.6	-70.3	3.8	7.47e-01	0	34	104	0	85	10956
2026-01-01 22:43:36.65	196.65	6.09	-60.6	-70.3	3.8	7.47e-01	0	33	104	0	85	11024
2026-01-01 22:43:37.66	196.67	6.00	-60.6	-70.3	3.8	7.45e-01	0	34	104	0	85	10974
2026-01-01 22:43:38.66	196.69	5.92	-60.6	-70.3	3.8	7.45e-01	0	34	104	0	85	10985
2026-01-01 22:43:39.66	196.71	5.83	-60.5	-70.2	3.8	7.46e-01	0	33	104	0	85	10864
2026-01-01 22:43:40.66	196.72	5.75	-60.6	-70.3	3.8	7.45e-01	0	34	104	0	85	10952
2026-01-01 22:43:41.66	196.74	5.66	-60.5	-70.2	3.8	7.46e-01	0	33	104	0	85	10861
2026-01-01 22:43:42.66	196.76	5.57	-60.5	-70.2	3.8	7.45e-01	0	34	104	0	85	10903
2026-01-01 22:43:43.66	196.78	5.49	-60.4	-70.1	3.8	7.47e-01	0	34	104	0	85	10757
2026-01-01 22:43:44.65	196.80	5.41	-60.5	-70.2	3.8	7.46e-01	0	34	104	0	85	10884
2026-01-01 22:43:45.65	196.81	5.32	-60.4	-70.2	3.8	7.46e-01	0	33	104	0	85	10815
2026-01-01 22:43:46.65	196.83	5.24	-60.4	-70.2	3.8	7.45e-01	0	34	104	0	85	10794
2026-01-01 22:43:47.65	196.85	5.15	-60.3	-70.0	3.8	7.45e-01	0	34	104	0	85	10647
2026-01-01 22:43:48.65	196.87	5.07	-60.5	-70.2	3.8	7.46e-01	0	34	104	0	85	10801
2026-01-01 22:43:49.65	196.88	4.99	-60.6	-70.4	3.8	7.45e-01	0	34	104	0	85	11040
2026-01-01 22:43:50.65	196.90	4.91	-61.2	-70.9	3.8	7.44e-01	0	33	104	0	85	11722
2026-01-01 22:43:51.65	196.92	4.82	-61.5	-71.3	3.8	7.46e-01	0	34	104	0	86	11553
2026-01-01 22:43:52.65	196.93	4.74	-61.8	-71.5	3.8	7.46e-01	0	34	104	0	86	11908
2026-01-01 22:43:53.65	196.95	4.66	-61.9	-71.7	3.8	7.45e-01	0	34	104	0	87	11450
2026-01-01 22:43:54.65	196.97	4.58	-62.1	-71.8	3.8	7.46e-01	0	34	104	0	87	11641
2026-01-01 22:43:55.64	196.98	4.50	-62.2	-71.9	3.8	7.45e-01	0	34	104	0	87	11792
2026-01-01 22:43:56.63	197.00	4.42	-62.3	-72.0	3.8	7.46e-01	0	33	104	0	87	11950
2026-01-01 22:43:57.63	197.02	4.34	-62.4	-72.2	3.8	7.46e-01	0	34	104	0	88	11432
2026-01-01 22:43:58.62	197.03	4.26	-62.5	-72.3	3.8	7.47e-01	0	34	104	0	88	11566
2026-01-01 22:43:59.62	197.05	4.18	-62.6	-72.3	3.8	7.45e-01	0	34	104	0	88	11614
2026-01-01 22:44:00.62	197.07	4.10	-62.6	-72.4	3.8	7.47e-01	0	33	104	0	88	11703
2026-01-01 22:44:01.62	197.08	4.02	-62.7	-72.5	3.8	7.46e-01	0	34	104	0	88	11830
2026-01-01 22:44:02.61	197.10	3.95	-62.7	-72.5	3.8	7.45e-01	0	33	104	0	88	11884
2026-01-01 22:44:03.61	197.11	3.87	-62.8	-72.5	3.8	7.45e-01	0	33	104	0	88	11895
2026-01-01 22:44:04.60	197.13	3.79	-62.8	-72.5	3.8	7.45e-01	0	33	104	0	88	11939
2026-01-01 22:44:05.60	197.15	3.72	-62.8	-72.6	3.8	7.46e-01	0	34	104	0	88	11992
2026-01-01 22:44:06.60	197.16	3.64	-62.9	-72.6	3.8	7.46e-01	0	34	104	0	88	11997
2026-01-01 22:44:07.60	197.18	3.56	-62.9	-72.6	3.8	7.46e-01	0	34	104	0	88	12066
2026-01-01 22:44:08.60	197.19	3.48	-62.9	-72.6	3.8	7.46e-01	0	33	104	0	89	11387
2026-01-01 22:44:09.60	197.21	3.41	-63.0	-72.7	3.8	7.46e-01	0	34	104	0	89	11481
2026-01-01 22:44:10.59	197.22	3.33	-63.0	-72.7	3.8	7.48e-01	0	34	104	0	89	11483
2026-01-01 22:44:11.60	197.24	3.26	-63.0	-72.7	3.8	7.46e-01	0	33	104	0	89	11514
2026-01-01 22:44:12.59	197.25	3.18	-63.0	-72.7	3.8	7.45e-01	0	34	104	0	89	11504
2026-01-01 22:44:13.59	197.27	3.11	-63.0	-72.7	3.8	7.46e-01	0	34	104	0	89	11468
2026-01-01 22:44:14.59	197.28	3.03	-62.9	-72.7	3.8	7.45e-01	0	34	104	0	89	11426
2026-01-01 22:44:15.59	197.30	2.96	-62.9	-72.7	3.8	7.45e-01	0	34	104	0	89	11435
2026-01-01 22:44:16.58	197.31	2.88	-62.9	-72.6	3.8	7.46e-01	0	34	104	0	89	11412
2026-01-01 22:44:17.59	197.33	2.81	-62.9	-72.7	3.8	7.45e-01	0	34	104	0	89	11423
2026-01-01 22:44:18.59	197.34	2.74	-62.9	-72.6	3.8	7.46e-01	0	33	104	0	89	11400
2026-01-01 22:44:19.59	197.36	2.66	-62.9	-72.6	3.8	7.44e-01	0	33	104	0	89	11404
2026-01-01 22:44:20.59	197.37	2.59	-62.9	-72.6	3.8	7.46e-01	0	34	104	0	89	11383
2026-01-01 22:44:21.59	197.39	2.52	-62.9	-72.6	3.8	7.44e-01	0	34	104	0	89	11378
2026-01-01 22:44:22.59	197.40	2.44	-62.9	-72.6	3.8	7.45e-01	0	34	104	0	89	11383
2026-01-01 22:44:23.59	197.42	2.37	-62.9	-72.6	3.8	7.47e-01	0	33	104	0	89	11354
2026-01-01 22:44:24.58	197.43	2.30	-62.9	-72.6	3.8	7.45e-01	0	33	104	0	89	11357
2026-01-01 22:44:25.59	197.44	2.23	-62.8	-72.6	3.8	7.47e-01	0	34	104	0	89	11305
2026-01-01 22:44:26.59	197.46	2.16	-62.8	-72.6	3.8	7.44e-01	0	34	104	0	89	11332
2026-01-01 22:44:27.60	197.47	2.08	-62.8	-72.6	3.8	7.46e-01	0	34	104	0	89	11326
2026-01-01 22:44:28.60	197.49	2.01	-62.8	-72.6	3.8	7.46e-01	0	34	104	0	89	11315
2026-01-01 22:44:29.61	197.50	1.94	-62.8	-72.6	3.8	7.45e-01	0	34	104	0	89	11306
2026-01-01 22:44:30.60	197.51	1.87	-62.8	-72.6	3.8	7.46e-01	0	34	104	0	89	11319

#Closed at: 2026-01-01 22:44:31
#Recorded file [0 MB]: D:/lorett/data/31004_260102_013702.dat