passes_logs/2026/01/03/R2M6_AANII_01/R2M6_AANII_01__20260103_042138_FENGYUN_3D_rec.log

#Pass ID: 20260103_042138_FENGYUN 3D
#Satellite: FENGYUN 3D
#Configuration: FENGYUN 3D
#almurnet v.1.7.20240730
#Start time: 2026-01-03 04:21:38

#Version: 2.2.20231116
#Station: R2M6_AANII_01
#Location: 30.233357 lon 59.946436 lat
#TLE: 1 43010U 17072A   26002.31768531  .00000715  00000+0  35975-3 0  9993
#TLE: 2 43010  98.9910 333.9388 0001871 131.0716 229.0622 14.19693418421454

#Time	Az	El	Level	Level2	SNR	BER	BlckErr	Temp	State	Recorded	gain1	gain2
2026-01-03 04:21:38.68	10.92	6.99	-31.4	-37.4	4.3	8.33e-01	0	41	0	0	23	7261
2026-01-03 04:21:39.68	10.83	7.05	-30.6	-35.5	4.8	8.08e-01	0	41	104	0	21	6307
2026-01-03 04:21:40.69	10.74	7.12	-30.7	-35.5	6.8	2.00e-01	0	41	0	0	21	6293
2026-01-03 04:21:41.70	10.65	7.18	-30.6	-35.3	7.0	1.59e-01	0	40	0	5242880	21	6186
2026-01-03 04:21:42.71	10.55	7.24	-30.6	-35.4	6.9	1.51e-01	0	41	0	10485760	21	6231
2026-01-03 04:21:43.71	10.46	7.31	-30.7	-35.5	6.9	1.63e-01	0	41	0	16777216	21	6270
2026-01-03 04:21:44.72	10.37	7.37	-30.6	-35.3	7.0	1.50e-01	0	41	0	22020096	21	6185
2026-01-03 04:21:45.72	10.27	7.44	-30.4	-34.5	7.5	1.06e-01	0	41	0	28311552	21	5773
2026-01-03 04:21:46.73	10.18	7.50	-30.0	-33.7	8.5	5.13e-02	0	41	0	33554432	20	5500
2026-01-03 04:21:47.74	10.08	7.57	-29.6	-32.5	9.3	1.94e-02	0	41	0	39845888	20	5049
2026-01-03 04:21:48.74	9.99	7.63	-29.2	-32.3	10.2	7.46e-03	0	41	0	45088768	18	5169
2026-01-03 04:21:49.74	9.89	7.69	-28.7	-31.4	11.1	1.55e-03	0	41	0	50331648	17	4943
2026-01-03 04:21:50.74	9.80	7.76	-28.2	-30.2	11.9	4.36e-04	0	41	0	56623104	17	4552
2026-01-03 04:21:51.75	9.70	7.82	-27.8	-29.8	12.5	8.23e-05	0	41	0	61865984	16	4510
2026-01-03 04:21:52.76	9.60	7.89	-27.4	-29.2	12.9	3.42e-04	0	41	0	67108864	15	4471
2026-01-03 04:21:53.76	9.50	7.95	-27.1	-29.1	13.3	1.48e-05	0	41	0	73400320	14	4544
2026-01-03 04:21:54.77	9.41	8.02	-26.9	-28.5	13.7	3.40e-06	0	41	0	78643200	14	4363
2026-01-03 04:21:55.78	9.31	8.09	-26.8	-28.8	13.8	2.93e-04	0	41	0	84934656	13	4554
2026-01-03 04:21:56.79	9.21	8.15	-26.8	-28.8	13.8	6.80e-06	0	41	0	90177536	13	4553
2026-01-03 04:21:57.79	9.11	8.22	-26.7	-28.6	14.0	2.62e-04	0	41	0	95420416	13	4501
2026-01-03 04:21:58.79	9.01	8.28	-26.5	-28.3	14.1	0.00e+00	0	41	0	101711872	13	4400
2026-01-03 04:21:59.79	8.91	8.35	-26.5	-28.2	14.2	2.20e-06	0	41	0	106954752	13	4366
2026-01-03 04:22:00.78	8.81	8.41	-26.4	-28.6	14.3	1.92e-03	0	41	0	113246208	12	4602
2026-01-03 04:22:01.79	8.71	8.48	-26.4	-28.5	14.4	3.40e-06	0	41	0	118489088	12	4561
2026-01-03 04:22:02.80	8.60	8.54	-26.4	-28.5	14.3	0.00e+00	0	41	0	123731968	12	4576
2026-01-03 04:22:03.81	8.50	8.61	-26.4	-28.4	14.4	0.00e+00	0	41	0	130023424	12	4546
2026-01-03 04:22:04.81	8.40	8.67	-26.3	-28.4	14.4	1.91e-04	0	41	0	135266304	12	4534
2026-01-03 04:22:05.82	8.30	8.74	-26.4	-28.4	14.4	2.14e-04	0	41	0	140509184	12	4544
2026-01-03 04:22:06.83	8.19	8.81	-26.6	-28.4	14.1	0.00e+00	0	41	0	146800640	13	4433
2026-01-03 04:22:07.84	8.09	8.87	-26.9	-29.0	13.7	1.91e-03	0	41	0	152043520	13	4619
2026-01-03 04:22:08.85	7.98	8.94	-26.6	-28.5	14.1	1.10e-06	0	41	0	158334976	13	4459
2026-01-03 04:22:09.86	7.88	9.01	-26.4	-28.4	14.4	1.87e-03	0	41	0	163577856	12	4557
2026-01-03 04:22:10.87	7.77	9.07	-26.2	-28.1	14.6	1.75e-03	0	41	0	168820736	12	4459
2026-01-03 04:22:11.87	7.66	9.14	-26.2	-28.1	14.6	2.21e-04	0	42	0	175112192	12	4458
2026-01-03 04:22:12.88	7.56	9.21	-26.3	-28.2	14.6	1.64e-03	0	42	0	180355072	12	4491
2026-01-03 04:22:13.89	7.45	9.27	-26.3	-28.3	14.5	1.60e-03	0	41	0	186646528	12	4522
2026-01-03 04:22:14.89	7.34	9.34	-26.4	-28.3	14.5	1.90e-04	0	42	0	191889408	12	4530
2026-01-03 04:22:15.90	7.23	9.41	-26.4	-28.4	14.4	0.00e+00	0	42	0	198180864	12	4551
2026-01-03 04:22:16.90	7.12	9.47	-26.4	-28.4	14.5	1.71e-03	0	42	0	203423744	12	4528
2026-01-03 04:22:17.91	7.01	9.54	-26.3	-28.2	14.6	1.40e-04	0	42	0	208666624	12	4486
2026-01-03 04:22:18.91	6.90	9.61	-26.3	-28.2	14.6	1.57e-03	0	42	0	214958080	12	4490
2026-01-03 04:22:19.92	6.79	9.68	-26.4	-28.4	14.5	1.69e-03	0	42	0	220200960	12	4531
2026-01-03 04:22:20.92	6.68	9.74	-26.4	-28.6	14.4	1.38e-04	0	42	0	225443840	12	4589
2026-01-03 04:22:21.93	6.57	9.81	-26.3	-28.3	14.6	1.69e-03	0	42	0	231735296	12	4521
2026-01-03 04:22:22.94	6.46	9.88	-26.4	-28.4	14.5	1.10e-06	0	42	0	236978176	12	4551
2026-01-03 04:22:23.94	6.35	9.95	-26.6	-28.3	14.3	1.28e-04	0	42	0	243269632	13	4404
2026-01-03 04:22:24.95	6.23	10.01	-26.8	-28.9	13.9	0.00e+00	0	42	0	248512512	13	4583
2026-01-03 04:22:25.95	6.12	10.08	-26.6	-28.5	14.2	1.98e-03	0	42	0	253755392	13	4451
2026-01-03 04:22:26.95	6.01	10.15	-26.8	-28.9	13.9	2.31e-04	0	42	0	260046848	13	4589
2026-01-03 04:22:27.96	5.89	10.22	-26.7	-28.7	14.1	5.83e-04	0	42	0	265289728	13	4502
2026-01-03 04:22:28.97	5.77	10.28	-26.6	-28.3	14.3	1.98e-03	0	42	0	271581184	13	4402
2026-01-03 04:22:29.98	5.66	10.35	-26.5	-28.2	14.3	0.00e+00	0	42	0	276824064	13	4373
2026-01-03 04:22:30.98	5.54	10.42	-26.5	-28.2	14.4	1.81e-03	0	42	0	283115520	13	4366
2026-01-03 04:22:31.98	5.43	10.49	-26.6	-28.3	14.3	1.10e-06	0	42	0	288358400	13	4412
2026-01-03 04:22:32.99	5.31	10.56	-26.8	-28.8	14.1	3.00e-04	0	42	0	293601280	13	4536
2026-01-03 04:22:33.99	5.19	10.62	-26.5	-28.1	14.4	0.00e+00	0	42	0	299892736	13	4351
2026-01-03 04:22:34.99	5.07	10.69	-26.3	-28.2	14.7	0.00e+00	0	42	0	305135616	12	4470
2026-01-03 04:22:36.00	4.95	10.76	-26.3	-28.3	14.6	2.56e-04	0	42	0	310378496	12	4504
2026-01-03 04:22:37.01	4.83	10.83	-26.5	-28.2	14.4	2.20e-06	0	42	0	316669952	13	4361
2026-01-03 04:22:38.02	4.71	10.90	-26.8	-28.9	14.0	1.84e-03	0	42	0	321912832	13	4564
2026-01-03 04:22:39.03	4.59	10.97	-26.5	-28.2	14.4	0.00e+00	0	42	0	327155712	13	4366
2026-01-03 04:22:40.03	4.47	11.04	-26.7	-28.6	14.2	0.00e+00	0	42	0	333447168	13	4477
2026-01-03 04:22:41.04	4.35	11.10	-26.5	-28.2	14.4	0.00e+00	0	42	0	338690048	13	4375
2026-01-03 04:22:42.05	4.22	11.17	-26.3	-27.8	14.7	0.00e+00	0	42	0	344981504	13	4250
2026-01-03 04:22:43.05	4.10	11.24	-26.3	-28.2	14.7	0.00e+00	0	42	0	350224384	12	4477
2026-01-03 04:22:44.06	3.98	11.31	-26.3	-28.3	14.7	0.00e+00	0	42	0	356515840	12	4516
2026-01-03 04:22:45.07	3.85	11.38	-26.5	-28.6	14.5	0.00e+00	0	42	0	361758720	12	4589
2026-01-03 04:22:46.07	3.73	11.45	-26.8	-28.8	14.1	0.00e+00	0	42	0	367001600	13	4531
2026-01-03 04:22:47.08	3.60	11.52	-26.5	-28.2	14.4	1.10e-06	0	42	0	373293056	13	4371
2026-01-03 04:22:48.07	3.48	11.59	-26.2	-28.0	14.9	1.10e-06	0	42	0	378535936	12	4417
2026-01-03 04:22:49.08	3.35	11.66	-26.1	-27.8	15.0	0.00e+00	0	42	0	384827392	12	4356
2026-01-03 04:22:50.09	3.22	11.72	-26.1	-27.8	15.0	0.00e+00	0	42	0	390070272	12	4347
2026-01-03 04:22:51.09	3.09	11.79	-26.2	-28.0	14.9	0.00e+00	0	42	0	395313152	12	4403
2026-01-03 04:22:52.10	2.96	11.86	-26.2	-28.0	14.9	0.00e+00	0	42	0	401604608	12	4420
2026-01-03 04:22:53.10	2.83	11.93	-26.0	-27.6	15.1	0.00e+00	0	42	0	406847488	12	4298
2026-01-03 04:22:54.10	2.70	12.00	-25.9	-27.2	15.3	0.00e+00	0	42	0	412090368	12	4200
2026-01-03 04:22:55.11	2.57	12.07	-25.8	-27.6	15.5	0.00e+00	0	42	0	418381824	11	4419
2026-01-03 04:22:56.12	2.44	12.14	-25.9	-27.8	15.3	2.20e-06	0	42	0	423624704	11	4481
2026-01-03 04:22:57.12	2.31	12.21	-25.8	-27.4	15.6	2.17e-05	0	42	0	429916160	11	4369
2026-01-03 04:22:58.13	2.18	12.28	-25.7	-27.3	15.6	4.50e-06	0	42	0	435159040	11	4333
2026-01-03 04:22:59.13	2.04	12.35	-25.7	-27.3	15.6	0.00e+00	0	42	0	441450496	11	4334
2026-01-03 04:23:00.14	1.91	12.42	-25.7	-27.2	15.7	0.00e+00	0	42	0	446693376	11	4316
2026-01-03 04:23:01.14	1.78	12.49	-25.7	-27.4	15.6	1.35e-04	0	42	0	451936256	11	4364
2026-01-03 04:23:02.15	1.64	12.56	-25.7	-27.3	15.7	0.00e+00	0	42	0	458227712	11	4332
2026-01-03 04:23:03.16	1.50	12.63	-25.7	-27.4	15.6	6.17e-05	0	42	0	463470592	11	4363
2026-01-03 04:23:04.16	1.37	12.70	-25.7	-27.4	15.6	8.81e-05	0	42	0	468713472	11	4365
2026-01-03 04:23:05.17	1.23	12.77	-25.8	-27.5	15.5	0.00e+00	0	42	0	475004928	11	4399
2026-01-03 04:23:06.18	1.09	12.84	-25.8	-27.4	15.6	6.98e-05	0	42	0	480247808	11	4369
2026-01-03 04:23:07.19	0.95	12.91	-25.8	-27.6	15.5	1.51e-04	0	42	0	486539264	11	4410
2026-01-03 04:23:08.20	0.81	12.98	-25.7	-27.4	15.6	0.00e+00	0	42	0	491782144	11	4362
2026-01-03 04:23:09.20	0.67	13.05	-25.6	-27.1	15.8	2.71e-04	0	42	0	497025024	11	4287
2026-01-03 04:23:10.21	0.53	13.12	-25.6	-27.1	15.8	2.59e-04	0	42	0	503316480	11	4267
2026-01-03 04:23:11.22	0.39	13.19	-25.7	-27.2	15.8	0.00e+00	0	42	0	508559360	11	4306
2026-01-03 04:23:12.22	0.25	13.26	-25.5	-26.8	16.0	2.04e-04	0	42	0	514850816	11	4210
2026-01-03 04:23:13.23	0.10	13.33	-25.4	-26.6	16.1	1.77e-04	0	42	0	520093696	11	4154
2026-01-03 04:23:14.23	359.96	13.40	-25.4	-27.1	16.1	0.00e+00	0	42	0	525336576	10	4385
2026-01-03 04:23:15.23	359.82	13.47	-25.3	-26.9	16.2	2.51e-04	0	42	0	531628032	10	4347
2026-01-03 04:23:16.24	359.67	13.54	-25.3	-27.0	16.2	0.00e+00	0	42	0	536870912	10	4345
2026-01-03 04:23:17.24	359.53	13.61	-25.2	-26.8	16.3	0.00e+00	0	43	0	543162368	10	4302
2026-01-03 04:23:18.26	359.38	13.68	-24.6	-26.0	14.7	0.00e+00	0	42	0	548405248	10	4245
2026-01-03 04:23:19.26	359.23	13.75	-25.4	-27.2	12.3	2.09e-04	0	42	0	553648128	10	4406
2026-01-03 04:23:20.26	359.09	13.82	-25.3	-26.9	16.2	0.00e+00	0	42	0	559939584	10	4335
2026-01-03 04:23:21.27	358.94	13.89	-25.2	-26.8	16.2	0.00e+00	0	43	0	565182464	10	4300
2026-01-03 04:23:22.28	358.79	13.96	-25.3	-26.9	16.2	2.55e-04	0	42	0	571473920	10	4341
2026-01-03 04:23:23.29	358.64	14.03	-25.4	-27.1	16.1	0.00e+00	0	43	0	576716800	10	4401
2026-01-03 04:23:24.29	358.49	14.10	-25.3	-26.9	16.2	3.16e-04	0	43	0	581959680	10	4336
2026-01-03 04:23:25.30	358.34	14.17	-25.3	-27.0	16.2	1.44e-03	0	43	0	588251136	10	4350
2026-01-03 04:23:26.31	358.18	14.24	-25.3	-26.9	16.2	0.00e+00	0	43	0	593494016	10	4343
2026-01-03 04:23:27.32	358.03	14.32	-25.3	-27.0	16.2	1.37e-03	0	43	0	599785472	10	4353
2026-01-03 04:23:28.33	357.88	14.39	-25.4	-27.0	16.2	0.00e+00	0	42	0	605028352	10	4370
2026-01-03 04:23:29.34	357.72	14.46	-25.3	-26.9	16.2	3.26e-04	0	42	0	611319808	10	4332
2026-01-03 04:23:30.35	357.57	14.53	-25.4	-27.1	16.1	1.61e-03	0	43	0	616562688	10	4379
2026-01-03 04:23:31.35	357.41	14.60	-25.2	-26.7	16.4	1.47e-03	0	43	0	621805568	10	4280
2026-01-03 04:23:32.36	357.25	14.67	-25.2	-26.7	16.3	2.09e-04	0	42	0	628097024	10	4285
2026-01-03 04:23:33.36	357.10	14.74	-25.2	-26.7	16.4	0.00e+00	0	43	0	633339904	10	4272
2026-01-03 04:23:34.36	356.94	14.81	-25.1	-26.5	16.5	1.48e-03	0	42	0	638582784	10	4216
2026-01-03 04:23:35.36	356.78	14.88	-25.2	-26.7	16.4	0.00e+00	0	42	0	644874240	10	4269
2026-01-03 04:23:36.37	356.62	14.95	-25.2	-26.6	16.4	1.24e-03	0	43	0	650117120	10	4263
2026-01-03 04:23:37.38	356.46	15.02	-25.0	-26.3	16.6	1.35e-03	0	43	0	656408576	10	4173
2026-01-03 04:23:38.38	356.30	15.09	-25.0	-26.3	16.6	1.82e-04	0	43	0	661651456	10	4169
2026-01-03 04:23:39.38	356.14	15.16	-25.0	-26.3	16.6	1.24e-03	0	43	0	666894336	10	4182
2026-01-03 04:23:40.38	355.98	15.23	-24.9	-26.5	16.7	1.18e-03	0	43	0	673185792	9	4347
2026-01-03 04:23:41.39	355.81	15.30	-24.9	-26.6	16.7	1.26e-04	0	43	0	678428672	9	4364
2026-01-03 04:23:42.39	355.65	15.37	-24.9	-26.6	16.7	1.14e-03	0	43	0	684720128	9	4358
2026-01-03 04:23:43.41	355.48	15.44	-25.0	-26.3	16.6	1.15e-03	0	42	0	689963008	10	4174
2026-01-03 04:23:44.41	355.32	15.51	-25.1	-26.5	16.5	1.27e-04	0	43	0	695205888	10	4220
2026-01-03 04:23:45.42	355.15	15.58	-25.2	-26.6	16.4	1.08e-03	0	43	0	701497344	10	4261
2026-01-03 04:23:46.43	354.98	15.65	-25.0	-26.3	16.6	1.25e-03	0	43	0	706740224	10	4168
2026-01-03 04:23:47.43	354.81	15.72	-25.0	-26.2	16.7	0.00e+00	0	43	0	713031680	10	4144
2026-01-03 04:23:48.44	354.65	15.79	-24.9	-26.5	16.8	1.14e-03	0	43	0	718274560	9	4338
2026-01-03 04:23:49.44	354.48	15.86	-24.9	-26.6	16.7	0.00e+00	0	43	0	723517440	9	4369
2026-01-03 04:23:50.45	354.30	15.93	-25.0	-26.3	16.6	2.25e-04	0	43	0	729808896	10	4169
2026-01-03 04:23:51.45	354.13	16.00	-24.8	-26.4	16.8	0.00e+00	0	43	0	735051776	9	4309
2026-01-03 04:23:52.46	353.96	16.07	-24.8	-26.2	16.9	7.90e-04	0	43	0	741343232	9	4263
2026-01-03 04:23:53.47	353.79	16.14	-24.8	-26.3	16.9	1.97e-04	0	42	0	746586112	9	4272
2026-01-03 04:23:54.48	353.61	16.21	-24.8	-26.4	16.9	0.00e+00	0	43	0	751828992	9	4304
2026-01-03 04:23:55.49	353.44	16.28	-24.8	-26.4	16.9	8.48e-04	0	43	0	758120448	9	4304
2026-01-03 04:23:56.49	353.26	16.34	-24.8	-26.4	16.8	0.00e+00	0	43	0	763363328	9	4319
2026-01-03 04:23:57.50	353.09	16.41	-24.8	-26.3	16.9	8.44e-04	0	43	0	769654784	9	4284
2026-01-03 04:23:58.50	352.91	16.48	-24.8	-26.4	16.9	0.00e+00	0	43	0	774897664	9	4300
2026-01-03 04:23:59.50	352.73	16.55	-24.9	-26.5	16.8	0.00e+00	0	43	0	780140544	9	4336
2026-01-03 04:24:00.50	352.55	16.62	-25.0	-26.2	16.7	0.00e+00	0	43	0	786432000	10	4135
2026-01-03 04:24:01.51	352.37	16.69	-25.0	-26.1	16.8	0.00e+00	0	43	0	791674880	10	4130
2026-01-03 04:24:02.51	352.19	16.76	-25.0	-26.2	16.8	1.14e-04	0	43	0	796917760	10	4133
2026-01-03 04:24:03.51	352.01	16.83	-24.9	-26.1	16.8	0.00e+00	0	43	0	803209216	10	4108
2026-01-03 04:24:04.52	351.83	16.89	-24.8	-26.3	17.0	0.00e+00	0	43	0	808452096	9	4276
2026-01-03 04:24:05.53	351.65	16.96	-24.8	-26.3	16.9	0.00e+00	0	43	0	814743552	9	4296
2026-01-03 04:24:06.53	351.46	17.03	-24.7	-26.1	17.0	0.00e+00	0	43	0	819986432	9	4232
2026-01-03 04:24:07.54	351.28	17.10	-24.5	-25.7	17.3	0.00e+00	0	43	0	826277888	9	4126
2026-01-03 04:24:08.54	351.09	17.17	-24.0	-25.1	16.8	0.00e+00	0	43	0	831520768	9	4091
2026-01-03 04:24:09.55	350.91	17.23	-24.5	-25.6	16.1	0.00e+00	0	43	0	836763648	9	4113
2026-01-03 04:24:10.56	350.72	17.30	-24.5	-25.7	17.3	0.00e+00	0	43	0	843055104	9	4133
2026-01-03 04:24:11.57	350.53	17.37	-24.7	-26.0	17.1	2.41e-04	0	43	0	848297984	9	4215
2026-01-03 04:24:12.57	350.34	17.44	-24.7	-26.1	17.0	0.00e+00	0	43	0	853540864	9	4222
2026-01-03 04:24:13.58	350.15	17.51	-24.5	-25.8	17.3	0.00e+00	0	43	0	859832320	9	4147
2026-01-03 04:24:14.58	349.96	17.57	-24.7	-26.1	17.1	0.00e+00	0	43	0	865075200	9	4237
2026-01-03 04:24:15.59	349.77	17.64	-24.8	-26.3	17.0	0.00e+00	0	43	0	871366656	9	4276
2026-01-03 04:24:16.60	349.58	17.71	-24.6	-25.8	17.2	0.00e+00	0	43	0	876609536	9	4158
2026-01-03 04:24:17.61	349.38	17.77	-24.3	-25.3	17.5	0.00e+00	0	43	0	881852416	9	4020
2026-01-03 04:24:18.61	349.19	17.84	-24.2	-25.6	17.6	2.86e-04	0	43	0	888143872	8	4207
2026-01-03 04:24:19.62	348.99	17.91	-24.2	-25.5	17.6	0.00e+00	0	43	0	893386752	8	4195
2026-01-03 04:24:20.62	348.80	17.97	-24.2	-25.6	17.6	2.70e-04	0	43	0	899678208	8	4213
2026-01-03 04:24:21.62	348.60	18.04	-24.2	-25.6	17.6	0.00e+00	0	43	0	904921088	8	4216
2026-01-03 04:24:22.63	348.40	18.11	-24.3	-25.8	17.5	0.00e+00	0	43	0	911212544	8	4265
2026-01-03 04:24:23.63	348.21	18.17	-24.3	-25.7	17.6	1.40e-04	0	43	0	916455424	8	4229
2026-01-03 04:24:24.64	348.01	18.24	-24.3	-25.7	17.5	4.80e-05	0	43	0	921698304	8	4251
2026-01-03 04:24:25.64	347.81	18.30	-24.5	-25.7	17.3	0.00e+00	0	43	0	927989760	9	4138
2026-01-03 04:24:26.65	347.60	18.37	-24.7	-26.2	17.0	0.00e+00	0	43	0	933232640	9	4256
2026-01-03 04:24:27.66	347.40	18.43	-24.6	-25.9	17.2	0.00e+00	0	43	0	938475520	9	4185
2026-01-03 04:24:28.66	347.20	18.50	-24.3	-25.3	17.5	0.00e+00	0	43	0	944766976	9	4015
2026-01-03 04:24:29.67	346.99	18.56	-24.2	-25.0	17.7	0.00e+00	0	43	0	950009856	9	3961
2026-01-03 04:24:30.68	346.79	18.63	-24.3	-25.1	17.6	0.00e+00	0	43	0	955252736	9	3987
2026-01-03 04:24:31.68	346.58	18.69	-24.2	-25.1	17.7	0.00e+00	0	43	0	961544192	9	3974
2026-01-03 04:24:32.69	346.38	18.76	-24.2	-25.0	17.7	1.25e-05	0	43	0	966787072	9	3951
2026-01-03 04:24:33.70	346.17	18.82	-24.1	-24.8	17.8	4.50e-06	0	43	0	973078528	9	3913
2026-01-03 04:24:34.70	345.96	18.88	-24.1	-25.4	17.7	0.00e+00	0	43	0	978321408	8	4166
2026-01-03 04:24:35.71	345.75	18.95	-24.1	-25.4	17.8	0.00e+00	0	43	0	984612864	8	4152
2026-01-03 04:24:36.71	345.54	19.01	-24.1	-25.4	17.8	0.00e+00	0	43	0	989855744	8	4155
2026-01-03 04:24:37.71	345.33	19.07	-24.2	-25.5	17.7	0.00e+00	0	43	0	995098624	8	4191
2026-01-03 04:24:38.73	345.12	19.13	-24.2	-25.6	17.6	0.00e+00	0	43	0	1001390080	8	4219
2026-01-03 04:24:39.73	344.91	19.20	-24.2	-25.5	17.5	0.00e+00	0	43	0	1006632960	8	4174
2026-01-03 04:24:40.74	344.69	19.26	-24.2	-25.4	17.7	0.00e+00	0	43	0	1012924416	8	4176
2026-01-03 04:24:41.75	344.48	19.32	-24.3	-25.6	17.6	0.00e+00	0	43	0	1018167296	8	4220
2026-01-03 04:24:42.75	344.26	19.38	-24.1	-25.3	17.8	4.50e-04	0	43	0	1023410176	8	4142
2026-01-03 04:24:43.76	344.04	19.44	-24.0	-25.2	17.9	0.00e+00	0	43	0	1029701632	8	4105
2026-01-03 04:24:44.76	343.83	19.50	-24.1	-25.3	17.8	1.40e-03	0	43	0	1034944512	8	4125
2026-01-03 04:24:45.77	343.61	19.57	-24.4	-25.9	17.5	0.00e+00	0	43	0	1040187392	8	4283
2026-01-03 04:24:46.77	343.39	19.63	-24.2	-25.6	17.7	0.00e+00	0	43	0	1046478848	8	4216
2026-01-03 04:24:47.78	343.17	19.69	-24.1	-25.2	17.8	0.00e+00	0	43	0	1051721728	8	4119
2026-01-03 04:24:48.78	342.95	19.75	-24.0	-25.0	17.9	0.00e+00	0	43	0	1058013184	8	4070
2026-01-03 04:24:49.79	342.73	19.80	-24.0	-25.0	17.9	0.00e+00	0	43	0	1063256064	8	4068
2026-01-03 04:24:50.79	342.51	19.86	-24.0	-25.1	17.9	0.00e+00	0	43	0	1069547520	8	4096
2026-01-03 04:24:51.80	342.28	19.92	-23.9	-24.9	18.0	1.51e-03	0	43	0	1074790400	8	4033
2026-01-03 04:24:52.81	342.06	19.98	-23.9	-24.9	18.0	0.00e+00	0	43	0	1080033280	8	4028
2026-01-03 04:24:53.82	341.83	20.04	-23.8	-25.1	18.2	1.56e-03	0	43	0	1086324736	7	4196
2026-01-03 04:24:54.82	341.61	20.10	-23.8	-25.3	18.1	1.53e-03	0	43	0	1091567616	7	4241
2026-01-03 04:24:55.82	341.38	20.16	-23.8	-25.1	18.2	0.00e+00	0	43	0	1096810496	7	4196
2026-01-03 04:24:56.82	341.16	20.21	-23.7	-25.0	18.2	1.47e-03	0	43	0	1103101952	7	4180
2026-01-03 04:24:57.83	340.93	20.27	-23.8	-25.1	18.2	0.00e+00	0	43	0	1108344832	7	4208
2026-01-03 04:24:58.83	340.70	20.33	-24.0	-25.5	18.0	0.00e+00	0	43	0	1114636288	7	4296
2026-01-03 04:24:59.84	340.47	20.38	-24.1	-25.3	17.8	0.00e+00	0	43	0	1119879168	8	4142
2026-01-03 04:25:00.84	340.24	20.44	-24.4	-25.9	17.5	1.78e-03	0	43	0	1125122048	8	4296
2026-01-03 04:25:01.85	340.00	20.49	-24.2	-25.5	17.8	0.00e+00	0	43	0	1131413504	8	4184
2026-01-03 04:25:02.86	339.77	20.55	-23.9	-25.0	18.0	1.51e-03	0	43	0	1136656384	8	4053
2026-01-03 04:25:03.87	339.54	20.60	-23.8	-24.7	18.1	1.49e-03	0	43	0	1142947840	8	3996
2026-01-03 04:25:04.87	339.30	20.66	-23.9	-24.8	18.1	0.00e+00	0	43	0	1148190720	8	4020
2026-01-03 04:25:05.88	339.07	20.71	-23.9	-24.8	18.1	1.57e-03	0	43	0	1154482176	8	4011
2026-01-03 04:25:06.89	338.83	20.76	-24.2	-25.5	17.8	0.00e+00	0	43	0	1159725056	8	4180
2026-01-03 04:25:07.89	338.59	20.82	-24.0	-25.0	18.0	0.00e+00	0	43	0	1164967936	8	4066
2026-01-03 04:25:08.89	338.36	20.87	-23.7	-25.1	18.3	1.50e-03	0	43	0	1171259392	7	4186
2026-01-03 04:25:09.91	338.12	20.92	-23.7	-25.0	18.3	1.44e-03	0	43	0	1176502272	7	4161
2026-01-03 04:25:10.91	337.88	20.97	-24.0	-25.6	18.0	0.00e+00	0	43	0	1181745152	7	4315
2026-01-03 04:25:11.92	337.64	21.03	-23.7	-25.0	18.2	3.54e-05	0	43	0	1188036608	7	4179
2026-01-03 04:25:12.93	337.39	21.08	-24.0	-25.2	18.0	1.54e-03	0	43	0	1193279488	8	4100
2026-01-03 04:25:13.93	337.15	21.13	-23.8	-24.7	18.2	0.00e+00	0	43	0	1199570944	8	3984
2026-01-03 04:25:14.93	336.91	21.18	-23.6	-24.8	18.3	1.43e-03	0	43	0	1204813824	7	4131
2026-01-03 04:25:15.93	336.67	21.23	-23.8	-25.1	18.2	0.00e+00	0	43	0	1210056704	7	4204
2026-01-03 04:25:16.94	336.43	21.28	-23.6	-24.9	18.3	0.00e+00	0	43	0	1216348160	7	4135
2026-01-03 04:25:17.95	336.18	21.33	-23.5	-24.5	18.5	1.57e-03	0	43	0	1221591040	7	4054
2026-01-03 04:25:18.96	335.93	21.37	-23.4	-24.4	18.6	0.00e+00	0	43	0	1227882496	7	4007
2026-01-03 04:25:19.97	335.68	21.42	-23.5	-24.6	18.5	0.00e+00	0	43	0	1233125376	7	4062
2026-01-03 04:25:20.97	335.44	21.47	-23.5	-24.4	18.5	0.00e+00	0	43	0	1238368256	7	4027
2026-01-03 04:25:21.98	335.19	21.52	-23.8	-25.1	18.2	1.37e-03	0	43	0	1244659712	7	4207
2026-01-03 04:25:22.98	334.94	21.56	-23.6	-24.7	18.4	0.00e+00	0	43	0	1249902592	7	4092
2026-01-03 04:25:23.98	334.69	21.61	-23.4	-24.3	18.7	0.00e+00	0	43	0	1256194048	7	3992
2026-01-03 04:25:24.99	334.44	21.65	-23.3	-24.5	18.8	0.00e+00	0	43	0	1261436928	6	4161
2026-01-03 04:25:26.00	334.19	21.70	-23.1	-24.3	18.9	0.00e+00	0	43	0	1266679808	6	4102
2026-01-03 04:25:27.00	333.94	21.74	-23.2	-24.4	18.8	0.00e+00	0	43	0	1272971264	6	4133
2026-01-03 04:25:28.01	333.69	21.79	-23.1	-24.3	18.9	0.00e+00	0	43	0	1278214144	6	4099
2026-01-03 04:25:29.02	333.43	21.83	-23.2	-24.3	18.9	0.00e+00	0	43	0	1283457024	6	4111
2026-01-03 04:25:30.03	333.18	21.87	-23.3	-24.5	18.8	0.00e+00	0	43	0	1289748480	6	4159
2026-01-03 04:25:31.03	332.92	21.92	-23.1	-24.1	19.0	0.00e+00	0	43	0	1294991360	6	4067
2026-01-03 04:25:32.04	332.67	21.96	-23.0	-24.1	19.0	0.00e+00	0	43	0	1301282816	6	4043
2026-01-03 04:25:33.05	332.41	22.00	-23.1	-24.2	18.9	0.00e+00	0	43	0	1306525696	6	4095
2026-01-03 04:25:34.05	332.15	22.04	-23.0	-24.0	19.0	0.00e+00	0	43	0	1312817152	6	4045
2026-01-03 04:25:35.05	331.90	22.08	-23.1	-24.2	18.9	0.00e+00	0	43	0	1318060032	6	4094
2026-01-03 04:25:36.05	331.64	22.12	-23.2	-24.3	18.9	0.00e+00	0	43	0	1323302912	6	4114
2026-01-03 04:25:37.05	331.38	22.16	-23.2	-24.5	18.8	0.00e+00	0	43	0	1329594368	6	4158
2026-01-03 04:25:38.04	331.13	22.19	-23.1	-24.2	18.9	0.00e+00	0	43	0	1334837248	6	4087
2026-01-03 04:25:39.05	330.87	22.23	-23.1	-24.2	19.0	0.00e+00	0	43	0	1340080128	6	4076
2026-01-03 04:25:40.05	330.61	22.27	-23.0	-24.1	19.0	0.00e+00	0	43	0	1346371584	6	4046
2026-01-03 04:25:41.06	330.35	22.31	-23.1	-24.1	19.0	0.00e+00	0	43	0	1351614464	6	4067
2026-01-03 04:25:42.07	330.08	22.34	-23.1	-24.2	19.0	0.00e+00	0	43	0	1357905920	6	4084
2026-01-03 04:25:43.07	329.82	22.38	-23.1	-24.2	19.0	0.00e+00	0	43	0	1363148800	6	4078
2026-01-03 04:25:44.08	329.56	22.41	-23.1	-24.1	19.0	0.00e+00	0	43	0	1368391680	6	4059
2026-01-03 04:25:45.09	329.29	22.45	-23.1	-24.1	19.0	0.00e+00	0	43	0	1374683136	6	4066
2026-01-03 04:25:46.08	329.03	22.48	-23.0	-23.9	19.1	0.00e+00	0	43	0	1379926016	6	4018
2026-01-03 04:25:47.10	328.76	22.51	-23.1	-24.2	19.0	6.14e-04	0	43	0	1386217472	6	4072
2026-01-03 04:25:48.10	328.50	22.55	-23.0	-24.0	19.0	0.00e+00	0	43	0	1391460352	6	4044
2026-01-03 04:25:49.10	328.23	22.58	-23.1	-24.3	18.9	0.00e+00	0	43	0	1396703232	6	4102
2026-01-03 04:25:50.10	327.97	22.61	-23.1	-24.2	19.0	0.00e+00	0	43	0	1402994688	6	4081
2026-01-03 04:25:51.11	327.70	22.64	-23.2	-24.4	18.9	0.00e+00	0	43	0	1408237568	6	4133
2026-01-03 04:25:52.12	327.43	22.67	-23.1	-24.2	19.0	0.00e+00	0	43	0	1413480448	6	4075
2026-01-03 04:25:53.12	327.16	22.70	-23.1	-24.2	19.0	0.00e+00	0	43	0	1419771904	6	4093
2026-01-03 04:25:54.13	326.89	22.73	-23.1	-24.2	19.0	3.34e-04	0	43	0	1425014784	6	4082
2026-01-03 04:25:55.13	326.63	22.76	-23.2	-24.3	18.9	0.00e+00	0	43	0	1431306240	6	4103
2026-01-03 04:25:56.14	326.36	22.78	-23.2	-24.5	18.8	2.55e-04	0	43	0	1436549120	6	4146
2026-01-03 04:25:57.15	326.08	22.81	-23.1	-24.2	19.0	0.00e+00	0	43	0	1441792000	6	4080
2026-01-03 04:25:58.15	325.82	22.84	-23.0	-24.0	19.1	0.00e+00	0	43	0	1448083456	6	4043
2026-01-03 04:25:59.16	325.54	22.86	-23.0	-24.1	19.0	9.15e-05	0	43	0	1453326336	6	4052
2026-01-03 04:26:00.16	325.27	22.89	-23.0	-23.9	19.1	0.00e+00	0	43	0	1459617792	6	4005
2026-01-03 04:26:01.16	325.00	22.91	-23.0	-24.0	19.0	0.00e+00	0	43	0	1464860672	6	4044
2026-01-03 04:26:02.17	324.73	22.93	-22.9	-24.3	19.2	0.00e+00	0	43	0	1471152128	5	4219
2026-01-03 04:26:03.18	324.45	22.96	-23.0	-24.0	19.1	0.00e+00	0	43	0	1476395008	6	4025
2026-01-03 04:26:04.18	324.18	22.98	-22.9	-23.8	19.2	0.00e+00	0	43	0	1481637888	6	3978
2026-01-03 04:26:05.19	323.91	23.00	-22.8	-23.5	19.0	2.28e-05	0	43	0	1487929344	6	3916
2026-01-03 04:26:06.19	323.64	23.02	-22.6	-23.8	15.8	2.13e-04	0	43	0	1493172224	5	4130
2026-01-03 04:26:07.20	323.36	23.04	-22.6	-23.7	16.5	0.00e+00	0	43	0	1498415104	5	4080
2026-01-03 04:26:08.21	323.08	23.06	-22.5	-23.4	19.3	3.08e-04	0	43	0	1504706560	5	4008
2026-01-03 04:26:09.22	322.81	23.08	-22.5	-23.4	19.6	1.00e-03	0	43	0	1509949440	5	4003
2026-01-03 04:26:10.23	322.53	23.10	-22.6	-23.6	19.5	0.00e+00	0	43	0	1516240896	5	4052
2026-01-03 04:26:11.24	322.25	23.11	-22.6	-23.5	19.6	3.08e-05	0	43	0	1521483776	5	4033
2026-01-03 04:26:12.24	321.98	23.13	-22.6	-23.7	19.5	2.10e-04	0	43	0	1526726656	5	4077
2026-01-03 04:26:13.25	321.70	23.15	-22.8	-24.0	19.3	0.00e+00	0	43	0	1533018112	5	4141
2026-01-03 04:26:14.25	321.43	23.16	-22.8	-24.0	19.3	2.01e-03	0	43	0	1538260992	5	4145
2026-01-03 04:26:15.25	321.15	23.18	-22.8	-24.0	19.3	8.16e-04	0	43	0	1544552448	5	4158
2026-01-03 04:26:16.26	320.87	23.19	-22.8	-24.1	19.3	5.94e-04	0	43	0	1549795328	5	4167
2026-01-03 04:26:17.26	320.60	23.20	-22.9	-24.2	19.2	8.23e-04	0	43	0	1555038208	5	4208
2026-01-03 04:26:18.27	320.32	23.21	-22.8	-24.1	19.3	9.34e-04	0	43	0	1561329664	5	4178
2026-01-03 04:26:19.28	320.04	23.23	-22.8	-24.0	19.3	0.00e+00	0	43	0	1566572544	5	4160
2026-01-03 04:26:20.28	319.76	23.24	-22.7	-23.8	19.4	8.94e-04	0	43	0	1572864000	5	4108
2026-01-03 04:26:21.28	319.49	23.25	-22.8	-24.1	19.3	1.21e-03	0	43	0	1578106880	5	4161
2026-01-03 04:26:22.29	319.21	23.26	-22.9	-24.2	19.2	0.00e+00	0	43	0	1583349760	5	4206
2026-01-03 04:26:23.30	318.93	23.26	-22.7	-23.8	19.4	1.33e-03	0	43	0	1589641216	5	4085
2026-01-03 04:26:24.29	318.65	23.27	-22.7	-23.7	19.4	9.90e-04	0	43	0	1594884096	5	4082
2026-01-03 04:26:25.30	318.37	23.28	-22.8	-24.0	19.3	3.52e-04	0	43	0	1600126976	5	4134
2026-01-03 04:26:26.30	318.09	23.29	-22.7	-23.9	19.4	2.29e-03	0	43	0	1606418432	5	4117
2026-01-03 04:26:27.31	317.81	23.29	-22.8	-24.0	19.3	1.29e-03	0	43	0	1611661312	5	4150
2026-01-03 04:26:28.32	317.53	23.30	-22.8	-24.0	19.3	4.34e-04	0	43	0	1617952768	5	4143
2026-01-03 04:26:29.32	317.26	23.30	-22.8	-24.2	19.2	1.57e-03	0	43	0	1623195648	5	4184
2026-01-03 04:26:30.33	316.98	23.30	-22.8	-24.1	19.3	1.38e-03	0	43	0	1629487104	5	4162
2026-01-03 04:26:31.34	316.69	23.31	-22.7	-23.8	19.4	0.00e+00	0	43	0	1634729984	5	4099
2026-01-03 04:26:32.34	316.42	23.31	-22.6	-23.6	19.5	1.44e-03	0	43	0	1639972864	5	4051
2026-01-03 04:26:33.35	316.14	23.31	-22.7	-23.8	19.4	1.39e-03	0	43	0	1646264320	5	4098
2026-01-03 04:26:34.35	315.86	23.31	-22.5	-23.5	19.6	3.12e-04	0	43	0	1651507200	5	4030
2026-01-03 04:26:35.36	315.58	23.31	-22.6	-23.7	19.5	1.29e-03	0	43	0	1656750080	5	4067
2026-01-03 04:26:36.37	315.30	23.31	-22.9	-24.3	19.2	1.54e-03	0	43	0	1663041536	5	4211
2026-01-03 04:26:37.38	315.02	23.31	-22.8	-24.0	19.3	2.31e-04	0	43	0	1668284416	5	4132
2026-01-03 04:26:38.39	314.73	23.31	-23.1	-24.1	19.0	0.00e+00	0	43	0	1674575872	6	4061
2026-01-03 04:26:39.40	314.45	23.30	-23.2	-24.4	18.9	1.53e-03	0	43	0	1679818752	6	4123
2026-01-03 04:26:40.40	314.18	23.30	-22.9	-23.9	19.2	0.00e+00	0	43	0	1685061632	6	3999
2026-01-03 04:26:41.40	313.90	23.29	-23.0	-24.0	19.1	1.65e-03	0	43	0	1691353088	6	4028
2026-01-03 04:26:42.41	313.62	23.29	-23.2	-24.4	18.9	1.49e-03	0	43	0	1696595968	6	4143
2026-01-03 04:26:43.41	313.34	23.28	-23.3	-24.5	18.8	0.00e+00	0	43	0	1702887424	6	4157
2026-01-03 04:26:44.42	313.06	23.28	-23.5	-24.9	18.6	1.51e-03	0	43	0	1708130304	6	4266
2026-01-03 04:26:45.42	312.78	23.27	-23.9	-25.3	18.2	0.00e+00	0	43	0	1714421760	7	4256
2026-01-03 04:26:46.42	312.51	23.26	-23.4	-24.2	18.8	0.00e+00	0	43	0	1719664640	7	3969
2026-01-03 04:26:47.43	312.23	23.25	-23.4	-24.4	18.7	0.00e+00	0	43	0	1724907520	7	4013
2026-01-03 04:26:48.43	311.95	23.24	-23.5	-24.5	18.6	0.00e+00	0	43	0	1731198976	7	4054
2026-01-03 04:26:49.44	311.67	23.23	-23.8	-25.2	18.2	0.00e+00	0	43	0	1736441856	7	4220
2026-01-03 04:26:50.45	311.39	23.22	-24.2	-25.5	17.8	0.00e+00	0	43	0	1741684736	8	4190
2026-01-03 04:26:51.45	311.11	23.21	-24.1	-25.2	18.0	0.00e+00	0	43	0	1747976192	8	4112
2026-01-03 04:26:52.46	310.83	23.20	-23.6	-24.2	18.5	0.00e+00	0	43	0	1753219072	8	3873
2026-01-03 04:26:53.47	310.56	23.18	-23.0	-23.5	19.1	1.53e-03	0	43	0	1758461952	7	3805
2026-01-03 04:26:54.48	310.28	23.17	-22.6	-23.2	19.5	0.00e+00	0	43	0	1764753408	6	3832
2026-01-03 04:26:55.48	310.00	23.15	-22.6	-23.1	19.6	0.00e+00	0	43	0	1769996288	6	3818
2026-01-03 04:26:56.49	309.72	23.14	-22.7	-23.7	19.5	0.00e+00	0	43	0	1776287744	5	4079
2026-01-03 04:26:57.50	309.45	23.12	-22.9	-24.2	19.2	0.00e+00	0	43	0	1781530624	5	4205
2026-01-03 04:26:58.50	309.17	23.11	-22.8	-24.1	19.2	0.00e+00	0	43	0	1787822080	5	4174
2026-01-03 04:26:59.51	308.89	23.09	-22.8	-24.0	19.3	0.00e+00	0	43	0	1793064960	5	4145
2026-01-03 04:27:00.52	308.62	23.07	-22.9	-24.2	19.2	0.00e+00	0	43	0	1799356416	5	4184
2026-01-03 04:27:01.53	308.34	23.05	-22.9	-24.2	19.2	0.00e+00	0	43	0	1804599296	5	4196
2026-01-03 04:27:02.53	308.07	23.03	-22.8	-24.1	19.3	0.00e+00	0	43	0	1809842176	5	4169
2026-01-03 04:27:03.54	307.79	23.01	-22.8	-24.0	19.3	0.00e+00	0	43	0	1816133632	5	4148
2026-01-03 04:27:04.55	307.52	22.99	-22.8	-24.1	19.2	0.00e+00	0	43	0	1821376512	5	4180
2026-01-03 04:27:05.56	307.24	22.97	-22.8	-24.1	19.2	0.00e+00	0	43	0	1826619392	5	4180
2026-01-03 04:27:06.56	306.97	22.95	-22.6	-23.5	19.5	0.00e+00	0	43	0	1832910848	5	4027
2026-01-03 04:27:07.57	306.70	22.92	-22.6	-23.6	19.5	0.00e+00	0	43	0	1838153728	5	4047
2026-01-03 04:27:08.58	306.42	22.90	-22.7	-23.9	19.4	0.00e+00	0	43	0	1844445184	5	4112
2026-01-03 04:27:09.58	306.15	22.87	-22.8	-24.0	19.3	0.00e+00	0	43	0	1849688064	5	4148
2026-01-03 04:27:10.59	305.88	22.85	-22.7	-23.9	19.3	0.00e+00	0	43	0	1854930944	5	4121
2026-01-03 04:27:11.60	305.61	22.82	-22.7	-23.8	19.4	0.00e+00	0	43	0	1861222400	5	4104
2026-01-03 04:27:12.61	305.33	22.80	-22.6	-23.7	19.4	0.00e+00	0	43	0	1866465280	5	4084
2026-01-03 04:27:13.62	305.06	22.77	-22.8	-24.0	19.3	0.00e+00	0	43	0	1872756736	5	4143
2026-01-03 04:27:14.62	304.79	22.74	-22.7	-23.8	19.3	0.00e+00	0	43	0	1877999616	5	4102
2026-01-03 04:27:15.63	304.52	22.71	-22.7	-23.7	19.4	0.00e+00	0	43	0	1884291072	5	4081
2026-01-03 04:27:16.63	304.26	22.68	-22.7	-23.9	19.3	0.00e+00	0	43	0	1889533952	5	4112
2026-01-03 04:27:17.64	303.99	22.65	-22.8	-24.0	19.3	0.00e+00	0	43	0	1894776832	5	4145
2026-01-03 04:27:18.64	303.72	22.62	-22.8	-24.0	19.3	0.00e+00	0	43	0	1901068288	5	4142
2026-01-03 04:27:19.64	303.45	22.59	-22.9	-24.3	19.1	0.00e+00	0	43	0	1906311168	5	4225
2026-01-03 04:27:20.64	303.19	22.56	-22.8	-24.0	19.2	0.00e+00	0	43	0	1911554048	5	4150
2026-01-03 04:27:21.65	302.92	22.53	-22.7	-23.8	19.4	0.00e+00	0	43	0	1917845504	5	4102
2026-01-03 04:27:22.65	302.66	22.50	-22.7	-23.9	19.3	0.00e+00	0	43	0	1923088384	5	4112
2026-01-03 04:27:23.66	302.39	22.46	-23.0	-24.4	19.1	0.00e+00	0	43	0	1928331264	5	4257
2026-01-03 04:27:24.66	302.13	22.43	-23.0	-24.0	19.1	0.00e+00	0	43	0	1934622720	6	4026
2026-01-03 04:27:25.66	301.86	22.39	-22.8	-23.5	19.3	0.00e+00	0	43	0	1939865600	6	3920
2026-01-03 04:27:26.67	301.60	22.36	-22.6	-23.7	19.2	1.60e-03	0	43	0	1946157056	5	4060
2026-01-03 04:27:27.68	301.34	22.32	-22.8	-24.0	19.3	0.00e+00	0	43	0	1951399936	5	4146
2026-01-03 04:27:28.68	301.08	22.29	-22.9	-24.3	19.1	0.00e+00	0	43	0	1957691392	5	4220
2026-01-03 04:27:29.69	300.81	22.25	-23.0	-23.9	19.1	1.10e-06	0	43	0	1962934272	6	4005
2026-01-03 04:27:30.69	300.55	22.21	-22.9	-24.4	19.1	0.00e+00	0	43	0	1968177152	5	4238
2026-01-03 04:27:31.70	300.29	22.17	-23.0	-24.4	19.0	9.38e-05	0	43	0	1974468608	5	4257
2026-01-03 04:27:32.70	300.03	22.14	-23.0	-24.0	19.0	8.35e-05	0	43	0	1979711488	6	4046
2026-01-03 04:27:33.71	299.77	22.10	-23.0	-24.0	19.0	2.21e-04	0	43	0	1984954368	6	4023
2026-01-03 04:27:34.71	299.52	22.06	-22.9	-23.7	19.2	3.07e-04	0	43	0	1991245824	6	3962
2026-01-03 04:27:35.72	299.26	22.02	-22.8	-24.1	19.2	1.94e-03	0	43	0	1996488704	5	4168
2026-01-03 04:27:36.72	299.00	21.97	-22.8	-24.0	19.2	0.00e+00	0	43	0	2002780160	5	4156
2026-01-03 04:27:37.73	298.74	21.93	-23.0	-24.4	19.1	1.40e-04	0	43	0	2008023040	5	4245
2026-01-03 04:27:38.74	298.49	21.89	-23.0	-24.0	19.0	1.98e-03	0	43	0	2013265920	6	4036
2026-01-03 04:27:39.74	298.23	21.85	-23.0	-23.9	19.1	0.00e+00	0	43	0	2019557376	6	4015
2026-01-03 04:27:40.75	297.98	21.81	-23.0	-23.9	19.1	1.80e-03	0	43	0	2024800256	6	4006
2026-01-03 04:27:41.76	297.72	21.76	-23.0	-24.1	19.0	3.66e-05	0	43	0	2031091712	6	4049
2026-01-03 04:27:42.77	297.47	21.72	-23.0	-23.9	19.0	2.05e-05	0	43	0	2036334592	6	4018
2026-01-03 04:27:43.77	297.22	21.67	-22.9	-23.8	19.1	1.66e-03	0	43	0	2042626048	6	3987
2026-01-03 04:27:44.78	296.97	21.63	-23.0	-23.9	19.0	1.68e-03	0	43	0	2047868928	6	4004
2026-01-03 04:27:45.78	296.72	21.58	-22.9	-23.7	19.1	3.77e-05	0	43	0	2053111808	6	3972
2026-01-03 04:27:46.79	296.47	21.53	-22.9	-23.8	19.1	1.68e-03	0	43	0	2059403264	6	3983
2026-01-03 04:27:47.80	296.22	21.49	-22.9	-23.8	19.1	1.60e-03	0	43	0	2064646144	6	3976
2026-01-03 04:27:48.80	295.97	21.44	-23.0	-23.9	19.0	0.00e+00	0	43	0	2069889024	6	4018
2026-01-03 04:27:49.81	295.72	21.39	-22.9	-23.8	19.1	1.47e-03	0	43	0	2076180480	6	3991
2026-01-03 04:27:50.82	295.47	21.34	-22.8	-23.7	19.2	1.40e-03	0	43	0	2081423360	6	3951
2026-01-03 04:27:51.82	295.23	21.30	-22.9	-23.7	19.1	0.00e+00	0	43	0	2087714816	6	3970
2026-01-03 04:27:52.83	294.98	21.25	-22.9	-23.9	19.1	1.28e-03	0	43	0	2092957696	6	4005
2026-01-03 04:27:53.84	294.74	21.20	-23.0	-24.0	19.0	1.08e-03	0	43	0	2098200576	6	4028
2026-01-03 04:27:54.85	294.49	21.15	-23.1	-24.1	18.9	3.31e-05	0	43	0	2104492032	6	4068
2026-01-03 04:27:55.86	294.25	21.10	-23.2	-24.4	18.8	0.00e+00	0	43	0	2109734912	6	4129
2026-01-03 04:27:56.87	294.00	21.05	-23.2	-24.5	18.7	1.35e-03	0	43	0	2116026368	6	4156
2026-01-03 04:27:57.87	293.76	20.99	-23.3	-24.6	18.6	0.00e+00	0	43	0	2121269248	6	4182
2026-01-03 04:27:58.87	293.53	20.94	-23.5	-24.6	18.4	1.23e-03	0	43	0	2127560704	7	4066
2026-01-03 04:27:59.88	293.28	20.89	-24.0	-25.5	17.9	0.00e+00	0	43	0	2132803584	7	4294
2026-01-03 04:28:00.88	293.05	20.84	-23.7	-25.0	18.2	0.00e+00	0	43	0	2138046464	7	4180
2026-01-03 04:28:01.89	292.81	20.78	-23.5	-24.4	18.5	1.11e-03	0	43	0	2144337920	7	4034
2026-01-03 04:28:02.89	292.57	20.73	-23.3	-24.0	18.7	0.00e+00	0	43	0	2149580800	7	3937
2026-01-03 04:28:03.90	292.33	20.68	-23.0	-24.1	18.9	1.44e-04	0	43	0	2154823680	6	4047
2026-01-03 04:28:04.90	292.10	20.62	-23.0	-24.0	19.0	0.00e+00	0	43	0	2161115136	6	4031
2026-01-03 04:28:05.91	291.86	20.57	-23.2	-24.5	18.7	8.15e-04	0	43	0	2166358016	6	4147
2026-01-03 04:28:06.91	291.63	20.51	-23.1	-24.2	18.8	0.00e+00	0	43	0	2171600896	6	4097
2026-01-03 04:28:07.92	291.40	20.46	-23.1	-24.3	18.8	0.00e+00	0	43	0	2177892352	6	4115
2026-01-03 04:28:08.93	291.16	20.40	-23.3	-24.6	18.7	0.00e+00	0	43	0	2183135232	6	4175
2026-01-03 04:28:09.93	290.93	20.35	-23.2	-24.4	18.7	0.00e+00	0	43	0	2189426688	6	4145
2026-01-03 04:28:10.93	290.71	20.29	-23.1	-24.3	18.8	9.85e-04	0	43	0	2194669568	6	4106
2026-01-03 04:28:11.95	290.47	20.23	-23.3	-24.5	18.7	0.00e+00	0	43	0	2200961024	6	4160
2026-01-03 04:28:12.95	290.24	20.18	-23.2	-24.4	18.7	0.00e+00	0	43	0	2206203904	6	4142
2026-01-03 04:28:13.96	290.02	20.12	-23.5	-25.0	18.4	0.00e+00	0	43	0	2211446784	6	4281
2026-01-03 04:28:14.96	289.79	20.06	-23.3	-24.7	18.6	0.00e+00	0	43	0	2217738240	6	4211
2026-01-03 04:28:15.97	289.56	20.00	-23.3	-24.6	18.6	0.00e+00	0	43	0	2222981120	6	4188
2026-01-03 04:28:16.98	289.34	19.94	-23.4	-24.7	18.6	0.00e+00	0	43	0	2229272576	6	4217
2026-01-03 04:28:17.99	289.11	19.88	-23.4	-24.8	18.5	0.00e+00	0	43	0	2234515456	6	4238
2026-01-03 04:28:18.99	288.89	19.82	-23.5	-25.0	18.4	0.00e+00	0	43	0	2239758336	6	4297
2026-01-03 04:28:20.00	288.66	19.76	-23.7	-25.0	18.2	0.00e+00	0	43	0	2246049792	7	4176
2026-01-03 04:28:21.01	288.44	19.70	-24.0	-25.5	17.9	0.00e+00	0	43	0	2251292672	7	4308
2026-01-03 04:28:22.01	288.22	19.64	-23.7	-24.9	18.2	0.00e+00	0	43	0	2256535552	7	4159
2026-01-03 04:28:23.02	288.00	19.58	-23.4	-24.3	18.5	0.00e+00	0	43	0	2262827008	7	4005
2026-01-03 04:28:24.03	287.78	19.52	-23.4	-24.3	18.5	0.00e+00	0	43	0	2268069888	7	4004
2026-01-03 04:28:25.03	287.56	19.46	-23.5	-24.6	18.4	0.00e+00	0	43	0	2274361344	7	4066
2026-01-03 04:28:26.04	287.35	19.40	-23.5	-24.6	18.4	0.00e+00	0	43	0	2279604224	7	4064
2026-01-03 04:28:27.05	287.13	19.34	-23.9	-25.3	18.0	0.00e+00	0	43	0	2285895680	7	4257
2026-01-03 04:28:28.05	286.91	19.28	-23.7	-24.9	18.2	0.00e+00	0	43	0	2291138560	7	4155
2026-01-03 04:28:29.05	286.70	19.22	-23.7	-24.9	18.2	0.00e+00	0	43	0	2296381440	7	4154
2026-01-03 04:28:30.06	286.48	19.15	-23.7	-25.0	18.1	0.00e+00	0	43	0	2302672896	7	4173
2026-01-03 04:28:31.07	286.27	19.09	-23.7	-25.0	18.1	0.00e+00	0	43	0	2307915776	7	4182
2026-01-03 04:28:32.08	286.06	19.03	-23.6	-24.8	18.2	0.00e+00	0	43	0	2314207232	7	4118
2026-01-03 04:28:33.09	285.85	18.96	-23.7	-24.9	18.2	0.00e+00	0	43	0	2319450112	7	4145
2026-01-03 04:28:34.10	285.63	18.90	-23.6	-24.8	18.2	0.00e+00	0	43	0	2324692992	7	4125
2026-01-03 04:28:35.10	285.43	18.84	-23.7	-25.1	18.1	0.00e+00	0	43	0	2330984448	7	4188
2026-01-03 04:28:36.11	285.22	18.77	-23.8	-25.1	18.0	0.00e+00	0	43	0	2336227328	7	4205
2026-01-03 04:28:37.12	285.01	18.71	-23.8	-25.2	18.0	0.00e+00	0	43	0	2342518784	7	4223
2026-01-03 04:28:38.12	284.80	18.64	-23.7	-25.0	18.1	0.00e+00	0	43	0	2347761664	7	4187
2026-01-03 04:28:39.13	284.60	18.58	-23.8	-25.2	18.0	0.00e+00	0	43	0	2353004544	7	4219
2026-01-03 04:28:40.13	284.39	18.51	-23.8	-25.2	18.0	0.00e+00	0	43	0	2359296000	7	4229
2026-01-03 04:28:41.14	284.19	18.45	-23.9	-25.4	17.9	0.00e+00	0	43	0	2364538880	7	4290
2026-01-03 04:28:42.15	283.98	18.38	-23.8	-25.2	18.0	0.00e+00	0	43	0	2370830336	7	4226
2026-01-03 04:28:43.16	283.78	18.32	-23.9	-25.3	18.0	0.00e+00	0	43	0	2376073216	7	4245
2026-01-03 04:28:44.16	283.58	18.25	-23.8	-25.2	17.9	0.00e+00	0	43	0	2381316096	7	4254
2026-01-03 04:28:45.16	283.38	18.19	-24.2	-25.5	17.6	0.00e+00	0	43	0	2387607552	8	4189
2026-01-03 04:28:46.17	283.18	18.12	-24.4	-26.0	14.5	0.00e+00	0	43	0	2392850432	8	4322
2026-01-03 04:28:47.17	282.98	18.06	-24.5	-25.7	16.8	0.00e+00	0	43	0	2399141888	9	4122
2026-01-03 04:28:48.19	282.78	17.99	-24.5	-25.6	17.3	0.00e+00	0	43	0	2404384768	9	4105
2026-01-03 04:28:49.19	282.58	17.92	-24.5	-26.1	17.3	0.00e+00	0	43	0	2409627648	8	4339
2026-01-03 04:28:50.20	282.39	17.85	-24.5	-25.6	17.2	0.00e+00	0	43	0	2415919104	9	4102
2026-01-03 04:28:51.20	282.19	17.79	-24.3	-25.2	17.5	1.30e-04	0	43	0	2421161984	9	4000
2026-01-03 04:28:52.20	282.00	17.72	-24.3	-25.7	17.5	0.00e+00	0	43	0	2426404864	8	4253
2026-01-03 04:28:53.20	281.80	17.65	-24.4	-26.0	17.3	1.14e-03	0	43	0	2432696320	8	4335
2026-01-03 04:28:54.21	281.61	17.59	-24.3	-25.9	17.4	0.00e+00	0	43	0	2437939200	8	4285
2026-01-03 04:28:55.21	281.42	17.52	-24.1	-25.4	17.6	0.00e+00	0	43	0	2444230656	8	4169
2026-01-03 04:28:56.22	281.23	17.45	-24.0	-25.1	17.8	3.51e-04	0	43	0	2449473536	8	4092
2026-01-03 04:28:57.23	281.04	17.38	-23.9	-24.8	17.9	0.00e+00	0	43	0	2455764992	8	4015
2026-01-03 04:28:58.23	280.85	17.32	-23.9	-24.8	17.9	1.01e-03	0	43	0	2461007872	8	4018
2026-01-03 04:28:59.24	280.66	17.25	-24.0	-25.0	17.8	0.00e+00	0	43	0	2466250752	8	4072
2026-01-03 04:29:00.24	280.47	17.18	-24.0	-25.1	17.8	0.00e+00	0	43	0	2472542208	8	4083
2026-01-03 04:29:01.25	280.28	17.11	-24.1	-25.3	17.6	0.00e+00	0	43	0	2477785088	8	4151
2026-01-03 04:29:02.26	280.10	17.04	-24.1	-25.3	17.6	2.51e-05	0	43	0	2483027968	8	4139
2026-01-03 04:29:03.27	279.91	16.97	-24.0	-25.2	17.7	0.00e+00	0	43	0	2489319424	8	4121
2026-01-03 04:29:04.27	279.73	16.91	-23.8	-25.3	17.9	1.19e-03	0	43	0	2494562304	7	4247
2026-01-03 04:29:05.27	279.55	16.84	-23.8	-25.1	18.0	1.36e-03	0	43	0	2500853760	7	4191
2026-01-03 04:29:06.28	279.36	16.77	-23.8	-25.2	17.9	0.00e+00	0	43	0	2506096640	7	4236
2026-01-03 04:29:07.28	279.18	16.70	-23.9	-25.4	17.8	1.72e-03	0	43	0	2511339520	7	4283
2026-01-03 04:29:08.29	279.00	16.63	-24.0	-25.6	17.7	1.19e-03	0	43	0	2517630976	7	4321
2026-01-03 04:29:09.30	278.82	16.56	-24.3	-25.7	17.4	1.91e-04	0	43	0	2522873856	8	4238
2026-01-03 04:29:10.30	278.64	16.49	-24.3	-25.7	17.4	1.69e-03	0	43	0	2529165312	8	4249
2026-01-03 04:29:11.31	278.46	16.42	-24.3	-25.9	17.3	1.48e-03	0	43	0	2534408192	8	4284
2026-01-03 04:29:12.32	278.28	16.35	-24.1	-25.2	17.7	0.00e+00	0	43	0	2540699648	8	4120
2026-01-03 04:29:13.33	278.11	16.28	-24.1	-25.3	17.6	6.97e-04	0	43	0	2545942528	8	4133
2026-01-03 04:29:14.33	277.93	16.21	-24.2	-25.6	17.5	1.02e-03	0	43	0	2551185408	8	4209
2026-01-03 04:29:15.34	277.75	16.14	-24.4	-26.1	17.2	0.00e+00	0	43	0	2557476864	8	4339
2026-01-03 04:29:16.35	277.58	16.07	-24.4	-25.5	17.3	1.42e-03	0	43	0	2562719744	9	4082
2026-01-03 04:29:17.36	277.41	16.00	-24.4	-25.6	17.2	1.38e-03	0	43	0	2567962624	9	4102
2026-01-03 04:29:18.37	277.23	15.93	-24.4	-25.5	17.3	2.54e-04	0	43	0	2574254080	9	4081
2026-01-03 04:29:19.36	277.06	15.87	-24.4	-25.9	17.3	1.46e-03	0	43	0	2579496960	8	4298
2026-01-03 04:29:20.37	276.89	15.80	-24.3	-25.8	17.4	0.00e+00	0	43	0	2585788416	8	4266
2026-01-03 04:29:21.39	276.72	15.72	-24.3	-25.8	17.3	2.00e-04	0	43	0	2591031296	8	4276
2026-01-03 04:29:22.39	276.55	15.65	-24.4	-25.9	17.3	0.00e+00	0	43	0	2596274176	8	4285
2026-01-03 04:29:23.39	276.38	15.59	-24.3	-25.8	17.4	1.35e-03	0	43	0	2602565632	8	4259
2026-01-03 04:29:24.40	276.21	15.51	-24.3	-25.8	17.3	0.00e+00	0	43	0	2607808512	8	4279
2026-01-03 04:29:25.41	276.05	15.44	-24.4	-25.9	17.3	7.09e-04	0	43	0	2614099968	8	4301
2026-01-03 04:29:26.42	275.88	15.37	-24.4	-26.0	17.2	0.00e+00	0	43	0	2619342848	8	4327
2026-01-03 04:29:27.42	275.71	15.30	-24.6	-25.8	17.0	0.00e+00	0	43	0	2624585728	9	4165
2026-01-03 04:29:28.42	275.55	15.23	-24.6	-26.0	17.0	0.00e+00	0	43	0	2630877184	9	4199
2026-01-03 04:29:29.42	275.39	15.16	-24.5	-25.7	17.1	0.00e+00	0	43	0	2636120064	9	4143
2026-01-03 04:29:30.43	275.22	15.09	-24.5	-25.7	17.1	2.77e-04	0	43	0	2642411520	9	4126
2026-01-03 04:29:31.44	275.06	15.02	-24.7	-26.1	16.9	0.00e+00	0	43	0	2647654400	9	4233
2026-01-03 04:29:32.44	274.90	14.95	-24.8	-26.2	16.8	0.00e+00	0	43	0	2652897280	9	4271
2026-01-03 04:29:33.43	274.74	14.88	-24.8	-26.3	16.7	0.00e+00	0	43	0	2659188736	9	4301
2026-01-03 04:29:34.44	274.58	14.81	-24.9	-26.5	16.7	0.00e+00	0	43	0	2664431616	9	4356
2026-01-03 04:29:35.45	274.42	14.74	-24.8	-26.5	16.7	0.00e+00	0	43	0	2669674496	9	4332
2026-01-03 04:29:36.45	274.26	14.67	-24.9	-26.6	16.6	0.00e+00	0	43	0	2675965952	9	4363
2026-01-03 04:29:37.46	274.11	14.60	-24.9	-26.6	16.6	1.05e-03	0	43	0	2681208832	9	4377
2026-01-03 04:29:38.46	273.95	14.53	-24.8	-26.4	16.7	2.20e-06	0	43	0	2687500288	9	4309
2026-01-03 04:29:39.47	273.79	14.46	-24.8	-26.3	16.7	0.00e+00	0	43	0	2692743168	9	4289
2026-01-03 04:29:40.48	273.64	14.39	-24.8	-26.3	16.7	0.00e+00	0	43	0	2699034624	9	4290
2026-01-03 04:29:41.49	273.48	14.32	-24.9	-26.6	16.6	1.10e-06	0	43	0	2704277504	9	4356
2026-01-03 04:29:42.50	273.33	14.25	-24.8	-26.3	16.7	0.00e+00	0	43	0	2709520384	9	4296
2026-01-03 04:29:43.51	273.17	14.18	-24.7	-26.2	16.8	0.00e+00	0	43	0	2715811840	9	4271
2026-01-03 04:29:44.52	273.02	14.10	-24.7	-26.2	16.8	0.00e+00	0	43	0	2721054720	9	4249
2026-01-03 04:29:45.52	272.87	14.03	-24.7	-26.0	16.9	0.00e+00	0	43	0	2727346176	9	4220
2026-01-03 04:29:46.53	272.72	13.96	-24.7	-26.2	16.8	0.00e+00	0	43	0	2732589056	9	4264
2026-01-03 04:29:47.54	272.57	13.89	-24.7	-26.1	16.8	1.10e-06	0	43	0	2737831936	9	4239
2026-01-03 04:29:48.55	272.42	13.82	-24.7	-26.1	16.9	0.00e+00	0	43	0	2744123392	9	4229
2026-01-03 04:29:49.56	272.27	13.75	-24.8	-26.4	16.6	0.00e+00	0	43	0	2749366272	9	4320
2026-01-03 04:29:50.57	272.12	13.68	-24.9	-26.6	16.6	3.40e-06	0	43	0	2754609152	9	4358
2026-01-03 04:29:51.58	271.97	13.61	-24.8	-26.4	16.6	0.00e+00	0	43	0	2760900608	9	4319
2026-01-03 04:29:52.58	271.82	13.54	-24.9	-26.5	16.6	0.00e+00	0	43	0	2766143488	9	4342
2026-01-03 04:29:53.59	271.68	13.47	-24.9	-26.6	16.6	0.00e+00	0	43	0	2772434944	9	4368
2026-01-03 04:29:54.59	271.53	13.40	-25.0	-26.7	16.5	0.00e+00	0	43	0	2777677824	9	4408
2026-01-03 04:29:55.60	271.39	13.33	-25.2	-26.8	16.1	0.00e+00	0	43	0	2783969280	10	4325
2026-01-03 04:29:56.61	271.24	13.26	-25.2	-26.7	16.2	0.00e+00	0	43	0	2789212160	10	4295
2026-01-03 04:29:57.62	271.10	13.19	-25.0	-26.4	16.4	0.00e+00	0	43	0	2795503616	10	4203
2026-01-03 04:29:58.61	270.96	13.12	-25.0	-26.2	16.4	0.00e+00	0	43	0	2800746496	10	4164
2026-01-03 04:29:59.62	270.82	13.05	-25.0	-26.3	16.4	0.00e+00	0	43	0	2805989376	10	4188
2026-01-03 04:30:00.62	270.68	12.98	-25.0	-26.3	16.4	0.00e+00	0	43	0	2812280832	10	4182
2026-01-03 04:30:01.63	270.53	12.91	-25.0	-26.2	16.5	0.00e+00	0	43	0	2817523712	10	4152
2026-01-03 04:30:02.63	270.40	12.84	-25.0	-26.3	16.4	0.00e+00	0	43	0	2822766592	10	4173
2026-01-03 04:30:03.63	270.26	12.77	-25.2	-26.6	16.3	0.00e+00	0	43	0	2829058048	10	4268
2026-01-03 04:30:04.64	270.12	12.70	-25.1	-26.6	16.3	0.00e+00	0	43	0	2834300928	10	4245
2026-01-03 04:30:05.65	269.98	12.62	-25.0	-26.3	16.4	0.00e+00	0	43	0	2839543808	10	4186
2026-01-03 04:30:06.66	269.84	12.55	-25.0	-26.3	16.4	0.00e+00	0	43	0	2845835264	10	4184
2026-01-03 04:30:07.67	269.70	12.48	-25.1	-26.5	16.3	0.00e+00	0	43	0	2851078144	10	4225
2026-01-03 04:30:08.68	269.57	12.41	-25.2	-26.6	16.3	0.00e+00	0	43	0	2857369600	10	4261
2026-01-03 04:30:09.68	269.43	12.34	-25.2	-26.6	16.2	0.00e+00	0	43	0	2862612480	10	4268
2026-01-03 04:30:10.69	269.30	12.27	-25.2	-26.7	16.2	1.85e-03	0	43	0	2868903936	10	4292
2026-01-03 04:30:11.70	269.16	12.20	-25.2	-26.8	16.1	0.00e+00	0	43	0	2874146816	10	4311
2026-01-03 04:30:12.70	269.03	12.13	-25.2	-26.8	16.1	0.00e+00	0	43	0	2879389696	10	4312
2026-01-03 04:30:13.70	268.90	12.06	-25.2	-26.8	16.1	0.00e+00	0	43	0	2885681152	10	4300
2026-01-03 04:30:14.70	268.77	12.00	-25.3	-26.9	16.0	0.00e+00	0	43	0	2890924032	10	4347
2026-01-03 04:30:15.70	268.64	11.93	-25.3	-27.0	16.0	1.78e-03	0	43	0	2896166912	10	4372
2026-01-03 04:30:16.71	268.51	11.86	-25.4	-27.2	15.9	0.00e+00	0	43	0	2902458368	10	4431
2026-01-03 04:30:17.71	268.38	11.79	-25.4	-27.2	15.9	2.40e-05	0	43	0	2907701248	10	4432
2026-01-03 04:30:18.72	268.25	11.72	-25.5	-26.9	15.8	0.00e+00	0	43	0	2913992704	11	4237
2026-01-03 04:30:19.73	268.12	11.65	-25.8	-27.5	15.4	1.36e-03	0	43	0	2919235584	11	4395
2026-01-03 04:30:20.73	267.99	11.58	-25.7	-27.4	15.5	2.92e-04	0	43	0	2924478464	11	4368
2026-01-03 04:30:21.74	267.86	11.51	-25.7	-27.3	15.5	2.58e-03	0	43	0	2930769920	11	4331
2026-01-03 04:30:22.75	267.74	11.44	-25.8	-27.5	15.4	1.76e-03	0	43	0	2936012800	11	4406
2026-01-03 04:30:23.75	267.61	11.37	-25.7	-27.3	15.5	0.00e+00	0	43	0	2942304256	11	4342
2026-01-03 04:30:24.76	267.48	11.30	-25.5	-27.0	15.7	2.88e-03	0	43	0	2947547136	11	4258
2026-01-03 04:30:25.77	267.36	11.23	-25.6	-27.2	15.5	4.85e-04	0	43	0	2953838592	11	4302
2026-01-03 04:30:26.78	267.23	11.16	-25.6	-27.0	15.6	8.85e-04	0	43	0	2959081472	11	4261
2026-01-03 04:30:27.79	267.11	11.09	-25.7	-27.3	15.5	2.39e-03	0	43	0	2964324352	11	4325
2026-01-03 04:30:28.79	266.99	11.02	-25.7	-27.3	15.5	3.77e-03	0	43	0	2970615808	11	4333
2026-01-03 04:30:29.79	266.86	10.96	-25.9	-27.7	15.2	9.41e-04	0	43	0	2975858688	11	4458
2026-01-03 04:30:30.81	266.74	10.89	-25.8	-27.5	15.3	4.32e-03	0	43	0	2981101568	11	4410
2026-01-03 04:30:31.81	266.62	10.82	-25.7	-27.3	15.4	4.35e-03	0	43	0	2987393024	11	4353
2026-01-03 04:30:32.82	266.50	10.75	-25.7	-27.3	15.4	0.00e+00	0	43	0	2992635904	11	4340
2026-01-03 04:30:33.83	266.38	10.68	-25.7	-27.4	15.3	4.72e-03	0	43	0	2998927360	11	4381
2026-01-03 04:30:34.83	266.26	10.61	-25.7	-27.3	15.4	3.04e-03	0	43	0	3004170240	11	4356
2026-01-03 04:30:35.84	266.14	10.54	-25.7	-27.3	15.4	9.69e-04	0	43	0	3009413120	11	4343
2026-01-03 04:30:36.85	266.02	10.47	-25.8	-27.7	15.2	3.79e-03	0	43	0	3015704576	11	4443
2026-01-03 04:30:37.85	265.90	10.41	-25.8	-27.6	15.2	1.07e-03	0	43	0	3020947456	11	4415
2026-01-03 04:30:38.86	265.78	10.34	-25.8	-27.6	15.3	4.94e-04	0	43	0	3027238912	11	4419
2026-01-03 04:30:39.86	265.67	10.27	-25.9	-27.7	15.2	9.03e-04	0	43	0	3032481792	11	4456
2026-01-03 04:30:40.87	265.55	10.20	-25.9	-27.7	15.2	2.54e-03	0	43	0	3038773248	11	4461
2026-01-03 04:30:41.88	265.43	10.13	-25.9	-27.8	15.1	0.00e+00	0	43	0	3044016128	11	4494
2026-01-03 04:30:42.88	265.32	10.06	-26.0	-27.5	15.0	3.94e-04	0	43	0	3049259008	12	4282
2026-01-03 04:30:43.89	265.20	10.00	-26.2	-27.9	14.7	3.40e-06	0	43	0	3055550464	12	4412
2026-01-03 04:30:44.89	265.09	9.93	-26.0	-27.5	15.0	0.00e+00	0	43	0	3060793344	12	4291
2026-01-03 04:30:45.90	264.98	9.86	-25.8	-27.6	15.2	2.94e-03	0	43	0	3066036224	11	4436
2026-01-03 04:30:46.90	264.86	9.79	-25.9	-27.9	15.1	1.18e-03	0	43	0	3072327680	11	4504
2026-01-03 04:30:47.91	264.75	9.73	-26.0	-27.5	14.9	7.13e-04	0	43	0	3077570560	12	4292
2026-01-03 04:30:48.91	264.64	9.66	-26.1	-27.7	14.7	0.00e+00	0	43	0	3083862016	12	4352
2026-01-03 04:30:49.92	264.53	9.59	-26.0	-27.6	14.8	1.43e-03	0	43	0	3089104896	12	4317
2026-01-03 04:30:50.93	264.41	9.52	-26.0	-27.6	14.8	0.00e+00	0	43	0	3095396352	12	4306
2026-01-03 04:30:51.94	264.30	9.46	-26.1	-27.9	14.6	1.37e-03	0	43	0	3100639232	12	4395
2026-01-03 04:30:52.94	264.19	9.39	-26.1	-27.8	14.7	0.00e+00	0	43	0	3105882112	12	4370
2026-01-03 04:30:53.94	264.09	9.32	-26.2	-28.0	14.6	0.00e+00	0	43	0	3112173568	12	4431
2026-01-03 04:30:54.95	263.98	9.25	-26.1	-27.8	14.7	1.53e-03	0	43	0	3117416448	12	4377
2026-01-03 04:30:55.96	263.87	9.19	-26.1	-27.8	14.6	4.50e-06	0	43	0	3122659328	12	4391
2026-01-03 04:30:56.96	263.76	9.12	-26.2	-28.1	14.5	0.00e+00	0	43	0	3128950784	12	4474
2026-01-03 04:30:57.97	263.65	9.05	-26.2	-28.0	14.6	0.00e+00	0	43	0	3134193664	12	4423
2026-01-03 04:30:58.98	263.54	8.99	-26.3	-28.3	14.4	1.29e-03	0	43	0	3140485120	12	4510
2026-01-03 04:30:59.99	263.44	8.92	-26.1	-27.9	14.6	0.00e+00	0	43	0	3145728000	12	4399
2026-01-03 04:31:00.97	263.33	8.85	-26.3	-28.2	14.4	3.40e-06	0	43	0	3150970880	12	4498
2026-01-03 04:31:01.98	263.23	8.79	-26.2	-28.0	14.5	0.00e+00	0	43	0	3157262336	12	4450
2026-01-03 04:31:02.98	263.12	8.72	-26.3	-28.2	14.4	0.00e+00	0	43	0	3162505216	12	4508
2026-01-03 04:31:03.99	263.02	8.66	-26.4	-28.6	14.1	1.10e-06	0	43	0	3168796672	12	4619
2026-01-03 04:31:04.99	262.92	8.59	-26.3	-28.3	14.3	0.00e+00	0	43	0	3174039552	12	4514
2026-01-03 04:31:06.00	262.81	8.52	-26.1	-27.9	14.5	0.00e+00	0	43	0	3179282432	12	4425
2026-01-03 04:31:07.00	262.71	8.46	-26.2	-28.0	14.5	0.00e+00	0	43	0	3185573888	12	4440
2026-01-03 04:31:08.01	262.61	8.39	-26.1	-27.9	14.6	0.00e+00	0	43	0	3190816768	12	4402
2026-01-03 04:31:09.01	262.50	8.33	-26.2	-28.0	14.5	0.00e+00	0	43	0	3196059648	12	4440
2026-01-03 04:31:10.01	262.40	8.26	-26.2	-28.0	14.5	2.20e-06	0	43	0	3202351104	12	4454
2026-01-03 04:31:11.02	262.30	8.19	-26.2	-28.1	14.4	0.00e+00	0	43	0	3207593984	12	4475
2026-01-03 04:31:12.03	262.20	8.13	-26.3	-28.4	14.2	0.00e+00	0	43	0	3213885440	12	4552
2026-01-03 04:31:13.04	262.10	8.06	-26.3	-28.2	14.3	0.00e+00	0	43	0	3219128320	12	4505
2026-01-03 04:31:14.05	262.00	8.00	-26.4	-28.5	14.2	0.00e+00	0	43	0	3224371200	12	4583
2026-01-03 04:31:15.05	261.90	7.93	-26.4	-28.5	14.2	0.00e+00	0	43	0	3230662656	12	4583
2026-01-03 04:31:16.06	261.80	7.87	-26.5	-28.7	14.0	2.20e-06	0	43	0	3235905536	12	4653
2026-01-03 04:31:17.07	261.70	7.80	-26.5	-28.6	14.0	0.00e+00	0	43	0	3242196992	12	4628
2026-01-03 04:31:18.08	261.60	7.74	-26.5	-28.4	13.9	1.10e-06	0	43	0	3247439872	13	4439
2026-01-03 04:31:19.09	261.51	7.67	-26.7	-28.7	13.7	3.40e-06	0	43	0	3253731328	13	4543
2026-01-03 04:31:20.09	261.41	7.61	-26.7	-28.7	13.7	8.00e-06	0	43	0	3258974208	13	4531
2026-01-03 04:31:21.10	261.31	7.54	-26.7	-28.8	13.6	4.50e-06	0	43	0	3264217088	13	4584
2026-01-03 04:31:22.11	261.22	7.48	-27.1	-29.1	13.2	9.10e-06	0	43	0	3270508544	14	4542
2026-01-03 04:31:23.11	261.12	7.41	-26.8	-28.6	13.5	3.40e-06	0	43	0	3275751424	14	4388
2026-01-03 04:31:24.11	261.03	7.35	-26.6	-28.6	13.7	0.00e+00	0	43	0	3280994304	13	4502
2026-01-03 04:31:25.12	260.93	7.28	-25.2	-27.1	11.8	3.40e-06	0	43	0	3287285760	12	4454
2026-01-03 04:31:26.13	260.84	7.22	-26.5	-28.7	12.3	0.00e+00	0	43	0	3292528640	12	4668
2026-01-03 04:31:27.13	260.74	7.15	-26.5	-28.7	11.3	0.00e+00	0	43	0	3298820096	12	4660
2026-01-03 04:31:28.13	260.65	7.09	-27.2	-29.5	12.5	2.20e-06	0	43	0	3304062976	14	4680
2026-01-03 04:31:29.14	260.56	7.02	-32.5	-43.6	3.8	8.46e-01	0	43	104	3305111552	25	12854
2026-01-03 04:31:30.14	260.46	6.96	-32.8	-44.2	3.8	8.46e-01	0	43	104	3305111552	25	13346

#Closed at: 2026-01-03 04:31:30
#Recorded file [3305 MB]: D:/data/31010_260103_072140.dat