passes_logs/2026/01/03/R2M6_AANII_01/R2M6_AANII_01__20260103_011647_AQUA_rec.log

#Pass ID: 20260103_011647_AQUA
#Satellite: AQUA
#Configuration: AQUA
#almurnet v.1.7.20240730
#Start time: 2026-01-03 01:22:09

#Version: 2.2.20231116
#Station: R2M6_AANII_01
#Location: 30.233357 lon 59.946436 lat
#TLE: 1 27424U 02022A   25365.92641127  .00002078  00000+0  42628-3 0  9999
#TLE: 2 27424  98.4058 327.1196 0001962  94.7781 340.6230 14.61783896258835

#Time	Az	El	Level	Level2	SNR	BER	BlckErr	Temp	State	Recorded	gain1	gain2
2026-01-03 01:22:09.80	108.69	45.80	-32.8	-44.9	3.8	1.49e+00	0	43	0	0	25	14519
2026-01-03 01:22:10.80	109.35	45.74	-33.8	-53.2	3.8	7.46e-01	0	43	104	0	28	33405
2026-01-03 01:22:11.79	110.00	45.68	-33.8	-53.2	3.8	7.46e-01	0	43	104	0	28	33577
2026-01-03 01:22:12.80	110.67	45.61	-33.9	-53.4	3.8	7.46e-01	0	43	104	0	28	33798
2026-01-03 01:22:13.81	111.33	45.54	-33.9	-53.4	3.8	7.43e-01	0	43	104	0	28	33882
2026-01-03 01:22:14.82	111.98	45.47	-33.9	-53.4	3.8	7.46e-01	0	43	104	0	28	34000
2026-01-03 01:22:15.81	112.63	45.39	-33.9	-53.4	3.8	7.45e-01	0	43	104	0	28	34011
2026-01-03 01:22:16.82	113.28	45.31	-33.9	-53.4	3.8	7.44e-01	0	43	104	0	28	33982
2026-01-03 01:22:17.82	113.92	45.22	-33.9	-53.4	3.8	7.45e-01	0	43	104	0	28	34018
2026-01-03 01:22:18.81	114.55	45.14	-33.9	-53.4	3.8	7.47e-01	0	43	104	0	28	33963
2026-01-03 01:22:19.81	115.19	45.04	-33.9	-53.4	3.8	7.47e-01	0	43	104	0	28	34029
2026-01-03 01:22:20.81	115.82	44.95	-33.9	-53.4	3.8	7.46e-01	0	43	104	0	28	33915
2026-01-03 01:22:21.80	116.44	44.85	-33.9	-53.4	3.8	7.45e-01	0	43	104	0	28	33889
2026-01-03 01:22:22.80	117.06	44.75	-33.9	-53.4	3.8	7.43e-01	0	43	104	0	28	33895
2026-01-03 01:22:23.80	117.68	44.64	-33.9	-53.3	3.8	7.47e-01	0	43	104	0	28	33784
2026-01-03 01:22:24.80	118.29	44.53	-33.9	-53.3	3.8	7.45e-01	0	43	104	0	28	33829
2026-01-03 01:22:25.80	118.90	44.42	-33.9	-53.4	3.8	7.45e-01	0	43	104	0	28	33949
2026-01-03 01:22:26.80	119.51	44.30	-33.9	-53.4	3.8	7.44e-01	0	43	104	0	28	33998
2026-01-03 01:22:27.80	120.11	44.18	-33.9	-53.4	3.8	7.43e-01	0	43	104	0	28	33953
2026-01-03 01:22:28.81	120.71	44.06	-33.9	-53.4	3.8	7.42e-01	0	43	104	0	28	33896
2026-01-03 01:22:29.81	121.31	43.94	-33.8	-53.3	3.8	7.45e-01	0	43	104	0	28	33760
2026-01-03 01:22:30.81	121.89	43.81	-33.7	-53.1	3.8	7.44e-01	0	43	104	0	28	33653
2026-01-03 01:22:31.81	122.48	43.68	-33.7	-53.1	3.8	7.46e-01	0	43	104	0	28	33432
2026-01-03 01:22:32.81	123.05	43.54	-33.7	-53.0	3.8	7.48e-01	0	43	104	0	28	33166
2026-01-03 01:22:33.81	123.63	43.41	-33.7	-52.9	3.8	7.44e-01	0	43	104	0	28	33055
2026-01-03 01:22:34.80	124.19	43.27	-33.7	-53.0	3.8	7.49e-01	0	43	104	0	28	33137
2026-01-03 01:22:35.81	124.76	43.13	-33.6	-52.7	3.8	7.48e-01	0	43	104	0	28	32567
2026-01-03 01:22:36.80	125.31	42.99	-33.6	-52.8	3.8	7.44e-01	0	43	104	0	28	32679
2026-01-03 01:22:37.79	125.86	42.84	-33.6	-52.7	3.8	7.47e-01	0	43	104	0	28	32544
2026-01-03 01:22:38.79	126.41	42.70	-33.6	-52.7	3.8	7.44e-01	0	43	104	0	28	32620
2026-01-03 01:22:39.79	126.95	42.55	-33.6	-52.7	3.8	7.47e-01	0	43	104	0	28	32786
2026-01-03 01:22:40.79	127.49	42.39	-33.6	-52.6	3.8	7.47e-01	0	43	104	0	28	32355
2026-01-03 01:22:41.78	128.02	42.24	-33.6	-52.6	3.8	7.44e-01	0	43	104	0	28	32263
2026-01-03 01:22:42.77	128.54	42.09	-33.6	-52.5	3.8	7.42e-01	0	43	104	0	28	31825
2026-01-03 01:22:43.77	129.06	41.93	-33.5	-52.4	3.8	7.47e-01	0	43	104	0	28	31371
2026-01-03 01:22:44.77	129.58	41.77	-33.5	-52.2	3.8	7.44e-01	0	43	104	0	28	30889
2026-01-03 01:22:45.76	130.09	41.61	-33.5	-52.5	3.8	7.48e-01	0	43	104	0	28	31866
2026-01-03 01:22:46.76	130.60	41.45	-33.5	-52.2	3.8	7.42e-01	0	43	104	0	28	30922
2026-01-03 01:22:47.75	131.09	41.28	-33.5	-51.8	3.8	7.47e-01	0	43	104	0	28	29520
2026-01-03 01:22:48.76	131.60	41.12	-33.5	-52.2	3.8	7.46e-01	0	43	104	0	28	30900
2026-01-03 01:22:49.76	132.09	40.95	-33.5	-52.5	3.8	7.45e-01	0	43	104	0	28	32100
2026-01-03 01:22:50.77	132.58	40.78	-33.5	-52.2	3.8	7.43e-01	0	43	104	0	28	30842
2026-01-03 01:22:51.77	133.06	40.61	-33.5	-52.1	3.8	7.46e-01	0	43	104	0	28	30582
2026-01-03 01:22:52.77	133.54	40.43	-33.5	-52.1	3.8	7.47e-01	0	43	104	0	28	30641
2026-01-03 01:22:53.77	134.01	40.26	-33.5	-52.5	3.8	7.42e-01	0	43	104	0	28	31793
2026-01-03 01:22:54.77	134.48	40.09	-33.5	-51.9	3.8	7.46e-01	0	43	104	0	28	29851
2026-01-03 01:22:55.78	134.94	39.91	-33.4	-48.1	4.0	7.36e-01	0	43	104	0	28	19658
2026-01-03 01:22:56.78	135.40	39.73	-33.3	-45.2	6.5	6.72e-01	0	43	104	0	27	14209
2026-01-03 01:22:57.78	135.85	39.55	-33.3	-44.9	6.9	6.63e-01	0	43	0	524288	27	13714
2026-01-03 01:22:58.77	136.29	39.38	-33.5	-49.8	3.9	7.45e-01	0	43	104	1572864	27	23570
2026-01-03 01:22:59.77	136.74	39.20	-33.2	-43.5	7.5	6.46e-01	0	43	104	1572864	27	11863
2026-01-03 01:23:00.78	137.18	39.02	-31.3	-35.5	15.8	6.04e-01	0	43	0	1572864	24	5842
2026-01-03 01:23:01.77	137.61	38.84	-29.7	-32.2	19.0	6.04e-01	0	43	0	2097152	21	4829
2026-01-03 01:23:02.77	138.03	38.65	-29.5	-32.2	19.4	6.02e-01	0	43	0	4194304	20	4952
2026-01-03 01:23:03.77	138.46	38.47	-30.9	-35.1	17.0	6.03e-01	0	43	0	5767168	22	5897
2026-01-03 01:23:04.77	138.87	38.29	-31.6	-36.6	15.2	6.04e-01	0	43	0	7864320	24	6392
2026-01-03 01:23:05.77	139.29	38.10	-31.2	-35.2	16.1	6.01e-01	0	43	0	9437184	24	5707
2026-01-03 01:23:06.76	139.69	37.92	-31.6	-37.1	15.2	6.02e-01	0	43	0	11534336	23	6803
2026-01-03 01:23:07.76	140.09	37.74	-31.0	-34.6	16.6	6.02e-01	0	43	0	13107200	24	5464
2026-01-03 01:23:08.77	140.50	37.55	-30.9	-34.8	16.7	6.01e-01	0	43	0	15204352	23	5652
2026-01-03 01:23:09.78	140.89	37.36	-30.8	-34.4	17.0	6.02e-01	0	43	0	17301504	23	5461
2026-01-03 01:23:10.79	141.29	37.18	-31.2	-35.6	16.2	6.01e-01	0	43	0	18874368	23	5999
2026-01-03 01:23:11.78	141.67	36.99	-31.0	-35.2	16.5	6.04e-01	0	43	0	20971520	23	5818
2026-01-03 01:23:12.78	142.05	36.80	-31.0	-35.2	16.4	6.00e-01	0	43	0	22544384	23	5830
2026-01-03 01:23:13.79	142.43	36.62	-30.7	-34.1	17.2	6.03e-01	0	43	0	24641536	23	5314
2026-01-03 01:23:14.79	142.80	36.43	-30.7	-34.6	17.2	6.02e-01	0	43	0	26214400	22	5625
2026-01-03 01:23:15.78	143.17	36.24	-30.8	-35.0	16.9	6.02e-01	0	43	0	28311552	22	5851
2026-01-03 01:23:16.78	143.53	36.06	-31.0	-35.6	16.5	6.01e-01	0	43	0	30408704	22	6126
2026-01-03 01:23:17.79	143.90	35.87	-30.8	-34.3	17.1	6.02e-01	0	43	0	31981568	23	5423
2026-01-03 01:23:18.79	144.25	35.68	-30.2	-33.2	18.1	6.01e-01	0	43	0	34078720	22	5075
2026-01-03 01:23:19.79	144.60	35.49	-29.7	-32.4	18.9	6.03e-01	0	43	0	35651584	21	4910
2026-01-03 01:23:20.80	144.95	35.30	-29.5	-32.2	19.3	6.04e-01	0	43	0	37748736	20	4949
2026-01-03 01:23:21.79	145.29	35.12	-29.3	-32.2	19.7	6.03e-01	0	43	0	39321600	19	5049
2026-01-03 01:23:22.80	145.64	34.93	-29.0	-31.5	20.1	6.02e-01	0	43	0	41418752	19	4815
2026-01-03 01:23:23.80	145.97	34.74	-28.7	-31.3	20.5	6.02e-01	0	43	0	43515904	18	4843
2026-01-03 01:23:24.81	146.31	34.55	-28.7	-31.2	20.6	6.02e-01	0	43	0	45088768	18	4798
2026-01-03 01:23:25.81	146.63	34.37	-28.6	-31.1	20.6	6.02e-01	0	43	0	47185920	18	4799
2026-01-03 01:23:26.81	146.96	34.18	-28.8	-31.6	20.4	6.04e-01	0	43	0	49283072	18	4956
2026-01-03 01:23:27.80	147.27	33.99	-28.7	-31.4	20.5	6.02e-01	0	43	0	50855936	18	4867
2026-01-03 01:23:28.80	147.59	33.81	-28.5	-30.9	20.8	6.03e-01	0	43	0	52953088	18	4706
2026-01-03 01:23:29.80	147.90	33.62	-28.4	-31.1	20.9	6.03e-01	0	43	0	54525952	17	4895
2026-01-03 01:23:30.81	148.22	33.43	-28.4	-31.1	20.9	6.02e-01	0	43	0	56623104	17	4891
2026-01-03 01:23:31.80	148.52	33.25	-28.3	-30.9	21.0	6.03e-01	0	43	0	58195968	17	4816
2026-01-03 01:23:32.80	148.82	33.07	-28.2	-30.6	21.2	6.03e-01	0	43	0	60293120	17	4739
2026-01-03 01:23:33.80	149.12	32.88	-28.3	-30.8	21.1	6.03e-01	0	43	0	62390272	17	4799
2026-01-03 01:23:34.80	149.42	32.70	-28.3	-30.9	21.1	6.03e-01	0	43	0	63963136	17	4820
2026-01-03 01:23:35.80	149.71	32.51	-28.3	-30.9	21.0	6.01e-01	0	43	0	66060288	17	4837
2026-01-03 01:23:36.80	150.00	32.33	-28.5	-31.2	20.8	6.02e-01	0	43	0	67633152	17	4947
2026-01-03 01:23:37.80	150.28	32.15	-28.4	-31.1	20.9	6.02e-01	0	43	0	69730304	17	4891
2026-01-03 01:23:38.80	150.56	31.97	-28.5	-31.4	20.8	6.01e-01	0	43	0	71303168	17	4986
2026-01-03 01:23:39.80	150.84	31.78	-28.4	-31.2	20.8	6.02e-01	0	43	0	73400320	17	4919
2026-01-03 01:23:40.80	151.12	31.60	-28.5	-31.3	20.7	6.01e-01	0	43	0	74973184	17	4963
2026-01-03 01:23:41.80	151.39	31.42	-28.6	-31.1	20.6	6.03e-01	0	43	0	77070336	18	4782
2026-01-03 01:23:42.80	151.66	31.24	-28.6	-31.0	20.6	6.03e-01	0	43	0	79167488	18	4757
2026-01-03 01:23:43.81	151.93	31.06	-27.9	-30.3	20.6	6.03e-01	0	43	0	80740352	18	4756
2026-01-03 01:23:44.81	152.20	30.88	-28.0	-30.8	19.9	6.04e-01	0	43	0	82837504	17	4969
2026-01-03 01:23:45.80	152.45	30.70	-28.7	-31.3	20.4	6.03e-01	0	43	0	84410368	18	4864
2026-01-03 01:23:46.79	152.71	30.53	-28.9	-31.7	20.2	6.03e-01	0	43	0	86507520	18	5005
2026-01-03 01:23:47.80	152.97	30.35	-28.7	-31.4	20.4	6.03e-01	0	43	0	88080384	18	4884
2026-01-03 01:23:48.80	153.22	30.17	-28.5	-30.9	20.7	6.02e-01	0	43	0	90177536	18	4717
2026-01-03 01:23:49.81	153.47	29.99	-28.6	-31.5	18.4	6.00e-01	0	43	0	92274688	17	5036
2026-01-03 01:23:50.81	153.72	29.81	-28.6	-31.5	18.2	6.03e-01	0	43	0	93847552	17	5029
2026-01-03 01:23:51.81	153.96	29.64	-28.6	-31.5	20.6	6.04e-01	0	43	0	95944704	17	5045
2026-01-03 01:23:52.82	154.21	29.46	-28.5	-31.3	19.3	6.02e-01	0	43	0	98041856	17	4952
2026-01-03 01:23:53.81	154.44	29.29	-28.4	-31.1	19.5	6.05e-01	0	43	0	99614720	17	4900
2026-01-03 01:23:54.82	154.68	29.11	-28.6	-31.2	20.5	6.03e-01	0	43	0	101711872	18	4815
2026-01-03 01:23:55.82	154.91	28.94	-28.7	-31.4	19.8	6.02e-01	0	43	0	103284736	18	4883
2026-01-03 01:23:56.82	155.14	28.77	-28.9	-31.7	20.1	6.02e-01	0	43	0	105381888	18	5007
2026-01-03 01:23:57.82	155.37	28.60	-28.9	-31.7	20.2	6.01e-01	0	43	0	106954752	18	5010
2026-01-03 01:23:58.83	155.60	28.43	-29.1	-31.9	19.7	6.04e-01	0	43	0	109051904	19	4949
2026-01-03 01:23:59.84	155.83	28.25	-29.0	-32.0	19.9	6.03e-01	0	43	0	111149056	18	5104
2026-01-03 01:24:00.83	156.05	28.09	-28.9	-31.9	20.1	6.03e-01	0	43	0	112721920	18	5053
2026-01-03 01:24:01.83	156.27	27.92	-29.6	-32.7	19.8	6.02e-01	0	43	0	114819072	19	5127
2026-01-03 01:24:02.83	156.48	27.75	-28.9	-31.9	20.0	6.02e-01	0	43	0	116391936	18	5059
2026-01-03 01:24:03.84	156.70	27.58	-28.7	-31.4	20.3	6.00e-01	0	43	0	118489088	18	4883
2026-01-03 01:24:04.83	156.91	27.41	-28.7	-31.2	20.4	6.01e-01	0	43	0	120061952	18	4835
2026-01-03 01:24:05.84	157.12	27.25	-28.6	-31.1	20.4	6.03e-01	0	43	0	122159104	18	4811
2026-01-03 01:24:06.84	157.33	27.08	-28.7	-31.3	20.3	6.03e-01	0	43	0	124256256	18	4853
2026-01-03 01:24:07.83	157.53	26.92	-28.7	-31.2	20.4	6.03e-01	0	43	0	125829120	18	4831
2026-01-03 01:24:08.82	157.73	26.76	-28.8	-31.6	20.0	6.03e-01	0	43	0	127926272	18	4950
2026-01-03 01:24:09.82	157.93	26.59	-28.8	-31.6	20.1	6.02e-01	0	43	0	129499136	18	4981
2026-01-03 01:24:10.82	158.13	26.43	-28.9	-31.9	20.0	6.02e-01	0	43	0	131596288	18	5062
2026-01-03 01:24:11.81	158.33	26.27	-28.9	-31.9	19.9	6.02e-01	0	43	0	133169152	18	5067
2026-01-03 01:24:12.81	158.52	26.11	-29.0	-32.2	19.8	6.03e-01	0	43	0	135266304	18	5180
2026-01-03 01:24:13.81	158.72	25.95	-28.9	-31.9	20.0	6.04e-01	0	43	0	137363456	18	5087
2026-01-03 01:24:14.81	158.91	25.79	-28.9	-31.8	20.0	6.03e-01	0	43	0	138936320	18	5024
2026-01-03 01:24:15.82	159.10	25.63	-28.9	-32.0	19.6	6.02e-01	0	43	0	141033472	18	5102
2026-01-03 01:24:16.81	159.28	25.47	-28.9	-31.8	20.0	6.02e-01	0	43	0	142606336	18	5052
2026-01-03 01:24:17.81	159.47	25.31	-28.9	-32.0	19.4	6.03e-01	0	43	0	144703488	18	5103
2026-01-03 01:24:18.80	159.65	25.16	-28.9	-31.9	19.4	6.03e-01	0	43	0	146800640	18	5099
2026-01-03 01:24:19.81	159.83	25.00	-29.0	-32.0	19.9	6.01e-01	0	43	0	148373504	18	5129
2026-01-03 01:24:20.80	160.01	24.85	-28.9	-31.9	19.5	6.02e-01	0	43	0	150470656	18	5096
2026-01-03 01:24:21.81	160.19	24.69	-29.0	-32.1	19.4	6.01e-01	0	43	0	152043520	18	5168
2026-01-03 01:24:22.80	160.37	24.54	-29.0	-32.1	19.8	6.02e-01	0	43	0	154140672	18	5155
2026-01-03 01:24:23.80	160.54	24.38	-29.0	-32.2	19.7	6.01e-01	0	43	0	155713536	18	5208
2026-01-03 01:24:24.81	160.71	24.23	-29.0	-32.2	19.8	6.02e-01	0	43	0	157810688	18	5180
2026-01-03 01:24:25.80	160.88	24.08	-29.1	-32.3	19.7	6.04e-01	0	43	0	159383552	18	5238
2026-01-03 01:24:26.81	161.05	23.93	-29.3	-32.3	19.4	6.03e-01	0	43	0	161480704	19	5124
2026-01-03 01:24:27.80	161.22	23.78	-29.5	-32.9	19.0	6.03e-01	0	43	0	163577856	19	5355
2026-01-03 01:24:28.81	161.39	23.63	-29.4	-32.6	19.2	6.03e-01	0	43	0	165150720	19	5233
2026-01-03 01:24:29.81	161.55	23.48	-29.3	-32.5	19.3	6.03e-01	0	43	0	167247872	19	5180
2026-01-03 01:24:30.80	161.71	23.33	-29.3	-32.5	18.9	6.04e-01	0	43	0	168820736	19	5173
2026-01-03 01:24:31.80	161.88	23.18	-29.3	-32.4	19.3	6.05e-01	0	43	0	170917888	19	5159
2026-01-03 01:24:32.79	162.03	23.04	-29.4	-32.8	18.7	6.03e-01	0	43	0	172490752	19	5297
2026-01-03 01:24:33.79	162.19	22.89	-29.3	-32.5	18.9	6.03e-01	0	43	0	174587904	19	5179
2026-01-03 01:24:34.79	162.35	22.75	-29.2	-32.2	19.4	6.01e-01	0	43	0	176685056	19	5096
2026-01-03 01:24:35.79	162.50	22.60	-29.3	-32.4	18.8	6.03e-01	0	43	0	178257920	19	5147
2026-01-03 01:24:36.80	162.66	22.46	-29.3	-32.5	19.0	6.01e-01	0	43	0	180355072	19	5179
2026-01-03 01:24:37.81	162.81	22.31	-29.2	-32.2	19.4	6.00e-01	0	43	0	181927936	19	5091
2026-01-03 01:24:38.80	162.96	22.17	-29.1	-32.0	19.5	6.04e-01	0	43	0	184025088	19	5000
2026-01-03 01:24:39.81	163.11	22.03	-29.1	-32.3	19.6	6.02e-01	0	43	0	186122240	18	5251
2026-01-03 01:24:40.82	163.26	21.88	-29.0	-32.2	19.7	6.02e-01	0	43	0	187695104	18	5215
2026-01-03 01:24:41.82	163.41	21.74	-29.1	-32.4	19.5	6.04e-01	0	43	0	189792256	18	5273
2026-01-03 01:24:42.83	163.56	21.60	-29.0	-32.2	19.6	6.01e-01	0	43	0	191365120	18	5214
2026-01-03 01:24:43.84	163.70	21.46	-28.9	-32.0	19.8	6.03e-01	0	43	0	193462272	18	5126
2026-01-03 01:24:44.84	163.85	21.32	-29.0	-32.1	19.7	6.02e-01	0	43	0	195559424	18	5189
2026-01-03 01:24:45.85	163.99	21.18	-28.9	-32.0	19.8	6.01e-01	0	43	0	197132288	18	5141
2026-01-03 01:24:46.85	164.13	21.04	-29.0	-32.1	19.8	6.04e-01	0	43	0	199229440	18	5174
2026-01-03 01:24:47.85	164.27	20.91	-29.1	-32.4	19.6	6.03e-01	0	43	0	200802304	18	5278
2026-01-03 01:24:48.86	164.41	20.77	-29.0	-31.6	19.7	6.02e-01	0	43	0	202899456	19	4891
2026-01-03 01:24:49.87	164.55	20.63	-28.8	-31.7	19.9	6.02e-01	0	43	0	204996608	18	5033
2026-01-03 01:24:50.87	164.68	20.50	-28.8	-31.7	19.9	6.01e-01	0	43	0	206569472	18	5046
2026-01-03 01:24:51.88	164.82	20.36	-28.9	-32.1	19.7	6.02e-01	0	43	0	208666624	18	5183
2026-01-03 01:24:52.89	164.95	20.23	-29.0	-32.2	19.6	6.03e-01	0	43	0	210239488	18	5232
2026-01-03 01:24:53.90	165.08	20.09	-28.9	-32.1	19.7	6.01e-01	0	43	0	212336640	18	5185
2026-01-03 01:24:54.90	165.21	19.96	-29.0	-32.3	19.6	6.00e-01	0	43	0	213909504	18	5236
2026-01-03 01:24:55.91	165.34	19.83	-29.0	-32.3	19.6	6.04e-01	0	43	0	216006656	18	5233
2026-01-03 01:24:56.92	165.47	19.69	-29.0	-32.3	19.6	6.03e-01	0	43	0	218103808	18	5244
2026-01-03 01:24:57.93	165.60	19.56	-29.2	-32.1	19.4	6.03e-01	0	43	0	219676672	19	5062
2026-01-03 01:24:58.93	165.73	19.43	-29.4	-32.7	19.1	6.04e-01	0	43	0	221773824	19	5258
2026-01-03 01:24:59.93	165.85	19.30	-29.2	-32.1	19.4	6.02e-01	0	43	0	223346688	19	5053
2026-01-03 01:25:00.94	165.98	19.17	-29.0	-32.2	19.6	6.03e-01	0	43	0	225443840	18	5215
2026-01-03 01:25:01.94	166.10	19.05	-29.1	-32.1	19.4	6.05e-01	0	43	0	227540992	19	5036
2026-01-03 01:25:02.95	166.22	18.92	-29.4	-32.6	19.1	6.01e-01	0	43	0	229113856	19	5245
2026-01-03 01:25:03.96	166.35	18.79	-29.2	-32.1	19.4	6.03e-01	0	43	0	231211008	19	5053
2026-01-03 01:25:04.96	166.47	18.66	-29.3	-32.5	19.1	6.03e-01	0	43	0	233308160	19	5204
2026-01-03 01:25:05.96	166.58	18.54	-29.1	-31.9	19.4	6.04e-01	0	43	0	234881024	19	4971
2026-01-03 01:25:06.97	166.70	18.41	-29.0	-32.1	19.6	6.03e-01	0	43	0	236978176	18	5174
2026-01-03 01:25:07.98	166.82	18.29	-29.0	-32.3	19.5	6.01e-01	0	43	0	238551040	18	5251
2026-01-03 01:25:08.98	166.94	18.16	-29.2	-32.3	19.2	6.03e-01	0	43	0	240648192	19	5146
2026-01-03 01:25:09.99	167.05	18.04	-29.5	-33.0	18.8	6.04e-01	0	43	0	242221056	19	5415
2026-01-03 01:25:11.00	167.17	17.91	-29.2	-32.4	19.1	6.02e-01	0	43	0	244318208	19	5198
2026-01-03 01:25:12.00	167.28	17.79	-29.1	-32.1	19.3	6.04e-01	0	43	0	246415360	19	5074
2026-01-03 01:25:13.01	167.39	17.67	-29.1	-32.1	19.4	6.04e-01	0	43	0	247988224	19	5058
2026-01-03 01:25:14.01	167.50	17.55	-29.2	-32.2	19.3	6.02e-01	0	43	0	250085376	19	5104
2026-01-03 01:25:15.02	167.62	17.43	-29.3	-32.5	19.1	6.04e-01	0	43	0	252182528	19	5211
2026-01-03 01:25:16.02	167.72	17.31	-29.2	-32.2	19.2	6.02e-01	0	43	0	253755392	19	5126
2026-01-03 01:25:17.03	167.83	17.19	-29.2	-32.2	19.3	6.02e-01	0	43	0	255852544	19	5093
2026-01-03 01:25:18.03	167.94	17.07	-29.0	-32.2	19.5	6.02e-01	0	43	0	257425408	18	5223
2026-01-03 01:25:19.03	168.05	16.95	-29.1	-32.1	19.3	6.03e-01	0	43	0	259522560	19	5064
2026-01-03 01:25:20.03	168.15	16.83	-29.3	-32.7	19.0	6.04e-01	0	43	0	261095424	19	5279
2026-01-03 01:25:21.28	168.28	16.69	-29.1	-32.1	19.3	6.02e-01	0	43	0	263192576	19	5067
2026-01-03 01:25:22.01	168.36	16.60	-29.0	-32.2	19.5	6.03e-01	0	43	0	264765440	18	5212
2026-01-03 01:25:23.30	168.49	16.45	-29.1	-32.1	19.3	6.00e-01	0	43	0	266862592	19	5080
2026-01-03 01:25:24.02	168.57	16.37	-29.2	-32.2	19.2	6.04e-01	0	43	0	268435456	19	5097
2026-01-03 01:25:25.31	168.70	16.22	-29.0	-32.4	19.4	6.03e-01	0	43	0	270532608	18	5297
2026-01-03 01:25:26.03	168.77	16.14	-29.0	-32.4	19.3	6.04e-01	0	43	0	272105472	18	5292
2026-01-03 01:25:27.33	168.90	15.99	-29.1	-32.2	19.2	6.03e-01	0	43	0	274726912	19	5101
2026-01-03 01:25:28.04	168.97	15.91	-29.2	-32.3	19.1	6.03e-01	0	43	0	275775488	19	5156
2026-01-03 01:25:29.34	169.10	15.76	-29.2	-32.3	19.1	6.04e-01	0	43	0	278396928	19	5166
2026-01-03 01:25:30.06	169.17	15.68	-29.4	-32.9	18.7	6.02e-01	0	43	0	279445504	19	5391
2026-01-03 01:25:31.36	169.29	15.54	-29.1	-32.1	19.2	6.01e-01	0	43	0	282066944	19	5095
2026-01-03 01:25:32.08	169.36	15.46	-29.0	-31.8	19.4	6.01e-01	0	43	0	283639808	19	4982
2026-01-03 01:25:33.36	169.49	15.31	-28.8	-31.9	19.7	6.03e-01	0	43	0	285736960	18	5106
2026-01-03 01:25:34.08	169.55	15.23	-28.9	-32.2	19.4	6.03e-01	0	43	0	287309824	18	5239
2026-01-03 01:25:35.38	169.68	15.09	-28.8	-31.7	19.7	6.04e-01	0	43	0	289406976	18	5074
2026-01-03 01:25:36.09	169.74	15.01	-28.7	-31.7	19.7	6.04e-01	0	43	0	290979840	18	5058
2026-01-03 01:25:37.38	169.86	14.87	-28.8	-31.8	19.6	6.04e-01	0	43	0	293601280	18	5098
2026-01-03 01:25:38.10	169.93	14.80	-28.8	-31.8	19.7	6.05e-01	0	43	0	294649856	18	5087
2026-01-03 01:25:39.39	170.05	14.66	-28.8	-31.9	19.5	6.00e-01	0	43	0	297271296	18	5142
2026-01-03 01:25:40.11	170.11	14.58	-28.8	-31.7	19.6	6.00e-01	0	43	0	298319872	18	5076
2026-01-03 01:25:41.40	170.23	14.44	-28.7	-31.7	18.9	6.02e-01	0	43	0	300941312	18	5057
2026-01-03 01:25:42.13	170.29	14.36	-28.7	-31.6	19.7	6.02e-01	0	43	0	302514176	18	5038
2026-01-03 01:25:43.42	170.41	14.23	-28.7	-31.7	19.6	6.02e-01	0	43	0	304611328	18	5054
2026-01-03 01:25:44.14	170.47	14.15	-28.9	-32.0	19.5	6.04e-01	0	43	0	306184192	18	5176
2026-01-03 01:25:45.43	170.58	14.01	-28.8	-31.9	19.5	6.04e-01	0	43	0	308281344	18	5150
2026-01-03 01:25:46.15	170.64	13.94	-28.8	-32.0	19.5	6.03e-01	0	43	0	309854208	18	5156
2026-01-03 01:25:47.44	170.75	13.80	-28.9	-32.0	19.4	6.03e-01	0	43	0	311951360	18	5183
2026-01-03 01:25:48.15	170.81	13.73	-28.8	-32.0	19.5	6.04e-01	0	43	0	313524224	18	5168
2026-01-03 01:25:49.44	170.92	13.60	-28.9	-32.0	19.4	6.02e-01	0	43	0	316145664	18	5180
2026-01-03 01:25:50.16	170.98	13.52	-28.8	-31.9	19.6	6.03e-01	0	43	0	317194240	18	5130
2026-01-03 01:25:51.46	171.09	13.39	-29.0	-32.4	19.2	6.02e-01	0	43	0	319815680	18	5320
2026-01-03 01:25:52.17	171.15	13.32	-28.9	-32.1	19.4	5.99e-01	0	43	0	320864256	18	5193
2026-01-03 01:25:53.46	171.26	13.19	-28.8	-31.8	19.6	6.02e-01	0	43	0	323485696	18	5078
2026-01-03 01:25:54.19	171.32	13.11	-28.8	-31.8	19.6	6.03e-01	0	43	0	325058560	18	5095
2026-01-03 01:25:55.48	171.42	12.98	-28.8	-31.9	19.5	6.03e-01	0	43	0	327155712	18	5136
2026-01-03 01:25:56.19	171.48	12.91	-28.8	-31.9	19.5	6.02e-01	0	43	0	328728576	18	5150
2026-01-03 01:25:57.48	171.58	12.78	-28.9	-32.1	19.4	6.04e-01	0	44	0	330825728	18	5191
2026-01-03 01:25:58.20	171.64	12.71	-28.8	-31.9	19.5	6.03e-01	0	43	0	332398592	18	5140
2026-01-03 01:25:59.49	171.74	12.58	-29.0	-32.2	19.3	6.02e-01	0	43	0	335020032	18	5259
2026-01-03 01:26:00.21	171.80	12.51	-29.1	-32.2	19.0	6.03e-01	0	43	0	336068608	19	5131
2026-01-03 01:26:01.50	171.90	12.38	-28.9	-32.1	19.3	5.99e-01	0	43	0	338690048	18	5219
2026-01-03 01:26:02.22	171.95	12.31	-28.9	-32.0	19.4	6.02e-01	0	43	0	339738624	18	5186
2026-01-03 01:26:03.52	172.05	12.19	-28.9	-32.0	19.4	6.02e-01	0	43	0	342360064	18	5193
2026-01-03 01:26:04.24	172.11	12.12	-28.9	-32.1	19.4	6.02e-01	0	43	0	343932928	18	5193
2026-01-03 01:26:05.53	172.21	11.99	-28.9	-32.2	19.3	6.02e-01	0	43	0	346030080	18	5230
2026-01-03 01:26:06.25	172.26	11.92	-27.8	-31.1	19.3	6.03e-01	0	43	0	347602944	18	5292
2026-01-03 01:26:07.54	172.36	11.80	-28.9	-32.2	19.3	6.02e-01	0	43	0	349700096	18	5256
2026-01-03 01:26:08.26	172.41	11.73	-28.9	-32.1	19.2	6.04e-01	0	43	0	351272960	18	5226
2026-01-03 01:26:09.56	172.51	11.61	-29.0	-32.4	19.2	6.02e-01	0	43	0	353894400	18	5324
2026-01-03 01:26:10.27	172.56	11.54	-29.0	-32.5	19.0	6.02e-01	0	43	0	354942976	18	5359
2026-01-03 01:26:11.56	172.65	11.42	-29.0	-32.5	19.0	6.01e-01	0	43	0	357564416	18	5372
2026-01-03 01:26:12.28	172.71	11.35	-29.1	-32.6	19.0	6.01e-01	0	43	0	358612992	18	5402
2026-01-03 01:26:13.57	172.80	11.23	-29.2	-32.5	18.7	6.02e-01	0	43	0	361234432	19	5259
2026-01-03 01:26:14.29	172.85	11.16	-29.4	-32.9	18.5	5.99e-01	0	43	0	362283008	19	5409
2026-01-03 01:26:15.59	172.94	11.04	-29.2	-32.5	18.7	6.02e-01	0	43	0	364904448	19	5249
2026-01-03 01:26:16.31	172.99	10.97	-29.1	-32.2	18.9	6.02e-01	0	43	0	366477312	19	5149
2026-01-03 01:26:17.60	173.08	10.85	-29.1	-32.3	18.9	6.02e-01	0	43	0	368574464	19	5154
2026-01-03 01:26:18.32	173.13	10.79	-29.1	-32.3	18.9	6.03e-01	0	43	0	370147328	19	5167
2026-01-03 01:26:19.61	173.22	10.67	-29.3	-32.6	18.7	6.01e-01	0	43	0	372768768	19	5283
2026-01-03 01:26:20.33	173.27	10.60	-29.1	-32.3	18.9	6.02e-01	0	43	0	373817344	19	5159
2026-01-03 01:26:21.63	173.36	10.48	-28.5	-32.0	18.7	6.01e-01	0	43	0	376438784	18	5383
2026-01-03 01:26:22.35	173.41	10.42	-29.0	-32.5	19.0	6.02e-01	0	43	0	377487360	18	5360
2026-01-03 01:26:23.64	173.49	10.30	-29.1	-32.8	18.7	6.03e-01	0	43	0	380108800	18	5545
2026-01-03 01:26:24.36	173.54	10.24	-29.2	-32.4	18.7	6.03e-01	0	43	0	381681664	19	5216
2026-01-03 01:26:25.65	173.63	10.12	-29.3	-32.6	18.6	6.00e-01	0	43	0	383778816	19	5305
2026-01-03 01:26:26.37	173.68	10.06	-29.2	-32.6	18.6	6.03e-01	0	43	0	385351680	19	5281
2026-01-03 01:26:27.67	173.76	9.94	-29.4	-32.9	18.3	6.02e-01	0	43	0	387448832	19	5422
2026-01-03 01:26:28.39	173.81	9.88	-29.3	-32.8	18.5	6.02e-01	0	43	0	389021696	19	5367
2026-01-03 01:26:29.69	173.89	9.76	-29.4	-33.1	18.0	6.03e-01	0	43	0	391643136	19	5494
2026-01-03 01:26:30.41	173.94	9.70	-29.4	-32.9	18.3	6.03e-01	0	43	0	392691712	19	5429
2026-01-03 01:26:31.70	174.02	9.59	-29.5	-33.2	18.1	6.00e-01	0	43	0	395313152	19	5549
2026-01-03 01:26:32.42	174.07	9.52	-29.5	-33.0	17.9	6.03e-01	0	43	0	396361728	20	5349
2026-01-03 01:26:33.71	174.15	9.41	-29.5	-33.4	18.0	6.02e-01	0	43	0	398983168	19	5613
2026-01-03 01:26:34.43	174.19	9.35	-29.4	-33.0	18.2	6.02e-01	0	43	0	400556032	19	5465
2026-01-03 01:26:35.73	174.28	9.24	-29.5	-33.2	18.1	6.01e-01	0	43	0	402653184	19	5551
2026-01-03 01:26:36.45	174.32	9.18	-29.4	-33.2	18.1	6.04e-01	0	43	0	404226048	19	5534
2026-01-03 01:26:37.74	174.40	9.07	-29.5	-33.4	18.0	6.04e-01	0	43	0	406323200	19	5647
2026-01-03 01:26:38.46	174.44	9.00	-29.5	-33.3	18.0	6.03e-01	0	43	0	407896064	19	5608
2026-01-03 01:26:39.76	174.52	8.89	-29.5	-33.3	18.0	6.05e-01	0	43	0	410517504	19	5605
2026-01-03 01:26:40.47	174.57	8.83	-29.6	-33.6	17.8	6.05e-01	0	43	0	411566080	19	5720
2026-01-03 01:26:41.77	174.64	8.72	-29.4	-33.1	18.1	6.04e-01	0	43	0	414187520	19	5505
2026-01-03 01:26:42.49	174.69	8.66	-29.3	-32.8	18.3	6.04e-01	0	43	0	415236096	19	5403
2026-01-03 01:26:43.78	174.76	8.55	-29.2	-32.6	18.4	6.01e-01	0	43	0	417857536	19	5329
2026-01-03 01:26:44.50	174.81	8.49	-29.3	-32.7	18.3	6.04e-01	0	43	0	418906112	19	5360
2026-01-03 01:26:45.79	174.88	8.39	-29.3	-32.9	18.3	6.02e-01	0	43	0	421527552	19	5425
2026-01-03 01:26:46.50	174.92	8.33	-29.3	-32.8	18.3	6.02e-01	0	43	0	423100416	19	5417
2026-01-03 01:26:47.80	175.00	8.22	-29.3	-32.8	18.2	6.02e-01	0	43	0	425197568	19	5420
2026-01-03 01:26:48.52	175.04	8.16	-29.3	-32.9	18.3	6.05e-01	0	43	0	426770432	19	5424
2026-01-03 01:26:49.81	175.12	8.05	-29.3	-32.9	18.2	6.03e-01	0	43	0	429391872	19	5450
2026-01-03 01:26:50.53	175.16	7.99	-29.3	-33.0	18.1	6.03e-01	0	43	0	430440448	19	5469
2026-01-03 01:26:51.82	175.23	7.89	-29.4	-33.0	18.1	6.02e-01	0	43	0	433061888	19	5505
2026-01-03 01:26:52.54	175.27	7.83	-29.4	-33.0	18.1	6.04e-01	0	43	0	434110464	19	5508
2026-01-03 01:26:53.83	175.34	7.73	-29.4	-33.3	17.9	6.02e-01	0	43	0	436731904	19	5600
2026-01-03 01:26:54.55	175.38	7.67	-29.5	-33.4	17.8	6.03e-01	0	43	0	437780480	19	5668
2026-01-03 01:26:55.84	175.46	7.56	-29.4	-33.2	18.0	6.02e-01	0	43	0	440401920	19	5578
2026-01-03 01:26:56.56	175.50	7.51	-29.5	-33.4	17.8	6.03e-01	0	43	0	441974784	19	5667
2026-01-03 01:26:57.86	175.57	7.40	-29.5	-33.6	17.7	6.04e-01	0	43	0	444071936	19	5749
2026-01-03 01:26:58.58	175.61	7.34	-29.5	-33.5	17.7	6.03e-01	0	43	0	445644800	19	5718
2026-01-03 01:26:59.87	175.68	7.24	-29.6	-33.6	17.6	6.04e-01	0	43	0	448266240	19	5771
2026-01-03 01:27:00.60	175.72	7.18	-28.6	-32.4	17.3	6.03e-01	0	43	0	449314816	20	5541
2026-01-03 01:27:01.89	175.78	7.08	-32.6	-50.6	4.0	7.45e-01	0	43	104	451411968	25	28613
2026-01-03 01:27:02.61	175.82	7.03	-32.6	-52.0	3.8	7.46e-01	0	43	104	451411968	26	33608
2026-01-03 01:27:03.91	175.89	6.92	-33.1	-52.7	3.8	7.45e-01	0	43	104	451411968	26	34287
2026-01-03 01:27:04.62	175.93	6.87	-33.2	-52.5	3.8	7.49e-01	0	43	104	451411968	27	32990

#Closed at: 2026-01-03 01:27:05
#Recorded file [451 MB]: D:/data/31010_260103_042300.dat