passes_logs/2026/01/03/R2M6_AANII_01/R2M6_AANII_01__20260103_110323_NOAA_21_JPSS-2_rec.log

#Pass ID: 20260103_110323_NOAA 21 (JPSS-2)
#Satellite: NOAA 21 (JPSS-2)
#Configuration: NOAA 21
#almurnet v.1.7.20240730
#Start time: 2026-01-03 11:05:28

#Version: 2.2.20231116
#Station: R2M6_AANII_01
#Location: 30.233357 lon 59.946436 lat
#TLE: 1 54234U 22150A   26002.25486487  .00000200  00000+0  11573-3 0  9993
#TLE: 2 54234  98.7485 303.3096 0001220 350.9074   9.2080 14.19531212163006

#Time	Az	El	Level	Level2	SNR	BER	BlckErr	Temp	State	Recorded	gain1	gain2
2026-01-03 11:05:28.08	191.68	18.31	-33.5	-44.6	3.8	8.45e-01	0	43	0	0	27	12901
2026-01-03 11:05:29.08	191.77	18.42	-33.9	-45.2	3.8	1.49e+00	0	43	104	0	29	13221
2026-01-03 11:05:30.09	191.87	18.54	-34.0	-45.3	3.8	1.49e+00	0	43	104	0	29	13245
2026-01-03 11:05:31.09	191.97	18.65	-34.0	-45.3	3.8	1.49e+00	0	43	104	0	29	13283
2026-01-03 11:05:32.10	192.06	18.76	-34.0	-45.3	3.8	1.49e+00	0	43	104	0	29	13261
2026-01-03 11:05:33.11	192.16	18.88	-34.0	-45.4	3.8	1.49e+00	0	43	104	0	29	13303
2026-01-03 11:05:34.11	192.26	19.00	-34.0	-45.4	3.8	1.49e+00	0	43	104	0	29	13379
2026-01-03 11:05:35.12	192.36	19.11	-34.0	-45.4	3.8	1.49e+00	0	43	104	0	29	13357
2026-01-03 11:05:36.13	192.46	19.23	-34.0	-45.3	3.8	1.49e+00	0	43	104	0	29	13327
2026-01-03 11:05:37.14	192.57	19.35	-34.0	-45.4	3.8	1.49e+00	0	43	104	0	29	13317
2026-01-03 11:05:38.14	192.67	19.46	-34.0	-45.3	3.8	1.49e+00	0	43	104	0	29	13282
2026-01-03 11:05:39.14	192.77	19.58	-34.0	-45.4	3.8	1.49e+00	0	43	104	0	29	13335
2026-01-03 11:05:40.15	192.87	19.70	-34.0	-45.3	3.8	1.49e+00	0	43	104	0	29	13284
2026-01-03 11:05:41.16	192.98	19.82	-34.0	-45.4	3.8	1.49e+00	0	43	104	0	29	13340
2026-01-03 11:05:42.16	193.08	19.94	-34.0	-45.3	3.8	1.49e+00	0	43	104	0	29	13291
2026-01-03 11:05:43.16	193.19	20.06	-34.0	-45.4	3.8	1.49e+00	0	43	104	0	29	13356
2026-01-03 11:05:44.17	193.30	20.18	-34.0	-45.3	3.8	1.49e+00	0	43	104	0	29	13308
2026-01-03 11:05:45.17	193.41	20.30	-34.0	-45.3	3.8	1.49e+00	0	43	104	0	29	13294
2026-01-03 11:05:46.18	193.51	20.42	-34.0	-45.3	3.8	1.49e+00	0	43	104	0	29	13292
2026-01-03 11:05:47.18	193.62	20.54	-34.0	-45.3	3.8	1.49e+00	0	43	104	0	29	13303
2026-01-03 11:05:48.19	193.73	20.67	-34.0	-45.3	3.8	1.49e+00	0	43	104	0	29	13254
2026-01-03 11:05:49.20	193.85	20.79	-34.0	-45.3	3.8	1.49e+00	0	43	104	0	29	13301
2026-01-03 11:05:50.20	193.96	20.91	-34.0	-45.3	3.8	1.49e+00	0	43	104	0	29	13265
2026-01-03 11:05:51.21	194.07	21.04	-34.0	-45.3	3.8	1.49e+00	0	43	104	0	29	13265
2026-01-03 11:05:52.22	194.19	21.16	-33.9	-45.2	3.8	1.49e+00	0	43	104	0	29	13223
2026-01-03 11:05:53.23	194.30	21.29	-33.9	-45.1	3.8	1.49e+00	0	43	104	0	29	13148
2026-01-03 11:05:54.23	194.42	21.41	-33.9	-45.1	3.8	1.49e+00	0	43	104	0	29	13114
2026-01-03 11:05:55.24	194.53	21.54	-33.9	-45.1	3.8	1.49e+00	0	43	104	0	29	13119
2026-01-03 11:05:56.25	194.65	21.66	-33.8	-45.4	3.8	1.49e+00	0	43	104	0	28	13795
2026-01-03 11:05:57.25	194.77	21.79	-33.7	-45.3	3.8	1.49e+00	0	43	104	0	28	13664
2026-01-03 11:05:58.26	194.89	21.92	-33.6	-45.1	3.8	1.49e+00	0	43	104	0	28	13570
2026-01-03 11:05:59.27	195.01	22.05	-33.6	-45.1	3.8	1.49e+00	0	43	104	0	28	13517
2026-01-03 11:06:00.28	195.13	22.18	-33.6	-45.1	3.8	1.49e+00	0	43	104	0	28	13456
2026-01-03 11:06:01.29	195.25	22.31	-33.6	-45.0	3.8	1.49e+00	0	43	104	0	28	13413
2026-01-03 11:06:02.29	195.38	22.44	-33.6	-45.0	3.8	1.49e+00	0	43	104	0	28	13409
2026-01-03 11:06:03.30	195.50	22.57	-33.5	-44.9	3.8	1.49e+00	0	43	104	0	28	13311
2026-01-03 11:06:04.31	195.63	22.70	-33.1	-42.6	3.9	1.49e+00	0	43	104	0	27	10688
2026-01-03 11:06:05.31	195.75	22.83	-33.1	-42.5	3.9	1.49e+00	0	43	104	0	27	10635
2026-01-03 11:06:06.31	195.88	22.96	-33.0	-41.3	4.2	1.47e+00	0	43	104	0	27	9360
2026-01-03 11:06:07.31	196.01	23.09	-32.8	-40.8	4.0	1.48e+00	0	43	104	0	27	9019
2026-01-03 11:06:08.31	196.13	23.22	-32.7	-39.6	4.9	7.91e-01	0	43	104	0	26	8005
2026-01-03 11:06:09.33	196.27	23.36	-32.5	-38.7	5.3	5.63e-01	0	43	0	2097152	26	7374
2026-01-03 11:06:10.32	196.40	23.49	-32.4	-38.0	5.7	4.16e-01	0	43	0	5242880	26	6907
2026-01-03 11:06:11.33	196.53	23.62	-32.4	-38.0	5.7	3.99e-01	0	43	0	8388608	26	6873
2026-01-03 11:06:12.34	196.66	23.76	-32.4	-38.2	5.6	4.27e-01	0	43	0	11534336	26	7028
2026-01-03 11:06:13.34	196.80	23.89	-32.3	-37.8	5.8	4.23e-01	0	43	0	14680064	26	6752
2026-01-03 11:06:14.35	196.94	24.03	-31.8	-36.0	7.2	1.84e-01	0	43	0	17825792	25	5874
2026-01-03 11:06:15.36	197.07	24.17	-30.8	-33.6	9.7	2.17e-02	0	43	0	20971520	23	4997
2026-01-03 11:06:16.36	197.21	24.30	-29.4	-31.4	12.2	4.79e-04	0	44	0	24117248	20	4517
2026-01-03 11:06:17.36	197.35	24.44	-28.2	-29.8	14.1	9.10e-06	0	43	0	27262976	17	4320
2026-01-03 11:06:18.36	197.49	24.58	-27.0	-28.2	15.4	0.00e+00	0	43	0	30408704	15	4104
2026-01-03 11:06:19.36	197.63	24.72	-26.5	-27.4	16.1	0.00e+00	0	43	0	33554432	14	4019
2026-01-03 11:06:20.37	197.77	24.86	-26.5	-27.4	16.2	0.00e+00	0	43	0	36700160	14	3996
2026-01-03 11:06:21.38	197.92	25.00	-26.8	-28.1	15.8	6.10e-06	0	43	0	39845888	14	4194
2026-01-03 11:06:22.38	198.06	25.14	-27.4	-29.5	15.0	7.00e-07	0	43	0	42991616	14	4591
2026-01-03 11:06:23.39	198.21	25.28	-27.4	-29.0	15.0	7.00e-07	0	43	0	46137344	15	4335
2026-01-03 11:06:24.40	198.36	25.42	-27.3	-28.8	15.1	1.50e-06	0	43	0	49283072	15	4277
2026-01-03 11:06:25.41	198.51	25.56	-27.5	-29.2	14.9	0.00e+00	0	43	0	52428800	15	4371
2026-01-03 11:06:26.41	198.66	25.71	-27.2	-28.5	15.3	0.00e+00	0	43	0	55574528	15	4176
2026-01-03 11:06:27.42	198.81	25.85	-27.0	-28.0	15.6	7.00e-07	0	43	0	58720256	15	4052
2026-01-03 11:06:28.43	198.97	25.99	-26.8	-27.7	15.8	0.00e+00	0	43	0	61865984	15	3977
2026-01-03 11:06:29.43	199.12	26.14	-26.8	-28.1	15.8	0.00e+00	0	43	0	65011712	14	4199
2026-01-03 11:06:30.45	199.28	26.28	-26.8	-28.2	15.7	0.00e+00	0	43	0	68157440	14	4224
2026-01-03 11:06:31.45	199.44	26.43	-26.9	-28.3	15.7	0.00e+00	0	43	0	71303168	14	4246
2026-01-03 11:06:32.46	199.59	26.58	-27.0	-28.5	15.6	0.00e+00	0	43	0	74448896	14	4305
2026-01-03 11:06:33.46	199.75	26.72	-27.0	-28.6	15.6	0.00e+00	0	43	0	77594624	14	4312
2026-01-03 11:06:34.47	199.92	26.87	-27.1	-28.8	15.5	0.00e+00	0	43	0	80740352	14	4373
2026-01-03 11:06:35.48	200.08	27.02	-27.1	-28.7	15.5	0.00e+00	0	43	0	83886080	14	4367
2026-01-03 11:06:36.48	200.24	27.17	-27.1	-28.8	15.4	2.20e-06	0	43	0	87031808	14	4384
2026-01-03 11:06:37.49	200.41	27.32	-27.2	-29.0	15.4	0.00e+00	0	43	0	90177536	14	4433
2026-01-03 11:06:38.50	200.58	27.47	-27.2	-29.1	15.3	0.00e+00	0	43	0	93323264	14	4461
2026-01-03 11:06:39.50	200.75	27.61	-27.1	-28.7	15.6	0.00e+00	0	43	0	96468992	14	4346
2026-01-03 11:06:40.51	200.92	27.77	-27.0	-28.6	15.6	0.00e+00	0	43	0	99614720	14	4307
2026-01-03 11:06:41.52	201.09	27.92	-27.0	-28.6	15.6	0.00e+00	0	43	0	102760448	14	4315
2026-01-03 11:06:42.53	201.27	28.07	-27.1	-28.7	15.6	0.00e+00	0	43	0	105906176	14	4343
2026-01-03 11:06:43.53	201.44	28.22	-27.0	-28.6	15.6	0.00e+00	0	43	0	109051904	14	4324
2026-01-03 11:06:44.54	201.62	28.38	-27.1	-28.7	15.6	0.00e+00	0	43	0	112197632	14	4344
2026-01-03 11:06:45.54	201.80	28.53	-27.1	-28.8	15.5	0.00e+00	0	43	0	115343360	14	4386
2026-01-03 11:06:46.55	201.98	28.68	-27.2	-28.9	15.5	0.00e+00	0	43	0	118489088	14	4404
2026-01-03 11:06:47.56	202.16	28.84	-27.1	-28.8	15.5	0.00e+00	0	43	0	121634816	14	4370
2026-01-03 11:06:48.56	202.35	28.99	-27.1	-28.7	15.6	0.00e+00	0	43	0	124780544	14	4350
2026-01-03 11:06:49.57	202.53	29.15	-27.0	-28.6	15.6	7.00e-07	0	43	0	127926272	14	4317
2026-01-03 11:06:50.57	202.72	29.30	-27.1	-28.7	15.6	0.00e+00	0	43	0	131072000	14	4343
2026-01-03 11:06:51.58	202.91	29.46	-27.2	-28.9	15.5	0.00e+00	0	43	0	134217728	14	4401
2026-01-03 11:06:52.59	203.10	29.62	-27.1	-28.9	15.5	0.00e+00	0	43	0	137363456	14	4388
2026-01-03 11:06:53.59	203.29	29.77	-27.1	-28.8	15.6	0.00e+00	0	43	0	140509184	14	4356
2026-01-03 11:06:54.60	203.49	29.93	-27.2	-29.0	15.4	0.00e+00	0	43	0	143654912	14	4428
2026-01-03 11:06:55.61	203.69	30.09	-27.2	-29.1	15.4	0.00e+00	0	43	0	146800640	14	4449
2026-01-03 11:06:56.61	203.89	30.25	-27.2	-29.1	15.4	0.00e+00	0	43	0	149946368	14	4443
2026-01-03 11:06:57.62	204.09	30.41	-27.3	-29.3	15.3	0.00e+00	0	43	0	153092096	14	4527
2026-01-03 11:06:58.62	204.29	30.57	-27.3	-29.2	15.3	0.00e+00	0	43	0	156237824	14	4485
2026-01-03 11:06:59.62	204.49	30.73	-27.5	-29.6	15.1	0.00e+00	0	43	0	159383552	14	4601
2026-01-03 11:07:00.62	204.70	30.89	-27.4	-29.3	15.3	0.00e+00	0	43	0	162529280	14	4526
2026-01-03 11:07:01.63	204.91	31.05	-27.2	-29.1	15.4	0.00e+00	0	43	0	165675008	14	4449
2026-01-03 11:07:02.64	205.12	31.22	-27.1	-28.8	15.6	0.00e+00	0	43	0	168820736	14	4362
2026-01-03 11:07:03.65	205.33	31.38	-27.2	-28.9	15.5	0.00e+00	0	43	0	171966464	14	4386
2026-01-03 11:07:04.65	205.54	31.54	-27.1	-28.7	15.6	0.00e+00	0	43	0	175112192	14	4344
2026-01-03 11:07:05.66	205.76	31.71	-27.2	-28.9	15.5	0.00e+00	0	43	0	178257920	14	4400
2026-01-03 11:07:06.67	205.98	31.87	-27.2	-28.9	15.5	0.00e+00	0	43	0	181403648	14	4404
2026-01-03 11:07:07.68	206.20	32.04	-27.2	-29.0	15.5	0.00e+00	0	43	0	184549376	14	4417
2026-01-03 11:07:08.69	206.43	32.20	-27.6	-29.3	15.0	0.00e+00	0	43	0	187695104	15	4406
2026-01-03 11:07:09.69	206.65	32.37	-27.5	-29.2	15.1	0.00e+00	0	43	0	190840832	15	4374
2026-01-03 11:07:10.70	206.88	32.53	-27.3	-28.7	15.3	0.00e+00	0	43	0	193986560	15	4224
2026-01-03 11:07:11.71	207.11	32.70	-27.3	-28.7	15.4	0.00e+00	0	44	0	197132288	15	4224
2026-01-03 11:07:12.72	207.35	32.87	-27.2	-28.5	15.4	0.00e+00	0	43	0	200278016	15	4186
2026-01-03 11:07:13.73	207.58	33.04	-27.1	-28.2	15.7	0.00e+00	0	43	0	203423744	15	4088
2026-01-03 11:07:14.74	207.82	33.21	-27.1	-28.3	15.6	0.00e+00	0	43	0	206569472	15	4135
2026-01-03 11:07:15.74	208.06	33.37	-27.0	-28.1	15.7	0.00e+00	0	43	0	209715200	15	4064
2026-01-03 11:07:16.75	208.30	33.54	-27.1	-28.2	15.7	0.00e+00	0	43	0	212860928	15	4101
2026-01-03 11:07:17.76	208.55	33.71	-27.3	-28.7	15.4	0.00e+00	0	43	0	216006656	15	4222
2026-01-03 11:07:18.77	208.80	33.88	-27.3	-28.7	15.4	0.00e+00	0	43	0	219152384	15	4231
2026-01-03 11:07:19.77	209.05	34.05	-27.5	-29.1	15.2	0.00e+00	0	43	0	222298112	15	4328
2026-01-03 11:07:20.78	209.30	34.22	-27.5	-29.1	15.2	0.00e+00	0	43	0	225443840	15	4332
2026-01-03 11:07:21.79	209.56	34.39	-27.4	-28.9	15.2	0.00e+00	0	43	0	228589568	15	4292
2026-01-03 11:07:22.79	209.81	34.56	-27.5	-29.2	15.1	0.00e+00	0	43	0	231735296	15	4375
2026-01-03 11:07:23.80	210.07	34.73	-27.5	-29.1	15.1	0.00e+00	0	43	0	234881024	15	4346
2026-01-03 11:07:24.81	210.34	34.90	-27.4	-28.9	15.4	0.00e+00	0	43	0	238026752	15	4271
2026-01-03 11:07:25.81	210.60	35.07	-27.6	-29.3	15.0	0.00e+00	0	43	0	241172480	15	4402
2026-01-03 11:07:26.82	210.87	35.25	-27.8	-29.8	14.8	3.80e-06	0	43	0	244318208	15	4542
2026-01-03 11:07:27.82	211.14	35.42	-28.2	-30.2	14.4	0.00e+00	0	43	0	247463936	16	4550
2026-01-03 11:07:28.82	211.41	35.59	-28.2	-30.3	14.4	1.50e-06	0	43	0	250609664	16	4567
2026-01-03 11:07:29.82	211.69	35.76	-28.3	-30.4	14.3	0.00e+00	0	43	0	253755392	16	4613
2026-01-03 11:07:30.83	211.97	35.93	-28.1	-30.1	14.5	0.00e+00	0	43	0	256901120	16	4499
2026-01-03 11:07:31.84	212.25	36.11	-28.0	-29.8	14.7	7.00e-07	0	43	0	260046848	16	4427
2026-01-03 11:07:32.85	212.54	36.28	-28.2	-30.2	14.5	7.00e-07	0	43	0	263192576	16	4543
2026-01-03 11:07:33.85	212.83	36.45	-28.3	-30.5	14.4	1.50e-06	0	43	0	266338304	16	4611
2026-01-03 11:07:34.86	213.12	36.62	-28.5	-30.9	14.1	1.50e-06	0	43	0	269484032	16	4738
2026-01-03 11:07:35.87	213.41	36.80	-28.6	-30.7	13.9	2.20e-06	0	43	0	272629760	17	4586
2026-01-03 11:07:36.87	213.71	36.97	-28.8	-31.0	13.7	4.50e-06	0	43	0	275775488	17	4689
2026-01-03 11:07:37.88	214.01	37.14	-28.8	-31.1	13.7	6.80e-06	0	43	0	278921216	17	4717
2026-01-03 11:07:38.89	214.32	37.32	-28.8	-31.2	13.6	8.30e-06	0	43	0	282066944	17	4734
2026-01-03 11:07:39.89	214.62	37.49	-28.8	-31.1	13.7	6.80e-06	0	43	0	285212672	17	4695
2026-01-03 11:07:40.90	214.93	37.66	-28.9	-31.4	13.5	5.30e-06	0	43	0	288358400	17	4790
2026-01-03 11:07:41.91	215.25	37.84	-28.8	-31.2	13.6	1.22e-05	0	43	0	291504128	17	4740
2026-01-03 11:07:42.92	215.57	38.01	-28.9	-31.4	13.5	6.80e-06	0	43	0	294649856	17	4792
2026-01-03 11:07:43.92	215.89	38.18	-29.0	-31.1	13.4	1.60e-05	0	43	0	297795584	18	4585
2026-01-03 11:07:44.92	216.21	38.36	-29.2	-31.7	13.0	2.59e-05	0	43	0	300941312	18	4791
2026-01-03 11:07:45.93	216.54	38.53	-29.1	-31.4	13.2	3.12e-05	0	43	0	304087040	18	4668
2026-01-03 11:07:46.94	216.87	38.70	-29.2	-31.5	13.1	2.36e-05	0	43	0	307232768	18	4722
2026-01-03 11:07:47.95	217.20	38.88	-29.3	-31.8	12.9	3.73e-05	0	43	0	310378496	18	4808
2026-01-03 11:07:48.95	217.54	39.05	-29.2	-31.7	13.0	3.35e-05	0	43	0	313524224	18	4785
2026-01-03 11:07:49.96	217.88	39.22	-29.3	-31.8	13.0	3.89e-05	0	43	0	316669952	18	4801
2026-01-03 11:07:50.97	218.23	39.39	-29.4	-32.1	12.9	5.41e-05	0	43	0	319815680	18	4898
2026-01-03 11:07:51.97	218.57	39.56	-29.4	-32.1	12.8	4.57e-05	0	43	0	322961408	18	4929
2026-01-03 11:07:52.98	218.93	39.74	-29.5	-31.8	12.7	8.92e-05	0	43	0	326107136	19	4708
2026-01-03 11:07:53.99	219.28	39.91	-29.7	-32.5	12.3	1.39e-04	0	43	0	329252864	19	4940
2026-01-03 11:07:55.00	219.65	40.08	-29.3	-31.3	13.0	5.49e-05	0	43	0	332398592	19	4535
2026-01-03 11:07:55.99	220.00	40.24	-29.0	-30.7	13.3	1.14e-05	0	43	0	335544320	19	4373
2026-01-03 11:07:57.00	220.37	40.41	-29.1	-30.8	13.3	1.75e-05	0	43	0	338690048	19	4383
2026-01-03 11:07:58.00	220.74	40.58	-29.5	-31.7	12.7	3.81e-05	0	43	0	341835776	19	4684
2026-01-03 11:07:59.01	221.11	40.75	-29.4	-31.6	12.8	6.25e-05	0	43	0	344981504	19	4648
2026-01-03 11:08:00.02	221.49	40.92	-29.4	-31.7	12.8	9.76e-05	0	43	0	348127232	19	4680
2026-01-03 11:08:01.03	221.88	41.09	-29.4	-31.6	12.8	7.17e-05	0	43	0	351272960	19	4641
2026-01-03 11:08:02.03	222.26	41.25	-29.5	-31.8	12.6	8.85e-05	0	43	0	354418688	19	4704
2026-01-03 11:08:03.03	222.65	41.42	-29.4	-31.6	12.7	7.70e-05	0	43	0	357564416	19	4652
2026-01-03 11:08:04.03	223.04	41.58	-29.4	-31.6	12.8	6.10e-05	0	43	0	360710144	19	4642
2026-01-03 11:08:05.03	223.44	41.75	-29.5	-32.0	12.6	7.62e-05	0	43	0	363855872	19	4758
2026-01-03 11:08:06.04	223.84	41.91	-29.8	-32.8	12.1	1.81e-04	0	43	0	367001600	19	5046
2026-01-03 11:08:07.04	224.24	42.07	-29.6	-32.0	12.6	1.30e-04	0	43	0	370147328	19	4775
2026-01-03 11:08:08.05	224.65	42.24	-29.4	-31.6	12.8	8.39e-05	0	43	0	373293056	19	4651
2026-01-03 11:08:09.05	225.07	42.40	-29.3	-31.5	12.9	5.87e-05	0	43	0	376438784	19	4597
2026-01-03 11:08:10.05	225.48	42.55	-29.2	-31.1	13.1	4.88e-05	0	43	0	379584512	19	4492
2026-01-03 11:08:11.06	225.90	42.71	-29.2	-31.1	13.1	2.89e-05	0	43	0	382730240	19	4479
2026-01-03 11:08:12.07	226.33	42.87	-29.3	-31.2	13.0	3.43e-05	0	43	0	385875968	19	4516
2026-01-03 11:08:13.08	226.76	43.03	-29.6	-32.1	12.6	9.46e-05	0	43	0	389021696	19	4800
2026-01-03 11:08:14.08	227.20	43.19	-29.5	-31.9	12.6	9.46e-05	0	43	0	392167424	19	4741
2026-01-03 11:08:15.09	227.64	43.34	-29.8	-32.6	12.2	2.07e-04	0	43	0	395313152	19	4968
2026-01-03 11:08:16.09	228.08	43.49	-29.7	-32.2	12.4	1.64e-04	0	43	0	398458880	19	4850
2026-01-03 11:08:17.10	228.53	43.65	-29.6	-32.1	12.5	9.46e-05	0	43	0	401604608	19	4806
2026-01-03 11:08:18.11	228.98	43.80	-29.9	-32.8	12.1	2.03e-04	0	43	0	404750336	19	5039
2026-01-03 11:08:19.11	229.43	43.95	-29.9	-32.8	12.1	2.50e-04	0	43	0	407896064	19	5036
2026-01-03 11:08:20.12	229.89	44.09	-29.7	-32.3	12.4	1.80e-04	0	43	0	411041792	19	4860
2026-01-03 11:08:21.13	230.36	44.24	-29.4	-31.5	12.9	4.88e-05	0	43	0	414187520	19	4598
2026-01-03 11:08:22.14	230.83	44.39	-29.3	-31.4	12.9	4.65e-05	0	43	0	417333248	19	4559
2026-01-03 11:08:23.15	231.30	44.53	-29.3	-31.3	12.9	4.88e-05	0	43	0	420478976	19	4548
2026-01-03 11:08:24.15	231.78	44.67	-29.5	-31.8	12.8	5.64e-05	0	43	0	423624704	19	4687
2026-01-03 11:08:25.16	232.26	44.81	-29.4	-31.7	12.8	6.33e-05	0	43	0	426770432	19	4680
2026-01-03 11:08:26.17	232.75	44.95	-29.4	-31.5	12.9	6.17e-05	0	43	0	429916160	19	4618
2026-01-03 11:08:27.17	233.23	45.09	-29.3	-31.4	13.0	4.50e-05	0	43	0	433061888	19	4576
2026-01-03 11:08:28.18	233.73	45.22	-29.3	-31.3	13.0	3.66e-05	0	43	0	436207616	19	4539
2026-01-03 11:08:29.19	234.23	45.36	-29.4	-31.6	12.8	6.63e-05	0	43	0	439353344	19	4641
2026-01-03 11:08:30.20	234.73	45.49	-29.1	-30.7	13.4	1.75e-05	0	43	0	442499072	19	4350
2026-01-03 11:08:31.20	235.23	45.62	-28.8	-30.1	13.7	8.30e-06	0	43	0	445644800	19	4190
2026-01-03 11:08:32.21	235.74	45.74	-28.6	-30.1	14.1	7.00e-07	0	43	0	448790528	18	4279
2026-01-03 11:08:33.22	236.26	45.87	-28.7	-30.3	14.0	2.20e-06	0	43	0	451936256	18	4330
2026-01-03 11:08:34.22	236.77	45.99	-28.8	-30.7	13.7	5.30e-06	0	43	0	455081984	18	4451
2026-01-03 11:08:35.23	237.30	46.11	-28.8	-30.5	13.9	3.00e-06	0	43	0	458227712	18	4399
2026-01-03 11:08:36.24	237.83	46.23	-28.9	-30.9	13.6	1.50e-06	0	43	0	461373440	18	4522
2026-01-03 11:08:37.25	238.36	46.35	-29.0	-31.0	13.5	1.06e-05	0	43	0	464519168	18	4550
2026-01-03 11:08:38.25	238.89	46.46	-29.0	-31.0	13.6	8.30e-06	0	43	0	467664896	18	4540
2026-01-03 11:08:39.26	239.43	46.57	-28.9	-30.9	13.6	5.30e-06	0	43	0	470810624	18	4503
2026-01-03 11:08:40.27	239.97	46.68	-29.0	-31.0	13.6	1.06e-05	0	43	0	473956352	18	4540
2026-01-03 11:08:41.27	240.51	46.79	-29.0	-31.0	13.6	9.10e-06	0	43	0	477102080	18	4535
2026-01-03 11:08:42.28	241.06	46.89	-29.1	-31.4	13.3	1.37e-05	0	43	0	480247808	18	4656
2026-01-03 11:08:43.28	241.61	46.99	-29.3	-31.8	13.0	2.51e-05	0	43	0	483393536	18	4783
2026-01-03 11:08:44.28	242.16	47.09	-29.4	-32.0	12.9	5.34e-05	0	43	0	486539264	18	4856
2026-01-03 11:08:45.29	242.72	47.19	-29.5	-32.2	12.8	4.50e-05	0	43	0	489684992	18	4936
2026-01-03 11:08:46.29	243.28	47.28	-29.6	-32.1	12.7	8.69e-05	0	43	0	492830720	19	4787
2026-01-03 11:08:47.30	243.85	47.37	-29.4	-31.5	12.9	7.09e-05	0	43	0	495976448	19	4591
2026-01-03 11:08:48.31	244.42	47.46	-28.9	-30.3	13.7	1.52e-05	0	43	0	499122176	19	4228
2026-01-03 11:08:49.32	244.99	47.55	-28.5	-29.8	14.2	1.50e-06	0	43	0	502267904	18	4185
2026-01-03 11:08:50.33	245.57	47.63	-28.6	-30.0	14.2	2.20e-06	0	43	0	505413632	18	4238
2026-01-03 11:08:51.33	246.14	47.71	-29.0	-31.1	13.5	7.60e-06	0	43	0	508559360	18	4559
2026-01-03 11:08:52.34	246.73	47.79	-29.2	-31.7	13.1	2.36e-05	0	43	0	511705088	18	4761
2026-01-03 11:08:53.35	247.31	47.86	-29.2	-31.6	13.2	4.27e-05	0	43	0	514850816	18	4725
2026-01-03 11:08:54.36	247.90	47.93	-28.7	-30.3	13.9	7.60e-06	0	43	0	517996544	18	4344
2026-01-03 11:08:55.37	248.49	48.00	-28.6	-30.0	14.2	1.50e-06	0	43	0	521142272	18	4246
2026-01-03 11:08:56.38	249.08	48.06	-28.7	-30.2	14.0	1.50e-06	0	43	0	524288000	18	4305
2026-01-03 11:08:57.38	249.67	48.12	-28.9	-30.9	13.7	5.30e-06	0	43	0	527433728	18	4519
2026-01-03 11:08:58.39	250.27	48.18	-28.9	-30.9	13.7	2.28e-05	0	43	0	530579456	18	4525
2026-01-03 11:08:59.39	250.87	48.23	-28.8	-30.5	13.9	5.30e-06	0	43	0	533725184	18	4406
2026-01-03 11:09:00.39	251.46	48.28	-28.8	-30.6	13.8	2.20e-06	0	43	0	536870912	18	4415
2026-01-03 11:09:01.40	252.07	48.33	-28.8	-30.6	13.8	7.60e-06	0	43	0	540016640	18	4432
2026-01-03 11:09:02.40	252.67	48.38	-28.8	-30.6	13.7	4.50e-06	0	43	0	543162368	18	4438
2026-01-03 11:09:03.41	253.27	48.42	-28.7	-30.4	13.9	2.20e-06	0	43	0	546308096	18	4365
2026-01-03 11:09:04.41	253.88	48.46	-28.9	-30.7	13.8	2.13e-05	0	43	0	549453824	18	4455
2026-01-03 11:09:05.42	254.49	48.49	-29.1	-31.3	13.4	1.14e-05	0	43	0	552599552	18	4643
2026-01-03 11:09:06.43	255.10	48.52	-29.2	-31.6	13.3	1.44e-05	0	43	0	555745280	18	4727
2026-01-03 11:09:07.43	255.70	48.55	-29.4	-32.1	12.9	4.57e-05	0	43	0	558891008	18	4915
2026-01-03 11:09:08.44	256.32	48.57	-29.3	-31.8	13.2	3.58e-05	0	43	0	562036736	18	4784
2026-01-03 11:09:09.44	256.93	48.60	-29.2	-31.6	13.3	2.74e-05	0	43	0	565182464	18	4729
2026-01-03 11:09:10.45	257.54	48.61	-29.2	-31.5	13.3	2.74e-05	0	43	0	568328192	18	4705
2026-01-03 11:09:11.46	258.16	48.63	-29.2	-31.6	13.2	1.60e-05	0	43	0	571473920	18	4720
2026-01-03 11:09:12.47	258.77	48.64	-29.1	-31.2	13.5	6.80e-06	0	43	0	574619648	18	4608
2026-01-03 11:09:13.47	259.38	48.64	-29.1	-31.3	13.4	2.13e-05	0	43	0	577765376	18	4618
2026-01-03 11:09:14.48	260.00	48.65	-29.0	-31.0	13.6	3.80e-06	0	43	0	580911104	18	4528
2026-01-03 11:09:15.48	260.61	48.65	-29.2	-31.4	13.3	1.22e-05	0	43	0	584056832	18	4674
2026-01-03 11:09:16.48	261.22	48.64	-29.3	-31.9	13.1	3.28e-05	0	43	0	587202560	18	4816
2026-01-03 11:09:17.49	261.84	48.64	-29.3	-31.7	13.2	2.28e-05	0	43	0	590348288	18	4746
2026-01-03 11:09:18.50	262.45	48.63	-29.3	-31.7	13.1	2.44e-05	0	43	0	593494016	18	4767
2026-01-03 11:09:19.50	263.06	48.61	-29.0	-31.0	13.6	8.30e-06	0	43	0	596639744	18	4531
2026-01-03 11:09:20.50	263.67	48.60	-28.7	-30.4	14.0	4.50e-06	0	43	0	599785472	18	4362
2026-01-03 11:09:21.51	264.29	48.58	-28.6	-30.0	14.2	1.50e-06	0	43	0	602931200	18	4243
2026-01-03 11:09:22.51	264.90	48.55	-28.4	-29.6	14.4	2.20e-06	0	43	0	606076928	18	4122
2026-01-03 11:09:23.52	265.51	48.53	-28.6	-30.0	14.2	0.00e+00	0	43	0	609222656	18	4246
2026-01-03 11:09:24.53	266.12	48.49	-28.9	-30.8	13.8	3.80e-06	0	43	0	611319808	18	4469
2026-01-03 11:09:25.54	266.73	48.46	-29.0	-31.0	13.6	8.30e-06	0	43	0	615514112	18	4544
2026-01-03 11:09:26.54	267.33	48.42	-28.9	-30.9	13.6	3.80e-06	0	43	0	618659840	18	4518
2026-01-03 11:09:27.55	267.94	48.38	-29.0	-31.2	13.5	6.80e-06	0	43	0	621805568	18	4588
2026-01-03 11:09:28.56	268.54	48.34	-28.9	-30.9	13.6	4.50e-06	0	43	0	624951296	18	4516
2026-01-03 11:09:29.57	269.15	48.29	-29.1	-31.3	13.5	1.06e-05	0	43	0	628097024	18	4626
2026-01-03 11:09:30.57	269.74	48.24	-29.3	-31.8	13.1	2.82e-05	0	43	0	631242752	18	4817
2026-01-03 11:09:31.58	270.34	48.18	-29.4	-32.0	13.0	3.20e-05	0	43	0	633339904	18	4863
2026-01-03 11:09:32.59	270.94	48.13	-29.5	-32.2	12.9	3.73e-05	0	43	0	637534208	18	4943
2026-01-03 11:09:33.59	271.53	48.07	-29.4	-32.1	13.0	4.11e-05	0	44	0	640679936	18	4885
2026-01-03 11:09:34.60	272.12	48.00	-29.3	-31.7	13.2	3.81e-05	0	43	0	643825664	18	4776
2026-01-03 11:09:35.61	272.71	47.94	-29.4	-32.1	12.9	4.27e-05	0	43	0	646971392	18	4902
2026-01-03 11:09:36.61	273.29	47.87	-29.9	-32.7	12.2	8.46e-05	0	43	0	650117120	19	4997
2026-01-03 11:09:37.63	273.88	47.79	-29.9	-32.3	12.1	3.42e-04	0	43	0	653262848	20	4768
2026-01-03 11:09:38.63	274.46	47.72	-30.1	-32.8	11.8	4.16e-04	0	43	0	656408576	20	4938
2026-01-03 11:09:39.63	275.03	47.64	-30.1	-32.8	11.8	6.72e-04	0	43	0	658505728	20	4941
2026-01-03 11:09:40.64	275.61	47.56	-30.1	-32.8	11.8	6.07e-04	0	43	0	662700032	20	4932
2026-01-03 11:09:41.64	276.18	47.47	-29.9	-32.5	11.9	4.16e-04	0	43	0	665845760	20	4819
2026-01-03 11:09:42.64	276.74	47.38	-29.8	-32.0	12.3	2.33e-04	0	43	0	668991488	20	4654
2026-01-03 11:09:43.65	277.31	47.29	-29.7	-31.9	12.4	1.34e-04	0	43	0	672137216	20	4611
2026-01-03 11:09:44.65	277.87	47.20	-30.1	-32.9	11.7	3.25e-04	0	44	0	675282944	20	4967
2026-01-03 11:09:45.66	278.43	47.11	-30.3	-33.3	11.5	8.77e-04	0	43	0	678428672	20	5101
2026-01-03 11:09:46.67	278.98	47.01	-29.9	-32.4	12.1	3.30e-04	0	43	0	680525824	20	4785
2026-01-03 11:09:47.68	279.54	46.91	-29.9	-32.4	12.1	3.26e-04	0	43	0	683671552	20	4775
2026-01-03 11:09:48.68	280.08	46.80	-29.9	-32.2	12.2	2.39e-04	0	43	0	686817280	20	4736
2026-01-03 11:09:49.69	280.63	46.70	-29.9	-32.3	12.2	1.59e-04	0	43	0	691011584	20	4743
2026-01-03 11:09:50.69	281.16	46.59	-29.6	-31.6	12.6	1.35e-04	0	43	0	694157312	20	4509
2026-01-03 11:09:51.69	281.70	46.48	-29.4	-31.4	13.1	4.11e-05	0	43	0	697303040	19	4551
2026-01-03 11:09:52.70	282.23	46.36	-29.3	-31.3	13.2	1.98e-05	0	43	0	700448768	19	4521
2026-01-03 11:09:53.71	282.76	46.25	-29.7	-32.2	12.7	5.79e-05	0	43	0	703594496	19	4799
2026-01-03 11:09:54.71	283.29	46.13	-30.1	-32.7	11.9	2.78e-04	0	43	0	705691648	20	4887
2026-01-03 11:09:55.72	283.81	46.01	-30.0	-32.7	11.9	3.92e-04	0	43	0	708837376	20	4879
2026-01-03 11:09:56.72	284.32	45.89	-29.6	-31.5	12.7	1.68e-04	0	43	0	711983104	20	4493
2026-01-03 11:09:57.73	284.84	45.76	-29.0	-30.6	13.6	1.22e-05	0	43	0	715128832	19	4306
2026-01-03 11:09:58.74	285.35	45.64	-28.7	-30.2	14.1	1.50e-06	0	43	0	719323136	18	4287
2026-01-03 11:09:59.74	285.85	45.51	-28.6	-30.0	14.3	0.00e+00	0	43	0	722468864	18	4249
2026-01-03 11:10:00.74	286.35	45.38	-28.9	-30.8	13.8	5.30e-06	0	43	0	725614592	18	4482
2026-01-03 11:10:01.74	286.84	45.25	-28.9	-30.8	13.7	1.06e-05	0	43	0	727711744	18	4485
2026-01-03 11:10:02.75	287.34	45.11	-29.2	-31.4	13.5	1.06e-05	0	43	0	730857472	18	4656
2026-01-03 11:10:03.76	287.83	44.98	-29.2	-31.4	13.4	2.05e-05	0	43	0	734003200	18	4669
2026-01-03 11:10:04.77	288.31	44.84	-29.0	-30.9	13.7	4.50e-06	0	43	0	737148928	18	4516
2026-01-03 11:10:05.77	288.79	44.70	-28.7	-30.2	14.1	3.00e-06	0	43	0	740294656	18	4290
2026-01-03 11:10:06.77	289.26	44.56	-28.8	-30.6	13.9	7.60e-06	0	43	0	743440384	18	4409
2026-01-03 11:10:07.78	289.74	44.42	-29.0	-31.0	13.6	6.10e-06	0	43	0	747634688	18	4554
2026-01-03 11:10:08.79	290.21	44.27	-29.0	-31.1	13.6	1.06e-05	0	43	0	750780416	18	4577
2026-01-03 11:10:09.79	290.67	44.13	-29.2	-31.6	13.3	1.52e-05	0	43	0	752877568	18	4723
2026-01-03 11:10:10.80	291.13	43.98	-29.1	-31.3	13.5	9.90e-06	0	43	0	756023296	18	4629
2026-01-03 11:10:11.81	291.58	43.83	-29.3	-31.8	13.1	1.90e-05	0	43	0	759169024	18	4783
2026-01-03 11:10:12.83	292.04	43.68	-29.5	-31.7	12.9	4.50e-05	0	43	0	762314752	19	4662
2026-01-03 11:10:13.83	292.48	43.53	-29.6	-32.0	12.8	5.56e-05	0	43	0	766509056	19	4738
2026-01-03 11:10:14.84	292.93	43.38	-29.5	-31.8	12.9	4.95e-05	0	43	0	769654784	19	4666
2026-01-03 11:10:15.84	293.36	43.22	-29.7	-32.3	12.5	6.25e-05	0	43	0	772800512	19	4828
2026-01-03 11:10:16.85	293.80	43.07	-29.8	-32.4	12.5	1.21e-04	0	43	0	774897664	19	4885
2026-01-03 11:10:17.86	294.23	42.91	-29.8	-32.5	12.5	1.07e-04	0	43	0	778043392	19	4920
2026-01-03 11:10:18.86	294.65	42.75	-29.9	-32.9	12.2	2.27e-04	0	43	0	781189120	19	5040
2026-01-03 11:10:19.87	295.08	42.60	-29.8	-32.0	12.4	2.10e-04	0	43	0	784334848	20	4639
2026-01-03 11:10:20.88	295.50	42.44	-29.7	-31.8	12.5	1.14e-04	0	43	0	787480576	20	4573
2026-01-03 11:10:21.89	295.91	42.28	-29.6	-31.6	12.6	1.06e-04	0	43	0	791674880	20	4510
2026-01-03 11:10:22.90	296.32	42.11	-29.5	-31.3	12.8	7.40e-05	0	43	0	794820608	20	4416
2026-01-03 11:10:23.91	296.73	41.95	-29.5	-31.3	12.8	7.24e-05	0	43	0	797966336	20	4409
2026-01-03 11:10:24.91	297.13	41.79	-29.3	-31.1	13.3	2.28e-05	0	43	0	800063488	19	4462
2026-01-03 11:10:25.92	297.53	41.62	-29.3	-31.1	13.3	2.21e-05	0	43	0	803209216	19	4476
2026-01-03 11:10:26.93	297.92	41.46	-29.5	-31.7	12.9	3.96e-05	0	43	0	806354944	19	4639
2026-01-03 11:10:27.93	298.31	41.30	-29.6	-32.1	12.7	4.95e-05	0	43	0	810549248	19	4772
2026-01-03 11:10:28.94	298.69	41.13	-29.5	-31.8	12.9	5.34e-05	0	43	0	813694976	19	4675
2026-01-03 11:10:29.95	299.08	40.96	-29.5	-31.8	12.9	5.64e-05	0	43	0	816840704	19	4672
2026-01-03 11:10:30.95	299.45	40.80	-29.3	-31.3	13.2	3.12e-05	0	43	0	819986432	19	4528
2026-01-03 11:10:31.97	299.83	40.63	-29.1	-30.8	13.5	1.52e-05	0	43	0	822083584	19	4387
2026-01-03 11:10:32.97	300.20	40.46	-28.9	-30.2	13.9	7.60e-06	0	43	0	825229312	19	4183
2026-01-03 11:10:33.98	300.57	40.29	-28.8	-30.1	13.9	3.00e-06	0	43	0	829423616	19	4171
2026-01-03 11:10:34.99	300.93	40.12	-29.2	-30.9	13.4	5.30e-06	0	43	0	832569344	19	4407
2026-01-03 11:10:35.99	301.29	39.95	-29.1	-30.7	13.5	1.06e-05	0	43	0	835715072	19	4335
2026-01-03 11:10:37.00	301.64	39.78	-29.4	-31.4	13.0	2.74e-05	0	43	0	838860800	19	4567
2026-01-03 11:10:38.01	302.00	39.61	-29.6	-32.1	12.6	6.56e-05	0	43	0	842006528	19	4764
2026-01-03 11:10:39.01	302.34	39.44	-29.5	-31.8	12.8	6.10e-05	0	43	0	845152256	19	4675
2026-01-03 11:10:40.02	302.69	39.27	-29.2	-31.1	13.3	3.43e-05	0	43	0	847249408	19	4456
2026-01-03 11:10:41.03	303.03	39.10	-29.3	-31.2	13.2	1.67e-05	0	43	0	851443712	19	4504
2026-01-03 11:10:42.04	303.37	38.93	-29.5	-31.7	12.9	3.89e-05	0	43	0	854589440	19	4657
2026-01-03 11:10:43.04	303.70	38.76	-29.3	-31.3	13.1	3.66e-05	0	43	0	857735168	19	4534
2026-01-03 11:10:44.04	304.03	38.59	-29.6	-32.0	12.7	6.48e-05	0	43	0	860880896	19	4748
2026-01-03 11:10:45.05	304.35	38.41	-29.4	-31.5	13.0	4.19e-05	0	43	0	864026624	19	4600
2026-01-03 11:10:46.06	304.68	38.24	-29.1	-30.9	13.4	2.51e-05	0	43	0	867172352	19	4407
2026-01-03 11:10:47.06	305.00	38.07	-29.0	-30.5	13.7	7.60e-06	0	43	0	869269504	19	4288
2026-01-03 11:10:48.07	305.31	37.90	-28.9	-30.2	13.8	3.80e-06	0	43	0	872415232	19	4213
2026-01-03 11:10:49.08	305.63	37.72	-28.7	-30.2	14.1	3.80e-06	0	43	0	875560960	18	4298
2026-01-03 11:10:50.08	305.94	37.55	-28.5	-29.9	14.3	7.00e-07	0	43	0	879755264	18	4206
2026-01-03 11:10:51.09	306.24	37.38	-28.6	-30.0	14.2	1.50e-06	0	43	0	882900992	18	4254
2026-01-03 11:10:52.10	306.55	37.21	-28.3	-29.3	14.6	2.20e-06	0	43	0	886046720	18	4046
2026-01-03 11:10:53.10	306.85	37.04	-28.2	-29.6	14.7	0.00e+00	0	43	0	889192448	17	4225
2026-01-03 11:10:54.11	307.15	36.86	-28.3	-29.8	14.6	7.00e-07	0	44	0	892338176	17	4292
2026-01-03 11:10:55.11	307.44	36.69	-28.2	-29.7	14.7	0.00e+00	0	43	0	894435328	17	4262
2026-01-03 11:10:56.11	307.73	36.52	-28.3	-30.0	14.6	1.50e-06	0	43	0	897581056	17	4343
2026-01-03 11:10:57.12	308.02	36.35	-28.2	-29.7	14.6	1.50e-06	0	43	0	900726784	17	4271
2026-01-03 11:10:58.12	308.30	36.18	-28.2	-29.7	14.7	0.00e+00	0	43	0	903872512	17	4263
2026-01-03 11:10:59.12	308.58	36.01	-28.0	-29.2	15.0	0.00e+00	0	43	0	907018240	17	4115
2026-01-03 11:11:00.12	308.86	35.84	-28.0	-29.3	14.9	0.00e+00	0	43	0	910163968	17	4146
2026-01-03 11:11:01.13	309.14	35.67	-28.1	-29.5	14.8	0.00e+00	0	43	0	913309696	17	4214
2026-01-03 11:11:02.13	309.41	35.50	-28.1	-29.4	14.8	0.00e+00	0	43	0	916455424	17	4183
2026-01-03 11:11:03.14	309.68	35.32	-28.1	-29.4	14.8	0.00e+00	0	43	0	919601152	17	4196
2026-01-03 11:11:04.14	309.95	35.15	-28.1	-29.5	14.8	0.00e+00	0	43	0	922746880	17	4205
2026-01-03 11:11:05.16	310.22	34.98	-28.0	-29.2	14.9	0.00e+00	0	43	0	925892608	17	4126
2026-01-03 11:11:06.16	310.48	34.81	-28.1	-29.3	14.9	7.00e-07	0	43	0	929038336	17	4151
2026-01-03 11:11:07.17	310.74	34.64	-27.9	-28.9	15.1	0.00e+00	0	43	0	932184064	17	4050
2026-01-03 11:11:08.18	311.00	34.47	-28.0	-29.3	14.9	0.00e+00	0	43	0	936378368	17	4157
2026-01-03 11:11:09.19	311.25	34.30	-28.3	-29.8	14.6	0.00e+00	0	43	0	939524096	17	4297
2026-01-03 11:11:10.20	311.51	34.13	-28.3	-30.0	14.5	0.00e+00	0	43	0	941621248	17	4352
2026-01-03 11:11:11.21	311.76	33.96	-28.4	-30.1	14.4	1.50e-06	0	43	0	944766976	17	4369
2026-01-03 11:11:12.21	312.00	33.80	-28.5	-30.3	14.3	1.50e-06	0	43	0	947912704	17	4431
2026-01-03 11:11:13.22	312.25	33.63	-28.2	-29.7	14.6	7.00e-07	0	43	0	951058432	17	4274
2026-01-03 11:11:14.22	312.49	33.46	-28.1	-29.3	14.9	0.00e+00	0	43	0	954204160	17	4163
2026-01-03 11:11:15.22	312.73	33.30	-28.0	-29.3	14.9	1.50e-06	0	43	0	957349888	17	4153
2026-01-03 11:11:16.22	312.96	33.13	-28.2	-29.8	14.6	0.00e+00	0	43	0	960495616	17	4290
2026-01-03 11:11:17.22	313.20	32.96	-28.1	-29.5	14.7	7.00e-07	0	43	0	963641344	17	4224
2026-01-03 11:11:18.22	313.43	32.80	-28.2	-29.6	14.7	0.00e+00	0	43	0	966787072	17	4232
2026-01-03 11:11:19.22	313.66	32.63	-28.2	-29.7	14.6	7.00e-07	0	43	0	969932800	17	4271
2026-01-03 11:11:20.23	313.89	32.47	-28.0	-29.2	14.9	0.00e+00	0	43	0	973078528	17	4126
2026-01-03 11:11:21.23	314.11	32.31	-27.9	-28.9	15.1	0.00e+00	0	43	0	976224256	17	4053
2026-01-03 11:11:22.24	314.33	32.14	-27.8	-28.8	15.2	0.00e+00	0	43	0	979369984	17	4020
2026-01-03 11:11:23.24	314.55	31.98	-27.8	-28.8	15.1	7.00e-07	0	43	0	982515712	17	4027
2026-01-03 11:11:24.25	314.77	31.81	-27.7	-28.9	15.3	0.00e+00	0	43	0	985661440	16	4169
2026-01-03 11:11:25.25	314.99	31.65	-27.7	-29.0	15.3	0.00e+00	0	43	0	988807168	16	4174
2026-01-03 11:11:26.25	315.20	31.49	-27.8	-29.1	15.2	0.00e+00	0	43	0	991952896	16	4225
2026-01-03 11:11:27.26	315.42	31.33	-27.7	-29.0	15.3	0.00e+00	0	43	0	995098624	16	4178
2026-01-03 11:11:28.26	315.63	31.17	-27.6	-28.8	15.3	0.00e+00	0	43	0	998244352	16	4143
2026-01-03 11:11:29.27	315.84	31.01	-27.7	-29.0	15.3	0.00e+00	0	43	0	1001390080	16	4178
2026-01-03 11:11:30.28	316.04	30.84	-27.5	-28.6	15.5	0.00e+00	0	43	0	1004535808	16	4070
2026-01-03 11:11:31.28	316.25	30.69	-27.3	-28.2	15.7	0.00e+00	0	43	0	1007681536	16	3980
2026-01-03 11:11:32.29	316.45	30.53	-27.4	-28.3	15.7	0.00e+00	0	43	0	1010827264	16	3987
2026-01-03 11:11:33.29	316.65	30.37	-27.4	-28.4	15.6	0.00e+00	0	43	0	1013972992	16	4036
2026-01-03 11:11:34.29	316.85	30.21	-27.4	-28.4	15.6	0.00e+00	0	43	0	1017118720	16	4019
2026-01-03 11:11:35.30	317.05	30.05	-27.5	-28.5	15.5	0.00e+00	0	43	0	1020264448	16	4059
2026-01-03 11:11:36.31	317.24	29.89	-27.4	-28.3	15.6	0.00e+00	0	43	0	1023410176	16	4003
2026-01-03 11:11:37.31	317.43	29.74	-27.4	-28.4	15.6	0.00e+00	0	43	0	1026555904	16	4025
2026-01-03 11:11:38.32	317.63	29.58	-27.5	-28.5	15.5	0.00e+00	0	43	0	1029701632	16	4064
2026-01-03 11:11:39.32	317.81	29.43	-27.6	-28.8	15.4	0.00e+00	0	43	0	1032847360	16	4137
2026-01-03 11:11:40.32	318.00	29.27	-27.6	-28.8	15.4	0.00e+00	0	43	0	1035993088	16	4135
2026-01-03 11:11:41.33	318.19	29.12	-27.6	-28.8	15.4	0.00e+00	0	43	0	1039138816	16	4121
2026-01-03 11:11:42.34	318.37	28.96	-27.5	-28.5	15.5	0.00e+00	0	43	0	1042284544	16	4047
2026-01-03 11:11:43.35	318.56	28.81	-27.5	-28.5	15.5	0.00e+00	0	43	0	1045430272	16	4052
2026-01-03 11:11:44.36	318.74	28.65	-27.6	-28.7	15.4	0.00e+00	0	43	0	1048576000	16	4100
2026-01-03 11:11:45.37	318.92	28.50	-27.4	-28.3	15.6	0.00e+00	0	43	0	1051721728	16	4012
2026-01-03 11:11:46.38	319.10	28.35	-27.4	-28.3	15.6	0.00e+00	0	43	0	1054867456	16	4011
2026-01-03 11:11:47.38	319.27	28.20	-27.4	-28.3	15.6	0.00e+00	0	43	0	1058013184	16	3995
2026-01-03 11:11:48.39	319.45	28.05	-27.4	-28.4	15.6	0.00e+00	0	43	0	1061158912	16	4025
2026-01-03 11:11:49.40	319.62	27.89	-27.3	-28.1	15.7	0.00e+00	0	43	0	1064304640	16	3960
2026-01-03 11:11:50.41	319.79	27.74	-27.3	-28.2	15.7	0.00e+00	0	43	0	1067450368	16	3971
2026-01-03 11:11:51.41	319.96	27.60	-27.3	-28.1	15.7	0.00e+00	0	43	0	1070596096	16	3953
2026-01-03 11:11:52.41	320.13	27.45	-27.0	-27.9	15.9	0.00e+00	0	43	0	1073741824	15	4002
2026-01-03 11:11:53.42	320.29	27.30	-26.9	-27.8	16.0	0.00e+00	0	44	0	1076887552	15	3990
2026-01-03 11:11:54.43	320.46	27.15	-27.0	-27.9	15.9	0.00e+00	0	43	0	1080033280	15	4023
2026-01-03 11:11:55.43	320.62	27.01	-26.9	-27.9	15.9	0.00e+00	0	43	0	1083179008	15	4001
2026-01-03 11:11:56.44	320.78	26.86	-26.8	-27.5	16.1	0.00e+00	0	43	0	1086324736	15	3909
2026-01-03 11:11:57.44	320.94	26.71	-26.8	-27.9	16.1	0.00e+00	0	43	0	1089470464	14	4127
2026-01-03 11:11:58.44	321.10	26.57	-26.9	-28.2	16.0	0.00e+00	0	43	0	1092616192	14	4203
2026-01-03 11:11:59.45	321.26	26.42	-27.0	-28.5	15.8	0.00e+00	0	43	0	1095761920	14	4270
2026-01-03 11:12:00.45	321.42	26.28	-27.0	-28.6	15.8	0.00e+00	0	43	0	1098907648	14	4296
2026-01-03 11:12:01.45	321.57	26.14	-27.1	-28.8	15.7	0.00e+00	0	43	0	1102053376	14	4353
2026-01-03 11:12:02.46	321.72	25.99	-27.1	-28.8	15.6	0.00e+00	0	43	0	1105199104	14	4376
2026-01-03 11:12:03.47	321.88	25.85	-27.1	-28.8	15.6	0.00e+00	0	43	0	1108344832	14	4369
2026-01-03 11:12:04.48	322.03	25.71	-27.1	-28.8	15.6	0.00e+00	0	43	0	1111490560	14	4373
2026-01-03 11:12:05.49	322.18	25.57	-27.3	-29.1	15.5	0.00e+00	0	43	0	1114636288	14	4439
2026-01-03 11:12:06.49	322.33	25.43	-27.2	-29.0	15.5	0.00e+00	0	43	0	1117782016	14	4427
2026-01-03 11:12:07.49	322.47	25.29	-26.9	-28.3	15.9	0.00e+00	0	43	0	1120927744	14	4227
2026-01-03 11:12:08.50	322.62	25.15	-26.7	-27.8	16.2	0.00e+00	0	43	0	1124073472	14	4086
2026-01-03 11:12:09.50	322.76	25.01	-26.6	-27.5	16.3	0.00e+00	0	43	0	1127219200	14	4022
2026-01-03 11:12:10.51	322.91	24.87	-26.5	-27.4	16.4	0.00e+00	0	43	0	1130364928	14	3987
2026-01-03 11:12:11.51	323.05	24.73	-26.5	-27.4	16.4	0.00e+00	0	43	0	1133510656	14	3994
2026-01-03 11:12:12.52	323.19	24.59	-26.5	-27.3	16.4	0.00e+00	0	43	0	1136656384	14	3959
2026-01-03 11:12:13.53	323.33	24.46	-26.5	-27.5	16.3	0.00e+00	0	43	0	1139802112	14	4000
2026-01-03 11:12:14.54	323.47	24.32	-26.6	-27.6	16.2	0.00e+00	0	43	0	1142947840	14	4043
2026-01-03 11:12:15.54	323.61	24.18	-26.7	-27.8	16.1	0.00e+00	0	43	0	1146093568	14	4105
2026-01-03 11:12:16.54	323.74	24.05	-26.7	-27.9	16.0	0.00e+00	0	43	0	1149239296	14	4131
2026-01-03 11:12:17.55	323.88	23.91	-26.8	-28.0	16.0	0.00e+00	0	43	0	1152385024	14	4147
2026-01-03 11:12:18.55	324.01	23.78	-26.9	-28.2	16.0	0.00e+00	0	43	0	1155530752	14	4197
2026-01-03 11:12:19.55	324.14	23.65	-26.9	-28.2	15.9	0.00e+00	0	43	0	1158676480	14	4196
2026-01-03 11:12:20.55	324.28	23.51	-26.8	-28.0	16.1	0.00e+00	0	43	0	1161822208	14	4133
2026-01-03 11:12:21.56	324.41	23.38	-26.8	-28.2	16.0	0.00e+00	0	43	0	1164967936	14	4189
2026-01-03 11:12:22.56	324.54	23.25	-26.8	-28.1	16.0	0.00e+00	0	43	0	1168113664	14	4165
2026-01-03 11:12:23.57	324.67	23.12	-26.7	-27.8	16.1	0.00e+00	0	43	0	1171259392	14	4087
2026-01-03 11:12:24.58	324.79	22.99	-26.7	-27.9	16.1	0.00e+00	0	43	0	1174405120	14	4111
2026-01-03 11:12:25.58	324.92	22.86	-26.8	-28.0	16.0	0.00e+00	0	43	0	1177550848	14	4139
2026-01-03 11:12:26.58	325.04	22.73	-26.8	-28.0	16.0	0.00e+00	0	43	0	1180696576	14	4148
2026-01-03 11:12:27.58	325.17	22.60	-26.9	-28.2	15.9	0.00e+00	0	43	0	1183842304	14	4205
2026-01-03 11:12:28.59	325.29	22.47	-26.9	-28.4	15.8	0.00e+00	0	43	0	1186988032	14	4242
2026-01-03 11:12:29.60	325.42	22.34	-26.9	-28.4	15.7	0.00e+00	0	43	0	1190133760	14	4249
2026-01-03 11:12:30.60	325.54	22.21	-27.0	-28.5	15.7	0.00e+00	0	43	0	1193279488	14	4265
2026-01-03 11:12:31.61	325.66	22.08	-27.0	-28.4	15.7	0.00e+00	0	43	0	1196425216	14	4261
2026-01-03 11:12:32.61	325.78	21.96	-27.0	-28.4	15.7	0.00e+00	0	43	0	1199570944	14	4260
2026-01-03 11:12:33.62	325.90	21.83	-27.0	-28.4	15.7	0.00e+00	0	43	0	1202716672	14	4265
2026-01-03 11:12:34.63	326.02	21.70	-27.0	-28.4	15.8	0.00e+00	0	43	0	1205862400	14	4256
2026-01-03 11:12:35.64	326.13	21.58	-27.0	-28.6	15.6	0.00e+00	0	43	0	1209008128	14	4325
2026-01-03 11:12:36.64	326.25	21.45	-27.1	-28.7	15.6	0.00e+00	0	43	0	1212153856	14	4342
2026-01-03 11:12:37.65	326.36	21.33	-27.1	-28.8	15.5	0.00e+00	0	43	0	1215299584	14	4382
2026-01-03 11:12:38.65	326.48	21.21	-27.1	-28.8	15.5	0.00e+00	0	43	0	1218445312	14	4363
2026-01-03 11:12:39.65	326.59	21.08	-27.2	-28.9	15.5	0.00e+00	0	43	0	1221591040	14	4391
2026-01-03 11:12:40.66	326.70	20.96	-27.3	-29.1	15.4	0.00e+00	0	43	0	1224736768	14	4451
2026-01-03 11:12:41.66	326.81	20.84	-27.3	-29.2	15.3	0.00e+00	0	43	0	1227882496	14	4488
2026-01-03 11:12:42.67	326.93	20.72	-27.3	-29.3	15.2	0.00e+00	0	43	0	1231028224	14	4513
2026-01-03 11:12:43.68	327.04	20.60	-27.4	-29.4	15.2	0.00e+00	0	43	0	1234173952	14	4542
2026-01-03 11:12:44.69	327.15	20.47	-27.4	-29.5	15.1	0.00e+00	0	44	0	1237319680	14	4567
2026-01-03 11:12:45.69	327.25	20.35	-28.0	-29.9	15.0	0.00e+00	0	43	0	1240465408	15	4479
2026-01-03 11:12:46.70	327.36	20.23	-27.7	-29.6	14.8	0.00e+00	0	43	0	1243611136	15	4502
2026-01-03 11:12:47.71	327.47	20.11	-27.6	-29.4	14.9	0.00e+00	0	43	0	1246756864	15	4416
2026-01-03 11:12:48.72	327.58	19.99	-27.4	-28.9	15.2	0.00e+00	0	43	0	1249902592	15	4285
2026-01-03 11:12:49.73	327.68	19.88	-27.2	-28.6	15.4	0.00e+00	0	43	0	1253048320	15	4201
2026-01-03 11:12:50.74	327.79	19.76	-27.2	-28.5	15.4	0.00e+00	0	43	0	1256194048	15	4174
2026-01-03 11:12:51.74	327.89	19.64	-27.1	-28.3	15.5	0.00e+00	0	43	0	1259339776	15	4137
2026-01-03 11:12:52.75	327.99	19.52	-27.1	-28.3	15.4	0.00e+00	0	43	0	1262485504	15	4137
2026-01-03 11:12:53.75	328.09	19.41	-27.1	-28.3	15.5	0.00e+00	0	43	0	1265631232	15	4118
2026-01-03 11:12:54.75	328.20	19.29	-27.0	-28.1	15.6	0.00e+00	0	43	0	1268776960	15	4070
2026-01-03 11:12:55.75	328.30	19.18	-27.1	-28.4	15.4	0.00e+00	0	43	0	1271922688	15	4141
2026-01-03 11:12:56.76	328.40	19.06	-27.1	-28.2	15.5	0.00e+00	0	43	0	1275068416	15	4111
2026-01-03 11:12:57.76	328.49	18.95	-27.0	-28.1	15.5	0.00e+00	0	44	0	1278214144	15	4074
2026-01-03 11:12:58.76	328.59	18.83	-27.1	-28.3	15.4	0.00e+00	0	44	0	1281359872	15	4120
2026-01-03 11:12:59.77	328.69	18.72	-27.1	-28.2	15.5	0.00e+00	0	43	0	1284505600	15	4094
2026-01-03 11:13:00.78	328.79	18.60	-27.1	-28.2	15.5	0.00e+00	0	43	0	1287651328	15	4104
2026-01-03 11:13:01.78	328.88	18.49	-27.2	-28.5	15.3	0.00e+00	0	43	0	1290797056	15	4171
2026-01-03 11:13:02.79	328.98	18.38	-27.1	-28.3	15.4	0.00e+00	0	43	0	1293942784	15	4120
2026-01-03 11:13:03.80	329.08	18.27	-27.0	-28.0	15.6	0.00e+00	0	43	0	1297088512	15	4035
2026-01-03 11:13:04.81	329.17	18.15	-27.0	-28.0	15.6	0.00e+00	0	43	0	1300234240	15	4045
2026-01-03 11:13:05.81	329.26	18.04	-26.9	-27.7	15.7	0.00e+00	0	43	0	1303379968	15	3981
2026-01-03 11:13:06.82	329.36	17.93	-26.9	-27.8	15.7	0.00e+00	0	44	0	1306525696	15	3996
2026-01-03 11:13:07.82	329.45	17.82	-27.1	-28.2	15.5	0.00e+00	0	43	0	1309671424	15	4099
2026-01-03 11:13:08.83	329.54	17.71	-27.1	-28.3	15.4	0.00e+00	0	43	0	1312817152	15	4120
2026-01-03 11:13:09.84	329.63	17.60	-27.1	-28.3	15.4	7.00e-07	0	43	0	1315962880	15	4136
2026-01-03 11:13:10.84	329.72	17.49	-27.2	-28.6	15.2	0.00e+00	0	43	0	1319108608	15	4193
2026-01-03 11:13:11.85	329.81	17.39	-27.3	-28.7	15.1	0.00e+00	0	43	0	1322254336	15	4229
2026-01-03 11:13:12.86	329.90	17.28	-27.3	-28.8	15.1	0.00e+00	0	43	0	1325400064	15	4256
2026-01-03 11:13:13.86	329.99	17.17	-27.5	-29.2	14.8	0.00e+00	0	43	0	1328545792	15	4380
2026-01-03 11:13:14.87	330.08	17.06	-27.4	-29.1	14.9	7.00e-07	0	43	0	1331691520	15	4333
2026-01-03 11:13:15.87	330.17	16.96	-27.4	-28.9	15.0	0.00e+00	0	44	0	1334837248	15	4288
2026-01-03 11:13:16.88	330.26	16.85	-27.4	-28.9	15.0	0.00e+00	0	43	0	1337982976	15	4299
2026-01-03 11:13:17.89	330.34	16.74	-27.5	-29.1	14.9	0.00e+00	0	44	0	1341128704	15	4349
2026-01-03 11:13:18.89	330.43	16.64	-27.5	-29.2	14.8	0.00e+00	0	44	0	1344274432	15	4386
2026-01-03 11:13:19.89	330.51	16.53	-27.7	-29.6	14.6	0.00e+00	0	43	0	1347420160	15	4482
2026-01-03 11:13:20.90	330.60	16.43	-27.7	-29.7	14.5	7.00e-07	0	43	0	1350565888	15	4511
2026-01-03 11:13:21.91	330.68	16.32	-27.8	-30.0	14.3	7.00e-07	0	43	0	1353711616	15	4622
2026-01-03 11:13:22.91	330.76	16.22	-27.9	-30.1	14.3	1.50e-06	0	43	0	1356857344	15	4657
2026-01-03 11:13:23.92	330.85	16.11	-28.2	-30.3	14.0	0.00e+00	0	43	0	1360003072	16	4589
2026-01-03 11:13:24.93	330.93	16.01	-28.2	-30.2	14.1	7.00e-07	0	44	0	1363148800	16	4568
2026-01-03 11:13:25.93	331.01	15.91	-28.3	-30.6	13.9	2.20e-06	0	43	0	1366294528	16	4676
2026-01-03 11:13:26.94	331.09	15.80	-28.3	-30.6	13.9	3.80e-06	0	43	0	1369440256	16	4680
2026-01-03 11:13:27.95	331.18	15.70	-28.3	-30.5	13.9	3.00e-06	0	43	0	1372585984	16	4667
2026-01-03 11:13:28.96	331.26	15.60	-28.4	-30.8	13.7	5.30e-06	0	44	0	1375731712	16	4756
2026-01-03 11:13:29.96	331.34	15.50	-28.2	-30.4	13.9	2.20e-06	0	43	0	1378877440	16	4630
2026-01-03 11:13:30.97	331.42	15.40	-28.1	-30.1	14.1	2.20e-06	0	44	0	1382023168	16	4532
2026-01-03 11:13:31.97	331.49	15.30	-28.2	-30.2	14.0	7.00e-07	0	43	0	1385168896	16	4569
2026-01-03 11:13:32.97	331.57	15.20	-28.0	-29.8	14.2	1.50e-06	0	43	0	1388314624	16	4455
2026-01-03 11:13:33.97	331.65	15.10	-28.1	-30.2	14.0	7.00e-07	0	43	0	1391460352	16	4547
2026-01-03 11:13:34.98	331.73	15.00	-28.0	-29.7	14.2	2.20e-06	0	43	0	1394606080	16	4419
2026-01-03 11:13:35.99	331.80	14.90	-27.8	-29.5	14.3	1.50e-06	0	43	0	1397751808	16	4354
2026-01-03 11:13:37.00	331.88	14.80	-27.9	-29.6	14.1	7.00e-07	0	43	0	1400897536	16	4382
2026-01-03 11:13:38.01	331.96	14.70	-28.0	-29.8	13.9	3.00e-06	0	43	0	1404043264	16	4441
2026-01-03 11:13:39.01	332.03	14.60	-27.9	-29.7	13.8	3.00e-06	0	43	0	1407188992	16	4426
2026-01-03 11:13:40.02	332.11	14.50	-28.0	-29.9	13.8	5.30e-06	0	43	0	1410334720	16	4469
2026-01-03 11:13:41.02	332.18	14.41	-28.1	-30.1	13.8	4.50e-06	0	43	0	1413480448	16	4535
2026-01-03 11:13:42.02	332.26	14.31	-28.0	-30.0	13.9	2.20e-06	0	43	0	1416626176	16	4512
2026-01-03 11:13:43.03	332.33	14.21	-28.1	-30.2	14.0	7.00e-07	0	44	0	1419771904	16	4553
2026-01-03 11:13:44.04	332.40	14.12	-28.0	-30.0	14.2	3.00e-06	0	43	0	1422917632	16	4492
2026-01-03 11:13:45.04	332.48	14.02	-28.0	-29.9	14.2	7.00e-07	0	43	0	1426063360	16	4484
2026-01-03 11:13:46.05	332.55	13.92	-28.1	-30.0	14.1	1.50e-06	0	43	0	1429209088	16	4510
2026-01-03 11:13:47.06	332.62	13.83	-28.0	-29.8	14.3	1.50e-06	0	43	0	1432354816	16	4448
2026-01-03 11:13:48.06	332.69	13.73	-28.0	-29.8	14.2	7.00e-07	0	43	0	1435500544	16	4455
2026-01-03 11:13:49.07	332.76	13.64	-28.1	-30.1	13.8	4.50e-06	0	43	0	1438646272	16	4550
2026-01-03 11:13:50.08	332.83	13.54	-28.0	-29.8	13.9	4.50e-06	0	43	0	1441792000	16	4438
2026-01-03 11:13:51.09	332.90	13.45	-27.8	-29.5	14.0	1.50e-06	0	44	0	1444937728	16	4359
2026-01-03 11:13:52.10	332.97	13.36	-27.9	-29.6	13.8	1.50e-06	0	43	0	1448083456	16	4388
2026-01-03 11:13:53.11	333.04	13.26	-27.9	-29.7	13.7	8.30e-06	0	43	0	1451229184	16	4423
2026-01-03 11:13:54.11	333.11	13.17	-28.0	-29.9	13.9	3.80e-06	0	43	0	1454374912	16	4479
2026-01-03 11:13:55.11	333.18	13.08	-28.0	-29.9	14.1	3.00e-06	0	43	0	1457520640	16	4474
2026-01-03 11:13:56.11	333.25	12.98	-28.1	-30.0	14.1	3.00e-06	0	43	0	1460666368	16	4506
2026-01-03 11:13:57.12	333.32	12.89	-28.0	-30.0	13.6	6.10e-06	0	43	0	1463812096	16	4509
2026-01-03 11:13:58.13	333.38	12.80	-28.0	-30.1	12.6	3.28e-05	0	43	0	1466957824	16	4566
2026-01-03 11:13:59.13	333.45	12.71	-28.0	-30.3	11.7	2.99e-04	0	43	0	1470103552	16	4644
2026-01-03 11:14:00.13	333.52	12.62	-27.9	-29.9	11.2	7.19e-04	0	43	0	1473249280	16	4531
2026-01-03 11:14:01.14	333.58	12.53	-28.1	-30.5	11.3	8.32e-04	0	43	0	1476395008	16	4716
2026-01-03 11:14:02.14	333.65	12.44	-28.1	-30.2	12.0	3.71e-04	0	43	0	1479540736	16	4627
2026-01-03 11:14:03.15	333.71	12.35	-28.1	-30.2	12.8	6.79e-05	0	43	0	1482686464	16	4598
2026-01-03 11:14:04.15	333.78	12.26	-28.2	-30.3	13.4	1.44e-05	0	44	0	1485832192	16	4620
2026-01-03 11:14:05.15	333.84	12.17	-28.3	-30.5	13.7	6.80e-06	0	43	0	1488977920	16	4653
2026-01-03 11:14:06.16	333.91	12.08	-28.2	-30.4	13.5	9.10e-06	0	43	0	1492123648	16	4627
2026-01-03 11:14:07.16	333.97	11.99	-28.2	-30.3	13.2	1.52e-05	0	43	0	1495269376	16	4606
2026-01-03 11:14:08.17	334.03	11.90	-28.2	-30.4	13.2	1.75e-05	0	43	0	1498415104	16	4631
2026-01-03 11:14:09.18	334.10	11.81	-28.3	-30.6	13.2	1.83e-05	0	44	0	1501560832	16	4706
2026-01-03 11:14:10.18	334.16	11.72	-28.2	-30.5	13.4	1.37e-05	0	43	0	1504706560	16	4672
2026-01-03 11:14:11.19	334.22	11.64	-28.3	-30.7	13.0	3.12e-05	0	43	0	1507852288	16	4744
2026-01-03 11:14:12.19	334.29	11.55	-28.3	-30.6	12.9	2.82e-05	0	43	0	1510998016	16	4721
2026-01-03 11:14:13.18	334.35	11.46	-28.3	-30.7	12.7	7.47e-05	0	43	0	1514143744	16	4745
2026-01-03 11:14:14.19	334.41	11.37	-28.3	-30.7	12.6	9.15e-05	0	43	0	1517289472	16	4741
2026-01-03 11:14:15.19	334.47	11.29	-28.3	-30.7	12.5	1.01e-04	0	43	0	1520435200	16	4773
2026-01-03 11:14:16.20	334.53	11.20	-28.4	-30.9	12.4	1.50e-04	0	43	0	1523580928	16	4828
2026-01-03 11:14:17.20	334.59	11.12	-28.3	-30.8	12.9	4.95e-05	0	43	0	1526726656	16	4768
2026-01-03 11:14:18.21	334.65	11.03	-28.3	-30.7	13.2	2.21e-05	0	43	0	1529872384	16	4744
2026-01-03 11:14:19.21	334.71	10.94	-28.4	-30.8	13.4	1.52e-05	0	43	0	1533018112	16	4770
2026-01-03 11:14:20.21	334.77	10.86	-28.4	-31.0	13.4	1.37e-05	0	43	0	1536163840	16	4827
2026-01-03 11:14:21.22	334.83	10.77	-28.3	-30.7	13.4	1.44e-05	0	43	0	1539309568	16	4726
2026-01-03 11:14:22.23	334.89	10.69	-28.2	-30.5	13.3	1.22e-05	0	43	0	1542455296	16	4691
2026-01-03 11:14:23.23	334.95	10.60	-28.3	-30.6	13.2	2.67e-05	0	43	0	1545601024	16	4699
2026-01-03 11:14:24.24	335.01	10.52	-28.3	-30.7	13.3	1.90e-05	0	43	0	1548746752	16	4737
2026-01-03 11:14:25.25	335.06	10.44	-28.4	-30.8	13.3	1.44e-05	0	43	0	1551892480	16	4783
2026-01-03 11:14:26.26	335.12	10.35	-28.4	-30.9	13.4	1.37e-05	0	43	0	1555038208	16	4797
2026-01-03 11:14:27.25	335.18	10.27	-28.5	-30.6	13.3	2.44e-05	0	43	0	1558183936	17	4586
2026-01-03 11:14:28.26	335.24	10.19	-28.4	-30.5	13.3	1.60e-05	0	43	0	1561329664	17	4572
2026-01-03 11:14:29.26	335.29	10.10	-28.5	-30.6	13.2	2.82e-05	0	43	0	1564475392	17	4586
2026-01-03 11:14:30.27	335.35	10.02	-28.5	-30.6	13.1	2.89e-05	0	43	0	1567621120	17	4605
2026-01-03 11:14:31.28	335.40	9.94	-28.5	-30.7	13.1	2.59e-05	0	43	0	1570766848	17	4618
2026-01-03 11:14:32.28	335.46	9.86	-28.5	-30.7	13.1	3.96e-05	0	43	0	1573912576	17	4644
2026-01-03 11:14:33.28	335.52	9.77	-28.6	-30.9	13.1	3.35e-05	0	43	0	1577058304	17	4677
2026-01-03 11:14:34.29	335.57	9.69	-28.6	-30.9	13.0	3.05e-05	0	43	0	1580204032	17	4690
2026-01-03 11:14:35.29	335.63	9.61	-28.6	-31.0	12.9	5.03e-05	0	43	0	1583349760	17	4730
2026-01-03 11:14:36.30	335.68	9.53	-28.6	-31.0	12.9	3.12e-05	0	43	0	1586495488	17	4715
2026-01-03 11:14:37.31	335.74	9.45	-28.6	-31.0	12.9	4.04e-05	0	43	0	1589641216	17	4718
2026-01-03 11:14:38.32	335.79	9.37	-28.6	-31.0	12.9	4.65e-05	0	43	0	1592786944	17	4720
2026-01-03 11:14:39.33	335.84	9.29	-28.6	-30.9	13.0	4.88e-05	0	43	0	1595932672	17	4703
2026-01-03 11:14:40.34	335.90	9.21	-28.7	-31.1	12.9	4.42e-05	0	43	0	1599078400	17	4756
2026-01-03 11:14:41.35	335.95	9.13	-28.6	-31.0	12.9	4.57e-05	0	43	0	1602224128	17	4728
2026-01-03 11:14:42.35	336.00	9.05	-28.7	-31.1	12.9	6.25e-05	0	43	0	1605369856	17	4746
2026-01-03 11:14:43.36	336.06	8.97	-28.6	-30.9	12.9	4.57e-05	0	43	0	1608515584	17	4711
2026-01-03 11:14:44.37	336.11	8.89	-28.7	-31.2	12.8	4.42e-05	0	43	0	1611661312	17	4783
2026-01-03 11:14:45.37	336.16	8.81	-28.8	-31.3	12.7	7.24e-05	0	43	0	1614807040	17	4837
2026-01-03 11:14:46.38	336.22	8.73	-28.7	-31.2	12.7	6.94e-05	0	43	0	1617952768	17	4801
2026-01-03 11:14:47.38	336.27	8.65	-28.7	-31.3	12.7	8.31e-05	0	43	0	1621098496	17	4816
2026-01-03 11:14:48.39	336.32	8.57	-28.7	-31.3	12.7	7.85e-05	0	43	0	1624244224	17	4830
2026-01-03 11:14:49.39	336.37	8.49	-28.7	-31.2	12.7	7.17e-05	0	43	0	1627389952	17	4811
2026-01-03 11:14:50.40	336.42	8.42	-28.8	-31.4	12.5	1.16e-04	0	43	0	1630535680	17	4872
2026-01-03 11:14:51.41	336.47	8.34	-28.8	-31.5	12.5	1.22e-04	0	43	0	1633681408	17	4890
2026-01-03 11:14:52.42	336.52	8.26	-28.9	-31.6	12.5	1.07e-04	0	43	0	1636827136	17	4920
2026-01-03 11:14:53.43	336.57	8.18	-28.8	-31.6	12.4	1.26e-04	0	43	0	1639972864	17	4926
2026-01-03 11:14:54.43	336.62	8.11	-28.9	-31.6	12.4	1.51e-04	0	43	0	1643118592	17	4952
2026-01-03 11:14:55.44	336.67	8.03	-28.9	-31.7	12.3	1.39e-04	0	44	0	1646264320	17	4990
2026-01-03 11:14:56.45	336.72	7.95	-28.9	-31.8	12.3	2.23e-04	0	43	0	1649410048	17	5011
2026-01-03 11:14:57.45	336.77	7.88	-28.9	-31.8	12.3	2.15e-04	0	43	0	1652555776	17	5016
2026-01-03 11:14:58.45	336.82	7.80	-28.9	-31.8	12.2	1.94e-04	0	43	0	1655701504	17	5029
2026-01-03 11:14:59.46	336.87	7.72	-29.0	-31.5	12.1	2.55e-04	0	43	0	1658847232	18	4791
2026-01-03 11:15:00.47	336.92	7.65	-28.9	-31.3	12.2	2.22e-04	0	43	0	1661992960	18	4745
2026-01-03 11:15:01.47	336.97	7.57	-29.0	-31.5	12.1	2.58e-04	0	43	0	1665138688	18	4783
2026-01-03 11:15:02.48	337.02	7.50	-29.1	-31.7	12.0	3.01e-04	0	43	0	1668284416	18	4854
2026-01-03 11:15:03.49	337.06	7.42	-29.0	-31.6	12.0	2.66e-04	0	43	0	1671430144	18	4841
2026-01-03 11:15:04.49	337.11	7.35	-29.1	-31.8	11.9	3.26e-04	0	44	0	1674575872	18	4890
2026-01-03 11:15:05.50	337.16	7.27	-29.1	-31.7	12.0	3.62e-04	0	43	0	1677721600	18	4871
2026-01-03 11:15:06.51	337.21	7.20	-29.1	-31.8	11.9	3.57e-04	0	43	0	1680867328	18	4889
2026-01-03 11:15:07.52	337.25	7.12	-29.1	-31.8	11.9	3.80e-04	0	43	0	1684013056	18	4904
2026-01-03 11:15:08.52	337.30	7.05	-32.9	-44.6	3.8	8.38e-01	0	43	104	1686110208	25	13851
2026-01-03 11:15:09.52	337.35	6.97	-33.2	-45.3	3.8	1.49e+00	0	43	104	1686110208	26	14476
2026-01-03 11:15:10.53	337.39	6.90	-33.5	-45.8	3.8	1.49e+00	0	43	104	1686110208	26	14861
2026-01-03 11:15:11.53	337.44	6.83	-33.6	-45.5	3.8	1.49e+00	0	43	104	1686110208	27	14211

#Closed at: 2026-01-03 11:15:11
#Recorded file [1686 MB]: D:/data/31010_260103_140608.dat