passes_logs/2026/01/03/R2M6_AANII_01/R2M6_AANII_01__20260103_141618_FENGYUN_3D_rec.log

#Pass ID: 20260103_141618_FENGYUN 3D
#Satellite: FENGYUN 3D
#Configuration: FENGYUN 3D
#almurnet v.1.7.20240730
#Start time: 2026-01-03 14:16:18

#Version: 2.2.20231116
#Station: R2M6_AANII_01
#Location: 30.233357 lon 59.946436 lat
#TLE: 1 43010U 17072A   26002.95198047  .00000207  00000+0  11963-3 0  9999
#TLE: 2 43010  98.9912 334.5826 0001910 130.7105 229.4237 14.19692231421540

#Time	Az	El	Level	Level2	SNR	BER	BlckErr	Temp	State	Recorded	gain1	gain2
2026-01-03 14:16:18.47	224.85	7.01	-28.6	-30.6	5.6	7.56e-01	0	40	0	0	18	4535
2026-01-03 14:16:19.47	224.96	7.06	-28.5	-30.8	5.6	7.54e-01	0	41	104	0	17	4723
2026-01-03 14:16:20.47	225.08	7.12	-28.3	-30.3	12.0	3.07e-04	0	41	0	0	17	4569
2026-01-03 14:16:21.47	225.19	7.18	-28.3	-30.3	12.1	1.69e-04	0	41	0	5242880	17	4545
2026-01-03 14:16:22.48	225.30	7.23	-28.2	-30.2	12.1	2.22e-04	0	41	0	11534336	17	4521
2026-01-03 14:16:23.48	225.42	7.29	-28.1	-30.0	12.3	1.53e-04	0	41	0	16777216	17	4444
2026-01-03 14:16:24.49	225.53	7.35	-27.9	-29.4	12.6	7.78e-05	0	41	0	22020096	17	4281
2026-01-03 14:16:25.49	225.65	7.40	-27.8	-29.7	12.8	3.20e-05	0	41	0	28311552	16	4467
2026-01-03 14:16:26.49	225.76	7.46	-27.9	-29.8	12.8	3.20e-05	0	41	0	33554432	16	4495
2026-01-03 14:16:27.50	225.88	7.52	-27.8	-29.6	12.9	4.23e-05	0	41	0	38797312	16	4435
2026-01-03 14:16:28.50	226.00	7.57	-27.4	-28.6	13.4	1.37e-05	0	41	0	45088768	16	4160
2026-01-03 14:16:29.51	226.12	7.63	-26.9	-28.1	13.9	2.20e-06	0	41	0	50331648	15	4135
2026-01-03 14:16:30.52	226.23	7.69	-26.8	-28.2	14.1	0.00e+00	0	41	0	56623104	14	4260
2026-01-03 14:16:31.53	226.35	7.74	-26.6	-27.9	14.3	1.10e-06	0	41	0	61865984	14	4171
2026-01-03 14:16:32.53	226.47	7.80	-26.7	-28.0	14.3	0.00e+00	0	41	0	67108864	14	4190
2026-01-03 14:16:33.54	226.59	7.86	-26.6	-27.9	14.4	0.00e+00	0	41	0	73400320	14	4168
2026-01-03 14:16:34.54	226.71	7.91	-26.7	-28.0	14.3	0.00e+00	0	41	0	78643200	14	4198
2026-01-03 14:16:35.54	226.83	7.97	-26.8	-28.4	14.1	1.10e-06	0	41	0	84934656	14	4301
2026-01-03 14:16:36.55	226.95	8.03	-26.8	-28.4	14.1	0.00e+00	0	41	0	90177536	14	4302
2026-01-03 14:16:37.56	227.07	8.08	-26.8	-28.3	14.1	0.00e+00	0	41	0	95420416	14	4290
2026-01-03 14:16:38.57	227.19	8.14	-26.8	-28.3	14.1	2.20e-06	0	41	0	101711872	14	4280
2026-01-03 14:16:39.57	227.31	8.20	-26.6	-27.9	14.4	1.10e-06	0	41	0	106954752	14	4183
2026-01-03 14:16:40.57	227.44	8.26	-26.6	-27.8	14.4	1.10e-06	0	41	0	113246208	14	4145
2026-01-03 14:16:41.57	227.56	8.31	-26.5	-27.6	14.6	0.00e+00	0	41	0	118489088	14	4088
2026-01-03 14:16:42.58	227.68	8.37	-26.5	-27.6	14.5	0.00e+00	0	41	0	123731968	14	4096
2026-01-03 14:16:43.58	227.80	8.43	-26.3	-27.2	14.8	0.00e+00	0	41	0	130023424	14	3991
2026-01-03 14:16:44.59	227.93	8.48	-26.4	-27.5	14.7	0.00e+00	0	41	0	135266304	14	4050
2026-01-03 14:16:45.60	228.05	8.54	-26.3	-27.1	14.9	0.00e+00	0	41	0	140509184	14	3958
2026-01-03 14:16:46.61	228.18	8.60	-26.1	-27.1	15.1	0.00e+00	0	41	0	146800640	13	4074
2026-01-03 14:16:47.61	228.31	8.65	-26.0	-27.1	15.1	0.00e+00	0	42	0	152043520	13	4058
2026-01-03 14:16:48.61	228.43	8.71	-26.0	-27.0	15.2	1.10e-06	0	41	0	158334976	13	4046
2026-01-03 14:16:49.62	228.56	8.77	-26.1	-27.2	15.1	0.00e+00	0	42	0	163577856	13	4076
2026-01-03 14:16:50.62	228.68	8.83	-26.1	-27.3	15.1	0.00e+00	0	42	0	169869312	13	4105
2026-01-03 14:16:51.62	228.81	8.88	-26.2	-27.4	15.0	0.00e+00	0	42	0	175112192	13	4140
2026-01-03 14:16:52.63	228.94	8.94	-26.2	-27.5	14.9	0.00e+00	0	41	0	180355072	13	4171
2026-01-03 14:16:53.64	229.07	9.00	-26.2	-27.3	15.0	0.00e+00	0	42	0	186646528	13	4117
2026-01-03 14:16:54.65	229.20	9.05	-26.2	-27.3	15.0	0.00e+00	0	42	0	191889408	13	4128
2026-01-03 14:16:55.65	229.33	9.11	-26.2	-27.5	15.0	0.00e+00	0	42	0	197132288	13	4175
2026-01-03 14:16:56.66	229.46	9.17	-26.3	-27.8	14.8	0.00e+00	0	42	0	203423744	13	4238
2026-01-03 14:16:57.66	229.59	9.23	-26.4	-27.9	14.7	0.00e+00	0	42	0	208666624	13	4289
2026-01-03 14:16:58.67	229.72	9.28	-26.5	-28.1	14.6	0.00e+00	0	42	0	213909504	13	4323
2026-01-03 14:16:59.67	229.85	9.34	-26.4	-28.0	14.7	0.00e+00	0	42	0	220200960	13	4302
2026-01-03 14:17:00.67	229.98	9.40	-26.4	-27.9	14.8	1.10e-06	0	42	0	225443840	13	4284
2026-01-03 14:17:01.67	230.11	9.45	-26.4	-27.9	14.8	0.00e+00	0	42	0	231735296	13	4274
2026-01-03 14:17:02.68	230.25	9.51	-26.4	-27.9	14.8	0.00e+00	0	42	0	236978176	13	4261
2026-01-03 14:17:03.68	230.38	9.57	-26.4	-28.0	14.7	0.00e+00	0	42	0	243269632	13	4289
2026-01-03 14:17:04.68	230.51	9.62	-26.4	-27.8	14.9	0.00e+00	0	42	0	248512512	13	4246
2026-01-03 14:17:05.69	230.65	9.68	-26.3	-27.7	14.9	0.00e+00	0	42	0	253755392	13	4211
2026-01-03 14:17:06.69	230.78	9.74	-26.3	-27.6	14.9	0.00e+00	0	42	0	260046848	13	4209
2026-01-03 14:17:07.70	230.92	9.80	-26.3	-27.5	15.0	0.00e+00	0	42	0	265289728	13	4179
2026-01-03 14:17:08.71	231.05	9.85	-26.2	-27.5	15.0	0.00e+00	0	42	0	270532608	13	4174
2026-01-03 14:17:09.72	231.19	9.91	-26.3	-27.6	15.0	0.00e+00	0	42	0	276824064	13	4187
2026-01-03 14:17:10.72	231.33	9.97	-26.2	-27.4	15.1	0.00e+00	0	42	0	282066944	13	4134
2026-01-03 14:17:11.73	231.46	10.03	-26.1	-27.2	15.2	0.00e+00	0	42	0	288358400	13	4098
2026-01-03 14:17:12.74	231.60	10.08	-26.2	-27.5	15.1	0.00e+00	0	42	0	293601280	13	4166
2026-01-03 14:17:13.74	231.74	10.14	-26.2	-27.4	15.1	0.00e+00	0	42	0	298844160	13	4138
2026-01-03 14:17:14.75	231.88	10.20	-26.1	-27.3	15.1	0.00e+00	0	42	0	305135616	13	4108
2026-01-03 14:17:15.75	232.02	10.25	-26.1	-27.2	15.2	0.00e+00	0	42	0	310378496	13	4082
2026-01-03 14:17:16.75	232.16	10.31	-26.2	-27.5	15.0	0.00e+00	0	42	0	316669952	13	4154
2026-01-03 14:17:17.75	232.30	10.37	-26.2	-27.5	15.0	0.00e+00	0	42	0	321912832	13	4165
2026-01-03 14:17:18.76	232.44	10.42	-26.3	-27.6	15.0	0.00e+00	0	42	0	327155712	13	4174
2026-01-03 14:17:19.76	232.58	10.48	-26.3	-27.7	15.0	0.00e+00	0	42	0	333447168	13	4203
2026-01-03 14:17:20.78	232.73	10.54	-26.2	-27.5	15.1	0.00e+00	0	42	0	338690048	13	4148
2026-01-03 14:17:21.78	232.87	10.60	-26.1	-27.2	15.3	0.00e+00	0	42	0	344981504	13	4072
2026-01-03 14:17:22.78	233.01	10.65	-26.1	-27.1	15.3	0.00e+00	0	42	0	350224384	13	4044
2026-01-03 14:17:23.79	233.16	10.71	-26.1	-27.1	15.3	0.00e+00	0	42	0	355467264	13	4048
2026-01-03 14:17:24.79	233.30	10.77	-25.9	-26.8	15.5	0.00e+00	0	42	0	361758720	13	3982
2026-01-03 14:17:25.80	233.44	10.82	-26.1	-27.2	15.3	2.20e-06	0	42	0	367001600	13	4067
2026-01-03 14:17:26.81	233.59	10.88	-25.9	-26.7	15.5	0.00e+00	0	42	0	372244480	13	3951
2026-01-03 14:17:27.81	233.74	10.94	-25.7	-26.8	15.8	0.00e+00	0	42	0	378535936	12	4077
2026-01-03 14:17:28.82	233.88	10.99	-25.8	-27.0	15.6	4.50e-06	0	42	0	383778816	12	4143
2026-01-03 14:17:29.83	234.03	11.05	-25.8	-26.9	15.7	0.00e+00	0	42	0	390070272	12	4107
2026-01-03 14:17:30.83	234.18	11.11	-25.6	-26.6	15.9	0.00e+00	0	42	0	395313152	12	4037
2026-01-03 14:17:31.83	234.33	11.16	-25.8	-27.1	15.6	0.00e+00	0	42	0	401604608	12	4151
2026-01-03 14:17:32.84	234.47	11.22	-25.8	-27.0	15.7	0.00e+00	0	42	0	406847488	12	4135
2026-01-03 14:17:33.84	234.62	11.28	-25.8	-26.9	15.7	0.00e+00	0	42	0	412090368	12	4120
2026-01-03 14:17:34.85	234.77	11.33	-25.8	-27.0	15.7	0.00e+00	0	42	0	418381824	12	4136
2026-01-03 14:17:35.86	234.92	11.39	-25.7	-26.9	15.7	0.00e+00	0	42	0	423624704	12	4106
2026-01-03 14:17:36.87	235.08	11.45	-25.8	-27.0	15.7	0.00e+00	0	42	0	428867584	12	4124
2026-01-03 14:17:37.87	235.23	11.50	-25.7	-26.8	15.8	0.00e+00	0	42	0	435159040	12	4083
2026-01-03 14:17:38.88	235.38	11.56	-25.7	-26.7	15.8	0.00e+00	0	42	0	440401920	12	4071
2026-01-03 14:17:39.88	235.53	11.61	-25.7	-26.9	15.7	0.00e+00	0	42	0	446693376	12	4106
2026-01-03 14:17:40.89	235.69	11.67	-25.7	-26.9	15.7	0.00e+00	0	42	0	451936256	12	4107
2026-01-03 14:17:41.90	235.84	11.73	-25.8	-26.9	15.7	0.00e+00	0	42	0	457179136	12	4111
2026-01-03 14:17:42.90	235.99	11.78	-25.9	-27.2	15.6	0.00e+00	0	42	0	463470592	12	4196
2026-01-03 14:17:43.91	236.15	11.84	-25.8	-27.1	15.6	0.00e+00	0	42	0	468713472	12	4165
2026-01-03 14:17:44.92	236.31	11.90	-25.9	-27.3	15.5	0.00e+00	0	42	0	475004928	12	4220
2026-01-03 14:17:45.92	236.46	11.95	-26.2	-27.9	15.2	0.00e+00	0	42	0	480247808	12	4382
2026-01-03 14:17:46.93	236.62	12.01	-26.1	-27.6	15.3	0.00e+00	0	43	0	486539264	12	4306
2026-01-03 14:17:47.93	236.78	12.06	-26.3	-28.0	15.1	0.00e+00	0	42	0	491782144	12	4419
2026-01-03 14:17:48.94	236.93	12.12	-26.1	-27.6	15.3	0.00e+00	0	43	0	497025024	12	4298
2026-01-03 14:17:49.94	237.09	12.17	-25.9	-27.3	15.6	0.00e+00	0	42	0	503316480	12	4206
2026-01-03 14:17:50.95	237.25	12.23	-25.9	-27.3	15.5	0.00e+00	0	43	0	508559360	12	4215
2026-01-03 14:17:51.95	237.41	12.29	-25.9	-27.2	15.6	0.00e+00	0	43	0	513802240	12	4195
2026-01-03 14:17:52.96	237.57	12.34	-26.0	-27.4	15.5	0.00e+00	0	42	0	520093696	12	4248
2026-01-03 14:17:53.97	237.73	12.40	-26.2	-27.8	15.3	0.00e+00	0	42	0	525336576	12	4355
2026-01-03 14:17:54.97	237.89	12.45	-25.9	-27.3	15.6	0.00e+00	0	42	0	531628032	12	4209
2026-01-03 14:17:55.98	238.06	12.51	-25.7	-26.7	15.9	0.00e+00	0	42	0	536870912	12	4065
2026-01-03 14:17:56.99	238.22	12.56	-25.5	-26.4	16.1	0.00e+00	0	43	0	542113792	12	3977
2026-01-03 14:17:57.99	238.38	12.62	-25.5	-26.4	16.1	0.00e+00	0	43	0	548405248	12	3978
2026-01-03 14:17:59.00	238.55	12.67	-25.7	-26.7	15.9	0.00e+00	0	43	0	553648128	12	4066
2026-01-03 14:18:00.00	238.71	12.73	-25.5	-26.3	16.2	0.00e+00	0	43	0	559939584	12	3947
2026-01-03 14:18:01.01	238.87	12.78	-25.6	-26.5	16.1	0.00e+00	0	43	0	565182464	12	3994
2026-01-03 14:18:02.01	239.04	12.84	-25.8	-27.1	15.7	0.00e+00	0	43	0	570425344	12	4156
2026-01-03 14:18:03.02	239.21	12.89	-25.7	-26.7	15.9	0.00e+00	0	43	0	576716800	12	4041
2026-01-03 14:18:04.03	239.37	12.95	-25.6	-26.4	16.1	0.00e+00	0	43	0	581959680	12	3987
2026-01-03 14:18:05.04	239.54	13.00	-25.5	-26.3	16.2	0.00e+00	0	43	0	588251136	12	3946
2026-01-03 14:18:06.05	239.71	13.05	-25.5	-26.4	16.1	0.00e+00	0	43	0	593494016	12	3978
2026-01-03 14:18:07.06	239.88	13.11	-25.5	-26.3	16.2	0.00e+00	0	43	0	598736896	12	3946
2026-01-03 14:18:08.07	240.05	13.16	-25.3	-26.0	16.4	0.00e+00	0	43	0	605028352	12	3869
2026-01-03 14:18:09.07	240.22	13.22	-25.4	-26.0	16.3	0.00e+00	0	42	0	610271232	12	3880
2026-01-03 14:18:10.08	240.39	13.27	-25.5	-26.4	16.0	2.20e-06	0	43	0	616562688	12	3981
2026-01-03 14:18:11.08	240.56	13.32	-25.5	-26.2	16.2	0.00e+00	0	43	0	621805568	12	3936
2026-01-03 14:18:12.09	240.73	13.38	-25.4	-26.1	16.3	0.00e+00	0	43	0	627048448	12	3906
2026-01-03 14:18:13.09	240.90	13.43	-25.4	-26.2	16.2	2.20e-06	0	43	0	633339904	12	3935
2026-01-03 14:18:14.09	241.07	13.48	-25.3	-25.9	16.4	0.00e+00	0	43	0	638582784	12	3853
2026-01-03 14:18:15.09	241.25	13.54	-25.4	-26.5	16.4	0.00e+00	0	43	0	644874240	11	4115
2026-01-03 14:18:16.10	241.42	13.59	-25.2	-26.0	16.7	0.00e+00	0	43	0	650117120	11	3988
2026-01-03 14:18:17.11	241.60	13.64	-25.2	-26.1	16.7	0.00e+00	0	43	0	655360000	11	3994
2026-01-03 14:18:18.12	241.77	13.70	-25.4	-26.5	16.4	0.00e+00	0	43	0	661651456	11	4099
2026-01-03 14:18:19.12	241.95	13.75	-25.3	-26.3	16.5	0.00e+00	0	43	0	666894336	11	4063
2026-01-03 14:18:20.13	242.12	13.80	-25.2	-26.2	16.6	0.00e+00	0	43	0	673185792	11	4032
2026-01-03 14:18:21.13	242.30	13.86	-25.3	-26.4	16.5	0.00e+00	0	43	0	678428672	11	4067
2026-01-03 14:18:22.14	242.48	13.91	-25.3	-26.3	16.6	0.00e+00	0	43	0	683671552	11	4053
2026-01-03 14:18:23.15	242.66	13.96	-25.4	-26.5	16.5	0.00e+00	0	43	0	689963008	11	4092
2026-01-03 14:18:24.15	242.84	14.01	-25.3	-26.2	16.6	0.00e+00	0	43	0	695205888	11	4036
2026-01-03 14:18:25.15	243.01	14.06	-25.2	-26.1	16.7	0.00e+00	0	43	0	700448768	11	4010
2026-01-03 14:18:26.16	243.20	14.12	-25.2	-26.2	16.7	0.00e+00	0	43	0	706740224	11	4016
2026-01-03 14:18:27.17	243.38	14.17	-25.1	-26.0	16.8	0.00e+00	0	43	0	711983104	11	3969
2026-01-03 14:18:28.17	243.56	14.22	-25.2	-26.1	16.7	0.00e+00	0	43	0	718274560	11	3996
2026-01-03 14:18:29.18	243.74	14.27	-25.0	-25.7	16.9	0.00e+00	0	43	0	723517440	11	3907
2026-01-03 14:18:30.19	243.92	14.32	-25.1	-26.0	16.8	0.00e+00	0	43	0	729808896	11	3967
2026-01-03 14:18:31.19	244.10	14.37	-25.2	-26.0	16.7	0.00e+00	0	43	0	735051776	11	3987
2026-01-03 14:18:32.20	244.29	14.42	-25.1	-25.8	16.8	0.00e+00	0	43	0	740294656	11	3937
2026-01-03 14:18:33.20	244.47	14.47	-25.1	-26.0	16.8	0.00e+00	0	43	0	746586112	11	3972
2026-01-03 14:18:34.21	244.66	14.52	-25.1	-25.9	16.8	0.00e+00	0	43	0	751828992	11	3949
2026-01-03 14:18:35.22	244.84	14.57	-25.0	-25.8	16.9	0.00e+00	0	43	0	757071872	11	3930
2026-01-03 14:18:36.22	245.03	14.62	-25.1	-25.9	16.8	0.00e+00	0	43	0	763363328	11	3965
2026-01-03 14:18:37.22	245.22	14.67	-25.0	-25.6	17.0	0.00e+00	0	43	0	768606208	11	3882
2026-01-03 14:18:38.23	245.40	14.72	-25.0	-25.6	17.0	0.00e+00	0	43	0	774897664	11	3879
2026-01-03 14:18:39.23	245.59	14.77	-25.0	-25.8	16.9	0.00e+00	0	43	0	780140544	11	3927
2026-01-03 14:18:40.24	245.78	14.82	-25.0	-25.7	17.0	0.00e+00	0	43	0	785383424	11	3904
2026-01-03 14:18:41.25	245.97	14.87	-25.0	-25.7	17.0	0.00e+00	0	43	0	791674880	11	3900
2026-01-03 14:18:42.25	246.16	14.92	-25.0	-25.8	16.9	0.00e+00	0	43	0	796917760	11	3926
2026-01-03 14:18:43.26	246.35	14.97	-25.0	-25.8	16.9	0.00e+00	0	43	0	803209216	11	3925
2026-01-03 14:18:44.27	246.54	15.02	-25.1	-26.0	16.8	0.00e+00	0	43	0	808452096	11	3972
2026-01-03 14:18:45.28	246.73	15.07	-25.1	-26.0	16.8	0.00e+00	0	43	0	814743552	11	3975
2026-01-03 14:18:46.28	246.92	15.12	-25.1	-26.0	16.8	0.00e+00	0	43	0	819986432	11	3970
2026-01-03 14:18:47.29	247.12	15.16	-25.1	-26.0	16.8	0.00e+00	0	43	0	825229312	11	3973
2026-01-03 14:18:48.30	247.31	15.21	-25.2	-26.2	16.7	0.00e+00	0	43	0	831520768	11	4025
2026-01-03 14:18:49.30	247.51	15.26	-25.3	-26.4	16.6	0.00e+00	0	43	0	836763648	11	4076
2026-01-03 14:18:50.31	247.70	15.31	-25.4	-26.6	16.5	0.00e+00	0	43	0	842006528	11	4118
2026-01-03 14:18:51.32	247.90	15.35	-25.3	-26.3	16.7	0.00e+00	0	43	0	848297984	11	4048
2026-01-03 14:18:52.32	248.09	15.40	-25.3	-26.3	16.7	0.00e+00	0	43	0	853540864	11	4059
2026-01-03 14:18:53.32	248.29	15.45	-25.3	-26.4	16.6	0.00e+00	0	43	0	859832320	11	4083
2026-01-03 14:18:54.33	248.48	15.49	-25.2	-26.0	16.8	0.00e+00	0	43	0	865075200	11	3982
2026-01-03 14:18:55.33	248.68	15.54	-25.1	-26.0	16.8	0.00e+00	0	43	0	870318080	11	3972
2026-01-03 14:18:56.34	248.88	15.59	-25.1	-26.0	16.9	0.00e+00	0	43	0	876609536	11	3965
2026-01-03 14:18:57.35	249.08	15.63	-25.2	-26.1	16.8	0.00e+00	0	43	0	881852416	11	4009
2026-01-03 14:18:58.35	249.28	15.68	-25.4	-26.5	16.6	0.00e+00	0	43	0	888143872	11	4109
2026-01-03 14:18:59.35	249.48	15.72	-25.1	-25.9	16.9	0.00e+00	0	43	0	893386752	11	3958
2026-01-03 14:19:00.36	249.68	15.77	-24.9	-25.5	17.1	0.00e+00	0	43	0	898629632	11	3850
2026-01-03 14:19:01.35	249.88	15.81	-24.9	-25.5	17.1	0.00e+00	0	43	0	904921088	11	3859
2026-01-03 14:19:02.36	250.08	15.86	-24.8	-25.3	17.2	0.00e+00	0	43	0	910163968	11	3797
2026-01-03 14:19:03.36	250.28	15.90	-24.8	-25.3	17.2	1.10e-06	0	43	0	915406848	11	3812
2026-01-03 14:19:04.37	250.48	15.95	-24.8	-25.7	17.2	0.00e+00	0	43	0	921698304	10	4006
2026-01-03 14:19:05.38	250.69	15.99	-24.8	-25.7	17.2	0.00e+00	0	43	0	926941184	10	4006
2026-01-03 14:19:06.39	250.89	16.03	-24.8	-25.7	17.3	0.00e+00	0	43	0	933232640	10	4007
2026-01-03 14:19:07.39	251.10	16.08	-24.8	-25.8	17.2	0.00e+00	0	43	0	938475520	10	4024
2026-01-03 14:19:08.40	251.30	16.12	-24.8	-25.8	17.2	0.00e+00	0	43	0	943718400	10	4033
2026-01-03 14:19:09.40	251.51	16.16	-24.9	-25.9	17.2	0.00e+00	0	43	0	950009856	10	4055
2026-01-03 14:19:10.40	251.71	16.20	-24.9	-26.0	17.1	0.00e+00	0	43	0	955252736	10	4091
2026-01-03 14:19:11.41	251.92	16.25	-24.9	-25.9	17.2	0.00e+00	0	43	0	961544192	10	4056
2026-01-03 14:19:12.42	252.13	16.29	-24.9	-26.0	17.1	1.10e-06	0	43	0	966787072	10	4095
2026-01-03 14:19:13.43	252.34	16.33	-25.0	-26.2	17.0	0.00e+00	0	43	0	973078528	10	4133
2026-01-03 14:19:14.43	252.54	16.37	-24.9	-26.1	17.1	0.00e+00	0	43	0	978321408	10	4110
2026-01-03 14:19:15.44	252.75	16.41	-25.1	-26.4	16.9	1.10e-06	0	43	0	983564288	10	4196
2026-01-03 14:19:16.44	252.96	16.45	-25.2	-26.7	16.8	0.00e+00	0	43	0	989855744	10	4253
2026-01-03 14:19:17.44	253.17	16.49	-24.9	-25.9	17.2	0.00e+00	0	43	0	995098624	10	4058
2026-01-03 14:19:18.44	253.38	16.53	-24.8	-25.7	17.3	0.00e+00	0	43	0	1000341504	10	4017
2026-01-03 14:19:19.45	253.59	16.57	-24.9	-26.1	17.1	0.00e+00	0	43	0	1006632960	10	4098
2026-01-03 14:19:20.45	253.80	16.61	-25.0	-26.1	17.1	0.00e+00	0	43	0	1011875840	10	4119
2026-01-03 14:19:21.45	254.01	16.65	-24.8	-25.8	17.2	0.00e+00	0	43	0	1017118720	10	4046
2026-01-03 14:19:22.46	254.23	16.69	-24.9	-26.0	17.2	0.00e+00	0	43	0	1023410176	10	4070
2026-01-03 14:19:23.46	254.44	16.73	-24.9	-26.0	17.2	0.00e+00	0	43	0	1028653056	10	4082
2026-01-03 14:19:24.47	254.66	16.77	-25.0	-26.1	17.1	5.70e-06	0	43	0	1034944512	10	4113
2026-01-03 14:19:25.47	254.87	16.81	-25.1	-26.3	17.0	0.00e+00	0	43	0	1040187392	10	4173
2026-01-03 14:19:26.48	255.08	16.84	-25.2	-26.7	16.8	0.00e+00	0	43	0	1046478848	10	4256
2026-01-03 14:19:27.49	255.30	16.88	-24.8	-25.9	17.2	0.00e+00	0	43	0	1051721728	10	4055
2026-01-03 14:19:28.49	255.52	16.92	-24.6	-25.4	17.5	0.00e+00	0	43	0	1056964608	10	3941
2026-01-03 14:19:29.50	255.73	16.95	-24.6	-25.2	17.6	0.00e+00	0	43	0	1063256064	10	3890
2026-01-03 14:19:30.50	255.95	16.99	-24.6	-25.4	17.5	0.00e+00	0	43	0	1068498944	10	3932
2026-01-03 14:19:31.51	256.17	17.03	-24.7	-25.5	17.4	0.00e+00	0	43	0	1073741824	10	3963
2026-01-03 14:19:32.52	256.39	17.06	-24.7	-25.5	17.4	0.00e+00	0	43	0	1080033280	10	3955
2026-01-03 14:19:33.52	256.60	17.10	-24.6	-25.4	17.5	0.00e+00	0	43	0	1085276160	10	3929
2026-01-03 14:19:34.52	256.82	17.13	-24.6	-25.2	17.6	0.00e+00	0	43	0	1091567616	10	3895
2026-01-03 14:19:35.53	257.04	17.17	-24.6	-25.3	17.5	0.00e+00	0	43	0	1096810496	10	3922
2026-01-03 14:19:36.54	257.26	17.20	-24.6	-25.3	17.5	0.00e+00	0	43	0	1102053376	10	3917
2026-01-03 14:19:37.54	257.48	17.23	-24.4	-25.0	17.7	0.00e+00	0	43	0	1108344832	10	3833
2026-01-03 14:19:38.53	257.70	17.27	-24.5	-25.0	17.7	0.00e+00	0	43	0	1113587712	10	3846
2026-01-03 14:19:39.54	257.92	17.30	-24.5	-25.1	17.6	0.00e+00	0	43	0	1119879168	10	3869
2026-01-03 14:19:40.54	258.14	17.33	-24.5	-25.0	17.7	0.00e+00	0	43	0	1125122048	10	3843
2026-01-03 14:19:41.55	258.37	17.37	-24.5	-25.1	17.7	0.00e+00	0	43	0	1130364928	10	3858
2026-01-03 14:19:42.55	258.59	17.40	-24.5	-25.1	17.6	0.00e+00	0	43	0	1136656384	10	3861
2026-01-03 14:19:43.56	258.81	17.43	-24.3	-24.8	17.8	0.00e+00	0	43	0	1141899264	10	3789
2026-01-03 14:19:44.56	259.03	17.46	-24.4	-24.9	17.8	0.00e+00	0	43	0	1147142144	10	3819
2026-01-03 14:19:45.57	259.26	17.49	-24.4	-24.8	17.8	0.00e+00	0	43	0	1153433600	10	3797
2026-01-03 14:19:46.57	259.48	17.52	-24.4	-24.8	17.8	0.00e+00	0	43	0	1158676480	10	3794
2026-01-03 14:19:47.58	259.71	17.55	-24.4	-24.9	17.8	0.00e+00	0	43	0	1164967936	10	3824
2026-01-03 14:19:48.59	259.93	17.58	-24.5	-25.0	17.7	0.00e+00	0	43	0	1170210816	10	3844
2026-01-03 14:19:49.60	260.16	17.61	-24.6	-25.3	17.6	0.00e+00	0	43	0	1175453696	10	3899
2026-01-03 14:19:50.61	260.39	17.64	-24.5	-25.1	17.7	0.00e+00	0	43	0	1181745152	10	3862
2026-01-03 14:19:51.62	260.62	17.67	-24.7	-25.6	17.4	0.00e+00	0	43	0	1186988032	10	3978
2026-01-03 14:19:52.63	260.84	17.70	-24.9	-25.9	17.2	0.00e+00	0	43	0	1193279488	10	4058
2026-01-03 14:19:53.63	261.07	17.73	-24.8	-25.7	17.3	0.00e+00	0	43	0	1198522368	10	4016
2026-01-03 14:19:54.64	261.30	17.75	-24.7	-25.6	17.4	0.00e+00	0	43	0	1204813824	10	3983
2026-01-03 14:19:55.63	261.52	17.78	-24.7	-25.7	17.4	0.00e+00	0	43	0	1210056704	10	3997
2026-01-03 14:19:56.64	261.75	17.81	-24.7	-25.6	17.4	3.40e-06	0	43	0	1215299584	10	3992
2026-01-03 14:19:57.65	261.98	17.83	-24.7	-25.5	17.5	0.00e+00	0	43	0	1221591040	10	3963
2026-01-03 14:19:58.64	262.21	17.86	-24.7	-25.5	17.4	0.00e+00	0	43	0	1226833920	10	3961
2026-01-03 14:19:59.65	262.44	17.88	-24.7	-25.5	17.4	0.00e+00	0	43	0	1232076800	10	3963
2026-01-03 14:20:00.65	262.67	17.91	-24.8	-25.8	17.3	0.00e+00	0	43	0	1238368256	10	4038
2026-01-03 14:20:01.65	262.90	17.93	-24.8	-25.9	17.3	0.00e+00	0	43	0	1243611136	10	4046
2026-01-03 14:20:02.66	263.13	17.96	-24.6	-25.4	17.6	0.00e+00	0	43	0	1248854016	10	3925
2026-01-03 14:20:03.67	263.36	17.98	-24.5	-25.1	17.7	0.00e+00	0	43	0	1255145472	10	3871
2026-01-03 14:20:04.68	263.60	18.00	-24.5	-25.2	17.6	0.00e+00	0	43	0	1260388352	10	3890
2026-01-03 14:20:05.68	263.83	18.03	-24.5	-25.1	17.7	3.40e-06	0	43	0	1266679808	10	3857
2026-01-03 14:20:06.69	264.06	18.05	-24.5	-25.1	17.7	0.00e+00	0	43	0	1271922688	10	3851
2026-01-03 14:20:07.69	264.29	18.07	-24.5	-25.1	17.7	0.00e+00	0	43	0	1278214144	10	3865
2026-01-03 14:20:08.70	264.53	18.09	-24.3	-24.8	17.8	5.70e-06	0	43	0	1283457024	10	3786
2026-01-03 14:20:09.70	264.76	18.11	-24.3	-24.7	17.9	0.00e+00	0	43	0	1288699904	10	3770
2026-01-03 14:20:10.71	264.99	18.13	-24.3	-25.3	17.9	0.00e+00	0	43	0	1294991360	9	4011
2026-01-03 14:20:11.71	265.23	18.15	-24.2	-25.0	18.0	5.70e-06	0	43	0	1300234240	9	3952
2026-01-03 14:20:12.72	265.46	18.17	-24.2	-25.0	18.0	0.00e+00	0	43	0	1306525696	9	3946
2026-01-03 14:20:13.73	265.70	18.19	-24.3	-25.2	17.9	0.00e+00	0	43	0	1311768576	9	3999
2026-01-03 14:20:14.74	265.93	18.21	-24.4	-25.5	17.7	1.10e-06	0	43	0	1317011456	9	4063
2026-01-03 14:20:15.75	266.17	18.23	-24.4	-25.4	17.8	0.00e+00	0	43	0	1323302912	9	4039
2026-01-03 14:20:16.76	266.40	18.25	-24.4	-25.4	17.8	0.00e+00	0	43	0	1328545792	9	4036
2026-01-03 14:20:17.76	266.64	18.26	-24.3	-25.2	17.9	5.70e-06	0	43	0	1333788672	9	3995
2026-01-03 14:20:18.77	266.87	18.28	-24.3	-25.1	17.9	0.00e+00	0	43	0	1340080128	9	3966
2026-01-03 14:20:19.78	267.11	18.30	-24.5	-25.7	17.6	0.00e+00	0	43	0	1345323008	9	4118
2026-01-03 14:20:20.78	267.35	18.31	-24.7	-26.1	17.4	0.00e+00	0	43	0	1351614464	9	4215
2026-01-03 14:20:21.79	267.58	18.33	-24.7	-26.1	17.4	0.00e+00	0	43	0	1356857344	9	4218
2026-01-03 14:20:22.80	267.82	18.34	-24.8	-26.3	17.3	0.00e+00	0	43	0	1363148800	9	4260
2026-01-03 14:20:23.79	268.06	18.36	-24.7	-26.0	17.5	0.00e+00	0	43	0	1368391680	9	4185
2026-01-03 14:20:24.79	268.29	18.37	-24.5	-25.6	17.7	0.00e+00	0	43	0	1373634560	9	4085
2026-01-03 14:20:25.80	268.53	18.39	-24.5	-25.5	17.7	0.00e+00	0	43	0	1379926016	9	4075
2026-01-03 14:20:26.81	268.77	18.40	-24.4	-25.5	17.7	0.00e+00	0	43	0	1385168896	9	4066
2026-01-03 14:20:27.81	269.01	18.41	-24.7	-26.1	17.4	0.00e+00	0	43	0	1390411776	9	4220
2026-01-03 14:20:28.82	269.24	18.43	-24.6	-25.9	17.5	0.00e+00	0	43	0	1396703232	9	4173
2026-01-03 14:20:29.83	269.48	18.44	-24.4	-25.4	17.8	0.00e+00	0	43	0	1401946112	9	4047
2026-01-03 14:20:30.83	269.72	18.45	-24.2	-25.0	18.0	0.00e+00	0	43	0	1408237568	9	3949
2026-01-03 14:20:31.84	269.96	18.46	-24.3	-25.1	18.0	0.00e+00	0	43	0	1413480448	9	3969
2026-01-03 14:20:32.84	270.20	18.47	-24.3	-25.2	17.9	0.00e+00	0	43	0	1418723328	9	3987
2026-01-03 14:20:33.85	270.44	18.48	-24.3	-25.3	17.9	0.00e+00	0	43	0	1425014784	9	4009
2026-01-03 14:20:34.86	270.68	18.49	-24.3	-25.1	17.9	0.00e+00	0	43	0	1430257664	9	3981
2026-01-03 14:20:35.87	270.92	18.50	-24.3	-25.3	17.9	0.00e+00	0	43	0	1436549120	9	4006
2026-01-03 14:20:36.87	271.15	18.51	-24.2	-24.9	18.1	0.00e+00	0	43	0	1441792000	9	3914
2026-01-03 14:20:37.88	271.40	18.51	-24.1	-24.7	18.2	0.00e+00	0	43	0	1448083456	9	3880
2026-01-03 14:20:38.89	271.64	18.52	-24.1	-24.7	18.1	0.00e+00	0	43	0	1453326336	9	3873
2026-01-03 14:20:39.89	271.87	18.53	-24.1	-24.7	18.2	0.00e+00	0	43	0	1458569216	9	3861
2026-01-03 14:20:40.90	272.11	18.54	-24.1	-24.7	18.2	0.00e+00	0	43	0	1464860672	9	3868
2026-01-03 14:20:41.91	272.36	18.54	-24.2	-25.1	18.0	0.00e+00	0	43	0	1470103552	9	3957
2026-01-03 14:20:42.92	272.60	18.55	-24.1	-24.8	18.1	0.00e+00	0	43	0	1475346432	9	3903
2026-01-03 14:20:43.92	272.84	18.55	-24.1	-24.7	18.1	0.00e+00	0	43	0	1481637888	9	3879
2026-01-03 14:20:44.93	273.08	18.56	-24.1	-24.8	18.1	0.00e+00	0	43	0	1486880768	9	3901
2026-01-03 14:20:45.94	273.32	18.56	-24.1	-24.8	18.1	0.00e+00	0	43	0	1493172224	9	3893
2026-01-03 14:20:46.95	273.56	18.56	-24.2	-25.0	18.0	0.00e+00	0	43	0	1498415104	9	3942
2026-01-03 14:20:47.95	273.80	18.57	-24.2	-24.9	18.0	0.00e+00	0	43	0	1503657984	9	3920
2026-01-03 14:20:48.95	274.04	18.57	-24.1	-24.8	18.1	0.00e+00	0	43	0	1509949440	9	3899
2026-01-03 14:20:49.96	274.28	18.57	-24.3	-25.1	17.9	0.00e+00	0	43	0	1515192320	9	3962
2026-01-03 14:20:50.97	274.52	18.57	-24.2	-25.0	18.0	0.00e+00	0	43	0	1521483776	9	3938
2026-01-03 14:20:51.97	274.76	18.57	-24.1	-24.8	18.1	0.00e+00	0	43	0	1526726656	9	3902
2026-01-03 14:20:52.98	275.00	18.58	-24.2	-25.0	18.0	0.00e+00	0	43	0	1533018112	9	3951
2026-01-03 14:20:53.99	275.24	18.58	-24.2	-24.9	18.0	0.00e+00	0	43	0	1538260992	9	3916
2026-01-03 14:20:55.00	275.48	18.58	-24.2	-24.9	18.0	0.00e+00	0	43	0	1543503872	9	3923
2026-01-03 14:20:56.00	275.72	18.57	-24.4	-25.3	17.8	0.00e+00	0	43	0	1549795328	9	4024
2026-01-03 14:20:57.01	275.96	18.57	-24.3	-25.1	17.9	0.00e+00	0	43	0	1555038208	9	3968
2026-01-03 14:20:58.01	276.20	18.57	-24.3	-25.2	17.9	0.00e+00	0	43	0	1560281088	9	3980
2026-01-03 14:20:59.02	276.44	18.57	-24.2	-25.1	17.9	0.00e+00	0	43	0	1566572544	9	3971
2026-01-03 14:21:00.03	276.68	18.57	-24.4	-25.4	17.8	0.00e+00	0	43	0	1571815424	9	4028
2026-01-03 14:21:01.03	276.92	18.56	-24.2	-25.0	18.0	0.00e+00	0	43	0	1578106880	9	3941
2026-01-03 14:21:02.03	277.16	18.56	-24.2	-25.0	18.0	0.00e+00	0	43	0	1583349760	9	3956
2026-01-03 14:21:03.04	277.40	18.55	-24.3	-25.3	17.8	0.00e+00	0	43	0	1589641216	9	4005
2026-01-03 14:21:04.05	277.64	18.55	-24.3	-25.2	17.9	0.00e+00	0	43	0	1594884096	9	3993
2026-01-03 14:21:05.05	277.88	18.55	-24.4	-25.5	17.7	0.00e+00	0	43	0	1600126976	9	4067
2026-01-03 14:21:06.06	278.12	18.54	-24.4	-25.4	17.8	0.00e+00	0	43	0	1606418432	9	4048
2026-01-03 14:21:07.07	278.36	18.53	-24.6	-25.7	17.6	0.00e+00	0	43	0	1611661312	9	4125
2026-01-03 14:21:08.08	278.60	18.53	-24.6	-25.9	17.5	0.00e+00	0	43	0	1617952768	9	4166
2026-01-03 14:21:09.08	278.84	18.52	-24.4	-25.5	17.7	0.00e+00	0	43	0	1623195648	9	4061
2026-01-03 14:21:10.09	279.08	18.51	-24.4	-25.4	17.8	0.00e+00	0	43	0	1628438528	9	4031
2026-01-03 14:21:11.10	279.32	18.50	-24.5	-25.6	17.7	0.00e+00	0	43	0	1634729984	9	4087
2026-01-03 14:21:12.10	279.56	18.49	-24.4	-25.4	17.7	0.00e+00	0	43	0	1639972864	9	4047
2026-01-03 14:21:13.11	279.80	18.49	-24.4	-25.5	17.7	0.00e+00	0	43	0	1645215744	9	4055
2026-01-03 14:21:14.12	280.04	18.48	-24.6	-25.9	17.5	0.00e+00	0	43	0	1651507200	9	4173
2026-01-03 14:21:15.12	280.28	18.47	-24.7	-25.9	17.5	0.00e+00	0	43	0	1656750080	9	4178
2026-01-03 14:21:16.13	280.51	18.46	-24.7	-26.1	17.4	0.00e+00	0	43	0	1663041536	9	4218
2026-01-03 14:21:17.13	280.75	18.44	-24.6	-25.8	17.5	0.00e+00	0	43	0	1668284416	9	4145
2026-01-03 14:21:18.14	280.99	18.43	-24.5	-25.7	17.6	0.00e+00	0	43	0	1674575872	9	4104
2026-01-03 14:21:19.15	281.23	18.42	-24.5	-25.6	17.6	0.00e+00	0	43	0	1679818752	9	4099
2026-01-03 14:21:20.15	281.47	18.41	-24.4	-25.4	17.8	0.00e+00	0	43	0	1685061632	9	4037
2026-01-03 14:21:21.16	281.70	18.40	-24.6	-25.9	17.5	0.00e+00	0	43	0	1691353088	9	4178
2026-01-03 14:21:22.16	281.94	18.38	-24.4	-25.3	17.8	0.00e+00	0	43	0	1696595968	9	4028
2026-01-03 14:21:23.17	282.18	18.37	-24.3	-25.1	17.9	0.00e+00	0	43	0	1701838848	9	3965
2026-01-03 14:21:24.17	282.41	18.35	-24.2	-25.0	18.0	0.00e+00	0	43	0	1708130304	9	3938
2026-01-03 14:21:25.18	282.65	18.34	-24.2	-25.0	18.0	0.00e+00	0	43	0	1713373184	9	3940
2026-01-03 14:21:26.18	282.89	18.32	-24.2	-24.9	18.0	0.00e+00	0	43	0	1719664640	9	3930
2026-01-03 14:21:27.18	283.12	18.31	-24.3	-25.1	17.9	0.00e+00	0	43	0	1724907520	9	3968
2026-01-03 14:21:28.18	283.36	18.29	-24.4	-25.5	17.7	0.00e+00	0	43	0	1730150400	9	4067
2026-01-03 14:21:29.20	283.59	18.28	-24.3	-25.3	17.8	0.00e+00	0	43	0	1736441856	9	4021
2026-01-03 14:21:30.20	283.83	18.26	-24.4	-25.4	17.8	0.00e+00	0	43	0	1741684736	9	4053
2026-01-03 14:21:31.20	284.06	18.24	-24.4	-25.4	17.7	0.00e+00	0	43	0	1747976192	9	4051
2026-01-03 14:21:32.21	284.30	18.22	-24.5	-25.6	17.6	0.00e+00	0	43	0	1753219072	9	4103
2026-01-03 14:21:33.21	284.53	18.21	-24.5	-25.6	17.6	0.00e+00	0	43	0	1758461952	9	4098
2026-01-03 14:21:34.22	284.77	18.19	-24.6	-25.8	17.5	0.00e+00	0	43	0	1764753408	9	4142
2026-01-03 14:21:35.22	285.00	18.17	-24.5	-25.5	17.7	0.00e+00	0	43	0	1769996288	9	4075
2026-01-03 14:21:36.23	285.23	18.15	-24.5	-25.5	17.7	0.00e+00	0	43	0	1776287744	9	4072
2026-01-03 14:21:37.23	285.47	18.13	-24.6	-25.9	17.5	0.00e+00	0	43	0	1781530624	9	4155
2026-01-03 14:21:38.23	285.70	18.11	-24.6	-25.9	17.5	0.00e+00	0	43	0	1786773504	9	4176
2026-01-03 14:21:39.24	285.93	18.09	-24.8	-26.2	17.3	0.00e+00	0	43	0	1793064960	9	4244
2026-01-03 14:21:40.25	286.17	18.06	-24.8	-26.3	17.3	0.00e+00	0	43	0	1798307840	9	4285
2026-01-03 14:21:41.26	286.40	18.04	-24.9	-26.4	17.2	0.00e+00	0	43	0	1803550720	9	4304
2026-01-03 14:21:42.27	286.63	18.02	-24.9	-26.6	17.1	0.00e+00	0	43	0	1809842176	9	4358
2026-01-03 14:21:43.27	286.86	18.00	-24.9	-26.5	17.2	0.00e+00	0	43	0	1815085056	9	4342
2026-01-03 14:21:44.28	287.09	17.97	-24.8	-26.3	17.3	0.00e+00	0	43	0	1821376512	9	4271
2026-01-03 14:21:45.29	287.32	17.95	-24.9	-26.6	17.2	0.00e+00	0	43	0	1826619392	9	4347
2026-01-03 14:21:46.30	287.56	17.93	-25.0	-26.2	17.1	0.00e+00	0	43	0	1832910848	10	4120
2026-01-03 14:21:47.30	287.78	17.90	-24.9	-26.0	17.2	0.00e+00	0	43	0	1838153728	10	4076
2026-01-03 14:21:48.30	288.01	17.88	-24.9	-26.1	17.1	0.00e+00	0	43	0	1843396608	10	4097
2026-01-03 14:21:49.30	288.24	17.85	-25.0	-26.2	17.0	0.00e+00	0	43	0	1849688064	10	4137
2026-01-03 14:21:50.31	288.47	17.83	-24.9	-25.9	17.2	0.00e+00	0	43	0	1854930944	10	4060
2026-01-03 14:21:51.31	288.70	17.80	-24.9	-25.9	17.2	0.00e+00	0	43	0	1860173824	10	4051
2026-01-03 14:21:52.32	288.93	17.77	-24.9	-25.9	17.2	0.00e+00	0	43	0	1866465280	10	4063
2026-01-03 14:21:53.32	289.15	17.75	-24.9	-26.0	17.2	0.00e+00	0	43	0	1871708160	10	4089
2026-01-03 14:21:54.33	289.38	17.72	-24.9	-26.0	17.2	0.00e+00	0	43	0	1877999616	10	4077
2026-01-03 14:21:55.33	289.61	17.69	-25.0	-26.2	17.0	0.00e+00	0	43	0	1883242496	10	4137
2026-01-03 14:21:56.34	289.83	17.66	-24.8	-25.8	17.3	0.00e+00	0	43	0	1888485376	10	4020
2026-01-03 14:21:57.34	290.06	17.63	-24.7	-25.6	17.4	0.00e+00	0	43	0	1894776832	10	3990
2026-01-03 14:21:58.35	290.29	17.61	-24.7	-25.6	17.4	0.00e+00	0	43	0	1900019712	10	3981
2026-01-03 14:21:59.35	290.51	17.58	-24.8	-25.8	17.3	0.00e+00	0	43	0	1906311168	10	4043
2026-01-03 14:22:00.36	290.74	17.55	-24.8	-25.8	17.3	0.00e+00	0	43	0	1911554048	10	4043
2026-01-03 14:22:01.36	290.96	17.52	-24.8	-25.9	17.2	0.00e+00	0	43	0	1916796928	10	4048
2026-01-03 14:22:02.36	291.18	17.49	-24.8	-25.9	17.2	0.00e+00	0	43	0	1923088384	10	4056
2026-01-03 14:22:03.37	291.41	17.45	-24.8	-25.8	17.3	0.00e+00	0	43	0	1928331264	10	4024
2026-01-03 14:22:04.38	291.63	17.42	-24.8	-25.9	17.2	0.00e+00	0	43	0	1934622720	10	4047
2026-01-03 14:22:05.39	291.85	17.39	-24.8	-25.7	17.3	0.00e+00	0	43	0	1939865600	10	4009
2026-01-03 14:22:06.39	292.07	17.36	-24.7	-25.6	17.4	0.00e+00	0	43	0	1945108480	10	3989
2026-01-03 14:22:07.40	292.30	17.33	-24.7	-25.5	17.5	0.00e+00	0	43	0	1951399936	10	3949
2026-01-03 14:22:08.41	292.52	17.29	-24.7	-25.6	17.4	0.00e+00	0	43	0	1956642816	10	3981
2026-01-03 14:22:09.41	292.74	17.26	-24.8	-25.7	17.3	0.00e+00	0	43	0	1961885696	10	3993
2026-01-03 14:22:10.42	292.96	17.23	-24.6	-25.4	17.5	0.00e+00	0	43	0	1968177152	10	3939
2026-01-03 14:22:11.43	293.18	17.19	-24.7	-25.5	17.5	0.00e+00	0	43	0	1973420032	10	3944
2026-01-03 14:22:12.44	293.40	17.16	-24.8	-25.7	17.4	0.00e+00	0	43	0	1979711488	10	3996
2026-01-03 14:22:13.44	293.62	17.13	-24.9	-26.0	17.2	0.00e+00	0	43	0	1984954368	10	4072
2026-01-03 14:22:14.45	293.84	17.09	-25.0	-26.1	17.1	0.00e+00	0	43	0	1991245824	10	4112
2026-01-03 14:22:15.46	294.05	17.06	-25.0	-26.2	17.1	0.00e+00	0	43	0	1996488704	10	4128
2026-01-03 14:22:16.46	294.27	17.02	-25.1	-26.3	17.0	0.00e+00	0	43	0	2001731584	10	4165
2026-01-03 14:22:17.47	294.49	16.98	-25.1	-26.4	17.0	0.00e+00	0	43	0	2008023040	10	4179
2026-01-03 14:22:18.48	294.71	16.95	-25.1	-26.4	16.9	0.00e+00	0	43	0	2013265920	10	4195
2026-01-03 14:22:19.48	294.92	16.91	-25.1	-26.5	16.9	0.00e+00	0	43	0	2019557376	10	4204
2026-01-03 14:22:20.49	295.14	16.87	-25.2	-26.6	16.8	0.00e+00	0	43	0	2024800256	10	4228
2026-01-03 14:22:21.49	295.35	16.84	-25.1	-26.5	16.9	0.00e+00	0	43	0	2030043136	10	4196
2026-01-03 14:22:22.50	295.56	16.80	-24.9	-25.9	17.2	0.00e+00	0	43	0	2036334592	10	4053
2026-01-03 14:22:23.51	295.78	16.76	-24.8	-25.8	17.3	0.00e+00	0	43	0	2041577472	10	4023
2026-01-03 14:22:24.51	295.99	16.72	-24.8	-25.8	17.3	0.00e+00	0	43	0	2046820352	10	4033
2026-01-03 14:22:25.52	296.20	16.68	-24.9	-26.1	17.1	0.00e+00	0	43	0	2053111808	10	4095
2026-01-03 14:22:26.52	296.41	16.65	-25.1	-26.4	16.9	0.00e+00	0	43	0	2058354688	10	4192
2026-01-03 14:22:27.52	296.63	16.61	-25.1	-26.4	16.9	0.00e+00	0	43	0	2064646144	10	4191
2026-01-03 14:22:28.53	296.84	16.57	-25.0	-26.2	17.0	0.00e+00	0	43	0	2069889024	10	4140
2026-01-03 14:22:29.54	297.05	16.53	-25.1	-26.4	16.9	0.00e+00	0	43	0	2076180480	10	4182
2026-01-03 14:22:30.55	297.26	16.49	-25.2	-26.6	16.8	0.00e+00	0	43	0	2081423360	10	4238
2026-01-03 14:22:31.55	297.47	16.45	-25.2	-26.7	16.8	0.00e+00	0	43	0	2086666240	10	4264
2026-01-03 14:22:32.56	297.68	16.41	-25.2	-26.6	16.8	0.00e+00	0	43	0	2092957696	10	4225
2026-01-03 14:22:33.57	297.89	16.37	-25.1	-26.5	16.9	0.00e+00	0	43	0	2098200576	10	4214
2026-01-03 14:22:34.57	298.09	16.32	-25.3	-26.8	16.7	0.00e+00	0	43	0	2104492032	10	4287
2026-01-03 14:22:35.58	298.30	16.28	-25.2	-26.7	16.7	0.00e+00	0	43	0	2109734912	10	4272
2026-01-03 14:22:36.59	298.51	16.24	-25.3	-26.9	16.7	0.00e+00	0	43	0	2114977792	10	4312
2026-01-03 14:22:37.60	298.71	16.20	-25.3	-26.8	16.7	0.00e+00	0	43	0	2121269248	10	4305
2026-01-03 14:22:38.60	298.92	16.16	-25.4	-27.0	16.6	0.00e+00	0	43	0	2126512128	10	4343
2026-01-03 14:22:39.61	299.12	16.11	-25.3	-26.8	16.7	0.00e+00	0	43	0	2131755008	10	4302
2026-01-03 14:22:40.61	299.33	16.07	-25.1	-26.5	16.9	0.00e+00	0	43	0	2138046464	10	4212
2026-01-03 14:22:41.62	299.53	16.03	-25.1	-26.3	17.0	0.00e+00	0	43	0	2143289344	10	4165
2026-01-03 14:22:42.63	299.74	15.99	-25.1	-26.4	16.9	1.10e-06	0	43	0	2149580800	10	4189
2026-01-03 14:22:43.63	299.94	15.94	-25.2	-26.5	16.9	0.00e+00	0	43	0	2154823680	10	4214
2026-01-03 14:22:44.64	300.14	15.90	-25.1	-26.5	16.8	0.00e+00	0	43	0	2161115136	10	4216
2026-01-03 14:22:45.64	300.34	15.85	-25.2	-26.6	16.8	2.20e-06	0	43	0	2166358016	10	4239
2026-01-03 14:22:46.65	300.54	15.81	-25.2	-26.6	16.8	0.00e+00	0	43	0	2171600896	10	4253
2026-01-03 14:22:47.65	300.74	15.76	-25.2	-26.7	16.8	0.00e+00	0	43	0	2177892352	10	4262
2026-01-03 14:22:48.66	300.94	15.72	-25.2	-26.6	16.8	0.00e+00	0	43	0	2183135232	10	4244
2026-01-03 14:22:49.67	301.14	15.67	-25.2	-26.6	16.8	0.00e+00	0	43	0	2188378112	10	4228
2026-01-03 14:22:50.67	301.34	15.63	-25.1	-26.5	16.8	0.00e+00	0	43	0	2194669568	10	4218
2026-01-03 14:22:51.68	301.54	15.58	-25.1	-26.5	16.8	4.50e-06	0	43	0	2199912448	10	4218
2026-01-03 14:22:52.68	301.73	15.54	-25.1	-26.4	16.9	0.00e+00	0	43	0	2206203904	10	4191
2026-01-03 14:22:53.69	301.93	15.49	-25.2	-26.7	16.7	0.00e+00	0	43	0	2211446784	10	4267
2026-01-03 14:22:54.69	302.12	15.45	-25.2	-26.6	16.8	3.40e-06	0	43	0	2216689664	10	4231
2026-01-03 14:22:55.70	302.32	15.40	-25.1	-26.4	16.9	0.00e+00	0	43	0	2222981120	10	4198
2026-01-03 14:22:56.71	302.52	15.35	-25.2	-26.7	16.8	0.00e+00	0	43	0	2228224000	10	4253
2026-01-03 14:22:57.71	302.71	15.31	-25.1	-26.4	16.9	3.40e-06	0	43	0	2234515456	10	4189
2026-01-03 14:22:58.72	302.90	15.26	-25.1	-26.4	16.9	0.00e+00	0	43	0	2239758336	10	4187
2026-01-03 14:22:59.73	303.10	15.21	-25.2	-26.7	16.7	0.00e+00	0	43	0	2246049792	10	4251
2026-01-03 14:23:00.73	303.29	15.16	-25.2	-26.6	16.8	0.00e+00	0	43	0	2251292672	10	4225
2026-01-03 14:23:01.74	303.48	15.12	-25.1	-26.4	16.9	0.00e+00	0	43	0	2256535552	10	4195
2026-01-03 14:23:02.75	303.67	15.07	-25.2	-26.6	16.7	0.00e+00	0	43	0	2262827008	10	4245
2026-01-03 14:23:03.75	303.86	15.02	-25.2	-26.7	16.7	0.00e+00	0	43	0	2268069888	10	4269
2026-01-03 14:23:04.76	304.05	14.97	-25.3	-26.8	16.6	0.00e+00	0	43	0	2273312768	10	4301
2026-01-03 14:23:05.77	304.24	14.92	-25.4	-27.1	16.5	0.00e+00	0	43	0	2279604224	10	4378
2026-01-03 14:23:06.77	304.43	14.87	-25.3	-26.9	16.6	1.10e-06	0	43	0	2284847104	10	4317
2026-01-03 14:23:07.78	304.62	14.83	-25.3	-26.8	16.6	0.00e+00	0	43	0	2291138560	10	4302
2026-01-03 14:23:08.78	304.81	14.78	-25.3	-26.9	16.6	0.00e+00	0	43	0	2296381440	10	4334
2026-01-03 14:23:09.79	305.00	14.73	-25.3	-26.8	16.6	0.00e+00	0	43	0	2301624320	10	4286
2026-01-03 14:23:10.79	305.18	14.68	-25.3	-26.8	16.6	0.00e+00	0	43	0	2307915776	10	4297
2026-01-03 14:23:11.80	305.37	14.63	-25.4	-27.1	16.4	0.00e+00	0	43	0	2313158656	10	4376
2026-01-03 14:23:12.80	305.55	14.58	-25.5	-26.9	16.3	0.00e+00	0	43	0	2319450112	11	4198
2026-01-03 14:23:13.81	305.74	14.53	-25.7	-27.2	16.1	0.00e+00	0	43	0	2324692992	11	4287
2026-01-03 14:23:14.82	305.92	14.48	-25.7	-27.2	16.1	0.00e+00	0	43	0	2329935872	11	4282
2026-01-03 14:23:15.81	306.10	14.43	-25.8	-27.5	16.0	0.00e+00	0	43	0	2336227328	11	4365
2026-01-03 14:23:16.82	306.29	14.38	-25.8	-27.5	15.9	0.00e+00	0	43	0	2341470208	11	4375
2026-01-03 14:23:17.84	306.47	14.33	-25.8	-27.6	15.9	0.00e+00	0	43	0	2347761664	11	4387
2026-01-03 14:23:18.84	306.65	14.28	-25.7	-27.3	16.1	0.00e+00	0	43	0	2353004544	11	4307
2026-01-03 14:23:19.85	306.83	14.22	-25.7	-27.2	16.1	0.00e+00	0	43	0	2358247424	11	4294
2026-01-03 14:23:20.86	307.01	14.17	-25.7	-27.2	16.1	0.00e+00	0	43	0	2364538880	11	4295
2026-01-03 14:23:21.86	307.19	14.12	-25.8	-27.5	16.0	0.00e+00	0	43	0	2369781760	11	4364
2026-01-03 14:23:22.87	307.37	14.07	-25.7	-27.2	16.1	0.00e+00	0	43	0	2376073216	11	4288
2026-01-03 14:23:23.87	307.55	14.02	-25.6	-27.1	16.2	0.00e+00	0	43	0	2381316096	11	4258
2026-01-03 14:23:24.88	307.73	13.97	-25.8	-27.4	16.1	0.00e+00	0	43	0	2386558976	11	4330
2026-01-03 14:23:25.89	307.91	13.92	-25.7	-27.2	16.1	0.00e+00	0	44	0	2392850432	11	4280
2026-01-03 14:23:26.89	308.08	13.86	-25.5	-26.8	16.4	0.00e+00	0	43	0	2398093312	11	4180
2026-01-03 14:23:27.90	308.26	13.81	-25.5	-26.8	16.4	0.00e+00	0	43	0	2404384768	11	4175
2026-01-03 14:23:28.91	308.44	13.76	-25.5	-26.8	16.3	0.00e+00	0	43	0	2409627648	11	4189
2026-01-03 14:23:29.92	308.61	13.71	-25.7	-27.2	16.1	0.00e+00	0	43	0	2415919104	11	4294
2026-01-03 14:23:30.93	308.79	13.65	-25.7	-27.1	16.2	0.00e+00	0	43	0	2421161984	11	4267
2026-01-03 14:23:31.93	308.96	13.60	-25.8	-27.5	16.0	0.00e+00	0	43	0	2426404864	11	4360
2026-01-03 14:23:32.94	309.13	13.55	-25.9	-27.7	15.8	0.00e+00	0	43	0	2432696320	11	4433
2026-01-03 14:23:33.94	309.30	13.50	-25.9	-27.7	15.9	0.00e+00	0	43	0	2437939200	11	4413
2026-01-03 14:23:34.95	309.48	13.44	-25.9	-27.7	15.8	0.00e+00	0	43	0	2443182080	11	4437
2026-01-03 14:23:35.95	309.65	13.39	-26.0	-27.5	15.6	0.00e+00	0	43	0	2449473536	12	4254
2026-01-03 14:23:36.96	309.82	13.34	-26.3	-28.1	15.3	0.00e+00	0	43	0	2454716416	12	4418
2026-01-03 14:23:37.96	309.99	13.28	-26.1	-27.7	15.5	0.00e+00	0	43	0	2459959296	12	4318
2026-01-03 14:23:38.96	310.16	13.23	-25.9	-27.1	15.8	0.00e+00	0	43	0	2466250752	12	4163
2026-01-03 14:23:39.97	310.33	13.18	-25.8	-27.0	15.9	0.00e+00	0	43	0	2471493632	12	4115
2026-01-03 14:23:40.98	310.50	13.12	-25.9	-27.1	15.8	0.00e+00	0	43	0	2477785088	12	4151
2026-01-03 14:23:41.98	310.66	13.07	-25.8	-27.0	15.9	0.00e+00	0	43	0	2483027968	12	4131
2026-01-03 14:23:42.98	310.83	13.02	-26.0	-27.4	15.6	0.00e+00	0	43	0	2489319424	12	4224
2026-01-03 14:23:43.99	311.00	12.96	-25.9	-27.3	15.7	0.00e+00	0	43	0	2494562304	12	4206
2026-01-03 14:23:44.99	311.16	12.91	-25.9	-27.1	15.8	0.00e+00	0	43	0	2499805184	12	4163
2026-01-03 14:23:46.00	311.33	12.85	-26.0	-27.4	15.6	0.00e+00	0	43	0	2506096640	12	4231
2026-01-03 14:23:47.01	311.49	12.80	-26.1	-27.7	15.4	0.00e+00	0	43	0	2511339520	12	4328
2026-01-03 14:23:48.02	311.66	12.74	-26.0	-27.4	15.6	0.00e+00	0	43	0	2517630976	12	4228
2026-01-03 14:23:49.02	311.82	12.69	-25.9	-27.3	15.7	0.00e+00	0	43	0	2522873856	12	4213
2026-01-03 14:23:50.02	311.98	12.64	-26.1	-27.6	15.5	0.00e+00	0	43	0	2528116736	12	4284
2026-01-03 14:23:51.03	312.14	12.58	-25.9	-27.2	15.7	0.00e+00	0	43	0	2534408192	12	4192
2026-01-03 14:23:52.03	312.31	12.53	-25.8	-26.9	15.9	0.00e+00	0	43	0	2539651072	12	4104
2026-01-03 14:23:53.04	312.47	12.47	-25.8	-27.0	15.9	0.00e+00	0	43	0	2544893952	12	4139
2026-01-03 14:23:54.04	312.63	12.42	-25.7	-26.8	15.9	0.00e+00	0	43	0	2551185408	12	4082
2026-01-03 14:23:55.05	312.79	12.36	-25.7	-26.8	15.9	0.00e+00	0	43	0	2556428288	12	4072
2026-01-03 14:23:56.06	312.95	12.31	-25.8	-27.1	15.8	0.00e+00	0	43	0	2562719744	12	4143
2026-01-03 14:23:57.07	313.11	12.25	-25.8	-26.9	15.9	0.00e+00	0	43	0	2567962624	12	4108
2026-01-03 14:23:58.07	313.27	12.20	-25.8	-27.0	15.8	0.00e+00	0	43	0	2574254080	12	4132
2026-01-03 14:23:59.08	313.42	12.14	-25.8	-27.0	15.8	0.00e+00	0	43	0	2579496960	12	4132
2026-01-03 14:24:00.09	313.58	12.09	-25.8	-27.1	15.7	0.00e+00	0	43	0	2584739840	12	4160
2026-01-03 14:24:01.09	313.74	12.03	-25.9	-27.1	15.7	0.00e+00	0	43	0	2591031296	12	4169
2026-01-03 14:24:02.10	313.89	11.98	-25.9	-27.2	15.7	0.00e+00	0	43	0	2596274176	12	4179
2026-01-03 14:24:03.11	314.05	11.92	-25.9	-27.3	15.6	0.00e+00	0	43	0	2601517056	12	4200
2026-01-03 14:24:04.12	314.21	11.86	-25.9	-27.3	15.7	0.00e+00	0	43	0	2607808512	12	4202
2026-01-03 14:24:05.12	314.36	11.81	-26.0	-27.4	15.6	0.00e+00	0	43	0	2613051392	12	4243
2026-01-03 14:24:06.13	314.51	11.75	-25.9	-27.2	15.7	0.00e+00	0	43	0	2619342848	12	4187
2026-01-03 14:24:07.14	314.67	11.70	-26.0	-27.4	15.6	0.00e+00	0	43	0	2624585728	12	4222
2026-01-03 14:24:08.14	314.82	11.64	-26.0	-27.3	15.6	0.00e+00	0	43	0	2629828608	12	4220
2026-01-03 14:24:09.15	314.97	11.59	-26.0	-27.4	15.6	0.00e+00	0	43	0	2636120064	12	4227
2026-01-03 14:24:10.15	315.12	11.53	-25.9	-27.2	15.7	0.00e+00	0	43	0	2641362944	12	4184
2026-01-03 14:24:11.16	315.27	11.47	-25.9	-27.3	15.6	0.00e+00	0	43	0	2647654400	12	4197
2026-01-03 14:24:12.17	315.43	11.42	-26.0	-27.4	15.6	0.00e+00	0	43	0	2652897280	12	4227
2026-01-03 14:24:13.17	315.57	11.36	-26.0	-27.5	15.5	0.00e+00	0	43	0	2659188736	12	4251
2026-01-03 14:24:14.18	315.72	11.31	-26.1	-27.7	15.4	0.00e+00	0	43	0	2664431616	12	4314
2026-01-03 14:24:15.18	315.87	11.25	-26.2	-27.9	15.3	0.00e+00	0	43	0	2669674496	12	4372
2026-01-03 14:24:16.19	316.02	11.19	-26.2	-28.0	15.2	0.00e+00	0	43	0	2675965952	12	4399
2026-01-03 14:24:17.19	316.17	11.14	-26.3	-28.2	15.1	0.00e+00	0	44	0	2681208832	12	4460
2026-01-03 14:24:18.20	316.32	11.08	-26.3	-28.1	15.1	0.00e+00	0	43	0	2686451712	12	4426
2026-01-03 14:24:19.21	316.46	11.03	-26.3	-28.1	15.1	0.00e+00	0	43	0	2692743168	12	4443
2026-01-03 14:24:20.21	316.61	10.97	-26.3	-28.0	15.2	0.00e+00	0	43	0	2697986048	12	4417
2026-01-03 14:24:21.21	316.75	10.91	-26.3	-28.0	15.2	0.00e+00	0	43	0	2703228928	12	4415
2026-01-03 14:24:22.22	316.90	10.86	-26.3	-28.1	15.1	0.00e+00	0	43	0	2709520384	12	4431
2026-01-03 14:24:23.22	317.04	10.80	-26.3	-28.0	15.2	0.00e+00	0	43	0	2714763264	12	4409
2026-01-03 14:24:24.22	317.18	10.75	-26.4	-28.3	15.0	0.00e+00	0	43	0	2721054720	12	4477
2026-01-03 14:24:25.22	317.33	10.69	-26.3	-28.1	15.1	0.00e+00	0	43	0	2726297600	12	4436
2026-01-03 14:24:26.22	317.47	10.63	-26.3	-28.1	15.1	0.00e+00	0	43	0	2732589056	12	4445
2026-01-03 14:24:27.23	317.61	10.58	-26.4	-28.2	15.0	0.00e+00	0	43	0	2737831936	12	4469
2026-01-03 14:24:28.24	317.75	10.52	-26.3	-28.1	15.1	0.00e+00	0	43	0	2743074816	12	4445
2026-01-03 14:24:29.25	317.90	10.46	-26.4	-28.3	15.0	0.00e+00	0	43	0	2749366272	12	4486
2026-01-03 14:24:30.25	318.04	10.41	-26.5	-28.5	14.9	0.00e+00	0	43	0	2754609152	12	4537
2026-01-03 14:24:31.26	318.18	10.35	-26.4	-28.2	15.0	0.00e+00	0	44	0	2759852032	12	4466
2026-01-03 14:24:32.27	318.32	10.29	-26.4	-28.2	15.0	0.00e+00	0	43	0	2766143488	12	4460
2026-01-03 14:24:33.27	318.46	10.24	-26.4	-28.3	15.0	0.00e+00	0	43	0	2771386368	12	4484
2026-01-03 14:24:34.28	318.59	10.18	-26.4	-28.3	14.9	0.00e+00	0	43	0	2777677824	12	4496
2026-01-03 14:24:35.28	318.73	10.12	-26.4	-28.4	14.9	1.10e-06	0	43	0	2782920704	12	4514
2026-01-03 14:24:36.29	318.87	10.07	-26.5	-28.5	14.8	0.00e+00	0	43	0	2788163584	12	4546
2026-01-03 14:24:37.29	319.01	10.01	-26.5	-28.2	14.8	0.00e+00	0	43	0	2794455040	13	4342
2026-01-03 14:24:38.30	319.14	9.95	-26.7	-28.5	14.6	0.00e+00	0	43	0	2799697920	13	4437
2026-01-03 14:24:39.30	319.28	9.90	-26.4	-27.9	14.9	0.00e+00	0	43	0	2805989376	13	4273
2026-01-03 14:24:40.30	319.41	9.84	-26.4	-27.9	14.9	0.00e+00	0	43	0	2811232256	13	4273
2026-01-03 14:24:41.31	319.55	9.79	-26.4	-27.9	14.9	0.00e+00	0	43	0	2816475136	13	4276
2026-01-03 14:24:42.32	319.68	9.73	-26.5	-28.2	14.8	0.00e+00	0	43	0	2822766592	13	4335
2026-01-03 14:24:43.33	319.82	9.67	-26.6	-28.3	14.6	0.00e+00	0	43	0	2828009472	13	4388
2026-01-03 14:24:44.33	319.95	9.61	-26.4	-27.8	15.0	0.00e+00	0	43	0	2834300928	13	4232
2026-01-03 14:24:45.34	320.09	9.56	-26.4	-27.8	14.9	0.00e+00	0	43	0	2839543808	13	4238
2026-01-03 14:24:46.35	320.22	9.50	-26.4	-27.7	15.0	0.00e+00	0	43	0	2844786688	13	4222
2026-01-03 14:24:47.36	320.35	9.44	-26.3	-27.7	15.0	0.00e+00	0	43	0	2851078144	13	4211
2026-01-03 14:24:48.36	320.48	9.39	-26.4	-27.9	14.8	0.00e+00	0	43	0	2856321024	13	4270
2026-01-03 14:24:49.37	320.61	9.33	-26.5	-28.0	14.8	0.00e+00	0	43	0	2862612480	13	4286
2026-01-03 14:24:50.37	320.74	9.27	-26.5	-28.1	14.7	0.00e+00	0	43	0	2867855360	13	4329
2026-01-03 14:24:51.37	320.87	9.22	-26.6	-28.2	14.6	0.00e+00	0	43	0	2873098240	13	4360
2026-01-03 14:24:52.38	321.00	9.16	-26.6	-28.3	14.6	1.10e-06	0	44	0	2879389696	13	4386
2026-01-03 14:24:53.39	321.13	9.10	-26.6	-28.4	14.6	0.00e+00	0	43	0	2884632576	13	4397
2026-01-03 14:24:54.40	321.26	9.05	-26.7	-28.5	14.5	0.00e+00	0	43	0	2890924032	13	4447
2026-01-03 14:24:55.40	321.39	8.99	-26.7	-28.6	14.4	0.00e+00	0	43	0	2896166912	13	4473
2026-01-03 14:24:56.41	321.52	8.93	-26.8	-28.8	14.3	0.00e+00	0	43	0	2901409792	13	4539
2026-01-03 14:24:57.41	321.64	8.88	-26.9	-29.0	14.2	1.10e-06	0	43	0	2907701248	13	4592
2026-01-03 14:24:58.42	321.77	8.82	-27.0	-28.8	14.0	1.10e-06	0	43	0	2912944128	14	4412
2026-01-03 14:24:59.42	321.90	8.77	-27.0	-28.8	14.0	2.20e-06	0	43	0	2919235584	14	4417
2026-01-03 14:25:00.43	322.02	8.71	-27.1	-28.9	14.0	3.40e-06	0	43	0	2924478464	14	4454
2026-01-03 14:25:01.44	322.15	8.65	-27.1	-28.9	14.0	3.40e-06	0	43	0	2929721344	14	4441
2026-01-03 14:25:02.45	322.27	8.60	-27.2	-29.2	13.8	1.10e-06	0	43	0	2936012800	14	4523
2026-01-03 14:25:03.45	322.40	8.54	-27.2	-29.1	13.8	4.50e-06	0	43	0	2941255680	14	4509
2026-01-03 14:25:04.46	322.52	8.48	-27.1	-29.0	13.9	1.10e-06	0	43	0	2946498560	14	4469
2026-01-03 14:25:05.47	322.65	8.43	-27.1	-29.0	13.8	2.20e-06	0	43	0	2952790016	14	4483
2026-01-03 14:25:06.48	322.77	8.37	-27.1	-28.9	13.9	4.50e-06	0	43	0	2958032896	14	4457
2026-01-03 14:25:07.48	322.89	8.31	-27.2	-29.1	13.8	2.20e-06	0	43	0	2964324352	14	4515
2026-01-03 14:25:08.49	323.01	8.26	-27.1	-28.9	13.9	3.40e-06	0	43	0	2969567232	14	4447
2026-01-03 14:25:09.50	323.14	8.20	-27.0	-28.7	14.1	0.00e+00	0	43	0	2975858688	14	4375
2026-01-03 14:25:10.50	323.26	8.14	-27.0	-28.8	14.0	1.10e-06	0	43	0	2981101568	14	4406
2026-01-03 14:25:11.51	323.38	8.09	-27.1	-28.9	13.9	1.10e-06	0	43	0	2986344448	14	4456
2026-01-03 14:25:12.52	323.50	8.03	-27.2	-29.2	13.7	6.80e-06	0	43	0	2992635904	14	4540
2026-01-03 14:25:13.52	323.62	7.97	-27.1	-28.9	14.0	2.20e-06	0	43	0	2997878784	14	4427
2026-01-03 14:25:14.53	323.74	7.92	-27.1	-29.0	13.9	3.40e-06	0	43	0	3004170240	14	4464
2026-01-03 14:25:15.53	323.86	7.86	-27.1	-28.9	13.9	0.00e+00	0	43	0	3009413120	14	4450
2026-01-03 14:25:16.54	323.97	7.81	-27.1	-29.0	13.9	2.20e-06	0	43	0	3014656000	14	4465
2026-01-03 14:25:17.54	324.09	7.75	-27.1	-29.1	13.8	4.50e-06	0	43	0	3020947456	14	4500
2026-01-03 14:25:18.55	324.21	7.69	-27.2	-29.2	13.7	2.20e-06	0	43	0	3026190336	14	4538
2026-01-03 14:25:19.55	324.33	7.64	-27.2	-29.3	13.7	2.20e-06	0	43	0	3031433216	14	4569
2026-01-03 14:25:20.56	324.44	7.58	-27.1	-29.1	13.8	2.20e-06	0	43	0	3037724672	14	4511
2026-01-03 14:25:21.56	324.56	7.52	-27.2	-29.2	13.7	2.20e-06	0	43	0	3042967552	14	4544
2026-01-03 14:25:22.57	324.68	7.47	-27.3	-29.3	13.6	5.70e-06	0	43	0	3049259008	14	4578
2026-01-03 14:25:23.57	324.79	7.41	-27.3	-29.4	13.6	0.00e+00	0	43	0	3054501888	14	4584
2026-01-03 14:25:24.58	324.91	7.36	-27.3	-29.4	13.6	5.70e-06	0	43	0	3060793344	14	4595
2026-01-03 14:25:25.58	325.02	7.30	-27.4	-29.7	13.3	8.00e-06	0	43	0	3066036224	14	4698
2026-01-03 14:25:26.58	325.13	7.24	-27.5	-29.9	13.3	1.25e-05	0	43	0	3071279104	14	4742
2026-01-03 14:25:27.58	325.25	7.19	-27.4	-29.8	13.3	9.10e-06	0	44	0	3077570560	14	4724
2026-01-03 14:25:28.57	325.36	7.13	-27.5	-29.5	13.1	1.48e-05	0	43	0	3082813440	15	4533
2026-01-03 14:25:29.58	325.47	7.08	-32.8	-43.4	3.8	3.58e-01	0	43	104	3087007744	25	12079
2026-01-03 14:25:30.58	325.58	7.02	-33.2	-44.5	3.8	8.46e-01	0	43	104	3087007744	26	13152

#Closed at: 2026-01-03 14:25:31
#Recorded file [3087 MB]: D:/data/31010_260103_171620.dat