passes_logs/2026/01/03/R2M6_AANII_01/R2M6_AANII_01__20260103_002022_NOAA_20_JPSS-1_rec.log

#Pass ID: 20260103_002022_NOAA 20 (JPSS-1)
#Satellite: NOAA 20 (JPSS-1)
#Configuration: NOAA 20
#almurnet v.1.7.20240730
#Start time: 2026-01-03 00:20:22

#Version: 2.2.20231116
#Station: R2M6_AANII_01
#Location: 30.233357 lon 59.946436 lat
#TLE: 1 43013U 17073A   26002.21975278  .00000202  00000+0  11669-3 0  9999
#TLE: 2 43013  98.7622 303.2950 0001915  57.9213 302.2149 14.19532512420923

#Time	Az	El	Level	Level2	SNR	BER	BlckErr	Temp	State	Recorded	gain1	gain2
2026-01-03 00:20:22.33	18.13	7.02	-31.4	-38.9	4.7	1.35e+00	0	41	0	0	22	8605
2026-01-03 00:20:23.33	18.14	7.10	-31.7	-40.9	4.3	1.42e+00	0	41	104	0	23	10379
2026-01-03 00:20:24.34	18.14	7.17	-31.7	-40.4	5.4	6.31e-01	0	41	0	0	23	9786
2026-01-03 00:20:25.34	18.15	7.25	-31.7	-40.1	5.6	4.34e-01	0	41	0	1048576	23	9488
2026-01-03 00:20:26.35	18.15	7.33	-31.7	-40.4	5.4	5.57e-01	0	41	0	3145728	23	9775
2026-01-03 00:20:27.35	18.15	7.41	-31.6	-39.4	6.1	4.37e-01	0	41	0	5242880	23	8793
2026-01-03 00:20:28.36	18.16	7.49	-31.5	-38.9	6.3	2.99e-01	0	41	0	7340032	23	8398
2026-01-03 00:20:29.36	18.16	7.57	-31.3	-37.8	7.1	1.75e-01	0	41	0	9437184	23	7622
2026-01-03 00:20:30.37	18.17	7.64	-29.7	-36.2	7.7	1.05e-01	0	41	0	10485760	21	7582
2026-01-03 00:20:31.38	18.17	7.72	-31.1	-37.6	8.0	7.95e-02	0	41	0	12582912	21	7630
2026-01-03 00:20:32.39	18.17	7.80	-31.0	-36.6	8.6	4.50e-02	0	41	0	14680064	22	6851
2026-01-03 00:20:33.39	18.18	7.88	-30.8	-36.5	9.0	2.99e-02	0	41	0	16777216	21	6919
2026-01-03 00:20:34.40	18.18	7.96	-30.9	-36.6	8.9	3.09e-02	0	41	0	18874368	21	6984
2026-01-03 00:20:35.40	18.19	8.04	-30.9	-36.7	8.9	3.05e-02	0	41	0	19922944	21	7007
2026-01-03 00:20:36.40	18.19	8.12	-30.7	-36.1	9.3	2.10e-02	0	41	0	22020096	21	6704
2026-01-03 00:20:37.41	18.19	8.21	-30.9	-36.7	8.9	2.57e-02	0	41	0	24117248	21	7012
2026-01-03 00:20:38.42	18.20	8.29	-31.0	-36.5	8.7	2.98e-02	0	41	0	26214400	22	6802
2026-01-03 00:20:39.42	18.20	8.37	-30.9	-36.6	9.0	2.63e-02	0	41	0	28311552	21	6941
2026-01-03 00:20:40.42	18.21	8.45	-31.1	-36.8	8.6	3.51e-02	0	41	0	29360128	22	6930
2026-01-03 00:20:41.43	18.21	8.53	-31.2	-37.1	8.3	4.58e-02	0	41	0	31457280	22	7136
2026-01-03 00:20:42.42	18.21	8.61	-31.1	-36.8	8.5	4.13e-02	0	41	0	33554432	22	6961
2026-01-03 00:20:43.43	18.22	8.69	-31.1	-36.8	8.6	3.69e-02	0	41	0	35651584	22	6944
2026-01-03 00:20:44.43	18.22	8.78	-31.2	-37.2	8.2	5.61e-02	0	41	0	37748736	22	7216
2026-01-03 00:20:45.44	18.23	8.86	-31.0	-36.5	8.8	3.61e-02	0	41	0	38797312	22	6799
2026-01-03 00:20:46.45	18.23	8.94	-31.0	-36.5	8.9	2.91e-02	0	41	0	40894464	22	6743
2026-01-03 00:20:47.46	18.23	9.03	-31.1	-36.8	8.7	3.22e-02	0	41	0	42991616	22	6902
2026-01-03 00:20:48.46	18.24	9.11	-31.1	-36.6	8.8	3.67e-02	0	41	0	45088768	22	6797
2026-01-03 00:20:49.47	18.24	9.20	-31.0	-36.8	9.0	2.48e-02	0	41	0	46137344	21	7017
2026-01-03 00:20:50.47	18.25	9.28	-31.2	-36.9	8.6	3.14e-02	0	41	0	48234496	22	6994
2026-01-03 00:20:51.48	18.25	9.36	-31.1	-36.7	8.7	4.33e-02	0	41	0	50331648	22	6866
2026-01-03 00:20:52.49	18.25	9.45	-31.0	-36.3	9.0	3.06e-02	0	42	0	52428800	22	6631
2026-01-03 00:20:53.49	18.26	9.53	-30.8	-35.4	9.8	1.57e-02	0	41	0	54525952	22	6133
2026-01-03 00:20:54.50	18.26	9.62	-30.6	-35.2	10.3	7.26e-03	0	41	0	56623104	21	6122
2026-01-03 00:20:55.50	18.27	9.71	-30.5	-34.8	10.5	5.59e-03	0	42	0	57671680	21	5956
2026-01-03 00:20:56.50	18.27	9.79	-30.3	-34.4	10.9	2.51e-03	0	42	0	59768832	21	5748
2026-01-03 00:20:57.51	18.27	9.88	-30.3	-34.7	11.0	1.77e-03	0	42	0	61865984	20	6005
2026-01-03 00:20:58.51	18.28	9.96	-30.3	-34.8	11.0	2.71e-03	0	42	0	63963136	20	6038
2026-01-03 00:20:59.52	18.28	10.05	-30.4	-35.0	10.8	1.86e-03	0	42	0	65011712	20	6151
2026-01-03 00:21:00.52	18.28	10.14	-30.4	-34.7	10.7	4.19e-03	0	42	0	67108864	21	5895
2026-01-03 00:21:01.53	18.29	10.23	-30.3	-34.7	11.1	2.24e-03	0	42	0	69206016	20	5986
2026-01-03 00:21:02.53	18.29	10.31	-29.9	-34.2	11.2	1.25e-03	0	42	0	71303168	20	5897
2026-01-03 00:21:03.54	18.30	10.40	-30.2	-34.7	11.2	1.04e-03	0	42	0	73400320	19	6073
2026-01-03 00:21:04.55	18.30	10.49	-30.2	-34.3	11.3	9.41e-04	0	42	0	74448896	20	5790
2026-01-03 00:21:05.55	18.30	10.58	-30.2	-34.4	10.5	1.31e-03	0	42	0	76546048	20	5830
2026-01-03 00:21:06.56	18.31	10.67	-30.2	-34.5	10.6	2.23e-03	0	42	0	78643200	20	5867
2026-01-03 00:21:07.57	18.31	10.76	-30.3	-34.8	11.0	1.43e-03	0	42	0	80740352	20	6025
2026-01-03 00:21:08.57	18.32	10.85	-30.4	-34.9	10.9	4.69e-03	0	42	0	82837504	20	6061
2026-01-03 00:21:09.58	18.32	10.94	-30.2	-34.4	11.3	2.27e-03	0	42	0	84934656	20	5846
2026-01-03 00:21:10.58	18.32	11.03	-30.1	-34.1	11.6	6.99e-04	0	42	0	85983232	20	5681
2026-01-03 00:21:11.59	18.33	11.12	-30.0	-33.7	11.9	7.08e-04	0	42	0	88080384	20	5512
2026-01-03 00:21:12.60	18.33	11.21	-30.0	-33.6	12.0	1.10e-03	0	42	0	90177536	20	5460
2026-01-03 00:21:13.60	18.34	11.30	-30.0	-33.7	11.9	1.33e-03	0	42	0	92274688	20	5513
2026-01-03 00:21:14.60	18.34	11.40	-29.9	-33.5	12.0	4.28e-04	0	42	0	93323264	20	5435
2026-01-03 00:21:15.61	18.34	11.49	-30.0	-34.1	12.0	3.63e-03	0	42	0	95420416	19	5772
2026-01-03 00:21:16.62	18.35	11.58	-30.0	-34.1	12.1	9.95e-04	0	42	0	97517568	19	5767
2026-01-03 00:21:17.63	18.35	11.67	-29.9	-33.9	12.2	2.84e-04	0	42	0	99614720	19	5700
2026-01-03 00:21:18.63	18.35	11.77	-30.0	-34.0	12.1	3.88e-03	0	42	0	101711872	19	5754
2026-01-03 00:21:19.64	18.36	11.86	-30.0	-33.6	12.0	1.42e-03	0	42	0	102760448	20	5468
2026-01-03 00:21:20.65	18.36	11.96	-30.1	-33.9	11.7	4.10e-04	0	42	0	104857600	20	5620
2026-01-03 00:21:21.65	18.37	12.05	-30.0	-33.9	11.8	6.21e-04	0	42	0	106954752	20	5577
2026-01-03 00:21:22.66	18.37	12.14	-30.0	-33.7	12.0	1.64e-03	0	42	0	109051904	20	5502
2026-01-03 00:21:23.66	18.37	12.24	-30.0	-33.6	12.0	3.60e-04	0	42	0	111149056	20	5466
2026-01-03 00:21:24.66	18.38	12.33	-30.0	-33.6	12.0	3.81e-04	0	42	0	112197632	20	5465
2026-01-03 00:21:25.67	18.38	12.43	-30.0	-34.0	12.1	1.09e-03	0	42	0	114294784	19	5739
2026-01-03 00:21:26.67	18.39	12.53	-30.0	-34.0	12.1	2.74e-03	0	42	0	116391936	19	5739
2026-01-03 00:21:27.68	18.39	12.62	-30.0	-34.0	12.1	1.17e-03	0	42	0	118489088	19	5720
2026-01-03 00:21:28.69	18.39	12.72	-30.0	-33.7	12.0	1.34e-03	0	42	0	120586240	20	5494
2026-01-03 00:21:29.70	18.40	12.82	-30.2	-34.3	11.5	3.45e-03	0	42	0	121634816	20	5793
2026-01-03 00:21:30.70	18.40	12.92	-30.1	-34.1	11.7	4.47e-03	0	42	0	123731968	20	5670
2026-01-03 00:21:31.71	18.40	13.01	-29.9	-33.4	12.2	4.08e-04	0	42	0	125829120	20	5394
2026-01-03 00:21:32.71	18.41	13.11	-29.8	-33.6	12.5	2.75e-03	0	42	0	127926272	19	5542
2026-01-03 00:21:33.72	18.41	13.21	-29.9	-33.7	12.4	3.47e-03	0	42	0	130023424	19	5587
2026-01-03 00:21:34.72	18.42	13.31	-29.9	-33.7	12.4	8.67e-04	0	42	0	131072000	19	5614
2026-01-03 00:21:35.72	18.42	13.41	-29.8	-33.6	12.4	2.64e-03	0	42	0	133169152	19	5580
2026-01-03 00:21:36.73	18.42	13.51	-29.9	-33.9	12.3	3.55e-03	0	42	0	135266304	19	5670
2026-01-03 00:21:37.73	18.43	13.61	-29.9	-33.4	12.2	1.32e-03	0	42	0	137363456	20	5378
2026-01-03 00:21:38.74	18.43	13.71	-30.0	-33.7	12.0	3.02e-03	0	42	0	139460608	20	5489
2026-01-03 00:21:39.74	18.43	13.81	-29.9	-33.5	12.1	3.78e-03	0	42	0	140509184	20	5406
2026-01-03 00:21:40.74	18.44	13.92	-29.8	-33.6	12.5	1.38e-03	0	42	0	142606336	19	5559
2026-01-03 00:21:41.75	18.44	14.02	-29.9	-33.7	12.4	2.74e-03	0	42	0	144703488	19	5586
2026-01-03 00:21:42.76	18.45	14.12	-29.8	-33.5	12.6	3.66e-03	0	42	0	146800640	19	5488
2026-01-03 00:21:43.76	18.45	14.22	-29.8	-33.4	12.6	1.44e-03	0	42	0	148897792	19	5464
2026-01-03 00:21:44.76	18.45	14.33	-29.8	-33.4	12.7	2.52e-03	0	42	0	149946368	19	5464
2026-01-03 00:21:45.77	18.46	14.43	-29.8	-33.6	12.6	2.61e-03	0	42	0	152043520	19	5537
2026-01-03 00:21:46.78	18.46	14.54	-29.8	-33.4	12.7	1.17e-03	0	42	0	154140672	19	5464
2026-01-03 00:21:47.78	18.47	14.64	-29.7	-33.2	12.8	2.70e-03	0	42	0	156237824	19	5384
2026-01-03 00:21:48.79	18.47	14.75	-29.8	-33.3	12.8	6.33e-05	0	42	0	158334976	19	5413
2026-01-03 00:21:49.80	18.47	14.85	-29.8	-33.5	12.6	1.23e-03	0	42	0	159383552	19	5523
2026-01-03 00:21:50.80	18.48	14.96	-29.9	-33.6	12.6	2.62e-03	0	43	0	161480704	19	5552
2026-01-03 00:21:51.81	18.48	15.07	-29.9	-33.7	12.5	3.39e-03	0	42	0	163577856	19	5574
2026-01-03 00:21:52.81	18.48	15.17	-29.8	-33.3	12.7	1.16e-03	0	42	0	165675008	19	5431
2026-01-03 00:21:53.82	18.49	15.28	-29.7	-33.0	13.0	2.39e-03	0	42	0	167772160	19	5304
2026-01-03 00:21:54.82	18.49	15.39	-29.5	-32.6	13.2	3.52e-03	0	42	0	168820736	19	5145
2026-01-03 00:21:55.83	18.50	15.50	-29.5	-32.6	13.3	1.52e-05	0	42	0	170917888	19	5126
2026-01-03 00:21:56.83	18.50	15.61	-29.5	-32.6	13.2	1.46e-03	0	42	0	173015040	19	5137
2026-01-03 00:21:57.84	18.50	15.72	-29.6	-32.8	13.2	3.50e-03	0	42	0	175112192	19	5203
2026-01-03 00:21:58.84	18.51	15.83	-29.5	-32.4	13.4	1.67e-05	0	42	0	177209344	19	5074
2026-01-03 00:21:59.84	18.51	15.94	-29.4	-32.9	13.4	1.67e-05	0	42	0	178257920	18	5364
2026-01-03 00:22:00.85	18.51	16.05	-29.5	-32.9	13.4	3.28e-03	0	42	0	180355072	18	5370
2026-01-03 00:22:01.86	18.52	16.16	-29.6	-32.8	13.2	1.37e-05	0	42	0	182452224	19	5197
2026-01-03 00:22:02.86	18.52	16.27	-29.7	-33.1	13.0	2.59e-05	0	42	0	184549376	19	5331
2026-01-03 00:22:03.87	18.53	16.39	-29.6	-32.9	13.1	9.76e-04	0	42	0	186646528	19	5235
2026-01-03 00:22:04.87	18.53	16.50	-29.6	-32.7	13.3	9.85e-04	0	43	0	187695104	19	5169
2026-01-03 00:22:05.88	18.53	16.61	-29.7	-32.9	13.1	2.21e-05	0	43	0	189792256	19	5253
2026-01-03 00:22:06.89	18.54	16.73	-29.6	-32.8	13.2	6.26e-04	0	42	0	191889408	19	5209
2026-01-03 00:22:07.89	18.54	16.84	-29.6	-32.7	13.3	1.04e-03	0	42	0	193986560	19	5152
2026-01-03 00:22:08.89	18.54	16.96	-29.6	-32.7	13.3	1.67e-05	0	42	0	196083712	19	5153
2026-01-03 00:22:09.90	18.55	17.07	-29.6	-32.9	13.2	2.13e-05	0	43	0	197132288	19	5241
2026-01-03 00:22:10.90	18.55	17.19	-29.7	-33.1	13.1	8.14e-04	0	42	0	199229440	19	5306
2026-01-03 00:22:11.91	18.55	17.31	-29.9	-33.6	12.7	6.48e-05	0	43	0	201326592	19	5506
2026-01-03 00:22:12.91	18.56	17.43	-29.8	-33.2	13.0	5.72e-05	0	43	0	203423744	19	5371
2026-01-03 00:22:13.92	18.56	17.54	-29.6	-32.8	13.3	6.79e-04	0	43	0	204472320	19	5190
2026-01-03 00:22:14.92	18.57	17.66	-29.6	-32.7	13.3	1.60e-05	0	42	0	206569472	19	5162
2026-01-03 00:22:15.93	18.57	17.78	-29.6	-32.7	13.3	9.90e-06	0	43	0	208666624	19	5146
2026-01-03 00:22:16.93	18.57	17.90	-29.6	-32.9	13.2	1.06e-05	0	42	0	210763776	19	5229
2026-01-03 00:22:17.94	18.58	18.02	-29.7	-33.1	13.0	2.28e-05	0	42	0	212860928	19	5329
2026-01-03 00:22:18.95	18.58	18.14	-29.7	-33.1	13.1	3.81e-05	0	42	0	214958080	19	5300
2026-01-03 00:22:19.95	18.58	18.27	-29.8	-33.3	13.0	3.43e-05	0	43	0	216006656	19	5382
2026-01-03 00:22:20.96	18.59	18.39	-29.7	-33.0	13.2	3.43e-05	0	43	0	218103808	19	5260
2026-01-03 00:22:21.97	18.59	18.51	-29.5	-32.5	13.5	1.37e-05	0	43	0	220200960	19	5072
2026-01-03 00:22:22.98	18.60	18.64	-29.4	-32.8	13.6	6.80e-06	0	42	0	222298112	18	5289
2026-01-03 00:22:23.98	18.60	18.76	-28.5	-31.9	13.6	3.80e-06	0	43	0	224395264	18	5325
2026-01-03 00:22:24.98	18.60	18.88	-29.6	-32.7	13.3	5.65e-04	0	43	0	225443840	19	5134
2026-01-03 00:22:25.98	18.61	19.01	-29.8	-33.3	12.1	2.97e-05	0	43	0	227540992	19	5382
2026-01-03 00:22:26.98	18.61	19.13	-29.6	-32.7	12.5	2.59e-05	0	43	0	229638144	19	5160
2026-01-03 00:22:27.98	18.61	19.26	-29.5	-32.3	13.4	5.23e-04	0	43	0	231735296	19	5011
2026-01-03 00:22:28.98	18.62	19.39	-29.4	-32.6	12.9	3.00e-06	0	43	0	232783872	18	5205
2026-01-03 00:22:29.98	18.62	19.52	-29.4	-32.6	13.7	4.50e-06	0	43	0	234881024	18	5198
2026-01-03 00:22:30.99	18.62	19.64	-29.5	-32.4	13.6	4.78e-04	0	43	0	236978176	19	5049
2026-01-03 00:22:31.99	18.63	19.77	-29.4	-32.6	13.8	2.46e-03	0	43	0	239075328	18	5224
2026-01-03 00:22:33.00	18.63	19.90	-29.5	-32.8	13.7	5.30e-06	0	43	0	241172480	18	5307
2026-01-03 00:22:34.00	18.63	20.03	-29.3	-32.4	13.9	1.50e-06	0	43	0	242221056	18	5151
2026-01-03 00:22:35.01	18.64	20.17	-29.2	-32.2	14.1	4.41e-04	0	43	0	244318208	18	5056
2026-01-03 00:22:36.02	18.64	20.30	-29.2	-32.0	14.2	5.03e-04	0	43	0	246415360	18	4991
2026-01-03 00:22:37.02	18.65	20.43	-29.2	-32.0	14.2	7.00e-07	0	43	0	248512512	18	4989
2026-01-03 00:22:38.02	18.65	20.56	-29.1	-31.9	14.3	5.68e-04	0	43	0	250609664	18	4941
2026-01-03 00:22:39.03	18.65	20.70	-29.3	-32.4	14.0	2.38e-03	0	43	0	251658240	18	5120
2026-01-03 00:22:40.03	18.66	20.83	-29.1	-31.9	14.3	0.00e+00	0	43	0	253755392	18	4949
2026-01-03 00:22:41.04	18.66	20.97	-29.0	-32.0	14.5	7.00e-07	0	43	0	255852544	17	5104
2026-01-03 00:22:42.05	18.66	21.11	-28.9	-31.9	14.6	2.31e-03	0	43	0	257949696	17	5069
2026-01-03 00:22:43.05	18.67	21.24	-29.0	-31.6	14.4	1.17e-04	0	43	0	260046848	18	4856
2026-01-03 00:22:44.05	18.67	21.38	-28.9	-31.9	14.6	1.50e-06	0	43	0	261095424	17	5062
2026-01-03 00:22:45.05	18.67	21.52	-29.0	-32.1	14.5	0.00e+00	0	43	0	263192576	17	5121
2026-01-03 00:22:46.06	18.68	21.66	-28.9	-31.9	14.6	1.18e-04	0	43	0	265289728	17	5068
2026-01-03 00:22:47.06	18.68	21.80	-28.9	-31.9	14.6	0.00e+00	0	43	0	267386880	17	5069
2026-01-03 00:22:48.07	18.68	21.94	-29.1	-31.8	14.4	0.00e+00	0	43	0	269484032	18	4917
2026-01-03 00:22:49.08	18.69	22.08	-29.3	-32.4	14.1	1.07e-04	0	43	0	270532608	18	5127
2026-01-03 00:22:50.08	18.69	22.23	-29.1	-31.8	14.4	2.32e-03	0	43	0	272629760	18	4912
2026-01-03 00:22:51.09	18.70	22.37	-29.2	-32.1	14.2	7.00e-07	0	43	0	274726912	18	5035
2026-01-03 00:22:52.10	18.70	22.52	-29.2	-32.1	14.3	1.11e-04	0	43	0	276824064	18	5013
2026-01-03 00:22:53.10	18.70	22.66	-29.2	-32.0	14.3	2.16e-03	0	43	0	278921216	18	4985
2026-01-03 00:22:54.11	18.71	22.81	-29.4	-32.5	14.0	2.11e-03	0	43	0	279969792	18	5160
2026-01-03 00:22:55.11	18.71	22.95	-29.3	-32.2	14.2	3.80e-06	0	43	0	282066944	18	5065
2026-01-03 00:22:56.11	18.71	23.10	-29.3	-32.3	14.2	2.04e-03	0	43	0	284164096	18	5087
2026-01-03 00:22:57.12	18.72	23.25	-29.4	-32.5	14.0	2.27e-03	0	43	0	286261248	18	5161
2026-01-03 00:22:58.12	18.72	23.40	-29.3	-32.3	14.2	3.80e-06	0	43	0	288358400	18	5093
2026-01-03 00:22:59.13	18.72	23.55	-29.3	-32.3	14.1	2.35e-03	0	43	0	289406976	18	5098
2026-01-03 00:23:00.13	18.73	23.70	-29.3	-32.4	14.1	2.19e-03	0	43	0	291504128	18	5109
2026-01-03 00:23:01.13	18.73	23.85	-29.4	-32.6	14.0	1.67e-05	0	43	0	293601280	18	5205
2026-01-03 00:23:02.14	18.73	24.00	-29.5	-32.7	13.9	2.21e-03	0	43	0	295698432	18	5252
2026-01-03 00:23:03.15	18.74	24.16	-29.5	-32.4	13.8	2.00e-03	0	43	0	297795584	19	5013
2026-01-03 00:23:04.16	18.74	24.31	-29.6	-32.7	13.6	4.50e-06	0	43	0	298844160	19	5111
2026-01-03 00:23:05.16	18.74	24.47	-29.9	-33.3	13.2	2.09e-03	0	43	0	300941312	19	5365
2026-01-03 00:23:06.17	18.75	24.63	-29.8	-33.2	13.3	2.37e-03	0	43	0	303038464	19	5326
2026-01-03 00:23:07.18	18.75	24.78	-29.8	-33.3	13.2	3.43e-05	0	43	0	305135616	19	5338
2026-01-03 00:23:08.19	18.75	24.94	-29.9	-33.4	13.1	2.41e-03	0	43	0	307232768	19	5405
2026-01-03 00:23:09.19	18.76	25.10	-29.8	-33.2	13.3	2.29e-03	0	43	0	308281344	19	5310
2026-01-03 00:23:10.19	18.76	25.26	-29.9	-33.0	13.0	8.39e-05	0	43	0	310378496	20	5136
2026-01-03 00:23:11.20	18.76	25.42	-29.9	-33.5	13.1	2.32e-03	0	43	0	312475648	19	5421
2026-01-03 00:23:12.21	18.77	25.59	-30.0	-33.3	12.8	5.03e-05	0	43	0	314572800	20	5269
2026-01-03 00:23:13.21	18.77	25.75	-30.1	-33.6	12.6	1.33e-04	0	43	0	316669952	20	5389
2026-01-03 00:23:14.22	18.77	25.91	-30.0	-33.1	13.0	2.25e-03	0	43	0	317718528	20	5185
2026-01-03 00:23:15.22	18.78	26.08	-29.9	-33.5	13.1	2.41e-03	0	43	0	319815680	19	5433
2026-01-03 00:23:16.23	18.78	26.25	-30.1	-33.6	12.6	6.02e-05	0	43	0	321912832	20	5370
2026-01-03 00:23:17.24	18.78	26.41	-30.3	-34.1	12.3	2.59e-03	0	43	0	324009984	20	5570
2026-01-03 00:23:18.24	18.79	26.58	-30.3	-34.1	12.3	2.54e-03	0	43	0	326107136	20	5566
2026-01-03 00:23:19.25	18.79	26.75	-30.5	-34.5	11.9	2.20e-04	0	43	0	327155712	20	5768
2026-01-03 00:23:20.25	18.79	26.92	-30.7	-34.8	11.5	3.05e-03	0	43	0	329252864	21	5786
2026-01-03 00:23:21.26	18.80	27.10	-30.8	-35.2	11.0	3.55e-03	0	43	0	331350016	21	5992
2026-01-03 00:23:22.26	18.80	27.27	-30.9	-35.4	10.9	1.99e-03	0	43	0	333447168	21	6051
2026-01-03 00:23:23.27	18.80	27.44	-31.0	-35.6	10.9	2.21e-03	0	43	0	334495744	21	6148
2026-01-03 00:23:24.28	18.81	27.62	-31.0	-35.2	10.9	4.99e-03	0	43	0	336592896	22	5861
2026-01-03 00:23:25.28	18.81	27.79	-31.0	-35.7	10.8	2.89e-03	0	43	0	338690048	21	6201
2026-01-03 00:23:26.28	18.81	27.97	-31.1	-35.6	10.6	3.39e-03	0	43	0	340787200	22	6062
2026-01-03 00:23:27.29	18.82	28.15	-31.1	-35.6	10.6	3.50e-03	0	43	0	342884352	22	6023
2026-01-03 00:23:28.30	18.82	28.33	-31.0	-35.2	10.9	2.82e-03	0	43	0	344981504	22	5831
2026-01-03 00:23:29.30	18.82	28.51	-30.8	-35.2	11.2	1.49e-03	0	43	0	346030080	21	5947
2026-01-03 00:23:30.31	18.83	28.69	-30.8	-35.1	11.3	1.16e-03	0	43	0	348127232	21	5895
2026-01-03 00:23:31.31	18.83	28.88	-30.7	-34.9	11.4	1.24e-03	0	43	0	350224384	21	5838
2026-01-03 00:23:32.32	18.83	29.06	-30.9	-35.3	11.2	1.40e-03	0	43	0	352321536	21	5981
2026-01-03 00:23:33.33	18.84	29.25	-30.9	-35.4	11.1	1.52e-03	0	43	0	354418688	21	6039
2026-01-03 00:23:34.34	18.84	29.44	-30.9	-35.3	11.2	1.25e-03	0	43	0	355467264	21	5999
2026-01-03 00:23:35.35	18.84	29.62	-30.9	-35.6	11.0	1.75e-03	0	43	0	357564416	21	6122
2026-01-03 00:23:36.35	18.85	29.81	-31.0	-35.1	11.0	2.27e-03	0	43	0	359661568	22	5805
2026-01-03 00:23:37.36	18.85	30.00	-31.1	-35.4	10.8	1.78e-03	0	43	0	361758720	22	5943
2026-01-03 00:23:38.36	18.85	30.20	-31.1	-35.5	10.8	2.93e-03	0	43	0	362807296	22	5953
2026-01-03 00:23:39.37	18.86	30.39	-31.1	-35.4	10.8	2.90e-03	0	43	0	364904448	22	5924
2026-01-03 00:23:40.37	18.86	30.58	-31.2	-35.7	10.5	3.62e-03	0	43	0	367001600	22	6091
2026-01-03 00:23:41.38	18.86	30.78	-31.1	-35.6	10.7	3.60e-03	0	43	0	369098752	22	6032
2026-01-03 00:23:42.39	18.87	30.98	-31.1	-35.4	10.9	2.45e-03	0	43	0	371195904	22	5905
2026-01-03 00:23:43.40	18.87	31.18	-31.1	-35.3	10.9	2.69e-03	0	43	0	373293056	22	5882
2026-01-03 00:23:44.40	18.87	31.38	-31.1	-35.3	10.8	2.51e-03	0	43	0	374341632	22	5890
2026-01-03 00:23:45.41	18.88	31.58	-31.0	-35.2	10.9	2.51e-03	0	43	0	376438784	22	5851
2026-01-03 00:23:46.42	18.88	31.78	-31.0	-35.2	11.0	2.32e-03	0	43	0	378535936	22	5829
2026-01-03 00:23:47.43	18.88	31.99	-31.1	-35.3	10.9	2.13e-03	0	43	0	380633088	22	5882
2026-01-03 00:23:48.43	18.89	32.19	-31.0	-35.3	11.0	2.66e-03	0	43	0	382730240	22	5854
2026-01-03 00:23:49.44	18.89	32.40	-30.9	-35.5	11.2	1.62e-03	0	43	0	383778816	21	6063
2026-01-03 00:23:50.44	18.89	32.61	-29.8	-34.1	11.4	9.29e-04	0	43	0	385875968	21	5894
2026-01-03 00:23:51.45	18.89	32.82	-30.7	-34.8	11.6	8.05e-04	0	43	0	387973120	21	5748
2026-01-03 00:23:52.45	18.90	33.03	-30.8	-35.0	10.8	9.51e-04	0	43	0	390070272	21	5829
2026-01-03 00:23:53.45	18.90	33.24	-30.9	-35.3	10.6	9.53e-04	0	43	0	391118848	21	6003
2026-01-03 00:23:54.46	18.90	33.46	-31.0	-35.1	11.1	1.69e-03	0	43	0	393216000	22	5758
2026-01-03 00:23:55.46	18.91	33.67	-30.7	-34.7	11.2	3.43e-03	0	43	0	395313152	21	5722
2026-01-03 00:23:56.47	18.91	33.89	-30.4	-34.4	12.1	3.04e-04	0	43	0	397410304	20	5661
2026-01-03 00:23:57.47	18.91	34.11	-30.2	-33.6	12.8	2.23e-04	0	43	0	399507456	20	5351
2026-01-03 00:23:58.47	18.92	34.33	-29.9	-33.0	13.2	3.20e-05	0	43	0	400556032	20	5092
2026-01-03 00:23:59.48	18.92	34.55	-29.8	-33.0	13.6	1.22e-05	0	43	0	402653184	19	5213
2026-01-03 00:24:00.48	18.92	34.77	-29.7	-32.8	13.8	2.25e-04	0	43	0	404750336	19	5118
2026-01-03 00:24:01.48	18.92	35.00	-29.6	-32.5	13.9	2.20e-06	0	43	0	406847488	19	5037
2026-01-03 00:24:02.49	18.93	35.23	-29.8	-32.9	13.7	2.18e-03	0	43	0	408944640	19	5180
2026-01-03 00:24:03.49	18.93	35.45	-29.7	-32.8	13.7	2.06e-04	0	43	0	409993216	19	5146
2026-01-03 00:24:04.50	18.93	35.69	-29.5	-32.2	14.2	7.00e-07	0	43	0	412090368	19	4905
2026-01-03 00:24:05.51	18.94	35.92	-29.3	-32.2	14.5	2.05e-03	0	43	0	414187520	18	5014
2026-01-03 00:24:06.51	18.94	36.15	-29.3	-32.2	14.5	2.37e-04	0	43	0	416284672	18	5025
2026-01-03 00:24:07.52	18.94	36.39	-29.3	-32.2	14.4	2.08e-04	0	43	0	418381824	18	5040
2026-01-03 00:24:08.52	18.94	36.62	-29.2	-31.9	14.6	0.00e+00	0	43	0	419430400	18	4911
2026-01-03 00:24:09.53	18.95	36.86	-29.2	-31.9	14.7	2.41e-04	0	43	0	421527552	18	4913
2026-01-03 00:24:10.53	18.95	37.10	-29.1	-31.6	14.8	1.91e-04	0	43	0	423624704	18	4809
2026-01-03 00:24:11.54	18.95	37.35	-29.0	-31.5	14.9	0.00e+00	0	43	0	425721856	18	4800
2026-01-03 00:24:12.55	18.96	37.59	-29.1	-31.6	14.9	2.67e-04	0	43	0	427819008	18	4829
2026-01-03 00:24:13.56	18.96	37.84	-29.0	-31.9	15.0	2.40e-03	0	43	0	428867584	17	5037
2026-01-03 00:24:14.56	18.96	38.09	-29.0	-31.3	15.0	0.00e+00	0	43	0	430964736	18	4727
2026-01-03 00:24:15.56	18.96	38.33	-28.9	-31.0	15.2	1.82e-04	0	43	0	433061888	18	4629
2026-01-03 00:24:16.56	18.97	38.58	-28.9	-31.6	15.2	2.15e-03	0	43	0	435159040	17	4924
2026-01-03 00:24:17.57	18.97	38.84	-28.8	-31.5	15.2	7.00e-07	0	43	0	437256192	17	4882
2026-01-03 00:24:18.57	18.97	39.09	-28.7	-31.3	15.4	1.96e-04	0	43	0	438304768	17	4823
2026-01-03 00:24:19.58	18.98	39.35	-28.9	-31.6	15.2	2.22e-03	0	43	0	440401920	17	4921
2026-01-03 00:24:20.58	18.98	39.61	-28.8	-31.5	15.2	1.89e-03	0	43	0	442499072	17	4885
2026-01-03 00:24:21.58	18.98	39.87	-28.6	-30.9	15.6	1.80e-04	0	43	0	444596224	17	4694
2026-01-03 00:24:22.58	18.98	40.13	-28.4	-30.8	15.9	1.88e-03	0	43	0	446693376	16	4789
2026-01-03 00:24:23.59	18.99	40.40	-28.3	-30.8	16.0	1.76e-03	0	43	0	447741952	16	4777
2026-01-03 00:24:24.60	18.99	40.67	-28.3	-30.8	16.0	1.51e-04	0	43	0	449839104	16	4768
2026-01-03 00:24:25.60	18.99	40.93	-28.4	-31.0	15.9	1.76e-03	0	43	0	451936256	16	4833
2026-01-03 00:24:26.60	18.99	41.20	-28.5	-30.8	15.6	1.75e-03	0	43	0	454033408	17	4660
2026-01-03 00:24:27.61	19.00	41.48	-28.5	-30.6	15.8	1.81e-04	0	43	0	456130560	17	4585
2026-01-03 00:24:28.62	19.00	41.76	-28.7	-31.1	15.5	1.93e-04	0	43	0	457179136	17	4750
2026-01-03 00:24:29.62	19.00	42.03	-29.0	-31.8	15.1	1.76e-03	0	43	0	459276288	17	4995
2026-01-03 00:24:30.63	19.00	42.31	-29.1	-31.7	14.8	1.98e-04	0	43	0	461373440	18	4860
2026-01-03 00:24:31.63	19.01	42.59	-29.2	-31.9	14.7	1.88e-03	0	43	0	463470592	18	4906
2026-01-03 00:24:32.63	19.01	42.87	-29.2	-31.9	14.7	1.72e-03	0	43	0	465567744	18	4919
2026-01-03 00:24:33.63	19.01	43.16	-29.1	-31.6	14.9	1.67e-04	0	43	0	466616320	18	4821
2026-01-03 00:24:34.64	19.01	43.45	-29.2	-31.9	14.7	2.00e-03	0	43	0	468713472	18	4923
2026-01-03 00:24:35.64	19.01	43.74	-29.3	-32.2	14.5	0.00e+00	0	43	0	470810624	18	5016
2026-01-03 00:24:36.65	19.02	44.03	-29.4	-32.4	14.4	1.08e-04	0	43	0	472907776	18	5103
2026-01-03 00:24:37.65	19.02	44.32	-29.6	-32.4	14.1	1.94e-03	0	43	0	475004928	19	4968
2026-01-03 00:24:38.66	19.02	44.62	-29.6	-32.5	14.0	1.82e-03	0	43	0	476053504	19	5005
2026-01-03 00:24:39.67	19.02	44.92	-29.8	-32.9	13.8	5.18e-05	0	43	0	478150656	19	5171
2026-01-03 00:24:40.67	19.03	45.22	-29.9	-33.3	13.6	1.74e-03	0	43	0	480247808	19	5291
2026-01-03 00:24:41.68	19.03	45.53	-30.2	-33.7	12.9	1.63e-03	0	43	0	482344960	20	5378
2026-01-03 00:24:42.68	19.03	45.83	-30.4	-34.1	12.6	1.11e-04	0	43	0	484442112	20	5539
2026-01-03 00:24:43.68	19.03	46.14	-30.6	-34.4	12.1	1.69e-03	0	43	0	485490688	21	5548
2026-01-03 00:24:44.69	19.03	46.45	-30.6	-34.3	12.2	1.83e-03	0	43	0	487587840	21	5505
2026-01-03 00:24:45.69	19.04	46.76	-30.7	-34.6	11.9	3.04e-04	0	43	0	489684992	21	5656
2026-01-03 00:24:46.69	19.04	47.08	-30.7	-34.7	11.9	1.87e-03	0	43	0	491782144	21	5658
2026-01-03 00:24:47.69	19.04	47.39	-30.6	-34.3	12.1	1.61e-03	0	43	0	493879296	21	5515
2026-01-03 00:24:48.68	19.04	47.71	-30.7	-34.5	12.0	2.45e-04	0	43	0	494927872	21	5603
2026-01-03 00:24:49.69	19.04	48.03	-30.7	-34.5	11.9	4.55e-04	0	43	0	497025024	21	5609
2026-01-03 00:24:50.70	19.04	48.36	-30.6	-34.2	12.2	1.64e-03	0	43	0	499122176	21	5459
2026-01-03 00:24:51.70	19.05	48.69	-30.7	-34.6	11.9	2.98e-04	0	43	0	501219328	21	5650
2026-01-03 00:24:52.71	19.05	49.02	-30.8	-35.0	11.7	6.21e-04	0	43	0	502267904	21	5798
2026-01-03 00:24:53.72	19.05	49.35	-30.7	-34.5	12.0	3.54e-04	0	43	0	504365056	21	5568
2026-01-03 00:24:54.72	19.05	49.69	-30.6	-34.3	12.2	1.98e-04	0	43	0	506462208	21	5523
2026-01-03 00:24:55.72	19.05	50.02	-30.6	-34.2	12.2	1.03e-03	0	43	0	508559360	21	5481
2026-01-03 00:24:56.73	19.05	50.36	-30.6	-34.3	12.1	2.63e-04	0	43	0	510656512	21	5515
2026-01-03 00:24:57.74	19.06	50.71	-30.1	-32.7	13.2	1.03e-04	0	43	0	511705088	21	4900
2026-01-03 00:24:58.74	19.06	51.05	-29.4	-31.5	14.3	4.37e-04	0	43	0	513802240	20	4569
2026-01-03 00:24:59.75	19.06	51.40	-28.8	-30.4	15.4	0.00e+00	0	43	0	515899392	19	4315
2026-01-03 00:25:00.75	19.06	51.75	-28.4	-29.9	15.9	0.00e+00	0	43	0	517996544	18	4291
2026-01-03 00:25:01.76	19.06	52.10	-28.2	-30.0	16.2	6.63e-04	0	43	0	520093696	17	4421
2026-01-03 00:25:02.76	19.06	52.46	-28.3	-30.8	16.1	0.00e+00	0	43	0	521142272	16	4755
2026-01-03 00:25:03.77	19.06	52.82	-28.4	-31.0	15.9	0.00e+00	0	43	0	523239424	16	4838
2026-01-03 00:25:04.77	19.06	53.18	-28.3	-30.7	16.1	0.00e+00	0	43	0	525336576	16	4741
2026-01-03 00:25:05.77	19.06	53.54	-28.4	-30.8	16.1	3.19e-04	0	43	0	527433728	16	4767
2026-01-03 00:25:06.78	19.07	53.91	-28.5	-30.7	15.8	0.00e+00	0	43	0	529530880	17	4638
2026-01-03 00:25:07.78	19.07	54.27	-28.8	-31.3	15.5	7.00e-07	0	43	0	530579456	17	4804
2026-01-03 00:25:08.78	19.07	54.64	-28.9	-31.7	15.3	3.53e-04	0	43	0	532676608	17	4936
2026-01-03 00:25:09.79	19.07	55.02	-28.9	-31.6	15.2	0.00e+00	0	43	0	534773760	17	4921
2026-01-03 00:25:10.80	19.07	55.40	-28.9	-31.6	15.3	0.00e+00	0	43	0	536870912	17	4931
2026-01-03 00:25:11.80	19.07	55.77	-29.1	-31.6	15.0	0.00e+00	0	43	0	538968064	18	4795
2026-01-03 00:25:12.80	19.07	56.15	-29.0	-31.4	15.1	0.00e+00	0	43	0	540016640	18	4747
2026-01-03 00:25:13.81	19.07	56.54	-29.2	-31.8	14.8	0.00e+00	0	43	0	542113792	18	4861
2026-01-03 00:25:14.82	19.07	56.93	-29.5	-32.0	14.3	7.00e-07	0	43	0	544210944	19	4840
2026-01-03 00:25:15.82	19.07	57.32	-29.8	-33.0	13.8	2.20e-06	0	43	0	546308096	19	5182
2026-01-03 00:25:16.82	19.07	57.71	-29.8	-33.0	13.8	8.30e-06	0	43	0	548405248	19	5175
2026-01-03 00:25:17.83	19.07	58.11	-29.6	-32.5	14.2	1.50e-06	0	43	0	549453824	19	4985
2026-01-03 00:25:18.83	19.07	58.50	-29.7	-32.6	14.1	1.50e-06	0	43	0	551550976	19	5034
2026-01-03 00:25:19.82	19.07	58.90	-29.6	-32.4	14.2	3.80e-06	0	43	0	553648128	19	4977
2026-01-03 00:25:20.83	19.07	59.30	-29.6	-32.3	14.2	7.00e-07	0	43	0	555745280	19	4937
2026-01-03 00:25:21.83	19.07	59.71	-29.6	-32.4	14.2	2.20e-06	0	43	0	557842432	19	4950
2026-01-03 00:25:22.84	19.07	60.12	-29.2	-31.3	14.9	0.00e+00	0	43	0	558891008	19	4604
2026-01-03 00:25:23.84	19.06	60.53	-29.0	-31.0	15.1	0.00e+00	0	43	0	560988160	19	4487
2026-01-03 00:25:24.85	19.06	60.94	-29.1	-31.1	15.0	0.00e+00	0	43	0	563085312	19	4516
2026-01-03 00:25:25.86	19.06	61.36	-28.5	-30.1	15.9	2.20e-06	0	43	0	565182464	18	4326
2026-01-03 00:25:26.86	19.06	61.78	-27.8	-28.9	16.9	0.00e+00	0	43	0	567279616	17	4089
2026-01-03 00:25:27.87	19.06	62.20	-27.0	-28.2	17.5	0.00e+00	0	43	0	568328192	15	4125
2026-01-03 00:25:28.88	19.06	62.63	-26.7	-27.9	18.1	0.00e+00	0	43	0	570425344	14	4145
2026-01-03 00:25:29.88	19.06	63.06	-26.8	-28.3	17.9	0.00e+00	0	43	0	572522496	14	4250
2026-01-03 00:25:30.89	19.05	63.49	-26.9	-28.4	17.8	0.00e+00	0	43	0	574619648	14	4288
2026-01-03 00:25:31.89	19.05	63.92	-27.4	-29.7	17.2	0.00e+00	0	43	0	576716800	14	4646
2026-01-03 00:25:32.90	19.05	64.36	-27.8	-29.9	16.7	0.00e+00	0	43	0	577765376	15	4613
2026-01-03 00:25:33.90	19.04	64.79	-28.5	-31.0	16.0	0.00e+00	0	43	0	579862528	16	4841
2026-01-03 00:25:34.90	19.04	65.23	-28.9	-31.6	15.4	7.00e-07	0	43	0	581959680	17	4912
2026-01-03 00:25:35.91	19.04	65.68	-29.3	-32.2	14.7	0.00e+00	0	43	0	584056832	18	4986
2026-01-03 00:25:36.91	19.03	66.12	-29.6	-32.3	14.3	0.00e+00	0	43	0	585105408	19	4926
2026-01-03 00:25:37.92	19.03	66.57	-29.9	-33.2	13.8	5.30e-06	0	43	0	587202560	19	5254
2026-01-03 00:25:38.91	19.03	67.01	-29.8	-32.9	13.9	2.20e-06	0	43	0	589299712	19	5122
2026-01-03 00:25:39.92	19.02	67.47	-29.7	-32.7	14.1	1.60e-03	0	43	0	591396864	19	5048
2026-01-03 00:25:40.93	19.02	67.92	-30.0	-32.8	13.7	3.80e-06	0	43	0	593494016	20	5022
2026-01-03 00:25:41.93	19.01	68.38	-30.1	-33.3	13.3	1.06e-05	0	43	0	595591168	20	5180
2026-01-03 00:25:42.94	19.00	68.84	-30.3	-33.9	12.9	1.53e-03	0	43	0	596639744	20	5441
2026-01-03 00:25:43.95	19.00	69.31	-30.2	-33.5	13.1	1.46e-03	0	43	0	598736896	20	5268
2026-01-03 00:25:44.96	18.99	69.77	-30.2	-33.4	13.3	1.98e-05	0	43	0	600834048	20	5220
2026-01-03 00:25:45.96	18.98	70.24	-30.1	-33.3	13.4	1.22e-05	0	43	0	602931200	20	5183
2026-01-03 00:25:46.97	18.97	70.71	-29.8	-32.5	13.8	1.69e-03	0	43	0	605028352	20	4917
2026-01-03 00:25:47.97	18.97	71.18	-29.9	-32.6	13.8	5.30e-06	0	43	0	606076928	20	4929
2026-01-03 00:25:48.98	18.96	71.66	-30.3	-33.7	13.1	4.50e-06	0	43	0	608174080	20	5362
2026-01-03 00:25:49.99	18.95	72.13	-30.7	-34.4	12.2	1.99e-03	0	43	0	610271232	21	5538
2026-01-03 00:25:50.99	18.93	72.61	-31.1	-35.2	11.4	7.39e-04	0	43	0	612368384	22	5744
2026-01-03 00:25:52.00	18.92	73.09	-31.3	-35.8	10.9	1.67e-03	0	43	0	613416960	22	6060
2026-01-03 00:25:53.00	18.91	73.57	-31.3	-35.9	10.8	4.19e-03	0	43	0	615514112	22	6095
2026-01-03 00:25:54.01	18.90	74.06	-31.2	-35.4	11.2	1.59e-03	0	43	0	617611264	22	5832
2026-01-03 00:25:55.02	18.88	74.55	-31.1	-35.1	11.5	3.05e-03	0	43	0	619708416	22	5710
2026-01-03 00:25:56.02	18.86	75.03	-30.8	-34.7	12.1	2.24e-03	0	43	0	621805568	21	5633
2026-01-03 00:25:57.02	18.85	75.52	-30.7	-34.4	12.3	1.53e-04	0	43	0	623902720	21	5504
2026-01-03 00:25:58.03	18.83	76.01	-31.0	-35.3	11.7	2.20e-03	0	43	0	624951296	21	5906
2026-01-03 00:25:59.02	18.81	76.50	-30.8	-34.7	12.1	3.98e-04	0	43	0	627048448	21	5640
2026-01-03 00:26:00.03	18.78	77.00	-30.7	-34.3	12.4	1.52e-04	0	43	0	629145600	21	5453
2026-01-03 00:26:01.04	18.76	77.50	-31.0	-34.8	11.6	1.76e-03	0	43	0	631242752	22	5579
2026-01-03 00:26:02.05	18.73	78.00	-31.1	-35.1	11.6	2.36e-03	0	43	0	632291328	22	5685
2026-01-03 00:26:03.05	18.70	78.49	-30.6	-33.7	12.4	2.78e-04	0	43	0	634388480	22	5101
2026-01-03 00:26:04.06	18.66	79.00	-30.0	-32.8	13.7	1.17e-03	0	43	0	636485632	20	5003
2026-01-03 00:26:05.06	18.63	79.50	-29.8	-32.9	14.0	5.87e-04	0	43	0	638582784	19	5105
2026-01-03 00:26:06.07	18.58	80.00	-30.3	-33.9	13.0	1.90e-05	0	43	0	640679936	20	5394
2026-01-03 00:26:07.08	18.54	80.51	-30.3	-33.6	13.2	2.73e-04	0	43	0	641728512	20	5291
2026-01-03 00:26:08.08	18.49	81.02	-30.8	-34.8	12.1	2.72e-04	0	43	0	643825664	21	5671
2026-01-03 00:26:09.08	18.43	81.52	-31.3	-35.8	11.1	5.25e-04	0	43	0	645922816	22	6005
2026-01-03 00:26:10.09	18.36	82.03	-32.0	-37.2	9.2	1.18e-02	0	43	0	648019968	24	6565
2026-01-03 00:26:11.10	18.28	82.55	-32.2	-37.8	8.7	3.18e-02	0	43	0	650117120	24	6925
2026-01-03 00:26:12.11	18.19	83.06	-31.8	-36.6	9.6	2.38e-02	0	43	0	651165696	24	6225
2026-01-03 00:26:13.11	18.09	83.57	-31.3	-34.8	11.0	3.34e-03	0	43	0	653262848	24	5353
2026-01-03 00:26:14.12	17.97	84.08	-31.0	-34.2	11.8	1.16e-03	0	43	0	655360000	23	5217
2026-01-03 00:26:15.12	17.82	84.59	-30.9	-34.0	11.9	3.67e-04	0	43	0	657457152	23	5145
2026-01-03 00:26:16.12	17.64	85.11	-31.0	-34.7	11.9	4.40e-04	0	43	0	659554304	22	5528
2026-01-03 00:26:17.12	17.42	85.62	-31.1	-35.2	11.5	6.99e-04	0	43	0	660602880	22	5729
2026-01-03 00:26:18.13	17.14	86.14	-31.3	-35.9	10.9	1.39e-03	0	43	0	662700032	22	6101
2026-01-03 00:26:19.14	16.76	86.65	-31.7	-36.4	10.1	4.55e-03	0	43	0	664797184	23	6237
2026-01-03 00:26:20.15	16.25	87.17	-31.6	-36.3	10.3	7.11e-03	0	43	0	666894336	23	6155
2026-01-03 00:26:21.15	15.52	87.69	-31.0	-34.3	11.7	1.78e-03	0	43	0	668991488	23	5271
2026-01-03 00:26:22.16	14.35	88.20	-30.1	-32.7	13.3	3.64e-04	0	43	0	670040064	21	4852
2026-01-03 00:26:23.16	12.26	88.72	-29.3	-31.1	14.8	3.00e-06	0	43	0	672137216	20	4430
2026-01-03 00:26:24.16	7.41	89.23	-28.6	-30.2	16.0	0.00e+00	0	43	0	674234368	18	4354
2026-01-03 00:26:25.17	344.99	89.71	-28.8	-31.2	15.7	1.49e-03	0	43	0	676331520	17	4769
2026-01-03 00:26:26.17	229.96	89.68	-31.8	-36.9	10.0	1.18e-03	0	43	0	678428672	23	6474
2026-01-03 00:26:27.18	211.14	89.18	-33.4	-45.1	4.1	4.47e-01	0	43	0	679477248	26	13819
2026-01-03 00:26:28.19	206.65	88.67	-33.6	-46.8	3.8	1.49e+00	0	43	104	679477248	27	16579
2026-01-03 00:26:29.19	204.68	88.16	-33.5	-45.7	3.8	1.49e+00	0	43	104	679477248	27	14641
2026-01-03 00:26:30.20	203.57	87.64	-33.6	-46.6	3.8	1.49e+00	0	43	104	679477248	27	16106
2026-01-03 00:26:31.21	202.85	87.12	-33.6	-47.7	3.8	1.49e+00	0	43	104	679477248	27	18164
2026-01-03 00:26:32.21	202.36	86.61	-33.6	-47.8	3.8	1.49e+00	0	43	104	679477248	27	18396
2026-01-03 00:26:33.22	202.00	86.09	-33.6	-47.7	3.8	1.49e+00	0	43	104	679477248	27	18268
2026-01-03 00:26:34.23	201.72	85.57	-33.6	-47.8	3.8	1.49e+00	0	43	104	679477248	27	18498
2026-01-03 00:26:35.23	201.51	85.06	-33.6	-47.8	3.8	1.49e+00	0	43	104	679477248	27	18456
2026-01-03 00:26:36.24	201.33	84.54	-33.6	-47.8	3.8	1.49e+00	0	43	104	679477248	27	18490
2026-01-03 00:26:37.24	201.19	84.03	-33.6	-47.8	3.8	1.49e+00	0	43	104	679477248	27	18490
2026-01-03 00:26:38.25	201.07	83.51	-33.6	-47.8	3.8	1.49e+00	0	43	104	679477248	27	18443
2026-01-03 00:26:39.25	200.97	83.01	-33.6	-47.8	3.8	1.49e+00	0	43	104	679477248	27	18463
2026-01-03 00:26:40.26	200.88	82.49	-33.6	-47.8	3.8	1.49e+00	0	43	104	679477248	27	18391
2026-01-03 00:26:41.27	200.80	81.98	-33.6	-47.8	3.8	1.49e+00	0	43	104	679477248	27	18474
2026-01-03 00:26:42.28	200.73	81.47	-33.6	-47.8	3.8	1.49e+00	0	43	104	679477248	27	18432
2026-01-03 00:26:43.28	200.68	80.96	-33.6	-47.8	3.8	1.49e+00	0	43	104	679477248	27	18490
2026-01-03 00:26:44.29	200.62	80.45	-33.6	-47.8	3.8	1.49e+00	0	43	104	679477248	27	18531
2026-01-03 00:26:45.29	200.58	79.95	-33.6	-47.8	3.8	1.49e+00	0	43	104	679477248	27	18392
2026-01-03 00:26:46.30	200.54	79.44	-33.6	-47.8	3.8	1.49e+00	0	43	104	679477248	27	18514
2026-01-03 00:26:47.31	200.50	78.94	-33.6	-47.8	3.8	1.49e+00	0	43	104	679477248	27	18403
2026-01-03 00:26:48.31	200.47	78.44	-33.6	-47.8	3.8	1.49e+00	0	43	104	679477248	27	18431
2026-01-03 00:26:49.32	200.44	77.93	-33.6	-47.8	3.8	1.49e+00	0	43	104	679477248	27	18464
2026-01-03 00:26:50.33	200.41	77.43	-33.6	-47.8	3.8	1.49e+00	0	43	104	679477248	27	18467
2026-01-03 00:26:51.33	200.38	76.94	-33.6	-47.7	3.8	1.49e+00	0	43	104	679477248	27	18382
2026-01-03 00:26:52.33	200.36	76.45	-33.6	-47.8	3.8	1.49e+00	0	43	104	679477248	27	18436
2026-01-03 00:26:53.34	200.34	75.95	-33.6	-47.8	3.8	1.49e+00	0	43	104	679477248	27	18471
2026-01-03 00:26:54.35	200.32	75.46	-33.6	-47.7	3.8	1.49e+00	0	43	104	679477248	27	18394
2026-01-03 00:26:55.35	200.30	74.97	-33.6	-47.8	3.8	1.49e+00	0	43	104	679477248	27	18423
2026-01-03 00:26:56.35	200.28	74.48	-33.6	-47.7	3.8	1.49e+00	0	43	104	679477248	27	18387
2026-01-03 00:26:57.37	200.27	73.99	-33.5	-47.7	3.8	1.49e+00	0	43	104	679477248	27	18448
2026-01-03 00:26:58.37	200.26	73.51	-33.5	-47.7	3.8	1.49e+00	0	43	104	679477248	27	18415
2026-01-03 00:26:59.37	200.24	73.03	-33.5	-47.7	3.8	1.49e+00	0	43	104	679477248	27	18370
2026-01-03 00:27:00.38	200.23	72.54	-33.5	-47.7	3.8	1.49e+00	0	43	104	679477248	27	18340
2026-01-03 00:27:01.38	200.22	72.07	-33.5	-47.7	3.8	1.49e+00	0	43	104	679477248	27	18321
2026-01-03 00:27:02.39	200.21	71.59	-33.5	-47.7	3.8	1.49e+00	0	43	104	679477248	27	18329
2026-01-03 00:27:03.40	200.20	71.11	-33.5	-47.7	3.8	1.49e+00	0	43	104	679477248	27	18304
2026-01-03 00:27:04.40	200.19	70.64	-33.5	-47.7	3.8	1.49e+00	0	43	104	679477248	27	18406
2026-01-03 00:27:05.41	200.18	70.17	-33.5	-47.7	3.8	1.49e+00	0	43	104	679477248	27	18350
2026-01-03 00:27:06.42	200.17	69.70	-33.5	-47.7	3.8	1.49e+00	0	43	104	679477248	27	18352
2026-01-03 00:27:07.43	200.17	69.23	-33.5	-47.7	3.8	1.49e+00	0	43	104	679477248	27	18380
2026-01-03 00:27:08.44	200.16	68.77	-33.5	-47.7	3.8	1.49e+00	0	43	104	679477248	27	18353
2026-01-03 00:27:09.45	200.15	68.30	-33.5	-47.7	3.8	1.49e+00	0	43	104	679477248	27	18390
2026-01-03 00:27:10.45	200.15	67.85	-33.5	-47.7	3.8	1.49e+00	0	43	104	679477248	27	18287
2026-01-03 00:27:11.46	200.14	67.39	-33.5	-47.7	3.8	1.49e+00	0	43	104	679477248	27	18358
2026-01-03 00:27:12.47	200.14	66.93	-33.6	-47.7	3.8	1.49e+00	0	43	104	679477248	27	18328
2026-01-03 00:27:13.48	200.13	66.48	-33.5	-47.7	3.8	1.49e+00	0	43	104	679477248	27	18349
2026-01-03 00:27:14.48	200.13	66.03	-33.5	-47.6	3.8	1.49e+00	0	43	104	679477248	27	18268
2026-01-03 00:27:15.47	200.13	65.59	-33.5	-47.7	3.8	1.49e+00	0	43	104	679477248	27	18324
2026-01-03 00:27:16.47	200.12	65.15	-33.5	-47.6	3.8	1.49e+00	0	43	104	679477248	27	18322
2026-01-03 00:27:17.47	200.12	64.71	-33.5	-47.6	3.8	1.49e+00	0	43	104	679477248	27	18222
2026-01-03 00:27:18.48	200.12	64.27	-33.5	-47.6	3.8	1.49e+00	0	43	104	679477248	27	18268
2026-01-03 00:27:19.48	200.11	63.84	-33.5	-47.6	3.8	1.49e+00	0	43	104	679477248	27	18224
2026-01-03 00:27:20.49	200.11	63.40	-33.5	-47.6	3.8	1.49e+00	0	43	104	679477248	27	18271
2026-01-03 00:27:21.49	200.11	62.97	-33.5	-47.7	3.8	1.49e+00	0	43	104	679477248	27	18293
2026-01-03 00:27:22.50	200.11	62.54	-33.5	-47.7	3.8	1.49e+00	0	43	104	679477248	27	18299
2026-01-03 00:27:23.51	200.10	62.12	-33.5	-47.7	3.8	1.49e+00	0	43	104	679477248	27	18287
2026-01-03 00:27:24.51	200.10	61.70	-33.5	-47.6	3.8	1.49e+00	0	43	104	679477248	27	18274
2026-01-03 00:27:25.52	200.10	61.27	-33.5	-47.6	3.8	1.49e+00	0	43	104	679477248	27	18285
2026-01-03 00:27:26.53	200.10	60.85	-33.5	-47.7	3.8	1.49e+00	0	43	104	679477248	27	18323
2026-01-03 00:27:27.53	200.10	60.44	-33.5	-47.7	3.8	1.49e+00	0	43	104	679477248	27	18299
2026-01-03 00:27:28.54	200.10	60.03	-33.5	-47.7	3.8	1.49e+00	0	43	104	679477248	27	18320
2026-01-03 00:27:29.55	200.10	59.61	-33.5	-47.6	3.8	1.49e+00	0	43	104	679477248	27	18275
2026-01-03 00:27:30.55	200.09	59.21	-33.5	-47.7	3.8	1.49e+00	0	43	104	679477248	27	18316
2026-01-03 00:27:31.55	200.09	58.81	-33.5	-47.6	3.8	1.49e+00	0	43	104	679477248	27	18280
2026-01-03 00:27:32.56	200.09	58.40	-33.5	-47.6	3.8	1.49e+00	0	43	104	679477248	27	18295
2026-01-03 00:27:33.57	200.09	58.00	-33.5	-47.6	3.8	1.49e+00	0	43	104	679477248	27	18288
2026-01-03 00:27:34.57	200.09	57.61	-33.5	-47.6	3.8	1.49e+00	0	43	104	679477248	27	18283
2026-01-03 00:27:35.59	200.09	57.21	-33.5	-47.6	3.8	1.49e+00	0	43	104	679477248	27	18284
2026-01-03 00:27:36.59	200.09	56.82	-33.5	-47.6	3.8	1.49e+00	0	43	104	679477248	27	18290
2026-01-03 00:27:37.60	200.09	56.43	-33.5	-47.6	3.8	1.49e+00	0	43	104	679477248	27	18215
2026-01-03 00:27:38.61	200.09	56.04	-33.5	-47.6	3.8	1.49e+00	0	43	104	679477248	27	18266
2026-01-03 00:27:39.61	200.09	55.66	-33.5	-47.6	3.8	1.49e+00	0	43	104	679477248	27	18239
2026-01-03 00:27:40.62	200.09	55.28	-33.5	-47.6	3.8	1.49e+00	0	43	104	679477248	27	18285
2026-01-03 00:27:41.63	200.09	54.90	-33.5	-47.6	3.8	1.49e+00	0	43	104	679477248	27	18235
2026-01-03 00:27:42.63	200.09	54.53	-33.5	-47.6	3.8	1.49e+00	0	43	104	679477248	27	18258
2026-01-03 00:27:43.63	200.09	54.16	-33.5	-47.6	3.8	1.49e+00	0	43	104	679477248	27	18240
2026-01-03 00:27:44.64	200.09	53.79	-33.5	-47.6	3.8	1.49e+00	0	43	104	679477248	27	18233
2026-01-03 00:27:45.65	200.09	53.42	-33.5	-47.6	3.8	1.49e+00	0	43	104	679477248	27	18254
2026-01-03 00:27:46.65	200.10	53.06	-33.5	-47.6	3.8	1.49e+00	0	43	104	679477248	27	18270
2026-01-03 00:27:47.66	200.10	52.69	-33.5	-47.6	3.8	1.49e+00	0	44	104	679477248	27	18242
2026-01-03 00:27:48.67	200.10	52.33	-33.5	-47.6	3.8	1.49e+00	0	43	104	679477248	27	18223
2026-01-03 00:27:49.68	200.10	51.98	-33.5	-47.6	3.8	1.49e+00	0	43	104	679477248	27	18230
2026-01-03 00:27:50.68	200.10	51.62	-33.5	-47.6	3.8	1.49e+00	0	43	104	679477248	27	18241
2026-01-03 00:27:51.69	200.10	51.27	-33.5	-47.6	3.8	1.49e+00	0	43	104	679477248	27	18253
2026-01-03 00:27:52.69	200.10	50.93	-33.5	-47.6	3.8	1.49e+00	0	43	104	679477248	27	18220
2026-01-03 00:27:53.70	200.10	50.58	-33.5	-47.6	3.8	1.49e+00	0	43	104	679477248	27	18229
2026-01-03 00:27:54.70	200.10	50.24	-33.5	-47.6	3.8	1.49e+00	0	43	104	679477248	27	18234
2026-01-03 00:27:55.71	200.10	49.89	-33.5	-47.6	3.8	1.49e+00	0	43	104	679477248	27	18193
2026-01-03 00:27:56.71	200.11	49.56	-33.5	-47.6	3.8	1.49e+00	0	43	104	679477248	27	18241
2026-01-03 00:27:57.72	200.11	49.22	-33.5	-47.6	3.8	1.49e+00	0	43	104	679477248	27	18227
2026-01-03 00:27:58.72	200.11	48.89	-33.5	-47.6	3.8	1.49e+00	0	43	104	679477248	27	18213
2026-01-03 00:27:59.72	200.11	48.56	-33.5	-47.6	3.8	1.49e+00	0	43	104	679477248	27	18244
2026-01-03 00:28:00.73	200.11	48.23	-33.5	-47.6	3.8	1.49e+00	0	44	104	679477248	27	18215
2026-01-03 00:28:01.74	200.11	47.90	-33.5	-47.6	3.8	1.49e+00	0	43	104	679477248	27	18180
2026-01-03 00:28:02.73	200.11	47.58	-33.5	-47.5	3.8	1.49e+00	0	43	104	679477248	27	18160
2026-01-03 00:28:03.74	200.12	47.26	-33.5	-47.6	3.8	1.49e+00	0	43	104	679477248	27	18192
2026-01-03 00:28:04.74	200.12	46.95	-33.5	-47.6	3.8	1.49e+00	0	43	104	679477248	27	18186
2026-01-03 00:28:05.74	200.12	46.63	-33.5	-47.6	3.8	1.49e+00	0	43	104	679477248	27	18179
2026-01-03 00:28:06.75	200.12	46.32	-33.5	-48.0	3.8	1.49e+00	0	43	104	679477248	26	19266
2026-01-03 00:28:07.75	200.12	46.01	-33.5	-48.1	3.8	1.49e+00	0	43	104	679477248	26	19294
2026-01-03 00:28:08.76	200.12	45.70	-32.8	-47.3	3.8	1.49e+00	0	43	104	679477248	26	19252
2026-01-03 00:28:09.77	200.13	45.39	-33.5	-48.0	3.8	1.49e+00	0	43	104	679477248	26	19215
2026-01-03 00:28:10.77	200.13	45.09	-33.5	-48.0	3.8	1.49e+00	0	43	104	679477248	26	19185
2026-01-03 00:28:11.78	200.13	44.78	-33.5	-48.0	3.8	1.49e+00	0	43	104	679477248	26	19199
2026-01-03 00:28:12.78	200.13	44.48	-33.5	-48.0	3.8	1.49e+00	0	43	104	679477248	26	19221
2026-01-03 00:28:13.79	200.13	44.18	-33.5	-48.0	3.8	1.49e+00	0	43	104	679477248	26	19245
2026-01-03 00:28:14.78	200.14	43.89	-33.5	-48.0	3.8	1.49e+00	0	43	104	679477248	26	19171
2026-01-03 00:28:15.79	200.14	43.60	-33.5	-48.0	3.8	1.49e+00	0	43	104	679477248	26	19239
2026-01-03 00:28:16.79	200.14	43.31	-33.5	-48.0	3.8	1.49e+00	0	43	104	679477248	26	19148
2026-01-03 00:28:17.80	200.14	43.02	-33.5	-48.0	3.8	1.49e+00	0	43	104	679477248	26	19184
2026-01-03 00:28:18.81	200.14	42.73	-33.5	-48.0	3.8	1.49e+00	0	43	104	679477248	26	19199
2026-01-03 00:28:19.82	200.15	42.45	-33.4	-48.0	3.8	1.49e+00	0	43	104	679477248	26	19188
2026-01-03 00:28:20.82	200.15	42.17	-33.4	-48.0	3.8	1.49e+00	0	43	104	679477248	26	19184
2026-01-03 00:28:21.82	200.15	41.89	-33.4	-47.9	3.8	1.49e+00	0	43	104	679477248	26	19158
2026-01-03 00:28:22.83	200.15	41.61	-33.4	-47.9	3.8	1.49e+00	0	43	104	679477248	26	19155
2026-01-03 00:28:23.83	200.15	41.33	-33.4	-47.9	3.8	1.49e+00	0	43	104	679477248	26	19120
2026-01-03 00:28:24.84	200.16	41.06	-33.4	-47.9	3.8	1.49e+00	0	43	104	679477248	26	19139
2026-01-03 00:28:25.85	200.16	40.79	-33.4	-47.9	3.8	1.49e+00	0	43	104	679477248	26	19140
2026-01-03 00:28:26.86	200.16	40.52	-33.4	-47.9	3.8	1.49e+00	0	43	104	679477248	26	19093
2026-01-03 00:28:27.87	200.16	40.25	-33.4	-47.9	3.8	1.49e+00	0	43	104	679477248	26	19169
2026-01-03 00:28:28.87	200.16	39.98	-33.4	-47.9	3.8	1.49e+00	0	43	104	679477248	26	19076
2026-01-03 00:28:29.87	200.17	39.72	-33.4	-47.9	3.8	1.49e+00	0	43	104	679477248	26	19133
2026-01-03 00:28:30.88	200.17	39.46	-33.4	-47.9	3.8	1.49e+00	0	43	104	679477248	26	19087
2026-01-03 00:28:31.89	200.17	39.20	-33.4	-47.9	3.8	1.49e+00	0	43	104	679477248	26	19082
2026-01-03 00:28:32.89	200.17	38.94	-33.4	-47.9	3.8	1.49e+00	0	44	104	679477248	26	19031
2026-01-03 00:28:33.90	200.18	38.68	-33.4	-47.9	3.8	1.49e+00	0	43	104	679477248	26	19072
2026-01-03 00:28:34.91	200.18	38.43	-33.4	-47.9	3.8	1.49e+00	0	43	104	679477248	26	19044
2026-01-03 00:28:35.92	200.18	38.18	-33.4	-47.9	3.8	1.49e+00	0	43	104	679477248	26	19063
2026-01-03 00:28:36.92	200.18	37.93	-33.4	-47.9	3.8	1.49e+00	0	43	104	679477248	26	19063
2026-01-03 00:28:37.93	200.19	37.68	-33.4	-47.8	3.8	1.49e+00	0	43	104	679477248	26	19011
2026-01-03 00:28:38.94	200.19	37.43	-33.4	-47.8	3.8	1.49e+00	0	43	104	679477248	26	19043
2026-01-03 00:28:39.94	200.19	37.19	-33.4	-47.8	3.8	1.49e+00	0	43	104	679477248	26	18989
2026-01-03 00:28:40.94	200.19	36.94	-33.4	-47.8	3.8	1.49e+00	0	43	104	679477248	26	19037
2026-01-03 00:28:41.94	200.20	36.70	-33.4	-47.8	3.8	1.49e+00	0	43	104	679477248	26	19035
2026-01-03 00:28:42.95	200.20	36.46	-33.4	-47.8	3.8	1.49e+00	0	43	104	679477248	26	19032
2026-01-03 00:28:43.96	200.20	36.23	-33.4	-47.8	3.8	1.49e+00	0	43	104	679477248	26	19005
2026-01-03 00:28:44.97	200.20	35.99	-33.4	-47.8	3.8	1.49e+00	0	43	104	679477248	26	19053
2026-01-03 00:28:45.97	200.21	35.76	-33.4	-47.8	3.8	1.49e+00	0	43	104	679477248	26	18993
2026-01-03 00:28:46.98	200.21	35.52	-33.4	-47.8	3.8	1.49e+00	0	43	104	679477248	26	18919
2026-01-03 00:28:47.99	200.21	35.29	-33.3	-47.8	3.8	1.49e+00	0	43	104	679477248	26	18984
2026-01-03 00:28:48.99	200.21	35.06	-33.3	-47.8	3.8	1.49e+00	0	43	104	679477248	26	18998
2026-01-03 00:28:50.00	200.22	34.83	-33.4	-47.8	3.8	1.49e+00	0	43	104	679477248	26	18975
2026-01-03 00:28:51.01	200.22	34.61	-33.3	-47.8	3.8	1.49e+00	0	43	104	679477248	26	18941
2026-01-03 00:28:52.01	200.22	34.38	-33.3	-47.7	3.8	1.49e+00	0	43	104	679477248	26	18916
2026-01-03 00:28:53.02	200.22	34.16	-33.3	-47.8	3.8	1.49e+00	0	43	104	679477248	26	18924
2026-01-03 00:28:54.03	200.23	33.94	-33.3	-47.8	3.8	1.49e+00	0	43	104	679477248	26	18938
2026-01-03 00:28:55.03	200.23	33.72	-33.3	-47.8	3.8	1.49e+00	0	43	104	679477248	26	18954
2026-01-03 00:28:56.04	200.23	33.50	-33.3	-47.7	3.8	1.49e+00	0	43	104	679477248	26	18917
2026-01-03 00:28:57.04	200.23	33.29	-33.3	-47.8	3.8	1.49e+00	0	43	104	679477248	26	18913
2026-01-03 00:28:58.05	200.24	33.07	-33.3	-47.7	3.8	1.49e+00	0	44	104	679477248	26	18871
2026-01-03 00:28:59.05	200.24	32.86	-33.3	-47.7	3.8	1.49e+00	0	43	104	679477248	26	18884
2026-01-03 00:29:00.06	200.24	32.65	-33.3	-47.7	3.8	1.49e+00	0	43	104	679477248	26	18929
2026-01-03 00:29:01.07	200.24	32.44	-33.3	-47.8	3.8	1.49e+00	0	43	104	679477248	26	18977
2026-01-03 00:29:02.07	200.25	32.23	-33.3	-47.7	3.8	1.49e+00	0	43	104	679477248	26	18897
2026-01-03 00:29:03.06	200.25	32.02	-33.3	-47.7	3.8	1.49e+00	0	43	104	679477248	26	18865
2026-01-03 00:29:04.07	200.25	31.82	-33.3	-47.7	3.8	1.49e+00	0	43	104	679477248	26	18951
2026-01-03 00:29:05.08	200.25	31.61	-33.3	-47.7	3.8	1.49e+00	0	43	104	679477248	26	18887
2026-01-03 00:29:06.07	200.26	31.41	-33.3	-47.7	3.8	1.49e+00	0	43	104	679477248	26	18887
2026-01-03 00:29:07.08	200.26	31.21	-33.3	-47.7	3.8	1.49e+00	0	43	104	679477248	26	18861
2026-01-03 00:29:08.09	200.26	31.01	-33.3	-47.7	3.8	1.49e+00	0	43	104	679477248	26	18846
2026-01-03 00:29:09.09	200.27	30.81	-33.3	-47.7	3.8	1.49e+00	0	43	104	679477248	26	18848
2026-01-03 00:29:10.09	200.27	30.61	-33.3	-47.7	3.8	1.49e+00	0	43	104	679477248	26	18835
2026-01-03 00:29:11.10	200.27	30.42	-33.3	-47.6	3.8	1.49e+00	0	43	104	679477248	26	18842
2026-01-03 00:29:12.11	200.27	30.22	-33.3	-47.6	3.8	1.49e+00	0	43	104	679477248	26	18822
2026-01-03 00:29:13.12	200.28	30.03	-33.3	-47.6	3.8	1.49e+00	0	43	104	679477248	26	18805
2026-01-03 00:29:14.12	200.28	29.83	-33.3	-47.6	3.8	1.49e+00	0	43	104	679477248	26	18774
2026-01-03 00:29:15.13	200.28	29.64	-33.3	-47.6	3.8	1.49e+00	0	43	104	679477248	26	18813
2026-01-03 00:29:16.14	200.28	29.45	-33.3	-47.6	3.8	1.49e+00	0	43	104	679477248	26	18792
2026-01-03 00:29:17.14	200.29	29.26	-33.2	-47.6	3.8	1.49e+00	0	43	104	679477248	26	18768
2026-01-03 00:29:18.14	200.29	29.08	-33.2	-47.6	3.8	1.49e+00	0	43	104	679477248	26	18726
2026-01-03 00:29:19.15	200.29	28.89	-33.2	-47.6	3.8	1.49e+00	0	43	104	679477248	26	18802
2026-01-03 00:29:20.16	200.30	28.71	-33.2	-47.6	3.8	1.49e+00	0	43	104	679477248	26	18759
2026-01-03 00:29:21.16	200.30	28.52	-33.2	-47.6	3.8	1.49e+00	0	43	104	679477248	26	18755
2026-01-03 00:29:22.17	200.30	28.34	-33.2	-47.6	3.8	1.49e+00	0	43	104	679477248	26	18784
2026-01-03 00:29:23.18	200.30	28.16	-33.2	-47.6	3.8	1.49e+00	0	43	104	679477248	26	18761
2026-01-03 00:29:24.19	200.31	27.98	-33.2	-47.6	3.8	1.49e+00	0	43	104	679477248	26	18731
2026-01-03 00:29:25.20	200.31	27.80	-33.2	-47.5	3.8	1.49e+00	0	43	104	679477248	26	18745
2026-01-03 00:29:26.20	200.31	27.62	-33.2	-47.6	3.8	1.49e+00	0	43	104	679477248	26	18751
2026-01-03 00:29:27.20	200.32	27.45	-33.2	-47.5	3.8	1.49e+00	0	43	104	679477248	26	18748
2026-01-03 00:29:28.20	200.32	27.27	-33.2	-47.5	3.8	1.49e+00	0	43	104	679477248	26	18742
2026-01-03 00:29:29.21	200.32	27.10	-32.2	-46.6	3.8	1.49e+00	0	43	104	679477248	25	18977
2026-01-03 00:29:30.22	200.32	26.92	-33.2	-47.5	3.8	1.49e+00	0	43	104	679477248	26	18677
2026-01-03 00:29:31.22	200.33	26.75	-33.2	-47.5	3.8	1.49e+00	0	43	104	679477248	26	18699
2026-01-03 00:29:32.22	200.33	26.58	-33.2	-47.5	3.8	1.49e+00	0	43	104	679477248	26	18682
2026-01-03 00:29:33.23	200.33	26.41	-33.2	-47.5	3.8	1.49e+00	0	44	104	679477248	26	18669
2026-01-03 00:29:34.24	200.33	26.24	-33.2	-47.5	3.8	1.49e+00	0	43	104	679477248	26	18695
2026-01-03 00:29:35.25	200.34	26.07	-33.2	-47.5	3.8	1.49e+00	0	43	104	679477248	26	18664
2026-01-03 00:29:36.26	200.34	25.90	-33.2	-47.5	3.8	1.49e+00	0	43	104	679477248	26	18650
2026-01-03 00:29:37.27	200.34	25.74	-33.2	-47.5	3.8	1.49e+00	0	43	104	679477248	26	18728
2026-01-03 00:29:38.27	200.35	25.57	-33.2	-47.5	3.8	1.49e+00	0	43	104	679477248	26	18648
2026-01-03 00:29:39.28	200.35	25.41	-33.2	-47.5	3.8	1.49e+00	0	43	104	679477248	26	18718
2026-01-03 00:29:40.29	200.35	25.25	-33.2	-47.5	3.8	1.49e+00	0	43	104	679477248	26	18649
2026-01-03 00:29:41.29	200.36	25.09	-33.2	-47.5	3.8	1.49e+00	0	43	104	679477248	26	18656
2026-01-03 00:29:42.30	200.36	24.92	-33.2	-47.4	3.8	1.49e+00	0	43	104	679477248	26	18595
2026-01-03 00:29:43.30	200.36	24.77	-33.2	-47.4	3.8	1.49e+00	0	43	104	679477248	26	18629
2026-01-03 00:29:44.31	200.36	24.61	-33.2	-47.4	3.8	1.49e+00	0	43	104	679477248	26	18600
2026-01-03 00:29:45.32	200.37	24.45	-33.2	-47.5	3.8	1.49e+00	0	43	104	679477248	26	18662
2026-01-03 00:29:46.33	200.37	24.29	-33.2	-47.5	3.8	1.49e+00	0	43	104	679477248	26	18650
2026-01-03 00:29:47.32	200.37	24.14	-33.2	-47.4	3.8	1.49e+00	0	43	104	679477248	26	18597
2026-01-03 00:29:48.33	200.38	23.98	-33.2	-47.4	3.8	1.49e+00	0	43	104	679477248	26	18619
2026-01-03 00:29:49.34	200.38	23.83	-33.2	-47.4	3.8	1.49e+00	0	43	104	679477248	26	18583
2026-01-03 00:29:50.35	200.38	23.67	-33.2	-47.4	3.8	1.49e+00	0	43	104	679477248	26	18567
2026-01-03 00:29:51.36	200.38	23.52	-33.1	-47.4	3.8	1.49e+00	0	43	104	679477248	26	18547
2026-01-03 00:29:52.36	200.39	23.37	-33.2	-47.4	3.8	1.49e+00	0	43	104	679477248	26	18547
2026-01-03 00:29:53.37	200.39	23.22	-33.1	-47.4	3.8	1.49e+00	0	43	104	679477248	26	18554
2026-01-03 00:29:54.38	200.39	23.07	-33.1	-47.4	3.8	1.49e+00	0	43	104	679477248	26	18549
2026-01-03 00:29:55.38	200.40	22.92	-33.1	-47.4	3.8	1.49e+00	0	43	104	679477248	26	18505
2026-01-03 00:29:56.39	200.40	22.77	-33.1	-47.4	3.8	1.49e+00	0	43	104	679477248	26	18526
2026-01-03 00:29:57.39	200.40	22.62	-33.1	-47.3	3.8	1.49e+00	0	43	104	679477248	26	18459
2026-01-03 00:29:58.40	200.40	22.48	-33.1	-47.3	3.8	1.49e+00	0	43	104	679477248	26	18468
2026-01-03 00:29:59.40	200.41	22.33	-33.1	-47.3	3.8	1.49e+00	0	43	104	679477248	26	18507
2026-01-03 00:30:00.39	200.41	22.19	-33.1	-47.3	3.8	1.49e+00	0	43	104	679477248	26	18441
2026-01-03 00:30:01.40	200.41	22.05	-33.1	-47.3	3.8	1.49e+00	0	43	104	679477248	26	18473
2026-01-03 00:30:02.41	200.42	21.90	-33.1	-47.2	3.8	1.49e+00	0	43	104	679477248	26	18343
2026-01-03 00:30:03.42	200.42	21.76	-33.1	-47.3	3.8	1.49e+00	0	43	104	679477248	26	18407
2026-01-03 00:30:04.43	200.42	21.62	-33.1	-47.3	3.8	1.49e+00	0	43	104	679477248	26	18431
2026-01-03 00:30:05.43	200.42	21.48	-33.1	-47.3	3.8	1.49e+00	0	43	104	679477248	26	18418
2026-01-03 00:30:06.44	200.43	21.34	-33.1	-47.2	3.8	1.49e+00	0	44	104	679477248	26	18396
2026-01-03 00:30:07.45	200.43	21.20	-33.1	-47.2	3.8	1.49e+00	0	43	104	679477248	26	18390
2026-01-03 00:30:08.46	200.43	21.06	-33.1	-47.2	3.8	1.49e+00	0	43	104	679477248	26	18376
2026-01-03 00:30:09.47	200.44	20.92	-33.1	-47.2	3.8	1.49e+00	0	43	104	679477248	26	18398
2026-01-03 00:30:10.48	200.44	20.78	-33.1	-47.2	3.8	1.49e+00	0	43	104	679477248	26	18349
2026-01-03 00:30:11.48	200.44	20.65	-33.1	-47.2	3.8	1.49e+00	0	43	104	679477248	26	18322
2026-01-03 00:30:12.48	200.45	20.51	-33.1	-47.2	3.8	1.49e+00	0	43	104	679477248	26	18360
2026-01-03 00:30:13.49	200.45	20.38	-33.0	-47.2	3.8	1.49e+00	0	43	104	679477248	26	18316
2026-01-03 00:30:14.48	200.45	20.25	-32.0	-46.1	3.8	1.49e+00	0	43	104	679477248	26	18099
2026-01-03 00:30:15.49	200.45	20.11	-32.1	-46.1	3.8	1.49e+00	0	43	104	679477248	26	18145
2026-01-03 00:30:16.50	200.46	19.98	-33.0	-47.2	3.8	1.49e+00	0	43	104	679477248	26	18306
2026-01-03 00:30:17.50	200.46	19.85	-32.3	-46.3	3.8	1.49e+00	0	43	104	679477248	25	18084
2026-01-03 00:30:18.51	200.46	19.72	-33.0	-47.1	3.8	1.49e+00	0	43	104	679477248	26	18219
2026-01-03 00:30:19.52	200.47	19.59	-33.0	-47.2	3.8	1.49e+00	0	43	104	679477248	26	18315
2026-01-03 00:30:20.52	200.47	19.46	-33.0	-47.1	3.8	1.49e+00	0	43	104	679477248	26	18298
2026-01-03 00:30:21.53	200.47	19.33	-33.0	-47.1	3.8	1.49e+00	0	43	104	679477248	26	18246
2026-01-03 00:30:22.53	200.48	19.20	-33.0	-47.1	3.8	1.49e+00	0	43	104	679477248	26	18259
2026-01-03 00:30:23.54	200.48	19.07	-33.0	-47.6	3.8	1.49e+00	0	43	104	679477248	25	19315
2026-01-03 00:30:24.55	200.48	18.95	-33.0	-47.1	3.8	1.49e+00	0	43	104	679477248	26	18279
2026-01-03 00:30:25.56	200.48	18.82	-33.0	-47.1	3.8	1.49e+00	0	43	104	679477248	26	18295
2026-01-03 00:30:26.56	200.49	18.69	-33.0	-47.1	3.8	1.49e+00	0	43	104	679477248	26	18290
2026-01-03 00:30:27.56	200.49	18.57	-33.0	-47.1	3.8	1.49e+00	0	43	104	679477248	26	18256
2026-01-03 00:30:28.57	200.49	18.44	-33.0	-47.1	3.8	1.49e+00	0	43	104	679477248	26	18286
2026-01-03 00:30:29.58	200.50	18.32	-33.0	-47.1	3.8	1.49e+00	0	43	104	679477248	26	18233
2026-01-03 00:30:30.59	200.50	18.20	-33.0	-47.6	3.8	1.49e+00	0	43	104	679477248	25	19300
2026-01-03 00:30:31.59	200.50	18.07	-33.0	-47.5	3.8	1.49e+00	0	43	104	679477248	25	19241
2026-01-03 00:30:32.59	200.50	17.95	-33.0	-47.6	3.8	1.49e+00	0	43	104	679477248	25	19299
2026-01-03 00:30:33.60	200.51	17.83	-33.0	-47.5	3.8	1.49e+00	0	43	104	679477248	25	19219
2026-01-03 00:30:34.60	200.51	17.71	-33.0	-47.5	3.8	1.49e+00	0	44	104	679477248	25	19257
2026-01-03 00:30:35.60	200.51	17.59	-33.0	-47.5	3.8	1.49e+00	0	43	104	679477248	25	19244
2026-01-03 00:30:36.61	200.52	17.47	-33.0	-47.5	3.8	1.49e+00	0	43	104	679477248	25	19228
2026-01-03 00:30:37.62	200.52	17.35	-33.0	-47.5	3.8	1.49e+00	0	43	104	679477248	25	19223
2026-01-03 00:30:38.63	200.52	17.23	-33.0	-47.5	3.8	1.49e+00	0	43	104	679477248	25	19198
2026-01-03 00:30:39.63	200.53	17.12	-32.9	-47.5	3.8	1.49e+00	0	43	104	679477248	25	19181
2026-01-03 00:30:40.64	200.53	17.00	-33.0	-47.5	3.8	1.49e+00	0	43	104	679477248	25	19168
2026-01-03 00:30:41.64	200.53	16.88	-32.9	-47.5	3.8	1.49e+00	0	43	104	679477248	25	19168
2026-01-03 00:30:42.64	200.53	16.77	-32.9	-47.4	3.8	1.49e+00	0	43	104	679477248	25	19134
2026-01-03 00:30:43.64	200.54	16.65	-32.9	-47.4	3.8	1.49e+00	0	43	104	679477248	25	19143
2026-01-03 00:30:44.65	200.54	16.54	-32.9	-47.4	3.8	1.49e+00	0	43	104	679477248	25	19127
2026-01-03 00:30:45.66	200.54	16.42	-32.9	-47.4	3.8	1.49e+00	0	43	104	679477248	25	19134
2026-01-03 00:30:46.66	200.55	16.31	-32.9	-47.4	3.8	1.49e+00	0	43	104	679477248	25	19132
2026-01-03 00:30:47.66	200.55	16.19	-32.0	-46.5	3.8	1.49e+00	0	43	104	679477248	25	19055
2026-01-03 00:30:48.67	200.55	16.08	-32.9	-47.4	3.8	1.49e+00	0	43	104	679477248	25	19073
2026-01-03 00:30:49.67	200.56	15.97	-32.9	-47.4	3.8	1.49e+00	0	43	104	679477248	25	19071
2026-01-03 00:30:50.68	200.56	15.86	-32.9	-47.3	3.8	1.49e+00	0	43	104	679477248	25	19016
2026-01-03 00:30:51.69	200.56	15.75	-32.9	-47.3	3.8	1.49e+00	0	43	104	679477248	25	19018
2026-01-03 00:30:52.69	200.56	15.63	-32.9	-47.3	3.8	1.49e+00	0	43	104	679477248	25	18994
2026-01-03 00:30:53.69	200.57	15.53	-32.9	-47.3	3.8	1.49e+00	0	43	104	679477248	25	19020
2026-01-03 00:30:54.69	200.57	15.42	-32.8	-47.3	3.8	1.49e+00	0	43	104	679477248	25	18992
2026-01-03 00:30:55.70	200.57	15.31	-32.8	-47.3	3.8	1.49e+00	0	43	104	679477248	25	18964
2026-01-03 00:30:56.71	200.58	15.20	-32.8	-47.3	3.8	1.49e+00	0	43	104	679477248	25	18942
2026-01-03 00:30:57.71	200.58	15.09	-32.8	-47.2	3.8	1.49e+00	0	43	104	679477248	25	18912
2026-01-03 00:30:58.72	200.58	14.98	-32.8	-47.2	3.8	1.49e+00	0	43	104	679477248	25	18909
2026-01-03 00:30:59.72	200.59	14.87	-32.8	-47.2	3.8	1.49e+00	0	43	104	679477248	25	18860
2026-01-03 00:31:00.73	200.59	14.77	-32.8	-47.2	3.8	1.49e+00	0	44	104	679477248	25	18950
2026-01-03 00:31:01.74	200.59	14.66	-32.8	-47.2	3.8	1.49e+00	0	43	104	679477248	25	18896
2026-01-03 00:31:02.75	200.59	14.55	-32.8	-47.2	3.8	1.49e+00	0	43	104	679477248	25	18860
2026-01-03 00:31:03.75	200.60	14.45	-32.8	-47.2	3.8	1.49e+00	0	43	104	679477248	25	18842
2026-01-03 00:31:04.76	200.60	14.34	-32.8	-47.2	3.8	1.49e+00	0	43	104	679477248	25	18826
2026-01-03 00:31:05.77	200.60	14.24	-32.8	-47.2	3.8	1.49e+00	0	43	104	679477248	25	18878
2026-01-03 00:31:06.78	200.61	14.13	-32.8	-47.2	3.8	1.49e+00	0	43	104	679477248	25	18853
2026-01-03 00:31:07.78	200.61	14.03	-32.8	-47.2	3.8	1.49e+00	0	43	104	679477248	25	18839
2026-01-03 00:31:08.79	200.61	13.93	-32.8	-47.2	3.8	1.49e+00	0	43	104	679477248	25	18805
2026-01-03 00:31:09.80	200.62	13.82	-32.8	-47.2	3.8	1.49e+00	0	43	104	679477248	25	18830
2026-01-03 00:31:10.80	200.62	13.72	-32.8	-47.1	3.8	1.49e+00	0	43	104	679477248	25	18796
2026-01-03 00:31:11.81	200.62	13.62	-32.8	-47.1	3.8	1.49e+00	0	43	104	679477248	25	18816
2026-01-03 00:31:12.82	200.62	13.52	-32.8	-47.1	3.8	1.49e+00	0	43	104	679477248	25	18786
2026-01-03 00:31:13.83	200.63	13.41	-32.8	-47.2	3.8	1.49e+00	0	43	104	679477248	25	18842
2026-01-03 00:31:14.83	200.63	13.31	-32.8	-47.1	3.8	1.49e+00	0	43	104	679477248	25	18785
2026-01-03 00:31:15.84	200.63	13.21	-32.8	-47.1	3.8	1.49e+00	0	43	104	679477248	25	18794
2026-01-03 00:31:16.85	200.64	13.11	-32.8	-47.1	3.8	1.49e+00	0	43	104	679477248	25	18785
2026-01-03 00:31:17.86	200.64	13.01	-32.8	-47.1	3.8	1.49e+00	0	43	104	679477248	25	18807
2026-01-03 00:31:18.86	200.64	12.91	-32.8	-47.1	3.8	1.49e+00	0	43	104	679477248	25	18737
2026-01-03 00:31:19.87	200.65	12.82	-32.8	-47.1	3.8	1.49e+00	0	43	104	679477248	25	18815
2026-01-03 00:31:20.88	200.65	12.72	-32.8	-47.1	3.8	1.49e+00	0	43	104	679477248	25	18822
2026-01-03 00:31:21.88	200.65	12.62	-32.8	-47.1	3.8	1.49e+00	0	43	104	679477248	25	18766
2026-01-03 00:31:22.88	200.65	12.52	-32.8	-47.1	3.8	1.49e+00	0	43	104	679477248	25	18733
2026-01-03 00:31:23.89	200.66	12.42	-32.7	-47.1	3.8	1.49e+00	0	43	104	679477248	25	18717
2026-01-03 00:31:24.90	200.66	12.33	-32.7	-47.1	3.8	1.49e+00	0	44	104	679477248	25	18711
2026-01-03 00:31:25.90	200.66	12.23	-32.7	-47.0	3.8	1.49e+00	0	43	104	679477248	25	18656
2026-01-03 00:31:26.91	200.67	12.14	-32.7	-47.0	3.8	1.49e+00	0	43	104	679477248	25	18715
2026-01-03 00:31:27.92	200.67	12.04	-32.7	-47.0	3.8	1.49e+00	0	43	104	679477248	25	18679
2026-01-03 00:31:28.93	200.67	11.94	-32.7	-47.0	3.8	1.49e+00	0	43	104	679477248	25	18699
2026-01-03 00:31:29.93	200.68	11.85	-32.7	-47.0	3.8	1.49e+00	0	43	104	679477248	25	18719
2026-01-03 00:31:30.94	200.68	11.75	-32.7	-47.0	3.8	1.49e+00	0	43	104	679477248	25	18704
2026-01-03 00:31:31.94	200.68	11.66	-32.7	-47.0	3.8	1.49e+00	0	43	104	679477248	25	18626
2026-01-03 00:31:32.95	200.68	11.57	-32.7	-47.0	3.8	1.49e+00	0	43	104	679477248	25	18575
2026-01-03 00:31:33.96	200.69	11.47	-32.7	-46.9	3.8	1.49e+00	0	43	104	679477248	25	18530
2026-01-03 00:31:34.96	200.69	11.38	-32.7	-47.0	3.8	1.49e+00	0	43	104	679477248	25	18609
2026-01-03 00:31:35.96	200.69	11.29	-32.7	-46.9	3.8	1.49e+00	0	43	104	679477248	25	18592
2026-01-03 00:31:36.97	200.70	11.20	-32.7	-46.9	3.8	1.49e+00	0	43	104	679477248	25	18591
2026-01-03 00:31:37.97	200.70	11.10	-32.7	-47.0	3.8	1.49e+00	0	43	104	679477248	25	18608
2026-01-03 00:31:38.98	200.70	11.01	-32.7	-46.9	3.8	1.49e+00	0	43	104	679477248	25	18551
2026-01-03 00:31:39.99	200.71	10.92	-32.7	-46.9	3.8	1.49e+00	0	43	104	679477248	25	18538
2026-01-03 00:31:40.99	200.71	10.83	-32.7	-46.9	3.8	1.49e+00	0	43	104	679477248	25	18465
2026-01-03 00:31:42.00	200.71	10.74	-32.6	-46.8	3.8	1.49e+00	0	43	104	679477248	25	18464
2026-01-03 00:31:43.00	200.71	10.65	-32.6	-46.8	3.8	1.49e+00	0	43	104	679477248	25	18405
2026-01-03 00:31:44.01	200.72	10.56	-32.6	-46.8	3.8	1.49e+00	0	43	104	679477248	25	18407
2026-01-03 00:31:45.02	200.72	10.47	-32.6	-46.8	3.8	1.49e+00	0	43	104	679477248	25	18388
2026-01-03 00:31:46.02	200.72	10.38	-32.6	-46.7	3.8	1.49e+00	0	43	104	679477248	25	18329
2026-01-03 00:31:47.03	200.73	10.29	-32.6	-46.7	3.8	1.49e+00	0	43	104	679477248	25	18330
