passes_logs/2026/01/03/R2M6_AANII_01/R2M6_AANII_01__20260103_083421_NOAA_20_JPSS-1_rec.log

#Pass ID: 20260103_083421_NOAA 20 (JPSS-1)
#Satellite: NOAA 20 (JPSS-1)
#Configuration: NOAA 20
#almurnet v.1.7.20240730
#Start time: 2026-01-03 08:34:21

#Version: 2.2.20231116
#Station: R2M6_AANII_01
#Location: 30.233357 lon 59.946436 lat
#TLE: 1 43013U 17073A   26002.21975278  .00000202  00000+0  11669-3 0  9999
#TLE: 2 43013  98.7622 303.2950 0001915  57.9213 302.2149 14.19532512420923

#Time	Az	El	Level	Level2	SNR	BER	BlckErr	Temp	State	Recorded	gain1	gain2
2026-01-03 08:34:21.54	106.19	7.00	-32.0	-40.1	4.3	1.40e+00	0	40	0	0	25	9143
2026-01-03 08:34:22.54	106.10	7.06	-31.9	-39.1	4.5	1.36e+00	0	40	104	0	25	8276
2026-01-03 08:34:23.55	106.02	7.13	-31.8	-38.7	6.1	3.24e-01	0	40	0	0	25	7942
2026-01-03 08:34:24.56	105.93	7.20	-31.8	-38.8	6.1	3.09e-01	0	40	0	1048576	25	8028
2026-01-03 08:34:25.56	105.85	7.27	-31.8	-38.8	6.1	2.92e-01	0	40	0	3145728	25	8003
2026-01-03 08:34:26.57	105.76	7.33	-31.8	-38.7	6.1	3.26e-01	0	40	0	5242880	25	7978
2026-01-03 08:34:27.58	105.67	7.40	-31.9	-38.7	6.2	2.82e-01	0	40	0	7340032	25	7965
2026-01-03 08:34:28.59	105.59	7.47	-31.8	-38.7	6.2	2.88e-01	0	41	0	9437184	25	7933
2026-01-03 08:34:29.60	105.50	7.54	-31.8	-38.7	6.5	2.68e-01	0	41	0	10485760	24	7987
2026-01-03 08:34:30.60	105.41	7.60	-31.6	-37.6	7.4	1.71e-01	0	40	0	12582912	24	7205
2026-01-03 08:34:31.61	105.32	7.67	-31.4	-36.7	8.1	7.38e-02	0	41	0	14680064	24	6611
2026-01-03 08:34:32.62	105.23	7.74	-31.2	-36.3	8.9	3.94e-02	0	41	0	16777216	23	6475
2026-01-03 08:34:33.62	105.15	7.81	-31.0	-35.7	9.4	2.28e-02	0	41	0	18874368	23	6150
2026-01-03 08:34:34.63	105.06	7.88	-30.9	-35.2	9.7	1.13e-02	0	41	0	19922944	23	5895
2026-01-03 08:34:35.64	104.97	7.94	-30.8	-34.9	10.0	7.89e-03	0	41	0	22020096	23	5750
2026-01-03 08:34:36.65	104.87	8.01	-30.8	-35.1	10.2	6.02e-03	0	41	0	24117248	22	5932
2026-01-03 08:34:37.65	104.78	8.08	-30.8	-35.1	10.3	5.38e-03	0	41	0	26214400	22	5923
2026-01-03 08:34:38.66	104.69	8.15	-30.9	-35.4	10.0	7.47e-03	0	41	0	28311552	22	6105
2026-01-03 08:34:39.66	104.60	8.22	-30.8	-35.3	10.1	7.23e-03	0	41	0	29360128	22	6050
2026-01-03 08:34:40.67	104.51	8.29	-30.9	-35.6	10.0	6.62e-03	0	41	0	31457280	22	6154
2026-01-03 08:34:41.68	104.42	8.36	-30.8	-35.3	10.1	7.04e-03	0	41	0	33554432	22	6036
2026-01-03 08:34:42.68	104.32	8.42	-30.8	-35.2	10.3	6.15e-03	0	41	0	35651584	22	5972
2026-01-03 08:34:43.69	104.23	8.49	-30.8	-35.1	10.3	5.76e-03	0	41	0	37748736	22	5908
2026-01-03 08:34:44.69	104.14	8.56	-30.8	-35.2	10.3	4.91e-03	0	41	0	38797312	22	5942
2026-01-03 08:34:45.70	104.04	8.63	-30.8	-35.1	10.3	5.83e-03	0	41	0	40894464	22	5929
2026-01-03 08:34:46.71	103.95	8.70	-30.9	-35.4	10.1	5.38e-03	0	41	0	42991616	22	6071
2026-01-03 08:34:47.71	103.85	8.77	-30.9	-35.3	10.2	6.43e-03	0	41	0	45088768	22	6027
2026-01-03 08:34:48.71	103.76	8.84	-30.9	-35.3	10.2	5.32e-03	0	41	0	47185920	22	6000
2026-01-03 08:34:49.71	103.66	8.91	-30.8	-35.3	10.2	5.22e-03	0	41	0	48234496	22	5999
2026-01-03 08:34:50.71	103.56	8.98	-30.9	-35.3	10.3	5.99e-03	0	41	0	50331648	22	6017
2026-01-03 08:34:51.72	103.47	9.05	-30.8	-35.2	10.3	6.17e-03	0	41	0	52428800	22	5957
2026-01-03 08:34:52.72	103.37	9.12	-30.8	-35.0	10.5	4.37e-03	0	41	0	54525952	22	5850
2026-01-03 08:34:53.73	103.27	9.19	-30.8	-35.0	10.5	4.18e-03	0	41	0	56623104	22	5835
2026-01-03 08:34:54.74	103.17	9.26	-30.8	-35.1	10.5	4.07e-03	0	41	0	57671680	22	5878
2026-01-03 08:34:55.74	103.07	9.33	-30.8	-35.2	10.4	4.57e-03	0	41	0	59768832	22	5946
2026-01-03 08:34:56.75	102.97	9.40	-30.8	-35.0	10.5	4.92e-03	0	41	0	61865984	22	5860
2026-01-03 08:34:57.75	102.87	9.47	-30.7	-34.9	10.6	3.58e-03	0	41	0	63963136	22	5797
2026-01-03 08:34:58.75	102.77	9.54	-30.7	-34.8	10.7	3.02e-03	0	41	0	66060288	22	5745
2026-01-03 08:34:59.76	102.67	9.62	-30.7	-34.6	10.8	2.71e-03	0	41	0	67108864	22	5649
2026-01-03 08:35:00.76	102.57	9.69	-30.6	-34.4	11.0	2.06e-03	0	42	0	69206016	22	5542
2026-01-03 08:35:01.77	102.47	9.76	-30.7	-34.5	11.0	1.88e-03	0	41	0	71303168	22	5607
2026-01-03 08:35:02.77	102.37	9.83	-30.6	-34.2	11.2	1.76e-03	0	42	0	73400320	22	5470
2026-01-03 08:35:03.78	102.26	9.90	-30.5	-34.1	11.2	1.28e-03	0	41	0	74448896	22	5436
2026-01-03 08:35:04.79	102.16	9.97	-30.6	-34.2	11.1	1.31e-03	0	42	0	76546048	22	5468
2026-01-03 08:35:05.79	102.05	10.04	-30.6	-34.3	11.1	1.51e-03	0	42	0	78643200	22	5503
2026-01-03 08:35:06.79	101.95	10.11	-30.6	-34.2	11.1	1.69e-03	0	42	0	80740352	22	5485
2026-01-03 08:35:07.79	101.85	10.19	-30.6	-34.3	11.1	1.44e-03	0	42	0	82837504	22	5498
2026-01-03 08:35:08.79	101.74	10.26	-30.7	-34.5	11.0	1.70e-03	0	42	0	84934656	22	5596
2026-01-03 08:35:09.80	101.63	10.33	-30.6	-34.3	11.1	1.82e-03	0	42	0	85983232	22	5503
2026-01-03 08:35:10.81	101.53	10.40	-30.6	-34.2	11.2	1.40e-03	0	42	0	88080384	22	5467
2026-01-03 08:35:11.81	101.42	10.47	-30.6	-34.2	11.2	1.40e-03	0	42	0	90177536	22	5483
2026-01-03 08:35:12.81	101.31	10.55	-30.6	-34.4	11.1	1.40e-03	0	42	0	92274688	22	5569
2026-01-03 08:35:13.82	101.20	10.62	-30.6	-34.2	11.2	1.71e-03	0	42	0	93323264	22	5478
2026-01-03 08:35:14.82	101.10	10.69	-30.6	-34.2	11.3	1.11e-03	0	42	0	95420416	22	5446
2026-01-03 08:35:15.82	100.99	10.76	-30.7	-34.5	11.1	1.60e-03	0	42	0	97517568	22	5574
2026-01-03 08:35:16.83	100.88	10.84	-30.7	-34.4	11.1	1.68e-03	0	42	0	99614720	22	5545
2026-01-03 08:35:17.84	100.76	10.91	-30.7	-34.4	11.1	1.32e-03	0	42	0	101711872	22	5552
2026-01-03 08:35:18.85	100.65	10.98	-30.7	-34.6	11.0	1.81e-03	0	42	0	102760448	22	5616
2026-01-03 08:35:19.85	100.54	11.06	-30.7	-34.4	11.1	1.75e-03	0	42	0	104857600	22	5545
2026-01-03 08:35:20.86	100.43	11.13	-30.7	-34.4	11.1	1.49e-03	0	42	0	106954752	22	5565
2026-01-03 08:35:21.86	100.32	11.20	-30.7	-34.6	11.0	1.81e-03	0	42	0	109051904	22	5611
2026-01-03 08:35:22.87	100.20	11.28	-30.7	-34.7	10.9	1.94e-03	0	42	0	111149056	22	5669
2026-01-03 08:35:23.87	100.09	11.35	-30.7	-34.7	10.9	2.19e-03	0	42	0	112197632	22	5671
2026-01-03 08:35:24.88	99.97	11.43	-30.8	-34.8	10.8	2.25e-03	0	42	0	114294784	22	5726
2026-01-03 08:35:25.89	99.86	11.50	-30.9	-35.1	10.6	2.80e-03	0	42	0	116391936	22	5865
2026-01-03 08:35:26.90	99.74	11.57	-30.7	-34.6	11.0	2.93e-03	0	42	0	118489088	22	5656
2026-01-03 08:35:27.91	99.62	11.65	-30.6	-34.2	11.3	1.11e-03	0	42	0	120586240	22	5448
2026-01-03 08:35:28.91	99.51	11.72	-30.6	-34.2	11.3	1.07e-03	0	42	0	121634816	22	5439
2026-01-03 08:35:29.92	99.39	11.80	-30.6	-34.2	11.4	1.17e-03	0	42	0	123731968	22	5445
2026-01-03 08:35:30.93	99.27	11.87	-30.6	-34.0	11.4	1.01e-03	0	42	0	125829120	22	5375
2026-01-03 08:35:31.93	99.15	11.95	-30.6	-34.1	11.4	1.02e-03	0	42	0	127926272	22	5422
2026-01-03 08:35:32.93	99.03	12.02	-30.6	-34.2	11.3	1.02e-03	0	42	0	130023424	22	5445
2026-01-03 08:35:33.93	98.91	12.10	-30.6	-34.2	11.3	1.01e-03	0	42	0	131072000	22	5444
2026-01-03 08:35:34.94	98.79	12.17	-30.6	-34.2	11.3	9.60e-04	0	42	0	133169152	22	5458
2026-01-03 08:35:35.94	98.67	12.25	-30.7	-34.5	11.2	9.97e-04	0	42	0	135266304	22	5552
2026-01-03 08:35:36.95	98.55	12.32	-30.6	-34.1	11.4	1.14e-03	0	42	0	137363456	22	5413
2026-01-03 08:35:37.95	98.43	12.40	-30.6	-34.3	11.3	1.03e-03	0	42	0	139460608	22	5467
2026-01-03 08:35:38.96	98.30	12.47	-30.6	-34.2	11.4	9.76e-04	0	42	0	140509184	22	5423
2026-01-03 08:35:39.96	98.18	12.55	-30.6	-34.3	11.4	9.01e-04	0	42	0	142606336	22	5463
2026-01-03 08:35:40.97	98.05	12.62	-30.8	-34.7	11.1	1.27e-03	0	42	0	144703488	22	5646
2026-01-03 08:35:41.97	97.93	12.70	-30.6	-34.1	11.4	1.17e-03	0	42	0	146800640	22	5402
2026-01-03 08:35:42.98	97.80	12.77	-30.5	-33.8	11.7	6.24e-04	0	42	0	148897792	22	5277
2026-01-03 08:35:43.99	97.68	12.85	-30.5	-33.8	11.8	5.32e-04	0	42	0	149946368	22	5253
2026-01-03 08:35:44.99	97.55	12.93	-30.5	-33.7	11.8	4.25e-04	0	42	0	152043520	22	5204
2026-01-03 08:35:46.00	97.42	13.00	-30.4	-33.5	11.9	3.95e-04	0	42	0	154140672	22	5162
2026-01-03 08:35:47.01	97.29	13.08	-30.4	-33.4	12.0	3.52e-04	0	42	0	156237824	22	5109
2026-01-03 08:35:48.02	97.16	13.15	-30.3	-33.3	12.1	2.30e-04	0	42	0	158334976	22	5049
2026-01-03 08:35:49.01	97.03	13.23	-30.4	-33.4	12.0	3.32e-04	0	42	0	159383552	22	5088
2026-01-03 08:35:50.02	96.90	13.31	-30.3	-33.1	12.2	2.28e-04	0	42	0	161480704	22	4997
2026-01-03 08:35:51.03	96.77	13.38	-30.3	-33.3	12.1	2.19e-04	0	42	0	163577856	22	5047
2026-01-03 08:35:52.04	96.64	13.46	-30.3	-33.3	12.2	2.34e-04	0	42	0	165675008	22	5041
2026-01-03 08:35:53.05	96.50	13.54	-30.5	-33.7	11.9	3.20e-04	0	42	0	167772160	22	5206
2026-01-03 08:35:54.05	96.37	13.61	-30.4	-33.4	12.1	3.62e-04	0	42	0	168820736	22	5104
2026-01-03 08:35:55.06	96.24	13.69	-30.5	-33.8	11.8	3.96e-04	0	42	0	170917888	22	5247
2026-01-03 08:35:56.07	96.10	13.77	-30.4	-33.4	12.1	3.08e-04	0	42	0	173015040	22	5107
2026-01-03 08:35:57.08	95.97	13.85	-30.4	-33.3	12.2	2.62e-04	0	42	0	175112192	22	5062
2026-01-03 08:35:58.08	95.83	13.92	-30.4	-33.3	12.2	2.19e-04	0	42	0	177209344	22	5065
2026-01-03 08:35:59.09	95.69	14.00	-30.4	-33.3	12.2	2.22e-04	0	42	0	178257920	22	5066
2026-01-03 08:36:00.10	95.55	14.08	-30.4	-33.5	12.1	2.65e-04	0	42	0	180355072	22	5127
2026-01-03 08:36:01.10	95.42	14.15	-30.3	-33.2	12.3	1.69e-04	0	42	0	182452224	22	4994
2026-01-03 08:36:02.11	95.28	14.23	-30.2	-33.4	12.5	1.33e-04	0	42	0	184549376	21	5195
2026-01-03 08:36:03.12	95.14	14.31	-30.3	-33.5	12.5	1.17e-04	0	42	0	186646528	21	5216
2026-01-03 08:36:04.12	95.00	14.39	-30.2	-33.3	12.6	1.05e-04	0	42	0	187695104	21	5156
2026-01-03 08:36:05.13	94.85	14.46	-30.2	-33.4	12.5	1.13e-04	0	42	0	189792256	21	5164
2026-01-03 08:36:06.13	94.71	14.54	-30.3	-33.5	12.4	1.23e-04	0	42	0	191889408	21	5227
2026-01-03 08:36:07.14	94.57	14.62	-30.2	-33.4	12.5	1.40e-04	0	42	0	193986560	21	5172
2026-01-03 08:36:08.14	94.43	14.70	-30.2	-33.3	12.6	8.62e-05	0	42	0	196083712	21	5147
2026-01-03 08:36:09.15	94.28	14.78	-30.3	-33.5	12.5	9.91e-05	0	42	0	197132288	21	5221
2026-01-03 08:36:10.16	94.13	14.85	-30.1	-33.1	12.8	7.40e-05	0	42	0	199229440	21	5070
2026-01-03 08:36:11.16	93.99	14.93	-30.1	-33.1	12.8	5.34e-05	0	42	0	201326592	21	5052
2026-01-03 08:36:12.17	93.84	15.01	-30.1	-33.1	12.8	6.33e-05	0	42	0	203423744	21	5060
2026-01-03 08:36:13.18	93.69	15.09	-30.1	-33.0	12.9	5.56e-05	0	42	0	205520896	21	5016
2026-01-03 08:36:14.18	93.55	15.17	-30.1	-32.9	12.9	2.97e-05	0	42	0	206569472	21	4971
2026-01-03 08:36:15.19	93.40	15.24	-30.0	-32.8	13.0	4.19e-05	0	42	0	208666624	21	4942
2026-01-03 08:36:16.20	93.25	15.32	-30.1	-32.8	13.0	4.19e-05	0	42	0	210763776	21	4953
2026-01-03 08:36:17.20	93.10	15.40	-30.1	-33.0	12.9	4.27e-05	0	42	0	212860928	21	5014
2026-01-03 08:36:18.20	92.95	15.48	-30.1	-33.1	12.8	5.79e-05	0	42	0	214958080	21	5046
2026-01-03 08:36:19.21	92.79	15.56	-30.3	-33.5	12.6	6.17e-05	0	42	0	216006656	21	5199
2026-01-03 08:36:20.22	92.64	15.64	-30.3	-33.5	12.6	1.24e-04	0	42	0	218103808	21	5209
2026-01-03 08:36:21.23	92.48	15.72	-30.3	-33.4	12.6	1.07e-04	0	42	0	220200960	21	5184
2026-01-03 08:36:22.23	92.33	15.79	-30.3	-33.5	12.5	1.11e-04	0	43	0	222298112	21	5217
2026-01-03 08:36:23.24	92.17	15.87	-30.3	-33.7	12.4	1.17e-04	0	42	0	224395264	21	5281
2026-01-03 08:36:24.24	92.02	15.95	-30.3	-33.6	12.5	1.21e-04	0	42	0	225443840	21	5235
2026-01-03 08:36:25.25	91.86	16.03	-30.3	-33.5	12.6	1.03e-04	0	42	0	227540992	21	5203
2026-01-03 08:36:26.26	91.70	16.11	-30.4	-33.7	12.5	1.33e-04	0	42	0	229638144	21	5270
2026-01-03 08:36:27.26	91.54	16.19	-30.3	-33.6	12.5	1.13e-04	0	42	0	231735296	21	5259
2026-01-03 08:36:28.27	91.38	16.27	-30.4	-33.7	12.5	1.26e-04	0	42	0	233832448	21	5270
2026-01-03 08:36:29.27	91.22	16.35	-30.4	-33.6	12.6	1.21e-04	0	42	0	234881024	21	5253
2026-01-03 08:36:30.28	91.06	16.42	-30.3	-33.4	12.7	9.76e-05	0	42	0	236978176	21	5165
2026-01-03 08:36:31.29	90.90	16.50	-30.3	-33.4	12.7	7.78e-05	0	42	0	239075328	21	5178
2026-01-03 08:36:32.30	90.73	16.58	-30.4	-33.6	12.5	1.14e-04	0	42	0	241172480	21	5253
2026-01-03 08:36:33.31	90.57	16.66	-30.4	-33.7	12.5	1.06e-04	0	42	0	243269632	21	5275
2026-01-03 08:36:34.31	90.40	16.74	-30.5	-34.0	12.3	1.69e-04	0	42	0	244318208	21	5384
2026-01-03 08:36:35.32	90.24	16.82	-30.4	-33.8	12.4	1.42e-04	0	43	0	246415360	21	5329
2026-01-03 08:36:36.33	90.07	16.90	-30.5	-34.0	12.3	1.59e-04	0	42	0	248512512	21	5419
2026-01-03 08:36:37.33	89.90	16.98	-30.5	-34.2	12.2	1.91e-04	0	42	0	250609664	21	5474
2026-01-03 08:36:38.34	89.73	17.06	-30.4	-33.9	12.4	1.73e-04	0	43	0	252706816	21	5343
2026-01-03 08:36:39.34	89.57	17.14	-30.4	-33.7	12.5	1.07e-04	0	42	0	253755392	21	5286
2026-01-03 08:36:40.34	89.40	17.21	-30.4	-33.8	12.5	1.22e-04	0	42	0	255852544	21	5298
2026-01-03 08:36:41.35	89.22	17.29	-30.4	-33.8	12.5	1.20e-04	0	42	0	257949696	21	5315
2026-01-03 08:36:42.36	89.05	17.37	-30.4	-33.8	12.5	1.18e-04	0	42	0	260046848	21	5308
2026-01-03 08:36:43.37	88.88	17.45	-30.5	-34.0	12.3	1.35e-04	0	43	0	262144000	21	5409
2026-01-03 08:36:44.37	88.70	17.53	-30.6	-34.2	12.2	2.40e-04	0	42	0	263192576	21	5468
2026-01-03 08:36:45.38	88.53	17.61	-30.6	-34.4	12.1	2.07e-04	0	42	0	265289728	21	5570
2026-01-03 08:36:46.39	88.35	17.69	-30.7	-34.6	11.9	3.99e-04	0	42	0	267386880	21	5633
2026-01-03 08:36:47.39	88.18	17.77	-30.7	-34.7	11.9	3.67e-04	0	42	0	269484032	21	5678
2026-01-03 08:36:48.39	88.00	17.84	-30.7	-34.7	11.9	5.07e-04	0	42	0	271581184	21	5693
2026-01-03 08:36:49.40	87.82	17.92	-30.8	-34.8	11.8	4.18e-04	0	43	0	272629760	21	5753
2026-01-03 08:36:50.41	87.64	18.00	-30.8	-34.8	11.8	5.40e-04	0	42	0	274726912	21	5725
2026-01-03 08:36:51.42	87.46	18.08	-30.7	-34.5	12.0	3.03e-04	0	42	0	276824064	21	5576
2026-01-03 08:36:52.42	87.28	18.16	-30.6	-34.4	12.1	2.67e-04	0	43	0	278921216	21	5537
2026-01-03 08:36:53.43	87.09	18.24	-30.7	-34.5	12.1	3.11e-04	0	43	0	281018368	21	5575
2026-01-03 08:36:54.44	86.91	18.32	-30.5	-34.1	12.3	1.87e-04	0	43	0	282066944	21	5413
2026-01-03 08:36:55.45	86.72	18.40	-30.5	-34.0	12.4	1.65e-04	0	43	0	284164096	21	5365
2026-01-03 08:36:56.45	86.54	18.47	-30.5	-34.1	12.4	1.60e-04	0	43	0	286261248	21	5403
2026-01-03 08:36:57.46	86.35	18.55	-30.6	-34.1	12.3	2.16e-04	0	43	0	288358400	21	5434
2026-01-03 08:36:58.47	86.16	18.63	-30.5	-33.8	12.5	1.23e-04	0	43	0	290455552	21	5317
2026-01-03 08:36:59.47	85.98	18.71	-30.4	-33.8	12.5	7.01e-05	0	42	0	291504128	21	5303
2026-01-03 08:37:00.48	85.79	18.79	-30.5	-33.8	12.5	1.07e-04	0	43	0	293601280	21	5316
2026-01-03 08:37:01.49	85.60	18.87	-30.4	-33.6	12.7	7.62e-05	0	43	0	295698432	21	5203
2026-01-03 08:37:02.49	85.41	18.94	-30.4	-33.7	12.6	8.92e-05	0	43	0	297795584	21	5251
2026-01-03 08:37:03.50	85.21	19.02	-30.6	-34.2	12.3	1.01e-04	0	43	0	299892736	21	5443
2026-01-03 08:37:04.50	85.02	19.10	-30.6	-34.2	12.3	2.06e-04	0	43	0	300941312	21	5438
2026-01-03 08:37:05.51	84.83	19.18	-30.4	-33.6	12.7	1.07e-04	0	43	0	303038464	21	5208
2026-01-03 08:37:06.52	84.63	19.26	-30.4	-33.5	12.8	6.17e-05	0	43	0	305135616	21	5180
2026-01-03 08:37:07.52	84.44	19.33	-30.3	-33.4	12.9	5.49e-05	0	43	0	307232768	21	5128
2026-01-03 08:37:08.52	84.24	19.41	-30.3	-33.3	13.0	5.34e-05	0	43	0	309329920	21	5074
2026-01-03 08:37:09.52	84.04	19.49	-30.2	-33.0	13.1	3.05e-05	0	42	0	310378496	21	4993
2026-01-03 08:37:10.52	83.84	19.56	-30.3	-33.2	13.0	3.20e-05	0	43	0	312475648	21	5071
2026-01-03 08:37:11.53	83.64	19.64	-30.2	-33.1	13.1	3.73e-05	0	43	0	314572800	21	5020
2026-01-03 08:37:12.53	83.44	19.72	-30.0	-32.6	13.4	1.60e-05	0	43	0	316669952	21	4857
2026-01-03 08:37:13.54	83.24	19.79	-30.0	-32.6	13.3	1.06e-05	0	43	0	317718528	21	4836
2026-01-03 08:37:14.55	83.04	19.87	-29.9	-32.3	13.6	9.90e-06	0	43	0	319815680	21	4748
2026-01-03 08:37:15.55	82.83	19.95	-29.9	-32.2	13.7	8.30e-06	0	43	0	321912832	21	4686
2026-01-03 08:37:16.56	82.63	20.02	-29.9	-32.1	13.7	9.10e-06	0	43	0	324009984	21	4666
2026-01-03 08:37:17.56	82.42	20.10	-29.8	-31.9	13.9	8.30e-06	0	43	0	326107136	21	4597
2026-01-03 08:37:18.57	82.21	20.17	-29.7	-32.1	14.1	7.00e-07	0	43	0	328204288	20	4764
2026-01-03 08:37:19.57	82.01	20.25	-29.7	-32.2	14.0	3.80e-06	0	43	0	329252864	20	4791
2026-01-03 08:37:20.57	81.80	20.33	-29.6	-31.9	14.2	7.00e-07	0	43	0	331350016	20	4697
2026-01-03 08:37:21.57	81.59	20.40	-29.5	-31.7	14.4	2.20e-06	0	42	0	333447168	20	4622
2026-01-03 08:37:22.58	81.38	20.48	-29.5	-31.6	14.4	0.00e+00	0	43	0	335544320	20	4590
2026-01-03 08:37:23.58	81.16	20.55	-29.4	-31.5	14.5	0.00e+00	0	43	0	336592896	20	4553
2026-01-03 08:37:24.59	80.95	20.63	-29.3	-31.3	14.6	1.50e-06	0	43	0	338690048	20	4490
2026-01-03 08:37:25.60	80.73	20.70	-29.3	-31.2	14.7	0.00e+00	0	43	0	340787200	20	4468
2026-01-03 08:37:26.60	80.52	20.77	-29.3	-31.1	14.7	0.00e+00	0	43	0	342884352	20	4435
2026-01-03 08:37:27.61	80.30	20.85	-29.4	-31.8	14.7	7.00e-07	0	43	0	344981504	19	4752
2026-01-03 08:37:28.61	80.09	20.92	-29.4	-31.7	14.7	7.00e-07	0	43	0	346030080	19	4734
2026-01-03 08:37:29.61	79.87	21.00	-29.4	-32.0	14.6	0.00e+00	0	43	0	348127232	19	4815
2026-01-03 08:37:30.62	79.65	21.07	-29.4	-32.0	14.6	7.00e-07	0	43	0	350224384	19	4816
2026-01-03 08:37:31.63	79.42	21.14	-29.3	-31.6	14.8	0.00e+00	0	43	0	352321536	19	4700
2026-01-03 08:37:32.63	79.20	21.22	-29.3	-31.5	14.9	7.00e-07	0	43	0	354418688	19	4667
2026-01-03 08:37:33.63	78.98	21.29	-29.2	-31.4	15.0	0.00e+00	0	43	0	355467264	19	4608
2026-01-03 08:37:34.64	78.76	21.36	-29.2	-31.4	14.9	0.00e+00	0	43	0	357564416	19	4624
2026-01-03 08:37:35.64	78.53	21.43	-29.2	-31.3	15.0	0.00e+00	0	43	0	359661568	19	4601
2026-01-03 08:37:36.65	78.31	21.51	-29.2	-31.3	15.0	0.00e+00	0	43	0	361758720	19	4587
2026-01-03 08:37:37.66	78.08	21.58	-29.2	-31.3	15.0	0.00e+00	0	43	0	363855872	19	4582
2026-01-03 08:37:38.66	77.85	21.65	-29.2	-31.3	15.0	0.00e+00	0	43	0	364904448	19	4594
2026-01-03 08:37:39.66	77.62	21.72	-29.2	-31.3	15.0	0.00e+00	0	43	0	367001600	19	4591
2026-01-03 08:37:40.67	77.39	21.79	-29.1	-31.1	15.2	0.00e+00	0	43	0	369098752	19	4525
2026-01-03 08:37:41.68	77.16	21.86	-29.2	-31.4	15.0	1.50e-06	0	43	0	371195904	19	4628
2026-01-03 08:37:42.68	76.93	21.93	-29.2	-31.4	15.0	0.00e+00	0	42	0	373293056	19	4615
2026-01-03 08:37:43.69	76.69	22.00	-29.1	-30.9	15.3	0.00e+00	0	43	0	374341632	19	4472
2026-01-03 08:37:44.69	76.46	22.07	-29.0	-30.8	15.3	0.00e+00	0	42	0	376438784	19	4438
2026-01-03 08:37:45.69	76.22	22.14	-29.1	-31.0	15.3	0.00e+00	0	43	0	378535936	19	4477
2026-01-03 08:37:46.70	75.99	22.21	-29.1	-31.0	15.2	0.00e+00	0	43	0	380633088	19	4501
2026-01-03 08:37:47.70	75.75	22.28	-29.1	-31.1	15.2	7.00e-07	0	43	0	382730240	19	4529
2026-01-03 08:37:48.71	75.51	22.35	-29.1	-31.1	15.2	0.00e+00	0	43	0	383778816	19	4500
2026-01-03 08:37:49.71	75.27	22.41	-29.1	-31.1	15.2	0.00e+00	0	43	0	385875968	19	4505
2026-01-03 08:37:50.72	75.03	22.48	-29.2	-31.3	15.1	0.00e+00	0	43	0	387973120	19	4595
2026-01-03 08:37:51.73	74.79	22.55	-29.3	-31.5	14.9	0.00e+00	0	43	0	390070272	19	4653
2026-01-03 08:37:52.74	74.54	22.62	-29.3	-31.6	14.9	0.00e+00	0	43	0	392167424	19	4669
2026-01-03 08:37:53.74	74.30	22.68	-29.3	-31.6	14.9	0.00e+00	0	43	0	393216000	19	4679
2026-01-03 08:37:54.75	74.05	22.75	-29.3	-31.5	14.9	7.00e-07	0	43	0	395313152	19	4657
2026-01-03 08:37:55.75	73.81	22.81	-29.3	-31.6	14.9	0.00e+00	0	43	0	397410304	19	4688
2026-01-03 08:37:56.75	73.56	22.88	-29.3	-31.6	14.9	7.00e-07	0	43	0	399507456	19	4664
2026-01-03 08:37:57.76	73.31	22.94	-29.4	-31.8	14.8	0.00e+00	0	43	0	401604608	19	4734
2026-01-03 08:37:58.77	73.06	23.01	-29.4	-31.8	14.8	0.00e+00	0	43	0	402653184	19	4739
2026-01-03 08:37:59.78	72.81	23.07	-29.4	-31.8	14.8	0.00e+00	0	43	0	404750336	19	4737
2026-01-03 08:38:00.78	72.56	23.14	-29.4	-31.8	14.8	1.50e-06	0	43	0	406847488	19	4748
2026-01-03 08:38:01.79	72.31	23.20	-29.4	-31.7	14.9	0.00e+00	0	43	0	408944640	19	4690
2026-01-03 08:38:02.80	72.05	23.26	-29.3	-31.6	15.0	2.20e-06	0	43	0	411041792	19	4662
2026-01-03 08:38:03.80	71.80	23.33	-29.2	-31.3	15.1	0.00e+00	0	43	0	412090368	19	4562
2026-01-03 08:38:04.81	71.54	23.39	-29.1	-30.9	15.4	0.00e+00	0	43	0	414187520	19	4444
2026-01-03 08:38:05.82	71.28	23.45	-29.0	-30.9	15.4	1.50e-06	0	43	0	416284672	19	4441
2026-01-03 08:38:06.83	71.03	23.51	-29.1	-31.0	15.3	0.00e+00	0	43	0	418381824	19	4486
2026-01-03 08:38:07.83	70.77	23.57	-29.1	-30.9	15.4	0.00e+00	0	43	0	420478976	19	4447
2026-01-03 08:38:08.83	70.51	23.63	-29.1	-30.9	15.4	0.00e+00	0	43	0	421527552	19	4457
2026-01-03 08:38:09.84	70.25	23.69	-29.0	-30.9	15.4	0.00e+00	0	43	0	423624704	19	4450
2026-01-03 08:38:10.84	69.99	23.75	-29.1	-30.9	15.4	0.00e+00	0	43	0	425721856	19	4445
2026-01-03 08:38:11.85	69.72	23.81	-29.1	-31.0	15.3	0.00e+00	0	43	0	427819008	19	4474
2026-01-03 08:38:12.86	69.46	23.86	-28.9	-30.5	15.6	0.00e+00	0	43	0	429916160	19	4318
2026-01-03 08:38:13.86	69.20	23.92	-28.8	-30.7	15.8	0.00e+00	0	43	0	430964736	18	4488
2026-01-03 08:38:14.87	68.93	23.98	-28.8	-30.7	15.8	0.00e+00	0	43	0	433061888	18	4488
2026-01-03 08:38:15.88	68.66	24.03	-28.8	-30.9	15.7	0.00e+00	0	43	0	435159040	18	4552
2026-01-03 08:38:16.89	68.39	24.09	-28.9	-31.0	15.6	0.00e+00	0	43	0	437256192	18	4601
2026-01-03 08:38:17.89	68.13	24.15	-28.8	-30.8	15.8	0.00e+00	0	43	0	439353344	18	4512
2026-01-03 08:38:18.90	67.86	24.20	-28.7	-30.5	16.0	0.00e+00	0	42	0	440401920	18	4426
2026-01-03 08:38:19.91	67.59	24.25	-28.7	-30.6	15.9	0.00e+00	0	43	0	442499072	18	4452
2026-01-03 08:38:20.91	67.32	24.31	-29.0	-31.2	15.5	0.00e+00	0	43	0	444596224	18	4665
2026-01-03 08:38:21.92	67.04	24.36	-28.9	-31.0	15.7	0.00e+00	0	43	0	446693376	18	4577
2026-01-03 08:38:22.93	66.77	24.41	-28.9	-31.0	15.6	0.00e+00	0	43	0	448790528	18	4597
2026-01-03 08:38:23.93	66.50	24.46	-29.0	-31.4	15.4	0.00e+00	0	43	0	449839104	18	4712
2026-01-03 08:38:24.93	66.22	24.51	-29.1	-31.6	15.3	0.00e+00	0	43	0	451936256	18	4773
2026-01-03 08:38:25.94	65.95	24.56	-29.3	-32.0	15.0	0.00e+00	0	43	0	454033408	18	4913
2026-01-03 08:38:26.95	65.67	24.61	-29.3	-32.0	15.1	0.00e+00	0	43	0	456130560	18	4909
2026-01-03 08:38:27.95	65.39	24.66	-29.3	-32.1	15.0	0.00e+00	0	43	0	458227712	18	4939
2026-01-03 08:38:28.96	65.11	24.71	-29.3	-32.1	15.0	0.00e+00	0	43	0	459276288	18	4960
2026-01-03 08:38:29.97	64.83	24.76	-29.5	-32.1	14.7	7.00e-07	0	43	0	461373440	19	4838
2026-01-03 08:38:30.98	64.55	24.81	-29.4	-31.7	14.9	0.00e+00	0	43	0	463470592	19	4723
2026-01-03 08:38:31.98	64.27	24.85	-29.3	-31.6	15.0	0.00e+00	0	43	0	465567744	19	4669
2026-01-03 08:38:32.99	63.99	24.90	-29.4	-31.8	14.9	0.00e+00	0	43	0	467664896	19	4755
2026-01-03 08:38:33.99	63.71	24.94	-29.5	-31.9	14.8	7.00e-07	0	43	0	468713472	19	4787
2026-01-03 08:38:35.00	63.42	24.99	-29.6	-32.2	14.7	7.00e-07	0	43	0	470810624	19	4853
2026-01-03 08:38:36.00	63.14	25.03	-29.6	-32.2	14.6	0.00e+00	0	43	0	472907776	19	4872
2026-01-03 08:38:37.01	62.86	25.08	-29.5	-32.1	14.7	0.00e+00	0	43	0	475004928	19	4829
2026-01-03 08:38:38.02	62.57	25.12	-29.6	-32.2	14.6	0.00e+00	0	43	0	477102080	19	4864
2026-01-03 08:38:39.02	62.28	25.16	-29.6	-32.1	14.7	0.00e+00	0	43	0	478150656	19	4842
2026-01-03 08:38:40.03	62.00	25.20	-29.7	-32.5	14.5	7.00e-07	0	43	0	480247808	19	4970
2026-01-03 08:38:41.03	61.71	25.24	-29.7	-32.5	14.5	0.00e+00	0	43	0	482344960	19	4957
2026-01-03 08:38:42.04	61.42	25.28	-29.8	-32.9	14.2	0.00e+00	0	43	0	484442112	19	5099
2026-01-03 08:38:43.05	61.13	25.32	-30.0	-32.9	13.8	7.00e-07	0	43	0	486539264	20	4999
2026-01-03 08:38:44.06	60.84	25.36	-30.0	-32.8	13.8	6.10e-06	0	43	0	487587840	20	4992
2026-01-03 08:38:45.07	60.55	25.39	-30.0	-32.9	13.8	3.00e-06	0	43	0	489684992	20	5024
2026-01-03 08:38:46.07	60.26	25.43	-30.0	-32.7	13.9	6.10e-06	0	43	0	491782144	20	4953
2026-01-03 08:38:47.07	59.97	25.47	-30.1	-33.1	13.7	2.20e-06	0	43	0	493879296	20	5090
2026-01-03 08:38:48.08	59.67	25.50	-30.2	-33.4	13.5	6.10e-06	0	43	0	495976448	20	5198
2026-01-03 08:38:49.08	59.38	25.53	-30.4	-33.8	13.3	1.83e-05	0	43	0	497025024	20	5354
2026-01-03 08:38:50.09	59.09	25.57	-30.3	-33.5	13.4	1.60e-05	0	43	0	499122176	20	5253
2026-01-03 08:38:51.09	58.79	25.60	-30.2	-33.4	13.5	1.60e-05	0	43	0	501219328	20	5205
2026-01-03 08:38:52.10	58.50	25.63	-30.3	-33.7	13.3	9.10e-06	0	43	0	503316480	20	5328
2026-01-03 08:38:53.10	58.20	25.66	-30.6	-33.8	12.9	2.51e-05	0	43	0	505413632	21	5255
2026-01-03 08:38:54.11	57.91	25.69	-30.4	-33.4	13.2	2.82e-05	0	43	0	506462208	21	5092
2026-01-03 08:38:55.11	57.61	25.72	-30.3	-33.1	13.4	1.44e-05	0	43	0	508559360	21	4973
2026-01-03 08:38:56.11	57.31	25.75	-30.1	-32.6	13.6	8.30e-06	0	43	0	510656512	21	4805
2026-01-03 08:38:57.13	57.01	25.78	-30.1	-32.5	13.8	5.30e-06	0	43	0	512753664	21	4762
2026-01-03 08:38:58.13	56.72	25.80	-30.1	-32.7	13.7	7.60e-06	0	43	0	514850816	21	4823
2026-01-03 08:38:59.14	56.42	25.83	-30.1	-32.7	13.7	8.30e-06	0	43	0	515899392	21	4832
2026-01-03 08:39:00.14	56.12	25.86	-30.3	-33.2	13.3	1.14e-05	0	43	0	517996544	21	4996
2026-01-03 08:39:01.15	55.82	25.88	-30.3	-33.2	13.3	1.83e-05	0	43	0	520093696	21	5032
2026-01-03 08:39:02.16	55.52	25.90	-30.4	-33.3	13.3	2.36e-05	0	43	0	522190848	21	5047
2026-01-03 08:39:03.16	55.22	25.93	-30.4	-33.4	13.2	1.44e-05	0	43	0	524288000	21	5090
2026-01-03 08:39:04.16	54.92	25.95	-30.4	-33.5	13.1	2.51e-05	0	43	0	525336576	21	5125
2026-01-03 08:39:05.17	54.61	25.97	-30.5	-33.6	13.1	4.50e-05	0	43	0	527433728	21	5176
2026-01-03 08:39:06.17	54.31	25.99	-30.5	-33.7	12.9	4.11e-05	0	43	0	529530880	21	5212
2026-01-03 08:39:07.18	54.01	26.01	-30.4	-33.5	13.1	3.35e-05	0	43	0	531628032	21	5136
2026-01-03 08:39:08.18	53.71	26.03	-30.4	-33.4	13.2	2.89e-05	0	43	0	533725184	21	5083
2026-01-03 08:39:09.18	53.41	26.04	-30.5	-33.7	13.0	3.66e-05	0	43	0	534773760	21	5189
2026-01-03 08:39:10.19	53.10	26.06	-30.5	-33.6	13.0	2.97e-05	0	43	0	536870912	21	5183
2026-01-03 08:39:11.19	52.80	26.08	-30.6	-33.9	12.8	5.18e-05	0	43	0	538968064	21	5292
2026-01-03 08:39:12.20	52.50	26.09	-30.5	-33.8	12.9	4.73e-05	0	43	0	541065216	21	5237
2026-01-03 08:39:13.21	52.19	26.11	-30.5	-33.8	12.8	5.34e-05	0	43	0	543162368	21	5261
2026-01-03 08:39:14.21	51.89	26.12	-30.6	-33.9	12.9	4.88e-05	0	43	0	544210944	21	5273
2026-01-03 08:39:15.21	51.59	26.13	-30.6	-33.9	12.8	5.95e-05	0	43	0	546308096	21	5280
2026-01-03 08:39:16.22	51.28	26.14	-30.5	-33.6	13.1	3.81e-05	0	43	0	548405248	21	5155
2026-01-03 08:39:17.22	50.98	26.15	-30.3	-33.2	13.3	1.83e-05	0	43	0	550502400	21	5013
2026-01-03 08:39:18.23	50.67	26.16	-30.3	-33.0	13.5	8.30e-06	0	43	0	551550976	21	4936
2026-01-03 08:39:19.24	50.36	26.17	-30.3	-33.1	13.4	1.22e-05	0	43	0	553648128	21	4967
2026-01-03 08:39:20.24	50.06	26.18	-30.1	-32.7	13.6	4.50e-06	0	43	0	555745280	21	4830
2026-01-03 08:39:21.25	49.75	26.19	-30.3	-33.1	13.4	1.52e-05	0	43	0	557842432	21	4968
2026-01-03 08:39:22.26	49.44	26.19	-30.1	-32.6	13.7	9.10e-06	0	43	0	559939584	21	4792
2026-01-03 08:39:23.26	49.14	26.20	-30.1	-32.5	13.9	6.10e-06	0	43	0	562036736	21	4749
2026-01-03 08:39:24.27	48.83	26.20	-30.0	-32.4	13.8	5.30e-06	0	43	0	563085312	21	4726
2026-01-03 08:39:25.27	48.53	26.21	-30.1	-32.5	13.8	3.80e-06	0	43	0	565182464	21	4755
2026-01-03 08:39:26.28	48.22	26.21	-30.0	-32.4	13.8	6.10e-06	0	43	0	567279616	21	4736
2026-01-03 08:39:27.28	47.92	26.21	-29.9	-32.1	14.0	3.00e-06	0	43	0	569376768	21	4629
2026-01-03 08:39:28.30	47.61	26.21	-29.8	-31.8	14.2	2.20e-06	0	43	0	571473920	21	4522
2026-01-03 08:39:29.30	47.30	26.21	-29.7	-32.1	14.3	7.00e-07	0	43	0	572522496	20	4732
2026-01-03 08:39:30.31	46.99	26.21	-29.6	-31.8	14.6	7.00e-07	0	43	0	574619648	20	4625
2026-01-03 08:39:31.32	46.69	26.21	-29.6	-31.7	14.6	0.00e+00	0	43	0	576716800	20	4597
2026-01-03 08:39:32.33	46.38	26.20	-29.6	-31.9	14.5	7.00e-07	0	43	0	578813952	20	4652
2026-01-03 08:39:33.34	46.07	26.20	-29.6	-31.7	14.6	7.00e-07	0	43	0	579862528	20	4608
2026-01-03 08:39:34.33	45.77	26.19	-29.7	-32.0	14.4	2.20e-06	0	43	0	581959680	20	4686
2026-01-03 08:39:35.34	45.46	26.19	-29.4	-31.3	14.8	7.00e-07	0	43	0	584056832	20	4480
2026-01-03 08:39:36.35	45.16	26.18	-29.4	-31.2	14.9	0.00e+00	0	43	0	586153984	20	4428
2026-01-03 08:39:37.36	44.85	26.17	-29.4	-31.1	14.9	0.00e+00	0	43	0	588251136	20	4419
2026-01-03 08:39:38.37	44.54	26.17	-29.4	-31.3	14.9	7.00e-07	0	43	0	590348288	20	4464
2026-01-03 08:39:39.37	44.24	26.16	-29.4	-31.3	14.8	0.00e+00	0	43	0	591396864	20	4477
2026-01-03 08:39:40.37	43.94	26.15	-29.4	-31.2	14.9	0.00e+00	0	43	0	593494016	20	4432
2026-01-03 08:39:41.38	43.63	26.14	-29.3	-31.1	15.0	0.00e+00	0	43	0	595591168	20	4405
2026-01-03 08:39:42.39	43.32	26.12	-29.5	-31.4	14.8	0.00e+00	0	43	0	597688320	20	4504
2026-01-03 08:39:43.39	43.02	26.11	-29.5	-31.5	14.7	7.00e-07	0	43	0	598736896	20	4529
2026-01-03 08:39:44.40	42.72	26.10	-29.3	-31.5	15.0	0.00e+00	0	43	0	600834048	19	4628
2026-01-03 08:39:45.40	42.41	26.08	-29.3	-31.4	15.2	0.00e+00	0	43	0	602931200	19	4597
2026-01-03 08:39:46.41	42.11	26.07	-29.4	-31.6	15.0	0.00e+00	0	43	0	605028352	19	4664
2026-01-03 08:39:47.42	41.81	26.05	-29.3	-31.6	15.0	0.00e+00	0	43	0	607125504	19	4654
2026-01-03 08:39:48.42	41.50	26.03	-29.4	-31.7	15.0	0.00e+00	0	43	0	608174080	19	4682
2026-01-03 08:39:49.42	41.20	26.02	-29.4	-31.7	14.9	0.00e+00	0	43	0	610271232	19	4711
2026-01-03 08:39:50.43	40.90	26.00	-29.2	-31.4	15.2	0.00e+00	0	43	0	612368384	19	4590
2026-01-03 08:39:51.44	40.60	25.98	-29.3	-31.6	15.0	0.00e+00	0	43	0	614465536	19	4654
2026-01-03 08:39:52.45	40.29	25.96	-29.4	-31.7	15.0	0.00e+00	0	43	0	616562688	19	4696
2026-01-03 08:39:53.45	39.99	25.94	-29.2	-31.2	15.2	3.00e-06	0	43	0	618659840	19	4534
2026-01-03 08:39:54.45	39.70	25.91	-28.9	-30.6	15.6	0.00e+00	0	43	0	619708416	19	4369
2026-01-03 08:39:55.46	39.39	25.89	-28.8	-30.2	15.8	0.00e+00	0	43	0	621805568	19	4253
2026-01-03 08:39:56.47	39.09	25.87	-28.8	-30.8	15.8	0.00e+00	0	43	0	623902720	18	4512
2026-01-03 08:39:57.47	38.80	25.84	-28.9	-30.9	15.7	0.00e+00	0	43	0	625999872	18	4566
2026-01-03 08:39:58.48	38.50	25.82	-28.9	-31.1	15.6	0.00e+00	0	43	0	627048448	18	4623
2026-01-03 08:39:59.48	38.20	25.79	-29.1	-31.4	15.4	0.00e+00	0	43	0	629145600	18	4714
2026-01-03 08:40:00.49	37.90	25.76	-29.1	-31.5	15.4	7.00e-07	0	43	0	631242752	18	4741
2026-01-03 08:40:01.50	37.60	25.73	-29.1	-31.4	15.4	0.00e+00	0	43	0	633339904	18	4728
2026-01-03 08:40:02.50	37.31	25.71	-29.1	-31.5	15.3	0.00e+00	0	43	0	635437056	18	4743
2026-01-03 08:40:03.51	37.01	25.68	-29.1	-31.4	15.4	0.00e+00	0	43	0	636485632	18	4725
2026-01-03 08:40:04.51	36.72	25.64	-29.0	-31.3	15.4	0.00e+00	0	43	0	638582784	18	4692
2026-01-03 08:40:05.52	36.42	25.61	-29.1	-31.5	15.4	0.00e+00	0	43	0	640679936	18	4733
2026-01-03 08:40:06.53	36.12	25.58	-29.2	-31.7	15.3	7.00e-07	0	43	0	642777088	18	4803
2026-01-03 08:40:07.53	35.83	25.55	-29.2	-31.7	15.2	0.00e+00	0	43	0	644874240	18	4817
2026-01-03 08:40:08.53	35.54	25.51	-29.2	-31.8	15.2	0.00e+00	0	43	0	645922816	18	4845
2026-01-03 08:40:09.54	35.25	25.48	-29.3	-32.1	15.0	0.00e+00	0	43	0	648019968	18	4947
2026-01-03 08:40:10.55	34.95	25.44	-29.3	-32.1	15.0	0.00e+00	0	43	0	650117120	18	4942
2026-01-03 08:40:11.56	34.66	25.41	-29.2	-31.8	15.2	0.00e+00	0	43	0	652214272	18	4863
2026-01-03 08:40:12.56	34.37	25.37	-29.3	-32.0	15.0	0.00e+00	0	43	0	654311424	18	4926
2026-01-03 08:40:13.57	34.08	25.33	-29.4	-32.2	14.9	0.00e+00	0	43	0	655360000	18	4977
2026-01-03 08:40:14.58	33.79	25.30	-29.4	-32.3	14.8	0.00e+00	0	43	0	657457152	18	5024
2026-01-03 08:40:15.59	33.50	25.26	-29.4	-32.3	14.8	7.00e-07	0	43	0	659554304	18	5034
2026-01-03 08:40:16.59	33.22	25.22	-29.5	-32.5	14.7	0.00e+00	0	43	0	661651456	18	5076
2026-01-03 08:40:17.59	32.93	25.18	-29.6	-32.3	14.5	1.50e-06	0	43	0	663748608	19	4923
2026-01-03 08:40:18.60	32.64	25.14	-29.7	-32.4	14.4	7.00e-07	0	43	0	664797184	19	4960
2026-01-03 08:40:19.60	32.36	25.09	-29.7	-32.6	14.3	1.50e-06	0	43	0	666894336	19	5000
2026-01-03 08:40:20.61	32.07	25.05	-29.9	-33.1	14.0	3.80e-06	0	43	0	668991488	19	5198
2026-01-03 08:40:21.62	31.79	25.01	-29.9	-32.7	13.8	6.10e-06	0	43	0	671088640	20	4963
2026-01-03 08:40:22.62	31.51	24.96	-30.0	-32.9	13.7	3.80e-06	0	43	0	673185792	20	5035
2026-01-03 08:40:23.63	31.23	24.92	-30.0	-32.9	13.7	2.20e-06	0	43	0	674234368	20	5040
2026-01-03 08:40:24.63	30.95	24.87	-30.1	-33.1	13.6	4.50e-06	0	43	0	676331520	20	5080
2026-01-03 08:40:25.64	30.66	24.83	-30.1	-33.0	13.6	1.29e-05	0	43	0	678428672	20	5075
2026-01-03 08:40:26.65	30.38	24.78	-30.1	-33.3	13.5	1.37e-05	0	43	0	680525824	20	5185
2026-01-03 08:40:27.65	30.11	24.73	-30.1	-33.2	13.4	1.90e-05	0	43	0	682622976	20	5153
2026-01-03 08:40:28.65	29.83	24.69	-30.0	-33.0	13.7	3.80e-06	0	43	0	683671552	20	5052
2026-01-03 08:40:29.66	29.55	24.64	-30.0	-32.9	13.7	8.30e-06	0	43	0	685768704	20	5020
2026-01-03 08:40:30.66	29.28	24.59	-30.0	-33.0	13.6	6.80e-06	0	43	0	687865856	20	5066
2026-01-03 08:40:31.67	29.00	24.54	-30.2	-33.3	13.4	1.29e-05	0	43	0	689963008	20	5192
2026-01-03 08:40:32.68	28.72	24.49	-30.4	-33.9	13.1	2.05e-05	0	43	0	692060160	20	5403
2026-01-03 08:40:33.68	28.45	24.44	-30.4	-34.1	12.9	5.49e-05	0	43	0	693108736	20	5500
2026-01-03 08:40:34.69	28.18	24.38	-30.5	-34.2	12.9	4.65e-05	0	43	0	695205888	20	5512
2026-01-03 08:40:35.70	27.91	24.33	-30.3	-33.8	13.1	3.12e-05	0	43	0	697303040	20	5357
2026-01-03 08:40:36.71	27.63	24.28	-30.2	-33.5	13.3	2.82e-05	0	43	0	699400192	20	5231
2026-01-03 08:40:37.71	27.37	24.23	-30.2	-33.5	13.3	1.22e-05	0	43	0	701497344	20	5233
2026-01-03 08:40:38.71	27.10	24.17	-30.2	-33.3	13.4	9.10e-06	0	43	0	702545920	20	5168
2026-01-03 08:40:39.72	26.83	24.12	-30.2	-33.6	13.3	8.30e-06	0	43	0	704643072	20	5281
2026-01-03 08:40:40.72	26.56	24.06	-30.2	-33.5	13.3	1.90e-05	0	43	0	706740224	20	5236
2026-01-03 08:40:41.73	26.30	24.01	-30.0	-33.0	13.6	1.22e-05	0	43	0	708837376	20	5065
2026-01-03 08:40:42.74	26.03	23.95	-30.0	-32.9	13.7	7.60e-06	0	43	0	710934528	20	5008
2026-01-03 08:40:43.74	25.77	23.89	-30.0	-33.0	13.6	7.60e-06	0	43	0	711983104	20	5081
2026-01-03 08:40:44.74	25.51	23.84	-30.2	-33.4	13.4	2.13e-05	0	43	0	714080256	20	5203
2026-01-03 08:40:45.75	25.24	23.78	-30.2	-33.6	13.3	1.06e-05	0	43	0	716177408	20	5282
2026-01-03 08:40:46.76	24.98	23.72	-30.3	-33.7	13.2	2.28e-05	0	43	0	718274560	20	5336
2026-01-03 08:40:47.76	24.72	23.66	-30.2	-33.6	13.3	2.21e-05	0	43	0	720371712	20	5281
2026-01-03 08:40:48.77	24.46	23.60	-30.2	-33.5	13.3	2.28e-05	0	43	0	721420288	20	5264
2026-01-03 08:40:49.78	24.20	23.54	-30.1	-33.1	13.5	7.60e-06	0	43	0	723517440	20	5095
2026-01-03 08:40:50.78	23.95	23.48	-30.0	-32.9	13.7	3.80e-06	0	43	0	725614592	20	5040
2026-01-03 08:40:51.78	23.69	23.42	-30.0	-33.0	13.6	6.10e-06	0	43	0	727711744	20	5082
2026-01-03 08:40:52.79	23.43	23.36	-30.0	-33.0	13.5	1.22e-05	0	43	0	729808896	20	5089
2026-01-03 08:40:53.79	23.18	23.30	-30.0	-33.0	13.6	1.06e-05	0	43	0	730857472	20	5084
2026-01-03 08:40:54.79	22.93	23.23	-30.2	-33.5	13.2	8.30e-06	0	43	0	732954624	20	5274
2026-01-03 08:40:55.80	22.68	23.17	-30.2	-33.4	13.3	2.36e-05	0	43	0	735051776	20	5229
2026-01-03 08:40:56.81	22.42	23.11	-30.2	-33.5	13.2	1.29e-05	0	43	0	737148928	20	5269
2026-01-03 08:40:57.81	22.18	23.04	-30.3	-33.7	13.1	3.66e-05	0	43	0	739246080	20	5337
2026-01-03 08:40:58.82	21.93	22.98	-30.1	-33.2	13.4	1.29e-05	0	43	0	740294656	20	5138
2026-01-03 08:40:59.82	21.68	22.92	-29.9	-32.6	13.8	5.30e-06	0	43	0	742391808	20	4933
2026-01-03 08:41:00.83	21.43	22.85	-29.8	-32.4	13.9	4.50e-06	0	43	0	744488960	20	4867
2026-01-03 08:41:01.84	21.18	22.79	-29.9	-32.6	13.8	3.80e-06	0	43	0	746586112	20	4922
2026-01-03 08:41:02.85	20.94	22.72	-29.8	-32.4	13.9	1.50e-06	0	43	0	748683264	20	4878
2026-01-03 08:41:03.85	20.70	22.65	-29.7	-32.2	14.0	4.50e-06	0	43	0	749731840	20	4819
2026-01-03 08:41:04.86	20.45	22.59	-29.6	-32.1	14.1	0.00e+00	0	43	0	751828992	20	4762
2026-01-03 08:41:05.87	20.21	22.52	-29.8	-32.4	13.9	5.30e-06	0	43	0	753926144	20	4864
2026-01-03 08:41:06.87	19.97	22.45	-29.8	-32.3	14.0	3.80e-06	0	43	0	756023296	20	4817
2026-01-03 08:41:07.87	19.73	22.39	-29.5	-31.6	14.5	0.00e+00	0	43	0	758120448	20	4579
2026-01-03 08:41:08.88	19.49	22.32	-29.4	-31.3	14.6	7.00e-07	0	43	0	759169024	20	4486
2026-01-03 08:41:09.88	19.26	22.25	-29.4	-31.4	14.5	0.00e+00	0	43	0	761266176	20	4533
2026-01-03 08:41:10.88	19.02	22.18	-29.3	-31.2	14.6	0.00e+00	0	43	0	763363328	20	4470
2026-01-03 08:41:11.89	18.78	22.11	-29.3	-31.2	14.6	1.50e-06	0	43	0	765460480	20	4462
2026-01-03 08:41:12.90	18.55	22.04	-29.4	-31.4	14.5	0.00e+00	0	43	0	767557632	20	4527
2026-01-03 08:41:13.90	18.32	21.97	-29.5	-31.7	14.3	0.00e+00	0	43	0	768606208	20	4635
2026-01-03 08:41:14.91	18.08	21.90	-29.5	-31.6	14.4	7.00e-07	0	43	0	770703360	20	4570
2026-01-03 08:41:15.92	17.85	21.83	-29.6	-31.9	14.2	7.00e-07	0	43	0	772800512	20	4701
2026-01-03 08:41:16.92	17.62	21.76	-29.5	-31.5	14.4	0.00e+00	0	43	0	774897664	20	4559
2026-01-03 08:41:17.93	17.39	21.69	-29.3	-31.2	14.5	1.52e-05	0	43	0	776994816	20	4476
2026-01-03 08:41:18.94	17.16	21.62	-29.3	-31.6	14.7	3.80e-06	0	43	0	778043392	19	4683
2026-01-03 08:41:19.95	16.94	21.55	-29.3	-31.6	14.7	6.10e-06	0	43	0	780140544	19	4698
2026-01-03 08:41:20.95	16.71	21.48	-29.3	-31.5	14.8	7.00e-07	0	43	0	782237696	19	4656
2026-01-03 08:41:21.96	16.49	21.40	-29.3	-31.6	14.7	0.00e+00	0	43	0	784334848	19	4692
2026-01-03 08:41:22.97	16.26	21.33	-29.4	-31.8	14.6	0.00e+00	0	43	0	786432000	19	4763
2026-01-03 08:41:23.98	16.04	21.26	-29.5	-32.0	14.5	7.00e-07	0	43	0	787480576	19	4840
2026-01-03 08:41:24.98	15.82	21.19	-29.5	-32.1	14.5	0.00e+00	0	43	0	789577728	19	4852
2026-01-03 08:41:25.99	15.60	21.11	-29.4	-31.9	14.5	0.00e+00	0	43	0	791674880	19	4807
2026-01-03 08:41:26.99	15.38	21.04	-29.4	-31.8	14.6	7.00e-07	0	43	0	793772032	19	4746
2026-01-03 08:41:27.99	15.16	20.97	-29.4	-31.8	14.7	0.00e+00	0	43	0	795869184	19	4742
2026-01-03 08:41:29.00	14.94	20.89	-29.5	-32.0	14.5	2.20e-06	0	43	0	796917760	19	4821
2026-01-03 08:41:30.01	14.72	20.82	-29.2	-31.4	14.9	0.00e+00	0	43	0	799014912	19	4626
2026-01-03 08:41:31.02	14.51	20.75	-29.0	-30.9	15.2	0.00e+00	0	43	0	801112064	19	4457
2026-01-03 08:41:32.03	14.29	20.67	-29.0	-30.7	15.3	0.00e+00	0	43	0	803209216	19	4416
2026-01-03 08:41:33.04	14.08	20.60	-29.0	-30.7	15.2	0.00e+00	0	43	0	805306368	19	4419
2026-01-03 08:41:34.04	13.87	20.52	-28.9	-30.6	15.3	0.00e+00	0	43	0	806354944	19	4381
2026-01-03 08:41:35.05	13.66	20.45	-28.9	-30.6	15.3	0.00e+00	0	43	0	808452096	19	4385
2026-01-03 08:41:36.06	13.45	20.37	-28.8	-30.8	15.4	0.00e+00	0	43	0	810549248	18	4555
2026-01-03 08:41:37.05	13.24	20.30	-28.8	-30.8	15.4	2.20e-06	0	43	0	812646400	18	4534
2026-01-03 08:41:38.06	13.03	20.22	-28.7	-30.6	15.5	5.30e-06	0	43	0	814743552	18	4483
2026-01-03 08:41:39.06	12.83	20.15	-28.8	-30.8	15.4	4.50e-06	0	43	0	815792128	18	4543
2026-01-03 08:41:40.07	12.62	20.07	-28.7	-30.5	15.6	7.00e-07	0	43	0	817889280	18	4457
2026-01-03 08:41:41.07	12.42	19.99	-28.8	-30.8	15.4	0.00e+00	0	43	0	819986432	18	4556
2026-01-03 08:41:42.08	12.21	19.92	-28.6	-30.4	15.6	0.00e+00	0	43	0	822083584	18	4426
2026-01-03 08:41:43.08	12.01	19.84	-28.7	-30.6	15.5	7.00e-07	0	43	0	823132160	18	4477
2026-01-03 08:41:44.09	11.81	19.77	-28.7	-30.6	15.6	1.50e-06	0	43	0	825229312	18	4472
2026-01-03 08:41:45.09	11.61	19.69	-28.7	-30.7	15.5	0.00e+00	0	43	0	827326464	18	4515
2026-01-03 08:41:46.10	11.41	19.61	-28.6	-30.3	15.7	0.00e+00	0	43	0	829423616	18	4386
2026-01-03 08:41:47.10	11.21	19.54	-28.5	-30.2	15.8	0.00e+00	0	43	0	831520768	18	4365
2026-01-03 08:41:48.11	11.01	19.46	-28.5	-30.1	15.8	0.00e+00	0	43	0	833617920	18	4340
2026-01-03 08:41:49.11	10.81	19.38	-28.6	-30.3	15.7	7.00e-07	0	43	0	834666496	18	4391
2026-01-03 08:41:50.12	10.62	19.31	-28.4	-29.9	16.0	0.00e+00	0	43	0	836763648	18	4273
2026-01-03 08:41:51.13	10.42	19.23	-28.4	-29.8	16.0	0.00e+00	0	43	0	838860800	18	4247
2026-01-03 08:41:52.13	10.23	19.15	-28.4	-29.9	16.0	0.00e+00	0	43	0	840957952	18	4278
2026-01-03 08:41:53.14	10.04	19.07	-28.4	-29.9	15.9	0.00e+00	0	43	0	842006528	18	4285
2026-01-03 08:41:54.15	9.84	19.00	-28.5	-30.2	15.8	0.00e+00	0	43	0	844103680	18	4362
2026-01-03 08:41:55.15	9.65	18.92	-28.4	-30.0	16.0	0.00e+00	0	43	0	846200832	18	4294
2026-01-03 08:41:56.15	9.47	18.84	-28.4	-30.0	15.9	0.00e+00	0	43	0	848297984	18	4295
2026-01-03 08:41:57.16	9.28	18.76	-28.5	-30.0	15.9	0.00e+00	0	43	0	850395136	18	4319
2026-01-03 08:41:58.16	9.09	18.69	-28.5	-30.1	15.8	0.00e+00	0	43	0	851443712	18	4349
2026-01-03 08:41:59.17	8.90	18.61	-28.4	-29.9	16.0	0.00e+00	0	43	0	853540864	18	4268
2026-01-03 08:42:00.17	8.72	18.53	-28.5	-30.0	15.9	0.00e+00	0	43	0	855638016	18	4322
2026-01-03 08:42:01.17	8.53	18.45	-28.5	-30.3	15.7	0.00e+00	0	43	0	857735168	18	4385
2026-01-03 08:42:02.18	8.35	18.37	-28.5	-30.2	15.8	0.00e+00	0	43	0	859832320	18	4362
2026-01-03 08:42:03.19	8.17	18.29	-28.6	-30.4	15.7	0.00e+00	0	43	0	860880896	18	4430
2026-01-03 08:42:04.19	7.98	18.22	-28.6	-30.5	15.6	0.00e+00	0	43	0	862978048	18	4446
2026-01-03 08:42:05.20	7.80	18.14	-28.7	-30.7	15.5	0.00e+00	0	43	0	865075200	18	4518
2026-01-03 08:42:06.21	7.62	18.06	-28.7	-30.6	15.6	0.00e+00	0	43	0	867172352	18	4489
2026-01-03 08:42:07.22	7.44	17.98	-28.7	-30.7	15.4	0.00e+00	0	43	0	869269504	18	4514
2026-01-03 08:42:08.22	7.26	17.90	-28.7	-30.5	15.5	0.00e+00	0	43	0	870318080	18	4466
2026-01-03 08:42:09.22	7.09	17.83	-28.7	-30.7	15.5	0.00e+00	0	43	0	872415232	18	4528
2026-01-03 08:42:10.23	6.91	17.75	-28.8	-30.9	15.3	0.00e+00	0	43	0	874512384	18	4591
2026-01-03 08:42:11.23	6.74	17.67	-28.7	-30.7	15.4	0.00e+00	0	43	0	876609536	18	4534
2026-01-03 08:42:12.23	6.56	17.59	-28.7	-30.7	15.4	0.00e+00	0	43	0	878706688	18	4532
2026-01-03 08:42:13.24	6.39	17.51	-28.9	-31.1	15.2	0.00e+00	0	43	0	879755264	18	4633
2026-01-03 08:42:14.25	6.22	17.43	-28.9	-31.0	15.2	0.00e+00	0	43	0	881852416	18	4629
2026-01-03 08:42:15.25	6.05	17.35	-28.9	-31.2	15.1	0.00e+00	0	43	0	883949568	18	4681
2026-01-03 08:42:16.26	5.87	17.28	-28.9	-31.2	15.1	0.00e+00	0	43	0	886046720	18	4681
2026-01-03 08:42:17.27	5.70	17.20	-29.0	-31.3	15.0	7.00e-07	0	43	0	888143872	18	4730
2026-01-03 08:42:18.27	5.54	17.12	-29.1	-31.6	14.9	0.00e+00	0	43	0	889192448	18	4797
2026-01-03 08:42:19.28	5.37	17.04	-28.9	-31.2	15.1	0.00e+00	0	43	0	891289600	18	4689
2026-01-03 08:42:20.28	5.20	16.96	-28.9	-31.2	15.1	0.00e+00	0	43	0	893386752	18	4697
2026-01-03 08:42:21.28	5.04	16.88	-29.0	-31.4	15.0	0.00e+00	0	43	0	895483904	18	4753
2026-01-03 08:42:22.29	4.87	16.80	-29.1	-31.6	14.9	0.00e+00	0	43	0	897581056	18	4804
2026-01-03 08:42:23.29	4.71	16.73	-29.1	-31.7	14.8	7.00e-07	0	43	0	898629632	18	4850
2026-01-03 08:42:24.30	4.54	16.65	-29.2	-32.0	14.6	0.00e+00	0	43	0	900726784	18	4958
2026-01-03 08:42:25.31	4.38	16.57	-29.3	-32.1	14.5	0.00e+00	0	43	0	902823936	18	5001
2026-01-03 08:42:26.31	4.22	16.49	-29.3	-32.2	14.4	7.00e-07	0	43	0	904921088	18	5041
2026-01-03 08:42:27.32	4.06	16.41	-29.4	-32.5	14.2	0.00e+00	0	43	0	907018240	18	5137
2026-01-03 08:42:28.32	3.90	16.33	-29.4	-32.5	14.3	0.00e+00	0	43	0	908066816	18	5136
2026-01-03 08:42:29.33	3.74	16.25	-29.5	-32.6	14.2	0.00e+00	0	43	0	910163968	18	5185
2026-01-03 08:42:30.33	3.58	16.18	-29.5	-32.1	14.1	1.50e-06	0	43	0	912261120	19	4902
2026-01-03 08:42:31.34	3.42	16.10	-29.5	-32.1	14.2	1.50e-06	0	43	0	914358272	19	4887
2026-01-03 08:42:32.35	3.26	16.02	-29.5	-32.2	14.1	1.50e-06	0	43	0	916455424	19	4932
2026-01-03 08:42:33.35	3.11	15.94	-29.6	-32.4	14.0	4.50e-06	0	43	0	917504000	19	4992
2026-01-03 08:42:34.35	2.95	15.86	-29.6	-32.4	14.0	4.50e-06	0	43	0	919601152	19	4996
2026-01-03 08:42:35.36	2.80	15.78	-29.5	-32.3	14.0	3.80e-06	0	43	0	921698304	19	4971
2026-01-03 08:42:36.37	2.64	15.71	-29.6	-32.5	13.9	2.20e-06	0	43	0	923795456	19	5045
2026-01-03 08:42:37.38	2.49	15.63	-29.5	-32.2	14.1	0.00e+00	0	43	0	925892608	19	4904
2026-01-03 08:42:38.38	2.34	15.55	-29.5	-32.1	14.1	1.50e-06	0	43	0	926941184	19	4896
2026-01-03 08:42:39.39	2.19	15.47	-29.4	-32.1	14.2	0.00e+00	0	43	0	929038336	19	4871
2026-01-03 08:42:40.40	2.04	15.39	-29.4	-32.1	14.1	1.50e-06	0	43	0	931135488	19	4891
2026-01-03 08:42:41.40	1.89	15.31	-29.5	-32.3	14.0	1.50e-06	0	43	0	933232640	19	4944
2026-01-03 08:42:42.41	1.74	15.24	-29.6	-32.5	13.9	3.00e-06	0	43	0	935329792	19	5029
2026-01-03 08:42:43.42	1.59	15.16	-29.7	-32.8	13.7	6.10e-06	0	43	0	936378368	19	5131
2026-01-03 08:42:44.42	1.44	15.08	-29.6	-32.5	13.8	2.20e-06	0	43	0	938475520	19	5026
2026-01-03 08:42:45.42	1.30	15.00	-29.5	-32.4	13.9	2.20e-06	0	43	0	940572672	19	5005
2026-01-03 08:42:46.43	1.15	14.93	-29.7	-32.7	13.7	4.50e-06	0	43	0	942669824	19	5119
2026-01-03 08:42:47.44	1.01	14.85	-29.8	-33.0	13.5	7.60e-06	0	43	0	944766976	19	5233
2026-01-03 08:42:48.44	0.86	14.77	-29.8	-33.0	13.5	1.44e-05	0	43	0	945815552	19	5244
2026-01-03 08:42:49.44	0.72	14.69	-29.9	-33.5	13.2	1.29e-05	0	43	0	947912704	19	5416
2026-01-03 08:42:50.45	0.58	14.62	-30.1	-33.5	12.7	5.18e-05	0	43	0	950009856	20	5344
2026-01-03 08:42:51.45	0.44	14.54	-30.2	-33.7	12.6	1.18e-04	0	43	0	952107008	20	5401
2026-01-03 08:42:52.46	0.30	14.46	-30.0	-33.2	12.9	7.47e-05	0	43	0	954204160	20	5218
2026-01-03 08:42:53.47	0.16	14.38	-29.9	-32.9	13.1	4.04e-05	0	43	0	955252736	20	5094
2026-01-03 08:42:54.47	0.02	14.31	-29.8	-32.7	13.2	2.13e-05	0	43	0	957349888	20	5033
2026-01-03 08:42:55.48	359.88	14.23	-29.8	-32.6	13.3	1.44e-05	0	43	0	959447040	20	4994
2026-01-03 08:42:56.48	359.74	14.15	-29.8	-32.7	13.2	1.60e-05	0	43	0	961544192	20	5037
2026-01-03 08:42:57.48	359.60	14.08	-29.8	-32.6	13.3	1.44e-05	0	43	0	963641344	20	4995
2026-01-03 08:42:58.49	359.47	14.00	-29.8	-32.6	13.3	1.44e-05	0	43	0	964689920	20	4996
2026-01-03 08:42:59.50	359.33	13.92	-29.8	-32.6	13.3	9.90e-06	0	43	0	966787072	20	4978
2026-01-03 08:43:00.50	359.20	13.84	-29.8	-32.8	13.1	2.21e-05	0	43	0	968884224	20	5084
2026-01-03 08:43:01.50	359.06	13.77	-29.9	-32.8	13.1	2.44e-05	0	43	0	970981376	20	5071
2026-01-03 08:43:02.51	358.93	13.69	-29.9	-33.0	13.0	2.51e-05	0	43	0	973078528	20	5130
2026-01-03 08:43:03.52	358.80	13.61	-30.0	-33.2	12.9	4.80e-05	0	43	0	974127104	20	5220
2026-01-03 08:43:04.52	358.66	13.54	-29.9	-33.0	13.0	5.03e-05	0	43	0	976224256	20	5163
2026-01-03 08:43:05.53	358.53	13.46	-29.9	-33.1	12.9	5.56e-05	0	43	0	978321408	20	5187
2026-01-03 08:43:06.53	358.40	13.39	-29.9	-33.1	12.9	3.89e-05	0	43	0	980418560	20	5178
2026-01-03 08:43:07.54	358.27	13.31	-29.9	-33.1	12.9	4.95e-05	0	43	0	981467136	20	5193
2026-01-03 08:43:08.54	358.14	13.23	-29.9	-33.0	13.0	4.11e-05	0	43	0	983564288	20	5141
2026-01-03 08:43:09.55	358.01	13.16	-29.9	-33.1	12.9	3.43e-05	0	43	0	985661440	20	5181
2026-01-03 08:43:10.55	357.89	13.08	-30.0	-33.3	12.8	6.86e-05	0	43	0	987758592	20	5244
2026-01-03 08:43:11.56	357.76	13.01	-30.0	-33.3	12.7	6.56e-05	0	43	0	989855744	20	5282
2026-01-03 08:43:12.56	357.63	12.93	-30.1	-33.7	12.5	1.12e-04	0	43	0	991952896	20	5409
2026-01-03 08:43:13.57	357.51	12.86	-30.1	-33.7	12.5	9.99e-05	0	43	0	993001472	20	5419
2026-01-03 08:43:14.57	357.38	12.78	-30.2	-33.8	12.4	1.41e-04	0	43	0	995098624	20	5475
2026-01-03 08:43:15.58	357.26	12.70	-30.2	-33.8	12.4	1.38e-04	0	43	0	997195776	20	5469
2026-01-03 08:43:16.58	357.13	12.63	-30.2	-34.0	12.3	1.87e-04	0	43	0	999292928	20	5535
2026-01-03 08:43:17.59	357.01	12.55	-30.2	-34.0	12.2	1.54e-04	0	43	0	1000341504	20	5561
2026-01-03 08:43:18.60	356.89	12.48	-30.3	-34.3	12.0	2.34e-04	0	43	0	1002438656	20	5694
2026-01-03 08:43:19.60	356.76	12.40	-30.4	-34.4	11.9	3.85e-04	0	43	0	1004535808	20	5746
2026-01-03 08:43:20.61	356.64	12.33	-30.4	-34.5	11.9	3.51e-04	0	43	0	1006632960	20	5796
2026-01-03 08:43:21.61	356.52	12.25	-30.4	-34.7	11.7	5.79e-04	0	43	0	1008730112	20	5858
2026-01-03 08:43:22.62	356.40	12.18	-30.5	-34.8	11.7	4.81e-04	0	43	0	1009778688	20	5917
2026-01-03 08:43:23.62	356.28	12.11	-30.6	-34.8	11.3	7.92e-04	0	43	0	1011875840	21	5793
2026-01-03 08:43:24.63	356.16	12.03	-30.6	-34.7	11.3	1.33e-03	0	43	0	1013972992	21	5790
2026-01-03 08:43:25.64	356.04	11.96	-30.7	-34.8	11.2	1.17e-03	0	43	0	1016070144	21	5836
2026-01-03 08:43:26.65	355.93	11.88	-30.6	-34.8	11.2	1.77e-03	0	43	0	1018167296	21	5829
2026-01-03 08:43:27.65	355.81	11.81	-30.5	-34.5	11.4	1.08e-03	0	43	0	1020264448	21	5689
2026-01-03 08:43:28.66	355.69	11.73	-30.6	-34.6	11.4	9.35e-04	0	43	0	1021313024	21	5702
2026-01-03 08:43:29.67	355.58	11.66	-30.5	-34.4	11.5	9.89e-04	0	43	0	1023410176	21	5657
2026-01-03 08:43:30.68	355.46	11.58	-30.6	-34.8	11.2	1.23e-03	0	43	0	1025507328	21	5819
2026-01-03 08:43:31.69	355.34	11.51	-30.6	-34.7	11.3	1.46e-03	0	43	0	1027604480	21	5754
2026-01-03 08:43:32.69	355.23	11.44	-30.4	-34.2	11.6	8.80e-04	0	43	0	1028653056	21	5557
2026-01-03 08:43:33.70	355.12	11.36	-30.4	-34.1	11.7	5.45e-04	0	43	0	1030750208	21	5489
2026-01-03 08:43:34.70	355.00	11.29	-30.4	-34.0	11.8	4.65e-04	0	43	0	1032847360	21	5447
2026-01-03 08:43:35.71	354.89	11.22	-30.4	-34.0	11.7	4.55e-04	0	43	0	1034944512	21	5475
2026-01-03 08:43:36.72	354.78	11.14	-30.4	-34.1	11.7	5.39e-04	0	43	0	1037041664	21	5501
2026-01-03 08:43:37.72	354.67	11.07	-30.4	-34.2	11.6	6.12e-04	0	43	0	1038090240	21	5551
2026-01-03 08:43:38.73	354.56	11.00	-30.4	-34.2	11.6	6.65e-04	0	43	0	1040187392	21	5563
2026-01-03 08:43:39.73	354.45	10.93	-30.4	-34.2	11.6	6.71e-04	0	43	0	1042284544	21	5551
2026-01-03 08:43:40.74	354.34	10.85	-30.5	-34.3	11.6	7.29e-04	0	43	0	1044381696	21	5588
2026-01-03 08:43:41.74	354.23	10.78	-30.5	-34.6	11.3	9.46e-04	0	43	0	1046478848	21	5722
2026-01-03 08:43:42.75	354.12	10.71	-30.5	-34.6	11.3	1.26e-03	0	43	0	1048576000	21	5760
2026-01-03 08:43:43.75	354.01	10.63	-30.6	-34.6	11.2	1.22e-03	0	43	0	1049624576	21	5760
2026-01-03 08:43:44.75	353.91	10.56	-30.6	-34.9	11.0	1.52e-03	0	43	0	1051721728	21	5869
2026-01-03 08:43:45.75	353.80	10.49	-30.6	-34.7	11.2	1.57e-03	0	43	0	1053818880	21	5800
2026-01-03 08:43:46.76	353.69	10.42	-30.5	-34.5	11.3	1.31e-03	0	43	0	1055916032	21	5705
2026-01-03 08:43:47.76	353.59	10.35	-30.5	-34.5	11.4	9.61e-04	0	43	0	1056964608	21	5683
2026-01-03 08:43:48.77	353.48	10.28	-30.5	-34.4	11.4	1.04e-03	0	43	0	1059061760	21	5656
2026-01-03 08:43:49.77	353.38	10.20	-30.5	-34.6	11.2	1.05e-03	0	43	0	1061158912	21	5770
2026-01-03 08:43:50.78	353.28	10.13	-30.5	-34.4	11.3	1.20e-03	0	43	0	1063256064	21	5677
2026-01-03 08:43:51.78	353.17	10.06	-30.4	-34.1	11.6	8.49e-04	0	43	0	1065353216	21	5525
2026-01-03 08:43:52.79	353.07	9.99	-30.3	-33.8	11.8	6.06e-04	0	43	0	1066401792	21	5403
2026-01-03 08:43:53.79	352.97	9.92	-30.3	-34.0	11.7	5.75e-04	0	43	0	1068498944	21	5476
2026-01-03 08:43:54.80	352.86	9.85	-30.4	-34.1	11.6	6.38e-04	0	43	0	1070596096	21	5510
2026-01-03 08:43:55.80	352.76	9.78	-30.4	-34.2	11.4	7.28e-04	0	43	0	1072693248	21	5587
2026-01-03 08:43:56.80	352.66	9.71	-29.9	-33.8	11.2	6.20e-03	0	43	0	1074790400	21	5594
2026-01-03 08:43:57.81	352.56	9.63	-30.0	-33.9	11.2	1.21e-02	0	43	0	1075838976	21	5618
2026-01-03 08:43:58.81	352.46	9.56	-29.9	-33.9	11.1	1.21e-02	0	43	0	1077936128	21	5663
2026-01-03 08:43:59.82	352.36	9.49	-29.9	-34.0	11.0	1.21e-02	0	43	0	1080033280	21	5757
2026-01-03 08:44:00.83	352.26	9.42	-30.0	-34.3	10.7	1.30e-02	0	43	0	1082130432	21	5899
2026-01-03 08:44:01.83	352.17	9.35	-30.0	-34.3	10.6	1.32e-02	0	43	0	1084227584	21	5903
2026-01-03 08:44:02.84	352.07	9.28	-30.1	-34.4	10.7	1.30e-02	0	43	0	1085276160	21	5944
2026-01-03 08:44:03.85	351.97	9.21	-30.3	-34.7	10.6	1.33e-02	0	43	0	1087373312	21	5950
2026-01-03 08:44:04.85	351.87	9.14	-30.3	-34.6	10.6	1.32e-02	0	43	0	1089470464	21	5954
2026-01-03 08:44:05.86	351.78	9.07	-30.3	-34.8	10.5	1.36e-02	0	43	0	1091567616	21	6063
2026-01-03 08:44:06.87	351.68	9.00	-30.4	-34.9	10.5	1.38e-02	0	43	0	1093664768	21	6050
2026-01-03 08:44:07.87	351.58	8.93	-30.3	-35.0	10.3	1.45e-02	0	43	0	1094713344	21	6211
2026-01-03 08:44:08.87	351.49	8.86	-30.2	-34.8	10.4	1.52e-02	0	43	0	1096810496	21	6081
2026-01-03 08:44:09.88	351.39	8.79	-30.4	-35.3	10.0	1.48e-02	0	43	0	1098907648	21	6355
2026-01-03 08:44:10.88	351.30	8.72	-30.3	-35.1	10.2	1.62e-02	0	43	0	1101004800	21	6219
2026-01-03 08:44:11.88	351.21	8.66	-30.3	-35.1	10.2	1.50e-02	0	43	0	1103101952	21	6207
2026-01-03 08:44:12.89	351.11	8.59	-30.3	-35.2	10.0	1.62e-02	0	43	0	1104150528	21	6336
2026-01-03 08:44:13.90	351.02	8.52	-30.3	-35.1	10.1	1.59e-02	0	43	0	1106247680	21	6259
2026-01-03 08:44:14.90	350.93	8.45	-30.3	-35.2	10.1	1.61e-02	0	43	0	1108344832	21	6335
2026-01-03 08:44:15.91	350.84	8.38	-30.3	-35.0	10.2	1.60e-02	0	43	0	1110441984	21	6239
2026-01-03 08:44:16.91	350.75	8.31	-30.8	-35.7	10.2	6.95e-03	0	43	0	1112539136	21	6313
2026-01-03 08:44:17.92	350.65	8.24	-30.8	-35.6	10.2	5.83e-03	0	43	0	1113587712	21	6298
2026-01-03 08:44:18.93	350.56	8.17	-30.8	-35.7	10.2	5.85e-03	0	43	0	1115684864	21	6315
2026-01-03 08:44:19.94	350.47	8.11	-30.8	-35.9	10.0	6.55e-03	0	43	0	1117782016	21	6422
2026-01-03 08:44:20.95	350.38	8.04	-30.7	-35.5	10.3	6.13e-03	0	43	0	1119879168	21	6251
2026-01-03 08:44:21.95	350.29	7.97	-30.7	-35.3	10.4	4.67e-03	0	43	0	1121976320	21	6125
2026-01-03 08:44:22.95	350.21	7.90	-30.6	-35.2	10.5	4.23e-03	0	43	0	1123024896	21	6071
2026-01-03 08:44:23.95	350.12	7.83	-30.6	-35.1	10.5	8.68e-03	0	43	0	1125122048	21	6049
2026-01-03 08:44:24.96	350.03	7.77	-30.5	-35.0	10.5	5.67e-03	0	43	0	1127219200	21	5991
2026-01-03 08:44:25.96	349.94	7.70	-30.5	-34.9	10.6	7.40e-03	0	43	0	1129316352	21	5963
2026-01-03 08:44:26.96	349.86	7.63	-30.5	-34.9	10.6	4.27e-03	0	43	0	1131413504	21	5972
2026-01-03 08:44:27.96	349.77	7.56	-30.5	-34.9	10.6	5.01e-03	0	43	0	1132462080	21	5942
2026-01-03 08:44:28.96	349.68	7.50	-30.5	-34.8	10.7	3.61e-03	0	43	0	1134559232	21	5913
2026-01-03 08:44:29.97	349.60	7.43	-30.5	-34.9	10.6	4.43e-03	0	43	0	1136656384	21	5943
2026-01-03 08:44:30.97	349.51	7.36	-30.5	-35.1	10.4	5.45e-03	0	43	0	1138753536	21	6073
2026-01-03 08:44:31.98	349.43	7.30	-30.5	-35.0	10.4	6.29e-03	0	43	0	1140850688	21	6044
2026-01-03 08:44:32.99	349.34	7.23	-30.6	-35.2	10.3	7.85e-03	0	43	0	1141899264	21	6131
2026-01-03 08:44:33.99	349.26	7.16	-30.6	-35.3	10.2	9.19e-03	0	43	0	1143996416	21	6194
2026-01-03 08:44:35.00	349.18	7.10	-30.6	-35.4	10.1	8.16e-03	0	43	0	1146093568	21	6228
2026-01-03 08:44:36.01	349.09	7.03	-32.6	-45.2	3.8	1.04e+00	0	43	104	1147142144	25	15457
2026-01-03 08:44:37.02	349.01	6.96	-32.8	-47.2	3.8	1.49e+00	0	43	104	1147142144	25	18845

#Closed at: 2026-01-03 08:44:37
#Recorded file [1147 MB]: D:/data/31010_260103_113423.dat