passes_logs/2026/01/03/R2M6_AANII_01/R2M6_AANII_01__20260103_020056_NOAA_20_JPSS-1_rec.log

#Pass ID: 20260103_020056_NOAA 20 (JPSS-1)
#Satellite: NOAA 20 (JPSS-1)
#Configuration: NOAA 20
#almurnet v.1.7.20240730
#Start time: 2026-01-03 02:00:56

#Version: 2.2.20231116
#Station: R2M6_AANII_01
#Location: 30.233357 lon 59.946436 lat
#TLE: 1 43013U 17073A   26002.21975278  .00000202  00000+0  11669-3 0  9999
#TLE: 2 43013  98.7622 303.2950 0001915  57.9213 302.2149 14.19532512420923

#Time	Az	El	Level	Level2	SNR	BER	BlckErr	Temp	State	Recorded	gain1	gain2
2026-01-03 02:00:56.44	11.20	6.98	-31.7	-40.6	4.3	1.41e+00	0	40	0	0	23	10048
2026-01-03 02:00:57.44	11.12	7.04	-31.6	-39.9	4.4	1.38e+00	0	40	104	0	23	9395
2026-01-03 02:00:58.45	11.04	7.11	-31.6	-39.8	5.6	4.44e-01	0	41	0	0	23	9266
2026-01-03 02:00:59.45	10.96	7.18	-31.6	-39.7	5.8	3.85e-01	0	41	0	1048576	23	9134
2026-01-03 02:01:00.45	10.88	7.24	-31.6	-39.6	5.8	3.95e-01	0	41	0	3145728	23	9067
2026-01-03 02:01:01.46	10.80	7.31	-31.6	-39.7	5.8	4.09e-01	0	41	0	5242880	23	9096
2026-01-03 02:01:02.46	10.72	7.38	-31.6	-39.5	5.9	3.75e-01	0	41	0	7340032	23	8920
2026-01-03 02:01:03.47	10.63	7.45	-31.6	-39.4	6.0	3.44e-01	0	41	0	9437184	23	8831
2026-01-03 02:01:04.47	10.55	7.52	-31.5	-39.1	6.2	3.51e-01	0	41	0	10485760	23	8563
2026-01-03 02:01:05.48	10.47	7.58	-31.5	-38.9	6.3	2.14e-01	0	41	0	12582912	23	8397
2026-01-03 02:01:06.48	10.38	7.65	-31.5	-39.0	6.2	3.20e-01	0	41	0	14680064	23	8493
2026-01-03 02:01:07.49	10.30	7.72	-31.4	-38.4	7.1	1.94e-01	0	41	0	16777216	22	8132
2026-01-03 02:01:08.50	10.22	7.79	-31.1	-37.3	8.0	1.07e-01	0	41	0	18874368	22	7289
2026-01-03 02:01:09.50	10.13	7.86	-31.0	-36.4	8.6	4.65e-02	0	41	0	19922944	22	6767
2026-01-03 02:01:10.50	10.05	7.93	-30.7	-36.0	9.3	2.40e-02	0	41	0	22020096	21	6634
2026-01-03 02:01:11.51	9.96	8.00	-30.5	-35.3	9.8	1.66e-02	0	41	0	24117248	21	6258
2026-01-03 02:01:12.51	9.87	8.06	-30.4	-35.2	10.4	1.09e-02	0	41	0	26214400	20	6303
2026-01-03 02:01:13.52	9.79	8.13	-30.3	-35.1	10.4	3.89e-03	0	41	0	28311552	20	6247
2026-01-03 02:01:14.52	9.70	8.20	-30.5	-35.5	10.2	9.67e-03	0	41	0	29360128	20	6457
2026-01-03 02:01:15.52	9.61	8.27	-30.4	-35.4	10.2	9.02e-03	0	41	0	31457280	20	6397
2026-01-03 02:01:16.53	9.53	8.34	-30.5	-35.1	10.1	6.65e-03	0	41	0	33554432	21	6109
2026-01-03 02:01:17.53	9.44	8.41	-30.6	-35.4	9.9	1.05e-02	0	41	0	35651584	21	6295
2026-01-03 02:01:18.53	9.35	8.48	-30.5	-35.1	10.2	1.21e-02	0	41	0	36700160	21	6116
2026-01-03 02:01:19.54	9.26	8.55	-30.4	-35.4	10.3	5.60e-03	0	41	0	38797312	20	6369
2026-01-03 02:01:20.54	9.17	8.62	-30.4	-35.4	10.3	8.86e-03	0	41	0	40894464	20	6399
2026-01-03 02:01:21.54	9.08	8.69	-30.6	-35.3	9.9	9.15e-03	0	41	0	42991616	21	6240
2026-01-03 02:01:22.55	8.99	8.76	-30.8	-36.1	9.4	1.10e-02	0	41	0	45088768	21	6640
2026-01-03 02:01:23.56	8.90	8.83	-30.7	-36.0	9.5	1.93e-02	0	42	0	46137344	21	6588
2026-01-03 02:01:24.56	8.81	8.90	-30.6	-35.3	10.1	1.25e-02	0	41	0	48234496	21	6207
2026-01-03 02:01:25.57	8.71	8.97	-30.4	-34.7	10.4	6.69e-03	0	42	0	50331648	21	5924
2026-01-03 02:01:26.58	8.62	9.04	-30.2	-34.7	10.9	2.96e-03	0	41	0	52428800	20	6023
2026-01-03 02:01:27.59	8.53	9.11	-30.3	-34.7	10.9	5.21e-03	0	42	0	54525952	20	6017
2026-01-03 02:01:28.59	8.44	9.19	-30.3	-34.8	10.8	3.06e-03	0	42	0	56623104	20	6065
2026-01-03 02:01:29.60	8.34	9.26	-30.3	-34.7	10.8	2.36e-03	0	42	0	57671680	20	6034
2026-01-03 02:01:30.60	8.25	9.33	-30.3	-34.9	10.7	2.52e-03	0	41	0	59768832	20	6124
2026-01-03 02:01:31.61	8.15	9.40	-30.3	-35.0	10.7	3.69e-03	0	42	0	61865984	20	6144
2026-01-03 02:01:32.61	8.06	9.47	-30.2	-34.6	11.1	5.04e-03	0	42	0	63963136	20	5946
2026-01-03 02:01:33.62	7.96	9.54	-30.2	-34.6	11.0	1.74e-03	0	42	0	65011712	20	5957
2026-01-03 02:01:34.63	7.86	9.62	-30.3	-34.7	10.9	2.02e-03	0	41	0	67108864	20	5992
2026-01-03 02:01:35.63	7.77	9.69	-30.3	-34.9	10.8	4.72e-03	0	41	0	69206016	20	6089
2026-01-03 02:01:36.64	7.67	9.76	-30.3	-34.7	11.0	2.70e-03	0	42	0	71303168	20	5998
2026-01-03 02:01:37.65	7.57	9.83	-30.2	-34.4	11.1	1.50e-03	0	42	0	73400320	20	5875
2026-01-03 02:01:38.66	7.47	9.90	-30.2	-34.5	11.1	4.22e-03	0	42	0	74448896	20	5883
2026-01-03 02:01:39.66	7.38	9.98	-30.3	-34.9	10.9	2.13e-03	0	42	0	76546048	20	6081
2026-01-03 02:01:40.66	7.28	10.05	-30.3	-34.8	10.9	2.47e-03	0	42	0	78643200	20	6058
2026-01-03 02:01:41.67	7.18	10.12	-30.2	-34.4	11.3	1.65e-03	0	42	0	80740352	20	5823
2026-01-03 02:01:42.67	7.08	10.19	-30.2	-34.4	11.2	3.76e-03	0	42	0	82837504	20	5850
2026-01-03 02:01:43.67	6.98	10.27	-30.2	-34.3	11.3	1.33e-03	0	42	0	83886080	20	5811
2026-01-03 02:01:44.68	6.87	10.34	-30.2	-34.3	11.3	1.16e-03	0	42	0	85983232	20	5806
2026-01-03 02:01:45.68	6.77	10.41	-30.2	-34.3	11.3	1.18e-03	0	42	0	88080384	20	5813
2026-01-03 02:01:46.69	6.67	10.49	-30.2	-34.3	11.3	1.06e-03	0	42	0	90177536	20	5806
2026-01-03 02:01:47.70	6.57	10.56	-30.2	-34.3	11.3	9.75e-04	0	42	0	92274688	20	5789
2026-01-03 02:01:48.70	6.46	10.63	-30.1	-34.1	11.4	1.12e-03	0	42	0	93323264	20	5721
2026-01-03 02:01:49.71	6.36	10.71	-30.2	-34.4	11.3	1.14e-03	0	42	0	95420416	20	5860
2026-01-03 02:01:50.71	6.26	10.78	-30.4	-34.9	10.9	1.86e-03	0	42	0	97517568	20	6085
2026-01-03 02:01:51.72	6.15	10.86	-30.3	-34.7	11.0	2.30e-03	0	42	0	99614720	20	5975
2026-01-03 02:01:52.73	6.04	10.93	-30.3	-34.8	11.0	1.62e-03	0	42	0	101711872	20	6024
2026-01-03 02:01:53.73	5.94	11.00	-30.2	-34.5	11.2	1.82e-03	0	42	0	102760448	20	5892
2026-01-03 02:01:54.73	5.83	11.08	-30.2	-34.3	11.4	1.22e-03	0	42	0	104857600	20	5785
2026-01-03 02:01:55.74	5.72	11.15	-30.1	-34.0	11.6	7.04e-04	0	42	0	106954752	20	5640
2026-01-03 02:01:56.75	5.62	11.23	-30.1	-34.0	11.7	6.42e-04	0	42	0	109051904	20	5630
2026-01-03 02:01:57.75	5.51	11.30	-30.1	-34.0	11.6	6.23e-04	0	42	0	111149056	20	5641
2026-01-03 02:01:58.76	5.40	11.38	-28.8	-33.0	11.1	8.97e-04	0	42	0	112197632	19	5821
2026-01-03 02:01:59.76	5.29	11.45	-30.2	-34.4	10.7	1.25e-03	0	42	0	114294784	20	5820
2026-01-03 02:02:00.76	5.18	11.53	-30.2	-34.3	11.3	8.93e-04	0	42	0	116391936	20	5761
2026-01-03 02:02:01.77	5.07	11.60	-30.1	-34.1	11.0	7.39e-04	0	42	0	118489088	20	5704
2026-01-03 02:02:02.77	4.96	11.68	-30.2	-34.2	10.8	3.99e-03	0	42	0	120586240	20	5729
2026-01-03 02:02:03.78	4.85	11.75	-30.1	-34.1	11.6	8.31e-04	0	42	0	121634816	20	5687
2026-01-03 02:02:04.78	4.73	11.83	-30.2	-34.2	11.5	6.65e-04	0	42	0	123731968	20	5704
2026-01-03 02:02:05.79	4.62	11.90	-30.1	-34.0	11.7	7.92e-04	0	42	0	125829120	20	5622
2026-01-03 02:02:06.79	4.51	11.98	-30.1	-34.1	11.6	8.13e-04	0	42	0	127926272	20	5690
2026-01-03 02:02:07.80	4.39	12.06	-30.2	-34.2	11.6	6.53e-04	0	42	0	130023424	20	5711
2026-01-03 02:02:08.81	4.28	12.13	-30.2	-34.2	11.5	7.41e-04	0	42	0	131072000	20	5741
2026-01-03 02:02:09.82	4.16	12.21	-30.2	-34.2	11.5	9.98e-04	0	42	0	133169152	20	5740
2026-01-03 02:02:10.82	4.04	12.28	-30.3	-34.7	11.2	9.67e-04	0	42	0	135266304	20	5967
2026-01-03 02:02:11.82	3.93	12.36	-30.3	-34.5	11.4	1.29e-03	0	42	0	137363456	20	5855
2026-01-03 02:02:12.82	3.81	12.44	-30.2	-34.2	11.6	1.07e-03	0	42	0	139460608	20	5750
2026-01-03 02:02:13.83	3.69	12.51	-30.2	-34.2	11.6	3.89e-03	0	42	0	140509184	20	5736
2026-01-03 02:02:14.84	3.57	12.59	-30.2	-34.4	11.5	8.38e-04	0	42	0	142606336	20	5797
2026-01-03 02:02:15.83	3.46	12.67	-30.2	-34.3	11.6	7.71e-04	0	42	0	144703488	20	5760
2026-01-03 02:02:16.84	3.34	12.74	-30.2	-34.2	11.6	3.72e-03	0	43	0	146800640	20	5739
2026-01-03 02:02:17.84	3.22	12.82	-30.2	-34.1	11.7	6.75e-04	0	42	0	148897792	20	5672
2026-01-03 02:02:18.84	3.10	12.90	-30.2	-34.1	11.7	5.76e-04	0	42	0	149946368	20	5666
2026-01-03 02:02:19.85	2.97	12.98	-30.2	-34.2	11.6	3.42e-03	0	42	0	152043520	20	5709
2026-01-03 02:02:20.86	2.85	13.05	-30.2	-34.1	11.7	3.86e-03	0	42	0	154140672	20	5650
2026-01-03 02:02:21.87	2.73	13.13	-30.2	-34.3	11.7	5.75e-04	0	42	0	156237824	20	5760
2026-01-03 02:02:22.88	2.60	13.21	-30.1	-34.0	11.8	3.59e-03	0	42	0	158334976	20	5618
2026-01-03 02:02:23.88	2.48	13.29	-30.1	-33.8	11.9	3.32e-03	0	42	0	159383552	20	5551
2026-01-03 02:02:24.89	2.35	13.37	-30.0	-33.7	12.0	5.93e-04	0	42	0	161480704	20	5485
2026-01-03 02:02:25.89	2.23	13.44	-30.0	-33.7	12.0	2.97e-04	0	43	0	163577856	20	5491
2026-01-03 02:02:26.89	2.10	13.52	-30.1	-33.8	11.9	3.10e-03	0	43	0	165675008	20	5525
2026-01-03 02:02:27.90	1.97	13.60	-30.1	-34.0	11.8	7.88e-04	0	42	0	167772160	20	5622
2026-01-03 02:02:28.90	1.85	13.68	-30.1	-33.8	12.0	4.23e-04	0	43	0	168820736	20	5524
2026-01-03 02:02:29.91	1.72	13.76	-30.0	-33.6	12.1	3.48e-03	0	43	0	170917888	20	5453
2026-01-03 02:02:30.91	1.59	13.83	-30.1	-33.8	12.0	7.21e-04	0	43	0	173015040	20	5545
2026-01-03 02:02:31.91	1.46	13.91	-30.1	-33.8	12.0	3.28e-03	0	42	0	175112192	20	5545
2026-01-03 02:02:32.92	1.33	13.99	-30.1	-33.9	11.9	3.32e-03	0	43	0	176160768	20	5581
2026-01-03 02:02:33.93	1.19	14.07	-30.2	-34.2	11.7	8.36e-04	0	42	0	178257920	20	5711
2026-01-03 02:02:34.93	1.06	14.15	-30.1	-33.9	12.0	3.37e-03	0	43	0	180355072	20	5544
2026-01-03 02:02:35.94	0.93	14.23	-30.1	-33.8	12.1	3.17e-03	0	43	0	182452224	20	5500
2026-01-03 02:02:36.95	0.79	14.31	-30.0	-33.6	12.2	7.41e-04	0	43	0	184549376	20	5427
2026-01-03 02:02:37.96	0.66	14.39	-30.0	-33.7	12.1	2.83e-03	0	43	0	186646528	20	5470
2026-01-03 02:02:38.96	0.52	14.47	-30.0	-33.6	12.2	3.50e-03	0	42	0	187695104	20	5440
2026-01-03 02:02:39.97	0.39	14.55	-30.0	-33.5	12.3	4.57e-04	0	42	0	189792256	20	5409
2026-01-03 02:02:40.98	0.25	14.63	-30.0	-33.6	12.2	3.01e-03	0	43	0	191889408	20	5425
2026-01-03 02:02:41.98	0.11	14.71	-30.0	-33.6	12.2	3.25e-03	0	42	0	193986560	20	5414
2026-01-03 02:02:42.99	359.98	14.79	-30.1	-33.8	12.1	2.65e-04	0	43	0	196083712	20	5498
2026-01-03 02:02:43.99	359.84	14.87	-29.9	-33.4	12.4	3.06e-03	0	43	0	197132288	20	5340
2026-01-03 02:02:44.99	359.70	14.95	-29.9	-33.7	12.6	3.04e-03	0	43	0	199229440	19	5585
2026-01-03 02:02:45.99	359.56	15.03	-29.9	-33.8	12.6	9.07e-05	0	43	0	201326592	19	5591
2026-01-03 02:02:47.00	359.42	15.11	-29.9	-33.6	12.6	1.01e-04	0	43	0	203423744	19	5512
2026-01-03 02:02:48.00	359.28	15.19	-30.0	-33.4	12.4	3.12e-03	0	43	0	204472320	20	5349
2026-01-03 02:02:49.01	359.13	15.27	-29.9	-33.7	12.6	6.75e-04	0	42	0	206569472	19	5566
2026-01-03 02:02:50.01	358.99	15.35	-29.8	-33.5	12.8	6.02e-05	0	43	0	208666624	19	5459
2026-01-03 02:02:51.02	358.84	15.43	-29.8	-33.4	12.8	3.05e-03	0	43	0	210763776	19	5424
2026-01-03 02:02:52.03	358.70	15.51	-29.9	-33.5	12.8	8.14e-04	0	43	0	212860928	19	5476
2026-01-03 02:02:53.04	358.55	15.59	-29.9	-33.6	12.7	7.55e-05	0	43	0	213909504	19	5503
2026-01-03 02:02:54.04	358.40	15.67	-29.8	-33.4	12.9	6.33e-05	0	43	0	216006656	19	5415
2026-01-03 02:02:55.05	358.26	15.75	-29.9	-33.5	12.7	8.98e-04	0	43	0	218103808	19	5475
2026-01-03 02:02:56.05	358.11	15.83	-29.9	-33.7	12.6	9.30e-05	0	43	0	220200960	19	5566
2026-01-03 02:02:57.06	357.96	15.91	-29.8	-33.4	12.9	6.56e-05	0	43	0	222298112	19	5418
2026-01-03 02:02:58.07	357.81	15.99	-29.7	-33.1	13.0	3.37e-04	0	43	0	223346688	19	5298
2026-01-03 02:02:59.07	357.66	16.08	-29.6	-32.9	13.2	2.59e-03	0	43	0	225443840	19	5225
2026-01-03 02:03:00.08	357.51	16.16	-29.7	-33.1	13.0	2.28e-05	0	43	0	227540992	19	5320
2026-01-03 02:03:01.08	357.35	16.24	-29.6	-32.9	13.2	3.35e-05	0	43	0	229638144	19	5224
2026-01-03 02:03:02.08	357.20	16.32	-29.8	-33.3	12.9	2.51e-03	0	43	0	231735296	19	5405
2026-01-03 02:03:03.08	357.05	16.40	-29.7	-33.1	13.1	3.12e-05	0	43	0	232783872	19	5298
2026-01-03 02:03:04.09	356.89	16.48	-29.8	-33.4	12.8	5.64e-05	0	43	0	234881024	19	5448
2026-01-03 02:03:05.09	356.74	16.56	-29.7	-33.1	13.1	3.50e-05	0	43	0	236978176	19	5308
2026-01-03 02:03:06.10	356.58	16.64	-29.7	-32.9	13.2	2.13e-05	0	43	0	239075328	19	5242
2026-01-03 02:03:07.10	356.42	16.73	-29.6	-32.8	13.3	2.28e-05	0	43	0	241172480	19	5207
2026-01-03 02:03:08.10	356.26	16.81	-29.7	-33.0	13.2	1.60e-05	0	43	0	242221056	19	5258
2026-01-03 02:03:09.11	356.10	16.89	-29.7	-33.0	13.2	3.47e-03	0	43	0	244318208	19	5257
2026-01-03 02:03:10.12	355.94	16.97	-29.8	-33.2	13.0	3.28e-05	0	43	0	246415360	19	5363
2026-01-03 02:03:11.12	355.78	17.05	-29.7	-33.0	13.3	2.51e-05	0	43	0	248512512	19	5243
2026-01-03 02:03:12.13	355.62	17.13	-29.7	-32.9	13.2	2.89e-05	0	43	0	250609664	19	5250
2026-01-03 02:03:13.13	355.46	17.22	-29.7	-33.1	13.1	2.74e-05	0	43	0	251658240	19	5301
2026-01-03 02:03:14.14	355.29	17.30	-29.7	-32.9	13.3	1.75e-05	0	43	0	253755392	19	5229
2026-01-03 02:03:15.14	355.13	17.38	-29.7	-33.0	13.2	1.98e-05	0	43	0	255852544	19	5279
2026-01-03 02:03:16.15	354.96	17.46	-29.9	-33.5	12.8	5.41e-05	0	43	0	257949696	19	5474
2026-01-03 02:03:17.15	354.79	17.54	-29.9	-33.5	12.9	4.65e-05	0	43	0	260046848	19	5470
2026-01-03 02:03:18.15	354.63	17.62	-29.9	-33.2	12.7	6.25e-05	0	43	0	261095424	20	5252
2026-01-03 02:03:19.15	354.46	17.71	-29.8	-33.3	13.1	5.11e-05	0	43	0	263192576	19	5373
2026-01-03 02:03:20.16	354.29	17.79	-29.8	-33.2	13.2	3.20e-05	0	43	0	265289728	19	5327
2026-01-03 02:03:21.16	354.12	17.87	-29.7	-33.1	13.2	2.82e-05	0	43	0	267386880	19	5298
2026-01-03 02:03:22.17	353.95	17.95	-29.8	-33.4	13.0	3.50e-05	0	43	0	269484032	19	5403
2026-01-03 02:03:23.17	353.78	18.03	-29.8	-33.4	13.0	3.58e-05	0	43	0	270532608	19	5402
2026-01-03 02:03:24.18	353.60	18.12	-29.8	-33.4	13.0	3.43e-05	0	43	0	272629760	19	5409
2026-01-03 02:03:25.19	353.43	18.20	-29.9	-33.4	13.0	4.42e-05	0	43	0	274726912	19	5427
2026-01-03 02:03:26.19	353.25	18.28	-29.9	-33.4	13.0	3.28e-05	0	43	0	276824064	19	5406
2026-01-03 02:03:27.19	353.08	18.36	-29.9	-33.5	12.9	4.73e-05	0	43	0	278921216	19	5446
2026-01-03 02:03:28.20	352.90	18.44	-29.9	-33.2	12.7	5.49e-05	0	43	0	279969792	20	5230
2026-01-03 02:03:29.21	352.72	18.53	-30.0	-33.7	12.7	5.79e-05	0	43	0	282066944	19	5543
2026-01-03 02:03:30.22	352.54	18.61	-30.0	-33.3	12.7	8.46e-05	0	43	0	284164096	20	5271
2026-01-03 02:03:31.22	352.36	18.69	-30.1	-33.5	12.5	9.07e-05	0	43	0	286261248	20	5364
2026-01-03 02:03:32.23	352.18	18.77	-30.1	-33.7	12.4	1.04e-04	0	43	0	288358400	20	5424
2026-01-03 02:03:33.24	352.00	18.85	-30.1	-33.7	12.3	2.66e-04	0	43	0	289406976	20	5419
2026-01-03 02:03:34.25	351.81	18.94	-30.0	-33.4	12.6	1.12e-04	0	43	0	291504128	20	5316
2026-01-03 02:03:35.25	351.63	19.02	-30.0	-33.3	12.6	9.68e-05	0	43	0	293601280	20	5284
2026-01-03 02:03:36.26	351.44	19.10	-30.0	-33.3	12.7	4.29e-04	0	43	0	295698432	20	5272
2026-01-03 02:03:37.26	351.26	19.18	-30.0	-33.5	12.5	1.75e-03	0	43	0	297795584	20	5340
2026-01-03 02:03:38.26	351.07	19.26	-29.9	-33.2	12.7	8.46e-05	0	43	0	298844160	20	5236
2026-01-03 02:03:39.27	350.88	19.34	-30.0	-33.7	12.8	6.94e-05	0	43	0	300941312	19	5529
2026-01-03 02:03:40.28	350.69	19.43	-29.9	-33.6	12.9	2.08e-03	0	43	0	303038464	19	5505
2026-01-03 02:03:41.28	350.50	19.51	-29.9	-33.6	12.9	5.11e-05	0	43	0	305135616	19	5509
2026-01-03 02:03:42.29	350.31	19.59	-30.1	-33.5	12.5	6.02e-05	0	43	0	307232768	20	5375
2026-01-03 02:03:43.30	350.12	19.67	-30.1	-33.6	12.5	2.40e-03	0	43	0	308281344	20	5382
2026-01-03 02:03:44.30	349.93	19.75	-29.9	-33.5	12.9	2.35e-03	0	43	0	310378496	19	5458
2026-01-03 02:03:45.31	349.73	19.83	-29.9	-33.2	12.8	6.02e-05	0	43	0	312475648	20	5224
2026-01-03 02:03:46.31	349.54	19.91	-30.0	-33.4	12.6	2.30e-03	0	43	0	314572800	20	5335
2026-01-03 02:03:47.32	349.34	19.99	-30.0	-33.8	12.8	2.36e-03	0	43	0	316669952	19	5554
2026-01-03 02:03:48.32	349.14	20.08	-29.9	-33.4	13.0	2.67e-04	0	43	0	317718528	19	5412
2026-01-03 02:03:49.32	348.94	20.16	-29.9	-33.5	13.0	3.12e-05	0	43	0	319815680	19	5445
2026-01-03 02:03:50.32	348.75	20.24	-30.0	-33.7	12.9	2.01e-03	0	43	0	321912832	19	5512
2026-01-03 02:03:51.33	348.54	20.32	-29.9	-33.6	13.0	2.05e-04	0	43	0	324009984	19	5468
2026-01-03 02:03:52.33	348.34	20.40	-29.9	-33.5	13.0	3.73e-05	0	43	0	325058560	19	5465
2026-01-03 02:03:53.34	348.14	20.48	-29.9	-33.4	13.1	6.19e-04	0	43	0	327155712	19	5398
2026-01-03 02:03:54.34	347.94	20.56	-29.8	-33.1	13.3	1.12e-04	0	43	0	329252864	19	5287
2026-01-03 02:03:55.35	347.73	20.64	-29.7	-33.0	13.3	3.58e-04	0	43	0	331350016	19	5264
2026-01-03 02:03:56.36	347.52	20.72	-29.6	-32.7	13.5	1.52e-04	0	43	0	333447168	19	5141
2026-01-03 02:03:57.36	347.32	20.80	-29.6	-32.7	13.5	9.10e-06	0	43	0	334495744	19	5137
2026-01-03 02:03:58.37	347.11	20.88	-29.6	-32.8	13.5	1.52e-05	0	43	0	336592896	19	5161
2026-01-03 02:03:59.37	346.90	20.96	-29.6	-32.5	13.6	1.14e-05	0	43	0	338690048	19	5076
2026-01-03 02:04:00.38	346.69	21.04	-29.6	-32.6	13.6	8.30e-06	0	43	0	340787200	19	5075
2026-01-03 02:04:01.38	346.48	21.11	-29.6	-32.7	13.5	6.06e-04	0	43	0	342884352	19	5125
2026-01-03 02:04:02.39	346.26	21.19	-29.6	-32.8	13.4	1.58e-03	0	43	0	343932928	19	5162
2026-01-03 02:04:03.39	346.05	21.27	-29.5	-32.3	13.8	7.60e-06	0	43	0	346030080	19	4989
2026-01-03 02:04:04.39	345.84	21.35	-29.7	-32.8	13.5	2.12e-03	0	43	0	348127232	19	5181
2026-01-03 02:04:05.39	345.62	21.43	-29.6	-32.5	13.7	2.08e-03	0	43	0	350224384	19	5058
2026-01-03 02:04:06.39	345.41	21.51	-29.3	-31.8	14.1	1.50e-06	0	43	0	352321536	19	4805
2026-01-03 02:04:07.40	345.19	21.59	-29.1	-31.9	14.4	2.06e-03	0	43	0	353370112	18	4951
2026-01-03 02:04:08.41	344.97	21.66	-29.2	-32.0	14.3	2.32e-03	0	43	0	355467264	18	4988
2026-01-03 02:04:09.41	344.75	21.74	-29.1	-31.9	14.4	7.00e-07	0	43	0	357564416	18	4952
2026-01-03 02:04:10.41	344.53	21.82	-29.2	-32.1	14.2	2.34e-03	0	43	0	359661568	18	5031
2026-01-03 02:04:11.42	344.30	21.90	-29.2	-32.2	14.2	2.31e-03	0	43	0	361758720	18	5054
2026-01-03 02:04:12.43	344.08	21.97	-29.2	-32.1	14.3	1.50e-06	0	43	0	362807296	18	5013
2026-01-03 02:04:13.43	343.86	22.05	-29.3	-32.3	14.1	0.00e+00	0	43	0	364904448	18	5081
2026-01-03 02:04:14.43	343.63	22.13	-29.3	-32.2	14.2	2.26e-03	0	43	0	367001600	18	5069
2026-01-03 02:04:15.44	343.40	22.20	-29.2	-32.1	14.3	1.50e-06	0	43	0	369098752	18	5005
2026-01-03 02:04:16.45	343.17	22.28	-29.1	-31.8	14.5	7.00e-07	0	43	0	371195904	18	4897
2026-01-03 02:04:17.45	342.94	22.35	-28.9	-31.8	14.7	0.00e+00	0	43	0	372244480	17	5020
2026-01-03 02:04:18.46	342.71	22.43	-28.8	-31.4	14.9	0.00e+00	0	43	0	374341632	17	4902
2026-01-03 02:04:19.46	342.48	22.50	-28.8	-31.6	14.9	2.57e-03	0	43	0	376438784	17	4949
2026-01-03 02:04:20.47	342.25	22.58	-28.8	-31.6	14.9	0.00e+00	0	43	0	378535936	17	4960
2026-01-03 02:04:21.47	342.02	22.65	-28.8	-31.6	14.9	0.00e+00	0	43	0	380633088	17	4954
2026-01-03 02:04:22.48	341.78	22.73	-28.8	-31.6	14.8	2.48e-03	0	43	0	381681664	17	4957
2026-01-03 02:04:23.49	341.54	22.80	-28.9	-31.7	14.8	0.00e+00	0	43	0	383778816	17	4989
2026-01-03 02:04:24.49	341.31	22.88	-28.8	-31.6	14.9	0.00e+00	0	43	0	385875968	17	4957
2026-01-03 02:04:25.49	341.07	22.95	-28.9	-31.8	14.7	2.27e-03	0	43	0	387973120	17	5030
2026-01-03 02:04:26.49	340.83	23.02	-29.0	-31.7	14.6	2.20e-06	0	43	0	390070272	18	4872
2026-01-03 02:04:27.50	340.59	23.09	-29.0	-31.7	14.5	5.49e-05	0	43	0	391118848	18	4875
2026-01-03 02:04:28.50	340.35	23.17	-29.1	-31.8	14.5	0.00e+00	0	43	0	393216000	18	4920
2026-01-03 02:04:29.50	340.10	23.24	-29.2	-32.1	14.3	2.70e-03	0	43	0	395313152	18	5002
2026-01-03 02:04:30.50	339.86	23.31	-29.3	-32.2	14.2	2.14e-04	0	43	0	397410304	18	5051
2026-01-03 02:04:31.51	339.62	23.38	-29.2	-32.1	14.3	1.50e-06	0	43	0	399507456	18	5023
2026-01-03 02:04:32.51	339.37	23.45	-29.1	-31.8	14.5	2.67e-03	0	43	0	400556032	18	4921
2026-01-03 02:04:33.51	339.12	23.52	-29.0	-31.7	14.6	7.00e-07	0	43	0	402653184	18	4866
2026-01-03 02:04:34.52	338.87	23.59	-29.1	-31.8	14.4	0.00e+00	0	43	0	404750336	18	4927
2026-01-03 02:04:35.53	338.62	23.66	-29.2	-32.0	14.4	1.86e-04	0	43	0	406847488	18	4984
2026-01-03 02:04:36.53	338.37	23.73	-28.9	-31.3	14.8	1.97e-04	0	43	0	408944640	18	4746
2026-01-03 02:04:37.53	338.12	23.80	-28.8	-31.5	15.0	0.00e+00	0	43	0	409993216	17	4927
2026-01-03 02:04:38.54	337.87	23.87	-28.8	-31.4	15.0	3.58e-04	0	43	0	412090368	17	4901
2026-01-03 02:04:39.54	337.61	23.94	-28.8	-31.5	15.0	5.45e-04	0	43	0	414187520	17	4908
2026-01-03 02:04:40.55	337.36	24.00	-28.8	-31.6	14.9	0.00e+00	0	43	0	416284672	17	4950
2026-01-03 02:04:41.55	337.10	24.07	-28.9	-31.8	14.8	1.45e-03	0	43	0	418381824	17	5027
2026-01-03 02:04:42.56	336.84	24.14	-28.9	-31.9	14.7	1.67e-03	0	43	0	419430400	17	5063
2026-01-03 02:04:43.56	336.59	24.20	-28.9	-31.9	14.7	0.00e+00	0	43	0	421527552	17	5058
2026-01-03 02:04:44.57	336.32	24.27	-29.0	-31.5	14.7	0.00e+00	0	43	0	423624704	18	4799
2026-01-03 02:04:45.58	336.06	24.33	-28.9	-31.8	14.8	1.59e-03	0	43	0	425721856	17	5002
2026-01-03 02:04:46.58	335.80	24.40	-29.0	-32.0	14.7	0.00e+00	0	43	0	426770432	17	5075
2026-01-03 02:04:47.58	335.54	24.46	-29.1	-31.8	14.5	0.00e+00	0	43	0	428867584	18	4918
2026-01-03 02:04:48.58	335.28	24.53	-29.2	-32.1	14.3	1.27e-03	0	43	0	430964736	18	5019
2026-01-03 02:04:49.58	335.01	24.59	-29.2	-32.1	14.3	0.00e+00	0	43	0	433061888	18	5019
2026-01-03 02:04:50.59	334.75	24.65	-29.2	-32.2	14.3	2.20e-06	0	43	0	435159040	18	5035
2026-01-03 02:04:51.60	334.48	24.71	-29.1	-31.7	14.5	2.20e-06	0	43	0	437256192	18	4883
2026-01-03 02:04:52.60	334.21	24.78	-29.1	-31.7	14.6	0.00e+00	0	43	0	438304768	18	4871
2026-01-03 02:04:53.61	333.94	24.84	-28.9	-31.3	14.8	0.00e+00	0	43	0	440401920	18	4734
2026-01-03 02:04:54.62	333.67	24.90	-28.7	-31.4	15.1	0.00e+00	0	43	0	442499072	17	4865
2026-01-03 02:04:55.63	333.39	24.96	-28.0	-30.7	15.0	0.00e+00	0	43	0	444596224	17	4909
2026-01-03 02:04:56.63	333.12	25.02	-28.9	-31.7	14.8	1.63e-03	0	43	0	445644800	17	4990
2026-01-03 02:04:57.64	332.85	25.08	-28.9	-31.8	13.5	0.00e+00	0	43	0	447741952	17	5013
2026-01-03 02:04:58.64	332.57	25.13	-28.9	-31.9	14.8	0.00e+00	0	43	0	449839104	17	5042
2026-01-03 02:04:59.65	332.30	25.19	-29.1	-31.8	14.5	1.84e-03	0	43	0	451936256	18	4895
2026-01-03 02:05:00.66	332.02	25.25	-29.0	-31.6	14.6	1.15e-03	0	43	0	454033408	18	4854
2026-01-03 02:05:01.66	331.74	25.31	-29.1	-31.7	14.5	7.00e-07	0	43	0	455081984	18	4881
2026-01-03 02:05:02.66	331.46	25.36	-29.2	-31.9	14.5	1.80e-03	0	43	0	457179136	18	4952
2026-01-03 02:05:03.67	331.18	25.42	-29.1	-31.8	14.5	2.21e-03	0	43	0	459276288	18	4891
2026-01-03 02:05:04.67	330.90	25.47	-29.0	-31.9	14.7	0.00e+00	0	43	0	461373440	17	5069
2026-01-03 02:05:05.68	330.62	25.53	-28.9	-31.8	14.8	0.00e+00	0	43	0	463470592	17	5011
2026-01-03 02:05:06.69	330.34	25.58	-29.1	-31.8	14.6	3.54e-04	0	43	0	464519168	18	4901
2026-01-03 02:05:07.69	330.05	25.63	-29.0	-31.4	14.7	1.94e-03	0	43	0	466616320	18	4774
2026-01-03 02:05:08.70	329.77	25.68	-28.6	-31.1	15.2	7.00e-07	0	43	0	468713472	17	4788
2026-01-03 02:05:09.70	329.48	25.73	-28.5	-30.8	15.4	3.20e-04	0	43	0	470810624	17	4695
2026-01-03 02:05:10.71	329.19	25.79	-28.5	-31.2	15.5	2.16e-03	0	43	0	472907776	16	4919
2026-01-03 02:05:11.71	328.91	25.84	-28.4	-31.1	15.5	0.00e+00	0	43	0	473956352	16	4883
2026-01-03 02:05:12.72	328.62	25.88	-28.5	-31.2	15.5	0.00e+00	0	43	0	476053504	16	4911
2026-01-03 02:05:13.73	328.33	25.93	-28.6	-30.9	15.3	4.02e-04	0	43	0	478150656	17	4717
2026-01-03 02:05:14.73	328.04	25.98	-28.6	-31.0	15.3	5.99e-04	0	43	0	480247808	17	4750
2026-01-03 02:05:15.74	327.75	26.03	-28.6	-31.0	15.3	0.00e+00	0	43	0	482344960	17	4765
2026-01-03 02:05:16.73	327.46	26.07	-28.8	-31.6	15.0	0.00e+00	0	43	0	483393536	17	4935
2026-01-03 02:05:17.73	327.17	26.12	-28.8	-31.5	15.0	5.22e-04	0	43	0	485490688	17	4920
2026-01-03 02:05:18.74	326.87	26.16	-28.6	-31.1	15.3	1.35e-03	0	43	0	487587840	17	4767
2026-01-03 02:05:19.75	326.58	26.21	-28.7	-31.2	15.2	0.00e+00	0	43	0	489684992	17	4807
2026-01-03 02:05:20.75	326.28	26.25	-28.8	-31.4	15.1	4.84e-04	0	43	0	491782144	17	4887
2026-01-03 02:05:21.76	325.99	26.29	-28.9	-31.8	14.8	3.23e-04	0	43	0	492830720	17	5030
2026-01-03 02:05:22.77	325.69	26.34	-29.0	-31.5	14.6	0.00e+00	0	43	0	494927872	18	4814
2026-01-03 02:05:23.78	325.39	26.38	-29.2	-32.1	14.4	1.22e-03	0	43	0	497025024	18	5009
2026-01-03 02:05:24.78	325.09	26.42	-29.2	-32.0	14.4	1.59e-03	0	43	0	499122176	18	4975
2026-01-03 02:05:25.79	324.79	26.46	-29.2	-32.1	14.4	2.05e-03	0	43	0	501219328	18	5006
2026-01-03 02:05:26.80	324.49	26.49	-29.4	-32.6	14.0	1.03e-03	0	43	0	502267904	18	5200
2026-01-03 02:05:27.80	324.19	26.53	-29.6	-32.5	13.9	2.31e-03	0	43	0	504365056	19	5025
2026-01-03 02:05:28.81	323.89	26.57	-29.6	-32.6	13.7	2.74e-03	0	43	0	506462208	19	5082
2026-01-03 02:05:29.81	323.59	26.61	-29.7	-32.7	13.6	7.60e-06	0	43	0	508559360	19	5131
2026-01-03 02:05:30.82	323.28	26.64	-29.7	-32.9	13.5	2.77e-03	0	43	0	510656512	19	5204
2026-01-03 02:05:31.82	322.98	26.67	-29.7	-32.9	13.5	2.84e-03	0	43	0	511705088	19	5186
2026-01-03 02:05:32.83	322.67	26.71	-29.7	-32.9	13.5	1.39e-03	0	43	0	513802240	19	5212
2026-01-03 02:05:33.84	322.37	26.74	-29.8	-33.2	13.3	2.78e-03	0	43	0	515899392	19	5320
2026-01-03 02:05:34.85	322.06	26.77	-29.7	-32.8	13.2	2.69e-03	0	43	0	517996544	19	5171
2026-01-03 02:05:35.86	321.75	26.80	-29.6	-32.6	13.5	1.24e-03	0	43	0	520093696	19	5092
2026-01-03 02:05:36.86	321.45	26.83	-29.6	-32.7	13.7	3.80e-06	0	43	0	521142272	19	5101
2026-01-03 02:05:37.87	321.14	26.86	-29.7	-32.7	13.6	2.94e-03	0	43	0	523239424	19	5118
2026-01-03 02:05:38.88	320.83	26.89	-29.8	-33.0	13.5	1.29e-03	0	43	0	525336576	19	5234
2026-01-03 02:05:39.89	320.52	26.92	-29.7	-32.9	13.5	3.22e-03	0	43	0	527433728	19	5194
2026-01-03 02:05:40.89	320.21	26.95	-29.8	-33.2	13.3	2.89e-03	0	43	0	529530880	19	5301
2026-01-03 02:05:41.89	319.90	26.97	-29.9	-33.3	13.3	7.76e-04	0	43	0	530579456	19	5355
2026-01-03 02:05:42.89	319.60	27.00	-29.9	-33.3	13.2	3.33e-03	0	43	0	532676608	19	5365
2026-01-03 02:05:43.90	319.28	27.02	-30.1	-33.5	12.8	3.93e-04	0	43	0	534773760	20	5311
2026-01-03 02:05:44.91	318.97	27.04	-30.3	-34.0	12.4	6.91e-04	0	43	0	536870912	20	5533
2026-01-03 02:05:45.91	318.66	27.07	-30.1	-33.6	12.6	3.26e-03	0	43	0	538968064	20	5361
2026-01-03 02:05:46.92	318.35	27.09	-30.0	-33.1	13.0	4.36e-04	0	43	0	540016640	20	5172
2026-01-03 02:05:47.93	318.04	27.11	-30.0	-33.6	13.1	5.87e-05	0	43	0	542113792	19	5475
2026-01-03 02:05:48.93	317.72	27.13	-29.9	-33.5	13.1	3.12e-03	0	43	0	544210944	19	5412
2026-01-03 02:05:49.94	317.41	27.14	-30.0	-33.1	12.9	9.06e-04	0	43	0	546308096	20	5184
2026-01-03 02:05:50.94	317.10	27.16	-30.2	-33.8	12.5	1.21e-03	0	43	0	548405248	20	5433
2026-01-03 02:05:51.95	316.78	27.18	-30.2	-33.8	12.5	3.04e-03	0	43	0	549453824	20	5444
2026-01-03 02:05:52.95	316.47	27.19	-30.4	-34.4	12.1	2.85e-03	0	43	0	551550976	20	5710
2026-01-03 02:05:53.96	316.15	27.21	-30.2	-33.9	12.4	6.37e-04	0	43	0	553648128	20	5492
2026-01-03 02:05:54.97	315.84	27.22	-30.1	-33.4	12.8	1.03e-04	0	43	0	555745280	20	5266
2026-01-03 02:05:55.97	315.53	27.23	-30.0	-33.2	12.9	3.24e-03	0	43	0	557842432	20	5220
2026-01-03 02:05:56.98	315.21	27.25	-30.0	-33.2	12.9	4.07e-04	0	43	0	558891008	20	5207
2026-01-03 02:05:57.99	314.89	27.26	-30.0	-33.1	13.0	5.11e-05	0	43	0	560988160	20	5172
2026-01-03 02:05:58.99	314.58	27.27	-29.9	-33.5	13.1	2.94e-03	0	43	0	563085312	19	5424
2026-01-03 02:05:59.99	314.26	27.28	-29.9	-33.5	13.1	6.89e-04	0	43	0	565182464	19	5406
2026-01-03 02:06:01.00	313.95	27.28	-30.0	-33.4	12.8	4.04e-05	0	43	0	567279616	20	5276
2026-01-03 02:06:02.00	313.63	27.29	-30.4	-34.3	12.2	1.31e-04	0	43	0	568328192	20	5654
2026-01-03 02:06:03.01	313.31	27.30	-30.3	-34.1	12.4	3.07e-04	0	43	0	570425344	20	5554
2026-01-03 02:06:04.02	313.00	27.30	-30.4	-34.4	12.1	2.86e-04	0	43	0	572522496	20	5701
2026-01-03 02:06:05.02	312.68	27.30	-30.4	-34.5	12.0	5.56e-04	0	43	0	574619648	20	5745
2026-01-03 02:06:06.03	312.36	27.31	-30.3	-34.0	12.4	2.49e-04	0	43	0	576716800	20	5520
2026-01-03 02:06:07.02	312.05	27.31	-30.3	-34.1	12.4	1.36e-04	0	43	0	577765376	20	5550
2026-01-03 02:06:08.03	311.73	27.31	-30.3	-34.1	12.3	1.50e-04	0	43	0	579862528	20	5584
2026-01-03 02:06:09.04	311.42	27.31	-30.4	-34.4	12.1	2.01e-04	0	43	0	581959680	20	5723
2026-01-03 02:06:10.04	311.10	27.31	-30.1	-33.5	12.6	1.40e-04	0	43	0	584056832	20	5340
2026-01-03 02:06:11.05	310.78	27.31	-29.9	-32.8	13.2	3.50e-05	0	43	0	586153984	20	5071
2026-01-03 02:06:12.04	310.47	27.31	-29.8	-33.2	13.3	1.79e-04	0	43	0	587202560	19	5292
2026-01-03 02:06:13.05	310.15	27.30	-30.0	-33.6	13.1	2.97e-05	0	43	0	589299712	19	5452
2026-01-03 02:06:14.06	309.84	27.30	-29.7	-32.8	13.6	2.65e-04	0	43	0	591396864	19	5139
2026-01-03 02:06:15.06	309.52	27.29	-29.5	-32.3	13.9	2.27e-04	0	43	0	593494016	19	4967
2026-01-03 02:06:16.07	309.20	27.28	-29.5	-32.4	13.9	3.80e-06	0	43	0	595591168	19	4995
2026-01-03 02:06:17.08	308.89	27.28	-29.5	-32.4	13.9	2.51e-05	0	43	0	596639744	19	5005
2026-01-03 02:06:18.08	308.57	27.27	-29.5	-32.2	14.0	1.50e-06	0	43	0	598736896	19	4923
2026-01-03 02:06:19.09	308.25	27.26	-29.4	-32.5	14.1	2.20e-06	0	43	0	600834048	18	5145
2026-01-03 02:06:20.10	307.94	27.25	-29.4	-32.4	14.2	6.29e-04	0	43	0	602931200	18	5130
2026-01-03 02:06:21.11	307.62	27.24	-29.4	-32.5	14.1	9.51e-04	0	43	0	605028352	18	5156
2026-01-03 02:06:22.11	307.31	27.22	-29.5	-32.4	13.9	7.00e-07	0	43	0	606076928	19	4987
2026-01-03 02:06:23.12	306.99	27.21	-29.3	-32.4	14.2	5.70e-04	0	43	0	608174080	18	5112
2026-01-03 02:06:24.13	306.67	27.20	-29.4	-32.6	14.1	2.92e-04	0	43	0	610271232	18	5169
2026-01-03 02:06:25.13	306.36	27.18	-29.5	-32.4	13.8	2.20e-06	0	43	0	612368384	19	5010
2026-01-03 02:06:26.13	306.05	27.17	-29.4	-32.1	13.8	1.42e-04	0	43	0	613416960	19	4937
2026-01-03 02:06:27.14	305.73	27.15	-29.3	-32.4	14.1	2.08e-04	0	43	0	615514112	18	5101
2026-01-03 02:06:28.15	305.42	27.13	-29.4	-32.4	14.2	2.20e-06	0	43	0	617611264	18	5121
2026-01-03 02:06:29.15	305.11	27.11	-29.3	-32.2	14.3	4.92e-04	0	43	0	619708416	18	5051
2026-01-03 02:06:30.16	304.79	27.09	-29.3	-32.3	14.3	2.29e-03	0	43	0	621805568	18	5064
2026-01-03 02:06:31.17	304.48	27.07	-28.9	-31.8	14.8	0.00e+00	0	43	0	623902720	17	5031
2026-01-03 02:06:32.17	304.17	27.05	-29.0	-31.6	14.7	4.10e-04	0	43	0	624951296	18	4849
2026-01-03 02:06:33.18	303.86	27.03	-28.8	-31.4	15.1	3.29e-04	0	43	0	627048448	17	4881
2026-01-03 02:06:34.18	303.55	27.00	-28.7	-31.2	15.2	2.21e-03	0	43	0	629145600	17	4807
2026-01-03 02:06:35.19	303.24	26.98	-28.8	-31.5	15.1	1.65e-04	0	43	0	631242752	17	4894
2026-01-03 02:06:36.19	302.93	26.95	-28.9	-31.7	14.8	1.06e-05	0	43	0	633339904	17	4962
2026-01-03 02:06:37.20	302.62	26.93	-28.8	-31.5	15.0	2.07e-03	0	43	0	634388480	17	4910
2026-01-03 02:06:38.21	302.31	26.90	-28.8	-31.4	15.1	1.63e-04	0	43	0	636485632	17	4894
2026-01-03 02:06:39.21	302.00	26.87	-28.8	-31.5	15.0	3.04e-04	0	43	0	638582784	17	4918
2026-01-03 02:06:40.21	301.69	26.84	-28.6	-31.1	15.2	2.24e-03	0	43	0	640679936	17	4788
2026-01-03 02:06:41.22	301.39	26.81	-28.6	-30.9	15.4	3.03e-04	0	43	0	641728512	17	4723
2026-01-03 02:06:42.22	301.08	26.78	-28.5	-30.7	15.5	6.38e-04	0	43	0	643825664	17	4663
2026-01-03 02:06:43.23	300.77	26.75	-28.6	-31.0	15.3	0.00e+00	0	43	0	645922816	17	4761
2026-01-03 02:06:44.24	300.47	26.72	-28.4	-31.0	15.6	2.19e-04	0	43	0	648019968	16	4865
2026-01-03 02:06:45.24	300.16	26.68	-28.4	-31.1	15.6	4.24e-04	0	43	0	650117120	16	4877
2026-01-03 02:06:46.25	299.86	26.65	-28.3	-30.8	15.8	0.00e+00	0	43	0	652214272	16	4785
2026-01-03 02:06:47.25	299.56	26.61	-28.4	-31.1	15.6	0.00e+00	0	43	0	653262848	16	4890
2026-01-03 02:06:48.26	299.25	26.58	-28.5	-30.7	15.5	2.13e-03	0	43	0	655360000	17	4660
2026-01-03 02:06:49.27	298.95	26.54	-28.7	-31.2	15.2	0.00e+00	0	43	0	657457152	17	4798
2026-01-03 02:06:50.27	298.65	26.50	-28.8	-31.6	15.0	1.05e-04	0	43	0	659554304	17	4936
2026-01-03 02:06:51.28	298.35	26.47	-28.8	-31.4	15.1	2.44e-03	0	43	0	660602880	17	4893
2026-01-03 02:06:52.28	298.05	26.43	-28.9	-31.7	14.9	2.29e-03	0	43	0	662700032	17	4984
2026-01-03 02:06:53.29	297.75	26.39	-28.8	-31.6	14.9	7.00e-07	0	43	0	664797184	17	4932
2026-01-03 02:06:54.29	297.45	26.35	-28.7	-31.3	15.1	2.32e-03	0	43	0	666894336	17	4846
2026-01-03 02:06:55.30	297.15	26.30	-28.7	-31.2	15.2	2.18e-03	0	43	0	668991488	17	4808
2026-01-03 02:06:56.31	296.85	26.26	-28.8	-31.4	15.1	0.00e+00	0	43	0	670040064	17	4871
2026-01-03 02:06:57.32	296.56	26.22	-28.8	-31.6	15.0	2.00e-03	0	43	0	672137216	17	4954
2026-01-03 02:06:58.32	296.26	26.17	-28.7	-31.3	15.1	2.04e-03	0	43	0	674234368	17	4860
2026-01-03 02:06:59.33	295.97	26.13	-28.8	-31.4	15.1	3.47e-04	0	43	0	676331520	17	4886
2026-01-03 02:07:00.34	295.67	26.08	-28.7	-31.2	15.1	2.23e-03	0	43	0	678428672	17	4824
2026-01-03 02:07:01.34	295.38	26.04	-28.8	-31.5	15.0	2.22e-03	0	43	0	680525824	17	4920
2026-01-03 02:07:02.35	295.09	25.99	-29.0	-31.5	14.7	0.00e+00	0	43	0	681574400	18	4803
2026-01-03 02:07:03.35	294.80	25.94	-29.0	-31.6	14.7	0.00e+00	0	43	0	683671552	18	4825
2026-01-03 02:07:04.36	294.50	25.90	-29.1	-31.8	14.5	2.04e-03	0	43	0	685768704	18	4908
2026-01-03 02:07:05.37	294.21	25.85	-29.2	-32.1	14.3	0.00e+00	0	43	0	687865856	18	5022
2026-01-03 02:07:06.38	293.92	25.80	-29.3	-32.4	14.2	1.43e-03	0	43	0	688914432	18	5101
2026-01-03 02:07:07.39	293.64	25.75	-29.3	-32.3	14.2	1.86e-03	0	43	0	691011584	18	5070
2026-01-03 02:07:08.39	293.35	25.69	-29.4	-32.1	14.0	4.50e-06	0	43	0	693108736	19	4913
2026-01-03 02:07:09.40	293.06	25.64	-29.3	-32.3	14.2	2.30e-03	0	43	0	695205888	18	5072
2026-01-03 02:07:10.41	292.78	25.59	-29.5	-32.8	13.9	3.80e-06	0	43	0	697303040	18	5249
2026-01-03 02:07:11.42	292.49	25.54	-29.6	-32.6	13.7	1.22e-05	0	43	0	698351616	19	5082
2026-01-03 02:07:12.42	292.21	25.48	-29.7	-32.7	13.6	1.69e-03	0	43	0	700448768	19	5135
2026-01-03 02:07:13.43	291.93	25.43	-29.8	-33.0	13.4	1.60e-05	0	43	0	702545920	19	5244
2026-01-03 02:07:14.43	291.65	25.37	-29.9	-33.3	13.2	1.67e-05	0	43	0	704643072	19	5358
2026-01-03 02:07:15.44	291.37	25.32	-29.9	-33.5	13.0	1.74e-03	0	43	0	706740224	19	5431
2026-01-03 02:07:16.45	291.09	25.26	-30.0	-33.3	12.8	5.41e-05	0	43	0	708837376	20	5263
2026-01-03 02:07:17.45	290.81	25.20	-30.1	-33.6	12.6	8.85e-05	0	43	0	709885952	20	5375
2026-01-03 02:07:18.46	290.53	25.15	-29.9	-33.0	13.0	2.45e-03	0	43	0	711983104	20	5133
2026-01-03 02:07:19.46	290.26	25.09	-29.8	-33.1	13.3	2.35e-03	0	43	0	714080256	19	5273
2026-01-03 02:07:20.47	289.98	25.03	-29.7	-32.7	13.6	1.37e-05	0	43	0	716177408	19	5130
2026-01-03 02:07:21.48	289.71	24.97	-29.6	-32.6	13.7	7.60e-06	0	43	0	717225984	19	5081
2026-01-03 02:07:22.49	289.43	24.91	-29.6	-32.7	13.6	2.05e-03	0	43	0	719323136	19	5107
2026-01-03 02:07:23.49	289.16	24.85	-29.7	-32.9	13.4	1.52e-05	0	43	0	721420288	19	5216
2026-01-03 02:07:24.50	288.89	24.79	-29.8	-33.1	13.3	1.44e-05	0	43	0	723517440	19	5291
2026-01-03 02:07:25.51	288.62	24.72	-29.8	-33.2	13.3	2.53e-03	0	43	0	725614592	19	5318
2026-01-03 02:07:26.51	288.35	24.66	-29.8	-33.1	13.3	1.06e-05	0	43	0	726663168	19	5284
2026-01-03 02:07:27.52	288.08	24.60	-29.8	-33.2	13.3	1.37e-05	0	43	0	728760320	19	5316
2026-01-03 02:07:28.52	287.82	24.54	-29.8	-33.3	13.1	2.05e-05	0	43	0	730857472	19	5343
2026-01-03 02:07:29.53	287.55	24.47	-29.9	-33.3	13.1	1.94e-04	0	43	0	732954624	19	5363
2026-01-03 02:07:30.54	287.29	24.41	-29.9	-33.6	13.0	3.50e-05	0	43	0	735051776	19	5472
2026-01-03 02:07:31.54	287.03	24.34	-29.9	-33.0	12.9	3.35e-05	0	43	0	737148928	20	5162
2026-01-03 02:07:32.54	286.77	24.28	-29.9	-33.0	12.9	4.73e-05	0	43	0	738197504	20	5146
2026-01-03 02:07:33.55	286.50	24.21	-30.0	-33.2	12.8	7.09e-05	0	43	0	740294656	20	5227
2026-01-03 02:07:34.55	286.25	24.15	-30.0	-33.4	12.7	8.31e-05	0	43	0	742391808	20	5295
2026-01-03 02:07:35.56	285.99	24.08	-29.9	-33.0	13.0	6.71e-05	0	43	0	744488960	20	5130
2026-01-03 02:07:36.56	285.73	24.01	-30.0	-33.2	12.9	4.04e-05	0	43	0	745537536	20	5208
2026-01-03 02:07:37.57	285.47	23.94	-30.1	-33.6	12.6	7.55e-05	0	43	0	747634688	20	5371
2026-01-03 02:07:38.58	285.21	23.88	-30.2	-33.8	12.5	1.70e-04	0	43	0	749731840	20	5457
2026-01-03 02:07:39.58	284.96	23.81	-30.2	-33.8	12.4	1.26e-04	0	43	0	751828992	20	5472
2026-01-03 02:07:40.59	284.71	23.74	-30.2	-33.8	12.4	3.52e-04	0	43	0	753926144	20	5477
2026-01-03 02:07:41.59	284.46	23.67	-30.2	-34.0	12.3	1.42e-04	0	43	0	754974720	20	5536
2026-01-03 02:07:42.60	284.20	23.60	-30.1	-33.7	12.5	2.30e-04	0	43	0	757071872	20	5424
2026-01-03 02:07:43.61	283.95	23.53	-30.1	-33.5	12.6	2.24e-04	0	43	0	759169024	20	5354
2026-01-03 02:07:44.61	283.71	23.46	-30.0	-33.3	12.7	2.26e-04	0	43	0	761266176	20	5272
2026-01-03 02:07:45.62	283.46	23.39	-29.8	-32.9	13.0	5.11e-05	0	43	0	763363328	20	5091
2026-01-03 02:07:46.63	283.21	23.32	-29.9	-33.4	13.0	1.20e-04	0	43	0	764411904	19	5410
2026-01-03 02:07:47.63	282.97	23.24	-30.1	-33.7	12.5	8.54e-05	0	43	0	766509056	20	5413
2026-01-03 02:07:48.63	282.72	23.17	-30.1	-33.5	12.6	1.70e-04	0	43	0	768606208	20	5343
2026-01-03 02:07:49.64	282.48	23.10	-29.9	-33.0	12.9	1.01e-04	0	43	0	770703360	20	5138
2026-01-03 02:07:50.64	282.24	23.03	-29.7	-33.0	13.3	5.34e-05	0	43	0	772800512	19	5254
2026-01-03 02:07:51.65	282.00	22.95	-29.7	-32.9	13.4	1.29e-05	0	43	0	773849088	19	5203
2026-01-03 02:07:52.65	281.76	22.88	-29.7	-32.8	13.4	1.14e-05	0	43	0	775946240	19	5180
2026-01-03 02:07:53.66	281.52	22.81	-29.8	-33.2	13.2	2.47e-03	0	43	0	778043392	19	5325
2026-01-03 02:07:54.66	281.28	22.73	-29.7	-32.8	13.4	2.67e-05	0	43	0	780140544	19	5171
2026-01-03 02:07:55.67	281.05	22.66	-29.4	-32.6	13.9	1.70e-03	0	43	0	782237696	18	5212
2026-01-03 02:07:56.67	280.81	22.58	-29.6	-32.6	13.6	2.59e-03	0	43	0	783286272	19	5084
2026-01-03 02:07:57.67	280.58	22.51	-29.4	-32.7	13.8	3.00e-06	0	43	0	785383424	18	5236
2026-01-03 02:07:58.68	280.34	22.43	-29.2	-32.2	14.1	2.21e-03	0	43	0	787480576	18	5054
2026-01-03 02:07:59.69	280.11	22.36	-29.2	-32.0	14.3	2.70e-03	0	43	0	789577728	18	4971
2026-01-03 02:08:00.69	279.88	22.28	-29.2	-32.0	14.3	3.80e-06	0	43	0	791674880	18	4985
2026-01-03 02:08:01.70	279.65	22.21	-29.2	-32.0	14.3	2.32e-03	0	43	0	792723456	18	4973
2026-01-03 02:08:02.71	279.42	22.13	-29.2	-32.0	14.3	2.05e-03	0	43	0	794820608	18	4972
2026-01-03 02:08:03.70	279.20	22.05	-29.3	-32.2	14.1	1.55e-03	0	43	0	796917760	18	5072
2026-01-03 02:08:04.71	278.97	21.98	-29.1	-31.9	14.3	1.48e-03	0	43	0	799014912	18	4954
2026-01-03 02:08:05.72	278.75	21.90	-28.9	-31.8	14.6	1.29e-03	0	43	0	801112064	17	5048
2026-01-03 02:08:06.72	278.52	21.82	-28.9	-31.9	14.6	2.00e-03	0	43	0	802160640	17	5051
2026-01-03 02:08:07.73	278.30	21.74	-29.1	-31.9	14.3	4.45e-04	0	43	0	804257792	18	4943
2026-01-03 02:08:08.74	278.08	21.66	-29.4	-32.6	13.9	3.22e-04	0	43	0	806354944	18	5195
2026-01-03 02:08:09.74	277.86	21.59	-29.5	-32.8	13.7	2.29e-03	0	43	0	808452096	18	5287
2026-01-03 02:08:10.75	277.64	21.51	-29.5	-32.4	13.7	2.25e-04	0	43	0	810549248	19	5023
2026-01-03 02:08:11.75	277.42	21.43	-29.6	-32.7	13.5	2.56e-03	0	43	0	811597824	19	5130
2026-01-03 02:08:12.76	277.20	21.35	-29.6	-32.7	13.4	1.37e-05	0	43	0	813694976	19	5146
2026-01-03 02:08:13.77	276.99	21.27	-29.7	-33.0	13.3	2.51e-04	0	43	0	815792128	19	5244
2026-01-03 02:08:14.78	276.77	21.19	-29.6	-32.8	13.4	2.66e-03	0	43	0	817889280	19	5186
2026-01-03 02:08:15.78	276.56	21.11	-29.9	-33.4	13.0	2.46e-03	0	43	0	819986432	19	5408
2026-01-03 02:08:16.79	276.34	21.03	-29.6	-32.8	13.3	2.20e-04	0	43	0	821035008	19	5189
2026-01-03 02:08:17.79	276.13	20.96	-29.2	-32.2	14.1	2.40e-03	0	43	0	823132160	18	5083
2026-01-03 02:08:18.80	275.92	20.88	-29.0	-31.7	14.4	2.44e-03	0	43	0	825229312	18	4885
2026-01-03 02:08:19.80	275.71	20.80	-28.9	-31.3	14.6	5.41e-05	0	43	0	827326464	18	4753
2026-01-03 02:08:20.81	275.50	20.72	-28.8	-31.5	14.8	2.32e-03	0	43	0	829423616	17	4948
2026-01-03 02:08:21.81	275.30	20.64	-28.7	-31.4	14.8	2.36e-03	0	43	0	830472192	17	4912
2026-01-03 02:08:22.81	275.09	20.56	-28.9	-31.9	14.5	6.32e-04	0	43	0	832569344	17	5065
2026-01-03 02:08:23.82	274.89	20.47	-28.7	-31.3	14.9	2.38e-03	0	43	0	834666496	17	4872
2026-01-03 02:08:24.82	274.68	20.39	-28.5	-30.9	15.2	2.27e-03	0	43	0	836763648	17	4740
2026-01-03 02:08:25.83	274.48	20.31	-28.4	-31.2	15.3	8.57e-04	0	43	0	838860800	16	4939
2026-01-03 02:08:26.83	274.28	20.23	-28.3	-30.9	15.4	0.00e+00	0	43	0	839909376	16	4835
2026-01-03 02:08:27.84	274.08	20.15	-28.3	-31.0	15.4	2.59e-03	0	43	0	842006528	16	4869
2026-01-03 02:08:28.85	273.88	20.07	-28.3	-30.7	15.5	9.54e-04	0	43	0	844103680	16	4793
2026-01-03 02:08:29.85	273.68	19.99	-28.4	-31.1	15.3	0.00e+00	0	43	0	846200832	16	4909
2026-01-03 02:08:30.86	273.48	19.91	-28.3	-30.9	15.4	2.18e-03	0	43	0	848297984	16	4840
2026-01-03 02:08:31.86	273.29	19.83	-28.3	-30.9	15.5	1.00e-03	0	43	0	849346560	16	4829
2026-01-03 02:08:32.87	273.09	19.75	-28.3	-31.0	15.4	2.41e-03	0	43	0	851443712	16	4866
2026-01-03 02:08:33.86	272.90	19.67	-28.4	-31.0	15.4	0.00e+00	0	43	0	853540864	16	4881
2026-01-03 02:08:34.87	272.70	19.58	-28.3	-30.9	15.4	0.00e+00	0	43	0	855638016	16	4839
2026-01-03 02:08:35.87	272.51	19.50	-28.3	-30.8	15.5	1.29e-03	0	43	0	856686592	16	4811
2026-01-03 02:08:36.87	272.32	19.42	-28.2	-30.7	15.5	0.00e+00	0	43	0	858783744	16	4777
2026-01-03 02:08:37.88	272.13	19.34	-28.1	-30.2	15.8	0.00e+00	0	43	0	860880896	16	4626
2026-01-03 02:08:38.88	271.94	19.26	-27.7	-30.0	16.1	2.30e-03	0	43	0	862978048	15	4689
2026-01-03 02:08:39.89	271.76	19.17	-27.7	-30.0	16.1	0.00e+00	0	43	0	865075200	15	4669
2026-01-03 02:08:40.90	271.57	19.09	-27.9	-30.4	15.9	0.00e+00	0	43	0	867172352	15	4807
2026-01-03 02:08:41.90	271.38	19.01	-28.3	-30.7	15.5	2.13e-03	0	43	0	868220928	16	4783
2026-01-03 02:08:42.91	271.20	18.93	-28.4	-31.2	15.2	1.95e-03	0	43	0	870318080	16	4945
2026-01-03 02:08:43.92	271.01	18.85	-28.5	-30.8	15.2	0.00e+00	0	43	0	872415232	17	4696
2026-01-03 02:08:44.92	270.83	18.76	-28.5	-30.8	15.2	0.00e+00	0	43	0	874512384	17	4699
2026-01-03 02:08:45.93	270.65	18.68	-28.6	-31.2	14.9	1.81e-03	0	43	0	875560960	17	4829
2026-01-03 02:08:46.93	270.47	18.60	-28.6	-31.0	15.0	0.00e+00	0	43	0	877658112	17	4779
2026-01-03 02:08:47.94	270.28	18.52	-28.4	-30.6	15.2	0.00e+00	0	43	0	879755264	17	4649
2026-01-03 02:08:48.95	270.10	18.44	-28.1	-30.4	15.7	2.24e-03	0	43	0	881852416	16	4673
2026-01-03 02:08:49.95	269.93	18.35	-28.2	-30.7	15.5	0.00e+00	0	43	0	883949568	16	4779
2026-01-03 02:08:50.95	269.75	18.27	-28.5	-31.3	15.2	0.00e+00	0	43	0	884998144	16	4968
2026-01-03 02:08:51.96	269.57	18.19	-28.3	-30.9	15.4	0.00e+00	0	43	0	887095296	16	4844
2026-01-03 02:08:52.97	269.40	18.11	-28.2	-30.6	15.6	2.46e-03	0	43	0	889192448	16	4736
2026-01-03 02:08:53.98	269.22	18.02	-28.2	-30.7	15.4	0.00e+00	0	43	0	891289600	16	4793
2026-01-03 02:08:54.98	269.05	17.94	-28.3	-31.0	15.3	0.00e+00	0	43	0	893386752	16	4878
2026-01-03 02:08:55.99	268.88	17.86	-28.4	-31.1	15.2	0.00e+00	0	43	0	895483904	16	4913
2026-01-03 02:08:57.00	268.70	17.78	-28.4	-31.3	15.2	0.00e+00	0	43	0	896532480	16	4977
2026-01-03 02:08:58.00	268.53	17.69	-28.6	-31.2	14.9	0.00e+00	0	43	0	898629632	17	4851
2026-01-03 02:08:59.00	268.37	17.61	-28.8	-31.7	14.6	7.00e-07	0	43	0	900726784	17	5000
2026-01-03 02:09:00.01	268.20	17.53	-28.5	-31.0	15.0	0.00e+00	0	43	0	902823936	17	4773
2026-01-03 02:09:01.02	268.03	17.45	-28.4	-30.6	15.2	7.00e-07	0	43	0	903872512	17	4652
2026-01-03 02:09:02.02	267.86	17.37	-28.2	-30.7	15.5	0.00e+00	0	43	0	905969664	16	4781
2026-01-03 02:09:03.03	267.70	17.28	-28.3	-30.8	15.4	0.00e+00	0	43	0	908066816	16	4825
2026-01-03 02:09:04.04	267.53	17.20	-28.4	-31.1	15.2	0.00e+00	0	43	0	910163968	16	4920
2026-01-03 02:09:05.05	267.36	17.12	-28.4	-31.2	15.2	3.00e-06	0	43	0	912261120	16	4952
2026-01-03 02:09:06.05	267.20	17.04	-28.5	-30.9	15.0	0.00e+00	0	43	0	913309696	17	4761
2026-01-03 02:09:07.05	267.04	16.96	-28.7	-31.5	14.6	0.00e+00	0	43	0	915406848	17	4959
2026-01-03 02:09:08.06	266.88	16.87	-28.6	-31.2	14.8	3.00e-06	0	43	0	917504000	17	4836
2026-01-03 02:09:09.07	266.72	16.79	-28.4	-30.8	15.0	0.00e+00	0	43	0	919601152	17	4737
2026-01-03 02:09:10.07	266.56	16.71	-28.4	-31.2	15.1	0.00e+00	0	43	0	921698304	16	4955
2026-01-03 02:09:11.08	266.40	16.63	-27.6	-30.3	15.1	6.10e-06	0	43	0	922746880	16	4927
2026-01-03 02:09:12.08	266.24	16.55	-27.8	-30.6	14.1	0.00e+00	0	43	0	924844032	16	4968
2026-01-03 02:09:13.08	266.09	16.46	-28.3	-31.0	14.1	0.00e+00	0	43	0	926941184	16	4894
2026-01-03 02:09:14.09	265.93	16.38	-28.4	-31.2	12.8	5.30e-06	0	43	0	929038336	16	4975
2026-01-03 02:09:15.09	265.77	16.30	-28.6	-31.1	12.9	0.00e+00	0	43	0	931135488	17	4804
2026-01-03 02:09:16.09	265.62	16.22	-28.8	-31.6	14.5	7.00e-07	0	43	0	932184064	17	4993
2026-01-03 02:09:17.10	265.47	16.14	-28.8	-31.7	14.4	2.83e-03	0	43	0	934281216	17	5033
2026-01-03 02:09:18.11	265.31	16.06	-29.0	-31.8	14.1	7.00e-07	0	43	0	936378368	18	4962
2026-01-03 02:09:19.11	265.16	15.98	-29.1	-31.9	14.0	7.00e-07	0	43	0	938475520	18	5003
2026-01-03 02:09:20.12	265.01	15.89	-29.2	-32.2	13.8	4.59e-03	0	43	0	940572672	18	5093
2026-01-03 02:09:21.12	264.86	15.81	-29.2	-32.1	13.9	4.50e-06	0	43	0	941621248	18	5077
2026-01-03 02:09:22.13	264.71	15.73	-29.2	-32.3	13.8	3.00e-06	0	43	0	943718400	18	5130
2026-01-03 02:09:23.14	264.56	15.65	-29.1	-32.1	13.9	1.06e-05	0	43	0	945815552	18	5064
2026-01-03 02:09:24.14	264.41	15.57	-29.2	-32.1	13.9	2.72e-03	0	43	0	947912704	18	5081
2026-01-03 02:09:25.15	264.27	15.49	-29.3	-32.5	13.6	3.00e-06	0	43	0	950009856	18	5197
2026-01-03 02:09:26.16	264.12	15.41	-29.1	-32.0	13.9	6.80e-06	0	43	0	951058432	18	5012
2026-01-03 02:09:27.17	263.97	15.33	-29.1	-31.9	14.0	2.36e-03	0	43	0	953155584	18	4976
2026-01-03 02:09:28.17	263.83	15.25	-29.1	-32.1	13.8	2.43e-04	0	43	0	955252736	18	5053
2026-01-03 02:09:29.18	263.69	15.16	-29.1	-32.0	13.9	8.30e-06	0	43	0	957349888	18	5034
2026-01-03 02:09:30.19	263.54	15.08	-29.1	-32.1	13.9	2.86e-03	0	43	0	959447040	18	5053
2026-01-03 02:09:31.19	263.40	15.00	-29.1	-32.0	13.9	1.98e-03	0	43	0	960495616	18	5043
2026-01-03 02:09:32.20	263.26	14.92	-29.2	-32.3	13.7	1.14e-05	0	43	0	962592768	18	5137
2026-01-03 02:09:33.21	263.12	14.84	-29.2	-32.4	13.7	2.60e-03	0	43	0	964689920	18	5162
2026-01-03 02:09:34.21	262.98	14.76	-29.3	-32.5	13.5	1.79e-03	0	43	0	966787072	18	5227
2026-01-03 02:09:35.21	262.84	14.68	-29.3	-32.6	13.5	2.44e-03	0	43	0	968884224	18	5241
2026-01-03 02:09:36.21	262.70	14.60	-29.2	-32.2	13.8	6.80e-06	0	43	0	969932800	18	5115
2026-01-03 02:09:37.21	262.56	14.52	-29.1	-32.0	13.9	1.51e-03	0	43	0	972029952	18	5046
2026-01-03 02:09:38.22	262.43	14.44	-29.1	-32.1	13.8	3.28e-03	0	43	0	974127104	18	5053
2026-01-03 02:09:39.22	262.29	14.36	-29.1	-32.0	13.9	2.34e-03	0	43	0	976224256	18	5047
2026-01-03 02:09:40.23	262.16	14.28	-29.2	-32.3	13.7	5.92e-04	0	43	0	978321408	18	5128
2026-01-03 02:09:41.24	262.02	14.20	-29.2	-32.4	13.6	3.04e-03	0	43	0	979369984	18	5185
2026-01-03 02:09:42.25	261.89	14.12	-29.2	-32.4	13.7	2.55e-03	0	43	0	981467136	18	5174
2026-01-03 02:09:43.25	261.75	14.05	-29.4	-32.8	13.4	7.29e-04	0	43	0	983564288	18	5335
2026-01-03 02:09:44.25	261.62	13.97	-29.5	-32.6	13.1	3.44e-03	0	43	0	985661440	19	5150
2026-01-03 02:09:45.26	261.49	13.89	-29.4	-33.0	13.2	2.68e-03	0	43	0	987758592	18	5405
2026-01-03 02:09:46.27	261.36	13.81	-29.4	-32.8	13.3	4.98e-04	0	43	0	988807168	18	5353
2026-01-03 02:09:47.27	261.23	13.73	-29.4	-32.9	13.2	5.08e-03	0	43	0	990904320	18	5385
2026-01-03 02:09:48.28	261.10	13.65	-29.5	-33.1	13.1	3.28e-03	0	43	0	993001472	18	5448
2026-01-03 02:09:49.28	260.97	13.57	-29.5	-32.6	13.1	3.04e-03	0	43	0	995098624	19	5159
2026-01-03 02:09:50.28	260.84	13.49	-29.4	-32.8	13.2	2.33e-03	0	43	0	997195776	18	5352
2026-01-03 02:09:51.28	260.72	13.42	-29.3	-32.6	13.4	3.37e-03	0	43	0	998244352	18	5255
2026-01-03 02:09:52.29	260.59	13.34	-29.3	-32.7	13.3	3.00e-03	0	43	0	1000341504	18	5317
2026-01-03 02:09:53.30	260.46	13.26	-29.4	-32.8	13.2	2.71e-03	0	43	0	1002438656	18	5362
2026-01-03 02:09:54.31	260.33	13.18	-29.4	-33.1	13.0	3.36e-03	0	43	0	1004535808	18	5453
2026-01-03 02:09:55.31	260.21	13.10	-29.5	-33.1	13.0	4.23e-03	0	43	0	1006632960	18	5469
2026-01-03 02:09:56.32	260.09	13.02	-29.7	-33.2	12.6	6.64e-03	0	43	0	1007681536	19	5402
2026-01-03 02:09:57.33	259.96	12.95	-29.8	-33.5	12.4	1.46e-04	0	43	0	1009778688	19	5544
2026-01-03 02:09:58.34	259.84	12.87	-29.6	-33.1	12.7	4.16e-03	0	43	0	1011875840	19	5358
2026-01-03 02:09:59.34	259.72	12.79	-29.6	-32.9	12.8	6.78e-03	0	43	0	1013972992	19	5285
2026-01-03 02:10:00.35	259.59	12.71	-29.5	-32.7	12.9	4.88e-05	0	43	0	1016070144	19	5225
2026-01-03 02:10:01.36	259.47	12.64	-29.6	-32.9	12.8	1.38e-03	0	43	0	1017118720	19	5282
2026-01-03 02:10:02.36	259.35	12.56	-29.6	-32.9	12.7	6.64e-03	0	43	0	1019215872	19	5291
2026-01-03 02:10:03.37	259.23	12.48	-29.4	-33.0	13.0	3.50e-05	0	43	0	1021313024	18	5420
2026-01-03 02:10:04.36	259.12	12.41	-29.5	-33.1	13.0	2.52e-03	0	43	0	1023410176	18	5478
2026-01-03 02:10:05.37	259.00	12.33	-29.7	-33.2	12.5	5.89e-03	0	43	0	1025507328	19	5395
2026-01-03 02:10:06.37	258.88	12.25	-29.7	-33.4	12.4	3.47e-03	0	43	0	1026555904	19	5480
2026-01-03 02:10:07.38	258.76	12.18	-29.6	-33.0	12.7	7.62e-05	0	43	0	1028653056	19	5350
2026-01-03 02:10:08.39	258.65	12.10	-29.7	-33.3	12.5	2.39e-03	0	43	0	1030750208	19	5460
2026-01-03 02:10:09.40	258.53	12.02	-29.7	-33.3	12.5	2.92e-03	0	43	0	1032847360	19	5437
2026-01-03 02:10:10.40	258.41	11.95	-29.8	-33.4	12.4	1.75e-04	0	43	0	1034944512	19	5507
2026-01-03 02:10:11.41	258.30	11.87	-29.7	-33.3	12.4	2.70e-03	0	43	0	1035993088	19	5470
2026-01-03 02:10:12.41	258.19	11.79	-29.8	-33.6	12.3	1.40e-04	0	43	0	1038090240	19	5568
2026-01-03 02:10:13.42	258.07	11.72	-29.8	-33.7	12.2	2.37e-04	0	43	0	1040187392	19	5638
2026-01-03 02:10:14.42	257.96	11.64	-29.8	-33.7	12.2	2.46e-04	0	43	0	1042284544	19	5613
2026-01-03 02:10:15.43	257.85	11.57	-29.8	-33.7	12.2	1.92e-04	0	43	0	1044381696	19	5640
2026-01-03 02:10:16.44	257.73	11.49	-29.8	-33.7	12.2	2.04e-03	0	43	0	1045430272	19	5618
2026-01-03 02:10:17.44	257.62	11.42	-29.8	-33.6	12.2	1.94e-04	0	43	0	1047527424	19	5581
2026-01-03 02:10:18.45	257.51	11.34	-29.7	-33.5	12.3	1.65e-04	0	43	0	1049624576	19	5526
2026-01-03 02:10:19.45	257.40	11.27	-29.7	-33.5	12.3	1.09e-03	0	43	0	1051721728	19	5532
2026-01-03 02:10:20.46	257.29	11.19	-29.8	-33.6	12.2	2.10e-04	0	43	0	1053818880	19	5575
2026-01-03 02:10:21.46	257.19	11.12	-29.8	-33.6	12.2	2.09e-04	0	43	0	1054867456	19	5581
2026-01-03 02:10:22.47	257.08	11.04	-29.8	-33.6	12.2	3.55e-04	0	43	0	1056964608	19	5590
2026-01-03 02:10:23.48	256.97	10.97	-29.8	-33.7	12.1	2.50e-04	0	43	0	1059061760	19	5630
2026-01-03 02:10:24.49	256.86	10.89	-29.8	-33.8	12.1	2.46e-04	0	43	0	1061158912	19	5663
2026-01-03 02:10:25.49	256.76	10.82	-29.9	-33.9	12.0	5.28e-04	0	43	0	1063256064	19	5736
2026-01-03 02:10:26.50	256.65	10.74	-29.9	-34.1	11.8	4.43e-04	0	43	0	1064304640	19	5827
2026-01-03 02:10:27.50	256.54	10.67	-30.1	-34.2	11.3	8.53e-04	0	43	0	1066401792	20	5767
2026-01-03 02:10:28.51	256.44	10.59	-29.1	-33.8	11.1	1.45e-03	0	43	0	1068498944	19	6203
2026-01-03 02:10:29.51	256.33	10.52	-30.2	-34.9	10.5	1.64e-03	0	43	0	1070596096	19	6205
2026-01-03 02:10:30.52	256.23	10.45	-30.2	-34.5	10.5	2.03e-03	0	43	0	1072693248	20	5898
2026-01-03 02:10:31.52	256.13	10.37	-30.1	-34.3	10.1	1.53e-03	0	43	0	1073741824	20	5850
2026-01-03 02:10:32.53	256.02	10.30	-30.3	-34.8	10.1	2.12e-03	0	43	0	1075838976	20	6078
2026-01-03 02:10:33.53	255.92	10.23	-30.3	-35.0	10.6	5.94e-03	0	43	0	1077936128	20	6177
2026-01-03 02:10:34.54	255.82	10.15	-30.3	-34.8	10.5	3.22e-03	0	43	0	1080033280	20	6079
2026-01-03 02:10:35.53	255.72	10.08	-30.3	-34.9	10.6	2.86e-03	0	43	0	1081081856	20	6126
2026-01-03 02:10:36.54	255.62	10.01	-30.4	-35.3	10.4	6.96e-03	0	43	0	1083179008	20	6315
2026-01-03 02:10:37.55	255.52	9.94	-30.4	-35.2	10.4	4.68e-03	0	43	0	1085276160	20	6290
2026-01-03 02:10:38.56	255.42	9.86	-30.3	-34.8	10.7	3.14e-03	0	43	0	1087373312	20	6071
2026-01-03 02:10:39.57	255.32	9.79	-30.2	-34.4	11.0	1.83e-03	0	43	0	1089470464	20	5894
2026-01-03 02:10:40.57	255.22	9.72	-30.2	-34.4	11.0	5.01e-03	0	43	0	1090519040	20	5901
2026-01-03 02:10:41.57	255.12	9.65	-30.2	-34.4	11.0	2.21e-03	0	43	0	1092616192	20	5881
2026-01-03 02:10:42.58	255.03	9.57	-30.0	-34.0	11.3	1.39e-03	0	43	0	1094713344	20	5699
2026-01-03 02:10:43.58	254.93	9.50	-30.0	-33.9	11.4	4.03e-03	0	43	0	1096810496	20	5631
2026-01-03 02:10:44.59	254.83	9.43	-29.9	-33.7	11.5	3.81e-03	0	43	0	1098907648	20	5585
2026-01-03 02:10:45.60	254.74	9.36	-30.0	-34.0	11.3	9.15e-04	0	43	0	1101004800	20	5705
2026-01-03 02:10:46.60	254.64	9.29	-30.0	-34.1	11.2	3.61e-03	0	43	0	1102053376	20	5739
2026-01-03 02:10:47.61	254.54	9.21	-30.1	-34.3	11.1	3.09e-03	0	43	0	1104150528	20	5823
2026-01-03 02:10:48.62	254.45	9.14	-30.1	-34.3	11.1	1.72e-03	0	43	0	1106247680	20	5821
2026-01-03 02:10:49.62	254.36	9.07	-30.1	-34.4	11.0	1.42e-03	0	43	0	1108344832	20	5875
2026-01-03 02:10:50.62	254.26	9.00	-30.1	-34.3	11.1	4.00e-03	0	43	0	1109393408	20	5815
2026-01-03 02:10:51.63	254.17	8.93	-30.0	-33.9	11.3	1.56e-03	0	43	0	1111490560	20	5674
2026-01-03 02:10:52.63	254.08	8.86	-30.0	-34.1	11.2	1.37e-03	0	43	0	1113587712	20	5750
2026-01-03 02:10:53.64	253.98	8.79	-30.0	-34.1	11.2	4.37e-03	0	43	0	1115684864	20	5765
2026-01-03 02:10:54.63	253.89	8.72	-30.1	-34.2	11.1	1.65e-03	0	43	0	1117782016	20	5800
2026-01-03 02:10:55.64	253.80	8.65	-30.1	-34.3	11.0	4.81e-03	0	43	0	1118830592	20	5847
2026-01-03 02:10:56.65	253.71	8.58	-30.1	-34.4	11.0	4.89e-03	0	43	0	1120927744	20	5871
2026-01-03 02:10:57.66	253.62	8.51	-30.2	-34.7	10.7	2.36e-03	0	43	0	1123024896	20	6055
2026-01-03 02:10:58.66	253.53	8.44	-30.2	-34.5	10.8	6.35e-03	0	43	0	1125122048	20	5969
2026-01-03 02:10:59.67	253.44	8.37	-30.2	-34.5	10.8	2.51e-03	0	43	0	1127219200	20	5963
2026-01-03 02:11:00.68	253.35	8.30	-30.2	-34.7	10.7	3.48e-03	0	43	0	1128267776	20	6019
2026-01-03 02:11:01.69	253.26	8.23	-30.2	-34.5	10.8	6.26e-03	0	43	0	1130364928	20	5956
2026-01-03 02:11:02.69	253.17	8.16	-30.2	-34.6	10.7	6.38e-03	0	43	0	1132462080	20	6003
2026-01-03 02:11:03.69	253.08	8.09	-30.2	-34.7	10.7	4.37e-03	0	43	0	1134559232	20	6038
2026-01-03 02:11:04.70	253.00	8.02	-30.2	-34.9	10.5	8.38e-03	0	43	0	1136656384	20	6135
2026-01-03 02:11:05.70	252.91	7.95	-30.3	-35.0	10.4	8.66e-03	0	43	0	1137704960	20	6220
2026-01-03 02:11:06.71	252.82	7.88	-30.4	-35.6	9.9	7.69e-03	0	43	0	1139802112	20	6530
2026-01-03 02:11:07.71	252.74	7.81	-30.4	-35.4	10.0	1.43e-02	0	43	0	1141899264	20	6434
2026-01-03 02:11:08.71	252.65	7.74	-30.3	-35.3	10.1	1.24e-02	0	43	0	1143996416	20	6381
2026-01-03 02:11:09.72	252.57	7.67	-30.3	-35.3	10.1	8.16e-03	0	43	0	1146093568	20	6381
2026-01-03 02:11:10.72	252.48	7.61	-30.4	-35.7	9.8	1.34e-02	0	43	0	1147142144	20	6575
2026-01-03 02:11:11.72	252.40	7.54	-30.4	-35.7	9.8	1.57e-02	0	43	0	1149239296	20	6580
2026-01-03 02:11:12.73	252.31	7.47	-30.4	-35.7	9.7	1.10e-02	0	43	0	1151336448	20	6628
2026-01-03 02:11:13.74	252.23	7.40	-30.6	-35.7	9.3	1.57e-02	0	43	0	1153433600	21	6523
2026-01-03 02:11:14.74	252.15	7.33	-30.7	-36.3	8.9	2.94e-02	0	43	0	1155530752	21	6829
2026-01-03 02:11:15.75	252.06	7.26	-30.6	-35.9	9.1	3.25e-02	0	43	0	1156579328	21	6621
2026-01-03 02:11:16.75	251.98	7.20	-30.5	-35.6	9.4	1.80e-02	0	43	0	1158676480	21	6477
2026-01-03 02:11:17.76	251.90	7.13	-30.4	-35.7	9.7	1.27e-02	0	43	0	1160773632	20	6628
2026-01-03 02:11:18.77	251.82	7.06	-32.3	-46.3	3.8	6.39e-01	0	43	104	1161822208	24	18008
2026-01-03 02:11:19.77	251.73	6.99	-32.6	-46.8	3.8	1.49e+00	0	43	104	1161822208	25	18432
2026-01-03 02:11:20.78	251.65	6.93	-32.8	-47.3	3.8	1.49e+00	0	43	104	1161822208	25	18998
2026-01-03 02:11:21.78	251.57	6.86	-33.1	-47.3	3.8	1.49e+00	0	43	104	1161822208	26	18364

#Closed at: 2026-01-03 02:11:21
#Recorded file [1161 MB]: D:/data/31010_260103_050058.dat