passes_logs/2026/01/03/R2M6_AANII_01/R2M6_AANII_01__20260103_222152_NOAA_20_JPSS-1_rec.log

#Pass ID: 20260103_222152_NOAA 20 (JPSS-1)
#Satellite: NOAA 20 (JPSS-1)
#Configuration: NOAA 20
#almurnet v.1.7.20240730
#Start time: 2026-01-03 22:21:51

#Version: 2.2.20231116
#Station: R2M6_AANII_01
#Location: 30.233357 lon 59.946436 lat
#TLE: 1 43013U 17073A   26003.41800368  .00000169  00000+0  10117-3 0  9998
#TLE: 2 43013  98.7624 304.4804 0001884  56.1176 304.0179 14.19532918421092

#Time	Az	El	Level	Level2	SNR	BER	BlckErr	Temp	State	Recorded	gain1	gain2
2026-01-03 22:21:51.53	34.49	6.96	-31.1	-35.9	5.4	1.13e+00	0	40	0	0	22	6319
2026-01-03 22:21:52.53	34.61	7.01	-31.9	-39.1	4.8	1.22e+00	0	40	104	0	23	8240
2026-01-03 22:21:53.55	34.73	7.07	-32.1	-39.6	6.3	2.06e-01	0	40	0	0	24	8534
2026-01-03 22:21:54.55	34.84	7.12	-32.0	-39.2	6.6	2.53e-01	0	40	0	1048576	24	8191
2026-01-03 22:21:55.56	34.96	7.17	-32.0	-39.1	6.7	1.69e-01	0	40	0	3145728	24	8168
2026-01-03 22:21:56.57	35.07	7.23	-32.0	-39.0	6.8	2.47e-01	0	40	0	5242880	24	8040
2026-01-03 22:21:57.57	35.19	7.28	-31.8	-38.2	7.3	1.27e-01	0	41	0	7340032	24	7488
2026-01-03 22:21:58.58	35.31	7.34	-31.7	-37.4	8.0	8.09e-02	0	40	0	9437184	24	6957
2026-01-03 22:21:59.59	35.43	7.39	-31.5	-37.1	8.6	5.81e-02	0	41	0	10485760	23	6886
2026-01-03 22:22:00.59	35.54	7.45	-31.4	-37.1	9.0	3.34e-02	0	41	0	12582912	22	6963
2026-01-03 22:22:01.60	35.66	7.50	-31.4	-37.2	9.0	2.19e-02	0	40	0	14680064	22	7002
2026-01-03 22:22:02.60	35.78	7.56	-31.3	-36.8	9.2	2.67e-02	0	41	0	16777216	22	6772
2026-01-03 22:22:03.60	35.90	7.61	-31.1	-36.0	9.9	1.48e-02	0	41	0	18874368	22	6319
2026-01-03 22:22:04.61	36.02	7.67	-31.0	-35.7	10.1	6.57e-03	0	41	0	19922944	22	6160
2026-01-03 22:22:05.61	36.14	7.72	-31.0	-35.5	10.3	5.29e-03	0	41	0	22020096	22	6077
2026-01-03 22:22:06.61	36.26	7.78	-30.9	-35.2	10.6	3.90e-03	0	41	0	24117248	22	5899
2026-01-03 22:22:07.62	36.38	7.83	-30.9	-35.4	10.4	3.97e-03	0	41	0	26214400	22	5997
2026-01-03 22:22:08.62	36.50	7.89	-30.8	-35.3	10.9	2.83e-03	0	41	0	28311552	21	6058
2026-01-03 22:22:09.63	36.62	7.94	-30.7	-35.0	11.1	1.90e-03	0	41	0	29360128	21	5900
2026-01-03 22:22:10.64	36.75	8.00	-30.5	-34.6	11.4	1.26e-03	0	41	0	31457280	21	5721
2026-01-03 22:22:11.64	36.87	8.05	-30.5	-34.3	11.6	7.00e-04	0	41	0	33554432	21	5585
2026-01-03 22:22:12.65	36.99	8.11	-30.4	-34.2	11.7	6.29e-04	0	41	0	35651584	21	5568
2026-01-03 22:22:13.66	37.12	8.16	-30.5	-34.5	11.5	6.83e-04	0	41	0	37748736	21	5675
2026-01-03 22:22:14.67	37.24	8.22	-30.5	-34.4	11.6	8.69e-04	0	41	0	38797312	21	5653
2026-01-03 22:22:15.68	37.37	8.27	-30.6	-34.6	11.4	7.35e-04	0	41	0	40894464	21	5746
2026-01-03 22:22:16.68	37.49	8.33	-30.6	-34.6	11.5	1.08e-03	0	41	0	42991616	21	5716
2026-01-03 22:22:17.69	37.62	8.38	-30.6	-34.5	11.5	7.54e-04	0	41	0	45088768	21	5679
2026-01-03 22:22:18.69	37.74	8.43	-30.5	-34.5	11.6	7.16e-04	0	41	0	47185920	21	5651
2026-01-03 22:22:19.70	37.87	8.49	-30.6	-34.5	11.5	7.77e-04	0	41	0	48234496	21	5664
2026-01-03 22:22:20.70	37.99	8.54	-30.7	-34.9	11.3	1.04e-03	0	41	0	50331648	21	5843
2026-01-03 22:22:21.71	38.12	8.60	-30.8	-35.2	11.0	1.68e-03	0	41	0	52428800	21	6013
2026-01-03 22:22:22.71	38.25	8.65	-30.7	-34.8	11.3	1.51e-03	0	41	0	54525952	21	5804
2026-01-03 22:22:23.72	38.38	8.71	-30.6	-34.7	11.4	8.32e-04	0	41	0	56623104	21	5742
2026-01-03 22:22:24.72	38.51	8.76	-30.7	-34.9	11.3	1.17e-03	0	41	0	57671680	21	5859
2026-01-03 22:22:25.73	38.64	8.82	-30.6	-34.7	11.4	1.08e-03	0	41	0	59768832	21	5773
2026-01-03 22:22:26.73	38.76	8.87	-30.6	-34.5	11.6	9.17e-04	0	41	0	61865984	21	5658
2026-01-03 22:22:27.74	38.90	8.93	-30.7	-34.8	11.4	9.38e-04	0	41	0	63963136	21	5808
2026-01-03 22:22:28.75	39.03	8.98	-30.6	-34.7	11.5	1.03e-03	0	41	0	66060288	21	5746
2026-01-03 22:22:29.75	39.16	9.04	-30.8	-35.1	11.2	1.12e-03	0	41	0	67108864	21	5948
2026-01-03 22:22:30.75	39.29	9.09	-30.8	-35.2	11.1	1.79e-03	0	42	0	69206016	21	5953
2026-01-03 22:22:31.76	39.42	9.15	-30.6	-34.6	11.5	1.03e-03	0	41	0	71303168	21	5715
2026-01-03 22:22:32.76	39.55	9.20	-30.6	-34.6	11.6	7.03e-04	0	41	0	73400320	21	5694
2026-01-03 22:22:33.77	39.69	9.26	-30.7	-34.7	11.5	7.29e-04	0	41	0	74448896	21	5744
2026-01-03 22:22:34.77	39.82	9.31	-30.6	-34.4	11.7	6.70e-04	0	42	0	76546048	21	5618
2026-01-03 22:22:35.78	39.95	9.37	-30.6	-34.4	11.8	5.05e-04	0	41	0	78643200	21	5598
2026-01-03 22:22:36.78	40.09	9.42	-30.6	-34.4	11.7	5.14e-04	0	41	0	80740352	21	5600
2026-01-03 22:22:37.79	40.22	9.48	-30.5	-34.1	12.0	4.24e-04	0	42	0	82837504	21	5456
2026-01-03 22:22:38.79	40.36	9.53	-30.5	-34.1	12.0	2.84e-04	0	41	0	84934656	21	5486
2026-01-03 22:22:39.80	40.49	9.59	-30.4	-34.0	12.0	3.62e-04	0	42	0	85983232	21	5429
2026-01-03 22:22:40.81	40.63	9.64	-30.5	-34.2	11.9	3.56e-04	0	41	0	88080384	21	5497
2026-01-03 22:22:41.82	40.77	9.70	-30.5	-34.2	11.9	3.86e-04	0	41	0	90177536	21	5523
2026-01-03 22:22:42.82	40.90	9.75	-30.6	-34.5	11.7	4.70e-04	0	41	0	92274688	21	5644
2026-01-03 22:22:43.83	41.04	9.81	-30.5	-34.3	11.8	6.27e-04	0	41	0	93323264	21	5565
2026-01-03 22:22:44.84	41.18	9.86	-30.4	-34.0	12.1	3.13e-04	0	42	0	95420416	21	5424
2026-01-03 22:22:45.84	41.32	9.92	-30.4	-33.8	12.2	2.20e-04	0	42	0	97517568	21	5339
2026-01-03 22:22:46.85	41.46	9.97	-30.4	-33.9	12.2	2.30e-04	0	41	0	99614720	21	5378
2026-01-03 22:22:47.85	41.60	10.02	-30.3	-33.7	12.3	2.25e-04	0	41	0	101711872	21	5299
2026-01-03 22:22:48.85	41.74	10.08	-30.3	-33.7	12.3	2.61e-04	0	42	0	102760448	21	5301
2026-01-03 22:22:49.86	41.88	10.13	-30.3	-33.7	12.3	2.56e-04	0	41	0	104857600	21	5310
2026-01-03 22:22:50.87	42.02	10.19	-30.5	-34.1	12.0	2.75e-04	0	42	0	106954752	21	5479
2026-01-03 22:22:51.87	42.16	10.24	-30.5	-34.1	12.0	4.84e-04	0	42	0	109051904	21	5456
2026-01-03 22:22:52.87	42.30	10.30	-30.5	-34.1	12.1	2.73e-04	0	42	0	111149056	21	5458
2026-01-03 22:22:53.88	42.45	10.35	-30.6	-34.6	11.7	4.24e-04	0	42	0	112197632	21	5663
2026-01-03 22:22:54.89	42.59	10.41	-30.5	-34.0	12.1	3.88e-04	0	42	0	114294784	21	5421
2026-01-03 22:22:55.89	42.74	10.46	-30.5	-34.0	12.1	2.39e-04	0	42	0	116391936	21	5440
2026-01-03 22:22:56.90	42.88	10.52	-30.5	-34.1	12.0	3.29e-04	0	42	0	118489088	21	5474
2026-01-03 22:22:57.90	43.02	10.57	-30.6	-34.4	11.8	3.96e-04	0	42	0	120586240	21	5572
2026-01-03 22:22:58.91	43.17	10.62	-30.5	-34.1	12.1	2.99e-04	0	42	0	121634816	21	5449
2026-01-03 22:22:59.92	43.32	10.68	-30.5	-34.0	12.2	2.75e-04	0	42	0	123731968	21	5389
2026-01-03 22:23:00.92	43.46	10.73	-30.4	-33.8	12.3	1.72e-04	0	42	0	125829120	21	5312
2026-01-03 22:23:01.94	43.61	10.79	-30.4	-33.7	12.4	1.78e-04	0	42	0	127926272	21	5290
2026-01-03 22:23:02.94	43.76	10.84	-30.3	-33.4	12.6	1.20e-04	0	42	0	130023424	21	5173
2026-01-03 22:23:03.95	43.91	10.89	-30.1	-33.0	12.8	9.68e-05	0	42	0	131072000	21	5007
2026-01-03 22:23:04.95	44.06	10.95	-30.0	-32.6	13.1	4.34e-05	0	42	0	133169152	21	4870
2026-01-03 22:23:05.96	44.21	11.00	-30.0	-32.6	13.2	1.37e-05	0	42	0	135266304	21	4855
2026-01-03 22:23:06.96	44.35	11.06	-30.0	-32.6	13.2	3.50e-05	0	42	0	137363456	21	4872
2026-01-03 22:23:07.96	44.50	11.11	-30.0	-32.6	13.1	2.13e-05	0	42	0	139460608	21	4873
2026-01-03 22:23:08.97	44.66	11.16	-30.0	-32.6	13.1	3.12e-05	0	42	0	140509184	21	4868
2026-01-03 22:23:09.98	44.81	11.22	-30.0	-33.2	13.1	7.93e-05	0	42	0	142606336	20	5205
2026-01-03 22:23:10.99	44.96	11.27	-30.1	-33.3	13.0	4.19e-05	0	42	0	144703488	20	5241
2026-01-03 22:23:12.00	45.11	11.33	-30.0	-33.3	13.1	7.24e-05	0	42	0	146800640	20	5215
2026-01-03 22:23:13.00	45.27	11.38	-30.1	-33.5	12.9	4.34e-05	0	42	0	148897792	20	5313
2026-01-03 22:23:14.01	45.42	11.43	-30.1	-33.4	13.0	5.64e-05	0	42	0	149946368	20	5255
2026-01-03 22:23:15.02	45.57	11.49	-30.2	-33.7	12.8	3.28e-05	0	42	0	152043520	20	5384
2026-01-03 22:23:16.02	45.73	11.54	-30.1	-33.4	12.9	4.88e-05	0	42	0	154140672	20	5278
2026-01-03 22:23:17.03	45.88	11.59	-30.1	-33.3	13.0	3.05e-05	0	42	0	156237824	20	5238
2026-01-03 22:23:18.04	46.04	11.65	-30.1	-33.3	13.0	3.73e-05	0	42	0	158334976	20	5227
2026-01-03 22:23:19.04	46.20	11.70	-30.2	-33.5	12.9	3.28e-05	0	42	0	159383552	20	5314
2026-01-03 22:23:20.04	46.35	11.75	-30.0	-33.2	13.1	4.95e-05	0	42	0	161480704	20	5189
2026-01-03 22:23:21.05	46.51	11.81	-30.0	-33.1	13.2	3.20e-05	0	42	0	163577856	20	5162
2026-01-03 22:23:22.06	46.67	11.86	-30.0	-33.1	13.2	2.89e-05	0	42	0	165675008	20	5153
2026-01-03 22:23:23.06	46.83	11.91	-30.2	-33.6	12.8	4.34e-05	0	42	0	167772160	20	5345
2026-01-03 22:23:24.07	46.99	11.96	-30.1	-33.3	13.1	4.42e-05	0	42	0	168820736	20	5215
2026-01-03 22:23:25.07	47.14	12.02	-30.0	-33.1	13.2	2.51e-05	0	42	0	170917888	20	5150
2026-01-03 22:23:26.08	47.31	12.07	-30.0	-33.2	13.1	2.05e-05	0	42	0	173015040	20	5183
2026-01-03 22:23:27.09	47.47	12.12	-30.1	-33.3	13.1	2.82e-05	0	42	0	175112192	20	5211
2026-01-03 22:23:28.10	47.63	12.17	-30.1	-33.5	12.9	3.50e-05	0	42	0	177209344	20	5301
2026-01-03 22:23:29.10	47.79	12.23	-30.2	-33.6	12.9	4.73e-05	0	42	0	178257920	20	5318
2026-01-03 22:23:30.10	47.95	12.28	-30.1	-33.5	13.0	3.73e-05	0	42	0	180355072	20	5283
2026-01-03 22:23:31.11	48.12	12.33	-30.2	-33.6	12.9	3.43e-05	0	42	0	182452224	20	5330
2026-01-03 22:23:32.12	48.28	12.38	-30.2	-33.7	12.8	4.57e-05	0	42	0	184549376	20	5365
2026-01-03 22:23:33.12	48.44	12.43	-30.3	-34.0	12.6	5.26e-05	0	42	0	186646528	20	5505
2026-01-03 22:23:34.13	48.61	12.49	-30.2	-33.6	12.9	6.20e-04	0	42	0	187695104	20	5338
2026-01-03 22:23:35.13	48.77	12.54	-30.3	-34.0	12.7	5.87e-05	0	42	0	189792256	20	5476
2026-01-03 22:23:36.14	48.94	12.59	-30.5	-34.1	12.2	1.58e-04	0	42	0	191889408	21	5437
2026-01-03 22:23:37.14	49.10	12.64	-30.4	-34.3	12.5	1.72e-04	0	42	0	193986560	20	5613
2026-01-03 22:23:38.15	49.27	12.69	-30.3	-34.0	12.7	1.04e-04	0	42	0	196083712	20	5486
2026-01-03 22:23:39.15	49.44	12.74	-30.5	-34.4	12.3	1.14e-04	0	42	0	197132288	20	5661
2026-01-03 22:23:40.16	49.61	12.80	-30.4	-34.2	12.5	1.16e-04	0	42	0	199229440	20	5571
2026-01-03 22:23:41.16	49.77	12.85	-30.6	-34.2	12.2	1.84e-04	0	42	0	201326592	21	5448
2026-01-03 22:23:42.17	49.94	12.90	-30.7	-34.6	11.9	3.27e-04	0	42	0	203423744	21	5627
2026-01-03 22:23:43.18	50.11	12.95	-30.5	-34.0	12.3	2.85e-04	0	42	0	205520896	21	5373
2026-01-03 22:23:44.18	50.28	13.00	-30.4	-33.6	12.6	1.02e-04	0	42	0	206569472	21	5218
2026-01-03 22:23:45.19	50.46	13.05	-30.3	-33.8	12.8	2.88e-04	0	42	0	208666624	20	5413
2026-01-03 22:23:46.19	50.63	13.10	-30.2	-33.6	12.9	4.88e-05	0	42	0	210763776	20	5347
2026-01-03 22:23:47.20	50.80	13.15	-30.3	-34.0	12.7	4.42e-05	0	42	0	212860928	20	5481
2026-01-03 22:23:48.20	50.97	13.20	-30.5	-34.4	12.3	2.43e-04	0	42	0	214958080	20	5676
2026-01-03 22:23:49.21	51.14	13.25	-30.4	-34.3	12.5	1.54e-04	0	42	0	216006656	20	5597
2026-01-03 22:23:50.21	51.32	13.30	-30.6	-34.3	12.2	1.37e-04	0	42	0	218103808	21	5495
2026-01-03 22:23:51.22	51.49	13.35	-30.7	-34.7	11.8	4.45e-04	0	42	0	220200960	21	5700
2026-01-03 22:23:52.23	51.67	13.40	-30.6	-34.3	12.1	3.58e-04	0	42	0	222298112	21	5518
2026-01-03 22:23:53.23	51.84	13.45	-30.5	-34.1	12.3	1.90e-04	0	42	0	224395264	21	5402
2026-01-03 22:23:54.24	52.02	13.50	-30.6	-34.1	12.3	2.04e-04	0	43	0	225443840	21	5430
2026-01-03 22:23:55.25	52.20	13.55	-30.6	-34.2	12.2	2.82e-04	0	42	0	227540992	21	5481
2026-01-03 22:23:56.26	52.37	13.60	-30.6	-34.3	12.2	2.05e-04	0	42	0	229638144	21	5501
2026-01-03 22:23:57.26	52.55	13.65	-30.6	-34.4	12.1	2.56e-04	0	42	0	231735296	21	5537
2026-01-03 22:23:58.26	52.73	13.70	-30.7	-34.5	12.1	5.52e-04	0	42	0	233832448	21	5583
2026-01-03 22:23:59.27	52.91	13.74	-30.7	-34.5	12.0	3.13e-04	0	42	0	234881024	21	5594
2026-01-03 22:24:00.28	53.09	13.79	-30.7	-34.6	12.0	5.04e-04	0	42	0	236978176	21	5609
2026-01-03 22:24:01.28	53.27	13.84	-30.8	-34.7	11.9	7.55e-04	0	42	0	239075328	21	5673
2026-01-03 22:24:02.29	53.45	13.89	-30.8	-34.8	11.8	4.45e-04	0	42	0	241172480	21	5726
2026-01-03 22:24:03.29	53.63	13.94	-30.9	-35.1	11.7	9.83e-04	0	42	0	243269632	21	5829
2026-01-03 22:24:04.30	53.81	13.99	-30.9	-35.0	11.7	5.58e-04	0	42	0	244318208	21	5821
2026-01-03 22:24:05.31	53.99	14.03	-31.0	-35.4	11.4	8.74e-04	0	42	0	246415360	21	5966
2026-01-03 22:24:06.31	54.18	14.08	-31.0	-34.8	11.5	1.42e-03	0	42	0	248512512	22	5592
2026-01-03 22:24:07.32	54.36	14.13	-31.0	-35.3	11.5	1.37e-03	0	42	0	250609664	21	5939
2026-01-03 22:24:08.32	54.54	14.18	-31.0	-35.0	11.4	8.13e-04	0	43	0	252706816	22	5689
2026-01-03 22:24:09.33	54.73	14.22	-31.1	-35.3	11.2	1.29e-03	0	42	0	253755392	22	5809
2026-01-03 22:24:10.33	54.91	14.27	-31.1	-35.3	11.2	1.79e-03	0	43	0	255852544	22	5839
2026-01-03 22:24:11.34	55.10	14.32	-31.0	-34.9	11.4	1.03e-03	0	43	0	257949696	22	5646
2026-01-03 22:24:12.34	55.29	14.36	-31.0	-34.9	11.5	1.38e-03	0	43	0	260046848	22	5628
2026-01-03 22:24:13.35	55.47	14.41	-31.0	-35.4	11.5	1.28e-03	0	42	0	262144000	21	5973
2026-01-03 22:24:14.36	55.66	14.45	-31.1	-35.3	11.2	1.11e-03	0	42	0	263192576	22	5802
2026-01-03 22:24:15.36	55.85	14.50	-31.2	-35.4	11.1	1.68e-03	0	42	0	265289728	22	5877
2026-01-03 22:24:16.37	56.04	14.55	-31.2	-35.5	11.1	1.77e-03	0	42	0	267386880	22	5917
2026-01-03 22:24:17.38	56.23	14.59	-31.2	-35.5	11.0	1.93e-03	0	43	0	269484032	22	5921
2026-01-03 22:24:18.38	56.42	14.64	-31.2	-35.6	11.0	1.90e-03	0	43	0	271581184	22	5983
2026-01-03 22:24:19.38	56.61	14.68	-31.2	-35.6	11.1	2.08e-03	0	42	0	272629760	22	5947
2026-01-03 22:24:20.39	56.80	14.73	-31.2	-35.6	11.0	1.69e-03	0	42	0	274726912	22	5971
2026-01-03 22:24:21.40	56.99	14.77	-31.3	-35.7	10.9	2.34e-03	0	42	0	276824064	22	6027
2026-01-03 22:24:22.40	57.18	14.82	-31.2	-35.7	11.0	2.10e-03	0	42	0	278921216	22	6005
2026-01-03 22:24:23.40	57.37	14.86	-31.3	-35.8	10.9	2.12e-03	0	43	0	281018368	22	6055
2026-01-03 22:24:24.41	57.57	14.90	-31.3	-36.0	10.7	3.19e-03	0	42	0	282066944	22	6151
2026-01-03 22:24:25.42	57.76	14.95	-31.3	-35.7	10.9	2.20e-03	0	42	0	284164096	22	6030
2026-01-03 22:24:26.43	57.96	14.99	-31.3	-35.8	10.9	2.07e-03	0	42	0	286261248	22	6060
2026-01-03 22:24:27.44	58.15	15.04	-31.3	-35.9	10.8	2.69e-03	0	43	0	288358400	22	6118
2026-01-03 22:24:28.44	58.34	15.08	-31.4	-36.0	10.7	2.57e-03	0	42	0	290455552	22	6152
2026-01-03 22:24:29.43	58.54	15.12	-31.4	-36.1	10.7	3.42e-03	0	43	0	291504128	22	6193
2026-01-03 22:24:30.44	58.74	15.16	-31.3	-35.8	10.9	3.76e-03	0	43	0	293601280	22	6064
2026-01-03 22:24:31.44	58.93	15.20	-31.3	-35.8	10.9	2.03e-03	0	43	0	295698432	22	6024
2026-01-03 22:24:32.44	59.13	15.25	-31.2	-35.6	11.1	2.13e-03	0	43	0	297795584	22	5960
2026-01-03 22:24:33.45	59.33	15.29	-31.2	-35.4	11.2	1.49e-03	0	43	0	299892736	22	5844
2026-01-03 22:24:34.45	59.52	15.33	-31.1	-35.1	11.4	1.06e-03	0	42	0	300941312	22	5733
2026-01-03 22:24:35.46	59.72	15.37	-31.1	-35.2	11.3	1.03e-03	0	42	0	303038464	22	5775
2026-01-03 22:24:36.46	59.92	15.41	-31.2	-35.5	11.2	1.53e-03	0	42	0	305135616	22	5872
2026-01-03 22:24:37.46	60.12	15.45	-31.2	-35.5	11.2	1.53e-03	0	43	0	307232768	22	5876
2026-01-03 22:24:38.47	60.32	15.49	-31.2	-35.4	11.2	1.62e-03	0	43	0	308281344	22	5856
2026-01-03 22:24:39.48	60.53	15.53	-31.0	-34.9	11.6	9.62e-04	0	43	0	310378496	22	5616
2026-01-03 22:24:40.48	60.73	15.57	-30.9	-34.6	11.8	6.03e-04	0	43	0	312475648	22	5491
2026-01-03 22:24:41.48	60.93	15.61	-31.0	-34.7	11.7	5.45e-04	0	43	0	314572800	22	5520
2026-01-03 22:24:42.48	61.13	15.65	-31.0	-34.7	11.7	5.52e-04	0	43	0	316669952	22	5549
2026-01-03 22:24:43.49	61.33	15.69	-31.0	-34.8	11.6	5.08e-04	0	43	0	317718528	22	5585
2026-01-03 22:24:44.49	61.54	15.73	-31.0	-34.8	11.7	7.06e-04	0	42	0	319815680	22	5556
2026-01-03 22:24:45.50	61.74	15.77	-30.9	-34.9	11.9	3.43e-04	0	43	0	321912832	21	5743
2026-01-03 22:24:46.51	61.95	15.81	-30.8	-34.7	12.0	4.58e-04	0	43	0	324009984	21	5663
2026-01-03 22:24:47.51	62.15	15.85	-30.6	-34.0	12.3	6.32e-04	0	43	0	326107136	21	5337
2026-01-03 22:24:48.51	62.36	15.89	-30.4	-34.0	12.6	4.80e-05	0	42	0	327155712	20	5452
2026-01-03 22:24:49.52	62.56	15.92	-30.3	-33.9	13.0	3.43e-05	0	43	0	329252864	20	5401
2026-01-03 22:24:50.53	62.77	15.96	-30.3	-33.7	13.0	3.89e-05	0	43	0	331350016	20	5342
2026-01-03 22:24:51.53	62.98	16.00	-30.3	-33.6	13.1	2.59e-05	0	43	0	333447168	20	5302
2026-01-03 22:24:52.54	63.19	16.03	-30.3	-33.8	13.1	2.74e-05	0	43	0	335544320	20	5362
2026-01-03 22:24:53.54	63.39	16.07	-30.3	-33.6	13.1	4.04e-05	0	43	0	336592896	20	5304
2026-01-03 22:24:54.55	63.60	16.11	-30.2	-33.3	13.4	3.05e-04	0	43	0	338690048	20	5183
2026-01-03 22:24:55.56	63.81	16.14	-30.1	-33.1	13.5	1.60e-05	0	43	0	340787200	20	5116
2026-01-03 22:24:56.57	64.03	16.18	-30.1	-33.1	13.5	4.50e-06	0	43	0	342884352	20	5089
2026-01-03 22:24:57.57	64.23	16.21	-30.1	-33.2	13.5	2.99e-04	0	42	0	344981504	20	5147
2026-01-03 22:24:58.58	64.45	16.25	-30.2	-33.5	13.3	2.36e-05	0	42	0	346030080	20	5266
2026-01-03 22:24:59.59	64.66	16.28	-30.2	-33.6	13.2	2.59e-05	0	43	0	348127232	20	5276
2026-01-03 22:25:00.59	64.87	16.32	-30.2	-33.3	13.4	1.98e-05	0	43	0	350224384	20	5181
2026-01-03 22:25:01.60	65.08	16.35	-30.1	-33.3	13.4	9.10e-06	0	43	0	352321536	20	5159
2026-01-03 22:25:02.61	65.30	16.38	-30.2	-33.3	13.4	9.10e-06	0	43	0	354418688	20	5190
2026-01-03 22:25:03.62	65.51	16.42	-30.2	-33.4	13.3	1.83e-05	0	43	0	355467264	20	5200
2026-01-03 22:25:04.63	65.73	16.45	-30.2	-33.6	13.3	1.90e-05	0	43	0	357564416	20	5273
2026-01-03 22:25:05.63	65.94	16.48	-30.4	-33.8	13.1	4.16e-04	0	43	0	359661568	20	5383
2026-01-03 22:25:06.64	66.15	16.52	-30.4	-33.9	13.0	3.73e-05	0	43	0	361758720	20	5422
2026-01-03 22:25:07.64	66.37	16.55	-30.4	-33.9	13.0	4.27e-05	0	43	0	363855872	20	5420
2026-01-03 22:25:08.65	66.58	16.58	-30.4	-34.0	12.9	3.75e-04	0	43	0	364904448	20	5438
2026-01-03 22:25:09.65	66.80	16.61	-30.4	-34.1	12.9	3.55e-04	0	42	0	367001600	20	5495
2026-01-03 22:25:10.66	67.02	16.64	-30.5	-34.3	12.8	4.88e-05	0	43	0	369098752	20	5556
2026-01-03 22:25:11.67	67.23	16.67	-30.6	-34.0	12.7	4.15e-04	0	43	0	371195904	21	5332
2026-01-03 22:25:12.67	67.45	16.70	-30.5	-33.8	12.7	4.75e-04	0	43	0	373293056	21	5274
2026-01-03 22:25:13.68	67.67	16.73	-30.5	-33.8	12.8	7.24e-05	0	43	0	374341632	21	5246
2026-01-03 22:25:14.69	67.89	16.76	-30.5	-33.9	12.7	5.98e-04	0	43	0	376438784	21	5282
2026-01-03 22:25:15.69	68.11	16.79	-30.6	-34.2	12.5	5.13e-04	0	43	0	378535936	21	5407
2026-01-03 22:25:16.70	68.33	16.82	-30.6	-34.1	12.6	1.07e-04	0	43	0	380633088	21	5377
2026-01-03 22:25:17.71	68.55	16.85	-30.7	-34.4	12.4	4.33e-04	0	43	0	382730240	21	5492
2026-01-03 22:25:18.71	68.77	16.88	-30.7	-34.4	12.3	4.96e-04	0	42	0	383778816	21	5511
2026-01-03 22:25:19.71	68.98	16.90	-30.7	-34.4	12.3	1.27e-04	0	43	0	385875968	21	5517
2026-01-03 22:25:20.72	69.21	16.93	-30.9	-35.0	12.0	4.58e-04	0	43	0	387973120	21	5763
2026-01-03 22:25:21.72	69.43	16.96	-30.9	-34.8	12.1	5.31e-04	0	43	0	390070272	21	5692
2026-01-03 22:25:22.73	69.65	16.98	-30.7	-34.4	12.4	1.94e-04	0	43	0	392167424	21	5511
2026-01-03 22:25:23.73	69.87	17.01	-30.6	-34.1	12.5	2.39e-04	0	43	0	393216000	21	5395
2026-01-03 22:25:24.74	70.09	17.04	-30.6	-34.1	12.6	1.29e-04	0	42	0	395313152	21	5368
2026-01-03 22:25:25.75	70.32	17.06	-30.6	-34.2	12.5	9.84e-05	0	43	0	397410304	21	5400
2026-01-03 22:25:26.76	70.54	17.09	-30.6	-34.1	12.6	1.59e-04	0	43	0	399507456	21	5363
2026-01-03 22:25:27.76	70.76	17.11	-30.7	-34.2	12.5	1.08e-04	0	43	0	401604608	21	5422
2026-01-03 22:25:28.77	70.99	17.14	-30.5	-33.9	12.7	9.00e-05	0	43	0	402653184	21	5301
2026-01-03 22:25:29.78	71.21	17.16	-30.5	-33.8	12.8	2.58e-04	0	43	0	404750336	21	5271
2026-01-03 22:25:30.78	71.43	17.18	-30.5	-33.8	12.8	6.48e-05	0	43	0	406847488	21	5263
2026-01-03 22:25:31.79	71.66	17.21	-30.6	-33.9	12.7	6.17e-05	0	43	0	408944640	21	5311
2026-01-03 22:25:32.80	71.89	17.23	-30.5	-33.8	12.8	7.62e-05	0	43	0	411041792	21	5249
2026-01-03 22:25:33.81	72.11	17.25	-30.5	-33.9	12.7	6.33e-05	0	43	0	412090368	21	5296
2026-01-03 22:25:34.81	72.34	17.27	-30.5	-33.8	12.8	6.33e-05	0	43	0	414187520	21	5261
2026-01-03 22:25:35.82	72.56	17.29	-30.5	-33.7	12.9	5.95e-05	0	43	0	416284672	21	5199
2026-01-03 22:25:36.82	72.79	17.31	-30.5	-33.9	12.7	5.26e-05	0	43	0	418381824	21	5279
2026-01-03 22:25:37.83	73.02	17.34	-30.6	-33.9	12.7	1.17e-04	0	43	0	420478976	21	5307
2026-01-03 22:25:38.83	73.24	17.36	-30.5	-33.8	12.8	7.55e-05	0	43	0	421527552	21	5241
2026-01-03 22:25:39.84	73.47	17.38	-30.5	-33.8	12.8	9.76e-05	0	43	0	423624704	21	5253
2026-01-03 22:25:40.85	73.70	17.39	-30.6	-34.1	12.6	1.04e-04	0	43	0	425721856	21	5384
2026-01-03 22:25:41.85	73.93	17.41	-30.6	-34.1	12.6	1.07e-04	0	43	0	427819008	21	5370
2026-01-03 22:25:42.86	74.15	17.43	-30.8	-34.6	12.3	1.14e-04	0	43	0	429916160	21	5576
2026-01-03 22:25:43.86	74.38	17.45	-30.6	-34.2	12.6	1.72e-04	0	43	0	430964736	21	5398
2026-01-03 22:25:44.87	74.61	17.47	-30.5	-33.8	12.8	6.25e-05	0	43	0	433061888	21	5259
2026-01-03 22:25:45.88	74.84	17.49	-30.5	-33.8	12.8	1.13e-04	0	43	0	435159040	21	5256
2026-01-03 22:25:46.88	75.07	17.50	-30.5	-33.9	12.8	5.95e-05	0	43	0	437256192	21	5287
2026-01-03 22:25:47.89	75.30	17.52	-30.5	-33.8	12.8	7.17e-05	0	43	0	439353344	21	5237
2026-01-03 22:25:48.88	75.53	17.53	-30.5	-33.7	12.9	6.40e-05	0	43	0	440401920	21	5203
2026-01-03 22:25:49.89	75.76	17.55	-30.6	-34.2	12.6	5.64e-05	0	43	0	442499072	21	5414
2026-01-03 22:25:50.90	75.99	17.56	-30.7	-34.2	12.5	9.61e-05	0	43	0	444596224	21	5428
2026-01-03 22:25:51.90	76.22	17.58	-30.8	-34.6	12.3	1.39e-04	0	43	0	446693376	21	5578
2026-01-03 22:25:52.90	76.45	17.59	-30.8	-34.5	12.3	2.07e-04	0	43	0	448790528	21	5563
2026-01-03 22:25:53.91	76.68	17.61	-30.9	-34.9	12.1	1.87e-04	0	43	0	449839104	21	5706
2026-01-03 22:25:54.92	76.91	17.62	-30.8	-34.7	12.2	2.72e-04	0	43	0	451936256	21	5615
2026-01-03 22:25:55.92	77.14	17.63	-30.7	-34.4	12.4	1.74e-04	0	43	0	454033408	21	5484
2026-01-03 22:25:56.93	77.37	17.65	-30.7	-34.3	12.5	1.17e-04	0	43	0	456130560	21	5468
2026-01-03 22:25:57.93	77.60	17.66	-30.7	-34.2	12.6	8.92e-05	0	43	0	458227712	21	5397
2026-01-03 22:25:58.94	77.84	17.67	-30.5	-33.8	12.8	6.63e-05	0	43	0	459276288	21	5240
2026-01-03 22:25:59.95	78.07	17.68	-30.4	-33.6	13.0	5.18e-05	0	43	0	461373440	21	5156
2026-01-03 22:26:00.95	78.30	17.69	-30.4	-33.5	13.0	2.59e-05	0	43	0	463470592	21	5123
2026-01-03 22:26:01.96	78.53	17.70	-30.4	-33.4	13.1	4.95e-05	0	43	0	465567744	21	5106
2026-01-03 22:26:02.96	78.76	17.71	-30.5	-33.7	12.9	2.82e-05	0	43	0	467664896	21	5210
2026-01-03 22:26:03.97	79.00	17.72	-30.5	-33.8	12.9	6.86e-05	0	43	0	468713472	21	5240
2026-01-03 22:26:04.98	79.23	17.73	-30.6	-34.1	12.7	7.17e-05	0	43	0	470810624	21	5351
2026-01-03 22:26:05.98	79.46	17.74	-30.6	-34.0	12.7	6.48e-05	0	43	0	472907776	21	5314
2026-01-03 22:26:06.99	79.70	17.75	-30.6	-34.1	12.6	7.55e-05	0	43	0	475004928	21	5362
2026-01-03 22:26:07.99	79.93	17.75	-30.7	-34.3	12.5	1.17e-04	0	43	0	477102080	21	5448
2026-01-03 22:26:09.00	80.16	17.76	-30.6	-34.1	12.6	9.84e-05	0	43	0	478150656	21	5376
2026-01-03 22:26:10.01	80.40	17.77	-30.6	-34.1	12.6	9.38e-05	0	43	0	480247808	21	5385
2026-01-03 22:26:11.01	80.63	17.77	-30.7	-34.3	12.5	1.71e-04	0	43	0	482344960	21	5472
2026-01-03 22:26:12.02	80.86	17.78	-30.8	-34.7	12.2	1.65e-04	0	43	0	484442112	21	5643
2026-01-03 22:26:13.02	81.10	17.78	-30.8	-34.8	12.2	2.06e-04	0	43	0	486539264	21	5647
2026-01-03 22:26:14.03	81.33	17.79	-30.9	-34.9	12.1	2.96e-04	0	43	0	487587840	21	5713
2026-01-03 22:26:15.04	81.57	17.79	-31.0	-35.2	11.9	4.12e-04	0	43	0	489684992	21	5840
2026-01-03 22:26:16.05	81.80	17.80	-30.9	-34.9	12.1	3.70e-04	0	43	0	491782144	21	5722
2026-01-03 22:26:17.05	82.03	17.80	-31.0	-34.8	11.8	3.46e-04	0	43	0	493879296	22	5563
2026-01-03 22:26:18.06	82.27	17.80	-30.9	-34.4	12.1	3.24e-04	0	43	0	495976448	22	5392
2026-01-03 22:26:19.07	82.50	17.81	-31.1	-35.2	11.5	4.73e-04	0	43	0	497025024	22	5719
2026-01-03 22:26:20.08	82.74	17.81	-30.9	-34.5	12.0	5.58e-04	0	43	0	499122176	22	5428
2026-01-03 22:26:21.09	82.97	17.81	-30.8	-34.2	12.3	2.04e-04	0	43	0	501219328	22	5292
2026-01-03 22:26:22.09	83.21	17.81	-30.7	-34.0	12.4	1.75e-04	0	43	0	503316480	22	5214
2026-01-03 22:26:23.10	83.44	17.81	-30.7	-33.8	12.5	1.08e-04	0	43	0	505413632	22	5153
2026-01-03 22:26:24.11	83.68	17.81	-30.7	-33.8	12.6	9.91e-05	0	43	0	506462208	22	5137
2026-01-03 22:26:25.11	83.91	17.81	-30.6	-33.5	12.7	8.31e-05	0	43	0	508559360	22	5028
2026-01-03 22:26:26.12	84.14	17.81	-30.5	-33.2	12.9	4.57e-05	0	43	0	510656512	22	4910
2026-01-03 22:26:27.12	84.38	17.81	-30.5	-33.1	13.0	4.04e-05	0	43	0	512753664	22	4880
2026-01-03 22:26:28.13	84.61	17.81	-30.5	-33.2	12.9	5.18e-05	0	43	0	514850816	22	4929
2026-01-03 22:26:29.13	84.84	17.81	-30.5	-33.2	12.9	4.65e-05	0	43	0	515899392	22	4913
2026-01-03 22:26:30.14	85.08	17.80	-30.6	-33.4	12.8	5.56e-05	0	43	0	517996544	22	5011
2026-01-03 22:26:31.15	85.32	17.80	-30.5	-33.3	12.9	4.50e-05	0	43	0	520093696	22	4941
2026-01-03 22:26:32.16	85.55	17.80	-30.6	-33.4	12.7	5.03e-05	0	43	0	522190848	22	4991
2026-01-03 22:26:33.16	85.78	17.79	-30.5	-33.3	12.8	5.56e-05	0	43	0	524288000	22	4962
2026-01-03 22:26:34.17	86.02	17.79	-30.5	-33.3	12.8	7.40e-05	0	43	0	525336576	22	4962
2026-01-03 22:26:35.17	86.25	17.78	-30.5	-33.1	13.0	4.57e-05	0	43	0	527433728	22	4880
2026-01-03 22:26:36.18	86.48	17.78	-30.5	-33.2	12.9	5.18e-05	0	43	0	529530880	22	4928
2026-01-03 22:26:37.18	86.72	17.77	-30.6	-33.4	12.8	6.02e-05	0	43	0	531628032	22	4992
2026-01-03 22:26:38.19	86.95	17.77	-30.7	-33.8	12.6	9.76e-05	0	43	0	533725184	22	5133
2026-01-03 22:26:39.18	87.18	17.76	-30.8	-34.0	12.4	1.46e-04	0	43	0	534773760	22	5217
2026-01-03 22:26:40.19	87.42	17.75	-30.8	-34.0	12.3	1.32e-04	0	43	0	536870912	22	5225
2026-01-03 22:26:41.20	87.65	17.75	-30.7	-33.9	12.4	1.43e-04	0	43	0	538968064	22	5186
2026-01-03 22:26:42.20	87.88	17.74	-30.6	-33.6	12.6	1.50e-04	0	43	0	541065216	22	5069
2026-01-03 22:26:43.21	88.12	17.73	-30.6	-33.5	12.7	7.09e-05	0	43	0	543162368	22	5044
2026-01-03 22:26:44.22	88.35	17.72	-30.6	-33.5	12.7	7.62e-05	0	43	0	544210944	22	5016
2026-01-03 22:26:45.23	88.58	17.71	-30.6	-33.6	12.6	7.85e-05	0	43	0	546308096	22	5065
2026-01-03 22:26:46.23	88.82	17.70	-30.6	-33.6	12.6	9.00e-05	0	43	0	548405248	22	5081
2026-01-03 22:26:47.23	89.05	17.69	-30.7	-33.8	12.5	1.12e-04	0	43	0	550502400	22	5132
2026-01-03 22:26:48.24	89.28	17.68	-30.6	-33.6	12.6	9.00e-05	0	43	0	552599552	22	5056
2026-01-03 22:26:49.25	89.51	17.67	-30.7	-33.8	12.6	7.55e-05	0	43	0	553648128	22	5131
2026-01-03 22:26:50.24	89.74	17.66	-30.7	-33.9	12.4	1.01e-04	0	43	0	555745280	22	5170
2026-01-03 22:26:51.25	89.97	17.64	-30.7	-33.8	12.5	1.31e-04	0	43	0	557842432	22	5135
2026-01-03 22:26:52.25	90.20	17.63	-30.6	-33.4	12.8	6.40e-05	0	43	0	559939584	22	5003
2026-01-03 22:26:53.25	90.43	17.62	-30.4	-33.0	13.0	5.64e-05	0	43	0	562036736	22	4840
2026-01-03 22:26:54.25	90.66	17.61	-30.4	-32.9	13.1	3.73e-05	0	43	0	563085312	22	4824
2026-01-03 22:26:55.25	90.89	17.59	-30.3	-32.8	13.2	2.44e-05	0	43	0	565182464	22	4775
2026-01-03 22:26:56.26	91.13	17.58	-30.3	-32.7	13.2	3.35e-05	0	43	0	567279616	22	4751
2026-01-03 22:26:57.27	91.36	17.56	-30.3	-33.1	13.3	3.50e-05	0	43	0	569376768	21	4976
2026-01-03 22:26:58.27	91.59	17.55	-30.3	-33.1	13.2	1.98e-05	0	43	0	570425344	21	5002
2026-01-03 22:26:59.27	91.82	17.53	-30.3	-33.2	13.2	1.98e-05	0	43	0	572522496	21	5041
2026-01-03 22:27:00.29	92.05	17.52	-30.3	-33.3	13.1	3.73e-05	0	43	0	574619648	21	5061
2026-01-03 22:27:01.29	92.28	17.50	-30.2	-32.9	13.4	1.90e-05	0	43	0	576716800	21	4925
2026-01-03 22:27:02.30	92.51	17.48	-30.1	-32.7	13.5	1.83e-05	0	43	0	578813952	21	4837
2026-01-03 22:27:03.31	92.74	17.46	-30.1	-32.6	13.6	8.30e-06	0	43	0	579862528	21	4813
2026-01-03 22:27:04.32	92.97	17.45	-30.1	-32.7	13.5	8.30e-06	0	43	0	581959680	21	4845
2026-01-03 22:27:05.32	93.20	17.43	-30.1	-32.5	13.6	1.14e-05	0	43	0	584056832	21	4780
2026-01-03 22:27:06.33	93.43	17.41	-30.1	-32.7	13.5	1.37e-05	0	43	0	586153984	21	4835
2026-01-03 22:27:07.33	93.65	17.39	-30.0	-32.4	13.7	6.10e-06	0	43	0	588251136	21	4729
2026-01-03 22:27:08.33	93.88	17.37	-30.0	-32.3	13.8	7.60e-06	0	43	0	590348288	21	4704
2026-01-03 22:27:09.33	94.11	17.35	-30.0	-32.3	13.8	6.10e-06	0	43	0	591396864	21	4710
2026-01-03 22:27:10.33	94.33	17.33	-30.0	-32.5	13.6	1.06e-05	0	43	0	593494016	21	4778
2026-01-03 22:27:11.35	94.56	17.31	-30.0	-32.3	13.8	5.30e-06	0	43	0	595591168	21	4707
2026-01-03 22:27:12.35	94.79	17.29	-30.0	-32.4	13.7	6.10e-06	0	43	0	597688320	21	4758
2026-01-03 22:27:13.36	95.01	17.27	-30.0	-32.5	13.6	8.30e-06	0	43	0	598736896	21	4777
2026-01-03 22:27:14.36	95.24	17.25	-30.1	-32.6	13.6	6.80e-06	0	42	0	600834048	21	4819
2026-01-03 22:27:15.37	95.47	17.22	-30.2	-32.9	13.4	8.30e-06	0	43	0	602931200	21	4908
2026-01-03 22:27:16.38	95.69	17.20	-30.1	-32.7	13.5	1.44e-05	0	43	0	605028352	21	4853
2026-01-03 22:27:17.38	95.92	17.18	-30.2	-32.9	13.3	7.60e-06	0	43	0	607125504	21	4911
2026-01-03 22:27:18.38	96.14	17.15	-30.2	-32.9	13.3	1.22e-05	0	43	0	608174080	21	4920
2026-01-03 22:27:19.39	96.37	17.13	-30.1	-32.8	13.4	1.52e-05	0	43	0	610271232	21	4888
2026-01-03 22:27:20.39	96.59	17.11	-29.9	-32.2	13.8	8.30e-06	0	43	0	612368384	21	4690
2026-01-03 22:27:21.40	96.81	17.08	-29.8	-31.9	13.9	4.50e-06	0	43	0	614465536	21	4594
2026-01-03 22:27:22.41	97.04	17.06	-29.8	-32.5	13.9	2.20e-06	0	43	0	616562688	20	4869
2026-01-03 22:27:23.41	97.26	17.03	-29.8	-32.4	14.0	2.20e-06	0	43	0	617611264	20	4833
2026-01-03 22:27:24.41	97.48	17.00	-29.8	-32.3	14.0	1.50e-06	0	43	0	619708416	20	4809
2026-01-03 22:27:25.42	97.70	16.98	-29.9	-32.5	13.8	7.00e-07	0	43	0	621805568	20	4903
2026-01-03 22:27:26.43	97.93	16.95	-29.8	-32.4	13.9	4.50e-06	0	43	0	623902720	20	4858
2026-01-03 22:27:27.43	98.15	16.92	-29.6	-31.8	14.3	0.00e+00	0	43	0	625999872	20	4632
2026-01-03 22:27:28.44	98.37	16.90	-29.4	-31.4	14.6	7.00e-07	0	43	0	627048448	20	4508
2026-01-03 22:27:29.45	98.59	16.87	-29.3	-31.1	14.8	0.00e+00	0	43	0	629145600	20	4411
2026-01-03 22:27:30.45	98.81	16.84	-29.4	-31.8	14.7	0.00e+00	0	43	0	631242752	19	4759
2026-01-03 22:27:31.46	99.03	16.81	-29.5	-32.0	14.6	7.00e-07	0	43	0	633339904	19	4808
2026-01-03 22:27:32.46	99.25	16.78	-29.5	-32.1	14.5	0.00e+00	0	43	0	635437056	19	4856
2026-01-03 22:27:33.47	99.47	16.75	-29.7	-32.5	14.3	0.00e+00	0	43	0	636485632	19	4974
2026-01-03 22:27:34.48	99.69	16.72	-29.6	-32.4	14.3	2.51e-05	0	43	0	638582784	19	4942
2026-01-03 22:27:35.48	99.91	16.69	-29.6	-32.4	14.4	7.00e-07	0	43	0	640679936	19	4951
2026-01-03 22:27:36.49	100.13	16.66	-29.6	-32.4	14.3	2.20e-06	0	43	0	642777088	19	4945
2026-01-03 22:27:37.49	100.34	16.63	-29.6	-32.4	14.4	1.36e-04	0	43	0	644874240	19	4949
2026-01-03 22:27:38.50	100.56	16.60	-29.7	-32.5	14.2	2.36e-05	0	43	0	645922816	19	4982
2026-01-03 22:27:39.50	100.78	16.57	-29.6	-32.3	14.4	2.20e-06	0	43	0	648019968	19	4915
2026-01-03 22:27:40.50	100.99	16.54	-29.4	-31.9	14.7	7.00e-07	0	43	0	650117120	19	4768
2026-01-03 22:27:41.50	101.20	16.51	-29.3	-31.5	14.9	2.17e-04	0	43	0	652214272	19	4641
2026-01-03 22:27:42.51	101.42	16.47	-29.4	-31.7	14.8	0.00e+00	0	43	0	654311424	19	4719
2026-01-03 22:27:43.51	101.63	16.44	-29.3	-32.1	14.8	7.00e-07	0	43	0	655360000	18	4968
2026-01-03 22:27:44.52	101.85	16.41	-29.2	-31.9	15.0	4.07e-04	0	43	0	657457152	18	4893
2026-01-03 22:27:45.53	102.07	16.38	-29.3	-32.1	14.8	0.00e+00	0	43	0	659554304	18	4957
2026-01-03 22:27:46.53	102.28	16.34	-29.4	-32.3	14.7	0.00e+00	0	43	0	661651456	18	5046
2026-01-03 22:27:47.54	102.49	16.31	-29.6	-32.2	14.4	7.78e-05	0	43	0	663748608	19	4902
2026-01-03 22:27:48.54	102.70	16.27	-29.7	-32.7	14.2	2.20e-06	0	43	0	664797184	19	5066
2026-01-03 22:27:49.55	102.92	16.24	-29.8	-32.8	14.0	1.98e-05	0	43	0	666894336	19	5114
2026-01-03 22:27:50.55	103.13	16.20	-29.8	-32.8	14.0	3.00e-06	0	43	0	668991488	19	5115
2026-01-03 22:27:51.55	103.34	16.17	-29.8	-32.9	14.0	3.00e-06	0	43	0	671088640	19	5139
2026-01-03 22:27:52.55	103.55	16.13	-29.8	-32.9	14.0	4.19e-05	0	43	0	673185792	19	5133
2026-01-03 22:27:53.56	103.76	16.10	-29.9	-33.1	13.9	1.15e-04	0	43	0	674234368	19	5200
2026-01-03 22:27:54.56	103.96	16.06	-29.9	-33.0	13.9	2.20e-06	0	43	0	676331520	19	5180
2026-01-03 22:27:55.56	104.17	16.02	-29.8	-32.7	14.1	1.36e-04	0	43	0	678428672	19	5081
2026-01-03 22:27:56.57	104.38	15.99	-29.8	-32.8	14.1	1.07e-04	0	43	0	680525824	19	5088
2026-01-03 22:27:57.57	104.59	15.95	-29.8	-32.8	14.0	4.50e-06	0	43	0	682622976	19	5096
2026-01-03 22:27:58.58	104.80	15.91	-29.8	-32.8	14.0	5.11e-05	0	43	0	683671552	19	5102
2026-01-03 22:27:59.59	105.01	15.87	-29.7	-32.7	14.1	4.11e-05	0	43	0	685768704	19	5067
2026-01-03 22:28:00.60	105.21	15.84	-29.5	-32.2	14.4	0.00e+00	0	43	0	687865856	19	4873
2026-01-03 22:28:01.61	105.42	15.80	-29.5	-32.0	14.5	1.81e-04	0	43	0	689963008	19	4815
2026-01-03 22:28:02.61	105.62	15.76	-29.6	-32.2	14.4	2.94e-04	0	43	0	692060160	19	4898
2026-01-03 22:28:03.62	105.83	15.72	-29.6	-32.5	14.2	7.00e-07	0	43	0	693108736	19	4989
2026-01-03 22:28:04.61	106.03	15.68	-29.9	-33.1	13.9	4.50e-06	0	43	0	695205888	19	5194
2026-01-03 22:28:05.62	106.24	15.64	-30.0	-33.0	13.5	2.39e-04	0	43	0	697303040	20	5070
2026-01-03 22:28:06.63	106.44	15.60	-30.2	-33.7	13.0	2.05e-05	0	43	0	699400192	20	5333
2026-01-03 22:28:07.64	106.65	15.56	-30.4	-34.0	12.8	3.89e-05	0	43	0	701497344	20	5483
2026-01-03 22:28:08.65	106.85	15.52	-30.5	-34.3	12.7	2.17e-04	0	43	0	702545920	20	5587
2026-01-03 22:28:09.65	107.05	15.48	-30.6	-34.3	12.3	1.34e-04	0	43	0	704643072	21	5468
2026-01-03 22:28:10.66	107.25	15.44	-30.7	-34.4	12.2	2.97e-04	0	43	0	706740224	21	5513
2026-01-03 22:28:11.66	107.45	15.40	-30.7	-34.5	12.1	2.72e-04	0	43	0	708837376	21	5581
2026-01-03 22:28:12.67	107.65	15.36	-30.7	-34.5	12.1	3.35e-04	0	43	0	709885952	21	5595
2026-01-03 22:28:13.68	107.85	15.31	-30.8	-34.7	12.0	2.98e-04	0	43	0	711983104	21	5659
2026-01-03 22:28:14.68	108.05	15.27	-30.7	-34.6	12.0	3.38e-04	0	43	0	714080256	21	5623
2026-01-03 22:28:15.68	108.25	15.23	-30.7	-34.5	12.1	2.85e-04	0	43	0	716177408	21	5572
2026-01-03 22:28:16.69	108.45	15.19	-30.7	-34.4	12.1	2.43e-04	0	43	0	718274560	21	5534
2026-01-03 22:28:17.69	108.64	15.14	-30.8	-34.7	12.0	3.31e-04	0	43	0	720371712	21	5637
2026-01-03 22:28:18.69	108.84	15.10	-30.6	-34.2	12.3	2.97e-04	0	43	0	721420288	21	5452
2026-01-03 22:28:19.70	109.04	15.06	-30.4	-33.6	12.7	1.44e-04	0	43	0	723517440	21	5203
2026-01-03 22:28:20.71	109.23	15.02	-30.3	-33.2	13.0	9.46e-05	0	43	0	725614592	21	5057
2026-01-03 22:28:21.71	109.43	14.97	-30.3	-33.2	13.0	4.11e-05	0	43	0	727711744	21	5037
2026-01-03 22:28:22.72	109.62	14.93	-30.3	-33.3	12.9	4.57e-05	0	43	0	728760320	21	5094
2026-01-03 22:28:23.72	109.82	14.88	-30.5	-33.8	12.6	9.53e-05	0	43	0	730857472	21	5274
2026-01-03 22:28:24.72	110.01	14.84	-30.5	-33.9	12.5	1.11e-04	0	43	0	732954624	21	5309
2026-01-03 22:28:25.73	110.20	14.80	-30.7	-34.4	12.2	1.50e-04	0	43	0	735051776	21	5522
2026-01-03 22:28:26.74	110.40	14.75	-30.7	-34.4	12.1	2.49e-04	0	43	0	737148928	21	5553
2026-01-03 22:28:27.75	110.59	14.70	-30.7	-34.5	12.1	2.75e-04	0	43	0	738197504	21	5579
2026-01-03 22:28:28.75	110.78	14.66	-30.7	-34.6	12.0	3.48e-04	0	43	0	740294656	21	5612
2026-01-03 22:28:29.75	110.97	14.61	-30.8	-34.7	12.0	3.11e-04	0	43	0	742391808	21	5640
2026-01-03 22:28:30.76	111.16	14.57	-30.8	-34.7	11.9	4.09e-04	0	43	0	744488960	21	5680
2026-01-03 22:28:31.77	111.35	14.52	-30.8	-34.8	11.8	3.91e-04	0	43	0	746586112	21	5731
2026-01-03 22:28:32.77	111.54	14.48	-30.8	-34.8	11.9	4.57e-04	0	43	0	747634688	21	5713
2026-01-03 22:28:33.78	111.73	14.43	-30.8	-34.9	11.8	4.35e-04	0	43	0	749731840	21	5768
2026-01-03 22:28:34.79	111.92	14.38	-30.8	-34.9	11.8	4.46e-04	0	43	0	751828992	21	5740
2026-01-03 22:28:35.80	112.11	14.34	-30.8	-34.9	11.8	4.77e-04	0	43	0	753926144	21	5742
2026-01-03 22:28:36.80	112.29	14.29	-30.9	-35.0	11.7	6.23e-04	0	43	0	756023296	21	5812
2026-01-03 22:28:37.81	112.48	14.24	-31.0	-35.4	11.4	8.04e-04	0	43	0	757071872	21	5999
2026-01-03 22:28:38.81	112.67	14.20	-30.9	-34.6	11.6	8.82e-04	0	43	0	759169024	22	5520
2026-01-03 22:28:39.81	112.85	14.15	-30.7	-34.1	12.0	4.60e-04	0	43	0	761266176	22	5309
2026-01-03 22:28:40.82	113.04	14.10	-30.7	-34.0	12.1	3.04e-04	0	43	0	763363328	22	5286
2026-01-03 22:28:41.82	113.22	14.05	-30.7	-34.5	12.0	3.49e-04	0	43	0	765460480	21	5595
2026-01-03 22:28:42.83	113.40	14.01	-30.7	-34.5	12.0	3.25e-04	0	43	0	766509056	21	5571
2026-01-03 22:28:43.84	113.59	13.96	-30.7	-34.5	12.0	3.49e-04	0	43	0	768606208	21	5575
2026-01-03 22:28:44.84	113.77	13.91	-30.6	-34.4	12.1	2.64e-04	0	43	0	770703360	21	5530
2026-01-03 22:28:45.85	113.95	13.86	-30.7	-34.5	12.0	2.77e-04	0	43	0	772800512	21	5589
2026-01-03 22:28:46.85	114.13	13.81	-30.8	-34.8	11.8	4.03e-04	0	43	0	774897664	21	5727
2026-01-03 22:28:47.86	114.31	13.76	-30.5	-34.0	12.3	2.82e-04	0	43	0	775946240	21	5393
2026-01-03 22:28:48.86	114.49	13.72	-30.5	-34.0	12.3	1.47e-04	0	43	0	778043392	21	5397
2026-01-03 22:28:49.87	114.67	13.67	-30.7	-34.6	11.9	2.50e-04	0	43	0	780140544	21	5639
2026-01-03 22:28:50.88	114.85	13.62	-30.7	-34.5	11.9	3.75e-04	0	43	0	782237696	21	5599
2026-01-03 22:28:51.88	115.03	13.57	-30.7	-34.5	11.9	3.09e-04	0	43	0	784334848	21	5612
2026-01-03 22:28:52.88	115.21	13.52	-31.0	-35.5	11.2	6.32e-04	0	43	0	785383424	21	6050
2026-01-03 22:28:53.88	115.38	13.47	-30.9	-34.8	11.4	1.36e-03	0	43	0	787480576	22	5617
2026-01-03 22:28:54.89	115.56	13.42	-30.8	-34.5	11.6	6.56e-04	0	43	0	789577728	22	5485
2026-01-03 22:28:55.89	115.73	13.37	-30.9	-34.6	11.6	6.19e-04	0	43	0	791674880	22	5535
2026-01-03 22:28:56.89	115.91	13.32	-31.0	-34.9	11.3	8.19e-04	0	43	0	793772032	22	5670
2026-01-03 22:28:57.89	116.08	13.27	-31.0	-35.0	11.2	1.47e-03	0	43	0	794820608	22	5700
2026-01-03 22:28:58.90	116.26	13.22	-31.1	-35.5	10.9	1.98e-03	0	43	0	796917760	22	5934
2026-01-03 22:28:59.91	116.43	13.17	-31.1	-35.6	10.8	2.45e-03	0	43	0	799014912	22	5994
2026-01-03 22:29:00.91	116.60	13.12	-31.4	-36.3	10.3	3.27e-03	0	43	0	801112064	22	6385
2026-01-03 22:29:01.92	116.78	13.07	-31.2	-35.9	10.5	4.76e-03	0	43	0	803209216	22	6150
2026-01-03 22:29:02.92	116.95	13.02	-31.0	-35.2	11.0	2.68e-03	0	43	0	804257792	22	5831
2026-01-03 22:29:03.93	117.12	12.96	-30.9	-34.6	11.5	1.39e-03	0	43	0	806354944	22	5533
2026-01-03 22:29:04.94	117.29	12.91	-30.6	-33.9	12.0	4.45e-04	0	43	0	808452096	22	5238
2026-01-03 22:29:05.94	117.46	12.86	-30.4	-33.3	12.4	2.07e-04	0	43	0	810549248	22	5009
2026-01-03 22:29:06.95	117.63	12.81	-30.3	-32.9	12.7	1.18e-04	0	43	0	812646400	22	4860
2026-01-03 22:29:07.95	117.80	12.76	-30.2	-33.3	12.7	5.64e-05	0	43	0	813694976	21	5103
2026-01-03 22:29:08.96	117.97	12.71	-30.1	-32.9	12.9	6.63e-05	0	43	0	815792128	21	4980
2026-01-03 22:29:09.97	118.14	12.65	-30.1	-32.8	13.0	3.89e-05	0	43	0	817889280	21	4931
2026-01-03 22:29:10.97	118.31	12.60	-30.2	-33.1	12.9	3.73e-05	0	43	0	819986432	21	5022
2026-01-03 22:29:11.98	118.47	12.55	-30.2	-33.1	12.8	8.46e-05	0	43	0	822083584	21	5042
2026-01-03 22:29:12.99	118.64	12.50	-30.3	-33.3	12.7	1.02e-04	0	43	0	823132160	21	5134
2026-01-03 22:29:13.99	118.80	12.45	-30.2	-33.2	12.7	8.01e-05	0	43	0	825229312	21	5094
2026-01-03 22:29:15.00	118.97	12.39	-30.2	-33.2	12.7	7.24e-05	0	43	0	827326464	21	5096
2026-01-03 22:29:16.01	119.14	12.34	-30.2	-33.2	12.7	1.03e-04	0	43	0	829423616	21	5092
2026-01-03 22:29:17.01	119.30	12.29	-30.2	-33.1	12.8	1.09e-04	0	43	0	831520768	21	5058
2026-01-03 22:29:18.02	119.46	12.24	-30.2	-33.2	12.7	5.95e-05	0	43	0	832569344	21	5103
2026-01-03 22:29:19.02	119.63	12.18	-30.3	-33.6	12.5	1.87e-04	0	43	0	834666496	21	5238
2026-01-03 22:29:20.03	119.79	12.13	-30.2	-33.2	12.7	2.23e-04	0	43	0	836763648	21	5094
2026-01-03 22:29:21.03	119.95	12.08	-30.3	-33.4	12.6	8.77e-05	0	43	0	838860800	21	5161
2026-01-03 22:29:22.04	120.11	12.02	-30.3	-33.6	12.4	2.14e-04	0	43	0	840957952	21	5261
2026-01-03 22:29:23.05	120.27	11.97	-30.4	-33.7	12.4	2.16e-04	0	43	0	842006528	21	5286
2026-01-03 22:29:24.05	120.43	11.92	-30.4	-33.9	12.2	1.54e-04	0	43	0	844103680	21	5347
2026-01-03 22:29:25.06	120.59	11.86	-30.4	-33.7	12.5	3.03e-04	0	43	0	846200832	21	5260
2026-01-03 22:29:26.06	120.75	11.81	-30.3	-33.5	12.5	2.97e-04	0	43	0	848297984	21	5196
2026-01-03 22:29:27.07	120.91	11.76	-30.3	-33.5	12.5	1.36e-04	0	43	0	850395136	21	5219
2026-01-03 22:29:28.07	121.07	11.70	-30.4	-34.2	12.4	1.62e-04	0	43	0	851443712	20	5584
2026-01-03 22:29:29.08	121.22	11.65	-30.3	-33.9	12.5	4.36e-04	0	43	0	853540864	20	5482
2026-01-03 22:29:30.09	121.38	11.60	-30.3	-33.9	12.5	9.23e-05	0	43	0	855638016	20	5486
2026-01-03 22:29:31.10	121.54	11.54	-30.3	-34.0	12.5	1.35e-04	0	43	0	857735168	20	5509
2026-01-03 22:29:32.10	121.69	11.49	-30.3	-33.9	12.5	1.27e-04	0	43	0	859832320	20	5492
2026-01-03 22:29:33.10	121.85	11.44	-30.4	-34.2	12.3	1.36e-04	0	43	0	860880896	20	5585
2026-01-03 22:29:34.11	122.00	11.38	-30.4	-34.3	12.3	3.13e-04	0	43	0	862978048	20	5633
2026-01-03 22:29:35.11	122.16	11.33	-30.5	-34.1	12.1	2.91e-04	0	43	0	865075200	21	5440
2026-01-03 22:29:36.12	122.31	11.27	-30.4	-33.8	12.3	2.66e-04	0	43	0	867172352	21	5311
2026-01-03 22:29:37.12	122.46	11.22	-30.2	-33.3	12.6	3.62e-04	0	43	0	869269504	21	5132
2026-01-03 22:29:38.13	122.61	11.17	-30.2	-33.1	12.7	7.32e-05	0	43	0	870318080	21	5066
2026-01-03 22:29:39.13	122.77	11.11	-30.1	-33.0	12.8	6.17e-05	0	43	0	872415232	21	5009
2026-01-03 22:29:40.13	122.92	11.06	-30.1	-32.8	12.9	6.02e-05	0	43	0	874512384	21	4950
2026-01-03 22:29:41.14	123.07	11.00	-30.1	-32.8	12.9	4.95e-05	0	43	0	876609536	21	4960
2026-01-03 22:29:42.14	123.22	10.95	-30.1	-33.0	12.8	6.02e-05	0	43	0	878706688	21	5008
2026-01-03 22:29:43.14	123.37	10.90	-30.1	-32.9	12.8	5.11e-05	0	43	0	879755264	21	4974
2026-01-03 22:29:44.14	123.51	10.84	-30.3	-33.4	12.5	7.62e-05	0	43	0	881852416	21	5168
2026-01-03 22:29:45.15	123.66	10.79	-30.2	-33.4	12.5	1.17e-04	0	43	0	883949568	21	5181
2026-01-03 22:29:46.15	123.81	10.73	-30.4	-34.0	12.1	1.89e-04	0	43	0	886046720	21	5396
2026-01-03 22:29:47.16	123.96	10.68	-30.5	-34.1	12.0	3.09e-04	0	43	0	887095296	21	5475
2026-01-03 22:29:48.16	124.10	10.62	-30.4	-34.0	12.0	3.48e-04	0	43	0	889192448	21	5418
2026-01-03 22:29:49.17	124.25	10.57	-30.5	-34.3	11.8	3.99e-04	0	43	0	891289600	21	5541
2026-01-03 22:29:50.18	124.40	10.51	-30.5	-34.0	12.0	3.91e-04	0	43	0	893386752	21	5431
2026-01-03 22:29:51.19	124.54	10.46	-30.4	-33.8	12.1	2.95e-04	0	43	0	895483904	21	5356
2026-01-03 22:29:52.19	124.69	10.40	-30.4	-33.9	12.1	2.46e-04	0	43	0	896532480	21	5389
2026-01-03 22:29:53.19	124.83	10.35	-30.4	-33.9	12.1	2.42e-04	0	43	0	898629632	21	5373
2026-01-03 22:29:54.20	124.98	10.29	-30.4	-34.0	12.0	2.27e-04	0	43	0	900726784	21	5439
2026-01-03 22:29:55.20	125.12	10.24	-30.4	-34.0	11.9	3.46e-04	0	43	0	902823936	21	5446
2026-01-03 22:29:56.21	125.26	10.18	-30.4	-33.9	12.0	3.56e-04	0	43	0	904921088	21	5406
2026-01-03 22:29:57.21	125.40	10.13	-30.5	-34.3	11.8	4.35e-04	0	43	0	905969664	21	5543
2026-01-03 22:29:58.22	125.55	10.07	-30.5	-34.3	11.8	4.41e-04	0	43	0	908066816	21	5558
2026-01-03 22:29:59.23	125.69	10.02	-30.6	-34.6	11.5	7.12e-04	0	43	0	910163968	21	5716
2026-01-03 22:30:00.23	125.83	9.96	-30.7	-34.9	11.3	8.42e-04	0	43	0	912261120	21	5856
2026-01-03 22:30:01.24	125.97	9.91	-30.7	-35.0	11.3	1.24e-03	0	43	0	914358272	21	5881
2026-01-03 22:30:02.24	126.11	9.85	-30.6	-34.7	11.4	9.64e-04	0	43	0	915406848	21	5754
2026-01-03 22:30:03.25	126.25	9.80	-30.5	-34.4	11.6	6.51e-04	0	43	0	917504000	21	5596
2026-01-03 22:30:04.25	126.38	9.74	-30.6	-34.5	11.4	6.56e-04	0	43	0	919601152	21	5638
2026-01-03 22:30:05.26	126.52	9.69	-30.5	-34.3	11.7	4.99e-04	0	43	0	921698304	21	5579
2026-01-03 22:30:06.27	126.66	9.63	-30.5	-34.3	11.7	4.95e-04	0	43	0	923795456	21	5582
2026-01-03 22:30:07.27	126.80	9.58	-30.6	-34.7	11.4	7.86e-04	0	43	0	924844032	21	5748
2026-01-03 22:30:08.27	126.93	9.52	-30.7	-34.8	11.3	1.04e-03	0	43	0	926941184	21	5799
2026-01-03 22:30:09.28	127.07	9.47	-30.8	-35.1	11.1	1.25e-03	0	43	0	929038336	21	5935
2026-01-03 22:30:10.28	127.21	9.41	-30.8	-35.2	11.1	1.60e-03	0	43	0	931135488	21	5997
2026-01-03 22:30:11.28	127.34	9.36	-30.8	-35.2	11.0	2.16e-03	0	43	0	933232640	21	6002
2026-01-03 22:30:12.29	127.48	9.30	-30.9	-35.5	10.8	2.53e-03	0	43	0	934281216	21	6146
2026-01-03 22:30:13.30	127.61	9.24	-30.9	-35.7	10.6	3.71e-03	0	43	0	936378368	21	6250
2026-01-03 22:30:14.31	127.74	9.19	-30.9	-35.5	10.8	2.92e-03	0	43	0	938475520	21	6130
2026-01-03 22:30:15.32	127.88	9.13	-30.9	-35.6	10.7	3.39e-03	0	43	0	940572672	21	6180
2026-01-03 22:30:16.32	128.01	9.08	-30.9	-35.5	10.8	2.78e-03	0	43	0	942669824	21	6123
2026-01-03 22:30:17.33	128.14	9.02	-31.0	-35.9	10.5	2.62e-03	0	43	0	943718400	21	6325
2026-01-03 22:30:18.34	128.28	8.97	-31.1	-35.8	10.1	6.42e-03	0	43	0	945815552	22	6206
2026-01-03 22:30:19.35	128.41	8.91	-31.2	-36.3	9.7	9.56e-03	0	43	0	947912704	22	6467
2026-01-03 22:30:20.35	128.54	8.86	-31.2	-36.3	9.8	1.02e-02	0	43	0	950009856	22	6452
2026-01-03 22:30:21.35	128.67	8.80	-31.2	-36.4	9.7	1.18e-02	0	43	0	952107008	22	6501
2026-01-03 22:30:22.36	128.80	8.74	-31.3	-36.5	9.6	1.37e-02	0	43	0	953155584	22	6544
2026-01-03 22:30:23.36	128.93	8.69	-31.3	-36.6	9.5	1.38e-02	0	43	0	955252736	22	6628
2026-01-03 22:30:24.36	129.05	8.63	-31.3	-36.8	9.4	1.58e-02	0	43	0	957349888	22	6729
2026-01-03 22:30:25.37	129.18	8.58	-31.3	-36.8	9.3	1.76e-02	0	43	0	959447040	22	6764
2026-01-03 22:30:26.37	129.31	8.52	-31.3	-36.7	9.4	1.99e-02	0	43	0	961544192	22	6696
2026-01-03 22:30:27.38	129.44	8.47	-31.1	-36.1	9.8	1.33e-02	0	43	0	962592768	22	6378
2026-01-03 22:30:28.38	129.56	8.41	-31.0	-35.7	10.2	7.18e-03	0	43	0	964689920	22	6147
2026-01-03 22:30:29.38	129.69	8.36	-30.9	-35.3	10.4	5.18e-03	0	43	0	966787072	22	5965
2026-01-03 22:30:30.38	129.82	8.30	-30.9	-35.2	10.6	3.85e-03	0	43	0	968884224	22	5896
2026-01-03 22:30:31.39	129.94	8.25	-30.8	-35.0	10.7	3.53e-03	0	43	0	970981376	22	5815
2026-01-03 22:30:32.39	130.07	8.19	-30.8	-35.1	10.6	3.11e-03	0	43	0	972029952	22	5870
2026-01-03 22:30:33.40	130.19	8.14	-30.9	-35.2	10.5	4.47e-03	0	43	0	974127104	22	5904
2026-01-03 22:30:34.40	130.32	8.08	-30.8	-34.9	10.7	3.54e-03	0	43	0	976224256	22	5783
2026-01-03 22:30:35.41	130.44	8.02	-30.7	-34.7	10.8	2.30e-03	0	43	0	978321408	22	5673
2026-01-03 22:30:36.42	130.56	7.97	-30.7	-34.8	10.7	2.78e-03	0	43	0	980418560	22	5757
2026-01-03 22:30:37.42	130.69	7.91	-30.8	-34.9	10.6	3.25e-03	0	43	0	981467136	22	5804
2026-01-03 22:30:38.42	130.81	7.86	-30.9	-35.3	10.3	4.51e-03	0	43	0	983564288	22	5996
2026-01-03 22:30:39.43	130.93	7.80	-30.9	-35.4	10.3	5.21e-03	0	43	0	985661440	22	6044
2026-01-03 22:30:40.44	131.05	7.75	-31.0	-35.5	10.2	5.74e-03	0	43	0	987758592	22	6101
2026-01-03 22:30:41.44	131.17	7.69	-31.1	-36.1	9.7	1.04e-02	0	43	0	989855744	22	6404
2026-01-03 22:30:42.44	131.29	7.64	-31.0	-35.8	9.9	9.77e-03	0	43	0	990904320	22	6270
2026-01-03 22:30:43.45	131.41	7.58	-31.1	-36.0	9.7	1.04e-02	0	43	0	993001472	22	6381
2026-01-03 22:30:44.46	131.53	7.53	-31.0	-36.0	9.7	1.12e-02	0	43	0	995098624	22	6376
2026-01-03 22:30:45.46	131.65	7.47	-31.0	-35.8	9.8	9.22e-03	0	43	0	997195776	22	6273
2026-01-03 22:30:46.47	131.77	7.42	-31.0	-35.7	9.9	9.13e-03	0	43	0	998244352	22	6221
2026-01-03 22:30:47.48	131.89	7.36	-30.9	-35.5	10.1	9.02e-03	0	43	0	1000341504	22	6112
2026-01-03 22:30:48.48	132.01	7.31	-30.9	-35.5	10.1	6.63e-03	0	43	0	1002438656	22	6110
2026-01-03 22:30:49.49	132.13	7.25	-30.9	-35.6	10.0	7.88e-03	0	43	0	1004535808	22	6173
2026-01-03 22:30:50.49	132.24	7.20	-30.9	-35.3	10.2	6.72e-03	0	43	0	1006632960	22	6025
2026-01-03 22:30:51.50	132.36	7.14	-30.8	-35.3	10.2	6.13e-03	0	43	0	1008730112	22	6017
2026-01-03 22:30:52.51	132.48	7.08	-31.0	-35.7	10.0	6.26e-03	0	43	0	1009778688	22	6190
2026-01-03 22:30:53.51	132.59	7.03	-32.8	-46.7	3.8	1.60e-02	0	43	104	1011875840	25	17851
2026-01-03 22:30:54.51	132.71	6.97	-33.3	-47.6	3.8	1.49e+00	0	43	104	1011875840	26	18795
2026-01-03 22:30:55.52	132.82	6.92	-33.6	-47.8	3.8	1.49e+00	0	43	104	1011875840	27	18404

#Closed at: 2026-01-03 22:30:55
#Recorded file [1011 MB]: D:/data/31010_260104_012153.dat