passes_logs/2026/01/03/R2M6_AANII_01/R2M6_AANII_01__20260103_160215_FENGYUN_3E_rec.log

#Pass ID: 20260103_160215_FENGYUN 3E
#Satellite: FENGYUN 3E
#Configuration: FENGYUN 3E
#almurnet v.1.7.20240730
#Start time: 2026-01-03 16:02:16

#Version: 2.2.20231116
#Station: R2M6_AANII_01
#Location: 30.233357 lon 59.946436 lat
#TLE: 1 49008U 21062A   26002.95568549 -.00000227  00000+0 -86494-4 0  9990
#TLE: 2 49008  98.7475   8.2258 0001442 163.3458 196.7766 14.19882681233131

#Time	Az	El	Level	Level2	SNR	BER	BlckErr	Temp	State	Recorded	gain1	gain2
2026-01-03 16:02:16.58	206.99	7.10	-27.8	-29.4	5.6	7.50e-01	0	41	0	0	15	4348
2026-01-03 16:02:17.58	207.07	7.17	-29.2	-31.4	5.3	7.72e-01	0	41	104	0	18	4652
2026-01-03 16:02:18.59	207.16	7.24	-29.2	-31.5	9.6	1.24e-02	0	41	0	0	18	4654
2026-01-03 16:02:19.59	207.25	7.30	-29.3	-31.6	9.5	1.97e-02	0	41	0	7340032	18	4711
2026-01-03 16:02:20.60	207.34	7.37	-28.8	-30.3	10.4	7.48e-03	0	41	0	14680064	18	4274
2026-01-03 16:02:21.60	207.42	7.44	-28.4	-29.3	11.1	2.14e-03	0	41	0	22020096	18	3999
2026-01-03 16:02:22.60	207.51	7.50	-27.8	-29.0	11.8	6.44e-04	0	41	0	28311552	16	4100
2026-01-03 16:02:23.60	207.60	7.57	-27.4	-28.0	12.4	1.88e-04	0	41	0	35651584	16	3856
2026-01-03 16:02:24.61	207.69	7.64	-27.0	-27.6	12.8	8.01e-05	0	41	0	42991616	15	3853
2026-01-03 16:02:25.62	207.78	7.71	-26.7	-27.4	13.2	3.54e-05	0	41	0	50331648	14	3887
2026-01-03 16:02:26.63	207.87	7.77	-26.8	-27.6	13.1	1.48e-05	0	41	0	57671680	14	3934
2026-01-03 16:02:27.64	207.96	7.84	-26.9	-27.7	13.0	4.46e-05	0	41	0	65011712	14	3974
2026-01-03 16:02:28.63	208.05	7.91	-26.9	-27.7	13.0	3.77e-05	0	41	0	72351744	14	3975
2026-01-03 16:02:29.64	208.14	7.98	-26.7	-27.3	13.4	2.17e-05	0	41	0	79691776	14	3857
2026-01-03 16:02:30.65	208.23	8.05	-26.6	-27.1	13.4	1.94e-05	0	41	0	87031808	14	3817
2026-01-03 16:02:31.65	208.32	8.11	-26.8	-27.6	13.2	1.37e-05	0	42	0	94371840	14	3939
2026-01-03 16:02:32.66	208.42	8.18	-26.7	-27.4	13.3	2.05e-05	0	41	0	101711872	14	3881
2026-01-03 16:02:33.67	208.51	8.25	-26.6	-27.1	13.5	1.25e-05	0	41	0	108003328	14	3808
2026-01-03 16:02:34.68	208.60	8.32	-26.7	-27.3	13.3	2.05e-05	0	41	0	116391936	14	3875
2026-01-03 16:02:35.69	208.70	8.39	-26.7	-27.2	13.4	1.25e-05	0	42	0	123731968	14	3842
2026-01-03 16:02:36.69	208.79	8.46	-26.6	-27.0	13.6	1.25e-05	0	42	0	130023424	14	3796
2026-01-03 16:02:37.70	208.89	8.53	-26.5	-26.9	13.6	8.00e-06	0	42	0	137363456	14	3758
2026-01-03 16:02:38.71	208.98	8.60	-26.6	-27.2	13.5	1.14e-05	0	42	0	144703488	14	3826
2026-01-03 16:02:39.71	209.07	8.67	-26.6	-27.2	13.4	1.83e-05	0	42	0	152043520	14	3843
2026-01-03 16:02:40.72	209.17	8.74	-26.6	-27.1	13.5	6.80e-06	0	42	0	159383552	14	3814
2026-01-03 16:02:41.73	209.27	8.81	-26.7	-27.3	13.4	1.94e-05	0	42	0	166723584	14	3854
2026-01-03 16:02:42.74	209.36	8.88	-26.7	-27.2	13.4	1.94e-05	0	42	0	174063616	14	3843
2026-01-03 16:02:43.74	209.46	8.95	-26.5	-26.9	13.7	8.00e-06	0	42	0	181403648	14	3764
2026-01-03 16:02:44.74	209.56	9.02	-26.5	-27.0	13.6	9.10e-06	0	42	0	188743680	14	3777
2026-01-03 16:02:45.75	209.66	9.09	-26.5	-27.0	13.6	3.40e-06	0	42	0	196083712	14	3779
2026-01-03 16:02:46.76	209.76	9.16	-26.4	-26.6	13.8	8.00e-06	0	42	0	203423744	14	3683
2026-01-03 16:02:47.76	209.85	9.23	-26.6	-27.2	13.5	1.02e-05	0	42	0	210763776	14	3839
2026-01-03 16:02:48.77	209.95	9.30	-26.5	-27.0	13.6	1.02e-05	0	42	0	217055232	14	3781
2026-01-03 16:02:49.78	210.05	9.37	-26.6	-27.0	13.6	5.70e-06	0	42	0	224395264	14	3791
2026-01-03 16:02:50.77	210.15	9.44	-26.3	-27.0	13.9	3.40e-06	0	42	0	231735296	13	3873
2026-01-03 16:02:51.78	210.25	9.51	-26.5	-27.3	13.7	2.20e-06	0	42	0	239075328	13	3957
2026-01-03 16:02:52.79	210.35	9.58	-26.4	-27.1	13.8	9.10e-06	0	42	0	246415360	13	3906
2026-01-03 16:02:53.80	210.46	9.65	-26.2	-26.8	14.0	3.40e-06	0	42	0	253755392	13	3826
2026-01-03 16:02:54.80	210.56	9.72	-26.3	-27.0	14.0	2.20e-06	0	42	0	261095424	13	3875
2026-01-03 16:02:55.80	210.66	9.80	-26.3	-26.9	14.0	6.80e-06	0	42	0	268435456	13	3856
2026-01-03 16:02:56.81	210.76	9.87	-26.5	-27.2	13.8	8.00e-06	0	42	0	275775488	13	3946
2026-01-03 16:02:57.82	210.87	9.94	-26.3	-27.0	13.9	4.50e-06	0	42	0	283115520	13	3886
2026-01-03 16:02:58.83	210.97	10.01	-26.2	-26.6	14.2	2.20e-06	0	42	0	290455552	13	3791
2026-01-03 16:02:59.84	211.08	10.08	-26.1	-26.5	14.3	0.00e+00	0	42	0	297795584	13	3753
2026-01-03 16:03:00.84	211.18	10.16	-26.2	-26.6	14.2	2.20e-06	0	42	0	305135616	13	3792
2026-01-03 16:03:01.85	211.29	10.23	-26.2	-26.6	14.2	0.00e+00	0	42	0	312475648	13	3778
2026-01-03 16:03:02.85	211.39	10.30	-26.2	-26.7	14.2	3.40e-06	0	42	0	318767104	13	3809
2026-01-03 16:03:03.86	211.50	10.37	-26.2	-26.7	14.2	1.10e-06	0	42	0	326107136	13	3810
2026-01-03 16:03:04.87	211.61	10.45	-26.2	-26.6	14.2	1.10e-06	0	42	0	333447168	13	3778
2026-01-03 16:03:05.87	211.71	10.52	-26.1	-26.3	14.4	0.00e+00	0	42	0	340787200	13	3722
2026-01-03 16:03:06.88	211.82	10.59	-26.1	-26.4	14.3	2.20e-06	0	42	0	348127232	13	3735
2026-01-03 16:03:07.89	211.93	10.66	-26.0	-26.1	14.5	0.00e+00	0	42	0	355467264	13	3671
2026-01-03 16:03:08.89	212.04	10.74	-26.0	-26.2	14.5	0.00e+00	0	42	0	362807296	13	3687
2026-01-03 16:03:09.90	212.15	10.81	-26.0	-26.1	14.5	0.00e+00	0	42	0	370147328	13	3661
2026-01-03 16:03:10.90	212.26	10.88	-26.1	-26.4	14.4	0.00e+00	0	42	0	377487360	13	3727
2026-01-03 16:03:11.91	212.37	10.96	-25.9	-26.6	14.5	1.10e-06	0	42	0	384827392	12	3881
2026-01-03 16:03:12.91	212.48	11.03	-26.1	-26.9	14.3	1.10e-06	0	42	0	392167424	12	3957
2026-01-03 16:03:13.93	212.60	11.10	-26.0	-26.7	14.5	0.00e+00	0	42	0	399507456	12	3900
2026-01-03 16:03:14.93	212.71	11.18	-26.0	-26.7	14.4	0.00e+00	0	42	0	406847488	12	3923
2026-01-03 16:03:15.94	212.82	11.25	-26.0	-26.8	14.4	0.00e+00	0	42	0	414187520	12	3944
2026-01-03 16:03:16.95	212.94	11.33	-26.0	-26.8	14.4	0.00e+00	0	43	0	421527552	12	3938
2026-01-03 16:03:17.95	213.05	11.40	-26.2	-27.2	14.1	2.20e-06	0	43	0	427819008	12	4045
2026-01-03 16:03:18.96	213.16	11.48	-26.2	-27.3	14.2	1.10e-06	0	43	0	435159040	12	4057
2026-01-03 16:03:19.96	213.28	11.55	-26.1	-26.9	14.4	2.20e-06	0	42	0	442499072	12	3944
2026-01-03 16:03:20.97	213.39	11.62	-26.0	-26.8	14.4	0.00e+00	0	42	0	449839104	12	3933
2026-01-03 16:03:21.98	213.51	11.70	-26.3	-27.3	14.2	0.00e+00	0	43	0	457179136	12	4059
2026-01-03 16:03:22.98	213.63	11.77	-26.1	-27.0	14.3	1.10e-06	0	42	0	464519168	12	3988
2026-01-03 16:03:23.99	213.75	11.85	-26.1	-27.0	14.3	0.00e+00	0	43	0	471859200	12	3983
2026-01-03 16:03:25.00	213.86	11.92	-26.0	-26.6	14.5	0.00e+00	0	43	0	479199232	12	3886
2026-01-03 16:03:26.00	213.98	12.00	-25.9	-26.5	14.6	0.00e+00	0	43	0	486539264	12	3850
2026-01-03 16:03:27.01	214.10	12.08	-25.9	-26.5	14.6	1.10e-06	0	43	0	493879296	12	3858
2026-01-03 16:03:28.02	214.22	12.15	-25.8	-26.4	14.7	0.00e+00	0	43	0	501219328	12	3815
2026-01-03 16:03:29.02	214.34	12.23	-25.9	-26.4	14.7	0.00e+00	0	43	0	508559360	12	3837
2026-01-03 16:03:30.03	214.46	12.30	-25.9	-26.6	14.6	0.00e+00	0	43	0	515899392	12	3865
2026-01-03 16:03:31.03	214.58	12.38	-26.1	-26.9	14.4	0.00e+00	0	43	0	523239424	12	3942
2026-01-03 16:03:32.03	214.70	12.45	-25.9	-26.5	14.6	1.10e-06	0	43	0	530579456	12	3865
2026-01-03 16:03:33.04	214.83	12.53	-25.9	-26.5	14.6	1.10e-06	0	43	0	536870912	12	3862
2026-01-03 16:03:34.04	214.95	12.61	-26.0	-26.8	14.5	2.20e-06	0	43	0	544210944	12	3925
2026-01-03 16:03:35.04	215.07	12.68	-25.9	-26.5	14.7	3.40e-06	0	43	0	551550976	12	3851
2026-01-03 16:03:36.05	215.20	12.76	-26.0	-26.6	14.6	0.00e+00	0	43	0	558891008	12	3884
2026-01-03 16:03:37.06	215.33	12.84	-25.8	-26.3	14.8	0.00e+00	0	43	0	566231040	12	3798
2026-01-03 16:03:38.06	215.45	12.91	-26.0	-26.7	14.6	0.00e+00	0	43	0	573571072	12	3903
2026-01-03 16:03:39.06	215.58	12.99	-25.7	-26.1	14.9	0.00e+00	0	43	0	580911104	12	3745
2026-01-03 16:03:40.06	215.70	13.06	-25.6	-25.7	15.1	0.00e+00	0	43	0	588251136	12	3660
2026-01-03 16:03:41.07	215.83	13.14	-25.5	-25.5	15.3	0.00e+00	0	43	0	594542592	12	3616
2026-01-03 16:03:42.08	215.96	13.22	-25.5	-25.6	15.2	0.00e+00	0	43	0	602931200	12	3641
2026-01-03 16:03:43.09	216.09	13.30	-25.6	-26.2	15.2	0.00e+00	0	43	0	610271232	11	3873
2026-01-03 16:03:44.09	216.22	13.37	-25.5	-26.1	15.3	0.00e+00	0	43	0	616562688	11	3852
2026-01-03 16:03:45.10	216.35	13.45	-25.5	-26.2	15.2	0.00e+00	0	43	0	623902720	11	3876
2026-01-03 16:03:46.11	216.48	13.53	-25.6	-26.3	15.2	0.00e+00	0	43	0	631242752	11	3903
2026-01-03 16:03:47.12	216.61	13.61	-25.5	-26.2	15.3	0.00e+00	0	43	0	638582784	11	3876
2026-01-03 16:03:48.12	216.74	13.68	-25.6	-26.4	15.2	0.00e+00	0	43	0	645922816	11	3919
2026-01-03 16:03:49.12	216.88	13.76	-25.6	-26.2	15.3	0.00e+00	0	43	0	653262848	11	3882
2026-01-03 16:03:50.12	217.01	13.84	-25.6	-26.2	15.2	0.00e+00	0	43	0	660602880	11	3884
2026-01-03 16:03:51.13	217.15	13.92	-25.6	-26.3	15.1	0.00e+00	0	43	0	667942912	11	3912
2026-01-03 16:03:52.13	217.28	14.00	-25.5	-26.0	15.4	0.00e+00	0	43	0	675282944	11	3838
2026-01-03 16:03:53.13	217.41	14.07	-25.4	-25.8	15.5	0.00e+00	0	43	0	682622976	11	3787
2026-01-03 16:03:54.14	217.55	14.15	-25.5	-26.0	15.4	0.00e+00	0	43	0	689963008	11	3818
2026-01-03 16:03:55.15	217.69	14.23	-25.4	-25.9	15.5	0.00e+00	0	43	0	697303040	11	3796
2026-01-03 16:03:56.15	217.83	14.31	-25.5	-26.0	15.4	0.00e+00	0	43	0	703594496	11	3830
2026-01-03 16:03:57.15	217.96	14.39	-25.6	-26.3	15.2	0.00e+00	0	43	0	710934528	11	3897
2026-01-03 16:03:58.15	218.10	14.47	-25.6	-26.2	15.3	0.00e+00	0	43	0	718274560	11	3868
2026-01-03 16:03:59.16	218.24	14.55	-25.5	-26.2	15.3	0.00e+00	0	43	0	725614592	11	3872
2026-01-03 16:04:00.15	218.38	14.62	-25.6	-26.3	15.3	0.00e+00	0	43	0	732954624	11	3898
2026-01-03 16:04:01.15	218.52	14.70	-25.5	-26.1	15.4	0.00e+00	0	43	0	740294656	11	3845
2026-01-03 16:04:02.16	218.67	14.78	-25.6	-26.2	15.3	0.00e+00	0	43	0	747634688	11	3873
2026-01-03 16:04:03.16	218.81	14.86	-25.5	-26.2	15.3	0.00e+00	0	43	0	754974720	11	3868
2026-01-03 16:04:04.17	218.95	14.94	-25.7	-26.6	15.1	0.00e+00	0	43	0	761266176	11	3969
2026-01-03 16:04:05.18	219.10	15.02	-25.4	-25.9	15.5	0.00e+00	0	43	0	768606208	11	3812
2026-01-03 16:04:06.18	219.24	15.10	-25.2	-25.3	15.8	0.00e+00	0	43	0	776994816	11	3667
2026-01-03 16:04:07.19	219.39	15.18	-25.0	-25.0	16.0	0.00e+00	0	43	0	783286272	11	3600
2026-01-03 16:04:08.19	219.53	15.26	-25.0	-25.1	15.9	0.00e+00	0	43	0	790626304	11	3611
2026-01-03 16:04:09.20	219.68	15.34	-25.0	-25.0	16.0	0.00e+00	0	43	0	797966336	11	3586
2026-01-03 16:04:10.21	219.83	15.42	-24.8	-25.2	16.2	0.00e+00	0	43	0	805306368	10	3730
2026-01-03 16:04:11.22	219.98	15.50	-24.9	-25.3	16.1	0.00e+00	0	43	0	812646400	10	3752
2026-01-03 16:04:12.22	220.13	15.58	-24.9	-25.3	16.1	0.00e+00	0	43	0	819986432	10	3769
2026-01-03 16:04:13.23	220.28	15.66	-25.0	-25.4	16.1	1.10e-06	0	43	0	827326464	10	3780
2026-01-03 16:04:14.24	220.43	15.74	-24.9	-25.3	16.1	0.00e+00	0	43	0	834666496	10	3764
2026-01-03 16:04:15.24	220.58	15.82	-25.1	-25.7	15.9	0.00e+00	0	43	0	842006528	10	3857
2026-01-03 16:04:16.24	220.74	15.90	-25.1	-25.8	15.8	0.00e+00	0	43	0	849346560	10	3878
2026-01-03 16:04:17.25	220.89	15.98	-25.1	-25.7	16.0	0.00e+00	0	43	0	856686592	10	3843
2026-01-03 16:04:18.26	221.05	16.06	-25.2	-25.9	15.8	0.00e+00	0	43	0	864026624	10	3897
2026-01-03 16:04:19.27	221.20	16.14	-25.3	-26.0	15.8	1.10e-06	0	43	0	870318080	10	3933
2026-01-03 16:04:20.27	221.36	16.23	-25.0	-25.4	16.1	0.00e+00	0	43	0	877658112	10	3796
2026-01-03 16:04:21.28	221.51	16.31	-24.8	-25.1	16.2	0.00e+00	0	43	0	884998144	10	3717
2026-01-03 16:04:22.29	221.67	16.39	-24.9	-25.2	16.2	0.00e+00	0	43	0	892338176	10	3744
2026-01-03 16:04:23.29	221.83	16.47	-24.9	-25.2	16.2	0.00e+00	0	43	0	899678208	10	3730
2026-01-03 16:04:24.30	221.99	16.55	-24.9	-25.2	16.2	0.00e+00	0	43	0	907018240	10	3738
2026-01-03 16:04:25.30	222.15	16.63	-24.7	-24.8	16.4	0.00e+00	0	43	0	914358272	10	3649
2026-01-03 16:04:26.30	222.31	16.71	-24.6	-24.6	16.5	0.00e+00	0	43	0	921698304	10	3603
2026-01-03 16:04:27.30	222.47	16.79	-24.7	-24.9	16.4	0.00e+00	0	43	0	929038336	10	3658
2026-01-03 16:04:28.31	222.63	16.87	-24.8	-25.0	16.4	0.00e+00	0	43	0	936378368	10	3683
2026-01-03 16:04:29.31	222.80	16.95	-24.5	-24.5	16.6	0.00e+00	0	43	0	943718400	10	3568
2026-01-03 16:04:30.32	222.96	17.04	-24.6	-24.7	16.5	0.00e+00	0	43	0	951058432	10	3624
2026-01-03 16:04:31.33	223.13	17.12	-24.8	-25.0	16.4	0.00e+00	0	43	0	958398464	10	3680
2026-01-03 16:04:32.33	223.29	17.20	-24.5	-24.5	16.6	0.00e+00	0	43	0	965738496	10	3578
2026-01-03 16:04:33.33	223.46	17.28	-24.6	-24.5	16.6	0.00e+00	0	43	0	973078528	10	3582
2026-01-03 16:04:34.33	223.63	17.36	-24.5	-24.5	16.7	0.00e+00	0	43	0	979369984	10	3569
2026-01-03 16:04:35.34	223.80	17.44	-24.5	-24.4	16.7	0.00e+00	0	43	0	986710016	10	3567
2026-01-03 16:04:36.34	223.97	17.52	-24.6	-24.6	16.6	0.00e+00	0	43	0	994050048	10	3613
2026-01-03 16:04:37.35	224.14	17.61	-24.5	-24.5	16.7	0.00e+00	0	43	0	1001390080	10	3580
2026-01-03 16:04:38.36	224.31	17.69	-24.6	-24.5	16.6	0.00e+00	0	43	0	1008730112	10	3590
2026-01-03 16:04:39.37	224.48	17.77	-24.5	-24.5	16.7	0.00e+00	0	43	0	1016070144	10	3578
2026-01-03 16:04:40.38	224.66	17.85	-24.6	-24.6	16.6	0.00e+00	0	43	0	1023410176	10	3598
2026-01-03 16:04:41.38	224.83	17.93	-24.6	-24.7	16.5	0.00e+00	0	43	0	1030750208	10	3618
2026-01-03 16:04:42.39	225.01	18.01	-24.6	-24.6	16.6	0.00e+00	0	43	0	1038090240	10	3603
2026-01-03 16:04:43.40	225.18	18.10	-24.7	-24.8	16.5	0.00e+00	0	43	0	1045430272	10	3636
2026-01-03 16:04:44.40	225.36	18.18	-24.8	-24.9	16.4	0.00e+00	0	43	0	1052770304	10	3670
2026-01-03 16:04:45.41	225.54	18.26	-24.4	-24.2	16.8	0.00e+00	0	43	0	1059061760	10	3521
2026-01-03 16:04:46.42	225.72	18.34	-24.4	-24.6	16.9	0.00e+00	0	43	0	1066401792	9	3704
2026-01-03 16:04:47.42	225.90	18.42	-24.4	-24.6	16.9	0.00e+00	0	43	0	1073741824	9	3694
2026-01-03 16:04:48.43	226.08	18.51	-24.4	-24.7	16.8	0.00e+00	0	43	0	1081081856	9	3720
2026-01-03 16:04:49.43	226.26	18.59	-24.4	-24.8	16.8	0.00e+00	0	43	0	1088421888	9	3735
2026-01-03 16:04:50.43	226.44	18.67	-24.2	-24.3	17.1	0.00e+00	0	43	0	1095761920	9	3621
2026-01-03 16:04:51.43	226.62	18.75	-24.1	-24.0	17.2	0.00e+00	0	43	0	1103101952	9	3556
2026-01-03 16:04:52.44	226.81	18.83	-24.0	-23.9	17.3	0.00e+00	0	43	0	1110441984	9	3530
2026-01-03 16:04:53.45	226.99	18.91	-24.0	-23.9	17.3	0.00e+00	0	43	0	1117782016	9	3543
2026-01-03 16:04:54.45	227.18	19.00	-24.1	-24.0	17.2	0.00e+00	0	43	0	1125122048	9	3557
2026-01-03 16:04:55.45	227.37	19.08	-24.1	-23.9	17.2	0.00e+00	0	43	0	1132462080	9	3547
2026-01-03 16:04:56.45	227.55	19.16	-24.1	-24.0	17.2	0.00e+00	0	43	0	1139802112	9	3557
2026-01-03 16:04:57.46	227.74	19.24	-24.2	-24.1	17.2	0.00e+00	0	43	0	1146093568	9	3592
2026-01-03 16:04:58.46	227.93	19.32	-24.1	-24.1	17.2	0.00e+00	0	43	0	1153433600	9	3582
2026-01-03 16:04:59.47	228.13	19.40	-24.2	-24.3	17.1	0.00e+00	0	43	0	1160773632	9	3638
2026-01-03 16:05:00.48	228.32	19.48	-24.3	-24.4	17.0	0.00e+00	0	43	0	1168113664	9	3659
2026-01-03 16:05:01.48	228.51	19.57	-24.3	-24.4	17.0	0.00e+00	0	43	0	1175453696	9	3661
2026-01-03 16:05:02.49	228.71	19.65	-24.3	-24.4	17.0	0.00e+00	0	43	0	1182793728	9	3647
2026-01-03 16:05:03.49	228.90	19.73	-24.3	-24.4	17.0	0.00e+00	0	43	0	1190133760	9	3651
2026-01-03 16:05:04.50	229.10	19.81	-24.1	-24.1	17.2	0.00e+00	0	43	0	1197473792	9	3583
2026-01-03 16:05:05.51	229.30	19.89	-24.0	-23.8	17.4	0.00e+00	0	43	0	1204813824	9	3525
2026-01-03 16:05:06.51	229.49	19.97	-24.0	-23.8	17.4	0.00e+00	0	43	0	1212153856	9	3523
2026-01-03 16:05:07.51	229.69	20.05	-23.9	-23.7	17.4	0.00e+00	0	43	0	1219493888	9	3490
2026-01-03 16:05:08.52	229.89	20.13	-24.1	-24.0	17.3	0.00e+00	0	43	0	1226833920	9	3560
2026-01-03 16:05:09.53	230.10	20.21	-24.4	-24.6	16.9	0.00e+00	0	43	0	1234173952	9	3704
2026-01-03 16:05:10.54	230.30	20.30	-24.3	-24.5	17.0	0.00e+00	0	43	0	1241513984	9	3684
2026-01-03 16:05:11.54	230.50	20.38	-23.9	-23.7	17.4	0.00e+00	0	43	0	1247805440	9	3496
2026-01-03 16:05:12.55	230.71	20.46	-23.8	-23.8	17.6	0.00e+00	0	43	0	1255145472	8	3619
2026-01-03 16:05:13.56	230.91	20.54	-23.7	-23.8	17.6	0.00e+00	0	43	0	1262485504	8	3606
2026-01-03 16:05:14.56	231.12	20.62	-23.8	-23.8	17.6	0.00e+00	0	43	0	1269825536	8	3611
2026-01-03 16:05:15.57	231.33	20.70	-23.6	-23.5	17.8	0.00e+00	0	43	0	1277165568	8	3560
2026-01-03 16:05:16.58	231.54	20.78	-23.7	-23.6	17.7	0.00e+00	0	43	0	1284505600	8	3572
2026-01-03 16:05:17.58	231.75	20.86	-23.8	-23.9	17.6	0.00e+00	0	43	0	1291845632	8	3637
2026-01-03 16:05:18.58	231.96	20.94	-23.7	-23.7	17.7	0.00e+00	0	43	0	1299185664	8	3586
2026-01-03 16:05:19.59	232.17	21.02	-23.7	-23.6	17.7	0.00e+00	0	43	0	1306525696	8	3581
2026-01-03 16:05:20.60	232.38	21.10	-23.7	-23.7	17.7	0.00e+00	0	43	0	1313865728	8	3603
2026-01-03 16:05:21.60	232.60	21.18	-23.7	-23.7	17.7	0.00e+00	0	43	0	1321205760	8	3588
2026-01-03 16:05:22.61	232.81	21.26	-23.8	-24.0	17.5	0.00e+00	0	43	0	1328545792	8	3656
2026-01-03 16:05:23.62	233.03	21.34	-23.8	-23.8	17.6	0.00e+00	0	43	0	1334837248	8	3620
2026-01-03 16:05:24.63	233.25	21.41	-23.7	-23.8	17.6	0.00e+00	0	43	0	1343225856	8	3619
2026-01-03 16:05:25.63	233.47	21.49	-23.7	-23.8	17.6	0.00e+00	0	43	0	1350565888	8	3617
2026-01-03 16:05:26.63	233.69	21.57	-23.8	-23.8	17.6	0.00e+00	0	43	0	1356857344	8	3622
2026-01-03 16:05:27.63	233.90	21.65	-23.9	-24.1	17.5	0.00e+00	0	43	0	1364197376	8	3695
2026-01-03 16:05:28.64	234.13	21.73	-23.8	-23.8	17.6	0.00e+00	0	43	0	1371537408	8	3626
2026-01-03 16:05:29.65	234.35	21.81	-23.6	-23.6	17.8	0.00e+00	0	43	0	1378877440	8	3573
2026-01-03 16:05:30.66	234.58	21.88	-23.5	-23.3	17.9	0.00e+00	0	43	0	1386217472	8	3511
2026-01-03 16:05:31.66	234.80	21.96	-23.5	-23.2	18.0	0.00e+00	0	43	0	1393557504	8	3493
2026-01-03 16:05:32.67	235.03	22.04	-23.5	-23.2	18.0	0.00e+00	0	43	0	1400897536	8	3488
2026-01-03 16:05:33.67	235.25	22.12	-23.5	-23.2	18.0	0.00e+00	0	43	0	1408237568	8	3496
2026-01-03 16:05:34.68	235.48	22.19	-23.6	-23.5	17.8	0.00e+00	0	43	0	1415577600	8	3549
2026-01-03 16:05:35.69	235.71	22.27	-23.6	-23.4	17.9	0.00e+00	0	43	0	1422917632	8	3534
2026-01-03 16:05:36.69	235.94	22.35	-23.4	-23.1	18.0	0.00e+00	0	43	0	1430257664	8	3474
2026-01-03 16:05:37.69	236.17	22.42	-23.5	-23.3	18.0	0.00e+00	0	43	0	1437597696	8	3498
2026-01-03 16:05:38.70	236.41	22.50	-23.7	-23.6	17.8	0.00e+00	0	43	0	1443889152	8	3578
2026-01-03 16:05:39.70	236.64	22.57	-23.6	-23.4	17.9	0.00e+00	0	43	0	1451229184	8	3523
2026-01-03 16:05:40.71	236.88	22.65	-23.5	-23.3	18.0	0.00e+00	0	43	0	1458569216	8	3505
2026-01-03 16:05:41.71	237.11	22.73	-23.5	-23.3	17.9	0.00e+00	0	43	0	1465909248	8	3506
2026-01-03 16:05:42.72	237.35	22.80	-23.7	-23.7	17.7	0.00e+00	0	43	0	1473249280	8	3598
2026-01-03 16:05:43.73	237.59	22.88	-23.7	-23.7	17.8	0.00e+00	0	43	0	1480589312	8	3588
2026-01-03 16:05:44.74	237.83	22.95	-23.7	-23.6	17.8	0.00e+00	0	43	0	1487929344	8	3578
2026-01-03 16:05:45.74	238.07	23.02	-23.7	-23.6	17.8	0.00e+00	0	43	0	1495269376	8	3581
2026-01-03 16:05:46.74	238.31	23.10	-23.7	-23.7	17.8	0.00e+00	0	43	0	1502609408	8	3593
2026-01-03 16:05:47.74	238.55	23.17	-23.9	-24.1	17.6	0.00e+00	0	43	0	1509949440	8	3687
2026-01-03 16:05:48.75	238.80	23.24	-23.9	-24.0	17.6	0.00e+00	0	43	0	1517289472	8	3667
2026-01-03 16:05:49.75	239.04	23.32	-23.7	-23.6	17.8	0.00e+00	0	43	0	1523580928	8	3572
2026-01-03 16:05:50.76	239.29	23.39	-23.6	-23.5	17.9	0.00e+00	0	43	0	1530920960	8	3554
2026-01-03 16:05:51.76	239.53	23.46	-23.7	-23.6	17.8	0.00e+00	0	44	0	1538260992	8	3580
2026-01-03 16:05:52.77	239.78	23.53	-23.6	-23.4	17.9	0.00e+00	0	43	0	1545601024	8	3527
2026-01-03 16:05:53.78	240.03	23.61	-23.5	-23.3	18.0	0.00e+00	0	43	0	1552941056	8	3516
2026-01-03 16:05:54.78	240.28	23.68	-23.5	-23.2	18.1	0.00e+00	0	43	0	1560281088	8	3480
2026-01-03 16:05:55.79	240.53	23.75	-23.5	-23.3	18.0	0.00e+00	0	43	0	1567621120	8	3504
2026-01-03 16:05:56.79	240.79	23.82	-23.4	-23.1	18.1	0.00e+00	0	43	0	1574961152	8	3474
2026-01-03 16:05:57.79	241.04	23.89	-23.4	-23.4	18.1	0.00e+00	0	43	0	1582301184	7	3635
2026-01-03 16:05:58.80	241.29	23.96	-23.2	-23.2	18.3	0.00e+00	0	43	0	1589641216	7	3579
2026-01-03 16:05:59.81	241.55	24.03	-23.2	-23.1	18.3	0.00e+00	0	43	0	1596981248	7	3565
2026-01-03 16:06:00.82	241.81	24.09	-23.3	-23.3	18.2	0.00e+00	0	43	0	1604321280	7	3605
2026-01-03 16:06:01.82	242.07	24.16	-23.4	-23.6	18.0	0.00e+00	0	43	0	1610612736	7	3674
2026-01-03 16:06:02.83	242.33	24.23	-23.2	-23.2	18.3	1.10e-06	0	44	0	1619001344	7	3589
2026-01-03 16:06:03.83	242.59	24.30	-23.2	-23.1	18.4	0.00e+00	0	44	0	1626341376	7	3556
2026-01-03 16:06:04.84	242.85	24.37	-23.2	-23.1	18.3	0.00e+00	0	43	0	1632632832	7	3561
2026-01-03 16:06:05.84	243.11	24.43	-23.3	-23.3	18.2	5.70e-06	0	44	0	1639972864	7	3597
2026-01-03 16:06:06.85	243.38	24.50	-23.3	-23.4	18.2	0.00e+00	0	43	0	1647312896	7	3629
2026-01-03 16:06:07.86	243.64	24.56	-23.2	-23.2	18.3	0.00e+00	0	43	0	1654652928	7	3576
2026-01-03 16:06:08.86	243.91	24.63	-23.2	-23.2	18.3	1.10e-06	0	44	0	1661992960	7	3585
2026-01-03 16:06:09.87	244.17	24.69	-23.2	-23.1	18.3	0.00e+00	0	43	0	1669332992	7	3564
2026-01-03 16:06:10.88	244.44	24.76	-23.3	-23.4	18.2	0.00e+00	0	43	0	1676673024	7	3623
2026-01-03 16:06:11.88	244.71	24.82	-23.3	-23.3	18.3	2.20e-06	0	43	0	1684013056	7	3598
2026-01-03 16:06:12.88	244.98	24.89	-23.5	-23.8	18.0	0.00e+00	0	43	0	1691353088	7	3709
2026-01-03 16:06:13.89	245.25	24.95	-23.5	-23.7	18.0	0.00e+00	0	43	0	1698693120	7	3691
2026-01-03 16:06:14.89	245.52	25.01	-23.4	-23.5	18.1	0.00e+00	0	43	0	1706033152	7	3660
2026-01-03 16:06:15.89	245.80	25.07	-23.5	-23.7	18.0	0.00e+00	0	43	0	1713373184	7	3700
2026-01-03 16:06:16.90	246.07	25.13	-23.5	-23.7	18.0	0.00e+00	0	43	0	1719664640	7	3698
2026-01-03 16:06:17.90	246.35	25.19	-23.5	-23.8	18.0	0.00e+00	0	43	0	1727004672	7	3706
2026-01-03 16:06:18.91	246.62	25.25	-23.4	-23.6	18.1	0.00e+00	0	43	0	1734344704	7	3663
2026-01-03 16:06:19.91	246.90	25.31	-23.4	-23.6	18.1	0.00e+00	0	44	0	1741684736	7	3665
2026-01-03 16:06:20.91	247.18	25.37	-23.6	-24.0	17.9	0.00e+00	0	43	0	1749024768	7	3752
2026-01-03 16:06:21.92	247.46	25.43	-23.5	-23.7	18.0	0.00e+00	0	43	0	1756364800	7	3700
2026-01-03 16:06:22.92	247.74	25.49	-23.4	-23.6	18.1	0.00e+00	0	43	0	1763704832	7	3672
2026-01-03 16:06:23.93	248.02	25.55	-23.3	-23.4	18.2	0.00e+00	0	43	0	1771044864	7	3621
2026-01-03 16:06:24.94	248.30	25.60	-23.3	-23.2	18.3	0.00e+00	0	43	0	1778384896	7	3595
2026-01-03 16:06:25.95	248.59	25.66	-23.4	-23.6	18.1	0.00e+00	0	43	0	1785724928	7	3662
2026-01-03 16:06:26.94	248.87	25.71	-23.5	-23.7	18.0	0.00e+00	0	44	0	1793064960	7	3695
2026-01-03 16:06:27.95	249.15	25.77	-23.4	-23.5	18.1	0.00e+00	0	43	0	1799356416	7	3652
2026-01-03 16:06:28.96	249.44	25.82	-23.5	-23.7	18.0	0.00e+00	0	43	0	1806696448	7	3692
2026-01-03 16:06:29.96	249.73	25.88	-23.3	-23.3	18.2	0.00e+00	0	44	0	1814036480	7	3612
2026-01-03 16:06:30.97	250.02	25.93	-23.3	-23.3	18.3	0.00e+00	0	44	0	1821376512	7	3597
2026-01-03 16:06:31.98	250.31	25.98	-23.3	-23.4	18.2	0.00e+00	0	44	0	1828716544	7	3622
2026-01-03 16:06:32.98	250.60	26.03	-23.2	-23.1	18.4	0.00e+00	0	43	0	1836056576	7	3557
2026-01-03 16:06:33.98	250.89	26.08	-23.6	-23.9	17.9	0.00e+00	0	43	0	1843396608	7	3734
2026-01-03 16:06:34.98	251.18	26.13	-23.2	-23.1	18.4	0.00e+00	0	43	0	1850736640	7	3549
2026-01-03 16:06:35.99	251.47	26.18	-23.1	-22.8	18.5	0.00e+00	0	44	0	1858076672	7	3502
2026-01-03 16:06:37.00	251.76	26.23	-23.0	-22.7	18.6	0.00e+00	0	43	0	1865416704	7	3476
2026-01-03 16:06:38.00	252.06	26.28	-22.9	-22.5	18.6	0.00e+00	0	43	0	1872756736	7	3439
2026-01-03 16:06:39.01	252.35	26.33	-23.0	-22.8	18.5	0.00e+00	0	43	0	1880096768	7	3491
2026-01-03 16:06:40.02	252.65	26.37	-22.9	-22.5	18.7	0.00e+00	0	43	0	1886388224	7	3435
2026-01-03 16:06:41.03	252.95	26.42	-22.9	-23.0	18.7	0.00e+00	0	44	0	1894776832	6	3642
2026-01-03 16:06:42.03	253.25	26.46	-23.0	-23.1	18.6	0.00e+00	0	44	0	1902116864	6	3659
2026-01-03 16:06:43.04	253.55	26.51	-23.0	-23.1	18.6	0.00e+00	0	43	0	1908408320	6	3663
2026-01-03 16:06:44.04	253.85	26.55	-23.1	-23.5	18.4	0.00e+00	0	44	0	1915748352	6	3750
2026-01-03 16:06:45.04	254.14	26.60	-23.2	-23.6	18.4	0.00e+00	0	44	0	1923088384	6	3768
2026-01-03 16:06:46.04	254.44	26.64	-23.3	-23.9	18.2	0.00e+00	0	44	0	1930428416	6	3832
2026-01-03 16:06:47.05	254.75	26.68	-23.4	-24.1	18.1	0.00e+00	0	44	0	1937768448	6	3887
2026-01-03 16:06:48.06	255.05	26.72	-23.3	-23.8	18.3	0.00e+00	0	43	0	1945108480	6	3809
2026-01-03 16:06:49.07	255.36	26.76	-23.4	-24.1	18.1	0.00e+00	0	43	0	1952448512	6	3878
2026-01-03 16:06:50.08	255.66	26.80	-23.5	-24.3	18.0	0.00e+00	0	44	0	1959788544	6	3928
2026-01-03 16:06:51.08	255.96	26.84	-23.4	-24.1	18.1	0.00e+00	0	43	0	1967128576	6	3894
2026-01-03 16:06:52.08	256.27	26.87	-23.4	-24.0	18.2	0.00e+00	0	44	0	1974468608	6	3861
2026-01-03 16:06:53.09	256.58	26.91	-23.6	-24.0	17.9	0.00e+00	0	44	0	1981808640	7	3767
2026-01-03 16:06:54.10	256.88	26.95	-23.3	-23.4	18.2	0.00e+00	0	44	0	1988100096	7	3635
2026-01-03 16:06:55.10	257.19	26.98	-23.1	-23.0	18.4	0.00e+00	0	43	0	1995440128	7	3537
2026-01-03 16:06:56.10	257.50	27.02	-23.2	-23.1	18.4	0.00e+00	0	44	0	2002780160	7	3553
2026-01-03 16:06:57.11	257.81	27.05	-23.2	-23.1	18.4	0.00e+00	0	43	0	2010120192	7	3556
2026-01-03 16:06:58.11	258.12	27.08	-23.1	-22.9	18.5	0.00e+00	0	44	0	2017460224	7	3529
2026-01-03 16:06:59.12	258.43	27.11	-23.1	-22.9	18.5	0.00e+00	0	43	0	2024800256	7	3519
2026-01-03 16:07:00.12	258.74	27.14	-23.3	-23.4	18.3	0.00e+00	0	43	0	2032140288	7	3627
2026-01-03 16:07:01.13	259.05	27.17	-23.5	-23.8	18.0	0.00e+00	0	43	0	2039480320	7	3729
2026-01-03 16:07:02.14	259.36	27.20	-23.4	-23.6	18.1	0.00e+00	0	43	0	2046820352	7	3676
2026-01-03 16:07:03.15	259.68	27.23	-23.5	-23.7	18.1	0.00e+00	0	43	0	2054160384	7	3688
2026-01-03 16:07:04.16	259.99	27.26	-23.5	-23.7	18.1	0.00e+00	0	43	0	2061500416	7	3686
2026-01-03 16:07:05.17	260.31	27.29	-23.4	-23.7	18.1	0.00e+00	0	43	0	2068840448	7	3687
2026-01-03 16:07:06.18	260.62	27.31	-23.4	-23.6	18.1	0.00e+00	0	43	0	2076180480	7	3674
2026-01-03 16:07:07.18	260.93	27.34	-23.5	-23.7	18.1	0.00e+00	0	44	0	2083520512	7	3688
2026-01-03 16:07:08.19	261.25	27.36	-23.6	-24.0	17.9	0.00e+00	0	44	0	2090860544	7	3755
2026-01-03 16:07:09.20	261.57	27.38	-23.2	-23.1	18.4	0.00e+00	0	44	0	2097152000	7	3554
2026-01-03 16:07:10.20	261.88	27.41	-23.1	-22.9	18.5	0.00e+00	0	43	0	2104492032	7	3521
2026-01-03 16:07:11.21	262.20	27.43	-23.0	-22.8	18.6	0.00e+00	0	43	0	2111832064	7	3490
2026-01-03 16:07:12.21	262.51	27.45	-23.2	-23.1	18.4	0.00e+00	0	43	0	2119172096	7	3556
2026-01-03 16:07:13.21	262.83	27.47	-23.1	-23.0	18.5	0.00e+00	0	43	0	2126512128	7	3536
2026-01-03 16:07:14.22	263.15	27.48	-23.1	-23.0	18.4	0.00e+00	0	43	0	2133852160	7	3545
2026-01-03 16:07:15.23	263.47	27.50	-23.1	-22.9	18.5	0.00e+00	0	43	0	2141192192	7	3520
2026-01-03 16:07:16.24	263.79	27.52	-23.1	-22.9	18.5	0.00e+00	0	44	0	2148532224	7	3531
2026-01-03 16:07:17.24	264.10	27.53	-23.0	-22.8	18.5	0.00e+00	0	44	0	2155872256	7	3500
2026-01-03 16:07:18.25	264.42	27.55	-22.8	-22.9	18.8	0.00e+00	0	43	0	2163212288	6	3612
2026-01-03 16:07:19.26	264.74	27.56	-23.1	-23.3	18.5	0.00e+00	0	44	0	2170552320	6	3715
2026-01-03 16:07:20.26	265.06	27.57	-23.2	-23.7	18.3	0.00e+00	0	44	0	2177892352	6	3800
2026-01-03 16:07:21.28	265.38	27.59	-23.4	-24.1	18.2	0.00e+00	0	43	0	2184183808	6	3881
2026-01-03 16:07:22.28	265.70	27.60	-23.6	-24.4	18.0	0.00e+00	0	44	0	2192572416	6	3957
2026-01-03 16:07:23.29	266.02	27.61	-23.4	-24.0	18.1	0.00e+00	0	43	0	2199912448	6	3873
2026-01-03 16:07:24.29	266.34	27.62	-23.4	-24.0	18.2	0.00e+00	0	44	0	2206203904	6	3873
2026-01-03 16:07:25.30	266.66	27.62	-23.3	-23.9	18.2	0.00e+00	0	43	0	2213543936	6	3836
2026-01-03 16:07:26.31	266.99	27.63	-23.2	-23.6	18.4	0.00e+00	0	44	0	2220883968	6	3777
2026-01-03 16:07:27.32	267.31	27.64	-23.3	-23.8	18.3	0.00e+00	0	44	0	2228224000	6	3819
2026-01-03 16:07:28.32	267.63	27.64	-23.0	-23.3	18.5	0.00e+00	0	44	0	2235564032	6	3698
2026-01-03 16:07:29.32	267.94	27.65	-23.0	-23.1	18.6	0.00e+00	0	44	0	2242904064	6	3661
2026-01-03 16:07:30.33	268.27	27.65	-23.0	-23.2	18.6	0.00e+00	0	43	0	2250244096	6	3676
2026-01-03 16:07:31.33	268.59	27.65	-23.1	-23.3	18.5	0.00e+00	0	43	0	2257584128	6	3709
2026-01-03 16:07:32.34	268.91	27.65	-23.2	-23.7	18.4	0.00e+00	0	44	0	2264924160	6	3789
2026-01-03 16:07:33.34	269.23	27.66	-23.4	-24.0	18.2	0.00e+00	0	44	0	2272264192	6	3861
2026-01-03 16:07:34.35	269.55	27.66	-23.3	-23.8	18.3	0.00e+00	0	43	0	2279604224	6	3819
2026-01-03 16:07:35.36	269.87	27.65	-23.4	-24.0	18.2	0.00e+00	0	43	0	2285895680	6	3861
2026-01-03 16:07:36.36	270.19	27.65	-23.3	-23.8	18.3	0.00e+00	0	43	0	2293235712	6	3810
2026-01-03 16:07:37.36	270.51	27.65	-23.1	-23.4	18.5	0.00e+00	0	43	0	2300575744	6	3719
2026-01-03 16:07:38.37	270.83	27.64	-23.1	-23.3	18.5	0.00e+00	0	44	0	2307915776	6	3712
2026-01-03 16:07:39.37	271.15	27.64	-23.1	-23.4	18.5	0.00e+00	0	43	0	2315255808	6	3735
2026-01-03 16:07:40.38	271.47	27.63	-23.1	-23.4	18.4	0.00e+00	0	43	0	2322595840	6	3729
2026-01-03 16:07:41.38	271.79	27.63	-23.2	-23.6	18.4	0.00e+00	0	43	0	2329935872	6	3766
2026-01-03 16:07:42.38	272.11	27.62	-23.0	-23.3	18.5	0.00e+00	0	44	0	2337275904	6	3701
2026-01-03 16:07:43.39	272.43	27.61	-23.0	-23.2	18.6	0.00e+00	0	43	0	2344615936	6	3690
2026-01-03 16:07:44.39	272.75	27.60	-23.0	-23.2	18.6	0.00e+00	0	43	0	2351955968	6	3690
2026-01-03 16:07:45.40	273.07	27.59	-22.9	-23.0	18.7	0.00e+00	0	44	0	2359296000	6	3633
2026-01-03 16:07:46.40	273.39	27.58	-22.9	-23.1	18.6	0.00e+00	0	43	0	2366636032	6	3655
2026-01-03 16:07:47.41	273.71	27.56	-23.0	-23.2	18.5	0.00e+00	0	44	0	2372927488	6	3688
2026-01-03 16:07:48.42	274.03	27.55	-23.1	-23.4	18.5	0.00e+00	0	43	0	2380267520	6	3730
2026-01-03 16:07:49.42	274.34	27.54	-23.1	-23.4	18.5	0.00e+00	0	44	0	2387607552	6	3727
2026-01-03 16:07:50.42	274.66	27.52	-23.1	-23.5	18.4	0.00e+00	0	43	0	2394947584	6	3752
2026-01-03 16:07:51.43	274.98	27.50	-23.2	-23.7	18.3	0.00e+00	0	44	0	2402287616	6	3798
2026-01-03 16:07:52.44	275.30	27.49	-23.3	-23.7	18.3	0.00e+00	0	44	0	2409627648	6	3804
2026-01-03 16:07:53.44	275.61	27.47	-23.3	-23.9	18.2	0.00e+00	0	44	0	2416967680	6	3830
2026-01-03 16:07:54.45	275.93	27.45	-23.5	-24.2	18.0	0.00e+00	0	44	0	2424307712	6	3922
2026-01-03 16:07:55.46	276.25	27.43	-23.5	-23.8	18.0	0.00e+00	0	44	0	2431647744	7	3723
2026-01-03 16:07:56.46	276.56	27.41	-23.3	-23.3	18.3	0.00e+00	0	44	0	2438987776	7	3605
2026-01-03 16:07:57.46	276.88	27.39	-23.1	-22.9	18.5	0.00e+00	0	44	0	2446327808	7	3519
2026-01-03 16:07:58.46	277.19	27.36	-23.1	-22.9	18.5	0.00e+00	0	44	0	2452619264	7	3511
2026-01-03 16:07:59.47	277.51	27.34	-23.1	-22.9	18.5	0.00e+00	0	44	0	2459959296	7	3522
2026-01-03 16:08:00.48	277.82	27.31	-23.2	-23.1	18.4	0.00e+00	0	43	0	2468347904	7	3559
2026-01-03 16:08:01.49	278.14	27.29	-23.2	-23.1	18.4	0.00e+00	0	43	0	2474639360	7	3564
2026-01-03 16:08:02.50	278.45	27.26	-23.2	-23.0	18.4	0.00e+00	0	44	0	2481979392	7	3545
2026-01-03 16:08:03.50	278.76	27.24	-23.1	-22.9	18.5	0.00e+00	0	43	0	2489319424	7	3527
2026-01-03 16:08:04.50	279.07	27.21	-23.2	-23.1	18.4	0.00e+00	0	43	0	2496659456	7	3550
2026-01-03 16:08:05.51	279.38	27.18	-23.1	-23.0	18.4	0.00e+00	0	44	0	2503999488	7	3543
2026-01-03 16:08:06.52	279.70	27.15	-23.2	-23.2	18.4	0.00e+00	0	44	0	2511339520	7	3575
2026-01-03 16:08:07.52	280.01	27.12	-23.4	-23.4	18.2	0.00e+00	0	43	0	2518679552	7	3633
2026-01-03 16:08:08.53	280.32	27.09	-23.3	-23.3	18.3	0.00e+00	0	44	0	2526019584	7	3607
2026-01-03 16:08:09.54	280.63	27.05	-23.3	-23.3	18.3	0.00e+00	0	43	0	2533359616	7	3591
2026-01-03 16:08:10.54	280.93	27.02	-23.4	-23.4	18.2	0.00e+00	0	43	0	2540699648	7	3630
2026-01-03 16:08:11.55	281.24	26.99	-23.3	-23.4	18.2	0.00e+00	0	43	0	2548039680	7	3622
2026-01-03 16:08:12.55	281.55	26.95	-23.2	-23.2	18.3	0.00e+00	0	44	0	2555379712	7	3583
2026-01-03 16:08:13.56	281.86	26.92	-23.2	-23.1	18.4	0.00e+00	0	43	0	2561671168	7	3566
2026-01-03 16:08:14.57	282.16	26.88	-23.2	-23.2	18.3	0.00e+00	0	43	0	2569011200	7	3585
2026-01-03 16:08:15.57	282.47	26.84	-23.2	-23.2	18.3	0.00e+00	0	44	0	2576351232	7	3580
2026-01-03 16:08:16.58	282.77	26.81	-23.2	-23.0	18.4	0.00e+00	0	44	0	2583691264	7	3549
2026-01-03 16:08:17.59	283.08	26.77	-23.2	-23.0	18.4	0.00e+00	0	44	0	2591031296	7	3550
2026-01-03 16:08:18.59	283.38	26.73	-23.1	-23.0	18.4	0.00e+00	0	44	0	2598371328	7	3541
2026-01-03 16:08:19.60	283.68	26.69	-23.2	-23.1	18.4	0.00e+00	0	44	0	2605711360	7	3561
2026-01-03 16:08:20.61	283.99	26.64	-23.2	-23.1	18.4	0.00e+00	0	44	0	2613051392	7	3556
2026-01-03 16:08:21.62	284.29	26.60	-23.2	-23.1	18.4	0.00e+00	0	44	0	2620391424	7	3561
2026-01-03 16:08:22.62	284.59	26.56	-23.2	-23.1	18.4	0.00e+00	0	44	0	2627731456	7	3556
2026-01-03 16:08:23.63	284.89	26.52	-23.2	-23.2	18.3	0.00e+00	0	44	0	2635071488	7	3587
2026-01-03 16:08:24.64	285.19	26.47	-23.3	-23.3	18.3	0.00e+00	0	44	0	2642411520	7	3599
2026-01-03 16:08:25.64	285.48	26.43	-23.3	-23.4	18.3	0.00e+00	0	44	0	2649751552	7	3624
2026-01-03 16:08:26.65	285.78	26.38	-23.4	-23.5	18.2	0.00e+00	0	43	0	2657091584	7	3638
2026-01-03 16:08:27.65	286.07	26.34	-23.4	-23.5	18.2	0.00e+00	0	44	0	2663383040	7	3656
2026-01-03 16:08:28.66	286.37	26.29	-23.5	-23.7	18.1	0.00e+00	0	44	0	2670723072	7	3702
2026-01-03 16:08:29.67	286.67	26.24	-23.4	-23.6	18.2	0.00e+00	0	44	0	2678063104	7	3662
2026-01-03 16:08:30.68	286.96	26.19	-23.4	-23.5	18.2	0.00e+00	0	44	0	2685403136	7	3656
2026-01-03 16:08:31.69	287.25	26.14	-23.5	-23.7	18.1	0.00e+00	0	44	0	2692743168	7	3690
2026-01-03 16:08:32.69	287.54	26.09	-23.3	-23.4	18.2	0.00e+00	0	44	0	2700083200	7	3626
2026-01-03 16:08:33.70	287.83	26.04	-23.1	-22.9	18.4	0.00e+00	0	43	0	2707423232	7	3530
2026-01-03 16:08:34.71	288.13	25.99	-23.1	-22.8	18.5	0.00e+00	0	43	0	2714763264	7	3501
2026-01-03 16:08:35.71	288.41	25.94	-23.1	-23.0	18.5	0.00e+00	0	44	0	2722103296	7	3529
2026-01-03 16:08:36.72	288.70	25.89	-23.2	-23.1	18.4	0.00e+00	0	43	0	2729443328	7	3556
2026-01-03 16:08:37.73	288.99	25.83	-23.3	-23.4	18.2	0.00e+00	0	43	0	2736783360	7	3620
2026-01-03 16:08:38.74	289.28	25.78	-23.3	-23.3	18.3	0.00e+00	0	43	0	2744123392	7	3608
2026-01-03 16:08:39.74	289.56	25.72	-23.4	-23.6	18.1	0.00e+00	0	44	0	2751463424	7	3671
2026-01-03 16:08:40.75	289.84	25.67	-23.4	-23.5	18.2	0.00e+00	0	43	0	2758803456	7	3646
2026-01-03 16:08:41.75	290.13	25.61	-23.3	-23.3	18.2	0.00e+00	0	44	0	2766143488	7	3614
2026-01-03 16:08:42.76	290.41	25.56	-23.4	-23.6	18.1	0.00e+00	0	44	0	2772434944	7	3676
2026-01-03 16:08:43.76	290.69	25.50	-23.5	-23.7	18.1	0.00e+00	0	44	0	2779774976	7	3695
2026-01-03 16:08:44.77	290.97	25.44	-23.5	-23.7	18.0	0.00e+00	0	44	0	2787115008	7	3702
2026-01-03 16:08:45.78	291.25	25.38	-23.6	-23.9	18.0	0.00e+00	0	44	0	2794455040	7	3737
2026-01-03 16:08:46.79	291.53	25.33	-23.6	-23.8	18.0	0.00e+00	0	44	0	2801795072	7	3722
2026-01-03 16:08:47.79	291.80	25.27	-23.6	-24.0	17.9	0.00e+00	0	44	0	2809135104	7	3755
2026-01-03 16:08:48.80	292.08	25.21	-23.5	-23.6	18.0	0.00e+00	0	44	0	2816475136	7	3679
2026-01-03 16:08:49.81	292.36	25.15	-23.3	-23.2	18.3	0.00e+00	0	43	0	2823815168	7	3588
2026-01-03 16:08:50.81	292.63	25.09	-23.2	-23.2	18.3	0.00e+00	0	44	0	2831155200	7	3578
2026-01-03 16:08:51.82	292.90	25.02	-23.1	-23.0	18.4	0.00e+00	0	43	0	2838495232	7	3539
2026-01-03 16:08:52.83	293.17	24.96	-23.2	-23.0	18.4	0.00e+00	0	44	0	2845835264	7	3547
2026-01-03 16:08:53.83	293.44	24.90	-23.2	-23.1	18.3	0.00e+00	0	44	0	2853175296	7	3572
2026-01-03 16:08:54.83	293.71	24.84	-23.4	-23.5	18.2	0.00e+00	0	44	0	2860515328	7	3647
2026-01-03 16:08:55.84	293.98	24.77	-23.4	-23.6	18.1	0.00e+00	0	44	0	2867855360	7	3671
2026-01-03 16:08:56.85	294.25	24.71	-23.5	-23.7	18.0	0.00e+00	0	44	0	2875195392	7	3702
2026-01-03 16:08:57.84	294.51	24.65	-23.5	-23.7	18.0	0.00e+00	0	44	0	2881486848	7	3688
2026-01-03 16:08:58.85	294.78	24.58	-23.6	-23.9	18.0	0.00e+00	0	44	0	2888826880	7	3731
2026-01-03 16:08:59.85	295.04	24.52	-23.6	-24.0	17.9	0.00e+00	0	44	0	2896166912	7	3753
2026-01-03 16:09:00.86	295.30	24.45	-23.6	-24.0	17.9	0.00e+00	0	44	0	2903506944	7	3766
2026-01-03 16:09:01.87	295.57	24.38	-23.9	-24.5	17.6	0.00e+00	0	43	0	2910846976	7	3885
2026-01-03 16:09:02.87	295.83	24.32	-23.7	-24.2	17.8	0.00e+00	0	44	0	2918187008	7	3809
2026-01-03 16:09:03.88	296.09	24.25	-23.7	-24.1	17.8	0.00e+00	0	44	0	2925527040	7	3781
2026-01-03 16:09:04.89	296.35	24.18	-23.7	-24.2	17.8	0.00e+00	0	44	0	2932867072	7	3795
2026-01-03 16:09:05.90	296.61	24.11	-23.6	-24.0	17.9	0.00e+00	0	44	0	2940207104	7	3769
2026-01-03 16:09:06.90	296.86	24.05	-23.7	-24.2	17.8	0.00e+00	0	44	0	2947547136	7	3800
2026-01-03 16:09:07.91	297.12	23.98	-23.6	-24.1	17.9	0.00e+00	0	44	0	2954887168	7	3778
2026-01-03 16:09:08.91	297.37	23.91	-23.6	-24.1	17.9	0.00e+00	0	43	0	2961178624	7	3773
2026-01-03 16:09:09.92	297.63	23.84	-23.7	-24.1	17.8	0.00e+00	0	44	0	2968518656	7	3788
2026-01-03 16:09:10.92	297.88	23.77	-23.5	-23.8	18.0	0.00e+00	0	44	0	2975858688	7	3722
2026-01-03 16:09:11.93	298.13	23.70	-23.5	-23.7	18.0	0.00e+00	0	44	0	2983198720	7	3688
2026-01-03 16:09:12.93	298.38	23.63	-23.5	-23.7	18.0	0.00e+00	0	44	0	2990538752	7	3691
2026-01-03 16:09:13.93	298.62	23.56	-23.6	-23.9	17.9	0.00e+00	0	43	0	2997878784	7	3739
2026-01-03 16:09:14.94	298.87	23.49	-23.8	-24.4	17.7	0.00e+00	0	44	0	3005218816	7	3855
2026-01-03 16:09:15.94	299.12	23.41	-23.8	-24.3	17.7	0.00e+00	0	44	0	3012558848	7	3828
2026-01-03 16:09:16.95	299.36	23.34	-23.8	-24.3	17.7	0.00e+00	0	44	0	3019898880	7	3837
2026-01-03 16:09:17.96	299.61	23.27	-23.9	-24.7	17.5	0.00e+00	0	44	0	3027238912	7	3917
2026-01-03 16:09:18.96	299.85	23.20	-23.9	-24.5	17.6	0.00e+00	0	44	0	3034578944	7	3884
2026-01-03 16:09:19.97	300.09	23.12	-23.9	-24.6	17.6	0.00e+00	0	44	0	3041918976	7	3894
2026-01-03 16:09:20.98	300.34	23.05	-23.8	-24.4	17.7	0.00e+00	0	44	0	3049259008	7	3848
2026-01-03 16:09:21.99	300.58	22.98	-24.0	-24.7	17.5	0.00e+00	0	44	0	3056599040	7	3927
2026-01-03 16:09:23.00	300.82	22.90	-23.8	-24.4	17.7	0.00e+00	0	44	0	3063939072	7	3848
2026-01-03 16:09:24.01	301.06	22.83	-23.8	-24.4	17.6	0.00e+00	0	44	0	3070230528	7	3860
2026-01-03 16:09:25.02	301.29	22.75	-23.9	-24.6	17.6	0.00e+00	0	44	0	3077570560	7	3888
2026-01-03 16:09:26.02	301.53	22.68	-23.9	-24.5	17.6	0.00e+00	0	44	0	3084910592	7	3886
2026-01-03 16:09:27.03	301.76	22.60	-24.0	-24.7	17.5	0.00e+00	0	44	0	3092250624	7	3934
2026-01-03 16:09:28.03	302.00	22.53	-24.0	-24.8	17.5	0.00e+00	0	44	0	3099590656	7	3957
2026-01-03 16:09:29.04	302.23	22.45	-24.0	-24.9	17.4	0.00e+00	0	44	0	3106930688	7	3962
2026-01-03 16:09:30.04	302.46	22.38	-24.2	-24.7	17.2	0.00e+00	0	44	0	3114270720	8	3831
2026-01-03 16:09:31.05	302.69	22.30	-24.4	-25.2	17.0	0.00e+00	0	44	0	3121610752	8	3933
2026-01-03 16:09:32.06	302.92	22.22	-24.2	-24.7	17.2	0.00e+00	0	44	0	3128950784	8	3830
2026-01-03 16:09:33.06	303.14	22.15	-24.0	-24.3	17.5	0.00e+00	0	44	0	3136290816	8	3729
2026-01-03 16:09:34.07	303.37	22.07	-24.0	-24.3	17.5	0.00e+00	0	44	0	3143630848	8	3726
2026-01-03 16:09:35.08	303.60	21.99	-24.1	-24.4	17.4	0.00e+00	0	44	0	3149922304	8	3754
2026-01-03 16:09:36.08	303.82	21.92	-23.9	-24.1	17.6	0.00e+00	0	44	0	3158310912	8	3682
2026-01-03 16:09:37.08	304.04	21.84	-24.0	-24.3	17.5	0.00e+00	0	44	0	3165650944	8	3724
2026-01-03 16:09:38.09	304.27	21.76	-23.9	-24.0	17.7	0.00e+00	0	43	0	3171942400	8	3652
2026-01-03 16:09:39.09	304.49	21.69	-23.9	-24.1	17.6	0.00e+00	0	44	0	3179282432	8	3672
2026-01-03 16:09:40.10	304.71	21.61	-24.0	-24.3	17.4	0.00e+00	0	44	0	3186622464	8	3732
2026-01-03 16:09:41.11	304.93	21.53	-24.0	-24.4	17.4	0.00e+00	0	44	0	3193962496	8	3737
2026-01-03 16:09:42.11	305.14	21.45	-24.2	-24.8	17.2	0.00e+00	0	44	0	3201302528	8	3838
2026-01-03 16:09:43.11	305.36	21.37	-24.4	-25.1	17.1	0.00e+00	0	44	0	3208642560	8	3904
2026-01-03 16:09:44.12	305.58	21.29	-24.3	-25.0	17.1	0.00e+00	0	44	0	3215982592	8	3888
2026-01-03 16:09:45.12	305.79	21.22	-24.4	-25.1	17.0	0.00e+00	0	44	0	3223322624	8	3912
2026-01-03 16:09:46.13	306.00	21.14	-24.4	-25.1	17.1	0.00e+00	0	44	0	3230662656	8	3901
2026-01-03 16:09:47.13	306.22	21.06	-24.4	-25.2	17.0	0.00e+00	0	44	0	3238002688	8	3930
2026-01-03 16:09:48.14	306.43	20.98	-24.4	-25.1	17.0	0.00e+00	0	44	0	3245342720	8	3906
2026-01-03 16:09:49.15	306.64	20.90	-24.4	-25.2	17.0	0.00e+00	0	44	0	3252682752	8	3944
2026-01-03 16:09:50.15	306.85	20.82	-24.3	-25.0	17.1	0.00e+00	0	44	0	3258974208	8	3897
2026-01-03 16:09:51.15	307.06	20.74	-24.4	-25.2	17.0	0.00e+00	0	44	0	3266314240	8	3934
2026-01-03 16:09:52.16	307.26	20.66	-24.3	-24.9	17.1	0.00e+00	0	44	0	3273654272	8	3875
2026-01-03 16:09:53.16	307.47	20.58	-24.2	-24.8	17.2	0.00e+00	0	44	0	3280994304	8	3841
2026-01-03 16:09:54.17	307.67	20.50	-24.3	-24.8	17.1	0.00e+00	0	44	0	3288334336	8	3847
2026-01-03 16:09:55.17	307.88	20.42	-24.2	-24.8	17.1	0.00e+00	0	44	0	3295674368	8	3843
2026-01-03 16:09:56.18	308.08	20.34	-24.3	-24.9	17.1	0.00e+00	0	44	0	3303014400	8	3866
2026-01-03 16:09:57.18	308.28	20.26	-24.3	-25.0	17.0	0.00e+00	0	44	0	3310354432	8	3890
2026-01-03 16:09:58.18	308.48	20.18	-24.4	-25.0	17.0	0.00e+00	0	44	0	3317694464	8	3896
2026-01-03 16:09:59.19	308.68	20.10	-24.4	-25.1	17.0	0.00e+00	0	44	0	3325034496	8	3905
2026-01-03 16:10:00.19	308.88	20.02	-24.3	-25.0	17.0	0.00e+00	0	44	0	3332374528	8	3895
2026-01-03 16:10:01.19	309.08	19.94	-24.5	-25.3	16.9	0.00e+00	0	43	0	3339714560	8	3956
2026-01-03 16:10:02.20	309.28	19.86	-24.7	-25.2	16.7	0.00e+00	0	44	0	3346006016	9	3831
2026-01-03 16:10:03.21	309.47	19.78	-24.9	-25.7	16.4	0.00e+00	0	43	0	3353346048	9	3942
2026-01-03 16:10:04.22	309.67	19.70	-24.8	-25.5	16.5	0.00e+00	0	44	0	3360686080	9	3895
2026-01-03 16:10:05.22	309.86	19.62	-24.9	-25.7	16.4	0.00e+00	0	43	0	3368026112	9	3961
2026-01-03 16:10:06.23	310.05	19.54	-25.0	-25.9	16.3	0.00e+00	0	44	0	3375366144	9	4004
2026-01-03 16:10:07.24	310.25	19.46	-25.0	-26.0	16.2	0.00e+00	0	44	0	3382706176	9	4037
2026-01-03 16:10:08.24	310.44	19.38	-25.1	-25.6	16.2	0.00e+00	0	43	0	3390046208	10	3828
2026-01-03 16:10:09.25	310.63	19.29	-24.9	-25.2	16.4	0.00e+00	0	44	0	3397386240	10	3737
2026-01-03 16:10:10.26	310.82	19.21	-24.8	-25.0	16.5	0.00e+00	0	44	0	3404726272	10	3689
2026-01-03 16:10:11.27	311.01	19.13	-24.8	-25.0	16.5	0.00e+00	0	44	0	3412066304	10	3687
2026-01-03 16:10:12.27	311.19	19.05	-24.8	-25.0	16.5	0.00e+00	0	44	0	3419406336	10	3693
2026-01-03 16:10:13.28	311.38	18.97	-24.6	-24.5	16.8	0.00e+00	0	44	0	3426746368	10	3573
2026-01-03 16:10:14.28	311.56	18.89	-24.5	-24.3	16.9	0.00e+00	0	44	0	3434086400	10	3525
2026-01-03 16:10:15.29	311.75	18.81	-24.5	-24.4	16.8	0.00e+00	0	44	0	3441426432	10	3550
2026-01-03 16:10:16.29	311.93	18.73	-24.6	-24.5	16.7	0.00e+00	0	44	0	3447717888	10	3581
2026-01-03 16:10:17.30	312.11	18.65	-24.6	-24.5	16.7	0.00e+00	0	44	0	3455057920	10	3578
2026-01-03 16:10:18.31	312.30	18.56	-24.6	-24.6	16.6	0.00e+00	0	44	0	3462397952	10	3606
2026-01-03 16:10:19.32	312.48	18.48	-24.6	-24.6	16.6	0.00e+00	0	44	0	3469737984	10	3602
2026-01-03 16:10:20.32	312.66	18.40	-24.8	-24.9	16.5	0.00e+00	0	44	0	3477078016	10	3673
2026-01-03 16:10:21.33	312.83	18.32	-24.9	-25.2	16.4	0.00e+00	0	44	0	3484418048	10	3728
2026-01-03 16:10:22.34	313.01	18.24	-25.0	-25.5	16.2	0.00e+00	0	44	0	3491758080	10	3795
2026-01-03 16:10:23.34	313.19	18.16	-25.1	-25.6	16.1	0.00e+00	0	44	0	3499098112	10	3829
2026-01-03 16:10:24.35	313.36	18.08	-25.4	-26.2	15.8	0.00e+00	0	44	0	3506438144	10	3982
2026-01-03 16:10:25.36	313.54	18.00	-25.4	-26.3	15.8	0.00e+00	0	44	0	3513778176	10	3992
2026-01-03 16:10:26.36	313.71	17.92	-25.5	-26.0	15.6	0.00e+00	0	43	0	3521118208	11	3826
2026-01-03 16:10:27.37	313.89	17.83	-25.4	-25.8	15.8	0.00e+00	0	44	0	3528458240	11	3765
2026-01-03 16:10:28.37	314.06	17.75	-25.2	-25.4	16.0	0.00e+00	0	43	0	3534749696	11	3689
2026-01-03 16:10:29.38	314.23	17.67	-25.2	-25.5	16.0	0.00e+00	0	44	0	3543138304	11	3695
2026-01-03 16:10:30.39	314.40	17.59	-25.2	-25.4	16.0	0.00e+00	0	44	0	3550478336	11	3675
2026-01-03 16:10:31.39	314.57	17.51	-25.1	-25.0	16.2	0.00e+00	0	44	0	3556769792	11	3597
2026-01-03 16:10:32.40	314.74	17.43	-25.0	-25.0	16.2	0.00e+00	0	44	0	3564109824	11	3586
2026-01-03 16:10:33.41	314.91	17.35	-24.9	-25.2	16.4	0.00e+00	0	44	0	3571449856	10	3722
2026-01-03 16:10:34.41	315.07	17.27	-24.8	-25.0	16.5	0.00e+00	0	43	0	3578789888	10	3677
2026-01-03 16:10:35.42	315.24	17.19	-24.8	-25.0	16.5	0.00e+00	0	44	0	3586129920	10	3684
2026-01-03 16:10:36.43	315.41	17.11	-24.8	-25.0	16.5	0.00e+00	0	44	0	3593469952	10	3684
2026-01-03 16:10:37.44	315.57	17.02	-24.7	-24.7	16.6	0.00e+00	0	44	0	3600809984	10	3618
2026-01-03 16:10:38.44	315.73	16.94	-24.7	-24.8	16.6	0.00e+00	0	44	0	3608150016	10	3639
2026-01-03 16:10:39.45	315.90	16.86	-24.7	-24.9	16.5	0.00e+00	0	43	0	3615490048	10	3654
2026-01-03 16:10:40.46	316.06	16.78	-24.7	-24.9	16.5	0.00e+00	0	44	0	3622830080	10	3655
2026-01-03 16:10:41.47	316.22	16.70	-24.8	-25.0	16.4	0.00e+00	0	43	0	3630170112	10	3698
2026-01-03 16:10:42.47	316.38	16.62	-24.8	-25.1	16.4	0.00e+00	0	44	0	3636461568	10	3709
2026-01-03 16:10:43.48	316.54	16.54	-25.0	-25.4	16.2	0.00e+00	0	44	0	3644850176	10	3776
2026-01-03 16:10:44.49	316.70	16.46	-25.2	-25.8	16.0	0.00e+00	0	44	0	3652190208	10	3875
2026-01-03 16:10:45.49	316.85	16.38	-25.4	-26.2	15.7	0.00e+00	0	44	0	3658481664	10	3979
2026-01-03 16:10:46.50	317.01	16.30	-25.5	-26.6	15.6	0.00e+00	0	44	0	3665821696	10	4062
2026-01-03 16:10:47.50	317.17	16.22	-25.6	-26.3	15.4	0.00e+00	0	44	0	3673161728	11	3896
2026-01-03 16:10:48.51	317.32	16.14	-25.6	-26.4	15.4	0.00e+00	0	44	0	3680501760	11	3908
2026-01-03 16:10:49.52	317.48	16.06	-25.7	-26.5	15.3	0.00e+00	0	44	0	3687841792	11	3937
2026-01-03 16:10:50.53	317.63	15.98	-25.8	-26.6	15.2	0.00e+00	0	44	0	3695181824	11	3970
2026-01-03 16:10:51.53	317.78	15.90	-25.8	-26.7	15.2	0.00e+00	0	43	0	3702521856	11	3989
2026-01-03 16:10:52.54	317.94	15.82	-25.9	-26.9	15.1	0.00e+00	0	44	0	3709861888	11	4033
2026-01-03 16:10:53.54	318.09	15.74	-25.8	-26.7	15.2	0.00e+00	0	44	0	3717201920	11	4002
2026-01-03 16:10:54.54	318.24	15.66	-25.7	-26.4	15.4	0.00e+00	0	44	0	3724541952	11	3921
2026-01-03 16:10:55.54	318.38	15.58	-25.6	-26.2	15.5	0.00e+00	0	44	0	3731881984	11	3879
2026-01-03 16:10:56.54	318.53	15.50	-25.5	-26.1	15.5	0.00e+00	0	44	0	3739222016	11	3848
2026-01-03 16:10:57.55	318.68	15.42	-25.4	-25.9	15.6	0.00e+00	0	44	0	3745513472	11	3803
2026-01-03 16:10:58.55	318.83	15.34	-25.5	-26.0	15.6	0.00e+00	0	44	0	3752853504	11	3821
2026-01-03 16:10:59.56	318.97	15.27	-25.4	-25.8	15.7	0.00e+00	0	44	0	3760193536	11	3774
2026-01-03 16:11:00.56	319.12	15.19	-25.2	-25.4	15.9	0.00e+00	0	44	0	3767533568	11	3680
2026-01-03 16:11:01.57	319.27	15.11	-25.1	-25.2	16.0	0.00e+00	0	44	0	3774873600	11	3628
2026-01-03 16:11:02.58	319.41	15.03	-25.2	-25.3	16.0	0.00e+00	0	44	0	3782213632	11	3659
2026-01-03 16:11:03.58	319.55	14.95	-25.2	-25.4	15.9	0.00e+00	0	43	0	3789553664	11	3669
2026-01-03 16:11:04.59	319.70	14.87	-25.3	-25.5	15.8	0.00e+00	0	43	0	3796893696	11	3702
2026-01-03 16:11:05.60	319.84	14.79	-25.4	-25.7	15.7	0.00e+00	0	44	0	3804233728	11	3757
2026-01-03 16:11:06.60	319.98	14.71	-25.4	-25.7	15.7	0.00e+00	0	44	0	3811573760	11	3759
2026-01-03 16:11:07.61	320.12	14.63	-25.4	-25.9	15.6	0.00e+00	0	44	0	3818913792	11	3790
2026-01-03 16:11:08.61	320.26	14.56	-25.5	-26.0	15.5	0.00e+00	0	43	0	3826253824	11	3828
2026-01-03 16:11:09.62	320.40	14.48	-25.6	-26.2	15.4	0.00e+00	0	43	0	3832545280	11	3879
2026-01-03 16:11:10.63	320.54	14.40	-25.7	-26.4	15.3	0.00e+00	0	44	0	3840933888	11	3926
2026-01-03 16:11:11.64	320.68	14.32	-25.7	-26.5	15.2	0.00e+00	0	44	0	3848273920	11	3952
2026-01-03 16:11:12.65	320.82	14.24	-25.8	-26.6	15.2	0.00e+00	0	43	0	3854565376	11	3969
2026-01-03 16:11:13.66	320.95	14.16	-25.8	-26.8	15.1	0.00e+00	0	44	0	3861905408	11	4011
2026-01-03 16:11:14.67	321.09	14.09	-25.9	-27.0	15.0	0.00e+00	0	44	0	3869245440	11	4073
2026-01-03 16:11:15.68	321.22	14.01	-25.9	-26.9	15.0	0.00e+00	0	43	0	3876585472	11	4052
2026-01-03 16:11:16.68	321.36	13.93	-26.0	-27.1	14.9	1.10e-06	0	44	0	3883925504	11	4095
2026-01-03 16:11:17.68	321.49	13.85	-25.9	-27.0	15.0	0.00e+00	0	44	0	3891265536	11	4071
2026-01-03 16:11:18.68	321.62	13.78	-25.9	-26.8	15.1	0.00e+00	0	43	0	3898605568	11	4014
2026-01-03 16:11:19.69	321.76	13.70	-25.8	-26.8	15.1	0.00e+00	0	44	0	3905945600	11	4019
2026-01-03 16:11:20.70	321.89	13.62	-25.9	-26.8	15.1	0.00e+00	0	44	0	3913285632	11	4016
2026-01-03 16:11:21.71	322.02	13.55	-25.8	-26.6	15.2	0.00e+00	0	43	0	3920625664	11	3965
2026-01-03 16:11:22.72	322.15	13.47	-25.9	-26.9	15.0	0.00e+00	0	44	0	3927965696	11	4035
2026-01-03 16:11:23.71	322.28	13.39	-25.8	-26.7	15.1	0.00e+00	0	44	0	3934257152	11	3999
2026-01-03 16:11:24.73	322.41	13.32	-25.7	-26.5	15.2	0.00e+00	0	44	0	3941597184	11	3946
2026-01-03 16:11:25.72	322.54	13.24	-25.8	-26.6	15.2	0.00e+00	0	44	0	3948937216	11	3975
2026-01-03 16:11:26.73	322.66	13.16	-25.8	-26.6	15.2	0.00e+00	0	44	0	3956277248	11	3969
2026-01-03 16:11:27.73	322.79	13.09	-25.8	-26.6	15.1	0.00e+00	0	44	0	3963617280	11	3978
2026-01-03 16:11:28.73	322.92	13.01	-25.9	-26.9	15.0	0.00e+00	0	44	0	3970957312	11	4044
2026-01-03 16:11:29.74	323.04	12.94	-25.8	-26.8	15.1	0.00e+00	0	44	0	3978297344	11	4014
2026-01-03 16:11:30.74	323.17	12.86	-25.8	-26.7	15.1	0.00e+00	0	44	0	3985637376	11	3993
2026-01-03 16:11:31.74	323.29	12.78	-25.8	-26.7	15.1	0.00e+00	0	44	0	3992977408	11	4001
2026-01-03 16:11:32.74	323.41	12.71	-25.8	-26.7	15.1	0.00e+00	0	44	0	4000317440	11	3989
2026-01-03 16:11:33.75	323.54	12.63	-25.9	-26.8	15.0	0.00e+00	0	44	0	4007657472	11	4025
2026-01-03 16:11:34.76	323.66	12.56	-26.0	-27.2	14.8	0.00e+00	0	44	0	4014997504	11	4109
2026-01-03 16:11:35.76	323.78	12.48	-25.9	-26.5	14.8	1.10e-06	0	44	0	4021288960	12	3849
2026-01-03 16:11:36.76	323.90	12.41	-25.8	-26.3	14.9	0.00e+00	0	44	0	4028628992	12	3800
2026-01-03 16:11:37.77	324.03	12.33	-25.8	-26.3	15.0	0.00e+00	0	44	0	4035969024	12	3787
2026-01-03 16:11:38.77	324.15	12.26	-25.8	-26.3	14.9	0.00e+00	0	44	0	4043309056	12	3796
2026-01-03 16:11:39.78	324.27	12.18	-25.8	-26.3	14.9	0.00e+00	0	44	0	4050649088	12	3794
2026-01-03 16:11:40.78	324.38	12.11	-25.9	-26.4	14.9	0.00e+00	0	44	0	4057989120	12	3833
2026-01-03 16:11:41.79	324.50	12.03	-25.9	-26.6	14.8	0.00e+00	0	44	0	4065329152	12	3861
2026-01-03 16:11:42.79	324.62	11.96	-26.0	-26.7	14.8	1.10e-06	0	43	0	4072669184	12	3891
2026-01-03 16:11:43.80	324.74	11.88	-25.9	-26.5	14.8	0.00e+00	0	43	0	4080009216	12	3853
2026-01-03 16:11:44.80	324.86	11.81	-26.0	-26.6	14.8	0.00e+00	0	43	0	4087349248	12	3864
2026-01-03 16:11:45.81	324.97	11.74	-26.0	-26.7	14.7	0.00e+00	0	44	0	4094689280	12	3911
2026-01-03 16:11:46.81	325.09	11.66	-26.0	-26.7	14.7	0.00e+00	0	44	0	4100980736	12	3907
2026-01-03 16:11:47.82	325.20	11.59	-26.3	-27.3	14.3	1.10e-06	0	43	0	4108320768	12	4045
2026-01-03 16:11:48.83	325.32	11.51	-26.2	-27.1	14.5	0.00e+00	0	44	0	4115660800	12	4003
2026-01-03 16:11:49.83	325.43	11.44	-26.1	-26.8	14.6	0.00e+00	0	44	0	4123000832	12	3935
2026-01-03 16:11:50.84	325.55	11.37	-26.1	-26.9	14.6	0.00e+00	0	44	0	4130340864	12	3937
2026-01-03 16:11:51.84	325.66	11.29	-26.1	-26.9	14.6	0.00e+00	0	44	0	4137680896	12	3962
2026-01-03 16:11:52.84	325.77	11.22	-26.2	-27.2	14.4	0.00e+00	0	44	0	4145020928	12	4016
2026-01-03 16:11:53.85	325.88	11.15	-26.2	-27.2	14.4	3.40e-06	0	44	0	4152360960	12	4024
2026-01-03 16:11:54.86	326.00	11.07	-26.2	-27.2	14.4	2.20e-06	0	44	0	4159700992	12	4025
2026-01-03 16:11:55.87	326.11	11.00	-26.3	-27.4	14.3	3.40e-06	0	44	0	4167041024	12	4066
2026-01-03 16:11:56.88	326.22	10.93	-26.3	-27.4	14.2	2.20e-06	0	44	0	4174381056	12	4071
2026-01-03 16:11:57.88	326.33	10.86	-26.4	-27.7	14.1	2.20e-06	0	44	0	4181721088	12	4154
2026-01-03 16:11:58.88	326.44	10.78	-26.5	-27.8	14.0	2.20e-06	0	44	0	4189061120	12	4185
2026-01-03 16:11:59.88	326.54	10.71	-26.5	-27.8	14.0	4.50e-06	0	44	0	4196401152	12	4186
2026-01-03 16:12:00.89	326.65	10.64	-26.6	-27.6	13.8	1.10e-06	0	44	0	4203741184	13	4014
2026-01-03 16:12:01.90	326.76	10.57	-26.6	-27.4	13.9	5.70e-06	0	44	0	4210032640	13	3977
2026-01-03 16:12:02.90	326.87	10.49	-26.6	-27.6	13.8	1.10e-06	0	44	0	4217372672	13	4024
2026-01-03 16:12:03.91	326.98	10.42	-26.6	-27.6	13.8	6.80e-06	0	43	0	4224712704	13	4028
2026-01-03 16:12:04.92	327.08	10.35	-26.7	-27.8	13.7	3.40e-06	0	44	0	4232052736	13	4071
2026-01-03 16:12:05.92	327.19	10.28	-26.7	-27.7	13.8	1.10e-06	0	44	0	4239392768	13	4049
2026-01-03 16:12:06.93	327.29	10.21	-26.8	-27.9	13.6	9.10e-06	0	43	0	4246732800	13	4098
2026-01-03 16:12:07.94	327.40	10.14	-26.9	-28.2	13.5	9.10e-06	0	44	0	4254072832	13	4181
2026-01-03 16:12:08.95	327.50	10.06	-26.8	-28.1	13.5	1.37e-05	0	44	0	4261412864	13	4155
2026-01-03 16:12:09.95	327.61	9.99	-27.0	-28.4	13.4	1.71e-05	0	43	0	4268752896	13	4232
2026-01-03 16:12:10.96	327.71	9.92	-26.8	-28.0	13.6	2.17e-05	0	44	0	4276092928	13	4124
2026-01-03 16:12:11.96	327.81	9.85	-26.9	-28.3	13.4	1.14e-05	0	44	0	4283432960	13	4209
2026-01-03 16:12:12.96	327.91	9.78	-26.8	-28.0	13.5	1.02e-05	0	44	0	4289724416	13	4142
2026-01-03 16:12:13.96	328.02	9.71	-26.7	-27.7	13.7	6.80e-06	0	44	0	4297064448	13	4049
2026-01-03 16:12:14.96	328.12	9.64	-26.7	-27.7	13.7	8.00e-06	0	44	0	4304404480	13	4047
2026-01-03 16:12:15.97	328.22	9.57	-26.6	-27.6	13.8	4.50e-06	0	44	0	4311744512	13	4024
2026-01-03 16:12:16.98	328.32	9.50	-26.7	-27.8	13.7	8.00e-06	0	44	0	4319084544	13	4071
2026-01-03 16:12:17.98	328.42	9.43	-26.6	-27.6	13.8	8.00e-06	0	44	0	4326424576	13	4022
2026-01-03 16:12:18.99	328.52	9.36	-26.6	-27.5	13.8	4.50e-06	0	44	0	4333764608	13	4008
2026-01-03 16:12:19.99	328.62	9.29	-26.6	-27.6	13.7	1.25e-05	0	44	0	4341104640	13	4027
2026-01-03 16:12:20.99	328.72	9.22	-26.6	-27.5	13.8	9.10e-06	0	44	0	4348444672	13	3996
2026-01-03 16:12:21.99	328.81	9.15	-26.7	-27.7	13.7	2.20e-06	0	44	0	4355784704	13	4056
2026-01-03 16:12:23.00	328.91	9.08	-26.6	-27.6	13.7	5.70e-06	0	44	0	4363124736	13	4028
2026-01-03 16:12:24.00	329.01	9.01	-26.7	-27.7	13.7	4.50e-06	0	44	0	4370464768	13	4043
2026-01-03 16:12:25.00	329.11	8.94	-26.7	-27.8	13.6	5.70e-06	0	44	0	4376756224	13	4087
2026-01-03 16:12:26.01	329.20	8.87	-26.9	-28.3	13.3	1.83e-05	0	44	0	4384096256	13	4202
2026-01-03 16:12:27.01	329.30	8.81	-26.8	-28.1	13.4	1.14e-05	0	44	0	4391436288	13	4164
2026-01-03 16:12:28.02	329.39	8.74	-26.8	-28.0	13.5	1.94e-05	0	44	0	4398776320	13	4144
2026-01-03 16:12:29.03	329.49	8.67	-26.9	-28.2	13.3	2.05e-05	0	44	0	4406116352	13	4190
2026-01-03 16:12:30.03	329.58	8.60	-26.8	-28.1	13.4	1.94e-05	0	44	0	4413456384	13	4159
2026-01-03 16:12:31.04	329.68	8.53	-27.0	-28.4	13.2	1.71e-05	0	44	0	4420796416	13	4234
2026-01-03 16:12:32.04	329.77	8.46	-26.9	-28.2	13.4	2.63e-05	0	44	0	4428136448	13	4177
2026-01-03 16:12:33.05	329.87	8.39	-26.9	-28.3	13.3	1.25e-05	0	44	0	4435476480	13	4208
2026-01-03 16:12:34.06	329.96	8.33	-26.8	-28.0	13.4	8.00e-06	0	44	0	4442816512	13	4132
2026-01-03 16:12:35.06	330.05	8.26	-26.7	-27.9	13.5	1.14e-05	0	44	0	4450156544	13	4103
2026-01-03 16:12:36.07	330.15	8.19	-26.8	-28.1	13.4	1.60e-05	0	44	0	4457496576	13	4155
2026-01-03 16:12:37.07	330.24	8.12	-26.8	-28.1	13.4	1.71e-05	0	44	0	4463788032	13	4162
2026-01-03 16:12:38.08	330.33	8.05	-26.7	-27.8	13.5	9.10e-06	0	44	0	4472176640	13	4095
2026-01-03 16:12:39.08	330.42	7.99	-26.7	-27.9	13.5	1.37e-05	0	44	0	4479516672	13	4106
2026-01-03 16:12:40.09	330.51	7.92	-26.9	-28.2	13.3	2.17e-05	0	44	0	4485808128	13	4192
2026-01-03 16:12:41.10	330.60	7.85	-26.8	-27.9	13.4	1.60e-05	0	44	0	4493148160	13	4119
2026-01-03 16:12:42.10	330.69	7.79	-26.7	-27.7	13.5	1.60e-05	0	44	0	4500488192	13	4065
2026-01-03 16:12:43.11	330.78	7.72	-26.7	-27.7	13.5	1.02e-05	0	44	0	4507828224	13	4062
2026-01-03 16:12:44.11	330.87	7.65	-26.6	-27.6	13.6	1.48e-05	0	44	0	4515168256	13	4037
2026-01-03 16:12:45.11	330.96	7.59	-26.6	-27.7	13.5	1.25e-05	0	44	0	4522508288	13	4047
2026-01-03 16:12:46.12	331.05	7.52	-26.7	-27.8	13.5	8.00e-06	0	44	0	4529848320	13	4078
2026-01-03 16:12:47.13	331.13	7.45	-26.6	-27.7	13.5	6.80e-06	0	44	0	4537188352	13	4067
2026-01-03 16:12:48.14	331.22	7.38	-26.6	-27.6	13.5	1.37e-05	0	43	0	4544528384	13	4044
2026-01-03 16:12:49.14	331.31	7.32	-26.8	-28.1	13.3	1.94e-05	0	44	0	4551868416	13	4157
2026-01-03 16:12:50.15	331.40	7.25	-26.8	-28.0	13.3	2.17e-05	0	44	0	4559208448	13	4141
2026-01-03 16:12:51.16	331.48	7.19	-26.8	-27.9	13.3	2.05e-05	0	44	0	4565499904	13	4118
2026-01-03 16:12:52.17	331.57	7.12	-26.8	-28.1	13.3	2.51e-05	0	44	0	4572839936	13	4173
2026-01-03 16:12:53.18	331.66	7.05	-33.1	-43.0	3.8	8.45e-01	0	44	104	4574937088	25	11239
2026-01-03 16:12:54.18	331.74	6.99	-33.3	-43.0	3.8	8.46e-01	0	44	104	4574937088	26	10932
2026-01-03 16:12:55.19	331.83	6.92	-33.5	-43.2	3.8	8.45e-01	0	44	104	4574937088	26	11028
2026-01-03 16:12:56.20	331.91	6.86	-33.7	-43.1	3.8	8.46e-01	0	44	104	4574937088	27	10704

#Closed at: 2026-01-03 16:12:57
#Recorded file [4574 MB]: D:/data/31010_260103_190218.dat