passes_logs/2026/01/03/R2M6_AANII_01/R2M6_AANII_01__20260103_124217_FENGYUN_3E_rec.log

#Pass ID: 20260103_124217_FENGYUN 3E
#Satellite: FENGYUN 3E
#Configuration: FENGYUN 3E
#almurnet v.1.7.20240730
#Start time: 2026-01-03 12:45:56

#Version: 2.2.20231116
#Station: R2M6_AANII_01
#Location: 30.233357 lon 59.946436 lat
#TLE: 1 49008U 21062A   26002.32147302  .00000239  00000+0  13357-3 0  9999
#TLE: 2 49008  98.7477   7.5995 0001398 164.3382 195.7838 14.19884140233041

#Time	Az	El	Level	Level2	SNR	BER	BlckErr	Temp	State	Recorded	gain1	gain2
2026-01-03 12:45:56.04	66.85	21.75	-33.5	-44.9	3.8	8.45e-01	0	43	0	0	26	13497
2026-01-03 12:45:57.05	66.60	21.80	-33.9	-43.2	3.8	8.45e-01	0	43	104	0	28	10469
2026-01-03 12:45:58.05	66.35	21.85	-34.0	-43.3	3.8	8.47e-01	0	43	104	0	28	10532
2026-01-03 12:45:59.05	66.10	21.90	-34.0	-43.3	3.8	8.46e-01	0	43	104	0	28	10504
2026-01-03 12:46:00.05	65.85	21.95	-34.0	-43.4	3.8	8.46e-01	0	43	104	0	28	10598
2026-01-03 12:46:01.06	65.60	22.00	-34.0	-43.4	3.8	8.46e-01	0	43	104	0	28	10585
2026-01-03 12:46:02.07	65.35	22.05	-34.0	-43.5	3.8	8.45e-01	0	43	104	0	28	10647
2026-01-03 12:46:03.07	65.10	22.09	-34.1	-43.5	3.8	8.47e-01	0	43	104	0	28	10638
2026-01-03 12:46:04.08	64.84	22.14	-34.1	-43.3	3.8	8.46e-01	0	43	104	0	28	10489
2026-01-03 12:46:05.08	64.59	22.19	-34.0	-43.4	3.8	8.46e-01	0	43	104	0	28	10580
2026-01-03 12:46:06.08	64.33	22.24	-34.1	-43.5	3.8	8.47e-01	0	43	104	0	28	10671
2026-01-03 12:46:07.09	64.08	22.28	-34.1	-43.5	3.8	8.46e-01	0	43	104	0	28	10631
2026-01-03 12:46:08.09	63.82	22.33	-34.1	-43.5	3.8	8.45e-01	0	43	104	0	28	10617
2026-01-03 12:46:09.10	63.56	22.37	-34.1	-43.5	3.8	8.47e-01	0	44	104	0	28	10644
2026-01-03 12:46:10.11	63.30	22.42	-34.0	-43.4	3.8	8.47e-01	0	43	104	0	28	10612
2026-01-03 12:46:11.11	63.05	22.46	-34.0	-43.4	3.8	8.46e-01	0	43	104	0	28	10622
2026-01-03 12:46:12.12	62.79	22.51	-34.1	-43.4	3.8	8.46e-01	0	43	104	0	28	10562
2026-01-03 12:46:13.12	62.53	22.55	-34.1	-43.6	3.8	8.46e-01	0	43	104	0	28	10713
2026-01-03 12:46:14.12	62.27	22.59	-34.0	-43.5	3.8	8.46e-01	0	43	104	0	28	10670
2026-01-03 12:46:15.13	62.00	22.63	-34.1	-43.5	3.8	8.47e-01	0	43	104	0	28	10616
2026-01-03 12:46:16.13	61.74	22.67	-34.1	-43.6	3.8	8.46e-01	0	43	104	0	28	10727
2026-01-03 12:46:17.14	61.48	22.72	-34.1	-43.6	3.8	8.46e-01	0	43	104	0	28	10732
2026-01-03 12:46:18.14	61.22	22.76	-34.1	-43.5	3.8	8.47e-01	0	43	104	0	28	10680
2026-01-03 12:46:19.15	60.95	22.80	-34.1	-43.5	3.8	8.45e-01	0	43	104	0	28	10632
2026-01-03 12:46:20.15	60.69	22.83	-34.0	-43.5	3.8	8.45e-01	0	43	104	0	28	10640
2026-01-03 12:46:21.16	60.42	22.87	-34.0	-43.4	3.8	8.46e-01	0	43	104	0	28	10627
2026-01-03 12:46:22.17	60.15	22.91	-34.0	-43.4	3.8	8.45e-01	0	43	104	0	28	10605
2026-01-03 12:46:23.17	59.89	22.95	-34.0	-43.3	3.8	8.46e-01	0	44	104	0	28	10537
2026-01-03 12:46:24.18	59.62	22.98	-33.9	-43.2	3.8	8.46e-01	0	43	104	0	28	10491
2026-01-03 12:46:25.19	59.35	23.02	-33.9	-43.1	3.8	8.46e-01	0	43	104	0	28	10397
2026-01-03 12:46:26.20	59.08	23.06	-33.7	-42.4	3.8	8.45e-01	0	43	104	0	28	9808
2026-01-03 12:46:27.20	58.81	23.09	-33.7	-42.6	3.8	8.47e-01	0	44	104	0	28	10023
2026-01-03 12:46:28.21	58.54	23.13	-33.7	-42.4	3.8	8.47e-01	0	43	104	0	28	9912
2026-01-03 12:46:29.22	58.27	23.16	-33.6	-42.3	3.8	8.47e-01	0	43	104	0	28	9745
2026-01-03 12:46:30.22	58.00	23.19	-33.6	-42.1	3.8	8.45e-01	0	43	104	0	28	9620
2026-01-03 12:46:31.23	57.72	23.22	-33.6	-41.8	3.8	8.45e-01	0	44	104	0	28	9332
2026-01-03 12:46:32.24	57.45	23.26	-33.5	-41.3	3.8	8.46e-01	0	44	104	0	28	8863
2026-01-03 12:46:33.25	57.17	23.29	-33.5	-41.0	3.8	8.45e-01	0	44	104	0	28	8563
2026-01-03 12:46:34.26	56.90	23.32	-33.5	-41.0	3.9	8.46e-01	0	44	104	0	28	8570
2026-01-03 12:46:35.26	56.63	23.35	-33.5	-41.4	3.8	8.45e-01	0	44	104	0	28	8926
2026-01-03 12:46:36.27	56.35	23.37	-33.5	-41.6	3.8	8.45e-01	0	44	104	0	28	9093
2026-01-03 12:46:37.28	56.07	23.40	-33.6	-41.9	3.8	8.47e-01	0	44	104	0	28	9372
2026-01-03 12:46:38.28	55.80	23.43	-33.6	-42.3	3.8	8.46e-01	0	44	104	0	28	9727
2026-01-03 12:46:39.29	55.52	23.46	-33.6	-42.4	3.8	8.46e-01	0	44	104	0	28	9915
2026-01-03 12:46:40.30	55.24	23.48	-33.6	-42.3	3.8	8.46e-01	0	44	104	0	28	9786
2026-01-03 12:46:41.30	54.97	23.51	-33.6	-42.2	3.8	8.45e-01	0	44	104	0	28	9694
2026-01-03 12:46:42.30	54.69	23.53	-33.6	-42.5	3.8	8.47e-01	0	43	104	0	28	9959
2026-01-03 12:46:43.32	54.41	23.56	-33.6	-42.3	3.8	8.45e-01	0	43	104	0	28	9740
2026-01-03 12:46:44.32	54.13	23.58	-33.6	-41.6	3.8	8.45e-01	0	43	104	0	28	9139
2026-01-03 12:46:45.33	53.85	23.60	-33.6	-41.8	3.8	8.45e-01	0	44	104	0	28	9293
2026-01-03 12:46:46.34	53.57	23.62	-33.5	-41.5	3.8	8.45e-01	0	44	104	0	28	8999
2026-01-03 12:46:47.35	53.29	23.65	-32.5	-36.6	4.3	8.29e-01	0	44	104	0	26	5785
2026-01-03 12:46:48.35	53.01	23.67	-30.1	-31.7	9.8	3.57e-02	0	44	104	0	21	4320
2026-01-03 12:46:49.35	52.74	23.69	-27.9	-28.3	13.2	4.69e-05	0	44	0	4194304	17	3764
2026-01-03 12:46:50.36	52.45	23.70	-26.5	-26.7	14.8	0.00e+00	0	43	0	11534336	14	3668
2026-01-03 12:46:51.36	52.17	23.72	-26.3	-26.7	15.0	0.00e+00	0	44	0	17825792	13	3781
2026-01-03 12:46:52.37	51.89	23.74	-26.5	-27.1	14.8	0.00e+00	0	44	0	25165824	13	3863
2026-01-03 12:46:53.37	51.61	23.76	-26.1	-26.4	15.2	0.00e+00	0	44	0	32505856	13	3694
2026-01-03 12:46:54.37	51.33	23.77	-25.9	-25.8	15.5	0.00e+00	0	43	0	39845888	13	3564
2026-01-03 12:46:55.38	51.05	23.79	-26.0	-26.5	15.4	0.00e+00	0	44	0	47185920	12	3821
2026-01-03 12:46:56.39	50.76	23.80	-26.4	-27.4	14.9	0.00e+00	0	44	0	54525952	12	4047
2026-01-03 12:46:57.39	50.48	23.82	-26.7	-27.5	14.6	0.00e+00	0	43	0	61865984	13	3978
2026-01-03 12:46:58.40	50.20	23.83	-26.0	-26.0	15.4	0.00e+00	0	44	0	69206016	13	3623
2026-01-03 12:46:59.40	49.92	23.84	-25.4	-25.2	16.1	0.00e+00	0	44	0	76546048	12	3527
2026-01-03 12:47:00.40	49.64	23.85	-25.0	-24.8	16.7	0.00e+00	0	44	0	83886080	11	3537
2026-01-03 12:47:01.41	49.35	23.86	-24.5	-24.4	17.2	0.00e+00	0	44	0	91226112	10	3539
2026-01-03 12:47:02.41	49.07	23.87	-24.2	-24.1	17.5	0.00e+00	0	44	0	97517568	9	3583
2026-01-03 12:47:03.42	48.78	23.88	-24.0	-23.7	17.7	0.00e+00	0	44	0	104857600	9	3501
2026-01-03 12:47:04.43	48.50	23.89	-24.0	-23.8	17.7	0.00e+00	0	44	0	112197632	9	3509
2026-01-03 12:47:05.44	48.21	23.90	-24.1	-24.1	17.6	0.00e+00	0	44	0	119537664	9	3568
2026-01-03 12:47:06.44	47.93	23.91	-24.2	-24.2	17.5	0.00e+00	0	44	0	126877696	9	3611
2026-01-03 12:47:07.45	47.65	23.91	-24.2	-24.3	17.5	0.00e+00	0	44	0	134217728	9	3614
2026-01-03 12:47:08.45	47.36	23.92	-24.3	-24.4	17.3	0.00e+00	0	44	0	141557760	9	3652
2026-01-03 12:47:09.46	47.08	23.92	-23.9	-23.5	17.8	0.00e+00	0	43	0	148897792	9	3457
2026-01-03 12:47:10.46	46.79	23.93	-23.6	-23.5	18.1	0.00e+00	0	44	0	156237824	8	3547
2026-01-03 12:47:11.47	46.51	23.93	-23.6	-23.4	18.2	0.00e+00	0	44	0	163577856	8	3520
2026-01-03 12:47:12.48	46.22	23.93	-23.6	-23.5	18.1	0.00e+00	0	44	0	170917888	8	3552
2026-01-03 12:47:13.49	45.94	23.93	-23.6	-23.4	18.1	0.00e+00	0	44	0	178257920	8	3526
2026-01-03 12:47:14.50	45.65	23.93	-23.6	-23.4	18.2	0.00e+00	0	43	0	185597952	8	3520
2026-01-03 12:47:15.50	45.37	23.93	-23.5	-23.3	18.2	0.00e+00	0	44	0	192937984	8	3508
2026-01-03 12:47:16.51	45.08	23.93	-23.7	-23.6	18.0	0.00e+00	0	44	0	200278016	8	3571
2026-01-03 12:47:17.52	44.79	23.93	-23.7	-23.6	18.0	0.00e+00	0	44	0	206569472	8	3568
2026-01-03 12:47:18.52	44.51	23.93	-23.6	-23.5	18.1	0.00e+00	0	44	0	213909504	8	3551
2026-01-03 12:47:19.53	44.22	23.93	-23.7	-23.5	18.1	0.00e+00	0	44	0	221249536	8	3554
2026-01-03 12:47:20.54	43.94	23.92	-23.6	-23.5	18.1	0.00e+00	0	44	0	228589568	8	3558
2026-01-03 12:47:21.54	43.66	23.92	-23.6	-23.5	18.1	0.00e+00	0	44	0	235929600	8	3543
2026-01-03 12:47:22.55	43.37	23.91	-23.7	-23.6	18.1	0.00e+00	0	44	0	243269632	8	3560
2026-01-03 12:47:23.55	43.09	23.91	-23.7	-23.6	18.1	0.00e+00	0	44	0	250609664	8	3562
2026-01-03 12:47:24.55	42.80	23.90	-23.6	-23.4	18.1	0.00e+00	0	44	0	257949696	8	3530
2026-01-03 12:47:25.56	42.52	23.89	-23.5	-23.3	18.2	0.00e+00	0	44	0	265289728	8	3495
2026-01-03 12:47:26.57	42.23	23.88	-23.6	-23.5	18.1	0.00e+00	0	44	0	272629760	8	3539
2026-01-03 12:47:27.58	41.95	23.87	-23.6	-23.5	18.1	0.00e+00	0	44	0	279969792	8	3545
2026-01-03 12:47:28.59	41.66	23.86	-23.6	-23.3	18.2	0.00e+00	0	44	0	286261248	8	3511
2026-01-03 12:47:29.59	41.38	23.85	-23.7	-23.5	18.1	0.00e+00	0	44	0	293601280	8	3558
2026-01-03 12:47:30.59	41.10	23.84	-23.7	-23.7	18.0	0.00e+00	0	44	0	300941312	8	3582
2026-01-03 12:47:31.60	40.82	23.83	-23.5	-23.3	18.1	0.00e+00	0	44	0	308281344	8	3509
2026-01-03 12:47:32.61	40.53	23.82	-23.6	-23.4	18.1	0.00e+00	0	44	0	315621376	8	3532
2026-01-03 12:47:33.62	40.25	23.80	-23.6	-23.4	18.1	0.00e+00	0	44	0	322961408	8	3532
2026-01-03 12:47:34.62	39.97	23.79	-23.6	-23.4	18.1	0.00e+00	0	44	0	330301440	8	3525
2026-01-03 12:47:35.63	39.68	23.77	-23.6	-23.4	18.1	0.00e+00	0	44	0	337641472	8	3523
2026-01-03 12:47:36.63	39.40	23.76	-23.5	-23.3	18.2	0.00e+00	0	43	0	344981504	8	3508
2026-01-03 12:47:37.64	39.12	23.74	-23.5	-23.3	18.2	0.00e+00	0	44	0	352321536	8	3493
2026-01-03 12:47:38.65	38.84	23.72	-23.6	-23.4	18.1	0.00e+00	0	44	0	359661568	8	3523
2026-01-03 12:47:39.65	38.56	23.71	-23.5	-23.1	18.2	0.00e+00	0	44	0	367001600	8	3468
2026-01-03 12:47:40.66	38.28	23.69	-23.4	-23.0	18.3	0.00e+00	0	43	0	374341632	8	3436
2026-01-03 12:47:41.67	38.00	23.67	-23.4	-23.4	18.3	0.00e+00	0	43	0	381681664	7	3636
2026-01-03 12:47:42.68	37.72	23.65	-23.4	-23.4	18.3	0.00e+00	0	44	0	389021696	7	3631
2026-01-03 12:47:43.69	37.44	23.63	-23.5	-23.7	18.2	0.00e+00	0	44	0	395313152	7	3685
2026-01-03 12:47:44.69	37.16	23.60	-23.4	-23.6	18.2	0.00e+00	0	44	0	402653184	7	3673
2026-01-03 12:47:45.70	36.88	23.58	-23.5	-23.8	18.1	0.00e+00	0	43	0	411041792	7	3704
2026-01-03 12:47:46.71	36.60	23.56	-23.8	-24.4	17.8	0.00e+00	0	44	0	417333248	7	3860
2026-01-03 12:47:47.72	36.32	23.53	-23.7	-24.2	17.9	0.00e+00	0	44	0	424673280	7	3813
2026-01-03 12:47:48.73	36.04	23.51	-23.8	-24.4	17.8	0.00e+00	0	43	0	432013312	7	3852
2026-01-03 12:47:49.73	35.77	23.48	-23.7	-24.2	17.9	0.00e+00	0	44	0	439353344	7	3798
2026-01-03 12:47:50.74	35.49	23.46	-23.6	-23.9	18.1	0.00e+00	0	44	0	446693376	7	3733
2026-01-03 12:47:51.74	35.22	23.43	-23.6	-23.9	18.1	0.00e+00	0	44	0	454033408	7	3743
2026-01-03 12:47:52.76	34.94	23.40	-23.5	-23.8	18.1	0.00e+00	0	43	0	461373440	7	3723
2026-01-03 12:47:53.76	34.66	23.38	-23.6	-24.0	18.1	0.00e+00	0	44	0	468713472	7	3753
2026-01-03 12:47:54.77	34.39	23.35	-23.6	-23.9	18.1	0.00e+00	0	43	0	476053504	7	3728
2026-01-03 12:47:55.77	34.11	23.32	-23.4	-23.5	18.3	0.00e+00	0	44	0	483393536	7	3647
2026-01-03 12:47:56.78	33.84	23.29	-23.3	-23.3	18.4	0.00e+00	0	44	0	490733568	7	3612
2026-01-03 12:47:57.79	33.57	23.26	-23.4	-23.5	18.3	0.00e+00	0	44	0	498073600	7	3640
2026-01-03 12:47:58.79	33.30	23.23	-23.3	-23.4	18.4	0.00e+00	0	44	0	504365056	7	3618
2026-01-03 12:47:59.79	33.03	23.19	-23.4	-23.4	18.3	0.00e+00	0	44	0	511705088	7	3632
2026-01-03 12:48:00.80	32.75	23.16	-23.6	-23.9	18.1	0.00e+00	0	43	0	520093696	7	3730
2026-01-03 12:48:01.81	32.48	23.13	-23.4	-23.5	18.3	0.00e+00	0	44	0	526385152	7	3660
2026-01-03 12:48:02.81	32.21	23.09	-23.4	-23.5	18.3	0.00e+00	0	44	0	533725184	7	3648
2026-01-03 12:48:03.81	31.94	23.06	-23.5	-23.8	18.1	0.00e+00	0	44	0	541065216	7	3708
2026-01-03 12:48:04.82	31.67	23.02	-23.5	-23.7	18.2	0.00e+00	0	44	0	548405248	7	3692
2026-01-03 12:48:05.83	31.41	22.99	-23.4	-23.6	18.2	0.00e+00	0	44	0	555745280	7	3676
2026-01-03 12:48:06.84	31.14	22.95	-23.6	-23.9	18.1	0.00e+00	0	44	0	563085312	7	3730
2026-01-03 12:48:07.85	30.87	22.91	-23.5	-23.8	18.1	0.00e+00	0	44	0	570425344	7	3713
2026-01-03 12:48:08.86	30.60	22.88	-23.7	-24.1	18.0	0.00e+00	0	44	0	577765376	7	3780
2026-01-03 12:48:09.86	30.34	22.84	-23.5	-23.8	18.1	0.00e+00	0	43	0	585105408	7	3707
2026-01-03 12:48:10.87	30.07	22.80	-23.4	-23.6	18.2	0.00e+00	0	44	0	592445440	7	3663
2026-01-03 12:48:11.87	29.81	22.76	-23.5	-23.8	18.1	0.00e+00	0	44	0	599785472	7	3721
2026-01-03 12:48:12.88	29.54	22.72	-23.5	-23.7	18.1	0.00e+00	0	44	0	606076928	7	3697
2026-01-03 12:48:13.88	29.28	22.68	-23.5	-23.8	18.1	0.00e+00	0	44	0	613416960	7	3717
2026-01-03 12:48:14.88	29.02	22.64	-23.7	-24.1	18.0	0.00e+00	0	44	0	620756992	7	3786
2026-01-03 12:48:15.89	28.76	22.60	-23.9	-24.5	17.7	0.00e+00	0	44	0	628097024	7	3883
2026-01-03 12:48:16.90	28.50	22.55	-23.8	-24.3	17.9	0.00e+00	0	44	0	635437056	7	3817
2026-01-03 12:48:17.90	28.24	22.51	-23.7	-24.2	17.9	0.00e+00	0	43	0	642777088	7	3799
2026-01-03 12:48:18.90	27.98	22.47	-23.7	-24.2	17.9	0.00e+00	0	43	0	650117120	7	3795
2026-01-03 12:48:19.90	27.72	22.42	-23.6	-24.0	18.0	0.00e+00	0	43	0	657457152	7	3758
2026-01-03 12:48:20.91	27.47	22.38	-23.6	-24.0	18.0	0.00e+00	0	44	0	664797184	7	3757
2026-01-03 12:48:21.91	27.21	22.33	-23.7	-24.2	17.9	0.00e+00	0	44	0	672137216	7	3813
2026-01-03 12:48:22.92	26.95	22.29	-23.7	-24.1	17.9	0.00e+00	0	43	0	679477248	7	3772
2026-01-03 12:48:23.93	26.70	22.24	-23.8	-24.3	17.8	0.00e+00	0	44	0	686817280	7	3833
2026-01-03 12:48:24.93	26.44	22.20	-23.9	-24.6	17.7	0.00e+00	0	44	0	693108736	7	3905
2026-01-03 12:48:25.93	26.19	22.15	-24.0	-24.8	17.6	0.00e+00	0	44	0	700448768	7	3939
2026-01-03 12:48:26.94	25.94	22.10	-24.1	-24.4	17.5	0.00e+00	0	44	0	707788800	8	3754
2026-01-03 12:48:27.95	25.68	22.05	-24.1	-24.6	17.5	0.00e+00	0	44	0	715128832	8	3793
2026-01-03 12:48:28.95	25.43	22.00	-24.3	-25.0	17.2	0.00e+00	0	43	0	722468864	8	3885
2026-01-03 12:48:29.96	25.18	21.95	-24.1	-24.5	17.5	0.00e+00	0	44	0	729808896	8	3773
2026-01-03 12:48:30.97	24.93	21.90	-24.0	-24.3	17.6	0.00e+00	0	44	0	737148928	8	3732
2026-01-03 12:48:31.97	24.68	21.85	-24.0	-24.3	17.6	0.00e+00	0	43	0	744488960	8	3728
2026-01-03 12:48:32.98	24.43	21.80	-24.1	-24.5	17.5	0.00e+00	0	44	0	751828992	8	3773
2026-01-03 12:48:33.98	24.19	21.75	-24.0	-24.2	17.6	0.00e+00	0	43	0	759169024	8	3705
2026-01-03 12:48:34.99	23.94	21.70	-23.9	-24.1	17.7	0.00e+00	0	44	0	766509056	8	3677
2026-01-03 12:48:35.99	23.69	21.65	-24.0	-24.2	17.6	0.00e+00	0	44	0	772800512	8	3708
2026-01-03 12:48:37.00	23.45	21.60	-23.9	-24.1	17.6	0.00e+00	0	44	0	781189120	8	3689
2026-01-03 12:48:38.01	23.20	21.54	-24.4	-25.2	17.1	0.00e+00	0	44	0	788529152	8	3927
2026-01-03 12:48:39.02	22.96	21.49	-24.1	-24.4	17.5	0.00e+00	0	44	0	794820608	8	3758
2026-01-03 12:48:40.03	22.72	21.43	-23.8	-23.9	17.8	0.00e+00	0	44	0	802160640	8	3641
2026-01-03 12:48:41.04	22.47	21.38	-23.8	-23.8	17.8	0.00e+00	0	44	0	809500672	8	3613
2026-01-03 12:48:42.03	22.24	21.33	-23.8	-23.8	17.8	0.00e+00	0	43	0	816840704	8	3620
2026-01-03 12:48:43.04	22.00	21.27	-23.8	-23.8	17.8	0.00e+00	0	43	0	824180736	8	3625
2026-01-03 12:48:44.05	21.76	21.21	-23.9	-24.1	17.7	0.00e+00	0	44	0	831520768	8	3674
2026-01-03 12:48:45.06	21.52	21.16	-23.7	-23.8	17.8	0.00e+00	0	44	0	838860800	8	3605
2026-01-03 12:48:46.05	21.28	21.10	-23.7	-23.7	17.8	0.00e+00	0	44	0	846200832	8	3600
2026-01-03 12:48:47.06	21.05	21.05	-23.8	-23.9	17.7	0.00e+00	0	44	0	853540864	8	3646
2026-01-03 12:48:48.07	20.81	20.99	-24.0	-24.3	17.5	0.00e+00	0	44	0	860880896	8	3717
2026-01-03 12:48:49.07	20.58	20.93	-23.8	-23.8	17.8	0.00e+00	0	44	0	868220928	8	3614
2026-01-03 12:48:50.08	20.34	20.87	-23.9	-24.1	17.7	0.00e+00	0	43	0	875560960	8	3678
2026-01-03 12:48:51.09	20.11	20.81	-23.8	-23.9	17.7	0.00e+00	0	44	0	881852416	8	3637
2026-01-03 12:48:52.08	19.88	20.76	-23.8	-24.0	17.7	0.00e+00	0	44	0	889192448	8	3648
2026-01-03 12:48:53.09	19.65	20.70	-23.9	-24.1	17.7	0.00e+00	0	44	0	896532480	8	3676
2026-01-03 12:48:54.09	19.42	20.64	-23.8	-23.9	17.7	0.00e+00	0	44	0	903872512	8	3646
2026-01-03 12:48:55.10	19.19	20.58	-23.9	-24.0	17.7	0.00e+00	0	44	0	911212544	8	3661
2026-01-03 12:48:56.10	18.96	20.52	-23.9	-24.1	17.7	0.00e+00	0	44	0	918552576	8	3676
2026-01-03 12:48:57.11	18.73	20.46	-24.2	-24.6	17.4	0.00e+00	0	44	0	925892608	8	3798
2026-01-03 12:48:58.11	18.51	20.40	-23.9	-24.2	17.6	0.00e+00	0	44	0	933232640	8	3701
2026-01-03 12:48:59.11	18.28	20.34	-24.0	-24.3	17.6	0.00e+00	0	44	0	940572672	8	3719
2026-01-03 12:49:00.12	18.06	20.28	-24.1	-24.5	17.4	0.00e+00	0	44	0	947912704	8	3775
2026-01-03 12:49:01.13	17.83	20.21	-24.0	-24.3	17.5	0.00e+00	0	44	0	955252736	8	3720
2026-01-03 12:49:02.14	17.61	20.15	-24.1	-24.4	17.4	0.00e+00	0	43	0	962592768	8	3746
2026-01-03 12:49:03.15	17.39	20.09	-24.0	-24.4	17.5	0.00e+00	0	44	0	969932800	8	3738
2026-01-03 12:49:04.15	17.17	20.03	-24.1	-24.5	17.4	0.00e+00	0	43	0	977272832	8	3762
2026-01-03 12:49:05.15	16.95	19.96	-24.0	-24.2	17.6	0.00e+00	0	44	0	984612864	8	3710
2026-01-03 12:49:06.16	16.73	19.90	-23.9	-24.1	17.6	0.00e+00	0	44	0	990904320	8	3691
2026-01-03 12:49:07.17	16.51	19.84	-24.1	-24.5	17.4	0.00e+00	0	44	0	998244352	8	3764
2026-01-03 12:49:08.17	16.29	19.77	-23.9	-24.2	17.6	0.00e+00	0	44	0	1005584384	8	3700
2026-01-03 12:49:09.19	16.07	19.71	-24.0	-24.3	17.5	0.00e+00	0	43	0	1012924416	8	3727
2026-01-03 12:49:10.19	15.86	19.65	-24.1	-24.5	17.4	0.00e+00	0	44	0	1020264448	8	3773
2026-01-03 12:49:11.19	15.65	19.58	-24.1	-24.5	17.4	0.00e+00	0	44	0	1027604480	8	3770
2026-01-03 12:49:12.20	15.43	19.52	-24.2	-24.6	17.3	0.00e+00	0	43	0	1034944512	8	3802
2026-01-03 12:49:13.21	15.22	19.45	-24.1	-24.5	17.4	0.00e+00	0	44	0	1042284544	8	3780
2026-01-03 12:49:14.22	15.00	19.39	-24.3	-24.9	17.2	0.00e+00	0	44	0	1049624576	8	3854
2026-01-03 12:49:15.22	14.79	19.32	-24.4	-25.1	17.1	0.00e+00	0	43	0	1056964608	8	3900
2026-01-03 12:49:16.22	14.59	19.26	-24.3	-24.9	17.2	0.00e+00	0	43	0	1064304640	8	3854
2026-01-03 12:49:17.23	14.38	19.19	-24.3	-25.0	17.1	0.00e+00	0	44	0	1070596096	8	3875
2026-01-03 12:49:18.23	14.17	19.12	-24.2	-24.7	17.3	0.00e+00	0	43	0	1077936128	8	3817
2026-01-03 12:49:19.23	13.96	19.06	-24.2	-24.8	17.2	0.00e+00	0	43	0	1085276160	8	3833
2026-01-03 12:49:20.24	13.76	18.99	-24.3	-25.0	17.1	0.00e+00	0	44	0	1092616192	8	3879
2026-01-03 12:49:21.24	13.55	18.92	-24.2	-24.7	17.2	0.00e+00	0	44	0	1099956224	8	3826
2026-01-03 12:49:22.25	13.35	18.86	-24.2	-24.8	17.2	0.00e+00	0	44	0	1107296256	8	3841
2026-01-03 12:49:23.25	13.14	18.79	-24.4	-25.2	17.0	0.00e+00	0	44	0	1114636288	8	3939
2026-01-03 12:49:24.25	12.94	18.72	-24.5	-25.3	16.9	0.00e+00	0	43	0	1121976320	8	3971
2026-01-03 12:49:25.26	12.74	18.66	-24.4	-25.1	17.0	0.00e+00	0	44	0	1129316352	8	3920
2026-01-03 12:49:26.27	12.54	18.59	-24.5	-25.5	16.8	0.00e+00	0	44	0	1136656384	8	4005
2026-01-03 12:49:27.26	12.34	18.52	-24.4	-25.2	17.0	0.00e+00	0	44	0	1143996416	8	3934
2026-01-03 12:49:28.27	12.14	18.45	-24.5	-25.3	16.9	0.00e+00	0	44	0	1151336448	8	3953
2026-01-03 12:49:29.28	11.94	18.38	-24.6	-25.5	16.8	0.00e+00	0	44	0	1157627904	8	4013
2026-01-03 12:49:30.29	11.74	18.31	-24.5	-25.3	16.9	0.00e+00	0	43	0	1164967936	8	3959
2026-01-03 12:49:31.30	11.55	18.25	-24.5	-25.4	16.9	0.00e+00	0	43	0	1173356544	8	3986
2026-01-03 12:49:32.31	11.35	18.18	-24.4	-25.2	17.0	0.00e+00	0	44	0	1179648000	8	3937
2026-01-03 12:49:33.31	11.16	18.11	-24.4	-25.1	17.0	0.00e+00	0	44	0	1186988032	8	3918
2026-01-03 12:49:34.32	10.96	18.04	-24.4	-25.2	17.0	0.00e+00	0	43	0	1194328064	8	3930
2026-01-03 12:49:35.33	10.77	17.97	-24.3	-25.0	17.1	0.00e+00	0	44	0	1201668096	8	3884
2026-01-03 12:49:36.33	10.58	17.90	-24.4	-25.2	17.0	0.00e+00	0	44	0	1209008128	8	3926
2026-01-03 12:49:37.34	10.39	17.83	-24.3	-24.9	17.1	0.00e+00	0	44	0	1216348160	8	3857
2026-01-03 12:49:38.35	10.20	17.76	-24.3	-24.9	17.1	0.00e+00	0	43	0	1223688192	8	3872
2026-01-03 12:49:39.36	10.01	17.69	-24.4	-25.1	17.0	0.00e+00	0	43	0	1231028224	8	3911
2026-01-03 12:49:40.36	9.82	17.62	-24.5	-25.5	16.8	0.00e+00	0	43	0	1238368256	8	4001
2026-01-03 12:49:41.36	9.63	17.55	-24.7	-25.2	16.7	0.00e+00	0	43	0	1245708288	9	3830
2026-01-03 12:49:42.37	9.44	17.48	-24.9	-25.8	16.4	0.00e+00	0	43	0	1253048320	9	3973
2026-01-03 12:49:43.38	9.26	17.41	-25.1	-25.6	16.2	0.00e+00	0	43	0	1259339776	10	3834
2026-01-03 12:49:44.39	9.07	17.34	-24.9	-25.2	16.4	0.00e+00	0	44	0	1266679808	10	3725
2026-01-03 12:49:45.40	8.89	17.27	-24.7	-24.9	16.6	0.00e+00	0	43	0	1275068416	10	3657
2026-01-03 12:49:46.41	8.70	17.20	-24.8	-24.9	16.6	0.00e+00	0	43	0	1281359872	10	3673
2026-01-03 12:49:47.42	8.52	17.13	-24.8	-25.1	16.5	0.00e+00	0	43	0	1288699904	10	3695
2026-01-03 12:49:48.42	8.34	17.06	-24.9	-25.1	16.5	0.00e+00	0	43	0	1296039936	10	3711
2026-01-03 12:49:49.42	8.16	16.99	-25.0	-25.3	16.4	0.00e+00	0	44	0	1303379968	10	3760
2026-01-03 12:49:50.43	7.98	16.92	-24.9	-25.3	16.4	0.00e+00	0	44	0	1310720000	10	3754
2026-01-03 12:49:51.44	7.80	16.85	-25.1	-25.6	16.2	0.00e+00	0	44	0	1318060032	10	3832
2026-01-03 12:49:52.44	7.62	16.77	-25.1	-25.7	16.2	0.00e+00	0	44	0	1325400064	10	3839
2026-01-03 12:49:53.45	7.45	16.70	-25.0	-25.4	16.3	0.00e+00	0	44	0	1332740096	10	3783
2026-01-03 12:49:54.46	7.27	16.63	-25.0	-25.4	16.3	0.00e+00	0	44	0	1340080128	10	3786
2026-01-03 12:49:55.46	7.10	16.56	-25.0	-25.5	16.3	0.00e+00	0	44	0	1347420160	10	3786
2026-01-03 12:49:56.47	6.92	16.49	-24.9	-25.3	16.4	0.00e+00	0	44	0	1354760192	10	3745
2026-01-03 12:49:57.47	6.75	16.42	-24.9	-25.3	16.4	0.00e+00	0	44	0	1362100224	10	3742
2026-01-03 12:49:58.48	6.57	16.35	-25.0	-25.4	16.3	0.00e+00	0	44	0	1368391680	10	3765
2026-01-03 12:49:59.48	6.40	16.28	-25.0	-25.4	16.3	0.00e+00	0	44	0	1375731712	10	3783
2026-01-03 12:50:00.49	6.23	16.20	-25.0	-25.4	16.3	0.00e+00	0	44	0	1383071744	10	3778
2026-01-03 12:50:01.50	6.06	16.13	-25.1	-25.7	16.1	0.00e+00	0	44	0	1390411776	10	3844
2026-01-03 12:50:02.50	5.89	16.06	-25.1	-25.6	16.2	0.00e+00	0	44	0	1397751808	10	3825
2026-01-03 12:50:03.51	5.72	15.99	-25.1	-25.7	16.1	0.00e+00	0	44	0	1405091840	10	3845
2026-01-03 12:50:04.52	5.55	15.92	-25.1	-25.7	16.1	0.00e+00	0	44	0	1412431872	10	3843
2026-01-03 12:50:05.52	5.39	15.85	-25.1	-25.8	16.1	0.00e+00	0	44	0	1419771904	10	3862
2026-01-03 12:50:06.52	5.22	15.77	-25.2	-25.8	16.1	0.00e+00	0	44	0	1427111936	10	3869
2026-01-03 12:50:07.52	5.06	15.70	-25.1	-25.6	16.2	0.00e+00	0	43	0	1434451968	10	3823
2026-01-03 12:50:08.53	4.89	15.63	-25.1	-25.7	16.1	0.00e+00	0	44	0	1441792000	10	3856
2026-01-03 12:50:09.54	4.73	15.56	-25.1	-25.6	16.1	0.00e+00	0	44	0	1449132032	10	3832
2026-01-03 12:50:10.55	4.57	15.49	-25.1	-25.7	16.1	0.00e+00	0	44	0	1456472064	10	3837
2026-01-03 12:50:11.55	4.40	15.41	-25.2	-25.9	16.0	0.00e+00	0	44	0	1463812096	10	3882
2026-01-03 12:50:12.56	4.24	15.34	-25.3	-26.0	15.9	0.00e+00	0	44	0	1471152128	10	3923
2026-01-03 12:50:13.56	4.08	15.27	-25.3	-26.1	15.9	0.00e+00	0	44	0	1477443584	10	3942
2026-01-03 12:50:14.57	3.92	15.20	-25.4	-26.2	15.8	0.00e+00	0	43	0	1484783616	10	3975
2026-01-03 12:50:15.58	3.76	15.13	-25.4	-26.3	15.8	0.00e+00	0	44	0	1492123648	10	3992
2026-01-03 12:50:16.58	3.61	15.05	-25.4	-26.4	15.7	0.00e+00	0	43	0	1499463680	10	4015
2026-01-03 12:50:17.59	3.45	14.98	-25.5	-26.4	15.7	0.00e+00	0	44	0	1506803712	10	4030
2026-01-03 12:50:18.60	3.29	14.91	-25.5	-26.5	15.6	0.00e+00	0	44	0	1514143744	10	4042
2026-01-03 12:50:19.60	3.14	14.84	-25.6	-26.7	15.5	0.00e+00	0	44	0	1521483776	10	4079
2026-01-03 12:50:20.61	2.98	14.77	-25.4	-26.4	15.6	0.00e+00	0	44	0	1528823808	10	4017
2026-01-03 12:50:21.62	2.82	14.69	-25.5	-26.5	15.5	0.00e+00	0	44	0	1536163840	10	4055
2026-01-03 12:50:22.63	2.67	14.62	-25.5	-26.5	15.6	0.00e+00	0	44	0	1543503872	10	4054
2026-01-03 12:50:23.63	2.52	14.55	-25.6	-26.7	15.5	0.00e+00	0	44	0	1550843904	10	4085
2026-01-03 12:50:24.64	2.37	14.48	-25.8	-26.7	15.2	0.00e+00	0	44	0	1557135360	11	3988
2026-01-03 12:50:25.65	2.21	14.40	-25.8	-26.6	15.3	0.00e+00	0	44	0	1565523968	11	3956
2026-01-03 12:50:26.66	2.06	14.33	-25.5	-26.1	15.5	0.00e+00	0	44	0	1572864000	11	3831
2026-01-03 12:50:27.67	1.91	14.26	-25.5	-25.9	15.6	0.00e+00	0	43	0	1579155456	11	3798
2026-01-03 12:50:28.67	1.76	14.19	-25.5	-25.9	15.6	0.00e+00	0	44	0	1586495488	11	3795
2026-01-03 12:50:29.68	1.62	14.12	-25.5	-25.9	15.6	0.00e+00	0	44	0	1593835520	11	3805
2026-01-03 12:50:30.69	1.47	14.04	-25.5	-26.0	15.5	0.00e+00	0	44	0	1601175552	11	3830
2026-01-03 12:50:31.70	1.32	13.97	-25.6	-26.1	15.5	0.00e+00	0	44	0	1608515584	11	3853
2026-01-03 12:50:32.70	1.17	13.90	-25.7	-26.4	15.4	0.00e+00	0	44	0	1615855616	11	3911
2026-01-03 12:50:33.71	1.03	13.83	-25.7	-26.5	15.3	0.00e+00	0	44	0	1623195648	11	3938
2026-01-03 12:50:34.71	0.88	13.76	-25.8	-26.6	15.2	0.00e+00	0	44	0	1630535680	11	3966
2026-01-03 12:50:35.71	0.74	13.69	-25.8	-26.8	15.1	0.00e+00	0	44	0	1637875712	11	4011
2026-01-03 12:50:36.72	0.60	13.61	-25.9	-27.0	15.0	0.00e+00	0	44	0	1645215744	11	4073
2026-01-03 12:50:37.72	0.46	13.54	-26.0	-27.1	14.9	0.00e+00	0	43	0	1652555776	11	4091
2026-01-03 12:50:38.73	0.31	13.47	-26.1	-27.3	14.8	0.00e+00	0	43	0	1659895808	11	4143
2026-01-03 12:50:39.74	0.17	13.40	-26.2	-27.1	14.6	0.00e+00	0	44	0	1666187264	12	4002
2026-01-03 12:50:40.74	0.03	13.33	-26.5	-27.7	14.2	3.40e-06	0	43	0	1673527296	12	4149
2026-01-03 12:50:41.74	359.89	13.26	-26.4	-27.4	14.4	0.00e+00	0	44	0	1680867328	12	4078
2026-01-03 12:50:42.75	359.75	13.18	-26.0	-26.7	14.8	0.00e+00	0	43	0	1688207360	12	3882
2026-01-03 12:50:43.76	359.61	13.11	-25.8	-26.2	15.1	0.00e+00	0	44	0	1695547392	12	3773
2026-01-03 12:50:44.77	359.48	13.04	-25.7	-26.1	15.1	0.00e+00	0	44	0	1702887424	12	3745
2026-01-03 12:50:45.78	359.34	12.97	-25.8	-26.2	15.1	0.00e+00	0	44	0	1710227456	12	3756
2026-01-03 12:50:46.78	359.20	12.90	-25.6	-25.7	15.3	0.00e+00	0	44	0	1717567488	12	3661
2026-01-03 12:50:47.79	359.07	12.83	-25.6	-25.8	15.3	0.00e+00	0	43	0	1724907520	12	3671
2026-01-03 12:50:48.80	358.93	12.76	-25.6	-25.7	15.3	0.00e+00	0	44	0	1732247552	12	3656
2026-01-03 12:50:49.81	358.80	12.68	-25.7	-25.9	15.2	0.00e+00	0	44	0	1739587584	12	3710
2026-01-03 12:50:50.82	358.66	12.61	-25.8	-26.2	15.1	0.00e+00	0	44	0	1746927616	12	3761
2026-01-03 12:50:51.82	358.53	12.54	-25.9	-26.5	14.9	0.00e+00	0	44	0	1754267648	12	3836
2026-01-03 12:50:52.83	358.40	12.47	-26.0	-26.8	14.7	0.00e+00	0	43	0	1761607680	12	3906
2026-01-03 12:50:53.84	358.26	12.40	-26.2	-27.1	14.5	1.10e-06	0	44	0	1767899136	12	3999
2026-01-03 12:50:54.85	358.13	12.33	-26.2	-27.1	14.5	0.00e+00	0	44	0	1776287744	12	4005
2026-01-03 12:50:55.85	358.00	12.26	-26.3	-27.4	14.4	1.10e-06	0	44	0	1783627776	12	4062
2026-01-03 12:50:56.86	357.87	12.19	-26.2	-27.0	14.6	0.00e+00	0	44	0	1789919232	12	3976
2026-01-03 12:50:57.87	357.74	12.11	-26.0	-26.8	14.7	0.00e+00	0	44	0	1797259264	12	3906
2026-01-03 12:50:58.87	357.62	12.04	-26.1	-26.8	14.7	0.00e+00	0	44	0	1804599296	12	3914
2026-01-03 12:50:59.88	357.49	11.97	-26.1	-26.9	14.6	0.00e+00	0	44	0	1811939328	12	3951
2026-01-03 12:51:00.89	357.36	11.90	-26.2	-27.0	14.5	1.10e-06	0	44	0	1819279360	12	3971
2026-01-03 12:51:01.90	357.23	11.83	-26.0	-26.7	14.7	0.00e+00	0	44	0	1826619392	12	3899
2026-01-03 12:51:02.90	357.11	11.76	-26.0	-26.6	14.7	0.00e+00	0	44	0	1833959424	12	3867
2026-01-03 12:51:03.91	356.98	11.69	-26.0	-26.7	14.6	0.00e+00	0	43	0	1841299456	12	3905
2026-01-03 12:51:04.92	356.86	11.62	-26.0	-26.7	14.7	0.00e+00	0	44	0	1848639488	12	3896
2026-01-03 12:51:05.92	356.73	11.55	-26.0	-26.7	14.6	0.00e+00	0	44	0	1855979520	12	3897
2026-01-03 12:51:06.93	356.61	11.48	-26.3	-27.2	14.3	0.00e+00	0	43	0	1863319552	12	4029
2026-01-03 12:51:07.94	356.49	11.41	-26.1	-26.8	14.5	0.00e+00	0	44	0	1870659584	12	3926
2026-01-03 12:51:08.94	356.36	11.34	-25.9	-26.5	14.7	0.00e+00	0	44	0	1876951040	12	3839
2026-01-03 12:51:09.95	356.24	11.27	-25.8	-26.3	14.8	0.00e+00	0	44	0	1885339648	12	3806
2026-01-03 12:51:10.96	356.12	11.20	-25.9	-26.4	14.8	0.00e+00	0	44	0	1892679680	12	3822
2026-01-03 12:51:11.97	356.00	11.13	-25.9	-26.4	14.8	0.00e+00	0	44	0	1898971136	12	3815
2026-01-03 12:51:12.97	355.88	11.06	-25.9	-26.4	14.7	0.00e+00	0	43	0	1906311168	12	3834
2026-01-03 12:51:13.98	355.76	10.99	-25.9	-26.4	14.7	0.00e+00	0	44	0	1913651200	12	3826
2026-01-03 12:51:14.98	355.64	10.92	-26.0	-26.7	14.6	0.00e+00	0	44	0	1920991232	12	3887
2026-01-03 12:51:15.98	355.53	10.85	-25.9	-26.5	14.7	0.00e+00	0	44	0	1928331264	12	3858
2026-01-03 12:51:16.99	355.41	10.78	-26.0	-26.7	14.6	0.00e+00	0	44	0	1935671296	12	3906
2026-01-03 12:51:18.00	355.29	10.71	-26.1	-26.9	14.5	1.10e-06	0	44	0	1943011328	12	3936
2026-01-03 12:51:19.00	355.17	10.64	-26.2	-27.0	14.4	0.00e+00	0	44	0	1950351360	12	3987
2026-01-03 12:51:20.00	355.06	10.57	-26.2	-27.0	14.4	0.00e+00	0	44	0	1957691392	12	3983
2026-01-03 12:51:21.00	354.94	10.51	-26.3	-27.3	14.2	1.10e-06	0	44	0	1965031424	12	4062
2026-01-03 12:51:22.01	354.83	10.44	-26.3	-27.4	14.2	0.00e+00	0	43	0	1972371456	12	4073
2026-01-03 12:51:23.02	354.71	10.37	-26.4	-27.6	14.1	0.00e+00	0	44	0	1978662912	12	4115
2026-01-03 12:51:24.02	354.60	10.30	-26.3	-27.4	14.2	0.00e+00	0	44	0	1986002944	12	4084
2026-01-03 12:51:25.03	354.49	10.23	-26.4	-27.6	14.1	0.00e+00	0	44	0	1993342976	12	4123
2026-01-03 12:51:26.03	354.38	10.16	-26.4	-27.6	14.1	1.10e-06	0	44	0	2000683008	12	4114
2026-01-03 12:51:27.04	354.26	10.09	-26.4	-27.7	14.1	0.00e+00	0	43	0	2008023040	12	4151
2026-01-03 12:51:28.04	354.15	10.02	-26.6	-27.6	13.8	3.40e-06	0	44	0	2015363072	13	4020
2026-01-03 12:51:29.05	354.04	9.96	-26.5	-27.2	14.0	1.10e-06	0	44	0	2022703104	13	3933
2026-01-03 12:51:30.06	353.93	9.89	-26.4	-27.1	14.1	1.10e-06	0	44	0	2030043136	13	3904
2026-01-03 12:51:31.07	353.82	9.82	-26.5	-27.3	14.0	3.40e-06	0	44	0	2037383168	13	3952
2026-01-03 12:51:32.07	353.71	9.75	-26.7	-27.7	13.8	1.10e-06	0	44	0	2044723200	13	4043
2026-01-03 12:51:33.08	353.60	9.68	-26.7	-27.7	13.7	4.50e-06	0	44	0	2052063232	13	4066
2026-01-03 12:51:34.09	353.49	9.61	-26.6	-27.6	13.8	8.00e-06	0	44	0	2059403264	13	4018
2026-01-03 12:51:35.10	353.38	9.55	-26.6	-27.6	13.7	1.10e-06	0	44	0	2066743296	13	4036
2026-01-03 12:51:36.10	353.28	9.48	-26.6	-27.5	13.8	5.70e-06	0	44	0	2074083328	13	3987
2026-01-03 12:51:37.11	353.17	9.41	-26.5	-27.3	13.9	5.70e-06	0	44	0	2081423360	13	3957
2026-01-03 12:51:38.12	353.06	9.34	-26.5	-27.3	13.9	5.70e-06	0	44	0	2087714816	13	3945
2026-01-03 12:51:39.13	352.96	9.27	-26.5	-27.3	13.8	4.50e-06	0	44	0	2095054848	13	3958
2026-01-03 12:51:40.13	352.85	9.21	-26.6	-27.5	13.7	6.80e-06	0	44	0	2102394880	13	4009
2026-01-03 12:51:41.14	352.75	9.14	-26.4	-27.2	13.9	4.50e-06	0	44	0	2109734912	13	3910
2026-01-03 12:51:42.15	352.64	9.07	-26.3	-26.8	14.1	1.10e-06	0	44	0	2117074944	13	3831
2026-01-03 12:51:43.16	352.54	9.00	-26.3	-26.9	14.0	2.20e-06	0	44	0	2124414976	13	3852
2026-01-03 12:51:44.16	352.44	8.94	-26.3	-26.9	14.0	1.10e-06	0	44	0	2131755008	13	3860
2026-01-03 12:51:45.17	352.33	8.87	-26.4	-27.0	14.0	1.10e-06	0	44	0	2139095040	13	3884
2026-01-03 12:51:46.18	352.23	8.80	-26.4	-27.1	13.9	1.10e-06	0	44	0	2146435072	13	3896
2026-01-03 12:51:47.19	352.13	8.74	-26.3	-26.9	14.0	1.10e-06	0	44	0	2153775104	13	3857
2026-01-03 12:51:48.19	352.03	8.67	-26.4	-27.2	13.8	4.50e-06	0	44	0	2161115136	13	3916
2026-01-03 12:51:49.20	351.93	8.60	-26.6	-27.4	13.6	4.50e-06	0	44	0	2168455168	13	3983
2026-01-03 12:51:50.21	351.83	8.54	-26.6	-27.6	13.5	9.10e-06	0	44	0	2175795200	13	4036
2026-01-03 12:51:51.21	351.73	8.47	-26.7	-27.9	13.3	1.25e-05	0	44	0	2183135232	13	4101
2026-01-03 12:51:52.22	351.63	8.40	-26.8	-28.0	13.2	1.25e-05	0	44	0	2190475264	13	4149
2026-01-03 12:51:53.23	351.53	8.34	-26.8	-28.1	13.1	1.83e-05	0	44	0	2196766720	13	4170
2026-01-03 12:51:54.24	351.43	8.27	-27.0	-28.4	13.0	3.20e-05	0	44	0	2204106752	13	4254
2026-01-03 12:51:55.24	351.33	8.20	-27.1	-28.6	12.8	3.89e-05	0	44	0	2211446784	13	4317
2026-01-03 12:51:56.25	351.23	8.14	-27.0	-28.5	12.9	4.92e-05	0	44	0	2218786816	13	4271
2026-01-03 12:51:57.26	351.14	8.07	-27.1	-28.7	12.7	5.03e-05	0	44	0	2226126848	13	4320
2026-01-03 12:51:58.26	351.04	8.01	-27.1	-28.2	12.8	4.11e-05	0	44	0	2233466880	14	4078
2026-01-03 12:51:59.26	350.95	7.94	-27.2	-28.4	12.6	7.89e-05	0	44	0	2240806912	14	4154
2026-01-03 12:52:00.27	350.85	7.87	-27.2	-28.4	12.7	7.78e-05	0	44	0	2248146944	14	4133
2026-01-03 12:52:01.28	350.75	7.81	-27.2	-28.4	12.6	8.01e-05	0	44	0	2255486976	14	4146
2026-01-03 12:52:02.28	350.66	7.74	-27.2	-28.4	12.7	7.09e-05	0	44	0	2262827008	14	4142
2026-01-03 12:52:03.28	350.57	7.68	-27.3	-28.6	12.6	7.43e-05	0	44	0	2270167040	14	4193
2026-01-03 12:52:04.29	350.47	7.61	-27.3	-28.8	12.5	9.84e-05	0	44	0	2276458496	14	4241
2026-01-03 12:52:05.30	350.38	7.55	-27.3	-28.6	12.6	6.63e-05	0	44	0	2284847104	14	4201
2026-01-03 12:52:06.30	350.29	7.48	-27.3	-28.6	12.7	7.78e-05	0	44	0	2292187136	14	4186
2026-01-03 12:52:07.30	350.19	7.42	-27.2	-28.4	12.8	5.83e-05	0	44	0	2298478592	14	4153
2026-01-03 12:52:08.31	350.10	7.35	-27.2	-28.5	12.8	6.06e-05	0	44	0	2305818624	14	4169
2026-01-03 12:52:09.32	350.01	7.29	-27.2	-28.5	12.8	6.63e-05	0	44	0	2313158656	14	4175
2026-01-03 12:52:10.33	349.92	7.22	-27.2	-28.5	12.8	4.80e-05	0	44	0	2320498688	14	4172
2026-01-03 12:52:11.34	349.83	7.16	-27.2	-28.4	12.8	5.83e-05	0	44	0	2327838720	14	4141
2026-01-03 12:52:12.34	349.74	7.09	-29.2	-31.4	10.1	5.83e-05	0	44	0	2335178752	18	4595
2026-01-03 12:52:13.34	349.65	7.03	-32.9	-41.4	3.8	8.45e-01	0	44	104	2336227328	25	9554
2026-01-03 12:52:14.35	349.56	6.96	-33.4	-43.1	3.8	8.46e-01	0	44	104	2336227328	26	11030

#Closed at: 2026-01-03 12:52:15
#Recorded file [2336 MB]: D:/data/31010_260103_154648.dat