passes_logs/2026/01/03/R2M6_AANII_01/R2M6_AANII_01__20260103_101308_NOAA_20_JPSS-1_rec.log

#Pass ID: 20260103_101308_NOAA 20 (JPSS-1)
#Satellite: NOAA 20 (JPSS-1)
#Configuration: NOAA 20
#almurnet v.1.7.20240730
#Start time: 2026-01-03 10:13:08

#Version: 2.2.20231116
#Station: R2M6_AANII_01
#Location: 30.233357 lon 59.946436 lat
#TLE: 1 43013U 17073A   26002.21975278  .00000202  00000+0  11669-3 0  9999
#TLE: 2 43013  98.7622 303.2950 0001915  57.9213 302.2149 14.19532512420923

#Time	Az	El	Level	Level2	SNR	BER	BlckErr	Temp	State	Recorded	gain1	gain2
2026-01-03 10:13:08.73	157.07	7.04	-30.8	-37.5	5.0	1.28e+00	0	40	0	0	22	7742
2026-01-03 10:13:09.73	157.07	7.12	-31.2	-39.0	4.6	1.37e+00	0	41	104	0	23	8896
2026-01-03 10:13:10.74	157.07	7.20	-31.1	-38.2	6.7	2.51e-01	0	41	0	0	23	8209
2026-01-03 10:13:11.74	157.07	7.28	-31.1	-38.5	6.6	2.03e-01	0	41	0	1048576	23	8392
2026-01-03 10:13:12.75	157.07	7.36	-31.1	-38.0	6.9	2.13e-01	0	41	0	3145728	23	8009
2026-01-03 10:13:13.76	157.06	7.44	-31.0	-37.3	7.5	1.27e-01	0	41	0	5242880	23	7453
2026-01-03 10:13:14.76	157.06	7.52	-31.0	-36.7	8.1	8.42e-02	0	41	0	7340032	23	6963
2026-01-03 10:13:15.77	157.06	7.60	-30.9	-36.2	8.7	4.11e-02	0	41	0	9437184	23	6571
2026-01-03 10:13:16.78	157.06	7.68	-30.8	-35.7	9.1	2.70e-02	0	41	0	10485760	23	6300
2026-01-03 10:13:17.78	157.06	7.76	-30.7	-35.9	9.3	2.00e-02	0	41	0	12582912	22	6529
2026-01-03 10:13:18.79	157.06	7.84	-30.8	-36.0	9.2	1.77e-02	0	41	0	14680064	22	6593
2026-01-03 10:13:19.80	157.06	7.92	-30.8	-36.2	9.0	2.16e-02	0	41	0	16777216	22	6697
2026-01-03 10:13:20.80	157.06	8.00	-30.7	-35.9	9.3	2.25e-02	0	41	0	18874368	22	6530
2026-01-03 10:13:21.81	157.06	8.08	-30.6	-35.6	9.6	1.53e-02	0	41	0	19922944	22	6375
2026-01-03 10:13:22.81	157.06	8.16	-30.5	-35.3	9.7	1.21e-02	0	41	0	22020096	22	6257
2026-01-03 10:13:23.80	157.06	8.24	-30.5	-35.2	9.8	1.13e-02	0	41	0	24117248	22	6215
2026-01-03 10:13:24.80	157.05	8.32	-30.5	-35.1	9.9	9.34e-03	0	41	0	26214400	22	6141
2026-01-03 10:13:25.81	157.05	8.41	-30.5	-35.3	9.7	9.39e-03	0	41	0	28311552	22	6236
2026-01-03 10:13:26.81	157.05	8.49	-30.5	-35.1	9.9	1.02e-02	0	41	0	29360128	22	6133
2026-01-03 10:13:27.82	157.05	8.57	-30.4	-34.7	10.2	6.97e-03	0	41	0	31457280	22	5935
2026-01-03 10:13:28.83	157.05	8.66	-30.5	-34.7	10.3	5.57e-03	0	41	0	33554432	22	5882
2026-01-03 10:13:29.84	157.05	8.74	-30.4	-34.7	10.4	4.67e-03	0	41	0	35651584	22	5861
2026-01-03 10:13:30.84	157.05	8.82	-30.5	-34.8	10.2	5.70e-03	0	41	0	37748736	22	5948
2026-01-03 10:13:31.85	157.05	8.91	-30.6	-35.1	10.1	6.48e-03	0	41	0	38797312	22	6033
2026-01-03 10:13:32.85	157.04	8.99	-30.6	-35.0	10.2	6.55e-03	0	41	0	40894464	22	5976
2026-01-03 10:13:33.86	157.04	9.08	-30.7	-35.2	10.0	6.88e-03	0	42	0	42991616	22	6067
2026-01-03 10:13:34.86	157.04	9.16	-30.7	-35.2	10.0	7.41e-03	0	42	0	45088768	22	6052
2026-01-03 10:13:35.86	157.04	9.24	-30.7	-35.2	10.1	6.85e-03	0	42	0	46137344	22	6045
2026-01-03 10:13:36.87	157.04	9.33	-30.8	-35.5	9.9	7.69e-03	0	41	0	48234496	22	6169
2026-01-03 10:13:37.88	157.04	9.42	-30.8	-35.4	10.0	8.50e-03	0	42	0	50331648	22	6107
2026-01-03 10:13:38.89	157.04	9.50	-30.9	-35.6	10.0	7.75e-03	0	41	0	52428800	22	6188
2026-01-03 10:13:39.90	157.03	9.59	-30.8	-35.3	10.2	7.33e-03	0	42	0	54525952	22	6020
2026-01-03 10:13:40.90	157.03	9.68	-30.8	-35.1	10.4	5.23e-03	0	42	0	56623104	22	5913
2026-01-03 10:13:41.90	157.03	9.76	-30.8	-35.0	10.5	4.28e-03	0	42	0	57671680	22	5845
2026-01-03 10:13:42.91	157.03	9.85	-30.7	-34.9	10.5	3.70e-03	0	42	0	59768832	22	5838
2026-01-03 10:13:43.92	157.03	9.94	-30.8	-35.0	10.4	4.18e-03	0	42	0	61865984	22	5884
2026-01-03 10:13:44.93	157.03	10.03	-30.8	-35.0	10.5	4.51e-03	0	42	0	63963136	22	5858
2026-01-03 10:13:45.94	157.03	10.11	-30.7	-34.8	10.6	3.74e-03	0	42	0	66060288	22	5781
2026-01-03 10:13:46.94	157.02	10.20	-30.7	-34.7	10.7	2.99e-03	0	42	0	67108864	22	5738
2026-01-03 10:13:47.95	157.02	10.29	-30.7	-34.6	10.7	2.95e-03	0	42	0	69206016	22	5700
2026-01-03 10:13:48.96	157.02	10.38	-30.7	-34.6	10.7	2.85e-03	0	42	0	71303168	22	5700
2026-01-03 10:13:49.96	157.02	10.47	-30.7	-35.0	10.5	3.44e-03	0	42	0	73400320	22	5849
2026-01-03 10:13:50.96	157.02	10.56	-30.7	-34.9	10.6	3.55e-03	0	42	0	74448896	22	5804
2026-01-03 10:13:51.97	157.02	10.65	-30.7	-34.9	10.6	3.33e-03	0	42	0	76546048	22	5820
2026-01-03 10:13:52.97	157.01	10.74	-30.8	-35.3	10.3	4.70e-03	0	42	0	78643200	22	6022
2026-01-03 10:13:53.98	157.01	10.83	-30.7	-35.0	10.6	4.73e-03	0	42	0	80740352	22	5840
2026-01-03 10:13:54.98	157.01	10.92	-30.7	-34.7	10.8	3.16e-03	0	42	0	82837504	22	5718
2026-01-03 10:13:55.99	157.01	11.01	-30.7	-34.6	10.9	2.61e-03	0	42	0	84934656	22	5682
2026-01-03 10:13:56.99	157.01	11.10	-30.7	-34.6	10.9	2.25e-03	0	42	0	85983232	22	5659
2026-01-03 10:13:57.99	157.00	11.20	-30.7	-34.9	10.7	2.48e-03	0	42	0	88080384	22	5798
2026-01-03 10:13:59.00	157.00	11.29	-30.7	-34.6	10.9	2.38e-03	0	42	0	90177536	22	5669
2026-01-03 10:14:00.00	157.00	11.38	-30.7	-34.9	10.7	2.46e-03	0	42	0	92274688	22	5781
2026-01-03 10:14:01.01	157.00	11.47	-30.8	-35.2	10.5	3.30e-03	0	42	0	93323264	22	5932
2026-01-03 10:14:02.01	157.00	11.57	-30.7	-34.9	10.7	3.24e-03	0	42	0	95420416	22	5812
2026-01-03 10:14:03.02	156.99	11.66	-30.7	-34.6	10.9	2.31e-03	0	42	0	97517568	22	5655
2026-01-03 10:14:04.03	156.99	11.76	-30.6	-34.4	11.1	1.86e-03	0	42	0	99614720	22	5550
2026-01-03 10:14:05.03	156.99	11.85	-30.5	-34.2	11.2	1.48e-03	0	42	0	101711872	22	5500
2026-01-03 10:14:06.03	156.99	11.94	-30.6	-34.3	11.2	1.30e-03	0	42	0	102760448	22	5511
2026-01-03 10:14:07.04	156.98	12.04	-30.6	-34.2	11.3	1.29e-03	0	42	0	104857600	22	5490
2026-01-03 10:14:08.05	156.98	12.14	-30.6	-34.4	11.2	1.30e-03	0	42	0	106954752	22	5559
2026-01-03 10:14:09.05	156.98	12.23	-30.7	-34.6	11.0	1.91e-03	0	42	0	109051904	22	5655
2026-01-03 10:14:10.06	156.98	12.33	-30.5	-34.2	11.2	1.59e-03	0	42	0	111149056	22	5492
2026-01-03 10:14:11.06	156.98	12.43	-30.5	-34.0	11.4	1.03e-03	0	42	0	112197632	22	5412
2026-01-03 10:14:12.07	156.97	12.52	-30.4	-33.9	11.5	8.40e-04	0	42	0	114294784	22	5358
2026-01-03 10:14:13.08	156.97	12.62	-30.4	-33.8	11.6	7.91e-04	0	42	0	116391936	22	5308
2026-01-03 10:14:14.08	156.97	12.72	-30.4	-33.7	11.6	6.93e-04	0	42	0	118489088	22	5297
2026-01-03 10:14:15.09	156.97	12.82	-30.4	-33.9	11.5	8.27e-04	0	42	0	120586240	22	5366
2026-01-03 10:14:16.09	156.96	12.92	-30.4	-33.7	11.6	6.93e-04	0	42	0	121634816	22	5292
2026-01-03 10:14:17.09	156.96	13.01	-30.3	-33.6	11.7	6.47e-04	0	42	0	123731968	22	5234
2026-01-03 10:14:18.09	156.96	13.11	-30.3	-33.6	11.7	5.48e-04	0	42	0	125829120	22	5235
2026-01-03 10:14:19.10	156.96	13.21	-30.3	-33.5	11.8	5.07e-04	0	43	0	127926272	22	5210
2026-01-03 10:14:20.10	156.95	13.31	-30.4	-33.6	11.7	4.79e-04	0	42	0	130023424	22	5237
2026-01-03 10:14:21.10	156.95	13.41	-30.4	-33.9	11.5	6.57e-04	0	42	0	131072000	22	5352
2026-01-03 10:14:22.11	156.95	13.52	-30.4	-33.7	11.7	5.66e-04	0	42	0	133169152	22	5255
2026-01-03 10:14:23.12	156.94	13.62	-30.4	-33.9	11.6	6.56e-04	0	42	0	135266304	22	5340
2026-01-03 10:14:24.12	156.94	13.72	-30.4	-33.7	11.8	5.61e-04	0	42	0	137363456	22	5248
2026-01-03 10:14:25.13	156.94	13.82	-30.4	-33.6	11.9	4.57e-04	0	42	0	139460608	22	5190
2026-01-03 10:14:26.14	156.94	13.93	-30.4	-33.5	11.9	4.29e-04	0	42	0	140509184	22	5162
2026-01-03 10:14:27.14	156.93	14.03	-30.4	-33.5	11.9	3.68e-04	0	42	0	142606336	22	5158
2026-01-03 10:14:28.14	156.93	14.13	-30.3	-33.3	12.1	3.49e-04	0	42	0	144703488	22	5083
2026-01-03 10:14:29.15	156.93	14.24	-30.4	-33.5	12.0	3.13e-04	0	42	0	146800640	22	5137
2026-01-03 10:14:30.15	156.92	14.34	-30.5	-33.7	11.8	4.26e-04	0	42	0	148897792	22	5246
2026-01-03 10:14:31.16	156.92	14.45	-30.4	-33.4	12.0	3.90e-04	0	42	0	149946368	22	5107
2026-01-03 10:14:32.17	156.92	14.55	-30.3	-33.3	12.1	2.70e-04	0	42	0	152043520	22	5075
2026-01-03 10:14:33.17	156.91	14.66	-30.2	-33.5	12.3	2.31e-04	0	42	0	154140672	21	5272
2026-01-03 10:14:34.17	156.91	14.76	-30.2	-33.5	12.3	2.01e-04	0	42	0	156237824	21	5268
2026-01-03 10:14:35.18	156.91	14.87	-30.3	-33.6	12.2	1.95e-04	0	43	0	158334976	21	5300
2026-01-03 10:14:36.18	156.90	14.98	-30.2	-33.4	12.4	1.62e-04	0	42	0	159383552	21	5221
2026-01-03 10:14:37.19	156.90	15.09	-30.2	-33.5	12.3	1.55e-04	0	42	0	161480704	21	5270
2026-01-03 10:14:38.20	156.90	15.20	-30.3	-33.7	12.2	1.98e-04	0	42	0	163577856	21	5328
2026-01-03 10:14:39.20	156.89	15.30	-30.2	-33.5	12.4	1.62e-04	0	42	0	165675008	21	5227
2026-01-03 10:14:40.21	156.89	15.41	-30.2	-33.4	12.5	1.40e-04	0	43	0	167772160	21	5184
2026-01-03 10:14:41.22	156.89	15.52	-30.2	-33.4	12.4	1.27e-04	0	43	0	168820736	21	5215
2026-01-03 10:14:42.22	156.88	15.63	-30.3	-33.6	12.3	1.61e-04	0	42	0	170917888	21	5260
2026-01-03 10:14:43.22	156.88	15.74	-30.3	-33.7	12.2	2.00e-04	0	43	0	173015040	21	5325
2026-01-03 10:14:44.23	156.87	15.86	-30.2	-33.4	12.5	1.50e-04	0	42	0	175112192	21	5169
2026-01-03 10:14:45.24	156.87	15.97	-30.1	-33.1	12.7	7.62e-05	0	43	0	177209344	21	5078
2026-01-03 10:14:46.24	156.87	16.08	-30.1	-33.1	12.7	8.31e-05	0	43	0	178257920	21	5056
2026-01-03 10:14:47.24	156.86	16.19	-30.1	-33.0	12.8	6.86e-05	0	42	0	180355072	21	5015
2026-01-03 10:14:48.25	156.86	16.31	-30.1	-33.0	12.8	5.72e-05	0	43	0	182452224	21	5032
2026-01-03 10:14:49.26	156.85	16.42	-30.2	-33.2	12.7	8.23e-05	0	42	0	184549376	21	5090
2026-01-03 10:14:50.26	156.85	16.54	-30.0	-32.8	12.9	5.41e-05	0	42	0	186646528	21	4958
2026-01-03 10:14:51.27	156.85	16.65	-30.0	-32.7	13.0	3.35e-05	0	42	0	187695104	21	4918
2026-01-03 10:14:52.28	156.84	16.77	-30.0	-32.7	13.0	3.28e-05	0	43	0	189792256	21	4899
2026-01-03 10:14:53.28	156.84	16.88	-29.9	-32.5	13.2	2.44e-05	0	43	0	191889408	21	4825
2026-01-03 10:14:54.29	156.83	17.00	-30.0	-32.6	13.1	1.98e-05	0	43	0	193986560	21	4860
2026-01-03 10:14:55.29	156.83	17.12	-30.0	-32.8	13.0	4.34e-05	0	43	0	196083712	21	4943
2026-01-03 10:14:56.30	156.83	17.24	-30.1	-32.9	12.9	3.43e-05	0	43	0	197132288	21	4974
2026-01-03 10:14:57.30	156.82	17.35	-30.0	-32.7	13.0	3.96e-05	0	43	0	199229440	21	4922
2026-01-03 10:14:58.31	156.82	17.47	-30.0	-32.7	13.1	2.82e-05	0	43	0	201326592	21	4899
2026-01-03 10:14:59.31	156.81	17.59	-30.0	-32.8	13.0	2.82e-05	0	42	0	203423744	21	4942
2026-01-03 10:15:00.32	156.81	17.71	-30.1	-32.9	12.9	4.27e-05	0	43	0	204472320	21	5017
2026-01-03 10:15:01.33	156.80	17.84	-30.1	-33.1	12.8	5.26e-05	0	43	0	206569472	21	5066
2026-01-03 10:15:02.33	156.80	17.96	-30.0	-32.9	12.9	5.26e-05	0	43	0	208666624	21	4997
2026-01-03 10:15:03.34	156.79	18.08	-30.1	-33.0	12.9	8.69e-05	0	43	0	210763776	21	5021
2026-01-03 10:15:04.35	156.79	18.20	-30.0	-32.6	13.1	3.43e-05	0	43	0	212860928	21	4876
2026-01-03 10:15:05.35	156.78	18.32	-29.9	-32.4	13.3	2.13e-05	0	43	0	214958080	21	4791
2026-01-03 10:15:06.36	156.78	18.45	-29.8	-32.2	13.4	1.67e-05	0	43	0	216006656	21	4745
2026-01-03 10:15:07.36	156.77	18.57	-29.9	-32.3	13.4	2.13e-05	0	43	0	218103808	21	4779
2026-01-03 10:15:08.37	156.77	18.70	-29.8	-32.1	13.5	1.44e-05	0	43	0	220200960	21	4686
2026-01-03 10:15:09.37	156.76	18.82	-29.7	-32.4	13.6	1.06e-05	0	43	0	222298112	20	4914
2026-01-03 10:15:10.37	156.76	18.95	-29.9	-32.7	13.4	2.36e-05	0	43	0	223346688	20	5020
2026-01-03 10:15:11.37	156.75	19.08	-29.9	-33.0	13.3	7.60e-06	0	43	0	225443840	20	5103
2026-01-03 10:15:12.38	156.75	19.20	-29.9	-32.7	13.5	9.10e-06	0	43	0	227540992	20	4998
2026-01-03 10:15:13.38	156.74	19.33	-29.8	-32.4	13.7	1.44e-05	0	43	0	229638144	20	4899
2026-01-03 10:15:14.39	156.73	19.46	-29.7	-32.3	13.8	6.10e-06	0	43	0	231735296	20	4844
2026-01-03 10:15:15.40	156.73	19.59	-29.7	-32.3	13.8	6.80e-06	0	43	0	232783872	20	4854
2026-01-03 10:15:16.41	156.72	19.72	-29.7	-32.2	13.8	8.30e-06	0	43	0	234881024	20	4815
2026-01-03 10:15:17.41	156.72	19.85	-29.6	-32.0	13.9	6.10e-06	0	43	0	236978176	20	4755
2026-01-03 10:15:18.42	156.71	19.99	-29.7	-32.1	13.9	7.00e-07	0	43	0	239075328	20	4784
2026-01-03 10:15:19.42	156.71	20.12	-29.7	-32.2	13.9	7.60e-06	0	43	0	241172480	20	4799
2026-01-03 10:15:20.43	156.70	20.25	-29.6	-32.0	14.0	2.20e-06	0	43	0	243269632	20	4739
2026-01-03 10:15:21.44	156.69	20.39	-29.6	-31.9	14.0	2.20e-06	0	43	0	244318208	20	4711
2026-01-03 10:15:22.44	156.69	20.52	-29.6	-32.1	14.0	7.00e-07	0	43	0	246415360	20	4765
2026-01-03 10:15:23.44	156.68	20.65	-29.7	-32.3	13.8	3.00e-06	0	43	0	248512512	20	4860
2026-01-03 10:15:24.45	156.67	20.79	-29.7	-32.3	13.8	3.00e-06	0	43	0	250609664	20	4846
2026-01-03 10:15:25.46	156.67	20.93	-29.6	-32.1	14.0	7.00e-07	0	43	0	251658240	20	4773
2026-01-03 10:15:26.47	156.66	21.07	-29.7	-32.2	13.9	4.50e-06	0	43	0	253755392	20	4813
2026-01-03 10:15:27.47	156.65	21.20	-29.7	-32.3	13.8	5.30e-06	0	43	0	255852544	20	4860
2026-01-03 10:15:28.48	156.65	21.34	-29.8	-32.4	13.8	6.80e-06	0	43	0	257949696	20	4891
2026-01-03 10:15:29.48	156.64	21.48	-29.7	-32.3	13.8	6.80e-06	0	43	0	260046848	20	4844
2026-01-03 10:15:30.49	156.63	21.62	-29.9	-32.8	13.6	5.30e-06	0	43	0	261095424	20	4998
2026-01-03 10:15:31.49	156.63	21.77	-30.0	-32.9	13.5	1.22e-05	0	43	0	263192576	20	5064
2026-01-03 10:15:32.50	156.62	21.91	-29.8	-32.4	13.8	5.30e-06	0	43	0	265289728	20	4883
2026-01-03 10:15:33.50	156.61	22.05	-29.7	-32.1	14.0	1.50e-06	0	43	0	267386880	20	4777
2026-01-03 10:15:34.51	156.61	22.20	-29.7	-32.2	14.0	6.80e-06	0	43	0	269484032	20	4813
2026-01-03 10:15:35.52	156.60	22.34	-29.7	-32.3	13.9	3.80e-06	0	43	0	270532608	20	4829
2026-01-03 10:15:36.53	156.59	22.49	-29.8	-32.4	13.9	6.10e-06	0	43	0	272629760	20	4867
2026-01-03 10:15:37.53	156.58	22.63	-29.7	-32.3	14.0	2.20e-06	0	43	0	274726912	20	4821
2026-01-03 10:15:38.54	156.58	22.78	-29.8	-32.6	13.7	2.20e-06	0	43	0	276824064	20	4950
2026-01-03 10:15:39.54	156.57	22.93	-29.9	-32.8	13.6	1.06e-05	0	43	0	278921216	20	5025
2026-01-03 10:15:40.55	156.56	23.08	-29.9	-32.8	13.6	7.60e-06	0	43	0	279969792	20	5024
2026-01-03 10:15:41.56	156.55	23.23	-29.9	-32.7	13.7	7.60e-06	0	43	0	282066944	20	4997
2026-01-03 10:15:42.56	156.54	23.38	-29.9	-32.9	13.6	7.60e-06	0	43	0	284164096	20	5044
2026-01-03 10:15:43.56	156.54	23.53	-29.9	-32.8	13.6	8.30e-06	0	43	0	286261248	20	5023
2026-01-03 10:15:44.57	156.53	23.68	-29.8	-32.5	13.9	6.10e-06	0	43	0	288358400	20	4892
2026-01-03 10:15:45.58	156.52	23.84	-29.7	-32.3	14.0	6.10e-06	0	43	0	289406976	20	4838
2026-01-03 10:15:46.58	156.51	23.99	-29.8	-32.4	13.9	3.00e-06	0	43	0	291504128	20	4874
2026-01-03 10:15:47.58	156.50	24.14	-29.9	-32.7	13.8	3.80e-06	0	43	0	293601280	20	4956
2026-01-03 10:15:48.59	156.49	24.30	-30.0	-33.0	13.6	7.60e-06	0	43	0	295698432	20	5089
2026-01-03 10:15:49.59	156.48	24.46	-30.0	-33.1	13.5	1.22e-05	0	43	0	297795584	20	5098
2026-01-03 10:15:50.60	156.47	24.61	-30.0	-33.0	13.5	5.30e-06	0	43	0	298844160	20	5093
2026-01-03 10:15:51.61	156.47	24.77	-30.1	-33.1	13.5	8.30e-06	0	43	0	300941312	20	5110
2026-01-03 10:15:52.62	156.46	24.93	-29.9	-32.7	13.8	5.30e-06	0	43	0	303038464	20	4968
2026-01-03 10:15:53.62	156.45	25.09	-29.9	-32.6	13.8	5.30e-06	0	43	0	305135616	20	4937
2026-01-03 10:15:54.63	156.44	25.26	-29.9	-32.6	13.8	5.30e-06	0	43	0	307232768	20	4946
2026-01-03 10:15:55.63	156.43	25.42	-30.0	-33.1	13.6	6.10e-06	0	43	0	308281344	20	5105
2026-01-03 10:15:56.64	156.42	25.58	-30.0	-33.0	13.6	9.10e-06	0	43	0	310378496	20	5082
2026-01-03 10:15:57.65	156.41	25.75	-29.9	-32.7	13.8	6.80e-06	0	43	0	312475648	20	4964
2026-01-03 10:15:58.65	156.40	25.91	-29.8	-32.5	13.9	3.00e-06	0	43	0	314572800	20	4907
2026-01-03 10:15:59.65	156.39	26.08	-29.8	-32.6	13.9	3.80e-06	0	43	0	316669952	20	4926
2026-01-03 10:16:00.66	156.38	26.25	-29.8	-32.5	13.9	6.10e-06	0	43	0	317718528	20	4915
2026-01-03 10:16:01.66	156.37	26.42	-29.9	-32.7	13.8	3.00e-06	0	43	0	319815680	20	4984
2026-01-03 10:16:02.67	156.36	26.59	-29.9	-32.8	13.8	3.00e-06	0	43	0	321912832	20	4989
2026-01-03 10:16:03.68	156.34	26.76	-30.0	-33.0	13.6	3.80e-06	0	43	0	324009984	20	5078
2026-01-03 10:16:04.69	156.33	26.93	-30.1	-33.2	13.5	8.30e-06	0	43	0	326107136	20	5150
2026-01-03 10:16:05.69	156.32	27.10	-30.2	-33.4	13.3	6.80e-06	0	43	0	327155712	20	5228
2026-01-03 10:16:06.70	156.31	27.28	-30.4	-33.9	13.0	2.67e-05	0	43	0	329252864	20	5415
2026-01-03 10:16:07.71	156.30	27.46	-30.4	-34.1	12.9	5.26e-05	0	43	0	331350016	20	5503
2026-01-03 10:16:08.71	156.29	27.63	-30.5	-34.2	12.8	4.88e-05	0	43	0	333447168	20	5545
2026-01-03 10:16:09.71	156.28	27.81	-30.7	-34.5	12.4	1.30e-04	0	43	0	335544320	21	5536
2026-01-03 10:16:10.72	156.26	27.99	-30.8	-34.5	12.3	2.39e-04	0	43	0	336592896	21	5567
2026-01-03 10:16:11.73	156.25	28.17	-30.9	-34.9	12.0	1.57e-04	0	43	0	338690048	21	5723
2026-01-03 10:16:12.73	156.24	28.35	-30.9	-35.1	12.0	4.27e-04	0	43	0	340787200	21	5786
2026-01-03 10:16:13.74	156.23	28.53	-31.0	-34.6	12.0	4.00e-04	0	43	0	342884352	22	5471
2026-01-03 10:16:14.75	156.22	28.72	-31.0	-34.7	11.9	2.95e-04	0	43	0	344981504	22	5500
2026-01-03 10:16:15.75	156.20	28.90	-31.1	-35.0	11.7	4.73e-04	0	43	0	346030080	22	5638
2026-01-03 10:16:16.76	156.19	29.09	-31.1	-35.0	11.7	7.53e-04	0	43	0	348127232	22	5652
2026-01-03 10:16:17.76	156.18	29.28	-31.3	-35.5	11.4	6.67e-04	0	43	0	350224384	22	5861
2026-01-03 10:16:18.76	156.16	29.46	-31.3	-35.7	11.2	1.15e-03	0	43	0	352321536	22	5948
2026-01-03 10:16:19.77	156.15	29.65	-31.4	-35.9	11.1	1.13e-03	0	43	0	354418688	22	6042
2026-01-03 10:16:20.77	156.14	29.84	-31.6	-35.9	10.7	2.39e-03	0	43	0	355467264	23	5969
2026-01-03 10:16:21.78	156.12	30.04	-31.7	-36.6	10.2	4.09e-03	0	43	0	357564416	23	6292
2026-01-03 10:16:22.78	156.11	30.23	-31.7	-36.6	10.2	6.03e-03	0	43	0	359661568	23	6291
2026-01-03 10:16:23.78	156.09	30.42	-31.8	-36.9	10.0	5.44e-03	0	43	0	361758720	23	6462
2026-01-03 10:16:24.79	156.08	30.62	-31.8	-36.6	10.2	9.24e-03	0	43	0	363855872	23	6295
2026-01-03 10:16:25.80	156.06	30.82	-31.6	-36.1	10.5	4.46e-03	0	43	0	364904448	23	6054
2026-01-03 10:16:26.81	156.05	31.02	-31.6	-36.1	10.6	2.92e-03	0	43	0	367001600	23	6030
2026-01-03 10:16:27.82	156.03	31.22	-31.6	-36.0	10.7	2.82e-03	0	43	0	369098752	23	6002
2026-01-03 10:16:28.82	156.02	31.42	-31.6	-36.1	10.6	3.26e-03	0	43	0	371195904	23	6021
2026-01-03 10:16:29.83	156.00	31.63	-31.7	-36.5	10.3	4.93e-03	0	43	0	373293056	23	6256
2026-01-03 10:16:30.83	155.99	31.83	-31.8	-36.6	10.3	6.62e-03	0	43	0	374341632	23	6275
2026-01-03 10:16:31.84	155.97	32.04	-31.7	-36.4	10.4	4.76e-03	0	43	0	376438784	23	6177
2026-01-03 10:16:32.84	155.95	32.24	-31.7	-36.4	10.4	4.14e-03	0	43	0	378535936	23	6175
2026-01-03 10:16:33.85	155.94	32.45	-31.7	-36.3	10.4	4.05e-03	0	43	0	380633088	23	6148
2026-01-03 10:16:34.85	155.92	32.66	-31.9	-37.0	10.0	4.89e-03	0	43	0	382730240	23	6484
2026-01-03 10:16:35.86	155.90	32.87	-31.8	-36.6	10.2	5.85e-03	0	43	0	383778816	23	6290
2026-01-03 10:16:36.87	155.89	33.09	-31.6	-36.1	10.6	4.22e-03	0	43	0	385875968	23	6051
2026-01-03 10:16:37.87	155.87	33.30	-31.6	-36.1	10.7	2.76e-03	0	43	0	387973120	23	6008
2026-01-03 10:16:38.88	155.85	33.52	-31.5	-35.7	11.0	2.28e-03	0	43	0	390070272	23	5832
2026-01-03 10:16:39.89	155.83	33.74	-31.4	-35.4	11.2	1.84e-03	0	43	0	392167424	23	5684
2026-01-03 10:16:40.89	155.81	33.96	-31.4	-35.3	11.2	1.10e-03	0	43	0	393216000	23	5658
2026-01-03 10:16:41.90	155.79	34.18	-31.5	-35.5	11.1	1.46e-03	0	43	0	395313152	23	5739
2026-01-03 10:16:42.91	155.77	34.40	-31.2	-34.6	11.8	7.70e-04	0	43	0	397410304	23	5331
2026-01-03 10:16:43.91	155.75	34.63	-31.0	-34.1	12.1	3.11e-04	0	43	0	399507456	23	5145
2026-01-03 10:16:44.92	155.73	34.85	-31.0	-34.3	12.0	2.65e-04	0	43	0	401604608	23	5205
2026-01-03 10:16:45.92	155.71	35.08	-30.9	-33.7	12.4	1.79e-04	0	43	0	402653184	23	4977
2026-01-03 10:16:46.93	155.69	35.31	-30.5	-33.0	13.2	5.72e-05	0	43	0	404750336	22	4844
2026-01-03 10:16:47.93	155.67	35.54	-30.2	-32.9	13.6	2.36e-05	0	43	0	406847488	21	4901
2026-01-03 10:16:48.93	155.65	35.77	-30.0	-32.3	14.0	6.80e-06	0	43	0	408944640	21	4695
2026-01-03 10:16:49.94	155.63	36.01	-29.9	-32.0	14.2	2.20e-06	0	43	0	411041792	21	4595
2026-01-03 10:16:50.95	155.61	36.24	-29.9	-32.1	14.1	0.00e+00	0	43	0	412090368	21	4622
2026-01-03 10:16:51.95	155.59	36.48	-29.9	-32.0	14.2	7.00e-07	0	43	0	414187520	21	4595
2026-01-03 10:16:52.95	155.56	36.72	-29.8	-32.1	14.4	7.00e-07	0	43	0	416284672	20	4740
2026-01-03 10:16:53.96	155.54	36.96	-30.0	-32.8	14.0	2.20e-06	0	43	0	418381824	20	4958
2026-01-03 10:16:54.97	155.52	37.20	-29.7	-31.9	14.6	1.50e-06	0	43	0	420478976	20	4661
2026-01-03 10:16:55.97	155.49	37.45	-29.5	-31.5	14.8	0.00e+00	0	43	0	421527552	20	4535
2026-01-03 10:16:56.97	155.47	37.69	-29.4	-31.3	14.9	0.00e+00	0	43	0	423624704	20	4473
2026-01-03 10:16:57.98	155.44	37.94	-29.5	-31.5	14.9	0.00e+00	0	43	0	425721856	20	4517
2026-01-03 10:16:58.98	155.42	38.19	-29.4	-31.3	15.0	0.00e+00	0	43	0	427819008	20	4452
2026-01-03 10:16:59.99	155.39	38.44	-29.4	-31.3	15.0	0.00e+00	0	43	0	429916160	20	4454
2026-01-03 10:17:01.00	155.37	38.70	-29.3	-31.1	15.1	0.00e+00	0	43	0	430964736	20	4400
2026-01-03 10:17:01.99	155.34	38.95	-29.3	-31.4	15.2	7.00e-07	0	43	0	433061888	19	4606
2026-01-03 10:17:03.00	155.32	39.21	-29.4	-31.8	15.0	0.00e+00	0	43	0	435159040	19	4713
2026-01-03 10:17:04.01	155.29	39.47	-29.5	-31.9	15.0	0.00e+00	0	43	0	437256192	19	4765
2026-01-03 10:17:05.01	155.26	39.73	-29.5	-31.9	14.9	0.00e+00	0	43	0	438304768	19	4764
2026-01-03 10:17:06.01	155.23	39.99	-29.7	-32.4	14.7	7.00e-07	0	43	0	440401920	19	4921
2026-01-03 10:17:07.01	155.20	40.26	-29.6	-32.3	14.7	0.00e+00	0	43	0	442499072	19	4901
2026-01-03 10:17:08.02	155.17	40.52	-29.8	-32.7	14.5	0.00e+00	0	43	0	444596224	19	5034
2026-01-03 10:17:09.02	155.14	40.79	-29.9	-32.9	14.4	1.50e-06	0	43	0	446693376	19	5097
2026-01-03 10:17:10.02	155.11	41.06	-29.9	-32.9	14.4	1.50e-06	0	43	0	447741952	19	5085
2026-01-03 10:17:11.03	155.08	41.34	-30.1	-32.9	14.0	1.50e-06	0	43	0	449839104	20	4983
2026-01-03 10:17:12.04	155.05	41.61	-30.2	-33.2	13.8	1.50e-06	0	43	0	451936256	20	5085
2026-01-03 10:17:13.05	155.02	41.89	-30.0	-32.9	14.1	7.00e-07	0	43	0	454033408	20	4988
2026-01-03 10:17:14.05	154.98	42.17	-30.1	-32.9	14.0	1.50e-06	0	43	0	456130560	20	4988
2026-01-03 10:17:15.06	154.95	42.45	-30.1	-33.1	13.9	4.50e-06	0	43	0	457179136	20	5064
2026-01-03 10:17:16.06	154.92	42.74	-30.0	-32.8	14.0	1.50e-06	0	43	0	459276288	20	4968
2026-01-03 10:17:17.07	154.88	43.02	-30.2	-33.2	13.8	3.00e-06	0	43	0	461373440	20	5103
2026-01-03 10:17:18.08	154.85	43.31	-30.3	-33.5	13.7	1.14e-05	0	43	0	463470592	20	5188
2026-01-03 10:17:19.09	154.81	43.61	-30.1	-32.9	14.0	4.50e-06	0	43	0	465567744	20	4996
2026-01-03 10:17:20.10	154.77	43.90	-30.1	-32.9	14.0	7.00e-07	0	43	0	466616320	20	4994
2026-01-03 10:17:21.10	154.74	44.19	-30.1	-33.1	13.9	1.50e-06	0	43	0	468713472	20	5066
2026-01-03 10:17:22.11	154.70	44.49	-30.2	-33.4	13.7	7.00e-07	0	43	0	470810624	20	5187
2026-01-03 10:17:23.12	154.66	44.79	-30.4	-33.9	13.4	5.30e-06	0	43	0	472907776	20	5372
2026-01-03 10:17:24.12	154.62	45.09	-30.6	-33.9	13.1	2.51e-05	0	43	0	475004928	21	5254
2026-01-03 10:17:25.13	154.58	45.40	-30.9	-34.8	12.5	9.23e-05	0	43	0	477102080	21	5641
2026-01-03 10:17:26.14	154.53	45.71	-31.2	-35.1	12.0	2.54e-04	0	43	0	478150656	22	5631
2026-01-03 10:17:27.15	154.49	46.02	-31.3	-35.6	11.6	5.28e-04	0	43	0	480247808	22	5860
2026-01-03 10:17:28.15	154.45	46.32	-31.4	-35.9	11.5	7.13e-04	0	43	0	482344960	22	5989
2026-01-03 10:17:29.16	154.40	46.64	-31.7	-36.2	10.8	1.80e-03	0	43	0	484442112	23	6026
2026-01-03 10:17:30.17	154.36	46.96	-31.9	-36.9	10.3	4.04e-03	0	43	0	485490688	23	6425
2026-01-03 10:17:31.17	154.31	47.27	-32.0	-36.7	10.0	6.21e-03	0	43	0	487587840	24	6218
2026-01-03 10:17:32.18	154.26	47.59	-32.0	-36.7	10.0	7.13e-03	0	43	0	489684992	24	6214
2026-01-03 10:17:33.18	154.21	47.92	-31.7	-35.7	10.8	3.31e-03	0	43	0	491782144	24	5696
2026-01-03 10:17:34.18	154.17	48.24	-31.7	-35.6	11.0	1.97e-03	0	43	0	493879296	24	5632
2026-01-03 10:17:35.19	154.11	48.57	-31.6	-35.4	11.0	2.11e-03	0	43	0	494927872	24	5564
2026-01-03 10:17:36.19	154.06	48.90	-31.4	-34.8	11.5	9.35e-04	0	43	0	497025024	24	5302
2026-01-03 10:17:37.20	154.01	49.23	-31.4	-34.7	11.5	1.05e-03	0	43	0	499122176	24	5264
2026-01-03 10:17:38.20	153.95	49.56	-31.2	-34.7	11.9	5.62e-04	0	43	0	501219328	23	5365
2026-01-03 10:17:39.20	153.90	49.90	-31.0	-34.1	12.4	2.19e-04	0	43	0	503316480	23	5109
2026-01-03 10:17:40.21	153.84	50.24	-30.7	-33.6	13.0	7.47e-05	0	43	0	504365056	22	5046
2026-01-03 10:17:41.22	153.78	50.58	-30.5	-33.0	13.4	1.90e-05	0	43	0	506462208	22	4812
2026-01-03 10:17:42.22	153.72	50.93	-30.2	-32.7	13.8	3.00e-06	0	43	0	508559360	21	4822
2026-01-03 10:17:43.23	153.66	51.28	-30.1	-32.6	14.0	3.80e-06	0	43	0	510656512	21	4787
2026-01-03 10:17:44.23	153.60	51.62	-29.9	-32.0	14.4	1.50e-06	0	43	0	512753664	21	4583
2026-01-03 10:17:45.24	153.53	51.98	-29.5	-31.4	15.1	7.00e-07	0	43	0	513802240	20	4495
2026-01-03 10:17:46.25	153.47	52.33	-29.3	-30.8	15.4	0.00e+00	0	43	0	515899392	20	4316
2026-01-03 10:17:47.25	153.40	52.69	-29.4	-31.5	15.4	0.00e+00	0	43	0	517996544	19	4633
2026-01-03 10:17:48.25	153.33	53.05	-29.5	-31.8	15.1	0.00e+00	0	43	0	520093696	19	4723
2026-01-03 10:17:49.26	153.26	53.41	-29.4	-31.8	15.2	0.00e+00	0	43	0	522190848	19	4708
2026-01-03 10:17:50.27	153.19	53.78	-29.5	-31.9	15.2	0.00e+00	0	43	0	523239424	19	4734
2026-01-03 10:17:51.27	153.11	54.15	-29.6	-32.2	15.0	0.00e+00	0	43	0	525336576	19	4840
2026-01-03 10:17:52.27	153.04	54.51	-29.5	-31.8	15.1	0.00e+00	0	43	0	527433728	19	4730
2026-01-03 10:17:53.28	152.96	54.89	-29.2	-31.2	15.6	0.00e+00	0	43	0	529530880	19	4512
2026-01-03 10:17:54.29	152.87	55.27	-29.2	-31.2	15.6	0.00e+00	0	43	0	531628032	19	4518
2026-01-03 10:17:55.29	152.79	55.64	-29.6	-32.2	14.9	0.00e+00	0	43	0	532676608	19	4848
2026-01-03 10:17:56.30	152.70	56.02	-30.1	-32.8	14.2	0.00e+00	0	43	0	534773760	20	4963
2026-01-03 10:17:57.31	152.61	56.41	-30.4	-33.8	13.6	3.80e-06	0	43	0	536870912	20	5339
2026-01-03 10:17:58.30	152.52	56.79	-30.9	-34.7	12.6	1.90e-05	0	43	0	538968064	21	5593
2026-01-03 10:17:59.31	152.43	57.18	-31.3	-35.3	11.9	3.29e-04	0	43	0	541065216	22	5729
2026-01-03 10:18:00.32	152.33	57.57	-31.6	-35.9	11.1	8.03e-04	0	43	0	542113792	23	5863
2026-01-03 10:18:01.33	152.23	57.97	-32.1	-36.9	10.0	3.36e-03	0	43	0	544210944	24	6285
2026-01-03 10:18:02.34	152.13	58.37	-32.1	-37.2	9.8	1.02e-02	0	43	0	546308096	24	6456
2026-01-03 10:18:03.34	152.02	58.76	-32.1	-37.0	9.9	1.46e-02	0	43	0	548405248	24	6359
2026-01-03 10:18:04.35	151.91	59.17	-31.7	-35.8	10.9	5.09e-03	0	43	0	550502400	24	5716
2026-01-03 10:18:05.36	151.80	59.57	-31.6	-35.2	11.2	1.61e-03	0	43	0	551550976	24	5480
2026-01-03 10:18:06.36	151.68	59.98	-31.4	-34.6	11.8	8.32e-04	0	43	0	553648128	24	5211
2026-01-03 10:18:07.36	151.56	60.38	-31.3	-34.7	12.0	3.45e-04	0	43	0	555745280	23	5345
2026-01-03 10:18:08.36	151.44	60.79	-31.1	-34.2	12.3	4.03e-04	0	43	0	557842432	23	5165
2026-01-03 10:18:09.37	151.31	61.21	-30.5	-32.9	13.6	2.21e-05	0	43	0	559939584	22	4782
2026-01-03 10:18:10.38	151.18	61.63	-29.9	-32.0	14.5	2.20e-06	0	43	0	560988160	21	4564
2026-01-03 10:18:11.38	151.04	62.04	-29.6	-31.5	15.0	7.00e-07	0	43	0	563085312	20	4521
2026-01-03 10:18:12.38	150.90	62.46	-29.5	-31.5	15.0	0.00e+00	0	43	0	565182464	20	4518
2026-01-03 10:18:13.39	150.75	62.89	-29.3	-30.9	15.4	0.00e+00	0	43	0	567279616	20	4327
2026-01-03 10:18:14.40	150.59	63.32	-29.3	-31.3	15.5	0.00e+00	0	43	0	569376768	19	4551
2026-01-03 10:18:15.41	150.43	63.75	-29.4	-31.6	15.4	0.00e+00	0	43	0	570425344	19	4650
2026-01-03 10:18:16.42	150.27	64.18	-29.5	-31.9	15.2	0.00e+00	0	43	0	572522496	19	4748
2026-01-03 10:18:17.42	150.10	64.61	-29.7	-32.5	14.8	0.00e+00	0	43	0	574619648	19	4927
2026-01-03 10:18:18.43	149.92	65.05	-29.9	-32.8	14.7	0.00e+00	0	43	0	576716800	19	5029
2026-01-03 10:18:19.43	149.73	65.48	-30.3	-33.6	13.8	2.20e-06	0	43	0	578813952	20	5224
2026-01-03 10:18:20.44	149.54	65.92	-30.5	-33.3	13.6	1.67e-05	0	43	0	579862528	21	5019
2026-01-03 10:18:21.45	149.34	66.37	-30.3	-32.8	13.9	7.60e-06	0	43	0	581959680	21	4840
2026-01-03 10:18:22.46	149.12	66.82	-30.4	-33.1	13.8	5.30e-06	0	43	0	584056832	21	4925
2026-01-03 10:18:23.46	148.91	67.26	-30.5	-33.5	13.5	8.30e-06	0	43	0	586153984	21	5081
2026-01-03 10:18:24.47	148.67	67.71	-30.7	-34.1	13.1	1.52e-05	0	43	0	588251136	21	5329
2026-01-03 10:18:25.47	148.44	68.16	-30.9	-34.2	12.7	8.01e-05	0	43	0	589299712	22	5224
2026-01-03 10:18:26.48	148.18	68.61	-30.8	-33.8	13.0	5.79e-05	0	43	0	591396864	22	5088
2026-01-03 10:18:27.49	147.92	69.07	-30.6	-33.3	13.4	2.97e-05	0	43	0	593494016	22	4883
2026-01-03 10:18:28.49	147.65	69.52	-30.6	-33.2	13.4	1.06e-05	0	43	0	595591168	22	4867
2026-01-03 10:18:29.49	147.36	69.98	-30.6	-33.3	13.4	2.51e-05	0	43	0	597688320	22	4914
2026-01-03 10:18:30.50	147.05	70.44	-30.5	-33.0	13.6	1.29e-05	0	43	0	598736896	22	4796
2026-01-03 10:18:31.51	146.73	70.90	-30.5	-32.8	13.7	1.22e-05	0	43	0	600834048	22	4721
2026-01-03 10:18:32.51	146.40	71.36	-30.7	-33.4	13.3	1.29e-05	0	43	0	602931200	22	4942
2026-01-03 10:18:33.51	146.04	71.82	-30.7	-33.6	13.2	4.80e-05	0	43	0	605028352	22	5002
2026-01-03 10:18:34.52	145.67	72.29	-30.6	-33.3	13.3	1.90e-05	0	43	0	607125504	22	4907
2026-01-03 10:18:35.53	145.27	72.76	-30.8	-33.9	13.0	3.81e-05	0	43	0	608174080	22	5110
2026-01-03 10:18:36.53	144.85	73.22	-31.1	-34.6	12.5	1.33e-04	0	43	0	610271232	22	5416
2026-01-03 10:18:37.54	144.40	73.69	-31.2	-35.1	12.1	9.91e-05	0	43	0	612368384	22	5588
2026-01-03 10:18:38.54	143.93	74.16	-31.4	-35.4	12.0	3.04e-04	0	43	0	614465536	22	5736
2026-01-03 10:18:39.55	143.42	74.63	-31.3	-35.3	12.0	2.44e-04	0	43	0	616562688	22	5707
2026-01-03 10:18:40.56	142.88	75.10	-31.3	-35.2	12.1	3.49e-04	0	43	0	617611264	22	5678
2026-01-03 10:18:41.56	142.31	75.57	-30.9	-34.2	12.7	2.21e-04	0	43	0	619708416	22	5237
2026-01-03 10:18:42.57	141.69	76.04	-30.9	-34.0	12.9	4.11e-05	0	43	0	621805568	22	5172
2026-01-03 10:18:43.58	141.03	76.52	-31.1	-34.5	12.6	6.02e-05	0	43	0	623902720	22	5369
2026-01-03 10:18:44.58	140.33	76.99	-31.4	-35.4	12.0	1.79e-04	0	43	0	625999872	22	5738
2026-01-03 10:18:45.59	139.56	77.46	-31.4	-34.9	11.9	4.87e-04	0	43	0	627048448	23	5414
2026-01-03 10:18:46.60	138.73	77.93	-31.4	-35.0	12.0	3.29e-04	0	43	0	629145600	23	5432
2026-01-03 10:18:47.60	137.84	78.39	-31.6	-35.7	11.3	8.25e-04	0	43	0	631242752	23	5758
2026-01-03 10:18:48.61	136.87	78.86	-31.2	-34.4	12.3	3.50e-04	0	43	0	633339904	23	5208
2026-01-03 10:18:49.61	135.81	79.32	-30.4	-32.7	13.8	2.59e-05	0	43	0	635437056	22	4673
2026-01-03 10:18:50.61	134.67	79.78	-29.6	-31.6	15.1	7.00e-07	0	43	0	636485632	20	4534
2026-01-03 10:18:51.61	133.41	80.23	-29.4	-31.1	15.5	0.00e+00	0	43	0	638582784	20	4369
2026-01-03 10:18:52.62	132.01	80.69	-30.0	-32.7	14.5	3.00e-06	0	43	0	640679936	20	4883
2026-01-03 10:18:53.62	130.48	81.13	-30.6	-33.7	13.4	6.80e-06	0	43	0	642777088	21	5131
2026-01-03 10:18:54.63	128.78	81.58	-31.1	-34.5	12.7	2.51e-05	0	43	0	643825664	22	5347
2026-01-03 10:18:55.63	126.90	82.01	-31.0	-34.3	12.7	7.85e-05	0	43	0	645922816	22	5262
2026-01-03 10:18:56.64	124.78	82.44	-30.6	-33.1	13.6	2.13e-05	0	43	0	648019968	22	4813
2026-01-03 10:18:57.64	122.44	82.85	-29.8	-31.7	14.8	3.80e-06	0	43	0	650117120	21	4439
2026-01-03 10:18:58.64	119.81	83.25	-29.3	-30.9	15.5	0.00e+00	0	43	0	652214272	20	4299
2026-01-03 10:18:59.65	116.82	83.64	-29.3	-31.2	15.7	0.00e+00	0	43	0	653262848	19	4493
2026-01-03 10:19:00.65	113.49	84.00	-29.6	-32.1	15.2	0.00e+00	0	43	0	655360000	19	4782
2026-01-03 10:19:01.66	109.69	84.35	-29.7	-32.2	15.2	0.00e+00	0	43	0	657457152	19	4812
2026-01-03 10:19:02.67	105.42	84.67	-29.5	-31.9	15.4	0.00e+00	0	43	0	659554304	19	4707
2026-01-03 10:19:03.67	100.68	84.95	-29.5	-31.8	15.5	0.00e+00	0	43	0	661651456	19	4691
2026-01-03 10:19:04.67	95.41	85.20	-30.1	-32.8	14.4	0.00e+00	0	43	0	662700032	20	4922
2026-01-03 10:19:05.68	89.57	85.40	-30.9	-34.5	13.1	9.10e-06	0	43	0	664797184	21	5439
2026-01-03 10:19:06.69	83.27	85.55	-31.4	-35.4	12.1	1.16e-04	0	43	0	666894336	22	5721
2026-01-03 10:19:07.70	76.60	85.65	-31.7	-35.7	11.6	4.19e-04	0	43	0	668991488	23	5718
2026-01-03 10:19:08.70	69.81	85.68	-32.2	-36.9	10.4	3.29e-03	0	43	0	671088640	24	6228
2026-01-03 10:19:09.71	62.94	85.65	-32.3	-37.4	9.8	8.54e-03	0	43	0	672137216	24	6469
2026-01-03 10:19:10.72	56.26	85.56	-32.3	-37.3	10.2	9.38e-03	0	43	0	674234368	24	6395
2026-01-03 10:19:11.73	49.92	85.41	-32.1	-36.7	10.4	6.06e-03	0	43	0	676331520	24	6100
2026-01-03 10:19:12.73	44.11	85.22	-31.9	-35.9	11.0	2.45e-03	0	43	0	678428672	24	5700
2026-01-03 10:19:13.73	38.80	84.97	-31.5	-34.8	11.8	8.42e-04	0	43	0	680525824	24	5241
2026-01-03 10:19:14.74	33.98	84.69	-31.2	-34.3	12.6	2.08e-04	0	43	0	681574400	23	5138
2026-01-03 10:19:15.75	29.67	84.37	-31.3	-34.7	12.3	1.49e-04	0	43	0	683671552	23	5311
2026-01-03 10:19:16.75	25.88	84.03	-31.6	-35.5	11.6	2.88e-04	0	43	0	685768704	23	5638
2026-01-03 10:19:17.76	22.49	83.66	-31.8	-36.3	11.1	9.90e-04	0	43	0	687865856	23	6012
2026-01-03 10:19:18.76	19.51	83.28	-32.0	-36.7	10.8	2.57e-03	0	43	0	689963008	23	6209
2026-01-03 10:19:19.77	16.83	82.88	-32.3	-37.5	9.8	5.94e-03	0	43	0	691011584	24	6520
2026-01-03 10:19:20.78	14.44	82.46	-32.7	-38.3	8.8	2.10e-02	0	43	0	693108736	25	6874
2026-01-03 10:19:21.79	12.32	82.04	-32.3	-37.1	9.8	1.66e-02	0	43	0	695205888	25	6208
2026-01-03 10:19:22.79	10.43	81.61	-32.2	-36.4	10.2	7.89e-03	0	43	0	697303040	25	5892
2026-01-03 10:19:23.80	8.71	81.16	-32.1	-36.3	10.3	5.55e-03	0	43	0	699400192	25	5843
2026-01-03 10:19:24.81	7.16	80.71	-32.4	-37.2	9.6	6.05e-03	0	43	0	700448768	25	6273
2026-01-03 10:19:25.81	5.77	80.26	-32.0	-36.0	10.5	6.62e-03	0	43	0	702545920	25	5689
2026-01-03 10:19:26.82	4.49	79.80	-31.5	-34.6	11.8	1.37e-03	0	43	0	704643072	24	5188
2026-01-03 10:19:27.83	3.33	79.34	-30.8	-33.3	13.1	1.54e-04	0	43	0	706740224	23	4784
2026-01-03 10:19:28.84	2.26	78.88	-30.5	-32.9	13.7	9.90e-06	0	43	0	708837376	22	4746
2026-01-03 10:19:29.84	1.30	78.42	-30.4	-32.7	13.8	3.00e-06	0	43	0	709885952	22	4680
2026-01-03 10:19:30.84	0.41	77.95	-30.8	-33.9	13.1	9.10e-06	0	43	0	711983104	22	5090
2026-01-03 10:19:31.85	359.57	77.48	-31.5	-35.7	11.8	2.97e-04	0	43	0	714080256	22	5849
2026-01-03 10:19:32.86	358.80	77.01	-32.0	-36.6	10.4	2.42e-03	0	43	0	716177408	24	6075
2026-01-03 10:19:33.86	358.10	76.54	-31.7	-35.6	11.2	3.42e-03	0	43	0	718274560	24	5596
2026-01-03 10:19:34.87	357.43	76.07	-31.5	-34.6	11.8	8.26e-04	0	43	0	719323136	24	5192
2026-01-03 10:19:35.87	356.82	75.60	-31.1	-34.1	12.4	2.02e-04	0	43	0	721420288	23	5096
2026-01-03 10:19:36.88	356.24	75.13	-31.3	-34.8	11.9	1.88e-04	0	43	0	723517440	23	5364
2026-01-03 10:19:37.89	355.70	74.66	-32.1	-37.0	10.0	1.24e-03	0	43	0	725614592	24	6289
2026-01-03 10:19:38.89	355.20	74.19	-32.1	-37.0	10.1	9.53e-03	0	43	0	727711744	24	6279
2026-01-03 10:19:39.89	354.73	73.73	-31.6	-35.1	11.4	2.57e-03	0	43	0	728760320	24	5383
2026-01-03 10:19:40.90	354.28	73.26	-31.0	-33.9	12.5	3.36e-04	0	43	0	730857472	23	5036
2026-01-03 10:19:41.91	353.85	72.79	-30.8	-33.2	13.0	4.11e-05	0	43	0	732954624	23	4764
2026-01-03 10:19:42.92	353.45	72.32	-31.0	-34.3	12.6	4.80e-05	0	43	0	735051776	22	5274
2026-01-03 10:19:43.92	353.08	71.86	-30.8	-33.7	13.0	5.72e-05	0	43	0	737148928	22	5041
2026-01-03 10:19:44.92	352.73	71.40	-30.6	-33.2	13.4	2.74e-05	0	43	0	738197504	22	4861
2026-01-03 10:19:45.93	352.39	70.94	-30.6	-33.1	13.4	1.06e-05	0	43	0	740294656	22	4834
2026-01-03 10:19:46.94	352.06	70.47	-31.1	-34.7	12.4	4.11e-05	0	43	0	742391808	22	5441
2026-01-03 10:19:47.94	351.76	70.02	-31.2	-35.1	12.1	1.77e-04	0	43	0	744488960	22	5610
2026-01-03 10:19:48.95	351.47	69.56	-31.5	-35.4	11.5	5.74e-04	0	43	0	746586112	23	5639
2026-01-03 10:19:49.96	351.19	69.10	-31.2	-34.5	12.2	3.99e-04	0	43	0	747634688	23	5249
2026-01-03 10:19:50.96	350.93	68.65	-31.1	-34.1	12.5	1.70e-04	0	43	0	749731840	23	5073
2026-01-03 10:19:51.97	350.68	68.20	-31.3	-34.9	11.9	2.72e-04	0	43	0	751828992	23	5410
2026-01-03 10:19:52.97	350.44	67.75	-32.0	-36.9	10.4	2.60e-03	0	43	0	753926144	23	6376
2026-01-03 10:19:53.97	350.21	67.31	-32.3	-37.9	9.3	1.54e-02	0	43	0	756023296	24	6783
2026-01-03 10:19:54.97	349.99	66.86	-32.0	-36.4	10.4	1.15e-02	0	43	0	757071872	24	6032
2026-01-03 10:19:55.98	349.78	66.42	-31.4	-34.5	11.7	1.08e-03	0	43	0	759169024	24	5160
2026-01-03 10:19:56.99	349.58	65.98	-31.4	-35.0	11.8	3.87e-04	0	43	0	761266176	23	5445
2026-01-03 10:19:57.99	349.39	65.54	-30.9	-33.7	12.7	2.84e-04	0	43	0	763363328	23	4952
2026-01-03 10:19:59.00	349.20	65.10	-30.5	-33.0	13.5	1.67e-05	0	43	0	765460480	22	4781
2026-01-03 10:20:00.00	349.02	64.67	-29.9	-31.9	14.5	2.20e-06	0	43	0	766509056	21	4544
2026-01-03 10:20:01.00	348.85	64.24	-29.2	-31.1	15.6	0.00e+00	0	43	0	768606208	19	4479
2026-01-03 10:20:02.01	348.68	63.81	-28.9	-30.4	16.1	0.00e+00	0	43	0	770703360	19	4261
2026-01-03 10:20:03.02	348.52	63.38	-29.2	-31.0	15.7	0.00e+00	0	43	0	772800512	19	4465
2026-01-03 10:20:04.02	348.37	62.95	-29.0	-30.7	15.8	0.00e+00	0	43	0	774897664	19	4354
2026-01-03 10:20:05.03	348.22	62.53	-29.0	-30.5	15.9	0.00e+00	0	43	0	775946240	19	4314
2026-01-03 10:20:06.04	348.08	62.11	-29.2	-31.1	15.6	0.00e+00	0	43	0	778043392	19	4489
2026-01-03 10:20:07.05	347.94	61.69	-28.9	-30.3	16.1	0.00e+00	0	43	0	780140544	19	4240
2026-01-03 10:20:08.05	347.81	61.27	-29.0	-31.0	16.0	0.00e+00	0	43	0	782237696	18	4556
2026-01-03 10:20:09.06	347.68	60.86	-30.0	-32.7	14.3	0.00e+00	0	43	0	784334848	20	4890
2026-01-03 10:20:10.06	347.55	60.45	-30.6	-34.0	13.1	1.22e-05	0	43	0	785383424	21	5269
2026-01-03 10:20:11.07	347.43	60.04	-31.2	-35.1	12.1	1.01e-04	0	43	0	787480576	22	5622
2026-01-03 10:20:12.08	347.31	59.63	-31.0	-34.3	12.6	1.47e-04	0	43	0	789577728	22	5285
2026-01-03 10:20:13.09	347.20	59.23	-30.8	-33.8	12.8	6.25e-05	0	43	0	791674880	22	5092
2026-01-03 10:20:14.09	347.09	58.83	-30.9	-34.1	12.7	5.64e-05	0	43	0	793772032	22	5206
2026-01-03 10:20:15.10	346.99	58.43	-31.1	-34.7	12.3	1.60e-04	0	43	0	794820608	22	5447
2026-01-03 10:20:16.11	346.88	58.03	-31.4	-35.7	11.6	4.61e-04	0	43	0	796917760	22	5906
2026-01-03 10:20:17.11	346.78	57.64	-32.0	-36.8	10.1	2.65e-03	0	43	0	799014912	24	6230
2026-01-03 10:20:18.11	346.69	57.26	-32.0	-36.8	10.0	1.12e-02	0	43	0	801112064	24	6250
2026-01-03 10:20:19.11	346.59	56.87	-31.1	-34.3	12.1	1.14e-03	0	43	0	803209216	23	5204
2026-01-03 10:20:20.12	346.50	56.48	-30.1	-32.5	14.0	2.28e-05	0	43	0	804257792	21	4744
2026-01-03 10:20:21.12	346.41	56.10	-29.5	-31.3	15.1	0.00e+00	0	43	0	806354944	20	4448
2026-01-03 10:20:22.12	346.33	55.73	-29.4	-31.7	15.2	0.00e+00	0	43	0	808452096	19	4654
2026-01-03 10:20:23.13	346.24	55.35	-29.4	-31.5	15.3	0.00e+00	0	43	0	810549248	19	4605
2026-01-03 10:20:24.14	346.16	54.97	-29.6	-32.1	15.0	0.00e+00	0	43	0	812646400	19	4809
2026-01-03 10:20:25.14	346.08	54.60	-29.4	-31.5	15.3	0.00e+00	0	43	0	813694976	19	4608
2026-01-03 10:20:26.14	346.01	54.23	-29.3	-31.3	15.4	0.00e+00	0	43	0	815792128	19	4560
2026-01-03 10:20:27.15	345.93	53.86	-29.1	-30.9	15.7	0.00e+00	0	43	0	817889280	19	4428
2026-01-03 10:20:28.16	345.86	53.50	-28.9	-30.3	16.0	0.00e+00	0	43	0	819986432	19	4260
2026-01-03 10:20:29.17	345.79	53.14	-28.8	-30.2	16.0	0.00e+00	0	43	0	822083584	19	4231
2026-01-03 10:20:30.17	345.72	52.78	-29.2	-31.2	15.5	0.00e+00	0	43	0	823132160	19	4508
2026-01-03 10:20:31.18	345.65	52.42	-29.5	-32.0	15.0	0.00e+00	0	43	0	825229312	19	4765
2026-01-03 10:20:32.19	345.58	52.06	-30.3	-33.4	13.7	2.20e-06	0	43	0	827326464	20	5186
2026-01-03 10:20:33.19	345.52	51.71	-30.8	-34.4	12.7	2.36e-05	0	43	0	829423616	21	5447
2026-01-03 10:20:34.20	345.45	51.36	-31.0	-34.9	12.4	1.09e-04	0	43	0	831520768	21	5675
2026-01-03 10:20:35.21	345.39	51.02	-30.8	-34.5	12.7	7.01e-05	0	43	0	832569344	21	5491
2026-01-03 10:20:36.21	345.33	50.67	-31.0	-34.9	12.5	8.62e-05	0	43	0	834666496	21	5638
2026-01-03 10:20:37.21	345.28	50.33	-31.2	-35.0	12.0	1.43e-04	0	43	0	836763648	22	5582
2026-01-03 10:20:38.22	345.22	49.99	-31.6	-35.9	11.1	6.18e-04	0	43	0	838860800	23	5888
2026-01-03 10:20:39.23	345.16	49.66	-31.7	-36.0	10.9	1.98e-03	0	43	0	839909376	23	5940
2026-01-03 10:20:40.23	345.11	49.32	-31.8	-36.5	10.6	2.49e-03	0	43	0	842006528	23	6168
2026-01-03 10:20:41.24	345.06	48.99	-32.2	-37.3	9.6	5.00e-03	0	43	0	844103680	24	6506
2026-01-03 10:20:42.24	345.00	48.66	-32.8	-39.6	7.4	7.25e-02	0	43	0	846200832	25	7885
2026-01-03 10:20:43.25	344.95	48.34	-32.8	-39.9	7.2	1.44e-01	0	43	0	848297984	25	8098
2026-01-03 10:20:44.25	344.90	48.01	-32.5	-38.3	8.4	9.15e-02	0	44	0	850395136	25	6972
2026-01-03 10:20:45.26	344.86	47.69	-31.8	-35.5	10.5	7.88e-03	0	43	0	851443712	25	5535
2026-01-03 10:20:46.27	344.81	47.37	-31.4	-34.7	11.5	1.37e-03	0	43	0	853540864	24	5270
2026-01-03 10:20:47.27	344.76	47.05	-31.4	-34.7	11.6	6.81e-04	0	43	0	855638016	24	5244
2026-01-03 10:20:48.27	344.72	46.74	-31.7	-35.7	10.8	1.14e-03	0	43	0	857735168	24	5685
2026-01-03 10:20:49.27	344.67	46.43	-31.7	-35.8	10.7	3.08e-03	0	43	0	858783744	24	5742
2026-01-03 10:20:50.27	344.63	46.12	-32.0	-36.7	10.0	4.27e-03	0	43	0	860880896	24	6209
2026-01-03 10:20:51.28	344.59	45.81	-32.3	-38.0	9.0	1.79e-02	0	43	0	862978048	24	6902
2026-01-03 10:20:52.29	344.55	45.51	-32.4	-38.4	8.7	2.73e-02	0	43	0	865075200	24	7137
2026-01-03 10:20:53.29	344.50	45.21	-32.5	-38.2	8.4	4.47e-02	0	43	0	867172352	25	6965
2026-01-03 10:20:54.30	344.46	44.90	-32.1	-36.8	9.5	2.99e-02	0	43	0	868220928	25	6138
2026-01-03 10:20:55.30	344.43	44.61	-31.7	-35.6	10.7	4.54e-03	0	43	0	870318080	24	5665
2026-01-03 10:20:56.31	344.39	44.31	-31.1	-34.3	12.0	5.29e-04	0	43	0	872415232	23	5205
2026-01-03 10:20:57.31	344.35	44.02	-30.6	-33.4	13.0	9.15e-05	0	43	0	874512384	22	4961
2026-01-03 10:20:58.32	344.31	43.72	-30.5	-33.0	13.3	2.28e-05	0	43	0	876609536	22	4800
2026-01-03 10:20:59.32	344.28	43.43	-30.7	-33.5	12.9	3.58e-05	0	43	0	877658112	22	5002
2026-01-03 10:21:00.33	344.24	43.15	-30.9	-34.2	12.5	6.25e-05	0	43	0	879755264	22	5277
2026-01-03 10:21:01.34	344.21	42.86	-31.4	-35.6	11.5	3.05e-04	0	43	0	881852416	22	5862
2026-01-03 10:21:02.35	344.17	42.57	-31.5	-35.7	11.1	9.50e-04	0	43	0	883949568	23	5796
2026-01-03 10:21:03.35	344.14	42.29	-32.1	-37.1	9.7	6.22e-03	0	43	0	886046720	24	6389
2026-01-03 10:21:04.36	344.11	42.01	-32.3	-38.1	8.8	1.86e-02	0	43	0	887095296	24	7009
2026-01-03 10:21:05.37	344.07	41.74	-32.5	-38.4	8.2	5.30e-02	0	43	0	889192448	25	7083
2026-01-03 10:21:06.38	344.04	41.46	-32.3	-37.6	8.9	3.72e-02	0	43	0	891289600	25	6604
2026-01-03 10:21:07.38	344.01	41.19	-32.1	-36.7	9.5	2.23e-02	0	43	0	893386752	25	6107
2026-01-03 10:21:08.39	343.98	40.92	-31.8	-35.7	10.3	6.94e-03	0	43	0	895483904	25	5609
2026-01-03 10:21:09.39	343.95	40.65	-31.6	-35.4	10.9	2.76e-03	0	43	0	896532480	24	5586
2026-01-03 10:21:10.40	343.92	40.38	-31.6	-35.5	10.8	2.47e-03	0	43	0	898629632	24	5628
2026-01-03 10:21:11.41	343.89	40.12	-31.8	-35.9	10.5	2.45e-03	0	43	0	900726784	24	5822
2026-01-03 10:21:12.41	343.87	39.85	-32.0	-36.7	9.9	7.84e-03	0	43	0	902823936	24	6215
2026-01-03 10:21:13.42	343.84	39.59	-32.2	-37.5	9.3	1.41e-02	0	43	0	904921088	24	6637
2026-01-03 10:21:14.43	343.81	39.33	-32.4	-38.2	8.8	2.18e-02	0	43	0	905969664	24	7053
2026-01-03 10:21:15.43	343.79	39.08	-32.6	-38.8	7.9	5.93e-02	0	43	0	908066816	25	7339
2026-01-03 10:21:16.44	343.76	38.82	-32.7	-39.5	7.3	9.99e-02	0	43	0	910163968	25	7857
2026-01-03 10:21:17.44	343.73	38.57	-32.9	-40.5	6.6	1.66e-01	0	43	0	912261120	25	8623
2026-01-03 10:21:18.44	343.71	38.32	-33.0	-40.6	6.2	2.57e-01	0	43	0	914358272	26	8590
2026-01-03 10:21:19.44	343.68	38.07	-33.1	-41.2	5.9	3.32e-01	0	43	0	915406848	26	9137
2026-01-03 10:21:20.45	343.66	37.82	-33.2	-41.3	5.8	4.26e-01	0	43	0	917504000	26	9216
2026-01-03 10:21:21.45	343.64	37.58	-32.9	-39.8	6.7	3.00e-01	0	43	0	919601152	26	7938
2026-01-03 10:21:22.46	343.61	37.33	-32.6	-38.4	7.8	1.05e-01	0	43	0	921698304	26	6972
2026-01-03 10:21:23.46	343.59	37.09	-32.4	-37.3	8.6	4.91e-02	0	43	0	923795456	26	6371
2026-01-03 10:21:24.47	343.57	36.85	-32.1	-36.7	9.4	2.47e-02	0	43	0	924844032	25	6133
2026-01-03 10:21:25.48	343.54	36.61	-31.9	-36.0	10.1	8.11e-03	0	43	0	926941184	25	5746
2026-01-03 10:21:26.48	343.52	36.38	-31.7	-35.8	10.5	4.89e-03	0	43	0	929038336	24	5760
2026-01-03 10:21:27.49	343.50	36.14	-31.7	-35.8	10.6	3.86e-03	0	43	0	931135488	24	5764
2026-01-03 10:21:28.49	343.48	35.91	-31.6	-35.5	10.8	2.97e-03	0	43	0	933232640	24	5612
2026-01-03 10:21:29.49	343.46	35.68	-31.5	-35.2	11.0	1.90e-03	0	43	0	934281216	24	5505
2026-01-03 10:21:30.50	343.44	35.45	-31.5	-35.1	11.1	1.75e-03	0	43	0	936378368	24	5444
2026-01-03 10:21:31.49	343.42	35.22	-31.6	-35.3	10.9	1.94e-03	0	43	0	938475520	24	5556
2026-01-03 10:21:32.50	343.40	34.99	-31.8	-36.0	10.4	4.09e-03	0	43	0	940572672	24	5887
2026-01-03 10:21:33.50	343.38	34.77	-32.0	-37.1	9.6	8.46e-03	0	43	0	942669824	24	6411
2026-01-03 10:21:34.50	343.36	34.55	-32.3	-37.9	8.9	1.92e-02	0	43	0	943718400	24	6917
2026-01-03 10:21:35.50	343.34	34.32	-32.4	-38.5	8.5	4.03e-02	0	43	0	945815552	24	7258
2026-01-03 10:21:36.51	343.32	34.10	-32.5	-38.6	8.0	5.81e-02	0	43	0	947912704	25	7265
2026-01-03 10:21:37.51	343.30	33.89	-32.6	-38.8	7.9	6.62e-02	0	43	0	950009856	25	7385
2026-01-03 10:21:38.52	343.29	33.67	-32.6	-38.8	7.8	7.96e-02	0	43	0	952107008	25	7400
2026-01-03 10:21:39.53	343.27	33.45	-32.5	-38.4	8.0	6.72e-02	0	43	0	953155584	25	7143
2026-01-03 10:21:40.53	343.25	33.24	-32.4	-38.1	8.3	5.58e-02	0	43	0	955252736	25	6947
2026-01-03 10:21:41.54	343.23	33.02	-32.3	-37.7	8.6	4.44e-02	0	43	0	957349888	25	6668
2026-01-03 10:21:42.55	343.22	32.81	-32.2	-37.1	9.1	2.81e-02	0	43	0	959447040	25	6343
2026-01-03 10:21:43.56	343.20	32.60	-32.1	-36.9	9.3	2.05e-02	0	43	0	961544192	25	6218
2026-01-03 10:21:44.57	343.18	32.39	-32.1	-36.6	9.5	1.56e-02	0	43	0	962592768	25	6089
2026-01-03 10:21:45.57	343.17	32.19	-32.0	-36.5	9.6	1.25e-02	0	43	0	964689920	25	6023
2026-01-03 10:21:46.58	343.15	31.98	-32.0	-36.3	9.7	1.32e-02	0	43	0	966787072	25	5930
2026-01-03 10:21:47.58	343.14	31.78	-31.8	-35.7	10.2	6.98e-03	0	43	0	968884224	25	5644
2026-01-03 10:21:48.59	343.12	31.57	-31.8	-35.7	10.1	6.14e-03	0	43	0	970981376	25	5661
2026-01-03 10:21:49.59	343.11	31.37	-32.0	-36.6	9.5	9.98e-03	0	43	0	972029952	25	6106
2026-01-03 10:21:50.59	343.09	31.17	-32.1	-36.8	9.4	1.89e-02	0	43	0	974127104	25	6165
2026-01-03 10:21:51.59	343.08	30.98	-32.1	-36.7	9.4	1.51e-02	0	43	0	976224256	25	6148
2026-01-03 10:21:52.60	343.06	30.78	-32.2	-37.2	9.0	2.16e-02	0	43	0	978321408	25	6429
2026-01-03 10:21:53.60	343.05	30.58	-32.4	-38.1	8.3	3.54e-02	0	43	0	980418560	25	6913
2026-01-03 10:21:54.61	343.04	30.39	-32.6	-38.8	7.7	7.59e-02	0	43	0	981467136	25	7411
2026-01-03 10:21:55.61	343.02	30.20	-32.6	-39.0	7.6	8.14e-02	0	43	0	983564288	25	7535
2026-01-03 10:21:56.62	343.01	30.00	-32.7	-39.4	7.3	1.26e-01	0	43	0	985661440	25	7823
2026-01-03 10:21:57.62	342.99	29.81	-32.5	-38.6	7.9	1.06e-01	0	43	0	987758592	25	7297
2026-01-03 10:21:58.63	342.98	29.62	-32.4	-38.2	8.2	7.15e-02	0	43	0	988807168	25	6989
2026-01-03 10:21:59.63	342.97	29.44	-32.3	-37.7	8.6	4.17e-02	0	43	0	990904320	25	6689
2026-01-03 10:22:00.63	342.96	29.25	-32.1	-36.9	9.2	2.71e-02	0	43	0	993001472	25	6280
2026-01-03 10:22:01.64	342.94	29.06	-31.9	-36.1	9.7	1.67e-02	0	44	0	995098624	25	5888
2026-01-03 10:22:02.65	342.93	28.88	-31.7	-36.0	10.2	6.52e-03	0	43	0	997195776	24	5897
2026-01-03 10:22:03.65	342.92	28.70	-31.5	-35.4	10.7	3.54e-03	0	43	0	999292928	24	5624
2026-01-03 10:22:04.65	342.91	28.51	-31.4	-35.1	10.9	2.29e-03	0	43	0	1000341504	24	5504
2026-01-03 10:22:05.66	342.90	28.33	-31.5	-35.4	10.7	2.43e-03	0	43	0	1002438656	24	5634
2026-01-03 10:22:06.67	342.88	28.15	-31.3	-34.6	11.3	2.34e-03	0	43	0	1004535808	24	5267
2026-01-03 10:22:07.68	342.87	27.97	-30.9	-33.8	12.2	4.77e-04	0	43	0	1006632960	23	5060
2026-01-03 10:22:08.68	342.86	27.80	-30.6	-33.5	12.7	9.38e-05	0	43	0	1008730112	22	5021
2026-01-03 10:22:09.69	342.85	27.62	-30.3	-33.1	13.3	2.44e-05	0	43	0	1009778688	21	4992
2026-01-03 10:22:10.69	342.84	27.44	-30.1	-32.6	13.6	7.60e-06	0	43	0	1011875840	21	4810
2026-01-03 10:22:11.70	342.83	27.27	-30.0	-32.4	13.8	6.10e-06	0	43	0	1013972992	21	4727
2026-01-03 10:22:12.70	342.82	27.10	-29.9	-32.2	13.9	2.20e-06	0	43	0	1016070144	21	4654
2026-01-03 10:22:13.71	342.81	26.93	-29.9	-32.1	14.0	2.20e-06	0	43	0	1017118720	21	4616
2026-01-03 10:22:14.70	342.80	26.76	-30.0	-32.2	13.9	3.00e-06	0	43	0	1019215872	21	4682
2026-01-03 10:22:15.71	342.79	26.59	-30.0	-32.4	13.7	5.30e-06	0	43	0	1021313024	21	4760
2026-01-03 10:22:16.71	342.78	26.42	-30.0	-32.5	13.7	4.50e-06	0	43	0	1023410176	21	4791
2026-01-03 10:22:17.72	342.77	26.25	-29.9	-32.4	13.7	2.20e-06	0	43	0	1025507328	21	4764
2026-01-03 10:22:18.72	342.76	26.09	-29.7	-32.6	13.7	6.80e-06	0	43	0	1026555904	20	5011
2026-01-03 10:22:19.73	342.75	25.92	-29.2	-32.4	13.9	4.50e-06	0	43	0	1028653056	19	5226
2026-01-03 10:22:20.74	342.74	25.75	-28.8	-32.1	13.8	6.80e-06	0	43	0	1030750208	19	5290
2026-01-03 10:22:21.74	342.73	25.59	-28.9	-32.6	13.9	5.30e-06	0	43	0	1032847360	18	5547
2026-01-03 10:22:22.75	342.72	25.43	-29.2	-33.0	13.9	6.10e-06	0	43	0	1034944512	18	5560
2026-01-03 10:22:23.76	342.71	25.27	-29.6	-32.9	13.9	1.50e-06	0	43	0	1035993088	19	5244
2026-01-03 10:22:24.76	342.70	25.11	-29.9	-33.2	13.9	3.80e-06	0	43	0	1038090240	19	5258
2026-01-03 10:22:25.77	342.69	24.95	-29.9	-33.2	13.9	3.00e-06	0	43	0	1040187392	19	5237
2026-01-03 10:22:26.77	342.68	24.79	-29.9	-33.1	13.9	4.50e-06	0	43	0	1042284544	19	5230
2026-01-03 10:22:27.78	342.68	24.63	-29.8	-33.1	13.9	1.50e-06	0	43	0	1044381696	19	5247
2026-01-03 10:22:28.78	342.67	24.47	-29.9	-33.2	13.8	3.80e-06	0	43	0	1045430272	19	5292
2026-01-03 10:22:29.78	342.66	24.32	-30.5	-33.9	13.6	5.30e-06	0	43	0	1047527424	20	5341
2026-01-03 10:22:30.79	342.65	24.16	-30.1	-33.4	13.3	1.37e-05	0	43	0	1049624576	20	5236
2026-01-03 10:22:31.80	342.64	24.01	-30.0	-33.1	13.5	1.90e-05	0	43	0	1051721728	20	5129
2026-01-03 10:22:32.80	342.64	23.86	-30.0	-33.0	13.6	1.22e-05	0	43	0	1053818880	20	5060
2026-01-03 10:22:33.81	342.63	23.70	-29.8	-32.5	13.9	6.80e-06	0	43	0	1054867456	20	4888
2026-01-03 10:22:34.81	342.62	23.55	-29.7	-32.1	14.2	1.50e-06	0	43	0	1056964608	20	4734
2026-01-03 10:22:35.82	342.61	23.40	-29.7	-32.1	14.2	1.50e-06	0	43	0	1059061760	20	4742
2026-01-03 10:22:36.82	342.60	23.25	-29.7	-32.1	14.2	7.00e-07	0	43	0	1061158912	20	4745
2026-01-03 10:22:37.82	342.60	23.11	-29.9	-32.6	13.8	3.80e-06	0	43	0	1063256064	20	4927
2026-01-03 10:22:38.83	342.59	22.96	-30.1	-33.2	13.4	8.30e-06	0	43	0	1064304640	20	5139
2026-01-03 10:22:39.83	342.58	22.81	-30.1	-33.1	13.5	1.22e-05	0	43	0	1066401792	20	5115
2026-01-03 10:22:40.84	342.58	22.67	-29.9	-32.7	13.8	4.50e-06	0	43	0	1068498944	20	4949
2026-01-03 10:22:41.84	342.57	22.52	-29.8	-32.4	13.9	3.80e-06	0	43	0	1070596096	20	4857
2026-01-03 10:22:42.83	342.56	22.38	-29.7	-32.1	14.1	0.00e+00	0	43	0	1072693248	20	4735
2026-01-03 10:22:43.84	342.56	22.23	-29.6	-31.9	14.2	2.20e-06	0	43	0	1073741824	20	4694
2026-01-03 10:22:44.85	342.55	22.09	-29.7	-32.2	14.1	7.00e-07	0	43	0	1075838976	20	4794
2026-01-03 10:22:45.86	342.54	21.95	-29.7	-32.1	14.1	0.00e+00	0	43	0	1077936128	20	4758
2026-01-03 10:22:46.86	342.54	21.81	-30.0	-33.0	13.6	3.00e-06	0	43	0	1080033280	20	5058
2026-01-03 10:22:47.87	342.53	21.67	-29.8	-32.5	13.9	1.52e-05	0	43	0	1082130432	20	4889
2026-01-03 10:22:48.87	342.52	21.53	-29.6	-31.8	14.3	3.00e-06	0	43	0	1083179008	20	4648
2026-01-03 10:22:49.88	342.52	21.39	-29.4	-31.4	14.6	1.50e-06	0	43	0	1085276160	20	4507
2026-01-03 10:22:50.88	342.51	21.25	-29.3	-31.1	14.7	7.00e-07	0	43	0	1087373312	20	4419
2026-01-03 10:22:51.90	342.51	21.11	-29.3	-31.7	14.8	7.00e-07	0	43	0	1089470464	19	4714
2026-01-03 10:22:52.90	342.50	20.98	-29.4	-31.8	14.7	0.00e+00	0	43	0	1091567616	19	4738
2026-01-03 10:22:53.91	342.49	20.84	-29.4	-31.8	14.7	0.00e+00	0	43	0	1092616192	19	4764
2026-01-03 10:22:54.91	342.49	20.71	-29.5	-32.1	14.5	0.00e+00	0	43	0	1094713344	19	4833
2026-01-03 10:22:55.92	342.48	20.57	-29.5	-32.1	14.5	0.00e+00	0	43	0	1096810496	19	4864
2026-01-03 10:22:56.92	342.48	20.44	-29.6	-32.3	14.4	0.00e+00	0	43	0	1098907648	19	4914
2026-01-03 10:22:57.93	342.47	20.30	-29.6	-32.3	14.3	7.00e-07	0	43	0	1101004800	19	4919
2026-01-03 10:22:58.93	342.47	20.17	-29.6	-32.5	14.2	7.00e-07	0	43	0	1102053376	19	4978
2026-01-03 10:22:59.94	342.46	20.04	-29.7	-32.6	14.1	1.50e-06	0	43	0	1104150528	19	5034
2026-01-03 10:23:00.94	342.46	19.91	-29.7	-32.6	14.2	1.50e-06	0	43	0	1106247680	19	5030
2026-01-03 10:23:01.95	342.45	19.78	-29.9	-33.1	13.8	1.50e-06	0	43	0	1108344832	19	5211
2026-01-03 10:23:02.95	342.45	19.65	-29.8	-32.9	13.9	5.30e-06	0	43	0	1110441984	19	5137
2026-01-03 10:23:03.96	342.44	19.52	-29.9	-33.2	13.8	2.20e-06	0	43	0	1111490560	19	5241
2026-01-03 10:23:04.96	342.44	19.39	-30.1	-33.2	13.4	5.30e-06	0	43	0	1113587712	20	5135
2026-01-03 10:23:05.96	342.43	19.27	-30.1	-33.3	13.2	1.83e-05	0	43	0	1115684864	20	5205
2026-01-03 10:23:06.97	342.43	19.14	-30.2	-33.5	13.1	2.51e-05	0	43	0	1117782016	20	5267
2026-01-03 10:23:07.98	342.42	19.01	-30.2	-33.5	13.1	2.82e-05	0	43	0	1118830592	20	5277
2026-01-03 10:23:08.98	342.42	18.89	-30.1	-33.4	13.2	2.59e-05	0	43	0	1120927744	20	5235
2026-01-03 10:23:09.99	342.41	18.76	-30.1	-33.3	13.3	2.59e-05	0	43	0	1123024896	20	5190
2026-01-03 10:23:11.00	342.41	18.64	-30.0	-33.0	13.4	2.44e-05	0	43	0	1125122048	20	5083
2026-01-03 10:23:12.01	342.40	18.51	-30.0	-32.9	13.4	1.29e-05	0	43	0	1127219200	20	5062
2026-01-03 10:23:13.01	342.40	18.39	-30.0	-33.1	13.4	8.30e-06	0	43	0	1129316352	20	5114
2026-01-03 10:23:14.01	342.39	18.27	-30.2	-33.6	13.0	2.05e-05	0	43	0	1130364928	20	5330
2026-01-03 10:23:15.01	342.39	18.15	-30.0	-33.2	13.3	2.44e-05	0	43	0	1132462080	20	5150
2026-01-03 10:23:16.01	342.39	18.03	-29.8	-32.6	13.7	1.60e-05	0	43	0	1134559232	20	4932
2026-01-03 10:23:17.02	342.38	17.91	-29.8	-32.4	13.8	6.10e-06	0	43	0	1136656384	20	4869
2026-01-03 10:23:18.03	342.38	17.79	-29.8	-32.4	13.8	6.80e-06	0	43	0	1137704960	20	4882
2026-01-03 10:23:19.03	342.37	17.67	-29.8	-32.6	13.7	6.80e-06	0	43	0	1139802112	20	4928
2026-01-03 10:23:20.04	342.37	17.55	-29.9	-32.7	13.6	9.90e-06	0	43	0	1141899264	20	4965
2026-01-03 10:23:21.04	342.37	17.43	-30.0	-33.0	13.4	8.30e-06	0	43	0	1143996416	20	5089
2026-01-03 10:23:22.04	342.36	17.31	-29.9	-32.9	13.4	2.36e-05	0	43	0	1146093568	20	5054
2026-01-03 10:23:23.05	342.36	17.19	-30.0	-33.1	13.3	2.05e-05	0	43	0	1147142144	20	5126
2026-01-03 10:23:24.06	342.36	17.08	-30.1	-33.4	13.1	2.21e-05	0	43	0	1149239296	20	5256
2026-01-03 10:23:25.07	342.35	16.96	-30.2	-33.5	13.0	4.50e-05	0	43	0	1151336448	20	5281
2026-01-03 10:23:26.07	342.35	16.85	-30.1	-33.4	13.1	3.35e-05	0	43	0	1153433600	20	5263
2026-01-03 10:23:27.08	342.34	16.73	-30.2	-33.7	12.9	4.04e-05	0	43	0	1155530752	20	5366
2026-01-03 10:23:28.09	342.34	16.62	-30.2	-33.7	12.9	4.65e-05	0	43	0	1157627904	20	5354
2026-01-03 10:23:29.10	342.34	16.50	-30.2	-33.7	12.9	3.73e-05	0	43	0	1158676480	20	5367
2026-01-03 10:23:30.11	342.33	16.39	-30.3	-34.0	12.6	6.48e-05	0	43	0	1160773632	20	5484
2026-01-03 10:23:31.11	342.33	16.28	-30.2	-33.7	12.9	6.63e-05	0	43	0	1162870784	20	5367
2026-01-03 10:23:32.12	342.33	16.16	-30.2	-33.6	13.0	4.27e-05	0	43	0	1164967936	20	5317
2026-01-03 10:23:33.12	342.33	16.05	-30.2	-33.5	12.9	4.34e-05	0	43	0	1166016512	20	5310
2026-01-03 10:23:34.12	342.32	15.94	-30.2	-33.6	12.9	4.73e-05	0	43	0	1168113664	20	5331
2026-01-03 10:23:35.13	342.32	15.83	-30.3	-33.9	12.7	5.79e-05	0	43	0	1170210816	20	5449
2026-01-03 10:23:36.14	342.32	15.72	-30.2	-33.6	12.9	6.17e-05	0	43	0	1172307968	20	5328
2026-01-03 10:23:37.15	342.31	15.61	-30.1	-33.5	13.0	3.81e-05	0	43	0	1174405120	20	5278
2026-01-03 10:23:38.15	342.31	15.50	-30.1	-33.4	13.0	3.81e-05	0	43	0	1175453696	20	5276
2026-01-03 10:23:39.16	342.31	15.39	-30.1	-33.4	13.0	3.12e-05	0	43	0	1177550848	20	5247
2026-01-03 10:23:40.16	342.30	15.28	-30.2	-33.6	12.9	4.73e-05	0	43	0	1179648000	20	5344
2026-01-03 10:23:41.17	342.30	15.17	-30.1	-33.3	13.1	3.43e-05	0	43	0	1181745152	20	5229
2026-01-03 10:23:42.18	342.30	15.07	-30.1	-33.3	13.1	3.05e-05	0	43	0	1183842304	20	5235
2026-01-03 10:23:43.19	342.30	14.96	-30.1	-33.4	13.0	3.89e-05	0	43	0	1185939456	20	5259
2026-01-03 10:23:44.19	342.29	14.85	-30.1	-33.4	13.0	3.12e-05	0	43	0	1186988032	20	5253
2026-01-03 10:23:45.19	342.29	14.75	-30.1	-33.4	13.0	3.66e-05	0	43	0	1189085184	20	5249
2026-01-03 10:23:46.20	342.29	14.64	-30.2	-33.7	12.8	4.57e-05	0	43	0	1191182336	20	5369
2026-01-03 10:23:47.21	342.29	14.54	-30.1	-33.5	12.9	5.87e-05	0	43	0	1193279488	20	5308
2026-01-03 10:23:48.21	342.28	14.43	-30.1	-33.5	12.9	4.73e-05	0	43	0	1194328064	20	5316
2026-01-03 10:23:49.21	342.28	14.33	-30.2	-33.7	12.7	7.55e-05	0	43	0	1196425216	20	5399
2026-01-03 10:23:50.21	342.28	14.23	-30.2	-33.7	12.8	6.48e-05	0	43	0	1198522368	20	5375
2026-01-03 10:23:51.22	342.28	14.12	-30.2	-33.6	12.8	7.17e-05	0	43	0	1200619520	20	5350
2026-01-03 10:23:52.22	342.28	14.02	-30.3	-34.0	12.6	7.17e-05	0	43	0	1202716672	20	5496
2026-01-03 10:23:53.22	342.27	13.92	-30.4	-34.3	12.3	1.68e-04	0	43	0	1203765248	20	5643
2026-01-03 10:23:54.23	342.27	13.82	-30.3	-33.9	12.6	1.50e-04	0	43	0	1205862400	20	5465
2026-01-03 10:23:55.24	342.27	13.71	-30.2	-33.8	12.6	1.01e-04	0	43	0	1207959552	20	5427
2026-01-03 10:23:56.24	342.27	13.61	-30.3	-34.1	12.4	1.05e-04	0	43	0	1210056704	20	5551
2026-01-03 10:23:57.24	342.27	13.51	-30.4	-34.4	12.1	2.06e-04	0	43	0	1212153856	20	5721
2026-01-03 10:23:58.25	342.26	13.41	-30.4	-34.3	12.2	2.20e-04	0	43	0	1213202432	20	5653
2026-01-03 10:23:59.25	342.26	13.31	-30.4	-34.4	12.1	2.43e-04	0	43	0	1215299584	20	5691
2026-01-03 10:24:00.26	342.26	13.21	-30.4	-34.4	12.1	2.05e-04	0	43	0	1217396736	20	5715
2026-01-03 10:24:01.26	342.26	13.11	-30.4	-34.5	12.1	2.54e-04	0	43	0	1219493888	20	5721
2026-01-03 10:24:02.27	342.26	13.02	-30.4	-34.5	12.1	2.46e-04	0	43	0	1221591040	20	5753
2026-01-03 10:24:03.28	342.25	12.92	-30.5	-34.2	11.9	3.55e-04	0	43	0	1222639616	21	5517
2026-01-03 10:24:04.29	342.25	12.82	-30.6	-34.5	11.7	5.00e-04	0	43	0	1224736768	21	5635
2026-01-03 10:24:05.29	342.25	12.72	-30.6	-34.5	11.7	5.26e-04	0	43	0	1226833920	21	5622
2026-01-03 10:24:06.30	342.25	12.62	-30.7	-34.8	11.5	7.93e-04	0	43	0	1228931072	21	5768
2026-01-03 10:24:07.30	342.25	12.53	-30.6	-34.4	11.8	6.47e-04	0	43	0	1231028224	21	5585
2026-01-03 10:24:08.31	342.25	12.43	-30.5	-34.3	11.8	4.26e-04	0	43	0	1232076800	21	5538
2026-01-03 10:24:09.32	342.25	12.34	-30.6	-34.4	11.8	4.32e-04	0	43	0	1234173952	21	5579
2026-01-03 10:24:10.33	342.24	12.24	-30.6	-34.4	11.7	5.10e-04	0	43	0	1236271104	21	5602
2026-01-03 10:24:11.34	342.24	12.14	-30.6	-34.5	11.7	5.28e-04	0	43	0	1238368256	21	5634
2026-01-03 10:24:12.34	342.24	12.05	-30.6	-34.5	11.6	6.89e-04	0	43	0	1240465408	21	5641
2026-01-03 10:24:13.35	342.24	11.95	-30.5	-34.3	11.8	5.50e-04	0	43	0	1241513984	21	5557
2026-01-03 10:24:14.35	342.24	11.86	-30.5	-34.2	11.8	4.42e-04	0	43	0	1243611136	21	5506
2026-01-03 10:24:15.36	342.24	11.77	-30.4	-34.0	12.0	4.31e-04	0	43	0	1245708288	21	5443
2026-01-03 10:24:16.36	342.24	11.67	-30.5	-34.3	11.8	3.98e-04	0	43	0	1247805440	21	5544
2026-01-03 10:24:17.37	342.23	11.58	-30.6	-34.4	11.7	5.23e-04	0	43	0	1249902592	21	5605
2026-01-03 10:24:18.37	342.23	11.49	-30.5	-34.2	11.8	5.05e-04	0	43	0	1250951168	21	5525
2026-01-03 10:24:19.38	342.23	11.40	-30.5	-34.4	11.7	4.95e-04	0	43	0	1253048320	21	5589
2026-01-03 10:24:20.38	342.23	11.30	-30.5	-34.4	11.7	5.81e-04	0	43	0	1255145472	21	5590
2026-01-03 10:24:21.39	342.23	11.21	-30.5	-34.2	11.8	5.00e-04	0	43	0	1257242624	21	5512
2026-01-03 10:24:22.40	342.23	11.12	-30.5	-34.2	11.8	4.43e-04	0	43	0	1259339776	21	5534
2026-01-03 10:24:23.41	342.23	11.03	-30.5	-34.4	11.6	6.03e-04	0	43	0	1260388352	21	5627
2026-01-03 10:24:24.41	342.23	10.94	-30.6	-34.6	11.5	7.21e-04	0	43	0	1262485504	21	5688
2026-01-03 10:24:25.41	342.23	10.85	-30.6	-34.7	11.4	9.70e-04	0	43	0	1264582656	21	5739
2026-01-03 10:24:26.42	342.23	10.76	-30.6	-34.7	11.4	8.90e-04	0	43	0	1266679808	21	5748
2026-01-03 10:24:27.42	342.22	10.67	-30.7	-34.9	11.2	1.09e-03	0	44	0	1268776960	21	5860
2026-01-03 10:24:28.43	342.22	10.58	-30.8	-35.1	11.1	1.47e-03	0	43	0	1269825536	21	5944
2026-01-03 10:24:29.44	342.22	10.49	-30.7	-35.0	11.2	1.23e-03	0	43	0	1271922688	21	5882
2026-01-03 10:24:30.44	342.22	10.40	-30.8	-35.1	11.1	1.77e-03	0	43	0	1274019840	21	5945
2026-01-03 10:24:31.45	342.22	10.31	-30.7	-35.1	11.1	1.46e-03	0	43	0	1276116992	21	5938
2026-01-03 10:24:32.46	342.22	10.23	-30.7	-35.1	11.1	1.92e-03	0	43	0	1278214144	21	5922
2026-01-03 10:24:33.47	342.22	10.14	-30.6	-34.7	11.3	1.28e-03	0	43	0	1279262720	21	5757
2026-01-03 10:24:34.47	342.22	10.05	-30.6	-34.6	11.4	8.88e-04	0	43	0	1281359872	21	5717
2026-01-03 10:24:35.47	342.22	9.97	-30.5	-34.5	11.5	8.73e-04	0	43	0	1283457024	21	5653
2026-01-03 10:24:36.47	342.22	9.88	-30.5	-34.5	11.5	7.20e-04	0	43	0	1285554176	21	5658
