passes_logs/2026/01/03/R2M6_AANII_01/R2M6_AANII_01__20260103_074540_NOAA_21_JPSS-2_rec.log

#Pass ID: 20260103_074540_NOAA 21 (JPSS-2)
#Satellite: NOAA 21 (JPSS-2)
#Configuration: NOAA 21
#almurnet v.1.7.20240730
#Start time: 2026-01-03 07:45:42

#Version: 2.2.20231116
#Station: R2M6_AANII_01
#Location: 30.233357 lon 59.946436 lat
#TLE: 1 54234U 22150A   26002.25486487  .00000200  00000+0  11573-3 0  9993
#TLE: 2 54234  98.7485 303.3096 0001220 350.9074   9.2080 14.19531212163006

#Time	Az	El	Level	Level2	SNR	BER	BlckErr	Temp	State	Recorded	gain1	gain2
2026-01-03 07:45:42.20	80.37	7.09	-31.2	-37.0	4.3	1.43e+00	0	40	0	0	23	7039
2026-01-03 07:45:43.20	80.25	7.14	-30.9	-35.9	4.5	1.41e+00	0	40	104	0	23	6397
2026-01-03 07:45:44.20	80.13	7.20	-30.9	-34.9	7.6	1.18e-01	0	40	0	0	23	5761
2026-01-03 07:45:45.21	80.01	7.25	-30.8	-34.7	7.8	8.59e-02	0	41	0	3145728	23	5644
2026-01-03 07:45:46.21	79.90	7.31	-30.8	-34.6	7.8	8.39e-02	0	41	0	6291456	23	5612
2026-01-03 07:45:47.22	79.78	7.36	-30.8	-35.1	7.9	7.08e-02	0	41	0	9437184	22	5908
2026-01-03 07:45:48.22	79.66	7.41	-31.0	-35.8	7.3	1.16e-01	0	41	0	12582912	22	6278
2026-01-03 07:45:49.23	79.54	7.47	-30.7	-34.7	8.1	7.57e-02	0	41	0	15728640	22	5710
2026-01-03 07:45:50.24	79.42	7.52	-30.2	-33.8	9.1	2.73e-02	0	41	0	18874368	21	5408
2026-01-03 07:45:51.25	79.29	7.58	-29.8	-32.5	10.0	9.56e-03	0	41	0	22020096	21	4906
2026-01-03 07:45:52.26	79.17	7.63	-29.4	-31.9	10.9	2.93e-03	0	41	0	25165824	20	4765
2026-01-03 07:45:53.27	79.05	7.69	-29.1	-31.4	11.6	7.28e-04	0	41	0	28311552	19	4697
2026-01-03 07:45:54.27	78.93	7.74	-28.7	-30.9	12.3	3.59e-04	0	41	0	31457280	18	4623
2026-01-03 07:45:55.28	78.80	7.80	-28.5	-30.4	12.6	1.04e-04	0	41	0	34603008	18	4464
2026-01-03 07:45:56.28	78.68	7.85	-28.4	-30.1	12.8	7.01e-05	0	41	0	37748736	18	4361
2026-01-03 07:45:57.29	78.56	7.90	-28.2	-30.2	13.0	3.96e-05	0	41	0	40894464	17	4511
2026-01-03 07:45:58.29	78.43	7.96	-28.3	-30.4	12.9	3.96e-05	0	41	0	44040192	17	4561
2026-01-03 07:45:59.29	78.31	8.01	-28.3	-30.3	13.0	4.42e-05	0	41	0	47185920	17	4536
2026-01-03 07:46:00.30	78.18	8.07	-28.3	-30.4	12.9	4.27e-05	0	41	0	50331648	17	4581
2026-01-03 07:46:01.30	78.06	8.12	-28.2	-30.2	13.0	3.43e-05	0	41	0	53477376	17	4502
2026-01-03 07:46:02.31	77.93	8.17	-28.2	-30.0	13.2	2.51e-05	0	41	0	56623104	17	4462
2026-01-03 07:46:03.31	77.81	8.23	-28.3	-30.3	13.0	4.19e-05	0	41	0	59768832	17	4543
2026-01-03 07:46:04.32	77.68	8.28	-28.2	-30.2	13.1	4.11e-05	0	41	0	62914560	17	4501
2026-01-03 07:46:05.33	77.55	8.34	-28.2	-30.1	13.1	3.81e-05	0	41	0	66060288	17	4477
2026-01-03 07:46:06.33	77.42	8.39	-28.3	-30.3	13.1	2.59e-05	0	41	0	69206016	17	4527
2026-01-03 07:46:07.34	77.29	8.44	-28.3	-30.3	13.0	4.88e-05	0	41	0	71303168	17	4549
2026-01-03 07:46:08.35	77.16	8.50	-28.1	-29.8	13.3	1.60e-05	0	41	0	75497472	17	4397
2026-01-03 07:46:09.36	77.03	8.55	-28.1	-29.7	13.4	1.52e-05	0	41	0	78643200	17	4359
2026-01-03 07:46:10.37	76.90	8.61	-28.1	-29.8	13.4	1.44e-05	0	41	0	81788928	17	4363
2026-01-03 07:46:11.37	76.77	8.66	-28.2	-30.0	13.3	2.36e-05	0	41	0	84934656	17	4439
2026-01-03 07:46:12.37	76.64	8.71	-28.1	-29.7	13.4	1.14e-05	0	41	0	88080384	17	4361
2026-01-03 07:46:13.37	76.51	8.77	-28.1	-29.8	13.4	1.75e-05	0	41	0	91226112	17	4390
2026-01-03 07:46:14.38	76.38	8.82	-28.1	-29.7	13.5	1.60e-05	0	41	0	94371840	17	4354
2026-01-03 07:46:15.39	76.24	8.88	-28.1	-29.8	13.4	9.10e-06	0	42	0	96468992	17	4370
2026-01-03 07:46:16.39	76.11	8.93	-28.1	-29.9	13.4	1.44e-05	0	42	0	99614720	17	4407
2026-01-03 07:46:17.40	75.98	8.98	-28.1	-29.8	13.4	1.60e-05	0	42	0	103809024	17	4389
2026-01-03 07:46:18.41	75.84	9.04	-28.1	-29.7	13.5	1.44e-05	0	42	0	106954752	17	4360
2026-01-03 07:46:19.41	75.71	9.09	-28.1	-29.7	13.5	9.90e-06	0	42	0	110100480	17	4352
2026-01-03 07:46:20.42	75.57	9.15	-28.1	-29.9	13.4	1.60e-05	0	42	0	113246208	17	4410
2026-01-03 07:46:21.43	75.44	9.20	-28.2	-29.9	13.3	2.36e-05	0	42	0	116391936	17	4421
2026-01-03 07:46:22.44	75.30	9.25	-28.0	-29.5	13.6	7.60e-06	0	42	0	118489088	17	4296
2026-01-03 07:46:23.44	75.16	9.31	-28.0	-29.4	13.7	5.30e-06	0	42	0	121634816	17	4259
2026-01-03 07:46:24.44	75.03	9.36	-28.0	-29.6	13.6	9.90e-06	0	42	0	124780544	17	4316
2026-01-03 07:46:25.44	74.89	9.41	-28.0	-29.7	13.5	6.80e-06	0	42	0	127926272	17	4337
2026-01-03 07:46:26.45	74.75	9.47	-28.0	-29.6	13.6	1.29e-05	0	41	0	132120576	17	4325
2026-01-03 07:46:27.46	74.61	9.52	-28.2	-29.9	13.4	1.22e-05	0	42	0	135266304	17	4411
2026-01-03 07:46:28.47	74.47	9.57	-28.1	-29.8	13.5	1.67e-05	0	42	0	138412032	17	4382
2026-01-03 07:46:29.47	74.33	9.63	-28.0	-29.5	13.7	6.80e-06	0	42	0	141557760	17	4293
2026-01-03 07:46:30.48	74.19	9.68	-28.0	-29.6	13.6	8.30e-06	0	42	0	143654912	17	4330
2026-01-03 07:46:31.49	74.05	9.73	-28.1	-29.7	13.5	1.44e-05	0	42	0	146800640	17	4346
2026-01-03 07:46:32.50	73.91	9.79	-28.0	-29.5	13.7	9.10e-06	0	42	0	149946368	17	4286
2026-01-03 07:46:33.50	73.77	9.84	-28.1	-29.9	13.5	9.90e-06	0	42	0	154140672	17	4388
2026-01-03 07:46:34.51	73.63	9.89	-28.2	-30.0	13.4	1.60e-05	0	42	0	157286400	17	4424
2026-01-03 07:46:35.52	73.48	9.95	-28.2	-29.9	13.4	6.10e-06	0	42	0	160432128	17	4417
2026-01-03 07:46:36.52	73.34	10.00	-28.2	-30.2	13.3	1.60e-05	0	42	0	163577856	17	4483
2026-01-03 07:46:37.53	73.20	10.05	-28.3	-30.2	13.2	2.67e-05	0	42	0	165675008	17	4497
2026-01-03 07:46:38.53	73.05	10.10	-28.3	-30.2	13.2	2.82e-05	0	42	0	168820736	17	4511
2026-01-03 07:46:39.55	72.91	10.16	-28.4	-30.4	13.1	2.13e-05	0	42	0	171966464	17	4570
2026-01-03 07:46:40.55	72.76	10.21	-28.4	-30.5	13.1	2.51e-05	0	42	0	176160768	17	4578
2026-01-03 07:46:41.56	72.61	10.26	-28.3	-30.3	13.2	2.21e-05	0	42	0	179306496	17	4529
2026-01-03 07:46:42.57	72.47	10.31	-28.4	-30.4	13.2	1.90e-05	0	42	0	182452224	17	4557
2026-01-03 07:46:43.58	72.32	10.37	-28.4	-30.5	13.1	2.82e-05	0	42	0	185597952	17	4588
2026-01-03 07:46:44.58	72.17	10.42	-28.4	-30.5	13.1	3.12e-05	0	42	0	188743680	17	4585
2026-01-03 07:46:45.59	72.02	10.47	-28.4	-30.5	13.1	2.51e-05	0	42	0	190840832	17	4580
2026-01-03 07:46:46.60	71.87	10.52	-28.4	-30.5	13.1	5.26e-05	0	42	0	195035136	17	4590
2026-01-03 07:46:47.61	71.72	10.58	-28.4	-30.4	13.2	2.51e-05	0	42	0	198180864	17	4564
2026-01-03 07:46:48.61	71.58	10.63	-28.4	-30.5	13.2	1.98e-05	0	42	0	201326592	17	4565
2026-01-03 07:46:49.62	71.42	10.68	-28.4	-30.4	13.3	3.50e-05	0	42	0	204472320	17	4548
2026-01-03 07:46:50.63	71.27	10.73	-28.4	-30.5	13.2	2.89e-05	0	42	0	207618048	17	4568
2026-01-03 07:46:51.63	71.12	10.78	-28.4	-30.5	13.2	1.98e-05	0	42	0	210763776	17	4580
2026-01-03 07:46:52.64	70.97	10.84	-28.3	-30.3	13.3	2.44e-05	0	42	0	213909504	17	4503
2026-01-03 07:46:53.65	70.82	10.89	-28.2	-30.0	13.5	1.60e-05	0	42	0	217055232	17	4434
2026-01-03 07:46:54.66	70.66	10.94	-28.2	-30.0	13.5	1.14e-05	0	42	0	220200960	17	4419
2026-01-03 07:46:55.66	70.51	10.99	-28.2	-29.9	13.5	9.10e-06	0	42	0	223346688	17	4388
2026-01-03 07:46:56.67	70.35	11.04	-28.2	-29.9	13.6	7.60e-06	0	42	0	226492416	17	4396
2026-01-03 07:46:57.68	70.20	11.09	-28.1	-29.8	13.6	8.30e-06	0	42	0	229638144	17	4368
2026-01-03 07:46:58.69	70.04	11.15	-28.2	-30.0	13.5	1.22e-05	0	42	0	232783872	17	4427
2026-01-03 07:46:59.69	69.89	11.20	-28.2	-29.9	13.5	8.30e-06	0	42	0	235929600	17	4404
2026-01-03 07:47:00.70	69.73	11.25	-28.1	-29.8	13.6	1.14e-05	0	42	0	239075328	17	4355
2026-01-03 07:47:01.70	69.58	11.30	-28.2	-30.0	13.5	1.06e-05	0	42	0	242221056	17	4415
2026-01-03 07:47:02.71	69.42	11.35	-28.2	-29.9	13.6	8.30e-06	0	42	0	245366784	17	4393
2026-01-03 07:47:03.72	69.26	11.40	-28.0	-29.5	13.8	1.50e-06	0	42	0	248512512	17	4283
2026-01-03 07:47:04.72	69.10	11.45	-28.0	-29.4	13.9	1.50e-06	0	42	0	251658240	17	4257
2026-01-03 07:47:05.73	68.94	11.50	-28.1	-29.8	13.6	6.10e-06	0	42	0	254803968	17	4371
2026-01-03 07:47:06.74	68.78	11.55	-28.0	-29.6	13.8	8.30e-06	0	42	0	257949696	17	4296
2026-01-03 07:47:07.74	68.62	11.60	-28.2	-29.9	13.6	3.80e-06	0	42	0	261095424	17	4390
2026-01-03 07:47:08.75	68.46	11.65	-28.1	-29.8	13.6	5.30e-06	0	42	0	264241152	17	4380
2026-01-03 07:47:09.76	68.30	11.70	-28.1	-29.7	13.7	8.30e-06	0	42	0	267386880	17	4332
2026-01-03 07:47:10.76	68.14	11.75	-28.1	-29.8	13.6	6.10e-06	0	42	0	270532608	17	4362
2026-01-03 07:47:11.77	67.97	11.80	-28.3	-30.3	13.4	9.10e-06	0	42	0	273678336	17	4501
2026-01-03 07:47:12.77	67.81	11.85	-28.2	-30.0	13.5	1.37e-05	0	42	0	276824064	17	4428
2026-01-03 07:47:13.78	67.65	11.90	-28.2	-29.9	13.6	1.29e-05	0	42	0	279969792	17	4401
2026-01-03 07:47:14.78	67.48	11.95	-28.2	-29.9	13.6	3.80e-06	0	42	0	283115520	17	4387
2026-01-03 07:47:15.79	67.32	12.00	-28.1	-29.7	13.7	6.80e-06	0	42	0	285212672	17	4334
2026-01-03 07:47:16.79	67.15	12.05	-28.1	-29.8	13.7	6.10e-06	0	42	0	288358400	17	4366
2026-01-03 07:47:17.80	66.99	12.10	-28.2	-29.9	13.6	4.50e-06	0	42	0	292552704	17	4396
2026-01-03 07:47:18.80	66.82	12.14	-28.1	-29.7	13.8	7.60e-06	0	42	0	295698432	17	4327
2026-01-03 07:47:19.81	66.66	12.19	-28.1	-29.6	13.8	3.80e-06	0	42	0	298844160	17	4301
2026-01-03 07:47:20.82	66.49	12.24	-28.0	-29.4	13.9	2.20e-06	0	42	0	301989888	17	4235
2026-01-03 07:47:21.83	66.32	12.29	-28.0	-29.6	13.8	2.20e-06	0	42	0	305135616	17	4289
2026-01-03 07:47:22.84	66.15	12.34	-28.0	-29.4	13.9	3.00e-06	0	42	0	308281344	17	4241
2026-01-03 07:47:23.84	65.98	12.39	-28.0	-29.4	13.9	3.00e-06	0	42	0	310378496	17	4230
2026-01-03 07:47:24.85	65.81	12.44	-28.0	-29.6	13.9	2.20e-06	0	42	0	314572800	17	4286
2026-01-03 07:47:25.86	65.64	12.48	-28.3	-30.2	13.5	5.30e-06	0	42	0	317718528	17	4466
2026-01-03 07:47:26.87	65.47	12.53	-28.0	-29.4	14.0	2.20e-06	0	42	0	320864256	17	4228
2026-01-03 07:47:27.87	65.30	12.58	-27.9	-29.2	14.0	2.20e-06	0	42	0	324009984	17	4192
2026-01-03 07:47:28.87	65.13	12.63	-27.9	-29.2	14.1	3.00e-06	0	42	0	327155712	17	4184
2026-01-03 07:47:29.88	64.95	12.67	-27.8	-29.4	14.3	0.00e+00	0	42	0	330301440	16	4336
2026-01-03 07:47:30.89	64.78	12.72	-27.9	-29.6	14.1	1.50e-06	0	43	0	332398592	16	4412
2026-01-03 07:47:31.90	64.61	12.77	-27.8	-29.6	14.2	2.20e-06	0	42	0	335544320	16	4399
2026-01-03 07:47:32.91	64.43	12.81	-27.7	-29.2	14.4	2.20e-06	0	42	0	339738624	16	4274
2026-01-03 07:47:33.91	64.26	12.86	-27.7	-29.2	14.4	0.00e+00	0	42	0	342884352	16	4277
2026-01-03 07:47:34.91	64.08	12.91	-27.7	-29.3	14.3	7.00e-07	0	42	0	346030080	16	4313
2026-01-03 07:47:35.92	63.91	12.95	-27.7	-29.2	14.4	1.50e-06	0	42	0	349175808	16	4297
2026-01-03 07:47:36.93	63.73	13.00	-27.7	-29.2	14.4	1.50e-06	0	42	0	352321536	16	4293
2026-01-03 07:47:37.94	63.55	13.04	-27.7	-29.3	14.3	3.00e-06	0	42	0	355467264	16	4317
2026-01-03 07:47:38.95	63.37	13.09	-27.8	-29.4	14.3	7.00e-07	0	42	0	357564416	16	4330
2026-01-03 07:47:39.95	63.20	13.13	-27.7	-29.4	14.3	1.50e-06	0	42	0	361758720	16	4330
2026-01-03 07:47:40.96	63.02	13.18	-27.8	-29.4	14.3	1.50e-06	0	43	0	364904448	16	4351
2026-01-03 07:47:41.96	62.84	13.22	-28.0	-29.9	14.0	3.80e-06	0	42	0	368050176	16	4472
2026-01-03 07:47:42.97	62.66	13.27	-27.9	-29.6	14.1	1.50e-06	0	42	0	371195904	16	4415
2026-01-03 07:47:43.96	62.48	13.31	-27.8	-29.5	14.3	7.00e-07	0	42	0	374341632	16	4363
2026-01-03 07:47:44.97	62.30	13.36	-27.9	-29.7	14.1	2.20e-06	0	42	0	377487360	16	4425
2026-01-03 07:47:45.97	62.12	13.40	-27.8	-29.6	14.2	0.00e+00	0	42	0	379584512	16	4391
2026-01-03 07:47:46.98	61.94	13.45	-28.1	-30.2	13.8	3.00e-06	0	42	0	382730240	16	4587
2026-01-03 07:47:47.98	61.75	13.49	-27.9	-29.8	14.0	3.00e-06	0	42	0	385875968	16	4465
2026-01-03 07:47:48.98	61.57	13.53	-27.9	-29.6	14.2	1.50e-06	0	42	0	389021696	16	4411
2026-01-03 07:47:49.98	61.39	13.58	-27.9	-29.6	14.1	1.50e-06	0	43	0	392167424	16	4417
2026-01-03 07:47:50.98	61.21	13.62	-27.9	-29.6	14.2	1.50e-06	0	42	0	395313152	16	4409
2026-01-03 07:47:51.99	61.02	13.66	-27.8	-29.5	14.2	2.20e-06	0	42	0	398458880	16	4376
2026-01-03 07:47:53.00	60.84	13.71	-27.9	-29.6	14.2	2.20e-06	0	42	0	402653184	16	4410
2026-01-03 07:47:53.99	60.65	13.75	-28.0	-29.8	14.0	2.20e-06	0	43	0	404750336	16	4470
2026-01-03 07:47:54.99	60.47	13.79	-27.8	-29.5	14.2	2.20e-06	0	42	0	407896064	16	4370
2026-01-03 07:47:56.00	60.28	13.83	-27.7	-29.2	14.4	7.00e-07	0	43	0	411041792	16	4292
2026-01-03 07:47:57.01	60.09	13.87	-27.7	-29.2	14.4	7.00e-07	0	43	0	414187520	16	4294
2026-01-03 07:47:58.01	59.91	13.91	-27.6	-29.0	14.6	0.00e+00	0	43	0	417333248	16	4213
2026-01-03 07:47:59.01	59.72	13.96	-27.7	-29.1	14.5	0.00e+00	0	42	0	420478976	16	4261
2026-01-03 07:48:00.02	59.53	14.00	-27.6	-29.1	14.5	0.00e+00	0	43	0	423624704	16	4255
2026-01-03 07:48:01.03	59.34	14.04	-27.8	-29.3	14.4	1.50e-06	0	42	0	426770432	16	4324
2026-01-03 07:48:02.04	59.15	14.08	-27.8	-29.4	14.3	2.20e-06	0	43	0	429916160	16	4346
2026-01-03 07:48:03.04	58.96	14.12	-27.8	-29.6	14.3	1.50e-06	0	43	0	433061888	16	4396
2026-01-03 07:48:04.04	58.77	14.16	-27.8	-29.4	14.3	7.00e-07	0	43	0	436207616	16	4343
2026-01-03 07:48:05.05	58.58	14.20	-27.7	-29.3	14.4	7.00e-07	0	43	0	439353344	16	4313
2026-01-03 07:48:06.05	58.39	14.24	-27.8	-29.3	14.4	1.50e-06	0	43	0	442499072	16	4323
2026-01-03 07:48:07.06	58.19	14.28	-27.8	-29.4	14.3	7.00e-07	0	43	0	445644800	16	4347
2026-01-03 07:48:08.06	58.00	14.32	-27.8	-29.4	14.3	7.00e-07	0	43	0	448790528	16	4340
2026-01-03 07:48:09.07	57.81	14.36	-27.8	-29.5	14.3	7.00e-07	0	42	0	451936256	16	4369
2026-01-03 07:48:10.08	57.61	14.39	-28.0	-29.9	14.1	1.50e-06	0	42	0	455081984	16	4479
2026-01-03 07:48:11.09	57.42	14.43	-27.8	-29.6	14.2	0.00e+00	0	43	0	458227712	16	4382
2026-01-03 07:48:12.10	57.22	14.47	-27.8	-29.5	14.3	1.50e-06	0	43	0	461373440	16	4371
2026-01-03 07:48:13.11	57.02	14.51	-27.9	-29.6	14.2	7.00e-07	0	43	0	464519168	16	4409
2026-01-03 07:48:14.11	56.83	14.55	-27.8	-29.5	14.3	1.50e-06	0	42	0	467664896	16	4380
2026-01-03 07:48:15.12	56.63	14.58	-27.9	-29.6	14.2	7.00e-07	0	42	0	470810624	16	4403
2026-01-03 07:48:16.12	56.44	14.62	-27.7	-29.3	14.4	0.00e+00	0	42	0	473956352	16	4322
2026-01-03 07:48:17.13	56.24	14.66	-27.7	-29.2	14.5	0.00e+00	0	43	0	477102080	16	4291
2026-01-03 07:48:18.13	56.04	14.69	-27.7	-29.2	14.5	7.00e-07	0	43	0	480247808	16	4297
2026-01-03 07:48:19.13	55.84	14.73	-27.7	-29.2	14.5	7.00e-07	0	43	0	483393536	16	4294
2026-01-03 07:48:20.14	55.64	14.76	-27.7	-29.2	14.5	7.00e-07	0	42	0	486539264	16	4286
2026-01-03 07:48:21.15	55.44	14.80	-27.7	-29.3	14.4	2.20e-06	0	43	0	489684992	16	4306
2026-01-03 07:48:22.15	55.25	14.83	-27.8	-29.4	14.4	1.50e-06	0	43	0	492830720	16	4344
2026-01-03 07:48:23.16	55.04	14.87	-27.6	-29.1	14.6	0.00e+00	0	43	0	495976448	16	4241
2026-01-03 07:48:24.17	54.84	14.90	-27.6	-28.9	14.7	1.50e-06	0	43	0	499122176	16	4189
2026-01-03 07:48:25.17	54.64	14.94	-27.6	-29.0	14.7	0.00e+00	0	43	0	502267904	16	4217
2026-01-03 07:48:26.18	54.44	14.97	-27.6	-28.9	14.7	7.00e-07	0	43	0	505413632	16	4185
2026-01-03 07:48:27.18	54.24	15.01	-27.6	-28.9	14.7	0.00e+00	0	43	0	508559360	16	4201
2026-01-03 07:48:28.19	54.04	15.04	-27.6	-29.0	14.7	7.00e-07	0	43	0	511705088	16	4219
2026-01-03 07:48:29.20	53.83	15.07	-27.7	-29.2	14.5	0.00e+00	0	43	0	514850816	16	4273
2026-01-03 07:48:30.21	53.63	15.10	-27.6	-29.0	14.6	7.00e-07	0	43	0	517996544	16	4233
2026-01-03 07:48:31.21	53.42	15.14	-27.7	-29.2	14.5	7.00e-07	0	43	0	521142272	16	4286
2026-01-03 07:48:32.21	53.22	15.17	-27.6	-29.0	14.6	7.00e-07	0	43	0	524288000	16	4219
2026-01-03 07:48:33.22	53.01	15.20	-27.5	-28.8	14.8	0.00e+00	0	43	0	527433728	16	4161
2026-01-03 07:48:34.22	52.81	15.23	-27.5	-28.8	14.8	0.00e+00	0	43	0	530579456	16	4150
2026-01-03 07:48:35.22	52.61	15.26	-27.5	-28.6	14.9	1.50e-06	0	43	0	533725184	16	4124
2026-01-03 07:48:36.23	52.40	15.29	-27.6	-28.9	14.7	0.00e+00	0	43	0	536870912	16	4188
2026-01-03 07:48:37.23	52.19	15.32	-27.6	-28.9	14.7	0.00e+00	0	43	0	540016640	16	4186
2026-01-03 07:48:38.24	51.99	15.35	-27.6	-29.0	14.6	7.00e-07	0	43	0	543162368	16	4220
2026-01-03 07:48:39.24	51.78	15.38	-27.6	-29.0	14.7	0.00e+00	0	43	0	546308096	16	4211
2026-01-03 07:48:40.24	51.57	15.41	-27.6	-29.0	14.7	0.00e+00	0	43	0	549453824	16	4217
2026-01-03 07:48:41.24	51.37	15.44	-27.6	-28.9	14.7	0.00e+00	0	43	0	552599552	16	4191
2026-01-03 07:48:42.26	51.15	15.47	-27.6	-28.9	14.7	0.00e+00	0	43	0	555745280	16	4203
2026-01-03 07:48:43.27	50.94	15.50	-27.6	-29.0	14.6	1.50e-06	0	43	0	558891008	16	4235
2026-01-03 07:48:44.27	50.74	15.53	-27.5	-28.8	14.8	0.00e+00	0	43	0	562036736	16	4160
2026-01-03 07:48:45.27	50.53	15.55	-27.5	-28.7	14.8	0.00e+00	0	43	0	565182464	16	4136
2026-01-03 07:48:46.28	50.32	15.58	-27.5	-28.7	14.9	0.00e+00	0	43	0	568328192	16	4131
2026-01-03 07:48:47.29	50.10	15.61	-27.4	-28.5	14.9	0.00e+00	0	43	0	571473920	16	4094
2026-01-03 07:48:48.30	49.89	15.63	-27.5	-28.8	14.8	0.00e+00	0	43	0	574619648	16	4158
2026-01-03 07:48:49.30	49.68	15.66	-27.6	-28.9	14.7	0.00e+00	0	43	0	577765376	16	4192
2026-01-03 07:48:50.31	49.47	15.69	-27.5	-28.7	14.9	0.00e+00	0	43	0	580911104	16	4124
2026-01-03 07:48:51.32	49.26	15.71	-27.4	-28.4	15.0	0.00e+00	0	43	0	584056832	16	4051
2026-01-03 07:48:52.33	49.04	15.74	-27.4	-28.5	14.9	0.00e+00	0	43	0	587202560	16	4088
2026-01-03 07:48:53.34	48.83	15.76	-27.5	-28.6	14.9	0.00e+00	0	43	0	590348288	16	4120
2026-01-03 07:48:54.35	48.62	15.79	-27.4	-28.4	15.0	0.00e+00	0	43	0	593494016	16	4058
2026-01-03 07:48:55.34	48.41	15.81	-27.4	-28.5	14.9	0.00e+00	0	43	0	596639744	16	4092
2026-01-03 07:48:56.35	48.19	15.83	-27.5	-28.7	14.8	0.00e+00	0	43	0	599785472	16	4138
2026-01-03 07:48:57.36	47.98	15.86	-27.5	-28.6	14.9	0.00e+00	0	43	0	602931200	16	4121
2026-01-03 07:48:58.37	47.76	15.88	-27.6	-28.9	14.7	0.00e+00	0	43	0	606076928	16	4199
2026-01-03 07:48:59.37	47.55	15.90	-27.6	-29.0	14.7	7.00e-07	0	43	0	609222656	16	4231
2026-01-03 07:49:00.38	47.33	15.92	-27.5	-28.8	14.8	0.00e+00	0	43	0	612368384	16	4156
2026-01-03 07:49:01.38	47.12	15.95	-27.4	-28.6	14.9	7.00e-07	0	43	0	615514112	16	4098
2026-01-03 07:49:02.38	46.90	15.97	-27.5	-28.7	14.8	0.00e+00	0	43	0	618659840	16	4143
2026-01-03 07:49:03.39	46.69	15.99	-27.6	-28.9	14.8	7.00e-07	0	43	0	621805568	16	4186
2026-01-03 07:49:04.39	46.47	16.01	-27.5	-28.7	14.9	7.00e-07	0	43	0	624951296	16	4135
2026-01-03 07:49:05.40	46.25	16.03	-27.5	-28.7	14.8	0.00e+00	0	43	0	628097024	16	4141
2026-01-03 07:49:06.40	46.04	16.05	-27.5	-28.8	14.8	7.00e-07	0	43	0	631242752	16	4159
2026-01-03 07:49:07.41	45.82	16.07	-27.5	-28.7	14.9	1.50e-06	0	43	0	634388480	16	4124
2026-01-03 07:49:08.41	45.60	16.09	-27.4	-28.6	14.9	0.00e+00	0	43	0	637534208	16	4111
2026-01-03 07:49:09.41	45.39	16.10	-27.5	-28.7	14.8	7.00e-07	0	43	0	640679936	16	4147
2026-01-03 07:49:10.42	45.17	16.12	-27.5	-28.7	14.9	7.00e-07	0	43	0	643825664	16	4126
2026-01-03 07:49:11.42	44.95	16.14	-27.5	-28.7	14.8	0.00e+00	0	43	0	646971392	16	4140
2026-01-03 07:49:12.43	44.73	16.16	-27.6	-28.9	14.7	0.00e+00	0	42	0	650117120	16	4189
2026-01-03 07:49:13.43	44.51	16.17	-27.6	-28.9	14.8	0.00e+00	0	43	0	653262848	16	4185
2026-01-03 07:49:14.43	44.30	16.19	-27.5	-28.6	14.9	0.00e+00	0	43	0	656408576	16	4108
2026-01-03 07:49:15.44	44.08	16.21	-27.4	-28.5	15.0	0.00e+00	0	43	0	659554304	16	4072
2026-01-03 07:49:16.44	43.86	16.22	-27.4	-28.6	14.9	0.00e+00	0	43	0	662700032	16	4103
2026-01-03 07:49:17.44	43.64	16.24	-27.4	-28.5	15.0	0.00e+00	0	43	0	665845760	16	4074
2026-01-03 07:49:18.45	43.42	16.25	-27.2	-28.6	15.1	0.00e+00	0	43	0	668991488	15	4207
2026-01-03 07:49:19.45	43.20	16.26	-27.2	-28.7	15.0	7.00e-07	0	43	0	672137216	15	4239
2026-01-03 07:49:20.46	42.98	16.28	-27.2	-28.5	15.0	0.00e+00	0	43	0	675282944	15	4208
2026-01-03 07:49:21.46	42.76	16.29	-27.2	-28.6	15.0	0.00e+00	0	43	0	678428672	15	4229
2026-01-03 07:49:22.47	42.54	16.31	-27.3	-28.7	14.9	7.00e-07	0	43	0	681574400	15	4252
2026-01-03 07:49:23.48	42.31	16.32	-27.3	-28.9	14.8	0.00e+00	0	43	0	684720128	15	4301
2026-01-03 07:49:24.49	42.09	16.33	-27.4	-29.1	14.7	7.00e-07	0	43	0	687865856	15	4362
2026-01-03 07:49:25.49	41.87	16.34	-27.5	-29.2	14.6	7.00e-07	0	43	0	691011584	15	4390
2026-01-03 07:49:26.50	41.65	16.35	-27.6	-29.4	14.5	7.00e-07	0	43	0	694157312	15	4454
2026-01-03 07:49:27.50	41.43	16.36	-27.5	-29.2	14.6	7.00e-07	0	43	0	697303040	15	4406
2026-01-03 07:49:28.51	41.21	16.37	-27.4	-29.0	14.8	0.00e+00	0	43	0	700448768	15	4337
2026-01-03 07:49:29.52	40.98	16.38	-27.3	-28.9	14.8	0.00e+00	0	43	0	703594496	15	4314
2026-01-03 07:49:30.52	40.76	16.39	-27.4	-29.0	14.8	0.00e+00	0	43	0	706740224	15	4341
2026-01-03 07:49:31.53	40.54	16.40	-27.4	-29.0	14.7	0.00e+00	0	43	0	709885952	15	4346
2026-01-03 07:49:32.54	40.32	16.41	-27.4	-29.0	14.7	0.00e+00	0	43	0	713031680	15	4343
2026-01-03 07:49:33.54	40.10	16.42	-27.5	-29.2	14.6	0.00e+00	0	43	0	716177408	15	4397
2026-01-03 07:49:34.54	39.87	16.43	-27.5	-29.3	14.6	0.00e+00	0	43	0	719323136	15	4423
2026-01-03 07:49:35.55	39.65	16.43	-27.6	-29.5	14.5	0.00e+00	0	43	0	722468864	15	4483
2026-01-03 07:49:36.56	39.43	16.44	-27.6	-29.6	14.5	0.00e+00	0	43	0	725614592	15	4502
2026-01-03 07:49:37.56	39.21	16.45	-27.6	-29.5	14.5	7.00e-07	0	43	0	728760320	15	4474
2026-01-03 07:49:38.57	38.98	16.45	-27.5	-29.2	14.6	0.00e+00	0	43	0	731906048	15	4386
2026-01-03 07:49:39.57	38.76	16.46	-27.4	-29.1	14.8	7.00e-07	0	43	0	735051776	15	4353
2026-01-03 07:49:40.57	38.54	16.47	-27.5	-29.2	14.7	1.50e-06	0	43	0	738197504	15	4396
2026-01-03 07:49:41.57	38.32	16.47	-27.4	-29.1	14.7	7.00e-07	0	43	0	741343232	15	4371
2026-01-03 07:49:42.58	38.09	16.47	-27.3	-28.8	14.9	0.00e+00	0	43	0	744488960	15	4272
2026-01-03 07:49:43.59	37.87	16.48	-27.2	-28.7	14.9	0.00e+00	0	43	0	747634688	15	4242
2026-01-03 07:49:44.58	37.65	16.48	-27.3	-28.8	14.9	0.00e+00	0	43	0	750780416	15	4269
2026-01-03 07:49:45.59	37.42	16.48	-27.4	-29.0	14.8	1.50e-06	0	43	0	753926144	15	4328
2026-01-03 07:49:46.59	37.20	16.49	-27.4	-29.1	14.7	0.00e+00	0	43	0	757071872	15	4366
2026-01-03 07:49:47.60	36.98	16.49	-27.5	-29.3	14.6	0.00e+00	0	43	0	760217600	15	4424
2026-01-03 07:49:48.61	36.75	16.49	-27.5	-29.2	14.6	0.00e+00	0	43	0	763363328	15	4393
2026-01-03 07:49:49.61	36.53	16.49	-27.4	-29.2	14.6	0.00e+00	0	43	0	766509056	15	4381
2026-01-03 07:49:50.61	36.31	16.49	-27.5	-29.2	14.6	0.00e+00	0	43	0	769654784	15	4410
2026-01-03 07:49:51.62	36.08	16.49	-27.7	-29.7	14.3	0.00e+00	0	43	0	772800512	15	4544
2026-01-03 07:49:52.63	35.86	16.49	-27.6	-29.6	14.4	7.00e-07	0	43	0	775946240	15	4511
2026-01-03 07:49:53.64	35.64	16.49	-27.4	-29.1	14.6	0.00e+00	0	43	0	779091968	15	4369
2026-01-03 07:49:54.64	35.41	16.49	-27.3	-28.9	14.8	1.50e-06	0	43	0	782237696	15	4299
2026-01-03 07:49:55.64	35.19	16.49	-27.3	-28.7	14.9	0.00e+00	0	43	0	785383424	15	4249
2026-01-03 07:49:56.65	34.97	16.49	-27.2	-28.7	14.9	0.00e+00	0	43	0	788529152	15	4239
2026-01-03 07:49:57.66	34.74	16.49	-27.2	-28.7	14.9	0.00e+00	0	43	0	791674880	15	4239
2026-01-03 07:49:58.66	34.52	16.48	-27.3	-28.8	14.9	0.00e+00	0	43	0	794820608	15	4294
2026-01-03 07:49:59.66	34.30	16.48	-27.2	-28.7	14.9	0.00e+00	0	43	0	797966336	15	4238
2026-01-03 07:50:00.67	34.07	16.48	-27.1	-28.3	15.2	0.00e+00	0	43	0	801112064	15	4143
2026-01-03 07:50:01.68	33.85	16.47	-27.1	-28.2	15.2	0.00e+00	0	43	0	804257792	15	4127
2026-01-03 07:50:02.69	33.63	16.47	-27.1	-28.3	15.2	0.00e+00	0	43	0	807403520	15	4133
2026-01-03 07:50:03.69	33.40	16.46	-27.1	-28.3	15.2	0.00e+00	0	43	0	810549248	15	4141
2026-01-03 07:50:04.69	33.18	16.46	-27.1	-28.3	15.1	0.00e+00	0	43	0	813694976	15	4149
2026-01-03 07:50:05.70	32.96	16.45	-27.0	-28.2	15.2	0.00e+00	0	43	0	816840704	15	4111
2026-01-03 07:50:06.71	32.73	16.45	-27.0	-28.1	15.2	0.00e+00	0	43	0	819986432	15	4099
2026-01-03 07:50:07.72	32.51	16.44	-27.1	-28.3	15.1	7.00e-07	0	43	0	823132160	15	4132
2026-01-03 07:50:08.73	32.29	16.43	-27.2	-28.6	14.9	0.00e+00	0	43	0	826277888	15	4225
2026-01-03 07:50:09.74	32.06	16.42	-27.1	-28.4	15.0	0.00e+00	0	43	0	829423616	15	4179
2026-01-03 07:50:10.74	31.84	16.42	-27.1	-28.3	15.1	0.00e+00	0	43	0	832569344	15	4151
2026-01-03 07:50:11.75	31.62	16.41	-27.3	-28.8	14.9	0.00e+00	0	43	0	835715072	15	4274
2026-01-03 07:50:12.76	31.40	16.40	-27.2	-28.6	15.0	0.00e+00	0	43	0	838860800	15	4210
2026-01-03 07:50:13.76	31.18	16.39	-27.1	-28.4	15.0	0.00e+00	0	43	0	842006528	15	4170
2026-01-03 07:50:14.77	30.95	16.38	-27.0	-28.2	15.2	0.00e+00	0	43	0	845152256	15	4118
2026-01-03 07:50:15.78	30.73	16.37	-27.0	-28.1	15.2	0.00e+00	0	43	0	848297984	15	4099
2026-01-03 07:50:16.78	30.51	16.36	-27.0	-28.2	15.2	7.00e-07	0	43	0	851443712	15	4106
2026-01-03 07:50:17.79	30.29	16.35	-27.0	-28.2	15.2	0.00e+00	0	43	0	854589440	15	4117
2026-01-03 07:50:18.80	30.07	16.34	-27.1	-28.2	15.2	0.00e+00	0	43	0	857735168	15	4130
2026-01-03 07:50:19.80	29.85	16.32	-27.1	-28.4	15.1	0.00e+00	0	43	0	860880896	15	4175
2026-01-03 07:50:20.80	29.63	16.31	-27.1	-28.4	15.1	0.00e+00	0	43	0	864026624	15	4162
2026-01-03 07:50:21.81	29.41	16.30	-27.2	-28.7	14.9	0.00e+00	0	43	0	867172352	15	4246
2026-01-03 07:50:22.82	29.18	16.28	-27.3	-28.9	14.8	7.00e-07	0	43	0	870318080	15	4300
2026-01-03 07:50:23.82	28.96	16.27	-27.3	-28.8	14.8	0.00e+00	0	43	0	873463808	15	4283
2026-01-03 07:50:24.83	28.74	16.26	-27.3	-28.8	14.8	0.00e+00	0	43	0	876609536	15	4292
2026-01-03 07:50:25.84	28.52	16.24	-27.3	-28.8	14.7	0.00e+00	0	43	0	879755264	15	4275
2026-01-03 07:50:26.84	28.30	16.23	-27.3	-28.7	14.8	7.00e-07	0	43	0	882900992	15	4255
2026-01-03 07:50:27.85	28.08	16.21	-27.3	-28.8	14.8	0.00e+00	0	43	0	886046720	15	4295
2026-01-03 07:50:28.86	27.86	16.20	-27.5	-29.2	14.6	0.00e+00	0	43	0	889192448	15	4378
2026-01-03 07:50:29.86	27.65	16.18	-27.5	-29.3	14.3	1.50e-06	0	43	0	892338176	15	4432
2026-01-03 07:50:30.87	27.43	16.16	-27.4	-29.1	14.3	7.00e-07	0	43	0	895483904	15	4370
2026-01-03 07:50:31.87	27.21	16.15	-27.4	-29.1	14.2	2.20e-06	0	43	0	898629632	15	4368
2026-01-03 07:50:32.88	26.99	16.13	-27.5	-29.2	14.1	7.00e-07	0	43	0	901775360	15	4413
2026-01-03 07:50:33.88	26.77	16.11	-27.6	-29.4	13.9	0.00e+00	0	43	0	904921088	15	4468
2026-01-03 07:50:34.88	26.56	16.09	-27.6	-29.6	13.8	7.00e-07	0	43	0	908066816	15	4537
2026-01-03 07:50:35.89	26.34	16.08	-27.7	-29.9	13.6	6.80e-06	0	43	0	911212544	15	4620
2026-01-03 07:50:36.89	26.12	16.06	-27.6	-29.5	13.8	3.80e-06	0	43	0	914358272	15	4493
2026-01-03 07:50:37.90	25.91	16.04	-27.4	-29.2	14.0	2.20e-06	0	43	0	917504000	15	4395
2026-01-03 07:50:38.90	25.69	16.02	-27.3	-28.8	14.3	2.20e-06	0	43	0	920649728	15	4298
2026-01-03 07:50:39.90	25.48	16.00	-27.3	-28.7	14.4	7.00e-07	0	43	0	923795456	15	4274
2026-01-03 07:50:40.91	25.26	15.98	-27.2	-28.5	14.7	7.00e-07	0	43	0	926941184	15	4200
2026-01-03 07:50:41.92	25.04	15.96	-27.3	-28.8	14.6	7.00e-07	0	43	0	930086912	15	4291
2026-01-03 07:50:42.92	24.83	15.93	-27.2	-28.5	14.8	0.00e+00	0	43	0	933232640	15	4210
2026-01-03 07:50:43.93	24.61	15.91	-27.3	-28.7	14.5	0.00e+00	0	43	0	936378368	15	4271
2026-01-03 07:50:44.93	24.40	15.89	-27.1	-28.5	14.1	0.00e+00	0	43	0	939524096	15	4219
2026-01-03 07:50:45.93	24.19	15.87	-27.1	-28.5	13.4	6.10e-06	0	43	0	942669824	15	4225
2026-01-03 07:50:46.94	23.97	15.84	-27.1	-28.6	13.0	2.13e-05	0	43	0	945815552	15	4258
2026-01-03 07:50:47.95	23.76	15.82	-27.1	-28.5	12.9	1.90e-05	0	43	0	948961280	15	4244
2026-01-03 07:50:48.96	23.54	15.80	-27.1	-28.6	13.2	1.22e-05	0	43	0	952107008	15	4258
2026-01-03 07:50:49.96	23.33	15.77	-27.2	-28.7	13.6	9.90e-06	0	43	0	955252736	15	4284
2026-01-03 07:50:50.96	23.12	15.75	-27.5	-29.4	13.5	5.30e-06	0	43	0	958398464	15	4463
2026-01-03 07:50:51.97	22.91	15.72	-27.3	-29.0	14.0	3.80e-06	0	43	0	961544192	15	4339
2026-01-03 07:50:52.98	22.69	15.70	-27.2	-28.5	14.2	1.50e-06	0	43	0	964689920	15	4225
2026-01-03 07:50:53.99	22.48	15.67	-27.0	-28.2	14.3	1.50e-06	0	43	0	967835648	15	4139
2026-01-03 07:50:54.99	22.27	15.65	-26.9	-28.0	14.4	1.50e-06	0	43	0	970981376	15	4090
2026-01-03 07:50:56.00	22.06	15.62	-27.0	-28.2	14.3	7.00e-07	0	43	0	974127104	15	4124
2026-01-03 07:50:57.00	21.85	15.59	-26.9	-28.0	14.4	1.50e-06	0	43	0	977272832	15	4067
2026-01-03 07:50:58.01	21.64	15.57	-26.9	-28.1	14.1	7.00e-07	0	43	0	980418560	15	4120
2026-01-03 07:50:59.02	21.43	15.54	-26.9	-28.0	14.3	2.20e-06	0	43	0	983564288	15	4076
2026-01-03 07:51:00.02	21.22	15.51	-27.1	-28.5	14.3	2.20e-06	0	43	0	986710016	15	4207
2026-01-03 07:51:01.03	21.01	15.48	-27.1	-28.3	14.6	1.50e-06	0	43	0	989855744	15	4150
2026-01-03 07:51:02.04	20.80	15.46	-27.2	-28.6	14.5	0.00e+00	0	43	0	993001472	15	4224
2026-01-03 07:51:03.04	20.60	15.43	-27.1	-28.4	14.5	0.00e+00	0	43	0	996147200	15	4171
2026-01-03 07:51:04.05	20.39	15.40	-27.1	-28.3	14.4	7.00e-07	0	43	0	999292928	15	4168
2026-01-03 07:51:05.06	20.18	15.37	-27.2	-28.6	14.4	0.00e+00	0	43	0	1002438656	15	4228
2026-01-03 07:51:06.07	19.97	15.34	-27.1	-28.4	14.8	0.00e+00	0	43	0	1005584384	15	4184
2026-01-03 07:51:07.07	19.77	15.31	-27.2	-28.7	14.8	7.00e-07	0	43	0	1008730112	15	4246
2026-01-03 07:51:08.07	19.56	15.28	-27.2	-28.6	14.9	0.00e+00	0	43	0	1011875840	15	4226
2026-01-03 07:51:09.08	19.36	15.25	-27.3	-28.7	14.7	7.00e-07	0	43	0	1015021568	15	4269
2026-01-03 07:51:10.08	19.15	15.22	-27.2	-28.6	14.7	7.00e-07	0	43	0	1018167296	15	4238
2026-01-03 07:51:11.09	18.95	15.18	-27.3	-29.0	14.3	1.50e-06	0	43	0	1021313024	15	4339
2026-01-03 07:51:12.10	18.74	15.15	-27.2	-28.6	14.5	7.00e-07	0	43	0	1024458752	15	4231
2026-01-03 07:51:13.10	18.54	15.12	-27.1	-28.5	14.4	0.00e+00	0	43	0	1027604480	15	4203
2026-01-03 07:51:14.11	18.34	15.09	-27.2	-28.6	14.3	0.00e+00	0	43	0	1030750208	15	4236
2026-01-03 07:51:15.12	18.13	15.05	-27.3	-28.9	14.1	3.00e-06	0	43	0	1033895936	15	4338
2026-01-03 07:51:16.12	17.93	15.02	-27.1	-28.4	14.4	0.00e+00	0	43	0	1037041664	15	4184
2026-01-03 07:51:17.13	17.73	14.99	-27.0	-28.3	14.5	1.50e-06	0	43	0	1040187392	15	4144
2026-01-03 07:51:18.14	17.53	14.95	-27.1	-28.3	14.6	0.00e+00	0	43	0	1043333120	15	4166
2026-01-03 07:51:19.15	17.32	14.92	-27.1	-28.5	14.6	0.00e+00	0	43	0	1046478848	15	4197
2026-01-03 07:51:20.15	17.12	14.89	-27.2	-28.7	14.7	7.00e-07	0	43	0	1049624576	15	4263
2026-01-03 07:51:21.16	16.92	14.85	-27.2	-28.6	14.8	7.00e-07	0	43	0	1052770304	15	4224
2026-01-03 07:51:22.16	16.73	14.82	-27.2	-28.5	14.8	0.00e+00	0	43	0	1055916032	15	4206
2026-01-03 07:51:23.17	16.53	14.78	-27.3	-28.7	14.7	7.00e-07	0	43	0	1059061760	15	4271
2026-01-03 07:51:24.18	16.33	14.75	-27.2	-28.6	14.8	0.00e+00	0	43	0	1062207488	15	4240
2026-01-03 07:51:25.18	16.13	14.71	-27.3	-28.9	14.7	0.00e+00	0	43	0	1065353216	15	4309
2026-01-03 07:51:26.19	15.93	14.67	-27.4	-29.0	14.6	7.00e-07	0	43	0	1068498944	15	4348
2026-01-03 07:51:27.20	15.73	14.64	-27.3	-28.8	14.7	0.00e+00	0	43	0	1071644672	15	4285
2026-01-03 07:51:28.21	15.54	14.60	-27.3	-28.8	14.8	7.00e-07	0	43	0	1074790400	15	4278
2026-01-03 07:51:29.21	15.34	14.56	-27.3	-28.7	14.7	0.00e+00	0	43	0	1077936128	15	4262
2026-01-03 07:51:30.21	15.15	14.53	-27.4	-29.0	14.6	0.00e+00	0	43	0	1081081856	15	4333
2026-01-03 07:51:31.21	14.95	14.49	-27.5	-29.3	14.4	1.50e-06	0	43	0	1084227584	15	4433
2026-01-03 07:51:32.22	14.76	14.45	-27.3	-28.9	14.6	7.00e-07	0	43	0	1087373312	15	4325
2026-01-03 07:51:33.23	14.56	14.41	-27.4	-29.1	14.5	0.00e+00	0	43	0	1090519040	15	4372
2026-01-03 07:51:34.24	14.37	14.37	-27.4	-29.0	14.6	0.00e+00	0	43	0	1093664768	15	4336
2026-01-03 07:51:35.24	14.17	14.34	-27.4	-29.1	14.5	1.50e-06	0	43	0	1096810496	15	4368
2026-01-03 07:51:36.25	13.98	14.30	-27.4	-29.1	14.5	0.00e+00	0	43	0	1099956224	15	4381
2026-01-03 07:51:37.26	13.79	14.26	-27.4	-29.1	14.5	7.00e-07	0	43	0	1103101952	15	4368
2026-01-03 07:51:38.27	13.60	14.22	-27.4	-29.1	14.5	7.00e-07	0	43	0	1106247680	15	4377
2026-01-03 07:51:39.27	13.41	14.18	-27.5	-29.3	14.4	2.20e-06	0	43	0	1109393408	15	4430
2026-01-03 07:51:40.28	13.22	14.14	-27.3	-28.8	14.7	0.00e+00	0	43	0	1112539136	15	4290
2026-01-03 07:51:41.28	13.03	14.10	-27.1	-28.5	14.8	0.00e+00	0	43	0	1115684864	15	4196
2026-01-03 07:51:42.28	12.84	14.06	-27.1	-28.5	14.9	0.00e+00	0	43	0	1118830592	15	4198
2026-01-03 07:51:43.29	12.65	14.02	-27.3	-28.8	14.7	7.00e-07	0	43	0	1121976320	15	4280
2026-01-03 07:51:44.30	12.46	13.98	-27.3	-28.9	14.6	0.00e+00	0	43	0	1125122048	15	4315
2026-01-03 07:51:45.30	12.27	13.94	-27.4	-29.0	14.6	7.00e-07	0	43	0	1128267776	15	4357
2026-01-03 07:51:46.31	12.08	13.89	-27.4	-29.0	14.6	3.00e-06	0	43	0	1131413504	15	4341
2026-01-03 07:51:47.32	11.90	13.85	-27.4	-29.0	14.6	7.00e-07	0	43	0	1134559232	15	4345
2026-01-03 07:51:48.32	11.71	13.81	-27.2	-28.6	14.7	7.00e-07	0	43	0	1137704960	15	4245
2026-01-03 07:51:49.33	11.52	13.77	-27.2	-28.6	14.8	7.00e-07	0	43	0	1140850688	15	4226
2026-01-03 07:51:50.33	11.34	13.73	-27.2	-28.6	14.8	0.00e+00	0	43	0	1143996416	15	4224
2026-01-03 07:51:51.34	11.15	13.68	-27.1	-28.4	14.9	0.00e+00	0	43	0	1147142144	15	4174
2026-01-03 07:51:52.35	10.97	13.64	-27.2	-28.5	14.8	0.00e+00	0	43	0	1150287872	15	4207
2026-01-03 07:51:53.35	10.79	13.60	-27.1	-28.5	14.8	0.00e+00	0	43	0	1153433600	15	4195
2026-01-03 07:51:54.35	10.61	13.56	-27.1	-28.4	14.9	0.00e+00	0	43	0	1156579328	15	4173
2026-01-03 07:51:55.36	10.42	13.51	-27.2	-28.5	14.8	0.00e+00	0	43	0	1159725056	15	4216
2026-01-03 07:51:56.37	10.24	13.47	-27.2	-28.7	14.7	0.00e+00	0	43	0	1162870784	15	4250
2026-01-03 07:51:57.38	10.06	13.43	-27.3	-28.8	14.6	0.00e+00	0	43	0	1166016512	15	4296
2026-01-03 07:51:58.38	9.88	13.38	-27.3	-28.9	14.6	0.00e+00	0	43	0	1169162240	15	4318
2026-01-03 07:51:59.38	9.70	13.34	-27.4	-29.0	14.5	0.00e+00	0	43	0	1172307968	15	4363
2026-01-03 07:52:00.39	9.52	13.29	-27.4	-29.0	14.5	1.50e-06	0	43	0	1175453696	15	4345
2026-01-03 07:52:01.39	9.34	13.25	-27.4	-29.1	14.5	3.00e-06	0	43	0	1178599424	15	4371
2026-01-03 07:52:02.41	9.16	13.20	-27.5	-29.2	14.4	3.00e-06	0	43	0	1181745152	15	4419
2026-01-03 07:52:03.41	8.98	13.16	-27.4	-29.1	14.5	7.00e-07	0	43	0	1184890880	15	4364
2026-01-03 07:52:04.42	8.80	13.11	-27.4	-29.0	14.5	0.00e+00	0	43	0	1188036608	15	4358
2026-01-03 07:52:05.42	8.63	13.07	-27.4	-29.1	14.5	0.00e+00	0	43	0	1191182336	15	4364
2026-01-03 07:52:06.43	8.45	13.02	-27.4	-29.2	14.4	7.00e-07	0	43	0	1194328064	15	4401
2026-01-03 07:52:07.43	8.27	12.98	-27.5	-29.4	14.2	3.00e-06	0	43	0	1197473792	15	4468
2026-01-03 07:52:08.45	8.10	12.93	-27.6	-29.5	14.2	0.00e+00	0	43	0	1200619520	15	4495
2026-01-03 07:52:09.45	7.92	12.88	-27.7	-29.9	14.0	2.20e-06	0	43	0	1203765248	15	4617
2026-01-03 07:52:10.46	7.75	12.84	-27.8	-30.0	13.9	3.00e-06	0	43	0	1206910976	15	4652
2026-01-03 07:52:11.47	7.57	12.79	-27.9	-30.2	13.8	6.10e-06	0	43	0	1210056704	15	4709
2026-01-03 07:52:12.48	7.40	12.74	-27.9	-30.2	13.8	3.80e-06	0	43	0	1213202432	15	4726
2026-01-03 07:52:13.48	7.23	12.70	-27.9	-30.3	13.7	3.80e-06	0	43	0	1216348160	15	4758
2026-01-03 07:52:14.49	7.06	12.65	-27.9	-30.3	13.7	4.50e-06	0	43	0	1219493888	15	4731
2026-01-03 07:52:15.49	6.89	12.60	-27.8	-30.0	13.9	0.00e+00	0	43	0	1222639616	15	4650
2026-01-03 07:52:16.50	6.71	12.56	-27.7	-29.8	14.0	3.00e-06	0	43	0	1225785344	15	4598
2026-01-03 07:52:17.51	6.54	12.51	-27.7	-29.8	14.1	3.80e-06	0	43	0	1228931072	15	4574
2026-01-03 07:52:18.51	6.37	12.46	-27.6	-29.6	14.1	1.50e-06	0	43	0	1232076800	15	4521
2026-01-03 07:52:19.51	6.21	12.41	-27.5	-29.3	14.3	7.00e-07	0	43	0	1235222528	15	4452
2026-01-03 07:52:20.51	6.04	12.37	-27.5	-29.3	14.3	7.00e-07	0	43	0	1238368256	15	4451
2026-01-03 07:52:21.52	5.87	12.32	-27.5	-29.3	14.3	7.00e-07	0	43	0	1241513984	15	4448
2026-01-03 07:52:22.52	5.70	12.27	-27.4	-29.2	14.4	0.00e+00	0	43	0	1244659712	15	4414
2026-01-03 07:52:23.53	5.54	12.22	-27.5	-29.2	14.3	0.00e+00	0	43	0	1247805440	15	4425
2026-01-03 07:52:24.54	5.37	12.17	-27.6	-29.5	14.2	1.50e-06	0	43	0	1250951168	15	4509
2026-01-03 07:52:25.55	5.20	12.12	-27.6	-29.6	14.1	2.20e-06	0	43	0	1254096896	15	4533
2026-01-03 07:52:26.56	5.04	12.08	-27.6	-29.5	14.2	7.00e-07	0	43	0	1257242624	15	4492
2026-01-03 07:52:27.56	4.87	12.03	-27.6	-29.5	14.2	7.00e-07	0	43	0	1260388352	15	4509
2026-01-03 07:52:28.57	4.71	11.98	-27.6	-29.6	14.1	2.20e-06	0	43	0	1263534080	15	4525
2026-01-03 07:52:29.58	4.54	11.93	-27.6	-29.6	14.1	2.20e-06	0	43	0	1266679808	15	4513
2026-01-03 07:52:30.59	4.38	11.88	-27.7	-29.8	14.0	3.00e-06	0	43	0	1269825536	15	4587
2026-01-03 07:52:31.59	4.22	11.83	-27.7	-29.9	13.9	3.80e-06	0	43	0	1272971264	15	4618
2026-01-03 07:52:32.59	4.06	11.78	-27.9	-30.2	13.7	6.80e-06	0	43	0	1276116992	15	4726
2026-01-03 07:52:33.61	3.89	11.73	-27.9	-30.2	13.8	9.10e-06	0	43	0	1279262720	15	4719
2026-01-03 07:52:34.62	3.73	11.68	-27.9	-30.4	13.6	5.30e-06	0	43	0	1282408448	15	4777
2026-01-03 07:52:35.62	3.57	11.63	-28.1	-30.2	13.6	1.14e-05	0	43	0	1285554176	16	4584
2026-01-03 07:52:36.63	3.41	11.58	-28.0	-30.0	13.7	7.60e-06	0	43	0	1288699904	16	4533
2026-01-03 07:52:37.63	3.25	11.53	-28.0	-30.0	13.8	7.60e-06	0	43	0	1291845632	16	4517
2026-01-03 07:52:38.64	3.09	11.48	-28.0	-30.0	13.7	9.10e-06	0	43	0	1294991360	16	4525
2026-01-03 07:52:39.64	2.94	11.43	-28.0	-30.0	13.7	5.30e-06	0	43	0	1298137088	16	4535
2026-01-03 07:52:40.65	2.78	11.38	-28.0	-29.9	13.8	3.80e-06	0	43	0	1301282816	16	4494
2026-01-03 07:52:41.65	2.62	11.33	-27.9	-29.8	13.8	3.80e-06	0	43	0	1304428544	16	4475
2026-01-03 07:52:42.66	2.47	11.28	-28.0	-30.0	13.7	6.10e-06	0	43	0	1307574272	16	4532
2026-01-03 07:52:43.67	2.31	11.23	-28.0	-30.0	13.7	9.90e-06	0	43	0	1310720000	16	4528
2026-01-03 07:52:44.67	2.15	11.18	-28.0	-30.0	13.7	9.10e-06	0	43	0	1313865728	16	4541
2026-01-03 07:52:45.68	2.00	11.13	-28.0	-30.1	13.7	6.80e-06	0	43	0	1317011456	16	4552
2026-01-03 07:52:46.69	1.84	11.07	-28.1	-30.2	13.6	5.30e-06	0	43	0	1320157184	16	4605
2026-01-03 07:52:47.69	1.69	11.02	-28.1	-30.3	13.5	9.10e-06	0	43	0	1323302912	16	4614
2026-01-03 07:52:48.69	1.54	10.97	-28.2	-30.4	13.5	1.22e-05	0	43	0	1326448640	16	4642
2026-01-03 07:52:49.69	1.39	10.92	-28.1	-30.3	13.5	1.37e-05	0	43	0	1329594368	16	4633
2026-01-03 07:52:50.70	1.24	10.87	-28.1	-30.3	13.5	1.22e-05	0	43	0	1332740096	16	4640
2026-01-03 07:52:51.71	1.08	10.82	-28.2	-30.4	13.5	3.00e-06	0	43	0	1335885824	16	4638
2026-01-03 07:52:52.72	0.93	10.77	-28.2	-30.4	13.5	1.75e-05	0	43	0	1339031552	16	4660
2026-01-03 07:52:53.72	0.78	10.72	-28.2	-30.4	13.4	9.90e-06	0	43	0	1342177280	16	4660
2026-01-03 07:52:54.72	0.63	10.66	-28.2	-30.5	13.4	1.14e-05	0	43	0	1345323008	16	4679
2026-01-03 07:52:55.73	0.48	10.61	-28.2	-30.5	13.4	1.44e-05	0	43	0	1348468736	16	4685
2026-01-03 07:52:56.74	0.33	10.56	-28.2	-30.5	13.4	2.13e-05	0	43	0	1351614464	16	4682
2026-01-03 07:52:57.75	0.19	10.51	-28.3	-30.7	13.2	1.22e-05	0	43	0	1354760192	16	4749
2026-01-03 07:52:58.75	0.04	10.46	-28.3	-30.6	13.2	1.98e-05	0	43	0	1357905920	16	4735
2026-01-03 07:52:59.76	359.89	10.40	-28.3	-30.8	13.1	1.83e-05	0	43	0	1361051648	16	4806
2026-01-03 07:53:00.76	359.74	10.35	-28.3	-30.6	13.3	2.21e-05	0	43	0	1364197376	16	4733
2026-01-03 07:53:01.77	359.60	10.30	-28.2	-30.5	13.3	1.90e-05	0	43	0	1367343104	16	4706
2026-01-03 07:53:02.77	359.45	10.25	-28.2	-30.6	13.3	1.29e-05	0	43	0	1370488832	16	4717
2026-01-03 07:53:03.78	359.31	10.19	-28.2	-30.4	13.4	1.29e-05	0	43	0	1373634560	16	4664
2026-01-03 07:53:04.78	359.16	10.14	-28.1	-30.4	13.4	8.30e-06	0	43	0	1376780288	16	4658
2026-01-03 07:53:05.79	359.02	10.09	-28.1	-30.2	13.5	1.37e-05	0	43	0	1379926016	16	4606
2026-01-03 07:53:06.79	358.88	10.04	-28.0	-30.1	13.5	9.90e-06	0	43	0	1383071744	16	4581
2026-01-03 07:53:07.80	358.73	9.98	-28.1	-30.2	13.5	9.90e-06	0	43	0	1386217472	16	4600
2026-01-03 07:53:08.81	358.59	9.93	-28.0	-30.0	13.6	6.80e-06	0	43	0	1389363200	16	4549
2026-01-03 07:53:09.82	358.45	9.88	-28.0	-30.0	13.7	6.10e-06	0	43	0	1392508928	16	4533
2026-01-03 07:53:10.83	358.31	9.82	-28.0	-30.1	13.6	7.60e-06	0	43	0	1395654656	16	4578
2026-01-03 07:53:11.83	358.17	9.77	-28.1	-30.2	13.5	4.50e-06	0	43	0	1398800384	16	4593
2026-01-03 07:53:12.84	358.03	9.72	-28.0	-30.1	13.5	8.30e-06	0	43	0	1401946112	16	4584
2026-01-03 07:53:13.85	357.89	9.67	-28.2	-30.4	13.4	1.44e-05	0	43	0	1405091840	16	4677
2026-01-03 07:53:14.86	357.75	9.61	-28.1	-30.3	13.5	1.06e-05	0	43	0	1408237568	16	4621
2026-01-03 07:53:15.86	357.61	9.56	-28.1	-30.3	13.4	1.14e-05	0	43	0	1411383296	16	4631
2026-01-03 07:53:16.87	357.47	9.51	-28.2	-30.5	13.3	1.98e-05	0	43	0	1414529024	16	4688
2026-01-03 07:53:17.88	357.33	9.45	-28.1	-30.4	13.4	1.22e-05	0	43	0	1417674752	16	4652
2026-01-03 07:53:18.88	357.19	9.40	-28.1	-30.3	13.4	1.22e-05	0	43	0	1420820480	16	4641
2026-01-03 07:53:19.89	357.06	9.35	-28.2	-30.4	13.3	1.29e-05	0	43	0	1423966208	16	4671
2026-01-03 07:53:20.90	356.92	9.29	-28.1	-30.4	13.4	1.83e-05	0	43	0	1427111936	16	4647
2026-01-03 07:53:21.90	356.79	9.24	-28.1	-30.4	13.3	1.22e-05	0	43	0	1430257664	16	4676
2026-01-03 07:53:22.91	356.65	9.19	-28.3	-30.7	13.2	2.13e-05	0	43	0	1433403392	16	4761
2026-01-03 07:53:23.91	356.52	9.13	-28.2	-30.5	13.3	2.05e-05	0	43	0	1436549120	16	4708
2026-01-03 07:53:24.92	356.38	9.08	-28.1	-30.4	13.3	1.44e-05	0	43	0	1439694848	16	4668
2026-01-03 07:53:25.93	356.25	9.02	-28.1	-30.4	13.3	1.44e-05	0	43	0	1442840576	16	4658
2026-01-03 07:53:26.93	356.12	8.97	-28.1	-30.3	13.4	1.52e-05	0	43	0	1445986304	16	4643
2026-01-03 07:53:27.94	355.98	8.92	-28.2	-30.6	13.2	2.59e-05	0	43	0	1449132032	16	4737
2026-01-03 07:53:28.94	355.85	8.86	-28.2	-30.4	13.3	2.13e-05	0	43	0	1452277760	16	4682
2026-01-03 07:53:29.95	355.72	8.81	-28.2	-30.5	13.2	1.29e-05	0	43	0	1455423488	16	4706
2026-01-03 07:53:30.95	355.59	8.76	-28.4	-31.0	12.9	3.35e-05	0	43	0	1458569216	16	4856
2026-01-03 07:53:31.96	355.46	8.70	-28.4	-30.9	13.0	5.26e-05	0	43	0	1461714944	16	4844
2026-01-03 07:53:32.97	355.33	8.65	-28.5	-31.3	12.8	6.02e-05	0	43	0	1464860672	16	4958
2026-01-03 07:53:33.98	355.20	8.59	-28.5	-30.8	12.7	7.17e-05	0	43	0	1468006400	17	4684
2026-01-03 07:53:34.98	355.07	8.54	-28.6	-31.0	12.6	8.39e-05	0	43	0	1471152128	17	4765
2026-01-03 07:53:35.99	354.94	8.49	-28.5	-30.9	12.6	8.69e-05	0	43	0	1474297856	17	4723
2026-01-03 07:53:36.99	354.81	8.43	-28.5	-30.8	12.7	8.23e-05	0	43	0	1477443584	17	4694
2026-01-03 07:53:38.00	354.68	8.38	-28.6	-31.0	12.6	9.38e-05	0	43	0	1480589312	17	4751
2026-01-03 07:53:39.01	354.56	8.33	-28.5	-30.8	12.7	9.23e-05	0	43	0	1483735040	17	4693
2026-01-03 07:53:40.02	354.43	8.27	-28.7	-31.4	12.3	1.52e-04	0	43	0	1486880768	17	4912
2026-01-03 07:53:41.02	354.30	8.22	-28.5	-30.9	12.6	9.99e-05	0	43	0	1490026496	17	4743
2026-01-03 07:53:42.03	354.18	8.16	-28.4	-30.5	12.8	7.32e-05	0	43	0	1493172224	17	4608
2026-01-03 07:53:43.04	354.05	8.11	-28.4	-30.5	12.9	6.17e-05	0	43	0	1496317952	17	4585
2026-01-03 07:53:44.04	353.93	8.06	-28.4	-30.6	12.8	6.17e-05	0	43	0	1499463680	17	4624
2026-01-03 07:53:45.05	353.80	8.00	-28.4	-30.6	12.8	6.17e-05	0	43	0	1502609408	17	4623
2026-01-03 07:53:46.05	353.68	7.95	-28.5	-30.7	12.7	7.47e-05	0	43	0	1505755136	17	4671
2026-01-03 07:53:47.06	353.56	7.89	-28.5	-30.9	12.6	1.04e-04	0	43	0	1508900864	17	4724
2026-01-03 07:53:48.07	353.43	7.84	-28.6	-31.0	12.5	1.17e-04	0	43	0	1512046592	17	4782
2026-01-03 07:53:49.07	353.31	7.78	-28.5	-30.9	12.6	9.68e-05	0	43	0	1515192320	17	4745
2026-01-03 07:53:50.07	353.19	7.73	-28.5	-30.9	12.6	9.46e-05	0	43	0	1518338048	17	4716
2026-01-03 07:53:51.08	353.07	7.68	-28.6	-31.0	12.5	9.99e-05	0	43	0	1521483776	17	4755
2026-01-03 07:53:52.09	352.95	7.62	-28.6	-31.2	12.4	1.27e-04	0	43	0	1524629504	17	4821
2026-01-03 07:53:53.09	352.83	7.57	-28.6	-31.2	12.4	1.35e-04	0	43	0	1527775232	17	4828
2026-01-03 07:53:54.10	352.71	7.51	-28.7	-31.3	12.3	1.50e-04	0	43	0	1530920960	17	4853
2026-01-03 07:53:55.11	352.59	7.46	-28.6	-31.2	12.3	1.97e-04	0	43	0	1534066688	17	4831
2026-01-03 07:53:56.11	352.47	7.41	-28.7	-31.4	12.2	2.18e-04	0	43	0	1537212416	17	4907
2026-01-03 07:53:57.12	352.35	7.35	-28.7	-31.3	12.3	1.93e-04	0	43	0	1540358144	17	4859
2026-01-03 07:53:58.12	352.23	7.30	-28.7	-31.3	12.3	1.53e-04	0	43	0	1543503872	17	4867
2026-01-03 07:53:59.13	352.11	7.24	-28.7	-31.4	12.2	1.94e-04	0	43	0	1546649600	17	4909
2026-01-03 07:54:00.14	351.99	7.19	-28.9	-31.9	11.8	4.12e-04	0	43	0	1549795328	17	5097
2026-01-03 07:54:01.15	351.88	7.14	-28.8	-31.6	12.1	3.14e-04	0	43	0	1552941056	17	4972
2026-01-03 07:54:02.15	351.76	7.08	-29.2	-32.2	11.6	1.98e-04	0	43	0	1556086784	18	5075
2026-01-03 07:54:03.16	351.64	7.03	-32.9	-45.1	3.8	1.49e+00	0	43	104	1556086784	25	14710
2026-01-03 07:54:04.17	351.53	6.97	-33.1	-45.1	3.8	1.49e+00	0	43	104	1556086784	26	14319

#Closed at: 2026-01-03 07:54:04
#Recorded file [1556 MB]: D:/data/31010_260103_104544.dat