passes_logs/2026/01/03/R2M6_AANII_01/R2M6_AANII_01__20260103_060840_FENGYUN_3E_rec.log

#Pass ID: 20260103_060840_FENGYUN 3E
#Satellite: FENGYUN 3E
#Configuration: FENGYUN 3E
#almurnet v.1.7.20240730
#Start time: 2026-01-03 06:08:40

#Version: 2.2.20231116
#Station: R2M6_AANII_01
#Location: 30.233357 lon 59.946436 lat
#TLE: 1 49008U 21062A   26002.32147302  .00000239  00000+0  13357-3 0  9999
#TLE: 2 49008  98.7477   7.5995 0001398 164.3382 195.7838 14.19884140233041

#Time	Az	El	Level	Level2	SNR	BER	BlckErr	Temp	State	Recorded	gain1	gain2
2026-01-03 06:08:40.33	11.66	6.97	-31.3	-36.4	4.3	8.30e-01	0	40	0	0	22	6468
2026-01-03 06:08:41.33	11.59	7.04	-30.7	-34.8	4.6	8.12e-01	0	41	104	0	21	5750
2026-01-03 06:08:42.34	11.52	7.11	-30.7	-34.4	6.5	2.63e-01	0	40	0	0	21	5551
2026-01-03 06:08:43.34	11.44	7.18	-30.7	-34.6	6.4	2.52e-01	0	40	0	7340032	21	5628
2026-01-03 06:08:44.35	11.37	7.25	-30.7	-34.5	6.4	2.43e-01	0	41	0	14680064	21	5596
2026-01-03 06:08:45.35	11.29	7.32	-30.7	-34.5	6.5	2.39e-01	0	41	0	20971520	21	5569
2026-01-03 06:08:46.35	11.22	7.39	-30.7	-34.5	6.5	2.46e-01	0	41	0	28311552	21	5567
2026-01-03 06:08:47.35	11.14	7.46	-30.6	-34.2	6.7	2.04e-01	0	41	0	35651584	21	5429
2026-01-03 06:08:48.36	11.07	7.53	-30.1	-33.1	7.7	1.09e-01	0	41	0	42991616	20	5079
2026-01-03 06:08:49.37	10.99	7.60	-29.8	-32.6	8.4	5.52e-02	0	41	0	50331648	19	4972
2026-01-03 06:08:50.38	10.91	7.67	-29.2	-31.3	9.6	1.55e-02	0	41	0	57671680	18	4608
2026-01-03 06:08:51.39	10.84	7.74	-28.6	-30.3	10.6	4.81e-03	0	41	0	65011712	17	4393
2026-01-03 06:08:52.39	10.76	7.81	-27.8	-29.4	11.6	9.05e-04	0	41	0	72351744	15	4349
2026-01-03 06:08:53.40	10.68	7.88	-27.3	-28.2	12.4	2.01e-04	0	41	0	79691776	15	4004
2026-01-03 06:08:54.41	10.60	7.95	-26.8	-28.2	12.9	2.47e-03	0	41	0	87031808	13	4220
2026-01-03 06:08:55.41	10.52	8.02	-26.4	-27.7	13.5	2.05e-05	0	41	0	94371840	12	4179
2026-01-03 06:08:56.42	10.44	8.09	-26.2	-27.2	13.9	2.56e-04	0	41	0	100663296	12	4034
2026-01-03 06:08:57.43	10.36	8.16	-26.0	-26.7	14.1	1.10e-06	0	41	0	109051904	12	3923
2026-01-03 06:08:58.44	10.28	8.24	-26.1	-27.4	14.1	2.00e-03	0	41	0	116391936	11	4204
2026-01-03 06:08:59.44	10.20	8.31	-26.0	-26.7	14.1	2.08e-04	0	41	0	122683392	12	3928
2026-01-03 06:09:00.45	10.12	8.38	-26.1	-27.4	14.1	1.10e-06	0	41	0	130023424	11	4197
2026-01-03 06:09:01.45	10.04	8.45	-26.0	-27.2	14.2	1.87e-03	0	41	0	137363456	11	4145
2026-01-03 06:09:02.46	9.96	8.52	-26.1	-27.4	14.1	2.06e-04	0	41	0	144703488	11	4196
2026-01-03 06:09:03.47	9.87	8.59	-26.2	-27.1	13.9	1.97e-03	0	41	0	152043520	12	4014
2026-01-03 06:09:04.48	9.79	8.67	-26.1	-26.9	14.0	1.82e-03	0	41	0	159383552	12	3978
2026-01-03 06:09:05.48	9.71	8.74	-26.1	-27.0	14.0	1.67e-04	0	41	0	166723584	12	3994
2026-01-03 06:09:06.49	9.63	8.81	-26.1	-27.0	14.0	1.89e-03	0	41	0	174063616	12	3994
2026-01-03 06:09:07.50	9.54	8.88	-26.1	-27.0	14.0	2.07e-03	0	41	0	181403648	12	4004
2026-01-03 06:09:08.50	9.46	8.96	-26.3	-27.5	13.7	2.00e-04	0	41	0	188743680	12	4125
2026-01-03 06:09:09.51	9.37	9.03	-26.3	-27.4	13.8	2.21e-03	0	41	0	196083712	12	4094
2026-01-03 06:09:10.52	9.29	9.10	-26.2	-27.2	13.9	2.08e-03	0	41	0	203423744	12	4039
2026-01-03 06:09:11.51	9.20	9.18	-26.2	-27.2	13.9	2.07e-04	0	41	0	209715200	12	4034
2026-01-03 06:09:12.52	9.12	9.25	-26.3	-27.5	13.7	2.07e-03	0	41	0	217055232	12	4117
2026-01-03 06:09:13.53	9.03	9.32	-26.2	-27.2	13.9	2.06e-03	0	41	0	224395264	12	4053
2026-01-03 06:09:14.54	8.94	9.40	-26.2	-27.2	13.9	2.86e-04	0	41	0	231735296	12	4057
2026-01-03 06:09:15.54	8.85	9.47	-26.1	-27.0	14.0	1.10e-06	0	41	0	239075328	12	4000
2026-01-03 06:09:16.55	8.77	9.55	-26.1	-27.0	14.1	2.31e-03	0	41	0	246415360	12	3996
2026-01-03 06:09:17.55	8.68	9.62	-26.1	-27.1	14.0	1.49e-04	0	42	0	253755392	12	4009
2026-01-03 06:09:18.55	8.59	9.69	-26.1	-27.0	14.0	2.23e-03	0	42	0	261095424	12	3998
2026-01-03 06:09:19.55	8.50	9.77	-26.1	-27.0	14.1	0.00e+00	0	42	0	268435456	12	3980
2026-01-03 06:09:20.56	8.41	9.84	-26.1	-27.4	14.2	0.00e+00	0	42	0	275775488	11	4191
2026-01-03 06:09:21.57	8.32	9.92	-26.0	-27.2	14.3	2.14e-03	0	42	0	283115520	11	4152
2026-01-03 06:09:22.57	8.23	9.99	-26.0	-27.2	14.3	1.10e-06	0	42	0	289406976	11	4148
2026-01-03 06:09:23.58	8.14	10.07	-26.0	-27.2	14.3	0.00e+00	0	42	0	297795584	11	4134
2026-01-03 06:09:24.59	8.05	10.14	-25.9	-26.5	14.4	2.07e-04	0	42	0	305135616	12	3874
2026-01-03 06:09:25.60	7.95	10.22	-26.1	-26.9	14.1	0.00e+00	0	42	0	311427072	12	3968
2026-01-03 06:09:26.60	7.86	10.29	-26.1	-26.9	14.1	1.32e-04	0	42	0	318767104	12	3968
2026-01-03 06:09:27.60	7.77	10.37	-26.1	-26.9	14.1	1.13e-04	0	42	0	326107136	12	3960
2026-01-03 06:09:28.61	7.67	10.44	-26.1	-26.9	14.2	0.00e+00	0	42	0	333447168	12	3955
2026-01-03 06:09:29.62	7.58	10.52	-25.9	-26.6	14.4	7.55e-05	0	42	0	340787200	12	3878
2026-01-03 06:09:30.62	7.48	10.60	-25.9	-27.1	14.4	1.10e-06	0	42	0	348127232	11	4119
2026-01-03 06:09:31.63	7.39	10.67	-26.0	-27.2	14.4	0.00e+00	0	42	0	355467264	11	4135
2026-01-03 06:09:32.63	7.29	10.75	-26.0	-27.3	14.3	1.15e-04	0	42	0	362807296	11	4175
2026-01-03 06:09:33.64	7.20	10.83	-26.0	-27.2	14.4	1.68e-04	0	42	0	370147328	11	4146
2026-01-03 06:09:34.65	7.10	10.90	-26.1	-27.1	14.1	0.00e+00	0	42	0	377487360	12	4006
2026-01-03 06:09:35.66	7.00	10.98	-25.8	-26.7	14.7	1.62e-04	0	42	0	384827392	11	4001
2026-01-03 06:09:36.67	6.90	11.06	-25.9	-26.9	14.5	1.37e-04	0	42	0	392167424	11	4070
2026-01-03 06:09:37.67	6.80	11.13	-25.9	-27.0	14.5	0.00e+00	0	42	0	398458880	11	4077
2026-01-03 06:09:38.68	6.71	11.21	-25.9	-27.0	14.5	5.49e-05	0	42	0	406847488	11	4079
2026-01-03 06:09:39.69	6.61	11.29	-25.9	-26.9	14.6	9.10e-06	0	42	0	414187520	11	4061
2026-01-03 06:09:40.69	6.51	11.37	-25.8	-26.8	14.6	0.00e+00	0	42	0	420478976	11	4037
2026-01-03 06:09:41.70	6.40	11.45	-25.9	-27.0	14.5	2.20e-06	0	42	0	427819008	11	4089
2026-01-03 06:09:42.71	6.30	11.52	-26.0	-27.3	14.4	0.00e+00	0	42	0	435159040	11	4160
2026-01-03 06:09:43.72	6.20	11.60	-26.0	-27.2	14.5	0.00e+00	0	42	0	442499072	11	4124
2026-01-03 06:09:44.72	6.10	11.68	-25.9	-27.0	14.5	1.28e-04	0	42	0	449839104	11	4093
2026-01-03 06:09:45.73	6.00	11.76	-25.9	-26.9	14.6	0.00e+00	0	42	0	457179136	11	4071
2026-01-03 06:09:46.74	5.89	11.84	-25.9	-27.0	14.6	0.00e+00	0	42	0	464519168	11	4087
2026-01-03 06:09:47.74	5.79	11.92	-25.8	-26.8	14.7	0.00e+00	0	42	0	471859200	11	4039
2026-01-03 06:09:48.74	5.68	12.00	-25.7	-26.6	14.8	2.52e-04	0	42	0	479199232	11	3980
2026-01-03 06:09:49.75	5.58	12.08	-25.6	-26.4	14.9	0.00e+00	0	42	0	486539264	11	3925
2026-01-03 06:09:50.75	5.47	12.15	-25.7	-26.6	14.8	0.00e+00	0	42	0	493879296	11	3979
2026-01-03 06:09:51.76	5.37	12.23	-25.7	-26.6	14.8	1.80e-04	0	42	0	500170752	11	3994
2026-01-03 06:09:52.77	5.26	12.31	-25.7	-26.5	14.9	1.10e-06	0	42	0	507510784	11	3952
2026-01-03 06:09:53.78	5.15	12.39	-25.5	-26.6	15.1	1.13e-04	0	42	0	514850816	10	4096
2026-01-03 06:09:54.79	5.04	12.47	-25.5	-26.2	15.0	0.00e+00	0	42	0	522190848	11	3876
2026-01-03 06:09:55.79	4.93	12.55	-25.6	-26.3	15.0	0.00e+00	0	42	0	529530880	11	3910
2026-01-03 06:09:56.80	4.82	12.64	-25.5	-26.7	15.0	0.00e+00	0	42	0	536870912	10	4110
2026-01-03 06:09:57.81	4.71	12.72	-25.4	-26.5	15.2	0.00e+00	0	42	0	544210944	10	4057
2026-01-03 06:09:58.81	4.60	12.80	-25.5	-26.5	15.2	0.00e+00	0	42	0	551550976	10	4069
2026-01-03 06:09:59.81	4.49	12.88	-25.4	-26.5	15.2	0.00e+00	0	42	0	558891008	10	4055
2026-01-03 06:10:00.83	4.38	12.96	-25.5	-26.7	15.1	0.00e+00	0	42	0	566231040	10	4105
2026-01-03 06:10:01.83	4.27	13.04	-25.5	-26.5	15.1	0.00e+00	0	42	0	573571072	10	4068
2026-01-03 06:10:02.83	4.15	13.12	-25.5	-26.5	15.2	0.00e+00	0	43	0	580911104	10	4069
2026-01-03 06:10:03.83	4.04	13.20	-25.4	-26.5	15.2	0.00e+00	0	42	0	588251136	10	4047
2026-01-03 06:10:04.85	3.92	13.28	-25.4	-26.4	15.2	0.00e+00	0	42	0	595591168	10	4033
2026-01-03 06:10:05.85	3.81	13.36	-26.1	-27.2	15.0	0.00e+00	0	42	0	602931200	11	4072
2026-01-03 06:10:06.86	3.69	13.45	-24.9	-25.4	14.0	0.00e+00	0	42	0	609222656	11	3821
2026-01-03 06:10:07.86	3.58	13.53	-25.4	-26.3	14.3	0.00e+00	0	42	0	616562688	10	4000
2026-01-03 06:10:08.87	3.46	13.61	-25.3	-26.2	14.8	0.00e+00	0	42	0	623902720	10	3980
2026-01-03 06:10:09.87	3.34	13.69	-25.4	-26.3	15.3	0.00e+00	0	42	0	631242752	10	4009
2026-01-03 06:10:10.88	3.22	13.78	-25.4	-26.4	15.2	2.30e-04	0	42	0	638582784	10	4042
2026-01-03 06:10:11.89	3.10	13.86	-25.3	-26.2	15.4	0.00e+00	0	42	0	645922816	10	3970
2026-01-03 06:10:12.89	2.98	13.94	-25.2	-25.9	15.5	1.93e-03	0	42	0	653262848	10	3915
2026-01-03 06:10:13.90	2.86	14.02	-25.2	-25.8	15.6	0.00e+00	0	42	0	660602880	10	3898
2026-01-03 06:10:14.90	2.74	14.11	-25.1	-25.7	15.6	0.00e+00	0	43	0	667942912	10	3859
2026-01-03 06:10:15.91	2.62	14.19	-25.2	-26.0	15.5	1.86e-03	0	42	0	675282944	10	3927
2026-01-03 06:10:16.91	2.50	14.27	-24.9	-25.9	15.8	0.00e+00	0	42	0	682622976	9	4004
2026-01-03 06:10:17.92	2.37	14.36	-25.0	-25.9	15.8	1.71e-03	0	42	0	689963008	9	4024
2026-01-03 06:10:18.92	2.25	14.44	-25.0	-25.9	15.8	1.90e-03	0	43	0	696254464	9	4017
2026-01-03 06:10:19.92	2.13	14.52	-24.9	-25.9	15.8	0.00e+00	0	43	0	703594496	9	4009
2026-01-03 06:10:20.93	2.00	14.61	-25.0	-26.1	15.7	1.96e-03	0	43	0	711983104	9	4057
2026-01-03 06:10:21.94	1.87	14.69	-25.0	-26.1	15.7	0.00e+00	0	42	0	718274560	9	4060
2026-01-03 06:10:22.95	1.75	14.78	-24.9	-25.8	15.9	1.32e-04	0	43	0	725614592	9	3981
2026-01-03 06:10:23.96	1.62	14.86	-24.9	-25.7	15.9	1.82e-03	0	43	0	732954624	9	3976
2026-01-03 06:10:24.96	1.49	14.95	-24.9	-25.8	15.9	1.73e-03	0	43	0	740294656	9	3985
2026-01-03 06:10:25.97	1.36	15.03	-24.8	-25.6	16.0	8.01e-05	0	43	0	747634688	9	3946
2026-01-03 06:10:26.98	1.23	15.12	-24.7	-25.5	16.1	0.00e+00	0	43	0	754974720	9	3909
2026-01-03 06:10:27.99	1.10	15.20	-24.9	-25.8	15.9	1.90e-03	0	42	0	762314752	9	4004
2026-01-03 06:10:28.99	0.97	15.29	-24.8	-25.5	16.1	0.00e+00	0	43	0	769654784	9	3918
2026-01-03 06:10:30.00	0.83	15.37	-24.8	-25.5	16.1	1.83e-03	0	43	0	776994816	9	3923
2026-01-03 06:10:31.00	0.70	15.46	-24.7	-25.3	16.2	1.91e-03	0	43	0	784334848	9	3873
2026-01-03 06:10:32.01	0.57	15.54	-24.7	-25.4	16.1	0.00e+00	0	43	0	791674880	9	3880
2026-01-03 06:10:33.02	0.43	15.63	-24.6	-25.2	16.2	1.72e-03	0	43	0	797966336	9	3838
2026-01-03 06:10:34.02	0.30	15.72	-24.6	-25.3	16.2	0.00e+00	0	43	0	805306368	9	3859
2026-01-03 06:10:35.03	0.16	15.80	-24.6	-25.1	16.3	0.00e+00	0	43	0	813694976	9	3815
2026-01-03 06:10:36.04	0.02	15.89	-24.6	-25.1	16.3	0.00e+00	0	43	0	819986432	9	3829
2026-01-03 06:10:37.04	359.88	15.98	-24.7	-25.4	16.1	0.00e+00	0	43	0	827326464	9	3882
2026-01-03 06:10:38.05	359.74	16.06	-24.7	-25.3	16.2	1.66e-04	0	43	0	834666496	9	3861
2026-01-03 06:10:39.06	359.60	16.15	-24.7	-25.3	16.2	0.00e+00	0	43	0	842006528	9	3860
2026-01-03 06:10:40.06	359.46	16.24	-24.7	-25.4	16.2	0.00e+00	0	43	0	849346560	9	3886
2026-01-03 06:10:41.07	359.32	16.32	-24.9	-25.7	16.0	0.00e+00	0	43	0	856686592	9	3959
2026-01-03 06:10:42.08	359.18	16.41	-24.9	-25.8	15.9	0.00e+00	0	43	0	864026624	9	3996
2026-01-03 06:10:43.09	359.04	16.50	-24.9	-25.8	15.9	0.00e+00	0	43	0	871366656	9	3982
2026-01-03 06:10:44.09	358.89	16.58	-24.9	-25.7	16.0	0.00e+00	0	43	0	878706688	9	3969
2026-01-03 06:10:45.10	358.75	16.67	-25.0	-26.0	15.8	0.00e+00	0	43	0	886046720	9	4037
2026-01-03 06:10:46.11	358.60	16.76	-24.7	-25.4	16.1	0.00e+00	0	43	0	893386752	9	3888
2026-01-03 06:10:47.11	358.46	16.85	-24.7	-25.3	16.2	0.00e+00	0	43	0	900726784	9	3857
2026-01-03 06:10:48.12	358.31	16.94	-24.8	-25.6	16.1	0.00e+00	0	43	0	907018240	9	3926
2026-01-03 06:10:49.12	358.16	17.02	-24.7	-25.4	16.2	0.00e+00	0	43	0	914358272	9	3893
2026-01-03 06:10:50.12	358.01	17.11	-24.6	-25.0	16.4	0.00e+00	0	43	0	921698304	9	3806
2026-01-03 06:10:51.13	357.86	17.20	-24.6	-25.1	16.3	0.00e+00	0	43	0	929038336	9	3831
2026-01-03 06:10:52.14	357.71	17.29	-24.4	-24.6	16.6	0.00e+00	0	43	0	936378368	9	3700
2026-01-03 06:10:53.15	357.56	17.38	-24.5	-25.4	16.4	0.00e+00	0	43	0	943718400	8	4006
2026-01-03 06:10:54.16	357.40	17.46	-24.2	-24.7	16.8	0.00e+00	0	43	0	951058432	8	3828
2026-01-03 06:10:55.17	357.25	17.55	-24.2	-24.7	16.8	0.00e+00	0	43	0	958398464	8	3822
2026-01-03 06:10:56.17	357.10	17.64	-24.2	-24.7	16.8	0.00e+00	0	43	0	965738496	8	3832
2026-01-03 06:10:57.17	356.94	17.73	-24.0	-24.4	16.9	4.40e-04	0	43	0	973078528	8	3766
2026-01-03 06:10:58.18	356.78	17.82	-24.0	-24.3	17.0	0.00e+00	0	43	0	980418560	8	3733
2026-01-03 06:10:59.18	356.63	17.91	-24.1	-25.0	16.9	5.24e-04	0	43	0	987758592	7	3998
2026-01-03 06:11:00.18	356.47	18.00	-24.2	-24.8	16.8	0.00e+00	0	43	0	995098624	8	3850
2026-01-03 06:11:01.19	356.31	18.09	-24.2	-24.8	16.8	0.00e+00	0	43	0	1002438656	8	3853
2026-01-03 06:11:02.20	356.15	18.18	-24.3	-24.9	16.7	6.10e-04	0	43	0	1008730112	8	3875
2026-01-03 06:11:03.20	355.99	18.26	-24.2	-24.8	16.7	0.00e+00	0	43	0	1016070144	8	3852
2026-01-03 06:11:04.21	355.83	18.35	-24.3	-25.1	16.6	0.00e+00	0	43	0	1023410176	8	3915
2026-01-03 06:11:05.21	355.66	18.44	-24.2	-24.8	16.7	5.70e-04	0	43	0	1030750208	8	3863
2026-01-03 06:11:06.21	355.50	18.53	-24.3	-25.1	16.6	0.00e+00	0	43	0	1038090240	8	3916
2026-01-03 06:11:07.22	355.34	18.62	-24.4	-25.2	16.6	0.00e+00	0	43	0	1045430272	8	3942
2026-01-03 06:11:08.23	355.17	18.71	-24.2	-24.7	16.8	0.00e+00	0	43	0	1052770304	8	3835
2026-01-03 06:11:09.23	355.00	18.80	-24.2	-24.8	16.8	8.47e-04	0	43	0	1060110336	8	3847
2026-01-03 06:11:10.23	354.84	18.89	-24.1	-24.6	16.9	0.00e+00	0	43	0	1067450368	8	3796
2026-01-03 06:11:11.24	354.67	18.98	-24.0	-24.8	17.0	6.14e-04	0	43	0	1074790400	7	3952
2026-01-03 06:11:12.24	354.50	19.07	-23.9	-24.7	17.1	5.39e-04	0	43	0	1082130432	7	3939
2026-01-03 06:11:13.25	354.32	19.16	-23.9	-24.7	17.1	0.00e+00	0	43	0	1089470464	7	3926
2026-01-03 06:11:14.26	354.15	19.25	-24.1	-24.5	17.0	5.18e-04	0	43	0	1095761920	8	3785
2026-01-03 06:11:15.27	353.98	19.34	-24.3	-25.0	16.7	5.37e-04	0	43	0	1103101952	8	3888
2026-01-03 06:11:16.27	353.80	19.43	-24.1	-24.6	16.9	0.00e+00	0	43	0	1110441984	8	3810
2026-01-03 06:11:17.28	353.63	19.52	-24.2	-24.7	16.9	4.18e-04	0	43	0	1117782016	8	3820
2026-01-03 06:11:18.28	353.45	19.61	-24.3	-25.0	16.7	0.00e+00	0	43	0	1125122048	8	3896
2026-01-03 06:11:19.29	353.27	19.70	-24.3	-25.0	16.7	0.00e+00	0	43	0	1132462080	8	3903
2026-01-03 06:11:20.29	353.10	19.79	-24.3	-25.1	16.7	0.00e+00	0	43	0	1139802112	8	3912
2026-01-03 06:11:21.30	352.92	19.88	-24.3	-25.0	16.7	5.35e-04	0	43	0	1147142144	8	3905
2026-01-03 06:11:22.31	352.73	19.97	-24.3	-24.9	16.8	0.00e+00	0	43	0	1154482176	8	3878
2026-01-03 06:11:23.31	352.55	20.06	-24.3	-25.0	16.7	0.00e+00	0	43	0	1161822208	8	3910
2026-01-03 06:11:24.31	352.37	20.15	-23.8	-24.8	14.3	3.66e-04	0	43	0	1169162240	8	4012
2026-01-03 06:11:25.32	352.19	20.24	-24.2	-24.9	16.5	0.00e+00	0	43	0	1176502272	8	3867
2026-01-03 06:11:26.33	352.00	20.34	-24.1	-24.6	16.8	3.58e-04	0	43	0	1182793728	8	3817
2026-01-03 06:11:27.33	351.82	20.43	-24.2	-24.7	16.9	8.31e-04	0	43	0	1191182336	8	3826
2026-01-03 06:11:28.33	351.63	20.52	-24.2	-24.7	16.9	0.00e+00	0	43	0	1198522368	8	3828
2026-01-03 06:11:29.34	351.44	20.61	-24.2	-24.8	16.9	1.76e-04	0	43	0	1204813824	8	3850
2026-01-03 06:11:30.34	351.25	20.70	-24.3	-24.9	16.8	9.30e-04	0	43	0	1212153856	8	3879
2026-01-03 06:11:31.35	351.06	20.79	-24.4	-25.3	16.6	0.00e+00	0	43	0	1219493888	8	3967
2026-01-03 06:11:32.35	350.87	20.88	-24.4	-25.2	16.7	1.05e-03	0	43	0	1226833920	8	3953
2026-01-03 06:11:33.36	350.68	20.97	-24.5	-24.9	16.5	0.00e+00	0	43	0	1234173952	9	3771
2026-01-03 06:11:34.36	350.48	21.06	-24.4	-25.1	16.7	0.00e+00	0	43	0	1241513984	8	3925
2026-01-03 06:11:35.37	350.29	21.15	-24.3	-25.0	16.8	1.02e-03	0	43	0	1248854016	8	3893
2026-01-03 06:11:36.38	350.09	21.24	-24.4	-25.1	16.7	0.00e+00	0	43	0	1256194048	8	3919
2026-01-03 06:11:37.38	349.89	21.33	-24.3	-25.0	16.8	1.25e-04	0	43	0	1263534080	8	3885
2026-01-03 06:11:38.38	349.69	21.42	-24.3	-25.0	16.8	1.08e-03	0	43	0	1270874112	8	3899
2026-01-03 06:11:39.39	349.49	21.51	-24.3	-25.0	16.8	1.04e-03	0	43	0	1278214144	8	3888
2026-01-03 06:11:40.40	349.29	21.60	-24.4	-25.1	16.7	1.23e-04	0	43	0	1284505600	8	3932
2026-01-03 06:11:41.41	349.09	21.69	-24.0	-24.4	17.1	1.02e-03	0	43	0	1291845632	8	3754
2026-01-03 06:11:42.42	348.88	21.78	-23.9	-24.2	17.2	8.93e-04	0	43	0	1299185664	8	3711
2026-01-03 06:11:43.42	348.68	21.87	-23.9	-24.2	17.2	1.57e-04	0	43	0	1306525696	8	3708
2026-01-03 06:11:44.43	348.47	21.96	-23.9	-24.6	17.2	8.56e-04	0	43	0	1313865728	7	3915
2026-01-03 06:11:45.44	348.27	22.05	-23.9	-24.6	17.2	8.07e-04	0	43	0	1321205760	7	3911
2026-01-03 06:11:46.44	348.06	22.14	-24.0	-24.9	17.1	0.00e+00	0	43	0	1328545792	7	3981
2026-01-03 06:11:47.45	347.85	22.23	-23.9	-24.7	17.2	4.54e-04	0	43	0	1335885824	7	3930
2026-01-03 06:11:48.45	347.64	22.32	-23.9	-24.5	17.3	0.00e+00	0	43	0	1343225856	7	3894
2026-01-03 06:11:49.45	347.43	22.41	-24.0	-24.9	17.1	0.00e+00	0	43	0	1350565888	7	3980
2026-01-03 06:11:50.46	347.21	22.50	-24.2	-24.8	16.9	0.00e+00	0	43	0	1357905920	8	3853
2026-01-03 06:11:51.46	347.00	22.59	-24.2	-24.7	17.0	0.00e+00	0	43	0	1365245952	8	3814
2026-01-03 06:11:52.47	346.78	22.68	-24.0	-24.4	17.1	0.00e+00	0	43	0	1371537408	8	3757
2026-01-03 06:11:53.47	346.57	22.77	-24.0	-24.3	17.2	0.00e+00	0	43	0	1378877440	8	3735
2026-01-03 06:11:54.48	346.35	22.85	-23.9	-24.1	17.3	0.00e+00	0	43	0	1387266048	8	3691
2026-01-03 06:11:55.48	346.13	22.94	-23.8	-23.9	17.4	0.00e+00	0	43	0	1393557504	8	3653
2026-01-03 06:11:56.49	345.91	23.03	-24.1	-24.5	17.1	0.00e+00	0	43	0	1400897536	8	3789
2026-01-03 06:11:57.50	345.68	23.12	-24.0	-24.4	17.1	1.06e-03	0	43	0	1408237568	8	3762
2026-01-03 06:11:58.50	345.46	23.21	-24.0	-24.3	17.2	0.00e+00	0	43	0	1415577600	8	3723
2026-01-03 06:11:59.50	345.24	23.30	-23.7	-24.2	17.5	0.00e+00	0	43	0	1422917632	7	3811
2026-01-03 06:12:00.50	345.01	23.38	-23.7	-24.2	17.5	0.00e+00	0	43	0	1430257664	7	3808
2026-01-03 06:12:01.50	344.79	23.47	-23.7	-24.1	17.5	0.00e+00	0	43	0	1437597696	7	3800
2026-01-03 06:12:02.51	344.56	23.56	-23.6	-23.9	17.6	0.00e+00	0	43	0	1444937728	7	3746
2026-01-03 06:12:03.51	344.33	23.64	-23.5	-23.8	17.7	0.00e+00	0	43	0	1451229184	7	3725
2026-01-03 06:12:04.52	344.10	23.73	-23.5	-23.7	17.8	0.00e+00	0	43	0	1458569216	7	3694
2026-01-03 06:12:05.53	343.86	23.82	-23.4	-23.5	17.8	0.00e+00	0	43	0	1465909248	7	3663
2026-01-03 06:12:06.54	343.63	23.91	-23.1	-23.5	18.1	0.00e+00	0	43	0	1473249280	6	3770
2026-01-03 06:12:07.55	343.39	23.99	-23.1	-23.5	18.1	0.00e+00	0	43	0	1480589312	6	3757
2026-01-03 06:12:08.56	343.15	24.08	-23.1	-23.4	18.2	0.00e+00	0	43	0	1487929344	6	3723
2026-01-03 06:12:09.56	342.92	24.17	-23.0	-23.3	18.2	0.00e+00	0	43	0	1495269376	6	3704
2026-01-03 06:12:10.57	342.68	24.25	-23.1	-23.4	18.2	0.00e+00	0	43	0	1502609408	6	3725
2026-01-03 06:12:11.57	342.44	24.34	-23.2	-23.6	18.0	0.00e+00	0	43	0	1509949440	6	3778
2026-01-03 06:12:12.58	342.19	24.42	-23.1	-23.4	18.2	0.00e+00	0	43	0	1517289472	6	3726
2026-01-03 06:12:13.58	341.95	24.51	-23.1	-23.5	18.1	0.00e+00	0	43	0	1524629504	6	3748
2026-01-03 06:12:14.58	341.71	24.59	-23.2	-23.7	18.0	0.00e+00	0	43	0	1531969536	6	3794
2026-01-03 06:12:15.58	341.46	24.67	-23.3	-23.8	17.9	0.00e+00	0	43	0	1539309568	6	3822
2026-01-03 06:12:16.59	341.22	24.76	-23.3	-23.8	17.9	0.00e+00	0	43	0	1546649600	6	3830
2026-01-03 06:12:17.59	340.97	24.84	-23.3	-23.8	18.0	0.00e+00	0	43	0	1553989632	6	3820
2026-01-03 06:12:18.60	340.72	24.92	-23.1	-23.5	18.1	0.00e+00	0	43	0	1560281088	6	3766
2026-01-03 06:12:19.61	340.47	25.01	-23.2	-23.6	18.0	0.00e+00	0	43	0	1567621120	6	3789
2026-01-03 06:12:20.62	340.21	25.09	-23.2	-23.6	18.0	0.00e+00	0	43	0	1574961152	6	3789
2026-01-03 06:12:21.62	339.96	25.17	-23.1	-23.5	18.1	0.00e+00	0	43	0	1582301184	6	3761
2026-01-03 06:12:22.63	339.70	25.26	-23.2	-23.7	18.0	0.00e+00	0	43	0	1589641216	6	3804
2026-01-03 06:12:23.63	339.45	25.34	-23.3	-23.7	18.0	0.00e+00	0	43	0	1596981248	6	3812
2026-01-03 06:12:24.64	339.19	25.42	-23.3	-23.9	17.9	0.00e+00	0	43	0	1604321280	6	3852
2026-01-03 06:12:25.64	338.93	25.50	-23.3	-23.9	17.9	0.00e+00	0	43	0	1611661312	6	3849
2026-01-03 06:12:26.65	338.67	25.58	-23.4	-24.1	17.8	0.00e+00	0	43	0	1619001344	6	3893
2026-01-03 06:12:27.65	338.41	25.66	-23.5	-24.2	17.7	0.00e+00	0	43	0	1626341376	6	3917
2026-01-03 06:12:28.65	338.15	25.74	-23.6	-24.4	17.6	0.00e+00	0	43	0	1633681408	6	3977
2026-01-03 06:12:29.66	337.88	25.82	-23.8	-24.3	17.5	0.00e+00	0	43	0	1641021440	7	3836
2026-01-03 06:12:30.66	337.62	25.89	-23.9	-24.6	17.3	0.00e+00	0	43	0	1647312896	7	3904
2026-01-03 06:12:31.67	337.35	25.97	-23.8	-24.5	17.4	0.00e+00	0	43	0	1654652928	7	3890
2026-01-03 06:12:32.67	337.08	26.05	-23.7	-24.3	17.5	0.00e+00	0	43	0	1661992960	7	3822
2026-01-03 06:12:33.67	336.81	26.13	-23.4	-23.6	17.8	0.00e+00	0	43	0	1669332992	7	3677
2026-01-03 06:12:34.67	336.54	26.20	-23.1	-23.3	17.9	0.00e+00	0	43	0	1676673024	7	3682
2026-01-03 06:12:35.68	336.27	26.28	-23.4	-24.1	17.8	0.00e+00	0	43	0	1684013056	6	3906
2026-01-03 06:12:36.68	336.00	26.36	-23.4	-24.0	17.9	0.00e+00	0	43	0	1691353088	6	3875
2026-01-03 06:12:37.68	335.72	26.43	-23.3	-23.8	18.0	9.61e-04	0	43	0	1698693120	6	3829
2026-01-03 06:12:38.69	335.45	26.51	-23.4	-24.1	17.8	0.00e+00	0	43	0	1706033152	6	3899
2026-01-03 06:12:39.69	335.17	26.58	-23.4	-24.1	17.9	0.00e+00	0	43	0	1713373184	6	3891
2026-01-03 06:12:40.70	334.89	26.65	-23.4	-24.0	17.9	1.07e-03	0	43	0	1720713216	6	3880
2026-01-03 06:12:41.70	334.61	26.73	-23.2	-23.7	18.1	0.00e+00	0	43	0	1727004672	6	3796
2026-01-03 06:12:42.71	334.33	26.80	-23.1	-23.5	18.1	0.00e+00	0	43	0	1734344704	6	3759
2026-01-03 06:12:43.71	334.05	26.87	-23.3	-23.8	18.0	0.00e+00	0	43	0	1741684736	6	3824
2026-01-03 06:12:44.72	333.76	26.94	-23.5	-24.3	17.8	0.00e+00	0	43	0	1749024768	6	3933
2026-01-03 06:12:45.73	333.48	27.01	-23.3	-23.8	18.0	0.00e+00	0	43	0	1756364800	6	3824
2026-01-03 06:12:46.74	333.19	27.08	-23.0	-23.7	18.3	0.00e+00	0	43	0	1763704832	5	3901
2026-01-03 06:12:47.74	332.90	27.15	-22.8	-23.4	18.4	8.65e-04	0	43	0	1771044864	5	3832
2026-01-03 06:12:48.75	332.61	27.22	-22.9	-23.5	18.4	0.00e+00	0	43	0	1778384896	5	3859
2026-01-03 06:12:49.75	332.32	27.29	-23.0	-23.7	18.3	1.27e-03	0	43	0	1785724928	5	3907
2026-01-03 06:12:50.76	332.03	27.36	-23.1	-23.5	18.1	2.16e-04	0	43	0	1793064960	6	3765
2026-01-03 06:12:51.76	331.74	27.42	-23.2	-23.7	18.0	0.00e+00	0	43	0	1800404992	6	3803
2026-01-03 06:12:52.77	331.44	27.49	-23.3	-23.8	18.0	1.75e-04	0	43	0	1807745024	6	3823
2026-01-03 06:12:53.77	331.15	27.56	-23.4	-24.1	17.8	2.17e-04	0	43	0	1814036480	6	3894
2026-01-03 06:12:54.79	330.84	27.62	-23.3	-23.9	18.0	2.96e-04	0	43	0	1822425088	6	3834
2026-01-03 06:12:55.80	330.55	27.69	-23.3	-23.9	18.0	1.71e-05	0	43	0	1829765120	6	3855
2026-01-03 06:12:56.80	330.25	27.75	-23.3	-23.9	18.0	7.86e-04	0	43	0	1836056576	6	3844
2026-01-03 06:12:57.81	329.95	27.81	-23.4	-24.0	17.9	4.10e-04	0	43	0	1843396608	6	3863
2026-01-03 06:12:58.81	329.65	27.87	-23.5	-24.2	17.8	1.08e-03	0	43	0	1850736640	6	3922
2026-01-03 06:12:59.82	329.34	27.94	-23.3	-23.8	18.0	1.27e-03	0	43	0	1858076672	6	3819
2026-01-03 06:13:00.82	329.04	28.00	-23.1	-23.9	18.2	0.00e+00	0	43	0	1865416704	5	3944
2026-01-03 06:13:01.83	328.73	28.06	-23.0	-23.7	18.3	8.78e-04	0	43	0	1872756736	5	3902
2026-01-03 06:13:02.84	328.42	28.11	-23.1	-23.5	18.2	3.34e-04	0	43	0	1880096768	6	3758
2026-01-03 06:13:03.84	328.12	28.17	-23.4	-24.1	17.9	3.04e-04	0	43	0	1887436800	6	3890
2026-01-03 06:13:04.84	327.81	28.23	-23.1	-23.5	18.2	1.03e-03	0	43	0	1894776832	6	3755
2026-01-03 06:13:05.85	327.50	28.29	-23.1	-23.5	18.2	0.00e+00	0	43	0	1902116864	6	3762
2026-01-03 06:13:06.85	327.19	28.34	-23.0	-23.8	18.2	4.52e-04	0	43	0	1909456896	5	3931
2026-01-03 06:13:07.85	326.88	28.40	-23.1	-23.5	18.2	2.19e-03	0	43	0	1915748352	6	3748
2026-01-03 06:13:08.86	326.57	28.45	-23.3	-23.9	18.0	1.34e-03	0	43	0	1923088384	6	3857
2026-01-03 06:13:09.87	326.25	28.50	-23.2	-23.6	18.2	3.46e-04	0	43	0	1930428416	6	3770
2026-01-03 06:13:10.87	325.94	28.56	-23.0	-23.8	18.3	0.00e+00	0	43	0	1937768448	5	3933
2026-01-03 06:13:11.88	325.62	28.61	-23.1	-23.8	18.2	1.48e-03	0	43	0	1945108480	5	3941
2026-01-03 06:13:12.89	325.30	28.66	-23.3	-23.9	18.0	0.00e+00	0	43	0	1952448512	6	3849
2026-01-03 06:13:13.90	324.98	28.71	-23.7	-24.2	17.6	0.00e+00	0	43	0	1959788544	7	3809
2026-01-03 06:13:14.91	324.66	28.76	-23.5	-23.8	17.8	2.06e-03	0	43	0	1967128576	7	3710
2026-01-03 06:13:15.92	324.34	28.81	-23.2	-23.7	18.1	0.00e+00	0	43	0	1974468608	6	3792
2026-01-03 06:13:16.92	324.02	28.85	-23.4	-24.1	17.9	1.59e-03	0	43	0	1981808640	6	3890
2026-01-03 06:13:17.93	323.70	28.90	-23.1	-23.5	18.2	0.00e+00	0	43	0	1989148672	6	3754
2026-01-03 06:13:18.94	323.37	28.94	-23.2	-23.6	18.1	0.00e+00	0	43	0	1996488704	6	3781
2026-01-03 06:13:19.94	323.05	28.99	-22.9	-23.1	18.4	0.00e+00	0	43	0	2003828736	6	3669
2026-01-03 06:13:20.95	322.72	29.03	-22.8	-23.3	18.6	0.00e+00	0	43	0	2011168768	5	3812
2026-01-03 06:13:21.95	322.40	29.07	-22.7	-23.2	18.6	0.00e+00	0	43	0	2018508800	5	3783
2026-01-03 06:13:22.96	322.07	29.11	-22.8	-23.4	18.5	0.00e+00	0	43	0	2024800256	5	3831
2026-01-03 06:13:23.96	321.75	29.15	-22.8	-23.3	18.5	0.00e+00	0	43	0	2032140288	5	3824
2026-01-03 06:13:24.97	321.42	29.19	-23.1	-23.5	18.2	0.00e+00	0	43	0	2039480320	6	3755
2026-01-03 06:13:25.98	321.09	29.23	-22.9	-23.5	18.4	0.00e+00	0	43	0	2046820352	5	3865
2026-01-03 06:13:26.99	320.76	29.27	-22.7	-23.1	18.6	0.00e+00	0	43	0	2054160384	5	3773
2026-01-03 06:13:27.99	320.43	29.31	-22.8	-23.3	18.6	0.00e+00	0	43	0	2061500416	5	3810
2026-01-03 06:13:29.00	320.09	29.34	-22.9	-23.5	18.4	0.00e+00	0	43	0	2068840448	5	3869
2026-01-03 06:13:30.00	319.76	29.37	-22.9	-23.4	18.5	0.00e+00	0	43	0	2076180480	5	3846
2026-01-03 06:13:31.01	319.43	29.41	-23.0	-23.7	18.4	0.00e+00	0	43	0	2083520512	5	3907
2026-01-03 06:13:32.02	319.10	29.44	-23.2	-23.7	18.1	0.00e+00	0	43	0	2090860544	6	3801
2026-01-03 06:13:33.02	318.76	29.47	-23.6	-24.0	17.7	0.00e+00	0	43	0	2098200576	7	3772
2026-01-03 06:13:34.02	318.43	29.50	-23.1	-22.9	18.3	0.00e+00	0	43	0	2105540608	7	3523
2026-01-03 06:13:35.03	318.09	29.53	-22.7	-22.6	18.7	0.00e+00	0	43	0	2112880640	6	3559
2026-01-03 06:13:36.04	317.76	29.56	-22.6	-22.9	18.8	0.00e+00	0	43	0	2120220672	5	3718
2026-01-03 06:13:37.05	317.42	29.58	-22.9	-23.4	18.5	0.00e+00	0	43	0	2127560704	5	3839
2026-01-03 06:13:38.05	317.08	29.61	-22.8	-23.4	18.5	0.00e+00	0	43	0	2133852160	5	3827
2026-01-03 06:13:39.06	316.74	29.63	-22.9	-23.5	18.5	0.00e+00	0	43	0	2141192192	5	3861
2026-01-03 06:13:40.06	316.41	29.66	-23.0	-23.8	18.3	0.00e+00	0	43	0	2148532224	5	3924
2026-01-03 06:13:41.07	316.07	29.68	-23.0	-23.7	18.4	0.00e+00	0	43	0	2155872256	5	3901
2026-01-03 06:13:42.07	315.73	29.70	-23.1	-23.5	18.2	0.00e+00	0	43	0	2163212288	6	3760
2026-01-03 06:13:43.07	315.39	29.72	-23.5	-24.3	17.8	0.00e+00	0	43	0	2170552320	6	3937
2026-01-03 06:13:44.08	315.05	29.74	-23.2	-23.7	18.1	0.00e+00	0	43	0	2177892352	6	3806
2026-01-03 06:13:45.09	314.71	29.76	-23.6	-24.4	17.8	1.10e-06	0	43	0	2185232384	6	3962
2026-01-03 06:13:46.09	314.37	29.78	-23.1	-23.5	18.2	0.00e+00	0	43	0	2192572416	6	3755
2026-01-03 06:13:47.10	314.03	29.79	-22.9	-23.0	18.5	0.00e+00	0	43	0	2199912448	6	3641
2026-01-03 06:13:48.10	313.69	29.81	-22.6	-23.0	18.7	0.00e+00	0	43	0	2207252480	5	3742
2026-01-03 06:13:49.11	313.34	29.82	-22.9	-23.4	18.5	0.00e+00	0	43	0	2213543936	5	3839
2026-01-03 06:13:50.11	313.00	29.83	-22.7	-23.2	18.6	0.00e+00	0	43	0	2220883968	5	3781
2026-01-03 06:13:51.12	312.66	29.84	-23.1	-23.9	18.2	0.00e+00	0	43	0	2228224000	5	3951
2026-01-03 06:13:52.13	312.32	29.85	-22.8	-23.3	18.6	0.00e+00	0	43	0	2235564032	5	3810
2026-01-03 06:13:53.13	311.98	29.86	-22.7	-23.1	18.7	0.00e+00	0	43	0	2242904064	5	3760
2026-01-03 06:13:54.14	311.63	29.87	-22.7	-23.1	18.6	0.00e+00	0	43	0	2250244096	5	3771
2026-01-03 06:13:55.15	311.29	29.88	-22.8	-23.4	18.5	0.00e+00	0	43	0	2257584128	5	3829
2026-01-03 06:13:56.16	310.94	29.88	-22.8	-23.2	18.6	0.00e+00	0	43	0	2264924160	5	3797
2026-01-03 06:13:57.16	310.60	29.88	-22.8	-23.2	18.6	0.00e+00	0	43	0	2272264192	5	3793
2026-01-03 06:13:58.17	310.25	29.89	-22.7	-23.1	18.6	0.00e+00	0	43	0	2279604224	5	3761
2026-01-03 06:13:59.17	309.91	29.89	-22.7	-23.1	18.7	0.00e+00	0	43	0	2286944256	5	3761
2026-01-03 06:14:00.16	309.58	29.89	-22.6	-22.8	18.8	0.00e+00	0	43	0	2294284288	5	3702
2026-01-03 06:14:01.17	309.23	29.89	-22.5	-22.8	18.8	0.00e+00	0	43	0	2300575744	5	3696
2026-01-03 06:14:02.18	308.88	29.89	-22.6	-22.9	18.8	0.00e+00	0	43	0	2308964352	5	3711
2026-01-03 06:14:03.19	308.54	29.89	-22.5	-22.6	18.9	0.00e+00	0	43	0	2316304384	5	3654
2026-01-03 06:14:04.19	308.20	29.88	-22.6	-22.9	18.8	8.46e-05	0	43	0	2322595840	5	3721
2026-01-03 06:14:05.19	307.86	29.88	-22.6	-22.9	18.8	0.00e+00	0	43	0	2329935872	5	3713
2026-01-03 06:14:06.20	307.51	29.87	-22.7	-23.1	18.7	0.00e+00	0	43	0	2337275904	5	3764
2026-01-03 06:14:07.21	307.17	29.86	-22.6	-22.8	16.9	0.00e+00	0	43	0	2344615936	5	3709
2026-01-03 06:14:08.22	306.82	29.85	-22.6	-22.9	17.7	0.00e+00	0	43	0	2351955968	5	3734
2026-01-03 06:14:09.22	306.48	29.85	-22.6	-23.0	18.7	1.40e-04	0	43	0	2359296000	5	3742
2026-01-03 06:14:10.23	306.14	29.83	-22.7	-23.1	18.6	0.00e+00	0	43	0	2366636032	5	3760
2026-01-03 06:14:11.24	305.79	29.82	-22.8	-23.2	18.6	2.16e-03	0	43	0	2373976064	5	3796
2026-01-03 06:14:12.25	305.45	29.81	-22.6	-22.8	18.8	1.79e-04	0	43	0	2381316096	5	3700
2026-01-03 06:14:13.25	305.11	29.80	-22.6	-23.3	18.8	2.09e-03	0	43	0	2388656128	4	3924
2026-01-03 06:14:14.26	304.77	29.78	-22.6	-23.0	18.7	1.45e-03	0	43	0	2395996160	5	3742
2026-01-03 06:14:15.25	304.43	29.76	-22.6	-23.0	18.7	0.00e+00	0	43	0	2403336192	5	3735
2026-01-03 06:14:16.26	304.09	29.75	-22.7	-23.1	18.7	1.65e-03	0	43	0	2409627648	5	3758
2026-01-03 06:14:17.27	303.75	29.73	-22.6	-22.8	18.8	1.23e-03	0	43	0	2416967680	5	3696
2026-01-03 06:14:18.28	303.41	29.71	-22.7	-23.1	18.7	1.02e-04	0	43	0	2424307712	5	3763
2026-01-03 06:14:19.28	303.07	29.69	-22.8	-23.3	18.5	1.29e-03	0	43	0	2431647744	5	3816
2026-01-03 06:14:20.29	302.73	29.66	-22.6	-22.9	18.7	1.98e-04	0	43	0	2438987776	5	3726
2026-01-03 06:14:21.30	302.39	29.64	-22.6	-22.9	18.8	1.04e-04	0	43	0	2446327808	5	3725
2026-01-03 06:14:22.31	302.05	29.62	-22.6	-23.0	18.7	1.54e-03	0	43	0	2453667840	5	3742
2026-01-03 06:14:23.32	301.71	29.59	-22.7	-23.2	18.6	1.44e-03	0	43	0	2461007872	5	3779
2026-01-03 06:14:24.33	301.37	29.56	-22.8	-23.2	18.6	8.35e-05	0	43	0	2468347904	5	3800
2026-01-03 06:14:25.34	301.03	29.54	-22.6	-22.9	18.7	0.00e+00	0	43	0	2475687936	5	3730
2026-01-03 06:14:26.34	300.70	29.51	-22.5	-22.7	18.8	1.12e-03	0	43	0	2483027968	5	3690
2026-01-03 06:14:27.35	300.36	29.48	-22.5	-22.8	18.8	0.00e+00	0	43	0	2490368000	5	3700
2026-01-03 06:14:28.35	300.03	29.45	-22.5	-22.7	18.9	6.98e-04	0	43	0	2497708032	5	3673
2026-01-03 06:14:29.35	299.70	29.42	-22.6	-22.9	18.7	1.36e-03	0	43	0	2505048064	5	3730
2026-01-03 06:14:30.35	299.37	29.38	-22.7	-23.1	18.6	0.00e+00	0	43	0	2511339520	5	3767
2026-01-03 06:14:31.36	299.03	29.35	-22.7	-23.1	18.6	1.33e-03	0	43	0	2518679552	5	3763
2026-01-03 06:14:32.37	298.70	29.31	-22.7	-23.1	18.6	0.00e+00	0	43	0	2526019584	5	3766
2026-01-03 06:14:33.37	298.37	29.28	-22.7	-23.1	18.7	0.00e+00	0	43	0	2533359616	5	3761
2026-01-03 06:14:34.38	298.04	29.24	-22.7	-23.0	18.7	0.00e+00	0	43	0	2540699648	5	3754
2026-01-03 06:14:35.38	297.71	29.20	-22.6	-22.8	18.8	0.00e+00	0	43	0	2548039680	5	3706
2026-01-03 06:14:36.39	297.38	29.16	-22.7	-23.1	18.6	0.00e+00	0	43	0	2555379712	5	3762
2026-01-03 06:14:37.40	297.05	29.12	-22.8	-23.2	18.6	0.00e+00	0	43	0	2562719744	5	3797
2026-01-03 06:14:38.40	296.72	29.08	-22.6	-22.8	18.8	2.51e-05	0	43	0	2570059776	5	3708
2026-01-03 06:14:39.41	296.39	29.04	-22.6	-23.4	18.7	0.00e+00	0	43	0	2577399808	4	3937
2026-01-03 06:14:40.42	296.07	29.00	-22.7	-23.2	18.6	2.10e-04	0	43	0	2584739840	5	3791
2026-01-03 06:14:41.42	295.74	28.96	-22.8	-23.3	18.5	0.00e+00	0	43	0	2592079872	5	3826
2026-01-03 06:14:42.43	295.42	28.91	-22.8	-23.3	18.5	0.00e+00	0	43	0	2599419904	5	3822
2026-01-03 06:14:43.44	295.09	28.86	-22.7	-23.1	18.6	0.00e+00	0	43	0	2606759936	5	3760
2026-01-03 06:14:44.45	294.77	28.82	-22.8	-23.2	18.5	0.00e+00	0	43	0	2614099968	5	3805
2026-01-03 06:14:45.45	294.45	28.77	-22.8	-23.2	18.6	0.00e+00	0	43	0	2620391424	5	3792
2026-01-03 06:14:46.45	294.13	28.72	-22.6	-22.8	18.8	0.00e+00	0	43	0	2627731456	5	3712
2026-01-03 06:14:47.46	293.81	28.67	-22.5	-22.8	18.8	0.00e+00	0	43	0	2635071488	5	3693
2026-01-03 06:14:48.47	293.49	28.62	-22.7	-23.1	18.5	0.00e+00	0	43	0	2642411520	5	3773
2026-01-03 06:14:49.47	293.18	28.57	-22.7	-23.0	18.7	0.00e+00	0	43	0	2649751552	5	3753
2026-01-03 06:14:50.48	292.86	28.52	-22.9	-23.5	18.4	0.00e+00	0	43	0	2657091584	5	3860
2026-01-03 06:14:51.49	292.54	28.46	-23.1	-23.9	18.2	0.00e+00	0	43	0	2664431616	5	3950
2026-01-03 06:14:52.50	292.23	28.41	-23.3	-24.0	17.9	0.00e+00	0	43	0	2671771648	6	3863
2026-01-03 06:14:53.50	291.92	28.36	-23.3	-23.8	18.0	0.00e+00	0	43	0	2679111680	6	3813
2026-01-03 06:14:54.50	291.61	28.30	-23.0	-23.2	18.3	0.00e+00	0	43	0	2686451712	6	3690
2026-01-03 06:14:55.51	291.30	28.24	-22.7	-22.6	18.6	0.00e+00	0	43	0	2693791744	6	3555
2026-01-03 06:14:56.51	290.99	28.19	-22.6	-22.9	18.7	0.00e+00	0	43	0	2700083200	5	3719
2026-01-03 06:14:57.52	290.68	28.13	-22.5	-22.7	18.8	0.00e+00	0	43	0	2707423232	5	3670
2026-01-03 06:14:58.53	290.37	28.07	-22.5	-22.6	18.8	0.00e+00	0	43	0	2714763264	5	3666
2026-01-03 06:14:59.53	290.06	28.01	-22.5	-22.6	18.8	0.00e+00	0	43	0	2722103296	5	3662
2026-01-03 06:15:00.52	289.76	27.95	-22.5	-22.7	18.8	0.00e+00	0	43	0	2729443328	5	3682
2026-01-03 06:15:01.53	289.46	27.89	-22.6	-22.8	18.7	0.00e+00	0	43	0	2736783360	5	3699
2026-01-03 06:15:02.54	289.15	27.83	-22.7	-23.0	18.6	0.00e+00	0	43	0	2744123392	5	3750
2026-01-03 06:15:03.55	288.85	27.76	-22.7	-23.0	18.6	0.00e+00	0	43	0	2751463424	5	3759
2026-01-03 06:15:04.56	288.55	27.70	-22.7	-23.1	18.6	0.00e+00	0	43	0	2758803456	5	3770
2026-01-03 06:15:05.56	288.25	27.64	-22.7	-23.2	18.5	0.00e+00	0	43	0	2766143488	5	3786
2026-01-03 06:15:06.56	287.95	27.57	-22.8	-23.2	18.5	0.00e+00	0	43	0	2773483520	5	3803
2026-01-03 06:15:07.57	287.66	27.51	-22.8	-23.3	18.4	0.00e+00	0	43	0	2780823552	5	3824
2026-01-03 06:15:08.57	287.36	27.44	-22.8	-23.3	18.4	0.00e+00	0	43	0	2787115008	5	3817
2026-01-03 06:15:09.58	287.07	27.37	-22.8	-23.4	18.5	0.00e+00	0	43	0	2795503616	5	3830
2026-01-03 06:15:10.59	286.77	27.30	-22.7	-23.2	18.5	0.00e+00	0	43	0	2802843648	5	3793
2026-01-03 06:15:11.59	286.48	27.24	-22.8	-23.3	18.4	0.00e+00	0	43	0	2809135104	5	3827
2026-01-03 06:15:12.60	286.19	27.17	-22.7	-23.2	18.5	1.10e-06	0	43	0	2816475136	5	3787
2026-01-03 06:15:13.61	285.90	27.10	-22.6	-22.9	18.6	0.00e+00	0	43	0	2823815168	5	3722
2026-01-03 06:15:14.61	285.61	27.03	-22.6	-23.0	18.6	0.00e+00	0	43	0	2831155200	5	3745
2026-01-03 06:15:15.62	285.32	26.96	-22.6	-23.0	18.6	0.00e+00	0	43	0	2838495232	5	3740
2026-01-03 06:15:16.63	285.04	26.89	-22.7	-23.2	18.5	0.00e+00	0	43	0	2845835264	5	3786
2026-01-03 06:15:17.64	284.75	26.81	-22.7	-23.2	18.1	0.00e+00	0	43	0	2853175296	5	3793
2026-01-03 06:15:18.64	284.47	26.74	-22.8	-23.3	13.2	0.00e+00	0	43	0	2860515328	5	3829
2026-01-03 06:15:19.64	284.19	26.67	-22.8	-23.2	18.3	0.00e+00	0	43	0	2867855360	5	3799
2026-01-03 06:15:20.64	283.91	26.59	-22.9	-23.5	18.3	0.00e+00	0	43	0	2875195392	5	3870
2026-01-03 06:15:21.65	283.63	26.52	-22.9	-23.6	18.3	0.00e+00	0	43	0	2882535424	5	3881
2026-01-03 06:15:22.65	283.36	26.45	-22.8	-23.3	18.4	0.00e+00	0	43	0	2888826880	5	3821
2026-01-03 06:15:23.66	283.08	26.37	-22.7	-23.0	18.6	0.00e+00	0	43	0	2896166912	5	3753
2026-01-03 06:15:24.67	282.80	26.29	-22.7	-23.1	18.6	0.00e+00	0	43	0	2903506944	5	3760
2026-01-03 06:15:25.68	282.53	26.22	-22.8	-23.3	18.4	3.08e-04	0	43	0	2910846976	5	3821
2026-01-03 06:15:26.69	282.25	26.14	-22.7	-23.2	18.5	0.00e+00	0	43	0	2918187008	5	3783
2026-01-03 06:15:27.69	281.98	26.06	-22.7	-23.2	18.5	8.98e-04	0	43	0	2925527040	5	3783
2026-01-03 06:15:28.70	281.71	25.98	-23.0	-23.6	18.3	8.41e-04	0	43	0	2932867072	5	3898
2026-01-03 06:15:29.71	281.44	25.91	-22.9	-23.4	18.3	0.00e+00	0	43	0	2940207104	5	3846
2026-01-03 06:15:30.71	281.18	25.83	-23.0	-23.7	18.2	3.74e-04	0	43	0	2947547136	5	3898
2026-01-03 06:15:31.72	280.91	25.75	-23.3	-23.9	17.9	0.00e+00	0	43	0	2954887168	6	3852
2026-01-03 06:15:32.72	280.65	25.67	-23.4	-24.0	17.8	0.00e+00	0	43	0	2962227200	6	3880
2026-01-03 06:15:33.73	280.38	25.59	-23.2	-23.7	18.0	0.00e+00	0	43	0	2969567232	6	3808
2026-01-03 06:15:34.74	280.12	25.51	-23.1	-23.5	18.1	3.89e-05	0	43	0	2976907264	6	3764
2026-01-03 06:15:35.74	279.86	25.43	-23.2	-23.6	18.0	0.00e+00	0	43	0	2984247296	6	3788
2026-01-03 06:15:36.75	279.60	25.35	-23.1	-23.3	18.2	6.04e-04	0	43	0	2991587328	6	3719
2026-01-03 06:15:37.75	279.34	25.26	-23.0	-23.3	18.2	6.83e-04	0	43	0	2997878784	6	3706
2026-01-03 06:15:38.76	279.09	25.18	-23.0	-23.3	18.1	0.00e+00	0	43	0	3005218816	6	3719
2026-01-03 06:15:39.76	278.83	25.10	-23.1	-23.4	18.1	9.34e-04	0	43	0	3012558848	6	3744
2026-01-03 06:15:40.77	278.58	25.02	-23.2	-23.7	17.9	1.29e-03	0	43	0	3019898880	6	3790
2026-01-03 06:15:41.77	278.33	24.93	-23.1	-23.6	18.0	0.00e+00	0	43	0	3027238912	6	3770
2026-01-03 06:15:42.78	278.07	24.85	-22.9	-23.1	18.3	1.51e-03	0	43	0	3034578944	6	3664
2026-01-03 06:15:43.78	277.82	24.77	-22.8	-23.2	18.4	0.00e+00	0	43	0	3041918976	5	3800
2026-01-03 06:15:44.79	277.58	24.68	-22.7	-23.2	18.4	0.00e+00	0	43	0	3049259008	5	3793
2026-01-03 06:15:45.80	277.33	24.60	-22.9	-23.4	18.3	1.59e-03	0	43	0	3056599040	5	3851
2026-01-03 06:15:46.80	277.08	24.51	-22.8	-23.4	18.4	9.72e-05	0	43	0	3063939072	5	3829
2026-01-03 06:15:47.81	276.84	24.43	-22.9	-23.5	18.3	3.89e-05	0	43	0	3071279104	5	3859
2026-01-03 06:15:48.82	276.59	24.34	-22.9	-23.6	18.2	1.50e-04	0	43	0	3078619136	5	3876
2026-01-03 06:15:49.83	276.35	24.26	-23.0	-23.8	18.1	0.00e+00	0	43	0	3084910592	5	3925
2026-01-03 06:15:50.83	276.11	24.17	-23.0	-23.7	18.2	0.00e+00	0	43	0	3093299200	5	3918
2026-01-03 06:15:51.84	275.87	24.08	-23.1	-23.4	18.1	2.99e-04	0	43	0	3100639232	6	3731
2026-01-03 06:15:52.84	275.63	24.00	-23.2	-23.6	18.0	0.00e+00	0	43	0	3106930688	6	3790
2026-01-03 06:15:53.85	275.40	23.91	-23.0	-23.3	18.1	0.00e+00	0	43	0	3114270720	6	3710
2026-01-03 06:15:54.85	275.16	23.82	-23.0	-23.2	18.2	3.18e-04	0	43	0	3121610752	6	3697
2026-01-03 06:15:55.86	274.93	23.74	-22.9	-23.6	18.2	2.41e-04	0	43	0	3128950784	5	3892
2026-01-03 06:15:56.86	274.70	23.65	-23.0	-23.8	18.1	0.00e+00	0	43	0	3136290816	5	3924
2026-01-03 06:15:57.86	274.47	23.56	-23.0	-23.8	18.1	0.00e+00	0	43	0	3143630848	5	3925
2026-01-03 06:15:58.87	274.23	23.47	-23.2	-23.6	18.0	0.00e+00	0	43	0	3150970880	6	3773
2026-01-03 06:15:59.87	274.01	23.39	-23.5	-24.2	17.6	0.00e+00	0	43	0	3158310912	6	3923
2026-01-03 06:16:00.87	273.78	23.30	-23.3	-23.9	17.8	1.94e-04	0	43	0	3164602368	6	3850
2026-01-03 06:16:01.88	273.55	23.21	-23.1	-23.5	18.0	3.34e-04	0	43	0	3172990976	6	3765
2026-01-03 06:16:02.89	273.33	23.12	-23.2	-23.6	18.0	0.00e+00	0	43	0	3180331008	6	3771
2026-01-03 06:16:03.89	273.11	23.03	-23.1	-23.5	18.0	4.67e-04	0	43	0	3186622464	6	3764
2026-01-03 06:16:04.90	272.88	22.94	-23.3	-23.9	17.8	8.59e-04	0	43	0	3193962496	6	3840
2026-01-03 06:16:05.90	272.66	22.86	-23.2	-23.7	17.9	0.00e+00	0	43	0	3201302528	6	3803
2026-01-03 06:16:06.91	272.44	22.77	-23.3	-23.8	17.8	9.73e-04	0	43	0	3208642560	6	3837
2026-01-03 06:16:07.92	272.22	22.68	-23.2	-23.6	18.0	0.00e+00	0	43	0	3215982592	6	3779
2026-01-03 06:16:08.93	272.00	22.59	-23.2	-23.6	18.0	0.00e+00	0	43	0	3223322624	6	3775
2026-01-03 06:16:09.94	271.79	22.50	-23.2	-23.7	17.9	0.00e+00	0	43	0	3230662656	6	3797
2026-01-03 06:16:10.95	271.57	22.41	-23.0	-23.2	18.1	0.00e+00	0	43	0	3238002688	6	3696
2026-01-03 06:16:11.95	271.36	22.32	-22.9	-23.1	18.2	0.00e+00	0	43	0	3245342720	6	3667
2026-01-03 06:16:12.95	271.15	22.23	-23.0	-23.3	18.1	0.00e+00	0	43	0	3252682752	6	3709
2026-01-03 06:16:13.96	270.94	22.14	-23.0	-23.2	18.2	1.10e-06	0	43	0	3260022784	6	3694
2026-01-03 06:16:14.97	270.73	22.05	-23.2	-23.7	17.9	0.00e+00	0	43	0	3267362816	6	3808
2026-01-03 06:16:15.97	270.52	21.96	-23.2	-23.6	17.9	3.50e-04	0	43	0	3273654272	6	3775
2026-01-03 06:16:16.99	270.31	21.87	-23.5	-24.2	17.6	0.00e+00	0	43	0	3282042880	6	3923
2026-01-03 06:16:17.99	270.10	21.78	-23.3	-24.0	17.7	0.00e+00	0	43	0	3289382912	6	3864
2026-01-03 06:16:18.99	269.90	21.69	-23.3	-23.9	17.7	0.00e+00	0	43	0	3295674368	6	3849
2026-01-03 06:16:19.99	269.70	21.60	-23.3	-23.8	17.8	0.00e+00	0	43	0	3303014400	6	3840
2026-01-03 06:16:21.00	269.49	21.50	-23.3	-23.9	17.8	0.00e+00	0	43	0	3310354432	6	3840
2026-01-03 06:16:22.00	269.29	21.41	-23.3	-24.0	17.7	0.00e+00	0	43	0	3317694464	6	3864
2026-01-03 06:16:23.01	269.09	21.32	-23.5	-24.3	17.5	0.00e+00	0	43	0	3325034496	6	3952
2026-01-03 06:16:24.01	268.89	21.23	-23.3	-23.9	17.8	0.00e+00	0	43	0	3332374528	6	3857
2026-01-03 06:16:25.02	268.70	21.14	-23.3	-23.9	17.8	0.00e+00	0	43	0	3339714560	6	3847
2026-01-03 06:16:26.03	268.50	21.05	-23.4	-24.0	17.7	0.00e+00	0	43	0	3347054592	6	3878
2026-01-03 06:16:27.03	268.30	20.96	-23.5	-24.3	17.5	0.00e+00	0	43	0	3354394624	6	3950
2026-01-03 06:16:28.04	268.11	20.87	-23.4	-24.2	17.6	0.00e+00	0	43	0	3361734656	6	3920
2026-01-03 06:16:29.05	267.91	20.78	-23.5	-24.2	17.6	0.00e+00	0	43	0	3369074688	6	3928
2026-01-03 06:16:30.06	267.72	20.69	-23.6	-23.9	17.4	0.00e+00	0	43	0	3375366144	7	3759
2026-01-03 06:16:31.06	267.53	20.60	-23.4	-24.1	17.6	0.00e+00	0	43	0	3382706176	6	3901
2026-01-03 06:16:32.06	267.34	20.51	-23.3	-24.0	17.7	2.20e-06	0	43	0	3390046208	6	3870
2026-01-03 06:16:33.07	267.15	20.41	-23.4	-24.1	17.7	0.00e+00	0	43	0	3397386240	6	3888
2026-01-03 06:16:34.07	266.97	20.32	-23.5	-24.3	17.5	0.00e+00	0	43	0	3404726272	6	3950
2026-01-03 06:16:35.08	266.78	20.23	-22.4	-23.1	17.1	0.00e+00	0	43	0	3412066304	6	3894
2026-01-03 06:16:36.09	266.59	20.14	-23.6	-24.0	12.1	0.00e+00	0	43	0	3419406336	7	3778
2026-01-03 06:16:37.10	266.41	20.05	-23.4	-24.0	16.0	0.00e+00	0	43	0	3426746368	6	3877
2026-01-03 06:16:38.10	266.23	19.96	-23.3	-23.8	17.8	0.00e+00	0	43	0	3434086400	6	3837
2026-01-03 06:16:39.11	266.04	19.87	-23.3	-23.9	17.7	0.00e+00	0	43	0	3441426432	6	3850
2026-01-03 06:16:40.12	265.86	19.78	-23.4	-24.1	17.6	1.72e-03	0	43	0	3448766464	6	3910
2026-01-03 06:16:41.12	265.68	19.69	-23.5	-24.2	17.6	0.00e+00	0	43	0	3456106496	6	3922
2026-01-03 06:16:42.13	265.51	19.60	-23.5	-24.4	17.5	1.42e-03	0	43	0	3463446528	6	3961
2026-01-03 06:16:43.14	265.33	19.50	-23.6	-24.4	17.4	0.00e+00	0	43	0	3470786560	6	3972
2026-01-03 06:16:44.14	265.15	19.41	-23.7	-24.1	17.3	1.10e-06	0	43	0	3478126592	7	3797
2026-01-03 06:16:45.14	264.98	19.32	-23.8	-24.5	17.1	6.56e-04	0	43	0	3484418048	7	3888
2026-01-03 06:16:46.15	264.80	19.23	-23.7	-24.3	17.2	0.00e+00	0	43	0	3491758080	7	3853
2026-01-03 06:16:47.16	264.63	19.14	-23.7	-24.2	17.3	0.00e+00	0	43	0	3499098112	7	3824
2026-01-03 06:16:48.16	264.46	19.05	-23.8	-24.3	17.2	1.44e-03	0	43	0	3506438144	7	3851
2026-01-03 06:16:49.17	264.28	18.96	-24.0	-24.8	17.0	0.00e+00	0	43	0	3513778176	7	3958
2026-01-03 06:16:50.18	264.11	18.87	-23.9	-24.6	17.1	0.00e+00	0	43	0	3521118208	7	3902
2026-01-03 06:16:51.18	263.94	18.78	-23.9	-24.6	17.1	0.00e+00	0	43	0	3528458240	7	3908
2026-01-03 06:16:52.19	263.78	18.69	-23.9	-24.7	17.0	1.34e-03	0	43	0	3535798272	7	3946
2026-01-03 06:16:53.19	263.61	18.60	-24.1	-24.6	16.8	0.00e+00	0	43	0	3543138304	8	3803
2026-01-03 06:16:54.20	263.44	18.51	-24.1	-24.5	16.9	1.13e-03	0	43	0	3550478336	8	3787
2026-01-03 06:16:55.21	263.28	18.42	-24.2	-24.9	16.7	1.24e-03	0	43	0	3557818368	8	3869
2026-01-03 06:16:56.22	263.11	18.33	-24.1	-24.6	16.8	0.00e+00	0	43	0	3565158400	8	3803
2026-01-03 06:16:57.22	262.95	18.24	-24.0	-24.4	16.9	1.27e-03	0	43	0	3571449856	8	3770
2026-01-03 06:16:58.23	262.79	18.15	-24.0	-24.4	16.9	1.15e-03	0	43	0	3578789888	8	3758
2026-01-03 06:16:59.23	262.62	18.06	-23.9	-24.7	17.0	0.00e+00	0	43	0	3587178496	7	3936
2026-01-03 06:17:00.24	262.46	17.97	-24.0	-24.8	16.9	8.66e-04	0	43	0	3593469952	7	3953
2026-01-03 06:17:01.24	262.31	17.88	-24.0	-24.9	16.9	0.00e+00	0	43	0	3600809984	7	3981
2026-01-03 06:17:02.25	262.15	17.79	-23.9	-24.7	17.0	0.00e+00	0	43	0	3608150016	7	3923
2026-01-03 06:17:03.26	261.99	17.70	-23.9	-24.6	17.0	0.00e+00	0	43	0	3615490048	7	3916
2026-01-03 06:17:04.26	261.83	17.61	-23.9	-24.6	17.0	0.00e+00	0	43	0	3622830080	7	3924
2026-01-03 06:17:05.27	261.68	17.52	-24.0	-24.8	16.9	0.00e+00	0	43	0	3630170112	7	3963
2026-01-03 06:17:06.27	261.52	17.44	-24.3	-25.1	16.6	0.00e+00	0	43	0	3637510144	8	3916
2026-01-03 06:17:07.27	261.37	17.35	-25.1	-25.9	16.2	1.28e-03	0	43	0	3644850176	9	3929
2026-01-03 06:17:08.28	261.22	17.26	-24.7	-25.4	16.1	0.00e+00	0	43	0	3652190208	9	3904
2026-01-03 06:17:09.29	261.06	17.17	-24.9	-25.8	15.9	0.00e+00	0	43	0	3659530240	9	3983
2026-01-03 06:17:10.30	260.91	17.08	-24.9	-25.7	15.9	0.00e+00	0	43	0	3666870272	9	3968
2026-01-03 06:17:11.30	260.76	16.99	-25.0	-26.0	15.8	0.00e+00	0	43	0	3673161728	9	4031
2026-01-03 06:17:12.31	260.61	16.90	-24.9	-25.8	15.9	0.00e+00	0	43	0	3680501760	9	3996
2026-01-03 06:17:13.32	260.46	16.82	-24.9	-25.9	15.8	0.00e+00	0	43	0	3687841792	9	4018
2026-01-03 06:17:14.31	260.32	16.73	-24.9	-25.8	15.9	0.00e+00	0	43	0	3695181824	9	3988
2026-01-03 06:17:15.32	260.17	16.64	-24.6	-25.2	16.2	0.00e+00	0	43	0	3702521856	9	3836
2026-01-03 06:17:16.32	260.02	16.55	-24.4	-24.8	16.4	0.00e+00	0	43	0	3709861888	9	3749
2026-01-03 06:17:17.32	259.88	16.47	-24.3	-24.6	16.5	0.00e+00	0	43	0	3717201920	9	3713
2026-01-03 06:17:18.32	259.74	16.38	-24.4	-24.8	16.4	0.00e+00	0	43	0	3724541952	9	3756
2026-01-03 06:17:19.32	259.59	16.29	-23.5	-24.4	16.0	0.00e+00	0	43	0	3731881984	8	3963
2026-01-03 06:17:20.33	259.45	16.20	-24.6	-25.6	16.2	0.00e+00	0	43	0	3739222016	8	4045
2026-01-03 06:17:21.33	259.31	16.12	-24.6	-25.2	16.2	0.00e+00	0	43	0	3746562048	9	3856
2026-01-03 06:17:22.33	259.17	16.03	-24.8	-25.5	16.0	1.03e-03	0	43	0	3753902080	9	3920
2026-01-03 06:17:23.33	259.03	15.95	-24.7	-25.5	16.0	0.00e+00	0	43	0	3760193536	9	3909
2026-01-03 06:17:24.34	258.89	15.86	-24.8	-25.6	15.9	1.41e-03	0	43	0	3767533568	9	3933
2026-01-03 06:17:25.35	258.75	15.77	-24.8	-25.6	15.9	0.00e+00	0	43	0	3774873600	9	3939
2026-01-03 06:17:26.36	258.61	15.68	-24.8	-25.6	15.9	0.00e+00	0	43	0	3782213632	9	3957
2026-01-03 06:17:27.37	258.48	15.60	-24.9	-25.8	15.8	1.63e-03	0	43	0	3789553664	9	3996
2026-01-03 06:17:28.37	258.34	15.51	-24.7	-25.4	16.0	0.00e+00	0	43	0	3796893696	9	3889
2026-01-03 06:17:29.38	258.21	15.43	-24.7	-25.3	16.1	0.00e+00	0	43	0	3804233728	9	3873
2026-01-03 06:17:30.38	258.07	15.34	-24.6	-25.1	16.1	1.18e-03	0	43	0	3811573760	9	3825
2026-01-03 06:17:31.39	257.94	15.25	-24.6	-25.2	16.1	1.05e-03	0	43	0	3818913792	9	3854
2026-01-03 06:17:32.39	257.81	15.17	-24.6	-25.2	16.1	0.00e+00	0	43	0	3826253824	9	3854
2026-01-03 06:17:33.40	257.67	15.08	-24.7	-25.4	16.0	0.00e+00	0	43	0	3833593856	9	3886
2026-01-03 06:17:34.39	257.55	15.00	-24.8	-25.5	15.9	1.25e-03	0	43	0	3839885312	9	3925
2026-01-03 06:17:35.40	257.41	14.91	-24.8	-25.7	15.9	0.00e+00	0	43	0	3847225344	9	3957
2026-01-03 06:17:36.40	257.29	14.83	-24.9	-25.9	15.7	1.57e-03	0	43	0	3854565376	9	4019
2026-01-03 06:17:37.41	257.16	14.74	-25.0	-26.0	15.7	1.57e-03	0	43	0	3861905408	9	4053
2026-01-03 06:17:38.41	257.03	14.66	-25.1	-25.7	15.5	0.00e+00	0	43	0	3869245440	10	3880
2026-01-03 06:17:39.42	256.90	14.57	-25.1	-26.1	15.6	1.71e-03	0	43	0	3876585472	9	4082
2026-01-03 06:17:40.43	256.77	14.49	-25.1	-25.8	15.5	1.58e-03	0	43	0	3883925504	10	3889
2026-01-03 06:17:41.43	256.65	14.41	-25.2	-25.9	15.5	0.00e+00	0	43	0	3891265536	10	3913
2026-01-03 06:17:42.44	256.52	14.32	-25.2	-25.9	15.4	1.55e-03	0	43	0	3898605568	10	3928
2026-01-03 06:17:43.44	256.40	14.24	-25.2	-25.9	15.4	0.00e+00	0	43	0	3905945600	10	3922
2026-01-03 06:17:44.44	256.27	14.15	-25.3	-26.1	15.3	0.00e+00	0	43	0	3913285632	10	3957
2026-01-03 06:17:45.44	256.15	14.07	-25.3	-26.1	15.3	1.62e-03	0	43	0	3920625664	10	3961
2026-01-03 06:17:46.45	256.03	13.99	-25.3	-26.1	15.3	1.37e-03	0	43	0	3926917120	10	3963
2026-01-03 06:17:47.46	255.91	13.90	-25.2	-26.1	15.3	0.00e+00	0	43	0	3934257152	10	3953
2026-01-03 06:17:48.46	255.79	13.82	-25.3	-26.1	15.3	0.00e+00	0	43	0	3941597184	10	3977
2026-01-03 06:17:49.47	255.67	13.74	-25.2	-26.0	15.3	1.08e-03	0	43	0	3948937216	10	3941
2026-01-03 06:17:50.47	255.55	13.65	-25.2	-26.0	15.4	0.00e+00	0	43	0	3956277248	10	3935
2026-01-03 06:17:51.47	255.43	13.57	-25.2	-26.1	15.3	1.01e-03	0	44	0	3963617280	10	3957
2026-01-03 06:17:52.47	255.31	13.49	-25.2	-26.1	15.3	5.74e-04	0	43	0	3970957312	10	3958
2026-01-03 06:17:53.48	255.19	13.41	-25.1	-25.8	15.4	0.00e+00	0	43	0	3978297344	10	3904
2026-01-03 06:17:54.49	255.07	13.33	-25.2	-25.9	15.4	3.83e-04	0	43	0	3985637376	10	3905
2026-01-03 06:17:55.50	254.96	13.24	-25.1	-25.7	15.4	0.00e+00	0	43	0	3992977408	10	3870
2026-01-03 06:17:56.50	254.84	13.16	-25.1	-25.8	15.4	0.00e+00	0	43	0	4000317440	10	3901
2026-01-03 06:17:57.51	254.73	13.08	-25.0	-25.6	15.5	0.00e+00	0	43	0	4007657472	10	3841
2026-01-03 06:17:58.51	254.61	13.00	-25.1	-25.7	15.5	0.00e+00	0	43	0	4013948928	10	3867
2026-01-03 06:17:59.52	254.50	12.92	-25.0	-26.1	15.5	0.00e+00	0	43	0	4021288960	9	4061
2026-01-03 06:18:00.52	254.39	12.84	-25.0	-26.1	15.5	0.00e+00	0	43	0	4028628992	9	4059
2026-01-03 06:18:01.52	254.28	12.75	-25.1	-26.2	15.5	0.00e+00	0	43	0	4035969024	9	4091
2026-01-03 06:18:02.52	254.16	12.67	-25.1	-26.2	15.4	0.00e+00	0	43	0	4043309056	9	4087
2026-01-03 06:18:03.53	254.05	12.59	-25.1	-25.8	15.4	0.00e+00	0	43	0	4050649088	10	3884
2026-01-03 06:18:04.53	253.94	12.51	-25.2	-26.0	15.3	2.05e-04	0	43	0	4057989120	10	3948
2026-01-03 06:18:05.53	253.83	12.43	-25.2	-26.0	15.3	0.00e+00	0	43	0	4065329152	10	3942
2026-01-03 06:18:06.54	253.72	12.35	-25.2	-25.9	15.3	0.00e+00	0	43	0	4072669184	10	3908
2026-01-03 06:18:07.54	253.61	12.27	-25.2	-25.9	15.4	0.00e+00	0	44	0	4080009216	10	3918
2026-01-03 06:18:08.54	253.51	12.19	-25.2	-25.9	15.3	0.00e+00	0	43	0	4087349248	10	3916
2026-01-03 06:18:09.55	253.40	12.11	-25.2	-25.9	15.3	1.98e-03	0	43	0	4093640704	10	3924
2026-01-03 06:18:10.55	253.29	12.03	-25.2	-25.9	15.3	0.00e+00	0	43	0	4100980736	10	3920
2026-01-03 06:18:11.56	253.19	11.95	-25.2	-26.0	15.3	0.00e+00	0	43	0	4108320768	10	3936
2026-01-03 06:18:12.56	253.08	11.87	-25.2	-26.0	15.3	2.31e-03	0	43	0	4115660800	10	3942
2026-01-03 06:18:13.57	252.98	11.79	-25.2	-26.0	15.3	0.00e+00	0	43	0	4123000832	10	3932
2026-01-03 06:18:14.57	252.87	11.72	-25.2	-26.1	15.2	2.32e-03	0	43	0	4130340864	10	3961
2026-01-03 06:18:15.58	252.77	11.64	-25.3	-26.2	15.1	0.00e+00	0	43	0	4137680896	10	3998
2026-01-03 06:18:16.59	252.66	11.56	-25.4	-26.4	15.0	9.50e-04	0	43	0	4145020928	10	4055
2026-01-03 06:18:17.60	252.56	11.48	-25.4	-26.5	14.9	2.62e-03	0	43	0	4152360960	10	4057
2026-01-03 06:18:18.60	252.46	11.40	-25.4	-26.5	14.9	2.80e-03	0	43	0	4159700992	10	4079
2026-01-03 06:18:19.60	252.36	11.32	-25.6	-26.8	14.8	1.15e-03	0	43	0	4167041024	10	4146
2026-01-03 06:18:20.61	252.25	11.24	-25.7	-26.6	14.5	3.42e-03	0	43	0	4174381056	11	4000
2026-01-03 06:18:21.62	252.15	11.17	-25.8	-26.7	14.5	3.69e-03	0	43	0	4180672512	11	4027
2026-01-03 06:18:22.62	252.05	11.09	-25.9	-27.0	14.3	1.14e-03	0	43	0	4188012544	11	4101
2026-01-03 06:18:23.63	251.95	11.01	-25.9	-27.1	14.3	3.89e-03	0	43	0	4196401152	11	4122
2026-01-03 06:18:24.64	251.85	10.93	-26.0	-27.2	14.2	3.65e-03	0	43	0	4202692608	11	4146
2026-01-03 06:18:25.64	251.76	10.86	-26.0	-27.3	14.1	0.00e+00	0	43	0	4210032640	11	4173
2026-01-03 06:18:26.64	251.66	10.78	-25.9	-27.1	14.3	3.78e-03	0	43	0	4217372672	11	4119
2026-01-03 06:18:27.65	251.56	10.70	-26.0	-27.2	14.2	3.31e-03	0	43	0	4224712704	11	4154
2026-01-03 06:18:28.65	251.46	10.63	-26.0	-27.3	14.2	0.00e+00	0	43	0	4232052736	11	4167
2026-01-03 06:18:29.66	251.37	10.55	-26.0	-27.3	14.1	2.65e-03	0	43	0	4239392768	11	4184
2026-01-03 06:18:30.67	251.27	10.47	-26.0	-27.3	14.2	3.40e-06	0	43	0	4246732800	11	4164
2026-01-03 06:18:31.67	251.18	10.40	-25.9	-27.0	14.3	4.73e-04	0	43	0	4254072832	11	4101
2026-01-03 06:18:32.67	251.08	10.32	-25.9	-27.0	14.3	2.26e-03	0	43	0	4260364288	11	4104
2026-01-03 06:18:33.68	250.99	10.24	-25.9	-27.1	14.3	1.10e-06	0	43	0	4267704320	11	4112
2026-01-03 06:18:34.69	250.89	10.17	-25.9	-27.0	14.3	0.00e+00	0	43	0	4276092928	11	4086
2026-01-03 06:18:35.69	250.80	10.09	-25.9	-27.0	14.3	3.40e-06	0	43	0	4282384384	11	4089
2026-01-03 06:18:36.70	250.71	10.02	-25.9	-27.0	14.3	1.10e-06	0	43	0	4289724416	11	4108
2026-01-03 06:18:37.71	250.61	9.94	-26.0	-27.4	14.1	0.00e+00	0	43	0	4297064448	11	4187
2026-01-03 06:18:38.72	250.52	9.87	-26.0	-26.7	14.1	1.10e-06	0	43	0	4304404480	12	3919
2026-01-03 06:18:39.72	250.43	9.79	-26.0	-27.2	14.2	1.10e-06	0	43	0	4311744512	11	4147
2026-01-03 06:18:40.72	250.34	9.72	-26.1	-27.4	14.1	3.40e-06	0	43	0	4319084544	11	4193
2026-01-03 06:18:41.73	250.25	9.64	-26.1	-27.0	13.9	0.00e+00	0	43	0	4326424576	12	4006
2026-01-03 06:18:42.74	250.16	9.57	-26.3	-27.5	13.6	1.02e-05	0	43	0	4333764608	12	4119
2026-01-03 06:18:43.74	250.07	9.49	-26.3	-27.4	13.7	4.50e-06	0	43	0	4341104640	12	4089
2026-01-03 06:18:44.75	249.98	9.42	-26.2	-27.1	13.8	2.20e-06	0	43	0	4348444672	12	4034
2026-01-03 06:18:45.75	249.89	9.34	-26.2	-27.3	13.7	8.00e-06	0	43	0	4355784704	12	4069
2026-01-03 06:18:46.76	249.80	9.27	-26.3	-27.5	13.6	9.10e-06	0	43	0	4363124736	12	4134
2026-01-03 06:18:47.77	249.72	9.20	-26.3	-27.6	13.5	5.70e-06	0	43	0	4369416192	12	4143
2026-01-03 06:18:48.77	249.63	9.12	-26.4	-27.7	13.4	9.10e-06	0	43	0	4376756224	12	4196
2026-01-03 06:18:49.78	249.54	9.05	-26.3	-27.6	13.5	1.37e-05	0	43	0	4385144832	12	4144
2026-01-03 06:18:50.78	249.46	8.98	-26.2	-27.3	13.7	4.50e-06	0	43	0	4391436288	12	4091
2026-01-03 06:18:51.79	249.37	8.90	-26.2	-27.3	13.7	9.10e-06	0	43	0	4398776320	12	4073
2026-01-03 06:18:52.80	249.28	8.83	-26.2	-27.2	13.7	3.40e-06	0	43	0	4406116352	12	4060
2026-01-03 06:18:53.81	249.20	8.76	-26.3	-27.4	13.6	9.10e-06	0	43	0	4413456384	12	4117
2026-01-03 06:18:54.82	249.11	8.68	-26.2	-27.3	13.7	6.80e-06	0	43	0	4420796416	12	4073
2026-01-03 06:18:55.82	249.03	8.61	-26.2	-27.3	13.7	4.50e-06	0	43	0	4428136448	12	4066
2026-01-03 06:18:56.83	248.95	8.54	-26.2	-27.4	13.6	5.70e-06	0	43	0	4435476480	12	4091
2026-01-03 06:18:57.83	248.86	8.47	-26.3	-27.4	13.6	2.20e-06	0	43	0	4442816512	12	4104
2026-01-03 06:18:58.84	248.78	8.39	-26.2	-27.2	13.7	3.40e-06	0	43	0	4450156544	12	4064
2026-01-03 06:18:59.84	248.70	8.32	-26.2	-27.4	13.6	5.70e-06	0	43	0	4457496576	12	4100
2026-01-03 06:19:00.84	248.62	8.25	-26.4	-27.8	13.3	5.62e-04	0	43	0	4464836608	12	4202
2026-01-03 06:19:01.85	248.53	8.18	-26.6	-27.7	13.1	2.28e-05	0	43	0	4471128064	13	4090
2026-01-03 06:19:02.85	248.45	8.11	-26.8	-28.0	12.9	3.20e-05	0	44	0	4478468096	13	4174
2026-01-03 06:19:03.86	248.37	8.03	-26.6	-27.8	13.0	4.11e-05	0	43	0	4485808128	13	4097
2026-01-03 06:19:04.86	248.29	7.96	-26.5	-27.9	13.2	2.17e-05	0	43	0	4493148160	12	4252
2026-01-03 06:19:05.87	248.21	7.89	-26.6	-28.2	13.0	5.45e-04	0	43	0	4500488192	12	4326
2026-01-03 06:19:06.88	248.13	7.82	-26.5	-27.9	13.2	1.25e-05	0	43	0	4507828224	12	4243
2026-01-03 06:19:07.88	248.05	7.75	-26.7	-28.0	12.9	3.20e-05	0	43	0	4515168256	13	4155
2026-01-03 06:19:08.89	247.98	7.68	-27.1	-28.8	12.4	9.15e-05	0	43	0	4522508288	13	4412
2026-01-03 06:19:09.90	247.90	7.61	-26.9	-28.4	12.6	5.10e-04	0	43	0	4529848320	13	4270
2026-01-03 06:19:10.91	247.82	7.54	-26.6	-27.8	13.0	2.51e-05	0	43	0	4537188352	13	4108
2026-01-03 06:19:11.91	247.74	7.47	-26.5	-28.0	13.1	3.43e-05	0	43	0	4544528384	12	4282
2026-01-03 06:19:12.92	247.66	7.40	-26.6	-27.8	12.9	4.93e-04	0	43	0	4551868416	13	4125
2026-01-03 06:19:13.93	247.59	7.33	-27.0	-28.7	12.4	6.63e-05	0	43	0	4559208448	13	4360
2026-01-03 06:19:14.94	247.51	7.26	-26.8	-28.2	12.7	4.92e-04	0	43	0	4566548480	13	4234
2026-01-03 06:19:15.94	247.43	7.19	-26.6	-27.8	12.9	4.45e-04	0	43	0	4573888512	13	4125
2026-01-03 06:19:16.95	247.36	7.12	-26.7	-27.9	12.8	4.23e-05	0	43	0	4580179968	13	4143
2026-01-03 06:19:17.95	247.28	7.05	-32.6	-42.3	3.8	8.46e-01	0	43	104	4583325696	24	11031
2026-01-03 06:19:18.95	247.21	6.98	-32.9	-42.6	3.8	8.47e-01	0	43	104	4583325696	25	11054
2026-01-03 06:19:19.96	247.13	6.91	-33.1	-42.6	3.8	8.46e-01	0	43	104	4583325696	26	10754

#Closed at: 2026-01-03 06:19:20
#Recorded file [4583 MB]: D:/data/31010_260103_090842.dat