passes_logs/2026/01/03/R2M6_AANII_01/R2M6_AANII_01__20260103_142048_FENGYUN_3E_rec.log

#Pass ID: 20260103_142048_FENGYUN 3E
#Satellite: FENGYUN 3E
#Configuration: FENGYUN 3E
#almurnet v.1.7.20240730
#Start time: 2026-01-03 14:25:38

#Version: 2.2.20231116
#Station: R2M6_AANII_01
#Location: 30.233357 lon 59.946436 lat
#TLE: 1 49008U 21062A   26002.95568549 -.00000227  00000+0 -86494-4 0  9990
#TLE: 2 49008  98.7475   8.2258 0001442 163.3458 196.7766 14.19882681233131

#Time	Az	El	Level	Level2	SNR	BER	BlckErr	Temp	State	Recorded	gain1	gain2
2026-01-03 14:25:38.38	136.34	55.47	-33.5	-44.6	3.8	8.46e-01	0	43	0	0	27	12888
2026-01-03 14:25:39.37	136.07	55.82	-33.9	-43.2	3.8	8.45e-01	0	43	104	0	28	10455
2026-01-03 14:25:40.37	135.78	56.18	-34.0	-43.3	3.8	8.46e-01	0	43	104	0	28	10541
2026-01-03 14:25:41.37	135.49	56.54	-34.0	-43.3	3.8	8.46e-01	0	43	104	0	28	10530
2026-01-03 14:25:42.37	135.19	56.90	-34.0	-43.3	3.8	8.46e-01	0	43	104	0	28	10561
2026-01-03 14:25:43.36	134.89	57.25	-34.0	-43.3	3.8	8.46e-01	0	43	104	0	28	10542
2026-01-03 14:25:44.37	134.57	57.62	-34.0	-43.4	3.8	8.46e-01	0	43	104	0	28	10613
2026-01-03 14:25:45.37	134.24	57.98	-34.0	-43.4	3.8	8.47e-01	0	43	104	0	28	10544
2026-01-03 14:25:46.38	133.91	58.35	-34.0	-43.4	3.8	8.46e-01	0	43	104	0	28	10620
2026-01-03 14:25:47.39	133.56	58.72	-34.0	-43.4	3.8	8.46e-01	0	43	104	0	28	10606
2026-01-03 14:25:48.38	133.21	59.08	-34.0	-43.4	3.8	8.45e-01	0	43	104	0	28	10539
2026-01-03 14:25:49.39	132.84	59.46	-34.0	-43.4	3.8	8.46e-01	0	43	104	0	28	10581
2026-01-03 14:25:50.38	132.47	59.82	-34.0	-43.4	3.8	8.47e-01	0	43	104	0	28	10588
2026-01-03 14:25:51.39	132.09	60.20	-34.0	-43.4	3.8	8.45e-01	0	43	104	0	28	10589
2026-01-03 14:25:52.38	131.69	60.56	-34.0	-43.3	3.8	8.46e-01	0	43	104	0	28	10543
2026-01-03 14:25:53.38	131.29	60.94	-34.0	-43.3	3.8	8.47e-01	0	43	104	0	28	10534
2026-01-03 14:25:54.38	130.87	61.31	-34.0	-43.4	3.8	8.46e-01	0	43	104	0	28	10568
2026-01-03 14:25:55.37	130.44	61.68	-34.1	-43.5	3.8	8.46e-01	0	43	104	0	28	10654
2026-01-03 14:25:56.38	129.99	62.06	-34.0	-43.4	3.8	8.47e-01	0	43	104	0	28	10616
2026-01-03 14:25:57.37	129.53	62.43	-34.1	-43.5	3.8	8.47e-01	0	43	104	0	28	10650
2026-01-03 14:25:58.38	129.05	62.81	-34.1	-43.6	3.8	8.45e-01	0	43	104	0	28	10733
2026-01-03 14:25:59.38	128.56	63.19	-34.1	-43.4	3.8	8.46e-01	0	43	104	0	28	10590
2026-01-03 14:26:00.39	128.05	63.57	-34.1	-43.5	3.8	8.45e-01	0	43	104	0	28	10635
2026-01-03 14:26:01.39	127.53	63.94	-34.0	-43.4	3.8	8.46e-01	0	43	104	0	28	10564
2026-01-03 14:26:02.38	126.99	64.31	-34.0	-43.4	3.8	8.46e-01	0	43	104	0	28	10559
2026-01-03 14:26:03.39	126.43	64.69	-34.0	-43.4	3.8	8.45e-01	0	43	104	0	28	10604
2026-01-03 14:26:04.40	125.85	65.07	-34.0	-43.4	3.8	8.46e-01	0	44	104	0	28	10596
2026-01-03 14:26:05.40	125.25	65.45	-34.0	-43.4	3.8	8.47e-01	0	44	104	0	28	10578
2026-01-03 14:26:06.40	124.64	65.82	-34.0	-43.3	3.8	8.46e-01	0	43	104	0	28	10462
2026-01-03 14:26:07.39	124.00	66.19	-34.0	-43.3	3.8	8.47e-01	0	43	104	0	28	10532
2026-01-03 14:26:08.40	123.33	66.57	-34.0	-43.4	3.8	8.45e-01	0	43	104	0	28	10568
2026-01-03 14:26:09.40	122.65	66.94	-34.0	-43.3	3.8	8.47e-01	0	43	104	0	28	10493
2026-01-03 14:26:10.41	121.93	67.31	-34.0	-43.1	3.8	8.46e-01	0	43	104	0	28	10276
2026-01-03 14:26:11.42	121.19	67.68	-34.0	-43.1	3.8	8.46e-01	0	43	104	0	28	10316
2026-01-03 14:26:12.42	120.43	68.05	-34.0	-43.4	3.8	8.45e-01	0	44	104	0	28	10579
2026-01-03 14:26:13.43	119.63	68.41	-34.0	-43.4	3.8	8.46e-01	0	44	104	0	28	10552
2026-01-03 14:26:14.43	118.81	68.77	-34.0	-43.4	3.8	8.45e-01	0	43	104	0	28	10585
2026-01-03 14:26:15.43	117.96	69.13	-34.0	-43.4	3.8	8.46e-01	0	43	104	0	28	10559
2026-01-03 14:26:16.43	117.08	69.49	-34.0	-43.4	3.8	8.46e-01	0	43	104	0	28	10565
2026-01-03 14:26:17.42	116.17	69.84	-34.0	-43.3	3.8	8.45e-01	0	43	104	0	28	10449
2026-01-03 14:26:18.43	115.21	70.19	-34.0	-43.3	3.8	8.46e-01	0	44	104	0	28	10491
2026-01-03 14:26:19.43	114.22	70.53	-34.0	-43.3	3.8	8.47e-01	0	44	104	0	28	10485
2026-01-03 14:26:20.44	113.19	70.87	-34.0	-43.0	3.8	8.46e-01	0	44	104	0	28	10141
2026-01-03 14:26:21.44	112.12	71.21	-34.0	-43.1	3.8	8.46e-01	0	43	104	0	28	10335
2026-01-03 14:26:22.43	111.03	71.53	-34.0	-43.2	3.8	8.46e-01	0	44	104	0	28	10376
2026-01-03 14:26:23.44	109.87	71.86	-33.9	-42.7	3.8	8.46e-01	0	44	104	0	28	9884
2026-01-03 14:26:24.44	108.68	72.18	-33.9	-42.9	3.8	8.46e-01	0	43	104	0	28	10039
2026-01-03 14:26:25.45	107.43	72.49	-34.0	-43.1	3.8	8.47e-01	0	43	104	0	28	10303
2026-01-03 14:26:26.45	106.15	72.79	-33.9	-42.7	3.8	8.46e-01	0	44	104	0	28	9947
2026-01-03 14:26:27.45	104.82	73.09	-33.6	-40.4	3.8	8.44e-01	0	44	104	0	28	7871
2026-01-03 14:26:28.46	103.42	73.38	-33.4	-39.6	4.0	8.42e-01	0	43	104	0	27	7324
2026-01-03 14:26:29.46	101.99	73.65	-33.6	-40.3	3.9	8.37e-01	0	44	104	0	27	7828
2026-01-03 14:26:30.46	100.51	73.92	-33.5	-40.2	3.9	8.45e-01	0	43	104	0	27	7749
2026-01-03 14:26:31.47	98.96	74.18	-27.6	-28.1	5.8	2.96e-01	0	44	104	0	16	3782
2026-01-03 14:26:32.47	97.37	74.43	-23.9	-23.5	18.1	0.00e+00	0	44	104	0	9	3451
2026-01-03 14:26:33.47	95.74	74.67	-23.8	-23.8	18.2	0.00e+00	0	43	0	3145728	8	3615
2026-01-03 14:26:34.47	94.05	74.89	-23.5	-23.3	18.5	0.00e+00	0	44	0	10485760	8	3499
2026-01-03 14:26:35.48	92.29	75.10	-23.5	-23.3	18.5	0.00e+00	0	44	0	17825792	8	3495
2026-01-03 14:26:36.49	90.48	75.30	-23.6	-23.5	18.4	0.00e+00	0	44	0	25165824	8	3547
2026-01-03 14:26:37.49	88.64	75.49	-23.6	-23.5	18.5	0.00e+00	0	44	0	32505856	8	3540
2026-01-03 14:26:38.50	86.73	75.66	-23.3	-23.4	18.7	0.00e+00	0	44	0	39845888	7	3610
2026-01-03 14:26:39.50	84.79	75.81	-23.2	-23.1	18.9	0.00e+00	0	43	0	47185920	7	3557
2026-01-03 14:26:40.49	82.84	75.95	-23.1	-22.9	19.0	0.00e+00	0	44	0	53477376	7	3507
2026-01-03 14:26:41.49	80.83	76.07	-22.9	-22.9	19.2	0.00e+00	0	44	0	60817408	6	3612
2026-01-03 14:26:42.49	78.78	76.17	-22.9	-22.9	19.2	0.00e+00	0	43	0	68157440	6	3616
2026-01-03 14:26:43.49	76.71	76.26	-22.8	-22.8	19.2	0.00e+00	0	43	0	75497472	6	3596
2026-01-03 14:26:44.49	74.61	76.33	-22.7	-22.5	19.4	0.00e+00	0	43	0	82837504	6	3522
2026-01-03 14:26:45.50	72.46	76.38	-22.5	-22.2	19.6	0.00e+00	0	44	0	90177536	6	3466
2026-01-03 14:26:46.51	70.31	76.41	-22.4	-22.0	19.7	0.00e+00	0	43	0	97517568	6	3419
2026-01-03 14:26:47.51	68.17	76.43	-22.3	-22.2	19.8	0.00e+00	0	43	0	104857600	5	3561
2026-01-03 14:26:48.52	66.01	76.42	-22.4	-22.5	19.6	0.00e+00	0	43	0	112197632	5	3618
2026-01-03 14:26:49.53	63.85	76.40	-22.2	-21.9	19.9	0.00e+00	0	43	0	119537664	5	3500
2026-01-03 14:26:50.53	61.72	76.36	-22.1	-21.8	20.0	0.00e+00	0	44	0	126877696	5	3482
2026-01-03 14:26:51.54	59.59	76.30	-22.2	-21.9	20.0	0.00e+00	0	43	0	134217728	5	3502
2026-01-03 14:26:52.53	57.52	76.22	-22.3	-22.1	19.8	0.00e+00	0	43	0	140509184	5	3547
2026-01-03 14:26:53.53	55.46	76.13	-22.5	-22.6	19.6	0.00e+00	0	43	0	147849216	5	3637
2026-01-03 14:26:54.53	53.43	76.02	-22.7	-23.0	19.4	0.00e+00	0	43	0	155189248	5	3748
2026-01-03 14:26:55.54	51.41	75.89	-22.5	-22.6	19.6	0.00e+00	0	44	0	162529280	5	3657
2026-01-03 14:26:56.53	49.47	75.74	-22.3	-22.2	19.8	0.00e+00	0	44	0	169869312	5	3559
2026-01-03 14:26:57.53	47.56	75.58	-22.6	-22.8	19.6	0.00e+00	0	44	0	177209344	5	3682
2026-01-03 14:26:58.52	45.71	75.41	-23.0	-23.6	19.1	0.00e+00	0	43	0	184549376	5	3881
2026-01-03 14:26:59.52	43.89	75.22	-22.9	-23.5	19.2	0.00e+00	0	44	0	190840832	5	3836
2026-01-03 14:27:00.51	42.14	75.02	-22.9	-23.4	19.2	0.00e+00	0	44	0	198180864	5	3826
2026-01-03 14:27:01.51	40.42	74.80	-22.9	-23.4	19.2	0.00e+00	0	44	0	205520896	5	3831
2026-01-03 14:27:02.51	38.75	74.57	-23.1	-23.4	19.0	0.00e+00	0	44	0	212860928	6	3723
2026-01-03 14:27:03.51	37.14	74.33	-23.4	-24.1	18.6	2.20e-06	0	44	0	220200960	6	3888
2026-01-03 14:27:04.51	35.57	74.08	-23.5	-24.1	18.6	0.00e+00	0	44	0	227540992	6	3884
2026-01-03 14:27:05.51	34.06	73.82	-23.3	-23.8	18.7	0.00e+00	0	43	0	234881024	6	3817
2026-01-03 14:27:06.51	32.60	73.55	-23.4	-23.9	18.7	2.20e-06	0	44	0	241172480	6	3839
2026-01-03 14:27:07.51	31.19	73.27	-23.3	-23.9	18.6	0.00e+00	0	43	0	248512512	6	3826
2026-01-03 14:27:08.51	29.83	72.98	-23.3	-23.8	18.7	0.00e+00	0	44	0	255852544	6	3805
2026-01-03 14:27:09.51	28.52	72.68	-23.4	-23.5	18.6	0.00e+00	0	44	0	263192576	7	3631
2026-01-03 14:27:10.52	27.24	72.37	-23.6	-23.9	18.5	0.00e+00	0	43	0	270532608	7	3729
2026-01-03 14:27:11.52	26.03	72.06	-23.7	-24.2	18.3	0.00e+00	0	43	0	277872640	7	3796
2026-01-03 14:27:12.51	24.87	71.74	-23.6	-23.9	18.4	0.00e+00	0	44	0	285212672	7	3727
2026-01-03 14:27:13.52	23.72	71.42	-23.4	-23.5	18.7	0.00e+00	0	44	0	292552704	7	3632
2026-01-03 14:27:14.52	22.64	71.08	-23.3	-23.3	18.7	0.00e+00	0	43	0	299892736	7	3601
2026-01-03 14:27:15.52	21.59	70.75	-23.4	-23.5	18.6	0.00e+00	0	44	0	306184192	7	3652
2026-01-03 14:27:16.51	20.59	70.41	-23.5	-23.8	18.5	0.00e+00	0	44	0	313524224	7	3718
2026-01-03 14:27:17.51	19.61	70.07	-23.5	-23.8	18.5	0.00e+00	0	44	0	320864256	7	3708
2026-01-03 14:27:18.51	18.68	69.72	-23.3	-23.4	18.7	0.00e+00	0	44	0	328204288	7	3610
2026-01-03 14:27:19.52	17.76	69.36	-23.0	-22.7	18.8	0.00e+00	0	44	0	335544320	7	3464
2026-01-03 14:27:20.53	16.89	69.00	-23.2	-23.0	18.8	0.00e+00	0	44	0	342884352	7	3540
2026-01-03 14:27:21.54	16.04	68.64	-23.4	-23.5	18.5	0.00e+00	0	44	0	350224384	7	3651
2026-01-03 14:27:22.53	15.24	68.28	-23.5	-23.7	18.5	0.00e+00	0	44	0	357564416	7	3691
2026-01-03 14:27:23.52	14.47	67.93	-23.5	-23.7	18.5	0.00e+00	0	43	0	363855872	7	3677
2026-01-03 14:27:24.51	13.72	67.56	-23.7	-24.0	18.3	0.00e+00	0	44	0	371195904	7	3752
2026-01-03 14:27:25.51	13.00	67.20	-23.7	-24.1	18.2	0.00e+00	0	43	0	378535936	7	3772
2026-01-03 14:27:26.51	12.30	66.83	-23.3	-23.4	18.4	0.00e+00	0	44	0	385875968	7	3612
2026-01-03 14:27:27.51	11.62	66.46	-23.5	-23.6	18.5	0.00e+00	0	43	0	393216000	7	3674
2026-01-03 14:27:28.50	10.98	66.09	-23.6	-24.0	18.3	0.00e+00	0	44	0	400556032	7	3760
2026-01-03 14:27:29.51	10.34	65.71	-23.6	-23.9	18.4	0.00e+00	0	44	0	407896064	7	3724
2026-01-03 14:27:30.52	9.72	65.33	-23.6	-24.0	18.3	0.00e+00	0	44	0	415236096	7	3750
2026-01-03 14:27:31.51	9.14	64.96	-23.9	-24.6	18.0	0.00e+00	0	44	0	422576128	7	3888
2026-01-03 14:27:32.51	8.57	64.59	-24.1	-24.5	17.8	0.00e+00	0	43	0	428867584	8	3777
2026-01-03 14:27:33.51	8.02	64.21	-24.4	-25.1	17.6	0.00e+00	0	44	0	436207616	8	3898
2026-01-03 14:27:34.51	7.48	63.84	-24.7	-25.2	17.2	0.00e+00	0	43	0	443547648	9	3817
2026-01-03 14:27:35.50	6.97	63.47	-24.4	-24.6	17.5	0.00e+00	0	44	0	450887680	9	3693
2026-01-03 14:27:36.50	6.47	63.09	-24.2	-24.1	17.8	0.00e+00	0	44	0	458227712	9	3574
2026-01-03 14:27:37.51	5.98	62.71	-23.8	-23.9	18.2	0.00e+00	0	44	0	465567744	8	3630
2026-01-03 14:27:38.50	5.52	62.34	-24.0	-24.2	18.0	0.00e+00	0	44	0	472907776	8	3693
2026-01-03 14:27:39.50	5.06	61.97	-24.3	-24.9	17.7	0.00e+00	0	44	0	480247808	8	3846
2026-01-03 14:27:40.50	4.62	61.60	-24.6	-25.0	17.3	0.00e+00	0	44	0	487587840	9	3775
2026-01-03 14:27:41.50	4.19	61.22	-24.5	-24.8	17.4	0.00e+00	0	44	0	493879296	9	3725
2026-01-03 14:27:42.50	3.78	60.85	-24.5	-24.9	17.3	0.00e+00	0	44	0	501219328	9	3755
2026-01-03 14:27:43.50	3.37	60.48	-24.5	-24.8	17.4	0.00e+00	0	43	0	508559360	9	3733
2026-01-03 14:27:44.51	2.98	60.11	-24.8	-25.5	17.0	0.00e+00	0	43	0	515899392	9	3903
2026-01-03 14:27:45.50	2.60	59.74	-25.2	-25.8	16.6	0.00e+00	0	44	0	523239424	10	3868
2026-01-03 14:27:46.51	2.23	59.37	-25.3	-26.1	16.5	0.00e+00	0	44	0	530579456	10	3943
2026-01-03 14:27:47.50	1.87	59.00	-25.2	-25.8	16.5	0.00e+00	0	43	0	537919488	10	3852
2026-01-03 14:27:48.50	1.52	58.64	-24.9	-25.1	16.9	0.00e+00	0	43	0	545259520	10	3692
2026-01-03 14:27:49.50	1.18	58.27	-25.0	-25.4	16.9	0.00e+00	0	44	0	551550976	10	3751
2026-01-03 14:27:50.50	0.85	57.91	-25.2	-25.7	16.7	0.00e+00	0	44	0	558891008	10	3833
2026-01-03 14:27:51.49	0.53	57.55	-25.4	-26.2	16.4	0.00e+00	0	43	0	566231040	10	3959
2026-01-03 14:27:52.48	0.22	57.19	-25.5	-26.0	16.2	0.00e+00	0	44	0	573571072	11	3808
2026-01-03 14:27:53.48	359.92	56.84	-25.5	-25.9	16.3	0.00e+00	0	44	0	580911104	11	3771
2026-01-03 14:27:54.48	359.62	56.48	-25.3	-25.4	16.6	0.00e+00	0	44	0	588251136	11	3662
2026-01-03 14:27:55.49	359.33	56.12	-25.2	-25.4	16.5	0.00e+00	0	44	0	595591168	11	3661
2026-01-03 14:27:56.49	359.05	55.76	-25.3	-25.6	16.4	0.00e+00	0	44	0	602931200	11	3697
2026-01-03 14:27:57.48	358.77	55.41	-25.1	-25.0	16.8	0.00e+00	0	44	0	610271232	11	3579
2026-01-03 14:27:58.48	358.51	55.06	-24.8	-24.9	17.0	0.00e+00	0	44	0	616562688	10	3654
2026-01-03 14:27:59.48	358.24	54.71	-24.5	-24.4	17.3	0.00e+00	0	44	0	623902720	10	3534
2026-01-03 14:28:00.49	357.99	54.36	-24.5	-24.3	17.4	0.00e+00	0	44	0	631242752	10	3513
2026-01-03 14:28:01.50	357.74	54.01	-24.5	-24.4	17.3	0.00e+00	0	44	0	638582784	10	3535
2026-01-03 14:28:02.50	357.49	53.67	-24.8	-24.9	17.1	0.00e+00	0	44	0	645922816	10	3649
2026-01-03 14:28:03.49	357.26	53.33	-24.9	-25.1	17.0	0.00e+00	0	44	0	653262848	10	3687
2026-01-03 14:28:04.49	357.03	52.99	-25.0	-25.4	16.7	0.00e+00	0	44	0	660602880	10	3763
2026-01-03 14:28:05.49	356.80	52.65	-24.9	-25.1	16.9	0.00e+00	0	44	0	667942912	10	3698
2026-01-03 14:28:06.50	356.58	52.31	-24.6	-24.6	16.5	0.00e+00	0	44	0	675282944	10	3588
2026-01-03 14:28:07.50	356.36	51.98	-24.4	-24.1	17.5	0.00e+00	0	44	0	681574400	10	3480
2026-01-03 14:28:08.50	356.15	51.64	-24.3	-24.4	17.6	0.00e+00	0	44	0	688914432	9	3636
2026-01-03 14:28:09.50	355.95	51.31	-24.2	-24.2	17.6	0.00e+00	0	43	0	696254464	9	3583
2026-01-03 14:28:10.50	355.74	50.98	-24.4	-24.5	17.5	0.00e+00	0	43	0	703594496	9	3672
2026-01-03 14:28:11.49	355.55	50.66	-24.4	-24.7	17.4	0.00e+00	0	43	0	710934528	9	3707
2026-01-03 14:28:12.49	355.36	50.33	-24.6	-24.9	17.3	0.00e+00	0	44	0	718274560	9	3759
2026-01-03 14:28:13.49	355.17	50.01	-24.6	-25.1	17.1	0.00e+00	0	44	0	725614592	9	3808
2026-01-03 14:28:14.49	354.98	49.69	-24.6	-25.1	17.2	0.00e+00	0	44	0	732954624	9	3801
2026-01-03 14:28:15.48	354.80	49.37	-24.7	-25.2	17.1	0.00e+00	0	44	0	739246080	9	3832
2026-01-03 14:28:16.48	354.63	49.06	-24.7	-25.2	17.1	0.00e+00	0	44	0	746586112	9	3822
2026-01-03 14:28:17.48	354.45	48.74	-24.5	-24.9	17.2	0.00e+00	0	44	0	753926144	9	3753
2026-01-03 14:28:18.47	354.29	48.43	-24.4	-24.7	17.3	0.00e+00	0	44	0	761266176	9	3709
2026-01-03 14:28:19.47	354.12	48.12	-24.5	-24.8	17.3	0.00e+00	0	44	0	768606208	9	3723
2026-01-03 14:28:20.47	353.96	47.81	-24.5	-24.9	17.3	0.00e+00	0	43	0	775946240	9	3752
2026-01-03 14:28:21.48	353.80	47.50	-24.4	-24.6	17.4	0.00e+00	0	44	0	783286272	9	3687
2026-01-03 14:28:22.47	353.64	47.20	-24.0	-23.7	17.9	0.00e+00	0	43	0	789577728	9	3495
2026-01-03 14:28:23.47	353.49	46.89	-23.8	-23.8	18.0	0.00e+00	0	44	0	796917760	8	3618
2026-01-03 14:28:24.47	353.34	46.59	-23.8	-23.9	18.0	0.00e+00	0	44	0	804257792	8	3635
2026-01-03 14:28:25.47	353.19	46.29	-23.9	-24.1	17.8	0.00e+00	0	44	0	811597824	8	3677
2026-01-03 14:28:26.47	353.04	45.99	-23.9	-24.1	17.9	0.00e+00	0	44	0	818937856	8	3683
2026-01-03 14:28:27.47	352.90	45.70	-23.9	-24.0	16.8	0.00e+00	0	44	0	826277888	8	3663
2026-01-03 14:28:28.46	352.77	45.41	-23.4	-23.0	18.4	0.00e+00	0	44	0	833617920	8	3439
2026-01-03 14:28:29.46	352.63	45.11	-23.1	-22.9	18.7	0.00e+00	0	44	0	840957952	7	3515
2026-01-03 14:28:30.46	352.49	44.82	-23.1	-23.0	18.7	0.00e+00	0	44	0	847249408	7	3521
2026-01-03 14:28:31.45	352.36	44.54	-23.2	-23.1	18.6	0.00e+00	0	44	0	854589440	7	3559
2026-01-03 14:28:32.44	352.24	44.26	-23.2	-23.0	18.6	0.00e+00	0	44	0	861929472	7	3545
2026-01-03 14:28:33.45	352.11	43.97	-23.3	-23.2	18.6	0.00e+00	0	44	0	869269504	7	3585
2026-01-03 14:28:34.45	351.98	43.69	-23.4	-23.4	18.5	0.00e+00	0	44	0	876609536	7	3632
2026-01-03 14:28:35.45	351.86	43.41	-23.4	-23.4	18.5	0.00e+00	0	44	0	883949568	7	3634
2026-01-03 14:28:36.45	351.74	43.13	-23.3	-23.2	18.5	0.00e+00	0	44	0	891289600	7	3580
2026-01-03 14:28:37.44	351.63	42.85	-23.3	-23.3	18.3	0.00e+00	0	44	0	898629632	7	3587
2026-01-03 14:28:38.45	351.51	42.58	-23.3	-23.4	18.4	0.00e+00	0	44	0	904921088	7	3619
2026-01-03 14:28:39.44	351.40	42.31	-23.2	-23.2	18.6	0.00e+00	0	44	0	912261120	7	3572
2026-01-03 14:28:40.45	351.28	42.03	-23.3	-23.4	18.4	0.00e+00	0	43	0	919601152	7	3625
2026-01-03 14:28:41.44	351.17	41.77	-23.3	-23.4	18.5	0.00e+00	0	44	0	926941184	7	3619
2026-01-03 14:28:42.43	351.07	41.50	-23.3	-23.3	18.5	0.00e+00	0	44	0	934281216	7	3610
2026-01-03 14:28:43.42	350.96	41.24	-23.2	-23.1	18.5	0.00e+00	0	43	0	941621248	7	3570
2026-01-03 14:28:44.42	350.86	40.97	-23.1	-22.9	18.7	0.00e+00	0	44	0	948961280	7	3522
2026-01-03 14:28:45.42	350.75	40.71	-23.2	-23.0	18.6	0.00e+00	0	43	0	955252736	7	3543
2026-01-03 14:28:46.42	350.65	40.45	-23.2	-23.0	18.6	0.00e+00	0	44	0	962592768	7	3537
2026-01-03 14:28:47.42	350.55	40.19	-23.1	-22.8	18.7	0.00e+00	0	43	0	969932800	7	3495
2026-01-03 14:28:48.42	350.46	39.94	-23.2	-23.0	18.5	0.00e+00	0	44	0	977272832	7	3540
2026-01-03 14:28:49.41	350.36	39.69	-23.2	-23.2	18.6	0.00e+00	0	44	0	984612864	7	3571
2026-01-03 14:28:50.42	350.27	39.43	-23.4	-23.6	18.3	0.00e+00	0	44	0	991952896	7	3660
2026-01-03 14:28:51.41	350.17	39.18	-23.5	-23.7	18.3	0.00e+00	0	44	0	999292928	7	3680
2026-01-03 14:28:52.40	350.08	38.93	-23.6	-24.0	18.1	0.00e+00	0	43	0	1006632960	7	3752
2026-01-03 14:28:53.39	349.99	38.69	-23.7	-24.1	18.0	0.00e+00	0	44	0	1012924416	7	3790
2026-01-03 14:28:54.40	349.90	38.44	-23.7	-24.2	18.1	0.00e+00	0	44	0	1020264448	7	3802
2026-01-03 14:28:55.41	349.82	38.19	-23.4	-23.6	18.3	0.00e+00	0	43	0	1027604480	7	3676
2026-01-03 14:28:56.41	349.73	37.95	-23.3	-23.2	18.5	0.00e+00	0	44	0	1034944512	7	3589
2026-01-03 14:28:57.42	349.64	37.71	-23.3	-23.2	18.5	0.00e+00	0	44	0	1042284544	7	3582
2026-01-03 14:28:58.41	349.56	37.47	-23.3	-23.2	18.5	0.00e+00	0	44	0	1049624576	7	3588
2026-01-03 14:28:59.41	349.48	37.23	-23.1	-22.9	18.7	0.00e+00	0	44	0	1056964608	7	3524
2026-01-03 14:29:00.41	349.40	37.00	-23.2	-23.1	18.6	0.00e+00	0	44	0	1064304640	7	3549
2026-01-03 14:29:01.41	349.32	36.76	-23.3	-23.3	18.5	0.00e+00	0	44	0	1070596096	7	3600
2026-01-03 14:29:02.41	349.24	36.53	-23.3	-23.3	18.5	0.00e+00	0	44	0	1077936128	7	3612
2026-01-03 14:29:03.41	349.16	36.30	-23.4	-23.5	18.4	0.00e+00	0	43	0	1085276160	7	3657
2026-01-03 14:29:04.42	349.09	36.07	-23.5	-23.7	18.3	0.00e+00	0	44	0	1092616192	7	3695
2026-01-03 14:29:05.41	349.01	35.84	-23.5	-23.8	18.2	0.00e+00	0	44	0	1099956224	7	3723
2026-01-03 14:29:06.42	348.94	35.61	-23.5	-23.8	18.2	0.00e+00	0	44	0	1107296256	7	3723
2026-01-03 14:29:07.42	348.86	35.39	-23.6	-23.9	18.1	0.00e+00	0	44	0	1114636288	7	3741
2026-01-03 14:29:08.42	348.79	35.16	-23.8	-24.4	17.8	0.00e+00	0	44	0	1121976320	7	3842
2026-01-03 14:29:09.41	348.72	34.94	-23.7	-24.2	18.0	0.00e+00	0	43	0	1129316352	7	3805
2026-01-03 14:29:10.41	348.65	34.72	-23.5	-23.8	18.2	0.00e+00	0	44	0	1135607808	7	3705
2026-01-03 14:29:11.41	348.58	34.50	-23.4	-23.5	18.3	0.00e+00	0	44	0	1142947840	7	3640
2026-01-03 14:29:12.41	348.51	34.29	-23.4	-23.5	18.3	0.00e+00	0	44	0	1150287872	7	3656
2026-01-03 14:29:13.41	348.45	34.07	-23.4	-23.5	18.3	0.00e+00	0	44	0	1157627904	7	3644
2026-01-03 14:29:14.41	348.38	33.86	-23.3	-23.2	18.5	0.00e+00	0	44	0	1164967936	7	3581
2026-01-03 14:29:15.40	348.32	33.65	-23.3	-23.4	18.4	0.00e+00	0	44	0	1172307968	7	3624
2026-01-03 14:29:16.40	348.25	33.43	-23.0	-22.7	18.7	0.00e+00	0	44	0	1179648000	7	3463
2026-01-03 14:29:17.40	348.19	33.22	-22.8	-22.9	18.9	0.00e+00	0	44	0	1186988032	6	3615
2026-01-03 14:29:18.40	348.13	33.01	-22.8	-22.8	18.9	0.00e+00	0	44	0	1193279488	6	3593
2026-01-03 14:29:19.39	348.07	32.81	-22.9	-23.0	18.8	0.00e+00	0	44	0	1200619520	6	3648
2026-01-03 14:29:20.39	348.00	32.60	-22.9	-23.0	18.8	0.00e+00	0	44	0	1207959552	6	3637
2026-01-03 14:29:21.39	347.94	32.40	-23.0	-23.1	18.7	0.00e+00	0	43	0	1215299584	6	3661
2026-01-03 14:29:22.39	347.89	32.19	-23.1	-23.3	18.6	0.00e+00	0	44	0	1222639616	6	3706
2026-01-03 14:29:23.39	347.83	31.99	-23.1	-23.3	18.6	0.00e+00	0	43	0	1229979648	6	3711
2026-01-03 14:29:24.38	347.77	31.79	-23.1	-23.4	18.6	0.00e+00	0	44	0	1237319680	6	3723
2026-01-03 14:29:25.38	347.71	31.59	-23.1	-23.5	18.5	0.00e+00	0	44	0	1244659712	6	3741
2026-01-03 14:29:26.39	347.66	31.39	-23.2	-23.6	18.5	0.00e+00	0	44	0	1251999744	6	3767
2026-01-03 14:29:27.39	347.60	31.20	-23.1	-23.4	18.6	0.00e+00	0	44	0	1258291200	6	3719
2026-01-03 14:29:28.39	347.55	31.00	-23.1	-23.3	18.6	0.00e+00	0	43	0	1265631232	6	3706
2026-01-03 14:29:29.40	347.49	30.81	-23.0	-23.3	18.6	0.00e+00	0	44	0	1272971264	6	3695
2026-01-03 14:29:30.40	347.44	30.61	-23.0	-23.3	18.6	0.00e+00	0	44	0	1280311296	6	3700
2026-01-03 14:29:31.40	347.38	30.42	-23.0	-23.2	18.7	0.00e+00	0	44	0	1287651328	6	3694
2026-01-03 14:29:32.40	347.33	30.23	-23.0	-23.3	18.6	0.00e+00	0	43	0	1294991360	6	3693
2026-01-03 14:29:33.40	347.28	30.04	-23.1	-23.5	18.4	0.00e+00	0	44	0	1302331392	6	3747
2026-01-03 14:29:34.41	347.23	29.85	-23.3	-23.7	18.4	0.00e+00	0	44	0	1309671424	6	3802
2026-01-03 14:29:35.41	347.18	29.67	-23.3	-23.8	18.3	0.00e+00	0	44	0	1317011456	6	3810
2026-01-03 14:29:36.41	347.13	29.48	-23.4	-23.9	18.3	0.00e+00	0	44	0	1323302912	6	3850
2026-01-03 14:29:37.42	347.08	29.29	-23.4	-24.1	18.2	0.00e+00	0	44	0	1330642944	6	3881
2026-01-03 14:29:38.43	347.03	29.11	-23.5	-24.2	18.1	0.00e+00	0	43	0	1339031552	6	3919
2026-01-03 14:29:39.42	346.99	28.93	-23.5	-24.3	18.1	0.00e+00	0	44	0	1345323008	6	3931
2026-01-03 14:29:40.42	346.94	28.75	-23.5	-23.8	18.1	0.00e+00	0	44	0	1352663040	7	3715
2026-01-03 14:29:41.41	346.89	28.57	-23.6	-23.9	17.9	0.00e+00	0	44	0	1360003072	7	3743
2026-01-03 14:29:42.40	346.85	28.39	-23.6	-24.0	18.0	0.00e+00	0	43	0	1367343104	7	3765
2026-01-03 14:29:43.40	346.80	28.22	-23.7	-24.2	17.9	0.00e+00	0	44	0	1374683136	7	3798
2026-01-03 14:29:44.40	346.76	28.04	-23.7	-24.1	17.9	0.00e+00	0	44	0	1380974592	7	3793
2026-01-03 14:29:45.39	346.71	27.87	-23.7	-24.2	17.9	0.00e+00	0	43	0	1388314624	7	3808
2026-01-03 14:29:46.39	346.67	27.69	-23.8	-24.3	17.8	0.00e+00	0	44	0	1395654656	7	3834
2026-01-03 14:29:47.40	346.62	27.52	-23.8	-24.4	17.8	0.00e+00	0	44	0	1402994688	7	3856
2026-01-03 14:29:48.40	346.58	27.34	-23.7	-24.1	17.9	0.00e+00	0	43	0	1410334720	7	3786
2026-01-03 14:29:49.40	346.54	27.17	-23.6	-24.1	18.0	0.00e+00	0	44	0	1417674752	7	3774
2026-01-03 14:29:50.40	346.50	27.00	-23.6	-24.0	17.9	0.00e+00	0	43	0	1425014784	7	3764
2026-01-03 14:29:51.40	346.46	26.84	-23.6	-23.9	18.0	0.00e+00	0	44	0	1432354816	7	3742
2026-01-03 14:29:52.39	346.42	26.67	-23.7	-24.2	17.9	0.00e+00	0	44	0	1439694848	7	3798
2026-01-03 14:29:53.39	346.38	26.50	-23.8	-24.3	17.8	0.00e+00	0	44	0	1445986304	7	3826
2026-01-03 14:29:54.38	346.34	26.34	-23.7	-24.2	17.9	0.00e+00	0	44	0	1453326336	7	3812
2026-01-03 14:29:55.38	346.30	26.17	-23.8	-24.4	17.8	0.00e+00	0	43	0	1460666368	7	3856
2026-01-03 14:29:56.38	346.26	26.01	-23.9	-24.5	17.6	0.00e+00	0	43	0	1468006400	7	3874
2026-01-03 14:29:57.38	346.22	25.85	-23.9	-24.7	17.6	0.00e+00	0	43	0	1475346432	7	3919
2026-01-03 14:29:58.37	346.18	25.69	-24.0	-24.9	17.5	0.00e+00	0	44	0	1482686464	7	3965
2026-01-03 14:29:59.37	346.14	25.53	-24.0	-24.8	17.5	0.00e+00	0	44	0	1488977920	7	3952
2026-01-03 14:30:00.37	346.11	25.37	-24.3	-25.0	17.2	0.00e+00	0	43	0	1496317952	8	3885
2026-01-03 14:30:01.38	346.07	25.20	-24.5	-24.9	17.0	0.00e+00	0	44	0	1504706560	9	3767
2026-01-03 14:30:02.39	346.03	25.04	-24.2	-24.2	17.3	0.00e+00	0	44	0	1510998016	9	3606
2026-01-03 14:30:03.40	345.99	24.89	-24.0	-23.7	17.6	0.00e+00	0	44	0	1518338048	9	3501
2026-01-03 14:30:04.41	345.96	24.73	-23.8	-24.0	17.7	0.00e+00	0	43	0	1525678080	8	3657
2026-01-03 14:30:05.41	345.92	24.57	-23.9	-24.0	17.7	0.00e+00	0	44	0	1533018112	8	3668
2026-01-03 14:30:06.42	345.89	24.42	-24.0	-24.3	17.6	0.00e+00	0	44	0	1540358144	8	3718
2026-01-03 14:30:07.43	345.85	24.26	-24.1	-24.5	17.4	0.00e+00	0	43	0	1547698176	8	3773
2026-01-03 14:30:08.43	345.82	24.11	-24.1	-24.5	17.4	0.00e+00	0	44	0	1555038208	8	3782
2026-01-03 14:30:09.44	345.78	23.96	-24.2	-24.7	17.3	0.00e+00	0	44	0	1562378240	8	3824
2026-01-03 14:30:10.44	345.75	23.81	-24.1	-24.5	17.4	0.00e+00	0	43	0	1569718272	8	3763
2026-01-03 14:30:11.45	345.72	23.65	-24.0	-24.3	17.5	0.00e+00	0	43	0	1577058304	8	3736
2026-01-03 14:30:12.45	345.69	23.50	-24.0	-24.3	17.5	0.00e+00	0	43	0	1584398336	8	3730
2026-01-03 14:30:13.46	345.65	23.36	-24.0	-24.2	17.6	0.00e+00	0	44	0	1590689792	8	3713
2026-01-03 14:30:14.47	345.62	23.21	-24.0	-24.3	17.5	0.00e+00	0	44	0	1598029824	8	3732
2026-01-03 14:30:15.47	345.59	23.06	-24.0	-24.3	17.5	0.00e+00	0	43	0	1606418432	8	3729
2026-01-03 14:30:16.48	345.56	22.91	-23.8	-23.9	17.7	0.00e+00	0	43	0	1612709888	8	3626
2026-01-03 14:30:17.48	345.53	22.77	-23.8	-23.8	17.8	0.00e+00	0	44	0	1620049920	8	3623
2026-01-03 14:30:18.49	345.49	22.62	-23.8	-23.8	17.7	0.00e+00	0	44	0	1627389952	8	3617
2026-01-03 14:30:19.50	345.46	22.48	-23.8	-23.8	17.7	0.00e+00	0	44	0	1634729984	8	3618
2026-01-03 14:30:20.51	345.43	22.33	-23.8	-23.9	17.6	0.00e+00	0	43	0	1642070016	8	3633
2026-01-03 14:30:21.51	345.40	22.19	-23.8	-23.8	17.7	0.00e+00	0	44	0	1649410048	8	3615
2026-01-03 14:30:22.51	345.37	22.05	-23.8	-23.8	17.7	0.00e+00	0	44	0	1656750080	8	3622
2026-01-03 14:30:23.51	345.35	21.91	-23.8	-23.8	17.7	0.00e+00	0	44	0	1664090112	8	3622
2026-01-03 14:30:24.52	345.32	21.77	-23.8	-23.9	17.7	0.00e+00	0	44	0	1671430144	8	3631
2026-01-03 14:30:25.53	345.29	21.63	-23.8	-23.9	17.6	0.00e+00	0	43	0	1678770176	8	3644
2026-01-03 14:30:26.53	345.26	21.49	-23.7	-23.8	17.7	0.00e+00	0	43	0	1686110208	8	3606
2026-01-03 14:30:27.54	345.23	21.35	-23.7	-23.7	17.8	0.00e+00	0	43	0	1693450240	8	3592
2026-01-03 14:30:28.55	345.20	21.22	-23.8	-23.9	17.7	0.00e+00	0	44	0	1699741696	8	3639
2026-01-03 14:30:29.56	345.17	21.08	-23.8	-23.9	17.7	0.00e+00	0	44	0	1707081728	8	3641
2026-01-03 14:30:30.56	345.15	20.94	-23.9	-24.0	17.6	0.00e+00	0	44	0	1714421760	8	3660
2026-01-03 14:30:31.56	345.12	20.81	-23.8	-24.0	17.6	0.00e+00	0	44	0	1721761792	8	3650
2026-01-03 14:30:32.57	345.09	20.67	-23.8	-24.0	17.6	0.00e+00	0	44	0	1729101824	8	3652
2026-01-03 14:30:33.58	345.07	20.54	-23.9	-24.1	17.6	0.00e+00	0	44	0	1736441856	8	3674
2026-01-03 14:30:34.58	345.04	20.41	-24.0	-24.2	17.5	0.00e+00	0	44	0	1743781888	8	3707
2026-01-03 14:30:35.59	345.02	20.27	-24.0	-24.3	17.4	0.00e+00	0	44	0	1751121920	8	3719
2026-01-03 14:30:36.59	344.99	20.14	-24.0	-24.3	17.5	0.00e+00	0	43	0	1758461952	8	3717
2026-01-03 14:30:37.60	344.96	20.01	-24.1	-24.6	17.3	0.00e+00	0	44	0	1765801984	8	3792
2026-01-03 14:30:38.61	344.94	19.88	-24.1	-24.6	17.3	0.00e+00	0	44	0	1773142016	8	3792
2026-01-03 14:30:39.61	344.91	19.75	-24.1	-24.5	17.3	0.00e+00	0	44	0	1779433472	8	3765
2026-01-03 14:30:40.61	344.89	19.63	-24.1	-24.5	17.3	0.00e+00	0	44	0	1786773504	8	3764
2026-01-03 14:30:41.61	344.86	19.50	-24.1	-24.4	17.3	0.00e+00	0	44	0	1794113536	8	3760
2026-01-03 14:30:42.61	344.84	19.37	-24.1	-24.6	17.1	0.00e+00	0	44	0	1801453568	8	3787
2026-01-03 14:30:43.62	344.82	19.24	-24.1	-24.5	17.3	0.00e+00	0	44	0	1808793600	8	3765
2026-01-03 14:30:44.62	344.79	19.12	-24.1	-24.5	17.2	0.00e+00	0	44	0	1816133632	8	3778
2026-01-03 14:30:45.63	344.77	18.99	-24.1	-24.5	17.2	0.00e+00	0	44	0	1823473664	8	3780
2026-01-03 14:30:46.63	344.75	18.87	-24.1	-24.6	17.2	0.00e+00	0	44	0	1830813696	8	3795
2026-01-03 14:30:47.64	344.72	18.74	-24.1	-24.6	17.2	0.00e+00	0	43	0	1838153728	8	3798
2026-01-03 14:30:48.64	344.70	18.62	-24.1	-24.6	17.2	0.00e+00	0	44	0	1845493760	8	3807
2026-01-03 14:30:49.65	344.68	18.50	-24.2	-24.7	17.2	0.00e+00	0	44	0	1852833792	8	3816
2026-01-03 14:30:50.66	344.65	18.37	-24.2	-24.8	17.1	0.00e+00	0	44	0	1860173824	8	3845
2026-01-03 14:30:51.67	344.63	18.25	-24.2	-24.8	17.1	0.00e+00	0	44	0	1866465280	8	3849
2026-01-03 14:30:52.67	344.61	18.13	-24.2	-24.8	17.1	0.00e+00	0	44	0	1874853888	8	3838
2026-01-03 14:30:53.68	344.59	18.01	-24.2	-24.8	17.0	0.00e+00	0	43	0	1882193920	8	3857
2026-01-03 14:30:54.69	344.57	17.89	-24.3	-25.0	17.0	0.00e+00	0	44	0	1888485376	8	3894
2026-01-03 14:30:55.69	344.55	17.77	-24.3	-25.0	17.0	0.00e+00	0	44	0	1895825408	8	3886
2026-01-03 14:30:56.70	344.52	17.65	-24.3	-25.0	17.0	0.00e+00	0	44	0	1903165440	8	3903
2026-01-03 14:30:57.71	344.50	17.53	-24.4	-25.1	16.9	0.00e+00	0	44	0	1910505472	8	3915
2026-01-03 14:30:58.71	344.48	17.41	-24.4	-25.1	16.9	0.00e+00	0	44	0	1917845504	8	3929
2026-01-03 14:30:59.72	344.46	17.30	-24.4	-25.2	16.9	0.00e+00	0	44	0	1925185536	8	3939
2026-01-03 14:31:00.72	344.44	17.18	-24.4	-25.1	16.9	0.00e+00	0	43	0	1932525568	8	3921
2026-01-03 14:31:01.73	344.42	17.06	-24.4	-25.3	16.8	0.00e+00	0	44	0	1939865600	8	3951
2026-01-03 14:31:02.73	344.40	16.95	-24.5	-25.3	16.8	0.00e+00	0	44	0	1947205632	8	3962
2026-01-03 14:31:03.74	344.38	16.83	-24.4	-25.2	16.8	0.00e+00	0	44	0	1954545664	8	3945
2026-01-03 14:31:04.75	344.36	16.72	-24.5	-25.4	16.7	0.00e+00	0	44	0	1961885696	8	3994
2026-01-03 14:31:05.76	344.34	16.60	-24.5	-25.5	16.7	0.00e+00	0	44	0	1968177152	8	4005
2026-01-03 14:31:06.76	344.32	16.49	-24.6	-25.1	16.6	0.00e+00	0	44	0	1975517184	9	3817
2026-01-03 14:31:07.76	344.30	16.38	-24.8	-25.5	16.4	0.00e+00	0	44	0	1982857216	9	3899
2026-01-03 14:31:08.76	344.28	16.27	-24.8	-25.4	16.4	0.00e+00	0	44	0	1990197248	9	3897
2026-01-03 14:31:09.76	344.27	16.16	-24.7	-25.2	16.5	0.00e+00	0	44	0	1997537280	9	3843
2026-01-03 14:31:10.77	344.25	16.04	-24.7	-25.3	16.5	0.00e+00	0	44	0	2004877312	9	3849
2026-01-03 14:31:11.78	344.23	15.93	-24.7	-25.3	16.5	0.00e+00	0	44	0	2012217344	9	3863
2026-01-03 14:31:12.78	344.21	15.82	-24.8	-25.5	16.4	0.00e+00	0	44	0	2019557376	9	3914
2026-01-03 14:31:13.78	344.19	15.71	-24.9	-25.7	16.2	0.00e+00	0	44	0	2026897408	9	3967
2026-01-03 14:31:14.79	344.17	15.60	-24.9	-25.8	16.2	0.00e+00	0	44	0	2034237440	9	3993
2026-01-03 14:31:15.80	344.16	15.49	-24.9	-25.8	16.2	0.00e+00	0	44	0	2041577472	9	3991
2026-01-03 14:31:16.80	344.14	15.39	-25.2	-25.8	15.9	0.00e+00	0	44	0	2048917504	10	3887
2026-01-03 14:31:17.81	344.12	15.28	-25.4	-26.4	15.6	0.00e+00	0	44	0	2055208960	10	4017
2026-01-03 14:31:18.81	344.10	15.17	-25.4	-26.4	15.6	0.00e+00	0	44	0	2062548992	10	4021
2026-01-03 14:31:19.82	344.09	15.06	-25.5	-26.6	15.5	0.00e+00	0	44	0	2069889024	10	4077
2026-01-03 14:31:20.82	344.07	14.96	-25.4	-26.4	15.6	0.00e+00	0	44	0	2077229056	10	4027
2026-01-03 14:31:21.83	344.05	14.85	-25.3	-26.2	15.7	0.00e+00	0	44	0	2084569088	10	3980
2026-01-03 14:31:22.84	344.04	14.74	-25.4	-26.2	15.7	0.00e+00	0	44	0	2091909120	10	3978
2026-01-03 14:31:23.85	344.02	14.64	-25.3	-26.2	15.7	0.00e+00	0	44	0	2099249152	10	3971
2026-01-03 14:31:24.86	344.00	14.53	-25.4	-26.4	15.6	0.00e+00	0	43	0	2106589184	10	4012
2026-01-03 14:31:25.87	343.99	14.43	-25.7	-26.4	15.3	0.00e+00	0	44	0	2113929216	11	3923
2026-01-03 14:31:26.87	343.97	14.33	-25.6	-26.3	15.3	0.00e+00	0	44	0	2121269248	11	3898
2026-01-03 14:31:27.87	343.95	14.22	-25.5	-26.0	15.5	0.00e+00	0	43	0	2128609280	11	3813
2026-01-03 14:31:28.88	343.94	14.12	-25.4	-25.9	15.6	0.00e+00	0	44	0	2135949312	11	3791
2026-01-03 14:31:29.88	343.92	14.02	-25.4	-25.8	15.6	0.00e+00	0	44	0	2143289344	11	3769
2026-01-03 14:31:30.89	343.91	13.91	-25.4	-25.9	15.6	0.00e+00	0	44	0	2150629376	11	3790
2026-01-03 14:31:31.89	343.89	13.81	-25.4	-25.8	15.6	0.00e+00	0	43	0	2157969408	11	3772
2026-01-03 14:31:32.90	343.88	13.71	-25.6	-26.4	15.3	0.00e+00	0	44	0	2164260864	11	3909
2026-01-03 14:31:33.91	343.86	13.61	-25.5	-26.0	15.5	0.00e+00	0	44	0	2171600896	11	3812
2026-01-03 14:31:34.92	343.85	13.51	-25.4	-25.8	15.5	0.00e+00	0	44	0	2178940928	11	3771
2026-01-03 14:31:35.93	343.83	13.41	-25.4	-25.9	15.5	0.00e+00	0	44	0	2186280960	11	3791
2026-01-03 14:31:36.92	343.82	13.31	-25.5	-25.9	15.5	0.00e+00	0	44	0	2193620992	11	3805
2026-01-03 14:31:37.93	343.80	13.21	-25.5	-26.0	15.4	0.00e+00	0	44	0	2200961024	11	3824
2026-01-03 14:31:38.93	343.79	13.11	-25.5	-26.0	15.4	0.00e+00	0	44	0	2208301056	11	3820
2026-01-03 14:31:39.94	343.77	13.01	-25.5	-26.0	15.4	0.00e+00	0	43	0	2215641088	11	3820
2026-01-03 14:31:40.94	343.76	12.92	-25.5	-26.1	15.4	0.00e+00	0	44	0	2222981120	11	3854
2026-01-03 14:31:41.95	343.74	12.82	-25.6	-26.2	15.3	0.00e+00	0	44	0	2230321152	11	3873
2026-01-03 14:31:42.96	343.73	12.72	-25.5	-26.0	15.4	0.00e+00	0	44	0	2237661184	11	3817
2026-01-03 14:31:43.97	343.72	12.62	-25.6	-26.2	15.3	0.00e+00	0	44	0	2243952640	11	3874
2026-01-03 14:31:44.97	343.70	12.53	-25.6	-26.2	15.3	0.00e+00	0	44	0	2251292672	11	3870
2026-01-03 14:31:45.98	343.69	12.43	-25.7	-26.4	15.2	0.00e+00	0	44	0	2259681280	11	3926
2026-01-03 14:31:46.99	343.67	12.34	-25.6	-26.3	15.3	0.00e+00	0	44	0	2265972736	11	3885
2026-01-03 14:31:47.99	343.66	12.24	-25.6	-26.3	15.3	0.00e+00	0	44	0	2273312768	11	3891
2026-01-03 14:31:49.00	343.65	12.15	-25.6	-26.3	15.3	0.00e+00	0	44	0	2280652800	11	3895
2026-01-03 14:31:50.01	343.63	12.05	-25.7	-26.6	15.1	0.00e+00	0	44	0	2287992832	11	3966
2026-01-03 14:31:51.02	343.62	11.96	-25.7	-26.4	15.2	0.00e+00	0	44	0	2295332864	11	3916
2026-01-03 14:31:52.03	343.61	11.86	-25.7	-26.5	15.1	0.00e+00	0	43	0	2302672896	11	3956
2026-01-03 14:31:53.03	343.59	11.77	-25.8	-26.8	15.0	0.00e+00	0	44	0	2310012928	11	4009
2026-01-03 14:31:54.03	343.58	11.68	-25.8	-26.6	15.1	1.10e-06	0	43	0	2317352960	11	3979
2026-01-03 14:31:55.03	343.57	11.58	-25.7	-26.5	15.1	0.00e+00	0	43	0	2324692992	11	3939
2026-01-03 14:31:56.03	343.56	11.49	-25.7	-26.5	15.1	0.00e+00	0	44	0	2332033024	11	3954
2026-01-03 14:31:57.04	343.54	11.40	-25.7	-26.5	15.1	0.00e+00	0	44	0	2339373056	11	3933
2026-01-03 14:31:58.04	343.53	11.31	-25.7	-26.6	15.0	0.00e+00	0	44	0	2346713088	11	3966
2026-01-03 14:31:59.05	343.52	11.22	-25.7	-26.6	15.1	0.00e+00	0	44	0	2353004544	11	3965
2026-01-03 14:32:00.05	343.51	11.13	-25.7	-26.6	15.0	0.00e+00	0	44	0	2360344576	11	3970
2026-01-03 14:32:01.02	343.50	11.04	-25.8	-26.7	15.0	0.00e+00	0	44	0	2367684608	11	3986
2026-01-03 14:32:02.02	343.48	10.95	-25.8	-26.6	15.0	0.00e+00	0	44	0	2375024640	11	3978
2026-01-03 14:32:03.03	343.47	10.86	-25.9	-26.9	14.9	0.00e+00	0	44	0	2382364672	11	4056
2026-01-03 14:32:04.04	343.46	10.77	-25.8	-26.7	14.9	0.00e+00	0	44	0	2389704704	11	4011
2026-01-03 14:32:05.05	343.45	10.68	-25.8	-26.7	15.0	0.00e+00	0	44	0	2397044736	11	4000
2026-01-03 14:32:06.06	343.44	10.59	-26.0	-27.1	14.7	1.10e-06	0	44	0	2404384768	11	4103
2026-01-03 14:32:07.06	343.42	10.50	-25.9	-27.0	14.8	0.00e+00	0	44	0	2410676224	11	4062
2026-01-03 14:32:08.07	343.41	10.41	-26.0	-27.1	14.7	0.00e+00	0	44	0	2418016256	11	4099
2026-01-03 14:32:09.07	343.40	10.32	-26.1	-26.9	14.4	1.10e-06	0	44	0	2425356288	12	3951
2026-01-03 14:32:10.08	343.39	10.23	-26.4	-27.5	14.1	1.10e-06	0	44	0	2432696320	12	4085
2026-01-03 14:32:11.08	343.38	10.15	-26.2	-27.1	14.3	0.00e+00	0	44	0	2440036352	12	4003
2026-01-03 14:32:12.09	343.37	10.06	-26.2	-27.2	14.3	0.00e+00	0	44	0	2447376384	12	4013
2026-01-03 14:32:13.09	343.36	9.97	-26.3	-27.4	14.2	2.20e-06	0	44	0	2454716416	12	4069
2026-01-03 14:32:14.10	343.35	9.89	-26.2	-27.2	14.2	2.20e-06	0	44	0	2462056448	12	4019
2026-01-03 14:32:15.10	343.34	9.80	-26.3	-27.4	14.1	1.10e-06	0	44	0	2469396480	12	4087
2026-01-03 14:32:16.10	343.33	9.72	-26.5	-27.8	13.9	5.70e-06	0	43	0	2476736512	12	4188
2026-01-03 14:32:17.11	343.31	9.63	-26.3	-27.4	14.1	3.40e-06	0	44	0	2484076544	12	4084
2026-01-03 14:32:18.11	343.30	9.54	-26.3	-27.4	14.1	3.40e-06	0	43	0	2491416576	12	4069
2026-01-03 14:32:19.12	343.29	9.46	-26.3	-27.3	14.2	0.00e+00	0	44	0	2498756608	12	4062
2026-01-03 14:32:20.13	343.28	9.37	-26.4	-27.5	14.1	8.00e-06	0	44	0	2506096640	12	4098
2026-01-03 14:32:21.14	343.27	9.29	-26.2	-27.2	14.2	2.20e-06	0	44	0	2513436672	12	4034
2026-01-03 14:32:22.14	343.26	9.20	-26.2	-27.1	14.3	1.10e-06	0	44	0	2519728128	12	4008
2026-01-03 14:32:23.15	343.25	9.12	-26.2	-27.1	14.3	2.20e-06	0	44	0	2527068160	12	3996
2026-01-03 14:32:24.15	343.24	9.04	-26.3	-27.3	14.2	1.10e-06	0	44	0	2534408192	12	4050
2026-01-03 14:32:25.16	343.23	8.95	-26.4	-27.7	13.9	3.40e-06	0	44	0	2541748224	12	4164
2026-01-03 14:32:26.16	343.22	8.87	-26.3	-27.4	14.1	2.20e-06	0	44	0	2549088256	12	4077
2026-01-03 14:32:27.17	343.21	8.79	-26.1	-27.0	14.3	0.00e+00	0	44	0	2556428288	12	3983
2026-01-03 14:32:28.17	343.20	8.71	-26.1	-27.0	14.3	2.20e-06	0	43	0	2563768320	12	3989
2026-01-03 14:32:29.18	343.19	8.62	-26.3	-27.3	14.1	4.50e-06	0	44	0	2571108352	12	4052
2026-01-03 14:32:30.18	343.18	8.54	-26.2	-27.2	14.2	2.20e-06	0	44	0	2578448384	12	4028
2026-01-03 14:32:31.19	343.17	8.46	-26.2	-27.3	14.1	1.10e-06	0	44	0	2585788416	12	4049
2026-01-03 14:32:32.19	343.17	8.38	-26.2	-27.2	14.1	1.10e-06	0	44	0	2593128448	12	4038
2026-01-03 14:32:33.19	343.16	8.30	-26.3	-27.4	14.0	2.20e-06	0	44	0	2600468480	12	4077
2026-01-03 14:32:34.19	343.15	8.22	-26.4	-27.6	13.9	6.80e-06	0	43	0	2606759936	12	4148
2026-01-03 14:32:35.20	343.14	8.14	-26.4	-27.6	13.9	3.40e-06	0	43	0	2614099968	12	4130
2026-01-03 14:32:36.21	343.13	8.05	-26.5	-27.9	13.7	1.14e-05	0	44	0	2621440000	12	4211
2026-01-03 14:32:37.21	343.12	7.97	-26.5	-27.8	13.8	8.00e-06	0	44	0	2628780032	12	4183
2026-01-03 14:32:38.22	343.11	7.89	-26.4	-27.6	13.8	4.50e-06	0	44	0	2636120064	12	4146
2026-01-03 14:32:39.23	343.10	7.81	-26.5	-27.8	13.7	6.80e-06	0	44	0	2643460096	12	4202
2026-01-03 14:32:40.24	343.09	7.73	-26.5	-27.8	13.7	4.50e-06	0	43	0	2650800128	12	4193
2026-01-03 14:32:41.24	343.08	7.66	-26.6	-27.6	13.6	1.48e-05	0	44	0	2658140160	13	4027
2026-01-03 14:32:42.25	343.08	7.58	-26.5	-27.4	13.7	6.80e-06	0	43	0	2665480192	13	3991
2026-01-03 14:32:43.25	343.07	7.50	-26.6	-27.5	13.6	6.80e-06	0	44	0	2672820224	13	4006
2026-01-03 14:32:44.26	343.06	7.42	-26.5	-27.5	13.6	9.10e-06	0	44	0	2680160256	13	4000
2026-01-03 14:32:45.27	343.05	7.34	-26.8	-28.0	13.3	1.71e-05	0	44	0	2686451712	13	4142
2026-01-03 14:32:46.27	343.04	7.26	-26.7	-27.9	13.4	1.83e-05	0	44	0	2693791744	13	4111
2026-01-03 14:32:47.28	343.03	7.18	-26.7	-27.9	13.3	1.83e-05	0	44	0	2702180352	13	4120
2026-01-03 14:32:48.28	343.03	7.11	-29.7	-32.1	9.3	1.19e-04	0	44	0	2708471808	19	4740
2026-01-03 14:32:49.29	343.02	7.03	-32.9	-41.7	3.8	7.93e-01	0	44	104	2713714688	25	9964
2026-01-03 14:32:50.29	343.01	6.95	-33.4	-43.0	3.8	8.45e-01	0	44	104	2713714688	26	10912
2026-01-03 14:32:51.30	343.00	6.88	-33.6	-43.5	3.8	8.45e-01	0	44	104	2713714688	26	11296

#Closed at: 2026-01-03 14:32:51
#Recorded file [2713 MB]: D:/data/31010_260103_172632.dat