passes_logs/2026/01/03/R2M6_AANII_01/R2M6_AANII_01__20260103_025422_AQUA_rec.log

#Pass ID: 20260103_025422_AQUA
#Satellite: AQUA
#Configuration: AQUA
#almurnet v.1.7.20240730
#Start time: 2026-01-03 02:59:50

#Version: 2.2.20231116
#Station: R2M6_AANII_01
#Location: 30.233357 lon 59.946436 lat
#TLE: 1 27424U 02022A   25365.92641127  .00002078  00000+0  42628-3 0  9999
#TLE: 2 27424  98.4058 327.1196 0001962  94.7781 340.6230 14.61783896258835

#Time	Az	El	Level	Level2	SNR	BER	BlckErr	Temp	State	Recorded	gain1	gain2
2026-01-03 02:59:50.83	284.90	38.62	-33.2	-45.3	3.8	1.49e+00	0	43	0	0	26	14439
2026-01-03 02:59:51.83	284.39	38.53	-34.0	-53.6	3.8	7.46e-01	0	43	104	0	28	34324
2026-01-03 02:59:52.84	283.87	38.45	-34.0	-53.7	3.8	7.49e-01	0	43	104	0	28	34401
2026-01-03 02:59:53.84	283.37	38.36	-34.1	-53.8	3.8	7.47e-01	0	43	104	0	27	34617
2026-01-03 02:59:54.85	282.86	38.27	-34.1	-53.8	3.8	7.48e-01	0	43	104	0	28	34834
2026-01-03 02:59:55.85	282.36	38.18	-34.1	-53.7	3.8	7.45e-01	0	43	104	0	28	34580
2026-01-03 02:59:56.86	281.85	38.08	-34.1	-53.7	3.8	7.46e-01	0	43	104	0	28	34498
2026-01-03 02:59:57.86	281.36	37.99	-34.1	-53.8	3.8	7.43e-01	0	43	104	0	28	34716
2026-01-03 02:59:58.85	280.87	37.89	-34.0	-53.7	3.8	7.46e-01	0	43	104	0	28	34563
2026-01-03 02:59:59.85	280.38	37.79	-34.0	-53.6	3.8	7.48e-01	0	43	104	0	28	34343
2026-01-03 03:00:00.85	279.89	37.69	-34.0	-53.6	3.8	7.47e-01	0	43	104	0	28	34317
2026-01-03 03:00:01.84	279.41	37.58	-34.0	-53.6	3.8	7.49e-01	0	43	104	0	28	34290
2026-01-03 03:00:02.84	278.93	37.48	-34.0	-53.6	3.8	7.45e-01	0	43	104	0	28	34295
2026-01-03 03:00:03.84	278.45	37.37	-34.0	-53.6	3.8	7.45e-01	0	43	104	0	28	34229
2026-01-03 03:00:04.84	277.98	37.26	-34.0	-53.5	3.8	7.46e-01	0	43	104	0	28	34130
2026-01-03 03:00:05.84	277.51	37.15	-34.0	-53.6	3.8	7.46e-01	0	43	104	0	28	34421
2026-01-03 03:00:06.84	277.04	37.03	-34.1	-53.7	3.8	7.47e-01	0	43	104	0	28	34569
2026-01-03 03:00:07.83	276.58	36.92	-34.0	-53.7	3.8	7.47e-01	0	43	104	0	28	34582
2026-01-03 03:00:08.83	276.12	36.80	-34.0	-53.7	3.8	7.45e-01	0	43	104	0	28	34630
2026-01-03 03:00:09.83	275.66	36.68	-34.0	-53.6	3.8	7.46e-01	0	43	104	0	28	34322
2026-01-03 03:00:10.83	275.21	36.56	-34.0	-53.5	3.8	7.43e-01	0	43	104	0	28	34038
2026-01-03 03:00:11.82	274.76	36.44	-34.0	-53.5	3.8	7.48e-01	0	43	104	0	28	34035
2026-01-03 03:00:12.83	274.31	36.32	-33.9	-53.3	3.8	7.44e-01	0	43	104	0	28	33719
2026-01-03 03:00:13.82	273.87	36.20	-33.9	-53.2	3.8	7.45e-01	0	43	104	0	28	33361
2026-01-03 03:00:14.82	273.43	36.07	-33.8	-53.2	3.8	7.44e-01	0	43	104	0	28	33421
2026-01-03 03:00:15.82	273.00	35.94	-33.8	-53.2	3.8	7.43e-01	0	43	104	0	28	33461
2026-01-03 03:00:16.81	272.57	35.82	-33.7	-53.0	3.8	7.46e-01	0	43	104	0	28	32949
2026-01-03 03:00:17.81	272.14	35.69	-33.7	-52.9	3.8	7.42e-01	0	43	104	0	28	32777
2026-01-03 03:00:18.81	271.71	35.55	-33.7	-52.8	3.8	7.49e-01	0	43	104	0	28	32426
2026-01-03 03:00:19.81	271.29	35.42	-33.7	-52.7	3.8	7.43e-01	0	43	104	0	28	31974
2026-01-03 03:00:20.81	270.87	35.29	-33.7	-52.5	3.8	7.46e-01	0	43	104	0	28	31350
2026-01-03 03:00:21.81	270.45	35.16	-33.7	-52.5	3.8	7.48e-01	0	43	104	0	28	31402
2026-01-03 03:00:22.81	270.04	35.02	-33.7	-52.7	3.8	7.50e-01	0	43	104	0	28	32052
2026-01-03 03:00:23.80	269.64	34.88	-33.7	-52.5	3.8	7.44e-01	0	43	104	0	28	31279
2026-01-03 03:00:24.80	269.23	34.75	-33.7	-51.8	3.8	7.42e-01	0	43	104	0	28	28931
2026-01-03 03:00:25.80	268.83	34.61	-33.7	-51.9	3.8	7.45e-01	0	43	104	0	28	29477
2026-01-03 03:00:26.80	268.43	34.47	-33.7	-52.1	3.8	7.47e-01	0	43	104	0	28	30097
2026-01-03 03:00:27.78	268.05	34.33	-33.7	-52.3	3.8	7.46e-01	0	43	104	0	28	30544
2026-01-03 03:00:28.78	267.65	34.19	-33.7	-52.5	3.8	7.47e-01	0	43	104	0	28	31338
2026-01-03 03:00:29.78	267.27	34.05	-33.7	-52.6	3.8	7.45e-01	0	43	104	0	28	31671
2026-01-03 03:00:30.79	266.88	33.91	-33.7	-52.0	3.8	7.43e-01	0	43	104	0	28	29632
2026-01-03 03:00:31.78	266.50	33.76	-33.7	-51.0	3.8	7.44e-01	0	43	104	0	28	26350
2026-01-03 03:00:32.78	266.12	33.62	-33.7	-50.9	3.8	7.43e-01	0	43	104	0	28	26152
2026-01-03 03:00:33.77	265.75	33.48	-33.7	-51.4	3.8	7.50e-01	0	43	104	0	28	27742
2026-01-03 03:00:34.77	265.38	33.33	-33.7	-52.3	3.8	7.41e-01	0	43	104	0	28	30521
2026-01-03 03:00:35.77	265.02	33.19	-33.7	-52.4	3.8	7.45e-01	0	43	104	0	28	30931
2026-01-03 03:00:36.77	264.65	33.04	-33.7	-51.4	3.8	7.49e-01	0	43	104	0	28	27785
2026-01-03 03:00:37.77	264.29	32.89	-33.6	-50.0	3.9	7.41e-01	0	43	104	0	28	23653
2026-01-03 03:00:38.77	263.93	32.75	-33.6	-48.4	4.0	7.41e-01	0	43	104	0	28	19757
2026-01-03 03:00:39.77	263.58	32.60	-33.5	-46.1	6.1	6.81e-01	0	43	104	0	27	15249
2026-01-03 03:00:40.78	263.23	32.45	-33.3	-43.5	8.3	6.38e-01	0	43	0	1048576	27	11615
2026-01-03 03:00:41.77	262.88	32.30	-33.2	-42.3	9.4	6.24e-01	0	43	0	3145728	27	10296
2026-01-03 03:00:42.77	262.54	32.15	-33.0	-41.6	10.5	6.18e-01	0	43	0	4718592	26	9652
2026-01-03 03:00:43.77	262.20	32.00	-32.3	-38.2	13.3	6.03e-01	0	43	0	6815744	26	7075
2026-01-03 03:00:44.77	261.86	31.85	-31.1	-35.3	16.5	6.02e-01	0	43	0	8388608	23	5794
2026-01-03 03:00:45.78	261.52	31.70	-30.5	-34.3	17.9	6.02e-01	0	43	0	10485760	21	5615
2026-01-03 03:00:46.78	261.19	31.55	-30.7	-34.5	17.6	6.02e-01	0	43	0	12582912	22	5553
2026-01-03 03:00:47.79	260.86	31.40	-30.7	-34.6	17.4	6.04e-01	0	43	0	14155776	22	5627
2026-01-03 03:00:48.78	260.54	31.25	-30.4	-34.1	18.0	6.01e-01	0	43	0	16252928	21	5524
2026-01-03 03:00:49.79	260.21	31.10	-30.2	-33.4	18.5	6.03e-01	0	43	0	17825792	21	5257
2026-01-03 03:00:50.78	259.90	30.95	-30.0	-33.6	18.7	6.02e-01	0	43	0	19922944	20	5423
2026-01-03 03:00:51.77	259.59	30.80	-30.0	-33.6	18.7	6.00e-01	0	43	0	21495808	20	5453
2026-01-03 03:00:52.77	259.27	30.65	-30.4	-34.2	18.0	6.03e-01	0	43	0	23592960	21	5552
2026-01-03 03:00:53.77	258.96	30.50	-30.3	-33.7	18.2	6.04e-01	0	43	0	25165824	21	5379
2026-01-03 03:00:54.78	258.66	30.35	-29.9	-33.2	18.9	6.03e-01	0	43	0	27262976	20	5263
2026-01-03 03:00:55.77	258.35	30.20	-29.5	-32.2	19.4	6.02e-01	0	43	0	29360128	20	4920
2026-01-03 03:00:56.77	258.05	30.04	-29.2	-31.8	20.0	6.01e-01	0	43	0	30932992	19	4897
2026-01-03 03:00:57.77	257.76	29.89	-29.0	-31.9	20.3	6.03e-01	0	43	0	33030144	18	5015
2026-01-03 03:00:58.77	257.46	29.74	-29.3	-32.3	19.9	6.02e-01	0	43	0	34603008	19	5041
2026-01-03 03:00:59.78	257.17	29.59	-29.4	-32.3	19.8	6.02e-01	0	43	0	36700160	19	5072
2026-01-03 03:01:00.78	256.88	29.44	-29.0	-31.5	20.2	6.03e-01	0	43	0	38797312	19	4791
2026-01-03 03:01:01.78	256.59	29.29	-28.9	-31.2	20.5	6.02e-01	0	43	0	40370176	19	4667
2026-01-03 03:01:02.79	256.31	29.13	-29.1	-32.1	20.2	6.01e-01	0	43	0	42467328	18	5096
2026-01-03 03:01:03.78	256.03	28.99	-29.0	-32.0	20.2	6.01e-01	0	43	0	44040192	18	5078
2026-01-03 03:01:04.78	255.75	28.83	-29.0	-31.9	20.2	6.01e-01	0	43	0	46137344	18	5033
2026-01-03 03:01:05.78	255.47	28.68	-29.1	-32.2	20.1	6.03e-01	0	43	0	47710208	18	5127
2026-01-03 03:01:06.78	255.20	28.53	-29.4	-32.5	19.7	6.02e-01	0	43	0	49807360	19	5118
2026-01-03 03:01:07.78	254.93	28.38	-29.3	-32.2	19.8	6.00e-01	0	43	0	51904512	19	5019
2026-01-03 03:01:08.78	254.66	28.23	-29.0	-31.9	20.3	6.03e-01	0	43	0	53477376	18	5031
2026-01-03 03:01:09.77	254.40	28.08	-28.8	-31.4	20.5	6.02e-01	0	43	0	55574528	18	4864
2026-01-03 03:01:10.78	254.14	27.93	-28.9	-31.8	20.3	6.03e-01	0	43	0	57147392	18	5001
2026-01-03 03:01:11.77	253.88	27.79	-29.1	-31.8	20.1	6.01e-01	0	43	0	59244544	19	4876
2026-01-03 03:01:12.77	253.62	27.64	-29.1	-31.8	20.0	6.02e-01	0	43	0	60817408	19	4901
2026-01-03 03:01:13.76	253.37	27.49	-29.1	-31.8	20.0	6.04e-01	0	43	0	62914560	19	4879
2026-01-03 03:01:14.76	253.12	27.34	-29.4	-32.6	19.5	6.02e-01	0	43	0	65011712	19	5162
2026-01-03 03:01:15.75	252.87	27.19	-29.6	-32.6	19.2	5.99e-01	0	43	0	66584576	20	5059
2026-01-03 03:01:16.75	252.62	27.05	-29.9	-33.3	18.7	6.03e-01	0	43	0	68681728	20	5348
2026-01-03 03:01:17.75	252.38	26.90	-29.7	-32.8	19.0	6.04e-01	0	43	0	70254592	20	5137
2026-01-03 03:01:18.75	252.14	26.75	-29.2	-32.0	19.9	6.00e-01	0	43	0	72351744	19	4946
2026-01-03 03:01:19.76	251.89	26.60	-29.0	-32.0	20.2	6.04e-01	0	43	0	73924608	18	5059
2026-01-03 03:01:20.76	251.66	26.45	-29.3	-32.2	19.8	6.00e-01	0	43	0	76021760	19	5034
2026-01-03 03:01:21.76	251.42	26.31	-29.4	-32.5	19.6	6.00e-01	0	43	0	78118912	19	5140
2026-01-03 03:01:22.75	251.19	26.16	-29.4	-32.6	19.5	6.02e-01	0	43	0	79691776	19	5179
2026-01-03 03:01:23.75	250.96	26.02	-29.3	-32.3	19.7	6.03e-01	0	43	0	81788928	19	5065
2026-01-03 03:01:24.75	250.73	25.87	-29.5	-32.8	19.4	6.03e-01	0	43	0	83361792	19	5250
2026-01-03 03:01:25.76	250.50	25.72	-29.4	-32.6	19.5	6.02e-01	0	43	0	85458944	19	5170
2026-01-03 03:01:26.75	250.28	25.58	-29.3	-32.1	19.8	6.03e-01	0	43	0	87556096	19	4998
2026-01-03 03:01:27.75	250.06	25.44	-29.1	-31.8	19.9	6.01e-01	0	43	0	89128960	19	4912
2026-01-03 03:01:28.75	249.83	25.29	-29.3	-32.2	19.7	6.03e-01	0	43	0	91226112	19	5019
2026-01-03 03:01:29.76	249.61	25.15	-29.5	-32.7	19.4	6.03e-01	0	43	0	92798976	19	5230
2026-01-03 03:01:30.76	249.40	25.00	-29.4	-32.6	19.5	6.04e-01	0	43	0	94896128	19	5182
2026-01-03 03:01:31.75	249.19	24.86	-29.4	-32.5	19.5	6.03e-01	0	43	0	96468992	19	5135
2026-01-03 03:01:32.75	248.97	24.72	-29.5	-32.7	19.4	6.03e-01	0	43	0	98566144	19	5230
2026-01-03 03:01:33.75	248.76	24.58	-29.4	-32.4	19.6	6.00e-01	0	43	0	100663296	19	5115
2026-01-03 03:01:34.75	248.56	24.44	-29.2	-32.0	19.8	6.01e-01	0	43	0	102236160	19	4965
2026-01-03 03:01:35.75	248.35	24.30	-29.2	-32.1	19.8	6.01e-01	0	43	0	104333312	19	4983
2026-01-03 03:01:36.74	248.15	24.16	-29.3	-32.2	19.7	6.02e-01	0	43	0	105906176	19	5030
2026-01-03 03:01:37.73	247.95	24.02	-29.5	-32.7	19.4	6.01e-01	0	43	0	108003328	19	5220
2026-01-03 03:01:38.73	247.75	23.88	-29.4	-32.6	19.4	6.03e-01	0	43	0	109576192	19	5198
2026-01-03 03:01:39.72	247.55	23.74	-29.4	-32.4	19.5	6.04e-01	0	43	0	111673344	19	5133
2026-01-03 03:01:40.73	247.35	23.60	-29.3	-32.2	19.6	6.03e-01	0	43	0	113246208	19	5042
2026-01-03 03:01:41.72	247.16	23.46	-29.3	-32.3	19.6	6.03e-01	0	43	0	115343360	19	5062
2026-01-03 03:01:42.72	246.97	23.33	-29.5	-32.8	19.2	6.00e-01	0	43	0	117440512	19	5274
2026-01-03 03:01:43.72	246.77	23.19	-29.7	-32.9	18.8	6.02e-01	0	43	0	119013376	20	5184
2026-01-03 03:01:44.72	246.58	23.05	-29.7	-32.8	18.8	6.02e-01	0	43	0	121110528	20	5175
2026-01-03 03:01:45.72	246.40	22.91	-29.6	-32.7	18.9	6.00e-01	0	43	0	122683392	20	5123
2026-01-03 03:01:46.72	246.21	22.78	-29.6	-32.7	18.9	6.02e-01	0	43	0	124780544	20	5138
2026-01-03 03:01:47.72	246.03	22.64	-29.8	-33.1	18.7	6.01e-01	0	43	0	126353408	20	5283
2026-01-03 03:01:48.72	245.84	22.51	-29.7	-32.9	18.8	6.01e-01	0	43	0	128450560	20	5206
2026-01-03 03:01:49.72	245.66	22.37	-29.5	-32.5	19.1	6.03e-01	0	43	0	130547712	20	5047
2026-01-03 03:01:50.73	245.48	22.24	-29.5	-32.7	19.3	6.01e-01	0	43	0	132120576	19	5233
2026-01-03 03:01:51.72	245.31	22.10	-29.4	-32.6	19.3	6.03e-01	0	43	0	134217728	19	5194
2026-01-03 03:01:52.71	245.13	21.97	-29.6	-32.7	18.9	6.03e-01	0	43	0	135790592	20	5149
2026-01-03 03:01:53.71	244.96	21.84	-29.5	-32.4	19.0	6.04e-01	0	43	0	137887744	20	5037
2026-01-03 03:01:54.71	244.78	21.71	-29.4	-32.7	19.3	6.00e-01	0	43	0	139460608	19	5231
2026-01-03 03:01:55.72	244.61	21.57	-29.5	-32.8	19.2	6.02e-01	0	43	0	141557760	19	5286
2026-01-03 03:01:56.72	244.44	21.44	-29.4	-32.6	19.2	6.05e-01	0	43	0	143654912	19	5197
2026-01-03 03:01:57.73	244.27	21.31	-29.2	-32.1	19.6	6.03e-01	0	43	0	145227776	19	5025
2026-01-03 03:01:58.72	244.11	21.18	-29.1	-31.8	19.7	6.01e-01	0	43	0	147324928	19	4920
2026-01-03 03:01:59.72	243.94	21.05	-29.1	-32.2	19.8	6.03e-01	0	43	0	148897792	18	5177
2026-01-03 03:02:00.72	243.78	20.92	-29.1	-31.9	19.7	6.03e-01	0	43	0	150994944	19	4948
2026-01-03 03:02:01.72	243.61	20.79	-29.2	-32.1	19.6	6.01e-01	0	43	0	152567808	19	5024
2026-01-03 03:02:02.72	243.45	20.66	-29.2	-32.1	19.6	6.03e-01	0	43	0	154664960	19	5012
2026-01-03 03:02:03.72	243.29	20.54	-29.2	-32.0	19.7	6.03e-01	0	43	0	156762112	19	4968
2026-01-03 03:02:04.72	243.14	20.41	-29.1	-31.8	19.8	6.02e-01	0	43	0	158334976	19	4903
2026-01-03 03:02:05.73	242.98	20.28	-29.2	-32.0	19.7	6.00e-01	0	43	0	160432128	19	4970
2026-01-03 03:02:06.74	242.82	20.15	-29.2	-32.0	19.6	6.04e-01	0	43	0	162529280	19	4991
2026-01-03 03:02:07.74	242.67	20.03	-29.2	-32.1	19.6	6.02e-01	0	43	0	164102144	19	5030
2026-01-03 03:02:08.74	242.51	19.90	-29.3	-32.3	19.4	6.02e-01	0	43	0	166199296	19	5109
2026-01-03 03:02:09.73	242.36	19.78	-29.3	-32.4	19.4	6.00e-01	0	43	0	167772160	19	5116
2026-01-03 03:02:10.73	242.21	19.65	-29.3	-32.3	19.5	5.99e-01	0	43	0	169869312	19	5083
2026-01-03 03:02:11.73	242.07	19.53	-29.3	-32.4	19.4	6.04e-01	0	43	0	171442176	19	5116
2026-01-03 03:02:12.73	241.92	19.41	-29.2	-32.0	19.6	6.02e-01	0	43	0	173539328	19	4983
2026-01-03 03:02:13.72	241.77	19.28	-29.2	-32.1	19.6	6.04e-01	0	43	0	175112192	19	5010
2026-01-03 03:02:14.73	241.63	19.16	-29.3	-32.4	19.4	6.02e-01	0	43	0	177209344	19	5125
2026-01-03 03:02:15.74	241.48	19.04	-29.3	-32.4	19.4	6.02e-01	0	43	0	179306496	19	5120
2026-01-03 03:02:16.74	241.34	18.91	-29.3	-32.3	19.4	6.03e-01	0	43	0	180879360	19	5092
2026-01-03 03:02:17.74	241.20	18.79	-29.2	-32.2	19.5	6.06e-01	0	43	0	182976512	19	5050
2026-01-03 03:02:18.75	241.06	18.67	-29.3	-32.2	19.4	6.01e-01	0	43	0	184549376	19	5064
2026-01-03 03:02:19.76	240.92	18.55	-29.1	-31.9	19.6	6.01e-01	0	43	0	186646528	19	4940
2026-01-03 03:02:20.77	240.78	18.43	-29.0	-32.2	19.7	6.02e-01	0	43	0	188743680	18	5167
2026-01-03 03:02:21.77	240.64	18.31	-29.2	-32.0	19.6	6.01e-01	0	43	0	190316544	19	4997
2026-01-03 03:02:22.78	240.51	18.19	-29.4	-32.7	19.2	6.00e-01	0	43	0	192413696	19	5251
2026-01-03 03:02:23.79	240.37	18.07	-29.4	-32.6	19.2	6.01e-01	0	43	0	194510848	19	5200
2026-01-03 03:02:24.79	240.24	17.95	-29.2	-32.2	19.4	6.05e-01	0	43	0	196083712	19	5067
2026-01-03 03:02:25.79	240.11	17.83	-29.2	-32.1	19.5	6.03e-01	0	43	0	198180864	19	5036
2026-01-03 03:02:26.80	239.97	17.72	-29.3	-32.2	19.4	6.01e-01	0	43	0	199753728	19	5083
2026-01-03 03:02:27.81	239.84	17.60	-29.2	-32.2	19.4	5.99e-01	0	43	0	201850880	19	5084
2026-01-03 03:02:28.81	239.71	17.48	-29.3	-32.4	19.3	6.02e-01	0	43	0	203423744	19	5147
2026-01-03 03:02:29.82	239.58	17.37	-29.3	-32.4	19.3	6.03e-01	0	43	0	205520896	19	5136
2026-01-03 03:02:30.82	239.46	17.25	-29.4	-32.7	19.1	5.99e-01	0	43	0	207618048	19	5255
2026-01-03 03:02:31.82	239.33	17.14	-29.4	-32.6	19.2	6.01e-01	0	43	0	209190912	19	5214
2026-01-03 03:02:32.83	239.21	17.02	-29.3	-32.4	19.3	6.04e-01	0	43	0	211288064	19	5130
2026-01-03 03:02:33.84	239.08	16.91	-29.2	-32.2	19.4	6.04e-01	0	43	0	212860928	19	5079
2026-01-03 03:02:34.84	238.96	16.79	-29.1	-32.0	19.5	6.03e-01	0	43	0	214958080	19	4987
2026-01-03 03:02:35.85	238.84	16.68	-29.2	-32.0	19.5	6.04e-01	0	43	0	217055232	19	5015
2026-01-03 03:02:36.85	238.72	16.57	-29.1	-31.9	19.6	6.03e-01	0	43	0	218628096	19	4954
2026-01-03 03:02:37.86	238.60	16.45	-29.1	-32.3	19.6	6.04e-01	0	43	0	220725248	18	5220
2026-01-03 03:02:38.87	238.48	16.34	-29.2	-32.2	19.4	6.04e-01	0	43	0	222298112	19	5069
2026-01-03 03:02:39.87	238.36	16.23	-29.2	-32.2	19.3	6.04e-01	0	43	0	224395264	19	5095
2026-01-03 03:02:40.88	238.24	16.12	-29.3	-32.3	17.8	6.07e-01	0	43	0	226492416	19	5134
2026-01-03 03:02:41.89	238.12	16.01	-29.4	-32.6	16.6	6.08e-01	0	43	0	228065280	19	5239
2026-01-03 03:02:42.89	238.01	15.90	-29.3	-32.3	18.0	6.00e-01	0	43	0	230162432	19	5124
2026-01-03 03:02:43.89	237.90	15.79	-29.2	-32.1	16.7	6.07e-01	0	43	0	231735296	19	5038
2026-01-03 03:02:44.90	237.78	15.68	-29.1	-31.9	17.5	6.04e-01	0	43	0	233832448	19	4989
2026-01-03 03:02:45.91	237.67	15.57	-29.2	-32.1	18.8	6.03e-01	0	43	0	235929600	19	5027
2026-01-03 03:02:46.91	237.56	15.46	-29.3	-32.5	18.6	6.01e-01	0	43	0	237502464	19	5189
2026-01-03 03:02:47.92	237.45	15.35	-29.2	-32.2	18.8	6.04e-01	0	43	0	239599616	19	5102
2026-01-03 03:02:48.92	237.34	15.24	-29.2	-32.1	19.3	6.02e-01	0	43	0	241172480	19	5048
2026-01-03 03:02:49.93	237.23	15.14	-29.2	-32.2	19.0	6.04e-01	0	43	0	243269632	19	5095
2026-01-03 03:02:50.94	237.12	15.03	-29.3	-32.4	18.9	6.03e-01	0	43	0	245366784	19	5175
2026-01-03 03:02:51.95	237.01	14.92	-29.4	-32.9	18.9	6.00e-01	0	43	0	246939648	19	5340
2026-01-03 03:02:52.96	236.90	14.82	-29.3	-32.5	19.0	5.99e-01	0	43	0	249036800	19	5190
2026-01-03 03:02:53.97	236.80	14.71	-29.2	-32.3	19.2	6.02e-01	0	43	0	250609664	19	5124
2026-01-03 03:02:54.98	236.69	14.60	-29.1	-32.1	19.3	6.01e-01	0	43	0	252706816	19	5051
2026-01-03 03:02:55.98	236.59	14.50	-29.2	-32.3	19.2	6.03e-01	0	43	0	254803968	19	5126
2026-01-03 03:02:56.99	236.48	14.39	-29.1	-32.0	19.4	6.03e-01	0	43	0	256376832	19	5015
2026-01-03 03:02:58.00	236.38	14.29	-29.2	-32.2	19.2	6.02e-01	0	43	0	258473984	19	5102
2026-01-03 03:02:59.00	236.28	14.19	-29.1	-32.1	19.3	6.02e-01	0	43	0	260046848	19	5044
2026-01-03 03:03:00.01	236.18	14.08	-29.1	-32.1	19.3	6.00e-01	0	43	0	262144000	19	5043
2026-01-03 03:03:01.02	236.08	13.98	-29.2	-32.2	19.2	6.02e-01	0	43	0	264241152	19	5109
2026-01-03 03:03:02.03	235.98	13.88	-29.3	-32.6	18.9	6.03e-01	0	43	0	265814016	19	5266
2026-01-03 03:03:03.03	235.88	13.78	-29.4	-32.8	18.8	6.01e-01	0	43	0	267911168	19	5332
2026-01-03 03:03:04.04	235.78	13.67	-29.3	-32.5	19.0	6.03e-01	0	43	0	269484032	19	5220
2026-01-03 03:03:05.04	235.69	13.57	-29.3	-32.6	19.0	6.01e-01	0	43	0	271581184	19	5241
2026-01-03 03:03:06.05	235.59	13.47	-29.4	-32.9	18.7	6.02e-01	0	43	0	273678336	19	5372
2026-01-03 03:03:07.06	235.49	13.37	-29.3	-32.6	18.9	6.01e-01	0	43	0	275251200	19	5242
2026-01-03 03:03:08.07	235.40	13.27	-29.5	-33.0	18.6	6.00e-01	0	43	0	277348352	19	5420
2026-01-03 03:03:09.08	235.30	13.17	-29.4	-32.7	18.8	6.04e-01	0	43	0	278921216	19	5286
2026-01-03 03:03:10.07	235.21	13.07	-29.5	-33.0	18.7	6.04e-01	0	43	0	281018368	19	5398
2026-01-03 03:03:11.08	235.12	12.97	-29.3	-32.7	18.8	6.01e-01	0	43	0	283115520	19	5292
2026-01-03 03:03:12.09	235.02	12.87	-29.3	-32.5	19.0	6.01e-01	0	43	0	284688384	19	5207
2026-01-03 03:03:13.09	234.93	12.78	-29.3	-32.4	19.0	6.00e-01	0	43	0	286785536	19	5192
2026-01-03 03:03:14.10	234.84	12.68	-29.2	-32.4	19.0	6.01e-01	0	43	0	288358400	19	5190
2026-01-03 03:03:15.11	234.75	12.58	-29.3	-32.4	19.0	6.03e-01	0	43	0	290455552	19	5197
2026-01-03 03:03:16.11	234.66	12.48	-29.4	-32.9	18.7	6.01e-01	0	43	0	292552704	19	5366
2026-01-03 03:03:17.11	234.57	12.39	-29.5	-33.1	18.4	6.02e-01	0	43	0	294125568	19	5475
2026-01-03 03:03:18.12	234.48	12.29	-29.4	-33.0	18.6	6.03e-01	0	43	0	296222720	19	5404
2026-01-03 03:03:19.12	234.40	12.20	-29.5	-33.2	18.4	6.03e-01	0	43	0	297795584	19	5503
2026-01-03 03:03:20.13	234.31	12.10	-29.5	-33.0	18.5	6.01e-01	0	43	0	299892736	19	5433
2026-01-03 03:03:21.14	234.22	12.00	-29.5	-33.1	18.5	6.03e-01	0	43	0	301989888	19	5456
2026-01-03 03:03:22.15	234.14	11.91	-29.5	-33.2	18.4	6.02e-01	0	43	0	303562752	19	5510
2026-01-03 03:03:23.16	234.05	11.81	-29.4	-32.9	18.6	6.03e-01	0	43	0	305659904	19	5394
2026-01-03 03:03:24.16	233.97	11.72	-29.4	-32.9	18.6	6.01e-01	0	43	0	307232768	19	5384
2026-01-03 03:03:25.16	233.88	11.63	-29.5	-33.1	18.5	6.00e-01	0	43	0	309329920	19	5450
2026-01-03 03:03:26.16	233.80	11.53	-29.6	-33.3	18.3	6.01e-01	0	43	0	311427072	19	5560
2026-01-03 03:03:27.17	233.72	11.44	-29.4	-32.9	18.6	6.01e-01	0	43	0	312999936	19	5373
2026-01-03 03:03:28.17	233.63	11.35	-29.3	-32.6	18.8	6.02e-01	0	43	0	315097088	19	5265
2026-01-03 03:03:29.18	233.55	11.25	-29.3	-32.7	18.7	6.04e-01	0	43	0	316669952	19	5300
2026-01-03 03:03:30.18	233.47	11.16	-29.4	-32.8	18.7	6.04e-01	0	43	0	318767104	19	5336
2026-01-03 03:03:31.19	233.39	11.07	-29.3	-32.7	18.7	6.04e-01	0	43	0	320864256	19	5305
2026-01-03 03:03:32.20	233.31	10.98	-29.4	-33.0	18.5	6.03e-01	0	43	0	322437120	19	5421
2026-01-03 03:03:33.21	233.23	10.89	-29.6	-33.4	18.3	6.03e-01	0	43	0	324534272	19	5579
2026-01-03 03:03:34.22	233.15	10.79	-29.5	-33.2	18.4	6.03e-01	0	43	0	326107136	19	5507
2026-01-03 03:03:35.22	233.07	10.70	-29.6	-33.1	18.0	6.01e-01	0	43	0	328204288	20	5389
2026-01-03 03:03:36.23	233.00	10.61	-29.7	-33.5	17.7	6.01e-01	0	43	0	329777152	20	5548
2026-01-03 03:03:37.23	232.92	10.52	-29.6	-33.1	18.0	6.02e-01	0	43	0	331874304	20	5385
2026-01-03 03:03:38.24	232.84	10.43	-29.7	-33.4	17.8	6.03e-01	0	43	0	333971456	20	5490
2026-01-03 03:03:39.25	232.76	10.34	-29.8	-33.6	17.7	6.01e-01	0	43	0	335544320	20	5591
2026-01-03 03:03:40.25	232.69	10.26	-29.7	-33.4	17.7	6.05e-01	0	43	0	337641472	20	5529
2026-01-03 03:03:41.25	232.61	10.17	-29.8	-33.8	17.5	6.01e-01	0	43	0	339738624	20	5681
2026-01-03 03:03:42.26	232.54	10.08	-29.9	-34.1	17.3	6.01e-01	0	43	0	341311488	20	5805
2026-01-03 03:03:43.27	232.47	9.99	-29.8	-33.6	17.6	6.00e-01	0	43	0	343408640	20	5587
2026-01-03 03:03:44.28	232.39	9.90	-29.7	-33.3	17.8	6.04e-01	0	43	0	344981504	20	5458
2026-01-03 03:03:45.28	232.32	9.82	-29.6	-33.1	18.0	6.02e-01	0	43	0	347078656	20	5378
2026-01-03 03:03:46.28	232.25	9.73	-29.5	-32.9	18.0	6.02e-01	0	43	0	349175808	20	5316
2026-01-03 03:03:47.29	232.17	9.64	-29.5	-32.9	18.0	6.04e-01	0	43	0	350748672	20	5326
2026-01-03 03:03:48.30	232.10	9.55	-29.5	-33.3	18.2	6.03e-01	0	43	0	352845824	19	5577
2026-01-03 03:03:49.30	232.03	9.47	-29.5	-33.4	18.1	6.01e-01	0	43	0	354418688	19	5614
2026-01-03 03:03:50.31	231.96	9.38	-29.4	-33.1	18.3	5.99e-01	0	43	0	356515840	19	5492
2026-01-03 03:03:51.32	231.89	9.30	-29.4	-33.0	18.4	6.05e-01	0	43	0	358088704	19	5449
2026-01-03 03:03:52.32	231.82	9.21	-29.4	-33.1	18.3	6.01e-01	0	43	0	360185856	19	5478
2026-01-03 03:03:53.33	231.75	9.13	-29.5	-33.2	18.2	6.02e-01	0	43	0	362283008	19	5539
2026-01-03 03:03:54.34	231.68	9.04	-29.5	-33.3	18.2	6.07e-01	0	43	0	363855872	19	5556
2026-01-03 03:03:55.34	231.61	8.96	-29.5	-33.3	18.1	6.01e-01	0	43	0	365953024	19	5577
2026-01-03 03:03:56.35	231.54	8.87	-29.5	-33.4	18.1	6.03e-01	0	43	0	368050176	19	5607
2026-01-03 03:03:57.35	231.48	8.79	-29.5	-33.4	18.1	6.02e-01	0	43	0	369623040	19	5610
2026-01-03 03:03:58.36	231.41	8.70	-29.5	-33.4	18.0	6.03e-01	0	43	0	371720192	19	5623
2026-01-03 03:03:59.36	231.34	8.62	-29.6	-33.6	17.9	6.03e-01	0	43	0	373293056	19	5685
2026-01-03 03:04:00.37	231.28	8.54	-29.6	-33.2	17.8	6.04e-01	0	43	0	375390208	20	5436
2026-01-03 03:04:01.38	231.21	8.45	-29.7	-33.5	17.6	6.04e-01	0	43	0	376963072	20	5556
2026-01-03 03:04:02.38	231.14	8.37	-29.6	-33.1	16.1	6.04e-01	0	43	0	379060224	20	5419
2026-01-03 03:04:03.39	231.08	8.29	-29.6	-33.3	17.4	5.99e-01	0	43	0	381157376	20	5494
2026-01-03 03:04:04.39	231.02	8.21	-29.7	-33.4	16.2	6.03e-01	0	43	0	382730240	20	5549
2026-01-03 03:04:05.39	230.95	8.13	-29.7	-33.4	17.0	6.03e-01	0	43	0	384827392	20	5539
2026-01-03 03:04:06.40	230.89	8.04	-29.8	-33.7	17.1	6.02e-01	0	43	0	386400256	20	5671
2026-01-03 03:04:07.41	230.82	7.96	-29.8	-33.8	16.7	6.00e-01	0	43	0	388497408	20	5734
2026-01-03 03:04:08.41	230.76	7.88	-29.7	-33.5	17.2	6.02e-01	0	43	0	390594560	20	5602
2026-01-03 03:04:09.42	230.70	7.80	-29.6	-33.3	17.5	6.02e-01	0	43	0	392167424	20	5504
2026-01-03 03:04:10.43	230.64	7.72	-29.6	-33.4	17.5	6.04e-01	0	43	0	394264576	20	5553
2026-01-03 03:04:11.43	230.57	7.64	-29.7	-33.6	17.3	6.00e-01	0	43	0	396361728	20	5653
2026-01-03 03:04:12.44	230.51	7.56	-29.7	-33.7	17.2	6.01e-01	0	43	0	397934592	20	5696
2026-01-03 03:04:13.45	230.45	7.48	-29.8	-33.8	17.2	6.02e-01	0	43	0	400031744	20	5713
2026-01-03 03:04:14.45	230.39	7.40	-29.8	-34.0	17.0	6.02e-01	0	43	0	401604608	20	5801
2026-01-03 03:04:15.46	230.33	7.32	-29.8	-34.0	17.0	6.02e-01	0	43	0	403701760	20	5815
2026-01-03 03:04:16.47	230.27	7.24	-29.8	-34.0	16.9	6.03e-01	0	43	0	405274624	20	5849
2026-01-03 03:04:17.47	230.21	7.16	-29.7	-33.8	17.1	6.02e-01	0	43	0	407371776	20	5727
2026-01-03 03:04:18.48	230.15	7.08	-32.7	-51.6	3.5	7.46e-01	0	43	104	408944640	26	31650
2026-01-03 03:04:19.49	230.09	7.00	-33.1	-52.7	3.8	7.42e-01	0	43	104	408944640	26	34442
2026-01-03 03:04:20.50	230.03	6.93	-33.4	-52.8	3.8	7.46e-01	0	43	104	408944640	27	33600
2026-01-03 03:04:21.50	229.97	6.85	-33.6	-53.2	3.8	7.47e-01	0	43	104	408944640	27	34484

#Closed at: 2026-01-03 03:04:21
#Recorded file [408 MB]: D:/data/31010_260103_060039.dat