passes_logs/2026/01/03/R2M6_AANII_01/R2M6_AANII_01__20260103_105318_AQUA_rec.log

#Pass ID: 20260103_105318_AQUA
#Satellite: AQUA
#Configuration: AQUA
#almurnet v.1.7.20240730
#Start time: 2026-01-03 10:53:18

#Version: 2.2.20231116
#Station: R2M6_AANII_01
#Location: 30.233357 lon 59.946436 lat
#TLE: 1 27424U 02022A   25365.92641127  .00002078  00000+0  42628-3 0  9999
#TLE: 2 27424  98.4058 327.1196 0001962  94.7781 340.6230 14.61783896258835

#Time	Az	El	Level	Level2	SNR	BER	BlckErr	Temp	State	Recorded	gain1	gain2
2026-01-03 10:53:18.45	122.46	7.02	-31.8	-41.3	4.8	7.16e-01	0	40	0	0	25	10680
2026-01-03 10:53:19.46	122.39	7.10	-31.6	-39.6	4.9	7.13e-01	0	40	104	0	25	9057
2026-01-03 10:53:20.46	122.32	7.17	-31.6	-38.3	12.2	6.11e-01	0	40	0	0	25	7852
2026-01-03 10:53:21.47	122.24	7.25	-31.6	-38.3	12.3	6.14e-01	0	40	0	1572864	25	7807
2026-01-03 10:53:22.48	122.17	7.33	-31.7	-38.3	12.4	6.12e-01	0	40	0	3670016	25	7768
2026-01-03 10:53:23.48	122.09	7.40	-31.8	-38.4	12.5	6.10e-01	0	41	0	5242880	25	7727
2026-01-03 10:53:24.49	122.02	7.48	-31.8	-38.4	12.5	6.10e-01	0	40	0	7340032	25	7714
2026-01-03 10:53:25.50	121.94	7.56	-31.9	-38.9	12.1	6.13e-01	0	41	0	9437184	25	8080
2026-01-03 10:53:26.50	121.86	7.63	-32.0	-38.9	12.1	6.11e-01	0	40	0	11010048	25	8018
2026-01-03 10:53:27.51	121.79	7.71	-31.7	-37.7	13.1	6.11e-01	0	41	0	13107200	25	7157
2026-01-03 10:53:28.52	121.71	7.79	-31.5	-36.5	14.2	6.10e-01	0	41	0	14680064	25	6420
2026-01-03 10:53:29.52	121.63	7.87	-31.1	-35.7	15.1	6.05e-01	0	41	0	16777216	24	6109
2026-01-03 10:53:30.52	121.55	7.95	-30.8	-35.2	15.9	6.07e-01	0	41	0	18874368	23	5956
2026-01-03 10:53:31.53	121.48	8.03	-30.6	-34.3	16.5	6.07e-01	0	41	0	20447232	23	5527
2026-01-03 10:53:32.53	121.40	8.10	-30.3	-34.0	17.1	6.05e-01	0	41	0	22544384	22	5500
2026-01-03 10:53:33.54	121.32	8.18	-30.2	-33.6	17.4	6.09e-01	0	41	0	24117248	22	5331
2026-01-03 10:53:34.54	121.24	8.26	-30.1	-33.2	17.7	6.06e-01	0	41	0	26214400	22	5173
2026-01-03 10:53:35.55	121.16	8.34	-30.1	-33.2	17.7	6.04e-01	0	41	0	28311552	22	5151
2026-01-03 10:53:36.56	121.08	8.42	-30.1	-33.2	17.7	6.08e-01	0	41	0	29884416	22	5162
2026-01-03 10:53:37.57	120.99	8.50	-30.1	-33.3	17.7	6.05e-01	0	41	0	31981568	22	5170
2026-01-03 10:53:38.57	120.91	8.58	-30.1	-33.1	17.8	6.05e-01	0	41	0	33554432	22	5120
2026-01-03 10:53:39.58	120.83	8.66	-30.1	-33.1	17.8	6.05e-01	0	41	0	35651584	22	5105
2026-01-03 10:53:40.58	120.75	8.74	-30.0	-33.0	17.9	6.08e-01	0	41	0	37748736	22	5075
2026-01-03 10:53:41.59	120.66	8.82	-30.1	-33.3	17.7	6.06e-01	0	41	0	39321600	22	5193
2026-01-03 10:53:42.60	120.58	8.91	-30.2	-33.3	17.7	6.06e-01	0	41	0	41418752	22	5178
2026-01-03 10:53:43.60	120.49	8.99	-30.1	-33.1	17.9	6.07e-01	0	41	0	42991616	22	5097
2026-01-03 10:53:44.61	120.41	9.07	-30.0	-33.0	17.9	6.07e-01	0	41	0	45088768	22	5040
2026-01-03 10:53:45.61	120.32	9.15	-30.1	-33.1	17.9	6.05e-01	0	41	0	47185920	22	5087
2026-01-03 10:53:46.62	120.24	9.23	-30.1	-33.0	17.9	6.05e-01	0	41	0	48758784	22	5061
2026-01-03 10:53:47.62	120.15	9.31	-30.0	-32.9	18.0	6.06e-01	0	41	0	50855936	22	5019
2026-01-03 10:53:48.63	120.06	9.40	-30.1	-33.0	18.0	6.06e-01	0	41	0	52428800	22	5060
2026-01-03 10:53:49.63	119.98	9.48	-30.1	-33.0	18.0	6.07e-01	0	41	0	54525952	22	5062
2026-01-03 10:53:50.63	119.89	9.56	-30.0	-32.9	18.0	6.07e-01	0	41	0	56623104	22	5019
2026-01-03 10:53:51.64	119.80	9.65	-30.2	-33.3	17.8	6.06e-01	0	41	0	58195968	22	5167
2026-01-03 10:53:52.64	119.71	9.73	-30.1	-33.0	18.0	6.08e-01	0	41	0	60293120	22	5040
2026-01-03 10:53:53.65	119.62	9.81	-30.0	-32.9	18.1	6.07e-01	0	41	0	61865984	22	4998
2026-01-03 10:53:54.65	119.53	9.90	-30.0	-32.9	18.1	6.05e-01	0	41	0	63963136	22	5014
2026-01-03 10:53:55.66	119.44	9.98	-30.0	-32.9	18.0	6.05e-01	0	41	0	66060288	22	5028
2026-01-03 10:53:56.67	119.34	10.07	-30.1	-33.2	17.9	6.08e-01	0	41	0	67633152	22	5111
2026-01-03 10:53:57.67	119.25	10.15	-30.2	-33.5	17.7	6.07e-01	0	41	0	69730304	22	5254
2026-01-03 10:53:58.67	119.16	10.23	-30.2	-33.4	17.8	6.07e-01	0	42	0	71303168	22	5187
2026-01-03 10:53:59.68	119.07	10.32	-30.1	-33.0	18.0	6.07e-01	0	41	0	73400320	22	5064
2026-01-03 10:54:00.69	118.97	10.41	-30.1	-33.0	18.1	6.09e-01	0	42	0	74973184	22	5044
2026-01-03 10:54:01.70	118.88	10.49	-30.0	-32.9	18.1	6.07e-01	0	41	0	77070336	22	5019
2026-01-03 10:54:02.70	118.78	10.58	-30.1	-33.1	18.0	6.07e-01	0	42	0	79167488	22	5061
2026-01-03 10:54:03.71	118.68	10.67	-30.1	-33.0	18.1	6.07e-01	0	42	0	80740352	22	5050
2026-01-03 10:54:04.72	118.59	10.75	-30.1	-33.1	18.0	6.07e-01	0	42	0	82837504	22	5076
2026-01-03 10:54:05.72	118.49	10.84	-30.3	-33.6	17.7	6.04e-01	0	42	0	84934656	22	5268
2026-01-03 10:54:06.73	118.39	10.93	-30.2	-33.4	17.8	6.06e-01	0	41	0	86507520	22	5186
2026-01-03 10:54:07.74	118.29	11.01	-30.1	-32.9	18.1	6.06e-01	0	42	0	88604672	22	5003
2026-01-03 10:54:08.75	118.19	11.10	-30.0	-32.8	18.2	6.06e-01	0	41	0	90177536	22	4958
2026-01-03 10:54:09.75	118.09	11.19	-30.0	-32.7	18.2	6.07e-01	0	42	0	92274688	22	4943
2026-01-03 10:54:10.76	117.99	11.28	-30.0	-32.7	18.3	6.06e-01	0	42	0	94371840	22	4933
2026-01-03 10:54:11.76	117.89	11.37	-30.1	-33.0	18.1	6.06e-01	0	42	0	95944704	22	5036
2026-01-03 10:54:12.77	117.79	11.45	-30.0	-32.8	18.2	6.06e-01	0	42	0	98041856	22	4963
2026-01-03 10:54:13.77	117.69	11.54	-30.1	-32.9	18.2	6.07e-01	0	42	0	99614720	22	4987
2026-01-03 10:54:14.78	117.58	11.63	-30.0	-32.8	18.3	6.06e-01	0	42	0	101711872	22	4940
2026-01-03 10:54:15.79	117.48	11.72	-30.0	-32.9	18.3	6.07e-01	0	42	0	103284736	22	4975
2026-01-03 10:54:16.79	117.37	11.81	-30.0	-32.8	18.3	6.08e-01	0	42	0	105381888	22	4966
2026-01-03 10:54:17.80	117.27	11.90	-30.0	-32.8	18.3	6.07e-01	0	42	0	107479040	22	4950
2026-01-03 10:54:18.80	117.16	11.99	-30.0	-32.7	18.4	6.07e-01	0	42	0	109051904	22	4930
2026-01-03 10:54:19.81	117.06	12.08	-30.1	-33.0	18.2	6.08e-01	0	42	0	111149056	22	5020
2026-01-03 10:54:20.82	116.95	12.18	-30.0	-32.7	18.4	6.09e-01	0	42	0	113246208	22	4929
2026-01-03 10:54:21.83	116.84	12.27	-29.9	-32.4	18.6	6.08e-01	0	42	0	114819072	22	4797
2026-01-03 10:54:22.83	116.73	12.36	-29.8	-32.7	18.7	6.08e-01	0	42	0	116916224	21	5021
2026-01-03 10:54:23.84	116.62	12.45	-29.8	-32.6	18.7	6.07e-01	0	42	0	118489088	21	4998
2026-01-03 10:54:24.84	116.51	12.54	-29.8	-32.7	18.7	6.06e-01	0	42	0	120586240	21	5023
2026-01-03 10:54:25.85	116.40	12.63	-29.7	-32.4	18.9	6.05e-01	0	42	0	122159104	21	4909
2026-01-03 10:54:26.85	116.29	12.73	-29.7	-32.4	18.9	6.07e-01	0	42	0	124256256	21	4924
2026-01-03 10:54:27.86	116.17	12.82	-29.8	-32.7	18.8	6.08e-01	0	42	0	126353408	21	5021
2026-01-03 10:54:28.86	116.06	12.91	-29.6	-32.3	19.0	6.05e-01	0	42	0	127926272	21	4886
2026-01-03 10:54:29.86	115.95	13.01	-29.6	-32.1	19.1	6.07e-01	0	42	0	130023424	21	4829
2026-01-03 10:54:30.87	115.83	13.10	-29.6	-32.1	19.1	6.05e-01	0	42	0	131596288	21	4830
2026-01-03 10:54:31.87	115.71	13.19	-29.6	-32.2	19.1	6.07e-01	0	42	0	133693440	21	4849
2026-01-03 10:54:32.88	115.60	13.29	-29.7	-32.5	18.9	6.08e-01	0	42	0	135790592	21	4954
2026-01-03 10:54:33.88	115.48	13.38	-29.7	-32.3	19.0	6.08e-01	0	42	0	137363456	21	4880
2026-01-03 10:54:34.89	115.36	13.48	-29.6	-32.1	19.1	6.06e-01	0	42	0	139460608	21	4811
2026-01-03 10:54:35.90	115.24	13.57	-29.6	-32.1	19.2	6.07e-01	0	42	0	141033472	21	4808
2026-01-03 10:54:36.90	115.12	13.67	-29.6	-32.0	19.2	6.07e-01	0	42	0	143130624	21	4781
2026-01-03 10:54:37.90	115.00	13.76	-29.6	-32.2	19.1	6.07e-01	0	42	0	145227776	21	4826
2026-01-03 10:54:38.91	114.88	13.86	-29.5	-32.0	19.2	6.05e-01	0	42	0	146800640	21	4770
2026-01-03 10:54:39.92	114.75	13.96	-29.7	-32.3	19.1	6.08e-01	0	42	0	148897792	21	4867
2026-01-03 10:54:40.92	114.63	14.05	-29.6	-32.1	19.2	6.07e-01	0	42	0	150470656	21	4788
2026-01-03 10:54:41.93	114.51	14.15	-29.6	-32.1	19.2	6.08e-01	0	42	0	152567808	21	4792
2026-01-03 10:54:42.93	114.38	14.25	-29.6	-32.0	19.3	6.06e-01	0	42	0	154664960	21	4773
2026-01-03 10:54:43.93	114.26	14.35	-29.7	-32.2	19.2	6.06e-01	0	42	0	156237824	21	4820
2026-01-03 10:54:44.93	114.13	14.44	-29.6	-32.0	19.3	6.08e-01	0	42	0	158334976	21	4741
2026-01-03 10:54:45.94	114.00	14.54	-29.6	-32.0	19.3	6.06e-01	0	42	0	159907840	21	4758
2026-01-03 10:54:46.95	113.87	14.64	-29.6	-32.0	19.3	6.05e-01	0	42	0	162004992	21	4755
2026-01-03 10:54:47.95	113.74	14.74	-29.7	-32.2	19.2	6.08e-01	0	42	0	163577856	21	4819
2026-01-03 10:54:48.96	113.61	14.84	-29.6	-32.1	19.3	6.07e-01	0	42	0	165675008	21	4772
2026-01-03 10:54:49.97	113.48	14.94	-29.6	-32.1	19.3	6.08e-01	0	42	0	167772160	21	4779
2026-01-03 10:54:50.97	113.35	15.04	-29.6	-32.0	19.3	6.09e-01	0	42	0	169345024	21	4768
2026-01-03 10:54:51.98	113.21	15.14	-29.7	-32.2	19.2	6.07e-01	0	42	0	171442176	21	4824
2026-01-03 10:54:52.99	113.08	15.24	-29.6	-32.0	19.3	6.04e-01	0	42	0	173015040	21	4755
2026-01-03 10:54:53.99	112.94	15.34	-29.6	-32.0	19.4	6.10e-01	0	42	0	175112192	21	4744
2026-01-03 10:54:54.99	112.80	15.44	-29.7	-32.2	19.3	6.06e-01	0	42	0	177209344	21	4820
2026-01-03 10:54:55.99	112.67	15.54	-29.5	-31.9	19.4	6.09e-01	0	42	0	178782208	21	4728
2026-01-03 10:54:57.00	112.53	15.64	-29.5	-31.8	19.5	6.06e-01	0	42	0	180879360	21	4687
2026-01-03 10:54:57.99	112.39	15.74	-29.6	-31.9	19.5	6.07e-01	0	42	0	182452224	21	4721
2026-01-03 10:54:58.99	112.25	15.85	-29.5	-31.7	19.6	6.06e-01	0	42	0	184549376	21	4655
2026-01-03 10:55:00.00	112.11	15.95	-29.6	-31.9	19.5	6.06e-01	0	42	0	186646528	21	4710
2026-01-03 10:55:01.00	111.96	16.05	-29.5	-31.6	19.7	6.08e-01	0	42	0	188219392	21	4594
2026-01-03 10:55:02.01	111.82	16.15	-29.5	-31.6	19.7	6.07e-01	0	42	0	190316544	21	4585
2026-01-03 10:55:03.02	111.67	16.26	-29.5	-31.8	19.6	6.07e-01	0	42	0	191889408	21	4659
2026-01-03 10:55:04.02	111.53	16.36	-29.5	-31.6	19.7	6.08e-01	0	42	0	193986560	21	4584
2026-01-03 10:55:05.03	111.38	16.47	-29.5	-31.5	19.7	6.07e-01	0	42	0	196083712	21	4577
2026-01-03 10:55:06.04	111.23	16.57	-29.5	-31.6	19.7	6.05e-01	0	42	0	197656576	21	4587
2026-01-03 10:55:07.04	111.08	16.67	-29.3	-31.7	19.9	6.09e-01	0	42	0	199753728	20	4756
2026-01-03 10:55:08.04	110.93	16.78	-29.4	-31.9	19.8	6.09e-01	0	43	0	201326592	20	4803
2026-01-03 10:55:09.05	110.78	16.88	-29.3	-31.7	19.9	6.06e-01	0	42	0	203423744	20	4743
2026-01-03 10:55:10.06	110.63	16.99	-29.4	-31.9	19.8	6.06e-01	0	42	0	205520896	20	4799
2026-01-03 10:55:11.06	110.47	17.10	-29.4	-31.9	19.8	6.07e-01	0	42	0	207093760	20	4820
2026-01-03 10:55:12.07	110.32	17.20	-29.5	-32.1	19.7	6.07e-01	0	42	0	209190912	20	4875
2026-01-03 10:55:13.08	110.16	17.31	-29.5	-32.1	19.7	6.04e-01	0	42	0	210763776	20	4870
2026-01-03 10:55:14.09	110.00	17.42	-29.5	-32.2	19.7	6.07e-01	0	42	0	212860928	20	4921
2026-01-03 10:55:15.09	109.84	17.52	-29.5	-32.1	19.7	6.06e-01	0	42	0	214958080	20	4867
2026-01-03 10:55:16.10	109.68	17.63	-29.5	-32.1	19.7	6.07e-01	0	43	0	216530944	20	4888
2026-01-03 10:55:17.10	109.52	17.74	-29.5	-32.3	19.6	6.06e-01	0	42	0	218628096	20	4928
2026-01-03 10:55:18.11	109.36	17.85	-29.5	-32.3	19.6	6.06e-01	0	43	0	220200960	20	4928
2026-01-03 10:55:19.11	109.20	17.95	-29.6	-32.4	19.5	6.06e-01	0	42	0	222298112	20	4977
2026-01-03 10:55:20.12	109.03	18.06	-29.6	-32.5	19.5	6.06e-01	0	43	0	224395264	20	5016
2026-01-03 10:55:21.12	108.86	18.17	-29.6	-32.4	19.6	6.06e-01	0	42	0	225968128	20	4979
2026-01-03 10:55:22.13	108.70	18.28	-29.7	-32.6	19.5	6.05e-01	0	43	0	228065280	20	5027
2026-01-03 10:55:23.13	108.53	18.39	-29.8	-32.8	19.3	6.08e-01	0	42	0	229638144	20	5119
2026-01-03 10:55:24.14	108.36	18.50	-29.6	-32.4	19.5	6.07e-01	0	43	0	231735296	20	4979
2026-01-03 10:55:25.15	108.18	18.61	-29.5	-32.2	19.7	6.06e-01	0	42	0	233308160	20	4895
2026-01-03 10:55:26.15	108.01	18.72	-29.5	-32.2	19.7	6.08e-01	0	42	0	235405312	20	4911
2026-01-03 10:55:27.16	107.84	18.83	-29.5	-32.3	19.7	6.03e-01	0	43	0	237502464	20	4920
2026-01-03 10:55:28.17	107.66	18.94	-29.6	-32.4	19.6	6.08e-01	0	43	0	239075328	20	4977
2026-01-03 10:55:29.17	107.49	19.05	-29.5	-32.2	19.8	6.06e-01	0	43	0	241172480	20	4889
2026-01-03 10:55:30.18	107.31	19.17	-29.5	-32.2	19.7	6.07e-01	0	42	0	243269632	20	4899
2026-01-03 10:55:31.19	107.13	19.28	-29.6	-32.4	19.6	6.06e-01	0	43	0	244842496	20	4982
2026-01-03 10:55:32.20	106.94	19.39	-29.7	-32.8	19.4	6.07e-01	0	43	0	246939648	20	5111
2026-01-03 10:55:33.20	106.76	19.50	-29.7	-32.6	19.5	6.06e-01	0	43	0	248512512	20	5048
2026-01-03 10:55:34.20	106.58	19.61	-29.7	-32.5	19.5	6.08e-01	0	42	0	250609664	20	5016
2026-01-03 10:55:35.20	106.39	19.72	-29.7	-32.6	19.5	6.06e-01	0	42	0	252706816	20	5022
2026-01-03 10:55:36.21	106.21	19.84	-29.7	-32.6	19.5	6.07e-01	0	42	0	254279680	20	5045
2026-01-03 10:55:37.22	106.02	19.95	-29.7	-32.7	19.5	6.07e-01	0	43	0	256376832	20	5054
2026-01-03 10:55:38.23	105.83	20.07	-29.6	-32.4	19.6	6.07e-01	0	43	0	257949696	20	4970
2026-01-03 10:55:39.23	105.64	20.18	-29.6	-32.3	19.8	6.09e-01	0	43	0	260046848	20	4914
2026-01-03 10:55:40.24	105.44	20.29	-29.6	-32.4	19.7	6.07e-01	0	42	0	261619712	20	4968
2026-01-03 10:55:41.24	105.25	20.41	-29.7	-32.7	19.5	6.08e-01	0	43	0	263716864	20	5072
2026-01-03 10:55:42.25	105.05	20.52	-29.7	-32.5	19.6	6.04e-01	0	43	0	265814016	20	5010
2026-01-03 10:55:43.25	104.86	20.64	-29.8	-32.9	19.4	6.07e-01	0	43	0	267386880	20	5141
2026-01-03 10:55:44.26	104.66	20.75	-29.8	-32.8	19.4	6.07e-01	0	42	0	269484032	20	5111
2026-01-03 10:55:45.25	104.46	20.86	-29.8	-33.0	19.3	6.05e-01	0	43	0	271581184	20	5168
2026-01-03 10:55:46.26	104.25	20.98	-29.8	-32.9	19.4	6.06e-01	0	43	0	273154048	20	5156
2026-01-03 10:55:47.26	104.05	21.09	-29.9	-33.2	19.2	6.07e-01	0	43	0	275251200	20	5242
2026-01-03 10:55:47.87	103.93	21.17	-29.9	-33.1	19.2	6.03e-01	0	42	0	276824064	20	5219
2026-01-03 10:55:49.44	103.60	21.35	-29.8	-33.0	19.3	6.08e-01	0	43	0	279969792	20	5178
2026-01-03 10:55:50.02	103.48	21.41	-29.7	-32.7	19.5	6.07e-01	0	43	0	281018368	20	5085
2026-01-03 10:55:51.61	103.15	21.60	-29.7	-32.6	19.6	6.07e-01	0	43	0	284164096	20	5044
2026-01-03 10:55:52.19	103.03	21.66	-29.6	-32.4	19.7	6.07e-01	0	43	0	285212672	20	4975
2026-01-03 10:55:53.77	102.69	21.85	-29.7	-32.7	19.5	6.07e-01	0	43	0	287834112	20	5069
2026-01-03 10:55:54.39	102.56	21.92	-29.7	-32.7	19.5	6.08e-01	0	43	0	289406976	20	5065
2026-01-03 10:55:55.97	102.22	22.10	-29.9	-33.2	19.3	6.06e-01	0	43	0	292028416	20	5236
2026-01-03 10:55:56.55	102.09	22.17	-29.8	-33.0	19.4	6.08e-01	0	43	0	293076992	20	5180
2026-01-03 10:55:58.14	101.74	22.36	-29.9	-33.2	19.2	6.08e-01	0	43	0	296222720	20	5252
2026-01-03 10:55:58.72	101.61	22.42	-29.8	-33.0	19.4	6.07e-01	0	42	0	297271296	20	5170
2026-01-03 10:56:00.31	101.25	22.61	-29.9	-33.0	19.4	6.08e-01	0	43	0	300417024	20	5190
2026-01-03 10:56:00.89	101.12	22.68	-29.8	-33.0	19.4	6.04e-01	0	43	0	301465600	20	5179
2026-01-03 10:56:02.49	100.76	22.87	-29.8	-32.9	19.5	6.07e-01	0	43	0	304087040	20	5138
2026-01-03 10:56:03.08	100.62	22.93	-29.8	-33.0	19.4	6.07e-01	0	43	0	305659904	20	5162
2026-01-03 10:56:04.66	100.25	23.12	-30.1	-33.3	18.9	6.09e-01	0	43	0	308281344	21	5166
2026-01-03 10:56:05.25	100.11	23.19	-30.0	-33.0	19.1	6.06e-01	0	43	0	309329920	21	5050
2026-01-03 10:56:06.83	99.74	23.38	-29.8	-32.4	19.5	6.05e-01	0	43	0	312475648	21	4827
2026-01-03 10:56:07.46	99.59	23.45	-29.8	-32.3	19.6	6.06e-01	0	43	0	313524224	21	4794
2026-01-03 10:56:08.90	99.25	23.62	-29.7	-32.1	19.6	6.07e-01	0	43	0	316145664	21	4752
2026-01-03 10:56:09.61	99.07	23.70	-29.6	-31.9	19.8	6.07e-01	0	43	0	317718528	21	4664
2026-01-03 10:56:10.90	98.76	23.85	-29.6	-31.9	19.8	6.06e-01	0	43	0	320339968	21	4687
2026-01-03 10:56:11.62	98.58	23.94	-29.7	-32.0	19.8	6.07e-01	0	42	0	321388544	21	4690
2026-01-03 10:56:12.92	98.26	24.09	-29.8	-32.3	19.6	6.07e-01	0	42	0	324009984	21	4800
2026-01-03 10:56:13.63	98.08	24.18	-29.8	-32.4	19.5	6.06e-01	0	43	0	325058560	21	4831
2026-01-03 10:56:14.93	97.75	24.33	-29.9	-32.5	19.5	6.08e-01	0	43	0	327680000	21	4864
2026-01-03 10:56:15.65	97.57	24.41	-29.9	-32.6	19.4	6.07e-01	0	43	0	329252864	21	4894
2026-01-03 10:56:16.94	97.24	24.57	-29.9	-32.5	19.4	6.07e-01	0	43	0	331350016	21	4884
2026-01-03 10:56:17.66	97.05	24.65	-29.9	-32.6	19.4	6.05e-01	0	43	0	332922880	21	4908
2026-01-03 10:56:18.95	96.72	24.80	-29.9	-32.7	19.4	6.06e-01	0	43	0	335020032	21	4928
2026-01-03 10:56:19.67	96.53	24.89	-29.8	-32.2	19.6	6.07e-01	0	43	0	336592896	21	4774
2026-01-03 10:56:20.96	96.19	25.04	-29.6	-31.8	19.9	6.06e-01	0	43	0	339214336	21	4642
2026-01-03 10:56:21.68	96.00	25.12	-29.7	-31.9	19.8	6.05e-01	0	43	0	340262912	21	4674
2026-01-03 10:56:22.98	95.65	25.28	-29.7	-32.2	19.7	6.05e-01	0	43	0	342884352	21	4753
2026-01-03 10:56:23.70	95.45	25.36	-29.7	-32.2	19.7	6.07e-01	0	43	0	343932928	21	4749
2026-01-03 10:56:24.99	95.10	25.51	-29.7	-32.0	19.8	6.07e-01	0	43	0	346554368	21	4697
2026-01-03 10:56:25.71	94.90	25.60	-29.8	-32.2	19.7	6.07e-01	0	43	0	348127232	21	4780
2026-01-03 10:56:26.99	94.55	25.75	-29.7	-32.0	19.8	6.08e-01	0	43	0	350224384	21	4712
2026-01-03 10:56:27.74	94.34	25.83	-29.6	-31.8	19.9	6.03e-01	0	43	0	351797248	21	4627
2026-01-03 10:56:29.03	93.97	25.98	-29.6	-31.9	19.9	6.07e-01	0	43	0	353894400	21	4666
2026-01-03 10:56:29.75	93.77	26.07	-29.7	-32.0	19.8	6.06e-01	0	43	0	355467264	21	4698
2026-01-03 10:56:31.04	93.40	26.22	-29.7	-32.1	19.7	6.08e-01	0	43	0	358088704	21	4744
2026-01-03 10:56:31.76	93.19	26.30	-29.6	-31.8	19.9	6.06e-01	0	43	0	359137280	21	4629
2026-01-03 10:56:33.06	92.82	26.45	-29.5	-31.5	20.1	6.06e-01	0	43	0	361758720	21	4542
2026-01-03 10:56:33.78	92.61	26.54	-29.5	-31.5	20.1	6.05e-01	0	43	0	362807296	21	4547
2026-01-03 10:56:35.06	92.23	26.68	-29.6	-31.7	20.0	6.07e-01	0	43	0	365428736	21	4594
2026-01-03 10:56:35.78	92.01	26.77	-29.5	-31.4	20.2	6.06e-01	0	43	0	367001600	21	4506
2026-01-03 10:56:37.06	91.63	26.91	-29.6	-31.8	20.0	6.06e-01	0	43	0	369098752	21	4629
2026-01-03 10:56:37.79	91.41	27.00	-29.8	-32.2	19.7	6.07e-01	0	43	0	370671616	21	4746
2026-01-03 10:56:39.08	91.02	27.14	-29.7	-32.1	19.8	6.07e-01	0	43	0	372768768	21	4727
2026-01-03 10:56:39.80	90.80	27.22	-29.7	-31.9	19.8	6.08e-01	0	43	0	374341632	21	4676
2026-01-03 10:56:41.09	90.40	27.37	-29.4	-31.2	20.3	6.05e-01	0	43	0	376963072	21	4431
2026-01-03 10:56:41.81	90.18	27.45	-29.4	-31.3	20.3	6.08e-01	0	43	0	378011648	21	4476
2026-01-03 10:56:43.10	89.77	27.60	-29.4	-31.4	20.3	6.08e-01	0	43	0	380633088	21	4490
2026-01-03 10:56:43.83	89.54	27.68	-29.3	-31.5	20.5	6.07e-01	0	43	0	381681664	20	4628
2026-01-03 10:56:45.12	89.13	27.82	-29.2	-31.3	20.5	6.04e-01	0	43	0	384303104	20	4585
2026-01-03 10:56:45.83	88.91	27.90	-29.3	-31.6	20.4	6.07e-01	0	43	0	385875968	20	4671
2026-01-03 10:56:47.13	88.49	28.04	-29.4	-31.6	20.4	6.06e-01	0	43	0	387973120	20	4682
2026-01-03 10:56:47.85	88.25	28.12	-29.3	-31.4	20.5	6.07e-01	0	43	0	389545984	20	4609
2026-01-03 10:56:49.14	87.83	28.26	-29.4	-31.6	20.4	6.06e-01	0	43	0	391643136	20	4678
2026-01-03 10:56:49.86	87.60	28.34	-29.4	-31.7	20.3	6.06e-01	0	43	0	393216000	20	4707
2026-01-03 10:56:51.14	87.17	28.48	-29.4	-31.8	20.3	6.06e-01	0	43	0	395313152	20	4733
2026-01-03 10:56:51.90	86.92	28.56	-29.4	-31.9	20.2	6.06e-01	0	43	0	396886016	20	4752
2026-01-03 10:56:53.19	86.48	28.70	-29.5	-32.0	20.1	6.05e-01	0	43	0	399507456	20	4811
2026-01-03 10:56:53.91	86.24	28.78	-29.5	-31.9	20.2	6.08e-01	0	43	0	400556032	20	4782
2026-01-03 10:56:55.21	85.80	28.92	-29.1	-31.1	20.7	6.06e-01	0	43	0	403177472	20	4511
2026-01-03 10:56:55.93	85.55	28.99	-29.1	-31.1	20.7	6.06e-01	0	43	0	404750336	20	4512
2026-01-03 10:56:57.22	85.10	29.13	-29.2	-31.4	20.5	6.04e-01	0	43	0	406847488	20	4613
2026-01-03 10:56:57.94	84.85	29.20	-29.3	-31.4	20.5	6.05e-01	0	43	0	408420352	20	4611
2026-01-03 10:56:59.23	84.40	29.33	-29.4	-31.8	20.3	6.08e-01	0	43	0	410517504	20	4752
2026-01-03 10:56:59.95	84.15	29.41	-29.4	-31.7	20.3	6.08e-01	0	43	0	412090368	20	4719
2026-01-03 10:57:01.25	83.69	29.54	-29.1	-31.0	20.7	6.07e-01	0	43	0	414711808	20	4493
2026-01-03 10:57:01.97	83.43	29.61	-29.0	-30.9	20.8	6.07e-01	0	43	0	415760384	20	4451
2026-01-03 10:57:03.26	82.97	29.74	-29.0	-30.9	20.8	6.09e-01	0	43	0	418381824	20	4445
2026-01-03 10:57:03.98	82.70	29.81	-29.0	-30.9	20.8	6.03e-01	0	43	0	419430400	20	4453
2026-01-03 10:57:05.28	82.23	29.94	-29.1	-31.0	20.8	6.08e-01	0	43	0	422051840	20	4481
2026-01-03 10:57:06.00	81.97	30.01	-29.1	-31.0	20.7	6.05e-01	0	43	0	423624704	20	4475
2026-01-03 10:57:07.29	81.49	30.13	-29.1	-31.0	20.8	6.07e-01	0	43	0	425721856	20	4497
2026-01-03 10:57:08.01	81.22	30.20	-29.1	-31.0	20.8	6.06e-01	0	43	0	427294720	20	4472
2026-01-03 10:57:09.30	80.74	30.32	-28.9	-30.5	21.0	6.06e-01	0	43	0	429391872	20	4343
2026-01-03 10:57:10.02	80.47	30.39	-29.0	-30.8	20.9	6.07e-01	0	43	0	430964736	20	4424
2026-01-03 10:57:11.30	79.99	30.50	-29.1	-31.0	20.7	6.07e-01	0	43	0	433586176	20	4489
2026-01-03 10:57:12.02	79.72	30.57	-29.0	-30.8	20.9	6.07e-01	0	43	0	434634752	20	4418
2026-01-03 10:57:13.31	79.22	30.69	-29.1	-31.1	20.7	6.07e-01	0	43	0	437256192	20	4515
2026-01-03 10:57:14.04	78.94	30.75	-29.1	-31.1	20.7	6.07e-01	0	43	0	438304768	20	4507
2026-01-03 10:57:15.33	78.44	30.86	-29.1	-31.0	20.8	6.08e-01	0	43	0	440926208	20	4474
2026-01-03 10:57:16.05	78.16	30.93	-29.1	-31.0	20.8	6.07e-01	0	43	0	442499072	20	4475
2026-01-03 10:57:17.34	77.66	31.04	-29.4	-41.1	3.8	7.45e-01	0	43	104	444071936	20	13828
2026-01-03 10:57:18.06	77.38	31.10	-29.5	-41.5	3.8	7.44e-01	0	43	104	444071936	20	14266
2026-01-03 10:57:19.35	76.87	31.20	-29.8	-42.2	3.8	7.44e-01	0	43	104	444071936	20	15021
2026-01-03 10:57:20.07	76.58	31.26	-29.8	-42.1	3.8	7.44e-01	0	43	104	444071936	20	14809
2026-01-03 10:57:21.36	76.06	31.36	-30.1	-42.4	3.8	7.44e-01	0	43	104	444071936	21	14770
2026-01-03 10:57:22.08	75.78	31.42	-30.3	-42.9	3.8	7.44e-01	0	43	104	444071936	21	15306
2026-01-03 10:57:23.37	75.25	31.52	-30.9	-43.9	3.8	7.44e-01	0	43	104	444071936	22	16120
2026-01-03 10:57:24.09	74.96	31.58	-31.3	-44.5	3.8	7.44e-01	0	43	104	444071936	23	16427
2026-01-03 10:57:25.38	74.44	31.67	-31.7	-45.1	3.8	7.45e-01	0	43	104	444071936	24	16834
2026-01-03 10:57:26.10	74.14	31.72	-32.1	-46.2	3.8	7.45e-01	0	43	104	444071936	24	18349
2026-01-03 10:57:27.39	73.61	31.82	-32.4	-46.8	3.8	7.46e-01	0	43	104	444071936	25	18838
2026-01-03 10:57:28.11	73.32	31.87	-32.5	-47.3	3.8	7.45e-01	0	43	104	444071936	25	19613
2026-01-03 10:57:29.41	72.78	31.96	-32.9	-48.1	3.8	7.44e-01	0	43	104	444071936	26	20671
2026-01-03 10:57:30.13	72.48	32.01	-33.1	-48.6	3.8	7.44e-01	0	43	104	444071936	27	21342
2026-01-03 10:57:31.42	71.94	32.09	-33.3	-49.4	3.8	7.46e-01	0	43	104	444071936	27	22830
2026-01-03 10:57:32.14	71.63	32.14	-33.4	-49.8	3.8	7.43e-01	0	43	104	444071936	27	23763
2026-01-03 10:57:33.43	71.09	32.22	-33.6	-50.4	3.8	7.47e-01	0	43	104	444071936	28	24795
2026-01-03 10:57:34.15	70.78	32.26	-33.7	-50.9	3.8	7.43e-01	0	43	104	444071936	28	25987
2026-01-03 10:57:35.45	70.23	32.34	-33.7	-50.8	3.8	7.45e-01	0	43	104	444071936	28	25965
2026-01-03 10:57:36.16	69.93	32.38	-33.6	-50.3	3.8	7.42e-01	0	43	104	444071936	28	24676
2026-01-03 10:57:37.46	69.37	32.45	-33.3	-49.0	3.8	7.40e-01	0	43	104	444071936	28	21870
2026-01-03 10:57:38.17	69.07	32.49	-33.3	-48.9	3.8	7.45e-01	0	43	104	444071936	28	21703
2026-01-03 10:57:39.47	68.51	32.56	-33.4	-49.2	3.8	7.43e-01	0	43	104	444071936	28	22301
2026-01-03 10:57:40.19	68.19	32.60	-33.4	-49.2	3.8	7.41e-01	0	43	104	444071936	28	22179
2026-01-03 10:57:41.48	67.63	32.66	-33.4	-49.2	3.8	7.46e-01	0	43	104	444071936	28	22264
2026-01-03 10:57:42.20	67.32	32.70	-33.4	-49.0	3.8	7.44e-01	0	43	104	444071936	28	21882
2026-01-03 10:57:43.49	66.76	32.76	-33.3	-48.9	3.8	7.42e-01	0	43	104	444071936	28	21784
2026-01-03 10:57:44.21	66.44	32.79	-33.3	-48.9	3.8	7.43e-01	0	43	104	444071936	28	21747
2026-01-03 10:57:45.51	65.87	32.84	-33.3	-48.9	3.8	7.45e-01	0	43	104	444071936	28	21837
2026-01-03 10:57:46.22	65.56	32.87	-33.2	-48.8	3.8	7.48e-01	0	43	104	444071936	28	21529
2026-01-03 10:57:47.51	64.99	32.92	-33.2	-48.3	3.8	7.49e-01	0	43	104	444071936	28	20658
2026-01-03 10:57:48.23	64.67	32.95	-33.2	-48.4	3.8	7.44e-01	0	43	104	444071936	28	20873
2026-01-03 10:57:49.53	64.09	32.99	-33.3	-48.9	3.8	7.43e-01	0	43	104	444071936	28	21748
2026-01-03 10:57:50.25	63.77	33.02	-33.3	-48.8	3.8	7.46e-01	0	43	104	444071936	28	21559
2026-01-03 10:57:51.55	63.20	33.06	-33.1	-48.0	3.8	7.45e-01	0	43	104	444071936	28	19971
2026-01-03 10:57:52.26	62.88	33.08	-33.0	-47.4	3.8	7.48e-01	0	43	104	444071936	28	18972
2026-01-03 10:57:53.56	62.30	33.11	-32.7	-47.0	3.8	7.43e-01	0	43	104	444071936	27	18626
2026-01-03 10:57:54.28	61.98	33.13	-32.5	-46.3	3.8	7.46e-01	0	43	104	444071936	27	17533
2026-01-03 10:57:55.58	61.39	33.16	-32.0	-44.9	3.8	7.45e-01	0	43	104	444071936	26	15931
2026-01-03 10:57:56.30	61.07	33.18	-31.7	-44.4	3.8	7.45e-01	0	43	104	444071936	25	15671
2026-01-03 10:57:57.59	60.49	33.20	-31.5	-44.0	3.8	7.41e-01	0	43	104	444071936	25	15188
2026-01-03 10:57:58.32	60.16	33.22	-31.6	-44.2	3.8	7.47e-01	0	43	104	444071936	25	15481
2026-01-03 10:57:59.61	59.58	33.24	-31.6	-44.1	3.8	7.46e-01	0	43	104	444071936	25	15231
2026-01-03 10:58:00.33	59.25	33.25	-31.5	-44.0	3.8	7.46e-01	0	43	104	444071936	25	15167
2026-01-03 10:58:01.63	58.67	33.26	-31.7	-44.4	3.8	7.42e-01	0	43	104	444071936	25	15655
2026-01-03 10:58:02.35	58.34	33.27	-31.9	-45.1	3.8	7.45e-01	0	43	104	444071936	25	16555
2026-01-03 10:58:03.64	57.76	33.28	-31.6	-44.2	3.8	7.47e-01	0	43	104	444071936	25	15332
2026-01-03 10:58:04.36	57.43	33.28	-31.2	-43.6	3.8	7.44e-01	0	43	104	444071936	24	15009
2026-01-03 10:58:05.65	56.85	33.29	-30.9	-42.7	3.8	7.46e-01	0	43	104	444071936	24	14041
2026-01-03 10:58:06.37	56.52	33.29	-30.7	-42.7	3.8	7.40e-01	0	43	104	444071936	23	14390
2026-01-03 10:58:07.66	55.94	33.29	-30.4	-42.1	3.8	7.44e-01	0	43	104	444071936	23	13782
2026-01-03 10:58:08.38	55.61	33.29	-30.6	-42.5	3.8	7.46e-01	0	43	104	444071936	23	14173
2026-01-03 10:58:09.67	55.03	33.28	-31.0	-43.5	3.8	7.44e-01	0	43	104	444071936	23	15216
2026-01-03 10:58:10.40	54.70	33.28	-31.2	-43.9	3.8	7.44e-01	0	43	104	444071936	23	15672
2026-01-03 10:58:11.68	54.12	33.27	-32.0	-45.7	3.8	7.46e-01	0	43	104	444071936	24	17536
2026-01-03 10:58:12.40	53.80	33.26	-32.3	-46.5	3.8	7.44e-01	0	43	104	444071936	25	18388
2026-01-03 10:58:13.70	53.21	33.25	-32.9	-48.0	3.8	7.43e-01	0	43	104	444071936	26	20414
2026-01-03 10:58:14.42	52.89	33.24	-33.3	-48.8	3.8	7.47e-01	0	43	104	444071936	27	21458
2026-01-03 10:58:15.71	52.31	33.22	-33.6	-50.4	3.8	7.46e-01	0	43	104	444071936	28	24653
2026-01-03 10:58:16.43	51.98	33.20	-33.7	-50.6	3.8	7.44e-01	0	43	104	444071936	28	25280
2026-01-03 10:58:17.72	51.40	33.18	-33.7	-50.9	3.8	7.46e-01	0	43	104	444071936	28	26047
2026-01-03 10:58:18.44	51.08	33.16	-33.7	-51.0	3.8	7.48e-01	0	43	104	444071936	28	26194
2026-01-03 10:58:19.73	50.50	33.13	-33.7	-50.9	3.8	7.45e-01	0	43	104	444071936	28	26128
2026-01-03 10:58:20.45	50.18	33.11	-33.7	-50.9	3.8	7.46e-01	0	43	104	444071936	28	25944
2026-01-03 10:58:21.74	49.60	33.08	-33.7	-50.6	3.8	7.44e-01	0	43	104	444071936	28	25197
2026-01-03 10:58:22.47	49.28	33.05	-33.7	-50.8	3.8	7.43e-01	0	43	104	444071936	28	25717
2026-01-03 10:58:23.76	48.70	33.01	-33.6	-50.2	3.8	7.43e-01	0	43	104	444071936	28	24353
2026-01-03 10:58:24.48	48.38	32.99	-33.5	-49.9	3.8	7.40e-01	0	43	104	444071936	28	23617
2026-01-03 10:58:25.77	47.81	32.95	-33.4	-49.3	3.8	7.44e-01	0	43	104	444071936	28	22462
2026-01-03 10:58:26.48	47.50	32.92	-33.3	-48.7	3.8	7.43e-01	0	43	104	444071936	28	21371
2026-01-03 10:58:27.78	46.93	32.87	-33.1	-47.8	3.8	7.48e-01	0	43	104	444071936	28	19687
2026-01-03 10:58:28.50	46.61	32.84	-33.2	-48.4	3.8	7.45e-01	0	43	104	444071936	28	20669
2026-01-03 10:58:29.80	46.04	32.78	-33.3	-48.7	3.8	7.43e-01	0	43	104	444071936	28	21212
2026-01-03 10:58:30.52	45.72	32.75	-33.3	-48.8	3.8	7.46e-01	0	43	104	444071936	28	21472
2026-01-03 10:58:31.81	45.16	32.69	-33.4	-49.5	3.8	7.46e-01	0	43	104	444071936	28	22754
2026-01-03 10:58:32.53	44.85	32.66	-33.5	-49.7	3.8	7.46e-01	0	43	104	444071936	28	23164
2026-01-03 10:58:33.83	44.29	32.59	-33.4	-49.2	3.8	7.46e-01	0	43	104	444071936	28	22124
2026-01-03 10:58:34.55	43.97	32.56	-33.4	-49.3	3.8	7.45e-01	0	43	104	444071936	28	22499
2026-01-03 10:58:35.84	43.42	32.49	-33.4	-49.3	3.8	7.47e-01	0	43	104	444071936	28	22376
2026-01-03 10:58:36.55	43.11	32.45	-33.4	-49.1	3.8	7.46e-01	0	43	104	444071936	28	22025
2026-01-03 10:58:37.85	42.56	32.38	-33.4	-49.1	3.8	7.43e-01	0	43	104	444071936	28	21997
2026-01-03 10:58:38.57	42.25	32.33	-33.4	-49.2	3.8	7.42e-01	0	43	104	444071936	28	22207
2026-01-03 10:58:39.87	41.70	32.26	-33.4	-49.1	3.8	7.47e-01	0	43	104	444071936	28	22133
2026-01-03 10:58:40.59	41.40	32.21	-33.4	-49.3	3.8	7.47e-01	0	43	104	444071936	28	22489
2026-01-03 10:58:41.89	40.85	32.13	-33.1	-48.2	3.8	7.46e-01	0	43	104	444071936	28	20368
2026-01-03 10:58:42.61	40.55	32.09	-32.9	-47.3	3.8	7.45e-01	0	43	104	444071936	28	18795
2026-01-03 10:58:43.90	40.01	32.00	-32.6	-46.5	3.8	7.48e-01	0	43	104	444071936	27	17828
2026-01-03 10:58:44.62	39.71	31.95	-32.3	-46.0	3.8	7.44e-01	0	43	104	444071936	26	17371
2026-01-03 10:58:45.92	39.17	31.86	-31.7	-44.5	3.8	7.48e-01	0	43	104	444071936	25	15770
2026-01-03 10:58:46.63	38.88	31.81	-31.4	-43.8	3.8	7.43e-01	0	43	104	444071936	25	14938
2026-01-03 10:58:47.93	38.35	31.72	-31.5	-44.1	3.8	7.49e-01	0	43	104	444071936	25	15299
2026-01-03 10:58:48.65	38.05	31.67	-31.6	-44.4	3.8	7.45e-01	0	43	104	444071936	25	15639
2026-01-03 10:58:49.94	37.53	31.57	-31.9	-45.1	3.8	7.44e-01	0	43	104	444071936	25	16547
2026-01-03 10:58:50.66	37.24	31.51	-32.1	-45.6	3.8	7.46e-01	0	43	104	444071936	25	17152
2026-01-03 10:58:51.95	36.72	31.42	-32.4	-46.7	3.8	7.49e-01	0	43	104	444071936	25	18636
2026-01-03 10:58:52.67	36.43	31.36	-32.6	-47.3	3.8	7.43e-01	0	43	104	444071936	26	19408
2026-01-03 10:58:53.97	35.91	31.25	-32.4	-46.2	3.8	7.42e-01	0	43	104	444071936	26	17723
2026-01-03 10:58:54.69	35.63	31.20	-32.2	-45.6	3.8	7.45e-01	0	43	104	444071936	26	16855
2026-01-03 10:58:55.98	35.12	31.09	-32.0	-44.9	3.8	7.44e-01	0	43	104	444071936	26	15989
2026-01-03 10:58:56.70	34.84	31.03	-31.9	-44.8	3.8	7.43e-01	0	43	104	444071936	26	15891
2026-01-03 10:58:57.99	34.33	30.92	-31.9	-45.0	3.8	7.45e-01	0	43	104	444071936	25	16416
2026-01-03 10:58:58.70	34.06	30.86	-31.9	-45.1	3.8	7.47e-01	0	43	104	444071936	25	16497
2026-01-03 10:59:00.00	33.56	30.74	-32.5	-47.2	3.8	7.44e-01	0	43	104	444071936	25	19511
2026-01-03 10:59:00.72	33.28	30.68	-32.9	-48.0	3.8	7.47e-01	0	43	104	444071936	26	20513
2026-01-03 10:59:02.01	32.79	30.57	-33.4	-49.6	3.8	7.43e-01	0	43	104	444071936	27	23394
2026-01-03 10:59:02.73	32.52	30.50	-33.5	-50.1	3.8	7.46e-01	0	43	104	444071936	28	24242
2026-01-03 10:59:04.02	32.03	30.38	-33.8	-51.8	3.8	7.43e-01	0	43	104	444071936	28	28337
2026-01-03 10:59:04.74	31.76	30.31	-33.9	-52.2	3.8	7.47e-01	0	43	104	444071936	28	29604
2026-01-03 10:59:06.04	31.28	30.19	-33.7	-51.1	3.8	7.43e-01	0	43	104	444071936	28	26494
2026-01-03 10:59:06.75	31.02	30.13	-33.7	-51.1	3.8	7.43e-01	0	43	104	444071936	28	26661
2026-01-03 10:59:08.04	30.54	30.00	-33.6	-50.9	3.8	7.43e-01	0	43	104	444071936	28	26166
2026-01-03 10:59:08.76	30.28	29.93	-33.6	-50.6	3.8	7.44e-01	0	43	104	444071936	28	25500
2026-01-03 10:59:10.05	29.81	29.81	-33.5	-50.0	3.8	7.41e-01	0	43	104	444071936	28	24011
2026-01-03 10:59:10.77	29.55	29.74	-33.5	-49.9	3.8	7.46e-01	0	43	104	444071936	28	23768
2026-01-03 10:59:12.06	29.09	29.61	-33.4	-49.6	3.8	7.45e-01	0	43	104	444071936	28	23155
2026-01-03 10:59:12.78	28.83	29.54	-33.4	-49.4	3.8	7.44e-01	0	43	104	444071936	28	22828
2026-01-03 10:59:14.08	28.37	29.40	-33.3	-48.9	3.8	7.44e-01	0	43	104	444071936	28	21705
2026-01-03 10:59:14.80	28.12	29.33	-33.2	-48.6	3.8	7.43e-01	0	43	104	444071936	28	21181
2026-01-03 10:59:16.10	27.67	29.20	-33.0	-47.7	3.8	7.43e-01	0	43	104	444071936	28	19552
2026-01-03 10:59:16.81	27.42	29.12	-32.9	-47.7	3.8	7.46e-01	0	43	104	444071936	27	19759
2026-01-03 10:59:18.11	26.97	28.99	-32.9	-47.7	3.8	7.46e-01	0	43	104	444071936	27	19727
2026-01-03 10:59:18.83	26.73	28.91	-33.1	-48.4	3.8	7.45e-01	0	43	104	444071936	27	21000
2026-01-03 10:59:20.13	26.29	28.78	-33.3	-49.1	3.8	7.45e-01	0	43	104	444071936	27	22381
2026-01-03 10:59:20.84	26.05	28.70	-33.3	-49.5	3.8	7.43e-01	0	43	104	444071936	27	23027
2026-01-03 10:59:22.14	25.61	28.56	-33.5	-50.3	3.8	7.46e-01	0	43	104	444071936	27	24913
2026-01-03 10:59:22.86	25.37	28.49	-33.5	-50.5	3.8	7.43e-01	0	43	104	444071936	27	25374
2026-01-03 10:59:24.15	24.95	28.35	-33.4	-49.9	3.8	7.44e-01	0	43	104	444071936	27	24113
2026-01-03 10:59:24.87	24.71	28.27	-33.4	-50.1	3.8	7.46e-01	0	43	104	444071936	27	24405
2026-01-03 10:59:26.17	24.29	28.13	-33.4	-49.8	3.8	7.45e-01	0	43	104	444071936	27	23908
2026-01-03 10:59:26.88	24.06	28.05	-33.4	-49.7	3.8	7.46e-01	0	43	104	444071936	27	23537
2026-01-03 10:59:28.18	23.64	27.91	-33.4	-49.7	3.8	7.43e-01	0	43	104	444071936	27	23745
2026-01-03 10:59:28.90	23.41	27.83	-33.4	-49.8	3.8	7.45e-01	0	43	104	444071936	27	23899
2026-01-03 10:59:30.20	23.00	27.68	-33.4	-49.9	3.8	7.44e-01	0	43	104	444071936	27	24060
2026-01-03 10:59:30.91	22.78	27.60	-33.3	-49.5	3.8	7.46e-01	0	43	104	444071936	27	23313
2026-01-03 10:59:32.20	22.38	27.46	-33.1	-48.5	3.8	7.46e-01	0	43	104	444071936	27	21250
2026-01-03 10:59:32.92	22.15	27.38	-32.9	-47.8	3.8	7.44e-01	0	43	104	444071936	27	20089
2026-01-03 10:59:34.22	21.75	27.23	-32.5	-46.4	3.8	7.46e-01	0	43	104	444071936	27	17826
2026-01-03 10:59:34.94	21.53	27.15	-32.3	-46.2	3.8	7.44e-01	0	43	104	444071936	26	17825
2026-01-03 10:59:36.23	21.14	27.00	-31.8	-45.1	3.8	7.46e-01	0	43	104	444071936	25	16516
2026-01-03 10:59:36.95	20.93	26.92	-31.8	-44.8	3.8	7.40e-01	0	43	104	444071936	25	16123
2026-01-03 10:59:38.25	20.54	26.77	-32.1	-45.7	3.8	7.43e-01	0	43	104	444071936	25	17249
2026-01-03 10:59:38.96	20.33	26.69	-32.3	-46.6	3.8	7.44e-01	0	43	104	444071936	25	18657
2026-01-03 10:59:40.26	19.95	26.54	-32.7	-47.6	3.8	7.44e-01	0	43	104	444071936	26	20023
2026-01-03 10:59:40.97	19.74	26.46	-32.8	-48.0	3.8	7.48e-01	0	43	104	444071936	26	20838
2026-01-03 10:59:42.27	19.37	26.31	-33.0	-48.9	3.8	7.43e-01	0	43	104	444071936	26	22382
2026-01-03 10:59:42.99	19.16	26.23	-33.1	-48.6	3.8	7.45e-01	0	43	104	444071936	27	21397
2026-01-03 10:59:44.29	18.79	26.08	-33.0	-48.4	3.8	7.45e-01	0	43	104	444071936	27	21066
2026-01-03 10:59:45.01	18.59	25.99	-33.0	-48.4	3.8	7.43e-01	0	43	104	444071936	27	21216
2026-01-03 10:59:46.30	18.23	25.84	-33.0	-48.3	3.8	7.46e-01	0	43	104	444071936	27	20987
2026-01-03 10:59:47.02	18.03	25.76	-33.0	-48.2	3.8	7.44e-01	0	43	104	444071936	27	20717
2026-01-03 10:59:48.32	17.67	25.61	-33.0	-48.2	3.8	7.43e-01	0	43	104	444071936	27	20712
2026-01-03 10:59:49.03	17.47	25.53	-33.1	-48.7	3.8	7.48e-01	0	43	104	444071936	27	21678
2026-01-03 10:59:50.33	17.12	25.37	-33.5	-50.3	3.8	7.44e-01	0	43	104	444071936	27	24997
2026-01-03 10:59:51.05	16.93	25.29	-33.5	-50.5	3.8	7.44e-01	0	43	104	444071936	28	25354
2026-01-03 10:59:52.35	16.58	25.14	-33.7	-51.6	3.8	7.45e-01	0	43	104	444071936	28	28197
2026-01-03 10:59:53.07	16.39	25.05	-33.7	-51.4	3.8	7.45e-01	0	43	104	444071936	28	27781
2026-01-03 10:59:54.36	16.05	24.90	-33.5	-50.5	3.8	7.44e-01	0	43	104	444071936	28	25332
2026-01-03 10:59:55.08	15.86	24.82	-33.5	-50.1	3.8	7.44e-01	0	43	104	444071936	28	24467
2026-01-03 10:59:56.37	15.53	24.67	-33.3	-49.3	3.8	7.46e-01	0	43	104	444071936	28	22874
2026-01-03 10:59:57.09	15.34	24.58	-33.3	-49.2	3.8	7.45e-01	0	43	104	444071936	28	22570
2026-01-03 10:59:58.39	15.01	24.43	-33.2	-49.1	3.8	7.44e-01	0	43	104	444071936	28	22224
2026-01-03 10:59:59.10	14.83	24.35	-33.2	-49.0	3.8	7.43e-01	0	43	104	444071936	28	22092
2026-01-03 11:00:00.40	14.50	24.19	-33.2	-48.9	3.8	7.44e-01	0	43	104	444071936	28	21884
2026-01-03 11:00:01.12	14.33	24.11	-33.2	-48.8	3.8	7.46e-01	0	43	104	444071936	28	21879
2026-01-03 11:00:02.41	14.01	23.96	-33.1	-48.7	3.8	7.44e-01	0	43	104	444071936	28	21504
2026-01-03 11:00:03.13	13.83	23.87	-33.1	-48.5	3.8	7.46e-01	0	43	104	444071936	28	21297
2026-01-03 11:00:04.42	13.52	23.72	-32.9	-48.0	3.8	7.45e-01	0	43	104	444071936	28	20345
2026-01-03 11:00:05.14	13.34	23.64	-32.9	-48.1	3.8	7.45e-01	0	43	104	444071936	27	20750
2026-01-03 11:00:06.44	13.03	23.49	-32.7	-47.1	3.8	7.43e-01	0	43	104	444071936	27	18892
2026-01-03 11:00:07.16	12.86	23.40	-32.5	-46.4	3.8	7.47e-01	0	43	104	444071936	27	17875
2026-01-03 11:00:08.45	12.56	23.25	-32.7	-47.1	3.8	7.45e-01	0	43	104	444071936	27	18866
2026-01-03 11:00:09.17	12.39	23.17	-32.9	-47.9	3.8	7.46e-01	0	43	104	444071936	27	20275
2026-01-03 11:00:10.47	12.09	23.01	-33.1	-49.1	3.8	7.45e-01	0	43	104	444071936	27	22670
2026-01-03 11:00:11.19	11.92	22.93	-33.2	-49.6	3.8	7.43e-01	0	43	104	444071936	27	23686
2026-01-03 11:00:12.48	11.63	22.78	-33.4	-50.5	3.8	7.47e-01	0	43	104	444071936	27	25659
2026-01-03 11:00:13.20	11.47	22.70	-33.4	-50.2	3.8	7.48e-01	0	43	104	444071936	27	24994
2026-01-03 11:00:14.49	11.18	22.55	-33.3	-49.8	3.8	7.42e-01	0	43	104	444071936	27	24072
2026-01-03 11:00:15.21	11.02	22.46	-33.3	-49.6	3.8	7.46e-01	0	43	104	444071936	27	23758
2026-01-03 11:00:16.51	10.73	22.31	-33.1	-49.1	3.8	7.47e-01	0	43	104	444071936	27	22659
2026-01-03 11:00:17.23	10.57	22.23	-33.2	-49.2	3.8	7.47e-01	0	43	104	444071936	27	22761
2026-01-03 11:00:18.52	10.29	22.08	-33.2	-49.5	3.8	7.43e-01	0	43	104	444071936	27	23388
2026-01-03 11:00:19.24	10.14	21.99	-33.2	-49.6	3.8	7.46e-01	0	43	104	444071936	27	23819
2026-01-03 11:00:20.53	9.86	21.85	-33.3	-49.9	3.8	7.47e-01	0	43	104	444071936	27	24297
2026-01-03 11:00:21.26	9.71	21.76	-33.2	-49.5	3.8	7.45e-01	0	43	104	444071936	27	23567
2026-01-03 11:00:22.55	9.43	21.61	-33.0	-48.6	3.8	7.49e-01	0	43	104	444071936	27	21669
2026-01-03 11:00:23.27	9.28	21.53	-32.9	-48.1	3.8	7.45e-01	0	43	104	444071936	27	20679
2026-01-03 11:00:24.56	9.02	21.38	-32.6	-47.1	3.8	7.42e-01	0	43	104	444071936	27	19066
2026-01-03 11:00:25.28	8.87	21.30	-32.5	-46.6	3.8	7.45e-01	0	43	104	444071936	27	18223
2026-01-03 11:00:26.58	8.60	21.15	-32.2	-46.0	3.8	7.43e-01	0	43	104	444071936	26	17746
2026-01-03 11:00:27.30	8.46	21.07	-32.3	-46.5	3.8	7.46e-01	0	43	104	444071936	26	18434
2026-01-03 11:00:28.60	8.20	20.92	-32.6	-47.7	3.8	7.45e-01	0	43	104	444071936	26	20459
2026-01-03 11:00:29.32	8.06	20.84	-32.8	-48.4	3.8	7.49e-01	0	43	104	444071936	26	21619
2026-01-03 11:00:30.61	7.80	20.69	-33.1	-49.2	3.8	7.43e-01	0	43	104	444071936	27	22848
2026-01-03 11:00:31.33	7.66	20.61	-33.2	-49.7	3.8	7.42e-01	0	43	104	444071936	27	23931
2026-01-03 11:00:32.62	7.41	20.46	-33.3	-50.0	3.8	7.46e-01	0	43	104	444071936	27	24513
2026-01-03 11:00:33.34	7.27	20.38	-33.3	-50.1	3.8	7.45e-01	0	43	104	444071936	27	24757
2026-01-03 11:00:34.63	7.02	20.24	-33.4	-50.6	3.8	7.46e-01	0	43	104	444071936	27	25944
2026-01-03 11:00:35.35	6.89	20.15	-33.5	-50.9	3.8	7.44e-01	0	43	104	444071936	27	26719
2026-01-03 11:00:36.65	6.64	20.01	-33.5	-51.3	3.8	7.45e-01	0	43	104	444071936	27	28043
2026-01-03 11:00:37.37	6.51	19.93	-33.6	-51.6	3.8	7.44e-01	0	43	104	444071936	27	28808
2026-01-03 11:00:38.66	6.27	19.78	-33.5	-51.3	3.8	7.43e-01	0	43	104	444071936	27	27889
2026-01-03 11:00:39.38	6.14	19.70	-33.5	-51.6	3.8	7.43e-01	0	43	104	444071936	27	28924
2026-01-03 11:00:40.67	5.90	19.56	-33.5	-51.4	3.8	7.44e-01	0	43	104	444071936	28	28275
2026-01-03 11:00:41.39	5.77	19.48	-33.5	-51.1	3.8	7.45e-01	0	43	104	444071936	28	27470
2026-01-03 11:00:42.69	5.54	19.34	-33.4	-50.4	3.8	7.45e-01	0	43	104	444071936	28	25501
2026-01-03 11:00:43.41	5.41	19.26	-33.2	-49.7	3.8	7.43e-01	0	43	104	444071936	28	24046
2026-01-03 11:00:44.70	5.18	19.11	-33.0	-48.6	3.8	7.44e-01	0	43	104	444071936	28	21600
2026-01-03 11:00:45.42	5.05	19.03	-32.9	-48.3	3.8	7.44e-01	0	43	104	444071936	27	21216
2026-01-03 11:00:46.72	4.83	18.89	-32.8	-47.8	3.8	7.46e-01	0	43	104	444071936	27	20271
2026-01-03 11:00:47.44	4.70	18.81	-32.9	-48.1	3.8	7.45e-01	0	43	104	444071936	27	20878
2026-01-03 11:00:48.73	4.48	18.67	-32.9	-48.3	3.8	7.43e-01	0	43	104	444071936	27	21239
2026-01-03 11:00:49.45	4.36	18.59	-32.9	-48.4	3.8	7.45e-01	0	43	104	444071936	27	21590
2026-01-03 11:00:50.75	4.14	18.45	-32.9	-48.6	3.8	7.45e-01	0	43	104	444071936	27	21809
2026-01-03 11:00:51.47	4.02	18.37	-32.9	-48.6	3.8	7.43e-01	0	43	104	444071936	27	21863
2026-01-03 11:00:52.76	3.81	18.23	-32.8	-48.0	3.8	7.44e-01	0	43	104	444071936	27	20613
2026-01-03 11:00:53.47	3.69	18.16	-32.7	-47.5	3.8	7.45e-01	0	43	104	444071936	27	19831
2026-01-03 11:00:54.77	3.48	18.02	-32.5	-46.7	3.8	7.43e-01	0	43	104	444071936	27	18552
2026-01-03 11:00:55.49	3.36	17.94	-32.3	-46.7	3.8	7.46e-01	0	43	104	444071936	26	18911
2026-01-03 11:00:56.78	3.15	17.80	-32.1	-46.0	3.8	7.46e-01	0	43	104	444071936	26	17813
2026-01-03 11:00:57.50	3.04	17.73	-31.9	-45.4	3.8	7.46e-01	0	43	104	444071936	26	17079
2026-01-03 11:00:58.79	2.83	17.59	-32.2	-46.4	3.8	7.48e-01	0	43	104	444071936	26	18337
2026-01-03 11:00:59.51	2.72	17.51	-32.4	-47.1	3.8	7.46e-01	0	43	104	444071936	26	19425
2026-01-03 11:01:00.80	2.52	17.38	-32.7	-48.2	3.8	7.42e-01	0	43	104	444071936	26	21350
2026-01-03 11:01:01.51	2.41	17.30	-32.9	-48.9	3.8	7.43e-01	0	43	104	444071936	26	22773
2026-01-03 11:01:02.80	2.21	17.17	-33.1	-50.0	3.8	7.45e-01	0	43	104	444071936	26	25215
2026-01-03 11:01:03.51	2.10	17.09	-32.9	-49.3	3.8	7.46e-01	0	43	104	444071936	26	23617
2026-01-03 11:01:04.80	1.91	16.96	-32.8	-48.9	3.8	7.46e-01	0	43	104	444071936	26	22991
2026-01-03 11:01:05.51	1.80	16.88	-32.9	-49.1	3.8	7.45e-01	0	43	104	444071936	26	23425
2026-01-03 11:01:06.81	1.61	16.75	-32.9	-49.4	3.8	7.42e-01	0	43	104	444071936	26	23924
2026-01-03 11:01:07.53	1.50	16.67	-33.0	-49.5	3.8	7.42e-01	0	43	104	444071936	26	24136
2026-01-03 11:01:08.82	1.31	16.54	-33.0	-49.8	3.8	7.45e-01	0	43	104	444071936	26	24888
2026-01-03 11:01:09.55	1.20	16.46	-33.1	-50.0	3.8	7.40e-01	0	43	104	444071936	26	25251
2026-01-03 11:01:10.85	1.01	16.33	-33.1	-49.7	3.8	7.45e-01	0	43	104	444071936	27	24337
2026-01-03 11:01:11.56	0.91	16.26	-33.0	-49.4	3.8	7.45e-01	0	43	104	444071936	27	23759
2026-01-03 11:01:12.87	0.73	16.12	-32.9	-48.8	3.8	7.45e-01	0	43	104	444071936	27	22417
2026-01-03 11:01:13.58	0.63	16.05	-32.8	-48.6	3.8	7.44e-01	0	43	104	444071936	27	22012
2026-01-03 11:01:14.88	0.44	15.92	-32.7	-48.1	3.8	7.44e-01	0	43	104	444071936	27	21098
2026-01-03 11:01:15.60	0.34	15.85	-32.7	-47.8	3.8	7.42e-01	0	43	104	444071936	27	20617
2026-01-03 11:01:16.90	0.16	15.72	-32.7	-47.8	3.8	7.45e-01	0	43	104	444071936	27	20491
2026-01-03 11:01:17.62	0.06	15.64	-32.8	-48.2	3.8	7.43e-01	0	43	104	444071936	27	21373
2026-01-03 11:01:18.91	359.89	15.51	-32.9	-48.9	3.8	7.46e-01	0	43	104	444071936	27	22695
2026-01-03 11:01:19.63	359.79	15.44	-33.0	-49.2	3.8	7.45e-01	0	43	104	444071936	27	23244
2026-01-03 11:01:20.92	359.62	15.31	-33.0	-49.4	3.8	7.45e-01	0	43	104	444071936	27	23718
2026-01-03 11:01:21.64	359.52	15.24	-33.0	-49.5	3.8	7.48e-01	0	43	104	444071936	27	23995
2026-01-03 11:01:22.94	359.35	15.11	-33.1	-49.6	3.8	7.47e-01	0	43	104	444071936	27	24193
2026-01-03 11:01:23.66	359.25	15.04	-33.1	-49.9	3.8	7.45e-01	0	43	104	444071936	27	24968
2026-01-03 11:01:24.96	359.08	14.91	-33.2	-50.5	3.8	7.45e-01	0	43	104	444071936	27	26350
2026-01-03 11:01:25.68	358.99	14.84	-33.3	-50.9	3.8	7.46e-01	0	43	104	444071936	27	27332
2026-01-03 11:01:26.97	358.82	14.72	-33.4	-51.6	3.8	7.46e-01	0	43	104	444071936	27	29223
2026-01-03 11:01:27.69	358.73	14.64	-33.4	-51.8	3.8	7.42e-01	0	43	104	444071936	27	29916
2026-01-03 11:01:28.99	358.57	14.52	-33.3	-51.2	3.8	7.47e-01	0	43	104	444071936	27	28321
2026-01-03 11:01:29.71	358.48	14.45	-33.2	-50.9	3.8	7.46e-01	0	43	104	444071936	27	27518
2026-01-03 11:01:31.00	358.32	14.32	-33.1	-50.0	3.8	7.44e-01	0	43	104	444071936	27	25236
2026-01-03 11:01:31.72	358.23	14.25	-33.0	-49.3	3.8	7.41e-01	0	43	104	444071936	27	23593
2026-01-03 11:01:33.02	358.07	14.13	-32.7	-48.2	3.8	7.47e-01	0	43	104	444071936	27	21372
2026-01-03 11:01:33.74	357.98	14.06	-32.5	-47.3	3.8	7.43e-01	0	43	104	444071936	27	19739
2026-01-03 11:01:35.04	357.82	13.94	-32.1	-46.1	3.8	7.43e-01	0	43	104	444071936	26	18053
2026-01-03 11:01:35.76	357.73	13.87	-31.8	-45.7	3.8	7.42e-01	0	43	104	444071936	25	17827
2026-01-03 11:01:37.05	357.58	13.74	-31.9	-46.2	3.8	7.44e-01	0	43	104	444071936	25	18637
2026-01-03 11:01:37.77	357.49	13.68	-32.0	-46.4	3.8	7.47e-01	0	43	104	444071936	25	18930
2026-01-03 11:01:39.07	357.34	13.55	-32.1	-47.0	3.8	7.46e-01	0	43	104	444071936	25	19862
2026-01-03 11:01:39.78	357.26	13.49	-32.2	-47.3	3.8	7.42e-01	0	43	104	444071936	25	20420
2026-01-03 11:01:41.08	357.11	13.36	-32.4	-48.0	3.8	7.43e-01	0	43	104	444071936	25	21672
2026-01-03 11:01:41.80	357.02	13.30	-32.5	-48.3	3.8	7.42e-01	0	43	104	444071936	25	22256
2026-01-03 11:01:43.09	356.88	13.18	-32.3	-47.4	3.8	7.44e-01	0	43	104	444071936	25	20657
2026-01-03 11:01:43.81	356.79	13.11	-32.1	-47.0	3.8	7.45e-01	0	43	104	444071936	25	19912
2026-01-03 11:01:45.11	356.65	12.99	-31.9	-46.2	3.8	7.42e-01	0	43	104	444071936	25	18754
2026-01-03 11:01:45.83	356.57	12.92	-31.8	-45.8	3.8	7.45e-01	0	43	104	444071936	25	18074
2026-01-03 11:01:47.11	356.42	12.80	-31.7	-45.7	3.8	7.43e-01	0	43	104	444071936	25	17954
2026-01-03 11:01:47.83	356.34	12.74	-31.9	-46.2	3.8	7.43e-01	0	43	104	444071936	25	18774
2026-01-03 11:01:49.13	356.20	12.62	-32.2	-47.3	3.8	7.44e-01	0	43	104	444071936	25	20525
2026-01-03 11:01:49.85	356.12	12.55	-32.3	-47.9	3.8	7.46e-01	0	43	104	444071936	25	21514
2026-01-03 11:01:51.14	355.98	12.44	-32.6	-48.6	3.8	7.46e-01	0	43	104	444071936	26	22524
2026-01-03 11:01:51.86	355.90	12.37	-32.8	-49.2	3.8	7.43e-01	0	43	104	444071936	26	23766
2026-01-03 11:01:53.15	355.77	12.25	-32.8	-49.4	3.8	7.49e-01	0	43	104	444071936	26	24350
2026-01-03 11:01:53.87	355.69	12.19	-32.7	-49.1	3.8	7.44e-01	0	43	104	444071936	26	23724
2026-01-03 11:01:55.17	355.55	12.07	-32.8	-49.5	3.8	7.44e-01	0	43	104	444071936	26	24489
2026-01-03 11:01:55.88	355.48	12.01	-32.9	-49.7	3.8	7.44e-01	0	43	104	444071936	26	24976
2026-01-03 11:01:57.18	355.34	11.89	-32.9	-50.0	3.8	7.45e-01	0	43	104	444071936	26	25716
2026-01-03 11:01:57.89	355.27	11.83	-32.9	-50.2	3.8	7.45e-01	0	43	104	444071936	26	26205
2026-01-03 11:01:59.19	355.14	11.71	-33.0	-50.3	3.8	7.45e-01	0	43	104	444071936	26	26405
2026-01-03 11:01:59.91	355.06	11.65	-33.0	-50.5	3.8	7.46e-01	0	43	104	444071936	26	26847
2026-01-03 11:02:01.20	354.93	11.54	-33.0	-50.4	3.8	7.48e-01	0	43	104	444071936	26	26781
2026-01-03 11:02:01.92	354.86	11.47	-32.9	-50.1	3.8	7.45e-01	0	43	104	444071936	26	26079
2026-01-03 11:02:03.21	354.73	11.36	-32.8	-49.7	3.8	7.42e-01	0	43	104	444071936	26	25125
2026-01-03 11:02:03.93	354.66	11.30	-32.8	-49.5	3.8	7.43e-01	0	43	104	444071936	26	24686
2026-01-03 11:02:05.23	354.53	11.18	-32.8	-49.5	3.8	7.47e-01	0	43	104	444071936	26	24601
2026-01-03 11:02:05.95	354.46	11.12	-32.8	-49.4	3.8	7.43e-01	0	43	104	444071936	26	24447
2026-01-03 11:02:07.23	354.33	11.01	-32.8	-49.6	3.8	7.43e-01	0	43	104	444071936	26	24868
2026-01-03 11:02:07.95	354.27	10.95	-32.9	-49.9	3.8	7.47e-01	0	43	104	444071936	26	25547
2026-01-03 11:02:09.25	354.14	10.84	-32.9	-50.0	3.8	7.46e-01	0	43	104	444071936	26	25733
2026-01-03 11:02:09.97	354.07	10.77	-32.9	-50.0	3.8	7.42e-01	0	43	104	444071936	26	25832
2026-01-03 11:02:11.27	353.95	10.66	-32.9	-50.1	3.8	7.46e-01	0	43	104	444071936	26	26045
2026-01-03 11:02:11.99	353.88	10.60	-32.9	-49.9	3.8	7.47e-01	0	43	104	444071936	26	25591
2026-01-03 11:02:13.28	353.76	10.49	-32.8	-49.8	3.8	7.45e-01	0	43	104	444071936	26	25418
2026-01-03 11:02:14.00	353.69	10.43	-32.9	-50.1	3.8	7.46e-01	0	43	104	444071936	26	26044
2026-01-03 11:02:15.30	353.57	10.32	-33.0	-50.4	3.8	7.47e-01	0	43	104	444071936	26	26752
2026-01-03 11:02:16.02	353.51	10.26	-33.0	-50.5	3.8	7.46e-01	0	43	104	444071936	26	27189
2026-01-03 11:02:17.31	353.39	10.15	-33.0	-50.8	3.8	7.46e-01	0	43	104	444071936	26	27983
2026-01-03 11:02:18.02	353.33	10.09	-33.0	-50.8	3.8	7.48e-01	0	43	104	444071936	26	27773
2026-01-03 11:02:19.32	353.21	9.98	-32.9	-50.2	3.8	7.43e-01	0	43	104	444071936	26	26282
2026-01-03 11:02:20.04	353.14	9.92	-32.8	-49.8	3.8	7.45e-01	0	43	104	444071936	26	25322
2026-01-03 11:02:21.33	353.03	9.82	-32.6	-48.6	3.8	7.46e-01	0	43	104	444071936	26	22841
2026-01-03 11:02:22.05	352.97	9.76	-32.4	-48.0	3.8	7.43e-01	0	43	104	444071936	26	21527
2026-01-03 11:02:23.34	352.85	9.65	-32.1	-46.5	3.8	7.45e-01	0	43	104	444071936	26	18907
2026-01-03 11:02:24.06	352.79	9.59	-31.9	-45.7	3.8	7.44e-01	0	43	104	444071936	26	17729
2026-01-03 11:02:25.35	352.68	9.49	-31.5	-45.1	3.8	7.44e-01	0	43	104	444071936	25	17173
2026-01-03 11:02:26.06	352.62	9.43	-31.5	-44.7	3.8	7.45e-01	0	43	104	444071936	25	16556
2026-01-03 11:02:27.36	352.51	9.32	-31.6	-45.1	3.8	7.45e-01	0	43	104	444071936	25	17207
2026-01-03 11:02:28.07	352.45	9.26	-31.7	-45.6	3.8	7.38e-01	0	43	104	444071936	25	17938
2026-01-03 11:02:29.37	352.34	9.16	-31.8	-46.2	3.8	7.46e-01	0	43	104	444071936	25	18773
2026-01-03 11:02:30.09	352.28	9.10	-31.9	-46.6	3.8	7.46e-01	0	43	104	444071936	25	19408
2026-01-03 11:02:31.38	352.17	9.00	-32.2	-47.6	3.8	7.47e-01	0	43	104	444071936	25	21380
2026-01-03 11:02:32.10	352.11	8.94	-32.1	-47.5	3.8	7.45e-01	0	43	104	444071936	25	21016
2026-01-03 11:02:33.40	352.00	8.83	-31.9	-46.7	3.8	7.46e-01	0	43	104	444071936	25	19741
2026-01-03 11:02:34.12	351.94	8.78	-31.8	-46.3	3.8	7.45e-01	0	43	104	444071936	25	19059
2026-01-03 11:02:35.41	351.84	8.67	-31.8	-46.5	3.8	7.45e-01	0	43	104	444071936	25	19407
2026-01-03 11:02:36.13	351.78	8.62	-32.0	-46.9	3.8	7.46e-01	0	43	104	444071936	25	20063
2026-01-03 11:02:37.42	351.68	8.51	-32.2	-47.9	3.8	7.48e-01	0	43	104	444071936	25	21813
2026-01-03 11:02:38.14	351.62	8.46	-32.3	-48.2	3.8	7.43e-01	0	43	104	444071936	25	22637
2026-01-03 11:02:39.43	351.52	8.35	-32.5	-49.2	3.8	7.45e-01	0	43	104	444071936	25	24589
2026-01-03 11:02:40.16	351.46	8.30	-32.5	-49.5	3.8	7.42e-01	0	43	104	444071936	25	25448
2026-01-03 11:02:41.45	351.36	8.20	-32.7	-49.8	3.8	7.45e-01	0	43	104	444071936	26	25684
2026-01-03 11:02:42.17	351.30	8.14	-32.7	-50.2	3.8	7.46e-01	0	43	104	444071936	26	26713
2026-01-03 11:02:43.47	351.20	8.04	-32.7	-50.0	3.8	7.42e-01	0	43	104	444071936	26	26230
2026-01-03 11:02:44.18	351.15	7.98	-32.7	-50.0	3.8	7.43e-01	0	43	104	444071936	26	26321
2026-01-03 11:02:45.48	351.05	7.88	-32.8	-50.2	3.8	7.43e-01	0	43	104	444071936	26	26818
2026-01-03 11:02:46.20	350.99	7.83	-32.7	-50.3	3.8	7.44e-01	0	43	104	444071936	26	27140
2026-01-03 11:02:47.49	350.90	7.73	-32.8	-50.4	3.8	7.43e-01	0	43	104	444071936	26	27492
2026-01-03 11:02:48.21	350.84	7.67	-32.8	-50.5	3.8	7.46e-01	0	43	104	444071936	26	27724
2026-01-03 11:02:49.51	350.75	7.57	-32.8	-50.7	3.8	7.44e-01	0	43	104	444071936	26	28466
2026-01-03 11:02:50.23	350.69	7.52	-32.8	-50.8	3.8	7.44e-01	0	43	104	444071936	26	28590
2026-01-03 11:02:51.52	350.60	7.42	-32.8	-50.6	3.8	7.43e-01	0	43	104	444071936	26	27970
2026-01-03 11:02:52.24	350.54	7.37	-32.7	-50.3	3.8	7.44e-01	0	43	104	444071936	26	27423
2026-01-03 11:02:53.54	350.45	7.27	-32.7	-50.1	3.8	7.46e-01	0	43	104	444071936	26	26639
2026-01-03 11:02:54.26	350.40	7.21	-32.6	-49.8	3.8	7.44e-01	0	43	104	444071936	26	26170
2026-01-03 11:02:55.56	350.30	7.11	-32.6	-49.7	3.8	7.42e-01	0	43	104	444071936	26	25781
2026-01-03 11:02:56.27	350.25	7.06	-33.1	-52.2	3.8	7.46e-01	0	43	104	444071936	27	32484
2026-01-03 11:02:57.56	350.16	6.96	-33.5	-52.9	3.8	7.46e-01	0	43	104	444071936	27	33756
2026-01-03 11:02:58.27	350.11	6.91	-33.6	-52.8	3.8	7.47e-01	0	44	104	444071936	28	32665

#Closed at: 2026-01-03 11:02:58
#Recorded file [444 MB]: D:/data/31010_260103_135320.dat