passes_logs/2026/01/03/R2M6_AANII_01/R2M6_AANII_01__20260103_123010_AQUA_rec.log

#Pass ID: 20260103_123010_AQUA
#Satellite: AQUA
#Configuration: AQUA
#almurnet v.1.7.20240730
#Start time: 2026-01-03 12:30:10

#Version: 2.2.20231116
#Station: R2M6_AANII_01
#Location: 30.233357 lon 59.946436 lat
#TLE: 1 27424U 02022A   25365.92641127  .00002078  00000+0  42628-3 0  9999
#TLE: 2 27424  98.4058 327.1196 0001962  94.7781 340.6230 14.61783896258835

#Time	Az	El	Level	Level2	SNR	BER	BlckErr	Temp	State	Recorded	gain1	gain2
2026-01-03 12:30:10.00	176.27	6.95	-30.6	-35.8	5.2	7.09e-01	0	40	0	0	22	6539
2026-01-03 12:30:11.00	176.31	7.03	-31.5	-38.7	5.0	7.08e-01	0	40	104	0	23	8203
2026-01-03 12:30:12.01	176.35	7.11	-31.5	-38.0	13.4	6.07e-01	0	40	0	0	23	7602
2026-01-03 12:30:13.02	176.39	7.19	-31.3	-36.9	14.3	6.07e-01	0	40	0	1572864	23	6913
2026-01-03 12:30:14.02	176.42	7.27	-31.5	-37.8	13.7	6.08e-01	0	40	0	3670016	23	7466
2026-01-03 12:30:15.03	176.46	7.36	-31.3	-37.0	14.3	6.09e-01	0	40	0	5242880	23	6916
2026-01-03 12:30:16.03	176.50	7.44	-31.0	-35.8	15.2	6.07e-01	0	41	0	7340032	23	6254
2026-01-03 12:30:17.04	176.54	7.52	-30.7	-34.9	15.9	6.07e-01	0	41	0	9437184	23	5789
2026-01-03 12:30:18.04	176.58	7.60	-30.5	-34.1	16.5	6.08e-01	0	41	0	11010048	23	5437
2026-01-03 12:30:19.05	176.62	7.69	-30.3	-33.9	17.0	6.08e-01	0	41	0	13107200	22	5451
2026-01-03 12:30:20.05	176.66	7.77	-30.1	-33.4	17.3	6.05e-01	0	41	0	14680064	22	5271
2026-01-03 12:30:21.06	176.69	7.85	-30.1	-33.3	17.5	6.07e-01	0	41	0	16777216	22	5199
2026-01-03 12:30:22.06	176.73	7.94	-30.1	-33.4	17.4	6.08e-01	0	41	0	18874368	22	5232
2026-01-03 12:30:23.07	176.77	8.02	-30.1	-33.2	17.5	6.06e-01	0	41	0	20447232	22	5172
2026-01-03 12:30:24.08	176.81	8.11	-30.2	-33.5	17.3	6.06e-01	0	41	0	22544384	22	5290
2026-01-03 12:30:25.08	176.85	8.19	-30.0	-33.2	17.6	6.05e-01	0	41	0	24117248	22	5158
2026-01-03 12:30:26.08	176.89	8.28	-30.0	-33.0	17.6	6.07e-01	0	41	0	26214400	22	5106
2026-01-03 12:30:27.09	176.94	8.36	-30.0	-32.9	17.8	6.06e-01	0	41	0	28311552	22	5045
2026-01-03 12:30:28.10	176.98	8.45	-29.9	-32.8	17.8	6.08e-01	0	41	0	29884416	22	5026
2026-01-03 12:30:29.10	177.02	8.53	-29.9	-32.8	17.9	6.06e-01	0	41	0	31981568	22	5002
2026-01-03 12:30:30.11	177.06	8.62	-30.0	-32.8	17.8	6.05e-01	0	41	0	33554432	22	5022
2026-01-03 12:30:31.12	177.10	8.71	-30.0	-33.1	17.7	6.08e-01	0	41	0	35651584	22	5112
2026-01-03 12:30:32.12	177.14	8.80	-30.0	-32.9	17.7	6.09e-01	0	41	0	37748736	22	5061
2026-01-03 12:30:33.13	177.18	8.88	-30.1	-33.2	17.6	6.09e-01	0	41	0	39321600	22	5145
2026-01-03 12:30:34.14	177.23	8.97	-30.2	-33.6	17.3	6.08e-01	0	41	0	41418752	22	5325
2026-01-03 12:30:35.14	177.27	9.06	-30.1	-33.3	17.6	6.08e-01	0	41	0	42991616	22	5172
2026-01-03 12:30:36.15	177.31	9.15	-30.1	-33.2	17.6	6.07e-01	0	41	0	45088768	22	5159
2026-01-03 12:30:37.15	177.36	9.24	-30.1	-33.3	17.5	6.07e-01	0	41	0	47185920	22	5204
2026-01-03 12:30:38.16	177.40	9.33	-30.0	-33.0	17.7	6.06e-01	0	41	0	48758784	22	5077
2026-01-03 12:30:39.16	177.44	9.42	-30.0	-32.9	17.8	6.08e-01	0	41	0	50855936	22	5045
2026-01-03 12:30:40.16	177.49	9.50	-30.0	-33.0	17.8	6.09e-01	0	41	0	52428800	22	5051
2026-01-03 12:30:41.17	177.53	9.60	-30.0	-33.0	17.8	6.06e-01	0	41	0	54525952	22	5057
2026-01-03 12:30:42.17	177.58	9.69	-30.0	-33.0	17.8	6.06e-01	0	41	0	56623104	22	5074
2026-01-03 12:30:43.18	177.62	9.78	-29.9	-32.6	18.1	6.05e-01	0	41	0	58195968	22	4908
2026-01-03 12:30:44.18	177.67	9.87	-29.8	-32.9	18.2	6.06e-01	0	41	0	60293120	21	5143
2026-01-03 12:30:45.19	177.71	9.96	-29.9	-33.0	18.1	6.06e-01	0	41	0	61865984	21	5179
2026-01-03 12:30:46.20	177.76	10.05	-29.8	-32.7	18.3	6.09e-01	0	41	0	63963136	21	5062
2026-01-03 12:30:47.20	177.80	10.14	-29.8	-32.9	18.3	6.08e-01	0	41	0	66060288	21	5125
2026-01-03 12:30:48.21	177.85	10.24	-29.9	-33.0	18.2	6.07e-01	0	41	0	67633152	21	5169
2026-01-03 12:30:49.22	177.90	10.33	-29.8	-32.8	18.3	6.07e-01	0	41	0	69730304	21	5083
2026-01-03 12:30:50.22	177.94	10.42	-29.8	-32.9	18.3	6.07e-01	0	41	0	71303168	21	5116
2026-01-03 12:30:51.23	177.99	10.52	-29.9	-33.1	18.1	6.08e-01	0	41	0	73400320	21	5182
2026-01-03 12:30:52.23	178.04	10.61	-29.8	-32.9	18.3	6.07e-01	0	41	0	74973184	21	5109
2026-01-03 12:30:53.24	178.08	10.71	-29.8	-32.7	18.4	6.10e-01	0	42	0	77070336	21	5054
2026-01-03 12:30:54.24	178.13	10.80	-29.8	-32.7	18.4	6.06e-01	0	41	0	79167488	21	5042
2026-01-03 12:30:55.25	178.18	10.90	-29.8	-32.6	18.5	6.06e-01	0	42	0	80740352	21	5015
2026-01-03 12:30:56.26	178.23	10.99	-29.7	-32.6	18.5	6.03e-01	0	41	0	82837504	21	4992
2026-01-03 12:30:57.26	178.28	11.09	-29.7	-32.5	18.6	6.07e-01	0	41	0	84934656	21	4967
2026-01-03 12:30:58.27	178.33	11.19	-29.8	-32.6	18.5	6.06e-01	0	42	0	86507520	21	5020
2026-01-03 12:30:59.26	178.38	11.28	-29.6	-32.3	18.7	6.07e-01	0	42	0	88604672	21	4892
2026-01-03 12:31:00.27	178.43	11.38	-29.7	-32.4	18.7	6.06e-01	0	42	0	90177536	21	4913
2026-01-03 12:31:01.28	178.48	11.48	-29.6	-32.3	18.7	6.07e-01	0	42	0	92274688	21	4892
2026-01-03 12:31:02.29	178.53	11.58	-29.7	-32.4	18.6	6.06e-01	0	42	0	93847552	21	4937
2026-01-03 12:31:03.30	178.58	11.68	-29.7	-32.6	18.5	6.08e-01	0	42	0	95944704	21	4983
2026-01-03 12:31:04.30	178.63	11.77	-29.6	-32.3	18.7	6.06e-01	0	42	0	98041856	21	4887
2026-01-03 12:31:05.30	178.68	11.87	-29.6	-32.3	18.7	6.06e-01	0	42	0	99614720	21	4888
2026-01-03 12:31:06.30	178.73	11.97	-29.6	-32.2	18.8	6.06e-01	0	42	0	101711872	21	4871
2026-01-03 12:31:07.30	178.79	12.07	-29.6	-32.3	18.7	6.07e-01	0	42	0	103284736	21	4881
2026-01-03 12:31:08.31	178.84	12.17	-29.7	-32.5	18.6	6.06e-01	0	42	0	105381888	21	4951
2026-01-03 12:31:09.31	178.89	12.28	-29.7	-32.4	18.7	6.07e-01	0	42	0	107479040	21	4940
2026-01-03 12:31:10.31	178.95	12.38	-29.7	-32.5	18.6	6.08e-01	0	42	0	109051904	21	4962
2026-01-03 12:31:11.32	179.00	12.48	-29.7	-32.6	18.6	6.07e-01	0	42	0	111149056	21	4983
2026-01-03 12:31:12.32	179.05	12.58	-29.6	-32.3	18.8	6.06e-01	0	42	0	112721920	21	4882
2026-01-03 12:31:13.32	179.11	12.68	-29.6	-32.2	18.8	6.07e-01	0	42	0	114819072	21	4862
2026-01-03 12:31:14.33	179.16	12.79	-29.6	-32.2	18.8	6.07e-01	0	42	0	116391936	21	4849
2026-01-03 12:31:15.33	179.22	12.89	-29.6	-32.2	18.8	6.08e-01	0	42	0	118489088	21	4861
2026-01-03 12:31:16.34	179.27	13.00	-29.7	-32.5	18.7	6.07e-01	0	42	0	120586240	21	4943
2026-01-03 12:31:17.35	179.33	13.10	-29.6	-32.2	18.9	6.07e-01	0	42	0	122159104	21	4857
2026-01-03 12:31:18.36	179.39	13.21	-29.6	-32.1	19.0	6.07e-01	0	42	0	124256256	21	4798
2026-01-03 12:31:19.36	179.44	13.31	-29.5	-32.0	19.0	6.07e-01	0	42	0	126353408	21	4788
2026-01-03 12:31:20.37	179.50	13.42	-29.6	-32.2	18.9	6.06e-01	0	42	0	127926272	21	4856
2026-01-03 12:31:21.37	179.56	13.53	-29.7	-32.4	18.7	6.05e-01	0	42	0	130023424	21	4937
2026-01-03 12:31:22.38	179.62	13.64	-29.7	-32.4	18.7	6.07e-01	0	42	0	131596288	21	4916
2026-01-03 12:31:23.39	179.68	13.74	-29.6	-32.1	18.9	6.07e-01	0	42	0	133693440	21	4831
2026-01-03 12:31:24.40	179.74	13.85	-29.6	-32.2	18.9	6.05e-01	0	42	0	135790592	21	4853
2026-01-03 12:31:25.40	179.80	13.96	-29.7	-32.5	18.7	6.05e-01	0	42	0	137363456	21	4958
2026-01-03 12:31:26.40	179.86	14.07	-29.7	-32.4	18.7	6.07e-01	0	42	0	139460608	21	4929
2026-01-03 12:31:27.41	179.92	14.18	-29.7	-32.4	18.9	6.08e-01	0	42	0	141033472	21	4909
2026-01-03 12:31:28.42	179.98	14.29	-29.7	-32.5	18.8	6.06e-01	0	42	0	143130624	21	4939
2026-01-03 12:31:29.43	180.04	14.40	-29.6	-32.0	19.0	6.07e-01	0	42	0	144703488	21	4787
2026-01-03 12:31:30.43	180.10	14.52	-29.5	-31.8	19.2	6.06e-01	0	42	0	146800640	21	4710
2026-01-03 12:31:31.44	180.16	14.63	-29.5	-31.8	19.2	6.05e-01	0	42	0	148897792	21	4702
2026-01-03 12:31:32.45	180.23	14.74	-29.5	-31.8	19.2	6.09e-01	0	42	0	150470656	21	4722
2026-01-03 12:31:33.46	180.29	14.86	-29.5	-32.0	19.1	6.07e-01	0	42	0	152567808	21	4768
2026-01-03 12:31:34.46	180.35	14.97	-29.5	-32.0	19.1	6.05e-01	0	42	0	154664960	21	4766
2026-01-03 12:31:35.47	180.42	15.08	-29.7	-32.5	18.8	6.06e-01	0	42	0	156237824	21	4961
2026-01-03 12:31:36.47	180.48	15.20	-29.8	-32.7	18.7	6.07e-01	0	42	0	158334976	21	5018
2026-01-03 12:31:37.48	180.55	15.31	-29.7	-32.3	18.9	6.07e-01	0	42	0	159907840	21	4897
2026-01-03 12:31:38.48	180.61	15.43	-29.5	-31.9	19.2	6.07e-01	0	42	0	162004992	21	4721
2026-01-03 12:31:39.49	180.68	15.55	-29.4	-31.7	19.3	6.06e-01	0	42	0	163577856	21	4668
2026-01-03 12:31:40.49	180.75	15.66	-29.5	-31.7	19.3	6.07e-01	0	42	0	165675008	21	4666
2026-01-03 12:31:41.50	180.82	15.78	-29.5	-31.7	19.3	6.08e-01	0	42	0	167772160	21	4677
2026-01-03 12:31:42.50	180.88	15.90	-29.4	-32.0	19.4	6.05e-01	0	42	0	169345024	20	4880
2026-01-03 12:31:43.51	180.95	16.02	-29.3	-31.9	19.5	6.04e-01	0	42	0	171442176	20	4823
2026-01-03 12:31:44.52	181.02	16.14	-29.3	-31.8	19.5	6.07e-01	0	42	0	173015040	20	4812
2026-01-03 12:31:45.53	181.09	16.26	-29.3	-31.8	19.6	6.07e-01	0	42	0	175112192	20	4816
2026-01-03 12:31:46.53	181.16	16.38	-29.3	-31.9	19.5	6.04e-01	0	42	0	177209344	20	4841
2026-01-03 12:31:47.54	181.23	16.50	-29.4	-32.0	19.5	6.05e-01	0	42	0	178782208	20	4873
2026-01-03 12:31:48.55	181.30	16.63	-29.4	-31.9	19.5	6.07e-01	0	42	0	180879360	20	4847
2026-01-03 12:31:49.55	181.38	16.75	-29.3	-31.9	19.5	6.07e-01	0	42	0	182976512	20	4822
2026-01-03 12:31:50.56	181.45	16.87	-29.3	-31.9	19.5	6.07e-01	0	42	0	184549376	20	4831
2026-01-03 12:31:51.56	181.52	17.00	-29.3	-31.9	19.5	6.06e-01	0	42	0	186646528	20	4842
2026-01-03 12:31:52.56	181.59	17.12	-29.3	-31.9	19.6	6.07e-01	0	42	0	188219392	20	4838
2026-01-03 12:31:53.57	181.67	17.25	-29.3	-31.9	19.5	6.05e-01	0	42	0	190316544	20	4835
2026-01-03 12:31:54.58	181.74	17.38	-29.4	-32.0	19.5	6.06e-01	0	42	0	191889408	20	4876
2026-01-03 12:31:55.58	181.82	17.50	-29.4	-32.0	19.5	6.06e-01	0	42	0	193986560	20	4877
2026-01-03 12:31:56.58	181.90	17.63	-29.3	-31.9	19.5	6.07e-01	0	42	0	196083712	20	4846
2026-01-03 12:31:57.59	181.97	17.76	-29.4	-32.1	19.4	6.06e-01	0	42	0	197656576	20	4907
2026-01-03 12:31:58.59	182.05	17.89	-29.3	-31.9	19.5	6.08e-01	0	42	0	199753728	20	4845
2026-01-03 12:31:59.59	182.13	18.02	-29.2	-31.5	19.8	6.05e-01	0	42	0	201326592	20	4712
2026-01-03 12:32:00.58	182.21	18.14	-29.1	-31.4	19.9	6.08e-01	0	42	0	203423744	20	4667
2026-01-03 12:32:01.58	182.28	18.27	-29.1	-31.3	19.9	6.05e-01	0	42	0	204996608	20	4657
2026-01-03 12:32:02.58	182.36	18.41	-29.1	-31.4	19.8	6.04e-01	0	42	0	207093760	20	4682
2026-01-03 12:32:03.59	182.45	18.54	-29.1	-31.4	19.9	6.03e-01	0	42	0	209190912	20	4681
2026-01-03 12:32:04.59	182.53	18.67	-29.1	-31.4	19.9	6.06e-01	0	42	0	210763776	20	4670
2026-01-03 12:32:05.60	182.61	18.81	-29.2	-31.6	19.7	6.07e-01	0	42	0	212860928	20	4765
2026-01-03 12:32:06.60	182.69	18.94	-29.3	-31.8	19.7	6.05e-01	0	42	0	214958080	20	4808
2026-01-03 12:32:07.61	182.78	19.08	-29.3	-31.9	19.6	6.04e-01	0	42	0	216530944	20	4852
2026-01-03 12:32:08.62	182.86	19.21	-29.3	-31.9	19.6	6.05e-01	0	42	0	218628096	20	4864
2026-01-03 12:32:09.62	182.95	19.35	-29.3	-31.8	19.6	6.08e-01	0	42	0	220200960	20	4833
2026-01-03 12:32:10.63	183.03	19.49	-29.3	-31.9	19.6	6.07e-01	0	42	0	222298112	20	4859
2026-01-03 12:32:11.64	183.12	19.63	-29.4	-32.0	19.5	6.05e-01	0	42	0	223870976	20	4898
2026-01-03 12:32:12.64	183.21	19.77	-29.3	-31.9	19.6	6.04e-01	0	42	0	225968128	20	4858
2026-01-03 12:32:13.64	183.30	19.91	-29.2	-31.5	19.8	6.06e-01	0	42	0	228065280	20	4708
2026-01-03 12:32:14.65	183.39	20.05	-29.0	-31.2	20.0	6.06e-01	0	42	0	229638144	20	4621
2026-01-03 12:32:15.66	183.48	20.19	-29.1	-31.3	20.0	6.07e-01	0	42	0	231735296	20	4641
2026-01-03 12:32:16.66	183.57	20.33	-29.1	-31.3	20.0	6.08e-01	0	42	0	233308160	20	4649
2026-01-03 12:32:17.67	183.66	20.48	-29.2	-31.5	19.9	6.06e-01	0	42	0	235405312	20	4722
2026-01-03 12:32:18.68	183.75	20.62	-29.2	-31.7	19.8	6.08e-01	0	42	0	237502464	20	4760
2026-01-03 12:32:19.68	183.85	20.77	-29.3	-32.0	19.6	6.07e-01	0	43	0	239075328	20	4869
2026-01-03 12:32:20.69	183.94	20.91	-29.4	-32.0	19.6	6.07e-01	0	42	0	241172480	20	4869
2026-01-03 12:32:21.69	184.04	21.06	-29.4	-32.0	19.6	6.05e-01	0	42	0	242745344	20	4859
2026-01-03 12:32:22.70	184.13	21.21	-29.4	-32.0	19.6	6.06e-01	0	42	0	244842496	20	4867
2026-01-03 12:32:23.71	184.23	21.36	-29.3	-31.8	19.7	6.06e-01	0	42	0	246939648	20	4795
2026-01-03 12:32:24.71	184.33	21.51	-29.3	-31.7	19.8	6.06e-01	0	42	0	248512512	20	4759
2026-01-03 12:32:25.71	184.43	21.65	-29.4	-32.0	19.6	6.08e-01	0	42	0	250609664	20	4874
2026-01-03 12:32:26.72	184.53	21.81	-29.3	-31.7	19.8	6.07e-01	0	42	0	252182528	20	4762
2026-01-03 12:32:27.72	184.63	21.96	-29.3	-31.7	19.9	6.07e-01	0	42	0	254279680	20	4747
2026-01-03 12:32:28.73	184.73	22.11	-29.4	-31.9	19.7	6.05e-01	0	42	0	256376832	20	4828
2026-01-03 12:32:29.73	184.84	22.27	-29.4	-32.0	19.6	6.05e-01	0	42	0	257949696	20	4870
2026-01-03 12:32:30.74	184.94	22.42	-29.4	-32.0	19.6	6.06e-01	0	42	0	260046848	20	4858
2026-01-03 12:32:31.74	185.05	22.58	-29.5	-32.2	19.6	6.06e-01	0	42	0	261619712	20	4923
2026-01-03 12:32:32.75	185.15	22.73	-29.5	-32.1	19.6	6.07e-01	0	43	0	263716864	20	4897
2026-01-03 12:32:33.75	185.26	22.89	-29.5	-32.2	19.6	6.07e-01	0	43	0	265814016	20	4922
2026-01-03 12:32:34.75	185.37	23.05	-29.6	-32.5	19.4	6.06e-01	0	43	0	267386880	20	5026
2026-01-03 12:32:35.76	185.48	23.21	-29.5	-32.1	19.6	6.07e-01	0	42	0	269484032	20	4896
2026-01-03 12:32:36.76	185.59	23.37	-29.4	-32.0	19.7	6.07e-01	0	43	0	271056896	20	4829
2026-01-03 12:32:37.77	185.70	23.53	-29.4	-32.0	19.7	6.09e-01	0	42	0	273154048	20	4847
2026-01-03 12:32:38.78	185.82	23.70	-29.4	-32.0	19.7	6.07e-01	0	43	0	275251200	20	4849
2026-01-03 12:32:39.78	185.93	23.86	-29.6	-32.3	19.6	6.08e-01	0	43	0	276824064	20	4949
2026-01-03 12:32:40.78	186.05	24.02	-29.6	-32.4	19.5	6.08e-01	0	42	0	278921216	20	4976
2026-01-03 12:32:41.79	186.16	24.19	-29.6	-32.5	19.5	6.06e-01	0	43	0	280494080	20	5005
2026-01-03 12:32:42.80	186.28	24.36	-29.7	-32.8	19.2	6.08e-01	0	43	0	282591232	20	5128
2026-01-03 12:32:43.81	186.40	24.53	-29.6	-32.4	19.5	6.09e-01	0	43	0	284688384	20	4975
2026-01-03 12:32:44.81	186.52	24.69	-29.4	-32.0	19.7	6.07e-01	0	43	0	286261248	20	4836
2026-01-03 12:32:45.82	186.64	24.86	-29.3	-31.8	19.9	6.07e-01	0	42	0	288358400	20	4751
2026-01-03 12:32:46.83	186.77	25.04	-29.5	-32.1	19.7	6.06e-01	0	42	0	289931264	20	4872
2026-01-03 12:32:47.83	186.89	25.21	-29.6	-32.3	19.6	6.05e-01	0	42	0	292028416	20	4933
2026-01-03 12:32:48.83	187.02	25.38	-29.6	-32.3	19.6	6.05e-01	0	43	0	293601280	20	4945
2026-01-03 12:32:49.84	187.15	25.55	-29.6	-32.3	19.6	6.07e-01	0	43	0	295698432	20	4949
2026-01-03 12:32:50.85	187.28	25.73	-29.5	-32.2	19.6	6.07e-01	0	43	0	297795584	20	4916
2026-01-03 12:32:51.85	187.41	25.91	-29.5	-32.1	19.7	6.05e-01	0	43	0	299368448	20	4851
2026-01-03 12:32:52.86	187.54	26.09	-29.5	-32.2	19.7	6.07e-01	0	43	0	301465600	20	4904
2026-01-03 12:32:53.87	187.67	26.26	-29.4	-31.9	19.9	6.07e-01	0	43	0	303562752	20	4789
2026-01-03 12:32:54.88	187.81	26.45	-29.4	-32.0	19.8	6.08e-01	0	43	0	305135616	20	4817
2026-01-03 12:32:55.89	187.95	26.63	-29.5	-32.0	19.8	6.06e-01	0	43	0	307232768	20	4846
2026-01-03 12:32:56.89	188.08	26.81	-29.4	-32.0	19.8	6.05e-01	0	43	0	308805632	20	4838
2026-01-03 12:32:57.90	188.22	26.99	-29.5	-32.1	19.8	6.09e-01	0	42	0	310902784	20	4849
2026-01-03 12:32:58.90	188.36	27.18	-29.5	-32.2	19.7	6.09e-01	0	42	0	312999936	20	4915
2026-01-03 12:32:59.91	188.51	27.36	-29.4	-31.9	19.9	6.07e-01	0	43	0	314572800	20	4796
2026-01-03 12:33:00.92	188.65	27.55	-29.3	-31.7	20.0	6.07e-01	0	42	0	316669952	20	4737
2026-01-03 12:33:01.92	188.80	27.74	-29.3	-31.7	20.0	6.08e-01	0	42	0	318242816	20	4737
2026-01-03 12:33:02.93	188.95	27.93	-29.3	-31.6	20.1	6.06e-01	0	42	0	320339968	20	4699
2026-01-03 12:33:03.93	189.10	28.12	-29.2	-31.4	20.2	6.07e-01	0	43	0	321912832	20	4620
2026-01-03 12:33:04.94	189.25	28.31	-29.2	-31.4	20.2	6.06e-01	0	43	0	324009984	20	4638
2026-01-03 12:33:05.93	189.40	28.50	-29.4	-31.8	20.0	6.09e-01	0	42	0	326107136	20	4755
2026-01-03 12:33:06.94	189.56	28.70	-29.2	-31.3	20.2	6.06e-01	0	43	0	327680000	20	4594
2026-01-03 12:33:07.94	189.72	28.89	-29.0	-30.9	20.5	6.04e-01	0	43	0	329777152	20	4482
2026-01-03 12:33:08.95	189.88	29.09	-29.1	-31.0	20.4	6.06e-01	0	43	0	331874304	20	4495
2026-01-03 12:33:09.96	190.04	29.29	-29.0	-30.9	20.5	6.05e-01	0	43	0	333447168	20	4473
2026-01-03 12:33:10.96	190.20	29.48	-29.2	-31.3	20.3	6.07e-01	0	43	0	335544320	20	4585
2026-01-03 12:33:11.97	190.37	29.69	-29.1	-31.1	20.3	6.05e-01	0	43	0	337117184	20	4548
2026-01-03 12:33:12.98	190.54	29.89	-29.1	-31.2	20.3	6.07e-01	0	43	0	339214336	20	4571
2026-01-03 12:33:13.98	190.70	30.09	-29.3	-31.6	20.1	6.07e-01	0	42	0	340787200	20	4676
2026-01-03 12:33:14.98	190.88	30.29	-29.2	-31.4	20.2	6.07e-01	0	43	0	342884352	20	4636
2026-01-03 12:33:15.99	191.05	30.50	-29.2	-31.4	20.2	6.07e-01	0	43	0	344981504	20	4614
2026-01-03 12:33:17.00	191.23	30.71	-29.3	-31.7	20.0	6.07e-01	0	43	0	346554368	20	4729
2026-01-03 12:33:18.01	191.41	30.92	-29.5	-32.0	19.8	6.09e-01	0	43	0	348651520	20	4820
2026-01-03 12:33:19.01	191.59	31.13	-29.3	-31.6	20.1	6.08e-01	0	43	0	350224384	20	4697
2026-01-03 12:33:20.02	191.77	31.34	-29.3	-31.5	20.2	6.07e-01	0	43	0	352321536	20	4659
2026-01-03 12:33:21.02	191.96	31.55	-29.3	-31.7	20.1	6.05e-01	0	43	0	354418688	20	4705
2026-01-03 12:33:22.03	192.15	31.76	-29.3	-31.5	20.2	6.08e-01	0	43	0	355991552	20	4670
2026-01-03 12:33:23.04	192.34	31.98	-29.4	-31.8	20.0	6.09e-01	0	43	0	358088704	20	4750
2026-01-03 12:33:24.04	192.53	32.19	-29.4	-31.9	19.9	6.06e-01	0	43	0	359661568	20	4794
2026-01-03 12:33:25.05	192.73	32.41	-29.2	-31.4	20.2	6.05e-01	0	42	0	361758720	20	4622
2026-01-03 12:33:26.05	192.92	32.63	-29.3	-31.5	20.2	6.08e-01	0	43	0	363855872	20	4657
2026-01-03 12:33:27.06	193.13	32.85	-29.5	-32.1	19.9	6.08e-01	0	43	0	365428736	20	4845
2026-01-03 12:33:28.07	193.33	33.07	-29.5	-32.1	19.9	6.07e-01	0	43	0	367525888	20	4855
2026-01-03 12:33:29.07	193.54	33.30	-29.5	-32.0	19.9	6.07e-01	0	42	0	369098752	20	4830
2026-01-03 12:33:30.08	193.75	33.52	-29.7	-32.5	19.7	6.07e-01	0	43	0	371195904	20	4975
2026-01-03 12:33:31.08	193.96	33.75	-29.6	-32.4	19.8	6.06e-01	0	43	0	373293056	20	4937
2026-01-03 12:33:32.09	194.18	33.97	-29.7	-32.6	19.6	6.08e-01	0	43	0	374865920	20	5030
2026-01-03 12:33:33.09	194.39	34.20	-29.7	-32.5	19.7	6.06e-01	0	43	0	376963072	20	5002
2026-01-03 12:33:34.09	194.62	34.43	-29.8	-32.7	19.6	6.06e-01	0	43	0	378535936	20	5048
2026-01-03 12:33:35.10	194.84	34.66	-29.9	-33.1	19.4	6.07e-01	0	43	0	380633088	20	5188
2026-01-03 12:33:36.10	195.07	34.89	-30.0	-33.3	19.2	6.07e-01	0	43	0	382730240	20	5288
2026-01-03 12:33:37.10	195.30	35.12	-30.1	-33.1	18.9	6.07e-01	0	43	0	384303104	21	5106
2026-01-03 12:33:38.10	195.53	35.36	-30.4	-33.8	18.6	6.07e-01	0	43	0	386400256	21	5350
2026-01-03 12:33:39.11	195.77	35.60	-30.4	-33.9	18.5	6.07e-01	0	43	0	387973120	21	5377
2026-01-03 12:33:40.12	196.02	35.83	-30.4	-33.9	18.5	6.08e-01	0	43	0	390070272	21	5371
2026-01-03 12:33:41.12	196.26	36.07	-30.5	-34.2	18.3	6.05e-01	0	43	0	391643136	21	5516
2026-01-03 12:33:42.13	196.51	36.31	-30.6	-34.4	18.2	6.05e-01	0	43	0	393740288	21	5579
2026-01-03 12:33:43.13	196.76	36.55	-30.9	-34.8	17.6	6.04e-01	0	43	0	395837440	22	5636
2026-01-03 12:33:44.14	197.02	36.80	-30.8	-34.4	17.8	6.07e-01	0	43	0	397410304	22	5485
2026-01-03 12:33:45.15	197.28	37.04	-30.8	-34.6	17.7	6.08e-01	0	43	0	399507456	22	5569
2026-01-03 12:33:46.15	197.54	37.29	-31.0	-35.2	17.3	6.05e-01	0	43	0	401604608	22	5821
2026-01-03 12:33:47.15	197.81	37.53	-31.0	-34.9	17.5	6.07e-01	0	43	0	403177472	22	5698
2026-01-03 12:33:48.16	198.09	37.78	-30.8	-34.5	17.8	6.06e-01	0	43	0	405274624	22	5527
2026-01-03 12:33:49.16	198.36	38.03	-30.9	-34.8	17.6	6.08e-01	0	43	0	406847488	22	5653
2026-01-03 12:33:50.17	198.64	38.28	-30.8	-34.5	17.8	6.06e-01	0	43	0	408944640	22	5525
2026-01-03 12:33:51.18	198.93	38.53	-30.4	-33.5	18.5	6.08e-01	0	43	0	410517504	22	5111
2026-01-03 12:33:52.18	199.22	38.79	-30.5	-33.6	18.5	6.06e-01	0	43	0	412614656	22	5140
2026-01-03 12:33:53.18	199.51	39.04	-30.3	-33.1	18.7	6.07e-01	0	43	0	414711808	22	4978
2026-01-03 12:33:54.19	199.81	39.29	-30.2	-32.8	18.9	6.05e-01	0	43	0	416284672	22	4880
2026-01-03 12:33:55.19	200.12	39.55	-30.4	-33.4	18.5	6.07e-01	0	43	0	418381824	22	5068
2026-01-03 12:33:56.20	200.43	39.81	-30.1	-32.6	19.0	6.07e-01	0	43	0	419954688	22	4806
2026-01-03 12:33:57.21	200.74	40.07	-29.9	-32.1	19.3	6.07e-01	0	43	0	422051840	22	4635
2026-01-03 12:33:58.22	201.06	40.33	-29.8	-32.2	19.6	6.08e-01	0	43	0	424148992	21	4754
2026-01-03 12:33:59.22	201.38	40.59	-29.7	-32.1	19.6	6.08e-01	0	43	0	425721856	21	4733
2026-01-03 12:34:00.23	201.72	40.85	-29.8	-32.4	19.5	6.09e-01	0	43	0	427819008	21	4824
2026-01-03 12:34:01.23	202.05	41.11	-29.8	-32.2	19.5	6.07e-01	0	43	0	429391872	21	4761
2026-01-03 12:34:02.24	202.39	41.38	-29.5	-31.6	20.0	6.06e-01	0	43	0	431489024	21	4563
2026-01-03 12:34:03.24	202.74	41.64	-29.7	-31.9	19.8	6.05e-01	0	43	0	433586176	21	4676
2026-01-03 12:34:04.25	203.09	41.91	-29.7	-32.1	19.6	6.07e-01	0	43	0	435159040	21	4731
2026-01-03 12:34:05.25	203.44	42.17	-29.5	-31.5	20.0	6.07e-01	0	43	0	437256192	21	4540
2026-01-03 12:34:06.26	203.81	42.44	-29.4	-31.3	20.1	6.06e-01	0	43	0	438829056	21	4484
2026-01-03 12:34:07.26	204.18	42.71	-29.3	-31.4	20.3	6.07e-01	0	43	0	440926208	20	4622
2026-01-03 12:34:08.27	204.55	42.98	-29.3	-31.4	20.4	6.07e-01	0	43	0	443023360	20	4619
2026-01-03 12:34:09.27	204.94	43.24	-29.1	-30.9	20.6	6.07e-01	0	43	0	444596224	20	4467
2026-01-03 12:34:10.27	205.32	43.51	-29.2	-31.3	20.4	6.07e-01	0	43	0	446693376	20	4568
2026-01-03 12:34:11.27	205.72	43.78	-29.2	-31.3	20.4	6.08e-01	0	43	0	448266240	20	4589
2026-01-03 12:34:12.28	206.12	44.05	-28.9	-31.0	20.9	6.06e-01	0	43	0	450363392	19	4568
2026-01-03 12:34:13.28	206.53	44.32	-28.9	-31.0	21.0	6.05e-01	0	43	0	451936256	19	4573
2026-01-03 12:34:14.29	206.94	44.59	-28.9	-31.1	21.0	6.06e-01	0	43	0	454033408	19	4613
2026-01-03 12:34:15.30	207.37	44.87	-29.0	-31.3	20.8	6.07e-01	0	43	0	456130560	19	4667
2026-01-03 12:34:16.30	207.80	45.14	-28.9	-30.9	21.1	6.06e-01	0	43	0	457703424	19	4559
2026-01-03 12:34:17.31	208.24	45.41	-29.0	-31.2	20.9	6.07e-01	0	43	0	459800576	19	4647
2026-01-03 12:34:18.32	208.69	45.69	-29.0	-31.3	20.9	6.06e-01	0	43	0	461897728	19	4663
2026-01-03 12:34:19.32	209.14	45.96	-28.9	-31.1	21.0	6.07e-01	0	43	0	463470592	19	4614
2026-01-03 12:34:20.33	209.60	46.23	-28.8	-30.9	21.1	6.04e-01	0	43	0	465567744	19	4549
2026-01-03 12:34:21.34	210.07	46.50	-28.9	-31.0	21.0	6.08e-01	0	43	0	467140608	19	4595
2026-01-03 12:34:22.35	210.55	46.78	-29.1	-31.4	20.8	6.07e-01	0	43	0	469237760	19	4722
2026-01-03 12:34:23.36	211.04	47.05	-28.9	-31.0	21.1	6.06e-01	0	43	0	471334912	19	4597
2026-01-03 12:34:24.36	211.53	47.32	-28.9	-30.9	21.1	6.06e-01	0	43	0	472907776	19	4556
2026-01-03 12:34:25.36	212.03	47.59	-29.1	-31.4	20.9	6.07e-01	0	43	0	475004928	19	4708
2026-01-03 12:34:26.37	212.55	47.86	-29.2	-31.8	20.6	6.06e-01	0	43	0	476577792	19	4823
2026-01-03 12:34:27.37	213.07	48.13	-28.9	-31.0	21.1	6.06e-01	0	43	0	478674944	19	4581
2026-01-03 12:34:28.38	213.60	48.40	-29.0	-31.3	20.9	6.07e-01	0	43	0	480247808	19	4679
2026-01-03 12:34:29.38	214.14	48.67	-29.0	-31.2	21.0	6.06e-01	0	43	0	482344960	19	4646
2026-01-03 12:34:30.39	214.69	48.93	-29.1	-31.3	20.9	6.06e-01	0	43	0	484442112	19	4687
2026-01-03 12:34:31.39	215.24	49.20	-28.9	-31.0	21.1	6.07e-01	0	43	0	486014976	19	4566
2026-01-03 12:34:32.40	215.82	49.46	-29.3	-32.0	20.5	6.06e-01	0	43	0	488112128	19	4919
2026-01-03 12:34:33.41	216.40	49.73	-29.0	-31.3	20.9	6.08e-01	0	43	0	490209280	19	4665
2026-01-03 12:34:34.41	216.98	49.99	-29.2	-31.6	20.8	6.09e-01	0	43	0	491782144	19	4776
2026-01-03 12:34:35.42	217.58	50.25	-29.2	-31.8	20.6	6.06e-01	0	43	0	493879296	19	4837
2026-01-03 12:34:36.41	218.18	50.51	-29.2	-31.7	20.7	6.08e-01	0	43	0	495452160	19	4790
2026-01-03 12:34:37.42	218.81	50.76	-29.0	-31.3	20.9	6.07e-01	0	43	0	497549312	19	4660
2026-01-03 12:34:38.42	219.43	51.02	-29.1	-31.3	20.9	6.06e-01	0	43	0	499122176	19	4680
2026-01-03 12:34:39.43	220.08	51.27	-29.3	-31.8	20.6	6.07e-01	0	43	0	501219328	19	4850
2026-01-03 12:34:40.44	220.73	51.52	-29.1	-31.4	20.9	6.06e-01	0	43	0	503316480	19	4694
2026-01-03 12:34:41.44	221.39	51.77	-29.4	-32.2	20.5	6.06e-01	0	43	0	504889344	19	4965
2026-01-03 12:34:42.45	222.07	52.01	-29.4	-32.2	20.4	6.06e-01	0	43	0	506986496	19	4978
2026-01-03 12:34:43.45	222.75	52.25	-29.3	-31.9	20.6	6.07e-01	0	43	0	508559360	19	4880
2026-01-03 12:34:44.46	223.45	52.49	-29.2	-31.7	20.7	6.06e-01	0	43	0	510656512	19	4805
2026-01-03 12:34:45.46	224.15	52.73	-29.4	-32.2	20.4	6.06e-01	0	43	0	512753664	19	4974
2026-01-03 12:34:46.47	224.87	52.96	-29.2	-31.6	20.8	6.07e-01	0	43	0	514326528	19	4762
2026-01-03 12:34:47.48	225.61	53.19	-29.3	-32.0	20.5	6.06e-01	0	43	0	516423680	19	4905
2026-01-03 12:34:48.48	226.35	53.42	-29.3	-31.9	20.6	6.06e-01	0	43	0	517996544	19	4862
2026-01-03 12:34:49.49	227.10	53.64	-29.3	-31.9	20.6	6.06e-01	0	43	0	520093696	19	4860
2026-01-03 12:34:50.50	227.87	53.86	-29.5	-32.5	20.3	6.07e-01	0	43	0	522190848	19	5072
2026-01-03 12:34:51.50	228.64	54.07	-29.2	-31.8	20.7	6.04e-01	0	43	0	523763712	19	4826
2026-01-03 12:34:52.50	229.43	54.28	-29.4	-32.3	20.4	6.09e-01	0	43	0	525860864	19	5004
2026-01-03 12:34:53.51	230.23	54.48	-29.4	-32.1	20.5	6.06e-01	0	43	0	527433728	19	4941
2026-01-03 12:34:54.52	231.04	54.69	-29.6	-32.2	20.1	6.06e-01	0	43	0	529530880	20	4848
2026-01-03 12:34:55.53	231.87	54.88	-29.4	-31.7	20.4	6.07e-01	0	43	0	531628032	20	4679
2026-01-03 12:34:56.53	232.70	55.07	-29.8	-32.7	19.8	6.07e-01	0	43	0	533200896	20	5033
2026-01-03 12:34:57.54	233.55	55.26	-29.9	-33.1	19.6	6.08e-01	0	43	0	535298048	20	5170
2026-01-03 12:34:58.54	234.40	55.43	-29.8	-32.6	19.8	6.06e-01	0	43	0	536870912	20	5008
2026-01-03 12:34:59.54	235.26	55.61	-29.8	-32.7	19.8	6.07e-01	0	43	0	538968064	20	5045
2026-01-03 12:35:00.55	236.14	55.77	-30.0	-33.2	19.5	6.06e-01	0	43	0	541065216	20	5202
2026-01-03 12:35:01.56	237.03	55.94	-30.3	-33.5	19.1	6.06e-01	0	43	0	542638080	21	5205
2026-01-03 12:35:02.57	237.93	56.09	-30.1	-32.9	19.5	6.07e-01	0	43	0	544735232	21	4967
2026-01-03 12:35:03.57	238.83	56.24	-30.4	-33.8	18.8	6.07e-01	0	43	0	546308096	21	5321
2026-01-03 12:35:04.58	239.76	56.39	-30.6	-34.2	18.6	6.06e-01	0	43	0	548405248	21	5468
2026-01-03 12:35:05.59	240.69	56.52	-30.5	-33.4	18.8	6.05e-01	0	43	0	550502400	22	5055
2026-01-03 12:35:06.60	241.62	56.65	-30.9	-34.7	18.0	6.09e-01	0	43	0	552075264	22	5550
2026-01-03 12:35:07.60	242.56	56.77	-30.9	-34.6	18.0	6.08e-01	0	43	0	554172416	22	5511
2026-01-03 12:35:08.61	243.52	56.89	-30.7	-33.9	18.5	6.07e-01	0	43	0	555745280	22	5246
2026-01-03 12:35:09.62	244.48	57.00	-30.4	-33.3	18.9	6.04e-01	0	43	0	557842432	22	5008
2026-01-03 12:35:10.62	245.44	57.10	-30.4	-33.3	18.8	6.08e-01	0	43	0	559939584	22	5022
2026-01-03 12:35:11.63	246.42	57.19	-30.4	-33.3	18.9	6.05e-01	0	43	0	561512448	22	5011
2026-01-03 12:35:12.64	247.41	57.27	-30.4	-33.4	18.8	6.07e-01	0	43	0	563609600	22	5035
2026-01-03 12:35:13.64	248.39	57.35	-30.4	-33.3	18.9	6.08e-01	0	43	0	565182464	22	5022
2026-01-03 12:35:14.64	249.37	57.42	-30.5	-33.5	18.8	6.08e-01	0	43	0	567279616	22	5093
2026-01-03 12:35:15.65	250.37	57.48	-30.5	-33.6	18.7	6.07e-01	0	43	0	569376768	22	5115
2026-01-03 12:35:16.66	251.38	57.54	-30.4	-33.3	18.6	6.08e-01	0	43	0	570949632	22	5007
2026-01-03 12:35:17.67	252.38	57.58	-30.5	-33.6	18.4	6.07e-01	0	43	0	573046784	22	5111
2026-01-03 12:35:18.67	253.39	57.62	-30.6	-33.8	18.4	6.06e-01	0	43	0	574619648	22	5219
2026-01-03 12:35:19.68	254.40	57.65	-30.5	-33.5	18.6	6.08e-01	0	43	0	576716800	22	5077
2026-01-03 12:35:20.69	255.41	57.67	-30.7	-34.1	18.1	6.06e-01	0	43	0	578813952	22	5333
2026-01-03 12:35:21.69	256.42	57.68	-30.5	-33.6	18.5	6.08e-01	0	43	0	580386816	22	5141
2026-01-03 12:35:22.70	257.44	57.68	-30.5	-33.6	18.4	6.06e-01	0	43	0	582483968	22	5111
2026-01-03 12:35:23.70	258.45	57.68	-30.5	-33.4	18.6	6.06e-01	0	43	0	584056832	22	5041
2026-01-03 12:35:24.71	259.46	57.67	-30.5	-33.6	18.6	6.08e-01	0	43	0	586153984	22	5127
2026-01-03 12:35:25.72	260.48	57.65	-30.3	-33.0	18.9	6.08e-01	0	43	0	588251136	22	4903
2026-01-03 12:35:26.72	261.48	57.62	-30.4	-33.3	18.5	6.08e-01	0	43	0	589824000	22	4999
2026-01-03 12:35:27.73	262.49	57.58	-30.3	-33.0	18.7	6.07e-01	0	43	0	591921152	22	4924
2026-01-03 12:35:28.74	263.50	57.53	-30.5	-33.7	18.6	6.09e-01	0	43	0	593494016	22	5149
2026-01-03 12:35:29.74	264.49	57.48	-30.4	-33.4	18.9	6.07e-01	0	43	0	595591168	22	5028
2026-01-03 12:35:30.75	265.49	57.42	-30.4	-33.3	18.9	6.06e-01	0	43	0	597164032	22	4992
2026-01-03 12:35:31.76	266.49	57.35	-30.9	-34.6	18.0	6.06e-01	0	43	0	599261184	22	5530
2026-01-03 12:35:32.77	267.48	57.27	-30.7	-34.0	18.3	6.07e-01	0	43	0	601358336	22	5291
2026-01-03 12:35:33.77	268.45	57.19	-30.5	-33.6	18.4	6.09e-01	0	43	0	602931200	22	5132
2026-01-03 12:35:34.77	269.42	57.09	-30.3	-33.1	18.5	6.05e-01	0	43	0	605028352	22	4930
2026-01-03 12:35:35.78	270.39	56.99	-30.5	-33.6	18.1	6.07e-01	0	43	0	607125504	22	5137
2026-01-03 12:35:36.78	271.34	56.88	-30.3	-32.9	18.7	6.07e-01	0	43	0	608698368	22	4878
2026-01-03 12:35:37.79	272.29	56.77	-30.4	-33.2	18.5	6.09e-01	0	43	0	610795520	22	4994
2026-01-03 12:35:38.80	273.24	56.65	-30.2	-32.7	18.9	6.07e-01	0	43	0	612368384	22	4806
2026-01-03 12:35:39.80	274.17	56.52	-30.3	-33.0	18.6	6.06e-01	0	43	0	614465536	22	4908
2026-01-03 12:35:40.81	275.10	56.38	-30.1	-32.5	19.0	6.04e-01	0	43	0	616562688	22	4739
2026-01-03 12:35:41.81	276.01	56.24	-30.1	-32.5	19.0	6.05e-01	0	43	0	618135552	22	4751
2026-01-03 12:35:42.82	276.92	56.09	-30.3	-33.1	18.5	6.05e-01	0	43	0	620232704	22	4971
2026-01-03 12:35:43.83	277.82	55.93	-30.4	-33.3	18.6	6.05e-01	0	43	0	621805568	22	5007
2026-01-03 12:35:44.84	278.71	55.77	-30.2	-32.8	18.8	6.06e-01	0	43	0	623902720	22	4832
2026-01-03 12:35:45.84	279.58	55.60	-30.2	-32.9	18.6	6.05e-01	0	43	0	625475584	22	4870
2026-01-03 12:35:46.85	280.45	55.43	-30.5	-33.5	18.1	6.09e-01	0	43	0	627572736	22	5109
2026-01-03 12:35:47.86	281.30	55.25	-30.4	-33.2	18.4	6.07e-01	0	43	0	629669888	22	4981
2026-01-03 12:35:48.86	282.14	55.07	-30.5	-33.7	18.5	6.07e-01	0	43	0	631242752	22	5157
2026-01-03 12:35:49.87	282.98	54.88	-30.4	-33.2	18.9	6.07e-01	0	43	0	633339904	22	4983
2026-01-03 12:35:50.88	283.80	54.68	-30.7	-34.2	18.0	6.07e-01	0	43	0	635437056	22	5375
2026-01-03 12:35:51.88	284.61	54.48	-30.3	-33.1	18.8	6.07e-01	0	43	0	637009920	22	4941
2026-01-03 12:35:52.88	285.40	54.28	-30.3	-33.1	18.8	6.08e-01	0	43	0	639107072	22	4963
2026-01-03 12:35:53.89	286.19	54.07	-30.2	-32.6	19.3	6.06e-01	0	43	0	640679936	22	4761
2026-01-03 12:35:54.90	286.97	53.86	-30.6	-33.9	18.5	6.06e-01	0	43	0	642777088	22	5244
2026-01-03 12:35:55.90	287.73	53.64	-30.5	-33.4	18.7	6.04e-01	0	43	0	644874240	22	5068
2026-01-03 12:35:56.91	288.48	53.42	-30.1	-32.4	19.5	6.06e-01	0	43	0	646447104	22	4681
2026-01-03 12:35:57.91	289.22	53.19	-30.2	-32.8	19.2	6.07e-01	0	43	0	648544256	22	4822
2026-01-03 12:35:58.92	289.95	52.96	-30.1	-32.5	19.4	6.05e-01	0	43	0	650117120	22	4721
2026-01-03 12:35:59.92	290.66	52.73	-30.3	-32.9	19.1	6.07e-01	0	43	0	652214272	22	4870
2026-01-03 12:36:00.93	291.37	52.50	-30.3	-33.0	19.0	6.04e-01	0	43	0	653787136	22	4915
2026-01-03 12:36:01.94	292.07	52.26	-30.7	-34.0	18.1	6.05e-01	0	43	0	655884288	22	5282
2026-01-03 12:36:02.94	292.75	52.02	-30.3	-33.0	18.4	6.06e-01	0	43	0	657981440	22	4896
2026-01-03 12:36:03.94	293.42	51.77	-30.2	-32.8	18.8	6.08e-01	0	43	0	659554304	22	4825
2026-01-03 12:36:04.95	294.08	51.53	-30.2	-32.8	19.0	6.04e-01	0	43	0	661651456	22	4842
2026-01-03 12:36:05.95	294.73	51.28	-30.5	-33.6	18.6	6.07e-01	0	43	0	663748608	22	5105
2026-01-03 12:36:06.96	295.37	51.03	-30.5	-33.4	18.1	6.09e-01	0	43	0	665321472	22	5054
2026-01-03 12:36:07.96	296.00	50.77	-30.3	-33.1	18.0	6.08e-01	0	43	0	667418624	22	4938
2026-01-03 12:36:08.97	296.62	50.52	-30.6	-33.8	17.9	6.06e-01	0	43	0	668991488	22	5209
2026-01-03 12:36:09.98	297.23	50.26	-30.6	-33.8	18.5	6.07e-01	0	43	0	671088640	22	5202
2026-01-03 12:36:10.98	297.82	50.00	-30.8	-34.4	18.3	6.08e-01	0	43	0	672661504	22	5412
2026-01-03 12:36:11.99	298.41	49.74	-30.8	-34.4	18.0	6.05e-01	0	43	0	674758656	22	5435
2026-01-03 12:36:13.00	298.99	49.48	-30.3	-33.1	18.7	6.06e-01	0	43	0	676855808	22	4926
2026-01-03 12:36:14.00	299.56	49.21	-30.3	-33.0	19.0	6.06e-01	0	43	0	678428672	22	4890
2026-01-03 12:36:15.02	300.12	48.94	-30.6	-33.8	18.5	6.06e-01	0	43	0	680525824	22	5189
2026-01-03 12:36:16.02	300.67	48.68	-30.5	-33.5	18.4	6.06e-01	0	43	0	682098688	22	5096
2026-01-03 12:36:17.03	301.21	48.41	-30.5	-33.5	18.5	6.07e-01	0	43	0	684195840	22	5075
2026-01-03 12:36:18.03	301.73	48.14	-30.6	-33.7	18.3	6.06e-01	0	43	0	686292992	22	5172
2026-01-03 12:36:19.04	302.26	47.88	-30.4	-33.3	18.7	6.06e-01	0	43	0	687865856	22	5013
2026-01-03 12:36:20.05	302.77	47.60	-30.3	-33.1	19.0	6.05e-01	0	43	0	689963008	22	4932
2026-01-03 12:36:21.05	303.27	47.34	-30.3	-33.1	19.0	6.06e-01	0	43	0	692060160	22	4929
2026-01-03 12:36:22.06	303.76	47.06	-30.4	-33.1	19.0	6.07e-01	0	43	0	693633024	22	4942
2026-01-03 12:36:23.06	304.25	46.80	-30.5	-33.4	18.9	6.07e-01	0	43	0	695730176	22	5040
2026-01-03 12:36:24.07	304.73	46.52	-30.4	-33.2	18.9	6.09e-01	0	43	0	697303040	22	4987
2026-01-03 12:36:25.08	305.20	46.25	-30.2	-32.8	19.2	6.06e-01	0	43	0	699400192	22	4834
2026-01-03 12:36:26.08	305.65	45.98	-30.3	-32.9	19.1	6.05e-01	0	43	0	700973056	22	4878
2026-01-03 12:36:27.09	306.11	45.71	-30.5	-33.6	18.7	6.06e-01	0	43	0	703070208	22	5110
2026-01-03 12:36:28.09	306.55	45.44	-30.4	-33.3	18.9	6.06e-01	0	43	0	705167360	22	5020
2026-01-03 12:36:29.08	306.98	45.17	-30.6	-33.8	18.6	6.07e-01	0	43	0	706740224	22	5212
2026-01-03 12:36:30.09	307.41	44.90	-30.4	-33.2	18.9	6.07e-01	0	43	0	708837376	22	4985
2026-01-03 12:36:31.09	307.83	44.63	-30.3	-32.9	19.1	6.07e-01	0	43	0	710410240	22	4850
2026-01-03 12:36:32.10	308.25	44.36	-30.3	-32.9	19.1	6.08e-01	0	43	0	712507392	22	4872
2026-01-03 12:36:33.10	308.66	44.09	-30.3	-33.0	19.1	6.06e-01	0	43	0	714604544	22	4896
2026-01-03 12:36:34.11	309.06	43.82	-30.3	-32.9	19.1	6.06e-01	0	43	0	716177408	22	4865
2026-01-03 12:36:35.11	309.45	43.55	-30.1	-32.5	19.4	6.05e-01	0	43	0	718274560	22	4725
2026-01-03 12:36:36.11	309.84	43.29	-30.3	-32.9	19.1	6.03e-01	0	43	0	719847424	22	4876
2026-01-03 12:36:37.12	310.22	43.02	-30.4	-33.4	18.8	6.08e-01	0	43	0	721944576	22	5038
2026-01-03 12:36:38.12	310.59	42.75	-30.3	-33.0	19.0	6.05e-01	0	43	0	723517440	22	4917
2026-01-03 12:36:39.13	310.96	42.48	-30.4	-33.1	19.0	6.06e-01	0	43	0	725614592	22	4953
2026-01-03 12:36:40.14	311.33	42.22	-30.5	-33.4	18.8	6.06e-01	0	43	0	727711744	22	5059
2026-01-03 12:36:41.14	311.68	41.95	-30.4	-33.2	18.9	6.04e-01	0	43	0	729284608	22	4971
2026-01-03 12:36:42.15	312.04	41.69	-30.3	-33.0	19.0	6.07e-01	0	43	0	731381760	22	4896
2026-01-03 12:36:43.15	312.38	41.43	-30.3	-33.0	19.0	6.06e-01	0	43	0	733478912	22	4910
2026-01-03 12:36:44.16	312.72	41.16	-30.4	-33.2	18.9	6.07e-01	0	43	0	735051776	22	4974
2026-01-03 12:36:45.16	313.05	40.90	-30.7	-34.0	18.4	6.08e-01	0	43	0	737148928	22	5294
2026-01-03 12:36:46.17	313.38	40.64	-30.7	-34.2	18.2	6.08e-01	0	43	0	738721792	22	5371
2026-01-03 12:36:47.18	313.71	40.38	-30.4	-33.4	18.7	6.07e-01	0	43	0	740818944	22	5043
2026-01-03 12:36:48.19	314.03	40.12	-30.4	-33.3	18.9	6.05e-01	0	43	0	742391808	22	5004
2026-01-03 12:36:49.20	314.34	39.86	-30.4	-33.4	18.8	6.06e-01	0	43	0	744488960	22	5035
2026-01-03 12:36:50.20	314.65	39.61	-30.3	-33.0	19.0	6.07e-01	0	43	0	746586112	22	4927
2026-01-03 12:36:51.21	314.96	39.35	-30.4	-33.2	18.9	6.07e-01	0	43	0	748158976	22	4984
2026-01-03 12:36:52.22	315.26	39.10	-30.5	-33.6	18.6	6.07e-01	0	43	0	750256128	22	5148
2026-01-03 12:36:53.22	315.55	38.84	-30.4	-33.3	18.9	6.06e-01	0	43	0	751828992	22	5015
2026-01-03 12:36:54.23	315.84	38.59	-30.5	-33.4	18.8	6.05e-01	0	43	0	753926144	22	5056
2026-01-03 12:36:55.24	316.13	38.34	-30.5	-33.4	18.7	6.06e-01	0	43	0	756023296	22	5069
2026-01-03 12:36:56.25	316.41	38.09	-30.3	-33.0	19.0	6.06e-01	0	43	0	757596160	22	4922
2026-01-03 12:36:57.24	316.68	37.84	-30.2	-32.7	19.2	6.06e-01	0	43	0	759693312	22	4811
2026-01-03 12:36:58.25	316.95	37.60	-30.2	-32.7	19.2	6.05e-01	0	43	0	761266176	22	4806
2026-01-03 12:36:59.25	317.22	37.35	-30.4	-33.1	18.9	6.05e-01	0	43	0	763363328	22	4968
2026-01-03 12:37:00.25	317.48	37.11	-30.4	-33.3	18.8	6.07e-01	0	43	0	765460480	22	5012
2026-01-03 12:37:01.26	317.75	36.87	-30.0	-32.2	19.5	6.06e-01	0	43	0	767033344	22	4628
2026-01-03 12:37:02.27	318.00	36.62	-29.8	-32.2	19.8	6.06e-01	0	43	0	769130496	21	4754
2026-01-03 12:37:03.27	318.25	36.38	-29.7	-32.0	19.9	6.08e-01	0	43	0	770703360	21	4694
2026-01-03 12:37:04.28	318.50	36.14	-29.7	-32.1	19.9	6.07e-01	0	43	0	772800512	21	4697
2026-01-03 12:37:05.28	318.75	35.91	-29.8	-32.3	19.7	6.06e-01	0	43	0	774897664	21	4776
2026-01-03 12:37:06.29	318.99	35.67	-29.9	-32.5	19.6	6.06e-01	0	43	0	776470528	21	4865
2026-01-03 12:37:07.29	319.23	35.44	-29.8	-32.2	19.8	6.07e-01	0	43	0	778567680	21	4757
2026-01-03 12:37:08.30	319.46	35.20	-29.8	-32.3	19.7	6.02e-01	0	43	0	780140544	21	4777
2026-01-03 12:37:09.30	319.69	34.97	-29.9	-32.4	19.7	6.03e-01	0	43	0	782237696	21	4811
2026-01-03 12:37:10.31	319.92	34.74	-29.8	-32.1	19.8	6.03e-01	0	43	0	784334848	21	4733
2026-01-03 12:37:11.31	320.15	34.51	-29.6	-31.8	20.0	6.04e-01	0	43	0	785907712	21	4626
2026-01-03 12:37:12.32	320.37	34.28	-29.5	-31.6	20.1	6.03e-01	0	43	0	788004864	21	4554
2026-01-03 12:37:13.31	320.59	34.06	-29.6	-31.8	20.0	6.03e-01	0	43	0	789577728	21	4614
2026-01-03 12:37:14.32	320.80	33.83	-29.6	-31.8	20.0	6.02e-01	0	43	0	791674880	21	4634
2026-01-03 12:37:15.33	321.02	33.60	-29.5	-31.5	20.1	6.06e-01	0	43	0	793772032	21	4529
2026-01-03 12:37:16.34	321.23	33.38	-29.6	-31.7	20.0	6.04e-01	0	43	0	795344896	21	4578
2026-01-03 12:37:17.34	321.43	33.16	-29.3	-31.5	20.4	6.01e-01	0	43	0	797442048	20	4622
2026-01-03 12:37:18.34	321.64	32.94	-29.2	-31.2	20.6	6.03e-01	0	43	0	799014912	20	4541
2026-01-03 12:37:19.35	321.84	32.72	-29.3	-31.4	20.5	6.03e-01	0	43	0	801112064	20	4615
2026-01-03 12:37:20.35	322.04	32.50	-29.1	-30.9	20.8	6.03e-01	0	43	0	803209216	20	4441
2026-01-03 12:37:21.36	322.23	32.28	-29.0	-30.7	20.9	6.04e-01	0	43	0	804782080	20	4393
2026-01-03 12:37:22.37	322.43	32.07	-29.0	-30.7	20.9	6.03e-01	0	43	0	806879232	20	4380
2026-01-03 12:37:23.38	322.62	31.85	-28.9	-30.6	21.0	6.05e-01	0	43	0	808452096	20	4348
2026-01-03 12:37:24.38	322.81	31.64	-28.9	-30.4	21.0	6.07e-01	0	43	0	810549248	20	4303
2026-01-03 12:37:25.39	322.99	31.43	-29.0	-30.6	20.9	6.03e-01	0	43	0	812122112	20	4366
2026-01-03 12:37:26.40	323.18	31.22	-29.0	-30.7	20.8	6.00e-01	0	43	0	814219264	20	4396
2026-01-03 12:37:27.40	323.36	31.01	-29.0	-30.9	20.8	6.06e-01	0	43	0	816316416	20	4441
2026-01-03 12:37:28.41	323.54	30.80	-29.1	-31.0	20.7	6.04e-01	0	43	0	817889280	20	4476
2026-01-03 12:37:29.41	323.71	30.60	-29.1	-31.0	20.6	6.01e-01	0	43	0	819986432	20	4493
2026-01-03 12:37:30.42	323.89	30.39	-29.1	-31.1	20.6	6.05e-01	0	43	0	822083584	20	4517
2026-01-03 12:37:31.42	324.06	30.19	-29.1	-30.9	20.7	6.04e-01	0	43	0	823656448	20	4460
2026-01-03 12:37:32.42	324.23	29.99	-29.1	-30.9	20.7	6.05e-01	0	43	0	825753600	20	4461
2026-01-03 12:37:33.43	324.39	29.79	-29.1	-31.1	20.7	6.06e-01	0	43	0	827326464	20	4494
2026-01-03 12:37:34.44	324.56	29.59	-29.2	-31.1	20.6	6.02e-01	0	43	0	829423616	20	4523
2026-01-03 12:37:35.44	324.72	29.39	-29.3	-31.6	20.4	6.02e-01	0	43	0	830996480	20	4663
2026-01-03 12:37:36.44	324.88	29.19	-29.4	-31.8	20.2	6.04e-01	0	43	0	833093632	20	4737
2026-01-03 12:37:37.44	325.04	29.00	-29.4	-31.6	20.3	6.03e-01	0	43	0	835190784	20	4689
2026-01-03 12:37:38.45	325.20	28.80	-29.4	-31.8	20.2	6.05e-01	0	43	0	836763648	20	4741
2026-01-03 12:37:39.45	325.36	28.61	-29.4	-31.8	20.2	6.05e-01	0	43	0	838860800	20	4731
2026-01-03 12:37:40.45	325.51	28.42	-29.2	-31.3	20.5	6.03e-01	0	43	0	840433664	20	4580
2026-01-03 12:37:41.46	325.66	28.23	-29.2	-31.4	20.4	6.05e-01	0	43	0	842530816	20	4588
2026-01-03 12:37:42.46	325.81	28.04	-29.3	-31.5	20.3	6.02e-01	0	43	0	844627968	20	4646
2026-01-03 12:37:43.47	325.96	27.85	-29.4	-31.7	20.2	6.03e-01	0	43	0	846200832	20	4707
2026-01-03 12:37:44.48	326.11	27.66	-29.4	-31.8	20.2	6.03e-01	0	43	0	848297984	20	4737
2026-01-03 12:37:45.49	326.25	27.48	-29.5	-32.0	20.0	6.02e-01	0	43	0	849870848	20	4810
2026-01-03 12:37:46.49	326.40	27.29	-29.6	-32.2	19.9	6.03e-01	0	43	0	851968000	20	4862
2026-01-03 12:37:47.50	326.54	27.11	-29.6	-32.3	19.8	6.03e-01	0	43	0	854065152	20	4913
2026-01-03 12:37:48.50	326.68	26.93	-29.6	-32.3	19.8	6.04e-01	0	43	0	855638016	20	4924
2026-01-03 12:37:49.51	326.82	26.74	-29.6	-32.4	19.8	6.03e-01	0	43	0	857735168	20	4943
2026-01-03 12:37:50.51	326.95	26.56	-29.7	-32.5	19.8	6.01e-01	0	43	0	859308032	20	4968
2026-01-03 12:37:51.52	327.09	26.39	-29.8	-32.7	19.6	6.06e-01	0	43	0	861405184	20	5067
2026-01-03 12:37:52.53	327.22	26.21	-29.8	-32.7	19.6	6.04e-01	0	43	0	863502336	20	5051
2026-01-03 12:37:53.53	327.35	26.03	-29.6	-32.4	19.8	6.07e-01	0	43	0	865075200	20	4926
2026-01-03 12:37:54.53	327.48	25.86	-29.6	-32.2	19.9	6.03e-01	0	43	0	867172352	20	4880
2026-01-03 12:37:55.54	327.61	25.68	-29.6	-32.2	19.9	6.03e-01	0	43	0	868745216	20	4886
2026-01-03 12:37:56.54	327.74	25.51	-29.6	-32.3	19.9	6.04e-01	0	43	0	870842368	20	4892
2026-01-03 12:37:57.55	327.87	25.33	-29.7	-32.5	19.7	6.05e-01	0	43	0	872939520	20	4989
2026-01-03 12:37:58.55	327.99	25.16	-29.7	-32.6	19.6	6.02e-01	0	43	0	874512384	20	5029
2026-01-03 12:37:59.56	328.12	24.99	-29.7	-32.5	19.7	6.06e-01	0	43	0	876609536	20	4964
2026-01-03 12:38:00.57	328.24	24.82	-29.7	-32.5	19.7	6.03e-01	0	43	0	878182400	20	4992
2026-01-03 12:38:01.58	328.36	24.65	-29.8	-32.7	19.5	6.05e-01	0	43	0	880279552	20	5068
2026-01-03 12:38:02.58	328.48	24.49	-29.8	-32.9	19.4	6.05e-01	0	43	0	882376704	20	5124
2026-01-03 12:38:03.59	328.60	24.32	-29.8	-32.9	19.4	6.02e-01	0	43	0	883949568	20	5125
2026-01-03 12:38:04.60	328.72	24.15	-29.9	-33.1	19.3	6.03e-01	0	43	0	886046720	20	5190
2026-01-03 12:38:05.61	328.83	23.99	-29.9	-33.1	19.3	6.01e-01	0	43	0	887619584	20	5189
2026-01-03 12:38:06.61	328.95	23.83	-29.9	-33.1	19.3	6.04e-01	0	43	0	889716736	20	5191
2026-01-03 12:38:07.61	329.06	23.67	-29.9	-33.1	19.3	6.06e-01	0	43	0	891813888	20	5193
2026-01-03 12:38:08.61	329.17	23.51	-30.0	-33.3	19.1	6.02e-01	0	43	0	893386752	20	5271
2026-01-03 12:38:09.62	329.29	23.34	-30.0	-33.2	19.2	6.05e-01	0	43	0	895483904	20	5250
2026-01-03 12:38:10.63	329.40	23.18	-29.8	-32.8	19.5	6.01e-01	0	43	0	897056768	20	5075
2026-01-03 12:38:11.63	329.51	23.03	-29.7	-32.5	19.6	6.02e-01	0	43	0	899153920	20	4988
2026-01-03 12:38:12.63	329.61	22.87	-29.7	-32.5	19.7	6.06e-01	0	43	0	900726784	20	4968
2026-01-03 12:38:13.63	329.72	22.72	-29.6	-32.3	19.7	6.03e-01	0	43	0	902823936	20	4920
2026-01-03 12:38:14.63	329.82	22.56	-29.6	-32.3	19.7	6.05e-01	0	43	0	904921088	20	4930
2026-01-03 12:38:15.64	329.93	22.41	-29.6	-32.4	19.7	6.04e-01	0	43	0	906493952	20	4954
2026-01-03 12:38:16.64	330.03	22.25	-29.6	-32.4	19.7	6.04e-01	0	43	0	908591104	20	4945
2026-01-03 12:38:17.65	330.14	22.10	-29.7	-32.6	19.6	6.04e-01	0	43	0	910688256	20	5006
2026-01-03 12:38:18.66	330.24	21.95	-29.7	-32.5	19.6	6.02e-01	0	43	0	912261120	20	4989
2026-01-03 12:38:19.67	330.34	21.80	-29.7	-32.6	19.5	6.04e-01	0	43	0	914358272	20	5036
2026-01-03 12:38:20.68	330.44	21.65	-29.7	-32.5	19.6	6.04e-01	0	43	0	915931136	20	5000
2026-01-03 12:38:21.69	330.54	21.50	-29.8	-32.8	19.4	6.05e-01	0	43	0	918028288	20	5105
2026-01-03 12:38:22.69	330.64	21.35	-29.7	-32.6	19.5	6.02e-01	0	43	0	919601152	20	5043
2026-01-03 12:38:23.69	330.73	21.20	-29.6	-32.3	19.7	6.05e-01	0	43	0	921698304	20	4922
2026-01-03 12:38:24.70	330.83	21.06	-29.5	-32.2	19.7	6.03e-01	0	43	0	923795456	20	4893
2026-01-03 12:38:25.71	330.92	20.91	-29.6	-32.2	19.8	6.04e-01	0	43	0	925368320	20	4892
2026-01-03 12:38:26.72	331.02	20.76	-29.6	-32.4	19.7	6.06e-01	0	43	0	927465472	20	4960
2026-01-03 12:38:27.72	331.11	20.62	-29.6	-32.4	19.6	6.02e-01	0	43	0	929038336	20	4946
2026-01-03 12:38:28.73	331.21	20.48	-29.6	-32.4	19.6	6.02e-01	0	43	0	931135488	20	4971
2026-01-03 12:38:29.74	331.30	20.33	-29.7	-32.5	19.5	6.02e-01	0	43	0	933232640	20	4990
2026-01-03 12:38:30.74	331.39	20.19	-29.6	-32.4	19.6	6.04e-01	0	43	0	934805504	20	4963
2026-01-03 12:38:31.75	331.48	20.05	-29.6	-32.4	19.6	6.04e-01	0	43	0	936902656	20	4945
2026-01-03 12:38:32.76	331.57	19.91	-29.7	-32.5	19.5	6.04e-01	0	43	0	938999808	20	4993
2026-01-03 12:38:33.76	331.65	19.77	-29.6	-32.3	19.6	6.04e-01	0	43	0	940572672	20	4937
2026-01-03 12:38:34.77	331.74	19.64	-29.6	-32.5	19.5	6.06e-01	0	43	0	942669824	20	4987
2026-01-03 12:38:35.77	331.83	19.50	-29.5	-32.2	19.6	6.04e-01	0	43	0	944242688	20	4901
2026-01-03 12:38:36.78	331.92	19.36	-29.5	-32.0	19.7	6.03e-01	0	43	0	946339840	20	4831
2026-01-03 12:38:37.78	332.00	19.23	-29.4	-32.0	19.8	6.05e-01	0	43	0	947912704	20	4811
2026-01-03 12:38:38.78	332.08	19.09	-29.4	-31.9	19.8	6.03e-01	0	43	0	950009856	20	4802
2026-01-03 12:38:39.79	332.17	18.96	-29.5	-32.1	19.7	6.01e-01	0	43	0	952107008	20	4843
2026-01-03 12:38:40.80	332.25	18.82	-29.5	-32.0	19.8	6.00e-01	0	43	0	953679872	20	4830
2026-01-03 12:38:41.80	332.33	18.69	-29.5	-32.0	19.7	6.06e-01	0	43	0	955777024	20	4834
2026-01-03 12:38:42.80	332.41	18.56	-29.5	-32.2	19.6	6.02e-01	0	43	0	957349888	20	4900
2026-01-03 12:38:43.80	332.49	18.43	-29.5	-32.1	19.7	6.01e-01	0	43	0	959447040	20	4852
2026-01-03 12:38:44.81	332.57	18.30	-29.5	-32.1	19.7	6.06e-01	0	43	0	961544192	20	4859
2026-01-03 12:38:45.81	332.65	18.17	-29.5	-32.1	19.7	6.04e-01	0	43	0	963117056	20	4855
2026-01-03 12:38:46.82	332.73	18.04	-29.6	-32.3	19.5	6.03e-01	0	43	0	965214208	20	4935
2026-01-03 12:38:47.83	332.81	17.91	-29.6	-32.5	19.4	6.03e-01	0	43	0	966787072	20	5016
2026-01-03 12:38:48.83	332.89	17.78	-29.6	-32.4	19.5	6.04e-01	0	43	0	968884224	20	4964
2026-01-03 12:38:49.83	332.96	17.66	-29.5	-32.2	19.6	6.04e-01	0	43	0	970457088	20	4900
2026-01-03 12:38:50.83	333.04	17.53	-29.5	-32.3	19.6	6.04e-01	0	43	0	972554240	20	4922
2026-01-03 12:38:51.84	333.12	17.40	-29.5	-32.1	19.6	6.04e-01	0	43	0	974651392	20	4881
2026-01-03 12:38:52.85	333.19	17.28	-29.5	-32.1	19.7	6.05e-01	0	43	0	976224256	20	4860
2026-01-03 12:38:53.85	333.27	17.15	-29.5	-32.2	19.6	6.04e-01	0	43	0	978321408	20	4914
2026-01-03 12:38:54.86	333.34	17.03	-29.4	-32.0	19.7	6.03e-01	0	43	0	980418560	20	4829
2026-01-03 12:38:55.86	333.41	16.91	-29.4	-31.9	19.8	6.02e-01	0	43	0	981991424	20	4792
2026-01-03 12:38:56.87	333.48	16.78	-29.5	-32.1	19.6	6.02e-01	0	43	0	984088576	20	4868
2026-01-03 12:38:57.88	333.56	16.66	-29.4	-32.0	19.7	6.05e-01	0	43	0	985661440	20	4828
2026-01-03 12:38:58.88	333.63	16.54	-29.4	-31.9	19.7	6.05e-01	0	43	0	987758592	20	4804
2026-01-03 12:38:59.88	333.70	16.42	-29.5	-32.2	19.5	6.01e-01	0	43	0	989331456	20	4916
2026-01-03 12:39:00.88	333.77	16.30	-29.4	-32.0	19.6	6.05e-01	0	43	0	991428608	20	4853
2026-01-03 12:39:01.89	333.84	16.18	-29.6	-32.4	19.4	6.03e-01	0	43	0	993525760	20	4989
2026-01-03 12:39:02.89	333.91	16.06	-29.5	-32.2	19.5	6.05e-01	0	43	0	995098624	20	4925
2026-01-03 12:39:03.89	333.97	15.95	-29.4	-32.0	19.7	6.03e-01	0	43	0	997195776	20	4834
2026-01-03 12:39:04.90	334.04	15.83	-29.4	-31.9	19.8	6.04e-01	0	43	0	998768640	20	4801
2026-01-03 12:39:05.91	334.11	15.71	-29.4	-32.1	19.6	6.02e-01	0	43	0	1000865792	20	4860
2026-01-03 12:39:06.91	334.18	15.59	-29.4	-32.0	19.7	6.04e-01	0	43	0	1002962944	20	4826
2026-01-03 12:39:07.92	334.24	15.48	-29.4	-31.9	19.6	6.04e-01	0	43	0	1004535808	20	4823
2026-01-03 12:39:08.92	334.31	15.36	-29.4	-31.9	19.7	6.03e-01	0	43	0	1006632960	20	4802
2026-01-03 12:39:09.92	334.37	15.25	-29.4	-32.0	19.6	6.03e-01	0	43	0	1008205824	20	4850
2026-01-03 12:39:10.93	334.44	15.13	-29.4	-32.0	19.6	6.02e-01	0	43	0	1010302976	20	4835
2026-01-03 12:39:11.94	334.50	15.02	-29.4	-32.1	19.6	6.02e-01	0	43	0	1012400128	20	4869
2026-01-03 12:39:12.95	334.57	14.91	-29.5	-32.3	19.4	6.03e-01	0	43	0	1013972992	20	4948
2026-01-03 12:39:13.95	334.63	14.80	-29.4	-32.1	19.4	6.06e-01	0	43	0	1016070144	20	4887
2026-01-03 12:39:14.96	334.70	14.68	-29.5	-32.2	19.3	6.02e-01	0	43	0	1017643008	20	4940
2026-01-03 12:39:15.96	334.76	14.57	-29.7	-32.7	19.0	6.03e-01	0	43	0	1019740160	20	5119
2026-01-03 12:39:16.97	334.82	14.46	-29.5	-32.4	19.3	6.05e-01	0	43	0	1021837312	20	4984
2026-01-03 12:39:17.98	334.88	14.35	-29.5	-32.1	19.5	6.04e-01	0	43	0	1023410176	20	4893
2026-01-03 12:39:18.98	334.94	14.24	-29.5	-32.1	19.5	6.04e-01	0	43	0	1025507328	20	4897
2026-01-03 12:39:19.98	335.00	14.13	-29.5	-32.2	19.4	6.05e-01	0	43	0	1027080192	20	4921
2026-01-03 12:39:20.99	335.06	14.02	-29.4	-32.0	19.5	6.03e-01	0	43	0	1029177344	20	4850
2026-01-03 12:39:22.00	335.12	13.91	-29.5	-32.2	19.4	6.05e-01	0	43	0	1031274496	20	4913
2026-01-03 12:39:23.01	335.18	13.81	-29.5	-32.3	19.3	6.02e-01	0	43	0	1032847360	20	4953
2026-01-03 12:39:24.01	335.24	13.70	-29.4	-32.0	19.5	6.05e-01	0	43	0	1034944512	20	4852
2026-01-03 12:39:25.02	335.30	13.59	-29.4	-32.0	19.5	6.04e-01	0	43	0	1036517376	20	4844
2026-01-03 12:39:26.03	335.36	13.49	-29.4	-32.1	19.4	6.03e-01	0	43	0	1038614528	20	4885
2026-01-03 12:39:27.03	335.42	13.38	-29.5	-32.3	19.3	6.04e-01	0	43	0	1040711680	20	4955
2026-01-03 12:39:28.04	335.47	13.28	-29.4	-32.1	19.4	6.02e-01	0	43	0	1042284544	20	4888
2026-01-03 12:39:29.04	335.53	13.17	-29.4	-32.1	19.4	6.01e-01	0	43	0	1044381696	20	4891
2026-01-03 12:39:30.05	335.59	13.07	-29.5	-32.2	19.3	6.01e-01	0	43	0	1045954560	20	4933
2026-01-03 12:39:31.06	335.64	12.96	-29.5	-32.2	19.3	6.06e-01	0	43	0	1048051712	20	4937
2026-01-03 12:39:32.06	335.70	12.86	-29.5	-32.3	19.2	6.03e-01	0	43	0	1050148864	20	4964
2026-01-03 12:39:33.06	335.75	12.76	-29.6	-32.5	19.1	6.00e-01	0	43	0	1051721728	20	5042
2026-01-03 12:39:34.07	335.81	12.65	-29.6	-32.5	19.2	6.04e-01	0	43	0	1053818880	20	5037
2026-01-03 12:39:35.07	335.86	12.55	-29.7	-32.7	19.0	6.02e-01	0	43	0	1055391744	20	5110
2026-01-03 12:39:36.08	335.92	12.45	-29.6	-32.6	19.1	6.04e-01	0	43	0	1057488896	20	5071
2026-01-03 12:39:37.09	335.97	12.35	-29.6	-32.6	19.1	6.04e-01	0	43	0	1059061760	20	5079
2026-01-03 12:39:38.10	336.03	12.25	-29.7	-32.7	19.1	6.03e-01	0	43	0	1061158912	20	5109
2026-01-03 12:39:39.10	336.08	12.15	-29.7	-32.9	18.9	6.05e-01	0	43	0	1063256064	20	5172
2026-01-03 12:39:40.11	336.13	12.05	-29.8	-33.2	18.7	6.02e-01	0	43	0	1064828928	20	5294
2026-01-03 12:39:41.11	336.18	11.95	-29.8	-33.0	18.8	6.02e-01	0	43	0	1066926080	20	5231
2026-01-03 12:39:42.11	336.24	11.85	-29.9	-33.4	18.6	6.03e-01	0	43	0	1069023232	20	5398
2026-01-03 12:39:43.12	336.29	11.75	-29.8	-33.1	18.8	6.04e-01	0	43	0	1070596096	20	5273
2026-01-03 12:39:44.12	336.34	11.66	-30.1	-33.8	18.3	6.03e-01	0	43	0	1072693248	20	5557
2026-01-03 12:39:45.13	336.39	11.56	-29.9	-33.3	18.7	6.05e-01	0	43	0	1074266112	20	5332
2026-01-03 12:39:46.13	336.44	11.46	-29.8	-33.1	18.8	6.03e-01	0	43	0	1076363264	20	5258
2026-01-03 12:39:47.14	336.49	11.36	-29.9	-33.3	18.6	6.04e-01	0	43	0	1077936128	20	5328
2026-01-03 12:39:48.14	336.54	11.27	-29.8	-33.1	18.7	6.04e-01	0	43	0	1080033280	20	5271
2026-01-03 12:39:49.15	336.59	11.17	-29.9	-33.3	18.6	6.03e-01	0	43	0	1082130432	20	5361
2026-01-03 12:39:50.15	336.64	11.08	-29.8	-33.2	18.7	6.04e-01	0	43	0	1083703296	20	5306
2026-01-03 12:39:51.16	336.69	10.98	-29.9	-33.4	18.6	6.05e-01	0	43	0	1085800448	20	5366
2026-01-03 12:39:52.17	336.74	10.89	-30.0	-33.6	18.4	6.05e-01	0	43	0	1087373312	20	5470
2026-01-03 12:39:53.18	336.79	10.79	-29.9	-33.3	18.5	6.04e-01	0	43	0	1089470464	20	5347
2026-01-03 12:39:54.19	336.84	10.70	-29.7	-33.0	18.7	6.02e-01	0	43	0	1091567616	20	5229
2026-01-03 12:39:55.19	336.88	10.60	-29.8	-33.0	18.7	6.04e-01	0	43	0	1093140480	20	5237
2026-01-03 12:39:56.20	336.93	10.51	-29.8	-33.1	18.7	6.02e-01	0	43	0	1095237632	20	5264
2026-01-03 12:39:57.21	336.98	10.42	-29.7	-33.0	18.8	6.04e-01	0	43	0	1097334784	20	5222
2026-01-03 12:39:58.22	337.03	10.32	-29.8	-33.1	18.7	6.02e-01	0	43	0	1098907648	20	5285
2026-01-03 12:39:59.22	337.07	10.23	-29.8	-33.2	18.6	6.02e-01	0	43	0	1101004800	20	5303
2026-01-03 12:40:00.23	337.12	10.14	-29.9	-33.3	18.5	6.04e-01	0	43	0	1102577664	20	5373
2026-01-03 12:40:01.23	337.16	10.05	-29.8	-33.1	18.7	6.02e-01	0	43	0	1104674816	20	5284
2026-01-03 12:40:02.24	337.21	9.96	-29.8	-33.2	18.6	6.06e-01	0	43	0	1106247680	20	5304
2026-01-03 12:40:03.24	337.26	9.87	-29.8	-33.2	18.6	6.04e-01	0	43	0	1108344832	20	5311
2026-01-03 12:40:04.25	337.30	9.78	-29.8	-33.3	18.5	6.04e-01	0	43	0	1110441984	20	5342
2026-01-03 12:40:05.26	337.35	9.69	-29.9	-33.4	18.5	6.03e-01	0	43	0	1112014848	20	5389
2026-01-03 12:40:06.26	337.39	9.60	-29.9	-33.5	18.3	6.04e-01	0	43	0	1114112000	20	5450
2026-01-03 12:40:07.26	337.44	9.51	-29.9	-33.4	18.4	6.04e-01	0	43	0	1115684864	20	5412
2026-01-03 12:40:08.27	337.48	9.42	-29.9	-33.6	18.3	6.06e-01	0	43	0	1117782016	20	5469
2026-01-03 12:40:09.28	337.52	9.33	-30.0	-33.9	18.1	6.03e-01	0	43	0	1119879168	20	5601
2026-01-03 12:40:10.28	337.57	9.24	-29.9	-33.5	18.3	6.02e-01	0	43	0	1121452032	20	5461
2026-01-03 12:40:11.28	337.61	9.16	-29.9	-33.5	18.3	6.06e-01	0	43	0	1123549184	20	5452
2026-01-03 12:40:12.29	337.65	9.07	-29.9	-33.6	18.2	6.03e-01	0	43	0	1125122048	20	5502
2026-01-03 12:40:13.29	337.70	8.98	-30.0	-33.7	18.2	6.04e-01	0	43	0	1127219200	20	5511
2026-01-03 12:40:14.29	337.74	8.89	-29.9	-33.6	18.2	6.03e-01	0	43	0	1128792064	20	5498
2026-01-03 12:40:15.30	337.78	8.81	-30.0	-33.7	18.2	6.04e-01	0	43	0	1130889216	20	5549
2026-01-03 12:40:16.31	337.82	8.72	-30.0	-33.8	18.1	6.04e-01	0	43	0	1132986368	20	5569
2026-01-03 12:40:17.31	337.87	8.64	-29.9	-33.6	18.2	6.03e-01	0	43	0	1134559232	20	5486
2026-01-03 12:40:18.32	337.91	8.55	-30.1	-34.0	18.0	6.03e-01	0	43	0	1136656384	20	5647
2026-01-03 12:40:19.33	337.95	8.46	-30.0	-33.8	18.0	6.04e-01	0	43	0	1138753536	20	5600
2026-01-03 12:40:20.33	337.99	8.38	-30.0	-33.9	18.0	6.03e-01	0	43	0	1140326400	20	5607
2026-01-03 12:40:21.34	338.03	8.29	-30.1	-34.0	17.9	6.04e-01	0	43	0	1142423552	20	5682
2026-01-03 12:40:22.35	338.07	8.21	-30.2	-33.9	17.6	6.03e-01	0	43	0	1143996416	21	5500
2026-01-03 12:40:23.35	338.11	8.13	-30.3	-34.2	17.4	6.04e-01	0	43	0	1146093568	21	5656
2026-01-03 12:40:24.36	338.15	8.04	-30.2	-34.0	17.5	6.03e-01	0	43	0	1148190720	21	5554
2026-01-03 12:40:25.36	338.19	7.96	-30.3	-34.2	17.4	6.03e-01	0	43	0	1149763584	21	5658
2026-01-03 12:40:26.37	338.23	7.88	-30.2	-34.1	17.5	6.06e-01	0	43	0	1151860736	21	5589
2026-01-03 12:40:27.37	338.27	7.79	-30.2	-34.0	17.5	6.03e-01	0	43	0	1153433600	21	5556
2026-01-03 12:40:28.38	338.31	7.71	-30.2	-33.9	17.6	6.05e-01	0	43	0	1155530752	21	5516
2026-01-03 12:40:29.38	338.35	7.63	-30.2	-34.1	17.5	6.04e-01	0	43	0	1157103616	21	5601
2026-01-03 12:40:30.38	338.39	7.55	-30.3	-34.1	17.4	6.03e-01	0	43	0	1159200768	21	5608
2026-01-03 12:40:31.39	338.43	7.46	-30.3	-34.1	17.4	6.06e-01	0	43	0	1161297920	21	5610
2026-01-03 12:40:32.39	338.47	7.38	-30.3	-34.4	17.3	6.04e-01	0	43	0	1162870784	21	5720
2026-01-03 12:40:33.40	338.51	7.30	-30.4	-34.7	17.0	6.02e-01	0	43	0	1164967936	21	5873
2026-01-03 12:40:34.40	338.54	7.22	-30.3	-34.4	17.2	6.05e-01	0	43	0	1167065088	21	5744
2026-01-03 12:40:35.40	338.58	7.14	-30.4	-34.7	16.9	6.02e-01	0	43	0	1168637952	21	5903
2026-01-03 12:40:36.41	338.62	7.06	-33.0	-44.0	10.4	6.43e-01	0	43	0	1170735104	26	12777
2026-01-03 12:40:37.41	338.66	6.98	-33.6	-53.2	3.8	7.43e-01	0	43	104	1170735104	27	34256

#Closed at: 2026-01-03 12:40:38
#Recorded file [1170 MB]: D:/data/31010_260103_153011.dat